passes_logs/2026/01/04/R2.0S_Moscow/R2.0S_Moscow__20260104_093105_SUOMI_NPP_rec.log

#Pass ID: 20260104_093105_SUOMI NPP
#Satellite: SUOMI NPP
#Configuration: NPP
#almurnet v.1.7.20251203
#Start time: 2026-01-04 09:31:07

#Version: 2.2.20231116
#Station: R2.0S_Moscow
#Location: 37.707566 lon 55.798166 lat
#TLE: 1 37849U 11061A   26001.07732418  .00000182  00000+0  10735-3 0  9990
#TLE: 2 37849  98.7795 303.2470 0002580  87.2016 272.9455 14.19520779734739

#Time	Az	El	Level	Level2	SNR	BER	BlckErr	Temp	State	Recorded	gain1	gain2
2026-01-04 09:31:07.12	146.84	2.09	-43.7	-58.1	3.8	1.49e+00	0	47	0	0	57	20727
2026-01-04 09:31:08.12	146.82	2.16	-43.7	-58.1	3.8	1.49e+00	0	47	104	0	59	18488
2026-01-04 09:31:09.13	146.80	2.22	-43.7	-58.1	3.8	1.49e+00	0	47	104	0	58	19593
2026-01-04 09:31:10.14	146.78	2.29	-43.7	-58.1	3.8	1.49e+00	0	47	104	0	57	20738
2026-01-04 09:31:11.15	146.76	2.35	-43.7	-58.2	3.8	1.49e+00	0	47	104	0	57	20797
2026-01-04 09:31:12.16	146.74	2.42	-43.6	-58.1	3.8	1.49e+00	0	48	104	0	57	20740
2026-01-04 09:31:13.17	146.72	2.48	-43.7	-58.1	3.8	1.49e+00	0	48	104	0	57	20670
2026-01-04 09:31:14.18	146.70	2.55	-43.7	-58.1	3.8	1.49e+00	0	48	104	0	57	20713
2026-01-04 09:31:15.19	146.68	2.61	-43.7	-58.1	3.8	1.49e+00	0	48	104	0	57	20735
2026-01-04 09:31:16.20	146.66	2.68	-43.7	-58.1	3.8	1.49e+00	0	48	104	0	57	20767
2026-01-04 09:31:17.21	146.64	2.74	-43.7	-58.1	3.8	1.49e+00	0	48	104	0	57	20709
2026-01-04 09:31:18.23	146.62	2.81	-43.7	-58.1	3.8	1.49e+00	0	48	104	0	57	20675
2026-01-04 09:31:19.24	146.60	2.88	-43.7	-58.1	3.8	1.49e+00	0	48	104	0	57	20751
2026-01-04 09:31:20.25	146.58	2.94	-43.7	-58.1	3.8	1.49e+00	0	48	104	0	57	20767
2026-01-04 09:31:21.26	146.56	3.01	-43.7	-58.1	3.8	1.49e+00	0	48	104	0	57	20731
2026-01-04 09:31:22.27	146.54	3.08	-43.7	-58.1	3.8	1.49e+00	0	48	104	0	57	20749
2026-01-04 09:31:23.28	146.52	3.14	-43.7	-58.1	3.8	1.49e+00	0	48	104	0	57	20754
2026-01-04 09:31:24.29	146.50	3.21	-43.7	-58.1	3.8	1.49e+00	0	48	104	0	57	20763
2026-01-04 09:31:25.30	146.48	3.28	-43.7	-58.2	3.8	1.49e+00	0	49	104	0	57	20779
2026-01-04 09:31:26.31	146.46	3.35	-43.7	-58.1	3.8	1.49e+00	0	49	104	0	57	20689
2026-01-04 09:31:27.33	146.44	3.41	-43.6	-58.1	3.8	1.49e+00	0	49	104	0	57	20703
2026-01-04 09:31:28.34	146.42	3.48	-43.7	-58.1	3.8	1.49e+00	0	49	104	0	57	20726
2026-01-04 09:31:29.35	146.40	3.55	-43.7	-58.1	3.8	1.49e+00	0	49	104	0	57	20709
2026-01-04 09:31:30.36	146.38	3.62	-43.7	-58.1	3.8	1.49e+00	0	49	104	0	57	20702
2026-01-04 09:31:31.37	146.36	3.69	-43.7	-58.1	3.8	1.49e+00	0	49	104	0	57	20727
2026-01-04 09:31:32.38	146.34	3.75	-43.1	-58.0	3.8	1.49e+00	0	49	104	0	57	20496
2026-01-04 09:31:33.39	146.32	3.82	-43.7	-58.1	3.8	1.49e+00	0	49	104	0	57	20674
2026-01-04 09:31:34.40	146.29	3.89	-43.7	-58.1	3.8	1.49e+00	0	49	104	0	57	20762
2026-01-04 09:31:35.41	146.27	3.96	-43.6	-58.1	3.8	1.49e+00	0	49	104	0	57	20653
2026-01-04 09:31:36.42	146.25	4.03	-43.6	-58.1	3.8	1.49e+00	0	49	104	0	57	20674
2026-01-04 09:31:37.43	146.23	4.10	-43.7	-58.1	3.8	1.49e+00	0	49	104	0	57	20710
2026-01-04 09:31:38.45	146.21	4.17	-43.7	-58.1	3.8	1.49e+00	0	49	104	0	57	20715
2026-01-04 09:31:39.46	146.19	4.24	-43.7	-58.1	3.8	1.49e+00	0	49	104	0	57	20675
2026-01-04 09:31:40.47	146.16	4.31	-43.2	-58.1	3.8	1.49e+00	0	49	104	0	57	20560
2026-01-04 09:31:41.48	146.14	4.38	-43.7	-58.1	3.8	1.49e+00	0	49	104	0	57	20682
2026-01-04 09:31:42.49	146.12	4.45	-43.7	-58.1	3.8	1.49e+00	0	49	104	0	57	20718
2026-01-04 09:31:43.50	146.10	4.52	-43.6	-58.1	3.8	1.49e+00	0	50	104	0	57	20649
2026-01-04 09:31:44.51	146.07	4.59	-43.7	-58.1	3.8	1.49e+00	0	50	104	0	57	20599
2026-01-04 09:31:45.52	146.05	4.66	-43.7	-58.1	3.8	1.49e+00	0	50	104	0	57	20596
2026-01-04 09:31:46.53	146.03	4.73	-43.5	-58.0	3.8	1.49e+00	0	50	104	0	57	20465
2026-01-04 09:31:47.54	146.01	4.80	-43.7	-58.0	3.8	1.49e+00	0	50	104	0	57	20467
2026-01-04 09:31:48.55	145.98	4.87	-43.7	-58.0	3.8	1.49e+00	0	50	104	0	57	20408
2026-01-04 09:31:49.56	145.96	4.95	-43.7	-57.9	3.8	1.49e+00	0	50	104	0	57	20253
2026-01-04 09:31:50.57	145.94	5.02	-43.7	-57.9	3.8	1.49e+00	0	50	104	0	57	20222
2026-01-04 09:31:51.59	145.91	5.09	-43.7	-57.9	3.8	1.49e+00	0	50	104	0	57	20254
2026-01-04 09:31:52.60	145.89	5.16	-43.7	-57.9	3.8	1.49e+00	0	50	104	0	57	20148
2026-01-04 09:31:53.61	145.87	5.23	-43.7	-57.8	3.8	1.49e+00	0	50	104	0	57	19865
2026-01-04 09:31:54.62	145.84	5.31	-43.7	-57.7	3.8	1.49e+00	0	50	104	0	57	19737
2026-01-04 09:31:55.63	145.82	5.38	-43.6	-57.7	3.8	1.49e+00	0	50	104	0	57	19736
2026-01-04 09:31:56.64	145.79	5.45	-43.7	-57.6	3.8	1.49e+00	0	50	104	0	57	19593
2026-01-04 09:31:57.65	145.77	5.52	-43.7	-57.6	3.8	1.49e+00	0	50	104	0	57	19488
2026-01-04 09:31:58.66	145.75	5.60	-43.6	-57.4	3.8	1.49e+00	0	50	104	0	57	19160
2026-01-04 09:31:59.67	145.72	5.67	-43.7	-57.5	3.8	1.49e+00	0	51	104	0	57	19170
2026-01-04 09:32:00.68	145.70	5.74	-43.7	-57.6	3.8	1.49e+00	0	51	104	0	57	19455
2026-01-04 09:32:01.69	145.67	5.82	-43.6	-57.6	3.8	1.49e+00	0	51	104	0	57	19442
2026-01-04 09:32:02.71	145.65	5.89	-43.6	-57.5	3.8	1.49e+00	0	51	104	0	57	19177
2026-01-04 09:32:03.72	145.62	5.97	-43.7	-57.5	3.8	1.49e+00	0	50	104	0	57	19186
2026-01-04 09:32:04.73	145.60	6.04	-43.6	-57.5	3.8	1.49e+00	0	51	104	0	57	19324
2026-01-04 09:32:05.74	145.57	6.12	-43.6	-57.4	3.8	1.49e+00	0	51	104	0	57	18978
2026-01-04 09:32:06.75	145.55	6.19	-43.6	-57.5	3.8	1.49e+00	0	51	104	0	57	19216
2026-01-04 09:32:07.76	145.52	6.27	-43.6	-57.5	3.8	1.49e+00	0	51	104	0	57	19197
2026-01-04 09:32:08.77	145.49	6.34	-43.6	-57.5	3.8	1.49e+00	0	51	104	0	57	19308
2026-01-04 09:32:09.78	145.47	6.42	-43.1	-57.6	3.8	1.49e+00	0	51	104	0	57	19410
2026-01-04 09:32:10.79	145.44	6.49	-43.6	-57.5	3.8	1.49e+00	0	51	104	0	57	19349
2026-01-04 09:32:11.80	145.42	6.57	-43.6	-57.7	3.8	1.49e+00	0	51	104	0	57	19637
2026-01-04 09:32:12.81	145.39	6.64	-43.5	-57.7	3.8	1.49e+00	0	51	104	0	57	19693
2026-01-04 09:32:13.82	145.36	6.72	-43.0	-57.4	3.8	1.49e+00	0	51	104	0	57	19075
2026-01-04 09:32:14.84	145.34	6.80	-43.2	-57.0	3.8	1.49e+00	0	51	104	0	57	18273
2026-01-04 09:32:15.85	145.31	6.88	-43.5	-56.4	3.8	1.49e+00	0	51	104	0	57	17008
2026-01-04 09:32:16.86	145.28	6.95	-43.5	-55.5	3.9	1.49e+00	0	51	104	0	57	15273
2026-01-04 09:32:17.87	145.26	7.03	-43.4	-54.5	4.2	1.46e+00	0	51	0	0	57	13702
2026-01-04 09:32:18.88	145.23	7.11	-43.1	-53.1	4.7	1.27e+00	0	51	0	1048576	57	11560
2026-01-04 09:32:19.89	145.20	7.18	-43.2	-52.5	5.0	7.13e-01	0	52	0	2097152	57	10786
2026-01-04 09:32:20.90	145.17	7.26	-43.0	-51.1	6.0	4.82e-01	0	52	0	4194304	57	9207
2026-01-04 09:32:21.91	145.15	7.34	-42.9	-50.5	6.4	3.21e-01	0	51	0	6291456	57	8564
2026-01-04 09:32:22.92	145.12	7.42	-42.7	-49.5	7.3	1.35e-01	0	51	0	8388608	56	8126
2026-01-04 09:32:23.93	145.09	7.50	-42.4	-48.6	8.2	7.28e-02	0	52	0	10485760	56	7314
2026-01-04 09:32:24.94	145.06	7.58	-42.1	-47.7	9.1	3.81e-02	0	51	0	12582912	56	6609
2026-01-04 09:32:25.96	145.03	7.66	-41.7	-46.7	10.0	1.04e-02	0	52	0	13631488	55	6224
2026-01-04 09:32:26.96	145.00	7.73	-41.3	-46.0	10.7	5.51e-03	0	52	0	15728640	54	6090
2026-01-04 09:32:27.98	144.98	7.82	-41.0	-45.3	11.4	1.89e-03	0	52	0	17825792	53	5958
2026-01-04 09:32:28.98	144.95	7.89	-40.7	-44.6	12.2	3.23e-04	0	52	0	19922944	53	5470
2026-01-04 09:32:29.99	144.92	7.97	-40.5	-44.0	12.8	8.92e-05	0	52	0	22020096	52	5438
2026-01-04 09:32:31.00	144.89	8.05	-40.2	-43.5	13.2	3.73e-05	0	52	0	23068672	52	5145
2026-01-04 09:32:32.01	144.86	8.14	-44.0	-58.2	3.8	3.72e-02	0	52	104	24117248	58	19819
2026-01-04 09:32:33.02	144.83	8.22	-43.1	-51.0	6.1	1.26e+00	0	52	104	24117248	58	8598
2026-01-04 09:32:34.03	144.80	8.30	-40.5	-43.9	13.0	8.43e-04	0	52	0	25165824	51	5716
2026-01-04 09:32:35.04	144.77	8.38	-42.5	-48.7	8.1	1.34e-04	0	52	0	27262976	55	7876
2026-01-04 09:32:36.05	144.74	8.46	-42.2	-48.3	8.4	2.84e-03	0	52	0	29360128	54	7917
2026-01-04 09:32:37.06	144.71	8.54	-40.0	-43.1	13.7	1.10e-03	0	52	0	31457280	51	5216
2026-01-04 09:32:38.07	144.68	8.62	-39.6	-42.4	14.5	3.00e-06	0	52	0	32505856	51	4801
2026-01-04 09:32:39.08	144.65	8.71	-39.7	-42.5	14.4	1.50e-06	0	52	0	34603008	51	4836
2026-01-04 09:32:40.09	144.62	8.79	-39.9	-42.8	14.1	0.00e+00	0	52	0	36700160	51	5033
2026-01-04 09:32:41.10	144.59	8.87	-39.7	-42.5	14.5	7.00e-07	0	52	0	38797312	51	4834
2026-01-04 09:32:42.11	144.56	8.95	-39.7	-42.6	14.4	5.30e-06	0	52	0	40894464	50	5182
2026-01-04 09:32:43.12	144.52	9.04	-39.8	-42.7	14.3	2.20e-06	0	52	0	41943040	50	5256
2026-01-04 09:32:44.13	144.49	9.12	-39.8	-42.8	14.1	6.10e-06	0	52	0	44040192	50	5312
2026-01-04 09:32:45.14	144.46	9.21	-40.0	-43.0	14.0	3.80e-06	0	52	0	46137344	50	5434
2026-01-04 09:32:46.15	144.43	9.29	-40.1	-43.3	13.8	2.20e-06	0	52	0	48234496	50	5610
2026-01-04 09:32:47.17	144.40	9.38	-40.2	-43.3	13.8	6.10e-06	0	52	0	50331648	50	5627
2026-01-04 09:32:48.17	144.36	9.46	-40.2	-43.4	13.7	1.44e-05	0	52	0	51380224	51	5371
2026-01-04 09:32:49.18	144.33	9.54	-40.3	-43.6	13.5	8.30e-06	0	52	0	53477376	51	5492
2026-01-04 09:32:50.19	144.30	9.63	-40.3	-43.6	13.5	6.80e-06	0	52	0	55574528	51	5505
2026-01-04 09:32:51.20	144.27	9.72	-40.4	-43.7	13.4	1.14e-05	0	52	0	57671680	51	5582
2026-01-04 09:32:52.21	144.23	9.80	-40.4	-43.7	13.5	4.80e-05	0	53	0	59768832	51	5542
2026-01-04 09:32:53.22	144.20	9.89	-40.5	-43.8	13.4	9.90e-06	0	53	0	61865984	51	5646
2026-01-04 09:32:54.23	144.16	9.97	-40.3	-43.4	13.8	2.74e-05	0	53	0	62914560	51	5387
2026-01-04 09:32:55.24	144.13	10.06	-40.2	-43.3	13.9	7.60e-06	0	53	0	65011712	51	5336
2026-01-04 09:32:56.25	144.10	10.15	-40.2	-43.3	13.9	6.80e-06	0	53	0	67108864	51	5312
2026-01-04 09:32:57.26	144.06	10.24	-40.1	-43.2	14.0	5.30e-06	0	53	0	69206016	51	5224
2026-01-04 09:32:58.27	144.03	10.32	-39.9	-42.8	14.4	1.50e-06	0	53	0	71303168	51	5031
2026-01-04 09:32:59.28	143.99	10.41	-39.9	-42.7	14.5	7.00e-07	0	53	0	72351744	51	4976
2026-01-04 09:33:00.29	143.96	10.50	-39.7	-42.4	14.9	0.00e+00	0	53	0	74448896	51	4781
2026-01-04 09:33:01.30	143.92	10.59	-39.6	-42.1	15.2	0.00e+00	0	53	0	76546048	50	4913
2026-01-04 09:33:02.31	143.89	10.68	-39.5	-42.0	15.3	0.00e+00	0	53	0	78643200	50	4865
2026-01-04 09:33:03.32	143.85	10.77	-39.6	-42.1	15.2	0.00e+00	0	53	0	79691776	50	4921
2026-01-04 09:33:04.33	143.82	10.86	-39.5	-42.1	15.3	0.00e+00	0	53	0	81788928	50	4872
2026-01-04 09:33:05.34	143.78	10.95	-39.6	-42.2	15.2	0.00e+00	0	53	0	83886080	50	4932
2026-01-04 09:33:06.35	143.74	11.04	-39.8	-42.5	14.9	7.00e-07	0	53	0	85983232	50	5103
2026-01-04 09:33:07.36	143.71	11.13	-39.8	-42.5	14.9	7.00e-07	0	53	0	88080384	50	5142
2026-01-04 09:33:08.36	143.67	11.22	-40.0	-42.8	14.6	0.00e+00	0	53	0	90177536	50	5303
2026-01-04 09:33:09.37	143.63	11.31	-40.2	-43.2	14.2	0.00e+00	0	53	0	91226112	51	5272
2026-01-04 09:33:10.38	143.60	11.40	-40.3	-43.3	14.1	2.20e-06	0	53	0	93323264	51	5310
2026-01-04 09:33:11.39	143.56	11.49	-40.3	-43.4	14.0	3.80e-06	0	53	0	95420416	51	5373
2026-01-04 09:33:12.40	143.52	11.58	-40.4	-43.6	13.8	2.20e-06	0	53	0	97517568	51	5519
2026-01-04 09:33:13.41	143.48	11.68	-40.3	-43.5	14.0	6.80e-06	0	53	0	99614720	51	5418
2026-01-04 09:33:14.42	143.44	11.77	-40.2	-43.1	14.4	1.50e-06	0	53	0	100663296	51	5179
2026-01-04 09:33:15.43	143.40	11.86	-39.9	-42.7	14.8	0.00e+00	0	53	0	102760448	51	4971
2026-01-04 09:33:16.44	143.37	11.96	-39.8	-42.5	14.9	7.00e-07	0	53	0	104857600	51	4859
2026-01-04 09:33:17.45	143.33	12.05	-39.6	-42.2	15.3	0.00e+00	0	53	0	106954752	51	4680
2026-01-04 09:33:18.46	143.29	12.14	-39.5	-41.9	15.6	0.00e+00	0	53	0	109051904	50	4797
2026-01-04 09:33:19.47	143.25	12.24	-39.4	-41.8	15.7	0.00e+00	0	53	0	110100480	50	4750
2026-01-04 09:33:20.48	143.21	12.33	-39.2	-41.5	16.0	0.00e+00	0	53	0	112197632	50	4567
2026-01-04 09:33:21.49	143.17	12.43	-39.2	-41.5	16.0	0.00e+00	0	53	0	114294784	50	4574
2026-01-04 09:33:22.50	143.13	12.52	-39.3	-41.7	15.8	0.00e+00	0	53	0	116391936	50	4679
2026-01-04 09:33:23.51	143.09	12.62	-39.5	-41.9	15.6	0.00e+00	0	54	0	118489088	50	4801
2026-01-04 09:33:24.52	143.04	12.72	-39.6	-42.1	15.4	0.00e+00	0	53	0	119537664	50	4923
2026-01-04 09:33:25.53	143.00	12.81	-39.8	-42.6	15.0	0.00e+00	0	53	0	121634816	50	5188
2026-01-04 09:33:26.54	142.96	12.91	-40.2	-43.1	14.6	0.00e+00	0	53	0	123731968	50	5470
2026-01-04 09:33:27.54	142.92	13.01	-40.2	-43.1	14.5	7.00e-07	0	53	0	125829120	51	5192
2026-01-04 09:33:28.55	142.88	13.10	-40.3	-43.3	14.3	7.00e-07	0	53	0	127926272	51	5288
2026-01-04 09:33:29.56	142.83	13.20	-40.4	-43.4	14.2	1.50e-06	0	53	0	128974848	51	5352
2026-01-04 09:33:30.57	142.79	13.30	-40.1	-42.9	14.7	0.00e+00	0	53	0	131072000	51	5048
2026-01-04 09:33:31.58	142.75	13.40	-40.0	-42.7	14.9	0.00e+00	0	53	0	133169152	51	4958
2026-01-04 09:33:32.59	142.71	13.50	-39.7	-42.3	15.3	0.00e+00	0	54	0	135266304	51	4730
2026-01-04 09:33:33.60	142.66	13.60	-39.7	-42.2	15.5	0.00e+00	0	54	0	137363456	51	4653
2026-01-04 09:33:34.61	142.62	13.70	-39.3	-41.6	16.0	0.00e+00	0	53	0	138412032	50	4618
2026-01-04 09:33:35.62	142.57	13.80	-39.3	-41.6	16.1	0.00e+00	0	53	0	140509184	50	4631
2026-01-04 09:33:36.63	142.53	13.90	-39.1	-41.3	16.3	0.00e+00	0	54	0	142606336	50	4490
2026-01-04 09:33:37.64	142.48	14.00	-39.0	-41.2	16.4	0.00e+00	0	53	0	144703488	49	4659
2026-01-04 09:33:38.65	142.44	14.10	-39.1	-41.3	16.4	0.00e+00	0	54	0	146800640	49	4713
2026-01-04 09:33:39.66	142.39	14.21	-39.3	-41.6	16.0	0.00e+00	0	54	0	147849216	49	4882
2026-01-04 09:33:40.67	142.35	14.31	-39.3	-41.7	15.9	0.00e+00	0	54	0	149946368	49	4965
2026-01-04 09:33:41.68	142.30	14.41	-39.7	-42.2	15.4	0.00e+00	0	54	0	152043520	49	5250
2026-01-04 09:33:42.69	142.25	14.51	-39.9	-42.6	15.1	0.00e+00	0	54	0	154140672	50	5167
2026-01-04 09:33:43.70	142.21	14.62	-39.9	-42.6	15.1	0.00e+00	0	54	0	156237824	50	5197
2026-01-04 09:33:44.71	142.16	14.72	-40.2	-43.0	14.8	0.00e+00	0	54	0	158334976	50	5420
2026-01-04 09:33:45.72	142.11	14.83	-40.0	-42.7	15.0	7.00e-07	0	54	0	159383552	50	5267
2026-01-04 09:33:46.73	142.06	14.93	-39.7	-42.3	15.5	0.00e+00	0	54	0	161480704	50	5001
2026-01-04 09:33:47.74	142.01	15.04	-39.6	-42.1	15.7	0.00e+00	0	54	0	163577856	50	4892
2026-01-04 09:33:48.75	141.96	15.14	-39.3	-41.7	16.1	0.00e+00	0	54	0	165675008	50	4655
2026-01-04 09:33:49.76	141.92	15.25	-39.4	-41.7	16.1	0.00e+00	0	54	0	167772160	50	4654
2026-01-04 09:33:50.77	141.87	15.36	-39.3	-41.5	16.2	0.00e+00	0	54	0	168820736	50	4592
2026-01-04 09:33:51.78	141.82	15.47	-39.0	-41.2	16.5	0.00e+00	0	54	0	170917888	50	4409
2026-01-04 09:33:52.79	141.77	15.57	-39.0	-41.1	16.6	0.00e+00	0	54	0	173015040	50	4379
2026-01-04 09:33:53.80	141.71	15.68	-39.1	-41.3	16.5	0.00e+00	0	54	0	175112192	49	4709
2026-01-04 09:33:54.81	141.66	15.79	-39.1	-41.3	16.4	0.00e+00	0	54	0	177209344	49	4735
2026-01-04 09:33:55.82	141.61	15.90	-39.4	-41.7	16.0	0.00e+00	0	54	0	178257920	49	4965
2026-01-04 09:33:56.83	141.56	16.01	-39.5	-41.9	15.9	0.00e+00	0	54	0	180355072	49	5087
2026-01-04 09:33:57.84	141.51	16.12	-39.6	-42.1	15.7	0.00e+00	0	54	0	182452224	49	5168
2026-01-04 09:33:58.85	141.46	16.23	-39.7	-42.2	15.6	0.00e+00	0	54	0	184549376	50	4957
2026-01-04 09:33:59.86	141.40	16.34	-39.7	-42.1	15.7	0.00e+00	0	54	0	186646528	50	4923
2026-01-04 09:34:00.87	141.35	16.45	-39.7	-42.2	15.6	0.00e+00	0	54	0	187695104	50	4934
2026-01-04 09:34:01.88	141.29	16.56	-39.4	-41.7	16.1	0.00e+00	0	54	0	189792256	50	4686
2026-01-04 09:34:02.89	141.24	16.68	-39.0	-41.1	16.7	0.00e+00	0	54	0	191889408	49	4638
2026-01-04 09:34:03.90	141.19	16.79	-39.0	-41.2	16.6	0.00e+00	0	54	0	193986560	49	4653
2026-01-04 09:34:04.91	141.13	16.90	-39.1	-41.3	16.5	0.00e+00	0	54	0	196083712	49	4719
2026-01-04 09:34:05.92	141.07	17.02	-38.9	-41.0	16.8	0.00e+00	0	54	0	197132288	49	4582
2026-01-04 09:34:06.93	141.02	17.13	-39.3	-41.5	16.3	0.00e+00	0	54	0	199229440	49	4836
2026-01-04 09:34:07.94	140.96	17.25	-39.1	-41.3	16.5	0.00e+00	0	54	0	201326592	49	4746
2026-01-04 09:34:08.95	140.90	17.36	-39.5	-41.9	15.9	0.00e+00	0	54	0	203423744	49	5085
2026-01-04 09:34:09.96	140.85	17.48	-39.9	-42.5	15.4	0.00e+00	0	54	0	205520896	50	5123
2026-01-04 09:34:10.97	140.79	17.59	-40.2	-42.9	15.0	0.00e+00	0	54	0	207618048	50	5366
2026-01-04 09:34:11.98	140.73	17.71	-40.2	-42.9	15.0	0.00e+00	0	54	0	208666624	51	5084
2026-01-04 09:34:12.99	140.67	17.83	-40.0	-42.7	15.2	0.00e+00	0	54	0	210763776	51	4932
2026-01-04 09:34:14.00	140.61	17.95	-40.1	-42.8	15.0	0.00e+00	0	54	0	212860928	51	5034
2026-01-04 09:34:15.01	140.55	18.07	-40.0	-42.5	15.3	0.00e+00	0	54	0	214958080	51	4853
2026-01-04 09:34:16.02	140.49	18.19	-39.3	-41.5	16.3	0.00e+00	0	54	0	216006656	50	4590
2026-01-04 09:34:17.03	140.43	18.31	-39.4	-41.7	16.2	0.00e+00	0	55	0	218103808	50	4674
2026-01-04 09:34:18.04	140.37	18.43	-39.5	-41.8	16.1	0.00e+00	0	55	0	220200960	50	4710
2026-01-04 09:34:19.05	140.31	18.55	-39.4	-41.7	16.2	0.00e+00	0	54	0	222298112	50	4669
2026-01-04 09:34:20.06	140.25	18.67	-39.6	-42.0	15.9	0.00e+00	0	54	0	224395264	50	4836
2026-01-04 09:34:21.07	140.18	18.79	-39.6	-41.9	16.0	0.00e+00	0	54	0	226492416	50	4801
2026-01-04 09:34:22.08	140.12	18.91	-39.8	-42.2	15.7	0.00e+00	0	54	0	227540992	50	4961
2026-01-04 09:34:23.09	140.06	19.04	-40.0	-42.6	15.4	0.00e+00	0	54	0	229638144	50	5194
2026-01-04 09:34:24.10	139.99	19.16	-39.9	-42.4	15.5	0.00e+00	0	54	0	231735296	50	5087
2026-01-04 09:34:25.11	139.93	19.28	-39.9	-42.4	15.6	0.00e+00	0	55	0	233832448	50	5057
2026-01-04 09:34:26.12	139.86	19.41	-39.5	-41.9	16.1	0.00e+00	0	54	0	235929600	50	4778
2026-01-04 09:34:27.13	139.79	19.53	-39.3	-41.6	16.4	0.00e+00	0	54	0	236978176	50	4608
2026-01-04 09:34:28.14	139.73	19.66	-39.2	-41.4	16.5	0.00e+00	0	54	0	239075328	50	4528
2026-01-04 09:34:29.15	139.66	19.79	-38.8	-40.8	17.1	0.00e+00	0	54	0	241172480	49	4452
2026-01-04 09:34:30.17	139.59	19.92	-39.0	-41.1	16.8	0.00e+00	0	54	0	243269632	49	4614
2026-01-04 09:34:31.18	139.52	20.04	-39.2	-41.3	16.6	0.00e+00	0	54	0	245366784	49	4738
2026-01-04 09:34:32.19	139.45	20.17	-39.2	-41.4	16.6	0.00e+00	0	54	0	246415360	49	4787
2026-01-04 09:34:33.19	139.38	20.30	-39.4	-41.7	16.3	0.00e+00	0	55	0	248512512	49	4927
2026-01-04 09:34:34.21	139.31	20.43	-39.6	-42.0	16.0	0.00e+00	0	55	0	250609664	49	5136
2026-01-04 09:34:35.21	139.24	20.56	-39.8	-42.2	15.8	0.00e+00	0	55	0	252706816	50	4963
2026-01-04 09:34:36.23	139.17	20.69	-39.9	-42.3	15.7	0.00e+00	0	55	0	254803968	50	5028
2026-01-04 09:34:37.23	139.10	20.82	-39.5	-41.8	16.2	0.00e+00	0	55	0	255852544	50	4745
2026-01-04 09:34:38.24	139.03	20.96	-39.7	-42.1	16.0	0.00e+00	0	55	0	257949696	50	4882
2026-01-04 09:34:39.26	138.95	21.09	-39.7	-42.0	16.0	0.00e+00	0	55	0	260046848	50	4852
2026-01-04 09:34:40.26	138.88	21.22	-39.5	-41.8	16.2	0.00e+00	0	55	0	262144000	50	4725
2026-01-04 09:34:41.27	138.80	21.36	-39.6	-41.8	16.2	0.00e+00	0	55	0	264241152	50	4751
2026-01-04 09:34:42.28	138.73	21.49	-39.7	-42.0	16.0	0.00e+00	0	55	0	266338304	50	4818
2026-01-04 09:34:43.29	138.65	21.63	-39.7	-42.1	16.0	0.00e+00	0	54	0	267386880	50	4876
2026-01-04 09:34:44.30	138.58	21.76	-39.9	-42.4	15.7	0.00e+00	0	55	0	269484032	50	5076
2026-01-04 09:34:45.31	138.50	21.90	-39.8	-42.1	16.0	0.00e+00	0	55	0	271581184	50	4908
2026-01-04 09:34:46.32	138.42	22.04	-39.9	-42.3	15.8	0.00e+00	0	55	0	273678336	50	5002
2026-01-04 09:34:47.33	138.34	22.18	-39.8	-42.2	15.8	0.00e+00	0	55	0	275775488	50	4959
2026-01-04 09:34:48.34	138.26	22.31	-39.9	-42.3	15.8	0.00e+00	0	55	0	276824064	50	4993
2026-01-04 09:34:49.35	138.18	22.45	-39.9	-42.2	15.8	0.00e+00	0	55	0	278921216	50	4980
2026-01-04 09:34:50.35	138.10	22.59	-39.6	-41.8	16.2	0.00e+00	0	55	0	281018368	50	4736
2026-01-04 09:34:51.36	138.02	22.73	-39.8	-42.2	15.9	0.00e+00	0	55	0	283115520	50	4950
2026-01-04 09:34:52.38	137.94	22.88	-39.9	-42.3	15.8	0.00e+00	0	55	0	285212672	50	5007
2026-01-04 09:34:53.38	137.85	23.02	-39.9	-42.3	15.8	0.00e+00	0	55	0	286261248	50	5027
2026-01-04 09:34:54.40	137.77	23.16	-40.1	-42.6	15.5	0.00e+00	0	55	0	288358400	50	5210
2026-01-04 09:34:55.41	137.68	23.31	-40.4	-43.0	15.1	0.00e+00	0	55	0	290455552	51	5145
2026-01-04 09:34:56.42	137.60	23.45	-40.2	-42.7	15.4	0.00e+00	0	55	0	292552704	51	4978
2026-01-04 09:34:57.43	137.51	23.60	-40.2	-42.8	15.3	0.00e+00	0	55	0	294649856	51	4989
2026-01-04 09:34:58.44	137.42	23.74	-39.9	-42.3	15.7	0.00e+00	0	55	0	295698432	51	4733
2026-01-04 09:34:59.45	137.33	23.89	-40.2	-42.7	15.4	0.00e+00	0	55	0	297795584	51	4958
2026-01-04 09:35:00.46	137.24	24.04	-40.2	-42.7	15.5	0.00e+00	0	55	0	299892736	51	4938
2026-01-04 09:35:01.47	137.15	24.19	-40.2	-42.7	15.5	0.00e+00	0	55	0	301989888	51	4961
2026-01-04 09:35:02.47	137.06	24.34	-40.4	-43.0	15.1	0.00e+00	0	55	0	304087040	51	5133
2026-01-04 09:35:03.48	136.97	24.49	-40.4	-43.1	15.0	0.00e+00	0	55	0	305135616	51	5212
2026-01-04 09:35:04.49	136.88	24.64	-40.7	-43.5	14.6	0.00e+00	0	55	0	307232768	51	5447
2026-01-04 09:35:05.50	136.79	24.79	-40.7	-43.5	14.7	0.00e+00	0	55	0	309329920	51	5405
2026-01-04 09:35:06.51	136.69	24.94	-40.3	-42.9	15.1	0.00e+00	0	55	0	311427072	52	4766
2026-01-04 09:35:07.52	136.60	25.09	-40.5	-43.3	14.8	7.00e-07	0	55	0	313524224	52	4986
2026-01-04 09:35:08.53	136.50	25.25	-40.5	-43.2	14.9	0.00e+00	0	55	0	314572800	52	4959
2026-01-04 09:35:09.54	136.40	25.40	-40.5	-43.2	14.8	0.00e+00	0	55	0	316669952	52	4976
2026-01-04 09:35:10.55	136.30	25.56	-40.5	-43.2	14.8	0.00e+00	0	55	0	318767104	52	4972
2026-01-04 09:35:11.56	136.20	25.71	-40.4	-43.1	15.0	0.00e+00	0	55	0	320864256	52	4892
2026-01-04 09:35:12.57	136.10	25.87	-40.5	-43.2	14.8	0.00e+00	0	55	0	322961408	52	4983
2026-01-04 09:35:13.58	136.00	26.03	-40.6	-43.5	14.5	0.00e+00	0	55	0	324009984	52	5129
2026-01-04 09:35:14.58	135.90	26.19	-40.3	-42.9	15.2	1.50e-06	0	55	0	326107136	52	4802
2026-01-04 09:35:15.60	135.79	26.35	-40.4	-43.0	15.0	0.00e+00	0	55	0	328204288	52	4865
2026-01-04 09:35:16.60	135.69	26.51	-40.5	-43.2	14.8	0.00e+00	0	55	0	330301440	52	4964
2026-01-04 09:35:17.61	135.59	26.67	-40.5	-43.3	14.7	0.00e+00	0	55	0	332398592	52	4999
2026-01-04 09:35:18.62	135.48	26.83	-40.3	-43.0	15.1	0.00e+00	0	55	0	334495744	52	4826
2026-01-04 09:35:19.63	135.37	27.00	-40.7	-43.5	14.5	0.00e+00	0	55	0	335544320	52	5139
2026-01-04 09:35:20.64	135.26	27.16	-40.8	-43.7	14.3	0.00e+00	0	55	0	337641472	52	5274
2026-01-04 09:35:21.65	135.15	27.32	-40.8	-43.8	14.2	7.00e-07	0	55	0	339738624	52	5324
2026-01-04 09:35:22.66	135.04	27.49	-41.0	-44.1	14.0	6.10e-06	0	55	0	341835776	52	5497
2026-01-04 09:35:23.67	134.93	27.66	-41.0	-44.0	14.0	5.30e-06	0	55	0	343932928	52	5431
2026-01-04 09:35:24.68	134.81	27.82	-40.9	-43.9	14.2	2.20e-06	0	55	0	344981504	52	5365
2026-01-04 09:35:25.69	134.70	27.99	-40.8	-43.8	14.3	7.00e-07	0	55	0	347078656	52	5282
2026-01-04 09:35:26.70	134.58	28.16	-40.7	-43.5	14.6	0.00e+00	0	55	0	349175808	52	5114
2026-01-04 09:35:27.71	134.46	28.33	-40.5	-43.2	14.9	0.00e+00	0	55	0	351272960	52	4927
2026-01-04 09:35:28.72	134.34	28.50	-40.7	-43.6	14.5	0.00e+00	0	55	0	352321536	52	5165
2026-01-04 09:35:29.73	134.22	28.68	-40.9	-43.9	14.2	2.20e-06	0	55	0	354418688	52	5390
2026-01-04 09:35:30.74	134.10	28.85	-41.0	-44.1	14.0	7.00e-07	0	55	0	356515840	52	5486
2026-01-04 09:35:31.75	133.98	29.02	-41.3	-44.6	13.5	7.60e-06	0	55	0	358612992	53	5499
2026-01-04 09:35:32.76	133.86	29.20	-41.3	-44.6	13.5	1.90e-05	0	55	0	360710144	53	5501
2026-01-04 09:35:33.77	133.73	29.37	-41.4	-44.7	13.3	9.90e-06	0	55	0	362807296	53	5592
2026-01-04 09:35:34.78	133.60	29.55	-41.5	-44.9	13.2	2.21e-05	0	55	0	363855872	53	5694
2026-01-04 09:35:35.79	133.47	29.73	-40.8	-43.7	14.3	1.52e-05	0	55	0	365953024	53	4963
2026-01-04 09:35:36.80	133.34	29.91	-40.9	-43.9	14.2	4.50e-06	0	55	0	368050176	53	5045
2026-01-04 09:35:37.80	133.21	30.08	-41.1	-44.1	13.9	0.00e+00	0	55	0	370147328	53	5199
2026-01-04 09:35:38.82	133.08	30.27	-41.0	-44.0	14.1	1.50e-06	0	55	0	372244480	53	5116
2026-01-04 09:35:39.83	132.94	30.45	-40.8	-43.7	14.3	2.20e-06	0	55	0	373293056	53	4975
2026-01-04 09:35:40.84	132.81	30.63	-40.8	-43.7	14.4	3.00e-06	0	55	0	375390208	53	4954
2026-01-04 09:35:41.85	132.67	30.81	-40.8	-43.7	14.4	1.50e-06	0	55	0	377487360	53	4956
2026-01-04 09:35:42.86	132.53	31.00	-40.8	-43.7	14.4	7.00e-07	0	55	0	379584512	53	4940
2026-01-04 09:35:43.87	132.39	31.18	-40.2	-42.8	15.3	0.00e+00	0	55	0	381681664	52	4719
2026-01-04 09:35:44.88	132.25	31.37	-41.0	-44.0	14.1	1.50e-06	0	55	0	382730240	52	5413
2026-01-04 09:35:45.88	132.11	31.56	-40.9	-43.9	14.2	0.00e+00	0	55	0	384827392	52	5372
2026-01-04 09:35:46.90	131.96	31.75	-40.9	-43.9	14.2	0.00e+00	0	55	0	386924544	52	5383
2026-01-04 09:35:47.91	131.81	31.94	-40.9	-43.9	14.2	7.00e-07	0	55	0	389021696	52	5386
2026-01-04 09:35:48.92	131.66	32.13	-40.7	-43.6	14.5	7.00e-07	0	55	0	391118848	52	5165
2026-01-04 09:35:49.93	131.51	32.32	-40.9	-43.8	14.3	0.00e+00	0	55	0	392167424	52	5318
2026-01-04 09:35:50.94	131.36	32.51	-41.0	-44.0	14.1	3.00e-06	0	55	0	394264576	52	5411
2026-01-04 09:35:51.94	131.20	32.70	-40.9	-43.9	14.3	1.50e-06	0	55	0	396361728	52	5361
2026-01-04 09:35:52.96	131.05	32.90	-41.6	-45.2	13.0	1.98e-05	0	55	0	398458880	53	5858
2026-01-04 09:35:53.97	130.89	33.09	-41.8	-45.4	12.8	4.65e-05	0	55	0	400556032	54	5660
2026-01-04 09:35:54.98	130.73	33.29	-41.8	-45.5	12.6	3.05e-05	0	55	0	402653184	54	5743
2026-01-04 09:35:55.99	130.56	33.49	-41.8	-45.5	12.7	1.07e-04	0	55	0	403701760	54	5725
2026-01-04 09:35:57.00	130.40	33.69	-41.8	-45.3	12.8	6.79e-05	0	56	0	405798912	54	5619
2026-01-04 09:35:58.01	130.23	33.88	-41.4	-44.6	13.5	2.05e-05	0	55	0	407896064	54	5218
2026-01-04 09:35:59.02	130.06	34.08	-41.3	-44.5	13.6	1.60e-05	0	55	0	409993216	54	5148
2026-01-04 09:36:00.02	129.89	34.28	-41.3	-44.4	13.8	7.60e-06	0	56	0	412090368	54	5060
2026-01-04 09:36:01.03	129.72	34.49	-41.4	-44.6	13.6	1.37e-05	0	55	0	413138944	54	5206
2026-01-04 09:36:02.04	129.55	34.69	-41.6	-45.0	13.2	1.14e-05	0	55	0	415236096	54	5415
2026-01-04 09:36:03.05	129.37	34.89	-41.8	-45.3	12.9	3.73e-05	0	56	0	417333248	54	5632
2026-01-04 09:36:04.06	129.19	35.10	-41.8	-45.4	12.7	5.03e-05	0	55	0	419430400	54	5691
2026-01-04 09:36:05.07	129.01	35.31	-41.7	-45.2	12.9	5.95e-05	0	55	0	421527552	54	5563
2026-01-04 09:36:06.08	128.82	35.51	-41.8	-45.4	12.8	4.88e-05	0	56	0	422576128	54	5664
2026-01-04 09:36:07.09	128.64	35.72	-41.9	-45.5	12.7	6.63e-05	0	56	0	424673280	54	5750
2026-01-04 09:36:08.10	128.45	35.93	-42.0	-45.7	12.5	9.91e-05	0	56	0	426770432	54	5891
2026-01-04 09:36:09.11	128.25	36.14	-42.2	-46.2	12.0	2.16e-04	0	55	0	428867584	54	6245
2026-01-04 09:36:10.12	128.06	36.35	-42.5	-47.0	11.2	5.37e-04	0	55	0	430964736	55	6445
2026-01-04 09:36:11.13	127.86	36.57	-43.1	-48.2	10.1	2.50e-03	0	55	0	432013312	56	7038
2026-01-04 09:36:12.14	127.66	36.78	-43.3	-48.6	9.7	9.63e-03	0	56	0	434110464	57	6911
2026-01-04 09:36:13.15	127.46	36.99	-43.1	-48.2	10.1	8.80e-03	0	55	0	436207616	57	6610
2026-01-04 09:36:14.16	127.26	37.21	-42.9	-47.7	10.6	4.84e-03	0	55	0	438304768	57	6240
2026-01-04 09:36:15.17	127.05	37.43	-42.5	-46.6	11.7	1.32e-03	0	55	0	440401920	56	5830
2026-01-04 09:36:16.17	126.84	37.64	-42.3	-46.1	12.3	2.55e-04	0	56	0	441450496	56	5487
2026-01-04 09:36:17.18	126.63	37.86	-41.8	-45.4	12.9	6.71e-05	0	55	0	443547648	55	5345
2026-01-04 09:36:18.19	126.41	38.08	-41.8	-45.4	12.8	3.66e-05	0	56	0	445644800	55	5392
2026-01-04 09:36:19.20	126.19	38.30	-41.8	-45.2	12.9	1.40e-04	0	55	0	447741952	55	5278
2026-01-04 09:36:20.20	125.97	38.52	-41.7	-45.1	13.1	4.50e-05	0	56	0	449839104	55	5195
2026-01-04 09:36:21.21	125.75	38.74	-42.0	-45.8	12.4	2.74e-05	0	55	0	450887680	55	5599
2026-01-04 09:36:22.22	125.52	38.96	-41.8	-45.4	12.8	4.19e-05	0	56	0	452984832	55	5367
2026-01-04 09:36:23.23	125.29	39.19	-42.0	-45.7	12.6	8.39e-05	0	56	0	455081984	55	5535
2026-01-04 09:36:24.24	125.05	39.41	-42.1	-46.0	12.2	6.58e-04	0	56	0	457179136	55	5766
2026-01-04 09:36:25.26	124.81	39.64	-42.2	-46.2	12.0	2.56e-04	0	55	0	459276288	55	5863
2026-01-04 09:36:26.27	124.57	39.87	-42.3	-46.3	12.0	3.41e-04	0	55	0	460324864	55	5941
2026-01-04 09:36:27.28	124.33	40.10	-42.4	-46.6	11.6	7.05e-04	0	56	0	462422016	55	6184
2026-01-04 09:36:28.29	124.08	40.33	-42.7	-47.2	10.9	1.29e-03	0	56	0	464519168	55	6645
2026-01-04 09:36:29.30	123.83	40.55	-42.8	-47.3	11.1	1.94e-03	0	56	0	466616320	56	6303
2026-01-04 09:36:30.31	123.57	40.78	-43.0	-47.8	10.6	2.17e-03	0	56	0	468713472	56	6687
2026-01-04 09:36:31.32	123.31	41.02	-42.9	-47.4	10.9	3.22e-03	0	56	0	470810624	57	6025
2026-01-04 09:36:32.33	123.05	41.25	-42.7	-47.1	11.2	1.12e-03	0	56	0	471859200	57	5812
2026-01-04 09:36:33.34	122.78	41.48	-43.0	-47.8	10.5	3.02e-03	0	56	0	473956352	57	6306
2026-01-04 09:36:34.35	122.51	41.71	-43.1	-47.9	10.3	6.52e-03	0	56	0	476053504	57	6412
2026-01-04 09:36:35.36	122.24	41.95	-43.0	-47.8	10.5	5.80e-03	0	56	0	478150656	57	6290
2026-01-04 09:36:36.37	121.96	42.18	-43.0	-47.8	10.4	5.76e-03	0	56	0	480247808	57	6322
2026-01-04 09:36:37.38	121.67	42.42	-43.0	-47.6	10.7	2.80e-03	0	56	0	481296384	57	6198
2026-01-04 09:36:38.39	121.39	42.65	-42.8	-47.3	11.0	1.63e-03	0	56	0	483393536	57	5962
2026-01-04 09:36:39.40	121.10	42.89	-42.7	-46.9	11.5	1.33e-03	0	56	0	485490688	57	5706
2026-01-04 09:36:40.41	120.80	43.13	-42.7	-46.9	11.4	6.56e-04	0	56	0	487587840	56	6028
2026-01-04 09:36:41.42	120.50	43.37	-42.2	-46.0	12.4	2.72e-04	0	55	0	489684992	56	5412
2026-01-04 09:36:42.43	120.20	43.61	-42.3	-46.2	12.2	2.39e-04	0	56	0	490733568	56	5569
2026-01-04 09:36:43.44	119.89	43.85	-42.2	-45.9	12.5	1.62e-04	0	56	0	492830720	56	5381
2026-01-04 09:36:44.45	119.57	44.09	-41.8	-45.3	13.0	4.04e-05	0	56	0	494927872	55	5307
2026-01-04 09:36:45.46	119.25	44.33	-41.5	-44.7	13.5	1.06e-05	0	56	0	497025024	54	5238
2026-01-04 09:36:46.47	118.93	44.57	-41.4	-44.6	13.6	4.50e-06	0	56	0	499122176	54	5212
2026-01-04 09:36:47.48	118.60	44.81	-41.4	-44.6	13.8	4.50e-06	0	56	0	500170752	54	5176
2026-01-04 09:36:48.49	118.27	45.05	-41.3	-44.4	13.8	9.90e-06	0	56	0	502267904	54	5079
2026-01-04 09:36:49.50	117.93	45.29	-41.2	-44.1	14.1	3.00e-06	0	56	0	504365056	54	4918
2026-01-04 09:36:50.51	117.58	45.53	-41.2	-44.2	14.1	7.00e-07	0	56	0	506462208	54	4981
2026-01-04 09:36:51.52	117.23	45.78	-41.2	-44.2	14.1	2.20e-06	0	56	0	508559360	53	5244
2026-01-04 09:36:52.53	116.88	46.02	-41.4	-44.6	13.7	2.20e-06	0	56	0	509607936	53	5481
2026-01-04 09:36:53.54	116.52	46.26	-41.4	-44.6	13.8	8.30e-06	0	56	0	511705088	53	5477
2026-01-04 09:36:54.55	116.15	46.51	-41.3	-44.4	13.9	3.00e-06	0	56	0	513802240	53	5373
2026-01-04 09:36:55.56	115.78	46.75	-41.1	-44.1	14.2	3.80e-06	0	56	0	515899392	53	5193
2026-01-04 09:36:56.57	115.40	46.99	-41.1	-44.1	14.1	2.20e-06	0	56	0	517996544	53	5206
2026-01-04 09:36:57.58	115.02	47.24	-40.8	-43.6	14.7	7.00e-07	0	56	0	519045120	53	4885
2026-01-04 09:36:58.59	114.63	47.48	-40.4	-43.0	15.3	0.00e+00	0	56	0	521142272	52	4855
2026-01-04 09:36:59.60	114.23	47.72	-41.0	-43.8	14.5	0.00e+00	0	56	0	523239424	52	5339
2026-01-04 09:37:00.60	113.83	47.96	-41.4	-44.6	13.7	2.20e-06	0	56	0	525336576	53	5517
2026-01-04 09:37:01.61	113.43	48.21	-41.5	-44.7	13.5	9.10e-06	0	56	0	527433728	54	5272
2026-01-04 09:37:02.62	113.01	48.45	-41.5	-44.8	13.5	6.80e-06	0	56	0	528482304	54	5280
2026-01-04 09:37:03.63	112.59	48.69	-41.8	-45.3	13.0	1.44e-05	0	56	0	530579456	54	5652
2026-01-04 09:37:04.64	112.16	48.93	-41.9	-45.6	12.7	7.17e-05	0	56	0	532676608	54	5803
2026-01-04 09:37:05.65	111.72	49.18	-41.6	-45.0	13.2	3.73e-05	0	56	0	534773760	54	5429
2026-01-04 09:37:06.66	111.28	49.42	-41.1	-44.1	14.2	3.80e-06	0	56	0	536870912	54	4874
2026-01-04 09:37:07.67	110.83	49.66	-41.0	-44.0	14.3	1.50e-06	0	56	0	538968064	53	5119
2026-01-04 09:37:08.68	110.38	49.90	-41.1	-44.8	13.4	6.10e-06	0	56	0	540016640	53	5597
2026-01-04 09:37:09.69	109.91	50.14	-40.9	-44.5	13.6	1.44e-05	0	56	0	542113792	53	5413
2026-01-04 09:37:10.70	109.44	50.37	-40.4	-43.5	14.6	1.50e-06	0	56	0	544210944	52	5130
2026-01-04 09:37:11.71	108.96	50.61	-40.1	-42.9	15.3	0.00e+00	0	56	0	546308096	51	5059
2026-01-04 09:37:12.72	108.48	50.85	-40.4	-43.3	14.9	0.00e+00	0	56	0	548405248	51	5315
2026-01-04 09:37:13.73	107.98	51.08	-40.5	-43.6	14.6	0.00e+00	0	56	0	549453824	51	5490
2026-01-04 09:37:14.74	107.48	51.32	-40.0	-42.7	15.4	0.00e+00	0	56	0	551550976	51	4976
2026-01-04 09:37:15.75	106.97	51.55	-39.4	-41.9	16.1	0.00e+00	0	56	0	553648128	50	4800
2026-01-04 09:37:16.76	106.45	51.78	-39.7	-42.3	15.8	0.00e+00	0	56	0	555745280	50	5018
2026-01-04 09:37:17.77	105.93	52.01	-39.8	-42.6	15.5	0.00e+00	0	56	0	557842432	50	5172
2026-01-04 09:37:18.78	105.39	52.24	-39.7	-42.5	15.6	0.00e+00	0	56	0	558891008	50	5101
2026-01-04 09:37:19.79	104.85	52.47	-39.6	-42.3	15.7	0.00e+00	0	56	0	560988160	50	5030
2026-01-04 09:37:20.80	104.30	52.70	-39.4	-42.0	16.1	0.00e+00	0	56	0	563085312	50	4826
2026-01-04 09:37:21.81	103.74	52.92	-39.4	-41.8	16.3	0.00e+00	0	56	0	565182464	50	4733
2026-01-04 09:37:22.82	103.17	53.14	-39.7	-42.3	15.9	0.00e+00	0	56	0	567279616	50	4985
2026-01-04 09:37:23.83	102.60	53.36	-40.2	-43.1	15.0	0.00e+00	0	56	0	568328192	51	5197
2026-01-04 09:37:24.84	102.01	53.58	-40.7	-43.9	14.3	7.00e-07	0	56	0	570425344	51	5705
2026-01-04 09:37:25.85	101.42	53.80	-40.7	-43.9	14.1	0.00e+00	0	56	0	572522496	52	5400
2026-01-04 09:37:26.86	100.81	54.01	-40.9	-44.2	13.9	1.50e-06	0	56	0	574619648	52	5537
2026-01-04 09:37:27.87	100.20	54.22	-40.8	-44.1	14.1	7.00e-07	0	56	0	576716800	52	5472
2026-01-04 09:37:28.88	99.58	54.43	-40.7	-43.8	14.2	1.50e-06	0	56	0	577765376	52	5331
2026-01-04 09:37:29.89	98.95	54.64	-40.9	-44.2	13.9	3.00e-06	0	56	0	579862528	52	5565
2026-01-04 09:37:30.90	98.31	54.84	-40.6	-43.8	14.2	8.30e-06	0	56	0	581959680	52	5316
2026-01-04 09:37:31.91	97.66	55.04	-39.6	-42.0	16.1	0.00e+00	0	56	0	584056832	51	4598
2026-01-04 09:37:32.92	97.00	55.24	-39.0	-41.2	16.9	0.00e+00	0	56	0	586153984	49	4693
2026-01-04 09:37:33.93	96.34	55.43	-39.2	-41.6	16.4	0.00e+00	0	56	0	587202560	49	4901
2026-01-04 09:37:34.94	95.66	55.63	-39.8	-42.5	15.7	0.00e+00	0	56	0	589299712	50	5132
2026-01-04 09:37:35.95	94.98	55.81	-40.0	-42.8	15.3	0.00e+00	0	56	0	591396864	50	5322
2026-01-04 09:37:36.96	94.28	56.00	-39.9	-42.6	15.5	0.00e+00	0	56	0	593494016	50	5192
2026-01-04 09:37:37.97	93.58	56.18	-39.8	-42.5	15.7	0.00e+00	0	56	0	595591168	50	5107
2026-01-04 09:37:38.97	92.87	56.36	-40.0	-42.7	15.5	0.00e+00	0	56	0	596639744	50	5266
2026-01-04 09:37:39.98	92.15	56.53	-40.3	-43.3	14.8	0.00e+00	0	56	0	598736896	51	5336
2026-01-04 09:37:41.00	91.41	56.70	-40.8	-44.2	13.9	2.20e-06	0	56	0	600834048	52	5534
2026-01-04 09:37:42.01	90.67	56.87	-41.2	-45.0	13.1	1.83e-05	0	56	0	602931200	53	5755
2026-01-04 09:37:43.02	89.92	57.03	-41.0	-44.8	13.2	3.35e-05	0	56	0	605028352	53	5608
2026-01-04 09:37:44.02	89.17	57.18	-40.6	-43.8	14.2	3.00e-06	0	56	0	607125504	52	5324
2026-01-04 09:37:45.03	88.40	57.34	-40.0	-42.9	15.0	0.00e+00	0	56	0	608174080	52	4810
2026-01-04 09:37:46.04	87.63	57.48	-40.0	-43.0	15.1	0.00e+00	0	56	0	610271232	51	5105
2026-01-04 09:37:47.05	86.85	57.63	-39.9	-42.8	15.3	0.00e+00	0	56	0	612368384	51	4990
2026-01-04 09:37:48.06	86.05	57.77	-39.8	-42.7	15.3	0.00e+00	0	56	0	614465536	51	4928
2026-01-04 09:37:49.07	85.26	57.90	-40.0	-43.0	15.1	0.00e+00	0	56	0	616562688	51	5101
2026-01-04 09:37:50.08	84.45	58.03	-39.7	-42.5	15.5	0.00e+00	0	56	0	617611264	51	4856
2026-01-04 09:37:51.10	83.62	58.15	-38.9	-41.2	16.8	0.00e+00	0	56	0	619708416	49	4660
2026-01-04 09:37:52.11	82.80	58.27	-38.8	-41.0	17.1	0.00e+00	0	56	0	621805568	49	4584
2026-01-04 09:37:53.12	81.97	58.38	-38.7	-41.0	17.1	0.00e+00	0	56	0	623902720	49	4561
2026-01-04 09:37:54.13	81.14	58.49	-38.9	-41.3	16.7	0.00e+00	0	56	0	625999872	49	4738
2026-01-04 09:37:55.14	80.29	58.59	-39.6	-42.4	15.7	0.00e+00	0	56	0	627048448	49	5356
2026-01-04 09:37:56.15	79.44	58.69	-40.4	-43.9	14.2	0.00e+00	0	56	0	629145600	51	5664
2026-01-04 09:37:57.16	78.59	58.78	-40.2	-43.4	14.5	0.00e+00	0	56	0	631242752	51	5372
2026-01-04 09:37:58.17	77.73	58.87	-39.9	-42.8	15.3	0.00e+00	0	56	0	633339904	51	5011
2026-01-04 09:37:59.18	76.86	58.94	-39.7	-42.4	15.8	0.00e+00	0	56	0	635437056	51	4760
2026-01-04 09:38:00.19	75.99	59.02	-39.5	-42.0	16.1	0.00e+00	0	56	0	636485632	50	4840
2026-01-04 09:38:01.20	75.11	59.08	-39.2	-41.6	16.7	0.00e+00	0	56	0	638582784	50	4612
2026-01-04 09:38:02.21	74.23	59.14	-39.6	-42.1	16.1	0.00e+00	0	56	0	640679936	50	4919
2026-01-04 09:38:03.22	73.35	59.20	-39.8	-42.5	15.8	0.00e+00	0	56	0	642777088	50	5145
2026-01-04 09:38:04.23	72.46	59.25	-40.0	-42.8	15.4	0.00e+00	0	56	0	644874240	50	5294
2026-01-04 09:38:05.24	71.57	59.29	-39.1	-41.5	16.6	0.00e+00	0	56	0	645922816	50	4571
2026-01-04 09:38:06.25	70.68	59.32	-38.3	-40.4	17.6	0.00e+00	0	56	0	648019968	48	4509
2026-01-04 09:38:07.26	69.78	59.35	-38.4	-40.4	17.7	0.00e+00	0	56	0	650117120	48	4542
2026-01-04 09:38:08.27	68.88	59.38	-38.6	-40.7	17.5	0.00e+00	0	56	0	652214272	48	4670
2026-01-04 09:38:09.28	67.98	59.39	-38.3	-40.3	17.8	0.00e+00	0	56	0	654311424	48	4477
2026-01-04 09:38:10.29	67.09	59.40	-37.9	-39.8	18.2	0.00e+00	0	56	0	655360000	47	4491
2026-01-04 09:38:11.30	66.19	59.41	-38.4	-40.5	17.6	0.00e+00	0	56	0	657457152	47	4852
2026-01-04 09:38:12.31	65.29	59.40	-38.9	-41.1	17.0	0.00e+00	0	56	0	659554304	48	4897
2026-01-04 09:38:13.32	64.39	59.39	-39.3	-41.8	16.3	0.00e+00	0	56	0	661651456	49	5006
2026-01-04 09:38:14.33	63.49	59.38	-38.8	-41.1	17.0	0.00e+00	0	56	0	663748608	49	4609
2026-01-04 09:38:15.34	62.59	59.36	-37.8	-39.8	18.2	0.00e+00	0	56	0	664797184	47	4453
2026-01-04 09:38:16.35	61.69	59.33	-37.5	-39.4	18.5	0.00e+00	0	56	0	666894336	46	4502
2026-01-04 09:38:17.36	60.80	59.29	-37.7	-39.6	18.3	0.00e+00	0	56	0	668991488	46	4651
2026-01-04 09:38:18.37	59.91	59.25	-38.4	-40.5	17.4	0.00e+00	0	56	0	671088640	47	4848
2026-01-04 09:38:19.38	59.02	59.20	-38.5	-40.8	17.3	0.00e+00	0	56	0	673185792	47	4994
2026-01-04 09:38:20.39	58.14	59.15	-38.3	-40.5	17.6	0.00e+00	0	56	0	675282944	47	4826
2026-01-04 09:38:21.40	57.26	59.09	-37.8	-39.7	18.2	0.00e+00	0	56	0	676331520	47	4429
2026-01-04 09:38:22.41	56.38	59.02	-37.3	-39.1	18.9	0.00e+00	0	56	0	678428672	46	4345
2026-01-04 09:38:23.42	55.51	58.95	-37.4	-39.2	18.7	0.00e+00	0	56	0	680525824	46	4441
2026-01-04 09:38:24.43	54.65	58.87	-38.3	-40.4	17.6	0.00e+00	0	56	0	682622976	47	4798
2026-01-04 09:38:25.44	53.79	58.79	-39.5	-42.1	16.2	0.00e+00	0	56	0	684720128	49	5160
2026-01-04 09:38:26.45	52.93	58.70	-39.5	-42.1	16.1	0.00e+00	0	56	0	685768704	49	5184
2026-01-04 09:38:27.46	52.08	58.60	-40.0	-42.8	15.5	0.00e+00	0	56	0	687865856	50	5333
2026-01-04 09:38:28.47	51.24	58.50	-40.1	-43.0	15.3	0.00e+00	0	56	0	689963008	50	5403
2026-01-04 09:38:29.48	50.40	58.39	-40.3	-43.3	14.9	0.00e+00	0	56	0	692060160	51	5293
2026-01-04 09:38:30.49	49.57	58.28	-40.7	-44.2	13.9	7.00e-07	0	56	0	694157312	52	5553
2026-01-04 09:38:31.49	48.76	58.16	-40.5	-43.7	14.5	7.00e-07	0	56	0	695205888	52	5233
2026-01-04 09:38:32.50	47.94	58.04	-39.7	-42.2	16.1	0.00e+00	0	56	0	697303040	51	4662
2026-01-04 09:38:33.51	47.14	57.91	-40.0	-42.6	15.8	0.00e+00	0	56	0	699400192	51	4888
2026-01-04 09:38:34.52	46.34	57.78	-40.4	-43.2	15.2	0.00e+00	0	56	0	701497344	51	5258
2026-01-04 09:38:35.53	45.55	57.64	-39.9	-42.4	15.9	0.00e+00	0	56	0	703594496	51	4795
2026-01-04 09:38:36.54	44.76	57.50	-40.0	-42.7	15.7	0.00e+00	0	56	0	704643072	51	4941
2026-01-04 09:38:37.55	43.99	57.35	-39.5	-41.8	16.4	0.00e+00	0	56	0	706740224	51	4481
2026-01-04 09:38:38.56	43.22	57.20	-39.5	-41.9	16.4	0.00e+00	0	56	0	708837376	50	4792
2026-01-04 09:38:39.57	42.47	57.04	-39.9	-42.5	15.7	0.00e+00	0	56	0	710934528	50	5154
2026-01-04 09:38:40.58	41.72	56.88	-39.8	-42.3	16.0	7.00e-07	0	56	0	713031680	51	4713
2026-01-04 09:38:41.59	40.98	56.71	-39.0	-41.2	17.1	0.00e+00	0	56	0	714080256	50	4392
2026-01-04 09:38:42.60	40.25	56.55	-38.6	-40.7	17.5	0.00e+00	0	56	0	716177408	49	4403
2026-01-04 09:38:43.61	39.53	56.37	-38.5	-40.5	17.7	0.00e+00	0	56	0	718274560	48	4585
2026-01-04 09:38:44.62	38.81	56.20	-38.4	-40.4	17.8	0.00e+00	0	56	0	720371712	48	4515
2026-01-04 09:38:45.63	38.11	56.02	-38.6	-40.7	17.6	0.00e+00	0	56	0	722468864	48	4654
2026-01-04 09:38:46.64	37.42	55.83	-38.2	-40.2	18.1	0.00e+00	0	56	0	723517440	48	4409
2026-01-04 09:38:47.65	36.73	55.64	-38.6	-40.7	17.5	0.00e+00	0	56	0	725614592	48	4683
2026-01-04 09:38:48.66	36.05	55.45	-39.3	-41.7	16.6	0.00e+00	0	56	0	727711744	49	4969
2026-01-04 09:38:49.67	35.39	55.26	-39.5	-41.9	16.4	0.00e+00	0	56	0	729808896	49	5081
2026-01-04 09:38:50.68	34.73	55.06	-39.6	-42.0	16.3	0.00e+00	0	56	0	731906048	49	5157
2026-01-04 09:38:51.68	34.09	54.86	-40.1	-42.9	15.5	0.00e+00	0	56	0	732954624	50	5361
2026-01-04 09:38:52.69	33.45	54.66	-40.3	-43.0	15.3	0.00e+00	0	56	0	735051776	51	5157
2026-01-04 09:38:53.70	32.82	54.46	-40.0	-42.6	15.7	0.00e+00	0	56	0	737148928	51	4900
2026-01-04 09:38:54.71	32.20	54.25	-40.0	-42.7	15.5	0.00e+00	0	56	0	739246080	51	4970
2026-01-04 09:38:55.72	31.59	54.04	-40.2	-42.9	15.3	0.00e+00	0	56	0	741343232	51	5091
2026-01-04 09:38:56.73	30.98	53.82	-39.9	-42.6	15.7	0.00e+00	0	56	0	743440384	51	4874
2026-01-04 09:38:57.74	30.39	53.61	-40.3	-43.2	15.0	0.00e+00	0	56	0	744488960	51	5250
2026-01-04 09:38:58.75	29.81	53.39	-40.5	-43.5	14.7	7.00e-07	0	56	0	746586112	51	5456
2026-01-04 09:38:59.76	29.23	53.17	-40.8	-44.1	14.1	1.50e-06	0	56	0	748683264	52	5506
2026-01-04 09:39:00.77	28.66	52.95	-40.6	-43.7	14.3	1.50e-06	0	56	0	750780416	52	5262
2026-01-04 09:39:01.78	28.10	52.73	-40.2	-43.1	15.1	0.00e+00	0	56	0	752877568	52	4877
2026-01-04 09:39:02.79	27.55	52.50	-39.5	-41.9	16.4	0.00e+00	0	56	0	753926144	51	4519
2026-01-04 09:39:03.80	27.01	52.28	-39.7	-42.2	16.0	0.00e+00	0	56	0	756023296	50	4959
2026-01-04 09:39:04.81	26.48	52.05	-39.8	-42.5	15.8	0.00e+00	0	56	0	758120448	50	5131
2026-01-04 09:39:05.82	25.95	51.82	-40.5	-43.6	14.6	0.00e+00	0	56	0	760217600	51	5528
2026-01-04 09:39:06.83	25.43	51.59	-40.6	-43.8	14.4	7.00e-07	0	56	0	762314752	51	5640
2026-01-04 09:39:07.84	24.93	51.35	-39.8	-42.5	15.7	0.00e+00	0	56	0	763363328	51	4822
2026-01-04 09:39:08.85	24.42	51.12	-38.9	-41.2	17.1	0.00e+00	0	56	0	765460480	49	4653
2026-01-04 09:39:09.86	23.93	50.89	-39.1	-41.4	16.8	0.00e+00	0	56	0	767557632	49	4767
2026-01-04 09:39:10.87	23.44	50.65	-40.2	-43.1	15.2	0.00e+00	0	56	0	769654784	51	5176
2026-01-04 09:39:11.88	22.97	50.41	-40.8	-44.0	14.1	1.50e-06	0	56	0	771751936	52	5431
2026-01-04 09:39:12.89	22.50	50.18	-41.2	-44.9	13.2	5.30e-06	0	56	0	772800512	53	5701
2026-01-04 09:39:13.90	22.03	49.94	-41.2	-44.8	13.3	4.34e-05	0	56	0	774897664	53	5636
2026-01-04 09:39:14.91	21.58	49.70	-40.8	-44.1	14.0	4.50e-06	0	56	0	776994816	53	5200
2026-01-04 09:39:15.92	21.13	49.46	-40.7	-44.0	14.4	0.00e+00	0	56	0	779091968	52	5415
2026-01-04 09:39:16.93	20.69	49.22	-41.1	-44.7	13.3	3.80e-06	0	56	0	781189120	52	5893
2026-01-04 09:39:17.93	20.26	48.98	-41.4	-45.3	12.8	3.96e-05	0	56	0	782237696	53	5944
2026-01-04 09:39:18.94	19.83	48.74	-41.9	-46.3	11.9	1.24e-04	0	56	0	784334848	54	6284
2026-01-04 09:39:19.95	19.41	48.50	-42.9	-48.6	9.7	1.44e-03	0	56	0	786432000	56	7358
2026-01-04 09:39:20.96	18.99	48.26	-43.0	-48.9	9.3	4.15e-02	0	56	0	788529152	57	7192
2026-01-04 09:39:21.97	18.58	48.01	-42.1	-46.4	11.9	2.37e-03	0	56	0	790626304	56	5696
2026-01-04 09:39:22.98	18.18	47.77	-41.4	-45.2	12.9	1.04e-04	0	56	0	791674880	54	5564
2026-01-04 09:39:23.99	17.79	47.53	-41.4	-45.1	13.1	1.52e-05	0	56	0	793772032	54	5467
2026-01-04 09:39:25.00	17.40	47.29	-41.5	-45.3	13.0	1.75e-05	0	56	0	795869184	54	5611
2026-01-04 09:39:26.01	17.01	47.04	-41.9	-46.2	12.0	1.28e-04	0	56	0	797966336	54	6269
2026-01-04 09:39:27.02	16.64	46.80	-42.1	-46.6	11.6	5.97e-04	0	56	0	800063488	54	6538
2026-01-04 09:39:28.03	16.26	46.56	-41.8	-45.8	12.3	4.71e-04	0	56	0	801112064	54	5989
2026-01-04 09:39:29.04	15.90	46.32	-41.2	-44.7	13.5	1.02e-04	0	56	0	803209216	54	5269
2026-01-04 09:39:30.05	15.54	46.08	-41.1	-44.4	13.8	1.50e-06	0	56	0	805306368	53	5385
2026-01-04 09:39:31.06	15.18	45.83	-40.8	-43.9	14.2	3.80e-06	0	56	0	807403520	53	5093
2026-01-04 09:39:32.07	14.83	45.59	-40.3	-43.4	14.7	2.46e-04	0	56	0	809500672	52	5048
2026-01-04 09:39:33.08	14.49	45.35	-40.4	-43.5	14.5	2.75e-04	0	56	0	811597824	52	5130
2026-01-04 09:39:34.09	14.15	45.11	-40.9	-44.3	13.7	6.16e-04	0	56	0	812646400	52	5600
2026-01-04 09:39:35.10	13.82	44.87	-41.6	-45.9	12.0	3.86e-03	0	57	0	814743552	53	6368
2026-01-04 09:39:36.11	13.49	44.63	-41.8	-46.1	11.8	5.53e-03	0	56	0	816840704	54	6198
2026-01-04 09:39:37.12	13.17	44.39	-41.4	-45.2	12.8	3.67e-03	0	57	0	818937856	54	5567
2026-01-04 09:39:38.13	12.85	44.15	-40.8	-44.1	13.9	1.96e-03	0	56	0	821035008	53	5199
2026-01-04 09:39:39.14	12.53	43.91	-40.8	-44.2	13.8	5.52e-04	0	56	0	822083584	53	5230
2026-01-04 09:39:40.15	12.23	43.67	-41.1	-44.7	13.3	3.55e-03	0	57	0	824180736	53	5566
2026-01-04 09:39:41.16	11.92	43.43	-41.4	-45.0	13.1	2.27e-03	0	56	0	826277888	53	5756
2026-01-04 09:39:42.17	11.62	43.20	-41.6	-45.3	12.8	6.63e-05	0	56	0	828375040	54	5649
2026-01-04 09:39:43.18	11.33	42.96	-41.2	-44.7	13.5	2.36e-05	0	57	0	830472192	54	5267
2026-01-04 09:39:44.19	11.04	42.72	-40.4	-43.3	14.9	7.00e-07	0	56	0	831520768	52	5012
2026-01-04 09:39:45.19	10.75	42.49	-40.3	-43.1	15.0	0.00e+00	0	56	0	833617920	52	4920
2026-01-04 09:39:46.20	10.47	42.25	-40.3	-43.0	15.0	0.00e+00	0	56	0	835715072	52	4865
2026-01-04 09:39:47.21	10.19	42.02	-40.5	-43.3	14.9	0.00e+00	0	56	0	837812224	52	5025
2026-01-04 09:39:48.22	9.92	41.79	-40.6	-43.6	14.6	0.00e+00	0	56	0	839909376	52	5179
2026-01-04 09:39:49.23	9.65	41.55	-41.3	-44.7	13.5	2.20e-06	0	57	0	840957952	53	5579
2026-01-04 09:39:50.24	9.38	41.32	-41.4	-44.9	13.3	2.21e-05	0	56	0	843055104	53	5695
2026-01-04 09:39:51.25	9.12	41.09	-42.0	-46.0	12.2	1.33e-04	0	56	0	845152256	54	6083
2026-01-04 09:39:52.26	8.86	40.86	-42.3	-46.6	11.5	4.14e-04	0	56	0	847249408	55	6198
2026-01-04 09:39:53.27	8.60	40.63	-42.6	-47.4	10.7	2.41e-03	0	56	0	849346560	55	6735
2026-01-04 09:39:54.28	8.35	40.40	-42.3	-46.6	11.5	2.11e-03	0	56	0	850395136	55	6137
2026-01-04 09:39:55.29	8.10	40.18	-42.2	-46.4	11.7	1.54e-03	0	57	0	852492288	55	6046
2026-01-04 09:39:56.30	7.86	39.95	-42.2	-46.4	11.7	4.56e-04	0	56	0	854589440	55	6048
2026-01-04 09:39:57.31	7.62	39.72	-42.5	-47.3	10.8	1.86e-03	0	56	0	856686592	55	6721
2026-01-04 09:39:58.32	7.38	39.50	-42.6	-47.4	10.7	2.25e-03	0	57	0	858783744	55	6788
2026-01-04 09:39:59.33	7.15	39.27	-42.9	-48.0	10.3	3.03e-03	0	56	0	859832320	56	6855
2026-01-04 09:40:00.34	6.91	39.05	-43.0	-48.3	9.9	9.30e-03	0	57	0	861929472	56	7121
2026-01-04 09:40:01.35	6.69	38.83	-43.2	-48.8	9.5	3.04e-02	0	56	0	864026624	57	7059
2026-01-04 09:40:02.36	6.46	38.61	-42.6	-47.4	10.9	2.09e-02	0	56	0	866123776	57	6006
2026-01-04 09:40:03.37	6.24	38.39	-42.3	-46.5	11.8	8.51e-04	0	57	0	868220928	56	5785
2026-01-04 09:40:04.38	6.02	38.17	-41.8	-45.6	12.6	2.63e-04	0	56	0	869269504	55	5466
2026-01-04 09:40:05.39	5.81	37.95	-41.8	-45.6	12.6	6.86e-05	0	56	0	871366656	55	5494
2026-01-04 09:40:06.40	5.59	37.73	-41.5	-45.1	13.1	7.78e-05	0	56	0	873463808	54	5506
2026-01-04 09:40:07.41	5.38	37.51	-42.1	-46.4	11.8	2.30e-04	0	56	0	875560960	54	6350
2026-01-04 09:40:08.42	5.18	37.30	-42.4	-47.1	11.0	3.38e-03	0	56	0	877658112	55	6532
2026-01-04 09:40:09.42	4.97	37.09	-42.8	-47.9	10.3	6.91e-03	0	56	0	879755264	56	6752
2026-01-04 09:40:10.43	4.77	36.87	-42.6	-47.4	10.8	5.61e-03	0	56	0	880803840	56	6370
2026-01-04 09:40:11.44	4.57	36.66	-42.6	-47.5	10.7	1.64e-03	0	56	0	882900992	56	6443
2026-01-04 09:40:12.45	4.38	36.45	-42.6	-47.4	10.8	2.62e-03	0	57	0	884998144	56	6401
2026-01-04 09:40:13.46	4.18	36.24	-42.6	-47.6	10.6	2.27e-03	0	57	0	887095296	56	6564
2026-01-04 09:40:14.47	3.99	36.03	-42.9	-48.4	9.8	8.15e-03	0	56	0	889192448	56	7155
2026-01-04 09:40:15.48	3.80	35.82	-42.8	-48.2	10.1	1.81e-02	0	56	0	890241024	56	6962
2026-01-04 09:40:16.49	3.62	35.61	-42.6	-47.7	10.4	1.39e-02	0	56	0	892338176	56	6593
2026-01-04 09:40:17.50	3.43	35.40	-42.2	-46.7	11.5	1.24e-03	0	56	0	894435328	56	5861
2026-01-04 09:40:18.52	3.25	35.20	-42.2	-46.7	11.5	5.41e-04	0	56	0	896532480	56	5908
2026-01-04 09:40:19.53	3.07	34.99	-42.5	-47.3	10.9	1.28e-03	0	56	0	898629632	56	6299
2026-01-04 09:40:20.54	2.89	34.79	-42.8	-48.1	10.0	5.44e-03	0	56	0	899678208	56	6915
2026-01-04 09:40:21.55	2.72	34.58	-42.7	-47.9	10.1	7.70e-03	0	56	0	901775360	56	6753
2026-01-04 09:40:22.56	2.54	34.38	-42.7	-48.0	10.1	1.16e-02	0	56	0	903872512	56	6874
2026-01-04 09:40:23.57	2.37	34.18	-42.4	-47.2	10.9	4.71e-03	0	56	0	905969664	56	6207
2026-01-04 09:40:24.58	2.21	33.98	-42.4	-47.2	10.9	1.68e-03	0	56	0	908066816	56	6274
2026-01-04 09:40:25.58	2.04	33.79	-42.5	-47.4	10.7	1.45e-03	0	56	0	909115392	56	6414
2026-01-04 09:40:26.59	1.88	33.59	-42.8	-48.3	9.8	9.91e-03	0	56	0	911212544	56	7109
2026-01-04 09:40:27.60	1.72	33.39	-42.6	-47.7	10.3	8.23e-03	0	56	0	913309696	56	6622
2026-01-04 09:40:28.61	1.56	33.20	-42.0	-46.5	11.6	2.28e-03	0	56	0	915406848	56	5724
2026-01-04 09:40:29.62	1.40	33.00	-41.4	-45.2	12.7	2.82e-04	0	57	0	917504000	54	5592
2026-01-04 09:40:30.63	1.24	32.81	-41.2	-44.7	13.3	3.73e-05	0	57	0	918552576	54	5268
2026-01-04 09:40:31.65	1.08	32.61	-40.9	-44.4	13.6	1.44e-05	0	56	0	920649728	53	5351
2026-01-04 09:40:32.66	0.93	32.42	-41.5	-45.4	12.6	3.50e-05	0	56	0	922746880	53	6024
2026-01-04 09:40:33.67	0.78	32.23	-41.7	-45.8	12.1	1.51e-04	0	56	0	924844032	53	6308
2026-01-04 09:40:34.68	0.63	32.04	-41.6	-45.7	12.2	2.55e-04	0	57	0	926941184	54	5922
2026-01-04 09:40:35.69	0.49	31.85	-41.4	-45.3	12.7	6.71e-05	0	57	0	927989760	54	5593
2026-01-04 09:40:36.70	0.34	31.66	-41.3	-45.0	13.0	2.74e-05	0	56	0	930086912	54	5420
2026-01-04 09:40:37.71	0.20	31.48	-41.2	-44.8	13.2	1.83e-05	0	57	0	932184064	54	5325
2026-01-04 09:40:38.72	0.05	31.29	-41.2	-44.8	13.1	2.05e-05	0	57	0	934281216	53	5646
2026-01-04 09:40:39.73	359.91	31.11	-41.8	-46.1	11.9	1.46e-04	0	56	0	936378368	54	6142
2026-01-04 09:40:40.74	359.78	30.92	-42.2	-47.0	11.0	1.40e-03	0	56	0	937426944	55	6437
2026-01-04 09:40:41.75	359.64	30.74	-42.1	-46.8	11.2	1.32e-03	0	57	0	939524096	55	6288
2026-01-04 09:40:42.76	359.50	30.56	-41.6	-45.5	12.4	1.80e-04	0	56	0	941621248	55	5446
2026-01-04 09:40:43.77	359.37	30.38	-41.2	-44.7	13.3	3.73e-05	0	57	0	943718400	54	5223
2026-01-04 09:40:44.78	359.24	30.20	-40.6	-43.7	14.4	2.20e-06	0	56	0	945815552	53	4929
2026-01-04 09:40:45.79	359.11	30.02	-40.4	-43.3	14.8	0.00e+00	0	56	0	946864128	52	5000
2026-01-04 09:40:46.80	358.98	29.84	-40.2	-43.0	15.0	0.00e+00	0	56	0	948961280	52	4853
2026-01-04 09:40:47.81	358.85	29.66	-40.5	-43.4	14.6	0.00e+00	0	57	0	951058432	52	5090
2026-01-04 09:40:48.82	358.72	29.49	-40.6	-43.7	14.3	2.20e-06	0	57	0	953155584	52	5247
2026-01-04 09:40:49.83	358.60	29.31	-40.9	-44.2	13.8	3.00e-06	0	56	0	955252736	52	5534
2026-01-04 09:40:50.84	358.47	29.14	-41.0	-44.3	13.7	1.50e-06	0	56	0	957349888	52	5603
2026-01-04 09:40:51.85	358.35	28.96	-41.0	-44.3	13.7	7.60e-06	0	57	0	958398464	52	5601
2026-01-04 09:40:52.86	358.23	28.79	-41.0	-44.4	13.8	2.20e-06	0	56	0	960495616	52	5666
2026-01-04 09:40:53.87	358.11	28.62	-40.8	-44.0	13.9	6.10e-06	0	56	0	962592768	52	5462
2026-01-04 09:40:54.88	357.99	28.45	-41.2	-44.6	13.3	1.52e-05	0	57	0	964689920	53	5527
2026-01-04 09:40:55.88	357.87	28.28	-41.6	-45.5	12.5	1.09e-04	0	57	0	966787072	54	5736
2026-01-04 09:40:56.89	357.76	28.11	-42.0	-46.4	11.5	4.29e-04	0	56	0	967835648	54	6394
2026-01-04 09:40:57.91	357.64	27.94	-42.4	-47.2	10.7	1.39e-03	0	57	0	969932800	55	6604
2026-01-04 09:40:58.92	357.53	27.78	-42.5	-47.5	10.4	4.32e-03	0	56	0	972029952	55	6843
2026-01-04 09:40:59.93	357.42	27.61	-42.6	-47.9	9.9	6.64e-03	0	56	0	974127104	55	7171
2026-01-04 09:41:00.94	357.31	27.44	-42.4	-47.2	10.7	5.40e-03	0	57	0	976224256	55	6587
2026-01-04 09:41:01.95	357.20	27.28	-42.1	-46.6	11.1	1.20e-03	0	56	0	977272832	55	6197
2026-01-04 09:41:02.96	357.09	27.12	-41.8	-45.9	12.0	4.46e-04	0	57	0	979369984	55	5700
2026-01-04 09:41:03.97	356.98	26.95	-41.6	-45.5	12.4	4.03e-04	0	56	0	981467136	55	5445
2026-01-04 09:41:04.97	356.88	26.79	-41.4	-45.1	12.9	5.03e-05	0	57	0	983564288	54	5471
2026-01-04 09:41:05.98	356.77	26.63	-41.4	-45.1	12.8	3.73e-05	0	56	0	985661440	54	5471
2026-01-04 09:41:06.99	356.67	26.47	-41.1	-44.5	13.5	5.26e-05	0	56	0	986710016	54	5114
2026-01-04 09:41:08.00	356.56	26.31	-40.9	-44.2	13.8	1.75e-05	0	56	0	988807168	53	5220
2026-01-04 09:41:09.01	356.46	26.15	-40.8	-44.0	13.9	3.00e-06	0	56	0	990904320	53	5150
2026-01-04 09:41:10.02	356.36	26.00	-40.6	-43.6	14.3	2.20e-06	0	56	0	993001472	53	4911
2026-01-04 09:41:11.03	356.26	25.84	-40.4	-43.3	14.6	1.50e-06	0	56	0	995098624	52	5022
2026-01-04 09:41:12.04	356.16	25.68	-40.5	-43.5	14.4	7.00e-07	0	57	0	996147200	52	5134
2026-01-04 09:41:13.06	356.06	25.53	-40.4	-43.4	14.6	0.00e+00	0	57	0	998244352	52	5046
2026-01-04 09:41:14.07	355.97	25.37	-40.5	-43.5	14.4	0.00e+00	0	57	0	1000341504	52	5107
2026-01-04 09:41:15.08	355.87	25.22	-40.8	-44.0	13.9	1.50e-06	0	57	0	1002438656	52	5419
2026-01-04 09:41:16.09	355.77	25.07	-41.0	-44.3	13.6	3.00e-06	0	57	0	1004535808	52	5651
2026-01-04 09:41:17.10	355.68	24.91	-41.0	-44.4	13.5	4.50e-06	0	56	0	1005584384	52	5701
2026-01-04 09:41:18.11	355.59	24.76	-41.3	-45.0	12.9	5.87e-05	0	56	0	1007681536	53	5740
2026-01-04 09:41:19.12	355.49	24.61	-41.2	-44.8	13.0	5.49e-05	0	56	0	1009778688	53	5643
2026-01-04 09:41:20.13	355.40	24.46	-41.2	-44.7	13.2	2.28e-05	0	57	0	1011875840	53	5592
2026-01-04 09:41:21.14	355.31	24.31	-41.0	-44.5	13.2	2.13e-05	0	56	0	1013972992	53	5463
2026-01-04 09:41:22.15	355.22	24.17	-40.9	-44.3	13.5	7.60e-06	0	56	0	1015021568	53	5332
2026-01-04 09:41:23.16	355.13	24.02	-40.7	-43.9	13.8	4.50e-06	0	56	0	1017118720	53	5062
2026-01-04 09:41:24.17	355.05	23.87	-40.8	-44.3	13.5	4.50e-06	0	57	0	1019215872	53	5280
2026-01-04 09:41:25.18	354.96	23.73	-40.8	-44.2	13.5	9.10e-06	0	56	0	1021313024	53	5279
2026-01-04 09:41:26.19	354.87	23.58	-40.9	-44.4	13.3	7.60e-06	0	57	0	1023410176	53	5353
2026-01-04 09:41:27.20	354.79	23.44	-41.3	-45.1	12.6	4.95e-05	0	57	0	1025507328	53	5804
2026-01-04 09:41:28.20	354.71	23.30	-41.5	-45.6	12.0	3.14e-04	0	57	0	1026555904	53	6162
2026-01-04 09:41:29.21	354.62	23.15	-41.8	-46.3	11.2	1.21e-03	0	57	0	1028653056	54	6304
2026-01-04 09:41:30.22	354.54	23.01	-42.0	-46.9	10.4	2.55e-03	0	56	0	1030750208	54	6796
2026-01-04 09:41:31.23	354.46	22.87	-41.9	-46.9	10.4	4.39e-03	0	56	0	1032847360	54	6784
2026-01-04 09:41:32.24	354.38	22.73	-41.9	-46.9	10.4	3.85e-03	0	57	0	1034944512	54	6759
2026-01-04 09:41:33.25	354.29	22.59	-41.8	-47.0	10.2	4.99e-03	0	57	0	1035993088	54	6833
2026-01-04 09:41:34.26	354.21	22.45	-41.4	-46.0	11.1	2.03e-03	0	56	0	1038090240	54	6076
2026-01-04 09:41:35.27	354.14	22.31	-41.0	-45.2	11.8	6.57e-04	0	57	0	1040187392	54	5585
2026-01-04 09:41:36.28	354.06	22.17	-40.8	-44.9	12.1	2.66e-04	0	57	0	1042284544	53	5685
2026-01-04 09:41:37.29	353.98	22.04	-40.5	-44.2	12.7	1.02e-04	0	56	0	1044381696	53	5262
2026-01-04 09:41:38.30	353.90	21.90	-40.1	-43.6	13.2	4.57e-05	0	57	0	1045430272	52	5182
2026-01-04 09:41:39.31	353.83	21.76	-40.1	-43.7	13.0	3.35e-05	0	57	0	1047527424	52	5251
2026-01-04 09:41:40.32	353.75	21.63	-40.0	-43.6	12.9	3.58e-05	0	56	0	1049624576	51	5516
2026-01-04 09:41:41.33	353.68	21.49	-40.0	-43.7	12.7	4.65e-05	0	56	0	1051721728	51	5571
2026-01-04 09:41:42.35	353.60	21.36	-40.2	-44.4	11.8	1.54e-04	0	56	0	1053818880	51	6012
2026-01-04 09:41:43.35	353.53	21.23	-40.4	-45.0	10.8	9.44e-04	0	57	0	1054867456	51	6483
2026-01-04 09:41:44.36	353.46	21.09	-40.5	-45.8	9.7	6.82e-03	0	57	0	1056964608	51	7049
2026-01-04 09:41:45.37	353.38	20.96	-40.7	-46.9	8.3	2.81e-02	0	56	0	1059061760	51	8075
2026-01-04 09:41:46.38	353.31	20.83	-40.7	-48.1	6.8	9.37e-02	0	57	0	1061158912	52	8689
2026-01-04 09:41:47.39	353.24	20.70	-40.8	-49.2	5.8	3.38e-01	0	57	0	1063256064	52	9859
2026-01-04 09:41:48.40	353.17	20.57	-40.8	-50.5	4.8	6.58e-01	0	56	0	1064304640	52	11452
2026-01-04 09:41:49.41	353.10	20.44	-40.8	-52.0	4.2	1.14e+00	0	56	0	1066401792	52	13694
2026-01-04 09:41:50.42	353.03	20.31	-40.7	-53.2	3.9	1.48e+00	0	56	104	1066401792	52	15587
2026-01-04 09:41:51.43	352.96	20.18	-40.7	-53.9	3.8	1.49e+00	0	57	104	1066401792	52	17080
2026-01-04 09:41:52.44	352.90	20.06	-40.7	-54.5	3.8	1.49e+00	0	57	104	1066401792	52	18252
2026-01-04 09:41:53.45	352.83	19.93	-40.6	-54.8	3.8	1.49e+00	0	57	104	1066401792	52	18742
2026-01-04 09:41:54.46	352.76	19.80	-40.7	-54.9	3.8	1.49e+00	0	56	104	1066401792	52	19048
2026-01-04 09:41:55.47	352.70	19.68	-40.6	-55.0	3.8	1.49e+00	0	57	104	1066401792	52	19255
2026-01-04 09:41:56.48	352.63	19.55	-40.5	-55.0	3.8	1.49e+00	0	57	104	1066401792	52	19257
2026-01-04 09:41:57.49	352.57	19.43	-40.5	-55.0	3.8	1.49e+00	0	57	104	1066401792	52	19254
2026-01-04 09:41:58.50	352.50	19.30	-40.6	-55.0	3.8	1.49e+00	0	57	104	1066401792	52	19257
2026-01-04 09:41:59.51	352.44	19.18	-40.5	-54.9	3.8	1.49e+00	0	57	104	1066401792	52	19157
2026-01-04 09:42:00.52	352.38	19.06	-40.6	-55.0	3.8	1.49e+00	0	57	104	1066401792	52	19361
2026-01-04 09:42:01.53	352.31	18.93	-40.5	-55.0	3.8	1.49e+00	0	57	104	1066401792	52	19218
2026-01-04 09:42:02.54	352.25	18.81	-40.5	-54.9	3.8	1.49e+00	0	57	104	1066401792	52	19154
2026-01-04 09:42:03.55	352.19	18.69	-40.5	-55.0	3.8	1.49e+00	0	57	104	1066401792	52	19243
2026-01-04 09:42:04.56	352.13	18.57	-40.7	-55.2	3.8	1.49e+00	0	56	104	1066401792	52	19727
2026-01-04 09:42:05.57	352.07	18.45	-40.5	-55.0	3.8	1.49e+00	0	57	104	1066401792	52	19306
2026-01-04 09:42:06.58	352.01	18.33	-40.6	-55.0	3.8	1.49e+00	0	56	104	1066401792	52	19387
2026-01-04 09:42:07.59	351.95	18.21	-40.5	-55.0	3.8	1.49e+00	0	56	104	1066401792	52	19365
2026-01-04 09:42:08.60	351.89	18.09	-40.4	-54.9	3.8	1.49e+00	0	57	104	1066401792	52	19163
2026-01-04 09:42:09.61	351.83	17.98	-40.7	-55.2	3.8	1.49e+00	0	57	104	1066401792	52	19741
2026-01-04 09:42:10.63	351.77	17.86	-40.5	-55.1	3.8	1.49e+00	0	57	104	1066401792	52	19466
2026-01-04 09:42:11.63	351.71	17.74	-40.7	-55.2	3.8	1.49e+00	0	56	104	1066401792	52	19684
2026-01-04 09:42:12.65	351.66	17.62	-40.1	-55.1	3.8	1.49e+00	0	56	104	1066401792	52	19456
2026-01-04 09:42:13.66	351.60	17.51	-40.6	-55.2	3.8	1.49e+00	0	57	104	1066401792	51	20852
2026-01-04 09:42:14.67	351.54	17.39	-40.1	-55.2	3.8	1.49e+00	0	57	104	1066401792	51	20837
2026-01-04 09:42:15.68	351.49	17.28	-40.6	-55.2	3.8	1.49e+00	0	56	104	1066401792	51	20905
2026-01-04 09:42:16.69	351.43	17.16	-40.7	-55.3	3.8	1.49e+00	0	57	104	1066401792	51	21246
2026-01-04 09:42:17.70	351.38	17.05	-40.2	-55.1	3.8	1.49e+00	0	57	104	1066401792	52	19425
2026-01-04 09:42:18.71	351.32	16.94	-40.2	-55.3	3.8	1.49e+00	0	57	104	1066401792	52	19900
2026-01-04 09:42:19.72	351.27	16.82	-40.3	-55.1	3.8	1.49e+00	0	57	104	1066401792	51	20702
2026-01-04 09:42:20.73	351.21	16.71	-40.4	-55.3	3.8	1.49e+00	0	57	104	1066401792	51	21020
2026-01-04 09:42:21.74	351.16	16.60	-40.2	-55.2	3.8	1.49e+00	0	57	104	1066401792	51	20909
2026-01-04 09:42:22.75	351.11	16.49	-40.4	-55.3	3.8	1.49e+00	0	57	104	1066401792	51	21124
2026-01-04 09:42:23.76	351.06	16.38	-40.0	-55.2	3.8	1.49e+00	0	56	104	1066401792	51	20860
2026-01-04 09:42:24.77	351.00	16.27	-40.5	-55.3	3.8	1.49e+00	0	57	104	1066401792	51	21247
2026-01-04 09:42:25.78	350.95	16.16	-40.4	-55.1	3.8	1.49e+00	0	56	104	1066401792	51	20751
2026-01-04 09:42:26.79	350.90	16.05	-40.5	-55.2	3.8	1.49e+00	0	57	104	1066401792	51	21005
2026-01-04 09:42:27.80	350.85	15.94	-40.5	-55.2	3.8	1.49e+00	0	56	104	1066401792	51	20819
2026-01-04 09:42:28.81	350.80	15.83	-40.6	-55.4	3.8	1.49e+00	0	57	104	1066401792	51	21360
2026-01-04 09:42:29.82	350.75	15.72	-40.0	-55.2	3.8	1.49e+00	0	57	104	1066401792	51	20927
2026-01-04 09:42:30.83	350.70	15.62	-40.3	-55.3	3.8	1.49e+00	0	57	104	1066401792	52	19944
2026-01-04 09:42:31.84	350.65	15.51	-40.2	-55.1	3.8	1.49e+00	0	57	104	1066401792	52	19613
2026-01-04 09:42:32.85	350.60	15.40	-40.6	-55.3	3.8	1.49e+00	0	57	104	1066401792	51	21032
2026-01-04 09:42:33.86	350.55	15.30	-40.5	-55.1	3.8	1.49e+00	0	57	104	1066401792	52	19583
2026-01-04 09:42:34.87	350.51	15.19	-40.5	-55.3	3.8	1.49e+00	0	56	104	1066401792	52	19863
2026-01-04 09:42:35.88	350.46	15.09	-40.5	-55.1	3.8	1.49e+00	0	57	104	1066401792	52	19501
2026-01-04 09:42:36.89	350.41	14.98	-40.5	-55.1	3.8	1.49e+00	0	57	104	1066401792	52	19611
2026-01-04 09:42:37.90	350.36	14.88	-40.6	-55.3	3.8	1.49e+00	0	57	104	1066401792	52	20020
2026-01-04 09:42:38.91	350.32	14.77	-40.3	-55.2	3.8	1.49e+00	0	57	104	1066401792	52	19653
2026-01-04 09:42:39.92	350.27	14.67	-40.6	-55.4	3.8	1.49e+00	0	57	104	1066401792	52	20078
2026-01-04 09:42:40.93	350.23	14.57	-40.3	-55.4	3.8	1.49e+00	0	57	104	1066401792	51	21292
2026-01-04 09:42:41.94	350.18	14.46	-40.7	-55.2	3.8	1.49e+00	0	57	104	1066401792	52	19714
2026-01-04 09:42:42.95	350.13	14.36	-40.4	-55.3	3.8	1.49e+00	0	57	104	1066401792	51	21197
2026-01-04 09:42:43.96	350.09	14.26	-40.7	-55.3	3.8	1.49e+00	0	57	104	1066401792	52	19843
2026-01-04 09:42:44.97	350.05	14.16	-40.6	-55.2	3.8	1.49e+00	0	57	104	1066401792	52	19626
