passes_logs/2026/01/17/PlanumMoscow/PlanumMoscow__20260117_104250_METEOR-M2_4_rec.log

#Pass ID: 20260117_104250_METEOR-M2 4
#Satellite: METEOR-M2 4
#Configuration: METEOR-M2 4
#Start time: 2026-01-17 10:42:55.366182

#LorettStation: 1.0.0 05.05.2024
#Station: PlanumMoscow
#Location: 37.6253844 lon 55.6713361 lat
#TLE: 1 59051U 24039A   25293.94737965  .00000087  00000+0  58459-4 0  9998
#TLE: 2 59051  98.6671 251.7071 0007726 135.4772 224.7028 14.22388966 85257

#Time	Az	El	Level	SNR
2026-01-17 10:46:33.818646	127.6	27.9	-63.2	10.7
2026-01-17 10:46:34.941900	127.4	28.1	-64.2	9.1
2026-01-17 10:46:36.063164	127.3	28.2	-62.3	9.2
2026-01-17 10:46:37.184923	127.1	28.4	-62.5	9.3
2026-01-17 10:46:38.306216	126.9	28.6	-64.8	13.3
2026-01-17 10:46:39.427974	126.8	28.8	-64.3	12.9
2026-01-17 10:46:40.550236	126.6	29.0	-63.9	12.6
2026-01-17 10:46:41.671994	126.4	29.1	-64.5	12.3
2026-01-17 10:46:42.792793	126.2	29.3	-63.9	7.8
2026-01-17 10:46:43.914055	126.1	29.5	-63.7	10.6
2026-01-17 10:46:45.035813	125.9	29.7	-62.3	9.8
2026-01-17 10:46:46.158076	125.7	29.9	-61.7	8.5
2026-01-17 10:46:47.279834	125.5	30.1	-63.5	11.3
2026-01-17 10:46:48.401129	125.3	30.3	-63.9	12.7
2026-01-17 10:46:49.522887	125.1	30.5	-62.6	9.4
2026-01-17 10:46:50.644181	124.9	30.7	-64.2	13.2
2026-01-17 10:46:51.767939	124.7	30.9	-62.2	8.1
2026-01-17 10:46:52.890193	124.5	31.0	-63.4	12.2
2026-01-17 10:46:54.012446	124.3	31.2	-63.8	12.8
2026-01-17 10:46:55.134204	124.1	31.4	-63.9	11.6
2026-01-17 10:46:56.255466	123.9	31.6	-64.6	12.5
2026-01-17 10:46:57.377233	123.7	31.8	-64.5	12.2
2026-01-17 10:46:58.498534	123.5	32.0	-65.2	12.9
2026-01-17 10:46:59.622311	123.3	32.2	-64.3	13.2
2026-01-17 10:47:00.744077	123.1	32.4	-63.4	10.9
2026-01-17 10:47:01.865834	122.9	32.6	-61.8	8.1
2026-01-17 10:47:02.987096	122.7	32.8	-63.4	12.0
2026-01-17 10:47:04.109358	122.4	33.0	-64.0	12.2
2026-01-17 10:47:05.231644	122.2	33.2	-63.3	7.9
2026-01-17 10:47:06.353402	122.0	33.4	-64.4	10.3
2026-01-17 10:47:07.478179	121.7	33.6	-62.8	7.4
2026-01-17 10:47:08.598450	121.5	33.9	-65.0	12.4
2026-01-17 10:47:09.719217	121.3	34.1	-63.0	11.8
2026-01-17 10:47:10.841017	121.0	34.3	-63.1	9.6
2026-01-17 10:47:11.961783	120.8	34.5	-64.1	12.6
2026-01-17 10:47:13.083555	120.5	34.7	-62.9	9.7
2026-01-17 10:47:14.204850	120.3	34.9	-64.8	11.4
2026-01-17 10:47:15.330619	120.0	35.1	-63.9	9.8
2026-01-17 10:47:16.452872	119.8	35.3	-64.1	12.7
2026-01-17 10:47:17.575134	119.5	35.5	-62.6	7.7
2026-01-17 10:47:18.696891	119.2	35.7	-63.8	11.8
2026-01-17 10:47:19.819145	119.0	36.0	-64.6	12.2
2026-01-17 10:47:20.940942	118.7	36.2	-64.0	10.0
2026-01-17 10:47:22.063196	118.4	36.4	-63.6	9.3
2026-01-17 10:47:23.185962	118.2	36.6	-64.4	9.3
2026-01-17 10:47:24.307721	117.9	36.8	-64.5	11.1
2026-01-17 10:47:25.429519	117.6	37.0	-63.2	9.9
2026-01-17 10:47:26.551772	117.3	37.3	-64.7	9.6
2026-01-17 10:47:27.673538	117.0	37.5	-64.7	10.3
2026-01-17 10:47:28.795791	116.7	37.7	-64.9	10.9
2026-01-17 10:47:29.918045	116.4	37.9	-63.5	6.7
2026-01-17 10:47:31.041348	116.1	38.1	-62.2	5.9
2026-01-17 10:47:32.163602	115.8	38.4	-62.5	9.4
2026-01-17 10:47:33.285369	115.5	38.6	-64.4	8.0
2026-01-17 10:47:34.407127	115.2	38.8	-63.9	10.6
2026-01-17 10:47:35.528901	114.8	39.0	-63.4	9.8
2026-01-17 10:47:36.683178	114.5	39.3	-64.3	8.3
2026-01-17 10:47:37.804936	114.2	39.5	-63.6	6.7
2026-01-17 10:47:38.926703	113.8	39.7	-64.1	9.6
2026-01-17 10:47:40.048957	113.5	39.9	-64.9	10.6
2026-01-17 10:47:41.169762	113.1	40.1	-62.5	9.5
2026-01-17 10:47:42.290529	112.8	40.4	-64.5	10.3
2026-01-17 10:47:43.412807	112.4	40.6	-65.2	8.2
2026-01-17 10:47:44.534576	112.1	40.8	-64.5	7.6
2026-01-17 10:47:45.656333	111.7	41.0	-65.2	10.8
2026-01-17 10:47:46.778646	111.3	41.3	-64.6	10.4
2026-01-17 10:47:47.900899	111.0	41.5	-65.1	9.3
2026-01-17 10:47:49.023657	110.6	41.7	-63.4	3.2
2026-01-17 10:47:50.145910	110.2	41.9	-64.2	6.9
2026-01-17 10:47:51.268205	109.8	42.2	-63.4	5.9
2026-01-17 10:47:52.388972	109.4	42.4	-64.7	5.2
2026-01-17 10:47:53.510739	109.0	42.6	-64.5	6.8
2026-01-17 10:47:54.633497	108.6	42.8	-66.2	9.1
2026-01-17 10:47:55.755750	108.2	43.1	-65.3	11.0
2026-01-17 10:47:56.878042	107.7	43.3	-66.4	10.9
2026-01-17 10:47:58.000295	107.3	43.5	-64.6	11.3
2026-01-17 10:47:59.121557	106.9	43.7	-63.4	6.1
2026-01-17 10:48:00.243818	106.4	43.9	-64.8	9.8
2026-01-17 10:48:01.364585	106.0	44.2	-64.3	9.0
2026-01-17 10:48:02.486386	105.5	44.4	-65.5	10.3
2026-01-17 10:48:03.608640	105.1	44.6	-65.6	10.7
2026-01-17 10:48:04.729942	104.6	44.8	-64.9	9.6
2026-01-17 10:48:05.851204	104.2	45.0	-65.5	8.7
2026-01-17 10:48:06.972962	103.7	45.2	-64.6	10.3
2026-01-17 10:48:08.095216	103.2	45.5	-65.7	10.4
2026-01-17 10:48:09.217477	102.7	45.7	-65.0	7.4
2026-01-17 10:48:10.339770	102.2	45.9	-65.8	10.6
2026-01-17 10:48:11.462023	101.7	46.1	-64.6	9.3
2026-01-17 10:48:12.583781	101.2	46.3	-64.7	9.0
2026-01-17 10:48:13.705540	100.7	46.5	-65.0	8.8
2026-01-17 10:48:14.827801	100.1	46.7	-65.7	10.3
2026-01-17 10:48:15.950055	99.6	46.9	-64.8	9.9
2026-01-17 10:48:17.071854	99.1	47.1	-64.7	7.9
2026-01-17 10:48:18.195613	98.5	47.3	-64.6	8.8
2026-01-17 10:48:19.317404	98.0	47.5	-63.9	7.1
2026-01-17 10:48:20.439657	97.4	47.7	-65.4	8.2
2026-01-17 10:48:21.562415	96.9	47.9	-65.8	6.7
2026-01-17 10:48:22.684669	96.3	48.1	-62.9	5.8
2026-01-17 10:48:23.806922	95.7	48.3	-63.9	5.3
2026-01-17 10:48:24.928688	95.1	48.5	-64.0	6.3
2026-01-17 10:48:26.051941	94.5	48.7	-63.9	8.5
2026-01-17 10:48:27.174234	93.9	48.9	-64.4	6.9
2026-01-17 10:48:28.296488	93.3	49.0	-64.7	8.2
2026-01-17 10:48:29.418741	92.7	49.2	-64.7	6.3
2026-01-17 10:48:30.540515	92.1	49.4	-63.5	5.0
2026-01-17 10:48:31.663298	91.4	49.6	-63.6	5.0
2026-01-17 10:48:32.785056	90.8	49.7	-64.2	6.8
2026-01-17 10:48:33.907310	90.2	49.9	-63.6	6.4
2026-01-17 10:48:35.029572	89.5	50.1	-65.1	7.9
2026-01-17 10:48:36.151329	88.8	50.2	-65.1	8.9
2026-01-17 10:48:37.273583	88.2	50.4	-63.8	5.4
2026-01-17 10:48:38.395876	87.5	50.5	-64.5	5.8
2026-01-17 10:48:39.518130	86.8	50.7	-64.9	7.1
2026-01-17 10:48:40.640393	86.1	50.8	-63.3	5.1
2026-01-17 10:48:41.764680	85.4	51.0	-64.3	3.4
2026-01-17 10:48:42.886934	84.7	51.1	-65.1	9.3
2026-01-17 10:48:44.009187	84.0	51.2	-64.9	7.1
2026-01-17 10:48:45.129963	83.3	51.3	-65.6	9.5
2026-01-17 10:48:46.253217	82.6	51.5	-65.4	9.8
2026-01-17 10:48:47.375470	81.9	51.6	-64.3	5.7
2026-01-17 10:48:48.497764	81.2	51.7	-64.3	7.2
2026-01-17 10:48:49.622037	80.4	51.8	-63.4	6.2
2026-01-17 10:48:50.743300	79.7	51.9	-64.4	8.1
2026-01-17 10:48:51.865553	78.9	52.0	-64.9	7.1
2026-01-17 10:48:52.987360	78.2	52.1	-63.4	5.1
2026-01-17 10:48:54.109613	77.4	52.2	-63.5	5.6
2026-01-17 10:48:55.231875	76.7	52.3	-64.4	5.9
2026-01-17 10:48:56.353680	75.9	52.4	-63.9	5.9
2026-01-17 10:48:57.475438	75.2	52.4	-64.4	5.8
2026-01-17 10:48:58.598691	74.4	52.5	-63.8	5.2
2026-01-17 10:48:59.720945	73.6	52.6	-64.8	6.6
2026-01-17 10:49:00.842712	72.8	52.6	-64.8	7.1
2026-01-17 10:49:01.964966	72.1	52.7	-64.6	4.9
2026-01-17 10:49:03.086756	71.3	52.7	-65.3	7.0
2026-01-17 10:49:04.208515	70.5	52.8	-65.2	7.3
2026-01-17 10:49:05.330777	69.7	52.8	-63.5	4.5
2026-01-17 10:49:06.452535	68.9	52.9	-64.9	7.0
2026-01-17 10:49:07.574788	68.1	52.9	-63.8	5.9
2026-01-17 10:49:08.696081	67.3	52.9	-63.5	5.2
2026-01-17 10:49:09.818334	66.5	52.9	-63.3	6.0
2026-01-17 10:49:10.940596	65.7	52.9	-63.5	6.1
2026-01-17 10:49:12.062849	64.9	52.9	-63.0	4.1
2026-01-17 10:49:13.185103	64.2	52.9	-62.6	1.8
2026-01-17 10:49:14.306901	63.4	52.9	-61.8	2.0
2026-01-17 10:49:15.430155	62.6	52.9	-62.5	3.9
2026-01-17 10:49:16.551921	61.8	52.9	-62.9	3.4
2026-01-17 10:49:17.674174	61.0	52.9	-62.5	4.0
2026-01-17 10:49:18.795964	60.2	52.8	-62.8	5.0
2026-01-17 10:49:19.918218	59.4	52.8	-61.7	2.4
2026-01-17 10:49:21.040481	58.6	52.8	-62.8	3.2
2026-01-17 10:49:22.162735	57.8	52.7	-61.3	0.0
2026-01-17 10:49:23.288493	57.1	52.7	-61.4	0.0
2026-01-17 10:49:24.410787	56.3	52.6	-61.6	0.0
2026-01-17 10:49:25.533040	55.5	52.5	-63.6	3.0
2026-01-17 10:49:26.655294	54.7	52.5	-61.9	0.0
2026-01-17 10:49:27.777556	54.0	52.4	-62.0	1.2
2026-01-17 10:49:28.898851	53.2	52.3	-63.1	0.5
2026-01-17 10:49:30.021104	52.4	52.2	-62.2	1.9
2026-01-17 10:49:31.147872	51.7	52.1	-63.4	1.2
2026-01-17 10:49:32.270125	50.9	52.0	-61.3	0.0
2026-01-17 10:49:33.392378	50.2	51.9	-63.8	2.8
2026-01-17 10:49:34.514671	49.5	51.8	-62.9	0.0
2026-01-17 10:49:35.636925	48.7	51.7	-62.3	1.3
2026-01-17 10:49:36.758187	48.0	51.6	-62.6	2.6
2026-01-17 10:49:37.880440	47.3	51.5	-62.1	0.8
2026-01-17 10:49:39.004237	46.6	51.4	-62.4	1.1
2026-01-17 10:49:40.126490	45.8	51.3	-62.5	0.2
2026-01-17 10:49:41.248257	45.1	51.1	-61.4	0.0
2026-01-17 10:49:42.370510	44.4	51.0	-61.6	0.8
2026-01-17 10:49:43.492764	43.7	50.9	-62.0	0.5
2026-01-17 10:49:44.614572	43.1	50.7	-61.6	0.4
2026-01-17 10:49:45.736331	42.4	50.6	-60.6	0.0
2026-01-17 10:49:46.858089	41.7	50.4	-61.1	0.0
2026-01-17 10:49:47.985343	41.0	50.3	-61.0	0.0
2026-01-17 10:49:49.107605	40.4	50.1	-61.1	0.0
2026-01-17 10:49:50.229898	39.7	49.9	-58.8	0.0
2026-01-17 10:49:51.352152	39.1	49.8	-61.1	0.6
2026-01-17 10:49:52.474405	38.4	49.6	-58.7	0.0
2026-01-17 10:49:53.595699	37.8	49.4	-63.1	0.9
2026-01-17 10:49:54.717952	37.2	49.3	-61.1	0.0
2026-01-17 10:49:55.843216	36.6	49.1	-61.6	0.1
2026-01-17 10:49:56.965478	36.0	48.9	-61.4	0.0
2026-01-17 10:49:58.087731	35.4	48.7	-59.7	0.0
2026-01-17 10:49:59.209985	34.8	48.5	-59.8	0.0
2026-01-17 10:50:00.332278	34.2	48.4	-60.0	0.0
2026-01-17 10:50:01.454531	33.6	48.2	-59.2	0.0
2026-01-17 10:50:02.576793	33.0	48.0	-60.1	0.0
2026-01-17 10:50:03.698551	32.4	47.8	-59.8	0.0
2026-01-17 10:50:04.820844	31.9	47.6	-59.0	0.0
2026-01-17 10:50:05.943097	31.3	47.4	-59.4	0.0
2026-01-17 10:50:07.064860	30.8	47.2	-58.9	0.0
2026-01-17 10:50:08.187114	30.3	47.0	-59.9	0.0
2026-01-17 10:50:09.309895	29.7	46.8	-59.2	0.0
2026-01-17 10:50:10.432149	29.2	46.6	-59.7	0.0
2026-01-17 10:50:11.553907	28.7	46.4	-59.3	0.0
2026-01-17 10:50:12.676169	28.2	46.2	-58.7	0.0
2026-01-17 10:50:13.798423	27.7	46.0	-58.2	0.0
2026-01-17 10:50:14.920716	27.2	45.7	-58.9	0.0
2026-01-17 10:50:16.042969	26.7	45.5	-58.5	0.0
2026-01-17 10:50:17.165231	26.2	45.3	-59.8	0.0
2026-01-17 10:50:18.287484	25.7	45.1	-60.1	0.0
2026-01-17 10:50:19.409738	25.2	44.9	-58.8	0.0
2026-01-17 10:50:20.531538	24.8	44.7	-60.9	0.0
2026-01-17 10:50:21.653791	24.3	44.5	-61.7	0.0
2026-01-17 10:50:22.776044	23.9	44.2	-60.5	0.0
2026-01-17 10:50:23.898297	23.4	44.0	-60.5	0.0
2026-01-17 10:50:25.020080	23.0	43.8	-60.7	4.2
2026-01-17 10:50:26.142847	22.6	43.6	-62.7	3.0
2026-01-17 10:50:27.264605	22.1	43.4	-60.7	0.5
2026-01-17 10:50:28.387372	21.7	43.1	-62.4	3.9
2026-01-17 10:50:29.510625	21.3	42.9	-61.5	4.1
2026-01-17 10:50:30.632408	20.9	42.7	-61.0	0.7
2026-01-17 10:50:31.754661	20.5	42.5	-62.3	3.8
2026-01-17 10:50:32.875923	20.1	42.2	-62.5	5.0
2026-01-17 10:50:33.998177	19.7	42.0	-61.7	3.2
2026-01-17 10:50:35.119966	19.3	41.8	-61.9	0.7
2026-01-17 10:50:36.242229	18.9	41.6	-61.6	0.6
2026-01-17 10:50:37.365482	18.5	41.4	-59.7	0.0
2026-01-17 10:50:38.487737	18.2	41.1	-59.1	0.0
2026-01-17 10:50:39.610494	17.8	40.9	-59.1	0.0
2026-01-17 10:50:40.732787	17.4	40.7	-60.6	0.0
2026-01-17 10:50:41.855040	17.1	40.5	-60.5	0.0
2026-01-17 10:50:42.976799	16.7	40.2	-62.4	4.4
2026-01-17 10:50:44.098062	16.4	40.0	-60.6	1.4
2026-01-17 10:50:45.220315	16.0	39.8	-60.0	1.1
2026-01-17 10:50:46.342568	15.7	39.6	-60.3	0.6
2026-01-17 10:50:47.464822	15.4	39.4	-62.4	3.8
2026-01-17 10:50:48.587075	15.0	39.1	-62.9	5.5
2026-01-17 10:50:49.709329	14.7	38.9	-62.0	3.1
2026-01-17 10:50:50.831582	14.4	38.7	-61.7	3.3
2026-01-17 10:50:51.953364	14.1	38.5	-62.8	2.2
2026-01-17 10:50:53.077122	13.8	38.2	-62.2	1.8
2026-01-17 10:50:54.199385	13.5	38.0	-62.9	3.7
2026-01-17 10:50:55.321638	13.2	37.8	-62.8	2.6
2026-01-17 10:50:56.442923	12.9	37.6	-61.5	2.4
2026-01-17 10:50:57.565177	12.6	37.4	-61.5	2.0
2026-01-17 10:50:58.687430	12.3	37.2	-61.7	4.6
2026-01-17 10:50:59.809683	12.0	36.9	-62.0	3.8
2026-01-17 10:51:00.933946	11.7	36.7	-62.5	2.9
2026-01-17 10:51:02.056239	11.4	36.5	-61.3	1.1
2026-01-17 10:51:03.177998	11.2	36.3	-60.7	1.4
2026-01-17 10:51:04.299259	10.9	36.1	-61.1	2.7
2026-01-17 10:51:05.422050	10.6	35.9	-61.2	2.8
2026-01-17 10:51:06.544303	10.4	35.7	-61.9	4.8
2026-01-17 10:51:07.666557	10.1	35.4	-62.7	2.3
2026-01-17 10:51:08.792333	9.8	35.2	-63.3	3.7
2026-01-17 10:51:09.915086	9.6	35.0	-62.5	4.6
2026-01-17 10:51:11.037339	9.3	34.8	-60.4	0.0
2026-01-17 10:51:12.159137	9.1	34.6	-62.3	5.1
2026-01-17 10:51:13.280895	8.8	34.4	-61.8	3.5
2026-01-17 10:51:14.402653	8.6	34.2	-63.2	9.1
2026-01-17 10:51:15.524411	8.4	34.0	-61.2	3.3
2026-01-17 10:51:16.645713	8.1	33.8	-61.5	3.3
2026-01-17 10:51:17.772968	7.9	33.6	-62.1	4.7
2026-01-17 10:51:18.895222	7.7	33.4	-61.9	2.2
2026-01-17 10:51:20.016988	7.4	33.2	-61.0	2.1
2026-01-17 10:51:21.139241	7.2	33.0	-61.6	2.2
2026-01-17 10:51:22.261031	7.0	32.8	-63.5	6.3
2026-01-17 10:51:23.383284	6.8	32.6	-62.4	5.7
2026-01-17 10:51:24.505537	6.6	32.4	-61.2	3.1
2026-01-17 10:51:25.626808	6.3	32.2	-62.4	4.5
2026-01-17 10:51:26.749062	6.1	32.0	-61.4	2.2
2026-01-17 10:51:27.870851	5.9	31.8	-61.5	3.4
2026-01-17 10:51:28.993105	5.7	31.6	-63.2	7.7
2026-01-17 10:51:30.115366	5.5	31.4	-64.1	6.8
2026-01-17 10:51:31.237620	5.3	31.2	-61.6	6.5
2026-01-17 10:51:32.359873	5.1	31.0	-64.1	8.7
2026-01-17 10:51:33.482713	4.9	30.8	-61.6	4.3
2026-01-17 10:51:34.609471	4.7	30.6	-61.0	2.9
2026-01-17 10:51:35.731285	4.5	30.4	-62.4	4.6
2026-01-17 10:51:36.853538	4.4	30.2	-61.8	3.3
2026-01-17 10:51:37.975791	4.2	30.0	-61.0	2.3
2026-01-17 10:51:39.098045	4.0	29.8	-60.1	2.0
2026-01-17 10:51:40.220306	3.8	29.7	-61.9	2.7
2026-01-17 10:51:41.342601	3.6	29.5	-62.3	4.3
2026-01-17 10:51:42.464360	3.5	29.3	-62.5	4.2
2026-01-17 10:51:43.586612	3.3	29.1	-62.0	3.0
2026-01-17 10:51:44.708875	3.1	28.9	-62.3	5.4
2026-01-17 10:51:45.830664	2.9	28.7	-63.8	7.4
2026-01-17 10:51:46.952917	2.8	28.6	-60.3	0.8
2026-01-17 10:51:48.075218	2.6	28.4	-62.2	4.4
2026-01-17 10:51:49.196481	2.4	28.2	-61.6	4.1
2026-01-17 10:51:50.318743	2.3	28.0	-61.8	5.6
2026-01-17 10:51:51.440005	2.1	27.8	-61.3	2.7
2026-01-17 10:51:52.562259	1.9	27.7	-61.0	2.6
2026-01-17 10:51:53.685050	1.8	27.5	-62.1	4.8
2026-01-17 10:51:54.807303	1.6	27.3	-61.8	5.9
2026-01-17 10:51:55.929565	1.5	27.1	-60.9	2.5
2026-01-17 10:51:57.051819	1.3	27.0	-61.8	2.0
2026-01-17 10:51:58.173619	1.2	26.8	-61.8	4.9
2026-01-17 10:51:59.295873	1.0	26.6	-63.1	5.9
2026-01-17 10:52:00.416648	0.9	26.4	-63.3	2.9
2026-01-17 10:52:01.538901	0.7	26.3	-62.0	6.1
2026-01-17 10:52:02.661155	0.6	26.1	-64.8	8.9
2026-01-17 10:52:03.783433	0.4	25.9	-63.2	7.1
2026-01-17 10:52:04.905686	0.3	25.8	-64.4	8.5
2026-01-17 10:52:06.027948	0.2	25.6	-63.8	5.9
2026-01-17 10:52:07.150201	0.0	25.4	-63.8	5.2
2026-01-17 10:52:08.272454	359.9	25.3	-63.2	5.9
2026-01-17 10:52:09.399750	359.8	25.1	-63.7	5.5
2026-01-17 10:52:10.521507	359.6	24.9	-63.3	4.2
2026-01-17 10:52:11.643801	359.5	24.8	-62.8	5.3
2026-01-17 10:52:12.766055	359.4	24.6	-62.7	4.5
2026-01-17 10:52:13.888308	359.2	24.5	-62.0	3.7
2026-01-17 10:52:15.010562	359.1	24.3	-63.7	4.8
2026-01-17 10:52:16.132815	359.0	24.1	-63.4	4.9
2026-01-17 10:52:17.254573	358.8	24.0	-64.0	5.9
2026-01-17 10:52:18.376826	358.7	23.8	-63.8	6.0
2026-01-17 10:52:19.499614	358.6	23.7	-62.8	5.1
2026-01-17 10:52:20.621867	358.5	23.5	-63.2	7.2
2026-01-17 10:52:21.744144	358.4	23.4	-63.0	6.1
2026-01-17 10:52:22.866398	358.2	23.2	-63.9	8.3
2026-01-17 10:52:23.988187	358.1	23.0	-63.2	6.9
2026-01-17 10:52:25.109946	358.0	22.9	-64.4	8.5
2026-01-17 10:52:26.231704	357.9	22.7	-63.0	5.7
2026-01-17 10:52:27.353957	357.8	22.6	-62.6	6.9
2026-01-17 10:52:28.476219	357.7	22.4	-63.3	7.4
2026-01-17 10:52:29.598519	357.5	22.3	-63.0	5.1
2026-01-17 10:52:30.720276	357.4	22.1	-63.4	6.6
2026-01-17 10:52:31.842529	357.3	22.0	-63.6	7.3
2026-01-17 10:52:32.964791	357.2	21.8	-63.5	7.0
2026-01-17 10:52:34.087044	357.1	21.7	-62.8	4.6
2026-01-17 10:52:35.209338	357.0	21.6	-61.4	4.7
2026-01-17 10:52:36.331096	356.9	21.4	-62.9	4.4
2026-01-17 10:52:37.453358	356.8	21.3	-63.3	4.5
2026-01-17 10:52:38.575612	356.7	21.1	-63.4	3.8
2026-01-17 10:52:39.697866	356.6	21.0	-62.6	3.7
2026-01-17 10:52:40.820654	356.5	20.8	-64.1	5.0
2026-01-17 10:52:41.942907	356.4	20.7	-62.5	4.9
2026-01-17 10:52:43.064665	356.3	20.6	-63.3	6.2
2026-01-17 10:52:44.186919	356.2	20.4	-63.7	6.0
2026-01-17 10:52:45.309172	356.1	20.3	-62.1	6.5
2026-01-17 10:52:46.431962	356.0	20.1	-62.2	2.3
2026-01-17 10:52:47.554215	355.9	20.0	-62.6	4.8
2026-01-17 10:52:48.675981	355.8	19.9	-63.6	7.8
2026-01-17 10:52:49.798740	355.7	19.7	-64.2	6.6
2026-01-17 10:52:50.920498	355.6	19.6	-64.7	6.1
2026-01-17 10:52:52.042790	355.5	19.5	-63.7	3.7
2026-01-17 10:52:53.165044	355.4	19.3	-63.6	7.2
2026-01-17 10:52:54.287803	355.3	19.2	-62.6	0.6
2026-01-17 10:52:55.410064	355.2	19.0	-61.3	0.0
2026-01-17 10:52:56.532318	355.2	18.9	-63.0	5.4
2026-01-17 10:52:57.655108	355.1	18.8	-63.2	5.7
2026-01-17 10:52:58.777361	355.0	18.7	-63.0	5.5
2026-01-17 10:52:59.899614	354.9	18.5	-63.8	5.4
2026-01-17 10:53:01.021393	354.8	18.4	-62.5	3.4
2026-01-17 10:53:02.143646	354.7	18.3	-62.4	2.3
2026-01-17 10:53:03.265942	354.6	18.1	-63.7	6.2
2026-01-17 10:53:04.388195	354.5	18.0	-63.0	5.1
2026-01-17 10:53:05.510449	354.5	17.9	-62.8	3.4
2026-01-17 10:53:06.632710	354.4	17.7	-64.6	5.2
2026-01-17 10:53:07.754963	354.3	17.6	-64.3	5.8
2026-01-17 10:53:08.877264	354.2	17.5	-64.3	6.2
2026-01-17 10:53:10.002518	354.1	17.4	-64.5	7.0
2026-01-17 10:53:11.124327	354.1	17.2	-63.8	6.3
2026-01-17 10:53:12.246580	354.0	17.1	-64.3	6.4
2026-01-17 10:53:13.368842	353.9	17.0	-62.7	3.6
2026-01-17 10:53:14.491152	353.8	16.9	-61.7	3.0
2026-01-17 10:53:15.612910	353.7	16.8	-63.0	1.1
2026-01-17 10:53:16.735173	353.7	16.6	-63.4	0.0
2026-01-17 10:53:17.856932	353.6	16.5	-62.1	0.4
2026-01-17 10:53:18.979185	353.5	16.4	-62.9	6.5
2026-01-17 10:53:20.101960	353.4	16.3	-64.0	4.1
2026-01-17 10:53:21.224213	353.4	16.1	-63.0	2.9
2026-01-17 10:53:22.346473	353.3	16.0	-62.6	2.1
2026-01-17 10:53:23.468727	353.2	15.9	-62.4	1.3
2026-01-17 10:53:24.590980	353.2	15.8	-64.5	3.2
2026-01-17 10:53:25.713761	353.1	15.7	-63.6	2.3
2026-01-17 10:53:26.835518	353.0	15.6	-63.3	2.9
2026-01-17 10:53:27.957771	352.9	15.4	-63.9	3.5
2026-01-17 10:53:29.080032	352.9	15.3	-64.5	3.9
2026-01-17 10:53:30.202285	352.8	15.2	-64.6	3.4
2026-01-17 10:53:31.324569	352.7	15.1	-63.5	2.8
2026-01-17 10:53:32.446327	352.7	15.0	-64.4	3.3
2026-01-17 10:53:33.569093	352.6	14.9	-64.5	4.5
2026-01-17 10:53:34.690874	352.5	14.7	-65.0	3.2
2026-01-17 10:53:35.812632	352.5	14.6	-63.2	0.0
2026-01-17 10:53:36.934886	352.4	14.5	-63.3	4.8
2026-01-17 10:53:38.057139	352.3	14.4	-63.5	3.7
2026-01-17 10:53:39.179441	352.3	14.3	-65.0	5.3
2026-01-17 10:53:40.301695	352.2	14.2	-63.7	2.5
2026-01-17 10:53:41.423493	352.1	14.1	-63.8	3.8
2026-01-17 10:53:42.545746	352.1	14.0	-64.3	5.4
2026-01-17 10:53:43.667557	352.0	13.9	-63.8	2.7
2026-01-17 10:53:44.817324	352.0	13.7	-63.9	2.9
2026-01-17 10:53:45.939089	351.9	13.6	-63.0	5.0
2026-01-17 10:53:47.061384	351.8	13.5	-63.9	4.9
2026-01-17 10:53:48.183638	351.8	13.4	-64.3	6.5
2026-01-17 10:53:49.305891	351.7	13.3	-64.4	6.2
2026-01-17 10:53:50.428144	351.7	13.2	-65.1	6.3
2026-01-17 10:53:51.549926	351.6	13.1	-63.5	5.2
2026-01-17 10:53:52.672195	351.5	13.0	-63.9	6.7
2026-01-17 10:53:53.793458	351.5	12.9	-64.8	6.3
2026-01-17 10:53:54.914720	351.4	12.8	-63.0	4.8
2026-01-17 10:53:56.036487	351.4	12.7	-63.5	5.1
2026-01-17 10:53:57.158261	351.3	12.6	-63.4	3.6
2026-01-17 10:53:58.281035	351.3	12.5	-64.1	5.5
2026-01-17 10:53:59.403288	351.2	12.4	-64.0	5.1
2026-01-17 10:54:00.524064	351.1	12.3	-64.8	6.6
2026-01-17 10:54:01.645326	351.1	12.2	-64.9	5.5
2026-01-17 10:54:02.767084	351.0	12.1	-64.9	6.0
2026-01-17 10:54:03.889376	351.0	12.0	-64.3	5.8
2026-01-17 10:54:05.012134	350.9	11.8	-63.7	5.5
2026-01-17 10:54:06.134397	350.9	11.7	-63.9	3.4
2026-01-17 10:54:07.256154	350.8	11.6	-63.7	2.5
2026-01-17 10:54:08.377951	350.8	11.5	-64.5	3.2
2026-01-17 10:54:09.500205	350.7	11.4	-65.0	4.2
2026-01-17 10:54:10.621963	350.7	11.3	-63.8	2.2
2026-01-17 10:54:11.743720	350.6	11.2	-63.7	1.0
2026-01-17 10:54:12.864984	350.6	11.1	-64.7	4.8
2026-01-17 10:54:13.987237	350.5	11.0	-64.3	2.1
2026-01-17 10:54:15.109490	350.5	11.0	-64.4	2.8
2026-01-17 10:54:16.230761	350.4	10.9	-64.4	4.1
2026-01-17 10:54:17.352023	350.4	10.8	-63.7	1.5
2026-01-17 10:54:18.477823	350.3	10.7	-63.6	4.1
2026-01-17 10:54:19.599086	350.3	10.6	-65.2	5.0
2026-01-17 10:54:20.721348	350.2	10.5	-65.0	3.5
2026-01-17 10:54:21.843105	350.2	10.4	-62.7	0.0
2026-01-17 10:54:22.965359	350.1	10.3	-63.5	3.0
2026-01-17 10:54:24.087653	350.1	10.2	-64.2	2.3
2026-01-17 10:54:25.209410	350.0	10.1	-65.1	3.2
2026-01-17 10:54:26.333674	350.0	10.0	-65.0	1.3
2026-01-17 10:54:27.454449	349.9	9.9	-65.3	2.4
2026-01-17 10:54:28.576207	349.9	9.8	-65.2	0.4
2026-01-17 10:54:29.697509	349.8	9.7	-65.0	0.0
2026-01-17 10:54:30.819762	349.8	9.6	-65.4	1.3
2026-01-17 10:54:31.940033	349.7	9.5	-66.6	1.0
2026-01-17 10:54:33.061790	349.7	9.4	-64.7	0.0
2026-01-17 10:54:34.183052	349.7	9.3	-65.5	0.0
2026-01-17 10:54:35.308811	349.6	9.2	-63.7	0.0
2026-01-17 10:54:36.431570	349.6	9.2	-64.2	0.0
2026-01-17 10:54:37.553824	349.5	9.1	-66.0	0.0
2026-01-17 10:54:38.675582	349.5	9.0	-64.6	0.0
2026-01-17 10:54:39.797835	349.4	8.9	-64.1	0.0
2026-01-17 10:54:40.920089	349.4	8.8	-66.2	0.0
2026-01-17 10:54:42.041847	349.3	8.7	-65.2	0.0
2026-01-17 10:54:43.167110	349.3	8.6	-65.0	0.0
2026-01-17 10:54:44.288372	349.3	8.5	-63.8	0.0
2026-01-17 10:54:45.409639	349.2	8.4	-65.6	0.0
2026-01-17 10:54:46.531397	349.2	8.3	-65.1	0.0
2026-01-17 10:54:47.653651	349.1	8.3	-65.4	0.0
2026-01-17 10:54:48.775904	349.1	8.2	-65.9	0.0
2026-01-17 10:54:49.898168	349.1	8.1	-64.3	0.0
2026-01-17 10:54:51.023432	349.0	8.0	-66.7	1.8
2026-01-17 10:54:52.145686	349.0	7.9	-63.1	0.0
2026-01-17 10:54:53.267443	348.9	7.8	-65.1	0.0
2026-01-17 10:54:54.389696	348.9	7.7	-64.7	0.0
2026-01-17 10:54:55.511454	348.9	7.6	-64.8	0.0
2026-01-17 10:54:56.633212	348.8	7.6	-65.4	0.0
2026-01-17 10:54:57.755466	348.8	7.5	-65.0	0.0
2026-01-17 10:54:58.876728	348.7	7.4	-65.2	0.0
2026-01-17 10:54:59.998982	348.7	7.3	-65.6	0.0
2026-01-17 10:55:01.121235	348.7	7.2	-64.5	0.0
2026-01-17 10:55:02.242994	348.6	7.1	-63.0	0.0
2026-01-17 10:55:03.364752	348.6	7.0	-63.9	0.0
2026-01-17 10:55:04.486014	348.6	7.0	-65.7	0.0
2026-01-17 10:55:05.608267	348.5	6.9	-65.0	0.0
2026-01-17 10:55:06.730521	348.5	6.8	-64.3	0.0
2026-01-17 10:55:07.851288	348.4	6.7	-63.9	0.0
2026-01-17 10:55:08.973044	348.4	6.6	-64.7	0.0
2026-01-17 10:55:10.092801	348.4	6.5	-65.5	0.0
2026-01-17 10:55:11.214063	348.3	6.5	-65.3	0.0
2026-01-17 10:55:12.336317	348.3	6.4	-65.7	0.0
2026-01-17 10:55:13.458570	348.3	6.3	-64.9	0.0
2026-01-17 10:55:14.580329	348.2	6.2	-65.7	0.0
2026-01-17 10:55:15.705087	348.2	6.1	-63.7	0.0
2026-01-17 10:55:16.827341	348.2	6.0	-64.4	0.0
2026-01-17 10:55:17.949594	348.1	6.0	-66.3	0.0
2026-01-17 10:55:19.071352	348.1	5.9	-66.6	0.0
2026-01-17 10:55:20.193606	348.1	5.8	-68.7	0.0
2026-01-17 10:55:21.314867	348.0	5.7	-68.1	0.0
2026-01-17 10:55:22.437625	348.0	5.6	-68.3	0.0
2026-01-17 10:55:23.558890	348.0	5.6	-69.0	0.0
2026-01-17 10:55:24.680152	347.9	5.5	-70.3	0.0
2026-01-17 10:55:25.802406	347.9	5.4	-69.0	0.0
2026-01-17 10:55:26.924164	347.9	5.3	-69.9	0.0
2026-01-17 10:55:28.044931	347.8	5.2	-69.8	0.0
2026-01-17 10:55:29.166194	347.8	5.2	-69.9	0.0
2026-01-17 10:55:30.288457	347.8	5.1	-68.9	0.0
2026-01-17 10:55:31.409720	347.7	5.0	-69.8	0.0
#Closed at: 2026-01-17 10:42:50.367007