passes_logs/2026/01/17/PlanumMoscow/PlanumMoscow__20260117_065740_METOP-B_rec.log

#Pass ID: 20260117_065740_METOP-B
#Satellite: METOP-B
#Configuration: METOP-B
#Start time: 2026-01-17 06:57:45.620932

#LorettStation: 1.0.0 05.05.2024
#Station: PlanumMoscow
#Location: 37.6253844 lon 55.6713361 lat
#TLE: 1 38771U 12049A   25293.92766658  .00000266  00000+0  14193-3 0  9996
#TLE: 2 38771  98.6882 344.7603 0001609 341.5209  18.5909 14.21379342679275

#Time	Az	El	Level	SNR
2026-01-17 07:01:24.054527	26.3	28.9	-61.4	4.4
2026-01-17 07:01:25.177781	26.4	29.1	-62.3	4.6
2026-01-17 07:01:26.299044	26.5	29.3	-62.7	5.9
2026-01-17 07:01:27.419808	26.6	29.5	-63.1	5.4
2026-01-17 07:01:28.541566	26.7	29.7	-62.6	2.4
2026-01-17 07:01:29.662827	26.8	29.9	-63.4	5.1
2026-01-17 07:01:30.785099	26.8	30.1	-63.4	4.8
2026-01-17 07:01:31.906857	26.9	30.3	-63.2	4.6
2026-01-17 07:01:33.029111	27.0	30.5	-62.6	1.5
2026-01-17 07:01:34.150868	27.1	30.7	-62.0	1.4
2026-01-17 07:01:35.273122	27.2	31.0	-62.8	5.5
2026-01-17 07:01:36.394878	27.3	31.2	-63.2	6.5
2026-01-17 07:01:37.516634	27.4	31.4	-63.3	5.2
2026-01-17 07:01:38.639393	27.5	31.6	-62.7	3.5
2026-01-17 07:01:39.760654	27.6	31.8	-62.0	3.5
2026-01-17 07:01:40.882908	27.7	32.0	-62.9	4.6
2026-01-17 07:01:42.005161	27.8	32.3	-62.8	6.0
2026-01-17 07:01:43.127415	28.0	32.5	-62.5	6.9
2026-01-17 07:01:44.250172	28.1	32.7	-62.5	3.9
2026-01-17 07:01:45.371931	28.2	33.0	-62.4	3.3
2026-01-17 07:01:46.493193	28.3	33.2	-62.1	3.9
2026-01-17 07:01:47.614457	28.4	33.4	-61.9	2.2
2026-01-17 07:01:48.739216	28.5	33.7	-61.2	1.0
2026-01-17 07:01:49.860973	28.6	33.9	-61.0	1.5
2026-01-17 07:01:50.984731	28.7	34.1	-62.9	4.3
2026-01-17 07:01:52.106984	28.9	34.4	-62.9	3.3
2026-01-17 07:01:53.228742	29.0	34.6	-61.5	1.0
2026-01-17 07:01:54.350996	29.1	34.8	-62.4	5.0
2026-01-17 07:01:55.473250	29.2	35.1	-62.6	4.0
2026-01-17 07:01:56.595007	29.4	35.3	-62.9	5.4
2026-01-17 07:01:57.716269	29.5	35.6	-62.9	5.8
2026-01-17 07:01:58.838026	29.6	35.8	-60.7	4.6
2026-01-17 07:01:59.960280	29.8	36.1	-61.0	5.8
2026-01-17 07:02:01.082533	29.9	36.3	-61.1	3.5
2026-01-17 07:02:02.204291	30.0	36.6	-61.3	6.3
2026-01-17 07:02:03.325553	30.2	36.9	-62.1	5.4
2026-01-17 07:02:04.449310	30.3	37.1	-61.5	2.5
2026-01-17 07:02:05.577070	30.4	37.4	-60.8	3.3
2026-01-17 07:02:06.699828	30.6	37.6	-61.9	5.5
2026-01-17 07:02:07.821586	30.7	37.9	-60.9	1.0
2026-01-17 07:02:08.943848	30.9	38.2	-61.4	1.3
2026-01-17 07:02:10.066101	31.0	38.4	-59.4	2.6
2026-01-17 07:02:11.188354	31.2	38.7	-59.7	2.9
2026-01-17 07:02:12.309120	31.4	39.0	-60.0	0.3
2026-01-17 07:02:13.431373	31.5	39.3	-60.2	2.2
2026-01-17 07:02:14.552635	31.7	39.5	-59.7	1.1
2026-01-17 07:02:15.674402	31.8	39.8	-61.0	2.6
2026-01-17 07:02:16.796664	32.0	40.1	-60.3	1.6
2026-01-17 07:02:17.918422	32.2	40.4	-59.1	0.0
2026-01-17 07:02:19.040683	32.4	40.7	-60.1	0.0
2026-01-17 07:02:20.162936	32.5	40.9	-61.2	0.0
2026-01-17 07:02:21.284693	32.7	41.2	-60.2	0.0
2026-01-17 07:02:22.409956	32.9	41.5	-62.1	3.2
2026-01-17 07:02:23.532209	33.1	41.8	-58.6	0.0
2026-01-17 07:02:24.653966	33.3	42.1	-57.1	0.0
2026-01-17 07:02:25.775725	33.5	42.4	-57.7	0.0
2026-01-17 07:02:26.897481	33.7	42.7	-58.2	0.0
2026-01-17 07:02:28.019238	33.9	43.0	-60.5	2.1
2026-01-17 07:02:29.140996	34.1	43.3	-59.8	0.0
2026-01-17 07:02:30.263258	34.3	43.6	-60.6	0.8
2026-01-17 07:02:31.385511	34.5	43.9	-59.6	0.0
2026-01-17 07:02:32.506277	34.7	44.2	-58.7	0.0
2026-01-17 07:02:33.628034	34.9	44.5	-60.2	0.5
2026-01-17 07:02:34.749295	35.1	44.8	-58.8	0.0
2026-01-17 07:02:35.871053	35.4	45.2	-59.0	0.0
2026-01-17 07:02:36.992811	35.6	45.5	-60.7	3.0
2026-01-17 07:02:38.116568	35.8	45.8	-58.9	0.0
2026-01-17 07:02:39.238822	36.1	46.1	-57.6	0.0
2026-01-17 07:02:40.360580	36.3	46.4	-56.6	0.0
2026-01-17 07:02:41.482337	36.6	46.8	-57.2	0.0
2026-01-17 07:02:42.604095	36.8	47.1	-58.3	0.0
2026-01-17 07:02:43.725357	37.1	47.4	-58.1	0.0
2026-01-17 07:02:44.847116	37.4	47.7	-57.8	0.0
2026-01-17 07:02:45.969369	37.6	48.1	-58.9	0.0
2026-01-17 07:02:47.091636	37.9	48.4	-57.5	0.0
2026-01-17 07:02:48.213394	38.2	48.8	-59.4	0.0
2026-01-17 07:02:49.335647	38.5	49.1	-58.5	0.0
2026-01-17 07:02:50.457901	38.8	49.4	-59.9	0.0
2026-01-17 07:02:51.579163	39.1	49.8	-58.6	0.0
2026-01-17 07:02:52.700929	39.4	50.1	-59.7	0.0
2026-01-17 07:02:53.823192	39.7	50.5	-59.8	0.8
2026-01-17 07:02:54.944950	40.1	50.8	-58.9	0.0
2026-01-17 07:02:56.067203	40.4	51.2	-60.7	0.0
2026-01-17 07:02:57.189457	40.7	51.5	-60.7	0.0
2026-01-17 07:02:58.312215	41.1	51.9	-59.8	1.0
2026-01-17 07:02:59.433973	41.4	52.2	-60.2	0.4
2026-01-17 07:03:00.555731	41.8	52.6	-61.4	2.7
2026-01-17 07:03:01.677488	42.2	52.9	-62.1	1.4
2026-01-17 07:03:02.799246	42.6	53.3	-61.2	4.1
2026-01-17 07:03:03.922003	43.0	53.6	-61.2	3.1
2026-01-17 07:03:05.044257	43.4	54.0	-61.3	0.0
2026-01-17 07:03:06.166015	43.8	54.4	-61.6	3.6
2026-01-17 07:03:07.288269	44.2	54.7	-61.0	2.2
2026-01-17 07:03:08.410026	44.7	55.1	-62.1	3.8
2026-01-17 07:03:09.531297	45.1	55.4	-61.6	4.4
2026-01-17 07:03:10.653065	45.6	55.8	-61.2	4.6
2026-01-17 07:03:11.774327	46.0	56.2	-61.7	4.9
2026-01-17 07:03:12.895093	46.5	56.5	-61.9	4.0
2026-01-17 07:03:14.016356	47.0	56.9	-62.3	3.3
2026-01-17 07:03:15.137122	47.5	57.3	-61.6	3.0
2026-01-17 07:03:16.260384	48.0	57.6	-62.3	4.1
2026-01-17 07:03:17.381645	48.6	58.0	-62.3	3.8
2026-01-17 07:03:18.504907	49.1	58.4	-62.3	3.5
2026-01-17 07:03:19.626170	49.7	58.7	-62.3	3.1
2026-01-17 07:03:20.748424	50.3	59.1	-62.0	1.8
2026-01-17 07:03:21.870677	50.9	59.5	-62.7	4.6
2026-01-17 07:03:22.992436	51.5	59.8	-62.1	1.5
2026-01-17 07:03:24.114690	52.1	60.2	-62.8	2.4
2026-01-17 07:03:25.236448	52.8	60.6	-63.0	2.7
2026-01-17 07:03:26.356717	53.4	60.9	-62.8	3.0
2026-01-17 07:03:27.478971	54.1	61.3	-63.7	4.1
2026-01-17 07:03:28.599746	54.8	61.6	-63.9	2.1
2026-01-17 07:03:29.722505	55.6	62.0	-63.3	1.4
2026-01-17 07:03:30.842775	56.3	62.4	-63.4	2.1
2026-01-17 07:03:31.965028	57.1	62.7	-64.3	6.3
2026-01-17 07:03:33.086786	57.9	63.1	-64.2	5.5
2026-01-17 07:03:34.212545	58.7	63.4	-64.3	4.1
2026-01-17 07:03:35.334313	59.6	63.7	-63.9	2.3
2026-01-17 07:03:36.456071	60.4	64.1	-64.4	3.0
2026-01-17 07:03:37.578325	61.3	64.4	-64.9	4.1
2026-01-17 07:03:38.700578	62.3	64.8	-63.7	2.2
2026-01-17 07:03:39.822335	63.2	65.1	-65.2	3.1
2026-01-17 07:03:40.944092	64.2	65.4	-63.8	1.3
2026-01-17 07:03:42.066346	65.2	65.7	-64.7	3.7
2026-01-17 07:03:43.188103	66.2	66.0	-64.9	4.2
2026-01-17 07:03:44.309862	67.3	66.3	-63.7	2.8
2026-01-17 07:03:45.431620	68.4	66.6	-64.3	5.5
2026-01-17 07:03:46.552882	69.5	66.9	-63.0	3.4
2026-01-17 07:03:47.675135	70.7	67.2	-63.0	3.7
2026-01-17 07:03:48.797389	71.8	67.5	-62.7	2.7
2026-01-17 07:03:49.919155	73.1	67.8	-64.6	7.6
2026-01-17 07:03:51.040416	74.3	68.0	-63.6	3.9
2026-01-17 07:03:52.162175	75.6	68.3	-64.4	7.2
2026-01-17 07:03:53.284429	76.9	68.5	-65.2	6.3
2026-01-17 07:03:54.406682	78.3	68.7	-64.9	5.0
2026-01-17 07:03:55.528441	79.6	69.0	-64.7	5.1
2026-01-17 07:03:56.650198	81.0	69.2	-64.6	3.9
2026-01-17 07:03:57.771957	82.5	69.4	-64.9	2.8
2026-01-17 07:03:58.893714	84.0	69.6	-65.3	6.9
2026-01-17 07:04:00.015968	85.5	69.7	-65.6	7.2
2026-01-17 07:04:01.137726	87.0	69.9	-64.9	5.2
2026-01-17 07:04:02.259482	88.5	70.0	-64.4	3.1
2026-01-17 07:04:03.381240	90.1	70.2	-64.3	1.4
2026-01-17 07:04:04.502998	91.7	70.3	-66.0	4.9
2026-01-17 07:04:05.625251	93.3	70.4	-65.8	6.1
2026-01-17 07:04:06.746514	94.9	70.5	-65.6	4.5
2026-01-17 07:04:07.867777	96.6	70.6	-66.2	7.1
2026-01-17 07:04:08.988046	98.2	70.6	-64.9	2.3
2026-01-17 07:04:10.109804	99.9	70.7	-66.9	5.6
2026-01-17 07:04:11.232058	101.6	70.7	-65.5	3.0
2026-01-17 07:04:12.354311	103.3	70.7	-66.9	6.7
2026-01-17 07:04:13.477069	104.9	70.7	-66.7	3.5
2026-01-17 07:04:14.597837	106.6	70.7	-67.3	2.9
2026-01-17 07:04:15.719594	108.3	70.7	-67.4	7.0
2026-01-17 07:04:16.844857	110.0	70.6	-65.9	4.4
2026-01-17 07:04:17.966120	111.6	70.6	-66.6	7.2
2026-01-17 07:04:19.088373	113.3	70.5	-67.2	4.8
2026-01-17 07:04:20.209636	114.9	70.4	-67.0	5.4
2026-01-17 07:04:21.331395	116.5	70.3	-67.0	5.9
2026-01-17 07:04:22.453648	118.1	70.2	-67.6	5.6
2026-01-17 07:04:23.575901	119.7	70.1	-67.6	5.4
2026-01-17 07:04:24.702661	121.3	69.9	-66.6	3.5
2026-01-17 07:04:25.824914	122.8	69.8	-66.9	4.6
2026-01-17 07:04:26.946176	124.3	69.6	-66.7	3.9
2026-01-17 07:04:28.067438	125.8	69.4	-66.8	4.3
2026-01-17 07:04:29.189691	127.2	69.2	-66.5	4.8
2026-01-17 07:04:30.311450	128.6	69.0	-66.4	4.7
2026-01-17 07:04:31.432712	130.0	68.8	-66.8	3.8
2026-01-17 07:04:32.553480	131.4	68.5	-66.6	3.3
2026-01-17 07:04:33.676743	132.7	68.3	-66.8	4.1
2026-01-17 07:04:34.799005	134.0	68.1	-66.7	5.2
2026-01-17 07:04:35.920267	135.2	67.8	-67.2	5.3
2026-01-17 07:04:37.042528	136.5	67.5	-66.8	4.7
2026-01-17 07:04:38.164286	137.7	67.2	-66.9	5.8
2026-01-17 07:04:39.286056	138.8	67.0	-67.3	7.1
2026-01-17 07:04:40.406821	140.0	66.7	-67.3	6.2
2026-01-17 07:04:41.532580	141.1	66.4	-67.8	6.6
2026-01-17 07:04:42.654833	142.1	66.1	-67.6	6.5
2026-01-17 07:04:43.776590	143.2	65.8	-66.8	6.0
2026-01-17 07:04:44.897851	144.2	65.4	-67.0	6.2
2026-01-17 07:04:46.020104	145.2	65.1	-66.5	6.3
2026-01-17 07:04:47.142358	146.1	64.8	-66.7	7.0
2026-01-17 07:04:48.263620	147.0	64.5	-66.9	6.5
2026-01-17 07:04:49.388881	147.9	64.1	-67.0	4.5
2026-01-17 07:04:50.511135	148.8	63.8	-67.0	6.3
2026-01-17 07:04:51.633388	149.7	63.4	-67.0	6.5
2026-01-17 07:04:52.754650	150.5	63.1	-66.3	5.6
2026-01-17 07:04:53.875920	151.3	62.7	-66.8	6.9
2026-01-17 07:04:54.997182	152.1	62.4	-66.8	6.9
2026-01-17 07:04:56.118940	152.8	62.0	-67.3	8.2
2026-01-17 07:04:57.239708	153.6	61.7	-67.2	7.8
2026-01-17 07:04:58.361466	154.3	61.3	-67.7	7.3
2026-01-17 07:04:59.483224	155.0	61.0	-67.2	8.5
2026-01-17 07:05:00.604982	155.6	60.6	-67.1	8.5
2026-01-17 07:05:01.726739	156.3	60.2	-66.6	9.0
2026-01-17 07:05:02.848002	156.9	59.9	-66.8	8.8
2026-01-17 07:05:03.970255	157.6	59.5	-66.8	9.3
2026-01-17 07:05:05.092012	158.2	59.1	-66.8	9.0
2026-01-17 07:05:06.216276	158.7	58.8	-66.7	8.6
2026-01-17 07:05:07.338034	159.3	58.4	-66.9	8.9
2026-01-17 07:05:08.460287	159.9	58.0	-66.7	9.3
2026-01-17 07:05:09.581548	160.4	57.7	-66.7	9.5
2026-01-17 07:05:10.703801	160.9	57.3	-66.4	9.6
2026-01-17 07:05:11.824575	161.4	56.9	-66.6	9.5
2026-01-17 07:05:12.945846	161.9	56.6	-66.7	8.2
2026-01-17 07:05:14.067107	162.4	56.2	-66.8	8.5
2026-01-17 07:05:15.189361	162.9	55.8	-66.5	8.9
2026-01-17 07:05:16.311119	163.4	55.5	-66.5	10.0
2026-01-17 07:05:17.432381	163.8	55.1	-66.3	9.7
2026-01-17 07:05:18.554634	164.2	54.7	-65.9	9.5
2026-01-17 07:05:19.676392	164.7	54.4	-65.9	9.4
2026-01-17 07:05:20.797655	165.1	54.0	-66.0	9.8
2026-01-17 07:05:21.918422	165.5	53.6	-66.2	9.6
2026-01-17 07:05:23.041180	165.9	53.3	-66.2	10.2
2026-01-17 07:05:24.162442	166.3	52.9	-66.2	10.0
2026-01-17 07:05:25.282216	166.6	52.6	-65.9	10.2
2026-01-17 07:05:26.404469	167.0	52.2	-66.3	10.3
2026-01-17 07:05:27.525236	167.4	51.9	-66.4	10.8
2026-01-17 07:05:28.647489	167.7	51.5	-66.2	9.8
2026-01-17 07:05:29.769743	168.1	51.2	-66.1	9.9
2026-01-17 07:05:30.894510	168.4	50.8	-65.9	9.2
2026-01-17 07:05:32.015772	168.7	50.5	-66.0	9.4
2026-01-17 07:05:33.136540	169.1	50.1	-66.1	9.5
2026-01-17 07:05:34.258793	169.4	49.8	-65.9	10.2
2026-01-17 07:05:35.380551	169.7	49.4	-65.9	9.3
2026-01-17 07:05:36.502804	170.0	49.1	-65.9	9.7
2026-01-17 07:05:37.625562	170.3	48.7	-65.8	9.0
2026-01-17 07:05:38.751320	170.6	48.4	-66.4	9.6
2026-01-17 07:05:39.873077	170.8	48.1	-66.1	10.0
2026-01-17 07:05:40.995331	171.1	47.7	-66.0	9.7
2026-01-17 07:05:42.116593	171.4	47.4	-65.4	9.5
2026-01-17 07:05:43.238847	171.6	47.1	-65.4	9.8
2026-01-17 07:05:44.360108	171.9	46.7	-65.4	10.5
2026-01-17 07:05:45.482362	172.2	46.4	-65.0	10.6
2026-01-17 07:05:46.607625	172.4	46.1	-65.2	10.3
2026-01-17 07:05:47.728888	172.6	45.8	-65.2	10.8
2026-01-17 07:05:48.850654	172.9	45.4	-65.2	9.8
2026-01-17 07:05:49.971917	173.1	45.1	-65.1	10.9
2026-01-17 07:05:51.092188	173.3	44.8	-65.2	9.9
2026-01-17 07:05:52.214441	173.6	44.5	-65.1	9.8
2026-01-17 07:05:53.336199	173.8	44.2	-65.1	10.2
2026-01-17 07:05:54.461463	174.0	43.9	-65.4	10.1
2026-01-17 07:05:55.582726	174.2	43.6	-65.4	10.4
2026-01-17 07:05:56.704484	174.4	43.3	-65.7	10.7
2026-01-17 07:05:57.826253	174.6	43.0	-65.4	10.7
2026-01-17 07:05:58.947019	174.8	42.7	-65.3	10.1
2026-01-17 07:06:00.068282	175.0	42.4	-65.0	9.5
2026-01-17 07:06:01.189049	175.2	42.1	-65.2	9.9
2026-01-17 07:06:02.314808	175.4	41.8	-65.4	10.2
2026-01-17 07:06:03.437069	175.6	41.5	-65.4	9.5
2026-01-17 07:06:04.558826	175.8	41.2	-65.2	8.3
2026-01-17 07:06:05.680088	176.0	40.9	-65.7	9.8
2026-01-17 07:06:06.801349	176.1	40.6	-65.4	9.6
2026-01-17 07:06:07.923602	176.3	40.3	-65.5	9.4
2026-01-17 07:06:09.045855	176.5	40.0	-65.3	9.3
2026-01-17 07:06:10.166621	176.7	39.7	-65.0	8.6
2026-01-17 07:06:11.290379	176.8	39.5	-64.7	9.2
2026-01-17 07:06:12.412632	177.0	39.2	-65.0	10.1
2026-01-17 07:06:13.534886	177.1	38.9	-64.5	9.5
2026-01-17 07:06:14.656644	177.3	38.6	-65.0	10.5
2026-01-17 07:06:15.778897	177.5	38.4	-64.5	11.0
2026-01-17 07:06:16.900654	177.6	38.1	-64.6	9.9
2026-01-17 07:06:18.022413	177.8	37.8	-64.5	10.0
2026-01-17 07:06:19.147676	177.9	37.6	-64.3	10.4
2026-01-17 07:06:20.269434	178.0	37.3	-63.7	9.0
2026-01-17 07:06:21.391687	178.2	37.0	-64.2	9.6
2026-01-17 07:06:22.512950	178.3	36.8	-64.1	9.2
2026-01-17 07:06:23.634707	178.5	36.5	-64.5	10.1
2026-01-17 07:06:24.755474	178.6	36.3	-64.3	10.2
2026-01-17 07:06:25.876240	178.7	36.0	-64.4	10.4
2026-01-17 07:06:26.997997	178.9	35.8	-64.2	10.4
2026-01-17 07:06:28.119755	179.0	35.5	-64.3	10.0
2026-01-17 07:06:29.242008	179.1	35.3	-64.2	9.7
2026-01-17 07:06:30.363766	179.3	35.0	-64.5	10.1
2026-01-17 07:06:31.486019	179.4	34.8	-64.7	9.7
2026-01-17 07:06:32.607779	179.5	34.5	-64.7	9.4
2026-01-17 07:06:33.729536	179.6	34.3	-64.9	10.0
2026-01-17 07:06:34.851301	179.7	34.0	-64.8	10.0
2026-01-17 07:06:35.973554	179.9	33.8	-64.8	10.6
2026-01-17 07:06:37.095311	180.0	33.6	-64.5	9.1
2026-01-17 07:06:38.217069	180.1	33.3	-64.2	9.2
2026-01-17 07:06:39.338826	180.2	33.1	-64.0	8.6
2026-01-17 07:06:40.460090	180.3	32.9	-64.7	9.7
2026-01-17 07:06:41.581847	180.4	32.6	-64.9	9.8
2026-01-17 07:06:42.704101	180.5	32.4	-64.7	10.1
2026-01-17 07:06:43.825362	180.6	32.2	-64.5	10.0
2026-01-17 07:06:44.947119	180.7	32.0	-64.5	9.6
2026-01-17 07:06:46.069372	180.9	31.7	-64.8	10.2
2026-01-17 07:06:47.191131	181.0	31.5	-64.8	9.4
2026-01-17 07:06:48.312888	181.1	31.3	-64.5	9.3
2026-01-17 07:06:49.434646	181.2	31.1	-64.9	10.2
2026-01-17 07:06:50.556404	181.3	30.8	-64.4	9.1
2026-01-17 07:06:51.681170	181.4	30.6	-64.2	9.3
2026-01-17 07:06:52.803432	181.4	30.4	-64.7	9.5
2026-01-17 07:06:53.925685	181.5	30.2	-64.1	9.2
2026-01-17 07:06:55.046947	181.6	30.0	-64.3	10.0
2026-01-17 07:06:56.168705	181.7	29.8	-64.6	10.2
2026-01-17 07:06:57.291463	181.8	29.6	-63.9	9.7
2026-01-17 07:06:58.413716	181.9	29.4	-63.9	7.4
2026-01-17 07:06:59.535970	182.0	29.2	-64.1	9.2
2026-01-17 07:07:00.661729	182.1	29.0	-64.7	10.4
2026-01-17 07:07:01.783487	182.2	28.8	-64.2	10.3
2026-01-17 07:07:02.905740	182.3	28.6	-64.1	8.7
2026-01-17 07:07:04.027993	182.3	28.4	-64.6	9.1
2026-01-17 07:07:05.149752	182.4	28.2	-64.6	8.4
2026-01-17 07:07:06.272005	182.5	28.0	-64.5	8.9
2026-01-17 07:07:07.393266	182.6	27.8	-64.7	9.3
2026-01-17 07:07:08.514530	182.7	27.6	-64.7	8.9
2026-01-17 07:07:09.636783	182.8	27.4	-64.1	9.5
2026-01-17 07:07:10.758541	182.8	27.2	-64.2	8.5
2026-01-17 07:07:11.880795	182.9	27.0	-64.5	9.1
2026-01-17 07:07:13.003048	183.0	26.8	-64.7	8.4
2026-01-17 07:07:14.125302	183.1	26.6	-64.9	9.1
2026-01-17 07:07:15.247060	183.1	26.4	-64.7	8.6
2026-01-17 07:07:16.368322	183.2	26.2	-64.3	8.7
2026-01-17 07:07:17.490081	183.3	26.1	-64.6	9.4
2026-01-17 07:07:18.612334	183.4	25.9	-64.2	6.7
2026-01-17 07:07:19.734091	183.4	25.7	-64.2	7.6
2026-01-17 07:07:20.858355	183.5	25.5	-64.8	9.4
2026-01-17 07:07:21.979618	183.6	25.3	-64.4	6.2
2026-01-17 07:07:23.100878	183.7	25.2	-64.4	4.6
2026-01-17 07:07:24.222637	183.7	25.0	-64.4	6.5
2026-01-17 07:07:25.343403	183.8	24.8	-63.7	6.3
2026-01-17 07:07:26.465161	183.9	24.6	-64.0	5.7
2026-01-17 07:07:27.586918	183.9	24.5	-64.3	6.8
2026-01-17 07:07:28.708676	184.0	24.3	-65.0	7.8
2026-01-17 07:07:29.830929	184.1	24.1	-65.1	7.8
2026-01-17 07:07:30.951696	184.1	23.9	-64.9	8.5
2026-01-17 07:07:32.073454	184.2	23.8	-64.5	7.2
2026-01-17 07:07:33.195716	184.3	23.6	-65.0	9.0
2026-01-17 07:07:34.317970	184.3	23.4	-64.7	7.1
2026-01-17 07:07:35.440223	184.4	23.3	-65.0	8.1
2026-01-17 07:07:36.561980	184.4	23.1	-65.1	7.8
2026-01-17 07:07:37.683241	184.5	22.9	-65.4	8.2
2026-01-17 07:07:38.804998	184.6	22.8	-65.2	8.8
2026-01-17 07:07:39.927251	184.6	22.6	-65.2	8.7
2026-01-17 07:07:41.051515	184.7	22.5	-64.8	7.5
2026-01-17 07:07:42.173273	184.7	22.3	-64.4	6.5
2026-01-17 07:07:43.295527	184.8	22.1	-64.8	7.8
2026-01-17 07:07:44.417780	184.9	22.0	-65.0	8.4
2026-01-17 07:07:45.540034	184.9	21.8	-65.0	8.6
2026-01-17 07:07:46.661791	185.0	21.7	-64.6	7.9
2026-01-17 07:07:47.784044	185.0	21.5	-65.2	8.6
2026-01-17 07:07:48.905307	185.1	21.4	-65.1	8.4
2026-01-17 07:07:50.028065	185.1	21.2	-64.5	8.4
2026-01-17 07:07:51.150319	185.2	21.0	-64.3	7.3
2026-01-17 07:07:52.272078	185.3	20.9	-64.6	6.8
2026-01-17 07:07:53.394331	185.3	20.7	-64.7	6.4
2026-01-17 07:07:54.516584	185.4	20.6	-64.2	6.8
2026-01-17 07:07:55.637846	185.4	20.4	-64.6	7.9
2026-01-17 07:07:56.760100	185.5	20.3	-64.8	7.0
2026-01-17 07:07:57.886868	185.5	20.2	-64.5	7.1
2026-01-17 07:07:59.008626	185.6	20.0	-65.1	7.0
2026-01-17 07:08:00.130383	185.6	19.9	-64.7	8.1
2026-01-17 07:08:01.252142	185.7	19.7	-64.4	7.2
2026-01-17 07:08:02.372907	185.7	19.6	-64.8	7.3
2026-01-17 07:08:03.494664	185.8	19.4	-64.8	6.3
2026-01-17 07:08:04.617422	185.8	19.3	-64.5	8.1
2026-01-17 07:08:05.738685	185.9	19.1	-64.8	7.8
2026-01-17 07:08:06.860441	185.9	19.0	-64.4	6.8
2026-01-17 07:08:07.981703	186.0	18.9	-64.9	6.5
2026-01-17 07:08:09.104460	186.0	18.7	-65.2	8.3
2026-01-17 07:08:10.226714	186.1	18.6	-65.3	7.9
2026-01-17 07:08:11.348967	186.1	18.4	-65.2	7.3
2026-01-17 07:08:12.471221	186.1	18.3	-65.2	7.9
2026-01-17 07:08:13.591994	186.2	18.2	-65.1	8.2
2026-01-17 07:08:14.713766	186.2	18.0	-64.9	6.5
2026-01-17 07:08:15.836019	186.3	17.9	-65.2	7.4
2026-01-17 07:08:16.958282	186.3	17.8	-64.4	5.8
2026-01-17 07:08:18.080039	186.4	17.6	-65.2	7.4
2026-01-17 07:08:19.202293	186.4	17.5	-64.7	7.1
2026-01-17 07:08:20.323554	186.5	17.4	-64.9	6.9
2026-01-17 07:08:21.444816	186.5	17.2	-64.8	5.2
2026-01-17 07:08:22.566087	186.6	17.1	-65.2	5.7
2026-01-17 07:08:23.687357	186.6	17.0	-65.0	7.3
2026-01-17 07:08:24.809114	186.6	16.9	-64.9	6.8
2026-01-17 07:08:25.931368	186.7	16.7	-64.8	6.4
2026-01-17 07:08:27.053125	186.7	16.6	-64.8	6.3
2026-01-17 07:08:28.175388	186.8	16.5	-65.2	7.3
2026-01-17 07:08:29.297145	186.8	16.3	-64.9	5.6
2026-01-17 07:08:30.418408	186.8	16.2	-65.3	6.8
2026-01-17 07:08:31.540671	186.9	16.1	-65.7	7.5
2026-01-17 07:08:32.662924	186.9	16.0	-65.3	7.3
2026-01-17 07:08:33.785178	187.0	15.8	-65.0	5.2
2026-01-17 07:08:34.906440	187.0	15.7	-65.3	6.2
2026-01-17 07:08:36.027204	187.0	15.6	-65.3	4.5
2026-01-17 07:08:37.148963	187.1	15.5	-64.8	6.6
2026-01-17 07:08:38.270225	187.1	15.4	-65.3	6.1
2026-01-17 07:08:39.396480	187.2	15.2	-65.1	5.9
2026-01-17 07:08:40.518238	187.2	15.1	-64.6	5.1
2026-01-17 07:08:41.639996	187.2	15.0	-64.7	7.5
2026-01-17 07:08:42.761754	187.3	14.9	-64.5	4.5
2026-01-17 07:08:43.883512	187.3	14.8	-64.8	3.5
2026-01-17 07:08:45.005766	187.3	14.6	-65.1	5.8
2026-01-17 07:08:46.127028	187.4	14.5	-64.3	3.8
2026-01-17 07:08:47.249282	187.4	14.4	-65.0	5.8
2026-01-17 07:08:48.371040	187.5	14.3	-65.0	4.2
2026-01-17 07:08:49.493293	187.5	14.2	-64.9	5.5
2026-01-17 07:08:50.615563	187.5	14.1	-65.2	6.3
2026-01-17 07:08:51.736825	187.6	13.9	-64.5	4.6
2026-01-17 07:08:52.858583	187.6	13.8	-64.9	1.6
2026-01-17 07:08:53.979845	187.6	13.7	-65.0	5.8
2026-01-17 07:08:55.101602	187.7	13.6	-65.3	5.8
2026-01-17 07:08:56.223855	187.7	13.5	-64.7	4.9
2026-01-17 07:08:57.345613	187.7	13.4	-65.2	3.6
2026-01-17 07:08:58.467371	187.8	13.3	-64.8	3.6
2026-01-17 07:08:59.589624	187.8	13.2	-65.4	3.5
2026-01-17 07:09:00.711382	187.8	13.0	-64.5	3.5
2026-01-17 07:09:01.833139	187.9	12.9	-64.4	3.4
2026-01-17 07:09:02.955400	187.9	12.8	-64.2	3.9
2026-01-17 07:09:04.076663	187.9	12.7	-63.9	1.6
2026-01-17 07:09:05.198420	188.0	12.6	-64.3	2.8
2026-01-17 07:09:06.320673	188.0	12.5	-64.3	3.4
2026-01-17 07:09:07.441935	188.0	12.4	-65.3	4.3
2026-01-17 07:09:08.563196	188.1	12.3	-65.4	2.3
2026-01-17 07:09:09.684459	188.1	12.2	-65.1	4.7
2026-01-17 07:09:10.808218	188.1	12.1	-65.2	4.9
2026-01-17 07:09:11.929480	188.2	12.0	-64.0	2.0
2026-01-17 07:09:13.050742	188.2	11.9	-64.9	3.9
2026-01-17 07:09:14.172005	188.2	11.8	-65.1	4.5
2026-01-17 07:09:15.293763	188.3	11.7	-64.6	4.4
2026-01-17 07:09:16.415026	188.3	11.5	-64.5	4.6
2026-01-17 07:09:17.538792	188.3	11.4	-64.5	4.0
2026-01-17 07:09:18.661054	188.3	11.3	-64.9	5.1
2026-01-17 07:09:19.784813	188.4	11.2	-64.5	4.7
2026-01-17 07:09:20.907066	188.4	11.1	-65.1	4.4
2026-01-17 07:09:22.029320	188.4	11.0	-64.8	4.2
2026-01-17 07:09:23.151582	188.5	10.9	-64.7	3.0
2026-01-17 07:09:24.274339	188.5	10.8	-64.1	0.0
2026-01-17 07:09:25.396096	188.5	10.7	-64.4	2.1
2026-01-17 07:09:26.517359	188.6	10.6	-64.3	2.5
2026-01-17 07:09:27.639116	188.6	10.5	-64.2	2.3
2026-01-17 07:09:28.761370	188.6	10.4	-64.1	4.1
2026-01-17 07:09:29.883623	188.6	10.3	-64.9	4.4
2026-01-17 07:09:31.005876	188.7	10.2	-64.3	0.4
2026-01-17 07:09:32.128138	188.7	10.1	-63.3	0.0
2026-01-17 07:09:33.250391	188.7	10.0	-64.9	2.1
2026-01-17 07:09:34.371158	188.8	9.9	-64.7	3.6
2026-01-17 07:09:35.493411	188.8	9.8	-64.7	2.8
2026-01-17 07:09:36.615169	188.8	9.7	-65.1	0.1
2026-01-17 07:09:37.736431	188.8	9.6	-63.9	1.2
2026-01-17 07:09:38.858684	188.9	9.6	-64.2	2.9
2026-01-17 07:09:39.980442	188.9	9.5	-63.8	0.9
2026-01-17 07:09:41.102200	188.9	9.4	-63.7	0.0
2026-01-17 07:09:42.224454	188.9	9.3	-63.9	3.1
2026-01-17 07:09:43.349220	189.0	9.2	-63.9	3.4
2026-01-17 07:09:44.470482	189.0	9.1	-64.2	3.6
2026-01-17 07:09:45.591745	189.0	9.0	-64.5	2.9
2026-01-17 07:09:46.713998	189.0	8.9	-63.8	2.0
2026-01-17 07:09:47.836251	189.1	8.8	-63.4	2.6
2026-01-17 07:09:48.958009	189.1	8.7	-64.2	2.9
2026-01-17 07:09:50.079272	189.1	8.6	-64.2	0.0
2026-01-17 07:09:51.200534	189.1	8.5	-64.1	1.0
2026-01-17 07:09:52.322788	189.2	8.4	-63.4	1.3
2026-01-17 07:09:53.445041	189.2	8.3	-62.5	0.0
2026-01-17 07:09:54.566798	189.2	8.2	-64.2	1.6
2026-01-17 07:09:55.688556	189.2	8.2	-63.6	0.0
2026-01-17 07:09:56.810809	189.3	8.1	-63.9	1.2
2026-01-17 07:09:57.932567	189.3	8.0	-64.4	0.0
2026-01-17 07:09:59.054820	189.3	7.9	-64.9	2.1
2026-01-17 07:10:00.176083	189.3	7.8	-64.2	2.9
2026-01-17 07:10:01.297345	189.4	7.7	-64.3	0.4
2026-01-17 07:10:02.418607	189.4	7.6	-63.3	1.4
2026-01-17 07:10:03.540365	189.4	7.5	-64.1	0.1
2026-01-17 07:10:04.661626	189.4	7.4	-63.5	1.3
2026-01-17 07:10:05.783880	189.5	7.4	-63.8	2.4
2026-01-17 07:10:06.905638	189.5	7.3	-64.4	1.7
2026-01-17 07:10:08.029395	189.5	7.2	-64.1	0.3
2026-01-17 07:10:09.147648	189.5	7.1	-64.0	1.4
2026-01-17 07:10:10.269406	189.6	7.0	-63.0	0.0
2026-01-17 07:10:11.389677	189.6	6.9	-63.2	0.0
2026-01-17 07:10:12.510443	189.6	6.8	-64.0	0.0
2026-01-17 07:10:13.631696	189.6	6.7	-63.7	0.9
2026-01-17 07:10:14.751950	189.7	6.7	-63.7	0.0
2026-01-17 07:10:15.872707	189.7	6.6	-64.1	0.0
2026-01-17 07:10:16.993969	189.7	6.5	-63.9	0.0
2026-01-17 07:10:18.114735	189.7	6.4	-63.1	0.0
2026-01-17 07:10:19.234491	189.7	6.3	-63.9	1.2
2026-01-17 07:10:20.354248	189.8	6.2	-61.4	0.0
2026-01-17 07:10:21.475502	189.8	6.2	-61.8	0.0
2026-01-17 07:10:22.595755	189.8	6.1	-64.8	0.5
2026-01-17 07:10:23.716512	189.8	6.0	-65.2	0.0
2026-01-17 07:10:24.838270	189.9	5.9	-69.3	0.0
2026-01-17 07:10:25.958027	189.9	5.8	-70.9	0.0
2026-01-17 07:10:27.077784	189.9	5.7	-71.3	0.0
2026-01-17 07:10:28.196541	189.9	5.7	-71.6	0.0
2026-01-17 07:10:29.315298	189.9	5.6	-72.6	0.0
2026-01-17 07:10:30.437055	190.0	5.5	-71.2	0.0
2026-01-17 07:10:31.555308	190.0	5.4	-69.9	0.0
2026-01-17 07:10:32.675064	190.0	5.3	-70.8	0.0
2026-01-17 07:10:33.793317	190.0	5.3	-71.0	0.0
2026-01-17 07:10:34.913570	190.0	5.2	-71.2	0.0
2026-01-17 07:10:36.032823	190.1	5.1	-70.7	0.0
2026-01-17 07:10:37.151593	190.1	5.0	-71.5	0.0
#Closed at: 2026-01-17 06:57:40.621991