passes_logs/2026/01/28/XPeterburg/XPeterburg__20260128_003653_SUOMI_NPP_rec.log

#Pass ID: 20260128_003653_SUOMI NPP
#Satellite: SUOMI NPP
#Configuration: NPP
#Start time: 2026-01-28 00:36:48

#Version: 1.5.20200625
#Station: XPeterburg
#Location: 30.318091 lon 59.932769 lat
#TLE: 1 37849U 11061A   26026.31120390  .00000176  00000+0  10455-3 0  9996
#TLE: 2 37849  98.7822 328.2630 0002149  44.3295 315.8053 14.19530199738315

#Time	Az	El	Level	Level2	SNR	BER	Gain	Gain2
2026-01-28 00:36:48.94	3.82	67.91	-37.6	-44.8	3.3	15345252	93	2829
2026-01-28 00:36:49.14	3.74	68.00	-37.7	-50.0	3.6	4455	85	5088
2026-01-28 00:36:49.34	3.67	68.08	-37.6	-46.4	3.6	15149452	92	3391
2026-01-28 00:36:49.54	3.59	68.17	-37.6	-45.7	3.4	15149452	92	3145
2026-01-28 00:36:49.74	3.52	68.26	-37.6	-45.3	3.4	15148681	92	2985
2026-01-28 00:36:49.94	3.44	68.35	-37.6	-46.5	3.6	15148681	92	3447
2026-01-28 00:36:50.14	3.36	68.43	-37.6	-46.4	3.6	15204696	92	3399
2026-01-28 00:36:50.35	3.28	68.52	-37.6	-45.6	3.5	15204696	92	3105
2026-01-28 00:36:50.55	3.20	68.61	-37.5	-45.1	3.4	15178192	92	2931
2026-01-28 00:36:50.75	3.12	68.70	-37.5	-46.2	3.3	15178192	92	3329
2026-01-28 00:36:50.95	3.04	68.79	-37.5	-45.9	3.6	15197006	92	3252
2026-01-28 00:36:51.15	2.96	68.87	-37.4	-45.0	3.5	15197006	92	2944
2026-01-28 00:36:51.35	2.87	68.96	-37.4	-44.2	3.4	15197006	92	2695
2026-01-28 00:36:51.55	2.79	69.05	-37.3	-43.4	3.4	15179458	92	2489
2026-01-28 00:36:51.75	2.71	69.14	-37.2	-44.1	3.6	15179458	92	2717
2026-01-28 00:36:51.96	2.62	69.23	-37.1	-43.0	3.8	15152076	92	2439
2026-01-28 00:36:52.16	2.53	69.32	-36.9	-41.6	3.9	15152076	92	2121
2026-01-28 00:36:52.36	2.45	69.40	-36.8	-40.7	4.1	14322227	92	1931
2026-01-28 00:36:52.56	2.36	69.49	-36.6	-40.3	4.4	14322227	91	1877
2026-01-28 00:36:52.76	2.27	69.58	-36.5	-39.6	4.7	9981712	91	1774
2026-01-28 00:36:52.96	2.18	69.67	-36.0	-38.8	5.1	9981712	90	1709
2026-01-28 00:36:53.16	2.09	69.75	-35.9	-38.5	5.4	5771644	90	1659
2026-01-28 00:36:53.36	2.00	69.84	-35.7	-38.5	5.7	5771644	89	1694
2026-01-28 00:36:53.57	1.91	69.93	-35.6	-38.0	6.0	3738967	89	1632
2026-01-28 00:36:53.77	1.82	70.02	-35.4	-37.5	6.3	3738967	89	1571
2026-01-28 00:36:53.97	1.72	70.11	-35.3	-37.4	6.5	3738967	89	1559
2026-01-28 00:36:54.17	1.63	70.20	-35.3	-37.3	6.6	2305206	89	1546
2026-01-28 00:36:54.37	1.53	70.29	-35.1	-37.3	6.9	2305206	88	1591
2026-01-28 00:36:54.57	1.44	70.37	-35.1	-37.4	7.0	1735107	88	1594
2026-01-28 00:36:54.77	1.34	70.46	-35.0	-37.1	7.0	1735107	88	1569
2026-01-28 00:36:54.97	1.24	70.55	-34.9	-36.8	7.3	1420608	88	1535
2026-01-28 00:36:55.17	1.15	70.64	-35.0	-37.0	7.1	1420608	88	1559
2026-01-28 00:36:55.37	1.05	70.73	-35.0	-37.1	7.0	1262657	88	1570
2026-01-28 00:36:55.58	0.94	70.82	-35.0	-37.0	7.3	1262657	88	1550
2026-01-28 00:36:55.78	0.84	70.91	-34.9	-36.8	7.2	1346710	88	1523
2026-01-28 00:36:55.98	0.74	71.00	-34.6	-36.3	7.9	1346710	87	1494
2026-01-28 00:36:56.18	0.63	71.08	-34.5	-36.2	7.9	1346710	87	1489
2026-01-28 00:36:56.38	0.53	71.17	-34.3	-35.7	8.2	788719	87	1435
2026-01-28 00:36:56.58	0.42	71.26	-33.9	-35.2	8.4	788719	86	1437
2026-01-28 00:36:56.78	0.32	71.35	-33.8	-35.6	8.6	539558	85	1504
2026-01-28 00:36:56.98	0.21	71.44	-33.7	-35.2	8.9	539558	85	1458
2026-01-28 00:36:57.18	0.10	71.52	-33.4	-34.6	9.2	312736	85	1398
2026-01-28 00:36:57.38	359.99	71.61	-33.1	-34.3	9.7	312736	84	1408
2026-01-28 00:36:57.59	359.87	71.71	-32.7	-33.8	10.3	144294	83	1405
2026-01-28 00:36:57.79	359.76	71.79	-32.5	-33.4	10.5	144294	83	1362
2026-01-28 00:36:57.99	359.65	71.88	-32.5	-33.3	10.6	45478	83	1359
2026-01-28 00:36:58.19	359.53	71.97	-32.2	-33.1	10.9	45478	82	1366
2026-01-28 00:36:58.39	359.42	72.06	-32.1	-33.0	11.3	20858	82	1361
2026-01-28 00:36:58.59	359.30	72.15	-32.0	-32.7	11.4	20858	82	1332
2026-01-28 00:36:58.79	359.18	72.24	-31.9	-32.6	11.5	10360	82	1327
2026-01-28 00:36:58.99	359.06	72.32	-31.9	-32.5	11.6	10360	82	1321
2026-01-28 00:36:59.19	358.94	72.41	-31.9	-32.5	11.6	10360	82	1324
2026-01-28 00:36:59.39	358.82	72.50	-31.9	-32.4	11.6	6744	82	1315
2026-01-28 00:36:59.60	358.69	72.59	-32.0	-32.9	11.4	6744	82	1354
2026-01-28 00:36:59.80	358.56	72.68	-32.4	-33.6	11.1	6927	82	1416
2026-01-28 00:37:00.00	358.44	72.77	-32.3	-33.5	11.1	6927	82	1408
2026-01-28 00:37:00.20	358.31	72.86	-32.8	-34.6	10.4	16822	82	1517
2026-01-28 00:37:00.40	358.18	72.95	-32.9	-34.8	10.4	16822	82	1529
2026-01-28 00:37:00.60	358.05	73.03	-33.2	-35.0	10.0	45433	83	1518
2026-01-28 00:37:00.80	357.92	73.12	-33.4	-35.6	9.5	45433	83	1584
2026-01-28 00:37:01.00	357.79	73.21	-33.6	-35.6	9.2	125358	84	1551
2026-01-28 00:37:01.20	357.65	73.30	-33.8	-36.0	8.9	125358	84	1584
2026-01-28 00:37:01.41	357.51	73.39	-33.9	-36.2	8.9	125358	84	1614
2026-01-28 00:37:01.61	357.37	73.48	-34.0	-36.6	8.7	250152	84	1650
2026-01-28 00:37:01.81	357.23	73.57	-33.9	-35.8	8.9	250152	85	1523
2026-01-28 00:37:02.01	357.09	73.66	-34.0	-36.0	8.9	321861	85	1545
2026-01-28 00:37:02.21	356.95	73.74	-33.8	-35.4	9.3	321861	85	1486
2026-01-28 00:37:02.41	356.80	73.83	-33.5	-34.8	9.8	220314	85	1428
2026-01-28 00:37:02.61	356.66	73.92	-33.5	-34.8	9.9	220314	85	1426
2026-01-28 00:37:02.81	356.51	74.01	-33.4	-34.7	10.0	103149	85	1415
2026-01-28 00:37:03.01	356.36	74.10	-33.4	-34.5	10.0	103149	85	1403
2026-01-28 00:37:03.22	356.20	74.19	-33.5	-34.7	10.0	72326	85	1424
2026-01-28 00:37:03.42	356.05	74.28	-33.4	-34.5	10.1	72326	85	1400
2026-01-28 00:37:03.62	355.89	74.36	-33.7	-35.2	9.6	84281	85	1476
2026-01-28 00:37:03.82	355.74	74.45	-33.7	-35.4	9.5	84281	85	1496
2026-01-28 00:37:04.02	355.58	74.54	-33.8	-35.6	9.3	84281	85	1512
2026-01-28 00:37:04.22	355.42	74.63	-34.2	-36.7	8.8	140121	85	1633
2026-01-28 00:37:04.42	355.26	74.71	-34.5	-37.1	8.1	140121	86	1647
2026-01-28 00:37:04.62	355.09	74.80	-34.8	-37.8	7.5	420806	86	1738
2026-01-28 00:37:04.82	354.93	74.89	-35.0	-38.3	7.2	420806	86	1799
2026-01-28 00:37:05.02	354.76	74.98	-35.6	-38.8	6.4	1176521	88	1776
2026-01-28 00:37:05.22	354.59	75.06	-35.5	-38.6	6.6	1176521	88	1757
2026-01-28 00:37:05.43	354.41	75.16	-35.7	-38.8	6.3	2246551	88	1774
2026-01-28 00:37:05.63	354.23	75.24	-35.6	-38.5	6.4	2246551	88	1730
2026-01-28 00:37:05.83	354.05	75.33	-35.5	-38.2	6.7	2186424	88	1683
2026-01-28 00:37:06.03	353.88	75.42	-35.2	-37.4	7.2	2186424	88	1593
2026-01-28 00:37:06.23	353.69	75.50	-34.9	-36.4	7.6	2186424	88	1474
2026-01-28 00:37:06.43	353.51	75.59	-34.8	-37.0	8.1	1231163	87	1570
2026-01-28 00:37:06.63	353.33	75.68	-34.6	-36.2	8.4	1231163	87	1486
2026-01-28 00:37:06.83	353.14	75.76	-34.7	-36.5	8.5	565742	87	1515
2026-01-28 00:37:07.03	352.95	75.85	-34.4	-35.8	8.9	565742	87	1452
2026-01-28 00:37:07.24	352.74	75.94	-34.0	-35.6	9.0	324172	86	1469
2026-01-28 00:37:07.44	352.55	76.03	-34.2	-36.1	8.7	324172	86	1521
2026-01-28 00:37:07.64	352.35	76.11	-34.4	-36.5	8.4	282089	86	1563
2026-01-28 00:37:07.84	352.15	76.20	-34.6	-37.1	8.0	282089	86	1633
2026-01-28 00:37:08.04	351.95	76.29	-34.9	-37.9	7.3	571464	86	1727
2026-01-28 00:37:08.24	351.74	76.37	-35.5	-38.3	6.7	571464	88	1702
2026-01-28 00:37:08.44	351.53	76.46	-35.7	-38.7	6.4	1739555	88	1753
2026-01-28 00:37:08.64	351.32	76.54	-35.9	-39.4	5.8	1739555	88	1835
2026-01-28 00:37:08.85	351.10	76.63	-36.1	-39.5	5.5	3231277	89	1807
2026-01-28 00:37:09.05	350.88	76.72	-36.0	-38.8	5.8	3231277	89	1708
2026-01-28 00:37:09.25	350.66	76.80	-36.2	-39.7	5.5	3231277	89	1827
2026-01-28 00:37:09.45	350.44	76.89	-35.9	-38.4	5.8	3983444	89	1648
2026-01-28 00:37:09.65	350.21	76.97	-35.7	-37.8	6.1	3983444	89	1576
2026-01-28 00:37:09.85	349.98	77.06	-35.7	-37.7	6.1	3364944	89	1566
2026-01-28 00:37:10.05	349.75	77.14	-35.2	-37.1	7.1	3364944	88	1525
2026-01-28 00:37:10.25	349.51	77.23	-35.1	-36.9	7.1	1866676	88	1505
2026-01-28 00:37:10.45	349.27	77.31	-35.0	-36.5	7.3	1866676	88	1464
2026-01-28 00:37:10.65	349.03	77.40	-34.9	-36.2	7.7	1246269	88	1436
2026-01-28 00:37:10.86	348.77	77.48	-34.9	-36.3	7.5	1246269	88	1442
2026-01-28 00:37:11.06	348.53	77.57	-35.1	-36.7	7.3	969169	88	1490
2026-01-28 00:37:11.26	348.27	77.65	-35.1	-36.7	7.2	969169	88	1492
2026-01-28 00:37:11.46	348.02	77.73	-35.2	-37.1	7.0	969169	88	1533
2026-01-28 00:37:11.66	347.76	77.82	-35.3	-37.3	6.8	1208000	88	1548
2026-01-28 00:37:11.86	347.50	77.90	-35.2	-37.1	6.9	1208000	88	1527
2026-01-28 00:37:12.06	347.23	77.98	-35.2	-37.0	6.9	1669227	88	1511
2026-01-28 00:37:12.26	346.96	78.07	-35.4	-37.6	6.5	1669227	88	1589
2026-01-28 00:37:12.47	346.67	78.15	-35.3	-37.4	6.7	1766921	88	1554
2026-01-28 00:37:12.67	346.39	78.23	-35.1	-36.6	7.1	1766921	88	1472
2026-01-28 00:37:12.87	346.11	78.32	-35.1	-36.7	7.1	1576606	88	1481
2026-01-28 00:37:13.07	345.82	78.40	-34.8	-36.5	7.7	1576606	87	1493
2026-01-28 00:37:13.27	345.53	78.48	-34.9	-36.8	7.5	1062309	87	1531
2026-01-28 00:37:13.47	345.24	78.56	-35.0	-37.1	7.3	1062309	87	1554
2026-01-28 00:37:13.67	344.94	78.64	-34.9	-36.8	7.6	1037086	87	1523
2026-01-28 00:37:13.87	344.63	78.72	-34.9	-36.8	7.7	1037086	87	1528
2026-01-28 00:37:14.08	344.31	78.81	-35.2	-37.7	7.1	1037086	87	1629
2026-01-28 00:37:14.28	344.00	78.89	-35.2	-37.5	7.3	992729	87	1612
2026-01-28 00:37:14.48	343.68	78.97	-35.3	-37.8	7.3	992729	87	1647
2026-01-28 00:37:14.68	343.36	79.04	-35.6	-38.2	6.6	1230552	88	1662
2026-01-28 00:37:14.88	343.03	79.12	-35.4	-37.7	6.8	1230552	88	1592
2026-01-28 00:37:15.08	342.70	79.20	-35.2	-37.0	7.3	1825469	88	1516
2026-01-28 00:37:15.28	342.36	79.28	-35.2	-37.2	7.4	1825469	88	1538
2026-01-28 00:37:15.48	342.02	79.36	-35.1	-37.0	7.4	1123832	88	1517
2026-01-28 00:37:15.68	341.67	79.44	-34.9	-36.3	8.0	1123832	88	1444
2026-01-28 00:37:15.88	341.32	79.51	-34.7	-36.4	8.6	687088	87	1488
2026-01-28 00:37:16.08	340.96	79.59	-34.7	-36.2	8.5	687088	87	1474
2026-01-28 00:37:16.29	340.58	79.67	-34.6	-36.0	8.8	687088	87	1447
2026-01-28 00:37:16.49	340.21	79.75	-34.7	-36.4	8.6	355453	87	1494
2026-01-28 00:37:16.69	339.83	79.82	-34.6	-36.3	8.7	314628	87	1482
2026-01-28 00:37:16.89	339.45	79.90	-35.0	-37.2	7.8	314628	87	1591
2026-01-28 00:37:17.09	339.07	79.97	-35.2	-37.7	7.6	314628	87	1643
2026-01-28 00:37:17.29	338.68	80.05	-35.2	-37.7	7.7	675712	87	1642
2026-01-28 00:37:17.49	338.28	80.12	-35.5	-38.2	7.1	675712	88	1671
2026-01-28 00:37:17.69	337.87	80.20	-35.5	-38.2	6.9	1018486	88	1663
2026-01-28 00:37:17.89	337.46	80.27	-35.2	-37.2	7.4	1018486	88	1550
2026-01-28 00:37:18.10	337.02	80.35	-35.1	-36.9	7.9	1204574	88	1518
2026-01-28 00:37:18.30	336.60	80.42	-34.7	-36.2	8.6	1204574	87	1478
2026-01-28 00:37:18.50	336.17	80.49	-34.7	-36.4	8.5	523437	87	1497
2026-01-28 00:37:18.70	335.73	80.56	-34.3	-35.4	9.1	523437	87	1395
2026-01-28 00:37:18.90	335.29	80.63	-33.8	-35.2	9.6	246215	85	1455
2026-01-28 00:37:19.10	334.84	80.70	-33.6	-34.7	10.1	246215	85	1408
2026-01-28 00:37:19.30	334.38	80.77	-33.1	-34.1	10.6	246215	84	1389
2026-01-28 00:37:19.50	333.92	80.84	-33.0	-33.9	10.9	63407	84	1366
2026-01-28 00:37:19.70	333.45	80.91	-32.5	-33.2	11.6	63407	83	1341
2026-01-28 00:37:19.90	332.97	80.98	-32.4	-33.1	11.7	14778	83	1337
2026-01-28 00:37:20.11	332.46	81.05	-32.7	-33.7	11.4	14778	83	1390
2026-01-28 00:37:20.31	331.96	81.11	-32.5	-33.3	11.6	7751	83	1351
2026-01-28 00:37:20.51	331.46	81.18	-32.4	-33.1	11.8	7751	83	1338
2026-01-28 00:37:20.71	330.95	81.25	-32.6	-33.5	11.5	5668	83	1376
2026-01-28 00:37:20.91	330.44	81.31	-32.7	-33.8	11.4	5668	83	1399
2026-01-28 00:37:21.11	329.91	81.37	-32.6	-33.5	11.5	8445	83	1375
2026-01-28 00:37:21.31	329.38	81.44	-32.7	-33.9	11.3	8445	83	1414
2026-01-28 00:37:21.51	328.84	81.50	-32.5	-33.4	11.7	8445	83	1367
2026-01-28 00:37:21.71	328.29	81.56	-32.5	-33.5	11.6	9193	83	1370
2026-01-28 00:37:21.91	327.73	81.62	-32.5	-33.5	11.6	9193	83	1374
2026-01-28 00:37:22.12	327.14	81.69	-32.7	-33.9	11.7	6607	83	1408
2026-01-28 00:37:22.32	326.57	81.75	-32.5	-33.4	11.7	6607	83	1364
2026-01-28 00:37:22.52	325.98	81.80	-32.8	-34.0	11.4	7392	83	1422
2026-01-28 00:37:22.72	325.39	81.86	-32.7	-33.8	11.4	7392	83	1404
2026-01-28 00:37:22.92	324.79	81.92	-32.5	-33.5	11.7	9017	83	1374
2026-01-28 00:37:23.12	324.19	81.97	-32.7	-33.9	11.4	9017	83	1409
2026-01-28 00:37:23.32	323.57	82.03	-32.7	-33.9	11.4	7698	83	1410
2026-01-28 00:37:23.52	322.95	82.08	-32.8	-34.0	11.4	7698	83	1421
2026-01-28 00:37:23.72	322.31	82.14	-32.9	-34.2	11.2	9803	83	1439
2026-01-28 00:37:23.93	321.64	82.19	-33.0	-34.5	11.1	9803	83	1462
2026-01-28 00:37:24.13	320.99	82.24	-33.3	-35.2	10.6	9803	83	1536
2026-01-28 00:37:24.33	320.33	82.29	-33.3	-35.2	10.6	20729	83	1529
2026-01-28 00:37:24.53	319.66	82.34	-33.1	-34.8	10.9	20729	83	1493
2026-01-28 00:37:24.73	318.98	82.39	-33.4	-35.6	10.4	28457	83	1569
2026-01-28 00:37:24.93	318.30	82.44	-33.5	-35.6	10.4	28457	83	1577
2026-01-28 00:37:25.13	317.60	82.48	-33.7	-35.7	9.9	52436	84	1545
2026-01-28 00:37:25.33	316.90	82.53	-33.8	-35.9	9.8	52436	84	1562
2026-01-28 00:37:25.53	316.19	82.57	-33.9	-36.3	9.5	97061	84	1610
2026-01-28 00:37:25.74	315.43	82.62	-34.2	-36.3	9.2	97061	85	1576
2026-01-28 00:37:25.94	314.70	82.66	-34.3	-36.6	9.0	201347	85	1608
2026-01-28 00:37:26.14	313.97	82.70	-34.3	-36.5	9.0	201347	85	1591
2026-01-28 00:37:26.34	313.22	82.74	-34.2	-36.3	9.2	243270	85	1564
2026-01-28 00:37:26.54	312.47	82.78	-34.1	-36.2	9.2	243270	85	1552
2026-01-28 00:37:26.74	311.71	82.81	-34.1	-36.1	9.3	196350	85	1549
2026-01-28 00:37:26.94	310.94	82.85	-33.8	-35.3	9.8	196350	85	1459
2026-01-28 00:37:27.14	310.16	82.88	-33.7	-35.1	10.0	196350	85	1440
2026-01-28 00:37:27.34	309.38	82.92	-33.5	-34.6	10.2	99929	85	1398
2026-01-28 00:37:27.54	308.59	82.95	-33.5	-34.7	10.3	99929	85	1407
2026-01-28 00:37:27.74	307.79	82.98	-33.4	-34.4	10.4	58761	85	1377
2026-01-28 00:37:27.95	306.95	83.01	-33.6	-34.8	10.2	58761	85	1418
2026-01-28 00:37:28.15	306.13	83.04	-33.5	-34.6	10.4	48530	85	1395
2026-01-28 00:37:28.35	305.32	83.06	-33.4	-34.4	10.5	48530	85	1374
2026-01-28 00:37:28.55	304.49	83.09	-33.6	-34.8	10.3	46592	85	1415
2026-01-28 00:37:28.75	303.66	83.11	-33.9	-35.5	9.8	46592	85	1481
2026-01-28 00:37:28.95	302.83	83.13	-34.1	-36.1	9.4	97633	85	1547
2026-01-28 00:37:29.15	301.99	83.15	-34.1	-36.1	9.3	97633	85	1545
2026-01-28 00:37:29.35	301.14	83.17	-34.3	-36.5	9.0	97633	85	1593
2026-01-28 00:37:29.55	300.29	83.19	-34.2	-36.3	9.2	191780	85	1567
2026-01-28 00:37:29.75	299.44	83.20	-34.4	-36.7	9.0	191780	85	1610
2026-01-28 00:37:29.96	298.54	83.22	-34.1	-36.1	9.3	214439	85	1545
2026-01-28 00:37:30.16	297.68	83.23	-34.1	-36.1	9.3	214439	85	1550
2026-01-28 00:37:30.36	296.81	83.24	-34.2	-36.3	9.2	195625	85	1566
2026-01-28 00:37:30.56	295.95	83.25	-34.0	-35.8	9.5	195625	85	1506
2026-01-28 00:37:30.76	295.08	83.26	-33.9	-35.5	9.6	173057	85	1483
2026-01-28 00:37:30.96	294.21	83.26	-34.0	-35.7	9.5	173057	85	1504
2026-01-28 00:37:31.16	293.34	83.27	-33.9	-35.6	9.7	120315	85	1488
2026-01-28 00:37:31.36	292.46	83.27	-33.9	-35.6	9.6	120315	85	1488
2026-01-28 00:37:31.57	291.54	83.27	-34.1	-35.9	9.5	120315	85	1526
2026-01-28 00:37:31.77	290.67	83.28	-34.3	-36.4	9.1	129302	85	1575
2026-01-28 00:37:31.97	289.79	83.27	-34.2	-36.2	9.2	129302	85	1554
2026-01-28 00:37:32.17	288.92	83.27	-34.3	-36.5	9.0	203498	85	1577
2026-01-28 00:37:32.37	288.05	83.27	-34.3	-36.4	9.1	203498	85	1574
2026-01-28 00:37:32.57	287.18	83.26	-34.2	-36.3	9.1	222640	85	1560
2026-01-28 00:37:32.77	286.31	83.25	-34.1	-36.1	9.2	222640	85	1536
2026-01-28 00:37:32.97	285.44	83.24	-33.9	-35.4	9.8	189125	85	1465
2026-01-28 00:37:33.17	284.57	83.23	-33.8	-35.3	9.8	189125	85	1463
2026-01-28 00:37:33.37	283.71	83.22	-34.2	-36.3	9.2	111396	85	1572
2026-01-28 00:37:33.57	282.85	83.21	-34.1	-36.0	9.4	111396	85	1535
2026-01-28 00:37:33.78	281.96	83.19	-34.2	-36.3	9.3	169998	85	1570
2026-01-28 00:37:33.98	281.11	83.17	-34.5	-36.9	8.9	169998	85	1636
2026-01-28 00:37:34.18	280.26	83.16	-34.6	-36.9	8.5	169998	86	1593
2026-01-28 00:37:34.38	279.42	83.14	-34.8	-37.3	8.1	304855	86	1636
2026-01-28 00:37:34.58	278.58	83.12	-34.9	-37.4	8.1	304855	86	1658
2026-01-28 00:37:34.78	277.75	83.09	-34.8	-37.2	8.1	561187	86	1623
2026-01-28 00:37:34.98	276.92	83.07	-34.7	-37.0	8.2	561187	86	1604
2026-01-28 00:37:35.18	276.10	83.04	-34.6	-36.6	8.5	545158	86	1555
2026-01-28 00:37:35.38	275.29	83.02	-34.5	-36.5	8.7	545158	86	1546
2026-01-28 00:37:35.58	274.48	82.99	-34.5	-36.4	8.5	362724	86	1541
2026-01-28 00:37:35.79	273.64	82.96	-34.2	-35.6	9.2	362724	86	1458
2026-01-28 00:37:35.99	272.85	82.93	-34.0	-35.2	9.6	243080	86	1420
2026-01-28 00:37:36.19	272.06	82.89	-34.1	-35.4	9.5	243080	86	1441
2026-01-28 00:37:36.39	271.29	82.86	-34.2	-35.8	9.3	137390	86	1478
2026-01-28 00:37:36.59	270.51	82.82	-34.1	-35.6	9.5	137390	86	1460
2026-01-28 00:37:36.79	269.75	82.79	-34.3	-36.0	9.2	157173	86	1500
2026-01-28 00:37:36.99	269.00	82.75	-34.5	-36.7	8.8	157173	86	1574
2026-01-28 00:37:37.19	268.25	82.71	-34.8	-37.4	8.3	157173	86	1655
2026-01-28 00:37:37.39	267.51	82.67	-35.3	-38.0	7.8	340385	87	1681
2026-01-28 00:37:37.59	266.78	82.63	-35.5	-38.5	7.5	340385	87	1735
2026-01-28 00:37:37.79	266.05	82.59	-35.6	-38.3	7.3	823013	88	1677
2026-01-28 00:37:38.00	265.30	82.54	-35.7	-38.6	7.0	823013	88	1718
2026-01-28 00:37:38.20	264.60	82.50	-35.9	-39.0	6.7	1330734	88	1758
2026-01-28 00:37:38.40	263.90	82.45	-35.9	-39.1	6.6	1330734	88	1780
2026-01-28 00:37:38.60	263.21	82.41	-36.1	-38.9	6.5	2054862	89	1700
2026-01-28 00:37:38.80	262.53	82.36	-36.0	-38.6	6.5	2054862	89	1673
2026-01-28 00:37:39.00	261.86	82.31	-35.8	-38.1	6.9	2061447	89	1608
2026-01-28 00:37:39.20	261.20	82.26	-36.0	-38.6	6.6	2061447	89	1668
2026-01-28 00:37:39.40	260.55	82.21	-35.8	-38.3	6.7	2061447	89	1624
2026-01-28 00:37:39.60	259.90	82.16	-35.9	-38.5	6.7	1884254	89	1653
2026-01-28 00:37:39.80	259.26	82.10	-35.9	-38.3	6.7	1884254	89	1636
2026-01-28 00:37:40.01	258.60	82.05	-36.0	-38.7	6.5	1783714	89	1684
2026-01-28 00:37:40.21	257.99	81.99	-36.0	-38.8	6.5	1783714	89	1691
2026-01-28 00:37:40.41	257.38	81.93	-36.0	-38.8	6.5	2076675	89	1692
2026-01-28 00:37:40.61	256.77	81.88	-36.0	-38.7	6.6	2076675	89	1687
2026-01-28 00:37:40.81	256.18	81.82	-36.2	-39.3	6.3	2157531	89	1759
2026-01-28 00:37:41.01	255.60	81.76	-36.2	-39.4	6.1	2157531	89	1770
2026-01-28 00:37:41.21	255.02	81.70	-36.1	-38.9	6.4	2607444	89	1702
2026-01-28 00:37:41.41	254.45	81.64	-35.9	-38.5	6.5	2607444	89	1654
2026-01-28 00:37:41.62	253.86	81.58	-36.1	-39.0	6.3	2607444	89	1725
2026-01-28 00:37:41.82	253.31	81.52	-36.0	-38.7	6.3	2316070	89	1679
2026-01-28 00:37:42.02	252.77	81.46	-36.1	-38.9	6.2	2316070	89	1709
2026-01-28 00:37:42.22	252.24	81.39	-36.2	-39.1	6.0	2538230	89	1727
2026-01-28 00:37:42.42	251.71	81.33	-36.2	-39.1	6.0	2538230	89	1720
2026-01-28 00:37:42.62	251.19	81.26	-36.4	-39.7	5.6	2977699	89	1808
2026-01-28 00:37:42.82	250.68	81.20	-36.4	-39.8	5.5	2977699	89	1825
2026-01-28 00:37:43.02	250.17	81.13	-36.6	-39.9	5.0	4124504	90	1798
2026-01-28 00:37:43.22	249.68	81.07	-36.5	-39.8	5.0	4124504	90	1784
2026-01-28 00:37:43.42	249.19	81.00	-36.6	-39.9	4.9	5773902	90	1805
2026-01-28 00:37:43.62	248.71	80.93	-36.7	-40.2	4.8	5773902	90	1848
2026-01-28 00:37:43.83	248.21	80.86	-36.8	-40.7	4.5	6621215	90	1926
2026-01-28 00:37:44.03	247.74	80.79	-36.8	-40.4	4.6	6621215	90	1877
2026-01-28 00:37:44.23	247.28	80.72	-36.6	-39.9	4.9	6621215	90	1803
2026-01-28 00:37:44.43	246.83	80.65	-36.7	-40.2	4.8	6999832	90	1838
2026-01-28 00:37:44.63	246.38	80.58	-36.8	-40.6	4.6	6999832	90	1900
2026-01-28 00:37:44.83	245.95	80.51	-37.0	-41.2	4.3	7000862	90	2009
2026-01-28 00:37:45.03	245.51	80.44	-37.0	-41.2	4.3	7000862	90	2006
2026-01-28 00:37:45.23	245.09	80.37	-36.9	-41.2	4.3	8673194	90	2008
2026-01-28 00:37:45.44	244.65	80.29	-37.5	-41.6	4.3	8673194	91	1974
2026-01-28 00:37:45.64	244.24	80.22	-37.2	-41.3	4.3	9025466	91	1962
2026-01-28 00:37:45.84	243.83	80.14	-37.3	-41.5	4.3	9025466	91	2002
2026-01-28 00:37:46.04	243.43	80.07	-37.2	-41.3	4.3	9422782	91	1965
2026-01-28 00:37:46.24	243.03	79.99	-37.2	-41.5	4.3	9422782	91	2007
2026-01-28 00:37:46.44	242.65	79.92	-37.1	-41.0	4.4	9178405	91	1917
2026-01-28 00:37:46.64	242.26	79.84	-37.1	-41.0	4.3	9178405	91	1924
2026-01-28 00:37:46.84	241.89	79.77	-37.2	-41.2	4.3	9016082	91	1966
2026-01-28 00:37:47.04	241.52	79.69	-37.2	-41.2	4.3	9016082	91	1957
2026-01-28 00:37:47.24	241.15	79.62	-37.0	-40.6	4.5	9016082	91	1866
2026-01-28 00:37:47.44	240.79	79.54	-37.0	-40.6	4.5	8470535	91	1870
2026-01-28 00:37:47.65	240.42	79.46	-37.0	-40.5	4.5	8470535	91	1849
2026-01-28 00:37:47.85	240.07	79.38	-37.0	-40.5	4.5	7787727	91	1839
2026-01-28 00:37:48.05	239.73	79.30	-36.9	-40.3	4.6	7787727	91	1818
2026-01-28 00:37:48.25	239.39	79.22	-37.0	-40.4	4.6	7453842	91	1828
2026-01-28 00:37:48.45	239.05	79.14	-37.0	-40.6	4.5	7453842	91	1849
2026-01-28 00:37:48.65	238.73	79.07	-37.1	-41.1	4.3	7912109	91	1932
2026-01-28 00:37:48.85	238.40	78.99	-37.2	-41.4	4.2	7912109	91	1990
2026-01-28 00:37:49.05	238.08	78.91	-37.2	-41.4	4.1	10042938	91	1980
2026-01-28 00:37:49.25	237.77	78.83	-37.3	-41.5	4.0	10042938	91	2004
2026-01-28 00:37:49.46	237.44	78.74	-37.3	-41.6	4.0	10042938	91	2031
2026-01-28 00:37:49.66	237.14	78.66	-37.3	-41.7	3.9	12432357	91	2045
2026-01-28 00:37:49.86	236.84	78.58	-37.4	-41.9	3.9	12432357	91	2073
2026-01-28 00:37:50.06	236.54	78.50	-37.4	-42.0	3.8	13380928	91	2092
2026-01-28 00:37:50.26	236.25	78.42	-37.3	-41.6	3.9	13380928	91	2021
2026-01-28 00:37:50.46	235.96	78.34	-37.2	-41.2	4.0	13408706	91	1955
2026-01-28 00:37:50.66	235.68	78.25	-37.1	-40.8	4.2	13408706	91	1883
2026-01-28 00:37:50.86	235.40	78.17	-36.9	-40.1	4.4	10440574	91	1782
2026-01-28 00:37:51.06	235.12	78.09	-36.8	-39.8	4.5	10440574	91	1733
2026-01-28 00:37:51.27	234.83	78.00	-36.7	-39.5	4.8	7788490	91	1697
2026-01-28 00:37:51.47	234.57	77.92	-36.7	-39.4	4.8	7788490	91	1683
2026-01-28 00:37:51.67	234.30	77.84	-36.5	-38.7	5.2	7788490	91	1593
2026-01-28 00:37:51.87	234.04	77.75	-36.3	-38.3	5.4	5979331	91	1544
2026-01-28 00:37:52.07	233.78	77.67	-36.0	-38.2	5.6	5979331	90	1580
2026-01-28 00:37:52.27	233.53	77.59	-36.0	-38.0	5.7	4199897	90	1562
2026-01-28 00:37:52.47	233.28	77.50	-35.8	-37.7	5.8	4199897	90	1524
2026-01-28 00:37:52.67	233.03	77.42	-35.7	-37.9	6.2	3601264	89	1581
2026-01-28 00:37:52.87	232.79	77.34	-35.7	-37.8	6.3	3601264	89	1574
2026-01-28 00:37:53.08	232.54	77.25	-35.6	-37.5	6.5	2637153	89	1531
2026-01-28 00:37:53.28	232.30	77.16	-35.6	-37.7	6.4	2637153	89	1559
2026-01-28 00:37:53.48	232.07	77.08	-35.6	-37.7	6.5	2204658	89	1565
2026-01-28 00:37:53.68	231.84	76.99	-35.7	-37.8	6.4	2204658	89	1577
2026-01-28 00:37:53.88	231.61	76.91	-35.6	-37.7	6.4	2223175	89	1571
2026-01-28 00:37:54.08	231.39	76.82	-35.7	-38.0	6.3	2223175	89	1601
2026-01-28 00:37:54.28	231.17	76.74	-35.8	-38.4	6.0	2223175	89	1660
2026-01-28 00:37:54.48	230.95	76.65	-35.9	-38.6	5.9	2434425	89	1688
2026-01-28 00:37:54.69	230.72	76.56	-36.1	-39.1	5.6	2434425	89	1752
2026-01-28 00:37:54.89	230.51	76.48	-36.0	-38.9	5.7	3330909	89	1718
2026-01-28 00:37:55.09	230.30	76.39	-35.9	-38.6	5.8	3330909	89	1683
2026-01-28 00:37:55.29	230.10	76.31	-35.8	-38.4	6.0	3310974	89	1660
2026-01-28 00:37:55.49	229.89	76.22	-35.7	-37.9	6.3	3310974	89	1596
2026-01-28 00:37:55.69	229.69	76.13	-35.5	-37.6	6.6	2598327	89	1558
2026-01-28 00:37:55.89	229.49	76.05	-35.4	-37.2	6.9	2598327	89	1514
2026-01-28 00:37:56.09	229.30	75.96	-35.4	-37.3	7.0	1666069	89	1528
2026-01-28 00:37:56.29	229.10	75.87	-35.3	-37.0	7.0	1666069	89	1498
2026-01-28 00:37:56.49	228.91	75.79	-35.3	-37.0	7.1	1465805	89	1491
2026-01-28 00:37:56.70	228.71	75.70	-35.3	-37.1	7.0	1465805	89	1508
2026-01-28 00:37:56.90	228.53	75.61	-35.5	-37.5	6.8	1529830	89	1547
2026-01-28 00:37:57.10	228.34	75.52	-35.4	-37.4	6.8	1529830	89	1538
2026-01-28 00:37:57.30	228.16	75.44	-35.4	-37.3	6.8	1529830	89	1530
2026-01-28 00:37:57.50	227.98	75.35	-35.7	-38.2	6.3	1670249	89	1634
2026-01-28 00:37:57.70	227.80	75.26	-35.7	-38.2	6.3	1670249	89	1635
2026-01-28 00:37:57.90	227.63	75.17	-35.8	-38.5	6.1	2310752	89	1675
2026-01-28 00:37:58.10	227.45	75.09	-36.0	-39.0	5.7	2310752	89	1743
2026-01-28 00:37:58.30	227.28	75.00	-36.0	-39.1	5.6	3311828	89	1760
2026-01-28 00:37:58.50	227.11	74.91	-36.0	-39.1	5.6	3311828	89	1751
2026-01-28 00:37:58.71	226.94	74.82	-35.9	-38.7	5.9	3734924	89	1698
2026-01-28 00:37:58.91	226.77	74.73	-35.7	-38.2	6.2	3734924	89	1638
2026-01-28 00:37:59.11	226.61	74.64	-35.6	-38.0	6.5	2657829	89	1608
2026-01-28 00:37:59.31	226.45	74.56	-35.4	-37.2	7.0	2657829	89	1521
2026-01-28 00:37:59.51	226.29	74.47	-35.0	-36.7	7.4	2657829	88	1494
2026-01-28 00:37:59.71	226.13	74.38	-35.1	-37.1	7.4	1444526	88	1546
2026-01-28 00:37:59.91	225.98	74.29	-35.3	-37.7	7.1	1444526	88	1627
2026-01-28 00:38:00.11	225.82	74.21	-35.2	-37.3	7.2	1243568	88	1569
2026-01-28 00:38:00.31	225.67	74.12	-35.2	-37.5	7.1	1243568	88	1602
2026-01-28 00:38:00.52	225.52	74.03	-35.2	-37.3	7.1	1391418	88	1571
2026-01-28 00:38:00.72	225.37	73.94	-35.2	-37.3	7.2	1391418	88	1575
2026-01-28 00:38:00.92	225.22	73.85	-35.2	-37.4	7.1	1297615	88	1578
2026-01-28 00:38:01.12	225.08	73.76	-35.2	-37.5	7.1	1297615	88	1592
2026-01-28 00:38:01.32	224.93	73.67	-35.3	-37.6	7.0	1332611	88	1601
2026-01-28 00:38:01.52	224.79	73.58	-35.3	-37.6	7.0	1332611	88	1607
2026-01-28 00:38:01.72	224.65	73.50	-35.2	-37.3	7.2	1332611	88	1573
2026-01-28 00:38:01.92	224.51	73.41	-35.3	-37.7	7.0	1424324	88	1620
2026-01-28 00:38:02.12	224.38	73.32	-35.3	-37.6	7.1	1424324	88	1610
2026-01-28 00:38:02.32	224.24	73.23	-35.3	-37.8	7.0	1442947	88	1629
2026-01-28 00:38:02.52	224.11	73.14	-35.2	-37.4	7.2	1442947	88	1588
2026-01-28 00:38:02.73	223.97	73.05	-35.2	-37.3	7.3	1365638	88	1583
2026-01-28 00:38:02.93	223.84	72.96	-35.3	-37.6	6.9	1365638	88	1611
2026-01-28 00:38:03.13	223.71	72.87	-35.4	-37.9	6.8	1445663	88	1641
2026-01-28 00:38:03.33	223.58	72.79	-35.3	-37.7	6.7	1445663	88	1620
2026-01-28 00:38:03.53	223.45	72.70	-35.4	-38.0	6.5	1791046	88	1656
2026-01-28 00:38:03.73	223.33	72.61	-35.5	-38.1	6.4	1791046	88	1668
2026-01-28 00:38:03.93	223.20	72.52	-35.5	-38.2	6.3	2239440	88	1676
2026-01-28 00:38:04.13	223.08	72.43	-35.5	-38.1	6.3	2239440	88	1662
2026-01-28 00:38:04.33	222.96	72.34	-35.6	-38.6	6.2	2239440	88	1721
2026-01-28 00:38:04.54	222.83	72.25	-35.7	-38.8	5.9	2528739	88	1750
2026-01-28 00:38:04.74	222.71	72.16	-36.0	-39.6	5.4	2528739	88	1874
2026-01-28 00:38:04.94	222.60	72.07	-36.0	-39.1	5.4	3590705	89	1749
2026-01-28 00:38:05.14	222.48	71.98	-36.3	-40.2	4.8	3590705	89	1916
2026-01-28 00:38:05.34	222.37	71.90	-36.5	-40.6	4.3	5341911	90	1962
2026-01-28 00:38:05.54	222.25	71.81	-36.7	-41.0	4.1	5341911	90	2030
2026-01-28 00:38:05.74	222.14	71.72	-36.7	-41.3	3.9	9946487	90	2086
2026-01-28 00:38:05.94	222.03	71.63	-36.7	-41.3	4.0	9946487	90	2075
2026-01-28 00:38:06.14	221.92	71.54	-36.7	-41.2	3.9	12757392	90	2064
2026-01-28 00:38:06.35	221.80	71.45	-36.6	-40.6	4.1	12757392	90	1958
2026-01-28 00:38:06.55	221.69	71.36	-36.5	-40.4	4.2	11431991	90	1918
2026-01-28 00:38:06.75	221.59	71.27	-36.5	-40.4	4.2	11431991	90	1929
2026-01-28 00:38:06.95	221.48	71.18	-36.4	-39.9	4.3	9336105	90	1845
2026-01-28 00:38:07.15	221.38	71.10	-36.1	-39.0	4.8	9336105	90	1712
2026-01-28 00:38:07.35	221.27	71.01	-36.0	-38.6	5.0	9336105	90	1651
2026-01-28 00:38:07.55	221.17	70.92	-36.1	-39.0	4.9	6748107	90	1707
2026-01-28 00:38:07.75	221.07	70.83	-35.9	-38.3	5.1	6748107	90	1618
2026-01-28 00:38:07.95	220.97	70.74	-35.8	-38.1	5.3	5768051	90	1602
2026-01-28 00:38:08.15	220.87	70.65	-36.7	-41.1	4.3	5768051	90	2042
2026-01-28 00:38:08.36	220.76	70.56	-37.8	-46.4	3.6	7914512	92	3330
2026-01-28 00:38:08.56	220.67	70.47	-38.0	-46.4	3.6	7914512	93	3243
2026-01-28 00:38:08.76	220.57	70.39	-38.0	-45.9	3.4	15076400	93	3048

#Closed at: 2026-01-28 00:38:08