passes_logs/2025/01/04/PPK-1/PPK-1__20250104_105152_TY-39_rec.log

#Pass ID: 20250104_105152_TY-39
#Satellite: TY-39
#Configuration: TY-39
#almurnet v.1.7.20230919.trace
#Start time: 2025-01-04 10:51:52

#Version: 2.2.20231116
#Station: PPK-1
#Location: 158.6 lon 53.06666 lat
#TLE: 1 51832U 22019J   25003.85209178  .00005047  00000+0  25955-3 0  9997
#TLE: 2 51832  97.4110  74.3059 0007622 279.2184  80.8188 15.16870569157454

#Time	Az	El	Level	Level2	SNR	BER	BlckErr	Temp	State
2025-01-04 10:51:52.31	170.20	7.98	-67.4	-73.3	3.6	0.00e+00	0	46	0
2025-01-04 10:51:53.21	170.21	8.07	-67.4	-73.4	3.7	0.00e+00	0	46	104
2025-01-04 10:51:54.20	170.23	8.16	-67.5	-73.4	3.6	0.00e+00	0	46	104
2025-01-04 10:51:55.11	170.25	8.25	-67.5	-73.4	3.7	0.00e+00	0	46	104
2025-01-04 10:51:56.10	170.27	8.34	-67.3	-73.2	3.6	0.00e+00	0	46	104
2025-01-04 10:51:57.01	170.29	8.43	-67.4	-73.2	3.7	0.00e+00	0	47	104
2025-01-04 10:51:58.00	170.31	8.52	-67.4	-73.3	3.7	0.00e+00	0	47	104
2025-01-04 10:51:58.91	170.33	8.61	-67.5	-73.4	3.6	0.00e+00	0	47	104
2025-01-04 10:51:59.89	170.35	8.71	-67.5	-73.4	3.7	0.00e+00	0	47	104
2025-01-04 10:52:00.80	170.37	8.80	-67.4	-73.5	3.6	0.00e+00	0	47	104
2025-01-04 10:52:01.79	170.39	8.89	-67.4	-73.4	3.7	0.00e+00	0	47	104
2025-01-04 10:52:02.70	170.41	8.98	-67.4	-73.4	3.6	0.00e+00	0	48	104
2025-01-04 10:52:03.69	170.43	9.08	-67.2	-73.2	3.6	0.00e+00	0	48	104
2025-01-04 10:52:04.60	170.45	9.17	-67.2	-73.1	3.7	0.00e+00	0	48	104
2025-01-04 10:52:05.59	170.47	9.27	-67.1	-73.2	3.6	0.00e+00	0	48	104
2025-01-04 10:52:06.50	170.49	9.36	-67.2	-73.2	3.7	0.00e+00	0	48	104
2025-01-04 10:52:07.49	170.52	9.46	-67.2	-73.2	3.6	0.00e+00	0	48	104
2025-01-04 10:52:08.40	170.54	9.55	-67.2	-73.3	3.7	0.00e+00	0	49	104
2025-01-04 10:52:09.39	170.56	9.66	-67.2	-73.3	3.7	0.00e+00	0	49	104
2025-01-04 10:52:10.29	170.58	9.75	-67.3	-73.4	3.6	0.00e+00	0	49	104
2025-01-04 10:52:11.28	170.60	9.85	-67.1	-73.1	3.7	0.00e+00	0	49	104
2025-01-04 10:52:12.19	170.62	9.94	-67.3	-73.4	3.6	0.00e+00	0	49	104
2025-01-04 10:52:13.18	170.64	10.05	-67.3	-73.4	3.7	0.00e+00	0	49	104
2025-01-04 10:52:14.09	170.67	10.14	-67.3	-73.5	3.6	0.00e+00	0	49	104
2025-01-04 10:52:15.08	170.69	10.25	-67.3	-73.4	3.6	0.00e+00	0	49	104
2025-01-04 10:52:15.99	170.71	10.34	-67.4	-73.5	3.7	0.00e+00	0	50	104
2025-01-04 10:52:16.97	170.73	10.45	-67.4	-73.4	3.6	0.00e+00	0	50	104
2025-01-04 10:52:17.88	170.75	10.54	-67.4	-73.3	3.7	0.00e+00	0	50	104
2025-01-04 10:52:18.87	170.78	10.65	-67.3	-73.3	3.6	0.00e+00	0	50	104
2025-01-04 10:52:19.78	170.80	10.75	-67.4	-73.3	3.7	0.00e+00	0	50	104
2025-01-04 10:52:20.77	170.82	10.86	-67.4	-73.3	3.7	0.00e+00	0	51	104
2025-01-04 10:52:21.68	170.85	10.96	-67.5	-73.3	3.6	0.00e+00	0	50	104
2025-01-04 10:52:22.67	170.87	11.07	-67.5	-73.3	3.7	0.00e+00	0	51	104
2025-01-04 10:52:23.58	170.89	11.17	-67.5	-73.4	3.6	0.00e+00	0	51	104
2025-01-04 10:52:24.57	170.92	11.28	-67.5	-73.4	3.7	0.00e+00	0	51	104
2025-01-04 10:52:25.48	170.94	11.38	-67.6	-73.5	3.6	0.00e+00	0	51	104
2025-01-04 10:52:26.47	170.97	11.49	-67.7	-73.7	3.6	0.00e+00	0	51	104
2025-01-04 10:52:27.38	170.99	11.59	-67.7	-73.8	3.7	0.00e+00	0	51	104
2025-01-04 10:52:28.37	171.02	11.70	-67.7	-73.9	3.6	0.00e+00	0	51	104
2025-01-04 10:52:29.28	171.04	11.81	-67.7	-73.9	3.7	0.00e+00	0	52	104
2025-01-04 10:52:30.27	171.07	11.92	-67.7	-73.9	3.6	0.00e+00	0	52	104
2025-01-04 10:52:31.18	171.09	12.03	-67.6	-73.9	3.7	0.00e+00	0	52	104
2025-01-04 10:52:32.17	171.12	12.14	-67.5	-73.7	3.7	0.00e+00	0	52	104
2025-01-04 10:52:33.07	171.14	12.25	-67.5	-73.7	3.6	0.00e+00	0	52	104
2025-01-04 10:52:34.07	171.17	12.37	-67.5	-73.6	3.7	0.00e+00	0	52	104
2025-01-04 10:52:34.97	171.19	12.47	-67.6	-73.6	3.6	0.00e+00	0	53	104
2025-01-04 10:52:35.96	171.22	12.59	-67.5	-73.6	3.7	0.00e+00	0	52	104
2025-01-04 10:52:36.86	171.25	12.70	-67.6	-73.5	3.6	0.00e+00	0	52	104
2025-01-04 10:52:37.86	171.27	12.82	-67.7	-73.7	3.6	0.00e+00	0	53	104
2025-01-04 10:52:38.76	171.30	12.93	-67.8	-73.8	3.7	0.00e+00	0	53	104
2025-01-04 10:52:39.76	171.33	13.05	-67.8	-73.3	3.6	0.00e+00	0	53	104
2025-01-04 10:52:40.66	171.35	13.16	-67.8	-73.4	3.7	0.00e+00	0	53	104
2025-01-04 10:52:41.66	171.38	13.28	-67.8	-73.4	3.6	0.00e+00	0	53	104
2025-01-04 10:52:42.56	171.41	13.40	-67.8	-73.3	3.7	0.00e+00	0	53	104
2025-01-04 10:52:43.56	171.44	13.52	-53.2	-55.6	5.8	0.00e+00	2479	54	104
2025-01-04 10:52:44.46	171.47	13.63	-53.1	-55.9	13.5	6.93e-05	0	54	0
2025-01-04 10:52:45.46	171.50	13.76	-52.6	-55.0	13.7	0.00e+00	0	54	0
2025-01-04 10:52:46.36	171.52	13.88	-53.2	-56.2	13.3	0.00e+00	0	54	0
2025-01-04 10:52:47.36	171.55	14.00	-54.1	-57.4	12.9	1.38e-05	0	54	0
2025-01-04 10:52:48.26	171.58	14.12	-53.4	-56.1	13.4	2.77e-05	0	55	0
2025-01-04 10:52:49.25	171.61	14.25	-52.5	-55.2	14.0	0.00e+00	0	55	0
2025-01-04 10:52:50.15	171.64	14.37	-52.9	-56.1	13.8	0.00e+00	0	55	0
2025-01-04 10:52:51.14	171.67	14.50	-52.7	-55.7	13.9	6.90e-06	0	55	0
2025-01-04 10:52:52.04	171.70	14.62	-52.7	-55.7	13.9	0.00e+00	0	55	0
2025-01-04 10:52:53.04	171.73	14.75	-52.3	-54.8	14.1	0.00e+00	0	55	0
2025-01-04 10:52:53.94	171.76	14.87	-52.2	-54.7	14.1	0.00e+00	0	55	0
2025-01-04 10:52:54.93	171.80	15.01	-52.1	-54.5	14.2	0.00e+00	0	55	0
2025-01-04 10:52:55.84	171.83	15.13	-52.1	-54.5	14.2	0.00e+00	0	55	0
2025-01-04 10:52:56.83	171.86	15.26	-52.2	-54.5	14.2	0.00e+00	0	56	0
2025-01-04 10:52:57.74	171.89	15.39	-52.1	-54.9	14.2	0.00e+00	0	56	0
2025-01-04 10:52:58.72	171.92	15.53	-52.0	-54.7	14.2	0.00e+00	0	56	0
2025-01-04 10:52:59.63	171.95	15.65	-52.0	-54.7	14.2	0.00e+00	0	56	0
2025-01-04 10:53:00.61	171.99	15.79	-51.9	-54.6	14.2	6.90e-06	0	56	0
2025-01-04 10:53:01.52	172.02	15.92	-51.9	-54.4	14.2	0.00e+00	0	56	0
2025-01-04 10:53:02.51	172.06	16.06	-51.8	-54.4	14.1	0.00e+00	0	56	0
2025-01-04 10:53:03.41	172.09	16.19	-51.7	-54.2	14.1	0.00e+00	0	56	0
2025-01-04 10:53:04.41	172.12	16.34	-51.8	-54.3	14.1	6.90e-06	0	56	0
2025-01-04 10:53:05.31	172.16	16.47	-51.7	-54.2	14.2	0.00e+00	0	57	0
2025-01-04 10:53:06.30	172.19	16.61	-51.6	-54.0	14.2	0.00e+00	0	56	0
2025-01-04 10:53:07.20	172.23	16.75	-51.5	-54.3	14.3	0.00e+00	0	57	0
2025-01-04 10:53:08.19	172.26	16.89	-51.5	-54.3	14.4	0.00e+00	0	57	0
2025-01-04 10:53:09.09	172.30	17.03	-51.5	-54.2	14.5	0.00e+00	0	57	0
2025-01-04 10:53:10.08	172.34	17.18	-51.5	-54.2	14.5	0.00e+00	0	57	0
2025-01-04 10:53:10.99	172.37	17.32	-51.5	-54.2	14.5	0.00e+00	0	57	0
2025-01-04 10:53:11.98	172.41	17.47	-51.4	-54.0	14.4	0.00e+00	0	57	0
2025-01-04 10:53:12.89	172.45	17.61	-51.4	-54.0	14.4	0.00e+00	0	57	0
2025-01-04 10:53:13.88	172.49	17.76	-51.3	-53.8	14.4	0.00e+00	0	58	0
2025-01-04 10:53:14.79	172.52	17.91	-51.3	-53.9	14.4	0.00e+00	0	58	0
2025-01-04 10:53:15.77	172.56	18.06	-51.3	-53.8	14.3	0.00e+00	0	58	0
2025-01-04 10:53:16.68	172.60	18.21	-51.2	-53.7	14.4	0.00e+00	0	58	0
2025-01-04 10:53:17.66	172.64	18.36	-51.1	-53.5	14.5	0.00e+00	0	58	0
2025-01-04 10:53:18.57	172.68	18.51	-51.1	-54.0	14.5	0.00e+00	0	58	0
2025-01-04 10:53:19.55	172.72	18.67	-51.2	-54.0	14.4	0.00e+00	0	58	0
2025-01-04 10:53:20.46	172.76	18.82	-51.1	-54.0	14.5	0.00e+00	0	58	0
2025-01-04 10:53:21.45	172.80	18.99	-51.1	-53.8	14.4	0.00e+00	0	58	0
2025-01-04 10:53:22.35	172.84	19.14	-51.1	-53.9	14.4	0.00e+00	0	58	0
2025-01-04 10:53:23.34	172.89	19.30	-51.0	-53.7	14.5	0.00e+00	0	59	0
2025-01-04 10:53:24.24	172.93	19.45	-51.0	-53.7	14.5	0.00e+00	0	59	0
2025-01-04 10:53:25.23	172.97	19.62	-51.0	-53.7	14.6	0.00e+00	0	59	0
2025-01-04 10:53:26.14	173.01	19.78	-50.9	-53.5	14.6	0.00e+00	0	59	0
2025-01-04 10:53:27.13	173.06	19.95	-50.9	-53.5	14.4	0.00e+00	0	59	0
2025-01-04 10:53:28.04	173.10	20.11	-50.8	-53.2	14.5	0.00e+00	0	59	0
2025-01-04 10:53:29.02	173.15	20.29	-50.7	-53.2	14.3	0.00e+00	0	59	0
2025-01-04 10:53:29.93	173.19	20.45	-50.7	-53.0	14.2	0.00e+00	0	59	0
2025-01-04 10:53:30.92	173.24	20.63	-50.6	-52.9	14.1	0.00e+00	0	59	0
2025-01-04 10:53:31.82	173.29	20.79	-50.6	-53.4	14.2	0.00e+00	0	59	0
2025-01-04 10:53:32.82	173.34	20.97	-50.5	-53.3	14.4	0.00e+00	0	60	0
2025-01-04 10:53:33.72	173.38	21.14	-50.4	-53.1	14.4	0.00e+00	0	60	0
2025-01-04 10:53:34.71	173.43	21.32	-50.4	-53.1	14.4	0.00e+00	0	60	0
2025-01-04 10:53:35.61	173.48	21.49	-50.4	-53.0	14.6	0.00e+00	0	60	0
2025-01-04 10:53:36.60	173.53	21.68	-50.4	-52.9	14.6	0.00e+00	0	60	0
2025-01-04 10:53:37.50	173.58	21.85	-50.3	-52.8	14.7	0.00e+00	0	60	0
2025-01-04 10:53:38.50	173.63	22.04	-50.3	-52.7	14.7	0.00e+00	0	60	0
2025-01-04 10:53:39.40	173.68	22.21	-50.3	-52.8	14.8	0.00e+00	0	60	0
2025-01-04 10:53:40.40	173.73	22.41	-50.2	-52.6	15.1	0.00e+00	0	60	0
2025-01-04 10:53:41.30	173.78	22.59	-50.2	-52.5	15.2	0.00e+00	0	60	0
2025-01-04 10:53:42.29	173.84	22.78	-50.2	-53.0	15.2	0.00e+00	0	61	0
2025-01-04 10:53:43.19	173.89	22.97	-50.0	-52.7	15.2	0.00e+00	0	61	0
2025-01-04 10:53:44.18	173.95	23.17	-49.9	-52.6	15.0	0.00e+00	0	61	0
2025-01-04 10:53:45.08	174.00	23.35	-50.0	-52.7	15.0	0.00e+00	0	61	0
2025-01-04 10:53:46.07	174.06	23.55	-49.9	-52.5	15.0	0.00e+00	0	61	0
2025-01-04 10:53:46.98	174.11	23.74	-49.7	-52.2	15.1	0.00e+00	0	61	0
2025-01-04 10:53:47.96	174.17	23.95	-49.7	-52.2	15.2	0.00e+00	0	61	0
2025-01-04 10:53:48.87	174.23	24.14	-49.8	-52.2	15.3	0.00e+00	0	61	0
2025-01-04 10:53:49.86	174.29	24.35	-49.7	-52.1	15.4	0.00e+00	0	61	0
2025-01-04 10:53:50.77	174.35	24.55	-49.8	-52.2	15.2	0.00e+00	0	61	0
2025-01-04 10:53:51.76	174.41	24.77	-49.7	-52.1	15.2	0.00e+00	0	61	0
2025-01-04 10:53:52.66	174.47	24.96	-49.6	-52.3	15.2	0.00e+00	0	61	0
2025-01-04 10:53:53.65	174.54	25.18	-49.5	-52.3	15.2	0.00e+00	0	61	0
2025-01-04 10:53:54.56	174.60	25.39	-49.4	-52.1	15.2	0.00e+00	0	61	0
2025-01-04 10:53:55.55	174.67	25.61	-49.4	-51.9	15.2	0.00e+00	0	62	0
2025-01-04 10:53:56.45	174.73	25.82	-49.3	-51.9	15.1	0.00e+00	0	62	0
2025-01-04 10:53:57.45	174.80	26.05	-49.3	-51.8	15.2	0.00e+00	0	62	0
2025-01-04 10:53:58.35	174.86	26.26	-49.3	-51.7	15.3	0.00e+00	0	62	0
2025-01-04 10:53:59.34	174.93	26.49	-49.2	-51.5	15.5	0.00e+00	0	62	0
2025-01-04 10:54:00.25	175.00	26.71	-49.1	-51.4	15.5	0.00e+00	0	62	0
2025-01-04 10:54:01.24	175.07	26.95	-49.1	-51.4	15.4	0.00e+00	0	62	0
2025-01-04 10:54:02.14	175.14	27.16	-49.1	-51.4	15.5	0.00e+00	0	62	0
2025-01-04 10:54:03.14	175.22	27.41	-47.9	-50.6	15.4	0.00e+00	0	62	0
2025-01-04 10:54:04.04	175.29	27.63	-47.9	-50.4	15.4	0.00e+00	0	62	0
2025-01-04 10:54:05.04	175.37	27.88	-47.8	-50.2	15.5	0.00e+00	0	62	0
2025-01-04 10:54:05.94	175.44	28.11	-47.7	-50.2	15.5	0.00e+00	0	62	0
2025-01-04 10:54:06.94	175.52	28.36	-47.7	-50.0	15.5	0.00e+00	0	62	0
2025-01-04 10:54:07.84	175.59	28.59	-47.6	-49.9	15.5	0.00e+00	0	62	0
2025-01-04 10:54:08.84	175.68	28.85	-47.5	-50.3	15.3	0.00e+00	0	62	0
2025-01-04 10:54:09.74	175.75	29.09	-47.5	-50.2	15.4	0.00e+00	0	62	0
2025-01-04 10:54:10.74	175.84	29.36	-47.5	-50.2	15.3	0.00e+00	0	62	0
2025-01-04 10:54:11.64	175.92	29.60	-47.4	-50.0	15.4	0.00e+00	0	62	0
2025-01-04 10:54:12.64	176.01	29.87	-47.4	-49.9	15.5	0.00e+00	0	63	0
2025-01-04 10:54:13.54	176.09	30.11	-47.3	-49.8	15.6	0.00e+00	0	63	0
2025-01-04 10:54:14.54	176.18	30.39	-47.2	-49.7	15.6	0.00e+00	0	63	0
2025-01-04 10:54:15.44	176.27	30.64	-47.2	-49.6	15.6	0.00e+00	0	63	0
2025-01-04 10:54:16.44	176.37	30.92	-47.2	-49.5	15.6	0.00e+00	0	63	0
2025-01-04 10:54:17.34	176.45	31.18	-47.1	-49.4	15.6	0.00e+00	0	63	0
2025-01-04 10:54:18.34	176.55	31.47	-47.0	-49.7	15.6	0.00e+00	0	63	0
2025-01-04 10:54:19.24	176.64	31.73	-47.0	-49.7	15.6	0.00e+00	0	63	0
2025-01-04 10:54:20.24	176.75	32.03	-46.9	-49.5	15.6	0.00e+00	0	63	0
2025-01-04 10:54:21.14	176.84	32.30	-47.0	-49.6	15.7	0.00e+00	0	63	0
2025-01-04 10:54:22.13	176.95	32.59	-46.8	-49.4	15.7	0.00e+00	0	63	0
2025-01-04 10:54:23.03	177.04	32.87	-46.8	-49.2	15.8	0.00e+00	0	64	0
2025-01-04 10:54:24.03	177.15	33.17	-46.7	-49.1	15.8	0.00e+00	0	63	0
2025-01-04 10:54:24.93	177.25	33.45	-46.6	-48.9	15.8	0.00e+00	0	64	0
2025-01-04 10:54:25.93	177.37	33.77	-46.6	-48.9	15.8	0.00e+00	0	64	0
2025-01-04 10:54:26.83	177.47	34.05	-46.5	-49.3	15.8	0.00e+00	0	64	0
2025-01-04 10:54:27.83	177.59	34.38	-46.5	-49.2	15.9	0.00e+00	0	64	0
2025-01-04 10:54:28.73	177.70	34.67	-46.5	-49.2	15.9	0.00e+00	0	64	0
2025-01-04 10:54:29.73	177.83	35.00	-46.4	-49.1	15.9	0.00e+00	0	64	0
2025-01-04 10:54:30.63	177.94	35.30	-46.4	-48.9	15.7	0.00e+00	0	64	0
2025-01-04 10:54:31.63	178.07	35.63	-46.3	-48.7	15.8	0.00e+00	0	64	0
2025-01-04 10:54:32.53	178.19	35.94	-46.2	-48.6	15.9	0.00e+00	0	64	0
2025-01-04 10:54:33.53	178.32	36.28	-46.2	-48.5	15.9	0.00e+00	0	64	0
2025-01-04 10:54:34.43	178.45	36.59	-46.1	-48.4	15.9	0.00e+00	0	64	0
2025-01-04 10:54:35.43	178.59	36.94	-46.1	-48.3	15.9	0.00e+00	0	64	0
2025-01-04 10:54:36.33	178.71	37.26	-46.1	-48.8	15.9	0.00e+00	0	64	0
2025-01-04 10:54:37.32	178.86	37.62	-46.0	-48.7	16.0	0.00e+00	0	64	0
2025-01-04 10:54:38.23	178.99	37.95	-46.0	-48.6	16.0	0.00e+00	0	64	0
2025-01-04 10:54:39.22	179.15	38.31	-45.9	-48.5	15.9	0.00e+00	0	64	0
2025-01-04 10:54:40.13	179.29	38.65	-45.9	-48.5	15.9	0.00e+00	0	64	0
2025-01-04 10:54:41.12	179.45	39.02	-45.8	-48.3	15.9	0.00e+00	0	64	0
2025-01-04 10:54:42.03	179.59	39.37	-45.7	-48.1	15.9	0.00e+00	0	64	0
2025-01-04 10:54:43.02	179.76	39.75	-45.6	-48.0	16.0	0.00e+00	0	65	0
2025-01-04 10:54:43.92	179.91	40.10	-45.6	-47.9	16.0	0.00e+00	0	64	0
2025-01-04 10:54:44.91	180.08	40.49	-45.6	-48.3	16.0	0.00e+00	0	65	0
2025-01-04 10:54:45.82	180.25	40.85	-45.5	-48.1	16.1	0.00e+00	0	64	0
2025-01-04 10:54:46.81	180.43	41.24	-45.4	-48.0	16.0	0.00e+00	0	65	0
2025-01-04 10:54:47.72	180.60	41.61	-45.3	-47.8	16.0	0.00e+00	0	65	0
2025-01-04 10:54:48.71	180.79	42.02	-45.3	-47.8	16.0	0.00e+00	0	65	0
2025-01-04 10:54:49.62	180.97	42.40	-45.3	-47.7	16.1	0.00e+00	0	65	0
2025-01-04 10:54:50.61	181.17	42.81	-45.3	-47.7	16.1	0.00e+00	0	65	0
2025-01-04 10:54:51.52	181.36	43.20	-45.3	-47.7	16.1	0.00e+00	0	65	0
2025-01-04 10:54:52.51	181.57	43.62	-45.4	-47.9	15.9	0.00e+00	0	65	0
2025-01-04 10:54:53.42	181.77	44.02	-45.3	-47.8	16.0	0.00e+00	0	65	0
2025-01-04 10:54:54.40	181.99	44.45	-45.3	-47.8	16.1	0.00e+00	0	65	0
2025-01-04 10:54:55.31	182.20	44.85	-45.5	-48.1	16.1	0.00e+00	0	65	0
2025-01-04 10:54:56.30	182.43	45.29	-45.6	-48.3	16.1	0.00e+00	0	65	0
2025-01-04 10:54:57.21	182.65	45.71	-45.6	-48.3	16.0	0.00e+00	0	65	0
2025-01-04 10:54:58.20	182.90	46.16	-45.3	-47.8	16.0	0.00e+00	0	65	0
2025-01-04 10:54:59.11	183.13	46.58	-45.1	-47.4	16.1	0.00e+00	0	65	0
2025-01-04 10:55:00.10	183.39	47.04	-45.3	-48.3	16.1	0.00e+00	0	65	0
2025-01-04 10:55:01.01	183.64	47.47	-45.4	-48.5	16.2	0.00e+00	0	65	0
2025-01-04 10:55:02.00	183.92	47.94	-45.4	-48.5	16.2	0.00e+00	0	65	0
2025-01-04 10:55:02.91	184.18	48.38	-45.2	-48.2	16.1	0.00e+00	0	66	0
2025-01-04 10:55:03.90	184.48	48.87	-45.0	-47.6	16.2	0.00e+00	0	65	0
2025-01-04 10:55:04.81	184.76	49.31	-45.0	-47.6	16.2	0.00e+00	0	65	0
2025-01-04 10:55:05.80	185.07	49.80	-45.1	-47.8	16.2	0.00e+00	0	65	0
2025-01-04 10:55:06.70	185.36	50.26	-45.0	-47.7	16.2	0.00e+00	0	65	0
2025-01-04 10:55:07.69	185.70	50.76	-44.9	-47.4	16.2	0.00e+00	0	66	0
2025-01-04 10:55:08.60	186.01	51.22	-44.6	-47.0	16.3	0.00e+00	0	65	0
2025-01-04 10:55:09.59	186.37	51.73	-44.7	-47.1	16.3	0.00e+00	0	66	0
2025-01-04 10:55:10.50	186.71	52.21	-44.7	-47.1	16.3	0.00e+00	0	66	0
2025-01-04 10:55:11.49	187.09	52.73	-44.7	-47.1	16.3	0.00e+00	0	66	0
2025-01-04 10:55:12.39	187.45	53.20	-44.4	-47.1	16.3	0.00e+00	0	66	0
2025-01-04 10:55:13.39	187.86	53.74	-44.4	-46.9	16.3	0.00e+00	0	66	0
2025-01-04 10:55:14.29	188.25	54.22	-44.5	-47.1	16.3	0.00e+00	0	66	0
2025-01-04 10:55:15.29	188.69	54.77	-44.4	-47.0	16.3	0.00e+00	0	66	0
2025-01-04 10:55:16.19	189.10	55.26	-44.3	-46.8	16.4	0.00e+00	0	66	0
2025-01-04 10:55:17.19	189.58	55.81	-44.1	-46.8	16.4	0.00e+00	0	66	0
2025-01-04 10:55:18.09	190.03	56.31	-44.1	-46.9	16.4	0.00e+00	0	66	0
2025-01-04 10:55:19.09	190.54	56.87	-44.3	-47.2	16.3	0.00e+00	0	66	0
2025-01-04 10:55:19.99	191.03	57.38	-44.2	-47.1	16.3	0.00e+00	0	66	0
2025-01-04 10:55:20.99	191.58	57.94	-43.9	-46.4	16.4	0.00e+00	0	66	0
2025-01-04 10:55:21.89	192.10	58.46	-43.9	-46.5	16.4	0.00e+00	0	66	0
2025-01-04 10:55:22.89	192.71	59.03	-44.0	-46.6	16.5	0.00e+00	0	66	0
2025-01-04 10:55:23.79	193.28	59.55	-43.9	-46.4	16.4	0.00e+00	0	67	0
2025-01-04 10:55:24.79	193.93	60.12	-43.7	-46.1	16.4	0.00e+00	0	66	0
2025-01-04 10:55:25.69	194.55	60.65	-43.7	-46.1	16.5	0.00e+00	0	67	0
2025-01-04 10:55:26.69	195.27	61.23	-43.7	-46.1	16.5	0.00e+00	0	67	0
2025-01-04 10:55:27.59	195.94	61.75	-43.6	-45.9	16.4	0.00e+00	0	67	0
2025-01-04 10:55:28.59	196.73	62.34	-43.5	-46.1	16.4	0.00e+00	0	67	0
2025-01-04 10:55:29.49	197.47	62.86	-43.5	-46.2	16.3	0.00e+00	0	67	0
2025-01-04 10:55:30.48	198.32	63.44	-43.6	-46.3	16.3	0.00e+00	0	67	0
2025-01-04 10:55:31.38	199.13	63.97	-43.4	-45.9	16.4	0.00e+00	0	67	0
2025-01-04 10:55:32.38	200.08	64.55	-43.3	-45.9	16.4	0.00e+00	0	67	0
2025-01-04 10:55:33.28	200.97	65.08	-43.3	-45.8	16.5	0.00e+00	0	67	0
2025-01-04 10:55:34.28	202.02	65.66	-43.4	-46.0	16.5	0.00e+00	0	67	0
2025-01-04 10:55:35.18	203.01	66.18	-43.2	-45.6	16.6	0.00e+00	0	67	0
2025-01-04 10:55:36.18	204.16	66.75	-43.2	-45.5	16.7	0.00e+00	0	67	0
2025-01-04 10:55:37.08	205.25	67.26	-43.3	-45.7	16.6	0.00e+00	0	67	0
2025-01-04 10:55:38.08	206.54	67.83	-43.2	-45.5	16.6	0.00e+00	0	67	0
2025-01-04 10:55:38.98	207.75	68.33	-43.1	-45.4	16.6	0.00e+00	0	67	0
2025-01-04 10:55:39.98	209.17	68.88	-43.1	-45.4	16.6	0.00e+00	0	67	0
2025-01-04 10:55:40.88	210.52	69.36	-43.1	-45.9	16.6	0.00e+00	0	67	0
2025-01-04 10:55:41.88	212.10	69.90	-43.0	-45.6	16.6	0.00e+00	0	68	0
2025-01-04 10:55:42.78	213.60	70.36	-43.0	-45.7	16.6	0.00e+00	0	67	0
2025-01-04 10:55:43.78	215.36	70.87	-43.1	-45.8	16.6	0.00e+00	0	68	0
2025-01-04 10:55:44.68	217.03	71.32	-43.1	-45.8	16.6	0.00e+00	0	68	0
2025-01-04 10:55:45.68	218.99	71.79	-42.9	-45.5	16.6	0.00e+00	0	68	0
2025-01-04 10:55:46.58	220.84	72.20	-43.0	-45.7	16.6	0.00e+00	0	68	0
2025-01-04 10:55:47.58	223.00	72.64	-43.0	-45.6	16.6	0.00e+00	0	67	0
2025-01-04 10:55:48.48	225.05	73.02	-42.8	-45.2	16.6	0.00e+00	0	68	0
2025-01-04 10:55:49.48	227.44	73.41	-42.9	-45.4	16.6	0.00e+00	0	68	0
2025-01-04 10:55:50.38	229.69	73.74	-42.9	-45.4	16.6	0.00e+00	0	68	0
2025-01-04 10:55:51.37	232.27	74.08	-42.9	-45.4	16.7	0.00e+00	0	68	0
2025-01-04 10:55:52.27	234.71	74.36	-42.9	-45.4	16.7	0.00e+00	0	68	0
2025-01-04 10:55:53.27	237.53	74.64	-42.9	-45.5	16.6	0.00e+00	0	68	0
2025-01-04 10:55:54.17	240.15	74.86	-42.8	-45.3	16.7	0.00e+00	0	68	0
2025-01-04 10:55:55.17	243.15	75.06	-42.7	-45.2	16.7	0.00e+00	0	68	0
2025-01-04 10:55:56.07	245.92	75.22	-42.9	-45.4	16.6	0.00e+00	0	68	0
2025-01-04 10:55:57.07	249.05	75.34	-42.8	-45.3	16.6	0.00e+00	0	68	0
2025-01-04 10:55:57.97	251.92	75.42	-42.7	-45.1	16.7	0.00e+00	0	68	0
2025-01-04 10:55:58.97	255.13	75.47	-42.7	-45.1	16.7	0.00e+00	0	68	0
2025-01-04 10:55:59.87	258.03	75.48	-42.7	-45.1	16.6	0.00e+00	0	68	0
2025-01-04 10:56:00.87	261.25	75.44	-42.7	-45.0	16.6	0.00e+00	0	68	0
2025-01-04 10:56:01.77	264.12	75.37	-42.7	-45.2	16.6	0.00e+00	0	68	0
2025-01-04 10:56:02.77	267.27	75.25	-42.8	-45.2	16.6	0.00e+00	0	68	0
2025-01-04 10:56:03.67	270.05	75.11	-42.8	-45.3	16.6	0.00e+00	0	68	0
2025-01-04 10:56:04.66	273.04	74.91	-42.8	-45.3	16.6	0.00e+00	0	68	0
2025-01-04 10:56:05.57	275.71	74.70	-43.0	-45.7	16.6	0.00e+00	0	68	0
2025-01-04 10:56:06.56	278.53	74.44	-42.9	-45.5	16.6	0.00e+00	0	68	0
2025-01-04 10:56:07.47	281.02	74.16	-42.9	-45.5	16.6	0.00e+00	0	68	0
2025-01-04 10:56:08.46	283.63	73.84	-43.0	-45.7	16.7	0.00e+00	0	68	0
2025-01-04 10:56:09.37	285.93	73.51	-43.1	-45.9	16.7	0.00e+00	0	69	0
2025-01-04 10:56:10.36	288.31	73.12	-43.1	-45.9	16.6	0.00e+00	0	68	0
2025-01-04 10:56:11.27	290.41	72.75	-43.1	-45.9	16.7	0.00e+00	0	69	0
2025-01-04 10:56:12.26	292.58	72.32	-43.3	-46.3	16.6	0.00e+00	0	69	0
2025-01-04 10:56:13.16	294.45	71.91	-43.2	-46.1	16.6	0.00e+00	0	69	0
2025-01-04 10:56:14.15	296.41	71.45	-43.2	-46.2	16.6	0.00e+00	0	69	0
2025-01-04 10:56:15.06	298.12	71.00	-43.4	-46.5	16.5	0.00e+00	0	69	0
2025-01-04 10:56:16.05	299.89	70.51	-43.5	-46.6	16.5	0.00e+00	0	69	0
2025-01-04 10:56:16.96	301.42	70.04	-43.5	-46.6	16.6	0.00e+00	0	69	0
2025-01-04 10:56:17.95	303.01	69.52	-43.4	-46.4	16.6	0.00e+00	0	69	0
2025-01-04 10:56:18.86	304.39	69.03	-43.6	-46.8	16.6	0.00e+00	0	69	0
2025-01-04 10:56:19.85	305.82	68.49	-43.5	-46.6	16.6	0.00e+00	0	69	0
2025-01-04 10:56:20.76	307.06	67.98	-43.4	-46.5	16.6	0.00e+00	0	69	0
2025-01-04 10:56:21.74	308.34	67.44	-43.5	-46.7	16.6	0.00e+00	0	69	0
2025-01-04 10:56:22.65	309.46	66.92	-43.7	-47.0	16.6	0.00e+00	0	69	0
2025-01-04 10:56:23.64	310.62	66.36	-43.7	-47.0	16.5	0.00e+00	0	69	0
2025-01-04 10:56:24.55	311.63	65.83	-43.6	-46.8	16.6	0.00e+00	0	69	0
2025-01-04 10:56:25.54	312.67	65.26	-43.9	-47.0	16.6	0.00e+00	0	69	0
2025-01-04 10:56:26.45	313.59	64.73	-43.9	-46.9	16.6	0.00e+00	0	69	0
2025-01-04 10:56:27.44	314.54	64.16	-43.9	-47.0	16.5	0.00e+00	0	69	0
2025-01-04 10:56:28.35	315.37	63.63	-44.0	-47.2	16.5	0.00e+00	0	69	0
2025-01-04 10:56:29.34	316.23	63.05	-44.3	-47.7	16.5	0.00e+00	0	69	0
2025-01-04 10:56:30.25	316.99	62.52	-44.2	-47.6	16.5	0.00e+00	0	69	0
2025-01-04 10:56:31.24	317.77	61.94	-44.1	-47.4	16.5	0.00e+00	0	69	0
2025-01-04 10:56:32.15	318.46	61.42	-44.3	-47.4	16.4	0.00e+00	0	69	0
2025-01-04 10:56:33.14	319.18	60.84	-44.6	-47.9	16.4	0.00e+00	0	69	0
2025-01-04 10:56:34.05	319.81	60.32	-44.6	-47.8	16.4	0.00e+00	0	69	0
2025-01-04 10:56:35.04	320.47	59.75	-44.5	-47.7	16.4	0.00e+00	0	69	0
2025-01-04 10:56:35.94	321.05	59.23	-44.7	-48.0	16.4	0.00e+00	0	69	0
2025-01-04 10:56:36.93	321.65	58.67	-45.0	-48.1	16.4	0.00e+00	0	69	0
2025-01-04 10:56:37.84	322.18	58.15	-45.0	-48.1	16.4	0.00e+00	0	69	0
2025-01-04 10:56:38.83	322.74	57.59	-44.8	-47.8	16.4	0.00e+00	0	69	0
2025-01-04 10:56:39.73	323.23	57.08	-45.0	-48.1	16.3	0.00e+00	0	69	0
2025-01-04 10:56:40.73	323.75	56.53	-45.2	-48.6	16.2	0.00e+00	0	69	0
2025-01-04 10:56:41.63	324.20	56.03	-45.1	-48.5	16.2	0.00e+00	0	69	0
2025-01-04 10:56:42.63	324.68	55.48	-45.0	-48.3	16.3	0.00e+00	0	70	0
2025-01-04 10:56:43.53	325.10	54.99	-45.1	-48.5	16.2	0.00e+00	0	69	0
2025-01-04 10:56:44.53	325.55	54.45	-45.5	-48.6	16.1	0.00e+00	0	70	0
2025-01-04 10:56:45.43	325.94	53.96	-45.5	-48.8	16.1	0.00e+00	0	70	0
2025-01-04 10:56:46.43	326.35	53.43	-45.4	-48.6	16.1	0.00e+00	0	70	0
2025-01-04 10:56:47.33	326.72	52.95	-45.5	-48.8	16.1	0.00e+00	0	70	0
2025-01-04 10:56:48.33	327.11	52.43	-45.7	-48.6	16.0	0.00e+00	0	69	0
2025-01-04 10:56:49.23	327.44	51.96	-45.9	-49.0	16.0	0.00e+00	0	70	0
2025-01-04 10:56:50.23	327.81	51.45	-45.9	-49.0	16.0	0.00e+00	0	69	0
2025-01-04 10:56:51.13	328.12	50.99	-45.6	-48.4	16.1	0.00e+00	0	70	0
2025-01-04 10:56:52.13	328.46	50.48	-45.8	-48.9	16.0	0.00e+00	0	70	0
2025-01-04 10:56:53.03	328.76	50.03	-46.1	-49.3	15.9	0.00e+00	0	70	0
2025-01-04 10:56:54.03	329.08	49.54	-46.2	-49.6	15.9	0.00e+00	0	70	0
2025-01-04 10:56:54.93	329.36	49.09	-46.2	-49.5	15.9	0.00e+00	0	70	0
2025-01-04 10:56:55.93	329.66	48.61	-46.0	-49.2	16.0	0.00e+00	0	70	0
2025-01-04 10:56:56.83	329.92	48.18	-46.2	-49.6	15.9	0.00e+00	0	70	0
2025-01-04 10:56:57.83	330.20	47.70	-46.4	-49.5	15.8	0.00e+00	0	70	0
2025-01-04 10:56:58.73	330.45	47.28	-46.6	-49.9	15.8	0.00e+00	0	70	0
2025-01-04 10:56:59.72	330.71	46.81	-46.6	-49.9	15.7	0.00e+00	0	70	0
2025-01-04 10:57:00.62	330.95	46.40	-46.4	-49.5	15.8	0.00e+00	0	70	0
2025-01-04 10:57:01.62	331.20	45.94	-46.9	-50.0	15.6	0.00e+00	0	70	0
2025-01-04 10:57:02.52	331.42	45.54	-46.9	-50.0	15.6	0.00e+00	0	70	0
2025-01-04 10:57:03.52	331.66	45.09	-47.0	-50.2	15.6	0.00e+00	0	70	0
2025-01-04 10:57:04.42	331.87	44.69	-47.2	-50.6	15.5	0.00e+00	0	70	0
2025-01-04 10:57:05.42	332.09	44.25	-47.1	-50.3	15.6	0.00e+00	0	70	0
2025-01-04 10:57:06.32	332.29	43.86	-47.0	-50.2	15.7	0.00e+00	0	70	0
2025-01-04 10:57:07.32	332.50	43.44	-47.3	-50.3	15.6	0.00e+00	0	70	0
2025-01-04 10:57:08.22	332.69	43.06	-47.5	-50.6	15.5	0.00e+00	0	70	0
2025-01-04 10:57:09.22	332.90	42.64	-47.7	-51.2	15.5	0.00e+00	0	70	0
2025-01-04 10:57:10.12	333.07	42.26	-47.8	-50.7	15.5	0.00e+00	0	70	0
2025-01-04 10:57:11.12	333.27	41.86	-47.6	-50.4	15.5	0.00e+00	0	70	0
2025-01-04 10:57:12.02	333.44	41.49	-47.6	-50.4	15.5	0.00e+00	0	70	0
2025-01-04 10:57:13.02	333.62	41.09	-47.9	-50.9	15.4	0.00e+00	0	70	0
2025-01-04 10:57:13.92	333.78	40.73	-48.1	-51.3	15.4	0.00e+00	0	70	0
2025-01-04 10:57:14.92	333.96	40.34	-48.3	-51.7	15.4	0.00e+00	0	70	0
2025-01-04 10:57:15.82	334.11	39.99	-48.1	-50.9	15.4	0.00e+00	0	70	0
2025-01-04 10:57:16.82	334.28	39.61	-48.1	-50.8	15.5	0.00e+00	0	70	0
2025-01-04 10:57:17.72	334.43	39.27	-48.1	-50.8	15.4	0.00e+00	0	70	0
2025-01-04 10:57:18.72	334.59	38.90	-48.3	-51.3	15.3	0.00e+00	0	71	0
2025-01-04 10:57:19.62	334.73	38.56	-48.6	-51.8	15.2	0.00e+00	0	70	0
2025-01-04 10:57:20.61	334.88	38.20	-48.8	-52.2	15.1	0.00e+00	0	70	0
2025-01-04 10:57:21.51	335.02	37.87	-48.9	-52.1	15.1	0.00e+00	0	70	0
2025-01-04 10:57:22.51	335.17	37.52	-48.8	-51.8	15.2	0.00e+00	0	70	0
2025-01-04 10:57:23.41	335.30	37.20	-48.6	-51.4	15.3	0.00e+00	0	71	0
2025-01-04 10:57:24.41	335.44	36.85	-48.6	-51.4	15.2	0.00e+00	0	70	0
2025-01-04 10:57:25.31	335.56	36.53	-48.9	-52.1	15.0	0.00e+00	0	71	0
2025-01-04 10:57:26.31	335.70	36.19	-49.0	-52.2	15.1	0.00e+00	0	71	0
2025-01-04 10:57:27.21	335.82	35.89	-49.2	-52.7	14.9	0.00e+00	0	71	0
2025-01-04 10:57:28.21	335.95	35.55	-49.5	-52.6	14.8	0.00e+00	0	71	0
2025-01-04 10:57:29.11	336.06	35.25	-49.4	-52.5	14.9	0.00e+00	0	71	0
2025-01-04 10:57:30.11	336.19	34.93	-49.3	-52.2	14.9	0.00e+00	0	71	0
2025-01-04 10:57:31.01	336.30	34.63	-49.3	-52.2	14.9	0.00e+00	0	71	0
2025-01-04 10:57:32.00	336.41	34.32	-49.2	-52.2	14.8	0.00e+00	0	71	0
2025-01-04 10:57:32.91	336.52	34.03	-49.5	-52.8	14.7	0.00e+00	0	71	0
2025-01-04 10:57:33.90	336.64	33.72	-49.8	-53.3	14.7	0.00e+00	0	71	0
2025-01-04 10:57:34.81	336.74	33.44	-51.0	-54.1	14.8	0.00e+00	0	71	0
2025-01-04 10:57:35.80	336.85	33.13	-51.1	-54.4	14.8	0.00e+00	0	71	0
2025-01-04 10:57:36.71	336.95	32.85	-51.1	-54.5	14.7	0.00e+00	0	71	0
2025-01-04 10:57:37.70	337.06	32.56	-51.0	-54.1	14.7	0.00e+00	0	71	0
2025-01-04 10:57:38.61	337.15	32.29	-50.8	-53.8	14.7	0.00e+00	0	71	0
2025-01-04 10:57:39.60	337.25	32.00	-50.8	-53.8	14.5	0.00e+00	0	71	0
2025-01-04 10:57:40.51	337.35	31.73	-51.0	-54.3	14.5	0.00e+00	0	71	0
2025-01-04 10:57:41.50	337.45	31.45	-51.5	-54.6	14.4	0.00e+00	0	71	0
2025-01-04 10:57:42.40	337.53	31.19	-51.7	-55.1	14.2	6.90e-06	0	71	0
2025-01-04 10:57:43.39	337.63	30.91	-51.8	-54.7	14.2	0.00e+00	0	71	0
2025-01-04 10:57:44.30	337.72	30.66	-51.8	-54.9	14.1	0.00e+00	0	71	0
2025-01-04 10:57:45.29	337.81	30.38	-51.8	-54.8	14.1	0.00e+00	0	71	0
2025-01-04 10:57:46.20	337.89	30.13	-51.6	-54.4	14.0	6.90e-06	0	71	0
2025-01-04 10:57:47.19	337.98	29.87	-51.5	-54.1	13.9	0.00e+00	0	71	0
2025-01-04 10:57:48.10	338.06	29.62	-51.7	-54.5	13.7	0.00e+00	0	71	0
2025-01-04 10:57:49.08	338.15	29.36	-51.9	-55.1	13.4	2.08e-05	0	71	0
2025-01-04 10:57:49.99	338.23	29.13	-52.1	-55.4	13.3	2.08e-05	0	71	0
2025-01-04 10:57:50.98	338.31	28.87	-52.5	-55.7	13.1	6.90e-06	0	71	0
2025-01-04 10:57:51.89	338.39	28.63	-52.7	-56.1	13.0	2.08e-05	0	71	0
2025-01-04 10:57:52.88	338.47	28.38	-52.6	-55.9	13.2	4.85e-05	0	71	0
2025-01-04 10:57:53.79	338.54	28.15	-52.7	-56.0	13.3	1.38e-05	0	71	0
2025-01-04 10:57:54.78	338.62	27.91	-52.3	-55.3	13.7	6.90e-06	0	71	0
2025-01-04 10:57:55.69	338.69	27.68	-52.3	-55.3	13.8	0.00e+00	0	71	0
2025-01-04 10:57:56.68	338.77	27.44	-52.4	-55.4	13.9	0.00e+00	0	71	0
2025-01-04 10:57:57.59	338.84	27.22	-52.3	-55.4	13.9	0.00e+00	0	71	0
2025-01-04 10:57:58.58	338.91	26.98	-52.6	-56.0	13.8	0.00e+00	0	71	0
2025-01-04 10:57:59.49	338.98	26.77	-53.0	-56.2	13.6	0.00e+00	0	72	0
2025-01-04 10:58:00.48	339.05	26.54	-53.0	-56.2	13.7	0.00e+00	0	71	0
2025-01-04 10:58:01.39	339.11	26.32	-53.1	-56.5	13.5	0.00e+00	0	71	0
2025-01-04 10:58:02.38	339.18	26.10	-53.2	-56.6	13.5	1.38e-05	0	71	0
2025-01-04 10:58:03.29	339.25	25.89	-53.6	-56.9	13.3	0.00e+00	0	71	0
2025-01-04 10:58:04.28	339.32	25.66	-53.3	-56.4	13.5	0.00e+00	0	72	0
2025-01-04 10:58:05.18	339.38	25.46	-53.2	-56.2	13.7	0.00e+00	0	71	0
2025-01-04 10:58:06.18	339.44	25.24	-53.2	-56.0	13.7	0.00e+00	0	71	0
2025-01-04 10:58:07.08	339.50	25.04	-53.2	-56.1	13.7	0.00e+00	0	71	0
2025-01-04 10:58:08.07	339.57	24.83	-53.3	-56.3	13.6	0.00e+00	0	71	0
2025-01-04 10:58:08.97	339.62	24.63	-53.5	-56.7	13.5	6.90e-06	0	71	0
2025-01-04 10:58:09.97	339.69	24.42	-53.7	-57.1	13.4	2.08e-05	0	71	0
2025-01-04 10:58:10.87	339.74	24.23	-53.8	-56.8	13.4	2.08e-05	0	71	0
2025-01-04 10:58:11.87	339.81	24.02	-53.8	-56.9	13.3	1.38e-05	0	71	0
2025-01-04 10:58:12.77	339.86	23.83	-53.8	-56.9	13.4	0.00e+00	0	71	0
2025-01-04 10:58:13.77	339.92	23.63	-54.0	-57.3	13.3	0.00e+00	0	71	0
2025-01-04 10:58:14.67	339.97	23.44	-54.2	-57.7	13.2	1.38e-05	0	71	0
2025-01-04 10:58:15.67	340.03	23.24	-54.0	-57.3	13.2	0.00e+00	0	72	0
2025-01-04 10:58:16.57	340.08	23.06	-54.0	-57.2	13.2	0.00e+00	0	72	0
2025-01-04 10:58:17.57	340.14	22.86	-54.0	-57.2	13.1	2.77e-05	0	71	0
2025-01-04 10:58:18.47	340.19	22.68	-54.0	-57.3	13.0	1.38e-05	0	72	0
2025-01-04 10:58:19.47	340.25	22.49	-53.7	-56.7	13.1	0.00e+00	0	72	0
2025-01-04 10:58:20.37	340.30	22.32	-53.8	-56.8	13.1	6.90e-06	0	71	0
2025-01-04 10:58:21.37	340.35	22.12	-53.9	-57.1	13.0	4.16e-05	0	72	0
2025-01-04 10:58:22.27	340.40	21.95	-54.1	-57.4	13.0	3.46e-05	0	71	0
2025-01-04 10:58:23.27	340.45	21.76	-54.2	-57.6	13.0	3.46e-05	0	72	0
2025-01-04 10:58:24.17	340.50	21.60	-54.3	-57.4	12.9	6.90e-06	0	72	0
2025-01-04 10:58:25.17	340.55	21.41	-54.3	-57.4	13.0	1.38e-05	0	72	0
2025-01-04 10:58:26.07	340.60	21.25	-54.8	-58.3	12.7	2.08e-05	0	72	0
2025-01-04 10:58:27.07	340.65	21.06	-54.6	-58.0	12.8	6.93e-05	0	72	0
2025-01-04 10:58:27.97	340.69	20.90	-54.5	-57.7	12.9	1.38e-05	0	72	0
2025-01-04 10:58:28.96	340.74	20.72	-54.0	-56.8	13.2	1.38e-05	0	72	0
2025-01-04 10:58:29.86	340.78	20.56	-54.0	-56.8	13.2	1.38e-05	0	72	0
2025-01-04 10:58:30.86	340.83	20.39	-54.0	-56.7	13.2	2.77e-05	0	72	0
2025-01-04 10:58:31.76	340.88	20.23	-54.2	-57.1	13.1	0.00e+00	0	72	0
2025-01-04 10:58:32.76	340.92	20.06	-54.3	-57.4	13.0	1.38e-05	0	72	0
2025-01-04 10:58:33.66	340.96	19.90	-54.6	-58.0	12.9	2.77e-05	0	72	0
2025-01-04 10:58:34.66	341.01	19.73	-55.0	-58.3	12.6	2.77e-05	0	72	0
2025-01-04 10:58:35.56	341.05	19.58	-54.8	-57.9	12.7	5.54e-05	0	72	0
2025-01-04 10:58:36.56	341.10	19.41	-54.8	-57.9	12.7	2.77e-05	0	72	0
2025-01-04 10:58:37.46	341.14	19.26	-55.1	-58.4	12.5	6.93e-05	0	72	0
2025-01-04 10:58:38.46	341.18	19.09	-55.2	-58.7	12.5	3.46e-05	0	72	0
2025-01-04 10:58:39.36	341.22	18.95	-55.1	-58.6	12.5	7.62e-05	0	72	0
2025-01-04 10:58:40.36	341.26	18.78	-55.0	-58.2	12.6	6.24e-05	0	72	0
2025-01-04 10:58:41.26	341.30	18.64	-55.0	-58.3	12.5	7.62e-05	0	72	0
2025-01-04 10:58:42.26	341.34	18.48	-55.1	-58.5	12.5	5.54e-05	0	72	0
2025-01-04 10:58:43.16	341.38	18.34	-55.2	-58.6	12.4	1.04e-04	0	72	0
2025-01-04 10:58:44.16	341.42	18.18	-55.2	-58.8	12.4	5.54e-05	0	72	0
2025-01-04 10:58:45.06	341.46	18.04	-55.2	-58.7	12.3	9.71e-05	0	72	0
2025-01-04 10:58:46.06	341.50	17.88	-54.9	-58.1	12.6	5.54e-05	0	72	0
2025-01-04 10:58:46.96	341.54	17.74	-54.6	-57.4	12.8	4.85e-05	0	72	0
2025-01-04 10:58:47.96	341.58	17.59	-54.7	-57.7	12.6	7.62e-05	0	72	0
2025-01-04 10:58:48.86	341.61	17.45	-54.7	-57.7	12.6	3.46e-05	0	72	0
2025-01-04 10:58:49.85	341.65	17.30	-55.0	-58.3	12.4	1.11e-04	0	72	0
2025-01-04 10:58:50.75	341.69	17.17	-55.0	-58.3	12.4	8.32e-05	0	72	0
2025-01-04 10:58:51.75	341.72	17.02	-55.2	-58.7	12.2	2.50e-04	0	72	0
2025-01-04 10:58:52.65	341.76	16.89	-56.1	-59.5	11.8	3.67e-04	0	72	0
2025-01-04 10:58:53.65	341.80	16.74	-56.2	-59.2	11.7	5.13e-04	0	72	0
2025-01-04 10:58:54.55	341.83	16.61	-56.2	-59.1	11.7	5.41e-04	0	72	0
2025-01-04 10:58:55.55	341.87	16.47	-56.3	-59.3	11.7	4.99e-04	0	72	0
2025-01-04 10:58:56.45	341.90	16.34	-56.1	-59.0	11.8	5.62e-04	0	72	0
2025-01-04 10:58:57.45	341.93	16.19	-56.2	-59.3	11.7	3.47e-04	0	72	0
2025-01-04 10:58:58.35	341.97	16.07	-56.1	-59.1	11.7	2.84e-04	0	72	0
2025-01-04 10:58:59.34	342.00	15.93	-56.1	-59.0	11.9	2.64e-04	0	72	0
2025-01-04 10:59:00.25	342.03	15.80	-55.9	-58.7	12.0	4.30e-04	0	72	0
2025-01-04 10:59:01.24	342.07	15.66	-55.8	-58.5	11.9	2.77e-04	0	72	0
2025-01-04 10:59:02.15	342.10	15.54	-55.7	-58.1	12.0	4.72e-04	0	72	0
2025-01-04 10:59:03.14	342.13	15.40	-55.6	-58.0	11.9	5.62e-04	0	72	0
2025-01-04 10:59:04.05	342.16	15.28	-55.6	-58.4	11.9	3.47e-04	0	72	0
2025-01-04 10:59:05.04	342.20	15.15	-55.7	-58.7	11.7	4.16e-04	0	72	0
2025-01-04 10:59:05.95	342.23	15.02	-55.9	-59.2	11.6	5.48e-04	0	72	0
2025-01-04 10:59:06.94	342.26	14.89	-56.0	-59.4	11.5	6.87e-04	0	72	0
2025-01-04 10:59:07.85	342.29	14.77	-56.5	-59.8	11.2	8.74e-04	0	73	0
2025-01-04 10:59:08.84	342.32	14.64	-56.5	-59.8	11.3	1.30e-03	0	72	0
2025-01-04 10:59:09.75	342.35	14.52	-56.7	-60.1	11.1	1.25e-03	0	72	0
2025-01-04 10:59:10.74	342.38	14.39	-56.6	-60.1	11.2	1.71e-03	0	72	0
2025-01-04 10:59:11.64	342.41	14.28	-56.8	-60.4	11.1	1.30e-03	0	73	0
2025-01-04 10:59:12.64	342.44	14.15	-56.6	-59.5	11.3	1.49e-03	0	72	0
2025-01-04 10:59:13.54	342.47	14.04	-56.9	-60.0	11.1	1.26e-03	0	73	0
2025-01-04 10:59:14.53	342.50	13.91	-56.7	-59.8	11.2	1.10e-03	0	73	0
2025-01-04 10:59:15.44	342.53	13.80	-56.3	-59.0	11.5	8.11e-04	0	73	0
2025-01-04 10:59:16.43	342.56	13.67	-56.2	-58.7	11.6	6.59e-04	0	73	0
2025-01-04 10:59:17.33	342.59	13.56	-56.2	-58.6	11.6	7.42e-04	0	72	0
2025-01-04 10:59:18.32	342.62	13.44	-56.5	-59.3	11.4	5.76e-04	0	72	0
2025-01-04 10:59:19.23	342.64	13.33	-57.0	-60.4	10.9	1.31e-03	0	72	0
2025-01-04 10:59:20.22	342.67	13.21	-56.8	-59.9	11.1	1.98e-03	0	73	0
2025-01-04 10:59:21.13	342.70	13.10	-57.0	-60.3	11.0	1.64e-03	0	73	0
2025-01-04 10:59:22.12	342.73	12.98	-56.6	-59.6	11.3	1.19e-03	0	73	0
2025-01-04 10:59:23.03	342.75	12.87	-56.7	-59.7	11.3	9.64e-04	0	73	0
2025-01-04 10:59:24.02	342.78	12.75	-56.7	-59.6	11.4	9.15e-04	0	72	0
2025-01-04 10:59:24.93	342.81	12.64	-67.8	-73.8	3.7	9.15e-04	0	72	104
2025-01-04 10:59:25.92	342.83	12.53	-67.7	-73.2	3.6	9.15e-04	0	72	104
2025-01-04 10:59:26.83	342.86	12.42	-67.7	-73.3	3.7	9.15e-04	0	72	104
2025-01-04 10:59:27.82	342.89	12.31	-67.7	-73.3	3.7	9.15e-04	0	72	104
2025-01-04 10:59:28.73	342.91	12.20	-67.7	-73.3	3.6	9.15e-04	0	72	104
2025-01-04 10:59:29.72	342.94	12.09	-67.7	-73.3	3.7	9.15e-04	0	72	104
2025-01-04 10:59:30.63	342.96	11.98	-67.7	-73.2	3.6	9.15e-04	0	72	104
2025-01-04 10:59:31.62	342.99	11.87	-67.7	-73.3	3.7	9.15e-04	0	72	104
2025-01-04 10:59:32.53	343.01	11.77	-67.6	-73.0	3.6	9.15e-04	0	72	104
2025-01-04 10:59:33.52	343.04	11.66	-67.6	-73.2	3.6	9.15e-04	0	72	104
2025-01-04 10:59:34.42	343.06	11.56	-67.7	-73.2	3.7	9.15e-04	0	72	104
2025-01-04 10:59:35.42	343.09	11.45	-67.6	-73.2	3.6	9.15e-04	0	72	104
2025-01-04 10:59:36.32	343.11	11.35	-67.7	-73.3	3.7	9.15e-04	0	72	104
2025-01-04 10:59:37.32	343.14	11.24	-67.7	-73.3	3.6	9.15e-04	0	72	104
2025-01-04 10:59:38.22	343.16	11.14	-67.6	-73.2	3.7	9.15e-04	0	72	104
2025-01-04 10:59:39.21	343.19	11.03	-67.7	-73.3	3.7	9.15e-04	0	72	104
2025-01-04 10:59:40.11	343.21	10.94	-67.6	-73.3	3.7	9.15e-04	0	72	104
2025-01-04 10:59:41.11	343.23	10.83	-67.6	-73.2	3.7	9.15e-04	0	72	104
2025-01-04 10:59:42.01	343.26	10.73	-67.6	-73.2	3.6	9.15e-04	0	72	104
2025-01-04 10:59:43.01	343.28	10.63	-67.6	-73.2	3.6	9.15e-04	0	72	104
2025-01-04 10:59:43.91	343.30	10.53	-67.6	-73.1	3.6	9.15e-04	0	72	104
2025-01-04 10:59:44.91	343.33	10.43	-67.6	-73.1	3.6	9.15e-04	0	72	104
2025-01-04 10:59:45.81	343.35	10.33	-67.6	-73.1	3.7	9.15e-04	0	72	104
2025-01-04 10:59:46.81	343.37	10.23	-67.6	-73.0	3.6	9.15e-04	0	72	104
2025-01-04 10:59:47.71	343.39	10.13	-67.6	-73.1	3.7	9.15e-04	0	72	104
2025-01-04 10:59:48.71	343.42	10.03	-67.6	-73.1	3.6	9.15e-04	0	72	104
2025-01-04 10:59:49.61	343.44	9.94	-67.6	-73.1	3.7	9.15e-04	0	72	104
2025-01-04 10:59:50.61	343.46	9.84	-67.6	-73.1	3.6	9.15e-04	0	72	104
2025-01-04 10:59:51.51	343.48	9.75	-67.7	-73.2	3.7	9.15e-04	0	72	104
2025-01-04 10:59:52.51	343.50	9.65	-67.7	-73.2	3.7	9.15e-04	0	72	104
2025-01-04 10:59:53.41	343.53	9.56	-67.7	-73.2	3.6	9.15e-04	0	72	104
2025-01-04 10:59:54.41	343.55	9.46	-67.7	-73.2	3.7	9.15e-04	0	72	104
2025-01-04 10:59:55.31	343.57	9.37	-67.7	-73.2	3.6	9.15e-04	0	72	104
2025-01-04 10:59:56.31	343.59	9.27	-67.7	-73.2	3.7	9.15e-04	0	72	104
2025-01-04 10:59:57.21	343.61	9.18	-67.7	-73.2	3.6	9.15e-04	0	72	104
2025-01-04 10:59:58.21	343.63	9.08	-67.6	-73.1	3.6	9.15e-04	0	72	104
2025-01-04 10:59:59.11	343.65	8.99	-67.6	-73.1	3.7	9.15e-04	0	72	104
2025-01-04 11:00:00.10	343.67	8.90	-67.5	-73.0	3.6	9.15e-04	0	72	104
2025-01-04 11:00:01.00	343.69	8.81	-67.5	-73.0	3.7	9.15e-04	0	72	104
2025-01-04 11:00:02.00	343.71	8.71	-67.5	-72.9	3.6	9.15e-04	0	72	104
2025-01-04 11:00:02.90	343.73	8.63	-67.4	-72.9	3.7	9.15e-04	0	72	104
2025-01-04 11:00:03.90	343.76	8.53	-67.4	-72.9	3.7	9.15e-04	0	72	104
2025-01-04 11:00:04.80	343.77	8.45	-67.4	-72.9	3.6	9.15e-04	0	72	104
2025-01-04 11:00:05.80	343.80	8.35	-67.4	-72.8	3.7	9.15e-04	0	72	104
2025-01-04 11:00:06.70	343.81	8.27	-67.5	-72.9	3.6	9.15e-04	0	72	104
2025-01-04 11:00:07.70	343.83	8.18	-67.5	-73.0	3.6	9.15e-04	0	72	104
2025-01-04 11:00:08.60	343.85	8.09	-67.5	-73.0	3.6	9.15e-04	0	72	104
2025-01-04 11:00:09.59	343.87	8.00	-67.7	-73.3	3.6	9.15e-04	0	72	104

#Closed at: 2025-01-04 11:00:10
#Recorded file [30006 MB]: D:/data/31015_250104_225924.dat