passes_logs/2025/01/04/PPK-1/PPK-1__20250104_023738_AQUA_rec.log

#Pass ID: 20250104_023738_AQUA
#Satellite: AQUA
#Configuration: AQUA
#almurnet v.1.7.20230919.trace
#Start time: 2025-01-04 02:37:39

#Version: 2.2.20231116
#Station: PPK-1
#Location: 158.6 lon 53.06666 lat
#TLE: 1 27424U 02022A   25003.15423677  .00003847  00000+0  80040-3 0  9996
#TLE: 2 27424  98.3579 319.7126 0001226 121.2786 295.6453 14.60625680205895

#Time	Az	El	Level	Level2	SNR	BER	BlckErr	Temp	State
2025-01-04 02:37:39.48	147.14	8.09	-67.3	-86.8	3.8	7.45e-01	0	44	0
2025-01-04 02:37:40.38	147.10	8.17	-67.6	-87.1	3.8	7.43e-01	0	44	104
2025-01-04 02:37:41.37	147.07	8.25	-67.3	-86.8	3.8	7.45e-01	0	44	104
2025-01-04 02:37:42.28	147.04	8.33	-67.6	-87.1	3.8	7.45e-01	0	45	104
2025-01-04 02:37:43.27	147.00	8.41	-67.5	-87.0	3.8	7.46e-01	0	45	104
2025-01-04 02:37:44.18	146.97	8.49	-67.4	-86.9	3.8	7.46e-01	0	44	104
2025-01-04 02:37:45.17	146.93	8.58	-67.6	-87.1	3.8	7.48e-01	0	45	104
2025-01-04 02:37:46.08	146.90	8.65	-67.3	-86.7	3.8	7.47e-01	0	45	104
2025-01-04 02:37:47.07	146.86	8.74	-67.1	-87.0	3.8	7.46e-01	0	45	104
2025-01-04 02:37:47.98	146.83	8.82	-67.1	-86.6	3.8	7.45e-01	0	45	104
2025-01-04 02:37:48.97	146.79	8.91	-67.3	-87.3	3.8	7.43e-01	0	45	104
2025-01-04 02:37:49.88	146.76	8.99	-66.9	-86.5	3.8	7.44e-01	0	45	104
2025-01-04 02:37:50.87	146.72	9.07	-67.4	-87.0	3.8	7.47e-01	0	45	104
2025-01-04 02:37:51.78	146.69	9.15	-67.4	-87.0	3.8	7.49e-01	0	45	104
2025-01-04 02:37:52.77	146.65	9.24	-67.4	-86.9	3.8	7.43e-01	0	45	104
2025-01-04 02:37:53.68	146.62	9.32	-66.9	-86.4	3.8	7.47e-01	0	46	104
2025-01-04 02:37:54.66	146.58	9.41	-67.4	-86.9	3.8	7.46e-01	0	46	104
2025-01-04 02:37:55.57	146.54	9.49	-67.3	-87.2	3.8	7.47e-01	0	46	104
2025-01-04 02:37:56.56	146.50	9.58	-67.0	-87.0	3.8	7.43e-01	0	46	104
2025-01-04 02:37:57.46	146.47	9.66	-67.0	-87.0	3.8	7.43e-01	0	46	104
2025-01-04 02:37:58.45	146.43	9.75	-66.6	-86.6	3.8	7.46e-01	0	46	104
2025-01-04 02:37:59.36	146.39	9.83	-66.7	-86.7	3.8	7.49e-01	0	46	104
2025-01-04 02:38:00.35	146.35	9.92	-66.8	-86.8	3.8	7.46e-01	0	46	104
2025-01-04 02:38:01.26	146.32	10.01	-67.3	-86.9	3.8	7.44e-01	0	46	104
2025-01-04 02:38:02.25	146.28	10.10	-67.1	-86.7	3.8	7.48e-01	0	46	104
2025-01-04 02:38:03.16	146.24	10.18	-67.5	-87.0	3.8	7.46e-01	0	46	104
2025-01-04 02:38:04.15	146.20	10.27	-67.4	-87.0	3.8	7.44e-01	0	46	104
2025-01-04 02:38:05.06	146.16	10.36	-67.5	-87.0	3.8	7.49e-01	0	46	104
2025-01-04 02:38:06.05	146.12	10.45	-67.4	-86.9	3.8	7.49e-01	0	46	104
2025-01-04 02:38:06.96	146.08	10.54	-67.6	-87.1	3.8	7.48e-01	0	46	104
2025-01-04 02:38:07.95	146.04	10.63	-67.5	-87.1	3.8	7.45e-01	0	47	104
2025-01-04 02:38:08.86	146.00	10.72	-67.5	-87.1	3.8	7.44e-01	0	47	104
2025-01-04 02:38:09.85	145.96	10.81	-67.6	-87.2	3.8	7.41e-01	0	47	104
2025-01-04 02:38:10.76	145.92	10.90	-67.5	-87.0	3.8	7.45e-01	0	47	104
2025-01-04 02:38:11.75	145.87	10.99	-67.3	-86.8	3.8	7.45e-01	0	47	104
2025-01-04 02:38:12.65	145.83	11.08	-66.9	-86.5	3.8	7.44e-01	0	47	104
2025-01-04 02:38:13.65	145.79	11.17	-66.6	-87.0	3.8	7.49e-01	0	47	104
2025-01-04 02:38:14.55	145.75	11.26	-66.7	-87.0	3.8	7.46e-01	0	47	104
2025-01-04 02:38:15.55	145.71	11.36	-66.3	-86.4	3.8	7.44e-01	0	47	104
2025-01-04 02:38:16.45	145.66	11.45	-65.7	-86.2	3.8	7.45e-01	0	47	104
2025-01-04 02:38:17.45	145.62	11.54	-66.2	-86.1	3.8	7.47e-01	0	47	104
2025-01-04 02:38:18.35	145.58	11.63	-65.4	-85.8	3.8	7.43e-01	0	47	104
2025-01-04 02:38:19.34	145.53	11.73	-65.6	-85.9	3.8	7.45e-01	0	47	104
2025-01-04 02:38:20.24	145.49	11.82	-65.1	-86.4	3.8	7.42e-01	0	48	104
2025-01-04 02:38:21.24	145.44	11.92	-65.7	-86.7	3.8	7.50e-01	0	47	104
2025-01-04 02:38:22.14	145.40	12.01	-66.5	-86.9	3.8	7.42e-01	0	48	104
2025-01-04 02:38:23.14	145.35	12.11	-67.0	-86.9	3.8	7.47e-01	0	47	104
2025-01-04 02:38:24.04	145.31	12.20	-66.8	-86.7	3.8	7.48e-01	0	48	104
2025-01-04 02:38:25.04	145.26	12.30	-67.2	-87.2	3.8	7.45e-01	0	48	104
2025-01-04 02:38:25.94	145.22	12.39	-67.0	-86.5	3.8	7.45e-01	0	48	104
2025-01-04 02:38:26.94	145.17	12.49	-66.9	-86.4	3.8	7.44e-01	0	48	104
2025-01-04 02:38:27.84	145.12	12.59	-67.1	-86.7	3.8	7.44e-01	0	48	104
2025-01-04 02:38:28.84	145.07	12.69	-66.0	-86.3	3.8	7.49e-01	0	48	104
2025-01-04 02:38:29.74	145.03	12.78	-66.6	-87.0	3.8	7.44e-01	0	48	104
2025-01-04 02:38:30.74	144.98	12.89	-65.4	-86.7	3.8	7.49e-01	0	48	104
2025-01-04 02:38:31.64	144.93	12.98	-64.2	-86.6	3.9	7.47e-01	0	48	104
2025-01-04 02:38:32.64	144.88	13.08	-65.9	-87.1	4.0	7.45e-01	0	48	104
2025-01-04 02:38:33.54	144.84	13.18	-66.9	-86.8	3.8	7.44e-01	0	48	104
2025-01-04 02:38:34.54	144.78	13.29	-64.6	-68.6	15.8	6.07e-01	0	49	104
2025-01-04 02:38:35.44	144.74	13.38	-61.4	-63.7	22.1	6.08e-01	0	48	0
2025-01-04 02:38:36.44	144.68	13.49	-60.6	-62.5	23.3	6.08e-01	0	48	0
2025-01-04 02:38:37.34	144.64	13.58	-60.5	-62.2	22.8	6.07e-01	0	48	0
2025-01-04 02:38:38.34	144.58	13.69	-60.8	-62.8	23.1	6.06e-01	0	49	0
2025-01-04 02:38:39.24	144.53	13.79	-62.0	-64.9	21.1	6.05e-01	0	49	0
2025-01-04 02:38:40.23	144.48	13.90	-61.3	-63.6	22.4	6.06e-01	0	49	0
2025-01-04 02:38:41.13	144.43	13.99	-60.7	-62.6	23.3	6.09e-01	0	49	0
2025-01-04 02:38:42.13	144.37	14.10	-61.8	-64.6	22.1	6.05e-01	0	49	0
2025-01-04 02:38:43.03	144.32	14.20	-62.7	-66.0	20.2	6.06e-01	0	49	0
2025-01-04 02:38:44.03	144.27	14.31	-62.0	-64.1	21.2	6.07e-01	0	49	0
2025-01-04 02:38:44.93	144.22	14.41	-61.1	-62.8	23.0	6.07e-01	0	49	0
2025-01-04 02:38:45.93	144.16	14.52	-59.7	-60.9	24.2	6.06e-01	0	49	0
2025-01-04 02:38:46.83	144.11	14.62	-60.3	-62.0	23.9	6.05e-01	0	49	0
2025-01-04 02:38:47.82	144.05	14.74	-60.8	-63.2	23.4	6.06e-01	0	49	0
2025-01-04 02:38:48.73	144.00	14.84	-60.6	-62.7	23.6	6.07e-01	0	49	0
2025-01-04 02:38:49.72	143.94	14.95	-59.8	-61.0	24.5	6.06e-01	0	49	0
2025-01-04 02:38:50.63	143.89	15.05	-59.7	-61.2	24.7	6.04e-01	0	49	0
2025-01-04 02:38:51.62	143.83	15.17	-60.1	-62.2	24.2	6.06e-01	0	49	0
2025-01-04 02:38:52.53	143.77	15.27	-60.0	-62.0	24.2	6.05e-01	0	49	0
2025-01-04 02:38:53.52	143.71	15.39	-60.1	-62.0	24.3	6.06e-01	0	49	0
2025-01-04 02:38:54.43	143.66	15.49	-59.9	-61.5	24.6	6.06e-01	0	50	0
2025-01-04 02:38:55.42	143.59	15.61	-59.5	-60.7	25.0	6.05e-01	0	49	0
2025-01-04 02:38:56.33	143.54	15.71	-59.8	-61.4	24.7	6.08e-01	0	50	0
2025-01-04 02:38:57.32	143.48	15.83	-59.9	-61.7	24.5	6.04e-01	0	50	0
2025-01-04 02:38:58.23	143.42	15.94	-59.7	-61.1	24.8	6.06e-01	0	50	0
2025-01-04 02:38:59.22	143.35	16.06	-59.6	-61.0	24.8	6.06e-01	0	50	0
2025-01-04 02:39:00.13	143.30	16.17	-59.5	-60.7	25.0	6.06e-01	0	50	0
2025-01-04 02:39:01.12	143.23	16.28	-59.6	-60.8	24.9	6.07e-01	0	50	0
2025-01-04 02:39:02.02	143.17	16.39	-59.6	-60.8	24.9	6.05e-01	0	50	0
2025-01-04 02:39:03.01	143.11	16.51	-59.8	-61.3	24.7	6.05e-01	0	50	0
2025-01-04 02:39:03.92	143.05	16.62	-59.5	-60.8	24.9	6.06e-01	0	50	0
2025-01-04 02:39:04.91	142.98	16.75	-59.5	-60.8	25.0	6.09e-01	0	50	0
2025-01-04 02:39:05.81	142.92	16.86	-59.5	-60.7	25.0	6.06e-01	0	50	0
2025-01-04 02:39:06.80	142.85	16.98	-59.6	-61.1	24.8	6.05e-01	0	50	0
2025-01-04 02:39:07.71	142.79	17.09	-59.6	-61.0	24.8	6.06e-01	0	50	0
2025-01-04 02:39:08.70	142.72	17.22	-59.7	-61.0	24.8	6.09e-01	0	50	0
2025-01-04 02:39:09.61	142.66	17.33	-59.6	-61.0	24.7	6.07e-01	0	50	0
2025-01-04 02:39:10.60	142.59	17.46	-59.7	-61.2	24.4	6.05e-01	0	50	0
2025-01-04 02:39:11.51	142.52	17.57	-59.5	-60.9	24.6	6.06e-01	0	50	0
2025-01-04 02:39:12.50	142.45	17.70	-59.8	-61.4	24.4	6.06e-01	0	50	0
2025-01-04 02:39:13.41	142.38	17.81	-60.0	-61.9	24.1	6.08e-01	0	51	0
2025-01-04 02:39:14.40	142.31	17.94	-59.8	-61.6	24.0	6.06e-01	0	50	0
2025-01-04 02:39:15.31	142.24	18.06	-59.6	-61.1	24.2	6.04e-01	0	51	0
2025-01-04 02:39:16.30	142.17	18.19	-59.8	-61.5	24.4	6.06e-01	0	51	0
2025-01-04 02:39:17.21	142.10	18.31	-60.1	-62.2	24.0	6.08e-01	0	51	0
2025-01-04 02:39:18.20	142.03	18.44	-59.8	-61.5	24.4	6.06e-01	0	51	0
2025-01-04 02:39:19.11	141.96	18.56	-59.9	-61.7	24.2	6.06e-01	0	51	0
2025-01-04 02:39:20.10	141.88	18.69	-59.8	-61.5	24.5	6.07e-01	0	51	0
2025-01-04 02:39:21.01	141.81	18.81	-59.8	-61.5	24.5	6.06e-01	0	51	0
2025-01-04 02:39:22.00	141.73	18.94	-59.9	-61.7	24.5	6.08e-01	0	51	0
2025-01-04 02:39:22.90	141.66	19.06	-60.1	-62.2	24.2	6.07e-01	0	51	0
2025-01-04 02:39:23.90	141.58	19.20	-60.0	-61.8	24.5	6.04e-01	0	51	0
2025-01-04 02:39:24.80	141.51	19.32	-59.8	-61.4	24.6	6.04e-01	0	51	0
2025-01-04 02:39:25.80	141.42	19.46	-59.8	-61.3	24.7	6.06e-01	0	51	0
2025-01-04 02:39:26.70	141.35	19.58	-59.8	-61.3	24.8	6.05e-01	0	51	0
2025-01-04 02:39:27.69	141.27	19.72	-59.8	-61.4	24.7	6.06e-01	0	51	0
2025-01-04 02:39:28.59	141.19	19.85	-59.8	-61.5	24.6	6.06e-01	0	51	0
2025-01-04 02:39:29.59	141.11	19.99	-59.9	-61.6	24.5	6.06e-01	0	51	0
2025-01-04 02:39:30.49	141.03	20.11	-59.7	-61.3	24.7	6.07e-01	0	51	0
2025-01-04 02:39:31.49	140.94	20.26	-59.7	-61.1	24.9	6.05e-01	0	51	0
2025-01-04 02:39:32.39	140.87	20.38	-59.9	-61.6	24.6	6.06e-01	0	51	0
2025-01-04 02:39:33.39	140.78	20.53	-60.1	-62.1	24.3	6.08e-01	0	52	0
2025-01-04 02:39:34.29	140.70	20.66	-60.0	-61.9	24.5	6.07e-01	0	51	0
2025-01-04 02:39:35.29	140.61	20.80	-59.8	-61.4	24.7	6.07e-01	0	52	0
2025-01-04 02:39:36.19	140.53	20.93	-60.0	-61.7	24.6	6.07e-01	0	51	0
2025-01-04 02:39:37.19	140.43	21.08	-59.9	-61.6	24.6	6.05e-01	0	52	0
2025-01-04 02:39:38.09	140.35	21.21	-59.9	-61.7	24.6	6.04e-01	0	51	0
2025-01-04 02:39:39.09	140.26	21.36	-60.2	-62.2	24.3	6.07e-01	0	52	0
2025-01-04 02:39:39.99	140.17	21.49	-59.9	-61.7	24.5	6.06e-01	0	52	0
2025-01-04 02:39:40.99	140.08	21.64	-59.7	-61.4	24.7	6.07e-01	0	52	0
2025-01-04 02:39:41.89	139.99	21.78	-59.6	-61.2	24.8	6.06e-01	0	52	0
2025-01-04 02:39:42.89	139.89	21.93	-59.8	-61.6	24.5	6.05e-01	0	52	0
2025-01-04 02:39:43.79	139.81	22.07	-59.7	-61.4	24.6	6.06e-01	0	52	0
2025-01-04 02:39:44.79	139.71	22.22	-59.8	-61.6	24.5	6.06e-01	0	52	0
2025-01-04 02:39:45.69	139.62	22.36	-59.8	-61.6	24.5	6.06e-01	0	52	0
2025-01-04 02:39:46.69	139.52	22.51	-59.7	-61.3	24.7	6.08e-01	0	52	0
2025-01-04 02:39:47.59	139.42	22.65	-59.5	-61.1	24.7	6.07e-01	0	52	0
2025-01-04 02:39:48.58	139.32	22.81	-60.0	-62.0	24.3	6.07e-01	0	52	0
2025-01-04 02:39:49.48	139.23	22.95	-60.1	-62.3	24.1	6.05e-01	0	52	0
2025-01-04 02:39:50.48	139.12	23.11	-59.9	-61.9	24.3	6.05e-01	0	52	0
2025-01-04 02:39:51.38	139.03	23.25	-59.8	-61.6	24.5	6.07e-01	0	52	0
2025-01-04 02:39:52.38	138.92	23.41	-60.0	-62.1	24.3	6.05e-01	0	52	0
2025-01-04 02:39:53.28	138.82	23.56	-60.1	-62.2	24.3	6.06e-01	0	52	0
2025-01-04 02:39:54.28	138.71	23.72	-60.1	-62.2	24.2	6.07e-01	0	52	0
2025-01-04 02:39:55.18	138.61	23.87	-60.2	-62.4	24.1	6.07e-01	0	52	0
2025-01-04 02:39:56.18	138.50	24.03	-60.0	-62.0	24.3	6.06e-01	0	52	0
2025-01-04 02:39:57.08	138.40	24.18	-59.9	-61.8	24.5	6.07e-01	0	52	0
2025-01-04 02:39:58.08	138.29	24.34	-59.8	-61.5	24.6	6.06e-01	0	52	0
2025-01-04 02:39:58.98	138.18	24.49	-60.0	-61.9	24.4	6.06e-01	0	52	0
2025-01-04 02:39:59.98	138.06	24.66	-59.9	-61.7	24.6	6.06e-01	0	52	0
2025-01-04 02:40:00.88	137.96	24.81	-59.9	-61.7	24.6	6.08e-01	0	52	0
2025-01-04 02:40:01.88	137.84	24.98	-59.9	-61.7	24.6	6.07e-01	0	53	0
2025-01-04 02:40:02.78	137.73	25.14	-59.9	-61.6	24.6	6.07e-01	0	53	0
2025-01-04 02:40:03.78	137.61	25.31	-59.9	-61.5	24.6	6.04e-01	0	53	0
2025-01-04 02:40:04.68	137.50	25.46	-60.2	-62.3	24.3	6.07e-01	0	53	0
2025-01-04 02:40:05.68	137.37	25.64	-60.2	-62.4	24.2	6.07e-01	0	52	0
2025-01-04 02:40:06.58	137.26	25.79	-59.9	-61.8	24.4	6.05e-01	0	53	0
2025-01-04 02:40:07.58	137.13	25.97	-59.6	-61.1	24.8	6.07e-01	0	53	0
2025-01-04 02:40:08.48	137.02	26.13	-59.6	-61.2	24.8	6.07e-01	0	53	0
2025-01-04 02:40:09.47	136.89	26.31	-59.2	-60.5	25.0	6.04e-01	0	53	0
2025-01-04 02:40:10.37	136.77	26.47	-59.0	-60.7	25.1	6.06e-01	0	53	0
2025-01-04 02:40:11.37	136.63	26.65	-59.2	-61.2	24.8	6.08e-01	0	53	0
2025-01-04 02:40:12.27	136.51	26.81	-59.3	-61.3	24.8	6.05e-01	0	53	0
2025-01-04 02:40:13.27	136.38	26.99	-59.2	-60.9	25.0	6.07e-01	0	53	0
2025-01-04 02:40:14.17	136.25	27.16	-59.2	-61.1	24.9	6.05e-01	0	53	0
2025-01-04 02:40:15.16	136.11	27.34	-59.4	-61.4	24.8	6.05e-01	0	53	0
2025-01-04 02:40:16.07	135.99	27.51	-59.3	-61.2	24.9	6.06e-01	0	53	0
2025-01-04 02:40:17.06	135.84	27.69	-59.3	-61.2	24.9	6.07e-01	0	53	0
2025-01-04 02:40:17.97	135.71	27.86	-59.2	-61.0	25.0	6.07e-01	0	53	0
2025-01-04 02:40:18.96	135.57	28.05	-59.1	-60.5	25.3	6.04e-01	0	53	0
2025-01-04 02:40:19.87	135.43	28.22	-59.0	-60.5	25.3	6.05e-01	0	53	0
2025-01-04 02:40:20.86	135.28	28.41	-59.2	-60.8	25.2	6.04e-01	0	53	0
2025-01-04 02:40:21.77	135.15	28.59	-59.1	-60.7	25.2	6.04e-01	0	53	0
2025-01-04 02:40:22.76	134.99	28.78	-59.4	-61.1	25.1	6.06e-01	0	53	0
2025-01-04 02:40:23.67	134.85	28.96	-59.5	-61.3	23.1	6.08e-01	0	53	0
2025-01-04 02:40:24.66	134.70	29.15	-59.1	-60.5	25.3	6.06e-01	0	53	0
2025-01-04 02:40:25.57	134.55	29.33	-58.9	-60.2	25.5	6.03e-01	0	53	0
2025-01-04 02:40:26.56	134.39	29.52	-59.2	-60.7	25.3	6.06e-01	0	53	0
2025-01-04 02:40:27.47	134.25	29.71	-59.5	-61.3	25.0	6.06e-01	0	53	0
2025-01-04 02:40:28.46	134.08	29.90	-59.2	-60.8	25.2	6.07e-01	0	53	0
2025-01-04 02:40:29.37	133.93	30.09	-59.5	-61.2	25.1	6.08e-01	0	53	0
2025-01-04 02:40:30.36	133.76	30.29	-59.4	-60.9	25.2	6.04e-01	0	53	0
2025-01-04 02:40:31.27	133.61	30.47	-59.2	-60.5	25.4	6.05e-01	0	53	0
2025-01-04 02:40:32.25	133.44	30.67	-59.4	-60.9	25.3	6.05e-01	0	53	0
2025-01-04 02:40:33.16	133.28	30.86	-59.6	-61.5	25.0	6.07e-01	0	53	0
2025-01-04 02:40:34.15	133.10	31.07	-59.3	-60.9	25.3	6.06e-01	0	53	0
2025-01-04 02:40:35.05	132.94	31.25	-59.3	-60.7	25.4	6.07e-01	0	54	0
2025-01-04 02:40:36.04	132.76	31.46	-59.3	-60.7	25.4	6.06e-01	0	54	0
2025-01-04 02:40:36.95	132.59	31.65	-59.2	-60.5	25.4	6.06e-01	0	54	0
2025-01-04 02:40:37.94	132.40	31.86	-59.2	-60.6	25.4	6.06e-01	0	54	0
2025-01-04 02:40:38.85	132.23	32.06	-59.4	-61.1	25.1	6.06e-01	0	54	0
2025-01-04 02:40:39.84	132.04	32.27	-59.6	-61.5	25.0	6.06e-01	0	53	0
2025-01-04 02:40:40.75	131.86	32.47	-59.6	-61.4	25.0	6.07e-01	0	53	0
2025-01-04 02:40:41.74	131.67	32.68	-59.7	-61.7	24.9	6.06e-01	0	53	0
2025-01-04 02:40:42.65	131.49	32.88	-59.6	-61.3	25.1	6.05e-01	0	53	0
2025-01-04 02:40:43.64	131.29	33.10	-59.7	-61.5	25.0	6.05e-01	0	54	0
2025-01-04 02:40:44.55	131.10	33.30	-60.2	-62.2	24.5	6.07e-01	0	54	0
2025-01-04 02:40:45.54	130.89	33.52	-60.2	-62.3	24.4	6.07e-01	0	54	0
2025-01-04 02:40:46.45	130.70	33.72	-59.9	-61.6	24.7	6.06e-01	0	54	0
2025-01-04 02:40:47.44	130.49	33.94	-60.0	-61.7	24.7	6.05e-01	0	54	0
2025-01-04 02:40:48.35	130.29	34.15	-60.1	-62.0	24.5	6.08e-01	0	54	0
2025-01-04 02:40:49.34	130.08	34.37	-60.1	-61.9	24.5	6.05e-01	0	54	0
2025-01-04 02:40:50.24	129.88	34.58	-60.2	-62.2	24.4	6.07e-01	0	54	0
2025-01-04 02:40:51.24	129.65	34.81	-60.6	-62.7	24.0	6.05e-01	0	54	0
2025-01-04 02:40:52.14	129.44	35.02	-60.7	-62.9	23.8	6.06e-01	0	54	0
2025-01-04 02:40:53.14	129.21	35.25	-60.8	-63.1	23.7	6.07e-01	0	54	0
2025-01-04 02:40:54.04	129.00	35.46	-60.8	-63.0	23.8	6.06e-01	0	54	0
2025-01-04 02:40:55.04	128.76	35.69	-60.7	-62.9	23.8	6.07e-01	0	54	0
2025-01-04 02:40:55.94	128.54	35.90	-60.6	-62.6	24.0	6.06e-01	0	54	0
2025-01-04 02:40:56.93	128.30	36.14	-60.7	-62.9	23.9	6.06e-01	0	54	0
2025-01-04 02:40:57.83	128.08	36.35	-60.9	-62.8	23.6	6.07e-01	0	54	0
2025-01-04 02:40:58.83	127.82	36.59	-61.2	-63.5	23.2	6.05e-01	0	54	0
2025-01-04 02:40:59.73	127.59	36.81	-61.4	-63.9	23.0	6.04e-01	0	54	0
2025-01-04 02:41:00.73	127.33	37.05	-61.2	-63.4	23.3	6.08e-01	0	54	0
2025-01-04 02:41:01.63	127.10	37.27	-61.5	-63.6	23.0	6.07e-01	0	54	0
2025-01-04 02:41:02.63	126.83	37.51	-61.3	-63.3	23.1	6.06e-01	0	54	0
2025-01-04 02:41:03.53	126.58	37.73	-61.6	-63.8	22.9	6.06e-01	0	54	0
2025-01-04 02:41:04.53	126.31	37.98	-61.8	-63.9	22.2	6.05e-01	0	54	0
2025-01-04 02:41:05.43	126.06	38.20	-61.8	-63.8	22.1	6.06e-01	0	54	0
2025-01-04 02:41:06.43	125.77	38.45	-61.5	-63.6	23.0	6.06e-01	0	54	0
2025-01-04 02:41:07.33	125.51	38.67	-61.6	-63.7	23.0	6.07e-01	0	54	0
2025-01-04 02:41:08.33	125.22	38.92	-61.5	-63.2	22.6	6.07e-01	0	55	0
2025-01-04 02:41:09.23	124.95	39.15	-61.5	-63.2	22.5	6.04e-01	0	55	0
2025-01-04 02:41:10.23	124.65	39.40	-61.2	-62.4	23.0	6.06e-01	0	54	0
2025-01-04 02:41:11.13	124.38	39.63	-61.5	-63.5	23.1	6.07e-01	0	54	0
2025-01-04 02:41:12.13	124.07	39.88	-61.6	-63.4	22.4	6.06e-01	0	54	0
2025-01-04 02:41:13.03	123.78	40.11	-61.6	-63.5	22.3	6.05e-01	0	54	0
2025-01-04 02:41:14.03	123.46	40.37	-61.3	-63.4	23.0	6.06e-01	0	54	0
2025-01-04 02:41:14.93	123.17	40.60	-61.2	-63.1	23.2	6.08e-01	0	55	0
2025-01-04 02:41:15.93	122.84	40.85	-61.5	-63.5	23.0	6.05e-01	0	55	0
2025-01-04 02:41:16.83	122.54	41.09	-61.6	-63.7	23.0	6.06e-01	0	54	0
2025-01-04 02:41:17.82	122.20	41.34	-61.4	-63.4	23.0	6.06e-01	0	54	0
2025-01-04 02:41:18.72	121.89	41.58	-61.4	-63.5	23.1	6.03e-01	0	55	0
2025-01-04 02:41:19.72	121.54	41.84	-61.6	-63.9	22.8	6.08e-01	0	54	0
2025-01-04 02:41:20.62	121.22	42.07	-61.3	-63.2	23.2	6.07e-01	0	55	0
2025-01-04 02:41:21.62	120.85	42.33	-61.1	-62.6	23.5	6.07e-01	0	55	0
2025-01-04 02:41:22.52	120.52	42.57	-61.2	-62.9	23.4	6.07e-01	0	55	0
2025-01-04 02:41:23.52	120.15	42.83	-61.4	-63.3	23.1	6.07e-01	0	55	0
2025-01-04 02:41:24.42	119.81	43.07	-61.4	-63.4	23.1	6.08e-01	0	55	0
2025-01-04 02:41:25.42	119.42	43.34	-61.3	-63.2	23.2	6.07e-01	0	55	0
2025-01-04 02:41:26.32	119.07	43.57	-60.9	-62.2	23.7	6.07e-01	0	55	0
2025-01-04 02:41:27.32	118.67	43.84	-61.1	-62.6	23.6	6.06e-01	0	55	0
2025-01-04 02:41:28.22	118.30	44.08	-61.1	-62.8	23.4	6.08e-01	0	55	0
2025-01-04 02:41:29.22	117.89	44.34	-61.2	-62.8	23.4	6.06e-01	0	54	0
2025-01-04 02:41:30.12	117.51	44.58	-61.0	-62.5	23.6	6.07e-01	0	54	0
2025-01-04 02:41:31.12	117.09	44.85	-60.9	-62.4	23.6	6.06e-01	0	55	0
2025-01-04 02:41:32.02	116.70	45.09	-61.0	-62.5	23.5	6.06e-01	0	55	0
2025-01-04 02:41:33.02	116.26	45.35	-61.5	-63.6	23.0	6.06e-01	0	55	0
2025-01-04 02:41:33.92	115.86	45.59	-61.2	-63.0	23.3	6.06e-01	0	55	0
2025-01-04 02:41:34.92	115.40	45.86	-60.9	-62.3	23.6	6.06e-01	0	55	0
2025-01-04 02:41:35.82	114.99	46.10	-60.9	-62.5	23.6	6.07e-01	0	55	0
2025-01-04 02:41:36.82	114.52	46.36	-61.3	-63.3	23.1	6.06e-01	0	55	0
2025-01-04 02:41:37.72	114.09	46.60	-61.5	-63.7	23.0	6.07e-01	0	55	0
2025-01-04 02:41:38.71	113.61	46.86	-60.9	-62.2	23.8	6.06e-01	0	55	0
2025-01-04 02:41:39.61	113.17	47.10	-61.0	-62.4	23.7	6.05e-01	0	55	0
2025-01-04 02:41:40.61	112.67	47.36	-61.7	-64.0	22.8	6.06e-01	0	55	0
2025-01-04 02:41:41.51	112.21	47.60	-61.7	-64.1	22.7	6.06e-01	0	55	0
2025-01-04 02:41:42.50	111.70	47.86	-61.2	-62.8	23.5	6.04e-01	0	55	0
2025-01-04 02:41:43.41	111.22	48.10	-60.9	-62.1	23.9	6.06e-01	0	55	0
2025-01-04 02:41:44.40	110.69	48.35	-61.6	-63.9	22.8	6.07e-01	0	55	0
2025-01-04 02:41:45.31	110.20	48.59	-61.7	-64.0	22.6	6.05e-01	0	55	0
2025-01-04 02:41:46.30	109.65	48.85	-61.1	-62.5	23.6	6.06e-01	0	55	0
2025-01-04 02:41:47.21	109.14	49.08	-61.3	-63.1	23.3	6.06e-01	0	55	0
2025-01-04 02:41:48.20	108.57	49.33	-61.5	-63.6	23.0	6.07e-01	0	55	0
2025-01-04 02:41:49.11	108.05	49.56	-61.5	-63.4	23.1	6.06e-01	0	55	0
2025-01-04 02:41:50.10	107.47	49.81	-61.0	-62.4	23.7	6.06e-01	0	55	0
2025-01-04 02:41:51.01	106.92	50.04	-60.9	-62.2	23.8	6.05e-01	0	55	0
2025-01-04 02:41:52.00	106.32	50.29	-61.0	-62.3	23.7	6.07e-01	0	55	0
2025-01-04 02:41:52.91	105.76	50.51	-61.2	-62.8	23.5	6.06e-01	0	55	0
2025-01-04 02:41:53.90	105.14	50.75	-60.9	-62.2	23.8	6.07e-01	0	55	0
2025-01-04 02:41:54.81	104.56	50.98	-60.8	-62.0	23.9	6.07e-01	0	55	0
2025-01-04 02:41:55.80	103.92	51.21	-60.6	-61.9	24.2	6.07e-01	0	55	0
2025-01-04 02:41:56.71	103.32	51.43	-60.6	-62.0	24.1	6.08e-01	0	55	0
2025-01-04 02:41:57.70	102.66	51.66	-60.6	-62.2	24.0	6.05e-01	0	55	0
2025-01-04 02:41:58.61	102.05	51.87	-60.5	-61.8	24.2	6.04e-01	0	55	0
2025-01-04 02:41:59.59	101.38	52.10	-60.5	-61.9	24.2	6.07e-01	0	55	0
2025-01-04 02:42:00.50	100.74	52.30	-60.4	-61.6	24.4	6.07e-01	0	55	0
2025-01-04 02:42:01.49	100.04	52.53	-61.0	-62.8	23.8	6.06e-01	0	55	0
2025-01-04 02:42:02.40	99.39	52.73	-60.8	-62.4	23.9	6.07e-01	0	55	0
2025-01-04 02:42:03.39	98.67	52.94	-60.6	-61.9	24.2	6.06e-01	0	55	0
2025-01-04 02:42:04.29	98.00	53.13	-60.3	-61.3	24.5	6.06e-01	0	55	0
2025-01-04 02:42:05.28	97.26	53.34	-60.7	-62.2	24.0	6.06e-01	0	55	0
2025-01-04 02:42:06.19	96.57	53.53	-60.6	-61.9	24.2	6.07e-01	0	55	0
2025-01-04 02:42:07.18	95.81	53.73	-60.4	-61.7	24.3	6.05e-01	0	55	0
2025-01-04 02:42:08.09	95.10	53.91	-60.3	-61.5	24.4	6.05e-01	0	56	0
2025-01-04 02:42:09.08	94.32	54.10	-60.6	-62.0	24.1	6.07e-01	0	55	0
2025-01-04 02:42:09.99	93.60	54.27	-60.5	-61.8	24.2	6.05e-01	0	55	0
2025-01-04 02:42:10.98	92.80	54.45	-60.2	-61.5	24.2	6.05e-01	0	56	0
2025-01-04 02:42:11.89	92.05	54.61	-60.3	-62.4	23.9	6.07e-01	0	56	0
2025-01-04 02:42:12.88	91.23	54.78	-60.1	-62.1	24.1	6.08e-01	0	55	0
2025-01-04 02:42:13.79	90.47	54.94	-60.2	-62.2	23.9	6.07e-01	0	55	0
2025-01-04 02:42:14.78	89.63	55.10	-60.4	-62.7	23.8	6.06e-01	0	56	0
2025-01-04 02:42:15.69	88.85	55.24	-60.1	-61.9	24.1	6.04e-01	0	56	0
2025-01-04 02:42:16.68	87.99	55.39	-60.6	-63.1	23.6	6.07e-01	0	56	0
2025-01-04 02:42:17.58	87.21	55.52	-60.9	-63.1	23.4	6.06e-01	0	55	0
2025-01-04 02:42:18.58	86.32	55.66	-60.7	-62.4	23.8	6.06e-01	0	56	0
2025-01-04 02:42:19.48	85.52	55.78	-61.3	-63.7	23.2	6.05e-01	0	56	0
2025-01-04 02:42:20.48	84.62	55.91	-61.1	-63.3	23.4	6.07e-01	0	56	0
2025-01-04 02:42:21.38	83.80	56.02	-61.1	-63.2	23.4	6.07e-01	0	56	0
2025-01-04 02:42:22.38	82.89	56.14	-61.1	-63.2	23.5	6.05e-01	0	56	0
2025-01-04 02:42:23.28	82.06	56.24	-61.3	-63.7	23.2	6.07e-01	0	56	0
2025-01-04 02:42:24.28	81.13	56.34	-61.3	-63.2	23.2	6.08e-01	0	56	0
2025-01-04 02:42:25.18	80.29	56.42	-61.1	-62.6	23.6	6.05e-01	0	56	0
2025-01-04 02:42:26.17	79.36	56.51	-61.2	-63.0	23.4	6.06e-01	0	56	0
2025-01-04 02:42:27.07	78.51	56.58	-61.1	-62.6	23.5	6.06e-01	0	56	0
2025-01-04 02:42:28.07	77.56	56.66	-61.5	-63.5	23.1	6.05e-01	0	56	0
2025-01-04 02:42:28.97	76.70	56.72	-61.5	-63.5	23.1	6.05e-01	0	56	0
2025-01-04 02:42:29.97	75.74	56.78	-60.8	-62.2	23.6	6.07e-01	0	56	0
2025-01-04 02:42:30.87	74.87	56.83	-61.2	-63.2	23.2	6.06e-01	0	56	0
2025-01-04 02:42:31.87	73.90	56.87	-61.8	-64.3	22.6	6.06e-01	0	56	0
2025-01-04 02:42:32.77	73.03	56.91	-61.6	-63.8	22.9	6.07e-01	0	56	0
2025-01-04 02:42:33.77	72.06	56.94	-61.0	-62.3	23.7	6.07e-01	0	56	0
2025-01-04 02:42:34.67	71.18	56.96	-61.5	-63.5	23.2	6.06e-01	0	56	0
2025-01-04 02:42:35.67	70.21	56.97	-61.7	-63.6	22.3	6.07e-01	0	56	0
2025-01-04 02:42:36.57	69.33	56.98	-61.0	-62.4	23.7	6.08e-01	0	56	0
2025-01-04 02:42:37.57	68.35	56.98	-61.3	-63.1	23.3	6.08e-01	0	56	0
2025-01-04 02:42:38.47	67.47	56.98	-61.4	-63.5	23.1	6.03e-01	0	56	0
2025-01-04 02:42:39.47	66.50	56.96	-61.3	-63.1	23.2	6.06e-01	0	56	0
2025-01-04 02:42:40.37	65.62	56.94	-61.0	-62.6	23.6	6.07e-01	0	56	0
2025-01-04 02:42:41.37	64.65	56.91	-61.4	-63.3	23.2	6.07e-01	0	56	0
2025-01-04 02:42:42.27	63.78	56.88	-61.8	-64.4	22.5	6.07e-01	0	56	0
2025-01-04 02:42:43.27	62.81	56.84	-61.5	-63.6	23.0	6.06e-01	0	56	0
2025-01-04 02:42:44.17	61.94	56.79	-61.1	-62.7	23.5	6.06e-01	0	56	0
2025-01-04 02:42:45.17	60.98	56.73	-61.3	-63.1	23.4	6.05e-01	0	56	0
2025-01-04 02:42:46.07	60.12	56.67	-61.9	-64.4	22.6	6.08e-01	0	56	0
2025-01-04 02:42:47.06	59.18	56.60	-61.4	-63.4	23.0	6.07e-01	0	56	0
2025-01-04 02:42:47.96	58.33	56.53	-61.0	-62.5	23.6	6.07e-01	0	56	0
2025-01-04 02:42:48.96	57.39	56.44	-61.3	-63.2	23.2	6.07e-01	0	56	0
2025-01-04 02:42:49.86	56.55	56.35	-61.8	-64.4	22.5	6.08e-01	0	56	0
2025-01-04 02:42:50.86	55.62	56.25	-61.0	-62.4	23.6	6.05e-01	0	56	0
2025-01-04 02:42:51.76	54.79	56.16	-61.3	-63.1	23.3	6.05e-01	0	56	0
2025-01-04 02:42:52.76	53.87	56.04	-61.2	-63.1	23.2	6.07e-01	0	56	0
2025-01-04 02:42:53.66	53.06	55.93	-60.7	-62.3	24.0	6.05e-01	0	56	0
2025-01-04 02:42:54.66	52.16	55.81	-60.7	-62.5	23.8	6.07e-01	0	56	0
2025-01-04 02:42:55.56	51.35	55.69	-60.9	-63.1	23.5	6.05e-01	0	56	0
2025-01-04 02:42:56.56	50.47	55.55	-60.8	-62.7	23.7	6.06e-01	0	56	0
2025-01-04 02:42:57.46	49.68	55.42	-60.6	-62.1	24.0	6.04e-01	0	56	0
2025-01-04 02:42:58.46	48.82	55.27	-60.9	-62.8	23.7	6.08e-01	0	56	0
2025-01-04 02:42:59.36	48.04	55.13	-61.0	-63.1	23.5	6.05e-01	0	56	0
2025-01-04 02:43:00.36	47.20	54.96	-60.6	-62.1	24.0	6.07e-01	0	56	0
2025-01-04 02:43:01.26	46.44	54.81	-61.0	-63.1	23.5	6.05e-01	0	56	0
2025-01-04 02:43:02.26	45.61	54.64	-60.8	-62.6	23.7	6.05e-01	0	56	0
2025-01-04 02:43:03.16	44.88	54.48	-61.1	-63.2	23.5	6.06e-01	0	56	0
2025-01-04 02:43:04.16	44.07	54.30	-60.8	-62.8	23.6	6.07e-01	0	56	0
2025-01-04 02:43:05.06	43.35	54.13	-60.4	-61.7	24.1	6.07e-01	0	56	0
2025-01-04 02:43:06.06	42.56	53.94	-60.6	-62.1	24.1	6.10e-01	0	56	0
2025-01-04 02:43:06.96	41.86	53.76	-61.6	-64.0	22.8	6.08e-01	0	56	0
2025-01-04 02:43:07.95	41.10	53.57	-60.7	-62.0	23.9	6.06e-01	0	56	0
2025-01-04 02:43:08.86	40.41	53.38	-60.4	-61.7	24.3	6.08e-01	0	56	0
2025-01-04 02:43:09.85	39.66	53.18	-60.9	-63.0	23.6	6.07e-01	0	56	0
2025-01-04 02:43:10.75	39.00	52.98	-61.3	-63.7	23.2	6.07e-01	0	56	0
2025-01-04 02:43:11.74	38.28	52.77	-60.3	-61.4	24.4	6.06e-01	0	56	0
2025-01-04 02:43:12.65	37.63	52.57	-60.2	-61.7	24.5	6.07e-01	0	57	0
2025-01-04 02:43:13.64	36.93	52.35	-61.1	-63.4	23.4	6.06e-01	0	56	0
2025-01-04 02:43:14.55	36.29	52.15	-61.4	-63.6	22.8	6.08e-01	0	56	0
2025-01-04 02:43:15.54	35.61	51.92	-60.8	-62.1	23.8	6.04e-01	0	56	0
2025-01-04 02:43:16.45	35.00	51.71	-60.4	-61.6	24.3	6.06e-01	0	57	0
2025-01-04 02:43:17.44	34.34	51.48	-60.8	-62.7	23.7	6.04e-01	0	56	0
2025-01-04 02:43:18.35	33.74	51.26	-60.9	-62.7	23.7	6.03e-01	0	56	0
2025-01-04 02:43:19.34	33.10	51.03	-61.4	-63.3	23.2	6.05e-01	0	56	0
2025-01-04 02:43:20.25	32.52	50.81	-60.7	-61.8	24.0	6.07e-01	0	56	0
2025-01-04 02:43:21.24	31.90	50.57	-60.7	-62.1	24.0	6.07e-01	0	56	0
2025-01-04 02:43:22.15	31.34	50.34	-61.0	-62.9	23.7	6.06e-01	0	56	0
2025-01-04 02:43:23.14	30.74	50.10	-61.6	-63.5	22.3	6.06e-01	0	56	0
2025-01-04 02:43:24.05	30.19	49.87	-60.9	-62.2	23.7	6.06e-01	0	56	0
2025-01-04 02:43:25.04	29.61	49.62	-60.3	-61.4	24.5	6.07e-01	0	57	0
2025-01-04 02:43:25.95	29.08	49.39	-61.2	-63.3	23.5	6.08e-01	0	56	0
2025-01-04 02:43:26.93	28.52	49.14	-61.8	-64.2	22.7	6.07e-01	0	56	0
2025-01-04 02:43:27.84	28.01	48.91	-61.3	-63.2	23.2	6.07e-01	0	56	0
2025-01-04 02:43:28.83	27.47	48.66	-60.8	-61.9	23.9	6.07e-01	0	56	0
2025-01-04 02:43:29.74	26.97	48.42	-61.1	-62.6	23.6	6.07e-01	0	56	0
2025-01-04 02:43:30.73	26.44	48.16	-61.0	-62.4	23.6	6.04e-01	0	56	0
2025-01-04 02:43:31.64	25.96	47.93	-60.3	-61.5	24.4	6.04e-01	0	56	0
2025-01-04 02:43:32.63	25.45	47.67	-60.4	-61.7	24.2	6.08e-01	0	57	0
2025-01-04 02:43:33.53	24.99	47.43	-60.9	-62.7	23.8	6.06e-01	0	57	0
2025-01-04 02:43:34.52	24.50	47.17	-61.2	-63.3	23.4	6.07e-01	0	57	0
2025-01-04 02:43:35.43	24.05	46.93	-60.9	-62.7	23.7	6.07e-01	0	57	0
2025-01-04 02:43:36.42	23.57	46.67	-59.9	-60.9	24.9	6.07e-01	0	57	0
2025-01-04 02:43:37.33	23.14	46.43	-59.9	-61.0	24.9	6.06e-01	0	56	0
2025-01-04 02:43:38.32	22.67	46.17	-60.9	-63.2	23.8	6.06e-01	0	57	0
2025-01-04 02:43:39.23	22.25	45.93	-60.9	-62.8	23.6	6.06e-01	0	57	0
2025-01-04 02:43:40.22	21.80	45.67	-60.0	-61.2	24.7	6.06e-01	0	57	0
2025-01-04 02:43:41.13	21.39	45.43	-60.1	-61.4	24.7	6.07e-01	0	57	0
2025-01-04 02:43:42.12	20.96	45.17	-60.6	-62.5	24.1	6.06e-01	0	57	0
2025-01-04 02:43:43.03	20.57	44.93	-60.6	-62.6	24.0	6.05e-01	0	57	0
2025-01-04 02:43:44.02	20.14	44.66	-60.1	-61.5	24.6	6.06e-01	0	57	0
2025-01-04 02:43:44.92	19.77	44.43	-60.1	-61.5	24.6	6.06e-01	0	57	0
2025-01-04 02:43:45.92	19.35	44.16	-60.2	-61.6	24.5	6.06e-01	0	57	0
2025-01-04 02:43:46.82	18.99	43.92	-60.4	-62.1	24.3	6.05e-01	0	56	0
2025-01-04 02:43:47.82	18.59	43.66	-60.0	-61.2	24.7	6.07e-01	0	57	0
2025-01-04 02:43:48.72	18.24	43.42	-60.0	-61.3	24.7	6.05e-01	0	57	0
2025-01-04 02:43:49.72	17.85	43.16	-60.8	-63.1	23.8	6.07e-01	0	57	0
2025-01-04 02:43:50.62	17.51	42.92	-60.7	-62.2	23.9	6.06e-01	0	57	0
2025-01-04 02:43:51.62	17.13	42.66	-60.2	-61.2	24.5	6.05e-01	0	57	0
2025-01-04 02:43:52.52	16.80	42.43	-60.3	-61.5	24.4	6.06e-01	0	57	0
2025-01-04 02:43:53.52	16.44	42.16	-60.8	-62.6	23.8	6.07e-01	0	57	0
2025-01-04 02:43:54.42	16.12	41.93	-60.7	-62.2	24.0	6.06e-01	0	57	0
2025-01-04 02:43:55.41	15.77	41.67	-60.6	-62.0	24.2	6.07e-01	0	57	0
2025-01-04 02:43:56.31	15.46	41.44	-60.8	-62.5	23.8	6.06e-01	0	57	0
2025-01-04 02:43:57.31	15.12	41.18	-61.2	-63.4	23.4	6.06e-01	0	57	0
2025-01-04 02:43:58.21	14.82	40.95	-60.9	-62.6	23.7	6.08e-01	0	57	0
2025-01-04 02:43:59.21	14.49	40.69	-60.7	-62.1	24.1	6.07e-01	0	57	0
2025-01-04 02:44:00.11	14.19	40.46	-61.1	-63.1	23.5	6.07e-01	0	57	0
2025-01-04 02:44:01.11	13.87	40.21	-61.5	-63.6	23.0	6.06e-01	0	57	0
2025-01-04 02:44:02.01	13.59	39.98	-61.4	-63.3	23.1	6.08e-01	0	57	0
2025-01-04 02:44:03.01	13.28	39.73	-61.1	-62.7	23.5	6.07e-01	0	57	0
2025-01-04 02:44:03.91	13.00	39.50	-61.9	-64.4	22.5	6.06e-01	0	57	0
2025-01-04 02:44:04.91	12.70	39.25	-61.7	-64.1	22.7	6.07e-01	0	57	0
2025-01-04 02:44:05.81	12.43	39.02	-61.5	-63.7	22.9	6.07e-01	0	57	0
2025-01-04 02:44:06.81	12.14	38.78	-61.8	-64.3	22.6	6.08e-01	0	57	0
2025-01-04 02:44:07.71	11.88	38.55	-61.5	-63.5	23.0	6.07e-01	0	57	0
2025-01-04 02:44:08.71	11.60	38.31	-61.1	-62.7	23.5	6.06e-01	0	57	0
2025-01-04 02:44:09.61	11.35	38.08	-61.1	-62.7	23.5	6.07e-01	0	57	0
2025-01-04 02:44:10.61	11.07	37.84	-61.5	-63.6	23.0	6.07e-01	0	57	0
2025-01-04 02:44:11.51	10.83	37.62	-61.7	-63.7	22.3	6.06e-01	0	57	0
2025-01-04 02:44:12.51	10.56	37.38	-61.5	-63.1	22.5	6.08e-01	0	57	0
2025-01-04 02:44:13.41	10.32	37.16	-61.1	-62.7	23.4	6.06e-01	0	57	0
2025-01-04 02:44:14.41	10.06	36.92	-60.7	-61.8	24.0	6.07e-01	0	57	0
2025-01-04 02:44:15.31	9.83	36.70	-61.5	-63.6	23.0	6.04e-01	0	57	0
2025-01-04 02:44:16.30	9.58	36.47	-61.7	-64.0	22.6	6.04e-01	0	57	0
2025-01-04 02:44:17.20	9.36	36.25	-61.1	-62.7	23.4	6.04e-01	0	57	0
2025-01-04 02:44:18.20	9.11	36.02	-61.2	-62.8	23.4	6.09e-01	0	57	0
2025-01-04 02:44:19.10	8.90	35.81	-60.9	-62.3	23.7	6.06e-01	0	57	0
2025-01-04 02:44:20.09	8.66	35.58	-60.6	-61.9	24.1	6.08e-01	0	57	0
2025-01-04 02:44:21.00	8.45	35.37	-60.8	-62.4	23.9	6.08e-01	0	57	0
2025-01-04 02:44:21.99	8.22	35.14	-61.0	-62.9	23.6	6.07e-01	0	57	0
2025-01-04 02:44:22.90	8.01	34.93	-60.6	-62.0	24.1	6.07e-01	0	57	0
2025-01-04 02:44:23.89	7.78	34.70	-60.4	-61.6	24.3	6.06e-01	0	57	0
2025-01-04 02:44:24.80	7.58	34.49	-60.2	-61.3	24.4	6.06e-01	0	57	0
2025-01-04 02:44:25.79	7.36	34.27	-60.1	-61.5	24.6	6.06e-01	0	57	0
2025-01-04 02:44:26.70	7.17	34.07	-60.1	-61.4	24.6	6.07e-01	0	57	0
2025-01-04 02:44:27.69	6.96	33.84	-60.2	-61.7	24.5	6.06e-01	0	57	0
2025-01-04 02:44:28.60	6.76	33.64	-60.0	-61.3	24.7	6.05e-01	0	57	0
2025-01-04 02:44:29.59	6.56	33.42	-59.7	-60.5	25.1	6.07e-01	0	57	0
2025-01-04 02:44:30.50	6.37	33.22	-59.8	-60.7	25.0	6.05e-01	0	57	0
2025-01-04 02:44:31.49	6.17	33.01	-59.8	-60.7	25.0	6.06e-01	0	57	0
2025-01-04 02:44:32.40	5.99	32.81	-59.8	-60.7	25.0	6.03e-01	0	57	0
2025-01-04 02:44:33.39	5.80	32.59	-59.6	-60.9	25.1	6.05e-01	0	57	0
2025-01-04 02:44:34.30	5.62	32.40	-59.5	-60.5	25.3	6.06e-01	0	57	0
2025-01-04 02:44:35.29	5.43	32.19	-59.6	-60.8	25.2	6.05e-01	0	57	0
2025-01-04 02:44:36.20	5.26	31.99	-59.7	-61.1	25.0	6.05e-01	0	57	0
2025-01-04 02:44:37.18	5.07	31.78	-59.5	-60.6	25.3	6.03e-01	0	57	0
2025-01-04 02:44:38.09	4.91	31.59	-59.3	-60.1	25.5	6.03e-01	0	57	0
2025-01-04 02:44:39.08	4.72	31.39	-59.6	-60.8	25.2	6.03e-01	0	57	0
2025-01-04 02:44:39.99	4.56	31.20	-59.8	-61.3	24.9	6.05e-01	0	57	0
2025-01-04 02:44:40.98	4.39	30.99	-59.7	-61.0	25.0	6.07e-01	0	57	0
2025-01-04 02:44:41.88	4.23	30.81	-59.4	-60.4	25.3	6.06e-01	0	57	0
2025-01-04 02:44:42.87	4.06	30.60	-59.4	-60.5	25.3	6.07e-01	0	57	0
2025-01-04 02:44:43.78	3.90	30.42	-59.3	-60.2	25.4	6.04e-01	0	57	0
2025-01-04 02:44:44.77	3.73	30.22	-59.6	-60.8	25.2	6.06e-01	0	57	0
2025-01-04 02:44:45.68	3.58	30.04	-59.5	-60.7	25.2	6.05e-01	0	57	0
2025-01-04 02:44:46.67	3.42	29.84	-59.3	-60.2	25.5	6.07e-01	0	57	0
2025-01-04 02:44:47.58	3.27	29.66	-59.6	-60.9	25.1	6.04e-01	0	57	0
2025-01-04 02:44:48.57	3.11	29.46	-59.7	-61.1	25.0	6.06e-01	0	57	0
2025-01-04 02:44:49.48	2.97	29.28	-59.4	-60.4	25.3	6.05e-01	0	57	0
2025-01-04 02:44:50.47	2.81	29.09	-59.4	-60.5	25.3	6.08e-01	0	57	0
2025-01-04 02:44:51.38	2.67	28.92	-59.8	-61.2	24.9	6.05e-01	0	57	0
2025-01-04 02:44:52.37	2.52	28.72	-59.9	-61.5	24.8	6.06e-01	0	57	0
2025-01-04 02:44:53.28	2.38	28.55	-59.5	-60.6	25.2	6.07e-01	0	57	0
2025-01-04 02:44:54.26	2.23	28.36	-59.3	-60.3	25.4	6.05e-01	0	57	0
2025-01-04 02:44:55.17	2.10	28.19	-59.3	-60.3	25.4	6.06e-01	0	57	0
2025-01-04 02:44:56.16	1.96	28.01	-59.7	-61.1	25.0	6.04e-01	0	57	0
2025-01-04 02:44:57.07	1.82	27.83	-59.9	-61.6	24.7	6.06e-01	0	57	0
2025-01-04 02:44:58.06	1.68	27.65	-59.7	-61.2	24.9	6.05e-01	0	57	0
2025-01-04 02:44:58.97	1.56	27.48	-59.7	-61.2	24.9	6.07e-01	0	57	0
2025-01-04 02:44:59.96	1.42	27.30	-60.0	-61.9	24.5	6.04e-01	0	57	0
2025-01-04 02:45:00.87	1.29	27.13	-59.9	-61.6	24.7	6.06e-01	0	57	0
2025-01-04 02:45:01.86	1.16	26.95	-59.7	-61.3	24.8	6.05e-01	0	57	0
2025-01-04 02:45:02.77	1.04	26.79	-60.1	-62.0	24.5	6.06e-01	0	57	0
2025-01-04 02:45:03.76	0.90	26.61	-60.4	-62.2	24.1	6.07e-01	0	57	0
2025-01-04 02:45:04.66	0.79	26.45	-60.1	-61.5	24.4	6.06e-01	0	57	0
2025-01-04 02:45:05.65	0.66	26.28	-59.7	-61.1	25.0	6.06e-01	0	57	0
2025-01-04 02:45:06.56	0.54	26.12	-60.0	-61.6	24.7	6.06e-01	0	57	0
2025-01-04 02:45:07.55	0.41	25.94	-60.0	-61.7	24.6	6.06e-01	0	57	0
2025-01-04 02:45:08.46	0.30	25.78	-60.0	-61.7	24.6	6.06e-01	0	57	0
2025-01-04 02:45:09.45	0.18	25.61	-60.0	-61.8	24.6	6.05e-01	0	57	0
2025-01-04 02:45:10.36	0.06	25.45	-60.0	-61.8	24.6	6.07e-01	0	57	0
2025-01-04 02:45:11.35	359.94	25.29	-60.0	-61.7	24.7	6.07e-01	0	57	0
2025-01-04 02:45:12.25	359.84	25.13	-60.0	-61.7	24.6	6.07e-01	0	57	0
2025-01-04 02:45:13.25	359.72	24.96	-60.1	-61.8	24.6	6.06e-01	0	57	0
2025-01-04 02:45:14.15	359.61	24.81	-60.1	-61.8	24.5	6.05e-01	0	57	0
2025-01-04 02:45:15.15	359.49	24.64	-60.3	-62.3	24.3	6.06e-01	0	57	0
2025-01-04 02:45:16.05	359.39	24.49	-60.5	-62.2	24.1	6.04e-01	0	57	0
2025-01-04 02:45:17.05	359.28	24.33	-60.3	-61.9	24.3	6.07e-01	0	57	0
2025-01-04 02:45:17.95	359.18	24.18	-60.3	-62.0	24.2	6.07e-01	0	57	0
2025-01-04 02:45:18.95	359.06	24.02	-60.4	-62.3	23.9	6.05e-01	0	57	0
2025-01-04 02:45:19.85	358.96	23.87	-60.4	-62.2	24.0	6.05e-01	0	58	0
2025-01-04 02:45:20.85	358.86	23.71	-60.1	-61.5	24.4	6.05e-01	0	58	0
2025-01-04 02:45:21.75	358.76	23.57	-60.0	-61.3	24.5	6.05e-01	0	57	0
2025-01-04 02:45:22.75	358.65	23.41	-60.2	-61.8	24.3	6.05e-01	0	57	0
2025-01-04 02:45:23.65	358.56	23.26	-60.2	-61.6	24.4	6.07e-01	0	57	0
2025-01-04 02:45:24.65	358.45	23.10	-60.2	-61.7	24.4	6.05e-01	0	57	0
2025-01-04 02:45:25.55	358.36	22.96	-60.5	-62.4	24.0	6.07e-01	0	57	0
2025-01-04 02:45:26.54	358.26	22.81	-60.3	-62.0	24.1	6.04e-01	0	57	0
2025-01-04 02:45:27.44	358.16	22.67	-60.2	-61.8	24.3	6.07e-01	0	58	0
2025-01-04 02:45:28.44	358.06	22.51	-60.2	-61.8	24.3	6.06e-01	0	57	0
2025-01-04 02:45:29.34	357.97	22.38	-60.6	-62.6	23.8	6.05e-01	0	57	0
2025-01-04 02:45:30.34	357.88	22.22	-60.4	-62.2	24.0	6.07e-01	0	57	0
2025-01-04 02:45:31.24	357.79	22.09	-60.3	-62.0	24.2	6.04e-01	0	57	0
2025-01-04 02:45:32.24	357.69	21.94	-60.4	-62.0	24.2	6.06e-01	0	57	0
2025-01-04 02:45:33.14	357.61	21.80	-60.2	-61.6	24.4	6.07e-01	0	57	0
2025-01-04 02:45:34.14	357.51	21.65	-60.1	-61.4	24.5	6.06e-01	0	58	0
2025-01-04 02:45:35.04	357.43	21.52	-60.6	-62.6	23.9	6.06e-01	0	57	0
2025-01-04 02:45:36.04	357.33	21.37	-60.5	-62.4	24.0	6.09e-01	0	57	0
2025-01-04 02:45:36.94	357.25	21.24	-60.2	-61.7	24.3	6.05e-01	0	57	0
2025-01-04 02:45:37.94	357.16	21.09	-60.3	-61.9	24.3	6.07e-01	0	57	0
2025-01-04 02:45:38.84	357.08	20.96	-60.5	-62.2	24.1	6.07e-01	0	58	0
2025-01-04 02:45:39.84	356.99	20.82	-60.2	-61.7	24.4	6.05e-01	0	57	0
2025-01-04 02:45:40.74	356.91	20.69	-60.5	-62.3	24.1	6.04e-01	0	58	0
2025-01-04 02:45:41.74	356.82	20.55	-60.5	-62.2	24.0	6.06e-01	0	57	0
2025-01-04 02:45:42.64	356.75	20.42	-60.4	-62.2	24.1	6.05e-01	0	57	0
2025-01-04 02:45:43.64	356.66	20.28	-60.2	-61.6	24.4	6.07e-01	0	57	0
2025-01-04 02:45:44.54	356.58	20.15	-60.4	-62.1	24.2	6.09e-01	0	57	0
2025-01-04 02:45:45.54	356.50	20.01	-60.5	-62.3	24.1	6.07e-01	0	57	0
2025-01-04 02:45:46.44	356.42	19.88	-60.3	-61.9	24.3	6.06e-01	0	57	0
2025-01-04 02:45:47.43	356.34	19.75	-60.3	-61.9	24.2	6.04e-01	0	57	0
2025-01-04 02:45:48.34	356.27	19.62	-60.3	-61.9	24.3	6.08e-01	0	58	0
2025-01-04 02:45:49.33	356.19	19.49	-60.2	-61.8	24.3	6.06e-01	0	58	0
2025-01-04 02:45:50.23	356.12	19.36	-60.2	-61.6	24.5	6.04e-01	0	58	0
2025-01-04 02:45:51.22	356.04	19.23	-60.4	-62.0	24.2	6.07e-01	0	57	0
2025-01-04 02:45:52.13	355.96	19.11	-60.2	-61.8	24.3	6.06e-01	0	57	0
2025-01-04 02:45:53.12	355.89	18.98	-60.1	-61.5	24.5	6.06e-01	0	57	0
2025-01-04 02:45:54.03	355.82	18.85	-60.0	-61.2	24.6	6.06e-01	0	58	0
2025-01-04 02:45:55.02	355.74	18.72	-60.4	-62.1	24.2	6.05e-01	0	57	0
2025-01-04 02:45:55.93	355.67	18.60	-60.2	-61.6	24.4	6.05e-01	0	57	0
2025-01-04 02:45:56.92	355.60	18.47	-60.1	-61.3	24.6	6.08e-01	0	57	0
2025-01-04 02:45:57.83	355.53	18.35	-60.0	-61.1	24.7	6.06e-01	0	58	0
2025-01-04 02:45:58.82	355.46	18.23	-60.1	-61.4	24.5	6.06e-01	0	57	0
2025-01-04 02:45:59.73	355.39	18.11	-60.1	-61.5	24.5	6.05e-01	0	57	0
2025-01-04 02:46:00.72	355.32	17.98	-60.3	-61.9	24.2	6.06e-01	0	57	0
2025-01-04 02:46:01.63	355.25	17.86	-60.3	-62.0	24.1	6.06e-01	0	58	0
2025-01-04 02:46:02.62	355.18	17.74	-59.9	-61.0	24.7	6.06e-01	0	58	0
2025-01-04 02:46:03.53	355.12	17.62	-59.9	-61.1	24.7	6.07e-01	0	58	0
2025-01-04 02:46:04.51	355.05	17.50	-59.9	-61.1	24.6	6.06e-01	0	58	0
2025-01-04 02:46:05.42	354.98	17.39	-60.2	-61.8	24.2	6.07e-01	0	57	0
2025-01-04 02:46:06.41	354.92	17.26	-59.9	-61.0	24.6	6.05e-01	0	57	0
2025-01-04 02:46:07.32	354.85	17.15	-60.2	-61.8	24.3	6.05e-01	0	57	0
2025-01-04 02:46:08.31	354.79	17.03	-60.1	-61.5	24.4	6.05e-01	0	58	0
2025-01-04 02:46:09.22	354.73	16.92	-59.8	-60.9	24.8	6.05e-01	0	57	0
2025-01-04 02:46:10.21	354.66	16.79	-60.0	-61.3	24.5	6.06e-01	0	58	0
2025-01-04 02:46:11.12	354.60	16.68	-60.4	-62.1	24.1	6.06e-01	0	57	0
2025-01-04 02:46:12.11	354.54	16.56	-60.2	-61.6	24.3	6.06e-01	0	58	0
2025-01-04 02:46:13.01	354.48	16.46	-60.0	-61.2	24.5	6.03e-01	0	58	0
2025-01-04 02:46:14.00	354.41	16.34	-60.0	-61.4	24.4	6.07e-01	0	57	0
2025-01-04 02:46:14.91	354.36	16.23	-60.4	-62.2	24.0	6.04e-01	0	58	0
2025-01-04 02:46:15.90	354.29	16.11	-60.1	-61.5	24.3	6.03e-01	0	58	0
2025-01-04 02:46:16.81	354.24	16.00	-60.1	-61.4	24.5	6.04e-01	0	57	0
2025-01-04 02:46:17.80	354.17	15.89	-60.2	-61.7	24.2	6.06e-01	0	58	0
2025-01-04 02:46:18.71	354.12	15.78	-60.5	-62.3	24.0	6.02e-01	0	58	0
2025-01-04 02:46:19.70	354.06	15.66	-59.9	-61.0	24.6	6.03e-01	0	58	0
2025-01-04 02:46:20.61	354.00	15.56	-60.3	-61.8	24.2	6.02e-01	0	58	0
2025-01-04 02:46:21.60	353.94	15.44	-60.5	-62.3	24.0	6.03e-01	0	58	0
2025-01-04 02:46:22.50	353.89	15.34	-60.2	-61.7	24.3	6.04e-01	0	57	0
2025-01-04 02:46:23.50	353.83	15.23	-60.1	-61.4	24.4	6.05e-01	0	58	0
2025-01-04 02:46:24.40	353.78	15.12	-60.1	-61.4	24.4	6.04e-01	0	57	0
2025-01-04 02:46:25.40	353.72	15.01	-60.4	-62.1	24.1	6.04e-01	0	57	0
2025-01-04 02:46:26.30	353.67	14.91	-60.2	-61.8	24.2	6.04e-01	0	57	0
2025-01-04 02:46:27.30	353.61	14.80	-60.4	-62.2	24.0	6.04e-01	0	58	0
2025-01-04 02:46:28.20	353.56	14.70	-60.3	-61.9	24.1	6.02e-01	0	58	0
2025-01-04 02:46:29.20	353.50	14.59	-60.3	-62.0	24.1	6.02e-01	0	57	0
2025-01-04 02:46:30.10	353.45	14.49	-60.1	-61.6	24.3	6.04e-01	0	58	0
2025-01-04 02:46:31.10	353.40	14.38	-60.3	-61.9	24.2	6.06e-01	0	58	0
2025-01-04 02:46:32.00	353.35	14.28	-60.5	-62.4	23.8	6.03e-01	0	58	0
2025-01-04 02:46:33.00	353.29	14.17	-60.0	-61.3	24.4	6.02e-01	0	58	0
2025-01-04 02:46:33.90	353.24	14.07	-60.0	-61.3	24.4	6.02e-01	0	58	0
2025-01-04 02:46:34.89	353.19	13.96	-60.2	-61.9	24.1	6.03e-01	0	57	0
2025-01-04 02:46:35.79	353.14	13.87	-60.3	-62.1	24.0	6.03e-01	0	58	0
2025-01-04 02:46:36.79	353.09	13.76	-62.3	-65.2	21.9	6.01e-01	0	58	0
2025-01-04 02:46:37.69	353.04	13.66	-67.1	-86.5	3.8	7.45e-01	0	58	104
2025-01-04 02:46:38.69	352.99	13.56	-67.3	-86.7	3.8	7.46e-01	0	58	104
2025-01-04 02:46:39.59	352.94	13.46	-67.4	-86.7	3.8	7.46e-01	0	58	104
2025-01-04 02:46:40.59	352.89	13.36	-66.7	-86.2	3.7	7.44e-01	0	58	104
2025-01-04 02:46:41.49	352.85	13.26	-66.2	-85.0	3.8	7.47e-01	0	58	104
2025-01-04 02:46:42.49	352.80	13.16	-57.2	-82.4	3.5	7.53e-01	0	58	104
2025-01-04 02:46:43.39	352.75	13.06	-60.3	-82.8	3.8	7.46e-01	0	58	104
2025-01-04 02:46:44.39	352.70	12.96	-60.6	-82.8	3.8	7.47e-01	0	58	104
2025-01-04 02:46:45.29	352.66	12.87	-61.8	-82.3	3.8	7.49e-01	0	58	104
2025-01-04 02:46:46.29	352.61	12.76	-58.2	-81.9	3.6	7.51e-01	0	58	104
2025-01-04 02:46:47.19	352.57	12.67	-62.4	-82.8	3.8	7.42e-01	0	58	104
2025-01-04 02:46:48.19	352.52	12.57	-59.8	-83.4	3.8	7.45e-01	0	58	104
2025-01-04 02:46:49.09	352.47	12.48	-60.7	-82.6	3.7	7.50e-01	0	58	104
2025-01-04 02:46:50.09	352.43	12.38	-55.4	-80.6	3.8	7.60e-01	0	58	104
2025-01-04 02:46:50.99	352.38	12.29	-53.0	-78.2	3.4	7.74e-01	0	58	104
2025-01-04 02:46:51.99	352.34	12.19	-60.6	-83.3	3.8	7.47e-01	0	58	104
2025-01-04 02:46:52.89	352.30	12.10	-60.2	-83.5	3.8	7.43e-01	0	58	104
2025-01-04 02:46:53.89	352.25	12.00	-61.5	-83.2	3.8	7.42e-01	0	58	104
2025-01-04 02:46:54.79	352.21	11.91	-61.8	-83.4	3.8	7.45e-01	0	58	104
2025-01-04 02:46:55.79	352.16	11.81	-61.2	-82.8	3.8	7.46e-01	0	58	104
2025-01-04 02:46:56.69	352.12	11.72	-61.7	-82.4	3.8	7.47e-01	0	58	104
2025-01-04 02:46:57.68	352.08	11.62	-61.3	-83.0	3.8	7.47e-01	0	58	104
2025-01-04 02:46:58.58	352.04	11.54	-62.2	-82.8	3.8	7.47e-01	0	58	104
2025-01-04 02:46:59.58	351.99	11.44	-61.4	-81.7	3.8	7.48e-01	0	58	104
2025-01-04 02:47:00.48	351.96	11.35	-58.8	-82.2	4.0	7.48e-01	0	58	104
2025-01-04 02:47:01.48	351.91	11.26	-54.1	-79.3	1.5	7.82e-01	0	58	104
2025-01-04 02:47:02.38	351.87	11.17	-62.5	-82.6	3.8	7.44e-01	0	58	104
2025-01-04 02:47:03.38	351.83	11.08	-62.7	-82.2	3.8	7.45e-01	0	58	104
2025-01-04 02:47:04.28	351.79	10.99	-62.8	-82.3	3.8	7.46e-01	0	58	104
2025-01-04 02:47:05.28	351.75	10.90	-62.8	-82.3	3.8	7.41e-01	0	58	104
2025-01-04 02:47:06.18	351.71	10.81	-62.8	-82.3	3.8	7.42e-01	0	58	104
2025-01-04 02:47:07.18	351.67	10.72	-62.8	-82.3	3.8	7.46e-01	0	58	104
2025-01-04 02:47:08.08	351.63	10.63	-62.8	-82.3	3.8	7.44e-01	0	58	104
2025-01-04 02:47:09.08	351.59	10.54	-62.8	-82.3	3.8	7.44e-01	0	58	104
2025-01-04 02:47:09.98	351.56	10.46	-62.8	-82.3	3.8	7.48e-01	0	58	104
2025-01-04 02:47:10.98	351.52	10.36	-62.8	-82.3	3.8	7.42e-01	0	58	104
2025-01-04 02:47:11.88	351.48	10.28	-62.8	-82.3	3.8	7.46e-01	0	58	104
2025-01-04 02:47:12.88	351.44	10.19	-62.8	-82.4	3.8	7.46e-01	0	58	104
2025-01-04 02:47:13.78	351.40	10.11	-62.8	-82.3	3.8	7.48e-01	0	58	104
2025-01-04 02:47:14.77	351.37	10.02	-62.8	-82.3	3.8	7.43e-01	0	58	104
2025-01-04 02:47:15.68	351.33	9.93	-62.8	-82.3	3.8	7.44e-01	0	58	104
2025-01-04 02:47:16.67	351.29	9.84	-62.8	-82.4	3.8	7.46e-01	0	58	104
2025-01-04 02:47:17.58	351.26	9.76	-62.8	-82.3	3.8	7.43e-01	0	58	104
2025-01-04 02:47:18.57	351.22	9.67	-62.8	-82.4	3.8	7.43e-01	0	58	104
2025-01-04 02:47:19.47	351.18	9.59	-62.7	-82.3	3.8	7.47e-01	0	58	104
2025-01-04 02:47:20.46	351.15	9.50	-62.8	-82.4	3.8	7.43e-01	0	58	104
2025-01-04 02:47:21.37	351.11	9.42	-62.8	-82.4	3.8	7.47e-01	0	58	104
2025-01-04 02:47:22.36	351.08	9.34	-62.8	-82.4	3.8	7.46e-01	0	58	104
2025-01-04 02:47:23.27	351.04	9.26	-62.8	-82.4	3.8	7.47e-01	0	58	104
2025-01-04 02:47:24.26	351.01	9.17	-62.8	-82.4	3.8	7.45e-01	0	58	104
2025-01-04 02:47:25.17	350.97	9.09	-62.8	-82.3	3.8	7.47e-01	0	58	104
2025-01-04 02:47:26.16	350.94	9.00	-62.8	-82.3	3.8	7.46e-01	0	58	104
2025-01-04 02:47:27.07	350.90	8.92	-62.7	-82.3	3.8	7.44e-01	0	58	104
2025-01-04 02:47:28.06	350.87	8.84	-62.8	-82.3	3.8	7.47e-01	0	58	104
2025-01-04 02:47:28.97	350.84	8.76	-62.7	-82.3	3.8	7.49e-01	0	58	104
2025-01-04 02:47:29.96	350.80	8.67	-62.7	-82.3	3.8	7.43e-01	0	58	104
2025-01-04 02:47:30.87	350.77	8.60	-62.8	-82.3	3.8	7.45e-01	0	58	104
2025-01-04 02:47:31.85	350.74	8.51	-62.8	-82.3	3.8	7.46e-01	0	58	104
2025-01-04 02:47:32.76	350.71	8.43	-62.8	-82.4	3.8	7.45e-01	0	58	104
2025-01-04 02:47:33.75	350.67	8.35	-62.8	-82.3	3.8	7.46e-01	0	58	104
2025-01-04 02:47:34.66	350.64	8.27	-62.9	-82.4	3.8	7.43e-01	0	58	104
2025-01-04 02:47:35.65	350.61	8.19	-62.8	-82.3	3.8	7.46e-01	0	58	104
2025-01-04 02:47:36.56	350.58	8.11	-62.8	-82.3	3.8	7.44e-01	0	58	104
2025-01-04 02:47:37.55	350.54	8.03	-62.8	-82.3	3.8	7.43e-01	0	58	104
2025-01-04 02:47:38.46	350.51	7.95	-62.8	-82.3	3.8	7.48e-01	0	58	104
2025-01-04 02:47:39.45	350.48	7.87	-62.8	-82.3	3.8	7.49e-01	0	58	104

#Closed at: 2025-01-04 02:47:39
#Recorded file [904 MB]: D:/data/31015_250104_144637.dat