passes_logs/2025/01/29/LEX_Murmansk/LEX_Murmansk__20250129_174630_NOAA_19_rec.log

#Pass ID: 20250129_174630_NOAA 19
#Satellite: NOAA 19
#Configuration: NOAA 19
#Start time: 2025-01-29 17:46:25.881424

#LorettStation: 1.0.0 05.05.2024
#Station: LEX_Murmansk
#Location: 33.156738 lon 68.926811 lat
#TLE: 1 33591U 09005A   25029.16356990  .00000402  00000+0  23831-3 0  9997
#TLE: 2 33591  99.0170  93.0339 0013919  18.9524 341.2163 14.13271889823544

#Time	Az	El	Level	SNR
2025-01-29 17:46:38.082732	153.5	16.3	-91.9	4.8
2025-01-29 17:46:39.248845	153.5	16.5	-92.2	4.2
2025-01-29 17:46:40.406327	153.5	16.6	-91.8	4.7
2025-01-29 17:46:41.570908	153.5	16.7	-91.7	4.7
2025-01-29 17:46:42.729567	153.5	16.9	-91.5	2.7
2025-01-29 17:46:43.890161	153.5	17.0	-91.9	3.7
2025-01-29 17:46:45.051448	153.5	17.1	-92.0	2.4
2025-01-29 17:46:46.220950	153.5	17.3	-92.0	4.0
2025-01-29 17:46:47.381198	153.5	17.4	-92.0	2.8
2025-01-29 17:46:48.540887	153.5	17.5	-92.1	1.9
2025-01-29 17:46:49.706201	153.5	17.7	-92.0	1.8
2025-01-29 17:46:50.871542	153.6	17.8	-92.3	3.8
2025-01-29 17:46:52.038105	153.6	18.0	-92.0	1.8
2025-01-29 17:46:53.180467	153.6	18.1	-92.0	3.0
2025-01-29 17:46:54.346996	153.6	18.2	-92.3	3.2
2025-01-29 17:46:55.508430	153.6	18.4	-92.3	4.6
2025-01-29 17:46:56.671241	153.6	18.5	-92.2	4.6
2025-01-29 17:46:57.822011	153.6	18.7	-92.5	3.1
2025-01-29 17:46:58.980581	153.6	18.8	-92.4	3.8
2025-01-29 17:47:00.139193	153.6	18.9	-92.1	7.5
2025-01-29 17:47:01.299694	153.6	19.1	-92.1	3.4
2025-01-29 17:47:02.464358	153.6	19.2	-92.4	4.5
2025-01-29 17:47:03.632340	153.7	19.4	-92.5	2.5
2025-01-29 17:47:04.798884	153.7	19.5	-92.3	2.3
2025-01-29 17:47:05.961810	153.7	19.7	-92.5	4.1
2025-01-29 17:47:07.132692	153.7	19.8	-92.2	3.5
2025-01-29 17:47:08.283107	153.7	20.0	-92.2	6.2
2025-01-29 17:47:09.444666	153.7	20.1	-92.4	8.2
2025-01-29 17:47:10.603863	153.7	20.3	-92.4	7.1
2025-01-29 17:47:11.768986	153.7	20.4	-92.3	6.0
2025-01-29 17:47:12.928466	153.7	20.6	-92.1	8.0
2025-01-29 17:47:14.086241	153.7	20.7	-92.1	8.5
2025-01-29 17:47:15.245930	153.7	20.9	-92.1	8.7
2025-01-29 17:47:16.403965	153.8	21.1	-92.3	8.4
2025-01-29 17:47:17.564102	153.8	21.2	-92.4	8.3
2025-01-29 17:47:18.728739	153.8	21.4	-92.4	3.6
2025-01-29 17:47:19.894212	153.8	21.5	-92.1	4.7
2025-01-29 17:47:21.053901	153.8	21.7	-92.1	2.0
2025-01-29 17:47:22.218087	153.8	21.9	-91.8	2.1
2025-01-29 17:47:23.372073	153.8	22.0	-91.8	5.5
2025-01-29 17:47:24.536750	153.8	22.2	-92.2	8.6
2025-01-29 17:47:25.698467	153.8	22.3	-92.5	8.5
2025-01-29 17:47:26.865769	153.8	22.5	-92.2	7.6
2025-01-29 17:47:28.016495	153.9	22.7	-92.1	8.1
2025-01-29 17:47:29.180603	153.9	22.8	-92.2	5.3
2025-01-29 17:47:30.345521	153.9	23.0	-92.6	8.5
2025-01-29 17:47:31.520811	153.9	23.2	-92.3	11.0
2025-01-29 17:47:32.681715	153.9	23.4	-92.0	10.4
2025-01-29 17:47:33.853041	153.9	23.5	-91.7	8.6
2025-01-29 17:47:35.015816	153.9	23.7	-92.0	5.8
2025-01-29 17:47:36.174932	153.9	23.9	-91.2	2.5
2025-01-29 17:47:37.342470	153.9	24.1	-91.7	0.8
2025-01-29 17:47:38.502862	153.9	24.2	-91.6	2.6
2025-01-29 17:47:39.665155	154.0	24.4	-91.3	4.8
2025-01-29 17:47:40.831681	154.0	24.6	-92.2	8.9
2025-01-29 17:47:41.991898	154.0	24.8	-92.3	12.6
2025-01-29 17:47:43.151085	154.0	25.0	-92.2	12.3
2025-01-29 17:47:44.311823	154.0	25.1	-92.2	6.9
2025-01-29 17:47:45.478744	154.0	25.3	-92.3	7.5
2025-01-29 17:47:46.638316	154.0	25.5	-92.1	6.9
2025-01-29 17:47:47.804658	154.0	25.7	-92.4	9.4
2025-01-29 17:47:48.967532	154.0	25.9	-92.4	9.2
2025-01-29 17:47:50.128793	154.1	26.1	-92.0	5.4
2025-01-29 17:47:51.294198	154.1	26.3	-92.1	1.3
2025-01-29 17:47:52.563954	154.1	26.5	-92.1	3.1
2025-01-29 17:47:53.728168	154.1	26.7	-92.4	2.9
2025-01-29 17:47:54.890434	154.1	26.9	-92.6	3.4
2025-01-29 17:47:56.052641	154.1	27.1	-92.2	4.0
2025-01-29 17:47:57.207518	154.1	27.3	-92.0	3.4
2025-01-29 17:47:58.364949	154.1	27.5	-92.0	4.1
2025-01-29 17:47:59.526538	154.1	27.7	-92.2	7.4
2025-01-29 17:48:00.684481	154.2	27.9	-92.3	3.8
2025-01-29 17:48:01.844183	154.2	28.1	-92.3	3.8
2025-01-29 17:48:03.006005	154.2	28.3	-92.2	6.9
2025-01-29 17:48:04.169647	154.2	28.5	-92.0	6.9
2025-01-29 17:48:05.329065	154.2	28.7	-92.0	9.3
2025-01-29 17:48:06.494489	154.2	28.9	-91.8	9.2
2025-01-29 17:48:07.654529	154.2	29.1	-92.3	6.4
2025-01-29 17:48:08.812561	154.2	29.3	-91.5	1.3
2025-01-29 17:48:09.984681	154.3	29.6	-92.3	3.4
2025-01-29 17:48:11.152525	154.3	29.8	-92.0	3.3
2025-01-29 17:48:12.312261	154.3	30.0	-92.1	1.9
2025-01-29 17:48:13.476455	154.3	30.2	-92.2	5.7
2025-01-29 17:48:14.636627	154.3	30.4	-92.2	7.4
2025-01-29 17:48:15.801295	154.3	30.7	-92.2	10.4
2025-01-29 17:48:16.971421	154.3	30.9	-92.1	7.0
2025-01-29 17:48:18.137683	154.4	31.1	-91.4	5.8
2025-01-29 17:48:19.299502	154.4	31.3	-91.9	4.9
2025-01-29 17:48:20.458835	154.4	31.6	-92.0	7.8
2025-01-29 17:48:21.622981	154.4	31.8	-92.4	6.8
2025-01-29 17:48:22.773975	154.4	32.0	-91.8	9.4
2025-01-29 17:48:23.937970	154.4	32.3	-92.0	7.9
2025-01-29 17:48:25.101434	154.4	32.5	-91.3	5.4
2025-01-29 17:48:26.269385	154.5	32.8	-91.4	1.7
2025-01-29 17:48:27.430709	154.5	33.0	-91.3	2.1
2025-01-29 17:48:28.584804	154.5	33.2	-91.7	4.2
2025-01-29 17:48:29.749076	154.5	33.5	-91.5	4.2
2025-01-29 17:48:30.907403	154.5	33.7	-91.5	6.9
2025-01-29 17:48:32.075153	154.5	34.0	-91.1	8.5
2025-01-29 17:48:33.231878	154.6	34.2	-91.9	10.0
2025-01-29 17:48:34.394212	154.6	34.5	-91.9	8.7
2025-01-29 17:48:35.553359	154.6	34.7	-91.9	8.0
2025-01-29 17:48:36.719747	154.6	35.0	-92.3	6.6
2025-01-29 17:48:37.878976	154.6	35.3	-92.1	10.0
2025-01-29 17:48:39.037206	154.6	35.5	-91.9	13.2
2025-01-29 17:48:40.195316	154.7	35.8	-91.9	13.5
2025-01-29 17:48:41.357190	154.7	36.1	-91.9	10.2
2025-01-29 17:48:42.513120	154.7	36.3	-92.1	6.6
2025-01-29 17:48:43.676464	154.7	36.6	-92.0	2.6
2025-01-29 17:48:44.838277	154.7	36.9	-92.3	0.9
2025-01-29 17:48:46.017705	154.7	37.1	-91.7	3.1
2025-01-29 17:48:47.181669	154.8	37.4	-91.9	3.9
2025-01-29 17:48:48.339475	154.8	37.7	-91.5	7.6
2025-01-29 17:48:49.513269	154.8	38.0	-91.9	12.5
2025-01-29 17:48:50.669753	154.8	38.3	-91.8	15.0
2025-01-29 17:48:51.831991	154.8	38.6	-92.1	9.7
2025-01-29 17:48:52.988083	154.9	38.8	-91.7	7.3
2025-01-29 17:48:54.152824	154.9	39.1	-91.4	6.7
2025-01-29 17:48:55.313563	154.9	39.4	-91.7	6.5
2025-01-29 17:48:56.479522	154.9	39.7	-92.2	12.5
2025-01-29 17:48:57.636312	154.9	40.0	-91.9	14.3
2025-01-29 17:48:58.797866	155.0	40.3	-92.4	13.1
2025-01-29 17:48:59.959031	155.0	40.6	-92.1	8.8
2025-01-29 17:49:01.110504	155.0	40.9	-92.4	6.7
2025-01-29 17:49:02.276056	155.0	41.3	-92.0	1.8
2025-01-29 17:49:03.431352	155.0	41.6	-92.1	3.9
2025-01-29 17:49:04.594979	155.1	41.9	-92.3	2.8
2025-01-29 17:49:05.758068	155.1	42.2	-92.3	5.4
2025-01-29 17:49:06.922635	155.1	42.5	-92.1	9.1
2025-01-29 17:49:08.077204	155.1	42.8	-92.0	13.0
2025-01-29 17:49:09.238026	155.2	43.2	-91.9	13.6
2025-01-29 17:49:10.399076	155.2	43.5	-92.0	14.1
2025-01-29 17:49:11.560808	155.2	43.8	-92.2	10.7
2025-01-29 17:49:12.722778	155.2	44.2	-92.0	7.6
2025-01-29 17:49:13.892970	155.3	44.5	-91.8	8.6
2025-01-29 17:49:15.057365	155.3	44.8	-91.7	10.9
2025-01-29 17:49:16.218570	155.3	45.2	-91.7	13.3
2025-01-29 17:49:17.384805	155.3	45.5	-92.5	15.8
2025-01-29 17:49:18.535041	155.4	45.9	-92.6	15.5
2025-01-29 17:49:19.701746	155.4	46.2	-92.1	9.5
2025-01-29 17:49:20.855146	155.4	46.6	-92.3	5.6
2025-01-29 17:49:22.017773	155.5	46.9	-92.6	4.2
2025-01-29 17:49:23.177977	155.5	47.3	-92.3	2.2
2025-01-29 17:49:24.335328	155.5	47.7	-91.6	0.8
2025-01-29 17:49:25.497998	155.6	48.0	-92.0	8.8
2025-01-29 17:49:26.664947	155.6	48.4	-92.2	9.6
2025-01-29 17:49:27.802560	155.6	48.8	-92.3	13.3
2025-01-29 17:49:28.962963	155.7	49.2	-92.0	14.1
2025-01-29 17:49:30.124996	155.7	49.5	-91.9	14.2
2025-01-29 17:49:31.287376	155.7	49.9	-92.3	8.1
2025-01-29 17:49:32.441823	155.8	50.3	-91.2	10.2
2025-01-29 17:49:33.600402	155.8	50.7	-91.7	8.1
2025-01-29 17:49:34.761430	155.8	51.1	-91.5	4.5
2025-01-29 17:49:35.922180	155.9	51.5	-91.8	6.5
2025-01-29 17:49:37.081849	155.9	51.9	-92.6	9.7
2025-01-29 17:49:38.238280	155.9	52.3	-91.7	11.8
2025-01-29 17:49:39.398166	156.0	52.7	-92.0	12.5
2025-01-29 17:49:40.559961	156.0	53.1	-92.2	10.0
2025-01-29 17:49:41.717568	156.1	53.5	-92.2	7.1
2025-01-29 17:49:42.881583	156.1	53.9	-92.0	6.0
2025-01-29 17:49:44.042887	156.2	54.3	-92.1	5.9
2025-01-29 17:49:45.206663	156.2	54.8	-92.3	2.7
2025-01-29 17:49:46.367439	156.3	55.2	-92.4	5.2
2025-01-29 17:49:47.533574	156.3	55.6	-92.3	5.7
2025-01-29 17:49:48.690270	156.4	56.1	-92.3	8.3
2025-01-29 17:49:49.854328	156.4	56.5	-92.3	10.9
2025-01-29 17:49:51.010041	156.5	56.9	-92.2	9.8
2025-01-29 17:49:52.169364	156.5	57.4	-92.3	12.0
2025-01-29 17:49:53.336363	156.6	57.8	-92.3	10.3
2025-01-29 17:49:54.501537	156.6	58.3	-92.2	9.5
2025-01-29 17:49:55.663133	156.7	58.7	-92.3	3.6
2025-01-29 17:49:56.826104	156.8	59.2	-92.7	5.8
2025-01-29 17:49:57.984318	156.8	59.6	-92.3	10.3
2025-01-29 17:49:59.141376	156.9	60.1	-92.1	12.1
2025-01-29 17:50:00.304506	157.0	60.6	-92.0	12.0
2025-01-29 17:50:01.462591	157.0	61.0	-92.4	9.5
2025-01-29 17:50:02.629625	157.1	61.5	-92.3	8.9
2025-01-29 17:50:03.793959	157.2	62.0	-92.3	11.5
2025-01-29 17:50:04.957490	157.3	62.5	-92.5	13.0
2025-01-29 17:50:06.116856	157.3	63.0	-92.5	6.5
2025-01-29 17:50:07.278484	157.4	63.4	-92.2	3.3
2025-01-29 17:50:08.433784	157.5	63.9	-92.5	7.0
2025-01-29 17:50:09.595707	157.6	64.4	-92.5	5.9
2025-01-29 17:50:10.758369	157.7	64.9	-92.4	6.6
2025-01-29 17:50:11.922153	157.8	65.4	-92.4	6.8
2025-01-29 17:50:13.078212	157.9	65.9	-92.3	7.4
2025-01-29 17:50:14.242082	158.0	66.4	-91.9	11.0
2025-01-29 17:50:15.401996	158.1	66.9	-92.5	14.3
2025-01-29 17:50:16.560833	158.3	67.4	-92.3	14.1
2025-01-29 17:50:17.727909	158.4	68.0	-92.3	14.2
2025-01-29 17:50:18.886993	158.5	68.5	-92.3	13.9
2025-01-29 17:50:20.049213	158.7	69.0	-92.1	9.3
2025-01-29 17:50:21.211552	158.8	69.5	-92.0	10.4
2025-01-29 17:50:22.369423	159.0	70.1	-92.3	10.6
2025-01-29 17:50:23.532738	159.1	70.6	-92.1	14.1
2025-01-29 17:50:24.687017	159.3	71.1	-92.0	7.2
2025-01-29 17:50:25.848403	159.5	71.6	-92.0	7.6
2025-01-29 17:50:27.010893	159.7	72.2	-92.2	13.7
2025-01-29 17:50:28.174740	159.9	72.7	-92.3	10.2
2025-01-29 17:50:29.334658	160.1	73.3	-92.3	14.3
2025-01-29 17:50:30.502118	160.4	73.8	-92.2	17.2
2025-01-29 17:50:31.660306	160.6	74.4	-92.3	18.8
2025-01-29 17:50:32.824068	160.9	74.9	-92.1	18.2
2025-01-29 17:50:33.981560	161.2	75.4	-92.3	21.0
2025-01-29 17:50:35.147768	161.5	76.0	-91.6	20.0
2025-01-29 17:50:36.304833	161.8	76.6	-91.8	9.0
2025-01-29 17:50:37.463567	162.2	77.1	-91.4	6.4
2025-01-29 17:50:38.623362	162.6	77.7	-91.4	8.7
2025-01-29 17:50:39.791449	163.1	78.2	-91.3	5.7
2025-01-29 17:50:40.954794	163.6	78.8	-91.8	8.4
2025-01-29 17:50:42.118468	164.1	79.3	-92.1	5.1
2025-01-29 17:50:43.284108	164.7	79.9	-92.2	3.9
2025-01-29 17:50:44.447958	165.4	80.5	-92.4	6.6
2025-01-29 17:50:45.607049	166.2	81.0	-92.2	5.9
2025-01-29 17:50:46.769137	167.1	81.6	-92.1	6.0
2025-01-29 17:50:47.936148	168.1	82.2	-92.1	8.6
2025-01-29 17:50:49.090359	169.2	82.7	-92.1	9.6
2025-01-29 17:50:50.257577	170.6	83.3	-91.9	14.6
2025-01-29 17:50:51.420593	172.1	83.8	-91.9	17.8
2025-01-29 17:50:52.584881	174.0	84.4	-92.5	10.4
2025-01-29 17:50:53.748659	176.4	84.9	-92.6	21.0
2025-01-29 17:50:54.912104	179.2	85.4	-92.5	19.9
2025-01-29 17:50:56.070841	182.8	86.0	-92.2	22.1
2025-01-29 17:50:57.236251	187.4	86.5	-92.0	22.0
2025-01-29 17:50:58.395678	193.5	86.9	-92.0	20.7
2025-01-29 17:50:59.554181	201.6	87.3	-92.7	19.3
2025-01-29 17:51:00.710942	212.5	87.7	-92.6	16.4
2025-01-29 17:51:01.870326	226.5	87.9	-92.3	21.7
2025-01-29 17:51:03.038373	243.1	88.0	-92.3	20.2
2025-01-29 17:51:04.199512	259.7	87.9	-92.0	19.6
2025-01-29 17:51:05.361603	274.0	87.7	-92.2	18.1
2025-01-29 17:51:06.529338	285.1	87.4	-92.0	15.1
2025-01-29 17:51:07.685389	293.4	87.0	-92.0	13.5
2025-01-29 17:51:08.845163	299.5	86.5	-92.3	11.4
2025-01-29 17:51:10.008682	304.2	86.0	-91.8	14.6
2025-01-29 17:51:11.172776	307.9	85.5	-91.7	8.2
2025-01-29 17:51:12.331698	310.8	84.9	-92.1	8.3
2025-01-29 17:51:13.486402	313.1	84.4	-92.3	13.5
2025-01-29 17:51:14.646022	315.0	83.9	-92.1	10.0
2025-01-29 17:51:15.811667	316.6	83.3	-91.8	6.3
2025-01-29 17:51:16.973614	318.0	82.8	-91.7	12.9
2025-01-29 17:51:18.141362	319.2	82.2	-91.8	9.2
2025-01-29 17:51:19.300887	320.2	81.6	-92.0	8.5
2025-01-29 17:51:20.472152	321.0	81.1	-92.0	12.1
2025-01-29 17:51:21.634007	321.8	80.5	-92.0	12.0
2025-01-29 17:51:22.797796	322.5	79.9	-91.9	5.7
2025-01-29 17:51:23.960557	323.1	79.4	-91.8	11.5
2025-01-29 17:51:25.121076	323.7	78.8	-91.2	15.0
2025-01-29 17:51:26.284562	324.2	78.3	-91.4	5.3
2025-01-29 17:51:27.447959	324.6	77.7	-91.5	9.6
2025-01-29 17:51:28.606688	325.0	77.2	-91.1	12.1
2025-01-29 17:51:29.762888	325.4	76.6	-91.5	5.7
2025-01-29 17:51:30.906174	325.8	76.1	-91.2	6.2
2025-01-29 17:51:32.026442	326.1	75.5	-91.3	6.4
2025-01-29 17:51:33.146874	326.4	75.0	-91.6	7.4
2025-01-29 17:51:34.268094	326.6	74.5	-91.9	4.7
2025-01-29 17:51:35.388509	326.9	73.9	-91.9	6.2
2025-01-29 17:51:36.509322	327.1	73.4	-91.9	6.6
2025-01-29 17:51:37.630752	327.3	72.9	-92.1	7.2
2025-01-29 17:51:38.751054	327.5	72.4	-92.0	4.8
2025-01-29 17:51:39.872357	327.7	71.9	-92.2	2.1
2025-01-29 17:51:40.995746	327.9	71.3	-92.0	7.2
2025-01-29 17:51:42.120820	328.1	70.8	-92.0	8.0
2025-01-29 17:51:43.285407	328.2	70.3	-91.7	3.2
2025-01-29 17:51:44.435883	328.4	69.8	-92.2	3.4
2025-01-29 17:51:45.598601	328.6	69.3	-92.2	5.5
2025-01-29 17:51:46.745672	328.7	68.7	-92.2	3.6
2025-01-29 17:51:47.904821	328.8	68.2	-92.0	6.5
2025-01-29 17:51:49.060100	329.0	67.7	-92.1	6.8
2025-01-29 17:51:50.226569	329.1	67.2	-92.1	4.5
2025-01-29 17:51:51.387421	329.2	66.7	-91.9	5.2
2025-01-29 17:51:52.550596	329.3	66.2	-92.0	11.1
2025-01-29 17:51:53.709391	329.4	65.7	-92.2	4.9
2025-01-29 17:51:54.873156	329.5	65.2	-92.3	8.4
2025-01-29 17:51:56.028189	329.6	64.7	-92.1	10.2
2025-01-29 17:51:57.191615	329.7	64.2	-92.0	7.1
2025-01-29 17:51:58.357248	329.8	63.7	-91.7	7.3
2025-01-29 17:51:59.517234	329.9	63.2	-91.6	11.1
2025-01-29 17:52:00.677648	330.0	62.7	-92.3	11.0
2025-01-29 17:52:01.839598	330.1	62.3	-92.4	8.9
2025-01-29 17:52:03.000330	330.1	61.8	-92.4	8.7
2025-01-29 17:52:04.165315	330.2	61.3	-91.9	12.7
2025-01-29 17:52:05.324516	330.3	60.8	-91.9	14.3
2025-01-29 17:52:06.485910	330.4	60.4	-92.0	15.1
2025-01-29 17:52:07.647727	330.4	59.9	-92.1	10.8
2025-01-29 17:52:08.807558	330.5	59.5	-91.9	11.4
2025-01-29 17:52:09.969385	330.6	59.0	-92.1	14.1
2025-01-29 17:52:11.130067	330.6	58.5	-91.8	15.3
2025-01-29 17:52:12.292388	330.7	58.1	-92.0	12.3
2025-01-29 17:52:13.447647	330.7	57.6	-91.4	8.3
2025-01-29 17:52:14.607103	330.8	57.2	-91.9	8.8
2025-01-29 17:52:15.772989	330.9	56.8	-92.1	9.3
2025-01-29 17:52:16.921435	330.9	56.3	-92.0	11.7
2025-01-29 17:52:18.085998	331.0	55.9	-91.8	10.0
2025-01-29 17:52:19.247642	331.0	55.5	-91.9	3.8
2025-01-29 17:52:20.414367	331.1	55.0	-92.1	6.9
2025-01-29 17:52:21.576461	331.1	54.6	-91.7	9.2
2025-01-29 17:52:22.739625	331.1	54.2	-91.9	5.9
2025-01-29 17:52:23.906818	331.2	53.8	-92.0	5.7
2025-01-29 17:52:25.069965	331.2	53.4	-92.0	7.4
2025-01-29 17:52:26.231829	331.3	53.0	-91.9	2.3
2025-01-29 17:52:27.395639	331.3	52.6	-91.8	7.1
2025-01-29 17:52:28.559979	331.4	52.2	-91.7	9.6
2025-01-29 17:52:29.722798	331.4	51.8	-91.8	6.2
2025-01-29 17:52:30.888509	331.4	51.4	-91.8	5.9
2025-01-29 17:52:32.045795	331.5	51.0	-92.0	11.3
2025-01-29 17:52:33.204737	331.5	50.6	-91.3	11.3
2025-01-29 17:52:34.371244	331.6	50.2	-91.2	9.1
2025-01-29 17:52:35.527051	331.6	49.8	-91.2	9.9
2025-01-29 17:52:36.690587	331.6	49.4	-92.1	10.8
2025-01-29 17:52:37.858483	331.7	49.0	-92.1	12.8
2025-01-29 17:52:39.015995	331.7	48.7	-92.2	11.4
2025-01-29 17:52:40.179477	331.7	48.3	-92.1	13.0
2025-01-29 17:52:41.341790	331.8	47.9	-92.2	10.0
2025-01-29 17:52:42.497590	331.8	47.6	-92.2	8.7
2025-01-29 17:52:43.661990	331.8	47.2	-92.1	10.4
2025-01-29 17:52:44.820682	331.8	46.9	-92.3	7.0
2025-01-29 17:52:45.986723	331.9	46.5	-92.1	8.6
2025-01-29 17:52:47.149638	331.9	46.1	-92.1	8.8
2025-01-29 17:52:48.312002	331.9	45.8	-91.9	5.0
2025-01-29 17:52:49.471491	332.0	45.5	-91.9	7.9
2025-01-29 17:52:50.629582	332.0	45.1	-91.9	5.0
2025-01-29 17:52:51.793912	332.0	44.8	-91.8	7.2
2025-01-29 17:52:52.960735	332.0	44.4	-92.3	10.9
2025-01-29 17:52:54.125100	332.1	44.1	-92.1	10.8
2025-01-29 17:52:55.285417	332.1	43.8	-92.0	14.1
2025-01-29 17:52:56.446987	332.1	43.4	-92.2	16.2
2025-01-29 17:52:57.610000	332.1	43.1	-92.0	18.5
2025-01-29 17:52:58.774228	332.2	42.8	-91.9	17.4
2025-01-29 17:52:59.927776	332.2	42.5	-92.3	12.0
2025-01-29 17:53:01.084799	332.2	42.2	-92.1	12.8
2025-01-29 17:53:02.235356	332.2	41.8	-92.1	18.0
2025-01-29 17:53:03.399758	332.3	41.5	-92.4	15.2
2025-01-29 17:53:04.563414	332.3	41.2	-92.1	12.2
2025-01-29 17:53:05.723927	332.3	40.9	-92.1	7.6
2025-01-29 17:53:06.883923	332.3	40.6	-92.1	6.6
2025-01-29 17:53:08.046543	332.4	40.3	-92.1	10.1
2025-01-29 17:53:09.202316	332.4	40.0	-92.0	4.4
2025-01-29 17:53:10.355358	332.4	39.7	-92.4	6.4
2025-01-29 17:53:11.519062	332.4	39.4	-91.6	10.5
2025-01-29 17:53:12.682819	332.4	39.1	-92.2	7.5
2025-01-29 17:53:13.846589	332.5	38.8	-91.9	12.4
2025-01-29 17:53:15.008746	332.5	38.6	-92.0	11.1
2025-01-29 17:53:16.174906	332.5	38.3	-92.0	10.7
2025-01-29 17:53:17.334244	332.5	38.0	-92.2	12.7
2025-01-29 17:53:18.492647	332.5	37.7	-92.0	13.0
2025-01-29 17:53:19.650779	332.6	37.4	-92.0	8.6
2025-01-29 17:53:20.814385	332.6	37.2	-92.2	4.8
2025-01-29 17:53:21.975453	332.6	36.9	-92.4	6.0
2025-01-29 17:53:23.134688	332.6	36.6	-92.4	1.7
2025-01-29 17:53:24.299163	332.6	36.3	-92.3	2.3
2025-01-29 17:53:25.461739	332.6	36.1	-92.5	1.9
2025-01-29 17:53:26.628309	332.7	35.8	-92.5	5.0
2025-01-29 17:53:27.792144	332.7	35.5	-92.5	4.0
2025-01-29 17:53:28.957362	332.7	35.3	-92.4	8.2
2025-01-29 17:53:30.114189	332.7	35.0	-91.9	9.7
2025-01-29 17:53:31.278370	332.7	34.8	-92.0	6.2
2025-01-29 17:53:32.431312	332.7	34.5	-92.2	10.0
2025-01-29 17:53:33.592356	332.8	34.3	-92.2	8.3
2025-01-29 17:53:34.755669	332.8	34.0	-92.2	9.7
2025-01-29 17:53:35.918086	332.8	33.8	-91.9	7.2
2025-01-29 17:53:37.080720	332.8	33.5	-91.3	10.6
2025-01-29 17:53:38.247770	332.8	33.3	-91.3	2.7
2025-01-29 17:53:39.418035	332.8	33.0	-91.8	7.1
2025-01-29 17:53:40.582081	332.9	32.8	-91.8	5.9
2025-01-29 17:53:41.745598	332.9	32.6	-92.4	6.1
2025-01-29 17:53:42.904226	332.9	32.3	-92.6	8.0
2025-01-29 17:53:44.070409	332.9	32.1	-92.2	9.4
2025-01-29 17:53:45.238319	332.9	31.9	-92.1	4.3
2025-01-29 17:53:46.403685	332.9	31.6	-92.3	8.3
2025-01-29 17:53:47.564099	332.9	31.4	-92.4	9.5
2025-01-29 17:53:48.727319	333.0	31.2	-92.4	15.6
2025-01-29 17:53:49.892635	333.0	30.9	-92.2	13.0
2025-01-29 17:53:51.053100	333.0	30.7	-92.4	12.7
2025-01-29 17:53:52.220440	333.0	30.5	-92.0	6.9
2025-01-29 17:53:53.380585	333.0	30.3	-92.1	5.8
2025-01-29 17:53:54.544159	333.0	30.1	-92.1	5.6
2025-01-29 17:53:55.711259	333.0	29.8	-92.5	4.5
2025-01-29 17:53:56.873632	333.1	29.6	-92.6	3.3
2025-01-29 17:53:58.037607	333.1	29.4	-92.7	3.0
2025-01-29 17:53:59.198560	333.1	29.2	-92.6	3.5
2025-01-29 17:54:00.359524	333.1	29.0	-92.5	5.0
2025-01-29 17:54:01.523255	333.1	28.8	-92.5	8.6
2025-01-29 17:54:02.686838	333.1	28.6	-92.5	4.8
2025-01-29 17:54:03.851711	333.1	28.4	-92.5	3.7
2025-01-29 17:54:05.013221	333.1	28.2	-92.6	3.7
2025-01-29 17:54:06.176134	333.2	28.0	-92.6	5.2
2025-01-29 17:54:07.335559	333.2	27.8	-92.5	4.5
2025-01-29 17:54:08.496072	333.2	27.6	-92.4	6.9
2025-01-29 17:54:09.662781	333.2	27.4	-92.4	3.4
2025-01-29 17:54:10.831955	333.2	27.2	-92.2	1.1
2025-01-29 17:54:11.992130	333.2	27.0	-92.1	1.9
2025-01-29 17:54:13.156923	333.2	26.8	-92.1	2.6
2025-01-29 17:54:14.316710	333.2	26.6	-92.4	1.3
2025-01-29 17:54:15.478003	333.3	26.4	-92.4	5.9
2025-01-29 17:54:16.641713	333.3	26.2	-92.3	5.4
2025-01-29 17:54:17.802151	333.3	26.0	-92.5	6.5
2025-01-29 17:54:18.965836	333.3	25.8	-92.3	7.8
2025-01-29 17:54:20.124293	333.3	25.6	-92.1	1.7
2025-01-29 17:54:21.287823	333.3	25.5	-91.7	9.5
2025-01-29 17:54:22.450535	333.3	25.3	-92.2	4.8
2025-01-29 17:54:23.612220	333.3	25.1	-92.3	4.4
2025-01-29 17:54:24.768859	333.3	24.9	-92.1	1.1
2025-01-29 17:54:25.928080	333.4	24.7	-92.2	3.5
2025-01-29 17:54:27.091760	333.4	24.6	-92.1	2.1
2025-01-29 17:54:28.253816	333.4	24.4	-92.4	2.5
2025-01-29 17:54:29.411615	333.4	24.2	-92.7	2.1
2025-01-29 17:54:30.571004	333.4	24.0	-92.3	3.9
2025-01-29 17:54:31.740068	333.4	23.8	-92.8	8.3
2025-01-29 17:54:32.898203	333.4	23.7	-92.5	5.7
2025-01-29 17:54:34.062272	333.4	23.5	-92.3	8.4
2025-01-29 17:54:35.226750	333.4	23.3	-92.1	8.1
2025-01-29 17:54:36.386853	333.5	23.2	-92.3	6.1
2025-01-29 17:54:37.557940	333.5	23.0	-92.0	10.9
2025-01-29 17:54:38.721045	333.5	22.8	-92.1	5.2
2025-01-29 17:54:39.880492	333.5	22.7	-92.5	4.8
2025-01-29 17:54:41.046780	333.5	22.5	-91.8	3.9
2025-01-29 17:54:42.206832	333.5	22.3	-91.6	3.5
2025-01-29 17:54:43.366487	333.5	22.2	-91.4	3.4
2025-01-29 17:54:44.529724	333.5	22.0	-91.8	7.2
2025-01-29 17:54:45.691263	333.5	21.8	-92.8	4.4
2025-01-29 17:54:46.855733	333.6	21.7	-92.6	9.1
2025-01-29 17:54:48.014864	333.6	21.5	-92.4	9.1
2025-01-29 17:54:49.179520	333.6	21.4	-92.4	6.5
2025-01-29 17:54:50.333032	333.6	21.2	-92.2	2.8
2025-01-29 17:54:51.495935	333.6	21.1	-92.5	1.4
2025-01-29 17:54:52.660539	333.6	20.9	-92.1	0.9
2025-01-29 17:54:53.826759	333.6	20.7	-92.1	0.3
2025-01-29 17:54:54.986636	333.6	20.6	-92.3	2.5
2025-01-29 17:54:56.142014	333.6	20.4	-92.2	3.2
2025-01-29 17:54:57.306821	333.6	20.3	-92.3	2.4
2025-01-29 17:54:58.473936	333.6	20.1	-92.3	0.9
2025-01-29 17:54:59.635042	333.7	20.0	-92.4	3.1
2025-01-29 17:55:00.786971	333.7	19.8	-92.4	2.8
2025-01-29 17:55:01.949842	333.7	19.7	-92.6	2.4
2025-01-29 17:55:03.110379	333.7	19.5	-92.4	3.2
2025-01-29 17:55:04.271953	333.7	19.4	-92.2	0.3
2025-01-29 17:55:05.429372	333.7	19.3	-92.3	1.2
2025-01-29 17:55:06.593151	333.7	19.1	-92.4	2.0
2025-01-29 17:55:07.756201	333.7	19.0	-92.5	1.5
2025-01-29 17:55:08.919710	333.7	18.8	-92.4	3.1
2025-01-29 17:55:10.073174	333.7	18.7	-92.5	1.4
2025-01-29 17:55:11.235968	333.8	18.5	-92.4	1.3
2025-01-29 17:55:12.500040	333.8	18.4	-92.5	2.4
2025-01-29 17:55:13.665112	333.8	18.3	-92.5	3.7
2025-01-29 17:55:14.830517	333.8	18.1	-92.4	2.1
2025-01-29 17:55:15.993971	333.8	18.0	-92.2	2.8
2025-01-29 17:55:17.156825	333.8	17.8	-92.1	2.0
2025-01-29 17:55:18.311147	333.8	17.7	-92.3	2.6
2025-01-29 17:55:19.478276	333.8	17.6	-92.2	1.0
2025-01-29 17:55:20.635555	333.8	17.4	-92.2	3.3
2025-01-29 17:55:21.802516	333.8	17.3	-92.5	2.5
2025-01-29 17:55:22.962343	333.8	17.2	-92.2	2.0
2025-01-29 17:55:24.119854	333.8	17.0	-92.1	2.4
2025-01-29 17:55:25.279193	333.9	16.9	-92.0	2.4
2025-01-29 17:55:26.446422	333.9	16.8	-92.7	2.1
2025-01-29 17:55:27.610290	333.9	16.6	-92.5	1.4
2025-01-29 17:55:28.778198	333.9	16.5	-92.7	4.2
2025-01-29 17:55:29.935515	333.9	16.4	-92.3	3.1
2025-01-29 17:55:31.089282	333.9	16.3	-92.2	5.0
2025-01-29 17:55:32.245354	333.9	16.1	-92.5	1.5
2025-01-29 17:55:33.408147	333.9	16.0	-92.4	2.6
2025-01-29 17:55:34.569002	333.9	15.9	-92.6	3.8
2025-01-29 17:55:35.728280	333.9	15.7	-92.7	2.6
2025-01-29 17:55:36.885528	333.9	15.6	-92.5	5.2
2025-01-29 17:55:38.047481	334.0	15.5	-92.7	6.5
2025-01-29 17:55:39.206801	334.0	15.4	-92.5	4.5
2025-01-29 17:55:40.360591	334.0	15.3	-92.4	5.9
2025-01-29 17:55:41.525858	334.0	15.1	-92.7	3.6
2025-01-29 17:55:42.689268	334.0	15.0	-92.5	1.0
2025-01-29 17:55:43.851858	334.0	14.9	-92.5	2.4
2025-01-29 17:55:45.008505	334.0	14.8	-91.8	2.4
2025-01-29 17:55:46.170612	334.0	14.6	-91.5	0.8
2025-01-29 17:55:47.324610	334.0	14.5	-91.8	2.6
#Closed at: 2025-01-29 17:46:30.875964