passes_logs/2025/01/29/LEX_Murmansk/LEX_Murmansk__20250129_180836_NOAA_18_rec.log

#Pass ID: 20250129_180836_NOAA 18
#Satellite: NOAA 18
#Configuration: NOAA 18
#Start time: 2025-01-29 18:08:31.328729

#LorettStation: 1.0.0 05.05.2024
#Station: LEX_Murmansk
#Location: 33.156738 lon 68.926811 lat
#TLE: 1 28654U 05018A   25029.10768076  .00000445  00000+0  25948-3 0  9995
#TLE: 2 28654  98.8544 110.0207 0014928 140.4380 219.7885 14.13500636 15173

#Time	Az	El	Level	SNR
2025-01-29 18:08:43.462305	129.6	16.3	-92.2	11.4
2025-01-29 18:08:44.620650	129.6	16.4	-91.9	11.4
2025-01-29 18:08:45.773794	129.5	16.5	-92.2	11.9
2025-01-29 18:08:46.925176	129.4	16.7	-92.2	12.4
2025-01-29 18:08:48.080706	129.4	16.8	-92.1	9.3
2025-01-29 18:08:49.238201	129.3	16.9	-91.9	8.8
2025-01-29 18:08:50.393729	129.3	17.1	-91.6	6.6
2025-01-29 18:08:51.548629	129.2	17.2	-92.3	4.8
2025-01-29 18:08:52.708866	129.2	17.3	-92.2	12.1
2025-01-29 18:08:53.867668	129.1	17.4	-92.1	12.6
2025-01-29 18:08:55.022593	129.1	17.6	-92.0	14.2
2025-01-29 18:08:56.174069	129.0	17.7	-92.0	14.9
2025-01-29 18:08:57.333061	128.9	17.8	-92.0	13.5
2025-01-29 18:08:58.485645	128.9	18.0	-92.1	12.4
2025-01-29 18:08:59.644574	128.8	18.1	-92.2	15.7
2025-01-29 18:09:00.807036	128.8	18.2	-92.2	15.8
2025-01-29 18:09:01.974165	128.7	18.4	-91.8	16.9
2025-01-29 18:09:03.125797	128.7	18.5	-92.0	15.0
2025-01-29 18:09:04.282872	128.6	18.7	-91.9	14.4
2025-01-29 18:09:05.436923	128.5	18.8	-92.1	7.4
2025-01-29 18:09:06.600915	128.5	18.9	-92.2	9.8
2025-01-29 18:09:07.751229	128.4	19.1	-92.6	14.9
2025-01-29 18:09:08.909383	128.3	19.2	-92.4	10.7
2025-01-29 18:09:10.067728	128.3	19.4	-92.1	13.6
2025-01-29 18:09:11.216875	128.2	19.5	-92.1	16.1
2025-01-29 18:09:12.368330	128.1	19.6	-92.2	14.8
2025-01-29 18:09:13.522965	128.1	19.8	-92.2	14.1
2025-01-29 18:09:14.680196	128.0	19.9	-92.4	15.0
2025-01-29 18:09:15.846348	127.9	20.1	-92.2	11.3
2025-01-29 18:09:17.006057	127.9	20.2	-92.3	14.1
2025-01-29 18:09:18.158244	127.8	20.4	-92.0	13.4
2025-01-29 18:09:19.295416	127.7	20.5	-91.9	12.5
2025-01-29 18:09:20.458042	127.7	20.7	-92.0	8.3
2025-01-29 18:09:21.609100	127.6	20.8	-92.0	11.3
2025-01-29 18:09:22.766219	127.5	21.0	-92.1	12.5
2025-01-29 18:09:23.918394	127.5	21.1	-92.4	6.9
2025-01-29 18:09:25.066396	127.4	21.3	-92.3	9.2
2025-01-29 18:09:26.240039	127.3	21.4	-92.0	11.8
2025-01-29 18:09:27.390679	127.2	21.6	-92.4	11.6
2025-01-29 18:09:28.534948	127.2	21.7	-92.4	12.9
2025-01-29 18:09:29.685978	127.1	21.9	-91.3	10.4
2025-01-29 18:09:30.843900	127.0	22.0	-91.4	8.4
2025-01-29 18:09:31.998192	126.9	22.2	-91.4	9.2
2025-01-29 18:09:33.155251	126.9	22.3	-91.0	10.0
2025-01-29 18:09:34.307340	126.8	22.5	-92.0	12.4
2025-01-29 18:09:35.457279	126.7	22.7	-91.9	11.6
2025-01-29 18:09:36.608140	126.6	22.8	-92.3	11.2
2025-01-29 18:09:37.771702	126.5	23.0	-92.5	12.4
2025-01-29 18:09:38.928083	126.4	23.1	-92.2	6.7
2025-01-29 18:09:40.084438	126.4	23.3	-91.9	8.0
2025-01-29 18:09:41.241877	126.3	23.5	-92.2	13.1
2025-01-29 18:09:42.399630	126.2	23.6	-92.0	11.0
2025-01-29 18:09:43.544287	126.1	23.8	-92.3	13.7
2025-01-29 18:09:44.692870	126.0	24.0	-92.6	14.4
2025-01-29 18:09:45.856580	125.9	24.1	-92.4	11.6
2025-01-29 18:09:47.013264	125.8	24.3	-92.5	13.3
2025-01-29 18:09:48.171217	125.8	24.5	-92.1	12.3
2025-01-29 18:09:49.326584	125.7	24.6	-92.2	11.6
2025-01-29 18:09:50.487764	125.6	24.8	-92.5	14.7
2025-01-29 18:09:51.636949	125.5	25.0	-92.2	13.0
2025-01-29 18:09:52.792616	125.4	25.2	-92.2	9.0
2025-01-29 18:09:53.944985	125.3	25.3	-92.3	3.1
2025-01-29 18:09:55.105161	125.2	25.5	-91.9	5.4
2025-01-29 18:09:56.262402	125.1	25.7	-92.2	4.5
2025-01-29 18:09:57.417231	125.0	25.9	-92.2	3.5
2025-01-29 18:09:58.563277	124.9	26.0	-92.5	3.3
2025-01-29 18:09:59.714915	124.8	26.2	-92.3	5.4
2025-01-29 18:10:00.850506	124.7	26.4	-92.3	4.6
2025-01-29 18:10:01.996010	124.6	26.6	-92.0	3.8
2025-01-29 18:10:03.151877	124.5	26.8	-91.9	3.2
2025-01-29 18:10:04.307171	124.4	27.0	-91.8	5.2
2025-01-29 18:10:05.470918	124.3	27.1	-92.4	5.8
2025-01-29 18:10:06.621153	124.2	27.3	-92.1	6.5
2025-01-29 18:10:07.778773	124.1	27.5	-92.4	4.8
2025-01-29 18:10:08.939139	123.9	27.7	-92.4	3.1
2025-01-29 18:10:10.089303	123.8	27.9	-92.4	5.1
2025-01-29 18:10:11.241831	123.7	28.1	-92.3	3.8
2025-01-29 18:10:12.397741	123.6	28.3	-92.3	4.1
2025-01-29 18:10:13.547716	123.5	28.5	-92.3	4.4
2025-01-29 18:10:14.703320	123.4	28.7	-92.1	6.9
2025-01-29 18:10:15.855654	123.2	28.9	-92.4	8.3
2025-01-29 18:10:17.197962	123.1	29.1	-91.9	10.0
2025-01-29 18:10:18.355867	123.0	29.3	-90.6	12.6
2025-01-29 18:10:19.508177	122.9	29.5	-90.7	10.4
2025-01-29 18:10:20.663026	122.7	29.7	-91.5	11.3
2025-01-29 18:10:21.820971	122.6	29.9	-91.1	10.5
2025-01-29 18:10:22.973086	122.5	30.1	-91.2	7.2
2025-01-29 18:10:24.120187	122.3	30.3	-90.9	7.7
2025-01-29 18:10:25.277408	122.2	30.5	-92.2	9.1
2025-01-29 18:10:26.428217	122.1	30.7	-92.6	6.7
2025-01-29 18:10:27.589525	121.9	30.9	-92.4	7.5
2025-01-29 18:10:28.743317	121.8	31.1	-92.6	8.3
2025-01-29 18:10:29.906676	121.7	31.4	-92.7	4.9
2025-01-29 18:10:31.062676	121.5	31.6	-92.3	5.0
2025-01-29 18:10:32.214518	121.4	31.8	-92.4	11.4
2025-01-29 18:10:33.368287	121.2	32.0	-92.1	9.4
2025-01-29 18:10:34.519291	121.1	32.2	-92.6	13.6
2025-01-29 18:10:35.679502	120.9	32.4	-92.6	14.1
2025-01-29 18:10:36.833362	120.8	32.7	-92.5	12.9
2025-01-29 18:10:37.985759	120.6	32.9	-92.6	13.9
2025-01-29 18:10:39.139849	120.5	33.1	-92.4	16.7
2025-01-29 18:10:40.307158	120.3	33.3	-92.1	14.4
2025-01-29 18:10:41.464286	120.1	33.6	-92.8	10.8
2025-01-29 18:10:42.635952	120.0	33.8	-92.3	12.2
2025-01-29 18:10:43.788726	119.8	34.0	-92.5	11.3
2025-01-29 18:10:44.938227	119.6	34.2	-92.4	11.9
2025-01-29 18:10:46.102531	119.5	34.5	-92.1	11.0
2025-01-29 18:10:47.246505	119.3	34.7	-92.0	9.5
2025-01-29 18:10:48.398592	119.1	34.9	-92.3	5.9
2025-01-29 18:10:49.558185	118.9	35.2	-92.5	4.4
2025-01-29 18:10:50.713584	118.8	35.4	-92.4	15.2
2025-01-29 18:10:51.870380	118.6	35.6	-92.5	10.5
2025-01-29 18:10:53.030852	118.4	35.9	-92.2	12.1
2025-01-29 18:10:54.178383	118.2	36.1	-92.5	12.8
2025-01-29 18:10:55.320429	118.0	36.4	-91.9	15.5
2025-01-29 18:10:56.479276	117.8	36.6	-92.2	13.4
2025-01-29 18:10:57.633178	117.6	36.9	-92.3	13.0
2025-01-29 18:10:58.790987	117.4	37.1	-91.9	10.6
2025-01-29 18:10:59.937956	117.2	37.4	-92.5	7.1
2025-01-29 18:11:01.091950	117.0	37.6	-92.4	11.3
2025-01-29 18:11:02.240781	116.8	37.9	-91.9	14.5
2025-01-29 18:11:03.394458	116.6	38.1	-91.9	16.0
2025-01-29 18:11:04.550226	116.4	38.4	-92.3	12.5
2025-01-29 18:11:05.704809	116.2	38.6	-92.3	15.1
2025-01-29 18:11:06.854191	115.9	38.9	-92.5	11.4
2025-01-29 18:11:08.005685	115.7	39.1	-92.6	8.9
2025-01-29 18:11:09.162098	115.5	39.4	-92.2	18.1
2025-01-29 18:11:10.318102	115.2	39.7	-91.8	14.4
2025-01-29 18:11:11.479932	115.0	39.9	-92.4	10.3
2025-01-29 18:11:12.634728	114.8	40.2	-92.7	13.0
2025-01-29 18:11:13.790636	114.5	40.4	-92.2	17.7
2025-01-29 18:11:14.946500	114.3	40.7	-92.2	14.8
2025-01-29 18:11:16.101426	114.0	41.0	-92.1	10.9
2025-01-29 18:11:17.261266	113.7	41.3	-92.1	16.1
2025-01-29 18:11:18.421411	113.5	41.5	-91.8	11.1
2025-01-29 18:11:19.578702	113.2	41.8	-92.0	14.3
2025-01-29 18:11:20.736675	112.9	42.1	-92.2	16.5
2025-01-29 18:11:21.898506	112.6	42.3	-92.1	19.7
2025-01-29 18:11:23.055671	112.4	42.6	-91.9	14.6
2025-01-29 18:11:24.211851	112.1	42.9	-92.2	18.0
2025-01-29 18:11:25.367316	111.8	43.2	-91.2	13.2
2025-01-29 18:11:26.513946	111.5	43.5	-91.1	9.0
2025-01-29 18:11:27.668412	111.2	43.7	-90.6	13.1
2025-01-29 18:11:28.822955	110.9	44.0	-91.1	13.8
2025-01-29 18:11:29.980417	110.6	44.3	-92.1	8.0
2025-01-29 18:11:31.138889	110.2	44.6	-92.1	13.6
2025-01-29 18:11:32.294037	109.9	44.9	-91.8	14.9
2025-01-29 18:11:33.444136	109.6	45.2	-92.6	12.4
2025-01-29 18:11:34.603438	109.2	45.4	-92.6	21.1
2025-01-29 18:11:35.757765	108.9	45.7	-92.3	11.7
2025-01-29 18:11:36.905998	108.5	46.0	-92.6	13.2
2025-01-29 18:11:38.066157	108.2	46.3	-92.3	8.0
2025-01-29 18:11:39.221741	107.8	46.6	-91.9	10.6
2025-01-29 18:11:40.376511	107.5	46.9	-91.4	11.0
2025-01-29 18:11:41.527562	107.1	47.2	-92.3	6.9
2025-01-29 18:11:42.689672	106.7	47.5	-92.2	15.5
2025-01-29 18:11:43.841436	106.3	47.8	-92.3	9.6
2025-01-29 18:11:44.997374	105.9	48.1	-92.3	19.8
2025-01-29 18:11:46.148208	105.5	48.3	-92.2	14.1
2025-01-29 18:11:47.304226	105.1	48.6	-92.4	10.7
2025-01-29 18:11:48.455378	104.7	48.9	-92.0	5.1
2025-01-29 18:11:49.615666	104.2	49.2	-92.6	10.8
2025-01-29 18:11:50.771837	103.8	49.5	-92.6	8.0
2025-01-29 18:11:51.930594	103.3	49.8	-92.3	5.5
2025-01-29 18:11:53.080299	102.9	50.1	-92.3	6.6
2025-01-29 18:11:54.230998	102.4	50.4	-92.3	6.8
2025-01-29 18:11:55.380621	101.9	50.7	-92.3	2.4
2025-01-29 18:11:56.539581	101.4	51.0	-92.4	7.4
2025-01-29 18:11:57.696159	100.9	51.3	-92.4	9.1
2025-01-29 18:11:58.849689	100.4	51.6	-92.0	8.9
2025-01-29 18:12:00.007336	99.9	51.9	-92.3	17.6
2025-01-29 18:12:01.166367	99.4	52.2	-92.0	12.9
2025-01-29 18:12:02.315536	98.9	52.5	-92.1	14.4
2025-01-29 18:12:03.467673	98.3	52.7	-92.5	11.5
2025-01-29 18:12:04.621375	97.8	53.0	-92.2	12.1
2025-01-29 18:12:05.778697	97.2	53.3	-92.6	17.1
2025-01-29 18:12:06.933471	96.6	53.6	-92.3	12.4
2025-01-29 18:12:08.088309	96.0	53.9	-92.0	5.5
2025-01-29 18:12:09.245046	95.4	54.2	-92.0	13.6
2025-01-29 18:12:10.394168	94.8	54.5	-92.3	10.8
2025-01-29 18:12:11.552359	94.2	54.7	-92.0	20.4
2025-01-29 18:12:12.707113	93.5	55.0	-92.3	18.8
2025-01-29 18:12:13.864151	92.9	55.3	-92.3	14.5
2025-01-29 18:12:15.015458	92.2	55.6	-92.4	11.7
2025-01-29 18:12:16.171936	91.5	55.8	-92.4	14.6
2025-01-29 18:12:17.330129	90.8	56.1	-92.4	8.6
2025-01-29 18:12:18.480705	90.1	56.4	-92.4	12.6
2025-01-29 18:12:19.633471	89.4	56.6	-92.3	16.1
2025-01-29 18:12:20.798793	88.7	56.9	-92.3	17.4
2025-01-29 18:12:21.954751	87.9	57.1	-92.4	8.5
2025-01-29 18:12:23.124119	87.2	57.4	-92.4	11.3
2025-01-29 18:12:24.274160	86.4	57.6	-92.0	13.1
2025-01-29 18:12:25.434851	85.6	57.9	-92.4	8.5
2025-01-29 18:12:26.589107	84.8	58.1	-92.7	15.4
2025-01-29 18:12:27.746376	84.0	58.4	-92.4	19.5
2025-01-29 18:12:28.899048	83.1	58.6	-92.0	18.4
2025-01-29 18:12:30.053148	82.3	58.8	-91.0	15.5
2025-01-29 18:12:31.210278	81.4	59.0	-90.6	15.9
2025-01-29 18:12:32.366844	80.6	59.2	-91.5	17.6
2025-01-29 18:12:33.529030	79.7	59.5	-91.9	10.1
2025-01-29 18:12:34.681384	78.8	59.7	-92.7	20.6
2025-01-29 18:12:35.843885	77.8	59.9	-91.7	18.1
2025-01-29 18:12:37.006038	76.9	60.1	-91.5	11.0
2025-01-29 18:12:38.161722	76.0	60.2	-91.5	21.5
2025-01-29 18:12:39.323025	75.0	60.4	-91.4	16.9
2025-01-29 18:12:40.481083	74.0	60.6	-91.7	14.3
2025-01-29 18:12:41.639973	73.0	60.8	-91.6	17.9
2025-01-29 18:12:42.789543	72.0	60.9	-92.5	16.8
2025-01-29 18:12:43.949709	71.0	61.1	-92.6	12.9
2025-01-29 18:12:45.099694	70.0	61.2	-92.0	18.9
2025-01-29 18:12:46.251692	69.0	61.3	-92.3	21.6
2025-01-29 18:12:47.401656	67.9	61.5	-92.7	20.8
2025-01-29 18:12:48.553869	66.9	61.6	-92.8	20.1
2025-01-29 18:12:49.716158	65.8	61.7	-92.5	18.1
2025-01-29 18:12:50.872872	64.7	61.8	-92.9	18.5
2025-01-29 18:12:52.025152	63.6	61.9	-92.6	20.3
2025-01-29 18:12:53.181548	62.5	62.0	-92.6	18.5
2025-01-29 18:12:54.334850	61.4	62.0	-92.0	18.4
2025-01-29 18:12:55.488902	60.3	62.1	-92.2	18.9
2025-01-29 18:12:56.643692	59.2	62.2	-92.5	18.5
2025-01-29 18:12:57.802023	58.1	62.2	-92.3	19.4
2025-01-29 18:12:58.962468	57.0	62.2	-92.6	12.1
2025-01-29 18:13:00.115442	55.9	62.3	-92.2	18.0
2025-01-29 18:13:01.270042	54.7	62.3	-92.6	16.3
2025-01-29 18:13:02.420082	53.6	62.3	-92.0	9.8
2025-01-29 18:13:03.577137	52.5	62.3	-92.3	8.2
2025-01-29 18:13:04.734493	51.4	62.3	-92.7	19.3
2025-01-29 18:13:05.895495	50.2	62.3	-92.7	9.2
2025-01-29 18:13:07.050163	49.1	62.2	-91.8	10.9
2025-01-29 18:13:08.211187	48.0	62.2	-92.0	18.6
2025-01-29 18:13:09.372241	46.9	62.2	-92.3	10.4
2025-01-29 18:13:10.525370	45.8	62.1	-92.3	9.6
2025-01-29 18:13:11.646861	44.7	62.0	-92.5	16.5
2025-01-29 18:13:12.804715	43.6	62.0	-92.4	13.9
2025-01-29 18:13:13.946269	42.5	61.9	-92.4	12.6
2025-01-29 18:13:15.111738	41.4	61.8	-91.9	20.8
2025-01-29 18:13:16.270655	40.3	61.7	-92.0	18.4
2025-01-29 18:13:17.427019	39.3	61.6	-92.4	13.0
2025-01-29 18:13:18.581853	38.2	61.5	-92.2	14.2
2025-01-29 18:13:19.737399	37.2	61.3	-92.0	16.2
2025-01-29 18:13:20.882115	36.1	61.2	-92.0	12.3
2025-01-29 18:13:22.037417	35.1	61.1	-92.1	12.5
2025-01-29 18:13:23.195067	34.1	60.9	-91.7	16.3
2025-01-29 18:13:24.348753	33.1	60.8	-91.9	13.8
2025-01-29 18:13:25.510729	32.1	60.6	-92.1	12.1
2025-01-29 18:13:26.659194	31.1	60.4	-91.7	13.8
2025-01-29 18:13:27.812122	30.2	60.3	-92.3	17.2
2025-01-29 18:13:28.962088	29.2	60.1	-92.3	12.8
2025-01-29 18:13:30.120100	28.3	59.9	-92.1	14.1
2025-01-29 18:13:31.275927	27.4	59.7	-92.0	11.7
2025-01-29 18:13:32.426078	26.5	59.5	-92.4	6.0
2025-01-29 18:13:33.579224	25.6	59.3	-92.5	9.6
2025-01-29 18:13:34.738126	24.7	59.1	-92.4	11.1
2025-01-29 18:13:35.888377	23.8	58.8	-92.5	8.7
2025-01-29 18:13:37.045652	23.0	58.6	-92.3	8.6
2025-01-29 18:13:38.194919	22.2	58.4	-92.2	6.8
2025-01-29 18:13:39.346571	21.3	58.2	-92.4	9.1
2025-01-29 18:13:40.501804	20.5	57.9	-92.4	9.9
2025-01-29 18:13:41.654962	19.7	57.7	-92.6	14.7
2025-01-29 18:13:42.810973	19.0	57.4	-91.2	10.5
2025-01-29 18:13:43.966591	18.2	57.2	-91.3	13.7
2025-01-29 18:13:45.115199	17.5	56.9	-91.1	14.3
2025-01-29 18:13:46.271193	16.7	56.7	-91.2	13.1
2025-01-29 18:13:47.424641	16.0	56.4	-92.5	12.3
2025-01-29 18:13:48.584641	15.3	56.1	-92.7	13.9
2025-01-29 18:13:49.739461	14.6	55.9	-92.7	15.9
2025-01-29 18:13:50.895915	13.9	55.6	-92.4	9.8
2025-01-29 18:13:52.050224	13.2	55.3	-92.2	6.6
2025-01-29 18:13:53.198252	12.6	55.1	-91.8	10.4
2025-01-29 18:13:54.356529	12.0	54.8	-92.1	9.0
2025-01-29 18:13:55.511749	11.3	54.5	-92.3	9.3
2025-01-29 18:13:56.669708	10.7	54.2	-92.5	13.1
2025-01-29 18:13:57.830293	10.1	53.9	-92.2	9.4
2025-01-29 18:13:58.984600	9.5	53.6	-92.5	10.2
2025-01-29 18:14:00.143866	8.9	53.4	-92.3	9.2
2025-01-29 18:14:01.300351	8.3	53.1	-92.4	16.8
2025-01-29 18:14:02.452275	7.8	52.8	-92.9	10.0
2025-01-29 18:14:03.606157	7.2	52.5	-92.4	16.5
2025-01-29 18:14:04.767357	6.7	52.2	-92.7	17.6
2025-01-29 18:14:05.927978	6.2	51.9	-92.9	9.8
2025-01-29 18:14:07.079780	5.7	51.6	-91.9	14.8
2025-01-29 18:14:08.238815	5.1	51.3	-91.9	17.9
2025-01-29 18:14:09.396408	4.6	51.0	-92.4	11.3
2025-01-29 18:14:10.560180	4.2	50.7	-92.8	15.8
2025-01-29 18:14:11.712770	3.7	50.4	-92.4	17.8
2025-01-29 18:14:12.857401	3.2	50.1	-92.4	10.8
2025-01-29 18:14:14.015061	2.8	49.9	-92.4	15.3
2025-01-29 18:14:15.164282	2.3	49.6	-92.4	17.0
2025-01-29 18:14:16.323417	1.9	49.3	-92.2	13.6
2025-01-29 18:14:17.481960	1.4	49.0	-92.8	14.8
2025-01-29 18:14:18.637055	1.0	48.7	-92.6	21.2
2025-01-29 18:14:19.793100	0.6	48.4	-92.3	16.9
2025-01-29 18:14:20.948432	0.2	48.1	-92.3	17.5
2025-01-29 18:14:22.101333	359.8	47.8	-92.4	17.4
2025-01-29 18:14:23.253898	359.4	47.5	-92.4	18.1
2025-01-29 18:14:24.410297	359.0	47.2	-92.6	17.4
2025-01-29 18:14:25.570569	358.6	46.9	-92.7	15.3
2025-01-29 18:14:26.722806	358.2	46.6	-92.8	13.6
2025-01-29 18:14:27.875132	357.9	46.3	-92.6	18.1
2025-01-29 18:14:29.028766	357.5	46.0	-92.3	19.1
2025-01-29 18:14:30.185145	357.2	45.8	-92.3	17.8
2025-01-29 18:14:31.333503	356.8	45.5	-91.9	13.9
2025-01-29 18:14:32.494591	356.5	45.2	-92.5	16.5
2025-01-29 18:14:33.648018	356.2	44.9	-92.4	24.5
2025-01-29 18:14:34.797200	355.8	44.6	-92.4	22.8
2025-01-29 18:14:35.956650	355.5	44.3	-92.5	13.3
2025-01-29 18:14:37.113577	355.2	44.0	-92.3	18.8
2025-01-29 18:14:38.257379	354.9	43.8	-91.8	23.0
2025-01-29 18:14:39.378592	354.6	43.5	-92.2	10.4
2025-01-29 18:14:40.499112	354.3	43.2	-92.2	12.1
2025-01-29 18:14:41.619740	354.0	43.0	-92.3	18.9
2025-01-29 18:14:42.740937	353.7	42.7	-92.3	21.6
2025-01-29 18:14:43.864506	353.5	42.4	-92.3	16.7
2025-01-29 18:14:44.985326	353.2	42.1	-92.1	17.1
2025-01-29 18:14:46.107111	352.9	41.9	-91.9	19.8
2025-01-29 18:14:47.227396	352.7	41.6	-91.0	21.4
2025-01-29 18:14:48.349221	352.4	41.4	-90.7	19.0
2025-01-29 18:14:49.475844	352.1	41.1	-91.4	20.4
2025-01-29 18:14:50.627648	351.9	40.8	-90.5	16.3
2025-01-29 18:14:51.782697	351.6	40.6	-92.6	21.8
2025-01-29 18:14:52.932579	351.4	40.3	-92.5	18.1
2025-01-29 18:14:54.076811	351.1	40.0	-92.5	17.4
2025-01-29 18:14:55.226789	350.9	39.8	-92.3	18.7
2025-01-29 18:14:56.373727	350.7	39.5	-92.6	15.8
2025-01-29 18:14:57.537161	350.4	39.2	-92.3	12.8
2025-01-29 18:14:58.688913	350.2	39.0	-92.4	17.8
2025-01-29 18:14:59.844656	350.0	38.7	-92.5	13.7
2025-01-29 18:15:01.001562	349.8	38.5	-92.5	10.3
2025-01-29 18:15:02.158675	349.5	38.2	-92.2	21.7
2025-01-29 18:15:03.305420	349.3	38.0	-91.9	13.7
2025-01-29 18:15:04.461322	349.1	37.7	-91.9	10.8
2025-01-29 18:15:05.608631	348.9	37.5	-92.3	14.8
2025-01-29 18:15:06.778383	348.7	37.2	-92.3	16.3
2025-01-29 18:15:07.928331	348.5	37.0	-92.6	12.9
2025-01-29 18:15:09.082206	348.3	36.7	-92.3	16.3
2025-01-29 18:15:10.239802	348.1	36.5	-92.4	12.8
2025-01-29 18:15:11.394825	347.9	36.2	-92.4	11.0
2025-01-29 18:15:12.552501	347.7	36.0	-92.6	14.1
2025-01-29 18:15:13.711277	347.5	35.7	-92.2	12.7
2025-01-29 18:15:14.866265	347.3	35.5	-92.3	6.2
2025-01-29 18:15:16.022339	347.2	35.3	-92.4	10.0
2025-01-29 18:15:17.177661	347.0	35.0	-92.3	14.1
2025-01-29 18:15:18.331924	346.8	34.8	-91.7	7.8
2025-01-29 18:15:19.484584	346.6	34.6	-92.2	8.1
2025-01-29 18:15:20.644084	346.5	34.3	-92.6	10.9
2025-01-29 18:15:21.817804	346.3	34.1	-92.6	11.7
2025-01-29 18:15:22.970950	346.1	33.9	-92.3	8.5
2025-01-29 18:15:24.126893	346.0	33.6	-91.9	12.3
2025-01-29 18:15:25.276143	345.8	33.4	-92.0	11.9
2025-01-29 18:15:26.429678	345.6	33.2	-92.6	13.6
2025-01-29 18:15:27.588002	345.5	33.0	-92.5	16.3
2025-01-29 18:15:28.751675	345.3	32.7	-92.1	17.7
2025-01-29 18:15:29.904189	345.2	32.5	-92.7	17.6
2025-01-29 18:15:31.069999	345.0	32.3	-92.2	13.3
2025-01-29 18:15:32.229992	344.9	32.1	-92.5	16.9
2025-01-29 18:15:33.377065	344.7	31.9	-92.5	11.0
2025-01-29 18:15:34.533042	344.6	31.6	-92.7	14.2
2025-01-29 18:15:35.683142	344.4	31.4	-91.0	17.7
2025-01-29 18:15:36.836914	344.3	31.2	-91.0	10.3
2025-01-29 18:15:38.004723	344.2	31.0	-91.6	9.0
2025-01-29 18:15:39.160845	344.0	30.8	-90.7	11.5
2025-01-29 18:15:40.325561	343.9	30.6	-90.8	10.3
2025-01-29 18:15:41.475959	343.8	30.4	-90.9	9.4
2025-01-29 18:15:42.628169	343.6	30.2	-92.4	15.3
2025-01-29 18:15:43.777265	343.5	30.0	-92.3	15.7
2025-01-29 18:15:44.931823	343.4	29.8	-92.6	15.2
2025-01-29 18:15:46.090323	343.2	29.6	-92.4	17.3
2025-01-29 18:15:47.243666	343.1	29.4	-92.4	14.5
2025-01-29 18:15:48.393743	343.0	29.2	-92.1	11.7
2025-01-29 18:15:49.542227	342.9	29.0	-92.6	11.2
2025-01-29 18:15:50.691773	342.7	28.8	-92.6	11.7
2025-01-29 18:15:51.845387	342.6	28.6	-92.5	5.4
2025-01-29 18:15:53.005297	342.5	28.4	-92.5	5.1
2025-01-29 18:15:54.153228	342.4	28.2	-92.0	6.9
2025-01-29 18:15:55.311687	342.3	28.0	-92.3	7.5
2025-01-29 18:15:56.469894	342.2	27.8	-92.6	5.7
2025-01-29 18:15:57.616929	342.1	27.6	-92.7	12.1
2025-01-29 18:15:58.769114	341.9	27.4	-92.7	13.7
2025-01-29 18:15:59.932345	341.8	27.2	-92.6	10.0
2025-01-29 18:16:01.080243	341.7	27.0	-92.3	12.0
2025-01-29 18:16:02.235316	341.6	26.9	-92.5	11.9
2025-01-29 18:16:03.392818	341.5	26.7	-92.4	9.6
2025-01-29 18:16:04.549761	341.4	26.5	-92.6	8.4
2025-01-29 18:16:05.703888	341.3	26.3	-92.8	10.6
2025-01-29 18:16:06.862918	341.2	26.1	-92.8	7.7
2025-01-29 18:16:08.020086	341.1	25.9	-92.3	11.6
2025-01-29 18:16:09.181137	341.0	25.8	-92.1	16.1
2025-01-29 18:16:10.329082	340.9	25.6	-92.1	6.7
2025-01-29 18:16:11.486553	340.8	25.4	-92.6	7.8
2025-01-29 18:16:12.642816	340.7	25.2	-92.6	9.9
2025-01-29 18:16:13.802775	340.6	25.1	-92.6	12.6
2025-01-29 18:16:14.949781	340.5	24.9	-92.5	11.6
2025-01-29 18:16:16.101537	340.4	24.7	-91.9	14.2
2025-01-29 18:16:17.257638	340.3	24.5	-92.2	9.4
2025-01-29 18:16:18.417432	340.3	24.4	-92.2	9.4
2025-01-29 18:16:19.575996	340.2	24.2	-92.5	12.7
2025-01-29 18:16:20.724793	340.1	24.0	-92.7	9.5
2025-01-29 18:16:21.885140	340.0	23.9	-92.6	8.9
2025-01-29 18:16:23.040360	339.9	23.7	-92.2	7.5
2025-01-29 18:16:24.195777	339.8	23.5	-92.6	13.8
2025-01-29 18:16:25.342896	339.7	23.4	-92.6	5.2
2025-01-29 18:16:26.500848	339.6	23.2	-92.7	7.5
2025-01-29 18:16:27.653389	339.6	23.0	-92.2	14.4
2025-01-29 18:16:28.812521	339.5	22.9	-92.4	13.6
2025-01-29 18:16:29.971616	339.4	22.7	-92.5	11.4
2025-01-29 18:16:31.129287	339.3	22.6	-92.0	12.3
2025-01-29 18:16:32.282088	339.2	22.4	-92.2	15.3
2025-01-29 18:16:33.431766	339.2	22.2	-92.6	13.8
2025-01-29 18:16:34.585848	339.1	22.1	-92.4	13.9
2025-01-29 18:16:35.739877	339.0	21.9	-92.7	14.8
2025-01-29 18:16:36.889617	338.9	21.8	-92.3	13.5
2025-01-29 18:16:38.045559	338.9	21.6	-92.4	11.1
2025-01-29 18:16:39.198841	338.8	21.5	-92.1	13.2
2025-01-29 18:16:40.368506	338.7	21.3	-92.0	10.4
2025-01-29 18:16:41.522667	338.6	21.2	-92.1	9.1
2025-01-29 18:16:42.675177	338.6	21.0	-91.6	12.0
2025-01-29 18:16:43.836884	338.5	20.9	-91.1	10.8
2025-01-29 18:16:44.999105	338.4	20.7	-91.1	10.7
2025-01-29 18:16:46.146687	338.4	20.6	-91.1	14.4
2025-01-29 18:16:47.302416	338.3	20.4	-92.4	13.2
2025-01-29 18:16:48.458465	338.2	20.3	-92.8	6.1
2025-01-29 18:16:49.612467	338.1	20.1	-92.4	7.8
2025-01-29 18:16:50.773735	338.1	20.0	-92.5	7.8
2025-01-29 18:16:51.931144	338.0	19.8	-93.1	4.5
2025-01-29 18:16:53.079215	337.9	19.7	-92.4	5.8
2025-01-29 18:16:54.230163	337.9	19.5	-92.1	4.6
2025-01-29 18:16:55.385681	337.8	19.4	-92.6	5.4
2025-01-29 18:16:56.543503	337.8	19.3	-92.9	6.7
2025-01-29 18:16:57.702159	337.7	19.1	-93.1	7.9
2025-01-29 18:16:58.858612	337.6	19.0	-93.0	11.2
2025-01-29 18:17:00.018314	337.6	18.8	-92.6	9.5
2025-01-29 18:17:01.166330	337.5	18.7	-92.7	5.1
2025-01-29 18:17:02.322279	337.4	18.6	-92.1	9.1
2025-01-29 18:17:03.473733	337.4	18.4	-92.3	8.5
2025-01-29 18:17:04.607936	337.3	18.3	-92.6	7.7
2025-01-29 18:17:05.730435	337.3	18.2	-92.4	9.1
2025-01-29 18:17:06.850923	337.2	18.0	-92.6	7.1
2025-01-29 18:17:07.971543	337.2	17.9	-92.8	6.5
2025-01-29 18:17:09.091812	337.1	17.8	-92.1	5.6
2025-01-29 18:17:10.212314	337.0	17.6	-92.2	5.6
2025-01-29 18:17:11.332511	337.0	17.5	-92.5	3.9
2025-01-29 18:17:12.454609	336.9	17.4	-92.8	3.4
2025-01-29 18:17:13.573377	336.9	17.3	-92.6	5.3
2025-01-29 18:17:14.695552	336.8	17.1	-92.7	4.9
2025-01-29 18:17:15.830459	336.8	17.0	-92.6	5.4
2025-01-29 18:17:16.986115	336.7	16.9	-92.5	7.0
2025-01-29 18:17:18.136802	336.7	16.7	-92.5	9.1
2025-01-29 18:17:19.290630	336.6	16.6	-91.9	5.5
2025-01-29 18:17:20.438574	336.6	16.5	-91.3	5.7
2025-01-29 18:17:21.587850	336.5	16.4	-91.8	7.0
2025-01-29 18:17:22.740125	336.5	16.2	-91.5	7.3
2025-01-29 18:17:23.897650	336.4	16.1	-91.3	2.4
2025-01-29 18:17:25.057883	336.4	16.0	-90.8	4.7
2025-01-29 18:17:26.212396	336.3	15.9	-90.9	7.1
2025-01-29 18:17:27.358614	336.3	15.7	-91.4	8.2
2025-01-29 18:17:28.514466	336.2	15.6	-91.7	10.0
2025-01-29 18:17:29.669367	336.2	15.5	-92.2	9.0
2025-01-29 18:17:30.821919	336.1	15.4	-92.0	6.4
2025-01-29 18:17:31.978136	336.1	15.3	-92.5	6.0
2025-01-29 18:17:33.130038	336.0	15.1	-91.8	9.4
2025-01-29 18:17:34.294863	336.0	15.0	-92.2	7.7
2025-01-29 18:17:35.446429	335.9	14.9	-92.7	5.4
2025-01-29 18:17:36.598015	335.9	14.8	-92.2	6.2
2025-01-29 18:17:37.750053	335.8	14.7	-92.0	7.4
2025-01-29 18:17:38.909783	335.8	14.5	-92.7	8.2
2025-01-29 18:17:40.059812	335.7	14.4	-92.8	4.6
#Closed at: 2025-01-29 18:08:36.282700