passes_logs/2025/01/29/LEX_Murmansk/LEX_Murmansk__20250129_094917_NOAA_18_rec.log

#Pass ID: 20250129_094917_NOAA 18
#Satellite: NOAA 18
#Configuration: NOAA 18
#Start time: 2025-01-29 09:49:12.525228

#LorettStation: 1.0.0 05.05.2024
#Station: LEX_Murmansk
#Location: 33.156738 lon 68.926811 lat
#TLE: 1 28654U 05018A   25028.04589186  .00000422  00000+0  24750-3 0  9995
#TLE: 2 28654  98.8546 108.9697 0014880 143.3316 216.8878 14.13499339 15023

#Time	Az	El	Level	SNR
2025-01-29 09:49:28.692185	26.4	16.8	-91.7	9.0
2025-01-29 09:49:29.862521	26.4	16.9	-91.9	2.9
2025-01-29 09:49:31.025045	26.4	17.0	-91.9	5.9
2025-01-29 09:49:32.197338	26.5	17.2	-91.5	7.2
2025-01-29 09:49:33.359215	26.5	17.3	-91.2	6.8
2025-01-29 09:49:34.522689	26.5	17.4	-91.3	8.8
2025-01-29 09:49:35.688842	26.5	17.6	-91.6	6.9
2025-01-29 09:49:36.852969	26.6	17.7	-91.7	14.8
2025-01-29 09:49:38.022378	26.6	17.8	-92.0	9.3
2025-01-29 09:49:39.187510	26.6	18.0	-91.6	8.7
2025-01-29 09:49:40.356797	26.6	18.1	-91.5	8.5
2025-01-29 09:49:41.522246	26.7	18.2	-91.5	11.7
2025-01-29 09:49:42.685163	26.7	18.4	-92.3	11.8
2025-01-29 09:49:43.842094	26.7	18.5	-91.9	9.5
2025-01-29 09:49:45.007696	26.8	18.7	-92.0	8.5
2025-01-29 09:49:46.172417	26.8	18.8	-91.7	8.8
2025-01-29 09:49:47.337007	26.8	18.9	-91.6	7.0
2025-01-29 09:49:48.503956	26.8	19.1	-91.5	5.4
2025-01-29 09:49:49.670974	26.9	19.2	-91.9	6.2
2025-01-29 09:49:50.834683	26.9	19.4	-91.6	8.4
2025-01-29 09:49:52.005553	26.9	19.5	-91.9	6.9
2025-01-29 09:49:53.169485	26.9	19.7	-91.2	9.9
2025-01-29 09:49:54.332101	27.0	19.8	-91.3	10.2
2025-01-29 09:49:55.496234	27.0	20.0	-92.1	11.9
2025-01-29 09:49:56.658311	27.0	20.1	-91.7	12.9
2025-01-29 09:49:57.818655	27.1	20.3	-91.3	10.4
2025-01-29 09:49:58.980935	27.1	20.4	-91.0	10.5
2025-01-29 09:50:00.143895	27.1	20.6	-90.7	8.5
2025-01-29 09:50:01.295699	27.1	20.7	-90.1	11.2
2025-01-29 09:50:02.459170	27.2	20.9	-91.3	5.3
2025-01-29 09:50:03.624478	27.2	21.0	-90.5	8.3
2025-01-29 09:50:04.789230	27.2	21.2	-90.6	9.4
2025-01-29 09:50:05.948452	27.3	21.3	-90.0	9.1
2025-01-29 09:50:07.115773	27.3	21.5	-90.0	10.1
2025-01-29 09:50:08.278295	27.3	21.7	-89.6	9.3
2025-01-29 09:50:09.440572	27.4	21.8	-92.0	12.4
2025-01-29 09:50:10.604924	27.4	22.0	-91.7	11.4
2025-01-29 09:50:11.768396	27.4	22.1	-92.0	11.2
2025-01-29 09:50:12.932324	27.5	22.3	-92.0	9.2
2025-01-29 09:50:14.090589	27.5	22.5	-91.5	12.3
2025-01-29 09:50:15.250596	27.5	22.6	-91.8	11.3
2025-01-29 09:50:16.420648	27.6	22.8	-91.8	7.3
2025-01-29 09:50:17.585834	27.6	23.0	-92.0	6.3
2025-01-29 09:50:18.747628	27.6	23.1	-92.2	12.2
2025-01-29 09:50:19.913674	27.7	23.3	-91.8	6.3
2025-01-29 09:50:21.080557	27.7	23.5	-91.9	7.0
2025-01-29 09:50:22.247342	27.7	23.7	-91.8	10.8
2025-01-29 09:50:23.409194	27.8	23.8	-91.6	10.2
2025-01-29 09:50:24.579295	27.8	24.0	-92.1	14.5
2025-01-29 09:50:25.745223	27.8	24.2	-92.2	15.3
2025-01-29 09:50:26.906828	27.9	24.3	-91.8	12.8
2025-01-29 09:50:28.077472	27.9	24.5	-91.8	11.2
2025-01-29 09:50:29.240185	27.9	24.7	-91.4	12.3
2025-01-29 09:50:30.401734	28.0	24.9	-91.7	14.5
2025-01-29 09:50:31.564473	28.0	25.1	-91.9	13.4
2025-01-29 09:50:32.746372	28.1	25.3	-92.1	10.2
2025-01-29 09:50:33.897314	28.1	25.4	-92.1	8.2
2025-01-29 09:50:35.060557	28.1	25.6	-91.8	3.7
2025-01-29 09:50:36.226540	28.2	25.8	-91.8	10.0
2025-01-29 09:50:37.385858	28.2	26.0	-91.8	8.6
2025-01-29 09:50:38.552856	28.3	26.2	-91.8	10.5
2025-01-29 09:50:39.717731	28.3	26.4	-92.1	12.3
2025-01-29 09:50:40.882265	28.3	26.6	-92.1	11.9
2025-01-29 09:50:42.042465	28.4	26.8	-91.8	8.1
2025-01-29 09:50:43.207113	28.4	26.9	-91.4	9.8
2025-01-29 09:50:44.372497	28.5	27.1	-91.9	11.0
2025-01-29 09:50:45.537322	28.5	27.3	-91.9	11.1
2025-01-29 09:50:46.710056	28.5	27.5	-92.1	8.9
2025-01-29 09:50:47.876376	28.6	27.7	-92.2	14.1
2025-01-29 09:50:49.045633	28.6	27.9	-92.0	9.1
2025-01-29 09:50:50.205353	28.7	28.1	-91.8	9.2
2025-01-29 09:50:51.368024	28.7	28.3	-91.9	4.1
2025-01-29 09:50:52.532116	28.8	28.6	-92.1	4.2
2025-01-29 09:50:53.698702	28.8	28.8	-91.9	7.2
2025-01-29 09:50:54.861499	28.9	29.0	-91.8	5.5
2025-01-29 09:50:56.026515	28.9	29.2	-91.8	9.9
2025-01-29 09:50:57.194178	29.0	29.4	-91.5	6.9
2025-01-29 09:50:58.360857	29.0	29.6	-91.7	7.7
2025-01-29 09:50:59.517755	29.1	29.8	-92.3	8.4
2025-01-29 09:51:00.679165	29.1	30.0	-92.2	6.6
2025-01-29 09:51:01.858582	29.2	30.3	-92.1	7.0
2025-01-29 09:51:03.023995	29.2	30.5	-91.5	11.0
2025-01-29 09:51:04.182934	29.3	30.7	-91.7	10.9
2025-01-29 09:51:05.345589	29.3	30.9	-91.7	9.7
2025-01-29 09:51:06.518245	29.4	31.1	-92.2	8.7
2025-01-29 09:51:07.678628	29.4	31.4	-92.1	11.6
2025-01-29 09:51:08.846504	29.5	31.6	-90.8	10.0
2025-01-29 09:51:10.010337	29.5	31.8	-90.1	6.2
2025-01-29 09:51:11.179375	29.6	32.1	-90.9	10.7
2025-01-29 09:51:12.344385	29.6	32.3	-90.9	11.8
2025-01-29 09:51:13.504007	29.7	32.5	-92.0	13.3
2025-01-29 09:51:14.667387	29.7	32.8	-92.0	14.8
2025-01-29 09:51:15.831887	29.8	33.0	-92.0	15.1
2025-01-29 09:51:16.998731	29.9	33.2	-92.1	10.7
2025-01-29 09:51:18.161219	29.9	33.5	-91.7	15.2
2025-01-29 09:51:19.320501	30.0	33.7	-91.7	15.1
2025-01-29 09:51:20.481840	30.0	34.0	-91.8	12.9
2025-01-29 09:51:21.649680	30.1	34.2	-92.2	12.5
2025-01-29 09:51:22.815347	30.2	34.5	-91.0	13.5
2025-01-29 09:51:23.975953	30.2	34.7	-90.4	7.7
2025-01-29 09:51:25.136093	30.3	35.0	-90.9	12.8
2025-01-29 09:51:26.305296	30.4	35.2	-89.8	8.4
2025-01-29 09:51:27.470943	30.4	35.5	-91.0	6.4
2025-01-29 09:51:28.630745	30.5	35.8	-90.7	10.8
2025-01-29 09:51:29.799342	30.6	36.0	-91.9	14.2
2025-01-29 09:51:30.965294	30.6	36.3	-92.0	14.5
2025-01-29 09:51:32.134928	30.7	36.6	-92.0	16.8
2025-01-29 09:51:33.295995	30.8	36.8	-91.7	15.7
2025-01-29 09:51:34.459525	30.9	37.1	-92.0	12.9
2025-01-29 09:51:35.625723	30.9	37.4	-91.7	14.6
2025-01-29 09:51:36.789348	31.0	37.6	-91.8	18.4
2025-01-29 09:51:37.957060	31.1	37.9	-91.6	17.4
2025-01-29 09:51:39.116616	31.2	38.2	-91.7	15.9
2025-01-29 09:51:40.283974	31.2	38.5	-92.1	16.0
2025-01-29 09:51:41.450760	31.3	38.8	-92.0	12.1
2025-01-29 09:51:42.613506	31.4	39.1	-91.9	13.0
2025-01-29 09:51:43.782855	31.5	39.3	-91.7	16.4
2025-01-29 09:51:44.942210	31.6	39.6	-91.7	6.0
2025-01-29 09:51:46.108621	31.7	39.9	-91.8	13.7
2025-01-29 09:51:47.272111	31.7	40.2	-92.0	18.0
2025-01-29 09:51:48.437016	31.8	40.5	-91.7	16.0
2025-01-29 09:51:49.607453	31.9	40.8	-92.3	18.6
2025-01-29 09:51:50.768664	32.0	41.1	-91.9	17.5
2025-01-29 09:51:51.936371	32.1	41.4	-92.0	15.3
2025-01-29 09:51:53.097207	32.2	41.8	-91.7	12.9
2025-01-29 09:51:54.257411	32.3	42.1	-91.8	16.7
2025-01-29 09:51:55.414591	32.4	42.4	-91.6	13.6
2025-01-29 09:51:56.583201	32.5	42.7	-92.0	15.3
2025-01-29 09:51:57.743200	32.6	43.0	-92.2	16.2
2025-01-29 09:51:58.911506	32.7	43.3	-92.2	18.3
2025-01-29 09:52:00.077840	32.8	43.7	-91.5	16.2
2025-01-29 09:52:01.234180	32.9	44.0	-91.9	17.5
2025-01-29 09:52:02.400310	33.0	44.3	-91.7	9.1
2025-01-29 09:52:03.572173	33.2	44.7	-92.1	7.8
2025-01-29 09:52:04.724287	33.3	45.0	-92.0	14.9
2025-01-29 09:52:05.880338	33.4	45.3	-91.8	13.2
2025-01-29 09:52:07.047642	33.5	45.7	-91.8	14.0
2025-01-29 09:52:08.209010	33.6	46.0	-91.8	17.3
2025-01-29 09:52:09.371777	33.8	46.4	-91.4	18.1
2025-01-29 09:52:10.537403	33.9	46.7	-92.1	15.8
2025-01-29 09:52:11.703430	34.0	47.1	-92.2	14.6
2025-01-29 09:52:12.864484	34.2	47.4	-92.1	7.6
2025-01-29 09:52:14.033289	34.3	47.8	-92.2	9.0
2025-01-29 09:52:15.192664	34.4	48.1	-91.7	15.2
2025-01-29 09:52:16.359527	34.6	48.5	-91.7	12.2
2025-01-29 09:52:17.528177	34.7	48.9	-91.9	14.0
2025-01-29 09:52:18.695656	34.9	49.2	-92.2	15.0
2025-01-29 09:52:19.857857	35.0	49.6	-92.0	12.4
2025-01-29 09:52:21.024340	35.2	50.0	-92.3	8.4
2025-01-29 09:52:22.189130	35.4	50.4	-91.6	14.5
2025-01-29 09:52:23.356492	35.5	50.7	-91.6	6.9
2025-01-29 09:52:24.515323	35.7	51.1	-91.3	8.2
2025-01-29 09:52:25.682041	35.9	51.5	-91.7	12.9
2025-01-29 09:52:26.847385	36.0	51.9	-92.3	11.3
2025-01-29 09:52:28.009412	36.2	52.3	-92.2	9.6
2025-01-29 09:52:29.173558	36.4	52.7	-91.5	12.8
2025-01-29 09:52:30.342499	36.6	53.1	-91.0	13.5
2025-01-29 09:52:31.505310	36.8	53.5	-91.8	12.7
2025-01-29 09:52:32.674679	37.0	53.9	-91.6	13.5
2025-01-29 09:52:33.844191	37.2	54.3	-92.4	12.5
2025-01-29 09:52:34.999682	37.4	54.7	-92.3	9.6
2025-01-29 09:52:36.168608	37.7	55.1	-91.9	10.6
2025-01-29 09:52:37.332912	37.9	55.5	-91.7	13.7
2025-01-29 09:52:38.500502	38.1	56.0	-91.9	14.1
2025-01-29 09:52:39.671638	38.4	56.4	-92.1	13.8
2025-01-29 09:52:40.832940	38.6	56.8	-91.8	9.9
2025-01-29 09:52:41.996460	38.9	57.2	-91.5	13.8
2025-01-29 09:52:43.159754	39.1	57.7	-91.0	12.9
2025-01-29 09:52:44.327773	39.4	58.1	-91.5	5.3
2025-01-29 09:52:45.488485	39.7	58.5	-91.9	6.0
2025-01-29 09:52:46.656481	40.0	59.0	-91.7	9.7
2025-01-29 09:52:47.825325	40.3	59.4	-92.2	11.4
2025-01-29 09:52:48.987268	40.6	59.8	-92.2	6.1
2025-01-29 09:52:50.152221	40.9	60.3	-90.8	15.2
2025-01-29 09:52:51.317249	41.3	60.7	-90.5	15.3
2025-01-29 09:52:52.488939	41.6	61.2	-90.4	12.6
2025-01-29 09:52:53.655546	42.0	61.6	-90.6	16.3
2025-01-29 09:52:54.816492	42.3	62.1	-91.6	17.7
2025-01-29 09:52:55.981828	42.7	62.6	-92.0	15.6
2025-01-29 09:52:57.143679	43.1	63.0	-91.8	15.9
2025-01-29 09:52:58.312958	43.5	63.5	-91.5	16.8
2025-01-29 09:52:59.478138	44.0	63.9	-91.6	11.8
2025-01-29 09:53:00.651474	44.4	64.4	-90.8	13.2
2025-01-29 09:53:01.817573	44.9	64.9	-91.1	11.2
2025-01-29 09:53:02.985766	45.4	65.3	-91.1	9.5
2025-01-29 09:53:04.152354	45.9	65.8	-89.9	15.3
2025-01-29 09:53:05.311228	46.4	66.3	-90.3	17.7
2025-01-29 09:53:06.478079	47.0	66.7	-90.3	18.9
2025-01-29 09:53:07.640798	47.5	67.2	-91.9	19.6
2025-01-29 09:53:08.807259	48.2	67.7	-91.7	18.8
2025-01-29 09:53:09.971780	48.8	68.1	-91.7	20.4
2025-01-29 09:53:11.135834	49.4	68.6	-91.7	20.1
2025-01-29 09:53:12.296147	50.1	69.1	-91.5	15.0
2025-01-29 09:53:13.455653	50.9	69.5	-91.8	8.5
2025-01-29 09:53:14.618153	51.6	70.0	-91.8	7.6
2025-01-29 09:53:15.780393	52.4	70.5	-91.4	4.9
2025-01-29 09:53:16.943683	53.3	70.9	-91.6	4.8
2025-01-29 09:53:18.099213	54.2	71.4	-91.5	7.2
2025-01-29 09:53:19.263880	55.1	71.9	-90.9	10.5
2025-01-29 09:53:20.426967	56.1	72.3	-91.6	9.2
2025-01-29 09:53:21.596677	57.1	72.8	-92.5	10.1
2025-01-29 09:53:22.762623	58.2	73.2	-92.2	18.7
2025-01-29 09:53:23.929469	59.4	73.7	-92.0	15.1
2025-01-29 09:53:25.088683	60.6	74.1	-91.6	16.8
2025-01-29 09:53:26.254509	61.9	74.5	-91.2	19.0
2025-01-29 09:53:27.415582	63.3	75.0	-91.5	19.2
2025-01-29 09:53:28.579180	64.8	75.4	-91.6	18.8
2025-01-29 09:53:29.744122	66.3	75.8	-91.4	18.5
2025-01-29 09:53:30.908582	68.0	76.2	-91.8	18.2
2025-01-29 09:53:32.075002	69.8	76.6	-91.9	15.6
2025-01-29 09:53:33.239676	71.6	77.0	-92.0	17.9
2025-01-29 09:53:34.406048	73.6	77.4	-91.6	17.1
2025-01-29 09:53:35.570650	75.7	77.7	-92.0	18.0
2025-01-29 09:53:36.735127	77.9	78.0	-91.6	21.7
2025-01-29 09:53:37.903368	80.3	78.4	-92.0	13.7
2025-01-29 09:53:39.067462	82.8	78.7	-92.0	13.4
2025-01-29 09:53:40.231906	85.4	78.9	-91.5	24.1
2025-01-29 09:53:41.398182	88.1	79.2	-91.5	15.5
2025-01-29 09:53:42.561719	91.0	79.4	-91.8	12.8
2025-01-29 09:53:43.730465	94.0	79.6	-91.8	22.6
2025-01-29 09:53:44.891455	97.1	79.8	-91.9	15.7
2025-01-29 09:53:46.060693	100.3	80.0	-92.0	12.0
2025-01-29 09:53:47.223295	103.6	80.1	-91.5	20.2
2025-01-29 09:53:48.391764	107.0	80.1	-91.8	18.0
2025-01-29 09:53:49.558066	110.4	80.2	-91.8	19.5
2025-01-29 09:53:50.722873	113.8	80.2	-91.6	22.7
2025-01-29 09:53:51.891819	117.2	80.2	-92.0	22.6
2025-01-29 09:53:53.055893	120.6	80.1	-91.9	23.4
2025-01-29 09:53:54.218972	124.0	80.0	-92.0	24.1
2025-01-29 09:53:55.378466	127.2	79.9	-91.8	24.7
2025-01-29 09:53:56.544274	130.4	79.8	-92.2	20.9
2025-01-29 09:53:57.716842	133.5	79.6	-91.9	22.2
2025-01-29 09:53:58.880488	136.5	79.4	-92.1	26.9
2025-01-29 09:54:00.044912	139.3	79.1	-91.8	25.6
2025-01-29 09:54:01.195796	142.0	78.9	-91.1	22.9
2025-01-29 09:54:02.363342	144.6	78.6	-91.7	23.5
2025-01-29 09:54:03.527586	147.0	78.3	-92.1	21.2
2025-01-29 09:54:04.688436	149.3	77.9	-92.1	21.8
2025-01-29 09:54:05.851682	151.5	77.6	-92.0	21.8
2025-01-29 09:54:07.015347	153.6	77.2	-92.2	21.1
2025-01-29 09:54:08.184773	155.5	76.9	-89.7	19.3
2025-01-29 09:54:09.344400	157.3	76.5	-89.8	18.5
2025-01-29 09:54:10.507524	159.1	76.1	-90.8	17.2
2025-01-29 09:54:11.670884	160.7	75.7	-91.7	20.3
2025-01-29 09:54:12.834266	162.2	75.3	-91.9	20.6
2025-01-29 09:54:13.999806	163.7	74.8	-92.1	19.2
2025-01-29 09:54:15.160681	165.0	74.4	-91.8	21.4
2025-01-29 09:54:16.333066	166.3	74.0	-91.6	19.8
2025-01-29 09:54:17.507938	167.5	73.5	-91.6	16.7
2025-01-29 09:54:18.667213	168.7	73.1	-91.7	19.1
2025-01-29 09:54:19.830855	169.8	72.6	-91.8	21.4
2025-01-29 09:54:20.995284	170.8	72.2	-92.4	17.2
2025-01-29 09:54:22.157981	171.8	71.7	-92.1	19.2
2025-01-29 09:54:23.321807	172.7	71.2	-92.1	21.8
2025-01-29 09:54:24.487812	173.6	70.8	-92.2	17.5
2025-01-29 09:54:25.649052	174.4	70.3	-92.2	19.4
2025-01-29 09:54:26.810318	175.2	69.9	-91.7	18.4
2025-01-29 09:54:27.975821	175.9	69.4	-92.0	15.4
2025-01-29 09:54:29.143122	176.7	68.9	-91.7	19.4
2025-01-29 09:54:30.307181	177.3	68.4	-91.9	18.4
2025-01-29 09:54:31.476640	178.0	68.0	-92.0	16.8
2025-01-29 09:54:32.647433	178.6	67.5	-91.9	18.0
2025-01-29 09:54:33.806904	179.2	67.0	-91.9	16.7
2025-01-29 09:54:34.971056	179.8	66.6	-92.0	12.3
2025-01-29 09:54:36.132122	180.3	66.1	-91.7	16.8
2025-01-29 09:54:37.301903	180.9	65.6	-91.8	18.8
2025-01-29 09:54:38.461195	181.4	65.1	-92.1	18.4
2025-01-29 09:54:39.623995	181.8	64.7	-92.5	13.3
2025-01-29 09:54:40.799593	182.3	64.2	-92.3	11.2
2025-01-29 09:54:41.962817	182.7	63.8	-92.2	17.2
2025-01-29 09:54:43.130719	183.2	63.3	-91.7	19.7
2025-01-29 09:54:44.294514	183.6	62.8	-91.7	21.1
2025-01-29 09:54:45.462085	184.0	62.4	-92.3	20.6
2025-01-29 09:54:46.629448	184.4	61.9	-92.1	20.5
2025-01-29 09:54:47.796467	184.7	61.5	-91.1	18.7
2025-01-29 09:54:48.953911	185.1	61.0	-91.4	17.6
2025-01-29 09:54:50.119160	185.4	60.6	-91.9	19.3
2025-01-29 09:54:51.284240	185.8	60.1	-92.1	19.5
2025-01-29 09:54:52.446894	186.1	59.7	-92.2	15.6
2025-01-29 09:54:53.610612	186.4	59.2	-92.0	14.0
2025-01-29 09:54:54.776749	186.7	58.8	-92.0	17.5
2025-01-29 09:54:55.940197	187.0	58.3	-91.9	10.3
2025-01-29 09:54:57.111706	187.3	57.9	-92.1	11.3
2025-01-29 09:54:58.274279	187.5	57.5	-92.2	11.7
2025-01-29 09:54:59.439955	187.8	57.0	-92.4	8.8
2025-01-29 09:55:00.602833	188.0	56.6	-92.3	13.9
2025-01-29 09:55:01.768635	188.3	56.2	-92.3	16.1
2025-01-29 09:55:02.945575	188.5	55.8	-92.0	8.8
2025-01-29 09:55:04.114355	188.8	55.3	-92.0	15.4
2025-01-29 09:55:05.277386	189.0	54.9	-92.0	12.9
2025-01-29 09:55:06.442166	189.2	54.5	-92.1	7.1
2025-01-29 09:55:07.610684	189.4	54.1	-92.1	12.7
2025-01-29 09:55:08.775898	189.6	53.7	-91.9	13.4
2025-01-29 09:55:09.942247	189.8	53.3	-92.1	7.6
2025-01-29 09:55:11.100296	190.0	52.9	-91.5	12.5
2025-01-29 09:55:12.264312	190.2	52.5	-90.5	12.9
2025-01-29 09:55:13.432943	190.4	52.1	-91.0	12.3
2025-01-29 09:55:14.596871	190.6	51.7	-90.8	15.8
2025-01-29 09:55:15.759191	190.8	51.3	-90.5	15.8
2025-01-29 09:55:16.921728	190.9	50.9	-92.2	16.3
2025-01-29 09:55:18.079348	191.1	50.5	-92.2	15.1
2025-01-29 09:55:19.239997	191.3	50.2	-91.7	12.8
2025-01-29 09:55:20.410748	191.4	49.8	-91.8	14.8
2025-01-29 09:55:21.575511	191.6	49.4	-92.2	15.1
2025-01-29 09:55:22.741729	191.7	49.0	-92.1	15.9
2025-01-29 09:55:23.885811	191.9	48.7	-92.2	13.3
2025-01-29 09:55:25.054619	192.0	48.3	-92.0	13.5
2025-01-29 09:55:26.217539	192.2	47.9	-92.0	18.5
2025-01-29 09:55:27.378481	192.3	47.6	-92.0	12.0
2025-01-29 09:55:28.543382	192.5	47.2	-92.5	11.5
2025-01-29 09:55:29.709781	192.6	46.9	-92.0	18.8
2025-01-29 09:55:30.875487	192.7	46.5	-92.2	14.7
2025-01-29 09:55:32.036289	192.9	46.2	-92.1	15.2
2025-01-29 09:55:33.200618	193.0	45.8	-91.7	20.3
2025-01-29 09:55:34.364896	193.1	45.5	-91.5	18.0
2025-01-29 09:55:35.525860	193.2	45.1	-92.0	18.1
2025-01-29 09:55:36.694934	193.3	44.8	-92.2	17.8
2025-01-29 09:55:37.864322	193.5	44.4	-92.3	19.0
2025-01-29 09:55:39.024545	193.6	44.1	-92.3	18.9
2025-01-29 09:55:40.189538	193.7	43.8	-91.8	18.4
2025-01-29 09:55:41.353703	193.8	43.4	-91.9	17.6
2025-01-29 09:55:42.523523	193.9	43.1	-92.0	17.0
2025-01-29 09:55:43.685138	194.0	42.8	-92.3	20.9
2025-01-29 09:55:44.850336	194.1	42.5	-92.2	17.6
2025-01-29 09:55:45.999399	194.2	42.2	-92.3	11.4
2025-01-29 09:55:47.166834	194.3	41.9	-91.8	17.4
2025-01-29 09:55:48.336614	194.4	41.5	-91.9	11.5
2025-01-29 09:55:49.500597	194.5	41.2	-92.2	7.0
2025-01-29 09:55:50.665728	194.6	40.9	-92.0	13.5
2025-01-29 09:55:51.830761	194.7	40.6	-92.3	11.2
2025-01-29 09:55:52.983616	194.8	40.3	-91.9	7.8
2025-01-29 09:55:54.152532	194.9	40.0	-92.1	15.4
2025-01-29 09:55:55.314030	194.9	39.7	-91.9	15.6
2025-01-29 09:55:56.472505	195.0	39.4	-92.4	13.0
2025-01-29 09:55:57.642500	195.1	39.1	-92.2	14.9
2025-01-29 09:55:58.806700	195.2	38.8	-92.3	14.8
2025-01-29 09:55:59.975775	195.3	38.6	-92.1	15.2
2025-01-29 09:56:01.132374	195.4	38.3	-92.1	15.6
2025-01-29 09:56:02.301049	195.4	38.0	-92.2	14.7
2025-01-29 09:56:03.469149	195.5	37.7	-92.3	11.8
2025-01-29 09:56:04.631849	195.6	37.4	-92.2	14.7
2025-01-29 09:56:05.792217	195.7	37.1	-90.8	13.1
2025-01-29 09:56:06.953289	195.7	36.9	-91.4	9.7
2025-01-29 09:56:08.115956	195.8	36.6	-90.9	11.5
2025-01-29 09:56:09.276452	195.9	36.3	-91.1	12.4
2025-01-29 09:56:10.432834	195.9	36.1	-91.2	8.2
2025-01-29 09:56:11.599299	196.0	35.8	-91.0	11.1
2025-01-29 09:56:12.775860	196.1	35.5	-92.6	8.4
2025-01-29 09:56:13.938622	196.2	35.3	-92.4	11.7
2025-01-29 09:56:15.102087	196.2	35.0	-92.0	13.1
2025-01-29 09:56:16.264443	196.3	34.8	-92.2	14.8
2025-01-29 09:56:17.437961	196.4	34.5	-92.0	13.4
2025-01-29 09:56:18.595577	196.4	34.3	-92.2	9.7
2025-01-29 09:56:19.760074	196.5	34.0	-92.1	10.5
2025-01-29 09:56:20.936007	196.5	33.7	-92.3	6.2
2025-01-29 09:56:22.098389	196.6	33.5	-92.2	7.2
2025-01-29 09:56:23.264361	196.7	33.3	-92.0	8.0
2025-01-29 09:56:24.428650	196.7	33.0	-92.2	6.3
2025-01-29 09:56:25.584981	196.8	32.8	-92.1	8.1
2025-01-29 09:56:26.758960	196.8	32.5	-92.2	10.4
2025-01-29 09:56:27.921369	196.9	32.3	-92.1	8.7
2025-01-29 09:56:29.098473	197.0	32.1	-92.1	10.8
2025-01-29 09:56:30.265609	197.0	31.8	-92.0	8.9
2025-01-29 09:56:31.429494	197.1	31.6	-92.0	10.1
2025-01-29 09:56:32.592081	197.1	31.4	-92.3	5.2
2025-01-29 09:56:33.758527	197.2	31.1	-91.8	5.3
2025-01-29 09:56:34.917916	197.2	30.9	-91.5	5.1
2025-01-29 09:56:36.078898	197.3	30.7	-91.9	5.5
2025-01-29 09:56:37.241378	197.3	30.5	-92.3	7.1
2025-01-29 09:56:38.398213	197.4	30.2	-92.2	4.6
2025-01-29 09:56:39.563935	197.4	30.0	-92.1	6.2
2025-01-29 09:56:40.722113	197.5	29.8	-92.2	7.3
2025-01-29 09:56:41.883765	197.5	29.6	-92.5	6.4
2025-01-29 09:56:43.049665	197.6	29.4	-91.9	7.9
2025-01-29 09:56:44.213008	197.6	29.2	-91.9	8.2
2025-01-29 09:56:45.381442	197.7	28.9	-91.8	10.0
2025-01-29 09:56:46.539226	197.7	28.7	-91.8	9.7
2025-01-29 09:56:47.699095	197.8	28.5	-92.1	4.7
2025-01-29 09:56:48.863813	197.8	28.3	-92.4	7.6
2025-01-29 09:56:50.025390	197.8	28.1	-92.0	7.5
2025-01-29 09:56:51.192196	197.9	27.9	-91.5	6.1
2025-01-29 09:56:52.350900	197.9	27.7	-91.9	5.4
2025-01-29 09:56:53.514324	198.0	27.5	-92.4	7.3
2025-01-29 09:56:54.678569	198.0	27.3	-92.1	8.2
2025-01-29 09:56:55.846444	198.1	27.1	-92.1	7.0
2025-01-29 09:56:57.012934	198.1	26.9	-92.2	6.8
2025-01-29 09:56:58.171951	198.1	26.7	-91.9	8.9
2025-01-29 09:56:59.336695	198.2	26.5	-92.0	8.5
2025-01-29 09:57:00.492943	198.2	26.3	-92.0	8.4
2025-01-29 09:57:01.643863	198.3	26.1	-92.3	9.4
2025-01-29 09:57:02.807388	198.3	25.9	-92.2	10.7
2025-01-29 09:57:03.978828	198.3	25.8	-92.3	10.2
2025-01-29 09:57:05.133916	198.4	25.6	-91.9	9.4
2025-01-29 09:57:06.294198	198.4	25.4	-91.7	11.5
2025-01-29 09:57:07.455940	198.5	25.2	-92.1	9.8
2025-01-29 09:57:08.622730	198.5	25.0	-92.3	12.4
2025-01-29 09:57:09.787615	198.5	24.8	-91.7	11.1
2025-01-29 09:57:10.944158	198.6	24.7	-92.2	10.0
2025-01-29 09:57:12.110441	198.6	24.5	-90.6	11.9
2025-01-29 09:57:13.275012	198.6	24.3	-90.2	9.4
2025-01-29 09:57:14.436763	198.7	24.1	-90.0	10.9
2025-01-29 09:57:15.596383	198.7	23.9	-90.7	14.7
2025-01-29 09:57:16.756284	198.8	23.8	-91.9	12.8
2025-01-29 09:57:17.919936	198.8	23.6	-91.7	14.2
2025-01-29 09:57:19.085305	198.8	23.4	-92.1	12.7
2025-01-29 09:57:20.248126	198.9	23.2	-92.1	12.8
2025-01-29 09:57:21.416547	198.9	23.1	-92.1	7.0
2025-01-29 09:57:22.581220	198.9	22.9	-92.2	8.8
2025-01-29 09:57:23.749562	199.0	22.7	-92.0	10.7
2025-01-29 09:57:24.913867	199.0	22.6	-91.8	6.7
2025-01-29 09:57:26.069751	199.0	22.4	-91.7	8.4
2025-01-29 09:57:27.232870	199.1	22.2	-91.8	11.4
2025-01-29 09:57:28.397949	199.1	22.1	-91.6	10.8
2025-01-29 09:57:29.565395	199.1	21.9	-92.1	12.4
2025-01-29 09:57:30.730470	199.2	21.7	-92.1	12.3
2025-01-29 09:57:31.895336	199.2	21.6	-92.0	11.9
2025-01-29 09:57:33.056543	199.2	21.4	-91.8	10.3
2025-01-29 09:57:34.221901	199.2	21.3	-91.4	10.3
2025-01-29 09:57:35.387374	199.3	21.1	-91.7	8.2
2025-01-29 09:57:36.553517	199.3	21.0	-92.0	7.2
2025-01-29 09:57:37.718450	199.3	20.8	-92.5	9.4
2025-01-29 09:57:38.878415	199.4	20.6	-92.0	7.1
2025-01-29 09:57:40.052943	199.4	20.5	-91.7	8.6
2025-01-29 09:57:41.217670	199.4	20.3	-91.0	9.2
2025-01-29 09:57:42.376205	199.5	20.2	-91.4	10.1
2025-01-29 09:57:43.541728	199.5	20.0	-91.8	7.1
2025-01-29 09:57:44.704138	199.5	19.9	-92.1	6.7
2025-01-29 09:57:45.861269	199.5	19.7	-91.7	5.5
2025-01-29 09:57:47.027064	199.6	19.6	-91.7	5.2
2025-01-29 09:57:48.190990	199.6	19.4	-91.7	5.4
2025-01-29 09:57:49.352217	199.6	19.3	-91.7	4.9
2025-01-29 09:57:50.515758	199.7	19.1	-92.2	5.8
2025-01-29 09:57:51.679332	199.7	19.0	-91.9	7.2
2025-01-29 09:57:52.847303	199.7	18.8	-91.8	5.3
2025-01-29 09:57:54.012508	199.7	18.7	-91.9	5.1
2025-01-29 09:57:55.172663	199.8	18.6	-91.9	7.7
2025-01-29 09:57:56.334329	199.8	18.4	-91.4	8.1
2025-01-29 09:57:57.498697	199.8	18.3	-92.0	9.5
2025-01-29 09:57:58.664351	199.8	18.1	-92.0	9.2
2025-01-29 09:57:59.829771	199.9	18.0	-92.2	8.8
2025-01-29 09:58:00.989892	199.9	17.9	-91.8	5.6
2025-01-29 09:58:02.161223	199.9	17.7	-91.3	7.7
2025-01-29 09:58:03.325687	199.9	17.6	-91.3	5.8
2025-01-29 09:58:04.490901	200.0	17.4	-91.7	7.0
2025-01-29 09:58:05.658777	200.0	17.3	-92.1	6.6
2025-01-29 09:58:06.815974	200.0	17.2	-92.3	7.0
2025-01-29 09:58:07.987936	200.0	17.0	-91.8	6.1
2025-01-29 09:58:09.153944	200.1	16.9	-91.9	4.3
2025-01-29 09:58:10.313407	200.1	16.8	-91.7	4.2
2025-01-29 09:58:11.474881	200.1	16.6	-92.0	3.0
2025-01-29 09:58:12.638839	200.1	16.5	-92.2	5.0
2025-01-29 09:58:13.804077	200.2	16.4	-92.2	5.0
2025-01-29 09:58:14.965048	200.2	16.2	-92.4	4.9
2025-01-29 09:58:16.124929	200.2	16.1	-91.9	4.7
2025-01-29 09:58:17.285555	200.2	16.0	-90.7	5.0
2025-01-29 09:58:18.452111	200.2	15.9	-90.9	5.5
2025-01-29 09:58:19.616984	200.3	15.7	-91.0	6.5
2025-01-29 09:58:20.784918	200.3	15.6	-92.0	6.4
2025-01-29 09:58:21.945625	200.3	15.5	-92.1	5.1
2025-01-29 09:58:23.107945	200.3	15.4	-91.8	5.3
2025-01-29 09:58:24.272208	200.4	15.2	-91.6	5.5
2025-01-29 09:58:25.428605	200.4	15.1	-91.7	7.2
2025-01-29 09:58:26.589742	200.4	15.0	-92.0	7.5
2025-01-29 09:58:27.752601	200.4	14.9	-92.2	7.2
2025-01-29 09:58:28.916516	200.4	14.7	-92.4	6.1
2025-01-29 09:58:30.081155	200.5	14.6	-92.2	6.3
2025-01-29 09:58:31.253292	200.5	14.5	-91.9	5.3
#Closed at: 2025-01-29 09:49:17.472754