passes_logs/2025/01/29/LEX_Murmansk/LEX_Murmansk__20250129_194929_NOAA_18_rec.log

#Pass ID: 20250129_194929_NOAA 18
#Satellite: NOAA 18
#Configuration: NOAA 18
#Start time: 2025-01-29 19:49:24.432872

#LorettStation: 1.0.0 05.05.2024
#Station: LEX_Murmansk
#Location: 33.156738 lon 68.926811 lat
#TLE: 1 28654U 05018A   25029.10768076  .00000445  00000+0  25948-3 0  9995
#TLE: 2 28654  98.8544 110.0207 0014928 140.4380 219.7885 14.13500636 15173

#Time	Az	El	Level	SNR
2025-01-29 19:49:36.566731	182.2	16.2	-92.2	5.9
2025-01-29 19:49:37.726200	182.3	16.4	-92.1	4.9
2025-01-29 19:49:38.885013	182.4	16.5	-92.2	5.4
2025-01-29 19:49:40.049698	182.5	16.6	-92.0	5.6
2025-01-29 19:49:41.214639	182.6	16.7	-91.9	4.1
2025-01-29 19:49:42.373916	182.7	16.9	-92.2	3.5
2025-01-29 19:49:43.537521	182.7	17.0	-92.1	5.3
2025-01-29 19:49:44.698778	182.8	17.1	-92.4	7.9
2025-01-29 19:49:45.862278	182.9	17.2	-92.4	5.1
2025-01-29 19:49:47.036825	183.0	17.4	-92.1	5.1
2025-01-29 19:49:48.193934	183.1	17.5	-92.0	6.2
2025-01-29 19:49:49.358322	183.2	17.6	-92.3	7.2
2025-01-29 19:49:50.517735	183.2	17.8	-92.5	8.8
2025-01-29 19:49:51.684960	183.3	17.9	-92.3	7.7
2025-01-29 19:49:52.849209	183.4	18.0	-92.0	9.3
2025-01-29 19:49:54.010656	183.5	18.2	-92.2	8.3
2025-01-29 19:49:55.174996	183.6	18.3	-92.2	10.1
2025-01-29 19:49:56.336884	183.7	18.4	-91.9	3.2
2025-01-29 19:49:57.502284	183.8	18.5	-92.7	4.7
2025-01-29 19:49:58.661581	183.9	18.7	-92.1	10.9
2025-01-29 19:49:59.820297	184.0	18.8	-92.3	6.6
2025-01-29 19:50:00.985972	184.1	18.9	-92.5	8.0
2025-01-29 19:50:02.144120	184.2	19.1	-92.2	11.1
2025-01-29 19:50:03.305040	184.3	19.2	-92.4	7.1
2025-01-29 19:50:04.471784	184.4	19.4	-92.6	9.2
2025-01-29 19:50:05.632046	184.5	19.5	-92.3	9.5
2025-01-29 19:50:06.797220	184.6	19.6	-92.4	7.9
2025-01-29 19:50:07.953891	184.7	19.8	-92.4	9.5
2025-01-29 19:50:09.116300	184.8	19.9	-91.9	8.9
2025-01-29 19:50:10.273415	184.9	20.1	-92.1	11.3
2025-01-29 19:50:11.413788	185.0	20.2	-92.4	7.8
2025-01-29 19:50:12.535369	185.1	20.3	-92.3	9.0
2025-01-29 19:50:13.657399	185.2	20.5	-92.3	8.8
2025-01-29 19:50:14.777943	185.3	20.6	-92.5	5.9
2025-01-29 19:50:15.899438	185.4	20.7	-92.5	6.6
2025-01-29 19:50:17.019999	185.5	20.9	-92.4	8.2
2025-01-29 19:50:18.141366	185.6	21.0	-92.4	7.1
2025-01-29 19:50:19.262587	185.7	21.2	-92.4	8.2
2025-01-29 19:50:20.383074	185.8	21.3	-92.7	9.2
2025-01-29 19:50:21.505396	185.9	21.4	-92.5	8.6
2025-01-29 19:50:22.640631	186.0	21.6	-92.4	9.0
2025-01-29 19:50:23.799332	186.1	21.7	-92.3	7.5
2025-01-29 19:50:24.945068	186.2	21.9	-92.3	9.5
2025-01-29 19:50:26.112503	186.3	22.0	-92.3	10.9
2025-01-29 19:50:27.261775	186.4	22.2	-92.6	9.4
2025-01-29 19:50:28.420338	186.5	22.3	-92.6	6.4
2025-01-29 19:50:29.584489	186.7	22.5	-92.7	10.4
2025-01-29 19:50:30.748546	186.8	22.6	-92.6	11.1
2025-01-29 19:50:31.913673	186.9	22.8	-92.3	5.1
2025-01-29 19:50:33.080212	187.0	23.0	-92.1	10.1
2025-01-29 19:50:34.244292	187.1	23.1	-90.8	8.8
2025-01-29 19:50:35.408112	187.3	23.3	-91.2	10.5
2025-01-29 19:50:36.584710	187.4	23.4	-90.9	10.9
2025-01-29 19:50:37.744197	187.5	23.6	-91.0	12.6
2025-01-29 19:50:38.904712	187.6	23.7	-92.5	8.1
2025-01-29 19:50:40.072313	187.8	23.9	-92.2	12.5
2025-01-29 19:50:41.232122	187.9	24.1	-92.1	12.1
2025-01-29 19:50:42.393993	188.0	24.2	-92.2	12.9
2025-01-29 19:50:43.554508	188.2	24.4	-92.5	10.6
2025-01-29 19:50:44.721026	188.3	24.5	-93.2	11.4
2025-01-29 19:50:45.877766	188.4	24.7	-92.3	7.8
2025-01-29 19:50:47.041204	188.6	24.9	-92.3	10.2
2025-01-29 19:50:48.201490	188.7	25.0	-92.3	9.6
2025-01-29 19:50:49.363607	188.8	25.2	-92.4	6.7
2025-01-29 19:50:50.525628	189.0	25.4	-92.4	7.8
2025-01-29 19:50:51.685583	189.1	25.5	-92.6	9.9
2025-01-29 19:50:52.850125	189.3	25.7	-92.6	9.1
2025-01-29 19:50:54.020142	189.4	25.9	-92.4	8.2
2025-01-29 19:50:55.179363	189.6	26.1	-91.8	9.2
2025-01-29 19:50:56.337367	189.7	26.2	-92.1	8.8
2025-01-29 19:50:57.494069	189.8	26.4	-92.5	10.0
2025-01-29 19:50:58.652260	190.0	26.6	-92.2	10.1
2025-01-29 19:50:59.819249	190.1	26.7	-92.2	13.1
2025-01-29 19:51:00.976316	190.3	26.9	-91.9	12.7
2025-01-29 19:51:02.143853	190.5	27.1	-92.0	11.5
2025-01-29 19:51:03.301785	190.6	27.3	-92.2	7.7
2025-01-29 19:51:04.465052	190.8	27.5	-92.5	6.7
2025-01-29 19:51:05.627103	190.9	27.6	-92.2	8.6
2025-01-29 19:51:06.786795	191.1	27.8	-92.4	4.5
2025-01-29 19:51:07.947891	191.3	28.0	-92.5	4.5
2025-01-29 19:51:09.109267	191.4	28.2	-92.5	7.6
2025-01-29 19:51:10.275231	191.6	28.4	-92.3	10.2
2025-01-29 19:51:11.437114	191.8	28.5	-92.4	9.2
2025-01-29 19:51:12.593812	191.9	28.7	-92.4	10.4
2025-01-29 19:51:13.756604	192.1	28.9	-92.3	6.8
2025-01-29 19:51:14.925415	192.3	29.1	-92.2	7.6
2025-01-29 19:51:16.086941	192.5	29.3	-92.1	10.7
2025-01-29 19:51:17.256023	192.6	29.5	-91.9	11.6
2025-01-29 19:51:18.411548	192.8	29.7	-91.9	13.0
2025-01-29 19:51:19.576735	193.0	29.9	-92.5	10.6
2025-01-29 19:51:20.745684	193.2	30.1	-92.5	10.8
2025-01-29 19:51:21.907110	193.4	30.3	-92.4	8.2
2025-01-29 19:51:23.072846	193.6	30.4	-92.3	7.4
2025-01-29 19:51:24.236769	193.7	30.6	-92.1	6.2
2025-01-29 19:51:25.406203	193.9	30.8	-92.4	4.2
2025-01-29 19:51:26.568034	194.1	31.0	-92.6	3.8
2025-01-29 19:51:27.729699	194.3	31.2	-92.5	4.2
2025-01-29 19:51:28.888296	194.5	31.4	-92.4	3.9
2025-01-29 19:51:30.056621	194.7	31.6	-92.2	4.6
2025-01-29 19:51:31.213672	194.9	31.8	-92.4	4.9
2025-01-29 19:51:32.387687	195.2	32.0	-92.4	5.3
2025-01-29 19:51:33.553681	195.4	32.2	-92.4	10.2
2025-01-29 19:51:34.717393	195.6	32.4	-92.5	13.8
2025-01-29 19:51:35.882391	195.8	32.6	-92.3	12.4
2025-01-29 19:51:37.047279	196.0	32.8	-92.2	14.3
2025-01-29 19:51:38.204584	196.2	33.1	-90.9	12.5
2025-01-29 19:51:39.376849	196.5	33.3	-90.8	11.7
2025-01-29 19:51:40.544469	196.7	33.5	-91.3	10.8
2025-01-29 19:51:41.718574	196.9	33.7	-90.9	10.0
2025-01-29 19:51:42.883359	197.2	33.9	-92.6	3.8
2025-01-29 19:51:44.043952	197.4	34.1	-92.4	9.3
2025-01-29 19:51:45.208101	197.6	34.3	-92.3	13.7
2025-01-29 19:51:46.381771	197.9	34.5	-92.0	7.5
2025-01-29 19:51:47.548544	198.1	34.7	-92.2	15.6
2025-01-29 19:51:48.709060	198.4	35.0	-92.3	14.2
2025-01-29 19:51:49.880059	198.6	35.2	-92.5	14.9
2025-01-29 19:51:51.033818	198.9	35.4	-92.5	12.5
2025-01-29 19:51:52.154753	199.1	35.6	-92.5	13.0
2025-01-29 19:51:53.305726	199.4	35.8	-92.0	7.3
2025-01-29 19:51:54.468551	199.6	36.0	-92.3	8.0
2025-01-29 19:51:55.634820	199.9	36.3	-92.5	10.7
2025-01-29 19:51:56.796258	200.2	36.5	-92.7	12.8
2025-01-29 19:51:57.961619	200.5	36.7	-92.5	15.5
2025-01-29 19:51:59.118301	200.7	36.9	-92.4	15.3
2025-01-29 19:52:00.274864	201.0	37.1	-92.4	11.0
2025-01-29 19:52:01.439856	201.3	37.4	-92.5	10.2
2025-01-29 19:52:02.603329	201.6	37.6	-92.5	12.0
2025-01-29 19:52:03.767904	201.9	37.8	-92.4	5.6
2025-01-29 19:52:04.927376	202.2	38.0	-92.6	5.8
2025-01-29 19:52:06.087715	202.5	38.3	-92.1	12.2
2025-01-29 19:52:07.248785	202.8	38.5	-92.1	11.7
2025-01-29 19:52:08.420859	203.1	38.7	-92.0	12.8
2025-01-29 19:52:09.578709	203.4	38.9	-92.7	16.1
2025-01-29 19:52:10.752324	203.7	39.2	-92.6	14.1
2025-01-29 19:52:11.922768	204.1	39.4	-92.2	14.5
2025-01-29 19:52:13.089617	204.4	39.6	-92.0	15.8
2025-01-29 19:52:14.252342	204.7	39.9	-92.0	13.5
2025-01-29 19:52:15.418494	205.1	40.1	-92.5	15.3
2025-01-29 19:52:16.587162	205.4	40.3	-92.5	18.0
2025-01-29 19:52:17.756236	205.8	40.6	-92.4	14.9
2025-01-29 19:52:18.916257	206.1	40.8	-92.7	17.5
2025-01-29 19:52:20.082220	206.5	41.0	-92.4	19.4
2025-01-29 19:52:21.246137	206.8	41.3	-92.2	16.0
2025-01-29 19:52:22.410000	207.2	41.5	-92.5	15.8
2025-01-29 19:52:23.574493	207.6	41.7	-92.3	17.2
2025-01-29 19:52:24.734298	208.0	42.0	-92.4	16.9
2025-01-29 19:52:25.893128	208.3	42.2	-92.5	7.2
2025-01-29 19:52:27.052806	208.7	42.4	-92.4	16.7
2025-01-29 19:52:28.205234	209.1	42.7	-92.3	19.7
2025-01-29 19:52:29.361303	209.5	42.9	-92.0	10.1
2025-01-29 19:52:30.526426	209.9	43.1	-92.1	16.9
2025-01-29 19:52:31.687266	210.3	43.3	-92.5	17.4
2025-01-29 19:52:32.833240	210.7	43.6	-92.4	16.5
2025-01-29 19:52:33.954979	211.1	43.8	-92.4	17.1
2025-01-29 19:52:35.077023	211.6	44.0	-92.1	16.8
2025-01-29 19:52:36.198096	212.0	44.2	-92.2	17.5
2025-01-29 19:52:37.319090	212.4	44.5	-92.2	11.6
2025-01-29 19:52:38.440302	212.8	44.7	-92.2	11.3
2025-01-29 19:52:39.561137	213.3	44.9	-92.7	15.6
2025-01-29 19:52:40.683734	213.7	45.1	-92.4	12.7
2025-01-29 19:52:41.804556	214.2	45.4	-92.7	11.4
2025-01-29 19:52:42.929473	214.6	45.6	-91.4	9.6
2025-01-29 19:52:44.050151	215.1	45.8	-91.3	15.5
2025-01-29 19:52:45.219107	215.6	46.0	-91.3	13.0
2025-01-29 19:52:46.374485	216.1	46.2	-91.5	10.5
2025-01-29 19:52:47.537219	216.6	46.5	-92.4	12.6
2025-01-29 19:52:48.687810	217.1	46.7	-92.8	15.3
2025-01-29 19:52:49.852831	217.6	46.9	-92.5	9.7
2025-01-29 19:52:51.016585	218.1	47.1	-92.2	11.7
2025-01-29 19:52:52.175193	218.6	47.4	-92.0	14.3
2025-01-29 19:52:53.334422	219.2	47.6	-92.7	9.4
2025-01-29 19:52:54.509595	219.7	47.8	-92.4	11.0
2025-01-29 19:52:55.668781	220.3	48.0	-92.4	15.2
2025-01-29 19:52:56.833165	220.8	48.2	-92.6	10.6
2025-01-29 19:52:57.999959	221.4	48.4	-92.5	13.1
2025-01-29 19:52:59.155060	222.0	48.6	-92.5	16.9
2025-01-29 19:53:00.323044	222.5	48.8	-92.5	20.0
2025-01-29 19:53:01.484217	223.1	49.0	-92.5	18.4
2025-01-29 19:53:02.648062	223.7	49.2	-92.5	20.6
2025-01-29 19:53:03.811709	224.3	49.4	-92.5	20.6
2025-01-29 19:53:04.974772	224.9	49.6	-92.4	17.3
2025-01-29 19:53:06.138338	225.6	49.8	-92.1	18.9
2025-01-29 19:53:07.305102	226.2	50.0	-92.2	13.1
2025-01-29 19:53:08.468092	226.8	50.2	-92.4	13.6
2025-01-29 19:53:09.601358	227.5	50.4	-92.5	16.1
2025-01-29 19:53:10.741006	228.1	50.6	-92.2	19.0
2025-01-29 19:53:11.900839	228.7	50.8	-92.7	14.2
2025-01-29 19:53:13.049794	229.4	50.9	-92.4	20.9
2025-01-29 19:53:14.212373	230.1	51.1	-92.3	17.3
2025-01-29 19:53:15.361493	230.8	51.3	-92.5	18.0
2025-01-29 19:53:16.513252	231.4	51.4	-92.9	19.9
2025-01-29 19:53:17.655700	232.1	51.6	-92.5	17.2
2025-01-29 19:53:18.802373	232.8	51.7	-92.6	17.8
2025-01-29 19:53:19.973511	233.5	51.9	-92.3	16.6
2025-01-29 19:53:21.136956	234.2	52.1	-92.0	18.2
2025-01-29 19:53:22.303643	235.0	52.2	-91.9	9.6
2025-01-29 19:53:23.471798	235.7	52.3	-92.5	5.8
2025-01-29 19:53:24.632102	236.5	52.5	-92.4	15.6
2025-01-29 19:53:25.800965	237.2	52.6	-92.4	11.4
2025-01-29 19:53:26.966562	238.0	52.7	-92.2	9.3
2025-01-29 19:53:28.124572	238.7	52.9	-92.3	14.6
2025-01-29 19:53:29.281780	239.5	53.0	-92.5	8.3
2025-01-29 19:53:30.446377	240.2	53.1	-92.5	11.9
2025-01-29 19:53:31.608735	241.0	53.2	-92.4	18.8
2025-01-29 19:53:32.769430	241.8	53.3	-92.2	15.6
2025-01-29 19:53:33.934250	242.6	53.4	-92.5	8.7
2025-01-29 19:53:35.098835	243.4	53.5	-92.4	13.5
2025-01-29 19:53:36.261930	244.2	53.6	-92.6	14.3
2025-01-29 19:53:37.419383	245.0	53.7	-92.6	17.0
2025-01-29 19:53:38.580318	245.8	53.8	-92.5	15.4
2025-01-29 19:53:39.735383	246.6	53.8	-92.6	10.7
2025-01-29 19:53:40.896392	247.4	53.9	-92.6	10.6
2025-01-29 19:53:42.058562	248.2	54.0	-92.3	11.0
2025-01-29 19:53:43.237353	249.1	54.0	-91.9	5.4
2025-01-29 19:53:44.400315	249.9	54.1	-92.0	10.5
2025-01-29 19:53:45.550260	250.7	54.1	-92.5	8.4
2025-01-29 19:53:46.718186	251.6	54.1	-91.4	12.4
2025-01-29 19:53:47.870503	252.4	54.2	-91.3	7.1
2025-01-29 19:53:49.032544	253.2	54.2	-90.8	4.0
2025-01-29 19:53:50.193951	254.0	54.2	-90.7	12.3
2025-01-29 19:53:51.360542	254.9	54.2	-92.2	11.0
2025-01-29 19:53:52.519776	255.7	54.2	-92.7	10.7
2025-01-29 19:53:53.677322	256.6	54.2	-92.4	18.2
2025-01-29 19:53:54.840872	257.4	54.2	-92.5	11.8
2025-01-29 19:53:56.004093	258.2	54.2	-92.4	13.7
2025-01-29 19:53:57.161443	259.1	54.2	-92.5	20.6
2025-01-29 19:53:58.324999	259.9	54.2	-92.5	14.5
2025-01-29 19:53:59.483121	260.7	54.1	-92.6	8.1
2025-01-29 19:54:00.647366	261.6	54.1	-92.8	20.4
2025-01-29 19:54:01.804213	262.4	54.1	-92.8	15.0
2025-01-29 19:54:02.963559	263.2	54.0	-92.9	13.1
2025-01-29 19:54:04.128899	264.0	54.0	-92.4	18.9
2025-01-29 19:54:05.288614	264.8	53.9	-92.2	19.1
2025-01-29 19:54:06.450026	265.7	53.8	-92.5	18.7
2025-01-29 19:54:07.610960	266.5	53.8	-92.3	24.3
2025-01-29 19:54:08.777406	267.3	53.7	-92.3	21.7
2025-01-29 19:54:09.940545	268.1	53.6	-92.3	22.1
2025-01-29 19:54:11.111759	268.9	53.5	-92.1	20.4
2025-01-29 19:54:12.276602	269.7	53.4	-92.2	20.5
2025-01-29 19:54:13.438531	270.5	53.3	-92.6	26.5
2025-01-29 19:54:14.603921	271.3	53.2	-92.4	23.8
2025-01-29 19:54:15.763343	272.1	53.1	-92.7	22.7
2025-01-29 19:54:16.927581	272.8	53.0	-92.6	22.3
2025-01-29 19:54:18.089173	273.6	52.9	-92.5	22.9
2025-01-29 19:54:19.251027	274.4	52.8	-92.3	20.9
2025-01-29 19:54:20.410477	275.1	52.7	-92.4	19.9
2025-01-29 19:54:21.571482	275.9	52.5	-92.6	22.5
2025-01-29 19:54:22.732174	276.6	52.4	-92.6	22.2
2025-01-29 19:54:23.895258	277.3	52.3	-92.8	20.4
2025-01-29 19:54:25.059470	278.1	52.1	-92.7	23.9
2025-01-29 19:54:26.221645	278.8	52.0	-92.8	21.8
2025-01-29 19:54:27.388711	279.5	51.8	-92.9	14.5
2025-01-29 19:54:28.553150	280.2	51.6	-92.9	15.4
2025-01-29 19:54:29.716447	280.9	51.5	-92.2	25.1
2025-01-29 19:54:30.872328	281.6	51.3	-92.7	12.6
2025-01-29 19:54:32.036045	282.3	51.2	-92.5	12.1
2025-01-29 19:54:33.198994	283.0	51.0	-92.3	13.8
2025-01-29 19:54:34.361818	283.6	50.8	-92.5	16.9
2025-01-29 19:54:35.531333	284.3	50.6	-92.9	13.6
2025-01-29 19:54:36.702839	284.9	50.4	-92.8	11.8
2025-01-29 19:54:37.869728	285.6	50.3	-92.5	17.1
2025-01-29 19:54:39.034468	286.2	50.1	-92.4	15.6
2025-01-29 19:54:40.199680	286.9	49.9	-92.5	13.2
2025-01-29 19:54:41.364294	287.5	49.7	-92.8	11.2
2025-01-29 19:54:42.532628	288.1	49.5	-92.5	21.4
2025-01-29 19:54:43.695171	288.7	49.3	-92.8	11.2
2025-01-29 19:54:44.857723	289.3	49.1	-92.4	16.5
2025-01-29 19:54:46.026526	289.9	48.9	-92.6	11.4
2025-01-29 19:54:47.186659	290.5	48.7	-92.2	18.5
2025-01-29 19:54:48.347865	291.1	48.5	-92.0	14.7
2025-01-29 19:54:49.504319	291.6	48.3	-92.6	7.2
2025-01-29 19:54:50.665988	292.2	48.0	-92.5	20.0
2025-01-29 19:54:51.826788	292.7	47.8	-91.5	4.9
2025-01-29 19:54:52.988091	293.3	47.6	-91.3	10.0
2025-01-29 19:54:54.152432	293.8	47.4	-90.9	11.4
2025-01-29 19:54:55.311229	294.3	47.2	-92.1	13.7
2025-01-29 19:54:56.474803	294.9	47.0	-92.6	12.7
2025-01-29 19:54:57.634718	295.4	46.7	-92.9	13.8
2025-01-29 19:54:58.799796	295.9	46.5	-93.0	9.2
2025-01-29 19:54:59.963698	296.4	46.3	-93.1	10.5
2025-01-29 19:55:01.120705	296.9	46.1	-92.9	13.8
2025-01-29 19:55:02.279731	297.4	45.8	-93.1	12.3
2025-01-29 19:55:03.442443	297.8	45.6	-92.8	6.4
2025-01-29 19:55:04.610731	298.3	45.4	-92.6	17.2
2025-01-29 19:55:05.778998	298.8	45.2	-92.5	12.7
2025-01-29 19:55:06.943804	299.2	44.9	-92.6	9.7
2025-01-29 19:55:08.107650	299.7	44.7	-92.7	4.3
2025-01-29 19:55:09.264647	300.1	44.5	-92.5	9.8
2025-01-29 19:55:10.428096	300.6	44.2	-92.9	6.9
2025-01-29 19:55:11.587169	301.0	44.0	-93.0	21.6
2025-01-29 19:55:12.743814	301.4	43.8	-93.0	14.5
2025-01-29 19:55:13.884360	301.9	43.6	-92.8	13.1
2025-01-29 19:55:15.007278	302.3	43.3	-92.6	13.9
2025-01-29 19:55:16.127210	302.7	43.1	-92.4	7.5
2025-01-29 19:55:17.246625	303.1	42.9	-92.3	15.3
2025-01-29 19:55:18.366576	303.4	42.7	-92.5	18.7
2025-01-29 19:55:19.487126	303.8	42.4	-92.6	18.3
2025-01-29 19:55:20.609467	304.2	42.2	-92.4	21.0
2025-01-29 19:55:21.731775	304.6	42.0	-92.4	15.3
2025-01-29 19:55:22.852140	304.9	41.8	-92.6	15.6
2025-01-29 19:55:23.976641	305.3	41.5	-92.2	20.8
2025-01-29 19:55:25.113218	305.7	41.3	-92.8	17.8
2025-01-29 19:55:26.276489	306.0	41.1	-92.7	18.0
2025-01-29 19:55:27.434340	306.4	40.8	-92.9	19.5
2025-01-29 19:55:28.596676	306.7	40.6	-92.9	11.4
2025-01-29 19:55:29.744239	307.1	40.4	-93.1	8.5
2025-01-29 19:55:30.906888	307.4	40.2	-92.8	13.5
2025-01-29 19:55:32.072924	307.8	39.9	-92.7	14.3
2025-01-29 19:55:33.232662	308.1	39.7	-92.5	17.6
2025-01-29 19:55:34.393964	308.4	39.5	-92.6	10.6
2025-01-29 19:55:35.553963	308.7	39.2	-92.8	13.2
2025-01-29 19:55:36.716420	309.1	39.0	-92.8	19.3
2025-01-29 19:55:37.876898	309.4	38.8	-92.8	13.8
2025-01-29 19:55:39.042823	309.7	38.6	-92.4	14.1
2025-01-29 19:55:40.200757	310.0	38.3	-92.2	13.7
2025-01-29 19:55:41.362960	310.3	38.1	-92.4	11.3
2025-01-29 19:55:42.523865	310.6	37.9	-92.3	11.9
2025-01-29 19:55:43.686812	310.9	37.7	-92.5	12.7
2025-01-29 19:55:44.851176	311.2	37.4	-92.8	10.8
2025-01-29 19:55:46.011007	311.5	37.2	-92.7	13.9
2025-01-29 19:55:47.175272	311.8	37.0	-92.8	14.5
2025-01-29 19:55:48.337373	312.0	36.8	-92.5	12.0
2025-01-29 19:55:49.497983	312.3	36.5	-92.9	14.8
2025-01-29 19:55:50.658997	312.6	36.3	-92.8	14.5
2025-01-29 19:55:51.824735	312.9	36.1	-93.0	14.1
2025-01-29 19:55:52.980276	313.1	35.9	-92.4	11.2
2025-01-29 19:55:54.145821	313.4	35.7	-92.4	13.5
2025-01-29 19:55:55.307564	313.6	35.4	-91.3	9.7
2025-01-29 19:55:56.470246	313.9	35.2	-91.5	10.8
2025-01-29 19:55:57.629715	314.1	35.0	-91.3	14.7
2025-01-29 19:55:58.793206	314.4	34.8	-90.8	9.7
2025-01-29 19:55:59.955805	314.6	34.6	-92.8	10.6
2025-01-29 19:56:01.123789	314.9	34.4	-92.8	14.1
2025-01-29 19:56:02.286907	315.1	34.2	-92.7	9.8
2025-01-29 19:56:03.459915	315.4	33.9	-93.0	11.9
2025-01-29 19:56:04.625613	315.6	33.7	-92.8	18.1
2025-01-29 19:56:05.790673	315.8	33.5	-92.8	11.4
2025-01-29 19:56:06.954572	316.1	33.3	-93.4	13.6
2025-01-29 19:56:08.119390	316.3	33.1	-92.8	16.9
2025-01-29 19:56:09.280403	316.5	32.9	-92.5	15.9
2025-01-29 19:56:10.440219	316.7	32.7	-92.9	14.5
2025-01-29 19:56:11.605014	316.9	32.5	-92.7	15.8
2025-01-29 19:56:12.772296	317.2	32.3	-92.5	17.7
2025-01-29 19:56:13.935474	317.4	32.1	-92.4	17.7
2025-01-29 19:56:15.099266	317.6	31.9	-91.8	18.0
2025-01-29 19:56:16.257884	317.8	31.7	-92.3	15.0
2025-01-29 19:56:17.411440	318.0	31.5	-92.7	12.7
2025-01-29 19:56:18.566414	318.2	31.3	-92.8	16.0
2025-01-29 19:56:19.720028	318.4	31.1	-93.0	16.6
2025-01-29 19:56:20.880231	318.6	30.9	-92.9	10.5
2025-01-29 19:56:22.044730	318.8	30.7	-92.1	10.9
2025-01-29 19:56:23.202893	319.0	30.5	-92.1	12.3
2025-01-29 19:56:24.363863	319.2	30.3	-92.5	10.1
2025-01-29 19:56:25.533230	319.3	30.1	-92.6	12.1
2025-01-29 19:56:26.688199	319.5	29.9	-92.6	13.3
2025-01-29 19:56:27.853568	319.7	29.7	-92.7	9.5
2025-01-29 19:56:29.016378	319.9	29.5	-92.2	17.8
2025-01-29 19:56:30.177085	320.1	29.4	-92.0	16.0
2025-01-29 19:56:31.337281	320.3	29.2	-92.4	15.5
2025-01-29 19:56:32.502271	320.4	29.0	-92.7	15.2
2025-01-29 19:56:33.664285	320.6	28.8	-92.5	14.7
2025-01-29 19:56:34.827039	320.8	28.6	-92.7	9.2
2025-01-29 19:56:35.989761	320.9	28.4	-92.4	9.6
2025-01-29 19:56:37.150197	321.1	28.2	-92.7	16.1
2025-01-29 19:56:38.307003	321.3	28.1	-92.9	7.8
2025-01-29 19:56:39.468561	321.4	27.9	-92.8	8.2
2025-01-29 19:56:40.636771	321.6	27.7	-92.7	14.4
2025-01-29 19:56:41.791407	321.8	27.5	-92.7	11.0
2025-01-29 19:56:42.956211	321.9	27.3	-92.8	8.2
2025-01-29 19:56:44.116476	322.1	27.2	-92.4	14.5
2025-01-29 19:56:45.280283	322.2	27.0	-92.2	11.1
2025-01-29 19:56:46.441032	322.4	26.8	-92.3	12.9
2025-01-29 19:56:47.603115	322.5	26.6	-92.6	13.7
2025-01-29 19:56:48.762294	322.7	26.5	-92.8	11.2
2025-01-29 19:56:49.930878	322.8	26.3	-92.8	10.7
2025-01-29 19:56:51.096733	323.0	26.1	-92.5	12.9
2025-01-29 19:56:52.259710	323.1	25.9	-92.5	11.0
2025-01-29 19:56:53.426022	323.3	25.8	-92.7	9.4
2025-01-29 19:56:54.586502	323.4	25.6	-92.4	14.8
2025-01-29 19:56:55.739627	323.6	25.4	-92.8	11.8
2025-01-29 19:56:56.899844	323.7	25.3	-92.9	7.2
2025-01-29 19:56:58.066862	323.9	25.1	-92.8	14.9
2025-01-29 19:56:59.226882	324.0	24.9	-92.3	15.6
2025-01-29 19:57:00.385079	324.1	24.8	-91.0	10.3
2025-01-29 19:57:01.540211	324.3	24.6	-91.9	14.1
2025-01-29 19:57:02.708211	324.4	24.4	-91.5	13.3
2025-01-29 19:57:03.867842	324.5	24.3	-92.6	13.4
2025-01-29 19:57:05.032884	324.7	24.1	-92.7	9.2
2025-01-29 19:57:06.198316	324.8	24.0	-92.5	9.7
2025-01-29 19:57:07.360827	324.9	23.8	-92.7	9.6
2025-01-29 19:57:08.520294	325.0	23.6	-92.6	8.7
2025-01-29 19:57:09.672086	325.2	23.5	-93.0	13.9
2025-01-29 19:57:10.834563	325.3	23.3	-92.6	5.6
2025-01-29 19:57:11.993014	325.4	23.2	-92.2	3.4
2025-01-29 19:57:13.158446	325.5	23.0	-92.3	7.9
2025-01-29 19:57:14.317956	325.7	22.8	-92.6	7.5
2025-01-29 19:57:15.482921	325.8	22.7	-92.8	6.2
2025-01-29 19:57:16.646442	325.9	22.5	-92.9	5.7
2025-01-29 19:57:17.808173	326.0	22.4	-92.9	9.1
2025-01-29 19:57:18.969402	326.1	22.2	-92.7	10.3
2025-01-29 19:57:20.126685	326.2	22.1	-92.3	10.1
2025-01-29 19:57:21.288608	326.4	21.9	-92.3	6.9
2025-01-29 19:57:22.463974	326.5	21.8	-92.9	7.4
2025-01-29 19:57:23.624241	326.6	21.6	-92.5	14.5
2025-01-29 19:57:24.783276	326.7	21.5	-92.7	9.4
2025-01-29 19:57:25.946642	326.8	21.3	-93.0	4.5
2025-01-29 19:57:27.106910	326.9	21.2	-92.6	5.4
2025-01-29 19:57:28.273895	327.0	21.0	-92.6	5.0
2025-01-29 19:57:29.437233	327.1	20.9	-92.8	9.1
2025-01-29 19:57:30.602644	327.2	20.8	-93.0	7.6
2025-01-29 19:57:31.765186	327.3	20.6	-92.8	5.5
2025-01-29 19:57:32.927769	327.5	20.5	-92.8	4.7
2025-01-29 19:57:34.096405	327.6	20.3	-92.5	5.9
2025-01-29 19:57:35.250326	327.7	20.2	-92.5	4.4
2025-01-29 19:57:36.414469	327.8	20.0	-93.0	2.3
2025-01-29 19:57:37.577653	327.9	19.9	-92.8	4.8
2025-01-29 19:57:38.738207	328.0	19.8	-92.8	6.4
2025-01-29 19:57:39.894472	328.1	19.6	-92.6	3.5
2025-01-29 19:57:41.062668	328.2	19.5	-92.6	3.7
2025-01-29 19:57:42.231766	328.3	19.4	-92.6	9.7
2025-01-29 19:57:43.393031	328.4	19.2	-92.7	4.3
2025-01-29 19:57:44.556463	328.5	19.1	-92.4	5.5
2025-01-29 19:57:45.725057	328.5	18.9	-92.7	6.3
2025-01-29 19:57:46.891253	328.6	18.8	-92.6	7.8
2025-01-29 19:57:48.058121	328.7	18.7	-92.5	6.1
2025-01-29 19:57:49.225209	328.8	18.5	-92.6	4.5
2025-01-29 19:57:50.385506	328.9	18.4	-92.5	5.8
2025-01-29 19:57:51.558330	329.0	18.3	-92.7	6.4
2025-01-29 19:57:52.716597	329.1	18.1	-92.8	4.3
2025-01-29 19:57:53.879863	329.2	18.0	-92.9	4.8
2025-01-29 19:57:55.042281	329.3	17.9	-92.4	3.9
2025-01-29 19:57:56.203649	329.4	17.8	-92.7	4.5
2025-01-29 19:57:57.364150	329.5	17.6	-92.6	2.9
2025-01-29 19:57:58.522700	329.6	17.5	-92.8	6.0
2025-01-29 19:57:59.689688	329.6	17.4	-92.8	5.1
2025-01-29 19:58:00.840667	329.7	17.2	-92.9	4.6
2025-01-29 19:58:02.004662	329.8	17.1	-92.7	3.7
2025-01-29 19:58:03.166542	329.9	17.0	-92.7	5.0
2025-01-29 19:58:04.329978	330.0	16.9	-91.1	7.7
2025-01-29 19:58:05.493967	330.1	16.7	-91.3	6.1
2025-01-29 19:58:06.657529	330.1	16.6	-90.9	4.2
2025-01-29 19:58:07.822180	330.2	16.5	-91.6	4.7
2025-01-29 19:58:08.986221	330.3	16.4	-92.1	3.1
2025-01-29 19:58:10.144019	330.4	16.2	-92.9	6.6
2025-01-29 19:58:11.307685	330.5	16.1	-92.6	5.3
2025-01-29 19:58:12.477908	330.5	16.0	-92.4	4.7
2025-01-29 19:58:13.642309	330.6	15.9	-92.4	4.4
2025-01-29 19:58:14.806942	330.7	15.8	-92.4	6.8
2025-01-29 19:58:15.972469	330.8	15.6	-92.3	3.2
2025-01-29 19:58:17.137568	330.9	15.5	-92.6	8.7
2025-01-29 19:58:18.298125	330.9	15.4	-92.2	3.9
2025-01-29 19:58:19.458100	331.0	15.3	-92.2	2.7
2025-01-29 19:58:20.617744	331.1	15.2	-92.5	4.6
2025-01-29 19:58:21.783060	331.2	15.0	-92.8	4.6
2025-01-29 19:58:22.950256	331.2	14.9	-92.5	4.9
2025-01-29 19:58:24.114585	331.3	14.8	-91.9	10.5
2025-01-29 19:58:25.280897	331.4	14.7	-92.1	3.3
2025-01-29 19:58:26.440459	331.5	14.6	-92.6	5.3
#Closed at: 2025-01-29 19:49:29.338125