passes_logs/2026/01/16/PlanumMoscow/PlanumMoscow__20260116_011456_METEOR-M2_4_rec.log

#Pass ID: 20260116_011456_METEOR-M2 4
#Satellite: METEOR-M2 4
#Configuration: METEOR-M2 4
#Start time: 2026-01-16 01:15:01.318337

#LorettStation: 1.0.0 05.05.2024
#Station: PlanumMoscow
#Location: 37.6253844 lon 55.6713361 lat
#TLE: 1 59051U 24039A   25293.94737965  .00000087  00000+0  58459-4 0  9998
#TLE: 2 59051  98.6671 251.7071 0007726 135.4772 224.7028 14.22388966 85257

#Time	Az	El	Level	SNR
2026-01-16 01:18:39.863418	9.7	29.2	-61.6	8.6
2026-01-16 01:18:40.986672	9.7	29.4	-62.7	9.0
2026-01-16 01:18:42.108454	9.6	29.6	-62.3	8.8
2026-01-16 01:18:43.229716	9.6	29.8	-62.0	7.8
2026-01-16 01:18:44.351969	9.5	30.0	-62.4	8.8
2026-01-16 01:18:45.474230	9.4	30.2	-61.7	8.3
2026-01-16 01:18:46.595988	9.4	30.4	-61.9	9.7
2026-01-16 01:18:47.717280	9.3	30.6	-62.4	9.6
2026-01-16 01:18:48.839534	9.2	30.8	-62.6	9.5
2026-01-16 01:18:49.961795	9.2	31.1	-62.1	8.9
2026-01-16 01:18:51.084049	9.1	31.3	-63.3	9.7
2026-01-16 01:18:52.206302	9.0	31.5	-63.5	9.8
2026-01-16 01:18:53.328089	8.9	31.7	-63.4	9.6
2026-01-16 01:18:54.450343	8.9	32.0	-63.3	10.2
2026-01-16 01:18:55.572101	8.8	32.2	-63.7	10.1
2026-01-16 01:18:56.694363	8.7	32.4	-63.6	10.3
2026-01-16 01:18:57.816129	8.6	32.6	-63.4	10.5
2026-01-16 01:18:58.938405	8.6	32.9	-63.2	9.9
2026-01-16 01:19:00.060659	8.5	33.1	-63.2	9.4
2026-01-16 01:19:01.182921	8.4	33.3	-63.0	9.8
2026-01-16 01:19:02.305173	8.3	33.6	-63.3	9.7
2026-01-16 01:19:03.426460	8.2	33.8	-62.7	9.4
2026-01-16 01:19:04.548714	8.1	34.1	-62.9	10.1
2026-01-16 01:19:05.670967	8.1	34.3	-63.8	10.3
2026-01-16 01:19:06.795228	8.0	34.5	-63.8	10.5
2026-01-16 01:19:07.917482	7.9	34.8	-63.6	11.0
2026-01-16 01:19:09.039271	7.8	35.0	-63.8	11.0
2026-01-16 01:19:10.161524	7.7	35.3	-62.8	9.9
2026-01-16 01:19:11.283785	7.6	35.5	-63.6	11.0
2026-01-16 01:19:12.405543	7.5	35.8	-63.8	10.9
2026-01-16 01:19:13.527796	7.4	36.0	-63.4	11.0
2026-01-16 01:19:14.650090	7.3	36.3	-61.4	7.6
2026-01-16 01:19:15.772343	7.2	36.6	-63.4	11.5
2026-01-16 01:19:16.894605	7.1	36.8	-63.5	10.0
2026-01-16 01:19:18.015867	7.0	37.1	-62.8	9.8
2026-01-16 01:19:19.137656	6.9	37.4	-63.1	11.3
2026-01-16 01:19:20.259414	6.8	37.6	-63.0	10.4
2026-01-16 01:19:21.381179	6.7	37.9	-63.9	10.6
2026-01-16 01:19:22.502936	6.6	38.2	-63.7	10.4
2026-01-16 01:19:23.625189	6.5	38.4	-64.1	11.4
2026-01-16 01:19:24.747018	6.3	38.7	-64.1	11.4
2026-01-16 01:19:25.869271	6.2	39.0	-64.2	11.7
2026-01-16 01:19:26.991524	6.1	39.3	-63.8	11.8
2026-01-16 01:19:28.115282	6.0	39.6	-63.9	12.0
2026-01-16 01:19:29.237536	5.9	39.8	-63.8	11.5
2026-01-16 01:19:30.359324	5.7	40.1	-63.3	11.6
2026-01-16 01:19:31.481577	5.6	40.4	-63.8	12.0
2026-01-16 01:19:32.603839	5.5	40.7	-63.7	11.8
2026-01-16 01:19:33.726092	5.4	41.0	-63.8	11.5
2026-01-16 01:19:34.847399	5.2	41.3	-64.0	11.3
2026-01-16 01:19:35.968660	5.1	41.6	-63.7	11.9
2026-01-16 01:19:37.090922	4.9	41.9	-63.4	11.9
2026-01-16 01:19:38.213175	4.8	42.2	-63.8	11.7
2026-01-16 01:19:39.335429	4.7	42.5	-63.7	11.4
2026-01-16 01:19:40.457219	4.5	42.8	-63.9	12.0
2026-01-16 01:19:41.579472	4.4	43.1	-63.5	11.9
2026-01-16 01:19:42.701726	4.2	43.4	-63.3	9.9
2026-01-16 01:19:43.823980	4.0	43.7	-63.8	11.9
2026-01-16 01:19:44.946270	3.9	44.1	-64.0	11.4
2026-01-16 01:19:46.068524	3.7	44.4	-63.8	11.6
2026-01-16 01:19:47.190311	3.6	44.7	-64.2	10.9
2026-01-16 01:19:48.312565	3.4	45.0	-63.9	11.3
2026-01-16 01:19:49.434329	3.2	45.3	-64.3	11.6
2026-01-16 01:19:50.556621	3.0	45.7	-63.8	10.5
2026-01-16 01:19:51.678379	2.8	46.0	-64.3	10.7
2026-01-16 01:19:52.805146	2.7	46.3	-64.5	10.8
2026-01-16 01:19:53.927399	2.5	46.7	-64.5	10.7
2026-01-16 01:19:55.048691	2.3	47.0	-64.5	10.7
2026-01-16 01:19:56.170945	2.1	47.4	-64.7	10.4
2026-01-16 01:19:57.292215	1.9	47.7	-64.7	10.5
2026-01-16 01:19:58.414468	1.7	48.0	-64.4	10.3
2026-01-16 01:19:59.536721	1.5	48.4	-64.5	10.0
2026-01-16 01:20:00.662517	1.2	48.7	-64.7	9.5
2026-01-16 01:20:01.784770	1.0	49.1	-64.2	9.7
2026-01-16 01:20:02.906528	0.8	49.4	-64.3	10.1
2026-01-16 01:20:04.028782	0.5	49.8	-64.5	10.0
2026-01-16 01:20:05.151035	0.3	50.2	-64.4	9.8
2026-01-16 01:20:06.272822	0.1	50.5	-64.5	9.6
2026-01-16 01:20:07.395076	359.8	50.9	-64.5	9.6
2026-01-16 01:20:08.516842	359.6	51.3	-64.6	9.5
2026-01-16 01:20:09.642630	359.3	51.6	-64.5	9.2
2026-01-16 01:20:10.764884	359.0	52.0	-64.3	9.5
2026-01-16 01:20:11.887137	358.7	52.4	-64.6	9.0
2026-01-16 01:20:13.008406	358.5	52.7	-64.4	8.7
2026-01-16 01:20:14.130204	358.2	53.1	-64.6	9.2
2026-01-16 01:20:15.252457	357.9	53.5	-64.6	8.6
2026-01-16 01:20:16.374710	357.6	53.9	-64.5	8.0
2026-01-16 01:20:17.498468	357.2	54.3	-64.6	8.1
2026-01-16 01:20:18.620234	356.9	54.6	-64.7	8.0
2026-01-16 01:20:19.742487	356.6	55.0	-64.6	7.2
2026-01-16 01:20:20.864771	356.2	55.4	-64.8	8.0
2026-01-16 01:20:21.987530	355.9	55.8	-64.9	7.9
2026-01-16 01:20:23.109295	355.5	56.2	-65.0	8.0
2026-01-16 01:20:24.230606	355.1	56.6	-65.2	7.5
2026-01-16 01:20:25.352364	354.8	57.0	-65.3	7.8
2026-01-16 01:20:26.474626	354.4	57.4	-65.4	7.3
2026-01-16 01:20:27.596879	354.0	57.8	-65.3	7.1
2026-01-16 01:20:28.719133	353.5	58.2	-65.3	6.9
2026-01-16 01:20:29.841386	353.1	58.6	-65.1	7.0
2026-01-16 01:20:30.963167	352.7	59.0	-65.2	6.8
2026-01-16 01:20:32.085421	352.2	59.4	-65.2	6.7
2026-01-16 01:20:33.207184	351.7	59.8	-65.1	7.0
2026-01-16 01:20:34.329447	351.2	60.2	-65.0	7.2
2026-01-16 01:20:35.451701	350.7	60.6	-64.9	7.3
2026-01-16 01:20:36.573993	350.2	61.0	-65.1	7.4
2026-01-16 01:20:37.696247	349.7	61.4	-65.0	7.2
2026-01-16 01:20:38.818011	349.1	61.8	-65.2	7.5
2026-01-16 01:20:39.940264	348.5	62.2	-65.1	7.2
2026-01-16 01:20:41.062060	347.9	62.6	-65.5	7.1
2026-01-16 01:20:42.182827	347.3	63.0	-65.3	7.1
2026-01-16 01:20:43.305123	346.7	63.4	-65.2	7.9
2026-01-16 01:20:44.427377	346.0	63.9	-65.3	8.1
2026-01-16 01:20:45.549631	345.3	64.3	-65.3	8.0
2026-01-16 01:20:46.671932	344.6	64.7	-65.3	8.2
2026-01-16 01:20:47.794185	343.9	65.1	-65.3	8.0
2026-01-16 01:20:48.916446	343.1	65.5	-65.4	7.4
2026-01-16 01:20:50.038203	342.3	65.9	-65.6	7.3
2026-01-16 01:20:51.159000	341.5	66.2	-65.8	7.5
2026-01-16 01:20:52.281253	340.6	66.6	-66.0	7.4
2026-01-16 01:20:53.403506	339.8	67.0	-65.8	7.6
2026-01-16 01:20:54.525760	338.8	67.4	-65.9	7.4
2026-01-16 01:20:55.648022	337.9	67.8	-65.9	7.4
2026-01-16 01:20:56.770316	336.9	68.2	-65.9	7.3
2026-01-16 01:20:57.892569	335.9	68.5	-66.1	7.4
2026-01-16 01:20:59.014327	334.8	68.9	-66.2	7.3
2026-01-16 01:21:00.141581	333.7	69.3	-66.0	7.3
2026-01-16 01:21:01.263339	332.5	69.6	-66.0	7.6
2026-01-16 01:21:02.385128	331.4	70.0	-65.8	8.0
2026-01-16 01:21:03.507381	330.1	70.3	-65.8	8.7
2026-01-16 01:21:04.629635	328.8	70.7	-65.8	8.9
2026-01-16 01:21:05.751888	327.5	71.0	-65.9	8.8
2026-01-16 01:21:06.873158	326.1	71.3	-65.9	9.4
2026-01-16 01:21:07.998451	324.7	71.6	-65.8	9.5
2026-01-16 01:21:09.120705	323.2	71.9	-65.8	10.1
2026-01-16 01:21:10.242966	321.7	72.2	-65.7	10.4
2026-01-16 01:21:11.365220	320.1	72.5	-65.5	10.5
2026-01-16 01:21:12.487473	318.4	72.7	-65.8	10.9
2026-01-16 01:21:13.609765	316.8	73.0	-65.6	10.7
2026-01-16 01:21:14.732019	315.0	73.2	-65.9	9.7
2026-01-16 01:21:15.854272	313.2	73.4	-65.8	10.4
2026-01-16 01:21:16.976533	311.4	73.6	-65.9	10.5
2026-01-16 01:21:18.098826	309.5	73.8	-66.1	11.0
2026-01-16 01:21:19.221079	307.6	74.0	-65.9	11.3
2026-01-16 01:21:20.343333	305.6	74.2	-66.0	11.5
2026-01-16 01:21:21.465091	303.6	74.3	-66.0	11.8
2026-01-16 01:21:22.587344	301.5	74.4	-66.2	11.8
2026-01-16 01:21:23.709142	299.5	74.5	-66.0	11.8
2026-01-16 01:21:24.831396	297.4	74.6	-66.1	12.4
2026-01-16 01:21:25.953657	295.3	74.6	-66.3	12.4
2026-01-16 01:21:27.075911	293.1	74.7	-66.1	12.9
2026-01-16 01:21:28.197691	291.0	74.7	-66.3	12.6
2026-01-16 01:21:29.320456	288.9	74.7	-66.3	12.0
2026-01-16 01:21:30.442710	286.7	74.7	-66.4	12.1
2026-01-16 01:21:31.564972	284.6	74.6	-66.3	12.0
2026-01-16 01:21:32.686233	282.5	74.5	-66.6	12.3
2026-01-16 01:21:33.808487	280.4	74.5	-66.6	12.5
2026-01-16 01:21:34.930779	278.3	74.4	-66.5	12.4
2026-01-16 01:21:36.053032	276.3	74.2	-66.5	11.9
2026-01-16 01:21:37.175286	274.3	74.1	-67.1	11.8
2026-01-16 01:21:38.297547	272.3	73.9	-67.1	11.5
2026-01-16 01:21:39.418838	270.4	73.8	-66.6	12.2
2026-01-16 01:21:40.541597	268.6	73.6	-66.8	12.4
2026-01-16 01:21:41.662866	266.7	73.3	-66.6	12.6
2026-01-16 01:21:42.784624	265.0	73.1	-66.6	13.2
2026-01-16 01:21:43.906381	263.3	72.9	-66.5	12.8
2026-01-16 01:21:45.028675	261.6	72.6	-66.3	13.2
2026-01-16 01:21:46.150928	260.0	72.4	-66.4	13.1
2026-01-16 01:21:47.273191	258.4	72.1	-66.4	13.4
2026-01-16 01:21:48.394948	256.9	71.8	-66.6	13.4
2026-01-16 01:21:49.517240	255.4	71.5	-66.7	12.4
2026-01-16 01:21:50.639494	254.0	71.2	-67.2	12.1
2026-01-16 01:21:51.761259	252.7	70.8	-67.4	11.3
2026-01-16 01:21:52.883513	251.3	70.5	-67.6	11.3
2026-01-16 01:21:54.005766	250.1	70.2	-67.6	10.4
2026-01-16 01:21:55.128058	248.9	69.8	-67.5	10.3
2026-01-16 01:21:56.249321	247.7	69.5	-67.5	10.2
2026-01-16 01:21:57.375079	246.5	69.1	-67.4	10.6
2026-01-16 01:21:58.496365	245.5	68.8	-67.6	11.3
2026-01-16 01:21:59.618619	244.4	68.4	-67.2	11.0
2026-01-16 01:22:00.740872	243.4	68.0	-67.3	12.5
2026-01-16 01:22:01.863125	242.4	67.6	-67.1	12.7
2026-01-16 01:22:02.985386	241.5	67.2	-66.8	12.9
2026-01-16 01:22:04.107640	240.6	66.9	-66.6	12.7
2026-01-16 01:22:05.229434	239.7	66.5	-67.0	12.9
2026-01-16 01:22:06.351688	238.9	66.1	-67.0	12.5
2026-01-16 01:22:07.473453	238.1	65.7	-67.3	12.0
2026-01-16 01:22:08.595707	237.3	65.3	-67.4	12.2
2026-01-16 01:22:09.717464	236.5	64.9	-67.0	11.9
2026-01-16 01:22:10.839254	235.8	64.5	-67.5	11.3
2026-01-16 01:22:11.961507	235.1	64.1	-67.7	11.3
2026-01-16 01:22:13.083274	234.4	63.7	-68.1	11.1
2026-01-16 01:22:14.208032	233.8	63.2	-68.0	10.5
2026-01-16 01:22:15.330286	233.1	62.8	-68.4	10.7
2026-01-16 01:22:16.452589	232.5	62.4	-68.0	10.7
2026-01-16 01:22:17.574842	231.9	62.0	-67.8	10.8
2026-01-16 01:22:18.697095	231.4	61.6	-67.6	10.6
2026-01-16 01:22:19.818876	230.8	61.2	-67.9	10.9
2026-01-16 01:22:20.941130	230.3	60.8	-68.0	11.6
2026-01-16 01:22:22.062889	229.7	60.4	-67.8	11.3
2026-01-16 01:22:23.184645	229.2	60.0	-67.7	11.4
2026-01-16 01:22:24.305946	228.8	59.6	-67.2	11.0
2026-01-16 01:22:25.428200	228.3	59.2	-67.5	11.5
2026-01-16 01:22:26.550011	227.8	58.8	-67.7	12.7
2026-01-16 01:22:27.672265	227.4	58.4	-67.5	12.4
2026-01-16 01:22:28.794022	227.0	58.0	-67.6	12.2
2026-01-16 01:22:29.916275	226.5	57.6	-67.5	12.0
2026-01-16 01:22:31.041034	226.1	57.2	-67.6	11.8
2026-01-16 01:22:32.162342	225.7	56.8	-67.5	11.8
2026-01-16 01:22:33.284595	225.4	56.4	-67.6	11.2
2026-01-16 01:22:34.406857	225.0	56.0	-66.7	9.9
2026-01-16 01:22:35.529111	224.6	55.6	-66.7	10.0
2026-01-16 01:22:36.651364	224.3	55.2	-67.6	11.4
2026-01-16 01:22:37.773153	223.9	54.8	-67.5	9.5
2026-01-16 01:22:38.897416	223.6	54.4	-67.5	11.0
2026-01-16 01:22:40.020182	223.3	54.0	-67.1	10.6
2026-01-16 01:22:41.142962	223.0	53.6	-66.7	10.4
2026-01-16 01:22:42.264720	222.7	53.3	-66.7	9.4
2026-01-16 01:22:43.386019	222.4	52.9	-67.7	11.3
2026-01-16 01:22:44.507778	222.1	52.5	-67.3	10.7
2026-01-16 01:22:45.630031	221.8	52.1	-67.5	10.8
2026-01-16 01:22:46.751797	221.5	51.8	-67.4	10.6
2026-01-16 01:22:47.873555	221.3	51.4	-67.5	10.7
2026-01-16 01:22:48.994845	221.0	51.0	-67.5	11.3
2026-01-16 01:22:50.117098	220.7	50.6	-67.4	11.0
2026-01-16 01:22:51.239352	220.5	50.3	-67.4	10.4
2026-01-16 01:22:52.361615	220.3	49.9	-67.6	10.5
2026-01-16 01:22:53.483868	220.0	49.6	-66.8	9.7
2026-01-16 01:22:54.605657	219.8	49.2	-67.4	10.2
2026-01-16 01:22:55.726919	219.6	48.9	-67.4	9.5
2026-01-16 01:22:56.849172	219.3	48.5	-67.3	10.0
2026-01-16 01:22:57.971426	219.1	48.1	-67.1	10.2
2026-01-16 01:22:59.093679	218.9	47.8	-67.4	10.3
2026-01-16 01:23:00.215933	218.7	47.5	-67.2	9.9
2026-01-16 01:23:01.338186	218.5	47.1	-67.6	10.3
2026-01-16 01:23:02.459944	218.3	46.8	-67.1	10.0
2026-01-16 01:23:03.582205	218.1	46.4	-67.0	9.5
2026-01-16 01:23:04.709003	217.9	46.1	-66.8	10.3
2026-01-16 01:23:05.831256	217.7	45.8	-66.8	10.5
2026-01-16 01:23:06.953510	217.6	45.4	-66.8	11.0
2026-01-16 01:23:08.075772	217.4	45.1	-66.7	11.2
2026-01-16 01:23:09.198025	217.2	44.8	-66.8	11.6
2026-01-16 01:23:10.319805	217.0	44.4	-66.5	11.2
2026-01-16 01:23:11.442059	216.9	44.1	-66.4	11.0
2026-01-16 01:23:12.568817	216.7	43.8	-66.6	11.1
2026-01-16 01:23:13.691079	216.5	43.5	-66.2	11.8
2026-01-16 01:23:14.812837	216.4	43.2	-66.7	11.2
2026-01-16 01:23:15.934633	216.2	42.9	-66.1	11.0
2026-01-16 01:23:17.056886	216.1	42.6	-66.5	11.7
2026-01-16 01:23:18.179140	215.9	42.2	-66.2	9.2
2026-01-16 01:23:19.301393	215.8	41.9	-66.5	11.6
2026-01-16 01:23:20.423151	215.6	41.6	-66.2	11.5
2026-01-16 01:23:21.544915	215.5	41.3	-66.7	11.9
2026-01-16 01:23:22.667208	215.4	41.0	-66.4	12.0
2026-01-16 01:23:23.789461	215.2	40.7	-66.1	11.3
2026-01-16 01:23:24.911723	215.1	40.4	-65.9	11.2
2026-01-16 01:23:26.033977	215.0	40.2	-66.0	10.2
2026-01-16 01:23:27.156230	214.8	39.9	-66.3	12.4
2026-01-16 01:23:28.285013	214.7	39.6	-65.9	12.2
2026-01-16 01:23:29.407278	214.6	39.3	-66.0	11.9
2026-01-16 01:23:30.529531	214.5	39.0	-65.8	12.9
2026-01-16 01:23:31.651785	214.4	38.7	-65.3	10.9
2026-01-16 01:23:32.773542	214.2	38.4	-65.9	12.5
2026-01-16 01:23:33.895795	214.1	38.2	-65.8	11.7
2026-01-16 01:23:35.018049	214.0	37.9	-65.8	12.4
2026-01-16 01:23:36.139807	213.9	37.6	-65.6	11.5
2026-01-16 01:23:37.261564	213.8	37.4	-65.7	12.5
2026-01-16 01:23:38.383353	213.7	37.1	-65.5	12.5
2026-01-16 01:23:39.507110	213.6	36.8	-65.4	12.4
2026-01-16 01:23:40.628380	213.5	36.6	-65.8	13.3
2026-01-16 01:23:41.749146	213.4	36.3	-65.2	12.4
2026-01-16 01:23:42.871400	213.3	36.0	-65.7	12.9
2026-01-16 01:23:43.993703	213.2	35.8	-65.6	12.5
2026-01-16 01:23:45.115956	213.1	35.5	-65.7	13.0
2026-01-16 01:23:46.237227	213.0	35.3	-65.6	12.8
2026-01-16 01:23:47.359480	212.9	35.0	-65.8	13.0
2026-01-16 01:23:48.480772	212.8	34.8	-65.6	12.1
2026-01-16 01:23:49.602529	212.7	34.5	-65.6	13.4
2026-01-16 01:23:50.723792	212.6	34.3	-65.6	12.8
2026-01-16 01:23:51.845053	212.5	34.0	-65.7	12.9
2026-01-16 01:23:52.967307	212.5	33.8	-65.2	12.1
2026-01-16 01:23:54.088608	212.4	33.5	-65.4	13.1
2026-01-16 01:23:55.211870	212.3	33.3	-65.6	12.7
2026-01-16 01:23:56.333627	212.2	33.1	-65.2	12.2
2026-01-16 01:23:57.455881	212.1	32.8	-65.3	12.5
2026-01-16 01:23:58.577639	212.0	32.6	-65.5	11.8
2026-01-16 01:23:59.699397	212.0	32.4	-65.5	12.2
2026-01-16 01:24:00.821658	211.9	32.1	-65.5	12.8
2026-01-16 01:24:01.943416	211.8	31.9	-65.4	13.0
2026-01-16 01:24:03.064678	211.7	31.7	-65.4	12.7
2026-01-16 01:24:04.185986	211.7	31.5	-65.1	12.1
2026-01-16 01:24:05.306257	211.6	31.2	-65.3	12.7
2026-01-16 01:24:06.427520	211.5	31.0	-65.2	11.7
2026-01-16 01:24:07.549286	211.4	30.8	-65.2	12.1
2026-01-16 01:24:08.670098	211.4	30.6	-65.2	12.7
2026-01-16 01:24:09.791857	211.3	30.4	-65.3	12.6
2026-01-16 01:24:10.914110	211.2	30.1	-65.3	12.6
2026-01-16 01:24:12.039373	211.2	29.9	-65.4	12.6
2026-01-16 01:24:13.160634	211.1	29.7	-65.3	13.0
2026-01-16 01:24:14.282431	211.0	29.5	-65.2	12.6
2026-01-16 01:24:15.404188	211.0	29.3	-65.4	13.1
2026-01-16 01:24:16.526954	210.9	29.1	-65.4	12.4
2026-01-16 01:24:17.648711	210.8	28.9	-65.1	12.3
2026-01-16 01:24:18.770507	210.8	28.7	-65.8	13.1
2026-01-16 01:24:19.894770	210.7	28.5	-65.7	13.3
2026-01-16 01:24:21.016528	210.7	28.3	-65.6	12.6
2026-01-16 01:24:22.137799	210.6	28.1	-65.6	12.9
2026-01-16 01:24:23.259596	210.5	27.9	-65.5	13.5
2026-01-16 01:24:24.381354	210.5	27.7	-65.4	12.4
2026-01-16 01:24:25.503112	210.4	27.5	-65.3	12.4
2026-01-16 01:24:26.624375	210.4	27.3	-65.4	12.9
2026-01-16 01:24:27.750133	210.3	27.1	-65.3	12.8
2026-01-16 01:24:28.872890	210.3	26.9	-65.3	12.7
2026-01-16 01:24:29.995144	210.2	26.7	-65.2	11.9
2026-01-16 01:24:31.116902	210.2	26.5	-65.5	12.1
2026-01-16 01:24:32.239156	210.1	26.3	-65.4	12.2
2026-01-16 01:24:33.360417	210.0	26.1	-65.4	11.8
2026-01-16 01:24:34.482174	210.0	25.9	-65.0	12.0
2026-01-16 01:24:35.605933	209.9	25.8	-65.6	12.8
2026-01-16 01:24:36.727195	209.9	25.6	-65.3	12.2
2026-01-16 01:24:37.848456	209.8	25.4	-65.6	12.2
2026-01-16 01:24:38.970710	209.8	25.2	-65.5	13.0
2026-01-16 01:24:40.092467	209.7	25.0	-65.9	12.8
2026-01-16 01:24:41.214225	209.7	24.9	-65.6	12.9
2026-01-16 01:24:42.335487	209.6	24.7	-65.5	12.5
2026-01-16 01:24:43.458245	209.6	24.5	-65.9	13.0
2026-01-16 01:24:44.580002	209.6	24.3	-65.8	12.5
2026-01-16 01:24:45.705256	209.5	24.2	-65.8	13.0
2026-01-16 01:24:46.827014	209.5	24.0	-65.8	12.6
2026-01-16 01:24:47.950268	209.4	23.8	-65.7	12.4
2026-01-16 01:24:49.072026	209.4	23.6	-65.8	12.5
2026-01-16 01:24:50.194279	209.3	23.5	-66.1	13.3
2026-01-16 01:24:51.316532	209.3	23.3	-66.0	12.9
2026-01-16 01:24:52.438290	209.2	23.1	-66.0	12.5
2026-01-16 01:24:53.563058	209.2	23.0	-65.9	12.5
2026-01-16 01:24:54.684817	209.2	22.8	-65.5	12.4
2026-01-16 01:24:55.806079	209.1	22.6	-66.1	12.9
2026-01-16 01:24:56.928332	209.1	22.5	-66.0	11.7
2026-01-16 01:24:58.050089	209.0	22.3	-65.6	12.4
2026-01-16 01:24:59.172343	209.0	22.2	-65.8	12.3
2026-01-16 01:25:00.294101	209.0	22.0	-65.9	12.6
2026-01-16 01:25:01.413858	208.9	21.8	-66.1	12.7
2026-01-16 01:25:02.532615	208.9	21.7	-66.0	13.0
2026-01-16 01:25:03.653373	208.8	21.5	-66.1	12.2
2026-01-16 01:25:04.769625	208.8	21.4	-66.0	12.8
2026-01-16 01:25:05.887381	208.8	21.2	-65.9	12.5
2026-01-16 01:25:07.002633	208.7	21.1	-65.8	12.7
2026-01-16 01:25:08.121390	208.7	20.9	-65.9	12.7
2026-01-16 01:25:09.243148	208.7	20.7	-65.9	12.3
2026-01-16 01:25:10.363401	208.6	20.6	-65.9	12.6
2026-01-16 01:25:11.485654	208.6	20.4	-66.1	13.3
2026-01-16 01:25:12.606907	208.6	20.3	-66.1	12.2
2026-01-16 01:25:13.728665	208.5	20.1	-65.8	12.3
2026-01-16 01:25:14.849918	208.5	20.0	-66.1	12.4
2026-01-16 01:25:15.971179	208.4	19.9	-66.1	12.5
2026-01-16 01:25:17.092937	208.4	19.7	-66.2	11.9
2026-01-16 01:25:18.213694	208.4	19.6	-66.0	11.7
2026-01-16 01:25:19.331955	208.3	19.4	-66.1	12.4
2026-01-16 01:25:20.453209	208.3	19.3	-66.2	12.6
2026-01-16 01:25:21.574461	208.3	19.1	-66.4	12.3
2026-01-16 01:25:22.695715	208.3	19.0	-66.3	12.5
2026-01-16 01:25:23.816472	208.2	18.8	-66.0	11.8
2026-01-16 01:25:24.937725	208.2	18.7	-66.0	12.5
2026-01-16 01:25:26.058989	208.2	18.6	-65.9	12.3
2026-01-16 01:25:27.183259	208.1	18.4	-66.5	12.5
2026-01-16 01:25:28.300511	208.1	18.3	-66.4	13.0
2026-01-16 01:25:29.419269	208.1	18.2	-66.4	13.5
2026-01-16 01:25:30.540521	208.0	18.0	-66.5	13.0
2026-01-16 01:25:31.655278	208.0	17.9	-66.3	13.1
2026-01-16 01:25:32.775035	208.0	17.7	-66.4	13.0
2026-01-16 01:25:33.898288	207.9	17.6	-67.0	14.0
2026-01-16 01:25:35.021542	207.9	17.5	-66.5	13.3
2026-01-16 01:25:36.144805	207.9	17.3	-67.1	14.4
2026-01-16 01:25:37.266068	207.9	17.2	-67.2	14.1
2026-01-16 01:25:38.386834	207.8	17.1	-67.1	13.7
2026-01-16 01:25:39.509592	207.8	17.0	-67.2	13.9
2026-01-16 01:25:40.631846	207.8	16.8	-67.2	13.8
2026-01-16 01:25:41.754099	207.8	16.7	-67.2	13.8
2026-01-16 01:25:42.876353	207.7	16.6	-67.1	13.1
2026-01-16 01:25:43.997614	207.7	16.4	-67.2	13.2
2026-01-16 01:25:45.119868	207.7	16.3	-67.0	13.3
2026-01-16 01:25:46.239624	207.6	16.2	-67.1	13.3
2026-01-16 01:25:47.361382	207.6	16.1	-67.2	13.9
2026-01-16 01:25:48.481643	207.6	15.9	-67.4	12.9
2026-01-16 01:25:49.603897	207.6	15.8	-67.1	13.1
2026-01-16 01:25:50.726150	207.5	15.7	-67.3	13.9
2026-01-16 01:25:51.846421	207.5	15.6	-67.3	13.3
2026-01-16 01:25:52.967674	207.5	15.4	-67.4	13.3
2026-01-16 01:25:54.088432	207.5	15.3	-66.7	12.4
2026-01-16 01:25:55.208189	207.4	15.2	-67.1	12.9
2026-01-16 01:25:56.328946	207.4	15.1	-67.4	13.9
2026-01-16 01:25:57.451200	207.4	14.9	-67.5	13.4
2026-01-16 01:25:58.571956	207.4	14.8	-67.3	13.2
2026-01-16 01:25:59.692209	207.4	14.7	-67.2	13.1
2026-01-16 01:26:00.815471	207.3	14.6	-67.0	11.5
2026-01-16 01:26:01.935724	207.3	14.5	-67.2	13.4
2026-01-16 01:26:03.057482	207.3	14.4	-66.5	13.0
2026-01-16 01:26:04.180240	207.3	14.2	-67.4	12.6
2026-01-16 01:26:05.302493	207.2	14.1	-67.3	13.4
2026-01-16 01:26:06.424252	207.2	14.0	-67.4	12.5
2026-01-16 01:26:07.544521	207.2	13.9	-67.3	12.4
2026-01-16 01:26:08.665783	207.2	13.8	-67.3	12.2
2026-01-16 01:26:09.781539	207.2	13.7	-67.2	12.0
2026-01-16 01:26:10.899799	207.1	13.5	-67.0	12.1
2026-01-16 01:26:12.015051	207.1	13.4	-67.5	12.7
2026-01-16 01:26:13.134311	207.1	13.3	-67.4	13.4
2026-01-16 01:26:14.250068	207.1	13.2	-67.1	12.0
2026-01-16 01:26:15.366320	207.0	13.1	-67.1	12.3
2026-01-16 01:26:16.484572	207.0	13.0	-67.4	12.3
2026-01-16 01:26:17.605826	207.0	12.9	-67.3	12.4
2026-01-16 01:26:18.725087	207.0	12.8	-67.1	12.0
2026-01-16 01:26:19.841348	207.0	12.7	-66.9	12.0
2026-01-16 01:26:20.961610	206.9	12.5	-67.5	12.2
2026-01-16 01:26:22.075861	206.9	12.4	-67.3	12.2
2026-01-16 01:26:23.194114	206.9	12.3	-67.2	12.6
2026-01-16 01:26:24.312871	206.9	12.2	-66.9	11.9
2026-01-16 01:26:25.430628	206.9	12.1	-67.2	12.8
2026-01-16 01:26:26.548880	206.9	12.0	-67.2	12.3
2026-01-16 01:26:27.665637	206.8	11.9	-67.1	12.4
2026-01-16 01:26:28.783889	206.8	11.8	-67.5	12.1
2026-01-16 01:26:29.900141	206.8	11.7	-67.1	12.2
2026-01-16 01:26:31.016898	206.8	11.6	-67.1	12.4
2026-01-16 01:26:32.133150	206.8	11.5	-67.5	11.9
2026-01-16 01:26:33.250907	206.7	11.4	-67.4	12.3
2026-01-16 01:26:34.366663	206.7	11.3	-67.4	11.3
2026-01-16 01:26:35.483924	206.7	11.2	-67.2	11.4
2026-01-16 01:26:36.600689	206.7	11.1	-66.9	12.1
2026-01-16 01:26:37.716941	206.7	11.0	-66.8	10.9
2026-01-16 01:26:38.833193	206.7	10.9	-67.3	11.7
2026-01-16 01:26:39.949445	206.6	10.8	-67.2	11.9
2026-01-16 01:26:41.067698	206.6	10.7	-67.3	12.1
2026-01-16 01:26:42.186455	206.6	10.6	-67.5	11.2
2026-01-16 01:26:43.306212	206.6	10.5	-67.4	12.0
2026-01-16 01:26:44.425473	206.6	10.4	-67.3	11.9
2026-01-16 01:26:45.546734	206.6	10.3	-67.7	11.8
2026-01-16 01:26:46.667988	206.5	10.2	-67.4	11.2
2026-01-16 01:26:47.790241	206.5	10.1	-67.7	11.3
2026-01-16 01:26:48.914008	206.5	10.0	-67.7	12.0
2026-01-16 01:26:50.035270	206.5	9.9	-67.1	11.0
2026-01-16 01:26:51.157524	206.5	9.8	-67.7	11.4
2026-01-16 01:26:52.279281	206.5	9.7	-67.5	12.0
2026-01-16 01:26:53.401535	206.4	9.6	-67.6	11.1
2026-01-16 01:26:54.523788	206.4	9.5	-67.4	11.5
2026-01-16 01:26:55.644554	206.4	9.4	-67.5	12.1
2026-01-16 01:26:56.766319	206.4	9.3	-67.4	11.8
2026-01-16 01:26:57.887086	206.4	9.2	-67.5	11.4
2026-01-16 01:26:59.008339	206.4	9.1	-67.5	12.0
2026-01-16 01:27:00.128601	206.4	9.0	-67.5	10.0
2026-01-16 01:27:01.248862	206.3	8.9	-67.3	11.3
2026-01-16 01:27:02.369619	206.3	8.8	-67.4	10.8
2026-01-16 01:27:03.490872	206.3	8.7	-67.5	11.1
2026-01-16 01:27:04.611630	206.3	8.6	-67.1	9.7
2026-01-16 01:27:05.733387	206.3	8.5	-67.3	10.6
2026-01-16 01:27:06.854151	206.3	8.5	-67.7	10.7
2026-01-16 01:27:07.975412	206.3	8.4	-67.7	10.1
2026-01-16 01:27:09.096178	206.2	8.3	-67.4	10.4
2026-01-16 01:27:10.214448	206.2	8.2	-67.2	10.0
2026-01-16 01:27:11.334709	206.2	8.1	-67.3	10.4
2026-01-16 01:27:12.456466	206.2	8.0	-67.7	10.2
2026-01-16 01:27:13.576749	206.2	7.9	-67.3	10.2
2026-01-16 01:27:14.694505	206.2	7.8	-67.2	10.2
2026-01-16 01:27:15.812262	206.2	7.7	-67.1	8.9
2026-01-16 01:27:16.930515	206.1	7.6	-67.6	10.1
2026-01-16 01:27:18.047775	206.1	7.5	-67.2	9.5
2026-01-16 01:27:19.165540	206.1	7.5	-67.2	10.7
2026-01-16 01:27:20.284801	206.1	7.4	-67.5	9.6
2026-01-16 01:27:21.402062	206.1	7.3	-67.1	8.2
2026-01-16 01:27:22.517819	206.1	7.2	-67.3	9.6
2026-01-16 01:27:23.639090	206.1	7.1	-67.2	9.4
2026-01-16 01:27:24.754342	206.1	7.0	-67.1	9.0
2026-01-16 01:27:25.871603	206.0	6.9	-67.0	9.6
2026-01-16 01:27:26.987855	206.0	6.8	-67.0	9.2
2026-01-16 01:27:28.104611	206.0	6.8	-66.8	8.3
2026-01-16 01:27:29.220863	206.0	6.7	-65.5	6.3
2026-01-16 01:27:30.337115	206.0	6.6	-65.2	7.1
2026-01-16 01:27:31.453872	206.0	6.5	-64.6	6.3
2026-01-16 01:27:32.571124	206.0	6.4	-64.5	5.7
2026-01-16 01:27:33.686376	206.0	6.3	-64.0	4.1
2026-01-16 01:27:34.804628	205.9	6.2	-63.5	5.0
2026-01-16 01:27:35.920384	205.9	6.2	-63.6	3.8
2026-01-16 01:27:37.037644	205.9	6.1	-63.6	3.7
2026-01-16 01:27:38.154897	205.9	6.0	-64.3	3.9
2026-01-16 01:27:39.271149	205.9	5.9	-66.9	2.1
2026-01-16 01:27:40.386400	205.9	5.8	-69.3	0.0
2026-01-16 01:27:41.501652	205.9	5.7	-69.8	0.0
2026-01-16 01:27:42.619905	205.9	5.7	-70.1	0.0
2026-01-16 01:27:43.736157	205.9	5.6	-70.7	0.0
2026-01-16 01:27:44.851409	205.8	5.5	-71.0	0.0
2026-01-16 01:27:45.966669	205.8	5.4	-71.4	0.0
2026-01-16 01:27:47.080930	205.8	5.3	-72.0	0.0
2026-01-16 01:27:48.196685	205.8	5.3	-72.0	0.0
2026-01-16 01:27:49.310937	205.8	5.2	-71.4	0.0
2026-01-16 01:27:50.427189	205.8	5.1	-71.3	0.0
2026-01-16 01:27:51.544441	205.8	5.0	-71.3	0.0
#Closed at: 2026-01-16 01:14:56.320412