passes_logs/2025/01/20/planumMaritime01/planumMaritime01__20250120_082516_NOAA_18_rec.log

#Pass ID: 20250120_082516_NOAA 18
#Satellite: NOAA 18
#Configuration: NOAA 18
#Start time: 2025-01-20 08:25:21.017495

#LorettStation: 1.0.0 05.05.2024
#Station: planumMaritime01
#Location: 37.49445 lon 55.92918 lat
#TLE: 1 28654U 05018A   25019.12683114  .00000403  00000+0  23745-3 0  9992
#TLE: 2 28654  98.8559 100.1402 0014536 167.7337 192.4191 14.13490232 13765

#Time	Az	El	Level	SNR
2025-01-20 08:25:23.177065	24.0	10.2	-94.5	0.0
2025-01-20 08:25:24.299547	24.0	10.3	-94.5	0.0
2025-01-20 08:25:25.420973	24.1	10.4	-94.6	0.0
2025-01-20 08:25:26.543529	24.1	10.5	-94.8	0.0
2025-01-20 08:25:27.664143	24.2	10.6	-94.4	0.0
2025-01-20 08:25:28.786559	24.3	10.6	-94.5	0.0
2025-01-20 08:25:29.910026	24.3	10.7	-94.5	0.0
2025-01-20 08:25:31.030992	24.4	10.8	-94.7	0.0
2025-01-20 08:25:32.153159	24.4	10.9	-94.2	0.0
2025-01-20 08:25:33.276315	24.5	11.0	-94.4	0.0
2025-01-20 08:25:34.398159	24.6	11.1	-94.4	0.0
2025-01-20 08:25:35.518712	24.6	11.2	-94.6	0.0
2025-01-20 08:25:36.640114	24.7	11.3	-94.6	0.0
2025-01-20 08:25:37.760740	24.7	11.4	-94.7	0.0
2025-01-20 08:25:38.882726	24.8	11.5	-94.9	0.0
2025-01-20 08:25:40.005217	24.9	11.6	-94.9	0.0
2025-01-20 08:25:41.126571	24.9	11.7	-94.7	0.0
2025-01-20 08:25:42.246022	25.0	11.8	-94.9	0.0
2025-01-20 08:25:43.367696	25.1	11.9	-94.9	0.0
2025-01-20 08:25:44.490500	25.1	12.0	-94.5	0.0
2025-01-20 08:25:45.611036	25.2	12.1	-94.7	0.0
2025-01-20 08:25:46.733694	25.3	12.2	-94.8	0.0
2025-01-20 08:25:47.855960	25.3	12.3	-94.7	0.0
2025-01-20 08:25:48.978712	25.4	12.4	-94.6	0.0
2025-01-20 08:25:50.099973	25.5	12.5	-94.5	0.0
2025-01-20 08:25:51.221323	25.5	12.6	-94.8	0.0
2025-01-20 08:25:52.342543	25.6	12.7	-94.7	0.0
2025-01-20 08:25:53.464850	25.7	12.8	-94.6	0.0
2025-01-20 08:25:54.586322	25.7	12.9	-94.5	0.0
2025-01-20 08:25:55.708229	25.8	13.0	-94.6	0.0
2025-01-20 08:25:56.830287	25.9	13.1	-94.7	0.0
2025-01-20 08:25:57.951090	25.9	13.2	-94.6	0.0
2025-01-20 08:25:59.072428	26.0	13.3	-94.6	0.0
2025-01-20 08:26:00.192965	26.1	13.4	-94.6	0.0
2025-01-20 08:26:01.314968	26.1	13.5	-94.6	0.0
2025-01-20 08:26:02.437182	26.2	13.6	-94.6	0.0
2025-01-20 08:26:03.557940	26.3	13.7	-94.8	0.0
2025-01-20 08:26:04.680069	26.4	13.9	-94.6	0.0
2025-01-20 08:26:05.799880	26.4	14.0	-94.8	0.0
2025-01-20 08:26:06.921339	26.5	14.1	-94.7	0.0
2025-01-20 08:26:08.042756	26.6	14.2	-94.7	0.0
2025-01-20 08:26:09.164481	26.7	14.3	-94.6	0.0
2025-01-20 08:26:10.286463	26.7	14.4	-94.5	0.0
2025-01-20 08:26:11.407953	26.8	14.5	-94.4	0.0
2025-01-20 08:26:12.531624	26.9	14.6	-94.6	0.0
2025-01-20 08:26:13.653351	27.0	14.7	-94.4	0.0
2025-01-20 08:26:14.774766	27.0	14.8	-94.3	0.0
2025-01-20 08:26:15.895330	27.1	14.9	-94.6	0.0
2025-01-20 08:26:17.018760	27.2	15.0	-94.6	0.0
2025-01-20 08:26:18.139972	27.3	15.2	-94.8	0.0
2025-01-20 08:26:19.259402	27.3	15.3	-94.3	0.0
2025-01-20 08:26:20.381118	27.4	15.4	-94.4	0.0
2025-01-20 08:26:21.505087	27.5	15.5	-94.6	0.0
2025-01-20 08:26:22.628071	27.6	15.6	-94.8	0.0
2025-01-20 08:26:23.751106	27.7	15.7	-94.9	0.0
2025-01-20 08:26:24.873975	27.8	15.8	-94.7	0.0
2025-01-20 08:26:25.995092	27.8	16.0	-94.5	0.0
2025-01-20 08:26:27.117491	27.9	16.1	-94.6	0.0
2025-01-20 08:26:28.240088	28.0	16.2	-94.6	0.0
2025-01-20 08:26:29.363891	28.1	16.3	-94.7	0.0
2025-01-20 08:26:30.483325	28.2	16.4	-94.6	0.0
2025-01-20 08:26:31.604090	28.3	16.5	-94.4	0.0
2025-01-20 08:26:32.726507	28.3	16.7	-94.3	0.0
2025-01-20 08:26:33.848093	28.4	16.8	-94.4	0.0
2025-01-20 08:26:34.969923	28.5	16.9	-94.9	0.0
2025-01-20 08:26:36.091698	28.6	17.0	-94.5	0.0
2025-01-20 08:26:37.214188	28.7	17.1	-94.7	0.0
2025-01-20 08:26:38.335289	28.8	17.3	-94.9	0.0
2025-01-20 08:26:39.456169	28.9	17.4	-94.8	0.0
2025-01-20 08:26:40.577035	29.0	17.5	-94.8	0.0
2025-01-20 08:26:41.698088	29.1	17.6	-94.5	0.0
2025-01-20 08:26:42.820084	29.2	17.7	-94.7	0.0
2025-01-20 08:26:43.939639	29.2	17.9	-94.8	0.0
2025-01-20 08:26:45.061966	29.3	18.0	-94.8	0.0
2025-01-20 08:26:46.183410	29.4	18.1	-94.8	0.0
2025-01-20 08:26:47.305530	29.5	18.2	-94.7	0.0
2025-01-20 08:26:48.425893	29.6	18.4	-94.7	0.0
2025-01-20 08:26:49.548143	29.7	18.5	-94.4	0.0
2025-01-20 08:26:50.671238	29.8	18.6	-94.6	0.0
2025-01-20 08:26:51.793395	29.9	18.7	-94.6	0.0
2025-01-20 08:26:52.914110	30.0	18.9	-94.6	0.0
2025-01-20 08:26:54.035067	30.1	19.0	-95.1	0.0
2025-01-20 08:26:55.155025	30.2	19.1	-94.8	0.0
2025-01-20 08:26:56.277476	30.3	19.3	-94.6	0.0
2025-01-20 08:26:57.400867	30.4	19.4	-94.9	0.0
2025-01-20 08:26:58.520458	30.5	19.5	-95.0	0.0
2025-01-20 08:26:59.640160	30.6	19.6	-94.8	0.0
2025-01-20 08:27:00.762863	30.7	19.8	-94.9	0.0
2025-01-20 08:27:01.885598	30.8	19.9	-95.1	0.0
2025-01-20 08:27:03.006496	30.9	20.0	-94.9	0.0
2025-01-20 08:27:04.124372	31.0	20.2	-94.7	0.0
2025-01-20 08:27:05.244499	31.2	20.3	-94.9	0.0
2025-01-20 08:27:06.367161	31.3	20.4	-95.0	0.0
2025-01-20 08:27:07.487630	31.4	20.6	-94.9	0.0
2025-01-20 08:27:08.609144	31.5	20.7	-95.0	0.0
2025-01-20 08:27:09.729579	31.6	20.9	-94.7	0.0
2025-01-20 08:27:10.850287	31.7	21.0	-95.1	0.0
2025-01-20 08:27:11.973660	31.8	21.1	-94.9	0.0
2025-01-20 08:27:13.094812	31.9	21.3	-95.0	0.0
2025-01-20 08:27:14.218026	32.1	21.4	-94.8	0.0
2025-01-20 08:27:15.340783	32.2	21.5	-94.6	0.0
2025-01-20 08:27:16.462145	32.3	21.7	-94.6	0.0
2025-01-20 08:27:17.585227	32.4	21.8	-94.7	0.0
2025-01-20 08:27:18.704237	32.5	22.0	-94.4	0.0
2025-01-20 08:27:19.825405	32.7	22.1	-94.6	0.0
2025-01-20 08:27:20.947996	32.8	22.3	-94.6	0.0
2025-01-20 08:27:22.070144	32.9	22.4	-94.8	0.0
2025-01-20 08:27:23.191381	33.0	22.5	-94.7	0.0
2025-01-20 08:27:24.313573	33.1	22.7	-94.9	0.0
2025-01-20 08:27:25.435631	33.3	22.8	-94.6	0.0
2025-01-20 08:27:26.556642	33.4	23.0	-94.7	0.0
2025-01-20 08:27:27.679865	33.5	23.1	-95.0	0.0
2025-01-20 08:27:28.801474	33.7	23.3	-94.9	0.0
2025-01-20 08:27:29.923133	33.8	23.4	-94.8	0.0
2025-01-20 08:27:31.045946	33.9	23.6	-94.8	0.0
2025-01-20 08:27:32.164875	34.1	23.7	-94.8	0.0
2025-01-20 08:27:33.285718	34.2	23.9	-94.9	0.0
2025-01-20 08:27:34.406143	34.3	24.0	-94.7	0.0
2025-01-20 08:27:35.525367	34.5	24.2	-94.8	0.0
2025-01-20 08:27:36.647308	34.6	24.3	-94.8	0.0
2025-01-20 08:27:37.769998	34.7	24.5	-94.9	0.0
2025-01-20 08:27:38.891209	34.9	24.6	-94.6	0.0
2025-01-20 08:27:40.012650	35.0	24.8	-94.7	0.0
2025-01-20 08:27:41.134482	35.2	25.0	-94.7	0.0
2025-01-20 08:27:42.255598	35.3	25.1	-94.7	0.0
2025-01-20 08:27:43.374865	35.5	25.3	-94.8	0.0
2025-01-20 08:27:44.495546	35.6	25.4	-95.0	0.0
2025-01-20 08:27:45.614164	35.8	25.6	-94.8	0.0
2025-01-20 08:27:46.735596	35.9	25.8	-94.6	0.0
2025-01-20 08:27:47.858051	36.1	25.9	-94.6	0.0
2025-01-20 08:27:48.980146	36.2	26.1	-94.8	0.0
2025-01-20 08:27:50.103353	36.4	26.2	-94.7	0.0
2025-01-20 08:27:51.224587	36.5	26.4	-94.7	0.0
2025-01-20 08:27:52.345055	36.7	26.6	-94.6	0.0
2025-01-20 08:27:53.466300	36.9	26.7	-94.7	0.0
2025-01-20 08:27:54.586884	37.0	26.9	-94.7	0.0
2025-01-20 08:27:55.708164	37.2	27.1	-94.9	0.0
2025-01-20 08:27:56.828692	37.3	27.2	-94.7	0.0
2025-01-20 08:27:57.950597	37.5	27.4	-94.8	0.0
2025-01-20 08:27:59.073498	37.7	27.6	-94.9	0.0
2025-01-20 08:28:00.198606	37.9	27.7	-94.8	0.0
2025-01-20 08:28:01.321133	38.0	27.9	-94.8	0.0
2025-01-20 08:28:02.442938	38.2	28.1	-94.7	0.0
2025-01-20 08:28:03.566534	38.4	28.2	-94.7	0.0
2025-01-20 08:28:04.686128	38.6	28.4	-94.5	0.0
2025-01-20 08:28:05.806317	38.7	28.6	-94.4	0.0
2025-01-20 08:28:06.929495	38.9	28.8	-94.4	0.0
2025-01-20 08:28:08.051013	39.1	28.9	-94.9	0.0
2025-01-20 08:28:09.172002	39.3	29.1	-94.8	0.0
2025-01-20 08:28:10.292620	39.5	29.3	-94.7	0.0
2025-01-20 08:28:11.418000	39.7	29.5	-95.0	0.0
2025-01-20 08:28:12.537911	39.9	29.6	-94.8	0.0
2025-01-20 08:28:13.657237	40.0	29.8	-94.6	0.0
2025-01-20 08:28:14.777682	40.2	30.0	-94.9	0.0
2025-01-20 08:28:15.900817	40.4	30.2	-94.9	0.0
2025-01-20 08:28:17.022167	40.6	30.4	-95.1	0.0
2025-01-20 08:28:18.146112	40.8	30.5	-94.9	0.0
2025-01-20 08:28:19.266976	41.0	30.7	-94.6	0.0
2025-01-20 08:28:20.388374	41.3	30.9	-94.8	0.0
2025-01-20 08:28:21.509314	41.5	31.1	-95.1	0.0
2025-01-20 08:28:22.628046	41.7	31.3	-95.1	0.0
2025-01-20 08:28:23.749962	41.9	31.5	-95.0	0.0
2025-01-20 08:28:24.872184	42.1	31.7	-94.7	0.0
2025-01-20 08:28:25.993900	42.3	31.8	-94.5	0.0
2025-01-20 08:28:27.118469	42.5	32.0	-94.9	0.0
2025-01-20 08:28:28.241055	42.8	32.2	-94.5	0.0
2025-01-20 08:28:29.364302	43.0	32.4	-94.4	0.0
2025-01-20 08:28:30.485250	43.2	32.6	-94.8	0.0
2025-01-20 08:28:31.605913	43.5	32.8	-94.7	0.0
2025-01-20 08:28:32.727259	43.7	33.0	-94.8	0.0
2025-01-20 08:28:33.849565	43.9	33.2	-94.5	0.0
2025-01-20 08:28:34.970973	44.2	33.4	-94.9	0.0
2025-01-20 08:28:36.091387	44.4	33.6	-94.7	0.0
2025-01-20 08:28:37.214179	44.7	33.8	-94.6	0.0
2025-01-20 08:28:38.335888	44.9	33.9	-94.7	0.0
2025-01-20 08:28:39.457459	45.2	34.1	-94.7	0.0
2025-01-20 08:28:40.579162	45.4	34.3	-94.6	0.0
2025-01-20 08:28:41.701546	45.7	34.5	-94.7	0.0
2025-01-20 08:28:42.820458	45.9	34.7	-94.7	0.0
2025-01-20 08:28:43.943972	46.2	34.9	-94.7	0.0
2025-01-20 08:28:45.063896	46.5	35.1	-94.7	0.0
2025-01-20 08:28:46.183601	46.7	35.3	-94.8	0.0
2025-01-20 08:28:47.306691	47.0	35.5	-94.7	0.0
2025-01-20 08:28:48.424323	47.3	35.7	-94.7	0.0
2025-01-20 08:28:49.545323	47.6	35.9	-94.8	0.0
2025-01-20 08:28:50.666048	47.8	36.1	-94.7	0.0
2025-01-20 08:28:51.785464	48.1	36.3	-94.8	0.0
2025-01-20 08:28:52.907153	48.4	36.5	-94.7	0.0
2025-01-20 08:28:54.028333	48.7	36.7	-95.0	0.0
2025-01-20 08:28:55.149495	49.0	36.9	-94.8	0.0
2025-01-20 08:28:56.271186	49.3	37.1	-94.6	0.0
2025-01-20 08:28:57.391324	49.6	37.3	-94.7	0.0
2025-01-20 08:28:58.512059	49.9	37.6	-94.8	0.0
2025-01-20 08:28:59.633652	50.2	37.8	-94.7	0.0
2025-01-20 08:29:00.754950	50.5	38.0	-94.7	0.0
2025-01-20 08:29:01.879105	50.9	38.2	-94.8	0.0
2025-01-20 08:29:03.001592	51.2	38.4	-95.1	0.0
2025-01-20 08:29:04.122833	51.5	38.6	-94.8	0.0
2025-01-20 08:29:05.242062	51.9	38.8	-94.5	0.0
2025-01-20 08:29:06.363046	52.2	39.0	-94.8	0.0
2025-01-20 08:29:07.483860	52.5	39.2	-94.9	0.0
2025-01-20 08:29:08.607093	52.9	39.4	-95.0	0.0
2025-01-20 08:29:09.727081	53.2	39.6	-94.8	0.0
2025-01-20 08:29:10.848651	53.6	39.8	-94.9	0.0
2025-01-20 08:29:11.971279	53.9	40.0	-94.8	0.0
2025-01-20 08:29:13.090865	54.3	40.2	-94.8	0.0
2025-01-20 08:29:14.211145	54.7	40.4	-95.1	0.0
2025-01-20 08:29:15.331161	55.0	40.6	-94.8	0.0
2025-01-20 08:29:16.451764	55.4	40.8	-94.6	0.0
2025-01-20 08:29:17.572029	55.8	41.1	-94.8	0.0
2025-01-20 08:29:18.690409	56.2	41.3	-94.6	0.0
2025-01-20 08:29:19.811343	56.6	41.5	-94.9	0.0
2025-01-20 08:29:20.933393	57.0	41.7	-94.9	0.0
2025-01-20 08:29:22.053529	57.4	41.9	-94.8	0.0
2025-01-20 08:29:23.176170	57.8	42.1	-94.6	0.0
2025-01-20 08:29:24.298102	58.2	42.3	-94.7	0.0
2025-01-20 08:29:25.418605	58.6	42.5	-94.9	0.0
2025-01-20 08:29:26.540463	59.0	42.7	-94.9	0.0
2025-01-20 08:29:27.660618	59.4	42.9	-94.7	0.0
2025-01-20 08:29:28.783017	59.9	43.1	-94.7	0.0
2025-01-20 08:29:29.903457	60.3	43.3	-94.6	0.0
2025-01-20 08:29:31.024214	60.8	43.5	-94.8	0.0
2025-01-20 08:29:32.146664	61.2	43.7	-94.8	0.0
2025-01-20 08:29:33.268814	61.7	43.9	-94.7	0.0
2025-01-20 08:29:34.389645	62.1	44.1	-94.7	0.0
2025-01-20 08:29:35.513917	62.6	44.3	-94.7	0.0
2025-01-20 08:29:36.635690	63.1	44.5	-94.6	0.0
2025-01-20 08:29:37.757903	63.5	44.7	-94.6	0.0
2025-01-20 08:29:38.879995	64.0	44.9	-94.5	0.0
2025-01-20 08:29:40.001153	64.5	45.1	-94.6	0.0
2025-01-20 08:29:41.122378	65.0	45.3	-94.8	0.0
2025-01-20 08:29:42.245378	65.5	45.4	-94.9	0.0
2025-01-20 08:29:43.366570	66.0	45.6	-94.8	0.0
2025-01-20 08:29:44.489453	66.5	45.8	-95.0	0.0
2025-01-20 08:29:45.611114	67.0	46.0	-94.9	0.0
2025-01-20 08:29:46.733381	67.6	46.2	-94.9	0.0
2025-01-20 08:29:47.854512	68.1	46.4	-94.8	0.0
2025-01-20 08:29:48.976350	68.6	46.5	-94.8	0.0
2025-01-20 08:29:50.097013	69.2	46.7	-94.8	0.0
2025-01-20 08:29:51.218009	69.7	46.9	-94.9	0.0
2025-01-20 08:29:52.340484	70.3	47.1	-95.1	0.0
2025-01-20 08:29:53.462773	70.8	47.2	-94.7	0.0
2025-01-20 08:29:54.584026	71.4	47.4	-94.6	0.0
2025-01-20 08:29:55.706777	72.0	47.6	-94.6	0.0
2025-01-20 08:29:56.829661	72.6	47.7	-94.6	0.0
2025-01-20 08:29:57.949765	73.2	47.9	-94.8	0.0
2025-01-20 08:29:59.069686	73.7	48.1	-94.8	0.0
2025-01-20 08:30:00.191864	74.3	48.2	-94.8	0.0
2025-01-20 08:30:01.311973	74.9	48.4	-94.7	0.0
2025-01-20 08:30:02.430058	75.6	48.5	-94.7	0.0
2025-01-20 08:30:03.551080	76.2	48.7	-94.6	0.0
2025-01-20 08:30:04.673035	76.8	48.8	-94.8	0.0
2025-01-20 08:30:05.794706	77.4	48.9	-94.8	0.0
2025-01-20 08:30:06.915920	78.0	49.1	-94.6	0.0
2025-01-20 08:30:08.039060	78.7	49.2	-94.9	0.0
2025-01-20 08:30:09.162846	79.3	49.4	-94.7	0.0
2025-01-20 08:30:10.283091	80.0	49.5	-94.8	0.0
2025-01-20 08:30:11.404188	80.6	49.6	-94.7	0.0
2025-01-20 08:30:12.526607	81.3	49.7	-94.8	0.0
2025-01-20 08:30:13.648204	82.0	49.8	-94.8	0.0
2025-01-20 08:30:14.768100	82.6	50.0	-94.9	0.0
2025-01-20 08:30:15.889826	83.3	50.1	-94.9	0.0
2025-01-20 08:30:17.008991	84.0	50.2	-94.7	0.0
2025-01-20 08:30:18.131243	84.7	50.3	-94.9	0.0
2025-01-20 08:30:19.252996	85.4	50.4	-94.8	0.0
2025-01-20 08:30:20.373744	86.0	50.5	-94.8	0.0
2025-01-20 08:30:21.494153	86.7	50.6	-94.8	0.0
2025-01-20 08:30:22.616759	87.4	50.6	-94.8	0.0
2025-01-20 08:30:23.741808	88.2	50.7	-95.1	0.0
2025-01-20 08:30:24.863020	88.9	50.8	-94.8	0.0
2025-01-20 08:30:25.983925	89.6	50.9	-94.8	0.0
2025-01-20 08:30:27.105511	90.3	50.9	-94.8	0.0
2025-01-20 08:30:28.228096	91.0	51.0	-94.9	0.0
2025-01-20 08:30:29.349953	91.7	51.1	-94.8	0.0
2025-01-20 08:30:30.473140	92.5	51.1	-95.0	0.0
2025-01-20 08:30:31.593087	93.2	51.2	-95.0	0.0
2025-01-20 08:30:32.712973	93.9	51.2	-95.0	0.0
2025-01-20 08:30:33.834068	94.6	51.2	-94.7	0.0
2025-01-20 08:30:34.955152	95.4	51.3	-95.2	0.0
2025-01-20 08:30:36.076701	96.1	51.3	-95.1	0.0
2025-01-20 08:30:37.198662	96.8	51.3	-95.0	0.0
2025-01-20 08:30:38.320078	97.6	51.3	-94.9	0.0
2025-01-20 08:30:39.441791	98.3	51.4	-95.0	0.0
2025-01-20 08:30:40.561843	99.1	51.4	-94.8	0.0
2025-01-20 08:30:41.683201	99.8	51.4	-95.0	0.0
2025-01-20 08:30:42.803058	100.5	51.4	-95.0	0.0
2025-01-20 08:30:43.926049	101.3	51.4	-94.5	0.0
2025-01-20 08:30:45.047267	102.0	51.4	-94.9	0.0
2025-01-20 08:30:46.169685	102.8	51.4	-94.7	0.0
2025-01-20 08:30:47.291730	103.5	51.3	-94.6	0.0
2025-01-20 08:30:48.412977	104.2	51.3	-94.7	0.0
2025-01-20 08:30:49.531224	105.0	51.3	-94.6	0.0
2025-01-20 08:30:50.652523	105.7	51.2	-94.6	0.0
2025-01-20 08:30:51.774122	106.4	51.2	-94.6	0.0
2025-01-20 08:30:52.891149	107.2	51.2	-94.7	0.0
2025-01-20 08:30:54.012139	107.9	51.1	-94.7	0.0
2025-01-20 08:30:55.132450	108.6	51.1	-95.0	0.0
2025-01-20 08:30:56.253574	109.3	51.0	-94.7	0.0
2025-01-20 08:30:57.375936	110.1	50.9	-94.7	0.0
2025-01-20 08:30:58.496737	110.8	50.9	-94.8	0.0
2025-01-20 08:30:59.616727	111.5	50.8	-94.4	0.0
2025-01-20 08:31:00.737480	112.2	50.7	-94.5	0.0
2025-01-20 08:31:01.856624	112.9	50.7	-94.7	0.0
2025-01-20 08:31:02.978139	113.6	50.6	-94.7	0.0
2025-01-20 08:31:04.099680	114.3	50.5	-94.7	0.0
2025-01-20 08:31:05.220050	115.0	50.4	-94.4	0.0
2025-01-20 08:31:06.344785	115.7	50.3	-94.6	0.0
2025-01-20 08:31:07.468516	116.4	50.2	-94.7	0.0
2025-01-20 08:31:08.589207	117.1	50.1	-94.9	0.0
2025-01-20 08:31:09.709734	117.7	50.0	-94.9	0.0
2025-01-20 08:31:10.831189	118.4	49.9	-94.9	0.0
2025-01-20 08:31:11.951867	119.1	49.7	-94.9	0.0
2025-01-20 08:31:13.071997	119.7	49.6	-94.7	0.0
2025-01-20 08:31:14.194261	120.4	49.5	-94.9	0.0
2025-01-20 08:31:15.315950	121.0	49.4	-95.1	0.0
2025-01-20 08:31:16.439165	121.7	49.2	-95.1	0.0
2025-01-20 08:31:17.560245	122.3	49.1	-94.9	0.0
2025-01-20 08:31:18.682828	123.0	49.0	-94.9	0.0
2025-01-20 08:31:19.803647	123.6	48.8	-94.9	0.0
2025-01-20 08:31:20.923572	124.2	48.7	-95.0	0.0
2025-01-20 08:31:22.045384	124.8	48.5	-94.9	0.0
2025-01-20 08:31:23.167177	125.5	48.4	-94.7	0.0
2025-01-20 08:31:24.286493	126.1	48.2	-94.9	0.0
2025-01-20 08:31:25.406792	126.7	48.1	-95.0	0.0
2025-01-20 08:31:26.526889	127.3	47.9	-94.9	0.0
2025-01-20 08:31:27.647565	127.8	47.8	-94.8	0.0
2025-01-20 08:31:28.767619	128.4	47.6	-94.9	0.0
2025-01-20 08:31:29.889581	129.0	47.4	-95.1	0.0
2025-01-20 08:31:31.011322	129.6	47.3	-94.9	0.0
2025-01-20 08:31:32.134118	130.1	47.1	-94.9	0.0
2025-01-20 08:31:33.255094	130.7	46.9	-94.6	0.0
2025-01-20 08:31:34.377980	131.2	46.7	-94.6	0.0
2025-01-20 08:31:35.499009	131.8	46.6	-94.7	0.0
2025-01-20 08:31:36.617915	132.3	46.4	-94.9	0.0
2025-01-20 08:31:37.738844	132.9	46.2	-94.8	0.0
2025-01-20 08:31:38.857499	133.4	46.0	-94.6	0.0
2025-01-20 08:31:39.979974	133.9	45.8	-94.8	0.0
2025-01-20 08:31:41.102196	134.4	45.7	-94.7	0.0
2025-01-20 08:31:42.225373	134.9	45.5	-94.7	0.0
2025-01-20 08:31:43.346374	135.4	45.3	-94.8	0.0
2025-01-20 08:31:44.467949	135.9	45.1	-94.8	0.0
2025-01-20 08:31:45.587432	136.4	44.9	-94.8	0.0
2025-01-20 08:31:46.709031	136.9	44.7	-82.2	0.0
2025-01-20 08:31:47.829034	137.4	44.5	-82.1	0.0
2025-01-20 08:31:48.950758	137.9	44.3	-81.8	0.0
2025-01-20 08:31:50.072389	138.3	44.1	-81.6	0.0
2025-01-20 08:31:51.194435	138.8	43.9	-81.8	0.0
2025-01-20 08:31:52.314965	139.3	43.7	-82.1	0.0
2025-01-20 08:31:53.434460	139.7	43.5	-81.7	0.0
2025-01-20 08:31:54.556817	140.2	43.3	-81.8	0.0
2025-01-20 08:31:55.676974	140.6	43.1	-82.1	0.0
2025-01-20 08:31:56.801086	141.0	42.9	-81.4	0.0
2025-01-20 08:31:57.921574	141.5	42.7	-81.5	0.0
2025-01-20 08:31:59.041160	141.9	42.5	-82.0	0.0
2025-01-20 08:32:00.161096	142.3	42.3	-81.8	0.0
2025-01-20 08:32:01.281296	142.7	42.1	-82.2	0.0
2025-01-20 08:32:02.403376	143.1	41.9	-81.8	0.0
2025-01-20 08:32:03.523034	143.5	41.7	-81.8	0.0
2025-01-20 08:32:04.645149	143.9	41.5	-82.2	0.0
2025-01-20 08:32:05.765385	144.3	41.3	-81.6	0.0
2025-01-20 08:32:06.886401	144.7	41.0	-81.9	0.0
2025-01-20 08:32:08.007389	145.1	40.8	-82.2	0.0
2025-01-20 08:32:09.127725	145.5	40.6	-82.2	0.0
2025-01-20 08:32:10.251089	145.9	40.4	-81.5	0.0
2025-01-20 08:32:11.371215	146.2	40.2	-82.1	0.0
2025-01-20 08:32:12.491054	146.6	40.0	-81.6	0.0
2025-01-20 08:32:13.610995	146.9	39.8	-82.4	0.0
2025-01-20 08:32:14.731007	147.3	39.6	-82.3	0.0
2025-01-20 08:32:15.849856	147.7	39.4	-81.8	0.0
2025-01-20 08:32:16.973540	148.0	39.2	-82.1	0.0
2025-01-20 08:32:18.092223	148.3	39.0	-82.0	0.0
2025-01-20 08:32:19.213889	148.7	38.8	-82.2	0.0
2025-01-20 08:32:20.335196	149.0	38.6	-81.2	0.0
2025-01-20 08:32:21.456408	149.3	38.3	-81.8	0.0
2025-01-20 08:32:22.575652	149.7	38.1	-82.0	0.0
2025-01-20 08:32:23.695329	150.0	37.9	-82.4	0.0
2025-01-20 08:32:24.815529	150.3	37.7	-82.0	0.0
2025-01-20 08:32:25.935832	150.6	37.5	-82.2	0.0
2025-01-20 08:32:27.054698	150.9	37.3	-82.0	0.0
2025-01-20 08:32:28.176943	151.2	37.1	-82.3	0.0
2025-01-20 08:32:29.296362	151.5	36.9	-81.9	0.0
2025-01-20 08:32:30.417675	151.8	36.7	-82.3	0.0
2025-01-20 08:32:31.539036	152.1	36.5	-81.8	0.0
2025-01-20 08:32:32.660095	152.4	36.3	-81.9	0.0
2025-01-20 08:32:33.782734	152.7	36.1	-81.5	0.0
2025-01-20 08:32:34.902434	153.0	35.9	-81.9	0.0
2025-01-20 08:32:36.021797	153.3	35.7	-82.0	0.0
2025-01-20 08:32:37.143439	153.6	35.5	-81.9	0.0
2025-01-20 08:32:38.262957	153.8	35.3	-82.2	0.0
2025-01-20 08:32:39.384966	154.1	35.1	-81.8	0.0
2025-01-20 08:32:40.506156	154.4	34.9	-82.2	0.0
2025-01-20 08:32:41.627819	154.6	34.7	-81.0	0.0
2025-01-20 08:32:42.749659	154.9	34.5	-81.6	0.0
2025-01-20 08:32:43.873034	155.2	34.3	-81.5	0.0
2025-01-20 08:32:44.994244	155.4	34.1	-81.6	0.0
2025-01-20 08:32:46.115292	155.7	33.9	-81.3	0.0
2025-01-20 08:32:47.237134	155.9	33.7	-82.0	0.0
2025-01-20 08:32:48.358081	156.2	33.5	-81.6	0.0
2025-01-20 08:32:49.479017	156.4	33.3	-81.9	0.0
2025-01-20 08:32:50.598523	156.7	33.1	-82.1	0.0
2025-01-20 08:32:51.719339	156.9	32.9	-82.3	0.0
2025-01-20 08:32:52.841987	157.1	32.7	-82.1	0.0
2025-01-20 08:32:53.963203	157.4	32.5	-81.7	0.0
2025-01-20 08:32:55.084670	157.6	32.3	-81.8	0.0
2025-01-20 08:32:56.205805	157.8	32.1	-81.8	0.0
2025-01-20 08:32:57.324443	158.0	31.9	-81.9	0.0
2025-01-20 08:32:58.445226	158.3	31.8	-81.5	0.0
2025-01-20 08:32:59.565849	158.5	31.6	-82.1	0.0
2025-01-20 08:33:00.687185	158.7	31.4	-81.8	0.0
2025-01-20 08:33:01.808861	158.9	31.2	-81.3	0.0
2025-01-20 08:33:02.929880	159.1	31.0	-81.7	0.0
2025-01-20 08:33:04.050195	159.3	30.8	-81.9	0.0
2025-01-20 08:33:05.171899	159.5	30.6	-81.7	0.0
2025-01-20 08:33:06.295538	159.7	30.4	-81.8	0.0
2025-01-20 08:33:07.418080	160.0	30.3	-81.4	0.0
2025-01-20 08:33:08.538674	160.2	30.1	-81.9	0.0
2025-01-20 08:33:09.661090	160.3	29.9	-81.8	0.0
2025-01-20 08:33:10.781964	160.5	29.7	-82.2	0.0
2025-01-20 08:33:11.904590	160.7	29.5	-82.0	0.0
2025-01-20 08:33:13.025213	160.9	29.4	-82.1	0.0
2025-01-20 08:33:14.145484	161.1	29.2	-81.7	0.0
2025-01-20 08:33:15.266095	161.3	29.0	-81.3	0.0
2025-01-20 08:33:16.387317	161.5	28.8	-81.5	0.0
2025-01-20 08:33:17.506928	161.7	28.6	-81.4	0.0
2025-01-20 08:33:18.628103	161.9	28.5	-82.1	0.0
2025-01-20 08:33:19.748723	162.0	28.3	-81.8	0.0
2025-01-20 08:33:20.871255	162.2	28.1	-82.2	0.0
2025-01-20 08:33:21.989983	162.4	27.9	-81.5	0.0
2025-01-20 08:33:23.111821	162.6	27.8	-82.1	0.0
2025-01-20 08:33:24.229779	162.7	27.6	-82.2	0.0
2025-01-20 08:33:25.351144	162.9	27.4	-82.2	0.0
2025-01-20 08:33:26.474874	163.1	27.3	-82.5	0.0
2025-01-20 08:33:27.596602	163.3	27.1	-82.2	0.0
2025-01-20 08:33:28.718184	163.4	26.9	-82.0	0.0
2025-01-20 08:33:29.838092	163.6	26.8	-82.1	0.0
2025-01-20 08:33:30.958376	163.7	26.6	-82.4	0.0
2025-01-20 08:33:32.079927	163.9	26.4	-82.3	0.0
2025-01-20 08:33:33.200411	164.1	26.3	-82.3	0.0
2025-01-20 08:33:34.320171	164.2	26.1	-82.0	0.0
2025-01-20 08:33:35.442035	164.4	25.9	-81.9	0.0
2025-01-20 08:33:36.562711	164.5	25.8	-82.1	0.0
2025-01-20 08:33:37.682304	164.7	25.6	-82.2	0.0
2025-01-20 08:33:38.804072	164.8	25.4	-82.4	0.0
2025-01-20 08:33:39.926146	165.0	25.3	-82.1	0.0
2025-01-20 08:33:41.047075	165.1	25.1	-81.8	0.0
2025-01-20 08:33:42.166605	165.3	25.0	-82.3	0.0
2025-01-20 08:33:43.287997	165.4	24.8	-82.1	0.0
2025-01-20 08:33:44.408603	165.6	24.6	-82.3	0.0
2025-01-20 08:33:45.528457	165.7	24.5	-81.5	0.0
2025-01-20 08:33:46.649067	165.9	24.3	-82.4	0.0
2025-01-20 08:33:47.770743	166.0	24.2	-82.3	0.0
2025-01-20 08:33:48.891829	166.1	24.0	-82.3	0.0
2025-01-20 08:33:50.011975	166.3	23.9	-82.3	0.0
2025-01-20 08:33:51.132545	166.4	23.7	-82.0	0.0
2025-01-20 08:33:52.253060	166.5	23.6	-81.8	0.0
2025-01-20 08:33:53.375178	166.7	23.4	-82.2	0.0
2025-01-20 08:33:54.496570	166.8	23.3	-82.2	0.0
2025-01-20 08:33:55.615629	166.9	23.1	-81.9	0.0
2025-01-20 08:33:56.737182	167.1	23.0	-82.2	0.0
2025-01-20 08:33:57.856676	167.2	22.8	-82.0	0.0
2025-01-20 08:33:58.980099	167.3	22.7	-82.0	0.0
2025-01-20 08:34:00.102804	167.5	22.5	-81.7	0.0
2025-01-20 08:34:01.221380	167.6	22.4	-81.8	0.0
2025-01-20 08:34:02.341618	167.7	22.2	-82.0	0.0
2025-01-20 08:34:03.464104	167.8	22.1	-81.8	0.0
2025-01-20 08:34:04.583972	168.0	21.9	-82.4	0.0
2025-01-20 08:34:05.703493	168.1	21.8	-82.3	0.0
2025-01-20 08:34:06.823864	168.2	21.6	-82.2	0.0
2025-01-20 08:34:07.944547	168.3	21.5	-82.4	0.0
2025-01-20 08:34:09.063918	168.4	21.4	-82.2	0.0
2025-01-20 08:34:10.185088	168.5	21.2	-82.1	0.0
2025-01-20 08:34:11.305543	168.7	21.1	-82.3	0.0
2025-01-20 08:34:12.423741	168.8	20.9	-82.3	0.0
2025-01-20 08:34:13.544034	168.9	20.8	-81.9	0.0
2025-01-20 08:34:14.662660	169.0	20.7	-82.3	0.0
2025-01-20 08:34:15.785874	169.1	20.5	-82.4	0.0
2025-01-20 08:34:16.907860	169.2	20.4	-81.7	0.0
2025-01-20 08:34:18.032079	169.3	20.3	-81.9	0.0
2025-01-20 08:34:19.153766	169.4	20.1	-80.7	0.0
2025-01-20 08:34:20.276193	169.6	20.0	-82.3	0.0
2025-01-20 08:34:21.398262	169.7	19.8	-81.3	0.0
2025-01-20 08:34:22.518564	169.8	19.7	-81.1	0.0
2025-01-20 08:34:23.641189	169.9	19.6	-81.6	0.0
2025-01-20 08:34:24.762132	170.0	19.4	-82.2	0.0
2025-01-20 08:34:25.886140	170.1	19.3	-82.0	0.0
2025-01-20 08:34:27.006499	170.2	19.2	-82.0	0.0
2025-01-20 08:34:28.125461	170.3	19.0	-81.5	0.0
2025-01-20 08:34:29.245142	170.4	18.9	-81.9	0.0
2025-01-20 08:34:30.367157	170.5	18.8	-82.1	0.0
2025-01-20 08:34:31.487773	170.6	18.7	-81.7	0.0
2025-01-20 08:34:32.609613	170.7	18.5	-81.5	0.0
2025-01-20 08:34:33.731649	170.8	18.4	-81.2	0.0
2025-01-20 08:34:34.851303	170.9	18.3	-81.7	0.0
2025-01-20 08:34:35.972411	171.0	18.1	-81.7	0.0
2025-01-20 08:34:37.092218	171.1	18.0	-82.3	0.0
2025-01-20 08:34:38.213016	171.2	17.9	-82.0	0.0
2025-01-20 08:34:39.334722	171.3	17.8	-82.1	0.0
2025-01-20 08:34:40.456022	171.4	17.6	-81.9	0.0
2025-01-20 08:34:41.575326	171.4	17.5	-82.0	0.0
2025-01-20 08:34:42.693522	171.5	17.4	-82.3	0.0
2025-01-20 08:34:43.812647	171.6	17.3	-81.5	0.0
2025-01-20 08:34:44.934118	171.7	17.2	-82.2	0.0
2025-01-20 08:34:46.055263	171.8	17.0	-81.6	0.0
2025-01-20 08:34:47.174953	171.9	16.9	-81.8	0.0
2025-01-20 08:34:48.296223	172.0	16.8	-81.8	0.0
2025-01-20 08:34:49.418620	172.1	16.7	-81.8	0.0
2025-01-20 08:34:50.540272	172.2	16.5	-82.1	0.0
2025-01-20 08:34:51.660708	172.2	16.4	-81.9	0.0
2025-01-20 08:34:52.781835	172.3	16.3	-81.9	0.0
2025-01-20 08:34:53.903229	172.4	16.2	-82.0	0.0
2025-01-20 08:34:55.024845	172.5	16.1	-81.9	0.0
2025-01-20 08:34:56.146360	172.6	16.0	-82.0	0.0
2025-01-20 08:34:57.267946	172.7	15.8	-82.4	0.0
2025-01-20 08:34:58.387363	172.8	15.7	-82.2	0.0
2025-01-20 08:34:59.508826	172.8	15.6	-81.7	0.0
2025-01-20 08:35:00.628908	172.9	15.5	-82.0	0.0
2025-01-20 08:35:01.750322	173.0	15.4	-81.6	0.0
2025-01-20 08:35:02.871999	173.1	15.3	-82.4	0.0
2025-01-20 08:35:03.992757	173.2	15.2	-82.4	0.0
2025-01-20 08:35:05.113977	173.2	15.0	-82.1	0.0
2025-01-20 08:35:06.235129	173.3	14.9	-82.1	0.0
2025-01-20 08:35:07.357207	173.4	14.8	-82.0	0.0
2025-01-20 08:35:08.478734	173.5	14.7	-81.7	0.0
2025-01-20 08:35:09.599639	173.5	14.6	-81.9	0.0
2025-01-20 08:35:10.719671	173.6	14.5	-82.1	0.0
2025-01-20 08:35:11.840316	173.7	14.4	-82.1	0.0
2025-01-20 08:35:12.960156	173.8	14.3	-82.2	0.0
2025-01-20 08:35:14.081087	173.9	14.1	-82.7	0.0
2025-01-20 08:35:15.203299	173.9	14.0	-81.9	0.0
2025-01-20 08:35:16.325199	174.0	13.9	-82.5	0.0
2025-01-20 08:35:17.445505	174.1	13.8	-82.5	0.0
2025-01-20 08:35:18.565182	174.1	13.7	-81.8	0.0
2025-01-20 08:35:19.686511	174.2	13.6	-82.3	0.0
2025-01-20 08:35:20.809971	174.3	13.5	-82.3	0.0
2025-01-20 08:35:21.930979	174.4	13.4	-82.2	0.0
2025-01-20 08:35:23.050965	174.4	13.3	-82.2	0.0
2025-01-20 08:35:24.170213	174.5	13.2	-82.3	0.0
2025-01-20 08:35:25.290972	174.6	13.1	-82.2	0.0
2025-01-20 08:35:26.410961	174.6	13.0	-82.2	0.0
2025-01-20 08:35:27.534075	174.7	12.9	-82.0	0.0
2025-01-20 08:35:28.653852	174.8	12.8	-81.2	0.0
2025-01-20 08:35:29.774447	174.8	12.7	-81.4	0.0
2025-01-20 08:35:30.894995	174.9	12.6	-81.7	0.0
2025-01-20 08:35:32.016534	175.0	12.5	-81.1	0.0
2025-01-20 08:35:33.135990	175.0	12.3	-81.8	0.0
2025-01-20 08:35:34.255877	175.1	12.2	-82.3	0.0
2025-01-20 08:35:35.376778	175.2	12.1	-81.4	0.0
2025-01-20 08:35:36.496530	175.2	12.0	-81.7	0.0
2025-01-20 08:35:37.617567	175.3	11.9	-82.3	0.0
2025-01-20 08:35:38.738016	175.4	11.8	-81.6	0.0
2025-01-20 08:35:39.858745	175.4	11.7	-82.0	0.0
2025-01-20 08:35:40.978873	175.5	11.6	-82.0	0.0
2025-01-20 08:35:42.098596	175.6	11.5	-81.4	0.0
2025-01-20 08:35:43.219417	175.6	11.4	-82.2	0.0
2025-01-20 08:35:44.340634	175.7	11.3	-82.2	0.0
2025-01-20 08:35:45.461263	175.8	11.2	-81.5	0.0
2025-01-20 08:35:46.582115	175.8	11.1	-81.9	0.0
2025-01-20 08:35:47.705122	175.9	11.1	-81.6	0.0
2025-01-20 08:35:48.825065	175.9	11.0	-82.0	0.0
2025-01-20 08:35:49.944773	176.0	10.9	-81.9	0.0
2025-01-20 08:35:51.066154	176.1	10.8	-81.7	0.0
2025-01-20 08:35:52.185210	176.1	10.7	-82.3	0.0
2025-01-20 08:35:53.305264	176.2	10.6	-82.2	0.0
2025-01-20 08:35:54.426506	176.2	10.5	-82.4	0.0
2025-01-20 08:35:55.547550	176.3	10.4	-82.0	0.0
2025-01-20 08:35:56.668908	176.4	10.3	-82.2	0.0
2025-01-20 08:35:57.788728	176.4	10.2	-82.3	0.0
2025-01-20 08:35:58.909545	176.5	10.1	-82.4	0.0
2025-01-20 08:36:00.033116	176.5	10.0	-82.4	0.0
#Closed at: 2025-01-20 08:25:16.019941