passes_logs/2025/01/20/planumMaritime01/planumMaritime01__20250120_193644_NOAA_19_rec.log

#Pass ID: 20250120_193644_NOAA 19
#Satellite: NOAA 19
#Configuration: NOAA 19
#Start time: 2025-01-20 19:36:49.090155

#LorettStation: 1.0.0 05.05.2024
#Station: planumMaritime01
#Location: 37.49445 lon 55.92918 lat
#TLE: 1 33591U 09005A   25020.17232911  .00000399  00000+0  23710-3 0  9996
#TLE: 2 33591  99.0187  83.9745 0014303  43.5990 316.6309 14.13263973822272

#Time	Az	El	Level	SNR
2025-01-20 19:36:51.247406	216.8	10.1	-78.0	0.0
2025-01-20 19:36:52.370752	216.9	10.2	-78.0	0.0
2025-01-20 19:36:53.496679	217.1	10.3	-78.1	0.0
2025-01-20 19:36:54.620169	217.2	10.4	-78.0	0.0
2025-01-20 19:36:55.745868	217.3	10.4	-77.9	0.0
2025-01-20 19:36:56.870907	217.5	10.5	-78.0	0.0
2025-01-20 19:36:57.996440	217.6	10.6	-77.7	0.0
2025-01-20 19:36:59.120967	217.7	10.7	-78.0	0.0
2025-01-20 19:37:00.247742	217.9	10.7	-78.4	0.0
2025-01-20 19:37:01.369760	218.0	10.8	-77.6	0.0
2025-01-20 19:37:02.495955	218.2	10.9	-78.0	0.0
2025-01-20 19:37:03.619415	218.3	11.0	-78.0	0.0
2025-01-20 19:37:04.744337	218.4	11.1	-77.8	0.0
2025-01-20 19:37:05.865942	218.6	11.1	-78.1	0.0
2025-01-20 19:37:06.989379	218.7	11.2	-77.8	0.0
2025-01-20 19:37:08.114116	218.8	11.3	-78.3	0.0
2025-01-20 19:37:09.236565	219.0	11.4	-78.3	0.0
2025-01-20 19:37:10.360074	219.1	11.4	-78.5	0.0
2025-01-20 19:37:11.483691	219.3	11.5	-78.3	0.0
2025-01-20 19:37:12.606079	219.4	11.6	-78.6	0.0
2025-01-20 19:37:13.730970	219.6	11.7	-78.3	0.0
2025-01-20 19:37:14.854425	219.7	11.7	-78.9	0.0
2025-01-20 19:37:15.977279	219.8	11.8	-79.0	0.0
2025-01-20 19:37:17.099740	220.0	11.9	-78.5	0.0
2025-01-20 19:37:18.222558	220.1	12.0	-79.0	0.0
2025-01-20 19:37:19.346838	220.3	12.0	-78.8	0.0
2025-01-20 19:37:20.471058	220.4	12.1	-79.1	0.0
2025-01-20 19:37:21.593826	220.6	12.2	-78.7	0.0
2025-01-20 19:37:22.716722	220.7	12.3	-79.0	0.0
2025-01-20 19:37:23.840619	220.9	12.4	-78.9	0.0
2025-01-20 19:37:24.964173	221.0	12.4	-78.6	0.0
2025-01-20 19:37:26.085495	221.2	12.5	-79.2	0.0
2025-01-20 19:37:27.209623	221.3	12.6	-79.3	0.0
2025-01-20 19:37:28.334210	221.5	12.7	-78.6	0.0
2025-01-20 19:37:29.456123	221.6	12.7	-78.5	0.0
2025-01-20 19:37:30.577979	221.8	12.8	-78.6	0.0
2025-01-20 19:37:31.701915	222.0	12.9	-77.4	0.0
2025-01-20 19:37:32.824270	222.1	13.0	-78.0	0.0
2025-01-20 19:37:33.946011	222.3	13.1	-78.7	0.0
2025-01-20 19:37:35.069740	222.4	13.1	-78.7	0.0
2025-01-20 19:37:36.191353	222.6	13.2	-79.0	0.0
2025-01-20 19:37:37.312940	222.8	13.3	-78.8	0.0
2025-01-20 19:37:38.435915	222.9	13.4	-78.5	0.0
2025-01-20 19:37:39.557558	223.1	13.4	-78.7	0.0
2025-01-20 19:37:40.679481	223.2	13.5	-79.1	0.0
2025-01-20 19:37:41.803417	223.4	13.6	-78.5	0.0
2025-01-20 19:37:42.927724	223.6	13.7	-79.2	0.0
2025-01-20 19:37:44.051298	223.7	13.8	-78.9	0.0
2025-01-20 19:37:45.173734	223.9	13.8	-79.0	0.0
2025-01-20 19:37:46.298011	224.1	13.9	-79.5	0.0
2025-01-20 19:37:47.420697	224.2	14.0	-79.2	0.0
2025-01-20 19:37:48.544002	224.4	14.1	-79.4	0.0
2025-01-20 19:37:49.667702	224.6	14.2	-78.2	0.0
2025-01-20 19:37:50.789809	224.7	14.2	-79.2	0.0
2025-01-20 19:37:51.912905	224.9	14.3	-79.5	0.0
2025-01-20 19:37:53.036868	225.1	14.4	-78.4	0.0
2025-01-20 19:37:54.161471	225.2	14.5	-79.5	0.0
2025-01-20 19:37:55.289070	225.4	14.5	-79.5	0.0
2025-01-20 19:37:56.411419	225.6	14.6	-79.7	0.0
2025-01-20 19:37:57.535529	225.8	14.7	-79.7	0.0
2025-01-20 19:37:58.659934	225.9	14.8	-79.3	0.0
2025-01-20 19:37:59.783209	226.1	14.9	-79.7	0.0
2025-01-20 19:38:00.905745	226.3	14.9	-79.6	0.0
2025-01-20 19:38:02.027649	226.5	15.0	-80.0	0.0
2025-01-20 19:38:03.150195	226.7	15.1	-79.8	0.0
2025-01-20 19:38:04.273091	226.8	15.2	-79.7	0.0
2025-01-20 19:38:05.398279	227.0	15.3	-79.2	0.0
2025-01-20 19:38:06.520057	227.2	15.3	-79.5	0.0
2025-01-20 19:38:07.644303	227.4	15.4	-79.9	0.0
2025-01-20 19:38:08.766566	227.6	15.5	-78.5	0.0
2025-01-20 19:38:09.891070	227.8	15.6	-78.5	0.0
2025-01-20 19:38:11.013707	227.9	15.6	-79.5	0.0
2025-01-20 19:38:12.134018	228.1	15.7	-79.6	0.0
2025-01-20 19:38:13.259910	228.3	15.8	-79.8	0.0
2025-01-20 19:38:14.385136	228.5	15.9	-79.7	0.0
2025-01-20 19:38:15.508670	228.7	16.0	-80.2	0.0
2025-01-20 19:38:16.632177	228.9	16.0	-78.3	0.0
2025-01-20 19:38:17.754612	229.1	16.1	-79.8	0.0
2025-01-20 19:38:18.877947	229.3	16.2	-79.5	0.0
2025-01-20 19:38:20.000822	229.5	16.3	-79.7	0.0
2025-01-20 19:38:21.124063	229.7	16.3	-80.1	0.0
2025-01-20 19:38:22.246584	229.9	16.4	-80.2	0.0
2025-01-20 19:38:23.371584	230.1	16.5	-80.2	0.0
2025-01-20 19:38:24.495502	230.3	16.6	-80.2	0.0
2025-01-20 19:38:25.619195	230.5	16.7	-80.4	0.0
2025-01-20 19:38:26.742576	230.7	16.7	-79.9	0.0
2025-01-20 19:38:27.865900	230.9	16.8	-80.2	0.0
2025-01-20 19:38:28.990775	231.1	16.9	-80.0	0.0
2025-01-20 19:38:30.112574	231.3	17.0	-79.9	0.0
2025-01-20 19:38:31.233604	231.5	17.0	-80.2	0.0
2025-01-20 19:38:32.357319	231.7	17.1	-79.9	0.0
2025-01-20 19:38:33.480119	231.9	17.2	-80.3	0.0
2025-01-20 19:38:34.604902	232.1	17.3	-80.3	0.0
2025-01-20 19:38:35.729118	232.3	17.4	-80.0	0.0
2025-01-20 19:38:36.851835	232.5	17.4	-79.8	0.0
2025-01-20 19:38:37.977221	232.7	17.5	-79.7	0.0
2025-01-20 19:38:39.101697	232.9	17.6	-79.8	0.0
2025-01-20 19:38:40.226354	233.1	17.7	-80.4	0.0
2025-01-20 19:38:41.349918	233.3	17.7	-80.3	0.0
2025-01-20 19:38:42.472824	233.6	17.8	-80.3	0.0
2025-01-20 19:38:43.594755	233.8	17.9	-80.3	0.0
2025-01-20 19:38:44.719470	234.0	18.0	-80.6	0.0
2025-01-20 19:38:45.841988	234.2	18.0	-80.6	0.0
2025-01-20 19:38:46.964355	234.4	18.1	-80.7	0.0
2025-01-20 19:38:48.088899	234.6	18.2	-80.7	0.0
2025-01-20 19:38:49.213155	234.9	18.3	-80.5	0.0
2025-01-20 19:38:50.336538	235.1	18.3	-80.5	0.0
2025-01-20 19:38:51.458096	235.3	18.4	-80.6	0.0
2025-01-20 19:38:52.582222	235.5	18.5	-80.4	0.0
2025-01-20 19:38:53.705624	235.8	18.6	-80.7	0.0
2025-01-20 19:38:54.826900	236.0	18.6	-80.3	0.0
2025-01-20 19:38:55.950856	236.2	18.7	-80.0	0.0
2025-01-20 19:38:57.074704	236.4	18.8	-80.4	0.0
2025-01-20 19:38:58.199808	236.7	18.9	-80.6	0.0
2025-01-20 19:38:59.323809	236.9	18.9	-80.5	0.0
2025-01-20 19:39:00.448157	237.1	19.0	-79.9	0.0
2025-01-20 19:39:01.572252	237.4	19.1	-80.8	0.0
2025-01-20 19:39:02.694329	237.6	19.1	-80.4	0.0
2025-01-20 19:39:03.815998	237.8	19.2	-80.2	0.0
2025-01-20 19:39:04.939130	238.1	19.3	-80.2	0.0
2025-01-20 19:39:06.062018	238.3	19.4	-80.1	0.0
2025-01-20 19:39:07.185182	238.5	19.4	-80.5	0.0
2025-01-20 19:39:08.307316	238.8	19.5	-80.8	0.0
2025-01-20 19:39:09.431680	239.0	19.6	-80.6	0.0
2025-01-20 19:39:10.556248	239.3	19.6	-80.8	0.0
2025-01-20 19:39:11.678770	239.5	19.7	-80.4	0.0
2025-01-20 19:39:12.802117	239.7	19.8	-80.6	0.0
2025-01-20 19:39:13.925265	240.0	19.8	-80.7	0.0
2025-01-20 19:39:15.047778	240.2	19.9	-80.5	0.0
2025-01-20 19:39:16.169725	240.5	20.0	-80.6	0.0
2025-01-20 19:39:17.292717	240.7	20.1	-80.8	0.0
2025-01-20 19:39:18.416395	241.0	20.1	-80.2	0.0
2025-01-20 19:39:19.540129	241.2	20.2	-79.7	0.0
2025-01-20 19:39:20.666216	241.5	20.3	-79.5	0.0
2025-01-20 19:39:21.788754	241.7	20.3	-80.3	0.0
2025-01-20 19:39:22.911733	242.0	20.4	-79.8	0.0
2025-01-20 19:39:24.032766	242.2	20.5	-79.8	0.0
2025-01-20 19:39:25.155770	242.5	20.5	-80.5	0.0
2025-01-20 19:39:26.279176	242.7	20.6	-80.4	0.0
2025-01-20 19:39:27.403838	243.0	20.7	-80.6	0.0
2025-01-20 19:39:28.526442	243.3	20.7	-80.4	0.0
2025-01-20 19:39:29.649332	243.5	20.8	-80.3	0.0
2025-01-20 19:39:30.770954	243.8	20.8	-80.9	0.0
2025-01-20 19:39:31.893575	244.0	20.9	-80.3	0.0
2025-01-20 19:39:33.013724	244.3	21.0	-80.6	0.0
2025-01-20 19:39:34.137930	244.6	21.0	-81.0	0.0
2025-01-20 19:39:35.261440	244.8	21.1	-80.4	0.0
2025-01-20 19:39:36.385715	245.1	21.2	-80.7	0.0
2025-01-20 19:39:37.509292	245.4	21.2	-80.6	0.0
2025-01-20 19:39:38.632615	245.6	21.3	-80.7	0.0
2025-01-20 19:39:39.755700	245.9	21.3	-80.8	0.0
2025-01-20 19:39:40.877437	246.2	21.4	-80.5	0.0
2025-01-20 19:39:41.998940	246.4	21.5	-81.0	0.0
2025-01-20 19:39:43.123233	246.7	21.5	-80.7	0.0
2025-01-20 19:39:44.245692	247.0	21.6	-81.1	0.0
2025-01-20 19:39:45.369724	247.2	21.6	-81.2	0.0
2025-01-20 19:39:46.494197	247.5	21.7	-81.2	0.0
2025-01-20 19:39:47.615705	247.8	21.7	-81.0	0.0
2025-01-20 19:39:48.737902	248.1	21.8	-81.0	0.0
2025-01-20 19:39:49.861235	248.3	21.9	-81.3	0.0
2025-01-20 19:39:50.985323	248.6	21.9	-81.1	0.0
2025-01-20 19:39:52.112387	248.9	22.0	-81.5	0.0
2025-01-20 19:39:53.238479	249.2	22.0	-81.4	0.0
2025-01-20 19:39:54.360731	249.5	22.1	-81.3	0.0
2025-01-20 19:39:55.485027	249.7	22.1	-81.4	0.0
2025-01-20 19:39:56.606848	250.0	22.2	-81.2	0.0
2025-01-20 19:39:57.728133	250.3	22.2	-81.3	0.0
2025-01-20 19:39:58.852281	250.6	22.3	-81.3	0.0
2025-01-20 19:39:59.974054	250.9	22.3	-81.5	0.0
2025-01-20 19:40:01.096437	251.2	22.4	-81.2	0.0
2025-01-20 19:40:02.219945	251.4	22.4	-81.1	0.0
2025-01-20 19:40:03.343467	251.7	22.5	-81.5	0.0
2025-01-20 19:40:04.467199	252.0	22.5	-81.2	0.0
2025-01-20 19:40:05.592878	252.3	22.6	-81.5	0.0
2025-01-20 19:40:06.717415	252.6	22.6	-81.1	0.0
2025-01-20 19:40:07.841344	252.9	22.7	-80.9	0.0
2025-01-20 19:40:08.964723	253.2	22.7	-81.3	0.0
2025-01-20 19:40:10.088059	253.5	22.8	-81.4	0.0
2025-01-20 19:40:11.214083	253.8	22.8	-81.1	0.0
2025-01-20 19:40:12.337902	254.1	22.8	-81.1	0.0
2025-01-20 19:40:13.460914	254.4	22.9	-81.0	0.0
2025-01-20 19:40:14.582615	254.7	22.9	-81.0	0.0
2025-01-20 19:40:15.708761	255.0	23.0	-81.0	0.0
2025-01-20 19:40:16.832071	255.3	23.0	-80.8	0.0
2025-01-20 19:40:17.955295	255.6	23.0	-80.8	0.0
2025-01-20 19:40:19.078949	255.9	23.1	-81.1	0.0
2025-01-20 19:40:20.201988	256.1	23.1	-81.0	0.0
2025-01-20 19:40:21.325064	256.4	23.2	-81.2	0.0
2025-01-20 19:40:22.447966	256.8	23.2	-81.2	0.0
2025-01-20 19:40:23.569732	257.1	23.2	-80.8	0.0
2025-01-20 19:40:24.694498	257.4	23.3	-81.1	0.0
2025-01-20 19:40:25.817989	257.7	23.3	-80.6	0.0
2025-01-20 19:40:26.941261	258.0	23.3	-81.1	0.0
2025-01-20 19:40:28.064438	258.3	23.4	-81.0	0.0
2025-01-20 19:40:29.186864	258.6	23.4	-80.5	0.0
2025-01-20 19:40:30.308509	258.9	23.4	-80.8	0.0
2025-01-20 19:40:31.429674	259.2	23.5	-80.7	0.0
2025-01-20 19:40:32.552977	259.5	23.5	-81.0	0.0
2025-01-20 19:40:33.675258	259.8	23.5	-81.0	0.0
2025-01-20 19:40:34.799882	260.1	23.5	-80.2	0.0
2025-01-20 19:40:35.922752	260.4	23.6	-80.5	0.0
2025-01-20 19:40:37.043904	260.7	23.6	-80.6	0.0
2025-01-20 19:40:38.166538	261.0	23.6	-80.2	0.0
2025-01-20 19:40:39.289781	261.3	23.6	-80.8	0.0
2025-01-20 19:40:40.410948	261.6	23.7	-80.9	0.0
2025-01-20 19:40:41.536108	262.0	23.7	-80.7	0.0
2025-01-20 19:40:42.657835	262.3	23.7	-80.7	0.0
2025-01-20 19:40:43.783695	262.6	23.7	-80.8	0.0
2025-01-20 19:40:44.906750	262.9	23.7	-80.7	0.0
2025-01-20 19:40:46.030393	263.2	23.8	-80.6	0.0
2025-01-20 19:40:47.153245	263.5	23.8	-80.6	0.0
2025-01-20 19:40:48.277216	263.8	23.8	-81.2	0.0
2025-01-20 19:40:49.401061	264.1	23.8	-81.2	0.0
2025-01-20 19:40:50.524120	264.4	23.8	-80.8	0.0
2025-01-20 19:40:51.646547	264.8	23.8	-81.0	0.0
2025-01-20 19:40:52.771806	265.1	23.9	-80.8	0.0
2025-01-20 19:40:53.893836	265.4	23.9	-81.1	0.0
2025-01-20 19:40:55.017016	265.7	23.9	-80.9	0.0
2025-01-20 19:40:56.138872	266.0	23.9	-81.1	0.0
2025-01-20 19:40:57.262873	266.3	23.9	-81.2	0.0
2025-01-20 19:40:58.384706	266.6	23.9	-81.0	0.0
2025-01-20 19:40:59.507730	267.0	23.9	-80.8	0.0
2025-01-20 19:41:00.631050	267.3	23.9	-81.0	0.0
2025-01-20 19:41:01.756070	267.6	23.9	-80.9	0.0
2025-01-20 19:41:02.878310	267.9	23.9	-80.7	0.0
2025-01-20 19:41:04.002134	268.2	24.0	-80.5	0.0
2025-01-20 19:41:05.123074	268.5	24.0	-80.9	0.0
2025-01-20 19:41:06.245000	268.9	24.0	-80.9	0.0
2025-01-20 19:41:07.369719	269.2	24.0	-80.5	0.0
2025-01-20 19:41:08.495353	269.5	24.0	-80.6	0.0
2025-01-20 19:41:09.617838	269.8	24.0	-80.7	0.0
2025-01-20 19:41:10.739777	270.1	24.0	-80.8	0.0
2025-01-20 19:41:11.864198	270.4	24.0	-81.0	0.0
2025-01-20 19:41:12.987568	270.7	24.0	-80.9	0.0
2025-01-20 19:41:14.108977	271.1	24.0	-80.9	0.0
2025-01-20 19:41:15.231470	271.4	24.0	-80.9	0.0
2025-01-20 19:41:16.353546	271.7	24.0	-80.9	0.0
2025-01-20 19:41:17.476144	272.0	23.9	-80.5	0.0
2025-01-20 19:41:18.598576	272.3	23.9	-80.5	0.0
2025-01-20 19:41:19.722331	272.6	23.9	-80.6	0.0
2025-01-20 19:41:20.844471	273.0	23.9	-80.6	0.0
2025-01-20 19:41:21.970170	273.3	23.9	-80.6	0.0
2025-01-20 19:41:23.092985	273.6	23.9	-80.9	0.0
2025-01-20 19:41:24.217707	273.9	23.9	-80.5	0.0
2025-01-20 19:41:25.341233	274.2	23.9	-80.7	0.0
2025-01-20 19:41:26.466350	274.5	23.9	-80.4	0.0
2025-01-20 19:41:27.589802	274.8	23.9	-80.2	0.0
2025-01-20 19:41:28.711906	275.2	23.8	-80.2	0.0
2025-01-20 19:41:29.835230	275.5	23.8	-80.3	0.0
2025-01-20 19:41:30.956352	275.8	23.8	-80.5	0.0
2025-01-20 19:41:32.079867	276.1	23.8	-80.2	0.0
2025-01-20 19:41:33.201173	276.4	23.8	-80.7	0.0
2025-01-20 19:41:34.325973	276.7	23.8	-80.3	0.0
2025-01-20 19:41:35.450339	277.0	23.7	-80.4	0.0
2025-01-20 19:41:36.574948	277.3	23.7	-80.2	0.0
2025-01-20 19:41:37.698543	277.6	23.7	-80.2	0.0
2025-01-20 19:41:38.823037	278.0	23.7	-80.2	0.0
2025-01-20 19:41:39.946143	278.3	23.6	-80.2	0.0
2025-01-20 19:41:41.068199	278.6	23.6	-80.2	0.0
2025-01-20 19:41:42.191913	278.9	23.6	-80.5	0.0
2025-01-20 19:41:43.317112	279.2	23.6	-80.5	0.0
2025-01-20 19:41:44.439880	279.5	23.5	-80.0	0.0
2025-01-20 19:41:45.564802	279.8	23.5	-80.1	0.0
2025-01-20 19:41:46.688814	280.1	23.5	-80.3	0.0
2025-01-20 19:41:47.813938	280.4	23.5	-80.3	0.0
2025-01-20 19:41:48.935451	280.7	23.4	-80.4	0.0
2025-01-20 19:41:50.058315	281.0	23.4	-80.1	0.0
2025-01-20 19:41:51.180576	281.3	23.4	-79.9	0.0
2025-01-20 19:41:52.303876	281.6	23.3	-80.2	0.0
2025-01-20 19:41:53.426340	281.9	23.3	-79.8	0.0
2025-01-20 19:41:54.553847	282.2	23.3	-80.4	0.0
2025-01-20 19:41:55.675063	282.5	23.2	-80.5	0.0
2025-01-20 19:41:56.798293	282.8	23.2	-80.5	0.0
2025-01-20 19:41:57.924001	283.1	23.2	-80.1	0.0
2025-01-20 19:41:59.047068	283.4	23.1	-80.6	0.0
2025-01-20 19:42:00.168345	283.7	23.1	-79.9	0.0
2025-01-20 19:42:01.291959	284.0	23.1	-80.6	0.0
2025-01-20 19:42:02.415944	284.3	23.0	-79.7	0.0
2025-01-20 19:42:03.538668	284.6	23.0	-80.6	0.0
2025-01-20 19:42:04.660212	284.9	22.9	-79.4	0.0
2025-01-20 19:42:05.784474	285.2	22.9	-79.8	0.0
2025-01-20 19:42:06.907928	285.5	22.9	-80.2	0.0
2025-01-20 19:42:08.030137	285.8	22.8	-80.9	0.0
2025-01-20 19:42:09.153607	286.1	22.8	-80.0	0.0
2025-01-20 19:42:10.278690	286.4	22.7	-79.6	0.0
2025-01-20 19:42:11.399681	286.7	22.7	-79.8	0.0
2025-01-20 19:42:12.522243	287.0	22.6	-79.8	0.0
2025-01-20 19:42:13.644780	287.3	22.6	-79.5	0.0
2025-01-20 19:42:14.768756	287.6	22.5	-79.3	0.0
2025-01-20 19:42:15.892327	287.8	22.5	-79.0	0.0
2025-01-20 19:42:17.016034	288.1	22.5	-79.5	0.0
2025-01-20 19:42:18.140587	288.4	22.4	-79.3	0.0
2025-01-20 19:42:19.264053	288.7	22.4	-79.6	0.0
2025-01-20 19:42:20.386459	289.0	22.3	-79.3	0.0
2025-01-20 19:42:21.510460	289.3	22.3	-79.1	0.0
2025-01-20 19:42:22.632162	289.6	22.2	-78.5	0.0
2025-01-20 19:42:23.754406	289.8	22.2	-78.1	0.0
2025-01-20 19:42:24.876980	290.1	22.1	-78.3	0.0
2025-01-20 19:42:26.001936	290.4	22.0	-78.2	0.0
2025-01-20 19:42:27.125485	290.7	22.0	-80.2	0.0
2025-01-20 19:42:28.249344	291.0	21.9	-79.5	0.0
2025-01-20 19:42:29.372552	291.2	21.9	-79.3	0.0
2025-01-20 19:42:30.496049	291.5	21.8	-79.3	0.0
2025-01-20 19:42:31.616712	291.8	21.8	-79.0	0.0
2025-01-20 19:42:32.739886	292.1	21.7	-80.0	0.0
2025-01-20 19:42:33.862481	292.3	21.7	-78.8	0.0
2025-01-20 19:42:34.987459	292.6	21.6	-78.7	0.0
2025-01-20 19:42:36.108398	292.9	21.6	-78.0	0.0
2025-01-20 19:42:37.233473	293.1	21.5	-78.4	0.0
2025-01-20 19:42:38.355116	293.4	21.4	-79.5	0.0
2025-01-20 19:42:39.478481	293.7	21.4	-78.1	0.0
2025-01-20 19:42:40.602416	293.9	21.3	-78.3	0.0
2025-01-20 19:42:41.725805	294.2	21.3	-79.7	0.0
2025-01-20 19:42:42.849105	294.5	21.2	-79.9	0.0
2025-01-20 19:42:43.972358	294.7	21.1	-79.5	0.0
2025-01-20 19:42:45.095547	295.0	21.1	-78.2	0.0
2025-01-20 19:42:46.219107	295.3	21.0	-78.9	0.0
2025-01-20 19:42:47.341771	295.5	21.0	-78.8	0.0
2025-01-20 19:42:48.464411	295.8	20.9	-78.5	0.0
2025-01-20 19:42:49.585495	296.0	20.8	-78.6	0.0
2025-01-20 19:42:50.710212	296.3	20.8	-78.4	0.0
2025-01-20 19:42:51.835758	296.6	20.7	-78.3	0.0
2025-01-20 19:42:52.957395	296.8	20.6	-79.0	0.0
2025-01-20 19:42:54.084373	297.1	20.6	-78.6	0.0
2025-01-20 19:42:55.209226	297.3	20.5	-77.6	0.0
2025-01-20 19:42:56.332866	297.6	20.4	-78.3	0.0
2025-01-20 19:42:57.456229	297.8	20.4	-78.2	0.0
2025-01-20 19:42:58.579167	298.1	20.3	-77.9	0.0
2025-01-20 19:42:59.701690	298.3	20.2	-77.1	0.0
2025-01-20 19:43:00.827773	298.6	20.2	-78.2	0.0
2025-01-20 19:43:01.951041	298.8	20.1	-78.3	0.0
2025-01-20 19:43:03.073506	299.1	20.0	-78.1	0.0
2025-01-20 19:43:04.197805	299.3	20.0	-77.2	0.0
2025-01-20 19:43:05.320211	299.6	19.9	-78.6	0.0
2025-01-20 19:43:06.443410	299.8	19.8	-78.2	0.0
2025-01-20 19:43:07.569239	300.0	19.8	-78.3	0.0
2025-01-20 19:43:08.693831	300.3	19.7	-77.3	0.0
2025-01-20 19:43:09.817183	300.5	19.6	-77.1	0.0
2025-01-20 19:43:10.940326	300.8	19.6	-77.8	0.0
2025-01-20 19:43:12.062260	301.0	19.5	-77.3	0.0
2025-01-20 19:43:13.184325	301.2	19.4	-76.6	0.0
2025-01-20 19:43:14.306288	301.5	19.3	-78.4	0.0
2025-01-20 19:43:15.429910	301.7	19.3	-78.3	0.0
2025-01-20 19:43:16.556544	301.9	19.2	-76.4	0.0
2025-01-20 19:43:17.681263	302.2	19.1	-77.4	0.0
2025-01-20 19:43:18.803576	302.4	19.1	-76.6	0.0
2025-01-20 19:43:19.926243	302.6	19.0	-76.5	0.0
2025-01-20 19:43:21.048911	302.9	18.9	-76.2	0.0
2025-01-20 19:43:22.173294	303.1	18.8	-77.9	0.0
2025-01-20 19:43:23.296897	303.3	18.8	-77.9	0.0
2025-01-20 19:43:24.423564	303.5	18.7	-78.3	0.0
2025-01-20 19:43:25.548379	303.8	18.6	-78.6	0.0
2025-01-20 19:43:26.669635	304.0	18.6	-77.9	0.0
2025-01-20 19:43:27.792230	304.2	18.5	-78.2	0.0
2025-01-20 19:43:28.917214	304.4	18.4	-78.3	0.0
2025-01-20 19:43:30.042434	304.7	18.3	-77.1	0.0
2025-01-20 19:43:31.165822	304.9	18.3	-78.7	0.0
2025-01-20 19:43:32.289097	305.1	18.2	-79.1	0.0
2025-01-20 19:43:33.411800	305.3	18.1	-79.1	0.0
2025-01-20 19:43:34.532946	305.5	18.0	-78.9	0.0
2025-01-20 19:43:35.652435	305.7	18.0	-79.3	0.0
2025-01-20 19:43:36.775294	306.0	17.9	-78.8	0.0
2025-01-20 19:43:37.898272	306.2	17.8	-80.1	0.0
2025-01-20 19:43:39.021170	306.4	17.7	-79.1	0.0
2025-01-20 19:43:40.145398	306.6	17.7	-79.2	0.0
2025-01-20 19:43:41.267246	306.8	17.6	-79.5	0.0
2025-01-20 19:43:42.392921	307.0	17.5	-78.3	0.0
2025-01-20 19:43:43.515592	307.2	17.4	-78.1	0.0
2025-01-20 19:43:44.640194	307.4	17.4	-79.1	0.0
2025-01-20 19:43:45.762176	307.6	17.3	-78.4	0.0
2025-01-20 19:43:46.884899	307.8	17.2	-78.8	0.0
2025-01-20 19:43:48.008926	308.1	17.1	-79.6	0.0
2025-01-20 19:43:49.135375	308.3	17.1	-78.6	0.0
2025-01-20 19:43:50.257445	308.5	17.0	-79.1	0.0
2025-01-20 19:43:51.382639	308.7	16.9	-79.7	0.0
2025-01-20 19:43:52.504149	308.9	16.8	-79.6	0.0
2025-01-20 19:43:53.626290	309.1	16.7	-77.6	0.0
2025-01-20 19:43:54.749266	309.3	16.7	-79.6	0.0
2025-01-20 19:43:55.872124	309.5	16.6	-77.3	0.0
2025-01-20 19:43:56.996231	309.7	16.5	-78.4	0.0
2025-01-20 19:43:58.117234	309.8	16.4	-77.3	0.0
2025-01-20 19:43:59.240862	310.0	16.4	-77.5	0.0
2025-01-20 19:44:00.363534	310.2	16.3	-78.2	0.0
2025-01-20 19:44:01.487450	310.4	16.2	-78.2	0.0
2025-01-20 19:44:02.609506	310.6	16.1	-77.6	0.0
2025-01-20 19:44:03.734396	310.8	16.1	-75.6	0.0
2025-01-20 19:44:04.859857	311.0	16.0	-78.1	0.0
2025-01-20 19:44:05.981313	311.2	15.9	-77.1	0.0
2025-01-20 19:44:07.104107	311.4	15.8	-77.1	0.0
2025-01-20 19:44:08.228655	311.6	15.7	-77.5	0.0
2025-01-20 19:44:09.350193	311.7	15.7	-78.4	0.0
2025-01-20 19:44:10.472301	311.9	15.6	-77.3	0.0
2025-01-20 19:44:11.595204	312.1	15.5	-77.6	0.0
2025-01-20 19:44:12.716971	312.3	15.4	-73.5	0.0
2025-01-20 19:44:13.837379	312.5	15.4	-77.8	0.0
2025-01-20 19:44:14.961482	312.7	15.3	-74.8	0.0
2025-01-20 19:44:16.083602	312.8	15.2	-76.8	0.0
2025-01-20 19:44:17.208373	313.0	15.1	-76.7	0.0
2025-01-20 19:44:18.333417	313.2	15.0	-76.8	0.0
2025-01-20 19:44:19.456134	313.4	15.0	-77.4	0.0
2025-01-20 19:44:20.579318	313.6	14.9	-76.1	0.0
2025-01-20 19:44:21.705557	313.7	14.8	-77.1	0.0
2025-01-20 19:44:22.830490	313.9	14.7	-76.5	0.0
2025-01-20 19:44:23.951553	314.1	14.7	-75.9	0.0
2025-01-20 19:44:25.073073	314.3	14.6	-76.4	0.0
2025-01-20 19:44:26.196480	314.4	14.5	-76.2	0.0
2025-01-20 19:44:27.319163	314.6	14.4	-77.4	0.0
2025-01-20 19:44:28.441102	314.8	14.3	-76.4	0.0
2025-01-20 19:44:29.563908	314.9	14.3	-76.7	0.0
2025-01-20 19:44:30.689245	315.1	14.2	-76.5	0.0
2025-01-20 19:44:31.813441	315.3	14.1	-77.1	0.0
2025-01-20 19:44:32.936619	315.4	14.0	-77.3	0.0
2025-01-20 19:44:34.059872	315.6	14.0	-76.3	0.0
2025-01-20 19:44:35.181654	315.8	13.9	-74.6	0.0
2025-01-20 19:44:36.305442	315.9	13.8	-75.6	0.0
2025-01-20 19:44:37.429900	316.1	13.7	-77.6	0.0
2025-01-20 19:44:38.553398	316.3	13.6	-77.6	0.0
2025-01-20 19:44:39.677084	316.4	13.6	-76.8	0.0
2025-01-20 19:44:40.797951	316.6	13.5	-78.1	0.0
2025-01-20 19:44:41.919240	316.7	13.4	-73.9	0.0
2025-01-20 19:44:43.040444	316.9	13.3	-77.1	0.0
2025-01-20 19:44:44.162781	317.1	13.3	-78.2	0.0
2025-01-20 19:44:45.284856	317.2	13.2	-78.0	0.0
2025-01-20 19:44:46.408957	317.4	13.1	-77.6	0.0
2025-01-20 19:44:47.530358	317.5	13.0	-77.6	0.0
2025-01-20 19:44:48.653016	317.7	13.0	-77.1	0.0
2025-01-20 19:44:49.776431	317.8	12.9	-77.8	0.0
2025-01-20 19:44:50.899828	318.0	12.8	-78.2	0.0
2025-01-20 19:44:52.024680	318.2	12.7	-75.5	0.0
2025-01-20 19:44:53.146697	318.3	12.6	-77.5	0.0
2025-01-20 19:44:54.271002	318.5	12.6	-77.5	0.0
2025-01-20 19:44:55.393050	318.6	12.5	-77.4	0.0
2025-01-20 19:44:56.518172	318.8	12.4	-77.8	0.0
2025-01-20 19:44:57.638850	318.9	12.3	-78.0	0.0
2025-01-20 19:44:58.762112	319.1	12.3	-73.1	0.0
2025-01-20 19:44:59.884180	319.2	12.2	-77.5	0.0
2025-01-20 19:45:01.009393	319.4	12.1	-77.9	0.0
2025-01-20 19:45:02.133964	319.5	12.0	-78.5	0.0
2025-01-20 19:45:03.257918	319.6	12.0	-78.4	0.0
2025-01-20 19:45:04.379851	319.8	11.9	-77.6	0.0
2025-01-20 19:45:05.501738	319.9	11.8	-79.0	0.0
2025-01-20 19:45:06.624393	320.1	11.7	-74.2	0.0
2025-01-20 19:45:07.747226	320.2	11.7	-79.3	0.0
2025-01-20 19:45:08.868707	320.4	11.6	-79.3	0.0
2025-01-20 19:45:09.993075	320.5	11.5	-78.8	0.0
2025-01-20 19:45:11.117336	320.7	11.4	-79.0	0.0
2025-01-20 19:45:12.239403	320.8	11.4	-77.7	0.0
2025-01-20 19:45:13.364269	320.9	11.3	-78.7	0.0
2025-01-20 19:45:14.488372	321.1	11.2	-78.3	0.0
2025-01-20 19:45:15.612286	321.2	11.1	-78.6	0.0
2025-01-20 19:45:16.735338	321.3	11.1	-78.2	0.0
2025-01-20 19:45:17.859326	321.5	11.0	-70.4	0.0
2025-01-20 19:45:18.981372	321.6	10.9	-79.2	0.0
2025-01-20 19:45:20.103067	321.8	10.8	-80.7	0.0
2025-01-20 19:45:21.225402	321.9	10.8	-80.4	0.0
2025-01-20 19:45:22.346957	322.0	10.7	-81.1	0.0
2025-01-20 19:45:23.469301	322.2	10.6	-81.6	0.0
2025-01-20 19:45:24.593177	322.3	10.5	-82.0	0.0
2025-01-20 19:45:25.715784	322.4	10.5	-82.3	0.0
2025-01-20 19:45:26.836567	322.6	10.4	-82.5	0.0
2025-01-20 19:45:27.962496	322.7	10.3	-82.5	0.0
2025-01-20 19:45:29.086224	322.8	10.2	-82.0	0.0
2025-01-20 19:45:30.210267	322.9	10.2	-82.0	0.0
2025-01-20 19:45:31.333905	323.1	10.1	-82.2	0.0
#Closed at: 2025-01-20 19:36:44.091764