passes_logs/2025/01/20/planumMaritime01/planumMaritime01__20250120_113933_METEOR-M2_2_rec.log

#Pass ID: 20250120_113933_METEOR-M2 2
#Satellite: METEOR-M2 2
#Configuration: METEOR-M2 2
#Start time: 2025-01-20 11:39:38.416212

#LorettStation: 1.0.0 05.05.2024
#Station: planumMaritime01
#Location: 37.49445 lon 55.92918 lat
#TLE: 1 44387U 19038A   25019.21327867  .00000321  00000+0  15932-3 0  9998
#TLE: 2 44387  98.8573 355.6430 0002257  72.4885 287.6540 14.24119873288138

#Time	Az	El	Level	SNR
2025-01-20 11:39:40.582016	137.4	10.2	-76.5	0.0
2025-01-20 11:39:41.705449	137.4	10.3	-74.8	0.0
2025-01-20 11:39:42.825630	137.3	10.4	-74.5	0.0
2025-01-20 11:39:43.949266	137.3	10.5	-76.5	0.0
2025-01-20 11:39:45.073702	137.2	10.6	-76.2	0.0
2025-01-20 11:39:46.197979	137.2	10.7	-75.2	0.0
2025-01-20 11:39:47.321026	137.1	10.8	-75.8	0.0
2025-01-20 11:39:48.444138	137.1	10.9	-74.5	0.0
2025-01-20 11:39:49.566714	137.0	11.0	-75.7	0.0
2025-01-20 11:39:50.690286	136.9	11.1	-75.5	0.0
2025-01-20 11:39:51.812654	136.9	11.2	-75.9	0.0
2025-01-20 11:39:52.936663	136.8	11.3	-74.6	0.0
2025-01-20 11:39:54.059094	136.8	11.4	-72.4	0.0
2025-01-20 11:39:55.181612	136.7	11.5	-74.5	0.0
2025-01-20 11:39:56.305205	136.6	11.6	-76.0	0.0
2025-01-20 11:39:57.428870	136.6	11.7	-75.8	0.0
2025-01-20 11:39:58.551049	136.5	11.8	-75.9	0.0
2025-01-20 11:39:59.672900	136.5	11.9	-75.8	0.0
2025-01-20 11:40:00.795558	136.4	12.0	-75.8	0.0
2025-01-20 11:40:01.918224	136.3	12.1	-75.4	0.0
2025-01-20 11:40:03.041285	136.3	12.2	-75.8	0.0
2025-01-20 11:40:04.165465	136.2	12.3	-75.8	0.0
2025-01-20 11:40:05.288037	136.2	12.4	-75.2	0.0
2025-01-20 11:40:06.410954	136.1	12.5	-75.3	0.0
2025-01-20 11:40:07.534830	136.0	12.6	-75.9	0.0
2025-01-20 11:40:08.658635	136.0	12.7	-76.8	0.0
2025-01-20 11:40:09.780228	135.9	12.8	-75.7	0.0
2025-01-20 11:40:10.903005	135.8	12.9	-76.3	0.0
2025-01-20 11:40:12.027217	135.8	13.0	-75.5	0.0
2025-01-20 11:40:13.150678	135.7	13.1	-76.9	0.0
2025-01-20 11:40:14.274275	135.6	13.2	-76.7	0.0
2025-01-20 11:40:15.395706	135.6	13.3	-75.4	0.0
2025-01-20 11:40:16.519111	135.5	13.5	-75.6	0.0
2025-01-20 11:40:17.639650	135.4	13.6	-76.2	0.0
2025-01-20 11:40:18.761896	135.4	13.7	-76.8	0.0
2025-01-20 11:40:19.884923	135.3	13.8	-77.1	0.0
2025-01-20 11:40:21.009838	135.2	13.9	-77.8	0.0
2025-01-20 11:40:22.135390	135.1	14.0	-77.1	0.0
2025-01-20 11:40:23.258605	135.1	14.1	-77.8	0.0
2025-01-20 11:40:24.379315	135.0	14.2	-77.1	0.0
2025-01-20 11:40:25.502370	134.9	14.3	-77.4	0.0
2025-01-20 11:40:26.625845	134.9	14.5	-76.9	0.0
2025-01-20 11:40:27.748652	134.8	14.6	-77.6	0.0
2025-01-20 11:40:28.871706	134.7	14.7	-78.1	0.0
2025-01-20 11:40:29.993292	134.6	14.8	-78.5	0.0
2025-01-20 11:40:31.117213	134.6	14.9	-77.3	0.0
2025-01-20 11:40:32.240100	134.5	15.0	-77.5	0.0
2025-01-20 11:40:33.364208	134.4	15.1	-78.2	0.0
2025-01-20 11:40:34.486952	134.3	15.3	-77.9	0.0
2025-01-20 11:40:35.609394	134.2	15.4	-77.7	0.0
2025-01-20 11:40:36.732084	134.2	15.5	-75.8	0.0
2025-01-20 11:40:37.853069	134.1	15.6	-77.4	0.0
2025-01-20 11:40:38.979038	134.0	15.7	-77.8	0.0
2025-01-20 11:40:40.101494	133.9	15.9	-78.4	0.0
2025-01-20 11:40:41.224285	133.8	16.0	-77.1	0.0
2025-01-20 11:40:42.346953	133.8	16.1	-76.6	0.0
2025-01-20 11:40:43.469863	133.7	16.2	-76.9	0.0
2025-01-20 11:40:44.592243	133.6	16.3	-76.8	0.0
2025-01-20 11:40:45.715098	133.5	16.5	-76.6	0.0
2025-01-20 11:40:46.839248	133.4	16.6	-76.8	0.0
2025-01-20 11:40:47.962816	133.3	16.7	-77.5	0.0
2025-01-20 11:40:49.084069	133.3	16.8	-77.1	0.0
2025-01-20 11:40:50.206142	133.2	16.9	-78.2	0.0
2025-01-20 11:40:51.327227	133.1	17.1	-77.3	0.0
2025-01-20 11:40:52.452002	133.0	17.2	-76.9	0.0
2025-01-20 11:40:53.575381	132.9	17.3	-76.7	0.0
2025-01-20 11:40:54.700322	132.8	17.4	-77.7	0.0
2025-01-20 11:40:55.823186	132.7	17.6	-76.5	0.0
2025-01-20 11:40:56.946325	132.6	17.7	-77.2	0.0
2025-01-20 11:40:58.070601	132.5	17.8	-77.5	0.0
2025-01-20 11:40:59.193622	132.4	18.0	-77.1	0.0
2025-01-20 11:41:00.315813	132.3	18.1	-77.1	0.0
2025-01-20 11:41:01.439029	132.2	18.2	-76.4	0.0
2025-01-20 11:41:02.560590	132.2	18.3	-76.4	0.0
2025-01-20 11:41:03.684414	132.1	18.5	-77.1	0.0
2025-01-20 11:41:04.809218	132.0	18.6	-76.8	0.0
2025-01-20 11:41:05.931085	131.9	18.7	-77.4	0.0
2025-01-20 11:41:07.056140	131.8	18.9	-76.4	0.0
2025-01-20 11:41:08.183550	131.7	19.0	-75.8	0.0
2025-01-20 11:41:09.306762	131.6	19.1	-76.2	0.0
2025-01-20 11:41:10.428970	131.5	19.3	-76.6	0.0
2025-01-20 11:41:11.554131	131.4	19.4	-76.2	0.0
2025-01-20 11:41:12.678376	131.2	19.6	-76.7	0.0
2025-01-20 11:41:13.799264	131.1	19.7	-76.6	0.0
2025-01-20 11:41:14.921292	131.0	19.8	-76.1	0.0
2025-01-20 11:41:16.043155	130.9	20.0	-77.2	0.0
2025-01-20 11:41:17.165033	130.8	20.1	-76.7	0.0
2025-01-20 11:41:18.285818	130.7	20.2	-76.0	0.0
2025-01-20 11:41:19.407836	130.6	20.4	-75.9	0.0
2025-01-20 11:41:20.529491	130.5	20.5	-76.9	0.0
2025-01-20 11:41:21.652649	130.4	20.7	-76.7	0.0
2025-01-20 11:41:22.774588	130.3	20.8	-75.9	0.0
2025-01-20 11:41:23.898734	130.2	20.9	-75.9	0.0
2025-01-20 11:41:25.022873	130.0	21.1	-75.3	0.0
2025-01-20 11:41:26.146538	129.9	21.2	-75.7	0.0
2025-01-20 11:41:27.270220	129.8	21.4	-76.4	0.0
2025-01-20 11:41:28.393694	129.7	21.5	-76.2	0.0
2025-01-20 11:41:29.517161	129.6	21.7	-77.5	0.0
2025-01-20 11:41:30.638278	129.4	21.8	-76.0	0.0
2025-01-20 11:41:31.762220	129.3	22.0	-76.3	0.0
2025-01-20 11:41:32.884969	129.2	22.1	-76.4	0.0
2025-01-20 11:41:34.006291	129.1	22.3	-76.9	0.0
2025-01-20 11:41:35.130680	128.9	22.4	-75.0	0.0
2025-01-20 11:41:36.254681	128.8	22.6	-76.3	0.0
2025-01-20 11:41:37.377874	128.7	22.7	-75.9	0.0
2025-01-20 11:41:38.499265	128.6	22.9	-76.7	0.0
2025-01-20 11:41:39.621583	128.4	23.0	-77.6	0.0
2025-01-20 11:41:40.744374	128.3	23.2	-75.4	0.0
2025-01-20 11:41:41.867429	128.2	23.3	-76.9	0.0
2025-01-20 11:41:42.991342	128.0	23.5	-76.7	0.0
2025-01-20 11:41:44.114491	127.9	23.6	-75.7	0.0
2025-01-20 11:41:45.242763	127.8	23.8	-76.1	0.0
2025-01-20 11:41:46.365842	127.6	24.0	-75.8	0.0
2025-01-20 11:41:47.488663	127.5	24.1	-76.7	0.0
2025-01-20 11:41:48.611052	127.3	24.3	-77.3	0.0
2025-01-20 11:41:49.734039	127.2	24.4	-75.5	0.0
2025-01-20 11:41:50.857022	127.0	24.6	-76.0	0.0
2025-01-20 11:41:51.981879	126.9	24.8	-75.9	0.0
2025-01-20 11:41:53.106178	126.7	24.9	-75.9	0.0
2025-01-20 11:41:54.228885	126.6	25.1	-77.2	0.0
2025-01-20 11:41:55.354545	126.4	25.2	-77.6	0.0
2025-01-20 11:41:56.476059	126.3	25.4	-78.1	0.0
2025-01-20 11:41:57.599170	126.1	25.6	-75.6	0.0
2025-01-20 11:41:58.723297	126.0	25.7	-75.8	0.0
2025-01-20 11:41:59.846503	125.8	25.9	-75.9	0.0
2025-01-20 11:42:00.971726	125.7	26.1	-76.4	0.0
2025-01-20 11:42:02.093006	125.5	26.2	-76.5	0.0
2025-01-20 11:42:03.216938	125.3	26.4	-76.1	0.0
2025-01-20 11:42:04.342186	125.2	26.6	-77.4	0.0
2025-01-20 11:42:05.466200	125.0	26.8	-77.1	0.0
2025-01-20 11:42:06.589940	124.8	26.9	-76.0	0.0
2025-01-20 11:42:07.714662	124.7	27.1	-75.9	0.0
2025-01-20 11:42:08.836829	124.5	27.3	-77.9	0.0
2025-01-20 11:42:09.959656	124.3	27.5	-76.8	0.0
2025-01-20 11:42:11.082460	124.1	27.6	-76.8	0.0
2025-01-20 11:42:12.205667	124.0	27.8	-76.4	0.0
2025-01-20 11:42:13.326139	123.8	28.0	-76.9	0.0
2025-01-20 11:42:14.450320	123.6	28.2	-76.3	0.0
2025-01-20 11:42:15.574919	123.4	28.3	-75.3	0.0
2025-01-20 11:42:16.696333	123.2	28.5	-76.6	0.0
2025-01-20 11:42:17.821480	123.0	28.7	-74.7	0.0
2025-01-20 11:42:18.943239	122.8	28.9	-74.9	0.0
2025-01-20 11:42:20.066180	122.7	29.1	-74.3	0.0
2025-01-20 11:42:21.188238	122.5	29.2	-73.9	0.0
2025-01-20 11:42:22.312362	122.3	29.4	-73.8	0.0
2025-01-20 11:42:23.435282	122.1	29.6	-73.9	0.0
2025-01-20 11:42:24.559949	121.9	29.8	-75.0	0.0
2025-01-20 11:42:25.682271	121.7	30.0	-75.5	0.0
2025-01-20 11:42:26.804361	121.4	30.2	-74.7	0.0
2025-01-20 11:42:27.926312	121.2	30.4	-74.9	0.0
2025-01-20 11:42:29.046457	121.0	30.5	-74.1	0.0
2025-01-20 11:42:30.169279	120.8	30.7	-74.8	0.0
2025-01-20 11:42:31.295543	120.6	30.9	-75.3	0.0
2025-01-20 11:42:32.417998	120.4	31.1	-73.4	0.0
2025-01-20 11:42:33.541470	120.2	31.3	-75.5	0.0
2025-01-20 11:42:34.663491	119.9	31.5	-76.3	0.0
2025-01-20 11:42:35.788536	119.7	31.7	-73.4	0.0
2025-01-20 11:42:36.913745	119.5	31.9	-75.2	0.0
2025-01-20 11:42:38.037754	119.2	32.1	-75.3	0.0
2025-01-20 11:42:39.162306	119.0	32.3	-72.9	0.0
2025-01-20 11:42:40.286392	118.8	32.5	-74.2	0.0
2025-01-20 11:42:41.412587	118.5	32.7	-73.1	0.0
2025-01-20 11:42:42.536862	118.3	32.9	-73.3	0.0
2025-01-20 11:42:43.657579	118.0	33.1	-73.6	0.0
2025-01-20 11:42:44.783482	117.8	33.3	-72.7	0.0
2025-01-20 11:42:45.907305	117.5	33.5	-73.1	0.0
2025-01-20 11:42:47.030953	117.3	33.7	-74.6	0.0
2025-01-20 11:42:48.153451	117.0	33.9	-74.3	0.0
2025-01-20 11:42:49.276167	116.7	34.1	-73.5	0.0
2025-01-20 11:42:50.400260	116.5	34.3	-74.6	0.0
2025-01-20 11:42:51.523810	116.2	34.5	-72.0	0.0
2025-01-20 11:42:52.646523	115.9	34.7	-74.2	0.0
2025-01-20 11:42:53.769273	115.6	34.9	-74.2	0.0
2025-01-20 11:42:54.890483	115.4	35.1	-72.0	0.0
2025-01-20 11:42:56.014958	115.1	35.3	-72.4	0.0
2025-01-20 11:42:57.140697	114.8	35.5	-71.7	0.0
2025-01-20 11:42:58.263292	114.5	35.7	-70.5	0.0
2025-01-20 11:42:59.387848	114.2	35.9	-70.8	0.0
2025-01-20 11:43:00.511403	113.9	36.1	-71.9	0.0
2025-01-20 11:43:01.636992	113.6	36.3	-70.2	0.0
2025-01-20 11:43:02.759760	113.3	36.5	-71.9	0.0
2025-01-20 11:43:03.883675	113.0	36.7	-71.4	0.0
2025-01-20 11:43:05.005738	112.7	36.9	-70.1	0.0
2025-01-20 11:43:06.128078	112.3	37.2	-71.1	0.0
2025-01-20 11:43:07.249126	112.0	37.4	-71.9	0.0
2025-01-20 11:43:08.372653	111.7	37.6	-72.1	0.0
2025-01-20 11:43:09.494513	111.4	37.8	-70.6	0.0
2025-01-20 11:43:10.617343	111.0	38.0	-71.1	0.0
2025-01-20 11:43:11.740237	110.7	38.2	-71.2	0.0
2025-01-20 11:43:12.865620	110.3	38.4	-70.9	0.0
2025-01-20 11:43:13.988008	110.0	38.6	-71.3	0.0
2025-01-20 11:43:15.109299	109.6	38.8	-71.5	0.0
2025-01-20 11:43:16.232570	109.3	39.0	-71.0	0.0
2025-01-20 11:43:17.358123	108.9	39.3	-71.0	0.0
2025-01-20 11:43:18.481603	108.5	39.5	-71.1	0.0
2025-01-20 11:43:19.607351	108.2	39.7	-70.9	0.0
2025-01-20 11:43:20.727778	107.8	39.9	-71.8	0.0
2025-01-20 11:43:21.852359	107.4	40.1	-72.0	0.0
2025-01-20 11:43:22.975566	107.0	40.3	-71.3	0.0
2025-01-20 11:43:24.097583	106.6	40.5	-72.5	0.0
2025-01-20 11:43:25.219125	106.2	40.7	-72.5	0.0
2025-01-20 11:43:26.341427	105.8	40.9	-72.7	0.0
2025-01-20 11:43:27.463847	105.4	41.1	-71.1	0.0
2025-01-20 11:43:28.587785	105.0	41.4	-71.6	0.0
2025-01-20 11:43:29.712489	104.6	41.6	-72.3	0.0
2025-01-20 11:43:30.836357	104.1	41.8	-73.1	0.0
2025-01-20 11:43:31.961323	103.7	42.0	-73.1	0.0
2025-01-20 11:43:33.085040	103.3	42.2	-73.0	0.0
2025-01-20 11:43:34.207042	102.8	42.4	-72.7	0.0
2025-01-20 11:43:35.328791	102.4	42.6	-73.6	0.0
2025-01-20 11:43:36.452359	101.9	42.8	-74.7	0.0
2025-01-20 11:43:37.574182	101.5	43.0	-72.5	0.0
2025-01-20 11:43:38.698226	101.0	43.2	-73.5	0.0
2025-01-20 11:43:39.821213	100.5	43.4	-73.0	0.0
2025-01-20 11:43:40.944227	100.1	43.6	-75.0	0.0
2025-01-20 11:43:42.066185	99.6	43.8	-74.2	0.0
2025-01-20 11:43:43.187366	99.1	44.0	-74.2	0.0
2025-01-20 11:43:44.311702	98.6	44.2	-75.2	0.0
2025-01-20 11:43:45.435727	98.1	44.4	-75.6	0.0
2025-01-20 11:43:46.557460	97.6	44.6	-75.1	0.0
2025-01-20 11:43:47.681675	97.1	44.8	-75.0	0.0
2025-01-20 11:43:48.804716	96.6	44.9	-75.6	0.0
2025-01-20 11:43:49.926880	96.0	45.1	-74.7	0.0
2025-01-20 11:43:51.049695	95.5	45.3	-76.6	0.0
2025-01-20 11:43:52.174911	95.0	45.5	-75.5	0.0
2025-01-20 11:43:53.297356	94.4	45.7	-75.4	0.0
2025-01-20 11:43:54.419468	93.9	45.9	-77.7	0.0
2025-01-20 11:43:55.543247	93.3	46.0	-76.2	0.0
2025-01-20 11:43:56.664791	92.7	46.2	-78.9	0.0
2025-01-20 11:43:57.788254	92.2	46.4	-77.5	0.0
2025-01-20 11:43:58.911542	91.6	46.5	-77.5	0.0
2025-01-20 11:44:00.034298	91.0	46.7	-76.3	0.0
2025-01-20 11:44:01.156164	90.4	46.9	-75.7	0.0
2025-01-20 11:44:02.277130	89.8	47.0	-75.6	0.0
2025-01-20 11:44:03.398150	89.2	47.2	-76.7	0.0
2025-01-20 11:44:04.520099	88.6	47.4	-76.4	0.0
2025-01-20 11:44:05.641089	88.0	47.5	-76.0	0.0
2025-01-20 11:44:06.765148	87.4	47.7	-75.1	0.0
2025-01-20 11:44:07.889216	86.8	47.8	-76.2	0.0
2025-01-20 11:44:09.010380	86.1	47.9	-75.5	0.0
2025-01-20 11:44:10.131997	85.5	48.1	-76.7	0.0
2025-01-20 11:44:11.255528	84.9	48.2	-76.3	0.0
2025-01-20 11:44:12.380727	84.2	48.4	-74.2	0.0
2025-01-20 11:44:13.504999	83.6	48.5	-75.4	0.0
2025-01-20 11:44:14.628861	82.9	48.6	-75.7	0.0
2025-01-20 11:44:15.755129	82.2	48.7	-74.7	0.0
2025-01-20 11:44:16.878441	81.6	48.9	-76.5	0.0
2025-01-20 11:44:17.999137	80.9	49.0	-76.3	0.0
2025-01-20 11:44:19.121999	80.2	49.1	-76.9	0.0
2025-01-20 11:44:20.246120	79.5	49.2	-75.5	0.0
2025-01-20 11:44:21.367984	78.8	49.3	-75.8	0.0
2025-01-20 11:44:22.490655	78.2	49.4	-77.1	0.0
2025-01-20 11:44:23.614106	77.5	49.5	-76.3	0.0
2025-01-20 11:44:24.735176	76.8	49.6	-76.0	0.0
2025-01-20 11:44:25.859428	76.0	49.7	-75.1	0.0
2025-01-20 11:44:26.983348	75.3	49.7	-76.0	0.0
2025-01-20 11:44:28.107432	74.6	49.8	-75.6	0.0
2025-01-20 11:44:29.229650	73.9	49.9	-75.1	0.0
2025-01-20 11:44:30.350771	73.2	49.9	-75.8	0.0
2025-01-20 11:44:31.474556	72.5	50.0	-75.1	0.0
2025-01-20 11:44:32.596609	71.7	50.1	-75.9	0.0
2025-01-20 11:44:33.719644	71.0	50.1	-75.7	0.0
2025-01-20 11:44:34.842423	70.3	50.2	-75.6	0.0
2025-01-20 11:44:35.963611	69.6	50.2	-75.1	0.0
2025-01-20 11:44:37.087445	68.8	50.2	-76.1	0.0
2025-01-20 11:44:38.208778	68.1	50.3	-77.0	0.0
2025-01-20 11:44:39.330593	67.3	50.3	-76.5	0.0
2025-01-20 11:44:40.455572	66.6	50.3	-76.3	0.0
2025-01-20 11:44:41.578633	65.9	50.3	-76.0	0.0
2025-01-20 11:44:42.700763	65.1	50.4	-76.4	0.0
2025-01-20 11:44:43.824261	64.4	50.4	-76.6	0.0
2025-01-20 11:44:44.947312	63.6	50.4	-76.3	0.0
2025-01-20 11:44:46.069773	62.9	50.4	-76.9	0.0
2025-01-20 11:44:47.193130	62.2	50.4	-76.2	0.0
2025-01-20 11:44:48.316542	61.4	50.3	-76.8	0.0
2025-01-20 11:44:49.441059	60.7	50.3	-77.9	0.0
2025-01-20 11:44:50.563208	59.9	50.3	-77.4	0.0
2025-01-20 11:44:51.686596	59.2	50.3	-76.9	0.0
2025-01-20 11:44:52.808747	58.5	50.2	-77.2	0.0
2025-01-20 11:44:53.934679	57.7	50.2	-76.7	0.0
2025-01-20 11:44:55.058543	57.0	50.2	-77.4	0.0
2025-01-20 11:44:56.182022	56.3	50.1	-78.6	0.0
2025-01-20 11:44:57.303774	55.5	50.1	-78.2	0.0
2025-01-20 11:44:58.426552	54.8	50.0	-77.4	0.0
2025-01-20 11:44:59.549169	54.1	49.9	-77.8	0.0
2025-01-20 11:45:00.673430	53.4	49.9	-78.1	0.0
2025-01-20 11:45:01.799024	52.7	49.8	-78.7	0.0
2025-01-20 11:45:02.922913	52.0	49.7	-78.6	0.0
2025-01-20 11:45:04.044302	51.2	49.6	-77.7	0.0
2025-01-20 11:45:05.167428	50.5	49.5	-77.2	0.0
2025-01-20 11:45:06.289312	49.8	49.5	-78.6	0.0
2025-01-20 11:45:07.414188	49.1	49.4	-78.2	0.0
2025-01-20 11:45:08.539606	48.5	49.3	-77.0	0.0
2025-01-20 11:45:09.660300	47.8	49.2	-78.0	0.0
2025-01-20 11:45:10.784068	47.1	49.1	-77.9	0.0
2025-01-20 11:45:11.906246	46.4	48.9	-78.1	0.0
2025-01-20 11:45:13.033472	45.7	48.8	-76.8	0.0
2025-01-20 11:45:14.156393	45.1	48.7	-76.5	0.0
2025-01-20 11:45:15.280976	44.4	48.6	-78.7	0.0
2025-01-20 11:45:16.405295	43.7	48.5	-77.7	0.0
2025-01-20 11:45:17.528608	43.1	48.3	-79.7	0.0
2025-01-20 11:45:18.652898	42.5	48.2	-78.5	0.0
2025-01-20 11:45:19.776406	41.8	48.1	-78.7	0.0
2025-01-20 11:45:20.898264	41.2	47.9	-78.2	0.0
2025-01-20 11:45:22.021366	40.6	47.8	-77.6	0.0
2025-01-20 11:45:23.146324	39.9	47.6	-73.7	0.0
2025-01-20 11:45:24.268893	39.3	47.5	-72.1	0.0
2025-01-20 11:45:25.391832	38.7	47.3	-72.9	0.0
2025-01-20 11:45:26.513030	38.1	47.2	-72.9	0.0
2025-01-20 11:45:27.636402	37.5	47.0	-72.0	0.0
2025-01-20 11:45:28.761245	36.9	46.8	-72.9	0.0
2025-01-20 11:45:29.885131	36.3	46.7	-71.6	0.0
2025-01-20 11:45:31.008863	35.7	46.5	-72.5	0.0
2025-01-20 11:45:32.132575	35.2	46.3	-76.5	0.0
2025-01-20 11:45:33.255803	34.6	46.2	-76.7	0.0
2025-01-20 11:45:34.379586	34.0	46.0	-75.0	0.0
2025-01-20 11:45:35.502551	33.5	45.8	-75.7	0.0
2025-01-20 11:45:36.624046	32.9	45.6	-75.4	0.0
2025-01-20 11:45:37.744559	32.4	45.5	-74.1	0.0
2025-01-20 11:45:38.866815	31.9	45.3	-69.0	0.0
2025-01-20 11:45:39.989459	31.3	45.1	-68.4	0.0
2025-01-20 11:45:41.113027	30.8	44.9	-70.9	0.0
2025-01-20 11:45:42.235360	30.3	44.7	-72.4	0.0
2025-01-20 11:45:43.357339	29.8	44.5	-69.0	0.0
2025-01-20 11:45:44.480230	29.3	44.3	-69.4	0.0
2025-01-20 11:45:45.604862	28.8	44.1	-73.8	0.0
2025-01-20 11:45:46.727732	28.3	44.0	-73.9	0.0
2025-01-20 11:45:47.850117	27.8	43.8	-72.9	0.0
2025-01-20 11:45:48.974313	27.3	43.6	-69.3	0.0
2025-01-20 11:45:50.098841	26.9	43.4	-68.4	0.0
2025-01-20 11:45:51.221677	26.4	43.2	-70.9	0.0
2025-01-20 11:45:52.343685	25.9	43.0	-70.5	0.0
2025-01-20 11:45:53.468412	25.5	42.8	-69.3	0.0
2025-01-20 11:45:54.589751	25.0	42.6	-70.6	0.0
2025-01-20 11:45:55.711487	24.6	42.4	-66.7	0.0
2025-01-20 11:45:56.836377	24.1	42.1	-68.5	0.0
2025-01-20 11:45:57.957798	23.7	41.9	-67.0	0.0
2025-01-20 11:45:59.079916	23.3	41.7	-70.2	0.0
2025-01-20 11:46:00.202030	22.8	41.5	-68.9	0.0
2025-01-20 11:46:01.326442	22.4	41.3	-70.6	0.0
2025-01-20 11:46:02.451256	22.0	41.1	-71.8	0.0
2025-01-20 11:46:03.572439	21.6	40.9	-70.3	0.0
2025-01-20 11:46:04.696683	21.2	40.7	-70.0	0.0
2025-01-20 11:46:05.819300	20.8	40.5	-70.3	0.0
2025-01-20 11:46:06.942460	20.4	40.3	-72.0	0.0
2025-01-20 11:46:08.066109	20.0	40.1	-66.9	0.0
2025-01-20 11:46:09.190044	19.7	39.9	-66.8	0.0
2025-01-20 11:46:10.315325	19.3	39.7	-71.9	0.0
2025-01-20 11:46:11.438893	18.9	39.5	-67.1	0.0
2025-01-20 11:46:12.562077	18.5	39.2	-70.7	0.0
2025-01-20 11:46:13.685569	18.2	39.0	-67.9	0.0
2025-01-20 11:46:14.811380	17.8	38.8	-70.0	0.0
2025-01-20 11:46:15.936261	17.5	38.6	-69.1	0.0
2025-01-20 11:46:17.059867	17.1	38.4	-72.4	0.0
2025-01-20 11:46:18.184774	16.8	38.2	-71.9	0.0
2025-01-20 11:46:19.307428	16.4	38.0	-67.5	0.0
2025-01-20 11:46:20.429333	16.1	37.8	-67.2	0.0
2025-01-20 11:46:21.553563	15.8	37.6	-68.0	0.0
2025-01-20 11:46:22.675921	15.4	37.4	-67.6	0.0
2025-01-20 11:46:23.797829	15.1	37.2	-67.4	0.0
2025-01-20 11:46:24.919120	14.8	36.9	-73.5	0.0
2025-01-20 11:46:26.043616	14.5	36.7	-70.9	0.0
2025-01-20 11:46:27.168659	14.2	36.5	-67.0	0.0
2025-01-20 11:46:28.293585	13.9	36.3	-73.5	0.0
2025-01-20 11:46:29.416296	13.6	36.1	-67.0	0.0
2025-01-20 11:46:30.538426	13.3	35.9	-66.0	0.0
2025-01-20 11:46:31.659723	13.0	35.7	-73.4	0.0
2025-01-20 11:46:32.782942	12.7	35.5	-71.9	0.0
2025-01-20 11:46:33.907191	12.4	35.3	-72.1	0.0
2025-01-20 11:46:35.028881	12.1	35.1	-68.4	0.0
2025-01-20 11:46:36.152658	11.8	34.9	-65.1	0.0
2025-01-20 11:46:37.276680	11.6	34.7	-70.7	0.0
2025-01-20 11:46:38.400555	11.3	34.5	-66.3	0.0
2025-01-20 11:46:39.521808	11.0	34.3	-73.3	0.0
2025-01-20 11:46:40.644334	10.8	34.1	-64.1	0.0
2025-01-20 11:46:41.766959	10.5	33.9	-71.5	0.0
2025-01-20 11:46:42.889083	10.2	33.7	-72.8	0.0
2025-01-20 11:46:44.012645	10.0	33.5	-71.8	0.0
2025-01-20 11:46:45.136817	9.7	33.3	-71.8	0.0
2025-01-20 11:46:46.260099	9.5	33.1	-65.1	0.0
2025-01-20 11:46:47.384241	9.2	32.9	-66.2	0.0
2025-01-20 11:46:48.507446	9.0	32.7	-71.4	0.0
2025-01-20 11:46:49.631353	8.7	32.5	-72.3	0.0
2025-01-20 11:46:50.752946	8.5	32.3	-71.3	0.0
2025-01-20 11:46:51.876017	8.3	32.1	-73.0	0.0
2025-01-20 11:46:52.998059	8.0	31.9	-72.6	0.0
2025-01-20 11:46:54.122580	7.8	31.7	-70.1	0.0
2025-01-20 11:46:55.245418	7.6	31.5	-68.2	0.0
2025-01-20 11:46:56.367933	7.4	31.3	-72.3	0.0
2025-01-20 11:46:57.492405	7.1	31.1	-72.0	0.0
2025-01-20 11:46:58.615915	6.9	31.0	-71.7	0.0
2025-01-20 11:46:59.740708	6.7	30.8	-73.6	0.0
2025-01-20 11:47:00.861398	6.5	30.6	-72.5	0.0
2025-01-20 11:47:01.984158	6.3	30.4	-71.5	0.0
2025-01-20 11:47:03.107275	6.1	30.2	-68.4	0.0
2025-01-20 11:47:04.228887	5.9	30.0	-70.1	0.0
2025-01-20 11:47:05.350673	5.7	29.8	-65.0	0.0
2025-01-20 11:47:06.473359	5.5	29.6	-69.9	0.0
2025-01-20 11:47:07.595715	5.3	29.5	-70.5	0.0
2025-01-20 11:47:08.719373	5.1	29.3	-65.2	0.0
2025-01-20 11:47:09.840436	4.9	29.1	-68.9	0.0
2025-01-20 11:47:10.963174	4.7	28.9	-68.7	0.0
2025-01-20 11:47:12.086910	4.5	28.7	-71.4	0.0
2025-01-20 11:47:13.209493	4.3	28.6	-71.8	0.0
2025-01-20 11:47:14.332325	4.1	28.4	-66.6	0.0
2025-01-20 11:47:15.455256	3.9	28.2	-66.1	0.0
2025-01-20 11:47:16.577248	3.8	28.0	-66.1	0.0
2025-01-20 11:47:17.702301	3.6	27.8	-64.6	0.0
2025-01-20 11:47:18.823886	3.4	27.7	-66.9	0.0
2025-01-20 11:47:19.948324	3.2	27.5	-65.4	0.0
2025-01-20 11:47:21.072147	3.1	27.3	-65.8	0.0
2025-01-20 11:47:22.197132	2.9	27.2	-68.6	0.0
2025-01-20 11:47:23.320246	2.7	27.0	-68.1	0.0
2025-01-20 11:47:24.443869	2.5	26.8	-66.2	0.0
2025-01-20 11:47:25.568237	2.4	26.6	-71.3	0.0
2025-01-20 11:47:26.692105	2.2	26.5	-69.6	0.0
2025-01-20 11:47:27.817146	2.1	26.3	-71.3	0.0
2025-01-20 11:47:28.942243	1.9	26.1	-71.5	0.0
2025-01-20 11:47:30.065918	1.7	26.0	-71.1	0.0
2025-01-20 11:47:31.188826	1.6	25.8	-67.9	0.0
2025-01-20 11:47:32.310571	1.4	25.6	-68.1	0.0
2025-01-20 11:47:33.433208	1.3	25.5	-67.6	0.0
2025-01-20 11:47:34.556495	1.1	25.3	-67.5	0.0
2025-01-20 11:47:35.677447	1.0	25.1	-72.6	0.0
2025-01-20 11:47:36.799006	0.8	25.0	-72.5	0.0
2025-01-20 11:47:37.921100	0.7	24.8	-72.3	0.0
2025-01-20 11:47:39.043249	0.5	24.7	-73.2	0.0
2025-01-20 11:47:40.167005	0.4	24.5	-73.9	0.0
2025-01-20 11:47:41.290754	0.2	24.3	-71.6	0.0
2025-01-20 11:47:42.412639	0.1	24.2	-66.6	0.0
2025-01-20 11:47:43.535373	360.0	24.0	-67.1	0.0
2025-01-20 11:47:44.659665	359.8	23.9	-73.4	0.0
2025-01-20 11:47:45.783284	359.7	23.7	-68.1	0.0
2025-01-20 11:47:46.907063	359.5	23.6	-68.3	0.0
2025-01-20 11:47:48.030507	359.4	23.4	-71.6	0.0
2025-01-20 11:47:49.157398	359.3	23.2	-71.8	0.0
2025-01-20 11:47:50.280051	359.1	23.1	-72.4	0.0
2025-01-20 11:47:51.402043	359.0	22.9	-68.6	0.0
2025-01-20 11:47:52.524648	358.9	22.8	-65.6	0.0
2025-01-20 11:47:53.646961	358.8	22.6	-65.2	0.0
2025-01-20 11:47:54.770611	358.6	22.5	-65.2	0.0
2025-01-20 11:47:55.894183	358.5	22.3	-71.6	0.0
2025-01-20 11:47:57.017415	358.4	22.2	-71.6	0.0
2025-01-20 11:47:58.140046	358.3	22.0	-71.6	0.0
2025-01-20 11:47:59.262997	358.1	21.9	-71.1	0.0
2025-01-20 11:48:00.386299	358.0	21.7	-73.8	0.0
2025-01-20 11:48:01.508230	357.9	21.6	-68.7	0.0
2025-01-20 11:48:02.629720	357.8	21.5	-68.0	0.0
2025-01-20 11:48:03.753565	357.7	21.3	-74.9	0.0
2025-01-20 11:48:04.877428	357.6	21.2	-70.7	0.0
2025-01-20 11:48:05.999156	357.4	21.0	-73.8	0.0
2025-01-20 11:48:07.121839	357.3	20.9	-73.5	0.0
2025-01-20 11:48:08.242455	357.2	20.7	-72.1	0.0
2025-01-20 11:48:09.364081	357.1	20.6	-74.1	0.0
2025-01-20 11:48:10.487309	357.0	20.5	-74.5	0.0
2025-01-20 11:48:11.611017	356.9	20.3	-72.5	0.0
2025-01-20 11:48:12.732525	356.8	20.2	-71.5	0.0
2025-01-20 11:48:13.855416	356.7	20.0	-73.2	0.0
2025-01-20 11:48:14.977515	356.6	19.9	-73.0	0.0
2025-01-20 11:48:16.098541	356.5	19.8	-72.0	0.0
2025-01-20 11:48:17.220566	356.4	19.6	-72.3	0.0
2025-01-20 11:48:18.342999	356.3	19.5	-71.0	0.0
2025-01-20 11:48:19.464142	356.2	19.4	-70.5	0.0
2025-01-20 11:48:20.587191	356.0	19.2	-71.6	0.0
2025-01-20 11:48:21.709687	355.9	19.1	-66.8	0.0
2025-01-20 11:48:22.831570	355.8	19.0	-65.9	0.0
2025-01-20 11:48:23.955797	355.8	18.8	-64.5	0.0
2025-01-20 11:48:25.080522	355.7	18.7	-63.9	0.0
2025-01-20 11:48:26.205339	355.6	18.6	-66.1	0.0
2025-01-20 11:48:27.328413	355.5	18.4	-63.9	0.0
2025-01-20 11:48:28.450805	355.4	18.3	-71.8	0.0
2025-01-20 11:48:29.572769	355.3	18.2	-69.8	0.0
2025-01-20 11:48:30.697019	355.2	18.1	-69.6	0.0
2025-01-20 11:48:31.818925	355.1	17.9	-71.8	0.0
2025-01-20 11:48:32.940111	355.0	17.8	-72.0	0.0
2025-01-20 11:48:34.063559	354.9	17.7	-72.6	0.0
2025-01-20 11:48:35.185967	354.8	17.5	-63.9	0.0
2025-01-20 11:48:36.308037	354.7	17.4	-65.3	0.0
2025-01-20 11:48:37.431067	354.6	17.3	-73.1	0.0
2025-01-20 11:48:38.554750	354.5	17.2	-70.6	0.0
2025-01-20 11:48:39.679426	354.5	17.0	-68.6	0.0
2025-01-20 11:48:40.802769	354.4	16.9	-65.6	0.0
2025-01-20 11:48:41.925685	354.3	16.8	-67.4	0.0
2025-01-20 11:48:43.050020	354.2	16.7	-69.6	0.0
2025-01-20 11:48:44.172754	354.1	16.6	-69.2	0.0
2025-01-20 11:48:45.295998	354.0	16.4	-69.4	0.0
2025-01-20 11:48:46.421722	354.0	16.3	-68.8	0.0
2025-01-20 11:48:47.543961	353.9	16.2	-68.3	0.0
2025-01-20 11:48:48.667673	353.8	16.1	-69.3	0.0
2025-01-20 11:48:49.790372	353.7	16.0	-68.2	0.0
2025-01-20 11:48:50.914275	353.6	15.8	-68.5	0.0
2025-01-20 11:48:52.038638	353.6	15.7	-63.0	0.0
2025-01-20 11:48:53.162008	353.5	15.6	-63.3	0.0
2025-01-20 11:48:54.284435	353.4	15.5	-68.1	0.0
2025-01-20 11:48:55.409425	353.3	15.4	-68.4	0.0
2025-01-20 11:48:56.532442	353.2	15.3	-67.2	0.0
2025-01-20 11:48:57.656440	353.2	15.1	-67.8	0.0
2025-01-20 11:48:58.777457	353.1	15.0	-66.5	0.0
2025-01-20 11:48:59.902054	353.0	14.9	-67.8	0.0
2025-01-20 11:49:01.023711	352.9	14.8	-65.9	0.0
2025-01-20 11:49:02.146460	352.9	14.7	-67.7	0.0
2025-01-20 11:49:03.267671	352.8	14.6	-65.0	0.0
2025-01-20 11:49:04.392268	352.7	14.5	-63.7	0.0
2025-01-20 11:49:05.516087	352.7	14.3	-69.3	0.0
2025-01-20 11:49:06.638666	352.6	14.2	-68.3	0.0
2025-01-20 11:49:07.762588	352.5	14.1	-67.9	0.0
2025-01-20 11:49:08.886307	352.4	14.0	-66.3	0.0
2025-01-20 11:49:10.008242	352.4	13.9	-65.9	0.0
2025-01-20 11:49:11.131427	352.3	13.8	-63.5	0.0
2025-01-20 11:49:12.256525	352.2	13.7	-68.6	0.0
2025-01-20 11:49:13.378544	352.2	13.6	-69.3	0.0
2025-01-20 11:49:14.501945	352.1	13.5	-69.0	0.0
2025-01-20 11:49:15.627750	352.0	13.4	-69.8	0.0
2025-01-20 11:49:16.750028	352.0	13.2	-68.5	0.0
2025-01-20 11:49:17.874927	351.9	13.1	-67.1	0.0
2025-01-20 11:49:18.998819	351.8	13.0	-69.1	0.0
2025-01-20 11:49:20.122302	351.8	12.9	-70.0	0.0
2025-01-20 11:49:21.246884	351.7	12.8	-70.5	0.0
2025-01-20 11:49:22.372482	351.6	12.7	-68.6	0.0
2025-01-20 11:49:23.495841	351.6	12.6	-68.6	0.0
2025-01-20 11:49:24.619820	351.5	12.5	-68.8	0.0
2025-01-20 11:49:25.743392	351.5	12.4	-67.3	0.0
2025-01-20 11:49:26.868499	351.4	12.3	-67.4	0.0
2025-01-20 11:49:27.990257	351.3	12.2	-70.0	0.0
2025-01-20 11:49:29.113244	351.3	12.1	-67.3	0.0
2025-01-20 11:49:30.236529	351.2	12.0	-68.7	0.0
2025-01-20 11:49:31.357792	351.1	11.9	-73.1	0.0
2025-01-20 11:49:32.482811	351.1	11.8	-71.7	0.0
2025-01-20 11:49:33.607497	351.0	11.7	-71.9	0.0
2025-01-20 11:49:34.731051	351.0	11.6	-70.9	0.0
2025-01-20 11:49:35.854391	350.9	11.5	-71.7	0.0
2025-01-20 11:49:36.977053	350.9	11.4	-73.2	0.0
2025-01-20 11:49:38.098212	350.8	11.3	-72.9	0.0
2025-01-20 11:49:39.223304	350.7	11.2	-73.5	0.0
2025-01-20 11:49:40.345916	350.7	11.1	-71.1	0.0
2025-01-20 11:49:41.468286	350.6	11.0	-73.7	0.0
2025-01-20 11:49:42.591459	350.6	10.9	-73.0	0.0
2025-01-20 11:49:43.713907	350.5	10.8	-74.4	0.0
2025-01-20 11:49:44.835865	350.5	10.7	-78.4	0.0
2025-01-20 11:49:45.959482	350.4	10.6	-80.3	0.0
2025-01-20 11:49:47.081199	350.4	10.5	-80.3	0.0
2025-01-20 11:49:48.204089	350.3	10.4	-80.1	0.0
2025-01-20 11:49:49.328035	350.2	10.3	-80.9	0.0
2025-01-20 11:49:50.451942	350.2	10.2	-81.8	0.0
2025-01-20 11:49:51.573660	350.1	10.1	-82.2	0.0
2025-01-20 11:49:52.697229	350.1	10.0	-82.4	0.0
#Closed at: 2025-01-20 11:39:33.422292