passes_logs/2025/01/20/planumMaritime01/planumMaritime01__20250120_195917_NOAA_18_rec.log

#Pass ID: 20250120_195917_NOAA 18
#Satellite: NOAA 18
#Configuration: NOAA 18
#Start time: 2025-01-20 19:59:22.765345

#LorettStation: 1.0.0 05.05.2024
#Station: planumMaritime01
#Location: 37.49445 lon 55.92918 lat
#TLE: 1 28654U 05018A   25020.18862715  .00000449  00000+0  26167-3 0  9997
#TLE: 2 28654  98.8558 101.1913 0014575 164.8261 195.3351 14.13491567 13918

#Time	Az	El	Level	SNR
2025-01-20 19:59:24.928148	186.0	10.2	-77.8	0.0
2025-01-20 19:59:26.051509	186.1	10.3	-78.2	0.0
2025-01-20 19:59:27.173653	186.2	10.4	-77.5	0.0
2025-01-20 19:59:28.297392	186.2	10.5	-78.0	0.0
2025-01-20 19:59:29.420541	186.3	10.6	-77.9	0.0
2025-01-20 19:59:30.542315	186.4	10.6	-77.9	0.0
2025-01-20 19:59:31.666173	186.4	10.7	-77.4	0.0
2025-01-20 19:59:32.789366	186.5	10.8	-77.6	0.0
2025-01-20 19:59:33.913690	186.5	10.9	-77.4	0.0
2025-01-20 19:59:35.037351	186.6	11.0	-77.9	0.0
2025-01-20 19:59:36.160809	186.7	11.1	-77.9	0.0
2025-01-20 19:59:37.283377	186.7	11.2	-77.5	0.0
2025-01-20 19:59:38.406738	186.8	11.3	-77.8	0.0
2025-01-20 19:59:39.529959	186.9	11.4	-77.8	0.0
2025-01-20 19:59:40.654102	186.9	11.5	-77.9	0.0
2025-01-20 19:59:41.776421	187.0	11.6	-77.6	0.0
2025-01-20 19:59:42.900338	187.1	11.7	-77.9	0.0
2025-01-20 19:59:44.023187	187.2	11.8	-78.0	0.0
2025-01-20 19:59:45.144705	187.2	11.9	-77.2	0.0
2025-01-20 19:59:46.268758	187.3	12.0	-77.5	0.0
2025-01-20 19:59:47.394419	187.4	12.1	-77.7	0.0
2025-01-20 19:59:48.518445	187.4	12.2	-77.9	0.0
2025-01-20 19:59:49.641286	187.5	12.3	-77.7	0.0
2025-01-20 19:59:50.766756	187.6	12.4	-77.7	0.0
2025-01-20 19:59:51.890803	187.7	12.5	-77.6	0.0
2025-01-20 19:59:53.014908	187.7	12.6	-77.7	0.0
2025-01-20 19:59:54.138528	187.8	12.7	-77.5	0.0
2025-01-20 19:59:55.259869	187.9	12.8	-77.4	0.0
2025-01-20 19:59:56.381219	187.9	12.9	-77.2	0.0
2025-01-20 19:59:57.504711	188.0	13.0	-77.1	0.0
2025-01-20 19:59:58.628255	188.1	13.1	-77.1	0.0
2025-01-20 19:59:59.748619	188.2	13.2	-77.1	0.0
2025-01-20 20:00:00.869283	188.3	13.3	-77.1	0.0
2025-01-20 20:00:01.992660	188.3	13.4	-77.4	0.0
2025-01-20 20:00:03.115455	188.4	13.5	-77.3	0.0
2025-01-20 20:00:04.238925	188.5	13.6	-77.3	0.0
2025-01-20 20:00:05.361530	188.6	13.7	-77.2	0.0
2025-01-20 20:00:06.483418	188.6	13.8	-77.7	0.0
2025-01-20 20:00:07.607012	188.7	13.9	-77.2	0.0
2025-01-20 20:00:08.730783	188.8	14.0	-77.1	0.0
2025-01-20 20:00:09.855119	188.9	14.2	-76.8	0.0
2025-01-20 20:00:10.979471	189.0	14.3	-77.2	0.0
2025-01-20 20:00:12.103421	189.0	14.4	-76.9	0.0
2025-01-20 20:00:13.227624	189.1	14.5	-77.0	0.0
2025-01-20 20:00:14.350234	189.2	14.6	-76.9	0.0
2025-01-20 20:00:15.473033	189.3	14.7	-77.0	0.0
2025-01-20 20:00:16.597637	189.4	14.8	-77.1	0.0
2025-01-20 20:00:17.718464	189.5	14.9	-76.9	0.0
2025-01-20 20:00:18.842561	189.5	15.0	-76.9	0.0
2025-01-20 20:00:19.967149	189.6	15.1	-77.0	0.0
2025-01-20 20:00:21.091031	189.7	15.2	-77.1	0.0
2025-01-20 20:00:22.215504	189.8	15.4	-77.1	0.0
2025-01-20 20:00:23.339434	189.9	15.5	-76.9	0.0
2025-01-20 20:00:24.462869	190.0	15.6	-77.4	0.0
2025-01-20 20:00:25.584403	190.1	15.7	-76.6	0.0
2025-01-20 20:00:26.708468	190.2	15.8	-77.0	0.0
2025-01-20 20:00:27.831293	190.2	15.9	-77.0	0.0
2025-01-20 20:00:28.954951	190.3	16.0	-76.8	0.0
2025-01-20 20:00:30.078863	190.4	16.1	-76.7	0.0
2025-01-20 20:00:31.202051	190.5	16.3	-76.9	0.0
2025-01-20 20:00:32.326025	190.6	16.4	-77.0	0.0
2025-01-20 20:00:33.449158	190.7	16.5	-76.6	0.0
2025-01-20 20:00:34.570105	190.8	16.6	-76.6	0.0
2025-01-20 20:00:35.694397	190.9	16.7	-76.2	0.0
2025-01-20 20:00:36.816289	191.0	16.8	-76.6	0.0
2025-01-20 20:00:37.941556	191.1	17.0	-76.3	0.0
2025-01-20 20:00:39.066613	191.2	17.1	-76.6	0.0
2025-01-20 20:00:40.187215	191.3	17.2	-76.5	0.0
2025-01-20 20:00:41.310572	191.4	17.3	-76.3	0.0
2025-01-20 20:00:42.431885	191.5	17.4	-76.5	0.0
2025-01-20 20:00:43.555110	191.6	17.6	-76.0	0.0
2025-01-20 20:00:44.678435	191.7	17.7	-76.2	0.0
2025-01-20 20:00:45.800232	191.8	17.8	-76.3	0.0
2025-01-20 20:00:46.923303	191.9	17.9	-76.6	0.0
2025-01-20 20:00:48.045747	192.0	18.0	-76.2	0.0
2025-01-20 20:00:49.167586	192.1	18.2	-76.4	0.0
2025-01-20 20:00:50.289636	192.2	18.3	-76.6	0.0
2025-01-20 20:00:51.409343	192.3	18.4	-76.3	0.0
2025-01-20 20:00:52.535236	192.4	18.5	-76.4	0.0
2025-01-20 20:00:53.658753	192.5	18.7	-76.3	0.0
2025-01-20 20:00:54.782772	192.6	18.8	-76.3	0.0
2025-01-20 20:00:55.906906	192.7	18.9	-76.1	0.0
2025-01-20 20:00:57.028914	192.8	19.0	-76.2	0.0
2025-01-20 20:00:58.152221	192.9	19.2	-76.0	0.0
2025-01-20 20:00:59.273136	193.1	19.3	-75.6	0.0
2025-01-20 20:01:00.398574	193.2	19.4	-75.8	0.0
2025-01-20 20:01:01.521470	193.3	19.6	-76.1	0.0
2025-01-20 20:01:02.645960	193.4	19.7	-76.0	0.0
2025-01-20 20:01:03.769274	193.5	19.8	-76.5	0.0
2025-01-20 20:01:04.892411	193.6	19.9	-76.4	0.0
2025-01-20 20:01:06.014960	193.7	20.1	-75.9	0.0
2025-01-20 20:01:07.139342	193.9	20.2	-76.0	0.0
2025-01-20 20:01:08.262862	194.0	20.3	-76.2	0.0
2025-01-20 20:01:09.386778	194.1	20.5	-75.9	0.0
2025-01-20 20:01:10.510334	194.2	20.6	-76.2	0.0
2025-01-20 20:01:11.632791	194.3	20.7	-75.4	0.0
2025-01-20 20:01:12.753891	194.5	20.9	-76.0	0.0
2025-01-20 20:01:13.878272	194.6	21.0	-76.0	0.0
2025-01-20 20:01:15.001533	194.7	21.1	-76.6	0.0
2025-01-20 20:01:16.123431	194.8	21.3	-76.1	0.0
2025-01-20 20:01:17.246450	195.0	21.4	-75.7	0.0
2025-01-20 20:01:18.370830	195.1	21.6	-76.2	0.0
2025-01-20 20:01:19.495535	195.2	21.7	-75.9	0.0
2025-01-20 20:01:20.618989	195.4	21.8	-76.2	0.0
2025-01-20 20:01:21.742687	195.5	22.0	-76.0	0.0
2025-01-20 20:01:22.865372	195.6	22.1	-76.0	0.0
2025-01-20 20:01:23.988020	195.8	22.3	-76.3	0.0
2025-01-20 20:01:25.110335	195.9	22.4	-75.6	0.0
2025-01-20 20:01:26.233693	196.0	22.5	-76.0	0.0
2025-01-20 20:01:27.354904	196.2	22.7	-76.0	0.0
2025-01-20 20:01:28.478401	196.3	22.8	-75.8	0.0
2025-01-20 20:01:29.603008	196.4	23.0	-76.5	0.0
2025-01-20 20:01:30.726251	196.6	23.1	-76.1	0.0
2025-01-20 20:01:31.850691	196.7	23.3	-76.0	0.0
2025-01-20 20:01:32.972994	196.9	23.4	-76.7	0.0
2025-01-20 20:01:34.097908	197.0	23.5	-76.4	0.0
2025-01-20 20:01:35.221273	197.2	23.7	-75.6	0.0
2025-01-20 20:01:36.346862	197.3	23.8	-76.5	0.0
2025-01-20 20:01:37.469846	197.5	24.0	-75.8	0.0
2025-01-20 20:01:38.592250	197.6	24.1	-76.0	0.0
2025-01-20 20:01:39.714509	197.8	24.3	-76.0	0.0
2025-01-20 20:01:40.836718	197.9	24.4	-75.7	0.0
2025-01-20 20:01:41.960512	198.1	24.6	-76.3	0.0
2025-01-20 20:01:43.083224	198.2	24.7	-76.1	0.0
2025-01-20 20:01:44.207341	198.4	24.9	-76.0	0.0
2025-01-20 20:01:45.331052	198.5	25.0	-76.3	0.0
2025-01-20 20:01:46.452008	198.7	25.2	-76.2	0.0
2025-01-20 20:01:47.574260	198.9	25.3	-76.2	0.0
2025-01-20 20:01:48.698425	199.0	25.5	-76.3	0.0
2025-01-20 20:01:49.819518	199.2	25.7	-76.1	0.0
2025-01-20 20:01:50.944703	199.4	25.8	-76.5	0.0
2025-01-20 20:01:52.067755	199.5	26.0	-76.7	0.0
2025-01-20 20:01:53.189117	199.7	26.1	-76.6	0.0
2025-01-20 20:01:54.311374	199.9	26.3	-76.6	0.0
2025-01-20 20:01:55.435665	200.0	26.4	-76.4	0.0
2025-01-20 20:01:56.560133	200.2	26.6	-76.4	0.0
2025-01-20 20:01:57.682759	200.4	26.8	-76.4	0.0
2025-01-20 20:01:58.805690	200.6	26.9	-76.5	0.0
2025-01-20 20:01:59.928623	200.7	27.1	-76.4	0.0
2025-01-20 20:02:01.052533	200.9	27.2	-77.3	0.0
2025-01-20 20:02:02.173839	201.1	27.4	-77.0	0.0
2025-01-20 20:02:03.297397	201.3	27.6	-77.1	0.0
2025-01-20 20:02:04.420187	201.5	27.7	-77.3	0.0
2025-01-20 20:02:05.543752	201.7	27.9	-76.8	0.0
2025-01-20 20:02:06.668161	201.9	28.1	-77.1	0.0
2025-01-20 20:02:07.791224	202.1	28.2	-77.1	0.0
2025-01-20 20:02:08.915857	202.2	28.4	-76.9	0.0
2025-01-20 20:02:10.038480	202.4	28.6	-76.9	0.0
2025-01-20 20:02:11.162082	202.6	28.7	-77.3	0.0
2025-01-20 20:02:12.286040	202.8	28.9	-77.0	0.0
2025-01-20 20:02:13.409246	203.0	29.1	-77.6	0.0
2025-01-20 20:02:14.533022	203.3	29.2	-77.7	0.0
2025-01-20 20:02:15.657481	203.5	29.4	-78.2	0.0
2025-01-20 20:02:16.778876	203.7	29.6	-77.5	0.0
2025-01-20 20:02:17.904357	203.9	29.7	-77.3	0.0
2025-01-20 20:02:19.029008	204.1	29.9	-77.8	0.0
2025-01-20 20:02:20.151757	204.3	30.1	-77.5	0.0
2025-01-20 20:02:21.273300	204.5	30.3	-78.6	0.0
2025-01-20 20:02:22.396291	204.7	30.4	-77.8	0.0
2025-01-20 20:02:23.520118	205.0	30.6	-77.7	0.0
2025-01-20 20:02:24.643545	205.2	30.8	-77.5	0.0
2025-01-20 20:02:25.767544	205.4	31.0	-77.6	0.0
2025-01-20 20:02:26.889848	205.7	31.1	-78.3	0.0
2025-01-20 20:02:28.013249	205.9	31.3	-78.8	0.0
2025-01-20 20:02:29.135827	206.1	31.5	-78.1	0.0
2025-01-20 20:02:30.258375	206.4	31.7	-77.8	0.0
2025-01-20 20:02:31.384556	206.6	31.8	-77.9	0.0
2025-01-20 20:02:32.508399	206.8	32.0	-78.3	0.0
2025-01-20 20:02:33.632114	207.1	32.2	-78.6	0.0
2025-01-20 20:02:34.752484	207.3	32.4	-78.3	0.0
2025-01-20 20:02:35.875029	207.6	32.6	-77.9	0.0
2025-01-20 20:02:36.998438	207.8	32.7	-78.0	0.0
2025-01-20 20:02:38.120286	208.1	32.9	-78.6	0.0
2025-01-20 20:02:39.242797	208.3	33.1	-78.5	0.0
2025-01-20 20:02:40.365519	208.6	33.3	-78.7	0.0
2025-01-20 20:02:41.488552	208.9	33.5	-78.4	0.0
2025-01-20 20:02:42.611350	209.1	33.6	-78.8	0.0
2025-01-20 20:02:43.734595	209.4	33.8	-78.7	0.5
2025-01-20 20:02:44.857837	209.7	34.0	-79.0	0.2
2025-01-20 20:02:45.980476	210.0	34.2	-79.1	0.0
2025-01-20 20:02:47.105007	210.2	34.4	-79.3	0.0
2025-01-20 20:02:48.227821	210.5	34.6	-79.2	0.0
2025-01-20 20:02:49.351168	210.8	34.8	-79.5	0.5
2025-01-20 20:02:50.475766	211.1	34.9	-79.4	0.6
2025-01-20 20:02:51.598432	211.4	35.1	-79.2	0.5
2025-01-20 20:02:52.721323	211.7	35.3	-79.0	1.1
2025-01-20 20:02:53.846268	212.0	35.5	-79.3	1.1
2025-01-20 20:02:54.972278	212.3	35.7	-79.5	1.6
2025-01-20 20:02:56.095605	212.6	35.9	-79.5	2.6
2025-01-20 20:02:57.218027	212.9	36.1	-79.5	2.2
2025-01-20 20:02:58.341818	213.2	36.2	-79.4	2.7
2025-01-20 20:02:59.462520	213.5	36.4	-79.2	0.9
2025-01-20 20:03:00.583855	213.8	36.6	-79.7	2.5
2025-01-20 20:03:01.704495	214.2	36.8	-79.2	2.0
2025-01-20 20:03:02.826216	214.5	37.0	-79.8	2.3
2025-01-20 20:03:03.948333	214.8	37.2	-80.0	2.9
2025-01-20 20:03:05.071920	215.1	37.4	-79.9	3.3
2025-01-20 20:03:06.197742	215.5	37.5	-79.9	1.6
2025-01-20 20:03:07.321550	215.8	37.7	-80.0	2.2
2025-01-20 20:03:08.443004	216.2	37.9	-80.1	2.2
2025-01-20 20:03:09.566458	216.5	38.1	-79.8	2.8
2025-01-20 20:03:10.689805	216.9	38.3	-80.1	1.5
2025-01-20 20:03:11.812651	217.2	38.5	-80.3	2.0
2025-01-20 20:03:12.935360	217.6	38.7	-80.3	1.9
2025-01-20 20:03:14.057443	218.0	38.8	-80.6	2.1
2025-01-20 20:03:15.179595	218.3	39.0	-80.1	2.2
2025-01-20 20:03:16.302900	218.7	39.2	-80.3	3.0
2025-01-20 20:03:17.424399	219.1	39.4	-80.1	3.0
2025-01-20 20:03:18.547437	219.5	39.6	-80.4	3.5
2025-01-20 20:03:19.670099	219.8	39.8	-80.3	3.7
2025-01-20 20:03:20.795119	220.2	40.0	-80.5	4.1
2025-01-20 20:03:21.917720	220.6	40.1	-80.5	3.7
2025-01-20 20:03:23.040360	221.0	40.3	-80.2	4.2
2025-01-20 20:03:24.164215	221.4	40.5	-80.6	4.6
2025-01-20 20:03:25.285143	221.8	40.7	-80.4	0.0
2025-01-20 20:03:26.408457	222.2	40.9	-80.5	4.4
2025-01-20 20:03:27.532206	222.7	41.0	-80.7	4.0
2025-01-20 20:03:28.656359	223.1	41.2	-80.6	4.5
2025-01-20 20:03:29.778251	223.5	41.4	-80.1	3.7
2025-01-20 20:03:30.900742	223.9	41.6	-80.2	4.3
2025-01-20 20:03:32.024184	224.4	41.7	-80.2	5.0
2025-01-20 20:03:33.148398	224.8	41.9	-80.2	5.2
2025-01-20 20:03:34.271047	225.3	42.1	-80.0	4.8
2025-01-20 20:03:35.396464	225.7	42.3	-80.0	6.3
2025-01-20 20:03:36.520301	226.2	42.4	-79.7	6.5
2025-01-20 20:03:37.646330	226.6	42.6	-80.0	6.7
2025-01-20 20:03:38.772273	227.1	42.8	-79.8	6.6
2025-01-20 20:03:39.896373	227.6	42.9	-80.0	6.8
2025-01-20 20:03:41.019413	228.0	43.1	-79.7	6.1
2025-01-20 20:03:42.141995	228.5	43.3	-79.8	6.8
2025-01-20 20:03:43.265317	229.0	43.4	-79.9	6.6
2025-01-20 20:03:44.390630	229.5	43.6	-80.1	6.8
2025-01-20 20:03:45.513976	230.0	43.8	-79.8	6.1
2025-01-20 20:03:46.640295	230.5	43.9	-80.0	6.7
2025-01-20 20:03:47.764915	231.0	44.1	-79.9	7.0
2025-01-20 20:03:48.888266	231.5	44.2	-79.6	6.5
2025-01-20 20:03:50.013160	232.0	44.4	-80.1	6.8
2025-01-20 20:03:51.137250	232.5	44.5	-79.5	6.1
2025-01-20 20:03:52.259541	233.0	44.7	-80.1	7.1
2025-01-20 20:03:53.382132	233.6	44.8	-79.9	0.0
2025-01-20 20:03:54.505571	234.1	45.0	-80.0	6.2
2025-01-20 20:03:55.627077	234.6	45.1	-79.8	2.2
2025-01-20 20:03:56.748337	235.2	45.3	-79.7	6.5
2025-01-20 20:03:57.870108	235.7	45.4	-79.9	5.6
2025-01-20 20:03:58.990439	236.3	45.5	-80.0	6.6
2025-01-20 20:04:00.111558	236.8	45.7	-80.1	7.1
2025-01-20 20:04:01.234561	237.4	45.8	-80.0	6.2
2025-01-20 20:04:02.358360	238.0	45.9	-79.9	0.0
2025-01-20 20:04:03.481282	238.5	46.1	-80.0	6.8
2025-01-20 20:04:04.605910	239.1	46.2	-79.7	7.2
2025-01-20 20:04:05.730946	239.7	46.3	-79.9	7.0
2025-01-20 20:04:06.854798	240.3	46.4	-80.0	6.7
2025-01-20 20:04:07.977539	240.8	46.5	-80.0	8.1
2025-01-20 20:04:09.099181	241.4	46.6	-79.8	8.2
2025-01-20 20:04:10.218647	242.0	46.8	-79.9	8.7
2025-01-20 20:04:11.340609	242.6	46.9	-79.3	8.4
2025-01-20 20:04:12.462302	243.2	47.0	-79.2	8.6
2025-01-20 20:04:13.587613	243.8	47.1	-79.7	7.9
2025-01-20 20:04:14.710131	244.4	47.2	-79.2	8.2
2025-01-20 20:04:15.834048	245.1	47.2	-79.5	8.0
2025-01-20 20:04:16.956563	245.7	47.3	-79.8	8.4
2025-01-20 20:04:18.079458	246.3	47.4	-79.7	8.1
2025-01-20 20:04:19.203437	246.9	47.5	-79.2	7.2
2025-01-20 20:04:20.327785	247.5	47.6	-79.1	0.0
2025-01-20 20:04:21.451734	248.2	47.7	-79.6	8.1
2025-01-20 20:04:22.574076	248.8	47.7	-79.1	6.9
2025-01-20 20:04:23.697748	249.4	47.8	-79.5	7.6
2025-01-20 20:04:24.819300	250.1	47.9	-79.7	7.7
2025-01-20 20:04:25.944075	250.7	47.9	-77.9	0.0
2025-01-20 20:04:27.065693	251.4	48.0	-79.6	7.7
2025-01-20 20:04:28.190299	252.0	48.0	-79.3	8.3
2025-01-20 20:04:29.314506	252.7	48.1	-79.6	7.4
2025-01-20 20:04:30.438699	253.3	48.1	-79.4	7.8
2025-01-20 20:04:31.562809	254.0	48.2	-79.5	7.5
2025-01-20 20:04:32.683293	254.6	48.2	-79.7	7.6
2025-01-20 20:04:33.806126	255.3	48.2	-79.0	7.1
2025-01-20 20:04:34.928560	255.9	48.3	-79.2	6.7
2025-01-20 20:04:36.050785	256.6	48.3	-79.3	6.4
2025-01-20 20:04:37.175502	257.3	48.3	-79.4	6.1
2025-01-20 20:04:38.298310	257.9	48.3	-79.7	5.7
2025-01-20 20:04:39.420103	258.6	48.4	-79.8	7.4
2025-01-20 20:04:40.543541	259.2	48.4	-79.7	5.8
2025-01-20 20:04:41.665978	259.9	48.4	-78.7	0.9
2025-01-20 20:04:42.790145	260.6	48.4	-79.6	7.8
2025-01-20 20:04:43.912240	261.2	48.4	-79.9	7.0
2025-01-20 20:04:45.033372	261.9	48.4	-80.0	6.7
2025-01-20 20:04:46.156259	262.5	48.4	-80.1	7.6
2025-01-20 20:04:47.278367	263.2	48.3	-79.9	6.7
2025-01-20 20:04:48.400810	263.9	48.3	-79.8	6.3
2025-01-20 20:04:49.526385	264.5	48.3	-80.0	6.4
2025-01-20 20:04:50.650061	265.2	48.3	-79.9	6.5
2025-01-20 20:04:51.774638	265.8	48.2	-79.9	3.2
2025-01-20 20:04:52.899885	266.5	48.2	-80.2	5.5
2025-01-20 20:04:54.021329	267.1	48.2	-80.2	6.0
2025-01-20 20:04:55.145098	267.8	48.1	-80.2	5.0
2025-01-20 20:04:56.267660	268.4	48.1	-80.3	5.1
2025-01-20 20:04:57.389512	269.1	48.0	-79.9	0.0
2025-01-20 20:04:58.512892	269.7	48.0	-79.9	5.4
2025-01-20 20:04:59.635807	270.4	47.9	-79.9	5.1
2025-01-20 20:05:00.760052	271.0	47.9	-80.1	4.6
2025-01-20 20:05:01.881091	271.7	47.8	-80.0	4.7
2025-01-20 20:05:03.005581	272.3	47.7	-80.1	4.6
2025-01-20 20:05:04.128665	272.9	47.7	-78.9	3.8
2025-01-20 20:05:05.251600	273.6	47.6	-79.9	4.5
2025-01-20 20:05:06.373509	274.2	47.5	-79.2	3.4
2025-01-20 20:05:07.499237	274.8	47.4	-79.7	4.1
2025-01-20 20:05:08.622142	275.4	47.3	-80.3	4.9
2025-01-20 20:05:09.744940	276.1	47.2	-79.8	4.2
2025-01-20 20:05:10.867879	276.7	47.2	-79.7	4.6
2025-01-20 20:05:11.989711	277.3	47.1	-78.7	0.0
2025-01-20 20:05:13.113393	277.9	47.0	-78.4	0.0
2025-01-20 20:05:14.233810	278.5	46.9	-79.4	5.5
2025-01-20 20:05:15.358560	279.1	46.7	-79.8	4.8
2025-01-20 20:05:16.480378	279.7	46.6	-79.6	5.1
2025-01-20 20:05:17.602631	280.3	46.5	-79.7	4.9
2025-01-20 20:05:18.724159	280.9	46.4	-80.1	4.4
2025-01-20 20:05:19.847698	281.4	46.3	-79.6	3.7
2025-01-20 20:05:20.971891	282.0	46.2	-79.4	3.5
2025-01-20 20:05:22.095446	282.6	46.1	-79.7	3.7
2025-01-20 20:05:23.219473	283.2	45.9	-79.9	4.3
2025-01-20 20:05:24.346165	283.7	45.8	-79.6	2.4
2025-01-20 20:05:25.470381	284.3	45.7	-79.7	1.2
2025-01-20 20:05:26.593001	284.8	45.5	-79.1	1.5
2025-01-20 20:05:27.716996	285.4	45.4	-79.5	0.0
2025-01-20 20:05:28.839399	285.9	45.3	-79.6	2.4
2025-01-20 20:05:29.961454	286.5	45.1	-79.4	2.0
2025-01-20 20:05:31.084170	287.0	45.0	-79.5	2.0
2025-01-20 20:05:32.205004	287.5	44.8	-79.4	1.8
2025-01-20 20:05:33.327659	288.1	44.7	-79.6	0.6
2025-01-20 20:05:34.451167	288.6	44.5	-79.5	1.8
2025-01-20 20:05:35.574154	289.1	44.4	-79.3	0.4
2025-01-20 20:05:36.695413	289.6	44.2	-79.6	0.1
2025-01-20 20:05:37.819337	290.1	44.1	-80.0	0.0
2025-01-20 20:05:38.942853	290.6	43.9	-79.7	0.0
2025-01-20 20:05:40.066503	291.1	43.8	-79.2	0.0
2025-01-20 20:05:41.189398	291.6	43.6	-79.7	0.0
2025-01-20 20:05:42.310996	292.1	43.4	-80.0	0.0
2025-01-20 20:05:43.431595	292.6	43.3	-79.6	0.0
2025-01-20 20:05:44.555980	293.1	43.1	-79.8	0.0
2025-01-20 20:05:45.676721	293.5	42.9	-79.7	0.0
2025-01-20 20:05:46.801496	294.0	42.8	-80.0	0.0
2025-01-20 20:05:47.925517	294.5	42.6	-80.1	0.0
2025-01-20 20:05:49.048962	294.9	42.4	-80.2	0.0
2025-01-20 20:05:50.170121	295.4	42.3	-80.5	0.0
2025-01-20 20:05:51.291198	295.8	42.1	-79.8	0.0
2025-01-20 20:05:52.415044	296.3	41.9	-79.1	0.0
2025-01-20 20:05:53.542039	296.7	41.7	-80.0	0.0
2025-01-20 20:05:54.663312	297.1	41.6	-79.4	0.0
2025-01-20 20:05:55.786944	297.6	41.4	-80.3	0.0
2025-01-20 20:05:56.911004	298.0	41.2	-79.9	0.0
2025-01-20 20:05:58.032316	298.4	41.0	-80.5	0.0
2025-01-20 20:05:59.155526	298.8	40.9	-79.6	0.0
2025-01-20 20:06:00.281589	299.3	40.7	-79.5	0.0
2025-01-20 20:06:01.403053	299.7	40.5	-79.2	0.0
2025-01-20 20:06:02.527676	300.1	40.3	-79.2	0.0
2025-01-20 20:06:03.650690	300.5	40.1	-79.4	0.0
2025-01-20 20:06:04.774396	300.9	40.0	-78.8	0.0
2025-01-20 20:06:05.898891	301.2	39.8	-79.7	0.0
2025-01-20 20:06:07.020476	301.6	39.6	-79.2	0.0
2025-01-20 20:06:08.142548	302.0	39.4	-79.8	0.0
2025-01-20 20:06:09.263883	302.4	39.2	-79.7	0.0
2025-01-20 20:06:10.387215	302.8	39.0	-79.1	0.0
2025-01-20 20:06:11.512245	303.1	38.8	-79.7	0.0
2025-01-20 20:06:12.635881	303.5	38.7	-79.2	0.0
2025-01-20 20:06:13.758438	303.9	38.5	-78.9	0.0
2025-01-20 20:06:14.883123	304.2	38.3	-79.8	0.0
2025-01-20 20:06:16.005976	304.6	38.1	-80.0	0.0
2025-01-20 20:06:17.130233	304.9	37.9	-80.1	0.0
2025-01-20 20:06:18.253262	305.3	37.7	-79.9	0.0
2025-01-20 20:06:19.377412	305.6	37.5	-79.5	0.0
2025-01-20 20:06:20.502193	305.9	37.4	-79.2	0.0
2025-01-20 20:06:21.624587	306.3	37.2	-77.7	0.0
2025-01-20 20:06:22.746825	306.6	37.0	-80.2	0.0
2025-01-20 20:06:23.870054	306.9	36.8	-79.3	0.0
2025-01-20 20:06:24.993178	307.2	36.6	-78.4	0.0
2025-01-20 20:06:26.115496	307.6	36.4	-79.7	0.0
2025-01-20 20:06:27.239759	307.9	36.2	-79.7	0.0
2025-01-20 20:06:28.361877	308.2	36.1	-79.4	0.0
2025-01-20 20:06:29.485012	308.5	35.9	-79.3	0.0
2025-01-20 20:06:30.607878	308.8	35.7	-79.4	0.0
2025-01-20 20:06:31.731438	309.1	35.5	-77.7	0.0
2025-01-20 20:06:32.853692	309.4	35.3	-79.4	0.0
2025-01-20 20:06:33.975219	309.7	35.1	-78.8	0.0
2025-01-20 20:06:35.100858	310.0	34.9	-79.1	0.0
2025-01-20 20:06:36.226479	310.3	34.8	-79.4	0.0
2025-01-20 20:06:37.350171	310.6	34.6	-78.3	0.0
2025-01-20 20:06:38.473432	310.8	34.4	-79.3	0.0
2025-01-20 20:06:39.594887	311.1	34.2	-79.4	0.0
2025-01-20 20:06:40.717067	311.4	34.0	-79.1	0.0
2025-01-20 20:06:41.840727	311.7	33.8	-79.1	0.0
2025-01-20 20:06:42.963511	311.9	33.7	-78.9	0.0
2025-01-20 20:06:44.086644	312.2	33.5	-79.7	0.0
2025-01-20 20:06:45.212278	312.5	33.3	-79.7	0.0
2025-01-20 20:06:46.335307	312.7	33.1	-77.9	0.0
2025-01-20 20:06:47.458125	313.0	32.9	-77.1	0.0
2025-01-20 20:06:48.579458	313.3	32.8	-78.2	0.0
2025-01-20 20:06:49.699814	313.5	32.6	-79.0	0.0
2025-01-20 20:06:50.821723	313.8	32.4	-78.5	0.0
2025-01-20 20:06:51.944399	314.0	32.2	-77.4	0.0
2025-01-20 20:06:53.067213	314.2	32.0	-76.2	0.0
2025-01-20 20:06:54.190265	314.5	31.9	-75.1	0.0
2025-01-20 20:06:55.314773	314.7	31.7	-75.6	0.0
2025-01-20 20:06:56.440634	315.0	31.5	-74.3	0.0
2025-01-20 20:06:57.565515	315.2	31.3	-73.8	0.0
2025-01-20 20:06:58.688150	315.4	31.2	-76.4	0.0
2025-01-20 20:06:59.812032	315.7	31.0	-76.4	0.0
2025-01-20 20:07:00.933614	315.9	30.8	-75.1	0.0
2025-01-20 20:07:02.057272	316.1	30.6	-77.5	0.0
2025-01-20 20:07:03.179173	316.3	30.5	-76.3	0.0
2025-01-20 20:07:04.303911	316.6	30.3	-77.3	0.0
2025-01-20 20:07:05.425264	316.8	30.1	-77.1	0.0
2025-01-20 20:07:06.549294	317.0	29.9	-77.4	0.0
2025-01-20 20:07:07.673009	317.2	29.8	-77.2	0.0
2025-01-20 20:07:08.795865	317.4	29.6	-76.8	0.0
2025-01-20 20:07:09.920585	317.6	29.4	-77.2	0.0
2025-01-20 20:07:11.042964	317.8	29.3	-76.2	0.0
2025-01-20 20:07:12.165632	318.0	29.1	-77.1	0.0
2025-01-20 20:07:13.289072	318.2	28.9	-76.3	0.0
2025-01-20 20:07:14.413522	318.4	28.8	-76.7	0.0
2025-01-20 20:07:15.536290	318.6	28.6	-77.3	0.0
2025-01-20 20:07:16.661696	318.8	28.4	-76.9	0.0
2025-01-20 20:07:17.784164	319.0	28.3	-75.8	0.0
2025-01-20 20:07:18.906797	319.2	28.1	-77.7	0.0
2025-01-20 20:07:20.030974	319.4	27.9	-77.2	0.0
2025-01-20 20:07:21.154938	319.6	27.8	-75.3	0.0
2025-01-20 20:07:22.276185	319.8	27.6	-74.1	0.0
2025-01-20 20:07:23.400377	320.0	27.4	-72.2	0.0
2025-01-20 20:07:24.522419	320.2	27.3	-73.7	0.0
2025-01-20 20:07:25.645968	320.3	27.1	-73.0	0.0
2025-01-20 20:07:26.770365	320.5	26.9	-75.2	0.0
2025-01-20 20:07:27.892881	320.7	26.8	-74.7	0.0
2025-01-20 20:07:29.014941	320.9	26.6	-77.2	0.0
2025-01-20 20:07:30.136047	321.1	26.5	-77.0	0.0
2025-01-20 20:07:31.260160	321.2	26.3	-76.0	0.0
2025-01-20 20:07:32.382242	321.4	26.2	-74.9	0.0
2025-01-20 20:07:33.505517	321.6	26.0	-77.6	0.0
2025-01-20 20:07:34.629647	321.7	25.8	-76.9	0.0
2025-01-20 20:07:35.753938	321.9	25.7	-77.5	0.0
2025-01-20 20:07:36.876319	322.1	25.5	-78.7	0.0
2025-01-20 20:07:37.999327	322.2	25.4	-78.2	0.0
2025-01-20 20:07:39.123524	322.4	25.2	-78.3	0.0
2025-01-20 20:07:40.246173	322.6	25.1	-77.6	0.0
2025-01-20 20:07:41.369920	322.7	24.9	-78.2	0.0
2025-01-20 20:07:42.493540	322.9	24.8	-76.9	0.0
2025-01-20 20:07:43.616138	323.0	24.6	-79.0	0.0
2025-01-20 20:07:44.739415	323.2	24.5	-73.5	0.0
2025-01-20 20:07:45.862352	323.3	24.3	-78.8	0.0
2025-01-20 20:07:46.984681	323.5	24.2	-79.7	0.0
2025-01-20 20:07:48.107274	323.6	24.0	-78.3	0.0
2025-01-20 20:07:49.231054	323.8	23.9	-78.3	0.0
2025-01-20 20:07:50.352483	323.9	23.7	-79.2	0.0
2025-01-20 20:07:51.478117	324.1	23.6	-77.4	0.0
2025-01-20 20:07:52.600793	324.2	23.4	-77.4	0.0
2025-01-20 20:07:53.723374	324.4	23.3	-78.7	0.0
2025-01-20 20:07:54.846195	324.5	23.1	-78.7	0.0
2025-01-20 20:07:55.970036	324.7	23.0	-77.9	0.0
2025-01-20 20:07:57.095134	324.8	22.9	-78.2	0.0
2025-01-20 20:07:58.218068	324.9	22.7	-77.6	0.0
2025-01-20 20:07:59.341436	325.1	22.6	-76.5	0.0
2025-01-20 20:08:00.465067	325.2	22.4	-77.9	0.0
2025-01-20 20:08:01.588099	325.3	22.3	-77.0	0.0
2025-01-20 20:08:02.710451	325.5	22.2	-77.5	0.0
2025-01-20 20:08:03.834148	325.6	22.0	-77.3	0.0
2025-01-20 20:08:04.955875	325.7	21.9	-79.2	0.0
2025-01-20 20:08:06.078490	325.9	21.7	-77.1	0.0
2025-01-20 20:08:07.200526	326.0	21.6	-74.4	0.0
2025-01-20 20:08:08.322623	326.1	21.5	-75.8	0.0
2025-01-20 20:08:09.445577	326.3	21.3	-75.0	0.0
2025-01-20 20:08:10.569512	326.4	21.2	-75.2	0.0
2025-01-20 20:08:11.692712	326.5	21.1	-77.4	0.0
2025-01-20 20:08:12.814423	326.6	20.9	-73.0	0.0
2025-01-20 20:08:13.937204	326.8	20.8	-73.1	0.0
2025-01-20 20:08:15.061009	326.9	20.6	-76.8	0.0
2025-01-20 20:08:16.185340	327.0	20.5	-76.0	0.0
2025-01-20 20:08:17.311121	327.1	20.4	-74.2	0.0
2025-01-20 20:08:18.435107	327.2	20.3	-74.6	0.0
2025-01-20 20:08:19.558997	327.4	20.1	-76.9	0.0
2025-01-20 20:08:20.680023	327.5	20.0	-76.1	0.0
2025-01-20 20:08:21.803875	327.6	19.9	-73.3	0.0
2025-01-20 20:08:22.927972	327.7	19.7	-74.4	0.0
2025-01-20 20:08:24.049500	327.8	19.6	-75.0	0.0
2025-01-20 20:08:25.173397	327.9	19.5	-75.6	0.0
2025-01-20 20:08:26.295032	328.1	19.3	-76.2	0.0
2025-01-20 20:08:27.416780	328.2	19.2	-75.4	0.0
2025-01-20 20:08:28.539456	328.3	19.1	-74.4	0.0
2025-01-20 20:08:29.663448	328.4	19.0	-74.0	0.0
2025-01-20 20:08:30.787216	328.5	18.8	-76.2	0.0
2025-01-20 20:08:31.911971	328.6	18.7	-74.3	0.0
2025-01-20 20:08:33.033171	328.7	18.6	-75.6	0.0
2025-01-20 20:08:34.158130	328.8	18.5	-75.0	0.0
2025-01-20 20:08:35.281433	328.9	18.3	-74.9	0.0
2025-01-20 20:08:36.405342	329.0	18.2	-73.3	0.0
2025-01-20 20:08:37.528541	329.1	18.1	-73.4	0.0
2025-01-20 20:08:38.649343	329.2	18.0	-74.1	0.0
2025-01-20 20:08:39.772352	329.3	17.8	-73.4	0.0
2025-01-20 20:08:40.895091	329.4	17.7	-74.4	0.0
2025-01-20 20:08:42.018235	329.5	17.6	-73.6	0.0
2025-01-20 20:08:43.139379	329.6	17.5	-72.7	0.0
2025-01-20 20:08:44.262061	329.7	17.4	-74.4	0.0
2025-01-20 20:08:45.385466	329.8	17.2	-73.5	0.0
2025-01-20 20:08:46.507917	329.9	17.1	-73.4	0.0
2025-01-20 20:08:47.630355	330.0	17.0	-74.6	0.0
2025-01-20 20:08:48.752313	330.1	16.9	-76.1	0.0
2025-01-20 20:08:49.873558	330.2	16.8	-76.6	0.0
2025-01-20 20:08:50.997837	330.3	16.7	-75.2	0.0
2025-01-20 20:08:52.120264	330.4	16.5	-76.5	0.0
2025-01-20 20:08:53.242984	330.5	16.4	-76.3	0.0
2025-01-20 20:08:54.365958	330.6	16.3	-68.9	0.0
2025-01-20 20:08:55.488199	330.7	16.2	-68.9	0.0
2025-01-20 20:08:56.610491	330.8	16.1	-68.3	0.0
2025-01-20 20:08:57.732782	330.9	16.0	-75.8	0.0
2025-01-20 20:08:58.857428	331.0	15.9	-76.0	0.0
2025-01-20 20:08:59.979309	331.1	15.7	-73.0	0.0
2025-01-20 20:09:01.102406	331.2	15.6	-69.6	0.0
2025-01-20 20:09:02.224230	331.3	15.5	-70.3	0.0
2025-01-20 20:09:03.347590	331.3	15.4	-69.5	0.0
2025-01-20 20:09:04.469941	331.4	15.3	-75.1	0.0
2025-01-20 20:09:05.594575	331.5	15.2	-76.1	0.0
2025-01-20 20:09:06.716112	331.6	15.1	-70.3	0.0
2025-01-20 20:09:07.839772	331.7	15.0	-75.1	0.0
2025-01-20 20:09:08.960815	331.8	14.9	-75.6	0.0
2025-01-20 20:09:10.083386	331.9	14.7	-69.8	0.0
2025-01-20 20:09:11.206328	331.9	14.6	-69.7	0.0
2025-01-20 20:09:12.329827	332.0	14.5	-73.4	0.0
2025-01-20 20:09:13.450942	332.1	14.4	-69.2	0.0
2025-01-20 20:09:14.573341	332.2	14.3	-75.4	0.0
2025-01-20 20:09:15.695460	332.3	14.2	-75.0	0.0
2025-01-20 20:09:16.816114	332.4	14.1	-76.5	0.0
2025-01-20 20:09:17.937777	332.4	14.0	-75.8	0.0
2025-01-20 20:09:19.063490	332.5	13.9	-75.3	0.0
2025-01-20 20:09:20.183239	332.6	13.8	-74.9	0.0
2025-01-20 20:09:21.307594	332.7	13.7	-70.4	0.0
2025-01-20 20:09:22.432598	332.8	13.6	-72.1	0.0
2025-01-20 20:09:23.556720	332.8	13.5	-69.2	0.0
2025-01-20 20:09:24.681234	332.9	13.4	-75.2	0.0
2025-01-20 20:09:25.803189	333.0	13.3	-73.1	0.0
2025-01-20 20:09:26.923294	333.1	13.2	-74.1	0.0
2025-01-20 20:09:28.046829	333.1	13.1	-75.4	0.0
2025-01-20 20:09:29.168916	333.2	13.0	-75.5	0.0
2025-01-20 20:09:30.292161	333.3	12.9	-74.6	0.0
2025-01-20 20:09:31.413342	333.4	12.8	-74.3	0.0
2025-01-20 20:09:32.535209	333.4	12.7	-75.2	0.0
2025-01-20 20:09:33.659131	333.5	12.6	-75.9	0.0
2025-01-20 20:09:34.780641	333.6	12.5	-74.6	0.0
2025-01-20 20:09:35.901242	333.7	12.4	-76.2	0.0
2025-01-20 20:09:37.023698	333.7	12.3	-74.9	0.0
2025-01-20 20:09:38.148721	333.8	12.2	-73.4	0.0
2025-01-20 20:09:39.273086	333.9	12.1	-75.0	0.0
2025-01-20 20:09:40.396091	333.9	12.0	-74.3	0.0
2025-01-20 20:09:41.519253	334.0	11.9	-74.7	0.0
2025-01-20 20:09:42.642276	334.1	11.8	-74.9	0.0
2025-01-20 20:09:43.766150	334.2	11.7	-68.0	0.0
2025-01-20 20:09:44.888573	334.2	11.6	-70.1	0.0
2025-01-20 20:09:46.011037	334.3	11.5	-74.4	0.0
2025-01-20 20:09:47.134738	334.4	11.4	-74.8	0.0
2025-01-20 20:09:48.257180	334.4	11.3	-75.6	0.0
2025-01-20 20:09:49.381101	334.5	11.2	-72.3	0.0
2025-01-20 20:09:50.506154	334.6	11.1	-70.5	0.0
2025-01-20 20:09:51.628381	334.6	11.0	-74.9	0.0
2025-01-20 20:09:52.752225	334.7	10.9	-78.1	0.0
2025-01-20 20:09:53.876139	334.8	10.8	-76.3	0.0
2025-01-20 20:09:55.000843	334.8	10.7	-78.5	0.0
2025-01-20 20:09:56.126112	334.9	10.6	-78.5	0.0
2025-01-20 20:09:57.247917	335.0	10.5	-80.9	0.0
2025-01-20 20:09:58.369163	335.0	10.4	-80.6	0.0
2025-01-20 20:09:59.494234	335.1	10.3	-82.2	0.0
2025-01-20 20:10:00.615733	335.2	10.2	-82.4	0.0
2025-01-20 20:10:01.738187	335.2	10.2	-81.8	0.0
2025-01-20 20:10:02.861197	335.3	10.1	-81.7	0.0
#Closed at: 2025-01-20 19:59:17.769051