passes_logs/2025/01/20/planumMaritime01/planumMaritime01__20250120_123213_METEOR-M2_4_rec.log

#Pass ID: 20250120_123213_METEOR-M2 4
#Satellite: METEOR-M2 4
#Configuration: METEOR-M2 4
#Start time: 2025-01-20 12:32:18.188231

#LorettStation: 1.0.0 05.05.2024
#Station: planumMaritime01
#Location: 37.49445 lon 55.92918 lat
#TLE: 1 59051U 24039A   25019.17843089  .00000110  00000+0  69087-4 0  9990
#TLE: 2 59051  98.6301 342.1007 0006367 211.2686 148.8114 14.22326347 46195

#Time	Az	El	Level	SNR
2025-01-20 12:32:20.352543	202.1	10.2	-76.8	0.0
2025-01-20 12:32:21.475879	202.2	10.3	-77.4	0.0
2025-01-20 12:32:22.598536	202.3	10.3	-77.9	0.0
2025-01-20 12:32:23.721364	202.4	10.4	-77.9	0.0
2025-01-20 12:32:24.843484	202.5	10.5	-78.2	0.0
2025-01-20 12:32:25.967320	202.6	10.6	-78.0	0.0
2025-01-20 12:32:27.090972	202.7	10.7	-78.1	0.0
2025-01-20 12:32:28.213864	202.8	10.8	-78.2	0.0
2025-01-20 12:32:29.335325	202.9	10.9	-78.3	0.0
2025-01-20 12:32:30.459852	203.0	11.0	-78.1	0.0
2025-01-20 12:32:31.582787	203.2	11.0	-78.3	0.0
2025-01-20 12:32:32.705715	203.3	11.1	-77.8	0.0
2025-01-20 12:32:33.828613	203.4	11.2	-78.3	0.0
2025-01-20 12:32:34.952862	203.5	11.3	-78.5	0.0
2025-01-20 12:32:36.074301	203.6	11.4	-78.5	0.0
2025-01-20 12:32:37.195183	203.7	11.5	-78.1	0.0
2025-01-20 12:32:38.316204	203.8	11.6	-77.8	0.0
2025-01-20 12:32:39.439465	203.9	11.7	-78.3	0.0
2025-01-20 12:32:40.560846	204.0	11.8	-77.3	0.0
2025-01-20 12:32:41.686126	204.1	11.8	-76.9	0.0
2025-01-20 12:32:42.808738	204.2	11.9	-77.4	0.0
2025-01-20 12:32:43.931120	204.4	12.0	-78.1	0.0
2025-01-20 12:32:45.054621	204.5	12.1	-78.7	0.0
2025-01-20 12:32:46.177526	204.6	12.2	-78.7	0.0
2025-01-20 12:32:47.301043	204.7	12.3	-78.1	0.0
2025-01-20 12:32:48.423165	204.8	12.4	-78.3	0.0
2025-01-20 12:32:49.547608	204.9	12.5	-79.2	0.0
2025-01-20 12:32:50.667805	205.1	12.6	-78.8	0.0
2025-01-20 12:32:51.790991	205.2	12.7	-78.3	0.0
2025-01-20 12:32:52.915103	205.3	12.8	-78.2	0.0
2025-01-20 12:32:54.036988	205.4	12.9	-78.3	0.0
2025-01-20 12:32:55.160882	205.5	13.0	-78.7	0.0
2025-01-20 12:32:56.283686	205.7	13.0	-79.0	0.0
2025-01-20 12:32:57.406872	205.8	13.1	-78.8	0.0
2025-01-20 12:32:58.528363	205.9	13.2	-79.0	0.0
2025-01-20 12:32:59.649431	206.0	13.3	-78.6	0.0
2025-01-20 12:33:00.772860	206.1	13.4	-77.9	0.0
2025-01-20 12:33:01.897742	206.3	13.5	-78.8	0.0
2025-01-20 12:33:03.019669	206.4	13.6	-78.4	0.0
2025-01-20 12:33:04.144988	206.5	13.7	-78.9	0.0
2025-01-20 12:33:05.268639	206.7	13.8	-78.3	0.0
2025-01-20 12:33:06.392621	206.8	13.9	-79.2	0.0
2025-01-20 12:33:07.515063	206.9	14.0	-78.7	0.0
2025-01-20 12:33:08.639215	207.0	14.1	-79.0	0.0
2025-01-20 12:33:09.759687	207.2	14.2	-79.1	0.0
2025-01-20 12:33:10.884080	207.3	14.3	-78.9	0.0
2025-01-20 12:33:12.006056	207.4	14.4	-79.4	0.0
2025-01-20 12:33:13.127452	207.6	14.5	-79.0	0.0
2025-01-20 12:33:14.248367	207.7	14.6	-79.1	0.0
2025-01-20 12:33:15.372846	207.8	14.7	-79.4	0.0
2025-01-20 12:33:16.496453	208.0	14.8	-79.0	0.0
2025-01-20 12:33:17.617549	208.1	14.9	-77.9	0.0
2025-01-20 12:33:18.737917	208.2	15.0	-78.4	0.0
2025-01-20 12:33:19.860386	208.4	15.1	-78.9	0.0
2025-01-20 12:33:20.984099	208.5	15.2	-79.0	0.0
2025-01-20 12:33:22.106059	208.7	15.3	-79.1	0.0
2025-01-20 12:33:23.228794	208.8	15.4	-79.2	0.0
2025-01-20 12:33:24.352111	208.9	15.5	-79.3	0.0
2025-01-20 12:33:25.473968	209.1	15.6	-79.2	0.0
2025-01-20 12:33:26.597967	209.2	15.7	-79.6	0.0
2025-01-20 12:33:27.719067	209.4	15.8	-79.1	0.0
2025-01-20 12:33:28.841427	209.5	15.9	-79.6	0.0
2025-01-20 12:33:29.963581	209.7	16.0	-78.6	0.0
2025-01-20 12:33:31.087955	209.8	16.1	-79.7	0.0
2025-01-20 12:33:32.212040	210.0	16.2	-79.8	0.0
2025-01-20 12:33:33.334412	210.1	16.3	-79.7	0.0
2025-01-20 12:33:34.457030	210.3	16.4	-79.4	0.0
2025-01-20 12:33:35.579974	210.4	16.5	-79.7	0.0
2025-01-20 12:33:36.703728	210.6	16.6	-79.7	0.0
2025-01-20 12:33:37.826064	210.7	16.7	-79.3	0.0
2025-01-20 12:33:38.948486	210.9	16.8	-79.5	0.0
2025-01-20 12:33:40.070920	211.0	16.9	-79.9	0.0
2025-01-20 12:33:41.193440	211.2	17.0	-79.2	0.0
2025-01-20 12:33:42.316684	211.3	17.1	-79.0	0.0
2025-01-20 12:33:43.440198	211.5	17.2	-79.4	0.0
2025-01-20 12:33:44.565680	211.7	17.3	-79.6	0.0
2025-01-20 12:33:45.689198	211.8	17.4	-79.3	0.0
2025-01-20 12:33:46.810189	212.0	17.5	-79.2	0.0
2025-01-20 12:33:47.933036	212.1	17.6	-79.3	0.0
2025-01-20 12:33:49.057750	212.3	17.7	-79.4	0.0
2025-01-20 12:33:50.181170	212.5	17.8	-79.3	0.0
2025-01-20 12:33:51.304854	212.6	17.9	-79.2	0.0
2025-01-20 12:33:52.428296	212.8	18.0	-79.0	0.0
2025-01-20 12:33:53.552256	213.0	18.2	-78.5	0.0
2025-01-20 12:33:54.675601	213.1	18.3	-79.0	0.0
2025-01-20 12:33:55.798027	213.3	18.4	-78.8	0.0
2025-01-20 12:33:56.919134	213.5	18.5	-79.3	0.0
2025-01-20 12:33:58.041460	213.7	18.6	-79.6	0.0
2025-01-20 12:33:59.162757	213.8	18.7	-79.2	0.0
2025-01-20 12:34:00.286374	214.0	18.8	-79.0	0.0
2025-01-20 12:34:01.409583	214.2	18.9	-79.4	0.0
2025-01-20 12:34:02.531328	214.4	19.0	-79.2	0.0
2025-01-20 12:34:03.655650	214.5	19.1	-79.2	0.0
2025-01-20 12:34:04.777099	214.7	19.2	-79.6	0.0
2025-01-20 12:34:05.899019	214.9	19.3	-79.6	0.0
2025-01-20 12:34:07.024578	215.1	19.4	-79.4	0.0
2025-01-20 12:34:08.147179	215.3	19.6	-79.9	0.0
2025-01-20 12:34:09.270079	215.5	19.7	-79.5	0.0
2025-01-20 12:34:10.392995	215.7	19.8	-78.8	0.0
2025-01-20 12:34:11.515266	215.8	19.9	-79.4	0.0
2025-01-20 12:34:12.637632	216.0	20.0	-78.0	0.0
2025-01-20 12:34:13.760299	216.2	20.1	-78.6	0.0
2025-01-20 12:34:14.884284	216.4	20.2	-79.3	0.0
2025-01-20 12:34:16.009814	216.6	20.3	-78.4	0.0
2025-01-20 12:34:17.132074	216.8	20.4	-79.3	0.0
2025-01-20 12:34:18.255465	217.0	20.5	-79.2	0.0
2025-01-20 12:34:19.379760	217.2	20.7	-79.2	0.0
2025-01-20 12:34:20.504192	217.4	20.8	-78.3	0.0
2025-01-20 12:34:21.627242	217.6	20.9	-77.0	0.0
2025-01-20 12:34:22.750641	217.8	21.0	-78.4	0.0
2025-01-20 12:34:23.875151	218.0	21.1	-78.5	0.0
2025-01-20 12:34:24.999619	218.2	21.2	-77.9	0.0
2025-01-20 12:34:26.120855	218.4	21.3	-78.4	0.0
2025-01-20 12:34:27.244061	218.6	21.4	-77.1	0.0
2025-01-20 12:34:28.368742	218.8	21.5	-78.0	0.0
2025-01-20 12:34:29.490505	219.0	21.7	-77.0	0.0
2025-01-20 12:34:30.614019	219.3	21.8	-76.6	0.0
2025-01-20 12:34:31.737307	219.5	21.9	-76.8	0.0
2025-01-20 12:34:32.861925	219.7	22.0	-78.4	0.0
2025-01-20 12:34:33.985258	219.9	22.1	-79.4	0.0
2025-01-20 12:34:35.107065	220.1	22.2	-79.2	0.0
2025-01-20 12:34:36.230914	220.3	22.3	-79.2	0.0
2025-01-20 12:34:37.353477	220.6	22.4	-78.6	0.0
2025-01-20 12:34:38.475210	220.8	22.6	-79.3	0.0
2025-01-20 12:34:39.597099	221.0	22.7	-78.7	0.0
2025-01-20 12:34:40.719262	221.2	22.8	-79.1	0.0
2025-01-20 12:34:41.842532	221.5	22.9	-78.7	0.0
2025-01-20 12:34:42.964912	221.7	23.0	-78.5	0.0
2025-01-20 12:34:44.087529	221.9	23.1	-78.6	0.0
2025-01-20 12:34:45.209167	222.2	23.2	-78.3	0.0
2025-01-20 12:34:46.330352	222.4	23.3	-78.3	0.0
2025-01-20 12:34:47.454009	222.6	23.5	-79.5	0.0
2025-01-20 12:34:48.578245	222.9	23.6	-79.6	0.0
2025-01-20 12:34:49.701457	223.1	23.7	-79.8	0.0
2025-01-20 12:34:50.826923	223.3	23.8	-79.7	0.0
2025-01-20 12:34:51.948229	223.6	23.9	-78.9	0.0
2025-01-20 12:34:53.070607	223.8	24.0	-79.0	0.0
2025-01-20 12:34:54.194638	224.1	24.1	-79.4	0.0
2025-01-20 12:34:55.317922	224.3	24.2	-79.9	0.0
2025-01-20 12:34:56.440401	224.6	24.4	-80.0	0.0
2025-01-20 12:34:57.562498	224.8	24.5	-79.8	0.0
2025-01-20 12:34:58.684469	225.1	24.6	-79.5	0.0
2025-01-20 12:34:59.810318	225.3	24.7	-79.6	0.0
2025-01-20 12:35:00.932461	225.6	24.8	-80.2	0.0
2025-01-20 12:35:02.055730	225.8	24.9	-80.1	0.0
2025-01-20 12:35:03.180195	226.1	25.0	-79.7	0.0
2025-01-20 12:35:04.301085	226.4	25.1	-79.8	0.0
2025-01-20 12:35:05.423654	226.6	25.3	-79.9	0.0
2025-01-20 12:35:06.544552	226.9	25.4	-79.8	0.0
2025-01-20 12:35:07.667254	227.2	25.5	-80.0	0.0
2025-01-20 12:35:08.792999	227.4	25.6	-80.3	0.0
2025-01-20 12:35:09.915831	227.7	25.7	-80.1	0.0
2025-01-20 12:35:11.040392	228.0	25.8	-80.2	0.0
2025-01-20 12:35:12.163475	228.3	25.9	-80.5	0.0
2025-01-20 12:35:13.287215	228.5	26.0	-80.5	0.0
2025-01-20 12:35:14.410048	228.8	26.1	-80.3	0.0
2025-01-20 12:35:15.531404	229.1	26.3	-80.3	0.0
2025-01-20 12:35:16.655311	229.4	26.4	-80.7	0.0
2025-01-20 12:35:17.778402	229.7	26.5	-80.3	0.0
2025-01-20 12:35:18.901867	229.9	26.6	-80.5	0.0
2025-01-20 12:35:20.022264	230.2	26.7	-80.3	0.0
2025-01-20 12:35:21.145348	230.5	26.8	-80.5	0.0
2025-01-20 12:35:22.268186	230.8	26.9	-80.4	0.0
2025-01-20 12:35:23.392682	231.1	27.0	-80.1	0.0
2025-01-20 12:35:24.516321	231.4	27.1	-80.4	0.0
2025-01-20 12:35:25.638077	231.7	27.2	-80.4	0.0
2025-01-20 12:35:26.762516	232.0	27.3	-80.5	0.0
2025-01-20 12:35:27.887756	232.3	27.4	-80.3	0.0
2025-01-20 12:35:29.012093	232.6	27.5	-80.5	0.0
2025-01-20 12:35:30.133726	232.9	27.6	-80.3	0.0
2025-01-20 12:35:31.258266	233.2	27.8	-80.7	0.0
2025-01-20 12:35:32.382291	233.5	27.9	-80.7	0.0
2025-01-20 12:35:33.506107	233.8	28.0	-80.2	0.0
2025-01-20 12:35:34.628513	234.2	28.1	-80.0	0.0
2025-01-20 12:35:35.749035	234.5	28.2	-80.1	0.0
2025-01-20 12:35:36.871013	234.8	28.3	-80.3	0.0
2025-01-20 12:35:37.992179	235.1	28.4	-80.4	0.0
2025-01-20 12:35:39.114451	235.4	28.5	-80.6	0.0
2025-01-20 12:35:40.237930	235.8	28.6	-80.8	0.0
2025-01-20 12:35:41.359293	236.1	28.7	-81.0	0.0
2025-01-20 12:35:42.483382	236.4	28.8	-80.6	0.0
2025-01-20 12:35:43.607090	236.7	28.9	-80.7	0.0
2025-01-20 12:35:44.731922	237.1	29.0	-80.9	0.0
2025-01-20 12:35:45.857709	237.4	29.1	-80.8	0.0
2025-01-20 12:35:46.978424	237.7	29.2	-81.1	0.0
2025-01-20 12:35:48.101270	238.1	29.3	-81.1	0.0
2025-01-20 12:35:49.224131	238.4	29.3	-81.0	0.0
2025-01-20 12:35:50.348506	238.8	29.4	-81.1	0.0
2025-01-20 12:35:51.471452	239.1	29.5	-81.1	0.0
2025-01-20 12:35:52.595377	239.5	29.6	-81.2	0.0
2025-01-20 12:35:53.716911	239.8	29.7	-81.1	0.0
2025-01-20 12:35:54.838948	240.1	29.8	-81.4	0.0
2025-01-20 12:35:55.960431	240.5	29.9	-81.2	0.0
2025-01-20 12:35:57.083321	240.9	30.0	-80.7	0.0
2025-01-20 12:35:58.204499	241.2	30.1	-81.0	0.0
2025-01-20 12:35:59.327943	241.6	30.2	-81.1	0.0
2025-01-20 12:36:00.448440	241.9	30.2	-81.3	0.0
2025-01-20 12:36:01.571091	242.3	30.3	-81.3	0.0
2025-01-20 12:36:02.691928	242.6	30.4	-81.0	0.0
2025-01-20 12:36:03.816586	243.0	30.5	-81.2	0.0
2025-01-20 12:36:04.939430	243.4	30.6	-81.4	0.0
2025-01-20 12:36:06.062748	243.7	30.7	-81.2	0.0
2025-01-20 12:36:07.185581	244.1	30.7	-81.4	0.0
2025-01-20 12:36:08.308129	244.5	30.8	-81.3	0.0
2025-01-20 12:36:09.429586	244.9	30.9	-81.4	0.0
2025-01-20 12:36:10.552664	245.2	31.0	-81.3	0.0
2025-01-20 12:36:11.676807	245.6	31.1	-81.4	0.0
2025-01-20 12:36:12.800262	246.0	31.1	-81.4	0.0
2025-01-20 12:36:13.923857	246.4	31.2	-81.2	0.0
2025-01-20 12:36:15.047175	246.7	31.3	-81.2	0.0
2025-01-20 12:36:16.170337	247.1	31.3	-81.2	0.0
2025-01-20 12:36:17.294082	247.5	31.4	-81.0	0.0
2025-01-20 12:36:18.419365	247.9	31.5	-81.5	0.0
2025-01-20 12:36:19.544738	248.3	31.5	-81.5	0.0
2025-01-20 12:36:20.667476	248.7	31.6	-81.4	0.0
2025-01-20 12:36:21.791318	249.1	31.7	-81.4	0.0
2025-01-20 12:36:22.914163	249.5	31.7	-81.4	0.0
2025-01-20 12:36:24.035575	249.9	31.8	-81.3	0.0
2025-01-20 12:36:25.157542	250.3	31.9	-81.3	0.0
2025-01-20 12:36:26.278701	250.7	31.9	-81.3	0.0
2025-01-20 12:36:27.401908	251.1	32.0	-81.1	0.0
2025-01-20 12:36:28.524638	251.5	32.0	-81.4	0.0
2025-01-20 12:36:29.647588	251.9	32.1	-81.6	0.0
2025-01-20 12:36:30.770390	252.3	32.1	-81.6	0.0
2025-01-20 12:36:31.894417	252.7	32.2	-81.4	0.0
2025-01-20 12:36:33.014829	253.1	32.3	-81.6	0.0
2025-01-20 12:36:34.136107	253.5	32.3	-81.4	0.0
2025-01-20 12:36:35.259019	253.9	32.3	-81.6	0.0
2025-01-20 12:36:36.381895	254.3	32.4	-81.4	0.0
2025-01-20 12:36:37.504703	254.7	32.4	-81.7	0.0
2025-01-20 12:36:38.629236	255.1	32.5	-81.4	0.0
2025-01-20 12:36:39.751755	255.5	32.5	-81.3	0.0
2025-01-20 12:36:40.878456	255.9	32.6	-81.5	0.0
2025-01-20 12:36:42.002114	256.4	32.6	-81.6	0.0
2025-01-20 12:36:43.125309	256.8	32.6	-81.3	0.0
2025-01-20 12:36:44.249901	257.2	32.7	-81.4	0.0
2025-01-20 12:36:45.373777	257.6	32.7	-81.4	0.0
2025-01-20 12:36:46.496565	258.0	32.7	-80.7	0.0
2025-01-20 12:36:47.620944	258.4	32.8	-81.0	0.0
2025-01-20 12:36:48.743585	258.9	32.8	-81.0	0.0
2025-01-20 12:36:49.865637	259.3	32.8	-81.4	0.0
2025-01-20 12:36:50.989264	259.7	32.9	-81.3	0.0
2025-01-20 12:36:52.115296	260.1	32.9	-81.2	0.0
2025-01-20 12:36:53.237227	260.5	32.9	-81.1	0.0
2025-01-20 12:36:54.360274	261.0	32.9	-81.2	0.0
2025-01-20 12:36:55.482442	261.4	32.9	-81.4	0.0
2025-01-20 12:36:56.605462	261.8	33.0	-81.2	0.0
2025-01-20 12:36:57.726194	262.2	33.0	-81.4	0.0
2025-01-20 12:36:58.851168	262.7	33.0	-81.1	0.0
2025-01-20 12:36:59.974875	263.1	33.0	-81.3	0.0
2025-01-20 12:37:01.097903	263.5	33.0	-81.2	0.0
2025-01-20 12:37:02.221669	263.9	33.0	-81.6	0.0
2025-01-20 12:37:03.342577	264.4	33.0	-81.4	0.0
2025-01-20 12:37:04.465414	264.8	33.0	-81.5	0.0
2025-01-20 12:37:05.588022	265.2	33.0	-81.2	0.0
2025-01-20 12:37:06.710677	265.6	33.0	-81.3	0.0
2025-01-20 12:37:07.834022	266.1	33.0	-81.5	0.0
2025-01-20 12:37:08.956365	266.5	33.0	-81.5	0.0
2025-01-20 12:37:10.080458	266.9	33.0	-81.1	0.0
2025-01-20 12:37:11.201462	267.3	33.0	-81.3	0.0
2025-01-20 12:37:12.324973	267.8	33.0	-81.1	0.0
2025-01-20 12:37:13.447832	268.2	33.0	-80.9	0.0
2025-01-20 12:37:14.573480	268.6	33.0	-81.3	0.0
2025-01-20 12:37:15.695785	269.0	33.0	-80.8	0.0
2025-01-20 12:37:16.818514	269.5	33.0	-80.4	0.0
2025-01-20 12:37:17.942907	269.9	33.0	-80.4	0.0
2025-01-20 12:37:19.064124	270.3	32.9	-80.4	0.0
2025-01-20 12:37:20.188792	270.7	32.9	-79.8	0.0
2025-01-20 12:37:21.312368	271.2	32.9	-79.9	0.0
2025-01-20 12:37:22.434670	271.6	32.9	-80.6	0.0
2025-01-20 12:37:23.558265	272.0	32.8	-80.3	0.0
2025-01-20 12:37:24.682843	272.4	32.8	-80.3	0.0
2025-01-20 12:37:25.805069	272.8	32.8	-80.9	0.0
2025-01-20 12:37:26.927863	273.3	32.8	-80.9	0.0
2025-01-20 12:37:28.051687	273.7	32.7	-80.3	0.0
2025-01-20 12:37:29.174327	274.1	32.7	-80.9	0.0
2025-01-20 12:37:30.296312	274.5	32.7	-80.8	0.0
2025-01-20 12:37:31.420957	274.9	32.6	-80.9	0.0
2025-01-20 12:37:32.541036	275.3	32.6	-80.7	0.0
2025-01-20 12:37:33.663922	275.7	32.6	-80.7	0.0
2025-01-20 12:37:34.786774	276.2	32.5	-80.9	0.0
2025-01-20 12:37:35.910602	276.6	32.5	-80.8	0.0
2025-01-20 12:37:37.033562	277.0	32.4	-80.4	0.0
2025-01-20 12:37:38.156747	277.4	32.4	-80.9	0.0
2025-01-20 12:37:39.280538	277.8	32.3	-80.7	0.0
2025-01-20 12:37:40.404942	278.2	32.3	-80.7	0.0
2025-01-20 12:37:41.526344	278.6	32.2	-80.7	0.0
2025-01-20 12:37:42.650044	279.0	32.2	-80.7	0.0
2025-01-20 12:37:43.774909	279.4	32.1	-80.9	0.0
2025-01-20 12:37:44.896904	279.8	32.1	-80.6	0.0
2025-01-20 12:37:46.021059	280.2	32.0	-80.8	0.0
2025-01-20 12:37:47.144022	280.6	32.0	-80.8	0.0
2025-01-20 12:37:48.265322	281.0	31.9	-80.6	0.0
2025-01-20 12:37:49.389412	281.4	31.9	-80.6	0.0
2025-01-20 12:37:50.512558	281.8	31.8	-80.6	0.0
2025-01-20 12:37:51.636424	282.2	31.7	-79.8	0.0
2025-01-20 12:37:52.758858	282.6	31.7	-80.3	0.0
2025-01-20 12:37:53.880362	283.0	31.6	-80.6	0.0
2025-01-20 12:37:55.003596	283.4	31.5	-80.7	0.0
2025-01-20 12:37:56.126332	283.8	31.5	-80.6	0.0
2025-01-20 12:37:57.247932	284.2	31.4	-80.8	0.0
2025-01-20 12:37:58.373586	284.5	31.3	-80.9	0.0
2025-01-20 12:37:59.495818	284.9	31.3	-80.1	0.0
2025-01-20 12:38:00.619437	285.3	31.2	-81.1	0.0
2025-01-20 12:38:01.744126	285.7	31.1	-80.9	0.0
2025-01-20 12:38:02.866300	286.1	31.1	-81.1	0.0
2025-01-20 12:38:03.988321	286.4	31.0	-80.7	0.0
2025-01-20 12:38:05.111344	286.8	30.9	-80.8	0.0
2025-01-20 12:38:06.235808	287.2	30.8	-80.8	0.0
2025-01-20 12:38:07.360063	287.6	30.7	-80.2	0.0
2025-01-20 12:38:08.484303	287.9	30.7	-80.3	0.0
2025-01-20 12:38:09.607600	288.3	30.6	-80.6	0.0
2025-01-20 12:38:10.731582	288.7	30.5	-80.4	0.0
2025-01-20 12:38:11.853682	289.0	30.4	-80.5	0.0
2025-01-20 12:38:12.976783	289.4	30.3	-80.2	0.0
2025-01-20 12:38:14.099448	289.7	30.2	-80.3	0.0
2025-01-20 12:38:15.222101	290.1	30.2	-79.7	0.0
2025-01-20 12:38:16.344743	290.4	30.1	-80.3	0.0
2025-01-20 12:38:17.468349	290.8	30.0	-79.8	0.0
2025-01-20 12:38:18.590135	291.2	29.9	-80.1	0.0
2025-01-20 12:38:19.711652	291.5	29.8	-80.2	0.0
2025-01-20 12:38:20.833180	291.9	29.7	-80.4	0.0
2025-01-20 12:38:21.955329	292.2	29.6	-80.1	0.0
2025-01-20 12:38:23.077349	292.5	29.5	-80.0	0.0
2025-01-20 12:38:24.202316	292.9	29.4	-80.0	0.0
2025-01-20 12:38:25.323150	293.2	29.4	-80.3	0.0
2025-01-20 12:38:26.447044	293.6	29.3	-80.3	0.0
2025-01-20 12:38:27.569101	293.9	29.2	-80.3	0.0
2025-01-20 12:38:28.690250	294.2	29.1	-80.4	0.0
2025-01-20 12:38:29.811659	294.6	29.0	-80.4	0.0
2025-01-20 12:38:30.933617	294.9	28.9	-80.2	0.0
2025-01-20 12:38:32.055210	295.2	28.8	-80.1	0.0
2025-01-20 12:38:33.179648	295.6	28.7	-80.2	0.0
2025-01-20 12:38:34.304024	295.9	28.6	-80.6	0.0
2025-01-20 12:38:35.427791	296.2	28.5	-78.9	0.0
2025-01-20 12:38:36.550561	296.5	28.4	-80.2	0.0
2025-01-20 12:38:37.676058	296.8	28.3	-79.5	0.0
2025-01-20 12:38:38.800753	297.2	28.2	-79.5	0.0
2025-01-20 12:38:39.921488	297.5	28.1	-80.2	0.0
2025-01-20 12:38:41.046392	297.8	28.0	-79.5	0.0
2025-01-20 12:38:42.168743	298.1	27.9	-80.1	0.0
2025-01-20 12:38:43.291676	298.4	27.8	-79.7	0.0
2025-01-20 12:38:44.414230	298.7	27.7	-79.9	0.0
2025-01-20 12:38:45.536644	299.0	27.6	-78.9	0.0
2025-01-20 12:38:46.658165	299.3	27.5	-80.1	0.0
2025-01-20 12:38:47.783025	299.6	27.3	-79.2	0.0
2025-01-20 12:38:48.905435	299.9	27.2	-79.8	0.0
2025-01-20 12:38:50.029163	300.2	27.1	-79.9	0.0
2025-01-20 12:38:51.154123	300.5	27.0	-79.7	0.0
2025-01-20 12:38:52.278319	300.8	26.9	-80.1	0.0
2025-01-20 12:38:53.400448	301.1	26.8	-80.4	0.0
2025-01-20 12:38:54.525457	301.4	26.7	-79.8	0.0
2025-01-20 12:38:55.648745	301.7	26.6	-80.0	0.0
2025-01-20 12:38:56.770858	302.0	26.5	-79.8	0.0
2025-01-20 12:38:57.893948	302.2	26.4	-79.9	0.0
2025-01-20 12:38:59.016484	302.5	26.3	-79.4	0.0
2025-01-20 12:39:00.142765	302.8	26.2	-79.6	0.0
2025-01-20 12:39:01.267777	303.1	26.1	-79.7	0.0
2025-01-20 12:39:02.390593	303.4	25.9	-79.4	0.0
2025-01-20 12:39:03.513191	303.6	25.8	-79.4	0.0
2025-01-20 12:39:04.635022	303.9	25.7	-78.5	0.0
2025-01-20 12:39:05.757590	304.2	25.6	-78.7	0.0
2025-01-20 12:39:06.881823	304.4	25.5	-79.0	0.0
2025-01-20 12:39:08.002013	304.7	25.4	-79.1	0.0
2025-01-20 12:39:09.124249	305.0	25.3	-79.1	0.0
2025-01-20 12:39:10.245922	305.2	25.2	-79.2	0.0
2025-01-20 12:39:11.370042	305.5	25.1	-80.1	0.0
2025-01-20 12:39:12.492642	305.8	25.0	-79.4	0.0
2025-01-20 12:39:13.614516	306.0	24.8	-79.7	0.0
2025-01-20 12:39:14.738469	306.3	24.7	-78.7	0.0
2025-01-20 12:39:15.862197	306.5	24.6	-79.5	0.0
2025-01-20 12:39:16.984472	306.8	24.5	-80.0	0.0
2025-01-20 12:39:18.109196	307.0	24.4	-79.6	0.0
2025-01-20 12:39:19.228409	307.3	24.3	-79.4	0.0
2025-01-20 12:39:20.348435	307.5	24.2	-79.6	0.0
2025-01-20 12:39:21.470306	307.8	24.1	-79.8	0.0
2025-01-20 12:39:22.592416	308.0	23.9	-79.3	0.0
2025-01-20 12:39:23.716620	308.3	23.8	-78.6	0.0
2025-01-20 12:39:24.838402	308.5	23.7	-77.7	0.0
2025-01-20 12:39:25.960965	308.7	23.6	-79.9	0.0
2025-01-20 12:39:27.082931	309.0	23.5	-79.9	0.0
2025-01-20 12:39:28.204177	309.2	23.4	-80.1	0.0
2025-01-20 12:39:29.326359	309.4	23.3	-79.2	0.0
2025-01-20 12:39:30.447898	309.7	23.2	-79.5	0.0
2025-01-20 12:39:31.570846	309.9	23.1	-79.4	0.0
2025-01-20 12:39:32.690768	310.1	22.9	-79.2	0.0
2025-01-20 12:39:33.813041	310.4	22.8	-75.8	0.0
2025-01-20 12:39:34.937377	310.6	22.7	-78.2	0.0
2025-01-20 12:39:36.060638	310.8	22.6	-79.6	0.0
2025-01-20 12:39:37.183151	311.0	22.5	-78.3	0.0
2025-01-20 12:39:38.306756	311.2	22.4	-78.5	0.0
2025-01-20 12:39:39.428286	311.5	22.3	-78.5	0.0
2025-01-20 12:39:40.551940	311.7	22.2	-79.1	0.0
2025-01-20 12:39:41.675925	311.9	22.0	-78.7	0.0
2025-01-20 12:39:42.801945	312.1	21.9	-77.7	0.0
2025-01-20 12:39:43.926253	312.3	21.8	-79.0	0.0
2025-01-20 12:39:45.050035	312.5	21.7	-79.0	0.0
2025-01-20 12:39:46.173233	312.7	21.6	-78.2	0.0
2025-01-20 12:39:47.295843	313.0	21.5	-74.8	0.0
2025-01-20 12:39:48.418679	313.2	21.4	-77.7	0.0
2025-01-20 12:39:49.541418	313.4	21.3	-76.9	0.0
2025-01-20 12:39:50.666191	313.6	21.2	-78.0	0.0
2025-01-20 12:39:51.788366	313.8	21.0	-78.0	0.0
2025-01-20 12:39:52.911737	314.0	20.9	-77.3	0.0
2025-01-20 12:39:54.033776	314.2	20.8	-78.2	0.0
2025-01-20 12:39:55.158090	314.4	20.7	-78.2	0.0
2025-01-20 12:39:56.281232	314.6	20.6	-78.3	0.0
2025-01-20 12:39:57.404060	314.8	20.5	-77.8	0.0
2025-01-20 12:39:58.526795	315.0	20.4	-78.2	0.0
2025-01-20 12:39:59.650265	315.2	20.3	-77.5	0.0
2025-01-20 12:40:00.774452	315.4	20.2	-78.2	0.0
2025-01-20 12:40:01.897419	315.5	20.1	-77.0	0.0
2025-01-20 12:40:03.021765	315.7	20.0	-77.9	0.0
2025-01-20 12:40:04.144659	315.9	19.8	-76.9	0.0
2025-01-20 12:40:05.268122	316.1	19.7	-77.0	0.0
2025-01-20 12:40:06.390450	316.3	19.6	-76.6	0.0
2025-01-20 12:40:07.512805	316.5	19.5	-76.5	0.0
2025-01-20 12:40:08.635239	316.7	19.4	-76.0	0.0
2025-01-20 12:40:09.758447	316.8	19.3	-76.2	0.0
2025-01-20 12:40:10.880706	317.0	19.2	-75.4	0.0
2025-01-20 12:40:12.001857	317.2	19.1	-75.3	0.0
2025-01-20 12:40:13.125095	317.4	19.0	-75.9	0.0
2025-01-20 12:40:14.250990	317.6	18.9	-76.0	0.0
2025-01-20 12:40:15.371941	317.7	18.8	-75.3	0.0
2025-01-20 12:40:16.494350	317.9	18.7	-75.8	0.0
2025-01-20 12:40:17.617073	318.1	18.6	-75.3	0.0
2025-01-20 12:40:18.737280	318.2	18.4	-75.4	0.0
2025-01-20 12:40:19.862367	318.4	18.3	-76.1	0.0
2025-01-20 12:40:20.985512	318.6	18.2	-74.9	0.0
2025-01-20 12:40:22.106406	318.8	18.1	-76.0	0.0
2025-01-20 12:40:23.229792	318.9	18.0	-76.1	0.0
2025-01-20 12:40:24.352369	319.1	17.9	-75.7	0.0
2025-01-20 12:40:25.477571	319.3	17.8	-77.0	0.0
2025-01-20 12:40:26.600385	319.4	17.7	-76.1	0.0
2025-01-20 12:40:27.723026	319.6	17.6	-76.7	0.0
2025-01-20 12:40:28.845858	319.7	17.5	-76.9	0.0
2025-01-20 12:40:29.969395	319.9	17.4	-76.1	0.0
2025-01-20 12:40:31.090425	320.1	17.3	-76.5	0.0
2025-01-20 12:40:32.213791	320.2	17.2	-77.6	0.0
2025-01-20 12:40:33.335928	320.4	17.1	-75.9	0.0
2025-01-20 12:40:34.458182	320.5	17.0	-77.0	0.0
2025-01-20 12:40:35.581217	320.7	16.9	-75.9	0.0
2025-01-20 12:40:36.704164	320.9	16.8	-76.3	0.0
2025-01-20 12:40:37.829323	321.0	16.7	-76.5	0.0
2025-01-20 12:40:38.952738	321.2	16.6	-76.2	0.0
2025-01-20 12:40:40.077771	321.3	16.5	-76.8	0.0
2025-01-20 12:40:41.200303	321.5	16.4	-75.4	0.0
2025-01-20 12:40:42.322420	321.6	16.3	-75.9	0.0
2025-01-20 12:40:43.444567	321.8	16.2	-76.9	0.0
2025-01-20 12:40:44.566994	321.9	16.1	-77.2	0.0
2025-01-20 12:40:45.689699	322.1	16.0	-77.8	0.0
2025-01-20 12:40:46.812508	322.2	15.9	-77.9	0.0
2025-01-20 12:40:47.934215	322.3	15.8	-74.1	0.0
2025-01-20 12:40:49.058120	322.5	15.7	-76.2	0.0
2025-01-20 12:40:50.179075	322.6	15.6	-78.3	0.0
2025-01-20 12:40:51.302974	322.8	15.5	-78.2	0.0
2025-01-20 12:40:52.425214	322.9	15.4	-76.5	0.0
2025-01-20 12:40:53.548608	323.1	15.3	-76.6	0.0
2025-01-20 12:40:54.671782	323.2	15.2	-77.1	0.0
2025-01-20 12:40:55.796769	323.3	15.1	-77.4	0.0
2025-01-20 12:40:56.918730	323.5	15.0	-76.7	0.0
2025-01-20 12:40:58.043184	323.6	14.9	-78.9	0.0
2025-01-20 12:40:59.164683	323.7	14.8	-78.6	0.0
2025-01-20 12:41:00.289199	323.9	14.7	-78.6	0.0
2025-01-20 12:41:01.412111	324.0	14.6	-78.4	0.0
2025-01-20 12:41:02.535088	324.1	14.5	-76.7	0.0
2025-01-20 12:41:03.657361	324.3	14.4	-78.1	0.0
2025-01-20 12:41:04.779698	324.4	14.3	-77.9	0.0
2025-01-20 12:41:05.901394	324.5	14.2	-75.6	0.0
2025-01-20 12:41:07.023302	324.7	14.1	-77.4	0.0
2025-01-20 12:41:08.147253	324.8	14.0	-78.2	0.0
2025-01-20 12:41:09.269245	324.9	13.9	-77.3	0.0
2025-01-20 12:41:10.393683	325.1	13.8	-78.2	0.0
2025-01-20 12:41:11.515548	325.2	13.7	-78.4	0.0
2025-01-20 12:41:12.638504	325.3	13.6	-77.1	0.0
2025-01-20 12:41:13.759608	325.4	13.5	-76.0	0.0
2025-01-20 12:41:14.880972	325.6	13.4	-77.2	0.0
2025-01-20 12:41:16.001263	325.7	13.3	-75.8	0.0
2025-01-20 12:41:17.123784	325.8	13.3	-76.3	0.0
2025-01-20 12:41:18.246061	325.9	13.2	-76.0	0.0
2025-01-20 12:41:19.367323	326.0	13.1	-75.8	0.0
2025-01-20 12:41:20.491260	326.2	13.0	-75.1	0.0
2025-01-20 12:41:21.613528	326.3	12.9	-76.5	0.0
2025-01-20 12:41:22.738462	326.4	12.8	-77.2	0.0
2025-01-20 12:41:23.861215	326.5	12.7	-77.0	0.0
2025-01-20 12:41:24.984912	326.6	12.6	-77.4	0.0
2025-01-20 12:41:26.106699	326.8	12.5	-77.5	0.0
2025-01-20 12:41:27.226553	326.9	12.4	-77.5	0.0
2025-01-20 12:41:28.348232	327.0	12.3	-76.8	0.0
2025-01-20 12:41:29.471669	327.1	12.2	-78.1	0.0
2025-01-20 12:41:30.592102	327.2	12.2	-76.0	0.0
2025-01-20 12:41:31.716939	327.3	12.1	-76.4	0.0
2025-01-20 12:41:32.839624	327.4	12.0	-76.9	0.0
2025-01-20 12:41:33.963938	327.6	11.9	-77.0	0.0
2025-01-20 12:41:35.087669	327.7	11.8	-75.1	0.0
2025-01-20 12:41:36.210550	327.8	11.7	-75.2	0.0
2025-01-20 12:41:37.334098	327.9	11.6	-72.8	0.0
2025-01-20 12:41:38.458333	328.0	11.5	-74.6	0.0
2025-01-20 12:41:39.579691	328.1	11.4	-75.0	0.0
2025-01-20 12:41:40.703605	328.2	11.3	-68.7	0.0
2025-01-20 12:41:41.823967	328.3	11.3	-74.9	0.0
2025-01-20 12:41:42.946251	328.4	11.2	-73.7	0.0
2025-01-20 12:41:44.068438	328.5	11.1	-75.4	0.0
2025-01-20 12:41:45.197458	328.6	11.0	-75.2	0.0
2025-01-20 12:41:46.319558	328.8	10.9	-76.9	0.0
2025-01-20 12:41:47.443530	328.9	10.8	-79.5	0.0
2025-01-20 12:41:48.567492	329.0	10.7	-79.3	0.0
2025-01-20 12:41:49.690143	329.1	10.6	-80.4	0.0
2025-01-20 12:41:50.813411	329.2	10.6	-80.7	0.0
2025-01-20 12:41:51.934767	329.3	10.5	-81.3	0.0
2025-01-20 12:41:53.059726	329.4	10.4	-82.1	0.0
2025-01-20 12:41:54.182851	329.5	10.3	-82.3	0.0
2025-01-20 12:41:55.307013	329.6	10.2	-82.1	0.0
2025-01-20 12:41:56.430143	329.7	10.1	-82.0	0.0
#Closed at: 2025-01-20 12:32:13.192179