passes_logs/2025/01/20/planumMaritime01/planumMaritime01__20250120_080107_NOAA_19_rec.log

#Pass ID: 20250120_080107_NOAA 19
#Satellite: NOAA 19
#Configuration: NOAA 19
#Start time: 2025-01-20 08:01:12.389558

#LorettStation: 1.0.0 05.05.2024
#Station: planumMaritime01
#Location: 37.49445 lon 55.92918 lat
#TLE: 1 33591U 09005A   25019.18116543  .00000338  00000+0  20449-3 0  9996
#TLE: 2 33591  99.0189  82.9757 0014332  46.3357 313.9000 14.13262914822133

#Time	Az	El	Level	SNR
2025-01-20 08:01:14.547373	16.1	10.2	-94.4	0.0
2025-01-20 08:01:15.668744	16.1	10.3	-94.2	0.0
2025-01-20 08:01:16.791169	16.1	10.4	-94.4	0.0
2025-01-20 08:01:17.911245	16.1	10.5	-94.4	0.0
2025-01-20 08:01:19.032215	16.1	10.6	-94.4	0.0
2025-01-20 08:01:20.151561	16.1	10.7	-94.3	0.0
2025-01-20 08:01:21.273916	16.1	10.8	-94.4	0.0
2025-01-20 08:01:22.394086	16.1	10.9	-94.3	0.0
2025-01-20 08:01:23.515431	16.1	11.0	-94.7	0.0
2025-01-20 08:01:24.636873	16.1	11.1	-94.6	0.0
2025-01-20 08:01:25.759946	16.1	11.2	-94.7	0.0
2025-01-20 08:01:26.881018	16.1	11.3	-94.7	0.0
2025-01-20 08:01:28.001809	16.0	11.4	-94.6	0.0
2025-01-20 08:01:29.120756	16.0	11.5	-94.5	0.0
2025-01-20 08:01:30.242692	16.0	11.6	-94.7	0.0
2025-01-20 08:01:31.365545	16.0	11.7	-94.5	0.0
2025-01-20 08:01:32.487093	16.0	11.8	-94.6	0.0
2025-01-20 08:01:33.608060	16.0	11.9	-94.4	0.0
2025-01-20 08:01:34.729172	16.0	12.0	-94.6	0.0
2025-01-20 08:01:35.848721	16.0	12.1	-94.4	0.0
2025-01-20 08:01:36.971916	16.0	12.2	-94.3	0.0
2025-01-20 08:01:38.093137	16.0	12.3	-94.5	0.0
2025-01-20 08:01:39.214929	16.0	12.4	-94.5	0.0
2025-01-20 08:01:40.336690	16.0	12.5	-94.7	0.0
2025-01-20 08:01:41.456596	16.0	12.6	-94.4	0.0
2025-01-20 08:01:42.578646	16.0	12.7	-94.3	0.0
2025-01-20 08:01:43.699564	16.0	12.9	-94.6	0.0
2025-01-20 08:01:44.822246	16.0	13.0	-94.6	0.0
2025-01-20 08:01:45.944507	16.0	13.1	-94.7	0.0
2025-01-20 08:01:47.064791	16.0	13.2	-94.5	0.0
2025-01-20 08:01:48.184378	16.0	13.3	-94.5	0.0
2025-01-20 08:01:49.304989	16.0	13.4	-94.6	0.0
2025-01-20 08:01:50.425535	15.9	13.5	-94.7	0.0
2025-01-20 08:01:51.548351	15.9	13.6	-94.4	0.0
2025-01-20 08:01:52.672224	15.9	13.7	-94.5	0.0
2025-01-20 08:01:53.793216	15.9	13.8	-94.9	0.0
2025-01-20 08:01:54.913714	15.9	14.0	-94.9	0.0
2025-01-20 08:01:56.032460	15.9	14.1	-94.6	0.0
2025-01-20 08:01:57.154436	15.9	14.2	-94.4	0.0
2025-01-20 08:01:58.276518	15.9	14.3	-94.8	0.0
2025-01-20 08:01:59.398942	15.9	14.4	-94.6	0.0
2025-01-20 08:02:00.519940	15.9	14.5	-95.0	0.0
2025-01-20 08:02:01.641903	15.9	14.6	-94.7	0.0
2025-01-20 08:02:02.762968	15.9	14.8	-94.8	0.0
2025-01-20 08:02:03.883268	15.9	14.9	-94.9	0.0
2025-01-20 08:02:05.004779	15.9	15.0	-94.4	0.0
2025-01-20 08:02:06.126500	15.9	15.1	-94.5	0.0
2025-01-20 08:02:07.247270	15.8	15.2	-94.9	0.0
2025-01-20 08:02:08.367936	15.8	15.4	-94.8	0.0
2025-01-20 08:02:09.486624	15.8	15.5	-94.4	0.0
2025-01-20 08:02:10.607373	15.8	15.6	-94.7	0.0
2025-01-20 08:02:11.728698	15.8	15.7	-94.9	0.0
2025-01-20 08:02:12.850894	15.8	15.8	-94.6	0.0
2025-01-20 08:02:13.974440	15.8	16.0	-94.3	0.0
2025-01-20 08:02:15.096540	15.8	16.1	-94.4	0.0
2025-01-20 08:02:16.218765	15.8	16.2	-94.6	0.0
2025-01-20 08:02:17.339487	15.8	16.3	-94.5	0.0
2025-01-20 08:02:18.459575	15.8	16.5	-94.4	0.0
2025-01-20 08:02:19.582647	15.8	16.6	-94.3	0.0
2025-01-20 08:02:20.704676	15.8	16.7	-94.3	0.0
2025-01-20 08:02:21.826452	15.7	16.8	-94.4	0.0
2025-01-20 08:02:22.948408	15.7	17.0	-94.7	0.0
2025-01-20 08:02:24.070542	15.7	17.1	-94.7	0.0
2025-01-20 08:02:25.191601	15.7	17.2	-94.8	0.0
2025-01-20 08:02:26.313188	15.7	17.4	-94.9	0.0
2025-01-20 08:02:27.431893	15.7	17.5	-94.8	0.0
2025-01-20 08:02:28.550826	15.7	17.6	-94.8	0.0
2025-01-20 08:02:29.672138	15.7	17.7	-94.8	0.0
2025-01-20 08:02:30.794833	15.7	17.9	-94.8	0.0
2025-01-20 08:02:31.915965	15.7	18.0	-94.8	0.0
2025-01-20 08:02:33.035594	15.7	18.1	-94.7	0.0
2025-01-20 08:02:34.157476	15.6	18.3	-94.8	0.0
2025-01-20 08:02:35.279013	15.6	18.4	-94.9	0.0
2025-01-20 08:02:36.399218	15.6	18.6	-94.8	0.0
2025-01-20 08:02:37.520757	15.6	18.7	-94.9	0.0
2025-01-20 08:02:38.641698	15.6	18.8	-94.8	0.0
2025-01-20 08:02:39.762774	15.6	19.0	-94.8	0.0
2025-01-20 08:02:40.884936	15.6	19.1	-94.6	0.0
2025-01-20 08:02:42.007310	15.6	19.2	-94.6	0.0
2025-01-20 08:02:43.125607	15.6	19.4	-94.7	0.0
2025-01-20 08:02:44.249720	15.5	19.5	-94.7	0.0
2025-01-20 08:02:45.370859	15.5	19.7	-94.5	0.0
2025-01-20 08:02:46.491741	15.5	19.8	-94.7	0.0
2025-01-20 08:02:47.611061	15.5	20.0	-94.5	0.0
2025-01-20 08:02:48.732331	15.5	20.1	-94.4	0.0
2025-01-20 08:02:49.852740	15.5	20.2	-94.8	0.0
2025-01-20 08:02:50.973514	15.5	20.4	-94.8	0.0
2025-01-20 08:02:52.093784	15.5	20.5	-94.5	0.0
2025-01-20 08:02:53.216909	15.5	20.7	-94.5	0.0
2025-01-20 08:02:54.338020	15.4	20.8	-94.8	0.0
2025-01-20 08:02:55.460679	15.4	21.0	-94.8	0.0
2025-01-20 08:02:56.580886	15.4	21.1	-94.5	0.0
2025-01-20 08:02:57.703325	15.4	21.3	-94.6	0.0
2025-01-20 08:02:58.822992	15.4	21.4	-94.6	0.0
2025-01-20 08:02:59.944720	15.4	21.6	-94.6	0.0
2025-01-20 08:03:01.065806	15.4	21.7	-94.6	0.0
2025-01-20 08:03:02.184850	15.3	21.9	-94.5	0.0
2025-01-20 08:03:03.305478	15.3	22.1	-94.5	0.0
2025-01-20 08:03:04.426804	15.3	22.2	-94.5	0.0
2025-01-20 08:03:05.547770	15.3	22.4	-94.4	0.0
2025-01-20 08:03:06.670386	15.3	22.5	-94.8	0.0
2025-01-20 08:03:07.792181	15.3	22.7	-94.7	0.0
2025-01-20 08:03:08.914980	15.3	22.9	-94.6	0.0
2025-01-20 08:03:10.037433	15.2	23.0	-94.8	0.0
2025-01-20 08:03:11.157059	15.2	23.2	-94.9	0.0
2025-01-20 08:03:12.277927	15.2	23.3	-94.9	0.0
2025-01-20 08:03:13.400235	15.2	23.5	-94.8	0.0
2025-01-20 08:03:14.522497	15.2	23.7	-94.8	0.0
2025-01-20 08:03:15.642962	15.2	23.8	-94.9	0.0
2025-01-20 08:03:16.763856	15.2	24.0	-94.7	0.0
2025-01-20 08:03:17.884219	15.1	24.2	-94.5	0.0
2025-01-20 08:03:19.005722	15.1	24.4	-94.9	0.0
2025-01-20 08:03:20.127134	15.1	24.5	-94.8	0.0
2025-01-20 08:03:21.248770	15.1	24.7	-94.7	0.0
2025-01-20 08:03:22.369542	15.1	24.9	-94.7	0.0
2025-01-20 08:03:23.491099	15.1	25.0	-94.6	0.0
2025-01-20 08:03:24.612839	15.0	25.2	-94.7	0.0
2025-01-20 08:03:25.734955	15.0	25.4	-94.8	0.0
2025-01-20 08:03:26.856087	15.0	25.6	-94.7	0.0
2025-01-20 08:03:27.975815	15.0	25.8	-94.7	0.0
2025-01-20 08:03:29.095060	15.0	25.9	-94.6	0.0
2025-01-20 08:03:30.216383	14.9	26.1	-94.8	0.0
2025-01-20 08:03:31.337718	14.9	26.3	-94.7	0.0
2025-01-20 08:03:32.461067	14.9	26.5	-94.9	0.0
2025-01-20 08:03:33.581955	14.9	26.7	-94.5	0.0
2025-01-20 08:03:34.704903	14.9	26.9	-94.7	0.0
2025-01-20 08:03:35.827753	14.8	27.0	-94.7	0.0
2025-01-20 08:03:36.948952	14.8	27.2	-94.6	0.0
2025-01-20 08:03:38.069889	14.8	27.4	-94.8	0.0
2025-01-20 08:03:39.190642	14.8	27.6	-94.8	0.0
2025-01-20 08:03:40.313042	14.8	27.8	-94.8	0.0
2025-01-20 08:03:41.436150	14.7	28.0	-94.5	0.0
2025-01-20 08:03:42.556925	14.7	28.2	-94.6	0.0
2025-01-20 08:03:43.678906	14.7	28.4	-94.6	0.0
2025-01-20 08:03:44.801135	14.7	28.6	-94.6	0.0
2025-01-20 08:03:45.920869	14.6	28.8	-94.3	0.0
2025-01-20 08:03:47.042589	14.6	29.0	-94.6	0.0
2025-01-20 08:03:48.165972	14.6	29.2	-94.4	0.0
2025-01-20 08:03:49.290040	14.6	29.4	-94.5	0.0
2025-01-20 08:03:50.412172	14.5	29.6	-94.7	0.0
2025-01-20 08:03:51.534618	14.5	29.8	-94.6	0.0
2025-01-20 08:03:52.655869	14.5	30.0	-94.6	0.0
2025-01-20 08:03:53.777495	14.5	30.3	-94.5	0.0
2025-01-20 08:03:54.898989	14.4	30.5	-94.8	0.0
2025-01-20 08:03:56.017035	14.4	30.7	-94.6	0.0
2025-01-20 08:03:57.139878	14.4	30.9	-94.8	0.0
2025-01-20 08:03:58.262487	14.4	31.1	-94.7	0.0
2025-01-20 08:03:59.381308	14.3	31.3	-94.6	0.0
2025-01-20 08:04:00.501841	14.3	31.5	-94.6	0.0
2025-01-20 08:04:01.621804	14.3	31.8	-94.8	0.0
2025-01-20 08:04:02.742238	14.2	32.0	-94.8	0.0
2025-01-20 08:04:03.863716	14.2	32.2	-94.6	0.0
2025-01-20 08:04:04.985012	14.2	32.4	-94.8	0.0
2025-01-20 08:04:06.108401	14.2	32.7	-95.0	0.0
2025-01-20 08:04:07.229444	14.1	32.9	-94.7	0.0
2025-01-20 08:04:08.348120	14.1	33.1	-94.8	0.0
2025-01-20 08:04:09.470239	14.1	33.4	-94.8	0.0
2025-01-20 08:04:10.592461	14.0	33.6	-94.8	0.0
2025-01-20 08:04:11.715347	14.0	33.8	-94.8	0.0
2025-01-20 08:04:12.837000	14.0	34.1	-94.7	0.0
2025-01-20 08:04:13.955835	13.9	34.3	-94.6	0.0
2025-01-20 08:04:15.075813	13.9	34.6	-94.8	0.0
2025-01-20 08:04:16.197552	13.9	34.8	-95.0	0.0
2025-01-20 08:04:17.317698	13.8	35.1	-94.8	0.0
2025-01-20 08:04:18.439432	13.8	35.3	-94.8	0.0
2025-01-20 08:04:19.561785	13.7	35.6	-94.5	0.0
2025-01-20 08:04:20.681545	13.7	35.8	-94.6	0.0
2025-01-20 08:04:21.802411	13.7	36.1	-94.9	0.0
2025-01-20 08:04:22.923409	13.6	36.3	-95.0	0.0
2025-01-20 08:04:24.042210	13.6	36.6	-94.5	0.0
2025-01-20 08:04:25.164372	13.6	36.8	-94.7	0.0
2025-01-20 08:04:26.283871	13.5	37.1	-94.7	0.0
2025-01-20 08:04:27.404001	13.5	37.4	-94.8	0.0
2025-01-20 08:04:28.526277	13.4	37.6	-94.7	0.0
2025-01-20 08:04:29.648185	13.4	37.9	-94.8	0.0
2025-01-20 08:04:30.770285	13.3	38.2	-94.7	0.0
2025-01-20 08:04:31.892942	13.3	38.5	-94.8	0.0
2025-01-20 08:04:33.014032	13.2	38.7	-94.7	0.0
2025-01-20 08:04:34.135972	13.2	39.0	-95.0	0.0
2025-01-20 08:04:35.258838	13.2	39.3	-95.0	0.0
2025-01-20 08:04:36.380572	13.1	39.6	-94.6	0.0
2025-01-20 08:04:37.503151	13.1	39.9	-94.7	0.0
2025-01-20 08:04:38.623519	13.0	40.1	-94.9	0.0
2025-01-20 08:04:39.747693	13.0	40.4	-94.8	0.0
2025-01-20 08:04:40.868682	12.9	40.7	-94.6	0.0
2025-01-20 08:04:41.989320	12.8	41.0	-94.6	0.0
2025-01-20 08:04:43.111827	12.8	41.3	-94.8	0.0
2025-01-20 08:04:44.232651	12.7	41.6	-94.7	0.0
2025-01-20 08:04:45.353357	12.7	41.9	-94.9	0.0
2025-01-20 08:04:46.474720	12.6	42.2	-94.5	0.0
2025-01-20 08:04:47.593949	12.6	42.5	-94.9	0.0
2025-01-20 08:04:48.714981	12.5	42.8	-94.7	0.0
2025-01-20 08:04:49.835600	12.4	43.1	-94.6	0.0
2025-01-20 08:04:50.955692	12.4	43.5	-94.9	0.0
2025-01-20 08:04:52.076065	12.3	43.8	-94.5	0.0
2025-01-20 08:04:53.196873	12.2	44.1	-94.5	0.0
2025-01-20 08:04:54.317936	12.2	44.4	-94.7	0.0
2025-01-20 08:04:55.440175	12.1	44.7	-94.6	0.0
2025-01-20 08:04:56.560704	12.0	45.1	-94.7	0.0
2025-01-20 08:04:57.680975	12.0	45.4	-94.6	0.0
2025-01-20 08:04:58.802069	11.9	45.7	-94.7	0.0
2025-01-20 08:04:59.924468	11.8	46.1	-94.7	0.0
2025-01-20 08:05:01.046591	11.7	46.4	-94.6	0.0
2025-01-20 08:05:02.169440	11.7	46.7	-94.9	0.0
2025-01-20 08:05:03.289861	11.6	47.1	-94.7	0.0
2025-01-20 08:05:04.411810	11.5	47.4	-95.0	0.0
2025-01-20 08:05:05.532534	11.4	47.8	-94.8	0.0
2025-01-20 08:05:06.653335	11.3	48.1	-94.8	0.0
2025-01-20 08:05:07.776761	11.2	48.5	-94.8	0.0
2025-01-20 08:05:08.901432	11.2	48.8	-94.9	0.0
2025-01-20 08:05:10.021730	11.1	49.2	-94.8	0.0
2025-01-20 08:05:11.142742	11.0	49.6	-94.6	0.0
2025-01-20 08:05:12.264749	10.9	49.9	-94.5	0.0
2025-01-20 08:05:13.384229	10.8	50.3	-95.0	0.0
2025-01-20 08:05:14.506364	10.7	50.7	-94.8	0.0
2025-01-20 08:05:15.626788	10.6	51.0	-94.7	0.0
2025-01-20 08:05:16.748958	10.5	51.4	-94.6	0.0
2025-01-20 08:05:17.868868	10.3	51.8	-94.4	0.0
2025-01-20 08:05:18.990926	10.2	52.2	-94.2	0.0
2025-01-20 08:05:20.113929	10.1	52.6	-94.5	0.0
2025-01-20 08:05:21.236991	10.0	52.9	-94.5	0.0
2025-01-20 08:05:22.356761	9.9	53.3	-94.8	0.0
2025-01-20 08:05:23.478162	9.7	53.7	-94.4	0.0
2025-01-20 08:05:24.600693	9.6	54.1	-94.3	0.0
2025-01-20 08:05:25.721572	9.5	54.5	-94.4	0.0
2025-01-20 08:05:26.842271	9.3	54.9	-94.7	0.0
2025-01-20 08:05:27.963331	9.2	55.3	-94.7	0.0
2025-01-20 08:05:29.083744	9.1	55.7	-94.8	0.0
2025-01-20 08:05:30.206411	8.9	56.1	-94.6	0.0
2025-01-20 08:05:31.327551	8.8	56.6	-94.7	0.0
2025-01-20 08:05:32.447728	8.6	57.0	-94.8	0.0
2025-01-20 08:05:33.570152	8.4	57.4	-94.8	0.0
2025-01-20 08:05:34.689546	8.3	57.8	-94.7	0.0
2025-01-20 08:05:35.812412	8.1	58.2	-94.7	0.0
2025-01-20 08:05:36.934000	7.9	58.7	-94.9	0.0
2025-01-20 08:05:38.056457	7.7	59.1	-95.0	0.0
2025-01-20 08:05:39.178625	7.5	59.5	-94.9	0.0
2025-01-20 08:05:40.298848	7.3	60.0	-94.7	0.0
2025-01-20 08:05:41.419394	7.1	60.4	-94.8	0.0
2025-01-20 08:05:42.540053	6.9	60.9	-94.9	0.0
2025-01-20 08:05:43.662949	6.7	61.3	-94.8	0.0
2025-01-20 08:05:44.783621	6.4	61.7	-95.2	0.0
2025-01-20 08:05:45.904235	6.2	62.2	-94.8	0.0
2025-01-20 08:05:47.026543	5.9	62.6	-94.9	0.0
2025-01-20 08:05:48.145856	5.7	63.1	-94.5	0.0
2025-01-20 08:05:49.266141	5.4	63.6	-95.1	0.0
2025-01-20 08:05:50.385330	5.1	64.0	-95.0	0.0
2025-01-20 08:05:51.505992	4.8	64.5	-94.7	0.0
2025-01-20 08:05:52.629730	4.5	64.9	-94.8	0.0
2025-01-20 08:05:53.751068	4.2	65.4	-94.6	0.0
2025-01-20 08:05:54.872335	3.9	65.9	-94.5	0.0
2025-01-20 08:05:55.994841	3.6	66.3	-94.8	0.0
2025-01-20 08:05:57.117235	3.2	66.8	-94.7	0.0
2025-01-20 08:05:58.240415	2.8	67.3	-95.0	0.0
2025-01-20 08:05:59.360376	2.4	67.8	-94.9	0.0
2025-01-20 08:06:00.481861	2.0	68.2	-95.1	0.0
2025-01-20 08:06:01.603416	1.6	68.7	-94.8	0.0
2025-01-20 08:06:02.722895	1.1	69.2	-94.6	0.0
2025-01-20 08:06:03.844231	0.6	69.7	-94.7	0.0
2025-01-20 08:06:04.965718	0.1	70.2	-95.0	0.0
2025-01-20 08:06:06.085872	359.6	70.6	-94.9	0.0
2025-01-20 08:06:07.206207	359.0	71.1	-94.6	0.0
2025-01-20 08:06:08.328414	358.4	71.6	-94.6	0.0
2025-01-20 08:06:09.447833	357.8	72.1	-94.8	0.0
2025-01-20 08:06:10.570463	357.2	72.6	-94.9	0.0
2025-01-20 08:06:11.692346	356.4	73.1	-94.8	0.0
2025-01-20 08:06:12.814081	355.7	73.5	-94.7	0.0
2025-01-20 08:06:13.936043	354.9	74.0	-94.8	0.0
2025-01-20 08:06:15.056986	354.1	74.5	-94.9	0.0
2025-01-20 08:06:16.177675	353.1	75.0	-94.9	0.0
2025-01-20 08:06:17.297841	352.2	75.5	-94.9	0.0
2025-01-20 08:06:18.417221	351.1	75.9	-94.9	0.0
2025-01-20 08:06:19.537498	350.0	76.4	-94.9	0.0
2025-01-20 08:06:20.656367	348.9	76.9	-94.8	0.0
2025-01-20 08:06:21.778446	347.6	77.3	-94.8	0.0
2025-01-20 08:06:22.899320	346.2	77.8	-94.7	0.0
2025-01-20 08:06:24.020253	344.7	78.2	-94.5	0.0
2025-01-20 08:06:25.143295	343.1	78.7	-94.8	0.0
2025-01-20 08:06:26.264926	341.3	79.1	-94.9	0.0
2025-01-20 08:06:27.385308	339.4	79.6	-94.7	0.0
2025-01-20 08:06:28.505575	337.4	80.0	-95.0	0.0
2025-01-20 08:06:29.628036	335.1	80.4	-94.7	0.0
2025-01-20 08:06:30.749478	332.7	80.8	-94.8	0.0
2025-01-20 08:06:31.871531	330.1	81.1	-94.8	0.0
2025-01-20 08:06:32.992733	327.2	81.5	-94.7	0.0
2025-01-20 08:06:34.111545	324.1	81.8	-94.8	0.0
2025-01-20 08:06:35.236526	320.7	82.1	-94.8	0.0
2025-01-20 08:06:36.356974	317.1	82.4	-94.8	0.0
2025-01-20 08:06:37.479265	313.3	82.6	-95.1	0.0
2025-01-20 08:06:38.599270	309.2	82.8	-94.8	0.0
2025-01-20 08:06:39.718845	304.8	83.0	-94.8	0.0
2025-01-20 08:06:40.840575	300.3	83.1	-95.0	0.0
2025-01-20 08:06:41.962874	295.6	83.2	-94.7	0.0
2025-01-20 08:06:43.083359	290.9	83.2	-94.9	0.0
2025-01-20 08:06:44.204653	286.1	83.2	-95.0	0.0
2025-01-20 08:06:45.324519	281.4	83.2	-94.9	0.0
2025-01-20 08:06:46.446518	276.8	83.1	-94.8	0.0
2025-01-20 08:06:47.566719	272.4	82.9	-94.8	0.0
2025-01-20 08:06:48.688249	268.2	82.7	-94.8	0.0
2025-01-20 08:06:49.809428	264.1	82.5	-94.9	0.0
2025-01-20 08:06:50.931216	260.4	82.3	-94.6	0.0
2025-01-20 08:06:52.052655	256.9	82.0	-94.5	0.0
2025-01-20 08:06:53.174813	253.6	81.7	-94.6	0.0
2025-01-20 08:06:54.295890	250.6	81.3	-94.7	0.0
2025-01-20 08:06:55.417141	247.9	81.0	-94.9	0.0
2025-01-20 08:06:56.537722	245.3	80.6	-94.6	0.0
2025-01-20 08:06:57.661664	243.0	80.2	-94.5	0.0
2025-01-20 08:06:58.781392	240.8	79.8	-94.7	0.0
2025-01-20 08:06:59.903990	238.9	79.4	-94.5	0.0
2025-01-20 08:07:01.025958	237.0	78.9	-94.6	0.0
2025-01-20 08:07:02.148695	235.3	78.5	-94.5	0.0
2025-01-20 08:07:03.273268	233.8	78.0	-94.5	0.0
2025-01-20 08:07:04.394822	232.3	77.6	-94.8	0.0
2025-01-20 08:07:05.516298	231.0	77.1	-94.8	0.0
2025-01-20 08:07:06.639125	229.8	76.7	-94.8	0.0
2025-01-20 08:07:07.761561	228.6	76.2	-95.0	0.0
2025-01-20 08:07:08.882478	227.5	75.7	-94.9	0.0
2025-01-20 08:07:10.006664	226.5	75.2	-94.8	0.0
2025-01-20 08:07:11.127328	225.6	74.8	-94.6	0.0
2025-01-20 08:07:12.249664	224.7	74.3	-94.9	0.0
2025-01-20 08:07:13.371359	223.9	73.8	-94.8	0.0
2025-01-20 08:07:14.493238	223.1	73.3	-94.6	0.0
2025-01-20 08:07:15.612076	222.4	72.8	-94.8	0.0
2025-01-20 08:07:16.733822	221.7	72.4	-94.8	0.0
2025-01-20 08:07:17.853081	221.0	71.9	-94.8	0.0
2025-01-20 08:07:18.973456	220.4	71.4	-94.3	0.0
2025-01-20 08:07:20.092835	219.9	70.9	-94.5	0.0
2025-01-20 08:07:21.213744	219.3	70.4	-94.8	0.0
2025-01-20 08:07:22.336365	218.8	69.9	-94.8	0.0
2025-01-20 08:07:23.456985	218.3	69.5	-94.4	0.0
2025-01-20 08:07:24.580846	217.8	69.0	-94.5	0.0
2025-01-20 08:07:25.701399	217.4	68.5	-94.7	0.0
2025-01-20 08:07:26.821279	217.0	68.0	-94.8	0.0
2025-01-20 08:07:27.940411	216.6	67.5	-94.6	0.0
2025-01-20 08:07:29.060929	216.2	67.1	-94.6	0.0
2025-01-20 08:07:30.181587	215.8	66.6	-94.6	0.0
2025-01-20 08:07:31.302505	215.4	66.1	-94.4	0.0
2025-01-20 08:07:32.422821	215.1	65.7	-94.6	0.0
2025-01-20 08:07:33.543815	214.8	65.2	-94.7	0.0
2025-01-20 08:07:34.662960	214.5	64.7	-94.6	0.0
2025-01-20 08:07:35.782720	214.2	64.3	-94.5	0.0
2025-01-20 08:07:36.904639	213.9	63.8	-94.5	0.0
2025-01-20 08:07:38.025279	213.6	63.3	-94.8	0.0
2025-01-20 08:07:39.144078	213.3	62.9	-94.8	0.0
2025-01-20 08:07:40.263553	213.1	62.4	-94.6	0.0
2025-01-20 08:07:41.384282	212.8	62.0	-94.5	0.0
2025-01-20 08:07:42.506932	212.6	61.5	-94.7	0.0
2025-01-20 08:07:43.625799	212.4	61.1	-94.8	0.0
2025-01-20 08:07:44.745417	212.2	60.7	-94.7	0.0
2025-01-20 08:07:45.866127	211.9	60.2	-94.4	0.0
2025-01-20 08:07:46.984586	211.7	59.8	-95.0	0.0
2025-01-20 08:07:48.105219	211.5	59.3	-94.8	0.0
2025-01-20 08:07:49.227394	211.4	58.9	-94.9	0.0
2025-01-20 08:07:50.350257	211.2	58.5	-94.9	0.0
2025-01-20 08:07:51.472895	211.0	58.0	-94.7	0.0
2025-01-20 08:07:52.593770	210.8	57.6	-94.6	0.0
2025-01-20 08:07:53.713596	210.6	57.2	-94.7	0.0
2025-01-20 08:07:54.834974	210.5	56.8	-94.7	0.0
2025-01-20 08:07:55.954285	210.3	56.4	-94.8	0.0
2025-01-20 08:07:57.075979	210.2	56.0	-94.8	0.0
2025-01-20 08:07:58.196361	210.0	55.5	-94.4	0.0
2025-01-20 08:07:59.316734	209.9	55.1	-94.6	0.0
2025-01-20 08:08:00.440162	209.7	54.7	-94.9	0.0
2025-01-20 08:08:01.560839	209.6	54.3	-95.0	0.0
2025-01-20 08:08:02.682070	209.5	53.9	-95.0	0.0
2025-01-20 08:08:03.803931	209.3	53.5	-94.6	0.0
2025-01-20 08:08:04.923802	209.2	53.1	-94.7	0.0
2025-01-20 08:08:06.046247	209.1	52.8	-95.1	0.0
2025-01-20 08:08:07.168207	209.0	52.4	-94.9	0.0
2025-01-20 08:08:08.287699	208.9	52.0	-95.0	0.0
2025-01-20 08:08:09.408892	208.7	51.6	-95.1	0.0
2025-01-20 08:08:10.529809	208.6	51.2	-94.8	0.0
2025-01-20 08:08:11.650697	208.5	50.9	-94.8	0.0
2025-01-20 08:08:12.773662	208.4	50.5	-94.9	0.0
2025-01-20 08:08:13.893380	208.3	50.1	-95.1	0.0
2025-01-20 08:08:15.014664	208.2	49.7	-95.0	0.0
2025-01-20 08:08:16.135979	208.1	49.4	-95.2	0.0
2025-01-20 08:08:17.256024	208.0	49.0	-95.0	0.0
2025-01-20 08:08:18.378817	207.9	48.7	-94.9	0.0
2025-01-20 08:08:19.498890	207.9	48.3	-95.1	0.0
2025-01-20 08:08:20.618013	207.8	48.0	-94.9	0.0
2025-01-20 08:08:21.738352	207.7	47.6	-94.8	0.0
2025-01-20 08:08:22.861113	207.6	47.3	-95.0	0.0
2025-01-20 08:08:23.982970	207.5	46.9	-95.1	0.0
2025-01-20 08:08:25.105759	207.4	46.6	-94.7	0.0
2025-01-20 08:08:26.225930	207.4	46.2	-94.9	0.0
2025-01-20 08:08:27.348843	207.3	45.9	-94.8	0.0
2025-01-20 08:08:28.470415	207.2	45.6	-94.7	0.0
2025-01-20 08:08:29.591249	207.1	45.2	-94.8	0.0
2025-01-20 08:08:30.712717	207.1	44.9	-95.0	0.0
2025-01-20 08:08:31.833026	207.0	44.6	-94.6	0.0
2025-01-20 08:08:32.951886	206.9	44.3	-94.7	0.0
2025-01-20 08:08:34.072845	206.9	43.9	-94.8	0.0
2025-01-20 08:08:35.193666	206.8	43.6	-94.7	0.0
2025-01-20 08:08:36.316054	206.7	43.3	-94.6	0.0
2025-01-20 08:08:37.437423	206.7	43.0	-94.6	0.0
2025-01-20 08:08:38.559521	206.6	42.7	-94.6	0.0
2025-01-20 08:08:39.679790	206.5	42.4	-95.0	0.0
2025-01-20 08:08:40.801806	206.5	42.1	-94.7	0.0
2025-01-20 08:08:41.923403	206.4	41.8	-94.7	0.0
2025-01-20 08:08:43.044864	206.4	41.5	-94.9	0.0
2025-01-20 08:08:44.166177	206.3	41.2	-94.9	0.0
2025-01-20 08:08:45.286195	206.3	40.9	-94.7	0.0
2025-01-20 08:08:46.407569	206.2	40.6	-94.6	0.0
2025-01-20 08:08:47.528589	206.2	40.3	-94.8	0.0
2025-01-20 08:08:48.648741	206.1	40.0	-94.9	0.0
2025-01-20 08:08:49.769427	206.1	39.7	-94.6	0.0
2025-01-20 08:08:50.888849	206.0	39.4	-94.6	0.0
2025-01-20 08:08:52.010259	206.0	39.2	-94.9	0.0
2025-01-20 08:08:53.128456	205.9	38.9	-94.8	0.0
2025-01-20 08:08:54.252492	205.9	38.6	-94.9	0.0
2025-01-20 08:08:55.373999	205.8	38.3	-94.8	0.0
2025-01-20 08:08:56.496054	205.8	38.0	-94.7	0.0
2025-01-20 08:08:57.618487	205.7	37.8	-94.5	0.0
2025-01-20 08:08:58.738256	205.7	37.5	-95.0	0.0
2025-01-20 08:08:59.857906	205.6	37.2	-94.8	0.0
2025-01-20 08:09:00.979046	205.6	37.0	-94.9	0.0
2025-01-20 08:09:02.099246	205.6	36.7	-94.9	0.0
2025-01-20 08:09:03.217675	205.5	36.5	-94.8	0.0
2025-01-20 08:09:04.340324	205.5	36.2	-95.0	0.0
2025-01-20 08:09:05.460736	205.4	35.9	-94.9	0.0
2025-01-20 08:09:06.580720	205.4	35.7	-94.8	0.0
2025-01-20 08:09:07.702812	205.4	35.4	-94.9	0.0
2025-01-20 08:09:08.824169	205.3	35.2	-94.9	0.0
2025-01-20 08:09:09.945653	205.3	34.9	-94.9	0.0
2025-01-20 08:09:11.065596	205.2	34.7	-95.0	0.0
2025-01-20 08:09:12.187414	205.2	34.4	-95.0	0.0
2025-01-20 08:09:13.307720	205.2	34.2	-94.9	0.0
2025-01-20 08:09:14.428770	205.1	34.0	-94.7	0.0
2025-01-20 08:09:15.549011	205.1	33.7	-94.9	0.0
2025-01-20 08:09:16.669584	205.1	33.5	-94.8	0.0
2025-01-20 08:09:17.792503	205.0	33.3	-94.7	0.0
2025-01-20 08:09:18.912151	205.0	33.0	-94.8	0.0
2025-01-20 08:09:20.034605	205.0	32.8	-94.8	0.0
2025-01-20 08:09:21.154705	204.9	32.6	-94.8	0.0
2025-01-20 08:09:22.276039	204.9	32.3	-94.6	0.0
2025-01-20 08:09:23.396108	204.9	32.1	-94.7	0.0
2025-01-20 08:09:24.518031	204.9	31.9	-94.9	0.0
2025-01-20 08:09:25.639644	204.8	31.7	-94.6	0.0
2025-01-20 08:09:26.760680	204.8	31.4	-94.8	0.0
2025-01-20 08:09:27.882207	204.8	31.2	-94.8	0.0
2025-01-20 08:09:29.003095	204.7	31.0	-94.9	0.0
2025-01-20 08:09:30.123265	204.7	30.8	-94.8	0.0
2025-01-20 08:09:31.244481	204.7	30.6	-94.7	0.0
2025-01-20 08:09:32.366294	204.7	30.3	-94.7	0.0
2025-01-20 08:09:33.487761	204.6	30.1	-94.7	0.0
2025-01-20 08:09:34.608905	204.6	29.9	-94.7	0.0
2025-01-20 08:09:35.730167	204.6	29.7	-94.8	0.0
2025-01-20 08:09:36.850744	204.5	29.5	-94.7	0.0
2025-01-20 08:09:37.970737	204.5	29.3	-94.6	0.0
2025-01-20 08:09:39.092161	204.5	29.1	-94.5	0.0
2025-01-20 08:09:40.211968	204.5	28.9	-94.8	0.0
2025-01-20 08:09:41.331243	204.5	28.7	-94.8	0.0
2025-01-20 08:09:42.451140	204.4	28.5	-94.7	0.0
2025-01-20 08:09:43.570119	204.4	28.3	-94.5	0.0
2025-01-20 08:09:44.690254	204.4	28.1	-94.5	0.0
2025-01-20 08:09:45.810159	204.4	27.9	-94.7	0.0
2025-01-20 08:09:46.931240	204.3	27.7	-94.8	0.0
2025-01-20 08:09:48.052742	204.3	27.5	-94.6	0.0
2025-01-20 08:09:49.174005	204.3	27.3	-94.4	0.0
2025-01-20 08:09:50.294854	204.3	27.1	-94.6	0.0
2025-01-20 08:09:51.413422	204.2	26.9	-94.9	0.0
2025-01-20 08:09:52.535529	204.2	26.8	-94.6	0.0
2025-01-20 08:09:53.656579	204.2	26.6	-94.4	0.0
2025-01-20 08:09:54.779477	204.2	26.4	-94.6	0.0
2025-01-20 08:09:55.900420	204.2	26.2	-94.6	0.0
2025-01-20 08:09:57.020741	204.1	26.0	-94.6	0.0
2025-01-20 08:09:58.143269	204.1	25.8	-94.6	0.0
2025-01-20 08:09:59.267021	204.1	25.7	-94.6	0.0
2025-01-20 08:10:00.387294	204.1	25.5	-95.0	0.0
2025-01-20 08:10:01.508505	204.1	25.3	-94.9	0.0
2025-01-20 08:10:02.628183	204.1	25.1	-94.7	0.0
2025-01-20 08:10:03.748940	204.0	24.9	-94.7	0.0
2025-01-20 08:10:04.871588	204.0	24.8	-94.8	0.0
2025-01-20 08:10:05.993721	204.0	24.6	-94.9	0.0
2025-01-20 08:10:07.116471	204.0	24.4	-94.6	0.0
2025-01-20 08:10:08.238539	204.0	24.3	-94.8	0.0
2025-01-20 08:10:09.360912	203.9	24.1	-94.9	0.0
2025-01-20 08:10:10.482351	203.9	23.9	-94.7	0.0
2025-01-20 08:10:11.602858	203.9	23.7	-94.7	0.0
2025-01-20 08:10:12.723822	203.9	23.6	-94.9	0.0
2025-01-20 08:10:13.844773	203.9	23.4	-94.8	0.0
2025-01-20 08:10:14.966905	203.9	23.2	-95.1	0.0
2025-01-20 08:10:16.088805	203.8	23.1	-94.7	0.0
2025-01-20 08:10:17.210303	203.8	22.9	-94.8	0.0
2025-01-20 08:10:18.331525	203.8	22.8	-94.8	0.0
2025-01-20 08:10:19.453013	203.8	22.6	-94.8	0.0
2025-01-20 08:10:20.573617	203.8	22.4	-94.8	0.0
2025-01-20 08:10:21.695883	203.8	22.3	-94.9	0.0
2025-01-20 08:10:22.816910	203.8	22.1	-95.1	0.0
2025-01-20 08:10:23.939709	203.7	22.0	-95.0	0.0
2025-01-20 08:10:25.062708	203.7	21.8	-94.8	0.0
2025-01-20 08:10:26.183741	203.7	21.7	-94.8	0.0
2025-01-20 08:10:27.303334	203.7	21.5	-94.7	0.0
2025-01-20 08:10:28.424783	203.7	21.3	-94.7	0.0
2025-01-20 08:10:29.546837	203.7	21.2	-95.0	0.0
2025-01-20 08:10:30.668888	203.7	21.0	-94.9	0.0
2025-01-20 08:10:31.790118	203.6	20.9	-95.1	0.0
2025-01-20 08:10:32.912250	203.6	20.7	-94.9	0.0
2025-01-20 08:10:34.031825	203.6	20.6	-94.7	0.0
2025-01-20 08:10:35.153591	203.6	20.4	-94.6	0.0
2025-01-20 08:10:36.275823	203.6	20.3	-94.6	0.0
2025-01-20 08:10:37.396585	203.6	20.2	-94.5	0.0
2025-01-20 08:10:38.516335	203.6	20.0	-94.7	0.0
2025-01-20 08:10:39.638770	203.6	19.9	-94.6	0.0
2025-01-20 08:10:40.761330	203.5	19.7	-94.7	0.0
2025-01-20 08:10:41.884845	203.5	19.6	-94.5	0.0
2025-01-20 08:10:43.005037	203.5	19.4	-94.6	0.0
2025-01-20 08:10:44.123912	203.5	19.3	-94.9	0.0
2025-01-20 08:10:45.243762	203.5	19.2	-94.9	0.0
2025-01-20 08:10:46.363663	203.5	19.0	-94.7	0.0
2025-01-20 08:10:47.484721	203.5	18.9	-94.5	0.0
2025-01-20 08:10:48.606965	203.5	18.7	-94.5	0.0
2025-01-20 08:10:49.728140	203.4	18.6	-94.7	0.0
2025-01-20 08:10:50.850579	203.4	18.5	-95.1	0.0
2025-01-20 08:10:51.972955	203.4	18.3	-95.1	0.0
2025-01-20 08:10:53.093854	203.4	18.2	-94.9	0.0
2025-01-20 08:10:54.212738	203.4	18.1	-94.8	0.0
2025-01-20 08:10:55.333311	203.4	17.9	-94.8	0.0
2025-01-20 08:10:56.453654	203.4	17.8	-94.9	0.0
2025-01-20 08:10:57.573812	203.4	17.7	-95.1	0.0
2025-01-20 08:10:58.694202	203.4	17.5	-94.7	0.0
2025-01-20 08:10:59.814860	203.4	17.4	-94.9	0.0
2025-01-20 08:11:00.936306	203.3	17.3	-94.8	0.0
2025-01-20 08:11:02.055888	203.3	17.1	-95.0	0.0
2025-01-20 08:11:03.178395	203.3	17.0	-95.0	0.0
2025-01-20 08:11:04.300132	203.3	16.9	-94.9	0.0
2025-01-20 08:11:05.421680	203.3	16.8	-95.0	0.0
2025-01-20 08:11:06.543029	203.3	16.6	-94.9	0.0
2025-01-20 08:11:07.664060	203.3	16.5	-95.1	0.0
2025-01-20 08:11:08.784755	203.3	16.4	-95.0	0.0
2025-01-20 08:11:09.906511	203.3	16.3	-94.9	0.0
2025-01-20 08:11:11.026533	203.3	16.1	-95.0	0.0
2025-01-20 08:11:12.147489	203.2	16.0	-94.9	0.0
2025-01-20 08:11:13.269728	203.2	15.9	-94.9	0.0
2025-01-20 08:11:14.392410	203.2	15.8	-94.9	0.0
2025-01-20 08:11:15.512475	203.2	15.6	-95.2	0.0
2025-01-20 08:11:16.633857	203.2	15.5	-94.8	0.0
2025-01-20 08:11:17.754403	203.2	15.4	-94.8	0.0
2025-01-20 08:11:18.876540	203.2	15.3	-94.7	0.0
2025-01-20 08:11:19.997055	203.2	15.2	-94.9	0.0
2025-01-20 08:11:21.116615	203.2	15.0	-94.6	0.0
2025-01-20 08:11:22.237384	203.2	14.9	-94.8	0.0
2025-01-20 08:11:23.358762	203.2	14.8	-94.8	0.0
2025-01-20 08:11:24.481048	203.2	14.7	-94.8	0.0
2025-01-20 08:11:25.603586	203.1	14.6	-95.0	0.0
2025-01-20 08:11:26.723141	203.1	14.5	-94.8	0.0
2025-01-20 08:11:27.844017	203.1	14.3	-94.6	0.0
2025-01-20 08:11:28.966719	203.1	14.2	-94.4	0.0
2025-01-20 08:11:30.087026	203.1	14.1	-94.8	0.0
2025-01-20 08:11:31.206114	203.1	14.0	-95.0	0.0
2025-01-20 08:11:32.326807	203.1	13.9	-94.9	0.0
2025-01-20 08:11:33.447798	203.1	13.8	-94.7	0.0
2025-01-20 08:11:34.567785	203.1	13.7	-94.8	0.0
2025-01-20 08:11:35.688402	203.1	13.5	-94.8	0.0
2025-01-20 08:11:36.810620	203.1	13.4	-94.8	0.0
2025-01-20 08:11:37.930118	203.1	13.3	-94.6	0.0
2025-01-20 08:11:39.050455	203.1	13.2	-94.9	0.0
2025-01-20 08:11:40.171532	203.1	13.1	-94.9	0.0
2025-01-20 08:11:41.292931	203.0	13.0	-94.7	0.0
2025-01-20 08:11:42.413881	203.0	12.9	-94.7	0.0
2025-01-20 08:11:43.534625	203.0	12.8	-94.8	0.0
2025-01-20 08:11:44.657162	203.0	12.7	-94.9	0.0
2025-01-20 08:11:45.776835	203.0	12.6	-95.0	0.0
2025-01-20 08:11:46.898611	203.0	12.5	-94.7	0.0
2025-01-20 08:11:48.020385	203.0	12.3	-94.8	0.0
2025-01-20 08:11:49.141023	203.0	12.2	-95.0	0.0
2025-01-20 08:11:50.259679	203.0	12.1	-94.9	0.0
2025-01-20 08:11:51.380674	203.0	12.0	-94.8	0.0
2025-01-20 08:11:52.501103	203.0	11.9	-94.8	0.0
2025-01-20 08:11:53.621146	203.0	11.8	-94.9	0.0
2025-01-20 08:11:54.744500	203.0	11.7	-94.5	0.0
2025-01-20 08:11:55.866440	203.0	11.6	-94.9	0.0
2025-01-20 08:11:56.986975	203.0	11.5	-94.8	0.0
2025-01-20 08:11:58.107928	203.0	11.4	-95.1	0.0
2025-01-20 08:11:59.228144	202.9	11.3	-95.0	0.0
2025-01-20 08:12:00.349165	202.9	11.2	-94.7	0.0
2025-01-20 08:12:01.469761	202.9	11.1	-94.8	0.0
2025-01-20 08:12:02.590016	202.9	11.0	-94.8	0.0
2025-01-20 08:12:03.712728	202.9	10.9	-95.1	0.0
2025-01-20 08:12:04.833992	202.9	10.8	-95.1	0.0
2025-01-20 08:12:05.954210	202.9	10.7	-94.8	0.0
2025-01-20 08:12:07.077211	202.9	10.6	-94.9	0.0
2025-01-20 08:12:08.198842	202.9	10.5	-95.1	0.0
2025-01-20 08:12:09.319683	202.9	10.4	-95.0	0.0
2025-01-20 08:12:10.441257	202.9	10.3	-95.3	0.0
2025-01-20 08:12:11.561571	202.9	10.2	-95.1	0.0
2025-01-20 08:12:12.683395	202.9	10.1	-95.0	0.0
#Closed at: 2025-01-20 08:01:07.392921