passes_logs/2025/01/20/planumMaritime01/planumMaritime01__20250120_131954_METEOR-M2_2_rec.log

#Pass ID: 20250120_131954_METEOR-M2 2
#Satellite: METEOR-M2 2
#Configuration: METEOR-M2 2
#Start time: 2025-01-20 13:19:59.811051

#LorettStation: 1.0.0 05.05.2024
#Station: planumMaritime01
#Location: 37.49445 lon 55.92918 lat
#TLE: 1 44387U 19038A   25019.21327867  .00000321  00000+0  15932-3 0  9998
#TLE: 2 44387  98.8573 355.6430 0002257  72.4885 287.6540 14.24119873288138

#Time	Az	El	Level	SNR
2025-01-20 13:20:01.971850	198.6	10.2	-78.0	0.0
2025-01-20 13:20:03.095846	198.7	10.3	-78.4	0.0
2025-01-20 13:20:04.218716	198.8	10.3	-78.7	0.0
2025-01-20 13:20:05.339135	198.9	10.4	-78.7	0.0
2025-01-20 13:20:06.463368	199.0	10.5	-78.6	0.0
2025-01-20 13:20:07.587870	199.1	10.6	-78.5	0.0
2025-01-20 13:20:08.709225	199.2	10.7	-78.7	0.0
2025-01-20 13:20:09.830968	199.3	10.8	-78.2	0.0
2025-01-20 13:20:10.952734	199.4	10.9	-78.2	0.0
2025-01-20 13:20:12.074300	199.5	11.0	-78.4	0.0
2025-01-20 13:20:13.198474	199.6	11.1	-79.1	0.0
2025-01-20 13:20:14.324719	199.7	11.2	-78.4	0.0
2025-01-20 13:20:15.447336	199.8	11.3	-78.5	0.0
2025-01-20 13:20:16.571621	199.9	11.3	-78.5	0.0
2025-01-20 13:20:17.695763	200.0	11.4	-78.1	0.0
2025-01-20 13:20:18.821690	200.1	11.5	-78.9	0.0
2025-01-20 13:20:19.944745	200.2	11.6	-78.7	0.0
2025-01-20 13:20:21.068270	200.3	11.7	-78.8	0.0
2025-01-20 13:20:22.193219	200.4	11.8	-78.5	0.0
2025-01-20 13:20:23.314864	200.5	11.9	-78.8	0.0
2025-01-20 13:20:24.437895	200.6	12.0	-78.4	0.0
2025-01-20 13:20:25.560166	200.7	12.1	-78.8	0.0
2025-01-20 13:20:26.682065	200.8	12.2	-78.8	0.0
2025-01-20 13:20:27.804305	200.9	12.3	-78.4	0.0
2025-01-20 13:20:28.928495	201.0	12.4	-77.3	0.0
2025-01-20 13:20:30.052120	201.1	12.5	-78.2	0.0
2025-01-20 13:20:31.176848	201.2	12.6	-78.7	0.0
2025-01-20 13:20:32.300155	201.4	12.7	-78.9	0.0
2025-01-20 13:20:33.422939	201.5	12.8	-78.9	0.0
2025-01-20 13:20:34.544321	201.6	12.9	-79.0	0.0
2025-01-20 13:20:35.666270	201.7	12.9	-78.9	0.0
2025-01-20 13:20:36.788984	201.8	13.0	-79.0	0.0
2025-01-20 13:20:37.911921	201.9	13.1	-79.1	0.0
2025-01-20 13:20:39.035891	202.0	13.2	-79.1	0.0
2025-01-20 13:20:40.159504	202.2	13.3	-78.9	0.0
2025-01-20 13:20:41.282653	202.3	13.4	-79.1	0.0
2025-01-20 13:20:42.404743	202.4	13.5	-79.3	0.0
2025-01-20 13:20:43.527816	202.5	13.6	-78.8	0.0
2025-01-20 13:20:44.652196	202.6	13.7	-79.0	0.0
2025-01-20 13:20:45.775194	202.7	13.8	-79.3	0.0
2025-01-20 13:20:46.898323	202.9	13.9	-78.9	0.0
2025-01-20 13:20:48.021455	203.0	14.0	-79.4	0.0
2025-01-20 13:20:49.141650	203.1	14.1	-79.3	0.0
2025-01-20 13:20:50.266699	203.2	14.2	-79.3	0.0
2025-01-20 13:20:51.390211	203.4	14.3	-79.3	0.0
2025-01-20 13:20:52.513716	203.5	14.4	-79.4	0.0
2025-01-20 13:20:53.637473	203.6	14.5	-79.5	0.0
2025-01-20 13:20:54.760785	203.7	14.6	-79.6	0.0
2025-01-20 13:20:55.884597	203.9	14.7	-79.2	0.0
2025-01-20 13:20:57.008569	204.0	14.8	-79.2	0.0
2025-01-20 13:20:58.129969	204.1	14.9	-79.4	0.0
2025-01-20 13:20:59.253416	204.3	15.0	-79.6	0.0
2025-01-20 13:21:00.374535	204.4	15.1	-79.5	0.0
2025-01-20 13:21:01.498601	204.5	15.3	-79.5	0.0
2025-01-20 13:21:02.622035	204.7	15.4	-79.0	0.0
2025-01-20 13:21:03.744472	204.8	15.5	-79.3	0.0
2025-01-20 13:21:04.867100	204.9	15.6	-79.1	0.0
2025-01-20 13:21:05.991361	205.1	15.7	-79.1	0.0
2025-01-20 13:21:07.113143	205.2	15.8	-79.4	0.0
2025-01-20 13:21:08.237248	205.3	15.9	-79.8	0.0
2025-01-20 13:21:09.360433	205.5	16.0	-79.8	0.0
2025-01-20 13:21:10.482325	205.6	16.1	-79.4	0.0
2025-01-20 13:21:11.605452	205.7	16.2	-79.5	0.0
2025-01-20 13:21:12.729380	205.9	16.3	-79.8	0.0
2025-01-20 13:21:13.851941	206.0	16.4	-79.4	0.0
2025-01-20 13:21:14.974900	206.2	16.5	-79.8	0.0
2025-01-20 13:21:16.098564	206.3	16.6	-79.4	0.0
2025-01-20 13:21:17.221425	206.5	16.7	-79.4	0.0
2025-01-20 13:21:18.345082	206.6	16.8	-79.5	0.0
2025-01-20 13:21:19.467888	206.8	17.0	-79.5	0.0
2025-01-20 13:21:20.592063	206.9	17.1	-79.3	0.0
2025-01-20 13:21:21.716981	207.1	17.2	-79.2	0.0
2025-01-20 13:21:22.838406	207.2	17.3	-79.3	0.0
2025-01-20 13:21:23.961335	207.4	17.4	-79.2	0.0
2025-01-20 13:21:25.083070	207.5	17.5	-79.8	0.0
2025-01-20 13:21:26.206279	207.7	17.6	-79.5	0.0
2025-01-20 13:21:27.329963	207.8	17.7	-79.4	0.0
2025-01-20 13:21:28.454391	208.0	17.8	-78.9	0.0
2025-01-20 13:21:29.575603	208.1	17.9	-78.6	0.0
2025-01-20 13:21:30.698972	208.3	18.1	-78.7	0.0
2025-01-20 13:21:31.822877	208.5	18.2	-79.0	0.0
2025-01-20 13:21:32.944185	208.6	18.3	-79.0	0.0
2025-01-20 13:21:34.065498	208.8	18.4	-79.3	0.0
2025-01-20 13:21:35.187981	208.9	18.5	-79.2	0.0
2025-01-20 13:21:36.309304	209.1	18.6	-79.6	0.0
2025-01-20 13:21:37.432805	209.3	18.7	-80.1	0.0
2025-01-20 13:21:38.552788	209.4	18.8	-79.4	0.0
2025-01-20 13:21:39.673636	209.6	19.0	-79.3	0.0
2025-01-20 13:21:40.795991	209.8	19.1	-78.9	0.0
2025-01-20 13:21:41.919003	209.9	19.2	-78.6	0.0
2025-01-20 13:21:43.041068	210.1	19.3	-78.7	0.0
2025-01-20 13:21:44.165047	210.3	19.4	-78.4	0.0
2025-01-20 13:21:45.290076	210.5	19.5	-78.8	0.0
2025-01-20 13:21:46.413826	210.6	19.6	-79.6	0.0
2025-01-20 13:21:47.534785	210.8	19.8	-78.9	0.0
2025-01-20 13:21:48.657768	211.0	19.9	-79.5	0.0
2025-01-20 13:21:49.781992	211.2	20.0	-79.5	0.0
2025-01-20 13:21:50.905123	211.3	20.1	-79.9	0.0
2025-01-20 13:21:52.028021	211.5	20.2	-79.3	0.0
2025-01-20 13:21:53.152624	211.7	20.3	-79.7	0.0
2025-01-20 13:21:54.275750	211.9	20.5	-79.6	0.0
2025-01-20 13:21:55.397306	212.1	20.6	-80.0	0.0
2025-01-20 13:21:56.520820	212.3	20.7	-79.8	0.0
2025-01-20 13:21:57.643234	212.5	20.8	-80.1	0.0
2025-01-20 13:21:58.766216	212.6	20.9	-79.6	0.0
2025-01-20 13:21:59.889360	212.8	21.1	-79.9	0.0
2025-01-20 13:22:01.010605	213.0	21.2	-79.9	0.0
2025-01-20 13:22:02.133752	213.2	21.3	-79.5	0.0
2025-01-20 13:22:03.258100	213.4	21.4	-79.6	0.0
2025-01-20 13:22:04.379809	213.6	21.5	-79.1	0.0
2025-01-20 13:22:05.503284	213.8	21.7	-79.4	0.0
2025-01-20 13:22:06.624907	214.0	21.8	-79.5	0.0
2025-01-20 13:22:07.745209	214.2	21.9	-79.7	0.0
2025-01-20 13:22:08.867826	214.4	22.0	-80.0	0.0
2025-01-20 13:22:09.990734	214.6	22.1	-79.3	0.0
2025-01-20 13:22:11.111800	214.8	22.3	-78.9	0.0
2025-01-20 13:22:12.236169	215.0	22.4	-79.8	0.0
2025-01-20 13:22:13.359717	215.3	22.5	-78.9	0.0
2025-01-20 13:22:14.482361	215.5	22.6	-79.3	0.0
2025-01-20 13:22:15.606617	215.7	22.7	-79.9	0.0
2025-01-20 13:22:16.730441	215.9	22.9	-79.1	0.0
2025-01-20 13:22:17.853983	216.1	23.0	-79.1	0.0
2025-01-20 13:22:18.976907	216.3	23.1	-79.6	0.0
2025-01-20 13:22:20.099283	216.6	23.2	-78.9	0.0
2025-01-20 13:22:21.220522	216.8	23.4	-78.7	0.0
2025-01-20 13:22:22.343576	217.0	23.5	-80.0	0.0
2025-01-20 13:22:23.468114	217.2	23.6	-79.3	0.0
2025-01-20 13:22:24.591837	217.5	23.7	-79.9	0.0
2025-01-20 13:22:25.714842	217.7	23.9	-79.1	0.0
2025-01-20 13:22:26.837275	217.9	24.0	-80.0	0.0
2025-01-20 13:22:27.959019	218.1	24.1	-79.8	0.0
2025-01-20 13:22:29.079483	218.4	24.2	-79.5	0.0
2025-01-20 13:22:30.202608	218.6	24.3	-80.0	0.0
2025-01-20 13:22:31.324820	218.8	24.5	-79.7	0.0
2025-01-20 13:22:32.451127	219.1	24.6	-79.2	0.0
2025-01-20 13:22:33.572790	219.3	24.7	-78.5	0.0
2025-01-20 13:22:34.697497	219.6	24.8	-80.0	0.0
2025-01-20 13:22:35.821062	219.8	25.0	-78.9	0.0
2025-01-20 13:22:36.946102	220.1	25.1	-80.0	0.0
2025-01-20 13:22:38.069365	220.3	25.2	-79.2	0.0
2025-01-20 13:22:39.193836	220.6	25.3	-78.7	0.0
2025-01-20 13:22:40.318612	220.8	25.5	-80.2	0.0
2025-01-20 13:22:41.440434	221.1	25.6	-80.0	0.0
2025-01-20 13:22:42.563235	221.3	25.7	-79.4	0.0
2025-01-20 13:22:43.687161	221.6	25.8	-80.2	0.0
2025-01-20 13:22:44.809367	221.8	26.0	-79.4	0.0
2025-01-20 13:22:45.930214	222.1	26.1	-79.5	0.0
2025-01-20 13:22:47.053103	222.4	26.2	-79.2	0.0
2025-01-20 13:22:48.176269	222.6	26.3	-80.1	0.0
2025-01-20 13:22:49.297180	222.9	26.5	-79.6	0.0
2025-01-20 13:22:50.420447	223.2	26.6	-79.9	0.0
2025-01-20 13:22:51.542139	223.5	26.7	-80.5	0.0
2025-01-20 13:22:52.666812	223.7	26.8	-80.4	0.0
2025-01-20 13:22:53.790358	224.0	27.0	-80.4	0.0
2025-01-20 13:22:54.913516	224.3	27.1	-80.0	0.0
2025-01-20 13:22:56.036628	224.6	27.2	-80.1	0.0
2025-01-20 13:22:57.159098	224.9	27.3	-80.2	0.0
2025-01-20 13:22:58.281906	225.1	27.4	-80.7	0.0
2025-01-20 13:22:59.402506	225.4	27.6	-80.5	0.0
2025-01-20 13:23:00.525992	225.7	27.7	-80.8	0.0
2025-01-20 13:23:01.649578	226.0	27.8	-80.7	0.0
2025-01-20 13:23:02.772597	226.3	27.9	-81.1	0.0
2025-01-20 13:23:03.893382	226.6	28.1	-81.0	0.0
2025-01-20 13:23:05.016884	226.9	28.2	-81.2	0.0
2025-01-20 13:23:06.140204	227.2	28.3	-80.9	0.0
2025-01-20 13:23:07.261735	227.5	28.4	-80.9	0.0
2025-01-20 13:23:08.386674	227.8	28.5	-81.1	0.0
2025-01-20 13:23:09.508930	228.1	28.7	-81.1	0.0
2025-01-20 13:23:10.631171	228.4	28.8	-81.0	0.0
2025-01-20 13:23:11.755335	228.7	28.9	-80.4	0.0
2025-01-20 13:23:12.880694	229.1	29.0	-81.3	0.0
2025-01-20 13:23:14.004740	229.4	29.1	-81.1	0.0
2025-01-20 13:23:15.128187	229.7	29.3	-81.0	0.0
2025-01-20 13:23:16.252496	230.0	29.4	-80.8	0.0
2025-01-20 13:23:17.375656	230.3	29.5	-81.1	0.0
2025-01-20 13:23:18.498043	230.7	29.6	-80.6	0.0
2025-01-20 13:23:19.620342	231.0	29.7	-80.4	0.0
2025-01-20 13:23:20.741119	231.3	29.8	-80.1	0.0
2025-01-20 13:23:21.866783	231.7	30.0	-81.1	0.0
2025-01-20 13:23:22.991588	232.0	30.1	-81.3	0.0
2025-01-20 13:23:24.115926	232.3	30.2	-81.0	0.0
2025-01-20 13:23:25.238601	232.7	30.3	-81.3	0.0
2025-01-20 13:23:26.363205	233.0	30.4	-81.4	0.0
2025-01-20 13:23:27.484586	233.4	30.5	-81.3	0.0
2025-01-20 13:23:28.607127	233.7	30.6	-81.3	0.0
2025-01-20 13:23:29.731166	234.1	30.7	-81.2	0.0
2025-01-20 13:23:30.857465	234.4	30.9	-81.3	0.0
2025-01-20 13:23:31.980391	234.8	31.0	-81.3	0.0
2025-01-20 13:23:33.104244	235.1	31.1	-81.4	0.0
2025-01-20 13:23:34.226498	235.5	31.2	-81.1	0.0
2025-01-20 13:23:35.347894	235.8	31.3	-81.1	0.0
2025-01-20 13:23:36.469492	236.2	31.4	-81.4	0.0
2025-01-20 13:23:37.592739	236.6	31.5	-81.3	0.0
2025-01-20 13:23:38.713873	236.9	31.6	-81.2	0.0
2025-01-20 13:23:39.836827	237.3	31.7	-81.3	0.0
2025-01-20 13:23:40.960132	237.7	31.8	-81.3	0.0
2025-01-20 13:23:42.083010	238.1	31.9	-81.3	0.0
2025-01-20 13:23:43.206315	238.4	32.0	-81.5	0.0
2025-01-20 13:23:44.331016	238.8	32.1	-81.5	0.0
2025-01-20 13:23:45.454645	239.2	32.2	-81.9	0.0
2025-01-20 13:23:46.579144	239.6	32.3	-81.7	0.0
2025-01-20 13:23:47.701854	240.0	32.4	-81.7	0.0
2025-01-20 13:23:48.822997	240.4	32.5	-81.6	0.0
2025-01-20 13:23:49.947543	240.8	32.6	-81.7	0.0
2025-01-20 13:23:51.071598	241.2	32.7	-81.6	0.0
2025-01-20 13:23:52.194705	241.6	32.8	-81.7	0.0
2025-01-20 13:23:53.321873	242.0	32.9	-81.7	0.0
2025-01-20 13:23:54.443756	242.4	33.0	-81.5	0.0
2025-01-20 13:23:55.570115	242.8	33.0	-81.7	0.0
2025-01-20 13:23:56.693584	243.2	33.1	-81.8	0.0
2025-01-20 13:23:57.818962	243.6	33.2	-81.7	0.0
2025-01-20 13:23:58.939919	244.0	33.3	-82.0	0.0
2025-01-20 13:24:00.063295	244.4	33.4	-81.8	0.0
2025-01-20 13:24:01.189507	244.8	33.5	-81.8	0.0
2025-01-20 13:24:02.310138	245.2	33.5	-82.0	0.0
2025-01-20 13:24:03.434182	245.6	33.6	-81.9	0.0
2025-01-20 13:24:04.560769	246.1	33.7	-81.9	0.0
2025-01-20 13:24:05.683700	246.5	33.8	-81.9	0.0
2025-01-20 13:24:06.805855	246.9	33.8	-82.0	0.0
2025-01-20 13:24:07.928229	247.3	33.9	-81.7	0.0
2025-01-20 13:24:09.050132	247.7	34.0	-81.8	0.0
2025-01-20 13:24:10.171892	248.2	34.1	-81.9	0.0
2025-01-20 13:24:11.294038	248.6	34.1	-81.7	0.0
2025-01-20 13:24:12.415771	249.0	34.2	-81.6	0.0
2025-01-20 13:24:13.537099	249.5	34.3	-81.7	0.0
2025-01-20 13:24:14.660552	249.9	34.3	-81.8	0.0
2025-01-20 13:24:15.787568	250.3	34.4	-81.9	0.0
2025-01-20 13:24:16.908269	250.8	34.4	-81.6	0.0
2025-01-20 13:24:18.032567	251.2	34.5	-81.8	0.0
2025-01-20 13:24:19.156219	251.7	34.6	-81.3	0.0
2025-01-20 13:24:20.281299	252.1	34.6	-81.4	0.0
2025-01-20 13:24:21.405162	252.6	34.7	-81.6	0.0
2025-01-20 13:24:22.528991	253.0	34.7	-81.9	0.0
2025-01-20 13:24:23.653005	253.4	34.8	-81.9	0.0
2025-01-20 13:24:24.775636	253.9	34.8	-79.9	0.0
2025-01-20 13:24:25.897931	254.3	34.8	-81.9	0.0
2025-01-20 13:24:27.022852	254.8	34.9	-81.9	0.0
2025-01-20 13:24:28.144076	255.2	34.9	-81.7	0.0
2025-01-20 13:24:29.267679	255.7	35.0	-81.7	0.0
2025-01-20 13:24:30.390632	256.2	35.0	-81.8	0.0
2025-01-20 13:24:31.516810	256.6	35.0	-81.9	0.0
2025-01-20 13:24:32.639006	257.1	35.1	-81.6	0.0
2025-01-20 13:24:33.763537	257.5	35.1	-81.5	0.0
2025-01-20 13:24:34.887497	258.0	35.1	-81.6	0.0
2025-01-20 13:24:36.011633	258.4	35.2	-81.7	0.0
2025-01-20 13:24:37.137040	258.9	35.2	-81.6	0.0
2025-01-20 13:24:38.261579	259.4	35.2	-81.8	0.0
2025-01-20 13:24:39.384838	259.8	35.2	-81.7	0.0
2025-01-20 13:24:40.508022	260.3	35.3	-81.2	0.0
2025-01-20 13:24:41.630719	260.7	35.3	-81.7	0.0
2025-01-20 13:24:42.755212	261.2	35.3	-81.5	0.0
2025-01-20 13:24:43.879323	261.7	35.3	-81.5	0.0
2025-01-20 13:24:45.002333	262.1	35.3	-81.7	0.0
2025-01-20 13:24:46.125456	262.6	35.3	-81.6	0.0
2025-01-20 13:24:47.250097	263.1	35.3	-81.7	0.0
2025-01-20 13:24:48.374293	263.5	35.3	-81.7	0.0
2025-01-20 13:24:49.496015	264.0	35.3	-81.4	0.0
2025-01-20 13:24:50.618081	264.4	35.3	-81.5	0.0
2025-01-20 13:24:51.740251	264.9	35.3	-81.5	0.0
2025-01-20 13:24:52.863508	265.4	35.3	-81.7	0.0
2025-01-20 13:24:53.987028	265.8	35.3	-81.6	0.0
2025-01-20 13:24:55.109953	266.3	35.3	-81.4	0.0
2025-01-20 13:24:56.231894	266.8	35.3	-81.7	0.0
2025-01-20 13:24:57.354919	267.2	35.3	-81.7	0.0
2025-01-20 13:24:58.477196	267.7	35.3	-81.6	0.0
2025-01-20 13:24:59.600787	268.1	35.3	-81.7	0.0
2025-01-20 13:25:00.725137	268.6	35.2	-81.5	0.0
2025-01-20 13:25:01.849117	269.1	35.2	-81.4	0.0
2025-01-20 13:25:02.972389	269.5	35.2	-81.4	0.0
2025-01-20 13:25:04.096284	270.0	35.2	-81.5	0.0
2025-01-20 13:25:05.219221	270.4	35.2	-81.5	0.0
2025-01-20 13:25:06.342822	270.9	35.1	-81.4	0.0
2025-01-20 13:25:07.467308	271.4	35.1	-81.6	0.0
2025-01-20 13:25:08.590353	271.8	35.1	-81.2	0.0
2025-01-20 13:25:09.713426	272.3	35.0	-81.4	0.0
2025-01-20 13:25:10.835211	272.7	35.0	-80.8	0.0
2025-01-20 13:25:11.959948	273.2	35.0	-81.4	0.0
2025-01-20 13:25:13.085347	273.6	34.9	-81.1	0.0
2025-01-20 13:25:14.207470	274.1	34.9	-81.3	0.0
2025-01-20 13:25:15.331269	274.5	34.8	-81.3	0.0
2025-01-20 13:25:16.456419	275.0	34.8	-81.2	0.0
2025-01-20 13:25:17.580026	275.4	34.7	-81.1	0.0
2025-01-20 13:25:18.703578	275.9	34.7	-81.1	0.0
2025-01-20 13:25:19.826710	276.3	34.6	-81.1	0.0
2025-01-20 13:25:20.949243	276.8	34.6	-81.2	0.0
2025-01-20 13:25:22.070667	277.2	34.5	-81.1	0.0
2025-01-20 13:25:23.192843	277.6	34.5	-81.3	0.0
2025-01-20 13:25:24.315676	278.1	34.4	-80.8	0.0
2025-01-20 13:25:25.438146	278.5	34.4	-80.9	0.0
2025-01-20 13:25:26.562596	279.0	34.3	-81.2	0.0
2025-01-20 13:25:27.684521	279.4	34.2	-81.5	0.0
2025-01-20 13:25:28.807573	279.8	34.2	-81.1	0.0
2025-01-20 13:25:29.929228	280.2	34.1	-80.7	0.0
2025-01-20 13:25:31.051369	280.7	34.0	-81.2	0.0
2025-01-20 13:25:32.174611	281.1	34.0	-81.1	0.0
2025-01-20 13:25:33.298164	281.5	33.9	-81.3	0.0
2025-01-20 13:25:34.423394	282.0	33.8	-81.2	0.0
2025-01-20 13:25:35.546020	282.4	33.8	-81.2	0.0
2025-01-20 13:25:36.667998	282.8	33.7	-81.2	0.0
2025-01-20 13:25:37.790254	283.2	33.6	-81.3	0.0
2025-01-20 13:25:38.912640	283.6	33.5	-81.2	0.0
2025-01-20 13:25:40.037502	284.0	33.5	-81.5	0.0
2025-01-20 13:25:41.159969	284.5	33.4	-80.9	0.0
2025-01-20 13:25:42.280501	284.9	33.3	-81.3	0.0
2025-01-20 13:25:43.402584	285.3	33.2	-81.1	0.0
2025-01-20 13:25:44.524428	285.7	33.1	-81.0	0.0
2025-01-20 13:25:45.646125	286.1	33.0	-81.2	0.0
2025-01-20 13:25:46.770033	286.5	32.9	-81.2	0.0
2025-01-20 13:25:47.894441	286.9	32.9	-81.1	0.0
2025-01-20 13:25:49.016766	287.3	32.8	-81.4	0.0
2025-01-20 13:25:50.138991	287.7	32.7	-81.3	0.0
2025-01-20 13:25:51.260843	288.1	32.6	-81.1	0.0
2025-01-20 13:25:52.383526	288.4	32.5	-81.4	0.0
2025-01-20 13:25:53.506937	288.8	32.4	-81.4	0.0
2025-01-20 13:25:54.629966	289.2	32.3	-81.2	0.0
2025-01-20 13:25:55.754146	289.6	32.2	-81.2	0.0
2025-01-20 13:25:56.877939	290.0	32.1	-80.5	0.0
2025-01-20 13:25:58.002436	290.4	32.0	-80.6	0.0
2025-01-20 13:25:59.125069	290.7	31.9	-80.3	0.0
2025-01-20 13:26:00.247823	291.1	31.8	-80.7	0.0
2025-01-20 13:26:01.370261	291.5	31.7	-81.1	0.0
2025-01-20 13:26:02.491961	291.9	31.6	-81.1	0.0
2025-01-20 13:26:03.615717	292.2	31.5	-80.8	0.0
2025-01-20 13:26:04.740054	292.6	31.4	-80.8	0.0
2025-01-20 13:26:05.863426	293.0	31.3	-81.0	0.0
2025-01-20 13:26:06.988470	293.3	31.2	-81.2	0.0
2025-01-20 13:26:08.111121	293.7	31.1	-81.0	0.0
2025-01-20 13:26:09.235055	294.0	31.0	-80.4	0.0
2025-01-20 13:26:10.361030	294.4	30.9	-80.6	0.0
2025-01-20 13:26:11.483181	294.7	30.7	-80.8	0.0
2025-01-20 13:26:12.606643	295.1	30.6	-80.2	0.0
2025-01-20 13:26:13.730984	295.4	30.5	-79.7	0.0
2025-01-20 13:26:14.852902	295.8	30.4	-80.7	0.0
2025-01-20 13:26:15.975036	296.1	30.3	-79.4	0.0
2025-01-20 13:26:17.097519	296.4	30.2	-80.2	0.0
2025-01-20 13:26:18.219769	296.8	30.1	-80.0	0.0
2025-01-20 13:26:19.345160	297.1	30.0	-79.9	0.0
2025-01-20 13:26:20.466344	297.5	29.8	-79.7	0.0
2025-01-20 13:26:21.589740	297.8	29.7	-80.0	0.0
2025-01-20 13:26:22.712989	298.1	29.6	-80.1	0.0
2025-01-20 13:26:23.837026	298.4	29.5	-79.8	0.0
2025-01-20 13:26:24.962679	298.8	29.4	-79.9	0.0
2025-01-20 13:26:26.084888	299.1	29.3	-79.9	0.0
2025-01-20 13:26:27.206705	299.4	29.1	-79.6	0.0
2025-01-20 13:26:28.329036	299.7	29.0	-79.7	0.0
2025-01-20 13:26:29.451407	300.0	28.9	-79.8	0.0
2025-01-20 13:26:30.574770	300.3	28.8	-79.2	0.0
2025-01-20 13:26:31.698395	300.6	28.7	-79.1	0.0
2025-01-20 13:26:32.820720	301.0	28.6	-78.8	0.0
2025-01-20 13:26:33.946244	301.3	28.4	-78.6	0.0
2025-01-20 13:26:35.069122	301.6	28.3	-79.9	0.0
2025-01-20 13:26:36.191429	301.9	28.2	-79.4	0.0
2025-01-20 13:26:37.315801	302.2	28.1	-79.6	0.0
2025-01-20 13:26:38.437014	302.5	28.0	-80.0	0.0
2025-01-20 13:26:39.558384	302.7	27.8	-79.3	0.0
2025-01-20 13:26:40.682570	303.0	27.7	-79.6	0.0
2025-01-20 13:26:41.805011	303.3	27.6	-80.0	0.0
2025-01-20 13:26:42.927309	303.6	27.5	-80.1	0.0
2025-01-20 13:26:44.047346	303.9	27.3	-79.7	0.0
2025-01-20 13:26:45.168833	304.2	27.2	-79.9	0.0
2025-01-20 13:26:46.292394	304.5	27.1	-79.4	0.0
2025-01-20 13:26:47.413948	304.7	27.0	-80.2	0.0
2025-01-20 13:26:48.537081	305.0	26.9	-80.0	0.0
2025-01-20 13:26:49.661348	305.3	26.7	-79.8	0.0
2025-01-20 13:26:50.787811	305.6	26.6	-78.8	0.0
2025-01-20 13:26:51.910980	305.8	26.5	-80.4	0.0
2025-01-20 13:26:53.034490	306.1	26.4	-80.3	0.0
2025-01-20 13:26:54.159002	306.4	26.2	-80.3	0.0
2025-01-20 13:26:55.285037	306.6	26.1	-78.6	0.0
2025-01-20 13:26:56.409179	306.9	26.0	-79.9	0.0
2025-01-20 13:26:57.531570	307.1	25.9	-79.8	0.0
2025-01-20 13:26:58.656648	307.4	25.7	-80.0	0.0
2025-01-20 13:26:59.779256	307.7	25.6	-80.1	0.0
2025-01-20 13:27:00.901596	307.9	25.5	-80.5	0.0
2025-01-20 13:27:02.024991	308.2	25.4	-80.2	0.0
2025-01-20 13:27:03.149357	308.4	25.2	-79.4	0.0
2025-01-20 13:27:04.270856	308.7	25.1	-80.4	0.0
2025-01-20 13:27:05.392997	308.9	25.0	-80.4	0.0
2025-01-20 13:27:06.515444	309.2	24.9	-79.9	0.0
2025-01-20 13:27:07.638874	309.4	24.8	-81.0	0.0
2025-01-20 13:27:08.761927	309.6	24.6	-81.0	0.0
2025-01-20 13:27:09.884378	309.9	24.5	-81.0	0.0
2025-01-20 13:27:11.008162	310.1	24.4	-79.6	0.0
2025-01-20 13:27:12.132880	310.3	24.3	-80.4	0.0
2025-01-20 13:27:13.255248	310.6	24.1	-80.4	0.0
2025-01-20 13:27:14.377493	310.8	24.0	-80.1	0.0
2025-01-20 13:27:15.500344	311.0	23.9	-79.7	0.0
2025-01-20 13:27:16.625269	311.3	23.8	-80.2	0.0
2025-01-20 13:27:17.748111	311.5	23.7	-79.7	0.0
2025-01-20 13:27:18.870665	311.7	23.5	-80.2	0.0
2025-01-20 13:27:19.993721	311.9	23.4	-76.3	0.0
2025-01-20 13:27:21.115759	312.2	23.3	-79.5	0.0
2025-01-20 13:27:22.237813	312.4	23.2	-79.4	0.0
2025-01-20 13:27:23.360397	312.6	23.0	-78.9	0.0
2025-01-20 13:27:24.482840	312.8	22.9	-80.0	0.0
2025-01-20 13:27:25.604213	313.0	22.8	-78.8	0.0
2025-01-20 13:27:26.726628	313.2	22.7	-78.8	0.0
2025-01-20 13:27:27.851027	313.5	22.6	-79.7	0.0
2025-01-20 13:27:28.971517	313.7	22.4	-79.2	0.0
2025-01-20 13:27:30.093211	313.9	22.3	-80.1	0.0
2025-01-20 13:27:31.216424	314.1	22.2	-79.5	0.0
2025-01-20 13:27:32.338809	314.3	22.1	-78.9	0.0
2025-01-20 13:27:33.463319	314.5	22.0	-78.1	0.0
2025-01-20 13:27:34.586622	314.7	21.8	-77.5	0.0
2025-01-20 13:27:35.711950	314.9	21.7	-74.4	0.0
2025-01-20 13:27:36.835937	315.1	21.6	-79.3	0.0
2025-01-20 13:27:37.956996	315.3	21.5	-78.9	0.0
2025-01-20 13:27:39.077298	315.5	21.4	-79.0	0.0
2025-01-20 13:27:40.198646	315.7	21.2	-78.5	0.0
2025-01-20 13:27:41.323198	315.9	21.1	-78.9	0.0
2025-01-20 13:27:42.446236	316.1	21.0	-77.9	0.0
2025-01-20 13:27:43.569632	316.2	20.9	-79.6	0.0
2025-01-20 13:27:44.691193	316.4	20.8	-79.2	0.0
2025-01-20 13:27:45.814771	316.6	20.7	-78.6	0.0
2025-01-20 13:27:46.936141	316.8	20.5	-78.7	0.0
2025-01-20 13:27:48.058472	317.0	20.4	-78.6	0.0
2025-01-20 13:27:49.181910	317.2	20.3	-78.3	0.0
2025-01-20 13:27:50.306635	317.4	20.2	-78.3	0.0
2025-01-20 13:27:51.430158	317.5	20.1	-78.3	0.0
2025-01-20 13:27:52.555438	317.7	20.0	-78.1	0.0
2025-01-20 13:27:53.678411	317.9	19.8	-77.8	0.0
2025-01-20 13:27:54.803843	318.1	19.7	-76.6	0.0
2025-01-20 13:27:55.926907	318.2	19.6	-77.4	0.0
2025-01-20 13:27:57.050107	318.4	19.5	-77.3	0.0
2025-01-20 13:27:58.173069	318.6	19.4	-75.7	0.0
2025-01-20 13:27:59.298232	318.8	19.3	-72.9	0.0
2025-01-20 13:28:00.420885	318.9	19.2	-72.8	0.0
2025-01-20 13:28:01.543304	319.1	19.0	-75.4	0.0
2025-01-20 13:28:02.665047	319.3	18.9	-76.8	0.0
2025-01-20 13:28:03.787081	319.4	18.8	-78.1	0.0
2025-01-20 13:28:04.909494	319.6	18.7	-71.0	0.0
2025-01-20 13:28:06.031882	319.8	18.6	-77.2	0.0
2025-01-20 13:28:07.157279	319.9	18.5	-75.1	0.0
2025-01-20 13:28:08.280378	320.1	18.4	-78.6	0.0
2025-01-20 13:28:09.405130	320.2	18.3	-77.5	0.0
2025-01-20 13:28:10.525839	320.4	18.1	-78.7	0.0
2025-01-20 13:28:11.650699	320.6	18.0	-77.4	0.0
2025-01-20 13:28:12.773788	320.7	17.9	-78.5	0.0
2025-01-20 13:28:13.897773	320.9	17.8	-77.1	0.0
2025-01-20 13:28:15.019663	321.0	17.7	-78.6	0.0
2025-01-20 13:28:16.140573	321.2	17.6	-78.8	0.0
2025-01-20 13:28:17.263183	321.3	17.5	-78.3	0.0
2025-01-20 13:28:18.385607	321.5	17.4	-77.5	0.0
2025-01-20 13:28:19.510585	321.6	17.3	-76.9	0.0
2025-01-20 13:28:20.634390	321.8	17.2	-76.2	0.0
2025-01-20 13:28:21.758510	321.9	17.1	-76.2	0.0
2025-01-20 13:28:22.881161	322.1	16.9	-78.1	0.0
2025-01-20 13:28:24.005010	322.2	16.8	-78.7	0.0
2025-01-20 13:28:25.127975	322.4	16.7	-77.2	0.0
2025-01-20 13:28:26.252440	322.5	16.6	-77.6	0.0
2025-01-20 13:28:27.374170	322.7	16.5	-77.6	0.0
2025-01-20 13:28:28.497540	322.8	16.4	-78.6	0.0
2025-01-20 13:28:29.620963	322.9	16.3	-78.3	0.0
2025-01-20 13:28:30.746401	323.1	16.2	-78.3	0.0
2025-01-20 13:28:31.868210	323.2	16.1	-78.3	0.0
2025-01-20 13:28:32.992273	323.4	16.0	-76.3	0.0
2025-01-20 13:28:34.115038	323.5	15.9	-77.4	0.0
2025-01-20 13:28:35.240107	323.6	15.8	-78.2	0.0
2025-01-20 13:28:36.364384	323.8	15.7	-78.1	0.0
2025-01-20 13:28:37.487513	323.9	15.6	-76.7	0.0
2025-01-20 13:28:38.611582	324.0	15.5	-75.9	0.0
2025-01-20 13:28:39.737937	324.2	15.4	-78.3	0.0
2025-01-20 13:28:40.861915	324.3	15.3	-77.4	0.0
2025-01-20 13:28:41.983227	324.4	15.2	-77.0	0.0
2025-01-20 13:28:43.109794	324.6	15.1	-77.9	0.0
2025-01-20 13:28:44.232473	324.7	15.0	-78.1	0.0
2025-01-20 13:28:45.356860	324.8	14.9	-70.6	0.0
2025-01-20 13:28:46.484181	325.0	14.8	-72.5	0.0
2025-01-20 13:28:47.607278	325.1	14.7	-76.3	0.0
2025-01-20 13:28:48.731671	325.2	14.6	-71.4	0.0
2025-01-20 13:28:49.855925	325.3	14.5	-78.9	0.0
2025-01-20 13:28:50.981641	325.5	14.4	-78.3	0.0
2025-01-20 13:28:52.107348	325.6	14.3	-78.9	0.0
2025-01-20 13:28:53.234096	325.7	14.2	-78.3	0.0
2025-01-20 13:28:54.357680	325.8	14.1	-77.5	0.0
2025-01-20 13:28:55.479292	325.9	14.0	-77.7	0.0
2025-01-20 13:28:56.601062	326.1	13.9	-78.4	0.0
2025-01-20 13:28:57.723929	326.2	13.8	-78.6	0.0
2025-01-20 13:28:58.844984	326.3	13.7	-77.4	0.0
2025-01-20 13:28:59.968726	326.4	13.6	-77.3	0.0
2025-01-20 13:29:01.092779	326.5	13.5	-76.3	0.0
2025-01-20 13:29:02.215478	326.7	13.4	-76.6	0.0
2025-01-20 13:29:03.339114	326.8	13.3	-75.5	0.0
2025-01-20 13:29:04.463577	326.9	13.2	-75.2	0.0
2025-01-20 13:29:05.587793	327.0	13.1	-75.8	0.0
2025-01-20 13:29:06.710635	327.1	13.0	-76.7	0.0
2025-01-20 13:29:07.833030	327.2	12.9	-77.3	0.0
2025-01-20 13:29:08.957240	327.3	12.8	-76.4	0.0
2025-01-20 13:29:10.076708	327.5	12.7	-75.6	0.0
2025-01-20 13:29:11.201830	327.6	12.6	-75.6	0.0
2025-01-20 13:29:12.324601	327.7	12.5	-75.8	0.0
2025-01-20 13:29:13.448965	327.8	12.4	-76.4	0.0
2025-01-20 13:29:14.570592	327.9	12.3	-76.0	0.0
2025-01-20 13:29:15.693181	328.0	12.2	-76.0	0.0
2025-01-20 13:29:16.815612	328.1	12.1	-75.7	0.0
2025-01-20 13:29:17.936564	328.2	12.0	-75.6	0.0
2025-01-20 13:29:19.061209	328.3	11.9	-76.3	0.0
2025-01-20 13:29:20.183414	328.4	11.9	-75.2	0.0
2025-01-20 13:29:21.305283	328.5	11.8	-74.5	0.0
2025-01-20 13:29:22.427282	328.6	11.7	-74.3	0.0
2025-01-20 13:29:23.550722	328.7	11.6	-74.5	0.0
2025-01-20 13:29:24.672745	328.9	11.5	-73.6	0.0
2025-01-20 13:29:25.796188	329.0	11.4	-72.4	0.0
2025-01-20 13:29:26.917459	329.1	11.3	-74.6	0.0
2025-01-20 13:29:28.040378	329.2	11.2	-73.2	0.0
2025-01-20 13:29:29.164059	329.3	11.1	-73.1	0.0
2025-01-20 13:29:30.287382	329.4	11.0	-75.2	0.0
2025-01-20 13:29:31.411845	329.5	10.9	-77.0	0.0
2025-01-20 13:29:32.535122	329.6	10.9	-78.9	0.0
2025-01-20 13:29:33.660755	329.7	10.8	-80.2	0.0
2025-01-20 13:29:34.781788	329.8	10.7	-80.7	0.0
2025-01-20 13:29:35.905715	329.9	10.6	-81.4	0.0
2025-01-20 13:29:37.028013	329.9	10.5	-81.8	0.0
2025-01-20 13:29:38.149948	330.0	10.4	-82.7	0.0
2025-01-20 13:29:39.272402	330.1	10.3	-82.6	0.0
2025-01-20 13:29:40.395241	330.2	10.2	-82.1	0.0
2025-01-20 13:29:41.517777	330.3	10.1	-81.9	0.0
2025-01-20 13:29:42.638538	330.4	10.1	-81.6	0.0
#Closed at: 2025-01-20 13:19:54.817330