passes_logs/2025/01/20/planumMaritime01/planumMaritime01__20250120_100609_NOAA_18_rec.log

#Pass ID: 20250120_100609_NOAA 18
#Satellite: NOAA 18
#Configuration: NOAA 18
#Start time: 2025-01-20 10:06:14.201917

#LorettStation: 1.0.0 05.05.2024
#Station: planumMaritime01
#Location: 37.49445 lon 55.92918 lat
#TLE: 1 28654U 05018A   25019.12683114  .00000403  00000+0  23745-3 0  9992
#TLE: 2 28654  98.8559 100.1402 0014536 167.7337 192.4191 14.13490232 13765

#Time	Az	El	Level	SNR
2025-01-20 10:06:16.357436	6.4	10.2	-67.9	0.0
2025-01-20 10:06:17.477896	6.3	10.3	-68.2	0.0
2025-01-20 10:06:18.600647	6.2	10.3	-68.1	0.0
2025-01-20 10:06:19.723587	6.1	10.4	-66.0	0.0
2025-01-20 10:06:20.847323	6.1	10.5	-68.4	0.0
2025-01-20 10:06:21.971876	6.0	10.6	-70.3	0.0
2025-01-20 10:06:23.094157	5.9	10.7	-66.2	0.0
2025-01-20 10:06:24.215340	5.8	10.8	-65.0	0.0
2025-01-20 10:06:25.338387	5.7	10.9	-62.1	0.0
2025-01-20 10:06:26.462646	5.6	11.0	-65.3	0.0
2025-01-20 10:06:27.586315	5.5	11.1	-68.6	0.0
2025-01-20 10:06:28.710711	5.5	11.2	-67.5	0.0
2025-01-20 10:06:29.833691	5.4	11.3	-69.2	0.0
2025-01-20 10:06:30.955451	5.3	11.3	-67.7	0.0
2025-01-20 10:06:32.078433	5.2	11.4	-67.7	0.0
2025-01-20 10:06:33.202921	5.1	11.5	-66.6	0.0
2025-01-20 10:06:34.328136	5.0	11.6	-67.3	0.0
2025-01-20 10:06:35.451975	4.9	11.7	-65.7	0.0
2025-01-20 10:06:36.574253	4.8	11.8	-68.5	0.0
2025-01-20 10:06:37.695392	4.8	11.9	-68.8	0.0
2025-01-20 10:06:38.819391	4.7	12.0	-67.8	0.0
2025-01-20 10:06:39.942322	4.6	12.1	-64.8	0.0
2025-01-20 10:06:41.065347	4.5	12.2	-67.7	0.0
2025-01-20 10:06:42.188814	4.4	12.3	-67.3	0.0
2025-01-20 10:06:43.310843	4.3	12.4	-70.4	0.0
2025-01-20 10:06:44.434356	4.2	12.5	-68.4	0.0
2025-01-20 10:06:45.558702	4.1	12.6	-70.0	0.0
2025-01-20 10:06:46.685050	4.0	12.7	-68.7	0.0
2025-01-20 10:06:47.808769	3.9	12.8	-69.5	0.0
2025-01-20 10:06:48.931461	3.8	12.9	-68.8	0.0
2025-01-20 10:06:50.053603	3.7	13.0	-68.6	0.0
2025-01-20 10:06:51.175468	3.6	13.1	-68.9	0.0
2025-01-20 10:06:52.298989	3.5	13.1	-67.4	0.0
2025-01-20 10:06:53.422086	3.4	13.2	-66.8	0.0
2025-01-20 10:06:54.544528	3.3	13.3	-69.8	0.0
2025-01-20 10:06:55.668559	3.2	13.4	-67.6	0.0
2025-01-20 10:06:56.792058	3.1	13.5	-66.5	0.0
2025-01-20 10:06:57.915636	3.0	13.6	-66.7	0.0
2025-01-20 10:06:59.039636	2.9	13.7	-66.8	0.0
2025-01-20 10:07:00.161933	2.8	13.8	-69.6	0.0
2025-01-20 10:07:01.285917	2.7	13.9	-66.1	0.0
2025-01-20 10:07:02.408392	2.6	14.0	-67.8	0.0
2025-01-20 10:07:03.531709	2.5	14.1	-67.7	0.0
2025-01-20 10:07:04.653852	2.4	14.2	-67.7	0.0
2025-01-20 10:07:05.775174	2.3	14.3	-65.3	0.0
2025-01-20 10:07:06.898651	2.2	14.4	-66.6	0.0
2025-01-20 10:07:08.021221	2.1	14.5	-67.8	0.0
2025-01-20 10:07:09.141836	2.0	14.6	-68.0	0.0
2025-01-20 10:07:10.265860	1.9	14.8	-67.3	0.0
2025-01-20 10:07:11.388395	1.7	14.9	-67.3	0.0
2025-01-20 10:07:12.512242	1.6	15.0	-67.5	0.0
2025-01-20 10:07:13.636765	1.5	15.1	-69.9	0.0
2025-01-20 10:07:14.762062	1.4	15.2	-71.1	0.0
2025-01-20 10:07:15.883654	1.3	15.3	-68.6	0.0
2025-01-20 10:07:17.006326	1.2	15.4	-69.6	0.0
2025-01-20 10:07:18.129213	1.1	15.5	-70.5	0.0
2025-01-20 10:07:19.253403	0.9	15.6	-72.8	0.0
2025-01-20 10:07:20.376629	0.8	15.7	-70.3	0.0
2025-01-20 10:07:21.500340	0.7	15.8	-68.5	0.0
2025-01-20 10:07:22.622811	0.6	15.9	-68.8	0.0
2025-01-20 10:07:23.746293	0.5	16.0	-69.5	0.0
2025-01-20 10:07:24.869298	0.3	16.1	-70.2	0.0
2025-01-20 10:07:25.994313	0.2	16.2	-68.0	0.0
2025-01-20 10:07:27.118229	0.1	16.3	-67.8	0.0
2025-01-20 10:07:28.240150	360.0	16.4	-68.9	0.0
2025-01-20 10:07:29.363265	359.9	16.5	-69.1	0.0
2025-01-20 10:07:30.485601	359.7	16.7	-68.9	0.0
2025-01-20 10:07:31.609291	359.6	16.8	-68.6	0.0
2025-01-20 10:07:32.733276	359.5	16.9	-68.1	0.0
2025-01-20 10:07:33.856682	359.3	17.0	-68.2	0.0
2025-01-20 10:07:34.978993	359.2	17.1	-67.6	0.0
2025-01-20 10:07:36.103210	359.1	17.2	-68.3	0.0
2025-01-20 10:07:37.227211	359.0	17.3	-68.1	0.0
2025-01-20 10:07:38.351417	358.8	17.4	-68.7	0.0
2025-01-20 10:07:39.474431	358.7	17.5	-66.3	0.0
2025-01-20 10:07:40.598723	358.6	17.6	-68.0	0.0
2025-01-20 10:07:41.723166	358.4	17.8	-67.4	0.0
2025-01-20 10:07:42.848658	358.3	17.9	-68.0	0.0
2025-01-20 10:07:43.971814	358.1	18.0	-67.8	0.0
2025-01-20 10:07:45.097436	358.0	18.1	-68.1	0.0
2025-01-20 10:07:46.221063	357.9	18.2	-67.6	0.0
2025-01-20 10:07:47.347987	357.7	18.3	-68.1	0.0
2025-01-20 10:07:48.469867	357.6	18.4	-70.0	0.0
2025-01-20 10:07:49.592546	357.4	18.6	-69.1	0.0
2025-01-20 10:07:50.715788	357.3	18.7	-69.3	0.0
2025-01-20 10:07:51.838328	357.2	18.8	-69.1	0.0
2025-01-20 10:07:52.960937	357.0	18.9	-69.1	0.0
2025-01-20 10:07:54.085201	356.9	19.0	-65.7	0.0
2025-01-20 10:07:55.205942	356.7	19.1	-70.2	0.0
2025-01-20 10:07:56.327634	356.6	19.2	-69.4	0.0
2025-01-20 10:07:57.452733	356.4	19.4	-68.5	0.0
2025-01-20 10:07:58.575030	356.3	19.5	-65.3	0.0
2025-01-20 10:07:59.698812	356.1	19.6	-70.0	0.0
2025-01-20 10:08:00.823059	356.0	19.7	-69.7	0.0
2025-01-20 10:08:01.944408	355.8	19.8	-68.6	0.0
2025-01-20 10:08:03.067319	355.6	19.9	-67.9	0.0
2025-01-20 10:08:04.192477	355.5	20.1	-69.8	0.0
2025-01-20 10:08:05.314137	355.3	20.2	-72.2	0.0
2025-01-20 10:08:06.435769	355.2	20.3	-67.7	0.0
2025-01-20 10:08:07.559207	355.0	20.4	-70.7	0.0
2025-01-20 10:08:08.683358	354.8	20.5	-69.5	0.0
2025-01-20 10:08:09.806218	354.7	20.7	-72.0	0.0
2025-01-20 10:08:10.931474	354.5	20.8	-70.6	0.0
2025-01-20 10:08:12.054943	354.3	20.9	-68.3	0.0
2025-01-20 10:08:13.176258	354.2	21.0	-67.4	0.0
2025-01-20 10:08:14.300667	354.0	21.1	-69.9	0.0
2025-01-20 10:08:15.426014	353.8	21.3	-71.0	0.0
2025-01-20 10:08:16.549462	353.7	21.4	-71.9	0.0
2025-01-20 10:08:17.672653	353.5	21.5	-71.7	0.0
2025-01-20 10:08:18.796526	353.3	21.6	-72.9	0.0
2025-01-20 10:08:19.921020	353.1	21.8	-71.3	0.0
2025-01-20 10:08:21.044341	353.0	21.9	-71.9	0.0
2025-01-20 10:08:22.166498	352.8	22.0	-71.8	0.0
2025-01-20 10:08:23.289770	352.6	22.1	-71.8	0.0
2025-01-20 10:08:24.412162	352.4	22.3	-71.7	0.0
2025-01-20 10:08:25.534792	352.2	22.4	-70.4	0.0
2025-01-20 10:08:26.657785	352.0	22.5	-72.3	0.0
2025-01-20 10:08:27.780180	351.9	22.6	-72.2	0.0
2025-01-20 10:08:28.904561	351.7	22.8	-70.6	0.0
2025-01-20 10:08:30.027373	351.5	22.9	-67.8	0.0
2025-01-20 10:08:31.148872	351.3	23.0	-71.6	0.0
2025-01-20 10:08:32.271943	351.1	23.1	-73.0	0.0
2025-01-20 10:08:33.394082	350.9	23.3	-69.9	0.0
2025-01-20 10:08:34.519132	350.7	23.4	-72.2	0.0
2025-01-20 10:08:35.641026	350.5	23.5	-72.0	0.0
2025-01-20 10:08:36.765018	350.3	23.6	-72.5	0.0
2025-01-20 10:08:37.889436	350.1	23.8	-72.8	0.0
2025-01-20 10:08:39.013636	349.9	23.9	-72.3	0.0
2025-01-20 10:08:40.139831	349.7	24.0	-74.1	0.0
2025-01-20 10:08:41.263547	349.5	24.1	-72.4	0.0
2025-01-20 10:08:42.388639	349.3	24.3	-73.2	0.0
2025-01-20 10:08:43.511751	349.1	24.4	-70.8	0.0
2025-01-20 10:08:44.636268	348.9	24.5	-73.8	0.0
2025-01-20 10:08:45.760716	348.6	24.7	-72.2	0.0
2025-01-20 10:08:46.884791	348.4	24.8	-75.1	0.0
2025-01-20 10:08:48.007005	348.2	24.9	-72.4	0.0
2025-01-20 10:08:49.131422	348.0	25.0	-73.9	0.0
2025-01-20 10:08:50.257387	347.8	25.2	-74.5	0.0
2025-01-20 10:08:51.379659	347.5	25.3	-73.0	0.0
2025-01-20 10:08:52.502438	347.3	25.4	-74.1	0.0
2025-01-20 10:08:53.625130	347.1	25.6	-73.4	0.0
2025-01-20 10:08:54.748672	346.9	25.7	-72.2	0.0
2025-01-20 10:08:55.872368	346.6	25.8	-74.1	0.0
2025-01-20 10:08:56.995382	346.4	26.0	-73.8	0.0
2025-01-20 10:08:58.117463	346.2	26.1	-74.4	0.0
2025-01-20 10:08:59.242076	345.9	26.2	-73.3	0.0
2025-01-20 10:09:00.363330	345.7	26.3	-72.6	0.0
2025-01-20 10:09:01.487104	345.5	26.5	-74.1	0.0
2025-01-20 10:09:02.610714	345.2	26.6	-73.0	0.0
2025-01-20 10:09:03.736315	345.0	26.7	-73.9	0.0
2025-01-20 10:09:04.860382	344.7	26.9	-72.8	0.0
2025-01-20 10:09:05.984600	344.5	27.0	-74.2	0.0
2025-01-20 10:09:07.106553	344.2	27.1	-74.7	0.0
2025-01-20 10:09:08.229101	344.0	27.3	-74.6	0.0
2025-01-20 10:09:09.352905	343.7	27.4	-73.9	0.0
2025-01-20 10:09:10.479099	343.5	27.5	-74.6	0.0
2025-01-20 10:09:11.600352	343.2	27.7	-73.6	0.0
2025-01-20 10:09:12.722218	342.9	27.8	-74.0	0.0
2025-01-20 10:09:13.844926	342.7	27.9	-74.9	0.0
2025-01-20 10:09:14.969606	342.4	28.0	-76.4	0.0
2025-01-20 10:09:16.095511	342.1	28.2	-74.1	0.0
2025-01-20 10:09:17.218331	341.9	28.3	-74.3	0.0
2025-01-20 10:09:18.339729	341.6	28.4	-73.0	0.0
2025-01-20 10:09:19.463939	341.3	28.6	-74.9	0.0
2025-01-20 10:09:20.587926	341.1	28.7	-71.1	0.0
2025-01-20 10:09:21.710374	340.8	28.8	-75.1	0.0
2025-01-20 10:09:22.833214	340.5	29.0	-75.3	0.0
2025-01-20 10:09:23.954333	340.2	29.1	-74.2	0.0
2025-01-20 10:09:25.078110	339.9	29.2	-74.7	0.0
2025-01-20 10:09:26.199461	339.6	29.3	-76.1	0.0
2025-01-20 10:09:27.323544	339.4	29.5	-76.2	0.0
2025-01-20 10:09:28.448257	339.1	29.6	-76.2	0.0
2025-01-20 10:09:29.570776	338.8	29.7	-77.3	0.0
2025-01-20 10:09:30.694641	338.5	29.9	-76.5	0.0
2025-01-20 10:09:31.817991	338.2	30.0	-75.4	0.0
2025-01-20 10:09:32.942122	337.9	30.1	-76.3	0.0
2025-01-20 10:09:34.064932	337.6	30.2	-76.1	0.0
2025-01-20 10:09:35.187283	337.3	30.4	-76.9	0.0
2025-01-20 10:09:36.309654	336.9	30.5	-76.4	0.0
2025-01-20 10:09:37.434350	336.6	30.6	-76.8	0.0
2025-01-20 10:09:38.558563	336.3	30.8	-77.2	0.0
2025-01-20 10:09:39.681965	336.0	30.9	-76.3	0.0
2025-01-20 10:09:40.804583	335.7	31.0	-74.5	0.0
2025-01-20 10:09:41.926262	335.4	31.1	-78.2	0.0
2025-01-20 10:09:43.049957	335.0	31.2	-77.3	0.0
2025-01-20 10:09:44.173302	334.7	31.4	-77.3	0.0
2025-01-20 10:09:45.295522	334.4	31.5	-77.7	0.0
2025-01-20 10:09:46.421111	334.1	31.6	-78.0	0.0
2025-01-20 10:09:47.544836	333.7	31.7	-77.8	0.0
2025-01-20 10:09:48.669790	333.4	31.9	-77.2	0.0
2025-01-20 10:09:49.794230	333.0	32.0	-78.5	0.0
2025-01-20 10:09:50.919281	332.7	32.1	-78.0	0.0
2025-01-20 10:09:52.039290	332.4	32.2	-76.9	0.0
2025-01-20 10:09:53.162283	332.0	32.3	-77.8	0.0
2025-01-20 10:09:54.287297	331.7	32.5	-78.4	0.0
2025-01-20 10:09:55.412541	331.3	32.6	-78.0	0.0
2025-01-20 10:09:56.536381	330.9	32.7	-77.7	0.0
2025-01-20 10:09:57.657565	330.6	32.8	-78.4	0.0
2025-01-20 10:09:58.779504	330.2	32.9	-78.1	0.0
2025-01-20 10:09:59.901604	329.9	33.0	-77.6	0.0
2025-01-20 10:10:01.026653	329.5	33.1	-77.2	0.0
2025-01-20 10:10:02.149297	329.1	33.3	-77.2	0.0
2025-01-20 10:10:03.272403	328.8	33.4	-77.2	0.0
2025-01-20 10:10:04.392318	328.4	33.5	-77.4	0.0
2025-01-20 10:10:05.514169	328.0	33.6	-77.4	0.0
2025-01-20 10:10:06.635948	327.6	33.7	-77.8	0.0
2025-01-20 10:10:07.760409	327.3	33.8	-77.2	0.0
2025-01-20 10:10:08.883191	326.9	33.9	-77.0	0.0
2025-01-20 10:10:10.004958	326.5	34.0	-77.3	0.0
2025-01-20 10:10:11.127727	326.1	34.1	-77.5	0.0
2025-01-20 10:10:12.250384	325.7	34.2	-77.2	0.0
2025-01-20 10:10:13.373641	325.3	34.3	-77.5	0.0
2025-01-20 10:10:14.494908	324.9	34.4	-77.2	0.0
2025-01-20 10:10:15.618282	324.5	34.5	-77.4	0.0
2025-01-20 10:10:16.741860	324.1	34.6	-76.7	0.0
2025-01-20 10:10:17.866072	323.7	34.7	-74.7	0.0
2025-01-20 10:10:18.989759	323.3	34.8	-77.9	0.0
2025-01-20 10:10:20.112688	322.9	34.9	-76.5	0.0
2025-01-20 10:10:21.237151	322.5	35.0	-74.3	0.0
2025-01-20 10:10:22.360570	322.1	35.1	-77.2	0.0
2025-01-20 10:10:23.486120	321.7	35.2	-77.0	0.0
2025-01-20 10:10:24.609417	321.3	35.3	-77.4	0.0
2025-01-20 10:10:25.731242	320.8	35.3	-76.6	0.0
2025-01-20 10:10:26.855135	320.4	35.4	-77.7	0.0
2025-01-20 10:10:27.976166	320.0	35.5	-77.2	0.0
2025-01-20 10:10:29.098125	319.6	35.6	-77.1	0.0
2025-01-20 10:10:30.222171	319.2	35.7	-75.3	0.0
2025-01-20 10:10:31.345251	318.7	35.7	-77.5	0.0
2025-01-20 10:10:32.469644	318.3	35.8	-77.3	0.0
2025-01-20 10:10:33.591593	317.9	35.9	-77.6	0.0
2025-01-20 10:10:34.716190	317.4	36.0	-77.8	0.0
2025-01-20 10:10:35.836421	317.0	36.0	-78.1	0.0
2025-01-20 10:10:36.958229	316.5	36.1	-77.3	0.0
2025-01-20 10:10:38.082191	316.1	36.2	-78.5	0.0
2025-01-20 10:10:39.203843	315.7	36.2	-78.1	0.0
2025-01-20 10:10:40.325900	315.2	36.3	-78.2	0.0
2025-01-20 10:10:41.448504	314.8	36.4	-77.7	0.0
2025-01-20 10:10:42.572398	314.3	36.4	-77.7	0.0
2025-01-20 10:10:43.697806	313.9	36.5	-78.0	0.0
2025-01-20 10:10:44.821012	313.4	36.5	-77.9	0.0
2025-01-20 10:10:45.944412	313.0	36.6	-78.3	0.0
2025-01-20 10:10:47.069498	312.5	36.7	-77.3	0.0
2025-01-20 10:10:48.191372	312.1	36.7	-77.3	0.0
2025-01-20 10:10:49.310212	311.6	36.8	-78.1	0.0
2025-01-20 10:10:50.432795	311.1	36.8	-78.3	0.0
2025-01-20 10:10:51.555444	310.7	36.8	-78.7	0.0
2025-01-20 10:10:52.679270	310.2	36.9	-78.7	0.0
2025-01-20 10:10:53.803422	309.8	36.9	-78.6	0.0
2025-01-20 10:10:54.928929	309.3	37.0	-78.7	0.0
2025-01-20 10:10:56.052570	308.8	37.0	-79.1	0.0
2025-01-20 10:10:57.176438	308.4	37.0	-78.8	0.0
2025-01-20 10:10:58.300470	307.9	37.1	-78.9	0.0
2025-01-20 10:10:59.422084	307.4	37.1	-78.8	0.0
2025-01-20 10:11:00.543787	307.0	37.1	-79.3	0.0
2025-01-20 10:11:01.668457	306.5	37.2	-79.0	0.0
2025-01-20 10:11:02.792766	306.0	37.2	-78.9	0.0
2025-01-20 10:11:03.916709	305.5	37.2	-78.3	0.0
2025-01-20 10:11:05.040252	305.1	37.2	-78.9	0.0
2025-01-20 10:11:06.163725	304.6	37.2	-79.0	0.0
2025-01-20 10:11:07.285969	304.1	37.3	-77.9	0.0
2025-01-20 10:11:08.410650	303.7	37.3	-78.6	0.0
2025-01-20 10:11:09.532654	303.2	37.3	-79.2	0.0
2025-01-20 10:11:10.656507	302.7	37.3	-79.5	0.0
2025-01-20 10:11:11.780019	302.2	37.3	-79.0	0.0
2025-01-20 10:11:12.902540	301.8	37.3	-78.6	0.0
2025-01-20 10:11:14.027486	301.3	37.3	-78.8	0.0
2025-01-20 10:11:15.151915	300.8	37.3	-78.6	0.0
2025-01-20 10:11:16.275322	300.3	37.3	-78.5	0.0
2025-01-20 10:11:17.398227	299.9	37.3	-78.0	0.0
2025-01-20 10:11:18.521331	299.4	37.3	-77.7	0.0
2025-01-20 10:11:19.642728	298.9	37.3	-76.3	0.0
2025-01-20 10:11:20.766893	298.4	37.3	-77.6	0.0
2025-01-20 10:11:21.890566	298.0	37.2	-79.0	0.0
2025-01-20 10:11:23.016134	297.5	37.2	-78.2	0.0
2025-01-20 10:11:24.140069	297.0	37.2	-78.7	0.0
2025-01-20 10:11:25.264470	296.6	37.2	-78.7	0.0
2025-01-20 10:11:26.389299	296.1	37.2	-78.9	0.0
2025-01-20 10:11:27.513565	295.6	37.1	-78.4	0.0
2025-01-20 10:11:28.636315	295.1	37.1	-78.7	0.0
2025-01-20 10:11:29.762415	294.7	37.1	-78.3	0.0
2025-01-20 10:11:30.886094	294.2	37.0	-78.6	0.0
2025-01-20 10:11:32.009302	293.7	37.0	-78.8	0.0
2025-01-20 10:11:33.134314	293.3	37.0	-79.3	0.0
2025-01-20 10:11:34.255427	292.8	36.9	-79.1	0.0
2025-01-20 10:11:35.378438	292.3	36.9	-79.2	0.0
2025-01-20 10:11:36.501941	291.9	36.9	-79.1	0.0
2025-01-20 10:11:37.625805	291.4	36.8	-79.0	0.0
2025-01-20 10:11:38.750328	291.0	36.8	-79.3	0.0
2025-01-20 10:11:39.875132	290.5	36.7	-79.2	0.0
2025-01-20 10:11:40.999518	290.0	36.7	-79.0	0.0
2025-01-20 10:11:42.124048	289.6	36.6	-79.3	0.0
2025-01-20 10:11:43.246291	289.1	36.6	-78.6	0.0
2025-01-20 10:11:44.379698	288.7	36.5	-78.9	0.0
2025-01-20 10:11:45.501326	288.2	36.4	-78.8	0.0
2025-01-20 10:11:46.625988	287.8	36.4	-78.8	0.0
2025-01-20 10:11:47.749113	287.3	36.3	-79.2	0.0
2025-01-20 10:11:48.873619	286.9	36.3	-79.0	0.0
2025-01-20 10:11:49.995843	286.4	36.2	-78.7	0.0
2025-01-20 10:11:51.119728	286.0	36.1	-78.4	0.0
2025-01-20 10:11:52.241462	285.5	36.0	-78.9	0.0
2025-01-20 10:11:53.364752	285.1	36.0	-78.3	0.0
2025-01-20 10:11:54.484893	284.7	35.9	-78.8	0.0
2025-01-20 10:11:55.607172	284.2	35.8	-78.9	0.0
2025-01-20 10:11:56.729193	283.8	35.8	-79.3	0.0
2025-01-20 10:11:57.852030	283.4	35.7	-78.3	0.0
2025-01-20 10:11:58.975389	282.9	35.6	-79.2	0.0
2025-01-20 10:12:00.098400	282.5	35.5	-79.1	0.0
2025-01-20 10:12:01.220424	282.1	35.4	-79.2	0.0
2025-01-20 10:12:02.342425	281.7	35.3	-79.2	0.0
2025-01-20 10:12:03.466334	281.3	35.3	-79.1	0.0
2025-01-20 10:12:04.590326	280.8	35.2	-78.9	0.0
2025-01-20 10:12:05.712874	280.4	35.1	-78.7	0.0
2025-01-20 10:12:06.836601	280.0	35.0	-78.7	0.0
2025-01-20 10:12:07.962647	279.6	34.9	-78.9	0.0
2025-01-20 10:12:09.088855	279.2	34.8	-79.0	0.0
2025-01-20 10:12:10.210695	278.8	34.7	-78.9	0.0
2025-01-20 10:12:11.335779	278.4	34.6	-79.0	0.0
2025-01-20 10:12:12.459134	278.0	34.5	-78.5	0.0
2025-01-20 10:12:13.583373	277.6	34.4	-78.4	0.0
2025-01-20 10:12:14.704577	277.2	34.3	-78.8	0.0
2025-01-20 10:12:15.828894	276.8	34.2	-78.5	0.0
2025-01-20 10:12:16.948882	276.4	34.1	-79.1	0.0
2025-01-20 10:12:18.071849	276.0	34.0	-78.6	0.0
2025-01-20 10:12:19.194807	275.6	33.9	-78.1	0.0
2025-01-20 10:12:20.316004	275.2	33.8	-78.5	0.0
2025-01-20 10:12:21.438962	274.8	33.7	-78.7	0.0
2025-01-20 10:12:22.562880	274.5	33.6	-78.8	0.0
2025-01-20 10:12:23.685484	274.1	33.5	-78.4	0.0
2025-01-20 10:12:24.808519	273.7	33.4	-79.3	0.0
2025-01-20 10:12:25.931972	273.3	33.3	-78.6	0.0
2025-01-20 10:12:27.057027	273.0	33.1	-79.0	0.0
2025-01-20 10:12:28.181490	272.6	33.0	-78.6	0.0
2025-01-20 10:12:29.304899	272.2	32.9	-79.0	0.0
2025-01-20 10:12:30.428481	271.9	32.8	-78.9	0.0
2025-01-20 10:12:31.553201	271.5	32.7	-78.8	0.0
2025-01-20 10:12:32.678463	271.2	32.6	-78.7	0.0
2025-01-20 10:12:33.801987	270.8	32.4	-79.3	0.0
2025-01-20 10:12:34.925452	270.5	32.3	-79.0	0.0
2025-01-20 10:12:36.048924	270.1	32.2	-78.9	0.0
2025-01-20 10:12:37.171566	269.8	32.1	-79.0	0.0
2025-01-20 10:12:38.297417	269.4	32.0	-78.7	0.0
2025-01-20 10:12:39.419036	269.1	31.8	-78.9	0.0
2025-01-20 10:12:40.541511	268.7	31.7	-78.9	0.0
2025-01-20 10:12:41.664097	268.4	31.6	-78.4	0.0
2025-01-20 10:12:42.784827	268.1	31.5	-78.8	0.0
2025-01-20 10:12:43.907295	267.7	31.4	-78.8	0.0
2025-01-20 10:12:45.030590	267.4	31.2	-79.3	0.0
2025-01-20 10:12:46.155659	267.1	31.1	-79.1	0.0
2025-01-20 10:12:47.277819	266.7	31.0	-78.9	0.0
2025-01-20 10:12:48.399903	266.4	30.9	-79.3	0.0
2025-01-20 10:12:49.523591	266.1	30.7	-78.8	0.0
2025-01-20 10:12:50.650234	265.8	30.6	-78.8	0.0
2025-01-20 10:12:51.773549	265.5	30.5	-79.0	0.0
2025-01-20 10:12:52.899052	265.2	30.4	-79.2	0.0
2025-01-20 10:12:54.022088	264.9	30.2	-78.9	0.0
2025-01-20 10:12:55.146788	264.6	30.1	-78.8	0.0
2025-01-20 10:12:56.269105	264.2	30.0	-78.7	0.0
2025-01-20 10:12:57.392939	263.9	29.8	-79.1	0.0
2025-01-20 10:12:58.515393	263.6	29.7	-78.7	0.0
2025-01-20 10:12:59.638233	263.3	29.6	-78.6	0.0
2025-01-20 10:13:00.760561	263.1	29.4	-78.7	0.0
2025-01-20 10:13:01.882673	262.8	29.3	-78.1	0.0
2025-01-20 10:13:03.006729	262.5	29.2	-78.2	0.0
2025-01-20 10:13:04.130585	262.2	29.1	-78.4	0.0
2025-01-20 10:13:05.252830	261.9	28.9	-78.4	0.0
2025-01-20 10:13:06.379820	261.6	28.8	-78.5	0.0
2025-01-20 10:13:07.502858	261.3	28.7	-78.6	0.0
2025-01-20 10:13:08.623781	261.1	28.5	-78.4	0.0
2025-01-20 10:13:09.746942	260.8	28.4	-78.5	0.0
2025-01-20 10:13:10.868943	260.5	28.3	-78.6	0.0
2025-01-20 10:13:11.992703	260.2	28.1	-78.7	0.0
2025-01-20 10:13:13.114713	260.0	28.0	-78.3	0.0
2025-01-20 10:13:14.236370	259.7	27.9	-78.7	0.0
2025-01-20 10:13:15.361062	259.4	27.7	-78.8	0.0
2025-01-20 10:13:16.484946	259.2	27.6	-79.1	0.0
2025-01-20 10:13:17.609810	258.9	27.5	-79.0	0.0
2025-01-20 10:13:18.734028	258.7	27.3	-79.1	0.0
2025-01-20 10:13:19.858957	258.4	27.2	-79.5	0.0
2025-01-20 10:13:20.981210	258.1	27.1	-79.0	0.0
2025-01-20 10:13:22.104674	257.9	27.0	-79.1	0.0
2025-01-20 10:13:23.226790	257.6	26.8	-79.3	0.0
2025-01-20 10:13:24.348914	257.4	26.7	-79.1	0.0
2025-01-20 10:13:25.470169	257.1	26.6	-78.5	0.0
2025-01-20 10:13:26.591672	256.9	26.4	-79.0	0.0
2025-01-20 10:13:27.711840	256.7	26.3	-79.5	0.0
2025-01-20 10:13:28.835116	256.4	26.2	-79.2	0.0
2025-01-20 10:13:29.958685	256.2	26.0	-79.3	0.0
2025-01-20 10:13:31.082762	255.9	25.9	-79.3	0.0
2025-01-20 10:13:32.208228	255.7	25.8	-79.2	0.0
2025-01-20 10:13:33.330407	255.5	25.6	-79.6	0.0
2025-01-20 10:13:34.452939	255.3	25.5	-79.4	0.0
2025-01-20 10:13:35.579151	255.0	25.4	-79.4	0.0
2025-01-20 10:13:36.702144	254.8	25.2	-79.2	0.0
2025-01-20 10:13:37.825090	254.6	25.1	-79.2	0.0
2025-01-20 10:13:38.948812	254.4	25.0	-79.1	0.0
2025-01-20 10:13:40.072044	254.1	24.9	-78.2	0.0
2025-01-20 10:13:41.193587	253.9	24.7	-78.7	0.0
2025-01-20 10:13:42.316449	253.7	24.6	-79.5	0.0
2025-01-20 10:13:43.437083	253.5	24.5	-79.3	0.0
2025-01-20 10:13:44.558606	253.3	24.3	-78.9	0.0
2025-01-20 10:13:45.683021	253.1	24.2	-78.9	0.0
2025-01-20 10:13:46.806484	252.8	24.1	-79.2	0.0
2025-01-20 10:13:47.930001	252.6	23.9	-79.7	0.0
2025-01-20 10:13:49.052915	252.4	23.8	-79.0	0.0
2025-01-20 10:13:50.174470	252.2	23.7	-78.8	0.0
2025-01-20 10:13:51.297401	252.0	23.6	-79.5	0.0
2025-01-20 10:13:52.422245	251.8	23.4	-79.4	0.0
2025-01-20 10:13:53.545333	251.6	23.3	-79.5	0.0
2025-01-20 10:13:54.667685	251.4	23.2	-79.6	0.0
2025-01-20 10:13:55.790945	251.2	23.1	-79.3	0.0
2025-01-20 10:13:56.912016	251.0	22.9	-79.6	0.0
2025-01-20 10:13:58.036941	250.8	22.8	-79.6	0.0
2025-01-20 10:13:59.160639	250.6	22.7	-79.6	0.0
2025-01-20 10:14:00.283696	250.5	22.5	-79.8	0.0
2025-01-20 10:14:01.408461	250.3	22.4	-79.4	0.0
2025-01-20 10:14:02.531005	250.1	22.3	-79.7	0.0
2025-01-20 10:14:03.655627	249.9	22.2	-79.9	0.0
2025-01-20 10:14:04.780191	249.7	22.0	-79.7	0.0
2025-01-20 10:14:05.903784	249.5	21.9	-79.6	0.0
2025-01-20 10:14:07.026904	249.3	21.8	-79.7	0.0
2025-01-20 10:14:08.148263	249.2	21.7	-79.4	0.0
2025-01-20 10:14:09.271279	249.0	21.5	-79.6	0.0
2025-01-20 10:14:10.394137	248.8	21.4	-79.1	0.0
2025-01-20 10:14:11.516790	248.6	21.3	-78.8	0.0
2025-01-20 10:14:12.641047	248.5	21.2	-79.4	0.0
2025-01-20 10:14:13.764693	248.3	21.1	-79.3	0.0
2025-01-20 10:14:14.886062	248.1	20.9	-79.0	0.0
2025-01-20 10:14:16.009757	247.9	20.8	-79.4	0.0
2025-01-20 10:14:17.133294	247.8	20.7	-79.2	0.0
2025-01-20 10:14:18.257287	247.6	20.6	-79.3	0.0
2025-01-20 10:14:19.381766	247.4	20.4	-79.1	0.0
2025-01-20 10:14:20.502632	247.3	20.3	-79.0	0.0
2025-01-20 10:14:21.623337	247.1	20.2	-79.0	0.0
2025-01-20 10:14:22.746352	247.0	20.1	-78.9	0.0
2025-01-20 10:14:23.870112	246.8	20.0	-79.3	0.0
2025-01-20 10:14:24.992787	246.6	19.8	-79.5	0.0
2025-01-20 10:14:26.115507	246.5	19.7	-79.3	0.0
2025-01-20 10:14:27.238301	246.3	19.6	-79.5	0.0
2025-01-20 10:14:28.361395	246.2	19.5	-79.0	0.0
2025-01-20 10:14:29.485190	246.0	19.4	-79.0	0.0
2025-01-20 10:14:30.609875	245.9	19.2	-78.9	0.0
2025-01-20 10:14:31.735480	245.7	19.1	-79.2	0.0
2025-01-20 10:14:32.860552	245.5	19.0	-78.4	0.0
2025-01-20 10:14:33.982010	245.4	18.9	-78.7	0.0
2025-01-20 10:14:35.105999	245.2	18.8	-78.8	0.0
2025-01-20 10:14:36.228741	245.1	18.7	-78.6	0.0
2025-01-20 10:14:37.353380	245.0	18.5	-78.6	0.0
2025-01-20 10:14:38.478002	244.8	18.4	-79.3	0.0
2025-01-20 10:14:39.602835	244.7	18.3	-79.1	0.0
2025-01-20 10:14:40.724228	244.5	18.2	-78.5	0.0
2025-01-20 10:14:41.848338	244.4	18.1	-78.7	0.0
2025-01-20 10:14:42.972568	244.2	18.0	-78.6	0.0
2025-01-20 10:14:44.097276	244.1	17.9	-78.5	0.0
2025-01-20 10:14:45.221032	244.0	17.7	-78.8	0.0
2025-01-20 10:14:46.345413	243.8	17.6	-78.4	0.0
2025-01-20 10:14:47.469511	243.7	17.5	-78.1	0.0
2025-01-20 10:14:48.593550	243.5	17.4	-78.1	0.0
2025-01-20 10:14:49.717917	243.4	17.3	-77.8	0.0
2025-01-20 10:14:50.840115	243.3	17.2	-77.4	0.0
2025-01-20 10:14:51.962995	243.1	17.1	-77.9	0.0
2025-01-20 10:14:53.086311	243.0	17.0	-77.6	0.0
2025-01-20 10:14:54.210012	242.9	16.9	-78.0	0.0
2025-01-20 10:14:55.332886	242.8	16.7	-77.4	0.0
2025-01-20 10:14:56.455824	242.6	16.6	-77.4	0.0
2025-01-20 10:14:57.579261	242.5	16.5	-77.0	0.0
2025-01-20 10:14:58.703786	242.4	16.4	-77.6	0.0
2025-01-20 10:14:59.828454	242.2	16.3	-77.2	0.0
2025-01-20 10:15:00.949874	242.1	16.2	-77.1	0.0
2025-01-20 10:15:02.072278	242.0	16.1	-77.1	0.0
2025-01-20 10:15:03.195762	241.9	16.0	-77.3	0.0
2025-01-20 10:15:04.318884	241.7	15.9	-78.5	0.0
2025-01-20 10:15:05.442408	241.6	15.8	-77.3	0.0
2025-01-20 10:15:06.564503	241.5	15.7	-77.9	0.0
2025-01-20 10:15:07.688073	241.4	15.6	-77.7	0.0
2025-01-20 10:15:08.813068	241.3	15.4	-77.3	0.0
2025-01-20 10:15:09.938867	241.1	15.3	-77.4	0.0
2025-01-20 10:15:11.061190	241.0	15.2	-77.0	0.0
2025-01-20 10:15:12.180614	240.9	15.1	-77.1	0.0
2025-01-20 10:15:13.304485	240.8	15.0	-77.2	0.0
2025-01-20 10:15:14.427952	240.7	14.9	-77.4	0.0
2025-01-20 10:15:15.550510	240.6	14.8	-76.2	0.0
2025-01-20 10:15:16.674901	240.5	14.7	-76.9	0.0
2025-01-20 10:15:17.797333	240.3	14.6	-76.7	0.0
2025-01-20 10:15:18.922126	240.2	14.5	-76.9	0.0
2025-01-20 10:15:20.044205	240.1	14.4	-77.1	0.0
2025-01-20 10:15:21.166915	240.0	14.3	-78.1	0.0
2025-01-20 10:15:22.290078	239.9	14.2	-78.1	0.0
2025-01-20 10:15:23.414044	239.8	14.1	-77.9	0.0
2025-01-20 10:15:24.536600	239.7	14.0	-77.0	0.0
2025-01-20 10:15:25.663202	239.6	13.9	-78.3	0.0
2025-01-20 10:15:26.786823	239.5	13.8	-77.8	0.0
2025-01-20 10:15:27.910782	239.4	13.7	-77.5	0.0
2025-01-20 10:15:29.034916	239.3	13.6	-77.5	0.0
2025-01-20 10:15:30.158149	239.2	13.5	-78.7	0.0
2025-01-20 10:15:31.279996	239.1	13.4	-77.9	0.0
2025-01-20 10:15:32.402654	239.0	13.3	-78.1	0.0
2025-01-20 10:15:33.523205	238.9	13.2	-78.0	0.0
2025-01-20 10:15:34.646954	238.8	13.1	-77.8	0.0
2025-01-20 10:15:35.771883	238.7	13.0	-77.6	0.0
2025-01-20 10:15:36.894423	238.6	12.9	-78.2	0.0
2025-01-20 10:15:38.017234	238.5	12.8	-77.8	0.0
2025-01-20 10:15:39.142479	238.4	12.7	-77.6	0.0
2025-01-20 10:15:40.266402	238.3	12.6	-77.7	0.0
2025-01-20 10:15:41.390182	238.2	12.5	-78.0	0.0
2025-01-20 10:15:42.514829	238.1	12.4	-77.9	0.0
2025-01-20 10:15:43.638103	238.0	12.3	-77.8	0.0
2025-01-20 10:15:44.759658	237.9	12.2	-77.0	0.0
2025-01-20 10:15:45.883157	237.8	12.1	-77.5	0.0
2025-01-20 10:15:47.007098	237.7	12.0	-77.2	0.0
2025-01-20 10:15:48.128649	237.6	11.9	-77.3	0.0
2025-01-20 10:15:49.249977	237.5	11.8	-77.8	0.0
2025-01-20 10:15:50.372338	237.4	11.7	-77.9	0.0
2025-01-20 10:15:51.493295	237.3	11.6	-77.4	0.0
2025-01-20 10:15:52.617814	237.2	11.5	-77.3	0.0
2025-01-20 10:15:53.742301	237.1	11.5	-77.5	0.0
2025-01-20 10:15:54.865408	237.0	11.4	-77.4	0.0
2025-01-20 10:15:55.991005	237.0	11.3	-77.3	0.0
2025-01-20 10:15:57.113603	236.9	11.2	-76.7	0.0
2025-01-20 10:15:58.236031	236.8	11.1	-76.8	0.0
2025-01-20 10:15:59.357750	236.7	11.0	-76.4	0.0
2025-01-20 10:16:00.479784	236.6	10.9	-79.4	0.0
2025-01-20 10:16:01.603449	236.5	10.8	-79.6	0.0
2025-01-20 10:16:02.725421	236.4	10.7	-79.4	0.0
2025-01-20 10:16:03.848323	236.3	10.6	-80.6	0.0
2025-01-20 10:16:04.972984	236.3	10.5	-80.4	0.0
2025-01-20 10:16:06.096671	236.2	10.4	-81.1	0.0
2025-01-20 10:16:07.219000	236.1	10.4	-81.8	0.0
2025-01-20 10:16:08.343115	236.0	10.3	-81.1	0.0
2025-01-20 10:16:09.466830	235.9	10.2	-81.9	0.0
2025-01-20 10:16:10.586780	235.8	10.1	-82.6	0.0
#Closed at: 2025-01-20 10:06:09.204363