passes_logs/2026/01/11/R2.0S_Moscow/R2.0S_Moscow__20260111_231105_NOAA_20_JPSS-1_rec.log

#Pass ID: 20260111_231105_NOAA 20 (JPSS-1)
#Satellite: NOAA 20 (JPSS-1)
#Configuration: NOAA 20
#almurnet v.1.7.20251203
#Start time: 2026-01-11 23:11:05

#Version: 2.2.20231116
#Station: R2.0S_Moscow
#Location: 37.707566 lon 55.798166 lat
#TLE: 1 43013U 17073A   26011.31235446  .00000090  00000+0  63634-4 0  9991
#TLE: 2 43013  98.7632 312.2907 0001646  44.6084 315.5224 14.19535308422217

#Time	Az	El	Level	Level2	SNR	BER	BlckErr	Temp	State	Recorded	gain1	gain2
2026-01-11 23:11:05.62	18.52	2.01	-41.4	-56.4	3.8	1.49e+00	0	48	0	0	54	20111
2026-01-11 23:11:06.63	18.55	2.08	-41.3	-56.4	3.8	1.49e+00	0	48	104	0	53	21373
2026-01-11 23:11:07.64	18.57	2.14	-41.3	-56.4	3.8	1.49e+00	0	48	104	0	53	21289
2026-01-11 23:11:08.65	18.60	2.20	-41.3	-56.4	3.8	1.49e+00	0	48	104	0	53	21269
2026-01-11 23:11:09.66	18.63	2.27	-41.3	-56.3	3.8	1.49e+00	0	48	104	0	53	21258
2026-01-11 23:11:10.67	18.65	2.33	-41.4	-56.3	3.8	1.49e+00	0	48	104	0	53	21218
2026-01-11 23:11:11.68	18.68	2.39	-41.3	-56.3	3.8	1.49e+00	0	48	104	0	53	21256
2026-01-11 23:11:12.69	18.70	2.46	-41.4	-56.3	3.8	1.49e+00	0	49	104	0	53	21200
2026-01-11 23:11:13.70	18.73	2.52	-41.4	-56.3	3.8	1.49e+00	0	49	104	0	53	21249
2026-01-11 23:11:14.71	18.76	2.59	-41.3	-56.3	3.8	1.49e+00	0	49	104	0	53	21215
2026-01-11 23:11:15.72	18.78	2.65	-41.4	-56.3	3.8	1.49e+00	0	49	104	0	53	21195
2026-01-11 23:11:16.73	18.81	2.72	-41.4	-56.3	3.8	1.49e+00	0	49	104	0	53	21196
2026-01-11 23:11:17.75	18.84	2.78	-41.4	-56.3	3.8	1.49e+00	0	49	104	0	53	21214
2026-01-11 23:11:18.76	18.86	2.85	-41.4	-56.3	3.8	1.49e+00	0	49	104	0	53	21247
2026-01-11 23:11:19.77	18.89	2.91	-41.3	-56.4	3.8	1.49e+00	0	49	104	0	53	21268
2026-01-11 23:11:20.78	18.92	2.98	-41.3	-56.3	3.8	1.49e+00	0	49	104	0	53	21222
2026-01-11 23:11:21.79	18.95	3.04	-41.4	-56.4	3.8	1.49e+00	0	49	104	0	53	21266
2026-01-11 23:11:22.80	18.97	3.11	-41.4	-56.4	3.8	1.49e+00	0	49	104	0	53	21273
2026-01-11 23:11:23.81	19.00	3.17	-41.4	-56.4	3.8	1.49e+00	0	49	104	0	53	21314
2026-01-11 23:11:24.82	19.03	3.24	-41.3	-56.3	3.8	1.49e+00	0	49	104	0	53	21180
2026-01-11 23:11:25.83	19.06	3.31	-41.3	-56.3	3.8	1.49e+00	0	49	104	0	53	21251
2026-01-11 23:11:26.84	19.08	3.37	-41.3	-56.4	3.8	1.49e+00	0	50	104	0	53	21313
2026-01-11 23:11:27.85	19.11	3.44	-41.3	-56.3	3.8	1.49e+00	0	49	104	0	53	21199
2026-01-11 23:11:28.86	19.14	3.51	-41.4	-56.3	3.8	1.49e+00	0	50	104	0	53	21245
2026-01-11 23:11:29.87	19.17	3.57	-41.3	-56.3	3.8	1.49e+00	0	50	104	0	53	21200
2026-01-11 23:11:30.89	19.20	3.64	-41.3	-56.4	3.8	1.49e+00	0	50	104	0	53	21273
2026-01-11 23:11:31.90	19.23	3.71	-41.4	-56.3	3.8	1.49e+00	0	50	104	0	53	21221
2026-01-11 23:11:32.91	19.25	3.77	-41.4	-56.3	3.8	1.49e+00	0	50	104	0	53	21258
2026-01-11 23:11:33.92	19.28	3.84	-41.3	-56.3	3.8	1.49e+00	0	50	104	0	53	21249
2026-01-11 23:11:34.93	19.31	3.91	-41.4	-56.4	3.8	1.49e+00	0	50	104	0	53	21278
2026-01-11 23:11:35.94	19.34	3.98	-41.4	-56.4	3.8	1.49e+00	0	50	104	0	53	21296
2026-01-11 23:11:36.95	19.37	4.05	-41.3	-56.3	3.8	1.49e+00	0	50	104	0	53	21255
2026-01-11 23:11:37.96	19.40	4.11	-41.3	-56.3	3.8	1.49e+00	0	50	104	0	53	21253
2026-01-11 23:11:38.97	19.43	4.18	-41.4	-56.3	3.8	1.49e+00	0	50	104	0	53	21217
2026-01-11 23:11:39.99	19.46	4.25	-41.4	-56.4	3.8	1.49e+00	0	50	104	0	53	21289
2026-01-11 23:11:41.00	19.49	4.32	-41.4	-56.3	3.8	1.49e+00	0	50	104	0	53	21234
2026-01-11 23:11:42.01	19.52	4.39	-41.4	-56.3	3.8	1.49e+00	0	50	104	0	53	21228
2026-01-11 23:11:43.02	19.54	4.46	-41.4	-56.4	3.8	1.49e+00	0	50	104	0	53	21277
2026-01-11 23:11:44.03	19.57	4.53	-41.3	-56.3	3.8	1.49e+00	0	50	104	0	53	21194
2026-01-11 23:11:45.04	19.60	4.59	-41.3	-56.3	3.8	1.49e+00	0	50	104	0	53	21222
2026-01-11 23:11:46.05	19.63	4.66	-41.3	-56.3	3.8	1.49e+00	0	50	104	0	53	21242
2026-01-11 23:11:47.06	19.66	4.73	-41.3	-56.3	3.8	1.49e+00	0	51	104	0	53	21233
2026-01-11 23:11:48.08	19.69	4.80	-41.4	-56.3	3.8	1.49e+00	0	51	104	0	53	21179
2026-01-11 23:11:49.09	19.73	4.87	-41.3	-56.3	3.8	1.49e+00	0	51	104	0	53	21234
2026-01-11 23:11:50.10	19.76	4.94	-41.3	-56.3	3.8	1.49e+00	0	51	104	0	53	21257
2026-01-11 23:11:51.11	19.79	5.01	-41.3	-56.4	3.8	1.49e+00	0	51	104	0	53	21273
2026-01-11 23:11:52.12	19.82	5.09	-41.3	-56.4	3.8	1.49e+00	0	51	104	0	53	21272
2026-01-11 23:11:53.13	19.85	5.16	-41.4	-56.3	3.8	1.49e+00	0	51	104	0	53	21216
2026-01-11 23:11:54.14	19.88	5.23	-41.3	-56.3	3.8	1.49e+00	0	51	104	0	53	21181
2026-01-11 23:11:55.15	19.91	5.30	-41.4	-56.3	3.8	1.49e+00	0	51	104	0	53	21224
2026-01-11 23:11:56.16	19.94	5.37	-41.3	-56.3	3.8	1.49e+00	0	51	104	0	53	21246
2026-01-11 23:11:57.17	19.97	5.44	-41.4	-56.3	3.8	1.49e+00	0	51	104	0	53	21247
2026-01-11 23:11:58.19	20.00	5.51	-41.3	-56.3	3.8	1.49e+00	0	51	104	0	53	21245
2026-01-11 23:11:59.20	20.04	5.58	-41.4	-56.3	3.8	1.49e+00	0	51	104	0	53	21216
2026-01-11 23:12:00.21	20.07	5.66	-41.3	-56.3	3.8	1.49e+00	0	52	104	0	53	21216
2026-01-11 23:12:01.22	20.10	5.73	-41.3	-56.3	3.8	1.49e+00	0	51	104	0	53	21232
2026-01-11 23:12:02.23	20.13	5.80	-41.4	-56.4	3.8	1.49e+00	0	51	104	0	53	21265
2026-01-11 23:12:03.24	20.16	5.87	-41.4	-56.3	3.8	1.49e+00	0	52	104	0	53	21211
2026-01-11 23:12:04.25	20.20	5.95	-41.4	-56.3	3.8	1.49e+00	0	52	104	0	53	21179
2026-01-11 23:12:05.26	20.23	6.02	-41.4	-56.4	3.8	1.49e+00	0	52	104	0	53	21282
2026-01-11 23:12:06.27	20.26	6.09	-41.3	-56.3	3.8	1.49e+00	0	52	104	0	53	21186
2026-01-11 23:12:07.28	20.29	6.17	-41.3	-56.3	3.8	1.49e+00	0	52	104	0	53	21126
2026-01-11 23:12:08.30	20.33	6.24	-41.4	-56.3	3.8	1.49e+00	0	52	104	0	53	21247
2026-01-11 23:12:09.31	20.36	6.31	-41.3	-56.3	3.8	1.49e+00	0	52	104	0	53	21201
2026-01-11 23:12:10.32	20.39	6.39	-41.4	-56.4	3.8	1.49e+00	0	52	104	0	53	21261
2026-01-11 23:12:11.33	20.43	6.46	-41.4	-56.3	3.8	1.49e+00	0	52	104	0	53	21168
2026-01-11 23:12:12.34	20.46	6.54	-41.4	-56.3	3.8	1.49e+00	0	52	104	0	53	21132
2026-01-11 23:12:13.35	20.49	6.61	-41.3	-56.3	3.8	1.49e+00	0	52	104	0	53	21189
2026-01-11 23:12:14.36	20.53	6.69	-41.4	-56.3	3.8	1.49e+00	0	52	104	0	53	21186
2026-01-11 23:12:15.37	20.56	6.76	-41.4	-56.3	3.8	1.49e+00	0	52	104	0	53	21186
2026-01-11 23:12:16.38	20.59	6.84	-41.3	-56.3	3.8	1.49e+00	0	52	104	0	53	21166
2026-01-11 23:12:17.39	20.63	6.91	-41.3	-56.3	3.8	1.49e+00	0	52	104	0	53	21033
2026-01-11 23:12:18.41	20.66	6.99	-41.3	-56.2	3.8	1.49e+00	0	52	104	0	53	20970
2026-01-11 23:12:19.42	20.70	7.06	-41.3	-56.2	3.8	1.49e+00	0	52	104	0	53	20986
2026-01-11 23:12:20.43	20.73	7.14	-41.2	-56.2	3.8	1.49e+00	0	52	104	0	53	20843
2026-01-11 23:12:21.44	20.77	7.22	-41.2	-56.1	3.8	1.49e+00	0	52	104	0	53	20655
2026-01-11 23:12:22.45	20.80	7.29	-41.2	-55.9	3.8	1.49e+00	0	52	104	0	53	20282
2026-01-11 23:12:23.46	20.84	7.37	-41.1	-55.7	3.8	1.49e+00	0	52	104	0	53	19778
2026-01-11 23:12:24.47	20.87	7.45	-41.1	-55.2	3.8	1.49e+00	0	52	104	0	53	18725
2026-01-11 23:12:25.48	20.91	7.52	-41.1	-54.4	3.8	1.49e+00	0	52	104	0	53	17072
2026-01-11 23:12:26.50	20.94	7.60	-41.1	-53.3	4.1	1.48e+00	0	52	0	0	53	14928
2026-01-11 23:12:27.51	20.98	7.68	-41.0	-51.8	4.5	1.24e+00	13	52	0	0	53	12662
2026-01-11 23:12:28.52	21.02	7.76	-40.8	-50.3	5.3	7.18e-01	0	53	0	2097152	53	10589
2026-01-11 23:12:29.53	21.05	7.84	-40.6	-48.9	6.2	4.04e-01	0	53	0	4194304	53	9003
2026-01-11 23:12:30.54	21.09	7.91	-40.4	-47.6	7.4	1.35e-01	0	53	0	6291456	52	8258
2026-01-11 23:12:31.55	21.12	7.99	-40.1	-46.6	8.4	5.89e-02	0	53	0	7340032	52	7293
2026-01-11 23:12:32.56	21.16	8.07	-40.0	-45.4	10.0	2.64e-02	0	53	0	9437184	51	6744
2026-01-11 23:12:33.57	21.20	8.15	-40.7	-45.5	10.8	2.65e-03	0	53	0	11534336	51	6841
2026-01-11 23:12:34.58	21.23	8.23	-40.0	-45.5	10.0	9.62e-03	0	53	0	13631488	51	6869
2026-01-11 23:12:35.59	21.27	8.31	-40.8	-51.0	4.8	9.88e-01	0	53	0	15728640	52	12104
2026-01-11 23:12:36.60	21.31	8.39	-40.2	-44.9	10.8	1.45e+00	0	53	0	15728640	52	6043
2026-01-11 23:12:37.61	21.35	8.47	-41.0	-46.3	9.9	1.73e-02	0	53	0	16777216	53	6703
2026-01-11 23:12:38.62	21.38	8.55	-40.9	-45.9	10.4	5.73e-03	0	53	0	18874368	53	6362
2026-01-11 23:12:39.63	21.42	8.63	-40.9	-45.6	10.8	3.22e-03	0	53	0	20971520	53	6190
2026-01-11 23:12:40.64	21.46	8.71	-40.8	-45.2	11.2	1.64e-03	0	53	0	23068672	53	5904
2026-01-11 23:12:41.65	21.50	8.79	-40.7	-45.1	11.4	8.97e-04	0	53	0	25165824	53	5804
2026-01-11 23:12:42.67	21.54	8.87	-40.9	-45.4	11.1	1.12e-03	0	53	0	26214400	53	6002
2026-01-11 23:12:43.67	21.58	8.95	-40.9	-45.5	11.0	1.72e-03	0	53	0	28311552	53	6097
2026-01-11 23:12:44.68	21.61	9.04	-40.8	-45.2	11.3	1.35e-03	0	53	0	30408704	53	5880
2026-01-11 23:12:45.69	21.65	9.12	-40.7	-45.0	11.6	8.96e-04	0	53	0	32505856	53	5744
2026-01-11 23:12:46.70	21.69	9.20	-40.7	-44.9	11.7	6.94e-04	0	53	0	34603008	53	5712
2026-01-11 23:12:47.71	21.73	9.28	-40.7	-45.0	11.6	6.74e-04	0	53	0	35651584	53	5751
2026-01-11 23:12:48.72	21.77	9.37	-40.7	-44.9	11.7	6.19e-04	0	53	0	37748736	53	5698
2026-01-11 23:12:49.73	21.81	9.45	-40.7	-44.8	11.8	4.49e-04	0	53	0	39845888	53	5651
2026-01-11 23:12:50.74	21.85	9.53	-40.7	-44.9	11.8	5.00e-04	0	53	0	41943040	53	5672
2026-01-11 23:12:51.75	21.89	9.62	-40.6	-44.6	12.2	3.02e-04	0	53	0	44040192	53	5509
2026-01-11 23:12:52.76	21.93	9.70	-40.7	-44.7	12.1	2.52e-04	0	53	0	45088768	53	5561
2026-01-11 23:12:53.77	21.97	9.78	-40.7	-44.6	12.3	1.75e-04	0	53	0	47185920	53	5498
2026-01-11 23:12:54.78	22.01	9.87	-40.8	-44.8	12.1	2.97e-04	0	53	0	49283072	53	5607
2026-01-11 23:12:55.79	22.05	9.95	-40.7	-44.7	12.3	2.28e-04	0	53	0	51380224	53	5538
2026-01-11 23:12:56.80	22.10	10.04	-40.9	-44.8	12.1	2.15e-04	0	54	0	53477376	53	5654
2026-01-11 23:12:57.81	22.14	10.12	-40.8	-44.7	12.3	2.28e-04	0	53	0	54525952	53	5588
2026-01-11 23:12:58.82	22.18	10.21	-40.9	-44.7	12.3	1.94e-04	0	54	0	56623104	53	5577
2026-01-11 23:12:59.83	22.22	10.30	-40.9	-44.7	12.4	1.95e-04	0	54	0	58720256	53	5552
2026-01-11 23:13:00.84	22.26	10.38	-40.9	-44.6	12.5	1.04e-04	0	53	0	60817408	53	5506
2026-01-11 23:13:01.84	22.30	10.47	-40.9	-44.5	12.6	1.25e-04	0	54	0	62914560	53	5456
2026-01-11 23:13:02.85	22.35	10.55	-40.8	-44.4	12.7	1.07e-04	0	54	0	65011712	53	5401
2026-01-11 23:13:03.86	22.39	10.64	-40.9	-44.5	12.6	9.53e-05	0	53	0	66060288	53	5455
2026-01-11 23:13:04.87	22.43	10.73	-40.8	-44.4	12.7	6.25e-05	0	54	0	68157440	53	5400
2026-01-11 23:13:05.88	22.48	10.82	-40.8	-44.4	12.8	7.70e-05	0	54	0	70254592	53	5366
2026-01-11 23:13:06.89	22.52	10.90	-40.8	-44.4	12.8	3.81e-05	0	54	0	72351744	53	5378
2026-01-11 23:13:07.90	22.56	10.99	-40.8	-44.3	12.9	3.96e-05	0	54	0	74448896	53	5323
2026-01-11 23:13:08.91	22.61	11.08	-40.8	-44.3	12.9	2.82e-05	0	54	0	75497472	53	5340
2026-01-11 23:13:09.92	22.65	11.17	-40.8	-44.2	13.1	3.20e-05	0	54	0	77594624	53	5253
2026-01-11 23:13:10.93	22.70	11.26	-40.8	-44.2	13.0	4.50e-05	0	54	0	79691776	53	5278
2026-01-11 23:13:11.94	22.74	11.35	-40.8	-44.2	13.1	3.12e-05	0	54	0	81788928	53	5232
2026-01-11 23:13:12.95	22.79	11.44	-40.8	-44.1	13.2	2.51e-05	0	54	0	83886080	53	5213
2026-01-11 23:13:13.96	22.83	11.53	-40.8	-44.1	13.2	2.21e-05	0	54	0	84934656	53	5199
2026-01-11 23:13:14.97	22.88	11.62	-40.8	-44.1	13.3	1.37e-05	0	54	0	87031808	53	5190
2026-01-11 23:13:15.98	22.92	11.71	-40.8	-44.1	13.3	1.60e-05	0	54	0	89128960	53	5184
2026-01-11 23:13:16.99	22.97	11.80	-40.8	-44.1	13.3	9.90e-06	0	54	0	91226112	53	5180
2026-01-11 23:13:18.00	23.01	11.89	-40.7	-43.9	13.5	1.22e-05	0	54	0	93323264	53	5097
2026-01-11 23:13:19.01	23.06	11.98	-40.8	-44.1	13.4	2.05e-05	0	54	0	94371840	53	5175
2026-01-11 23:13:20.01	23.11	12.08	-40.7	-44.0	13.5	9.90e-06	0	54	0	96468992	53	5119
2026-01-11 23:13:21.02	23.15	12.17	-40.7	-43.9	13.5	9.90e-06	0	54	0	98566144	53	5073
2026-01-11 23:13:22.03	23.20	12.26	-40.7	-43.9	13.6	1.22e-05	0	54	0	100663296	53	5078
2026-01-11 23:13:23.04	23.25	12.35	-40.7	-43.9	13.6	9.90e-06	0	54	0	102760448	53	5070
2026-01-11 23:13:24.05	23.30	12.45	-40.6	-43.8	13.7	6.80e-06	0	54	0	103809024	53	5029
2026-01-11 23:13:25.06	23.34	12.54	-40.7	-43.9	13.6	8.30e-06	0	54	0	105906176	53	5067
2026-01-11 23:13:26.07	23.39	12.64	-40.6	-43.8	13.7	5.30e-06	0	54	0	108003328	53	5009
2026-01-11 23:13:27.08	23.44	12.73	-40.6	-43.7	13.8	3.80e-06	0	54	0	110100480	53	4961
2026-01-11 23:13:28.09	23.49	12.83	-40.7	-43.8	13.7	4.50e-06	0	54	0	112197632	53	5029
2026-01-11 23:13:29.10	23.54	12.92	-40.6	-43.8	13.8	6.80e-06	0	54	0	113246208	53	5005
2026-01-11 23:13:30.11	23.59	13.02	-40.6	-43.8	13.8	7.60e-06	0	54	0	115343360	53	4992
2026-01-11 23:13:31.12	23.64	13.11	-40.6	-43.7	13.8	5.30e-06	0	54	0	117440512	53	4983
2026-01-11 23:13:32.13	23.69	13.21	-40.6	-43.7	13.9	2.20e-06	0	54	0	119537664	53	4928
2026-01-11 23:13:33.14	23.74	13.31	-40.6	-43.7	13.9	6.10e-06	0	54	0	121634816	53	4935
2026-01-11 23:13:34.15	23.79	13.40	-40.6	-43.6	14.0	3.80e-06	0	54	0	122683392	53	4908
2026-01-11 23:13:35.16	23.84	13.50	-40.5	-43.6	14.0	3.00e-06	0	54	0	124780544	53	4889
2026-01-11 23:13:36.17	23.89	13.60	-40.5	-43.6	14.1	5.30e-06	0	54	0	126877696	53	4878
2026-01-11 23:13:37.18	23.94	13.70	-40.5	-43.5	14.1	7.00e-07	0	54	0	128974848	53	4864
2026-01-11 23:13:38.19	24.00	13.79	-40.6	-43.6	14.1	1.50e-06	0	54	0	131072000	53	4890
2026-01-11 23:13:39.20	24.05	13.89	-40.6	-43.6	14.1	3.00e-06	0	54	0	133169152	53	4883
2026-01-11 23:13:40.21	24.10	13.99	-40.6	-43.5	14.1	5.30e-06	0	54	0	134217728	53	4870
2026-01-11 23:13:41.22	24.15	14.09	-40.5	-43.5	14.2	1.50e-06	0	54	0	136314880	53	4833
2026-01-11 23:13:42.22	24.21	14.19	-40.5	-43.4	14.2	7.00e-07	0	54	0	138412032	53	4812
2026-01-11 23:13:43.23	24.26	14.29	-40.4	-43.3	14.4	0.00e+00	0	54	0	140509184	52	5015
2026-01-11 23:13:44.24	24.31	14.39	-40.4	-43.3	14.4	1.50e-06	0	55	0	142606336	52	5033
2026-01-11 23:13:45.25	24.37	14.49	-40.4	-43.3	14.4	1.50e-06	0	55	0	143654912	52	5027
2026-01-11 23:13:46.26	24.42	14.60	-40.4	-43.2	14.5	0.00e+00	0	55	0	145752064	52	4960
2026-01-11 23:13:47.27	24.48	14.70	-40.4	-43.2	14.5	1.50e-06	0	54	0	147849216	52	4972
2026-01-11 23:13:48.28	24.53	14.80	-40.3	-43.2	14.5	0.00e+00	0	55	0	149946368	52	4946
2026-01-11 23:13:49.29	24.59	14.90	-40.3	-43.1	14.6	1.50e-06	0	55	0	152043520	52	4926
2026-01-11 23:13:50.30	24.64	15.01	-40.3	-43.2	14.6	7.00e-07	0	54	0	153092096	52	4929
2026-01-11 23:13:51.31	24.70	15.11	-40.3	-43.2	14.6	0.00e+00	0	55	0	155189248	52	4939
2026-01-11 23:13:52.32	24.76	15.21	-40.3	-43.1	14.6	0.00e+00	0	55	0	157286400	52	4894
2026-01-11 23:13:53.33	24.81	15.32	-40.3	-43.1	14.6	7.00e-07	0	54	0	159383552	52	4907
2026-01-11 23:13:54.34	24.87	15.42	-40.3	-43.1	14.6	7.00e-07	0	55	0	161480704	52	4906
2026-01-11 23:13:55.35	24.93	15.53	-40.3	-43.1	14.7	0.00e+00	0	55	0	162529280	52	4879
2026-01-11 23:13:56.36	24.99	15.64	-40.3	-43.1	14.6	0.00e+00	0	55	0	164626432	52	4908
2026-01-11 23:13:57.37	25.05	15.74	-40.3	-43.1	14.7	0.00e+00	0	55	0	166723584	52	4888
2026-01-11 23:13:58.38	25.10	15.85	-40.3	-43.1	14.6	7.00e-07	0	55	0	168820736	52	4906
2026-01-11 23:13:59.39	25.16	15.96	-40.3	-43.0	14.7	7.00e-07	0	55	0	170917888	52	4868
2026-01-11 23:14:00.39	25.22	16.06	-40.2	-43.0	14.8	0.00e+00	0	55	0	171966464	52	4844
2026-01-11 23:14:01.40	25.28	16.17	-40.2	-43.0	14.8	0.00e+00	0	55	0	174063616	52	4836
2026-01-11 23:14:02.41	25.34	16.28	-40.2	-43.0	14.8	0.00e+00	0	55	0	176160768	52	4828
2026-01-11 23:14:03.42	25.40	16.39	-40.2	-42.9	15.0	0.00e+00	0	55	0	178257920	52	4776
2026-01-11 23:14:04.43	25.47	16.50	-40.2	-42.8	15.0	0.00e+00	0	55	0	180355072	52	4752
2026-01-11 23:14:05.44	25.53	16.61	-40.1	-42.8	15.1	0.00e+00	0	55	0	181403648	52	4732
2026-01-11 23:14:06.45	25.59	16.72	-40.2	-42.8	15.0	7.00e-07	0	55	0	183500800	52	4757
2026-01-11 23:14:07.46	25.65	16.83	-40.2	-42.8	15.1	0.00e+00	0	55	0	185597952	52	4745
2026-01-11 23:14:08.47	25.72	16.94	-40.1	-42.8	15.1	0.00e+00	0	55	0	187695104	52	4711
2026-01-11 23:14:09.48	25.78	17.05	-40.1	-42.8	15.1	0.00e+00	0	55	0	189792256	52	4721
2026-01-11 23:14:10.47	25.84	17.16	-40.1	-42.8	15.1	0.00e+00	0	55	0	190840832	52	4725
2026-01-11 23:14:11.48	25.91	17.28	-40.1	-42.7	15.2	0.00e+00	0	55	0	192937984	52	4700
2026-01-11 23:14:12.49	25.97	17.39	-40.0	-42.6	15.3	0.00e+00	0	55	0	195035136	52	4641
2026-01-11 23:14:13.50	26.04	17.50	-40.1	-42.7	15.2	0.00e+00	0	55	0	197132288	52	4668
2026-01-11 23:14:14.51	26.10	17.62	-40.1	-42.7	15.2	0.00e+00	0	55	0	199229440	52	4692
2026-01-11 23:14:15.52	26.17	17.73	-40.1	-42.7	15.2	0.00e+00	0	55	0	200278016	52	4693
2026-01-11 23:14:16.53	26.24	17.85	-40.1	-42.7	15.2	0.00e+00	0	55	0	202375168	52	4686
2026-01-11 23:14:17.54	26.30	17.96	-40.1	-42.7	15.3	0.00e+00	0	55	0	204472320	52	4670
2026-01-11 23:14:18.55	26.37	18.08	-40.1	-42.6	15.3	0.00e+00	0	55	0	206569472	52	4639
2026-01-11 23:14:19.56	26.44	18.20	-40.0	-42.5	15.4	7.00e-07	0	55	0	208666624	52	4596
2026-01-11 23:14:20.57	26.51	18.31	-40.0	-42.5	15.6	0.00e+00	0	55	0	209715200	51	4818
2026-01-11 23:14:21.58	26.58	18.43	-40.0	-42.5	15.6	0.00e+00	0	55	0	211812352	51	4860
2026-01-11 23:14:22.59	26.65	18.55	-40.0	-42.4	15.6	0.00e+00	0	55	0	213909504	51	4799
2026-01-11 23:14:23.59	26.72	18.67	-40.0	-42.4	15.6	0.00e+00	0	55	0	216006656	51	4810
2026-01-11 23:14:24.60	26.79	18.79	-39.9	-42.4	15.6	0.00e+00	0	55	0	218103808	51	4785
2026-01-11 23:14:25.61	26.86	18.91	-39.9	-42.4	15.7	0.00e+00	0	55	0	219152384	51	4768
2026-01-11 23:14:26.62	26.93	19.03	-39.9	-42.3	15.8	0.00e+00	0	55	0	221249536	51	4746
2026-01-11 23:14:27.63	27.00	19.15	-39.9	-42.3	15.7	0.00e+00	0	55	0	223346688	51	4737
2026-01-11 23:14:28.64	27.07	19.27	-39.9	-42.3	15.8	0.00e+00	0	55	0	225443840	51	4721
2026-01-11 23:14:29.65	27.15	19.39	-39.9	-42.3	15.8	0.00e+00	0	55	0	227540992	51	4724
2026-01-11 23:14:30.66	27.22	19.52	-39.8	-42.2	15.9	0.00e+00	0	55	0	229638144	51	4673
2026-01-11 23:14:31.67	27.30	19.64	-39.8	-42.2	15.9	0.00e+00	0	55	0	230686720	51	4675
2026-01-11 23:14:32.68	27.37	19.76	-39.8	-42.2	15.9	0.00e+00	0	55	0	232783872	51	4675
2026-01-11 23:14:33.69	27.45	19.89	-39.8	-42.2	15.9	0.00e+00	0	55	0	234881024	51	4679
2026-01-11 23:14:34.70	27.52	20.01	-39.8	-42.2	15.9	0.00e+00	0	55	0	236978176	51	4660
2026-01-11 23:14:35.71	27.60	20.14	-39.8	-42.2	15.9	0.00e+00	0	55	0	239075328	51	4672
2026-01-11 23:14:36.71	27.68	20.27	-39.7	-42.1	16.0	0.00e+00	0	55	0	240123904	51	4611
2026-01-11 23:14:37.72	27.75	20.39	-39.7	-42.1	16.1	0.00e+00	0	55	0	242221056	51	4612
2026-01-11 23:14:38.73	27.83	20.52	-39.7	-42.1	16.1	0.00e+00	0	55	0	244318208	51	4609
2026-01-11 23:14:39.74	27.91	20.65	-39.7	-42.0	16.1	0.00e+00	0	55	0	246415360	51	4568
2026-01-11 23:14:40.75	27.99	20.78	-39.7	-42.0	16.1	0.00e+00	0	56	0	248512512	51	4591
2026-01-11 23:14:41.76	28.07	20.91	-39.7	-42.0	16.2	0.00e+00	0	55	0	249561088	51	4564
2026-01-11 23:14:42.77	28.15	21.04	-39.6	-41.9	16.3	0.00e+00	0	55	0	251658240	51	4519
2026-01-11 23:14:43.78	28.23	21.17	-39.7	-41.9	16.2	0.00e+00	0	55	0	253755392	51	4534
2026-01-11 23:14:44.79	28.32	21.30	-39.6	-41.9	16.3	0.00e+00	0	55	0	255852544	51	4508
2026-01-11 23:14:45.80	28.40	21.43	-39.6	-41.8	16.3	0.00e+00	0	55	0	257949696	51	4492
2026-01-11 23:14:46.80	28.48	21.56	-39.6	-41.8	16.4	0.00e+00	0	55	0	258998272	51	4466
2026-01-11 23:14:47.82	28.57	21.70	-39.6	-41.8	16.4	0.00e+00	0	55	0	261095424	51	4467
2026-01-11 23:14:48.82	28.65	21.83	-39.5	-41.7	16.5	0.00e+00	0	55	0	263192576	50	4658
2026-01-11 23:14:49.83	28.74	21.96	-39.4	-41.6	16.6	0.00e+00	0	55	0	265289728	50	4642
2026-01-11 23:14:50.84	28.83	22.10	-39.4	-41.6	16.6	0.00e+00	0	55	0	267386880	50	4639
2026-01-11 23:14:51.85	28.91	22.23	-39.4	-41.6	16.6	0.00e+00	0	55	0	268435456	50	4632
2026-01-11 23:14:52.86	29.00	22.37	-39.4	-41.6	16.6	0.00e+00	0	55	0	270532608	50	4629
2026-01-11 23:14:53.87	29.09	22.51	-39.4	-41.5	16.7	0.00e+00	0	56	0	272629760	50	4589
2026-01-11 23:14:54.88	29.18	22.65	-39.4	-41.5	16.7	0.00e+00	0	55	0	274726912	50	4592
2026-01-11 23:14:55.89	29.27	22.78	-39.4	-41.5	16.7	0.00e+00	0	56	0	276824064	50	4575
2026-01-11 23:14:56.90	29.36	22.92	-39.3	-41.4	16.7	0.00e+00	0	55	0	277872640	50	4537
2026-01-11 23:14:57.91	29.45	23.06	-39.3	-41.4	16.8	0.00e+00	0	55	0	279969792	50	4531
2026-01-11 23:14:58.92	29.54	23.20	-39.2	-41.3	16.9	0.00e+00	0	56	0	282066944	50	4480
2026-01-11 23:14:59.93	29.64	23.35	-39.2	-41.3	16.9	0.00e+00	0	56	0	284164096	50	4461
2026-01-11 23:15:00.94	29.73	23.49	-39.2	-41.3	16.9	0.00e+00	0	56	0	286261248	50	4478
2026-01-11 23:15:01.95	29.83	23.63	-39.2	-41.3	16.9	0.00e+00	0	55	0	287309824	50	4481
2026-01-11 23:15:02.96	29.92	23.77	-39.3	-41.3	16.9	0.00e+00	0	55	0	289406976	50	4488
2026-01-11 23:15:03.97	30.02	23.92	-39.3	-41.3	16.9	0.00e+00	0	55	0	291504128	50	4493
2026-01-11 23:15:04.98	30.12	24.06	-39.3	-41.4	16.9	0.00e+00	0	56	0	293601280	50	4507
2026-01-11 23:15:05.99	30.22	24.21	-39.3	-41.4	16.8	0.00e+00	0	56	0	295698432	50	4522
2026-01-11 23:15:07.00	30.32	24.35	-39.3	-41.4	16.9	0.00e+00	0	56	0	297795584	50	4510
2026-01-11 23:15:08.01	30.42	24.50	-39.4	-41.5	16.8	0.00e+00	0	56	0	298844160	50	4575
2026-01-11 23:15:09.02	30.52	24.65	-39.5	-41.6	16.6	0.00e+00	0	56	0	300941312	50	4632
2026-01-11 23:15:10.03	30.62	24.80	-39.5	-41.7	16.6	0.00e+00	0	55	0	303038464	50	4670
2026-01-11 23:15:11.04	30.72	24.95	-39.5	-41.7	16.6	0.00e+00	0	56	0	305135616	50	4684
2026-01-11 23:15:12.05	30.83	25.10	-39.6	-41.8	16.5	0.00e+00	0	56	0	307232768	50	4724
2026-01-11 23:15:13.06	30.93	25.25	-39.6	-41.7	16.5	0.00e+00	0	56	0	308281344	50	4699
2026-01-11 23:15:14.07	31.04	25.40	-39.6	-41.8	16.4	0.00e+00	0	56	0	310378496	50	4753
2026-01-11 23:15:15.08	31.14	25.55	-39.6	-41.8	16.5	0.00e+00	0	56	0	312475648	50	4733
2026-01-11 23:15:16.09	31.25	25.71	-39.7	-41.9	16.4	0.00e+00	0	56	0	314572800	50	4794
2026-01-11 23:15:17.09	31.36	25.86	-39.8	-42.0	16.3	0.00e+00	0	56	0	316669952	50	4855
2026-01-11 23:15:18.10	31.47	26.01	-39.8	-42.0	16.3	0.00e+00	0	56	0	317718528	50	4857
2026-01-11 23:15:19.11	31.58	26.17	-39.8	-42.1	16.2	0.00e+00	0	56	0	319815680	50	4903
2026-01-11 23:15:20.12	31.69	26.32	-39.9	-42.2	16.1	0.00e+00	0	56	0	321912832	50	4960
2026-01-11 23:15:21.13	31.80	26.48	-40.0	-42.3	16.0	0.00e+00	0	56	0	324009984	50	5003
2026-01-11 23:15:22.14	31.92	26.64	-40.0	-42.4	15.9	0.00e+00	0	56	0	326107136	50	5085
2026-01-11 23:15:23.15	32.03	26.80	-40.1	-42.4	15.9	0.00e+00	0	56	0	327155712	50	5097
2026-01-11 23:15:24.16	32.15	26.96	-40.2	-42.6	15.7	0.00e+00	0	56	0	329252864	50	5217
2026-01-11 23:15:25.17	32.27	27.12	-40.3	-42.8	15.5	0.00e+00	0	56	0	331350016	51	5029
2026-01-11 23:15:26.18	32.39	27.28	-40.4	-43.0	15.3	0.00e+00	0	56	0	333447168	51	5127
2026-01-11 23:15:27.19	32.51	27.44	-40.5	-43.2	15.2	0.00e+00	0	56	0	335544320	51	5230
2026-01-11 23:15:28.20	32.63	27.60	-40.7	-43.3	15.0	0.00e+00	0	56	0	336592896	51	5328
2026-01-11 23:15:29.21	32.75	27.77	-40.7	-43.4	14.8	0.00e+00	0	56	0	338690048	52	5089
2026-01-11 23:15:30.22	32.87	27.93	-40.8	-43.5	14.7	0.00e+00	0	56	0	340787200	52	5142
2026-01-11 23:15:31.23	33.00	28.10	-40.8	-43.6	14.6	7.00e-07	0	56	0	342884352	52	5196
2026-01-11 23:15:32.24	33.12	28.26	-40.9	-43.7	14.5	0.00e+00	0	56	0	344981504	52	5271
2026-01-11 23:15:33.25	33.25	28.43	-41.0	-43.9	14.3	7.00e-07	0	56	0	346030080	52	5393
2026-01-11 23:15:34.25	33.38	28.60	-41.0	-43.9	14.3	1.50e-06	0	56	0	348127232	52	5381
2026-01-11 23:15:35.26	33.51	28.77	-41.1	-44.1	14.1	3.00e-06	0	56	0	350224384	52	5477
2026-01-11 23:15:36.27	33.64	28.94	-41.2	-44.2	14.0	3.80e-06	0	56	0	352321536	53	5274
2026-01-11 23:15:37.28	33.77	29.11	-41.3	-44.4	13.8	7.00e-07	0	56	0	354418688	53	5370
2026-01-11 23:15:38.29	33.90	29.28	-41.3	-44.5	13.7	3.80e-06	0	56	0	355467264	53	5420
2026-01-11 23:15:39.30	34.04	29.45	-41.4	-44.5	13.7	7.60e-06	0	56	0	357564416	53	5438
2026-01-11 23:15:40.31	34.18	29.63	-41.5	-44.7	13.5	7.60e-06	0	56	0	359661568	53	5552
2026-01-11 23:15:41.32	34.31	29.80	-41.5	-44.8	13.5	9.90e-06	0	56	0	361758720	53	5613
2026-01-11 23:15:42.33	34.45	29.97	-41.6	-44.9	13.4	1.60e-05	0	56	0	363855872	53	5673
2026-01-11 23:15:43.34	34.59	30.15	-41.6	-45.0	13.3	1.60e-05	0	56	0	365953024	53	5738
2026-01-11 23:15:44.35	34.74	30.33	-41.7	-45.1	13.1	2.28e-05	0	56	0	367001600	53	5827
2026-01-11 23:15:45.36	34.88	30.51	-41.8	-45.4	12.9	3.35e-05	0	56	0	369098752	54	5664
2026-01-11 23:15:46.37	35.03	30.68	-41.9	-45.5	12.7	6.71e-05	0	56	0	371195904	54	5772
2026-01-11 23:15:47.38	35.17	30.86	-42.1	-45.8	12.5	8.85e-05	0	56	0	373293056	54	5940
2026-01-11 23:15:48.39	35.32	31.05	-42.2	-46.0	12.2	1.40e-04	0	56	0	375390208	54	6118
2026-01-11 23:15:49.40	35.47	31.23	-42.3	-46.2	12.0	3.23e-04	0	56	0	376438784	55	5904
2026-01-11 23:15:50.41	35.62	31.41	-42.3	-46.3	11.9	4.00e-04	0	56	0	378535936	55	5971
2026-01-11 23:15:51.41	35.78	31.59	-42.3	-46.2	12.0	4.04e-04	0	56	0	380633088	55	5900
2026-01-11 23:15:52.42	35.93	31.78	-42.2	-46.0	12.3	2.11e-04	0	56	0	382730240	55	5744
2026-01-11 23:15:53.43	36.09	31.96	-42.1	-45.8	12.5	1.43e-04	0	56	0	384827392	55	5602
2026-01-11 23:15:54.44	36.25	32.15	-42.0	-45.6	12.6	8.62e-05	0	56	0	385875968	55	5504
2026-01-11 23:15:55.45	36.41	32.33	-41.9	-45.4	12.8	6.17e-05	0	56	0	387973120	55	5402
2026-01-11 23:15:56.46	36.57	32.52	-41.9	-45.4	12.9	4.57e-05	0	56	0	390070272	55	5349
2026-01-11 23:15:57.47	36.73	32.71	-41.9	-45.4	12.9	4.11e-05	0	56	0	392167424	55	5372
2026-01-11 23:15:58.48	36.90	32.90	-41.8	-45.3	13.0	3.66e-05	0	56	0	394264576	55	5311
2026-01-11 23:15:59.49	37.07	33.09	-41.8	-45.3	13.0	5.03e-05	0	56	0	395313152	55	5326
2026-01-11 23:16:00.50	37.24	33.28	-41.8	-45.2	13.1	3.35e-05	0	56	0	397410304	55	5240
2026-01-11 23:16:01.51	37.41	33.48	-41.8	-45.3	13.0	4.42e-05	0	56	0	399507456	55	5300
2026-01-11 23:16:02.52	37.58	33.67	-41.8	-45.2	13.0	3.43e-05	0	56	0	401604608	55	5271
2026-01-11 23:16:03.53	37.76	33.87	-41.8	-45.2	13.1	2.74e-05	0	56	0	403701760	55	5271
2026-01-11 23:16:04.54	37.94	34.06	-41.8	-45.2	13.2	2.97e-05	0	56	0	404750336	55	5219
2026-01-11 23:16:05.55	38.12	34.26	-41.7	-45.1	13.2	2.21e-05	0	56	0	406847488	55	5191
2026-01-11 23:16:06.56	38.30	34.46	-41.7	-45.0	13.3	2.36e-05	0	56	0	408944640	55	5142
2026-01-11 23:16:07.57	38.49	34.65	-41.5	-44.7	13.6	1.37e-05	0	56	0	411041792	55	4973
2026-01-11 23:16:08.58	38.67	34.85	-41.6	-44.8	13.5	7.60e-06	0	56	0	413138944	54	5312
2026-01-11 23:16:09.59	38.86	35.06	-41.5	-44.6	13.7	9.10e-06	0	56	0	414187520	54	5209
2026-01-11 23:16:10.60	39.05	35.26	-41.5	-44.7	13.7	1.06e-05	0	56	0	416284672	54	5236
2026-01-11 23:16:11.61	39.25	35.46	-41.3	-44.4	13.9	6.80e-06	0	56	0	418381824	54	5077
2026-01-11 23:16:12.62	39.44	35.66	-41.3	-44.3	14.1	3.00e-06	0	56	0	420478976	54	4992
2026-01-11 23:16:13.63	39.64	35.87	-41.2	-44.1	14.2	0.00e+00	0	56	0	422576128	54	4925
2026-01-11 23:16:14.64	39.84	36.07	-41.1	-44.0	14.3	1.50e-06	0	56	0	423624704	54	4852
2026-01-11 23:16:15.64	40.04	36.28	-41.0	-43.9	14.5	0.00e+00	0	56	0	425721856	54	4795
2026-01-11 23:16:16.66	40.25	36.49	-41.0	-43.9	14.5	7.00e-07	0	56	0	427819008	54	4760
2026-01-11 23:16:17.66	40.46	36.69	-40.9	-43.7	14.6	7.00e-07	0	56	0	429916160	53	4980
2026-01-11 23:16:18.67	40.67	36.90	-40.9	-43.7	14.7	7.00e-07	0	56	0	432013312	53	4938
2026-01-11 23:16:19.68	40.88	37.11	-40.9	-43.7	14.7	0.00e+00	0	56	0	434110464	53	4966
2026-01-11 23:16:20.69	41.10	37.32	-40.9	-43.7	14.7	0.00e+00	0	56	0	435159040	53	4936
2026-01-11 23:16:21.70	41.32	37.53	-41.0	-43.8	14.6	7.00e-07	0	56	0	437256192	53	5012
2026-01-11 23:16:22.71	41.54	37.75	-41.0	-43.9	14.5	7.00e-07	0	56	0	439353344	53	5057
2026-01-11 23:16:23.72	41.76	37.96	-41.0	-43.8	14.6	0.00e+00	0	56	0	441450496	53	5007
2026-01-11 23:16:24.74	41.99	38.18	-40.8	-43.6	14.8	7.00e-07	0	56	0	443547648	53	4887
2026-01-11 23:16:25.74	42.22	38.39	-40.8	-43.5	14.9	0.00e+00	0	56	0	444596224	53	4825
2026-01-11 23:16:26.75	42.46	38.60	-40.8	-43.5	14.9	0.00e+00	0	56	0	446693376	53	4817
2026-01-11 23:16:27.76	42.69	38.82	-40.7	-43.3	15.0	0.00e+00	0	56	0	448790528	53	4758
2026-01-11 23:16:28.78	42.94	39.04	-40.8	-43.4	15.0	0.00e+00	0	56	0	450887680	53	4814
2026-01-11 23:16:29.78	43.18	39.26	-40.9	-43.6	14.7	1.50e-06	0	56	0	452984832	53	4926
2026-01-11 23:16:30.79	43.42	39.48	-41.0	-43.8	14.5	0.00e+00	0	56	0	454033408	53	5019
2026-01-11 23:16:31.80	43.67	39.70	-41.0	-43.8	14.6	0.00e+00	0	56	0	456130560	53	5016
2026-01-11 23:16:32.81	43.93	39.92	-40.8	-43.6	14.8	0.00e+00	0	56	0	458227712	53	4877
2026-01-11 23:16:33.82	44.18	40.14	-40.6	-43.3	15.1	0.00e+00	0	56	0	460324864	53	4714
2026-01-11 23:16:34.83	44.44	40.36	-40.4	-42.8	15.6	0.00e+00	0	56	0	462422016	52	4751
2026-01-11 23:16:35.84	44.71	40.59	-40.3	-42.7	15.7	0.00e+00	0	56	0	463470592	52	4699
2026-01-11 23:16:36.85	44.97	40.81	-40.2	-42.7	15.7	0.00e+00	0	56	0	465567744	52	4660
2026-01-11 23:16:37.86	45.24	41.04	-40.5	-43.0	15.4	0.00e+00	0	56	0	467664896	52	4859
2026-01-11 23:16:38.87	45.52	41.26	-40.6	-43.1	15.3	0.00e+00	0	56	0	469762048	52	4918
2026-01-11 23:16:39.88	45.80	41.49	-40.7	-43.3	15.1	0.00e+00	0	56	0	471859200	52	5002
2026-01-11 23:16:40.89	46.08	41.71	-40.6	-43.2	15.2	0.00e+00	0	56	0	472907776	52	4966
2026-01-11 23:16:41.90	46.37	41.94	-40.6	-43.2	15.2	0.00e+00	0	56	0	475004928	52	4957
2026-01-11 23:16:42.91	46.66	42.17	-40.7	-43.3	15.2	0.00e+00	0	56	0	477102080	52	5019
2026-01-11 23:16:43.92	46.95	42.40	-40.7	-43.4	15.1	0.00e+00	0	56	0	479199232	52	5043
2026-01-11 23:16:44.93	47.25	42.63	-40.9	-43.7	14.8	0.00e+00	0	56	0	481296384	52	5225
2026-01-11 23:16:45.94	47.55	42.86	-41.1	-44.0	14.4	7.00e-07	0	56	0	482344960	52	5424
2026-01-11 23:16:46.95	47.86	43.09	-41.2	-44.2	14.3	7.00e-07	0	56	0	484442112	53	5222
2026-01-11 23:16:47.97	48.17	43.32	-41.3	-44.2	14.2	0.00e+00	0	56	0	486539264	53	5268
2026-01-11 23:16:48.97	48.49	43.55	-41.2	-44.1	14.3	0.00e+00	0	56	0	488636416	53	5213
2026-01-11 23:16:49.98	48.81	43.78	-41.3	-44.3	14.2	0.00e+00	0	56	0	490733568	53	5284
2026-01-11 23:16:50.99	49.13	44.02	-41.5	-44.6	13.8	3.00e-06	0	56	0	491782144	53	5488
2026-01-11 23:16:52.00	49.46	44.25	-41.7	-44.9	13.5	5.30e-06	0	56	0	493879296	53	5716
2026-01-11 23:16:53.01	49.80	44.48	-41.9	-45.4	13.0	3.12e-05	0	56	0	495976448	54	5679
2026-01-11 23:16:54.02	50.14	44.72	-41.9	-45.4	13.1	3.35e-05	0	56	0	498073600	54	5679
2026-01-11 23:16:55.03	50.48	44.95	-41.7	-45.0	13.4	2.44e-05	0	56	0	500170752	54	5453
2026-01-11 23:16:56.04	50.83	45.18	-41.6	-44.7	13.7	7.60e-06	0	56	0	502267904	54	5261
2026-01-11 23:16:57.05	51.19	45.42	-41.5	-44.7	13.8	6.10e-06	0	56	0	503316480	54	5222
2026-01-11 23:16:58.05	51.54	45.65	-41.7	-45.0	13.4	8.30e-06	0	56	0	505413632	54	5453
2026-01-11 23:16:59.06	51.91	45.88	-42.2	-45.9	12.6	2.82e-05	0	56	0	507510784	54	6022
2026-01-11 23:17:00.07	52.28	46.12	-42.6	-46.6	11.8	1.98e-04	0	56	0	509607936	55	6193
2026-01-11 23:17:01.08	52.65	46.35	-43.0	-47.4	11.1	1.41e-03	0	56	0	511705088	56	6366
2026-01-11 23:17:02.10	53.04	46.59	-43.0	-47.5	11.1	1.46e-03	0	56	0	512753664	56	6423
2026-01-11 23:17:03.10	53.42	46.82	-42.9	-47.1	11.4	1.17e-03	0	56	0	514850816	56	6166
2026-01-11 23:17:04.11	53.82	47.06	-42.8	-46.9	11.6	7.81e-04	0	56	0	516947968	56	6049
2026-01-11 23:17:05.12	54.22	47.29	-42.9	-47.2	11.3	6.85e-04	0	56	0	519045120	56	6221
2026-01-11 23:17:06.13	54.62	47.53	-43.2	-47.7	10.8	1.52e-03	0	56	0	521142272	56	6626
2026-01-11 23:17:07.14	55.03	47.76	-43.5	-48.7	9.7	7.50e-03	0	56	0	522190848	57	7003
2026-01-11 23:17:08.15	55.45	47.99	-43.9	-49.7	8.7	2.57e-02	0	56	0	524288000	58	7401
2026-01-11 23:17:09.16	55.87	48.23	-44.0	-50.0	8.4	4.19e-02	0	56	0	526385152	58	7668
2026-01-11 23:17:10.17	56.30	48.46	-43.7	-49.2	9.2	3.30e-02	0	56	0	528482304	58	6968
2026-01-11 23:17:11.18	56.74	48.69	-43.3	-48.1	10.4	6.81e-03	0	56	0	530579456	58	6173
2026-01-11 23:17:12.19	57.18	48.93	-43.0	-47.5	11.1	2.37e-03	0	56	0	531628032	58	5727
2026-01-11 23:17:13.20	57.63	49.16	-43.0	-47.4	11.2	1.30e-03	0	56	0	533725184	58	5680
2026-01-11 23:17:14.21	58.09	49.39	-43.0	-47.5	11.0	1.58e-03	0	56	0	535822336	57	6094
2026-01-11 23:17:15.22	58.55	49.62	-43.3	-48.0	10.5	2.31e-03	0	56	0	537919488	57	6466
2026-01-11 23:17:16.22	59.02	49.84	-43.3	-48.1	10.4	4.81e-03	0	56	0	540016640	57	6533
2026-01-11 23:17:17.23	59.50	50.07	-43.2	-47.8	10.7	3.63e-03	0	56	0	541065216	57	6306
2026-01-11 23:17:18.25	59.98	50.30	-42.8	-47.0	11.6	1.27e-03	0	56	0	543162368	57	5728
2026-01-11 23:17:19.26	60.48	50.53	-42.3	-45.9	12.7	3.13e-04	0	56	0	545259520	56	5398
2026-01-11 23:17:20.26	60.97	50.75	-41.8	-45.1	13.4	1.06e-05	0	56	0	547356672	55	5204
2026-01-11 23:17:21.27	61.48	50.98	-41.6	-44.7	13.7	6.80e-06	0	56	0	549453824	55	4964
2026-01-11 23:17:22.28	61.99	51.20	-41.4	-44.4	14.1	4.50e-06	0	56	0	550502400	54	5090
2026-01-11 23:17:23.29	62.51	51.42	-41.4	-44.4	14.1	0.00e+00	0	57	0	552599552	54	5056
2026-01-11 23:17:24.30	63.04	51.64	-41.2	-44.1	14.4	5.30e-06	0	56	0	554696704	54	4909
2026-01-11 23:17:25.31	63.58	51.86	-40.8	-43.5	15.0	0.00e+00	0	56	0	556793856	53	4844
2026-01-11 23:17:26.32	64.13	52.08	-40.5	-42.9	15.5	0.00e+00	0	56	0	558891008	52	4786
2026-01-11 23:17:27.33	64.68	52.29	-40.2	-42.6	15.9	0.00e+00	0	56	0	559939584	52	4631
2026-01-11 23:17:28.34	65.24	52.50	-40.4	-42.8	15.8	0.00e+00	0	56	0	562036736	52	4724
2026-01-11 23:17:29.35	65.81	52.72	-40.5	-43.1	15.5	0.00e+00	0	56	0	564133888	52	4883
2026-01-11 23:17:30.36	66.39	52.92	-40.6	-43.2	15.3	0.00e+00	0	57	0	566231040	52	4966
2026-01-11 23:17:31.37	66.97	53.13	-40.6	-43.2	15.4	0.00e+00	0	56	0	568328192	52	4949
2026-01-11 23:17:32.38	67.57	53.34	-40.3	-42.7	15.8	0.00e+00	0	56	0	570425344	52	4669
2026-01-11 23:17:33.39	68.17	53.54	-40.2	-42.5	16.1	0.00e+00	0	56	0	571473920	52	4572
2026-01-11 23:17:34.40	68.78	53.74	-40.2	-42.5	16.0	0.00e+00	0	56	0	573571072	52	4578
2026-01-11 23:17:35.41	69.40	53.94	-40.5	-42.9	15.7	0.00e+00	0	56	0	575668224	52	4810
2026-01-11 23:17:36.42	70.03	54.13	-40.7	-43.3	15.3	0.00e+00	0	56	0	577765376	52	5025
2026-01-11 23:17:37.43	70.66	54.33	-40.8	-43.5	15.0	0.00e+00	0	57	0	579862528	52	5111
2026-01-11 23:17:38.44	71.31	54.52	-40.8	-43.4	15.1	0.00e+00	0	56	0	580911104	52	5097
2026-01-11 23:17:39.45	71.96	54.70	-40.5	-42.9	15.5	0.00e+00	0	57	0	583008256	52	4812
2026-01-11 23:17:40.46	72.62	54.89	-40.3	-42.7	15.9	0.00e+00	0	56	0	585105408	52	4660
2026-01-11 23:17:41.47	73.29	55.07	-40.3	-42.6	15.9	0.00e+00	0	57	0	587202560	52	4644
2026-01-11 23:17:42.48	73.97	55.25	-40.6	-43.2	15.4	0.00e+00	0	56	0	589299712	52	4950
2026-01-11 23:17:43.49	74.66	55.42	-41.0	-43.8	14.7	0.00e+00	0	56	0	590348288	52	5321
2026-01-11 23:17:44.50	75.35	55.59	-40.9	-43.6	14.9	0.00e+00	0	56	0	592445440	52	5218
2026-01-11 23:17:45.51	76.06	55.76	-40.5	-42.9	15.6	0.00e+00	0	56	0	594542592	52	4810
2026-01-11 23:17:46.52	76.77	55.92	-40.3	-42.6	15.9	0.00e+00	0	57	0	596639744	52	4645
2026-01-11 23:17:47.53	77.49	56.08	-40.4	-42.9	15.7	0.00e+00	0	57	0	598736896	52	4787
2026-01-11 23:17:48.54	78.22	56.24	-40.5	-43.0	15.6	0.00e+00	0	56	0	599785472	52	4819
2026-01-11 23:17:49.55	78.95	56.39	-40.6	-43.2	15.4	0.00e+00	0	56	0	601882624	52	4936
2026-01-11 23:17:50.56	79.70	56.54	-40.8	-43.5	15.0	0.00e+00	0	56	0	603979776	52	5137
2026-01-11 23:17:51.57	80.45	56.68	-40.9	-43.5	15.0	0.00e+00	0	57	0	606076928	52	5137
2026-01-11 23:17:52.58	81.21	56.82	-40.9	-43.5	15.0	0.00e+00	0	56	0	608174080	52	5133
2026-01-11 23:17:53.59	81.98	56.95	-40.9	-43.6	14.9	0.00e+00	0	57	0	609222656	52	5214
2026-01-11 23:17:54.60	82.76	57.08	-40.9	-43.6	14.9	0.00e+00	0	56	0	611319808	52	5204
2026-01-11 23:17:55.61	83.54	57.21	-41.0	-43.8	14.7	0.00e+00	0	56	0	613416960	52	5309
2026-01-11 23:17:56.62	84.33	57.33	-41.2	-44.0	14.5	0.00e+00	0	56	0	615514112	52	5459
2026-01-11 23:17:57.63	85.12	57.44	-41.7	-44.9	13.7	7.00e-07	0	57	0	617611264	53	5658
2026-01-11 23:17:58.64	85.93	57.55	-41.9	-45.3	13.3	8.30e-06	0	57	0	618659840	54	5600
2026-01-11 23:17:59.65	86.74	57.66	-41.9	-45.3	13.2	1.90e-05	0	57	0	620756992	54	5617
2026-01-11 23:18:00.66	87.55	57.76	-42.0	-45.5	13.0	1.98e-05	0	56	0	622854144	54	5753
2026-01-11 23:18:01.67	88.37	57.85	-42.5	-46.4	12.0	8.54e-05	0	56	0	624951296	55	6059
2026-01-11 23:18:02.68	89.20	57.94	-43.2	-47.9	10.6	2.21e-03	0	57	0	627048448	57	6373
2026-01-11 23:18:03.69	90.03	58.03	-43.2	-47.7	10.9	4.77e-03	0	56	0	628097024	57	6255
2026-01-11 23:18:04.70	90.87	58.11	-43.0	-47.4	11.2	1.90e-03	0	57	0	630194176	57	6006
2026-01-11 23:18:05.71	91.71	58.18	-42.9	-47.2	11.4	8.53e-04	0	56	0	632291328	57	5872
2026-01-11 23:18:06.71	92.55	58.25	-42.8	-47.0	11.6	8.48e-04	0	56	0	634388480	57	5751
2026-01-11 23:18:07.73	93.41	58.31	-42.9	-47.1	11.5	9.51e-04	0	57	0	636485632	57	5817
2026-01-11 23:18:08.73	94.26	58.36	-42.9	-47.1	11.5	8.11e-04	0	56	0	638582784	57	5789
2026-01-11 23:18:09.75	95.12	58.41	-43.0	-47.4	11.1	1.34e-03	0	57	0	639631360	57	6007
2026-01-11 23:18:10.76	95.98	58.46	-43.0	-47.3	11.0	1.45e-03	0	56	0	641728512	57	5956
2026-01-11 23:18:11.77	96.85	58.50	-43.0	-47.3	11.3	1.94e-03	0	57	0	643825664	57	5941
2026-01-11 23:18:12.77	97.70	58.53	-43.0	-47.3	11.3	1.38e-03	0	56	0	645922816	57	5945
2026-01-11 23:18:13.78	98.57	58.55	-42.5	-46.3	12.3	4.02e-04	0	56	0	648019968	57	5323
2026-01-11 23:18:14.79	99.44	58.57	-42.3	-45.9	12.7	1.58e-04	0	57	0	649068544	56	5352
2026-01-11 23:18:15.80	100.31	58.59	-42.5	-46.3	12.3	1.29e-04	0	56	0	651165696	56	5624
2026-01-11 23:18:16.81	101.18	58.60	-42.4	-46.0	12.6	1.98e-04	0	57	0	653262848	56	5444
2026-01-11 23:18:17.82	102.06	58.60	-41.3	-44.2	14.3	2.44e-05	0	56	0	655360000	54	4959
2026-01-11 23:18:18.83	102.93	58.59	-40.5	-43.0	15.5	0.00e+00	0	56	0	657457152	53	4547
2026-01-11 23:18:19.84	103.80	58.58	-40.4	-42.8	15.7	0.00e+00	0	57	0	658505728	52	4722
2026-01-11 23:18:20.85	104.67	58.57	-40.5	-43.1	15.5	0.00e+00	0	57	0	660602880	52	4874
2026-01-11 23:18:21.86	105.54	58.55	-41.2	-44.2	14.4	1.50e-06	0	56	0	662700032	53	5258
2026-01-11 23:18:22.86	106.40	58.52	-41.6	-44.8	13.6	3.80e-06	0	57	0	664797184	53	5650
2026-01-11 23:18:23.88	107.27	58.48	-41.7	-45.0	13.5	1.06e-05	0	56	0	666894336	54	5439
2026-01-11 23:18:24.89	108.13	58.44	-42.1	-45.7	12.7	5.11e-05	0	56	0	667942912	54	5909
2026-01-11 23:18:25.89	108.99	58.40	-43.0	-47.4	11.2	5.47e-04	0	57	0	670040064	56	6352
2026-01-11 23:18:26.90	109.84	58.35	-43.0	-47.3	11.2	1.93e-03	0	57	0	672137216	56	6319
2026-01-11 23:18:27.91	110.70	58.29	-42.7	-46.7	11.9	1.25e-03	0	56	0	674234368	56	5896
2026-01-11 23:18:28.92	111.55	58.22	-42.8	-46.8	11.7	4.89e-04	0	57	0	676331520	56	5959
2026-01-11 23:18:29.93	112.39	58.16	-43.1	-47.5	11.0	9.47e-04	0	57	0	677380096	56	6479
2026-01-11 23:18:30.94	113.23	58.08	-43.5	-48.5	10.0	3.78e-03	0	57	0	679477248	57	6840
2026-01-11 23:18:31.95	114.07	58.00	-43.4	-48.4	10.1	9.07e-03	0	57	0	681574400	57	6755
2026-01-11 23:18:32.96	114.90	57.91	-43.3	-48.0	10.5	4.55e-03	0	57	0	683671552	57	6439
2026-01-11 23:18:33.97	115.73	57.82	-43.1	-47.7	10.8	2.53e-03	0	57	0	685768704	57	6235
2026-01-11 23:18:34.98	116.55	57.73	-43.6	-49.0	9.5	1.04e-02	0	57	0	686817280	57	7233
2026-01-11 23:18:35.99	117.36	57.62	-43.8	-49.5	8.9	2.70e-02	0	57	0	688914432	58	7269
2026-01-11 23:18:37.00	118.17	57.52	-43.4	-48.4	10.1	1.57e-02	0	57	0	691011584	58	6389
2026-01-11 23:18:38.01	118.97	57.40	-43.2	-47.8	10.7	4.65e-03	0	57	0	693108736	58	5951
2026-01-11 23:18:39.02	119.77	57.29	-43.0	-47.4	11.1	1.51e-03	0	57	0	695205888	58	5710
2026-01-11 23:18:40.02	120.55	57.17	-43.2	-47.8	10.7	3.57e-03	0	57	0	696254464	58	5950
2026-01-11 23:18:41.03	121.33	57.04	-42.7	-46.7	11.8	9.85e-04	0	57	0	698351616	57	5589
2026-01-11 23:18:42.04	122.10	56.91	-42.1	-45.6	13.0	1.03e-04	0	57	0	700448768	56	5161
2026-01-11 23:18:43.05	122.87	56.77	-41.6	-44.7	13.8	6.10e-06	0	56	0	702545920	55	4956
2026-01-11 23:18:44.06	123.63	56.63	-41.7	-44.9	13.6	3.00e-06	0	57	0	704643072	55	5065
2026-01-11 23:18:45.07	124.38	56.49	-41.3	-44.3	14.2	3.00e-06	0	56	0	705691648	54	4994
2026-01-11 23:18:46.08	125.12	56.34	-40.8	-43.4	15.0	7.00e-07	0	57	0	707788800	53	4796
2026-01-11 23:18:47.09	125.86	56.18	-40.5	-43.1	15.4	0.00e+00	0	57	0	709885952	53	4614
2026-01-11 23:18:48.10	126.58	56.03	-40.5	-43.1	15.4	0.00e+00	0	57	0	711983104	53	4629
2026-01-11 23:18:49.11	127.30	55.86	-40.1	-42.4	16.1	0.00e+00	0	56	0	714080256	52	4512
2026-01-11 23:18:50.12	128.01	55.70	-39.3	-41.3	17.2	0.00e+00	0	56	0	715128832	50	4481
2026-01-11 23:18:51.13	128.71	55.53	-39.2	-41.2	17.4	0.00e+00	0	56	0	717225984	50	4422
2026-01-11 23:18:52.14	129.41	55.36	-39.3	-41.3	17.3	0.00e+00	0	56	0	719323136	50	4443
2026-01-11 23:18:53.15	130.09	55.18	-39.1	-41.1	17.5	0.00e+00	0	57	0	721420288	50	4356
2026-01-11 23:18:54.16	130.77	55.00	-39.0	-40.9	17.6	0.00e+00	0	57	0	723517440	50	4281
2026-01-11 23:18:55.17	131.44	54.82	-38.8	-40.7	17.9	0.00e+00	0	57	0	724566016	49	4422
2026-01-11 23:18:56.18	132.10	54.64	-38.9	-40.8	17.7	0.00e+00	0	56	0	726663168	49	4473
2026-01-11 23:18:57.19	132.75	54.45	-39.1	-41.1	17.5	0.00e+00	0	57	0	728760320	49	4625
2026-01-11 23:18:58.20	133.39	54.25	-39.5	-41.7	16.9	0.00e+00	0	57	0	730857472	49	4927
2026-01-11 23:18:59.21	134.03	54.06	-39.2	-41.2	17.4	0.00e+00	0	56	0	732954624	49	4653
2026-01-11 23:19:00.22	134.65	53.86	-38.8	-40.7	17.9	0.00e+00	0	57	0	735051776	49	4419
2026-01-11 23:19:01.23	135.27	53.66	-38.9	-40.8	17.7	0.00e+00	0	56	0	736100352	49	4478
2026-01-11 23:19:02.24	135.88	53.46	-39.6	-41.8	16.8	0.00e+00	0	57	0	738197504	49	4991
2026-01-11 23:19:03.25	136.48	53.26	-40.3	-42.7	15.9	0.00e+00	0	57	0	740294656	51	4943
2026-01-11 23:19:04.26	137.07	53.05	-40.1	-42.5	16.1	0.00e+00	0	57	0	742391808	51	4838
2026-01-11 23:19:05.26	137.65	52.84	-39.6	-41.7	16.9	0.00e+00	0	57	0	744488960	51	4415
2026-01-11 23:19:06.27	138.23	52.63	-39.3	-41.3	17.3	0.00e+00	0	57	0	745537536	50	4462
2026-01-11 23:19:07.28	138.79	52.42	-39.5	-41.5	17.1	0.00e+00	0	57	0	747634688	50	4578
2026-01-11 23:19:08.29	139.35	52.21	-40.1	-42.4	16.3	0.00e+00	0	56	0	749731840	50	5051
2026-01-11 23:19:09.30	139.90	51.99	-40.6	-43.2	15.4	0.00e+00	0	56	0	751828992	51	5230
2026-01-11 23:19:10.31	140.45	51.77	-40.3	-42.7	15.9	0.00e+00	0	56	0	753926144	51	4945
2026-01-11 23:19:11.32	140.98	51.55	-40.0	-42.2	16.4	0.00e+00	0	56	0	754974720	51	4693
2026-01-11 23:19:12.33	141.51	51.33	-40.4	-42.9	15.7	0.00e+00	0	56	0	757071872	51	5076
2026-01-11 23:19:13.34	142.03	51.11	-41.1	-43.9	14.6	0.00e+00	0	56	0	759169024	52	5382
2026-01-11 23:19:14.35	142.54	50.88	-41.3	-44.4	14.2	3.80e-06	0	56	0	761266176	53	5374
2026-01-11 23:19:15.36	143.05	50.66	-41.3	-44.2	14.2	3.00e-06	0	57	0	763363328	53	5279
2026-01-11 23:19:16.37	143.55	50.43	-41.0	-43.8	14.7	7.00e-07	0	57	0	764411904	53	5029
2026-01-11 23:19:17.38	144.04	50.20	-40.9	-43.7	14.8	7.00e-07	0	57	0	766509056	53	4938
2026-01-11 23:19:18.39	144.52	49.98	-41.3	-44.4	14.1	1.50e-06	0	56	0	768606208	53	5347
2026-01-11 23:19:19.40	145.00	49.75	-42.1	-45.8	12.7	9.10e-06	0	57	0	770703360	54	5969
2026-01-11 23:19:20.41	145.47	49.52	-43.0	-47.4	11.2	1.03e-03	0	56	0	772800512	56	6392
2026-01-11 23:19:21.42	145.93	49.28	-42.6	-46.6	11.9	9.16e-04	0	57	0	773849088	56	5854
2026-01-11 23:19:22.42	146.38	49.05	-42.4	-46.1	12.5	2.03e-04	0	56	0	775946240	56	5525
2026-01-11 23:19:23.43	146.83	48.82	-42.3	-45.9	12.7	7.47e-05	0	57	0	778043392	56	5365
2026-01-11 23:19:24.44	147.27	48.59	-42.7	-46.7	11.9	2.30e-04	0	56	0	780140544	56	5890
2026-01-11 23:19:25.45	147.70	48.36	-42.8	-47.0	11.6	5.97e-04	0	57	0	782237696	56	6078
2026-01-11 23:19:26.46	148.13	48.12	-43.1	-47.7	10.9	1.22e-03	0	56	0	783286272	56	6576
2026-01-11 23:19:27.47	148.55	47.89	-43.1	-47.7	10.9	2.14e-03	0	57	0	785383424	56	6571
2026-01-11 23:19:28.48	148.97	47.65	-43.1	-47.6	10.9	2.68e-03	0	56	0	787480576	56	6557
2026-01-11 23:19:29.49	149.38	47.42	-42.7	-46.8	11.7	1.27e-03	0	56	0	789577728	56	5966
2026-01-11 23:19:30.50	149.78	47.18	-42.7	-46.7	11.9	3.54e-04	0	56	0	791674880	56	5896
2026-01-11 23:19:31.51	150.18	46.95	-42.8	-47.0	11.5	5.11e-04	0	57	0	792723456	56	6101
2026-01-11 23:19:32.52	150.57	46.71	-43.3	-48.2	10.2	1.89e-03	0	57	0	794820608	57	6631
2026-01-11 23:19:33.53	150.96	46.47	-43.1	-47.7	10.8	5.32e-03	0	57	0	796917760	57	6274
2026-01-11 23:19:34.54	151.34	46.24	-42.3	-46.0	12.5	5.14e-04	0	57	0	799014912	56	5451
2026-01-11 23:19:35.55	151.72	46.00	-41.8	-45.0	13.4	2.59e-05	0	57	0	801112064	55	5153
2026-01-11 23:19:36.56	152.08	45.77	-42.1	-45.6	12.8	2.67e-05	0	57	0	803209216	55	5489
2026-01-11 23:19:37.57	152.45	45.53	-42.6	-46.7	11.8	2.66e-04	0	57	0	804257792	55	6204
2026-01-11 23:19:38.58	152.81	45.30	-42.5	-46.5	11.9	5.54e-04	0	56	0	806354944	55	6106
2026-01-11 23:19:39.59	153.16	45.06	-42.2	-45.9	12.5	1.90e-04	0	57	0	808452096	55	5703
2026-01-11 23:19:40.60	153.51	44.83	-42.1	-45.7	12.7	6.25e-05	0	57	0	810549248	55	5560
2026-01-11 23:19:41.61	153.85	44.59	-42.4	-46.2	12.2	1.47e-04	0	57	0	812646400	55	5912
2026-01-11 23:19:42.62	154.19	44.36	-42.3	-46.2	12.2	3.35e-04	0	57	0	813694976	55	5893
2026-01-11 23:19:43.63	154.52	44.12	-42.0	-45.6	12.8	1.27e-04	0	57	0	815792128	55	5499
2026-01-11 23:19:44.64	154.85	43.89	-41.8	-45.2	13.2	2.67e-05	0	57	0	817889280	55	5246
2026-01-11 23:19:45.65	155.18	43.66	-41.9	-45.3	13.1	2.82e-05	0	57	0	819986432	55	5303
2026-01-11 23:19:46.66	155.50	43.42	-42.2	-46.0	12.4	8.08e-05	0	57	0	822083584	55	5738
2026-01-11 23:19:47.67	155.81	43.19	-42.0	-45.5	12.9	1.05e-04	0	57	0	823132160	55	5432
2026-01-11 23:19:48.68	156.12	42.96	-41.0	-43.9	14.5	9.10e-06	0	57	0	825229312	54	4781
2026-01-11 23:19:49.69	156.43	42.73	-40.5	-43.0	15.4	0.00e+00	0	57	0	827326464	53	4595
2026-01-11 23:19:50.70	156.73	42.50	-40.5	-43.1	15.4	0.00e+00	0	56	0	829423616	52	4872
2026-01-11 23:19:51.71	157.03	42.27	-40.8	-43.6	14.9	0.00e+00	0	57	0	831520768	52	5171
2026-01-11 23:19:52.72	157.32	42.04	-41.3	-44.2	14.2	0.00e+00	0	57	0	832569344	53	5272
2026-01-11 23:19:53.73	157.61	41.81	-41.1	-44.0	14.4	1.50e-06	0	57	0	834666496	53	5126
2026-01-11 23:19:54.74	157.89	41.58	-41.0	-43.8	14.7	0.00e+00	0	57	0	836763648	53	4992
2026-01-11 23:19:55.75	158.18	41.35	-41.0	-43.9	14.5	0.00e+00	0	57	0	838860800	53	5092
2026-01-11 23:19:56.76	158.45	41.12	-41.5	-44.7	13.7	5.30e-06	0	57	0	840957952	53	5551
2026-01-11 23:19:57.77	158.73	40.90	-41.6	-44.9	13.5	1.75e-05	0	57	0	842006528	53	5691
2026-01-11 23:19:58.78	159.00	40.67	-41.1	-44.0	14.4	5.30e-06	0	56	0	844103680	53	5129
2026-01-11 23:19:59.79	159.26	40.45	-40.5	-43.1	15.3	0.00e+00	0	57	0	846200832	53	4620
2026-01-11 23:20:00.80	159.52	40.22	-40.4	-42.9	15.5	0.00e+00	0	57	0	848297984	52	4774
2026-01-11 23:20:01.81	159.78	40.00	-40.5	-43.1	15.3	0.00e+00	0	57	0	850395136	52	4895
2026-01-11 23:20:02.82	160.04	39.78	-41.1	-44.1	14.3	7.00e-07	0	57	0	851443712	52	5494
2026-01-11 23:20:03.83	160.29	39.55	-41.8	-45.3	13.1	1.06e-05	0	57	0	853540864	54	5597
2026-01-11 23:20:04.84	160.54	39.33	-41.8	-45.2	13.1	4.65e-05	0	57	0	855638016	54	5581
2026-01-11 23:20:05.85	160.79	39.11	-41.2	-44.2	14.2	2.20e-06	0	57	0	857735168	54	4962
2026-01-11 23:20:06.86	161.03	38.89	-40.5	-43.1	15.3	0.00e+00	0	57	0	859832320	53	4638
2026-01-11 23:20:07.87	161.27	38.67	-40.1	-42.5	15.9	0.00e+00	0	57	0	860880896	52	4589
2026-01-11 23:20:08.88	161.50	38.46	-40.0	-42.3	16.2	0.00e+00	0	57	0	862978048	51	4733
2026-01-11 23:20:09.89	161.74	38.24	-40.2	-42.5	15.9	0.00e+00	0	56	0	865075200	51	4864
2026-01-11 23:20:10.90	161.97	38.02	-40.5	-43.0	15.4	0.00e+00	0	57	0	867172352	51	5148
2026-01-11 23:20:11.91	162.19	37.81	-40.8	-43.5	14.8	0.00e+00	0	57	0	869269504	52	5157
2026-01-11 23:20:12.92	162.42	37.59	-41.4	-44.6	13.8	2.20e-06	0	57	0	871366656	53	5481
2026-01-11 23:20:13.93	162.64	37.38	-41.8	-45.2	13.2	1.67e-05	0	57	0	872415232	54	5554
2026-01-11 23:20:14.94	162.86	37.17	-41.5	-44.8	13.5	1.98e-05	0	57	0	874512384	54	5309
2026-01-11 23:20:15.95	163.07	36.96	-41.0	-43.9	14.5	7.00e-07	0	57	0	876609536	54	4799
2026-01-11 23:20:16.96	163.28	36.75	-40.3	-42.8	15.5	0.00e+00	0	57	0	878706688	52	4748
2026-01-11 23:20:17.97	163.50	36.54	-40.1	-42.5	15.8	0.00e+00	0	57	0	880803840	52	4590
2026-01-11 23:20:18.97	163.70	36.33	-40.1	-42.4	16.1	0.00e+00	0	57	0	881852416	51	4769
2026-01-11 23:20:19.98	163.91	36.12	-40.3	-42.8	15.7	0.00e+00	0	57	0	883949568	51	4996
2026-01-11 23:20:20.99	164.11	35.92	-40.7	-43.5	14.9	0.00e+00	0	57	0	886046720	52	5101
2026-01-11 23:20:22.00	164.31	35.71	-41.3	-44.4	13.9	2.20e-06	0	57	0	888143872	53	5394
2026-01-11 23:20:23.01	164.51	35.50	-41.7	-45.1	13.2	2.05e-05	0	57	0	890241024	53	5838
2026-01-11 23:20:24.02	164.70	35.30	-41.7	-45.1	13.2	2.21e-05	0	57	0	891289600	54	5489
2026-01-11 23:20:25.03	164.89	35.10	-41.5	-44.8	13.5	1.37e-05	0	57	0	893386752	54	5296
2026-01-11 23:20:26.04	165.08	34.90	-41.1	-44.0	14.4	7.00e-07	0	57	0	895483904	54	4821
2026-01-11 23:20:27.05	165.27	34.69	-40.7	-43.4	14.9	7.00e-07	0	57	0	897581056	53	4788
2026-01-11 23:20:28.06	165.46	34.49	-40.6	-43.3	15.0	0.00e+00	0	57	0	899678208	53	4715
2026-01-11 23:20:29.07	165.64	34.29	-40.5	-43.1	15.3	0.00e+00	0	56	0	900726784	53	4625
2026-01-11 23:20:30.08	165.82	34.10	-40.7	-43.5	14.8	0.00e+00	0	57	0	902823936	53	4824
2026-01-11 23:20:31.09	166.00	33.90	-41.0	-43.9	14.4	0.00e+00	0	57	0	904921088	53	5055
2026-01-11 23:20:32.10	166.18	33.70	-41.3	-44.4	13.9	3.00e-06	0	57	0	907018240	53	5344
2026-01-11 23:20:33.11	166.35	33.51	-41.5	-44.8	13.5	3.00e-06	0	57	0	909115392	53	5593
2026-01-11 23:20:34.12	166.53	33.31	-41.7	-45.1	13.2	1.52e-05	0	57	0	910163968	53	5793
2026-01-11 23:20:35.12	166.70	33.12	-41.5	-44.8	13.5	2.05e-05	0	57	0	912261120	53	5633
2026-01-11 23:20:36.13	166.87	32.93	-41.6	-44.9	13.4	1.14e-05	0	57	0	914358272	53	5682
2026-01-11 23:20:37.14	167.03	32.74	-41.6	-44.9	13.4	1.60e-05	0	57	0	916455424	53	5658
2026-01-11 23:20:38.15	167.20	32.55	-41.6	-44.9	13.4	1.52e-05	0	57	0	918552576	53	5672
2026-01-11 23:20:39.16	167.36	32.36	-41.6	-45.0	13.3	1.14e-05	0	57	0	919601152	53	5736
2026-01-11 23:20:40.17	167.52	32.17	-41.7	-45.1	13.1	2.13e-05	0	57	0	921698304	53	5843
2026-01-11 23:20:41.18	167.68	31.98	-41.7	-45.2	13.1	3.05e-05	0	57	0	923795456	54	5529
2026-01-11 23:20:42.19	167.84	31.79	-41.8	-45.2	13.0	4.27e-05	0	57	0	925892608	54	5570
2026-01-11 23:20:43.20	168.00	31.61	-41.8	-45.4	12.9	3.43e-05	0	57	0	927989760	54	5678
2026-01-11 23:20:44.21	168.15	31.42	-41.7	-45.2	13.0	4.34e-05	0	57	0	929038336	54	5574
2026-01-11 23:20:45.22	168.31	31.24	-41.6	-45.0	13.2	2.59e-05	0	57	0	931135488	54	5450
2026-01-11 23:20:46.22	168.46	31.06	-41.6	-44.9	13.3	2.74e-05	0	57	0	933232640	54	5379
2026-01-11 23:20:47.23	168.60	30.88	-41.5	-44.7	13.6	1.29e-05	0	57	0	935329792	54	5253
2026-01-11 23:20:48.24	168.75	30.69	-41.4	-44.6	13.7	1.14e-05	0	57	0	937426944	54	5201
2026-01-11 23:20:49.25	168.90	30.51	-41.4	-44.6	13.6	5.30e-06	0	57	0	939524096	54	5205
2026-01-11 23:20:50.26	169.04	30.33	-41.4	-44.5	13.7	6.10e-06	0	57	0	940572672	54	5152
2026-01-11 23:20:51.27	169.19	30.16	-41.6	-44.9	13.4	9.10e-06	0	57	0	942669824	54	5347
2026-01-11 23:20:52.28	169.33	29.98	-41.7	-45.1	13.1	2.97e-05	0	57	0	944766976	54	5494
2026-01-11 23:20:53.29	169.47	29.80	-41.8	-45.4	12.8	4.19e-05	0	57	0	946864128	54	5688
2026-01-11 23:20:54.30	169.61	29.63	-41.9	-45.6	12.6	7.55e-05	0	57	0	948961280	54	5810
2026-01-11 23:20:55.31	169.74	29.45	-41.9	-45.6	12.6	8.85e-05	0	57	0	950009856	54	5836
2026-01-11 23:20:56.32	169.88	29.28	-41.9	-45.6	12.6	1.14e-04	0	57	0	952107008	54	5806
2026-01-11 23:20:57.33	170.01	29.10	-41.9	-45.5	12.7	1.09e-04	0	57	0	954204160	54	5750
2026-01-11 23:20:58.34	170.15	28.93	-41.7	-45.3	12.9	5.41e-05	0	57	0	956301312	54	5600
2026-01-11 23:20:59.35	170.28	28.76	-41.6	-45.0	13.2	3.96e-05	0	57	0	958398464	54	5431
2026-01-11 23:21:00.35	170.41	28.59	-41.5	-44.9	13.3	2.36e-05	0	57	0	959447040	54	5345
2026-01-11 23:21:01.37	170.54	28.42	-41.5	-44.7	13.4	8.30e-06	0	57	0	961544192	54	5271
2026-01-11 23:21:02.38	170.67	28.25	-41.4	-44.7	13.5	7.60e-06	0	57	0	963641344	54	5241
2026-01-11 23:21:03.39	170.79	28.08	-41.4	-44.6	13.6	8.30e-06	0	57	0	965738496	54	5186
2026-01-11 23:21:04.39	170.92	27.92	-41.3	-44.5	13.7	9.90e-06	0	57	0	967835648	54	5125
2026-01-11 23:21:05.40	171.04	27.75	-41.3	-44.4	13.7	1.22e-05	0	57	0	968884224	54	5089
2026-01-11 23:21:06.41	171.16	27.59	-41.3	-44.4	13.8	8.30e-06	0	57	0	970981376	54	5086
2026-01-11 23:21:07.43	171.28	27.42	-41.2	-44.4	13.8	5.30e-06	0	57	0	973078528	54	5055
2026-01-11 23:21:08.44	171.41	27.26	-41.2	-44.4	13.8	4.50e-06	0	57	0	975175680	54	5057
2026-01-11 23:21:09.45	171.52	27.10	-41.2	-44.3	13.8	4.50e-06	0	57	0	977272832	54	5010
2026-01-11 23:21:10.46	171.64	26.94	-41.1	-44.1	14.0	3.80e-06	0	57	0	978321408	54	4926
2026-01-11 23:21:11.47	171.76	26.77	-41.1	-44.2	14.0	5.30e-06	0	57	0	980418560	54	4927
2026-01-11 23:21:12.48	171.87	26.61	-41.1	-44.1	13.9	3.80e-06	0	57	0	982515712	54	4900
2026-01-11 23:21:13.49	171.99	26.45	-41.1	-44.1	14.0	3.80e-06	0	57	0	984612864	54	4900
2026-01-11 23:21:14.50	172.10	26.30	-41.0	-43.9	14.2	1.50e-06	0	57	0	986710016	53	5091
2026-01-11 23:21:15.51	172.21	26.14	-40.9	-43.9	14.2	1.50e-06	0	57	0	987758592	53	5059
2026-01-11 23:21:16.51	172.32	25.98	-40.8	-43.7	14.4	7.00e-07	0	57	0	989855744	53	4979
2026-01-11 23:21:17.53	172.44	25.83	-40.7	-43.6	14.5	1.50e-06	0	57	0	991952896	53	4883
2026-01-11 23:21:18.54	172.54	25.67	-40.7	-43.5	14.6	0.00e+00	0	57	0	994050048	53	4851
2026-01-11 23:21:19.55	172.65	25.52	-40.5	-43.3	14.8	0.00e+00	0	57	0	996147200	53	4720
2026-01-11 23:21:20.56	172.76	25.36	-40.5	-43.1	15.0	0.00e+00	0	57	0	997195776	52	4921
2026-01-11 23:21:21.57	172.87	25.21	-40.4	-43.0	15.1	0.00e+00	0	57	0	999292928	52	4857
2026-01-11 23:21:22.58	172.97	25.06	-40.3	-42.9	15.1	0.00e+00	0	57	0	1001390080	52	4811
2026-01-11 23:21:23.59	173.07	24.91	-40.4	-43.0	15.1	0.00e+00	0	57	0	1003487232	52	4865
2026-01-11 23:21:24.60	173.18	24.76	-40.5	-43.1	14.9	0.00e+00	0	57	0	1005584384	52	4918
2026-01-11 23:21:25.61	173.28	24.61	-40.5	-43.2	14.9	0.00e+00	0	57	0	1007681536	52	4979
2026-01-11 23:21:26.62	173.38	24.46	-40.6	-43.4	14.7	0.00e+00	0	57	0	1008730112	52	5064
2026-01-11 23:21:27.63	173.48	24.31	-40.7	-43.6	14.4	7.00e-07	0	57	0	1010827264	52	5198
2026-01-11 23:21:28.64	173.58	24.16	-40.9	-43.9	14.2	7.00e-07	0	57	0	1012924416	52	5357
2026-01-11 23:21:29.65	173.68	24.02	-40.9	-43.9	14.2	1.50e-06	0	57	0	1015021568	52	5374
2026-01-11 23:21:30.66	173.78	23.87	-41.0	-44.0	14.1	1.50e-06	0	57	0	1017118720	52	5419
2026-01-11 23:21:31.67	173.87	23.72	-41.0	-44.0	14.0	3.80e-06	0	57	0	1018167296	52	5439
2026-01-11 23:21:32.68	173.97	23.58	-40.8	-43.8	14.2	2.20e-06	0	57	0	1020264448	52	5309
2026-01-11 23:21:33.69	174.06	23.44	-40.8	-43.7	14.4	1.50e-06	0	57	0	1022361600	52	5242
2026-01-11 23:21:34.70	174.16	23.29	-40.6	-43.4	14.6	7.00e-07	0	57	0	1024458752	52	5087
2026-01-11 23:21:35.71	174.25	23.15	-40.5	-43.2	14.8	0.00e+00	0	57	0	1026555904	52	4962
2026-01-11 23:21:36.72	174.34	23.01	-40.3	-43.0	15.1	0.00e+00	0	57	0	1027604480	52	4815
2026-01-11 23:21:37.73	174.44	22.87	-40.2	-42.8	15.3	0.00e+00	0	57	0	1029701632	52	4726
2026-01-11 23:21:38.74	174.53	22.73	-40.1	-42.6	15.5	0.00e+00	0	57	0	1031798784	52	4602
2026-01-11 23:21:39.74	174.62	22.59	-40.0	-42.4	15.7	0.00e+00	0	57	0	1033895936	51	4801
2026-01-11 23:21:40.75	174.71	22.45	-39.8	-42.2	15.9	0.00e+00	0	57	0	1035993088	51	4677
2026-01-11 23:21:41.76	174.80	22.31	-39.8	-42.1	16.1	0.00e+00	0	57	0	1037041664	51	4607
2026-01-11 23:21:42.77	174.88	22.18	-39.7	-42.0	16.1	0.00e+00	0	57	0	1039138816	51	4561
2026-01-11 23:21:43.78	174.97	22.04	-39.7	-42.0	16.1	0.00e+00	0	57	0	1041235968	51	4588
2026-01-11 23:21:44.79	175.06	21.90	-39.7	-42.0	16.1	0.00e+00	0	57	0	1043333120	51	4568
2026-01-11 23:21:45.80	175.14	21.77	-39.7	-42.1	16.0	0.00e+00	0	57	0	1045430272	51	4605
2026-01-11 23:21:46.81	175.23	21.63	-39.8	-42.2	15.9	0.00e+00	0	57	0	1046478848	51	4662
2026-01-11 23:21:47.82	175.31	21.50	-39.9	-42.2	15.9	0.00e+00	0	57	0	1048576000	51	4691
2026-01-11 23:21:48.83	175.40	21.36	-39.9	-42.3	15.8	0.00e+00	0	57	0	1050673152	51	4743
2026-01-11 23:21:49.84	175.48	21.23	-39.9	-42.4	15.7	0.00e+00	0	57	0	1052770304	51	4778
2026-01-11 23:21:50.85	175.56	21.10	-40.0	-42.5	15.6	0.00e+00	0	57	0	1054867456	51	4837
2026-01-11 23:21:51.86	175.64	20.97	-40.1	-42.6	15.4	0.00e+00	0	57	0	1055916032	51	4918
2026-01-11 23:21:52.86	175.72	20.84	-40.1	-42.7	15.4	0.00e+00	0	57	0	1058013184	51	4933
2026-01-11 23:21:53.87	175.80	20.71	-40.2	-42.7	15.3	0.00e+00	0	57	0	1060110336	51	4968
2026-01-11 23:21:54.88	175.88	20.58	-40.2	-42.7	15.3	0.00e+00	0	57	0	1062207488	51	4955
2026-01-11 23:21:55.89	175.96	20.45	-40.2	-42.7	15.3	0.00e+00	0	57	0	1064304640	51	4974
2026-01-11 23:21:56.90	176.04	20.32	-40.2	-42.8	15.2	0.00e+00	0	57	0	1065353216	51	5025
2026-01-11 23:21:57.91	176.12	20.19	-40.2	-42.8	15.2	0.00e+00	0	57	0	1067450368	51	5009
2026-01-11 23:21:58.92	176.20	20.06	-40.2	-42.7	15.3	0.00e+00	0	57	0	1069547520	51	4978
2026-01-11 23:21:59.93	176.27	19.94	-40.2	-42.7	15.3	0.00e+00	0	57	0	1071644672	51	4964
2026-01-11 23:22:00.94	176.35	19.81	-40.1	-42.7	15.4	0.00e+00	0	57	0	1073741824	51	4929
2026-01-11 23:22:01.95	176.42	19.69	-40.0	-42.5	15.5	0.00e+00	0	57	0	1075838976	51	4845
2026-01-11 23:22:02.96	176.50	19.56	-39.9	-42.3	15.7	0.00e+00	0	57	0	1076887552	51	4748
2026-01-11 23:22:03.97	176.57	19.44	-39.9	-42.3	15.7	0.00e+00	0	57	0	1078984704	51	4716
2026-01-11 23:22:04.98	176.65	19.31	-39.8	-42.2	15.8	0.00e+00	0	57	0	1081081856	51	4664
2026-01-11 23:22:05.99	176.72	19.19	-39.8	-42.1	15.8	0.00e+00	0	57	0	1083179008	51	4649
2026-01-11 23:22:07.00	176.79	19.07	-39.8	-42.1	15.9	0.00e+00	0	57	0	1085276160	51	4642
2026-01-11 23:22:08.00	176.86	18.95	-39.7	-42.1	15.9	0.00e+00	0	57	0	1086324736	51	4608
2026-01-11 23:22:09.01	176.93	18.83	-39.8	-42.1	15.9	0.00e+00	0	57	0	1088421888	51	4632
2026-01-11 23:22:10.02	177.00	18.70	-39.7	-42.1	15.9	0.00e+00	0	57	0	1090519040	51	4629
2026-01-11 23:22:11.03	177.08	18.58	-39.7	-42.1	15.9	0.00e+00	0	57	0	1092616192	51	4632
2026-01-11 23:22:12.04	177.14	18.46	-39.7	-42.1	15.9	0.00e+00	0	57	0	1094713344	51	4630
2026-01-11 23:22:13.05	177.21	18.34	-39.7	-42.1	15.8	0.00e+00	0	57	0	1095761920	51	4631
2026-01-11 23:22:14.06	177.28	18.23	-39.8	-42.2	15.8	0.00e+00	0	57	0	1097859072	51	4665
2026-01-11 23:22:15.07	177.35	18.11	-39.8	-42.2	15.7	0.00e+00	0	57	0	1099956224	51	4697
2026-01-11 23:22:16.08	177.42	17.99	-39.9	-42.3	15.6	0.00e+00	0	57	0	1102053376	51	4752
2026-01-11 23:22:17.09	177.49	17.87	-39.9	-42.4	15.6	0.00e+00	0	57	0	1104150528	51	4775
2026-01-11 23:22:18.10	177.55	17.76	-40.0	-42.5	15.4	0.00e+00	0	57	0	1105199104	51	4833
2026-01-11 23:22:19.11	177.62	17.64	-40.1	-42.6	15.3	0.00e+00	0	57	0	1107296256	51	4892
2026-01-11 23:22:20.12	177.69	17.52	-40.1	-42.6	15.2	0.00e+00	0	57	0	1109393408	51	4925
2026-01-11 23:22:21.13	177.75	17.41	-40.1	-42.7	15.2	7.00e-07	0	57	0	1111490560	51	4933
2026-01-11 23:22:22.14	177.82	17.29	-40.2	-42.8	15.2	0.00e+00	0	57	0	1113587712	51	4991
2026-01-11 23:22:23.15	177.88	17.18	-40.2	-42.8	15.1	0.00e+00	0	57	0	1114636288	51	5020
2026-01-11 23:22:24.16	177.94	17.07	-40.2	-42.8	15.1	0.00e+00	0	57	0	1116733440	51	5029
2026-01-11 23:22:25.17	178.01	16.95	-40.2	-42.8	15.1	0.00e+00	0	57	0	1118830592	51	5021
2026-01-11 23:22:26.18	178.07	16.84	-40.2	-42.8	15.1	0.00e+00	0	57	0	1120927744	51	4990
2026-01-11 23:22:27.19	178.13	16.73	-40.2	-42.9	15.0	0.00e+00	0	57	0	1123024896	51	5048
2026-01-11 23:22:28.20	178.20	16.62	-40.2	-42.9	15.0	7.00e-07	0	57	0	1124073472	51	5049
2026-01-11 23:22:29.20	178.26	16.51	-40.2	-42.8	15.0	0.00e+00	0	57	0	1126170624	51	5037
2026-01-11 23:22:30.21	178.32	16.40	-40.2	-42.9	15.0	7.00e-07	0	57	0	1128267776	51	5043
2026-01-11 23:22:31.22	178.38	16.29	-40.2	-42.9	15.0	0.00e+00	0	57	0	1130364928	51	5053
2026-01-11 23:22:32.23	178.44	16.18	-40.3	-42.9	15.0	0.00e+00	0	57	0	1132462080	51	5075
2026-01-11 23:22:33.24	178.50	16.07	-40.2	-42.9	14.9	0.00e+00	0	57	0	1133510656	51	5064
2026-01-11 23:22:34.25	178.56	15.96	-40.2	-42.9	14.9	7.00e-07	0	57	0	1135607808	51	5059
2026-01-11 23:22:35.26	178.62	15.85	-40.3	-42.9	14.9	0.00e+00	0	57	0	1137704960	51	5098
2026-01-11 23:22:36.27	178.68	15.74	-40.3	-42.9	14.9	0.00e+00	0	57	0	1139802112	51	5098
2026-01-11 23:22:37.28	178.73	15.63	-40.3	-43.0	14.9	7.00e-07	0	57	0	1141899264	51	5103
2026-01-11 23:22:38.29	178.79	15.53	-40.3	-43.0	14.8	7.00e-07	0	57	0	1143996416	51	5138
2026-01-11 23:22:39.30	178.85	15.42	-40.3	-43.0	14.8	7.00e-07	0	57	0	1145044992	51	5142
2026-01-11 23:22:40.31	178.91	15.31	-40.4	-43.2	14.6	7.00e-07	0	57	0	1147142144	51	5234
2026-01-11 23:22:41.32	178.96	15.21	-40.4	-43.2	14.6	0.00e+00	0	57	0	1149239296	51	5272
2026-01-11 23:22:42.33	179.02	15.10	-40.4	-43.2	14.6	0.00e+00	0	57	0	1151336448	51	5259
2026-01-11 23:22:43.34	179.08	15.00	-40.5	-43.3	14.5	0.00e+00	0	57	0	1153433600	51	5294
2026-01-11 23:22:44.35	179.13	14.89	-40.5	-43.3	14.4	1.50e-06	0	57	0	1154482176	51	5332
2026-01-11 23:22:45.36	179.19	14.79	-40.5	-43.4	14.4	7.00e-07	0	57	0	1156579328	51	5351
2026-01-11 23:22:46.36	179.24	14.69	-40.6	-43.4	14.3	7.00e-07	0	57	0	1158676480	51	5384
