passes_logs/2026/01/11/R2.0S_Moscow/R2.0S_Moscow__20260111_000917_FENGYUN_3D_rec.log

#Pass ID: 20260111_000917_FENGYUN 3D
#Satellite: FENGYUN 3D
#Configuration: FENGYUN 3D
#almurnet v.1.7.20251203
#Start time: 2026-01-11 00:09:18

#Version: 2.2.20231116
#Station: R2.0S_Moscow
#Location: 37.707566 lon 55.798166 lat
#TLE: 1 43010U 17072A   26009.92921666 -.00000228  00000+0 -86059-4 0  9998
#TLE: 2 43010  98.9936 341.6668 0002176 116.7510 243.3888 14.19693142422537

#Time	Az	El	Level	Level2	SNR	BER	BlckErr	Temp	State	Recorded	gain1	gain2
2026-01-11 00:09:18.41	26.54	2.05	-41.5	-53.5	3.8	8.47e-01	0	48	0	0	54	14379
2026-01-11 00:09:19.41	26.62	2.10	-41.5	-53.4	3.8	8.45e-01	0	48	104	0	53	15190
2026-01-11 00:09:20.43	26.69	2.16	-41.4	-53.5	3.8	8.46e-01	0	48	104	0	53	15233
2026-01-11 00:09:21.44	26.77	2.21	-41.4	-53.4	3.8	8.47e-01	0	48	104	0	53	15182
2026-01-11 00:09:22.45	26.85	2.27	-41.4	-53.4	3.8	8.46e-01	0	48	104	0	53	15179
2026-01-11 00:09:23.46	26.92	2.32	-41.4	-53.4	3.8	8.47e-01	0	48	104	0	53	15126
2026-01-11 00:09:24.47	27.00	2.38	-41.4	-53.4	3.8	8.46e-01	0	48	104	0	53	15224
2026-01-11 00:09:25.48	27.08	2.43	-41.4	-53.4	3.8	8.46e-01	0	48	104	0	53	15219
2026-01-11 00:09:26.49	27.16	2.48	-41.4	-53.5	3.8	8.46e-01	0	49	104	0	53	15235
2026-01-11 00:09:27.50	27.24	2.54	-41.4	-53.4	3.8	8.47e-01	0	49	104	0	53	15174
2026-01-11 00:09:28.51	27.32	2.59	-41.4	-53.4	3.8	8.47e-01	0	49	104	0	53	15184
2026-01-11 00:09:29.52	27.39	2.65	-41.4	-53.4	3.8	8.46e-01	0	49	104	0	53	15149
2026-01-11 00:09:30.54	27.47	2.70	-41.4	-53.4	3.8	8.46e-01	0	49	104	0	53	15202
2026-01-11 00:09:31.55	27.55	2.76	-41.4	-53.4	3.8	8.47e-01	0	49	104	0	53	15163
2026-01-11 00:09:32.56	27.63	2.81	-41.4	-53.4	3.8	8.47e-01	0	49	104	0	53	15150
2026-01-11 00:09:33.57	27.71	2.87	-41.4	-53.4	3.8	8.46e-01	0	49	104	0	53	15223
2026-01-11 00:09:34.58	27.79	2.92	-41.4	-53.4	3.8	8.46e-01	0	49	104	0	53	15179
2026-01-11 00:09:35.59	27.87	2.98	-41.4	-53.4	3.8	8.46e-01	0	49	104	0	53	15196
2026-01-11 00:09:36.60	27.95	3.03	-41.4	-53.4	3.8	8.46e-01	0	49	104	0	53	15130
2026-01-11 00:09:37.61	28.04	3.09	-41.4	-53.4	3.8	8.46e-01	0	49	104	0	53	15173
2026-01-11 00:09:38.62	28.12	3.14	-41.4	-53.4	3.8	8.46e-01	0	49	104	0	53	15195
2026-01-11 00:09:39.63	28.20	3.20	-41.4	-53.4	3.8	8.46e-01	0	49	104	0	53	15162
2026-01-11 00:09:40.65	28.28	3.25	-41.4	-53.4	3.8	8.46e-01	0	49	104	0	53	15152
2026-01-11 00:09:41.66	28.36	3.31	-41.4	-53.4	3.8	8.46e-01	0	49	104	0	53	15133
2026-01-11 00:09:42.67	28.45	3.36	-41.4	-53.4	3.8	8.46e-01	0	50	104	0	53	15167
2026-01-11 00:09:43.68	28.53	3.42	-41.4	-53.4	3.8	8.46e-01	0	50	104	0	53	15099
2026-01-11 00:09:44.69	28.61	3.47	-41.4	-53.4	3.8	8.45e-01	0	50	104	0	53	15156
2026-01-11 00:09:45.70	28.70	3.53	-41.4	-53.4	3.8	8.45e-01	0	50	104	0	53	15146
2026-01-11 00:09:46.71	28.78	3.58	-41.4	-53.4	3.8	8.46e-01	0	50	104	0	53	15136
2026-01-11 00:09:47.72	28.86	3.64	-41.4	-53.4	3.8	8.46e-01	0	50	104	0	53	15189
2026-01-11 00:09:48.73	28.95	3.70	-41.4	-53.4	3.8	8.46e-01	0	50	104	0	53	15131
2026-01-11 00:09:49.74	29.03	3.75	-41.5	-53.4	3.8	8.45e-01	0	50	104	0	53	15163
2026-01-11 00:09:50.76	29.12	3.81	-41.4	-53.4	3.8	8.45e-01	0	50	104	0	53	15195
2026-01-11 00:09:51.77	29.20	3.86	-41.4	-53.4	3.8	8.46e-01	0	50	104	0	53	15203
2026-01-11 00:09:52.78	29.29	3.92	-41.4	-53.4	3.8	8.46e-01	0	50	104	0	53	15150
2026-01-11 00:09:53.79	29.38	3.98	-41.4	-53.4	3.8	8.46e-01	0	50	104	0	53	15149
2026-01-11 00:09:54.80	29.46	4.03	-41.4	-53.4	3.8	8.46e-01	0	50	104	0	53	15131
2026-01-11 00:09:55.81	29.55	4.09	-41.4	-53.4	3.8	8.47e-01	0	50	104	0	53	15191
2026-01-11 00:09:56.82	29.64	4.14	-41.4	-53.4	3.8	8.47e-01	0	50	104	0	53	15139
2026-01-11 00:09:57.83	29.72	4.20	-41.4	-53.4	3.8	8.46e-01	0	50	104	0	53	15105
2026-01-11 00:09:58.84	29.81	4.26	-41.4	-53.4	3.8	8.46e-01	0	51	104	0	53	15153
2026-01-11 00:09:59.85	29.90	4.31	-41.4	-53.4	3.8	8.45e-01	0	50	104	0	53	15178
2026-01-11 00:10:00.87	29.99	4.37	-41.4	-53.4	3.8	8.46e-01	0	51	104	0	53	15119
2026-01-11 00:10:01.88	30.08	4.43	-41.4	-53.4	3.8	8.46e-01	0	51	104	0	53	15073
2026-01-11 00:10:02.89	30.16	4.48	-41.4	-53.4	3.8	8.46e-01	0	51	104	0	53	15158
2026-01-11 00:10:03.90	30.25	4.54	-41.4	-53.4	3.8	8.47e-01	0	51	104	0	53	15177
2026-01-11 00:10:04.91	30.34	4.60	-41.4	-53.4	3.8	8.47e-01	0	51	104	0	53	15104
2026-01-11 00:10:05.92	30.43	4.65	-41.4	-53.4	3.8	8.47e-01	0	51	104	0	53	15120
2026-01-11 00:10:06.93	30.52	4.71	-41.4	-53.4	3.8	8.46e-01	0	51	104	0	53	15161
2026-01-11 00:10:07.94	30.61	4.77	-41.4	-53.4	3.8	8.45e-01	0	51	104	0	53	15128
2026-01-11 00:10:08.96	30.71	4.83	-41.4	-53.4	3.8	8.45e-01	0	51	104	0	53	15117
2026-01-11 00:10:09.96	30.80	4.88	-41.4	-53.4	3.8	8.46e-01	0	51	104	0	53	15139
2026-01-11 00:10:10.98	30.89	4.94	-41.4	-53.4	3.8	8.46e-01	0	51	104	0	53	15157
2026-01-11 00:10:11.99	30.98	5.00	-41.4	-53.4	3.8	8.46e-01	0	51	104	0	53	15122
2026-01-11 00:10:13.00	31.07	5.05	-41.4	-53.4	3.8	8.45e-01	0	51	104	0	53	15144
2026-01-11 00:10:14.01	31.16	5.11	-41.4	-53.4	3.8	8.46e-01	0	51	104	0	53	15198
2026-01-11 00:10:15.02	31.26	5.17	-41.4	-53.4	3.8	8.45e-01	0	51	104	0	53	15133
2026-01-11 00:10:16.03	31.35	5.23	-41.4	-53.4	3.8	8.46e-01	0	51	104	0	53	15157
2026-01-11 00:10:17.04	31.44	5.28	-41.4	-53.4	3.8	8.46e-01	0	51	104	0	53	15126
2026-01-11 00:10:18.05	31.54	5.34	-41.4	-53.4	3.8	8.46e-01	0	51	104	0	53	15131
2026-01-11 00:10:19.06	31.63	5.40	-41.4	-53.4	3.8	8.46e-01	0	51	104	0	53	15121
2026-01-11 00:10:20.07	31.73	5.46	-41.4	-53.4	3.8	8.46e-01	0	52	104	0	53	15135
2026-01-11 00:10:21.08	31.82	5.52	-41.4	-53.4	3.8	8.46e-01	0	51	104	0	53	15146
2026-01-11 00:10:22.09	31.92	5.57	-41.4	-53.4	3.8	8.47e-01	0	52	104	0	53	15118
2026-01-11 00:10:23.10	32.01	5.63	-41.4	-53.4	3.8	8.46e-01	0	52	104	0	53	15178
2026-01-11 00:10:24.11	32.11	5.69	-41.4	-53.4	3.8	8.45e-01	0	52	104	0	53	15135
2026-01-11 00:10:25.12	32.21	5.75	-41.4	-53.4	3.8	8.47e-01	0	52	104	0	53	15114
2026-01-11 00:10:26.14	32.30	5.81	-41.4	-53.4	3.8	8.47e-01	0	52	104	0	53	15115
2026-01-11 00:10:27.15	32.40	5.86	-41.4	-53.4	3.8	8.45e-01	0	52	104	0	53	15126
2026-01-11 00:10:28.16	32.50	5.92	-41.4	-53.4	3.8	8.46e-01	0	52	104	0	53	15160
2026-01-11 00:10:29.17	32.60	5.98	-41.4	-53.4	3.8	8.45e-01	0	52	104	0	53	15179
2026-01-11 00:10:30.18	32.69	6.04	-41.4	-53.4	3.8	8.46e-01	0	52	104	0	53	15109
2026-01-11 00:10:31.19	32.79	6.10	-41.4	-53.4	3.8	8.45e-01	0	52	104	0	53	15133
2026-01-11 00:10:32.20	32.89	6.16	-41.4	-53.4	3.8	8.45e-01	0	52	104	0	53	15139
2026-01-11 00:10:33.21	32.99	6.22	-41.4	-53.4	3.8	8.45e-01	0	52	104	0	53	15117
2026-01-11 00:10:34.22	33.09	6.27	-41.4	-53.4	3.8	8.46e-01	0	52	104	0	53	15106
2026-01-11 00:10:35.24	33.19	6.33	-41.4	-53.4	3.8	8.46e-01	0	52	104	0	53	15130
2026-01-11 00:10:36.25	33.29	6.39	-41.4	-53.4	3.8	8.46e-01	0	52	104	0	53	15151
2026-01-11 00:10:37.26	33.39	6.45	-41.4	-53.4	3.8	8.46e-01	0	52	104	0	53	15096
2026-01-11 00:10:38.27	33.49	6.51	-41.4	-53.4	3.8	8.46e-01	0	53	104	0	53	15127
2026-01-11 00:10:39.28	33.60	6.57	-41.4	-53.4	3.8	8.47e-01	0	52	104	0	53	15052
2026-01-11 00:10:40.29	33.70	6.63	-41.4	-53.3	3.8	8.46e-01	0	53	104	0	53	15048
2026-01-11 00:10:41.30	33.80	6.69	-41.4	-53.3	3.8	8.46e-01	0	52	104	0	53	14954
2026-01-11 00:10:42.31	33.90	6.75	-41.4	-53.3	3.8	8.47e-01	0	52	104	0	53	14952
2026-01-11 00:10:43.32	34.01	6.81	-41.4	-53.3	3.8	8.46e-01	0	52	104	0	53	15011
2026-01-11 00:10:44.33	34.11	6.87	-41.4	-53.3	3.8	8.46e-01	0	52	104	0	53	15024
2026-01-11 00:10:45.35	34.22	6.93	-41.4	-53.3	3.8	8.45e-01	0	52	104	0	53	15012
2026-01-11 00:10:46.36	34.32	6.98	-41.4	-53.4	3.8	8.45e-01	0	53	104	0	53	15182
2026-01-11 00:10:47.37	34.43	7.04	-41.4	-53.3	3.8	8.46e-01	0	53	104	0	53	15037
2026-01-11 00:10:48.38	34.53	7.10	-41.4	-53.0	3.8	8.45e-01	0	53	104	0	53	14531
2026-01-11 00:10:49.39	34.64	7.16	-41.4	-52.7	3.8	8.46e-01	0	53	104	0	53	13937
2026-01-11 00:10:50.40	34.74	7.22	-41.4	-52.7	3.8	8.46e-01	0	53	104	0	53	13936
2026-01-11 00:10:51.41	34.85	7.28	-41.4	-53.1	3.8	8.46e-01	0	53	104	0	53	14583
2026-01-11 00:10:52.42	34.96	7.34	-41.4	-53.2	3.8	8.46e-01	0	53	104	0	53	14722
2026-01-11 00:10:53.43	35.06	7.40	-41.4	-53.1	3.8	8.47e-01	0	53	104	0	53	14706
2026-01-11 00:10:54.45	35.17	7.46	-41.4	-52.8	3.8	8.46e-01	0	53	104	0	53	14094
2026-01-11 00:10:55.46	35.28	7.52	-41.4	-53.1	3.8	8.46e-01	0	53	104	0	53	14559
2026-01-11 00:10:56.47	35.39	7.58	-41.4	-52.7	3.8	8.47e-01	0	53	104	0	53	14035
2026-01-11 00:10:57.48	35.50	7.64	-41.4	-53.0	3.8	8.46e-01	0	53	104	0	53	14390
2026-01-11 00:10:58.49	35.61	7.70	-41.3	-52.1	3.8	8.47e-01	0	53	104	0	53	13030
2026-01-11 00:10:59.50	35.72	7.76	-41.4	-52.4	3.8	8.46e-01	0	53	104	0	53	13526
2026-01-11 00:11:00.51	35.83	7.82	-41.1	-50.7	4.0	8.43e-01	0	53	104	0	53	11093
2026-01-11 00:11:01.52	35.94	7.88	-40.8	-48.7	4.5	8.32e-01	0	53	0	0	53	8848
2026-01-11 00:11:02.53	36.05	7.94	-40.7	-48.1	4.8	7.88e-01	0	53	0	0	53	8245
2026-01-11 00:11:03.55	36.16	8.00	-40.7	-48.0	4.9	7.84e-01	0	53	0	0	53	8135
2026-01-11 00:11:04.56	36.28	8.07	-40.2	-44.6	8.3	2.20e-01	0	53	0	2097152	52	5797
2026-01-11 00:11:05.57	36.39	8.13	-41.2	-46.7	6.6	6.80e-02	0	53	0	7340032	53	6966
2026-01-11 00:11:06.58	36.50	8.19	-39.4	-43.4	9.0	2.39e-01	0	53	0	10485760	50	5665
2026-01-11 00:11:07.59	36.62	8.25	-40.4	-48.8	4.5	1.41e-01	0	53	0	15728640	51	10052
2026-01-11 00:11:08.60	36.73	8.31	-38.0	-40.8	11.5	4.21e-01	0	53	104	15728640	48	4734
2026-01-11 00:11:09.61	36.84	8.37	-37.5	-39.6	13.9	2.40e-05	0	53	0	20971520	46	4648
2026-01-11 00:11:10.62	36.96	8.43	-37.4	-39.5	14.0	4.50e-06	0	53	0	26214400	46	4562
2026-01-11 00:11:11.63	37.07	8.49	-37.9	-40.2	13.3	2.63e-05	0	53	0	31457280	46	4942
2026-01-11 00:11:12.64	37.19	8.55	-37.6	-39.8	13.8	1.48e-05	0	53	0	37748736	46	4733
2026-01-11 00:11:13.65	37.31	8.61	-37.0	-38.9	14.6	2.20e-06	0	53	0	42991616	45	4525
2026-01-11 00:11:14.66	37.42	8.67	-37.2	-39.2	14.4	0.00e+00	0	53	0	49283072	45	4690
2026-01-11 00:11:15.67	37.54	8.73	-37.3	-39.4	14.2	3.40e-06	0	54	0	54525952	45	4788
2026-01-11 00:11:16.68	37.66	8.80	-37.2	-39.2	14.4	2.20e-06	0	54	0	59768832	45	4696
2026-01-11 00:11:17.69	37.78	8.86	-37.1	-39.2	14.6	0.00e+00	0	53	0	66060288	45	4652
2026-01-11 00:11:18.70	37.89	8.92	-37.1	-39.1	14.6	1.10e-06	0	53	0	71303168	45	4635
2026-01-11 00:11:19.71	38.01	8.98	-37.3	-39.4	14.4	1.10e-06	0	54	0	77594624	45	4765
2026-01-11 00:11:20.72	38.13	9.04	-37.3	-39.3	14.5	2.20e-06	0	54	0	82837504	45	4712
2026-01-11 00:11:21.73	38.25	9.10	-37.2	-39.2	14.6	2.20e-06	0	54	0	88080384	45	4685
2026-01-11 00:11:22.74	38.37	9.16	-37.3	-39.3	14.5	0.00e+00	0	54	0	94371840	45	4736
2026-01-11 00:11:23.75	38.50	9.22	-37.4	-39.5	14.3	0.00e+00	0	54	0	99614720	45	4834
2026-01-11 00:11:24.76	38.62	9.29	-37.5	-39.5	14.3	0.00e+00	0	54	0	105906176	45	4843
2026-01-11 00:11:25.77	38.74	9.35	-37.5	-39.5	14.4	1.10e-06	0	54	0	111149056	45	4830
2026-01-11 00:11:26.78	38.86	9.41	-37.6	-39.7	14.3	0.00e+00	0	53	0	117440512	45	4959
2026-01-11 00:11:27.79	38.99	9.47	-37.7	-39.8	14.2	5.70e-06	0	54	0	122683392	46	4733
2026-01-11 00:11:28.80	39.11	9.53	-37.6	-39.6	14.5	2.20e-06	0	54	0	128974848	46	4617
2026-01-11 00:11:29.81	39.23	9.59	-37.6	-39.6	14.5	2.20e-06	0	54	0	134217728	46	4600
2026-01-11 00:11:30.82	39.36	9.66	-37.7	-39.6	14.5	2.20e-06	0	54	0	139460608	46	4642
2026-01-11 00:11:31.83	39.48	9.72	-37.5	-39.4	14.8	0.00e+00	0	54	0	145752064	46	4506
2026-01-11 00:11:32.84	39.61	9.78	-37.6	-39.5	14.6	1.10e-06	0	54	0	150994944	46	4583
2026-01-11 00:11:33.85	39.73	9.84	-37.5	-39.4	14.8	1.10e-06	0	54	0	157286400	46	4529
2026-01-11 00:11:34.86	39.86	9.90	-37.5	-39.4	14.8	1.10e-06	0	54	0	162529280	46	4518
2026-01-11 00:11:35.87	39.99	9.96	-37.5	-39.4	14.8	0.00e+00	0	54	0	167772160	46	4528
2026-01-11 00:11:36.88	40.12	10.03	-37.6	-39.5	14.7	0.00e+00	0	54	0	174063616	46	4571
2026-01-11 00:11:37.89	40.24	10.09	-37.6	-39.4	14.8	1.10e-06	0	54	0	179306496	46	4541
2026-01-11 00:11:38.90	40.37	10.15	-37.7	-39.7	14.6	0.00e+00	0	54	0	185597952	46	4653
2026-01-11 00:11:39.91	40.50	10.21	-37.5	-39.4	14.9	0.00e+00	0	54	0	190840832	46	4504
2026-01-11 00:11:40.92	40.63	10.27	-37.3	-39.2	15.1	0.00e+00	0	54	0	196083712	46	4405
2026-01-11 00:11:41.93	40.76	10.34	-37.5	-39.4	14.9	0.00e+00	0	54	0	202375168	46	4503
2026-01-11 00:11:42.95	40.89	10.40	-37.4	-39.2	15.0	0.00e+00	0	54	0	207618048	46	4421
2026-01-11 00:11:43.96	41.03	10.46	-37.5	-39.3	14.9	0.00e+00	0	54	0	213909504	46	4483
2026-01-11 00:11:44.97	41.16	10.52	-37.4	-39.2	15.0	0.00e+00	0	54	0	219152384	46	4440
2026-01-11 00:11:45.97	41.29	10.58	-37.4	-39.2	15.0	0.00e+00	0	54	0	225443840	46	4425
2026-01-11 00:11:46.98	41.42	10.65	-37.3	-39.2	15.1	0.00e+00	0	54	0	230686720	46	4392
2026-01-11 00:11:47.99	41.56	10.71	-37.3	-39.1	15.1	0.00e+00	0	54	0	235929600	46	4384
2026-01-11 00:11:49.00	41.69	10.77	-37.3	-39.1	15.2	0.00e+00	0	54	0	242221056	46	4356
2026-01-11 00:11:50.01	41.82	10.83	-37.2	-38.9	15.4	0.00e+00	0	54	0	247463936	46	4282
2026-01-11 00:11:51.02	41.96	10.90	-37.2	-38.9	15.4	0.00e+00	0	54	0	253755392	46	4272
2026-01-11 00:11:52.03	42.10	10.96	-37.1	-38.9	15.4	0.00e+00	0	54	0	258998272	46	4260
2026-01-11 00:11:53.04	42.23	11.02	-37.0	-38.7	15.6	0.00e+00	0	54	0	264241152	45	4422
2026-01-11 00:11:54.05	42.37	11.08	-37.0	-38.7	15.6	0.00e+00	0	54	0	270532608	45	4410
2026-01-11 00:11:55.06	42.51	11.15	-37.0	-38.7	15.7	0.00e+00	0	54	0	275775488	45	4400
2026-01-11 00:11:56.06	42.64	11.21	-36.8	-38.5	15.8	0.00e+00	0	54	0	282066944	45	4313
2026-01-11 00:11:57.08	42.78	11.27	-36.7	-38.3	16.1	0.00e+00	0	54	0	287309824	45	4204
2026-01-11 00:11:58.08	42.92	11.33	-36.8	-38.4	15.9	0.00e+00	0	54	0	292552704	45	4289
2026-01-11 00:11:59.09	43.06	11.39	-36.8	-38.4	16.0	0.00e+00	0	54	0	298844160	45	4290
2026-01-11 00:12:00.10	43.20	11.46	-36.8	-38.5	15.9	0.00e+00	0	54	0	304087040	45	4300
2026-01-11 00:12:01.11	43.34	11.52	-36.8	-38.4	16.0	0.00e+00	0	54	0	310378496	45	4289
2026-01-11 00:12:02.12	43.48	11.58	-36.8	-38.4	16.0	0.00e+00	0	55	0	315621376	45	4269
2026-01-11 00:12:03.13	43.63	11.64	-36.9	-38.6	15.9	0.00e+00	0	55	0	321912832	45	4342
2026-01-11 00:12:04.14	43.77	11.71	-36.9	-38.6	15.9	0.00e+00	0	55	0	327155712	45	4355
2026-01-11 00:12:05.15	43.91	11.77	-36.9	-38.6	15.9	0.00e+00	0	54	0	333447168	45	4352
2026-01-11 00:12:06.16	44.06	11.83	-36.9	-38.6	15.9	0.00e+00	0	55	0	338690048	45	4346
2026-01-11 00:12:07.17	44.20	11.89	-36.8	-38.5	16.0	0.00e+00	0	54	0	343932928	45	4308
2026-01-11 00:12:08.18	44.34	11.96	-36.8	-38.4	16.0	0.00e+00	0	55	0	350224384	45	4286
2026-01-11 00:12:09.19	44.49	12.02	-36.9	-38.5	16.0	0.00e+00	0	55	0	355467264	45	4321
2026-01-11 00:12:10.20	44.64	12.08	-36.9	-38.5	16.0	0.00e+00	0	55	0	360710144	45	4320
2026-01-11 00:12:11.21	44.78	12.14	-36.8	-38.4	16.1	0.00e+00	0	54	0	367001600	45	4273
2026-01-11 00:12:12.22	44.93	12.21	-36.8	-38.4	16.1	0.00e+00	0	55	0	372244480	45	4280
2026-01-11 00:12:13.23	45.08	12.27	-36.9	-38.5	16.0	0.00e+00	0	55	0	378535936	45	4324
2026-01-11 00:12:14.23	45.23	12.33	-36.9	-38.5	16.0	0.00e+00	0	55	0	383778816	45	4338
2026-01-11 00:12:15.24	45.38	12.39	-37.0	-38.6	15.9	0.00e+00	0	55	0	389021696	45	4384
2026-01-11 00:12:16.26	45.53	12.46	-37.0	-38.7	15.9	0.00e+00	0	55	0	395313152	45	4393
2026-01-11 00:12:17.27	45.68	12.52	-36.9	-38.6	16.0	0.00e+00	0	55	0	400556032	45	4348
2026-01-11 00:12:18.28	45.83	12.58	-37.1	-38.8	15.8	0.00e+00	0	55	0	406847488	45	4469
2026-01-11 00:12:19.29	45.98	12.64	-37.0	-38.7	15.8	0.00e+00	0	55	0	412090368	45	4416
2026-01-11 00:12:20.30	46.13	12.71	-37.0	-38.7	15.9	0.00e+00	0	55	0	418381824	45	4424
2026-01-11 00:12:21.31	46.29	12.77	-37.0	-38.7	15.9	0.00e+00	0	55	0	423624704	45	4404
2026-01-11 00:12:22.32	46.44	12.83	-37.0	-38.7	15.8	0.00e+00	0	55	0	429916160	45	4436
2026-01-11 00:12:23.33	46.59	12.89	-36.9	-38.6	16.0	0.00e+00	0	55	0	435159040	45	4359
2026-01-11 00:12:24.34	46.75	12.95	-37.0	-38.7	15.9	0.00e+00	0	55	0	440401920	45	4408
2026-01-11 00:12:25.35	46.90	13.02	-36.9	-38.6	16.0	0.00e+00	0	55	0	446693376	45	4353
2026-01-11 00:12:26.36	47.06	13.08	-36.8	-38.5	16.1	0.00e+00	0	55	0	451936256	45	4295
2026-01-11 00:12:27.37	47.22	13.14	-36.8	-38.4	16.2	0.00e+00	0	55	0	458227712	45	4277
2026-01-11 00:12:28.38	47.38	13.20	-36.7	-38.4	16.3	0.00e+00	0	55	0	463470592	45	4245
2026-01-11 00:12:29.39	47.53	13.27	-36.6	-38.2	16.4	0.00e+00	0	55	0	468713472	45	4181
2026-01-11 00:12:30.40	47.69	13.33	-36.4	-38.0	16.7	0.00e+00	0	55	0	475004928	44	4301
2026-01-11 00:12:31.41	47.85	13.39	-36.5	-38.0	16.6	0.00e+00	0	55	0	480247808	44	4312
2026-01-11 00:12:32.42	48.01	13.45	-36.4	-38.0	16.7	0.00e+00	0	55	0	486539264	44	4301
2026-01-11 00:12:33.43	48.17	13.51	-36.5	-38.1	16.6	0.00e+00	0	55	0	491782144	44	4346
2026-01-11 00:12:34.44	48.33	13.58	-36.6	-38.1	16.6	0.00e+00	0	55	0	497025024	44	4372
2026-01-11 00:12:35.45	48.50	13.64	-36.5	-38.1	16.6	0.00e+00	0	55	0	503316480	44	4348
2026-01-11 00:12:36.46	48.66	13.70	-36.6	-38.1	16.5	0.00e+00	0	55	0	508559360	44	4379
2026-01-11 00:12:37.48	48.82	13.76	-36.4	-38.0	16.7	0.00e+00	0	55	0	514850816	44	4306
2026-01-11 00:12:38.49	48.99	13.82	-36.5	-38.0	16.7	0.00e+00	0	55	0	520093696	44	4303
2026-01-11 00:12:39.49	49.15	13.88	-36.5	-38.0	16.7	0.00e+00	0	55	0	526385152	44	4305
2026-01-11 00:12:40.50	49.32	13.95	-36.5	-38.0	16.7	0.00e+00	0	55	0	531628032	44	4301
2026-01-11 00:12:41.51	49.48	14.01	-36.4	-37.9	16.8	0.00e+00	0	55	0	537919488	44	4272
2026-01-11 00:12:42.53	49.65	14.07	-36.6	-38.1	16.6	0.00e+00	0	55	0	543162368	44	4390
2026-01-11 00:12:43.53	49.82	14.13	-36.5	-38.1	16.6	0.00e+00	0	55	0	548405248	44	4358
2026-01-11 00:12:44.55	49.99	14.19	-36.5	-38.1	16.7	0.00e+00	0	55	0	554696704	44	4346
2026-01-11 00:12:45.56	50.15	14.25	-36.4	-37.9	16.7	0.00e+00	0	55	0	559939584	44	4277
2026-01-11 00:12:46.57	50.32	14.31	-36.3	-37.8	16.9	0.00e+00	0	55	0	566231040	44	4236
2026-01-11 00:12:47.58	50.49	14.38	-36.3	-37.8	16.9	0.00e+00	0	55	0	571473920	44	4226
2026-01-11 00:12:48.59	50.67	14.44	-36.2	-37.7	17.0	0.00e+00	0	55	0	576716800	44	4146
2026-01-11 00:12:49.60	50.84	14.50	-36.2	-37.7	17.0	0.00e+00	0	55	0	583008256	44	4156
2026-01-11 00:12:50.61	51.01	14.56	-36.2	-37.7	17.0	0.00e+00	0	55	0	588251136	44	4153
2026-01-11 00:12:51.62	51.18	14.62	-36.2	-37.7	17.1	0.00e+00	0	55	0	594542592	44	4163
2026-01-11 00:12:52.63	51.36	14.68	-36.2	-37.7	17.0	0.00e+00	0	55	0	599785472	44	4186
2026-01-11 00:12:53.64	51.53	14.74	-36.2	-37.7	17.0	0.00e+00	0	55	0	605028352	44	4167
2026-01-11 00:12:54.65	51.70	14.80	-36.2	-37.6	17.1	0.00e+00	0	55	0	611319808	44	4141
2026-01-11 00:12:55.66	51.88	14.86	-36.1	-37.6	17.1	0.00e+00	0	55	0	616562688	44	4126
2026-01-11 00:12:56.67	52.06	14.92	-36.2	-37.6	17.1	0.00e+00	0	55	0	622854144	44	4136
2026-01-11 00:12:57.68	52.23	14.98	-36.2	-37.7	17.0	0.00e+00	0	55	0	628097024	44	4148
2026-01-11 00:12:58.69	52.41	15.04	-36.3	-37.7	17.0	0.00e+00	0	55	0	634388480	44	4187
2026-01-11 00:12:59.70	52.59	15.10	-36.2	-37.6	17.1	0.00e+00	0	55	0	639631360	44	4144
2026-01-11 00:13:00.69	52.77	15.16	-36.1	-37.6	17.2	0.00e+00	0	55	0	644874240	44	4125
2026-01-11 00:13:01.70	52.94	15.22	-36.1	-37.6	17.2	0.00e+00	0	55	0	651165696	44	4108
2026-01-11 00:13:02.71	53.13	15.28	-36.1	-37.6	17.2	0.00e+00	0	55	0	656408576	44	4114
2026-01-11 00:13:03.72	53.31	15.34	-36.1	-37.6	17.2	0.00e+00	0	55	0	662700032	44	4105
2026-01-11 00:13:04.73	53.49	15.40	-36.1	-37.5	17.2	0.00e+00	0	55	0	667942912	44	4088
2026-01-11 00:13:05.74	53.67	15.46	-36.1	-37.5	17.2	0.00e+00	0	55	0	673185792	44	4071
2026-01-11 00:13:06.75	53.85	15.52	-36.0	-37.5	17.3	0.00e+00	0	55	0	679477248	44	4056
2026-01-11 00:13:07.77	54.04	15.58	-36.0	-37.5	17.3	0.00e+00	0	55	0	684720128	44	4055
2026-01-11 00:13:08.77	54.22	15.64	-35.8	-37.2	17.4	0.00e+00	0	55	0	691011584	43	4164
2026-01-11 00:13:09.78	54.41	15.69	-35.8	-37.2	17.4	0.00e+00	0	55	0	696254464	43	4166
2026-01-11 00:13:10.79	54.60	15.75	-35.7	-37.1	17.4	0.00e+00	0	55	0	701497344	43	4120
2026-01-11 00:13:11.80	54.78	15.81	-35.8	-37.2	17.4	0.00e+00	0	55	0	707788800	43	4170
2026-01-11 00:13:12.81	54.97	15.87	-35.7	-37.1	17.5	0.00e+00	0	55	0	713031680	43	4126
2026-01-11 00:13:13.82	55.16	15.93	-35.8	-37.2	17.4	0.00e+00	0	55	0	719323136	43	4164
2026-01-11 00:13:14.83	55.35	15.99	-35.8	-37.3	17.3	0.00e+00	0	55	0	724566016	43	4194
2026-01-11 00:13:15.84	55.54	16.04	-36.0	-37.4	17.1	0.00e+00	0	55	0	730857472	43	4270
2026-01-11 00:13:16.85	55.73	16.10	-36.0	-37.4	17.1	0.00e+00	0	55	0	736100352	43	4279
2026-01-11 00:13:17.86	55.92	16.16	-36.0	-37.5	17.1	0.00e+00	0	55	0	742391808	43	4310
2026-01-11 00:13:18.87	56.11	16.22	-35.9	-37.4	17.2	0.00e+00	0	55	0	747634688	43	4265
2026-01-11 00:13:19.88	56.30	16.27	-36.0	-37.4	17.2	0.00e+00	0	55	0	752877568	43	4271
2026-01-11 00:13:20.89	56.50	16.33	-35.9	-37.4	17.2	0.00e+00	0	55	0	759169024	43	4254
2026-01-11 00:13:21.90	56.69	16.39	-35.8	-37.2	17.3	0.00e+00	0	55	0	764411904	43	4190
2026-01-11 00:13:22.91	56.89	16.44	-35.9	-37.3	17.2	0.00e+00	0	55	0	770703360	43	4238
2026-01-11 00:13:23.92	57.08	16.50	-35.9	-37.4	17.2	0.00e+00	0	55	0	775946240	43	4257
2026-01-11 00:13:24.93	57.28	16.56	-35.8	-37.2	17.4	0.00e+00	0	55	0	781189120	43	4178
2026-01-11 00:13:25.94	57.47	16.61	-35.7	-37.1	17.5	0.00e+00	0	55	0	787480576	43	4107
2026-01-11 00:13:26.95	57.67	16.67	-35.7	-37.1	17.4	0.00e+00	0	55	0	792723456	43	4128
2026-01-11 00:13:27.96	57.87	16.73	-35.7	-37.1	17.5	0.00e+00	0	55	0	799014912	43	4108
2026-01-11 00:13:28.97	58.07	16.78	-35.7	-37.1	17.4	0.00e+00	0	55	0	804257792	43	4129
2026-01-11 00:13:29.98	58.27	16.84	-35.8	-37.3	17.3	0.00e+00	0	55	0	809500672	43	4198
2026-01-11 00:13:30.99	58.47	16.89	-35.8	-37.3	17.3	0.00e+00	0	55	0	815792128	43	4200
2026-01-11 00:13:32.00	58.67	16.95	-35.8	-37.2	17.3	0.00e+00	0	55	0	821035008	43	4191
2026-01-11 00:13:33.01	58.87	17.00	-35.8	-37.2	17.4	0.00e+00	0	55	0	827326464	43	4165
2026-01-11 00:13:34.01	59.07	17.06	-35.7	-37.1	17.5	0.00e+00	0	55	0	832569344	43	4118
2026-01-11 00:13:35.02	59.28	17.11	-35.6	-37.0	17.6	0.00e+00	0	55	0	838860800	43	4089
2026-01-11 00:13:36.03	59.48	17.16	-35.5	-36.9	17.6	0.00e+00	0	55	0	844103680	43	4038
2026-01-11 00:13:37.04	59.69	17.22	-35.5	-36.9	17.7	0.00e+00	0	55	0	849346560	43	4008
2026-01-11 00:13:38.05	59.89	17.27	-35.5	-36.9	17.7	0.00e+00	0	55	0	855638016	42	4263
2026-01-11 00:13:39.07	60.10	17.33	-35.6	-37.0	17.6	0.00e+00	0	55	0	860880896	42	4299
2026-01-11 00:13:40.08	60.31	17.38	-35.6	-36.9	17.6	0.00e+00	0	55	0	867172352	42	4282
2026-01-11 00:13:41.09	60.52	17.43	-35.6	-37.0	17.6	0.00e+00	0	55	0	872415232	42	4318
2026-01-11 00:13:42.10	60.72	17.48	-35.6	-37.0	17.6	0.00e+00	0	56	0	877658112	42	4315
2026-01-11 00:13:43.11	60.93	17.54	-35.6	-37.0	17.6	0.00e+00	0	56	0	883949568	42	4293
2026-01-11 00:13:44.12	61.14	17.59	-35.6	-37.0	17.6	0.00e+00	0	56	0	889192448	42	4307
2026-01-11 00:13:45.13	61.35	17.64	-35.5	-36.9	17.7	0.00e+00	0	56	0	895483904	42	4246
2026-01-11 00:13:46.14	61.57	17.69	-35.5	-36.8	17.7	0.00e+00	0	56	0	900726784	42	4241
2026-01-11 00:13:47.15	61.78	17.74	-35.4	-36.7	17.9	0.00e+00	0	56	0	907018240	42	4185
2026-01-11 00:13:48.16	61.99	17.80	-35.4	-36.8	17.8	0.00e+00	0	56	0	912261120	42	4205
2026-01-11 00:13:49.17	62.20	17.85	-35.4	-36.7	17.9	0.00e+00	0	56	0	917504000	42	4176
2026-01-11 00:13:50.18	62.42	17.90	-35.3	-36.7	17.9	0.00e+00	0	56	0	923795456	42	4153
2026-01-11 00:13:51.19	62.63	17.95	-35.3	-36.6	18.0	0.00e+00	0	56	0	929038336	42	4131
2026-01-11 00:13:52.20	62.85	18.00	-35.3	-36.7	17.9	0.00e+00	0	55	0	935329792	42	4166
2026-01-11 00:13:53.21	63.07	18.05	-35.4	-36.7	17.9	0.00e+00	0	56	0	940572672	42	4178
2026-01-11 00:13:54.22	63.28	18.10	-35.5	-36.8	17.7	0.00e+00	0	56	0	946864128	42	4237
2026-01-11 00:13:55.23	63.50	18.15	-35.4	-36.9	17.3	0.00e+00	0	56	0	952107008	42	4278
2026-01-11 00:13:56.24	63.72	18.19	-35.4	-37.0	17.3	0.00e+00	0	55	0	957349888	42	4298
2026-01-11 00:13:57.25	63.94	18.24	-35.4	-36.9	17.4	0.00e+00	0	56	0	963641344	42	4278
2026-01-11 00:13:58.26	64.16	18.29	-35.3	-36.9	17.4	0.00e+00	0	56	0	968884224	42	4248
2026-01-11 00:13:59.27	64.38	18.34	-35.1	-36.6	17.6	0.00e+00	0	56	0	975175680	42	4111
2026-01-11 00:14:00.28	64.60	18.39	-35.1	-36.6	17.6	0.00e+00	0	55	0	980418560	42	4132
2026-01-11 00:14:01.29	64.82	18.43	-35.2	-36.7	17.6	0.00e+00	0	56	0	985661440	42	4146
2026-01-11 00:14:02.30	65.04	18.48	-35.3	-36.8	17.5	0.00e+00	0	56	0	991952896	42	4214
2026-01-11 00:14:03.31	65.27	18.53	-35.3	-36.9	17.4	0.00e+00	0	56	0	997195776	42	4255
2026-01-11 00:14:04.32	65.49	18.57	-35.3	-36.8	17.4	0.00e+00	0	56	0	1003487232	42	4242
2026-01-11 00:14:05.33	65.72	18.62	-35.3	-36.8	17.4	0.00e+00	0	56	0	1008730112	42	4209
2026-01-11 00:14:06.34	65.94	18.67	-35.1	-36.6	17.6	0.00e+00	0	56	0	1013972992	42	4128
2026-01-11 00:14:07.35	66.17	18.71	-35.1	-36.6	17.6	0.00e+00	0	56	0	1020264448	42	4113
2026-01-11 00:14:08.36	66.39	18.76	-35.0	-36.5	17.6	0.00e+00	0	56	0	1025507328	41	4298
2026-01-11 00:14:09.37	66.62	18.80	-35.0	-36.5	17.6	0.00e+00	0	56	0	1031798784	41	4292
2026-01-11 00:14:10.38	66.85	18.84	-35.0	-36.5	17.6	0.00e+00	0	56	0	1037041664	41	4327
2026-01-11 00:14:11.39	67.08	18.89	-35.0	-36.5	17.6	0.00e+00	0	56	0	1043333120	41	4300
2026-01-11 00:14:12.40	67.31	18.93	-35.0	-36.5	17.6	0.00e+00	0	56	0	1048576000	41	4308
2026-01-11 00:14:13.40	67.53	18.97	-35.0	-36.5	17.5	0.00e+00	0	56	0	1054867456	41	4292
2026-01-11 00:14:14.41	67.76	19.02	-35.1	-36.6	17.3	0.00e+00	0	56	0	1060110336	41	4390
2026-01-11 00:14:15.42	67.99	19.06	-35.1	-36.6	17.3	0.00e+00	0	56	0	1065353216	41	4374
2026-01-11 00:14:16.43	68.23	19.10	-35.0	-36.5	17.3	0.00e+00	0	56	0	1071644672	41	4339
2026-01-11 00:14:17.44	68.46	19.14	-35.1	-36.6	17.2	0.00e+00	0	56	0	1076887552	41	4382
2026-01-11 00:14:18.45	68.69	19.18	-35.1	-36.6	17.1	0.00e+00	0	56	0	1082130432	41	4385
2026-01-11 00:14:19.46	68.92	19.23	-35.2	-36.8	16.9	0.00e+00	0	56	0	1088421888	41	4454
2026-01-11 00:14:20.47	69.16	19.27	-35.2	-36.8	16.8	0.00e+00	0	56	0	1093664768	41	4460
2026-01-11 00:14:21.48	69.39	19.31	-35.3	-36.9	16.7	0.00e+00	0	56	0	1099956224	41	4522
2026-01-11 00:14:22.49	69.63	19.35	-35.4	-37.0	16.5	0.00e+00	0	56	0	1105199104	41	4580
2026-01-11 00:14:23.50	69.86	19.38	-35.4	-37.1	16.4	0.00e+00	0	56	0	1110441984	41	4619
2026-01-11 00:14:24.51	70.10	19.42	-35.4	-37.1	16.3	0.00e+00	0	56	0	1116733440	41	4631
2026-01-11 00:14:25.52	70.34	19.46	-35.5	-37.2	16.1	0.00e+00	0	56	0	1121976320	41	4675
2026-01-11 00:14:26.53	70.58	19.50	-35.5	-37.3	16.0	0.00e+00	0	56	0	1128267776	41	4708
2026-01-11 00:14:27.54	70.81	19.54	-35.6	-37.4	15.8	0.00e+00	0	56	0	1133510656	41	4768
2026-01-11 00:14:28.54	71.05	19.57	-35.6	-37.4	15.8	0.00e+00	0	56	0	1139802112	41	4799
2026-01-11 00:14:29.56	71.29	19.61	-35.7	-37.5	15.7	0.00e+00	0	56	0	1145044992	41	4824
2026-01-11 00:14:30.56	71.53	19.65	-35.6	-37.4	15.7	0.00e+00	0	56	0	1151336448	41	4794
2026-01-11 00:14:31.57	71.77	19.68	-35.7	-37.4	15.7	0.00e+00	0	56	0	1156579328	41	4803
2026-01-11 00:14:32.58	72.01	19.72	-35.7	-37.5	15.7	0.00e+00	0	56	0	1161822208	41	4844
2026-01-11 00:14:33.59	72.25	19.75	-35.8	-37.6	15.6	0.00e+00	0	56	0	1168113664	42	4617
2026-01-11 00:14:34.60	72.50	19.79	-35.9	-37.7	15.5	0.00e+00	0	56	0	1173356544	42	4676
2026-01-11 00:14:35.61	72.74	19.82	-35.9	-37.7	15.5	0.00e+00	0	56	0	1179648000	42	4696
2026-01-11 00:14:36.62	72.98	19.86	-35.9	-37.7	15.5	0.00e+00	0	56	0	1184890880	42	4686
2026-01-11 00:14:37.63	73.23	19.89	-35.9	-37.7	15.5	0.00e+00	0	56	0	1190133760	42	4682
2026-01-11 00:14:38.64	73.47	19.92	-35.8	-37.7	15.5	0.00e+00	0	56	0	1196425216	42	4662
2026-01-11 00:14:39.65	73.72	19.95	-35.8	-37.7	15.5	0.00e+00	0	56	0	1201668096	42	4654
2026-01-11 00:14:40.66	73.96	19.98	-35.8	-37.6	15.4	0.00e+00	0	56	0	1207959552	42	4629
2026-01-11 00:14:41.67	74.21	20.02	-35.7	-37.5	15.5	0.00e+00	0	56	0	1213202432	42	4589
2026-01-11 00:14:42.68	74.45	20.05	-35.7	-37.5	15.5	0.00e+00	0	56	0	1218445312	42	4579
2026-01-11 00:14:43.69	74.70	20.08	-35.7	-37.6	15.4	0.00e+00	0	56	0	1224736768	42	4604
2026-01-11 00:14:44.70	74.95	20.11	-35.7	-37.5	15.6	0.00e+00	0	56	0	1229979648	42	4570
2026-01-11 00:14:45.71	75.20	20.14	-35.7	-37.5	15.7	0.00e+00	0	56	0	1236271104	42	4551
2026-01-11 00:14:46.72	75.44	20.16	-35.7	-37.5	15.7	0.00e+00	0	56	0	1241513984	42	4561
2026-01-11 00:14:47.73	75.69	20.19	-35.7	-37.4	15.8	0.00e+00	0	56	0	1247805440	42	4537
2026-01-11 00:14:48.74	75.94	20.22	-35.5	-37.2	16.0	0.00e+00	0	56	0	1253048320	42	4441
2026-01-11 00:14:49.75	76.19	20.25	-35.5	-37.2	16.1	0.00e+00	0	56	0	1259339776	42	4400
2026-01-11 00:14:50.76	76.44	20.27	-35.4	-37.1	16.2	0.00e+00	0	56	0	1264582656	42	4370
2026-01-11 00:14:51.77	76.69	20.30	-35.5	-37.2	16.1	0.00e+00	0	56	0	1269825536	42	4402
2026-01-11 00:14:52.78	76.94	20.33	-35.5	-37.2	16.2	0.00e+00	0	56	0	1276116992	42	4393
2026-01-11 00:14:53.79	77.19	20.35	-35.4	-37.0	16.3	0.00e+00	0	56	0	1281359872	42	4339
2026-01-11 00:14:54.79	77.44	20.38	-35.4	-37.1	16.3	0.00e+00	0	56	0	1286602752	42	4342
2026-01-11 00:14:55.81	77.70	20.40	-35.4	-37.1	16.3	0.00e+00	0	56	0	1292894208	42	4369
2026-01-11 00:14:56.81	77.95	20.42	-35.5	-37.2	16.2	0.00e+00	0	56	0	1298137088	42	4422
2026-01-11 00:14:57.82	78.20	20.45	-35.6	-37.3	16.1	0.00e+00	0	56	0	1304428544	42	4466
2026-01-11 00:14:58.83	78.45	20.47	-35.6	-37.4	16.0	0.00e+00	0	56	0	1309671424	42	4518
2026-01-11 00:14:59.84	78.71	20.49	-35.6	-37.4	16.0	0.00e+00	0	56	0	1314914304	42	4500
2026-01-11 00:15:00.85	78.96	20.51	-35.4	-37.1	16.1	0.00e+00	0	56	0	1321205760	42	4386
2026-01-11 00:15:01.86	79.22	20.53	-35.3	-37.0	16.3	0.00e+00	0	56	0	1326448640	42	4323
2026-01-11 00:15:02.87	79.47	20.55	-35.3	-37.0	16.4	0.00e+00	0	56	0	1332740096	42	4304
2026-01-11 00:15:03.88	79.73	20.57	-35.3	-36.9	16.5	0.00e+00	0	56	0	1337982976	42	4273
2026-01-11 00:15:04.89	79.98	20.59	-35.2	-36.9	16.6	0.00e+00	0	56	0	1344274432	42	4252
2026-01-11 00:15:05.90	80.24	20.61	-35.2	-36.8	16.7	0.00e+00	0	56	0	1349517312	42	4198
2026-01-11 00:15:06.91	80.49	20.63	-34.9	-36.5	17.1	0.00e+00	0	56	0	1355808768	41	4310
2026-01-11 00:15:07.92	80.75	20.65	-34.9	-36.4	17.2	0.00e+00	0	56	0	1361051648	41	4265
2026-01-11 00:15:08.93	81.01	20.66	-34.8	-36.3	17.4	0.00e+00	0	56	0	1366294528	41	4209
2026-01-11 00:15:09.94	81.26	20.68	-34.8	-36.3	17.4	0.00e+00	0	56	0	1372585984	41	4204
2026-01-11 00:15:10.95	81.52	20.70	-34.8	-36.3	17.5	0.00e+00	0	56	0	1377828864	41	4202
2026-01-11 00:15:11.96	81.78	20.71	-34.7	-36.2	17.5	0.00e+00	0	56	0	1384120320	41	4189
2026-01-11 00:15:12.97	82.03	20.73	-34.7	-36.2	17.5	0.00e+00	0	56	0	1389363200	41	4176
2026-01-11 00:15:13.98	82.29	20.74	-34.8	-36.3	17.4	0.00e+00	0	56	0	1394606080	41	4225
2026-01-11 00:15:14.99	82.55	20.75	-34.8	-36.3	17.4	0.00e+00	0	56	0	1400897536	41	4226
2026-01-11 00:15:16.00	82.81	20.77	-34.8	-36.3	17.4	0.00e+00	0	56	0	1406140416	41	4221
2026-01-11 00:15:17.01	83.07	20.78	-34.9	-36.4	17.2	0.00e+00	0	56	0	1412431872	41	4275
2026-01-11 00:15:18.02	83.33	20.79	-34.9	-36.5	17.2	0.00e+00	0	56	0	1417674752	41	4302
2026-01-11 00:15:19.03	83.58	20.80	-35.0	-36.5	17.0	0.00e+00	0	56	0	1422917632	41	4329
2026-01-11 00:15:20.04	83.84	20.81	-34.9	-36.5	17.0	0.00e+00	0	56	0	1429209088	41	4304
2026-01-11 00:15:21.05	84.10	20.82	-34.9	-36.5	17.0	0.00e+00	0	56	0	1434451968	41	4325
2026-01-11 00:15:22.06	84.36	20.83	-35.0	-36.6	16.8	0.00e+00	0	56	0	1440743424	41	4385
2026-01-11 00:15:23.07	84.62	20.84	-35.1	-36.7	16.7	0.00e+00	0	56	0	1445986304	41	4425
2026-01-11 00:15:24.08	84.88	20.85	-35.2	-36.8	16.6	0.00e+00	0	56	0	1452277760	41	4466
2026-01-11 00:15:25.09	85.14	20.86	-35.2	-36.9	16.4	0.00e+00	0	56	0	1457520640	41	4523
2026-01-11 00:15:26.10	85.40	20.87	-35.3	-36.9	16.4	0.00e+00	0	56	0	1462763520	41	4540
2026-01-11 00:15:27.11	85.66	20.87	-35.2	-36.8	16.5	0.00e+00	0	56	0	1469054976	41	4487
2026-01-11 00:15:28.12	85.92	20.88	-35.3	-36.9	16.5	0.00e+00	0	56	0	1474297856	41	4521
2026-01-11 00:15:29.13	86.18	20.89	-35.2	-36.8	16.5	0.00e+00	0	56	0	1480589312	41	4493
2026-01-11 00:15:30.14	86.44	20.89	-35.3	-36.9	16.5	0.00e+00	0	56	0	1485832192	41	4522
2026-01-11 00:15:31.15	86.70	20.89	-35.3	-36.9	16.5	0.00e+00	0	56	0	1492123648	41	4531
2026-01-11 00:15:32.16	86.96	20.90	-35.3	-36.9	16.5	0.00e+00	0	56	0	1497366528	41	4538
2026-01-11 00:15:33.17	87.23	20.90	-35.3	-36.9	16.5	0.00e+00	0	56	0	1502609408	41	4544
2026-01-11 00:15:34.18	87.49	20.90	-35.2	-36.8	16.6	0.00e+00	0	56	0	1508900864	41	4483
2026-01-11 00:15:35.20	87.75	20.91	-35.2	-36.8	16.7	0.00e+00	0	56	0	1514143744	41	4461
2026-01-11 00:15:36.21	88.01	20.91	-35.2	-36.8	16.7	0.00e+00	0	56	0	1520435200	41	4464
2026-01-11 00:15:37.22	88.27	20.91	-35.2	-36.8	16.7	0.00e+00	0	56	0	1525678080	41	4464
2026-01-11 00:15:38.23	88.53	20.91	-35.1	-36.7	16.9	0.00e+00	0	56	0	1530920960	41	4422
2026-01-11 00:15:39.24	88.79	20.91	-35.0	-36.6	17.0	0.00e+00	0	56	0	1537212416	41	4364
2026-01-11 00:15:40.25	89.05	20.91	-34.9	-36.5	17.2	0.00e+00	0	56	0	1542455296	41	4310
2026-01-11 00:15:41.26	89.32	20.91	-35.0	-36.5	17.3	0.00e+00	0	56	0	1548746752	41	4312
2026-01-11 00:15:42.27	89.58	20.90	-35.0	-36.5	17.2	0.00e+00	0	56	0	1553989632	41	4335
2026-01-11 00:15:43.28	89.84	20.90	-35.0	-36.6	17.3	0.00e+00	0	56	0	1560281088	41	4347
2026-01-11 00:15:44.29	90.10	20.90	-34.9	-36.4	17.4	0.00e+00	0	56	0	1565523968	41	4291
2026-01-11 00:15:45.30	90.36	20.89	-34.9	-36.4	17.5	0.00e+00	0	56	0	1571815424	41	4259
2026-01-11 00:15:46.31	90.62	20.89	-34.7	-36.2	17.8	0.00e+00	0	56	0	1577058304	41	4174
2026-01-11 00:15:47.32	90.88	20.88	-34.6	-36.1	17.9	0.00e+00	0	56	0	1582301184	41	4111
2026-01-11 00:15:48.33	91.14	20.88	-34.5	-35.9	18.1	0.00e+00	0	56	0	1588592640	41	4050
2026-01-11 00:15:49.34	91.40	20.87	-34.4	-35.8	18.2	0.00e+00	0	56	0	1593835520	40	4218
2026-01-11 00:15:50.35	91.66	20.86	-34.4	-35.8	18.3	0.00e+00	0	56	0	1599078400	40	4208
2026-01-11 00:15:51.36	91.92	20.86	-34.4	-35.8	18.3	0.00e+00	0	56	0	1605369856	40	4218
2026-01-11 00:15:52.37	92.18	20.85	-34.4	-35.8	18.3	0.00e+00	0	56	0	1610612736	40	4231
2026-01-11 00:15:53.38	92.44	20.84	-34.5	-35.9	18.2	0.00e+00	0	56	0	1616904192	40	4280
2026-01-11 00:15:54.39	92.70	20.83	-34.6	-36.0	18.1	0.00e+00	0	56	0	1622147072	40	4335
2026-01-11 00:15:55.40	92.96	20.82	-34.7	-36.1	18.1	0.00e+00	0	56	0	1627389952	40	4374
2026-01-11 00:15:56.41	93.22	20.81	-34.7	-36.2	18.0	0.00e+00	0	56	0	1633681408	40	4417
2026-01-11 00:15:57.42	93.48	20.80	-34.6	-36.1	18.1	0.00e+00	0	56	0	1638924288	40	4357
2026-01-11 00:15:58.42	93.74	20.79	-34.7	-36.1	18.1	0.00e+00	0	56	0	1645215744	40	4370
2026-01-11 00:15:59.44	94.00	20.78	-34.7	-36.1	18.1	0.00e+00	0	56	0	1650458624	40	4390
2026-01-11 00:16:00.45	94.26	20.76	-34.8	-36.2	18.0	0.00e+00	0	56	0	1656750080	40	4428
2026-01-11 00:16:01.46	94.52	20.75	-34.8	-36.3	18.0	0.00e+00	0	56	0	1661992960	40	4464
2026-01-11 00:16:02.47	94.77	20.74	-34.9	-36.4	17.9	0.00e+00	0	56	0	1668284416	40	4511
2026-01-11 00:16:03.48	95.03	20.72	-34.8	-36.3	17.9	0.00e+00	0	56	0	1673527296	40	4466
2026-01-11 00:16:04.49	95.29	20.71	-34.8	-36.2	18.0	0.00e+00	0	56	0	1678770176	40	4438
2026-01-11 00:16:05.50	95.55	20.69	-34.8	-36.2	18.1	0.00e+00	0	56	0	1685061632	40	4411
2026-01-11 00:16:06.51	95.80	20.68	-34.7	-36.1	18.1	0.00e+00	0	56	0	1690304512	40	4388
2026-01-11 00:16:07.52	96.06	20.66	-34.7	-36.1	18.1	0.00e+00	0	56	0	1696595968	40	4382
2026-01-11 00:16:08.53	96.32	20.64	-34.7	-36.1	18.1	0.00e+00	0	56	0	1701838848	40	4382
2026-01-11 00:16:09.54	96.58	20.62	-34.7	-36.1	18.2	0.00e+00	0	56	0	1707081728	40	4359
2026-01-11 00:16:10.55	96.83	20.61	-34.8	-36.2	18.1	0.00e+00	0	56	0	1713373184	40	4414
2026-01-11 00:16:11.56	97.09	20.59	-34.8	-36.2	18.0	0.00e+00	0	56	0	1718616064	40	4441
2026-01-11 00:16:12.57	97.34	20.57	-34.8	-36.3	17.9	0.00e+00	0	56	0	1724907520	40	4471
2026-01-11 00:16:13.58	97.60	20.55	-34.9	-36.3	17.9	0.00e+00	0	56	0	1730150400	40	4484
2026-01-11 00:16:14.58	97.85	20.53	-34.8	-36.3	18.0	0.00e+00	0	56	0	1735393280	40	4459
2026-01-11 00:16:15.59	98.11	20.51	-34.8	-36.3	18.0	0.00e+00	0	56	0	1741684736	40	4449
2026-01-11 00:16:16.60	98.36	20.48	-34.8	-36.3	18.0	0.00e+00	0	56	0	1746927616	40	4453
2026-01-11 00:16:17.61	98.61	20.46	-34.7	-36.1	18.1	0.00e+00	0	56	0	1753219072	40	4386
2026-01-11 00:16:18.62	98.87	20.44	-34.7	-36.1	18.1	0.00e+00	0	56	0	1758461952	40	4362
2026-01-11 00:16:19.63	99.12	20.42	-34.7	-36.1	18.3	0.00e+00	0	56	0	1764753408	40	4348
2026-01-11 00:16:20.64	99.37	20.39	-34.6	-36.0	18.3	0.00e+00	0	56	0	1769996288	40	4300
2026-01-11 00:16:21.65	99.63	20.37	-34.6	-36.0	18.3	0.00e+00	0	56	0	1776287744	40	4294
2026-01-11 00:16:22.66	99.88	20.34	-34.6	-35.9	18.3	0.00e+00	0	56	0	1781530624	40	4286
2026-01-11 00:16:23.67	100.13	20.32	-34.7	-36.1	18.2	0.00e+00	0	56	0	1786773504	40	4346
2026-01-11 00:16:24.68	100.38	20.29	-34.7	-36.1	18.2	0.00e+00	0	56	0	1793064960	40	4367
2026-01-11 00:16:25.69	100.63	20.26	-34.7	-36.1	18.2	0.00e+00	0	56	0	1798307840	40	4369
2026-01-11 00:16:26.70	100.88	20.24	-34.6	-36.1	18.2	0.00e+00	0	56	0	1804599296	40	4345
2026-01-11 00:16:27.71	101.13	20.21	-34.6	-36.0	18.2	0.00e+00	0	56	0	1809842176	40	4323
2026-01-11 00:16:28.73	101.39	20.18	-34.5	-35.9	18.3	0.00e+00	0	56	0	1815085056	40	4283
2026-01-11 00:16:29.74	101.63	20.15	-34.6	-36.1	18.2	0.00e+00	0	56	0	1821376512	40	4346
2026-01-11 00:16:30.75	101.88	20.12	-34.7	-36.1	18.2	0.00e+00	0	56	0	1826619392	40	4373
2026-01-11 00:16:31.76	102.13	20.09	-34.7	-36.2	18.1	0.00e+00	0	56	0	1832910848	40	4396
2026-01-11 00:16:32.77	102.38	20.06	-34.7	-36.2	18.1	0.00e+00	0	56	0	1838153728	40	4405
2026-01-11 00:16:33.78	102.63	20.03	-34.7	-36.2	18.1	0.00e+00	0	56	0	1843396608	40	4394
2026-01-11 00:16:34.79	102.87	20.00	-34.7	-36.1	18.1	0.00e+00	0	56	0	1849688064	40	4391
2026-01-11 00:16:35.80	103.12	19.97	-34.7	-36.1	18.1	0.00e+00	0	56	0	1854930944	40	4374
2026-01-11 00:16:36.81	103.37	19.94	-34.8	-36.2	18.0	0.00e+00	0	56	0	1861222400	40	4424
2026-01-11 00:16:37.81	103.61	19.91	-34.9	-36.3	17.9	0.00e+00	0	56	0	1866465280	40	4482
2026-01-11 00:16:38.83	103.86	19.87	-35.0	-36.5	17.8	0.00e+00	0	56	0	1872756736	40	4564
2026-01-11 00:16:39.84	104.10	19.84	-35.0	-36.5	17.7	0.00e+00	0	56	0	1877999616	40	4591
2026-01-11 00:16:40.85	104.34	19.81	-35.1	-36.6	17.7	0.00e+00	0	56	0	1883242496	40	4617
2026-01-11 00:16:41.86	104.59	19.77	-35.0	-36.5	17.7	0.00e+00	0	56	0	1889533952	40	4590
2026-01-11 00:16:42.87	104.83	19.74	-35.1	-36.6	17.7	0.00e+00	0	56	0	1894776832	40	4604
2026-01-11 00:16:43.88	105.07	19.70	-35.1	-36.6	17.7	0.00e+00	0	56	0	1901068288	40	4620
2026-01-11 00:16:44.89	105.31	19.67	-35.1	-36.6	17.7	0.00e+00	0	56	0	1906311168	40	4623
2026-01-11 00:16:45.90	105.56	19.63	-35.1	-36.6	17.7	0.00e+00	0	56	0	1911554048	40	4630
2026-01-11 00:16:46.91	105.80	19.59	-35.1	-36.6	17.7	0.00e+00	0	56	0	1917845504	40	4622
2026-01-11 00:16:47.92	106.04	19.56	-35.1	-36.6	17.7	0.00e+00	0	56	0	1923088384	40	4618
2026-01-11 00:16:48.93	106.28	19.52	-35.1	-36.6	17.7	0.00e+00	0	56	0	1929379840	40	4615
2026-01-11 00:16:49.94	106.52	19.48	-35.1	-36.6	17.6	0.00e+00	0	56	0	1934622720	40	4639
2026-01-11 00:16:50.95	106.75	19.44	-35.1	-36.6	17.7	0.00e+00	0	56	0	1939865600	40	4627
2026-01-11 00:16:51.96	106.99	19.41	-35.1	-36.6	17.6	0.00e+00	0	56	0	1946157056	40	4647
2026-01-11 00:16:52.97	107.23	19.37	-35.2	-36.7	17.6	0.00e+00	0	56	0	1951399936	40	4666
2026-01-11 00:16:53.98	107.47	19.33	-35.2	-36.7	17.6	0.00e+00	0	56	0	1957691392	40	4680
2026-01-11 00:16:54.99	107.70	19.29	-35.2	-36.7	17.5	0.00e+00	0	56	0	1962934272	41	4427
2026-01-11 00:16:56.00	107.94	19.25	-35.2	-36.7	17.6	0.00e+00	0	56	0	1969225728	41	4410
2026-01-11 00:16:57.02	108.17	19.21	-35.2	-36.7	17.5	0.00e+00	0	56	0	1974468608	41	4425
2026-01-11 00:16:58.03	108.41	19.16	-35.2	-36.7	17.5	0.00e+00	0	56	0	1980760064	41	4435
2026-01-11 00:16:59.03	108.64	19.12	-35.2	-36.7	17.6	0.00e+00	0	56	0	1986002944	41	4402
2026-01-11 00:17:00.04	108.87	19.08	-35.2	-36.7	17.6	0.00e+00	0	56	0	1991245824	41	4408
2026-01-11 00:17:01.05	109.10	19.04	-35.2	-36.7	17.6	0.00e+00	0	56	0	1997537280	41	4406
2026-01-11 00:17:02.06	109.34	19.00	-35.2	-36.7	17.6	0.00e+00	0	56	0	2002780160	41	4392
2026-01-11 00:17:03.07	109.57	18.95	-35.1	-36.6	17.6	0.00e+00	0	56	0	2009071616	41	4378
2026-01-11 00:17:04.08	109.80	18.91	-35.2	-36.7	17.6	0.00e+00	0	56	0	2014314496	41	4403
2026-01-11 00:17:05.09	110.03	18.87	-35.2	-36.7	17.5	0.00e+00	0	56	0	2019557376	41	4426
2026-01-11 00:17:06.10	110.26	18.82	-35.3	-36.8	17.5	0.00e+00	0	56	0	2025848832	41	4464
2026-01-11 00:17:07.11	110.48	18.78	-35.3	-36.8	17.4	0.00e+00	0	56	0	2031091712	41	4464
2026-01-11 00:17:08.12	110.71	18.73	-35.3	-36.8	17.4	0.00e+00	0	56	0	2037383168	41	4472
2026-01-11 00:17:09.13	110.94	18.69	-35.3	-36.8	17.4	0.00e+00	0	56	0	2042626048	41	4474
2026-01-11 00:17:10.14	111.17	18.64	-35.3	-36.8	17.5	0.00e+00	0	56	0	2047868928	41	4465
2026-01-11 00:17:11.15	111.39	18.59	-35.3	-36.8	17.5	0.00e+00	0	56	0	2054160384	41	4450
2026-01-11 00:17:12.16	111.62	18.55	-35.3	-36.8	17.5	0.00e+00	0	56	0	2059403264	41	4455
2026-01-11 00:17:13.17	111.84	18.50	-35.3	-36.8	17.5	0.00e+00	0	56	0	2065694720	41	4443
2026-01-11 00:17:14.18	112.07	18.45	-35.3	-36.8	17.4	0.00e+00	0	56	0	2070937600	41	4460
2026-01-11 00:17:15.19	112.29	18.41	-35.3	-36.8	17.4	0.00e+00	0	56	0	2077229056	41	4468
2026-01-11 00:17:16.20	112.51	18.36	-35.3	-36.8	17.4	0.00e+00	0	56	0	2082471936	41	4459
2026-01-11 00:17:17.21	112.73	18.31	-35.3	-36.8	17.5	0.00e+00	0	56	0	2088763392	41	4448
2026-01-11 00:17:18.22	112.95	18.26	-35.2	-36.7	17.6	0.00e+00	0	56	0	2094006272	41	4414
2026-01-11 00:17:19.23	113.17	18.21	-35.1	-36.6	17.6	0.00e+00	0	56	0	2099249152	41	4373
2026-01-11 00:17:20.24	113.39	18.16	-35.1	-36.5	17.7	0.00e+00	0	56	0	2105540608	41	4336
2026-01-11 00:17:21.25	113.61	18.12	-35.1	-36.6	17.6	0.00e+00	0	56	0	2110783488	41	4363
2026-01-11 00:17:22.26	113.83	18.07	-35.3	-36.7	17.5	0.00e+00	0	56	0	2117074944	41	4441
2026-01-11 00:17:23.27	114.05	18.02	-35.4	-36.9	17.4	0.00e+00	0	56	0	2122317824	41	4501
2026-01-11 00:17:24.28	114.27	17.97	-35.5	-37.1	17.2	0.00e+00	0	56	0	2127560704	41	4617
2026-01-11 00:17:25.29	114.48	17.91	-35.6	-37.2	17.1	0.00e+00	0	56	0	2133852160	41	4677
2026-01-11 00:17:26.30	114.70	17.86	-35.6	-37.2	17.0	0.00e+00	0	56	0	2139095040	41	4703
2026-01-11 00:17:27.31	114.91	17.81	-35.6	-37.2	17.0	0.00e+00	0	56	0	2145386496	41	4686
2026-01-11 00:17:28.32	115.13	17.76	-35.6	-37.2	17.0	0.00e+00	0	56	0	2150629376	41	4680
2026-01-11 00:17:29.33	115.34	17.71	-35.6	-37.2	17.0	0.00e+00	0	56	0	2155872256	41	4667
2026-01-11 00:17:30.34	115.55	17.66	-35.4	-37.1	17.1	0.00e+00	0	56	0	2162163712	41	4626
2026-01-11 00:17:31.35	115.77	17.61	-35.5	-37.1	17.1	0.00e+00	0	56	0	2167406592	41	4611
2026-01-11 00:17:32.36	115.98	17.55	-35.5	-37.1	17.1	1.10e-06	0	56	0	2173698048	41	4607
2026-01-11 00:17:33.37	116.19	17.50	-35.5	-37.1	17.2	0.00e+00	0	56	0	2178940928	41	4599
2026-01-11 00:17:34.38	116.40	17.45	-35.5	-37.1	17.1	0.00e+00	0	56	0	2185232384	41	4615
2026-01-11 00:17:35.39	116.61	17.39	-35.5	-37.1	17.1	0.00e+00	0	56	0	2190475264	41	4622
2026-01-11 00:17:36.40	116.82	17.34	-35.5	-37.0	17.2	0.00e+00	0	56	0	2195718144	41	4587
2026-01-11 00:17:37.41	117.02	17.29	-35.3	-36.9	17.2	0.00e+00	0	56	0	2202009600	41	4536
2026-01-11 00:17:38.42	117.23	17.23	-35.2	-36.9	17.2	0.00e+00	0	56	0	2207252480	41	4514
2026-01-11 00:17:39.42	117.43	17.18	-35.2	-36.8	17.4	0.00e+00	0	56	0	2213543936	41	4472
2026-01-11 00:17:40.44	117.64	17.12	-35.3	-36.8	17.4	1.10e-06	0	56	0	2218786816	41	4457
2026-01-11 00:17:41.45	117.85	17.07	-35.2	-36.8	17.3	3.40e-06	0	56	0	2224029696	41	4472
2026-01-11 00:17:42.46	118.05	17.01	-35.3	-36.9	17.3	0.00e+00	0	56	0	2230321152	41	4508
2026-01-11 00:17:43.47	118.25	16.96	-35.4	-37.0	17.1	0.00e+00	0	56	0	2235564032	41	4571
2026-01-11 00:17:44.48	118.46	16.90	-35.6	-37.2	17.0	0.00e+00	0	56	0	2241855488	41	4669
2026-01-11 00:17:45.49	118.66	16.85	-35.6	-37.3	16.8	2.20e-06	0	56	0	2247098368	41	4729
2026-01-11 00:17:46.50	118.86	16.79	-35.8	-37.4	16.8	0.00e+00	0	57	0	2252341248	42	4533
2026-01-11 00:17:47.51	119.06	16.74	-35.7	-37.5	16.7	0.00e+00	0	56	0	2258632704	42	4558
2026-01-11 00:17:48.52	119.26	16.68	-35.8	-37.5	16.7	5.70e-06	0	56	0	2263875584	42	4546
2026-01-11 00:17:49.53	119.46	16.62	-35.8	-37.5	16.6	1.10e-06	0	56	0	2270167040	42	4581
2026-01-11 00:17:50.54	119.66	16.57	-35.9	-37.6	16.5	1.10e-06	0	56	0	2275409920	42	4632
2026-01-11 00:17:51.55	119.86	16.51	-36.0	-37.7	16.4	4.50e-06	0	56	0	2281701376	42	4668
2026-01-11 00:17:52.56	120.05	16.45	-36.0	-37.8	16.4	2.20e-06	0	56	0	2286944256	42	4706
2026-01-11 00:17:53.57	120.25	16.40	-36.0	-37.8	16.2	2.20e-06	0	56	0	2293235712	42	4756
2026-01-11 00:17:54.58	120.44	16.34	-36.0	-38.0	16.1	4.50e-06	0	56	0	2298478592	42	4816
2026-01-11 00:17:55.59	120.64	16.28	-35.9	-37.9	16.1	1.48e-05	0	56	0	2303721472	42	4760
2026-01-11 00:17:56.60	120.83	16.22	-35.7	-37.7	16.2	5.60e-05	0	56	0	2310012928	42	4701
2026-01-11 00:17:57.61	121.03	16.17	-35.0	-37.6	16.1	6.52e-05	0	56	0	2315255808	41	4909
2026-01-11 00:17:58.62	121.22	16.11	-34.9	-37.5	16.0	8.01e-05	0	56	0	2321547264	40	5131
2026-01-11 00:17:59.63	121.41	16.05	-34.0	-37.5	15.5	1.14e-04	0	56	0	2326790144	40	5119
2026-01-11 00:18:00.64	121.60	15.99	-33.3	-37.5	15.0	2.02e-04	0	56	0	2332033024	38	5777
2026-01-11 00:18:01.65	121.79	15.93	-33.7	-37.5	15.3	1.66e-04	0	56	0	2338324480	38	5743
2026-01-11 00:18:02.66	121.98	15.88	-34.7	-37.5	16.0	2.23e-04	0	56	0	2343567360	39	5430
2026-01-11 00:18:03.67	122.17	15.82	-35.5	-37.5	16.5	2.66e-04	0	57	0	2349858816	41	4829
2026-01-11 00:18:04.68	122.36	15.76	-35.5	-37.4	16.5	2.54e-04	0	56	0	2355101696	41	4770
2026-01-11 00:18:05.69	122.55	15.70	-35.2	-37.3	16.6	3.04e-04	0	56	0	2360344576	41	4713
2026-01-11 00:18:06.70	122.73	15.64	-35.1	-37.2	16.6	2.87e-04	0	56	0	2366636032	41	4703
2026-01-11 00:18:07.71	122.92	15.58	-35.4	-37.3	16.7	3.02e-04	0	56	0	2371878912	41	4720
2026-01-11 00:18:08.72	123.10	15.52	-35.4	-37.3	16.8	2.95e-04	0	56	0	2378170368	41	4729
2026-01-11 00:18:09.73	123.29	15.46	-35.5	-37.3	16.6	2.94e-04	0	56	0	2383413248	41	4754
2026-01-11 00:18:10.74	123.47	15.40	-35.5	-37.4	16.6	4.13e-04	0	56	0	2389704704	41	4765
2026-01-11 00:18:11.75	123.66	15.34	-35.7	-37.4	16.6	2.36e-03	0	56	0	2394947584	41	4794
2026-01-11 00:18:12.76	123.84	15.28	-35.8	-37.5	16.6	1.97e-04	0	56	0	2401239040	42	4589
2026-01-11 00:18:13.77	124.02	15.22	-35.9	-37.6	16.5	2.47e-03	0	56	0	2406481920	42	4622
2026-01-11 00:18:14.78	124.20	15.16	-35.9	-37.7	16.4	1.17e-04	0	56	0	2411724800	42	4655
2026-01-11 00:18:15.79	124.38	15.10	-36.0	-37.7	16.3	7.43e-05	0	56	0	2418016256	42	4705
2026-01-11 00:18:16.80	124.56	15.04	-36.0	-37.8	16.3	3.08e-05	0	56	0	2423259136	42	4710
2026-01-11 00:18:17.81	124.74	14.98	-36.1	-37.8	16.3	3.20e-05	0	56	0	2429550592	42	4733
2026-01-11 00:18:18.82	124.92	14.92	-36.0	-37.8	16.3	2.86e-05	0	56	0	2434793472	42	4713
2026-01-11 00:18:19.83	125.10	14.86	-36.1	-37.8	16.2	8.00e-06	0	56	0	2440036352	42	4750
2026-01-11 00:18:20.84	125.27	14.80	-36.0	-37.7	16.3	6.80e-06	0	56	0	2446327808	42	4702
2026-01-11 00:18:21.85	125.45	14.74	-36.1	-37.8	15.4	4.23e-05	0	56	0	2451570688	42	4723
2026-01-11 00:18:22.86	125.62	14.67	-36.2	-37.9	15.6	2.24e-04	0	56	0	2457862144	42	4789
2026-01-11 00:18:23.87	125.80	14.61	-36.1	-37.9	15.5	2.38e-04	0	56	0	2463105024	42	4785
2026-01-11 00:18:24.88	125.97	14.55	-36.3	-38.1	15.9	2.72e-04	0	56	0	2468347904	43	4599
2026-01-11 00:18:25.89	126.15	14.49	-36.4	-38.2	15.5	1.16e-03	0	56	0	2474639360	43	4704
2026-01-11 00:18:26.90	126.32	14.43	-36.5	-38.3	15.4	1.43e-03	0	56	0	2479882240	43	4729
2026-01-11 00:18:27.91	126.49	14.37	-36.3	-38.4	15.3	4.37e-03	0	56	0	2486173696	43	4794
2026-01-11 00:18:28.92	126.66	14.31	-36.4	-38.4	14.6	2.31e-03	0	57	0	2491416576	43	4794
2026-01-11 00:18:29.94	126.83	14.24	-36.3	-38.3	15.1	7.46e-03	0	56	0	2496659456	43	4742
2026-01-11 00:18:30.95	127.00	14.18	-35.9	-38.1	14.6	2.40e-02	0	56	0	2502950912	42	4909
2026-01-11 00:18:31.96	127.17	14.12	-35.8	-37.9	14.8	2.22e-02	0	56	0	2508193792	42	4797
2026-01-11 00:18:32.97	127.34	14.06	-35.7	-37.9	14.1	3.35e-02	0	56	0	2514485248	41	5093
2026-01-11 00:18:33.98	127.51	14.00	-35.1	-37.8	13.8	4.56e-02	0	57	0	2519728128	41	5021
2026-01-11 00:18:34.99	127.68	13.93	-34.3	-37.7	12.7	4.44e-02	0	57	0	2524971008	40	5270
2026-01-11 00:18:36.00	127.84	13.87	-35.3	-37.9	13.7	4.97e-02	0	56	0	2530213888	41	5080
2026-01-11 00:18:37.01	128.01	13.81	-31.1	-37.8	13.5	5.63e-02	0	56	0	2536505344	40	5291
2026-01-11 00:18:38.02	128.17	13.75	-31.1	-37.7	12.8	4.96e-02	0	56	0	2541748224	40	5276
2026-01-11 00:18:39.03	128.34	13.68	-34.9	-37.9	13.1	7.38e-02	0	56	0	2546991104	41	5054
2026-01-11 00:18:40.04	128.50	13.62	-34.5	-37.9	11.4	7.51e-02	0	56	0	2552233984	38	6014
2026-01-11 00:18:41.05	128.66	13.56	-34.2	-37.9	11.9	9.92e-02	0	56	0	2558525440	39	5674
2026-01-11 00:18:42.06	128.83	13.50	-34.2	-38.0	11.9	1.60e-01	0	56	0	2563768320	37	6457
2026-01-11 00:18:43.07	128.99	13.43	-32.3	-37.8	10.8	1.31e-01	0	56	0	2569011200	37	6318
2026-01-11 00:18:44.08	129.15	13.37	-25.7	-36.1	7.3	1.46e-01	0	56	0	2573205504	29	8177
2026-01-11 00:18:45.09	129.31	13.31	-32.2	-38.0	10.5	3.14e-01	0	56	0	2577399808	36	6875
2026-01-11 00:18:46.10	129.47	13.25	-31.4	-37.4	8.8	3.50e-01	0	56	0	2578448384	32	8028
2026-01-11 00:18:47.11	129.63	13.18	-32.6	-37.1	10.5	3.28e-01	0	56	0	2582642688	34	6886
2026-01-11 00:18:48.12	129.79	13.12	-32.8	-37.7	10.4	1.78e-01	0	56	0	2587885568	33	7870
2026-01-11 00:18:49.13	129.94	13.06	-30.5	-36.9	9.9	2.37e-01	0	56	0	2593128448	32	7624
2026-01-11 00:18:50.14	130.10	13.00	-31.8	-36.9	10.2	2.94e-01	0	56	0	2597322752	33	7159
2026-01-11 00:18:51.15	130.26	12.93	-31.2	-37.2	9.7	2.65e-01	0	56	0	2601517056	33	7373
2026-01-11 00:18:52.16	130.41	12.87	-30.8	-37.1	8.4	4.09e-01	0	56	0	2605711360	31	8223
2026-01-11 00:18:53.17	130.57	12.81	-30.8	-37.2	8.9	3.37e-01	0	56	0	2609905664	30	8809
2026-01-11 00:18:54.18	130.72	12.74	-31.6	-37.7	8.3	3.15e-01	0	57	0	2615148544	32	8305
2026-01-11 00:18:55.19	130.88	12.68	-30.7	-37.3	7.8	4.52e-01	0	56	0	2618294272	31	8436
2026-01-11 00:18:56.19	131.03	12.62	-29.7	-37.2	8.3	3.68e-01	0	56	0	2622488576	28	9856
2026-01-11 00:18:57.20	131.18	12.56	-29.8	-37.2	8.3	3.82e-01	0	56	0	2626682880	29	9311
2026-01-11 00:18:58.21	131.33	12.49	-29.7	-37.0	8.2	5.52e-01	0	57	0	2628780032	29	9105
2026-01-11 00:18:59.22	131.49	12.43	-29.7	-37.2	8.6	3.92e-01	0	56	0	2632974336	29	9285
2026-01-11 00:19:00.23	131.64	12.37	-30.4	-37.5	9.1	4.40e-01	0	56	0	2636120064	30	9153
2026-01-11 00:19:01.24	131.79	12.30	-21.8	-33.1	7.4	5.67e-01	0	57	0	2638217216	30	5483
2026-01-11 00:19:02.25	131.94	12.24	-30.1	-37.1	8.3	4.04e-01	0	56	0	2639265792	33	7338
2026-01-11 00:19:03.26	132.08	12.18	-29.7	-36.9	7.3	3.95e-01	0	56	0	2642411520	26	10771
2026-01-11 00:19:04.27	132.23	12.11	-30.0	-37.2	7.0	4.43e-01	0	56	0	2645557248	29	9323
2026-01-11 00:19:05.28	132.38	12.05	-29.0	-37.0	8.1	4.75e-01	0	56	0	2648702976	31	8139
2026-01-11 00:19:06.29	132.53	11.99	-24.4	-35.5	7.4	4.16e-01	0	56	0	2651848704	29	7689
2026-01-11 00:19:07.30	132.67	11.92	-30.1	-37.1	7.9	4.60e-01	0	56	0	2654994432	29	9213
2026-01-11 00:19:08.31	132.82	11.86	-31.1	-37.8	9.0	4.15e-01	0	56	0	2658140160	33	7926
2026-01-11 00:19:09.32	132.97	11.80	-31.8	-37.4	9.0	4.46e-01	0	56	0	2662334464	31	8471
2026-01-11 00:19:10.33	133.11	11.74	-29.1	-37.7	8.7	5.46e-01	0	56	0	2664431616	32	8280
2026-01-11 00:19:11.34	133.25	11.67	-30.2	-37.6	8.5	3.98e-01	0	56	0	2668625920	34	7314
2026-01-11 00:19:12.35	133.40	11.61	-30.9	-38.3	7.6	3.99e-01	0	56	0	2671771648	30	9979
2026-01-11 00:19:13.35	133.54	11.55	-29.5	-37.5	7.7	6.23e-01	0	56	0	2673868800	26	11531
2026-01-11 00:19:14.36	133.68	11.48	-31.2	-38.4	8.4	2.89e-01	0	56	0	2678063104	37	6737
2026-01-11 00:19:15.37	133.82	11.42	-32.3	-38.0	8.7	2.95e-01	0	56	0	2682257408	32	8661
2026-01-11 00:19:16.38	133.96	11.36	-33.5	-39.1	9.3	3.75e-01	0	56	0	2685403136	38	6910
2026-01-11 00:19:17.39	134.10	11.29	-30.1	-37.8	9.7	2.83e-01	0	56	0	2689597440	37	6322
2026-01-11 00:19:18.40	134.24	11.23	-32.2	-38.5	9.6	2.24e-01	0	56	0	2694840320	39	6123
2026-01-11 00:19:19.41	134.38	11.17	-30.8	-38.6	9.4	1.67e-01	0	56	0	2700083200	39	6196
2026-01-11 00:19:20.42	134.52	11.10	-33.5	-39.3	10.4	1.60e-01	0	56	0	2705326080	40	6345
2026-01-11 00:19:21.43	134.66	11.04	-36.1	-39.4	10.6	1.27e-01	0	56	0	2710568960	41	6017
2026-01-11 00:19:22.44	134.80	10.98	-33.1	-38.7	11.0	1.60e-01	0	56	0	2714763264	41	5583
2026-01-11 00:19:23.45	134.93	10.92	-35.2	-38.1	13.0	7.14e-02	0	56	0	2720006144	42	4873
2026-01-11 00:19:24.46	135.07	10.85	-33.4	-37.2	10.0	5.59e-02	0	56	0	2726297600	35	6614
2026-01-11 00:19:25.47	135.21	10.79	-35.7	-38.0	13.1	8.58e-02	0	56	0	2731540480	41	5115
2026-01-11 00:19:26.47	135.34	10.73	-36.2	-38.5	13.5	3.17e-02	0	57	0	2736783360	43	4863
2026-01-11 00:19:27.49	135.48	10.66	-35.0	-38.9	10.2	1.18e-01	0	56	0	2742026240	41	5700
2026-01-11 00:19:28.50	135.61	10.60	-37.2	-39.9	11.2	3.48e-02	0	56	0	2747269120	43	5713
2026-01-11 00:19:29.51	135.74	10.54	-37.7	-41.5	10.6	6.66e-02	0	56	0	2753560576	47	5458
2026-01-11 00:19:30.52	135.88	10.48	-36.6	-42.6	7.8	4.46e-02	0	56	0	2758803456	45	6906
2026-01-11 00:19:31.53	136.01	10.41	-39.9	-44.2	8.2	2.16e-01	0	57	0	2764046336	50	6239
2026-01-11 00:19:32.53	136.14	10.35	-40.5	-45.7	6.8	2.24e-01	0	56	0	2769289216	51	7021
2026-01-11 00:19:33.54	136.27	10.29	-35.8	-46.3	4.7	5.45e-01	0	56	0	2773483520	35	18830
2026-01-11 00:19:34.56	136.40	10.22	-29.6	-46.2	4.2	8.23e-01	0	56	104	2773483520	30	24714
2026-01-11 00:19:35.57	136.54	10.16	-30.2	-47.2	4.5	8.40e-01	0	56	104	2773483520	32	24866
2026-01-11 00:19:36.58	136.66	10.10	-28.8	-42.2	4.2	8.43e-01	0	56	104	2773483520	28	17668
2026-01-11 00:19:37.59	136.79	10.04	-41.3	-51.4	3.9	8.44e-01	0	56	104	2773483520	53	11965
2026-01-11 00:19:38.60	136.92	9.97	-41.3	-51.9	3.8	8.45e-01	0	56	104	2773483520	53	12735
2026-01-11 00:19:39.60	137.05	9.91	-40.2	-51.1	3.9	8.46e-01	0	56	104	2773483520	51	13010
2026-01-11 00:19:40.61	137.18	9.85	-41.7	-52.8	3.8	8.47e-01	0	56	104	2773483520	54	13367
2026-01-11 00:19:41.62	137.30	9.79	-41.0	-53.0	3.8	8.45e-01	0	57	104	2773483520	54	13586
2026-01-11 00:19:42.63	137.43	9.72	-39.8	-52.8	3.8	8.45e-01	0	57	104	2773483520	51	15939
2026-01-11 00:19:43.64	137.56	9.66	-39.7	-52.4	3.9	8.47e-01	0	56	104	2773483520	53	13453
2026-01-11 00:19:44.65	137.68	9.60	-41.9	-53.5	3.8	8.46e-01	0	56	104	2773483520	54	14457
2026-01-11 00:19:45.66	137.81	9.54	-41.9	-53.3	3.8	8.46e-01	0	57	104	2773483520	53	15030
2026-01-11 00:19:46.67	137.93	9.47	-42.2	-53.4	3.8	8.45e-01	0	57	104	2773483520	54	14333
2026-01-11 00:19:47.68	138.06	9.41	-42.9	-54.5	3.8	8.46e-01	0	56	104	2773483520	56	14518
2026-01-11 00:19:48.69	138.18	9.35	-39.0	-52.9	4.0	8.46e-01	0	56	104	2773483520	52	15097
2026-01-11 00:19:49.69	138.30	9.29	-42.3	-53.3	3.8	8.46e-01	0	56	104	2773483520	55	13397
2026-01-11 00:19:50.70	138.42	9.23	-42.6	-54.1	3.8	8.45e-01	0	57	104	2773483520	55	14572
2026-01-11 00:19:51.71	138.55	9.16	-39.9	-52.4	3.8	8.45e-01	0	57	104	2773483520	49	16945
2026-01-11 00:19:52.72	138.67	9.10	-42.7	-52.5	3.8	8.45e-01	0	57	104	2773483520	55	12139
2026-01-11 00:19:53.73	138.79	9.04	-42.7	-53.8	3.8	8.45e-01	0	56	104	2773483520	56	13266
2026-01-11 00:19:54.74	138.91	8.98	-42.3	-52.0	4.0	8.35e-01	0	56	0	2773483520	56	10800
2026-01-11 00:19:55.75	139.03	8.92	-42.5	-49.6	4.7	8.45e-01	0	56	104	2773483520	56	8199
2026-01-11 00:19:56.76	139.15	8.85	-41.9	-47.6	5.9	5.45e-01	0	56	0	2774532096	54	7369
2026-01-11 00:19:57.77	139.27	8.79	-41.3	-46.7	6.6	2.93e-01	0	57	0	2779774976	53	7003
2026-01-11 00:19:58.78	139.39	8.73	-41.4	-46.2	7.3	1.62e-01	0	57	0	2785017856	53	6578
2026-01-11 00:19:59.79	139.50	8.67	-40.9	-45.0	8.3	1.11e-01	0	57	0	2791309312	53	5775
2026-01-11 00:20:00.80	139.62	8.61	-40.1	-43.5	9.8	1.71e-02	0	57	0	2796552192	52	5138
2026-01-11 00:20:01.81	139.74	8.54	-39.9	-43.2	10.3	7.20e-03	0	56	0	2802843648	50	5558
2026-01-11 00:20:02.82	139.86	8.48	-40.1	-43.5	10.0	7.78e-03	0	57	0	2808086528	50	5732
2026-01-11 00:20:03.83	139.97	8.42	-40.0	-43.3	10.2	9.08e-03	0	56	0	2813329408	50	5612
2026-01-11 00:20:04.84	140.09	8.36	-39.4	-42.2	11.3	1.88e-03	0	57	0	2819620864	50	4970
2026-01-11 00:20:05.85	140.20	8.30	-39.7	-42.7	10.8	2.68e-03	0	57	0	2824863744	50	5249
2026-01-11 00:20:06.86	140.32	8.24	-38.9	-41.6	12.0	6.89e-04	0	56	0	2831155200	49	4894
2026-01-11 00:20:07.87	140.43	8.18	-39.3	-42.1	11.5	9.53e-04	0	57	0	2836398080	49	5180
2026-01-11 00:20:08.88	140.54	8.11	-38.8	-41.4	12.2	5.14e-04	0	57	0	2841640960	49	4769
2026-01-11 00:20:09.89	140.66	8.05	-39.0	-41.7	11.9	7.32e-04	0	56	0	2847932416	49	4976
2026-01-11 00:20:10.90	140.77	7.99	-43.1	-54.5	3.8	6.03e-03	0	56	104	2852126720	56	14402
2026-01-11 00:20:11.91	140.88	7.93	-43.7	-55.2	3.8	8.45e-01	0	57	104	2852126720	58	13999
2026-01-11 00:20:12.92	141.00	7.87	-44.7	-56.1	3.8	8.47e-01	0	57	104	2852126720	59	14606
2026-01-11 00:20:13.93	141.11	7.81	-44.9	-56.5	3.8	8.47e-01	0	57	104	2852126720	60	14473
2026-01-11 00:20:14.94	141.22	7.75	-45.0	-56.7	3.8	8.45e-01	0	57	104	2852126720	60	14807
2026-01-11 00:20:15.95	141.33	7.69	-45.1	-56.8	3.8	8.46e-01	0	57	104	2852126720	60	15023
2026-01-11 00:20:16.96	141.44	7.63	-45.2	-56.9	3.8	8.45e-01	0	57	104	2852126720	60	15178
2026-01-11 00:20:17.97	141.55	7.56	-45.3	-57.0	3.8	8.46e-01	0	57	104	2852126720	61	14383
2026-01-11 00:20:18.99	141.66	7.50	-45.3	-57.0	3.8	8.46e-01	0	56	104	2852126720	61	14459
2026-01-11 00:20:20.00	141.77	7.44	-45.3	-57.0	3.8	8.46e-01	0	57	104	2852126720	61	14475
2026-01-11 00:20:21.01	141.88	7.38	-45.2	-56.9	3.8	8.46e-01	0	57	104	2852126720	61	14322
2026-01-11 00:20:22.02	141.98	7.32	-45.1	-56.9	3.8	8.46e-01	0	56	104	2852126720	61	14306
2026-01-11 00:20:23.03	142.09	7.26	-45.1	-56.9	3.8	8.46e-01	0	57	104	2852126720	61	14321
2026-01-11 00:20:24.04	142.20	7.20	-45.1	-56.9	3.8	8.46e-01	0	57	104	2852126720	61	14286
2026-01-11 00:20:25.05	142.31	7.14	-45.1	-56.9	3.8	8.47e-01	0	57	104	2852126720	61	14294
2026-01-11 00:20:26.06	142.41	7.08	-45.0	-56.8	3.8	8.45e-01	0	57	104	2852126720	61	14167
2026-01-11 00:20:27.07	142.52	7.02	-45.0	-56.8	3.8	8.45e-01	0	57	104	2852126720	61	14167
2026-01-11 00:20:28.08	142.62	6.96	-45.0	-56.8	3.8	8.45e-01	0	57	104	2852126720	61	14138
2026-01-11 00:20:29.09	142.73	6.90	-45.0	-56.8	3.8	8.47e-01	0	57	104	2852126720	61	14141
2026-01-11 00:20:30.10	142.83	6.84	-45.0	-56.8	3.8	8.46e-01	0	57	104	2852126720	61	14123
2026-01-11 00:20:31.11	142.94	6.78	-45.0	-56.8	3.8	8.47e-01	0	57	104	2852126720	61	14116
2026-01-11 00:20:32.12	143.04	6.72	-45.0	-56.8	3.8	8.46e-01	0	57	104	2852126720	60	15011
2026-01-11 00:20:33.13	143.14	6.66	-45.0	-56.8	3.8	8.46e-01	0	57	104	2852126720	60	14934
2026-01-11 00:20:34.14	143.25	6.60	-45.0	-56.8	3.8	8.46e-01	0	57	104	2852126720	60	14949
2026-01-11 00:20:35.15	143.35	6.54	-45.0	-56.8	3.8	8.46e-01	0	57	104	2852126720	60	14987
2026-01-11 00:20:36.16	143.45	6.48	-45.0	-56.8	3.8	8.47e-01	0	57	104	2852126720	60	14998
2026-01-11 00:20:37.17	143.55	6.42	-45.0	-56.8	3.8	8.46e-01	0	57	104	2852126720	60	14973
2026-01-11 00:20:38.18	143.65	6.36	-45.0	-56.8	3.8	8.46e-01	0	57	104	2852126720	60	14967
2026-01-11 00:20:39.19	143.75	6.30	-45.0	-56.8	3.8	8.45e-01	0	57	104	2852126720	60	14906
2026-01-11 00:20:40.20	143.86	6.24	-45.0	-56.8	3.8	8.46e-01	0	57	104	2852126720	60	14924
2026-01-11 00:20:41.22	143.96	6.18	-45.0	-56.8	3.8	8.46e-01	0	57	104	2852126720	60	14967
2026-01-11 00:20:42.23	144.06	6.12	-44.9	-56.8	3.8	8.47e-01	0	57	104	2852126720	60	14945
2026-01-11 00:20:43.24	144.16	6.06	-45.0	-56.8	3.8	8.46e-01	0	57	104	2852126720	60	14947
2026-01-11 00:20:44.25	144.25	6.00	-44.9	-56.8	3.8	8.46e-01	0	57	104	2852126720	60	14959
2026-01-11 00:20:45.26	144.35	5.94	-44.9	-56.8	3.8	8.47e-01	0	56	104	2852126720	60	14946
2026-01-11 00:20:46.27	144.45	5.89	-45.0	-56.8	3.8	8.46e-01	0	56	104	2852126720	60	14943
2026-01-11 00:20:47.28	144.55	5.83	-44.9	-56.8	3.8	8.46e-01	0	56	104	2852126720	60	14906
2026-01-11 00:20:48.29	144.65	5.77	-44.9	-56.8	3.8	8.46e-01	0	56	104	2852126720	60	14937
2026-01-11 00:20:49.30	144.74	5.71	-45.0	-56.8	3.8	8.45e-01	0	56	104	2852126720	60	14961
2026-01-11 00:20:50.31	144.84	5.65	-44.9	-56.8	3.8	8.46e-01	0	57	104	2852126720	60	14925
2026-01-11 00:20:51.33	144.94	5.59	-44.9	-56.8	3.8	8.46e-01	0	57	104	2852126720	60	14935
2026-01-11 00:20:52.34	145.03	5.53	-44.9	-56.8	3.8	8.46e-01	0	57	104	2852126720	60	14939
2026-01-11 00:20:53.35	145.13	5.47	-44.9	-56.8	3.8	8.46e-01	0	57	104	2852126720	60	14927
2026-01-11 00:20:54.36	145.22	5.41	-44.9	-56.8	3.8	8.45e-01	0	57	104	2852126720	60	14899
2026-01-11 00:20:55.37	145.32	5.36	-44.9	-56.8	3.8	8.47e-01	0	56	104	2852126720	60	14911
2026-01-11 00:20:56.38	145.41	5.30	-44.9	-56.8	3.8	8.46e-01	0	56	104	2852126720	60	14938
2026-01-11 00:20:57.39	145.51	5.24	-44.9	-56.8	3.8	8.46e-01	0	56	104	2852126720	60	14945
