passes_logs/2026/01/11/R2.0S_Moscow/R2.0S_Moscow__20260111_030623_AQUA_rec.log

#Pass ID: 20260111_030623_AQUA
#Satellite: AQUA
#Configuration: AQUA
#almurnet v.1.7.20251203
#Start time: 2026-01-11 03:06:23

#Version: 2.2.20231116
#Station: R2.0S_Moscow
#Location: 37.707566 lon 55.798166 lat
#TLE: 1 27424U 02022A   26009.89520876  .00001045  00000+0  21914-3 0  9996
#TLE: 2 27424  98.4076 336.2372 0002032  84.5955   1.0356 14.61811442260144

#Time	Az	El	Level	Level2	SNR	BER	BlckErr	Temp	State	Recorded	gain1	gain2
2026-01-11 03:06:23.42	5.88	2.01	-40.5	-59.7	3.8	7.45e-01	0	47	0	0	51	35138
2026-01-11 03:06:24.42	5.80	2.06	-40.5	-59.7	3.8	7.45e-01	0	47	104	0	51	35136
2026-01-11 03:06:25.43	5.71	2.12	-40.4	-59.7	3.8	7.46e-01	0	47	104	0	51	35145
2026-01-11 03:06:26.44	5.63	2.18	-40.5	-59.7	3.8	7.49e-01	0	47	104	0	51	35154
2026-01-11 03:06:27.45	5.54	2.23	-40.5	-59.7	3.8	7.46e-01	0	47	104	0	51	35113
2026-01-11 03:06:28.46	5.46	2.29	-40.4	-59.7	3.8	7.45e-01	0	47	104	0	51	35194
2026-01-11 03:06:29.48	5.37	2.34	-40.5	-59.7	3.8	7.46e-01	0	47	104	0	51	35084
2026-01-11 03:06:30.49	5.28	2.40	-40.4	-59.7	3.8	7.45e-01	0	47	104	0	51	35156
2026-01-11 03:06:31.50	5.20	2.46	-40.4	-59.7	3.8	7.47e-01	0	47	104	0	51	35124
2026-01-11 03:06:32.51	5.11	2.51	-40.5	-59.7	3.8	7.43e-01	0	47	104	0	51	35117
2026-01-11 03:06:33.52	5.02	2.57	-40.5	-59.7	3.8	7.44e-01	0	48	104	0	51	35130
2026-01-11 03:06:34.53	4.93	2.63	-40.5	-59.7	3.8	7.49e-01	0	48	104	0	51	35112
2026-01-11 03:06:35.54	4.84	2.68	-40.5	-59.7	3.8	7.47e-01	0	48	104	0	51	35088
2026-01-11 03:06:36.55	4.75	2.74	-40.5	-59.7	3.8	7.47e-01	0	48	104	0	51	35089
2026-01-11 03:06:37.56	4.66	2.80	-40.4	-59.7	3.8	7.46e-01	0	48	104	0	51	35061
2026-01-11 03:06:38.57	4.57	2.85	-40.5	-59.7	3.8	7.47e-01	0	48	104	0	51	35142
2026-01-11 03:06:39.59	4.48	2.91	-40.5	-59.7	3.8	7.43e-01	0	48	104	0	51	35063
2026-01-11 03:06:40.60	4.39	2.97	-40.5	-59.7	3.8	7.47e-01	0	48	104	0	51	35083
2026-01-11 03:06:41.61	4.30	3.02	-40.5	-59.7	3.8	7.46e-01	0	48	104	0	51	35162
2026-01-11 03:06:42.62	4.21	3.08	-40.5	-59.7	3.8	7.46e-01	0	48	104	0	51	35118
2026-01-11 03:06:43.63	4.12	3.14	-40.5	-59.7	3.8	7.44e-01	0	48	104	0	51	35058
2026-01-11 03:06:44.64	4.02	3.20	-40.5	-59.7	3.8	7.47e-01	0	48	104	0	51	35109
2026-01-11 03:06:45.65	3.93	3.25	-40.4	-59.7	3.8	7.46e-01	0	48	104	0	51	35063
2026-01-11 03:06:46.66	3.84	3.31	-40.5	-59.7	3.8	7.45e-01	0	49	104	0	51	35024
2026-01-11 03:06:47.67	3.74	3.37	-40.5	-59.7	3.8	7.44e-01	0	48	104	0	51	35077
2026-01-11 03:06:48.68	3.65	3.43	-40.5	-59.7	3.8	7.44e-01	0	49	104	0	51	35118
2026-01-11 03:06:49.69	3.56	3.48	-40.5	-59.7	3.8	7.47e-01	0	49	104	0	51	35102
2026-01-11 03:06:50.70	3.46	3.54	-40.5	-59.7	3.8	7.46e-01	0	49	104	0	51	35078
2026-01-11 03:06:51.72	3.36	3.60	-40.5	-59.7	3.8	7.47e-01	0	49	104	0	51	35106
2026-01-11 03:06:52.72	3.27	3.66	-40.5	-59.7	3.8	7.42e-01	0	49	104	0	51	35058
2026-01-11 03:06:53.74	3.17	3.71	-40.5	-59.7	3.8	7.43e-01	0	49	104	0	51	35070
2026-01-11 03:06:54.75	3.08	3.77	-40.4	-59.7	3.8	7.41e-01	0	49	104	0	51	35078
2026-01-11 03:06:55.76	2.98	3.83	-40.5	-59.7	3.8	7.42e-01	0	49	104	0	51	35054
2026-01-11 03:06:56.77	2.88	3.89	-40.5	-59.7	3.8	7.44e-01	0	49	104	0	51	35059
2026-01-11 03:06:57.78	2.78	3.95	-40.4	-59.7	3.8	7.47e-01	0	49	104	0	51	35061
2026-01-11 03:06:58.79	2.68	4.00	-40.5	-59.7	3.8	7.46e-01	0	49	104	0	51	35129
2026-01-11 03:06:59.80	2.59	4.06	-40.4	-59.7	3.8	7.46e-01	0	49	104	0	51	35070
2026-01-11 03:07:00.81	2.49	4.12	-40.5	-59.7	3.8	7.46e-01	0	49	104	0	51	35090
2026-01-11 03:07:01.82	2.39	4.18	-40.5	-59.7	3.8	7.47e-01	0	50	104	0	51	35099
2026-01-11 03:07:02.83	2.29	4.24	-40.4	-59.7	3.8	7.44e-01	0	50	104	0	51	35155
2026-01-11 03:07:03.85	2.18	4.30	-40.5	-59.7	3.8	7.44e-01	0	50	104	0	51	35084
2026-01-11 03:07:04.86	2.08	4.35	-40.5	-59.7	3.8	7.46e-01	0	50	104	0	51	35098
2026-01-11 03:07:05.87	1.98	4.41	-40.4	-59.7	3.8	7.43e-01	0	50	104	0	51	35065
2026-01-11 03:07:06.88	1.88	4.47	-40.5	-59.7	3.8	7.44e-01	0	50	104	0	51	35103
2026-01-11 03:07:07.89	1.78	4.53	-40.5	-59.7	3.8	7.42e-01	0	50	104	0	51	35103
2026-01-11 03:07:08.90	1.67	4.59	-40.5	-59.7	3.8	7.49e-01	0	50	104	0	51	35156
2026-01-11 03:07:09.91	1.57	4.65	-40.5	-59.7	3.8	7.49e-01	0	50	104	0	51	35053
2026-01-11 03:07:10.92	1.47	4.71	-40.5	-59.7	3.8	7.43e-01	0	50	104	0	51	35021
2026-01-11 03:07:11.93	1.36	4.76	-40.5	-59.7	3.8	7.43e-01	0	50	104	0	51	35034
2026-01-11 03:07:12.94	1.26	4.82	-40.5	-59.7	3.8	7.48e-01	0	50	104	0	51	35085
2026-01-11 03:07:13.94	1.15	4.88	-40.5	-59.7	3.8	7.42e-01	0	50	104	0	51	35086
2026-01-11 03:07:14.95	1.05	4.94	-40.5	-59.7	3.8	7.45e-01	0	50	104	0	51	35082
2026-01-11 03:07:15.96	0.94	5.00	-40.5	-59.7	3.8	7.46e-01	0	50	104	0	51	35083
2026-01-11 03:07:16.98	0.83	5.06	-40.5	-59.7	3.8	7.45e-01	0	50	104	0	51	34976
2026-01-11 03:07:17.98	0.73	5.12	-40.5	-59.7	3.8	7.45e-01	0	50	104	0	51	35098
2026-01-11 03:07:19.00	0.62	5.18	-40.5	-59.7	3.8	7.46e-01	0	50	104	0	51	35097
2026-01-11 03:07:20.01	0.51	5.24	-40.5	-59.7	3.8	7.46e-01	0	50	104	0	51	35041
2026-01-11 03:07:21.02	0.40	5.30	-40.5	-59.7	3.8	7.45e-01	0	50	104	0	51	35061
2026-01-11 03:07:22.03	0.29	5.36	-40.5	-59.7	3.8	7.44e-01	0	51	104	0	51	35026
2026-01-11 03:07:23.04	0.18	5.42	-40.5	-59.7	3.8	7.47e-01	0	51	104	0	51	35046
2026-01-11 03:07:24.05	0.07	5.48	-40.4	-59.7	3.8	7.48e-01	0	51	104	0	51	34968
2026-01-11 03:07:25.06	359.96	5.54	-40.5	-59.7	3.8	7.43e-01	0	51	104	0	51	35009
2026-01-11 03:07:26.07	359.85	5.59	-40.4	-59.7	3.8	7.47e-01	0	51	104	0	51	35043
2026-01-11 03:07:27.08	359.74	5.65	-40.5	-59.7	3.8	7.44e-01	0	51	104	0	51	34973
2026-01-11 03:07:28.10	359.62	5.72	-40.5	-59.7	3.8	7.47e-01	0	51	104	0	51	34959
2026-01-11 03:07:29.11	359.51	5.77	-40.4	-59.7	3.8	7.45e-01	0	51	104	0	51	35013
2026-01-11 03:07:30.12	359.40	5.83	-40.5	-59.7	3.8	7.46e-01	0	51	104	0	51	35007
2026-01-11 03:07:31.13	359.28	5.89	-40.5	-59.7	3.8	7.44e-01	0	51	104	0	51	35019
2026-01-11 03:07:32.14	359.17	5.95	-40.4	-59.7	3.8	7.47e-01	0	51	104	0	51	35008
2026-01-11 03:07:33.15	359.05	6.01	-40.5	-59.7	3.8	7.46e-01	0	51	104	0	51	34998
2026-01-11 03:07:34.16	358.94	6.07	-40.5	-59.7	3.8	7.48e-01	0	51	104	0	51	35024
2026-01-11 03:07:35.17	358.82	6.13	-40.5	-59.7	3.8	7.42e-01	0	51	104	0	51	34995
2026-01-11 03:07:36.18	358.71	6.20	-40.4	-59.7	3.8	7.44e-01	0	51	104	0	51	35023
2026-01-11 03:07:37.19	358.59	6.26	-40.4	-59.7	3.8	7.47e-01	0	51	104	0	51	35051
2026-01-11 03:07:38.19	358.47	6.32	-40.4	-59.7	3.8	7.44e-01	0	51	104	0	51	35014
2026-01-11 03:07:39.20	358.35	6.38	-40.4	-59.7	3.8	7.43e-01	0	51	104	0	51	35072
2026-01-11 03:07:40.21	358.24	6.44	-40.4	-59.7	3.8	7.49e-01	0	52	104	0	51	35081
2026-01-11 03:07:41.22	358.12	6.50	-40.5	-59.7	3.8	7.46e-01	0	51	104	0	51	34969
2026-01-11 03:07:42.24	357.99	6.56	-40.4	-59.7	3.8	7.45e-01	0	51	104	0	51	35014
2026-01-11 03:07:43.25	357.87	6.62	-40.4	-59.7	3.8	7.48e-01	0	51	104	0	51	35054
2026-01-11 03:07:44.26	357.75	6.68	-40.5	-59.7	3.8	7.44e-01	0	51	104	0	51	34950
2026-01-11 03:07:45.27	357.63	6.74	-40.4	-59.7	3.8	7.44e-01	0	52	104	0	51	35027
2026-01-11 03:07:46.28	357.51	6.80	-40.4	-59.7	3.8	7.45e-01	0	52	104	0	51	35037
2026-01-11 03:07:47.29	357.39	6.86	-40.5	-59.7	3.8	7.46e-01	0	52	104	0	51	35024
2026-01-11 03:07:48.30	357.26	6.92	-40.4	-59.7	3.8	7.44e-01	0	52	104	0	51	35037
2026-01-11 03:07:49.31	357.14	6.98	-40.4	-59.7	3.8	7.44e-01	0	52	104	0	51	35024
2026-01-11 03:07:50.32	357.01	7.04	-40.4	-59.7	3.8	7.45e-01	0	52	104	0	51	34944
2026-01-11 03:07:51.33	356.89	7.10	-40.4	-59.7	3.8	7.45e-01	0	52	104	0	51	35061
2026-01-11 03:07:52.34	356.76	7.16	-40.4	-59.7	3.8	7.45e-01	0	52	104	0	51	34979
2026-01-11 03:07:53.36	356.64	7.23	-40.4	-59.7	3.8	7.46e-01	0	52	104	0	51	35066
2026-01-11 03:07:54.37	356.51	7.29	-40.4	-59.7	3.8	7.46e-01	0	52	104	0	51	35057
2026-01-11 03:07:55.38	356.38	7.35	-40.4	-59.7	3.8	7.47e-01	0	52	104	0	51	35076
2026-01-11 03:07:56.39	356.25	7.41	-40.4	-59.7	3.8	7.47e-01	0	52	104	0	51	35035
2026-01-11 03:07:57.40	356.13	7.47	-40.4	-59.7	3.8	7.46e-01	0	52	104	0	51	35070
2026-01-11 03:07:58.41	356.00	7.53	-40.5	-59.7	3.8	7.47e-01	0	52	104	0	51	35030
2026-01-11 03:07:59.42	355.87	7.59	-40.4	-59.7	3.8	7.42e-01	0	52	104	0	51	35091
2026-01-11 03:08:00.43	355.74	7.65	-40.4	-59.7	3.8	7.49e-01	0	52	104	0	51	35076
2026-01-11 03:08:01.44	355.60	7.72	-40.5	-59.7	3.8	7.49e-01	0	52	104	0	51	35027
2026-01-11 03:08:02.46	355.47	7.78	-40.4	-59.7	3.8	7.47e-01	0	52	104	0	51	35024
2026-01-11 03:08:03.47	355.34	7.84	-40.4	-59.7	3.8	7.46e-01	0	52	104	0	51	35007
2026-01-11 03:08:04.48	355.21	7.90	-40.4	-59.7	3.8	7.46e-01	0	52	104	0	51	35034
2026-01-11 03:08:05.49	355.07	7.96	-40.5	-59.7	3.8	7.45e-01	0	52	104	0	51	35015
2026-01-11 03:08:06.50	354.94	8.02	-40.4	-59.7	3.8	7.42e-01	0	52	104	0	51	35063
2026-01-11 03:08:07.51	354.80	8.08	-40.6	-59.7	3.8	7.47e-01	0	52	104	0	51	35216
2026-01-11 03:08:08.52	354.67	8.15	-40.5	-59.8	3.8	7.46e-01	0	52	104	0	51	35315
2026-01-11 03:08:09.53	354.53	8.21	-40.7	-59.8	3.8	7.47e-01	0	52	104	0	51	35419
2026-01-11 03:08:10.54	354.40	8.27	-40.8	-59.8	3.8	7.43e-01	0	53	104	0	52	33611
2026-01-11 03:08:11.55	354.26	8.33	-40.7	-59.8	3.8	7.44e-01	0	52	104	0	52	33384
2026-01-11 03:08:12.56	354.12	8.39	-40.7	-59.8	3.8	7.45e-01	0	52	104	0	52	33449
2026-01-11 03:08:13.57	353.98	8.45	-40.7	-59.8	3.8	7.48e-01	0	52	104	0	52	33438
2026-01-11 03:08:14.58	353.84	8.51	-40.4	-59.6	3.8	7.44e-01	0	52	104	0	52	32849
2026-01-11 03:08:15.59	353.70	8.58	-40.7	-59.8	3.8	7.43e-01	0	53	104	0	52	33459
2026-01-11 03:08:16.60	353.56	8.64	-40.6	-59.8	3.8	7.46e-01	0	53	104	0	52	33338
2026-01-11 03:08:17.61	353.42	8.70	-40.8	-59.8	3.8	7.42e-01	0	53	104	0	52	33625
2026-01-11 03:08:18.62	353.28	8.76	-40.9	-60.0	3.8	7.46e-01	0	53	104	0	52	34317
2026-01-11 03:08:19.63	353.14	8.82	-40.7	-59.9	3.8	7.47e-01	0	53	104	0	52	33747
2026-01-11 03:08:20.64	352.99	8.88	-40.9	-60.0	3.8	7.45e-01	0	53	104	0	52	34367
2026-01-11 03:08:21.64	352.85	8.94	-40.8	-59.9	3.8	7.44e-01	0	53	104	0	52	34075
2026-01-11 03:08:22.65	352.70	9.01	-40.6	-59.9	3.8	7.44e-01	0	53	104	0	52	33811
2026-01-11 03:08:23.66	352.56	9.07	-41.0	-60.1	3.8	7.44e-01	0	53	104	0	52	34527
2026-01-11 03:08:24.67	352.41	9.13	-40.9	-60.1	3.8	7.47e-01	0	53	104	0	52	34683
2026-01-11 03:08:25.68	352.27	9.19	-41.1	-60.1	3.8	7.44e-01	0	53	104	0	52	34824
2026-01-11 03:08:26.69	352.12	9.25	-41.1	-60.2	3.8	7.47e-01	0	53	104	0	52	34972
2026-01-11 03:08:27.70	351.97	9.31	-41.1	-60.2	3.8	7.45e-01	0	53	104	0	52	35240
2026-01-11 03:08:28.71	351.82	9.38	-41.0	-60.1	3.8	7.47e-01	0	53	104	0	52	34741
2026-01-11 03:08:29.72	351.67	9.44	-41.1	-60.2	3.8	7.44e-01	0	53	104	0	52	35240
2026-01-11 03:08:30.73	351.52	9.50	-40.9	-60.0	3.8	7.42e-01	0	53	104	0	52	34471
2026-01-11 03:08:31.74	351.37	9.56	-41.2	-60.2	3.8	7.44e-01	0	53	104	0	52	35139
2026-01-11 03:08:32.75	351.22	9.62	-41.0	-60.1	3.8	7.43e-01	0	53	104	0	53	32725
2026-01-11 03:08:33.76	351.07	9.68	-40.9	-60.1	3.8	7.46e-01	0	53	104	0	53	32563
2026-01-11 03:08:34.77	350.91	9.75	-41.0	-60.1	3.8	7.48e-01	0	53	104	0	53	32688
2026-01-11 03:08:35.78	350.76	9.81	-41.2	-60.2	3.8	7.47e-01	0	53	104	0	53	33209
2026-01-11 03:08:36.79	350.61	9.87	-41.3	-60.4	3.8	7.44e-01	0	53	104	0	53	33810
2026-01-11 03:08:37.80	350.45	9.93	-41.5	-60.5	3.8	7.45e-01	0	53	104	0	53	34361
2026-01-11 03:08:38.81	350.29	9.99	-41.2	-60.1	3.8	7.44e-01	0	53	104	0	53	32902
2026-01-11 03:08:39.82	350.14	10.05	-41.1	-60.2	3.8	7.44e-01	0	53	104	0	53	33244
2026-01-11 03:08:40.83	349.98	10.11	-41.2	-60.3	3.8	7.43e-01	0	53	104	0	53	33381
2026-01-11 03:08:41.84	349.82	10.18	-41.2	-60.2	3.8	7.47e-01	0	53	104	0	53	33233
2026-01-11 03:08:42.85	349.66	10.24	-41.0	-60.5	3.8	7.45e-01	0	53	104	0	53	34093
2026-01-11 03:08:43.86	349.50	10.30	-41.3	-60.2	3.8	7.47e-01	0	53	104	0	53	33206
2026-01-11 03:08:44.87	349.34	10.36	-40.8	-60.4	3.8	7.44e-01	0	54	104	0	53	33704
2026-01-11 03:08:45.88	349.18	10.42	-41.4	-60.4	3.8	7.46e-01	0	53	104	0	53	33878
2026-01-11 03:08:46.90	349.02	10.48	-41.8	-60.7	3.8	7.44e-01	0	54	104	0	54	32946
2026-01-11 03:08:47.91	348.86	10.54	-41.2	-60.2	3.8	7.44e-01	0	53	104	0	54	31422
2026-01-11 03:08:48.91	348.69	10.60	-41.6	-60.6	3.8	7.48e-01	0	53	104	0	54	32859
2026-01-11 03:08:49.92	348.53	10.67	-41.3	-60.4	3.8	7.41e-01	0	54	104	0	54	31947
2026-01-11 03:08:50.93	348.37	10.73	-41.2	-60.6	3.8	7.44e-01	0	54	104	0	54	32789
2026-01-11 03:08:51.94	348.20	10.79	-41.8	-60.7	3.8	7.45e-01	0	53	104	0	54	33112
2026-01-11 03:08:52.95	348.03	10.85	-41.6	-60.7	3.8	7.43e-01	0	54	104	0	54	33064
2026-01-11 03:08:53.96	347.87	10.91	-41.7	-60.6	3.8	7.44e-01	0	54	104	0	54	32819
2026-01-11 03:08:54.97	347.70	10.97	-41.6	-60.7	3.8	7.46e-01	0	54	104	0	54	33007
2026-01-11 03:08:55.98	347.53	11.03	-41.7	-60.6	3.8	7.45e-01	0	54	104	0	54	32928
2026-01-11 03:08:56.99	347.36	11.09	-41.7	-60.7	3.8	7.46e-01	0	54	104	0	54	33116
2026-01-11 03:08:58.00	347.19	11.15	-41.5	-60.6	3.8	7.42e-01	0	54	104	0	54	32729
2026-01-11 03:08:59.01	347.02	11.21	-41.5	-60.7	3.8	7.45e-01	0	54	104	0	54	33240
2026-01-11 03:09:00.02	346.85	11.27	-41.7	-60.6	3.8	7.42e-01	0	54	104	0	54	32892
2026-01-11 03:09:01.03	346.68	11.33	-41.5	-60.8	3.8	7.45e-01	0	53	104	0	54	33353
2026-01-11 03:09:02.04	346.50	11.39	-41.6	-60.5	3.8	7.47e-01	0	54	104	0	54	32421
2026-01-11 03:09:03.05	346.33	11.45	-41.2	-60.2	3.8	7.45e-01	0	54	104	0	54	31437
2026-01-11 03:09:04.06	346.15	11.51	-41.6	-60.7	3.8	7.45e-01	0	54	104	0	54	33030
2026-01-11 03:09:05.08	345.98	11.58	-41.3	-60.2	3.8	7.50e-01	0	54	104	0	54	31335
2026-01-11 03:09:06.09	345.80	11.64	-41.7	-60.7	3.8	7.47e-01	0	54	104	0	54	32965
2026-01-11 03:09:07.10	345.62	11.70	-41.4	-60.5	3.8	7.47e-01	0	54	104	0	54	32469
2026-01-11 03:09:08.11	345.44	11.75	-41.2	-60.3	3.8	7.48e-01	0	54	104	0	54	31668
2026-01-11 03:09:09.12	345.26	11.81	-41.4	-60.4	3.8	7.45e-01	0	54	104	0	54	32085
2026-01-11 03:09:10.13	345.09	11.87	-41.5	-60.5	3.8	7.47e-01	0	54	104	0	54	32303
2026-01-11 03:09:11.14	344.90	11.93	-41.3	-60.3	3.8	7.47e-01	0	54	104	0	54	31727
2026-01-11 03:09:12.15	344.72	11.99	-41.2	-60.2	3.8	7.46e-01	0	54	104	0	54	31321
2026-01-11 03:09:13.16	344.54	12.05	-41.3	-60.2	3.8	7.45e-01	0	54	104	0	54	31445
2026-01-11 03:09:14.17	344.36	12.11	-41.3	-60.2	3.8	7.47e-01	0	54	104	0	54	31315
2026-01-11 03:09:15.18	344.17	12.17	-41.7	-60.6	3.8	7.45e-01	0	54	104	0	54	32890
2026-01-11 03:09:16.19	343.99	12.23	-41.3	-60.3	3.8	7.46e-01	0	54	104	0	54	31646
2026-01-11 03:09:17.19	343.81	12.29	-41.5	-60.5	3.8	7.43e-01	0	54	104	0	54	32350
2026-01-11 03:09:18.20	343.62	12.35	-41.1	-60.2	3.8	7.45e-01	0	54	104	0	54	31151
2026-01-11 03:09:19.21	343.43	12.41	-41.3	-60.4	3.8	7.47e-01	0	54	104	0	54	31828
2026-01-11 03:09:20.22	343.25	12.46	-41.3	-60.3	3.8	7.44e-01	0	54	104	0	54	31463
2026-01-11 03:09:21.23	343.06	12.52	-41.1	-60.3	3.8	7.43e-01	0	54	104	0	54	31705
2026-01-11 03:09:22.24	342.87	12.58	-41.3	-60.2	3.8	7.46e-01	0	54	104	0	54	31431
2026-01-11 03:09:23.25	342.68	12.64	-41.5	-60.4	3.8	7.47e-01	0	54	104	0	54	32077
2026-01-11 03:09:24.26	342.49	12.70	-40.9	-60.1	3.8	7.47e-01	0	54	104	0	53	32915
2026-01-11 03:09:25.27	342.29	12.75	-41.3	-60.4	3.8	7.43e-01	0	54	104	0	53	33823
2026-01-11 03:09:26.28	342.10	12.81	-40.8	-60.0	3.8	7.47e-01	0	54	104	0	53	32518
2026-01-11 03:09:27.29	341.91	12.87	-40.3	-60.1	3.8	7.43e-01	0	54	104	0	52	34621
2026-01-11 03:09:28.30	341.71	12.93	-40.8	-60.2	3.8	7.45e-01	0	54	104	0	52	35050
2026-01-11 03:09:29.31	341.52	12.98	-40.5	-60.2	3.8	7.44e-01	0	54	104	0	52	34968
2026-01-11 03:09:30.32	341.32	13.04	-40.5	-60.1	3.8	7.45e-01	0	54	104	0	52	34727
2026-01-11 03:09:31.33	341.13	13.10	-40.9	-60.2	3.8	7.44e-01	0	54	104	0	52	34904
2026-01-11 03:09:32.34	340.93	13.16	-40.9	-60.0	3.8	7.44e-01	0	55	104	0	53	32503
2026-01-11 03:09:33.35	340.73	13.21	-41.3	-60.3	3.8	7.47e-01	0	54	104	0	53	33442
2026-01-11 03:09:34.36	340.53	13.27	-41.5	-59.3	3.8	7.45e-01	0	54	104	0	53	29804
2026-01-11 03:09:35.37	340.33	13.32	-41.7	-58.2	3.8	7.43e-01	0	55	104	0	54	24858
2026-01-11 03:09:36.39	340.13	13.38	-41.4	-59.2	3.8	7.44e-01	0	55	104	0	54	27709
2026-01-11 03:09:37.40	339.93	13.44	-42.6	-55.1	5.8	6.89e-01	92	55	0	0	55	16409
2026-01-11 03:09:38.41	339.72	13.49	-43.0	-54.0	7.1	6.59e-01	92	55	0	2097152	56	13675
2026-01-11 03:09:39.41	339.52	13.55	-43.1	-52.4	9.0	6.32e-01	0	55	0	3670016	56	11358
2026-01-11 03:09:40.42	339.32	13.60	-43.0	-51.1	10.6	6.19e-01	0	54	0	5767168	56	9798
2026-01-11 03:09:41.43	339.11	13.66	-42.8	-49.8	12.1	6.07e-01	0	54	0	7340032	56	8399
2026-01-11 03:09:42.44	338.91	13.71	-42.7	-49.1	12.9	6.06e-01	0	55	0	9437184	56	7789
2026-01-11 03:09:43.45	338.70	13.77	-42.6	-48.7	13.5	6.06e-01	0	54	0	11534336	56	7457
2026-01-11 03:09:44.46	338.49	13.82	-42.4	-47.9	14.4	6.06e-01	0	54	0	13107200	56	6772
2026-01-11 03:09:45.47	338.28	13.88	-41.7	-46.0	16.3	6.03e-01	0	54	0	15204352	55	5763
2026-01-11 03:09:46.48	338.07	13.93	-41.0	-44.5	18.0	6.03e-01	0	54	0	16777216	54	5145
2026-01-11 03:09:47.49	337.86	13.98	-40.7	-43.9	18.8	6.02e-01	0	55	0	18874368	53	5059
2026-01-11 03:09:48.50	337.65	14.04	-41.2	-44.7	18.1	6.05e-01	0	55	0	20971520	53	5571
2026-01-11 03:09:49.51	337.44	14.09	-41.3	-44.8	18.2	6.05e-01	0	54	0	22544384	53	5600
2026-01-11 03:09:50.52	337.23	14.14	-40.6	-43.6	19.3	6.02e-01	0	55	0	24641536	53	4919
2026-01-11 03:09:51.53	337.02	14.20	-40.6	-43.5	19.6	6.02e-01	0	55	0	26738688	53	4851
2026-01-11 03:09:52.53	336.80	14.25	-40.5	-43.4	19.7	6.03e-01	0	54	0	28311552	53	4767
2026-01-11 03:09:53.54	336.59	14.30	-40.2	-42.9	20.2	6.03e-01	0	55	0	30408704	52	4793
2026-01-11 03:09:54.55	336.37	14.35	-40.3	-43.0	20.1	6.04e-01	0	55	0	31981568	52	4865
2026-01-11 03:09:55.56	336.16	14.40	-40.3	-43.1	20.1	6.03e-01	0	55	0	34078720	52	4874
2026-01-11 03:09:56.57	335.94	14.45	-40.2	-42.9	20.3	6.01e-01	0	54	0	36175872	52	4770
2026-01-11 03:09:57.59	335.72	14.51	-40.2	-42.9	20.2	6.02e-01	0	54	0	37748736	52	4778
2026-01-11 03:09:58.59	335.50	14.56	-40.1	-42.7	20.4	6.04e-01	0	55	0	39845888	52	4672
2026-01-11 03:09:59.60	335.28	14.61	-40.0	-42.5	20.6	6.05e-01	0	55	0	41418752	52	4598
2026-01-11 03:10:00.61	335.06	14.66	-40.0	-42.5	20.7	6.04e-01	0	55	0	43515904	51	4833
2026-01-11 03:10:01.62	334.84	14.71	-39.9	-42.4	20.8	6.04e-01	0	55	0	45613056	51	4793
2026-01-11 03:10:02.63	334.62	14.76	-40.0	-42.5	20.7	6.03e-01	0	54	0	47185920	51	4854
2026-01-11 03:10:03.64	334.39	14.81	-40.0	-42.5	20.7	6.03e-01	0	55	0	49283072	51	4855
2026-01-11 03:10:04.65	334.17	14.86	-40.0	-42.5	20.7	6.04e-01	0	55	0	50855936	51	4869
2026-01-11 03:10:05.66	333.94	14.91	-40.1	-42.6	20.6	6.03e-01	0	55	0	52953088	51	4919
2026-01-11 03:10:06.67	333.72	14.95	-40.1	-42.6	20.6	6.04e-01	0	54	0	55050240	51	4921
2026-01-11 03:10:07.68	333.49	15.00	-40.1	-42.6	20.7	6.02e-01	0	55	0	56623104	51	4873
2026-01-11 03:10:08.69	333.26	15.05	-40.0	-42.4	20.9	6.03e-01	0	55	0	58720256	51	4814
2026-01-11 03:10:09.70	333.04	15.10	-40.0	-42.5	20.9	6.02e-01	0	55	0	60293120	51	4824
2026-01-11 03:10:10.71	332.81	15.14	-40.0	-42.5	20.9	6.04e-01	0	55	0	62390272	51	4828
2026-01-11 03:10:11.72	332.58	15.19	-40.0	-42.5	20.9	6.04e-01	0	55	0	64487424	51	4835
2026-01-11 03:10:12.73	332.35	15.24	-40.1	-42.6	20.7	6.04e-01	0	55	0	66060288	51	4916
2026-01-11 03:10:13.74	332.12	15.28	-40.2	-42.7	20.7	6.03e-01	0	55	0	68157440	51	4964
2026-01-11 03:10:14.75	331.89	15.33	-40.1	-42.6	20.8	6.04e-01	0	55	0	70254592	51	4894
2026-01-11 03:10:15.76	331.65	15.38	-40.1	-42.6	20.8	6.04e-01	0	55	0	71827456	51	4884
2026-01-11 03:10:16.77	331.42	15.42	-40.0	-42.5	20.9	6.03e-01	0	55	0	73924608	51	4825
2026-01-11 03:10:17.78	331.19	15.47	-40.0	-42.5	20.9	6.04e-01	0	55	0	75497472	51	4832
2026-01-11 03:10:18.79	330.95	15.51	-40.1	-42.6	20.9	6.03e-01	0	55	0	77594624	51	4875
2026-01-11 03:10:19.80	330.71	15.55	-40.1	-42.5	20.9	6.05e-01	0	55	0	79691776	51	4863
2026-01-11 03:10:20.81	330.48	15.60	-40.1	-42.6	20.8	6.05e-01	0	55	0	81264640	51	4874
2026-01-11 03:10:21.82	330.24	15.64	-40.2	-42.6	20.8	6.02e-01	0	55	0	83361792	51	4920
2026-01-11 03:10:22.83	330.00	15.68	-40.1	-42.6	20.8	6.02e-01	0	55	0	84934656	51	4900
2026-01-11 03:10:23.84	329.76	15.73	-40.1	-42.5	20.9	6.04e-01	0	55	0	87031808	51	4848
2026-01-11 03:10:24.85	329.52	15.77	-40.1	-42.6	20.9	6.02e-01	0	55	0	89128960	51	4877
2026-01-11 03:10:25.86	329.28	15.81	-40.1	-42.5	20.9	6.04e-01	0	55	0	90701824	51	4861
2026-01-11 03:10:26.87	329.04	15.85	-40.1	-42.5	20.9	6.05e-01	0	55	0	92798976	51	4867
2026-01-11 03:10:27.88	328.80	15.89	-40.1	-42.6	20.9	6.03e-01	0	55	0	94896128	51	4903
2026-01-11 03:10:28.89	328.56	15.93	-40.1	-42.6	20.9	6.06e-01	0	55	0	96468992	51	4893
2026-01-11 03:10:29.90	328.32	15.97	-40.2	-42.6	20.9	6.04e-01	0	55	0	98566144	51	4904
2026-01-11 03:10:30.91	328.07	16.01	-40.1	-42.6	20.9	6.05e-01	0	55	0	100139008	51	4891
2026-01-11 03:10:31.92	327.83	16.05	-40.1	-42.5	21.0	6.05e-01	0	55	0	102236160	51	4849
2026-01-11 03:10:32.93	327.58	16.09	-40.1	-42.6	20.9	6.03e-01	0	55	0	104333312	51	4899
2026-01-11 03:10:33.93	327.34	16.13	-40.2	-42.6	20.8	6.04e-01	0	55	0	105906176	51	4923
2026-01-11 03:10:34.94	327.09	16.17	-40.2	-42.7	20.8	6.04e-01	0	55	0	108003328	51	4972
2026-01-11 03:10:35.95	326.85	16.20	-40.2	-42.7	20.8	6.02e-01	0	55	0	109576192	51	4974
2026-01-11 03:10:36.96	326.60	16.24	-40.1	-42.6	20.9	6.03e-01	0	55	0	111673344	51	4892
2026-01-11 03:10:37.97	326.35	16.28	-40.1	-42.6	20.9	6.03e-01	0	55	0	113770496	51	4890
2026-01-11 03:10:38.98	326.10	16.31	-40.1	-42.6	20.9	6.05e-01	0	55	0	115343360	51	4888
2026-01-11 03:10:39.99	325.85	16.35	-40.2	-42.7	20.8	6.02e-01	0	55	0	117440512	51	4945
2026-01-11 03:10:41.00	325.60	16.38	-40.2	-42.6	20.9	6.04e-01	0	55	0	119013376	51	4920
2026-01-11 03:10:42.01	325.35	16.42	-40.2	-42.7	20.8	6.04e-01	0	55	0	121110528	51	4956
2026-01-11 03:10:43.02	325.10	16.45	-40.2	-42.7	20.8	6.03e-01	0	55	0	123207680	51	4938
2026-01-11 03:10:44.03	324.85	16.49	-40.2	-42.7	20.8	6.03e-01	0	55	0	124780544	51	4948
2026-01-11 03:10:45.04	324.59	16.52	-40.3	-42.7	20.8	6.04e-01	0	55	0	126877696	51	4975
2026-01-11 03:10:46.05	324.34	16.55	-40.2	-42.7	20.9	6.03e-01	0	55	0	128450560	51	4936
2026-01-11 03:10:47.06	324.09	16.58	-40.3	-42.8	20.7	6.03e-01	0	55	0	130547712	51	5036
2026-01-11 03:10:48.07	323.83	16.62	-40.2	-42.7	20.8	6.05e-01	0	55	0	132644864	51	4930
2026-01-11 03:10:49.07	323.58	16.65	-40.3	-42.8	20.7	6.04e-01	0	55	0	134217728	51	5001
2026-01-11 03:10:50.08	323.32	16.68	-40.2	-42.6	20.9	6.03e-01	0	55	0	136314880	51	4917
2026-01-11 03:10:51.09	323.07	16.71	-40.2	-42.7	20.8	6.02e-01	0	55	0	138412032	51	4949
2026-01-11 03:10:52.10	322.81	16.74	-40.2	-42.7	20.8	6.03e-01	0	55	0	139984896	51	4951
2026-01-11 03:10:53.11	322.55	16.77	-40.2	-42.6	20.9	6.03e-01	0	55	0	142082048	51	4920
2026-01-11 03:10:54.12	322.29	16.80	-40.3	-42.7	20.8	6.03e-01	0	55	0	143654912	51	4981
2026-01-11 03:10:55.13	322.04	16.82	-40.1	-42.6	20.9	6.05e-01	0	55	0	145752064	51	4886
2026-01-11 03:10:56.14	321.78	16.85	-40.3	-42.9	20.7	6.04e-01	0	55	0	147849216	51	5047
2026-01-11 03:10:57.15	321.52	16.88	-40.3	-42.8	20.7	6.03e-01	0	55	0	149422080	51	5036
2026-01-11 03:10:58.16	321.26	16.90	-40.4	-42.9	20.7	6.03e-01	0	55	0	151519232	51	5066
2026-01-11 03:10:59.17	321.00	16.93	-40.3	-42.8	20.7	6.05e-01	0	55	0	153092096	51	5031
2026-01-11 03:11:00.18	320.74	16.96	-40.3	-42.8	20.7	6.05e-01	0	55	0	155189248	51	5033
2026-01-11 03:11:01.19	320.47	16.98	-40.4	-42.9	20.6	6.04e-01	0	55	0	157286400	51	5100
2026-01-11 03:11:02.20	320.21	17.01	-40.2	-42.7	20.9	6.04e-01	0	55	0	158859264	51	4938
2026-01-11 03:11:03.21	319.95	17.03	-40.4	-42.9	20.6	6.02e-01	0	55	0	160956416	51	5066
2026-01-11 03:11:04.22	319.69	17.05	-40.3	-42.8	20.7	6.04e-01	0	55	0	163053568	51	5035
2026-01-11 03:11:05.22	319.43	17.07	-40.4	-42.9	20.6	6.03e-01	0	55	0	164626432	51	5085
2026-01-11 03:11:06.23	319.16	17.10	-40.2	-42.6	20.9	6.03e-01	0	55	0	166723584	51	4893
2026-01-11 03:11:07.24	318.90	17.12	-40.3	-42.8	20.7	6.05e-01	0	55	0	168296448	51	5028
2026-01-11 03:11:08.25	318.63	17.14	-40.2	-42.7	20.9	6.03e-01	0	55	0	170393600	51	4941
2026-01-11 03:11:09.26	318.37	17.16	-40.4	-42.9	20.6	6.04e-01	0	55	0	172490752	51	5083
2026-01-11 03:11:10.27	318.10	17.18	-40.4	-42.9	20.7	6.05e-01	0	55	0	174063616	51	5049
2026-01-11 03:11:11.28	317.84	17.20	-40.5	-43.1	20.5	6.04e-01	0	55	0	176160768	51	5160
2026-01-11 03:11:12.29	317.57	17.22	-40.3	-42.8	20.7	6.03e-01	0	55	0	177733632	51	5021
2026-01-11 03:11:13.30	317.31	17.23	-40.4	-42.9	20.7	6.02e-01	0	55	0	179830784	51	5053
2026-01-11 03:11:14.31	317.04	17.25	-40.3	-42.8	20.7	6.02e-01	0	55	0	181927936	51	5029
2026-01-11 03:11:15.32	316.77	17.27	-40.3	-42.8	20.8	6.04e-01	0	55	0	183500800	51	5002
2026-01-11 03:11:16.33	316.51	17.29	-40.3	-42.8	20.8	6.03e-01	0	55	0	185597952	51	5011
2026-01-11 03:11:17.34	316.24	17.30	-40.3	-42.8	20.8	6.01e-01	0	55	0	187170816	51	5008
2026-01-11 03:11:18.35	315.97	17.32	-40.3	-42.7	20.8	6.05e-01	0	55	0	189267968	51	4977
2026-01-11 03:11:19.36	315.70	17.33	-40.4	-42.9	20.7	6.04e-01	0	55	0	191365120	51	5074
2026-01-11 03:11:20.37	315.43	17.34	-40.3	-42.8	20.7	6.04e-01	0	55	0	192937984	51	5006
2026-01-11 03:11:21.38	315.16	17.36	-40.4	-42.9	20.7	6.05e-01	0	55	0	195035136	51	5062
2026-01-11 03:11:22.39	314.89	17.37	-40.1	-42.5	21.0	6.04e-01	0	55	0	196608000	51	4859
2026-01-11 03:11:23.40	314.63	17.38	-40.4	-42.9	20.8	6.02e-01	0	55	0	198705152	51	5047
2026-01-11 03:11:24.40	314.36	17.39	-40.3	-42.8	20.8	6.04e-01	0	55	0	200802304	51	5004
2026-01-11 03:11:25.41	314.09	17.40	-40.6	-43.2	20.4	6.05e-01	0	55	0	202375168	51	5234
2026-01-11 03:11:26.42	313.82	17.41	-40.2	-42.6	21.0	6.05e-01	0	55	0	204472320	51	4878
2026-01-11 03:11:27.43	313.55	17.42	-40.5	-43.1	20.5	6.03e-01	0	55	0	206569472	51	5195
2026-01-11 03:11:28.44	313.28	17.43	-40.1	-42.4	21.1	6.04e-01	0	55	0	208142336	51	4797
2026-01-11 03:11:29.45	313.01	17.44	-40.5	-43.1	20.5	6.03e-01	0	55	0	210239488	51	5196
2026-01-11 03:11:30.46	312.74	17.45	-40.1	-42.5	21.1	6.04e-01	0	55	0	211812352	51	4857
2026-01-11 03:11:31.47	312.47	17.46	-40.6	-43.3	20.3	6.03e-01	0	55	0	213909504	51	5289
2026-01-11 03:11:32.48	312.20	17.46	-40.1	-42.5	21.1	6.02e-01	0	55	0	216006656	51	4848
2026-01-11 03:11:33.49	311.92	17.47	-40.6	-43.2	20.4	6.02e-01	0	55	0	217579520	51	5247
2026-01-11 03:11:34.50	311.65	17.47	-40.1	-42.5	21.0	6.04e-01	0	55	0	219676672	51	4845
2026-01-11 03:11:35.51	311.38	17.48	-40.7	-43.3	20.3	6.04e-01	0	55	0	221249536	51	5314
2026-01-11 03:11:36.52	311.11	17.48	-40.1	-42.5	21.0	6.06e-01	0	55	0	223346688	51	4830
2026-01-11 03:11:37.53	310.84	17.49	-40.6	-43.3	20.3	6.03e-01	0	55	0	225443840	51	5291
2026-01-11 03:11:38.54	310.57	17.49	-40.1	-42.5	21.0	6.04e-01	0	55	0	227016704	51	4863
2026-01-11 03:11:39.55	310.30	17.49	-40.7	-43.4	20.1	6.04e-01	0	55	0	229113856	52	5075
2026-01-11 03:11:40.56	310.02	17.49	-39.9	-42.3	21.3	6.06e-01	0	55	0	230686720	51	4713
2026-01-11 03:11:41.57	309.75	17.49	-40.6	-43.3	20.3	6.03e-01	0	55	0	232783872	51	5306
2026-01-11 03:11:42.58	309.48	17.49	-40.2	-42.6	21.0	6.04e-01	0	56	0	234881024	51	4926
2026-01-11 03:11:43.59	309.21	17.49	-40.6	-43.2	20.2	6.04e-01	0	55	0	236453888	52	4960
2026-01-11 03:11:44.60	308.94	17.49	-40.2	-42.7	21.0	6.05e-01	0	55	0	238551040	51	4931
2026-01-11 03:11:45.61	308.67	17.49	-40.4	-43.0	20.6	6.03e-01	0	56	0	240123904	51	5108
2026-01-11 03:11:46.61	308.40	17.49	-40.5	-43.0	20.5	6.01e-01	0	55	0	242221056	51	5156
2026-01-11 03:11:47.62	308.13	17.49	-40.4	-42.9	20.6	6.04e-01	0	55	0	244318208	51	5087
2026-01-11 03:11:48.63	307.85	17.48	-40.3	-42.9	20.7	6.04e-01	0	55	0	245891072	51	5046
2026-01-11 03:11:49.64	307.58	17.48	-40.4	-42.9	20.8	6.05e-01	0	55	0	247988224	51	5054
2026-01-11 03:11:50.65	307.31	17.47	-40.1	-42.5	21.1	6.02e-01	0	55	0	249561088	51	4849
2026-01-11 03:11:51.66	307.04	17.47	-40.6	-43.3	20.3	6.02e-01	0	55	0	251658240	51	5293
2026-01-11 03:11:52.67	306.77	17.46	-40.4	-42.9	20.7	6.03e-01	0	55	0	253755392	51	5056
2026-01-11 03:11:53.68	306.50	17.45	-40.6	-43.2	20.3	6.04e-01	0	55	0	255328256	51	5245
2026-01-11 03:11:54.69	306.23	17.45	-40.6	-43.2	20.4	6.05e-01	0	56	0	257425408	51	5265
2026-01-11 03:11:55.70	305.96	17.44	-40.2	-42.6	20.9	6.08e-01	0	55	0	259522560	51	4898
2026-01-11 03:11:56.71	305.69	17.43	-40.5	-43.1	20.4	6.05e-01	0	55	0	261095424	51	5202
2026-01-11 03:11:57.72	305.42	17.42	-40.2	-42.6	21.0	6.03e-01	0	56	0	263192576	51	4890
2026-01-11 03:11:58.73	305.15	17.41	-40.6	-43.2	20.4	6.04e-01	0	56	0	264765440	51	5235
2026-01-11 03:11:59.74	304.88	17.40	-40.3	-42.8	20.8	6.02e-01	0	55	0	266862592	51	5025
2026-01-11 03:12:00.75	304.61	17.39	-40.7	-43.3	20.2	6.04e-01	0	55	0	268959744	51	5340
2026-01-11 03:12:01.76	304.34	17.38	-40.5	-43.0	20.5	6.04e-01	0	55	0	270532608	51	5142
2026-01-11 03:12:02.77	304.07	17.37	-40.3	-42.8	20.7	6.03e-01	0	56	0	272629760	51	5018
2026-01-11 03:12:03.78	303.80	17.35	-40.7	-43.5	20.0	6.03e-01	0	56	0	274726912	52	5138
2026-01-11 03:12:04.78	303.53	17.34	-40.0	-42.4	21.2	6.04e-01	0	55	0	276299776	51	4770
2026-01-11 03:12:05.80	303.26	17.33	-40.7	-43.4	20.1	6.05e-01	0	55	0	278396928	52	5052
2026-01-11 03:12:06.80	302.99	17.31	-40.4	-42.9	20.6	6.02e-01	0	56	0	279969792	52	4791
2026-01-11 03:12:07.81	302.73	17.30	-40.1	-42.5	20.9	6.05e-01	0	55	0	282066944	52	4592
2026-01-11 03:12:08.82	302.46	17.28	-40.8	-43.5	19.9	6.01e-01	0	55	0	284164096	52	5159
2026-01-11 03:12:09.83	302.19	17.26	-40.0	-42.4	21.0	6.04e-01	0	56	0	285736960	52	4501
2026-01-11 03:12:10.84	301.92	17.25	-40.7	-43.4	20.2	6.03e-01	0	56	0	287834112	51	5362
2026-01-11 03:12:11.85	301.66	17.23	-40.1	-42.5	20.9	6.04e-01	0	56	0	289406976	52	4571
2026-01-11 03:12:12.86	301.39	17.21	-40.3	-42.7	20.8	6.05e-01	0	55	0	291504128	51	4983
2026-01-11 03:12:13.87	301.12	17.19	-40.7	-43.5	19.9	6.04e-01	0	56	0	293601280	52	5130
2026-01-11 03:12:14.88	300.86	17.17	-40.1	-42.5	20.9	6.04e-01	0	56	0	295174144	52	4590
2026-01-11 03:12:15.89	300.59	17.15	-41.0	-43.9	19.6	6.06e-01	0	56	0	297271296	52	5354
2026-01-11 03:12:16.90	300.33	17.13	-40.2	-42.6	20.7	6.04e-01	0	55	0	298844160	52	4644
2026-01-11 03:12:17.91	300.06	17.11	-40.3	-42.8	20.8	6.03e-01	0	55	0	300941312	51	4984
2026-01-11 03:12:18.92	299.80	17.09	-40.7	-43.4	20.1	6.05e-01	0	56	0	303038464	51	5394
2026-01-11 03:12:19.93	299.53	17.07	-40.0	-42.4	21.0	6.01e-01	0	56	0	304611328	51	4765
2026-01-11 03:12:20.93	299.27	17.05	-40.3	-42.9	20.6	6.02e-01	0	56	0	306708480	51	5048
2026-01-11 03:12:21.94	299.01	17.02	-40.9	-43.8	19.5	6.05e-01	0	55	0	308281344	52	5324
2026-01-11 03:12:22.95	298.75	17.00	-39.8	-42.1	21.4	6.03e-01	0	55	0	310378496	51	4623
2026-01-11 03:12:23.96	298.48	16.97	-40.8	-43.6	19.8	6.07e-01	0	56	0	312475648	52	5173
2026-01-11 03:12:24.97	298.22	16.95	-39.5	-42.0	21.0	6.05e-01	0	56	0	314048512	51	4585
2026-01-11 03:12:25.98	297.96	16.92	-40.3	-42.8	20.8	6.03e-01	0	56	0	316145664	51	4989
2026-01-11 03:12:26.99	297.70	16.90	-40.4	-42.9	20.6	6.02e-01	0	56	0	317718528	51	5098
2026-01-11 03:12:28.00	297.44	16.87	-40.3	-42.8	20.6	6.04e-01	0	56	0	319815680	51	5040
2026-01-11 03:12:29.01	297.18	16.84	-40.0	-42.3	21.1	6.02e-01	0	55	0	321912832	51	4750
2026-01-11 03:12:30.02	296.92	16.81	-40.8	-43.6	19.8	6.04e-01	0	56	0	323485696	52	5214
2026-01-11 03:12:31.03	296.66	16.79	-40.0	-42.5	20.7	6.04e-01	0	56	0	325582848	52	4562
2026-01-11 03:12:32.04	296.40	16.76	-40.1	-42.5	20.9	6.05e-01	0	56	0	327680000	51	4836
2026-01-11 03:12:33.05	296.14	16.73	-41.0	-44.1	19.2	6.02e-01	0	56	0	329252864	52	5485
2026-01-11 03:12:34.05	295.89	16.70	-39.8	-42.2	21.2	6.04e-01	0	56	0	331350016	51	4660
2026-01-11 03:12:35.06	295.63	16.67	-40.7	-43.5	20.0	6.05e-01	0	56	0	332922880	51	5438
2026-01-11 03:12:36.07	295.38	16.64	-40.4	-43.1	20.3	6.03e-01	0	56	0	335020032	52	4874
2026-01-11 03:12:37.08	295.12	16.61	-40.4	-43.0	20.4	6.03e-01	0	56	0	337117184	52	4823
2026-01-11 03:12:38.09	294.87	16.57	-40.1	-42.6	20.5	6.03e-01	0	56	0	338690048	52	4617
2026-01-11 03:12:39.10	294.61	16.54	-40.7	-43.5	20.0	6.05e-01	0	56	0	340787200	52	5101
2026-01-11 03:12:40.11	294.36	16.51	-40.2	-42.8	20.5	6.04e-01	0	56	0	342884352	52	4716
2026-01-11 03:12:41.12	294.10	16.48	-40.1	-42.6	20.9	6.04e-01	0	56	0	344457216	51	4901
2026-01-11 03:12:42.13	293.85	16.44	-40.6	-43.4	20.1	6.03e-01	0	56	0	346554368	51	5354
2026-01-11 03:12:43.14	293.60	16.41	-40.2	-42.7	20.7	6.04e-01	0	56	0	348127232	51	4948
2026-01-11 03:12:44.15	293.35	16.37	-40.5	-43.1	20.3	6.03e-01	0	56	0	350224384	51	5206
2026-01-11 03:12:45.16	293.10	16.34	-40.3	-42.8	20.6	6.03e-01	0	55	0	351797248	51	5007
2026-01-11 03:12:46.17	292.85	16.30	-40.4	-43.0	20.5	6.03e-01	0	56	0	353894400	51	5106
2026-01-11 03:12:47.18	292.60	16.26	-40.3	-42.9	20.5	6.02e-01	0	56	0	355991552	51	5066
2026-01-11 03:12:48.19	292.35	16.23	-40.0	-42.4	21.0	6.03e-01	0	56	0	357564416	51	4793
2026-01-11 03:12:49.20	292.10	16.19	-40.6	-43.3	20.1	6.03e-01	0	56	0	359661568	51	5298
2026-01-11 03:12:50.21	291.85	16.15	-40.4	-43.1	20.3	6.05e-01	0	56	0	361234432	51	5170
2026-01-11 03:12:51.22	291.61	16.12	-40.4	-43.0	20.4	6.04e-01	0	56	0	363331584	51	5136
2026-01-11 03:12:52.22	291.36	16.08	-40.7	-43.5	19.8	6.05e-01	0	56	0	365428736	52	5117
2026-01-11 03:12:53.23	291.12	16.04	-40.2	-42.8	20.5	6.02e-01	0	56	0	367001600	52	4721
2026-01-11 03:12:54.24	290.87	16.00	-40.3	-42.9	20.5	6.05e-01	0	56	0	369098752	52	4764
2026-01-11 03:12:55.25	290.63	15.96	-40.1	-42.7	20.7	6.02e-01	0	56	0	371195904	52	4656
2026-01-11 03:12:56.26	290.38	15.92	-40.1	-42.6	20.7	6.04e-01	0	56	0	372768768	52	4640
2026-01-11 03:12:57.27	290.14	15.88	-40.3	-43.0	20.3	6.03e-01	0	56	0	374865920	52	4835
2026-01-11 03:12:58.28	289.90	15.84	-40.2	-42.8	20.4	6.05e-01	0	56	0	376438784	52	4748
2026-01-11 03:12:59.29	289.66	15.80	-40.1	-42.7	20.6	6.03e-01	0	56	0	378535936	52	4663
2026-01-11 03:13:00.28	289.42	15.75	-40.3	-42.8	20.4	6.02e-01	0	56	0	380633088	52	4756
2026-01-11 03:13:01.28	289.18	15.71	-40.5	-43.3	19.9	6.03e-01	0	56	0	382205952	52	5033
2026-01-11 03:13:02.29	288.94	15.67	-40.4	-43.1	20.2	6.05e-01	0	56	0	384303104	52	4878
2026-01-11 03:13:03.30	288.71	15.63	-40.2	-42.8	20.4	6.02e-01	0	56	0	385875968	52	4756
2026-01-11 03:13:04.31	288.47	15.58	-40.6	-43.5	19.8	6.04e-01	0	56	0	387973120	52	5102
2026-01-11 03:13:05.32	288.23	15.54	-40.8	-43.7	19.5	6.03e-01	0	56	0	390070272	52	5245
2026-01-11 03:13:06.33	287.99	15.49	-40.3	-42.9	20.3	6.03e-01	0	56	0	391643136	52	4789
2026-01-11 03:13:07.34	287.76	15.45	-40.2	-42.8	20.4	6.04e-01	0	56	0	393740288	52	4726
2026-01-11 03:13:08.35	287.52	15.41	-40.7	-43.7	19.6	6.06e-01	0	56	0	395313152	52	5237
2026-01-11 03:13:09.36	287.29	15.36	-40.4	-43.2	19.9	6.03e-01	0	56	0	397410304	52	4956
2026-01-11 03:13:10.37	287.06	15.31	-40.0	-42.4	20.8	6.04e-01	0	56	0	399507456	51	4800
2026-01-11 03:13:11.38	286.82	15.27	-40.4	-43.1	20.2	6.05e-01	0	56	0	401080320	51	5198
2026-01-11 03:13:12.39	286.59	15.22	-40.6	-43.5	19.7	6.05e-01	0	56	0	403177472	52	5129
2026-01-11 03:13:13.40	286.36	15.17	-40.3	-43.0	20.2	6.03e-01	0	56	0	404750336	52	4824
2026-01-11 03:13:14.41	286.13	15.13	-40.4	-43.1	20.2	6.03e-01	0	56	0	406847488	52	4877
2026-01-11 03:13:15.41	285.90	15.08	-40.7	-43.6	19.6	6.03e-01	0	56	0	408944640	52	5216
2026-01-11 03:13:16.42	285.67	15.03	-40.5	-43.3	19.9	6.04e-01	0	56	0	410517504	52	5032
2026-01-11 03:13:17.43	285.45	14.98	-40.1	-42.6	20.6	6.04e-01	0	56	0	412614656	52	4631
2026-01-11 03:13:18.44	285.22	14.94	-40.1	-42.7	20.6	6.05e-01	0	56	0	414187520	51	4934
2026-01-11 03:13:19.45	284.99	14.89	-40.4	-43.1	20.1	6.02e-01	0	56	0	416284672	51	5218
2026-01-11 03:13:20.46	284.77	14.84	-40.4	-43.1	20.2	6.03e-01	0	56	0	418381824	51	5180
2026-01-11 03:13:21.47	284.54	14.79	-40.3	-42.9	20.4	6.03e-01	0	56	0	419954688	51	5049
2026-01-11 03:13:22.48	284.32	14.74	-40.2	-42.7	20.5	6.05e-01	0	56	0	422051840	51	4958
2026-01-11 03:13:23.49	284.10	14.69	-40.5	-43.3	20.0	6.03e-01	0	56	0	424148992	51	5286
2026-01-11 03:13:24.50	283.87	14.64	-40.7	-43.5	19.7	6.02e-01	0	56	0	425721856	52	5156
2026-01-11 03:13:25.51	283.65	14.59	-40.4	-43.1	20.0	6.02e-01	0	56	0	427819008	52	4916
2026-01-11 03:13:26.52	283.43	14.54	-40.2	-42.8	20.4	6.03e-01	0	56	0	429391872	52	4742
2026-01-11 03:13:27.53	283.21	14.49	-40.3	-42.9	20.3	6.04e-01	0	56	0	431489024	52	4791
2026-01-11 03:13:28.54	282.99	14.44	-40.6	-43.4	19.9	6.04e-01	0	56	0	433586176	52	5055
2026-01-11 03:13:29.55	282.77	14.38	-40.3	-43.0	20.2	6.02e-01	0	56	0	435159040	52	4859
2026-01-11 03:13:30.56	282.56	14.33	-40.2	-42.8	20.3	6.05e-01	0	56	0	437256192	52	4751
2026-01-11 03:13:31.57	282.34	14.28	-40.1	-42.7	20.5	6.03e-01	0	56	0	438829056	52	4688
2026-01-11 03:13:32.57	282.13	14.23	-40.3	-43.0	20.2	6.05e-01	0	56	0	440926208	52	4842
2026-01-11 03:13:33.58	281.91	14.17	-40.4	-43.1	20.1	6.03e-01	0	56	0	443023360	52	4885
2026-01-11 03:13:34.59	281.70	14.12	-40.3	-42.9	20.3	6.03e-01	0	56	0	444596224	52	4803
2026-01-11 03:13:35.60	281.48	14.07	-40.2	-42.9	20.3	6.02e-01	0	56	0	446693376	52	4776
2026-01-11 03:13:36.61	281.27	14.01	-40.2	-42.8	20.3	6.06e-01	0	56	0	448790528	52	4754
2026-01-11 03:13:37.62	281.06	13.96	-40.2	-42.8	20.4	6.01e-01	0	56	0	450363392	52	4713
2026-01-11 03:13:38.63	280.85	13.91	-40.1	-42.7	20.5	6.05e-01	0	56	0	452460544	52	4662
2026-01-11 03:13:39.64	280.64	13.85	-40.1	-42.7	20.5	6.03e-01	0	56	0	454033408	52	4681
2026-01-11 03:13:40.65	280.43	13.80	-40.2	-42.9	20.3	6.03e-01	0	56	0	456130560	52	4781
2026-01-11 03:13:41.66	280.22	13.74	-40.4	-43.1	20.1	6.03e-01	0	56	0	458227712	52	4907
2026-01-11 03:13:42.67	280.01	13.69	-40.3	-43.1	20.1	6.04e-01	0	56	0	459800576	52	4871
2026-01-11 03:13:43.68	279.81	13.63	-40.2	-42.8	20.3	6.04e-01	0	56	0	461897728	52	4748
2026-01-11 03:13:44.69	279.60	13.58	-40.2	-42.9	20.3	6.02e-01	0	56	0	463470592	52	4777
2026-01-11 03:13:45.70	279.40	13.52	-40.2	-42.9	20.2	6.06e-01	0	56	0	465567744	52	4778
2026-01-11 03:13:46.71	279.19	13.47	-40.2	-42.8	20.3	6.05e-01	0	56	0	467664896	52	4739
2026-01-11 03:13:47.72	278.99	13.41	-40.1	-42.7	20.5	6.04e-01	0	56	0	469237760	52	4654
2026-01-11 03:13:48.73	278.78	13.36	-40.1	-42.7	20.4	6.03e-01	0	56	0	471334912	52	4695
2026-01-11 03:13:49.74	278.58	13.30	-40.2	-42.8	20.3	6.04e-01	0	56	0	472907776	52	4747
2026-01-11 03:13:50.75	278.38	13.24	-40.3	-43.0	20.2	6.03e-01	0	56	0	475004928	52	4823
2026-01-11 03:13:51.76	278.18	13.19	-40.3	-42.9	20.2	6.06e-01	0	56	0	477102080	52	4810
2026-01-11 03:13:52.77	277.98	13.13	-40.2	-42.8	20.3	6.04e-01	0	56	0	478674944	52	4754
2026-01-11 03:13:53.78	277.78	13.07	-40.2	-42.8	20.3	6.05e-01	0	56	0	480772096	52	4747
2026-01-11 03:13:54.79	277.59	13.02	-40.2	-42.9	20.2	6.03e-01	0	56	0	482344960	52	4793
2026-01-11 03:13:55.80	277.39	12.96	-40.3	-43.0	20.1	6.02e-01	0	56	0	484442112	52	4853
2026-01-11 03:13:56.81	277.19	12.90	-40.3	-43.0	20.1	6.06e-01	0	56	0	486539264	52	4848
2026-01-11 03:13:57.81	277.00	12.84	-40.3	-43.1	19.9	6.05e-01	0	56	0	488112128	52	4873
2026-01-11 03:13:58.82	276.81	12.79	-40.3	-43.0	20.0	6.03e-01	0	56	0	490209280	52	4839
2026-01-11 03:13:59.83	276.61	12.73	-40.3	-43.0	20.1	6.03e-01	0	56	0	492306432	52	4827
2026-01-11 03:14:00.84	276.42	12.67	-40.3	-43.0	20.0	6.03e-01	0	56	0	493879296	52	4832
2026-01-11 03:14:01.85	276.23	12.61	-40.3	-43.1	19.9	6.02e-01	0	56	0	495976448	52	4910
2026-01-11 03:14:02.86	276.04	12.55	-40.3	-43.2	19.8	6.05e-01	0	56	0	497549312	52	4928
2026-01-11 03:14:03.87	275.85	12.49	-40.3	-43.1	19.9	6.05e-01	0	56	0	499646464	52	4885
2026-01-11 03:14:04.88	275.66	12.44	-40.2	-43.0	20.0	6.02e-01	0	56	0	501743616	52	4838
2026-01-11 03:14:05.89	275.47	12.38	-40.2	-42.9	20.1	6.05e-01	0	56	0	503316480	52	4798
2026-01-11 03:14:06.90	275.28	12.32	-40.1	-42.9	20.0	6.05e-01	0	56	0	505413632	52	4771
2026-01-11 03:14:07.91	275.09	12.26	-40.2	-43.0	19.9	6.03e-01	0	56	0	506986496	52	4840
2026-01-11 03:14:08.92	274.91	12.20	-40.2	-43.0	19.9	6.04e-01	0	56	0	509083648	52	4848
2026-01-11 03:14:09.93	274.72	12.14	-40.2	-43.0	19.9	6.06e-01	0	56	0	511180800	52	4837
2026-01-11 03:14:10.94	274.54	12.08	-40.3	-43.1	19.7	6.02e-01	0	56	0	512753664	52	4914
2026-01-11 03:14:11.95	274.35	12.02	-40.2	-43.1	19.7	6.03e-01	0	56	0	514850816	52	4895
2026-01-11 03:14:12.96	274.17	11.96	-40.2	-43.1	19.6	6.05e-01	0	56	0	516423680	52	4912
2026-01-11 03:14:13.97	273.99	11.90	-40.2	-43.0	19.8	6.04e-01	0	56	0	518520832	52	4841
2026-01-11 03:14:14.97	273.81	11.84	-40.0	-42.8	19.9	6.04e-01	0	56	0	520617984	52	4727
2026-01-11 03:14:15.98	273.63	11.78	-40.0	-42.8	19.9	6.01e-01	0	56	0	522190848	52	4735
2026-01-11 03:14:16.99	273.45	11.72	-40.1	-42.9	19.8	6.03e-01	0	56	0	524288000	52	4787
2026-01-11 03:14:18.00	273.27	11.66	-40.2	-43.1	19.6	6.04e-01	0	56	0	525860864	52	4879
2026-01-11 03:14:19.01	273.09	11.60	-40.2	-43.1	19.6	6.05e-01	0	56	0	527958016	52	4903
2026-01-11 03:14:20.02	272.91	11.54	-40.2	-43.2	19.5	6.03e-01	0	56	0	530055168	52	4931
2026-01-11 03:14:21.03	272.74	11.48	-40.2	-43.1	19.5	6.06e-01	0	56	0	531628032	52	4899
2026-01-11 03:14:22.04	272.56	11.42	-40.2	-43.2	19.4	6.03e-01	0	56	0	533725184	52	4940
2026-01-11 03:14:23.05	272.39	11.36	-40.2	-43.1	19.4	6.03e-01	0	56	0	535298048	52	4906
2026-01-11 03:14:24.06	272.21	11.30	-40.2	-43.3	19.3	6.03e-01	0	56	0	537395200	52	4987
2026-01-11 03:14:25.07	272.04	11.24	-40.2	-43.3	19.2	6.04e-01	0	56	0	539492352	52	5014
2026-01-11 03:14:26.07	271.87	11.18	-40.3	-43.3	19.1	6.02e-01	0	56	0	541065216	52	5028
2026-01-11 03:14:27.08	271.70	11.12	-40.2	-43.2	19.3	6.04e-01	0	56	0	543162368	52	4958
2026-01-11 03:14:28.10	271.52	11.06	-40.2	-43.3	19.1	6.04e-01	0	56	0	545259520	52	5020
2026-01-11 03:14:29.11	271.35	11.00	-40.2	-43.3	19.1	6.03e-01	0	56	0	546832384	52	5000
2026-01-11 03:14:30.11	271.19	10.94	-40.2	-43.3	19.1	6.03e-01	0	56	0	548929536	52	4996
2026-01-11 03:14:31.12	271.02	10.88	-40.2	-43.3	19.1	6.03e-01	0	56	0	550502400	52	5037
2026-01-11 03:14:32.13	270.85	10.81	-40.2	-43.3	19.1	6.05e-01	0	56	0	552599552	52	5008
2026-01-11 03:14:33.14	270.68	10.75	-40.1	-43.2	19.2	6.04e-01	0	56	0	554696704	52	4933
2026-01-11 03:14:34.15	270.51	10.69	-40.2	-43.3	19.0	6.04e-01	0	56	0	556269568	52	5000
2026-01-11 03:14:35.16	270.35	10.63	-40.2	-43.3	19.0	6.05e-01	0	56	0	558366720	52	5026
2026-01-11 03:14:36.17	270.18	10.57	-40.2	-43.3	18.9	6.05e-01	0	56	0	560463872	52	5021
2026-01-11 03:14:37.18	270.02	10.51	-40.2	-43.3	19.0	6.06e-01	0	56	0	562036736	52	5033
2026-01-11 03:14:38.19	269.86	10.45	-40.1	-43.2	19.0	6.03e-01	0	56	0	564133888	52	4976
2026-01-11 03:14:39.20	269.69	10.38	-40.0	-43.0	19.2	6.03e-01	0	56	0	565706752	52	4867
2026-01-11 03:14:40.21	269.53	10.32	-40.0	-43.0	19.4	6.05e-01	0	56	0	567803904	51	5108
2026-01-11 03:14:41.22	269.37	10.26	-40.1	-43.1	19.2	6.05e-01	0	56	0	569901056	51	5179
2026-01-11 03:14:42.23	269.21	10.20	-40.1	-43.2	19.1	6.02e-01	0	56	0	571473920	51	5257
2026-01-11 03:14:43.23	269.05	10.14	-40.2	-43.4	18.9	6.05e-01	0	56	0	573571072	51	5369
2026-01-11 03:14:44.24	268.89	10.08	-40.3	-43.6	18.6	6.04e-01	0	56	0	575143936	51	5498
2026-01-11 03:14:45.26	268.73	10.02	-40.3	-43.6	18.6	6.04e-01	0	56	0	577241088	51	5493
2026-01-11 03:14:46.27	268.58	9.95	-40.4	-43.7	18.6	6.05e-01	0	56	0	579338240	51	5548
2026-01-11 03:14:47.27	268.42	9.89	-40.4	-43.7	18.4	6.02e-01	0	56	0	580911104	51	5589
2026-01-11 03:14:48.28	268.26	9.83	-40.5	-43.8	18.3	6.03e-01	0	56	0	583008256	51	5637
2026-01-11 03:14:49.29	268.11	9.77	-40.6	-44.0	18.1	6.03e-01	0	56	0	584581120	51	5770
2026-01-11 03:14:50.30	267.95	9.71	-40.7	-44.3	17.8	6.05e-01	0	56	0	586678272	51	5978
2026-01-11 03:14:51.31	267.80	9.65	-40.8	-44.6	17.4	6.02e-01	0	56	0	588775424	52	5855
2026-01-11 03:14:52.32	267.65	9.58	-40.8	-44.7	17.3	6.03e-01	0	56	0	590348288	52	5878
2026-01-11 03:14:53.33	267.49	9.52	-40.9	-44.8	17.1	6.03e-01	0	56	0	592445440	52	5967
2026-01-11 03:14:54.34	267.34	9.46	-40.9	-44.9	16.9	6.03e-01	0	56	0	594018304	52	6054
2026-01-11 03:14:55.35	267.19	9.40	-40.8	-44.7	17.1	6.05e-01	0	56	0	596115456	52	5904
2026-01-11 03:14:56.36	267.04	9.34	-40.8	-44.6	17.2	6.04e-01	0	56	0	598212608	52	5851
2026-01-11 03:14:57.37	266.89	9.27	-40.8	-44.8	17.0	6.04e-01	0	56	0	599785472	52	5931
2026-01-11 03:14:58.38	266.74	9.21	-40.8	-44.8	16.9	6.05e-01	0	56	0	601882624	52	5967
2026-01-11 03:14:59.39	266.59	9.15	-40.9	-45.0	16.7	6.04e-01	0	56	0	603455488	52	6082
2026-01-11 03:15:00.40	266.45	9.09	-40.9	-45.0	16.7	6.02e-01	0	56	0	605552640	52	6112
2026-01-11 03:15:01.40	266.30	9.03	-40.9	-45.1	16.6	6.05e-01	0	56	0	607649792	52	6172
2026-01-11 03:15:02.41	266.15	8.97	-41.0	-45.3	16.4	6.03e-01	0	56	0	609222656	52	6326
2026-01-11 03:15:03.42	266.01	8.90	-41.1	-45.5	16.2	6.04e-01	0	56	0	611319808	52	6438
2026-01-11 03:15:04.43	265.86	8.84	-41.2	-45.7	16.0	6.05e-01	0	56	0	613416960	52	6619
2026-01-11 03:15:05.44	265.72	8.78	-41.3	-46.0	15.6	6.04e-01	0	56	0	614989824	53	6471
2026-01-11 03:15:06.45	265.57	8.72	-41.3	-46.2	15.4	6.03e-01	0	56	0	617086976	53	6588
2026-01-11 03:15:07.46	265.43	8.66	-41.4	-46.3	15.2	6.05e-01	0	56	0	618659840	53	6672
2026-01-11 03:15:08.47	265.29	8.59	-41.4	-46.4	15.1	6.05e-01	0	56	0	620756992	53	6735
2026-01-11 03:15:09.48	265.15	8.53	-41.4	-46.5	15.0	6.02e-01	0	56	0	622854144	53	6816
2026-01-11 03:15:10.49	265.01	8.47	-41.5	-46.7	14.8	6.04e-01	0	56	0	624427008	53	6965
2026-01-11 03:15:11.50	264.87	8.41	-41.5	-46.7	14.8	6.03e-01	0	56	0	626524160	53	6964
2026-01-11 03:15:12.51	264.73	8.35	-41.5	-46.8	14.6	6.03e-01	0	56	0	628621312	53	7111
2026-01-11 03:15:13.52	264.59	8.29	-41.6	-46.9	14.5	6.05e-01	0	56	0	630194176	53	7197
2026-01-11 03:15:14.53	264.45	8.22	-41.5	-46.9	14.5	6.04e-01	0	56	0	632291328	53	7159
2026-01-11 03:15:15.54	264.31	8.16	-41.5	-46.9	14.4	6.02e-01	0	56	0	633864192	53	7164
2026-01-11 03:15:16.55	264.17	8.10	-41.5	-46.9	14.4	6.04e-01	0	56	0	635961344	53	7188
2026-01-11 03:15:17.56	264.04	8.04	-41.4	-46.4	15.0	6.05e-01	0	56	0	638058496	53	6784
2026-01-11 03:15:18.57	263.90	7.98	-43.5	-51.4	12.1	6.12e-01	0	56	0	639631360	57	9548
2026-01-11 03:15:19.58	263.77	7.92	-45.2	-63.7	3.8	7.39e-01	0	56	104	640155648	61	31255
2026-01-11 03:15:20.59	263.63	7.85	-45.6	-64.4	3.8	7.47e-01	0	56	104	640155648	61	33919
2026-01-11 03:15:21.60	263.50	7.79	-45.8	-64.6	3.9	7.47e-01	0	56	104	640155648	62	32897
2026-01-11 03:15:22.61	263.37	7.73	-45.9	-64.7	3.8	7.50e-01	0	56	104	640155648	62	33282
2026-01-11 03:15:23.63	263.23	7.67	-46.0	-64.8	3.8	7.44e-01	0	56	104	640155648	62	33557
2026-01-11 03:15:24.64	263.10	7.61	-46.0	-64.9	3.8	7.44e-01	0	56	104	640155648	62	33820
2026-01-11 03:15:25.65	262.97	7.55	-46.0	-64.9	3.8	7.48e-01	0	56	104	640155648	62	33992
2026-01-11 03:15:26.66	262.84	7.49	-46.1	-64.9	3.8	7.43e-01	0	56	104	640155648	62	34038
2026-01-11 03:15:27.67	262.71	7.42	-46.0	-64.9	3.8	7.43e-01	0	56	104	640155648	62	33981
2026-01-11 03:15:28.68	262.58	7.36	-46.0	-64.9	3.8	7.46e-01	0	56	104	640155648	62	33927
2026-01-11 03:15:29.69	262.45	7.30	-46.0	-64.9	3.8	7.45e-01	0	56	104	640155648	62	33964
2026-01-11 03:15:30.70	262.32	7.24	-46.0	-64.9	3.8	7.45e-01	0	56	104	640155648	62	33915
2026-01-11 03:15:31.71	262.19	7.18	-46.0	-64.9	3.8	7.46e-01	0	56	104	640155648	62	33922
2026-01-11 03:15:32.72	262.06	7.12	-46.0	-64.9	3.8	7.45e-01	0	56	104	640155648	62	33974
2026-01-11 03:15:33.73	261.94	7.06	-46.1	-65.0	3.8	7.47e-01	0	56	104	640155648	62	34240
2026-01-11 03:15:34.74	261.81	7.00	-46.0	-65.0	3.8	7.42e-01	0	56	104	640155648	62	34108
2026-01-11 03:15:35.75	261.69	6.93	-46.0	-65.0	3.8	7.45e-01	0	56	104	640155648	62	34115
2026-01-11 03:15:36.76	261.56	6.87	-46.0	-64.9	3.8	7.49e-01	0	56	104	640155648	62	33973
2026-01-11 03:15:37.77	261.44	6.81	-45.9	-64.9	3.8	7.44e-01	0	56	104	640155648	62	33846
2026-01-11 03:15:38.78	261.31	6.75	-46.0	-64.9	3.8	7.46e-01	0	56	104	640155648	62	33823
2026-01-11 03:15:39.79	261.19	6.69	-45.9	-64.9	3.8	7.43e-01	0	56	104	640155648	62	33756
2026-01-11 03:15:40.80	261.07	6.63	-45.9	-64.9	3.8	7.44e-01	0	56	104	640155648	62	33817
2026-01-11 03:15:41.81	260.95	6.57	-45.9	-64.8	3.8	7.47e-01	0	56	104	640155648	62	33680
2026-01-11 03:15:42.83	260.82	6.51	-45.9	-64.8	3.8	7.46e-01	0	56	104	640155648	62	33623
2026-01-11 03:15:43.84	260.70	6.45	-45.9	-64.8	3.8	7.44e-01	0	56	104	640155648	62	33564
2026-01-11 03:15:44.85	260.58	6.39	-45.9	-64.8	3.8	7.48e-01	0	56	104	640155648	62	33433
2026-01-11 03:15:45.86	260.46	6.33	-45.9	-64.8	3.8	7.42e-01	0	56	104	640155648	62	33541
2026-01-11 03:15:46.87	260.34	6.27	-45.9	-64.8	3.8	7.47e-01	0	56	104	640155648	62	33474
2026-01-11 03:15:47.88	260.22	6.20	-45.9	-64.8	3.8	7.43e-01	0	56	104	640155648	62	33539
2026-01-11 03:15:48.89	260.11	6.14	-45.9	-64.8	3.8	7.44e-01	0	56	104	640155648	62	33625
2026-01-11 03:15:49.90	259.99	6.08	-45.9	-64.8	3.8	7.43e-01	0	56	104	640155648	62	33588
2026-01-11 03:15:50.91	259.87	6.02	-45.9	-64.8	3.8	7.47e-01	0	56	104	640155648	62	33538
2026-01-11 03:15:51.92	259.75	5.96	-45.9	-64.8	3.8	7.45e-01	0	56	104	640155648	62	33521
2026-01-11 03:15:52.94	259.64	5.90	-45.9	-64.8	3.8	7.44e-01	0	56	104	640155648	62	33483
2026-01-11 03:15:53.95	259.52	5.84	-45.9	-64.8	3.8	7.45e-01	0	56	104	640155648	62	33498
2026-01-11 03:15:54.96	259.41	5.78	-45.8	-64.8	3.8	7.43e-01	0	56	104	640155648	62	33400
2026-01-11 03:15:55.97	259.29	5.72	-45.9	-64.8	3.8	7.46e-01	0	56	104	640155648	62	33379
2026-01-11 03:15:56.98	259.18	5.66	-45.9	-64.8	3.8	7.41e-01	0	56	104	640155648	62	33459
2026-01-11 03:15:57.99	259.06	5.60	-45.9	-64.8	3.8	7.45e-01	0	56	104	640155648	62	33420
2026-01-11 03:15:59.00	258.95	5.54	-45.8	-64.8	3.8	7.48e-01	0	56	104	640155648	62	33395
2026-01-11 03:16:00.01	258.84	5.48	-45.8	-64.8	3.8	7.44e-01	0	56	104	640155648	62	33358
2026-01-11 03:16:01.02	258.73	5.42	-45.9	-64.8	3.8	7.47e-01	0	56	104	640155648	62	33379
2026-01-11 03:16:02.03	258.62	5.36	-45.9	-64.8	3.8	7.44e-01	0	56	104	640155648	62	33464
2026-01-11 03:16:03.04	258.51	5.30	-45.8	-64.8	3.8	7.42e-01	0	56	104	640155648	62	33412
2026-01-11 03:16:04.05	258.40	5.24	-45.9	-64.8	3.8	7.46e-01	0	56	104	640155648	62	33406
2026-01-11 03:16:05.07	258.28	5.18	-45.8	-64.8	3.8	7.46e-01	0	56	104	640155648	62	33418
2026-01-11 03:16:06.08	258.18	5.12	-45.8	-64.8	3.8	7.46e-01	0	56	104	640155648	62	33359
2026-01-11 03:16:07.09	258.07	5.06	-45.8	-64.8	3.8	7.46e-01	0	56	104	640155648	62	33422
2026-01-11 03:16:08.10	257.96	5.00	-45.8	-64.8	3.8	7.45e-01	0	56	104	640155648	62	33408
2026-01-11 03:16:09.11	257.85	4.95	-45.8	-64.8	3.8	7.47e-01	0	56	104	640155648	62	33360
2026-01-11 03:16:10.12	257.74	4.89	-45.8	-64.8	3.8	7.44e-01	0	56	104	640155648	62	33331
2026-01-11 03:16:11.13	257.64	4.83	-45.8	-64.8	3.8	7.46e-01	0	56	104	640155648	62	33397
2026-01-11 03:16:12.14	257.53	4.77	-45.8	-64.8	3.8	7.45e-01	0	56	104	640155648	62	33436
2026-01-11 03:16:13.15	257.42	4.71	-45.8	-64.8	3.8	7.48e-01	0	56	104	640155648	62	33405
2026-01-11 03:16:14.17	257.32	4.65	-45.8	-64.7	3.8	7.41e-01	0	56	104	640155648	62	33293
2026-01-11 03:16:15.18	257.21	4.59	-45.8	-64.8	3.8	7.47e-01	0	57	104	640155648	62	33316
2026-01-11 03:16:16.19	257.11	4.53	-45.8	-64.8	3.8	7.46e-01	0	57	104	640155648	62	33371
2026-01-11 03:16:17.20	257.00	4.47	-45.8	-64.8	3.8	7.44e-01	0	56	104	640155648	62	33333
2026-01-11 03:16:18.21	256.90	4.41	-45.8	-64.8	3.8	7.43e-01	0	56	104	640155648	62	33391
2026-01-11 03:16:19.22	256.80	4.35	-45.8	-64.8	3.8	7.47e-01	0	56	104	640155648	62	33342
2026-01-11 03:16:20.23	256.69	4.30	-45.8	-64.8	3.8	7.45e-01	0	57	104	640155648	62	33403
2026-01-11 03:16:21.24	256.59	4.24	-45.8	-64.8	3.8	7.45e-01	0	56	104	640155648	62	33337
2026-01-11 03:16:22.25	256.49	4.18	-45.8	-64.8	3.8	7.42e-01	0	56	104	640155648	62	33332
2026-01-11 03:16:23.26	256.39	4.12	-45.8	-64.8	3.8	7.44e-01	0	57	104	640155648	62	33313
2026-01-11 03:16:24.27	256.29	4.06	-45.8	-64.7	3.8	7.49e-01	0	56	104	640155648	62	33301
2026-01-11 03:16:25.29	256.19	4.00	-45.8	-64.8	3.8	7.46e-01	0	56	104	640155648	62	33333
2026-01-11 03:16:26.29	256.09	3.95	-45.8	-64.7	3.8	7.47e-01	0	57	104	640155648	62	33265
2026-01-11 03:16:27.30	255.99	3.89	-45.8	-64.8	3.8	7.44e-01	0	56	104	640155648	62	33358
2026-01-11 03:16:28.31	255.89	3.83	-45.8	-64.8	3.8	7.42e-01	0	56	104	640155648	62	33327
2026-01-11 03:16:29.33	255.79	3.77	-45.8	-64.7	3.8	7.43e-01	0	56	104	640155648	62	33250
2026-01-11 03:16:30.34	255.69	3.71	-45.8	-64.8	3.8	7.45e-01	0	56	104	640155648	62	33332
2026-01-11 03:16:31.35	255.59	3.65	-45.8	-64.8	3.8	7.44e-01	0	57	104	640155648	62	33354
2026-01-11 03:16:32.36	255.50	3.60	-45.8	-64.8	3.8	7.44e-01	0	56	104	640155648	62	33385
2026-01-11 03:16:33.37	255.40	3.54	-45.8	-64.8	3.8	7.48e-01	0	56	104	640155648	62	33389
2026-01-11 03:16:34.38	255.30	3.48	-45.8	-64.8	3.8	7.42e-01	0	57	104	640155648	62	33352
2026-01-11 03:16:35.39	255.21	3.42	-45.8	-64.8	3.8	7.45e-01	0	56	104	640155648	62	33380
2026-01-11 03:16:36.40	255.11	3.37	-45.8	-64.8	3.8	7.43e-01	0	57	104	640155648	62	33366
2026-01-11 03:16:37.41	255.02	3.31	-45.8	-64.8	3.8	7.45e-01	0	56	104	640155648	62	33331
2026-01-11 03:16:38.42	254.92	3.25	-45.8	-64.8	3.8	7.45e-01	0	57	104	640155648	62	33371
2026-01-11 03:16:39.43	254.83	3.19	-45.8	-64.8	3.8	7.49e-01	0	56	104	640155648	62	33368
2026-01-11 03:16:40.44	254.73	3.14	-45.8	-64.7	3.8	7.43e-01	0	57	104	640155648	62	33291
2026-01-11 03:16:41.45	254.64	3.08	-45.8	-64.8	3.8	7.45e-01	0	56	104	640155648	62	33363
2026-01-11 03:16:42.46	254.55	3.02	-45.8	-64.7	3.8	7.49e-01	0	56	104	640155648	62	33294
2026-01-11 03:16:43.47	254.46	2.96	-45.8	-64.8	3.8	7.46e-01	0	56	104	640155648	62	33315
2026-01-11 03:16:44.48	254.36	2.91	-45.8	-64.7	3.8	7.45e-01	0	57	104	640155648	62	33290
2026-01-11 03:16:45.49	254.27	2.85	-45.8	-64.7	3.8	7.48e-01	0	57	104	640155648	62	33292
2026-01-11 03:16:46.50	254.18	2.79	-45.8	-64.7	3.8	7.47e-01	0	56	104	640155648	62	33273
2026-01-11 03:16:47.52	254.09	2.74	-45.8	-64.8	3.8	7.43e-01	0	56	104	640155648	62	33353
2026-01-11 03:16:48.53	254.00	2.68	-45.8	-64.7	3.8	7.44e-01	0	57	104	640155648	62	33259
2026-01-11 03:16:49.54	253.91	2.62	-45.8	-64.7	3.8	7.45e-01	0	57	104	640155648	62	33292
2026-01-11 03:16:50.55	253.82	2.57	-45.8	-64.7	3.8	7.43e-01	0	57	104	640155648	62	33308
2026-01-11 03:16:51.56	253.73	2.51	-45.8	-64.8	3.8	7.45e-01	0	57	104	640155648	62	33342
2026-01-11 03:16:52.57	253.64	2.45	-45.8	-64.8	3.8	7.48e-01	0	57	104	640155648	62	33323
2026-01-11 03:16:53.58	253.55	2.40	-45.8	-64.7	3.8	7.47e-01	0	56	104	640155648	62	33293
2026-01-11 03:16:54.59	253.46	2.34	-45.8	-64.8	3.8	7.45e-01	0	57	104	640155648	62	33324
2026-01-11 03:16:55.60	253.37	2.28	-45.8	-64.8	3.8	7.44e-01	0	56	104	640155648	62	33366
2026-01-11 03:16:56.61	253.29	2.23	-45.8	-64.8	3.8	7.50e-01	0	57	104	640155648	62	33322
2026-01-11 03:16:57.63	253.20	2.17	-45.8	-64.8	3.8	7.46e-01	0	56	104	640155648	62	33324
2026-01-11 03:16:58.64	253.11	2.11	-45.8	-64.7	3.8	7.50e-01	0	57	104	640155648	62	33246
2026-01-11 03:16:59.65	253.02	2.06	-45.8	-64.7	3.8	7.44e-01	0	57	104	640155648	62	33307
2026-01-11 03:17:00.66	252.94	2.00	-45.8	-64.8	3.8	7.45e-01	0	56	104	640155648	62	33351

#Closed at: 2026-01-11 03:17:01
#Recorded file [640 MB]: D:/lorett/data/31039_260111_060623.dat