passes_logs/2026/01/11/R2.0S_Moscow/R2.0S_Moscow__20260111_033453_FENGYUN_3E_rec.log

#Pass ID: 20260111_033453_FENGYUN 3E
#Satellite: FENGYUN 3E
#Configuration: FENGYUN 3E
#almurnet v.1.7.20251203
#Start time: 2026-01-11 03:42:23

#Version: 2.2.20231116
#Station: R2.0S_Moscow
#Location: 37.707566 lon 55.798166 lat
#TLE: 1 49008U 21062A   26010.00248113 -.00000186  00000+0 -66867-4 0  9993
#TLE: 2 49008  98.7487  15.1892 0001787 147.8079 212.3207 14.19883469234134

#Time	Az	El	Level	Level2	SNR	BER	BlckErr	Temp	State	Recorded	gain1	gain2
2026-01-11 03:42:23.94	122.66	64.22	-44.8	-56.6	3.8	8.46e-01	0	56	0	0	60	14689
2026-01-11 03:42:24.95	123.69	64.07	-45.5	-56.1	3.8	8.46e-01	0	57	104	0	61	12308
2026-01-11 03:42:25.96	124.71	63.92	-45.6	-56.5	3.8	8.45e-01	0	57	104	0	61	12883
2026-01-11 03:42:26.97	125.71	63.75	-45.6	-56.7	3.8	8.45e-01	0	57	104	0	61	13119
2026-01-11 03:42:27.98	126.70	63.58	-45.6	-56.7	3.8	8.47e-01	0	57	104	0	61	13170
2026-01-11 03:42:28.99	127.67	63.41	-45.6	-56.6	3.8	8.44e-01	0	57	104	0	61	13098
2026-01-11 03:42:30.00	128.63	63.23	-45.6	-56.7	3.8	8.46e-01	0	57	104	0	61	13142
2026-01-11 03:42:31.01	129.58	63.04	-45.6	-56.6	3.8	8.46e-01	0	57	104	0	61	13076
2026-01-11 03:42:32.03	130.52	62.85	-45.6	-56.6	3.8	8.45e-01	0	57	104	0	61	13029
2026-01-11 03:42:33.04	131.43	62.65	-45.5	-56.6	3.8	8.47e-01	0	57	104	0	61	12969
2026-01-11 03:42:34.05	132.33	62.44	-45.5	-56.6	3.8	8.45e-01	0	57	104	0	61	12986
2026-01-11 03:42:35.06	133.22	62.23	-45.5	-56.6	3.8	8.46e-01	0	57	104	0	61	12988
2026-01-11 03:42:36.07	134.08	62.02	-45.5	-56.6	3.8	8.46e-01	0	57	104	0	61	12967
2026-01-11 03:42:37.08	134.94	61.80	-45.5	-56.6	3.8	8.46e-01	0	57	104	0	61	13049
2026-01-11 03:42:38.09	135.78	61.58	-45.5	-56.5	3.8	8.44e-01	0	57	104	0	61	12929
2026-01-11 03:42:39.10	136.60	61.35	-45.5	-56.5	3.8	8.46e-01	0	57	104	0	61	12882
2026-01-11 03:42:40.11	137.41	61.12	-45.5	-56.5	3.8	8.46e-01	0	57	104	0	61	12953
2026-01-11 03:42:41.12	138.21	60.88	-45.5	-56.5	3.8	8.46e-01	0	57	104	0	61	12944
2026-01-11 03:42:42.13	138.99	60.64	-45.5	-56.5	3.8	8.45e-01	0	57	104	0	61	12823
2026-01-11 03:42:43.14	139.75	60.40	-45.5	-56.5	3.8	8.46e-01	0	57	104	0	61	12861
2026-01-11 03:42:44.15	140.50	60.15	-45.5	-56.5	3.8	8.46e-01	0	57	104	0	61	12907
2026-01-11 03:42:45.16	141.24	59.90	-45.5	-56.5	3.8	8.47e-01	0	57	104	0	61	12886
2026-01-11 03:42:46.17	141.96	59.64	-45.5	-56.5	3.8	8.46e-01	0	57	104	0	61	12910
2026-01-11 03:42:47.18	142.67	59.39	-45.5	-56.4	3.8	8.47e-01	0	57	104	0	61	12787
2026-01-11 03:42:48.20	143.37	59.13	-45.4	-56.3	3.8	8.46e-01	0	57	104	0	61	12654
2026-01-11 03:42:49.21	144.05	58.86	-45.4	-56.4	3.8	8.46e-01	0	57	104	0	61	12748
2026-01-11 03:42:50.22	144.71	58.60	-45.5	-56.4	3.8	8.47e-01	0	57	104	0	61	12720
2026-01-11 03:42:51.23	145.37	58.33	-45.5	-56.5	3.8	8.46e-01	0	57	104	0	61	12826
2026-01-11 03:42:52.24	146.01	58.06	-45.5	-56.4	3.8	8.47e-01	0	57	104	0	61	12807
2026-01-11 03:42:53.25	146.64	57.79	-45.4	-56.3	3.8	8.46e-01	0	57	104	0	61	12538
2026-01-11 03:42:54.26	147.25	57.52	-45.4	-56.2	3.8	8.46e-01	0	57	104	0	61	12495
2026-01-11 03:42:55.27	147.86	57.25	-45.4	-56.4	3.8	8.47e-01	0	57	104	0	61	12735
2026-01-11 03:42:56.28	148.45	56.97	-45.4	-56.4	3.8	8.45e-01	0	57	104	0	61	12689
2026-01-11 03:42:57.29	149.03	56.69	-45.4	-56.3	3.8	8.47e-01	0	57	104	0	61	12567
2026-01-11 03:42:58.30	149.60	56.41	-45.4	-56.5	3.8	8.45e-01	0	57	104	0	61	12811
2026-01-11 03:42:59.32	150.16	56.13	-45.4	-56.5	3.8	8.46e-01	0	57	104	0	61	12822
2026-01-11 03:43:00.33	150.71	55.85	-45.4	-56.1	3.8	8.46e-01	0	57	104	0	61	12305
2026-01-11 03:43:01.34	151.24	55.57	-45.4	-56.1	3.8	8.45e-01	0	57	104	0	61	12290
2026-01-11 03:43:02.35	151.77	55.28	-45.4	-56.3	3.8	8.46e-01	0	57	104	0	61	12537
2026-01-11 03:43:03.36	152.28	55.00	-45.4	-56.2	3.8	8.47e-01	0	57	104	0	61	12376
2026-01-11 03:43:04.37	152.79	54.72	-45.4	-55.9	3.8	8.46e-01	0	57	104	0	61	12044
2026-01-11 03:43:05.38	153.28	54.43	-45.4	-56.2	3.8	8.47e-01	0	57	104	0	61	12493
2026-01-11 03:43:06.39	153.77	54.14	-45.4	-56.0	3.8	8.46e-01	0	57	104	0	61	12113
2026-01-11 03:43:07.40	154.24	53.86	-45.4	-56.0	3.8	8.46e-01	0	57	104	0	61	12099
2026-01-11 03:43:08.41	154.71	53.57	-45.4	-56.2	3.8	8.46e-01	0	57	104	0	61	12456
2026-01-11 03:43:09.42	155.16	53.28	-45.3	-55.2	3.8	8.45e-01	0	57	104	0	61	11131
2026-01-11 03:43:10.43	155.61	53.00	-45.4	-56.0	3.8	8.47e-01	0	57	104	0	61	12134
2026-01-11 03:43:11.45	156.06	52.71	-45.2	-54.3	3.8	8.46e-01	0	57	104	0	61	10007
2026-01-11 03:43:12.46	156.49	52.42	-43.6	-48.1	6.9	4.64e-01	0	57	0	2097152	58	5807
2026-01-11 03:43:13.47	156.91	52.13	-42.6	-46.0	9.0	2.37e-02	0	57	0	9437184	56	5133
2026-01-11 03:43:14.48	157.32	51.85	-43.7	-48.2	6.9	7.26e-02	0	57	0	15728640	56	6628
2026-01-11 03:43:15.49	157.73	51.56	-45.2	-54.6	3.8	8.45e-01	0	57	104	18874368	60	11012
2026-01-11 03:43:16.50	158.13	51.28	-41.3	-43.9	11.0	3.15e-02	0	57	0	23068672	53	4782
2026-01-11 03:43:17.51	158.52	50.99	-37.8	-39.3	15.7	0.00e+00	0	57	0	30408704	46	4198
2026-01-11 03:43:18.52	158.91	50.70	-36.7	-38.0	17.0	0.00e+00	0	57	0	37748736	44	4094
2026-01-11 03:43:19.53	159.29	50.42	-39.9	-41.8	13.5	0.00e+00	0	57	0	44040192	49	4755
2026-01-11 03:43:20.54	159.66	50.13	-37.6	-39.0	15.6	1.02e-01	0	57	104	46137344	46	4092
2026-01-11 03:43:21.54	160.02	49.85	-39.0	-40.8	14.2	0.00e+00	0	57	0	53477376	47	4755
2026-01-11 03:43:22.55	160.37	49.57	-36.9	-38.3	16.7	4.50e-06	0	57	0	60817408	44	4216
2026-01-11 03:43:23.57	160.73	49.28	-39.2	-41.0	14.1	3.03e-04	0	57	0	67108864	49	4311
2026-01-11 03:43:24.58	161.07	49.00	-36.9	-38.3	16.3	0.00e+00	0	57	0	74448896	44	4210
2026-01-11 03:43:25.59	161.41	48.72	-36.8	-38.2	16.8	0.00e+00	0	57	0	81788928	44	4151
2026-01-11 03:43:26.60	161.74	48.44	-36.4	-37.7	17.2	0.00e+00	0	57	0	89128960	44	3941
2026-01-11 03:43:27.61	162.07	48.16	-36.0	-37.2	17.6	0.00e+00	0	57	0	96468992	42	4192
2026-01-11 03:43:28.62	162.39	47.88	-36.0	-37.3	17.6	0.00e+00	0	57	0	103809024	42	4202
2026-01-11 03:43:29.63	162.70	47.60	-35.9	-37.2	17.6	0.00e+00	0	57	0	111149056	42	4156
2026-01-11 03:43:30.64	163.01	47.33	-35.9	-37.1	17.7	0.00e+00	0	57	0	118489088	42	4124
2026-01-11 03:43:31.65	163.32	47.05	-35.8	-37.0	17.8	0.00e+00	0	57	0	125829120	42	4068
2026-01-11 03:43:32.66	163.62	46.78	-35.6	-36.8	18.0	0.00e+00	0	57	0	133169152	42	3988
2026-01-11 03:43:33.67	163.91	46.50	-35.2	-36.3	18.4	0.00e+00	0	57	0	140509184	41	4004
2026-01-11 03:43:34.68	164.20	46.23	-35.0	-36.1	18.3	0.00e+00	0	57	0	147849216	41	3906
2026-01-11 03:43:35.69	164.48	45.96	-34.9	-36.0	18.8	0.00e+00	0	57	0	155189248	40	4077
2026-01-11 03:43:36.70	164.76	45.68	-34.9	-36.0	18.8	0.00e+00	0	57	0	162529280	40	4059
2026-01-11 03:43:37.71	165.03	45.41	-34.8	-35.9	18.9	0.00e+00	0	57	0	169869312	40	4030
2026-01-11 03:43:38.72	165.30	45.15	-34.8	-35.8	18.9	0.00e+00	0	57	0	177209344	40	4003
2026-01-11 03:43:39.73	165.57	44.88	-34.7	-35.8	19.0	0.00e+00	0	57	0	184549376	40	3996
2026-01-11 03:43:40.74	165.83	44.61	-34.7	-35.8	19.0	0.00e+00	0	57	0	191889408	40	3991
2026-01-11 03:43:41.75	166.09	44.35	-34.8	-35.9	18.9	0.00e+00	0	57	0	199229440	40	4036
2026-01-11 03:43:42.76	166.34	44.08	-34.9	-36.0	18.8	0.00e+00	0	57	0	206569472	40	4061
2026-01-11 03:43:43.77	166.59	43.82	-34.9	-36.1	18.7	0.00e+00	0	57	0	213909504	40	4107
2026-01-11 03:43:44.77	166.83	43.56	-35.0	-36.1	18.7	0.00e+00	0	57	0	220200960	40	4126
2026-01-11 03:43:45.78	167.07	43.30	-35.0	-36.1	18.6	0.00e+00	0	57	0	227540992	40	4142
2026-01-11 03:43:46.79	167.31	43.04	-34.9	-36.1	18.7	0.00e+00	0	57	0	234881024	40	4103
2026-01-11 03:43:47.80	167.54	42.78	-34.8	-35.9	18.8	0.00e+00	0	57	0	242221056	40	4048
2026-01-11 03:43:48.81	167.77	42.52	-34.7	-35.8	18.9	0.00e+00	0	57	0	249561088	40	3965
2026-01-11 03:43:49.83	168.00	42.27	-34.6	-35.7	19.1	0.00e+00	0	57	0	256901120	40	3915
2026-01-11 03:43:50.84	168.22	42.01	-34.5	-35.6	19.0	0.00e+00	0	57	0	264241152	39	4100
2026-01-11 03:43:51.85	168.44	41.76	-34.5	-35.6	19.2	0.00e+00	0	57	0	271581184	39	4127
2026-01-11 03:43:52.86	168.65	41.51	-34.6	-35.6	19.2	0.00e+00	0	57	0	278921216	39	4145
2026-01-11 03:43:53.87	168.87	41.26	-34.6	-35.7	19.1	0.00e+00	0	57	0	286261248	39	4167
2026-01-11 03:43:54.88	169.08	41.01	-34.7	-35.8	19.1	0.00e+00	0	57	0	293601280	39	4212
2026-01-11 03:43:55.89	169.28	40.76	-34.8	-35.9	18.6	0.00e+00	0	57	0	300941312	39	4268
2026-01-11 03:43:56.90	169.49	40.51	-34.7	-35.8	19.0	0.00e+00	0	57	0	308281344	39	4233
2026-01-11 03:43:57.91	169.69	40.27	-34.7	-35.8	19.0	0.00e+00	0	57	0	315621376	39	4205
2026-01-11 03:43:58.92	169.88	40.02	-34.6	-35.7	19.1	0.00e+00	0	57	0	322961408	39	4177
2026-01-11 03:43:59.93	170.08	39.78	-34.6	-35.6	19.2	0.00e+00	0	57	0	330301440	39	4144
2026-01-11 03:44:00.93	170.27	39.54	-34.5	-35.6	19.2	0.00e+00	0	57	0	337641472	39	4125
2026-01-11 03:44:01.94	170.45	39.30	-34.6	-35.7	19.1	0.00e+00	0	57	0	344981504	39	4179
2026-01-11 03:44:02.95	170.64	39.06	-34.7	-35.8	19.0	0.00e+00	0	57	0	352321536	39	4214
2026-01-11 03:44:03.96	170.82	38.83	-34.7	-35.8	18.9	0.00e+00	0	57	0	359661568	39	4234
2026-01-11 03:44:04.97	171.00	38.59	-34.8	-35.9	18.9	0.00e+00	0	57	0	365953024	39	4285
2026-01-11 03:44:05.99	171.18	38.35	-34.9	-36.0	18.8	0.00e+00	0	57	0	373293056	39	4315
2026-01-11 03:44:07.00	171.36	38.12	-34.9	-36.0	18.6	0.00e+00	0	57	0	381681664	39	4331
2026-01-11 03:44:08.01	171.53	37.89	-35.0	-36.1	18.7	0.00e+00	0	57	0	387973120	39	4352
2026-01-11 03:44:09.02	171.70	37.66	-34.9	-36.0	18.8	0.00e+00	0	57	0	395313152	39	4307
2026-01-11 03:44:10.03	171.87	37.43	-34.8	-35.9	18.8	0.00e+00	0	57	0	402653184	39	4280
2026-01-11 03:44:11.04	172.04	37.20	-34.7	-35.8	19.0	0.00e+00	0	57	0	409993216	39	4219
2026-01-11 03:44:12.05	172.20	36.97	-34.6	-35.7	19.1	0.00e+00	0	57	0	417333248	39	4169
2026-01-11 03:44:13.06	172.36	36.75	-34.4	-35.5	19.3	0.00e+00	0	57	0	424673280	39	4068
2026-01-11 03:44:14.07	172.52	36.52	-34.4	-35.4	19.3	0.00e+00	0	57	0	432013312	39	4044
2026-01-11 03:44:15.08	172.68	36.30	-34.3	-35.3	19.4	0.00e+00	0	57	0	439353344	39	3999
2026-01-11 03:44:16.09	172.84	36.08	-34.2	-35.3	19.3	0.00e+00	0	57	0	446693376	39	3969
2026-01-11 03:44:17.10	172.99	35.86	-34.2	-35.3	19.5	0.00e+00	0	57	0	454033408	39	3960
2026-01-11 03:44:18.11	173.14	35.64	-34.3	-35.3	19.4	0.00e+00	0	57	0	461373440	39	3985
2026-01-11 03:44:19.12	173.29	35.42	-34.3	-35.4	19.3	0.00e+00	0	57	0	468713472	39	4025
2026-01-11 03:44:20.13	173.44	35.20	-34.4	-35.5	19.2	0.00e+00	0	57	0	476053504	39	4058
2026-01-11 03:44:21.14	173.58	34.99	-34.5	-35.6	19.2	0.00e+00	0	57	0	483393536	39	4100
2026-01-11 03:44:22.15	173.73	34.78	-34.5	-35.6	19.0	0.00e+00	0	57	0	490733568	39	4126
2026-01-11 03:44:23.16	173.87	34.56	-34.5	-35.6	19.2	0.00e+00	0	57	0	498073600	39	4106
2026-01-11 03:44:24.17	174.01	34.35	-34.5	-35.6	19.2	0.00e+00	0	57	0	505413632	39	4103
2026-01-11 03:44:25.18	174.15	34.14	-34.5	-35.5	19.2	0.00e+00	0	57	0	512753664	39	4089
2026-01-11 03:44:26.19	174.29	33.93	-34.4	-35.5	19.2	0.00e+00	0	57	0	520093696	39	4080
2026-01-11 03:44:27.20	174.42	33.73	-34.4	-35.5	19.2	0.00e+00	0	57	0	527433728	39	4060
2026-01-11 03:44:28.21	174.55	33.52	-34.4	-35.4	19.3	0.00e+00	0	57	0	533725184	39	4035
2026-01-11 03:44:29.22	174.69	33.31	-34.4	-35.4	19.2	0.00e+00	0	57	0	541065216	39	4051
2026-01-11 03:44:30.23	174.82	33.11	-34.4	-35.4	19.3	0.00e+00	0	57	0	548405248	39	4042
2026-01-11 03:44:31.24	174.94	32.91	-34.3	-35.4	19.3	0.00e+00	0	57	0	555745280	39	4007
2026-01-11 03:44:32.25	175.07	32.71	-34.3	-35.3	19.4	0.00e+00	0	57	0	563085312	39	4003
2026-01-11 03:44:33.26	175.20	32.50	-34.3	-35.3	19.4	0.00e+00	0	57	0	570425344	39	4002
2026-01-11 03:44:34.27	175.32	32.31	-34.3	-35.3	19.4	0.00e+00	0	57	0	577765376	39	3996
2026-01-11 03:44:35.28	175.44	32.11	-34.2	-35.3	19.4	0.00e+00	0	57	0	585105408	39	3966
2026-01-11 03:44:36.29	175.56	31.91	-34.3	-35.3	19.4	0.00e+00	0	57	0	592445440	39	3985
2026-01-11 03:44:37.30	175.68	31.71	-34.2	-35.3	19.4	0.00e+00	0	58	0	599785472	39	3968
2026-01-11 03:44:38.31	175.80	31.52	-34.2	-35.3	19.4	0.00e+00	0	57	0	607125504	39	3976
2026-01-11 03:44:39.32	175.92	31.33	-34.2	-35.3	19.4	0.00e+00	0	57	0	614465536	39	3977
2026-01-11 03:44:40.33	176.03	31.13	-34.3	-35.3	19.3	0.00e+00	0	57	0	621805568	39	4002
2026-01-11 03:44:41.34	176.15	30.94	-34.3	-35.3	19.4	0.00e+00	0	57	0	629145600	39	3997
2026-01-11 03:44:42.35	176.26	30.75	-34.3	-35.4	19.3	0.00e+00	0	57	0	636485632	39	4006
2026-01-11 03:44:43.36	176.37	30.57	-34.3	-35.4	19.3	0.00e+00	0	57	0	643825664	39	4019
2026-01-11 03:44:44.37	176.48	30.38	-34.4	-35.4	19.3	0.00e+00	0	57	0	651165696	39	4048
2026-01-11 03:44:45.38	176.59	30.19	-34.3	-35.4	19.3	0.00e+00	0	57	0	658505728	39	4018
2026-01-11 03:44:46.39	176.70	30.01	-34.4	-35.4	19.2	0.00e+00	0	57	0	664797184	39	4042
2026-01-11 03:44:47.40	176.81	29.82	-34.3	-35.4	19.1	0.00e+00	0	57	0	673185792	39	4034
2026-01-11 03:44:48.41	176.91	29.64	-34.4	-35.4	19.3	0.00e+00	0	57	0	680525824	39	4038
2026-01-11 03:44:49.42	177.02	29.46	-34.4	-35.5	19.0	0.00e+00	0	57	0	686817280	39	4072
2026-01-11 03:44:50.43	177.12	29.27	-34.5	-35.6	19.1	0.00e+00	0	57	0	694157312	39	4099
2026-01-11 03:44:51.44	177.22	29.09	-34.5	-35.6	19.1	0.00e+00	0	57	0	701497344	39	4116
2026-01-11 03:44:52.45	177.32	28.91	-34.6	-35.7	19.0	0.00e+00	0	57	0	708837376	39	4151
2026-01-11 03:44:53.46	177.42	28.74	-34.6	-35.8	18.9	0.00e+00	0	57	0	716177408	39	4194
2026-01-11 03:44:54.46	177.52	28.56	-34.7	-35.8	18.8	0.00e+00	0	57	0	723517440	39	4241
2026-01-11 03:44:55.47	177.62	28.39	-34.8	-36.0	18.7	0.00e+00	0	57	0	730857472	39	4295
2026-01-11 03:44:56.48	177.72	28.21	-34.9	-36.0	18.7	0.00e+00	0	57	0	738197504	39	4314
2026-01-11 03:44:57.49	177.81	28.04	-35.0	-36.1	18.5	0.00e+00	0	57	0	745537536	39	4384
2026-01-11 03:44:58.50	177.91	27.86	-35.0	-36.2	18.5	0.00e+00	0	58	0	752877568	39	4418
2026-01-11 03:44:59.51	178.00	27.69	-35.2	-36.3	18.4	0.00e+00	0	57	0	760217600	39	4482
2026-01-11 03:45:00.52	178.10	27.52	-35.2	-36.4	18.2	0.00e+00	0	57	0	767557632	40	4247
2026-01-11 03:45:01.53	178.19	27.35	-35.2	-36.4	18.2	0.00e+00	0	57	0	774897664	40	4262
2026-01-11 03:45:02.54	178.28	27.18	-35.2	-36.4	18.2	0.00e+00	0	58	0	782237696	40	4267
2026-01-11 03:45:03.55	178.37	27.01	-35.3	-36.4	18.2	0.00e+00	0	57	0	789577728	40	4281
2026-01-11 03:45:04.56	178.46	26.85	-35.3	-36.5	18.1	0.00e+00	0	57	0	796917760	40	4305
2026-01-11 03:45:05.57	178.55	26.68	-35.3	-36.5	18.1	0.00e+00	0	57	0	804257792	40	4303
2026-01-11 03:45:06.58	178.63	26.52	-35.3	-36.5	18.1	0.00e+00	0	57	0	811597824	40	4330
2026-01-11 03:45:07.59	178.72	26.35	-35.4	-36.5	18.0	0.00e+00	0	57	0	817889280	40	4338
2026-01-11 03:45:08.60	178.81	26.19	-35.3	-36.5	18.1	0.00e+00	0	57	0	826277888	40	4292
2026-01-11 03:45:09.61	178.89	26.03	-35.2	-36.4	18.2	0.00e+00	0	57	0	833617920	40	4262
2026-01-11 03:45:10.62	178.98	25.86	-35.2	-36.4	18.1	0.00e+00	0	57	0	839909376	40	4279
2026-01-11 03:45:11.63	179.06	25.70	-35.2	-36.4	18.1	0.00e+00	0	57	0	847249408	40	4267
2026-01-11 03:45:12.64	179.14	25.54	-35.2	-36.4	18.2	0.00e+00	0	57	0	854589440	40	4244
2026-01-11 03:45:13.65	179.22	25.39	-35.0	-36.2	18.2	0.00e+00	0	57	0	861929472	40	4177
2026-01-11 03:45:14.66	179.31	25.23	-35.1	-36.3	18.2	0.00e+00	0	57	0	869269504	40	4204
2026-01-11 03:45:15.67	179.39	25.07	-35.0	-36.2	18.4	0.00e+00	0	57	0	876609536	40	4164
2026-01-11 03:45:16.67	179.46	24.92	-34.9	-36.1	18.5	0.00e+00	0	58	0	883949568	40	4125
2026-01-11 03:45:17.68	179.54	24.76	-34.9	-36.1	18.4	0.00e+00	0	58	0	891289600	40	4112
2026-01-11 03:45:18.70	179.62	24.61	-34.9	-36.0	18.5	0.00e+00	0	57	0	898629632	40	4092
2026-01-11 03:45:19.71	179.70	24.45	-34.9	-36.0	18.5	0.00e+00	0	57	0	905969664	40	4077
2026-01-11 03:45:20.72	179.78	24.30	-34.9	-36.0	18.5	0.00e+00	0	58	0	913309696	40	4089
2026-01-11 03:45:21.73	179.85	24.15	-34.8	-36.0	18.6	0.00e+00	0	58	0	920649728	40	4061
2026-01-11 03:45:22.74	179.93	24.00	-34.8	-36.0	18.6	0.00e+00	0	57	0	927989760	40	4065
2026-01-11 03:45:23.75	180.00	23.85	-34.8	-36.0	18.6	0.00e+00	0	58	0	935329792	40	4062
2026-01-11 03:45:24.76	180.07	23.70	-34.8	-36.0	18.5	0.00e+00	0	57	0	942669824	40	4060
2026-01-11 03:45:25.77	180.15	23.55	-35.0	-36.1	18.4	0.00e+00	0	57	0	950009856	40	4137
2026-01-11 03:45:26.78	180.22	23.40	-34.8	-35.9	18.6	0.00e+00	0	58	0	957349888	40	4035
2026-01-11 03:45:27.79	180.29	23.25	-34.7	-35.9	18.6	0.00e+00	0	57	0	963641344	40	4012
2026-01-11 03:45:28.80	180.36	23.11	-34.8	-35.9	18.6	0.00e+00	0	57	0	972029952	40	4031
2026-01-11 03:45:29.81	180.43	22.96	-34.8	-36.0	18.6	0.00e+00	0	58	0	979369984	40	4060
2026-01-11 03:45:30.82	180.50	22.82	-34.8	-36.0	18.5	0.00e+00	0	57	0	985661440	40	4064
2026-01-11 03:45:31.83	180.57	22.67	-34.9	-36.0	18.4	0.00e+00	0	58	0	993001472	40	4097
2026-01-11 03:45:32.84	180.64	22.53	-34.9	-36.1	18.4	0.00e+00	0	58	0	1000341504	40	4110
2026-01-11 03:45:33.85	180.71	22.39	-35.0	-36.2	18.3	0.00e+00	0	57	0	1007681536	40	4165
2026-01-11 03:45:34.86	180.78	22.25	-35.2	-36.3	18.1	0.00e+00	0	58	0	1015021568	40	4235
2026-01-11 03:45:35.87	180.84	22.11	-35.3	-36.5	18.0	0.00e+00	0	58	0	1022361600	40	4295
2026-01-11 03:45:36.87	180.91	21.97	-35.4	-36.6	17.8	0.00e+00	0	57	0	1029701632	40	4390
2026-01-11 03:45:37.88	180.98	21.83	-35.4	-36.6	17.9	0.00e+00	0	57	0	1037041664	40	4352
2026-01-11 03:45:38.89	181.04	21.69	-35.4	-36.7	17.8	0.00e+00	0	57	0	1044381696	40	4398
2026-01-11 03:45:39.90	181.11	21.55	-35.5	-36.8	17.6	0.00e+00	0	57	0	1051721728	40	4460
2026-01-11 03:45:40.91	181.17	21.42	-35.5	-36.8	17.7	0.00e+00	0	58	0	1059061760	40	4458
2026-01-11 03:45:41.92	181.23	21.28	-35.5	-36.7	17.7	0.00e+00	0	57	0	1066401792	40	4415
2026-01-11 03:45:42.93	181.30	21.14	-35.5	-36.7	17.7	0.00e+00	0	57	0	1073741824	40	4437
2026-01-11 03:45:43.94	181.36	21.01	-35.5	-36.8	17.7	0.00e+00	0	57	0	1081081856	40	4444
2026-01-11 03:45:44.95	181.42	20.87	-35.5	-36.7	17.7	0.00e+00	0	58	0	1088421888	40	4435
2026-01-11 03:45:45.96	181.48	20.74	-35.5	-36.8	17.6	0.00e+00	0	57	0	1095761920	40	4458
2026-01-11 03:45:46.98	181.54	20.61	-35.5	-36.8	17.6	0.00e+00	0	57	0	1103101952	40	4452
2026-01-11 03:45:47.98	181.60	20.47	-35.5	-36.7	17.6	0.00e+00	0	58	0	1110441984	40	4426
2026-01-11 03:45:48.99	181.66	20.34	-35.4	-36.7	17.6	0.00e+00	0	57	0	1117782016	40	4404
2026-01-11 03:45:50.00	181.72	20.21	-35.3	-36.6	17.6	0.00e+00	0	58	0	1125122048	40	4356
2026-01-11 03:45:51.02	181.78	20.08	-35.3	-36.5	17.6	0.00e+00	0	57	0	1132462080	40	4336
2026-01-11 03:45:52.03	181.84	19.95	-35.3	-36.6	17.5	0.00e+00	0	58	0	1138753536	40	4348
2026-01-11 03:45:53.04	181.90	19.82	-35.3	-36.5	17.6	0.00e+00	0	57	0	1146093568	40	4318
2026-01-11 03:45:54.05	181.96	19.69	-35.3	-36.5	17.6	0.00e+00	0	57	0	1154482176	40	4338
2026-01-11 03:45:55.06	182.02	19.57	-35.2	-36.5	17.6	0.00e+00	0	57	0	1160773632	40	4299
2026-01-11 03:45:56.07	182.07	19.44	-35.3	-36.5	17.6	0.00e+00	0	58	0	1168113664	40	4325
2026-01-11 03:45:57.07	182.13	19.31	-35.3	-36.6	17.6	0.00e+00	0	58	0	1175453696	40	4350
2026-01-11 03:45:58.08	182.18	19.19	-35.3	-36.5	17.8	0.00e+00	0	57	0	1182793728	40	4305
2026-01-11 03:45:59.09	182.24	19.06	-35.3	-36.5	17.8	0.00e+00	0	57	0	1190133760	40	4332
2026-01-11 03:46:00.10	182.29	18.94	-35.4	-36.6	17.8	0.00e+00	0	58	0	1197473792	40	4374
2026-01-11 03:46:01.11	182.35	18.81	-35.5	-36.7	17.7	0.00e+00	0	58	0	1204813824	40	4414
2026-01-11 03:46:02.12	182.40	18.69	-35.5	-36.7	17.7	0.00e+00	0	57	0	1212153856	40	4411
2026-01-11 03:46:03.13	182.46	18.57	-35.4	-36.6	17.8	0.00e+00	0	58	0	1219493888	40	4383
2026-01-11 03:46:04.14	182.51	18.44	-35.5	-36.7	17.7	0.00e+00	0	58	0	1226833920	40	4416
2026-01-11 03:46:05.15	182.56	18.32	-35.6	-36.8	17.7	0.00e+00	0	57	0	1234173952	40	4466
2026-01-11 03:46:06.16	182.62	18.20	-35.7	-36.9	17.5	0.00e+00	0	58	0	1241513984	40	4530
2026-01-11 03:46:07.17	182.67	18.08	-35.7	-36.9	17.5	0.00e+00	0	58	0	1248854016	40	4545
2026-01-11 03:46:08.18	182.72	17.96	-35.7	-36.9	17.5	0.00e+00	0	57	0	1256194048	41	4283
2026-01-11 03:46:09.19	182.77	17.84	-35.7	-36.9	17.5	0.00e+00	0	58	0	1262485504	41	4283
2026-01-11 03:46:10.20	182.82	17.72	-35.7	-37.0	17.4	0.00e+00	0	58	0	1270874112	41	4304
2026-01-11 03:46:11.21	182.87	17.60	-35.8	-37.1	17.3	0.00e+00	0	57	0	1278214144	41	4356
2026-01-11 03:46:12.22	182.92	17.49	-35.9	-37.2	17.2	0.00e+00	0	57	0	1284505600	41	4400
2026-01-11 03:46:13.22	182.97	17.37	-35.9	-37.2	17.2	0.00e+00	0	58	0	1291845632	41	4432
2026-01-11 03:46:14.23	183.02	17.25	-36.0	-37.3	17.1	0.00e+00	0	58	0	1299185664	41	4482
2026-01-11 03:46:15.24	183.07	17.14	-36.1	-37.5	17.0	0.00e+00	0	58	0	1306525696	41	4550
2026-01-11 03:46:16.26	183.12	17.02	-36.3	-37.6	16.8	0.00e+00	0	58	0	1313865728	42	4374
2026-01-11 03:46:17.26	183.17	16.91	-36.2	-37.6	16.9	0.00e+00	0	58	0	1321205760	42	4352
2026-01-11 03:46:18.27	183.22	16.79	-36.3	-37.6	16.8	0.00e+00	0	57	0	1328545792	42	4379
2026-01-11 03:46:19.28	183.27	16.68	-36.2	-37.5	16.9	0.00e+00	0	58	0	1335885824	42	4312
2026-01-11 03:46:20.29	183.31	16.57	-36.1	-37.4	17.0	0.00e+00	0	58	0	1343225856	42	4284
2026-01-11 03:46:21.30	183.36	16.45	-36.1	-37.5	17.0	0.00e+00	0	57	0	1350565888	42	4292
2026-01-11 03:46:22.31	183.41	16.34	-36.1	-37.4	17.0	0.00e+00	0	58	0	1357905920	42	4285
2026-01-11 03:46:23.32	183.45	16.23	-36.2	-37.6	16.9	0.00e+00	0	58	0	1365245952	42	4342
2026-01-11 03:46:24.33	183.50	16.12	-36.3	-37.7	16.7	0.00e+00	0	58	0	1372585984	42	4399
2026-01-11 03:46:25.34	183.55	16.01	-36.3	-37.7	16.7	0.00e+00	0	58	0	1379926016	42	4409
2026-01-11 03:46:26.35	183.59	15.89	-36.3	-37.7	16.7	0.00e+00	0	58	0	1387266048	42	4402
2026-01-11 03:46:27.36	183.64	15.78	-36.5	-37.8	16.6	0.00e+00	0	57	0	1394606080	42	4484
2026-01-11 03:46:28.37	183.68	15.68	-36.5	-37.9	16.6	0.00e+00	0	58	0	1401946112	42	4502
2026-01-11 03:46:29.38	183.73	15.57	-36.5	-37.9	16.5	0.00e+00	0	58	0	1409286144	42	4518
2026-01-11 03:46:30.39	183.77	15.46	-36.3	-37.7	16.8	0.00e+00	0	58	0	1416626176	42	4392
2026-01-11 03:46:31.40	183.82	15.35	-36.3	-37.7	16.7	0.00e+00	0	58	0	1423966208	42	4403
2026-01-11 03:46:32.41	183.86	15.24	-36.3	-37.7	16.7	0.00e+00	0	58	0	1431306240	42	4406
2026-01-11 03:46:33.42	183.90	15.13	-36.4	-37.7	16.6	0.00e+00	0	58	0	1437597696	42	4433
2026-01-11 03:46:34.43	183.95	15.03	-36.4	-37.7	16.6	0.00e+00	0	58	0	1444937728	42	4434
2026-01-11 03:46:35.44	183.99	14.92	-36.5	-37.8	16.6	0.00e+00	0	58	0	1453326336	42	4492
2026-01-11 03:46:36.45	184.03	14.82	-36.5	-37.8	16.5	0.00e+00	0	58	0	1459617792	42	4490
2026-01-11 03:46:37.46	184.07	14.71	-36.5	-37.9	16.5	0.00e+00	0	57	0	1466957824	42	4528
2026-01-11 03:46:38.47	184.12	14.61	-36.6	-37.9	16.4	0.00e+00	0	58	0	1474297856	42	4540
2026-01-11 03:46:39.48	184.16	14.50	-36.6	-37.9	16.4	0.00e+00	0	58	0	1481637888	42	4541
2026-01-11 03:46:40.49	184.20	14.40	-36.5	-37.9	16.4	0.00e+00	0	58	0	1488977920	42	4540
2026-01-11 03:46:41.50	184.24	14.29	-36.5	-37.9	16.4	0.00e+00	0	58	0	1496317952	42	4540
2026-01-11 03:46:42.51	184.28	14.19	-36.5	-37.9	16.5	0.00e+00	0	58	0	1503657984	42	4494
2026-01-11 03:46:43.52	184.32	14.09	-36.5	-37.9	16.5	0.00e+00	0	58	0	1510998016	42	4499
2026-01-11 03:46:44.53	184.36	13.98	-36.5	-37.9	16.4	0.00e+00	0	58	0	1518338048	42	4530
2026-01-11 03:46:45.54	184.40	13.88	-36.5	-37.9	16.4	0.00e+00	0	58	0	1525678080	42	4530
2026-01-11 03:46:46.55	184.44	13.78	-36.6	-38.0	16.4	0.00e+00	0	58	0	1533018112	42	4564
2026-01-11 03:46:47.56	184.48	13.68	-36.6	-38.0	16.3	0.00e+00	0	58	0	1540358144	42	4568
2026-01-11 03:46:48.57	184.52	13.58	-36.7	-38.1	16.2	0.00e+00	0	58	0	1547698176	42	4606
2026-01-11 03:46:49.58	184.56	13.48	-36.7	-38.2	16.1	0.00e+00	0	58	0	1555038208	43	4402
2026-01-11 03:46:50.59	184.60	13.38	-36.9	-38.3	16.0	0.00e+00	0	58	0	1561329664	43	4485
2026-01-11 03:46:51.59	184.64	13.28	-37.0	-38.4	15.8	0.00e+00	0	58	0	1569718272	43	4537
2026-01-11 03:46:52.60	184.68	13.18	-37.0	-38.5	15.8	0.00e+00	0	58	0	1577058304	43	4586
2026-01-11 03:46:53.61	184.72	13.08	-37.1	-38.5	15.7	0.00e+00	0	58	0	1583349760	43	4598
2026-01-11 03:46:54.62	184.75	12.98	-37.1	-38.6	15.7	0.00e+00	0	58	0	1590689792	43	4631
2026-01-11 03:46:55.63	184.79	12.89	-37.2	-38.7	15.6	0.00e+00	0	58	0	1598029824	43	4685
2026-01-11 03:46:56.64	184.83	12.79	-37.4	-38.9	15.5	0.00e+00	0	58	0	1605369856	44	4528
2026-01-11 03:46:57.65	184.87	12.69	-37.2	-38.7	15.8	0.00e+00	0	58	0	1612709888	44	4393
2026-01-11 03:46:58.66	184.90	12.59	-37.3	-38.8	15.6	0.00e+00	0	58	0	1620049920	44	4466
2026-01-11 03:46:59.68	184.94	12.50	-37.3	-38.8	15.6	0.00e+00	0	58	0	1627389952	44	4469
2026-01-11 03:47:00.69	184.98	12.40	-37.1	-38.6	15.8	0.00e+00	0	58	0	1634729984	44	4377
2026-01-11 03:47:01.70	185.01	12.31	-37.1	-38.6	15.8	0.00e+00	0	58	0	1642070016	44	4349
2026-01-11 03:47:02.71	185.05	12.21	-37.1	-38.6	15.8	0.00e+00	0	58	0	1649410048	44	4372
2026-01-11 03:47:03.72	185.09	12.12	-37.2	-38.6	15.7	0.00e+00	0	58	0	1656750080	44	4391
2026-01-11 03:47:04.73	185.12	12.02	-37.2	-38.7	15.7	0.00e+00	0	58	0	1664090112	44	4399
2026-01-11 03:47:05.74	185.16	11.93	-37.2	-38.7	15.6	0.00e+00	0	58	0	1671430144	44	4425
2026-01-11 03:47:06.75	185.19	11.83	-37.3	-38.8	15.6	0.00e+00	0	58	0	1678770176	44	4470
2026-01-11 03:47:07.76	185.23	11.74	-37.3	-38.8	15.5	0.00e+00	0	58	0	1686110208	44	4482
2026-01-11 03:47:08.77	185.26	11.65	-37.4	-38.9	15.4	0.00e+00	0	58	0	1693450240	44	4525
2026-01-11 03:47:09.78	185.30	11.55	-37.5	-39.0	15.3	0.00e+00	0	58	0	1700790272	44	4573
2026-01-11 03:47:10.79	185.33	11.46	-37.6	-39.1	15.2	0.00e+00	0	58	0	1708130304	44	4639
2026-01-11 03:47:11.80	185.37	11.37	-37.7	-39.3	15.0	0.00e+00	0	58	0	1715470336	44	4743
2026-01-11 03:47:12.81	185.40	11.28	-37.6	-39.2	15.1	0.00e+00	0	58	0	1722810368	44	4661
2026-01-11 03:47:13.82	185.44	11.19	-37.7	-39.3	15.0	0.00e+00	0	58	0	1730150400	44	4712
2026-01-11 03:47:14.83	185.47	11.09	-37.8	-39.4	14.9	0.00e+00	0	58	0	1736441856	45	4519
2026-01-11 03:47:15.84	185.50	11.00	-37.9	-39.5	14.8	0.00e+00	0	58	0	1744830464	45	4577
2026-01-11 03:47:16.85	185.54	10.91	-37.9	-39.6	14.7	0.00e+00	0	58	0	1752170496	45	4606
2026-01-11 03:47:17.86	185.57	10.82	-37.9	-39.6	14.7	0.00e+00	0	58	0	1758461952	45	4608
2026-01-11 03:47:18.87	185.60	10.73	-37.9	-39.6	14.7	0.00e+00	0	58	0	1765801984	45	4610
2026-01-11 03:47:19.88	185.64	10.64	-37.9	-39.6	14.6	0.00e+00	0	58	0	1773142016	45	4636
2026-01-11 03:47:20.89	185.67	10.55	-37.9	-39.6	14.6	0.00e+00	0	58	0	1780482048	45	4632
2026-01-11 03:47:21.89	185.70	10.47	-37.8	-39.5	14.8	0.00e+00	0	58	0	1787822080	45	4553
2026-01-11 03:47:22.90	185.73	10.38	-37.8	-39.4	14.8	0.00e+00	0	58	0	1795162112	45	4539
2026-01-11 03:47:23.91	185.76	10.29	-37.8	-39.4	14.8	0.00e+00	0	58	0	1802502144	45	4514
2026-01-11 03:47:24.93	185.80	10.20	-37.8	-39.4	14.8	0.00e+00	0	58	0	1809842176	45	4533
2026-01-11 03:47:25.94	185.83	10.11	-37.8	-39.4	14.9	0.00e+00	0	58	0	1817182208	45	4512
2026-01-11 03:47:26.95	185.86	10.03	-37.7	-39.4	14.9	0.00e+00	0	58	0	1824522240	45	4510
2026-01-11 03:47:27.96	185.89	9.94	-37.8	-39.4	14.8	1.10e-06	0	58	0	1831862272	45	4538
2026-01-11 03:47:28.97	185.92	9.85	-37.8	-39.4	14.8	0.00e+00	0	58	0	1839202304	45	4522
2026-01-11 03:47:29.97	185.95	9.77	-37.7	-39.3	14.9	0.00e+00	0	58	0	1846542336	45	4465
2026-01-11 03:47:30.98	185.98	9.68	-37.7	-39.4	14.8	0.00e+00	0	58	0	1853882368	45	4510
2026-01-11 03:47:31.99	186.02	9.59	-37.7	-39.4	14.8	0.00e+00	0	58	0	1861222400	45	4510
2026-01-11 03:47:33.01	186.05	9.51	-37.7	-39.4	14.8	0.00e+00	0	58	0	1868562432	45	4504
2026-01-11 03:47:34.01	186.08	9.42	-37.8	-39.4	14.7	1.10e-06	0	58	0	1875902464	45	4521
2026-01-11 03:47:35.03	186.11	9.34	-37.9	-39.6	14.6	0.00e+00	0	58	0	1882193920	45	4599
2026-01-11 03:47:36.04	186.14	9.25	-37.8	-39.5	14.6	0.00e+00	0	58	0	1889533952	45	4585
2026-01-11 03:47:37.05	186.17	9.17	-37.9	-39.7	14.4	0.00e+00	0	58	0	1897922560	45	4658
2026-01-11 03:47:38.05	186.20	9.09	-37.8	-39.5	14.6	0.00e+00	0	58	0	1904214016	45	4581
2026-01-11 03:47:39.06	186.23	9.00	-37.9	-39.6	14.5	0.00e+00	0	58	0	1911554048	45	4623
2026-01-11 03:47:40.07	186.26	8.92	-37.8	-39.5	14.6	0.00e+00	0	58	0	1918894080	45	4579
2026-01-11 03:47:41.08	186.29	8.83	-37.8	-39.5	14.6	0.00e+00	0	58	0	1926234112	45	4583
2026-01-11 03:47:42.09	186.31	8.75	-37.8	-39.5	14.6	2.20e-06	0	58	0	1933574144	45	4567
2026-01-11 03:47:43.11	186.34	8.67	-37.8	-39.5	14.6	0.00e+00	0	58	0	1940914176	45	4547
2026-01-11 03:47:44.12	186.37	8.59	-37.9	-39.6	14.5	1.10e-06	0	58	0	1948254208	45	4625
2026-01-11 03:47:45.13	186.40	8.50	-37.9	-39.6	14.4	0.00e+00	0	58	0	1955594240	45	4644
2026-01-11 03:47:46.14	186.43	8.42	-37.8	-39.5	14.5	1.10e-06	0	58	0	1962934272	45	4592
2026-01-11 03:47:47.15	186.46	8.34	-37.9	-39.6	14.4	0.00e+00	0	58	0	1970274304	45	4649
2026-01-11 03:47:48.16	186.49	8.26	-38.1	-39.9	14.1	1.10e-06	0	58	0	1977614336	45	4773
2026-01-11 03:47:49.17	186.52	8.18	-37.9	-39.6	14.4	1.10e-06	0	58	0	1984954368	45	4645
2026-01-11 03:47:50.18	186.54	8.10	-38.0	-39.8	14.2	4.50e-06	0	58	0	1992294400	45	4743
2026-01-11 03:47:51.19	186.57	8.02	-38.0	-39.8	14.2	0.00e+00	0	58	0	1999634432	45	4714
2026-01-11 03:47:52.20	186.60	7.94	-44.8	-55.6	3.8	8.38e-01	0	58	104	2003828736	59	13033
2026-01-11 03:47:53.21	186.63	7.86	-45.1	-55.8	3.8	8.48e-01	0	58	104	2003828736	59	13371
2026-01-11 03:47:54.22	186.65	7.78	-45.2	-56.2	3.8	8.46e-01	0	58	104	2003828736	60	13246
2026-01-11 03:47:55.23	186.68	7.70	-45.3	-56.4	3.8	8.47e-01	0	58	104	2003828736	60	13448
2026-01-11 03:47:56.24	186.71	7.62	-45.4	-56.5	3.8	8.46e-01	0	58	104	2003828736	60	13581
2026-01-11 03:47:57.25	186.74	7.54	-45.4	-56.5	3.8	8.46e-01	0	58	104	2003828736	60	13674
2026-01-11 03:47:58.26	186.76	7.46	-45.5	-56.6	3.8	8.46e-01	0	58	104	2003828736	60	13735
2026-01-11 03:47:59.27	186.79	7.38	-45.5	-56.6	3.8	8.47e-01	0	58	104	2003828736	60	13734
2026-01-11 03:48:00.28	186.82	7.30	-45.6	-56.7	3.8	8.47e-01	0	58	104	2003828736	60	13912
2026-01-11 03:48:01.29	186.84	7.22	-45.5	-56.5	3.8	8.46e-01	0	58	104	2003828736	60	13698
2026-01-11 03:48:02.30	186.87	7.14	-45.4	-56.5	3.8	8.46e-01	0	58	104	2003828736	60	13673
2026-01-11 03:48:03.31	186.90	7.07	-45.4	-56.5	3.8	8.46e-01	0	58	104	2003828736	60	13644
2026-01-11 03:48:04.33	186.92	6.99	-45.4	-56.5	3.8	8.47e-01	0	58	104	2003828736	60	13634
2026-01-11 03:48:05.34	186.95	6.91	-45.4	-56.5	3.8	8.47e-01	0	58	104	2003828736	60	13613
2026-01-11 03:48:06.35	186.97	6.83	-45.4	-56.4	3.8	8.47e-01	0	58	104	2003828736	60	13476
2026-01-11 03:48:07.36	187.00	6.76	-45.4	-56.4	3.8	8.47e-01	0	58	104	2003828736	60	13512
2026-01-11 03:48:08.37	187.03	6.68	-45.4	-56.4	3.8	8.47e-01	0	58	104	2003828736	60	13477
2026-01-11 03:48:09.38	187.05	6.60	-45.4	-56.4	3.8	8.46e-01	0	58	104	2003828736	60	13492
2026-01-11 03:48:10.39	187.08	6.53	-45.4	-56.3	3.8	8.47e-01	0	58	104	2003828736	60	13398
2026-01-11 03:48:11.40	187.10	6.45	-45.4	-56.4	3.8	8.46e-01	0	58	104	2003828736	60	13490
2026-01-11 03:48:12.41	187.13	6.38	-45.4	-56.4	3.8	8.46e-01	0	58	104	2003828736	60	13419
2026-01-11 03:48:13.43	187.15	6.30	-45.4	-56.4	3.8	8.46e-01	0	58	104	2003828736	60	13435
2026-01-11 03:48:14.44	187.18	6.23	-45.3	-56.4	3.8	8.46e-01	0	58	104	2003828736	60	13439
2026-01-11 03:48:15.45	187.20	6.15	-45.3	-56.4	3.8	8.46e-01	0	58	104	2003828736	60	13457
2026-01-11 03:48:16.46	187.23	6.08	-45.3	-56.4	3.8	8.47e-01	0	58	104	2003828736	60	13427
2026-01-11 03:48:17.47	187.25	6.00	-45.3	-56.4	3.8	8.46e-01	0	58	104	2003828736	60	13428
2026-01-11 03:48:18.48	187.28	5.93	-45.3	-56.3	3.8	8.46e-01	0	58	104	2003828736	60	13388
2026-01-11 03:48:19.49	187.30	5.85	-45.3	-56.3	3.8	8.47e-01	0	58	104	2003828736	60	13397
2026-01-11 03:48:20.50	187.33	5.78	-45.3	-56.3	3.8	8.47e-01	0	58	104	2003828736	60	13403
2026-01-11 03:48:21.51	187.35	5.70	-45.3	-56.4	3.8	8.46e-01	0	58	104	2003828736	60	13416
2026-01-11 03:48:22.52	187.37	5.63	-45.3	-56.3	3.8	8.47e-01	0	58	104	2003828736	60	13386
2026-01-11 03:48:23.53	187.40	5.56	-45.3	-56.3	3.8	8.46e-01	0	58	104	2003828736	60	13358
2026-01-11 03:48:24.54	187.42	5.48	-45.3	-56.3	3.8	8.47e-01	0	58	104	2003828736	60	13385
2026-01-11 03:48:25.55	187.45	5.41	-45.3	-56.3	3.8	8.46e-01	0	58	104	2003828736	60	13309
2026-01-11 03:48:26.57	187.47	5.34	-45.3	-56.3	3.8	8.44e-01	0	58	104	2003828736	60	13381
2026-01-11 03:48:27.58	187.49	5.26	-45.3	-56.3	3.8	8.47e-01	0	58	104	2003828736	60	13370
2026-01-11 03:48:28.59	187.52	5.19	-45.3	-56.4	3.8	8.46e-01	0	58	104	2003828736	60	13436
2026-01-11 03:48:29.60	187.54	5.12	-45.3	-56.3	3.8	8.46e-01	0	58	104	2003828736	60	13355
2026-01-11 03:48:30.61	187.56	5.05	-45.3	-56.3	3.8	8.47e-01	0	58	104	2003828736	60	13391
2026-01-11 03:48:31.62	187.59	4.98	-45.3	-56.3	3.8	8.46e-01	0	58	104	2003828736	60	13385
2026-01-11 03:48:32.63	187.61	4.90	-45.3	-56.3	3.8	8.46e-01	0	58	104	2003828736	60	13339
2026-01-11 03:48:33.64	187.63	4.83	-45.3	-56.3	3.8	8.46e-01	0	58	104	2003828736	60	13347
2026-01-11 03:48:34.65	187.65	4.76	-45.3	-56.3	3.8	8.46e-01	0	58	104	2003828736	60	13342
2026-01-11 03:48:35.66	187.68	4.69	-45.3	-56.3	3.8	8.47e-01	0	58	104	2003828736	60	13304
2026-01-11 03:48:36.68	187.70	4.62	-45.3	-56.3	3.8	8.46e-01	0	58	104	2003828736	60	13335
2026-01-11 03:48:37.69	187.72	4.55	-45.3	-56.3	3.8	8.46e-01	0	58	104	2003828736	60	13317
2026-01-11 03:48:38.70	187.75	4.48	-45.3	-56.3	3.8	8.46e-01	0	58	104	2003828736	60	13362
2026-01-11 03:48:39.71	187.77	4.41	-45.3	-56.3	3.8	8.46e-01	0	58	104	2003828736	60	13330
2026-01-11 03:48:40.72	187.79	4.34	-45.3	-56.3	3.8	8.46e-01	0	58	104	2003828736	60	13393
2026-01-11 03:48:41.73	187.81	4.27	-45.3	-56.3	3.8	8.46e-01	0	58	104	2003828736	60	13346
2026-01-11 03:48:42.74	187.83	4.20	-45.3	-56.3	3.8	8.46e-01	0	58	104	2003828736	60	13363
2026-01-11 03:48:43.75	187.86	4.13	-45.3	-56.3	3.8	8.46e-01	0	58	104	2003828736	60	13355
2026-01-11 03:48:44.76	187.88	4.06	-45.3	-56.3	3.8	8.46e-01	0	58	104	2003828736	60	13367
2026-01-11 03:48:45.77	187.90	3.99	-45.3	-56.3	3.8	8.46e-01	0	58	104	2003828736	60	13289
2026-01-11 03:48:46.78	187.92	3.92	-45.3	-56.3	3.8	8.46e-01	0	58	104	2003828736	60	13316
2026-01-11 03:48:47.79	187.94	3.85	-45.3	-56.3	3.8	8.47e-01	0	58	104	2003828736	60	13279
2026-01-11 03:48:48.80	187.96	3.78	-45.3	-56.3	3.8	8.47e-01	0	58	104	2003828736	60	13282
2026-01-11 03:48:49.81	187.99	3.71	-45.3	-56.3	3.8	8.47e-01	0	58	104	2003828736	60	13353
2026-01-11 03:48:50.82	188.01	3.65	-45.3	-56.3	3.8	8.46e-01	0	58	104	2003828736	60	13285
2026-01-11 03:48:51.83	188.03	3.58	-45.3	-56.3	3.8	8.46e-01	0	58	104	2003828736	60	13286
2026-01-11 03:48:52.84	188.05	3.51	-45.3	-56.3	3.8	8.46e-01	0	58	104	2003828736	60	13305
2026-01-11 03:48:53.85	188.07	3.44	-45.3	-56.3	3.8	8.46e-01	0	58	104	2003828736	60	13325
2026-01-11 03:48:54.86	188.09	3.37	-45.3	-56.3	3.8	8.45e-01	0	58	104	2003828736	60	13282
2026-01-11 03:48:55.87	188.11	3.31	-45.3	-56.3	3.8	8.46e-01	0	58	104	2003828736	60	13311
2026-01-11 03:48:56.88	188.13	3.24	-45.3	-56.3	3.8	8.46e-01	0	58	104	2003828736	60	13318
2026-01-11 03:48:57.89	188.15	3.17	-45.3	-56.3	3.8	8.47e-01	0	58	104	2003828736	60	13307
2026-01-11 03:48:58.90	188.18	3.11	-45.3	-56.3	3.8	8.48e-01	0	58	104	2003828736	60	13338
2026-01-11 03:48:59.91	188.20	3.04	-45.3	-56.3	3.8	8.46e-01	0	58	104	2003828736	60	13321
2026-01-11 03:49:00.92	188.22	2.97	-45.2	-56.3	3.8	8.46e-01	0	58	104	2003828736	60	13262
2026-01-11 03:49:01.94	188.24	2.90	-45.2	-56.3	3.8	8.47e-01	0	58	104	2003828736	60	13282
2026-01-11 03:49:02.95	188.26	2.84	-45.3	-56.3	3.8	8.47e-01	0	58	104	2003828736	60	13311
2026-01-11 03:49:03.96	188.28	2.77	-45.0	-56.1	3.8	8.45e-01	0	58	104	2003828736	60	13046
2026-01-11 03:49:04.97	188.30	2.71	-45.3	-56.3	3.8	8.47e-01	0	58	104	2003828736	60	13331
2026-01-11 03:49:05.98	188.32	2.64	-45.3	-56.3	3.8	8.46e-01	0	58	104	2003828736	60	13282
2026-01-11 03:49:06.99	188.34	2.57	-45.3	-56.2	3.8	8.46e-01	0	58	104	2003828736	60	13242
2026-01-11 03:49:08.00	188.36	2.51	-45.3	-56.3	3.8	8.46e-01	0	58	104	2003828736	60	13347
2026-01-11 03:49:09.01	188.38	2.44	-45.3	-56.3	3.8	8.46e-01	0	58	104	2003828736	60	13285
2026-01-11 03:49:10.02	188.40	2.38	-45.3	-56.2	3.8	8.47e-01	0	58	104	2003828736	60	13254
2026-01-11 03:49:11.03	188.42	2.31	-45.3	-56.2	3.8	8.46e-01	0	58	104	2003828736	60	13258
2026-01-11 03:49:12.04	188.44	2.25	-45.3	-56.3	3.8	8.46e-01	0	58	104	2003828736	60	13292
2026-01-11 03:49:13.05	188.46	2.18	-45.3	-56.3	3.8	8.45e-01	0	58	104	2003828736	60	13346
2026-01-11 03:49:14.06	188.48	2.12	-45.3	-56.3	3.8	8.46e-01	0	58	104	2003828736	60	13309
2026-01-11 03:49:15.07	188.50	2.05	-45.3	-56.3	3.8	8.46e-01	0	58	104	2003828736	60	13296
2026-01-11 03:49:16.08	188.52	1.99	-45.3	-56.2	3.8	8.46e-01	0	58	104	2003828736	60	13234

#Closed at: 2026-01-11 03:49:16
#Recorded file [2003 MB]: D:/lorett/data/31039_260111_064223.dat