passes_logs/2026/01/11/R2.0S_Moscow/R2.0S_Moscow__20260111_011024_NOAA_20_JPSS-1_rec.log

#Pass ID: 20260111_011024_NOAA 20 (JPSS-1)
#Satellite: NOAA 20 (JPSS-1)
#Configuration: NOAA 20
#almurnet v.1.7.20251203
#Start time: 2026-01-11 01:10:26

#Version: 2.2.20231116
#Station: R2.0S_Moscow
#Location: 37.707566 lon 55.798166 lat
#TLE: 1 43013U 17073A   26009.69119415  .00000109  00000+0  72598-4 0  9996
#TLE: 2 43013  98.7631 310.6868 0001678  46.7442 313.3874 14.19534878421981

#Time	Az	El	Level	Level2	SNR	BER	BlckErr	Temp	State	Recorded	gain1	gain2
2026-01-11 01:10:26.67	10.63	2.10	-39.8	-54.3	3.8	1.49e+00	0	47	0	0	51	18863
2026-01-11 01:10:27.67	10.57	2.16	-39.8	-54.3	3.8	1.49e+00	0	47	104	0	51	18844
2026-01-11 01:10:28.68	10.51	2.22	-39.8	-54.3	3.8	1.49e+00	0	47	104	0	51	18808
2026-01-11 01:10:29.69	10.45	2.28	-39.8	-54.3	3.8	1.49e+00	0	48	104	0	51	18852
2026-01-11 01:10:30.70	10.39	2.34	-39.8	-54.3	3.8	1.49e+00	0	47	104	0	51	18807
2026-01-11 01:10:31.71	10.33	2.40	-39.8	-54.3	3.8	1.49e+00	0	47	104	0	51	18823
2026-01-11 01:10:32.72	10.27	2.46	-39.8	-54.3	3.8	1.49e+00	0	47	104	0	51	18762
2026-01-11 01:10:33.73	10.21	2.52	-39.8	-54.3	3.8	1.49e+00	0	48	104	0	51	18794
2026-01-11 01:10:34.74	10.15	2.57	-39.8	-54.3	3.8	1.49e+00	0	48	104	0	51	18797
2026-01-11 01:10:35.76	10.09	2.63	-39.8	-54.3	3.8	1.49e+00	0	48	104	0	51	18854
2026-01-11 01:10:36.77	10.02	2.69	-39.8	-54.3	3.8	1.49e+00	0	48	104	0	51	18771
2026-01-11 01:10:37.78	9.96	2.75	-39.8	-54.3	3.8	1.49e+00	0	48	104	0	51	18806
2026-01-11 01:10:38.79	9.90	2.81	-39.8	-54.3	3.8	1.49e+00	0	48	104	0	51	18807
2026-01-11 01:10:39.80	9.84	2.87	-39.8	-54.3	3.8	1.49e+00	0	48	104	0	51	18828
2026-01-11 01:10:40.81	9.78	2.93	-39.8	-54.3	3.8	1.49e+00	0	48	104	0	51	18788
2026-01-11 01:10:41.82	9.71	2.99	-39.8	-54.3	3.8	1.49e+00	0	48	104	0	51	18846
2026-01-11 01:10:42.83	9.65	3.05	-39.8	-54.3	3.8	1.49e+00	0	48	104	0	51	18804
2026-01-11 01:10:43.85	9.59	3.11	-39.8	-54.3	3.8	1.49e+00	0	48	104	0	51	18803
2026-01-11 01:10:44.86	9.52	3.17	-39.8	-54.3	3.8	1.49e+00	0	48	104	0	51	18835
2026-01-11 01:10:45.87	9.46	3.23	-39.8	-54.3	3.8	1.49e+00	0	49	104	0	51	18819
2026-01-11 01:10:46.88	9.39	3.29	-39.8	-54.3	3.8	1.49e+00	0	49	104	0	51	18829
2026-01-11 01:10:47.89	9.33	3.35	-39.8	-54.3	3.8	1.49e+00	0	49	104	0	51	18777
2026-01-11 01:10:48.90	9.27	3.41	-39.8	-54.3	3.8	1.49e+00	0	49	104	0	51	18761
2026-01-11 01:10:49.91	9.20	3.47	-39.8	-54.3	3.8	1.49e+00	0	49	104	0	51	18749
2026-01-11 01:10:50.92	9.14	3.53	-39.8	-54.3	3.8	1.49e+00	0	49	104	0	51	18811
2026-01-11 01:10:51.93	9.07	3.60	-39.8	-54.3	3.8	1.49e+00	0	49	104	0	51	18804
2026-01-11 01:10:52.94	9.00	3.66	-39.8	-54.3	3.8	1.49e+00	0	49	104	0	51	18807
2026-01-11 01:10:53.95	8.94	3.72	-39.8	-54.3	3.8	1.49e+00	0	49	104	0	51	18876
2026-01-11 01:10:54.97	8.87	3.78	-39.8	-54.3	3.8	1.49e+00	0	49	104	0	51	18831
2026-01-11 01:10:55.98	8.80	3.84	-39.8	-54.3	3.8	1.49e+00	0	49	104	0	51	18843
2026-01-11 01:10:56.99	8.74	3.90	-39.8	-54.3	3.8	1.49e+00	0	49	104	0	51	18767
2026-01-11 01:10:58.00	8.67	3.96	-39.8	-54.3	3.8	1.49e+00	0	49	104	0	51	18759
2026-01-11 01:10:59.01	8.60	4.02	-39.8	-54.3	3.8	1.49e+00	0	49	104	0	51	18771
2026-01-11 01:11:00.02	8.53	4.09	-39.8	-54.3	3.8	1.49e+00	0	49	104	0	51	18794
2026-01-11 01:11:01.03	8.47	4.15	-39.8	-54.3	3.8	1.49e+00	0	49	104	0	51	18783
2026-01-11 01:11:02.04	8.40	4.21	-39.8	-54.3	3.8	1.49e+00	0	49	104	0	51	18836
2026-01-11 01:11:03.05	8.33	4.27	-39.8	-54.3	3.8	1.49e+00	0	50	104	0	51	18802
2026-01-11 01:11:04.07	8.26	4.33	-39.8	-54.3	3.8	1.49e+00	0	50	104	0	51	18750
2026-01-11 01:11:05.08	8.19	4.40	-39.8	-54.3	3.8	1.49e+00	0	50	104	0	51	18769
2026-01-11 01:11:06.09	8.12	4.46	-39.8	-54.3	3.8	1.49e+00	0	50	104	0	51	18795
2026-01-11 01:11:07.10	8.05	4.52	-39.8	-54.3	3.8	1.49e+00	0	50	104	0	51	18795
2026-01-11 01:11:08.11	7.98	4.58	-39.8	-54.3	3.8	1.49e+00	0	50	104	0	51	18764
2026-01-11 01:11:09.12	7.91	4.64	-39.8	-54.3	3.8	1.49e+00	0	50	104	0	51	18817
2026-01-11 01:11:10.13	7.84	4.71	-39.8	-54.3	3.8	1.49e+00	0	50	104	0	51	18794
2026-01-11 01:11:11.15	7.76	4.77	-39.8	-54.3	3.8	1.49e+00	0	50	104	0	51	18792
2026-01-11 01:11:12.16	7.69	4.83	-39.8	-54.3	3.8	1.49e+00	0	50	104	0	51	18837
2026-01-11 01:11:13.17	7.62	4.90	-39.8	-54.3	3.8	1.49e+00	0	50	104	0	51	18784
2026-01-11 01:11:14.18	7.55	4.96	-39.8	-54.3	3.8	1.49e+00	0	50	104	0	51	18764
2026-01-11 01:11:15.19	7.48	5.02	-39.8	-54.3	3.8	1.49e+00	0	50	104	0	51	18858
2026-01-11 01:11:16.20	7.40	5.09	-39.8	-54.3	3.8	1.49e+00	0	50	104	0	51	18754
2026-01-11 01:11:17.21	7.33	5.15	-39.8	-54.3	3.8	1.49e+00	0	50	104	0	51	18813
2026-01-11 01:11:18.22	7.26	5.21	-39.8	-54.3	3.8	1.49e+00	0	50	104	0	51	18804
2026-01-11 01:11:19.23	7.18	5.28	-39.8	-54.3	3.8	1.49e+00	0	50	104	0	51	18782
2026-01-11 01:11:20.25	7.11	5.34	-39.8	-54.3	3.8	1.49e+00	0	50	104	0	51	18796
2026-01-11 01:11:21.26	7.03	5.40	-39.8	-54.3	3.8	1.49e+00	0	50	104	0	51	18799
2026-01-11 01:11:22.27	6.96	5.47	-39.8	-54.3	3.8	1.49e+00	0	51	104	0	51	18780
2026-01-11 01:11:23.28	6.88	5.53	-39.8	-54.3	3.8	1.49e+00	0	50	104	0	51	18818
2026-01-11 01:11:24.29	6.81	5.60	-39.8	-54.3	3.8	1.49e+00	0	51	104	0	51	18806
2026-01-11 01:11:25.30	6.73	5.66	-39.8	-54.3	3.8	1.49e+00	0	51	104	0	51	18771
2026-01-11 01:11:26.31	6.65	5.72	-39.8	-54.3	3.8	1.49e+00	0	51	104	0	51	18794
2026-01-11 01:11:27.32	6.58	5.79	-39.8	-54.3	3.8	1.49e+00	0	51	104	0	51	18777
2026-01-11 01:11:28.33	6.50	5.85	-39.8	-54.3	3.8	1.49e+00	0	51	104	0	51	18821
2026-01-11 01:11:29.34	6.42	5.92	-39.8	-54.3	3.8	1.49e+00	0	51	104	0	51	18783
2026-01-11 01:11:30.36	6.34	5.98	-39.8	-54.3	3.8	1.49e+00	0	51	104	0	51	18846
2026-01-11 01:11:31.37	6.26	6.05	-39.8	-54.3	3.8	1.49e+00	0	51	104	0	51	18814
2026-01-11 01:11:32.38	6.19	6.11	-39.8	-54.3	3.8	1.49e+00	0	51	104	0	51	18817
2026-01-11 01:11:33.39	6.11	6.18	-39.8	-54.3	3.8	1.49e+00	0	51	104	0	51	18804
2026-01-11 01:11:34.40	6.03	6.24	-39.8	-54.3	3.8	1.49e+00	0	51	104	0	51	18777
2026-01-11 01:11:35.41	5.95	6.31	-39.8	-54.3	3.8	1.49e+00	0	51	104	0	51	18798
2026-01-11 01:11:36.42	5.87	6.37	-39.8	-54.3	3.8	1.49e+00	0	51	104	0	51	18749
2026-01-11 01:11:37.43	5.79	6.44	-39.8	-54.3	3.8	1.49e+00	0	51	104	0	51	18790
2026-01-11 01:11:38.44	5.71	6.50	-39.8	-54.3	3.8	1.49e+00	0	51	104	0	51	18803
2026-01-11 01:11:39.45	5.63	6.57	-39.8	-54.3	3.8	1.49e+00	0	51	104	0	51	18802
2026-01-11 01:11:40.47	5.54	6.64	-39.8	-54.3	3.8	1.49e+00	0	51	104	0	51	18738
2026-01-11 01:11:41.48	5.46	6.70	-39.8	-54.3	3.8	1.49e+00	0	51	104	0	51	18795
2026-01-11 01:11:42.49	5.38	6.77	-39.8	-54.3	3.8	1.49e+00	0	51	104	0	51	18838
2026-01-11 01:11:43.50	5.30	6.83	-39.8	-54.3	3.8	1.49e+00	0	51	104	0	51	18758
2026-01-11 01:11:44.51	5.21	6.90	-39.8	-54.3	3.8	1.49e+00	0	52	104	0	51	18816
2026-01-11 01:11:45.52	5.13	6.97	-39.8	-54.3	3.8	1.49e+00	0	52	104	0	51	18797
2026-01-11 01:11:46.53	5.04	7.03	-39.8	-54.3	3.8	1.49e+00	0	52	104	0	51	18792
2026-01-11 01:11:47.54	4.96	7.10	-39.8	-54.3	3.8	1.49e+00	0	52	104	0	51	18794
2026-01-11 01:11:48.55	4.88	7.17	-39.8	-54.3	3.8	1.49e+00	0	51	104	0	51	18750
2026-01-11 01:11:49.56	4.79	7.23	-39.8	-54.3	3.8	1.49e+00	0	52	104	0	51	18809
2026-01-11 01:11:50.58	4.70	7.30	-39.8	-54.3	3.8	1.49e+00	0	52	104	0	51	18793
2026-01-11 01:11:51.58	4.62	7.37	-39.8	-54.3	3.8	1.49e+00	0	52	104	0	51	18792
2026-01-11 01:11:52.60	4.53	7.43	-39.8	-54.3	3.8	1.49e+00	0	52	104	0	51	18760
2026-01-11 01:11:53.61	4.44	7.50	-39.8	-54.3	3.8	1.49e+00	0	52	104	0	51	18770
2026-01-11 01:11:54.62	4.36	7.57	-39.8	-54.3	3.8	1.49e+00	0	52	104	0	51	18810
2026-01-11 01:11:55.63	4.27	7.64	-39.8	-54.3	3.8	1.49e+00	0	52	104	0	51	18762
2026-01-11 01:11:56.64	4.18	7.70	-39.8	-54.3	3.8	1.49e+00	0	52	104	0	51	18798
2026-01-11 01:11:57.65	4.09	7.77	-39.8	-54.3	3.8	1.49e+00	0	52	104	0	51	18765
2026-01-11 01:11:58.66	4.00	7.84	-39.8	-54.3	3.8	1.49e+00	0	52	104	0	51	18790
2026-01-11 01:11:59.67	3.91	7.91	-39.8	-54.3	3.8	1.49e+00	0	52	104	0	51	18810
2026-01-11 01:12:00.69	3.82	7.98	-39.8	-54.3	3.8	1.49e+00	0	52	104	0	51	18790
2026-01-11 01:12:01.70	3.73	8.04	-39.8	-54.3	3.8	1.49e+00	0	52	104	0	51	18810
2026-01-11 01:12:02.71	3.64	8.11	-39.9	-54.4	3.8	1.49e+00	0	52	104	0	51	18973
2026-01-11 01:12:03.72	3.55	8.18	-39.8	-54.3	3.8	1.49e+00	0	52	104	0	51	18872
2026-01-11 01:12:04.72	3.46	8.25	-39.9	-54.4	3.8	1.49e+00	0	52	104	0	51	18955
2026-01-11 01:12:05.73	3.37	8.32	-39.9	-54.4	3.8	1.49e+00	0	52	104	0	51	19013
2026-01-11 01:12:06.74	3.28	8.39	-39.8	-54.3	3.8	1.49e+00	0	52	104	0	51	18909
2026-01-11 01:12:07.76	3.18	8.46	-39.9	-54.4	3.8	1.49e+00	0	52	104	0	51	19004
2026-01-11 01:12:08.76	3.09	8.52	-39.8	-54.3	3.8	1.49e+00	0	53	104	0	51	18846
2026-01-11 01:12:09.77	3.00	8.59	-39.8	-54.3	3.8	1.49e+00	0	52	104	0	51	18846
2026-01-11 01:12:10.79	2.90	8.66	-39.8	-54.3	3.8	1.49e+00	0	53	104	0	51	18925
2026-01-11 01:12:11.80	2.81	8.73	-39.8	-54.4	3.8	1.49e+00	0	52	104	0	51	18950
2026-01-11 01:12:12.81	2.71	8.80	-39.8	-54.3	3.8	1.49e+00	0	52	104	0	51	18910
2026-01-11 01:12:13.82	2.61	8.87	-39.9	-54.4	3.8	1.49e+00	0	53	104	0	51	19087
2026-01-11 01:12:14.83	2.52	8.94	-39.8	-54.3	3.8	1.49e+00	0	52	104	0	51	18804
2026-01-11 01:12:15.84	2.42	9.01	-39.8	-54.4	3.8	1.49e+00	0	53	104	0	51	19052
2026-01-11 01:12:16.84	2.32	9.08	-39.8	-54.3	3.8	1.49e+00	0	53	104	0	51	18816
2026-01-11 01:12:17.85	2.23	9.15	-39.8	-54.4	3.8	1.49e+00	0	53	104	0	51	19013
2026-01-11 01:12:18.86	2.13	9.22	-39.7	-54.3	3.8	1.49e+00	0	53	104	0	51	18805
2026-01-11 01:12:19.87	2.03	9.29	-39.8	-54.4	3.8	1.49e+00	0	53	104	0	51	19018
2026-01-11 01:12:20.88	1.93	9.36	-39.7	-54.3	3.8	1.49e+00	0	53	104	0	51	18817
2026-01-11 01:12:21.89	1.83	9.43	-39.8	-54.4	3.8	1.49e+00	0	53	104	0	51	19056
2026-01-11 01:12:22.90	1.73	9.50	-39.8	-54.4	3.8	1.49e+00	0	53	104	0	51	19005
2026-01-11 01:12:23.91	1.63	9.57	-39.8	-54.4	3.8	1.49e+00	0	53	104	0	51	19085
2026-01-11 01:12:24.92	1.53	9.64	-39.7	-54.4	3.8	1.49e+00	0	53	104	0	51	18952
2026-01-11 01:12:25.93	1.43	9.71	-39.7	-54.4	3.8	1.49e+00	0	53	104	0	51	18968
2026-01-11 01:12:26.95	1.32	9.79	-39.7	-54.3	3.8	1.49e+00	0	53	104	0	51	18897
2026-01-11 01:12:27.96	1.22	9.86	-39.7	-54.4	3.8	1.49e+00	0	53	104	0	51	18970
2026-01-11 01:12:28.97	1.12	9.93	-39.7	-54.3	3.8	1.49e+00	0	53	104	0	51	18945
2026-01-11 01:12:29.98	1.01	10.00	-39.9	-54.5	3.8	1.49e+00	0	53	104	0	51	19170
2026-01-11 01:12:30.99	0.91	10.07	-39.6	-54.3	3.8	1.49e+00	0	53	104	0	51	18834
2026-01-11 01:12:31.99	0.81	10.14	-39.9	-54.5	3.8	1.49e+00	0	53	104	0	51	19207
2026-01-11 01:12:33.00	0.70	10.21	-39.6	-54.3	3.8	1.49e+00	0	53	104	0	51	18801
2026-01-11 01:12:34.01	0.59	10.29	-39.9	-54.5	3.8	1.49e+00	0	53	104	0	51	19227
2026-01-11 01:12:35.02	0.49	10.36	-39.7	-54.3	3.8	1.49e+00	0	53	104	0	51	18900
2026-01-11 01:12:36.03	0.38	10.43	-39.9	-54.5	3.8	1.49e+00	0	53	104	0	51	19289
2026-01-11 01:12:37.04	0.27	10.50	-39.7	-54.3	3.8	1.49e+00	0	53	104	0	51	18909
2026-01-11 01:12:38.05	0.17	10.57	-40.1	-54.6	3.8	1.49e+00	0	53	104	0	51	19582
2026-01-11 01:12:39.06	0.06	10.65	-39.6	-54.3	3.8	1.49e+00	0	53	104	0	51	18847
2026-01-11 01:12:40.07	359.95	10.72	-40.1	-54.7	3.8	1.49e+00	0	53	104	0	51	19698
2026-01-11 01:12:41.08	359.84	10.79	-39.5	-54.3	3.8	1.49e+00	0	53	104	0	51	18853
2026-01-11 01:12:42.09	359.73	10.86	-39.8	-54.6	3.8	1.49e+00	0	53	104	0	51	19442
2026-01-11 01:12:43.10	359.62	10.94	-39.8	-54.4	3.8	1.49e+00	0	53	104	0	51	19069
2026-01-11 01:12:44.11	359.51	11.01	-39.8	-54.6	3.8	1.49e+00	0	53	104	0	51	19486
2026-01-11 01:12:45.12	359.39	11.08	-39.9	-54.4	3.8	1.49e+00	0	53	104	0	51	19127
2026-01-11 01:12:46.13	359.28	11.16	-40.2	-54.7	3.8	1.49e+00	0	53	104	0	51	19841
2026-01-11 01:12:47.14	359.17	11.23	-39.4	-54.3	3.8	1.49e+00	0	53	104	0	50	19993
2026-01-11 01:12:48.15	359.05	11.30	-40.2	-54.8	3.8	1.49e+00	0	53	104	0	51	19874
2026-01-11 01:12:49.16	358.94	11.38	-39.4	-54.4	3.8	1.49e+00	0	54	104	0	50	20072
2026-01-11 01:12:50.17	358.82	11.45	-40.0	-54.7	3.8	1.49e+00	0	54	104	0	50	20969
2026-01-11 01:12:51.18	358.71	11.52	-39.8	-54.5	3.8	1.49e+00	0	54	104	0	50	20491
2026-01-11 01:12:52.19	358.59	11.60	-40.1	-54.8	3.8	1.49e+00	0	53	104	0	50	21089
2026-01-11 01:12:53.20	358.48	11.67	-39.8	-54.6	3.8	1.49e+00	0	53	104	0	50	20562
2026-01-11 01:12:54.21	358.36	11.74	-40.5	-55.1	3.8	1.49e+00	0	53	104	0	51	20681
2026-01-11 01:12:55.22	358.24	11.82	-39.5	-54.4	3.8	1.49e+00	0	53	104	0	51	19142
2026-01-11 01:12:56.23	358.12	11.89	-39.5	-54.5	3.8	1.49e+00	0	54	104	0	51	19168
2026-01-11 01:12:57.23	358.00	11.97	-39.6	-54.4	3.8	1.49e+00	0	54	104	0	51	19062
2026-01-11 01:12:58.24	357.88	12.04	-39.6	-54.4	3.8	1.49e+00	0	54	104	0	51	19034
2026-01-11 01:12:59.25	357.76	12.12	-39.7	-54.4	3.8	1.49e+00	0	54	104	0	51	18963
2026-01-11 01:13:00.25	357.64	12.19	-39.7	-54.2	3.8	1.49e+00	0	54	104	0	51	18588
2026-01-11 01:13:01.25	357.52	12.26	-41.5	-55.4	3.8	1.49e+00	0	54	104	0	53	19077
2026-01-11 01:13:02.25	357.40	12.34	-41.0	-50.3	5.2	1.40e+00	0	54	0	0	53	10625
2026-01-11 01:13:03.26	357.28	12.41	-40.3	-53.9	3.8	1.49e+00	0	54	104	0	52	17021
2026-01-11 01:13:04.27	357.16	12.49	-40.6	-47.6	7.6	6.10e-01	0	54	0	0	52	8179
2026-01-11 01:13:05.28	357.03	12.56	-40.4	-46.6	8.6	6.01e-02	0	54	0	2097152	52	7319
2026-01-11 01:13:06.29	356.91	12.64	-40.4	-46.2	9.1	3.14e-02	0	54	0	3145728	52	6993
2026-01-11 01:13:07.30	356.78	12.71	-40.2	-45.7	9.6	1.41e-02	0	54	0	5242880	52	6579
2026-01-11 01:13:08.31	356.65	12.79	-40.3	-46.1	9.2	1.60e-02	0	54	0	7340032	52	6907
2026-01-11 01:13:09.32	356.53	12.86	-40.5	-46.7	8.6	2.88e-02	0	54	0	9437184	52	7393
2026-01-11 01:13:10.33	356.40	12.94	-40.7	-47.4	7.7	6.21e-02	0	54	0	11534336	52	8046
2026-01-11 01:13:11.34	356.27	13.01	-40.9	-48.4	6.7	1.40e-01	0	54	0	12582912	52	9059
2026-01-11 01:13:12.35	356.14	13.09	-40.9	-49.1	6.0	2.65e-01	0	54	0	14680064	52	9827
2026-01-11 01:13:13.36	356.01	13.17	-41.0	-50.1	5.2	5.23e-01	0	54	0	16777216	52	11002
2026-01-11 01:13:14.37	355.88	13.24	-41.0	-51.3	4.5	8.03e-01	0	54	0	18874368	52	12614
2026-01-11 01:13:15.38	355.75	13.32	-40.9	-52.2	4.2	1.28e+00	0	54	0	19922944	52	13920
2026-01-11 01:13:16.39	355.62	13.39	-40.9	-53.1	3.8	1.46e+00	0	54	104	19922944	52	15495
2026-01-11 01:13:17.40	355.49	13.47	-40.8	-53.9	3.8	1.49e+00	0	54	104	19922944	52	17057
2026-01-11 01:13:18.41	355.35	13.55	-40.7	-54.0	3.8	1.49e+00	0	54	104	19922944	52	17207
2026-01-11 01:13:19.42	355.22	13.62	-40.6	-54.5	3.8	1.49e+00	0	54	104	19922944	52	18238
2026-01-11 01:13:20.42	355.09	13.70	-40.5	-54.6	3.8	1.49e+00	0	54	104	19922944	52	18352
2026-01-11 01:13:21.43	354.95	13.78	-40.5	-54.8	3.8	1.49e+00	0	54	104	19922944	52	18804
2026-01-11 01:13:22.44	354.82	13.85	-40.5	-54.9	3.8	1.49e+00	0	54	104	19922944	52	19000
2026-01-11 01:13:23.45	354.68	13.93	-40.6	-54.8	3.8	1.49e+00	0	54	104	19922944	52	18948
2026-01-11 01:13:24.46	354.54	14.01	-40.3	-54.9	3.8	1.49e+00	0	54	104	19922944	51	20092
2026-01-11 01:13:25.47	354.40	14.08	-40.5	-55.0	3.8	1.49e+00	0	54	104	19922944	51	20360
2026-01-11 01:13:26.48	354.27	14.16	-40.4	-54.9	3.8	1.49e+00	0	54	104	19922944	52	19008
2026-01-11 01:13:27.49	354.13	14.24	-40.4	-54.9	3.8	1.49e+00	0	54	104	19922944	52	19015
2026-01-11 01:13:28.50	353.99	14.31	-40.4	-54.9	3.8	1.49e+00	0	54	104	19922944	52	19006
2026-01-11 01:13:29.51	353.84	14.39	-40.3	-54.8	3.8	1.49e+00	0	54	104	19922944	52	18846
2026-01-11 01:13:30.52	353.70	14.47	-40.4	-54.8	3.8	1.49e+00	0	54	104	19922944	52	18877
2026-01-11 01:13:31.53	353.56	14.54	-40.4	-54.8	3.8	1.49e+00	0	54	104	19922944	52	18857
2026-01-11 01:13:32.54	353.42	14.62	-40.5	-55.0	3.8	1.49e+00	0	54	104	19922944	52	19235
2026-01-11 01:13:33.56	353.27	14.70	-40.5	-54.9	3.8	1.49e+00	0	54	104	19922944	52	19134
2026-01-11 01:13:34.57	353.13	14.78	-40.4	-54.9	3.8	1.49e+00	0	55	104	19922944	52	19130
2026-01-11 01:13:35.58	352.98	14.85	-40.5	-54.9	3.8	1.49e+00	0	54	104	19922944	52	19123
2026-01-11 01:13:36.59	352.83	14.93	-40.3	-54.9	3.8	1.49e+00	0	54	104	19922944	52	19105
2026-01-11 01:13:37.60	352.69	15.01	-40.5	-55.1	3.8	1.49e+00	0	54	104	19922944	52	19455
2026-01-11 01:13:38.61	352.54	15.09	-40.3	-55.1	3.8	1.49e+00	0	54	104	19922944	52	19611
2026-01-11 01:13:39.62	352.39	15.17	-40.7	-55.2	3.8	1.49e+00	0	55	104	19922944	51	20918
2026-01-11 01:13:40.63	352.24	15.24	-40.6	-55.3	3.8	1.49e+00	0	54	104	19922944	51	21035
2026-01-11 01:13:41.64	352.09	15.32	-40.6	-55.3	3.8	1.49e+00	0	54	104	19922944	51	21143
2026-01-11 01:13:42.65	351.94	15.40	-40.5	-55.2	3.8	1.49e+00	0	54	104	19922944	51	20970
2026-01-11 01:13:43.66	351.79	15.48	-40.6	-55.3	3.8	1.49e+00	0	54	104	19922944	51	21180
2026-01-11 01:13:44.67	351.63	15.55	-40.3	-55.2	3.8	1.49e+00	0	55	104	19922944	51	20932
2026-01-11 01:13:45.68	351.48	15.63	-40.5	-55.2	3.8	1.49e+00	0	54	104	19922944	51	20976
2026-01-11 01:13:46.69	351.33	15.71	-40.4	-55.2	3.8	1.49e+00	0	55	104	19922944	51	20810
2026-01-11 01:13:47.70	351.17	15.79	-40.4	-55.3	3.8	1.49e+00	0	54	104	19922944	51	21075
2026-01-11 01:13:48.71	351.01	15.87	-40.5	-55.3	3.8	1.49e+00	0	54	104	19922944	51	21225
2026-01-11 01:13:49.73	350.86	15.95	-40.4	-55.2	3.8	1.49e+00	0	54	104	19922944	51	20911
2026-01-11 01:13:50.74	350.70	16.02	-40.5	-55.3	3.8	1.49e+00	0	54	104	19922944	51	21112
2026-01-11 01:13:51.75	350.54	16.10	-40.3	-55.2	3.8	1.49e+00	0	55	104	19922944	51	20933
2026-01-11 01:13:52.75	350.38	16.18	-40.1	-55.4	3.8	1.49e+00	0	55	104	19922944	51	21468
2026-01-11 01:13:53.76	350.22	16.26	-40.5	-55.3	3.8	1.49e+00	0	55	104	19922944	51	21123
2026-01-11 01:13:54.78	350.06	16.34	-40.5	-55.5	3.8	1.49e+00	0	55	104	19922944	51	21640
2026-01-11 01:13:55.79	349.90	16.41	-40.4	-55.2	3.8	1.49e+00	0	55	104	19922944	51	20970
2026-01-11 01:13:56.80	349.73	16.49	-40.9	-55.6	3.8	1.49e+00	0	55	104	19922944	52	20618
2026-01-11 01:13:57.80	349.57	16.57	-40.5	-55.2	3.8	1.49e+00	0	55	104	19922944	52	19740
2026-01-11 01:13:58.81	349.41	16.65	-41.1	-55.7	3.8	1.49e+00	0	55	104	19922944	52	20797
2026-01-11 01:13:59.82	349.24	16.73	-40.6	-55.3	3.8	1.49e+00	0	55	104	19922944	53	18739
2026-01-11 01:14:00.83	349.08	16.81	-40.7	-55.4	3.8	1.49e+00	0	55	104	19922944	53	18980
2026-01-11 01:14:01.84	348.91	16.88	-40.3	-55.3	3.8	1.49e+00	0	55	104	19922944	52	19845
2026-01-11 01:14:02.85	348.74	16.96	-40.6	-55.2	3.8	1.49e+00	0	55	104	19922944	52	19834
2026-01-11 01:14:03.86	348.57	17.04	-40.8	-55.4	3.8	1.49e+00	0	55	104	19922944	52	20197
2026-01-11 01:14:04.87	348.40	17.12	-41.0	-55.6	3.8	1.49e+00	0	55	104	19922944	52	20544
2026-01-11 01:14:05.88	348.23	17.20	-40.8	-55.4	3.8	1.49e+00	0	55	104	19922944	52	20089
2026-01-11 01:14:06.89	348.06	17.28	-41.1	-55.7	3.8	1.49e+00	0	55	104	19922944	52	20832
2026-01-11 01:14:07.90	347.89	17.35	-40.9	-55.5	3.8	1.49e+00	0	55	104	19922944	53	19306
2026-01-11 01:14:08.91	347.71	17.43	-40.7	-55.2	3.8	1.49e+00	0	55	104	19922944	53	18673
2026-01-11 01:14:09.92	347.54	17.51	-41.4	-56.1	3.8	1.49e+00	0	55	104	19922944	53	20697
2026-01-11 01:14:10.93	347.36	17.59	-40.7	-55.3	3.8	1.49e+00	0	55	104	19922944	53	18744
2026-01-11 01:14:11.94	347.19	17.67	-40.5	-55.2	3.8	1.49e+00	0	55	104	19922944	53	18674
2026-01-11 01:14:12.95	347.01	17.74	-40.5	-55.2	3.8	1.49e+00	0	55	104	19922944	53	18594
2026-01-11 01:14:13.96	346.83	17.82	-40.6	-55.2	3.8	1.49e+00	0	55	104	19922944	53	18612
2026-01-11 01:14:14.97	346.65	17.90	-40.5	-55.3	3.8	1.49e+00	0	55	104	19922944	53	18855
2026-01-11 01:14:15.98	346.47	17.98	-41.1	-55.7	3.8	1.49e+00	0	55	104	19922944	52	20930
2026-01-11 01:14:16.99	346.29	18.06	-40.6	-55.1	3.8	1.49e+00	0	55	104	19922944	52	19468
2026-01-11 01:14:18.00	346.11	18.13	-40.5	-55.2	3.8	1.49e+00	0	55	104	19922944	52	19799
2026-01-11 01:14:19.01	345.92	18.21	-40.5	-55.1	3.8	1.49e+00	0	55	104	19922944	52	19514
2026-01-11 01:14:20.02	345.74	18.29	-40.5	-55.0	3.8	1.49e+00	0	55	104	19922944	52	19371
2026-01-11 01:14:21.03	345.56	18.37	-40.5	-55.0	3.8	1.49e+00	0	55	104	19922944	52	19363
2026-01-11 01:14:22.04	345.37	18.45	-40.5	-55.1	3.8	1.49e+00	0	55	104	19922944	52	19481
2026-01-11 01:14:23.04	345.18	18.52	-40.6	-55.2	3.8	1.49e+00	0	55	104	19922944	52	19712
2026-01-11 01:14:24.05	345.00	18.60	-40.6	-55.2	3.8	1.49e+00	0	55	104	19922944	52	19709
2026-01-11 01:14:25.06	344.81	18.68	-40.5	-55.1	3.8	1.49e+00	0	55	104	19922944	52	19500
2026-01-11 01:14:26.07	344.62	18.75	-40.5	-55.0	3.8	1.49e+00	0	55	104	19922944	52	19370
2026-01-11 01:14:27.08	344.43	18.83	-40.5	-55.2	3.8	1.49e+00	0	55	104	19922944	52	19647
2026-01-11 01:14:28.09	344.24	18.91	-40.5	-55.0	3.8	1.49e+00	0	55	104	19922944	52	19352
2026-01-11 01:14:29.10	344.04	18.99	-40.8	-55.2	3.8	1.49e+00	0	55	104	19922944	52	19840
2026-01-11 01:14:30.12	343.85	19.06	-40.2	-55.0	3.8	1.49e+00	0	55	104	19922944	52	19187
2026-01-11 01:14:31.13	343.65	19.14	-40.8	-55.3	3.8	1.49e+00	0	55	104	19922944	52	19993
2026-01-11 01:14:32.14	343.46	19.22	-40.3	-54.9	3.8	1.49e+00	0	55	104	19922944	52	19160
2026-01-11 01:14:33.15	343.26	19.29	-40.8	-55.3	3.8	1.49e+00	0	55	104	19922944	52	19896
2026-01-11 01:14:34.16	343.06	19.37	-40.5	-55.1	3.8	1.49e+00	0	55	104	19922944	52	19511
2026-01-11 01:14:35.16	342.87	19.45	-40.9	-55.4	3.8	1.49e+00	0	55	104	19922944	52	20150
2026-01-11 01:14:36.17	342.67	19.52	-40.6	-55.1	3.8	1.49e+00	0	55	104	19922944	52	19513
2026-01-11 01:14:37.18	342.47	19.60	-41.3	-55.2	3.8	1.49e+00	0	55	104	19922944	53	18715
2026-01-11 01:14:38.19	342.26	19.67	-40.2	-55.0	3.8	1.49e+00	0	55	104	19922944	52	19308
2026-01-11 01:14:39.20	342.06	19.75	-40.5	-55.1	3.8	1.49e+00	0	55	104	19922944	52	19514
2026-01-11 01:14:40.21	341.86	19.83	-40.5	-55.0	3.8	1.49e+00	0	55	104	19922944	52	19302
2026-01-11 01:14:41.22	341.65	19.90	-40.8	-54.9	3.8	1.49e+00	0	55	104	19922944	52	19021
2026-01-11 01:14:42.23	341.45	19.98	-41.3	-54.5	3.8	1.49e+00	0	55	104	19922944	53	17131
2026-01-11 01:14:43.24	341.24	20.05	-40.8	-54.6	3.8	1.49e+00	0	55	104	19922944	53	17373
2026-01-11 01:14:44.25	341.03	20.13	-43.0	-57.2	3.8	1.49e+00	0	55	104	19922944	56	19642
2026-01-11 01:14:45.26	340.82	20.20	-42.4	-52.1	4.8	1.10e+00	0	55	0	19922944	56	10939
2026-01-11 01:14:46.27	340.61	20.28	-41.1	-51.7	4.4	8.20e-01	88	55	0	22020096	54	11771
2026-01-11 01:14:47.28	340.40	20.35	-41.4	-48.4	7.2	2.43e-01	0	55	0	24117248	54	8026
2026-01-11 01:14:48.29	340.19	20.43	-41.4	-47.7	8.2	7.39e-02	0	55	0	25165824	54	7380
2026-01-11 01:14:49.30	339.98	20.50	-41.3	-46.8	9.4	2.96e-02	0	55	0	27262976	54	6689
2026-01-11 01:14:50.31	339.76	20.57	-41.1	-46.0	10.4	5.69e-03	0	55	0	29360128	54	6097
2026-01-11 01:14:51.32	339.55	20.65	-41.1	-45.5	11.3	1.88e-03	0	55	0	31457280	54	5729
2026-01-11 01:14:52.33	339.33	20.72	-41.0	-45.2	11.8	8.23e-04	0	55	0	33554432	54	5531
2026-01-11 01:14:53.34	339.11	20.79	-41.0	-44.9	12.3	2.10e-04	0	55	0	34603008	54	5355
2026-01-11 01:14:54.35	338.90	20.87	-40.7	-44.3	13.0	7.17e-05	0	55	0	36700160	53	5304
2026-01-11 01:14:55.36	338.68	20.94	-40.6	-43.9	13.4	2.59e-05	0	55	0	38797312	53	5077
2026-01-11 01:14:56.36	338.46	21.01	-40.4	-43.6	13.8	1.06e-05	0	55	0	40894464	52	5186
2026-01-11 01:14:57.37	338.24	21.08	-40.4	-43.4	14.1	0.00e+00	0	55	0	42991616	52	5090
2026-01-11 01:14:58.38	338.01	21.16	-40.4	-43.4	14.3	1.50e-06	0	55	0	44040192	52	5068
2026-01-11 01:14:59.39	337.79	21.23	-40.4	-43.4	14.4	0.00e+00	0	55	0	46137344	52	5053
2026-01-11 01:15:00.40	337.57	21.30	-40.4	-43.2	14.6	0.00e+00	0	55	0	48234496	52	4952
2026-01-11 01:15:01.40	337.34	21.37	-40.3	-43.1	14.8	0.00e+00	0	55	0	50331648	52	4876
2026-01-11 01:15:02.41	337.12	21.44	-40.3	-43.0	14.9	0.00e+00	0	55	0	52428800	52	4840
2026-01-11 01:15:03.42	336.89	21.51	-40.1	-42.8	15.1	0.00e+00	0	55	0	54525952	52	4717
2026-01-11 01:15:04.43	336.66	21.58	-40.2	-42.8	15.1	0.00e+00	0	55	0	55574528	52	4742
2026-01-11 01:15:05.44	336.43	21.65	-40.1	-42.8	15.1	0.00e+00	0	55	0	57671680	52	4726
2026-01-11 01:15:06.45	336.20	21.72	-40.2	-42.9	15.0	0.00e+00	0	55	0	59768832	52	4794
2026-01-11 01:15:07.46	335.97	21.79	-40.2	-42.9	15.1	0.00e+00	0	55	0	61865984	52	4776
2026-01-11 01:15:08.46	335.74	21.86	-40.2	-42.9	15.0	0.00e+00	0	55	0	62914560	52	4812
2026-01-11 01:15:09.47	335.50	21.93	-40.3	-43.0	15.0	0.00e+00	0	55	0	65011712	52	4844
2026-01-11 01:15:10.48	335.27	22.00	-40.2	-42.9	15.1	0.00e+00	0	55	0	67108864	52	4782
2026-01-11 01:15:11.49	335.03	22.07	-40.2	-42.9	15.1	0.00e+00	0	55	0	69206016	52	4794
2026-01-11 01:15:12.50	334.79	22.14	-40.2	-42.8	15.2	0.00e+00	0	55	0	71303168	52	4756
2026-01-11 01:15:13.51	334.55	22.20	-40.2	-42.8	15.2	0.00e+00	0	55	0	72351744	52	4733
2026-01-11 01:15:14.52	334.31	22.27	-40.1	-42.8	15.2	0.00e+00	0	55	0	74448896	52	4711
2026-01-11 01:15:15.53	334.07	22.34	-40.2	-42.8	15.2	0.00e+00	0	55	0	76546048	52	4726
2026-01-11 01:15:16.54	333.83	22.40	-40.2	-42.8	15.2	0.00e+00	0	55	0	78643200	52	4733
2026-01-11 01:15:17.55	333.59	22.47	-40.2	-42.8	15.3	0.00e+00	0	55	0	80740352	52	4737
2026-01-11 01:15:18.56	333.35	22.54	-40.2	-42.8	15.2	0.00e+00	0	55	0	82837504	52	4731
2026-01-11 01:15:19.57	333.10	22.60	-40.2	-42.8	15.3	0.00e+00	0	55	0	83886080	52	4726
2026-01-11 01:15:20.58	332.86	22.67	-40.1	-42.7	15.3	0.00e+00	0	55	0	85983232	52	4691
2026-01-11 01:15:21.59	332.61	22.73	-40.1	-42.6	15.4	0.00e+00	0	55	0	88080384	52	4633
2026-01-11 01:15:22.60	332.36	22.79	-40.0	-42.5	15.5	0.00e+00	0	55	0	90177536	52	4573
2026-01-11 01:15:23.61	332.11	22.86	-40.0	-42.5	15.6	0.00e+00	0	55	0	92274688	51	4862
2026-01-11 01:15:24.62	331.86	22.92	-40.0	-42.5	15.7	0.00e+00	0	55	0	93323264	51	4820
2026-01-11 01:15:25.63	331.61	22.98	-40.1	-42.6	15.6	0.00e+00	0	55	0	95420416	51	4890
2026-01-11 01:15:26.63	331.36	23.05	-40.2	-42.8	15.4	0.00e+00	0	55	0	97517568	51	5008
2026-01-11 01:15:27.64	331.11	23.11	-40.3	-43.0	15.2	0.00e+00	0	55	0	99614720	51	5115
2026-01-11 01:15:28.65	330.86	23.17	-40.3	-43.0	15.2	7.00e-07	0	55	0	101711872	51	5132
2026-01-11 01:15:29.66	330.60	23.23	-40.4	-43.1	15.0	0.00e+00	0	55	0	102760448	51	5212
2026-01-11 01:15:30.67	330.35	23.29	-40.4	-43.1	15.0	0.00e+00	0	55	0	104857600	51	5185
2026-01-11 01:15:31.68	330.09	23.35	-40.3	-42.9	15.2	0.00e+00	0	55	0	106954752	51	5090
2026-01-11 01:15:32.69	329.83	23.41	-40.4	-43.0	15.1	0.00e+00	0	55	0	109051904	51	5148
2026-01-11 01:15:33.70	329.57	23.47	-40.3	-42.9	15.3	0.00e+00	0	55	0	111149056	51	5081
2026-01-11 01:15:34.71	329.31	23.53	-40.3	-42.9	15.3	0.00e+00	0	55	0	112197632	51	5050
2026-01-11 01:15:35.72	329.05	23.59	-40.3	-43.0	15.2	0.00e+00	0	55	0	114294784	51	5101
2026-01-11 01:15:36.73	328.79	23.64	-40.4	-43.0	15.2	0.00e+00	0	55	0	116391936	51	5156
2026-01-11 01:15:37.74	328.53	23.70	-40.3	-43.0	15.2	0.00e+00	0	55	0	118489088	51	5104
2026-01-11 01:15:38.75	328.26	23.76	-40.3	-42.9	15.3	0.00e+00	0	55	0	120586240	51	5076
2026-01-11 01:15:39.76	328.00	23.81	-40.3	-42.9	15.3	0.00e+00	0	55	0	121634816	51	5071
2026-01-11 01:15:40.77	327.73	23.87	-40.2	-42.7	15.4	0.00e+00	0	55	0	123731968	51	4967
2026-01-11 01:15:41.78	327.47	23.92	-40.0	-42.5	15.6	0.00e+00	0	55	0	125829120	51	4862
2026-01-11 01:15:42.79	327.20	23.98	-40.1	-42.6	15.6	0.00e+00	0	55	0	127926272	51	4883
2026-01-11 01:15:43.79	326.93	24.03	-40.0	-42.5	15.7	0.00e+00	0	55	0	130023424	51	4823
2026-01-11 01:15:44.80	326.66	24.09	-40.0	-42.5	15.7	0.00e+00	0	55	0	131072000	51	4828
2026-01-11 01:15:45.81	326.39	24.14	-40.0	-42.5	15.7	0.00e+00	0	55	0	133169152	51	4838
2026-01-11 01:15:46.82	326.12	24.19	-40.0	-42.5	15.7	0.00e+00	0	55	0	135266304	51	4860
2026-01-11 01:15:47.83	325.85	24.24	-40.0	-42.5	15.7	0.00e+00	0	56	0	137363456	51	4848
2026-01-11 01:15:48.84	325.58	24.29	-40.0	-42.5	15.8	0.00e+00	0	55	0	139460608	51	4833
2026-01-11 01:15:49.85	325.30	24.34	-39.9	-42.4	15.9	0.00e+00	0	56	0	140509184	51	4763
2026-01-11 01:15:50.86	325.03	24.39	-39.8	-42.1	16.1	0.00e+00	0	56	0	142606336	51	4633
2026-01-11 01:15:51.87	324.75	24.44	-39.7	-42.0	16.2	0.00e+00	0	55	0	144703488	51	4563
2026-01-11 01:15:52.88	324.47	24.49	-39.7	-42.0	16.2	0.00e+00	0	55	0	146800640	51	4552
2026-01-11 01:15:53.89	324.20	24.54	-39.6	-41.9	16.3	0.00e+00	0	55	0	148897792	51	4531
2026-01-11 01:15:54.90	323.92	24.58	-39.6	-41.9	16.3	0.00e+00	0	55	0	150994944	51	4503
2026-01-11 01:15:55.91	323.64	24.63	-39.6	-41.9	16.3	0.00e+00	0	56	0	152043520	51	4527
2026-01-11 01:15:56.92	323.36	24.68	-39.6	-41.9	16.2	0.00e+00	0	55	0	154140672	51	4535
2026-01-11 01:15:57.93	323.08	24.72	-39.5	-41.8	16.3	0.00e+00	0	55	0	156237824	51	4474
2026-01-11 01:15:58.94	322.80	24.77	-39.7	-42.0	16.2	0.00e+00	0	56	0	158334976	51	4564
2026-01-11 01:15:59.95	322.51	24.81	-39.8	-42.1	16.0	0.00e+00	0	55	0	160432128	51	4645
2026-01-11 01:16:00.96	322.23	24.85	-39.8	-42.2	16.0	0.00e+00	0	55	0	161480704	51	4692
2026-01-11 01:16:01.97	321.95	24.90	-39.8	-42.3	15.9	0.00e+00	0	56	0	163577856	51	4709
2026-01-11 01:16:02.98	321.66	24.94	-40.0	-42.4	15.8	0.00e+00	0	55	0	165675008	51	4806
2026-01-11 01:16:03.99	321.38	24.98	-40.1	-42.6	15.7	0.00e+00	0	56	0	167772160	51	4872
2026-01-11 01:16:05.00	321.09	25.02	-40.1	-42.6	15.6	0.00e+00	0	56	0	169869312	51	4878
2026-01-11 01:16:06.01	320.80	25.06	-40.2	-42.7	15.5	7.00e-07	0	56	0	170917888	51	4974
2026-01-11 01:16:07.02	320.52	25.10	-40.2	-42.8	15.4	0.00e+00	0	55	0	173015040	51	5010
2026-01-11 01:16:08.02	320.23	25.13	-40.2	-42.8	15.4	0.00e+00	0	55	0	175112192	51	5013
2026-01-11 01:16:09.03	319.94	25.17	-40.2	-42.7	15.5	0.00e+00	0	56	0	177209344	51	4963
2026-01-11 01:16:10.04	319.65	25.21	-40.2	-42.8	15.4	0.00e+00	0	56	0	179306496	51	5018
2026-01-11 01:16:11.05	319.36	25.24	-40.2	-42.8	15.4	0.00e+00	0	55	0	180355072	51	5022
2026-01-11 01:16:12.06	319.07	25.28	-40.4	-43.0	15.2	0.00e+00	0	55	0	182452224	51	5154
2026-01-11 01:16:13.07	318.78	25.31	-40.5	-43.3	14.9	0.00e+00	0	55	0	184549376	51	5291
2026-01-11 01:16:14.08	318.48	25.35	-40.6	-43.4	14.8	0.00e+00	0	56	0	186646528	51	5361
2026-01-11 01:16:15.09	318.19	25.38	-40.6	-43.3	14.8	0.00e+00	0	56	0	188743680	51	5332
2026-01-11 01:16:16.10	317.90	25.41	-40.6	-43.4	14.8	7.00e-07	0	55	0	189792256	51	5371
2026-01-11 01:16:17.11	317.60	25.44	-40.7	-43.5	14.7	0.00e+00	0	55	0	191889408	51	5448
2026-01-11 01:16:18.12	317.31	25.47	-40.7	-43.6	14.5	7.00e-07	0	55	0	193986560	52	5183
2026-01-11 01:16:19.13	317.01	25.50	-40.9	-43.8	14.2	0.00e+00	0	55	0	196083712	52	5336
2026-01-11 01:16:20.14	316.72	25.53	-40.9	-43.9	14.2	1.50e-06	0	56	0	198180864	52	5341
2026-01-11 01:16:21.15	316.42	25.56	-40.9	-43.8	14.2	0.00e+00	0	55	0	199229440	52	5333
2026-01-11 01:16:22.16	316.12	25.59	-40.8	-43.8	14.3	7.00e-07	0	55	0	201326592	52	5318
2026-01-11 01:16:23.17	315.83	25.61	-40.9	-43.9	14.1	7.00e-07	0	55	0	203423744	52	5389
2026-01-11 01:16:24.18	315.53	25.64	-41.0	-44.1	14.0	2.20e-06	0	55	0	205520896	52	5493
2026-01-11 01:16:25.19	315.23	25.66	-41.1	-44.2	13.8	3.80e-06	0	55	0	207618048	52	5577
2026-01-11 01:16:26.20	314.93	25.69	-41.1	-44.2	13.8	3.80e-06	0	56	0	208666624	52	5580
2026-01-11 01:16:27.21	314.63	25.71	-41.0	-44.2	13.9	3.80e-06	0	56	0	210763776	52	5536
2026-01-11 01:16:28.22	314.33	25.73	-41.1	-44.2	13.9	1.50e-06	0	56	0	212860928	52	5541
2026-01-11 01:16:29.23	314.03	25.75	-41.0	-44.0	14.1	4.50e-06	0	55	0	214958080	52	5447
2026-01-11 01:16:30.24	313.73	25.77	-40.8	-43.8	14.3	2.20e-06	0	55	0	217055232	52	5328
2026-01-11 01:16:31.25	313.43	25.79	-40.8	-43.8	14.3	0.00e+00	0	55	0	219152384	52	5311
2026-01-11 01:16:32.26	313.13	25.81	-40.8	-43.7	14.3	1.50e-06	0	56	0	220200960	52	5273
2026-01-11 01:16:33.27	312.83	25.83	-40.8	-43.8	14.3	0.00e+00	0	55	0	222298112	52	5304
2026-01-11 01:16:34.28	312.52	25.85	-40.9	-43.9	14.2	7.00e-07	0	55	0	224395264	52	5356
2026-01-11 01:16:35.29	312.22	25.86	-40.9	-44.0	14.1	3.80e-06	0	56	0	226492416	52	5416
2026-01-11 01:16:36.30	311.92	25.88	-41.1	-44.2	13.8	4.50e-06	0	55	0	228589568	52	5587
2026-01-11 01:16:37.30	311.62	25.89	-41.2	-44.4	13.7	4.50e-06	0	56	0	229638144	52	5666
2026-01-11 01:16:38.31	311.31	25.91	-41.2	-44.5	13.6	9.90e-06	0	55	0	231735296	53	5441
2026-01-11 01:16:39.32	311.01	25.92	-41.3	-44.6	13.4	9.10e-06	0	56	0	233832448	53	5489
2026-01-11 01:16:40.33	310.71	25.93	-41.3	-44.6	13.4	1.67e-05	0	56	0	235929600	53	5504
2026-01-11 01:16:41.34	310.40	25.94	-41.3	-44.6	13.5	9.10e-06	0	56	0	238026752	53	5505
2026-01-11 01:16:42.35	310.10	25.95	-41.4	-44.7	13.3	1.06e-05	0	55	0	239075328	53	5576
2026-01-11 01:16:43.36	309.79	25.96	-41.4	-44.7	13.3	1.98e-05	0	55	0	241172480	53	5583
2026-01-11 01:16:44.37	309.49	25.97	-41.4	-44.8	13.2	1.90e-05	0	56	0	243269632	53	5629
2026-01-11 01:16:45.38	309.18	25.98	-41.4	-44.7	13.3	1.90e-05	0	56	0	245366784	53	5585
2026-01-11 01:16:46.39	308.88	25.99	-41.4	-44.7	13.3	1.98e-05	0	56	0	247463936	53	5588
2026-01-11 01:16:47.40	308.57	25.99	-41.4	-44.7	13.3	1.52e-05	0	56	0	248512512	53	5589
2026-01-11 01:16:48.41	308.27	26.00	-41.4	-44.8	13.2	1.52e-05	0	56	0	250609664	53	5639
2026-01-11 01:16:49.42	307.96	26.00	-41.4	-44.8	13.3	1.52e-05	0	56	0	252706816	53	5615
2026-01-11 01:16:50.43	307.66	26.00	-41.3	-44.7	13.4	1.06e-05	0	56	0	254803968	53	5545
2026-01-11 01:16:51.44	307.35	26.00	-41.2	-44.4	13.7	9.90e-06	0	56	0	256901120	53	5370
2026-01-11 01:16:52.45	307.05	26.01	-41.1	-44.2	13.9	6.80e-06	0	56	0	257949696	53	5264
2026-01-11 01:16:53.46	306.74	26.01	-40.9	-44.0	14.1	3.00e-06	0	56	0	260046848	53	5125
2026-01-11 01:16:54.47	306.44	26.01	-40.9	-43.9	14.2	7.00e-07	0	56	0	262144000	53	5075
2026-01-11 01:16:55.47	306.13	26.00	-40.8	-43.8	14.3	0.00e+00	0	56	0	264241152	53	4995
2026-01-11 01:16:56.48	305.83	26.00	-40.8	-43.7	14.4	7.00e-07	0	56	0	266338304	53	4944
2026-01-11 01:16:57.49	305.52	26.00	-40.8	-43.8	14.3	7.00e-07	0	56	0	267386880	53	5001
2026-01-11 01:16:58.50	305.22	25.99	-40.8	-43.8	14.2	0.00e+00	0	56	0	269484032	53	5029
2026-01-11 01:16:59.51	304.91	25.99	-40.9	-44.0	14.0	1.50e-06	0	56	0	271581184	53	5127
2026-01-11 01:17:00.52	304.61	25.98	-41.0	-44.0	14.1	2.20e-06	0	56	0	273678336	53	5133
2026-01-11 01:17:01.53	304.30	25.98	-40.9	-43.9	14.2	1.50e-06	0	56	0	275775488	53	5067
2026-01-11 01:17:02.54	304.00	25.97	-40.7	-43.5	14.5	7.00e-07	0	55	0	276824064	53	4866
2026-01-11 01:17:03.55	303.69	25.96	-40.6	-43.4	14.7	0.00e+00	0	55	0	278921216	53	4771
2026-01-11 01:17:04.56	303.39	25.95	-40.5	-43.2	14.9	0.00e+00	0	56	0	281018368	52	4957
2026-01-11 01:17:05.57	303.08	25.94	-40.4	-43.1	14.9	0.00e+00	0	56	0	283115520	52	4925
2026-01-11 01:17:06.58	302.78	25.93	-40.4	-43.1	15.0	0.00e+00	0	56	0	285212672	52	4878
2026-01-11 01:17:07.59	302.47	25.92	-40.4	-43.1	15.0	0.00e+00	0	56	0	287309824	52	4881
2026-01-11 01:17:08.60	302.17	25.90	-40.3	-42.9	15.2	0.00e+00	0	55	0	288358400	52	4807
2026-01-11 01:17:09.61	301.87	25.89	-40.2	-42.8	15.3	0.00e+00	0	55	0	290455552	52	4754
2026-01-11 01:17:10.62	301.56	25.88	-40.2	-42.8	15.3	0.00e+00	0	56	0	292552704	52	4747
2026-01-11 01:17:11.63	301.26	25.86	-40.2	-42.8	15.3	0.00e+00	0	56	0	294649856	52	4733
2026-01-11 01:17:12.64	300.96	25.84	-40.1	-42.7	15.3	0.00e+00	0	56	0	296747008	52	4687
2026-01-11 01:17:13.65	300.65	25.83	-40.1	-42.7	15.4	0.00e+00	0	56	0	297795584	52	4656
2026-01-11 01:17:14.66	300.35	25.81	-40.1	-42.6	15.5	0.00e+00	0	56	0	299892736	52	4627
2026-01-11 01:17:15.67	300.05	25.79	-40.1	-42.6	15.6	0.00e+00	0	56	0	301989888	52	4607
2026-01-11 01:17:16.67	299.75	25.77	-40.0	-42.5	15.7	0.00e+00	0	56	0	304087040	51	4833
2026-01-11 01:17:17.68	299.45	25.75	-39.8	-42.2	16.0	0.00e+00	0	56	0	306184192	51	4677
2026-01-11 01:17:18.69	299.15	25.73	-39.7	-42.0	16.1	0.00e+00	0	56	0	307232768	51	4585
2026-01-11 01:17:19.71	298.85	25.70	-39.6	-41.9	16.3	0.00e+00	0	55	0	309329920	51	4510
2026-01-11 01:17:20.71	298.55	25.68	-39.5	-41.8	16.4	0.00e+00	0	56	0	311427072	51	4467
2026-01-11 01:17:21.72	298.25	25.66	-39.6	-41.9	16.2	0.00e+00	0	56	0	313524224	51	4544
2026-01-11 01:17:22.73	297.95	25.63	-39.7	-42.0	16.1	0.00e+00	0	56	0	315621376	51	4588
2026-01-11 01:17:23.74	297.65	25.61	-39.8	-42.1	16.1	0.00e+00	0	56	0	316669952	51	4634
2026-01-11 01:17:24.75	297.36	25.58	-39.7	-42.1	16.1	0.00e+00	0	56	0	318767104	51	4606
2026-01-11 01:17:25.76	297.06	25.55	-39.7	-42.0	16.1	0.00e+00	0	56	0	320864256	51	4589
2026-01-11 01:17:26.77	296.76	25.52	-39.7	-42.0	16.2	0.00e+00	0	56	0	322961408	51	4588
2026-01-11 01:17:27.78	296.47	25.50	-39.8	-42.1	16.0	0.00e+00	0	56	0	325058560	51	4648
2026-01-11 01:17:28.79	296.17	25.47	-39.8	-42.1	16.1	0.00e+00	0	56	0	326107136	51	4626
2026-01-11 01:17:29.80	295.88	25.44	-39.7	-42.0	16.2	0.00e+00	0	56	0	328204288	51	4582
2026-01-11 01:17:30.81	295.58	25.40	-39.7	-42.0	16.2	0.00e+00	0	56	0	330301440	51	4566
2026-01-11 01:17:31.82	295.29	25.37	-39.6	-41.9	16.3	0.00e+00	0	56	0	332398592	51	4530
2026-01-11 01:17:32.83	294.99	25.34	-39.6	-41.9	16.3	0.00e+00	0	56	0	334495744	51	4532
2026-01-11 01:17:33.84	294.70	25.30	-39.6	-41.9	16.3	0.00e+00	0	56	0	335544320	51	4505
2026-01-11 01:17:34.84	294.41	25.27	-39.7	-42.0	16.2	0.00e+00	0	56	0	337641472	51	4579
2026-01-11 01:17:35.86	294.12	25.23	-39.8	-42.1	16.1	0.00e+00	0	56	0	339738624	51	4634
2026-01-11 01:17:36.87	293.83	25.20	-39.8	-42.2	16.0	0.00e+00	0	56	0	341835776	51	4701
2026-01-11 01:17:37.88	293.54	25.16	-39.9	-42.4	15.8	0.00e+00	0	55	0	343932928	51	4766
2026-01-11 01:17:38.88	293.25	25.12	-39.9	-42.4	15.8	0.00e+00	0	56	0	344981504	51	4761
2026-01-11 01:17:39.89	292.96	25.09	-39.9	-42.3	15.9	0.00e+00	0	56	0	347078656	51	4751
2026-01-11 01:17:40.90	292.67	25.05	-39.9	-42.4	15.8	0.00e+00	0	56	0	349175808	51	4767
2026-01-11 01:17:41.91	292.38	25.01	-39.9	-42.3	15.8	0.00e+00	0	56	0	351272960	51	4752
2026-01-11 01:17:42.92	292.10	24.97	-40.0	-42.4	15.7	0.00e+00	0	55	0	353370112	51	4802
2026-01-11 01:17:43.93	291.81	24.93	-39.9	-42.3	15.8	0.00e+00	0	56	0	355467264	51	4740
2026-01-11 01:17:44.94	291.53	24.88	-39.9	-42.4	15.8	0.00e+00	0	56	0	356515840	51	4772
2026-01-11 01:17:45.95	291.24	24.84	-40.0	-42.4	15.8	0.00e+00	0	56	0	358612992	51	4788
2026-01-11 01:17:46.96	290.96	24.80	-40.0	-42.4	15.8	0.00e+00	0	56	0	360710144	51	4791
2026-01-11 01:17:47.97	290.68	24.75	-40.0	-42.5	15.7	0.00e+00	0	56	0	362807296	51	4855
2026-01-11 01:17:48.98	290.39	24.71	-40.1	-42.6	15.6	0.00e+00	0	56	0	364904448	51	4903
2026-01-11 01:17:49.99	290.11	24.66	-40.2	-42.7	15.4	0.00e+00	0	56	0	365953024	51	4976
2026-01-11 01:17:51.00	289.83	24.62	-40.2	-42.8	15.3	0.00e+00	0	56	0	368050176	51	5021
2026-01-11 01:17:52.01	289.55	24.57	-40.3	-42.8	15.3	0.00e+00	0	56	0	370147328	51	5039
2026-01-11 01:17:53.01	289.28	24.52	-40.4	-43.0	15.2	0.00e+00	0	55	0	372244480	51	5117
2026-01-11 01:17:54.02	289.00	24.48	-40.4	-43.0	15.1	7.00e-07	0	56	0	374341632	51	5151
2026-01-11 01:17:55.03	288.72	24.43	-40.4	-43.0	15.1	0.00e+00	0	56	0	375390208	51	5146
2026-01-11 01:17:56.04	288.45	24.38	-40.4	-43.1	15.1	7.00e-07	0	56	0	377487360	51	5188
2026-01-11 01:17:57.05	288.17	24.33	-40.5	-43.2	15.0	0.00e+00	0	56	0	379584512	51	5234
2026-01-11 01:17:58.06	287.90	24.28	-40.5	-43.2	15.0	0.00e+00	0	56	0	381681664	51	5244
2026-01-11 01:17:59.07	287.62	24.23	-40.5	-43.3	14.9	0.00e+00	0	56	0	383778816	51	5284
2026-01-11 01:18:00.08	287.35	24.17	-40.5	-43.3	14.8	0.00e+00	0	56	0	384827392	51	5318
2026-01-11 01:18:01.09	287.08	24.12	-40.6	-43.4	14.7	0.00e+00	0	56	0	386924544	51	5390
2026-01-11 01:18:02.10	286.81	24.07	-40.6	-43.4	14.7	7.00e-07	0	56	0	389021696	51	5390
2026-01-11 01:18:03.11	286.54	24.02	-40.6	-43.5	14.6	0.00e+00	0	56	0	391118848	52	5132
2026-01-11 01:18:04.12	286.27	23.96	-40.7	-43.7	14.4	0.00e+00	0	56	0	393216000	52	5222
2026-01-11 01:18:05.13	286.00	23.91	-40.8	-43.8	14.1	0.00e+00	0	56	0	394264576	52	5336
2026-01-11 01:18:06.14	285.73	23.85	-40.9	-43.9	14.1	7.00e-07	0	55	0	396361728	52	5384
2026-01-11 01:18:07.15	285.47	23.80	-40.9	-44.0	14.1	0.00e+00	0	56	0	398458880	52	5421
2026-01-11 01:18:08.16	285.20	23.74	-40.9	-43.9	14.1	3.00e-06	0	56	0	400556032	52	5350
2026-01-11 01:18:09.17	284.94	23.68	-40.9	-43.9	14.1	7.00e-07	0	56	0	402653184	52	5401
2026-01-11 01:18:10.17	284.68	23.63	-41.0	-44.1	13.9	7.00e-07	0	56	0	403701760	52	5483
2026-01-11 01:18:11.18	284.41	23.57	-41.1	-44.2	13.8	2.20e-06	0	56	0	405798912	52	5568
2026-01-11 01:18:12.19	284.15	23.51	-41.0	-44.2	13.9	2.20e-06	0	55	0	407896064	52	5537
2026-01-11 01:18:13.20	283.89	23.45	-41.0	-44.0	14.0	5.30e-06	0	56	0	409993216	52	5461
2026-01-11 01:18:14.21	283.63	23.39	-40.9	-44.0	14.0	7.00e-07	0	56	0	412090368	52	5433
2026-01-11 01:18:15.22	283.37	23.33	-40.9	-44.0	14.0	3.80e-06	0	56	0	413138944	52	5438
2026-01-11 01:18:16.23	283.12	23.27	-41.0	-44.1	13.9	6.80e-06	0	56	0	415236096	52	5486
2026-01-11 01:18:17.24	282.86	23.21	-41.0	-44.1	13.9	2.20e-06	0	56	0	417333248	52	5514
2026-01-11 01:18:18.25	282.60	23.15	-41.0	-44.1	13.9	4.50e-06	0	56	0	419430400	52	5492
2026-01-11 01:18:19.25	282.35	23.09	-41.0	-44.1	13.9	4.50e-06	0	56	0	421527552	52	5500
2026-01-11 01:18:20.26	282.10	23.03	-41.0	-44.2	13.8	2.20e-06	0	55	0	422576128	52	5533
2026-01-11 01:18:21.27	281.85	22.96	-41.0	-44.1	13.9	5.30e-06	0	56	0	424673280	52	5504
2026-01-11 01:18:22.28	281.59	22.90	-41.0	-44.1	13.8	7.00e-07	0	55	0	426770432	52	5528
2026-01-11 01:18:23.29	281.34	22.84	-41.1	-44.3	13.6	6.80e-06	0	56	0	428867584	52	5654
2026-01-11 01:18:24.30	281.10	22.77	-41.1	-44.3	13.8	7.60e-06	0	56	0	430964736	52	5595
2026-01-11 01:18:25.31	280.85	22.71	-41.1	-44.3	13.7	5.30e-06	0	56	0	432013312	52	5616
2026-01-11 01:18:26.32	280.60	22.64	-41.1	-44.4	13.6	3.80e-06	0	56	0	434110464	52	5665
2026-01-11 01:18:27.33	280.35	22.58	-41.0	-44.1	13.9	5.30e-06	0	56	0	436207616	52	5492
2026-01-11 01:18:28.34	280.11	22.51	-40.8	-43.8	14.1	1.50e-06	0	56	0	438304768	52	5339
2026-01-11 01:18:29.35	279.86	22.45	-40.9	-43.9	14.1	2.20e-06	0	56	0	440401920	52	5376
2026-01-11 01:18:30.36	279.62	22.38	-40.9	-44.0	14.0	3.80e-06	0	56	0	441450496	52	5417
2026-01-11 01:18:31.37	279.38	22.31	-41.0	-44.2	13.8	6.80e-06	0	56	0	443547648	52	5538
2026-01-11 01:18:32.38	279.14	22.25	-41.0	-44.1	13.9	3.00e-06	0	56	0	445644800	52	5482
2026-01-11 01:18:33.39	278.90	22.18	-41.0	-44.2	13.8	8.30e-06	0	56	0	447741952	52	5566
2026-01-11 01:18:34.40	278.66	22.11	-41.1	-44.2	13.7	3.80e-06	0	56	0	449839104	52	5591
2026-01-11 01:18:35.41	278.42	22.04	-40.9	-44.0	13.9	9.90e-06	0	56	0	451936256	52	5438
2026-01-11 01:18:36.42	278.18	21.97	-40.8	-43.9	14.0	3.00e-06	0	56	0	452984832	52	5370
2026-01-11 01:18:37.42	277.95	21.90	-40.7	-43.6	14.4	7.00e-07	0	56	0	455081984	52	5174
2026-01-11 01:18:38.43	277.72	21.84	-40.6	-43.5	14.5	7.00e-07	0	56	0	457179136	52	5113
2026-01-11 01:18:39.44	277.48	21.77	-40.6	-43.6	14.4	0.00e+00	0	56	0	459276288	52	5175
2026-01-11 01:18:40.45	277.25	21.70	-40.7	-43.7	14.3	7.00e-07	0	56	0	461373440	52	5237
2026-01-11 01:18:41.46	277.02	21.63	-40.8	-43.8	14.2	3.00e-06	0	56	0	462422016	52	5296
2026-01-11 01:18:42.47	276.79	21.56	-40.6	-43.6	14.4	1.50e-06	0	56	0	464519168	52	5161
2026-01-11 01:18:43.48	276.56	21.48	-40.6	-43.5	14.5	1.50e-06	0	56	0	466616320	52	5124
2026-01-11 01:18:44.49	276.33	21.41	-40.5	-43.3	14.6	0.00e+00	0	56	0	468713472	52	5017
2026-01-11 01:18:45.50	276.10	21.34	-40.4	-43.1	14.8	0.00e+00	0	56	0	470810624	52	4922
2026-01-11 01:18:46.51	275.88	21.27	-40.3	-43.0	14.9	0.00e+00	0	56	0	471859200	52	4848
2026-01-11 01:18:47.52	275.65	21.20	-40.3	-42.9	15.0	0.00e+00	0	56	0	473956352	52	4805
2026-01-11 01:18:48.53	275.43	21.13	-40.2	-42.9	15.0	0.00e+00	0	56	0	476053504	52	4806
2026-01-11 01:18:49.54	275.20	21.05	-40.3	-43.0	15.0	0.00e+00	0	56	0	478150656	52	4830
2026-01-11 01:18:50.55	274.98	20.98	-40.3	-43.0	14.9	0.00e+00	0	56	0	480247808	52	4852
2026-01-11 01:18:51.55	274.76	20.91	-40.3	-43.1	14.8	0.00e+00	0	56	0	481296384	52	4894
2026-01-11 01:18:52.56	274.54	20.84	-40.4	-43.2	14.8	7.00e-07	0	56	0	483393536	52	4929
2026-01-11 01:18:53.57	274.32	20.76	-40.4	-43.1	14.8	0.00e+00	0	56	0	485490688	52	4913
2026-01-11 01:18:54.58	274.10	20.69	-40.4	-43.3	14.7	0.00e+00	0	56	0	487587840	52	4993
2026-01-11 01:18:55.59	273.89	20.62	-40.5	-43.3	14.6	7.00e-07	0	56	0	489684992	52	5036
2026-01-11 01:18:56.60	273.67	20.54	-40.5	-43.3	14.6	7.00e-07	0	56	0	490733568	52	4998
2026-01-11 01:18:57.61	273.46	20.47	-40.5	-43.3	14.6	0.00e+00	0	56	0	492830720	52	5029
2026-01-11 01:18:58.62	273.24	20.39	-40.3	-43.1	14.8	0.00e+00	0	56	0	494927872	52	4887
2026-01-11 01:18:59.63	273.03	20.32	-40.3	-43.0	14.9	0.00e+00	0	56	0	497025024	52	4832
2026-01-11 01:19:00.64	272.82	20.24	-40.3	-43.0	14.9	0.00e+00	0	56	0	499122176	52	4838
2026-01-11 01:19:01.65	272.61	20.17	-40.4	-43.1	14.8	7.00e-07	0	56	0	500170752	52	4918
2026-01-11 01:19:02.66	272.40	20.09	-40.3	-43.1	14.8	0.00e+00	0	56	0	502267904	52	4905
2026-01-11 01:19:03.67	272.19	20.02	-40.4	-43.2	14.7	0.00e+00	0	56	0	504365056	52	4961
2026-01-11 01:19:04.68	271.98	19.94	-40.5	-43.3	14.6	0.00e+00	0	56	0	506462208	52	5025
2026-01-11 01:19:05.69	271.78	19.87	-40.5	-43.4	14.5	7.00e-07	0	56	0	508559360	52	5076
2026-01-11 01:19:06.70	271.57	19.79	-40.4	-43.3	14.6	7.00e-07	0	56	0	509607936	52	5007
2026-01-11 01:19:07.71	271.37	19.71	-40.4	-43.1	14.7	0.00e+00	0	56	0	511705088	52	4926
2026-01-11 01:19:08.71	271.16	19.64	-40.4	-43.1	14.8	0.00e+00	0	56	0	513802240	52	4913
2026-01-11 01:19:09.72	270.96	19.56	-40.4	-43.1	14.8	0.00e+00	0	56	0	515899392	52	4911
2026-01-11 01:19:10.73	270.76	19.49	-40.2	-43.0	14.9	0.00e+00	0	56	0	517996544	52	4821
2026-01-11 01:19:11.74	270.56	19.41	-40.3	-43.0	14.9	0.00e+00	0	56	0	520093696	52	4846
2026-01-11 01:19:12.75	270.36	19.33	-40.4	-43.2	14.7	0.00e+00	0	56	0	521142272	52	4957
2026-01-11 01:19:13.76	270.16	19.26	-40.3	-43.1	14.8	0.00e+00	0	56	0	523239424	52	4914
2026-01-11 01:19:14.77	269.96	19.18	-40.4	-43.2	14.7	0.00e+00	0	56	0	525336576	52	4938
2026-01-11 01:19:15.78	269.77	19.10	-40.3	-43.1	14.7	0.00e+00	0	55	0	527433728	52	4892
2026-01-11 01:19:16.79	269.57	19.02	-40.4	-43.2	14.7	0.00e+00	0	56	0	529530880	52	4931
2026-01-11 01:19:17.80	269.38	18.95	-40.4	-43.3	14.6	0.00e+00	0	56	0	530579456	52	5009
2026-01-11 01:19:18.81	269.19	18.87	-40.3	-43.1	14.8	0.00e+00	0	56	0	532676608	52	4889
2026-01-11 01:19:19.82	268.99	18.79	-40.3	-43.0	14.9	0.00e+00	0	56	0	534773760	52	4833
2026-01-11 01:19:20.83	268.80	18.72	-40.1	-42.8	15.1	0.00e+00	0	56	0	536870912	52	4739
2026-01-11 01:19:21.84	268.61	18.64	-40.1	-42.8	15.1	0.00e+00	0	56	0	538968064	52	4723
2026-01-11 01:19:22.85	268.42	18.56	-40.2	-42.9	15.0	7.00e-07	0	56	0	540016640	52	4763
2026-01-11 01:19:23.86	268.23	18.48	-40.3	-43.1	14.8	0.00e+00	0	56	0	542113792	52	4876
2026-01-11 01:19:24.87	268.05	18.40	-40.1	-42.8	15.1	0.00e+00	0	56	0	544210944	52	4733
2026-01-11 01:19:25.88	267.86	18.33	-40.2	-42.9	15.0	7.00e-07	0	56	0	546308096	52	4787
2026-01-11 01:19:26.89	267.67	18.25	-40.2	-42.9	14.9	0.00e+00	0	56	0	548405248	52	4811
2026-01-11 01:19:27.90	267.49	18.17	-40.2	-42.8	15.0	0.00e+00	0	56	0	549453824	52	4757
2026-01-11 01:19:28.91	267.30	18.09	-40.1	-42.8	15.1	0.00e+00	0	56	0	551550976	52	4715
2026-01-11 01:19:29.92	267.12	18.01	-39.9	-42.4	15.5	0.00e+00	0	56	0	553648128	51	4809
2026-01-11 01:19:30.93	266.94	17.94	-39.8	-42.2	15.7	0.00e+00	0	56	0	555745280	51	4690
2026-01-11 01:19:31.94	266.76	17.86	-39.7	-42.1	15.8	0.00e+00	0	56	0	557842432	51	4646
2026-01-11 01:19:32.95	266.58	17.78	-39.7	-42.1	15.8	0.00e+00	0	56	0	558891008	51	4625
2026-01-11 01:19:33.96	266.40	17.70	-39.7	-42.2	15.8	0.00e+00	0	56	0	560988160	51	4658
2026-01-11 01:19:34.96	266.22	17.62	-39.8	-42.2	15.7	0.00e+00	0	56	0	563085312	51	4678
2026-01-11 01:19:35.97	266.05	17.54	-39.8	-42.3	15.6	0.00e+00	0	56	0	565182464	51	4711
2026-01-11 01:19:36.98	265.87	17.47	-39.8	-42.3	15.6	0.00e+00	0	56	0	567279616	51	4715
2026-01-11 01:19:37.99	265.70	17.39	-39.8	-42.3	15.6	0.00e+00	0	56	0	568328192	51	4754
2026-01-11 01:19:39.00	265.52	17.31	-39.8	-42.3	15.6	0.00e+00	0	56	0	570425344	51	4735
2026-01-11 01:19:40.01	265.35	17.23	-39.8	-42.3	15.6	0.00e+00	0	56	0	572522496	51	4714
2026-01-11 01:19:41.02	265.18	17.15	-39.8	-42.3	15.6	0.00e+00	0	56	0	574619648	51	4718
2026-01-11 01:19:42.03	265.00	17.07	-39.8	-42.2	15.6	0.00e+00	0	56	0	576716800	51	4705
2026-01-11 01:19:43.04	264.83	16.99	-39.7	-42.1	15.7	0.00e+00	0	56	0	577765376	51	4634
2026-01-11 01:19:44.05	264.66	16.92	-39.6	-42.0	15.9	0.00e+00	0	56	0	579862528	51	4572
2026-01-11 01:19:45.06	264.49	16.84	-39.6	-42.0	15.9	0.00e+00	0	56	0	581959680	51	4581
2026-01-11 01:19:46.07	264.33	16.76	-39.6	-42.0	15.9	0.00e+00	0	56	0	584056832	51	4568
2026-01-11 01:19:47.08	264.16	16.68	-39.7	-42.1	15.8	0.00e+00	0	56	0	586153984	51	4607
2026-01-11 01:19:48.09	263.99	16.60	-39.7	-42.2	15.6	0.00e+00	0	56	0	588251136	51	4693
2026-01-11 01:19:49.09	263.83	16.52	-39.8	-42.4	15.5	0.00e+00	0	56	0	589299712	51	4762
2026-01-11 01:19:50.10	263.66	16.44	-39.9	-42.5	15.4	0.00e+00	0	56	0	591396864	51	4820
2026-01-11 01:19:51.11	263.50	16.37	-39.9	-42.5	15.3	0.00e+00	0	56	0	593494016	51	4859
2026-01-11 01:19:52.12	263.34	16.29	-40.0	-42.6	15.3	0.00e+00	0	56	0	595591168	51	4885
2026-01-11 01:19:53.13	263.18	16.21	-39.9	-42.5	15.3	0.00e+00	0	56	0	597688320	51	4846
2026-01-11 01:19:54.14	263.01	16.13	-39.9	-42.5	15.4	0.00e+00	0	56	0	598736896	51	4838
2026-01-11 01:19:55.15	262.85	16.05	-39.9	-42.5	15.4	0.00e+00	0	56	0	600834048	51	4828
2026-01-11 01:19:56.16	262.70	15.97	-39.8	-42.4	15.5	0.00e+00	0	56	0	602931200	51	4768
2026-01-11 01:19:57.17	262.54	15.90	-39.8	-42.3	15.5	0.00e+00	0	56	0	605028352	51	4737
2026-01-11 01:19:58.18	262.38	15.82	-39.8	-42.4	15.5	0.00e+00	0	56	0	607125504	51	4770
2026-01-11 01:19:59.19	262.22	15.74	-39.8	-42.3	15.5	0.00e+00	0	56	0	608174080	51	4716
2026-01-11 01:20:00.20	262.07	15.66	-39.8	-42.4	15.5	0.00e+00	0	56	0	610271232	51	4775
2026-01-11 01:20:01.21	261.91	15.58	-39.8	-42.4	15.5	0.00e+00	0	56	0	612368384	51	4760
2026-01-11 01:20:02.22	261.76	15.50	-39.8	-42.4	15.4	0.00e+00	0	56	0	614465536	51	4780
2026-01-11 01:20:03.23	261.60	15.43	-39.9	-42.5	15.3	0.00e+00	0	56	0	616562688	51	4845
2026-01-11 01:20:04.24	261.45	15.35	-40.1	-42.7	15.1	0.00e+00	0	56	0	617611264	51	4965
2026-01-11 01:20:05.24	261.30	15.27	-40.1	-42.8	15.1	0.00e+00	0	56	0	619708416	51	4984
2026-01-11 01:20:06.25	261.15	15.19	-40.1	-42.8	15.0	0.00e+00	0	56	0	621805568	51	5023
2026-01-11 01:20:07.26	261.00	15.11	-40.1	-42.8	15.0	0.00e+00	0	56	0	623902720	51	5020
2026-01-11 01:20:08.27	260.85	15.04	-40.1	-42.9	14.9	0.00e+00	0	56	0	625999872	51	5057
2026-01-11 01:20:09.28	260.70	14.96	-40.3	-43.0	14.8	0.00e+00	0	56	0	627048448	51	5150
2026-01-11 01:20:10.29	260.55	14.88	-40.3	-43.1	14.7	7.00e-07	0	56	0	629145600	51	5197
2026-01-11 01:20:11.30	260.40	14.80	-40.3	-43.1	14.7	0.00e+00	0	56	0	631242752	51	5188
2026-01-11 01:20:12.31	260.26	14.72	-40.3	-43.2	14.6	0.00e+00	0	56	0	633339904	51	5221
2026-01-11 01:20:13.32	260.11	14.65	-40.4	-43.3	14.5	0.00e+00	0	56	0	635437056	51	5323
2026-01-11 01:20:14.33	259.97	14.57	-40.5	-43.4	14.4	0.00e+00	0	56	0	636485632	51	5375
2026-01-11 01:20:15.34	259.82	14.49	-40.6	-43.6	14.2	2.20e-06	0	56	0	638582784	51	5482
2026-01-11 01:20:16.35	259.68	14.41	-40.6	-43.7	14.1	1.50e-06	0	56	0	640679936	51	5543
2026-01-11 01:20:17.36	259.54	14.34	-40.6	-43.7	14.1	1.50e-06	0	56	0	642777088	51	5549
2026-01-11 01:20:18.37	259.40	14.26	-40.7	-43.7	14.0	1.50e-06	0	56	0	644874240	51	5574
2026-01-11 01:20:19.38	259.25	14.18	-40.6	-43.7	14.1	7.00e-07	0	56	0	645922816	51	5530
2026-01-11 01:20:20.39	259.11	14.10	-40.6	-43.6	14.2	1.50e-06	0	56	0	648019968	51	5472
2026-01-11 01:20:21.40	258.97	14.03	-40.6	-43.5	14.2	1.50e-06	0	56	0	650117120	51	5464
2026-01-11 01:20:22.41	258.84	13.95	-40.5	-43.5	14.2	7.00e-07	0	56	0	652214272	51	5440
2026-01-11 01:20:23.41	258.70	13.87	-40.5	-43.5	14.2	7.00e-07	0	56	0	654311424	51	5410
2026-01-11 01:20:24.42	258.56	13.80	-40.4	-43.3	14.4	0.00e+00	0	56	0	656408576	51	5324
2026-01-11 01:20:25.43	258.42	13.72	-40.4	-43.4	14.4	2.20e-06	0	56	0	657457152	51	5347
2026-01-11 01:20:26.44	258.29	13.64	-40.5	-43.4	14.3	1.50e-06	0	56	0	659554304	51	5402
2026-01-11 01:20:27.45	258.15	13.57	-40.6	-43.6	14.1	1.50e-06	0	56	0	661651456	51	5497
2026-01-11 01:20:28.47	258.02	13.49	-40.6	-43.7	14.0	0.00e+00	0	56	0	663748608	51	5574
2026-01-11 01:20:29.48	257.88	13.41	-40.7	-43.8	13.8	2.20e-06	0	56	0	665845760	52	5338
2026-01-11 01:20:30.49	257.75	13.34	-40.8	-44.0	13.6	5.30e-06	0	56	0	666894336	52	5430
2026-01-11 01:20:31.50	257.62	13.26	-40.8	-44.0	13.6	4.50e-06	0	56	0	668991488	52	5433
2026-01-11 01:20:32.51	257.49	13.18	-40.8	-44.1	13.5	6.10e-06	0	56	0	671088640	52	5469
2026-01-11 01:20:33.52	257.35	13.11	-40.7	-44.0	13.7	9.10e-06	0	56	0	673185792	52	5404
2026-01-11 01:20:34.53	257.22	13.03	-40.7	-43.9	13.7	3.80e-06	0	56	0	675282944	52	5380
2026-01-11 01:20:35.54	257.09	12.96	-40.7	-43.9	13.7	6.80e-06	0	56	0	676331520	52	5383
2026-01-11 01:20:36.54	256.97	12.88	-40.7	-43.9	13.7	8.30e-06	0	56	0	678428672	52	5374
2026-01-11 01:20:37.55	256.84	12.81	-40.7	-43.8	13.8	7.60e-06	0	56	0	680525824	52	5318
2026-01-11 01:20:38.56	256.71	12.73	-40.7	-43.8	13.7	4.50e-06	0	56	0	682622976	52	5325
2026-01-11 01:20:39.57	256.58	12.65	-40.7	-43.9	13.7	6.80e-06	0	56	0	684720128	52	5378
2026-01-11 01:20:40.58	256.46	12.58	-40.7	-43.9	13.6	5.30e-06	0	56	0	685768704	52	5376
2026-01-11 01:20:41.59	256.33	12.50	-40.8	-44.0	13.5	8.30e-06	0	56	0	687865856	52	5437
2026-01-11 01:20:42.60	256.21	12.43	-40.9	-44.2	13.3	1.29e-05	0	56	0	689963008	52	5558
2026-01-11 01:20:43.61	256.08	12.35	-40.9	-44.3	13.3	1.37e-05	0	56	0	692060160	52	5626
2026-01-11 01:20:44.62	255.96	12.28	-40.9	-44.4	13.1	1.98e-05	0	56	0	694157312	52	5671
2026-01-11 01:20:45.63	255.83	12.20	-40.9	-44.4	13.2	2.44e-05	0	56	0	695205888	52	5664
2026-01-11 01:20:46.64	255.71	12.13	-40.9	-44.2	13.3	3.12e-05	0	56	0	697303040	52	5583
2026-01-11 01:20:47.65	255.59	12.05	-40.8	-44.2	13.3	1.29e-05	0	56	0	699400192	52	5539
2026-01-11 01:20:48.65	255.47	11.98	-40.9	-44.3	13.2	3.05e-05	0	56	0	701497344	52	5625
2026-01-11 01:20:49.66	255.35	11.90	-40.9	-44.2	13.3	2.51e-05	0	56	0	703594496	52	5574
2026-01-11 01:20:50.67	255.23	11.83	-40.9	-44.2	13.3	2.67e-05	0	56	0	704643072	52	5590
2026-01-11 01:20:51.68	255.11	11.75	-40.9	-44.2	13.2	2.59e-05	0	56	0	706740224	52	5587
2026-01-11 01:20:52.69	254.99	11.68	-40.9	-44.3	13.2	1.67e-05	0	56	0	708837376	52	5613
2026-01-11 01:20:53.70	254.87	11.61	-40.9	-44.2	13.2	1.52e-05	0	56	0	710934528	52	5591
2026-01-11 01:20:54.71	254.75	11.53	-40.9	-44.4	13.1	3.81e-05	0	56	0	713031680	52	5682
2026-01-11 01:20:55.72	254.64	11.46	-40.9	-44.3	13.1	4.19e-05	0	56	0	714080256	52	5652
2026-01-11 01:20:56.73	254.52	11.38	-40.9	-44.3	13.2	3.50e-05	0	56	0	716177408	52	5614
2026-01-11 01:20:57.74	254.41	11.31	-40.9	-44.3	13.1	2.44e-05	0	56	0	718274560	52	5629
2026-01-11 01:20:58.75	254.29	11.24	-40.9	-44.4	13.0	4.11e-05	0	56	0	720371712	52	5698
2026-01-11 01:20:59.76	254.18	11.16	-41.0	-44.5	13.0	3.43e-05	0	56	0	722468864	52	5748
2026-01-11 01:21:00.77	254.06	11.09	-41.0	-44.6	12.8	6.56e-05	0	56	0	724566016	52	5806
2026-01-11 01:21:01.78	253.95	11.02	-41.0	-44.6	12.8	7.32e-05	0	56	0	725614592	52	5821
2026-01-11 01:21:02.79	253.84	10.94	-41.0	-44.5	12.9	4.57e-05	0	56	0	727711744	52	5751
2026-01-11 01:21:03.80	253.72	10.87	-41.0	-44.6	12.8	5.64e-05	0	56	0	729808896	52	5805
2026-01-11 01:21:04.81	253.61	10.80	-41.0	-44.6	12.8	8.08e-05	0	56	0	731906048	52	5811
2026-01-11 01:21:05.82	253.50	10.72	-40.9	-44.4	13.0	4.57e-05	0	56	0	732954624	52	5710
2026-01-11 01:21:06.82	253.39	10.65	-40.9	-44.4	13.0	3.96e-05	0	56	0	735051776	52	5677
2026-01-11 01:21:07.83	253.28	10.58	-40.9	-44.4	13.0	3.73e-05	0	56	0	737148928	52	5715
2026-01-11 01:21:08.84	253.17	10.51	-40.9	-44.5	12.9	4.95e-05	0	56	0	739246080	52	5732
2026-01-11 01:21:09.85	253.06	10.43	-41.0	-44.6	12.8	3.05e-05	0	56	0	741343232	52	5803
2026-01-11 01:21:10.86	252.95	10.36	-41.0	-44.6	12.7	8.08e-05	0	56	0	742391808	52	5854
2026-01-11 01:21:11.87	252.85	10.29	-41.1	-44.8	12.6	8.46e-05	0	56	0	744488960	52	5934
2026-01-11 01:21:12.88	252.74	10.22	-41.0	-44.6	12.7	7.93e-05	0	56	0	746586112	52	5850
2026-01-11 01:21:13.89	252.63	10.15	-41.1	-44.8	12.6	9.68e-05	0	56	0	748683264	52	5954
2026-01-11 01:21:14.90	252.53	10.07	-41.1	-44.8	12.6	1.09e-04	0	56	0	750780416	52	5956
2026-01-11 01:21:15.91	252.42	10.00	-41.2	-45.0	12.3	1.29e-04	0	56	0	752877568	52	6106
2026-01-11 01:21:16.92	252.31	9.93	-41.2	-45.1	12.2	1.84e-04	0	56	0	753926144	53	5811
2026-01-11 01:21:17.93	252.21	9.86	-41.3	-45.3	12.0	2.89e-04	0	56	0	756023296	53	5973
2026-01-11 01:21:18.94	252.11	9.79	-41.4	-45.4	11.9	4.39e-04	0	56	0	758120448	53	6048
2026-01-11 01:21:19.95	252.00	9.72	-41.4	-45.5	11.8	5.07e-04	0	56	0	760217600	53	6120
2026-01-11 01:21:20.96	251.90	9.64	-41.5	-45.7	11.5	6.83e-04	0	56	0	762314752	53	6245
2026-01-11 01:21:21.97	251.80	9.57	-41.5	-45.6	11.7	8.08e-04	0	56	0	763363328	53	6150
2026-01-11 01:21:22.98	251.69	9.50	-41.4	-45.6	11.7	6.06e-04	0	56	0	765460480	53	6139
2026-01-11 01:21:23.99	251.59	9.43	-41.5	-45.6	11.6	6.03e-04	0	56	0	767557632	53	6162
2026-01-11 01:21:25.00	251.49	9.36	-41.4	-45.5	11.8	5.55e-04	0	56	0	769654784	53	6065
2026-01-11 01:21:26.01	251.39	9.29	-41.4	-45.4	11.8	4.97e-04	0	56	0	771751936	53	6053
2026-01-11 01:21:27.02	251.29	9.22	-41.4	-45.4	11.8	4.81e-04	0	56	0	772800512	53	6056
2026-01-11 01:21:28.03	251.19	9.15	-41.4	-45.6	11.7	5.90e-04	0	56	0	774897664	53	6142
2026-01-11 01:21:29.04	251.09	9.08	-41.5	-45.6	11.6	6.02e-04	0	56	0	776994816	53	6198
2026-01-11 01:21:30.05	250.99	9.01	-41.5	-45.6	11.6	6.12e-04	0	56	0	779091968	53	6194
2026-01-11 01:21:31.06	250.89	8.94	-41.6	-45.9	11.3	9.08e-04	0	56	0	781189120	53	6379
2026-01-11 01:21:32.07	250.80	8.87	-41.7	-46.2	11.0	1.35e-03	0	56	0	782237696	53	6583
2026-01-11 01:21:33.08	250.70	8.80	-41.7	-46.1	11.1	1.72e-03	0	56	0	784334848	53	6541
2026-01-11 01:21:34.09	250.60	8.73	-41.6	-45.9	11.2	1.57e-03	0	56	0	786432000	53	6417
2026-01-11 01:21:35.10	250.51	8.66	-41.6	-46.0	11.2	1.30e-03	0	56	0	788529152	53	6448
2026-01-11 01:21:36.11	250.41	8.59	-41.6	-46.0	11.1	1.57e-03	0	56	0	790626304	53	6468
2026-01-11 01:21:37.12	250.32	8.52	-41.7	-46.2	10.9	1.79e-03	0	56	0	791674880	53	6614
2026-01-11 01:21:38.13	250.22	8.45	-41.6	-46.0	11.2	1.40e-03	0	56	0	793772032	53	6446
2026-01-11 01:21:39.13	250.13	8.38	-41.6	-46.1	11.1	1.87e-03	0	56	0	795869184	53	6516
2026-01-11 01:21:40.14	250.03	8.31	-41.6	-46.0	11.2	1.44e-03	0	56	0	797966336	53	6422
2026-01-11 01:21:41.15	249.94	8.25	-41.6	-46.0	11.1	1.38e-03	0	56	0	800063488	53	6429
2026-01-11 01:21:42.16	249.85	8.18	-41.6	-46.0	11.1	1.68e-03	0	56	0	801112064	53	6428
2026-01-11 01:21:43.17	249.75	8.11	-41.5	-45.8	11.3	1.32e-03	0	56	0	803209216	53	6322
2026-01-11 01:21:44.18	249.66	8.04	-41.7	-46.3	10.8	1.46e-03	0	56	0	805306368	54	6309
2026-01-11 01:21:45.19	249.57	7.97	-44.4	-58.6	3.8	1.06e+00	0	56	104	806354944	59	19497
2026-01-11 01:21:46.20	249.48	7.90	-44.6	-59.1	3.8	1.49e+00	0	56	104	806354944	59	20625
2026-01-11 01:21:47.21	249.39	7.83	-44.7	-59.4	3.8	1.49e+00	0	56	104	806354944	60	20140
2026-01-11 01:21:48.22	249.30	7.77	-44.9	-59.5	3.8	1.49e+00	0	56	104	806354944	60	20511
2026-01-11 01:21:49.23	249.21	7.70	-44.9	-59.6	3.8	1.49e+00	0	56	104	806354944	60	20719
2026-01-11 01:21:50.24	249.12	7.63	-45.0	-59.7	3.8	1.49e+00	0	56	104	806354944	60	20861
2026-01-11 01:21:51.25	249.03	7.56	-45.1	-59.8	3.8	1.49e+00	0	56	104	806354944	60	21026
2026-01-11 01:21:52.26	248.94	7.50	-45.1	-59.8	3.8	1.49e+00	0	56	104	806354944	60	21154
2026-01-11 01:21:53.27	248.85	7.43	-45.1	-59.8	3.8	1.49e+00	0	56	104	806354944	60	21201
2026-01-11 01:21:54.28	248.77	7.36	-45.1	-59.8	3.8	1.49e+00	0	56	104	806354944	60	21191
2026-01-11 01:21:55.29	248.68	7.29	-45.1	-59.8	3.8	1.49e+00	0	56	104	806354944	60	21162
2026-01-11 01:21:56.30	248.59	7.23	-45.0	-59.8	3.8	1.49e+00	0	56	104	806354944	60	21047
2026-01-11 01:21:57.31	248.50	7.16	-45.0	-59.8	3.8	1.49e+00	0	56	104	806354944	60	21085
2026-01-11 01:21:58.32	248.42	7.09	-45.0	-59.8	3.8	1.49e+00	0	56	104	806354944	60	21098
2026-01-11 01:21:59.34	248.33	7.02	-45.0	-59.8	3.8	1.49e+00	0	56	104	806354944	60	21078
2026-01-11 01:22:00.35	248.25	6.96	-45.0	-59.8	3.8	1.49e+00	0	56	104	806354944	60	21038
2026-01-11 01:22:01.36	248.16	6.89	-45.0	-59.8	3.8	1.49e+00	0	56	104	806354944	60	21049
2026-01-11 01:22:02.37	248.08	6.82	-44.9	-59.7	3.8	1.49e+00	0	56	104	806354944	60	21014
2026-01-11 01:22:03.38	247.99	6.76	-45.0	-59.7	3.8	1.49e+00	0	56	104	806354944	60	21004
2026-01-11 01:22:04.39	247.91	6.69	-45.0	-59.7	3.8	1.49e+00	0	56	104	806354944	60	21002
2026-01-11 01:22:05.40	247.83	6.63	-45.0	-59.7	3.8	1.49e+00	0	56	104	806354944	60	20969
2026-01-11 01:22:06.41	247.74	6.56	-45.0	-59.7	3.8	1.49e+00	0	56	104	806354944	60	20958
2026-01-11 01:22:07.43	247.66	6.49	-45.0	-59.7	3.8	1.49e+00	0	56	104	806354944	60	20944
2026-01-11 01:22:08.44	247.58	6.43	-44.9	-59.8	3.8	1.49e+00	0	56	104	806354944	60	21031
2026-01-11 01:22:09.45	247.49	6.36	-44.9	-59.7	3.8	1.49e+00	0	56	104	806354944	60	21007
2026-01-11 01:22:10.46	247.41	6.30	-45.0	-59.7	3.8	1.49e+00	0	56	104	806354944	60	20950
2026-01-11 01:22:11.47	247.33	6.23	-45.0	-59.7	3.8	1.49e+00	0	56	104	806354944	60	20976
