passes_logs/2026/01/11/R2.0S_Moscow/R2.0S_Moscow__20260111_083118_NOAA_21_JPSS-2_rec.log

#Pass ID: 20260111_083118_NOAA 21 (JPSS-2)
#Satellite: NOAA 21 (JPSS-2)
#Configuration: NOAA-21
#almurnet v.1.7.20251203
#Start time: 2026-01-11 08:31:19

#Version: 2.2.20231116
#Station: R2.0S_Moscow
#Location: 37.707566 lon 55.798166 lat
#TLE: 1 54234U 22150A   26009.79679979  .00000100  00000+0  68070-4 0  9993
#TLE: 2 54234  98.7494 310.7596 0000833 322.2782  37.8335 14.19533646164071

#Time	Az	El	Level	Level2	SNR	BER	BlckErr	Temp	State	Recorded	gain1	gain2
2026-01-11 08:31:19.90	119.68	2.08	-22.1	-43.7	4.6	1.50e+00	0	46	0	0	18	36975
2026-01-11 08:31:20.91	119.62	2.14	-23.6	-41.6	4.0	1.51e+00	0	47	104	0	15	34748
2026-01-11 08:31:21.92	119.57	2.20	-21.1	-39.1	3.8	1.50e+00	0	47	104	0	17	23195
2026-01-11 08:31:22.93	119.51	2.26	-23.0	-41.4	3.6	1.50e+00	0	47	104	0	13	37906
2026-01-11 08:31:23.94	119.45	2.32	-24.4	-41.2	3.9	1.50e+00	0	47	104	0	17	29686
2026-01-11 08:31:24.95	119.39	2.38	-19.2	-38.4	3.7	1.50e+00	0	47	104	0	16	22527
2026-01-11 08:31:25.96	119.33	2.44	-22.6	-42.3	3.6	1.50e+00	0	47	104	0	13	42020
2026-01-11 08:31:26.98	119.27	2.50	-22.2	-41.5	3.9	1.50e+00	0	47	104	0	16	32390
2026-01-11 08:31:27.99	119.21	2.56	-24.3	-41.6	4.0	1.50e+00	0	47	104	0	18	29311
2026-01-11 08:31:29.00	119.15	2.62	-23.5	-40.9	4.0	1.50e+00	0	47	104	0	16	30285
2026-01-11 08:31:30.01	119.09	2.68	-18.0	-40.3	3.5	1.50e+00	0	48	104	0	16	28260
2026-01-11 08:31:31.02	119.03	2.74	-24.0	-43.0	6.8	1.50e+00	0	47	104	0	9	57244
2026-01-11 08:31:32.03	118.97	2.80	-24.7	-41.1	3.5	1.50e+00	0	48	104	0	16	31036
2026-01-11 08:31:33.04	118.91	2.86	-18.8	-35.8	3.7	1.50e+00	0	48	104	0	13	20026
2026-01-11 08:31:34.05	118.85	2.92	-19.8	-39.8	3.9	1.50e+00	0	48	104	0	15	28296
2026-01-11 08:31:35.06	118.79	2.98	-22.0	-43.5	3.8	1.50e+00	0	48	104	0	15	43228
2026-01-11 08:31:36.07	118.73	3.04	-23.1	-42.6	3.2	1.51e+00	0	48	104	0	9	55237
2026-01-11 08:31:37.08	118.67	3.10	-23.5	-43.2	4.3	1.50e+00	0	48	104	0	18	35046
2026-01-11 08:31:38.09	118.61	3.16	-20.1	-39.1	3.0	1.50e+00	0	48	104	0	2	55111
2026-01-11 08:31:39.10	118.54	3.23	-24.5	-44.3	4.0	1.50e+00	0	48	104	0	17	42031
2026-01-11 08:31:40.12	118.48	3.29	-20.0	-39.7	3.7	1.50e+00	0	48	104	0	13	31356
2026-01-11 08:31:41.13	118.42	3.35	-21.5	-39.8	4.0	1.50e+00	0	48	104	0	18	23851
2026-01-11 08:31:42.14	118.36	3.41	-24.3	-43.0	5.2	1.50e+00	0	48	104	0	17	36523
2026-01-11 08:31:43.15	118.29	3.47	-20.8	-42.1	4.0	1.50e+00	0	49	104	0	17	32656
2026-01-11 08:31:44.16	118.23	3.53	-19.2	-38.1	3.7	1.50e+00	0	49	104	0	15	23154
2026-01-11 08:31:45.17	118.17	3.60	-23.9	-42.5	3.4	1.50e+00	0	48	104	0	14	40943
2026-01-11 08:31:46.18	118.10	3.66	-20.7	-39.1	3.8	1.50e+00	0	48	104	0	14	27492
2026-01-11 08:31:47.19	118.04	3.72	-9.5	-33.3	3.7	1.50e+00	0	49	104	0	3	26528
2026-01-11 08:31:48.20	117.97	3.78	-17.0	-34.4	-1.2	1.50e+00	0	49	104	0	14	15949
2026-01-11 08:31:49.21	117.91	3.84	-23.9	-43.3	4.0	1.50e+00	0	49	104	0	16	39782
2026-01-11 08:31:50.22	117.84	3.91	-23.6	-43.0	4.1	1.50e+00	0	49	104	0	14	42958
2026-01-11 08:31:51.23	117.78	3.97	-15.9	-31.7	3.9	1.50e+00	0	49	104	0	11	13919
2026-01-11 08:31:52.24	117.71	4.03	-23.7	-42.6	3.6	1.50e+00	0	49	104	0	14	41419
2026-01-11 08:31:53.25	117.65	4.09	-20.3	-40.5	3.9	1.50e+00	0	49	104	0	17	27324
2026-01-11 08:31:54.26	117.58	4.16	-22.0	-41.7	3.9	1.50e+00	0	49	104	0	16	33286
2026-01-11 08:31:55.27	117.51	4.22	-23.4	-42.1	3.7	1.50e+00	0	49	104	0	18	30766
2026-01-11 08:31:56.28	117.45	4.28	-23.8	-42.7	3.8	1.50e+00	0	49	104	0	17	35236
2026-01-11 08:31:57.29	117.38	4.35	-19.0	-35.0	3.7	1.50e+00	0	49	104	0	13	18188
2026-01-11 08:31:58.31	117.31	4.41	-24.1	-42.2	4.1	1.50e+00	0	49	104	0	17	33216
2026-01-11 08:31:59.32	117.24	4.47	-17.5	-41.2	4.2	1.50e+00	0	49	104	0	16	31320
2026-01-11 08:32:00.33	117.17	4.54	-21.7	-39.7	4.0	1.50e+00	0	49	104	0	17	24709
2026-01-11 08:32:01.34	117.11	4.60	-21.2	-41.2	3.7	1.50e+00	0	49	104	0	17	29447
2026-01-11 08:32:02.35	117.04	4.66	-21.7	-41.6	4.0	1.50e+00	0	50	104	0	16	32766
2026-01-11 08:32:03.36	116.97	4.73	-13.7	-34.1	3.8	1.51e+00	0	49	104	0	0	34622
2026-01-11 08:32:04.37	116.90	4.79	-14.1	-34.4	3.6	1.51e+00	0	50	104	0	0	35971
2026-01-11 08:32:05.38	116.83	4.86	-18.0	-38.7	3.7	1.50e+00	0	50	104	0	11	31434
2026-01-11 08:32:06.39	116.76	4.92	-21.1	-37.0	3.5	1.51e+00	0	50	104	0	4	38675
2026-01-11 08:32:07.40	116.69	4.98	-22.2	-42.4	3.6	1.50e+00	0	50	104	0	13	42630
2026-01-11 08:32:08.41	116.62	5.05	-23.8	-40.7	4.2	1.50e+00	0	50	104	0	16	29548
2026-01-11 08:32:09.43	116.55	5.11	-21.7	-40.7	3.8	1.50e+00	0	50	104	0	14	33145
2026-01-11 08:32:10.44	116.48	5.18	-19.4	-38.3	3.5	1.50e+00	0	50	104	0	12	28303
2026-01-11 08:32:11.45	116.40	5.24	-16.6	-36.9	4.0	1.50e+00	0	50	104	0	12	23911
2026-01-11 08:32:12.46	116.33	5.31	-19.4	-37.9	4.1	1.50e+00	0	50	104	0	18	19025
2026-01-11 08:32:13.47	116.26	5.37	-22.2	-39.2	3.5	1.50e+00	0	50	104	0	15	26177
2026-01-11 08:32:14.48	116.19	5.44	-23.9	-43.6	4.0	1.50e+00	0	50	104	0	18	36906
2026-01-11 08:32:15.49	116.11	5.50	-20.8	-37.7	3.8	1.50e+00	0	50	104	0	16	20843
2026-01-11 08:32:16.50	116.04	5.57	-18.5	-36.2	3.6	1.50e+00	0	50	104	0	11	23512
2026-01-11 08:32:17.51	115.97	5.63	-18.3	-36.1	3.6	1.50e+00	0	50	104	0	9	26053
2026-01-11 08:32:18.52	115.89	5.70	-21.9	-38.3	3.7	1.50e+00	0	50	104	0	12	28252
2026-01-11 08:32:19.53	115.82	5.76	-20.5	-39.5	3.6	1.50e+00	0	50	104	0	13	30624
2026-01-11 08:32:20.54	115.74	5.83	-22.8	-43.0	4.1	1.51e+00	0	50	104	0	14	42994
2026-01-11 08:32:21.56	115.67	5.90	-22.9	-39.3	4.1	1.50e+00	0	50	104	0	13	29931
2026-01-11 08:32:22.57	115.59	5.96	-18.8	-36.9	4.1	1.50e+00	0	51	104	0	14	21345
2026-01-11 08:32:23.58	115.52	6.03	-17.3	-39.3	3.7	1.50e+00	0	51	104	0	8	39632
2026-01-11 08:32:24.59	115.44	6.09	-23.3	-43.6	4.1	1.50e+00	0	51	104	0	18	36609
2026-01-11 08:32:25.60	115.37	6.16	-24.4	-42.4	3.4	1.50e+00	0	51	104	0	16	35725
2026-01-11 08:32:26.61	115.29	6.23	-23.8	-43.6	4.1	1.50e+00	0	51	104	0	18	36530
2026-01-11 08:32:27.62	115.21	6.29	-23.7	-42.4	4.0	1.50e+00	0	51	104	0	18	31870
2026-01-11 08:32:28.63	115.13	6.36	-23.7	-43.1	3.7	1.50e+00	0	51	104	0	16	38974
2026-01-11 08:32:29.64	115.06	6.43	-22.5	-41.5	3.9	1.50e+00	0	51	104	0	17	30699
2026-01-11 08:32:30.66	114.98	6.50	-24.1	-42.9	3.4	1.50e+00	0	51	104	0	15	40409
2026-01-11 08:32:31.67	114.90	6.56	-19.8	-38.6	3.8	1.51e+00	0	51	104	0	15	24565
2026-01-11 08:32:32.68	114.82	6.63	-20.7	-40.7	3.7	1.50e+00	0	51	104	0	14	33078
2026-01-11 08:32:33.69	114.74	6.70	-22.2	-41.9	3.7	1.50e+00	0	51	104	0	16	33977
2026-01-11 08:32:34.70	114.66	6.76	-21.0	-40.2	3.9	1.50e+00	0	51	104	0	16	28003
2026-01-11 08:32:35.71	114.58	6.83	-20.3	-38.0	3.6	1.50e+00	0	51	104	0	11	28826
2026-01-11 08:32:36.72	114.50	6.90	-14.2	-35.2	3.9	1.51e+00	0	51	104	0	3	32930
2026-01-11 08:32:37.74	114.42	6.97	-24.4	-42.3	4.1	1.51e+00	0	51	104	0	17	33319
2026-01-11 08:32:38.75	114.34	7.04	-17.6	-37.9	3.6	1.50e+00	0	51	104	0	10	30175
2026-01-11 08:32:39.76	114.26	7.10	-23.9	-40.9	4.1	1.50e+00	0	51	104	0	17	28584
2026-01-11 08:32:40.77	114.17	7.17	-24.2	-43.3	3.9	1.50e+00	0	51	104	0	18	35309
2026-01-11 08:32:41.78	114.09	7.24	-19.2	-37.1	3.9	1.50e+00	0	52	104	0	16	19403
2026-01-11 08:32:42.79	114.01	7.31	-24.3	-41.8	3.8	1.50e+00	0	51	104	0	15	35450
2026-01-11 08:32:43.80	113.92	7.38	-24.1	-41.8	4.3	1.50e+00	0	51	104	0	17	31500
2026-01-11 08:32:44.81	113.84	7.45	-23.3	-41.4	4.1	1.49e+00	0	52	104	0	17	30192
2026-01-11 08:32:45.83	113.76	7.52	-24.0	-41.2	4.3	1.49e+00	0	52	104	0	18	27931
2026-01-11 08:32:46.84	113.67	7.59	-21.4	-39.1	4.2	1.49e+00	0	52	104	0	14	27576
2026-01-11 08:32:47.85	113.59	7.65	-17.7	-36.3	4.0	1.50e+00	0	51	104	0	9	26704
2026-01-11 08:32:48.86	113.50	7.72	-22.4	-35.4	4.6	1.50e+00	0	52	104	0	14	17963
2026-01-11 08:32:49.87	113.42	7.79	-20.7	-38.3	4.1	1.50e+00	0	52	104	0	11	29872
2026-01-11 08:32:50.88	113.33	7.86	-18.2	-34.0	4.0	1.49e+00	0	52	104	0	10	19195
2026-01-11 08:32:51.89	113.24	7.93	-19.8	-35.3	4.2	1.50e+00	0	52	104	0	9	23846
2026-01-11 08:32:52.90	113.16	8.00	-22.3	-38.2	4.2	1.47e+00	0	52	104	0	15	23400
2026-01-11 08:32:53.91	113.07	8.07	-38.3	-53.9	4.1	1.49e+00	0	52	104	0	50	19034
2026-01-11 08:32:54.92	112.98	8.14	-20.1	-36.3	4.1	1.49e+00	0	52	104	0	17	16851
2026-01-11 08:32:55.93	112.89	8.21	-14.4	-33.7	3.8	1.49e+00	0	52	104	0	1	31278
2026-01-11 08:32:56.95	112.80	8.28	-15.4	-34.9	3.8	1.51e+00	0	52	104	0	6	26952
2026-01-11 08:32:57.96	112.71	8.35	-14.1	-32.2	3.8	1.51e+00	0	52	104	0	0	27717
2026-01-11 08:32:58.97	112.62	8.42	-23.6	-40.0	3.7	1.50e+00	0	52	104	0	14	30695
2026-01-11 08:32:59.97	112.54	8.49	-22.4	-42.1	3.8	1.50e+00	0	52	104	0	18	30749
2026-01-11 08:33:00.98	112.45	8.56	-17.8	-34.9	3.7	1.50e+00	0	52	104	0	11	20260
2026-01-11 08:33:01.99	112.35	8.64	-25.6	-44.4	3.7	1.50e+00	0	52	104	0	20	36063
2026-01-11 08:33:03.00	112.26	8.71	-27.2	-43.2	4.3	1.49e+00	0	52	104	0	24	24948
2026-01-11 08:33:04.01	112.17	8.78	-29.2	-46.4	4.1	1.46e+00	0	52	104	0	30	25491
2026-01-11 08:33:05.02	112.08	8.85	-32.4	-44.2	6.6	1.44e+00	15	52	104	0	37	13185
2026-01-11 08:33:06.03	111.99	8.92	-20.5	-39.8	3.7	1.50e+00	0	52	104	0	17	25070
2026-01-11 08:33:07.04	111.89	8.99	-26.9	-41.2	4.3	1.45e+00	0	52	104	0	29	14876
2026-01-11 08:33:08.05	111.80	9.06	-32.2	-43.0	6.9	4.71e-01	6	52	0	0	37	11507
2026-01-11 08:33:09.06	111.70	9.14	-34.4	-42.5	8.1	3.64e-01	5	52	0	2097152	40	9092
2026-01-11 08:33:10.07	111.61	9.21	-33.0	-42.8	8.3	3.64e-01	7	52	0	4194304	42	8402
2026-01-11 08:33:11.08	111.51	9.28	-36.6	-43.2	9.3	1.39e-01	6	52	0	7340032	44	7850
2026-01-11 08:33:12.09	111.42	9.35	-36.8	-42.6	10.3	9.04e-02	0	52	0	10485760	43	7749
2026-01-11 08:33:13.10	111.32	9.42	-35.5	-42.0	10.3	3.95e-02	0	52	0	13631488	45	6483
2026-01-11 08:33:14.11	111.23	9.50	-35.5	-40.3	11.7	1.68e-02	0	53	0	16777216	43	5989
2026-01-11 08:33:15.12	111.13	9.57	-37.0	-41.2	12.5	1.78e-02	0	53	0	19922944	45	5901
2026-01-11 08:33:16.13	111.03	9.64	-37.6	-41.5	11.3	2.57e-02	0	52	0	23068672	44	6473
2026-01-11 08:33:17.14	110.93	9.72	-36.4	-40.7	12.6	7.41e-03	0	53	0	26214400	44	5861
2026-01-11 08:33:18.15	110.84	9.79	-38.0	-41.1	13.1	1.57e-02	0	53	0	29360128	46	5493
2026-01-11 08:33:19.16	110.74	9.86	-37.7	-40.9	13.4	5.15e-03	0	53	0	32505856	46	5370
2026-01-11 08:33:20.17	110.64	9.94	-33.0	-40.4	12.5	3.02e-03	0	53	0	35651584	43	6030
2026-01-11 08:33:21.18	110.54	10.01	-37.7	-40.7	13.5	2.00e-03	0	53	0	38797312	46	5252
2026-01-11 08:33:22.19	110.44	10.08	-37.9	-40.7	13.9	2.35e-03	0	53	0	41943040	46	5228
2026-01-11 08:33:23.20	110.33	10.16	-38.0	-40.8	13.5	3.74e-03	0	52	0	45088768	46	5335
2026-01-11 08:33:24.21	110.23	10.23	-36.1	-40.7	12.5	1.23e-03	0	53	0	48234496	44	5921
2026-01-11 08:33:25.21	110.13	10.30	-38.2	-40.7	13.9	1.65e-03	0	53	0	51380224	47	4974
2026-01-11 08:33:26.22	110.03	10.38	-38.1	-40.8	13.9	3.48e-03	0	53	0	54525952	47	5013
2026-01-11 08:33:27.23	109.93	10.45	-36.9	-41.2	13.3	2.05e-03	0	53	0	57671680	46	5568
2026-01-11 08:33:28.24	109.82	10.53	-38.3	-41.0	13.7	1.12e-03	0	53	0	60817408	47	5101
2026-01-11 08:33:29.25	109.72	10.60	-38.2	-40.9	13.9	4.52e-04	0	53	0	63963136	47	5047
2026-01-11 08:33:30.27	109.61	10.68	-38.3	-40.6	14.2	2.46e-04	0	53	0	67108864	47	4893
2026-01-11 08:33:31.28	109.51	10.75	-38.4	-40.6	14.2	2.68e-04	0	53	0	70254592	47	4920
2026-01-11 08:33:32.29	109.40	10.83	-38.4	-40.7	14.2	3.96e-05	0	53	0	73400320	47	4945
2026-01-11 08:33:33.30	109.29	10.90	-38.3	-40.5	14.3	2.28e-05	0	53	0	76546048	47	4866
2026-01-11 08:33:34.31	109.19	10.98	-38.3	-40.5	14.4	3.73e-04	0	53	0	79691776	47	4860
2026-01-11 08:33:35.32	109.08	11.05	-38.4	-40.5	14.4	2.82e-04	0	53	0	82837504	47	4837
2026-01-11 08:33:36.33	108.97	11.13	-38.3	-40.4	14.5	5.30e-06	0	53	0	85983232	47	4788
2026-01-11 08:33:37.34	108.86	11.20	-38.2	-40.2	14.7	4.50e-06	0	53	0	89128960	47	4689
2026-01-11 08:33:38.35	108.75	11.28	-38.0	-40.2	14.8	1.50e-06	0	53	0	92274688	47	4652
2026-01-11 08:33:39.36	108.64	11.35	-38.1	-40.2	14.8	3.00e-06	0	53	0	95420416	47	4657
2026-01-11 08:33:40.37	108.53	11.43	-38.2	-40.1	14.8	7.60e-06	0	53	0	98566144	47	4651
2026-01-11 08:33:41.38	108.42	11.51	-38.2	-40.2	14.8	0.00e+00	0	53	0	101711872	47	4681
2026-01-11 08:33:42.39	108.31	11.58	-37.9	-40.1	14.8	1.60e-05	0	53	0	104857600	46	4887
2026-01-11 08:33:43.40	108.20	11.66	-38.2	-40.1	14.9	0.00e+00	0	53	0	108003328	46	4920
2026-01-11 08:33:44.41	108.08	11.73	-37.9	-40.1	14.9	0.00e+00	0	53	0	111149056	46	4897
2026-01-11 08:33:45.42	107.97	11.81	-38.1	-40.1	14.9	7.00e-07	0	53	0	114294784	47	4635
2026-01-11 08:33:46.43	107.86	11.89	-38.2	-40.2	14.8	0.00e+00	0	53	0	117440512	46	4952
2026-01-11 08:33:47.44	107.74	11.96	-38.2	-40.2	14.8	7.60e-06	0	53	0	120586240	46	4960
2026-01-11 08:33:48.45	107.63	12.04	-38.0	-40.1	14.9	3.43e-05	0	53	0	123731968	46	4901
2026-01-11 08:33:49.46	107.51	12.12	-38.1	-40.1	15.0	1.50e-06	0	53	0	126877696	47	4619
2026-01-11 08:33:50.47	107.39	12.20	-38.1	-40.2	14.7	2.52e-03	0	53	0	130023424	46	4932
2026-01-11 08:33:51.48	107.28	12.27	-36.3	-40.2	14.1	7.76e-04	0	53	0	133169152	45	5274
2026-01-11 08:33:52.49	107.16	12.35	-37.9	-40.1	14.9	1.50e-06	0	53	0	136314880	46	4894
2026-01-11 08:33:53.50	107.04	12.43	-38.0	-40.1	14.9	2.28e-05	0	53	0	139460608	46	4900
2026-01-11 08:33:54.51	106.92	12.51	-38.0	-40.2	14.8	3.00e-06	0	53	0	142606336	46	4936
2026-01-11 08:33:55.52	106.80	12.58	-38.1	-40.2	14.9	4.65e-05	0	53	0	145752064	46	4933
2026-01-11 08:33:56.53	106.68	12.66	-36.2	-40.1	14.3	1.07e-02	0	53	0	148897792	44	5486
2026-01-11 08:33:57.54	106.56	12.74	-38.0	-40.1	14.8	1.57e-03	0	54	0	152043520	46	4892
2026-01-11 08:33:58.55	106.44	12.82	-37.3	-40.2	14.6	1.60e-03	0	53	0	155189248	46	4961
2026-01-11 08:33:59.56	106.32	12.90	-38.2	-40.2	14.9	5.95e-05	0	53	0	158334976	47	4668
2026-01-11 08:34:00.57	106.19	12.98	-38.1	-40.2	14.9	3.45e-04	0	54	0	161480704	46	4964
2026-01-11 08:34:01.58	106.07	13.05	-37.0	-40.4	14.4	9.61e-05	0	54	0	164626432	47	4769
2026-01-11 08:34:02.59	105.95	13.13	-38.2	-40.3	14.7	6.25e-05	0	54	0	167772160	47	4756
2026-01-11 08:34:03.60	105.82	13.21	-38.1	-40.2	14.9	2.13e-05	0	54	0	170917888	46	4956
2026-01-11 08:34:04.61	105.70	13.29	-38.1	-40.2	14.9	5.56e-05	0	54	0	174063616	46	4957
2026-01-11 08:34:05.62	105.57	13.37	-34.0	-40.0	13.1	1.38e-04	0	54	0	177209344	42	6121
2026-01-11 08:34:06.63	105.44	13.45	-38.0	-40.2	14.6	2.71e-04	0	54	0	180355072	46	4964
2026-01-11 08:34:07.64	105.32	13.53	-38.1	-40.2	15.0	9.90e-06	0	54	0	183500800	46	4927
2026-01-11 08:34:08.65	105.19	13.61	-38.1	-40.1	15.0	2.51e-05	0	54	0	186646528	46	4921
2026-01-11 08:34:09.66	105.06	13.69	-37.6	-40.1	14.7	3.05e-05	0	53	0	189792256	46	4902
2026-01-11 08:34:10.67	104.93	13.77	-38.1	-40.1	15.0	6.80e-06	0	54	0	192937984	47	4644
2026-01-11 08:34:11.68	104.80	13.85	-38.0	-40.1	15.0	3.00e-06	0	54	0	196083712	47	4643
2026-01-11 08:34:12.69	104.67	13.93	-38.1	-40.1	14.9	1.12e-04	0	53	0	199229440	46	4922
2026-01-11 08:34:13.70	104.53	14.01	-36.9	-40.1	14.0	4.50e-06	0	54	0	202375168	44	5500
2026-01-11 08:34:14.71	104.40	14.09	-38.1	-40.1	15.0	9.05e-04	0	54	0	205520896	46	4907
2026-01-11 08:34:15.72	104.27	14.17	-38.1	-40.3	14.9	8.23e-05	0	54	0	208666624	47	4712
2026-01-11 08:34:16.73	104.13	14.25	-38.2	-40.2	14.9	2.12e-04	0	54	0	211812352	47	4678
2026-01-11 08:34:17.74	104.00	14.33	-37.9	-40.4	14.3	2.63e-04	0	54	0	214958080	46	5064
2026-01-11 08:34:18.75	103.86	14.41	-38.0	-40.1	14.8	4.95e-05	0	54	0	218103808	46	4924
2026-01-11 08:34:19.76	103.73	14.49	-38.2	-40.3	14.5	8.31e-05	0	54	0	221249536	47	4729
2026-01-11 08:34:20.77	103.59	14.57	-37.9	-40.2	14.7	4.46e-04	0	54	0	224395264	47	4685
2026-01-11 08:34:21.78	103.45	14.65	-38.1	-40.2	14.7	1.52e-04	0	54	0	227540992	47	4700
2026-01-11 08:34:22.79	103.31	14.73	-38.3	-40.3	14.9	9.10e-06	0	54	0	230686720	47	4710
2026-01-11 08:34:23.80	103.17	14.81	-38.2	-40.3	14.8	6.10e-06	0	54	0	233832448	47	4710
2026-01-11 08:34:24.81	103.03	14.89	-38.1	-40.1	15.1	6.10e-06	0	54	0	236978176	47	4603
2026-01-11 08:34:25.82	102.89	14.97	-38.0	-40.1	15.0	3.00e-06	0	54	0	240123904	46	4892
2026-01-11 08:34:26.83	102.75	15.06	-38.1	-40.0	15.2	3.00e-06	0	54	0	243269632	46	4838
2026-01-11 08:34:27.83	102.61	15.14	-38.2	-40.1	15.1	7.00e-07	0	54	0	246415360	46	4909
2026-01-11 08:34:28.84	102.47	15.22	-38.1	-40.1	15.2	0.00e+00	0	54	0	249561088	46	4871
2026-01-11 08:34:29.85	102.32	15.30	-38.2	-40.1	15.1	4.50e-06	0	54	0	252706816	46	4897
2026-01-11 08:34:30.86	102.18	15.38	-38.2	-40.2	15.0	0.00e+00	0	54	0	255852544	47	4666
2026-01-11 08:34:31.87	102.03	15.46	-38.3	-40.3	14.9	0.00e+00	0	54	0	258998272	47	4722
2026-01-11 08:34:32.88	101.89	15.55	-38.3	-40.3	14.9	7.00e-07	0	54	0	262144000	47	4721
2026-01-11 08:34:33.89	101.74	15.63	-38.3	-40.2	15.0	0.00e+00	0	54	0	265289728	47	4690
2026-01-11 08:34:34.90	101.59	15.71	-38.4	-40.3	14.9	0.00e+00	0	54	0	268435456	47	4750
2026-01-11 08:34:35.91	101.44	15.79	-38.5	-40.4	14.8	7.00e-07	0	54	0	271581184	47	4811
2026-01-11 08:34:36.92	101.29	15.87	-38.4	-40.4	14.8	0.00e+00	0	54	0	274726912	47	4811
2026-01-11 08:34:37.93	101.14	15.96	-38.3	-40.4	14.9	0.00e+00	0	54	0	277872640	47	4783
2026-01-11 08:34:38.94	100.99	16.04	-38.5	-40.6	14.7	7.00e-07	0	54	0	281018368	47	4875
2026-01-11 08:34:39.95	100.84	16.12	-38.5	-40.6	14.7	0.00e+00	0	54	0	285212672	47	4873
2026-01-11 08:34:40.96	100.68	16.20	-38.6	-40.7	14.6	0.00e+00	0	54	0	287309824	47	4955
2026-01-11 08:34:41.97	100.53	16.29	-38.7	-40.8	14.5	0.00e+00	0	54	0	290455552	47	5004
2026-01-11 08:34:42.98	100.37	16.37	-38.7	-40.8	14.6	0.00e+00	0	54	0	293601280	48	4711
2026-01-11 08:34:43.99	100.22	16.45	-38.7	-40.7	14.7	0.00e+00	0	54	0	296747008	48	4681
2026-01-11 08:34:44.99	100.06	16.53	-38.8	-40.8	14.6	0.00e+00	0	54	0	300941312	48	4721
2026-01-11 08:34:46.01	99.90	16.62	-38.7	-40.7	14.7	0.00e+00	0	54	0	304087040	48	4673
2026-01-11 08:34:47.01	99.75	16.70	-38.7	-40.7	14.7	0.00e+00	0	54	0	307232768	48	4678
2026-01-11 08:34:48.03	99.59	16.78	-38.6	-40.6	14.8	0.00e+00	0	54	0	309329920	48	4613
2026-01-11 08:34:49.03	99.43	16.87	-38.6	-40.6	14.8	0.00e+00	0	54	0	312475648	48	4622
2026-01-11 08:34:50.04	99.27	16.95	-38.6	-40.6	14.8	0.00e+00	0	54	0	315621376	48	4608
2026-01-11 08:34:51.05	99.11	17.03	-38.6	-40.6	14.8	7.00e-07	0	54	0	319815680	47	4885
2026-01-11 08:34:52.06	98.94	17.11	-38.6	-40.6	14.7	0.00e+00	0	54	0	322961408	47	4918
2026-01-11 08:34:53.07	98.78	17.20	-38.6	-40.7	14.7	0.00e+00	0	54	0	326107136	47	4933
2026-01-11 08:34:54.08	98.61	17.28	-38.7	-40.7	14.7	7.00e-07	0	54	0	329252864	47	4962
2026-01-11 08:34:55.10	98.45	17.37	-38.7	-40.7	14.7	0.00e+00	0	54	0	332398592	48	4688
2026-01-11 08:34:56.11	98.28	17.45	-38.7	-40.6	14.8	0.00e+00	0	54	0	335544320	48	4639
2026-01-11 08:34:57.12	98.11	17.53	-38.5	-40.4	15.0	0.00e+00	0	54	0	338690048	48	4530
2026-01-11 08:34:58.12	97.95	17.61	-38.5	-40.4	15.0	7.00e-07	0	54	0	341835776	48	4514
2026-01-11 08:34:59.13	97.78	17.70	-38.5	-40.4	15.1	0.00e+00	0	54	0	344981504	48	4536
2026-01-11 08:35:00.14	97.61	17.78	-38.4	-40.3	15.2	0.00e+00	0	54	0	348127232	48	4450
2026-01-11 08:35:01.15	97.44	17.86	-38.4	-40.3	15.2	0.00e+00	0	54	0	351272960	48	4483
2026-01-11 08:35:02.16	97.26	17.95	-38.4	-40.3	15.2	0.00e+00	0	54	0	354418688	48	4473
2026-01-11 08:35:03.17	97.09	18.03	-38.4	-40.3	15.2	0.00e+00	0	54	0	357564416	48	4449
2026-01-11 08:35:04.18	96.92	18.11	-38.4	-40.3	15.2	0.00e+00	0	54	0	360710144	48	4442
2026-01-11 08:35:05.19	96.74	18.20	-38.2	-40.1	15.4	0.00e+00	0	55	0	363855872	48	4353
2026-01-11 08:35:06.20	96.57	18.28	-38.2	-40.1	15.4	0.00e+00	0	54	0	367001600	48	4368
2026-01-11 08:35:07.21	96.39	18.37	-38.2	-40.0	15.5	0.00e+00	0	55	0	370147328	48	4323
2026-01-11 08:35:08.22	96.21	18.45	-38.1	-39.9	15.6	0.00e+00	0	54	0	373293056	48	4273
2026-01-11 08:35:09.23	96.03	18.53	-38.1	-39.9	15.6	0.00e+00	0	55	0	376438784	48	4284
2026-01-11 08:35:10.23	95.85	18.62	-38.1	-39.9	15.6	0.00e+00	0	54	0	379584512	48	4287
2026-01-11 08:35:11.24	95.67	18.70	-38.1	-39.8	15.7	0.00e+00	0	55	0	382730240	48	4240
2026-01-11 08:35:12.25	95.49	18.78	-38.0	-39.8	15.7	0.00e+00	0	55	0	385875968	48	4217
2026-01-11 08:35:13.26	95.31	18.87	-38.0	-39.8	15.8	0.00e+00	0	54	0	389021696	48	4197
2026-01-11 08:35:14.28	95.12	18.95	-38.0	-39.8	15.7	0.00e+00	0	54	0	392167424	48	4207
2026-01-11 08:35:15.29	94.94	19.03	-37.9	-39.6	15.8	0.00e+00	0	55	0	395313152	47	4375
2026-01-11 08:35:16.30	94.75	19.12	-37.8	-39.6	15.8	0.00e+00	0	54	0	398458880	47	4353
2026-01-11 08:35:17.31	94.56	19.20	-37.8	-39.5	15.9	0.00e+00	0	55	0	401604608	47	4334
2026-01-11 08:35:18.32	94.37	19.28	-37.8	-39.5	15.9	0.00e+00	0	55	0	404750336	47	4335
2026-01-11 08:35:19.33	94.19	19.37	-37.8	-39.5	15.9	0.00e+00	0	55	0	407896064	47	4315
2026-01-11 08:35:20.34	94.00	19.45	-37.7	-39.4	16.0	0.00e+00	0	54	0	411041792	47	4280
2026-01-11 08:35:21.35	93.80	19.53	-37.6	-39.3	16.1	0.00e+00	0	55	0	414187520	47	4227
2026-01-11 08:35:22.36	93.61	19.62	-37.6	-39.3	16.1	0.00e+00	0	55	0	417333248	47	4209
2026-01-11 08:35:23.37	93.42	19.70	-37.6	-39.3	16.1	0.00e+00	0	55	0	420478976	47	4215
2026-01-11 08:35:24.38	93.22	19.78	-37.7	-39.4	15.9	0.00e+00	0	55	0	423624704	47	4274
2026-01-11 08:35:25.39	93.03	19.86	-37.8	-39.5	15.8	0.00e+00	0	55	0	426770432	47	4340
2026-01-11 08:35:26.40	92.83	19.95	-37.8	-39.6	15.8	0.00e+00	0	55	0	429916160	47	4353
2026-01-11 08:35:27.40	92.64	20.03	-37.9	-39.7	15.6	0.00e+00	0	55	0	433061888	47	4400
2026-01-11 08:35:28.42	92.44	20.11	-37.9	-39.7	15.6	0.00e+00	0	55	0	436207616	47	4437
2026-01-11 08:35:29.43	92.24	20.19	-37.9	-39.7	15.6	0.00e+00	0	55	0	439353344	47	4402
2026-01-11 08:35:30.43	92.04	20.28	-37.9	-39.7	15.6	0.00e+00	0	55	0	442499072	47	4417
2026-01-11 08:35:31.45	91.83	20.36	-37.9	-39.7	15.5	0.00e+00	0	55	0	445644800	47	4420
2026-01-11 08:35:32.46	91.63	20.44	-37.9	-39.7	15.5	0.00e+00	0	55	0	448790528	47	4430
2026-01-11 08:35:33.47	91.43	20.52	-37.9	-39.7	15.5	0.00e+00	0	55	0	451936256	47	4433
2026-01-11 08:35:34.48	91.22	20.61	-37.8	-39.6	15.5	0.00e+00	0	55	0	455081984	47	4391
2026-01-11 08:35:35.49	91.02	20.69	-37.9	-39.7	15.5	0.00e+00	0	55	0	458227712	47	4404
2026-01-11 08:35:36.50	90.81	20.77	-37.8	-39.6	15.5	0.00e+00	0	55	0	461373440	47	4390
2026-01-11 08:35:37.51	90.60	20.85	-37.9	-39.7	15.4	0.00e+00	0	55	0	464519168	47	4436
2026-01-11 08:35:38.52	90.39	20.93	-37.9	-39.8	15.4	0.00e+00	0	55	0	467664896	47	4444
2026-01-11 08:35:39.53	90.18	21.01	-37.8	-39.7	15.4	0.00e+00	0	55	0	470810624	47	4394
2026-01-11 08:35:40.54	89.97	21.09	-37.8	-39.6	15.4	0.00e+00	0	55	0	473956352	47	4388
2026-01-11 08:35:41.55	89.75	21.18	-37.7	-39.5	15.6	0.00e+00	0	55	0	477102080	47	4297
2026-01-11 08:35:42.56	89.54	21.26	-37.6	-39.4	15.6	0.00e+00	0	55	0	480247808	47	4250
2026-01-11 08:35:43.57	89.32	21.34	-37.6	-39.4	15.6	0.00e+00	0	55	0	483393536	47	4269
2026-01-11 08:35:44.58	89.11	21.42	-37.5	-39.3	15.7	0.00e+00	0	55	0	486539264	47	4215
2026-01-11 08:35:45.59	88.89	21.50	-37.6	-39.4	15.5	0.00e+00	0	55	0	489684992	47	4285
2026-01-11 08:35:46.60	88.67	21.58	-37.6	-39.4	15.5	0.00e+00	0	55	0	492830720	47	4269
2026-01-11 08:35:47.61	88.45	21.66	-37.6	-39.4	15.5	0.00e+00	0	55	0	495976448	47	4290
2026-01-11 08:35:48.61	88.23	21.74	-37.6	-39.5	15.5	0.00e+00	0	55	0	499122176	47	4299
2026-01-11 08:35:49.62	88.01	21.82	-37.7	-39.6	15.4	0.00e+00	0	55	0	502267904	47	4345
2026-01-11 08:35:50.63	87.79	21.90	-37.8	-39.7	15.3	0.00e+00	0	55	0	505413632	47	4393
2026-01-11 08:35:51.64	87.56	21.97	-37.9	-39.8	15.2	0.00e+00	0	55	0	508559360	47	4463
2026-01-11 08:35:52.65	87.34	22.05	-37.9	-39.9	15.1	0.00e+00	0	55	0	511705088	47	4500
2026-01-11 08:35:53.67	87.11	22.13	-38.0	-39.9	15.0	0.00e+00	0	55	0	514850816	47	4533
2026-01-11 08:35:54.68	86.88	22.21	-38.0	-39.9	15.0	0.00e+00	0	55	0	517996544	47	4516
2026-01-11 08:35:55.69	86.65	22.29	-38.0	-39.9	15.0	0.00e+00	0	55	0	521142272	47	4523
2026-01-11 08:35:56.70	86.42	22.37	-37.9	-39.8	15.2	0.00e+00	0	55	0	524288000	47	4477
2026-01-11 08:35:57.71	86.19	22.44	-37.8	-39.7	15.3	0.00e+00	0	55	0	527433728	47	4427
2026-01-11 08:35:58.72	85.96	22.52	-37.9	-39.7	15.3	0.00e+00	0	55	0	530579456	47	4423
2026-01-11 08:35:59.73	85.73	22.60	-37.8	-39.7	15.4	0.00e+00	0	55	0	533725184	47	4403
2026-01-11 08:36:00.74	85.49	22.68	-37.9	-39.7	15.5	0.00e+00	0	55	0	536870912	47	4409
2026-01-11 08:36:01.75	85.26	22.75	-37.7	-39.5	15.7	0.00e+00	0	55	0	540016640	47	4315
2026-01-11 08:36:02.76	85.02	22.83	-37.7	-39.5	15.7	0.00e+00	0	55	0	543162368	47	4311
2026-01-11 08:36:03.77	84.78	22.90	-37.7	-39.4	15.8	0.00e+00	0	55	0	546308096	47	4287
2026-01-11 08:36:04.78	84.54	22.98	-37.7	-39.5	15.8	0.00e+00	0	55	0	549453824	47	4305
2026-01-11 08:36:05.79	84.30	23.06	-37.7	-39.5	15.8	0.00e+00	0	55	0	552599552	47	4301
2026-01-11 08:36:06.80	84.06	23.13	-37.8	-39.5	15.7	0.00e+00	0	55	0	555745280	47	4332
2026-01-11 08:36:07.81	83.82	23.20	-37.8	-39.6	15.7	0.00e+00	0	55	0	558891008	47	4354
2026-01-11 08:36:08.82	83.57	23.28	-37.8	-39.5	15.8	0.00e+00	0	55	0	562036736	47	4324
2026-01-11 08:36:09.83	83.33	23.35	-37.7	-39.4	15.9	0.00e+00	0	55	0	565182464	47	4269
2026-01-11 08:36:10.84	83.08	23.43	-37.7	-39.5	15.9	0.00e+00	0	55	0	568328192	47	4294
2026-01-11 08:36:11.85	82.83	23.50	-37.7	-39.4	16.0	0.00e+00	0	55	0	571473920	47	4247
2026-01-11 08:36:12.86	82.58	23.57	-37.8	-39.5	15.9	0.00e+00	0	55	0	574619648	47	4316
2026-01-11 08:36:13.87	82.33	23.64	-37.8	-39.5	15.9	0.00e+00	0	55	0	577765376	47	4319
2026-01-11 08:36:14.88	82.08	23.72	-37.8	-39.5	15.9	0.00e+00	0	55	0	580911104	47	4338
2026-01-11 08:36:15.90	81.83	23.79	-37.8	-39.6	15.8	0.00e+00	0	55	0	584056832	47	4349
2026-01-11 08:36:16.91	81.57	23.86	-38.0	-39.8	15.6	0.00e+00	0	55	0	587202560	47	4454
2026-01-11 08:36:17.92	81.32	23.93	-38.0	-39.8	15.7	0.00e+00	0	55	0	590348288	47	4462
2026-01-11 08:36:18.93	81.06	24.00	-38.0	-39.8	15.7	0.00e+00	0	55	0	593494016	47	4461
2026-01-11 08:36:19.94	80.81	24.07	-38.0	-39.8	15.7	0.00e+00	0	55	0	596639744	47	4449
2026-01-11 08:36:20.95	80.55	24.14	-38.0	-39.8	15.7	0.00e+00	0	55	0	600834048	47	4453
2026-01-11 08:36:21.96	80.29	24.21	-38.0	-39.7	15.7	0.00e+00	0	55	0	602931200	47	4435
2026-01-11 08:36:22.97	80.03	24.28	-37.9	-39.7	15.8	0.00e+00	0	55	0	606076928	47	4405
2026-01-11 08:36:23.98	79.77	24.35	-37.9	-39.6	15.9	0.00e+00	0	55	0	609222656	47	4374
2026-01-11 08:36:24.99	79.51	24.41	-37.8	-39.6	15.9	0.00e+00	0	55	0	612368384	47	4352
2026-01-11 08:36:26.00	79.24	24.48	-37.8	-39.6	15.9	0.00e+00	0	55	0	616562688	47	4343
2026-01-11 08:36:27.01	78.98	24.55	-37.7	-39.4	16.0	0.00e+00	0	55	0	619708416	47	4281
2026-01-11 08:36:28.02	78.71	24.61	-37.7	-39.4	16.1	0.00e+00	0	55	0	622854144	47	4286
2026-01-11 08:36:29.03	78.45	24.68	-37.7	-39.4	16.1	0.00e+00	0	55	0	625999872	47	4258
2026-01-11 08:36:30.04	78.18	24.75	-37.7	-39.4	16.1	0.00e+00	0	55	0	628097024	47	4259
2026-01-11 08:36:31.05	77.91	24.81	-37.7	-39.4	16.1	0.00e+00	0	55	0	632291328	47	4276
2026-01-11 08:36:32.06	77.64	24.87	-37.8	-39.5	16.1	0.00e+00	0	55	0	635437056	47	4294
2026-01-11 08:36:33.07	77.37	24.94	-37.8	-39.5	16.0	0.00e+00	0	55	0	638582784	47	4314
2026-01-11 08:36:34.07	77.10	25.00	-37.9	-39.7	15.9	0.00e+00	0	55	0	641728512	47	4392
2026-01-11 08:36:35.08	76.82	25.06	-38.1	-39.9	15.6	0.00e+00	0	55	0	644874240	47	4529
2026-01-11 08:36:36.09	76.55	25.12	-38.1	-40.0	15.6	0.00e+00	0	55	0	648019968	47	4548
2026-01-11 08:36:37.10	76.27	25.19	-38.2	-40.0	15.6	0.00e+00	0	55	0	651165696	47	4558
2026-01-11 08:36:38.11	76.00	25.25	-38.0	-39.8	15.8	0.00e+00	0	55	0	654311424	47	4447
2026-01-11 08:36:39.12	75.72	25.31	-37.9	-39.6	15.9	0.00e+00	0	55	0	657457152	47	4387
2026-01-11 08:36:40.13	75.44	25.37	-37.9	-39.7	15.9	0.00e+00	0	55	0	660602880	47	4398
2026-01-11 08:36:41.14	75.16	25.42	-37.9	-39.7	15.9	0.00e+00	0	55	0	663748608	47	4394
2026-01-11 08:36:42.15	74.88	25.48	-37.9	-39.6	15.9	0.00e+00	0	55	0	666894336	47	4370
2026-01-11 08:36:43.16	74.60	25.54	-37.9	-39.6	15.9	0.00e+00	0	55	0	670040064	47	4377
2026-01-11 08:36:44.17	74.31	25.60	-37.8	-39.6	16.0	0.00e+00	0	55	0	673185792	47	4345
2026-01-11 08:36:45.19	74.03	25.65	-37.8	-39.5	16.1	0.00e+00	0	55	0	676331520	47	4314
2026-01-11 08:36:46.19	73.74	25.71	-37.7	-39.4	16.2	0.00e+00	0	55	0	679477248	47	4264
2026-01-11 08:36:47.20	73.46	25.76	-37.6	-39.2	16.3	0.00e+00	0	55	0	682622976	47	4186
2026-01-11 08:36:48.22	73.17	25.82	-37.5	-39.1	16.5	0.00e+00	0	55	0	685768704	46	4348
2026-01-11 08:36:49.23	72.88	25.87	-37.4	-39.0	16.5	0.00e+00	0	55	0	688914432	46	4338
2026-01-11 08:36:50.24	72.59	25.93	-37.5	-39.1	16.5	0.00e+00	0	55	0	692060160	46	4352
2026-01-11 08:36:51.24	72.30	25.98	-37.5	-39.1	16.5	0.00e+00	0	56	0	695205888	46	4357
2026-01-11 08:36:52.25	72.01	26.03	-37.5	-39.2	16.4	0.00e+00	0	55	0	698351616	46	4407
2026-01-11 08:36:53.26	71.72	26.08	-37.6	-39.3	16.3	0.00e+00	0	55	0	701497344	46	4446
2026-01-11 08:36:54.27	71.43	26.13	-37.6	-39.3	16.3	0.00e+00	0	55	0	704643072	46	4453
2026-01-11 08:36:55.28	71.14	26.18	-37.6	-39.2	16.4	0.00e+00	0	55	0	707788800	46	4407
2026-01-11 08:36:56.29	70.84	26.23	-37.5	-39.1	16.5	0.00e+00	0	55	0	710934528	46	4371
2026-01-11 08:36:57.30	70.55	26.28	-37.5	-39.1	16.5	0.00e+00	0	55	0	714080256	46	4371
2026-01-11 08:36:58.31	70.25	26.32	-37.5	-39.1	16.5	0.00e+00	0	55	0	717225984	46	4385
2026-01-11 08:36:59.32	69.95	26.37	-37.5	-39.1	16.5	0.00e+00	0	55	0	720371712	46	4378
2026-01-11 08:37:00.34	69.65	26.42	-37.4	-39.0	16.6	0.00e+00	0	55	0	723517440	46	4314
2026-01-11 08:37:01.35	69.35	26.46	-37.5	-39.1	16.6	0.00e+00	0	55	0	726663168	46	4348
2026-01-11 08:37:02.36	69.05	26.50	-37.4	-39.0	16.7	0.00e+00	0	55	0	729808896	46	4324
2026-01-11 08:37:03.37	68.75	26.55	-37.4	-39.0	16.7	0.00e+00	0	56	0	732954624	46	4295
2026-01-11 08:37:04.38	68.45	26.59	-37.4	-39.0	16.7	0.00e+00	0	55	0	736100352	46	4314
2026-01-11 08:37:05.38	68.15	26.63	-37.5	-39.1	16.5	0.00e+00	0	55	0	739246080	46	4376
2026-01-11 08:37:06.39	67.85	26.67	-37.6	-39.2	16.5	0.00e+00	0	55	0	742391808	46	4409
2026-01-11 08:37:07.40	67.54	26.71	-37.6	-39.2	16.5	0.00e+00	0	55	0	745537536	46	4409
2026-01-11 08:37:08.41	67.24	26.75	-37.6	-39.2	16.5	0.00e+00	0	55	0	748683264	46	4404
2026-01-11 08:37:09.42	66.93	26.79	-37.5	-39.1	16.5	0.00e+00	0	55	0	751828992	46	4391
2026-01-11 08:37:10.43	66.63	26.83	-37.6	-39.2	16.5	0.00e+00	0	55	0	754974720	46	4426
2026-01-11 08:37:11.44	66.32	26.86	-37.7	-39.3	16.4	0.00e+00	0	55	0	758120448	46	4479
2026-01-11 08:37:12.45	66.01	26.90	-37.8	-39.4	16.3	0.00e+00	0	55	0	761266176	46	4528
2026-01-11 08:37:13.46	65.71	26.93	-37.8	-39.5	16.3	0.00e+00	0	55	0	764411904	46	4554
2026-01-11 08:37:14.47	65.40	26.97	-37.8	-39.5	16.2	0.00e+00	0	56	0	767557632	46	4556
2026-01-11 08:37:15.48	65.09	27.00	-37.8	-39.4	16.3	0.00e+00	0	55	0	770703360	46	4522
2026-01-11 08:37:16.49	64.78	27.03	-37.7	-39.3	16.5	0.00e+00	0	55	0	773849088	46	4455
2026-01-11 08:37:17.50	64.47	27.07	-37.7	-39.3	16.5	0.00e+00	0	55	0	776994816	46	4454
2026-01-11 08:37:18.51	64.16	27.10	-37.8	-39.4	16.3	0.00e+00	0	56	0	780140544	46	4530
2026-01-11 08:37:19.52	63.84	27.13	-37.8	-39.5	16.2	0.00e+00	0	56	0	783286272	46	4577
2026-01-11 08:37:20.53	63.53	27.15	-37.8	-39.5	16.3	0.00e+00	0	55	0	786432000	46	4557
2026-01-11 08:37:21.54	63.22	27.18	-37.7	-39.3	16.4	0.00e+00	0	55	0	789577728	46	4474
2026-01-11 08:37:22.55	62.91	27.21	-37.7	-39.3	16.4	0.00e+00	0	55	0	792723456	46	4468
2026-01-11 08:37:23.56	62.59	27.23	-37.7	-39.3	16.5	0.00e+00	0	55	0	795869184	46	4472
2026-01-11 08:37:24.57	62.28	27.26	-37.7	-39.3	16.4	0.00e+00	0	56	0	799014912	46	4492
2026-01-11 08:37:25.58	61.96	27.28	-37.8	-39.4	16.3	0.00e+00	0	55	0	802160640	46	4525
2026-01-11 08:37:26.59	61.65	27.31	-37.9	-39.6	16.2	0.00e+00	0	55	0	805306368	46	4615
2026-01-11 08:37:27.60	61.33	27.33	-38.1	-39.8	16.0	0.00e+00	0	56	0	808452096	46	4734
2026-01-11 08:37:28.61	61.02	27.35	-38.1	-39.8	15.9	0.00e+00	0	56	0	811597824	46	4759
2026-01-11 08:37:29.62	60.70	27.37	-38.1	-39.8	16.0	0.00e+00	0	56	0	814743552	46	4713
2026-01-11 08:37:30.63	60.38	27.39	-37.9	-39.6	16.2	0.00e+00	0	55	0	817889280	46	4623
2026-01-11 08:37:31.64	60.06	27.41	-37.9	-39.6	16.1	0.00e+00	0	55	0	821035008	46	4639
2026-01-11 08:37:32.65	59.75	27.43	-37.9	-39.6	16.2	0.00e+00	0	55	0	824180736	46	4611
2026-01-11 08:37:33.66	59.43	27.44	-37.9	-39.6	16.2	0.00e+00	0	55	0	827326464	46	4604
2026-01-11 08:37:34.67	59.11	27.46	-37.8	-39.4	16.3	0.00e+00	0	55	0	830472192	46	4537
2026-01-11 08:37:35.68	58.79	27.47	-37.8	-39.4	16.4	0.00e+00	0	56	0	833617920	46	4525
2026-01-11 08:37:36.69	58.47	27.49	-37.7	-39.3	16.4	0.00e+00	0	55	0	836763648	46	4487
2026-01-11 08:37:37.70	58.15	27.50	-37.7	-39.3	16.4	0.00e+00	0	56	0	839909376	46	4492
2026-01-11 08:37:38.69	57.84	27.51	-37.8	-39.4	16.4	0.00e+00	0	56	0	843055104	46	4534
2026-01-11 08:37:39.70	57.52	27.52	-37.8	-39.4	16.4	0.00e+00	0	55	0	846200832	46	4520
2026-01-11 08:37:40.71	57.20	27.53	-37.7	-39.3	16.4	0.00e+00	0	56	0	849346560	46	4487
2026-01-11 08:37:41.72	56.88	27.54	-37.7	-39.3	16.5	0.00e+00	0	55	0	852492288	46	4460
2026-01-11 08:37:42.73	56.56	27.55	-37.7	-39.3	16.5	0.00e+00	0	56	0	855638016	46	4480
2026-01-11 08:37:43.74	56.24	27.55	-37.7	-39.3	16.4	0.00e+00	0	55	0	858783744	46	4492
2026-01-11 08:37:44.75	55.92	27.56	-37.8	-39.4	16.4	0.00e+00	0	55	0	861929472	46	4517
2026-01-11 08:37:45.76	55.60	27.56	-37.9	-39.6	16.3	0.00e+00	0	55	0	865075200	46	4600
2026-01-11 08:37:46.77	55.28	27.57	-37.9	-39.5	16.3	0.00e+00	0	56	0	868220928	46	4591
2026-01-11 08:37:47.78	54.96	27.57	-37.9	-39.6	16.2	0.00e+00	0	55	0	871366656	46	4603
2026-01-11 08:37:48.79	54.64	27.57	-37.9	-39.6	16.2	0.00e+00	0	55	0	874512384	46	4606
2026-01-11 08:37:49.81	54.31	27.57	-37.8	-39.5	16.3	0.00e+00	0	56	0	877658112	46	4557
2026-01-11 08:37:50.82	53.99	27.57	-37.7	-39.3	16.5	0.00e+00	0	55	0	880803840	46	4481
2026-01-11 08:37:51.82	53.67	27.57	-37.6	-39.2	16.6	0.00e+00	0	56	0	883949568	46	4425
2026-01-11 08:37:52.83	53.35	27.57	-37.6	-39.1	16.7	0.00e+00	0	56	0	887095296	46	4383
2026-01-11 08:37:53.85	53.03	27.56	-37.5	-39.1	16.7	0.00e+00	0	56	0	890241024	46	4343
2026-01-11 08:37:54.86	52.71	27.56	-37.4	-39.0	16.8	0.00e+00	0	55	0	893386752	46	4317
2026-01-11 08:37:55.87	52.39	27.55	-37.4	-39.0	16.8	0.00e+00	0	56	0	896532480	46	4318
2026-01-11 08:37:56.88	52.07	27.55	-37.6	-39.2	16.7	0.00e+00	0	56	0	899678208	46	4395
2026-01-11 08:37:57.89	51.75	27.54	-37.6	-39.2	16.6	0.00e+00	0	56	0	902823936	46	4439
2026-01-11 08:37:58.90	51.43	27.53	-37.7	-39.3	16.5	0.00e+00	0	56	0	905969664	46	4475
2026-01-11 08:37:59.91	51.11	27.52	-37.8	-39.4	16.4	0.00e+00	0	56	0	909115392	46	4514
2026-01-11 08:38:00.92	50.79	27.51	-37.8	-39.4	16.4	0.00e+00	0	56	0	912261120	46	4537
2026-01-11 08:38:01.93	50.47	27.50	-37.9	-39.5	16.3	0.00e+00	0	55	0	915406848	46	4579
2026-01-11 08:38:02.94	50.15	27.49	-38.0	-39.6	16.2	0.00e+00	0	56	0	918552576	46	4642
2026-01-11 08:38:03.95	49.83	27.48	-38.0	-39.7	16.2	0.00e+00	0	56	0	921698304	46	4669
2026-01-11 08:38:04.96	49.51	27.46	-38.0	-39.7	16.1	0.00e+00	0	56	0	924844032	46	4693
2026-01-11 08:38:05.97	49.20	27.45	-38.1	-39.8	16.0	0.00e+00	0	56	0	927989760	46	4730
2026-01-11 08:38:06.98	48.88	27.43	-38.0	-39.7	16.1	0.00e+00	0	56	0	931135488	46	4703
2026-01-11 08:38:07.98	48.56	27.41	-38.0	-39.6	16.2	0.00e+00	0	56	0	935329792	46	4643
2026-01-11 08:38:08.99	48.25	27.40	-38.0	-39.7	16.2	0.00e+00	0	56	0	938475520	46	4667
2026-01-11 08:38:10.00	47.93	27.38	-37.9	-39.5	16.3	0.00e+00	0	56	0	941621248	46	4573
2026-01-11 08:38:11.01	47.61	27.36	-37.8	-39.5	16.4	0.00e+00	0	56	0	943718400	46	4547
2026-01-11 08:38:12.02	47.30	27.34	-37.7	-39.3	16.5	0.00e+00	0	56	0	946864128	46	4486
2026-01-11 08:38:13.03	46.98	27.32	-37.7	-39.3	16.5	0.00e+00	0	56	0	950009856	46	4478
2026-01-11 08:38:14.04	46.67	27.29	-37.7	-39.3	16.6	0.00e+00	0	56	0	954204160	46	4464
2026-01-11 08:38:15.05	46.35	27.27	-37.7	-39.3	16.5	0.00e+00	0	56	0	957349888	46	4470
2026-01-11 08:38:16.06	46.04	27.24	-37.7	-39.3	16.5	0.00e+00	0	56	0	960495616	46	4482
2026-01-11 08:38:17.07	45.72	27.22	-37.8	-39.4	16.4	0.00e+00	0	56	0	963641344	46	4518
2026-01-11 08:38:18.08	45.41	27.19	-37.7	-39.4	16.5	0.00e+00	0	56	0	966787072	46	4499
2026-01-11 08:38:19.09	45.10	27.16	-37.7	-39.3	16.5	0.00e+00	0	56	0	969932800	46	4483
2026-01-11 08:38:20.10	44.79	27.14	-37.7	-39.3	16.5	0.00e+00	0	56	0	973078528	46	4479
2026-01-11 08:38:21.11	44.47	27.11	-37.8	-39.4	16.4	0.00e+00	0	56	0	976224256	46	4525
2026-01-11 08:38:22.12	44.16	27.08	-37.9	-39.5	16.4	0.00e+00	0	56	0	979369984	46	4581
2026-01-11 08:38:23.13	43.85	27.05	-37.9	-39.5	16.3	0.00e+00	0	56	0	982515712	46	4591
2026-01-11 08:38:24.14	43.54	27.01	-37.8	-39.5	16.4	0.00e+00	0	56	0	985661440	46	4567
2026-01-11 08:38:25.15	43.23	26.98	-37.8	-39.4	16.5	0.00e+00	0	56	0	988807168	46	4516
2026-01-11 08:38:26.16	42.93	26.95	-37.8	-39.4	16.4	0.00e+00	0	56	0	991952896	46	4525
2026-01-11 08:38:27.17	42.62	26.91	-37.8	-39.4	16.4	0.00e+00	0	56	0	995098624	46	4529
2026-01-11 08:38:28.18	42.31	26.88	-37.7	-39.3	16.6	0.00e+00	0	56	0	998244352	46	4451
2026-01-11 08:38:29.19	42.00	26.84	-37.7	-39.3	16.6	0.00e+00	0	56	0	1001390080	46	4446
2026-01-11 08:38:30.20	41.70	26.80	-37.8	-39.4	16.4	0.00e+00	0	56	0	1004535808	46	4524
2026-01-11 08:38:31.21	41.39	26.77	-38.0	-39.6	16.2	0.00e+00	0	56	0	1007681536	46	4634
2026-01-11 08:38:32.22	41.09	26.73	-38.1	-39.8	16.1	0.00e+00	0	56	0	1010827264	46	4717
2026-01-11 08:38:33.23	40.79	26.69	-38.1	-39.8	16.1	0.00e+00	0	56	0	1013972992	46	4726
2026-01-11 08:38:34.23	40.49	26.65	-38.1	-39.8	16.1	0.00e+00	0	56	0	1017118720	46	4717
2026-01-11 08:38:35.24	40.18	26.61	-38.0	-39.7	16.1	0.00e+00	0	56	0	1020264448	46	4693
2026-01-11 08:38:36.25	39.88	26.56	-38.1	-39.8	16.1	0.00e+00	0	56	0	1023410176	46	4711
2026-01-11 08:38:37.26	39.58	26.52	-38.1	-39.8	16.0	0.00e+00	0	56	0	1026555904	46	4738
2026-01-11 08:38:38.27	39.28	26.48	-38.2	-39.9	16.0	0.00e+00	0	56	0	1029701632	46	4778
2026-01-11 08:38:39.28	38.99	26.43	-38.2	-39.9	16.0	0.00e+00	0	56	0	1032847360	46	4791
2026-01-11 08:38:40.29	38.69	26.39	-38.1	-39.8	16.1	0.00e+00	0	56	0	1035993088	46	4727
2026-01-11 08:38:41.30	38.39	26.34	-38.1	-39.8	16.1	0.00e+00	0	56	0	1039138816	46	4730
2026-01-11 08:38:42.31	38.09	26.30	-38.0	-39.6	16.2	0.00e+00	0	56	0	1042284544	46	4649
2026-01-11 08:38:43.32	37.80	26.25	-38.0	-39.7	16.1	0.00e+00	0	56	0	1045430272	46	4697
2026-01-11 08:38:44.33	37.51	26.20	-38.1	-39.8	16.0	0.00e+00	0	56	0	1048576000	46	4739
2026-01-11 08:38:45.34	37.21	26.15	-38.2	-39.9	16.0	0.00e+00	0	56	0	1051721728	46	4791
2026-01-11 08:38:46.35	36.92	26.10	-38.2	-40.0	15.9	0.00e+00	0	56	0	1054867456	47	4559
2026-01-11 08:38:47.36	36.63	26.05	-38.3	-40.0	15.8	0.00e+00	0	56	0	1058013184	47	4588
2026-01-11 08:38:48.37	36.34	26.00	-38.3	-40.1	15.8	0.00e+00	0	56	0	1061158912	47	4600
2026-01-11 08:38:49.37	36.05	25.95	-38.2	-39.9	15.9	0.00e+00	0	56	0	1064304640	47	4539
2026-01-11 08:38:50.39	35.76	25.90	-38.1	-39.8	16.0	0.00e+00	0	56	0	1067450368	47	4469
2026-01-11 08:38:51.39	35.48	25.84	-37.9	-39.6	16.2	0.00e+00	0	56	0	1070596096	47	4370
2026-01-11 08:38:52.40	35.19	25.79	-37.8	-39.5	16.3	0.00e+00	0	56	0	1073741824	47	4305
2026-01-11 08:38:53.42	34.90	25.73	-37.8	-39.4	16.4	0.00e+00	0	56	0	1076887552	47	4276
2026-01-11 08:38:54.43	34.62	25.68	-37.8	-39.5	16.3	0.00e+00	0	56	0	1080033280	47	4303
2026-01-11 08:38:55.44	34.33	25.62	-37.9	-39.6	16.2	0.00e+00	0	56	0	1083179008	47	4374
2026-01-11 08:38:56.45	34.05	25.57	-38.0	-39.7	16.2	0.00e+00	0	56	0	1086324736	47	4400
2026-01-11 08:38:57.46	33.77	25.51	-37.9	-39.6	16.2	0.00e+00	0	56	0	1089470464	47	4367
2026-01-11 08:38:58.47	33.49	25.45	-37.8	-39.4	16.4	0.00e+00	0	56	0	1092616192	47	4283
2026-01-11 08:38:59.48	33.21	25.39	-37.6	-39.2	16.7	0.00e+00	0	56	0	1095761920	47	4156
2026-01-11 08:39:00.49	32.93	25.33	-37.6	-39.2	16.7	0.00e+00	0	56	0	1098907648	47	4148
2026-01-11 08:39:01.50	32.65	25.27	-37.6	-39.2	16.7	0.00e+00	0	56	0	1102053376	47	4162
2026-01-11 08:39:02.51	32.38	25.21	-37.7	-39.3	16.5	0.00e+00	0	56	0	1105199104	47	4217
2026-01-11 08:39:03.52	32.10	25.15	-37.8	-39.4	16.4	0.00e+00	0	56	0	1108344832	47	4278
2026-01-11 08:39:04.53	31.83	25.09	-38.0	-39.7	16.2	0.00e+00	0	56	0	1111490560	47	4407
2026-01-11 08:39:05.54	31.55	25.03	-38.1	-39.8	16.1	0.00e+00	0	56	0	1114636288	47	4452
2026-01-11 08:39:06.55	31.28	24.97	-38.0	-39.8	16.0	0.00e+00	0	56	0	1117782016	47	4442
2026-01-11 08:39:07.56	31.01	24.90	-37.9	-39.6	16.2	0.00e+00	0	56	0	1120927744	47	4372
2026-01-11 08:39:08.57	30.74	24.84	-37.7	-39.4	16.4	0.00e+00	0	56	0	1124073472	47	4246
2026-01-11 08:39:09.58	30.47	24.78	-37.6	-39.2	16.6	0.00e+00	0	56	0	1127219200	47	4148
2026-01-11 08:39:10.59	30.21	24.71	-37.5	-39.1	16.7	0.00e+00	0	56	0	1130364928	47	4120
2026-01-11 08:39:11.60	29.94	24.65	-37.5	-39.1	16.8	0.00e+00	0	56	0	1133510656	47	4107
2026-01-11 08:39:12.61	29.67	24.58	-37.5	-39.1	16.7	0.00e+00	0	56	0	1136656384	47	4116
2026-01-11 08:39:13.62	29.41	24.51	-37.6	-39.2	16.6	0.00e+00	0	56	0	1139802112	47	4149
2026-01-11 08:39:14.63	29.15	24.45	-37.6	-39.2	16.6	0.00e+00	0	56	0	1142947840	47	4175
2026-01-11 08:39:15.64	28.88	24.38	-37.7	-39.3	16.6	0.00e+00	0	56	0	1146093568	47	4198
2026-01-11 08:39:16.65	28.62	24.31	-37.7	-39.3	16.5	0.00e+00	0	56	0	1149239296	47	4202
2026-01-11 08:39:17.66	28.36	24.24	-37.6	-39.1	16.7	0.00e+00	0	56	0	1152385024	47	4139
2026-01-11 08:39:18.67	28.11	24.18	-37.5	-39.1	16.7	0.00e+00	0	56	0	1155530752	47	4104
2026-01-11 08:39:19.68	27.85	24.11	-37.5	-39.1	16.7	0.00e+00	0	56	0	1158676480	46	4366
2026-01-11 08:39:20.69	27.59	24.04	-37.7	-39.3	16.6	0.00e+00	0	56	0	1161822208	46	4458
2026-01-11 08:39:21.70	27.34	23.97	-37.9	-39.5	16.4	0.00e+00	0	56	0	1164967936	46	4597
2026-01-11 08:39:22.71	27.08	23.90	-38.1	-39.8	16.1	0.00e+00	0	56	0	1168113664	46	4734
2026-01-11 08:39:23.72	26.83	23.83	-38.2	-39.9	16.0	0.00e+00	0	56	0	1171259392	46	4797
2026-01-11 08:39:24.73	26.58	23.75	-38.2	-40.0	15.9	0.00e+00	0	56	0	1174405120	46	4817
2026-01-11 08:39:25.74	26.33	23.68	-38.1	-39.8	16.0	0.00e+00	0	56	0	1177550848	46	4752
2026-01-11 08:39:26.75	26.08	23.61	-37.9	-39.6	16.3	0.00e+00	0	56	0	1180696576	46	4629
2026-01-11 08:39:27.76	25.83	23.54	-37.8	-39.4	16.5	0.00e+00	0	56	0	1183842304	46	4520
2026-01-11 08:39:28.77	25.58	23.47	-37.6	-39.2	16.6	0.00e+00	0	56	0	1186988032	46	4431
2026-01-11 08:39:29.77	25.34	23.39	-37.6	-39.2	16.7	0.00e+00	0	56	0	1190133760	46	4418
2026-01-11 08:39:30.78	25.10	23.32	-37.7	-39.3	16.5	0.00e+00	0	56	0	1193279488	46	4474
2026-01-11 08:39:31.79	24.85	23.25	-37.8	-39.5	16.4	0.00e+00	0	56	0	1196425216	46	4548
2026-01-11 08:39:32.80	24.61	23.17	-37.9	-39.6	16.3	0.00e+00	0	56	0	1199570944	46	4615
2026-01-11 08:39:33.81	24.37	23.10	-38.0	-39.7	16.1	0.00e+00	0	56	0	1202716672	46	4670
2026-01-11 08:39:34.82	24.13	23.02	-38.1	-39.8	16.0	0.00e+00	0	56	0	1205862400	46	4747
2026-01-11 08:39:35.83	23.89	22.95	-38.1	-39.8	16.0	0.00e+00	0	56	0	1209008128	46	4757
2026-01-11 08:39:36.84	23.65	22.87	-38.1	-39.8	16.0	0.00e+00	0	56	0	1212153856	46	4713
2026-01-11 08:39:37.85	23.42	22.80	-38.0	-39.7	16.1	0.00e+00	0	56	0	1215299584	46	4658
2026-01-11 08:39:38.86	23.18	22.72	-37.8	-39.5	16.3	0.00e+00	0	56	0	1218445312	46	4579
2026-01-11 08:39:39.87	22.95	22.64	-37.8	-39.5	16.3	0.00e+00	0	56	0	1221591040	46	4560
2026-01-11 08:39:40.88	22.71	22.57	-37.9	-39.5	16.3	0.00e+00	0	56	0	1224736768	46	4596
2026-01-11 08:39:41.89	22.48	22.49	-38.0	-39.7	16.1	0.00e+00	0	56	0	1227882496	46	4658
2026-01-11 08:39:42.90	22.25	22.41	-38.1	-39.9	16.0	0.00e+00	0	56	0	1231028224	46	4760
2026-01-11 08:39:43.91	22.02	22.34	-38.2	-40.0	15.9	0.00e+00	0	56	0	1234173952	46	4826
2026-01-11 08:39:44.92	21.79	22.26	-38.2	-39.9	15.8	0.00e+00	0	56	0	1237319680	47	4543
2026-01-11 08:39:45.93	21.57	22.18	-38.2	-39.9	15.9	0.00e+00	0	56	0	1240465408	47	4529
2026-01-11 08:39:46.94	21.34	22.10	-38.0	-39.8	16.0	0.00e+00	0	56	0	1243611136	47	4456
2026-01-11 08:39:47.95	21.12	22.02	-38.0	-39.7	16.1	0.00e+00	0	56	0	1246756864	47	4400
2026-01-11 08:39:48.96	20.89	21.95	-37.8	-39.5	16.3	0.00e+00	0	56	0	1249902592	47	4317
2026-01-11 08:39:49.97	20.67	21.87	-37.8	-39.4	16.4	0.00e+00	0	56	0	1253048320	47	4287
2026-01-11 08:39:50.98	20.45	21.79	-37.8	-39.4	16.4	0.00e+00	0	56	0	1256194048	47	4271
2026-01-11 08:39:51.99	20.23	21.71	-37.8	-39.4	16.4	0.00e+00	0	56	0	1259339776	47	4279
2026-01-11 08:39:53.00	20.01	21.63	-37.8	-39.4	16.4	0.00e+00	0	56	0	1262485504	47	4283
2026-01-11 08:39:54.01	19.79	21.55	-37.8	-39.5	16.3	0.00e+00	0	56	0	1265631232	47	4314
2026-01-11 08:39:55.02	19.57	21.47	-37.9	-39.6	16.2	0.00e+00	0	56	0	1268776960	47	4349
2026-01-11 08:39:56.02	19.36	21.39	-37.9	-39.5	16.2	0.00e+00	0	56	0	1271922688	47	4337
2026-01-11 08:39:57.03	19.15	21.31	-37.8	-39.5	16.3	0.00e+00	0	56	0	1276116992	47	4323
2026-01-11 08:39:58.04	18.93	21.23	-37.8	-39.5	16.3	0.00e+00	0	56	0	1279262720	47	4304
2026-01-11 08:39:59.05	18.72	21.15	-37.8	-39.4	16.3	0.00e+00	0	56	0	1281359872	47	4266
2026-01-11 08:40:00.07	18.51	21.07	-37.7	-39.4	16.4	0.00e+00	0	56	0	1284505600	47	4252
2026-01-11 08:40:01.08	18.30	20.99	-37.8	-39.5	16.3	0.00e+00	0	56	0	1287651328	47	4304
2026-01-11 08:40:02.09	18.09	20.91	-37.9	-39.6	16.2	0.00e+00	0	56	0	1291845632	47	4363
2026-01-11 08:40:03.10	17.88	20.82	-38.0	-39.7	16.1	0.00e+00	0	56	0	1294991360	47	4420
2026-01-11 08:40:04.11	17.67	20.74	-38.1	-39.9	15.9	0.00e+00	0	56	0	1298137088	47	4495
2026-01-11 08:40:05.12	17.47	20.66	-38.2	-39.9	15.8	0.00e+00	0	56	0	1301282816	47	4524
2026-01-11 08:40:06.13	17.26	20.58	-38.2	-40.0	15.8	0.00e+00	0	56	0	1304428544	47	4568
2026-01-11 08:40:07.14	17.06	20.50	-38.2	-40.0	15.7	0.00e+00	0	56	0	1307574272	47	4584
2026-01-11 08:40:08.15	16.86	20.42	-38.3	-40.1	15.7	0.00e+00	0	56	0	1310720000	47	4601
2026-01-11 08:40:09.16	16.66	20.33	-38.2	-40.0	15.7	0.00e+00	0	56	0	1313865728	47	4577
2026-01-11 08:40:10.17	16.46	20.25	-38.2	-40.0	15.8	0.00e+00	0	56	0	1317011456	47	4547
2026-01-11 08:40:11.18	16.26	20.17	-38.1	-39.8	15.9	0.00e+00	0	56	0	1320157184	47	4475
2026-01-11 08:40:12.19	16.06	20.09	-38.1	-39.8	16.0	0.00e+00	0	56	0	1323302912	47	4448
2026-01-11 08:40:13.20	15.86	20.01	-38.1	-39.8	15.9	0.00e+00	0	56	0	1326448640	47	4472
2026-01-11 08:40:14.21	15.67	19.92	-38.1	-39.8	15.9	0.00e+00	0	56	0	1329594368	47	4486
2026-01-11 08:40:15.22	15.47	19.84	-38.1	-39.8	15.9	0.00e+00	0	56	0	1332740096	47	4465
2026-01-11 08:40:16.23	15.28	19.76	-38.1	-39.8	15.9	0.00e+00	0	56	0	1335885824	47	4471
2026-01-11 08:40:17.24	15.09	19.68	-38.0	-39.7	16.0	0.00e+00	0	56	0	1339031552	47	4420
2026-01-11 08:40:18.25	14.89	19.59	-37.9	-39.6	16.1	0.00e+00	0	56	0	1342177280	47	4387
2026-01-11 08:40:19.26	14.70	19.51	-37.9	-39.6	16.1	0.00e+00	0	56	0	1345323008	47	4341
2026-01-11 08:40:20.27	14.51	19.43	-37.9	-39.5	16.2	0.00e+00	0	56	0	1348468736	47	4337
2026-01-11 08:40:21.28	14.33	19.35	-37.9	-39.6	16.1	0.00e+00	0	56	0	1351614464	47	4341
2026-01-11 08:40:22.30	14.14	19.26	-37.9	-39.6	16.1	0.00e+00	0	56	0	1354760192	47	4378
2026-01-11 08:40:23.31	13.95	19.18	-37.9	-39.6	16.1	0.00e+00	0	56	0	1357905920	47	4367
2026-01-11 08:40:24.32	13.77	19.10	-37.8	-39.5	16.2	0.00e+00	0	56	0	1361051648	47	4327
2026-01-11 08:40:25.33	13.58	19.01	-37.8	-39.5	16.2	0.00e+00	0	56	0	1364197376	47	4294
2026-01-11 08:40:26.34	13.40	18.93	-37.8	-39.5	16.2	0.00e+00	0	56	0	1367343104	47	4294
2026-01-11 08:40:27.35	13.22	18.85	-37.8	-39.5	16.2	0.00e+00	0	56	0	1370488832	47	4299
2026-01-11 08:40:28.36	13.03	18.76	-37.8	-39.4	16.2	0.00e+00	0	56	0	1373634560	47	4285
2026-01-11 08:40:29.37	12.85	18.68	-37.8	-39.5	16.2	0.00e+00	0	56	0	1376780288	47	4301
2026-01-11 08:40:30.38	12.67	18.60	-37.8	-39.5	16.2	0.00e+00	0	56	0	1379926016	47	4307
2026-01-11 08:40:31.39	12.50	18.51	-37.9	-39.6	16.1	0.00e+00	0	56	0	1383071744	47	4354
2026-01-11 08:40:32.39	12.32	18.43	-38.0	-39.7	15.9	0.00e+00	0	56	0	1386217472	47	4412
2026-01-11 08:40:33.41	12.14	18.35	-38.1	-39.9	15.8	0.00e+00	0	56	0	1389363200	47	4499
2026-01-11 08:40:34.42	11.97	18.27	-38.3	-40.1	15.6	0.00e+00	0	56	0	1392508928	47	4601
2026-01-11 08:40:35.43	11.79	18.18	-38.4	-40.2	15.4	0.00e+00	0	56	0	1395654656	47	4691
2026-01-11 08:40:36.44	11.62	18.10	-38.4	-40.3	15.4	0.00e+00	0	56	0	1398800384	47	4725
2026-01-11 08:40:37.45	11.45	18.02	-38.4	-40.2	15.4	0.00e+00	0	56	0	1401946112	47	4681
2026-01-11 08:40:38.46	11.28	17.93	-38.3	-40.1	15.6	0.00e+00	0	56	0	1405091840	47	4622
2026-01-11 08:40:39.47	11.11	17.85	-38.2	-40.0	15.6	0.00e+00	0	56	0	1408237568	47	4594
2026-01-11 08:40:40.48	10.94	17.77	-38.2	-39.9	15.7	0.00e+00	0	56	0	1411383296	47	4545
2026-01-11 08:40:41.49	10.77	17.68	-38.1	-39.9	15.7	0.00e+00	0	56	0	1414529024	47	4514
2026-01-11 08:40:42.50	10.60	17.60	-38.1	-39.9	15.7	0.00e+00	0	56	0	1417674752	47	4517
2026-01-11 08:40:43.51	10.43	17.52	-38.2	-40.0	15.6	0.00e+00	0	56	0	1420820480	47	4561
2026-01-11 08:40:44.52	10.27	17.43	-38.2	-40.0	15.6	7.00e-07	0	56	0	1423966208	47	4587
2026-01-11 08:40:45.53	10.10	17.35	-38.3	-40.2	15.4	0.00e+00	0	56	0	1427111936	47	4671
2026-01-11 08:40:46.54	9.94	17.27	-38.5	-40.4	15.2	0.00e+00	0	56	0	1430257664	47	4761
2026-01-11 08:40:47.55	9.78	17.19	-38.6	-40.6	15.0	0.00e+00	0	56	0	1433403392	47	4876
2026-01-11 08:40:48.56	9.61	17.10	-38.7	-40.6	15.0	7.00e-07	0	56	0	1436549120	47	4923
2026-01-11 08:40:49.57	9.45	17.02	-38.8	-40.8	14.9	0.00e+00	0	56	0	1439694848	48	4729
2026-01-11 08:40:50.58	9.29	16.94	-38.8	-40.7	14.9	0.00e+00	0	56	0	1442840576	48	4701
2026-01-11 08:40:51.59	9.13	16.86	-38.8	-40.7	14.9	0.00e+00	0	56	0	1445986304	48	4685
2026-01-11 08:40:52.60	8.97	16.77	-38.6	-40.5	15.1	0.00e+00	0	56	0	1449132032	48	4597
2026-01-11 08:40:53.61	8.82	16.69	-38.4	-40.2	15.4	0.00e+00	0	56	0	1452277760	48	4434
2026-01-11 08:40:54.62	8.66	16.61	-38.3	-40.1	15.5	0.00e+00	0	56	0	1455423488	48	4375
2026-01-11 08:40:55.62	8.51	16.53	-38.2	-40.0	15.6	0.00e+00	0	56	0	1458569216	48	4333
2026-01-11 08:40:56.63	8.35	16.44	-38.1	-39.9	15.7	0.00e+00	0	56	0	1461714944	48	4276
2026-01-11 08:40:57.65	8.20	16.36	-38.1	-39.8	15.7	0.00e+00	0	56	0	1464860672	48	4232
2026-01-11 08:40:58.66	8.04	16.28	-38.2	-40.0	15.5	0.00e+00	0	56	0	1468006400	48	4331
2026-01-11 08:40:59.67	7.89	16.20	-38.4	-40.3	15.3	0.00e+00	0	56	0	1471152128	48	4450
2026-01-11 08:41:00.68	7.74	16.11	-38.6	-40.5	15.0	0.00e+00	0	56	0	1474297856	48	4582
2026-01-11 08:41:01.69	7.59	16.03	-38.7	-40.7	14.8	7.00e-07	0	56	0	1477443584	48	4683
2026-01-11 08:41:02.70	7.44	15.95	-38.8	-40.9	14.6	7.00e-07	0	56	0	1480589312	48	4765
2026-01-11 08:41:03.71	7.29	15.87	-38.9	-41.0	14.5	1.50e-06	0	56	0	1483735040	48	4824
2026-01-11 08:41:04.72	7.14	15.79	-38.9	-41.0	14.5	7.00e-07	0	56	0	1486880768	48	4857
2026-01-11 08:41:05.73	6.99	15.71	-38.9	-41.0	14.4	2.20e-06	0	56	0	1490026496	48	4847
2026-01-11 08:41:06.74	6.85	15.62	-38.9	-41.0	14.5	2.20e-06	0	56	0	1493172224	48	4817
2026-01-11 08:41:07.75	6.70	15.54	-38.9	-41.0	14.5	1.50e-06	0	56	0	1496317952	48	4827
2026-01-11 08:41:08.76	6.56	15.46	-38.8	-40.9	14.5	0.00e+00	0	56	0	1499463680	48	4782
2026-01-11 08:41:09.77	6.41	15.38	-38.5	-40.5	14.9	0.00e+00	0	56	0	1502609408	48	4563
2026-01-11 08:41:10.78	6.27	15.30	-38.3	-40.2	15.2	0.00e+00	0	56	0	1505755136	48	4428
2026-01-11 08:41:11.79	6.13	15.22	-38.3	-40.1	15.3	0.00e+00	0	56	0	1508900864	48	4384
2026-01-11 08:41:12.80	5.98	15.14	-38.2	-40.1	15.3	0.00e+00	0	56	0	1512046592	48	4366
2026-01-11 08:41:13.81	5.84	15.05	-38.4	-40.3	15.1	0.00e+00	0	56	0	1515192320	48	4478
2026-01-11 08:41:14.82	5.70	14.97	-38.4	-40.4	14.9	0.00e+00	0	56	0	1518338048	48	4514
2026-01-11 08:41:15.83	5.56	14.89	-38.6	-40.6	14.7	0.00e+00	0	56	0	1521483776	48	4615
2026-01-11 08:41:16.84	5.42	14.81	-38.6	-40.6	14.6	7.00e-07	0	56	0	1524629504	48	4646
2026-01-11 08:41:17.85	5.29	14.73	-38.7	-40.7	14.5	1.50e-06	0	56	0	1527775232	48	4691
2026-01-11 08:41:18.86	5.15	14.65	-38.8	-40.9	14.2	0.00e+00	0	56	0	1530920960	48	4788
2026-01-11 08:41:19.87	5.01	14.57	-38.7	-40.8	14.2	2.20e-06	0	56	0	1534066688	48	4737
2026-01-11 08:41:20.88	4.88	14.49	-38.5	-40.7	14.2	1.50e-06	0	56	0	1537212416	48	4669
2026-01-11 08:41:21.89	4.74	14.41	-38.5	-40.7	14.1	0.00e+00	0	56	0	1540358144	48	4672
2026-01-11 08:41:22.90	4.61	14.33	-38.5	-40.8	13.9	7.60e-06	0	56	0	1543503872	48	4733
2026-01-11 08:41:23.91	4.48	14.25	-38.5	-40.7	13.9	1.50e-06	0	56	0	1546649600	48	4688
2026-01-11 08:41:24.92	4.34	14.17	-38.3	-40.5	14.1	2.20e-06	0	56	0	1549795328	48	4549
2026-01-11 08:41:25.93	4.21	14.09	-38.0	-40.1	14.4	7.00e-07	0	56	0	1552941056	48	4391
2026-01-11 08:41:26.94	4.08	14.01	-37.7	-39.8	14.6	7.00e-07	0	56	0	1556086784	47	4451
2026-01-11 08:41:27.95	3.95	13.93	-37.5	-39.5	14.8	0.00e+00	0	56	0	1559232512	47	4333
2026-01-11 08:41:28.96	3.82	13.85	-37.3	-39.2	15.1	0.00e+00	0	56	0	1562378240	46	4425
2026-01-11 08:41:29.97	3.69	13.77	-37.2	-39.2	15.1	0.00e+00	0	56	0	1565523968	46	4395
2026-01-11 08:41:30.98	3.56	13.69	-37.0	-39.0	15.1	0.00e+00	0	56	0	1568669696	46	4301
2026-01-11 08:41:31.99	3.44	13.61	-37.4	-39.5	14.5	0.00e+00	0	56	0	1572864000	46	4578
2026-01-11 08:41:33.00	3.31	13.53	-37.9	-40.3	13.6	3.80e-06	0	56	0	1574961152	46	4988
2026-01-11 08:41:34.01	3.18	13.46	-38.3	-41.0	12.6	5.87e-05	0	56	0	1578106880	47	5149
2026-01-11 08:41:35.01	3.06	13.38	-39.0	-42.1	11.4	5.86e-04	0	56	0	1581252608	48	5487
2026-01-11 08:41:36.03	2.93	13.30	-39.6	-43.4	9.9	4.16e-03	0	56	0	1584398336	49	6023
2026-01-11 08:41:37.04	2.81	13.22	-40.1	-44.6	8.5	3.71e-02	0	56	0	1588592640	50	6544
2026-01-11 08:41:38.05	2.68	13.14	-40.3	-45.6	7.3	8.89e-02	0	56	0	1591738368	51	6929
2026-01-11 08:41:39.06	2.56	13.06	-40.6	-46.7	6.2	2.18e-01	0	56	0	1594884096	51	7885
2026-01-11 08:41:40.07	2.44	12.98	-40.7	-47.9	5.2	5.14e-01	0	56	0	1596981248	52	8537
2026-01-11 08:41:41.08	2.32	12.91	-40.8	-49.6	4.0	1.36e+00	0	56	104	1600126976	52	10353
2026-01-11 08:41:42.09	2.20	12.83	-40.8	-49.9	4.2	1.46e+00	0	56	104	1600126976	52	10740
2026-01-11 08:41:43.10	2.08	12.75	-40.8	-50.8	3.9	1.48e+00	0	56	104	1600126976	52	11860
2026-01-11 08:41:44.10	1.96	12.67	-40.9	-51.7	3.8	1.49e+00	0	56	104	1600126976	52	13138
2026-01-11 08:41:45.11	1.84	12.60	-41.6	-52.0	3.9	1.48e+00	0	56	104	1600126976	53	12950
2026-01-11 08:41:46.12	1.72	12.52	-40.2	-52.6	3.8	1.49e+00	0	56	104	1600126976	52	14557
2026-01-11 08:41:47.13	1.60	12.44	-40.6	-52.4	3.8	1.49e+00	0	56	104	1600126976	52	14316
2026-01-11 08:41:48.14	1.49	12.36	-41.8	-53.9	3.8	1.49e+00	0	56	104	1600126976	54	15088
2026-01-11 08:41:49.15	1.37	12.29	-40.7	-52.5	3.8	1.49e+00	0	56	104	1600126976	53	13703
2026-01-11 08:41:50.16	1.25	12.21	-40.6	-52.6	3.8	1.49e+00	0	56	104	1600126976	53	13815
2026-01-11 08:41:51.17	1.14	12.13	-40.5	-52.7	3.8	1.49e+00	0	56	104	1600126976	53	13949
2026-01-11 08:41:52.18	1.03	12.06	-40.1	-52.5	3.8	1.49e+00	0	56	104	1600126976	52	14477
2026-01-11 08:41:53.19	0.91	11.98	-40.1	-52.5	3.8	1.49e+00	0	56	104	1600126976	52	14443
2026-01-11 08:41:54.20	0.80	11.90	-40.5	-52.9	3.8	1.49e+00	0	56	104	1600126976	52	15055
2026-01-11 08:41:55.21	0.69	11.83	-40.6	-52.7	3.8	1.49e+00	0	56	104	1600126976	52	14873
2026-01-11 08:41:56.22	0.57	11.75	-40.0	-52.4	3.8	1.49e+00	0	56	104	1600126976	51	15143
2026-01-11 08:41:57.23	0.46	11.68	-40.6	-52.8	3.8	1.49e+00	0	56	104	1600126976	51	15884
2026-01-11 08:41:58.24	0.35	11.60	-39.9	-52.4	3.8	1.49e+00	0	56	104	1600126976	51	15071
2026-01-11 08:41:59.25	0.24	11.52	-40.1	-52.5	3.8	1.49e+00	0	56	104	1600126976	51	15235
2026-01-11 08:42:00.25	0.13	11.45	-40.2	-52.6	3.8	1.49e+00	0	56	104	1600126976	51	15578
2026-01-11 08:42:01.26	0.02	11.37	-40.0	-52.4	3.8	1.49e+00	0	56	104	1600126976	51	15175
2026-01-11 08:42:02.27	359.92	11.30	-40.2	-52.6	3.8	1.49e+00	0	56	104	1600126976	51	15520
2026-01-11 08:42:03.28	359.81	11.22	-40.2	-52.7	3.8	1.49e+00	0	56	104	1600126976	51	15613
2026-01-11 08:42:04.29	359.70	11.15	-39.9	-52.4	3.8	1.49e+00	0	56	104	1600126976	51	15081
2026-01-11 08:42:05.30	359.59	11.07	-40.1	-52.6	3.8	1.49e+00	0	56	104	1600126976	51	15461
2026-01-11 08:42:06.31	359.49	11.00	-39.8	-52.3	3.8	1.49e+00	0	56	104	1600126976	51	14903
2026-01-11 08:42:07.32	359.38	10.92	-39.6	-52.3	3.8	1.49e+00	0	56	104	1600126976	51	14893
2026-01-11 08:42:08.33	359.28	10.85	-40.0	-52.4	3.8	1.49e+00	0	56	104	1600126976	51	15183
2026-01-11 08:42:09.34	359.17	10.77	-39.5	-52.2	3.8	1.49e+00	0	56	104	1600126976	50	15681
2026-01-11 08:42:10.35	359.07	10.70	-40.0	-52.5	3.8	1.49e+00	0	56	104	1600126976	50	16174
2026-01-11 08:42:11.36	358.96	10.62	-39.8	-52.4	3.8	1.49e+00	0	56	104	1600126976	50	16106
2026-01-11 08:42:12.37	358.86	10.55	-39.5	-52.3	3.8	1.49e+00	0	56	104	1600126976	50	15900
2026-01-11 08:42:13.38	358.76	10.48	-39.7	-52.4	3.8	1.49e+00	0	56	104	1600126976	50	15985
2026-01-11 08:42:14.39	358.66	10.40	-39.5	-52.2	3.8	1.49e+00	0	56	104	1600126976	50	15597
2026-01-11 08:42:15.40	358.56	10.33	-39.7	-52.2	3.8	1.49e+00	0	56	104	1600126976	50	15641
2026-01-11 08:42:16.41	358.45	10.26	-39.6	-52.3	3.8	1.49e+00	0	56	104	1600126976	50	15770
2026-01-11 08:42:17.42	358.35	10.18	-39.6	-52.2	3.8	1.49e+00	0	56	104	1600126976	50	15597
2026-01-11 08:42:18.42	358.26	10.11	-39.6	-52.3	3.8	1.49e+00	0	57	104	1600126976	50	15850
2026-01-11 08:42:19.43	358.16	10.04	-39.7	-52.3	3.8	1.49e+00	0	56	104	1600126976	50	15777
2026-01-11 08:42:20.45	358.06	9.96	-39.6	-52.2	3.8	1.49e+00	0	57	104	1600126976	50	15627
2026-01-11 08:42:21.46	357.96	9.89	-39.6	-52.2	3.8	1.49e+00	0	56	104	1600126976	50	15754
2026-01-11 08:42:22.46	357.86	9.82	-39.0	-52.1	3.8	1.49e+00	0	56	104	1600126976	49	16437
2026-01-11 08:42:23.47	357.76	9.74	-39.0	-52.2	3.8	1.49e+00	0	56	104	1600126976	49	16514
2026-01-11 08:42:24.48	357.67	9.67	-39.1	-52.2	3.8	1.49e+00	0	56	104	1600126976	49	16524
2026-01-11 08:42:25.50	357.57	9.60	-38.9	-52.1	3.8	1.49e+00	0	56	104	1600126976	49	16437
2026-01-11 08:42:26.51	357.48	9.53	-39.4	-52.2	3.8	1.49e+00	0	56	104	1600126976	49	16650
2026-01-11 08:42:27.52	357.38	9.45	-38.9	-52.1	3.8	1.49e+00	0	56	104	1600126976	49	16478
2026-01-11 08:42:28.53	357.29	9.38	-38.8	-52.1	3.8	1.49e+00	0	57	104	1600126976	49	16483
2026-01-11 08:42:29.54	357.19	9.31	-39.0	-52.2	3.8	1.49e+00	0	56	104	1600126976	49	16558
2026-01-11 08:42:30.55	357.10	9.24	-39.5	-52.1	3.8	1.49e+00	0	56	104	1600126976	49	16332
2026-01-11 08:42:31.56	357.00	9.17	-39.0	-52.1	3.8	1.49e+00	0	56	104	1600126976	49	16352
2026-01-11 08:42:32.57	356.91	9.10	-39.2	-52.1	3.8	1.49e+00	0	56	104	1600126976	49	16316
2026-01-11 08:42:33.57	356.82	9.02	-39.1	-52.1	3.8	1.49e+00	0	56	104	1600126976	49	16363
2026-01-11 08:42:34.58	356.73	8.95	-38.5	-52.1	3.8	1.49e+00	0	56	104	1600126976	49	16412
2026-01-11 08:42:35.59	356.64	8.88	-39.5	-52.1	3.8	1.49e+00	0	56	104	1600126976	49	16387
2026-01-11 08:42:36.60	356.55	8.81	-39.3	-52.1	3.8	1.49e+00	0	56	104	1600126976	49	16346
2026-01-11 08:42:37.61	356.46	8.74	-39.6	-52.1	3.8	1.49e+00	0	56	104	1600126976	49	16421
2026-01-11 08:42:38.62	356.37	8.67	-39.6	-52.2	3.8	1.49e+00	0	56	104	1600126976	49	16511
2026-01-11 08:42:39.63	356.28	8.60	-39.5	-52.1	3.8	1.49e+00	0	56	104	1600126976	49	16364
2026-01-11 08:42:40.64	356.19	8.53	-39.6	-52.2	3.8	1.49e+00	0	56	104	1600126976	49	16552
2026-01-11 08:42:41.65	356.10	8.46	-39.6	-52.1	3.8	1.49e+00	0	57	104	1600126976	49	16362
2026-01-11 08:42:42.67	356.01	8.39	-39.4	-52.1	3.8	1.49e+00	0	56	104	1600126976	49	16484
2026-01-11 08:42:43.68	355.92	8.32	-39.6	-52.2	3.8	1.49e+00	0	56	104	1600126976	49	16531
2026-01-11 08:42:44.69	355.83	8.25	-39.8	-52.3	3.8	1.49e+00	0	57	104	1600126976	50	15770
2026-01-11 08:42:45.69	355.75	8.18	-39.6	-52.2	3.8	1.49e+00	0	56	104	1600126976	50	15684
2026-01-11 08:42:46.70	355.66	8.11	-39.7	-52.2	3.8	1.49e+00	0	56	104	1600126976	50	15704
2026-01-11 08:42:47.71	355.58	8.04	-39.6	-52.2	3.8	1.49e+00	0	57	104	1600126976	50	15735
2026-01-11 08:42:48.72	355.49	7.97	-38.5	-52.1	3.8	1.49e+00	0	56	104	1600126976	49	16419
2026-01-11 08:42:49.73	355.40	7.90	-43.4	-55.8	3.8	1.49e+00	0	57	104	1600126976	57	15786
2026-01-11 08:42:50.74	355.32	7.83	-44.7	-57.0	3.8	1.49e+00	0	56	104	1600126976	59	16137
2026-01-11 08:42:51.76	355.23	7.76	-44.9	-57.3	3.8	1.49e+00	0	56	104	1600126976	60	15895
2026-01-11 08:42:52.77	355.15	7.69	-45.1	-57.5	3.8	1.49e+00	0	56	104	1600126976	60	16251
2026-01-11 08:42:53.78	355.07	7.62	-45.2	-57.7	3.8	1.49e+00	0	56	104	1600126976	60	16505
2026-01-11 08:42:54.79	354.98	7.56	-45.3	-57.7	3.8	1.49e+00	0	56	104	1600126976	61	15750
2026-01-11 08:42:55.80	354.90	7.49	-45.3	-57.8	3.8	1.49e+00	0	57	104	1600126976	61	15789
2026-01-11 08:42:56.81	354.82	7.42	-45.3	-57.8	3.8	1.49e+00	0	56	104	1600126976	61	15782
2026-01-11 08:42:57.82	354.74	7.35	-45.3	-57.8	3.8	1.49e+00	0	56	104	1600126976	61	15821
2026-01-11 08:42:58.84	354.65	7.28	-45.3	-57.8	3.8	1.49e+00	0	56	104	1600126976	61	15784
2026-01-11 08:42:59.85	354.57	7.21	-45.2	-57.8	3.8	1.49e+00	0	57	104	1600126976	61	15772
2026-01-11 08:43:00.86	354.49	7.15	-45.2	-57.7	3.8	1.49e+00	0	56	104	1600126976	61	15721
