passes_logs/2026/01/11/R2.0S_Moscow/R2.0S_Moscow__20260111_235033_FENGYUN_3D_rec.log

#Pass ID: 20260111_235033_FENGYUN 3D
#Satellite: FENGYUN 3D
#Configuration: FENGYUN 3D
#almurnet v.1.7.20251203
#Start time: 2026-01-11 23:50:34

#Version: 2.2.20231116
#Station: R2.0S_Moscow
#Location: 37.707566 lon 55.798166 lat
#TLE: 1 43010U 17072A   26011.26828046  .00000354  00000+0  18908-3 0  9991
#TLE: 2 43010  98.9936 343.0270 0002205 114.1788 245.9618 14.19695184422722

#Time	Az	El	Level	Level2	SNR	BER	BlckErr	Temp	State	Recorded	gain1	gain2
2026-01-11 23:50:34.38	29.73	2.06	-42.7	-54.8	3.8	8.47e-01	0	47	0	0	57	14120
2026-01-11 23:50:35.38	29.82	2.11	-42.6	-54.6	3.8	8.46e-01	0	48	104	0	55	15562
2026-01-11 23:50:36.39	29.91	2.16	-42.5	-54.6	3.8	8.45e-01	0	48	104	0	55	15519
2026-01-11 23:50:37.40	30.00	2.21	-42.6	-54.6	3.8	8.46e-01	0	48	104	0	55	15526
2026-01-11 23:50:38.42	30.09	2.26	-42.5	-54.6	3.8	8.47e-01	0	48	104	0	55	15488
2026-01-11 23:50:39.43	30.18	2.30	-42.5	-54.6	3.8	8.46e-01	0	48	104	0	55	15503
2026-01-11 23:50:40.44	30.27	2.35	-42.5	-54.6	3.8	8.46e-01	0	48	104	0	55	15523
2026-01-11 23:50:41.45	30.36	2.40	-42.6	-54.6	3.8	8.47e-01	0	48	104	0	55	15490
2026-01-11 23:50:42.46	30.46	2.45	-42.6	-54.6	3.8	8.47e-01	0	48	104	0	55	15489
2026-01-11 23:50:43.47	30.55	2.50	-42.6	-54.6	3.8	8.47e-01	0	48	104	0	55	15514
2026-01-11 23:50:44.48	30.64	2.55	-42.6	-54.6	3.8	8.46e-01	0	49	104	0	55	15548
2026-01-11 23:50:45.49	30.73	2.60	-42.5	-54.6	3.8	8.46e-01	0	48	104	0	55	15484
2026-01-11 23:50:46.50	30.83	2.65	-42.6	-54.6	3.8	8.47e-01	0	49	104	0	55	15518
2026-01-11 23:50:47.51	30.92	2.70	-42.6	-54.6	3.8	8.46e-01	0	49	104	0	55	15459
2026-01-11 23:50:48.52	31.02	2.75	-42.6	-54.6	3.8	8.45e-01	0	49	104	0	55	15523
2026-01-11 23:50:49.53	31.11	2.80	-42.6	-54.6	3.8	8.46e-01	0	49	104	0	55	15529
2026-01-11 23:50:50.54	31.21	2.85	-42.6	-54.6	3.8	8.46e-01	0	49	104	0	55	15511
2026-01-11 23:50:51.55	31.30	2.89	-42.6	-54.6	3.8	8.45e-01	0	49	104	0	55	15473
2026-01-11 23:50:52.57	31.40	2.94	-42.5	-54.6	3.8	8.46e-01	0	49	104	0	55	15450
2026-01-11 23:50:53.57	31.49	2.99	-42.6	-54.6	3.8	8.47e-01	0	49	104	0	55	15488
2026-01-11 23:50:54.59	31.59	3.04	-42.6	-54.6	3.8	8.46e-01	0	49	104	0	55	15473
2026-01-11 23:50:55.60	31.68	3.09	-42.6	-54.6	3.8	8.45e-01	0	49	104	0	55	15461
2026-01-11 23:50:56.61	31.78	3.14	-42.6	-54.6	3.8	8.46e-01	0	49	104	0	55	15502
2026-01-11 23:50:57.62	31.88	3.19	-42.6	-54.6	3.8	8.46e-01	0	49	104	0	55	15474
2026-01-11 23:50:58.63	31.97	3.24	-42.6	-54.6	3.8	8.46e-01	0	49	104	0	55	15519
2026-01-11 23:50:59.64	32.07	3.29	-42.6	-54.6	3.8	8.47e-01	0	49	104	0	55	15459
2026-01-11 23:51:00.65	32.17	3.34	-42.6	-54.6	3.8	8.45e-01	0	50	104	0	55	15473
2026-01-11 23:51:01.66	32.27	3.39	-42.6	-54.6	3.8	8.46e-01	0	50	104	0	55	15476
2026-01-11 23:51:02.67	32.37	3.44	-42.6	-54.6	3.8	8.46e-01	0	50	104	0	55	15505
2026-01-11 23:51:03.68	32.46	3.49	-42.6	-54.6	3.8	8.46e-01	0	50	104	0	55	15470
2026-01-11 23:51:04.69	32.56	3.54	-42.6	-54.6	3.8	8.45e-01	0	50	104	0	55	15489
2026-01-11 23:51:05.70	32.66	3.59	-42.6	-54.6	3.8	8.46e-01	0	50	104	0	55	15482
2026-01-11 23:51:06.72	32.76	3.64	-42.6	-54.6	3.8	8.45e-01	0	50	104	0	55	15465
2026-01-11 23:51:07.73	32.86	3.69	-42.6	-54.6	3.8	8.47e-01	0	50	104	0	55	15477
2026-01-11 23:51:08.74	32.96	3.74	-42.6	-54.6	3.8	8.46e-01	0	50	104	0	55	15496
2026-01-11 23:51:09.75	33.06	3.79	-42.6	-54.6	3.8	8.47e-01	0	50	104	0	55	15485
2026-01-11 23:51:10.76	33.17	3.84	-42.6	-54.6	3.8	8.46e-01	0	50	104	0	55	15479
2026-01-11 23:51:11.77	33.27	3.89	-42.6	-54.6	3.8	8.46e-01	0	50	104	0	55	15460
2026-01-11 23:51:12.78	33.37	3.94	-42.6	-54.6	3.8	8.46e-01	0	50	104	0	55	15488
2026-01-11 23:51:13.79	33.47	3.99	-42.6	-54.6	3.8	8.46e-01	0	50	104	0	55	15477
2026-01-11 23:51:14.80	33.57	4.04	-42.6	-54.6	3.8	8.46e-01	0	51	104	0	55	15485
2026-01-11 23:51:15.81	33.68	4.09	-42.6	-54.6	3.8	8.47e-01	0	51	104	0	55	15431
2026-01-11 23:51:16.82	33.78	4.14	-42.6	-54.6	3.8	8.46e-01	0	51	104	0	55	15446
2026-01-11 23:51:17.83	33.88	4.19	-42.6	-54.6	3.8	8.46e-01	0	51	104	0	55	15496
2026-01-11 23:51:18.84	33.99	4.24	-42.6	-54.6	3.8	8.47e-01	0	51	104	0	55	15419
2026-01-11 23:51:19.85	34.09	4.29	-42.6	-54.6	3.8	8.47e-01	0	51	104	0	55	15471
2026-01-11 23:51:20.86	34.19	4.34	-42.6	-54.6	3.8	8.47e-01	0	51	104	0	55	15511
2026-01-11 23:51:21.88	34.30	4.39	-42.6	-54.6	3.8	8.47e-01	0	51	104	0	55	15490
2026-01-11 23:51:22.89	34.40	4.44	-42.6	-54.6	3.8	8.46e-01	0	51	104	0	55	15469
2026-01-11 23:51:23.90	34.51	4.49	-42.6	-54.6	3.8	8.46e-01	0	51	104	0	55	15472
2026-01-11 23:51:24.91	34.62	4.54	-42.6	-54.6	3.8	8.45e-01	0	51	104	0	55	15496
2026-01-11 23:51:25.92	34.72	4.59	-42.6	-54.6	3.8	8.45e-01	0	51	104	0	55	15499
2026-01-11 23:51:26.93	34.83	4.64	-42.6	-54.6	3.8	8.46e-01	0	51	104	0	55	15492
2026-01-11 23:51:27.94	34.93	4.69	-42.6	-54.6	3.8	8.47e-01	0	51	104	0	55	15520
2026-01-11 23:51:28.95	35.04	4.74	-42.6	-54.6	3.8	8.47e-01	0	51	104	0	55	15507
2026-01-11 23:51:29.97	35.15	4.79	-42.6	-54.6	3.8	8.45e-01	0	51	104	0	55	15449
2026-01-11 23:51:30.98	35.26	4.84	-42.6	-54.6	3.8	8.46e-01	0	51	104	0	55	15511
2026-01-11 23:51:31.99	35.37	4.89	-42.6	-54.6	3.8	8.45e-01	0	51	104	0	55	15499
2026-01-11 23:51:33.00	35.47	4.94	-42.6	-54.6	3.8	8.46e-01	0	51	104	0	55	15470
2026-01-11 23:51:34.01	35.58	4.99	-42.6	-54.6	3.8	8.46e-01	0	51	104	0	55	15526
2026-01-11 23:51:35.02	35.69	5.04	-42.6	-54.6	3.8	8.46e-01	0	51	104	0	55	15527
2026-01-11 23:51:36.03	35.80	5.09	-42.6	-54.6	3.8	8.47e-01	0	51	104	0	55	15515
2026-01-11 23:51:37.04	35.91	5.14	-42.6	-54.6	3.8	8.46e-01	0	52	104	0	55	15496
2026-01-11 23:51:38.05	36.02	5.19	-42.6	-54.6	3.8	8.47e-01	0	52	104	0	55	15494
2026-01-11 23:51:39.06	36.13	5.24	-42.6	-54.6	3.8	8.46e-01	0	52	104	0	55	15495
2026-01-11 23:51:40.08	36.24	5.29	-42.6	-54.6	3.8	8.46e-01	0	52	104	0	55	15528
2026-01-11 23:51:41.09	36.36	5.34	-42.6	-54.6	3.8	8.46e-01	0	52	104	0	55	15503
2026-01-11 23:51:42.10	36.47	5.39	-42.6	-54.6	3.8	8.46e-01	0	52	104	0	55	15509
2026-01-11 23:51:43.11	36.58	5.44	-42.6	-54.6	3.8	8.45e-01	0	52	104	0	55	15496
2026-01-11 23:51:44.12	36.69	5.49	-42.6	-54.6	3.8	8.47e-01	0	52	104	0	55	15484
2026-01-11 23:51:45.13	36.81	5.54	-42.6	-54.6	3.8	8.46e-01	0	52	104	0	55	15529
2026-01-11 23:51:46.14	36.92	5.59	-42.6	-54.6	3.8	8.45e-01	0	52	104	0	55	15443
2026-01-11 23:51:47.15	37.03	5.64	-42.6	-54.6	3.8	8.45e-01	0	52	104	0	55	15491
2026-01-11 23:51:48.17	37.15	5.69	-42.6	-54.6	3.8	8.46e-01	0	52	104	0	55	15469
2026-01-11 23:51:49.18	37.26	5.74	-42.5	-54.6	3.8	8.47e-01	0	52	104	0	55	15498
2026-01-11 23:51:50.19	37.38	5.79	-42.6	-54.6	3.8	8.46e-01	0	52	104	0	55	15472
2026-01-11 23:51:51.20	37.49	5.84	-42.6	-54.6	3.8	8.45e-01	0	52	104	0	55	15516
2026-01-11 23:51:52.21	37.61	5.90	-42.6	-54.6	3.8	8.45e-01	0	52	104	0	55	15465
2026-01-11 23:51:53.22	37.72	5.95	-42.6	-54.6	3.8	8.46e-01	0	52	104	0	55	15490
2026-01-11 23:51:54.23	37.84	6.00	-42.6	-54.6	3.8	8.45e-01	0	52	104	0	55	15446
2026-01-11 23:51:55.24	37.96	6.05	-42.6	-54.6	3.8	8.46e-01	0	52	104	0	55	15468
2026-01-11 23:51:56.25	38.07	6.10	-42.5	-54.6	3.8	8.46e-01	0	52	104	0	55	15494
2026-01-11 23:51:57.27	38.19	6.15	-42.6	-54.6	3.8	8.46e-01	0	52	104	0	55	15466
2026-01-11 23:51:58.28	38.31	6.20	-42.6	-54.6	3.8	8.45e-01	0	52	104	0	55	15467
2026-01-11 23:51:59.29	38.43	6.25	-42.6	-54.6	3.8	8.45e-01	0	52	104	0	55	15465
2026-01-11 23:52:00.30	38.55	6.30	-42.5	-54.6	3.8	8.44e-01	0	53	104	0	55	15442
2026-01-11 23:52:01.31	38.66	6.35	-42.5	-54.6	3.8	8.47e-01	0	53	104	0	55	15439
2026-01-11 23:52:02.32	38.78	6.40	-42.5	-54.5	3.8	8.46e-01	0	53	104	0	55	15374
2026-01-11 23:52:03.33	38.90	6.45	-42.5	-54.5	3.8	8.47e-01	0	53	104	0	55	15387
2026-01-11 23:52:04.34	39.02	6.50	-42.5	-54.6	3.8	8.47e-01	0	53	104	0	55	15443
2026-01-11 23:52:05.36	39.15	6.55	-42.5	-54.5	3.8	8.46e-01	0	53	104	0	55	15380
2026-01-11 23:52:06.37	39.27	6.60	-42.6	-54.5	3.8	8.45e-01	0	53	104	0	55	15267
2026-01-11 23:52:07.38	39.39	6.65	-42.5	-54.2	3.8	8.45e-01	0	53	104	0	55	14869
2026-01-11 23:52:08.39	39.51	6.70	-42.5	-54.1	3.8	8.46e-01	0	53	104	0	55	14648
2026-01-11 23:52:09.40	39.63	6.75	-42.5	-54.4	3.8	8.46e-01	0	53	104	0	55	15098
2026-01-11 23:52:10.41	39.76	6.80	-42.5	-54.5	3.8	8.47e-01	0	53	104	0	55	15318
2026-01-11 23:52:11.42	39.88	6.85	-42.5	-54.3	3.8	8.47e-01	0	53	104	0	55	14921
2026-01-11 23:52:12.43	40.00	6.90	-42.5	-54.1	3.8	8.47e-01	0	53	104	0	55	14550
2026-01-11 23:52:13.45	40.13	6.95	-42.4	-53.5	3.8	8.45e-01	0	53	104	0	55	13669
2026-01-11 23:52:14.46	40.25	7.00	-42.3	-52.4	3.9	8.46e-01	0	53	104	0	55	12015
2026-01-11 23:52:15.47	40.38	7.05	-42.2	-51.5	4.1	8.41e-01	0	53	0	0	55	10840
2026-01-11 23:52:16.48	40.50	7.10	-42.1	-50.3	4.4	8.32e-01	0	53	0	0	55	9496
2026-01-11 23:52:17.49	40.63	7.15	-41.9	-49.6	4.7	8.14e-01	0	53	0	0	55	8739
2026-01-11 23:52:18.50	40.75	7.20	-41.7	-49.0	5.0	7.73e-01	0	53	0	0	55	8088
2026-01-11 23:52:19.51	40.88	7.25	-41.6	-48.6	5.3	7.48e-01	0	53	0	0	55	7723
2026-01-11 23:52:20.52	41.01	7.30	-41.7	-48.8	5.1	7.51e-01	0	53	0	0	55	7966
2026-01-11 23:52:21.53	41.13	7.35	-41.7	-49.1	5.0	7.61e-01	0	53	0	0	55	8193
2026-01-11 23:52:22.54	41.26	7.40	-42.0	-50.2	4.5	8.14e-01	0	53	0	0	55	9292
2026-01-11 23:52:23.56	41.39	7.46	-42.2	-52.1	3.8	8.39e-01	0	53	104	0	55	11598
2026-01-11 23:52:24.57	41.52	7.51	-42.5	-54.1	3.8	8.47e-01	0	53	104	0	55	14631
2026-01-11 23:52:25.58	41.65	7.56	-42.5	-54.2	3.8	8.47e-01	0	53	104	0	55	14821
2026-01-11 23:52:26.59	41.78	7.61	-42.2	-51.4	4.1	8.44e-01	0	53	104	0	55	10705
2026-01-11 23:52:27.60	41.91	7.66	-41.5	-47.9	5.7	7.54e-01	0	54	0	0	55	7159
2026-01-11 23:52:28.61	42.04	7.71	-40.7	-45.5	7.7	1.90e-01	0	54	0	5242880	53	6111
2026-01-11 23:52:29.62	42.17	7.76	-40.0	-43.8	9.5	2.64e-02	0	54	0	11534336	52	5303
2026-01-11 23:52:30.63	42.30	7.81	-39.4	-42.7	10.8	7.58e-03	0	54	0	16777216	50	5243
2026-01-11 23:52:31.64	42.43	7.86	-38.9	-41.8	11.6	1.52e-03	0	54	0	23068672	49	5039
2026-01-11 23:52:32.65	42.56	7.91	-38.4	-41.0	12.5	2.63e-04	0	54	0	28311552	48	4869
2026-01-11 23:52:33.66	42.69	7.95	-38.2	-40.8	12.8	9.26e-05	0	54	0	33554432	48	4706
2026-01-11 23:52:34.68	42.83	8.01	-38.2	-40.7	12.8	9.49e-05	0	54	0	39845888	48	4690
2026-01-11 23:52:35.69	42.96	8.05	-38.2	-40.6	13.2	2.63e-05	0	54	0	45088768	48	4624
2026-01-11 23:52:36.69	43.09	8.10	-39.3	-42.2	11.5	9.95e-05	0	54	0	51380224	49	5275
2026-01-11 23:52:37.70	43.23	8.15	-38.5	-41.2	12.4	5.83e-05	0	54	0	56623104	48	4963
2026-01-11 23:52:38.71	43.36	8.20	-41.0	-48.0	5.6	3.20e-02	0	54	0	61865984	52	8596
2026-01-11 23:52:39.72	43.50	8.25	-38.2	-40.5	13.3	1.62e-03	0	54	0	61865984	47	4815
2026-01-11 23:52:40.73	43.63	8.30	-38.3	-40.7	13.2	1.26e-03	0	54	0	68157440	48	4652
2026-01-11 23:52:41.74	43.77	8.35	-37.7	-39.9	13.8	1.10e-06	0	54	0	73400320	47	4529
2026-01-11 23:52:42.75	43.90	8.40	-37.8	-40.0	13.7	4.50e-06	0	54	0	78643200	47	4564
2026-01-11 23:52:43.76	44.04	8.45	-37.8	-40.0	13.8	2.20e-06	0	54	0	84934656	47	4552
2026-01-11 23:52:44.77	44.18	8.50	-37.6	-39.7	14.1	4.50e-06	0	54	0	90177536	47	4430
2026-01-11 23:52:45.78	44.32	8.55	-37.6	-39.7	14.1	0.00e+00	0	54	0	96468992	47	4416
2026-01-11 23:52:46.79	44.45	8.60	-37.6	-39.7	14.2	0.00e+00	0	54	0	101711872	47	4428
2026-01-11 23:52:47.80	44.59	8.65	-37.7	-39.8	14.1	2.20e-06	0	54	0	106954752	47	4468
2026-01-11 23:52:48.81	44.73	8.70	-37.8	-39.9	13.9	1.10e-06	0	54	0	113246208	47	4541
2026-01-11 23:52:49.82	44.87	8.75	-37.7	-39.9	14.0	3.40e-06	0	54	0	118489088	47	4514
2026-01-11 23:52:50.83	45.01	8.80	-37.7	-39.8	14.1	0.00e+00	0	54	0	124780544	47	4486
2026-01-11 23:52:51.83	45.15	8.85	-37.6	-39.7	14.3	1.10e-06	0	54	0	130023424	47	4416
2026-01-11 23:52:52.85	45.29	8.89	-37.6	-39.6	14.4	1.10e-06	0	54	0	136314880	47	4368
2026-01-11 23:52:53.86	45.43	8.94	-37.6	-39.6	14.4	0.00e+00	0	54	0	141557760	47	4353
2026-01-11 23:52:54.87	45.58	8.99	-37.5	-39.5	14.6	0.00e+00	0	54	0	146800640	46	4553
2026-01-11 23:52:55.88	45.72	9.04	-37.6	-39.6	14.5	1.10e-06	0	54	0	153092096	46	4624
2026-01-11 23:52:56.89	45.86	9.09	-37.5	-39.5	14.6	0.00e+00	0	54	0	158334976	46	4557
2026-01-11 23:52:57.90	46.00	9.14	-37.4	-39.3	14.8	0.00e+00	0	54	0	164626432	46	4464
2026-01-11 23:52:58.90	46.15	9.19	-37.3	-39.2	14.9	0.00e+00	0	54	0	169869312	46	4439
2026-01-11 23:52:59.92	46.29	9.24	-37.3	-39.2	14.9	0.00e+00	0	54	0	175112192	46	4428
2026-01-11 23:53:00.93	46.44	9.29	-37.3	-39.2	14.9	0.00e+00	0	54	0	181403648	46	4429
2026-01-11 23:53:01.94	46.58	9.33	-37.3	-39.1	15.0	0.00e+00	0	54	0	186646528	46	4388
2026-01-11 23:53:02.95	46.73	9.38	-37.2	-39.1	15.1	0.00e+00	0	54	0	192937984	46	4344
2026-01-11 23:53:03.96	46.87	9.43	-37.3	-39.1	15.1	0.00e+00	0	55	0	198180864	46	4358
2026-01-11 23:53:04.97	47.02	9.48	-37.2	-39.0	15.2	0.00e+00	0	54	0	203423744	46	4336
2026-01-11 23:53:05.98	47.17	9.53	-37.1	-38.9	15.3	0.00e+00	0	54	0	209715200	46	4275
2026-01-11 23:53:06.99	47.31	9.58	-37.1	-38.9	15.3	0.00e+00	0	54	0	214958080	46	4271
2026-01-11 23:53:08.00	47.46	9.62	-37.2	-39.0	15.2	0.00e+00	0	54	0	221249536	46	4307
2026-01-11 23:53:09.01	47.61	9.67	-37.1	-38.9	15.3	0.00e+00	0	55	0	226492416	46	4283
2026-01-11 23:53:10.02	47.76	9.72	-37.2	-39.0	15.2	0.00e+00	0	55	0	232783872	46	4332
2026-01-11 23:53:11.03	47.91	9.77	-37.2	-39.1	15.2	0.00e+00	0	55	0	238026752	46	4342
2026-01-11 23:53:12.04	48.06	9.82	-37.2	-39.0	15.3	0.00e+00	0	54	0	244318208	46	4303
2026-01-11 23:53:13.05	48.21	9.86	-37.2	-39.0	15.3	0.00e+00	0	55	0	249561088	46	4308
2026-01-11 23:53:14.06	48.36	9.91	-37.2	-39.0	15.3	0.00e+00	0	55	0	254803968	46	4302
2026-01-11 23:53:15.07	48.51	9.96	-37.1	-38.9	15.3	0.00e+00	0	55	0	261095424	46	4268
2026-01-11 23:53:16.08	48.66	10.01	-37.2	-39.0	15.3	0.00e+00	0	55	0	266338304	46	4303
2026-01-11 23:53:17.09	48.82	10.05	-37.1	-38.9	15.4	0.00e+00	0	55	0	272629760	46	4260
2026-01-11 23:53:18.10	48.97	10.10	-37.1	-38.8	15.5	0.00e+00	0	55	0	277872640	46	4229
2026-01-11 23:53:19.11	49.12	10.15	-37.1	-38.8	15.4	0.00e+00	0	55	0	283115520	46	4234
2026-01-11 23:53:20.12	49.27	10.20	-37.1	-38.8	15.5	0.00e+00	0	55	0	289406976	46	4235
2026-01-11 23:53:21.13	49.43	10.24	-37.0	-38.8	15.6	0.00e+00	0	55	0	294649856	46	4200
2026-01-11 23:53:22.14	49.58	10.29	-37.0	-38.7	15.6	0.00e+00	0	55	0	300941312	46	4193
2026-01-11 23:53:23.15	49.74	10.34	-37.0	-38.7	15.6	0.00e+00	0	55	0	306184192	45	4410
2026-01-11 23:53:24.16	49.89	10.38	-37.0	-38.7	15.6	0.00e+00	0	55	0	311427072	45	4419
2026-01-11 23:53:25.17	50.05	10.43	-36.9	-38.6	15.7	0.00e+00	0	55	0	317718528	45	4380
2026-01-11 23:53:26.18	50.21	10.48	-36.9	-38.6	15.8	0.00e+00	0	55	0	322961408	45	4370
2026-01-11 23:53:27.19	50.36	10.52	-36.9	-38.6	15.7	0.00e+00	0	55	0	329252864	45	4361
2026-01-11 23:53:28.20	50.52	10.57	-37.0	-38.7	15.6	0.00e+00	0	55	0	334495744	45	4425
2026-01-11 23:53:29.21	50.68	10.62	-37.0	-38.7	15.7	0.00e+00	0	55	0	340787200	45	4399
2026-01-11 23:53:30.22	50.84	10.66	-37.0	-38.7	15.7	0.00e+00	0	55	0	346030080	45	4410
2026-01-11 23:53:31.24	51.00	10.71	-37.0	-38.7	15.7	0.00e+00	0	55	0	352321536	45	4408
2026-01-11 23:53:32.24	51.16	10.76	-37.0	-38.7	15.7	0.00e+00	0	55	0	357564416	45	4404
2026-01-11 23:53:33.25	51.32	10.80	-36.9	-38.6	15.8	0.00e+00	0	55	0	362807296	45	4353
2026-01-11 23:53:34.26	51.48	10.85	-36.9	-38.5	15.8	0.00e+00	0	55	0	369098752	45	4333
2026-01-11 23:53:35.27	51.64	10.89	-36.9	-38.5	15.9	0.00e+00	0	55	0	374341632	45	4331
2026-01-11 23:53:36.28	51.80	10.94	-36.9	-38.5	15.9	0.00e+00	0	55	0	380633088	45	4330
2026-01-11 23:53:37.29	51.96	10.99	-36.7	-38.4	15.8	0.00e+00	0	55	0	385875968	45	4283
2026-01-11 23:53:38.30	52.12	11.03	-36.7	-38.4	15.8	0.00e+00	0	55	0	391118848	45	4290
2026-01-11 23:53:39.31	52.29	11.08	-36.7	-38.5	15.8	0.00e+00	0	55	0	397410304	45	4299
2026-01-11 23:53:40.32	52.45	11.12	-36.7	-38.5	15.7	0.00e+00	0	55	0	402653184	45	4309
2026-01-11 23:53:41.33	52.61	11.17	-36.7	-38.4	15.8	0.00e+00	0	55	0	408944640	45	4265
2026-01-11 23:53:42.34	52.78	11.21	-36.6	-38.4	15.9	0.00e+00	0	55	0	414187520	45	4244
2026-01-11 23:53:43.35	52.94	11.26	-36.6	-38.3	15.9	0.00e+00	0	55	0	419430400	45	4225
2026-01-11 23:53:44.36	53.11	11.30	-36.5	-38.2	16.0	0.00e+00	0	55	0	425721856	45	4186
2026-01-11 23:53:45.37	53.27	11.34	-36.5	-38.2	16.0	0.00e+00	0	55	0	430964736	45	4169
2026-01-11 23:53:46.38	53.44	11.39	-36.5	-38.2	16.0	0.00e+00	0	55	0	437256192	45	4180
2026-01-11 23:53:47.39	53.61	11.43	-36.5	-38.2	16.0	0.00e+00	0	55	0	442499072	45	4173
2026-01-11 23:53:48.40	53.78	11.48	-36.5	-38.3	16.0	0.00e+00	0	55	0	448790528	45	4196
2026-01-11 23:53:49.41	53.94	11.52	-36.5	-38.2	16.0	0.00e+00	0	55	0	454033408	45	4179
2026-01-11 23:53:50.42	54.11	11.57	-36.5	-38.2	16.1	0.00e+00	0	55	0	459276288	44	4393
2026-01-11 23:53:51.43	54.28	11.61	-36.5	-38.1	16.1	0.00e+00	0	55	0	465567744	44	4386
2026-01-11 23:53:52.44	54.45	11.65	-36.5	-38.2	16.1	0.00e+00	0	55	0	470810624	44	4426
2026-01-11 23:53:53.45	54.62	11.70	-36.5	-38.3	16.0	0.00e+00	0	55	0	477102080	44	4448
2026-01-11 23:53:54.46	54.79	11.74	-36.6	-38.3	15.9	0.00e+00	0	55	0	482344960	44	4491
2026-01-11 23:53:55.47	54.96	11.78	-36.7	-38.5	15.8	0.00e+00	0	55	0	487587840	44	4558
2026-01-11 23:53:56.48	55.13	11.83	-36.7	-38.5	15.8	0.00e+00	0	55	0	493879296	44	4546
2026-01-11 23:53:57.48	55.30	11.87	-36.6	-38.4	15.9	0.00e+00	0	55	0	499122176	44	4517
2026-01-11 23:53:58.50	55.48	11.91	-36.6	-38.4	15.9	0.00e+00	0	55	0	505413632	44	4502
2026-01-11 23:53:59.50	55.65	11.95	-36.6	-38.4	15.9	0.00e+00	0	55	0	510656512	44	4498
2026-01-11 23:54:00.51	55.82	12.00	-36.6	-38.3	15.9	0.00e+00	0	55	0	515899392	44	4487
2026-01-11 23:54:01.52	55.99	12.04	-36.6	-38.3	15.9	0.00e+00	0	55	0	522190848	44	4489
2026-01-11 23:54:02.53	56.17	12.08	-36.6	-38.3	15.9	0.00e+00	0	55	0	527433728	44	4481
2026-01-11 23:54:03.54	56.34	12.12	-36.5	-38.3	16.0	0.00e+00	0	55	0	533725184	44	4451
2026-01-11 23:54:04.55	56.52	12.16	-36.5	-38.2	16.0	0.00e+00	0	55	0	538968064	44	4427
2026-01-11 23:54:05.56	56.69	12.20	-36.4	-38.1	16.2	0.00e+00	0	55	0	545259520	44	4345
2026-01-11 23:54:06.57	56.87	12.25	-36.4	-38.0	16.2	0.00e+00	0	55	0	550502400	44	4336
2026-01-11 23:54:07.58	57.05	12.29	-36.3	-38.0	16.3	0.00e+00	0	56	0	556793856	44	4311
2026-01-11 23:54:08.59	57.22	12.33	-36.4	-38.0	16.2	0.00e+00	0	56	0	562036736	44	4328
2026-01-11 23:54:09.60	57.40	12.37	-36.4	-38.1	16.1	0.00e+00	0	55	0	567279616	44	4377
2026-01-11 23:54:10.61	57.58	12.41	-36.5	-38.2	16.1	0.00e+00	0	55	0	573571072	44	4415
2026-01-11 23:54:11.62	57.76	12.45	-36.5	-38.3	16.0	0.00e+00	0	56	0	578813952	44	4453
2026-01-11 23:54:12.63	57.94	12.49	-36.6	-38.3	15.9	0.00e+00	0	56	0	585105408	44	4470
2026-01-11 23:54:13.64	58.12	12.53	-36.6	-38.3	16.0	0.00e+00	0	55	0	590348288	44	4470
2026-01-11 23:54:14.65	58.30	12.57	-36.5	-38.2	16.1	0.00e+00	0	56	0	595591168	44	4415
2026-01-11 23:54:15.65	58.47	12.61	-36.4	-38.1	16.1	0.00e+00	0	56	0	601882624	44	4391
2026-01-11 23:54:16.66	58.66	12.65	-36.3	-38.0	16.2	0.00e+00	0	56	0	607125504	44	4332
2026-01-11 23:54:17.68	58.84	12.69	-36.3	-38.0	16.3	0.00e+00	0	56	0	613416960	44	4310
2026-01-11 23:54:18.69	59.02	12.73	-36.2	-37.8	16.4	0.00e+00	0	56	0	618659840	44	4231
2026-01-11 23:54:19.70	59.20	12.77	-36.1	-37.7	16.5	0.00e+00	0	56	0	623902720	44	4190
2026-01-11 23:54:20.71	59.39	12.81	-36.0	-37.6	16.6	0.00e+00	0	56	0	630194176	44	4132
2026-01-11 23:54:21.72	59.57	12.84	-36.0	-37.6	16.6	0.00e+00	0	56	0	635437056	44	4117
2026-01-11 23:54:22.73	59.75	12.88	-36.1	-37.7	16.6	0.00e+00	0	56	0	641728512	44	4158
2026-01-11 23:54:23.74	59.94	12.92	-36.2	-37.8	16.4	0.00e+00	0	56	0	646971392	44	4220
2026-01-11 23:54:24.75	60.12	12.96	-36.3	-38.0	16.2	0.00e+00	0	56	0	653262848	44	4309
2026-01-11 23:54:25.76	60.31	13.00	-36.4	-38.1	16.1	0.00e+00	0	56	0	658505728	44	4350
2026-01-11 23:54:26.77	60.49	13.03	-36.4	-38.1	16.0	0.00e+00	0	56	0	663748608	44	4363
2026-01-11 23:54:27.78	60.68	13.07	-36.5	-38.2	15.9	0.00e+00	0	56	0	670040064	44	4420
2026-01-11 23:54:28.79	60.87	13.11	-36.4	-38.1	16.0	0.00e+00	0	56	0	675282944	44	4377
2026-01-11 23:54:29.80	61.05	13.15	-36.3	-38.0	16.1	0.00e+00	0	56	0	681574400	44	4320
2026-01-11 23:54:30.81	61.24	13.18	-36.2	-37.9	16.1	0.00e+00	0	56	0	686817280	44	4280
2026-01-11 23:54:31.81	61.43	13.22	-36.0	-37.7	16.3	0.00e+00	0	56	0	692060160	44	4164
2026-01-11 23:54:32.82	61.61	13.25	-36.1	-37.8	16.1	0.00e+00	0	56	0	698351616	44	4225
2026-01-11 23:54:33.83	61.80	13.29	-36.0	-37.7	16.3	0.00e+00	0	56	0	703594496	44	4146
2026-01-11 23:54:34.84	61.99	13.33	-36.3	-38.1	15.9	0.00e+00	0	56	0	709885952	44	4342
2026-01-11 23:54:35.85	62.18	13.36	-35.7	-37.4	16.3	0.00e+00	0	56	0	715128832	43	4248
2026-01-11 23:54:36.86	62.37	13.40	-35.3	-36.9	16.7	0.00e+00	0	56	0	720371712	42	4288
2026-01-11 23:54:37.88	62.57	13.43	-36.0	-37.8	15.8	0.00e+00	0	56	0	726663168	42	4729
2026-01-11 23:54:38.88	62.75	13.47	-37.6	-39.8	13.8	0.00e+00	0	56	0	731906048	45	5024
2026-01-11 23:54:39.90	62.95	13.50	-38.9	-41.6	12.0	6.06e-05	0	56	0	738197504	48	5162
2026-01-11 23:54:40.91	63.14	13.54	-39.4	-42.5	11.0	1.10e-03	0	56	0	743440384	49	5417
2026-01-11 23:54:41.91	63.33	13.57	-39.7	-42.9	10.4	2.31e-03	0	56	0	749731840	49	5712
2026-01-11 23:54:42.92	63.52	13.60	-40.6	-44.8	8.5	2.18e-02	0	56	0	754974720	51	6277
2026-01-11 23:54:43.94	63.72	13.64	-41.0	-45.8	7.3	9.14e-02	0	56	0	761266176	52	6705
2026-01-11 23:54:44.95	63.91	13.67	-40.3	-44.5	8.5	4.86e-02	0	56	0	766509056	52	5755
2026-01-11 23:54:45.96	64.11	13.70	-39.8	-43.7	9.2	1.37e-02	0	56	0	771751936	51	5531
2026-01-11 23:54:46.96	64.30	13.74	-40.4	-44.8	8.1	2.96e-02	0	56	0	778043392	51	6346
2026-01-11 23:54:47.98	64.50	13.77	-40.7	-45.6	7.2	1.09e-01	0	56	0	783286272	52	6547
2026-01-11 23:54:48.99	64.69	13.80	-40.7	-45.6	7.2	1.14e-01	0	56	0	789577728	52	6531
2026-01-11 23:54:50.00	64.89	13.83	-40.2	-44.5	8.3	6.84e-02	0	56	0	794820608	52	5754
2026-01-11 23:54:51.01	65.08	13.87	-39.8	-43.6	9.2	2.08e-02	0	56	0	800063488	51	5511
2026-01-11 23:54:52.02	65.28	13.90	-40.0	-44.1	8.8	2.14e-02	0	56	0	806354944	51	5791
2026-01-11 23:54:53.03	65.48	13.93	-40.1	-44.2	8.5	3.72e-02	0	56	0	811597824	51	5919
2026-01-11 23:54:54.04	65.67	13.96	-39.5	-43.3	9.3	1.82e-02	0	56	0	817889280	51	5306
2026-01-11 23:54:55.04	65.87	13.99	-39.2	-42.9	9.5	1.08e-02	0	56	0	823132160	50	5353
2026-01-11 23:54:56.05	66.07	14.02	-38.8	-42.1	10.5	3.95e-03	0	56	0	828375040	49	5166
2026-01-11 23:54:57.06	66.27	14.05	-38.6	-41.7	10.9	1.75e-03	0	56	0	834666496	49	4976
2026-01-11 23:54:58.07	66.47	14.08	-38.9	-42.2	10.4	3.09e-03	0	56	0	839909376	49	5226
2026-01-11 23:54:59.08	66.67	14.11	-38.8	-42.0	10.4	4.05e-03	0	56	0	846200832	49	5150
2026-01-11 23:55:00.09	66.87	14.14	-38.3	-41.2	11.2	1.23e-03	0	56	0	851443712	48	4962
2026-01-11 23:55:01.10	67.07	14.17	-37.9	-40.7	11.7	4.36e-04	0	56	0	857735168	47	4945
2026-01-11 23:55:02.11	67.27	14.20	-37.6	-40.2	12.2	2.32e-04	0	56	0	862978048	47	4673
2026-01-11 23:55:03.12	67.47	14.22	-37.4	-39.9	12.5	7.66e-05	0	56	0	868220928	46	4806
2026-01-11 23:55:04.13	67.67	14.25	-37.1	-39.6	12.7	4.46e-05	0	56	0	874512384	46	4612
2026-01-11 23:55:05.14	67.87	14.28	-37.1	-39.6	12.6	5.60e-05	0	56	0	879755264	46	4647
2026-01-11 23:55:06.15	68.07	14.31	-37.3	-39.9	12.4	6.98e-05	0	56	0	886046720	46	4760
2026-01-11 23:55:07.16	68.28	14.34	-37.2	-39.8	12.4	7.78e-05	0	56	0	891289600	46	4725
2026-01-11 23:55:08.17	68.48	14.36	-37.3	-40.0	12.2	1.43e-04	0	56	0	897581056	46	4829
2026-01-11 23:55:09.19	68.68	14.39	-37.5	-40.2	11.9	2.56e-04	0	56	0	902823936	46	4973
2026-01-11 23:55:10.20	68.89	14.42	-37.5	-40.3	11.9	3.17e-04	0	56	0	908066816	46	4993
2026-01-11 23:55:11.20	69.09	14.44	-37.7	-40.5	11.6	4.83e-04	0	56	0	914358272	46	5141
2026-01-11 23:55:12.21	69.29	14.47	-37.6	-40.3	11.8	4.04e-04	0	56	0	919601152	46	5041
2026-01-11 23:55:13.22	69.50	14.49	-37.4	-40.1	12.0	2.36e-04	0	56	0	924844032	46	4873
2026-01-11 23:55:14.23	69.70	14.52	-37.2	-39.9	12.3	1.37e-04	0	56	0	931135488	46	4771
2026-01-11 23:55:15.24	69.91	14.54	-37.2	-39.8	12.3	1.37e-04	0	56	0	936378368	46	4738
2026-01-11 23:55:16.25	70.11	14.57	-37.3	-40.0	12.0	1.69e-04	0	56	0	942669824	46	4859
2026-01-11 23:55:17.26	70.32	14.59	-37.8	-40.7	11.3	5.02e-04	0	56	0	947912704	46	5261
2026-01-11 23:55:18.27	70.53	14.62	-38.3	-41.7	10.2	3.39e-03	0	56	0	954204160	47	5559
2026-01-11 23:55:19.28	70.73	14.64	-39.0	-43.0	8.8	1.35e-02	0	56	0	959447040	48	6096
2026-01-11 23:55:20.29	70.94	14.66	-39.5	-44.2	7.6	6.37e-02	0	56	0	965738496	49	6615
2026-01-11 23:55:21.30	71.15	14.68	-39.8	-45.0	6.7	1.49e-01	0	56	0	970981376	50	6854
2026-01-11 23:55:22.31	71.35	14.71	-39.5	-44.3	7.2	1.42e-01	0	56	0	976224256	50	6330
2026-01-11 23:55:23.32	71.56	14.73	-38.9	-43.3	8.2	7.57e-02	0	56	0	982515712	49	5931
2026-01-11 23:55:24.33	71.77	14.75	-38.7	-42.9	8.5	3.62e-02	0	56	0	987758592	49	5678
2026-01-11 23:55:25.34	71.98	14.77	-38.4	-42.3	9.0	2.75e-02	0	56	0	994050048	48	5595
2026-01-11 23:55:26.35	72.19	14.79	-38.3	-42.1	9.2	1.51e-02	0	56	0	999292928	48	5492
2026-01-11 23:55:27.36	72.40	14.81	-38.4	-42.2	9.1	1.86e-02	0	56	0	1004535808	48	5585
2026-01-11 23:55:28.37	72.61	14.84	-38.2	-41.8	9.6	1.11e-02	0	56	0	1010827264	48	5331
2026-01-11 23:55:29.38	72.82	14.86	-38.1	-41.6	9.9	7.52e-03	0	56	0	1016070144	48	5193
2026-01-11 23:55:30.39	73.03	14.88	-38.0	-41.4	10.1	5.33e-03	0	56	0	1022361600	48	5085
2026-01-11 23:55:31.40	73.24	14.90	-38.1	-41.4	10.2	4.99e-03	0	56	0	1027604480	48	5069
2026-01-11 23:55:32.41	73.45	14.91	-37.9	-41.2	10.4	3.44e-03	0	56	0	1032847360	47	5240
2026-01-11 23:55:33.42	73.66	14.93	-37.8	-41.0	10.6	3.16e-03	0	56	0	1039138816	47	5147
2026-01-11 23:55:34.43	73.87	14.95	-37.8	-41.1	10.5	2.32e-03	0	57	0	1044381696	47	5180
2026-01-11 23:55:35.43	74.08	14.97	-38.0	-41.5	10.1	4.05e-03	0	56	0	1050673152	47	5412
2026-01-11 23:55:36.44	74.29	14.99	-38.2	-41.8	9.7	7.97e-03	0	57	0	1055916032	47	5629
2026-01-11 23:55:37.45	74.50	15.00	-38.2	-41.8	9.7	8.90e-03	0	56	0	1062207488	47	5639
2026-01-11 23:55:38.46	74.71	15.02	-38.3	-41.9	9.5	1.12e-02	0	56	0	1067450368	47	5705
2026-01-11 23:55:39.47	74.93	15.04	-38.2	-42.0	9.4	1.36e-02	0	57	0	1072693248	47	5735
2026-01-11 23:55:40.48	75.14	15.06	-38.3	-42.1	9.3	1.34e-02	0	56	0	1078984704	47	5797
2026-01-11 23:55:41.49	75.35	15.07	-38.2	-42.0	9.4	1.46e-02	0	56	0	1084227584	47	5734
2026-01-11 23:55:42.50	75.56	15.09	-38.2	-41.8	9.5	1.29e-02	0	57	0	1090519040	47	5638
2026-01-11 23:55:43.51	75.78	15.10	-38.0	-41.6	9.9	8.29e-03	0	56	0	1095761920	47	5469
2026-01-11 23:55:44.52	75.99	15.12	-37.8	-41.1	10.3	4.37e-03	0	57	0	1101004800	47	5200
2026-01-11 23:55:45.53	76.20	15.13	-37.7	-40.9	10.6	2.72e-03	0	57	0	1107296256	47	5095
2026-01-11 23:55:46.54	76.42	15.15	-37.6	-40.7	10.9	1.84e-03	0	56	0	1112539136	47	4942
2026-01-11 23:55:47.55	76.63	15.16	-37.7	-40.8	10.8	1.77e-03	0	56	0	1118830592	47	5009
2026-01-11 23:55:48.56	76.85	15.17	-37.7	-40.9	10.8	2.08e-03	0	56	0	1124073472	47	5051
2026-01-11 23:55:49.57	77.06	15.19	-37.6	-40.7	11.0	1.67e-03	0	56	0	1129316352	47	4936
2026-01-11 23:55:50.58	77.28	15.20	-37.4	-40.3	11.5	7.69e-04	0	56	0	1135607808	46	4991
2026-01-11 23:55:51.59	77.49	15.21	-37.3	-40.1	11.7	4.54e-04	0	57	0	1140850688	46	4912
2026-01-11 23:55:52.60	77.70	15.22	-37.2	-39.9	12.0	2.51e-04	0	57	0	1147142144	46	4795
2026-01-11 23:55:53.61	77.92	15.24	-37.2	-39.9	12.1	1.99e-04	0	57	0	1152385024	46	4791
2026-01-11 23:55:54.62	78.14	15.25	-37.2	-39.9	12.2	1.81e-04	0	56	0	1158676480	46	4771
2026-01-11 23:55:55.63	78.35	15.26	-37.3	-39.9	12.2	1.82e-04	0	56	0	1163919360	46	4814
2026-01-11 23:55:56.64	78.57	15.27	-37.4	-40.0	12.2	1.94e-04	0	57	0	1170210816	46	4868
2026-01-11 23:55:57.65	78.78	15.28	-37.6	-40.3	11.9	2.16e-04	0	56	0	1175453696	46	5029
2026-01-11 23:55:58.66	79.00	15.29	-37.7	-40.5	11.7	4.03e-04	0	56	0	1180696576	46	5145
2026-01-11 23:55:59.67	79.21	15.30	-39.3	-42.9	5.5	8.22e-04	0	57	104	1185939456	48	6026
2026-01-11 23:56:00.67	79.43	15.31	-38.2	-41.2	11.0	1.26e-03	0	57	0	1188036608	48	4933
2026-01-11 23:56:01.68	79.64	15.31	-38.0	-41.0	11.2	1.17e-03	0	56	0	1194328064	48	4820
2026-01-11 23:56:02.69	79.86	15.32	-37.8	-40.9	11.0	1.31e-03	0	56	0	1199570944	47	5078
2026-01-11 23:56:03.71	80.08	15.33	-37.9	-41.0	10.9	1.55e-03	0	57	0	1205862400	47	5124
2026-01-11 23:56:04.71	80.29	15.34	-37.9	-41.0	10.9	1.83e-03	0	56	0	1211105280	47	5102
2026-01-11 23:56:05.73	80.51	15.35	-37.8	-40.9	10.9	1.48e-03	0	57	0	1216348160	47	5087
2026-01-11 23:56:06.74	80.73	15.35	-37.7	-40.8	11.1	1.34e-03	0	57	0	1222639616	47	4999
2026-01-11 23:56:07.75	80.95	15.36	-37.7	-40.7	11.2	1.01e-03	0	57	0	1227882496	47	4960
2026-01-11 23:56:08.76	81.16	15.36	-37.5	-40.4	11.6	5.22e-04	0	57	0	1234173952	47	4771
2026-01-11 23:56:09.77	81.38	15.37	-37.4	-40.1	12.0	2.97e-04	0	57	0	1239416832	46	4920
2026-01-11 23:56:10.78	81.60	15.38	-37.4	-40.1	12.1	2.08e-04	0	57	0	1245708288	46	4887
2026-01-11 23:56:11.79	81.82	15.38	-37.3	-39.9	12.4	1.09e-04	0	56	0	1250951168	46	4761
2026-01-11 23:56:12.80	82.03	15.38	-37.2	-39.7	12.6	6.63e-05	0	57	0	1256194048	46	4674
2026-01-11 23:56:13.81	82.25	15.39	-37.2	-39.7	12.6	5.37e-05	0	56	0	1262485504	46	4672
2026-01-11 23:56:14.82	82.47	15.39	-37.2	-39.7	12.6	6.40e-05	0	56	0	1267728384	46	4660
2026-01-11 23:56:15.83	82.69	15.40	-37.2	-39.7	12.6	6.75e-05	0	56	0	1274019840	46	4665
2026-01-11 23:56:16.84	82.90	15.40	-37.2	-39.8	12.5	7.66e-05	0	56	0	1279262720	46	4710
2026-01-11 23:56:17.85	83.12	15.40	-37.3	-39.8	12.4	8.46e-05	0	56	0	1284505600	46	4745
2026-01-11 23:56:18.86	83.34	15.40	-37.5	-40.2	12.0	2.00e-04	0	57	0	1290797056	46	4972
2026-01-11 23:56:19.87	83.56	15.40	-37.7	-40.5	11.7	3.23e-04	0	57	0	1296039936	46	5106
2026-01-11 23:56:20.88	83.77	15.41	-37.7	-40.5	11.6	4.62e-04	0	57	0	1302331392	46	5149
2026-01-11 23:56:21.89	83.99	15.41	-37.7	-40.6	11.5	5.49e-04	0	57	0	1307574272	46	5201
2026-01-11 23:56:22.90	84.21	15.41	-37.7	-40.5	11.5	5.89e-04	0	57	0	1312817152	46	5154
2026-01-11 23:56:23.91	84.43	15.41	-37.7	-40.6	11.4	6.75e-04	0	57	0	1319108608	46	5212
2026-01-11 23:56:24.92	84.65	15.41	-37.8	-40.8	11.2	9.73e-04	0	57	0	1324351488	46	5305
2026-01-11 23:56:25.93	84.86	15.41	-37.9	-41.0	11.0	1.34e-03	0	56	0	1330642944	46	5419
2026-01-11 23:56:26.94	85.08	15.41	-38.0	-41.1	10.7	1.97e-03	0	57	0	1335885824	46	5524
2026-01-11 23:56:27.95	85.30	15.40	-38.0	-41.2	10.7	2.29e-03	0	56	0	1342177280	46	5551
2026-01-11 23:56:28.96	85.52	15.40	-38.1	-41.3	10.6	2.75e-03	0	57	0	1347420160	46	5633
2026-01-11 23:56:29.97	85.73	15.40	-38.1	-41.3	10.6	2.68e-03	0	57	0	1353711616	46	5637
2026-01-11 23:56:30.98	85.95	15.40	-38.0	-41.1	10.9	1.74e-03	0	57	0	1358954496	46	5512
2026-01-11 23:56:31.99	86.17	15.40	-37.8	-40.7	11.5	8.16e-04	0	57	0	1364197376	46	5228
2026-01-11 23:56:33.00	86.39	15.39	-37.5	-40.2	12.1	2.32e-04	0	56	0	1370488832	46	4953
2026-01-11 23:56:34.01	86.61	15.39	-37.4	-40.0	12.4	1.13e-04	0	57	0	1375731712	46	4828
2026-01-11 23:56:35.02	86.82	15.38	-37.4	-39.9	12.6	5.83e-05	0	57	0	1380974592	46	4799
2026-01-11 23:56:36.03	87.04	15.38	-37.3	-39.8	12.8	4.23e-05	0	57	0	1387266048	46	4728
2026-01-11 23:56:37.04	87.26	15.38	-37.3	-39.7	12.9	2.05e-05	0	57	0	1392508928	46	4686
2026-01-11 23:56:38.05	87.48	15.37	-37.1	-39.5	13.2	1.83e-05	0	57	0	1398800384	46	4575
2026-01-11 23:56:39.06	87.69	15.36	-37.0	-39.3	13.5	4.50e-06	0	57	0	1404043264	46	4463
2026-01-11 23:56:40.07	87.91	15.36	-37.0	-39.3	13.6	1.02e-05	0	57	0	1409286144	46	4452
2026-01-11 23:56:41.07	88.13	15.35	-36.8	-39.0	13.9	3.40e-06	0	57	0	1415577600	45	4586
2026-01-11 23:56:42.09	88.34	15.34	-36.7	-38.8	14.2	0.00e+00	0	57	0	1420820480	45	4488
2026-01-11 23:56:43.10	88.56	15.34	-36.5	-38.6	14.5	0.00e+00	0	57	0	1427111936	45	4375
2026-01-11 23:56:44.11	88.78	15.33	-36.4	-38.4	14.8	0.00e+00	0	57	0	1432354816	44	4499
2026-01-11 23:56:45.12	89.00	15.32	-36.2	-38.1	15.2	0.00e+00	0	57	0	1438646272	44	4355
2026-01-11 23:56:46.13	89.21	15.31	-36.1	-38.0	15.4	0.00e+00	0	57	0	1443889152	44	4295
2026-01-11 23:56:47.14	89.43	15.31	-36.0	-37.8	15.5	0.00e+00	0	57	0	1450180608	44	4241
2026-01-11 23:56:48.15	89.64	15.30	-35.8	-37.6	15.6	0.00e+00	0	57	0	1455423488	43	4374
2026-01-11 23:56:49.16	89.86	15.29	-35.8	-37.6	15.6	0.00e+00	0	57	0	1460666368	43	4373
2026-01-11 23:56:50.17	90.08	15.28	-35.7	-37.5	15.8	0.00e+00	0	56	0	1466957824	43	4330
2026-01-11 23:56:51.18	90.29	15.27	-35.6	-37.3	16.0	0.00e+00	0	57	0	1472200704	43	4241
2026-01-11 23:56:52.18	90.51	15.26	-35.8	-37.5	15.9	0.00e+00	0	57	0	1478492160	43	4317
2026-01-11 23:56:53.20	90.72	15.25	-35.7	-37.4	16.1	0.00e+00	0	57	0	1483735040	43	4253
2026-01-11 23:56:54.21	90.94	15.23	-35.6	-37.3	16.3	0.00e+00	0	57	0	1488977920	43	4207
2026-01-11 23:56:55.21	91.15	15.22	-35.5	-37.2	16.4	0.00e+00	0	57	0	1495269376	43	4158
2026-01-11 23:56:56.22	91.37	15.21	-35.6	-37.3	16.3	0.00e+00	0	57	0	1500512256	43	4226
2026-01-11 23:56:57.24	91.59	15.20	-35.7	-37.4	16.3	0.00e+00	0	57	0	1506803712	43	4273
2026-01-11 23:56:58.25	91.80	15.18	-35.7	-37.4	16.4	0.00e+00	0	57	0	1512046592	43	4255
2026-01-11 23:56:59.26	92.02	15.17	-35.6	-37.2	16.5	0.00e+00	0	57	0	1517289472	43	4171
2026-01-11 23:57:00.27	92.23	15.16	-35.6	-37.3	16.5	0.00e+00	0	57	0	1523580928	43	4212
2026-01-11 23:57:01.28	92.45	15.14	-35.6	-37.3	16.6	0.00e+00	0	57	0	1528823808	43	4200
2026-01-11 23:57:02.29	92.66	15.13	-35.7	-37.3	16.5	0.00e+00	0	57	0	1535115264	43	4232
2026-01-11 23:57:03.30	92.87	15.12	-35.6	-37.2	16.6	0.00e+00	0	56	0	1540358144	43	4190
2026-01-11 23:57:04.31	93.09	15.10	-35.7	-37.4	16.5	0.00e+00	0	57	0	1546649600	43	4249
2026-01-11 23:57:05.32	93.30	15.08	-35.7	-37.4	16.5	0.00e+00	0	57	0	1551892480	43	4252
2026-01-11 23:57:06.33	93.51	15.07	-35.7	-37.4	16.5	0.00e+00	0	57	0	1558183936	43	4246
2026-01-11 23:57:07.34	93.73	15.05	-35.7	-37.4	16.5	0.00e+00	0	57	0	1563426816	43	4257
2026-01-11 23:57:08.35	93.94	15.04	-35.8	-37.4	16.5	0.00e+00	0	57	0	1568669696	43	4281
2026-01-11 23:57:09.36	94.15	15.02	-35.8	-37.4	16.5	0.00e+00	0	57	0	1574961152	43	4275
2026-01-11 23:57:10.37	94.37	15.00	-35.7	-37.4	16.5	0.00e+00	0	57	0	1580204032	43	4271
2026-01-11 23:57:11.38	94.58	14.98	-35.7	-37.3	16.6	0.00e+00	0	57	0	1586495488	43	4220
2026-01-11 23:57:12.39	94.79	14.97	-35.8	-37.5	16.5	0.00e+00	0	57	0	1591738368	43	4312
2026-01-11 23:57:13.40	95.00	14.95	-36.0	-37.6	16.3	0.00e+00	0	57	0	1596981248	43	4387
2026-01-11 23:57:14.41	95.21	14.93	-35.9	-37.6	16.4	0.00e+00	0	57	0	1603272704	43	4351
2026-01-11 23:57:15.42	95.42	14.91	-36.0	-37.7	16.3	0.00e+00	0	57	0	1608515584	43	4422
2026-01-11 23:57:16.43	95.64	14.89	-36.0	-37.7	16.3	0.00e+00	0	57	0	1614807040	43	4412
2026-01-11 23:57:17.44	95.85	14.87	-35.9	-37.6	16.4	0.00e+00	0	57	0	1620049920	43	4365
2026-01-11 23:57:18.45	96.06	14.85	-35.9	-37.5	16.4	0.00e+00	0	57	0	1625292800	43	4331
2026-01-11 23:57:19.46	96.27	14.83	-35.8	-37.4	16.5	0.00e+00	0	57	0	1631584256	43	4284
2026-01-11 23:57:20.47	96.48	14.81	-35.8	-37.5	16.5	0.00e+00	0	57	0	1636827136	43	4315
2026-01-11 23:57:21.48	96.69	14.79	-35.8	-37.5	16.5	0.00e+00	0	57	0	1643118592	43	4313
2026-01-11 23:57:22.49	96.90	14.77	-35.8	-37.5	16.5	0.00e+00	0	57	0	1648361472	43	4307
2026-01-11 23:57:23.50	97.10	14.75	-36.0	-37.7	16.3	0.00e+00	0	57	0	1654652928	43	4416
2026-01-11 23:57:24.51	97.31	14.73	-36.0	-37.7	16.3	0.00e+00	0	57	0	1659895808	43	4431
2026-01-11 23:57:25.52	97.52	14.70	-36.1	-37.8	16.2	0.00e+00	0	57	0	1665138688	43	4458
2026-01-11 23:57:26.53	97.73	14.68	-36.2	-37.9	16.1	0.00e+00	0	57	0	1671430144	43	4516
2026-01-11 23:57:27.54	97.94	14.66	-36.1	-37.9	16.1	0.00e+00	0	57	0	1676673024	43	4498
2026-01-11 23:57:28.55	98.15	14.63	-36.0	-37.7	16.3	0.00e+00	0	57	0	1682964480	43	4427
2026-01-11 23:57:29.56	98.35	14.61	-36.0	-37.8	16.2	0.00e+00	0	57	0	1688207360	43	4445
2026-01-11 23:57:30.57	98.56	14.59	-36.1	-37.8	16.2	0.00e+00	0	57	0	1693450240	43	4464
2026-01-11 23:57:31.58	98.77	14.56	-36.1	-37.9	16.2	0.00e+00	0	57	0	1699741696	43	4495
2026-01-11 23:57:32.59	98.97	14.54	-36.2	-38.0	16.0	0.00e+00	0	57	0	1704984576	43	4567
2026-01-11 23:57:33.60	99.18	14.51	-36.2	-38.0	16.0	1.10e-06	0	57	0	1711276032	43	4552
2026-01-11 23:57:34.61	99.38	14.49	-36.2	-37.9	16.1	0.00e+00	0	57	0	1716518912	43	4527
2026-01-11 23:57:35.62	99.59	14.46	-36.0	-37.7	16.3	2.20e-06	0	57	0	1721761792	43	4402
2026-01-11 23:57:36.63	99.79	14.44	-36.3	-38.0	15.8	4.50e-06	0	57	0	1728053248	43	4589
2026-01-11 23:57:37.64	100.00	14.41	-35.8	-37.5	16.4	2.20e-06	0	57	0	1733296128	43	4327
2026-01-11 23:57:38.65	100.20	14.38	-36.1	-37.9	16.0	5.70e-06	0	57	0	1739587584	43	4518
2026-01-11 23:57:39.66	100.41	14.36	-37.0	-39.2	15.0	2.51e-05	0	57	0	1744830464	44	4932
2026-01-11 23:57:40.67	100.61	14.33	-37.1	-39.2	14.9	1.05e-04	0	57	0	1751121920	44	4951
2026-01-11 23:57:41.68	100.81	14.30	-37.1	-39.3	14.8	9.01e-04	0	57	0	1756364800	44	5006
2026-01-11 23:57:42.69	101.02	14.27	-37.4	-39.8	14.2	2.88e-04	0	57	0	1762656256	45	4995
2026-01-11 23:57:43.70	101.22	14.25	-37.2	-39.4	14.7	4.16e-03	0	57	0	1767899136	45	4792
2026-01-11 23:57:44.71	101.42	14.22	-36.0	-37.8	16.0	2.30e-04	0	57	0	1773142016	42	4753
2026-01-11 23:57:45.72	101.62	14.19	-35.9	-37.8	16.2	1.07e-04	0	57	0	1779433472	42	4721
2026-01-11 23:57:46.73	101.82	14.16	-37.1	-39.0	15.2	1.70e-04	0	57	0	1784676352	44	4855
2026-01-11 23:57:47.74	102.02	14.13	-36.3	-38.1	16.1	3.89e-05	0	57	0	1790967808	44	4359
2026-01-11 23:57:48.75	102.22	14.10	-36.4	-38.2	15.9	5.03e-05	0	57	0	1796210688	44	4393
2026-01-11 23:57:49.76	102.42	14.07	-36.2	-38.1	15.7	7.32e-05	0	57	0	1801453568	43	4599
2026-01-11 23:57:50.77	102.62	14.04	-36.2	-38.0	16.0	9.84e-05	0	57	0	1807745024	43	4584
2026-01-11 23:57:51.78	102.82	14.01	-36.0	-37.7	16.2	1.37e-05	0	57	0	1812987904	43	4438
2026-01-11 23:57:52.79	103.02	13.98	-35.7	-37.5	16.5	1.25e-05	0	57	0	1819279360	42	4567
2026-01-11 23:57:53.80	103.22	13.95	-35.9	-37.6	16.3	2.17e-05	0	57	0	1824522240	42	4626
2026-01-11 23:57:54.81	103.42	13.92	-36.1	-37.8	16.2	3.54e-05	0	57	0	1829765120	42	4755
2026-01-11 23:57:55.82	103.62	13.89	-36.1	-37.8	16.2	5.70e-06	0	57	0	1836056576	42	4738
2026-01-11 23:57:56.83	103.81	13.85	-36.3	-38.0	16.0	1.25e-05	0	57	0	1841299456	43	4574
2026-01-11 23:57:57.84	104.01	13.82	-36.2	-38.0	16.0	2.63e-05	0	57	0	1847590912	43	4563
2026-01-11 23:57:58.84	104.21	13.79	-36.1	-37.9	16.1	1.71e-05	0	57	0	1852833792	42	4789
2026-01-11 23:57:59.86	104.40	13.76	-35.9	-37.9	15.8	7.32e-05	0	57	0	1859125248	42	4781
2026-01-11 23:58:00.87	104.60	13.73	-36.0	-37.8	16.1	2.86e-05	0	57	0	1864368128	43	4479
2026-01-11 23:58:01.88	104.79	13.69	-36.1	-37.8	16.1	1.42e-03	0	57	0	1870659584	42	4726
2026-01-11 23:58:02.89	104.99	13.66	-36.0	-37.8	15.8	1.71e-05	0	57	0	1875902464	42	4738
2026-01-11 23:58:03.90	105.18	13.63	-36.1	-37.8	16.1	1.91e-04	0	57	0	1881145344	42	4752
2026-01-11 23:58:04.91	105.38	13.59	-36.2	-37.9	15.9	2.97e-05	0	57	0	1887436800	42	4807
2026-01-11 23:58:05.92	105.57	13.56	-36.2	-38.0	16.0	3.77e-05	0	57	0	1892679680	43	4551
2026-01-11 23:58:06.93	105.76	13.52	-36.2	-38.1	16.0	2.27e-03	0	57	0	1898971136	43	4599
2026-01-11 23:58:07.94	105.96	13.49	-36.2	-38.0	16.0	1.36e-04	0	57	0	1904214016	43	4558
2026-01-11 23:58:08.95	106.15	13.45	-36.1	-38.0	16.1	1.12e-04	0	57	0	1909456896	42	4823
2026-01-11 23:58:09.96	106.34	13.42	-35.9	-37.9	15.9	4.20e-04	0	57	0	1915748352	42	4811
2026-01-11 23:58:10.97	106.53	13.38	-36.3	-38.0	16.1	3.31e-05	0	57	0	1920991232	43	4583
2026-01-11 23:58:11.98	106.72	13.35	-36.2	-38.0	16.0	5.83e-05	0	57	0	1927282688	43	4566
2026-01-11 23:58:12.99	106.91	13.31	-36.3	-38.0	16.0	1.37e-05	0	57	0	1932525568	43	4579
2026-01-11 23:58:14.00	107.10	13.28	-36.3	-38.0	15.6	8.03e-04	0	57	0	1937768448	43	4576
2026-01-11 23:58:15.01	107.29	13.24	-36.3	-38.0	16.0	6.80e-06	0	57	0	1944059904	43	4581
2026-01-11 23:58:16.02	107.48	13.20	-36.3	-38.0	16.1	1.60e-05	0	57	0	1949302784	43	4555
2026-01-11 23:58:17.03	107.67	13.17	-36.2	-38.0	16.1	5.70e-06	0	57	0	1955594240	43	4548
2026-01-11 23:58:18.04	107.86	13.13	-36.2	-37.8	16.2	2.20e-06	0	57	0	1960837120	43	4488
2026-01-11 23:58:19.05	108.05	13.09	-36.1	-37.8	16.3	1.94e-05	0	57	0	1967128576	42	4722
2026-01-11 23:58:20.06	108.24	13.05	-36.1	-37.7	16.3	1.10e-06	0	57	0	1972371456	42	4705
2026-01-11 23:58:21.07	108.42	13.02	-36.0	-37.8	16.3	3.40e-06	0	57	0	1977614336	42	4719
2026-01-11 23:58:22.08	108.61	12.98	-36.1	-37.8	16.3	2.20e-06	0	57	0	1983905792	42	4752
2026-01-11 23:58:23.09	108.79	12.94	-36.1	-37.8	16.3	4.50e-06	0	57	0	1989148672	42	4745
2026-01-11 23:58:24.10	108.98	12.90	-36.2	-38.0	16.1	1.36e-03	0	57	0	1995440128	43	4550
2026-01-11 23:58:25.11	109.16	12.86	-36.3	-38.0	16.1	9.10e-06	0	57	0	2000683008	43	4577
2026-01-11 23:58:26.12	109.35	12.83	-36.4	-38.1	16.0	1.71e-05	0	57	0	2005925888	43	4638
2026-01-11 23:58:27.13	109.53	12.79	-36.4	-38.2	15.9	7.55e-05	0	57	0	2012217344	43	4680
2026-01-11 23:58:28.14	109.72	12.75	-36.3	-38.2	15.9	1.94e-05	0	57	0	2017460224	43	4685
2026-01-11 23:58:29.15	109.90	12.71	-36.3	-38.2	15.9	2.28e-05	0	57	0	2023751680	43	4653
2026-01-11 23:58:30.16	110.08	12.67	-36.4	-38.1	15.9	5.08e-04	0	57	0	2028994560	43	4642
2026-01-11 23:58:31.17	110.26	12.63	-36.2	-38.1	16.0	3.31e-05	0	57	0	2034237440	43	4613
2026-01-11 23:58:32.18	110.45	12.59	-36.3	-38.1	16.0	1.04e-04	0	57	0	2040528896	43	4618
2026-01-11 23:58:33.19	110.63	12.55	-36.3	-38.1	16.0	1.36e-04	0	57	0	2045771776	43	4609
2026-01-11 23:58:34.20	110.81	12.51	-36.3	-38.1	16.0	9.38e-05	0	57	0	2052063232	43	4607
2026-01-11 23:58:35.21	110.99	12.47	-36.3	-38.1	15.8	8.92e-05	0	57	0	2057306112	43	4639
2026-01-11 23:58:36.22	111.17	12.43	-36.3	-38.1	15.9	1.23e-04	0	57	0	2063597568	43	4630
2026-01-11 23:58:37.23	111.35	12.39	-36.3	-38.2	15.8	1.49e-03	0	57	0	2068840448	43	4677
2026-01-11 23:58:38.23	111.52	12.35	-36.3	-38.2	15.7	1.44e-04	0	57	0	2075131904	43	4705
2026-01-11 23:58:39.24	111.70	12.30	-36.3	-38.2	15.8	1.82e-04	0	57	0	2080374784	43	4673
2026-01-11 23:58:40.25	111.88	12.26	-36.4	-38.3	15.7	1.52e-02	0	57	0	2085617664	43	4715
2026-01-11 23:58:41.27	112.06	12.22	-36.4	-38.3	15.7	2.95e-04	0	57	0	2091909120	43	4719
2026-01-11 23:58:42.28	112.24	12.18	-36.2	-38.3	15.6	2.77e-04	0	57	0	2097152000	43	4739
2026-01-11 23:58:43.29	112.41	12.14	-36.4	-38.3	15.4	2.11e-03	0	57	0	2103443456	43	4743
2026-01-11 23:58:44.30	112.59	12.10	-36.1	-38.4	15.4	6.41e-04	0	57	0	2108686336	43	4797
2026-01-11 23:58:45.31	112.76	12.05	-36.4	-38.4	15.0	7.24e-04	0	57	0	2113929216	43	4779
2026-01-11 23:58:46.32	112.94	12.01	-36.3	-38.4	15.2	1.57e-03	0	57	0	2120220672	43	4782
2026-01-11 23:58:47.33	113.11	11.97	-36.0	-38.5	14.9	2.28e-03	0	57	0	2125463552	43	4837
2026-01-11 23:58:48.34	113.29	11.93	-35.9	-38.3	14.7	4.45e-03	0	57	0	2131755008	42	5015
2026-01-11 23:58:49.34	113.46	11.88	-35.8	-38.3	14.6	5.03e-02	0	57	0	2136997888	42	5026
2026-01-11 23:58:50.35	113.63	11.84	-35.6	-38.5	14.4	8.04e-03	0	57	0	2142240768	42	5109
2026-01-11 23:58:51.36	113.81	11.80	-35.3	-38.4	12.9	1.12e-02	0	57	0	2148532224	42	5080
2026-01-11 23:58:52.37	113.98	11.75	-35.9	-38.4	13.8	1.61e-02	0	57	0	2153775104	42	5086
2026-01-11 23:58:53.38	114.15	11.71	-35.5	-38.6	12.0	6.34e-02	0	57	0	2159017984	41	5482
2026-01-11 23:58:54.39	114.32	11.67	-35.1	-38.4	11.4	5.45e-02	0	57	0	2165309440	40	5692
2026-01-11 23:58:55.40	114.49	11.62	-34.1	-38.4	11.2	3.14e-02	0	57	0	2170552320	40	5695
2026-01-11 23:58:56.41	114.66	11.58	-35.1	-38.4	12.5	3.26e-02	0	57	0	2175795200	41	5399
2026-01-11 23:58:57.42	114.83	11.53	-35.0	-38.4	12.4	6.26e-02	0	57	0	2182086656	41	5356
2026-01-11 23:58:58.43	115.00	11.49	-34.3	-38.4	11.7	2.96e-01	0	57	0	2185232384	40	5667
2026-01-11 23:58:59.44	115.17	11.44	-33.9	-38.5	12.0	8.16e-02	0	57	0	2190475264	39	6096
2026-01-11 23:59:00.45	115.34	11.40	-32.9	-38.2	10.2	1.11e-01	0	57	0	2195718144	39	5861
2026-01-11 23:59:01.46	115.50	11.36	-34.9	-38.5	9.9	1.29e-01	0	57	0	2200961024	38	6459
2026-01-11 23:59:02.47	115.67	11.31	-30.0	-37.4	9.8	5.85e-01	0	57	0	2204106752	34	7197
2026-01-11 23:59:03.47	115.83	11.27	-34.0	-38.5	10.2	1.50e-01	0	57	0	2209349632	39	6121
2026-01-11 23:59:04.48	116.00	11.22	-33.2	-37.8	5.4	4.34e-01	0	57	0	2213543936	30	9494
2026-01-11 23:59:05.49	116.17	11.18	-25.0	-34.1	4.7	3.42e-01	0	57	0	2217738240	25	8254
2026-01-11 23:59:06.51	116.33	11.13	-32.7	-37.9	8.1	3.36e-01	0	57	0	2221932544	34	7607
2026-01-11 23:59:07.52	116.50	11.08	-33.4	-38.3	9.4	2.61e-01	0	57	0	2226126848	37	6681
2026-01-11 23:59:08.53	116.66	11.04	-31.4	-37.6	8.8	3.61e-01	0	57	0	2228224000	35	6935
2026-01-11 23:59:09.54	116.83	10.99	-27.6	-36.5	6.9	5.62e-01	0	57	0	2230321152	27	9653
2026-01-11 23:59:10.55	116.99	10.95	-28.0	-36.9	7.7	3.93e-01	0	57	0	2233466880	34	6790
2026-01-11 23:59:11.56	117.15	10.90	-28.3	-36.9	7.3	4.95e-01	0	57	0	2236612608	30	8515
2026-01-11 23:59:12.57	117.31	10.85	-30.7	-37.1	6.8	5.21e-01	0	57	0	2238709760	26	10998
2026-01-11 23:59:13.58	117.47	10.81	-29.0	-37.1	6.7	6.02e-01	0	57	0	2238709760	28	9810
2026-01-11 23:59:14.58	117.63	10.76	-28.7	-37.5	8.0	5.33e-01	0	57	0	2238709760	28	10212
2026-01-11 23:59:15.59	117.80	10.72	-28.3	-37.5	4.7	5.67e-01	0	57	0	2238709760	24	12928
2026-01-11 23:59:16.61	117.96	10.67	-28.9	-37.8	7.8	5.55e-01	0	57	0	2238709760	26	11866
2026-01-11 23:59:17.62	118.12	10.62	-25.8	-36.0	4.9	6.64e-01	0	57	0	2238709760	19	14526
2026-01-11 23:59:18.62	118.27	10.58	-25.4	-35.1	4.4	5.78e-01	0	57	0	2238709760	18	13847
2026-01-11 23:59:19.63	118.43	10.53	-28.3	-38.0	8.4	5.60e-01	0	57	0	2238709760	27	11540
2026-01-11 23:59:20.64	118.59	10.48	-24.9	-37.3	7.5	5.71e-01	0	57	0	2238709760	23	13342
2026-01-11 23:59:21.65	118.75	10.44	-24.2	-36.2	7.2	5.77e-01	0	57	0	2238709760	26	9918
2026-01-11 23:59:22.66	118.91	10.39	-26.9	-37.6	8.6	5.18e-01	0	57	0	2238709760	24	12962
2026-01-11 23:59:23.67	119.06	10.34	-28.2	-36.4	8.9	5.28e-01	0	57	0	2238709760	26	10092
2026-01-11 23:59:24.68	119.22	10.29	-28.4	-37.2	8.0	5.52e-01	0	57	0	2238709760	22	14012
2026-01-11 23:59:25.69	119.37	10.25	-24.6	-36.1	6.8	5.17e-01	0	57	0	2238709760	22	12332
2026-01-11 23:59:26.70	119.53	10.20	-18.3	-32.2	4.2	5.64e-01	0	57	104	2238709760	8	17549
2026-01-11 23:59:27.71	119.68	10.15	-27.4	-38.9	8.0	5.16e-01	0	57	0	2238709760	22	16954
2026-01-11 23:59:28.72	119.84	10.10	-27.2	-41.0	6.9	5.89e-01	0	57	0	2238709760	24	19201
2026-01-11 23:59:29.73	119.99	10.05	-25.9	-40.0	5.0	6.42e-01	0	57	104	2238709760	27	14509
2026-01-11 23:59:30.74	120.15	10.01	-29.6	-43.8	4.1	8.16e-01	0	57	104	2238709760	26	23706
2026-01-11 23:59:31.75	120.30	9.96	-26.7	-43.3	5.0	8.14e-01	0	57	104	2238709760	28	20023
2026-01-11 23:59:32.76	120.45	9.91	-30.6	-44.0	4.8	8.05e-01	0	57	104	2238709760	32	17184
2026-01-11 23:59:33.77	120.60	9.86	-27.4	-42.0	3.8	8.09e-01	0	57	104	2238709760	30	15291
2026-01-11 23:59:34.78	120.75	9.81	-29.2	-41.0	5.8	6.95e-01	0	57	0	2238709760	29	14436
2026-01-11 23:59:35.79	120.90	9.77	-33.0	-41.3	9.0	5.93e-01	0	57	0	2238709760	37	9442
2026-01-11 23:59:36.80	121.05	9.72	-31.0	-39.8	6.4	3.42e-01	0	57	0	2238709760	30	11847
2026-01-11 23:59:37.81	121.20	9.67	-23.9	-37.1	7.8	2.40e-01	0	57	0	2238709760	27	10403
2026-01-11 23:59:38.82	121.35	9.62	-34.9	-40.2	10.6	2.27e-01	0	57	0	2238709760	40	7031
2026-01-11 23:59:39.83	121.50	9.57	-34.4	-39.4	11.5	2.41e-01	0	57	0	2243952640	39	6766
2026-01-11 23:59:40.84	121.65	9.52	-34.5	-38.7	12.8	9.51e-02	0	57	0	2249195520	41	5539
2026-01-11 23:59:41.85	121.80	9.47	-36.0	-38.7	13.1	5.01e-02	0	57	0	2254438400	42	5252
2026-01-11 23:59:42.86	121.95	9.43	-35.2	-39.0	13.0	6.30e-02	0	57	0	2259681280	43	5133
2026-01-11 23:59:43.86	122.09	9.38	-35.3	-38.9	11.9	4.27e-02	0	57	0	2264924160	41	5678
2026-01-11 23:59:44.87	122.24	9.33	-35.3	-39.6	12.2	7.76e-02	0	57	0	2271215616	43	5479
2026-01-11 23:59:45.89	122.39	9.28	-37.0	-39.5	13.1	6.19e-02	0	57	0	2276458496	44	5123
2026-01-11 23:59:46.90	122.53	9.23	-34.3	-39.4	12.5	1.12e-01	0	57	0	2281701376	43	5344
2026-01-11 23:59:47.90	122.68	9.18	-35.9	-39.2	10.6	8.43e-02	0	57	0	2286944256	42	5586
2026-01-11 23:59:48.91	122.82	9.13	-33.7	-39.1	8.7	2.05e-01	0	57	0	2292187136	39	6560
2026-01-11 23:59:49.92	122.96	9.08	-36.8	-39.3	13.1	1.26e-02	0	57	0	2297430016	43	5318
2026-01-11 23:59:50.93	123.11	9.03	-35.0	-39.1	12.7	1.33e-02	0	57	0	2303721472	42	5471
2026-01-11 23:59:51.94	123.25	8.98	-35.7	-39.5	13.2	2.56e-02	0	57	0	2308964352	44	5131
2026-01-11 23:59:52.95	123.39	8.93	-35.1	-39.0	12.2	4.03e-02	0	57	0	2314207232	42	5413
2026-01-11 23:59:53.96	123.54	8.88	-34.2	-38.8	8.3	2.48e-01	0	57	0	2319450112	37	7079
2026-01-11 23:59:54.97	123.68	8.83	-36.3	-39.4	11.6	5.05e-02	0	57	0	2324692992	42	5715
2026-01-11 23:59:55.98	123.82	8.78	-36.0	-39.2	11.5	2.75e-01	0	57	0	2328887296	41	5879
2026-01-11 23:59:56.99	123.96	8.73	-34.7	-39.5	9.9	3.39e-02	0	57	0	2334130176	39	6869
2026-01-11 23:59:58.00	124.10	8.69	-25.6	-36.3	5.3	1.87e-01	0	57	0	2338324480	27	9409
2026-01-11 23:59:59.01	124.24	8.64	-35.7	-39.0	10.3	7.39e-02	0	57	0	2342518784	38	6816
2026-01-12 00:00:00.02	124.38	8.59	-34.9	-38.7	9.6	1.45e-01	0	57	0	2348810240	39	6252
2026-01-12 00:00:01.03	124.52	8.54	-24.8	-35.1	4.8	5.73e-01	0	57	0	2350907392	20	12356
2026-01-12 00:00:02.04	124.66	8.49	-32.7	-36.9	4.9	3.93e-01	0	57	0	2354053120	18	16947
2026-01-12 00:00:03.05	124.80	8.44	-30.9	-37.3	7.1	1.57e-01	0	57	0	2358247424	35	6660
2026-01-12 00:00:04.06	124.93	8.39	-34.9	-38.5	9.9	1.95e-01	0	57	0	2363490304	37	6828
2026-01-12 00:00:05.07	125.07	8.34	-26.4	-36.4	7.5	4.60e-01	0	57	0	2367684608	38	5089
2026-01-12 00:00:06.09	125.21	8.28	-34.2	-39.2	8.9	5.46e-01	0	57	0	2370830336	37	7398
2026-01-12 00:00:07.10	125.35	8.23	-28.7	-38.8	4.8	7.37e-01	0	57	104	2373976064	27	12591
2026-01-12 00:00:08.11	125.48	8.18	-31.3	-39.4	6.6	5.71e-01	0	58	0	2375024640	35	8539
2026-01-12 00:00:09.12	125.62	8.13	-31.6	-40.4	6.0	7.31e-01	0	57	0	2376073216	27	15163
2026-01-12 00:00:10.13	125.75	8.08	-23.9	-39.2	5.0	8.12e-01	0	57	104	2376073216	27	13244
2026-01-12 00:00:11.14	125.89	8.03	-30.9	-40.7	4.8	8.23e-01	0	57	104	2376073216	30	13252
2026-01-12 00:00:12.15	126.02	7.98	-37.9	-52.7	4.0	8.44e-01	0	57	104	2376073216	51	15751
2026-01-12 00:00:13.16	126.15	7.93	-44.0	-55.9	3.9	8.45e-01	0	57	104	2376073216	59	14263
2026-01-12 00:00:14.17	126.29	7.88	-44.8	-56.5	3.8	8.45e-01	0	57	104	2376073216	60	14426
2026-01-12 00:00:15.18	126.42	7.83	-45.0	-56.7	3.8	8.46e-01	0	57	104	2376073216	60	14821
2026-01-12 00:00:16.19	126.55	7.78	-45.2	-56.9	3.8	8.47e-01	0	57	104	2376073216	60	15058
2026-01-12 00:00:17.20	126.68	7.73	-45.3	-56.9	3.8	8.46e-01	0	57	104	2376073216	61	14337
2026-01-12 00:00:18.21	126.81	7.68	-45.4	-57.0	3.8	8.46e-01	0	57	104	2376073216	61	14510
2026-01-12 00:00:19.22	126.95	7.63	-45.4	-57.1	3.8	8.47e-01	0	57	104	2376073216	61	14673
2026-01-12 00:00:20.23	127.08	7.58	-45.5	-57.2	3.8	8.47e-01	0	57	104	2376073216	61	14764
2026-01-12 00:00:21.24	127.21	7.53	-45.4	-57.1	3.8	8.46e-01	0	57	104	2376073216	61	14655
2026-01-12 00:00:22.25	127.34	7.48	-45.3	-57.0	3.8	8.48e-01	0	57	104	2376073216	61	14536
2026-01-12 00:00:23.26	127.46	7.43	-45.3	-57.0	3.8	8.47e-01	0	57	104	2376073216	61	14416
2026-01-12 00:00:24.27	127.59	7.38	-45.2	-57.0	3.8	8.46e-01	0	58	104	2376073216	61	14411
2026-01-12 00:00:25.28	127.72	7.33	-45.2	-56.9	3.8	8.47e-01	0	57	104	2376073216	61	14332
2026-01-12 00:00:26.29	127.85	7.28	-45.1	-56.9	3.8	8.47e-01	0	57	104	2376073216	61	14299
2026-01-12 00:00:27.30	127.98	7.22	-45.1	-56.9	3.8	8.45e-01	0	57	104	2376073216	61	14259
2026-01-12 00:00:28.31	128.10	7.17	-45.1	-56.8	3.8	8.46e-01	0	57	104	2376073216	61	14168
2026-01-12 00:00:29.32	128.23	7.12	-45.1	-56.8	3.8	8.47e-01	0	57	104	2376073216	61	14156
2026-01-12 00:00:30.33	128.36	7.07	-45.1	-56.8	3.8	8.46e-01	0	57	104	2376073216	61	14128
2026-01-12 00:00:31.34	128.48	7.02	-45.1	-56.8	3.8	8.45e-01	0	57	104	2376073216	61	14135
2026-01-12 00:00:32.36	128.61	6.97	-45.1	-56.8	3.8	8.47e-01	0	57	104	2376073216	61	14136
2026-01-12 00:00:33.37	128.73	6.92	-45.1	-56.8	3.8	8.46e-01	0	57	104	2376073216	61	14128
2026-01-12 00:00:34.38	128.86	6.87	-45.1	-56.8	3.8	8.46e-01	0	57	104	2376073216	61	14110
2026-01-12 00:00:35.39	128.98	6.82	-45.1	-56.8	3.8	8.46e-01	0	57	104	2376073216	61	14100
2026-01-12 00:00:36.40	129.11	6.77	-45.1	-56.8	3.8	8.47e-01	0	58	104	2376073216	61	14074
2026-01-12 00:00:37.41	129.23	6.72	-45.1	-56.8	3.8	8.46e-01	0	57	104	2376073216	61	14119
2026-01-12 00:00:38.42	129.35	6.67	-45.0	-56.8	3.8	8.47e-01	0	58	104	2376073216	61	14124
2026-01-12 00:00:39.43	129.47	6.61	-45.1	-56.8	3.8	8.47e-01	0	58	104	2376073216	61	14095
2026-01-12 00:00:40.44	129.60	6.56	-45.1	-56.8	3.8	8.46e-01	0	57	104	2376073216	61	14113
2026-01-12 00:00:41.45	129.72	6.51	-45.1	-56.8	3.8	8.47e-01	0	57	104	2376073216	61	14102
2026-01-12 00:00:42.46	129.84	6.46	-45.1	-56.8	3.8	8.45e-01	0	57	104	2376073216	61	14083
2026-01-12 00:00:43.47	129.96	6.41	-45.0	-56.8	3.8	8.47e-01	0	57	104	2376073216	61	14074
2026-01-12 00:00:44.48	130.08	6.36	-45.0	-56.8	3.8	8.46e-01	0	57	104	2376073216	61	14088
2026-01-12 00:00:45.50	130.20	6.31	-45.0	-56.8	3.8	8.46e-01	0	57	104	2376073216	61	14094
2026-01-12 00:00:46.51	130.32	6.26	-45.0	-56.8	3.8	8.47e-01	0	58	104	2376073216	61	14108
2026-01-12 00:00:47.52	130.44	6.21	-45.0	-56.8	3.8	8.46e-01	0	57	104	2376073216	61	14055
2026-01-12 00:00:48.53	130.56	6.16	-45.0	-56.8	3.8	8.47e-01	0	57	104	2376073216	61	14118
2026-01-12 00:00:49.54	130.68	6.10	-45.0	-56.8	3.8	8.47e-01	0	57	104	2376073216	61	14104
2026-01-12 00:00:50.55	130.79	6.05	-45.0	-56.7	3.8	8.46e-01	0	57	104	2376073216	61	14040
2026-01-12 00:00:51.56	130.91	6.00	-45.0	-56.7	3.8	8.46e-01	0	58	104	2376073216	61	14045
2026-01-12 00:00:52.57	131.03	5.95	-45.0	-56.7	3.8	8.46e-01	0	57	104	2376073216	61	14033
2026-01-12 00:00:53.58	131.15	5.90	-45.0	-56.8	3.8	8.47e-01	0	57	104	2376073216	61	14096
2026-01-12 00:00:54.59	131.26	5.85	-45.0	-56.7	3.8	8.46e-01	0	57	104	2376073216	61	14011
2026-01-12 00:00:55.60	131.38	5.80	-45.0	-56.8	3.8	8.47e-01	0	57	104	2376073216	60	14901
2026-01-12 00:00:56.61	131.49	5.75	-45.0	-56.8	3.8	8.46e-01	0	58	104	2376073216	60	14882
2026-01-12 00:00:57.62	131.61	5.70	-45.0	-56.7	3.8	8.45e-01	0	57	104	2376073216	60	14837
2026-01-12 00:00:58.64	131.73	5.65	-45.0	-56.7	3.8	8.47e-01	0	58	104	2376073216	60	14853
2026-01-12 00:00:59.65	131.84	5.59	-45.0	-56.7	3.8	8.46e-01	0	57	104	2376073216	60	14803
2026-01-12 00:01:00.66	131.95	5.54	-45.0	-56.7	3.8	8.46e-01	0	58	104	2376073216	60	14840
2026-01-12 00:01:01.67	132.07	5.49	-45.0	-56.7	3.8	8.46e-01	0	58	104	2376073216	60	14866
2026-01-12 00:01:02.68	132.18	5.44	-45.0	-56.7	3.8	8.46e-01	0	57	104	2376073216	60	14863
2026-01-12 00:01:03.69	132.29	5.39	-45.0	-56.7	3.8	8.46e-01	0	57	104	2376073216	60	14832
2026-01-12 00:01:04.70	132.41	5.34	-45.0	-56.7	3.8	8.46e-01	0	57	104	2376073216	60	14868
2026-01-12 00:01:05.71	132.52	5.29	-45.0	-56.7	3.8	8.45e-01	0	57	104	2376073216	60	14821
2026-01-12 00:01:06.72	132.63	5.24	-45.0	-56.8	3.8	8.46e-01	0	57	104	2376073216	60	14883
2026-01-12 00:01:07.73	132.74	5.19	-45.0	-56.7	3.8	8.46e-01	0	57	104	2376073216	60	14827
2026-01-12 00:01:08.75	132.85	5.14	-45.0	-56.7	3.8	8.46e-01	0	58	104	2376073216	60	14815
2026-01-12 00:01:09.76	132.96	5.09	-45.0	-56.7	3.8	8.45e-01	0	58	104	2376073216	60	14841
2026-01-12 00:01:10.77	133.07	5.03	-45.0	-56.7	3.8	8.46e-01	0	57	104	2376073216	60	14835
2026-01-12 00:01:11.78	133.18	4.98	-45.0	-56.7	3.8	8.46e-01	0	58	104	2376073216	60	14821
2026-01-12 00:01:12.79	133.29	4.93	-45.0	-56.7	3.8	8.46e-01	0	57	104	2376073216	60	14817
2026-01-12 00:01:13.80	133.40	4.88	-45.0	-56.7	3.8	8.46e-01	0	57	104	2376073216	60	14853
2026-01-12 00:01:14.81	133.51	4.83	-45.0	-56.7	3.8	8.46e-01	0	57	104	2376073216	60	14809
2026-01-12 00:01:15.82	133.62	4.78	-45.0	-56.7	3.8	8.47e-01	0	57	104	2376073216	60	14826
2026-01-12 00:01:16.83	133.73	4.73	-45.0	-56.7	3.8	8.46e-01	0	57	104	2376073216	60	14858
2026-01-12 00:01:17.85	133.84	4.68	-45.0	-56.7	3.8	8.47e-01	0	58	104	2376073216	60	14877
2026-01-12 00:01:18.86	133.94	4.63	-45.0	-56.7	3.8	8.46e-01	0	58	104	2376073216	60	14835
2026-01-12 00:01:19.87	134.05	4.58	-45.0	-56.7	3.8	8.45e-01	0	57	104	2376073216	60	14828
2026-01-12 00:01:20.88	134.16	4.53	-45.0	-56.7	3.8	8.46e-01	0	57	104	2376073216	60	14858
2026-01-12 00:01:21.89	134.26	4.48	-45.0	-56.7	3.8	8.47e-01	0	58	104	2376073216	60	14853
2026-01-12 00:01:22.90	134.37	4.42	-45.0	-56.7	3.8	8.47e-01	0	57	104	2376073216	60	14869
2026-01-12 00:01:23.91	134.47	4.37	-45.0	-56.7	3.8	8.46e-01	0	57	104	2376073216	60	14811
2026-01-12 00:01:24.92	134.58	4.32	-45.0	-56.7	3.8	8.46e-01	0	57	104	2376073216	60	14833
2026-01-12 00:01:25.94	134.69	4.27	-45.0	-56.7	3.8	8.46e-01	0	57	104	2376073216	60	14773
2026-01-12 00:01:26.95	134.79	4.22	-45.0	-56.7	3.8	8.46e-01	0	57	104	2376073216	60	14811
2026-01-12 00:01:27.96	134.89	4.17	-45.0	-56.7	3.8	8.46e-01	0	58	104	2376073216	60	14813
2026-01-12 00:01:28.97	135.00	4.12	-45.0	-56.7	3.8	8.47e-01	0	57	104	2376073216	60	14825
2026-01-12 00:01:29.98	135.10	4.07	-45.0	-56.7	3.8	8.46e-01	0	57	104	2376073216	60	14830
2026-01-12 00:01:30.99	135.20	4.02	-45.0	-56.7	3.8	8.48e-01	0	58	104	2376073216	60	14860
2026-01-12 00:01:32.00	135.31	3.97	-45.0	-56.7	3.8	8.45e-01	0	57	104	2376073216	60	14839
2026-01-12 00:01:33.01	135.41	3.92	-45.0	-56.7	3.8	8.46e-01	0	58	104	2376073216	60	14784
2026-01-12 00:01:34.02	135.51	3.87	-45.0	-56.7	3.8	8.47e-01	0	57	104	2376073216	60	14801
2026-01-12 00:01:35.03	135.61	3.82	-45.0	-56.7	3.8	8.46e-01	0	58	104	2376073216	60	14763
2026-01-12 00:01:36.04	135.72	3.77	-45.0	-56.7	3.8	8.47e-01	0	57	104	2376073216	60	14794
2026-01-12 00:01:37.05	135.82	3.72	-45.0	-56.7	3.8	8.46e-01	0	57	104	2376073216	60	14760
2026-01-12 00:01:38.06	135.92	3.67	-45.0	-56.7	3.8	8.45e-01	0	58	104	2376073216	60	14770
2026-01-12 00:01:39.08	136.02	3.61	-45.0	-56.7	3.8	8.46e-01	0	58	104	2376073216	60	14782
2026-01-12 00:01:40.09	136.12	3.56	-45.0	-56.7	3.8	8.47e-01	0	57	104	2376073216	60	14750
2026-01-12 00:01:41.10	136.22	3.51	-45.0	-56.7	3.8	8.46e-01	0	58	104	2376073216	60	14786
2026-01-12 00:01:42.11	136.32	3.46	-45.0	-56.7	3.8	8.46e-01	0	57	104	2376073216	60	14752
2026-01-12 00:01:43.12	136.42	3.41	-45.0	-56.7	3.8	8.47e-01	0	58	104	2376073216	60	14777
2026-01-12 00:01:44.13	136.52	3.36	-45.0	-56.7	3.8	8.46e-01	0	57	104	2376073216	60	14805
2026-01-12 00:01:45.14	136.61	3.31	-45.0	-56.7	3.8	8.47e-01	0	58	104	2376073216	60	14776
2026-01-12 00:01:46.15	136.71	3.26	-45.0	-56.7	3.8	8.45e-01	0	58	104	2376073216	60	14821
2026-01-12 00:01:47.16	136.81	3.21	-45.0	-56.7	3.8	8.45e-01	0	57	104	2376073216	60	14766
2026-01-12 00:01:48.17	136.91	3.16	-45.0	-56.7	3.8	8.46e-01	0	58	104	2376073216	60	14751
2026-01-12 00:01:49.18	137.00	3.11	-45.0	-56.7	3.8	8.46e-01	0	58	104	2376073216	60	14831
2026-01-12 00:01:50.20	137.10	3.06	-45.0	-56.7	3.8	8.46e-01	0	58	104	2376073216	60	14786
2026-01-12 00:01:51.21	137.20	3.01	-45.0	-56.7	3.8	8.46e-01	0	58	104	2376073216	60	14816
2026-01-12 00:01:52.22	137.29	2.96	-44.9	-56.7	3.8	8.47e-01	0	57	104	2376073216	60	14781
2026-01-12 00:01:53.23	137.39	2.91	-45.0	-56.7	3.8	8.47e-01	0	57	104	2376073216	60	14783
2026-01-12 00:01:54.24	137.49	2.86	-45.0	-56.7	3.8	8.47e-01	0	57	104	2376073216	60	14753
2026-01-12 00:01:55.25	137.58	2.81	-45.0	-56.7	3.8	8.46e-01	0	58	104	2376073216	60	14786
2026-01-12 00:01:56.26	137.68	2.76	-45.0	-56.7	3.8	8.46e-01	0	58	104	2376073216	60	14775
2026-01-12 00:01:57.28	137.77	2.71	-45.0	-56.7	3.8	8.46e-01	0	57	104	2376073216	60	14774
2026-01-12 00:01:58.29	137.87	2.66	-45.0	-56.7	3.8	8.45e-01	0	58	104	2376073216	60	14784
2026-01-12 00:01:59.30	137.96	2.61	-45.0	-56.7	3.8	8.45e-01	0	57	104	2376073216	60	14775
2026-01-12 00:02:00.31	138.05	2.56	-45.0	-56.7	3.8	8.46e-01	0	58	104	2376073216	60	14724
2026-01-12 00:02:01.32	138.15	2.51	-45.0	-56.7	3.8	8.46e-01	0	58	104	2376073216	60	14730
2026-01-12 00:02:02.33	138.24	2.46	-45.0	-56.7	3.8	8.46e-01	0	58	104	2376073216	60	14764
2026-01-12 00:02:03.34	138.33	2.41	-45.0	-56.7	3.8	8.45e-01	0	58	104	2376073216	60	14782
2026-01-12 00:02:04.35	138.43	2.36	-45.0	-56.7	3.8	8.45e-01	0	58	104	2376073216	60	14771
2026-01-12 00:02:05.37	138.52	2.31	-45.0	-56.7	3.8	8.46e-01	0	58	104	2376073216	60	14748
2026-01-12 00:02:06.38	138.61	2.26	-44.9	-56.7	3.8	8.47e-01	0	58	104	2376073216	60	14760
2026-01-12 00:02:07.39	138.70	2.21	-44.9	-56.7	3.8	8.45e-01	0	58	104	2376073216	60	14732
2026-01-12 00:02:08.40	138.79	2.16	-45.0	-56.7	3.8	8.46e-01	0	58	104	2376073216	60	14775
2026-01-12 00:02:09.41	138.88	2.11	-45.0	-56.7	3.8	8.47e-01	0	58	104	2376073216	60	14714
2026-01-12 00:02:10.42	138.97	2.06	-44.9	-56.7	3.8	8.47e-01	0	57	104	2376073216	60	14743
2026-01-12 00:02:11.43	139.07	2.01	-45.0	-56.7	3.8	8.47e-01	0	57	104	2376073216	60	14737

#Closed at: 2026-01-12 00:02:12
#Recorded file [2376 MB]: D:/lorett/data/31039_260112_025034.dat