passes_logs/2026/01/11/R2.0S_Moscow/R2.0S_Moscow__20260111_101027_NOAA_21_JPSS-2_rec.log

#Pass ID: 20260111_101027_NOAA 21 (JPSS-2)
#Satellite: NOAA 21 (JPSS-2)
#Configuration: NOAA-21
#almurnet v.1.7.20251203
#Start time: 2026-01-11 10:13:44

#Version: 2.2.20231116
#Station: R2.0S_Moscow
#Location: 37.707566 lon 55.798166 lat
#TLE: 1 54234U 22150A   26009.79679979  .00000100  00000+0  68070-4 0  9993
#TLE: 2 54234  98.7494 310.7596 0000833 322.2782  37.8335 14.19533646164071

#Time	Az	El	Level	Level2	SNR	BER	BlckErr	Temp	State	Recorded	gain1	gain2
2026-01-11 10:13:44.95	172.54	19.27	-45.0	-56.8	3.8	8.46e-01	0	56	0	0	60	15021
2026-01-11 10:13:45.96	172.57	19.40	-45.2	-57.7	3.8	1.49e+00	0	57	104	0	62	14814
2026-01-11 10:13:46.97	172.61	19.53	-45.3	-57.7	3.8	1.49e+00	0	56	104	0	62	14837
2026-01-11 10:13:47.99	172.65	19.66	-45.3	-57.7	3.8	1.49e+00	0	56	104	0	62	14836
2026-01-11 10:13:49.00	172.69	19.79	-45.2	-57.7	3.8	1.49e+00	0	56	104	0	62	14831
2026-01-11 10:13:50.01	172.73	19.92	-45.2	-57.7	3.8	1.49e+00	0	56	104	0	62	14754
2026-01-11 10:13:51.02	172.77	20.05	-45.2	-57.6	3.8	1.49e+00	0	57	104	0	62	14648
2026-01-11 10:13:52.03	172.82	20.18	-45.2	-57.6	3.8	1.49e+00	0	56	104	0	62	14549
2026-01-11 10:13:53.04	172.86	20.32	-45.0	-57.4	3.8	1.49e+00	0	57	104	0	62	14269
2026-01-11 10:13:54.05	172.90	20.45	-45.0	-57.4	3.8	1.49e+00	0	56	104	0	62	14230
2026-01-11 10:13:55.06	172.94	20.58	-45.0	-57.3	3.8	1.49e+00	0	56	104	0	62	14185
2026-01-11 10:13:56.07	172.98	20.72	-45.0	-57.3	3.8	1.49e+00	0	56	104	0	62	14171
2026-01-11 10:13:57.08	173.03	20.85	-44.9	-57.3	3.8	1.49e+00	0	57	104	0	61	14922
2026-01-11 10:13:58.09	173.07	20.99	-44.9	-57.2	3.8	1.49e+00	0	57	104	0	61	14824
2026-01-11 10:13:59.10	173.11	21.13	-44.9	-57.2	3.8	1.49e+00	0	56	104	0	61	14742
2026-01-11 10:14:00.10	173.15	21.26	-44.9	-57.1	3.8	1.49e+00	0	56	104	0	61	14647
2026-01-11 10:14:01.11	173.20	21.40	-44.9	-57.1	3.8	1.49e+00	0	57	104	0	61	14620
2026-01-11 10:14:02.12	173.24	21.54	-44.9	-57.1	3.8	1.49e+00	0	56	104	0	61	14625
2026-01-11 10:14:03.13	173.29	21.68	-44.9	-57.1	3.8	1.49e+00	0	56	104	0	61	14696
2026-01-11 10:14:04.14	173.33	21.82	-44.9	-57.2	3.8	1.49e+00	0	56	104	0	61	14793
2026-01-11 10:14:05.15	173.38	21.96	-44.9	-57.2	3.8	1.49e+00	0	56	104	0	61	14871
2026-01-11 10:14:06.16	173.42	22.10	-44.9	-57.3	3.8	1.49e+00	0	56	104	0	61	14981
2026-01-11 10:14:07.18	173.47	22.25	-44.9	-57.3	3.8	1.49e+00	0	56	104	0	61	14958
2026-01-11 10:14:08.19	173.52	22.39	-44.9	-57.3	3.8	1.49e+00	0	57	104	0	61	14996
2026-01-11 10:14:09.20	173.57	22.53	-44.9	-57.2	3.8	1.49e+00	0	56	104	0	61	14879
2026-01-11 10:14:10.21	173.61	22.68	-44.9	-57.2	3.8	1.49e+00	0	56	104	0	61	14790
2026-01-11 10:14:11.21	173.66	22.82	-44.9	-57.1	3.8	1.49e+00	0	56	104	0	61	14594
2026-01-11 10:14:12.22	173.71	22.97	-44.9	-56.9	3.8	1.49e+00	0	56	104	0	61	14345
2026-01-11 10:14:13.23	173.76	23.12	-44.9	-56.8	3.8	1.49e+00	0	57	104	0	61	14140
2026-01-11 10:14:14.24	173.81	23.27	-44.9	-56.5	3.8	1.49e+00	0	57	104	0	61	13643
2026-01-11 10:14:15.25	173.86	23.42	-44.8	-56.1	3.8	1.49e+00	0	57	104	0	61	13034
2026-01-11 10:14:16.26	173.91	23.57	-44.7	-55.2	3.9	1.49e+00	0	56	104	0	61	11795
2026-01-11 10:14:17.27	173.96	23.72	-44.6	-54.8	3.9	1.48e+00	0	56	104	0	61	11227
2026-01-11 10:14:18.29	174.01	23.87	-44.5	-53.4	4.3	1.45e+00	0	56	104	0	61	9504
2026-01-11 10:14:19.30	174.06	24.02	-44.3	-53.0	4.0	1.08e+00	0	57	104	0	60	9652
2026-01-11 10:14:20.31	174.11	24.18	-44.2	-51.4	5.2	6.46e-01	0	57	0	2097152	60	8023
2026-01-11 10:14:21.32	174.16	24.33	-44.0	-50.7	5.7	4.56e-01	0	57	0	5242880	60	7402
2026-01-11 10:14:22.33	174.22	24.49	-43.9	-50.1	6.0	3.32e-01	0	56	0	8388608	59	7334
2026-01-11 10:14:23.34	174.27	24.64	-43.8	-49.8	6.3	2.74e-01	0	56	0	11534336	59	7096
2026-01-11 10:14:24.35	174.32	24.80	-43.8	-49.8	6.2	2.69e-01	0	57	0	14680064	59	7117
2026-01-11 10:14:25.36	174.38	24.96	-43.9	-50.1	6.1	2.92e-01	0	56	0	17825792	59	7322
2026-01-11 10:14:26.37	174.43	25.12	-44.0	-50.5	5.8	3.68e-01	0	57	0	20971520	59	7704
2026-01-11 10:14:27.38	174.49	25.28	-44.2	-51.1	5.3	5.01e-01	0	56	0	24117248	59	8249
2026-01-11 10:14:28.39	174.55	25.44	-44.3	-51.7	5.0	6.74e-01	0	57	0	27262976	59	8856
2026-01-11 10:14:29.40	174.60	25.60	-44.4	-52.2	4.8	9.42e-01	0	57	104	28311552	59	9342
2026-01-11 10:14:30.41	174.66	25.76	-44.3	-51.9	4.9	9.04e-01	0	57	104	28311552	59	9061
2026-01-11 10:14:31.42	174.72	25.93	-44.1	-50.9	5.5	6.22e-01	0	56	0	30408704	59	8061
2026-01-11 10:14:32.44	174.78	26.09	-43.6	-49.2	6.8	2.74e-01	0	57	0	33554432	59	6591
2026-01-11 10:14:33.45	174.83	26.26	-42.9	-47.2	8.7	5.62e-02	0	57	0	36700160	57	5867
2026-01-11 10:14:34.46	174.89	26.43	-41.7	-45.0	10.9	4.47e-03	0	57	0	40894464	55	5108
2026-01-11 10:14:35.47	174.95	26.59	-40.6	-43.2	12.8	1.76e-04	0	57	0	44040192	53	4658
2026-01-11 10:14:36.48	175.01	26.76	-39.8	-42.0	14.0	3.00e-06	0	56	0	47185920	51	4589
2026-01-11 10:14:37.49	175.08	26.93	-39.2	-41.2	14.9	0.00e+00	0	56	0	49283072	50	4403
2026-01-11 10:14:38.50	175.14	27.10	-38.8	-40.6	15.4	0.00e+00	0	57	0	53477376	49	4390
2026-01-11 10:14:39.51	175.20	27.28	-43.4	-48.4	8.2	0.00e+00	0	57	0	56623104	57	6768
2026-01-11 10:14:40.52	175.26	27.45	-44.5	-53.7	3.9	1.49e+00	0	57	104	56623104	60	10528
2026-01-11 10:14:41.53	175.33	27.62	-39.0	-40.9	15.2	4.37e-03	0	57	0	57671680	50	4250
2026-01-11 10:14:42.54	175.39	27.80	-43.1	-47.8	8.2	1.32e-01	0	57	0	60817408	58	5935
2026-01-11 10:14:43.55	175.46	27.97	-39.0	-40.8	14.8	7.47e-01	0	57	104	61865984	50	4242
2026-01-11 10:14:44.56	175.52	28.15	-39.3	-41.3	14.7	1.50e-06	0	57	0	63963136	50	4491
2026-01-11 10:14:45.58	175.59	28.33	-38.7	-40.5	15.5	0.00e+00	0	57	0	67108864	49	4315
2026-01-11 10:14:46.59	175.66	28.51	-38.6	-40.4	15.6	0.00e+00	0	57	0	70254592	49	4265
2026-01-11 10:14:47.59	175.72	28.69	-38.5	-40.3	15.7	0.00e+00	0	57	0	73400320	49	4225
2026-01-11 10:14:48.60	175.79	28.87	-38.5	-40.3	15.7	0.00e+00	0	57	0	76546048	49	4209
2026-01-11 10:14:49.61	175.86	29.06	-38.4	-40.1	15.9	0.00e+00	0	56	0	79691776	48	4383
2026-01-11 10:14:50.62	175.93	29.24	-38.4	-40.1	15.9	0.00e+00	0	57	0	82837504	48	4356
2026-01-11 10:14:51.64	176.00	29.43	-38.2	-39.9	16.1	0.00e+00	0	57	0	85983232	48	4265
2026-01-11 10:14:52.65	176.07	29.61	-38.1	-39.8	16.2	0.00e+00	0	57	0	89128960	48	4226
2026-01-11 10:14:53.65	176.15	29.80	-38.1	-39.8	16.2	0.00e+00	0	57	0	92274688	48	4211
2026-01-11 10:14:54.66	176.22	29.99	-38.1	-39.8	16.3	0.00e+00	0	57	0	95420416	48	4196
2026-01-11 10:14:55.68	176.29	30.18	-38.0	-39.7	16.3	0.00e+00	0	57	0	98566144	48	4146
2026-01-11 10:14:56.69	176.37	30.37	-37.9	-39.5	16.4	0.00e+00	0	57	0	101711872	47	4299
2026-01-11 10:14:57.70	176.44	30.56	-37.8	-39.4	16.5	0.00e+00	0	56	0	104857600	47	4278
2026-01-11 10:14:58.71	176.52	30.76	-37.8	-39.4	16.5	0.00e+00	0	57	0	108003328	47	4278
2026-01-11 10:14:59.72	176.60	30.95	-37.8	-39.4	16.5	0.00e+00	0	56	0	111149056	47	4273
2026-01-11 10:15:00.73	176.68	31.15	-37.8	-39.4	16.5	0.00e+00	0	57	0	114294784	47	4265
2026-01-11 10:15:01.74	176.76	31.35	-37.8	-39.4	16.5	0.00e+00	0	57	0	117440512	47	4288
2026-01-11 10:15:02.75	176.84	31.54	-37.8	-39.5	16.5	0.00e+00	0	57	0	121634816	47	4294
2026-01-11 10:15:03.76	176.92	31.74	-37.8	-39.4	16.5	0.00e+00	0	57	0	124780544	47	4273
2026-01-11 10:15:04.77	177.00	31.95	-37.7	-39.4	16.6	0.00e+00	0	57	0	127926272	47	4244
2026-01-11 10:15:05.79	177.08	32.15	-37.7	-39.3	16.6	0.00e+00	0	57	0	130023424	47	4238
2026-01-11 10:15:06.80	177.17	32.36	-37.8	-39.4	16.5	0.00e+00	0	57	0	133169152	47	4287
2026-01-11 10:15:07.80	177.25	32.56	-37.8	-39.5	16.5	0.00e+00	0	56	0	137363456	47	4310
2026-01-11 10:15:08.81	177.34	32.77	-37.8	-39.4	16.5	0.00e+00	0	57	0	140509184	47	4276
2026-01-11 10:15:09.82	177.43	32.97	-37.9	-39.6	16.4	0.00e+00	0	56	0	143654912	47	4357
2026-01-11 10:15:10.83	177.51	33.18	-38.0	-39.6	16.3	0.00e+00	0	57	0	146800640	47	4383
2026-01-11 10:15:11.84	177.60	33.39	-38.0	-39.7	16.3	0.00e+00	0	56	0	149946368	47	4395
2026-01-11 10:15:12.85	177.69	33.61	-38.1	-39.8	16.2	0.00e+00	0	57	0	153092096	47	4442
2026-01-11 10:15:13.86	177.79	33.82	-38.2	-39.9	16.1	0.00e+00	0	57	0	156237824	47	4510
2026-01-11 10:15:14.87	177.88	34.03	-38.3	-40.1	15.9	0.00e+00	0	57	0	159383552	47	4615
2026-01-11 10:15:15.88	177.97	34.25	-38.6	-40.4	15.6	0.00e+00	0	57	0	162529280	47	4781
2026-01-11 10:15:16.89	178.07	34.47	-38.6	-40.5	15.5	0.00e+00	0	57	0	165675008	47	4831
2026-01-11 10:15:17.90	178.17	34.69	-38.9	-40.8	15.2	0.00e+00	0	57	0	168820736	48	4747
2026-01-11 10:15:18.91	178.26	34.91	-39.0	-40.9	15.1	0.00e+00	0	56	0	171966464	48	4806
2026-01-11 10:15:19.92	178.36	35.13	-39.1	-41.0	15.1	0.00e+00	0	57	0	175112192	48	4843
2026-01-11 10:15:20.93	178.46	35.35	-39.2	-41.2	14.9	0.00e+00	0	57	0	178257920	48	4936
2026-01-11 10:15:21.94	178.56	35.58	-39.4	-41.4	14.7	0.00e+00	0	57	0	181403648	49	4775
2026-01-11 10:15:22.95	178.67	35.81	-39.5	-41.5	14.6	0.00e+00	0	57	0	184549376	49	4844
2026-01-11 10:15:23.96	178.77	36.04	-39.8	-42.0	14.1	1.50e-06	0	57	0	187695104	50	4828
2026-01-11 10:15:24.97	178.88	36.26	-40.0	-42.3	13.8	3.00e-06	0	57	0	190840832	50	5005
2026-01-11 10:15:25.98	178.99	36.50	-40.3	-42.6	13.5	1.22e-05	0	57	0	193986560	51	4922
2026-01-11 10:15:26.99	179.09	36.73	-40.4	-42.8	13.3	1.98e-05	0	57	0	197132288	51	5022
2026-01-11 10:15:28.00	179.20	36.96	-40.5	-43.0	13.1	1.75e-05	0	57	0	200278016	51	5118
2026-01-11 10:15:29.01	179.32	37.20	-40.6	-43.1	13.0	3.12e-05	0	57	0	203423744	51	5190
2026-01-11 10:15:30.02	179.43	37.44	-40.6	-43.3	12.7	5.87e-05	0	57	0	206569472	52	4996
2026-01-11 10:15:31.03	179.55	37.68	-40.7	-43.3	12.7	8.92e-05	0	57	0	209715200	52	5015
2026-01-11 10:15:32.04	179.66	37.92	-40.8	-43.5	12.5	1.38e-04	0	57	0	212860928	52	5146
2026-01-11 10:15:33.05	179.78	38.16	-40.7	-43.3	12.7	6.40e-05	0	56	0	216006656	52	5007
2026-01-11 10:15:34.06	179.90	38.40	-40.4	-42.9	13.2	4.34e-05	0	57	0	219152384	52	4763
2026-01-11 10:15:35.07	180.02	38.65	-40.2	-42.6	13.4	1.14e-05	0	57	0	222298112	52	4617
2026-01-11 10:15:36.08	180.15	38.90	-40.1	-42.5	13.5	4.50e-06	0	57	0	225443840	52	4581
2026-01-11 10:15:37.09	180.27	39.15	-40.1	-42.5	13.5	3.80e-06	0	57	0	228589568	52	4565
2026-01-11 10:15:38.10	180.40	39.40	-40.1	-42.5	13.5	8.30e-06	0	57	0	231735296	52	4565
2026-01-11 10:15:39.11	180.53	39.65	-40.1	-42.5	13.5	1.37e-05	0	57	0	234881024	52	4551
2026-01-11 10:15:40.12	180.66	39.90	-40.2	-42.6	13.4	1.44e-05	0	56	0	238026752	52	4650
2026-01-11 10:15:41.13	180.79	40.16	-40.1	-42.4	13.6	9.10e-06	0	57	0	241172480	52	4504
2026-01-11 10:15:42.14	180.93	40.41	-40.0	-42.2	13.9	4.50e-06	0	57	0	244318208	51	4674
2026-01-11 10:15:43.15	181.07	40.67	-40.0	-42.3	13.8	1.50e-06	0	57	0	247463936	51	4713
2026-01-11 10:15:44.16	181.21	40.93	-40.1	-42.4	13.7	3.80e-06	0	56	0	250609664	51	4786
2026-01-11 10:15:45.17	181.35	41.20	-40.2	-42.5	13.7	8.30e-06	0	57	0	253755392	51	4816
2026-01-11 10:15:46.18	181.49	41.46	-40.0	-42.3	13.8	3.00e-06	0	57	0	256901120	51	4728
2026-01-11 10:15:47.19	181.64	41.73	-40.0	-42.2	13.9	3.00e-06	0	57	0	260046848	51	4677
2026-01-11 10:15:48.20	181.79	41.99	-40.0	-42.1	14.0	7.00e-07	0	57	0	263192576	51	4642
2026-01-11 10:15:49.20	181.94	42.26	-39.9	-42.0	14.1	7.00e-07	0	57	0	266338304	51	4568
2026-01-11 10:15:50.21	182.09	42.53	-39.8	-41.9	14.2	7.00e-07	0	57	0	269484032	51	4499
2026-01-11 10:15:51.22	182.25	42.80	-39.7	-41.8	14.3	7.00e-07	0	57	0	272629760	51	4483
2026-01-11 10:15:52.23	182.41	43.08	-39.7	-41.7	14.4	7.00e-07	0	57	0	275775488	51	4436
2026-01-11 10:15:53.25	182.57	43.36	-39.7	-41.8	14.3	7.00e-07	0	57	0	278921216	51	4457
2026-01-11 10:15:54.26	182.74	43.64	-39.8	-41.9	14.2	7.00e-07	0	57	0	282066944	51	4519
2026-01-11 10:15:55.27	182.90	43.92	-39.9	-42.1	14.1	7.00e-07	0	57	0	285212672	51	4599
2026-01-11 10:15:56.28	183.07	44.20	-39.8	-41.9	14.2	7.00e-07	0	57	0	288358400	51	4525
2026-01-11 10:15:57.29	183.25	44.48	-39.7	-41.8	14.3	0.00e+00	0	57	0	291504128	51	4483
2026-01-11 10:15:58.30	183.42	44.77	-39.8	-41.9	14.2	3.80e-06	0	57	0	294649856	51	4512
2026-01-11 10:15:59.31	183.60	45.05	-39.7	-41.8	14.3	7.00e-07	0	57	0	297795584	51	4478
2026-01-11 10:16:00.32	183.78	45.34	-39.7	-41.8	14.3	7.00e-07	0	57	0	300941312	51	4485
2026-01-11 10:16:01.33	183.97	45.63	-39.8	-41.9	14.2	3.00e-06	0	57	0	304087040	51	4504
2026-01-11 10:16:02.34	184.16	45.93	-39.8	-42.0	14.1	1.50e-06	0	57	0	307232768	51	4551
2026-01-11 10:16:03.35	184.35	46.22	-39.8	-41.9	14.2	1.50e-06	0	57	0	310378496	51	4534
2026-01-11 10:16:04.36	184.55	46.51	-39.5	-41.6	14.5	7.00e-07	0	57	0	313524224	51	4347
2026-01-11 10:16:05.37	184.75	46.81	-39.5	-41.5	14.6	7.00e-07	0	57	0	316669952	51	4333
2026-01-11 10:16:06.38	184.95	47.11	-39.5	-41.5	14.6	7.00e-07	0	57	0	319815680	51	4325
2026-01-11 10:16:07.39	185.16	47.41	-39.5	-41.5	14.6	0.00e+00	0	57	0	322961408	50	4571
2026-01-11 10:16:08.40	185.37	47.72	-39.6	-41.6	14.5	7.00e-07	0	57	0	326107136	50	4611
2026-01-11 10:16:09.41	185.59	48.02	-39.7	-41.8	14.3	1.50e-06	0	57	0	329252864	50	4747
2026-01-11 10:16:10.42	185.81	48.33	-39.8	-41.9	14.2	1.50e-06	0	57	0	332398592	50	4811
2026-01-11 10:16:11.43	186.03	48.63	-39.8	-42.0	14.2	4.50e-06	0	57	0	335544320	50	4829
2026-01-11 10:16:12.44	186.26	48.94	-39.9	-42.1	14.0	1.50e-06	0	57	0	338690048	50	4924
2026-01-11 10:16:13.45	186.49	49.26	-40.0	-42.3	13.8	4.50e-06	0	57	0	341835776	50	5003
2026-01-11 10:16:14.46	186.73	49.57	-40.0	-42.3	13.9	7.00e-07	0	57	0	344981504	50	5000
2026-01-11 10:16:15.47	186.97	49.88	-40.2	-42.5	13.6	5.30e-06	0	57	0	348127232	50	5126
2026-01-11 10:16:16.48	187.22	50.20	-40.3	-42.7	13.4	9.90e-06	0	57	0	351272960	51	4950
2026-01-11 10:16:17.49	187.48	50.52	-40.4	-42.8	13.4	1.44e-05	0	57	0	354418688	51	4997
2026-01-11 10:16:18.50	187.73	50.84	-40.2	-42.6	13.5	4.50e-06	0	57	0	357564416	51	4881
2026-01-11 10:16:19.51	188.00	51.16	-39.9	-42.0	14.1	3.80e-06	0	57	0	360710144	51	4589
2026-01-11 10:16:20.52	188.27	51.48	-39.7	-41.8	14.3	2.20e-06	0	57	0	363855872	51	4477
2026-01-11 10:16:21.53	188.54	51.81	-39.4	-41.4	14.7	0.00e+00	0	57	0	367001600	50	4529
2026-01-11 10:16:22.54	188.82	52.13	-39.4	-41.3	14.8	0.00e+00	0	57	0	370147328	50	4486
2026-01-11 10:16:23.55	189.11	52.46	-39.1	-40.9	15.2	0.00e+00	0	57	0	373293056	50	4289
2026-01-11 10:16:24.56	189.41	52.79	-39.0	-40.8	15.3	0.00e+00	0	57	0	376438784	50	4233
2026-01-11 10:16:25.57	189.71	53.12	-38.9	-40.7	15.5	0.00e+00	0	57	0	379584512	49	4398
2026-01-11 10:16:26.58	190.01	53.45	-38.5	-40.2	15.9	0.00e+00	0	57	0	382730240	49	4179
2026-01-11 10:16:27.59	190.33	53.78	-38.1	-39.7	16.5	0.00e+00	0	57	0	385875968	48	4167
2026-01-11 10:16:28.61	190.65	54.12	-37.7	-39.2	16.9	0.00e+00	0	57	0	389021696	47	4158
2026-01-11 10:16:29.62	190.98	54.45	-37.6	-39.1	16.9	0.00e+00	0	57	0	392167424	47	4138
2026-01-11 10:16:30.63	191.32	54.79	-37.6	-39.2	16.9	0.00e+00	0	57	0	395313152	47	4146
2026-01-11 10:16:31.64	191.66	55.13	-37.4	-39.0	17.0	0.00e+00	0	57	0	398458880	46	4298
2026-01-11 10:16:32.65	192.02	55.47	-37.3	-38.8	17.3	0.00e+00	0	57	0	401604608	46	4206
2026-01-11 10:16:33.66	192.38	55.81	-37.2	-38.7	17.3	0.00e+00	0	57	0	404750336	46	4146
2026-01-11 10:16:34.67	192.75	56.15	-37.2	-38.6	17.3	0.00e+00	0	57	0	407896064	46	4144
2026-01-11 10:16:35.68	193.13	56.49	-37.3	-38.7	17.3	0.00e+00	0	57	0	411041792	46	4184
2026-01-11 10:16:36.69	193.51	56.83	-37.3	-38.8	17.3	0.00e+00	0	57	0	414187520	46	4194
2026-01-11 10:16:37.70	193.91	57.18	-37.4	-39.0	17.1	0.00e+00	0	57	0	418381824	46	4295
2026-01-11 10:16:38.71	194.32	57.52	-37.5	-39.0	17.0	0.00e+00	0	56	0	421527552	46	4314
2026-01-11 10:16:39.72	194.74	57.87	-37.3	-38.8	17.2	0.00e+00	0	57	0	423624704	46	4228
2026-01-11 10:16:40.73	195.17	58.21	-37.1	-38.6	17.4	0.00e+00	0	57	0	426770432	46	4118
2026-01-11 10:16:41.74	195.61	58.56	-37.1	-38.6	17.4	0.00e+00	0	57	0	429916160	46	4110
2026-01-11 10:16:42.75	196.06	58.91	-37.0	-38.4	17.5	0.00e+00	0	57	0	434110464	45	4278
2026-01-11 10:16:43.76	196.53	59.25	-37.1	-38.5	17.5	0.00e+00	0	57	0	437256192	45	4340
2026-01-11 10:16:44.77	197.00	59.60	-37.0	-38.5	17.6	0.00e+00	0	57	0	440401920	45	4292
2026-01-11 10:16:45.78	197.49	59.95	-37.0	-38.4	17.7	0.00e+00	0	57	0	443547648	45	4269
2026-01-11 10:16:46.79	198.00	60.29	-37.0	-38.4	17.6	0.00e+00	0	57	0	445644800	45	4273
2026-01-11 10:16:47.80	198.51	60.64	-37.0	-38.5	17.6	0.00e+00	0	57	0	449839104	45	4296
2026-01-11 10:16:48.81	199.04	60.99	-36.9	-38.3	17.8	0.00e+00	0	57	0	452984832	45	4204
2026-01-11 10:16:49.82	199.59	61.34	-36.8	-38.2	17.9	0.00e+00	0	57	0	456130560	45	4179
2026-01-11 10:16:50.83	200.15	61.68	-36.7	-38.1	17.9	0.00e+00	0	57	0	459276288	45	4122
2026-01-11 10:16:51.84	200.73	62.03	-36.6	-38.0	18.1	0.00e+00	0	57	0	462422016	45	4062
2026-01-11 10:16:52.85	201.32	62.37	-36.6	-38.0	18.0	0.00e+00	0	57	0	465567744	45	4066
2026-01-11 10:16:53.86	201.93	62.72	-36.6	-37.9	18.1	0.00e+00	0	57	0	468713472	44	4269
2026-01-11 10:16:54.87	202.56	63.06	-36.5	-37.8	18.1	0.00e+00	0	57	0	471859200	44	4225
2026-01-11 10:16:55.88	203.20	63.40	-36.8	-38.2	17.9	0.00e+00	0	57	0	475004928	44	4399
2026-01-11 10:16:56.89	203.87	63.74	-37.1	-38.5	17.5	0.00e+00	0	57	0	478150656	44	4589
2026-01-11 10:16:57.90	204.55	64.08	-36.9	-38.3	17.7	0.00e+00	0	57	0	481296384	44	4493
2026-01-11 10:16:58.91	205.26	64.42	-36.6	-38.0	18.0	0.00e+00	0	57	0	484442112	44	4310
2026-01-11 10:16:59.92	205.98	64.75	-36.5	-37.9	18.1	0.00e+00	0	57	0	487587840	44	4262
2026-01-11 10:17:00.93	206.73	65.08	-36.5	-37.9	18.1	0.00e+00	0	57	0	490733568	44	4243
2026-01-11 10:17:01.94	207.49	65.41	-36.6	-37.9	18.0	0.00e+00	0	57	0	493879296	44	4281
2026-01-11 10:17:02.95	208.29	65.74	-36.5	-37.9	18.1	0.00e+00	0	57	0	497025024	44	4255
2026-01-11 10:17:03.96	209.10	66.07	-36.4	-37.7	18.3	0.00e+00	0	57	0	500170752	44	4175
2026-01-11 10:17:04.97	209.94	66.39	-36.5	-37.9	18.1	0.00e+00	0	57	0	503316480	44	4270
2026-01-11 10:17:05.98	210.81	66.70	-36.8	-38.3	17.7	0.00e+00	0	57	0	506462208	44	4463
2026-01-11 10:17:06.98	211.69	67.02	-37.2	-38.7	17.4	0.00e+00	0	57	0	509607936	44	4660
2026-01-11 10:17:07.99	212.61	67.33	-37.1	-38.6	17.3	0.00e+00	0	57	0	512753664	44	4639
2026-01-11 10:17:09.00	213.55	67.63	-36.9	-38.4	17.7	0.00e+00	0	57	0	515899392	44	4503
2026-01-11 10:17:10.01	214.52	67.93	-36.7	-38.1	17.8	0.00e+00	0	57	0	519045120	44	4363
2026-01-11 10:17:11.02	215.53	68.23	-36.4	-37.8	18.2	0.00e+00	0	57	0	522190848	44	4218
2026-01-11 10:17:12.03	216.56	68.52	-36.5	-37.8	18.2	0.00e+00	0	57	0	525336576	44	4225
2026-01-11 10:17:13.04	217.62	68.80	-36.6	-38.0	17.9	0.00e+00	0	57	0	528482304	44	4331
2026-01-11 10:17:14.05	218.71	69.08	-36.5	-37.9	18.1	0.00e+00	0	57	0	531628032	44	4264
2026-01-11 10:17:15.06	219.83	69.36	-36.7	-38.1	17.9	0.00e+00	0	57	0	534773760	44	4346
2026-01-11 10:17:16.07	220.99	69.62	-36.6	-38.0	18.0	0.00e+00	0	57	0	537919488	44	4319
2026-01-11 10:17:17.08	222.18	69.88	-36.6	-38.0	18.0	0.00e+00	0	57	0	541065216	44	4323
2026-01-11 10:17:18.09	223.40	70.13	-36.7	-38.1	17.9	0.00e+00	0	57	0	544210944	44	4373
2026-01-11 10:17:19.10	224.65	70.38	-36.6	-38.0	18.0	0.00e+00	0	57	0	547356672	44	4297
2026-01-11 10:17:20.11	225.94	70.61	-36.5	-37.9	18.0	0.00e+00	0	57	0	550502400	44	4276
2026-01-11 10:17:21.12	227.26	70.84	-36.5	-37.9	18.1	0.00e+00	0	57	0	553648128	44	4244
2026-01-11 10:17:22.13	228.61	71.05	-36.7	-38.1	17.9	0.00e+00	0	57	0	556793856	44	4370
2026-01-11 10:17:23.14	229.99	71.26	-36.6	-38.0	18.0	0.00e+00	0	57	0	559939584	44	4312
2026-01-11 10:17:24.15	231.41	71.46	-36.5	-37.9	18.0	0.00e+00	0	57	0	563085312	44	4253
2026-01-11 10:17:25.16	232.85	71.64	-36.6	-37.9	18.0	0.00e+00	0	57	0	566231040	44	4279
2026-01-11 10:17:26.17	234.33	71.82	-36.6	-37.9	17.9	0.00e+00	0	57	0	569376768	44	4290
2026-01-11 10:17:27.18	235.84	71.98	-36.7	-38.1	17.7	0.00e+00	0	57	0	572522496	44	4388
2026-01-11 10:17:28.19	237.37	72.14	-36.8	-38.2	17.8	0.00e+00	0	57	0	575668224	44	4406
2026-01-11 10:17:29.20	238.94	72.28	-36.9	-38.4	17.6	0.00e+00	0	57	0	578813952	44	4509
2026-01-11 10:17:30.20	240.51	72.40	-36.6	-38.0	18.0	0.00e+00	0	57	0	581959680	44	4292
2026-01-11 10:17:31.21	242.12	72.52	-36.3	-37.6	18.3	0.00e+00	0	57	0	585105408	44	4134
2026-01-11 10:17:32.22	243.75	72.62	-36.3	-37.6	18.4	0.00e+00	0	57	0	588251136	44	4111
2026-01-11 10:17:33.24	245.41	72.71	-36.1	-37.4	18.5	0.00e+00	0	57	0	591396864	44	4042
2026-01-11 10:17:34.25	247.08	72.79	-35.8	-37.0	18.7	0.00e+00	0	57	0	594542592	43	4091
2026-01-11 10:17:35.25	248.74	72.85	-35.7	-36.9	18.7	0.00e+00	0	57	0	597688320	43	4050
2026-01-11 10:17:36.26	250.43	72.89	-35.8	-37.1	18.7	0.00e+00	0	57	0	600834048	43	4109
2026-01-11 10:17:37.27	252.13	72.93	-36.1	-37.4	18.4	0.00e+00	0	57	0	603979776	43	4257
2026-01-11 10:17:38.28	253.84	72.95	-36.7	-38.1	17.7	0.00e+00	0	57	0	607125504	43	4623
2026-01-11 10:17:39.29	255.55	72.95	-37.0	-38.5	17.5	0.00e+00	0	57	0	610271232	44	4582
2026-01-11 10:17:40.30	257.25	72.94	-36.6	-37.9	18.0	0.00e+00	0	57	0	613416960	44	4284
2026-01-11 10:17:41.31	258.96	72.92	-36.3	-37.7	18.3	0.00e+00	0	57	0	616562688	44	4150
2026-01-11 10:17:42.32	260.65	72.88	-36.5	-37.8	18.2	0.00e+00	0	57	0	619708416	44	4229
2026-01-11 10:17:43.33	262.34	72.83	-36.8	-38.3	17.7	0.00e+00	0	57	0	622854144	44	4443
2026-01-11 10:17:44.34	264.02	72.76	-37.0	-38.5	17.5	0.00e+00	0	57	0	625999872	44	4569
2026-01-11 10:17:45.35	265.68	72.68	-36.8	-38.2	17.8	0.00e+00	0	57	0	629145600	44	4435
2026-01-11 10:17:46.36	267.32	72.59	-36.4	-37.8	18.2	0.00e+00	0	57	0	632291328	44	4209
2026-01-11 10:17:47.37	268.94	72.48	-36.3	-37.6	18.3	0.00e+00	0	57	0	635437056	44	4113
2026-01-11 10:17:48.38	270.54	72.36	-36.3	-37.7	18.3	0.00e+00	0	57	0	638582784	44	4155
2026-01-11 10:17:49.39	272.12	72.23	-36.5	-37.9	18.1	0.00e+00	0	57	0	641728512	44	4259
2026-01-11 10:17:50.40	273.67	72.08	-36.8	-38.2	17.9	0.00e+00	0	57	0	644874240	44	4402
2026-01-11 10:17:51.41	275.19	71.93	-36.8	-38.2	17.8	0.00e+00	0	57	0	648019968	44	4413
2026-01-11 10:17:52.42	276.69	71.76	-36.4	-37.7	18.3	0.00e+00	0	57	0	651165696	44	4166
2026-01-11 10:17:53.43	278.15	71.58	-36.3	-37.6	18.3	0.00e+00	0	57	0	654311424	44	4141
2026-01-11 10:17:54.44	279.59	71.39	-36.7	-38.1	17.9	0.00e+00	0	57	0	657457152	44	4377
2026-01-11 10:17:55.45	280.99	71.19	-37.0	-38.5	17.4	0.00e+00	0	57	0	660602880	44	4575
2026-01-11 10:17:56.46	282.36	70.98	-37.3	-38.9	17.1	4.03e-04	0	57	0	663748608	45	4520
2026-01-11 10:17:57.47	283.70	70.76	-37.4	-38.9	17.1	0.00e+00	0	57	0	666894336	45	4526
2026-01-11 10:17:58.48	285.00	70.53	-36.7	-38.1	17.9	1.14e-05	0	57	0	670040064	44	4355
2026-01-11 10:17:59.50	286.29	70.29	-36.2	-37.6	18.4	0.00e+00	0	57	0	673185792	44	4102
2026-01-11 10:18:00.51	287.53	70.04	-36.3	-37.6	18.4	0.00e+00	0	57	0	676331520	44	4109
2026-01-11 10:18:01.52	288.73	69.79	-36.7	-38.1	17.9	0.00e+00	0	57	0	679477248	44	4345
2026-01-11 10:18:02.52	289.90	69.53	-37.1	-38.6	17.4	0.00e+00	0	57	0	682622976	44	4611
2026-01-11 10:18:03.53	291.04	69.26	-37.2	-38.7	17.3	0.00e+00	0	57	0	685768704	45	4429
2026-01-11 10:18:04.54	292.15	68.99	-36.8	-38.2	17.8	0.00e+00	0	57	0	688914432	45	4164
2026-01-11 10:18:05.55	293.23	68.71	-35.8	-37.1	18.7	0.00e+00	0	57	0	692060160	43	4107
2026-01-11 10:18:06.56	294.28	68.42	-36.0	-37.3	18.6	0.00e+00	0	57	0	695205888	42	4455
2026-01-11 10:18:07.58	295.31	68.12	-36.3	-37.6	18.1	0.00e+00	0	57	0	698351616	43	4379
2026-01-11 10:18:08.59	296.30	67.83	-37.3	-38.8	17.2	7.00e-07	0	57	0	701497344	45	4482
2026-01-11 10:18:09.60	297.26	67.52	-37.8	-39.5	16.6	0.00e+00	0	57	0	704643072	46	4567
2026-01-11 10:18:10.60	298.18	67.22	-37.2	-38.7	17.3	0.00e+00	0	57	0	707788800	45	4404
2026-01-11 10:18:11.61	299.09	66.91	-36.4	-37.7	18.3	0.00e+00	0	57	0	710934528	44	4160
2026-01-11 10:18:12.62	299.97	66.60	-36.2	-37.5	18.5	0.00e+00	0	57	0	714080256	44	4073
2026-01-11 10:18:13.63	300.82	66.28	-36.4	-37.8	18.0	0.00e+00	0	57	0	717225984	43	4470
2026-01-11 10:18:14.64	301.65	65.96	-37.1	-38.6	17.4	0.00e+00	0	57	0	720371712	44	4641
2026-01-11 10:18:15.65	302.46	65.63	-38.0	-39.7	16.5	0.00e+00	0	57	0	723517440	46	4678
2026-01-11 10:18:16.66	303.24	65.30	-38.0	-39.7	16.4	0.00e+00	0	57	0	726663168	47	4409
2026-01-11 10:18:17.67	304.00	64.97	-37.1	-38.6	17.5	0.00e+00	0	57	0	729808896	46	4135
2026-01-11 10:18:18.68	304.74	64.64	-36.1	-37.3	18.7	0.00e+00	0	57	0	732954624	44	4001
2026-01-11 10:18:19.70	305.46	64.30	-36.0	-37.3	18.6	0.00e+00	0	57	0	736100352	43	4202
2026-01-11 10:18:20.71	306.16	63.97	-36.5	-37.8	17.9	0.00e+00	0	57	0	739246080	43	4488
2026-01-11 10:18:21.72	306.83	63.63	-37.9	-39.5	16.5	0.00e+00	0	57	0	742391808	46	4590
2026-01-11 10:18:22.73	307.49	63.29	-38.8	-40.7	15.6	0.00e+00	0	57	0	745537536	48	4677
2026-01-11 10:18:23.74	308.13	62.95	-38.8	-40.6	15.6	0.00e+00	0	57	0	748683264	48	4625
2026-01-11 10:18:24.75	308.75	62.61	-37.9	-39.6	16.5	0.00e+00	0	57	0	752877568	47	4352
2026-01-11 10:18:25.75	309.34	62.27	-36.9	-38.4	17.7	0.00e+00	0	57	0	756023296	45	4258
2026-01-11 10:18:26.76	309.93	61.92	-36.6	-38.0	18.1	0.00e+00	0	57	0	759169024	45	4054
2026-01-11 10:18:27.77	310.50	61.58	-36.8	-38.2	17.8	0.00e+00	0	57	0	761266176	45	4151
2026-01-11 10:18:28.78	311.05	61.23	-37.5	-39.1	16.9	0.00e+00	0	57	0	764411904	45	4627
2026-01-11 10:18:29.80	311.60	60.88	-38.4	-40.2	15.8	0.00e+00	0	57	0	767557632	47	4685
2026-01-11 10:18:30.80	312.12	60.54	-38.5	-40.2	15.9	0.00e+00	0	57	0	771751936	47	4704
2026-01-11 10:18:31.81	312.63	60.19	-37.7	-39.3	16.7	0.00e+00	0	57	0	774897664	47	4216
2026-01-11 10:18:32.82	313.13	59.85	-36.9	-38.2	17.8	0.00e+00	0	57	0	778043392	45	4193
2026-01-11 10:18:33.83	313.61	59.50	-36.6	-37.9	18.2	0.00e+00	0	57	0	781189120	45	4020
2026-01-11 10:18:34.84	314.08	59.16	-36.8	-38.2	17.9	0.00e+00	0	57	0	784334848	45	4158
2026-01-11 10:18:35.85	314.54	58.81	-37.5	-39.0	17.0	0.00e+00	0	57	0	787480576	45	4589
2026-01-11 10:18:36.86	314.99	58.47	-38.6	-40.5	15.7	0.00e+00	0	57	0	790626304	47	4835
2026-01-11 10:18:37.87	315.42	58.12	-39.5	-41.6	14.8	0.00e+00	0	57	0	793772032	49	4878
2026-01-11 10:18:38.88	315.85	57.78	-39.3	-41.3	14.8	0.00e+00	0	57	0	796917760	49	4759
2026-01-11 10:18:39.89	316.26	57.43	-38.4	-40.1	15.9	0.00e+00	0	57	0	800063488	48	4384
2026-01-11 10:18:40.90	316.67	57.09	-37.7	-39.2	16.7	0.00e+00	0	57	0	803209216	47	4186
2026-01-11 10:18:41.91	317.06	56.75	-37.3	-38.8	17.3	0.00e+00	0	57	0	806354944	46	4205
2026-01-11 10:18:42.92	317.45	56.41	-37.2	-38.6	17.4	0.00e+00	0	57	0	809500672	46	4122
2026-01-11 10:18:43.93	317.82	56.07	-37.5	-39.0	17.0	0.00e+00	0	57	0	812646400	46	4317
2026-01-11 10:18:44.94	318.19	55.73	-38.6	-40.4	15.6	0.00e+00	0	57	0	815792128	47	4769
2026-01-11 10:18:45.96	318.55	55.38	-40.0	-42.2	13.9	2.20e-06	0	57	0	818937856	50	4976
2026-01-11 10:18:46.97	318.90	55.05	-40.5	-43.0	13.2	1.60e-05	0	57	0	822083584	51	5117
2026-01-11 10:18:47.98	319.24	54.71	-39.9	-42.1	14.0	3.80e-06	0	57	0	825229312	51	4627
2026-01-11 10:18:48.98	319.57	54.38	-39.1	-41.0	15.0	0.00e+00	0	57	0	828375040	50	4338
2026-01-11 10:18:49.99	319.90	54.05	-38.2	-39.8	16.3	0.00e+00	0	57	0	831520768	48	4230
2026-01-11 10:18:51.00	320.22	53.71	-37.5	-39.1	17.1	0.00e+00	0	57	0	834666496	47	4107
2026-01-11 10:18:52.01	320.53	53.38	-37.5	-39.0	17.2	0.00e+00	0	57	0	837812224	47	4068
2026-01-11 10:18:53.02	320.83	53.05	-37.9	-39.4	16.7	0.00e+00	0	57	0	840957952	47	4282
2026-01-11 10:18:54.03	321.13	52.72	-38.7	-40.5	15.7	0.00e+00	0	57	0	844103680	47	4840
2026-01-11 10:18:55.04	321.42	52.40	-39.6	-41.6	14.6	0.00e+00	0	57	0	847249408	49	4906
2026-01-11 10:18:56.05	321.71	52.07	-40.1	-42.3	13.9	7.00e-07	0	57	0	850395136	50	5002
2026-01-11 10:18:57.06	321.99	51.75	-40.5	-43.0	13.3	1.52e-05	0	57	0	853540864	51	5102
2026-01-11 10:18:58.07	322.26	51.43	-40.6	-43.1	13.1	3.12e-05	0	57	0	856686592	51	5184
2026-01-11 10:18:59.08	322.53	51.11	-40.3	-42.7	13.4	1.75e-05	0	57	0	859832320	51	4945
2026-01-11 10:19:00.09	322.79	50.79	-40.1	-42.3	13.8	3.00e-06	0	57	0	862978048	51	4750
2026-01-11 10:19:01.10	323.05	50.47	-39.8	-41.9	14.4	0.00e+00	0	57	0	866123776	51	4506
2026-01-11 10:19:02.11	323.30	50.15	-39.6	-41.6	14.6	7.00e-07	0	57	0	869269504	51	4377
2026-01-11 10:19:03.12	323.54	49.84	-39.4	-41.3	14.9	0.00e+00	0	57	0	872415232	50	4489
2026-01-11 10:19:04.13	323.79	49.53	-39.7	-41.7	14.4	0.00e+00	0	57	0	875560960	50	4700
2026-01-11 10:19:05.15	324.02	49.21	-39.8	-42.0	14.1	7.00e-07	0	57	0	878706688	50	4815
2026-01-11 10:19:06.16	324.26	48.90	-40.1	-42.2	13.9	7.00e-07	0	57	0	881852416	50	4979
2026-01-11 10:19:07.17	324.48	48.59	-40.4	-42.7	13.5	6.10e-06	0	57	0	884998144	51	4957
2026-01-11 10:19:08.18	324.71	48.29	-40.8	-43.4	12.8	4.11e-05	0	57	0	888143872	52	5046
2026-01-11 10:19:09.19	324.92	47.98	-41.2	-44.0	12.1	1.98e-04	0	57	0	891289600	52	5430
2026-01-11 10:19:10.20	325.14	47.68	-40.9	-43.6	12.5	1.62e-04	0	57	0	894435328	52	5184
2026-01-11 10:19:11.21	325.35	47.38	-40.4	-42.7	13.4	2.89e-05	0	57	0	897581056	52	4694
2026-01-11 10:19:12.21	325.55	47.08	-40.1	-42.3	13.9	5.30e-06	0	57	0	900726784	52	4472
2026-01-11 10:19:13.22	325.76	46.79	-39.8	-41.9	14.3	2.20e-06	0	57	0	903872512	51	4531
2026-01-11 10:19:14.24	325.96	46.49	-39.5	-41.4	14.8	0.00e+00	0	57	0	907018240	51	4286
2026-01-11 10:19:15.24	326.15	46.20	-39.5	-41.4	14.9	0.00e+00	0	57	0	910163968	50	4545
2026-01-11 10:19:16.25	326.34	45.91	-39.8	-41.9	14.4	0.00e+00	0	57	0	913309696	50	4767
2026-01-11 10:19:17.26	326.53	45.61	-40.1	-42.3	13.9	7.00e-07	0	57	0	916455424	50	5034
2026-01-11 10:19:18.28	326.72	45.32	-40.4	-42.8	13.5	9.90e-06	0	57	0	919601152	51	4994
2026-01-11 10:19:19.29	326.90	45.04	-40.6	-43.1	13.2	2.51e-05	0	57	0	922746880	51	5176
2026-01-11 10:19:20.30	327.08	44.75	-40.4	-42.8	13.5	2.28e-05	0	57	0	925892608	51	5005
2026-01-11 10:19:21.31	327.25	44.47	-39.8	-41.8	14.4	3.80e-06	0	57	0	929038336	51	4478
2026-01-11 10:19:22.32	327.42	44.19	-39.7	-41.8	14.5	0.00e+00	0	57	0	932184064	51	4446
2026-01-11 10:19:23.33	327.59	43.91	-40.1	-42.3	14.0	3.80e-06	0	57	0	935329792	51	4720
2026-01-11 10:19:24.34	327.76	43.63	-40.6	-43.0	13.2	1.75e-05	0	57	0	938475520	51	5134
2026-01-11 10:19:25.35	327.92	43.35	-41.0	-43.7	12.5	1.04e-04	0	57	0	941621248	52	5240
2026-01-11 10:19:26.36	328.08	43.08	-41.3	-44.2	11.9	3.03e-04	0	57	0	944766976	53	5228
2026-01-11 10:19:27.37	328.24	42.81	-41.1	-44.0	12.2	3.91e-04	0	57	0	947912704	53	5115
2026-01-11 10:19:28.38	328.40	42.53	-40.6	-43.1	13.0	8.23e-05	0	57	0	951058432	53	4639
2026-01-11 10:19:29.39	328.55	42.27	-40.1	-42.3	13.8	4.50e-06	0	57	0	954204160	52	4475
2026-01-11 10:19:30.40	328.70	42.00	-40.0	-42.1	14.1	3.80e-06	0	57	0	957349888	51	4647
2026-01-11 10:19:31.41	328.85	41.73	-40.1	-42.4	13.9	2.20e-06	0	57	0	960495616	51	4764
2026-01-11 10:19:32.42	329.00	41.47	-40.3	-42.6	13.6	9.10e-06	0	57	0	963641344	51	4912
2026-01-11 10:19:33.43	329.14	41.21	-40.2	-42.5	13.7	6.80e-06	0	57	0	966787072	51	4870
2026-01-11 10:19:34.44	329.28	40.95	-40.3	-42.6	13.7	3.00e-06	0	57	0	969932800	51	4889
2026-01-11 10:19:35.45	329.42	40.69	-40.4	-42.8	13.5	9.90e-06	0	57	0	973078528	51	4984
2026-01-11 10:19:36.46	329.56	40.43	-40.4	-42.9	13.4	1.98e-05	0	57	0	976224256	51	5045
2026-01-11 10:19:37.47	329.69	40.17	-40.3	-42.6	13.6	1.14e-05	0	57	0	979369984	51	4898
2026-01-11 10:19:38.48	329.82	39.92	-40.1	-42.3	14.0	2.20e-06	0	57	0	982515712	51	4736
2026-01-11 10:19:39.49	329.96	39.67	-39.9	-42.0	14.2	7.00e-07	0	57	0	985661440	51	4596
2026-01-11 10:19:40.50	330.08	39.42	-39.7	-41.7	14.5	0.00e+00	0	57	0	988807168	51	4414
2026-01-11 10:19:41.51	330.21	39.17	-39.8	-41.8	14.4	7.00e-07	0	57	0	991952896	51	4482
2026-01-11 10:19:42.52	330.34	38.92	-39.9	-42.1	14.1	0.00e+00	0	57	0	995098624	51	4624
2026-01-11 10:19:43.53	330.46	38.68	-40.2	-42.5	13.8	1.50e-06	0	57	0	998244352	51	4822
2026-01-11 10:19:44.54	330.58	38.43	-40.4	-42.8	13.5	1.06e-05	0	57	0	1001390080	51	4988
2026-01-11 10:19:45.55	330.70	38.19	-40.4	-42.9	13.3	1.22e-05	0	57	0	1004535808	51	5046
2026-01-11 10:19:46.56	330.82	37.95	-40.2	-42.5	13.7	7.60e-06	0	57	0	1007681536	51	4848
2026-01-11 10:19:47.57	330.94	37.71	-40.0	-42.2	14.0	3.80e-06	0	57	0	1010827264	51	4673
2026-01-11 10:19:48.58	331.05	37.47	-39.9	-42.1	14.2	7.00e-07	0	57	0	1013972992	51	4610
2026-01-11 10:19:49.59	331.16	37.24	-39.7	-41.8	14.4	7.00e-07	0	57	0	1017118720	51	4470
2026-01-11 10:19:50.60	331.28	37.00	-39.8	-41.8	14.3	7.00e-07	0	57	0	1020264448	51	4487
2026-01-11 10:19:51.61	331.39	36.77	-39.6	-41.7	14.5	1.50e-06	0	57	0	1023410176	51	4409
2026-01-11 10:19:52.62	331.50	36.54	-39.8	-41.9	14.3	3.00e-06	0	57	0	1026555904	51	4512
2026-01-11 10:19:53.63	331.60	36.31	-39.9	-42.0	14.2	3.00e-06	0	57	0	1029701632	51	4571
2026-01-11 10:19:54.64	331.71	36.08	-39.8	-41.9	14.2	1.50e-06	0	57	0	1032847360	51	4541
2026-01-11 10:19:55.65	331.81	35.85	-39.5	-41.6	14.6	7.00e-07	0	57	0	1035993088	51	4354
2026-01-11 10:19:56.66	331.92	35.63	-39.3	-41.2	15.0	0.00e+00	0	57	0	1039138816	50	4425
2026-01-11 10:19:57.67	332.02	35.40	-39.2	-41.1	15.2	7.00e-07	0	57	0	1042284544	50	4346
2026-01-11 10:19:58.68	332.12	35.18	-39.1	-41.0	15.2	0.00e+00	0	57	0	1045430272	50	4297
2026-01-11 10:19:59.69	332.22	34.96	-39.1	-40.9	15.2	0.00e+00	0	57	0	1048576000	50	4289
2026-01-11 10:20:00.70	332.31	34.74	-39.0	-40.9	15.3	0.00e+00	0	57	0	1052770304	50	4248
2026-01-11 10:20:01.71	332.41	34.52	-39.0	-40.8	15.3	0.00e+00	0	57	0	1054867456	49	4474
2026-01-11 10:20:02.72	332.51	34.31	-38.9	-40.7	15.4	0.00e+00	0	57	0	1058013184	49	4436
2026-01-11 10:20:03.73	332.60	34.09	-39.0	-40.9	15.2	0.00e+00	0	57	0	1061158912	49	4523
2026-01-11 10:20:04.75	332.69	33.88	-39.0	-40.9	15.2	0.00e+00	0	57	0	1064304640	49	4532
2026-01-11 10:20:05.75	332.78	33.67	-39.0	-40.9	15.3	0.00e+00	0	57	0	1068498944	49	4508
2026-01-11 10:20:06.76	332.88	33.46	-38.9	-40.7	15.4	0.00e+00	0	57	0	1071644672	49	4425
2026-01-11 10:20:07.77	332.96	33.25	-38.9	-40.7	15.5	0.00e+00	0	57	0	1074790400	49	4409
2026-01-11 10:20:08.78	333.05	33.04	-38.9	-40.7	15.4	0.00e+00	0	57	0	1076887552	49	4423
2026-01-11 10:20:09.79	333.14	32.83	-38.9	-40.8	15.3	0.00e+00	0	57	0	1080033280	49	4481
2026-01-11 10:20:10.80	333.23	32.63	-38.9	-40.8	15.4	0.00e+00	0	57	0	1084227584	49	4453
2026-01-11 10:20:11.81	333.31	32.42	-38.8	-40.7	15.5	0.00e+00	0	57	0	1087373312	49	4407
2026-01-11 10:20:12.82	333.40	32.22	-38.9	-40.8	15.3	0.00e+00	0	57	0	1090519040	49	4472
2026-01-11 10:20:13.83	333.48	32.02	-39.0	-41.0	15.2	7.00e-07	0	57	0	1093664768	49	4553
2026-01-11 10:20:14.84	333.56	31.82	-39.1	-41.1	15.1	0.00e+00	0	57	0	1096810496	49	4629
2026-01-11 10:20:15.85	333.64	31.62	-39.2	-41.1	15.0	7.00e-07	0	57	0	1099956224	49	4646
2026-01-11 10:20:16.86	333.72	31.42	-39.1	-41.0	15.1	0.00e+00	0	57	0	1103101952	49	4580
2026-01-11 10:20:17.87	333.80	31.22	-39.0	-40.9	15.2	0.00e+00	0	57	0	1106247680	49	4522
2026-01-11 10:20:18.88	333.88	31.03	-39.0	-40.9	15.2	0.00e+00	0	57	0	1109393408	49	4543
2026-01-11 10:20:19.89	333.96	30.84	-39.0	-41.0	15.1	0.00e+00	0	57	0	1112539136	49	4564
2026-01-11 10:20:20.90	334.04	30.64	-39.1	-41.0	15.1	0.00e+00	0	57	0	1115684864	49	4580
2026-01-11 10:20:21.91	334.11	30.45	-38.9	-40.8	15.3	0.00e+00	0	57	0	1118830592	49	4457
2026-01-11 10:20:22.92	334.19	30.26	-38.8	-40.6	15.5	0.00e+00	0	57	0	1121976320	49	4369
2026-01-11 10:20:23.93	334.26	30.07	-38.7	-40.5	15.6	0.00e+00	0	57	0	1125122048	49	4310
2026-01-11 10:20:24.95	334.33	29.88	-38.7	-40.5	15.6	0.00e+00	0	57	0	1128267776	49	4310
2026-01-11 10:20:25.96	334.41	29.70	-38.4	-40.1	15.9	0.00e+00	0	57	0	1131413504	48	4385
2026-01-11 10:20:26.97	334.48	29.51	-38.3	-40.0	16.1	0.00e+00	0	57	0	1134559232	48	4329
2026-01-11 10:20:27.98	334.55	29.33	-38.4	-40.2	15.9	0.00e+00	0	57	0	1137704960	48	4394
2026-01-11 10:20:28.98	334.62	29.15	-38.5	-40.3	15.8	0.00e+00	0	57	0	1140850688	48	4445
2026-01-11 10:20:29.99	334.69	28.97	-38.5	-40.3	15.7	0.00e+00	0	57	0	1143996416	48	4477
2026-01-11 10:20:31.00	334.76	28.78	-38.5	-40.2	15.8	0.00e+00	0	57	0	1147142144	48	4434
2026-01-11 10:20:32.01	334.83	28.61	-38.4	-40.1	16.0	0.00e+00	0	57	0	1150287872	48	4370
2026-01-11 10:20:33.02	334.89	28.43	-38.3	-40.0	16.1	0.00e+00	0	57	0	1153433600	48	4312
2026-01-11 10:20:34.03	334.96	28.25	-38.4	-40.1	16.0	0.00e+00	0	57	0	1156579328	48	4351
2026-01-11 10:20:35.04	335.03	28.07	-38.1	-39.8	16.3	0.00e+00	0	57	0	1159725056	48	4202
2026-01-11 10:20:36.05	335.09	27.90	-38.0	-39.7	16.4	0.00e+00	0	57	0	1162870784	48	4150
2026-01-11 10:20:37.06	335.16	27.72	-38.0	-39.6	16.4	0.00e+00	0	57	0	1166016512	48	4125
2026-01-11 10:20:38.07	335.22	27.55	-38.1	-39.7	16.4	0.00e+00	0	57	0	1169162240	48	4168
2026-01-11 10:20:39.09	335.28	27.38	-37.7	-39.3	16.6	0.00e+00	0	57	0	1172307968	47	4210
2026-01-11 10:20:40.10	335.35	27.21	-37.5	-39.1	16.8	0.00e+00	0	57	0	1175453696	47	4103
2026-01-11 10:20:41.11	335.41	27.04	-37.4	-38.9	17.0	0.00e+00	0	57	0	1178599424	46	4265
2026-01-11 10:20:42.12	335.47	26.87	-37.4	-38.9	17.0	0.00e+00	0	57	0	1181745152	46	4271
2026-01-11 10:20:43.13	335.53	26.70	-37.3	-38.8	17.1	0.00e+00	0	57	0	1184890880	46	4226
2026-01-11 10:20:44.13	335.59	26.53	-37.2	-38.7	17.2	0.00e+00	0	57	0	1188036608	46	4177
2026-01-11 10:20:45.14	335.65	26.37	-37.1	-38.6	17.3	0.00e+00	0	57	0	1191182336	46	4136
2026-01-11 10:20:46.15	335.71	26.20	-37.2	-38.7	17.2	0.00e+00	0	57	0	1194328064	46	4171
2026-01-11 10:20:47.16	335.77	26.04	-37.3	-38.8	17.1	0.00e+00	0	57	0	1197473792	46	4205
2026-01-11 10:20:48.17	335.83	25.88	-37.4	-38.9	16.9	0.00e+00	0	57	0	1200619520	46	4288
2026-01-11 10:20:49.18	335.88	25.72	-37.5	-39.0	16.8	0.00e+00	0	57	0	1203765248	46	4328
2026-01-11 10:20:50.19	335.94	25.55	-37.5	-39.1	16.8	0.00e+00	0	57	0	1206910976	46	4364
2026-01-11 10:20:51.20	336.00	25.39	-37.5	-39.1	16.7	0.00e+00	0	57	0	1210056704	46	4376
2026-01-11 10:20:52.21	336.05	25.24	-37.6	-39.2	16.6	0.00e+00	0	57	0	1213202432	46	4422
2026-01-11 10:20:53.22	336.11	25.08	-37.5	-39.1	16.8	0.00e+00	0	57	0	1216348160	46	4342
2026-01-11 10:20:54.23	336.16	24.92	-37.4	-39.0	16.8	0.00e+00	0	57	0	1219493888	46	4314
2026-01-11 10:20:55.24	336.22	24.76	-37.4	-39.0	16.8	0.00e+00	0	57	0	1222639616	46	4310
2026-01-11 10:20:56.25	336.27	24.61	-37.5	-39.0	16.7	0.00e+00	0	57	0	1225785344	46	4339
2026-01-11 10:20:57.26	336.33	24.45	-37.4	-39.0	16.8	0.00e+00	0	57	0	1228931072	46	4317
2026-01-11 10:20:58.28	336.38	24.30	-37.5	-39.1	16.7	0.00e+00	0	57	0	1232076800	46	4362
2026-01-11 10:20:59.29	336.43	24.15	-37.6	-39.3	16.5	0.00e+00	0	57	0	1235222528	46	4454
2026-01-11 10:21:00.30	336.48	23.99	-37.7	-39.3	16.5	0.00e+00	0	57	0	1238368256	46	4453
2026-01-11 10:21:01.31	336.53	23.84	-37.7	-39.4	16.4	0.00e+00	0	57	0	1241513984	46	4520
2026-01-11 10:21:02.32	336.59	23.69	-37.9	-39.6	16.2	0.00e+00	0	57	0	1244659712	46	4604
2026-01-11 10:21:03.33	336.64	23.54	-37.9	-39.6	16.2	0.00e+00	0	57	0	1247805440	46	4599
2026-01-11 10:21:04.34	336.69	23.40	-37.8	-39.5	16.3	0.00e+00	0	57	0	1250951168	46	4569
2026-01-11 10:21:05.35	336.74	23.25	-37.8	-39.5	16.2	0.00e+00	0	57	0	1254096896	46	4583
2026-01-11 10:21:06.36	336.79	23.10	-37.9	-39.6	16.1	0.00e+00	0	57	0	1257242624	46	4613
2026-01-11 10:21:07.37	336.83	22.95	-37.9	-39.7	16.1	0.00e+00	0	57	0	1260388352	46	4656
2026-01-11 10:21:08.37	336.88	22.81	-37.9	-39.5	16.1	0.00e+00	0	57	0	1263534080	46	4597
2026-01-11 10:21:09.38	336.93	22.67	-37.8	-39.5	16.2	0.00e+00	0	57	0	1266679808	46	4598
2026-01-11 10:21:10.39	336.98	22.52	-37.9	-39.7	16.0	0.00e+00	0	57	0	1269825536	46	4656
2026-01-11 10:21:11.40	337.03	22.38	-37.9	-39.6	16.1	0.00e+00	0	57	0	1272971264	46	4628
2026-01-11 10:21:12.41	337.07	22.24	-37.9	-39.6	16.0	0.00e+00	0	57	0	1276116992	46	4646
2026-01-11 10:21:13.42	337.12	22.10	-37.9	-39.6	16.0	0.00e+00	0	57	0	1279262720	46	4645
2026-01-11 10:21:14.43	337.16	21.96	-37.7	-39.4	16.2	0.00e+00	0	57	0	1282408448	46	4536
2026-01-11 10:21:15.44	337.21	21.82	-37.7	-39.4	16.2	0.00e+00	0	57	0	1285554176	46	4517
2026-01-11 10:21:16.45	337.26	21.68	-37.7	-39.4	16.1	0.00e+00	0	57	0	1288699904	46	4531
2026-01-11 10:21:17.46	337.30	21.54	-37.7	-39.4	16.1	0.00e+00	0	57	0	1291845632	46	4513
2026-01-11 10:21:18.47	337.35	21.40	-37.6	-39.3	16.2	0.00e+00	0	57	0	1294991360	46	4470
2026-01-11 10:21:19.49	337.39	21.26	-37.7	-39.4	16.1	0.00e+00	0	57	0	1298137088	46	4503
2026-01-11 10:21:20.50	337.43	21.13	-37.6	-39.4	16.1	0.00e+00	0	57	0	1301282816	46	4500
2026-01-11 10:21:21.51	337.48	20.99	-37.6	-39.3	16.1	0.00e+00	0	57	0	1304428544	46	4493
2026-01-11 10:21:22.52	337.52	20.86	-37.7	-39.5	15.9	0.00e+00	0	57	0	1307574272	46	4547
2026-01-11 10:21:23.53	337.56	20.72	-37.7	-39.5	15.8	0.00e+00	0	57	0	1310720000	46	4570
2026-01-11 10:21:24.54	337.61	20.59	-37.8	-39.6	15.7	0.00e+00	0	57	0	1313865728	46	4610
2026-01-11 10:21:25.55	337.65	20.46	-37.8	-39.7	15.5	0.00e+00	0	57	0	1317011456	46	4685
2026-01-11 10:21:26.56	337.69	20.33	-37.8	-39.7	15.4	0.00e+00	0	57	0	1320157184	46	4691
2026-01-11 10:21:27.57	337.73	20.20	-37.8	-39.7	15.5	0.00e+00	0	57	0	1323302912	46	4657
2026-01-11 10:21:28.58	337.77	20.07	-37.8	-39.6	15.4	0.00e+00	0	57	0	1326448640	46	4648
2026-01-11 10:21:29.59	337.81	19.94	-37.8	-39.7	15.3	0.00e+00	0	57	0	1329594368	46	4703
2026-01-11 10:21:30.60	337.85	19.81	-37.9	-39.8	15.2	0.00e+00	0	57	0	1332740096	46	4733
2026-01-11 10:21:31.60	337.89	19.68	-37.6	-39.5	15.5	0.00e+00	0	57	0	1335885824	46	4546
2026-01-11 10:21:32.61	337.93	19.55	-37.3	-39.2	15.8	0.00e+00	0	57	0	1339031552	46	4395
2026-01-11 10:21:33.63	337.97	19.42	-37.3	-39.1	15.9	0.00e+00	0	57	0	1342177280	46	4342
2026-01-11 10:21:34.64	338.01	19.30	-37.3	-39.1	15.8	0.00e+00	0	57	0	1345323008	46	4366
2026-01-11 10:21:35.65	338.05	19.17	-37.2	-39.0	15.9	0.00e+00	0	57	0	1348468736	46	4306
2026-01-11 10:21:36.66	338.09	19.05	-37.1	-38.8	16.0	0.00e+00	0	57	0	1351614464	46	4223
2026-01-11 10:21:37.67	338.13	18.92	-37.1	-38.9	15.9	0.00e+00	0	57	0	1354760192	46	4245
2026-01-11 10:21:38.68	338.17	18.80	-37.1	-38.9	15.9	0.00e+00	0	57	0	1357905920	46	4254
2026-01-11 10:21:39.69	338.21	18.67	-37.1	-38.8	15.9	0.00e+00	0	57	0	1361051648	46	4235
2026-01-11 10:21:40.70	338.24	18.55	-37.1	-38.9	15.8	0.00e+00	0	57	0	1365245952	46	4264
2026-01-11 10:21:41.71	338.28	18.43	-37.2	-39.1	15.6	0.00e+00	0	57	0	1368391680	46	4350
2026-01-11 10:21:42.72	338.32	18.31	-37.2	-39.1	15.6	0.00e+00	0	57	0	1370488832	46	4344
2026-01-11 10:21:43.73	338.36	18.19	-37.3	-39.2	15.4	0.00e+00	0	57	0	1373634560	46	4414
2026-01-11 10:21:44.74	338.39	18.07	-37.2	-39.1	15.5	0.00e+00	0	57	0	1376780288	46	4341
2026-01-11 10:21:45.75	338.43	17.95	-37.1	-39.0	15.5	0.00e+00	0	57	0	1380974592	46	4334
2026-01-11 10:21:46.76	338.46	17.83	-37.1	-39.0	15.4	0.00e+00	0	57	0	1384120320	46	4313
2026-01-11 10:21:47.77	338.50	17.71	-37.2	-39.1	15.2	0.00e+00	0	57	0	1387266048	46	4381
2026-01-11 10:21:48.78	338.54	17.59	-37.4	-39.3	15.0	7.00e-07	0	57	0	1390411776	46	4493
2026-01-11 10:21:49.79	338.57	17.47	-37.4	-39.5	14.8	0.00e+00	0	57	0	1392508928	46	4562
2026-01-11 10:21:50.80	338.61	17.35	-37.5	-39.6	14.6	0.00e+00	0	57	0	1396703232	46	4618
2026-01-11 10:21:51.81	338.64	17.24	-37.6	-39.8	14.3	0.00e+00	0	57	0	1399848960	46	4722
2026-01-11 10:21:52.82	338.68	17.12	-37.7	-40.0	14.0	5.30e-06	0	57	0	1402994688	46	4843
2026-01-11 10:21:53.83	338.71	17.01	-37.9	-40.2	13.7	4.50e-06	0	57	0	1406140416	46	4964
2026-01-11 10:21:54.84	338.75	16.89	-38.0	-40.5	13.3	1.37e-05	0	57	0	1409286144	46	5103
2026-01-11 10:21:55.85	338.78	16.78	-38.1	-40.7	13.0	2.89e-05	0	57	0	1412431872	46	5238
2026-01-11 10:21:56.86	338.81	16.66	-38.2	-40.9	12.7	5.79e-05	0	57	0	1415577600	47	5069
2026-01-11 10:21:57.87	338.85	16.55	-38.4	-41.2	12.4	1.68e-04	0	57	0	1418723328	47	5248
2026-01-11 10:21:58.88	338.88	16.44	-38.6	-41.5	11.9	2.66e-04	0	57	0	1421869056	47	5454
2026-01-11 10:21:59.89	338.91	16.33	-38.8	-41.9	11.6	6.81e-04	0	57	0	1425014784	48	5351
2026-01-11 10:22:00.90	338.95	16.21	-39.0	-42.2	11.2	1.15e-03	0	57	0	1428160512	48	5572
2026-01-11 10:22:01.91	338.98	16.10	-39.1	-42.5	10.8	2.22e-03	0	57	0	1431306240	48	5788
2026-01-11 10:22:02.92	339.01	15.99	-39.3	-42.9	10.4	4.35e-03	0	57	0	1434451968	49	5675
2026-01-11 10:22:03.93	339.04	15.88	-39.5	-43.4	9.8	8.70e-03	0	57	0	1437597696	49	5999
2026-01-11 10:22:04.94	339.08	15.77	-39.7	-43.7	9.5	1.32e-02	0	57	0	1440743424	49	6237
2026-01-11 10:22:05.95	339.11	15.66	-39.8	-44.1	9.0	2.24e-02	0	57	0	1443889152	50	6164
2026-01-11 10:22:06.96	339.14	15.55	-39.9	-44.3	8.7	3.21e-02	0	57	0	1447034880	50	6339
2026-01-11 10:22:07.97	339.17	15.45	-40.0	-44.7	8.3	5.02e-02	0	57	0	1450180608	50	6576
2026-01-11 10:22:08.98	339.20	15.34	-40.1	-45.1	7.8	7.22e-02	0	57	0	1453326336	50	6883
2026-01-11 10:22:09.99	339.23	15.23	-40.1	-45.4	7.4	1.10e-01	0	57	0	1456472064	50	7178
2026-01-11 10:22:11.00	339.26	15.12	-40.2	-45.7	7.0	1.45e-01	0	57	0	1459617792	50	7411
2026-01-11 10:22:12.01	339.29	15.02	-40.2	-45.9	6.7	1.92e-01	0	57	0	1462763520	50	7622
2026-01-11 10:22:13.02	339.33	14.91	-40.2	-46.1	6.5	2.26e-01	0	57	0	1465909248	51	7325
2026-01-11 10:22:14.03	339.36	14.81	-40.2	-46.1	6.6	2.06e-01	0	57	0	1469054976	51	7353
2026-01-11 10:22:15.04	339.39	14.70	-40.3	-46.5	6.2	2.59e-01	0	57	0	1472200704	51	7686
2026-01-11 10:22:16.05	339.42	14.60	-40.3	-46.9	5.9	3.36e-01	0	57	0	1475346432	51	7994
2026-01-11 10:22:17.06	339.45	14.49	-40.4	-47.1	5.7	4.11e-01	0	57	0	1478492160	51	8256
2026-01-11 10:22:18.07	339.48	14.39	-40.5	-47.2	5.7	4.21e-01	0	57	0	1481637888	51	8321
2026-01-11 10:22:19.08	339.50	14.29	-40.5	-47.2	5.7	4.05e-01	0	57	0	1484783616	51	8357
2026-01-11 10:22:20.09	339.53	14.18	-40.7	-47.6	5.5	4.66e-01	0	57	0	1487929344	51	8730
2026-01-11 10:22:21.10	339.56	14.08	-40.7	-48.0	5.2	5.75e-01	0	57	0	1491075072	52	8609
2026-01-11 10:22:22.11	339.59	13.98	-40.7	-48.2	5.0	6.84e-01	0	57	0	1494220800	52	8839
2026-01-11 10:22:23.12	339.62	13.88	-40.8	-48.7	4.8	1.43e+00	0	57	104	1496317952	52	9285
2026-01-11 10:22:24.13	339.65	13.78	-40.8	-49.0	4.6	1.22e+00	0	57	104	1496317952	52	9672
2026-01-11 10:22:25.14	339.68	13.67	-40.8	-49.8	4.0	1.30e+00	0	57	104	1496317952	52	10614
2026-01-11 10:22:26.15	339.71	13.57	-40.8	-49.6	4.3	1.43e+00	0	57	104	1496317952	52	10366
2026-01-11 10:22:27.16	339.73	13.47	-40.8	-50.4	3.9	1.46e+00	0	57	104	1496317952	52	11287
2026-01-11 10:22:28.17	339.76	13.37	-41.2	-52.3	3.8	1.48e+00	0	57	104	1496317952	53	13346
2026-01-11 10:22:29.18	339.79	13.28	-40.8	-52.7	3.8	1.49e+00	0	57	104	1496317952	53	14008
2026-01-11 10:22:30.19	339.82	13.18	-41.4	-50.1	4.4	1.46e+00	0	57	104	1496317952	53	10357
2026-01-11 10:22:31.20	339.84	13.08	-40.6	-52.8	3.8	1.49e+00	0	57	104	1496317952	53	14166
2026-01-11 10:22:32.21	339.87	12.98	-40.9	-50.4	4.1	1.46e+00	0	57	104	1496317952	53	10765
2026-01-11 10:22:33.22	339.90	12.88	-40.9	-50.7	4.0	1.47e+00	0	57	104	1496317952	53	11107
2026-01-11 10:22:34.23	339.93	12.79	-40.8	-51.3	3.9	1.48e+00	0	57	104	1496317952	53	11848
2026-01-11 10:22:35.24	339.95	12.69	-40.5	-52.4	3.8	1.49e+00	0	57	104	1496317952	53	13439
2026-01-11 10:22:36.25	339.98	12.59	-41.2	-51.4	3.9	1.48e+00	0	57	104	1496317952	53	12087
2026-01-11 10:22:37.26	340.01	12.50	-40.5	-52.7	3.8	1.49e+00	0	57	104	1496317952	52	14787
2026-01-11 10:22:38.27	340.03	12.40	-40.8	-52.9	3.8	1.49e+00	0	57	104	1496317952	52	15189
2026-01-11 10:22:39.28	340.06	12.31	-41.1	-52.6	3.8	1.49e+00	0	57	104	1496317952	53	13748
2026-01-11 10:22:40.29	340.09	12.21	-40.9	-51.8	3.8	1.49e+00	0	57	104	1496317952	53	12632
2026-01-11 10:22:41.30	340.11	12.12	-40.9	-51.8	3.8	1.49e+00	0	57	104	1496317952	53	12555
2026-01-11 10:22:42.30	340.14	12.02	-40.8	-51.9	3.8	1.49e+00	0	57	104	1496317952	53	12751
2026-01-11 10:22:43.31	340.16	11.93	-40.7	-52.2	3.8	1.49e+00	0	57	104	1496317952	53	13137
2026-01-11 10:22:44.32	340.19	11.84	-40.9	-52.2	3.8	1.49e+00	0	57	104	1496317952	53	13160
2026-01-11 10:22:45.33	340.21	11.74	-40.5	-52.8	3.8	1.49e+00	0	57	104	1496317952	53	14199
2026-01-11 10:22:46.34	340.24	11.65	-40.6	-52.7	3.8	1.49e+00	0	57	104	1496317952	52	14815
2026-01-11 10:22:47.35	340.26	11.56	-41.0	-52.9	3.8	1.49e+00	0	57	104	1496317952	52	15074
2026-01-11 10:22:48.37	340.29	11.46	-40.8	-52.5	3.8	1.49e+00	0	57	104	1496317952	52	14459
2026-01-11 10:22:49.37	340.31	11.37	-40.8	-52.6	3.8	1.49e+00	0	57	104	1496317952	52	14630
2026-01-11 10:22:50.38	340.34	11.28	-40.7	-52.7	3.8	1.49e+00	0	57	104	1496317952	52	14733
2026-01-11 10:22:51.39	340.36	11.19	-40.6	-52.6	3.8	1.49e+00	0	57	104	1496317952	52	14546
2026-01-11 10:22:52.40	340.39	11.10	-40.6	-52.6	3.8	1.49e+00	0	57	104	1496317952	52	14556
2026-01-11 10:22:53.41	340.41	11.01	-40.2	-52.6	3.8	1.49e+00	0	57	104	1496317952	52	14683
2026-01-11 10:22:54.42	340.44	10.92	-40.4	-52.7	3.8	1.49e+00	0	57	104	1496317952	52	14719
2026-01-11 10:22:55.43	340.46	10.83	-40.4	-52.6	3.8	1.49e+00	0	57	104	1496317952	52	14696
2026-01-11 10:22:56.44	340.48	10.74	-40.4	-52.6	3.8	1.49e+00	0	57	104	1496317952	52	14615
2026-01-11 10:22:57.46	340.51	10.65	-40.6	-52.7	3.8	1.49e+00	0	57	104	1496317952	52	14745
2026-01-11 10:22:58.46	340.53	10.56	-40.4	-52.6	3.8	1.49e+00	0	57	104	1496317952	52	14656
2026-01-11 10:22:59.48	340.56	10.47	-40.3	-52.6	3.8	1.49e+00	0	57	104	1496317952	52	14671
2026-01-11 10:23:00.49	340.58	10.39	-40.4	-52.6	3.8	1.49e+00	0	57	104	1496317952	52	14619
2026-01-11 10:23:01.50	340.60	10.30	-40.2	-52.5	3.8	1.49e+00	0	57	104	1496317952	52	14531
2026-01-11 10:23:02.51	340.63	10.21	-40.3	-52.6	3.8	1.49e+00	0	57	104	1496317952	52	14596
2026-01-11 10:23:03.52	340.65	10.12	-40.3	-52.6	3.8	1.49e+00	0	57	104	1496317952	52	14575
2026-01-11 10:23:04.53	340.67	10.04	-40.3	-52.6	3.8	1.49e+00	0	57	104	1496317952	52	14571
2026-01-11 10:23:05.54	340.70	9.95	-40.4	-52.6	3.8	1.49e+00	0	57	104	1496317952	52	14625
2026-01-11 10:23:06.55	340.72	9.86	-40.3	-52.6	3.8	1.49e+00	0	57	104	1496317952	52	14608
2026-01-11 10:23:07.56	340.74	9.78	-40.3	-52.6	3.8	1.49e+00	0	57	104	1496317952	52	14606
2026-01-11 10:23:08.57	340.76	9.69	-40.3	-52.6	3.8	1.49e+00	0	57	104	1496317952	52	14600
2026-01-11 10:23:09.58	340.79	9.61	-40.3	-52.6	3.8	1.49e+00	0	57	104	1496317952	52	14569
2026-01-11 10:23:10.59	340.81	9.52	-40.3	-52.6	3.8	1.49e+00	0	57	104	1496317952	52	14703
2026-01-11 10:23:11.60	340.83	9.44	-40.3	-52.6	3.8	1.49e+00	0	57	104	1496317952	52	14642
2026-01-11 10:23:12.61	340.85	9.35	-40.3	-52.6	3.8	1.49e+00	0	57	104	1496317952	52	14595
2026-01-11 10:23:13.62	340.88	9.27	-40.3	-52.7	3.8	1.49e+00	0	57	104	1496317952	52	14772
2026-01-11 10:23:14.63	340.90	9.18	-40.3	-52.6	3.8	1.49e+00	0	57	104	1496317952	52	14671
2026-01-11 10:23:15.64	340.92	9.10	-40.4	-52.7	3.8	1.49e+00	0	57	104	1496317952	52	14799
2026-01-11 10:23:16.65	340.94	9.02	-40.2	-52.6	3.8	1.49e+00	0	57	104	1496317952	52	14553
2026-01-11 10:23:17.66	340.96	8.93	-40.4	-52.7	3.8	1.49e+00	0	57	104	1496317952	52	14814
2026-01-11 10:23:18.67	340.99	8.85	-40.3	-52.7	3.8	1.49e+00	0	57	104	1496317952	52	14719
2026-01-11 10:23:19.68	341.01	8.77	-40.4	-52.8	3.8	1.49e+00	0	57	104	1496317952	52	14977
2026-01-11 10:23:20.69	341.03	8.69	-40.3	-52.6	3.8	1.49e+00	0	57	104	1496317952	52	14693
2026-01-11 10:23:21.70	341.05	8.60	-40.6	-52.9	3.8	1.49e+00	0	57	104	1496317952	52	15108
2026-01-11 10:23:22.71	341.07	8.52	-40.3	-52.6	3.8	1.49e+00	0	57	104	1496317952	52	14640
2026-01-11 10:23:23.72	341.09	8.44	-40.5	-52.9	3.8	1.49e+00	0	57	104	1496317952	52	15074
2026-01-11 10:23:24.73	341.11	8.36	-40.3	-52.6	3.8	1.49e+00	0	57	104	1496317952	52	14679
2026-01-11 10:23:25.74	341.13	8.28	-40.3	-52.6	3.8	1.49e+00	0	57	104	1496317952	52	14610
2026-01-11 10:23:26.75	341.16	8.20	-40.4	-52.7	3.8	1.49e+00	0	57	104	1496317952	52	14715
2026-01-11 10:23:27.76	341.18	8.12	-40.3	-52.6	3.8	1.49e+00	0	57	104	1496317952	52	14575
2026-01-11 10:23:28.77	341.20	8.04	-40.4	-52.7	3.8	1.49e+00	0	57	104	1496317952	52	14832
2026-01-11 10:23:29.78	341.22	7.96	-40.6	-52.9	3.8	1.49e+00	0	57	104	1496317952	52	15065
2026-01-11 10:23:30.80	341.24	7.88	-43.3	-55.8	3.9	1.49e+00	0	57	104	1496317952	57	15816
2026-01-11 10:23:31.81	341.26	7.80	-44.5	-56.8	3.8	1.49e+00	0	57	104	1496317952	59	15911
2026-01-11 10:23:32.82	341.28	7.72	-44.8	-57.3	3.8	1.49e+00	0	57	104	1496317952	60	15797
2026-01-11 10:23:33.83	341.30	7.64	-45.0	-57.5	3.8	1.49e+00	0	57	104	1496317952	60	16173
2026-01-11 10:23:34.84	341.32	7.56	-45.1	-57.6	3.8	1.49e+00	0	57	104	1496317952	60	16437
2026-01-11 10:23:35.85	341.34	7.48	-45.2	-57.7	3.8	1.49e+00	0	57	104	1496317952	60	16541
2026-01-11 10:23:36.86	341.36	7.40	-45.2	-57.8	3.8	1.49e+00	0	57	104	1496317952	61	15772
2026-01-11 10:23:37.87	341.38	7.33	-45.3	-57.8	3.8	1.49e+00	0	57	104	1496317952	61	15778
2026-01-11 10:23:38.88	341.40	7.25	-45.2	-57.8	3.8	1.49e+00	0	57	104	1496317952	61	15799
2026-01-11 10:23:39.89	341.42	7.17	-45.2	-57.8	3.8	1.49e+00	0	57	104	1496317952	60	16718
2026-01-11 10:23:40.91	341.44	7.09	-45.0	-57.7	3.8	1.49e+00	0	57	104	1496317952	60	16683
2026-01-11 10:23:41.92	341.46	7.01	-45.1	-57.7	3.8	1.49e+00	0	57	104	1496317952	60	16628
2026-01-11 10:23:42.93	341.48	6.94	-45.1	-57.7	3.8	1.49e+00	0	57	104	1496317952	60	16597
2026-01-11 10:23:43.94	341.50	6.86	-44.9	-57.7	3.8	1.49e+00	0	57	104	1496317952	60	16571
2026-01-11 10:23:44.95	341.52	6.79	-44.9	-57.7	3.8	1.49e+00	0	57	104	1496317952	60	16591
2026-01-11 10:23:45.96	341.54	6.71	-44.8	-57.7	3.8	1.49e+00	0	57	104	1496317952	60	16551
2026-01-11 10:23:46.97	341.56	6.63	-44.9	-57.7	3.8	1.49e+00	0	57	104	1496317952	60	16525
2026-01-11 10:23:47.98	341.58	6.56	-45.1	-57.7	3.8	1.49e+00	0	57	104	1496317952	60	16512
2026-01-11 10:23:48.99	341.59	6.48	-44.8	-57.6	3.8	1.49e+00	0	57	104	1496317952	60	16502
2026-01-11 10:23:50.01	341.61	6.41	-45.1	-57.7	3.8	1.49e+00	0	57	104	1496317952	60	16553
2026-01-11 10:23:51.02	341.63	6.33	-45.0	-57.6	3.8	1.49e+00	0	57	104	1496317952	60	16462
2026-01-11 10:23:52.03	341.65	6.26	-45.1	-57.6	3.8	1.49e+00	0	57	104	1496317952	60	16465
2026-01-11 10:23:53.04	341.67	6.18	-45.1	-57.6	3.8	1.49e+00	0	57	104	1496317952	60	16457
2026-01-11 10:23:54.05	341.69	6.11	-44.9	-57.6	3.8	1.49e+00	0	57	104	1496317952	60	16441
2026-01-11 10:23:55.06	341.71	6.03	-45.1	-57.6	3.8	1.49e+00	0	57	104	1496317952	60	16459
2026-01-11 10:23:56.07	341.73	5.96	-45.1	-57.6	3.8	1.49e+00	0	57	104	1496317952	60	16429
2026-01-11 10:23:57.08	341.74	5.88	-45.1	-57.6	3.8	1.49e+00	0	57	104	1496317952	60	16502
2026-01-11 10:23:58.09	341.76	5.81	-45.1	-57.7	3.8	1.49e+00	0	57	104	1496317952	60	16508
2026-01-11 10:23:59.10	341.78	5.74	-45.1	-57.6	3.8	1.49e+00	0	57	104	1496317952	60	16458
2026-01-11 10:24:00.11	341.80	5.66	-45.1	-57.7	3.8	1.49e+00	0	57	104	1496317952	60	16517
2026-01-11 10:24:01.12	341.82	5.59	-45.1	-57.6	3.8	1.49e+00	0	57	104	1496317952	60	16422
2026-01-11 10:24:02.14	341.84	5.52	-45.1	-57.6	3.8	1.49e+00	0	57	104	1496317952	60	16414
2026-01-11 10:24:03.15	341.85	5.45	-45.0	-57.6	3.8	1.49e+00	0	57	104	1496317952	60	16448
2026-01-11 10:24:04.16	341.87	5.37	-45.1	-57.6	3.8	1.49e+00	0	57	104	1496317952	60	16481
2026-01-11 10:24:05.17	341.89	5.30	-45.1	-57.6	3.8	1.49e+00	0	57	104	1496317952	60	16424
2026-01-11 10:24:06.18	341.91	5.23	-45.1	-57.6	3.8	1.49e+00	0	57	104	1496317952	60	16456
2026-01-11 10:24:07.19	341.93	5.16	-45.1	-57.6	3.8	1.49e+00	0	57	104	1496317952	60	16416
2026-01-11 10:24:08.20	341.94	5.09	-45.1	-57.6	3.8	1.49e+00	0	57	104	1496317952	60	16421
2026-01-11 10:24:09.21	341.96	5.01	-45.1	-57.6	3.8	1.49e+00	0	57	104	1496317952	60	16449
2026-01-11 10:24:10.22	341.98	4.94	-45.1	-57.6	3.8	1.49e+00	0	57	104	1496317952	60	16415
2026-01-11 10:24:11.23	342.00	4.87	-45.1	-57.6	3.8	1.49e+00	0	58	104	1496317952	60	16412
2026-01-11 10:24:12.24	342.01	4.80	-45.1	-57.6	3.8	1.49e+00	0	57	104	1496317952	60	16403
2026-01-11 10:24:13.25	342.03	4.73	-45.1	-57.6	3.8	1.49e+00	0	57	104	1496317952	60	16410
2026-01-11 10:24:14.26	342.05	4.66	-45.1	-57.6	3.8	1.49e+00	0	57	104	1496317952	60	16427
2026-01-11 10:24:15.28	342.07	4.59	-45.1	-57.6	3.8	1.49e+00	0	58	104	1496317952	60	16424
2026-01-11 10:24:16.29	342.08	4.52	-45.1	-57.6	3.8	1.49e+00	0	57	104	1496317952	60	16411
2026-01-11 10:24:17.30	342.10	4.45	-45.1	-57.6	3.8	1.49e+00	0	57	104	1496317952	60	16382
2026-01-11 10:24:18.31	342.12	4.38	-45.1	-57.6	3.8	1.49e+00	0	57	104	1496317952	60	16384
2026-01-11 10:24:19.32	342.13	4.31	-45.1	-57.6	3.8	1.49e+00	0	57	104	1496317952	60	16415
2026-01-11 10:24:20.33	342.15	4.24	-45.0	-57.6	3.8	1.49e+00	0	57	104	1496317952	60	16430
2026-01-11 10:24:21.34	342.17	4.17	-45.0	-57.6	3.8	1.49e+00	0	57	104	1496317952	60	16390
2026-01-11 10:24:22.35	342.19	4.10	-45.0	-57.6	3.8	1.49e+00	0	57	104	1496317952	60	16424
2026-01-11 10:24:23.36	342.20	4.03	-45.1	-57.6	3.8	1.49e+00	0	58	104	1496317952	60	16450
2026-01-11 10:24:24.38	342.22	3.96	-45.1	-57.6	3.8	1.49e+00	0	57	104	1496317952	60	16379
2026-01-11 10:24:25.39	342.24	3.90	-45.0	-57.6	3.8	1.49e+00	0	57	104	1496317952	60	16389
2026-01-11 10:24:26.40	342.25	3.83	-45.0	-57.6	3.8	1.49e+00	0	57	104	1496317952	60	16381
2026-01-11 10:24:27.41	342.27	3.76	-45.0	-57.6	3.8	1.49e+00	0	57	104	1496317952	60	16378
2026-01-11 10:24:28.42	342.29	3.69	-45.0	-57.6	3.8	1.49e+00	0	57	104	1496317952	60	16401
2026-01-11 10:24:29.43	342.30	3.62	-45.0	-57.6	3.8	1.49e+00	0	57	104	1496317952	60	16389
2026-01-11 10:24:30.44	342.32	3.56	-45.0	-57.6	3.8	1.49e+00	0	57	104	1496317952	60	16375
2026-01-11 10:24:31.45	342.34	3.49	-45.0	-57.6	3.8	1.49e+00	0	57	104	1496317952	60	16397
2026-01-11 10:24:32.47	342.35	3.42	-45.0	-57.6	3.8	1.49e+00	0	57	104	1496317952	60	16378
2026-01-11 10:24:33.48	342.37	3.35	-45.0	-57.6	3.8	1.49e+00	0	57	104	1496317952	60	16391
2026-01-11 10:24:34.49	342.38	3.29	-45.0	-57.6	3.8	1.49e+00	0	57	104	1496317952	60	16370
2026-01-11 10:24:35.50	342.40	3.22	-45.0	-57.6	3.8	1.49e+00	0	57	104	1496317952	60	16391
2026-01-11 10:24:36.51	342.42	3.15	-45.0	-57.6	3.8	1.49e+00	0	57	104	1496317952	60	16407
2026-01-11 10:24:37.52	342.43	3.09	-45.0	-57.6	3.8	1.49e+00	0	57	104	1496317952	60	16355
2026-01-11 10:24:38.53	342.45	3.02	-45.0	-57.6	3.8	1.49e+00	0	57	104	1496317952	60	16347
2026-01-11 10:24:39.54	342.46	2.95	-45.0	-57.6	3.8	1.49e+00	0	57	104	1496317952	60	16365
2026-01-11 10:24:40.55	342.48	2.89	-45.1	-57.6	3.8	1.49e+00	0	58	104	1496317952	60	16412
2026-01-11 10:24:41.56	342.50	2.82	-45.0	-57.6	3.8	1.49e+00	0	57	104	1496317952	60	16366
2026-01-11 10:24:42.58	342.51	2.75	-45.0	-57.6	3.8	1.49e+00	0	57	104	1496317952	60	16414
2026-01-11 10:24:43.59	342.53	2.69	-45.0	-57.6	3.8	1.49e+00	0	57	104	1496317952	60	16351
2026-01-11 10:24:44.60	342.54	2.62	-45.0	-57.6	3.8	1.49e+00	0	58	104	1496317952	60	16342
2026-01-11 10:24:45.61	342.56	2.56	-45.0	-57.6	3.8	1.49e+00	0	58	104	1496317952	60	16388
2026-01-11 10:24:46.62	342.57	2.49	-45.0	-57.6	3.8	1.49e+00	0	57	104	1496317952	60	16361
2026-01-11 10:24:47.63	342.59	2.43	-45.0	-57.6	3.8	1.49e+00	0	57	104	1496317952	60	16374
2026-01-11 10:24:48.64	342.61	2.36	-45.0	-57.6	3.8	1.49e+00	0	57	104	1496317952	60	16387
2026-01-11 10:24:49.65	342.62	2.30	-45.0	-57.6	3.8	1.49e+00	0	57	104	1496317952	60	16389
2026-01-11 10:24:50.66	342.64	2.23	-45.0	-57.6	3.8	1.49e+00	0	58	104	1496317952	60	16381
2026-01-11 10:24:51.67	342.65	2.17	-45.0	-57.6	3.8	1.49e+00	0	57	104	1496317952	60	16366
2026-01-11 10:24:52.68	342.67	2.11	-45.0	-57.6	3.8	1.49e+00	0	57	104	1496317952	60	16383
2026-01-11 10:24:53.70	342.68	2.04	-45.0	-57.6	3.8	1.49e+00	0	57	104	1496317952	60	16383
2026-01-11 10:24:54.71	342.70	1.98	-44.7	-57.6	3.8	1.49e+00	0	57	104	1496317952	60	16415
2026-01-11 10:24:55.72	342.71	1.91	-45.0	-57.6	3.8	1.49e+00	0	57	104	1496317952	60	16382

#Closed at: 2026-01-11 10:24:56
#Recorded file [1496 MB]: D:/lorett/data/31039_260111_131344.dat