passes_logs/2026/01/11/R2.0S_Moscow/R2.0S_Moscow__20260111_110125_NOAA_20_JPSS-1_rec.log

#Pass ID: 20260111_110125_NOAA 20 (JPSS-1)
#Satellite: NOAA 20 (JPSS-1)
#Configuration: NOAA 20
#almurnet v.1.7.20251203
#Start time: 2026-01-11 11:01:26

#Version: 2.2.20231116
#Station: R2.0S_Moscow
#Location: 37.707566 lon 55.798166 lat
#TLE: 1 43013U 17073A   26009.69119415  .00000109  00000+0  72598-4 0  9996
#TLE: 2 43013  98.7631 310.6868 0001678  46.7442 313.3874 14.19534878421981

#Time	Az	El	Level	Level2	SNR	BER	BlckErr	Temp	State	Recorded	gain1	gain2
2026-01-11 11:01:26.87	193.58	2.11	-43.1	-57.8	3.8	1.49e+00	0	48	0	0	56	21212
2026-01-11 11:01:27.87	193.64	2.17	-43.1	-57.8	3.8	1.49e+00	0	49	104	0	58	18879
2026-01-11 11:01:28.88	193.69	2.23	-43.1	-57.8	3.8	1.49e+00	0	49	104	0	58	18902
2026-01-11 11:01:29.90	193.75	2.30	-43.1	-57.8	3.8	1.49e+00	0	49	104	0	58	18886
2026-01-11 11:01:30.91	193.80	2.36	-43.1	-57.8	3.8	1.49e+00	0	49	104	0	58	18942
2026-01-11 11:01:31.92	193.85	2.42	-43.1	-57.8	3.8	1.49e+00	0	49	104	0	58	18928
2026-01-11 11:01:32.93	193.91	2.48	-43.1	-57.8	3.8	1.49e+00	0	49	104	0	58	18925
2026-01-11 11:01:33.94	193.96	2.54	-43.1	-57.8	3.8	1.49e+00	0	49	104	0	58	18914
2026-01-11 11:01:34.95	194.02	2.60	-43.1	-57.8	3.8	1.49e+00	0	49	104	0	58	18908
2026-01-11 11:01:35.96	194.07	2.66	-43.1	-57.8	3.8	1.49e+00	0	49	104	0	58	18939
2026-01-11 11:01:36.97	194.13	2.72	-43.1	-57.8	3.8	1.49e+00	0	49	104	0	58	18866
2026-01-11 11:01:37.98	194.18	2.79	-43.1	-57.8	3.8	1.49e+00	0	49	104	0	58	18855
2026-01-11 11:01:38.99	194.24	2.85	-43.1	-57.8	3.8	1.49e+00	0	49	104	0	58	18888
2026-01-11 11:01:40.01	194.29	2.91	-43.1	-57.8	3.8	1.49e+00	0	49	104	0	58	18877
2026-01-11 11:01:41.02	194.35	2.97	-43.1	-57.8	3.8	1.49e+00	0	50	104	0	58	18881
2026-01-11 11:01:42.03	194.41	3.03	-43.1	-57.8	3.8	1.49e+00	0	49	104	0	58	18926
2026-01-11 11:01:43.04	194.46	3.10	-43.1	-57.9	3.8	1.49e+00	0	50	104	0	58	18960
2026-01-11 11:01:44.05	194.52	3.16	-43.1	-57.8	3.8	1.49e+00	0	49	104	0	58	18931
2026-01-11 11:01:45.06	194.58	3.22	-43.1	-57.8	3.8	1.49e+00	0	50	104	0	58	18896
2026-01-11 11:01:46.07	194.63	3.28	-43.1	-57.8	3.8	1.49e+00	0	50	104	0	58	18887
2026-01-11 11:01:47.08	194.69	3.35	-43.1	-57.8	3.8	1.49e+00	0	50	104	0	58	18922
2026-01-11 11:01:48.09	194.75	3.41	-43.1	-57.8	3.8	1.49e+00	0	50	104	0	58	18909
2026-01-11 11:01:49.10	194.81	3.47	-43.1	-57.9	3.8	1.49e+00	0	50	104	0	58	18962
2026-01-11 11:01:50.12	194.86	3.54	-43.1	-57.8	3.8	1.49e+00	0	50	104	0	58	18919
2026-01-11 11:01:51.13	194.92	3.60	-43.1	-57.8	3.8	1.49e+00	0	50	104	0	58	18926
2026-01-11 11:01:52.14	194.98	3.66	-43.1	-57.8	3.8	1.49e+00	0	50	104	0	58	18904
2026-01-11 11:01:53.15	195.04	3.72	-43.1	-57.8	3.8	1.49e+00	0	50	104	0	58	18845
2026-01-11 11:01:54.16	195.10	3.79	-43.1	-57.8	3.8	1.49e+00	0	50	104	0	58	18939
2026-01-11 11:01:55.17	195.16	3.85	-43.1	-57.8	3.8	1.49e+00	0	50	104	0	58	18946
2026-01-11 11:01:56.18	195.22	3.92	-43.1	-57.8	3.8	1.49e+00	0	50	104	0	58	18930
2026-01-11 11:01:57.19	195.28	3.98	-43.1	-57.8	3.8	1.49e+00	0	51	104	0	58	18934
2026-01-11 11:01:58.20	195.34	4.04	-43.1	-57.8	3.8	1.49e+00	0	51	104	0	58	18872
2026-01-11 11:01:59.21	195.40	4.11	-43.1	-57.8	3.8	1.49e+00	0	51	104	0	58	18932
2026-01-11 11:02:00.22	195.46	4.17	-43.1	-57.8	3.8	1.49e+00	0	51	104	0	58	18926
2026-01-11 11:02:01.23	195.52	4.24	-43.1	-57.8	3.8	1.49e+00	0	51	104	0	58	18908
2026-01-11 11:02:02.24	195.58	4.30	-43.1	-57.9	3.8	1.49e+00	0	51	104	0	58	18968
2026-01-11 11:02:03.25	195.64	4.37	-43.1	-57.8	3.8	1.49e+00	0	51	104	0	58	18932
2026-01-11 11:02:04.26	195.70	4.43	-43.1	-57.8	3.8	1.49e+00	0	51	104	0	58	18926
2026-01-11 11:02:05.28	195.77	4.50	-43.1	-57.8	3.8	1.49e+00	0	51	104	0	58	18899
2026-01-11 11:02:06.29	195.83	4.56	-43.1	-57.8	3.8	1.49e+00	0	51	104	0	58	18924
2026-01-11 11:02:07.30	195.89	4.63	-43.1	-57.8	3.8	1.49e+00	0	51	104	0	58	18862
2026-01-11 11:02:08.31	195.95	4.69	-43.1	-57.8	3.8	1.49e+00	0	51	104	0	58	18826
2026-01-11 11:02:09.32	196.02	4.76	-43.1	-57.8	3.8	1.49e+00	0	51	104	0	58	18791
2026-01-11 11:02:10.33	196.08	4.82	-43.2	-57.8	3.8	1.49e+00	0	51	104	0	58	18810
2026-01-11 11:02:11.34	196.14	4.89	-43.1	-57.7	3.8	1.49e+00	0	51	104	0	58	18726
2026-01-11 11:02:12.35	196.21	4.95	-43.1	-57.7	3.8	1.49e+00	0	51	104	0	58	18639
2026-01-11 11:02:13.36	196.27	5.02	-43.1	-57.7	3.8	1.49e+00	0	51	104	0	58	18564
2026-01-11 11:02:14.37	196.33	5.09	-43.1	-57.6	3.8	1.49e+00	0	51	104	0	58	18482
2026-01-11 11:02:15.39	196.40	5.15	-43.1	-57.5	3.8	1.49e+00	0	52	104	0	58	18289
2026-01-11 11:02:16.40	196.46	5.22	-43.1	-57.5	3.8	1.49e+00	0	52	104	0	58	18253
2026-01-11 11:02:17.41	196.53	5.29	-43.1	-57.4	3.8	1.49e+00	0	51	104	0	58	18007
2026-01-11 11:02:18.42	196.59	5.35	-43.1	-57.4	3.8	1.49e+00	0	52	104	0	58	17912
2026-01-11 11:02:19.43	196.66	5.42	-43.1	-57.2	3.8	1.49e+00	0	52	104	0	58	17664
2026-01-11 11:02:20.44	196.73	5.49	-43.1	-57.2	3.8	1.49e+00	0	52	104	0	58	17517
2026-01-11 11:02:21.45	196.79	5.55	-43.1	-57.1	3.8	1.49e+00	0	52	104	0	58	17332
2026-01-11 11:02:22.46	196.86	5.62	-43.1	-57.0	3.8	1.49e+00	0	52	104	0	58	17118
2026-01-11 11:02:23.48	196.93	5.69	-43.1	-56.8	3.8	1.49e+00	0	52	104	0	58	16860
2026-01-11 11:02:24.49	196.99	5.76	-43.1	-56.8	3.8	1.49e+00	0	52	104	0	58	16733
2026-01-11 11:02:25.50	197.06	5.82	-43.1	-56.7	3.8	1.49e+00	0	52	104	0	58	16621
2026-01-11 11:02:26.51	197.13	5.89	-43.1	-56.6	3.8	1.49e+00	0	52	104	0	58	16494
2026-01-11 11:02:27.52	197.20	5.96	-43.1	-56.6	3.8	1.49e+00	0	52	104	0	58	16372
2026-01-11 11:02:28.53	197.26	6.03	-43.1	-56.5	3.8	1.49e+00	0	52	104	0	58	16193
2026-01-11 11:02:29.54	197.33	6.10	-43.1	-56.3	3.8	1.49e+00	0	52	104	0	58	15819
2026-01-11 11:02:30.55	197.40	6.16	-43.1	-56.2	3.8	1.49e+00	0	52	104	0	58	15685
2026-01-11 11:02:31.56	197.47	6.23	-43.1	-56.1	3.8	1.49e+00	0	52	104	0	58	15548
2026-01-11 11:02:32.57	197.54	6.30	-43.1	-56.0	3.8	1.49e+00	0	52	104	0	58	15370
2026-01-11 11:02:33.59	197.61	6.37	-43.1	-55.8	3.8	1.49e+00	0	52	104	0	58	15025
2026-01-11 11:02:34.60	197.68	6.44	-43.1	-55.8	3.8	1.49e+00	0	52	104	0	58	14933
2026-01-11 11:02:35.61	197.75	6.51	-43.1	-55.8	3.8	1.49e+00	0	52	104	0	58	15027
2026-01-11 11:02:36.62	197.82	6.58	-43.1	-55.8	3.9	1.48e+00	0	52	104	0	58	14941
2026-01-11 11:02:37.63	197.89	6.65	-43.1	-55.8	3.8	1.49e+00	0	52	104	0	58	14962
2026-01-11 11:02:38.64	197.97	6.72	-43.1	-55.5	3.9	1.48e+00	0	52	104	0	58	14506
2026-01-11 11:02:39.65	198.04	6.79	-43.0	-55.3	3.8	1.48e+00	0	53	104	0	58	14076
2026-01-11 11:02:40.66	198.11	6.86	-43.0	-54.9	4.1	1.46e+00	0	52	0	0	58	13419
2026-01-11 11:02:41.67	198.18	6.93	-43.0	-54.5	4.1	1.47e+00	0	53	0	0	58	12869
2026-01-11 11:02:42.68	198.25	7.00	-42.9	-53.7	4.4	1.34e+00	92	53	0	0	57	12504
2026-01-11 11:02:43.70	198.33	7.07	-42.8	-52.7	4.8	9.62e-01	0	53	0	2097152	57	11149
2026-01-11 11:02:44.71	198.40	7.14	-42.7	-51.8	5.3	6.97e-01	0	53	0	3145728	57	9955
2026-01-11 11:02:45.71	198.48	7.21	-42.5	-50.8	6.0	3.95e-01	0	53	0	5242880	57	8903
2026-01-11 11:02:46.73	198.55	7.28	-42.4	-50.0	6.6	2.65e-01	0	53	0	7340032	56	8639
2026-01-11 11:02:47.74	198.62	7.35	-42.2	-49.3	7.3	1.66e-01	0	53	0	9437184	56	7935
2026-01-11 11:02:48.75	198.70	7.42	-42.1	-48.8	7.8	9.05e-02	0	53	0	11534336	56	7476
2026-01-11 11:02:49.76	198.77	7.49	-41.8	-48.0	8.4	5.58e-02	0	53	0	12582912	55	7261
2026-01-11 11:02:50.77	198.85	7.57	-41.6	-47.3	9.1	2.92e-02	0	53	0	14680064	55	6680
2026-01-11 11:02:51.78	198.93	7.64	-41.4	-46.9	9.6	1.40e-02	0	53	0	16777216	54	6739
2026-01-11 11:02:52.79	199.00	7.71	-41.4	-46.7	9.8	1.13e-02	0	53	0	18874368	54	6620
2026-01-11 11:02:53.80	199.08	7.78	-41.3	-46.5	10.0	9.23e-03	0	53	0	20971520	54	6434
2026-01-11 11:02:54.81	199.16	7.85	-41.2	-46.3	10.3	6.57e-03	0	53	0	22020096	54	6281
2026-01-11 11:02:55.82	199.23	7.93	-41.3	-46.5	10.1	6.35e-03	0	53	0	24117248	54	6428
2026-01-11 11:02:56.83	199.31	8.00	-41.3	-46.6	9.9	7.79e-03	0	53	0	26214400	54	6530
2026-01-11 11:02:57.84	199.39	8.07	-40.6	-47.0	8.2	9.35e-03	0	53	0	28311552	52	7659
2026-01-11 11:02:58.85	199.47	8.14	-43.3	-54.6	4.3	2.19e-01	30	53	0	30408704	57	13828
2026-01-11 11:02:59.86	199.55	8.22	-40.4	-47.2	7.9	3.76e-01	0	53	0	30408704	52	7849
2026-01-11 11:03:00.87	199.63	8.29	-41.5	-47.5	8.5	1.37e-01	0	53	0	32505856	53	7707
2026-01-11 11:03:01.88	199.71	8.36	-42.4	-50.5	6.3	4.73e-02	0	53	0	34603008	55	9645
2026-01-11 11:03:02.89	199.79	8.44	-40.1	-45.7	9.3	1.28e-01	0	53	0	35651584	52	6594
2026-01-11 11:03:03.90	199.87	8.51	-40.1	-45.3	9.9	9.37e-03	0	53	0	37748736	52	6333
2026-01-11 11:03:04.90	199.95	8.58	-40.3	-45.3	10.2	6.43e-03	0	53	0	39845888	52	6321
2026-01-11 11:03:05.91	200.03	8.66	-40.6	-45.2	10.9	2.68e-03	0	53	0	41943040	52	6251
2026-01-11 11:03:06.92	200.11	8.73	-40.7	-45.1	11.2	1.73e-03	0	53	0	44040192	52	6198
2026-01-11 11:03:07.93	200.19	8.80	-40.8	-45.2	11.3	1.34e-03	0	54	0	46137344	52	6224
2026-01-11 11:03:08.94	200.27	8.88	-40.8	-45.2	11.3	1.22e-03	0	53	0	47185920	52	6245
2026-01-11 11:03:09.95	200.36	8.95	-40.8	-45.2	11.3	1.17e-03	0	54	0	49283072	52	6230
2026-01-11 11:03:10.96	200.44	9.03	-40.8	-45.1	11.3	1.14e-03	0	54	0	51380224	52	6196
2026-01-11 11:03:11.97	200.52	9.10	-40.4	-45.0	11.0	1.47e-03	0	54	0	53477376	52	6076
2026-01-11 11:03:12.98	200.61	9.18	-40.0	-45.2	9.9	4.37e-03	0	54	0	55574528	51	6581
2026-01-11 11:03:13.99	200.69	9.25	-40.3	-45.0	10.6	5.17e-03	0	54	0	56623104	51	6476
2026-01-11 11:03:15.00	200.78	9.33	-39.9	-44.9	10.2	5.18e-03	0	53	0	58720256	51	6398
2026-01-11 11:03:16.01	200.86	9.41	-39.6	-44.8	9.8	8.85e-03	0	54	0	60817408	51	6332
2026-01-11 11:03:17.02	200.95	9.48	-39.6	-44.9	9.6	1.26e-02	0	54	0	62914560	51	6394
2026-01-11 11:03:18.03	201.03	9.56	-39.6	-44.9	9.5	1.37e-02	0	54	0	65011712	51	6401
2026-01-11 11:03:19.03	201.12	9.63	-39.6	-44.8	9.6	1.22e-02	0	54	0	66060288	51	6329
2026-01-11 11:03:20.04	201.21	9.71	-39.6	-44.7	9.7	1.19e-02	0	54	0	68157440	51	6267
2026-01-11 11:03:21.05	201.29	9.79	-39.4	-44.7	9.5	1.11e-02	0	54	0	70254592	50	6636
2026-01-11 11:03:22.06	201.38	9.86	-39.6	-44.6	9.9	1.04e-02	0	54	0	72351744	50	6538
2026-01-11 11:03:23.07	201.47	9.94	-39.6	-44.6	9.8	7.68e-03	0	54	0	74448896	50	6543
2026-01-11 11:03:24.08	201.56	10.02	-39.7	-44.5	10.1	8.84e-03	0	54	0	75497472	50	6494
2026-01-11 11:03:25.09	201.65	10.09	-39.8	-44.5	10.5	4.37e-03	0	54	0	77594624	50	6449
2026-01-11 11:03:26.10	201.74	10.17	-39.9	-44.5	10.6	3.76e-03	0	54	0	79691776	50	6467
2026-01-11 11:03:27.11	201.83	10.25	-40.1	-44.4	11.1	2.70e-03	0	54	0	81788928	50	6408
2026-01-11 11:03:28.12	201.92	10.33	-40.1	-44.4	11.2	1.47e-03	0	54	0	83886080	50	6384
2026-01-11 11:03:29.13	202.01	10.40	-40.2	-44.5	11.2	1.46e-03	0	54	0	84934656	51	6115
2026-01-11 11:03:30.14	202.10	10.48	-40.2	-44.5	11.2	1.37e-03	0	54	0	87031808	51	6104
2026-01-11 11:03:31.15	202.19	10.56	-40.2	-44.6	11.1	1.51e-03	0	54	0	89128960	51	6149
2026-01-11 11:03:32.16	202.28	10.64	-40.1	-44.6	11.0	1.68e-03	0	54	0	91226112	51	6164
2026-01-11 11:03:33.17	202.38	10.72	-40.0	-44.6	10.9	1.91e-03	0	54	0	93323264	51	6135
2026-01-11 11:03:34.18	202.47	10.80	-39.9	-44.4	11.0	1.90e-03	0	54	0	94371840	51	6025
2026-01-11 11:03:35.19	202.56	10.88	-39.9	-44.3	11.0	1.84e-03	0	54	0	96468992	51	5969
2026-01-11 11:03:36.20	202.66	10.96	-39.9	-44.4	10.9	1.94e-03	0	54	0	98566144	51	6023
2026-01-11 11:03:37.21	202.75	11.04	-39.9	-44.4	10.9	2.21e-03	0	54	0	100663296	51	5995
2026-01-11 11:03:38.22	202.85	11.12	-39.9	-44.3	11.0	1.83e-03	0	54	0	102760448	51	5947
2026-01-11 11:03:39.23	202.94	11.20	-40.0	-44.2	11.2	1.54e-03	0	54	0	103809024	51	5906
2026-01-11 11:03:40.24	203.04	11.28	-40.1	-44.3	11.3	1.32e-03	0	54	0	105906176	51	5931
2026-01-11 11:03:41.25	203.14	11.36	-40.2	-44.2	11.5	9.17e-04	0	54	0	108003328	51	5874
2026-01-11 11:03:42.26	203.24	11.44	-40.1	-44.0	11.8	6.03e-04	0	54	0	110100480	51	5769
2026-01-11 11:03:43.27	203.33	11.52	-40.2	-44.0	12.0	3.89e-04	0	54	0	112197632	51	5748
2026-01-11 11:03:44.28	203.43	11.60	-40.3	-43.9	12.3	2.04e-04	0	54	0	114294784	51	5704
2026-01-11 11:03:45.29	203.53	11.68	-40.4	-43.9	12.6	1.17e-04	0	54	0	115343360	51	5676
2026-01-11 11:03:46.30	203.63	11.76	-40.4	-43.8	13.0	8.39e-05	0	54	0	117440512	51	5612
2026-01-11 11:03:47.31	203.73	11.84	-40.4	-43.7	13.2	2.13e-05	0	54	0	119537664	51	5535
2026-01-11 11:03:48.32	203.83	11.92	-40.4	-43.6	13.5	1.06e-05	0	54	0	121634816	51	5507
2026-01-11 11:03:49.32	203.93	12.00	-40.5	-43.6	13.7	9.10e-06	0	54	0	123731968	51	5487
2026-01-11 11:03:50.33	204.03	12.09	-40.6	-43.6	13.8	3.00e-06	0	55	0	124780544	51	5518
2026-01-11 11:03:51.34	204.13	12.17	-40.5	-43.5	14.1	5.30e-06	0	55	0	126877696	51	5440
2026-01-11 11:03:52.36	204.24	12.25	-40.5	-43.4	14.3	1.50e-06	0	54	0	128974848	51	5386
2026-01-11 11:03:53.37	204.34	12.33	-40.5	-43.4	14.4	1.50e-06	0	55	0	131072000	51	5359
2026-01-11 11:03:54.38	204.45	12.42	-40.6	-43.5	14.3	1.50e-06	0	55	0	133169152	51	5416
2026-01-11 11:03:55.39	204.55	12.50	-40.5	-43.4	14.5	0.00e+00	0	54	0	134217728	51	5347
2026-01-11 11:03:56.39	204.65	12.58	-40.4	-43.2	14.6	0.00e+00	0	55	0	136314880	51	5276
2026-01-11 11:03:57.40	204.76	12.67	-40.4	-43.2	14.6	7.00e-07	0	54	0	138412032	51	5277
2026-01-11 11:03:58.41	204.87	12.75	-40.6	-43.5	14.4	7.00e-07	0	54	0	140509184	51	5412
2026-01-11 11:03:59.42	204.97	12.83	-40.5	-43.3	14.6	0.00e+00	0	55	0	142606336	51	5309
2026-01-11 11:04:00.43	205.08	12.92	-40.6	-43.4	14.4	7.00e-07	0	54	0	143654912	51	5388
2026-01-11 11:04:01.44	205.19	13.00	-40.5	-43.3	14.5	1.50e-06	0	54	0	145752064	51	5312
2026-01-11 11:04:02.45	205.30	13.09	-40.4	-43.3	14.6	0.00e+00	0	55	0	147849216	51	5284
2026-01-11 11:04:03.46	205.41	13.17	-40.4	-43.2	14.6	0.00e+00	0	54	0	149946368	51	5279
2026-01-11 11:04:04.47	205.51	13.26	-40.5	-43.3	14.6	0.00e+00	0	55	0	152043520	51	5337
2026-01-11 11:04:05.47	205.62	13.34	-40.5	-43.4	14.5	0.00e+00	0	55	0	153092096	51	5350
2026-01-11 11:04:06.48	205.74	13.42	-40.4	-43.2	14.7	0.00e+00	0	55	0	155189248	51	5264
2026-01-11 11:04:07.50	205.85	13.51	-40.5	-43.3	14.6	0.00e+00	0	55	0	157286400	51	5316
2026-01-11 11:04:08.51	205.96	13.60	-40.5	-43.4	14.6	0.00e+00	0	55	0	159383552	51	5360
2026-01-11 11:04:09.52	206.07	13.68	-40.4	-43.2	14.7	0.00e+00	0	55	0	161480704	51	5252
2026-01-11 11:04:10.52	206.19	13.77	-40.5	-43.4	14.6	7.00e-07	0	55	0	162529280	51	5364
2026-01-11 11:04:11.54	206.30	13.85	-40.6	-43.4	14.5	7.00e-07	0	55	0	164626432	51	5382
2026-01-11 11:04:12.55	206.42	13.94	-40.6	-43.5	14.4	0.00e+00	0	55	0	166723584	51	5455
2026-01-11 11:04:13.56	206.53	14.03	-40.6	-43.5	14.5	0.00e+00	0	55	0	168820736	51	5430
2026-01-11 11:04:14.57	206.65	14.11	-40.6	-43.4	14.5	1.50e-06	0	55	0	170917888	51	5400
2026-01-11 11:04:15.58	206.76	14.20	-40.6	-43.4	14.5	0.00e+00	0	55	0	171966464	51	5386
2026-01-11 11:04:16.59	206.88	14.29	-40.6	-43.5	14.5	0.00e+00	0	55	0	174063616	51	5412
2026-01-11 11:04:17.59	207.00	14.38	-40.6	-43.4	14.6	7.00e-07	0	55	0	176160768	51	5358
2026-01-11 11:04:18.61	207.12	14.46	-40.5	-43.3	14.7	0.00e+00	0	55	0	178257920	51	5320
2026-01-11 11:04:19.62	207.24	14.55	-40.6	-43.4	14.6	0.00e+00	0	55	0	180355072	51	5377
2026-01-11 11:04:20.63	207.36	14.64	-40.5	-43.3	14.7	7.00e-07	0	55	0	182452224	51	5305
2026-01-11 11:04:21.63	207.48	14.73	-40.5	-43.3	14.8	0.00e+00	0	55	0	183500800	51	5288
2026-01-11 11:04:22.64	207.60	14.82	-40.4	-43.1	14.9	0.00e+00	0	55	0	185597952	51	5200
2026-01-11 11:04:23.65	207.72	14.90	-40.4	-43.1	14.9	0.00e+00	0	55	0	187695104	51	5213
2026-01-11 11:04:24.67	207.84	14.99	-40.4	-43.1	14.9	1.50e-06	0	55	0	189792256	51	5183
2026-01-11 11:04:25.67	207.97	15.08	-40.4	-43.1	15.0	0.00e+00	0	55	0	191889408	51	5165
2026-01-11 11:04:26.68	208.09	15.17	-40.3	-43.0	15.1	0.00e+00	0	55	0	192937984	51	5120
2026-01-11 11:04:27.70	208.22	15.26	-40.3	-42.9	15.1	0.00e+00	0	55	0	195035136	51	5093
2026-01-11 11:04:28.71	208.34	15.35	-40.3	-43.0	15.1	0.00e+00	0	55	0	197132288	51	5122
2026-01-11 11:04:29.72	208.47	15.44	-40.4	-43.1	15.0	0.00e+00	0	55	0	199229440	51	5191
2026-01-11 11:04:30.72	208.60	15.53	-40.5	-43.2	14.9	7.00e-07	0	55	0	201326592	51	5234
2026-01-11 11:04:31.73	208.72	15.62	-40.5	-43.2	14.8	0.00e+00	0	55	0	202375168	51	5260
2026-01-11 11:04:32.74	208.85	15.71	-40.5	-43.3	14.8	0.00e+00	0	55	0	204472320	51	5295
2026-01-11 11:04:33.75	208.98	15.80	-40.6	-43.3	14.7	0.00e+00	0	55	0	206569472	51	5331
2026-01-11 11:04:34.76	209.11	15.89	-40.5	-43.3	14.7	7.00e-07	0	55	0	208666624	51	5328
2026-01-11 11:04:35.77	209.24	15.99	-40.7	-43.5	14.5	0.00e+00	0	55	0	210763776	51	5463
2026-01-11 11:04:36.78	209.37	16.08	-40.6	-43.5	14.5	7.00e-07	0	55	0	211812352	52	5135
2026-01-11 11:04:37.79	209.51	16.17	-40.7	-43.6	14.4	0.00e+00	0	55	0	213909504	52	5193
2026-01-11 11:04:38.80	209.64	16.26	-40.7	-43.7	14.3	0.00e+00	0	55	0	216006656	52	5239
2026-01-11 11:04:39.81	209.77	16.35	-40.8	-43.8	14.2	7.00e-07	0	55	0	218103808	52	5308
2026-01-11 11:04:40.82	209.91	16.44	-40.8	-43.8	14.2	1.50e-06	0	55	0	220200960	52	5335
2026-01-11 11:04:41.83	210.04	16.54	-40.9	-44.0	14.0	1.50e-06	0	55	0	221249536	52	5420
2026-01-11 11:04:42.84	210.18	16.63	-41.0	-44.1	13.9	3.00e-06	0	55	0	223346688	52	5478
2026-01-11 11:04:43.85	210.32	16.72	-41.0	-44.2	13.9	2.20e-06	0	55	0	225443840	52	5529
2026-01-11 11:04:44.86	210.46	16.81	-41.1	-44.3	13.7	3.80e-06	0	55	0	227540992	52	5607
2026-01-11 11:04:45.87	210.60	16.91	-41.1	-44.3	13.8	4.50e-06	0	55	0	229638144	52	5596
2026-01-11 11:04:46.88	210.74	17.00	-41.2	-44.4	13.6	6.80e-06	0	55	0	230686720	52	5689
2026-01-11 11:04:47.89	210.88	17.09	-41.2	-44.4	13.7	5.30e-06	0	55	0	232783872	52	5681
2026-01-11 11:04:48.90	211.02	17.19	-41.2	-44.4	13.6	6.80e-06	0	55	0	234881024	53	5396
2026-01-11 11:04:49.90	211.16	17.28	-41.2	-44.4	13.7	3.80e-06	0	55	0	236978176	53	5362
2026-01-11 11:04:50.91	211.30	17.38	-41.1	-44.3	13.8	3.00e-06	0	55	0	239075328	53	5288
2026-01-11 11:04:51.92	211.45	17.47	-41.1	-44.2	13.8	6.10e-06	0	55	0	240123904	53	5271
2026-01-11 11:04:52.93	211.59	17.56	-41.1	-44.3	13.8	6.10e-06	0	55	0	242221056	53	5290
2026-01-11 11:04:53.94	211.74	17.66	-41.0	-44.1	13.9	2.20e-06	0	55	0	244318208	53	5209
2026-01-11 11:04:54.95	211.88	17.75	-41.1	-44.2	13.8	3.00e-06	0	55	0	246415360	53	5226
2026-01-11 11:04:55.96	212.03	17.85	-41.1	-44.2	13.8	3.80e-06	0	55	0	248512512	53	5248
2026-01-11 11:04:56.97	212.18	17.94	-41.1	-44.2	13.8	8.30e-06	0	55	0	250609664	53	5254
2026-01-11 11:04:57.98	212.33	18.04	-41.1	-44.2	13.8	5.30e-06	0	55	0	251658240	53	5277
2026-01-11 11:04:58.99	212.48	18.14	-41.1	-44.3	13.8	5.30e-06	0	55	0	253755392	53	5286
2026-01-11 11:05:00.00	212.63	18.23	-41.1	-44.3	13.8	4.50e-06	0	55	0	255852544	53	5288
2026-01-11 11:05:01.01	212.78	18.33	-41.1	-44.3	13.8	2.20e-06	0	55	0	257949696	53	5284
2026-01-11 11:05:02.02	212.94	18.42	-41.1	-44.3	13.8	6.10e-06	0	55	0	260046848	53	5313
2026-01-11 11:05:03.03	213.09	18.52	-41.2	-44.3	13.7	9.10e-06	0	55	0	261095424	53	5326
2026-01-11 11:05:04.04	213.25	18.62	-41.2	-44.4	13.7	1.22e-05	0	55	0	263192576	53	5344
2026-01-11 11:05:05.05	213.40	18.71	-41.2	-44.4	13.7	5.30e-06	0	56	0	265289728	53	5362
2026-01-11 11:05:06.06	213.56	18.81	-41.2	-44.3	13.7	6.80e-06	0	56	0	267386880	53	5326
2026-01-11 11:05:07.06	213.72	18.91	-41.2	-44.4	13.7	9.10e-06	0	55	0	269484032	53	5359
2026-01-11 11:05:08.07	213.88	19.00	-41.2	-44.3	13.7	3.80e-06	0	55	0	270532608	53	5329
2026-01-11 11:05:09.08	214.04	19.10	-41.2	-44.4	13.7	7.60e-06	0	56	0	272629760	53	5365
2026-01-11 11:05:10.09	214.20	19.20	-41.2	-44.4	13.7	6.80e-06	0	56	0	274726912	53	5360
2026-01-11 11:05:11.10	214.36	19.30	-41.2	-44.4	13.7	7.60e-06	0	55	0	276824064	53	5377
2026-01-11 11:05:12.11	214.52	19.39	-41.2	-44.3	13.7	5.30e-06	0	56	0	278921216	53	5319
2026-01-11 11:05:13.12	214.69	19.49	-41.1	-44.2	13.9	3.00e-06	0	56	0	279969792	53	5263
2026-01-11 11:05:14.13	214.85	19.59	-41.1	-44.1	13.9	3.80e-06	0	55	0	282066944	53	5218
2026-01-11 11:05:15.14	215.02	19.69	-41.1	-44.1	14.0	5.30e-06	0	55	0	284164096	53	5211
2026-01-11 11:05:16.15	215.18	19.79	-41.1	-44.1	14.0	3.00e-06	0	56	0	286261248	53	5207
2026-01-11 11:05:17.16	215.35	19.89	-41.0	-43.9	14.1	7.00e-07	0	56	0	288358400	53	5095
2026-01-11 11:05:18.17	215.52	19.98	-40.9	-43.9	14.2	0.00e+00	0	56	0	289406976	53	5063
2026-01-11 11:05:19.18	215.69	20.08	-40.9	-43.9	14.3	0.00e+00	0	56	0	291504128	53	5055
2026-01-11 11:05:20.19	215.86	20.18	-40.9	-43.9	14.3	7.00e-07	0	56	0	293601280	53	5044
2026-01-11 11:05:21.20	216.03	20.28	-40.9	-43.8	14.3	7.00e-07	0	55	0	295698432	53	4998
2026-01-11 11:05:22.21	216.21	20.38	-40.9	-43.8	14.3	0.00e+00	0	56	0	297795584	53	5005
2026-01-11 11:05:23.22	216.38	20.48	-40.9	-43.8	14.3	7.00e-07	0	56	0	298844160	53	5002
2026-01-11 11:05:24.23	216.56	20.58	-40.8	-43.7	14.3	7.00e-07	0	56	0	300941312	53	4983
2026-01-11 11:05:25.24	216.74	20.68	-40.8	-43.8	14.3	0.00e+00	0	56	0	303038464	53	4994
2026-01-11 11:05:26.25	216.91	20.78	-40.8	-43.7	14.5	0.00e+00	0	56	0	305135616	53	4934
2026-01-11 11:05:27.26	217.09	20.88	-40.7	-43.5	14.6	0.00e+00	0	56	0	307232768	53	4867
2026-01-11 11:05:28.27	217.27	20.98	-40.6	-43.4	14.7	0.00e+00	0	56	0	308281344	53	4790
2026-01-11 11:05:29.28	217.45	21.08	-40.6	-43.4	14.8	0.00e+00	0	56	0	310378496	53	4770
2026-01-11 11:05:30.29	217.64	21.18	-40.5	-43.2	14.9	0.00e+00	0	56	0	312475648	53	4694
2026-01-11 11:05:31.30	217.82	21.28	-40.5	-43.2	14.9	0.00e+00	0	56	0	314572800	53	4677
2026-01-11 11:05:32.30	218.00	21.38	-40.5	-43.2	15.0	0.00e+00	0	56	0	316669952	52	4944
2026-01-11 11:05:33.32	218.19	21.48	-40.4	-43.1	15.1	0.00e+00	0	56	0	318767104	52	4898
2026-01-11 11:05:34.32	218.38	21.58	-40.4	-43.1	15.1	0.00e+00	0	56	0	319815680	52	4885
2026-01-11 11:05:35.33	218.57	21.68	-40.4	-43.1	15.1	0.00e+00	0	56	0	321912832	52	4883
2026-01-11 11:05:36.34	218.75	21.78	-40.3	-42.9	15.3	0.00e+00	0	56	0	324009984	52	4796
2026-01-11 11:05:37.35	218.95	21.88	-40.2	-42.8	15.4	0.00e+00	0	56	0	326107136	52	4727
2026-01-11 11:05:38.36	219.14	21.99	-40.1	-42.6	15.5	0.00e+00	0	56	0	328204288	52	4650
2026-01-11 11:05:39.37	219.33	22.09	-40.1	-42.6	15.6	0.00e+00	0	56	0	329252864	52	4605
2026-01-11 11:05:40.38	219.53	22.19	-40.1	-42.5	15.7	0.00e+00	0	56	0	331350016	52	4574
2026-01-11 11:05:41.39	219.72	22.29	-40.0	-42.4	15.7	0.00e+00	0	56	0	333447168	52	4540
2026-01-11 11:05:42.40	219.92	22.39	-40.0	-42.5	15.7	0.00e+00	0	56	0	335544320	52	4557
2026-01-11 11:05:43.41	220.12	22.49	-40.1	-42.5	15.7	0.00e+00	0	56	0	336592896	52	4590
2026-01-11 11:05:44.42	220.32	22.59	-40.0	-42.5	15.7	0.00e+00	0	56	0	338690048	52	4560
2026-01-11 11:05:45.43	220.52	22.69	-40.0	-42.4	15.8	0.00e+00	0	56	0	340787200	52	4541
2026-01-11 11:05:46.44	220.72	22.80	-40.0	-42.5	15.8	0.00e+00	0	56	0	342884352	52	4556
2026-01-11 11:05:47.44	220.92	22.90	-40.0	-42.4	15.9	0.00e+00	0	56	0	344981504	51	4793
2026-01-11 11:05:48.45	221.12	23.00	-40.0	-42.3	15.9	0.00e+00	0	56	0	347078656	51	4755
2026-01-11 11:05:49.46	221.33	23.10	-39.9	-42.2	16.1	0.00e+00	0	56	0	348127232	51	4661
2026-01-11 11:05:50.47	221.54	23.20	-39.9	-42.2	16.1	0.00e+00	0	56	0	350224384	51	4661
2026-01-11 11:05:51.48	221.75	23.30	-39.7	-42.0	16.3	0.00e+00	0	56	0	352321536	51	4582
2026-01-11 11:05:52.49	221.96	23.41	-39.7	-42.0	16.3	0.00e+00	0	56	0	354418688	51	4568
2026-01-11 11:05:53.50	222.17	23.51	-39.7	-42.0	16.3	0.00e+00	0	56	0	356515840	51	4557
2026-01-11 11:05:54.51	222.38	23.61	-39.6	-41.8	16.5	0.00e+00	0	56	0	357564416	51	4467
2026-01-11 11:05:55.52	222.59	23.71	-39.6	-41.8	16.5	0.00e+00	0	56	0	359661568	51	4449
2026-01-11 11:05:56.53	222.81	23.81	-39.5	-41.7	16.6	0.00e+00	0	56	0	361758720	51	4400
2026-01-11 11:05:57.54	223.03	23.91	-39.4	-41.5	16.7	0.00e+00	0	56	0	363855872	50	4590
2026-01-11 11:05:58.55	223.24	24.02	-39.3	-41.4	16.9	0.00e+00	0	56	0	365953024	50	4531
2026-01-11 11:05:59.56	223.46	24.12	-39.3	-41.3	16.9	0.00e+00	0	56	0	367001600	50	4493
2026-01-11 11:06:00.57	223.68	24.22	-39.3	-41.4	16.9	0.00e+00	0	56	0	369098752	50	4515
2026-01-11 11:06:01.58	223.91	24.32	-39.3	-41.4	16.9	0.00e+00	0	56	0	371195904	50	4518
2026-01-11 11:06:02.59	224.13	24.42	-39.4	-41.5	16.8	0.00e+00	0	56	0	373293056	50	4556
2026-01-11 11:06:03.60	224.35	24.52	-39.5	-41.6	16.7	0.00e+00	0	56	0	375390208	50	4651
2026-01-11 11:06:04.61	224.58	24.63	-39.7	-41.9	16.4	0.00e+00	0	56	0	376438784	50	4775
2026-01-11 11:06:05.61	224.81	24.73	-39.8	-42.1	16.3	0.00e+00	0	56	0	378535936	50	4873
2026-01-11 11:06:06.62	225.04	24.83	-39.8	-42.2	16.2	0.00e+00	0	56	0	380633088	50	4934
2026-01-11 11:06:07.63	225.27	24.93	-39.9	-42.2	16.2	0.00e+00	0	56	0	382730240	50	4943
2026-01-11 11:06:08.64	225.50	25.03	-39.7	-42.0	16.3	0.00e+00	0	56	0	384827392	50	4854
2026-01-11 11:06:09.65	225.73	25.13	-39.6	-41.8	16.5	0.00e+00	0	56	0	385875968	50	4742
2026-01-11 11:06:10.66	225.97	25.23	-39.7	-41.9	16.5	0.00e+00	0	56	0	387973120	50	4772
2026-01-11 11:06:11.67	226.20	25.33	-39.7	-41.9	16.4	0.00e+00	0	56	0	390070272	50	4787
2026-01-11 11:06:12.68	226.44	25.43	-39.9	-42.2	16.1	0.00e+00	0	56	0	392167424	50	4950
2026-01-11 11:06:13.69	226.68	25.53	-40.0	-42.4	16.0	0.00e+00	0	56	0	394264576	50	5047
2026-01-11 11:06:14.70	226.92	25.63	-40.1	-42.5	15.8	0.00e+00	0	56	0	395313152	50	5145
2026-01-11 11:06:15.71	227.16	25.73	-40.1	-42.6	15.7	0.00e+00	0	56	0	397410304	50	5186
2026-01-11 11:06:16.72	227.41	25.83	-40.2	-42.7	15.7	0.00e+00	0	56	0	399507456	50	5220
2026-01-11 11:06:17.73	227.65	25.93	-40.2	-42.7	15.6	0.00e+00	0	56	0	401604608	51	4965
2026-01-11 11:06:18.74	227.90	26.03	-40.3	-42.8	15.5	0.00e+00	0	56	0	403701760	51	4990
2026-01-11 11:06:19.75	228.15	26.13	-40.3	-42.9	15.4	0.00e+00	0	56	0	404750336	51	5063
2026-01-11 11:06:20.76	228.40	26.23	-40.4	-43.0	15.3	0.00e+00	0	56	0	406847488	51	5129
2026-01-11 11:06:21.77	228.65	26.33	-40.6	-43.2	15.1	0.00e+00	0	56	0	408944640	51	5279
2026-01-11 11:06:22.78	228.90	26.43	-40.7	-43.3	15.0	7.00e-07	0	56	0	411041792	51	5337
2026-01-11 11:06:23.78	229.16	26.53	-40.7	-43.5	14.7	0.00e+00	0	56	0	413138944	52	5132
2026-01-11 11:06:24.79	229.41	26.63	-40.8	-43.6	14.7	1.50e-06	0	56	0	415236096	52	5190
2026-01-11 11:06:25.80	229.67	26.72	-40.8	-43.7	14.6	0.00e+00	0	56	0	416284672	52	5246
2026-01-11 11:06:26.81	229.93	26.82	-40.9	-43.8	14.5	0.00e+00	0	56	0	418381824	52	5281
2026-01-11 11:06:27.82	230.19	26.92	-41.0	-43.9	14.4	0.00e+00	0	56	0	420478976	52	5377
2026-01-11 11:06:28.83	230.45	27.02	-41.0	-43.9	14.4	7.00e-07	0	56	0	422576128	52	5355
2026-01-11 11:06:29.84	230.72	27.11	-41.1	-44.1	14.2	7.00e-07	0	56	0	424673280	52	5466
2026-01-11 11:06:30.85	230.98	27.21	-41.2	-44.3	13.9	7.00e-07	0	56	0	425721856	53	5331
2026-01-11 11:06:31.86	231.25	27.31	-41.4	-44.6	13.7	3.80e-06	0	56	0	427819008	53	5494
2026-01-11 11:06:32.87	231.52	27.40	-41.5	-44.8	13.4	1.22e-05	0	56	0	429916160	53	5602
2026-01-11 11:06:33.88	231.79	27.50	-41.5	-44.8	13.4	1.29e-05	0	56	0	432013312	53	5625
2026-01-11 11:06:34.89	232.06	27.59	-41.4	-44.7	13.6	3.80e-06	0	56	0	434110464	53	5552
2026-01-11 11:06:35.90	232.34	27.69	-41.3	-44.5	13.7	8.30e-06	0	56	0	435159040	53	5429
2026-01-11 11:06:36.91	232.61	27.78	-41.2	-44.3	14.0	4.50e-06	0	56	0	437256192	53	5295
2026-01-11 11:06:37.92	232.89	27.88	-41.1	-44.1	14.1	2.20e-06	0	56	0	439353344	53	5214
2026-01-11 11:06:38.93	233.17	27.97	-41.2	-44.3	14.0	1.50e-06	0	56	0	441450496	53	5312
2026-01-11 11:06:39.94	233.45	28.07	-41.3	-44.4	13.9	7.00e-07	0	56	0	443547648	53	5351
2026-01-11 11:06:40.94	233.72	28.16	-41.4	-44.6	13.7	6.80e-06	0	56	0	444596224	53	5466
2026-01-11 11:06:41.95	234.01	28.25	-41.5	-44.7	13.6	4.50e-06	0	56	0	446693376	53	5566
2026-01-11 11:06:42.97	234.30	28.34	-41.7	-45.2	13.1	2.74e-05	0	56	0	448790528	53	5870
2026-01-11 11:06:43.98	234.58	28.44	-41.9	-45.5	12.8	4.80e-05	0	56	0	450887680	54	5747
2026-01-11 11:06:44.99	234.87	28.53	-42.1	-45.9	12.3	1.09e-04	0	56	0	452984832	54	6034
2026-01-11 11:06:46.00	235.16	28.62	-42.2	-46.2	12.0	2.41e-04	0	56	0	454033408	55	5857
2026-01-11 11:06:47.01	235.45	28.71	-42.4	-46.4	11.8	4.48e-04	0	56	0	456130560	55	6054
2026-01-11 11:06:48.02	235.74	28.80	-42.4	-46.4	11.8	5.65e-04	0	56	0	458227712	55	6046
2026-01-11 11:06:49.02	236.03	28.89	-42.4	-46.4	11.8	4.89e-04	0	56	0	460324864	55	6047
2026-01-11 11:06:50.03	236.33	28.98	-42.4	-46.5	11.7	5.02e-04	0	56	0	462422016	55	6082
2026-01-11 11:06:51.04	236.63	29.06	-42.5	-46.6	11.5	6.32e-04	0	56	0	463470592	55	6200
2026-01-11 11:06:52.05	236.93	29.15	-42.6	-46.9	11.3	9.81e-04	0	56	0	465567744	55	6384
2026-01-11 11:06:53.06	237.23	29.24	-43.0	-47.6	10.7	2.24e-03	0	56	0	467664896	56	6537
2026-01-11 11:06:54.07	237.53	29.33	-43.1	-47.8	10.4	3.19e-03	0	56	0	469762048	56	6705
2026-01-11 11:06:55.08	237.83	29.41	-43.1	-48.0	10.3	4.46e-03	0	56	0	471859200	56	6845
2026-01-11 11:06:56.09	238.14	29.50	-43.2	-48.3	10.0	6.72e-03	0	56	0	472907776	57	6668
2026-01-11 11:06:57.10	238.45	29.58	-43.2	-48.2	10.1	7.92e-03	0	56	0	475004928	57	6643
2026-01-11 11:06:58.11	238.76	29.67	-43.2	-48.1	10.1	7.34e-03	0	56	0	477102080	57	6540
2026-01-11 11:06:59.12	239.07	29.75	-43.1	-47.9	10.4	5.09e-03	0	56	0	479199232	57	6361
2026-01-11 11:07:00.13	239.38	29.83	-43.0	-47.8	10.5	3.92e-03	0	56	0	481296384	57	6314
2026-01-11 11:07:01.14	239.69	29.91	-43.0	-47.6	10.7	3.35e-03	0	56	0	483393536	57	6180
2026-01-11 11:07:02.15	240.01	30.00	-43.1	-47.9	10.4	3.98e-03	0	56	0	484442112	57	6413
2026-01-11 11:07:03.16	240.32	30.08	-43.1	-48.1	10.3	5.06e-03	0	56	0	486539264	57	6510
2026-01-11 11:07:04.17	240.64	30.16	-43.3	-48.5	9.8	7.82e-03	0	56	0	488636416	57	6818
2026-01-11 11:07:05.18	240.96	30.24	-43.3	-48.5	9.8	9.23e-03	0	56	0	490733568	57	6803
2026-01-11 11:07:06.18	241.28	30.31	-43.2	-48.2	10.1	7.98e-03	0	56	0	492830720	57	6603
2026-01-11 11:07:07.19	241.60	30.39	-43.0	-47.7	10.6	4.39e-03	0	56	0	493879296	57	6230
2026-01-11 11:07:08.20	241.93	30.47	-42.9	-47.3	11.0	2.79e-03	0	57	0	495976448	57	5973
2026-01-11 11:07:09.21	242.25	30.54	-42.7	-46.9	11.5	1.09e-03	0	56	0	498073600	57	5667
2026-01-11 11:07:10.22	242.58	30.62	-42.5	-46.6	11.8	6.13e-04	0	56	0	500170752	57	5512
2026-01-11 11:07:11.23	242.91	30.69	-42.5	-46.5	11.9	4.37e-04	0	56	0	502267904	56	5736
2026-01-11 11:07:12.24	243.24	30.77	-42.4	-46.2	12.2	2.47e-04	0	56	0	503316480	56	5564
2026-01-11 11:07:13.25	243.57	30.84	-42.3	-46.0	12.4	1.40e-04	0	56	0	505413632	56	5455
2026-01-11 11:07:14.26	243.90	30.91	-42.2	-45.8	12.6	1.17e-04	0	56	0	507510784	56	5335
2026-01-11 11:07:15.27	244.24	30.98	-42.2	-45.9	12.6	9.61e-05	0	56	0	509607936	56	5350
2026-01-11 11:07:16.27	244.57	31.05	-42.2	-46.0	12.4	1.42e-04	0	56	0	511705088	56	5416
2026-01-11 11:07:17.28	244.91	31.12	-42.2	-46.0	12.4	1.30e-04	0	56	0	512753664	56	5413
2026-01-11 11:07:18.30	245.25	31.19	-42.3	-46.1	12.3	1.36e-04	0	56	0	514850816	56	5490
2026-01-11 11:07:19.30	245.59	31.26	-42.3	-46.0	12.4	1.27e-04	0	56	0	516947968	56	5443
2026-01-11 11:07:20.32	245.93	31.33	-42.2	-45.9	12.5	1.17e-04	0	56	0	519045120	56	5371
2026-01-11 11:07:21.33	246.27	31.39	-42.1	-45.8	12.6	1.02e-04	0	56	0	521142272	56	5290
2026-01-11 11:07:22.34	246.62	31.46	-42.0	-45.5	12.8	6.40e-05	0	56	0	522190848	56	5159
2026-01-11 11:07:23.35	246.96	31.52	-41.9	-45.5	12.8	4.88e-05	0	56	0	524288000	55	5412
2026-01-11 11:07:24.35	247.31	31.58	-42.1	-45.8	12.4	7.93e-05	0	57	0	526385152	55	5647
2026-01-11 11:07:25.36	247.66	31.64	-42.4	-46.4	11.8	2.98e-04	0	56	0	528482304	55	6022
2026-01-11 11:07:26.37	248.00	31.71	-42.6	-47.0	11.2	7.44e-04	0	57	0	530579456	55	6435
2026-01-11 11:07:27.38	248.36	31.76	-42.6	-47.0	11.2	1.30e-03	0	56	0	531628032	55	6433
2026-01-11 11:07:28.39	248.71	31.82	-42.4	-46.5	11.7	7.51e-04	0	56	0	533725184	55	6131
2026-01-11 11:07:29.40	249.06	31.88	-42.2	-46.0	12.2	3.55e-04	0	56	0	535822336	55	5764
2026-01-11 11:07:30.41	249.42	31.94	-42.1	-45.7	12.5	1.30e-04	0	57	0	537919488	55	5584
2026-01-11 11:07:31.42	249.77	31.99	-41.9	-45.5	12.7	6.17e-05	0	57	0	540016640	55	5443
2026-01-11 11:07:32.43	250.13	32.05	-42.0	-45.6	12.7	6.33e-05	0	56	0	541065216	55	5479
2026-01-11 11:07:33.44	250.49	32.10	-42.0	-45.7	12.5	6.71e-05	0	56	0	543162368	55	5559
2026-01-11 11:07:34.45	250.85	32.15	-42.0	-45.7	12.5	1.11e-04	0	56	0	545259520	55	5573
2026-01-11 11:07:35.46	251.21	32.20	-42.1	-45.8	12.5	1.11e-04	0	56	0	547356672	55	5599
2026-01-11 11:07:36.47	251.57	32.25	-42.0	-45.7	12.5	1.17e-04	0	57	0	549453824	55	5587
2026-01-11 11:07:37.48	251.93	32.30	-41.9	-45.5	12.7	7.32e-05	0	56	0	551550976	55	5461
2026-01-11 11:07:38.49	252.29	32.35	-42.1	-45.8	12.4	1.27e-04	0	57	0	552599552	55	5640
2026-01-11 11:07:39.50	252.66	32.39	-42.2	-46.1	12.1	2.00e-04	0	56	0	554696704	55	5829
2026-01-11 11:07:40.51	253.02	32.44	-42.2	-46.2	12.0	2.50e-04	0	57	0	556793856	55	5869
2026-01-11 11:07:41.52	253.39	32.48	-42.3	-46.2	12.0	3.62e-04	0	57	0	558891008	55	5901
2026-01-11 11:07:42.53	253.76	32.53	-42.3	-46.3	12.0	3.51e-04	0	57	0	560988160	55	5927
2026-01-11 11:07:43.54	254.13	32.57	-42.2	-46.1	12.1	2.83e-04	0	56	0	562036736	55	5800
2026-01-11 11:07:44.55	254.49	32.61	-42.3	-46.2	12.0	2.88e-04	0	56	0	564133888	55	5871
2026-01-11 11:07:45.55	254.86	32.65	-42.3	-46.2	12.0	3.23e-04	0	56	0	566231040	55	5890
2026-01-11 11:07:46.56	255.23	32.68	-42.3	-46.3	12.0	2.88e-04	0	57	0	568328192	55	5936
2026-01-11 11:07:47.57	255.60	32.72	-42.3	-46.3	11.9	3.82e-04	0	57	0	570425344	55	5974
2026-01-11 11:07:48.57	255.97	32.75	-42.3	-46.3	11.9	3.31e-04	0	57	0	571473920	55	5976
2026-01-11 11:07:49.58	256.35	32.79	-42.4	-46.4	11.7	4.54e-04	0	57	0	573571072	55	6049
2026-01-11 11:07:50.59	256.72	32.82	-42.3	-46.3	11.9	4.42e-04	0	56	0	575668224	55	5959
2026-01-11 11:07:51.60	257.10	32.85	-42.3	-46.2	12.0	3.22e-04	0	57	0	577765376	55	5898
2026-01-11 11:07:52.61	257.47	32.88	-42.2	-46.0	12.2	2.11e-04	0	57	0	579862528	55	5755
2026-01-11 11:07:53.62	257.85	32.91	-42.0	-45.6	12.6	1.19e-04	0	56	0	580911104	55	5478
2026-01-11 11:07:54.63	258.22	32.94	-41.9	-45.6	12.7	8.54e-05	0	57	0	583008256	55	5483
2026-01-11 11:07:55.64	258.60	32.96	-42.0	-45.6	12.6	8.39e-05	0	56	0	585105408	55	5518
2026-01-11 11:07:56.65	258.98	32.99	-42.1	-45.9	12.3	8.77e-05	0	57	0	587202560	55	5695
2026-01-11 11:07:57.66	259.36	33.01	-42.4	-46.5	11.8	4.36e-04	0	56	0	589299712	55	6066
2026-01-11 11:07:58.67	259.74	33.03	-42.5	-46.7	11.5	6.78e-04	0	57	0	590348288	55	6223
2026-01-11 11:07:59.68	260.12	33.05	-42.5	-46.7	11.5	8.01e-04	0	57	0	592445440	55	6245
2026-01-11 11:08:00.69	260.50	33.07	-42.5	-46.6	11.6	8.13e-04	0	56	0	594542592	55	6170
2026-01-11 11:08:01.70	260.88	33.09	-42.3	-46.2	12.0	3.78e-04	0	56	0	596639744	55	5913
2026-01-11 11:08:02.71	261.26	33.11	-42.2	-46.1	12.2	2.68e-04	0	57	0	598736896	55	5805
2026-01-11 11:08:03.72	261.64	33.12	-42.4	-46.4	11.8	4.16e-04	0	57	0	599785472	55	6046
2026-01-11 11:08:04.73	262.02	33.13	-42.4	-46.5	11.7	4.68e-04	0	57	0	601882624	55	6079
2026-01-11 11:08:05.74	262.40	33.15	-42.5	-46.7	11.5	8.10e-04	0	57	0	603979776	55	6224
2026-01-11 11:08:06.75	262.78	33.16	-42.5	-46.7	11.5	7.52e-04	0	57	0	606076928	55	6238
2026-01-11 11:08:07.76	263.16	33.17	-42.5	-46.6	11.6	7.88e-04	0	57	0	608174080	55	6180
2026-01-11 11:08:08.77	263.55	33.18	-42.3	-46.3	11.9	5.18e-04	0	57	0	609222656	55	5981
2026-01-11 11:08:09.78	263.93	33.18	-42.2	-46.1	12.1	3.58e-04	0	56	0	611319808	55	5792
2026-01-11 11:08:10.78	264.31	33.19	-42.0	-45.6	12.7	1.40e-04	0	56	0	613416960	55	5497
2026-01-11 11:08:11.80	264.69	33.19	-41.8	-45.4	12.9	7.24e-05	0	56	0	615514112	55	5350
2026-01-11 11:08:12.80	265.07	33.19	-41.8	-45.4	12.9	3.81e-05	0	56	0	617611264	55	5347
2026-01-11 11:08:13.81	265.46	33.20	-41.9	-45.5	12.8	5.64e-05	0	57	0	619708416	55	5426
2026-01-11 11:08:14.82	265.84	33.19	-42.1	-45.8	12.5	1.13e-04	0	57	0	620756992	55	5624
2026-01-11 11:08:15.83	266.22	33.19	-42.0	-45.7	12.5	1.11e-04	0	57	0	622854144	55	5574
2026-01-11 11:08:16.84	266.61	33.19	-42.1	-45.8	12.5	1.09e-04	0	57	0	624951296	55	5603
2026-01-11 11:08:17.85	266.99	33.19	-42.1	-45.8	12.4	1.23e-04	0	57	0	627048448	55	5646
2026-01-11 11:08:18.86	267.37	33.18	-42.0	-45.6	12.6	1.36e-04	0	57	0	629145600	55	5522
2026-01-11 11:08:19.87	267.75	33.17	-42.0	-45.7	12.6	1.02e-04	0	57	0	630194176	55	5550
2026-01-11 11:08:20.88	268.13	33.16	-42.0	-45.6	12.7	8.62e-05	0	57	0	632291328	55	5472
2026-01-11 11:08:21.89	268.52	33.15	-42.1	-45.8	12.4	1.01e-04	0	57	0	634388480	55	5643
2026-01-11 11:08:22.90	268.90	33.14	-42.4	-46.4	11.9	2.52e-04	0	57	0	636485632	55	6059
2026-01-11 11:08:23.91	269.28	33.13	-42.4	-46.6	11.6	5.82e-04	0	57	0	638582784	55	6133
2026-01-11 11:08:24.92	269.66	33.12	-42.4	-46.4	11.9	5.09e-04	0	57	0	639631360	55	6017
2026-01-11 11:08:25.93	270.04	33.10	-42.2	-46.1	12.2	3.48e-04	0	57	0	641728512	55	5793
2026-01-11 11:08:26.94	270.42	33.08	-42.2	-46.1	12.2	2.19e-04	0	57	0	643825664	55	5792
2026-01-11 11:08:27.95	270.80	33.07	-42.0	-45.7	12.6	1.62e-04	0	57	0	645922816	55	5544
2026-01-11 11:08:28.96	271.18	33.05	-41.8	-45.3	13.0	6.25e-05	0	57	0	648019968	55	5283
2026-01-11 11:08:29.97	271.56	33.02	-41.6	-44.8	13.4	1.67e-05	0	57	0	649068544	55	5030
2026-01-11 11:08:30.97	271.93	33.00	-41.5	-44.7	13.6	8.30e-06	0	57	0	651165696	54	5245
2026-01-11 11:08:31.98	272.31	32.98	-41.6	-44.9	13.4	1.14e-05	0	57	0	653262848	54	5362
2026-01-11 11:08:32.99	272.69	32.95	-41.8	-45.3	13.0	1.52e-05	0	56	0	655360000	54	5604
2026-01-11 11:08:34.00	273.07	32.93	-42.1	-45.9	12.4	8.77e-05	0	57	0	657457152	54	6007
2026-01-11 11:08:35.01	273.44	32.90	-42.3	-46.3	11.9	2.38e-04	0	57	0	658505728	55	5934
2026-01-11 11:08:36.02	273.82	32.87	-42.3	-46.3	12.0	3.71e-04	0	56	0	660602880	55	5929
2026-01-11 11:08:37.03	274.19	32.84	-42.3	-46.4	11.9	3.85e-04	0	57	0	662700032	55	5997
2026-01-11 11:08:38.04	274.57	32.81	-42.4	-46.4	11.7	4.34e-04	0	57	0	664797184	55	6050
2026-01-11 11:08:39.05	274.94	32.78	-42.5	-46.6	11.6	4.74e-04	0	57	0	666894336	55	6177
2026-01-11 11:08:40.06	275.31	32.74	-42.5	-46.7	11.5	8.91e-04	0	57	0	667942912	55	6255
2026-01-11 11:08:41.07	275.68	32.71	-42.5	-46.7	11.4	1.03e-03	0	57	0	670040064	55	6266
2026-01-11 11:08:42.08	276.06	32.67	-42.6	-47.0	11.3	1.09e-03	0	57	0	672137216	55	6425
2026-01-11 11:08:43.09	276.43	32.63	-42.6	-46.9	11.3	1.29e-03	0	57	0	674234368	55	6394
2026-01-11 11:08:44.09	276.79	32.59	-42.6	-47.0	11.2	1.54e-03	0	57	0	676331520	55	6464
2026-01-11 11:08:45.10	277.16	32.55	-42.6	-47.0	11.2	1.34e-03	0	57	0	677380096	55	6432
2026-01-11 11:08:46.11	277.53	32.51	-42.6	-47.0	11.2	1.31e-03	0	57	0	679477248	55	6440
2026-01-11 11:08:47.13	277.90	32.47	-42.6	-46.9	11.3	1.28e-03	0	57	0	681574400	55	6385
2026-01-11 11:08:48.13	278.26	32.42	-42.7	-47.1	11.1	1.36e-03	0	57	0	683671552	55	6501
2026-01-11 11:08:49.15	278.63	32.38	-42.9	-47.3	11.1	1.83e-03	0	57	0	685768704	56	6314
2026-01-11 11:08:50.16	278.99	32.33	-42.9	-47.3	11.0	1.93e-03	0	57	0	687865856	56	6337
2026-01-11 11:08:51.17	279.35	32.28	-43.0	-47.5	10.8	2.10e-03	0	57	0	688914432	56	6485
2026-01-11 11:08:52.18	279.71	32.24	-42.9	-47.5	10.8	2.55e-03	0	57	0	691011584	56	6482
2026-01-11 11:08:53.19	280.07	32.19	-43.0	-47.6	10.7	3.05e-03	0	57	0	693108736	56	6534
2026-01-11 11:08:54.20	280.43	32.13	-43.0	-47.6	10.7	2.76e-03	0	57	0	695205888	56	6556
2026-01-11 11:08:55.21	280.79	32.08	-43.0	-47.7	10.6	3.30e-03	0	57	0	697303040	56	6630
2026-01-11 11:08:56.22	281.15	32.03	-43.0	-47.7	10.6	3.12e-03	0	57	0	698351616	56	6583
2026-01-11 11:08:57.23	281.50	31.97	-42.9	-47.5	10.8	3.07e-03	0	57	0	700448768	56	6449
2026-01-11 11:08:58.24	281.86	31.92	-42.9	-47.5	10.9	2.59e-03	0	57	0	702545920	56	6449
2026-01-11 11:08:59.25	282.21	31.86	-42.9	-47.3	11.0	2.24e-03	0	57	0	704643072	56	6346
2026-01-11 11:09:00.26	282.56	31.81	-42.7	-46.9	11.5	1.32e-03	0	57	0	706740224	56	6019
2026-01-11 11:09:01.26	282.91	31.75	-42.5	-46.5	11.8	8.96e-04	0	57	0	707788800	56	5785
2026-01-11 11:09:02.27	283.26	31.69	-42.3	-46.0	12.4	1.60e-04	0	57	0	709885952	56	5423
2026-01-11 11:09:03.28	283.61	31.63	-42.2	-45.9	12.5	1.13e-04	0	57	0	711983104	56	5348
2026-01-11 11:09:04.29	283.95	31.56	-42.1	-45.7	12.7	8.46e-05	0	57	0	714080256	56	5259
2026-01-11 11:09:05.30	284.30	31.50	-42.2	-45.9	12.5	1.16e-04	0	57	0	716177408	56	5379
2026-01-11 11:09:06.31	284.64	31.44	-42.3	-46.1	12.3	1.37e-04	0	57	0	717225984	56	5491
2026-01-11 11:09:07.32	284.99	31.37	-42.4	-46.2	12.2	2.02e-04	0	57	0	719323136	56	5572
2026-01-11 11:09:08.33	285.33	31.31	-42.4	-46.4	12.0	3.09e-04	0	57	0	721420288	56	5681
2026-01-11 11:09:09.34	285.67	31.24	-42.5	-46.5	11.8	3.96e-04	0	57	0	723517440	56	5770
2026-01-11 11:09:10.35	286.01	31.17	-42.5	-46.5	11.9	4.20e-04	0	57	0	725614592	56	5730
2026-01-11 11:09:11.36	286.34	31.11	-42.4	-46.4	12.0	3.40e-04	0	57	0	726663168	56	5686
2026-01-11 11:09:12.37	286.68	31.04	-42.5	-46.5	11.9	3.85e-04	0	56	0	728760320	56	5739
2026-01-11 11:09:13.38	287.01	30.97	-42.4	-46.2	12.2	2.85e-04	0	57	0	730857472	56	5585
2026-01-11 11:09:14.39	287.35	30.89	-42.3	-46.2	12.2	2.14e-04	0	57	0	732954624	56	5566
2026-01-11 11:09:15.40	287.68	30.82	-42.3	-46.2	12.3	2.16e-04	0	57	0	735051776	56	5535
2026-01-11 11:09:16.41	288.01	30.75	-42.3	-46.1	12.3	1.65e-04	0	57	0	736100352	56	5465
2026-01-11 11:09:17.42	288.34	30.68	-42.2	-45.9	12.5	1.37e-04	0	57	0	738197504	56	5377
2026-01-11 11:09:18.43	288.66	30.60	-42.2	-46.0	12.5	1.11e-04	0	57	0	740294656	56	5404
2026-01-11 11:09:19.44	288.99	30.53	-42.1	-45.7	12.7	9.68e-05	0	57	0	742391808	56	5274
2026-01-11 11:09:20.45	289.31	30.45	-42.1	-45.8	12.6	9.07e-05	0	57	0	744488960	56	5316
2026-01-11 11:09:21.46	289.64	30.37	-42.3	-46.1	12.3	1.08e-04	0	57	0	745537536	56	5507
2026-01-11 11:09:22.47	289.96	30.30	-42.5	-46.5	11.9	2.85e-04	0	57	0	747634688	56	5750
2026-01-11 11:09:23.48	290.28	30.22	-42.7	-47.0	11.4	7.14e-04	0	57	0	749731840	56	6087
2026-01-11 11:09:24.49	290.60	30.14	-42.8	-47.3	11.1	1.30e-03	0	57	0	751828992	56	6284
2026-01-11 11:09:25.50	290.91	30.06	-42.9	-47.4	10.9	2.13e-03	0	57	0	753926144	56	6398
2026-01-11 11:09:26.51	291.23	29.98	-42.7	-47.0	11.3	1.63e-03	0	57	0	756023296	56	6123
2026-01-11 11:09:27.52	291.54	29.90	-42.6	-46.9	11.5	9.05e-04	0	57	0	757071872	56	5995
2026-01-11 11:09:28.53	291.85	29.81	-42.5	-46.6	11.8	5.71e-04	0	57	0	759169024	56	5803
2026-01-11 11:09:29.54	292.16	29.73	-42.4	-46.4	12.0	4.49e-04	0	57	0	761266176	56	5692
2026-01-11 11:09:30.55	292.47	29.65	-42.2	-46.0	12.4	2.37e-04	0	57	0	763363328	56	5433
2026-01-11 11:09:31.56	292.78	29.56	-42.2	-45.8	12.5	1.04e-04	0	57	0	765460480	56	5340
2026-01-11 11:09:32.56	293.08	29.48	-42.2	-45.9	12.5	9.53e-05	0	57	0	766509056	56	5347
2026-01-11 11:09:33.57	293.38	29.40	-42.3	-46.2	12.2	1.56e-04	0	57	0	768606208	56	5534
2026-01-11 11:09:34.58	293.69	29.31	-42.5	-46.6	11.8	3.45e-04	0	57	0	770703360	56	5805
2026-01-11 11:09:35.59	293.99	29.22	-42.6	-46.8	11.5	6.72e-04	0	57	0	772800512	56	5958
2026-01-11 11:09:36.60	294.29	29.14	-42.7	-47.0	11.3	9.14e-04	0	57	0	774897664	56	6079
2026-01-11 11:09:37.61	294.58	29.05	-42.6	-46.8	11.5	9.39e-04	0	57	0	775946240	56	5973
2026-01-11 11:09:38.62	294.88	28.96	-42.6	-46.9	11.4	8.56e-04	0	57	0	778043392	56	6004
2026-01-11 11:09:39.63	295.17	28.87	-42.7	-47.0	11.4	1.00e-03	0	57	0	780140544	56	6083
2026-01-11 11:09:40.64	295.47	28.78	-42.8	-47.3	11.1	1.33e-03	0	57	0	782237696	56	6277
2026-01-11 11:09:41.65	295.76	28.70	-42.8	-47.3	11.0	2.06e-03	0	57	0	784334848	56	6338
2026-01-11 11:09:42.66	296.05	28.61	-42.8	-47.3	11.0	1.93e-03	0	57	0	785383424	56	6284
2026-01-11 11:09:43.67	296.34	28.51	-42.7	-46.9	11.4	1.44e-03	0	57	0	787480576	56	6052
2026-01-11 11:09:44.68	296.62	28.42	-42.6	-46.8	11.5	8.48e-04	0	57	0	789577728	56	5977
2026-01-11 11:09:45.68	296.90	28.33	-42.5	-46.5	11.8	6.81e-04	0	57	0	791674880	56	5778
2026-01-11 11:09:46.69	297.19	28.24	-42.3	-46.3	12.1	3.47e-04	0	57	0	793772032	56	5594
2026-01-11 11:09:47.70	297.47	28.15	-42.3	-46.2	12.2	2.50e-04	0	57	0	794820608	56	5539
2026-01-11 11:09:48.71	297.75	28.06	-42.1	-45.9	12.5	1.74e-04	0	57	0	796917760	56	5353
2026-01-11 11:09:49.72	298.03	27.96	-42.1	-45.8	12.6	1.07e-04	0	57	0	799014912	56	5291
2026-01-11 11:09:50.73	298.30	27.87	-41.6	-45.0	13.3	4.88e-05	0	57	0	801112064	55	5103
2026-01-11 11:09:51.74	298.58	27.78	-41.4	-44.6	13.6	1.37e-05	0	57	0	803209216	54	5165
2026-01-11 11:09:52.75	298.85	27.68	-41.3	-44.4	13.8	5.30e-06	0	57	0	804257792	54	5072
2026-01-11 11:09:53.76	299.12	27.59	-41.3	-44.4	13.9	2.20e-06	0	57	0	806354944	54	5042
2026-01-11 11:09:54.77	299.39	27.49	-41.4	-44.5	13.6	5.30e-06	0	57	0	808452096	54	5154
2026-01-11 11:09:55.78	299.66	27.40	-41.4	-44.7	13.6	6.10e-06	0	57	0	810549248	54	5227
2026-01-11 11:09:56.79	299.93	27.30	-41.6	-45.0	13.2	1.29e-05	0	57	0	812646400	54	5443
2026-01-11 11:09:57.80	300.20	27.21	-41.7	-45.2	13.0	3.35e-05	0	57	0	813694976	54	5573
2026-01-11 11:09:58.81	300.46	27.11	-41.9	-45.5	12.6	5.56e-05	0	57	0	815792128	54	5778
2026-01-11 11:09:59.82	300.72	27.01	-42.0	-45.7	12.4	1.05e-04	0	57	0	817889280	54	5902
2026-01-11 11:10:00.83	300.98	26.92	-42.1	-46.0	12.2	2.02e-04	0	57	0	819986432	54	6086
2026-01-11 11:10:01.84	301.24	26.82	-42.1	-45.9	12.2	2.36e-04	0	57	0	822083584	54	6003
2026-01-11 11:10:02.85	301.50	26.72	-41.9	-45.5	12.6	1.33e-04	0	57	0	824180736	54	5784
2026-01-11 11:10:03.86	301.76	26.63	-41.8	-45.4	12.8	6.40e-05	0	57	0	825229312	54	5660
2026-01-11 11:10:04.87	302.01	26.53	-41.6	-44.9	13.2	3.28e-05	0	57	0	827326464	54	5398
2026-01-11 11:10:05.88	302.26	26.43	-41.3	-44.4	13.8	1.75e-05	0	57	0	829423616	54	5075
2026-01-11 11:10:06.89	302.52	26.33	-41.0	-44.0	14.1	1.50e-06	0	57	0	831520768	54	4857
2026-01-11 11:10:07.89	302.76	26.23	-41.1	-44.2	14.0	1.50e-06	0	57	0	832569344	54	4942
2026-01-11 11:10:08.90	303.01	26.14	-41.3	-44.5	13.7	5.30e-06	0	57	0	834666496	54	5128
2026-01-11 11:10:09.91	303.26	26.04	-41.4	-44.7	13.5	9.90e-06	0	57	0	836763648	54	5268
2026-01-11 11:10:10.92	303.51	25.94	-41.3	-44.5	13.7	1.22e-05	0	57	0	838860800	54	5133
2026-01-11 11:10:11.93	303.75	25.84	-41.1	-44.2	14.0	3.00e-06	0	57	0	840957952	54	4933
2026-01-11 11:10:12.94	303.99	25.74	-41.0	-44.0	14.1	3.00e-06	0	57	0	842006528	54	4862
2026-01-11 11:10:13.95	304.23	25.64	-40.9	-43.8	14.3	2.20e-06	0	57	0	844103680	53	5031
2026-01-11 11:10:14.96	304.47	25.54	-41.1	-44.1	14.0	7.00e-07	0	57	0	846200832	53	5197
2026-01-11 11:10:15.97	304.71	25.44	-41.7	-45.2	13.0	1.06e-05	0	57	0	848297984	53	5857
2026-01-11 11:10:16.98	304.95	25.34	-42.0	-45.9	12.2	1.49e-04	0	57	0	850395136	54	6001
2026-01-11 11:10:17.99	305.18	25.24	-42.4	-46.6	11.4	7.41e-04	0	57	0	852492288	55	6199
2026-01-11 11:10:19.00	305.42	25.14	-42.3	-46.4	11.6	1.05e-03	0	57	0	853540864	55	6057
2026-01-11 11:10:20.01	305.65	25.04	-41.8	-45.5	12.7	3.20e-04	0	57	0	855638016	55	5403
2026-01-11 11:10:21.02	305.88	24.94	-41.5	-44.8	13.3	1.37e-05	0	57	0	857735168	55	4989
2026-01-11 11:10:22.03	306.11	24.84	-41.3	-44.5	13.7	6.80e-06	0	57	0	859832320	54	5128
2026-01-11 11:10:23.04	306.34	24.74	-41.4	-44.6	13.6	1.14e-05	0	57	0	861929472	54	5183
2026-01-11 11:10:24.05	306.56	24.64	-41.6	-44.9	13.2	1.22e-05	0	57	0	862978048	54	5401
2026-01-11 11:10:25.06	306.79	24.54	-41.9	-45.6	12.5	5.87e-05	0	57	0	865075200	54	5832
2026-01-11 11:10:26.07	307.01	24.44	-42.0	-45.7	12.4	1.46e-04	0	57	0	867172352	54	5919
2026-01-11 11:10:27.08	307.23	24.34	-41.8	-45.5	12.7	8.23e-05	0	57	0	869269504	54	5729
2026-01-11 11:10:28.09	307.46	24.24	-41.5	-44.8	13.3	4.04e-05	0	57	0	871366656	54	5331
2026-01-11 11:10:29.10	307.67	24.13	-41.2	-44.3	13.9	1.06e-05	0	57	0	872415232	54	4986
2026-01-11 11:10:30.11	307.89	24.03	-41.2	-44.3	13.9	1.50e-06	0	57	0	874512384	54	4990
2026-01-11 11:10:31.12	308.11	23.93	-41.0	-44.0	14.1	7.00e-07	0	57	0	876609536	54	4860
2026-01-11 11:10:32.13	308.33	23.83	-41.2	-44.3	13.8	0.00e+00	0	57	0	878706688	54	5004
2026-01-11 11:10:33.14	308.54	23.73	-41.5	-44.9	13.2	6.80e-06	0	57	0	880803840	54	5395
2026-01-11 11:10:34.15	308.75	23.63	-41.8	-45.4	12.7	5.87e-05	0	57	0	881852416	54	5712
2026-01-11 11:10:35.16	308.96	23.53	-41.7	-45.3	12.8	8.92e-05	0	57	0	883949568	54	5630
2026-01-11 11:10:36.17	309.17	23.43	-41.5	-44.8	13.3	3.89e-05	0	57	0	886046720	54	5303
2026-01-11 11:10:37.17	309.38	23.33	-41.2	-44.3	13.8	5.30e-06	0	57	0	888143872	54	4993
2026-01-11 11:10:38.18	309.59	23.23	-41.0	-44.0	14.1	5.30e-06	0	57	0	890241024	54	4856
2026-01-11 11:10:39.19	309.79	23.13	-40.9	-43.8	14.3	1.50e-06	0	57	0	891289600	53	5016
2026-01-11 11:10:40.20	310.00	23.03	-41.0	-44.0	14.1	3.00e-06	0	57	0	893386752	53	5110
2026-01-11 11:10:41.21	310.20	22.93	-41.2	-44.4	13.6	4.50e-06	0	57	0	895483904	53	5391
2026-01-11 11:10:42.22	310.40	22.82	-41.6	-45.1	13.0	1.52e-05	0	57	0	897581056	53	5793
2026-01-11 11:10:43.23	310.61	22.72	-41.6	-45.1	12.9	4.73e-05	0	57	0	899678208	53	5851
2026-01-11 11:10:44.24	310.80	22.62	-41.4	-44.8	13.3	3.28e-05	0	57	0	900726784	53	5614
2026-01-11 11:10:45.25	311.00	22.52	-41.1	-44.2	13.9	7.60e-06	0	57	0	902823936	53	5268
2026-01-11 11:10:46.26	311.20	22.42	-40.8	-43.7	14.4	7.00e-07	0	57	0	904921088	53	4927
2026-01-11 11:10:47.27	311.40	22.32	-40.5	-43.3	14.8	0.00e+00	0	57	0	907018240	53	4726
2026-01-11 11:10:48.28	311.59	22.22	-40.4	-43.0	15.1	0.00e+00	0	57	0	909115392	52	4840
2026-01-11 11:10:49.30	311.79	22.12	-40.3	-42.9	15.2	7.00e-07	0	57	0	910163968	52	4801
2026-01-11 11:10:50.31	311.98	22.02	-40.4	-43.1	15.0	0.00e+00	0	57	0	912261120	52	4892
2026-01-11 11:10:51.32	312.17	21.92	-40.5	-43.3	14.9	0.00e+00	0	57	0	914358272	52	4989
2026-01-11 11:10:52.32	312.36	21.82	-40.6	-43.3	14.8	0.00e+00	0	57	0	916455424	52	5030
2026-01-11 11:10:53.33	312.55	21.72	-40.5	-43.3	14.8	0.00e+00	0	57	0	918552576	52	4990
2026-01-11 11:10:54.34	312.73	21.62	-40.4	-43.1	15.0	0.00e+00	0	57	0	920649728	52	4874
2026-01-11 11:10:55.35	312.92	21.52	-40.3	-42.9	15.2	0.00e+00	0	57	0	921698304	52	4798
2026-01-11 11:10:56.36	313.11	21.42	-40.3	-42.8	15.3	0.00e+00	0	57	0	923795456	52	4749
2026-01-11 11:10:57.37	313.29	21.32	-40.2	-42.8	15.3	0.00e+00	0	57	0	925892608	52	4729
2026-01-11 11:10:58.38	313.47	21.22	-40.2	-42.9	15.2	0.00e+00	0	57	0	927989760	52	4760
2026-01-11 11:10:59.39	313.65	21.12	-40.5	-43.2	14.9	0.00e+00	0	57	0	930086912	52	4935
2026-01-11 11:11:00.40	313.83	21.02	-40.6	-43.4	14.7	0.00e+00	0	57	0	931135488	52	5058
2026-01-11 11:11:01.41	314.01	20.92	-40.6	-43.5	14.6	0.00e+00	0	57	0	933232640	52	5111
2026-01-11 11:11:02.41	314.19	20.82	-40.6	-43.4	14.6	0.00e+00	0	57	0	935329792	52	5098
2026-01-11 11:11:03.43	314.37	20.72	-40.4	-43.2	14.9	0.00e+00	0	57	0	937426944	52	4929
2026-01-11 11:11:04.43	314.54	20.63	-40.3	-42.9	15.2	7.00e-07	0	57	0	939524096	52	4798
2026-01-11 11:11:05.44	314.72	20.53	-40.1	-42.7	15.4	0.00e+00	0	57	0	940572672	52	4659
2026-01-11 11:11:06.46	314.89	20.43	-40.0	-42.5	15.6	0.00e+00	0	57	0	942669824	52	4587
2026-01-11 11:11:07.47	315.07	20.33	-40.1	-42.5	15.6	0.00e+00	0	57	0	944766976	51	4852
2026-01-11 11:11:08.48	315.24	20.23	-40.0	-42.4	15.7	0.00e+00	0	57	0	946864128	51	4807
2026-01-11 11:11:09.49	315.41	20.13	-40.0	-42.5	15.7	0.00e+00	0	57	0	948961280	51	4834
2026-01-11 11:11:10.49	315.58	20.04	-40.0	-42.5	15.6	0.00e+00	0	57	0	950009856	51	4831
2026-01-11 11:11:11.50	315.75	19.94	-40.1	-42.6	15.5	0.00e+00	0	57	0	952107008	51	4917
2026-01-11 11:11:12.51	315.91	19.84	-40.0	-42.5	15.6	0.00e+00	0	57	0	954204160	51	4854
2026-01-11 11:11:13.52	316.08	19.74	-39.9	-42.3	15.8	0.00e+00	0	57	0	956301312	51	4757
2026-01-11 11:11:14.53	316.24	19.65	-39.8	-42.2	15.9	0.00e+00	0	57	0	958398464	51	4678
2026-01-11 11:11:15.54	316.41	19.55	-39.8	-42.1	16.0	0.00e+00	0	57	0	959447040	51	4651
2026-01-11 11:11:16.55	316.57	19.45	-39.7	-42.1	16.1	0.00e+00	0	57	0	961544192	51	4600
2026-01-11 11:11:17.56	316.73	19.35	-39.8	-42.1	16.0	0.00e+00	0	57	0	963641344	51	4637
2026-01-11 11:11:18.57	316.90	19.26	-39.7	-42.1	16.1	0.00e+00	0	57	0	965738496	51	4614
2026-01-11 11:11:19.58	317.06	19.16	-39.8	-42.2	15.9	0.00e+00	0	57	0	967835648	51	4670
2026-01-11 11:11:20.58	317.21	19.07	-39.9	-42.3	15.8	0.00e+00	0	57	0	968884224	51	4720
2026-01-11 11:11:21.59	317.37	18.97	-39.9	-42.4	15.7	0.00e+00	0	57	0	970981376	51	4778
2026-01-11 11:11:22.60	317.53	18.87	-40.0	-42.5	15.6	0.00e+00	0	57	0	973078528	51	4860
2026-01-11 11:11:23.61	317.69	18.78	-40.1	-42.6	15.5	0.00e+00	0	57	0	975175680	51	4919
2026-01-11 11:11:24.62	317.84	18.68	-40.2	-42.8	15.3	0.00e+00	0	57	0	977272832	51	5014
2026-01-11 11:11:25.63	318.00	18.59	-40.3	-42.9	15.2	0.00e+00	0	57	0	978321408	51	5088
2026-01-11 11:11:26.65	318.15	18.49	-40.3	-42.9	15.2	0.00e+00	0	57	0	980418560	51	5085
2026-01-11 11:11:27.65	318.30	18.39	-40.3	-43.0	15.1	0.00e+00	0	57	0	982515712	51	5109
2026-01-11 11:11:28.66	318.45	18.30	-40.3	-42.9	15.2	0.00e+00	0	57	0	984612864	51	5057
2026-01-11 11:11:29.67	318.61	18.20	-40.2	-42.8	15.3	0.00e+00	0	57	0	986710016	51	5025
2026-01-11 11:11:30.68	318.76	18.11	-40.2	-42.8	15.3	0.00e+00	0	57	0	988807168	51	4990
2026-01-11 11:11:31.69	318.90	18.02	-40.1	-42.6	15.5	0.00e+00	0	57	0	989855744	51	4906
2026-01-11 11:11:32.70	319.05	17.92	-40.1	-42.6	15.5	0.00e+00	0	57	0	991952896	51	4905
2026-01-11 11:11:33.71	319.20	17.83	-40.0	-42.5	15.6	0.00e+00	0	57	0	994050048	51	4856
2026-01-11 11:11:34.72	319.35	17.73	-40.0	-42.5	15.6	0.00e+00	0	57	0	996147200	51	4849
2026-01-11 11:11:35.73	319.49	17.64	-40.1	-42.6	15.5	0.00e+00	0	57	0	998244352	51	4874
2026-01-11 11:11:36.74	319.64	17.55	-40.2	-42.8	15.3	0.00e+00	0	57	0	999292928	51	4989
2026-01-11 11:11:37.75	319.78	17.45	-40.3	-42.9	15.2	0.00e+00	0	57	0	1001390080	51	5069
2026-01-11 11:11:38.76	319.92	17.36	-40.3	-43.0	15.1	0.00e+00	0	57	0	1003487232	51	5126
2026-01-11 11:11:39.77	320.07	17.27	-40.4	-43.1	14.9	0.00e+00	0	57	0	1005584384	51	5212
2026-01-11 11:11:40.78	320.21	17.17	-40.5	-43.2	14.8	7.00e-07	0	57	0	1007681536	51	5272
2026-01-11 11:11:41.79	320.35	17.08	-40.5	-43.3	14.7	0.00e+00	0	57	0	1008730112	51	5305
2026-01-11 11:11:42.80	320.49	16.99	-40.5	-43.3	14.7	7.00e-07	0	57	0	1010827264	51	5304
2026-01-11 11:11:43.81	320.62	16.90	-40.5	-43.2	14.8	0.00e+00	0	57	0	1012924416	51	5279
2026-01-11 11:11:44.82	320.76	16.80	-40.5	-43.3	14.8	0.00e+00	0	57	0	1015021568	51	5286
2026-01-11 11:11:45.82	320.90	16.71	-40.5	-43.2	14.9	7.00e-07	0	57	0	1017118720	51	5244
2026-01-11 11:11:46.83	321.03	16.62	-40.4	-43.2	14.9	0.00e+00	0	57	0	1018167296	51	5221
2026-01-11 11:11:47.84	321.17	16.53	-40.6	-43.4	14.6	0.00e+00	0	57	0	1020264448	51	5371
2026-01-11 11:11:48.85	321.30	16.44	-40.6	-43.4	14.6	0.00e+00	0	57	0	1022361600	51	5344
2026-01-11 11:11:49.86	321.44	16.35	-40.7	-43.6	14.4	0.00e+00	0	57	0	1024458752	51	5523
2026-01-11 11:11:50.87	321.57	16.26	-40.7	-43.7	14.2	0.00e+00	0	57	0	1026555904	52	5272
2026-01-11 11:11:51.88	321.70	16.16	-40.8	-43.8	14.2	7.00e-07	0	57	0	1027604480	52	5286
2026-01-11 11:11:52.89	321.84	16.07	-40.8	-43.9	14.0	7.00e-07	0	57	0	1029701632	52	5375
2026-01-11 11:11:53.90	321.97	15.98	-40.9	-44.0	13.9	3.80e-06	0	57	0	1031798784	52	5412
2026-01-11 11:11:54.91	322.10	15.89	-41.0	-44.2	13.7	3.80e-06	0	57	0	1033895936	52	5551
2026-01-11 11:11:55.92	322.23	15.80	-40.9	-44.1	13.8	6.10e-06	0	57	0	1035993088	52	5492
2026-01-11 11:11:56.93	322.35	15.71	-40.8	-43.9	14.0	3.80e-06	0	57	0	1037041664	52	5369
2026-01-11 11:11:57.94	322.48	15.62	-40.8	-43.9	14.0	1.50e-06	0	57	0	1039138816	52	5364
2026-01-11 11:11:58.95	322.61	15.54	-40.7	-43.7	14.1	3.80e-06	0	57	0	1041235968	52	5269
2026-01-11 11:11:59.96	322.74	15.45	-40.8	-43.8	14.1	1.50e-06	0	57	0	1043333120	52	5289
2026-01-11 11:12:00.97	322.86	15.36	-40.9	-44.0	13.9	5.30e-06	0	57	0	1045430272	52	5417
2026-01-11 11:12:01.98	322.99	15.27	-40.9	-44.0	13.9	3.00e-06	0	57	0	1046478848	52	5427
2026-01-11 11:12:02.98	323.11	15.18	-40.9	-44.0	13.8	3.00e-06	0	57	0	1048576000	52	5460
2026-01-11 11:12:03.99	323.23	15.09	-41.0	-44.3	13.6	4.50e-06	0	57	0	1050673152	52	5612
2026-01-11 11:12:05.00	323.36	15.00	-41.1	-44.3	13.5	9.10e-06	0	57	0	1052770304	52	5649
2026-01-11 11:12:06.01	323.48	14.92	-41.2	-44.6	13.2	1.29e-05	0	57	0	1054867456	52	5817
2026-01-11 11:12:07.02	323.60	14.83	-41.2	-44.6	13.2	1.98e-05	0	57	0	1056964608	53	5487
2026-01-11 11:12:08.03	323.72	14.74	-41.3	-44.7	13.1	2.44e-05	0	57	0	1058013184	53	5567
2026-01-11 11:12:09.04	323.84	14.65	-41.4	-45.0	12.8	3.89e-05	0	57	0	1060110336	53	5743
2026-01-11 11:12:10.05	323.96	14.57	-41.4	-44.9	12.9	6.02e-05	0	57	0	1062207488	53	5708
2026-01-11 11:12:11.06	324.08	14.48	-41.5	-45.1	12.7	6.94e-05	0	57	0	1064304640	53	5822
2026-01-11 11:12:12.07	324.20	14.39	-41.5	-45.1	12.7	1.23e-04	0	57	0	1066401792	53	5802
2026-01-11 11:12:13.08	324.31	14.31	-41.4	-45.0	12.9	5.18e-05	0	57	0	1067450368	53	5744
2026-01-11 11:12:14.09	324.43	14.22	-41.4	-45.0	12.7	7.17e-05	0	57	0	1069547520	53	5788
2026-01-11 11:12:15.10	324.55	14.13	-41.4	-44.9	12.9	6.63e-05	0	57	0	1071644672	53	5699
2026-01-11 11:12:16.11	324.66	14.05	-41.4	-45.0	12.8	5.95e-05	0	57	0	1073741824	53	5739
2026-01-11 11:12:17.12	324.78	13.96	-41.4	-45.0	12.8	7.93e-05	0	57	0	1075838976	53	5748
2026-01-11 11:12:18.13	324.89	13.88	-41.2	-44.6	13.2	3.58e-05	0	57	0	1076887552	53	5483
2026-01-11 11:12:19.14	325.00	13.79	-41.1	-44.4	13.4	1.90e-05	0	57	0	1078984704	53	5369
2026-01-11 11:12:20.15	325.12	13.71	-41.0	-44.2	13.6	1.14e-05	0	57	0	1081081856	53	5235
2026-01-11 11:12:21.16	325.23	13.62	-40.9	-44.0	13.7	5.30e-06	0	57	0	1083179008	53	5154
2026-01-11 11:12:22.17	325.34	13.54	-41.0	-44.2	13.5	9.10e-06	0	57	0	1085276160	53	5258
2026-01-11 11:12:23.18	325.45	13.45	-40.9	-44.1	13.6	9.90e-06	0	57	0	1086324736	53	5191
2026-01-11 11:12:24.19	325.56	13.37	-40.9	-44.1	13.7	6.80e-06	0	57	0	1088421888	53	5189
2026-01-11 11:12:25.20	325.67	13.28	-41.0	-44.3	13.5	7.60e-06	0	57	0	1090519040	53	5281
2026-01-11 11:12:26.21	325.78	13.20	-41.0	-44.3	13.4	1.29e-05	0	57	0	1092616192	53	5319
2026-01-11 11:12:27.22	325.89	13.12	-41.1	-44.4	13.4	2.05e-05	0	57	0	1094713344	53	5343
2026-01-11 11:12:28.23	326.00	13.03	-41.2	-44.6	13.2	2.59e-05	0	57	0	1095761920	53	5479
2026-01-11 11:12:29.24	326.10	12.95	-41.2	-44.6	13.1	3.20e-05	0	57	0	1097859072	53	5517
2026-01-11 11:12:30.25	326.21	12.87	-41.3	-44.9	12.8	3.35e-05	0	57	0	1099956224	53	5677
2026-01-11 11:12:31.26	326.32	12.78	-41.3	-44.9	12.8	5.64e-05	0	57	0	1102053376	53	5684
2026-01-11 11:12:32.26	326.42	12.70	-41.3	-44.9	12.8	7.85e-05	0	57	0	1104150528	53	5693
2026-01-11 11:12:33.27	326.53	12.62	-41.3	-44.9	12.8	6.10e-05	0	57	0	1105199104	53	5699
2026-01-11 11:12:34.28	326.63	12.54	-41.3	-44.8	12.9	4.73e-05	0	57	0	1107296256	53	5618
2026-01-11 11:12:35.29	326.74	12.46	-41.2	-44.7	12.9	5.64e-05	0	57	0	1109393408	53	5590
2026-01-11 11:12:36.30	326.84	12.37	-41.1	-44.6	13.1	4.57e-05	0	57	0	1111490560	53	5481
2026-01-11 11:12:37.31	326.94	12.29	-41.0	-44.4	13.3	1.60e-05	0	57	0	1113587712	53	5358
2026-01-11 11:12:38.32	327.04	12.21	-41.0	-44.4	13.2	1.90e-05	0	57	0	1114636288	53	5355
2026-01-11 11:12:39.33	327.15	12.13	-40.9	-44.2	13.5	1.37e-05	0	57	0	1116733440	53	5219
2026-01-11 11:12:40.34	327.25	12.05	-40.8	-44.0	13.7	2.20e-06	0	57	0	1118830592	53	5120
2026-01-11 11:12:41.35	327.35	11.97	-40.8	-43.9	13.8	8.30e-06	0	57	0	1120927744	53	5077
2026-01-11 11:12:42.36	327.45	11.89	-40.7	-43.8	13.8	7.60e-06	0	57	0	1123024896	53	5038
2026-01-11 11:12:43.37	327.55	11.81	-40.7	-43.9	13.8	3.80e-06	0	57	0	1124073472	53	5063
2026-01-11 11:12:44.38	327.65	11.73	-40.7	-43.8	13.9	5.30e-06	0	57	0	1126170624	53	4987
2026-01-11 11:12:45.39	327.75	11.65	-40.8	-43.9	13.7	3.80e-06	0	57	0	1128267776	53	5089
2026-01-11 11:12:46.40	327.84	11.57	-40.8	-44.0	13.6	9.10e-06	0	57	0	1130364928	53	5117
2026-01-11 11:12:47.41	327.94	11.49	-40.8	-44.1	13.5	1.14e-05	0	57	0	1132462080	53	5166
2026-01-11 11:12:48.42	328.04	11.41	-40.9	-44.2	13.4	6.80e-06	0	57	0	1134559232	53	5234
2026-01-11 11:12:49.43	328.14	11.33	-41.0	-44.4	13.2	2.36e-05	0	57	0	1135607808	53	5351
2026-01-11 11:12:50.43	328.23	11.25	-41.1	-44.5	13.1	3.20e-05	0	57	0	1137704960	53	5429
2026-01-11 11:12:51.44	328.33	11.17	-41.1	-44.6	13.0	4.42e-05	0	57	0	1139802112	53	5500
2026-01-11 11:12:52.45	328.42	11.09	-41.1	-44.6	13.0	3.28e-05	0	57	0	1141899264	53	5485
2026-01-11 11:12:53.47	328.52	11.01	-41.1	-44.6	12.9	4.42e-05	0	57	0	1143996416	53	5522
2026-01-11 11:12:54.47	328.61	10.93	-41.0	-44.5	13.0	3.43e-05	0	57	0	1145044992	53	5430
2026-01-11 11:12:55.48	328.71	10.85	-41.0	-44.5	13.0	2.89e-05	0	57	0	1147142144	53	5423
2026-01-11 11:12:56.49	328.80	10.78	-41.0	-44.5	13.1	2.36e-05	0	57	0	1149239296	53	5416
2026-01-11 11:12:57.51	328.89	10.70	-41.1	-44.6	12.9	4.57e-05	0	57	0	1151336448	53	5499
2026-01-11 11:12:58.51	328.98	10.62	-41.2	-44.8	12.8	4.11e-05	0	57	0	1153433600	53	5595
2026-01-11 11:12:59.52	329.08	10.54	-41.1	-44.6	13.0	5.26e-05	0	57	0	1154482176	53	5484
2026-01-11 11:13:00.53	329.17	10.47	-40.9	-44.3	13.2	4.19e-05	0	57	0	1156579328	53	5330
2026-01-11 11:13:01.54	329.26	10.39	-40.9	-44.3	13.3	1.83e-05	0	57	0	1158676480	53	5296
2026-01-11 11:13:02.55	329.35	10.31	-40.9	-44.3	13.2	1.98e-05	0	57	0	1160773632	53	5304
