passes_logs/2026/01/11/R2.0S_Moscow/R2.0S_Moscow__20260111_014916_FENGYUN_3D_rec.log

#Pass ID: 20260111_014916_FENGYUN 3D
#Satellite: FENGYUN 3D
#Configuration: FENGYUN 3D
#almurnet v.1.7.20251203
#Start time: 2026-01-11 01:57:04

#Version: 2.2.20231116
#Station: R2.0S_Moscow
#Location: 37.707566 lon 55.798166 lat
#TLE: 1 43010U 17072A   26009.92921666 -.00000228  00000+0 -86059-4 0  9998
#TLE: 2 43010  98.9936 341.6668 0002176 116.7510 243.3888 14.19693142422537

#Time	Az	El	Level	Level2	SNR	BER	BlckErr	Temp	State	Recorded	gain1	gain2
2026-01-11 01:57:04.72	216.86	71.87	-45.0	-63.4	3.8	8.46e-01	0	55	0	0	61	30193
2026-01-11 01:57:05.72	216.40	71.42	-45.1	-56.8	3.8	8.45e-01	0	55	104	0	61	14120
2026-01-11 01:57:06.73	215.95	70.96	-45.1	-56.8	3.8	8.47e-01	0	55	104	0	61	14109
2026-01-11 01:57:07.74	215.53	70.50	-45.0	-56.7	3.8	8.45e-01	0	55	104	0	61	14029
2026-01-11 01:57:08.75	215.13	70.05	-45.0	-56.8	3.8	8.46e-01	0	55	104	0	61	14088
2026-01-11 01:57:09.76	214.75	69.59	-45.0	-56.7	3.8	8.47e-01	0	55	104	0	61	14020
2026-01-11 01:57:10.77	214.39	69.14	-45.0	-56.7	3.8	8.47e-01	0	55	104	0	61	13988
2026-01-11 01:57:11.78	214.04	68.69	-45.0	-56.7	3.8	8.47e-01	0	55	104	0	61	13965
2026-01-11 01:57:12.79	213.71	68.24	-45.0	-56.7	3.8	8.46e-01	0	55	104	0	61	13931
2026-01-11 01:57:13.79	213.39	67.80	-45.0	-56.6	3.8	8.46e-01	0	55	104	0	61	13880
2026-01-11 01:57:14.80	213.09	67.35	-45.0	-56.7	3.8	8.45e-01	0	56	104	0	61	13933
2026-01-11 01:57:15.81	212.80	66.90	-45.0	-56.7	3.8	8.46e-01	0	55	104	0	61	14024
2026-01-11 01:57:16.82	212.52	66.46	-45.0	-56.7	3.8	8.45e-01	0	55	104	0	61	14033
2026-01-11 01:57:17.83	212.25	66.02	-45.0	-56.7	3.8	8.46e-01	0	55	104	0	61	13944
2026-01-11 01:57:18.84	212.00	65.58	-45.0	-56.7	3.8	8.46e-01	0	55	104	0	61	13932
2026-01-11 01:57:19.85	211.75	65.14	-45.0	-56.7	3.8	8.46e-01	0	55	104	0	61	13976
2026-01-11 01:57:20.85	211.52	64.71	-45.0	-56.6	3.8	8.47e-01	0	55	104	0	61	13865
2026-01-11 01:57:21.86	211.29	64.28	-44.9	-56.6	3.8	8.47e-01	0	55	104	0	61	13771
2026-01-11 01:57:22.87	211.07	63.85	-45.0	-56.6	3.8	8.45e-01	0	55	104	0	61	13750
2026-01-11 01:57:23.88	210.86	63.42	-45.0	-56.6	3.8	8.47e-01	0	56	104	0	61	13852
2026-01-11 01:57:24.89	210.65	63.00	-45.0	-56.7	3.8	8.47e-01	0	55	104	0	61	13898
2026-01-11 01:57:25.89	210.46	62.58	-45.0	-56.7	3.8	8.46e-01	0	56	104	0	61	13899
2026-01-11 01:57:26.90	210.27	62.15	-44.9	-56.4	3.8	8.47e-01	0	55	104	0	61	13471
2026-01-11 01:57:27.91	210.09	61.73	-44.9	-56.4	3.8	8.47e-01	0	56	104	0	61	13478
2026-01-11 01:57:28.92	209.91	61.32	-45.0	-56.6	3.8	8.47e-01	0	56	104	0	61	13866
2026-01-11 01:57:29.93	209.74	60.90	-45.0	-56.7	3.8	8.47e-01	0	56	104	0	61	13900
2026-01-11 01:57:30.95	209.57	60.49	-45.0	-56.6	3.8	8.46e-01	0	56	104	0	61	13874
2026-01-11 01:57:31.95	209.41	60.08	-44.9	-56.5	3.8	8.45e-01	0	56	104	0	61	13657
2026-01-11 01:57:32.96	209.26	59.67	-44.9	-56.3	3.8	8.46e-01	0	56	104	0	61	13362
2026-01-11 01:57:33.97	209.11	59.27	-44.9	-56.4	3.8	8.47e-01	0	56	104	0	61	13430
2026-01-11 01:57:34.99	208.96	58.86	-44.9	-56.5	3.8	8.48e-01	0	56	104	0	61	13593
2026-01-11 01:57:36.00	208.82	58.46	-44.9	-56.6	3.8	8.46e-01	0	56	104	0	61	13749
2026-01-11 01:57:37.01	208.69	58.06	-44.9	-56.7	3.8	8.47e-01	0	56	104	0	61	13903
2026-01-11 01:57:38.02	208.55	57.67	-44.9	-56.5	3.8	8.46e-01	0	56	104	0	61	13721
2026-01-11 01:57:39.03	208.42	57.28	-44.9	-56.5	3.8	8.46e-01	0	56	104	0	61	13600
2026-01-11 01:57:40.04	208.30	56.89	-44.9	-56.1	3.8	8.45e-01	0	56	104	0	61	13109
2026-01-11 01:57:41.05	208.18	56.50	-44.8	-55.7	3.8	8.46e-01	0	56	104	0	61	12458
2026-01-11 01:57:42.06	208.06	56.11	-44.9	-56.0	3.8	8.46e-01	0	56	104	0	61	12901
2026-01-11 01:57:43.07	207.95	55.73	-44.9	-56.4	3.8	8.46e-01	0	56	104	0	61	13520
2026-01-11 01:57:44.08	207.83	55.35	-44.9	-56.5	3.8	8.46e-01	0	56	104	0	61	13700
2026-01-11 01:57:45.09	207.73	54.97	-44.9	-56.6	3.8	8.45e-01	0	56	104	0	61	13790
2026-01-11 01:57:46.10	207.62	54.60	-44.9	-56.2	3.8	8.45e-01	0	56	104	0	61	13238
2026-01-11 01:57:47.12	207.52	54.22	-44.8	-55.7	3.8	8.45e-01	0	56	104	0	61	12485
2026-01-11 01:57:48.13	207.42	53.86	-44.8	-55.8	3.8	8.46e-01	0	56	104	0	61	12597
2026-01-11 01:57:49.14	207.32	53.49	-44.8	-55.2	3.8	8.47e-01	0	56	104	0	61	11743
2026-01-11 01:57:50.15	207.22	53.12	-44.7	-54.5	3.9	8.45e-01	0	56	104	0	61	10809
2026-01-11 01:57:51.16	207.13	52.76	-44.9	-56.3	3.8	8.47e-01	0	56	104	0	61	13294
2026-01-11 01:57:52.17	207.04	52.40	-44.4	-52.9	3.9	8.46e-01	0	56	104	0	60	9593
2026-01-11 01:57:53.18	206.95	52.05	-42.7	-46.9	8.3	1.25e-01	0	56	0	3145728	57	5686
2026-01-11 01:57:54.19	206.87	51.69	-41.5	-44.7	10.4	8.99e-03	0	56	0	8388608	55	4968
2026-01-11 01:57:55.20	206.78	51.34	-42.5	-46.6	8.4	3.06e-02	0	56	0	13631488	55	6194
2026-01-11 01:57:56.21	206.70	50.99	-44.6	-53.5	4.1	8.04e-01	0	56	0	16777216	59	10895
2026-01-11 01:57:57.22	206.62	50.64	-40.7	-43.4	11.7	1.05e-02	0	56	0	20971520	53	4778
2026-01-11 01:57:58.23	206.54	50.30	-36.6	-38.1	16.9	0.00e+00	0	56	0	26214400	45	4139
2026-01-11 01:57:59.25	206.47	49.96	-34.7	-36.0	18.8	0.00e+00	0	56	0	32505856	41	4096
2026-01-11 01:58:00.26	206.39	49.62	-39.6	-41.9	13.5	2.05e-05	0	56	0	37748736	50	4764
2026-01-11 01:58:01.27	206.32	49.28	-43.0	-47.4	7.5	8.44e-01	0	56	104	39845888	58	5707
2026-01-11 01:58:02.28	206.25	48.95	-36.0	-37.5	17.4	0.00e+00	0	56	0	44040192	42	4561
2026-01-11 01:58:03.29	206.18	48.61	-38.2	-40.0	15.1	6.23e-04	0	56	0	50331648	48	4315
2026-01-11 01:58:04.30	206.11	48.28	-36.7	-38.3	16.8	0.00e+00	0	56	0	55574528	45	4208
2026-01-11 01:58:05.31	206.05	47.96	-34.0	-35.3	19.6	0.00e+00	0	56	0	60817408	39	4204
2026-01-11 01:58:06.32	205.98	47.63	-33.9	-35.2	19.6	0.00e+00	0	56	0	67108864	39	4159
2026-01-11 01:58:07.33	205.92	47.31	-33.8	-35.0	19.8	0.00e+00	0	56	0	72351744	39	4074
2026-01-11 01:58:08.34	205.86	46.99	-33.5	-34.7	20.1	0.00e+00	0	56	0	78643200	39	3922
2026-01-11 01:58:09.35	205.80	46.67	-33.3	-34.5	20.2	0.00e+00	0	56	0	83886080	38	4086
2026-01-11 01:58:10.36	205.74	46.36	-33.3	-34.5	20.2	0.00e+00	0	56	0	89128960	38	4085
2026-01-11 01:58:11.37	205.68	46.05	-33.5	-34.7	20.1	0.00e+00	0	56	0	95420416	38	4149
2026-01-11 01:58:12.38	205.62	45.74	-33.7	-34.9	19.9	0.00e+00	0	56	0	100663296	38	4256
2026-01-11 01:58:13.39	205.56	45.43	-33.8	-35.1	19.7	0.00e+00	0	56	0	106954752	38	4355
2026-01-11 01:58:14.40	205.51	45.12	-34.0	-35.2	19.6	0.00e+00	0	56	0	112197632	38	4429
2026-01-11 01:58:15.41	205.46	44.82	-34.0	-35.3	19.5	0.00e+00	0	56	0	118489088	38	4450
2026-01-11 01:58:16.42	205.40	44.52	-33.9	-35.2	19.6	0.00e+00	0	56	0	123731968	38	4416
2026-01-11 01:58:17.43	205.35	44.22	-33.9	-35.2	19.6	0.00e+00	0	56	0	130023424	38	4399
2026-01-11 01:58:18.44	205.30	43.92	-34.0	-35.3	19.5	0.00e+00	0	56	0	135266304	38	4465
2026-01-11 01:58:19.45	205.25	43.63	-33.8	-35.1	19.6	0.00e+00	0	56	0	140509184	38	4374
2026-01-11 01:58:20.46	205.20	43.34	-33.8	-35.1	19.6	0.00e+00	0	56	0	146800640	38	4370
2026-01-11 01:58:21.47	205.15	43.05	-33.9	-35.1	19.5	0.00e+00	0	56	0	152043520	38	4391
2026-01-11 01:58:22.48	205.11	42.76	-33.9	-35.2	19.5	0.00e+00	0	56	0	158334976	38	4394
2026-01-11 01:58:23.49	205.06	42.47	-33.8	-35.0	19.6	0.00e+00	0	56	0	163577856	38	4334
2026-01-11 01:58:24.50	205.02	42.19	-33.7	-35.0	19.7	0.00e+00	0	56	0	168820736	38	4298
2026-01-11 01:58:25.51	204.97	41.91	-33.8	-35.1	19.6	0.00e+00	0	56	0	175112192	38	4344
2026-01-11 01:58:26.52	204.93	41.63	-33.8	-35.0	19.6	0.00e+00	0	56	0	180355072	38	4315
2026-01-11 01:58:27.53	204.89	41.35	-33.6	-34.8	19.8	0.00e+00	0	56	0	186646528	38	4235
2026-01-11 01:58:28.54	204.84	41.08	-33.6	-34.8	19.8	0.00e+00	0	56	0	191889408	38	4233
2026-01-11 01:58:29.55	204.80	40.80	-33.6	-34.9	19.7	0.00e+00	0	56	0	197132288	38	4252
2026-01-11 01:58:30.56	204.76	40.53	-33.6	-34.9	19.7	0.00e+00	0	56	0	203423744	38	4252
2026-01-11 01:58:31.57	204.72	40.26	-33.6	-34.8	19.8	0.00e+00	0	56	0	208666624	38	4234
2026-01-11 01:58:32.58	204.68	40.00	-33.4	-34.6	20.0	0.00e+00	0	56	0	214958080	38	4123
2026-01-11 01:58:33.59	204.65	39.73	-33.2	-34.5	20.1	0.00e+00	0	56	0	220200960	38	4067
2026-01-11 01:58:34.60	204.61	39.47	-33.3	-34.5	20.1	0.00e+00	0	56	0	226492416	38	4071
2026-01-11 01:58:35.61	204.57	39.21	-33.3	-34.5	20.1	0.00e+00	0	56	0	231735296	38	4074
2026-01-11 01:58:36.62	204.54	38.95	-33.3	-34.5	20.1	0.00e+00	0	56	0	238026752	38	4079
2026-01-11 01:58:37.63	204.50	38.69	-33.2	-34.4	20.2	0.00e+00	0	56	0	243269632	38	4021
2026-01-11 01:58:38.64	204.46	38.44	-33.0	-34.2	20.3	0.00e+00	0	56	0	248512512	38	3932
2026-01-11 01:58:39.65	204.43	38.18	-33.0	-34.2	20.3	0.00e+00	0	56	0	254803968	38	3957
2026-01-11 01:58:40.66	204.40	37.93	-32.9	-34.1	20.4	0.00e+00	0	56	0	260046848	37	4142
2026-01-11 01:58:41.67	204.36	37.68	-32.9	-34.1	20.4	0.00e+00	0	56	0	265289728	37	4118
2026-01-11 01:58:42.68	204.33	37.43	-32.8	-34.0	20.5	0.00e+00	0	56	0	271581184	37	4092
2026-01-11 01:58:43.69	204.30	37.19	-32.8	-34.0	20.5	0.00e+00	0	56	0	276824064	37	4069
2026-01-11 01:58:44.70	204.27	36.94	-32.8	-34.0	20.5	0.00e+00	0	56	0	283115520	37	4069
2026-01-11 01:58:45.71	204.23	36.70	-32.8	-34.0	20.5	0.00e+00	0	56	0	288358400	37	4077
2026-01-11 01:58:46.72	204.20	36.46	-32.9	-34.1	20.4	0.00e+00	0	56	0	294649856	37	4106
2026-01-11 01:58:47.74	204.17	36.22	-33.0	-34.2	20.3	0.00e+00	0	56	0	299892736	37	4156
2026-01-11 01:58:48.74	204.14	35.99	-33.1	-34.3	20.2	0.00e+00	0	56	0	305135616	37	4235
2026-01-11 01:58:49.76	204.11	35.75	-33.3	-34.5	20.0	0.00e+00	0	56	0	311427072	37	4311
2026-01-11 01:58:50.77	204.09	35.51	-33.4	-34.7	19.8	0.00e+00	0	56	0	316669952	37	4399
2026-01-11 01:58:51.78	204.06	35.28	-33.5	-34.8	19.7	0.00e+00	0	56	0	322961408	37	4475
2026-01-11 01:58:52.79	204.03	35.05	-33.7	-35.0	19.5	0.00e+00	0	56	0	328204288	37	4566
2026-01-11 01:58:53.80	204.00	34.82	-33.8	-35.1	19.5	0.00e+00	0	56	0	334495744	38	4357
2026-01-11 01:58:54.81	203.97	34.60	-33.8	-35.1	19.4	0.00e+00	0	56	0	339738624	38	4388
2026-01-11 01:58:55.82	203.95	34.37	-33.9	-35.2	19.3	0.00e+00	0	56	0	344981504	38	4440
2026-01-11 01:58:56.83	203.92	34.15	-33.8	-35.1	19.4	0.00e+00	0	56	0	351272960	38	4384
2026-01-11 01:58:57.84	203.90	33.93	-33.8	-35.1	19.4	0.00e+00	0	56	0	356515840	38	4369
2026-01-11 01:58:58.85	203.87	33.71	-33.9	-35.2	19.3	0.00e+00	0	56	0	362807296	38	4405
2026-01-11 01:58:59.86	203.85	33.49	-33.8	-35.1	19.4	0.00e+00	0	56	0	368050176	38	4365
2026-01-11 01:59:00.87	203.82	33.27	-33.7	-35.0	19.5	0.00e+00	0	56	0	373293056	38	4298
2026-01-11 01:59:01.87	203.80	33.06	-33.6	-34.9	19.6	0.00e+00	0	56	0	379584512	38	4280
2026-01-11 01:59:02.88	203.77	32.84	-33.6	-34.9	19.6	0.00e+00	0	56	0	384827392	38	4250
2026-01-11 01:59:03.90	203.75	32.63	-33.7	-34.9	19.6	0.00e+00	0	56	0	391118848	38	4285
2026-01-11 01:59:04.91	203.73	32.41	-33.6	-34.8	19.7	0.00e+00	0	56	0	396361728	38	4241
2026-01-11 01:59:05.92	203.70	32.20	-33.5	-34.8	19.7	0.00e+00	0	56	0	401604608	38	4207
2026-01-11 01:59:06.93	203.68	32.00	-33.5	-34.7	19.8	0.00e+00	0	56	0	407896064	38	4189
2026-01-11 01:59:07.94	203.66	31.79	-33.5	-34.8	19.8	0.00e+00	0	56	0	413138944	38	4195
2026-01-11 01:59:08.95	203.64	31.58	-33.6	-34.9	19.7	0.00e+00	0	56	0	419430400	38	4243
2026-01-11 01:59:09.96	203.61	31.38	-33.5	-34.7	19.8	0.00e+00	0	56	0	424673280	38	4186
2026-01-11 01:59:10.97	203.59	31.18	-33.5	-34.7	19.8	0.00e+00	0	56	0	430964736	38	4181
2026-01-11 01:59:11.98	203.57	30.98	-33.5	-34.8	19.7	0.00e+00	0	56	0	436207616	38	4219
2026-01-11 01:59:12.99	203.55	30.78	-33.5	-34.8	19.7	0.00e+00	0	56	0	442499072	38	4199
2026-01-11 01:59:14.00	203.53	30.58	-33.5	-34.7	19.8	0.00e+00	0	56	0	447741952	38	4190
2026-01-11 01:59:15.01	203.51	30.38	-33.5	-34.7	19.8	0.00e+00	0	56	0	452984832	38	4185
2026-01-11 01:59:16.02	203.49	30.18	-33.5	-34.8	19.7	0.00e+00	0	56	0	459276288	38	4209
2026-01-11 01:59:17.03	203.47	29.99	-33.6	-34.8	19.7	0.00e+00	0	56	0	464519168	38	4230
2026-01-11 01:59:18.04	203.45	29.80	-33.6	-34.8	19.7	0.00e+00	0	56	0	470810624	38	4242
2026-01-11 01:59:19.05	203.43	29.60	-33.6	-34.9	19.6	0.00e+00	0	56	0	476053504	38	4254
2026-01-11 01:59:20.06	203.41	29.41	-33.7	-34.9	19.6	0.00e+00	0	56	0	481296384	38	4279
2026-01-11 01:59:21.07	203.39	29.22	-33.7	-35.0	19.6	0.00e+00	0	56	0	487587840	38	4299
2026-01-11 01:59:22.08	203.38	29.04	-33.9	-35.1	19.4	0.00e+00	0	56	0	492830720	38	4382
2026-01-11 01:59:23.09	203.36	28.85	-33.9	-35.2	19.4	0.00e+00	0	56	0	499122176	38	4404
2026-01-11 01:59:24.10	203.34	28.66	-33.9	-35.2	19.4	0.00e+00	0	56	0	504365056	38	4403
2026-01-11 01:59:25.11	203.32	28.48	-33.9	-35.2	19.3	0.00e+00	0	56	0	509607936	38	4419
2026-01-11 01:59:26.12	203.31	28.30	-34.0	-35.3	19.3	0.00e+00	0	56	0	515899392	38	4448
2026-01-11 01:59:27.13	203.29	28.11	-34.0	-35.3	19.3	0.00e+00	0	56	0	521142272	38	4455
2026-01-11 01:59:28.14	203.27	27.93	-33.8	-35.1	19.4	0.00e+00	0	56	0	527433728	38	4386
2026-01-11 01:59:29.15	203.25	27.75	-33.9	-35.1	19.4	0.00e+00	0	56	0	532676608	38	4389
2026-01-11 01:59:30.16	203.24	27.58	-33.8	-35.1	19.5	0.00e+00	0	56	0	538968064	38	4358
2026-01-11 01:59:31.17	203.22	27.40	-33.8	-35.1	19.5	0.00e+00	0	56	0	544210944	38	4345
2026-01-11 01:59:32.18	203.21	27.22	-33.8	-35.1	19.5	0.00e+00	0	56	0	550502400	38	4344
2026-01-11 01:59:33.19	203.19	27.05	-33.8	-35.1	19.5	0.00e+00	0	56	0	555745280	38	4346
2026-01-11 01:59:34.20	203.17	26.87	-33.7	-34.9	19.6	0.00e+00	0	56	0	560988160	38	4288
2026-01-11 01:59:35.21	203.16	26.70	-33.7	-34.9	19.6	0.00e+00	0	56	0	567279616	38	4285
2026-01-11 01:59:36.22	203.14	26.53	-33.7	-35.0	19.6	0.00e+00	0	56	0	572522496	38	4305
2026-01-11 01:59:37.23	203.13	26.36	-33.8	-35.0	19.5	0.00e+00	0	56	0	578813952	38	4338
2026-01-11 01:59:38.25	203.11	26.19	-33.8	-35.0	19.5	0.00e+00	0	56	0	584056832	38	4339
2026-01-11 01:59:39.26	203.10	26.02	-33.7	-35.0	19.5	0.00e+00	0	56	0	589299712	38	4311
2026-01-11 01:59:40.27	203.08	25.85	-33.8	-35.0	19.5	0.00e+00	0	56	0	595591168	38	4340
2026-01-11 01:59:41.28	203.07	25.68	-33.9	-35.2	19.4	0.00e+00	0	56	0	600834048	38	4397
2026-01-11 01:59:42.29	203.06	25.52	-33.8	-35.1	19.5	0.00e+00	0	56	0	607125504	38	4360
2026-01-11 01:59:43.30	203.04	25.35	-33.9	-35.2	19.4	0.00e+00	0	56	0	612368384	38	4399
2026-01-11 01:59:44.31	203.03	25.19	-33.9	-35.2	19.4	0.00e+00	0	56	0	617611264	38	4396
2026-01-11 01:59:45.31	203.02	25.03	-33.9	-35.2	19.3	0.00e+00	0	56	0	623902720	38	4421
2026-01-11 01:59:46.32	203.00	24.87	-33.9	-35.2	19.3	0.00e+00	0	56	0	629145600	38	4438
2026-01-11 01:59:47.33	202.99	24.71	-34.0	-35.3	19.2	0.00e+00	0	56	0	635437056	38	4460
2026-01-11 01:59:48.34	202.98	24.55	-34.0	-35.4	19.1	0.00e+00	0	56	0	640679936	38	4501
2026-01-11 01:59:49.35	202.96	24.39	-34.1	-35.4	19.2	0.00e+00	0	56	0	646971392	38	4509
2026-01-11 01:59:50.36	202.95	24.23	-34.1	-35.4	19.1	0.00e+00	0	56	0	652214272	38	4504
2026-01-11 01:59:51.37	202.94	24.08	-34.2	-35.5	19.0	0.00e+00	0	56	0	657457152	38	4566
2026-01-11 01:59:52.38	202.92	23.92	-34.2	-35.5	19.0	0.00e+00	0	56	0	663748608	39	4338
2026-01-11 01:59:53.39	202.91	23.77	-34.2	-35.6	19.0	0.00e+00	0	56	0	668991488	39	4345
2026-01-11 01:59:54.40	202.90	23.61	-34.2	-35.6	19.0	0.00e+00	0	56	0	675282944	39	4344
2026-01-11 01:59:55.41	202.89	23.46	-34.2	-35.6	19.0	0.00e+00	0	56	0	680525824	39	4351
2026-01-11 01:59:56.42	202.88	23.31	-34.3	-35.7	18.9	0.00e+00	0	56	0	685768704	39	4406
2026-01-11 01:59:57.43	202.86	23.16	-34.3	-35.6	18.9	0.00e+00	0	56	0	692060160	39	4359
2026-01-11 01:59:58.44	202.85	23.01	-34.3	-35.6	18.9	0.00e+00	0	56	0	697303040	39	4372
2026-01-11 01:59:59.45	202.84	22.86	-34.3	-35.6	18.9	0.00e+00	0	56	0	703594496	39	4358
2026-01-11 02:00:00.46	202.83	22.71	-34.2	-35.5	19.0	0.00e+00	0	56	0	708837376	39	4314
2026-01-11 02:00:01.47	202.82	22.56	-34.2	-35.5	19.0	0.00e+00	0	56	0	714080256	39	4337
2026-01-11 02:00:02.48	202.81	22.41	-34.2	-35.5	19.0	0.00e+00	0	56	0	720371712	39	4315
2026-01-11 02:00:03.49	202.80	22.27	-34.2	-35.5	19.0	0.00e+00	0	56	0	725614592	39	4335
2026-01-11 02:00:04.50	202.79	22.12	-34.2	-35.5	19.0	0.00e+00	0	56	0	731906048	39	4336
2026-01-11 02:00:05.51	202.78	21.98	-34.3	-35.6	19.0	0.00e+00	0	56	0	737148928	39	4353
2026-01-11 02:00:06.52	202.76	21.83	-34.3	-35.7	18.9	0.00e+00	0	56	0	743440384	39	4397
2026-01-11 02:00:07.53	202.75	21.69	-34.5	-35.9	18.7	0.00e+00	0	56	0	748683264	39	4501
2026-01-11 02:00:08.54	202.74	21.55	-34.4	-35.7	18.8	0.00e+00	0	56	0	754974720	39	4439
2026-01-11 02:00:09.55	202.73	21.41	-34.4	-35.7	18.8	0.00e+00	0	56	0	760217600	39	4432
2026-01-11 02:00:10.56	202.72	21.27	-34.4	-35.8	18.7	0.00e+00	0	56	0	765460480	39	4466
2026-01-11 02:00:11.57	202.71	21.13	-34.5	-35.8	18.7	0.00e+00	0	56	0	771751936	39	4475
2026-01-11 02:00:12.58	202.70	20.99	-34.5	-35.9	18.7	0.00e+00	0	56	0	776994816	39	4500
2026-01-11 02:00:13.59	202.69	20.85	-34.5	-35.9	18.7	0.00e+00	0	56	0	783286272	39	4501
2026-01-11 02:00:14.60	202.68	20.71	-34.6	-36.0	18.6	0.00e+00	0	56	0	788529152	39	4546
2026-01-11 02:00:15.62	202.68	20.58	-34.7	-36.1	18.5	0.00e+00	0	56	0	793772032	39	4604
2026-01-11 02:00:16.63	202.67	20.44	-34.7	-36.1	18.4	0.00e+00	0	56	0	800063488	40	4354
2026-01-11 02:00:17.64	202.66	20.31	-34.8	-36.2	18.3	0.00e+00	0	56	0	805306368	40	4433
2026-01-11 02:00:18.65	202.65	20.17	-34.9	-36.3	18.2	0.00e+00	0	56	0	811597824	40	4471
2026-01-11 02:00:19.66	202.64	20.04	-34.8	-36.2	18.3	0.00e+00	0	56	0	816840704	40	4415
2026-01-11 02:00:20.67	202.63	19.91	-34.7	-36.1	18.4	0.00e+00	0	56	0	822083584	40	4374
2026-01-11 02:00:21.68	202.62	19.77	-34.7	-36.1	18.4	0.00e+00	0	56	0	828375040	40	4355
2026-01-11 02:00:22.69	202.61	19.64	-34.7	-36.1	18.3	0.00e+00	0	56	0	833617920	40	4389
2026-01-11 02:00:23.70	202.60	19.51	-34.8	-36.2	18.3	0.00e+00	0	56	0	839909376	40	4403
2026-01-11 02:00:24.71	202.59	19.38	-34.8	-36.3	18.2	0.00e+00	0	56	0	845152256	40	4447
2026-01-11 02:00:25.72	202.59	19.25	-35.0	-36.4	18.1	0.00e+00	0	56	0	851443712	40	4534
2026-01-11 02:00:26.73	202.58	19.12	-34.9	-36.3	18.2	0.00e+00	0	56	0	856686592	40	4475
2026-01-11 02:00:27.74	202.57	18.99	-34.9	-36.3	18.1	0.00e+00	0	56	0	862978048	40	4485
2026-01-11 02:00:28.75	202.56	18.87	-34.9	-36.3	18.1	0.00e+00	0	56	0	868220928	40	4490
2026-01-11 02:00:29.76	202.55	18.74	-35.0	-36.4	18.0	0.00e+00	0	56	0	873463808	40	4531
2026-01-11 02:00:30.77	202.55	18.61	-35.1	-36.5	18.0	0.00e+00	0	56	0	879755264	40	4586
2026-01-11 02:00:31.78	202.54	18.49	-35.1	-36.6	17.9	0.00e+00	0	56	0	884998144	40	4613
2026-01-11 02:00:32.79	202.53	18.36	-35.2	-36.6	17.8	0.00e+00	0	56	0	891289600	40	4646
2026-01-11 02:00:33.80	202.52	18.24	-35.3	-36.8	17.7	0.00e+00	0	56	0	896532480	41	4449
2026-01-11 02:00:34.81	202.51	18.12	-35.4	-36.9	17.6	0.00e+00	0	56	0	901775360	41	4506
2026-01-11 02:00:35.82	202.51	17.99	-35.5	-37.0	17.5	0.00e+00	0	56	0	908066816	41	4573
2026-01-11 02:00:36.83	202.50	17.87	-35.5	-37.0	17.5	0.00e+00	0	56	0	913309696	41	4556
2026-01-11 02:00:37.84	202.49	17.75	-35.5	-36.9	17.5	0.00e+00	0	56	0	919601152	41	4545
2026-01-11 02:00:38.85	202.48	17.63	-35.5	-37.0	17.5	0.00e+00	0	56	0	924844032	41	4581
2026-01-11 02:00:39.86	202.48	17.51	-35.3	-36.8	17.6	0.00e+00	0	56	0	930086912	41	4480
2026-01-11 02:00:40.86	202.47	17.39	-35.3	-36.7	17.7	0.00e+00	0	56	0	936378368	41	4432
2026-01-11 02:00:41.87	202.46	17.27	-35.3	-36.8	17.7	0.00e+00	0	56	0	941621248	41	4449
2026-01-11 02:00:42.89	202.46	17.15	-35.4	-36.9	17.6	0.00e+00	0	56	0	947912704	41	4496
2026-01-11 02:00:43.90	202.45	17.03	-35.3	-36.8	17.6	0.00e+00	0	56	0	953155584	41	4473
2026-01-11 02:00:44.91	202.44	16.91	-35.5	-36.9	17.5	0.00e+00	0	56	0	959447040	41	4540
2026-01-11 02:00:45.92	202.44	16.80	-35.4	-36.9	17.5	0.00e+00	0	56	0	964689920	41	4534
2026-01-11 02:00:46.93	202.43	16.68	-35.4	-36.9	17.5	0.00e+00	0	56	0	970981376	41	4526
2026-01-11 02:00:47.94	202.42	16.56	-35.5	-37.0	17.4	0.00e+00	0	56	0	976224256	41	4586
2026-01-11 02:00:48.95	202.42	16.45	-35.5	-37.0	17.4	0.00e+00	0	56	0	981467136	41	4561
2026-01-11 02:00:49.96	202.41	16.33	-35.5	-37.0	17.4	0.00e+00	0	56	0	987758592	41	4571
2026-01-11 02:00:50.97	202.40	16.22	-35.6	-37.1	17.3	0.00e+00	0	56	0	993001472	41	4651
2026-01-11 02:00:51.97	202.40	16.11	-35.5	-37.0	17.4	0.00e+00	0	56	0	999292928	41	4586
2026-01-11 02:00:52.98	202.39	15.99	-35.6	-37.1	17.3	0.00e+00	0	56	0	1004535808	41	4603
2026-01-11 02:00:53.99	202.38	15.88	-35.6	-37.1	17.3	0.00e+00	0	56	0	1009778688	41	4625
2026-01-11 02:00:55.00	202.38	15.77	-35.6	-37.1	17.3	0.00e+00	0	56	0	1016070144	41	4645
2026-01-11 02:00:56.02	202.37	15.66	-35.6	-37.2	17.2	0.00e+00	0	56	0	1021313024	41	4655
2026-01-11 02:00:57.02	202.37	15.55	-35.7	-37.2	17.2	0.00e+00	0	56	0	1027604480	41	4667
2026-01-11 02:00:58.04	202.36	15.43	-35.8	-37.3	17.1	0.00e+00	0	56	0	1032847360	42	4483
2026-01-11 02:00:59.05	202.35	15.32	-35.8	-37.4	17.1	0.00e+00	0	56	0	1038090240	42	4503
2026-01-11 02:01:00.06	202.35	15.21	-35.9	-37.4	17.0	0.00e+00	0	56	0	1044381696	42	4538
2026-01-11 02:01:01.07	202.34	15.10	-35.9	-37.4	17.0	0.00e+00	0	56	0	1049624576	42	4517
2026-01-11 02:01:02.08	202.34	15.00	-35.9	-37.5	16.9	0.00e+00	0	56	0	1055916032	42	4559
2026-01-11 02:01:03.09	202.33	14.89	-36.0	-37.6	16.8	0.00e+00	0	56	0	1061158912	42	4609
2026-01-11 02:01:04.10	202.33	14.78	-36.0	-37.6	16.8	0.00e+00	0	56	0	1067450368	42	4609
2026-01-11 02:01:05.11	202.32	14.67	-36.0	-37.6	16.8	0.00e+00	0	56	0	1072693248	42	4639
2026-01-11 02:01:06.12	202.31	14.57	-36.1	-37.7	16.7	0.00e+00	0	56	0	1077936128	42	4704
2026-01-11 02:01:07.13	202.31	14.46	-36.1	-37.7	16.7	0.00e+00	0	56	0	1084227584	42	4678
2026-01-11 02:01:08.14	202.30	14.35	-36.0	-37.6	16.7	0.00e+00	0	56	0	1089470464	42	4640
2026-01-11 02:01:09.15	202.30	14.25	-36.0	-37.6	16.7	0.00e+00	0	56	0	1095761920	42	4634
2026-01-11 02:01:10.16	202.29	14.14	-36.1	-37.7	16.6	0.00e+00	0	56	0	1101004800	42	4687
2026-01-11 02:01:11.17	202.29	14.04	-36.2	-37.8	16.6	0.00e+00	0	56	0	1106247680	42	4731
2026-01-11 02:01:12.18	202.28	13.93	-36.2	-37.8	16.5	0.00e+00	0	56	0	1112539136	43	4475
2026-01-11 02:01:13.19	202.28	13.83	-36.1	-37.7	16.6	0.00e+00	0	56	0	1117782016	43	4427
2026-01-11 02:01:14.20	202.27	13.73	-36.2	-37.8	16.6	0.00e+00	0	56	0	1124073472	43	4461
2026-01-11 02:01:15.21	202.27	13.63	-36.3	-37.9	16.4	0.00e+00	0	56	0	1129316352	43	4519
2026-01-11 02:01:16.22	202.26	13.52	-36.3	-38.0	16.4	0.00e+00	0	56	0	1134559232	43	4574
2026-01-11 02:01:17.23	202.26	13.42	-36.4	-38.1	16.3	0.00e+00	0	56	0	1140850688	43	4608
2026-01-11 02:01:18.24	202.25	13.32	-36.5	-38.2	16.2	0.00e+00	0	56	0	1146093568	43	4660
2026-01-11 02:01:19.25	202.25	13.22	-36.6	-38.3	16.1	0.00e+00	0	56	0	1152385024	43	4713
2026-01-11 02:01:20.26	202.24	13.12	-36.9	-38.6	15.9	0.00e+00	0	56	0	1157627904	44	4626
2026-01-11 02:01:21.27	202.24	13.02	-36.9	-38.6	15.9	0.00e+00	0	56	0	1163919360	44	4634
2026-01-11 02:01:22.28	202.24	12.92	-36.8	-38.5	16.0	0.00e+00	0	56	0	1169162240	44	4597
2026-01-11 02:01:23.29	202.23	12.82	-36.9	-38.7	15.8	0.00e+00	0	56	0	1175453696	44	4663
2026-01-11 02:01:24.30	202.23	12.72	-37.0	-38.7	15.8	0.00e+00	0	56	0	1180696576	44	4675
2026-01-11 02:01:25.31	202.22	12.62	-36.8	-38.6	15.9	0.00e+00	0	56	0	1185939456	44	4607
2026-01-11 02:01:26.32	202.22	12.52	-36.8	-38.5	16.0	0.00e+00	0	56	0	1192230912	44	4556
2026-01-11 02:01:27.33	202.21	12.43	-36.7	-38.4	16.1	0.00e+00	0	56	0	1197473792	44	4500
2026-01-11 02:01:28.34	202.21	12.33	-36.7	-38.4	16.1	0.00e+00	0	56	0	1203765248	44	4499
2026-01-11 02:01:29.35	202.20	12.23	-36.7	-38.4	16.0	0.00e+00	0	56	0	1209008128	44	4538
2026-01-11 02:01:30.36	202.20	12.13	-36.7	-38.4	16.0	0.00e+00	0	56	0	1214251008	44	4540
2026-01-11 02:01:31.37	202.20	12.04	-36.8	-38.5	15.9	0.00e+00	0	56	0	1220542464	44	4571
2026-01-11 02:01:32.38	202.19	11.94	-36.9	-38.6	15.8	0.00e+00	0	56	0	1225785344	44	4644
2026-01-11 02:01:33.39	202.19	11.85	-36.9	-38.6	15.8	0.00e+00	0	56	0	1232076800	44	4643
2026-01-11 02:01:34.40	202.18	11.75	-36.8	-38.6	15.9	0.00e+00	0	56	0	1237319680	44	4610
2026-01-11 02:01:35.41	202.18	11.66	-36.9	-38.6	15.8	0.00e+00	0	56	0	1242562560	44	4650
2026-01-11 02:01:36.42	202.18	11.56	-36.9	-38.7	15.7	0.00e+00	0	56	0	1248854016	44	4664
2026-01-11 02:01:37.43	202.17	11.47	-37.0	-38.7	15.7	0.00e+00	0	56	0	1254096896	44	4700
2026-01-11 02:01:38.44	202.17	11.38	-36.9	-38.7	15.7	0.00e+00	0	56	0	1260388352	44	4685
2026-01-11 02:01:39.45	202.16	11.28	-37.0	-38.8	15.6	0.00e+00	0	56	0	1265631232	44	4737
2026-01-11 02:01:40.46	202.16	11.19	-37.1	-38.9	15.5	0.00e+00	0	56	0	1271922688	44	4788
2026-01-11 02:01:41.47	202.16	11.10	-37.2	-39.1	15.3	0.00e+00	0	56	0	1277165568	45	4614
2026-01-11 02:01:42.48	202.15	11.00	-37.3	-39.1	15.2	0.00e+00	0	56	0	1283457024	45	4646
2026-01-11 02:01:43.49	202.15	10.91	-37.2	-39.1	15.3	0.00e+00	0	56	0	1288699904	45	4614
2026-01-11 02:01:44.50	202.15	10.82	-37.3	-39.1	15.3	0.00e+00	0	56	0	1293942784	45	4628
2026-01-11 02:01:45.51	202.14	10.73	-37.2	-39.1	15.3	0.00e+00	0	56	0	1300234240	45	4623
2026-01-11 02:01:46.52	202.14	10.64	-37.2	-39.1	15.3	0.00e+00	0	56	0	1305477120	45	4620
2026-01-11 02:01:47.53	202.14	10.55	-37.4	-39.2	15.1	0.00e+00	0	56	0	1311768576	45	4698
2026-01-11 02:01:48.54	202.13	10.46	-37.3	-39.2	15.2	0.00e+00	0	56	0	1317011456	45	4661
2026-01-11 02:01:49.55	202.13	10.37	-37.3	-39.2	15.2	0.00e+00	0	56	0	1322254336	45	4659
2026-01-11 02:01:50.56	202.13	10.28	-37.3	-39.2	15.2	0.00e+00	0	56	0	1328545792	45	4664
2026-01-11 02:01:51.57	202.12	10.19	-37.4	-39.3	15.0	0.00e+00	0	56	0	1333788672	45	4729
2026-01-11 02:01:52.58	202.12	10.10	-37.4	-39.3	15.0	0.00e+00	0	56	0	1340080128	45	4748
2026-01-11 02:01:53.59	202.12	10.01	-37.5	-39.5	14.8	0.00e+00	0	56	0	1345323008	45	4823
2026-01-11 02:01:54.60	202.11	9.92	-37.6	-39.5	14.8	0.00e+00	0	56	0	1350565888	45	4866
2026-01-11 02:01:55.61	202.11	9.84	-37.5	-39.4	14.8	0.00e+00	0	56	0	1356857344	45	4808
2026-01-11 02:01:56.62	202.11	9.75	-37.4	-39.3	14.9	0.00e+00	0	56	0	1362100224	45	4752
2026-01-11 02:01:57.63	202.10	9.66	-37.5	-39.4	14.8	0.00e+00	0	56	0	1368391680	45	4805
2026-01-11 02:01:58.64	202.10	9.57	-37.4	-39.4	14.8	0.00e+00	0	56	0	1373634560	45	4775
2026-01-11 02:01:59.65	202.10	9.49	-37.2	-39.1	15.1	0.00e+00	0	56	0	1379926016	45	4642
2026-01-11 02:02:00.66	202.09	9.40	-37.3	-39.1	15.1	0.00e+00	0	56	0	1385168896	45	4642
2026-01-11 02:02:01.67	202.09	9.31	-37.2	-39.0	15.2	0.00e+00	0	56	0	1390411776	45	4589
2026-01-11 02:02:02.68	202.09	9.23	-37.2	-39.1	15.0	0.00e+00	0	56	0	1396703232	45	4643
2026-01-11 02:02:03.69	202.08	9.14	-37.3	-39.3	14.9	0.00e+00	0	56	0	1401946112	45	4717
2026-01-11 02:02:04.70	202.08	9.06	-37.3	-39.2	14.9	0.00e+00	0	56	0	1408237568	45	4699
2026-01-11 02:02:05.71	202.08	8.97	-37.4	-39.3	14.8	1.10e-06	0	56	0	1413480448	45	4733
2026-01-11 02:02:06.72	202.08	8.89	-37.5	-39.5	14.6	0.00e+00	0	56	0	1419771904	45	4820
2026-01-11 02:02:07.74	202.07	8.80	-37.3	-39.3	14.8	0.00e+00	0	56	0	1425014784	45	4729
2026-01-11 02:02:08.75	202.07	8.72	-37.6	-39.6	14.6	0.00e+00	0	56	0	1430257664	45	4880
2026-01-11 02:02:09.76	202.07	8.64	-37.4	-39.4	14.6	0.00e+00	0	56	0	1436549120	45	4804
2026-01-11 02:02:10.77	202.06	8.55	-37.5	-39.5	14.6	0.00e+00	0	56	0	1441792000	45	4828
2026-01-11 02:02:11.78	202.06	8.47	-37.5	-39.5	14.5	0.00e+00	0	56	0	1448083456	45	4867
2026-01-11 02:02:12.78	202.06	8.39	-37.5	-39.6	14.4	0.00e+00	0	56	0	1453326336	45	4871
2026-01-11 02:02:13.80	202.06	8.30	-37.7	-39.7	14.3	0.00e+00	0	56	0	1458569216	45	4965
2026-01-11 02:02:14.81	202.05	8.22	-37.7	-39.8	14.1	1.10e-06	0	56	0	1464860672	46	4755
2026-01-11 02:02:15.82	202.05	8.14	-37.6	-39.7	14.3	0.00e+00	0	56	0	1470103552	46	4662
2026-01-11 02:02:16.83	202.05	8.06	-37.8	-39.9	14.1	1.10e-06	0	56	0	1476395008	46	4760
2026-01-11 02:02:17.84	202.05	7.98	-43.5	-51.1	4.5	4.87e-03	0	56	0	1480589312	57	9194
2026-01-11 02:02:18.85	202.04	7.89	-44.6	-56.1	3.8	8.46e-01	0	56	104	1480589312	59	14577
2026-01-11 02:02:19.86	202.04	7.81	-44.7	-56.5	3.8	8.47e-01	0	56	104	1480589312	60	14392
2026-01-11 02:02:20.87	202.04	7.73	-44.9	-56.6	3.8	8.46e-01	0	56	104	1480589312	60	14618
2026-01-11 02:02:21.88	202.04	7.65	-45.0	-56.7	3.8	8.46e-01	0	56	104	1480589312	60	14853
2026-01-11 02:02:22.89	202.03	7.57	-45.1	-56.8	3.8	8.45e-01	0	56	104	1480589312	60	14950
2026-01-11 02:02:23.91	202.03	7.49	-45.1	-56.9	3.8	8.46e-01	0	56	104	1480589312	60	15071
2026-01-11 02:02:24.92	202.03	7.41	-45.1	-56.9	3.8	8.47e-01	0	56	104	1480589312	60	15056
2026-01-11 02:02:25.93	202.03	7.33	-45.1	-56.9	3.8	8.46e-01	0	56	104	1480589312	60	15064
2026-01-11 02:02:26.94	202.03	7.25	-45.1	-56.9	3.8	8.47e-01	0	56	104	1480589312	60	15066
2026-01-11 02:02:27.95	202.02	7.17	-45.1	-56.8	3.8	8.46e-01	0	56	104	1480589312	60	14994
2026-01-11 02:02:28.96	202.02	7.09	-45.0	-56.8	3.8	8.46e-01	0	56	104	1480589312	60	14977
2026-01-11 02:02:29.97	202.02	7.02	-45.0	-56.8	3.8	8.47e-01	0	56	104	1480589312	60	14983
2026-01-11 02:02:30.98	202.02	6.94	-45.0	-56.8	3.8	8.45e-01	0	56	104	1480589312	60	15012
2026-01-11 02:02:31.99	202.01	6.86	-45.0	-56.8	3.8	8.46e-01	0	56	104	1480589312	60	14914
2026-01-11 02:02:33.00	202.01	6.78	-45.0	-56.8	3.8	8.46e-01	0	56	104	1480589312	60	14884
2026-01-11 02:02:34.01	202.01	6.70	-45.0	-56.7	3.8	8.45e-01	0	56	104	1480589312	60	14859
2026-01-11 02:02:35.02	202.01	6.63	-45.0	-56.7	3.8	8.45e-01	0	56	104	1480589312	60	14875
2026-01-11 02:02:36.03	202.01	6.55	-45.0	-56.7	3.8	8.46e-01	0	56	104	1480589312	60	14878
2026-01-11 02:02:37.04	202.00	6.47	-45.0	-56.7	3.8	8.45e-01	0	56	104	1480589312	60	14833
2026-01-11 02:02:38.05	202.00	6.40	-44.9	-56.7	3.8	8.47e-01	0	56	104	1480589312	60	14832
2026-01-11 02:02:39.06	202.00	6.32	-44.9	-56.7	3.8	8.46e-01	0	56	104	1480589312	60	14795
2026-01-11 02:02:40.07	202.00	6.24	-44.9	-56.7	3.8	8.47e-01	0	56	104	1480589312	60	14821
2026-01-11 02:02:41.08	202.00	6.17	-44.9	-56.7	3.8	8.46e-01	0	56	104	1480589312	60	14814
2026-01-11 02:02:42.09	201.99	6.09	-44.9	-56.7	3.8	8.46e-01	0	56	104	1480589312	60	14754
2026-01-11 02:02:43.11	201.99	6.01	-44.9	-56.7	3.8	8.46e-01	0	56	104	1480589312	60	14756
2026-01-11 02:02:44.11	201.99	5.94	-44.9	-56.7	3.8	8.46e-01	0	56	104	1480589312	60	14804
2026-01-11 02:02:45.13	201.99	5.86	-44.9	-56.7	3.8	8.47e-01	0	56	104	1480589312	60	14766
2026-01-11 02:02:46.14	201.99	5.79	-44.9	-56.7	3.8	8.46e-01	0	57	104	1480589312	60	14813
2026-01-11 02:02:47.15	201.99	5.71	-44.9	-56.7	3.8	8.47e-01	0	56	104	1480589312	60	14747
2026-01-11 02:02:48.16	201.98	5.64	-44.9	-56.7	3.8	8.46e-01	0	56	104	1480589312	60	14765
2026-01-11 02:02:49.17	201.98	5.57	-44.9	-56.7	3.8	8.46e-01	0	56	104	1480589312	60	14753
2026-01-11 02:02:50.18	201.98	5.49	-44.9	-56.7	3.8	8.46e-01	0	56	104	1480589312	60	14817
2026-01-11 02:02:51.19	201.98	5.42	-44.9	-56.7	3.8	8.47e-01	0	56	104	1480589312	60	14729
2026-01-11 02:02:52.20	201.98	5.34	-44.9	-56.7	3.8	8.47e-01	0	56	104	1480589312	60	14731
2026-01-11 02:02:53.21	201.98	5.27	-44.9	-56.7	3.8	8.45e-01	0	56	104	1480589312	60	14732
2026-01-11 02:02:54.22	201.97	5.20	-44.9	-56.7	3.8	8.46e-01	0	56	104	1480589312	60	14754
2026-01-11 02:02:55.23	201.97	5.13	-44.9	-56.7	3.8	8.45e-01	0	56	104	1480589312	60	14763
2026-01-11 02:02:56.24	201.97	5.05	-44.9	-56.7	3.8	8.46e-01	0	56	104	1480589312	60	14717
2026-01-11 02:02:57.25	201.97	4.98	-44.9	-56.7	3.8	8.46e-01	0	56	104	1480589312	60	14786
2026-01-11 02:02:58.27	201.97	4.91	-44.9	-56.7	3.8	8.46e-01	0	56	104	1480589312	60	14737
2026-01-11 02:02:59.28	201.97	4.83	-44.9	-56.7	3.8	8.45e-01	0	56	104	1480589312	60	14752
2026-01-11 02:03:00.29	201.96	4.76	-44.9	-56.7	3.8	8.46e-01	0	56	104	1480589312	60	14763
2026-01-11 02:03:01.30	201.96	4.69	-44.9	-56.7	3.8	8.47e-01	0	57	104	1480589312	60	14774
2026-01-11 02:03:02.31	201.96	4.62	-44.9	-56.7	3.8	8.47e-01	0	56	104	1480589312	60	14765
2026-01-11 02:03:03.32	201.96	4.55	-44.9	-56.7	3.8	8.45e-01	0	56	104	1480589312	60	14745
2026-01-11 02:03:04.33	201.96	4.48	-44.9	-56.6	3.8	8.46e-01	0	56	104	1480589312	60	14708
2026-01-11 02:03:05.34	201.96	4.40	-44.9	-56.7	3.8	8.48e-01	0	56	104	1480589312	60	14763
2026-01-11 02:03:06.36	201.96	4.33	-44.9	-56.7	3.8	8.46e-01	0	56	104	1480589312	60	14717
2026-01-11 02:03:07.37	201.95	4.26	-44.9	-56.7	3.8	8.46e-01	0	56	104	1480589312	60	14717
2026-01-11 02:03:08.38	201.95	4.19	-44.9	-56.6	3.8	8.47e-01	0	56	104	1480589312	60	14684
2026-01-11 02:03:09.39	201.95	4.12	-44.9	-56.7	3.8	8.46e-01	0	56	104	1480589312	60	14737
2026-01-11 02:03:10.40	201.95	4.05	-44.9	-56.6	3.8	8.46e-01	0	56	104	1480589312	60	14697
2026-01-11 02:03:11.41	201.95	3.98	-44.9	-56.6	3.8	8.46e-01	0	56	104	1480589312	60	14682
2026-01-11 02:03:12.42	201.95	3.91	-44.9	-56.7	3.8	8.45e-01	0	56	104	1480589312	60	14720
2026-01-11 02:03:13.44	201.95	3.84	-44.9	-56.7	3.8	8.45e-01	0	56	104	1480589312	60	14735
2026-01-11 02:03:14.45	201.95	3.77	-44.9	-56.7	3.8	8.45e-01	0	56	104	1480589312	60	14721
2026-01-11 02:03:15.46	201.94	3.70	-44.9	-56.7	3.8	8.46e-01	0	56	104	1480589312	60	14809
2026-01-11 02:03:16.47	201.94	3.63	-44.9	-56.7	3.8	8.47e-01	0	56	104	1480589312	60	14818
2026-01-11 02:03:17.48	201.94	3.57	-44.9	-56.7	3.8	8.47e-01	0	56	104	1480589312	60	14788
2026-01-11 02:03:18.49	201.94	3.50	-44.9	-56.6	3.8	8.46e-01	0	56	104	1480589312	60	14686
2026-01-11 02:03:19.50	201.94	3.43	-44.9	-56.7	3.8	8.45e-01	0	56	104	1480589312	60	14710
2026-01-11 02:03:20.51	201.94	3.36	-44.9	-56.7	3.8	8.46e-01	0	56	104	1480589312	60	14732
2026-01-11 02:03:21.52	201.94	3.29	-44.9	-56.6	3.8	8.47e-01	0	56	104	1480589312	60	14682
2026-01-11 02:03:22.53	201.94	3.22	-44.9	-56.6	3.8	8.46e-01	0	56	104	1480589312	60	14702
2026-01-11 02:03:23.55	201.94	3.15	-44.8	-56.6	3.8	8.46e-01	0	56	104	1480589312	60	14660
2026-01-11 02:03:24.56	201.93	3.09	-44.8	-56.7	3.8	8.45e-01	0	56	104	1480589312	60	14727
2026-01-11 02:03:25.57	201.93	3.02	-44.8	-56.6	3.8	8.45e-01	0	56	104	1480589312	60	14691
2026-01-11 02:03:26.58	201.93	2.95	-44.8	-56.6	3.8	8.46e-01	0	56	104	1480589312	60	14688
2026-01-11 02:03:27.59	201.93	2.88	-44.8	-56.6	3.8	8.46e-01	0	56	104	1480589312	60	14682
2026-01-11 02:03:28.60	201.93	2.82	-44.8	-56.6	3.8	8.45e-01	0	56	104	1480589312	60	14638
2026-01-11 02:03:29.61	201.93	2.75	-44.8	-56.6	3.8	8.47e-01	0	56	104	1480589312	60	14667
2026-01-11 02:03:30.62	201.93	2.68	-44.8	-56.6	3.8	8.46e-01	0	56	104	1480589312	60	14621
2026-01-11 02:03:31.63	201.93	2.62	-44.8	-56.6	3.8	8.46e-01	0	56	104	1480589312	60	14700
2026-01-11 02:03:32.64	201.93	2.55	-44.8	-56.6	3.8	8.45e-01	0	56	104	1480589312	60	14657
2026-01-11 02:03:33.65	201.93	2.49	-44.8	-56.6	3.8	8.47e-01	0	56	104	1480589312	60	14668
2026-01-11 02:03:34.67	201.92	2.42	-44.8	-56.6	3.8	8.47e-01	0	56	104	1480589312	60	14701
2026-01-11 02:03:35.68	201.92	2.35	-44.8	-56.6	3.8	8.46e-01	0	56	104	1480589312	60	14663
2026-01-11 02:03:36.69	201.92	2.29	-44.8	-56.6	3.8	8.47e-01	0	56	104	1480589312	60	14636
2026-01-11 02:03:37.70	201.92	2.22	-44.8	-56.6	3.8	8.45e-01	0	56	104	1480589312	60	14650
2026-01-11 02:03:38.71	201.92	2.16	-44.8	-56.6	3.8	8.46e-01	0	56	104	1480589312	60	14642
2026-01-11 02:03:39.72	201.92	2.09	-44.8	-56.6	3.8	8.47e-01	0	56	104	1480589312	60	14674
2026-01-11 02:03:40.73	201.92	2.03	-44.8	-56.6	3.8	8.46e-01	0	56	104	1480589312	60	14652
2026-01-11 02:03:41.74	201.92	1.96	-44.8	-56.7	3.8	8.45e-01	0	56	104	1480589312	60	14716

#Closed at: 2026-01-11 02:03:41
#Recorded file [1480 MB]: D:/lorett/data/31039_260111_045704.dat