passes_logs/2026/01/11/R2.0S_Moscow/R2.0S_Moscow__20260111_225026_SUOMI_NPP_rec.log

#Pass ID: 20260111_225026_SUOMI NPP
#Satellite: SUOMI NPP
#Configuration: NPP
#almurnet v.1.7.20251203
#Start time: 2026-01-11 22:50:28

#Version: 2.2.20231116
#Station: R2.0S_Moscow
#Location: 37.707566 lon 55.798166 lat
#TLE: 1 37849U 11061A   26011.29776829  .00000112  00000+0  74065-4 0  9999
#TLE: 2 37849  98.7807 313.3784 0002522  70.0451 290.0996 14.19524507736187

#Time	Az	El	Level	Level2	SNR	BER	BlckErr	Temp	State	Recorded	gain1	gain2
2026-01-11 22:50:28.14	21.03	2.09	-42.1	-56.9	3.8	1.49e+00	0	47	0	0	56	19142
2026-01-11 22:50:29.14	21.07	2.15	-41.9	-56.8	3.8	1.49e+00	0	48	104	0	55	19909
2026-01-11 22:50:30.15	21.12	2.21	-41.9	-56.8	3.8	1.49e+00	0	48	104	0	55	19863
2026-01-11 22:50:31.16	21.17	2.27	-41.9	-56.8	3.8	1.49e+00	0	48	104	0	55	19863
2026-01-11 22:50:32.18	21.21	2.34	-41.9	-56.8	3.8	1.49e+00	0	48	104	0	55	19850
2026-01-11 22:50:33.19	21.26	2.40	-41.9	-56.8	3.8	1.49e+00	0	48	104	0	55	19891
2026-01-11 22:50:34.20	21.30	2.46	-41.9	-56.8	3.8	1.49e+00	0	48	104	0	55	19883
2026-01-11 22:50:35.21	21.35	2.52	-41.9	-56.8	3.8	1.49e+00	0	48	104	0	55	19921
2026-01-11 22:50:36.22	21.40	2.58	-41.9	-56.8	3.8	1.49e+00	0	48	104	0	55	19875
2026-01-11 22:50:37.23	21.44	2.65	-41.9	-56.8	3.8	1.49e+00	0	48	104	0	55	19874
2026-01-11 22:50:38.24	21.49	2.71	-41.9	-56.8	3.8	1.49e+00	0	48	104	0	55	19845
2026-01-11 22:50:39.26	21.54	2.77	-41.9	-56.8	3.8	1.49e+00	0	48	104	0	55	19884
2026-01-11 22:50:40.27	21.58	2.83	-41.9	-56.8	3.8	1.49e+00	0	49	104	0	55	19874
2026-01-11 22:50:41.28	21.63	2.90	-41.9	-56.7	3.8	1.49e+00	0	48	104	0	55	19806
2026-01-11 22:50:42.29	21.68	2.96	-41.9	-56.8	3.8	1.49e+00	0	48	104	0	55	19872
2026-01-11 22:50:43.30	21.73	3.02	-41.9	-56.8	3.8	1.49e+00	0	49	104	0	55	19842
2026-01-11 22:50:44.31	21.78	3.08	-41.9	-56.8	3.8	1.49e+00	0	48	104	0	55	19889
2026-01-11 22:50:45.32	21.82	3.15	-41.9	-56.7	3.8	1.49e+00	0	49	104	0	55	19823
2026-01-11 22:50:46.33	21.87	3.21	-41.9	-56.8	3.8	1.49e+00	0	49	104	0	55	19915
2026-01-11 22:50:47.34	21.92	3.27	-41.9	-56.8	3.8	1.49e+00	0	49	104	0	55	19848
2026-01-11 22:50:48.35	21.97	3.34	-41.9	-56.8	3.8	1.49e+00	0	49	104	0	55	19862
2026-01-11 22:50:49.37	22.02	3.40	-41.9	-56.8	3.8	1.49e+00	0	49	104	0	55	19845
2026-01-11 22:50:50.38	22.07	3.47	-41.9	-56.7	3.8	1.49e+00	0	49	104	0	55	19819
2026-01-11 22:50:51.39	22.12	3.53	-41.9	-56.8	3.8	1.49e+00	0	49	104	0	55	19870
2026-01-11 22:50:52.40	22.17	3.59	-41.9	-56.8	3.8	1.49e+00	0	49	104	0	55	19843
2026-01-11 22:50:53.41	22.21	3.66	-41.9	-56.8	3.8	1.49e+00	0	49	104	0	55	19866
2026-01-11 22:50:54.42	22.26	3.72	-41.9	-56.7	3.8	1.49e+00	0	49	104	0	55	19835
2026-01-11 22:50:55.43	22.31	3.79	-41.9	-56.7	3.8	1.49e+00	0	49	104	0	55	19824
2026-01-11 22:50:56.44	22.36	3.85	-41.9	-56.8	3.8	1.49e+00	0	49	104	0	55	19852
2026-01-11 22:50:57.45	22.42	3.92	-41.9	-56.7	3.8	1.49e+00	0	50	104	0	55	19813
2026-01-11 22:50:58.47	22.47	3.98	-41.9	-56.7	3.8	1.49e+00	0	50	104	0	55	19836
2026-01-11 22:50:59.48	22.52	4.05	-41.9	-56.7	3.8	1.49e+00	0	49	104	0	55	19834
2026-01-11 22:51:00.49	22.57	4.11	-41.9	-56.7	3.8	1.49e+00	0	50	104	0	55	19801
2026-01-11 22:51:01.50	22.62	4.18	-41.9	-56.7	3.8	1.49e+00	0	50	104	0	55	19820
2026-01-11 22:51:02.51	22.67	4.24	-41.9	-56.7	3.8	1.49e+00	0	50	104	0	55	19821
2026-01-11 22:51:03.52	22.72	4.31	-41.9	-56.8	3.8	1.49e+00	0	50	104	0	55	19848
2026-01-11 22:51:04.53	22.77	4.37	-41.9	-56.7	3.8	1.49e+00	0	50	104	0	55	19841
2026-01-11 22:51:05.54	22.83	4.44	-41.9	-56.8	3.8	1.49e+00	0	50	104	0	55	19869
2026-01-11 22:51:06.55	22.88	4.51	-41.9	-56.7	3.8	1.49e+00	0	50	104	0	55	19823
2026-01-11 22:51:07.56	22.93	4.57	-41.9	-56.7	3.8	1.49e+00	0	50	104	0	55	19813
2026-01-11 22:51:08.57	22.98	4.64	-41.9	-56.8	3.8	1.49e+00	0	50	104	0	55	19848
2026-01-11 22:51:09.58	23.04	4.70	-41.9	-56.7	3.8	1.49e+00	0	50	104	0	55	19785
2026-01-11 22:51:10.59	23.09	4.77	-41.9	-56.7	3.8	1.49e+00	0	50	104	0	55	19804
2026-01-11 22:51:11.60	23.14	4.84	-41.9	-56.7	3.8	1.49e+00	0	50	104	0	55	19832
2026-01-11 22:51:12.62	23.20	4.91	-41.9	-56.8	3.8	1.49e+00	0	50	104	0	55	19849
2026-01-11 22:51:13.63	23.25	4.97	-41.9	-56.7	3.8	1.49e+00	0	50	104	0	55	19810
2026-01-11 22:51:14.64	23.30	5.04	-41.9	-56.7	3.8	1.49e+00	0	50	104	0	55	19801
2026-01-11 22:51:15.65	23.36	5.11	-41.9	-56.7	3.8	1.49e+00	0	50	104	0	55	19794
2026-01-11 22:51:16.66	23.41	5.17	-41.9	-56.7	3.8	1.49e+00	0	50	104	0	55	19794
2026-01-11 22:51:17.67	23.47	5.24	-41.9	-56.7	3.8	1.49e+00	0	51	104	0	55	19794
2026-01-11 22:51:18.68	23.52	5.31	-41.9	-56.7	3.8	1.49e+00	0	51	104	0	55	19832
2026-01-11 22:51:19.69	23.58	5.38	-41.9	-56.7	3.8	1.49e+00	0	51	104	0	55	19801
2026-01-11 22:51:20.70	23.63	5.45	-41.9	-56.7	3.8	1.49e+00	0	51	104	0	55	19811
2026-01-11 22:51:21.71	23.69	5.51	-41.9	-56.7	3.8	1.49e+00	0	51	104	0	55	19800
2026-01-11 22:51:22.72	23.75	5.58	-41.9	-56.7	3.8	1.49e+00	0	51	104	0	55	19815
2026-01-11 22:51:23.73	23.80	5.65	-41.9	-56.8	3.8	1.49e+00	0	51	104	0	55	19849
2026-01-11 22:51:24.74	23.86	5.72	-41.9	-56.8	3.8	1.49e+00	0	51	104	0	55	19865
2026-01-11 22:51:25.75	23.91	5.79	-41.9	-56.7	3.8	1.49e+00	0	51	104	0	55	19825
2026-01-11 22:51:26.77	23.97	5.86	-41.9	-56.8	3.8	1.49e+00	0	51	104	0	55	19876
2026-01-11 22:51:27.78	24.03	5.93	-41.9	-56.8	3.8	1.49e+00	0	51	104	0	55	19864
2026-01-11 22:51:28.79	24.09	6.00	-41.9	-56.8	3.8	1.49e+00	0	51	104	0	55	19853
2026-01-11 22:51:29.80	24.14	6.07	-41.9	-56.8	3.8	1.49e+00	0	51	104	0	55	19851
2026-01-11 22:51:30.81	24.20	6.14	-41.9	-56.7	3.8	1.49e+00	0	51	104	0	55	19825
2026-01-11 22:51:31.82	24.26	6.21	-41.9	-56.7	3.8	1.49e+00	0	51	104	0	55	19790
2026-01-11 22:51:32.83	24.32	6.28	-41.9	-56.8	3.8	1.49e+00	0	51	104	0	55	19851
2026-01-11 22:51:33.84	24.38	6.35	-41.9	-56.7	3.8	1.49e+00	0	51	104	0	55	19822
2026-01-11 22:51:34.85	24.44	6.42	-41.9	-56.7	3.8	1.49e+00	0	51	104	0	55	19799
2026-01-11 22:51:35.86	24.49	6.49	-41.9	-56.8	3.8	1.49e+00	0	51	104	0	55	19859
2026-01-11 22:51:36.87	24.55	6.56	-41.9	-56.7	3.8	1.49e+00	0	52	104	0	55	19805
2026-01-11 22:51:37.88	24.61	6.63	-41.9	-56.7	3.8	1.49e+00	0	52	104	0	55	19821
2026-01-11 22:51:38.90	24.67	6.70	-41.9	-56.7	3.8	1.49e+00	0	52	104	0	55	19823
2026-01-11 22:51:39.91	24.73	6.77	-41.9	-56.7	3.8	1.49e+00	0	52	104	0	55	19737
2026-01-11 22:51:40.92	24.80	6.84	-41.9	-56.6	3.8	1.49e+00	0	52	104	0	55	19549
2026-01-11 22:51:41.93	24.86	6.92	-41.9	-56.5	3.8	1.49e+00	0	52	104	0	55	19316
2026-01-11 22:51:42.94	24.92	6.99	-41.9	-56.4	3.8	1.49e+00	0	52	104	0	55	19155
2026-01-11 22:51:43.95	24.98	7.06	-41.9	-56.3	3.8	1.49e+00	0	52	104	0	55	18945
2026-01-11 22:51:44.96	25.04	7.13	-41.9	-56.3	3.8	1.49e+00	0	52	104	0	55	18921
2026-01-11 22:51:45.97	25.10	7.20	-41.9	-56.0	3.8	1.49e+00	0	52	104	0	55	18167
2026-01-11 22:51:46.98	25.16	7.28	-41.9	-55.4	3.8	1.49e+00	0	52	104	0	55	16986
2026-01-11 22:51:47.99	25.23	7.35	-41.8	-54.6	3.8	1.49e+00	0	52	104	0	55	15498
2026-01-11 22:51:49.01	25.29	7.42	-41.8	-53.7	4.0	1.47e+00	0	52	104	0	55	14039
2026-01-11 22:51:50.02	25.35	7.49	-41.7	-53.0	4.2	1.39e+00	0	52	0	0	55	12837
2026-01-11 22:51:51.03	25.42	7.57	-41.6	-52.1	4.6	1.19e+00	0	52	0	1048576	55	11560
2026-01-11 22:51:52.04	25.48	7.64	-41.4	-50.8	5.2	7.61e-01	0	52	0	2097152	54	10583
2026-01-11 22:51:53.05	25.54	7.72	-41.2	-49.3	6.3	3.12e-01	0	52	0	4194304	54	8922
2026-01-11 22:51:54.06	25.61	7.79	-40.9	-48.1	7.3	1.58e-01	0	52	0	6291456	53	8220
2026-01-11 22:51:55.07	25.67	7.86	-40.7	-47.2	8.2	7.07e-02	0	52	0	8388608	53	7378
2026-01-11 22:51:56.08	25.74	7.94	-40.3	-45.9	9.5	3.26e-02	0	52	0	10485760	52	6745
2026-01-11 22:51:57.09	25.80	8.01	-40.1	-45.3	10.1	7.21e-03	0	52	0	11534336	52	6328
2026-01-11 22:51:58.10	25.87	8.09	-41.0	-46.6	9.5	7.79e-03	0	52	0	13631488	52	7314
2026-01-11 22:51:59.11	25.93	8.16	-41.6	-47.6	8.6	2.28e-02	0	53	0	15728640	54	7347
2026-01-11 22:52:00.12	26.00	8.24	-41.1	-50.8	4.9	3.09e-01	0	52	0	17825792	52	11928
2026-01-11 22:52:01.13	26.07	8.31	-41.5	-55.6	3.8	1.38e+00	0	52	104	18874368	53	19527
2026-01-11 22:52:02.14	26.13	8.39	-42.1	-48.3	8.1	3.47e-01	0	53	0	18874368	54	7914
2026-01-11 22:52:03.15	26.20	8.46	-41.3	-46.2	10.2	6.40e-03	0	53	0	20971520	54	6257
2026-01-11 22:52:04.16	26.27	8.54	-41.2	-45.8	10.7	3.60e-03	0	53	0	23068672	54	5990
2026-01-11 22:52:05.17	26.34	8.61	-41.2	-45.8	10.7	3.03e-03	0	53	0	25165824	54	5963
2026-01-11 22:52:06.18	26.40	8.69	-41.2	-45.8	10.8	2.59e-03	0	53	0	26214400	54	5946
2026-01-11 22:52:07.19	26.47	8.77	-41.1	-45.6	11.0	2.24e-03	0	53	0	28311552	54	5832
2026-01-11 22:52:08.20	26.54	8.84	-41.2	-45.8	10.8	2.48e-03	0	53	0	30408704	54	5963
2026-01-11 22:52:09.21	26.61	8.92	-41.0	-45.4	11.2	1.36e-03	0	53	0	32505856	54	5686
2026-01-11 22:52:10.22	26.68	9.00	-41.0	-45.5	11.1	1.19e-03	0	53	0	34603008	53	6083
2026-01-11 22:52:11.23	26.75	9.07	-41.0	-45.3	11.3	1.09e-03	0	53	0	35651584	53	5970
2026-01-11 22:52:12.23	26.82	9.15	-41.1	-45.5	11.2	1.25e-03	0	53	0	37748736	53	6095
2026-01-11 22:52:13.24	26.89	9.23	-41.0	-45.3	11.5	1.16e-03	0	53	0	39845888	53	5927
2026-01-11 22:52:14.25	26.96	9.30	-41.2	-45.5	11.2	9.31e-04	0	53	0	41943040	53	6122
2026-01-11 22:52:15.26	27.03	9.38	-41.1	-45.4	11.4	9.83e-04	0	53	0	44040192	53	6025
2026-01-11 22:52:16.27	27.10	9.46	-41.0	-45.2	11.7	7.07e-04	0	53	0	46137344	53	5869
2026-01-11 22:52:17.28	27.17	9.54	-41.2	-45.4	11.5	9.86e-04	0	53	0	47185920	53	6044
2026-01-11 22:52:18.29	27.25	9.62	-41.1	-45.2	11.7	7.46e-04	0	53	0	49283072	53	5873
2026-01-11 22:52:19.30	27.32	9.70	-41.1	-45.3	11.6	4.38e-04	0	53	0	51380224	53	5964
2026-01-11 22:52:20.31	27.39	9.78	-41.1	-45.1	11.9	5.40e-04	0	53	0	53477376	53	5800
2026-01-11 22:52:21.32	27.46	9.85	-41.1	-45.1	11.9	4.49e-04	0	53	0	55574528	53	5825
2026-01-11 22:52:22.33	27.54	9.93	-41.1	-45.1	12.0	3.56e-04	0	53	0	56623104	53	5789
2026-01-11 22:52:23.34	27.61	10.01	-41.1	-45.2	11.9	4.20e-04	0	53	0	58720256	53	5862
2026-01-11 22:52:24.35	27.69	10.09	-41.1	-44.9	12.1	3.24e-04	0	53	0	60817408	53	5717
2026-01-11 22:52:25.35	27.76	10.17	-41.1	-45.0	12.1	3.30e-04	0	53	0	62914560	53	5756
2026-01-11 22:52:26.37	27.84	10.25	-41.0	-44.8	12.3	2.20e-04	0	53	0	65011712	53	5646
2026-01-11 22:52:27.37	27.91	10.33	-40.9	-44.7	12.4	1.87e-04	0	53	0	66060288	53	5542
2026-01-11 22:52:28.38	27.99	10.41	-40.9	-44.6	12.5	1.63e-04	0	53	0	68157440	53	5482
2026-01-11 22:52:29.39	28.06	10.50	-40.9	-44.5	12.6	1.07e-04	0	53	0	70254592	53	5444
2026-01-11 22:52:30.40	28.14	10.58	-40.9	-44.6	12.6	1.01e-04	0	53	0	72351744	53	5488
2026-01-11 22:52:31.41	28.22	10.66	-40.8	-44.4	12.8	7.40e-05	0	53	0	74448896	53	5357
2026-01-11 22:52:32.42	28.30	10.74	-40.9	-44.5	12.7	6.56e-05	0	54	0	75497472	53	5449
2026-01-11 22:52:33.43	28.37	10.82	-40.8	-44.3	12.9	4.73e-05	0	54	0	77594624	53	5333
2026-01-11 22:52:34.44	28.45	10.90	-40.7	-44.2	13.0	2.51e-05	0	54	0	79691776	53	5246
2026-01-11 22:52:35.45	28.53	10.99	-40.7	-44.1	13.1	2.59e-05	0	53	0	81788928	53	5181
2026-01-11 22:52:36.46	28.61	11.07	-40.7	-44.1	13.2	2.97e-05	0	53	0	83886080	53	5167
2026-01-11 22:52:37.47	28.69	11.15	-40.7	-44.1	13.2	1.52e-05	0	54	0	84934656	53	5187
2026-01-11 22:52:38.48	28.77	11.23	-40.6	-43.9	13.4	2.21e-05	0	54	0	87031808	53	5085
2026-01-11 22:52:39.49	28.85	11.32	-40.7	-44.0	13.3	1.83e-05	0	54	0	89128960	53	5159
2026-01-11 22:52:40.50	28.93	11.40	-40.6	-43.8	13.6	1.52e-05	0	54	0	91226112	53	4989
2026-01-11 22:52:41.51	29.01	11.49	-40.6	-43.8	13.5	1.22e-05	0	54	0	93323264	53	5019
2026-01-11 22:52:42.51	29.09	11.57	-40.8	-44.1	13.2	1.67e-05	0	54	0	94371840	53	5197
2026-01-11 22:52:43.52	29.18	11.65	-40.7	-44.0	13.3	1.52e-05	0	54	0	96468992	53	5132
2026-01-11 22:52:44.53	29.26	11.74	-40.8	-44.1	13.2	2.36e-05	0	54	0	98566144	53	5213
2026-01-11 22:52:45.54	29.34	11.82	-40.8	-44.1	13.3	1.90e-05	0	54	0	100663296	53	5210
2026-01-11 22:52:46.55	29.43	11.91	-40.7	-44.0	13.4	2.36e-05	0	54	0	102760448	53	5140
2026-01-11 22:52:47.56	29.51	11.99	-40.8	-44.2	13.2	9.90e-06	0	54	0	103809024	53	5236
2026-01-11 22:52:48.57	29.59	12.08	-40.8	-44.0	13.3	1.29e-05	0	54	0	105906176	53	5158
2026-01-11 22:52:49.58	29.68	12.16	-40.8	-44.2	13.2	1.29e-05	0	54	0	108003328	53	5264
2026-01-11 22:52:50.59	29.77	12.25	-40.8	-44.0	13.4	1.67e-05	0	54	0	110100480	53	5145
2026-01-11 22:52:51.60	29.85	12.34	-40.6	-43.8	13.7	1.22e-05	0	54	0	112197632	53	5018
2026-01-11 22:52:52.61	29.94	12.42	-40.7	-44.0	13.5	1.29e-05	0	54	0	114294784	53	5109
2026-01-11 22:52:53.62	30.02	12.51	-40.5	-43.6	13.9	5.30e-06	0	54	0	115343360	53	4892
2026-01-11 22:52:54.63	30.11	12.60	-40.6	-43.7	13.8	3.80e-06	0	54	0	117440512	53	4945
2026-01-11 22:52:55.64	30.20	12.68	-40.7	-43.9	13.6	6.10e-06	0	54	0	119537664	53	5051
2026-01-11 22:52:56.65	30.29	12.77	-40.5	-43.6	13.9	6.10e-06	0	54	0	121634816	53	4897
2026-01-11 22:52:57.66	30.38	12.86	-40.6	-43.7	13.8	3.80e-06	0	54	0	123731968	53	4955
2026-01-11 22:52:58.67	30.47	12.95	-40.6	-43.7	13.8	4.50e-06	0	54	0	124780544	52	5274
2026-01-11 22:52:59.68	30.56	13.03	-40.6	-43.7	13.8	3.80e-06	0	54	0	126877696	52	5273
2026-01-11 22:53:00.69	30.65	13.12	-40.6	-43.7	13.9	3.00e-06	0	54	0	128974848	52	5225
2026-01-11 22:53:01.70	30.74	13.21	-40.6	-43.6	13.9	5.30e-06	0	54	0	131072000	52	5215
2026-01-11 22:53:02.71	30.83	13.30	-40.6	-43.6	14.0	8.30e-06	0	54	0	133169152	52	5194
2026-01-11 22:53:03.72	30.92	13.39	-40.6	-43.7	13.9	3.00e-06	0	54	0	134217728	52	5227
2026-01-11 22:53:04.73	31.01	13.48	-40.6	-43.7	13.9	3.80e-06	0	54	0	136314880	52	5236
2026-01-11 22:53:05.74	31.11	13.57	-40.7	-43.8	13.8	4.50e-06	0	54	0	138412032	52	5290
2026-01-11 22:53:06.75	31.20	13.66	-40.8	-44.0	13.6	6.10e-06	0	54	0	140509184	52	5404
2026-01-11 22:53:07.76	31.29	13.75	-40.7	-43.9	13.7	5.30e-06	0	54	0	142606336	52	5355
2026-01-11 22:53:08.77	31.39	13.84	-40.5	-43.6	14.0	6.10e-06	0	54	0	143654912	52	5161
2026-01-11 22:53:09.78	31.48	13.93	-40.6	-43.7	13.9	4.50e-06	0	54	0	145752064	52	5241
2026-01-11 22:53:10.79	31.58	14.02	-40.6	-43.7	13.9	4.50e-06	0	54	0	147849216	52	5232
2026-01-11 22:53:11.80	31.68	14.11	-40.5	-43.5	14.1	4.50e-06	0	54	0	149946368	52	5142
2026-01-11 22:53:12.81	31.77	14.21	-40.6	-43.6	14.0	3.00e-06	0	54	0	152043520	52	5176
2026-01-11 22:53:13.82	31.87	14.30	-40.4	-43.3	14.3	1.50e-06	0	54	0	153092096	52	5030
2026-01-11 22:53:14.83	31.97	14.39	-40.4	-43.3	14.4	7.00e-07	0	54	0	155189248	52	4984
2026-01-11 22:53:15.84	32.07	14.48	-40.4	-43.3	14.3	7.00e-07	0	54	0	157286400	52	5009
2026-01-11 22:53:16.85	32.17	14.58	-40.4	-43.3	14.3	1.50e-06	0	54	0	159383552	52	5013
2026-01-11 22:53:17.86	32.27	14.67	-40.4	-43.3	14.4	0.00e+00	0	54	0	161480704	52	5021
2026-01-11 22:53:18.87	32.37	14.76	-40.4	-43.2	14.4	0.00e+00	0	55	0	162529280	52	4962
2026-01-11 22:53:19.88	32.47	14.86	-40.4	-43.3	14.4	1.50e-06	0	55	0	164626432	52	5031
2026-01-11 22:53:20.89	32.57	14.95	-40.5	-43.5	14.2	3.80e-06	0	54	0	166723584	52	5137
2026-01-11 22:53:21.90	32.67	15.04	-40.5	-43.4	14.3	0.00e+00	0	54	0	168820736	52	5064
2026-01-11 22:53:22.91	32.78	15.14	-40.6	-43.6	14.1	7.00e-07	0	55	0	170917888	52	5200
2026-01-11 22:53:23.92	32.88	15.23	-40.7	-43.8	14.0	7.00e-07	0	54	0	171966464	52	5281
2026-01-11 22:53:24.93	32.98	15.33	-40.8	-44.0	13.8	3.00e-06	0	54	0	174063616	52	5418
2026-01-11 22:53:25.94	33.09	15.42	-40.7	-43.7	14.0	3.00e-06	0	54	0	176160768	52	5259
2026-01-11 22:53:26.95	33.19	15.52	-40.8	-44.0	13.8	7.00e-07	0	54	0	178257920	52	5417
2026-01-11 22:53:27.96	33.30	15.62	-40.7	-43.7	14.1	8.30e-06	0	55	0	180355072	52	5246
2026-01-11 22:53:28.97	33.41	15.71	-40.8	-43.9	13.9	4.50e-06	0	55	0	182452224	52	5376
2026-01-11 22:53:29.98	33.51	15.81	-40.7	-43.7	14.0	4.50e-06	0	55	0	183500800	52	5269
2026-01-11 22:53:30.99	33.62	15.91	-40.8	-43.9	13.9	2.20e-06	0	54	0	185597952	52	5358
2026-01-11 22:53:32.00	33.73	16.00	-40.6	-43.6	14.2	3.00e-06	0	55	0	187695104	52	5179
2026-01-11 22:53:33.01	33.84	16.10	-40.5	-43.3	14.4	7.00e-07	0	55	0	189792256	52	5026
2026-01-11 22:53:34.02	33.95	16.20	-40.5	-43.4	14.3	0.00e+00	0	55	0	191889408	52	5085
2026-01-11 22:53:35.03	34.06	16.30	-40.5	-43.4	14.4	7.00e-07	0	55	0	192937984	52	5093
2026-01-11 22:53:36.04	34.17	16.39	-40.5	-43.4	14.4	0.00e+00	0	54	0	195035136	52	5070
2026-01-11 22:53:37.04	34.28	16.49	-40.5	-43.4	14.3	7.00e-07	0	55	0	197132288	52	5079
2026-01-11 22:53:38.05	34.40	16.59	-40.5	-43.4	14.4	1.50e-06	0	55	0	199229440	52	5079
2026-01-11 22:53:39.06	34.51	16.69	-40.5	-43.4	14.4	1.50e-06	0	55	0	201326592	52	5098
2026-01-11 22:53:40.07	34.62	16.79	-40.6	-43.5	14.3	7.00e-07	0	55	0	202375168	52	5109
2026-01-11 22:53:41.08	34.74	16.89	-40.6	-43.5	14.4	1.50e-06	0	55	0	204472320	52	5119
2026-01-11 22:53:42.09	34.86	16.99	-40.7	-43.6	14.2	0.00e+00	0	55	0	206569472	52	5190
2026-01-11 22:53:43.10	34.97	17.09	-40.8	-43.8	14.0	0.00e+00	0	55	0	208666624	52	5340
2026-01-11 22:53:44.11	35.09	17.19	-40.7	-43.6	14.2	3.00e-06	0	55	0	210763776	52	5213
2026-01-11 22:53:45.12	35.21	17.29	-40.7	-43.7	14.2	7.00e-07	0	55	0	211812352	52	5228
2026-01-11 22:53:46.13	35.33	17.39	-40.8	-43.9	13.9	0.00e+00	0	55	0	213909504	52	5373
2026-01-11 22:53:47.14	35.45	17.50	-40.7	-43.7	14.1	2.20e-06	0	55	0	216006656	52	5246
2026-01-11 22:53:48.15	35.57	17.60	-40.9	-44.0	13.9	1.50e-06	0	55	0	218103808	52	5410
2026-01-11 22:53:49.16	35.69	17.70	-41.0	-44.2	13.6	3.00e-06	0	55	0	220200960	52	5548
2026-01-11 22:53:50.17	35.81	17.80	-41.0	-44.2	13.7	6.10e-06	0	55	0	221249536	52	5557
2026-01-11 22:53:51.18	35.93	17.91	-41.0	-44.2	13.7	8.30e-06	0	55	0	223346688	52	5558
2026-01-11 22:53:52.19	36.06	18.01	-41.1	-44.4	13.5	1.37e-05	0	55	0	225443840	52	5692
2026-01-11 22:53:53.19	36.18	18.11	-41.3	-44.7	13.2	2.97e-05	0	55	0	227540992	53	5548
2026-01-11 22:53:54.20	36.30	18.22	-41.4	-44.9	13.0	2.28e-05	0	55	0	229638144	53	5685
2026-01-11 22:53:55.21	36.43	18.32	-41.3	-44.7	13.1	2.59e-05	0	55	0	230686720	53	5585
2026-01-11 22:53:56.22	36.56	18.42	-41.3	-44.7	13.2	2.67e-05	0	55	0	232783872	53	5535
2026-01-11 22:53:57.23	36.69	18.53	-41.3	-44.7	13.2	1.60e-05	0	55	0	234881024	53	5540
2026-01-11 22:53:58.24	36.81	18.63	-41.3	-44.6	13.3	2.44e-05	0	55	0	236978176	53	5491
2026-01-11 22:53:59.25	36.94	18.74	-41.2	-44.5	13.4	1.44e-05	0	55	0	239075328	53	5421
2026-01-11 22:54:00.26	37.07	18.85	-41.0	-44.2	13.6	1.98e-05	0	55	0	240123904	53	5253
2026-01-11 22:54:01.27	37.21	18.95	-41.1	-44.4	13.5	6.80e-06	0	55	0	242221056	53	5347
2026-01-11 22:54:02.28	37.34	19.06	-40.9	-44.0	13.9	3.80e-06	0	55	0	244318208	53	5138
2026-01-11 22:54:03.29	37.47	19.17	-41.0	-44.1	13.7	2.20e-06	0	55	0	246415360	53	5204
2026-01-11 22:54:04.30	37.60	19.27	-41.1	-44.3	13.6	9.10e-06	0	55	0	248512512	53	5280
2026-01-11 22:54:05.31	37.74	19.38	-41.1	-44.2	13.6	9.90e-06	0	55	0	250609664	53	5263
2026-01-11 22:54:06.32	37.87	19.49	-41.1	-44.4	13.5	5.30e-06	0	55	0	251658240	53	5342
2026-01-11 22:54:07.33	38.01	19.60	-41.1	-44.3	13.6	1.06e-05	0	55	0	253755392	53	5319
2026-01-11 22:54:08.34	38.15	19.70	-41.1	-44.3	13.7	1.60e-05	0	55	0	255852544	53	5284
2026-01-11 22:54:09.35	38.29	19.81	-41.1	-44.2	13.7	8.30e-06	0	55	0	257949696	53	5279
2026-01-11 22:54:10.36	38.43	19.92	-41.1	-44.3	13.6	4.50e-06	0	55	0	260046848	53	5289
2026-01-11 22:54:11.37	38.57	20.03	-41.1	-44.3	13.6	6.80e-06	0	55	0	261095424	53	5316
2026-01-11 22:54:12.37	38.71	20.14	-41.1	-44.3	13.6	8.30e-06	0	55	0	263192576	53	5308
2026-01-11 22:54:13.39	38.85	20.25	-41.2	-44.4	13.6	1.06e-05	0	55	0	265289728	53	5366
2026-01-11 22:54:14.40	38.99	20.36	-41.1	-44.3	13.7	6.10e-06	0	55	0	267386880	53	5282
2026-01-11 22:54:15.41	39.14	20.47	-41.2	-44.5	13.4	3.00e-06	0	55	0	269484032	53	5409
2026-01-11 22:54:16.41	39.28	20.58	-41.2	-44.4	13.5	8.30e-06	0	55	0	270532608	53	5373
2026-01-11 22:54:17.42	39.43	20.69	-41.2	-44.4	13.6	9.10e-06	0	55	0	272629760	53	5372
2026-01-11 22:54:18.43	39.58	20.80	-41.3	-44.7	13.3	1.22e-05	0	55	0	274726912	53	5534
2026-01-11 22:54:19.44	39.73	20.91	-41.2	-44.4	13.5	1.14e-05	0	55	0	276824064	53	5377
2026-01-11 22:54:20.45	39.88	21.03	-41.2	-44.4	13.5	9.90e-06	0	55	0	278921216	53	5402
2026-01-11 22:54:21.46	40.03	21.14	-41.1	-44.3	13.7	9.10e-06	0	55	0	279969792	53	5311
2026-01-11 22:54:22.47	40.18	21.25	-41.1	-44.2	13.8	3.80e-06	0	56	0	282066944	53	5254
2026-01-11 22:54:23.48	40.33	21.37	-41.1	-44.2	13.7	7.60e-06	0	55	0	284164096	53	5252
2026-01-11 22:54:24.49	40.48	21.48	-41.0	-44.0	13.9	3.00e-06	0	55	0	286261248	53	5140
2026-01-11 22:54:25.50	40.64	21.59	-40.8	-43.7	14.3	7.00e-07	0	55	0	288358400	53	4929
2026-01-11 22:54:26.51	40.80	21.71	-40.8	-43.7	14.2	2.20e-06	0	55	0	289406976	53	4982
2026-01-11 22:54:27.52	40.95	21.82	-40.7	-43.6	14.4	7.00e-07	0	55	0	291504128	53	4897
2026-01-11 22:54:28.53	41.11	21.94	-40.8	-43.7	14.3	0.00e+00	0	55	0	293601280	53	4964
2026-01-11 22:54:29.54	41.27	22.05	-40.8	-43.8	14.2	1.50e-06	0	55	0	295698432	53	5011
2026-01-11 22:54:30.55	41.43	22.17	-40.9	-43.8	14.2	3.00e-06	0	55	0	297795584	53	5028
2026-01-11 22:54:31.56	41.59	22.28	-40.8	-43.6	14.3	0.00e+00	0	56	0	298844160	53	4914
2026-01-11 22:54:32.57	41.76	22.40	-40.9	-43.9	14.1	1.50e-06	0	56	0	300941312	53	5061
2026-01-11 22:54:33.58	41.92	22.51	-40.9	-43.9	14.0	2.20e-06	0	56	0	303038464	53	5094
2026-01-11 22:54:34.59	42.09	22.63	-40.9	-43.9	14.1	2.20e-06	0	55	0	305135616	53	5072
2026-01-11 22:54:35.60	42.25	22.75	-41.1	-44.2	13.7	5.30e-06	0	55	0	307232768	53	5268
2026-01-11 22:54:36.61	42.42	22.86	-41.0	-44.1	13.9	3.80e-06	0	56	0	308281344	53	5212
2026-01-11 22:54:37.62	42.59	22.98	-40.9	-43.9	14.1	1.50e-06	0	56	0	310378496	53	5052
2026-01-11 22:54:38.63	42.76	23.10	-40.9	-43.8	14.2	7.00e-07	0	55	0	312475648	53	5036
2026-01-11 22:54:39.64	42.93	23.22	-40.9	-43.9	14.1	2.20e-06	0	56	0	314572800	53	5081
2026-01-11 22:54:40.65	43.10	23.33	-40.7	-43.6	14.4	3.00e-06	0	56	0	316669952	53	4897
2026-01-11 22:54:41.66	43.28	23.45	-40.6	-43.4	14.6	0.00e+00	0	55	0	317718528	53	4806
2026-01-11 22:54:42.67	43.45	23.57	-40.4	-43.1	14.9	0.00e+00	0	56	0	319815680	52	4906
2026-01-11 22:54:43.68	43.63	23.69	-40.4	-43.1	14.9	0.00e+00	0	55	0	321912832	52	4917
2026-01-11 22:54:44.69	43.81	23.81	-40.5	-43.2	14.8	0.00e+00	0	56	0	324009984	52	4972
2026-01-11 22:54:45.70	43.99	23.93	-40.7	-43.5	14.5	0.00e+00	0	56	0	326107136	52	5109
2026-01-11 22:54:46.71	44.17	24.05	-40.7	-43.6	14.4	7.00e-07	0	56	0	328204288	52	5180
2026-01-11 22:54:47.72	44.35	24.17	-40.9	-43.9	14.2	0.00e+00	0	55	0	329252864	52	5353
2026-01-11 22:54:48.73	44.53	24.29	-41.0	-44.1	14.0	4.50e-06	0	56	0	331350016	52	5480
2026-01-11 22:54:49.74	44.72	24.41	-41.0	-44.0	14.0	2.20e-06	0	56	0	333447168	52	5461
2026-01-11 22:54:50.75	44.90	24.53	-41.3	-44.5	13.6	2.20e-06	0	56	0	335544320	53	5420
2026-01-11 22:54:51.76	45.09	24.65	-41.2	-44.3	13.7	9.90e-06	0	56	0	337641472	53	5334
2026-01-11 22:54:52.77	45.28	24.77	-41.0	-44.0	14.0	0.00e+00	0	56	0	338690048	53	5150
2026-01-11 22:54:53.78	45.47	24.89	-40.7	-43.5	14.5	2.20e-06	0	56	0	340787200	53	4862
2026-01-11 22:54:54.79	45.66	25.01	-40.8	-43.7	14.4	1.50e-06	0	56	0	342884352	53	4936
2026-01-11 22:54:55.80	45.86	25.14	-40.6	-43.4	14.6	7.00e-07	0	56	0	344981504	53	4789
2026-01-11 22:54:56.81	46.05	25.26	-40.6	-43.4	14.7	1.50e-06	0	56	0	347078656	53	4767
2026-01-11 22:54:57.82	46.25	25.38	-40.5	-43.2	14.9	0.00e+00	0	56	0	348127232	53	4682
2026-01-11 22:54:58.83	46.44	25.50	-40.5	-43.2	14.9	7.00e-07	0	56	0	350224384	52	4947
2026-01-11 22:54:59.84	46.64	25.63	-40.6	-43.3	14.8	7.00e-07	0	56	0	352321536	52	5031
2026-01-11 22:55:00.84	46.84	25.75	-40.7	-43.5	14.6	0.00e+00	0	56	0	354418688	52	5124
2026-01-11 22:55:01.85	47.04	25.87	-40.8	-43.7	14.4	1.50e-06	0	56	0	356515840	52	5258
2026-01-11 22:55:02.86	47.25	26.00	-40.7	-43.6	14.5	7.00e-07	0	56	0	357564416	52	5173
2026-01-11 22:55:03.87	47.45	26.12	-40.8	-43.6	14.5	0.00e+00	0	56	0	359661568	52	5170
2026-01-11 22:55:04.88	47.66	26.24	-40.8	-43.6	14.5	7.00e-07	0	56	0	361758720	52	5186
2026-01-11 22:55:05.89	47.87	26.37	-40.8	-43.7	14.4	0.00e+00	0	56	0	363855872	52	5255
2026-01-11 22:55:06.90	48.08	26.49	-40.7	-43.6	14.5	0.00e+00	0	56	0	365953024	52	5163
2026-01-11 22:55:07.91	48.29	26.62	-40.8	-43.7	14.4	7.00e-07	0	56	0	367001600	52	5244
2026-01-11 22:55:08.92	48.50	26.74	-40.8	-43.6	14.5	1.50e-06	0	56	0	369098752	52	5189
2026-01-11 22:55:09.93	48.72	26.87	-40.7	-43.6	14.5	7.00e-07	0	56	0	371195904	52	5163
2026-01-11 22:55:10.94	48.94	26.99	-40.7	-43.5	14.6	0.00e+00	0	56	0	373293056	52	5137
2026-01-11 22:55:11.95	49.15	27.12	-40.8	-43.7	14.4	0.00e+00	0	56	0	375390208	52	5239
2026-01-11 22:55:12.96	49.37	27.24	-40.8	-43.6	14.6	0.00e+00	0	56	0	376438784	52	5187
2026-01-11 22:55:13.97	49.60	27.37	-40.7	-43.5	14.6	1.50e-06	0	56	0	378535936	52	5139
2026-01-11 22:55:14.98	49.82	27.49	-40.7	-43.5	14.6	7.00e-07	0	56	0	380633088	52	5120
2026-01-11 22:55:15.99	50.05	27.62	-40.6	-43.3	14.8	0.00e+00	0	56	0	382730240	52	4995
2026-01-11 22:55:17.00	50.27	27.74	-40.5	-43.1	15.0	0.00e+00	0	56	0	384827392	52	4917
2026-01-11 22:55:18.01	50.50	27.87	-40.4	-43.0	15.1	0.00e+00	0	56	0	386924544	52	4858
2026-01-11 22:55:19.02	50.73	28.00	-40.4	-43.0	15.1	0.00e+00	0	56	0	387973120	52	4849
2026-01-11 22:55:20.03	50.96	28.12	-40.4	-43.0	15.1	0.00e+00	0	56	0	390070272	52	4865
2026-01-11 22:55:21.04	51.20	28.25	-40.4	-43.0	15.1	0.00e+00	0	56	0	392167424	52	4867
2026-01-11 22:55:22.05	51.43	28.37	-40.7	-43.4	14.7	0.00e+00	0	56	0	394264576	52	5071
2026-01-11 22:55:23.05	51.67	28.50	-40.6	-43.4	14.8	0.00e+00	0	56	0	396361728	52	5050
2026-01-11 22:55:24.06	51.91	28.63	-40.7	-43.4	14.7	0.00e+00	0	56	0	397410304	52	5095
2026-01-11 22:55:25.07	52.15	28.75	-40.9	-43.8	14.3	1.50e-06	0	56	0	399507456	52	5308
2026-01-11 22:55:26.08	52.39	28.88	-40.8	-43.7	14.5	1.50e-06	0	56	0	401604608	52	5244
2026-01-11 22:55:27.09	52.64	29.00	-40.9	-43.9	14.3	2.20e-06	0	56	0	403701760	52	5354
2026-01-11 22:55:28.10	52.89	29.13	-41.3	-44.4	13.7	2.20e-06	0	56	0	405798912	53	5386
2026-01-11 22:55:29.11	53.13	29.26	-41.3	-44.4	13.7	3.80e-06	0	56	0	406847488	53	5384
2026-01-11 22:55:30.12	53.39	29.38	-41.3	-44.4	13.7	9.90e-06	0	56	0	408944640	53	5372
2026-01-11 22:55:31.13	53.64	29.51	-41.5	-44.7	13.5	1.90e-05	0	56	0	411041792	53	5582
2026-01-11 22:55:32.14	53.89	29.64	-41.4	-44.6	13.5	1.14e-05	0	56	0	413138944	53	5519
2026-01-11 22:55:33.15	54.15	29.76	-41.4	-44.7	13.5	1.60e-05	0	56	0	415236096	53	5533
2026-01-11 22:55:34.16	54.41	29.89	-41.6	-44.9	13.3	1.37e-05	0	56	0	416284672	53	5694
2026-01-11 22:55:35.17	54.67	30.02	-41.7	-45.1	13.0	2.28e-05	0	56	0	418381824	54	5523
2026-01-11 22:55:36.18	54.93	30.14	-41.6	-45.0	13.1	4.11e-05	0	56	0	420478976	54	5456
2026-01-11 22:55:37.19	55.20	30.27	-41.7	-45.1	13.0	6.10e-05	0	56	0	422576128	54	5519
2026-01-11 22:55:38.20	55.46	30.39	-41.8	-45.4	12.7	5.72e-05	0	56	0	424673280	54	5690
2026-01-11 22:55:39.21	55.73	30.52	-42.0	-45.7	12.5	5.64e-05	0	56	0	425721856	54	5874
2026-01-11 22:55:40.22	56.00	30.64	-41.9	-45.6	12.6	7.78e-05	0	56	0	427819008	54	5801
2026-01-11 22:55:41.23	56.28	30.77	-42.0	-45.6	12.5	7.55e-05	0	56	0	429916160	54	5853
2026-01-11 22:55:42.24	56.55	30.90	-42.3	-46.2	12.0	2.55e-04	0	56	0	432013312	55	5880
2026-01-11 22:55:43.24	56.83	31.02	-42.5	-46.7	11.5	6.34e-04	0	56	0	434110464	55	6229
2026-01-11 22:55:44.25	57.11	31.14	-42.8	-47.3	11.0	2.48e-03	0	56	0	435159040	56	6284
2026-01-11 22:55:45.26	57.39	31.27	-43.1	-47.9	10.3	3.46e-03	0	56	0	437256192	56	6732
2026-01-11 22:55:46.27	57.67	31.39	-43.1	-48.0	10.2	4.37e-03	0	56	0	439353344	56	6865
2026-01-11 22:55:47.28	57.96	31.52	-43.1	-48.0	10.3	4.67e-03	0	56	0	441450496	56	6805
2026-01-11 22:55:48.29	58.24	31.64	-43.0	-47.6	10.6	5.28e-03	0	56	0	443547648	56	6524
2026-01-11 22:55:49.30	58.53	31.77	-42.9	-47.5	10.7	3.42e-03	0	56	0	444596224	56	6451
2026-01-11 22:55:50.31	58.83	31.89	-42.9	-47.4	10.9	3.51e-03	0	56	0	446693376	56	6362
2026-01-11 22:55:51.32	59.12	32.01	-42.8	-47.1	11.1	1.97e-03	0	56	0	448790528	56	6192
2026-01-11 22:55:52.33	59.42	32.14	-43.0	-47.5	10.7	1.33e-03	0	56	0	450887680	56	6484
2026-01-11 22:55:53.34	59.72	32.26	-43.1	-47.8	10.5	3.50e-03	0	56	0	452984832	56	6699
2026-01-11 22:55:54.35	60.02	32.38	-43.1	-47.9	10.3	6.13e-03	0	56	0	454033408	56	6798
2026-01-11 22:55:55.36	60.32	32.50	-43.3	-48.4	9.8	1.03e-02	0	56	0	456130560	57	6772
2026-01-11 22:55:56.37	60.63	32.63	-43.4	-48.8	9.4	1.15e-02	0	56	0	458227712	57	7053
2026-01-11 22:55:57.38	60.94	32.75	-43.3	-48.4	9.8	1.33e-02	0	56	0	460324864	57	6772
2026-01-11 22:55:58.39	61.25	32.87	-43.2	-48.0	10.2	7.75e-03	0	56	0	462422016	57	6479
2026-01-11 22:55:59.40	61.56	32.99	-43.1	-47.9	10.3	4.05e-03	0	56	0	464519168	57	6405
2026-01-11 22:56:00.40	61.87	33.11	-43.0	-47.7	10.7	2.97e-03	0	56	0	465567744	57	6231
2026-01-11 22:56:01.41	62.19	33.23	-43.1	-47.9	10.3	6.86e-03	0	56	0	467664896	57	6373
2026-01-11 22:56:02.42	62.51	33.34	-43.3	-48.4	9.8	6.62e-03	0	56	0	469762048	57	6747
2026-01-11 22:56:03.43	62.83	33.46	-43.6	-49.3	8.9	2.12e-02	0	56	0	471859200	57	7485
2026-01-11 22:56:04.44	63.15	33.58	-43.7	-49.5	8.8	3.48e-02	0	56	0	472907776	58	7214
2026-01-11 22:56:05.45	63.48	33.70	-43.8	-49.9	8.3	4.74e-02	0	56	0	475004928	58	7554
2026-01-11 22:56:06.46	63.81	33.82	-43.7	-49.4	8.9	3.18e-02	0	56	0	477102080	58	7136
2026-01-11 22:56:07.47	64.14	33.93	-43.6	-49.2	8.9	3.68e-02	0	56	0	479199232	58	7014
2026-01-11 22:56:08.48	64.47	34.05	-43.5	-48.9	9.3	2.67e-02	0	56	0	481296384	58	6787
2026-01-11 22:56:09.49	64.81	34.16	-43.3	-48.5	9.8	1.23e-02	0	56	0	483393536	58	6437
2026-01-11 22:56:10.50	65.15	34.28	-43.1	-47.9	10.4	5.28e-03	0	56	0	484442112	58	5997
2026-01-11 22:56:11.51	65.49	34.39	-43.3	-48.3	10.1	6.33e-03	0	56	0	486539264	58	6281
2026-01-11 22:56:12.52	65.83	34.50	-43.3	-48.2	10.1	6.28e-03	0	56	0	488636416	58	6270
2026-01-11 22:56:13.53	66.17	34.61	-43.3	-48.4	9.8	7.76e-03	0	56	0	490733568	58	6362
2026-01-11 22:56:14.54	66.52	34.73	-43.7	-49.6	8.6	1.69e-02	0	56	0	492830720	58	7357
2026-01-11 22:56:15.55	66.87	34.84	-43.9	-50.1	8.3	3.51e-02	0	56	0	493879296	58	7725
2026-01-11 22:56:16.56	67.22	34.95	-43.8	-50.0	8.2	5.27e-02	0	56	0	495976448	58	7685
2026-01-11 22:56:17.57	67.58	35.06	-43.6	-49.1	9.1	4.60e-02	0	56	0	498073600	58	6944
2026-01-11 22:56:18.58	67.93	35.16	-43.3	-48.5	9.9	1.77e-02	0	56	0	500170752	58	6434
2026-01-11 22:56:19.59	68.29	35.27	-42.7	-46.8	11.5	1.43e-03	0	56	0	502267904	57	5652
2026-01-11 22:56:20.60	68.66	35.38	-42.1	-45.7	12.7	1.62e-04	0	56	0	503316480	56	5226
2026-01-11 22:56:21.61	69.02	35.48	-42.0	-45.6	12.6	5.87e-05	0	56	0	505413632	55	5492
2026-01-11 22:56:22.62	69.39	35.59	-42.4	-46.3	11.8	1.16e-04	0	56	0	507510784	55	5986
2026-01-11 22:56:23.63	69.75	35.69	-42.4	-46.5	11.7	8.29e-04	0	56	0	509607936	55	6071
2026-01-11 22:56:24.64	70.13	35.80	-42.5	-46.8	11.4	1.08e-03	0	56	0	511705088	55	6275
2026-01-11 22:56:25.65	70.50	35.90	-42.4	-46.4	11.8	8.86e-04	0	56	0	512753664	55	6023
2026-01-11 22:56:26.65	70.87	36.00	-42.1	-45.7	12.4	2.01e-04	0	57	0	514850816	55	5579
2026-01-11 22:56:27.66	71.25	36.10	-41.8	-45.1	13.2	1.13e-04	0	56	0	516947968	55	5202
2026-01-11 22:56:28.67	71.63	36.20	-41.3	-44.3	13.9	5.30e-06	0	57	0	519045120	54	5014
2026-01-11 22:56:29.68	72.01	36.29	-41.3	-44.3	13.9	7.60e-06	0	56	0	521142272	54	5030
2026-01-11 22:56:30.69	72.39	36.39	-41.3	-44.4	13.8	3.00e-06	0	56	0	522190848	54	5096
2026-01-11 22:56:31.70	72.78	36.49	-41.3	-44.3	13.9	5.30e-06	0	56	0	524288000	54	5035
2026-01-11 22:56:32.71	73.17	36.58	-41.5	-44.7	13.6	5.30e-06	0	56	0	526385152	54	5219
2026-01-11 22:56:33.72	73.56	36.67	-41.5	-44.6	13.7	6.10e-06	0	56	0	528482304	54	5189
2026-01-11 22:56:34.73	73.96	36.76	-41.4	-44.5	13.7	7.60e-06	0	56	0	530579456	54	5152
2026-01-11 22:56:35.74	74.35	36.85	-41.2	-44.2	14.0	7.60e-06	0	56	0	531628032	54	4959
2026-01-11 22:56:36.75	74.75	36.94	-41.0	-43.8	14.4	1.50e-06	0	56	0	533725184	53	5028
2026-01-11 22:56:37.76	75.15	37.03	-40.7	-43.4	14.8	0.00e+00	0	57	0	535822336	53	4782
2026-01-11 22:56:38.77	75.55	37.12	-40.6	-43.2	15.0	7.00e-07	0	56	0	537919488	53	4700
2026-01-11 22:56:39.78	75.96	37.20	-40.6	-43.2	15.1	0.00e+00	0	56	0	540016640	52	4975
2026-01-11 22:56:40.78	76.36	37.29	-41.0	-43.8	14.5	0.00e+00	0	57	0	541065216	52	5300
2026-01-11 22:56:41.79	76.77	37.37	-41.4	-44.6	13.7	7.00e-07	0	56	0	543162368	53	5495
2026-01-11 22:56:42.80	77.18	37.45	-41.5	-44.8	13.5	1.83e-05	0	57	0	545259520	54	5297
2026-01-11 22:56:43.81	77.59	37.53	-41.7	-45.0	13.3	1.60e-05	0	56	0	547356672	54	5439
2026-01-11 22:56:44.82	78.00	37.61	-41.8	-45.2	13.1	1.67e-05	0	56	0	549453824	54	5571
2026-01-11 22:56:45.83	78.42	37.69	-41.9	-45.4	12.8	3.89e-05	0	56	0	550502400	54	5706
2026-01-11 22:56:46.84	78.84	37.76	-42.1	-45.8	12.5	1.23e-04	0	56	0	552599552	54	5949
2026-01-11 22:56:47.85	79.26	37.84	-42.4	-46.4	11.8	3.55e-04	0	56	0	554696704	55	6008
2026-01-11 22:56:48.86	79.68	37.91	-42.1	-45.9	12.3	1.67e-04	0	56	0	556793856	55	5690
2026-01-11 22:56:49.87	80.10	37.98	-41.6	-44.8	13.4	4.50e-05	0	56	0	558891008	55	5003
2026-01-11 22:56:50.88	80.53	38.05	-41.1	-44.0	14.3	4.50e-06	0	57	0	560988160	54	4828
2026-01-11 22:56:51.89	80.96	38.12	-40.9	-43.7	14.6	7.00e-07	0	56	0	562036736	53	4936
2026-01-11 22:56:52.90	81.39	38.18	-41.1	-44.0	14.2	0.00e+00	0	57	0	564133888	53	5151
2026-01-11 22:56:53.91	81.82	38.25	-41.5	-44.6	13.6	2.20e-06	0	57	0	566231040	53	5528
2026-01-11 22:56:54.92	82.25	38.31	-41.6	-44.9	13.3	7.60e-06	0	56	0	568328192	53	5696
2026-01-11 22:56:55.93	82.68	38.37	-41.8	-45.3	13.0	3.43e-05	0	56	0	570425344	54	5619
2026-01-11 22:56:56.94	83.12	38.43	-41.9	-45.4	12.9	3.66e-05	0	56	0	571473920	54	5680
2026-01-11 22:56:57.95	83.56	38.49	-41.9	-45.6	12.7	5.18e-05	0	57	0	573571072	54	5795
2026-01-11 22:56:58.96	84.00	38.54	-42.1	-45.9	12.3	1.46e-04	0	56	0	575668224	54	6038
2026-01-11 22:56:59.97	84.44	38.60	-42.1	-45.9	12.3	1.79e-04	0	56	0	577765376	54	6023
2026-01-11 22:57:00.98	84.88	38.65	-41.8	-45.3	12.8	1.11e-04	0	56	0	579862528	54	5643
2026-01-11 22:57:01.99	85.32	38.70	-41.5	-44.7	13.6	9.10e-06	0	56	0	580911104	54	5236
2026-01-11 22:57:03.00	85.77	38.75	-41.1	-44.0	14.3	1.50e-06	0	56	0	583008256	54	4852
2026-01-11 22:57:04.01	86.21	38.79	-41.2	-44.2	14.1	1.50e-06	0	57	0	585105408	54	4965
2026-01-11 22:57:05.02	86.66	38.84	-41.3	-44.4	13.9	0.00e+00	0	56	0	587202560	54	5061
2026-01-11 22:57:06.03	87.11	38.88	-41.3	-44.4	13.9	3.80e-06	0	57	0	589299712	54	5061
2026-01-11 22:57:07.04	87.56	38.92	-41.5	-44.7	13.6	4.50e-06	0	57	0	590348288	54	5227
2026-01-11 22:57:08.05	88.01	38.96	-41.6	-44.9	13.4	9.10e-06	0	56	0	592445440	54	5367
2026-01-11 22:57:09.06	88.46	39.00	-42.2	-46.0	12.2	7.17e-05	0	56	0	594542592	54	6087
2026-01-11 22:57:10.07	88.91	39.03	-42.4	-46.5	11.7	3.00e-04	0	56	0	596639744	55	6107
2026-01-11 22:57:11.08	89.37	39.07	-42.4	-46.3	11.8	3.83e-04	0	57	0	598736896	55	5992
2026-01-11 22:57:12.09	89.82	39.10	-42.1	-45.8	12.5	9.84e-05	0	56	0	600834048	55	5616
2026-01-11 22:57:13.10	90.28	39.13	-42.1	-45.8	12.4	1.85e-04	0	56	0	601882624	55	5598
2026-01-11 22:57:14.11	90.73	39.16	-42.0	-45.7	12.5	1.15e-04	0	56	0	603979776	55	5533
2026-01-11 22:57:15.12	91.19	39.18	-41.8	-45.3	13.0	6.79e-05	0	57	0	606076928	55	5284
2026-01-11 22:57:16.13	91.65	39.20	-41.5	-44.7	13.5	2.59e-05	0	57	0	608174080	55	4975
2026-01-11 22:57:17.14	92.11	39.23	-41.5	-44.7	13.6	5.30e-06	0	57	0	610271232	54	5227
2026-01-11 22:57:18.15	92.57	39.25	-42.1	-45.7	12.5	4.73e-05	0	56	0	611319808	54	5886
2026-01-11 22:57:19.17	93.03	39.26	-42.7	-47.1	11.1	6.20e-04	0	57	0	613416960	55	6550
2026-01-11 22:57:20.18	93.49	39.28	-43.6	-49.1	9.1	8.10e-03	0	56	0	615514112	57	7339
2026-01-11 22:57:21.19	93.95	39.29	-43.3	-48.4	9.9	2.06e-02	0	56	0	617611264	57	6757
2026-01-11 22:57:22.20	94.41	39.30	-42.7	-46.8	11.6	2.20e-03	0	56	0	619708416	57	5619
2026-01-11 22:57:23.20	94.87	39.31	-42.2	-45.9	12.5	2.22e-04	0	57	0	620756992	56	5375
2026-01-11 22:57:24.21	95.33	39.32	-41.6	-44.8	13.4	6.56e-05	0	56	0	622854144	55	5026
2026-01-11 22:57:25.22	95.79	39.33	-41.3	-44.3	14.0	7.60e-06	0	57	0	624951296	54	5017
2026-01-11 22:57:26.23	96.25	39.33	-40.9	-43.7	14.5	5.30e-06	0	56	0	627048448	53	4941
2026-01-11 22:57:27.24	96.71	39.33	-40.7	-43.3	14.9	0.00e+00	0	56	0	629145600	53	4758
2026-01-11 22:57:28.25	97.18	39.33	-40.6	-43.2	15.0	7.00e-07	0	56	0	630194176	53	4695
2026-01-11 22:57:29.26	97.64	39.33	-40.9	-43.6	14.6	0.00e+00	0	56	0	632291328	53	4915
2026-01-11 22:57:30.27	98.10	39.32	-41.2	-44.2	14.1	3.00e-06	0	57	0	634388480	53	5272
2026-01-11 22:57:31.28	98.56	39.31	-41.0	-43.8	14.4	1.50e-06	0	57	0	636485632	53	5020
2026-01-11 22:57:32.28	99.02	39.31	-40.6	-43.2	15.0	0.00e+00	0	57	0	638582784	53	4689
2026-01-11 22:57:33.29	99.48	39.29	-40.5	-43.1	15.2	0.00e+00	0	57	0	639631360	53	4625
2026-01-11 22:57:34.30	99.94	39.28	-41.2	-44.2	14.1	1.50e-06	0	57	0	641728512	53	5255
2026-01-11 22:57:35.31	100.40	39.27	-41.6	-44.8	13.5	1.37e-05	0	57	0	643825664	53	5636
2026-01-11 22:57:36.32	100.86	39.25	-41.6	-44.9	13.4	2.28e-05	0	56	0	645922816	54	5401
2026-01-11 22:57:37.33	101.32	39.23	-41.3	-44.4	13.9	2.20e-06	0	56	0	648019968	54	5049
2026-01-11 22:57:38.34	101.78	39.21	-41.3	-44.4	13.9	6.10e-06	0	57	0	649068544	54	5079
2026-01-11 22:57:39.35	102.23	39.19	-41.2	-44.2	14.1	3.00e-06	0	57	0	651165696	54	4969
2026-01-11 22:57:40.37	102.70	39.16	-41.2	-44.2	14.2	7.00e-07	0	57	0	653262848	54	4933
2026-01-11 22:57:41.38	103.15	39.13	-41.5	-44.7	13.6	4.50e-06	0	57	0	655360000	54	5254
2026-01-11 22:57:42.39	103.61	39.10	-41.8	-45.3	13.0	2.05e-05	0	57	0	657457152	54	5602
2026-01-11 22:57:43.40	104.06	39.07	-42.1	-45.8	12.4	6.56e-05	0	57	0	658505728	54	5984
2026-01-11 22:57:44.40	104.51	39.04	-41.9	-45.4	13.0	1.01e-04	0	56	0	660602880	54	5661
2026-01-11 22:57:45.42	104.97	39.00	-42.0	-45.6	12.7	6.63e-05	0	56	0	662700032	54	5802
2026-01-11 22:57:46.43	105.42	38.97	-41.6	-44.8	13.5	3.50e-05	0	57	0	664797184	54	5283
2026-01-11 22:57:47.44	105.88	38.93	-41.1	-44.0	14.3	2.20e-06	0	57	0	666894336	54	4850
2026-01-11 22:57:48.44	106.32	38.89	-40.7	-43.4	14.8	0.00e+00	0	56	0	668991488	53	4779
2026-01-11 22:57:49.45	106.77	38.84	-40.7	-43.4	14.9	0.00e+00	0	57	0	670040064	53	4778
2026-01-11 22:57:50.46	107.22	38.80	-40.7	-43.4	14.9	7.00e-07	0	57	0	672137216	53	4793
2026-01-11 22:57:51.47	107.67	38.75	-40.9	-43.7	14.5	7.00e-07	0	57	0	674234368	53	4977
2026-01-11 22:57:52.48	108.11	38.70	-41.0	-43.9	14.3	0.00e+00	0	57	0	676331520	53	5095
2026-01-11 22:57:53.49	108.55	38.65	-41.3	-44.3	13.9	5.30e-06	0	57	0	678428672	53	5302
2026-01-11 22:57:54.50	109.00	38.60	-41.4	-44.6	13.7	4.50e-06	0	57	0	679477248	53	5473
2026-01-11 22:57:55.51	109.44	38.55	-41.0	-43.8	14.4	1.50e-06	0	57	0	681574400	53	5026
2026-01-11 22:57:56.52	109.88	38.49	-40.4	-42.9	15.3	0.00e+00	0	57	0	683671552	52	4804
2026-01-11 22:57:57.53	110.32	38.44	-40.4	-42.9	15.5	0.00e+00	0	57	0	685768704	52	4768
2026-01-11 22:57:58.54	110.75	38.38	-40.6	-43.2	15.0	0.00e+00	0	57	0	686817280	52	4954
2026-01-11 22:57:59.55	111.19	38.32	-40.7	-43.3	14.9	0.00e+00	0	57	0	688914432	52	5023
2026-01-11 22:58:00.56	111.62	38.25	-40.4	-42.9	15.4	0.00e+00	0	56	0	691011584	52	4777
2026-01-11 22:58:01.57	112.06	38.19	-40.0	-42.3	16.0	0.00e+00	0	57	0	693108736	51	4752
2026-01-11 22:58:02.58	112.49	38.12	-40.0	-42.3	16.0	0.00e+00	0	57	0	695205888	51	4742
2026-01-11 22:58:03.59	112.91	38.06	-40.4	-42.9	15.4	0.00e+00	0	57	0	697303040	51	5066
2026-01-11 22:58:04.60	113.34	37.99	-40.7	-43.4	14.9	0.00e+00	0	57	0	698351616	52	5087
2026-01-11 22:58:05.60	113.76	37.92	-41.2	-44.2	14.0	0.00e+00	0	57	0	700448768	53	5258
2026-01-11 22:58:06.61	114.19	37.84	-41.3	-44.4	13.9	2.20e-06	0	57	0	702545920	53	5348
2026-01-11 22:58:07.62	114.61	37.77	-41.0	-43.9	14.4	2.20e-06	0	57	0	704643072	53	5049
2026-01-11 22:58:08.63	115.03	37.70	-40.6	-43.3	14.9	7.00e-07	0	57	0	706740224	53	4727
2026-01-11 22:58:09.64	115.44	37.62	-40.6	-43.3	14.9	0.00e+00	0	57	0	707788800	52	5035
2026-01-11 22:58:10.65	115.86	37.54	-40.5	-43.0	15.2	7.00e-07	0	57	0	709885952	52	4869
2026-01-11 22:58:11.66	116.27	37.46	-40.0	-42.4	15.8	0.00e+00	0	57	0	711983104	52	4499
2026-01-11 22:58:12.67	116.68	37.38	-39.5	-41.6	16.7	0.00e+00	0	57	0	714080256	51	4362
2026-01-11 22:58:13.68	117.09	37.30	-39.5	-41.7	16.7	0.00e+00	0	57	0	716177408	50	4658
2026-01-11 22:58:14.68	117.50	37.21	-40.1	-42.4	15.9	0.00e+00	0	57	0	717225984	50	5066
2026-01-11 22:58:15.69	117.90	37.13	-40.8	-43.5	14.7	0.00e+00	0	56	0	719323136	52	5136
2026-01-11 22:58:16.70	118.31	37.04	-41.1	-44.1	14.1	4.50e-06	0	56	0	721420288	53	5209
2026-01-11 22:58:17.71	118.71	36.95	-40.9	-43.7	14.5	7.00e-07	0	57	0	723517440	53	4957
2026-01-11 22:58:18.72	119.11	36.86	-40.4	-42.9	15.3	7.00e-07	0	57	0	725614592	52	4798
2026-01-11 22:58:19.73	119.50	36.77	-40.0	-42.2	16.1	0.00e+00	0	57	0	726663168	51	4699
2026-01-11 22:58:20.74	119.90	36.68	-39.9	-42.1	16.2	0.00e+00	0	57	0	728760320	51	4644
2026-01-11 22:58:21.75	120.29	36.59	-39.6	-41.8	16.5	0.00e+00	0	57	0	730857472	51	4461
2026-01-11 22:58:22.76	120.68	36.49	-39.0	-41.0	17.4	0.00e+00	0	57	0	732954624	50	4312
2026-01-11 22:58:23.77	121.07	36.40	-38.5	-40.3	18.0	0.00e+00	0	57	0	735051776	49	4195
2026-01-11 22:58:24.78	121.46	36.30	-38.2	-39.9	18.3	0.00e+00	0	57	0	736100352	48	4265
2026-01-11 22:58:25.78	121.83	36.20	-38.8	-40.7	17.6	0.00e+00	0	57	0	738197504	48	4689
2026-01-11 22:58:26.80	122.22	36.10	-39.9	-42.1	16.2	0.00e+00	0	57	0	740294656	50	4918
2026-01-11 22:58:27.81	122.60	36.00	-40.2	-42.7	15.7	0.00e+00	0	57	0	742391808	51	4937
2026-01-11 22:58:28.82	122.98	35.90	-40.1	-42.4	15.8	0.00e+00	0	57	0	744488960	51	4811
2026-01-11 22:58:29.83	123.35	35.80	-40.1	-42.5	15.9	0.00e+00	0	57	0	745537536	51	4828
2026-01-11 22:58:30.84	123.72	35.70	-40.2	-42.6	15.7	0.00e+00	0	57	0	747634688	51	4924
2026-01-11 22:58:31.85	124.09	35.59	-40.8	-43.5	14.8	0.00e+00	0	57	0	749731840	52	5106
2026-01-11 22:58:32.86	124.46	35.49	-41.4	-44.5	13.7	3.80e-06	0	56	0	751828992	53	5428
2026-01-11 22:58:33.86	124.82	35.38	-40.9	-43.7	14.5	1.50e-06	0	57	0	753926144	53	4961
2026-01-11 22:58:34.87	125.18	35.28	-40.2	-42.6	15.6	0.00e+00	0	57	0	754974720	52	4635
2026-01-11 22:58:35.88	125.54	35.17	-39.9	-42.1	16.2	0.00e+00	0	57	0	757071872	51	4617
2026-01-11 22:58:36.89	125.90	35.06	-40.0	-42.3	16.0	0.00e+00	0	57	0	759169024	51	4744
2026-01-11 22:58:37.90	126.26	34.95	-40.8	-43.5	14.8	0.00e+00	0	57	0	761266176	52	5146
2026-01-11 22:58:38.91	126.61	34.84	-41.5	-44.8	13.5	4.50e-06	0	57	0	763363328	53	5603
2026-01-11 22:58:39.92	126.96	34.73	-41.7	-45.1	13.1	3.50e-05	0	57	0	765460480	54	5498
2026-01-11 22:58:40.93	127.31	34.62	-41.5	-44.7	13.6	2.13e-05	0	56	0	766509056	54	5225
2026-01-11 22:58:41.94	127.66	34.50	-41.4	-44.4	13.9	3.80e-06	0	57	0	768606208	54	5079
2026-01-11 22:58:42.95	128.00	34.39	-41.8	-45.2	13.0	1.75e-05	0	57	0	770703360	54	5538
2026-01-11 22:58:43.96	128.34	34.28	-42.6	-46.9	11.3	3.36e-04	0	57	0	772800512	55	6362
2026-01-11 22:58:44.97	128.68	34.16	-43.2	-48.0	10.3	2.97e-03	0	57	0	774897664	57	6451
2026-01-11 22:58:45.98	129.02	34.05	-42.8	-47.1	11.2	2.70e-03	0	57	0	775946240	57	5852
2026-01-11 22:58:46.99	129.36	33.93	-42.4	-46.2	12.2	5.73e-04	0	57	0	778043392	56	5563
2026-01-11 22:58:48.00	129.69	33.81	-42.0	-45.5	12.9	1.10e-04	0	57	0	780140544	56	5124
2026-01-11 22:58:49.01	130.02	33.70	-42.0	-45.4	13.0	5.95e-05	0	57	0	782237696	56	5042
2026-01-11 22:58:50.02	130.35	33.58	-42.1	-45.7	12.5	6.02e-05	0	57	0	784334848	55	5583
2026-01-11 22:58:51.03	130.67	33.46	-43.0	-47.6	10.8	8.76e-04	0	57	0	785383424	56	6516
2026-01-11 22:58:52.04	130.99	33.34	-43.2	-47.9	10.4	2.88e-03	0	57	0	787480576	56	6754
2026-01-11 22:58:53.05	131.31	33.22	-42.8	-47.2	11.2	2.44e-03	0	57	0	789577728	56	6210
2026-01-11 22:58:54.06	131.63	33.10	-42.6	-46.5	11.8	9.66e-04	0	57	0	791674880	56	5778
2026-01-11 22:58:55.07	131.95	32.98	-42.6	-46.7	11.7	2.97e-04	0	57	0	793772032	56	5865
2026-01-11 22:58:56.08	132.26	32.86	-43.3	-48.3	10.0	3.88e-03	0	57	0	794820608	57	6686
2026-01-11 22:58:57.09	132.57	32.74	-44.0	-50.6	7.7	5.15e-02	0	57	0	796917760	58	8245
2026-01-11 22:58:58.10	132.88	32.62	-44.3	-51.6	6.7	2.23e-01	0	57	0	799014912	59	8666
2026-01-11 22:58:59.10	133.19	32.49	-43.4	-48.7	9.6	5.95e-02	0	57	0	801112064	58	6580
2026-01-11 22:59:00.11	133.49	32.37	-43.0	-47.4	10.9	5.14e-03	0	57	0	803209216	58	5702
2026-01-11 22:59:01.12	133.79	32.25	-42.6	-46.6	11.7	1.03e-03	0	57	0	804257792	57	5508
2026-01-11 22:59:02.13	134.09	32.13	-43.0	-47.4	10.9	1.40e-03	0	57	0	806354944	57	6044
2026-01-11 22:59:03.14	134.39	32.00	-43.6	-49.0	9.3	9.51e-03	0	57	0	808452096	57	7222
2026-01-11 22:59:04.15	134.69	31.88	-44.0	-50.4	7.9	5.07e-02	0	57	0	810549248	58	8031
2026-01-11 22:59:05.17	134.98	31.75	-43.8	-49.9	8.4	7.02e-02	0	57	0	812646400	58	7584
2026-01-11 22:59:06.18	135.28	31.63	-43.4	-48.4	9.8	2.75e-02	0	57	0	813694976	58	6414
2026-01-11 22:59:07.18	135.56	31.50	-43.1	-47.8	10.5	8.97e-03	0	57	0	815792128	58	5930
2026-01-11 22:59:08.19	135.85	31.38	-42.6	-46.6	11.8	6.33e-04	0	57	0	817889280	57	5504
2026-01-11 22:59:09.20	136.13	31.25	-43.0	-47.5	10.9	1.33e-03	0	57	0	819986432	57	6072
2026-01-11 22:59:10.21	136.42	31.13	-43.6	-49.1	9.1	1.47e-02	0	57	0	822083584	57	7367
2026-01-11 22:59:11.22	136.70	31.00	-43.8	-49.9	8.5	3.33e-02	0	57	0	823132160	58	7546
2026-01-11 22:59:12.23	136.97	30.88	-43.4	-48.5	9.7	2.30e-02	0	57	0	825229312	58	6433
2026-01-11 22:59:13.24	137.25	30.75	-42.7	-46.9	11.4	4.22e-03	0	57	0	827326464	57	5673
2026-01-11 22:59:14.25	137.53	30.62	-42.0	-45.4	12.9	1.89e-04	0	57	0	829423616	56	5090
2026-01-11 22:59:15.26	137.80	30.50	-41.9	-45.4	12.8	2.44e-05	0	57	0	831520768	55	5360
2026-01-11 22:59:16.27	138.07	30.37	-42.1	-45.7	12.5	5.56e-05	0	57	0	833617920	55	5568
2026-01-11 22:59:17.28	138.33	30.24	-42.5	-46.6	11.6	3.74e-04	0	57	0	834666496	55	6171
2026-01-11 22:59:18.29	138.60	30.12	-43.4	-48.5	9.8	6.68e-03	0	57	0	836763648	57	6818
2026-01-11 22:59:19.30	138.86	29.99	-43.9	-50.0	8.2	4.22e-02	0	57	0	838860800	58	7693
2026-01-11 22:59:20.30	139.12	29.86	-43.6	-49.0	9.2	4.12e-02	0	57	0	840957952	58	6838
2026-01-11 22:59:21.31	139.38	29.74	-43.1	-47.6	10.6	8.94e-03	0	57	0	843055104	58	5843
2026-01-11 22:59:22.32	139.64	29.61	-42.5	-46.4	11.9	8.04e-04	0	57	0	844103680	57	5385
2026-01-11 22:59:23.33	139.90	29.48	-42.4	-46.2	12.1	1.73e-04	0	57	0	846200832	56	5578
2026-01-11 22:59:24.34	140.15	29.36	-42.5	-46.5	11.8	3.65e-04	0	57	0	848297984	56	5781
2026-01-11 22:59:25.35	140.40	29.23	-43.0	-47.5	10.8	2.09e-03	0	57	0	850395136	56	6455
2026-01-11 22:59:26.36	140.65	29.10	-43.2	-48.0	10.2	4.32e-03	0	57	0	852492288	56	6870
2026-01-11 22:59:27.37	140.90	28.97	-42.7	-46.9	11.4	4.28e-03	0	57	0	853540864	57	5664
2026-01-11 22:59:28.38	141.15	28.85	-41.5	-44.6	13.6	4.80e-05	0	57	0	855638016	55	4924
2026-01-11 22:59:29.39	141.39	28.72	-40.5	-43.1	15.1	0.00e+00	0	56	0	857735168	53	4619
2026-01-11 22:59:30.40	141.63	28.59	-39.9	-42.1	16.3	0.00e+00	0	57	0	859832320	51	4609
2026-01-11 22:59:31.41	141.87	28.47	-40.0	-42.2	16.1	0.00e+00	0	57	0	861929472	51	4699
2026-01-11 22:59:32.42	142.11	28.34	-40.3	-42.7	15.6	0.00e+00	0	57	0	862978048	51	4952
2026-01-11 22:59:33.43	142.35	28.21	-40.7	-43.3	14.9	0.00e+00	0	57	0	865075200	52	5031
2026-01-11 22:59:34.44	142.58	28.08	-41.3	-44.3	13.9	0.00e+00	0	57	0	867172352	53	5330
2026-01-11 22:59:35.45	142.82	27.96	-41.3	-44.5	13.7	9.10e-06	0	57	0	869269504	53	5426
2026-01-11 22:59:36.46	143.05	27.83	-41.0	-43.9	14.3	6.80e-06	0	57	0	871366656	53	5095
2026-01-11 22:59:37.47	143.28	27.70	-40.4	-42.9	15.3	1.50e-06	0	57	0	872415232	52	4812
2026-01-11 22:59:38.48	143.50	27.58	-39.6	-41.8	16.5	0.00e+00	0	57	0	874512384	51	4443
2026-01-11 22:59:39.49	143.73	27.45	-39.4	-41.5	16.8	0.00e+00	0	57	0	876609536	50	4550
2026-01-11 22:59:40.50	143.95	27.32	-39.2	-41.2	17.0	0.00e+00	0	57	0	878706688	50	4424
2026-01-11 22:59:41.50	144.17	27.20	-39.5	-41.7	16.6	0.00e+00	0	57	0	880803840	50	4661
2026-01-11 22:59:42.51	144.40	27.07	-40.0	-42.4	15.9	0.00e+00	0	57	0	881852416	50	5061
2026-01-11 22:59:43.52	144.61	26.95	-40.7	-43.4	14.9	0.00e+00	0	57	0	883949568	51	5355
2026-01-11 22:59:44.53	144.83	26.82	-40.7	-43.5	14.6	7.00e-07	0	57	0	886046720	52	5153
2026-01-11 22:59:45.54	145.05	26.70	-40.2	-42.7	15.4	0.00e+00	0	57	0	888143872	52	4676
2026-01-11 22:59:46.55	145.26	26.57	-39.7	-42.0	16.3	0.00e+00	0	57	0	890241024	51	4555
2026-01-11 22:59:47.56	145.47	26.45	-39.2	-41.3	16.9	0.00e+00	0	57	0	891289600	50	4443
2026-01-11 22:59:48.57	145.68	26.32	-39.1	-41.0	17.2	0.00e+00	0	57	0	893386752	50	4339
2026-01-11 22:59:49.58	145.89	26.20	-39.0	-40.9	17.3	0.00e+00	0	57	0	895483904	49	4537
2026-01-11 22:59:50.59	146.10	26.07	-39.2	-41.3	17.0	0.00e+00	0	57	0	897581056	49	4711
2026-01-11 22:59:51.60	146.31	25.95	-39.9	-42.2	16.1	0.00e+00	0	57	0	899678208	50	4956
2026-01-11 22:59:52.61	146.51	25.82	-40.2	-42.6	15.6	0.00e+00	0	57	0	901775360	51	4907
2026-01-11 22:59:53.62	146.71	25.70	-40.2	-42.7	15.6	0.00e+00	0	57	0	902823936	51	4949
2026-01-11 22:59:54.63	146.92	25.57	-40.0	-42.4	15.8	0.00e+00	0	57	0	904921088	51	4798
2026-01-11 22:59:55.64	147.12	25.45	-39.8	-42.1	16.2	0.00e+00	0	57	0	907018240	51	4619
2026-01-11 22:59:56.65	147.31	25.33	-39.4	-41.5	16.7	0.00e+00	0	57	0	909115392	50	4595
2026-01-11 22:59:57.66	147.51	25.20	-39.0	-41.0	17.2	0.00e+00	0	57	0	911212544	49	4550
2026-01-11 22:59:58.67	147.71	25.08	-38.8	-40.6	17.5	0.00e+00	0	57	0	912261120	49	4386
2026-01-11 22:59:59.68	147.90	24.96	-38.7	-40.6	17.5	0.00e+00	0	57	0	914358272	49	4380
2026-01-11 23:00:00.69	148.09	24.83	-38.9	-40.8	17.4	0.00e+00	0	57	0	916455424	49	4488
2026-01-11 23:00:01.70	148.28	24.71	-39.1	-41.1	17.1	0.00e+00	0	57	0	918552576	49	4631
2026-01-11 23:00:02.71	148.47	24.59	-39.4	-41.6	16.6	0.00e+00	0	57	0	920649728	49	4881
2026-01-11 23:00:03.72	148.66	24.47	-39.5	-41.6	16.6	0.00e+00	0	57	0	921698304	49	4911
2026-01-11 23:00:04.73	148.85	24.35	-39.3	-41.4	16.8	0.00e+00	0	57	0	923795456	49	4772
2026-01-11 23:00:05.74	149.03	24.22	-39.3	-41.4	16.8	0.00e+00	0	57	0	925892608	49	4798
2026-01-11 23:00:06.75	149.22	24.10	-39.3	-41.4	16.8	0.00e+00	0	57	0	927989760	49	4763
2026-01-11 23:00:07.76	149.40	23.98	-39.4	-41.5	16.8	0.00e+00	0	57	0	930086912	49	4817
2026-01-11 23:00:08.77	149.58	23.86	-39.5	-41.6	16.6	0.00e+00	0	57	0	931135488	49	4908
2026-01-11 23:00:09.78	149.76	23.74	-39.5	-41.7	16.5	0.00e+00	0	57	0	933232640	49	4942
2026-01-11 23:00:10.79	149.94	23.62	-39.8	-42.1	16.1	0.00e+00	0	57	0	935329792	50	4896
2026-01-11 23:00:11.80	150.11	23.50	-39.9	-42.3	16.0	0.00e+00	0	57	0	937426944	50	4995
2026-01-11 23:00:12.81	150.29	23.38	-40.0	-42.4	15.8	0.00e+00	0	57	0	939524096	50	5083
2026-01-11 23:00:13.82	150.46	23.26	-40.0	-42.4	15.9	0.00e+00	0	57	0	940572672	50	5085
2026-01-11 23:00:14.82	150.63	23.15	-40.1	-42.5	15.7	0.00e+00	0	57	0	942669824	50	5145
2026-01-11 23:00:15.83	150.81	23.03	-39.9	-42.2	16.0	0.00e+00	0	57	0	944766976	50	4972
2026-01-11 23:00:16.84	150.98	22.91	-39.8	-42.0	16.2	0.00e+00	0	57	0	946864128	50	4869
2026-01-11 23:00:17.85	151.15	22.79	-39.9	-42.2	16.0	0.00e+00	0	57	0	948961280	50	4946
2026-01-11 23:00:18.86	151.31	22.67	-39.8	-42.1	16.2	0.00e+00	0	57	0	950009856	50	4889
2026-01-11 23:00:19.87	151.48	22.56	-39.7	-42.0	16.2	0.00e+00	0	57	0	952107008	50	4837
2026-01-11 23:00:20.88	151.65	22.44	-39.8	-42.1	16.1	0.00e+00	0	57	0	954204160	50	4911
2026-01-11 23:00:21.89	151.81	22.32	-39.7	-42.0	16.2	0.00e+00	0	57	0	956301312	50	4826
2026-01-11 23:00:22.90	151.97	22.20	-39.9	-42.2	16.0	0.00e+00	0	57	0	958398464	50	4971
2026-01-11 23:00:23.91	152.14	22.09	-39.7	-41.9	16.3	0.00e+00	0	57	0	959447040	50	4787
2026-01-11 23:00:24.92	152.30	21.97	-39.7	-42.0	16.3	0.00e+00	0	57	0	961544192	50	4815
2026-01-11 23:00:25.93	152.46	21.86	-39.9	-42.2	16.1	0.00e+00	0	57	0	963641344	50	4939
2026-01-11 23:00:26.94	152.62	21.74	-39.8	-42.1	16.2	0.00e+00	0	57	0	965738496	50	4885
2026-01-11 23:00:27.95	152.77	21.63	-39.9	-42.2	16.0	0.00e+00	0	57	0	967835648	50	4966
2026-01-11 23:00:28.96	152.93	21.51	-40.3	-42.7	15.5	0.00e+00	0	57	0	969932800	51	4969
2026-01-11 23:00:29.97	153.08	21.40	-40.2	-42.7	15.5	0.00e+00	0	57	0	970981376	51	4965
2026-01-11 23:00:30.98	153.24	21.28	-40.7	-43.4	14.8	0.00e+00	0	57	0	973078528	51	5376
2026-01-11 23:00:31.99	153.39	21.17	-40.7	-43.5	14.7	0.00e+00	0	57	0	975175680	52	5105
2026-01-11 23:00:33.00	153.54	21.06	-40.9	-43.8	14.3	7.00e-07	0	57	0	977272832	52	5322
2026-01-11 23:00:34.01	153.69	20.94	-41.1	-44.1	14.0	1.50e-06	0	57	0	979369984	52	5520
2026-01-11 23:00:35.02	153.84	20.83	-41.0	-43.9	14.2	1.50e-06	0	57	0	980418560	52	5396
2026-01-11 23:00:36.03	153.99	20.72	-41.0	-44.0	14.0	1.50e-06	0	57	0	982515712	52	5438
2026-01-11 23:00:37.04	154.14	20.60	-40.9	-43.8	14.4	7.00e-07	0	57	0	984612864	52	5282
2026-01-11 23:00:38.05	154.29	20.49	-40.7	-43.5	14.6	0.00e+00	0	57	0	986710016	52	5147
2026-01-11 23:00:39.06	154.43	20.38	-40.9	-43.8	14.3	7.00e-07	0	57	0	988807168	52	5320
2026-01-11 23:00:40.06	154.57	20.27	-40.7	-43.5	14.6	0.00e+00	0	57	0	989855744	52	5116
2026-01-11 23:00:41.07	154.72	20.16	-40.8	-43.6	14.5	0.00e+00	0	57	0	991952896	52	5190
2026-01-11 23:00:42.08	154.86	20.05	-40.8	-43.7	14.5	1.50e-06	0	57	0	994050048	52	5239
2026-01-11 23:00:43.09	155.00	19.94	-40.8	-43.7	14.4	1.50e-06	0	57	0	996147200	52	5225
2026-01-11 23:00:44.10	155.14	19.83	-41.0	-44.0	14.1	2.20e-06	0	57	0	998244352	52	5434
2026-01-11 23:00:45.11	155.28	19.72	-41.1	-44.2	13.9	3.80e-06	0	57	0	999292928	52	5531
2026-01-11 23:00:46.12	155.42	19.61	-41.1	-44.2	13.9	3.00e-06	0	57	0	1001390080	52	5540
2026-01-11 23:00:47.13	155.56	19.50	-41.1	-44.2	13.9	5.30e-06	0	57	0	1003487232	52	5577
2026-01-11 23:00:48.14	155.69	19.39	-41.0	-44.0	14.1	5.30e-06	0	57	0	1005584384	52	5406
2026-01-11 23:00:49.15	155.83	19.28	-40.9	-43.8	14.2	2.20e-06	0	57	0	1007681536	52	5314
2026-01-11 23:00:50.16	155.97	19.17	-40.9	-43.8	14.3	7.00e-07	0	57	0	1008730112	52	5311
2026-01-11 23:00:51.17	156.10	19.07	-40.4	-43.0	15.0	7.00e-07	0	57	0	1010827264	52	4852
2026-01-11 23:00:52.18	156.23	18.96	-40.4	-43.1	15.0	0.00e+00	0	57	0	1012924416	52	4871
2026-01-11 23:00:53.19	156.36	18.85	-40.4	-43.0	15.1	0.00e+00	0	57	0	1015021568	52	4852
2026-01-11 23:00:54.20	156.50	18.75	-40.4	-43.0	15.1	0.00e+00	0	57	0	1017118720	52	4860
2026-01-11 23:00:55.21	156.63	18.64	-40.4	-43.1	15.0	0.00e+00	0	57	0	1018167296	52	4898
2026-01-11 23:00:56.22	156.75	18.53	-40.3	-42.9	15.2	0.00e+00	0	57	0	1020264448	52	4776
2026-01-11 23:00:57.23	156.88	18.43	-40.4	-43.1	15.0	0.00e+00	0	57	0	1022361600	52	4914
2026-01-11 23:00:58.23	157.01	18.32	-40.6	-43.4	14.8	0.00e+00	0	57	0	1024458752	52	5047
2026-01-11 23:00:59.24	157.14	18.22	-40.8	-43.7	14.3	0.00e+00	0	57	0	1026555904	52	5269
2026-01-11 23:01:00.25	157.26	18.11	-41.0	-44.0	14.0	3.00e-06	0	57	0	1027604480	52	5430
2026-01-11 23:01:01.26	157.39	18.01	-41.1	-44.2	13.8	3.00e-06	0	57	0	1029701632	52	5573
2026-01-11 23:01:02.27	157.51	17.90	-41.0	-44.1	14.0	3.80e-06	0	57	0	1031798784	52	5490
2026-01-11 23:01:03.28	157.64	17.80	-41.1	-44.3	13.8	7.00e-07	0	57	0	1033895936	52	5619
2026-01-11 23:01:04.29	157.76	17.70	-41.0	-44.0	14.0	3.80e-06	0	57	0	1035993088	52	5456
2026-01-11 23:01:05.30	157.88	17.59	-40.9	-43.9	14.2	1.50e-06	0	57	0	1038090240	52	5341
2026-01-11 23:01:06.31	158.00	17.49	-40.9	-43.8	14.2	0.00e+00	0	57	0	1039138816	52	5327
2026-01-11 23:01:07.32	158.12	17.39	-40.7	-43.6	14.5	0.00e+00	0	57	0	1041235968	52	5174
2026-01-11 23:01:08.33	158.24	17.28	-40.4	-43.1	14.9	0.00e+00	0	57	0	1043333120	52	4922
2026-01-11 23:01:09.34	158.36	17.18	-40.4	-43.1	14.9	0.00e+00	0	57	0	1045430272	52	4900
2026-01-11 23:01:10.35	158.48	17.08	-40.3	-42.9	15.1	0.00e+00	0	57	0	1047527424	52	4796
2026-01-11 23:01:11.36	158.59	16.98	-40.3	-42.9	15.1	0.00e+00	0	57	0	1048576000	52	4797
2026-01-11 23:01:12.37	158.71	16.88	-40.3	-42.9	15.1	0.00e+00	0	57	0	1050673152	52	4793
2026-01-11 23:01:13.38	158.83	16.78	-40.5	-43.2	14.8	0.00e+00	0	57	0	1052770304	52	4955
2026-01-11 23:01:14.39	158.94	16.68	-40.8	-43.7	14.3	0.00e+00	0	57	0	1054867456	52	5252
2026-01-11 23:01:15.39	159.05	16.58	-40.8	-43.8	14.2	0.00e+00	0	57	0	1056964608	52	5291
2026-01-11 23:01:16.40	159.17	16.48	-40.9	-43.9	14.1	0.00e+00	0	57	0	1058013184	52	5373
2026-01-11 23:01:17.41	159.28	16.38	-41.1	-44.2	13.8	4.50e-06	0	57	0	1060110336	52	5542
2026-01-11 23:01:18.42	159.39	16.28	-41.2	-44.4	13.6	5.30e-06	0	57	0	1062207488	53	5352
2026-01-11 23:01:19.43	159.50	16.18	-41.3	-44.6	13.4	1.29e-05	0	57	0	1064304640	53	5485
2026-01-11 23:01:20.44	159.61	16.08	-41.4	-44.7	13.2	2.67e-05	0	57	0	1066401792	53	5592
2026-01-11 23:01:21.45	159.72	15.98	-41.3	-44.7	13.3	2.36e-05	0	57	0	1067450368	53	5535
2026-01-11 23:01:22.46	159.83	15.88	-41.5	-44.9	13.1	2.74e-05	0	57	0	1069547520	53	5679
2026-01-11 23:01:23.47	159.94	15.79	-41.4	-44.8	13.2	2.67e-05	0	57	0	1071644672	53	5602
2026-01-11 23:01:24.48	160.05	15.69	-41.4	-44.8	13.2	1.67e-05	0	57	0	1073741824	53	5637
2026-01-11 23:01:25.49	160.16	15.59	-41.4	-44.7	13.3	1.83e-05	0	57	0	1075838976	53	5546
2026-01-11 23:01:26.50	160.26	15.49	-41.3	-44.6	13.3	2.28e-05	0	57	0	1076887552	53	5509
2026-01-11 23:01:27.51	160.37	15.40	-41.3	-44.7	13.3	2.21e-05	0	57	0	1078984704	53	5539
2026-01-11 23:01:28.52	160.47	15.30	-41.4	-44.8	13.1	2.82e-05	0	57	0	1081081856	53	5649
2026-01-11 23:01:29.53	160.58	15.20	-41.4	-44.8	13.1	3.43e-05	0	57	0	1083179008	53	5644
2026-01-11 23:01:30.54	160.68	15.11	-41.7	-45.3	12.7	2.59e-05	0	57	0	1085276160	53	5940
2026-01-11 23:01:31.55	160.78	15.01	-41.5	-45.1	12.9	6.25e-05	0	57	0	1086324736	53	5796
2026-01-11 23:01:32.56	160.89	14.92	-41.6	-45.2	12.6	7.70e-05	0	57	0	1088421888	53	5922
2026-01-11 23:01:33.57	160.99	14.82	-41.8	-45.6	12.3	1.31e-04	0	57	0	1090519040	54	5808
2026-01-11 23:01:34.57	161.09	14.73	-41.7	-45.4	12.5	1.44e-04	0	57	0	1092616192	54	5712
2026-01-11 23:01:35.58	161.19	14.64	-41.8	-45.5	12.4	1.15e-04	0	57	0	1094713344	54	5749
2026-01-11 23:01:36.59	161.29	14.54	-41.8	-45.5	12.3	1.28e-04	0	57	0	1095761920	54	5770
2026-01-11 23:01:37.60	161.39	14.45	-41.8	-45.5	12.3	1.28e-04	0	57	0	1097859072	54	5775
2026-01-11 23:01:38.61	161.49	14.35	-41.8	-45.7	12.2	1.86e-04	0	57	0	1099956224	54	5888
2026-01-11 23:01:39.62	161.59	14.26	-41.6	-45.3	12.6	1.50e-04	0	57	0	1102053376	54	5634
2026-01-11 23:01:40.63	161.68	14.17	-41.6	-45.2	12.7	1.13e-04	0	57	0	1104150528	54	5535
2026-01-11 23:01:41.64	161.78	14.08	-41.4	-44.8	13.1	5.56e-05	0	57	0	1105199104	54	5293
2026-01-11 23:01:42.65	161.88	13.98	-41.2	-44.5	13.4	1.83e-05	0	57	0	1107296256	54	5104
2026-01-11 23:01:43.66	161.97	13.89	-41.3	-44.6	13.2	1.52e-05	0	57	0	1109393408	54	5192
2026-01-11 23:01:44.67	162.07	13.80	-41.1	-44.4	13.4	1.37e-05	0	57	0	1111490560	54	5073
2026-01-11 23:01:45.68	162.16	13.71	-41.1	-44.3	13.6	3.80e-06	0	57	0	1113587712	54	5015
2026-01-11 23:01:46.69	162.26	13.62	-41.0	-44.2	13.7	5.30e-06	0	57	0	1114636288	54	4948
2026-01-11 23:01:47.70	162.35	13.53	-40.8	-43.8	14.0	3.00e-06	0	57	0	1116733440	53	5024
2026-01-11 23:01:48.71	162.44	13.43	-40.8	-43.7	14.1	7.00e-07	0	57	0	1118830592	53	4979
2026-01-11 23:01:49.72	162.54	13.34	-40.6	-43.6	14.3	7.00e-07	0	57	0	1120927744	53	4877
2026-01-11 23:01:50.73	162.63	13.25	-40.4	-43.2	14.6	1.50e-06	0	57	0	1123024896	52	4939
2026-01-11 23:01:51.74	162.72	13.16	-40.5	-43.3	14.4	7.00e-07	0	57	0	1124073472	52	5030
2026-01-11 23:01:52.75	162.81	13.07	-40.4	-43.3	14.5	0.00e+00	0	57	0	1126170624	52	4991
2026-01-11 23:01:53.76	162.90	12.99	-40.3	-43.0	14.7	0.00e+00	0	57	0	1128267776	52	4856
2026-01-11 23:01:54.77	162.99	12.90	-40.4	-43.2	14.6	0.00e+00	0	57	0	1130364928	52	4964
2026-01-11 23:01:55.77	163.08	12.81	-40.4	-43.1	14.7	0.00e+00	0	57	0	1132462080	52	4920
2026-01-11 23:01:56.79	163.17	12.72	-40.4	-43.2	14.6	7.00e-07	0	57	0	1134559232	52	4977
2026-01-11 23:01:57.79	163.26	12.63	-40.5	-43.4	14.4	1.50e-06	0	57	0	1135607808	52	5067
2026-01-11 23:01:58.80	163.35	12.54	-40.4	-43.3	14.5	0.00e+00	0	57	0	1137704960	52	5010
2026-01-11 23:01:59.81	163.43	12.46	-40.6	-43.5	14.3	1.50e-06	0	57	0	1139802112	52	5134
2026-01-11 23:02:00.82	163.52	12.37	-40.6	-43.6	14.2	2.20e-06	0	57	0	1141899264	52	5175
2026-01-11 23:02:01.83	163.61	12.28	-40.7	-43.7	13.9	4.50e-06	0	57	0	1143996416	52	5275
2026-01-11 23:02:02.84	163.69	12.19	-41.0	-44.3	13.4	3.80e-06	0	57	0	1145044992	52	5608
2026-01-11 23:02:03.85	163.78	12.11	-41.0	-44.3	13.3	1.98e-05	0	57	0	1147142144	52	5652
2026-01-11 23:02:04.86	163.86	12.02	-41.2	-44.6	13.1	2.67e-05	0	57	0	1149239296	52	5842
2026-01-11 23:02:05.87	163.95	11.93	-41.3	-44.8	12.9	3.73e-05	0	57	0	1151336448	53	5639
2026-01-11 23:02:06.88	164.03	11.85	-41.3	-44.8	12.8	5.11e-05	0	57	0	1153433600	53	5653
2026-01-11 23:02:07.89	164.11	11.76	-41.5	-45.3	12.3	9.30e-05	0	57	0	1154482176	53	5953
2026-01-11 23:02:08.90	164.20	11.68	-41.6	-45.3	12.3	1.59e-04	0	57	0	1156579328	53	5991
2026-01-11 23:02:09.91	164.28	11.59	-41.7	-45.7	11.9	2.11e-04	0	57	0	1158676480	53	6222
