passes_logs/2026/01/11/R2.0S_Moscow/R2.0S_Moscow__20260111_014744_FENGYUN_3G_rec.log

#Pass ID: 20260111_014744_FENGYUN 3G
#Satellite: FENGYUN 3G
#Configuration: FENGYUN 3G
#almurnet v.1.7.20251203
#Start time: 2026-01-11 01:47:47

#Version: 2.2.20231116
#Station: R2.0S_Moscow
#Location: 37.707566 lon 55.798166 lat
#TLE: 1 56232U 23055A   26009.90297110  .00027343  00000+0  43159-3 0  9992
#TLE: 2 56232  49.9936  82.2244 0004258   3.6110 356.4888 15.53248758155407

#Time	Az	El	Level	Level2	SNR	BER	BlckErr	Temp	State	Recorded	gain1	gain2
2026-01-11 01:47:47.04	258.29	2.15	-43.9	-62.2	3.8	8.45e-01	0	47	0	0	59	29525
2026-01-11 01:47:48.05	258.23	2.21	-44.0	-61.9	3.8	8.45e-01	0	47	104	0	59	28662
2026-01-11 01:47:49.06	258.16	2.28	-43.9	-61.8	3.8	8.46e-01	0	47	104	0	59	28173
2026-01-11 01:47:50.07	258.09	2.35	-43.9	-62.0	3.8	8.46e-01	0	47	104	0	59	28901
2026-01-11 01:47:51.08	258.02	2.41	-43.9	-61.8	3.8	8.46e-01	0	47	104	0	59	28281
2026-01-11 01:47:52.09	257.96	2.48	-43.9	-61.9	3.8	8.46e-01	0	47	104	0	59	28590
2026-01-11 01:47:53.11	257.89	2.55	-43.9	-61.9	3.8	8.44e-01	0	48	104	0	59	28619
2026-01-11 01:47:54.11	257.82	2.62	-43.9	-62.0	3.8	8.44e-01	0	48	104	0	59	28760
2026-01-11 01:47:55.12	257.75	2.68	-43.9	-62.0	3.8	8.46e-01	0	48	104	0	59	28917
2026-01-11 01:47:56.13	257.68	2.75	-43.9	-62.0	3.8	8.46e-01	0	48	104	0	59	28982
2026-01-11 01:47:57.15	257.61	2.82	-43.9	-62.1	3.8	8.46e-01	0	48	104	0	59	29129
2026-01-11 01:47:58.16	257.54	2.89	-43.9	-62.2	3.8	8.45e-01	0	48	104	0	59	29357
2026-01-11 01:47:59.17	257.47	2.96	-43.9	-62.2	3.8	8.46e-01	0	48	104	0	59	29498
2026-01-11 01:48:00.18	257.39	3.03	-43.9	-62.2	3.8	8.46e-01	0	48	104	0	59	29467
2026-01-11 01:48:01.19	257.32	3.09	-43.9	-62.2	3.8	8.46e-01	0	48	104	0	59	29450
2026-01-11 01:48:02.20	257.25	3.16	-43.9	-62.2	3.8	8.46e-01	0	48	104	0	59	29364
2026-01-11 01:48:03.21	257.18	3.23	-43.9	-62.2	3.8	8.46e-01	0	48	104	0	59	29507
2026-01-11 01:48:04.22	257.10	3.30	-43.9	-62.2	3.8	8.46e-01	0	48	104	0	59	29661
2026-01-11 01:48:05.23	257.03	3.37	-43.9	-62.2	3.8	8.46e-01	0	48	104	0	59	29666
2026-01-11 01:48:06.24	256.95	3.44	-43.9	-62.2	3.8	8.47e-01	0	48	104	0	59	29654
2026-01-11 01:48:07.26	256.88	3.51	-43.9	-62.2	3.8	8.47e-01	0	48	104	0	59	29573
2026-01-11 01:48:08.27	256.80	3.58	-43.9	-62.2	3.8	8.45e-01	0	49	104	0	59	29635
2026-01-11 01:48:09.28	256.72	3.65	-43.9	-62.2	3.8	8.46e-01	0	48	104	0	59	29541
2026-01-11 01:48:10.29	256.65	3.73	-43.9	-62.3	3.8	8.46e-01	0	48	104	0	59	29757
2026-01-11 01:48:11.30	256.57	3.80	-43.9	-62.2	3.8	8.46e-01	0	49	104	0	59	29616
2026-01-11 01:48:12.31	256.49	3.87	-43.9	-62.3	3.8	8.46e-01	0	49	104	0	59	29704
2026-01-11 01:48:13.32	256.41	3.94	-43.9	-62.3	3.8	8.46e-01	0	49	104	0	59	29703
2026-01-11 01:48:14.33	256.33	4.01	-43.9	-62.3	3.8	8.46e-01	0	49	104	0	59	29703
2026-01-11 01:48:15.34	256.25	4.08	-43.9	-62.2	3.8	8.46e-01	0	49	104	0	59	29674
2026-01-11 01:48:16.35	256.17	4.16	-43.9	-62.2	3.8	8.46e-01	0	49	104	0	59	29661
2026-01-11 01:48:17.36	256.09	4.23	-43.9	-62.2	3.8	8.46e-01	0	49	104	0	59	29505
2026-01-11 01:48:18.37	256.01	4.30	-43.9	-62.2	3.8	8.46e-01	0	49	104	0	59	29415
2026-01-11 01:48:19.39	255.93	4.38	-43.9	-62.2	3.8	8.45e-01	0	49	104	0	59	29355
2026-01-11 01:48:20.40	255.84	4.45	-43.9	-62.1	3.8	8.45e-01	0	49	104	0	59	29251
2026-01-11 01:48:21.41	255.76	4.52	-43.9	-62.1	3.8	8.48e-01	0	49	104	0	59	29273
2026-01-11 01:48:22.42	255.68	4.60	-43.9	-62.1	3.8	8.47e-01	0	49	104	0	59	29205
2026-01-11 01:48:23.43	255.59	4.67	-43.9	-62.2	3.8	8.47e-01	0	49	104	0	59	29358
2026-01-11 01:48:24.44	255.51	4.75	-43.9	-62.2	3.8	8.46e-01	0	49	104	0	59	29488
2026-01-11 01:48:25.45	255.42	4.82	-43.9	-62.2	3.8	8.47e-01	0	49	104	0	59	29573
2026-01-11 01:48:26.46	255.33	4.90	-43.9	-62.2	3.8	8.47e-01	0	50	104	0	59	29649
2026-01-11 01:48:27.47	255.25	4.97	-43.9	-62.2	3.8	8.47e-01	0	49	104	0	59	29511
2026-01-11 01:48:28.48	255.16	5.05	-43.9	-62.0	3.8	8.47e-01	0	50	104	0	59	28866
2026-01-11 01:48:29.50	255.07	5.12	-43.9	-61.7	3.8	8.47e-01	0	50	104	0	59	27754
2026-01-11 01:48:30.51	254.98	5.20	-43.9	-61.3	3.8	8.47e-01	0	49	104	0	59	26558
2026-01-11 01:48:31.52	254.89	5.28	-43.9	-60.8	3.8	8.46e-01	0	50	104	0	59	25114
2026-01-11 01:48:32.53	254.80	5.35	-43.9	-60.4	3.8	8.45e-01	0	50	104	0	59	23927
2026-01-11 01:48:33.54	254.71	5.43	-43.9	-60.1	3.8	8.45e-01	0	50	104	0	59	23272
2026-01-11 01:48:34.55	254.62	5.51	-43.9	-59.8	3.8	8.45e-01	0	50	104	0	59	22482
2026-01-11 01:48:35.56	254.52	5.59	-43.9	-59.6	3.9	8.44e-01	0	50	104	0	59	21762
2026-01-11 01:48:36.57	254.43	5.66	-43.9	-59.5	4.0	8.44e-01	0	50	104	0	59	21514
2026-01-11 01:48:37.58	254.34	5.74	-43.9	-59.6	3.9	8.44e-01	0	50	104	0	59	21836
2026-01-11 01:48:38.59	254.24	5.82	-43.9	-59.6	3.9	8.44e-01	0	50	104	0	59	21816
2026-01-11 01:48:39.60	254.15	5.90	-43.9	-59.2	4.1	8.43e-01	0	50	0	0	59	20951
2026-01-11 01:48:40.62	254.05	5.98	-43.8	-59.2	4.1	8.43e-01	0	50	0	0	59	20806
2026-01-11 01:48:41.63	253.95	6.06	-43.9	-59.1	4.1	8.42e-01	0	50	0	0	59	20656
2026-01-11 01:48:42.64	253.85	6.14	-43.9	-59.1	4.1	8.42e-01	0	50	0	0	59	20706
2026-01-11 01:48:43.65	253.75	6.22	-43.9	-59.7	3.8	8.42e-01	0	50	104	0	59	22155
2026-01-11 01:48:44.66	253.66	6.30	-43.9	-60.4	3.8	8.42e-01	0	50	104	0	59	24099
2026-01-11 01:48:45.67	253.56	6.38	-43.9	-61.3	3.8	8.46e-01	0	50	104	0	59	26651
2026-01-11 01:48:46.68	253.45	6.46	-43.9	-61.6	3.8	8.46e-01	0	50	104	0	59	27654
2026-01-11 01:48:47.69	253.35	6.54	-43.9	-60.4	3.8	8.46e-01	0	50	104	0	59	23978
2026-01-11 01:48:48.70	253.25	6.62	-43.8	-58.0	4.4	8.44e-01	0	50	0	0	59	18253
2026-01-11 01:48:49.71	253.15	6.71	-43.7	-55.6	5.6	8.44e-01	0	51	0	0	59	13746
2026-01-11 01:48:50.72	253.04	6.79	-43.5	-53.8	7.1	7.78e-01	0	51	0	524288	59	11271
2026-01-11 01:48:51.74	252.94	6.87	-43.3	-52.3	8.6	2.03e-01	0	50	0	2097152	58	10034
2026-01-11 01:48:52.75	252.83	6.96	-43.1	-51.2	9.8	2.97e-02	0	50	0	3145728	58	8847
2026-01-11 01:48:53.76	252.72	7.04	-42.9	-50.6	10.4	2.97e-02	0	51	0	4194304	57	8694
2026-01-11 01:48:54.77	252.62	7.12	-43.0	-50.7	10.4	5.92e-03	0	51	0	5242880	57	8772
2026-01-11 01:48:55.78	252.51	7.21	-43.1	-51.2	9.9	4.99e-03	0	51	0	6291456	57	9300
2026-01-11 01:48:56.79	252.40	7.29	-43.3	-52.3	8.7	4.99e-03	0	51	0	7340032	57	10631
2026-01-11 01:48:57.80	252.29	7.38	-43.5	-53.9	7.1	2.02e-02	0	51	0	8912896	57	12717
2026-01-11 01:48:58.81	252.18	7.46	-43.7	-55.7	5.7	1.37e-01	0	51	0	9961472	57	15640
2026-01-11 01:48:59.82	252.06	7.55	-43.7	-56.2	5.3	1.37e-01	0	51	0	9961472	57	16522
2026-01-11 01:49:00.83	251.95	7.63	-43.5	-53.9	7.0	6.59e-01	0	51	0	11010048	57	12668
2026-01-11 01:49:01.84	251.84	7.72	-42.9	-50.6	10.3	2.55e-01	0	51	0	12058624	57	8720
2026-01-11 01:49:02.85	251.72	7.80	-42.3	-48.1	12.9	4.81e-03	0	51	0	13107200	56	6950
2026-01-11 01:49:03.86	251.60	7.89	-41.3	-45.9	15.1	4.81e-03	0	51	0	14155776	54	6056
2026-01-11 01:49:04.87	251.49	7.98	-40.6	-44.5	16.5	4.50e-06	0	51	0	15204352	53	5454
2026-01-11 01:49:05.88	251.37	8.07	-40.2	-43.7	17.3	0.00e+00	0	51	0	16777216	52	5274
2026-01-11 01:49:06.89	251.25	8.15	-40.5	-44.2	16.9	0.00e+00	0	51	0	17825792	52	5542
2026-01-11 01:49:07.90	251.13	8.24	-43.5	-53.1	8.5	0.00e+00	0	51	0	18874368	57	11655
2026-01-11 01:49:08.91	251.01	8.33	-40.6	-44.4	17.1	1.63e-02	0	51	0	19922944	51	6024
2026-01-11 01:49:09.92	250.89	8.42	-39.4	-42.3	19.1	1.63e-02	0	51	0	20971520	49	5292
2026-01-11 01:49:10.93	250.77	8.51	-43.8	-60.9	4.2	0.00e+00	0	52	104	22020096	58	27042
2026-01-11 01:49:11.94	250.64	8.60	-39.2	-42.0	18.4	4.44e-01	0	51	0	22020096	50	4865
2026-01-11 01:49:12.95	250.52	8.69	-38.9	-41.5	19.5	4.44e-01	0	51	0	23068672	49	4869
2026-01-11 01:49:13.96	250.39	8.78	-38.9	-41.6	19.6	2.35e-02	0	51	0	24117248	49	4923
2026-01-11 01:49:14.97	250.26	8.87	-38.9	-41.5	19.7	0.00e+00	0	51	0	25165824	49	4869
2026-01-11 01:49:15.98	250.13	8.96	-38.8	-41.4	19.8	0.00e+00	0	51	0	26214400	49	4778
2026-01-11 01:49:16.99	250.00	9.05	-38.9	-41.5	19.7	0.00e+00	0	51	0	27787264	49	4859
2026-01-11 01:49:18.00	249.87	9.15	-38.8	-41.4	19.8	0.00e+00	0	51	0	28835840	49	4808
2026-01-11 01:49:19.01	249.74	9.24	-38.8	-41.3	20.0	0.00e+00	0	51	0	29884416	49	4739
2026-01-11 01:49:20.02	249.61	9.33	-38.7	-41.2	20.1	0.00e+00	0	52	0	30932992	49	4694
2026-01-11 01:49:21.02	249.48	9.42	-38.7	-41.2	20.2	0.00e+00	0	52	0	31981568	49	4655
2026-01-11 01:49:22.03	249.34	9.52	-38.6	-41.1	20.2	0.00e+00	0	51	0	33030144	49	4624
2026-01-11 01:49:23.04	249.20	9.61	-38.6	-41.0	20.3	0.00e+00	0	52	0	34603008	49	4583
2026-01-11 01:49:24.05	249.07	9.71	-38.5	-40.9	20.5	0.00e+00	0	52	0	35651584	48	4783
2026-01-11 01:49:25.06	248.93	9.80	-38.4	-40.8	20.5	0.00e+00	0	52	0	36700160	48	4728
2026-01-11 01:49:26.07	248.79	9.90	-38.3	-40.7	20.6	0.00e+00	0	51	0	37748736	48	4689
2026-01-11 01:49:27.08	248.65	9.99	-38.5	-40.9	20.5	0.00e+00	0	52	0	38797312	48	4777
2026-01-11 01:49:28.09	248.50	10.09	-38.6	-41.1	20.3	0.00e+00	0	52	0	39845888	48	4890
2026-01-11 01:49:29.10	248.36	10.19	-38.6	-41.1	20.3	0.00e+00	0	52	0	40894464	48	4877
2026-01-11 01:49:30.11	248.21	10.28	-38.6	-41.0	20.4	0.00e+00	0	52	0	42467328	48	4859
2026-01-11 01:49:31.12	248.07	10.38	-38.6	-41.1	20.3	0.00e+00	0	52	0	43515904	48	4897
2026-01-11 01:49:32.13	247.92	10.48	-38.6	-41.0	20.4	0.00e+00	0	52	0	44564480	48	4853
2026-01-11 01:49:33.14	247.77	10.58	-38.6	-41.1	20.3	0.00e+00	0	52	0	45613056	48	4874
2026-01-11 01:49:34.15	247.62	10.68	-38.4	-40.7	20.7	0.00e+00	0	52	0	46661632	48	4702
2026-01-11 01:49:35.16	247.47	10.78	-38.4	-40.8	20.6	0.00e+00	0	52	0	47710208	48	4736
2026-01-11 01:49:36.17	247.31	10.88	-38.4	-40.7	20.7	0.00e+00	0	52	0	49283072	48	4687
2026-01-11 01:49:37.18	247.16	10.98	-38.2	-40.5	20.9	0.00e+00	0	52	0	50331648	48	4558
2026-01-11 01:49:38.19	247.00	11.08	-38.0	-40.3	21.1	0.00e+00	0	52	0	51380224	48	4456
2026-01-11 01:49:39.19	246.84	11.18	-38.0	-40.2	21.1	0.00e+00	0	52	0	52428800	47	4688
2026-01-11 01:49:40.20	246.69	11.28	-38.0	-40.2	21.2	0.00e+00	0	52	0	53477376	47	4700
2026-01-11 01:49:41.21	246.52	11.38	-38.0	-40.3	21.1	0.00e+00	0	52	0	54525952	47	4741
2026-01-11 01:49:42.22	246.36	11.48	-38.1	-40.4	21.0	0.00e+00	0	52	0	56098816	47	4769
2026-01-11 01:49:43.23	246.20	11.59	-38.0	-40.2	21.2	0.00e+00	0	52	0	57147392	47	4702
2026-01-11 01:49:44.24	246.03	11.69	-38.1	-40.4	21.0	0.00e+00	0	52	0	58195968	47	4786
2026-01-11 01:49:45.25	245.87	11.79	-38.1	-40.4	21.0	0.00e+00	0	52	0	59244544	47	4811
2026-01-11 01:49:46.26	245.70	11.90	-38.2	-40.5	21.0	0.00e+00	0	52	0	60293120	47	4850
2026-01-11 01:49:47.27	245.53	12.00	-38.2	-40.5	21.0	0.00e+00	0	52	0	61341696	47	4842
2026-01-11 01:49:48.28	245.36	12.11	-38.0	-40.2	21.2	0.00e+00	0	52	0	62914560	47	4699
2026-01-11 01:49:49.29	245.18	12.21	-37.9	-40.1	21.4	0.00e+00	0	52	0	63963136	47	4610
2026-01-11 01:49:50.30	245.01	12.32	-37.9	-40.1	21.4	0.00e+00	0	52	0	65011712	47	4627
2026-01-11 01:49:51.31	244.83	12.43	-37.8	-40.0	21.5	0.00e+00	0	53	0	66060288	47	4547
2026-01-11 01:49:52.32	244.65	12.53	-37.7	-39.9	21.6	0.00e+00	0	52	0	67108864	47	4497
2026-01-11 01:49:53.33	244.47	12.64	-37.7	-39.9	21.6	0.00e+00	0	52	0	68157440	47	4499
2026-01-11 01:49:54.34	244.29	12.75	-37.8	-40.0	21.5	0.00e+00	0	52	0	69730304	47	4579
2026-01-11 01:49:55.35	244.11	12.86	-38.0	-40.2	21.3	0.00e+00	0	52	0	70778880	47	4683
2026-01-11 01:49:56.36	243.92	12.97	-38.0	-40.2	21.3	0.00e+00	0	52	0	71827456	47	4676
2026-01-11 01:49:57.37	243.73	13.08	-38.0	-40.3	21.3	0.00e+00	0	52	0	72876032	47	4713
2026-01-11 01:49:58.38	243.54	13.19	-37.9	-40.1	21.4	0.00e+00	0	53	0	73924608	47	4639
2026-01-11 01:49:59.39	243.35	13.30	-37.7	-39.9	21.7	0.00e+00	0	53	0	75497472	47	4508
2026-01-11 01:50:00.40	243.16	13.41	-37.6	-39.6	21.9	0.00e+00	0	53	0	76546048	47	4388
2026-01-11 01:50:01.41	242.97	13.52	-37.4	-39.5	22.1	0.00e+00	0	53	0	77594624	46	4552
2026-01-11 01:50:02.42	242.77	13.63	-37.4	-39.4	22.2	0.00e+00	0	53	0	78643200	46	4504
2026-01-11 01:50:03.43	242.57	13.75	-37.4	-39.4	22.1	0.00e+00	0	53	0	79691776	46	4530
2026-01-11 01:50:04.44	242.37	13.86	-37.2	-39.2	22.3	0.00e+00	0	52	0	80740352	46	4437
2026-01-11 01:50:05.45	242.17	13.97	-37.2	-39.2	22.4	0.00e+00	0	53	0	81788928	46	4411
2026-01-11 01:50:06.46	241.96	14.09	-37.2	-39.2	22.4	0.00e+00	0	53	0	83361792	46	4433
2026-01-11 01:50:07.47	241.76	14.20	-37.3	-39.3	22.3	0.00e+00	0	52	0	84410368	46	4444
2026-01-11 01:50:08.48	241.55	14.32	-37.2	-39.2	22.4	0.00e+00	0	53	0	85458944	46	4418
2026-01-11 01:50:09.49	241.34	14.43	-37.1	-39.0	22.6	0.00e+00	0	53	0	86507520	46	4339
2026-01-11 01:50:10.50	241.12	14.55	-37.1	-39.0	22.6	0.00e+00	0	53	0	87556096	46	4330
2026-01-11 01:50:11.51	240.91	14.66	-37.3	-39.3	22.3	0.00e+00	0	53	0	88604672	46	4491
2026-01-11 01:50:12.52	240.69	14.78	-37.3	-39.4	22.3	0.00e+00	0	53	0	90177536	46	4495
2026-01-11 01:50:13.53	240.47	14.90	-37.1	-39.1	22.6	0.00e+00	0	53	0	91226112	46	4362
2026-01-11 01:50:14.54	240.25	15.02	-37.0	-39.0	22.6	0.00e+00	0	53	0	92274688	46	4314
2026-01-11 01:50:15.55	240.03	15.13	-36.9	-38.8	22.8	0.00e+00	0	53	0	93323264	45	4476
2026-01-11 01:50:16.56	239.80	15.25	-37.0	-38.9	22.7	0.00e+00	0	53	0	94371840	45	4530
2026-01-11 01:50:17.57	239.57	15.37	-36.8	-38.7	22.9	0.00e+00	0	53	0	95420416	45	4439
2026-01-11 01:50:18.58	239.34	15.49	-36.8	-38.6	23.0	0.00e+00	0	53	0	96993280	45	4377
2026-01-11 01:50:19.59	239.11	15.61	-36.5	-38.4	23.2	0.00e+00	0	53	0	98041856	45	4255
2026-01-11 01:50:20.60	238.87	15.73	-36.6	-38.5	23.2	0.00e+00	0	53	0	99090432	45	4310
2026-01-11 01:50:21.61	238.63	15.85	-36.6	-38.5	23.2	0.00e+00	0	53	0	100139008	45	4309
2026-01-11 01:50:22.62	238.39	15.97	-36.7	-38.5	23.2	0.00e+00	0	53	0	101187584	45	4323
2026-01-11 01:50:23.63	238.15	16.10	-36.7	-38.6	23.1	0.00e+00	0	53	0	102236160	45	4349
2026-01-11 01:50:24.63	237.91	16.22	-36.7	-38.6	23.1	0.00e+00	0	53	0	103809024	45	4364
2026-01-11 01:50:25.64	237.66	16.34	-36.7	-38.5	23.2	0.00e+00	0	53	0	104857600	45	4319
2026-01-11 01:50:26.65	237.41	16.46	-36.7	-38.6	23.1	0.00e+00	0	53	0	105906176	45	4348
2026-01-11 01:50:27.66	237.15	16.59	-36.7	-38.5	23.2	0.00e+00	0	53	0	106954752	45	4316
2026-01-11 01:50:28.67	236.90	16.71	-36.5	-38.4	23.3	0.00e+00	0	53	0	108003328	45	4243
2026-01-11 01:50:29.68	236.64	16.83	-36.6	-38.4	23.3	0.00e+00	0	53	0	109051904	45	4270
2026-01-11 01:50:30.69	236.38	16.96	-36.4	-38.2	23.5	0.00e+00	0	53	0	110624768	44	4403
2026-01-11 01:50:31.70	236.11	17.09	-36.2	-38.0	23.7	0.00e+00	0	53	0	111673344	44	4305
2026-01-11 01:50:32.71	235.85	17.21	-36.2	-37.9	23.8	0.00e+00	0	53	0	112721920	44	4276
2026-01-11 01:50:33.72	235.58	17.34	-36.3	-38.1	23.6	0.00e+00	0	53	0	113770496	44	4359
2026-01-11 01:50:34.73	235.31	17.46	-36.3	-38.0	23.7	0.00e+00	0	53	0	114819072	44	4337
2026-01-11 01:50:35.74	235.03	17.59	-36.3	-38.1	23.6	0.00e+00	0	53	0	116391936	44	4367
2026-01-11 01:50:36.75	234.75	17.72	-36.4	-38.2	23.5	0.00e+00	0	53	0	117440512	44	4436
2026-01-11 01:50:37.75	234.47	17.84	-36.4	-38.2	23.5	0.00e+00	0	53	0	118489088	44	4408
2026-01-11 01:50:38.76	234.19	17.97	-36.3	-38.0	23.7	0.00e+00	0	53	0	119537664	44	4324
2026-01-11 01:50:39.77	233.90	18.10	-36.1	-37.8	23.9	0.00e+00	0	53	0	120586240	44	4225
2026-01-11 01:50:40.79	233.61	18.23	-36.1	-37.9	23.8	0.00e+00	0	53	0	121634816	44	4251
2026-01-11 01:50:41.79	233.32	18.36	-36.0	-37.7	24.0	0.00e+00	0	53	0	122683392	44	4165
2026-01-11 01:50:42.80	233.03	18.48	-35.7	-37.4	24.1	0.00e+00	0	53	0	124256256	43	4288
2026-01-11 01:50:43.81	232.73	18.61	-35.7	-37.4	24.2	0.00e+00	0	53	0	125304832	43	4250
2026-01-11 01:50:44.82	232.42	18.74	-35.9	-37.6	24.0	0.00e+00	0	53	0	126353408	43	4346
2026-01-11 01:50:45.83	232.12	18.87	-36.0	-37.8	23.8	0.00e+00	0	53	0	127401984	43	4451
2026-01-11 01:50:46.84	231.81	19.00	-36.2	-38.0	23.6	0.00e+00	0	53	0	128450560	43	4562
2026-01-11 01:50:47.86	231.49	19.13	-36.2	-38.0	23.6	0.00e+00	0	53	0	129499136	43	4585
2026-01-11 01:50:48.87	231.18	19.26	-36.1	-37.9	23.7	0.00e+00	0	53	0	131072000	43	4510
2026-01-11 01:50:49.87	230.86	19.39	-35.9	-37.6	23.9	0.00e+00	0	53	0	132120576	43	4383
2026-01-11 01:50:50.88	230.54	19.52	-35.7	-37.4	24.1	0.00e+00	0	53	0	133169152	43	4266
2026-01-11 01:50:51.89	230.22	19.66	-35.4	-37.1	24.4	0.00e+00	0	53	0	134217728	42	4362
2026-01-11 01:50:52.90	229.89	19.79	-35.4	-37.0	24.6	0.00e+00	0	53	0	135266304	42	4318
2026-01-11 01:50:53.91	229.56	19.92	-35.4	-37.0	24.5	0.00e+00	0	53	0	136314880	42	4324
2026-01-11 01:50:54.92	229.22	20.05	-35.4	-37.0	24.5	0.00e+00	0	53	0	137887744	42	4333
2026-01-11 01:50:55.93	228.88	20.18	-35.4	-37.1	24.5	0.00e+00	0	53	0	138936320	42	4348
2026-01-11 01:50:56.94	228.54	20.31	-35.4	-37.0	24.5	0.00e+00	0	53	0	139984896	42	4328
2026-01-11 01:50:57.95	228.19	20.44	-35.6	-37.3	24.3	0.00e+00	0	53	0	141033472	42	4466
2026-01-11 01:50:58.96	227.84	20.57	-35.8	-37.5	24.2	0.00e+00	0	53	0	142082048	42	4547
2026-01-11 01:50:59.97	227.49	20.70	-35.8	-37.5	24.2	0.00e+00	0	54	0	143130624	42	4548
2026-01-11 01:51:00.98	227.13	20.84	-35.8	-37.5	24.2	0.00e+00	0	53	0	144703488	42	4567
2026-01-11 01:51:01.99	226.77	20.97	-35.6	-37.2	24.4	0.00e+00	0	53	0	145752064	42	4430
2026-01-11 01:51:03.00	226.41	21.10	-35.3	-37.0	24.6	0.00e+00	0	53	0	146800640	42	4292
2026-01-11 01:51:04.01	226.04	21.23	-35.1	-36.7	24.9	0.00e+00	0	54	0	147849216	42	4174
2026-01-11 01:51:05.01	225.67	21.36	-35.0	-36.6	25.0	0.00e+00	0	53	0	148897792	42	4106
2026-01-11 01:51:06.02	225.30	21.49	-34.9	-36.5	25.2	0.00e+00	0	54	0	149946368	41	4292
2026-01-11 01:51:07.04	224.92	21.62	-35.1	-36.7	24.9	0.00e+00	0	53	0	151519232	41	4435
2026-01-11 01:51:08.04	224.54	21.75	-35.1	-36.7	24.9	0.00e+00	0	53	0	152567808	41	4407
2026-01-11 01:51:09.05	224.15	21.88	-35.1	-36.7	24.9	0.00e+00	0	54	0	153616384	41	4438
2026-01-11 01:51:10.06	223.76	22.01	-35.4	-37.0	24.6	0.00e+00	0	54	0	154664960	41	4576
2026-01-11 01:51:11.07	223.36	22.14	-35.2	-36.8	24.8	0.00e+00	0	54	0	155713536	41	4462
2026-01-11 01:51:12.08	222.97	22.27	-35.2	-36.8	24.8	0.00e+00	0	53	0	156762112	41	4480
2026-01-11 01:51:13.09	222.56	22.39	-35.1	-36.7	25.0	0.00e+00	0	54	0	158334976	41	4403
2026-01-11 01:51:14.10	222.16	22.52	-35.1	-36.7	24.9	0.00e+00	0	53	0	159383552	41	4403
2026-01-11 01:51:15.11	221.75	22.65	-35.0	-36.6	25.0	0.00e+00	0	54	0	160432128	41	4342
2026-01-11 01:51:16.12	221.33	22.78	-35.0	-36.6	25.1	0.00e+00	0	54	0	161480704	41	4357
2026-01-11 01:51:17.13	220.91	22.90	-34.9	-36.4	25.2	0.00e+00	0	54	0	162529280	41	4287
2026-01-11 01:51:18.14	220.49	23.03	-34.8	-36.3	25.3	0.00e+00	0	54	0	163577856	41	4236
2026-01-11 01:51:19.15	220.07	23.15	-35.0	-36.5	25.1	0.00e+00	0	53	0	165150720	41	4333
2026-01-11 01:51:20.16	219.63	23.28	-34.9	-36.4	25.2	0.00e+00	0	54	0	166199296	41	4291
2026-01-11 01:51:21.17	219.20	23.40	-35.0	-36.6	25.0	0.00e+00	0	54	0	167247872	41	4380
2026-01-11 01:51:22.18	218.76	23.52	-35.1	-36.7	25.0	0.00e+00	0	54	0	168296448	41	4416
2026-01-11 01:51:23.18	218.32	23.64	-35.1	-36.7	25.0	0.00e+00	0	54	0	169345024	41	4429
2026-01-11 01:51:24.19	217.88	23.76	-35.2	-36.8	24.9	0.00e+00	0	54	0	170393600	41	4460
2026-01-11 01:51:25.20	217.43	23.88	-35.1	-36.6	25.0	0.00e+00	0	54	0	171966464	41	4388
2026-01-11 01:51:26.21	216.97	24.00	-35.1	-36.6	25.0	0.00e+00	0	54	0	173015040	41	4384
2026-01-11 01:51:27.22	216.51	24.12	-34.8	-36.4	25.3	0.00e+00	0	54	0	174063616	41	4252
2026-01-11 01:51:28.23	216.05	24.24	-34.8	-36.4	25.3	0.00e+00	0	53	0	175112192	41	4244
2026-01-11 01:51:29.24	215.59	24.36	-34.8	-36.3	25.3	0.00e+00	0	54	0	176160768	41	4218
2026-01-11 01:51:30.25	215.12	24.47	-34.7	-36.3	25.3	0.00e+00	0	54	0	177209344	41	4202
2026-01-11 01:51:31.26	214.64	24.58	-34.7	-36.3	25.4	0.00e+00	0	54	0	178782208	41	4202
2026-01-11 01:51:32.27	214.16	24.70	-34.5	-36.0	25.7	0.00e+00	0	54	0	179830784	40	4300
2026-01-11 01:51:33.28	213.68	24.81	-34.5	-36.0	25.6	0.00e+00	0	54	0	180879360	40	4313
2026-01-11 01:51:34.29	213.19	24.92	-34.5	-36.0	25.6	0.00e+00	0	54	0	181927936	40	4317
2026-01-11 01:51:35.30	212.70	25.03	-34.5	-36.0	25.7	0.00e+00	0	54	0	182976512	40	4309
2026-01-11 01:51:36.31	212.21	25.13	-34.6	-36.1	25.6	0.00e+00	0	54	0	184025088	40	4363
2026-01-11 01:51:37.32	211.71	25.24	-34.6	-36.1	25.6	0.00e+00	0	54	0	185597952	40	4376
2026-01-11 01:51:38.32	211.21	25.34	-34.5	-35.9	25.7	0.00e+00	0	54	0	186646528	40	4291
2026-01-11 01:51:39.33	210.71	25.44	-34.3	-35.8	25.9	0.00e+00	0	54	0	187695104	40	4226
2026-01-11 01:51:40.34	210.20	25.54	-34.3	-35.8	25.9	0.00e+00	0	54	0	188743680	40	4209
2026-01-11 01:51:41.35	209.69	25.64	-34.3	-35.8	25.9	0.00e+00	0	54	0	189792256	40	4196
2026-01-11 01:51:42.36	209.17	25.74	-34.3	-35.8	25.9	0.00e+00	0	54	0	190840832	40	4210
2026-01-11 01:51:43.37	208.65	25.84	-34.3	-35.8	25.9	0.00e+00	0	54	0	192413696	40	4195
2026-01-11 01:51:44.38	208.13	25.93	-34.4	-35.9	25.8	0.00e+00	0	54	0	193462272	40	4264
2026-01-11 01:51:45.39	207.60	26.02	-34.3	-35.8	25.9	0.00e+00	0	54	0	194510848	40	4208
2026-01-11 01:51:46.40	207.07	26.11	-34.3	-35.8	25.9	0.00e+00	0	54	0	195559424	40	4204
2026-01-11 01:51:47.41	206.53	26.20	-34.1	-35.6	26.0	0.00e+00	0	54	0	196608000	40	4132
2026-01-11 01:51:48.42	206.00	26.28	-34.1	-35.5	26.2	0.00e+00	0	54	0	197656576	40	4080
2026-01-11 01:51:49.43	205.45	26.37	-34.0	-35.5	26.2	0.00e+00	0	54	0	199229440	40	4068
2026-01-11 01:51:50.44	204.91	26.45	-34.3	-35.7	26.0	0.00e+00	0	54	0	200278016	40	4185
2026-01-11 01:51:51.45	204.36	26.53	-34.3	-35.8	25.9	0.00e+00	0	54	0	201326592	40	4232
2026-01-11 01:51:52.46	203.81	26.60	-34.3	-35.8	25.8	0.00e+00	0	54	0	202375168	40	4220
2026-01-11 01:51:53.47	203.26	26.68	-34.0	-35.5	26.2	0.00e+00	0	54	0	203423744	40	4059
2026-01-11 01:51:54.48	202.70	26.75	-34.0	-35.4	26.2	0.00e+00	0	54	0	204472320	39	4273
2026-01-11 01:51:55.48	202.15	26.82	-33.9	-35.3	26.3	0.00e+00	0	54	0	206045184	39	4221
2026-01-11 01:51:56.49	201.59	26.89	-33.9	-35.4	26.3	0.00e+00	0	54	0	207093760	39	4260
2026-01-11 01:51:57.50	201.02	26.95	-33.9	-35.3	26.3	0.00e+00	0	54	0	208142336	39	4224
2026-01-11 01:51:58.51	200.46	27.01	-33.8	-35.3	26.5	0.00e+00	0	54	0	209190912	39	4195
2026-01-11 01:51:59.52	199.89	27.07	-33.5	-34.9	26.7	0.00e+00	0	54	0	210239488	39	4051
2026-01-11 01:52:00.53	199.31	27.13	-33.6	-35.0	26.6	0.00e+00	0	54	0	211288064	39	4093
2026-01-11 01:52:01.54	198.74	27.18	-33.8	-35.2	26.5	0.00e+00	0	54	0	212860928	39	4156
2026-01-11 01:52:02.55	198.16	27.24	-33.9	-35.3	26.4	0.00e+00	0	54	0	213909504	39	4206
2026-01-11 01:52:03.56	197.59	27.28	-34.0	-35.5	26.3	0.00e+00	0	54	0	214958080	39	4296
2026-01-11 01:52:04.57	197.01	27.33	-34.1	-35.5	26.2	0.00e+00	0	54	0	216006656	39	4323
2026-01-11 01:52:05.58	196.42	27.37	-33.9	-35.3	26.4	0.00e+00	0	54	0	217055232	39	4220
2026-01-11 01:52:06.59	195.84	27.41	-33.9	-35.3	26.4	0.00e+00	0	54	0	218103808	39	4229
2026-01-11 01:52:07.60	195.25	27.45	-34.0	-35.4	26.3	0.00e+00	0	54	0	219676672	39	4261
2026-01-11 01:52:08.61	194.67	27.49	-34.1	-35.6	26.2	0.00e+00	0	54	0	220725248	39	4348
2026-01-11 01:52:09.62	194.08	27.52	-34.1	-35.5	26.2	0.00e+00	0	54	0	221773824	39	4325
2026-01-11 01:52:10.63	193.49	27.55	-34.2	-35.6	26.1	0.00e+00	0	54	0	222822400	39	4379
2026-01-11 01:52:11.64	192.90	27.57	-34.1	-35.6	26.1	0.00e+00	0	54	0	223870976	39	4360
2026-01-11 01:52:12.65	192.31	27.59	-34.0	-35.4	26.3	0.00e+00	0	54	0	224919552	39	4266
2026-01-11 01:52:13.66	191.71	27.61	-34.1	-35.5	26.1	0.00e+00	0	54	0	226492416	39	4327
2026-01-11 01:52:14.67	191.12	27.63	-34.1	-35.6	26.1	0.00e+00	0	54	0	227540992	39	4358
2026-01-11 01:52:15.68	190.52	27.65	-34.3	-35.7	26.0	0.00e+00	0	54	0	228589568	39	4438
2026-01-11 01:52:16.69	189.93	27.66	-34.4	-35.9	25.7	0.00e+00	0	54	0	229638144	39	4522
2026-01-11 01:52:17.70	189.34	27.66	-34.4	-35.9	25.8	0.00e+00	0	54	0	230686720	39	4533
2026-01-11 01:52:18.71	188.74	27.67	-34.4	-35.9	25.8	0.00e+00	0	54	0	231735296	39	4506
2026-01-11 01:52:19.72	188.14	27.67	-34.7	-36.2	25.6	0.00e+00	0	54	0	233308160	39	4678
2026-01-11 01:52:20.73	187.55	27.67	-34.5	-36.0	25.6	0.00e+00	0	54	0	234356736	40	4327
2026-01-11 01:52:21.74	186.95	27.66	-34.4	-35.9	25.7	0.00e+00	0	54	0	235405312	40	4288
2026-01-11 01:52:22.75	186.36	27.66	-34.5	-36.1	25.6	0.00e+00	0	54	0	236453888	40	4352
2026-01-11 01:52:23.76	185.76	27.65	-34.3	-35.8	25.9	0.00e+00	0	54	0	237502464	40	4198
2026-01-11 01:52:24.77	185.17	27.63	-34.5	-36.1	25.6	0.00e+00	0	54	0	238551040	40	4341
2026-01-11 01:52:25.78	184.58	27.61	-34.4	-35.9	25.7	0.00e+00	0	54	0	240123904	40	4258
2026-01-11 01:52:26.79	183.98	27.59	-34.0	-35.4	26.1	0.00e+00	0	54	0	241172480	40	4044
2026-01-11 01:52:27.80	183.39	27.57	-34.1	-35.6	26.0	0.00e+00	0	54	0	242221056	39	4363
2026-01-11 01:52:28.81	182.80	27.55	-34.0	-35.5	26.2	0.00e+00	0	54	0	243269632	39	4315
2026-01-11 01:52:29.82	182.21	27.52	-34.1	-35.6	26.1	0.00e+00	0	54	0	244318208	39	4341
2026-01-11 01:52:30.83	181.62	27.49	-34.1	-35.6	26.1	0.00e+00	0	54	0	245366784	39	4354
2026-01-11 01:52:31.84	181.04	27.45	-34.2	-35.7	26.1	0.00e+00	0	54	0	246939648	39	4395
2026-01-11 01:52:32.84	180.46	27.41	-34.5	-36.0	25.7	0.00e+00	0	54	0	247988224	39	4596
2026-01-11 01:52:33.85	179.87	27.37	-34.5	-36.0	25.7	0.00e+00	0	54	0	249036800	39	4566
2026-01-11 01:52:34.86	179.29	27.33	-34.4	-35.9	25.8	0.00e+00	0	54	0	250085376	39	4540
2026-01-11 01:52:35.87	178.71	27.28	-33.6	-35.0	26.6	0.00e+00	0	54	0	251133952	39	4064
2026-01-11 01:52:36.88	178.13	27.24	-33.4	-34.8	26.8	0.00e+00	0	54	0	252182528	38	4217
2026-01-11 01:52:37.89	177.56	27.18	-33.4	-34.8	26.8	0.00e+00	0	54	0	253755392	38	4236
2026-01-11 01:52:38.90	176.98	27.13	-34.0	-35.5	26.0	0.00e+00	0	54	0	254803968	38	4560
2026-01-11 01:52:39.91	176.41	27.07	-34.3	-35.8	26.0	0.00e+00	0	54	0	255852544	39	4466
2026-01-11 01:52:40.92	175.84	27.01	-34.4	-36.0	25.8	0.00e+00	0	54	0	256901120	39	4557
2026-01-11 01:52:41.93	175.27	26.95	-34.2	-35.7	26.0	0.00e+00	0	54	0	257949696	39	4422
2026-01-11 01:52:42.94	174.71	26.89	-34.0	-35.5	26.4	0.00e+00	0	54	0	258998272	39	4300
2026-01-11 01:52:43.95	174.15	26.82	-33.8	-35.2	26.6	0.00e+00	0	54	0	260571136	38	4437
2026-01-11 01:52:44.96	173.59	26.75	-33.8	-35.2	26.5	0.00e+00	0	54	0	261619712	38	4439
2026-01-11 01:52:45.97	173.03	26.68	-33.9	-35.4	26.3	0.00e+00	0	54	0	262668288	38	4532
2026-01-11 01:52:46.98	172.48	26.60	-34.2	-35.7	26.1	0.00e+00	0	54	0	263716864	39	4429
2026-01-11 01:52:47.99	171.93	26.53	-34.4	-35.9	25.9	0.00e+00	0	54	0	264765440	39	4538
2026-01-11 01:52:49.00	171.38	26.45	-34.6	-36.1	25.7	0.00e+00	0	54	0	265814016	39	4614
2026-01-11 01:52:50.01	170.84	26.37	-34.3	-35.8	25.9	0.00e+00	0	54	0	267386880	39	4490
2026-01-11 01:52:51.02	170.30	26.28	-34.5	-36.0	25.8	0.00e+00	0	54	0	268435456	39	4576
2026-01-11 01:52:52.03	169.76	26.20	-34.5	-36.0	25.8	0.00e+00	0	54	0	269484032	39	4592
2026-01-11 01:52:53.04	169.22	26.11	-34.7	-36.3	25.5	0.00e+00	0	54	0	270532608	40	4462
2026-01-11 01:52:54.05	168.69	26.02	-34.7	-36.3	25.5	0.00e+00	0	54	0	271581184	40	4458
2026-01-11 01:52:55.06	168.17	25.93	-34.9	-36.4	25.4	0.00e+00	0	54	0	272629760	40	4538
2026-01-11 01:52:56.07	167.64	25.84	-34.5	-36.0	25.8	0.00e+00	0	54	0	274202624	40	4340
2026-01-11 01:52:57.08	167.12	25.74	-34.5	-36.0	25.7	0.00e+00	0	54	0	275251200	40	4339
2026-01-11 01:52:58.09	166.61	25.64	-34.2	-35.6	26.1	0.00e+00	0	54	0	276299776	40	4136
2026-01-11 01:52:59.10	166.09	25.55	-34.4	-35.9	25.9	0.00e+00	0	54	0	277348352	40	4282
2026-01-11 01:53:00.11	165.58	25.44	-34.5	-36.0	25.7	0.00e+00	0	54	0	278396928	40	4329
2026-01-11 01:53:01.12	165.08	25.34	-35.1	-36.7	25.2	0.00e+00	0	54	0	279445504	40	4664
2026-01-11 01:53:02.13	164.58	25.24	-35.3	-36.9	25.0	0.00e+00	0	54	0	281018368	41	4522
2026-01-11 01:53:03.14	164.08	25.13	-35.5	-37.1	24.7	0.00e+00	0	54	0	282066944	41	4622
2026-01-11 01:53:04.15	163.59	25.03	-35.4	-37.0	24.8	0.00e+00	0	54	0	283115520	41	4586
2026-01-11 01:53:05.16	163.10	24.92	-35.1	-36.6	25.2	0.00e+00	0	54	0	284164096	41	4389
2026-01-11 01:53:06.17	162.61	24.81	-34.9	-36.4	25.4	0.00e+00	0	54	0	285212672	41	4274
2026-01-11 01:53:07.18	162.13	24.70	-34.9	-36.5	25.3	0.00e+00	0	54	0	286261248	41	4327
2026-01-11 01:53:08.19	161.65	24.58	-35.1	-36.7	25.1	0.00e+00	0	54	0	287834112	41	4423
2026-01-11 01:53:09.20	161.18	24.47	-35.2	-36.8	25.0	0.00e+00	0	54	0	288882688	41	4465
2026-01-11 01:53:10.21	160.71	24.36	-35.4	-37.0	24.8	0.00e+00	0	54	0	289931264	41	4562
2026-01-11 01:53:11.22	160.24	24.24	-35.2	-36.8	25.0	0.00e+00	0	54	0	290979840	41	4458
2026-01-11 01:53:12.23	159.78	24.12	-34.9	-36.5	25.3	0.00e+00	0	54	0	292028416	41	4316
2026-01-11 01:53:13.23	159.32	24.01	-34.6	-36.1	25.6	0.00e+00	0	54	0	293076992	41	4130
2026-01-11 01:53:14.24	158.87	23.89	-34.8	-36.4	25.4	0.00e+00	0	54	0	294649856	41	4261
2026-01-11 01:53:15.25	158.42	23.77	-34.7	-36.2	25.6	0.00e+00	0	54	0	295698432	41	4171
2026-01-11 01:53:16.26	157.97	23.65	-35.0	-36.6	25.2	0.00e+00	0	54	0	296747008	41	4347
2026-01-11 01:53:17.27	157.53	23.52	-35.2	-36.8	25.0	0.00e+00	0	54	0	297795584	41	4453
2026-01-11 01:53:18.28	157.09	23.40	-35.3	-36.9	24.8	0.00e+00	0	54	0	298844160	41	4520
2026-01-11 01:53:19.29	156.66	23.28	-35.4	-37.0	24.8	0.00e+00	0	54	0	299892736	41	4585
2026-01-11 01:53:20.30	156.23	23.15	-35.3	-36.9	24.9	0.00e+00	0	55	0	301465600	41	4534
2026-01-11 01:53:21.31	155.80	23.03	-35.3	-36.9	24.8	0.00e+00	0	55	0	302514176	41	4533
2026-01-11 01:53:22.32	155.38	22.90	-35.3	-36.9	24.7	0.00e+00	0	54	0	303562752	41	4544
2026-01-11 01:53:23.33	154.96	22.78	-35.2	-36.8	24.9	0.00e+00	0	54	0	304611328	41	4479
2026-01-11 01:53:24.34	154.55	22.65	-34.9	-36.4	25.2	0.00e+00	0	54	0	305659904	41	4277
2026-01-11 01:53:25.35	154.14	22.52	-34.7	-36.2	25.4	0.00e+00	0	54	0	306708480	41	4178
2026-01-11 01:53:26.36	153.73	22.40	-34.7	-36.3	25.4	0.00e+00	0	54	0	308281344	41	4202
2026-01-11 01:53:27.37	153.33	22.27	-35.2	-36.8	24.9	0.00e+00	0	54	0	309329920	41	4474
2026-01-11 01:53:28.38	152.93	22.14	-35.3	-36.9	24.7	0.00e+00	0	54	0	310378496	41	4539
2026-01-11 01:53:29.39	152.54	22.01	-35.5	-37.2	24.6	0.00e+00	0	54	0	311427072	41	4653
2026-01-11 01:53:30.40	152.15	21.88	-35.6	-37.3	24.4	0.00e+00	0	54	0	312475648	41	4725
2026-01-11 01:53:31.41	151.76	21.75	-35.4	-37.1	24.6	0.00e+00	0	55	0	313524224	41	4615
2026-01-11 01:53:32.42	151.38	21.62	-35.3	-37.0	24.7	0.00e+00	0	54	0	315097088	41	4557
2026-01-11 01:53:33.43	151.00	21.49	-35.3	-36.9	24.6	0.00e+00	0	54	0	316145664	41	4545
2026-01-11 01:53:34.44	150.62	21.36	-35.5	-37.2	24.5	0.00e+00	0	54	0	317194240	41	4654
2026-01-11 01:53:35.45	150.25	21.23	-35.5	-37.2	24.5	0.00e+00	0	54	0	318242816	41	4675
2026-01-11 01:53:36.46	149.88	21.10	-35.6	-37.3	24.4	0.00e+00	0	54	0	319291392	41	4724
2026-01-11 01:53:37.47	149.52	20.97	-35.7	-37.4	24.3	0.00e+00	0	55	0	320339968	41	4761
2026-01-11 01:53:38.48	149.16	20.84	-35.6	-37.3	24.4	0.00e+00	0	54	0	321912832	41	4738
2026-01-11 01:53:39.49	148.80	20.71	-35.4	-37.1	24.6	0.00e+00	0	54	0	322961408	41	4610
2026-01-11 01:53:40.50	148.45	20.58	-35.6	-37.3	24.3	0.00e+00	0	54	0	324009984	41	4739
2026-01-11 01:53:41.51	148.10	20.44	-35.8	-37.5	24.2	0.00e+00	0	55	0	325058560	42	4575
2026-01-11 01:53:42.52	147.75	20.31	-35.9	-37.6	24.1	0.00e+00	0	55	0	326107136	42	4623
2026-01-11 01:53:43.53	147.41	20.18	-35.8	-37.5	24.2	0.00e+00	0	54	0	327155712	42	4554
2026-01-11 01:53:44.54	147.07	20.05	-35.7	-37.3	24.3	0.00e+00	0	54	0	328728576	42	4489
2026-01-11 01:53:45.55	146.74	19.92	-35.5	-37.2	24.5	0.00e+00	0	54	0	329777152	42	4404
2026-01-11 01:53:46.56	146.41	19.79	-35.6	-37.2	24.4	0.00e+00	0	54	0	330825728	42	4426
2026-01-11 01:53:47.57	146.08	19.66	-35.7	-37.4	24.3	0.00e+00	0	55	0	331874304	42	4495
2026-01-11 01:53:48.58	145.75	19.53	-36.0	-37.8	23.9	0.00e+00	0	55	0	332922880	42	4708
2026-01-11 01:53:49.59	145.43	19.40	-36.2	-38.0	23.6	0.00e+00	0	55	0	333971456	42	4819
2026-01-11 01:53:50.60	145.11	19.27	-36.0	-37.8	23.8	0.00e+00	0	54	0	335544320	43	4446
2026-01-11 01:53:51.61	144.80	19.14	-35.8	-37.5	24.0	0.00e+00	0	54	0	336592896	43	4336
2026-01-11 01:53:52.62	144.49	19.01	-35.7	-37.4	24.2	0.00e+00	0	55	0	337641472	43	4257
2026-01-11 01:53:53.63	144.18	18.88	-35.8	-37.5	24.1	0.00e+00	0	55	0	338690048	43	4298
2026-01-11 01:53:54.64	143.87	18.75	-35.9	-37.7	23.8	0.00e+00	0	54	0	339738624	43	4402
2026-01-11 01:53:55.64	143.57	18.62	-35.9	-37.7	23.9	0.00e+00	0	54	0	340787200	43	4410
2026-01-11 01:53:56.65	143.28	18.49	-35.9	-37.7	23.9	0.00e+00	0	55	0	342360064	43	4393
2026-01-11 01:53:57.66	142.98	18.36	-35.8	-37.6	24.0	0.00e+00	0	55	0	343408640	43	4344
2026-01-11 01:53:58.67	142.69	18.23	-35.8	-37.5	24.0	0.00e+00	0	54	0	344457216	43	4325
2026-01-11 01:53:59.68	142.40	18.10	-35.8	-37.4	24.1	0.00e+00	0	55	0	345505792	43	4289
2026-01-11 01:54:00.69	142.11	17.98	-36.0	-37.7	23.8	0.00e+00	0	55	0	346554368	43	4419
2026-01-11 01:54:01.70	141.83	17.85	-36.1	-37.8	23.7	0.00e+00	0	54	0	347602944	43	4471
2026-01-11 01:54:02.71	141.55	17.72	-36.3	-38.1	23.4	0.00e+00	0	54	0	349175808	43	4641
2026-01-11 01:54:03.72	141.27	17.59	-36.2	-38.0	23.5	0.00e+00	0	55	0	350224384	43	4565
2026-01-11 01:54:04.73	140.99	17.47	-36.2	-38.0	23.5	0.00e+00	0	55	0	351272960	43	4570
2026-01-11 01:54:05.74	140.72	17.34	-36.1	-37.9	23.6	0.00e+00	0	55	0	352321536	43	4494
2026-01-11 01:54:06.75	140.45	17.22	-36.1	-37.9	23.6	0.00e+00	0	55	0	353370112	43	4504
2026-01-11 01:54:07.76	140.18	17.09	-36.1	-37.9	23.5	0.00e+00	0	54	0	354418688	43	4532
2026-01-11 01:54:08.77	139.92	16.96	-36.3	-38.1	23.4	0.00e+00	0	55	0	355991552	43	4603
2026-01-11 01:54:09.78	139.66	16.84	-36.3	-38.1	23.3	0.00e+00	0	55	0	357040128	43	4632
2026-01-11 01:54:10.79	139.40	16.72	-36.4	-38.2	23.2	0.00e+00	0	55	0	358088704	43	4695
2026-01-11 01:54:11.80	139.15	16.59	-36.5	-38.3	23.2	0.00e+00	0	54	0	359137280	43	4734
2026-01-11 01:54:12.80	138.89	16.47	-36.6	-38.4	23.0	0.00e+00	0	55	0	360185856	43	4804
2026-01-11 01:54:13.81	138.64	16.35	-36.9	-38.8	22.8	0.00e+00	0	55	0	361234432	44	4742
2026-01-11 01:54:14.82	138.40	16.22	-37.0	-38.9	22.7	0.00e+00	0	55	0	362807296	44	4797
2026-01-11 01:54:15.83	138.15	16.10	-37.0	-38.9	22.7	0.00e+00	0	54	0	363855872	44	4781
2026-01-11 01:54:16.84	137.91	15.98	-37.0	-39.0	22.6	0.00e+00	0	55	0	364904448	44	4826
2026-01-11 01:54:17.85	137.67	15.86	-36.9	-38.9	22.7	0.00e+00	0	55	0	365953024	44	4771
2026-01-11 01:54:18.86	137.43	15.74	-36.6	-38.7	22.9	0.00e+00	0	55	0	367001600	44	4664
2026-01-11 01:54:19.87	137.19	15.62	-36.8	-38.7	22.8	0.00e+00	0	55	0	368050176	44	4692
2026-01-11 01:54:20.88	136.96	15.50	-36.6	-38.7	22.8	0.00e+00	0	55	0	369623040	44	4689
2026-01-11 01:54:21.89	136.73	15.38	-36.9	-38.9	22.6	0.00e+00	0	55	0	370671616	44	4763
2026-01-11 01:54:22.89	136.50	15.26	-37.0	-39.1	22.4	0.00e+00	0	54	0	371720192	44	4893
2026-01-11 01:54:23.90	136.28	15.14	-37.3	-39.3	22.2	0.00e+00	0	55	0	372768768	45	4737
2026-01-11 01:54:24.91	136.05	15.02	-37.3	-39.3	21.9	0.00e+00	0	55	0	373817344	45	4752
2026-01-11 01:54:25.92	135.83	14.91	-37.3	-39.3	21.8	0.00e+00	0	55	0	374865920	45	4755
2026-01-11 01:54:26.94	135.61	14.79	-37.3	-39.4	21.8	1.37e-05	0	55	0	376438784	45	4796
2026-01-11 01:54:27.94	135.40	14.67	-36.7	-39.3	21.5	2.97e-05	0	55	0	377487360	44	4992
2026-01-11 01:54:28.96	135.18	14.55	-37.1	-39.2	21.6	2.97e-05	0	54	0	378535936	44	4979
2026-01-11 01:54:29.97	134.97	14.44	-37.1	-39.2	21.8	1.09e-04	0	54	0	379584512	44	4961
2026-01-11 01:54:30.97	134.76	14.32	-37.1	-39.2	21.5	2.36e-04	0	55	0	380633088	44	4979
2026-01-11 01:54:31.98	134.55	14.21	-36.7	-39.3	21.7	4.84e-04	0	55	0	381681664	45	4737
2026-01-11 01:54:32.99	134.34	14.10	-36.1	-39.5	20.0	4.84e-04	0	55	0	383254528	45	4853
2026-01-11 01:54:34.00	134.14	13.98	-37.3	-39.7	21.1	7.79e-04	0	54	0	384303104	45	4971
2026-01-11 01:54:35.01	133.93	13.87	-36.7	-39.8	20.4	6.67e-04	0	55	0	385351680	45	4986
2026-01-11 01:54:36.02	133.73	13.75	-37.0	-39.9	20.4	6.67e-04	0	55	0	386400256	44	5389
2026-01-11 01:54:37.03	133.54	13.64	-37.5	-40.1	20.2	8.25e-04	0	55	0	387448832	45	5173
2026-01-11 01:54:38.04	133.34	13.53	-36.3	-40.1	18.9	6.30e-03	0	55	0	388497408	45	5164
2026-01-11 01:54:39.05	133.14	13.42	-37.3	-40.1	19.1	6.30e-03	0	55	0	390070272	45	5170
2026-01-11 01:54:40.06	132.95	13.31	-37.1	-40.0	18.0	2.99e-03	0	55	0	391118848	42	6106
2026-01-11 01:54:41.07	132.76	13.20	-36.5	-39.7	18.4	4.72e-03	0	55	0	392167424	43	5540
2026-01-11 01:54:42.08	132.57	13.09	-34.6	-39.7	16.3	4.72e-03	0	55	0	393216000	42	5920
2026-01-11 01:54:43.09	132.38	12.98	-34.8	-39.6	14.2	3.47e-02	0	54	0	394264576	40	6536
2026-01-11 01:54:44.10	132.20	12.87	-32.6	-40.3	13.8	1.69e-02	0	55	0	395313152	39	7532
2026-01-11 01:54:45.11	132.01	12.76	-33.8	-39.8	13.7	3.93e-02	0	55	0	396886016	37	7906
2026-01-11 01:54:46.12	131.83	12.65	-34.3	-39.9	12.7	3.93e-02	0	55	0	397934592	37	7994
2026-01-11 01:54:47.13	131.65	12.54	-34.2	-40.8	12.1	7.84e-02	0	55	0	398983168	39	7980
2026-01-11 01:54:48.13	131.48	12.44	-30.6	-40.4	12.2	7.47e-02	0	55	0	400031744	37	8517
2026-01-11 01:54:49.15	131.30	12.33	-26.5	-38.3	9.7	7.47e-02	0	55	0	401080320	24	14208
2026-01-11 01:54:50.16	131.12	12.22	-32.6	-39.8	11.5	1.74e-01	0	55	0	402128896	34	9467
2026-01-11 01:54:51.16	130.95	12.12	-25.0	-38.9	10.9	1.55e-01	0	54	0	403177472	31	10113
2026-01-11 01:54:52.17	130.78	12.01	-28.1	-39.2	10.5	1.55e-01	0	55	0	404226048	31	10489
2026-01-11 01:54:53.18	130.61	11.91	-30.7	-39.8	9.3	2.13e-01	0	55	0	405274624	30	11830
2026-01-11 01:54:54.19	130.44	11.81	-28.0	-38.9	9.5	2.33e-01	0	55	0	406323200	27	12741
2026-01-11 01:54:55.20	130.27	11.70	-27.3	-38.6	7.9	2.33e-01	0	55	0	407371776	23	15446
2026-01-11 01:54:56.21	130.11	11.60	-29.2	-39.3	9.0	2.55e-01	0	55	0	408420352	28	12622
2026-01-11 01:54:57.22	129.94	11.50	-28.6	-39.3	9.3	3.22e-01	0	55	0	408944640	29	11915
2026-01-11 01:54:58.23	129.78	11.39	-29.7	-39.9	9.6	3.53e-01	0	55	0	409993216	29	12705
2026-01-11 01:54:59.24	129.62	11.29	-23.7	-39.9	7.3	3.53e-01	0	55	0	411041792	26	15096
2026-01-11 01:55:00.25	129.46	11.19	-28.6	-39.3	8.7	4.18e-01	0	55	0	411566080	25	14949
2026-01-11 01:55:01.26	129.30	11.09	-27.1	-38.8	7.4	4.34e-01	0	55	0	412090368	22	16835
2026-01-11 01:55:02.27	129.15	10.99	-29.3	-40.1	8.3	4.34e-01	0	55	0	412614656	28	13885
2026-01-11 01:55:03.28	128.99	10.89	-26.9	-38.6	7.5	4.71e-01	0	55	0	413663232	23	15550
2026-01-11 01:55:04.29	128.84	10.79	-25.1	-38.7	8.5	4.51e-01	0	55	0	414187520	24	14879
2026-01-11 01:55:05.30	128.69	10.69	-28.5	-40.2	7.7	4.51e-01	0	55	0	414711808	25	16622
2026-01-11 01:55:06.31	128.54	10.59	-27.9	-41.0	6.8	4.81e-01	0	55	0	415236096	23	20464
2026-01-11 01:55:07.32	128.39	10.49	-24.1	-39.8	6.8	5.70e-01	0	55	0	415236096	22	18811
2026-01-11 01:55:08.33	128.24	10.39	-29.6	-41.4	7.1	5.70e-01	0	55	0	415760384	25	19126
2026-01-11 01:55:09.34	128.09	10.30	-25.0	-38.8	7.6	5.95e-01	0	55	0	416284672	22	16763
2026-01-11 01:55:10.35	127.95	10.20	-24.1	-38.9	7.7	5.75e-01	0	55	0	416808960	25	14279
2026-01-11 01:55:11.36	127.80	10.10	-23.8	-38.8	7.1	5.26e-01	0	55	0	417333248	21	17735
2026-01-11 01:55:12.37	127.66	10.01	-28.2	-40.3	7.2	5.26e-01	0	55	0	417333248	26	15776
2026-01-11 01:55:13.38	127.52	9.91	-23.1	-39.3	7.5	5.57e-01	0	55	0	417857536	24	15837
2026-01-11 01:55:14.39	127.38	9.81	-27.5	-40.4	6.8	5.35e-01	0	55	0	418381824	25	16903
2026-01-11 01:55:15.40	127.24	9.72	-24.2	-39.2	6.3	5.35e-01	0	55	0	418906112	20	19688
2026-01-11 01:55:16.41	127.10	9.62	-27.5	-39.6	7.7	5.75e-01	0	55	0	419430400	24	16380
2026-01-11 01:55:17.42	126.97	9.53	-25.3	-40.6	7.6	5.14e-01	0	55	0	419954688	27	15405
2026-01-11 01:55:18.43	126.83	9.44	-26.1	-40.4	7.8	5.14e-01	0	55	0	420478976	27	15094
2026-01-11 01:55:19.44	126.70	9.34	-29.6	-40.6	7.8	5.24e-01	0	55	0	420478976	28	14651
2026-01-11 01:55:20.45	126.56	9.25	-29.5	-40.5	7.6	5.31e-01	0	55	0	421003264	28	14422
2026-01-11 01:55:21.46	126.43	9.16	-30.9	-40.6	8.6	5.31e-01	0	55	0	422051840	28	14598
2026-01-11 01:55:22.47	126.30	9.07	-20.1	-41.2	6.9	4.83e-01	0	55	0	422576128	29	14732
2026-01-11 01:55:23.48	126.17	8.97	-29.9	-42.2	7.4	4.62e-01	0	55	0	423100416	26	19834
2026-01-11 01:55:24.49	126.04	8.88	-32.0	-40.9	9.3	3.94e-01	0	55	0	424148992	30	13451
2026-01-11 01:55:25.50	125.91	8.79	-28.3	-40.3	9.3	3.94e-01	0	55	0	424673280	30	12630
2026-01-11 01:55:26.51	125.79	8.70	-30.6	-40.7	10.8	3.44e-01	0	55	0	425721856	33	11061
2026-01-11 01:55:27.52	125.66	8.61	-32.8	-41.3	11.2	1.71e-01	0	55	0	426770432	35	10602
2026-01-11 01:55:28.53	125.54	8.52	-32.8	-40.7	11.1	1.71e-01	0	55	0	427819008	33	11138
2026-01-11 01:55:29.54	125.42	8.43	-29.6	-41.3	12.5	1.09e-01	0	55	0	428867584	35	10634
2026-01-11 01:55:30.55	125.29	8.34	-31.4	-41.6	12.3	1.61e-01	0	55	0	429916160	37	9802
2026-01-11 01:55:31.56	125.17	8.25	-35.5	-42.7	11.5	1.61e-01	0	55	0	431489024	38	10425
2026-01-11 01:55:32.57	125.05	8.17	-31.0	-42.7	11.3	6.69e-02	0	55	0	432537600	38	10433
2026-01-11 01:55:33.58	124.93	8.08	-26.9	-42.3	5.7	7.06e-02	0	55	0	433061888	22	25198
2026-01-11 01:55:34.59	124.82	7.99	-38.6	-49.4	8.6	2.34e-01	0	55	0	434110464	44	16064
2026-01-11 01:55:35.60	124.70	7.90	-41.4	-61.7	4.1	2.34e-01	0	55	104	434110464	53	39432
2026-01-11 01:55:36.61	124.58	7.82	-44.7	-62.8	3.8	8.10e-01	0	55	104	434110464	59	31557
2026-01-11 01:55:37.62	124.47	7.73	-44.9	-63.1	3.8	8.46e-01	0	55	104	434110464	60	30818
2026-01-11 01:55:38.63	124.35	7.64	-45.0	-63.2	3.8	8.46e-01	0	55	104	434110464	60	31358
2026-01-11 01:55:39.64	124.24	7.56	-42.5	-63.4	3.7	8.46e-01	0	55	104	434110464	56	40187
2026-01-11 01:55:40.65	124.13	7.47	-45.2	-63.5	3.8	8.45e-01	0	55	104	434110464	61	30578
2026-01-11 01:55:41.66	124.02	7.39	-45.4	-63.6	3.8	8.45e-01	0	55	104	434110464	61	31002
2026-01-11 01:55:42.67	123.91	7.30	-45.5	-63.7	3.8	8.47e-01	0	55	104	434110464	61	31287
2026-01-11 01:55:43.68	123.80	7.22	-45.5	-63.8	3.8	8.46e-01	0	55	104	434110464	61	31630
2026-01-11 01:55:44.69	123.69	7.14	-45.4	-63.7	3.8	8.46e-01	0	55	104	434110464	61	31363
2026-01-11 01:55:45.70	123.58	7.05	-45.3	-63.7	3.8	8.46e-01	0	55	104	434110464	61	31141
2026-01-11 01:55:46.71	123.47	6.97	-45.2	-63.6	3.8	8.47e-01	0	55	104	434110464	61	30955
2026-01-11 01:55:47.72	123.37	6.89	-45.2	-63.6	3.8	8.47e-01	0	55	104	434110464	61	30790
2026-01-11 01:55:48.74	123.26	6.80	-45.2	-63.6	3.8	8.47e-01	0	55	104	434110464	61	30920
2026-01-11 01:55:49.75	123.16	6.72	-45.2	-63.6	3.8	8.46e-01	0	55	104	434110464	61	30921
2026-01-11 01:55:50.76	123.05	6.64	-45.1	-63.5	3.8	8.46e-01	0	55	104	434110464	61	30645
2026-01-11 01:55:51.77	122.95	6.56	-45.1	-63.5	3.8	8.46e-01	0	55	104	434110464	61	30544
2026-01-11 01:55:52.78	122.85	6.48	-45.1	-63.5	3.8	8.47e-01	0	55	104	434110464	61	30575
2026-01-11 01:55:53.79	122.75	6.39	-45.1	-63.5	3.8	8.46e-01	0	55	104	434110464	61	30563
2026-01-11 01:55:54.80	122.65	6.31	-45.1	-63.5	3.8	8.46e-01	0	55	104	434110464	61	30443
2026-01-11 01:55:55.81	122.55	6.23	-45.1	-63.4	3.8	8.47e-01	0	55	104	434110464	61	30362
2026-01-11 01:55:56.82	122.45	6.15	-45.0	-63.5	3.8	8.47e-01	0	55	104	434110464	61	30465
2026-01-11 01:55:57.84	122.35	6.07	-45.1	-63.5	3.8	8.47e-01	0	55	104	434110464	61	30503
2026-01-11 01:55:58.85	122.25	5.99	-45.1	-63.5	3.8	8.47e-01	0	55	104	434110464	61	30515
2026-01-11 01:55:59.86	122.16	5.91	-45.0	-63.5	3.8	8.47e-01	0	55	104	434110464	61	30517
2026-01-11 01:56:00.87	122.06	5.84	-45.1	-63.5	3.8	8.45e-01	0	55	104	434110464	61	30520
2026-01-11 01:56:01.88	121.97	5.76	-45.0	-63.5	3.8	8.45e-01	0	55	104	434110464	61	30443
2026-01-11 01:56:02.89	121.87	5.68	-45.0	-63.5	3.8	8.46e-01	0	55	104	434110464	61	30487
2026-01-11 01:56:03.90	121.78	5.60	-45.1	-63.5	3.8	8.46e-01	0	55	104	434110464	61	30480
2026-01-11 01:56:04.91	121.69	5.52	-45.0	-63.5	3.8	8.46e-01	0	55	104	434110464	61	30435
2026-01-11 01:56:05.92	121.59	5.45	-45.0	-63.5	3.8	8.47e-01	0	55	104	434110464	61	30401
2026-01-11 01:56:06.93	121.50	5.37	-45.0	-63.5	3.8	8.46e-01	0	55	104	434110464	61	30488
2026-01-11 01:56:07.95	121.41	5.29	-45.0	-63.5	3.8	8.46e-01	0	55	104	434110464	61	30485
2026-01-11 01:56:08.96	121.32	5.21	-45.0	-63.4	3.8	8.46e-01	0	55	104	434110464	61	30370
2026-01-11 01:56:09.97	121.23	5.14	-45.0	-63.5	3.8	8.46e-01	0	55	104	434110464	61	30460
2026-01-11 01:56:10.98	121.14	5.06	-45.0	-63.5	3.8	8.46e-01	0	55	104	434110464	61	30396
2026-01-11 01:56:11.99	121.06	4.99	-45.0	-63.5	3.8	8.46e-01	0	55	104	434110464	61	30437
2026-01-11 01:56:13.00	120.97	4.91	-45.0	-63.5	3.8	8.46e-01	0	55	104	434110464	61	30491
2026-01-11 01:56:14.01	120.88	4.84	-45.0	-63.5	3.8	8.45e-01	0	55	104	434110464	61	30418
2026-01-11 01:56:15.02	120.80	4.76	-45.0	-63.4	3.8	8.45e-01	0	55	104	434110464	61	30377
2026-01-11 01:56:16.03	120.71	4.69	-45.0	-63.5	3.8	8.46e-01	0	55	104	434110464	61	30451
2026-01-11 01:56:17.04	120.62	4.61	-45.0	-63.5	3.8	8.46e-01	0	55	104	434110464	61	30402
2026-01-11 01:56:18.06	120.54	4.54	-45.0	-63.4	3.8	8.46e-01	0	55	104	434110464	61	30369
2026-01-11 01:56:19.07	120.46	4.46	-44.9	-63.4	3.8	8.47e-01	0	55	104	434110464	61	30261
2026-01-11 01:56:20.08	120.37	4.39	-44.9	-63.5	3.8	8.47e-01	0	55	104	434110464	61	30399
2026-01-11 01:56:21.09	120.29	4.32	-44.9	-63.4	3.8	8.47e-01	0	55	104	434110464	61	30300
2026-01-11 01:56:22.10	120.21	4.24	-45.0	-63.5	3.8	8.47e-01	0	55	104	434110464	61	30396
2026-01-11 01:56:23.11	120.13	4.17	-45.0	-63.4	3.8	8.46e-01	0	55	104	434110464	61	30324
2026-01-11 01:56:24.12	120.05	4.10	-45.0	-63.4	3.8	8.46e-01	0	55	104	434110464	61	30324
2026-01-11 01:56:25.14	119.97	4.03	-45.0	-63.4	3.8	8.46e-01	0	55	104	434110464	61	30357
2026-01-11 01:56:26.15	119.89	3.95	-45.0	-63.5	3.8	8.47e-01	0	55	104	434110464	61	30406
2026-01-11 01:56:27.15	119.81	3.88	-44.9	-63.4	3.8	8.45e-01	0	55	104	434110464	61	30336
2026-01-11 01:56:28.17	119.73	3.81	-44.8	-63.4	3.8	8.45e-01	0	55	104	434110464	61	30364
2026-01-11 01:56:29.18	119.65	3.74	-44.8	-63.5	3.8	8.47e-01	0	55	104	434110464	61	30401
2026-01-11 01:56:30.19	119.58	3.67	-44.9	-63.4	3.8	8.47e-01	0	55	104	434110464	61	30359
2026-01-11 01:56:31.20	119.50	3.60	-45.0	-63.4	3.8	8.47e-01	0	55	104	434110464	61	30326
2026-01-11 01:56:32.21	119.42	3.53	-45.0	-63.4	3.8	8.45e-01	0	55	104	434110464	61	30364
2026-01-11 01:56:33.22	119.35	3.46	-45.0	-63.5	3.8	8.46e-01	0	55	104	434110464	61	30391
2026-01-11 01:56:34.23	119.27	3.39	-44.9	-63.4	3.8	8.46e-01	0	55	104	434110464	61	30299
2026-01-11 01:56:35.24	119.20	3.32	-44.9	-63.4	3.8	8.46e-01	0	55	104	434110464	61	30355
2026-01-11 01:56:36.25	119.12	3.25	-44.8	-63.4	3.8	8.45e-01	0	55	104	434110464	61	30264
2026-01-11 01:56:37.27	119.05	3.18	-44.8	-63.4	3.8	8.45e-01	0	55	104	434110464	61	30240
2026-01-11 01:56:38.28	118.98	3.11	-44.9	-63.4	3.8	8.45e-01	0	55	104	434110464	61	30351
2026-01-11 01:56:39.29	118.90	3.04	-45.0	-63.4	3.8	8.45e-01	0	56	104	434110464	61	30303
2026-01-11 01:56:40.30	118.83	2.97	-45.0	-63.4	3.8	8.46e-01	0	55	104	434110464	61	30338
2026-01-11 01:56:41.31	118.76	2.90	-44.9	-63.4	3.8	8.46e-01	0	55	104	434110464	61	30275
2026-01-11 01:56:42.32	118.69	2.84	-44.9	-63.4	3.8	8.46e-01	0	55	104	434110464	61	30241
2026-01-11 01:56:43.33	118.62	2.77	-44.9	-63.4	3.8	8.46e-01	0	55	104	434110464	61	30303
2026-01-11 01:56:44.34	118.55	2.70	-44.9	-63.4	3.8	8.46e-01	0	55	104	434110464	61	30295
2026-01-11 01:56:45.35	118.48	2.63	-44.9	-63.4	3.8	8.45e-01	0	55	104	434110464	61	30231
2026-01-11 01:56:46.37	118.41	2.56	-44.9	-63.4	3.8	8.46e-01	0	55	104	434110464	61	30330
2026-01-11 01:56:47.37	118.34	2.50	-44.9	-63.4	3.8	8.46e-01	0	55	104	434110464	61	30279
2026-01-11 01:56:48.39	118.27	2.43	-44.9	-63.4	3.8	8.45e-01	0	55	104	434110464	61	30342
2026-01-11 01:56:49.40	118.21	2.36	-44.9	-63.4	3.8	8.46e-01	0	55	104	434110464	61	30281
2026-01-11 01:56:50.41	118.14	2.30	-44.9	-63.4	3.8	8.46e-01	0	55	104	434110464	61	30218
2026-01-11 01:56:51.42	118.07	2.23	-44.9	-63.4	3.8	8.46e-01	0	55	104	434110464	61	30324
2026-01-11 01:56:52.43	118.01	2.16	-44.9	-63.4	3.8	8.47e-01	0	55	104	434110464	61	30252
2026-01-11 01:56:53.44	117.94	2.10	-45.0	-63.4	3.8	8.46e-01	0	55	104	434110464	61	30292
2026-01-11 01:56:54.45	117.87	2.03	-45.0	-63.4	3.8	8.46e-01	0	55	104	434110464	61	30315
2026-01-11 01:56:55.46	117.81	1.97	-45.0	-63.4	3.8	8.46e-01	0	55	104	434110464	61	30360
2026-01-11 01:56:56.47	117.75	1.90	-45.0	-63.4	3.8	8.46e-01	0	55	104	434110464	61	30205
2026-01-11 01:56:57.48	117.68	1.84	-45.0	-63.4	3.8	8.46e-01	0	55	104	434110464	61	30228

#Closed at: 2026-01-11 01:56:57
#Recorded file [434 MB]: D:/lorett/data/31039_260111_044746.dat