passes_logs/2026/01/11/R2.0S_Moscow/R2.0S_Moscow__20260111_104017_SUOMI_NPP_rec.log

#Pass ID: 20260111_104017_SUOMI NPP
#Satellite: SUOMI NPP
#Configuration: NPP
#almurnet v.1.7.20251203
#Start time: 2026-01-11 10:40:19

#Version: 2.2.20231116
#Station: R2.0S_Moscow
#Location: 37.707566 lon 55.798166 lat
#TLE: 1 37849U 11061A   26009.81756760  .00000113  00000+0  74747-4 0  9994
#TLE: 2 37849  98.7806 311.9110 0002525  72.5604 287.5848 14.19524046735974

#Time	Az	El	Level	Level2	SNR	BER	BlckErr	Temp	State	Recorded	gain1	gain2
2026-01-11 10:40:19.60	180.65	2.15	-44.0	-58.5	3.8	1.49e+00	0	47	0	0	59	19195
2026-01-11 10:40:20.60	180.69	2.21	-44.0	-58.5	3.8	1.49e+00	0	47	104	0	59	19220
2026-01-11 10:40:21.61	180.72	2.27	-44.0	-58.5	3.8	1.49e+00	0	48	104	0	59	19242
2026-01-11 10:40:22.62	180.75	2.34	-44.0	-58.5	3.8	1.49e+00	0	48	104	0	59	19226
2026-01-11 10:40:23.63	180.79	2.40	-44.0	-58.5	3.8	1.49e+00	0	48	104	0	59	19222
2026-01-11 10:40:24.65	180.82	2.47	-44.0	-58.5	3.8	1.49e+00	0	48	104	0	59	19245
2026-01-11 10:40:25.66	180.86	2.53	-44.0	-58.5	3.8	1.49e+00	0	48	104	0	59	19226
2026-01-11 10:40:26.67	180.89	2.59	-44.0	-58.5	3.8	1.49e+00	0	48	104	0	59	19233
2026-01-11 10:40:27.68	180.93	2.66	-44.0	-58.5	3.8	1.49e+00	0	48	104	0	59	19197
2026-01-11 10:40:28.69	180.96	2.72	-44.0	-58.5	3.8	1.49e+00	0	48	104	0	59	19218
2026-01-11 10:40:29.70	181.00	2.79	-44.0	-58.5	3.8	1.49e+00	0	48	104	0	59	19174
2026-01-11 10:40:30.71	181.03	2.85	-44.0	-58.5	3.8	1.49e+00	0	48	104	0	59	19206
2026-01-11 10:40:31.72	181.07	2.92	-44.0	-58.5	3.8	1.49e+00	0	48	104	0	59	19254
2026-01-11 10:40:32.73	181.10	2.98	-44.0	-58.4	3.8	1.49e+00	0	48	104	0	59	19165
2026-01-11 10:40:33.74	181.14	3.05	-44.0	-58.4	3.8	1.49e+00	0	48	104	0	59	19167
2026-01-11 10:40:34.76	181.18	3.11	-44.0	-58.5	3.8	1.49e+00	0	48	104	0	59	19179
2026-01-11 10:40:35.77	181.21	3.18	-44.0	-58.5	3.8	1.49e+00	0	48	104	0	59	19212
2026-01-11 10:40:36.78	181.25	3.25	-44.0	-58.5	3.8	1.49e+00	0	48	104	0	59	19184
2026-01-11 10:40:37.79	181.28	3.31	-44.0	-58.5	3.8	1.49e+00	0	49	104	0	59	19205
2026-01-11 10:40:38.80	181.32	3.38	-44.0	-58.5	3.8	1.49e+00	0	49	104	0	59	19217
2026-01-11 10:40:39.81	181.36	3.44	-44.0	-58.5	3.8	1.49e+00	0	49	104	0	59	19172
2026-01-11 10:40:40.82	181.39	3.51	-44.0	-58.4	3.8	1.49e+00	0	49	104	0	59	19136
2026-01-11 10:40:41.83	181.43	3.58	-44.0	-58.5	3.8	1.49e+00	0	49	104	0	59	19203
2026-01-11 10:40:42.85	181.47	3.64	-44.0	-58.5	3.8	1.49e+00	0	49	104	0	59	19228
2026-01-11 10:40:43.86	181.50	3.71	-44.0	-58.5	3.8	1.49e+00	0	49	104	0	59	19220
2026-01-11 10:40:44.87	181.54	3.78	-44.0	-58.5	3.8	1.49e+00	0	49	104	0	59	19182
2026-01-11 10:40:45.88	181.58	3.85	-44.0	-58.4	3.8	1.49e+00	0	49	104	0	59	19154
2026-01-11 10:40:46.89	181.62	3.91	-44.0	-58.5	3.8	1.49e+00	0	49	104	0	59	19219
2026-01-11 10:40:47.90	181.65	3.98	-44.0	-58.4	3.8	1.49e+00	0	49	104	0	59	19154
2026-01-11 10:40:48.91	181.69	4.05	-44.0	-58.4	3.8	1.49e+00	0	49	104	0	59	19043
2026-01-11 10:40:49.92	181.73	4.12	-44.0	-58.4	3.8	1.49e+00	0	50	104	0	59	18988
2026-01-11 10:40:50.93	181.77	4.18	-44.0	-58.4	3.8	1.49e+00	0	49	104	0	59	19029
2026-01-11 10:40:51.94	181.81	4.25	-44.0	-58.4	3.8	1.49e+00	0	49	104	0	59	18993
2026-01-11 10:40:52.95	181.85	4.32	-44.0	-58.4	3.8	1.49e+00	0	50	104	0	59	19031
2026-01-11 10:40:53.97	181.88	4.39	-44.0	-58.3	3.8	1.49e+00	0	50	104	0	59	18772
2026-01-11 10:40:54.98	181.92	4.46	-44.0	-57.9	3.8	1.49e+00	0	50	104	0	59	18012
2026-01-11 10:40:55.99	181.96	4.53	-44.0	-57.6	3.8	1.49e+00	0	50	104	0	59	17458
2026-01-11 10:40:57.00	182.00	4.60	-44.0	-57.5	3.8	1.49e+00	0	50	104	0	59	17246
2026-01-11 10:40:58.01	182.04	4.66	-44.0	-57.4	3.8	1.49e+00	0	50	104	0	59	16945
2026-01-11 10:40:59.02	182.08	4.73	-43.9	-57.2	3.8	1.49e+00	0	50	104	0	59	16661
2026-01-11 10:41:00.03	182.12	4.80	-44.0	-57.1	3.8	1.49e+00	0	50	104	0	59	16492
2026-01-11 10:41:01.04	182.16	4.87	-43.9	-57.1	3.8	1.49e+00	0	50	104	0	59	16433
2026-01-11 10:41:02.05	182.20	4.94	-43.9	-57.1	3.8	1.49e+00	0	50	104	0	59	16451
2026-01-11 10:41:03.06	182.24	5.01	-43.9	-57.1	3.8	1.49e+00	0	50	104	0	59	16463
2026-01-11 10:41:04.08	182.28	5.08	-43.9	-57.1	3.8	1.49e+00	0	50	104	0	59	16335
2026-01-11 10:41:05.09	182.32	5.15	-43.9	-56.9	3.8	1.49e+00	0	50	104	0	59	15977
2026-01-11 10:41:06.10	182.36	5.22	-43.9	-56.7	3.8	1.49e+00	0	51	104	0	59	15593
2026-01-11 10:41:07.11	182.41	5.30	-43.9	-56.6	3.8	1.49e+00	0	51	104	0	59	15534
2026-01-11 10:41:08.12	182.45	5.37	-43.9	-56.5	3.8	1.49e+00	0	50	104	0	59	15292
2026-01-11 10:41:09.13	182.49	5.44	-43.9	-56.5	3.8	1.49e+00	0	50	104	0	59	15268
2026-01-11 10:41:10.14	182.53	5.51	-43.9	-56.5	3.8	1.48e+00	0	51	104	0	59	15346
2026-01-11 10:41:11.15	182.57	5.58	-43.9	-56.4	3.8	1.48e+00	0	51	104	0	59	15123
2026-01-11 10:41:12.16	182.61	5.65	-43.9	-56.0	4.0	1.48e+00	0	51	104	0	59	14502
2026-01-11 10:41:13.18	182.66	5.72	-43.9	-56.0	4.0	1.48e+00	0	51	104	0	59	14538
2026-01-11 10:41:14.19	182.70	5.80	-43.9	-55.9	3.8	1.48e+00	0	51	104	0	59	14246
2026-01-11 10:41:15.20	182.74	5.87	-43.9	-56.0	3.8	1.48e+00	0	51	104	0	59	14461
2026-01-11 10:41:16.21	182.78	5.94	-43.9	-55.8	3.8	1.48e+00	0	51	104	0	59	14077
2026-01-11 10:41:17.22	182.83	6.01	-43.8	-55.5	4.1	1.47e+00	0	51	104	0	59	13607
2026-01-11 10:41:18.23	182.87	6.09	-43.8	-55.6	4.0	1.47e+00	0	51	0	0	59	13737
2026-01-11 10:41:19.24	182.91	6.16	-43.8	-55.4	4.1	1.44e+00	0	51	0	0	59	13566
2026-01-11 10:41:20.25	182.96	6.23	-43.8	-55.5	3.9	1.44e+00	0	51	104	0	59	13690
2026-01-11 10:41:21.26	183.00	6.30	-43.8	-55.2	4.1	1.43e+00	0	51	0	0	59	13115
2026-01-11 10:41:22.27	183.04	6.38	-43.8	-55.1	4.1	1.41e+00	0	51	0	0	59	13035
2026-01-11 10:41:23.28	183.09	6.45	-43.8	-55.1	4.1	1.40e+00	0	51	0	0	59	12981
2026-01-11 10:41:24.29	183.13	6.53	-43.8	-54.8	4.2	1.39e+00	0	51	0	0	59	12546
2026-01-11 10:41:25.30	183.18	6.60	-43.7	-54.0	4.5	1.19e+00	0	51	0	1048576	59	11433
2026-01-11 10:41:26.31	183.22	6.67	-43.7	-53.6	4.7	9.10e-01	0	51	0	2097152	59	10937
2026-01-11 10:41:27.32	183.27	6.75	-43.6	-52.9	5.0	8.32e-01	0	51	0	4194304	59	10099
2026-01-11 10:41:28.34	183.31	6.82	-43.4	-52.1	5.5	5.85e-01	0	51	0	6291456	58	9757
2026-01-11 10:41:29.35	183.36	6.90	-43.4	-51.5	5.9	3.75e-01	0	52	0	8388608	58	9121
2026-01-11 10:41:30.36	183.41	6.97	-43.2	-50.5	6.7	2.64e-01	0	52	0	10485760	58	8119
2026-01-11 10:41:31.37	183.45	7.05	-43.0	-49.8	7.4	1.50e-01	0	52	0	11534336	58	7485
2026-01-11 10:41:32.38	183.50	7.12	-42.8	-49.1	8.0	7.20e-02	0	52	0	13631488	57	7344
2026-01-11 10:41:33.39	183.54	7.20	-42.5	-48.2	8.9	4.48e-02	0	52	0	15728640	57	6616
2026-01-11 10:41:34.40	183.59	7.28	-42.4	-47.9	9.3	2.48e-02	0	52	0	17825792	56	6748
2026-01-11 10:41:35.41	183.64	7.35	-42.3	-47.4	9.8	1.21e-02	0	52	0	19922944	56	6413
2026-01-11 10:41:36.42	183.68	7.43	-42.0	-46.8	10.4	6.29e-03	0	52	0	20971520	56	5968
2026-01-11 10:41:37.43	183.73	7.51	-41.8	-46.4	10.6	3.07e-03	0	52	0	23068672	55	6029
2026-01-11 10:41:38.44	183.78	7.58	-41.6	-45.9	11.2	1.79e-03	0	52	0	25165824	55	5690
2026-01-11 10:41:39.45	183.83	7.66	-41.5	-45.8	11.3	1.16e-03	0	52	0	27262976	55	5618
2026-01-11 10:41:40.46	183.87	7.74	-41.5	-45.7	11.4	9.72e-04	0	52	0	29360128	54	5911
2026-01-11 10:41:41.47	183.92	7.81	-41.4	-45.5	11.6	7.78e-04	0	52	0	30408704	54	5776
2026-01-11 10:41:42.48	183.97	7.89	-41.5	-45.7	11.4	8.17e-04	0	52	0	32505856	54	5907
2026-01-11 10:41:43.49	184.02	7.97	-41.6	-45.9	11.2	1.22e-03	0	52	0	34603008	54	6031
2026-01-11 10:41:44.50	184.07	8.05	-41.8	-46.2	11.3	8.12e-04	0	52	0	36700160	54	6251
2026-01-11 10:41:45.51	184.12	8.13	-42.3	-47.4	10.0	3.09e-01	0	52	0	38797312	56	6378
2026-01-11 10:41:46.52	184.17	8.20	-41.6	-45.9	11.1	1.04e+00	0	52	0	39845888	55	5669
2026-01-11 10:41:47.53	184.22	8.28	-42.0	-46.8	10.4	1.36e-02	0	52	0	41943040	55	6278
2026-01-11 10:41:48.54	184.27	8.36	-41.4	-45.4	11.9	8.00e-03	0	52	0	44040192	54	5698
2026-01-11 10:41:49.55	184.32	8.44	-42.5	-48.2	8.7	6.60e-01	0	52	0	46137344	57	6602
2026-01-11 10:41:50.56	184.37	8.52	-41.3	-45.2	12.0	5.25e-04	0	53	0	48234496	54	5531
2026-01-11 10:41:51.57	184.42	8.60	-41.2	-45.1	12.0	2.86e-04	0	52	0	49283072	54	5517
2026-01-11 10:41:52.58	184.47	8.68	-41.2	-45.1	12.1	4.73e-04	0	53	0	51380224	54	5481
2026-01-11 10:41:53.59	184.52	8.76	-41.3	-45.3	11.9	3.54e-04	0	52	0	53477376	54	5619
2026-01-11 10:41:54.60	184.57	8.84	-41.3	-45.2	12.0	2.72e-04	0	52	0	55574528	54	5574
2026-01-11 10:41:55.60	184.62	8.92	-41.4	-45.4	11.8	3.70e-04	0	52	0	57671680	54	5705
2026-01-11 10:41:56.62	184.68	9.00	-41.3	-45.3	12.0	4.85e-04	0	53	0	58720256	54	5606
2026-01-11 10:41:57.63	184.73	9.08	-41.3	-45.3	12.0	3.33e-04	0	53	0	60817408	54	5626
2026-01-11 10:41:58.64	184.78	9.17	-41.3	-45.2	12.0	3.27e-04	0	53	0	62914560	54	5590
2026-01-11 10:41:59.65	184.84	9.25	-41.3	-45.3	12.0	3.33e-04	0	53	0	65011712	54	5603
2026-01-11 10:42:00.66	184.89	9.33	-41.4	-45.4	11.8	3.45e-04	0	53	0	67108864	54	5696
2026-01-11 10:42:01.66	184.94	9.41	-41.3	-45.1	12.2	3.09e-04	0	53	0	68157440	54	5496
2026-01-11 10:42:02.68	185.00	9.49	-41.3	-45.3	12.1	1.88e-04	0	53	0	70254592	54	5594
2026-01-11 10:42:03.68	185.05	9.58	-41.2	-45.0	12.3	1.93e-04	0	53	0	72351744	54	5422
2026-01-11 10:42:04.70	185.10	9.66	-41.2	-44.9	12.4	2.22e-04	0	53	0	74448896	54	5383
2026-01-11 10:42:05.70	185.16	9.74	-41.2	-45.0	12.3	1.76e-04	0	53	0	76546048	54	5406
2026-01-11 10:42:06.71	185.21	9.83	-41.0	-44.6	12.7	1.11e-04	0	53	0	77594624	54	5209
2026-01-11 10:42:07.72	185.27	9.91	-41.0	-44.6	12.7	7.70e-05	0	53	0	79691776	54	5198
2026-01-11 10:42:08.73	185.32	9.99	-41.0	-44.5	12.8	6.86e-05	0	53	0	81788928	54	5121
2026-01-11 10:42:09.74	185.38	10.08	-40.9	-44.4	12.9	5.95e-05	0	53	0	83886080	53	5357
2026-01-11 10:42:10.75	185.44	10.16	-40.9	-44.3	13.0	3.81e-05	0	53	0	85983232	53	5324
2026-01-11 10:42:11.76	185.49	10.25	-40.9	-44.4	12.9	3.50e-05	0	53	0	87031808	53	5382
2026-01-11 10:42:12.77	185.55	10.33	-40.9	-44.3	13.0	5.49e-05	0	53	0	89128960	53	5338
2026-01-11 10:42:13.78	185.61	10.42	-40.9	-44.4	12.9	2.82e-05	0	53	0	91226112	53	5352
2026-01-11 10:42:14.79	185.66	10.50	-40.7	-44.0	13.3	2.74e-05	0	53	0	93323264	53	5143
2026-01-11 10:42:15.80	185.72	10.59	-40.9	-44.3	13.1	2.82e-05	0	53	0	95420416	53	5308
2026-01-11 10:42:16.81	185.78	10.68	-40.7	-44.0	13.3	2.28e-05	0	53	0	96468992	53	5156
2026-01-11 10:42:17.82	185.84	10.76	-40.7	-44.0	13.3	2.28e-05	0	53	0	98566144	53	5116
2026-01-11 10:42:18.83	185.90	10.85	-40.7	-44.0	13.3	1.22e-05	0	53	0	100663296	53	5141
2026-01-11 10:42:19.84	185.96	10.94	-40.6	-43.8	13.5	1.14e-05	0	53	0	102760448	53	5037
2026-01-11 10:42:20.85	186.02	11.02	-40.6	-43.7	13.6	9.90e-06	0	53	0	104857600	53	4982
2026-01-11 10:42:21.86	186.08	11.11	-40.5	-43.7	13.7	6.10e-06	0	53	0	105906176	52	5222
2026-01-11 10:42:22.87	186.14	11.20	-40.5	-43.6	13.7	7.60e-06	0	53	0	108003328	52	5209
2026-01-11 10:42:23.88	186.20	11.29	-40.5	-43.6	13.8	3.00e-06	0	53	0	110100480	52	5175
2026-01-11 10:42:24.89	186.26	11.37	-40.5	-43.6	13.7	4.50e-06	0	53	0	112197632	52	5206
2026-01-11 10:42:25.90	186.32	11.46	-40.5	-43.6	13.8	6.10e-06	0	54	0	114294784	52	5206
2026-01-11 10:42:26.91	186.38	11.55	-40.4	-43.4	14.0	3.00e-06	0	53	0	116391936	52	5065
2026-01-11 10:42:27.92	186.44	11.64	-40.4	-43.5	13.9	4.50e-06	0	54	0	117440512	52	5129
2026-01-11 10:42:28.93	186.50	11.73	-40.5	-43.6	13.8	3.00e-06	0	54	0	119537664	52	5160
2026-01-11 10:42:29.94	186.57	11.82	-40.3	-43.3	14.1	2.20e-06	0	54	0	121634816	52	5039
2026-01-11 10:42:30.95	186.63	11.91	-40.3	-43.3	14.2	7.00e-07	0	53	0	123731968	52	4990
2026-01-11 10:42:31.96	186.69	12.00	-40.2	-43.2	14.3	0.00e+00	0	53	0	125829120	52	4930
2026-01-11 10:42:32.97	186.76	12.09	-40.3	-43.2	14.2	0.00e+00	0	53	0	126877696	52	4947
2026-01-11 10:42:33.98	186.82	12.18	-40.2	-43.0	14.4	7.00e-07	0	54	0	128974848	52	4847
2026-01-11 10:42:34.99	186.88	12.28	-40.2	-43.0	14.4	0.00e+00	0	54	0	131072000	52	4869
2026-01-11 10:42:36.00	186.95	12.37	-40.1	-42.9	14.6	7.00e-07	0	54	0	133169152	52	4781
2026-01-11 10:42:37.01	187.01	12.46	-40.1	-43.0	14.5	7.00e-07	0	54	0	135266304	52	4816
2026-01-11 10:42:38.02	187.08	12.55	-40.3	-43.1	14.4	7.00e-07	0	54	0	136314880	52	4913
2026-01-11 10:42:39.03	187.14	12.64	-40.1	-42.8	14.7	0.00e+00	0	54	0	138412032	52	4750
2026-01-11 10:42:40.03	187.21	12.74	-40.3	-43.2	14.4	0.00e+00	0	54	0	140509184	52	4928
2026-01-11 10:42:41.04	187.28	12.83	-40.2	-43.0	14.6	3.00e-06	0	54	0	142606336	52	4845
2026-01-11 10:42:42.05	187.34	12.92	-40.3	-43.1	14.5	7.00e-07	0	54	0	144703488	52	4916
2026-01-11 10:42:43.06	187.41	13.02	-40.4	-43.3	14.3	2.20e-06	0	54	0	145752064	52	5018
2026-01-11 10:42:44.07	187.48	13.11	-40.2	-43.0	14.6	7.00e-07	0	54	0	147849216	52	4822
2026-01-11 10:42:45.08	187.55	13.21	-40.2	-43.0	14.6	0.00e+00	0	54	0	149946368	52	4854
2026-01-11 10:42:46.09	187.62	13.30	-40.3	-43.2	14.5	1.50e-06	0	54	0	152043520	52	4929
2026-01-11 10:42:47.10	187.69	13.40	-40.2	-43.0	14.7	7.00e-07	0	54	0	154140672	52	4834
2026-01-11 10:42:48.11	187.76	13.49	-40.4	-43.2	14.4	0.00e+00	0	54	0	155189248	52	4972
2026-01-11 10:42:49.12	187.83	13.59	-40.3	-43.1	14.6	7.00e-07	0	54	0	157286400	52	4888
2026-01-11 10:42:50.13	187.90	13.69	-40.3	-43.1	14.5	0.00e+00	0	54	0	159383552	52	4923
2026-01-11 10:42:51.14	187.97	13.78	-40.3	-43.1	14.6	0.00e+00	0	54	0	161480704	52	4880
2026-01-11 10:42:52.15	188.04	13.88	-40.2	-42.9	14.7	0.00e+00	0	54	0	163577856	52	4783
2026-01-11 10:42:53.16	188.11	13.98	-40.2	-43.0	14.6	0.00e+00	0	54	0	164626432	52	4854
2026-01-11 10:42:54.17	188.18	14.07	-40.2	-42.9	14.8	0.00e+00	0	54	0	166723584	52	4795
2026-01-11 10:42:55.18	188.26	14.17	-40.3	-43.0	14.6	0.00e+00	0	54	0	168820736	52	4867
2026-01-11 10:42:56.19	188.33	14.27	-40.3	-43.1	14.7	7.00e-07	0	54	0	170917888	52	4884
2026-01-11 10:42:57.20	188.40	14.37	-40.3	-43.2	14.5	0.00e+00	0	54	0	173015040	52	4959
2026-01-11 10:42:58.21	188.48	14.47	-40.2	-43.0	14.7	0.00e+00	0	54	0	174063616	52	4829
2026-01-11 10:42:59.22	188.55	14.57	-40.4	-43.2	14.5	7.00e-07	0	54	0	176160768	52	4970
2026-01-11 10:43:00.23	188.63	14.67	-40.3	-43.2	14.6	0.00e+00	0	54	0	178257920	52	4933
2026-01-11 10:43:01.24	188.70	14.77	-40.4	-43.4	14.4	7.00e-07	0	54	0	180355072	52	5044
2026-01-11 10:43:02.25	188.78	14.87	-40.4	-43.3	14.4	1.50e-06	0	54	0	182452224	52	5015
2026-01-11 10:43:03.26	188.85	14.97	-40.5	-43.5	14.3	7.00e-07	0	54	0	184549376	52	5111
2026-01-11 10:43:04.27	188.93	15.07	-40.4	-43.2	14.6	0.00e+00	0	54	0	185597952	52	4955
2026-01-11 10:43:05.28	189.01	15.17	-40.5	-43.4	14.3	7.00e-07	0	54	0	187695104	52	5093
2026-01-11 10:43:06.29	189.09	15.28	-40.5	-43.3	14.4	0.00e+00	0	54	0	189792256	52	5040
2026-01-11 10:43:07.30	189.17	15.38	-40.5	-43.4	14.4	1.50e-06	0	54	0	191889408	52	5051
2026-01-11 10:43:08.30	189.24	15.48	-40.5	-43.4	14.3	0.00e+00	0	54	0	193986560	52	5081
2026-01-11 10:43:09.31	189.32	15.58	-40.3	-43.1	14.7	0.00e+00	0	54	0	195035136	52	4880
2026-01-11 10:43:10.32	189.40	15.69	-40.3	-43.1	14.7	0.00e+00	0	54	0	197132288	52	4901
2026-01-11 10:43:11.33	189.48	15.79	-40.2	-42.9	14.9	7.00e-07	0	54	0	199229440	52	4794
2026-01-11 10:43:12.34	189.57	15.90	-40.1	-42.7	15.0	0.00e+00	0	55	0	201326592	52	4698
2026-01-11 10:43:13.35	189.65	16.00	-40.0	-42.6	15.2	0.00e+00	0	54	0	203423744	52	4599
2026-01-11 10:43:14.36	189.73	16.11	-40.0	-42.6	15.3	0.00e+00	0	54	0	204472320	51	4884
2026-01-11 10:43:15.37	189.81	16.21	-40.0	-42.5	15.3	0.00e+00	0	54	0	206569472	51	4835
2026-01-11 10:43:16.38	189.90	16.32	-39.8	-42.2	15.7	0.00e+00	0	54	0	208666624	51	4660
2026-01-11 10:43:17.39	189.98	16.43	-39.8	-42.2	15.7	0.00e+00	0	54	0	210763776	51	4654
2026-01-11 10:43:18.40	190.06	16.53	-39.8	-42.2	15.6	0.00e+00	0	54	0	212860928	51	4698
2026-01-11 10:43:19.41	190.15	16.64	-39.8	-42.2	15.7	0.00e+00	0	55	0	213909504	51	4670
2026-01-11 10:43:20.42	190.23	16.75	-39.8	-42.3	15.7	0.00e+00	0	55	0	216006656	51	4711
2026-01-11 10:43:21.43	190.32	16.86	-39.8	-42.3	15.6	0.00e+00	0	54	0	218103808	51	4714
2026-01-11 10:43:22.44	190.41	16.96	-39.8	-42.3	15.6	0.00e+00	0	55	0	220200960	51	4724
2026-01-11 10:43:23.45	190.50	17.07	-39.9	-42.4	15.5	0.00e+00	0	55	0	222298112	51	4769
2026-01-11 10:43:24.46	190.58	17.18	-39.9	-42.4	15.5	0.00e+00	0	55	0	223346688	51	4781
2026-01-11 10:43:25.47	190.67	17.29	-40.0	-42.5	15.3	0.00e+00	0	55	0	225443840	51	4858
2026-01-11 10:43:26.48	190.76	17.40	-40.1	-42.7	15.2	0.00e+00	0	55	0	227540992	51	4930
2026-01-11 10:43:27.49	190.85	17.51	-40.0	-42.6	15.4	0.00e+00	0	55	0	229638144	51	4874
2026-01-11 10:43:28.50	190.94	17.63	-40.1	-42.8	15.2	0.00e+00	0	55	0	231735296	51	4986
2026-01-11 10:43:29.51	191.03	17.74	-40.0	-42.5	15.4	0.00e+00	0	55	0	232783872	51	4841
2026-01-11 10:43:30.52	191.13	17.85	-39.9	-42.3	15.6	0.00e+00	0	55	0	234881024	51	4759
2026-01-11 10:43:31.52	191.22	17.96	-39.9	-42.4	15.5	0.00e+00	0	55	0	236978176	51	4789
2026-01-11 10:43:32.53	191.31	18.07	-39.8	-42.2	15.7	7.00e-07	0	55	0	239075328	51	4690
2026-01-11 10:43:33.54	191.40	18.19	-39.6	-42.0	15.9	0.00e+00	0	55	0	241172480	51	4578
2026-01-11 10:43:34.56	191.50	18.30	-39.6	-41.9	16.0	0.00e+00	0	55	0	242221056	51	4531
2026-01-11 10:43:35.56	191.59	18.42	-39.5	-41.8	16.1	0.00e+00	0	55	0	244318208	51	4448
2026-01-11 10:43:36.57	191.69	18.53	-39.5	-41.8	16.2	0.00e+00	0	55	0	246415360	50	4713
2026-01-11 10:43:37.58	191.79	18.65	-39.5	-41.8	16.1	0.00e+00	0	55	0	248512512	50	4752
2026-01-11 10:43:38.59	191.88	18.76	-39.5	-41.8	16.1	0.00e+00	0	55	0	250609664	50	4755
2026-01-11 10:43:39.60	191.98	18.88	-39.5	-41.9	16.1	0.00e+00	0	55	0	251658240	50	4760
2026-01-11 10:43:40.61	192.08	19.00	-39.5	-41.8	16.2	0.00e+00	0	55	0	253755392	50	4733
2026-01-11 10:43:41.62	192.18	19.11	-39.5	-41.8	16.2	0.00e+00	0	55	0	255852544	50	4714
2026-01-11 10:43:42.63	192.28	19.23	-39.6	-41.9	16.1	0.00e+00	0	55	0	257949696	50	4761
2026-01-11 10:43:43.64	192.38	19.35	-39.6	-42.0	16.0	0.00e+00	0	55	0	260046848	50	4839
2026-01-11 10:43:44.65	192.48	19.47	-39.5	-41.8	16.2	0.00e+00	0	55	0	261095424	50	4744
2026-01-11 10:43:45.66	192.59	19.59	-39.7	-42.0	15.9	0.00e+00	0	55	0	263192576	50	4861
2026-01-11 10:43:46.67	192.69	19.71	-39.6	-42.0	16.0	0.00e+00	0	55	0	265289728	50	4818
2026-01-11 10:43:47.68	192.79	19.83	-39.5	-41.8	16.2	0.00e+00	0	55	0	267386880	50	4742
2026-01-11 10:43:48.69	192.90	19.95	-39.6	-41.9	16.1	0.00e+00	0	55	0	269484032	50	4811
2026-01-11 10:43:49.70	193.01	20.07	-39.7	-42.1	15.9	0.00e+00	0	55	0	270532608	50	4875
2026-01-11 10:43:50.71	193.11	20.19	-39.7	-42.0	16.0	0.00e+00	0	55	0	272629760	50	4867
2026-01-11 10:43:51.72	193.22	20.31	-39.7	-42.0	16.0	0.00e+00	0	55	0	274726912	50	4844
2026-01-11 10:43:52.73	193.33	20.43	-39.7	-42.1	15.9	0.00e+00	0	55	0	276824064	50	4891
2026-01-11 10:43:53.74	193.44	20.56	-39.8	-42.2	15.9	0.00e+00	0	55	0	278921216	50	4929
2026-01-11 10:43:54.75	193.55	20.68	-39.7	-42.0	16.0	0.00e+00	0	55	0	281018368	50	4844
2026-01-11 10:43:55.76	193.66	20.80	-39.7	-42.1	16.0	0.00e+00	0	55	0	282066944	50	4886
2026-01-11 10:43:56.77	193.77	20.93	-39.7	-42.1	16.0	0.00e+00	0	55	0	284164096	50	4879
2026-01-11 10:43:57.78	193.88	21.05	-39.6	-41.9	16.1	0.00e+00	0	55	0	286261248	50	4788
2026-01-11 10:43:58.79	193.99	21.18	-39.6	-42.0	16.1	0.00e+00	0	55	0	288358400	50	4833
2026-01-11 10:43:59.80	194.11	21.31	-39.5	-41.8	16.2	0.00e+00	0	55	0	290455552	50	4735
2026-01-11 10:44:00.81	194.22	21.43	-39.5	-41.7	16.3	0.00e+00	0	55	0	291504128	50	4685
2026-01-11 10:44:01.82	194.34	21.56	-39.4	-41.6	16.4	0.00e+00	0	55	0	293601280	50	4635
2026-01-11 10:44:02.83	194.46	21.69	-39.3	-41.6	16.5	0.00e+00	0	55	0	295698432	50	4600
2026-01-11 10:44:03.83	194.57	21.81	-39.4	-41.6	16.4	0.00e+00	0	55	0	297795584	50	4611
2026-01-11 10:44:04.84	194.69	21.94	-39.4	-41.7	16.3	0.00e+00	0	55	0	299892736	50	4660
2026-01-11 10:44:05.85	194.81	22.07	-39.4	-41.6	16.4	0.00e+00	0	55	0	300941312	50	4612
2026-01-11 10:44:06.86	194.93	22.20	-39.4	-41.6	16.4	0.00e+00	0	55	0	303038464	50	4629
2026-01-11 10:44:07.87	195.06	22.33	-39.4	-41.6	16.5	0.00e+00	0	55	0	305135616	50	4600
2026-01-11 10:44:08.88	195.18	22.46	-39.3	-41.5	16.5	0.00e+00	0	55	0	307232768	50	4584
2026-01-11 10:44:09.89	195.30	22.59	-39.3	-41.4	16.6	0.00e+00	0	55	0	309329920	50	4538
2026-01-11 10:44:10.90	195.43	22.73	-39.6	-42.0	16.1	0.00e+00	0	55	0	310378496	50	4825
2026-01-11 10:44:11.91	195.55	22.86	-39.4	-41.6	16.5	0.00e+00	0	55	0	312475648	50	4600
2026-01-11 10:44:12.92	195.68	22.99	-39.4	-41.6	16.5	0.00e+00	0	55	0	314572800	50	4612
2026-01-11 10:44:13.93	195.81	23.13	-39.4	-41.5	16.6	0.00e+00	0	55	0	316669952	50	4584
2026-01-11 10:44:14.94	195.94	23.26	-39.4	-41.6	16.5	0.00e+00	0	55	0	318767104	50	4600
2026-01-11 10:44:15.95	196.07	23.39	-39.5	-41.8	16.4	0.00e+00	0	55	0	319815680	50	4724
2026-01-11 10:44:16.96	196.20	23.53	-39.6	-41.8	16.3	0.00e+00	0	55	0	321912832	50	4738
2026-01-11 10:44:17.97	196.33	23.67	-39.6	-41.8	16.2	0.00e+00	0	55	0	324009984	50	4754
2026-01-11 10:44:18.98	196.46	23.80	-39.6	-41.9	16.2	0.00e+00	0	55	0	326107136	50	4781
2026-01-11 10:44:19.99	196.60	23.94	-39.9	-42.2	15.9	0.00e+00	0	55	0	328204288	50	4981
2026-01-11 10:44:21.00	196.73	24.08	-39.9	-42.3	15.8	0.00e+00	0	55	0	329252864	50	5002
2026-01-11 10:44:22.00	196.87	24.21	-40.0	-42.4	15.7	0.00e+00	0	55	0	331350016	50	5067
2026-01-11 10:44:23.01	197.01	24.35	-40.0	-42.4	15.7	0.00e+00	0	55	0	333447168	50	5086
2026-01-11 10:44:24.02	197.15	24.49	-39.8	-42.1	16.0	0.00e+00	0	55	0	335544320	50	4908
2026-01-11 10:44:25.03	197.29	24.63	-40.0	-42.4	15.7	0.00e+00	0	55	0	337641472	50	5080
2026-01-11 10:44:26.04	197.43	24.77	-40.0	-42.4	15.7	0.00e+00	0	55	0	338690048	50	5066
2026-01-11 10:44:27.05	197.57	24.91	-40.1	-42.6	15.5	0.00e+00	0	55	0	340787200	50	5194
2026-01-11 10:44:28.06	197.72	25.05	-39.9	-42.3	15.9	0.00e+00	0	55	0	342884352	50	4999
2026-01-11 10:44:29.07	197.86	25.20	-40.1	-42.5	15.6	0.00e+00	0	55	0	344981504	50	5145
2026-01-11 10:44:30.08	198.01	25.34	-40.0	-42.5	15.6	0.00e+00	0	55	0	347078656	51	4829
2026-01-11 10:44:31.09	198.16	25.48	-40.1	-42.6	15.5	0.00e+00	0	55	0	349175808	51	4910
2026-01-11 10:44:32.10	198.31	25.63	-40.2	-42.7	15.5	0.00e+00	0	55	0	350224384	51	4964
2026-01-11 10:44:33.11	198.46	25.77	-40.2	-42.8	15.4	0.00e+00	0	56	0	352321536	51	5004
2026-01-11 10:44:34.12	198.61	25.92	-40.3	-42.9	15.2	0.00e+00	0	55	0	354418688	51	5082
2026-01-11 10:44:35.13	198.76	26.06	-40.3	-42.8	15.3	0.00e+00	0	55	0	356515840	51	5008
2026-01-11 10:44:36.14	198.92	26.21	-40.5	-43.1	15.1	0.00e+00	0	55	0	358612992	51	5200
2026-01-11 10:44:37.15	199.07	26.35	-40.5	-43.2	14.9	7.00e-07	0	55	0	359661568	51	5256
2026-01-11 10:44:38.16	199.23	26.50	-40.5	-43.1	15.0	0.00e+00	0	55	0	361758720	51	5216
2026-01-11 10:44:39.17	199.39	26.65	-40.4	-43.1	15.1	0.00e+00	0	55	0	363855872	51	5163
2026-01-11 10:44:40.18	199.55	26.80	-40.5	-43.1	15.1	0.00e+00	0	55	0	365953024	51	5187
2026-01-11 10:44:41.19	199.71	26.95	-40.5	-43.2	15.0	0.00e+00	0	56	0	368050176	51	5241
2026-01-11 10:44:42.20	199.87	27.10	-40.2	-42.7	15.4	0.00e+00	0	55	0	369098752	51	4974
2026-01-11 10:44:43.21	200.04	27.25	-40.5	-43.2	15.1	0.00e+00	0	55	0	371195904	51	5220
2026-01-11 10:44:44.22	200.21	27.40	-40.5	-43.2	15.0	0.00e+00	0	55	0	373293056	51	5239
2026-01-11 10:44:45.23	200.37	27.55	-40.4	-43.0	15.2	0.00e+00	0	55	0	375390208	51	5154
2026-01-11 10:44:46.24	200.54	27.70	-40.5	-43.1	15.0	0.00e+00	0	55	0	377487360	51	5203
2026-01-11 10:44:47.25	200.71	27.85	-40.5	-43.2	14.9	0.00e+00	0	55	0	378535936	52	4947
2026-01-11 10:44:48.26	200.89	28.01	-40.6	-43.4	14.8	0.00e+00	0	55	0	380633088	52	5054
2026-01-11 10:44:49.27	201.06	28.16	-40.7	-43.4	14.7	0.00e+00	0	55	0	382730240	52	5080
2026-01-11 10:44:50.28	201.24	28.32	-40.9	-43.8	14.3	7.00e-07	0	55	0	384827392	52	5298
2026-01-11 10:44:51.28	201.41	28.47	-40.9	-43.9	14.2	0.00e+00	0	55	0	386924544	52	5356
2026-01-11 10:44:52.29	201.59	28.62	-41.0	-44.0	14.2	1.50e-06	0	55	0	387973120	52	5405
2026-01-11 10:44:53.30	201.77	28.78	-41.1	-44.2	14.0	3.00e-06	0	55	0	390070272	53	5232
2026-01-11 10:44:54.31	201.96	28.94	-41.1	-44.2	13.9	4.50e-06	0	56	0	392167424	53	5258
2026-01-11 10:44:55.32	202.14	29.09	-41.5	-44.9	13.2	1.29e-05	0	55	0	394264576	53	5680
2026-01-11 10:44:56.33	202.33	29.25	-41.7	-45.3	12.8	4.27e-05	0	55	0	396361728	54	5617
2026-01-11 10:44:57.34	202.51	29.41	-41.8	-45.3	12.9	4.34e-05	0	56	0	397410304	54	5631
2026-01-11 10:44:58.35	202.70	29.57	-41.8	-45.4	12.6	9.99e-05	0	55	0	399507456	54	5716
2026-01-11 10:44:59.36	202.90	29.73	-41.9	-45.6	12.5	1.45e-04	0	56	0	401604608	54	5849
2026-01-11 10:45:00.37	203.09	29.89	-41.8	-45.4	12.7	1.17e-04	0	56	0	403701760	54	5685
2026-01-11 10:45:01.38	203.28	30.05	-41.8	-45.4	12.8	4.19e-05	0	55	0	405798912	54	5681
2026-01-11 10:45:02.39	203.48	30.21	-41.8	-45.3	12.9	4.57e-05	0	55	0	406847488	54	5613
2026-01-11 10:45:03.40	203.68	30.37	-41.6	-45.1	13.1	2.82e-05	0	56	0	408944640	54	5480
2026-01-11 10:45:04.40	203.88	30.53	-41.6	-45.0	13.1	4.95e-05	0	56	0	411041792	54	5420
2026-01-11 10:45:05.41	204.08	30.69	-41.7	-45.1	13.0	4.27e-05	0	56	0	413138944	54	5518
2026-01-11 10:45:06.42	204.29	30.86	-41.7	-45.1	13.1	3.73e-05	0	56	0	415236096	54	5493
2026-01-11 10:45:07.43	204.50	31.02	-41.6	-45.0	13.2	1.83e-05	0	56	0	417333248	54	5422
2026-01-11 10:45:08.44	204.71	31.19	-41.4	-44.6	13.6	9.10e-06	0	56	0	418381824	54	5193
2026-01-11 10:45:09.45	204.92	31.35	-41.3	-44.4	13.7	1.29e-05	0	55	0	420478976	54	5094
2026-01-11 10:45:10.46	205.13	31.52	-41.5	-44.8	13.4	9.10e-06	0	55	0	422576128	54	5312
2026-01-11 10:45:11.47	205.35	31.68	-41.4	-44.7	13.5	1.60e-05	0	55	0	424673280	54	5234
2026-01-11 10:45:12.48	205.56	31.85	-41.5	-44.8	13.4	1.06e-05	0	56	0	426770432	54	5329
2026-01-11 10:45:13.49	205.78	32.01	-41.6	-45.0	13.2	1.29e-05	0	56	0	427819008	54	5415
2026-01-11 10:45:14.50	206.01	32.18	-41.6	-44.9	13.3	1.37e-05	0	56	0	429916160	54	5381
2026-01-11 10:45:15.51	206.23	32.35	-41.4	-44.6	13.5	4.57e-05	0	56	0	432013312	54	5208
2026-01-11 10:45:16.52	206.46	32.52	-41.3	-44.4	13.7	7.60e-06	0	56	0	434110464	54	5094
2026-01-11 10:45:17.53	206.69	32.69	-41.1	-44.1	14.1	7.00e-07	0	56	0	436207616	54	4874
2026-01-11 10:45:18.54	206.92	32.85	-40.9	-43.8	14.4	3.00e-06	0	56	0	437256192	53	4995
2026-01-11 10:45:19.55	207.15	33.02	-40.7	-43.5	14.8	0.00e+00	0	56	0	439353344	53	4819
2026-01-11 10:45:20.56	207.39	33.19	-40.3	-42.7	15.5	7.00e-07	0	55	0	441450496	52	4705
2026-01-11 10:45:21.57	207.63	33.36	-40.5	-43.1	15.2	0.00e+00	0	56	0	443547648	52	4883
2026-01-11 10:45:22.58	207.87	33.54	-40.6	-43.2	15.0	0.00e+00	0	56	0	445644800	52	4961
2026-01-11 10:45:23.59	208.11	33.71	-40.8	-43.6	14.6	0.00e+00	0	56	0	446693376	52	5186
2026-01-11 10:45:24.60	208.36	33.88	-41.0	-44.0	14.2	7.00e-07	0	55	0	448790528	52	5412
2026-01-11 10:45:25.61	208.61	34.05	-41.2	-44.2	13.9	2.20e-06	0	56	0	450887680	52	5584
2026-01-11 10:45:26.62	208.86	34.22	-41.1	-44.1	14.2	2.20e-06	0	56	0	452984832	53	5168
2026-01-11 10:45:27.63	209.11	34.39	-41.0	-43.9	14.4	7.00e-07	0	56	0	455081984	53	5045
2026-01-11 10:45:28.64	209.37	34.57	-41.1	-44.2	14.1	7.00e-07	0	56	0	456130560	53	5224
2026-01-11 10:45:29.65	209.63	34.74	-40.9	-43.7	14.5	0.00e+00	0	55	0	458227712	53	4955
2026-01-11 10:45:30.65	209.89	34.91	-40.8	-43.6	14.6	7.00e-07	0	56	0	460324864	53	4918
2026-01-11 10:45:31.66	210.15	35.09	-40.7	-43.4	14.8	0.00e+00	0	56	0	462422016	52	5099
2026-01-11 10:45:32.67	210.42	35.26	-40.7	-43.4	14.8	7.00e-07	0	56	0	464519168	52	5055
2026-01-11 10:45:33.68	210.69	35.44	-40.5	-43.1	15.1	0.00e+00	0	56	0	465567744	52	4908
2026-01-11 10:45:34.69	210.96	35.61	-40.8	-43.6	14.6	0.00e+00	0	56	0	467664896	52	5196
2026-01-11 10:45:35.70	211.24	35.78	-41.0	-44.0	14.3	0.00e+00	0	56	0	469762048	52	5418
2026-01-11 10:45:36.71	211.52	35.96	-40.9	-43.8	14.4	2.20e-06	0	56	0	471859200	53	4984
2026-01-11 10:45:37.72	211.80	36.14	-41.1	-44.1	14.0	0.00e+00	0	56	0	473956352	53	5190
2026-01-11 10:45:38.73	212.09	36.31	-41.0	-43.9	14.3	2.20e-06	0	56	0	475004928	53	5048
2026-01-11 10:45:39.74	212.37	36.49	-40.8	-43.6	14.5	3.00e-06	0	56	0	477102080	53	4922
2026-01-11 10:45:40.75	212.66	36.66	-40.7	-43.5	14.8	0.00e+00	0	56	0	479199232	53	4818
2026-01-11 10:45:41.76	212.96	36.84	-40.6	-43.2	15.1	0.00e+00	0	56	0	481296384	52	4959
2026-01-11 10:45:42.77	213.26	37.01	-40.6	-43.3	15.0	7.00e-07	0	56	0	483393536	52	5016
2026-01-11 10:45:43.78	213.56	37.19	-40.5	-43.2	15.1	0.00e+00	0	56	0	485490688	52	4944
2026-01-11 10:45:44.79	213.86	37.37	-40.3	-42.9	15.3	0.00e+00	0	56	0	486539264	52	4795
2026-01-11 10:45:45.80	214.17	37.54	-40.2	-42.7	15.5	0.00e+00	0	56	0	488636416	52	4687
2026-01-11 10:45:46.81	214.48	37.72	-40.0	-42.4	15.9	0.00e+00	0	56	0	490733568	52	4501
2026-01-11 10:45:47.81	214.79	37.89	-40.1	-42.5	15.8	0.00e+00	0	56	0	492830720	51	4854
2026-01-11 10:45:48.82	215.10	38.07	-40.0	-42.3	16.1	0.00e+00	0	56	0	494927872	51	4743
2026-01-11 10:45:49.83	215.43	38.25	-40.0	-42.4	15.9	0.00e+00	0	56	0	495976448	51	4796
2026-01-11 10:45:50.84	215.75	38.42	-39.9	-42.1	16.2	0.00e+00	0	56	0	498073600	51	4643
2026-01-11 10:45:51.85	216.08	38.60	-39.8	-42.1	16.2	0.00e+00	0	56	0	500170752	51	4621
2026-01-11 10:45:52.86	216.41	38.77	-39.7	-41.9	16.4	0.00e+00	0	56	0	502267904	51	4502
2026-01-11 10:45:53.87	216.74	38.95	-39.8	-42.0	16.3	0.00e+00	0	56	0	504365056	51	4584
2026-01-11 10:45:54.88	217.08	39.13	-39.8	-42.0	16.3	0.00e+00	0	56	0	505413632	51	4562
2026-01-11 10:45:55.89	217.42	39.30	-39.8	-42.1	16.2	0.00e+00	0	56	0	507510784	51	4626
2026-01-11 10:45:56.90	217.77	39.48	-40.0	-42.3	16.0	0.00e+00	0	56	0	509607936	51	4746
2026-01-11 10:45:57.91	218.11	39.65	-40.0	-42.3	16.0	0.00e+00	0	56	0	511705088	51	4745
2026-01-11 10:45:58.92	218.47	39.83	-40.1	-42.5	15.9	0.00e+00	0	56	0	513802240	51	4821
2026-01-11 10:45:59.93	218.82	40.00	-40.1	-42.5	15.8	0.00e+00	0	56	0	514850816	51	4870
2026-01-11 10:46:00.94	219.18	40.17	-40.4	-42.9	15.5	0.00e+00	0	56	0	516947968	51	5079
2026-01-11 10:46:01.95	219.55	40.35	-40.4	-42.9	15.5	0.00e+00	0	56	0	519045120	51	5057
2026-01-11 10:46:02.96	219.91	40.52	-40.1	-42.5	15.8	0.00e+00	0	56	0	521142272	51	4830
2026-01-11 10:46:03.97	220.29	40.69	-40.4	-42.9	15.4	0.00e+00	0	56	0	523239424	51	5075
2026-01-11 10:46:04.97	220.66	40.86	-40.7	-43.4	14.9	7.00e-07	0	56	0	524288000	52	5086
2026-01-11 10:46:05.98	221.04	41.04	-40.9	-43.8	14.4	7.00e-07	0	56	0	526385152	52	5329
2026-01-11 10:46:06.99	221.42	41.21	-40.8	-43.6	14.7	0.00e+00	0	56	0	528482304	52	5160
2026-01-11 10:46:08.00	221.81	41.38	-40.5	-43.2	15.0	7.00e-07	0	56	0	530579456	52	4969
2026-01-11 10:46:09.01	222.20	41.55	-40.2	-42.6	15.6	0.00e+00	0	56	0	532676608	52	4640
2026-01-11 10:46:10.02	222.59	41.71	-39.9	-42.2	16.1	0.00e+00	0	56	0	533725184	51	4692
2026-01-11 10:46:11.03	222.99	41.88	-39.8	-42.0	16.3	0.00e+00	0	56	0	535822336	51	4584
2026-01-11 10:46:12.04	223.40	42.05	-40.1	-42.4	15.9	0.00e+00	0	56	0	537919488	51	4794
2026-01-11 10:46:13.05	223.81	42.22	-40.4	-43.0	15.3	0.00e+00	0	56	0	540016640	51	5138
2026-01-11 10:46:14.06	224.22	42.38	-40.4	-43.0	15.4	0.00e+00	0	56	0	542113792	51	5111
2026-01-11 10:46:15.06	224.63	42.55	-40.0	-42.3	16.0	0.00e+00	0	56	0	543162368	51	4727
2026-01-11 10:46:16.07	225.05	42.71	-39.5	-41.6	16.7	0.00e+00	0	56	0	545259520	50	4620
2026-01-11 10:46:17.08	225.47	42.87	-39.3	-41.3	17.0	0.00e+00	0	56	0	547356672	50	4486
2026-01-11 10:46:18.09	225.90	43.03	-39.5	-41.6	16.7	0.00e+00	0	56	0	549453824	50	4610
2026-01-11 10:46:19.10	226.34	43.20	-39.8	-42.1	16.3	0.00e+00	0	56	0	551550976	50	4880
2026-01-11 10:46:20.11	226.77	43.35	-40.1	-42.4	15.9	0.00e+00	0	56	0	553648128	50	5065
2026-01-11 10:46:21.12	227.22	43.51	-40.4	-43.0	15.4	0.00e+00	0	56	0	554696704	51	5120
2026-01-11 10:46:22.13	227.66	43.67	-40.6	-43.3	15.1	0.00e+00	0	56	0	556793856	51	5309
2026-01-11 10:46:23.14	228.11	43.83	-40.7	-43.5	14.9	0.00e+00	0	56	0	558891008	52	5122
2026-01-11 10:46:24.15	228.57	43.98	-40.6	-43.3	15.1	0.00e+00	0	56	0	560988160	52	4995
2026-01-11 10:46:25.16	229.03	44.13	-40.3	-42.8	15.5	0.00e+00	0	56	0	563085312	52	4713
2026-01-11 10:46:26.17	229.49	44.29	-40.1	-42.5	15.8	0.00e+00	0	56	0	564133888	51	4823
2026-01-11 10:46:27.18	229.96	44.44	-40.1	-42.5	15.8	0.00e+00	0	56	0	566231040	51	4858
2026-01-11 10:46:28.19	230.43	44.59	-40.5	-43.1	15.4	0.00e+00	0	56	0	568328192	51	5161
2026-01-11 10:46:29.20	230.91	44.73	-40.5	-43.0	15.4	0.00e+00	0	56	0	570425344	51	5111
2026-01-11 10:46:30.21	231.39	44.88	-40.3	-42.7	15.6	0.00e+00	0	56	0	572522496	51	4969
2026-01-11 10:46:31.21	231.87	45.02	-40.4	-42.9	15.4	0.00e+00	0	56	0	573571072	51	5098
2026-01-11 10:46:32.22	232.36	45.16	-40.7	-43.4	14.9	0.00e+00	0	56	0	575668224	52	5077
2026-01-11 10:46:33.23	232.85	45.30	-40.5	-43.1	15.2	0.00e+00	0	56	0	577765376	52	4894
2026-01-11 10:46:34.24	233.35	45.44	-40.7	-43.4	14.9	0.00e+00	0	56	0	579862528	52	5056
2026-01-11 10:46:35.25	233.85	45.58	-40.8	-43.6	14.7	0.00e+00	0	56	0	581959680	52	5203
2026-01-11 10:46:36.26	234.36	45.71	-41.5	-44.7	13.6	7.00e-07	0	56	0	583008256	53	5571
2026-01-11 10:46:37.27	234.87	45.85	-41.4	-44.5	13.7	9.90e-06	0	56	0	585105408	53	5442
2026-01-11 10:46:38.28	235.38	45.98	-40.9	-43.7	14.5	2.20e-06	0	56	0	587202560	53	4983
2026-01-11 10:46:39.29	235.90	46.11	-40.6	-43.3	15.0	7.00e-07	0	56	0	589299712	53	4712
2026-01-11 10:46:40.30	236.43	46.23	-41.2	-44.2	14.2	7.00e-07	0	56	0	591396864	53	5233
2026-01-11 10:46:41.31	236.96	46.36	-41.7	-45.1	13.2	1.98e-05	0	56	0	592445440	54	5505
2026-01-11 10:46:42.32	237.49	46.48	-42.2	-46.0	12.2	1.67e-04	0	56	0	594542592	55	5766
2026-01-11 10:46:43.33	238.02	46.60	-42.1	-45.9	12.3	1.31e-04	0	56	0	596639744	55	5688
2026-01-11 10:46:44.34	238.56	46.72	-42.4	-46.4	11.8	2.81e-04	0	56	0	598736896	55	6002
2026-01-11 10:46:45.35	239.11	46.83	-42.2	-46.0	12.1	4.23e-04	0	56	0	600834048	55	5763
2026-01-11 10:46:46.36	239.66	46.94	-42.4	-46.5	11.7	8.19e-04	0	56	0	601882624	55	6075
2026-01-11 10:46:47.37	240.21	47.05	-41.8	-45.3	12.9	1.33e-04	0	56	0	603979776	55	5324
2026-01-11 10:46:48.38	240.76	47.16	-41.6	-44.9	13.4	7.09e-05	0	56	0	606076928	55	5069
2026-01-11 10:46:49.39	241.32	47.27	-41.5	-44.8	13.4	9.90e-06	0	56	0	608174080	55	5005
2026-01-11 10:46:50.40	241.88	47.37	-41.6	-44.9	13.3	1.75e-05	0	56	0	610271232	54	5389
2026-01-11 10:46:51.40	242.45	47.47	-42.2	-46.0	12.3	2.44e-05	0	56	0	611319808	54	6062
2026-01-11 10:46:52.41	243.02	47.56	-42.6	-46.9	11.4	3.62e-04	0	56	0	613416960	55	6352
2026-01-11 10:46:53.42	243.59	47.66	-42.6	-46.9	11.3	1.22e-03	0	56	0	615514112	55	6399
2026-01-11 10:46:54.43	244.17	47.75	-42.8	-47.1	11.1	1.80e-03	0	56	0	617611264	56	6196
2026-01-11 10:46:55.44	244.75	47.83	-42.9	-47.4	11.0	8.82e-04	0	56	0	619708416	56	6378
2026-01-11 10:46:56.45	245.33	47.92	-42.8	-47.3	11.1	2.84e-03	0	56	0	621805568	56	6314
2026-01-11 10:46:57.46	245.92	48.00	-42.7	-46.9	11.4	2.09e-03	0	56	0	622854144	56	6061
2026-01-11 10:46:58.47	246.50	48.08	-42.1	-45.7	12.8	2.60e-04	0	56	0	624951296	56	5235
2026-01-11 10:46:59.48	247.10	48.16	-41.6	-44.8	13.4	4.04e-05	0	56	0	627048448	55	5015
2026-01-11 10:47:00.49	247.69	48.23	-41.9	-45.4	12.9	2.97e-05	0	56	0	629145600	55	5364
2026-01-11 10:47:01.50	248.29	48.30	-42.2	-46.0	12.3	6.94e-05	0	56	0	630194176	55	5742
2026-01-11 10:47:02.51	248.89	48.36	-42.1	-45.8	12.5	2.34e-04	0	56	0	632291328	55	5599
2026-01-11 10:47:03.51	249.49	48.43	-41.9	-45.4	12.8	7.70e-05	0	56	0	634388480	55	5362
2026-01-11 10:47:04.53	250.10	48.49	-41.4	-44.5	13.8	2.89e-05	0	56	0	636485632	54	5119
2026-01-11 10:47:05.54	250.71	48.54	-41.3	-44.4	13.8	3.80e-06	0	56	0	638582784	54	5054
2026-01-11 10:47:06.55	251.32	48.60	-41.6	-44.9	13.4	9.10e-06	0	56	0	639631360	54	5381
2026-01-11 10:47:07.56	251.93	48.65	-41.8	-45.3	13.0	3.81e-05	0	56	0	641728512	54	5641
2026-01-11 10:47:08.56	252.53	48.69	-41.3	-44.4	13.9	1.90e-05	0	56	0	643825664	54	5069
2026-01-11 10:47:09.57	253.15	48.74	-41.2	-44.1	14.1	2.20e-06	0	56	0	645922816	53	5218
2026-01-11 10:47:10.58	253.77	48.77	-41.0	-43.9	14.4	0.00e+00	0	56	0	648019968	53	5055
2026-01-11 10:47:11.59	254.39	48.81	-41.3	-44.4	13.8	0.00e+00	0	56	0	650117120	53	5366
2026-01-11 10:47:12.60	255.01	48.84	-41.3	-44.3	14.0	3.80e-06	0	56	0	651165696	53	5333
2026-01-11 10:47:13.61	255.63	48.87	-40.8	-43.5	14.8	1.50e-06	0	56	0	653262848	53	4843
2026-01-11 10:47:14.62	256.25	48.90	-40.5	-43.1	15.1	0.00e+00	0	56	0	655360000	53	4650
2026-01-11 10:47:15.63	256.87	48.92	-40.7	-43.5	14.9	0.00e+00	0	56	0	657457152	53	4837
2026-01-11 10:47:16.64	257.49	48.94	-40.6	-43.3	15.0	0.00e+00	0	57	0	659554304	53	4721
2026-01-11 10:47:17.64	258.11	48.95	-40.5	-43.2	15.1	0.00e+00	0	56	0	660602880	53	4659
2026-01-11 10:47:18.65	258.74	48.96	-40.1	-42.6	15.7	0.00e+00	0	56	0	662700032	52	4610
2026-01-11 10:47:19.66	259.36	48.97	-40.2	-42.7	15.6	0.00e+00	0	56	0	664797184	52	4687
2026-01-11 10:47:20.67	259.99	48.98	-41.0	-43.9	14.4	0.00e+00	0	56	0	666894336	52	5378
2026-01-11 10:47:21.68	260.61	48.98	-41.2	-44.3	14.0	2.20e-06	0	56	0	668991488	53	5322
2026-01-11 10:47:22.69	261.24	48.97	-41.0	-43.9	14.4	3.00e-06	0	56	0	670040064	53	5042
2026-01-11 10:47:23.70	261.86	48.97	-40.9	-43.8	14.6	0.00e+00	0	56	0	672137216	53	4995
2026-01-11 10:47:24.71	262.49	48.96	-41.3	-44.4	13.9	7.00e-07	0	56	0	674234368	53	5348
2026-01-11 10:47:25.72	263.11	48.94	-41.1	-44.0	14.3	3.00e-06	0	56	0	676331520	53	5128
2026-01-11 10:47:26.73	263.74	48.92	-40.4	-42.9	15.3	0.00e+00	0	56	0	678428672	52	4808
2026-01-11 10:47:27.74	264.36	48.90	-40.0	-42.3	15.9	0.00e+00	0	56	0	679477248	52	4486
2026-01-11 10:47:28.75	264.98	48.88	-40.0	-42.3	16.1	0.00e+00	0	56	0	681574400	51	4744
2026-01-11 10:47:29.76	265.60	48.85	-40.6	-43.2	15.3	0.00e+00	0	56	0	683671552	51	5256
2026-01-11 10:47:30.77	266.22	48.82	-41.0	-43.8	14.5	0.00e+00	0	56	0	685768704	52	5320
2026-01-11 10:47:31.78	266.84	48.78	-41.6	-44.9	13.5	2.20e-06	0	56	0	687865856	53	5677
2026-01-11 10:47:32.80	267.46	48.74	-42.2	-46.2	12.1	1.58e-04	0	56	0	688914432	55	5856
2026-01-11 10:47:33.80	268.07	48.70	-42.4	-46.5	11.7	4.41e-04	0	56	0	691011584	55	6091
2026-01-11 10:47:34.81	268.69	48.66	-42.2	-46.1	12.1	4.06e-04	0	56	0	693108736	55	5828
2026-01-11 10:47:35.82	269.30	48.61	-42.4	-46.4	11.9	2.30e-04	0	56	0	695205888	55	6028
2026-01-11 10:47:36.83	269.91	48.56	-42.6	-46.9	11.2	5.88e-04	0	56	0	697303040	55	6398
2026-01-11 10:47:37.84	270.51	48.50	-43.2	-48.1	10.2	1.91e-03	0	56	0	698351616	57	6548
2026-01-11 10:47:38.85	271.12	48.44	-43.5	-49.1	9.2	1.45e-02	0	56	0	700448768	57	7309
2026-01-11 10:47:39.86	271.72	48.38	-43.3	-48.5	9.8	1.20e-02	0	56	0	702545920	57	6831
2026-01-11 10:47:40.87	272.32	48.31	-42.1	-45.6	12.7	8.11e-04	0	56	0	704643072	56	5188
2026-01-11 10:47:41.88	272.92	48.24	-41.5	-44.8	13.5	2.28e-05	0	56	0	706740224	55	4996
2026-01-11 10:47:42.89	273.52	48.17	-41.7	-45.1	13.2	8.30e-06	0	56	0	707788800	54	5498
2026-01-11 10:47:43.90	274.11	48.10	-41.4	-44.5	13.7	1.06e-05	0	56	0	709885952	54	5131
2026-01-11 10:47:44.91	274.70	48.02	-41.1	-43.9	14.4	2.20e-06	0	56	0	711983104	54	4809
2026-01-11 10:47:45.92	275.28	47.94	-41.2	-44.2	14.0	7.01e-05	0	56	0	714080256	53	5257
2026-01-11 10:47:46.93	275.87	47.85	-42.1	-45.9	12.3	2.95e-04	0	56	0	716177408	54	6038
2026-01-11 10:47:47.94	276.45	47.77	-42.5	-46.8	11.4	1.26e-03	0	56	0	718274560	55	6283
2026-01-11 10:47:48.95	277.02	47.68	-42.4	-46.5	11.6	2.51e-03	0	56	0	719323136	55	6066
2026-01-11 10:47:49.96	277.60	47.58	-42.2	-46.1	12.1	1.68e-03	0	56	0	721420288	55	5854
2026-01-11 10:47:50.97	278.17	47.49	-42.0	-45.7	12.3	1.66e-03	0	56	0	723517440	55	5582
2026-01-11 10:47:51.98	278.73	47.39	-41.5	-44.7	13.4	2.99e-04	0	57	0	725614592	55	4980
2026-01-11 10:47:52.99	279.30	47.29	-41.7	-45.2	13.0	2.47e-04	0	57	0	727711744	54	5570
2026-01-11 10:47:54.00	279.85	47.19	-42.6	-47.1	11.0	1.93e-03	0	56	0	728760320	55	6532
2026-01-11 10:47:55.01	280.41	47.08	-43.5	-49.3	8.9	3.24e-02	0	57	0	730857472	57	7540
2026-01-11 10:47:56.02	280.96	46.97	-43.2	-48.3	9.9	2.65e-02	0	56	0	732954624	57	6683
2026-01-11 10:47:57.03	281.51	46.86	-42.5	-46.5	11.7	3.45e-03	0	56	0	735051776	56	5777
2026-01-11 10:47:58.04	282.05	46.74	-42.2	-45.9	12.3	1.45e-03	0	56	0	737148928	56	5397
2026-01-11 10:47:59.04	282.59	46.63	-42.6	-46.8	11.5	2.19e-03	0	56	0	738197504	56	5976
2026-01-11 10:48:00.05	283.12	46.51	-42.4	-46.4	11.9	2.50e-03	0	57	0	740294656	56	5662
2026-01-11 10:48:01.06	283.65	46.39	-41.6	-44.9	13.2	2.08e-03	0	56	0	742391808	55	5090
2026-01-11 10:48:02.07	284.18	46.27	-40.8	-43.6	14.5	1.04e-04	0	56	0	744488960	53	4883
2026-01-11 10:48:03.08	284.71	46.14	-41.0	-44.0	14.1	9.46e-05	0	57	0	746586112	53	5139
2026-01-11 10:48:04.09	285.22	46.01	-41.9	-45.6	12.6	3.42e-04	0	57	0	747634688	54	5817
2026-01-11 10:48:05.10	285.74	45.88	-43.3	-48.7	9.5	1.20e-02	0	56	0	749731840	57	7002
2026-01-11 10:48:06.11	286.25	45.75	-42.9	-47.6	10.6	1.37e-02	0	57	0	751828992	57	6165
2026-01-11 10:48:07.12	286.76	45.62	-41.2	-44.3	13.8	1.62e-03	0	56	0	753926144	54	5004
2026-01-11 10:48:08.13	287.26	45.48	-40.5	-43.1	15.0	1.24e-04	0	56	0	756023296	52	4926
2026-01-11 10:48:09.14	287.76	45.34	-40.8	-43.6	14.5	9.99e-05	0	57	0	757071872	52	5216
2026-01-11 10:48:10.15	288.25	45.20	-41.4	-44.8	13.2	5.00e-04	0	56	0	759169024	53	5598
2026-01-11 10:48:11.16	288.74	45.06	-41.3	-44.6	13.4	7.68e-04	0	57	0	761266176	53	5465
2026-01-11 10:48:12.17	289.23	44.92	-40.4	-43.1	15.2	1.44e-04	0	56	0	763363328	52	4878
2026-01-11 10:48:13.18	289.71	44.77	-39.9	-42.2	15.9	2.21e-05	0	57	0	765460480	51	4689
2026-01-11 10:48:14.19	290.18	44.63	-40.2	-42.6	15.6	9.10e-06	0	57	0	766509056	51	4920
2026-01-11 10:48:15.20	290.65	44.48	-40.6	-43.3	14.8	9.84e-05	0	56	0	768606208	52	5034
2026-01-11 10:48:16.20	291.12	44.33	-40.7	-43.4	14.7	1.56e-04	0	56	0	770703360	52	5098
2026-01-11 10:48:17.21	291.58	44.18	-40.0	-42.4	15.8	5.49e-05	0	56	0	772800512	52	4505
2026-01-11 10:48:18.23	292.04	44.03	-39.0	-41.0	17.2	0.00e+00	0	56	0	774897664	50	4319
2026-01-11 10:48:19.24	292.50	43.87	-39.0	-41.0	17.3	0.00e+00	0	56	0	775946240	49	4562
2026-01-11 10:48:20.25	292.95	43.72	-39.9	-42.2	16.1	0.00e+00	0	56	0	778043392	50	4976
2026-01-11 10:48:21.26	293.40	43.56	-39.9	-42.3	16.1	0.00e+00	0	56	0	780140544	51	4722
2026-01-11 10:48:22.27	293.84	43.41	-39.4	-41.5	16.8	0.00e+00	0	56	0	782237696	50	4581
2026-01-11 10:48:23.28	294.27	43.25	-38.5	-40.4	17.9	0.00e+00	0	56	0	784334848	49	4249
2026-01-11 10:48:24.29	294.71	43.09	-39.0	-41.0	17.3	0.00e+00	0	56	0	786432000	48	4836
2026-01-11 10:48:25.30	295.14	42.93	-39.8	-42.1	16.3	0.00e+00	0	56	0	787480576	50	4877
2026-01-11 10:48:26.31	295.56	42.76	-40.4	-42.9	15.4	0.00e+00	0	56	0	789577728	51	5086
2026-01-11 10:48:27.32	295.98	42.60	-39.8	-42.0	16.2	0.00e+00	0	56	0	791674880	51	4598
2026-01-11 10:48:28.33	296.40	42.44	-38.8	-40.8	17.5	0.00e+00	0	56	0	793772032	49	4458
2026-01-11 10:48:29.34	296.81	42.27	-38.3	-40.1	18.2	0.00e+00	0	56	0	795869184	48	4363
2026-01-11 10:48:30.35	297.22	42.11	-38.5	-40.3	17.9	0.00e+00	0	56	0	796917760	48	4486
2026-01-11 10:48:31.36	297.62	41.94	-39.1	-41.1	17.2	0.00e+00	0	56	0	799014912	48	4897
2026-01-11 10:48:32.37	298.02	41.77	-39.7	-41.9	16.4	0.00e+00	0	56	0	801112064	49	5069
2026-01-11 10:48:33.38	298.41	41.61	-39.5	-41.6	16.8	0.00e+00	0	57	0	803209216	50	4633
2026-01-11 10:48:34.39	298.81	41.44	-39.3	-41.4	17.0	0.00e+00	0	57	0	805306368	50	4494
2026-01-11 10:48:35.40	299.19	41.27	-39.4	-41.4	16.8	0.00e+00	0	56	0	806354944	50	4543
2026-01-11 10:48:36.41	299.58	41.10	-40.4	-42.9	15.4	0.00e+00	0	56	0	808452096	51	5060
2026-01-11 10:48:37.42	299.95	40.93	-41.0	-43.9	14.4	7.00e-07	0	57	0	810549248	52	5355
2026-01-11 10:48:38.43	300.33	40.76	-40.4	-43.1	15.1	0.00e+00	0	56	0	812646400	52	4872
2026-01-11 10:48:39.43	300.70	40.59	-39.9	-42.2	16.1	0.00e+00	0	57	0	814743552	51	4681
2026-01-11 10:48:40.44	301.07	40.41	-39.8	-42.1	16.2	0.00e+00	0	56	0	815792128	51	4632
2026-01-11 10:48:41.45	301.43	40.24	-40.8	-43.5	14.8	7.00e-07	0	56	0	817889280	52	5157
2026-01-11 10:48:42.46	301.79	40.07	-42.1	-46.0	12.3	1.29e-05	0	57	0	819986432	54	6087
2026-01-11 10:48:43.47	302.15	39.90	-43.0	-47.8	10.5	1.20e-03	0	57	0	822083584	56	6701
2026-01-11 10:48:44.48	302.50	39.72	-42.5	-46.5	11.8	8.01e-04	0	57	0	824180736	56	5782
2026-01-11 10:48:45.49	302.85	39.55	-41.6	-45.0	13.3	6.63e-05	0	56	0	825229312	55	5101
2026-01-11 10:48:46.51	303.19	39.37	-40.7	-43.4	14.7	5.30e-06	0	56	0	827326464	53	4788
2026-01-11 10:48:47.52	303.54	39.20	-41.2	-44.3	14.0	7.00e-07	0	57	0	829423616	53	5306
2026-01-11 10:48:48.53	303.87	39.02	-42.2	-46.1	12.1	2.82e-05	0	56	0	831520768	54	6140
2026-01-11 10:48:49.54	304.21	38.85	-43.1	-47.9	10.3	9.62e-04	0	57	0	833617920	56	6774
2026-01-11 10:48:50.55	304.54	38.67	-43.3	-48.6	9.6	1.29e-02	0	56	0	834666496	57	6927
2026-01-11 10:48:51.55	304.86	38.50	-42.8	-47.1	11.1	4.07e-03	0	56	0	836763648	57	5840
2026-01-11 10:48:52.57	305.19	38.32	-42.1	-45.6	12.7	4.29e-04	0	56	0	838860800	56	5205
2026-01-11 10:48:53.58	305.51	38.15	-41.7	-45.1	13.2	1.67e-05	0	56	0	840957952	55	5174
2026-01-11 10:48:54.58	305.82	37.98	-42.0	-45.7	12.6	3.73e-05	0	57	0	843055104	55	5531
2026-01-11 10:48:55.59	306.14	37.80	-43.0	-47.7	10.7	7.70e-04	0	56	0	844103680	56	6611
2026-01-11 10:48:56.60	306.45	37.62	-44.0	-50.9	7.3	8.48e-02	0	56	0	846200832	58	8550
2026-01-11 10:48:57.61	306.75	37.45	-44.3	-52.3	6.1	2.78e-01	0	56	0	848297984	59	9479
2026-01-11 10:48:58.62	307.06	37.27	-44.0	-50.8	7.4	2.23e-01	0	57	0	850395136	59	7913
2026-01-11 10:48:59.63	307.36	37.10	-42.7	-47.0	11.2	2.67e-02	0	56	0	852492288	57	5764
2026-01-11 10:49:00.64	307.66	36.92	-41.7	-45.2	13.1	3.66e-05	0	56	0	854589440	55	5230
2026-01-11 10:49:01.65	307.95	36.75	-41.7	-45.1	13.2	1.14e-05	0	56	0	855638016	55	5167
2026-01-11 10:49:02.66	308.24	36.57	-42.1	-45.9	12.2	5.64e-05	0	56	0	857735168	55	5701
2026-01-11 10:49:03.67	308.53	36.40	-42.9	-47.5	10.8	1.77e-03	0	56	0	859832320	56	6472
2026-01-11 10:49:04.68	308.81	36.22	-43.6	-49.5	8.7	1.29e-02	0	57	0	861929472	57	7644
2026-01-11 10:49:05.68	309.09	36.05	-44.1	-51.4	6.9	7.99e-02	0	56	0	864026624	58	9005
2026-01-11 10:49:06.69	309.37	35.88	-43.7	-49.9	8.4	1.04e-01	0	56	0	865075200	58	7596
2026-01-11 10:49:07.70	309.65	35.70	-42.8	-47.2	11.1	6.99e-03	0	56	0	867172352	57	5879
2026-01-11 10:49:08.71	309.92	35.53	-42.3	-46.2	12.1	7.22e-04	0	56	0	869269504	56	5573
2026-01-11 10:49:09.72	310.19	35.36	-42.1	-45.7	12.6	1.43e-04	0	56	0	871366656	56	5274
2026-01-11 10:49:10.73	310.46	35.18	-42.1	-45.7	12.6	7.70e-05	0	57	0	873463808	56	5262
2026-01-11 10:49:11.74	310.72	35.01	-42.4	-46.4	12.0	2.20e-04	0	57	0	874512384	56	5658
2026-01-11 10:49:12.75	310.99	34.84	-42.6	-46.9	11.4	1.09e-03	0	57	0	876609536	56	6034
2026-01-11 10:49:13.76	311.25	34.67	-42.7	-47.2	11.2	1.51e-03	0	57	0	878706688	56	6220
2026-01-11 10:49:14.77	311.50	34.49	-42.3	-46.3	12.0	7.76e-04	0	56	0	880803840	56	5612
2026-01-11 10:49:15.78	311.76	34.32	-41.0	-44.0	14.2	3.66e-05	0	57	0	882900992	54	4839
2026-01-11 10:49:16.79	312.01	34.15	-40.2	-42.7	15.5	0.00e+00	0	57	0	883949568	52	4671
2026-01-11 10:49:17.80	312.26	33.98	-40.1	-42.6	15.6	0.00e+00	0	57	0	886046720	52	4623
2026-01-11 10:49:18.81	312.50	33.81	-40.3	-42.9	15.3	0.00e+00	0	56	0	888143872	52	4770
2026-01-11 10:49:19.82	312.75	33.64	-40.9	-43.7	14.5	7.00e-07	0	57	0	890241024	52	5253
2026-01-11 10:49:20.83	312.99	33.47	-41.4	-44.6	13.6	2.20e-06	0	57	0	892338176	53	5506
2026-01-11 10:49:21.84	313.23	33.30	-41.7	-45.3	12.9	1.67e-05	0	57	0	893386752	54	5602
2026-01-11 10:49:22.85	313.46	33.13	-41.6	-45.0	13.2	4.04e-05	0	56	0	895483904	54	5417
2026-01-11 10:49:23.86	313.70	32.96	-40.8	-43.7	14.5	3.00e-06	0	57	0	897581056	53	4936
2026-01-11 10:49:24.86	313.93	32.80	-40.6	-43.4	14.8	0.00e+00	0	56	0	899678208	52	5048
2026-01-11 10:49:25.88	314.16	32.63	-40.5	-43.2	15.0	0.00e+00	0	56	0	901775360	52	4942
2026-01-11 10:49:26.89	314.39	32.46	-40.6	-43.3	14.9	0.00e+00	0	56	0	902823936	52	4995
2026-01-11 10:49:27.90	314.61	32.29	-41.0	-43.9	14.3	0.00e+00	0	57	0	904921088	52	5378
2026-01-11 10:49:28.91	314.83	32.13	-41.2	-44.2	13.9	7.00e-07	0	57	0	907018240	53	5271
2026-01-11 10:49:29.92	315.05	31.96	-41.5	-45.0	13.2	1.29e-05	0	57	0	909115392	53	5724
2026-01-11 10:49:30.93	315.27	31.80	-41.8	-45.4	12.7	4.80e-05	0	57	0	911212544	54	5702
2026-01-11 10:49:31.94	315.49	31.63	-41.9	-45.6	12.6	1.25e-04	0	57	0	912261120	54	5819
2026-01-11 10:49:32.95	315.70	31.47	-41.4	-44.8	13.4	1.60e-05	0	57	0	914358272	54	5284
2026-01-11 10:49:33.96	315.91	31.30	-40.9	-43.9	14.3	2.20e-06	0	56	0	916455424	53	5078
2026-01-11 10:49:34.96	316.12	31.14	-40.9	-43.9	14.3	2.20e-06	0	57	0	918552576	53	5071
2026-01-11 10:49:35.98	316.33	30.98	-41.1	-44.1	14.0	3.80e-06	0	56	0	920649728	53	5207
2026-01-11 10:49:36.99	316.53	30.81	-41.3	-44.4	13.7	1.50e-06	0	57	0	922746880	53	5401
2026-01-11 10:49:38.00	316.74	30.65	-41.2	-44.4	13.8	1.37e-05	0	57	0	923795456	53	5378
2026-01-11 10:49:39.00	316.94	30.49	-41.3	-44.4	13.7	3.80e-06	0	57	0	925892608	53	5390
2026-01-11 10:49:40.02	317.14	30.33	-41.2	-44.4	13.8	4.50e-06	0	57	0	927989760	53	5346
2026-01-11 10:49:41.03	317.34	30.17	-41.1	-44.1	14.0	3.00e-06	0	57	0	930086912	53	5196
2026-01-11 10:49:42.03	317.53	30.01	-40.9	-43.8	14.3	7.00e-07	0	57	0	932184064	53	5003
2026-01-11 10:49:43.04	317.72	29.85	-40.7	-43.5	14.7	1.50e-06	0	57	0	933232640	53	4831
2026-01-11 10:49:44.05	317.92	29.69	-40.3	-42.9	15.2	0.00e+00	0	57	0	935329792	52	4811
2026-01-11 10:49:45.06	318.11	29.54	-40.2	-42.8	15.4	0.00e+00	0	57	0	937426944	52	4740
2026-01-11 10:49:46.07	318.29	29.38	-40.4	-43.0	15.1	0.00e+00	0	57	0	939524096	52	4844
2026-01-11 10:49:47.08	318.48	29.22	-40.8	-43.6	14.5	0.00e+00	0	56	0	941621248	52	5187
2026-01-11 10:49:48.09	318.67	29.07	-41.2	-44.3	13.9	2.20e-06	0	57	0	942669824	52	5622
2026-01-11 10:49:49.10	318.85	28.91	-41.6	-45.1	13.1	2.67e-05	0	57	0	944766976	53	5812
2026-01-11 10:49:50.11	319.03	28.75	-42.0	-45.8	12.3	1.13e-04	0	56	0	946864128	54	5964
2026-01-11 10:49:51.12	319.21	28.60	-42.0	-45.8	12.3	1.19e-04	0	57	0	948961280	54	5954
2026-01-11 10:49:52.13	319.39	28.45	-42.0	-45.9	12.2	2.99e-04	0	56	0	951058432	54	6036
2026-01-11 10:49:53.14	319.56	28.29	-41.8	-45.4	12.7	2.20e-04	0	57	0	952107008	54	5699
2026-01-11 10:49:54.15	319.74	28.14	-41.5	-44.8	13.4	4.11e-05	0	56	0	954204160	54	5314
2026-01-11 10:49:55.16	319.91	27.99	-41.2	-44.3	13.8	6.10e-06	0	56	0	956301312	54	5026
2026-01-11 10:49:56.17	320.08	27.84	-40.7	-43.5	14.6	2.20e-06	0	57	0	958398464	53	4843
2026-01-11 10:49:57.18	320.25	27.68	-40.6	-43.4	14.8	0.00e+00	0	57	0	960495616	52	5052
2026-01-11 10:49:58.19	320.42	27.53	-40.9	-43.8	14.3	0.00e+00	0	57	0	961544192	52	5313
2026-01-11 10:49:59.20	320.59	27.38	-40.9	-43.8	14.3	2.20e-06	0	56	0	963641344	52	5292
2026-01-11 10:50:00.21	320.75	27.23	-41.1	-44.1	14.0	7.00e-07	0	57	0	965738496	52	5514
2026-01-11 10:50:01.22	320.92	27.09	-41.0	-44.1	14.0	2.20e-06	0	57	0	967835648	52	5489
2026-01-11 10:50:02.23	321.08	26.94	-40.9	-43.8	14.2	0.00e+00	0	57	0	969932800	52	5320
2026-01-11 10:50:03.23	321.24	26.79	-40.6	-43.3	14.7	0.00e+00	0	56	0	970981376	52	5034
2026-01-11 10:50:04.24	321.40	26.64	-40.2	-42.8	15.3	0.00e+00	0	56	0	973078528	52	4739
2026-01-11 10:50:05.25	321.55	26.50	-40.0	-42.4	15.7	0.00e+00	0	56	0	975175680	51	4799
2026-01-11 10:50:06.26	321.71	26.35	-39.8	-42.1	16.0	0.00e+00	0	57	0	977272832	51	4635
2026-01-11 10:50:07.27	321.87	26.21	-39.8	-42.1	16.0	0.00e+00	0	56	0	979369984	51	4636
2026-01-11 10:50:08.28	322.02	26.06	-39.9	-42.2	15.9	0.00e+00	0	56	0	980418560	51	4703
2026-01-11 10:50:09.29	322.17	25.92	-40.2	-42.7	15.4	0.00e+00	0	56	0	982515712	51	4978
2026-01-11 10:50:10.30	322.32	25.77	-40.3	-42.9	15.3	0.00e+00	0	56	0	984612864	51	5053
2026-01-11 10:50:11.31	322.47	25.63	-40.5	-43.1	15.0	0.00e+00	0	56	0	986710016	51	5203
2026-01-11 10:50:12.32	322.62	25.49	-40.6	-43.4	14.6	7.00e-07	0	56	0	988807168	52	5092
2026-01-11 10:50:13.33	322.77	25.34	-41.0	-44.1	14.0	7.00e-07	0	56	0	990904320	52	5496
2026-01-11 10:50:14.34	322.91	25.20	-41.2	-44.3	13.7	0.00e+00	0	57	0	991952896	53	5334
2026-01-11 10:50:15.35	323.06	25.06	-41.4	-44.7	13.4	7.60e-06	0	57	0	994050048	53	5557
2026-01-11 10:50:16.36	323.20	24.92	-41.2	-44.5	13.6	9.90e-06	0	57	0	996147200	53	5403
2026-01-11 10:50:17.37	323.34	24.78	-41.6	-45.1	12.9	9.90e-06	0	56	0	998244352	53	5836
2026-01-11 10:50:18.38	323.49	24.64	-41.5	-44.9	13.1	2.74e-05	0	57	0	1000341504	53	5701
2026-01-11 10:50:19.39	323.63	24.50	-41.3	-44.5	13.5	4.50e-06	0	56	0	1001390080	53	5434
2026-01-11 10:50:20.40	323.76	24.37	-41.6	-45.1	12.9	3.20e-05	0	57	0	1003487232	53	5850
2026-01-11 10:50:21.40	323.90	24.23	-41.5	-45.0	13.0	3.66e-05	0	57	0	1005584384	53	5771
2026-01-11 10:50:22.41	324.04	24.09	-41.7	-45.4	12.6	5.41e-05	0	56	0	1007681536	54	5710
2026-01-11 10:50:23.42	324.17	23.96	-42.0	-46.0	12.0	1.94e-04	0	56	0	1009778688	54	6131
2026-01-11 10:50:24.43	324.30	23.82	-41.9	-45.7	12.3	3.00e-04	0	57	0	1010827264	54	5894
2026-01-11 10:50:25.44	324.44	23.69	-42.1	-46.3	11.7	5.00e-04	0	57	0	1012924416	54	6335
2026-01-11 10:50:26.45	324.57	23.55	-42.0	-46.1	11.9	6.43e-04	0	57	0	1015021568	55	5791
2026-01-11 10:50:27.46	324.70	23.42	-42.0	-45.9	12.1	1.88e-04	0	56	0	1017118720	55	5692
2026-01-11 10:50:28.47	324.83	23.28	-41.8	-45.5	12.4	1.81e-04	0	57	0	1019215872	55	5453
2026-01-11 10:50:29.48	324.96	23.15	-41.4	-44.8	13.2	4.57e-05	0	57	0	1020264448	54	5299
2026-01-11 10:50:30.49	325.09	23.02	-41.5	-45.0	13.0	3.05e-05	0	56	0	1022361600	54	5411
2026-01-11 10:50:31.50	325.21	22.89	-41.5	-44.9	13.0	4.34e-05	0	57	0	1024458752	54	5388
2026-01-11 10:50:32.51	325.34	22.76	-41.7	-45.4	12.4	7.62e-05	0	57	0	1026555904	54	5718
2026-01-11 10:50:33.52	325.46	22.62	-41.9	-45.7	12.3	1.59e-04	0	57	0	1028653056	54	5861
2026-01-11 10:50:34.52	325.58	22.50	-42.2	-46.4	11.6	4.19e-04	0	57	0	1029701632	54	6357
2026-01-11 10:50:35.54	325.71	22.36	-42.2	-46.5	11.4	6.31e-04	0	57	0	1031798784	55	6103
2026-01-11 10:50:36.55	325.83	22.24	-42.2	-46.5	11.4	7.77e-04	0	57	0	1033895936	55	6067
2026-01-11 10:50:37.56	325.95	22.11	-42.2	-46.4	11.5	1.26e-03	0	57	0	1035993088	55	6053
2026-01-11 10:50:38.56	326.07	21.98	-42.0	-46.1	11.8	7.16e-04	0	57	0	1038090240	55	5806
2026-01-11 10:50:39.57	326.19	21.85	-41.8	-45.5	12.5	2.61e-04	0	57	0	1039138816	55	5448
2026-01-11 10:50:40.58	326.30	21.73	-41.7	-45.4	12.5	2.17e-04	0	57	0	1041235968	55	5360
2026-01-11 10:50:41.59	326.42	21.60	-41.1	-44.2	13.7	1.29e-05	0	57	0	1043333120	54	4965
2026-01-11 10:50:42.60	326.54	21.47	-40.9	-44.0	14.0	3.00e-06	0	57	0	1045430272	53	5111
2026-01-11 10:50:43.61	326.65	21.35	-40.4	-43.2	14.8	2.20e-06	0	57	0	1047527424	52	4942
2026-01-11 10:50:44.62	326.76	21.22	-40.2	-42.8	15.1	0.00e+00	0	57	0	1048576000	52	4737
2026-01-11 10:50:45.63	326.88	21.10	-40.1	-42.5	15.5	0.00e+00	0	56	0	1050673152	51	4864
2026-01-11 10:50:46.64	326.99	20.97	-39.5	-41.8	16.3	0.00e+00	0	57	0	1052770304	51	4446
2026-01-11 10:50:47.65	327.10	20.85	-39.5	-41.8	16.2	0.00e+00	0	56	0	1054867456	50	4740
2026-01-11 10:50:48.65	327.21	20.73	-39.7	-42.0	16.0	0.00e+00	0	57	0	1056964608	50	4866
2026-01-11 10:50:49.66	327.32	20.61	-39.6	-41.9	16.1	0.00e+00	0	57	0	1059061760	50	4780
2026-01-11 10:50:50.67	327.43	20.48	-40.0	-42.5	15.6	0.00e+00	0	57	0	1060110336	50	5103
2026-01-11 10:50:51.68	327.54	20.36	-40.0	-42.5	15.5	0.00e+00	0	57	0	1062207488	50	5150
2026-01-11 10:50:52.69	327.64	20.24	-40.3	-43.0	15.0	0.00e+00	0	57	0	1064304640	51	5117
2026-01-11 10:50:53.70	327.75	20.12	-40.8	-43.8	14.1	1.50e-06	0	56	0	1066401792	52	5325
2026-01-11 10:50:54.72	327.86	20.00	-40.9	-44.1	13.8	2.20e-06	0	57	0	1068498944	52	5485
2026-01-11 10:50:55.73	327.96	19.88	-41.2	-44.6	13.3	8.30e-06	0	57	0	1069547520	53	5473
2026-01-11 10:50:56.73	328.06	19.76	-41.4	-44.9	12.9	5.41e-05	0	57	0	1071644672	53	5715
2026-01-11 10:50:57.74	328.17	19.64	-41.6	-45.3	12.7	6.40e-05	0	57	0	1073741824	53	5924
2026-01-11 10:50:58.75	328.27	19.53	-41.9	-45.8	12.0	1.53e-04	0	57	0	1075838976	54	5974
2026-01-11 10:50:59.76	328.37	19.41	-41.8	-45.6	12.2	3.41e-04	0	57	0	1077936128	54	5817
2026-01-11 10:51:00.77	328.47	19.29	-41.7	-45.6	12.3	2.06e-04	0	57	0	1078984704	54	5797
2026-01-11 10:51:01.78	328.57	19.17	-41.9	-45.8	12.1	2.75e-04	0	57	0	1081081856	54	5951
2026-01-11 10:51:02.79	328.67	19.06	-41.7	-45.5	12.3	1.34e-04	0	57	0	1083179008	54	5738
2026-01-11 10:51:03.80	328.77	18.94	-41.5	-45.1	12.8	9.30e-05	0	57	0	1085276160	54	5495
2026-01-11 10:51:04.81	328.87	18.83	-41.4	-45.0	12.8	1.05e-04	0	57	0	1087373312	54	5437
2026-01-11 10:51:05.81	328.97	18.71	-41.3	-44.8	13.1	4.04e-05	0	57	0	1088421888	54	5316
2026-01-11 10:51:06.82	329.06	18.60	-41.2	-44.7	13.2	1.52e-05	0	57	0	1090519040	54	5222
2026-01-11 10:51:07.83	329.16	18.48	-41.0	-44.2	13.6	1.22e-05	0	57	0	1092616192	54	4979
2026-01-11 10:51:08.84	329.25	18.37	-41.0	-44.2	13.6	6.10e-06	0	57	0	1094713344	54	4960
2026-01-11 10:51:09.85	329.35	18.26	-41.2	-44.5	13.3	7.60e-06	0	57	0	1096810496	53	5437
2026-01-11 10:51:10.86	329.44	18.15	-40.9	-44.1	13.6	5.30e-06	0	57	0	1097859072	53	5209
2026-01-11 10:51:11.87	329.54	18.03	-40.8	-43.9	13.9	8.30e-06	0	57	0	1099956224	53	5073
2026-01-11 10:51:12.88	329.63	17.92	-40.9	-44.1	13.7	9.10e-06	0	57	0	1102053376	53	5173
2026-01-11 10:51:13.89	329.72	17.81	-41.0	-44.2	13.6	1.06e-05	0	57	0	1104150528	53	5224
2026-01-11 10:51:14.90	329.81	17.70	-41.1	-44.4	13.4	7.60e-06	0	57	0	1106247680	53	5384
2026-01-11 10:51:15.91	329.90	17.59	-41.1	-44.4	13.3	9.90e-06	0	57	0	1107296256	53	5396
2026-01-11 10:51:16.92	329.99	17.48	-41.3	-44.7	13.0	2.74e-05	0	57	0	1109393408	53	5590
2026-01-11 10:51:17.93	330.08	17.37	-41.5	-45.2	12.6	8.08e-05	0	57	0	1111490560	53	5857
2026-01-11 10:51:18.94	330.17	17.26	-41.6	-45.4	12.3	8.01e-05	0	57	0	1113587712	53	6041
2026-01-11 10:51:19.95	330.26	17.15	-41.6	-45.4	12.3	1.58e-04	0	57	0	1115684864	53	6042
2026-01-11 10:51:20.96	330.35	17.04	-41.6	-45.4	12.3	3.24e-04	0	57	0	1116733440	54	5717
2026-01-11 10:51:21.97	330.43	16.94	-41.8	-45.7	12.0	3.05e-04	0	57	0	1118830592	54	5906
2026-01-11 10:51:22.98	330.52	16.83	-41.9	-46.1	11.5	3.14e-04	0	57	0	1120927744	54	6193
2026-01-11 10:51:23.98	330.61	16.72	-41.9	-46.0	11.7	5.76e-04	0	57	0	1123024896	54	6073
2026-01-11 10:51:24.99	330.69	16.62	-41.8	-45.8	11.9	4.87e-04	0	57	0	1125122048	54	5931
2026-01-11 10:51:26.00	330.78	16.51	-41.8	-45.8	11.9	4.05e-04	0	57	0	1127219200	54	5931
2026-01-11 10:51:27.01	330.86	16.41	-41.8	-45.8	11.8	4.90e-04	0	57	0	1128267776	54	5992
2026-01-11 10:51:28.02	330.94	16.30	-41.7	-45.6	12.1	2.73e-04	0	57	0	1130364928	54	5802
2026-01-11 10:51:29.03	331.03	16.20	-41.7	-45.6	12.1	3.50e-04	0	57	0	1132462080	54	5799
2026-01-11 10:51:30.04	331.11	16.09	-41.7	-45.6	12.0	3.32e-04	0	57	0	1134559232	54	5834
2026-01-11 10:51:31.05	331.19	15.99	-41.5	-45.3	12.3	1.76e-04	0	57	0	1135607808	54	5623
2026-01-11 10:51:32.06	331.27	15.88	-41.5	-45.2	12.4	1.46e-04	0	57	0	1137704960	54	5574
2026-01-11 10:51:33.07	331.35	15.78	-41.3	-44.9	12.7	1.25e-04	0	57	0	1139802112	54	5381
2026-01-11 10:51:34.08	331.43	15.68	-41.3	-44.8	12.8	7.47e-05	0	57	0	1141899264	54	5313
2026-01-11 10:51:35.09	331.51	15.57	-41.3	-44.8	12.9	8.23e-05	0	57	0	1143996416	54	5319
2026-01-11 10:51:36.10	331.59	15.47	-41.0	-44.4	13.3	4.57e-05	0	57	0	1145044992	54	5044
2026-01-11 10:51:37.11	331.67	15.37	-41.1	-44.4	13.2	2.13e-05	0	57	0	1147142144	54	5090
2026-01-11 10:51:38.12	331.75	15.27	-40.9	-44.1	13.5	1.90e-05	0	57	0	1149239296	53	5202
2026-01-11 10:51:39.12	331.83	15.17	-40.9	-44.1	13.5	1.29e-05	0	57	0	1151336448	53	5211
2026-01-11 10:51:40.13	331.90	15.07	-40.9	-44.2	13.4	1.52e-05	0	57	0	1153433600	53	5251
2026-01-11 10:51:41.14	331.98	14.97	-40.8	-43.9	13.6	1.06e-05	0	57	0	1155530752	53	5100
2026-01-11 10:51:42.15	332.06	14.87	-40.7	-43.9	13.7	4.50e-06	0	57	0	1156579328	53	5099
2026-01-11 10:51:43.16	332.13	14.77	-40.7	-43.9	13.7	7.60e-06	0	57	0	1158676480	53	5059
2026-01-11 10:51:44.17	332.21	14.67	-40.6	-43.7	13.8	4.50e-06	0	57	0	1160773632	53	4976
2026-01-11 10:51:45.18	332.28	14.57	-40.6	-43.8	13.7	2.20e-06	0	57	0	1162870784	53	5022
2026-01-11 10:51:46.19	332.36	14.47	-40.7	-43.9	13.6	7.60e-06	0	57	0	1164967936	53	5047
2026-01-11 10:51:47.20	332.43	14.37	-40.7	-43.9	13.6	5.30e-06	0	57	0	1166016512	53	5089
2026-01-11 10:51:48.21	332.51	14.28	-40.8	-44.1	13.3	1.60e-05	0	57	0	1168113664	53	5216
2026-01-11 10:51:49.22	332.58	14.18	-40.6	-44.0	13.5	1.52e-05	0	57	0	1170210816	53	5124
2026-01-11 10:51:50.23	332.65	14.08	-40.6	-44.2	13.3	1.90e-05	0	57	0	1172307968	53	5229
2026-01-11 10:51:51.24	332.72	13.98	-40.5	-44.1	13.3	1.98e-05	0	57	0	1174405120	52	5528
2026-01-11 10:51:52.25	332.80	13.89	-40.6	-44.2	13.3	2.74e-05	0	57	0	1175453696	52	5542
2026-01-11 10:51:53.26	332.87	13.79	-40.8	-44.4	13.1	2.28e-05	0	57	0	1177550848	52	5667
2026-01-11 10:51:54.27	332.94	13.70	-40.8	-44.3	13.1	2.28e-05	0	57	0	1179648000	52	5640
2026-01-11 10:51:55.28	333.01	13.60	-40.9	-44.4	13.0	2.67e-05	0	57	0	1181745152	52	5713
