passes_logs/2026/01/11/R2.0S_Moscow/R2.0S_Moscow__20260111_222055_NOAA_21_JPSS-2_rec.log

#Pass ID: 20260111_222055_NOAA 21 (JPSS-2)
#Satellite: NOAA 21 (JPSS-2)
#Configuration: NOAA-21
#almurnet v.1.7.20251203
#Start time: 2026-01-11 22:20:56

#Version: 2.2.20231116
#Station: R2.0S_Moscow
#Location: 37.707566 lon 55.798166 lat
#TLE: 1 54234U 22150A   26011.27699114  .00000090  00000+0  63771-4 0  9993
#TLE: 2 54234  98.7494 312.2218 0000765 314.9553  45.1561 14.19534106164285

#Time	Az	El	Level	Level2	SNR	BER	BlckErr	Temp	State	Recorded	gain1	gain2
2026-01-11 22:20:56.48	23.77	2.03	-41.6	-54.8	3.9	1.49e+00	0	47	104	0	54	16790
2026-01-11 22:20:57.58	23.84	2.10	-41.6	-54.8	3.9	1.49e+00	0	47	104	0	54	16771
2026-01-11 22:20:58.45	23.89	2.15	-41.6	-54.8	3.9	1.49e+00	0	47	104	0	54	16866
2026-01-11 22:20:59.60	23.96	2.21	-41.5	-54.8	3.9	1.49e+00	0	47	104	0	54	16836
2026-01-11 22:21:00.47	24.02	2.26	-41.6	-54.8	3.9	1.49e+00	0	47	104	0	54	16885
2026-01-11 22:21:01.62	24.09	2.33	-41.6	-54.9	3.9	1.49e+00	0	48	104	0	54	16902
2026-01-11 22:21:02.49	24.15	2.38	-41.6	-54.8	3.9	1.49e+00	0	48	104	0	54	16798
2026-01-11 22:21:03.64	24.22	2.44	-41.7	-54.8	3.9	1.49e+00	0	48	104	0	54	16861
2026-01-11 22:21:04.51	24.28	2.49	-41.7	-54.8	3.8	1.49e+00	0	48	104	0	54	16863
2026-01-11 22:21:05.67	24.35	2.56	-41.7	-54.9	3.9	1.49e+00	0	48	104	0	54	16967
2026-01-11 22:21:06.53	24.41	2.61	-41.6	-54.9	3.8	1.49e+00	0	48	104	0	54	16924
2026-01-11 22:21:07.69	24.49	2.67	-41.6	-54.9	3.8	1.49e+00	0	48	104	0	54	16944
2026-01-11 22:21:08.56	24.54	2.72	-41.9	-55.0	3.8	1.49e+00	0	48	104	0	54	17273
2026-01-11 22:21:09.71	24.62	2.79	-41.9	-55.1	3.8	1.49e+00	0	48	104	0	54	17314
2026-01-11 22:21:10.58	24.68	2.84	-41.9	-55.0	3.8	1.49e+00	0	48	104	0	54	17263
2026-01-11 22:21:11.74	24.75	2.91	-41.9	-55.0	3.8	1.49e+00	0	48	104	0	54	17211
2026-01-11 22:21:12.60	24.81	2.96	-41.9	-55.0	3.8	1.49e+00	0	48	104	0	54	17256
2026-01-11 22:21:13.76	24.89	3.02	-41.9	-55.0	3.8	1.49e+00	0	48	104	0	54	17263
2026-01-11 22:21:14.62	24.95	3.07	-41.9	-55.0	3.8	1.49e+00	0	48	104	0	54	17269
2026-01-11 22:21:15.78	25.02	3.14	-41.9	-55.0	3.8	1.49e+00	0	48	104	0	54	17270
2026-01-11 22:21:16.65	25.08	3.19	-41.9	-55.0	3.8	1.49e+00	0	49	104	0	54	17263
2026-01-11 22:21:17.80	25.16	3.26	-41.9	-55.1	3.8	1.49e+00	0	48	104	0	54	17329
2026-01-11 22:21:18.67	25.22	3.31	-41.9	-55.0	3.8	1.49e+00	0	49	104	0	54	17275
2026-01-11 22:21:19.83	25.30	3.38	-41.9	-55.0	3.8	1.49e+00	0	49	104	0	54	17280
2026-01-11 22:21:20.69	25.36	3.43	-41.9	-55.0	3.8	1.49e+00	0	49	104	0	54	17251
2026-01-11 22:21:21.85	25.44	3.50	-41.9	-55.0	3.8	1.49e+00	0	49	104	0	54	17273
2026-01-11 22:21:22.71	25.50	3.55	-41.9	-55.0	3.8	1.49e+00	0	49	104	0	54	17259
2026-01-11 22:21:23.87	25.58	3.62	-41.9	-55.0	3.8	1.49e+00	0	49	104	0	54	17259
2026-01-11 22:21:24.74	25.64	3.67	-41.9	-55.0	3.8	1.49e+00	0	49	104	0	54	17235
2026-01-11 22:21:25.89	25.72	3.74	-41.9	-55.0	3.8	1.49e+00	0	49	104	0	54	17225
2026-01-11 22:21:26.76	25.78	3.79	-41.9	-55.1	3.8	1.49e+00	0	49	104	0	54	17290
2026-01-11 22:21:27.91	25.86	3.86	-41.9	-55.0	3.8	1.49e+00	0	49	104	0	54	17227
2026-01-11 22:21:28.78	25.92	3.91	-41.9	-55.0	3.8	1.49e+00	0	50	104	0	54	17228
2026-01-11 22:21:29.94	26.01	3.98	-41.9	-55.0	3.8	1.49e+00	0	49	104	0	54	17254
2026-01-11 22:21:30.80	26.07	4.03	-41.9	-55.0	3.8	1.49e+00	0	49	104	0	54	17249
2026-01-11 22:21:31.96	26.15	4.10	-41.8	-55.0	3.8	1.49e+00	0	50	104	0	54	17263
2026-01-11 22:21:32.83	26.21	4.15	-41.9	-55.0	3.8	1.49e+00	0	49	104	0	54	17266
2026-01-11 22:21:33.98	26.30	4.22	-41.9	-55.0	3.8	1.49e+00	0	50	104	0	54	17266
2026-01-11 22:21:34.85	26.36	4.27	-41.9	-55.0	3.8	1.49e+00	0	50	104	0	54	17221
2026-01-11 22:21:36.00	26.44	4.34	-41.9	-55.0	3.8	1.49e+00	0	50	104	0	54	17233
2026-01-11 22:21:36.87	26.51	4.39	-41.9	-55.0	3.8	1.49e+00	0	50	104	0	54	17228
2026-01-11 22:21:38.03	26.59	4.46	-41.9	-55.0	3.8	1.49e+00	0	50	104	0	54	17263
2026-01-11 22:21:38.89	26.65	4.52	-41.9	-55.0	3.8	1.49e+00	0	50	104	0	54	17233
2026-01-11 22:21:40.05	26.74	4.59	-41.9	-55.0	3.8	1.49e+00	0	50	104	0	54	17270
2026-01-11 22:21:40.92	26.80	4.64	-41.9	-55.1	3.8	1.49e+00	0	50	104	0	54	17285
2026-01-11 22:21:42.07	26.89	4.71	-41.9	-55.0	3.8	1.49e+00	0	50	104	0	54	17248
2026-01-11 22:21:42.94	26.95	4.76	-41.9	-55.0	3.8	1.49e+00	0	50	104	0	54	17238
2026-01-11 22:21:44.09	27.04	4.83	-41.9	-55.0	3.8	1.49e+00	0	50	104	0	54	17256
2026-01-11 22:21:44.96	27.11	4.88	-41.9	-55.0	3.8	1.49e+00	0	50	104	0	54	17235
2026-01-11 22:21:46.11	27.19	4.95	-41.9	-55.0	3.8	1.49e+00	0	50	104	0	54	17263
2026-01-11 22:21:46.98	27.26	5.01	-41.9	-55.0	3.8	1.49e+00	0	50	104	0	54	17274
2026-01-11 22:21:48.14	27.35	5.08	-41.9	-55.0	3.8	1.49e+00	0	50	104	0	54	17249
2026-01-11 22:21:49.00	27.41	5.13	-41.9	-55.1	3.8	1.49e+00	0	51	104	0	54	17296
2026-01-11 22:21:50.16	27.50	5.20	-41.9	-55.1	3.8	1.49e+00	0	50	104	0	54	17285
2026-01-11 22:21:51.02	27.57	5.26	-41.9	-55.0	3.8	1.49e+00	0	51	104	0	54	17229
2026-01-11 22:21:52.18	27.66	5.33	-41.9	-55.0	3.8	1.49e+00	0	51	104	0	54	17235
2026-01-11 22:21:53.05	27.73	5.38	-41.9	-55.0	3.8	1.49e+00	0	51	104	0	54	17253
2026-01-11 22:21:54.20	27.82	5.45	-41.9	-55.0	3.8	1.49e+00	0	51	104	0	54	17236
2026-01-11 22:21:55.07	27.88	5.51	-41.9	-55.0	3.8	1.49e+00	0	51	104	0	54	17271
2026-01-11 22:21:56.23	27.97	5.58	-41.9	-55.0	3.8	1.49e+00	0	51	104	0	54	17222
2026-01-11 22:21:57.09	28.04	5.63	-41.9	-55.0	3.8	1.49e+00	0	51	104	0	54	17233
2026-01-11 22:21:58.25	28.13	5.71	-41.9	-55.0	3.8	1.49e+00	0	51	104	0	54	17240
2026-01-11 22:21:59.12	28.20	5.76	-41.9	-55.0	3.8	1.49e+00	0	51	104	0	54	17266
2026-01-11 22:22:00.27	28.30	5.83	-41.8	-55.0	3.8	1.49e+00	0	51	104	0	54	17241
2026-01-11 22:22:01.14	28.37	5.89	-41.9	-55.0	3.8	1.49e+00	0	51	104	0	54	17260
2026-01-11 22:22:02.29	28.46	5.96	-41.9	-55.0	3.8	1.49e+00	0	51	104	0	54	17229
2026-01-11 22:22:03.16	28.53	6.01	-41.9	-55.0	3.8	1.49e+00	0	51	104	0	54	17212
2026-01-11 22:22:04.32	28.62	6.09	-41.9	-55.0	3.8	1.49e+00	0	51	104	0	54	17174
2026-01-11 22:22:05.18	28.69	6.14	-41.9	-55.0	3.8	1.49e+00	0	51	104	0	54	17147
2026-01-11 22:22:06.34	28.79	6.22	-41.9	-55.0	3.8	1.49e+00	0	51	104	0	54	17142
2026-01-11 22:22:07.21	28.86	6.27	-41.9	-55.0	3.8	1.49e+00	0	51	104	0	54	17206
2026-01-11 22:22:08.36	28.96	6.34	-41.9	-55.0	3.8	1.49e+00	0	52	104	0	54	17136
2026-01-11 22:22:09.23	29.03	6.40	-41.9	-54.9	3.8	1.49e+00	0	52	104	0	54	16906
2026-01-11 22:22:10.38	29.12	6.47	-41.8	-54.8	3.8	1.49e+00	0	52	104	0	54	16776
2026-01-11 22:22:11.25	29.20	6.53	-41.8	-54.8	3.8	1.49e+00	0	51	104	0	54	16761
2026-01-11 22:22:12.41	29.29	6.60	-41.9	-54.9	3.8	1.49e+00	0	51	104	0	54	16935
2026-01-11 22:22:13.27	29.37	6.66	-41.9	-54.9	3.8	1.49e+00	0	52	104	0	54	16913
2026-01-11 22:22:14.43	29.46	6.73	-41.8	-54.4	3.8	1.49e+00	0	52	104	0	54	16001
2026-01-11 22:22:15.30	29.54	6.79	-41.9	-54.8	3.8	1.49e+00	0	52	104	0	54	16737
2026-01-11 22:22:16.45	29.64	6.86	-41.8	-54.3	3.8	1.49e+00	0	52	104	0	54	15924
2026-01-11 22:22:17.32	29.71	6.92	-41.8	-54.5	3.8	1.49e+00	0	52	104	0	54	16233
2026-01-11 22:22:18.47	29.81	6.99	-41.8	-53.9	3.8	1.49e+00	0	52	104	0	54	15103
2026-01-11 22:22:19.34	29.89	7.05	-41.8	-54.4	3.8	1.49e+00	0	52	104	0	54	16079
2026-01-11 22:22:20.49	29.99	7.12	-41.8	-54.2	3.8	1.49e+00	0	52	104	0	54	15754
2026-01-11 22:22:21.36	30.06	7.18	-41.8	-54.8	3.8	1.49e+00	0	52	104	0	54	16782
2026-01-11 22:22:22.51	30.16	7.26	-41.6	-52.4	3.9	1.49e+00	0	52	104	0	54	12722
2026-01-11 22:22:23.38	30.24	7.31	-41.4	-50.6	4.5	1.41e+00	4	52	104	0	54	10364
2026-01-11 22:22:24.54	30.34	7.39	-41.0	-48.1	5.9	5.62e-01	0	52	0	1048576	54	7733
2026-01-11 22:22:25.40	30.42	7.44	-40.5	-46.1	7.5	1.64e-01	0	52	0	4194304	52	6934
2026-01-11 22:22:26.56	30.52	7.52	-40.0	-44.8	8.9	2.78e-02	0	52	0	7340032	52	5975
2026-01-11 22:22:27.43	30.60	7.58	-40.1	-45.0	8.8	3.18e-02	0	52	0	10485760	52	6070
2026-01-11 22:22:28.58	30.70	7.65	-39.9	-44.4	9.4	1.85e-02	0	52	0	13631488	51	6049
2026-01-11 22:22:29.45	30.78	7.71	-39.5	-43.6	10.2	7.85e-03	0	52	0	16777216	51	5495
2026-01-11 22:22:30.61	30.89	7.79	-39.1	-42.6	11.2	2.08e-03	0	52	0	19922944	50	5215
2026-01-11 22:22:31.47	30.96	7.84	-38.8	-42.0	11.8	6.77e-04	0	52	0	23068672	49	5151
2026-01-11 22:22:32.63	31.07	7.92	-38.6	-41.9	12.0	2.84e-04	0	52	0	26214400	49	5042
2026-01-11 22:22:33.49	31.15	7.98	-38.8	-42.3	11.6	5.03e-04	0	52	0	29360128	49	5294
2026-01-11 22:22:34.64	31.26	8.05	-39.2	-42.5	11.9	3.21e-04	0	53	0	32505856	49	5459
2026-01-11 22:22:35.51	31.34	8.11	-39.9	-44.3	9.7	1.45e-03	0	53	0	35651584	50	6329
2026-01-11 22:22:36.66	31.44	8.19	-38.8	-41.7	12.4	1.47e+00	0	52	104	35651584	49	4962
2026-01-11 22:22:37.53	31.53	8.25	-40.4	-44.1	10.5	3.89e-03	0	53	0	37748736	51	5795
2026-01-11 22:22:38.68	31.63	8.32	-39.0	-42.1	12.4	6.90e-04	0	53	0	40894464	49	5167
2026-01-11 22:22:39.54	31.71	8.38	-39.1	-42.2	12.2	8.80e-03	0	53	0	44040192	50	4933
2026-01-11 22:22:40.70	31.82	8.46	-38.8	-41.4	13.2	2.44e-05	0	53	0	47185920	49	4790
2026-01-11 22:22:41.56	31.91	8.52	-38.9	-41.6	13.0	3.20e-05	0	53	0	50331648	49	4881
2026-01-11 22:22:42.72	32.02	8.60	-39.1	-41.7	12.9	5.03e-05	0	53	0	53477376	49	4958
2026-01-11 22:22:43.58	32.10	8.65	-39.1	-41.7	12.9	4.27e-05	0	53	0	56623104	49	4980
2026-01-11 22:22:44.73	32.21	8.73	-39.1	-41.7	12.9	4.80e-05	0	53	0	59768832	49	4942
2026-01-11 22:22:45.60	32.30	8.79	-39.2	-41.8	12.8	3.12e-05	0	53	0	62914560	49	5037
2026-01-11 22:22:46.75	32.41	8.87	-39.2	-41.9	12.7	7.62e-05	0	53	0	66060288	49	5069
2026-01-11 22:22:47.62	32.49	8.93	-39.1	-41.8	12.9	5.72e-05	0	53	0	69206016	49	4990
2026-01-11 22:22:48.77	32.61	9.01	-39.0	-41.6	13.0	3.58e-05	0	53	0	73400320	49	4912
2026-01-11 22:22:49.64	32.69	9.07	-38.9	-41.5	13.2	2.82e-05	0	53	0	75497472	49	4832
2026-01-11 22:22:50.79	32.81	9.14	-38.8	-41.3	13.3	1.60e-05	0	53	0	78643200	49	4743
2026-01-11 22:22:51.66	32.89	9.20	-38.8	-41.4	13.3	2.82e-05	0	53	0	81788928	49	4761
2026-01-11 22:22:52.81	33.01	9.28	-38.7	-41.1	13.7	5.30e-06	0	53	0	84934656	49	4609
2026-01-11 22:22:53.68	33.09	9.34	-38.8	-41.2	13.5	8.30e-06	0	53	0	88080384	49	4684
2026-01-11 22:22:54.83	33.21	9.42	-38.7	-41.0	13.8	7.60e-06	0	53	0	92274688	49	4584
2026-01-11 22:22:55.70	33.30	9.48	-38.7	-41.1	13.8	2.20e-06	0	53	0	94371840	49	4604
2026-01-11 22:22:56.85	33.42	9.56	-38.7	-41.0	13.9	5.30e-06	0	53	0	98566144	49	4571
2026-01-11 22:22:57.72	33.51	9.62	-38.6	-40.8	14.0	7.00e-07	0	53	0	100663296	49	4493
2026-01-11 22:22:58.87	33.62	9.70	-38.7	-40.9	14.0	3.00e-06	0	53	0	103809024	49	4535
2026-01-11 22:22:59.73	33.71	9.76	-38.7	-40.9	14.0	1.50e-06	0	53	0	106954752	49	4536
2026-01-11 22:23:00.89	33.83	9.84	-38.6	-40.8	14.1	3.00e-06	0	53	0	111149056	49	4476
2026-01-11 22:23:01.76	33.92	9.90	-38.6	-40.8	14.2	3.00e-06	0	53	0	113246208	49	4471
2026-01-11 22:23:02.91	34.04	9.98	-38.7	-40.8	14.2	0.00e+00	0	53	0	117440512	49	4481
2026-01-11 22:23:03.77	34.13	10.04	-38.6	-40.7	14.3	1.50e-06	0	53	0	119537664	49	4412
2026-01-11 22:23:04.93	34.26	10.12	-38.6	-40.7	14.3	1.50e-06	0	54	0	123731968	49	4406
2026-01-11 22:23:05.79	34.35	10.18	-38.6	-40.7	14.4	7.00e-07	0	54	0	125829120	49	4410
2026-01-11 22:23:06.95	34.47	10.27	-38.5	-40.6	14.5	7.00e-07	0	53	0	130023424	49	4344
2026-01-11 22:23:07.81	34.56	10.33	-38.6	-40.7	14.3	7.00e-07	0	53	0	132120576	49	4431
2026-01-11 22:23:08.97	34.69	10.41	-38.5	-40.5	14.5	7.00e-07	0	53	0	136314880	49	4336
2026-01-11 22:23:09.83	34.78	10.47	-38.5	-40.5	14.6	7.00e-07	0	54	0	138412032	48	4586
2026-01-11 22:23:10.98	34.91	10.55	-38.6	-40.6	14.6	2.20e-06	0	53	0	142606336	48	4626
2026-01-11 22:23:11.85	35.00	10.61	-38.5	-40.6	14.6	0.00e+00	0	54	0	144703488	48	4600
2026-01-11 22:23:13.00	35.13	10.69	-38.5	-40.6	14.6	0.00e+00	0	54	0	148897792	48	4607
2026-01-11 22:23:13.87	35.22	10.76	-38.5	-40.6	14.6	0.00e+00	0	54	0	150994944	48	4606
2026-01-11 22:23:15.02	35.35	10.84	-38.4	-40.4	14.7	0.00e+00	0	54	0	155189248	48	4525
2026-01-11 22:23:15.88	35.45	10.90	-38.5	-40.5	14.7	0.00e+00	0	54	0	157286400	48	4565
2026-01-11 22:23:17.04	35.58	10.98	-38.5	-40.5	14.7	0.00e+00	0	54	0	161480704	48	4555
2026-01-11 22:23:17.90	35.67	11.04	-38.5	-40.5	14.7	0.00e+00	0	54	0	163577856	48	4556
2026-01-11 22:23:19.06	35.80	11.13	-38.4	-40.4	14.8	0.00e+00	0	54	0	167772160	48	4527
2026-01-11 22:23:19.92	35.90	11.19	-38.4	-40.3	14.9	0.00e+00	0	54	0	169869312	48	4488
2026-01-11 22:23:21.07	36.03	11.27	-38.3	-40.3	15.0	0.00e+00	0	54	0	174063616	48	4458
2026-01-11 22:23:21.94	36.13	11.33	-38.3	-40.3	15.0	0.00e+00	0	54	0	176160768	48	4465
2026-01-11 22:23:23.09	36.26	11.42	-38.3	-40.3	15.0	0.00e+00	0	54	0	180355072	48	4458
2026-01-11 22:23:23.95	36.36	11.48	-38.3	-40.2	15.0	0.00e+00	0	54	0	182452224	48	4441
2026-01-11 22:23:25.11	36.50	11.56	-38.3	-40.3	15.0	0.00e+00	0	54	0	186646528	48	4455
2026-01-11 22:23:25.97	36.60	11.62	-38.3	-40.2	15.1	0.00e+00	0	54	0	188743680	48	4430
2026-01-11 22:23:27.13	36.73	11.71	-38.3	-40.2	15.0	0.00e+00	0	54	0	192937984	48	4441
2026-01-11 22:23:27.99	36.84	11.77	-38.3	-40.3	15.0	7.00e-07	0	54	0	195035136	48	4445
2026-01-11 22:23:29.15	36.97	11.86	-38.3	-40.2	15.1	0.00e+00	0	54	0	199229440	48	4429
2026-01-11 22:23:30.01	37.08	11.92	-38.3	-40.3	15.1	0.00e+00	0	54	0	201326592	48	4443
2026-01-11 22:23:31.16	37.21	12.00	-38.3	-40.2	15.2	0.00e+00	0	54	0	205520896	48	4392
2026-01-11 22:23:32.03	37.32	12.07	-38.3	-40.1	15.2	7.00e-07	0	54	0	207618048	48	4382
2026-01-11 22:23:33.18	37.46	12.15	-38.2	-40.0	15.3	0.00e+00	0	54	0	211812352	48	4334
2026-01-11 22:23:34.05	37.56	12.21	-38.2	-40.1	15.2	0.00e+00	0	54	0	213909504	48	4360
2026-01-11 22:23:35.20	37.70	12.30	-38.2	-40.0	15.3	0.00e+00	0	54	0	218103808	48	4325
2026-01-11 22:23:36.06	37.81	12.36	-38.1	-40.0	15.4	0.00e+00	0	54	0	220200960	48	4305
2026-01-11 22:23:37.22	37.95	12.45	-38.2	-40.0	15.4	0.00e+00	0	54	0	224395264	48	4315
2026-01-11 22:23:38.09	38.06	12.51	-38.2	-40.0	15.4	0.00e+00	0	54	0	226492416	48	4309
2026-01-11 22:23:39.24	38.20	12.60	-38.2	-40.0	15.4	0.00e+00	0	54	0	230686720	48	4325
2026-01-11 22:23:40.11	38.31	12.66	-38.2	-40.0	15.4	0.00e+00	0	54	0	232783872	48	4320
2026-01-11 22:23:41.26	38.45	12.75	-38.2	-40.0	15.4	0.00e+00	0	54	0	236978176	48	4337
2026-01-11 22:23:42.12	38.56	12.81	-38.2	-40.1	15.4	0.00e+00	0	54	0	239075328	48	4344
2026-01-11 22:23:43.28	38.71	12.90	-38.2	-40.1	15.3	0.00e+00	0	54	0	243269632	48	4358
2026-01-11 22:23:44.14	38.82	12.96	-38.2	-40.1	15.3	0.00e+00	0	54	0	245366784	48	4359
2026-01-11 22:23:45.29	38.97	13.05	-38.2	-40.1	15.4	0.00e+00	0	55	0	249561088	48	4361
2026-01-11 22:23:46.16	39.08	13.11	-38.2	-40.0	15.4	0.00e+00	0	54	0	251658240	48	4336
2026-01-11 22:23:47.31	39.23	13.20	-38.2	-40.0	15.4	0.00e+00	0	54	0	255852544	48	4322
2026-01-11 22:23:48.18	39.34	13.26	-38.2	-40.0	15.4	0.00e+00	0	54	0	258998272	48	4328
2026-01-11 22:23:49.33	39.49	13.35	-38.2	-40.0	15.4	0.00e+00	0	54	0	262144000	48	4325
2026-01-11 22:23:50.20	39.60	13.41	-38.1	-39.9	15.5	0.00e+00	0	54	0	265289728	48	4280
2026-01-11 22:23:51.35	39.75	13.50	-38.1	-40.0	15.5	0.00e+00	0	54	0	268435456	48	4292
2026-01-11 22:23:52.22	39.87	13.57	-38.1	-39.9	15.6	0.00e+00	0	54	0	270532608	48	4253
2026-01-11 22:23:53.37	40.02	13.65	-38.1	-40.0	15.5	0.00e+00	0	54	0	274726912	48	4293
2026-01-11 22:23:54.24	40.14	13.72	-38.2	-40.0	15.5	0.00e+00	0	54	0	277872640	48	4316
2026-01-11 22:23:55.39	40.29	13.80	-38.1	-40.0	15.5	0.00e+00	0	54	0	281018368	48	4292
2026-01-11 22:23:56.26	40.41	13.87	-38.2	-40.0	15.5	0.00e+00	0	55	0	284164096	48	4304
2026-01-11 22:23:57.41	40.57	13.96	-38.2	-40.1	15.4	0.00e+00	0	54	0	287309824	48	4345
2026-01-11 22:23:58.28	40.69	14.02	-38.3	-40.1	15.4	0.00e+00	0	54	0	290455552	48	4349
2026-01-11 22:23:59.43	40.84	14.11	-38.3	-40.2	15.4	0.00e+00	0	54	0	293601280	48	4398
2026-01-11 22:24:00.30	40.96	14.18	-38.3	-40.2	15.3	0.00e+00	0	54	0	296747008	48	4403
2026-01-11 22:24:01.45	41.12	14.26	-38.4	-40.2	15.3	0.00e+00	0	54	0	299892736	48	4414
2026-01-11 22:24:02.31	41.24	14.33	-38.3	-40.2	15.3	0.00e+00	0	55	0	303038464	48	4405
2026-01-11 22:24:03.47	41.40	14.42	-38.3	-40.2	15.4	0.00e+00	0	54	0	306184192	48	4402
2026-01-11 22:24:04.33	41.53	14.48	-38.3	-40.1	15.5	0.00e+00	0	54	0	309329920	48	4368
2026-01-11 22:24:05.48	41.69	14.57	-38.3	-40.1	15.4	0.00e+00	0	54	0	312475648	48	4363
2026-01-11 22:24:06.35	41.81	14.64	-38.3	-40.1	15.4	0.00e+00	0	54	0	315621376	48	4390
2026-01-11 22:24:07.50	41.98	14.73	-38.3	-40.1	15.4	0.00e+00	0	55	0	318767104	48	4386
2026-01-11 22:24:08.37	42.10	14.79	-38.3	-40.1	15.5	0.00e+00	0	54	0	321912832	48	4368
2026-01-11 22:24:09.52	42.27	14.88	-38.4	-40.2	15.4	0.00e+00	0	55	0	325058560	48	4408
2026-01-11 22:24:10.39	42.39	14.95	-38.4	-40.2	15.3	7.00e-07	0	55	0	328204288	48	4433
2026-01-11 22:24:11.54	42.56	15.04	-38.5	-40.3	15.2	0.00e+00	0	55	0	331350016	48	4492
2026-01-11 22:24:12.41	42.69	15.10	-38.5	-40.3	15.2	0.00e+00	0	55	0	334495744	48	4489
2026-01-11 22:24:13.56	42.86	15.19	-38.5	-40.4	15.2	0.00e+00	0	55	0	337641472	48	4508
2026-01-11 22:24:14.43	42.98	15.26	-38.5	-40.4	15.2	0.00e+00	0	55	0	340787200	48	4518
2026-01-11 22:24:15.58	43.16	15.35	-38.6	-40.5	15.1	0.00e+00	0	55	0	343932928	48	4558
2026-01-11 22:24:16.45	43.29	15.42	-38.5	-40.4	15.2	7.00e-07	0	55	0	347078656	48	4497
2026-01-11 22:24:17.60	43.46	15.50	-38.5	-40.3	15.2	0.00e+00	0	55	0	350224384	48	4489
2026-01-11 22:24:18.46	43.59	15.57	-38.5	-40.3	15.3	0.00e+00	0	55	0	353370112	48	4477
2026-01-11 22:24:19.62	43.76	15.66	-38.4	-40.3	15.3	0.00e+00	0	55	0	356515840	48	4445
2026-01-11 22:24:20.48	43.90	15.73	-38.4	-40.3	15.3	0.00e+00	0	55	0	359661568	48	4468
2026-01-11 22:24:21.64	44.07	15.82	-38.4	-40.3	15.3	0.00e+00	0	55	0	362807296	48	4444
2026-01-11 22:24:22.50	44.21	15.88	-38.4	-40.2	15.4	0.00e+00	0	55	0	365953024	48	4421
2026-01-11 22:24:23.65	44.38	15.97	-38.4	-40.2	15.4	0.00e+00	0	55	0	369098752	48	4431
2026-01-11 22:24:24.52	44.52	16.04	-38.4	-40.2	15.4	0.00e+00	0	55	0	372244480	48	4427
2026-01-11 22:24:25.67	44.70	16.13	-38.4	-40.3	15.3	0.00e+00	0	55	0	375390208	48	4461
2026-01-11 22:24:26.54	44.84	16.20	-38.5	-40.3	15.3	0.00e+00	0	54	0	378535936	48	4475
2026-01-11 22:24:27.69	45.02	16.29	-38.5	-40.4	15.3	0.00e+00	0	55	0	381681664	48	4502
2026-01-11 22:24:28.56	45.16	16.36	-38.5	-40.4	15.2	0.00e+00	0	55	0	384827392	48	4509
2026-01-11 22:24:29.71	45.34	16.45	-38.6	-40.4	15.2	0.00e+00	0	55	0	387973120	48	4544
2026-01-11 22:24:30.58	45.48	16.51	-38.6	-40.5	15.2	0.00e+00	0	55	0	391118848	48	4550
2026-01-11 22:24:31.73	45.66	16.60	-38.6	-40.5	15.1	0.00e+00	0	55	0	394264576	48	4581
2026-01-11 22:24:32.60	45.80	16.67	-38.6	-40.5	15.2	0.00e+00	0	55	0	397410304	48	4557
2026-01-11 22:24:33.76	45.99	16.76	-38.6	-40.5	15.2	0.00e+00	0	55	0	400556032	48	4556
2026-01-11 22:24:34.62	46.13	16.83	-38.6	-40.4	15.2	0.00e+00	0	55	0	403701760	48	4543
2026-01-11 22:24:35.78	46.33	16.92	-38.6	-40.5	15.2	0.00e+00	0	55	0	406847488	48	4550
2026-01-11 22:24:36.64	46.47	16.99	-38.6	-40.4	15.2	0.00e+00	0	55	0	409993216	48	4538
2026-01-11 22:24:37.80	46.66	17.08	-38.6	-40.5	15.2	0.00e+00	0	55	0	413138944	48	4547
2026-01-11 22:24:38.66	46.80	17.15	-38.6	-40.4	15.2	0.00e+00	0	55	0	416284672	48	4544
2026-01-11 22:24:39.81	47.00	17.24	-38.6	-40.5	15.1	0.00e+00	0	55	0	419430400	48	4584
2026-01-11 22:24:40.68	47.14	17.30	-38.7	-40.6	15.1	0.00e+00	0	55	0	422576128	48	4605
2026-01-11 22:24:41.83	47.34	17.39	-38.7	-40.5	15.1	0.00e+00	0	55	0	425721856	48	4597
2026-01-11 22:24:42.70	47.49	17.46	-38.7	-40.6	15.1	0.00e+00	0	55	0	428867584	48	4645
2026-01-11 22:24:43.86	47.69	17.55	-38.7	-40.6	15.1	0.00e+00	0	55	0	432013312	48	4647
2026-01-11 22:24:44.72	47.83	17.62	-38.7	-40.7	15.1	0.00e+00	0	55	0	435159040	48	4659
2026-01-11 22:24:45.87	48.03	17.71	-38.6	-40.5	15.2	0.00e+00	0	55	0	439353344	48	4571
2026-01-11 22:24:46.74	48.18	17.78	-38.6	-40.5	15.2	0.00e+00	0	55	0	441450496	48	4579
2026-01-11 22:24:47.89	48.39	17.87	-38.6	-40.4	15.3	0.00e+00	0	55	0	444596224	48	4524
2026-01-11 22:24:48.76	48.54	17.94	-38.5	-40.3	15.4	7.00e-07	0	55	0	447741952	48	4488
2026-01-11 22:24:49.91	48.74	18.03	-38.5	-40.3	15.4	0.00e+00	0	55	0	450887680	48	4474
2026-01-11 22:24:50.78	48.90	18.10	-38.4	-40.2	15.5	0.00e+00	0	55	0	454033408	48	4429
2026-01-11 22:24:51.93	49.10	18.19	-38.4	-40.2	15.5	0.00e+00	0	55	0	458227712	48	4437
2026-01-11 22:24:52.79	49.26	18.25	-38.4	-40.3	15.5	0.00e+00	0	55	0	460324864	48	4456
2026-01-11 22:24:53.95	49.47	18.34	-38.4	-40.3	15.5	0.00e+00	0	55	0	464519168	48	4448
2026-01-11 22:24:54.81	49.62	18.41	-38.4	-40.2	15.5	0.00e+00	0	55	0	466616320	48	4421
2026-01-11 22:24:55.96	49.83	18.50	-38.4	-40.2	15.5	0.00e+00	0	55	0	469762048	48	4427
2026-01-11 22:24:56.83	49.99	18.57	-38.4	-40.2	15.5	0.00e+00	0	55	0	472907776	48	4423
2026-01-11 22:24:57.98	50.20	18.66	-38.4	-40.2	15.5	0.00e+00	0	55	0	477102080	48	4425
2026-01-11 22:24:58.85	50.36	18.73	-38.4	-40.2	15.6	0.00e+00	0	55	0	479199232	48	4393
2026-01-11 22:25:00.00	50.58	18.82	-38.4	-40.2	15.5	0.00e+00	0	55	0	483393536	48	4425
2026-01-11 22:25:00.87	50.74	18.89	-38.4	-40.2	15.5	0.00e+00	0	55	0	485490688	48	4427
2026-01-11 22:25:02.02	50.96	18.97	-38.4	-40.1	15.6	0.00e+00	0	55	0	489684992	48	4388
2026-01-11 22:25:02.89	51.12	19.04	-38.3	-40.1	15.7	0.00e+00	0	55	0	491782144	48	4353
2026-01-11 22:25:04.04	51.34	19.13	-38.3	-40.0	15.7	0.00e+00	0	55	0	495976448	48	4330
2026-01-11 22:25:04.91	51.50	19.20	-38.2	-40.0	15.8	0.00e+00	0	55	0	498073600	48	4292
2026-01-11 22:25:06.06	51.72	19.29	-38.1	-39.8	15.9	0.00e+00	0	55	0	502267904	48	4225
2026-01-11 22:25:06.93	51.89	19.36	-38.1	-39.8	15.9	0.00e+00	0	55	0	504365056	48	4228
2026-01-11 22:25:08.08	52.11	19.45	-37.9	-39.6	16.1	0.00e+00	0	55	0	508559360	47	4354
2026-01-11 22:25:08.95	52.28	19.51	-37.8	-39.5	16.1	0.00e+00	0	55	0	510656512	47	4314
2026-01-11 22:25:10.10	52.51	19.60	-37.8	-39.5	16.2	0.00e+00	0	55	0	514850816	47	4307
2026-01-11 22:25:10.96	52.68	19.67	-37.8	-39.4	16.2	0.00e+00	0	56	0	516947968	47	4288
2026-01-11 22:25:12.12	52.91	19.76	-37.8	-39.4	16.2	0.00e+00	0	55	0	521142272	47	4290
2026-01-11 22:25:12.98	53.08	19.83	-37.8	-39.4	16.2	0.00e+00	0	55	0	523239424	47	4286
2026-01-11 22:25:14.13	53.31	19.91	-37.8	-39.5	16.2	0.00e+00	0	56	0	527433728	47	4296
2026-01-11 22:25:15.00	53.48	19.98	-37.8	-39.5	16.2	0.00e+00	0	55	0	529530880	47	4302
2026-01-11 22:25:16.16	53.71	20.07	-37.8	-39.5	16.2	0.00e+00	0	55	0	533725184	47	4318
2026-01-11 22:25:17.02	53.89	20.14	-37.8	-39.5	16.1	0.00e+00	0	55	0	535822336	47	4320
2026-01-11 22:25:18.17	54.12	20.23	-37.8	-39.4	16.2	0.00e+00	0	56	0	540016640	47	4282
2026-01-11 22:25:19.04	54.30	20.29	-37.8	-39.5	16.1	0.00e+00	0	55	0	542113792	47	4318
2026-01-11 22:25:20.20	54.54	20.38	-37.8	-39.5	16.2	0.00e+00	0	55	0	546308096	47	4314
2026-01-11 22:25:21.06	54.72	20.45	-37.8	-39.5	16.2	0.00e+00	0	55	0	548405248	47	4318
2026-01-11 22:25:22.21	54.96	20.53	-37.9	-39.6	16.1	0.00e+00	0	56	0	552599552	47	4349
2026-01-11 22:25:23.08	55.14	20.60	-37.8	-39.5	16.1	0.00e+00	0	56	0	554696704	47	4319
2026-01-11 22:25:24.23	55.38	20.69	-37.9	-39.5	16.1	0.00e+00	0	56	0	558891008	47	4340
2026-01-11 22:25:25.10	55.56	20.75	-37.9	-39.6	16.0	0.00e+00	0	56	0	560988160	47	4391
2026-01-11 22:25:26.25	55.80	20.84	-37.9	-39.6	16.0	0.00e+00	0	56	0	565182464	47	4369
2026-01-11 22:25:27.11	55.99	20.91	-37.9	-39.7	16.0	0.00e+00	0	55	0	567279616	47	4396
2026-01-11 22:25:28.27	56.24	20.99	-37.9	-39.6	16.1	0.00e+00	0	56	0	571473920	47	4368
2026-01-11 22:25:29.13	56.42	21.06	-37.9	-39.6	16.1	0.00e+00	0	56	0	573571072	47	4348
2026-01-11 22:25:30.29	56.67	21.14	-37.8	-39.5	16.1	0.00e+00	0	56	0	577765376	47	4338
2026-01-11 22:25:31.15	56.86	21.21	-37.9	-39.6	16.1	0.00e+00	0	55	0	579862528	47	4355
2026-01-11 22:25:32.31	57.11	21.30	-37.8	-39.5	16.2	0.00e+00	0	55	0	584056832	47	4293
2026-01-11 22:25:33.17	57.30	21.36	-37.7	-39.3	16.3	0.00e+00	0	55	0	586153984	47	4242
2026-01-11 22:25:34.32	57.55	21.44	-37.7	-39.3	16.3	0.00e+00	0	56	0	590348288	47	4226
2026-01-11 22:25:35.19	57.74	21.51	-37.6	-39.3	16.4	0.00e+00	0	55	0	592445440	47	4210
2026-01-11 22:25:36.35	58.00	21.59	-37.6	-39.2	16.5	0.00e+00	0	56	0	596639744	47	4162
2026-01-11 22:25:37.21	58.19	21.66	-37.5	-39.2	16.5	0.00e+00	0	56	0	598736896	47	4157
2026-01-11 22:25:38.37	58.45	21.74	-37.6	-39.2	16.5	0.00e+00	0	55	0	602931200	47	4167
2026-01-11 22:25:39.23	58.65	21.81	-37.5	-39.2	16.5	0.00e+00	0	56	0	606076928	47	4151
2026-01-11 22:25:40.38	58.91	21.89	-37.5	-39.1	16.5	0.00e+00	0	56	0	609222656	47	4134
2026-01-11 22:25:41.25	59.10	21.95	-37.5	-39.1	16.5	0.00e+00	0	55	0	611319808	46	4370
2026-01-11 22:25:42.40	59.37	22.04	-37.6	-39.2	16.5	0.00e+00	0	55	0	615514112	46	4405
2026-01-11 22:25:43.27	59.57	22.10	-37.6	-39.2	16.5	0.00e+00	0	56	0	617611264	46	4410
2026-01-11 22:25:44.42	59.83	22.18	-37.6	-39.2	16.4	0.00e+00	0	56	0	621805568	46	4416
2026-01-11 22:25:45.28	60.03	22.24	-37.6	-39.2	16.5	0.00e+00	0	56	0	624951296	46	4402
2026-01-11 22:25:46.44	60.30	22.33	-37.5	-39.1	16.5	0.00e+00	0	55	0	628097024	46	4348
2026-01-11 22:25:47.30	60.50	22.39	-37.4	-39.0	16.6	0.00e+00	0	55	0	631242752	46	4337
2026-01-11 22:25:48.46	60.77	22.47	-37.4	-39.0	16.6	0.00e+00	0	55	0	634388480	46	4315
2026-01-11 22:25:49.32	60.98	22.53	-37.4	-39.0	16.6	0.00e+00	0	56	0	637534208	46	4294
2026-01-11 22:25:50.48	61.25	22.61	-37.3	-38.8	16.8	0.00e+00	0	56	0	640679936	46	4231
2026-01-11 22:25:51.34	61.45	22.67	-37.3	-38.8	16.8	0.00e+00	0	56	0	643825664	46	4236
2026-01-11 22:25:52.50	61.73	22.75	-37.3	-38.8	16.8	0.00e+00	0	56	0	646971392	46	4222
2026-01-11 22:25:53.36	61.94	22.81	-37.2	-38.8	16.8	0.00e+00	0	56	0	650117120	46	4218
2026-01-11 22:25:54.52	62.22	22.89	-37.3	-38.9	16.8	0.00e+00	0	56	0	653262848	46	4254
2026-01-11 22:25:55.38	62.43	22.95	-37.4	-39.0	16.7	0.00e+00	0	56	0	656408576	46	4292
2026-01-11 22:25:56.54	62.71	23.03	-37.5	-39.1	16.6	0.00e+00	0	56	0	659554304	46	4352
2026-01-11 22:25:57.40	62.92	23.09	-37.5	-39.1	16.5	0.00e+00	0	56	0	662700032	46	4382
2026-01-11 22:25:58.55	63.20	23.16	-37.5	-39.2	16.5	0.00e+00	0	56	0	665845760	46	4395
2026-01-11 22:25:59.42	63.41	23.22	-37.5	-39.1	16.6	0.00e+00	0	56	0	668991488	46	4375
2026-01-11 22:26:00.57	63.70	23.30	-37.5	-39.1	16.6	0.00e+00	0	56	0	672137216	46	4357
2026-01-11 22:26:01.44	63.92	23.36	-37.5	-39.1	16.6	0.00e+00	0	56	0	675282944	46	4368
2026-01-11 22:26:02.59	64.20	23.43	-37.5	-39.1	16.6	0.00e+00	0	56	0	678428672	46	4361
2026-01-11 22:26:03.45	64.42	23.49	-37.5	-39.2	16.5	0.00e+00	0	56	0	681574400	46	4395
2026-01-11 22:26:04.61	64.71	23.57	-37.7	-39.3	16.3	0.00e+00	0	56	0	684720128	46	4481
2026-01-11 22:26:05.48	64.93	23.62	-37.7	-39.4	16.3	0.00e+00	0	56	0	687865856	46	4502
2026-01-11 22:26:06.63	65.22	23.70	-37.8	-39.5	16.2	0.00e+00	0	56	0	691011584	46	4550
2026-01-11 22:26:07.49	65.44	23.75	-37.8	-39.4	16.2	0.00e+00	0	56	0	694157312	46	4545
2026-01-11 22:26:08.65	65.74	23.83	-37.8	-39.5	16.2	0.00e+00	0	56	0	697303040	46	4553
2026-01-11 22:26:09.52	65.96	23.88	-37.8	-39.4	16.2	0.00e+00	0	56	0	700448768	46	4542
2026-01-11 22:26:10.67	66.26	23.95	-37.8	-39.4	16.2	0.00e+00	0	56	0	703594496	46	4544
2026-01-11 22:26:11.54	66.48	24.01	-37.7	-39.4	16.3	0.00e+00	0	56	0	706740224	46	4512
2026-01-11 22:26:12.69	66.78	24.08	-37.8	-39.5	16.2	0.00e+00	0	56	0	709885952	46	4564
2026-01-11 22:26:13.56	67.01	24.13	-37.9	-39.6	16.1	0.00e+00	0	56	0	713031680	46	4612
2026-01-11 22:26:14.71	67.31	24.20	-37.8	-39.5	16.2	0.00e+00	0	56	0	716177408	46	4581
2026-01-11 22:26:15.58	67.54	24.25	-37.9	-39.6	16.0	0.00e+00	0	56	0	719323136	46	4624
2026-01-11 22:26:16.73	67.84	24.32	-37.9	-39.6	16.1	0.00e+00	0	56	0	722468864	46	4601
2026-01-11 22:26:17.60	68.07	24.37	-37.9	-39.6	16.1	0.00e+00	0	56	0	725614592	46	4605
2026-01-11 22:26:18.75	68.38	24.44	-37.8	-39.5	16.1	0.00e+00	0	56	0	728760320	46	4585
2026-01-11 22:26:19.61	68.61	24.49	-37.9	-39.6	16.1	0.00e+00	0	56	0	731906048	46	4602
2026-01-11 22:26:20.77	68.92	24.56	-37.8	-39.5	16.2	0.00e+00	0	56	0	735051776	46	4577
2026-01-11 22:26:21.63	69.15	24.61	-37.8	-39.5	16.2	0.00e+00	0	56	0	738197504	46	4593
2026-01-11 22:26:22.79	69.46	24.67	-37.8	-39.5	16.1	0.00e+00	0	56	0	741343232	46	4586
2026-01-11 22:26:23.65	69.69	24.72	-37.9	-39.6	16.1	0.00e+00	0	56	0	744488960	46	4603
2026-01-11 22:26:24.81	70.01	24.79	-37.9	-39.6	16.1	0.00e+00	0	56	0	747634688	46	4629
2026-01-11 22:26:25.67	70.24	24.84	-37.9	-39.6	16.1	0.00e+00	0	56	0	750780416	46	4606
2026-01-11 22:26:26.82	70.56	24.90	-37.8	-39.5	16.2	0.00e+00	0	56	0	753926144	46	4556
2026-01-11 22:26:27.69	70.80	24.94	-37.8	-39.4	16.2	0.00e+00	0	56	0	757071872	46	4533
2026-01-11 22:26:28.84	71.11	25.01	-37.7	-39.4	16.3	0.00e+00	0	56	0	760217600	46	4508
2026-01-11 22:26:29.71	71.35	25.05	-37.7	-39.4	16.3	0.00e+00	0	56	0	763363328	46	4500
2026-01-11 22:26:30.86	71.67	25.11	-37.8	-39.5	16.2	0.00e+00	0	56	0	766509056	46	4546
2026-01-11 22:26:31.73	71.92	25.16	-37.8	-39.5	16.1	0.00e+00	0	56	0	769654784	46	4567
2026-01-11 22:26:32.88	72.24	25.22	-37.8	-39.5	16.1	0.00e+00	0	56	0	772800512	46	4593
2026-01-11 22:26:33.75	72.48	25.26	-37.9	-39.6	16.1	0.00e+00	0	56	0	775946240	46	4605
2026-01-11 22:26:34.90	72.80	25.32	-37.8	-39.5	16.2	0.00e+00	0	56	0	779091968	46	4564
2026-01-11 22:26:35.76	73.05	25.36	-37.8	-39.4	16.2	0.00e+00	0	56	0	782237696	46	4528
2026-01-11 22:26:36.92	73.37	25.42	-37.6	-39.2	16.5	0.00e+00	0	56	0	785383424	46	4419
2026-01-11 22:26:37.79	73.62	25.46	-37.5	-39.1	16.6	0.00e+00	0	56	0	788529152	46	4344
2026-01-11 22:26:38.94	73.95	25.51	-37.4	-39.1	16.5	2.89e-05	0	56	0	791674880	46	4341
2026-01-11 22:26:39.80	74.19	25.55	-37.4	-39.2	16.4	3.80e-06	0	56	0	794820608	46	4397
2026-01-11 22:26:40.96	74.52	25.61	-37.5	-39.3	16.3	6.56e-05	0	56	0	797966336	46	4448
2026-01-11 22:26:41.82	74.77	25.64	-37.6	-39.3	16.4	0.00e+00	0	56	0	801112064	46	4460
2026-01-11 22:26:42.98	75.11	25.70	-37.7	-39.3	16.3	0.00e+00	0	56	0	805306368	46	4493
2026-01-11 22:26:43.84	75.35	25.73	-37.7	-39.4	16.3	0.00e+00	0	56	0	807403520	46	4498
2026-01-11 22:26:45.00	75.69	25.78	-37.7	-39.3	16.3	0.00e+00	0	56	0	810549248	46	4491
2026-01-11 22:26:45.86	75.94	25.82	-37.6	-39.2	16.4	0.00e+00	0	56	0	813694976	46	4432
2026-01-11 22:26:47.01	76.27	25.87	-37.6	-39.2	16.5	0.00e+00	0	56	0	816840704	46	4421
2026-01-11 22:26:47.88	76.53	25.90	-37.6	-39.2	16.5	0.00e+00	0	56	0	819986432	46	4410
2026-01-11 22:26:49.03	76.86	25.95	-37.6	-39.2	16.5	0.00e+00	0	56	0	824180736	46	4419
2026-01-11 22:26:49.90	77.12	25.99	-37.6	-39.3	16.5	0.00e+00	0	56	0	826277888	46	4447
2026-01-11 22:26:51.05	77.46	26.03	-37.6	-39.2	16.5	0.00e+00	0	56	0	830472192	46	4430
2026-01-11 22:26:51.92	77.71	26.06	-37.5	-39.1	16.6	0.00e+00	0	56	0	832569344	46	4369
2026-01-11 22:26:53.07	78.05	26.11	-37.5	-39.0	16.6	0.00e+00	0	56	0	835715072	46	4340
2026-01-11 22:26:53.94	78.31	26.14	-37.5	-39.2	16.6	0.00e+00	0	56	0	838860800	46	4402
2026-01-11 22:26:55.09	78.65	26.18	-37.6	-39.2	16.5	0.00e+00	0	56	0	843055104	46	4407
2026-01-11 22:26:55.96	78.91	26.21	-37.6	-39.2	16.5	0.00e+00	0	56	0	845152256	46	4409
2026-01-11 22:26:57.11	79.25	26.25	-37.7	-39.3	16.4	0.00e+00	0	56	0	849346560	47	4206
2026-01-11 22:26:57.98	79.51	26.28	-37.5	-39.1	16.6	0.00e+00	0	56	0	851443712	47	4114
2026-01-11 22:26:59.13	79.86	26.32	-37.4	-39.0	16.7	0.00e+00	0	56	0	855638016	46	4305
2026-01-11 22:27:00.00	80.12	26.35	-37.4	-39.0	16.7	0.00e+00	0	56	0	857735168	46	4299
2026-01-11 22:27:01.16	80.47	26.38	-37.4	-39.0	16.7	0.00e+00	0	56	0	861929472	46	4311
2026-01-11 22:27:02.02	80.73	26.41	-37.4	-39.0	16.7	0.00e+00	0	56	0	864026624	46	4304
2026-01-11 22:27:03.17	81.07	26.44	-37.4	-39.0	16.7	0.00e+00	0	56	0	868220928	46	4325
2026-01-11 22:27:04.04	81.33	26.47	-37.4	-39.0	16.7	0.00e+00	0	56	0	870318080	46	4320
2026-01-11 22:27:05.19	81.68	26.50	-37.5	-39.1	16.6	0.00e+00	0	56	0	874512384	46	4364
2026-01-11 22:27:06.06	81.95	26.52	-37.4	-39.0	16.7	0.00e+00	0	56	0	876609536	46	4329
2026-01-11 22:27:07.21	82.30	26.55	-37.5	-39.0	16.6	0.00e+00	0	56	0	880803840	46	4336
2026-01-11 22:27:08.08	82.56	26.58	-37.5	-39.1	16.6	0.00e+00	0	56	0	882900992	46	4367
2026-01-11 22:27:09.23	82.91	26.60	-37.6	-39.2	16.5	0.00e+00	0	56	0	887095296	46	4412
2026-01-11 22:27:10.10	83.18	26.62	-37.5	-39.1	16.6	0.00e+00	0	56	0	889192448	46	4363
2026-01-11 22:27:11.25	83.53	26.65	-37.4	-39.0	16.7	0.00e+00	0	56	0	893386752	46	4301
2026-01-11 22:27:12.12	83.80	26.67	-37.4	-39.0	16.8	0.00e+00	0	56	0	895483904	46	4317
2026-01-11 22:27:13.27	84.15	26.69	-37.4	-39.0	16.8	0.00e+00	0	56	0	899678208	46	4307
2026-01-11 22:27:14.14	84.42	26.71	-37.4	-39.0	16.8	0.00e+00	0	56	0	901775360	46	4293
2026-01-11 22:27:15.29	84.77	26.74	-37.5	-39.0	16.7	0.00e+00	0	56	0	905969664	46	4327
2026-01-11 22:27:16.15	85.03	26.75	-37.5	-39.1	16.6	0.00e+00	0	56	0	908066816	46	4384
2026-01-11 22:27:17.31	85.39	26.77	-37.5	-39.1	16.6	0.00e+00	0	56	0	912261120	46	4386
2026-01-11 22:27:18.17	85.66	26.79	-37.5	-39.1	16.7	0.00e+00	0	56	0	914358272	46	4357
2026-01-11 22:27:19.33	86.01	26.81	-37.5	-39.1	16.7	0.00e+00	0	56	0	918552576	46	4360
2026-01-11 22:27:20.19	86.28	26.82	-37.6	-39.2	16.6	0.00e+00	0	56	0	920649728	46	4393
2026-01-11 22:27:21.34	86.64	26.84	-37.6	-39.1	16.6	0.00e+00	0	56	0	924844032	46	4391
2026-01-11 22:27:22.21	86.91	26.85	-37.5	-39.1	16.7	0.00e+00	0	56	0	926941184	46	4369
2026-01-11 22:27:23.36	87.26	26.86	-37.6	-39.2	16.6	0.00e+00	0	56	0	931135488	46	4408
2026-01-11 22:27:24.23	87.53	26.87	-37.5	-39.1	16.7	0.00e+00	0	57	0	933232640	46	4348
2026-01-11 22:27:25.38	87.89	26.88	-37.4	-38.9	16.8	0.00e+00	0	56	0	937426944	46	4277
2026-01-11 22:27:26.25	88.16	26.89	-37.3	-38.9	16.9	0.00e+00	0	56	0	939524096	46	4259
2026-01-11 22:27:27.40	88.52	26.90	-37.4	-38.9	16.8	0.00e+00	0	56	0	943718400	46	4290
2026-01-11 22:27:28.27	88.79	26.91	-37.4	-39.0	16.8	0.00e+00	0	56	0	945815552	46	4311
2026-01-11 22:27:29.42	89.15	26.92	-37.4	-38.9	16.8	0.00e+00	0	56	0	950009856	46	4291
2026-01-11 22:27:30.29	89.42	26.92	-37.5	-39.1	16.7	0.00e+00	0	56	0	952107008	46	4352
2026-01-11 22:27:31.44	89.77	26.93	-37.5	-39.1	16.7	0.00e+00	0	56	0	956301312	46	4370
2026-01-11 22:27:32.31	90.05	26.93	-37.5	-39.1	16.7	0.00e+00	0	56	0	958398464	46	4355
2026-01-11 22:27:33.46	90.40	26.94	-37.4	-38.9	16.9	0.00e+00	0	56	0	962592768	46	4256
2026-01-11 22:27:34.32	90.67	26.94	-37.4	-38.9	16.9	0.00e+00	0	56	0	965738496	46	4271
2026-01-11 22:27:35.48	91.03	26.94	-37.4	-38.9	16.9	0.00e+00	0	56	0	968884224	46	4262
2026-01-11 22:27:36.34	91.30	26.94	-37.3	-38.8	17.0	0.00e+00	0	56	0	972029952	46	4205
2026-01-11 22:27:37.50	91.66	26.94	-37.2	-38.7	17.1	0.00e+00	0	56	0	975175680	46	4175
2026-01-11 22:27:38.36	91.93	26.94	-37.2	-38.7	17.1	0.00e+00	0	56	0	977272832	46	4164
2026-01-11 22:27:39.51	92.29	26.94	-37.3	-38.9	16.9	0.00e+00	0	56	0	981467136	46	4243
2026-01-11 22:27:40.38	92.56	26.94	-37.4	-39.0	16.8	0.00e+00	0	56	0	984612864	46	4293
2026-01-11 22:27:41.53	92.92	26.94	-37.5	-39.1	16.7	0.00e+00	0	56	0	987758592	46	4351
2026-01-11 22:27:42.40	93.19	26.93	-37.5	-39.0	16.7	0.00e+00	0	56	0	990904320	46	4337
2026-01-11 22:27:43.55	93.55	26.93	-37.4	-39.0	16.8	0.00e+00	0	56	0	994050048	46	4293
2026-01-11 22:27:44.42	93.82	26.92	-37.2	-38.8	17.0	0.00e+00	0	56	0	996147200	46	4199
2026-01-11 22:27:45.57	94.18	26.91	-37.1	-38.6	17.2	0.00e+00	0	56	0	1000341504	46	4115
2026-01-11 22:27:46.44	94.45	26.90	-37.2	-38.7	17.1	0.00e+00	0	56	0	1003487232	46	4162
2026-01-11 22:27:47.59	94.81	26.89	-37.3	-38.8	17.0	0.00e+00	0	56	0	1006632960	46	4214
2026-01-11 22:27:48.45	95.07	26.89	-37.4	-38.9	16.8	0.00e+00	0	56	0	1009778688	46	4290
2026-01-11 22:27:49.61	95.43	26.87	-37.5	-39.0	16.8	0.00e+00	0	57	0	1012924416	46	4332
2026-01-11 22:27:50.47	95.70	26.86	-37.5	-39.1	16.7	0.00e+00	0	56	0	1016070144	46	4357
2026-01-11 22:27:51.62	96.06	26.85	-37.5	-39.1	16.7	0.00e+00	0	56	0	1019215872	46	4349
2026-01-11 22:27:52.49	96.33	26.84	-37.4	-39.0	16.8	0.00e+00	0	56	0	1022361600	46	4322
2026-01-11 22:27:53.64	96.68	26.82	-37.4	-39.0	16.8	0.00e+00	0	56	0	1025507328	46	4294
2026-01-11 22:27:54.51	96.95	26.81	-37.4	-38.9	16.8	0.00e+00	0	56	0	1028653056	46	4291
2026-01-11 22:27:55.66	97.31	26.79	-37.3	-38.9	16.9	0.00e+00	0	56	0	1031798784	46	4249
2026-01-11 22:27:56.53	97.58	26.77	-37.2	-38.8	17.0	0.00e+00	0	56	0	1034944512	46	4196
2026-01-11 22:27:57.68	97.93	26.75	-37.2	-38.8	17.0	0.00e+00	0	56	0	1038090240	46	4194
2026-01-11 22:27:58.55	98.20	26.74	-37.3	-38.9	16.9	0.00e+00	0	57	0	1041235968	46	4245
2026-01-11 22:27:59.70	98.55	26.72	-37.4	-39.0	16.8	0.00e+00	0	56	0	1044381696	46	4318
2026-01-11 22:28:00.57	98.82	26.70	-37.5	-39.1	16.7	0.00e+00	0	56	0	1047527424	46	4341
2026-01-11 22:28:01.72	99.18	26.67	-37.5	-39.0	16.8	0.00e+00	0	56	0	1050673152	46	4321
2026-01-11 22:28:02.59	99.44	26.65	-37.5	-39.0	16.8	0.00e+00	0	56	0	1053818880	46	4322
2026-01-11 22:28:03.74	99.79	26.63	-37.4	-39.0	16.8	0.00e+00	0	56	0	1056964608	46	4311
2026-01-11 22:28:04.61	100.06	26.61	-37.4	-38.9	16.9	0.00e+00	0	56	0	1060110336	46	4279
2026-01-11 22:28:05.76	100.41	26.58	-37.4	-38.9	16.9	0.00e+00	0	56	0	1063256064	46	4289
2026-01-11 22:28:06.63	100.68	26.56	-37.3	-38.9	16.9	0.00e+00	0	56	0	1066401792	46	4255
2026-01-11 22:28:07.78	101.03	26.53	-37.3	-38.8	17.0	0.00e+00	0	56	0	1069547520	46	4223
2026-01-11 22:28:08.64	101.29	26.50	-37.3	-38.8	17.0	0.00e+00	0	56	0	1072693248	46	4217
2026-01-11 22:28:09.80	101.64	26.47	-37.3	-38.8	17.0	0.00e+00	0	56	0	1075838976	46	4234
2026-01-11 22:28:10.66	101.90	26.45	-37.3	-38.9	16.9	0.00e+00	0	57	0	1078984704	46	4257
2026-01-11 22:28:11.82	102.25	26.41	-37.3	-38.8	17.0	0.00e+00	0	56	0	1082130432	46	4237
2026-01-11 22:28:12.68	102.51	26.39	-37.4	-38.9	16.9	0.00e+00	0	57	0	1085276160	46	4272
2026-01-11 22:28:13.83	102.86	26.35	-37.4	-38.9	16.9	0.00e+00	0	56	0	1088421888	46	4270
2026-01-11 22:28:14.70	103.12	26.32	-37.5	-39.0	16.8	0.00e+00	0	56	0	1091567616	46	4332
2026-01-11 22:28:15.85	103.46	26.28	-37.5	-39.1	16.8	0.00e+00	0	56	0	1094713344	46	4347
2026-01-11 22:28:16.72	103.72	26.26	-37.5	-39.1	16.7	0.00e+00	0	56	0	1097859072	46	4348
2026-01-11 22:28:17.87	104.07	26.22	-37.5	-39.1	16.7	0.00e+00	0	57	0	1101004800	46	4366
2026-01-11 22:28:18.74	104.33	26.19	-37.5	-39.1	16.8	0.00e+00	0	57	0	1104150528	46	4343
2026-01-11 22:28:19.89	104.67	26.14	-37.5	-39.1	16.8	0.00e+00	0	57	0	1107296256	46	4349
2026-01-11 22:28:20.76	104.93	26.11	-37.5	-39.1	16.7	0.00e+00	0	56	0	1110441984	46	4364
2026-01-11 22:28:21.91	105.27	26.07	-37.6	-39.2	16.6	0.00e+00	0	56	0	1113587712	46	4420
2026-01-11 22:28:22.78	105.53	26.04	-37.6	-39.2	16.6	0.00e+00	0	57	0	1116733440	46	4420
2026-01-11 22:28:23.93	105.86	25.99	-37.6	-39.1	16.7	0.00e+00	0	57	0	1119879168	46	4385
2026-01-11 22:28:24.80	106.12	25.96	-37.6	-39.2	16.6	0.00e+00	0	57	0	1123024896	46	4409
2026-01-11 22:28:25.95	106.46	25.91	-37.6	-39.2	16.6	0.00e+00	0	56	0	1126170624	46	4421
2026-01-11 22:28:26.82	106.71	25.87	-37.6	-39.2	16.6	0.00e+00	0	56	0	1129316352	46	4422
2026-01-11 22:28:27.98	107.05	25.83	-37.8	-39.4	16.4	0.00e+00	0	56	0	1132462080	46	4513
2026-01-11 22:28:28.84	107.30	25.79	-37.8	-39.5	16.4	0.00e+00	0	56	0	1135607808	46	4561
2026-01-11 22:28:29.99	107.64	25.74	-37.9	-39.6	16.2	0.00e+00	0	56	0	1138753536	46	4615
2026-01-11 22:28:30.86	107.89	25.70	-37.8	-39.5	16.4	0.00e+00	0	56	0	1141899264	46	4546
2026-01-11 22:28:32.01	108.22	25.65	-37.7	-39.3	16.5	0.00e+00	0	56	0	1145044992	46	4484
2026-01-11 22:28:32.88	108.47	25.61	-37.6	-39.2	16.6	0.00e+00	0	56	0	1148190720	46	4429
2026-01-11 22:28:34.03	108.80	25.56	-37.6	-39.1	16.7	0.00e+00	0	57	0	1151336448	46	4390
2026-01-11 22:28:34.90	109.05	25.52	-37.5	-39.1	16.7	0.00e+00	0	57	0	1154482176	46	4367
2026-01-11 22:28:36.05	109.38	25.46	-37.5	-39.1	16.8	0.00e+00	0	56	0	1157627904	46	4347
2026-01-11 22:28:36.92	109.62	25.42	-37.3	-38.9	16.9	0.00e+00	0	56	0	1160773632	46	4253
2026-01-11 22:28:38.07	109.95	25.36	-37.3	-38.8	17.0	0.00e+00	0	56	0	1164967936	46	4229
2026-01-11 22:28:38.94	110.20	25.32	-37.3	-38.9	16.9	0.00e+00	0	56	0	1167065088	46	4256
2026-01-11 22:28:40.09	110.52	25.26	-37.3	-38.8	17.0	0.00e+00	0	56	0	1170210816	46	4218
2026-01-11 22:28:40.96	110.77	25.22	-37.3	-38.9	17.0	0.00e+00	0	57	0	1173356544	46	4244
2026-01-11 22:28:42.11	111.09	25.16	-37.3	-38.9	16.9	0.00e+00	0	56	0	1176502272	46	4253
2026-01-11 22:28:42.97	111.33	25.12	-37.3	-38.8	17.0	0.00e+00	0	56	0	1179648000	46	4240
2026-01-11 22:28:44.13	111.65	25.05	-37.3	-38.9	16.9	0.00e+00	0	56	0	1183842304	46	4259
2026-01-11 22:28:44.99	111.89	25.01	-37.3	-38.9	16.9	0.00e+00	0	56	0	1185939456	46	4250
2026-01-11 22:28:46.15	112.21	24.95	-37.3	-38.9	16.9	0.00e+00	0	57	0	1190133760	46	4255
2026-01-11 22:28:47.01	112.45	24.90	-37.4	-38.9	16.9	0.00e+00	0	57	0	1192230912	46	4265
2026-01-11 22:28:48.16	112.76	24.84	-37.4	-38.9	16.9	0.00e+00	0	56	0	1195376640	46	4262
2026-01-11 22:28:49.03	113.00	24.79	-37.3	-38.8	17.0	0.00e+00	0	56	0	1198522368	46	4209
2026-01-11 22:28:50.19	113.32	24.72	-37.2	-38.7	17.1	0.00e+00	0	57	0	1202716672	46	4159
2026-01-11 22:28:51.05	113.55	24.68	-37.2	-38.7	17.1	0.00e+00	0	56	0	1204813824	46	4159
2026-01-11 22:28:52.20	113.86	24.61	-37.3	-38.8	17.0	0.00e+00	0	56	0	1209008128	46	4197
2026-01-11 22:28:53.07	114.10	24.56	-37.2	-38.7	17.1	0.00e+00	0	56	0	1211105280	46	4181
2026-01-11 22:28:54.22	114.41	24.49	-37.1	-38.6	17.2	0.00e+00	0	57	0	1215299584	46	4132
2026-01-11 22:28:55.09	114.64	24.44	-37.0	-38.5	17.3	0.00e+00	0	56	0	1217396736	46	4070
2026-01-11 22:28:56.24	114.95	24.37	-37.1	-38.5	17.2	0.00e+00	0	57	0	1221591040	46	4092
2026-01-11 22:28:57.11	115.18	24.32	-37.1	-38.6	17.2	0.00e+00	0	56	0	1223688192	46	4100
2026-01-11 22:28:58.26	115.48	24.25	-37.2	-38.7	17.1	0.00e+00	0	57	0	1227882496	46	4183
2026-01-11 22:28:59.12	115.71	24.20	-37.3	-38.8	17.0	0.00e+00	0	57	0	1229979648	46	4223
2026-01-11 22:29:00.28	116.02	24.13	-37.4	-39.0	16.8	0.00e+00	0	56	0	1234173952	46	4306
2026-01-11 22:29:01.14	116.24	24.08	-37.5	-39.1	16.7	0.00e+00	0	56	0	1236271104	46	4366
2026-01-11 22:29:02.30	116.54	24.00	-37.7	-39.3	16.5	0.00e+00	0	57	0	1240465408	46	4462
2026-01-11 22:29:03.16	116.77	23.95	-37.7	-39.3	16.5	0.00e+00	0	57	0	1242562560	46	4480
2026-01-11 22:29:04.31	117.07	23.88	-37.6	-39.2	16.5	0.00e+00	0	57	0	1246756864	46	4439
2026-01-11 22:29:05.18	117.29	23.82	-37.6	-39.2	16.6	0.00e+00	0	56	0	1248854016	46	4432
2026-01-11 22:29:06.34	117.59	23.75	-37.6	-39.1	16.6	0.00e+00	0	56	0	1253048320	46	4391
2026-01-11 22:29:07.20	117.81	23.69	-37.5	-39.0	16.7	0.00e+00	0	57	0	1255145472	46	4332
2026-01-11 22:29:08.35	118.10	23.62	-37.4	-38.9	16.9	0.00e+00	0	56	0	1259339776	46	4285
2026-01-11 22:29:09.22	118.32	23.56	-37.4	-39.0	16.8	0.00e+00	0	56	0	1261436928	46	4315
2026-01-11 22:29:10.37	118.61	23.49	-37.6	-39.2	16.6	0.00e+00	0	57	0	1265631232	46	4412
2026-01-11 22:29:11.24	118.83	23.43	-37.7	-39.3	16.5	0.00e+00	0	57	0	1267728384	46	4472
2026-01-11 22:29:12.39	119.12	23.35	-37.7	-39.3	16.5	0.00e+00	0	56	0	1271922688	46	4470
2026-01-11 22:29:13.26	119.34	23.29	-37.8	-39.4	16.4	0.00e+00	0	56	0	1274019840	46	4532
2026-01-11 22:29:14.41	119.62	23.22	-37.9	-39.5	16.3	0.00e+00	0	57	0	1278214144	46	4585
2026-01-11 22:29:15.27	119.84	23.16	-37.8	-39.4	16.3	0.00e+00	0	57	0	1280311296	46	4543
2026-01-11 22:29:16.43	120.12	23.08	-37.8	-39.4	16.3	0.00e+00	0	57	0	1284505600	46	4533
2026-01-11 22:29:17.29	120.33	23.02	-37.8	-39.4	16.4	0.00e+00	0	56	0	1286602752	46	4516
2026-01-11 22:29:18.45	120.62	22.94	-37.6	-39.2	16.5	0.00e+00	0	57	0	1290797056	46	4425
2026-01-11 22:29:19.31	120.82	22.88	-37.6	-39.2	16.6	0.00e+00	0	57	0	1292894208	46	4408
2026-01-11 22:29:20.47	121.11	22.80	-37.5	-39.0	16.7	0.00e+00	0	56	0	1297088512	46	4323
2026-01-11 22:29:21.33	121.31	22.74	-37.5	-39.0	16.7	0.00e+00	0	57	0	1299185664	46	4327
2026-01-11 22:29:22.49	121.59	22.66	-37.5	-39.1	16.7	0.00e+00	0	56	0	1303379968	46	4374
2026-01-11 22:29:23.35	121.80	22.60	-37.5	-39.1	16.7	0.00e+00	0	57	0	1305477120	46	4356
2026-01-11 22:29:24.51	122.07	22.52	-37.6	-39.1	16.6	0.00e+00	0	57	0	1309671424	46	4387
2026-01-11 22:29:25.37	122.28	22.46	-37.6	-39.2	16.5	0.00e+00	0	57	0	1311768576	46	4415
2026-01-11 22:29:26.53	122.55	22.37	-37.6	-39.2	16.6	0.00e+00	0	56	0	1315962880	46	4398
2026-01-11 22:29:27.39	122.75	22.31	-37.5	-39.1	16.6	0.00e+00	0	57	0	1318060032	46	4355
2026-01-11 22:29:28.55	123.02	22.23	-37.5	-39.0	16.7	0.00e+00	0	57	0	1322254336	46	4334
2026-01-11 22:29:29.41	123.22	22.17	-37.5	-39.1	16.6	0.00e+00	0	56	0	1324351488	46	4364
2026-01-11 22:29:30.57	123.49	22.08	-37.5	-39.0	16.7	0.00e+00	0	56	0	1328545792	46	4327
2026-01-11 22:29:31.43	123.69	22.02	-37.5	-39.0	16.7	0.00e+00	0	56	0	1331691520	46	4328
2026-01-11 22:29:32.59	123.96	21.94	-37.5	-39.1	16.7	0.00e+00	0	57	0	1334837248	46	4343
2026-01-11 22:29:33.45	124.15	21.87	-37.5	-39.1	16.7	0.00e+00	0	56	0	1336934400	46	4349
2026-01-11 22:29:34.61	124.42	21.79	-37.5	-39.1	16.6	0.00e+00	0	56	0	1341128704	46	4373
2026-01-11 22:29:35.47	124.61	21.73	-37.6	-39.2	16.5	0.00e+00	0	56	0	1344274432	46	4423
2026-01-11 22:29:36.63	124.87	21.64	-37.7	-39.3	16.4	0.00e+00	0	57	0	1347420160	46	4474
2026-01-11 22:29:37.50	125.07	21.58	-37.7	-39.3	16.5	0.00e+00	0	56	0	1350565888	46	4465
2026-01-11 22:29:38.65	125.32	21.49	-37.7	-39.3	16.4	0.00e+00	0	56	0	1353711616	46	4490
2026-01-11 22:29:39.52	125.52	21.42	-37.7	-39.4	16.3	2.20e-06	0	56	0	1356857344	46	4513
2026-01-11 22:29:40.67	125.77	21.34	-37.6	-39.2	16.5	0.00e+00	0	56	0	1360003072	46	4441
2026-01-11 22:29:41.53	125.96	21.27	-37.6	-39.2	16.5	0.00e+00	0	56	0	1363148800	46	4405
2026-01-11 22:29:42.69	126.21	21.19	-37.4	-39.0	16.7	0.00e+00	0	57	0	1366294528	46	4306
2026-01-11 22:29:43.55	126.40	21.12	-37.4	-38.9	16.8	0.00e+00	0	56	0	1369440256	46	4276
2026-01-11 22:29:44.71	126.65	21.03	-37.2	-38.8	16.9	9.90e-06	0	56	0	1372585984	45	4463
2026-01-11 22:29:45.57	126.84	20.97	-37.3	-38.8	16.9	0.00e+00	0	57	0	1375731712	45	4457
2026-01-11 22:29:46.72	127.09	20.88	-37.3	-38.8	16.9	0.00e+00	0	57	0	1378877440	45	4479
2026-01-11 22:29:47.59	127.27	20.82	-37.4	-38.9	16.8	0.00e+00	0	57	0	1382023168	45	4524
2026-01-11 22:29:48.74	127.52	20.73	-37.3	-38.9	16.8	0.00e+00	0	57	0	1385168896	45	4518
2026-01-11 22:29:49.61	127.70	20.66	-37.4	-38.9	16.7	0.00e+00	0	56	0	1388314624	45	4526
2026-01-11 22:29:50.76	127.94	20.57	-37.4	-39.0	16.7	0.00e+00	0	56	0	1391460352	45	4565
2026-01-11 22:29:51.62	128.12	20.51	-37.4	-39.0	16.7	0.00e+00	0	56	0	1394606080	45	4557
2026-01-11 22:29:52.78	128.36	20.42	-37.4	-39.0	16.7	0.00e+00	0	57	0	1397751808	45	4551
2026-01-11 22:29:53.64	128.54	20.35	-37.4	-38.9	16.7	0.00e+00	0	57	0	1400897536	45	4526
2026-01-11 22:29:54.80	128.78	20.26	-37.4	-38.9	16.7	0.00e+00	0	57	0	1404043264	45	4540
2026-01-11 22:29:55.66	128.96	20.20	-37.4	-39.0	16.7	0.00e+00	0	57	0	1407188992	45	4550
2026-01-11 22:29:56.82	129.20	20.11	-37.5	-39.1	16.6	0.00e+00	0	57	0	1410334720	45	4599
2026-01-11 22:29:57.68	129.37	20.04	-37.5	-39.1	16.6	0.00e+00	0	57	0	1413480448	45	4608
2026-01-11 22:29:58.84	129.61	19.95	-37.5	-39.1	16.5	0.00e+00	0	56	0	1416626176	45	4646
2026-01-11 22:29:59.70	129.78	19.88	-37.5	-39.2	16.5	0.00e+00	0	56	0	1419771904	45	4656
2026-01-11 22:30:00.86	130.01	19.79	-37.5	-39.2	16.5	0.00e+00	0	56	0	1422917632	45	4661
2026-01-11 22:30:01.73	130.18	19.73	-37.6	-39.2	16.4	0.00e+00	0	56	0	1426063360	45	4705
2026-01-11 22:30:02.88	130.41	19.64	-37.7	-39.3	16.3	0.00e+00	0	57	0	1429209088	45	4735
2026-01-11 22:30:03.75	130.58	19.57	-37.7	-39.4	16.3	0.00e+00	0	57	0	1432354816	45	4762
2026-01-11 22:30:04.90	130.81	19.48	-37.7	-39.4	16.3	0.00e+00	0	57	0	1435500544	46	4508
2026-01-11 22:30:05.77	130.98	19.41	-37.7	-39.4	16.2	0.00e+00	0	57	0	1438646272	46	4516
2026-01-11 22:30:06.93	131.21	19.32	-37.7	-39.4	16.3	0.00e+00	0	57	0	1441792000	46	4508
2026-01-11 22:30:07.79	131.37	19.25	-37.7	-39.3	16.3	0.00e+00	0	57	0	1444937728	46	4492
2026-01-11 22:30:08.94	131.59	19.16	-37.7	-39.4	16.3	0.00e+00	0	57	0	1448083456	46	4503
2026-01-11 22:30:09.81	131.76	19.09	-37.7	-39.4	16.1	1.37e-05	0	57	0	1451229184	46	4520
2026-01-11 22:30:10.96	131.98	19.00	-37.7	-39.4	16.2	0.00e+00	0	56	0	1454374912	46	4521
2026-01-11 22:30:11.83	132.14	18.93	-37.7	-39.5	16.1	1.33e-04	0	57	0	1457520640	46	4549
2026-01-11 22:30:12.99	132.36	18.84	-37.8	-39.5	16.1	7.00e-07	0	56	0	1460666368	46	4565
2026-01-11 22:30:13.85	132.52	18.77	-38.0	-39.7	15.9	5.34e-05	0	56	0	1463812096	46	4666
2026-01-11 22:30:15.01	132.74	18.68	-37.2	-39.7	15.8	9.90e-04	0	56	0	1466957824	46	4654
2026-01-11 22:30:15.87	132.90	18.61	-38.0	-39.7	15.9	1.50e-06	0	57	0	1470103552	46	4670
2026-01-11 22:30:17.02	133.11	18.52	-37.8	-39.6	16.0	3.50e-05	0	57	0	1473249280	46	4612
2026-01-11 22:30:17.89	133.27	18.46	-37.8	-39.6	16.0	6.10e-06	0	56	0	1476395008	46	4599
2026-01-11 22:30:19.04	133.48	18.36	-37.8	-39.5	16.0	3.00e-06	0	56	0	1479540736	46	4588
2026-01-11 22:30:19.91	133.64	18.30	-37.9	-39.6	16.0	6.80e-06	0	57	0	1482686464	46	4618
2026-01-11 22:30:21.06	133.85	18.20	-37.9	-39.7	15.7	3.89e-05	0	57	0	1485832192	46	4679
2026-01-11 22:30:21.92	134.01	18.14	-38.0	-39.8	15.8	4.95e-05	0	57	0	1488977920	46	4726
2026-01-11 22:30:23.08	134.21	18.05	-38.0	-39.8	15.8	2.97e-04	0	57	0	1492123648	46	4734
2026-01-11 22:30:23.94	134.37	17.98	-37.9	-39.8	15.1	7.32e-05	0	57	0	1495269376	45	4995
2026-01-11 22:30:25.10	134.57	17.89	-38.0	-39.7	15.9	2.13e-05	0	57	0	1498415104	46	4676
2026-01-11 22:30:25.96	134.72	17.82	-38.0	-39.7	15.9	1.14e-05	0	57	0	1501560832	46	4678
2026-01-11 22:30:27.11	134.93	17.73	-38.0	-39.7	15.8	2.22e-03	0	56	0	1504706560	46	4703
2026-01-11 22:30:27.98	135.08	17.66	-38.1	-39.9	15.6	1.37e-05	0	57	0	1507852288	46	4761
2026-01-11 22:30:29.14	135.28	17.57	-38.2	-40.0	15.6	1.90e-05	0	57	0	1510998016	46	4820
2026-01-11 22:30:30.00	135.43	17.50	-38.2	-40.0	15.2	6.86e-03	0	56	0	1514143744	46	4819
2026-01-11 22:30:31.16	135.63	17.41	-38.1	-39.9	15.6	9.84e-05	0	57	0	1517289472	46	4786
2026-01-11 22:30:32.02	135.78	17.34	-37.9	-39.9	15.6	1.14e-05	0	57	0	1520435200	46	4804
2026-01-11 22:30:33.18	135.97	17.25	-38.1	-39.9	15.6	6.10e-06	0	57	0	1524629504	46	4795
2026-01-11 22:30:34.04	136.12	17.18	-38.2	-40.0	15.6	4.50e-06	0	57	0	1526726656	46	4826
2026-01-11 22:30:35.19	136.31	17.09	-38.2	-40.0	15.5	6.80e-06	0	57	0	1530920960	47	4574
2026-01-11 22:30:36.06	136.46	17.02	-38.2	-40.0	15.5	3.68e-04	0	57	0	1533018112	47	4573
2026-01-11 22:30:37.21	136.65	16.93	-38.2	-40.0	15.5	2.20e-06	0	56	0	1536163840	47	4589
2026-01-11 22:30:38.08	136.79	16.86	-38.2	-40.1	15.5	7.00e-07	0	57	0	1539309568	47	4600
2026-01-11 22:30:39.23	136.98	16.77	-38.2	-40.1	15.5	6.80e-06	0	56	0	1543503872	47	4607
2026-01-11 22:30:40.09	137.13	16.70	-38.3	-40.1	15.4	3.00e-06	0	57	0	1545601024	47	4634
2026-01-11 22:30:41.25	137.32	16.61	-38.2	-40.1	15.4	2.49e-04	0	56	0	1549795328	47	4600
2026-01-11 22:30:42.11	137.46	16.54	-38.2	-40.0	15.4	9.90e-06	0	57	0	1551892480	47	4596
2026-01-11 22:30:43.27	137.64	16.45	-38.2	-40.0	15.5	7.00e-07	0	57	0	1556086784	47	4581
2026-01-11 22:30:44.13	137.78	16.38	-38.1	-39.9	15.6	7.00e-07	0	57	0	1558183936	47	4527
2026-01-11 22:30:45.29	137.97	16.29	-38.1	-39.9	15.6	1.40e-04	0	56	0	1562378240	46	4774
2026-01-11 22:30:46.15	138.10	16.22	-38.0	-39.8	15.8	0.00e+00	0	57	0	1564475392	46	4720
2026-01-11 22:30:47.31	138.29	16.13	-38.0	-39.7	15.8	1.83e-05	0	57	0	1568669696	46	4680
2026-01-11 22:30:48.17	138.42	16.06	-38.0	-39.7	15.7	0.00e+00	0	56	0	1570766848	46	4699
2026-01-11 22:30:49.33	138.61	15.97	-38.0	-39.8	15.7	4.34e-05	0	57	0	1574961152	46	4724
2026-01-11 22:30:50.19	138.74	15.90	-38.1	-39.8	15.6	0.00e+00	0	57	0	1577058304	46	4753
2026-01-11 22:30:51.35	138.92	15.81	-38.0	-39.8	15.7	0.00e+00	0	57	0	1581252608	46	4735
2026-01-11 22:30:52.22	139.05	15.75	-38.0	-39.7	15.7	0.00e+00	0	57	0	1583349760	46	4700
2026-01-11 22:30:53.37	139.23	15.66	-38.0	-39.7	15.8	0.00e+00	0	57	0	1587544064	46	4693
2026-01-11 22:30:54.24	139.36	15.59	-38.0	-39.7	15.8	0.00e+00	0	57	0	1589641216	46	4694
2026-01-11 22:30:55.39	139.54	15.50	-38.0	-39.8	15.7	0.00e+00	0	57	0	1593835520	46	4733
2026-01-11 22:30:56.25	139.67	15.43	-38.1	-39.9	15.6	0.00e+00	0	57	0	1595932672	46	4767
2026-01-11 22:30:57.41	139.84	15.34	-38.2	-40.0	15.5	0.00e+00	0	57	0	1600126976	46	4859
2026-01-11 22:30:58.27	139.97	15.27	-38.3	-40.1	15.3	0.00e+00	0	57	0	1602224128	47	4638
2026-01-11 22:30:59.42	140.14	15.18	-38.3	-40.1	15.3	0.00e+00	0	57	0	1606418432	47	4649
2026-01-11 22:31:00.29	140.27	15.12	-38.4	-40.2	15.2	7.00e-07	0	57	0	1608515584	47	4693
2026-01-11 22:31:01.44	140.44	15.03	-38.4	-40.3	15.2	0.00e+00	0	57	0	1612709888	47	4729
2026-01-11 22:31:02.31	140.57	14.96	-38.4	-40.2	15.2	0.00e+00	0	57	0	1614807040	47	4695
2026-01-11 22:31:03.46	140.74	14.87	-38.3	-40.2	15.3	0.00e+00	0	57	0	1619001344	47	4666
2026-01-11 22:31:04.33	140.86	14.80	-38.3	-40.2	15.2	0.00e+00	0	57	0	1621098496	47	4676
2026-01-11 22:31:05.48	141.03	14.71	-38.3	-40.2	15.3	0.00e+00	0	57	0	1625292800	47	4673
2026-01-11 22:31:06.35	141.16	14.64	-38.4	-40.3	15.2	0.00e+00	0	57	0	1627389952	47	4708
2026-01-11 22:31:07.50	141.32	14.56	-38.3	-40.2	15.2	0.00e+00	0	57	0	1631584256	47	4685
2026-01-11 22:31:08.37	141.44	14.49	-38.3	-40.2	15.2	0.00e+00	0	57	0	1633681408	47	4676
2026-01-11 22:31:09.52	141.61	14.40	-38.3	-40.2	15.2	0.00e+00	0	57	0	1637875712	47	4659
2026-01-11 22:31:10.39	141.73	14.33	-38.3	-40.2	15.2	0.00e+00	0	57	0	1639972864	47	4675
2026-01-11 22:31:11.54	141.89	14.24	-38.3	-40.2	15.2	0.00e+00	0	57	0	1644167168	47	4687
2026-01-11 22:31:12.41	142.01	14.18	-38.4	-40.2	15.2	0.00e+00	0	57	0	1646264320	47	4693
2026-01-11 22:31:13.56	142.17	14.09	-38.4	-40.3	15.1	0.00e+00	0	57	0	1650458624	47	4738
2026-01-11 22:31:14.42	142.29	14.02	-38.5	-40.4	15.0	0.00e+00	0	57	0	1652555776	47	4793
2026-01-11 22:31:15.58	142.45	13.93	-38.5	-40.4	15.0	0.00e+00	0	57	0	1656750080	47	4793
2026-01-11 22:31:16.44	142.57	13.87	-38.6	-40.5	14.9	0.00e+00	0	57	0	1658847232	47	4846
2026-01-11 22:31:17.60	142.72	13.78	-38.5	-40.4	15.0	0.00e+00	0	57	0	1663041536	47	4807
2026-01-11 22:31:18.46	142.84	13.71	-38.5	-40.4	14.9	0.00e+00	0	57	0	1665138688	47	4805
2026-01-11 22:31:19.62	143.00	13.63	-38.5	-40.4	15.0	0.00e+00	0	57	0	1669332992	47	4796
2026-01-11 22:31:20.48	143.11	13.56	-38.5	-40.4	15.0	0.00e+00	0	57	0	1672478720	47	4788
2026-01-11 22:31:21.64	143.27	13.47	-38.5	-40.4	14.9	0.00e+00	0	57	0	1675624448	47	4803
2026-01-11 22:31:22.50	143.38	13.41	-38.6	-40.5	14.9	0.00e+00	0	57	0	1677721600	47	4838
2026-01-11 22:31:23.66	143.53	13.32	-38.6	-40.6	14.8	0.00e+00	0	57	0	1681915904	47	4894
2026-01-11 22:31:24.52	143.65	13.25	-38.7	-40.7	14.7	7.00e-07	0	57	0	1684013056	47	4946
2026-01-11 22:31:25.67	143.80	13.17	-38.7	-40.7	14.7	0.00e+00	0	57	0	1688207360	47	4949
2026-01-11 22:31:26.54	143.91	13.10	-38.8	-40.8	14.6	1.50e-06	0	57	0	1691353088	48	4741
2026-01-11 22:31:27.69	144.06	13.01	-38.9	-40.9	14.6	0.00e+00	0	57	0	1694498816	48	4769
2026-01-11 22:31:28.56	144.17	12.95	-38.8	-40.8	14.6	2.20e-06	0	57	0	1697644544	48	4740
2026-01-11 22:31:29.71	144.32	12.86	-38.8	-40.8	14.7	0.00e+00	0	57	0	1700790272	48	4707
2026-01-11 22:31:30.57	144.43	12.80	-38.8	-40.8	14.7	0.00e+00	0	57	0	1703936000	48	4720
2026-01-11 22:31:31.73	144.57	12.71	-38.8	-40.7	14.7	7.00e-07	0	57	0	1707081728	48	4699
2026-01-11 22:31:32.59	144.68	12.65	-38.7	-40.7	14.7	0.00e+00	0	57	0	1710227456	48	4665
2026-01-11 22:31:33.75	144.83	12.56	-38.7	-40.6	14.8	7.00e-07	0	57	0	1713373184	48	4650
2026-01-11 22:31:34.61	144.94	12.49	-38.7	-40.7	14.7	0.00e+00	0	57	0	1716518912	48	4686
2026-01-11 22:31:35.77	145.08	12.41	-38.8	-40.7	14.6	0.00e+00	0	57	0	1719664640	48	4692
2026-01-11 22:31:36.63	145.19	12.34	-38.8	-40.8	14.6	0.00e+00	0	57	0	1722810368	48	4719
2026-01-11 22:31:37.78	145.33	12.26	-38.8	-40.9	14.5	0.00e+00	0	57	0	1725956096	48	4770
2026-01-11 22:31:38.65	145.43	12.19	-38.8	-40.8	14.5	7.00e-07	0	57	0	1729101824	48	4756
2026-01-11 22:31:39.80	145.57	12.11	-38.8	-40.9	14.5	7.00e-07	0	57	0	1732247552	48	4774
2026-01-11 22:31:40.67	145.68	12.04	-38.9	-40.9	14.4	7.00e-07	0	57	0	1735393280	48	4803
2026-01-11 22:31:41.82	145.82	11.96	-38.9	-41.0	14.4	3.00e-06	0	57	0	1738539008	48	4836
2026-01-11 22:31:42.69	145.92	11.89	-38.9	-41.0	14.3	0.00e+00	0	57	0	1741684736	48	4848
2026-01-11 22:31:43.84	146.06	11.81	-39.0	-41.1	14.2	7.00e-07	0	57	0	1744830464	48	4904
2026-01-11 22:31:44.71	146.16	11.75	-39.0	-41.1	14.2	7.00e-07	0	57	0	1747976192	48	4919
2026-01-11 22:31:45.86	146.30	11.66	-39.1	-41.2	14.2	1.50e-06	0	57	0	1751121920	48	4935
2026-01-11 22:31:46.73	146.40	11.60	-39.1	-41.2	14.1	7.00e-07	0	57	0	1754267648	48	4953
2026-01-11 22:31:47.88	146.54	11.51	-39.2	-41.3	14.0	3.00e-06	0	57	0	1757413376	48	5031
2026-01-11 22:31:48.74	146.64	11.45	-39.0	-41.1	14.2	7.00e-07	0	57	0	1760559104	48	4878
2026-01-11 22:31:49.90	146.77	11.37	-39.0	-41.0	14.3	1.50e-06	0	57	0	1763704832	48	4866
2026-01-11 22:31:50.76	146.87	11.30	-39.0	-41.2	14.1	0.00e+00	0	57	0	1766850560	48	4932
2026-01-11 22:31:51.91	147.00	11.22	-39.0	-41.2	14.1	1.50e-06	0	57	0	1769996288	48	4954
2026-01-11 22:31:52.78	147.10	11.16	-39.0	-41.1	14.1	1.50e-06	0	57	0	1773142016	48	4915
2026-01-11 22:31:53.93	147.23	11.07	-39.0	-41.1	14.2	7.00e-07	0	57	0	1776287744	48	4879
2026-01-11 22:31:54.80	147.33	11.01	-39.0	-41.1	14.1	1.50e-06	0	57	0	1779433472	48	4907
2026-01-11 22:31:55.95	147.46	10.93	-39.0	-41.1	14.1	1.50e-06	0	57	0	1782579200	48	4922
2026-01-11 22:31:56.81	147.56	10.86	-38.9	-41.0	14.2	0.00e+00	0	57	0	1785724928	48	4840
2026-01-11 22:31:57.97	147.69	10.78	-38.9	-41.1	14.2	2.20e-06	0	57	0	1788870656	48	4876
2026-01-11 22:31:58.83	147.78	10.72	-39.0	-41.2	14.0	1.50e-06	0	57	0	1792016384	48	4939
2026-01-11 22:31:59.99	147.91	10.64	-39.0	-41.1	14.1	1.50e-06	0	57	0	1795162112	48	4908
2026-01-11 22:32:00.85	148.01	10.57	-39.0	-41.1	14.0	2.20e-06	0	57	0	1798307840	48	4926
2026-01-11 22:32:02.00	148.13	10.49	-39.0	-41.1	14.1	2.20e-06	0	57	0	1801453568	48	4888
2026-01-11 22:32:02.87	148.23	10.43	-39.0	-41.1	14.1	3.00e-06	0	57	0	1804599296	48	4900
2026-01-11 22:32:04.02	148.35	10.35	-39.0	-41.1	14.0	3.80e-06	0	57	0	1807745024	48	4895
2026-01-11 22:32:04.89	148.45	10.28	-39.0	-41.2	14.0	4.50e-06	0	57	0	1810890752	48	4932
2026-01-11 22:32:06.04	148.57	10.20	-38.9	-41.1	14.1	2.20e-06	0	57	0	1814036480	48	4877
2026-01-11 22:32:06.91	148.66	10.14	-39.0	-41.1	14.0	3.00e-06	0	57	0	1817182208	48	4924
2026-01-11 22:32:08.06	148.79	10.06	-39.0	-41.2	14.0	1.50e-06	0	57	0	1820327936	48	4927
2026-01-11 22:32:08.93	148.88	10.00	-39.0	-41.2	13.8	1.50e-06	0	57	0	1823473664	48	4953
2026-01-11 22:32:10.08	149.00	9.92	-39.0	-41.2	13.9	3.80e-06	0	57	0	1826619392	48	4942
2026-01-11 22:32:10.95	149.09	9.86	-39.0	-41.1	13.9	4.50e-06	0	57	0	1829765120	48	4914
2026-01-11 22:32:12.10	149.21	9.77	-39.1	-41.3	13.8	6.80e-06	0	57	0	1832910848	48	4994
2026-01-11 22:32:12.97	149.30	9.71	-38.9	-41.1	13.9	5.30e-06	0	57	0	1836056576	48	4916
2026-01-11 22:32:14.12	149.42	9.63	-39.0	-41.3	13.7	6.80e-06	0	57	0	1839202304	48	4986
2026-01-11 22:32:14.98	149.51	9.57	-39.1	-41.3	13.7	6.80e-06	0	57	0	1842348032	48	5025
2026-01-11 22:32:16.14	149.63	9.49	-39.1	-41.3	13.7	3.80e-06	0	57	0	1845493760	48	5026
2026-01-11 22:32:17.00	149.72	9.43	-39.2	-41.5	13.5	1.22e-05	0	57	0	1848639488	48	5103
2026-01-11 22:32:18.16	149.83	9.35	-39.1	-41.4	13.6	1.06e-05	0	57	0	1851785216	48	5057
2026-01-11 22:32:19.02	149.92	9.29	-39.2	-41.5	13.5	1.44e-05	0	57	0	1854930944	49	4830
2026-01-11 22:32:20.17	150.04	9.21	-39.2	-41.5	13.4	1.37e-05	0	57	0	1858076672	49	4846
2026-01-11 22:32:21.04	150.12	9.15	-39.2	-41.6	13.3	1.83e-05	0	57	0	1861222400	49	4877
2026-01-11 22:32:22.19	150.24	9.07	-39.3	-41.6	13.2	2.36e-05	0	57	0	1864368128	49	4925
2026-01-11 22:32:23.06	150.32	9.01	-39.3	-41.7	13.1	3.35e-05	0	57	0	1867513856	49	4979
2026-01-11 22:32:24.21	150.44	8.93	-39.3	-41.8	13.1	2.36e-05	0	57	0	1870659584	49	5002
2026-01-11 22:32:25.08	150.52	8.87	-39.4	-41.9	12.9	4.04e-05	0	57	0	1873805312	49	5065
2026-01-11 22:32:26.23	150.64	8.79	-39.4	-41.9	12.9	5.34e-05	0	57	0	1876951040	49	5089
2026-01-11 22:32:27.10	150.72	8.73	-39.4	-41.9	13.0	3.89e-05	0	57	0	1880096768	49	5060
2026-01-11 22:32:28.25	150.83	8.65	-39.4	-41.9	12.9	5.03e-05	0	57	0	1883242496	49	5075
2026-01-11 22:32:29.12	150.92	8.59	-39.4	-41.8	13.0	4.42e-05	0	57	0	1886388224	49	5022
2026-01-11 22:32:30.27	151.03	8.51	-39.3	-41.8	13.0	3.89e-05	0	57	0	1889533952	49	4988
2026-01-11 22:32:31.14	151.11	8.46	-39.4	-41.9	12.9	4.42e-05	0	57	0	1892679680	49	5047
2026-01-11 22:32:32.29	151.22	8.38	-39.5	-42.0	12.8	7.01e-05	0	57	0	1895825408	49	5126
2026-01-11 22:32:33.15	151.30	8.32	-39.5	-42.1	12.7	7.70e-05	0	57	0	1898971136	49	5164
2026-01-11 22:32:34.31	151.41	8.24	-39.5	-42.0	12.7	8.69e-05	0	57	0	1902116864	49	5132
2026-01-11 22:32:35.17	151.49	8.18	-39.4	-42.0	12.7	8.62e-05	0	57	0	1905262592	49	5121
2026-01-11 22:32:36.33	151.60	8.10	-39.5	-42.1	12.5	1.14e-04	0	57	0	1909456896	49	5216
