passes_logs/2026/01/11/R2.0S_Moscow/R2.0S_Moscow__20260111_074256_NOAA_20_JPSS-1_rec.log

#Pass ID: 20260111_074256_NOAA 20 (JPSS-1)
#Satellite: NOAA 20 (JPSS-1)
#Configuration: NOAA 20
#almurnet v.1.7.20251203
#Start time: 2026-01-11 07:42:56

#Version: 2.2.20231116
#Station: R2.0S_Moscow
#Location: 37.707566 lon 55.798166 lat
#TLE: 1 43013U 17073A   26009.69119415  .00000109  00000+0  72598-4 0  9996
#TLE: 2 43013  98.7631 310.6868 0001678  46.7442 313.3874 14.19534878421981

#Time	Az	El	Level	Level2	SNR	BER	BlckErr	Temp	State	Recorded	gain1	gain2
2026-01-11 07:42:56.55	95.30	2.00	-39.9	-54.5	3.8	1.49e+00	0	47	0	0	51	19372
2026-01-11 07:42:57.56	95.22	2.05	-39.9	-54.5	3.8	1.49e+00	0	47	104	0	51	19374
2026-01-11 07:42:58.58	95.13	2.10	-39.9	-54.5	3.8	1.49e+00	0	47	104	0	51	19355
2026-01-11 07:42:59.59	95.04	2.15	-39.9	-54.5	3.8	1.49e+00	0	47	104	0	51	19387
2026-01-11 07:43:00.60	94.96	2.20	-39.9	-54.5	3.8	1.49e+00	0	47	104	0	51	19380
2026-01-11 07:43:01.61	94.87	2.25	-39.9	-54.6	3.8	1.49e+00	0	47	104	0	51	19410
2026-01-11 07:43:02.62	94.78	2.31	-39.9	-54.5	3.8	1.49e+00	0	47	104	0	51	19351
2026-01-11 07:43:03.63	94.69	2.36	-39.9	-54.5	3.8	1.49e+00	0	48	104	0	51	19342
2026-01-11 07:43:04.64	94.60	2.41	-39.9	-54.5	3.8	1.49e+00	0	48	104	0	51	19335
2026-01-11 07:43:05.65	94.51	2.46	-39.9	-54.6	3.8	1.49e+00	0	48	104	0	51	19395
2026-01-11 07:43:06.66	94.43	2.51	-39.9	-54.5	3.8	1.49e+00	0	48	104	0	51	19360
2026-01-11 07:43:07.67	94.34	2.56	-39.9	-54.5	3.8	1.49e+00	0	48	104	0	51	19321
2026-01-11 07:43:08.68	94.25	2.61	-39.9	-54.5	3.8	1.49e+00	0	48	104	0	51	19357
2026-01-11 07:43:09.70	94.15	2.66	-39.8	-54.5	3.8	1.49e+00	0	48	104	0	51	19372
2026-01-11 07:43:10.71	94.06	2.71	-39.9	-54.5	3.8	1.49e+00	0	48	104	0	51	19321
2026-01-11 07:43:11.72	93.97	2.77	-39.9	-54.5	3.8	1.49e+00	0	48	104	0	51	19388
2026-01-11 07:43:12.73	93.88	2.82	-39.9	-54.5	3.8	1.49e+00	0	48	104	0	51	19386
2026-01-11 07:43:13.74	93.79	2.87	-39.9	-54.6	3.8	1.49e+00	0	48	104	0	51	19401
2026-01-11 07:43:14.75	93.70	2.92	-39.9	-54.5	3.8	1.49e+00	0	48	104	0	51	19339
2026-01-11 07:43:15.76	93.61	2.97	-39.9	-54.5	3.8	1.49e+00	0	48	104	0	51	19298
2026-01-11 07:43:16.77	93.51	3.02	-39.9	-54.5	3.8	1.49e+00	0	49	104	0	51	19385
2026-01-11 07:43:17.78	93.42	3.07	-39.9	-54.5	3.8	1.49e+00	0	48	104	0	51	19363
2026-01-11 07:43:18.80	93.33	3.13	-39.9	-54.5	3.8	1.49e+00	0	49	104	0	51	19345
2026-01-11 07:43:19.81	93.23	3.18	-39.9	-54.5	3.8	1.49e+00	0	49	104	0	51	19333
2026-01-11 07:43:20.82	93.14	3.23	-39.9	-54.5	3.8	1.49e+00	0	49	104	0	51	19324
2026-01-11 07:43:21.83	93.05	3.28	-39.9	-54.5	3.8	1.49e+00	0	49	104	0	51	19337
2026-01-11 07:43:22.84	92.95	3.33	-39.9	-54.5	3.8	1.49e+00	0	49	104	0	50	20514
2026-01-11 07:43:23.85	92.86	3.38	-39.8	-54.5	3.8	1.49e+00	0	49	104	0	50	20512
2026-01-11 07:43:24.86	92.76	3.43	-39.8	-54.5	3.8	1.49e+00	0	49	104	0	50	20517
2026-01-11 07:43:25.87	92.67	3.49	-39.9	-54.5	3.8	1.49e+00	0	49	104	0	50	20520
2026-01-11 07:43:26.88	92.57	3.54	-39.6	-54.5	3.8	1.49e+00	0	49	104	0	50	20405
2026-01-11 07:43:27.90	92.47	3.59	-39.9	-54.5	3.8	1.49e+00	0	49	104	0	50	20483
2026-01-11 07:43:28.91	92.38	3.64	-39.9	-54.5	3.8	1.49e+00	0	49	104	0	50	20498
2026-01-11 07:43:29.92	92.28	3.69	-39.9	-54.5	3.8	1.49e+00	0	49	104	0	50	20515
2026-01-11 07:43:30.93	92.18	3.74	-39.6	-54.5	3.8	1.49e+00	0	49	104	0	50	20472
2026-01-11 07:43:31.94	92.08	3.80	-39.9	-54.5	3.8	1.49e+00	0	49	104	0	50	20526
2026-01-11 07:43:32.95	91.99	3.85	-39.9	-54.5	3.8	1.49e+00	0	49	104	0	50	20510
2026-01-11 07:43:33.96	91.89	3.90	-39.9	-54.5	3.8	1.49e+00	0	50	104	0	50	20484
2026-01-11 07:43:34.97	91.79	3.95	-39.9	-54.5	3.8	1.49e+00	0	50	104	0	50	20483
2026-01-11 07:43:35.98	91.69	4.00	-39.9	-54.5	3.8	1.49e+00	0	50	104	0	50	20416
2026-01-11 07:43:36.99	91.59	4.05	-39.9	-54.5	3.8	1.49e+00	0	50	104	0	50	20493
2026-01-11 07:43:38.00	91.49	4.11	-39.9	-54.5	3.8	1.49e+00	0	50	104	0	50	20483
2026-01-11 07:43:39.01	91.39	4.16	-39.9	-54.5	3.8	1.49e+00	0	50	104	0	50	20492
2026-01-11 07:43:40.03	91.29	4.21	-39.9	-54.5	3.8	1.49e+00	0	50	104	0	50	20506
2026-01-11 07:43:41.04	91.19	4.26	-39.9	-54.6	3.8	1.49e+00	0	50	104	0	50	20556
2026-01-11 07:43:42.05	91.09	4.31	-39.9	-54.5	3.8	1.49e+00	0	50	104	0	50	20505
2026-01-11 07:43:43.06	90.99	4.37	-39.9	-54.6	3.8	1.49e+00	0	50	104	0	50	20548
2026-01-11 07:43:44.07	90.88	4.42	-39.9	-54.5	3.8	1.49e+00	0	50	104	0	50	20451
2026-01-11 07:43:45.08	90.78	4.47	-39.9	-54.6	3.8	1.49e+00	0	50	104	0	50	20541
2026-01-11 07:43:46.09	90.68	4.52	-39.9	-54.5	3.8	1.49e+00	0	50	104	0	50	20495
2026-01-11 07:43:47.10	90.58	4.57	-39.9	-54.5	3.8	1.49e+00	0	50	104	0	50	20406
2026-01-11 07:43:48.11	90.47	4.63	-39.9	-54.5	3.8	1.49e+00	0	50	104	0	50	20512
2026-01-11 07:43:49.13	90.37	4.68	-39.9	-54.5	3.8	1.49e+00	0	50	104	0	50	20520
2026-01-11 07:43:50.14	90.26	4.73	-39.9	-54.5	3.8	1.49e+00	0	50	104	0	50	20535
2026-01-11 07:43:51.15	90.16	4.78	-39.9	-54.5	3.8	1.49e+00	0	50	104	0	50	20462
2026-01-11 07:43:52.16	90.05	4.83	-39.9	-54.5	3.8	1.49e+00	0	50	104	0	50	20488
2026-01-11 07:43:53.17	89.95	4.89	-39.8	-54.5	3.8	1.49e+00	0	51	104	0	50	20516
2026-01-11 07:43:54.18	89.84	4.94	-39.9	-54.5	3.8	1.49e+00	0	51	104	0	50	20499
2026-01-11 07:43:55.19	89.74	4.99	-39.9	-54.5	3.8	1.49e+00	0	51	104	0	50	20508
2026-01-11 07:43:56.20	89.63	5.04	-39.9	-54.5	3.8	1.49e+00	0	51	104	0	50	20537
2026-01-11 07:43:57.21	89.52	5.09	-39.9	-54.5	3.8	1.49e+00	0	51	104	0	50	20472
2026-01-11 07:43:58.23	89.42	5.15	-39.9	-54.5	3.8	1.49e+00	0	51	104	0	50	20456
2026-01-11 07:43:59.24	89.31	5.20	-39.9	-54.5	3.8	1.49e+00	0	51	104	0	50	20495
2026-01-11 07:44:00.25	89.20	5.25	-39.9	-54.5	3.8	1.49e+00	0	51	104	0	50	20416
2026-01-11 07:44:01.26	89.09	5.30	-39.8	-54.5	3.8	1.49e+00	0	51	104	0	50	20518
2026-01-11 07:44:02.27	88.98	5.36	-39.9	-54.5	3.8	1.49e+00	0	51	104	0	50	20494
2026-01-11 07:44:03.28	88.87	5.41	-39.9	-54.5	3.8	1.49e+00	0	51	104	0	50	20496
2026-01-11 07:44:04.29	88.76	5.46	-39.9	-54.5	3.8	1.49e+00	0	51	104	0	50	20474
2026-01-11 07:44:05.30	88.65	5.51	-39.7	-54.5	3.8	1.49e+00	0	51	104	0	50	20473
2026-01-11 07:44:06.31	88.54	5.56	-39.8	-54.5	3.8	1.49e+00	0	51	104	0	50	20486
2026-01-11 07:44:07.32	88.43	5.62	-39.9	-54.6	3.8	1.49e+00	0	51	104	0	50	20550
2026-01-11 07:44:08.33	88.32	5.67	-39.9	-54.5	3.8	1.49e+00	0	51	104	0	50	20492
2026-01-11 07:44:09.34	88.21	5.72	-39.9	-54.5	3.8	1.49e+00	0	51	104	0	50	20475
2026-01-11 07:44:10.36	88.10	5.77	-39.8	-54.5	3.8	1.49e+00	0	51	104	0	50	20458
2026-01-11 07:44:11.37	87.98	5.83	-39.9	-54.5	3.8	1.49e+00	0	51	104	0	50	20458
2026-01-11 07:44:12.38	87.87	5.88	-39.8	-54.5	3.8	1.49e+00	0	51	104	0	50	20528
2026-01-11 07:44:13.39	87.76	5.93	-39.9	-54.5	3.8	1.49e+00	0	51	104	0	50	20486
2026-01-11 07:44:14.40	87.64	5.98	-39.9	-54.5	3.8	1.49e+00	0	51	104	0	50	20496
2026-01-11 07:44:15.41	87.53	6.03	-39.9	-54.5	3.8	1.49e+00	0	52	104	0	50	20425
2026-01-11 07:44:16.42	87.42	6.09	-39.9	-54.5	3.8	1.49e+00	0	51	104	0	50	20481
2026-01-11 07:44:17.43	87.30	6.14	-39.9	-54.5	3.8	1.49e+00	0	52	104	0	50	20475
2026-01-11 07:44:18.44	87.18	6.19	-39.9	-54.5	3.8	1.49e+00	0	52	104	0	50	20473
2026-01-11 07:44:19.45	87.07	6.24	-39.9	-54.5	3.8	1.49e+00	0	52	104	0	50	20440
2026-01-11 07:44:20.46	86.95	6.30	-39.9	-54.5	3.8	1.49e+00	0	52	104	0	50	20476
2026-01-11 07:44:21.47	86.84	6.35	-39.9	-54.5	3.8	1.49e+00	0	52	104	0	50	20466
2026-01-11 07:44:22.48	86.72	6.40	-39.8	-54.5	3.8	1.49e+00	0	52	104	0	50	20456
2026-01-11 07:44:23.49	86.60	6.45	-39.9	-54.5	3.8	1.49e+00	0	52	104	0	50	20536
2026-01-11 07:44:24.50	86.48	6.50	-39.9	-54.5	3.8	1.49e+00	0	52	104	0	50	20480
2026-01-11 07:44:25.51	86.37	6.56	-39.9	-54.5	3.8	1.49e+00	0	52	104	0	50	20486
2026-01-11 07:44:26.52	86.25	6.61	-39.9	-54.5	3.8	1.49e+00	0	52	104	0	50	20524
2026-01-11 07:44:27.53	86.13	6.66	-39.9	-54.5	3.8	1.49e+00	0	52	104	0	50	20504
2026-01-11 07:44:28.54	86.01	6.71	-39.8	-54.5	3.8	1.49e+00	0	52	104	0	50	20490
2026-01-11 07:44:29.55	85.89	6.76	-39.9	-54.5	3.8	1.49e+00	0	52	104	0	50	20510
2026-01-11 07:44:30.57	85.77	6.82	-39.9	-54.5	3.8	1.49e+00	0	52	104	0	50	20500
2026-01-11 07:44:31.58	85.64	6.87	-39.9	-54.5	3.8	1.49e+00	0	52	104	0	50	20482
2026-01-11 07:44:32.59	85.52	6.92	-39.9	-54.5	3.8	1.49e+00	0	52	104	0	50	20459
2026-01-11 07:44:33.60	85.40	6.97	-39.9	-54.5	3.8	1.49e+00	0	52	104	0	50	20477
2026-01-11 07:44:34.61	85.28	7.02	-39.9	-54.5	3.8	1.49e+00	0	52	104	0	50	20487
2026-01-11 07:44:35.62	85.16	7.08	-39.9	-54.5	3.8	1.49e+00	0	52	104	0	50	20497
2026-01-11 07:44:36.63	85.03	7.13	-39.7	-54.5	3.8	1.49e+00	0	52	104	0	50	20507
2026-01-11 07:44:37.64	84.91	7.18	-39.9	-54.5	3.8	1.49e+00	0	52	104	0	50	20453
2026-01-11 07:44:38.65	84.79	7.23	-39.9	-54.5	3.8	1.49e+00	0	52	104	0	50	20499
2026-01-11 07:44:39.66	84.66	7.28	-39.9	-54.5	3.8	1.49e+00	0	52	104	0	50	20491
2026-01-11 07:44:40.68	84.53	7.34	-39.9	-54.5	3.8	1.49e+00	0	53	104	0	50	20472
2026-01-11 07:44:41.69	84.41	7.39	-39.9	-54.5	3.8	1.49e+00	0	52	104	0	50	20509
2026-01-11 07:44:42.70	84.28	7.44	-39.9	-54.5	3.8	1.49e+00	0	53	104	0	50	20511
2026-01-11 07:44:43.71	84.16	7.49	-39.9	-54.5	3.8	1.49e+00	0	52	104	0	50	20466
2026-01-11 07:44:44.72	84.03	7.54	-39.9	-54.5	3.8	1.49e+00	0	52	104	0	50	20490
2026-01-11 07:44:45.73	83.90	7.60	-39.8	-54.5	3.8	1.49e+00	0	53	104	0	50	20462
2026-01-11 07:44:46.74	83.77	7.65	-39.8	-54.5	3.8	1.49e+00	0	53	104	0	50	20507
2026-01-11 07:44:47.75	83.65	7.70	-39.9	-54.5	3.8	1.49e+00	0	53	104	0	50	20488
2026-01-11 07:44:48.77	83.52	7.75	-39.7	-54.5	3.8	1.49e+00	0	53	104	0	50	20451
2026-01-11 07:44:49.78	83.39	7.80	-39.9	-54.5	3.8	1.49e+00	0	53	104	0	50	20466
2026-01-11 07:44:50.79	83.26	7.85	-39.9	-54.5	3.8	1.49e+00	0	53	104	0	50	20527
2026-01-11 07:44:51.80	83.13	7.91	-39.9	-54.5	3.8	1.49e+00	0	53	104	0	50	20485
2026-01-11 07:44:52.80	83.00	7.96	-39.9	-54.5	3.8	1.49e+00	0	53	104	0	50	20428
2026-01-11 07:44:53.81	82.87	8.01	-39.9	-54.5	3.8	1.49e+00	0	53	104	0	50	20485
2026-01-11 07:44:54.82	82.74	8.06	-40.0	-54.6	3.8	1.49e+00	0	53	104	0	50	20628
2026-01-11 07:44:55.83	82.60	8.11	-40.0	-54.5	3.8	1.49e+00	0	53	104	0	50	20536
2026-01-11 07:44:56.84	82.47	8.16	-39.9	-54.5	3.8	1.49e+00	0	53	104	0	50	20377
2026-01-11 07:44:57.85	82.34	8.21	-40.0	-54.5	3.8	1.49e+00	0	53	104	0	50	20485
2026-01-11 07:44:58.86	82.21	8.27	-39.9	-54.5	3.8	1.49e+00	0	53	104	0	50	20523
2026-01-11 07:44:59.87	82.07	8.32	-40.0	-54.5	3.8	1.49e+00	0	53	104	0	50	20448
2026-01-11 07:45:00.88	81.94	8.37	-39.8	-54.5	3.8	1.49e+00	0	53	104	0	50	20387
2026-01-11 07:45:01.89	81.80	8.42	-40.0	-54.5	3.8	1.49e+00	0	53	104	0	50	20472
2026-01-11 07:45:02.90	81.67	8.47	-39.9	-54.5	3.8	1.49e+00	0	53	104	0	50	20357
2026-01-11 07:45:03.91	81.53	8.52	-40.0	-54.6	3.8	1.49e+00	0	53	104	0	50	20570
2026-01-11 07:45:04.92	81.39	8.57	-39.9	-54.5	3.8	1.49e+00	0	53	104	0	50	20359
2026-01-11 07:45:05.93	81.26	8.62	-40.0	-54.6	3.8	1.49e+00	0	53	104	0	50	20702
2026-01-11 07:45:06.94	81.12	8.67	-39.9	-54.5	3.8	1.49e+00	0	53	104	0	50	20349
2026-01-11 07:45:07.95	80.98	8.73	-40.1	-54.6	3.8	1.49e+00	0	53	104	0	50	20747
2026-01-11 07:45:08.96	80.85	8.78	-40.0	-54.5	3.8	1.49e+00	0	53	104	0	50	20387
2026-01-11 07:45:09.97	80.71	8.83	-40.1	-54.6	3.8	1.49e+00	0	53	104	0	50	20603
2026-01-11 07:45:10.98	80.57	8.88	-40.0	-54.6	3.8	1.49e+00	0	53	104	0	50	20654
2026-01-11 07:45:11.99	80.43	8.93	-40.1	-54.6	3.8	1.49e+00	0	53	104	0	50	20668
2026-01-11 07:45:13.00	80.29	8.98	-40.1	-54.6	3.8	1.49e+00	0	54	104	0	50	20722
2026-01-11 07:45:14.01	80.15	9.03	-40.2	-54.7	3.8	1.49e+00	0	53	104	0	50	20979
2026-01-11 07:45:15.02	80.01	9.08	-40.0	-54.5	3.8	1.49e+00	0	53	104	0	50	20534
2026-01-11 07:45:16.03	79.86	9.13	-40.2	-54.8	3.8	1.49e+00	0	54	104	0	50	21075
2026-01-11 07:45:17.04	79.72	9.18	-40.1	-54.6	3.8	1.49e+00	0	54	104	0	50	20612
2026-01-11 07:45:18.05	79.58	9.23	-40.2	-54.8	3.8	1.49e+00	0	53	104	0	50	21044
2026-01-11 07:45:19.06	79.44	9.28	-40.2	-54.7	3.8	1.49e+00	0	53	104	0	50	20971
2026-01-11 07:45:20.07	79.29	9.33	-40.2	-54.8	3.8	1.49e+00	0	54	104	0	51	19888
2026-01-11 07:45:21.07	79.15	9.38	-40.2	-54.8	3.8	1.49e+00	0	54	104	0	51	19894
2026-01-11 07:45:22.08	79.00	9.43	-40.4	-55.0	3.8	1.49e+00	0	54	104	0	51	20434
2026-01-11 07:45:23.09	78.86	9.48	-40.2	-54.7	3.8	1.49e+00	0	54	104	0	51	19729
2026-01-11 07:45:24.11	78.71	9.53	-40.5	-55.1	3.8	1.49e+00	0	54	104	0	51	20638
2026-01-11 07:45:25.12	78.57	9.58	-40.1	-54.7	3.8	1.49e+00	0	54	104	0	51	19821
2026-01-11 07:45:26.13	78.42	9.63	-40.4	-54.9	3.8	1.49e+00	0	54	104	0	51	20073
2026-01-11 07:45:27.14	78.27	9.68	-40.5	-55.1	3.8	1.49e+00	0	54	104	0	51	20704
2026-01-11 07:45:28.15	78.12	9.73	-40.4	-54.9	3.8	1.49e+00	0	54	104	0	51	20298
2026-01-11 07:45:29.16	77.98	9.78	-40.5	-55.2	3.8	1.49e+00	0	54	104	0	51	20913
2026-01-11 07:45:30.17	77.83	9.83	-40.7	-55.3	3.8	1.49e+00	0	54	104	0	51	21136
2026-01-11 07:45:31.18	77.68	9.88	-40.4	-55.0	3.8	1.49e+00	0	54	104	0	51	20372
2026-01-11 07:45:32.19	77.53	9.93	-40.6	-55.2	3.8	1.49e+00	0	54	104	0	52	19804
2026-01-11 07:45:33.20	77.38	9.98	-40.4	-55.0	3.8	1.49e+00	0	54	104	0	52	19310
2026-01-11 07:45:34.21	77.23	10.03	-40.6	-55.1	3.8	1.49e+00	0	54	104	0	52	19502
2026-01-11 07:45:35.22	77.08	10.07	-40.7	-55.3	3.8	1.49e+00	0	54	104	0	52	19870
2026-01-11 07:45:36.22	76.93	10.12	-40.6	-55.1	3.8	1.49e+00	0	54	104	0	52	19541
2026-01-11 07:45:37.23	76.77	10.17	-40.8	-55.3	3.8	1.49e+00	0	54	104	0	52	19982
2026-01-11 07:45:38.24	76.62	10.22	-41.0	-55.4	3.8	1.49e+00	0	54	104	0	52	20298
2026-01-11 07:45:39.25	76.47	10.27	-40.6	-55.2	3.8	1.49e+00	0	54	104	0	52	19784
2026-01-11 07:45:40.26	76.31	10.32	-41.0	-55.5	3.8	1.49e+00	0	54	104	0	52	20482
2026-01-11 07:45:41.27	76.16	10.36	-40.7	-55.2	3.8	1.49e+00	0	54	104	0	52	19757
2026-01-11 07:45:42.28	76.01	10.41	-40.9	-55.4	3.8	1.49e+00	0	54	104	0	52	20235
2026-01-11 07:45:43.29	75.85	10.46	-40.9	-55.5	3.8	1.49e+00	0	54	104	0	52	20505
2026-01-11 07:45:44.30	75.69	10.51	-41.0	-55.5	3.8	1.49e+00	0	54	104	0	52	20456
2026-01-11 07:45:45.31	75.54	10.56	-41.0	-55.7	3.8	1.49e+00	0	54	104	0	52	20788
2026-01-11 07:45:46.32	75.38	10.60	-41.1	-55.6	3.8	1.49e+00	0	54	104	0	52	20723
2026-01-11 07:45:47.33	75.22	10.65	-41.0	-55.6	3.8	1.49e+00	0	54	104	0	52	20576
2026-01-11 07:45:48.34	75.07	10.70	-41.1	-55.6	3.8	1.49e+00	0	54	104	0	52	20639
2026-01-11 07:45:49.35	74.91	10.75	-41.1	-55.6	3.8	1.49e+00	0	54	104	0	52	20654
2026-01-11 07:45:50.36	74.75	10.79	-41.0	-55.6	3.8	1.49e+00	0	54	104	0	52	20584
2026-01-11 07:45:51.37	74.59	10.84	-41.1	-55.6	3.8	1.49e+00	0	54	104	0	52	20666
2026-01-11 07:45:52.38	74.43	10.89	-41.0	-55.5	3.8	1.49e+00	0	54	104	0	52	20528
2026-01-11 07:45:53.39	74.27	10.94	-40.9	-55.4	3.8	1.49e+00	0	54	104	0	52	20183
2026-01-11 07:45:54.40	74.11	10.98	-40.9	-55.4	3.8	1.49e+00	0	54	104	0	52	20257
2026-01-11 07:45:55.41	73.95	11.03	-41.0	-55.5	3.8	1.49e+00	0	54	104	0	52	20484
2026-01-11 07:45:56.42	73.78	11.08	-40.8	-55.3	3.8	1.49e+00	0	54	104	0	52	20008
2026-01-11 07:45:57.43	73.62	11.12	-41.0	-55.5	3.8	1.49e+00	0	54	104	0	52	20429
2026-01-11 07:45:58.44	73.46	11.17	-40.9	-55.4	3.8	1.49e+00	0	54	104	0	52	20182
2026-01-11 07:45:59.45	73.29	11.21	-40.7	-55.3	3.8	1.49e+00	0	54	104	0	52	19891
2026-01-11 07:46:00.46	73.13	11.26	-40.8	-55.3	3.8	1.49e+00	0	55	104	0	52	20025
2026-01-11 07:46:01.47	72.97	11.31	-40.6	-55.2	3.8	1.49e+00	0	54	104	0	52	19656
2026-01-11 07:46:02.48	72.80	11.35	-40.7	-55.2	3.8	1.49e+00	0	55	104	0	52	19741
2026-01-11 07:46:03.49	72.63	11.40	-40.7	-55.2	3.8	1.49e+00	0	54	104	0	52	19761
2026-01-11 07:46:04.50	72.47	11.44	-40.7	-55.2	3.8	1.49e+00	0	55	104	0	52	19761
2026-01-11 07:46:05.51	72.30	11.49	-40.7	-55.3	3.8	1.49e+00	0	54	104	0	52	19880
2026-01-11 07:46:06.52	72.13	11.53	-40.7	-55.3	3.8	1.49e+00	0	54	104	0	52	19930
2026-01-11 07:46:07.53	71.97	11.58	-40.8	-55.3	3.8	1.49e+00	0	55	104	0	52	20034
2026-01-11 07:46:08.54	71.80	11.62	-40.8	-55.4	3.8	1.49e+00	0	55	104	0	52	20135
2026-01-11 07:46:09.55	71.63	11.67	-41.0	-55.5	3.8	1.49e+00	0	54	104	0	52	20508
2026-01-11 07:46:10.56	71.46	11.71	-40.9	-55.5	3.8	1.49e+00	0	55	104	0	52	20371
2026-01-11 07:46:11.58	71.29	11.76	-41.0	-55.5	3.8	1.49e+00	0	55	104	0	52	20470
2026-01-11 07:46:12.59	71.12	11.80	-41.0	-55.5	3.8	1.49e+00	0	55	104	0	52	20453
2026-01-11 07:46:13.60	70.95	11.84	-40.9	-55.5	3.8	1.49e+00	0	54	104	0	52	20344
2026-01-11 07:46:14.60	70.78	11.89	-41.1	-55.6	3.8	1.49e+00	0	55	104	0	52	20649
2026-01-11 07:46:15.61	70.61	11.93	-41.0	-55.6	3.8	1.49e+00	0	55	104	0	52	20592
2026-01-11 07:46:16.62	70.43	11.97	-41.1	-55.6	3.8	1.49e+00	0	55	104	0	52	20596
2026-01-11 07:46:17.63	70.26	12.02	-40.9	-55.5	3.8	1.49e+00	0	55	104	0	52	20350
2026-01-11 07:46:18.64	70.09	12.06	-41.0	-55.5	3.8	1.49e+00	0	55	104	0	52	20481
2026-01-11 07:46:19.65	69.91	12.10	-40.9	-55.4	3.8	1.49e+00	0	55	104	0	52	20252
2026-01-11 07:46:20.66	69.74	12.15	-40.9	-55.5	3.8	1.49e+00	0	55	104	0	52	20309
2026-01-11 07:46:21.67	69.56	12.19	-41.0	-55.6	3.8	1.49e+00	0	54	104	0	52	20556
2026-01-11 07:46:22.68	69.39	12.23	-40.9	-55.5	3.8	1.49e+00	0	55	104	0	52	20378
2026-01-11 07:46:23.69	69.21	12.27	-41.0	-55.5	3.8	1.49e+00	0	55	104	0	52	20316
2026-01-11 07:46:24.70	69.04	12.32	-41.0	-55.6	3.8	1.49e+00	0	54	104	0	52	20600
2026-01-11 07:46:25.71	68.86	12.36	-41.1	-55.6	3.8	1.49e+00	0	55	104	0	52	20752
2026-01-11 07:46:26.72	68.68	12.40	-41.0	-55.5	3.8	1.49e+00	0	55	104	0	52	20365
2026-01-11 07:46:27.73	68.50	12.44	-41.1	-55.6	3.8	1.49e+00	0	55	104	0	52	20657
2026-01-11 07:46:28.74	68.32	12.48	-41.1	-55.5	3.8	1.49e+00	0	55	104	0	52	20534
2026-01-11 07:46:29.75	68.15	12.52	-41.2	-55.6	3.8	1.49e+00	0	55	104	0	52	20731
2026-01-11 07:46:30.76	67.97	12.56	-41.1	-55.6	3.8	1.49e+00	0	55	104	0	53	19578
2026-01-11 07:46:31.77	67.79	12.60	-41.2	-55.6	3.8	1.49e+00	0	55	104	0	53	19547
2026-01-11 07:46:32.78	67.60	12.64	-41.0	-55.6	3.8	1.49e+00	0	55	104	0	53	19464
2026-01-11 07:46:33.78	67.43	12.68	-41.1	-55.6	3.8	1.49e+00	0	55	104	0	53	19525
2026-01-11 07:46:34.79	67.24	12.72	-41.1	-55.6	3.8	1.49e+00	0	55	104	0	53	19453
2026-01-11 07:46:35.80	67.06	12.76	-41.1	-55.7	3.8	1.49e+00	0	55	104	0	53	19640
2026-01-11 07:46:36.81	66.88	12.80	-41.0	-55.5	3.8	1.49e+00	0	55	104	0	53	19384
2026-01-11 07:46:37.82	66.70	12.84	-41.3	-55.5	3.8	1.49e+00	0	55	104	0	53	19264
2026-01-11 07:46:38.83	66.51	12.88	-41.0	-55.5	3.8	1.49e+00	0	55	104	0	53	19378
2026-01-11 07:46:39.84	66.33	12.92	-41.4	-55.7	3.8	1.49e+00	0	55	104	0	53	19693
2026-01-11 07:46:40.85	66.14	12.96	-41.1	-55.6	3.8	1.49e+00	0	55	104	0	53	19552
2026-01-11 07:46:41.86	65.96	13.00	-41.3	-55.8	3.8	1.49e+00	0	55	104	0	53	19959
2026-01-11 07:46:42.87	65.77	13.03	-41.2	-55.7	3.8	1.49e+00	0	55	104	0	53	19682
2026-01-11 07:46:43.88	65.59	13.07	-41.4	-55.9	3.8	1.49e+00	0	55	104	0	53	20237
2026-01-11 07:46:44.89	65.40	13.11	-41.2	-55.7	3.8	1.49e+00	0	55	104	0	53	19706
2026-01-11 07:46:45.91	65.21	13.15	-42.1	-55.1	3.8	1.49e+00	0	55	104	0	54	17405
2026-01-11 07:46:46.92	65.03	13.18	-41.2	-55.7	3.8	1.49e+00	0	55	104	0	54	18643
2026-01-11 07:46:47.93	64.84	13.22	-41.8	-55.9	3.8	1.49e+00	0	55	104	0	54	19132
2026-01-11 07:46:48.94	64.65	13.26	-42.1	-56.7	3.8	1.49e+00	0	55	104	0	54	20889
2026-01-11 07:46:49.95	64.46	13.29	-42.4	-56.0	3.8	1.49e+00	0	55	104	0	55	18271
2026-01-11 07:46:50.96	64.27	13.33	-43.7	-58.2	3.8	1.49e+00	0	55	104	0	57	20871
2026-01-11 07:46:51.97	64.08	13.37	-43.1	-55.5	3.8	1.49e+00	0	55	104	0	57	15239
2026-01-11 07:46:52.98	63.89	13.40	-41.5	-56.0	3.8	1.45e+00	0	55	104	0	55	18113
2026-01-11 07:46:53.99	63.70	13.44	-42.6	-53.5	4.0	1.48e+00	0	55	104	0	55	13664
2026-01-11 07:46:55.00	63.51	13.47	-42.1	-55.5	3.8	1.20e+00	0	55	104	0	55	17247
2026-01-11 07:46:56.01	63.32	13.51	-41.9	-49.5	6.6	1.28e+00	0	55	0	0	55	8588
2026-01-11 07:46:57.01	63.13	13.54	-41.9	-48.1	8.2	7.13e-02	0	55	0	2097152	55	7350
2026-01-11 07:46:58.02	62.94	13.58	-41.6	-46.9	9.6	2.44e-02	0	55	0	4194304	55	6402
2026-01-11 07:46:59.03	62.74	13.61	-41.3	-45.7	11.1	4.49e-03	0	55	0	5242880	54	5874
2026-01-11 07:47:00.04	62.55	13.64	-40.7	-44.3	12.7	5.12e-04	0	55	0	7340032	53	5319
2026-01-11 07:47:01.05	62.36	13.68	-40.5	-43.8	13.4	2.13e-05	0	55	0	9437184	52	5315
2026-01-11 07:47:02.06	62.16	13.71	-40.7	-44.2	13.0	2.05e-05	0	55	0	11534336	52	5557
2026-01-11 07:47:03.07	61.97	13.74	-41.0	-44.7	12.5	6.25e-05	0	55	0	13631488	52	5904
2026-01-11 07:47:04.08	61.77	13.78	-40.6	-44.0	13.3	3.35e-05	0	55	0	14680064	52	5440
2026-01-11 07:47:05.09	61.58	13.81	-40.6	-44.0	13.3	1.83e-05	0	55	0	16777216	52	5429
2026-01-11 07:47:06.10	61.38	13.84	-40.6	-43.9	13.4	1.98e-05	0	55	0	18874368	52	5367
2026-01-11 07:47:07.11	61.19	13.87	-40.7	-44.2	13.2	1.90e-05	0	55	0	20971520	52	5552
2026-01-11 07:47:08.12	60.99	13.90	-40.6	-43.9	13.4	2.21e-05	0	55	0	23068672	52	5396
2026-01-11 07:47:09.13	60.79	13.93	-40.7	-44.0	13.4	1.44e-05	0	55	0	24117248	52	5438
2026-01-11 07:47:10.14	60.59	13.96	-40.7	-44.0	13.4	1.29e-05	0	55	0	26214400	52	5424
2026-01-11 07:47:11.14	60.40	13.99	-40.5	-43.7	13.7	1.29e-05	0	55	0	28311552	52	5263
2026-01-11 07:47:12.15	60.20	14.03	-40.4	-43.5	13.9	6.10e-06	0	55	0	30408704	52	5127
2026-01-11 07:47:13.16	60.00	14.06	-40.3	-43.4	14.0	3.00e-06	0	55	0	32505856	52	5057
2026-01-11 07:47:14.17	59.80	14.08	-40.4	-43.4	14.0	2.20e-06	0	55	0	33554432	52	5081
2026-01-11 07:47:15.18	59.60	14.11	-40.3	-43.4	14.0	4.50e-06	0	55	0	35651584	52	5052
2026-01-11 07:47:16.19	59.40	14.14	-40.4	-43.5	13.9	4.50e-06	0	55	0	37748736	52	5138
2026-01-11 07:47:17.20	59.20	14.17	-40.4	-43.5	13.9	3.00e-06	0	55	0	39845888	52	5132
2026-01-11 07:47:18.21	59.00	14.20	-40.5	-43.6	13.9	3.00e-06	0	55	0	41943040	52	5187
2026-01-11 07:47:19.22	58.80	14.23	-40.5	-43.7	13.8	3.00e-06	0	55	0	44040192	52	5239
2026-01-11 07:47:20.23	58.60	14.26	-40.6	-43.8	13.7	4.50e-06	0	56	0	45088768	52	5322
2026-01-11 07:47:21.24	58.40	14.28	-40.6	-43.8	13.6	7.60e-06	0	55	0	47185920	52	5332
2026-01-11 07:47:22.25	58.19	14.31	-40.6	-43.7	13.8	7.60e-06	0	55	0	49283072	52	5259
2026-01-11 07:47:23.25	57.99	14.34	-40.5	-43.6	13.9	3.80e-06	0	55	0	51380224	52	5200
2026-01-11 07:47:24.26	57.79	14.36	-40.5	-43.7	13.8	2.20e-06	0	55	0	53477376	52	5236
2026-01-11 07:47:25.27	57.59	14.39	-40.6	-43.8	13.7	4.50e-06	0	55	0	54525952	52	5326
2026-01-11 07:47:26.28	57.38	14.42	-40.6	-43.8	13.7	5.30e-06	0	55	0	56623104	52	5325
2026-01-11 07:47:27.29	57.18	14.44	-40.7	-43.9	13.7	4.50e-06	0	55	0	58720256	52	5347
2026-01-11 07:47:28.30	56.98	14.47	-40.7	-43.9	13.6	9.10e-06	0	55	0	60817408	52	5362
2026-01-11 07:47:29.31	56.77	14.49	-40.7	-44.0	13.5	8.30e-06	0	55	0	62914560	52	5431
2026-01-11 07:47:30.32	56.57	14.52	-40.7	-44.0	13.5	1.06e-05	0	55	0	63963136	52	5412
2026-01-11 07:47:31.33	56.36	14.54	-40.8	-44.1	13.4	8.30e-06	0	55	0	66060288	52	5479
2026-01-11 07:47:32.34	56.15	14.56	-40.8	-44.2	13.3	1.29e-05	0	55	0	68157440	52	5576
2026-01-11 07:47:33.35	55.95	14.59	-40.8	-44.1	13.4	1.90e-05	0	55	0	70254592	52	5505
2026-01-11 07:47:34.36	55.74	14.61	-40.8	-44.1	13.4	1.44e-05	0	55	0	72351744	52	5502
2026-01-11 07:47:35.37	55.54	14.63	-40.7	-44.0	13.6	1.44e-05	0	56	0	73400320	52	5410
2026-01-11 07:47:36.38	55.33	14.65	-40.7	-44.0	13.5	6.80e-06	0	56	0	75497472	52	5439
2026-01-11 07:47:37.38	55.12	14.68	-40.7	-44.0	13.5	9.90e-06	0	55	0	77594624	52	5433
2026-01-11 07:47:38.39	54.92	14.70	-40.8	-44.1	13.4	1.29e-05	0	56	0	79691776	52	5487
2026-01-11 07:47:39.40	54.71	14.72	-40.8	-44.1	13.5	1.22e-05	0	55	0	81788928	52	5472
2026-01-11 07:47:40.42	54.50	14.74	-40.7	-43.9	13.6	6.80e-06	0	56	0	82837504	52	5389
2026-01-11 07:47:41.42	54.29	14.76	-40.6	-43.7	13.8	7.60e-06	0	56	0	84934656	52	5261
2026-01-11 07:47:42.43	54.08	14.78	-40.5	-43.7	13.9	3.00e-06	0	56	0	87031808	52	5222
2026-01-11 07:47:43.44	53.87	14.80	-40.6	-43.7	13.8	3.80e-06	0	55	0	89128960	52	5270
2026-01-11 07:47:44.45	53.66	14.82	-40.5	-43.7	13.9	6.10e-06	0	55	0	91226112	52	5248
2026-01-11 07:47:45.46	53.45	14.84	-40.5	-43.6	13.9	2.20e-06	0	56	0	92274688	52	5203
2026-01-11 07:47:46.47	53.24	14.86	-40.6	-43.8	13.8	7.00e-07	0	56	0	94371840	52	5280
2026-01-11 07:47:47.48	53.03	14.88	-40.5	-43.6	14.0	3.00e-06	0	56	0	96468992	52	5192
2026-01-11 07:47:48.49	52.82	14.89	-40.5	-43.7	13.9	2.20e-06	0	56	0	98566144	52	5240
2026-01-11 07:47:49.50	52.61	14.91	-40.5	-43.6	14.0	2.20e-06	0	56	0	100663296	52	5180
2026-01-11 07:47:50.50	52.40	14.93	-40.5	-43.6	14.0	1.50e-06	0	55	0	101711872	52	5170
2026-01-11 07:47:51.51	52.19	14.95	-40.5	-43.6	13.9	1.50e-06	0	56	0	103809024	52	5192
2026-01-11 07:47:52.52	51.98	14.96	-40.5	-43.7	13.9	1.50e-06	0	56	0	105906176	52	5232
2026-01-11 07:47:53.53	51.77	14.98	-40.6	-43.8	13.8	5.30e-06	0	56	0	108003328	52	5295
2026-01-11 07:47:54.54	51.56	14.99	-40.6	-43.9	13.7	9.10e-06	0	56	0	110100480	52	5341
2026-01-11 07:47:55.55	51.35	15.01	-40.6	-43.8	13.7	4.50e-06	0	56	0	112197632	52	5336
2026-01-11 07:47:56.56	51.13	15.03	-40.7	-43.9	13.6	1.83e-05	0	55	0	113246208	52	5398
2026-01-11 07:47:57.57	50.92	15.04	-40.8	-44.0	13.5	1.29e-05	0	56	0	115343360	52	5454
2026-01-11 07:47:58.58	50.71	15.05	-40.8	-44.1	13.5	4.50e-06	0	56	0	117440512	52	5498
2026-01-11 07:47:59.59	50.50	15.07	-40.8	-44.1	13.5	1.06e-05	0	56	0	119537664	52	5472
2026-01-11 07:48:00.60	50.28	15.08	-40.7	-43.9	13.6	1.22e-05	0	56	0	121634816	52	5400
2026-01-11 07:48:01.61	50.07	15.09	-40.8	-44.0	13.6	6.80e-06	0	56	0	122683392	52	5457
2026-01-11 07:48:02.62	49.86	15.11	-40.8	-44.1	13.5	6.80e-06	0	56	0	124780544	52	5470
2026-01-11 07:48:03.63	49.64	15.12	-40.8	-44.2	13.4	6.80e-06	0	56	0	126877696	52	5533
2026-01-11 07:48:04.64	49.43	15.13	-40.8	-44.1	13.5	9.10e-06	0	56	0	128974848	52	5469
2026-01-11 07:48:05.65	49.21	15.14	-40.6	-43.8	13.8	2.20e-06	0	56	0	130023424	52	5317
2026-01-11 07:48:06.66	49.00	15.15	-40.7	-43.9	13.7	2.20e-06	0	56	0	132120576	52	5344
2026-01-11 07:48:07.67	48.79	15.16	-40.7	-43.9	13.7	1.50e-06	0	56	0	134217728	52	5357
2026-01-11 07:48:08.68	48.57	15.17	-40.7	-44.0	13.6	6.10e-06	0	56	0	136314880	52	5420
2026-01-11 07:48:09.69	48.36	15.18	-40.8	-44.1	13.5	7.60e-06	0	56	0	138412032	52	5488
2026-01-11 07:48:10.70	48.14	15.19	-40.7	-43.9	13.7	7.60e-06	0	56	0	140509184	52	5357
2026-01-11 07:48:11.70	47.93	15.20	-40.6	-43.7	13.9	3.80e-06	0	56	0	141557760	52	5259
2026-01-11 07:48:12.71	47.71	15.21	-40.6	-43.8	13.8	5.30e-06	0	56	0	143654912	52	5301
2026-01-11 07:48:13.72	47.50	15.22	-40.7	-43.8	13.8	9.90e-06	0	56	0	145752064	52	5333
2026-01-11 07:48:14.73	47.28	15.23	-40.7	-43.8	13.8	1.50e-06	0	56	0	147849216	52	5300
2026-01-11 07:48:15.74	47.07	15.24	-40.6	-43.8	13.8	4.50e-06	0	56	0	149946368	52	5303
2026-01-11 07:48:16.75	46.85	15.24	-40.6	-43.8	13.9	1.50e-06	0	56	0	150994944	52	5282
2026-01-11 07:48:17.76	46.64	15.25	-40.7	-43.8	13.9	5.30e-06	0	56	0	153092096	52	5307
2026-01-11 07:48:18.77	46.42	15.26	-40.7	-43.9	13.7	3.80e-06	0	56	0	155189248	52	5355
2026-01-11 07:48:19.78	46.21	15.26	-40.7	-43.8	13.8	3.80e-06	0	56	0	157286400	52	5330
2026-01-11 07:48:20.79	45.99	15.27	-40.7	-43.8	13.8	4.50e-06	0	56	0	159383552	52	5321
2026-01-11 07:48:21.80	45.77	15.27	-40.7	-44.0	13.7	8.30e-06	0	56	0	160432128	52	5406
2026-01-11 07:48:22.81	45.56	15.28	-40.8	-44.0	13.6	7.60e-06	0	56	0	162529280	52	5432
2026-01-11 07:48:23.82	45.34	15.28	-40.8	-44.1	13.5	6.80e-06	0	56	0	164626432	52	5482
2026-01-11 07:48:24.83	45.13	15.28	-40.9	-44.2	13.4	1.75e-05	0	56	0	166723584	52	5534
2026-01-11 07:48:25.84	44.91	15.29	-40.8	-44.0	13.7	7.60e-06	0	56	0	168820736	52	5414
2026-01-11 07:48:26.85	44.69	15.29	-40.7	-43.9	13.8	3.80e-06	0	56	0	169869312	52	5344
2026-01-11 07:48:27.86	44.48	15.29	-40.6	-43.8	13.9	5.30e-06	0	56	0	171966464	52	5297
2026-01-11 07:48:28.87	44.26	15.30	-40.7	-43.9	13.8	4.50e-06	0	56	0	174063616	52	5347
2026-01-11 07:48:29.88	44.05	15.30	-40.7	-43.9	13.8	6.10e-06	0	56	0	176160768	52	5354
2026-01-11 07:48:30.89	43.83	15.30	-40.7	-43.8	13.8	4.50e-06	0	56	0	178257920	52	5309
2026-01-11 07:48:31.90	43.61	15.30	-40.6	-43.7	13.9	4.50e-06	0	56	0	179306496	52	5244
2026-01-11 07:48:32.91	43.40	15.30	-40.6	-43.7	14.0	1.50e-06	0	56	0	181403648	52	5223
2026-01-11 07:48:33.91	43.18	15.30	-40.6	-43.7	13.9	5.30e-06	0	56	0	183500800	52	5235
2026-01-11 07:48:34.93	42.97	15.30	-40.7	-43.8	13.8	3.00e-06	0	56	0	185597952	52	5334
2026-01-11 07:48:35.93	42.75	15.30	-40.7	-43.8	13.9	6.10e-06	0	56	0	187695104	52	5316
2026-01-11 07:48:36.94	42.54	15.30	-40.7	-43.9	13.7	3.80e-06	0	56	0	188743680	52	5368
2026-01-11 07:48:37.95	42.32	15.30	-40.8	-44.0	13.6	6.10e-06	0	56	0	190840832	52	5441
2026-01-11 07:48:38.96	42.10	15.30	-40.8	-44.0	13.6	9.10e-06	0	56	0	192937984	52	5438
2026-01-11 07:48:39.97	41.89	15.29	-40.8	-44.0	13.6	9.90e-06	0	56	0	195035136	52	5431
2026-01-11 07:48:40.98	41.67	15.29	-40.7	-43.9	13.7	6.10e-06	0	56	0	197132288	52	5364
2026-01-11 07:48:41.99	41.45	15.29	-40.7	-43.9	13.7	5.30e-06	0	56	0	198180864	52	5362
2026-01-11 07:48:43.00	41.24	15.28	-40.8	-44.0	13.7	5.30e-06	0	56	0	200278016	52	5420
2026-01-11 07:48:44.01	41.02	15.28	-40.8	-44.1	13.5	4.50e-06	0	56	0	202375168	52	5503
2026-01-11 07:48:45.02	40.81	15.28	-40.9	-44.2	13.5	7.60e-06	0	56	0	204472320	52	5544
2026-01-11 07:48:46.03	40.59	15.27	-40.9	-44.3	13.3	1.22e-05	0	56	0	206569472	52	5653
2026-01-11 07:48:47.04	40.38	15.27	-40.9	-44.3	13.3	1.37e-05	0	56	0	208666624	52	5598
2026-01-11 07:48:48.05	40.16	15.26	-40.9	-44.2	13.4	1.29e-05	0	56	0	209715200	52	5574
2026-01-11 07:48:49.06	39.94	15.25	-40.8	-44.1	13.6	1.06e-05	0	56	0	211812352	52	5466
2026-01-11 07:48:50.07	39.73	15.25	-40.8	-43.9	13.7	6.80e-06	0	56	0	213909504	52	5402
2026-01-11 07:48:51.07	39.52	15.24	-40.8	-44.0	13.7	9.90e-06	0	56	0	216006656	52	5421
2026-01-11 07:48:52.09	39.30	15.23	-40.8	-44.0	13.6	6.10e-06	0	56	0	218103808	52	5425
2026-01-11 07:48:53.10	39.08	15.23	-40.8	-44.1	13.6	6.10e-06	0	56	0	219152384	52	5476
2026-01-11 07:48:54.11	38.87	15.22	-40.8	-44.1	13.5	1.44e-05	0	56	0	221249536	52	5484
2026-01-11 07:48:55.12	38.65	15.21	-40.9	-44.2	13.4	1.44e-05	0	56	0	223346688	52	5546
2026-01-11 07:48:56.13	38.44	15.20	-40.9	-44.2	13.4	6.80e-06	0	56	0	225443840	52	5589
2026-01-11 07:48:57.14	38.22	15.19	-40.9	-44.2	13.4	1.29e-05	0	56	0	227540992	52	5552
2026-01-11 07:48:58.15	38.01	15.18	-40.8	-44.1	13.5	8.30e-06	0	56	0	228589568	52	5485
2026-01-11 07:48:59.16	37.79	15.17	-40.7	-43.9	13.7	7.60e-06	0	56	0	230686720	52	5351
2026-01-11 07:49:00.16	37.58	15.16	-40.7	-43.9	13.7	7.60e-06	0	56	0	232783872	52	5366
2026-01-11 07:49:01.17	37.37	15.15	-40.7	-43.9	13.7	1.14e-05	0	56	0	234881024	52	5359
2026-01-11 07:49:02.18	37.16	15.14	-40.7	-43.9	13.7	5.30e-06	0	56	0	236978176	52	5361
2026-01-11 07:49:03.19	36.94	15.13	-40.6	-43.7	13.9	2.20e-06	0	56	0	238026752	52	5263
2026-01-11 07:49:04.20	36.73	15.12	-40.5	-43.6	14.0	3.00e-06	0	56	0	240123904	52	5203
2026-01-11 07:49:05.21	36.51	15.10	-40.6	-43.6	14.0	1.50e-06	0	56	0	242221056	52	5213
2026-01-11 07:49:06.22	36.30	15.09	-40.6	-43.6	14.0	3.00e-06	0	56	0	244318208	52	5211
2026-01-11 07:49:07.23	36.09	15.08	-40.5	-43.6	14.0	5.30e-06	0	56	0	246415360	52	5191
2026-01-11 07:49:08.24	35.88	15.06	-40.5	-43.6	14.0	3.00e-06	0	56	0	247463936	52	5206
2026-01-11 07:49:09.25	35.66	15.05	-40.5	-43.6	14.0	2.20e-06	0	56	0	249561088	52	5189
2026-01-11 07:49:10.25	35.45	15.04	-40.5	-43.5	14.1	1.50e-06	0	56	0	251658240	52	5144
2026-01-11 07:49:11.26	35.24	15.02	-40.5	-43.6	14.1	1.50e-06	0	56	0	253755392	52	5167
2026-01-11 07:49:12.27	35.03	15.01	-40.4	-43.4	14.2	7.00e-07	0	56	0	255852544	52	5066
2026-01-11 07:49:13.28	34.82	14.99	-40.4	-43.4	14.2	0.00e+00	0	56	0	256901120	52	5089
2026-01-11 07:49:14.29	34.61	14.97	-40.5	-43.5	14.1	1.50e-06	0	56	0	258998272	52	5118
2026-01-11 07:49:15.30	34.39	14.96	-40.5	-43.5	14.1	1.50e-06	0	56	0	261095424	52	5141
2026-01-11 07:49:16.31	34.18	14.94	-40.5	-43.6	14.0	4.50e-06	0	56	0	263192576	52	5165
2026-01-11 07:49:17.32	33.97	14.92	-40.5	-43.6	14.0	3.00e-06	0	56	0	265289728	52	5176
2026-01-11 07:49:18.33	33.76	14.91	-40.5	-43.6	14.0	1.50e-06	0	56	0	266338304	52	5162
2026-01-11 07:49:19.34	33.55	14.89	-40.5	-43.5	14.1	7.00e-07	0	56	0	268435456	52	5128
2026-01-11 07:49:20.35	33.34	14.87	-40.5	-43.6	14.0	3.00e-06	0	56	0	270532608	52	5180
2026-01-11 07:49:21.36	33.13	14.85	-40.6	-43.7	13.9	3.80e-06	0	56	0	272629760	52	5248
2026-01-11 07:49:22.37	32.92	14.83	-40.6	-43.8	13.8	4.50e-06	0	56	0	274726912	52	5284
2026-01-11 07:49:23.38	32.71	14.82	-40.7	-44.0	13.6	1.22e-05	0	56	0	276824064	52	5417
2026-01-11 07:49:24.39	32.50	14.80	-40.8	-44.0	13.5	1.06e-05	0	56	0	277872640	52	5448
2026-01-11 07:49:25.40	32.30	14.78	-40.6	-43.8	13.8	7.60e-06	0	56	0	279969792	52	5335
2026-01-11 07:49:26.41	32.09	14.76	-40.6	-43.7	13.9	3.00e-06	0	56	0	282066944	52	5272
2026-01-11 07:49:27.41	31.88	14.74	-40.6	-43.7	13.9	3.80e-06	0	56	0	284164096	52	5232
2026-01-11 07:49:28.42	31.67	14.71	-40.6	-43.7	13.9	1.50e-06	0	56	0	286261248	52	5254
2026-01-11 07:49:29.43	31.47	14.69	-40.5	-43.6	14.0	3.00e-06	0	56	0	287309824	52	5180
2026-01-11 07:49:30.45	31.26	14.67	-40.5	-43.6	14.0	2.20e-06	0	56	0	289406976	52	5181
2026-01-11 07:49:31.45	31.05	14.65	-40.5	-43.7	13.9	2.20e-06	0	56	0	291504128	52	5235
2026-01-11 07:49:32.46	30.85	14.63	-40.6	-43.7	13.9	3.00e-06	0	56	0	293601280	52	5242
2026-01-11 07:49:33.47	30.64	14.60	-40.6	-43.8	13.9	3.80e-06	0	56	0	295698432	52	5304
2026-01-11 07:49:34.48	30.43	14.58	-40.7	-43.8	13.8	7.60e-06	0	56	0	296747008	52	5329
2026-01-11 07:49:35.49	30.23	14.56	-40.7	-44.0	13.7	1.06e-05	0	56	0	298844160	52	5407
2026-01-11 07:49:36.50	30.02	14.53	-40.8	-44.0	13.6	5.30e-06	0	56	0	300941312	52	5434
2026-01-11 07:49:37.51	29.82	14.51	-40.9	-44.2	13.4	9.90e-06	0	56	0	303038464	52	5563
2026-01-11 07:49:38.52	29.61	14.48	-40.9	-44.2	13.4	1.83e-05	0	56	0	305135616	52	5559
2026-01-11 07:49:39.53	29.41	14.46	-40.8	-44.2	13.4	2.21e-05	0	56	0	306184192	52	5546
2026-01-11 07:49:40.54	29.21	14.43	-40.8	-44.2	13.4	1.75e-05	0	56	0	308281344	52	5553
2026-01-11 07:49:41.55	29.00	14.41	-40.8	-44.1	13.5	6.10e-06	0	56	0	310378496	52	5491
2026-01-11 07:49:42.56	28.80	14.38	-40.6	-43.8	13.8	1.06e-05	0	56	0	312475648	52	5307
2026-01-11 07:49:43.57	28.60	14.36	-40.6	-43.7	13.8	5.30e-06	0	56	0	314572800	52	5276
2026-01-11 07:49:44.58	28.39	14.33	-40.6	-43.8	13.8	3.80e-06	0	56	0	315621376	52	5284
2026-01-11 07:49:45.59	28.19	14.30	-40.6	-43.8	13.8	4.50e-06	0	56	0	317718528	52	5311
2026-01-11 07:49:46.60	27.99	14.28	-40.7	-43.9	13.6	5.30e-06	0	56	0	319815680	52	5389
2026-01-11 07:49:47.61	27.79	14.25	-40.7	-43.9	13.7	5.30e-06	0	56	0	321912832	52	5364
2026-01-11 07:49:48.62	27.59	14.22	-40.7	-43.9	13.6	9.90e-06	0	56	0	324009984	52	5393
2026-01-11 07:49:49.63	27.39	14.19	-40.7	-43.9	13.7	1.14e-05	0	56	0	325058560	52	5364
2026-01-11 07:49:50.64	27.19	14.16	-40.7	-43.8	13.7	6.80e-06	0	56	0	327155712	52	5338
2026-01-11 07:49:51.65	26.99	14.14	-40.6	-43.7	13.8	3.80e-06	0	56	0	329252864	52	5273
2026-01-11 07:49:52.65	26.79	14.11	-40.5	-43.5	14.0	3.80e-06	0	56	0	331350016	52	5156
2026-01-11 07:49:53.67	26.59	14.08	-40.5	-43.6	14.0	1.50e-06	0	56	0	333447168	52	5187
2026-01-11 07:49:54.68	26.39	14.05	-40.4	-43.5	14.1	4.50e-06	0	56	0	334495744	52	5121
2026-01-11 07:49:55.69	26.19	14.02	-40.5	-43.5	14.0	7.00e-07	0	56	0	336592896	52	5158
2026-01-11 07:49:56.69	26.00	13.99	-40.4	-43.4	14.1	7.00e-07	0	56	0	338690048	52	5063
2026-01-11 07:49:57.70	25.80	13.96	-40.4	-43.3	14.2	7.00e-07	0	56	0	340787200	52	5036
2026-01-11 07:49:58.71	25.60	13.93	-40.4	-43.5	14.0	0.00e+00	0	56	0	342884352	52	5118
2026-01-11 07:49:59.72	25.41	13.90	-40.5	-43.6	13.9	6.10e-06	0	56	0	344981504	52	5173
2026-01-11 07:50:00.73	25.21	13.86	-40.5	-43.7	13.8	3.00e-06	0	56	0	346030080	52	5252
2026-01-11 07:50:01.74	25.02	13.83	-40.7	-43.9	13.6	8.30e-06	0	56	0	348127232	52	5363
2026-01-11 07:50:02.75	24.82	13.80	-40.6	-43.7	13.8	5.30e-06	0	56	0	350224384	52	5253
2026-01-11 07:50:03.76	24.63	13.77	-40.5	-43.6	13.9	1.50e-06	0	56	0	352321536	52	5190
2026-01-11 07:50:04.78	24.43	13.73	-40.5	-43.6	13.9	3.00e-06	0	56	0	354418688	52	5198
2026-01-11 07:50:05.78	24.24	13.70	-40.6	-43.8	13.7	5.30e-06	0	57	0	355467264	52	5316
2026-01-11 07:50:06.79	24.04	13.67	-40.5	-43.7	13.8	3.00e-06	0	56	0	357564416	52	5246
2026-01-11 07:50:07.80	23.85	13.64	-40.6	-43.7	13.8	7.00e-07	0	57	0	359661568	52	5268
2026-01-11 07:50:08.81	23.66	13.60	-40.5	-43.7	13.8	4.50e-06	0	56	0	361758720	52	5246
2026-01-11 07:50:09.82	23.47	13.57	-40.6	-43.8	13.7	5.30e-06	0	56	0	363855872	52	5315
2026-01-11 07:50:10.83	23.28	13.53	-40.6	-43.8	13.7	9.90e-06	0	56	0	364904448	52	5281
2026-01-11 07:50:11.84	23.08	13.50	-40.5	-43.5	13.9	5.30e-06	0	56	0	367001600	52	5157
2026-01-11 07:50:12.85	22.89	13.46	-40.4	-43.5	14.0	1.50e-06	0	56	0	369098752	52	5149
2026-01-11 07:50:13.86	22.70	13.43	-40.5	-43.6	14.0	1.50e-06	0	56	0	371195904	52	5164
2026-01-11 07:50:14.87	22.51	13.39	-40.5	-43.6	13.9	3.00e-06	0	56	0	373293056	52	5174
2026-01-11 07:50:15.88	22.32	13.36	-40.5	-43.5	14.0	3.00e-06	0	56	0	374341632	52	5147
2026-01-11 07:50:16.89	22.14	13.32	-40.5	-43.5	14.0	1.50e-06	0	56	0	376438784	52	5151
2026-01-11 07:50:17.90	21.95	13.29	-40.5	-43.7	13.8	7.00e-07	0	56	0	378535936	52	5241
2026-01-11 07:50:18.91	21.76	13.25	-40.7	-43.9	13.6	5.30e-06	0	56	0	380633088	52	5385
2026-01-11 07:50:19.92	21.57	13.21	-40.7	-43.9	13.6	1.22e-05	0	56	0	382730240	52	5381
2026-01-11 07:50:20.93	21.38	13.18	-40.7	-43.9	13.5	1.22e-05	0	56	0	383778816	52	5395
2026-01-11 07:50:21.94	21.20	13.14	-40.7	-44.0	13.4	1.22e-05	0	57	0	385875968	52	5446
2026-01-11 07:50:22.95	21.01	13.10	-40.7	-44.0	13.5	1.29e-05	0	56	0	387973120	52	5404
2026-01-11 07:50:23.96	20.83	13.06	-40.6	-43.9	13.6	8.30e-06	0	56	0	390070272	52	5343
2026-01-11 07:50:24.97	20.64	13.03	-40.6	-43.7	13.7	2.20e-06	0	57	0	392167424	52	5273
2026-01-11 07:50:25.98	20.46	12.99	-40.5	-43.7	13.7	4.50e-06	0	56	0	393216000	52	5255
2026-01-11 07:50:26.99	20.27	12.95	-40.5	-43.7	13.8	3.80e-06	0	56	0	395313152	52	5228
2026-01-11 07:50:28.00	20.09	12.91	-40.6	-43.8	13.7	7.60e-06	0	57	0	397410304	52	5312
2026-01-11 07:50:29.01	19.91	12.87	-40.6	-43.8	13.6	6.10e-06	0	56	0	399507456	52	5307
2026-01-11 07:50:30.02	19.72	12.83	-40.7	-43.9	13.4	9.10e-06	0	56	0	401604608	52	5397
2026-01-11 07:50:31.03	19.54	12.79	-40.7	-44.1	13.3	1.52e-05	0	56	0	402653184	52	5477
2026-01-11 07:50:32.04	19.36	12.76	-40.8	-44.2	13.2	1.83e-05	0	56	0	404750336	52	5579
2026-01-11 07:50:33.04	19.18	12.72	-40.9	-44.4	13.0	2.82e-05	0	57	0	406847488	52	5664
2026-01-11 07:50:34.05	19.00	12.68	-40.9	-44.4	13.0	3.12e-05	0	56	0	408944640	52	5700
2026-01-11 07:50:35.06	18.82	12.64	-40.9	-44.4	12.9	4.80e-05	0	56	0	411041792	52	5705
2026-01-11 07:50:36.07	18.64	12.60	-41.0	-44.5	12.8	4.57e-05	0	56	0	413138944	52	5776
2026-01-11 07:50:37.08	18.46	12.56	-41.0	-44.7	12.7	5.72e-05	0	57	0	414187520	52	5862
2026-01-11 07:50:38.09	18.28	12.51	-41.0	-44.6	12.7	6.25e-05	0	56	0	416284672	52	5854
2026-01-11 07:50:39.10	18.10	12.47	-41.1	-44.8	12.6	9.53e-05	0	56	0	418381824	52	5936
2026-01-11 07:50:40.11	17.93	12.43	-41.1	-44.9	12.5	1.04e-04	0	56	0	420478976	52	6002
2026-01-11 07:50:41.12	17.75	12.39	-41.1	-44.9	12.4	1.32e-04	0	56	0	422576128	52	6037
2026-01-11 07:50:42.13	17.57	12.35	-41.2	-45.0	12.3	1.56e-04	0	56	0	423624704	52	6100
2026-01-11 07:50:43.14	17.40	12.31	-41.2	-45.0	12.3	1.88e-04	0	56	0	425721856	53	5784
2026-01-11 07:50:44.15	17.22	12.27	-41.2	-45.1	12.2	1.64e-04	0	56	0	427819008	53	5821
2026-01-11 07:50:45.16	17.05	12.22	-41.3	-45.2	12.1	2.68e-04	0	56	0	429916160	53	5870
2026-01-11 07:50:46.17	16.87	12.18	-41.3	-45.3	12.0	3.50e-04	0	56	0	432013312	53	5964
2026-01-11 07:50:47.18	16.70	12.14	-41.3	-45.3	11.9	3.39e-04	0	56	0	433061888	53	5960
2026-01-11 07:50:48.19	16.52	12.10	-41.4	-45.4	11.9	3.87e-04	0	56	0	435159040	53	6024
2026-01-11 07:50:49.20	16.35	12.05	-41.4	-45.6	11.7	5.00e-04	0	56	0	437256192	53	6136
2026-01-11 07:50:50.21	16.18	12.01	-41.5	-45.7	11.6	5.65e-04	0	56	0	439353344	53	6231
2026-01-11 07:50:51.22	16.01	11.97	-41.5	-45.7	11.5	8.38e-04	0	56	0	441450496	53	6257
2026-01-11 07:50:52.23	15.84	11.92	-41.5	-45.8	11.3	9.56e-04	0	56	0	442499072	53	6338
2026-01-11 07:50:53.24	15.66	11.88	-41.5	-45.8	11.3	1.07e-03	0	56	0	444596224	53	6344
2026-01-11 07:50:54.25	15.49	11.84	-41.6	-45.9	11.3	1.09e-03	0	56	0	446693376	53	6378
2026-01-11 07:50:55.26	15.32	11.79	-41.6	-46.0	11.2	1.32e-03	0	56	0	448790528	53	6469
2026-01-11 07:50:56.27	15.15	11.75	-41.7	-46.1	11.0	1.44e-03	0	56	0	450887680	53	6563
2026-01-11 07:50:57.28	14.99	11.71	-41.7	-46.2	10.9	2.00e-03	0	56	0	451936256	53	6638
2026-01-11 07:50:58.29	14.82	11.66	-41.6	-46.0	11.2	1.72e-03	0	56	0	454033408	54	6118
2026-01-11 07:50:59.30	14.65	11.62	-41.6	-46.0	11.2	1.40e-03	0	56	0	456130560	54	6106
2026-01-11 07:51:00.31	14.48	11.57	-41.5	-45.8	11.3	1.32e-03	0	56	0	458227712	54	5991
2026-01-11 07:51:01.32	14.32	11.53	-41.6	-46.0	11.2	1.55e-03	0	56	0	460324864	54	6062
2026-01-11 07:51:02.33	14.15	11.48	-41.6	-46.1	11.0	1.67e-03	0	56	0	461373440	54	6166
2026-01-11 07:51:03.34	13.98	11.44	-41.7	-46.4	10.7	2.24e-03	0	56	0	463470592	54	6351
2026-01-11 07:51:04.35	13.82	11.39	-41.8	-46.5	10.5	3.52e-03	0	56	0	465567744	54	6484
2026-01-11 07:51:05.36	13.65	11.35	-41.9	-46.8	10.2	5.31e-03	0	56	0	467664896	54	6690
2026-01-11 07:51:06.37	13.49	11.30	-41.9	-46.8	10.2	5.85e-03	0	56	0	469762048	54	6696
2026-01-11 07:51:07.38	13.33	11.26	-41.9	-46.8	10.2	6.14e-03	0	56	0	470810624	54	6699
2026-01-11 07:51:08.39	13.16	11.21	-41.8	-46.8	10.2	6.44e-03	0	56	0	472907776	54	6672
2026-01-11 07:51:09.40	13.00	11.16	-41.8	-46.8	10.0	7.58e-03	0	56	0	475004928	54	6713
2026-01-11 07:51:10.41	12.84	11.12	-41.8	-46.8	10.0	7.29e-03	0	56	0	477102080	54	6673
2026-01-11 07:51:11.42	12.68	11.07	-41.8	-47.0	9.7	8.95e-03	0	56	0	479199232	54	6829
2026-01-11 07:51:12.43	12.52	11.02	-41.7	-47.2	9.4	1.46e-02	0	56	0	481296384	54	6963
2026-01-11 07:51:13.44	12.35	10.98	-41.6	-47.0	9.5	1.89e-02	0	56	0	482344960	54	6817
2026-01-11 07:51:14.44	12.20	10.93	-41.4	-46.7	9.7	1.14e-02	0	56	0	484442112	54	6602
2026-01-11 07:51:15.45	12.04	10.89	-41.4	-46.7	9.7	1.15e-02	0	56	0	486539264	54	6573
2026-01-11 07:51:16.46	11.88	10.84	-41.3	-46.6	9.7	1.22e-02	0	56	0	488636416	54	6514
2026-01-11 07:51:17.47	11.72	10.79	-41.3	-46.6	9.6	1.39e-02	0	57	0	490733568	54	6533
2026-01-11 07:51:18.48	11.56	10.74	-41.3	-46.8	9.3	1.64e-02	0	56	0	491782144	54	6686
2026-01-11 07:51:19.49	11.40	10.70	-41.3	-47.2	8.7	2.40e-02	0	56	0	493879296	54	7013
2026-01-11 07:51:20.50	11.25	10.65	-41.4	-47.9	7.8	6.65e-02	0	56	0	495976448	54	7615
2026-01-11 07:51:21.51	11.09	10.60	-41.5	-48.8	6.8	1.30e-01	0	56	0	498073600	54	8421
2026-01-11 07:51:22.52	10.93	10.55	-41.5	-49.8	5.8	2.63e-01	0	56	0	500170752	54	9487
2026-01-11 07:51:23.53	10.78	10.51	-41.4	-50.9	5.0	6.35e-01	0	57	0	501219328	54	10707
2026-01-11 07:51:24.54	10.62	10.46	-41.3	-51.8	4.4	9.61e-01	56	56	0	503316480	54	11882
2026-01-11 07:51:25.55	10.47	10.41	-41.1	-52.6	4.1	1.36e+00	0	56	0	504365056	54	13087
2026-01-11 07:51:26.56	10.32	10.36	-40.9	-53.2	3.8	1.46e+00	0	56	104	504365056	53	14872
2026-01-11 07:51:27.57	10.16	10.31	-40.8	-53.7	3.8	1.48e+00	0	57	104	504365056	53	15649
2026-01-11 07:51:28.58	10.01	10.27	-40.7	-53.9	3.8	1.49e+00	0	56	104	504365056	53	16111
2026-01-11 07:51:29.59	9.86	10.22	-40.5	-54.1	3.8	1.49e+00	0	57	104	504365056	53	16451
2026-01-11 07:51:30.60	9.71	10.17	-40.5	-54.3	3.8	1.49e+00	0	57	104	504365056	52	17753
2026-01-11 07:51:31.61	9.56	10.12	-40.4	-54.5	3.8	1.49e+00	0	57	104	504365056	52	18189
2026-01-11 07:51:32.61	9.41	10.07	-40.3	-54.6	3.8	1.49e+00	0	57	104	504365056	52	18473
2026-01-11 07:51:33.62	9.26	10.02	-40.2	-54.6	3.8	1.49e+00	0	57	104	504365056	52	18487
2026-01-11 07:51:34.63	9.11	9.97	-40.5	-54.9	3.8	1.49e+00	0	57	104	504365056	52	19023
2026-01-11 07:51:35.64	8.96	9.93	-40.2	-54.7	3.8	1.49e+00	0	56	104	504365056	52	18566
2026-01-11 07:51:36.65	8.81	9.88	-40.1	-54.5	3.8	1.49e+00	0	57	104	504365056	51	19389
2026-01-11 07:51:37.66	8.66	9.83	-40.3	-54.8	3.8	1.49e+00	0	57	104	504365056	51	19842
2026-01-11 07:51:38.67	8.51	9.78	-40.1	-54.5	3.8	1.49e+00	0	57	104	504365056	51	19337
2026-01-11 07:51:39.68	8.37	9.73	-40.2	-54.6	3.8	1.49e+00	0	56	104	504365056	51	19556
2026-01-11 07:51:40.69	8.22	9.68	-40.4	-54.8	3.8	1.49e+00	0	56	104	504365056	51	19973
2026-01-11 07:51:41.70	8.07	9.63	-40.0	-54.5	3.8	1.49e+00	0	56	104	504365056	51	19185
2026-01-11 07:51:42.71	7.93	9.58	-40.2	-54.7	3.8	1.49e+00	0	56	104	504365056	51	19634
2026-01-11 07:51:43.72	7.78	9.53	-39.9	-54.4	3.8	1.49e+00	0	56	104	504365056	51	19060
2026-01-11 07:51:44.73	7.64	9.48	-39.9	-54.3	3.8	1.49e+00	0	57	104	504365056	51	18904
2026-01-11 07:51:45.74	7.49	9.43	-40.0	-54.5	3.8	1.49e+00	0	57	104	504365056	51	19200
2026-01-11 07:51:46.75	7.35	9.38	-39.9	-54.4	3.8	1.49e+00	0	57	104	504365056	51	18965
2026-01-11 07:51:47.76	7.21	9.33	-39.9	-54.4	3.8	1.49e+00	0	57	104	504365056	51	19068
2026-01-11 07:51:48.77	7.06	9.28	-40.1	-54.6	3.8	1.49e+00	0	57	104	504365056	51	19426
2026-01-11 07:51:49.78	6.92	9.23	-39.8	-54.3	3.8	1.49e+00	0	57	104	504365056	51	18863
2026-01-11 07:51:50.78	6.78	9.18	-40.0	-54.5	3.8	1.49e+00	0	57	104	504365056	51	19310
2026-01-11 07:51:51.79	6.64	9.13	-39.8	-54.3	3.8	1.49e+00	0	56	104	504365056	51	18803
2026-01-11 07:51:52.80	6.50	9.08	-39.8	-54.2	3.8	1.49e+00	0	57	104	504365056	51	18663
2026-01-11 07:51:53.81	6.36	9.03	-39.8	-54.3	3.8	1.49e+00	0	57	104	504365056	51	18899
2026-01-11 07:51:54.82	6.22	8.98	-39.7	-54.2	3.8	1.49e+00	0	57	104	504365056	51	18648
2026-01-11 07:51:55.83	6.08	8.93	-39.8	-54.3	3.8	1.49e+00	0	57	104	504365056	51	18798
2026-01-11 07:51:56.84	5.94	8.88	-39.9	-54.5	3.8	1.49e+00	0	57	104	504365056	51	19179
2026-01-11 07:51:57.85	5.80	8.83	-39.7	-54.2	3.8	1.49e+00	0	57	104	504365056	51	18637
2026-01-11 07:51:58.86	5.67	8.78	-39.9	-54.4	3.8	1.49e+00	0	57	104	504365056	51	19067
2026-01-11 07:51:59.87	5.53	8.73	-39.8	-54.2	3.8	1.49e+00	0	57	104	504365056	51	18673
2026-01-11 07:52:00.88	5.39	8.68	-39.7	-54.2	3.8	1.49e+00	0	57	104	504365056	51	18690
2026-01-11 07:52:01.89	5.26	8.63	-39.7	-54.2	3.8	1.49e+00	0	57	104	504365056	51	18626
2026-01-11 07:52:02.90	5.12	8.58	-39.7	-54.2	3.8	1.49e+00	0	57	104	504365056	51	18653
2026-01-11 07:52:03.91	4.99	8.53	-39.7	-54.2	3.8	1.49e+00	0	56	104	504365056	51	18577
2026-01-11 07:52:04.92	4.85	8.47	-39.8	-54.3	3.8	1.49e+00	0	57	104	504365056	51	18859
2026-01-11 07:52:05.93	4.72	8.42	-39.8	-54.2	3.8	1.49e+00	0	57	104	504365056	51	18627
2026-01-11 07:52:06.94	4.58	8.37	-39.8	-54.3	3.8	1.49e+00	0	57	104	504365056	51	18764
2026-01-11 07:52:07.96	4.45	8.32	-39.8	-54.2	3.8	1.49e+00	0	57	104	504365056	51	18623
2026-01-11 07:52:08.97	4.32	8.27	-39.8	-54.3	3.8	1.49e+00	0	57	104	504365056	51	18822
2026-01-11 07:52:09.98	4.18	8.22	-39.7	-54.2	3.8	1.49e+00	0	57	104	504365056	51	18639
2026-01-11 07:52:10.99	4.05	8.17	-39.8	-54.3	3.8	1.49e+00	0	57	104	504365056	51	18828
2026-01-11 07:52:12.00	3.92	8.12	-39.7	-54.2	3.8	1.49e+00	0	57	104	504365056	51	18563
2026-01-11 07:52:13.00	3.79	8.07	-39.9	-54.3	3.8	1.49e+00	0	57	104	504365056	51	18941
2026-01-11 07:52:14.01	3.66	8.01	-39.8	-54.3	3.8	1.49e+00	0	57	104	504365056	51	18795
2026-01-11 07:52:15.03	3.53	7.96	-39.8	-54.3	3.8	1.49e+00	0	57	104	504365056	51	18805
2026-01-11 07:52:16.04	3.40	7.91	-43.7	-58.2	3.8	1.49e+00	0	57	104	504365056	57	21011
2026-01-11 07:52:17.05	3.27	7.86	-44.7	-59.4	3.8	1.49e+00	0	57	104	504365056	60	20115
2026-01-11 07:52:18.06	3.14	7.81	-44.9	-59.6	3.8	1.49e+00	0	57	104	504365056	60	20656
2026-01-11 07:52:19.07	3.01	7.76	-45.1	-59.7	3.8	1.49e+00	0	57	104	504365056	60	21007
2026-01-11 07:52:20.08	2.89	7.70	-45.2	-59.9	3.8	1.49e+00	0	57	104	504365056	60	21312
2026-01-11 07:52:21.09	2.76	7.65	-45.3	-60.0	3.8	1.49e+00	0	57	104	504365056	61	20349
2026-01-11 07:52:22.10	2.63	7.60	-45.3	-60.0	3.8	1.49e+00	0	57	104	504365056	61	20527
2026-01-11 07:52:23.11	2.51	7.55	-45.3	-60.1	3.8	1.49e+00	0	57	104	504365056	61	20607
2026-01-11 07:52:24.12	2.38	7.50	-45.3	-60.1	3.8	1.49e+00	0	57	104	504365056	61	20585
2026-01-11 07:52:25.14	2.26	7.45	-45.3	-60.0	3.8	1.49e+00	0	57	104	504365056	61	20437
2026-01-11 07:52:26.15	2.13	7.39	-45.2	-60.0	3.8	1.49e+00	0	57	104	504365056	61	20342
2026-01-11 07:52:27.16	2.01	7.34	-45.2	-59.9	3.8	1.49e+00	0	57	104	504365056	61	20266
2026-01-11 07:52:28.17	1.88	7.29	-45.1	-60.0	3.8	1.49e+00	0	57	104	504365056	61	20316
2026-01-11 07:52:29.18	1.76	7.24	-45.1	-59.9	3.8	1.49e+00	0	57	104	504365056	61	20129
2026-01-11 07:52:30.19	1.64	7.19	-45.1	-59.9	3.8	1.49e+00	0	57	104	504365056	61	20095
2026-01-11 07:52:31.20	1.51	7.14	-45.1	-59.9	3.8	1.49e+00	0	57	104	504365056	61	20085
2026-01-11 07:52:32.21	1.39	7.08	-45.1	-59.9	3.8	1.49e+00	0	57	104	504365056	61	20152
2026-01-11 07:52:33.22	1.27	7.03	-45.1	-59.9	3.8	1.49e+00	0	57	104	504365056	61	20132
2026-01-11 07:52:34.23	1.15	6.98	-45.1	-59.8	3.8	1.49e+00	0	57	104	504365056	61	20063
2026-01-11 07:52:35.24	1.03	6.93	-45.1	-59.9	3.8	1.49e+00	0	57	104	504365056	61	20090
2026-01-11 07:52:36.25	0.91	6.88	-45.1	-59.8	3.8	1.49e+00	0	57	104	504365056	61	20050
2026-01-11 07:52:37.26	0.79	6.82	-45.0	-59.9	3.8	1.49e+00	0	57	104	504365056	61	20117
2026-01-11 07:52:38.27	0.67	6.77	-45.0	-59.8	3.8	1.49e+00	0	57	104	504365056	61	20045
2026-01-11 07:52:39.28	0.55	6.72	-45.0	-59.8	3.8	1.49e+00	0	57	104	504365056	61	20011
2026-01-11 07:52:40.29	0.43	6.67	-45.1	-59.9	3.8	1.49e+00	0	57	104	504365056	61	20088
2026-01-11 07:52:41.30	0.31	6.62	-45.0	-59.8	3.8	1.49e+00	0	57	104	504365056	61	20070
2026-01-11 07:52:42.32	0.19	6.56	-45.0	-59.9	3.8	1.49e+00	0	57	104	504365056	61	20078
2026-01-11 07:52:43.33	0.08	6.51	-45.0	-59.8	3.8	1.49e+00	0	57	104	504365056	61	20003
2026-01-11 07:52:44.34	359.96	6.46	-45.0	-59.8	3.8	1.49e+00	0	57	104	504365056	61	20045
2026-01-11 07:52:45.35	359.84	6.41	-45.0	-59.8	3.8	1.49e+00	0	57	104	504365056	61	20062
2026-01-11 07:52:46.36	359.73	6.36	-45.0	-59.8	3.8	1.49e+00	0	57	104	504365056	61	20040
2026-01-11 07:52:47.37	359.61	6.30	-45.0	-59.8	3.8	1.49e+00	0	57	104	504365056	61	19962
2026-01-11 07:52:48.38	359.50	6.25	-45.0	-59.8	3.8	1.49e+00	0	57	104	504365056	61	20047
2026-01-11 07:52:49.39	359.38	6.20	-45.0	-59.8	3.8	1.49e+00	0	57	104	504365056	61	20040
2026-01-11 07:52:50.41	359.27	6.15	-45.0	-59.8	3.8	1.49e+00	0	57	104	504365056	61	20025
2026-01-11 07:52:51.41	359.15	6.10	-45.0	-59.8	3.8	1.49e+00	0	57	104	504365056	61	20028
2026-01-11 07:52:52.42	359.04	6.04	-45.0	-59.8	3.8	1.49e+00	0	57	104	504365056	61	19992
2026-01-11 07:52:53.44	358.93	5.99	-45.0	-59.8	3.8	1.49e+00	0	57	104	504365056	61	19975
2026-01-11 07:52:54.45	358.81	5.94	-45.0	-59.8	3.8	1.49e+00	0	57	104	504365056	61	20010
2026-01-11 07:52:55.46	358.70	5.89	-45.0	-59.8	3.8	1.49e+00	0	57	104	504365056	61	19999
2026-01-11 07:52:56.47	358.59	5.84	-45.0	-59.8	3.8	1.49e+00	0	57	104	504365056	61	19971
2026-01-11 07:52:57.48	358.48	5.78	-45.0	-59.8	3.8	1.49e+00	0	57	104	504365056	61	19998
2026-01-11 07:52:58.49	358.37	5.73	-45.0	-59.8	3.8	1.49e+00	0	57	104	504365056	61	20051
2026-01-11 07:52:59.50	358.26	5.68	-45.0	-59.8	3.8	1.49e+00	0	57	104	504365056	61	20042
2026-01-11 07:53:00.51	358.15	5.63	-45.0	-59.8	3.8	1.49e+00	0	57	104	504365056	61	19990
2026-01-11 07:53:01.53	358.04	5.57	-45.0	-59.8	3.8	1.49e+00	0	57	104	504365056	61	19989
2026-01-11 07:53:02.54	357.93	5.52	-45.0	-59.8	3.8	1.49e+00	0	57	104	504365056	61	19949
2026-01-11 07:53:03.55	357.82	5.47	-45.0	-59.8	3.8	1.49e+00	0	57	104	504365056	61	19984
2026-01-11 07:53:04.56	357.71	5.42	-45.0	-59.8	3.8	1.49e+00	0	57	104	504365056	61	20009
2026-01-11 07:53:05.57	357.60	5.37	-45.0	-59.8	3.8	1.49e+00	0	57	104	504365056	61	19980
2026-01-11 07:53:06.58	357.49	5.31	-45.0	-59.8	3.8	1.49e+00	0	57	104	504365056	61	19970
2026-01-11 07:53:07.59	357.39	5.26	-45.0	-59.8	3.8	1.49e+00	0	57	104	504365056	61	19987
2026-01-11 07:53:08.60	357.28	5.21	-45.0	-59.8	3.8	1.49e+00	0	57	104	504365056	61	20007
2026-01-11 07:53:09.61	357.17	5.16	-45.0	-59.8	3.8	1.49e+00	0	57	104	504365056	61	19978
2026-01-11 07:53:10.62	357.07	5.11	-45.0	-59.8	3.8	1.49e+00	0	57	104	504365056	61	20037
2026-01-11 07:53:11.63	356.96	5.06	-45.0	-59.8	3.8	1.49e+00	0	57	104	504365056	61	20005
2026-01-11 07:53:12.64	356.85	5.00	-45.0	-59.8	3.8	1.49e+00	0	57	104	504365056	61	20022
2026-01-11 07:53:13.65	356.75	4.95	-45.0	-59.8	3.8	1.49e+00	0	57	104	504365056	61	19981
2026-01-11 07:53:14.67	356.64	4.90	-45.0	-59.8	3.8	1.49e+00	0	57	104	504365056	61	20012
2026-01-11 07:53:15.68	356.54	4.85	-45.0	-59.8	3.8	1.49e+00	0	57	104	504365056	61	19962
2026-01-11 07:53:16.69	356.44	4.80	-45.0	-59.8	3.8	1.49e+00	0	57	104	504365056	61	20008
2026-01-11 07:53:17.70	356.33	4.74	-45.0	-59.8	3.8	1.49e+00	0	57	104	504365056	61	19948
2026-01-11 07:53:18.71	356.23	4.69	-45.0	-59.8	3.8	1.49e+00	0	57	104	504365056	61	19986
2026-01-11 07:53:19.72	356.13	4.64	-45.0	-59.8	3.8	1.49e+00	0	57	104	504365056	61	19930
2026-01-11 07:53:20.73	356.02	4.59	-45.0	-59.8	3.8	1.49e+00	0	57	104	504365056	61	19952
2026-01-11 07:53:21.74	355.92	4.54	-44.9	-59.8	3.8	1.49e+00	0	57	104	504365056	61	20012
2026-01-11 07:53:22.75	355.82	4.48	-45.0	-59.8	3.8	1.49e+00	0	57	104	504365056	61	19936
2026-01-11 07:53:23.76	355.72	4.43	-44.7	-59.8	3.8	1.49e+00	0	57	104	504365056	60	21149
2026-01-11 07:53:24.78	355.62	4.38	-44.9	-59.8	3.8	1.49e+00	0	57	104	504365056	60	21132
2026-01-11 07:53:25.79	355.52	4.33	-45.0	-59.8	3.8	1.49e+00	0	57	104	504365056	60	21179
2026-01-11 07:53:26.80	355.42	4.28	-45.0	-59.8	3.8	1.49e+00	0	57	104	504365056	60	21121
2026-01-11 07:53:27.81	355.32	4.22	-45.0	-59.8	3.8	1.49e+00	0	57	104	504365056	60	21172
2026-01-11 07:53:28.82	355.22	4.17	-45.0	-59.8	3.8	1.49e+00	0	57	104	504365056	60	21130
2026-01-11 07:53:29.83	355.12	4.12	-45.0	-59.8	3.8	1.49e+00	0	57	104	504365056	60	21252
2026-01-11 07:53:30.84	355.02	4.07	-45.0	-59.8	3.8	1.49e+00	0	57	104	504365056	60	21147
2026-01-11 07:53:31.85	354.92	4.02	-45.0	-59.8	3.8	1.49e+00	0	57	104	504365056	60	21154
2026-01-11 07:53:32.86	354.82	3.97	-45.0	-59.8	3.8	1.49e+00	0	57	104	504365056	60	21228
2026-01-11 07:53:33.87	354.73	3.91	-45.0	-59.8	3.8	1.49e+00	0	57	104	504365056	60	21181
2026-01-11 07:53:34.89	354.63	3.86	-45.0	-59.8	3.8	1.49e+00	0	57	104	504365056	60	21185
2026-01-11 07:53:35.90	354.53	3.81	-45.0	-59.8	3.8	1.49e+00	0	57	104	504365056	60	21136
2026-01-11 07:53:36.91	354.44	3.76	-45.0	-59.8	3.8	1.49e+00	0	57	104	504365056	60	21184
2026-01-11 07:53:37.92	354.34	3.71	-45.0	-59.8	3.8	1.49e+00	0	57	104	504365056	60	21175
2026-01-11 07:53:38.93	354.24	3.66	-45.0	-59.8	3.8	1.49e+00	0	57	104	504365056	60	21194
2026-01-11 07:53:39.94	354.15	3.61	-45.0	-59.8	3.8	1.49e+00	0	57	104	504365056	60	21229
2026-01-11 07:53:40.95	354.05	3.55	-44.9	-59.8	3.8	1.49e+00	0	57	104	504365056	60	21140
2026-01-11 07:53:41.96	353.96	3.50	-45.0	-59.8	3.8	1.49e+00	0	57	104	504365056	60	21202
2026-01-11 07:53:42.97	353.86	3.45	-45.0	-59.8	3.8	1.49e+00	0	57	104	504365056	60	21151
2026-01-11 07:53:43.98	353.77	3.40	-45.0	-59.8	3.8	1.49e+00	0	57	104	504365056	60	21133
2026-01-11 07:53:44.99	353.68	3.35	-45.0	-59.8	3.8	1.49e+00	0	57	104	504365056	60	21139
2026-01-11 07:53:46.01	353.58	3.30	-45.0	-59.8	3.8	1.49e+00	0	57	104	504365056	60	21174
2026-01-11 07:53:47.02	353.49	3.24	-44.9	-59.8	3.8	1.49e+00	0	57	104	504365056	60	21148
2026-01-11 07:53:48.03	353.40	3.19	-45.0	-59.8	3.8	1.49e+00	0	57	104	504365056	60	21112
2026-01-11 07:53:49.04	353.30	3.14	-44.8	-59.8	3.8	1.49e+00	0	57	104	504365056	60	21157
2026-01-11 07:53:50.05	353.21	3.09	-45.0	-59.8	3.8	1.49e+00	0	57	104	504365056	60	21088
2026-01-11 07:53:51.06	353.12	3.04	-45.0	-59.8	3.8	1.49e+00	0	57	104	504365056	60	21178
2026-01-11 07:53:52.07	353.03	2.99	-45.0	-59.8	3.8	1.49e+00	0	57	104	504365056	60	21135
2026-01-11 07:53:53.08	352.94	2.94	-45.0	-59.8	3.8	1.49e+00	0	57	104	504365056	60	21150
2026-01-11 07:53:54.09	352.85	2.89	-45.0	-59.8	3.8	1.49e+00	0	57	104	504365056	60	21191
2026-01-11 07:53:55.10	352.76	2.84	-45.0	-59.8	3.8	1.49e+00	0	57	104	504365056	60	21122
2026-01-11 07:53:56.11	352.67	2.78	-45.0	-59.8	3.8	1.49e+00	0	57	104	504365056	60	21132
2026-01-11 07:53:57.13	352.58	2.73	-45.0	-59.8	3.8	1.49e+00	0	57	104	504365056	60	21111
2026-01-11 07:53:58.13	352.49	2.68	-45.0	-59.8	3.8	1.49e+00	0	57	104	504365056	60	21188
2026-01-11 07:53:59.14	352.40	2.63	-45.0	-59.8	3.8	1.49e+00	0	57	104	504365056	60	21088
2026-01-11 07:54:00.15	352.31	2.58	-44.9	-59.8	3.8	1.49e+00	0	57	104	504365056	60	21181
2026-01-11 07:54:01.16	352.22	2.53	-44.9	-59.8	3.8	1.49e+00	0	57	104	504365056	60	21165
2026-01-11 07:54:02.18	352.13	2.48	-45.0	-59.8	3.8	1.49e+00	0	57	104	504365056	60	21110
2026-01-11 07:54:03.19	352.05	2.43	-45.0	-59.8	3.8	1.49e+00	0	57	104	504365056	60	21157
2026-01-11 07:54:04.20	351.96	2.38	-45.0	-59.8	3.8	1.49e+00	0	57	104	504365056	60	21116
2026-01-11 07:54:05.21	351.87	2.33	-44.9	-59.8	3.8	1.49e+00	0	57	104	504365056	60	21120
2026-01-11 07:54:06.22	351.78	2.27	-45.0	-59.8	3.8	1.49e+00	0	57	104	504365056	60	21132
2026-01-11 07:54:07.23	351.70	2.22	-45.0	-59.8	3.8	1.49e+00	0	57	104	504365056	60	21148
2026-01-11 07:54:08.24	351.61	2.17	-45.0	-59.8	3.8	1.49e+00	0	57	104	504365056	60	21159
2026-01-11 07:54:09.25	351.53	2.12	-44.8	-59.8	3.8	1.49e+00	0	57	104	504365056	60	21100
2026-01-11 07:54:10.26	351.44	2.07	-45.0	-59.8	3.8	1.49e+00	0	57	104	504365056	60	21139
2026-01-11 07:54:11.27	351.35	2.02	-45.0	-59.8	3.8	1.49e+00	0	57	104	504365056	60	21103
2026-01-11 07:54:12.29	351.27	1.97	-45.0	-59.8	3.8	1.49e+00	0	57	104	504365056	60	21180
2026-01-11 07:54:13.30	351.18	1.92	-45.0	-59.8	3.8	1.49e+00	0	57	104	504365056	60	21081

#Closed at: 2026-01-11 07:54:13
#Recorded file [504 MB]: D:/lorett/data/31039_260111_104256.dat