passes_logs/2026/01/11/R2.0S_Moscow/R2.0S_Moscow__20260111_051521_FENGYUN_3E_rec.log

#Pass ID: 20260111_051521_FENGYUN 3E
#Satellite: FENGYUN 3E
#Configuration: FENGYUN 3E
#almurnet v.1.7.20251203
#Start time: 2026-01-11 05:15:21

#Version: 2.2.20231116
#Station: R2.0S_Moscow
#Location: 37.707566 lon 55.798166 lat
#TLE: 1 49008U 21062A   26010.00248113 -.00000186  00000+0 -66867-4 0  9993
#TLE: 2 49008  98.7487  15.1892 0001787 147.8079 212.3207 14.19883469234134

#Time	Az	El	Level	Level2	SNR	BER	BlckErr	Temp	State	Recorded	gain1	gain2
2026-01-11 05:15:21.70	11.26	2.02	-40.1	-51.1	3.8	8.46e-01	0	46	0	0	51	12298
2026-01-11 05:15:22.70	11.21	2.08	-40.1	-51.1	3.8	8.46e-01	0	46	104	0	51	12338
2026-01-11 05:15:23.71	11.16	2.14	-40.1	-51.1	3.8	8.46e-01	0	46	104	0	51	12320
2026-01-11 05:15:24.72	11.11	2.20	-40.1	-51.1	3.8	8.46e-01	0	47	104	0	51	12308
2026-01-11 05:15:25.73	11.05	2.26	-40.1	-51.1	3.8	8.45e-01	0	47	104	0	51	12330
2026-01-11 05:15:26.74	11.00	2.32	-40.1	-51.1	3.8	8.46e-01	0	47	104	0	51	12309
2026-01-11 05:15:27.75	10.95	2.38	-40.1	-51.1	3.8	8.47e-01	0	47	104	0	51	12292
2026-01-11 05:15:28.76	10.90	2.44	-40.1	-51.1	3.8	8.46e-01	0	47	104	0	51	12316
2026-01-11 05:15:29.77	10.84	2.50	-40.1	-51.1	3.8	8.45e-01	0	47	104	0	51	12338
2026-01-11 05:15:30.78	10.79	2.56	-40.1	-51.1	3.8	8.45e-01	0	47	104	0	51	12270
2026-01-11 05:15:31.79	10.74	2.62	-40.1	-51.1	3.8	8.47e-01	0	47	104	0	51	12300
2026-01-11 05:15:32.80	10.68	2.68	-40.1	-51.1	3.8	8.47e-01	0	47	104	0	51	12281
2026-01-11 05:15:33.82	10.63	2.75	-40.1	-51.1	3.8	8.46e-01	0	47	104	0	51	12293
2026-01-11 05:15:34.83	10.58	2.81	-40.1	-51.1	3.8	8.46e-01	0	47	104	0	51	12289
2026-01-11 05:15:35.84	10.52	2.87	-40.1	-51.1	3.8	8.46e-01	0	47	104	0	51	12300
2026-01-11 05:15:36.85	10.47	2.93	-40.1	-51.1	3.8	8.47e-01	0	47	104	0	51	12314
2026-01-11 05:15:37.86	10.41	2.99	-40.1	-51.1	3.8	8.46e-01	0	48	104	0	51	12309
2026-01-11 05:15:38.87	10.36	3.05	-40.1	-51.1	3.8	8.45e-01	0	48	104	0	51	12284
2026-01-11 05:15:39.88	10.30	3.11	-40.1	-51.1	3.8	8.46e-01	0	48	104	0	51	12311
2026-01-11 05:15:40.89	10.25	3.18	-40.1	-51.1	3.8	8.46e-01	0	48	104	0	51	12303
2026-01-11 05:15:41.90	10.19	3.24	-40.1	-51.1	3.8	8.44e-01	0	48	104	0	51	12295
2026-01-11 05:15:42.92	10.13	3.30	-40.1	-51.1	3.8	8.47e-01	0	48	104	0	51	12316
2026-01-11 05:15:43.93	10.08	3.36	-40.1	-51.1	3.8	8.47e-01	0	48	104	0	51	12276
2026-01-11 05:15:44.94	10.02	3.43	-40.1	-51.1	3.8	8.46e-01	0	48	104	0	51	12288
2026-01-11 05:15:45.95	9.96	3.49	-40.1	-51.1	3.8	8.46e-01	0	48	104	0	51	12294
2026-01-11 05:15:46.96	9.91	3.55	-40.1	-51.1	3.8	8.46e-01	0	48	104	0	51	12299
2026-01-11 05:15:47.97	9.85	3.61	-40.1	-51.1	3.8	8.46e-01	0	49	104	0	51	12292
2026-01-11 05:15:48.98	9.79	3.68	-40.1	-51.1	3.8	8.45e-01	0	48	104	0	51	12253
2026-01-11 05:15:49.99	9.73	3.74	-40.1	-51.1	3.8	8.46e-01	0	49	104	0	51	12250
2026-01-11 05:15:51.00	9.67	3.80	-40.1	-51.1	3.8	8.47e-01	0	49	104	0	51	12282
2026-01-11 05:15:52.02	9.62	3.86	-40.1	-51.1	3.8	8.46e-01	0	49	104	0	51	12276
2026-01-11 05:15:53.03	9.56	3.93	-40.1	-51.1	3.8	8.47e-01	0	49	104	0	51	12293
2026-01-11 05:15:54.04	9.50	3.99	-40.1	-51.1	3.8	8.45e-01	0	49	104	0	51	12318
2026-01-11 05:15:55.05	9.44	4.05	-40.1	-51.1	3.8	8.46e-01	0	49	104	0	51	12315
2026-01-11 05:15:56.06	9.38	4.12	-40.1	-51.1	3.8	8.47e-01	0	49	104	0	51	12300
2026-01-11 05:15:57.07	9.32	4.18	-40.1	-51.1	3.8	8.47e-01	0	49	104	0	51	12286
2026-01-11 05:15:58.08	9.26	4.25	-40.1	-51.1	3.8	8.45e-01	0	49	104	0	51	12275
2026-01-11 05:15:59.09	9.20	4.31	-40.1	-51.1	3.8	8.46e-01	0	49	104	0	51	12279
2026-01-11 05:16:00.10	9.14	4.37	-40.1	-51.1	3.8	8.45e-01	0	49	104	0	51	12289
2026-01-11 05:16:01.11	9.08	4.44	-40.1	-51.1	3.8	8.46e-01	0	49	104	0	51	12283
2026-01-11 05:16:02.12	9.01	4.50	-40.1	-51.1	3.8	8.46e-01	0	49	104	0	51	12254
2026-01-11 05:16:03.13	8.95	4.57	-40.1	-51.1	3.8	8.46e-01	0	49	104	0	51	12301
2026-01-11 05:16:04.15	8.89	4.63	-40.1	-51.1	3.8	8.47e-01	0	50	104	0	51	12283
2026-01-11 05:16:05.16	8.83	4.70	-40.1	-51.1	3.8	8.45e-01	0	49	104	0	51	12265
2026-01-11 05:16:06.17	8.77	4.76	-40.1	-51.1	3.8	8.47e-01	0	50	104	0	51	12267
2026-01-11 05:16:07.18	8.70	4.83	-40.1	-51.1	3.8	8.46e-01	0	50	104	0	51	12258
2026-01-11 05:16:08.19	8.64	4.89	-40.1	-51.1	3.8	8.47e-01	0	50	104	0	51	12280
2026-01-11 05:16:09.20	8.58	4.96	-40.1	-51.0	3.8	8.45e-01	0	50	104	0	51	12234
2026-01-11 05:16:10.21	8.51	5.02	-40.1	-51.1	3.8	8.46e-01	0	50	104	0	51	12273
2026-01-11 05:16:11.22	8.45	5.09	-40.1	-51.1	3.8	8.45e-01	0	50	104	0	51	12259
2026-01-11 05:16:12.23	8.39	5.15	-40.1	-51.1	3.8	8.46e-01	0	50	104	0	51	12276
2026-01-11 05:16:13.24	8.32	5.22	-40.1	-51.1	3.8	8.46e-01	0	50	104	0	51	12270
2026-01-11 05:16:14.25	8.26	5.28	-40.1	-51.1	3.8	8.47e-01	0	50	104	0	51	12295
2026-01-11 05:16:15.26	8.19	5.35	-40.1	-51.1	3.8	8.46e-01	0	50	104	0	51	12301
2026-01-11 05:16:16.28	8.12	5.42	-40.1	-51.1	3.8	8.45e-01	0	50	104	0	51	12294
2026-01-11 05:16:17.29	8.06	5.48	-40.1	-51.1	3.8	8.45e-01	0	50	104	0	51	12318
2026-01-11 05:16:18.30	7.99	5.55	-40.1	-51.1	3.8	8.45e-01	0	50	104	0	51	12304
2026-01-11 05:16:19.31	7.93	5.61	-40.1	-51.1	3.8	8.46e-01	0	50	104	0	51	12261
2026-01-11 05:16:20.32	7.86	5.68	-40.1	-51.1	3.8	8.46e-01	0	50	104	0	51	12260
2026-01-11 05:16:21.33	7.79	5.75	-40.1	-51.1	3.8	8.46e-01	0	50	104	0	51	12277
2026-01-11 05:16:22.34	7.72	5.81	-40.1	-51.1	3.8	8.45e-01	0	50	104	0	51	12297
2026-01-11 05:16:23.35	7.66	5.88	-40.1	-51.1	3.8	8.46e-01	0	51	104	0	51	12294
2026-01-11 05:16:24.36	7.59	5.95	-40.1	-51.1	3.8	8.46e-01	0	51	104	0	51	12304
2026-01-11 05:16:25.38	7.52	6.02	-40.1	-51.1	3.8	8.47e-01	0	51	104	0	51	12287
2026-01-11 05:16:26.39	7.45	6.08	-40.1	-51.1	3.8	8.45e-01	0	51	104	0	51	12300
2026-01-11 05:16:27.40	7.38	6.15	-40.1	-51.1	3.8	8.46e-01	0	51	104	0	51	12277
2026-01-11 05:16:28.41	7.31	6.22	-40.1	-51.1	3.8	8.47e-01	0	51	104	0	51	12294
2026-01-11 05:16:29.42	7.24	6.29	-40.1	-51.1	3.8	8.46e-01	0	51	104	0	51	12302
2026-01-11 05:16:30.43	7.17	6.35	-40.1	-51.1	3.8	8.46e-01	0	51	104	0	51	12280
2026-01-11 05:16:31.44	7.10	6.42	-40.1	-51.1	3.8	8.47e-01	0	51	104	0	51	12257
2026-01-11 05:16:32.45	7.03	6.49	-40.1	-51.1	3.8	8.46e-01	0	51	104	0	51	12284
2026-01-11 05:16:33.46	6.96	6.56	-40.1	-51.1	3.8	8.46e-01	0	51	104	0	51	12284
2026-01-11 05:16:34.48	6.89	6.63	-40.1	-51.1	3.8	8.46e-01	0	51	104	0	51	12310
2026-01-11 05:16:35.49	6.82	6.70	-40.1	-51.1	3.8	8.45e-01	0	51	104	0	51	12289
2026-01-11 05:16:36.50	6.74	6.76	-40.1	-51.1	3.8	8.47e-01	0	51	104	0	51	12305
2026-01-11 05:16:37.51	6.67	6.83	-40.1	-51.1	3.8	8.47e-01	0	51	104	0	51	12283
2026-01-11 05:16:38.52	6.60	6.90	-40.1	-51.1	3.8	8.47e-01	0	51	104	0	51	12306
2026-01-11 05:16:39.53	6.52	6.97	-40.1	-51.1	3.8	8.46e-01	0	51	104	0	51	12267
2026-01-11 05:16:40.54	6.45	7.04	-40.1	-51.1	3.8	8.46e-01	0	51	104	0	51	12288
2026-01-11 05:16:41.55	6.38	7.11	-40.1	-51.1	3.8	8.47e-01	0	52	104	0	51	12310
2026-01-11 05:16:42.56	6.30	7.18	-40.1	-51.1	3.8	8.44e-01	0	51	104	0	51	12271
2026-01-11 05:16:43.57	6.23	7.25	-40.1	-51.1	3.8	8.47e-01	0	52	104	0	51	12315
2026-01-11 05:16:44.59	6.15	7.32	-40.1	-51.1	3.8	8.46e-01	0	52	104	0	51	12254
2026-01-11 05:16:45.60	6.08	7.39	-40.1	-51.1	3.8	8.46e-01	0	51	104	0	51	12278
2026-01-11 05:16:46.61	6.00	7.46	-40.1	-51.1	3.8	8.45e-01	0	52	104	0	51	12305
2026-01-11 05:16:47.62	5.92	7.53	-40.1	-51.1	3.8	8.46e-01	0	52	104	0	51	12273
2026-01-11 05:16:48.63	5.85	7.60	-40.1	-51.1	3.8	8.46e-01	0	52	104	0	51	12287
2026-01-11 05:16:49.64	5.77	7.67	-40.1	-51.1	3.8	8.46e-01	0	52	104	0	51	12242
2026-01-11 05:16:50.65	5.69	7.74	-40.1	-51.1	3.8	8.45e-01	0	52	104	0	51	12289
2026-01-11 05:16:51.66	5.61	7.81	-40.1	-51.1	3.8	8.47e-01	0	52	104	0	51	12297
2026-01-11 05:16:52.67	5.54	7.88	-40.1	-51.1	3.8	8.47e-01	0	52	104	0	51	12279
2026-01-11 05:16:53.68	5.46	7.95	-40.1	-51.1	3.8	8.45e-01	0	52	104	0	51	12284
2026-01-11 05:16:54.70	5.38	8.03	-40.1	-51.1	3.8	8.45e-01	0	52	104	0	51	12287
2026-01-11 05:16:55.71	5.30	8.10	-40.1	-51.1	3.8	8.45e-01	0	52	104	0	51	12350
2026-01-11 05:16:56.72	5.22	8.17	-40.1	-51.1	3.8	8.46e-01	0	52	104	0	51	12367
2026-01-11 05:16:57.73	5.14	8.24	-40.2	-51.2	3.8	8.46e-01	0	52	104	0	51	12404
2026-01-11 05:16:58.74	5.06	8.31	-40.2	-51.2	3.8	8.46e-01	0	52	104	0	51	12425
2026-01-11 05:16:59.75	4.98	8.38	-40.1	-51.2	3.8	8.46e-01	0	52	104	0	51	12395
2026-01-11 05:17:00.76	4.89	8.46	-40.1	-51.2	3.8	8.45e-01	0	52	104	0	51	12414
2026-01-11 05:17:01.77	4.81	8.53	-40.1	-51.1	3.8	8.46e-01	0	52	104	0	51	12356
2026-01-11 05:17:02.78	4.73	8.60	-40.1	-51.2	3.8	8.46e-01	0	52	104	0	51	12436
2026-01-11 05:17:03.79	4.65	8.67	-40.1	-51.2	3.8	8.46e-01	0	52	104	0	51	12399
2026-01-11 05:17:04.80	4.56	8.75	-40.2	-51.2	3.8	8.46e-01	0	52	104	0	51	12478
2026-01-11 05:17:05.81	4.48	8.82	-40.1	-51.1	3.8	8.46e-01	0	52	104	0	51	12369
2026-01-11 05:17:06.82	4.40	8.89	-40.2	-51.3	3.8	8.46e-01	0	52	104	0	51	12547
2026-01-11 05:17:07.83	4.31	8.96	-40.1	-51.2	3.8	8.47e-01	0	52	104	0	51	12457
2026-01-11 05:17:08.84	4.23	9.04	-40.2	-51.3	3.8	8.46e-01	0	53	104	0	51	12522
2026-01-11 05:17:09.84	4.14	9.11	-40.1	-51.2	3.8	8.46e-01	0	53	104	0	51	12417
2026-01-11 05:17:10.85	4.05	9.18	-40.3	-51.3	3.8	8.45e-01	0	52	104	0	51	12648
2026-01-11 05:17:11.86	3.97	9.26	-40.1	-51.1	3.8	8.45e-01	0	53	104	0	51	12372
2026-01-11 05:17:12.87	3.88	9.33	-40.3	-51.4	3.8	8.46e-01	0	53	104	0	51	12697
2026-01-11 05:17:13.88	3.79	9.41	-40.1	-51.1	3.8	8.46e-01	0	53	104	0	51	12363
2026-01-11 05:17:14.89	3.71	9.48	-40.3	-51.4	3.8	8.45e-01	0	53	104	0	51	12734
2026-01-11 05:17:15.90	3.62	9.56	-40.2	-51.2	3.8	8.47e-01	0	53	104	0	51	12462
2026-01-11 05:17:16.91	3.53	9.63	-40.3	-51.4	3.8	8.45e-01	0	53	104	0	51	12768
2026-01-11 05:17:17.92	3.44	9.70	-40.1	-51.2	3.8	8.47e-01	0	53	104	0	51	12376
2026-01-11 05:17:18.93	3.35	9.78	-40.3	-51.3	3.8	8.47e-01	0	53	104	0	51	12644
2026-01-11 05:17:19.94	3.26	9.85	-40.2	-51.2	3.8	8.47e-01	0	53	104	0	51	12489
2026-01-11 05:17:20.95	3.17	9.93	-40.3	-51.4	3.8	8.45e-01	0	53	104	0	51	12709
2026-01-11 05:17:21.96	3.08	10.00	-40.2	-51.3	3.8	8.47e-01	0	53	104	0	51	12581
2026-01-11 05:17:22.98	2.99	10.08	-40.5	-51.5	3.8	8.46e-01	0	53	104	0	51	12906
2026-01-11 05:17:23.99	2.89	10.16	-40.1	-51.2	3.8	8.47e-01	0	53	104	0	51	12427
2026-01-11 05:17:25.00	2.80	10.23	-40.5	-51.6	3.8	8.45e-01	0	53	104	0	51	13002
2026-01-11 05:17:26.01	2.71	10.31	-40.0	-51.2	3.8	8.45e-01	0	53	104	0	51	12432
2026-01-11 05:17:27.02	2.61	10.38	-40.3	-51.4	3.8	8.46e-01	0	53	104	0	51	12698
2026-01-11 05:17:28.03	2.52	10.46	-40.3	-51.3	3.8	8.46e-01	0	53	104	0	51	12624
2026-01-11 05:17:29.04	2.42	10.54	-40.4	-51.4	3.8	8.47e-01	0	53	104	0	51	12805
2026-01-11 05:17:30.05	2.33	10.61	-40.3	-51.3	3.8	8.46e-01	0	53	104	0	51	12605
2026-01-11 05:17:31.06	2.23	10.69	-40.5	-51.7	3.8	8.46e-01	0	53	104	0	51	13191
2026-01-11 05:17:32.07	2.14	10.77	-40.0	-51.2	3.8	8.46e-01	0	53	104	0	51	12450
2026-01-11 05:17:33.08	2.04	10.84	-40.5	-51.7	3.8	8.47e-01	0	53	104	0	51	13257
2026-01-11 05:17:34.08	1.94	10.92	-40.0	-51.2	3.8	8.46e-01	0	53	104	0	51	12423
2026-01-11 05:17:35.10	1.85	11.00	-40.4	-51.5	3.8	8.45e-01	0	53	104	0	51	12959
2026-01-11 05:17:36.11	1.75	11.08	-40.3	-51.3	3.8	8.47e-01	0	53	104	0	51	12623
2026-01-11 05:17:37.12	1.65	11.15	-40.5	-51.6	3.8	8.47e-01	0	54	104	0	51	13029
2026-01-11 05:17:38.13	1.55	11.23	-40.3	-51.4	3.8	8.46e-01	0	53	104	0	51	12699
2026-01-11 05:17:39.14	1.45	11.31	-40.7	-51.9	3.8	8.47e-01	0	53	104	0	51	13435
2026-01-11 05:17:40.15	1.35	11.39	-40.1	-51.2	3.8	8.46e-01	0	53	104	0	51	12486
2026-01-11 05:17:41.16	1.25	11.47	-40.1	-51.3	3.8	8.46e-01	0	53	104	0	51	12584
2026-01-11 05:17:42.17	1.15	11.55	-40.1	-51.3	3.8	8.46e-01	0	53	104	0	51	12571
2026-01-11 05:17:43.18	1.04	11.62	-40.1	-51.3	3.8	8.45e-01	0	53	104	0	51	12636
2026-01-11 05:17:44.19	0.94	11.70	-40.2	-51.3	3.8	8.46e-01	0	54	104	0	51	12659
2026-01-11 05:17:45.20	0.84	11.78	-40.2	-51.3	3.8	8.47e-01	0	53	104	0	51	12611
2026-01-11 05:17:46.21	0.73	11.86	-41.0	-52.0	3.8	8.46e-01	0	54	104	0	51	13596
2026-01-11 05:17:47.22	0.63	11.94	-40.4	-51.6	3.8	8.47e-01	0	53	104	0	51	13013
2026-01-11 05:17:48.23	0.52	12.02	-40.1	-51.3	3.8	8.45e-01	0	53	104	0	51	12577
2026-01-11 05:17:49.24	0.42	12.10	-40.4	-51.4	3.8	8.46e-01	0	53	104	0	51	12791
2026-01-11 05:17:50.24	0.31	12.18	-40.4	-51.4	3.8	8.46e-01	0	54	104	0	51	12730
2026-01-11 05:17:51.25	0.20	12.26	-40.4	-51.5	3.8	8.46e-01	0	54	104	0	51	12903
2026-01-11 05:17:52.27	0.10	12.34	-40.6	-51.6	3.8	8.46e-01	0	54	104	0	51	12972
2026-01-11 05:17:53.27	359.99	12.42	-41.0	-51.2	3.8	8.45e-01	0	54	104	0	51	12442
2026-01-11 05:17:54.28	359.88	12.50	-40.7	-51.8	3.8	8.47e-01	0	54	104	0	51	13391
2026-01-11 05:17:55.30	359.77	12.58	-42.0	-50.8	3.9	8.45e-01	0	54	104	0	54	9967
2026-01-11 05:17:56.31	359.66	12.66	-40.6	-51.2	3.8	8.46e-01	0	54	104	0	51	12379
2026-01-11 05:17:57.31	359.55	12.74	-41.2	-49.1	4.2	8.39e-01	0	54	0	0	52	9248
2026-01-11 05:17:58.33	359.44	12.82	-41.2	-48.1	4.6	8.23e-01	0	54	0	0	52	8242
2026-01-11 05:17:59.34	359.33	12.91	-41.1	-47.1	5.4	7.39e-01	0	54	0	0	52	7317
2026-01-11 05:18:00.35	359.21	12.99	-41.2	-46.6	5.9	4.43e-01	0	54	0	3145728	52	6957
2026-01-11 05:18:01.36	359.10	13.07	-41.3	-46.4	6.3	2.98e-01	0	54	0	10485760	52	6758
2026-01-11 05:18:02.37	358.99	13.15	-41.2	-45.9	6.7	2.38e-01	0	54	0	17825792	52	6420
2026-01-11 05:18:03.38	358.87	13.23	-40.8	-44.9	7.7	9.38e-02	0	54	0	25165824	52	5671
2026-01-11 05:18:04.39	358.76	13.32	-40.3	-43.8	8.9	3.48e-02	0	54	0	32505856	51	5306
2026-01-11 05:18:05.40	358.64	13.40	-40.2	-43.5	9.3	2.16e-02	0	54	0	39845888	51	5145
2026-01-11 05:18:06.41	358.52	13.48	-39.6	-42.5	10.4	9.18e-03	0	54	0	47185920	50	4839
2026-01-11 05:18:07.42	358.41	13.56	-38.5	-40.8	12.1	4.59e-04	0	54	0	54525952	48	4467
2026-01-11 05:18:08.43	358.29	13.65	-37.6	-39.6	13.2	2.05e-05	0	54	0	61865984	46	4383
2026-01-11 05:18:09.44	358.17	13.73	-36.8	-38.6	14.2	2.20e-06	0	54	0	69206016	44	4380
2026-01-11 05:18:10.45	358.05	13.81	-36.5	-38.3	14.5	0.00e+00	0	54	0	76546048	44	4201
2026-01-11 05:18:11.46	357.93	13.89	-36.9	-38.7	14.1	1.10e-06	0	54	0	83886080	44	4423
2026-01-11 05:18:12.46	357.81	13.98	-37.1	-39.1	13.8	2.20e-06	0	54	0	91226112	44	4614
2026-01-11 05:18:13.47	357.69	14.06	-37.1	-39.0	13.8	2.20e-06	0	54	0	98566144	44	4574
2026-01-11 05:18:14.48	357.57	14.14	-37.0	-38.8	14.0	2.20e-06	0	54	0	105906176	44	4489
2026-01-11 05:18:15.49	357.45	14.23	-36.7	-38.5	14.4	0.00e+00	0	54	0	113246208	44	4306
2026-01-11 05:18:16.50	357.32	14.31	-36.3	-37.9	14.8	1.10e-06	0	54	0	120586240	43	4283
2026-01-11 05:18:17.52	357.20	14.40	-36.3	-38.0	14.7	1.10e-06	0	54	0	127926272	43	4327
2026-01-11 05:18:18.53	357.07	14.48	-36.4	-38.1	14.6	0.00e+00	0	54	0	135266304	43	4384
2026-01-11 05:18:19.54	356.95	14.57	-35.9	-37.5	15.2	0.00e+00	0	54	0	141557760	42	4298
2026-01-11 05:18:20.54	356.82	14.65	-36.1	-37.7	14.9	0.00e+00	0	54	0	148897792	42	4426
2026-01-11 05:18:21.55	356.69	14.73	-36.2	-38.0	14.5	1.10e-06	0	54	0	157286400	42	4556
2026-01-11 05:18:22.56	356.57	14.82	-36.8	-38.8	13.6	2.20e-06	0	54	0	163577856	43	4715
2026-01-11 05:18:23.57	356.44	14.90	-37.5	-39.6	12.7	5.83e-05	0	54	0	170917888	44	4898
2026-01-11 05:18:24.58	356.31	14.99	-38.2	-40.8	11.3	7.43e-04	0	54	0	178257920	45	5292
2026-01-11 05:18:25.59	356.18	15.08	-38.9	-41.9	9.9	7.44e-03	0	54	0	185597952	47	5385
2026-01-11 05:18:26.60	356.05	15.16	-39.5	-43.3	8.5	3.37e-02	0	54	0	192937984	48	5944
2026-01-11 05:18:27.62	355.91	15.25	-40.1	-44.7	6.9	1.49e-01	0	54	0	200278016	49	6593
2026-01-11 05:18:28.62	355.78	15.33	-40.4	-45.9	5.8	3.56e-01	0	54	0	207618048	50	7197
2026-01-11 05:18:29.63	355.65	15.42	-40.7	-47.5	4.7	7.73e-01	0	54	0	209715200	51	8101
2026-01-11 05:18:30.64	355.52	15.50	-40.9	-48.8	4.2	8.32e-01	0	54	0	209715200	51	9405
2026-01-11 05:18:31.65	355.38	15.59	-40.9	-49.9	3.9	8.44e-01	0	54	104	209715200	51	10696
2026-01-11 05:18:32.66	355.25	15.68	-40.9	-50.7	3.8	8.47e-01	0	54	104	209715200	51	11742
2026-01-11 05:18:33.67	355.11	15.76	-40.9	-51.2	3.8	8.46e-01	0	54	104	209715200	51	12469
2026-01-11 05:18:34.68	354.97	15.85	-40.9	-51.6	3.8	8.44e-01	0	54	104	209715200	51	13046
2026-01-11 05:18:35.69	354.83	15.94	-40.9	-51.7	3.8	8.46e-01	0	54	104	209715200	51	13188
2026-01-11 05:18:36.70	354.70	16.02	-40.8	-51.8	3.8	8.47e-01	0	55	104	209715200	51	13358
2026-01-11 05:18:37.71	354.56	16.11	-40.8	-51.8	3.8	8.46e-01	0	54	104	209715200	51	13411
2026-01-11 05:18:38.71	354.42	16.20	-40.9	-51.9	3.8	8.46e-01	0	54	104	209715200	51	13525
2026-01-11 05:18:39.72	354.28	16.29	-40.9	-51.9	3.8	8.46e-01	0	55	104	209715200	51	13433
2026-01-11 05:18:40.73	354.13	16.37	-40.7	-51.9	3.8	8.47e-01	0	55	104	209715200	51	13439
2026-01-11 05:18:41.74	353.99	16.46	-40.9	-51.9	3.8	8.46e-01	0	55	104	209715200	51	13547
2026-01-11 05:18:42.75	353.85	16.55	-40.7	-51.9	3.8	8.46e-01	0	54	104	209715200	51	13568
2026-01-11 05:18:43.76	353.70	16.64	-40.8	-51.9	3.8	8.46e-01	0	55	104	209715200	51	13512
2026-01-11 05:18:44.77	353.56	16.72	-40.8	-52.0	3.8	8.45e-01	0	55	104	209715200	51	13635
2026-01-11 05:18:45.78	353.41	16.81	-40.6	-52.0	3.8	8.46e-01	0	55	104	209715200	51	13584
2026-01-11 05:18:46.79	353.26	16.90	-40.8	-52.0	3.8	8.46e-01	0	55	104	209715200	51	13602
2026-01-11 05:18:47.80	353.11	16.99	-40.3	-52.0	3.8	8.47e-01	0	55	104	209715200	51	13632
2026-01-11 05:18:48.81	352.96	17.08	-40.8	-52.2	3.8	8.46e-01	0	55	104	209715200	51	13914
2026-01-11 05:18:49.82	352.81	17.17	-40.8	-52.0	3.8	8.46e-01	0	55	104	209715200	51	13596
2026-01-11 05:18:50.83	352.66	17.25	-40.9	-52.1	3.8	8.46e-01	0	55	104	209715200	51	13831
2026-01-11 05:18:51.84	352.51	17.34	-40.7	-52.0	3.8	8.47e-01	0	55	104	209715200	51	13671
2026-01-11 05:18:52.85	352.36	17.43	-40.8	-52.0	3.8	8.46e-01	0	55	104	209715200	51	13580
2026-01-11 05:18:53.86	352.20	17.52	-40.8	-52.1	3.8	8.47e-01	0	55	104	209715200	51	13768
2026-01-11 05:18:54.87	352.05	17.61	-40.8	-52.0	3.8	8.45e-01	0	55	104	209715200	51	13574
2026-01-11 05:18:55.87	351.90	17.70	-40.8	-52.1	3.8	8.46e-01	0	55	104	209715200	51	13858
2026-01-11 05:18:56.88	351.74	17.79	-40.7	-52.0	3.8	8.46e-01	0	55	104	209715200	51	13584
2026-01-11 05:18:57.89	351.58	17.88	-40.9	-52.2	3.8	8.47e-01	0	55	104	209715200	51	13900
2026-01-11 05:18:58.90	351.42	17.97	-40.8	-52.0	3.8	8.45e-01	0	55	104	209715200	51	13601
2026-01-11 05:18:59.91	351.26	18.06	-40.9	-52.1	3.8	8.46e-01	0	55	104	209715200	51	13776
2026-01-11 05:19:00.92	351.10	18.15	-41.0	-52.1	3.8	8.46e-01	0	55	104	209715200	51	13764
2026-01-11 05:19:01.93	350.94	18.24	-40.8	-52.3	3.8	8.47e-01	0	55	104	209715200	51	14074
2026-01-11 05:19:02.94	350.78	18.33	-41.1	-52.1	3.8	8.46e-01	0	55	104	209715200	51	13805
2026-01-11 05:19:03.95	350.62	18.42	-41.0	-52.2	3.8	8.46e-01	0	55	104	209715200	51	14006
2026-01-11 05:19:04.96	350.45	18.51	-41.0	-52.0	3.8	8.46e-01	0	55	104	209715200	51	13686
2026-01-11 05:19:05.97	350.29	18.60	-40.8	-51.9	3.8	8.46e-01	0	55	104	209715200	51	13477
2026-01-11 05:19:06.98	350.12	18.69	-41.1	-52.1	3.8	8.46e-01	0	55	104	209715200	51	13747
2026-01-11 05:19:07.99	349.95	18.78	-40.9	-52.0	3.8	8.45e-01	0	55	104	209715200	51	13598
2026-01-11 05:19:08.99	349.79	18.87	-41.1	-52.2	3.8	8.47e-01	0	55	104	209715200	51	13896
2026-01-11 05:19:10.00	349.62	18.96	-40.9	-52.1	3.8	8.45e-01	0	55	104	209715200	51	13739
2026-01-11 05:19:11.01	349.45	19.05	-41.0	-52.2	3.8	8.46e-01	0	55	104	209715200	51	13960
2026-01-11 05:19:12.02	349.27	19.14	-41.0	-52.0	3.8	8.47e-01	0	55	104	209715200	51	13675
2026-01-11 05:19:13.03	349.10	19.23	-40.7	-52.0	3.8	8.47e-01	0	55	104	209715200	51	13647
2026-01-11 05:19:14.04	348.93	19.32	-41.1	-52.0	3.8	8.45e-01	0	55	104	209715200	51	13606
2026-01-11 05:19:15.05	348.75	19.41	-40.8	-52.0	3.8	8.46e-01	0	55	104	209715200	51	13582
2026-01-11 05:19:16.06	348.58	19.50	-41.1	-52.0	3.8	8.46e-01	0	55	104	209715200	51	13610
2026-01-11 05:19:17.07	348.40	19.59	-41.3	-52.2	3.8	8.46e-01	0	55	104	209715200	52	13196
2026-01-11 05:19:18.08	348.22	19.69	-41.0	-52.0	3.8	8.46e-01	0	55	104	209715200	52	12924
2026-01-11 05:19:19.09	348.04	19.78	-41.7	-52.1	3.8	8.46e-01	0	55	104	209715200	52	13012
2026-01-11 05:19:20.10	347.86	19.87	-40.9	-52.1	3.8	8.45e-01	0	55	104	209715200	52	12960
2026-01-11 05:19:21.11	347.68	19.96	-41.2	-52.0	3.8	8.46e-01	0	55	104	209715200	52	12923
2026-01-11 05:19:22.11	347.50	20.05	-40.6	-52.0	3.8	8.46e-01	0	55	104	209715200	52	12820
2026-01-11 05:19:23.12	347.32	20.14	-41.1	-51.7	3.8	8.47e-01	0	55	104	209715200	52	12471
2026-01-11 05:19:24.13	347.13	20.23	-41.1	-51.1	3.8	8.46e-01	0	55	104	209715200	52	11583
2026-01-11 05:19:25.14	346.95	20.32	-40.9	-50.0	3.9	8.45e-01	0	55	104	209715200	52	10224
2026-01-11 05:19:26.15	346.76	20.41	-40.9	-49.1	4.2	8.39e-01	0	55	0	209715200	52	9184
2026-01-11 05:19:27.16	346.57	20.51	-41.0	-49.2	4.2	8.36e-01	0	55	0	209715200	52	9350
2026-01-11 05:19:28.17	346.39	20.60	-41.2	-49.3	4.2	8.37e-01	0	55	0	209715200	52	9474
2026-01-11 05:19:29.18	346.20	20.69	-41.4	-49.2	4.3	8.36e-01	0	55	0	209715200	52	9300
2026-01-11 05:19:30.19	346.00	20.78	-41.1	-47.8	4.9	8.08e-01	0	55	0	209715200	52	7934
2026-01-11 05:19:31.20	345.81	20.87	-40.6	-45.9	6.1	4.31e-01	0	55	0	210763776	52	6407
2026-01-11 05:19:32.21	345.62	20.96	-40.1	-44.3	7.6	1.34e-01	0	55	0	218103808	51	5618
2026-01-11 05:19:33.22	345.42	21.05	-39.4	-42.9	9.1	2.68e-02	0	55	0	225443840	49	5344
2026-01-11 05:19:34.23	345.23	21.14	-39.0	-42.0	10.1	9.29e-03	0	55	0	232783872	48	5122
2026-01-11 05:19:35.24	345.03	21.24	-38.6	-41.4	10.8	3.62e-03	0	55	0	240123904	48	4764
2026-01-11 05:19:36.25	344.83	21.33	-37.8	-40.3	11.8	8.55e-04	0	55	0	247463936	46	4707
2026-01-11 05:19:37.26	344.63	21.42	-37.5	-39.7	12.4	1.84e-04	0	55	0	254803968	46	4437
2026-01-11 05:19:38.27	344.43	21.51	-37.1	-39.1	13.1	6.86e-05	0	55	0	262144000	45	4391
2026-01-11 05:19:39.28	344.23	21.60	-36.7	-38.6	14.0	9.10e-06	0	55	0	269484032	44	4361
2026-01-11 05:19:40.29	344.03	21.69	-36.0	-37.6	14.9	1.10e-06	0	55	0	276824064	42	4378
2026-01-11 05:19:41.30	343.82	21.78	-35.6	-37.2	15.4	1.10e-06	0	55	0	284164096	42	4180
2026-01-11 05:19:42.31	343.62	21.87	-35.6	-37.2	15.6	0.00e+00	0	55	0	291504128	42	4158
2026-01-11 05:19:43.32	343.41	21.96	-35.8	-37.3	15.6	0.00e+00	0	55	0	298844160	42	4225
2026-01-11 05:19:44.33	343.20	22.05	-36.1	-37.7	15.3	0.00e+00	0	55	0	306184192	42	4433
2026-01-11 05:19:45.34	342.99	22.14	-36.4	-38.0	15.1	0.00e+00	0	55	0	313524224	42	4587
2026-01-11 05:19:46.35	342.78	22.23	-36.9	-38.7	14.4	0.00e+00	0	55	0	320864256	43	4657
2026-01-11 05:19:47.36	342.57	22.33	-37.0	-38.8	14.4	1.10e-06	0	55	0	328204288	43	4721
2026-01-11 05:19:48.37	342.36	22.42	-36.8	-38.5	14.7	1.10e-06	0	55	0	335544320	43	4597
2026-01-11 05:19:49.38	342.14	22.51	-36.4	-38.0	15.5	0.00e+00	0	55	0	341835776	43	4298
2026-01-11 05:19:50.39	341.93	22.60	-36.2	-37.7	15.9	0.00e+00	0	55	0	349175808	43	4146
2026-01-11 05:19:51.41	341.71	22.69	-35.9	-37.3	16.5	0.00e+00	0	55	0	357564416	42	4224
2026-01-11 05:19:52.42	341.49	22.78	-35.5	-36.9	17.1	0.00e+00	0	55	0	363855872	42	4005
2026-01-11 05:19:53.43	341.27	22.87	-35.4	-36.7	17.4	0.00e+00	0	56	0	371195904	41	4157
2026-01-11 05:19:54.43	341.05	22.95	-35.2	-36.5	17.7	0.00e+00	0	55	0	378535936	41	4060
2026-01-11 05:19:55.44	340.83	23.04	-35.5	-36.8	17.4	0.00e+00	0	55	0	385875968	41	4213
2026-01-11 05:19:56.45	340.61	23.13	-35.4	-36.7	17.5	0.00e+00	0	56	0	393216000	41	4174
2026-01-11 05:19:57.46	340.39	23.22	-35.4	-36.6	17.7	0.00e+00	0	55	0	400556032	41	4133
2026-01-11 05:19:58.47	340.16	23.31	-35.4	-36.7	17.7	0.00e+00	0	55	0	407896064	41	4148
2026-01-11 05:19:59.48	339.93	23.40	-35.3	-36.5	17.8	0.00e+00	0	55	0	415236096	41	4091
2026-01-11 05:20:00.49	339.70	23.49	-35.5	-36.7	17.6	0.00e+00	0	55	0	422576128	41	4191
2026-01-11 05:20:01.50	339.47	23.58	-35.6	-36.9	17.5	0.00e+00	0	55	0	429916160	41	4260
2026-01-11 05:20:02.51	339.24	23.67	-35.3	-36.6	17.9	0.00e+00	0	55	0	437256192	41	4100
2026-01-11 05:20:03.52	339.01	23.75	-35.2	-36.4	18.0	0.00e+00	0	56	0	444596224	41	4020
2026-01-11 05:20:04.53	338.78	23.84	-35.2	-36.4	18.0	0.00e+00	0	55	0	451936256	41	4037
2026-01-11 05:20:05.55	338.54	23.93	-35.1	-36.3	18.2	0.00e+00	0	55	0	459276288	41	3966
2026-01-11 05:20:06.56	338.30	24.02	-35.0	-36.2	18.3	0.00e+00	0	55	0	466616320	41	3918
2026-01-11 05:20:07.57	338.07	24.10	-35.0	-36.1	18.3	0.00e+00	0	55	0	473956352	40	4137
2026-01-11 05:20:08.58	337.83	24.19	-35.0	-36.1	18.4	0.00e+00	0	56	0	481296384	40	4135
2026-01-11 05:20:09.59	337.59	24.28	-34.9	-36.0	18.5	0.00e+00	0	55	0	487587840	40	4081
2026-01-11 05:20:10.60	337.34	24.36	-34.9	-36.0	18.4	0.00e+00	0	56	0	495976448	40	4093
2026-01-11 05:20:11.61	337.10	24.45	-34.8	-35.9	18.5	0.00e+00	0	56	0	503316480	40	4041
2026-01-11 05:20:12.62	336.86	24.53	-34.7	-35.8	18.7	0.00e+00	0	55	0	509607936	40	3978
2026-01-11 05:20:13.63	336.61	24.62	-34.7	-35.8	18.7	0.00e+00	0	56	0	516947968	40	3978
2026-01-11 05:20:14.64	336.36	24.71	-34.7	-35.9	18.6	0.00e+00	0	55	0	524288000	40	4010
2026-01-11 05:20:15.65	336.12	24.79	-34.7	-35.9	18.6	0.00e+00	0	55	0	531628032	40	4017
2026-01-11 05:20:16.66	335.87	24.87	-34.8	-35.9	18.6	0.00e+00	0	56	0	538968064	40	4025
2026-01-11 05:20:17.67	335.61	24.96	-34.8	-35.9	18.6	0.00e+00	0	56	0	546308096	40	4035
2026-01-11 05:20:18.67	335.36	25.04	-34.7	-35.9	18.7	0.00e+00	0	56	0	553648128	40	4013
2026-01-11 05:20:19.69	335.11	25.13	-34.8	-35.9	18.6	0.00e+00	0	56	0	560988160	40	4031
2026-01-11 05:20:20.70	334.85	25.21	-34.7	-35.9	18.6	0.00e+00	0	56	0	568328192	40	4015
2026-01-11 05:20:21.70	334.60	25.29	-34.7	-35.8	18.7	0.00e+00	0	56	0	575668224	40	3998
2026-01-11 05:20:22.72	334.34	25.37	-34.7	-35.8	18.7	0.00e+00	0	56	0	583008256	40	4003
2026-01-11 05:20:23.73	334.08	25.46	-34.7	-35.8	18.7	0.00e+00	0	56	0	590348288	40	4001
2026-01-11 05:20:24.74	333.82	25.54	-34.8	-35.9	18.6	0.00e+00	0	56	0	597688320	40	4047
2026-01-11 05:20:25.75	333.56	25.62	-34.9	-36.0	18.5	0.00e+00	0	55	0	605028352	40	4078
2026-01-11 05:20:26.75	333.30	25.70	-34.9	-36.1	18.5	0.00e+00	0	55	0	612368384	40	4099
2026-01-11 05:20:27.76	333.03	25.78	-34.9	-36.0	18.5	0.00e+00	0	55	0	619708416	40	4098
2026-01-11 05:20:28.77	332.76	25.86	-34.9	-36.0	18.5	0.00e+00	0	55	0	627048448	40	4082
2026-01-11 05:20:29.78	332.50	25.94	-34.9	-36.1	18.5	0.00e+00	0	56	0	634388480	40	4125
2026-01-11 05:20:30.79	332.23	26.02	-34.9	-36.1	18.5	0.00e+00	0	55	0	640679936	40	4114
2026-01-11 05:20:31.80	331.96	26.10	-34.9	-36.1	18.5	0.00e+00	0	56	0	649068544	40	4123
2026-01-11 05:20:32.81	331.69	26.17	-34.9	-36.0	18.5	0.00e+00	0	56	0	656408576	40	4087
2026-01-11 05:20:33.82	331.41	26.25	-34.8	-35.9	18.6	0.00e+00	0	56	0	662700032	40	4030
2026-01-11 05:20:34.83	331.14	26.33	-34.9	-36.1	18.5	0.00e+00	0	56	0	670040064	40	4100
2026-01-11 05:20:35.85	330.86	26.41	-34.9	-36.0	18.5	0.00e+00	0	56	0	677380096	40	4082
2026-01-11 05:20:36.86	330.58	26.48	-34.9	-36.1	18.5	0.00e+00	0	56	0	684720128	40	4112
2026-01-11 05:20:37.87	330.31	26.56	-35.0	-36.1	18.4	0.00e+00	0	56	0	692060160	40	4141
2026-01-11 05:20:38.88	330.03	26.63	-35.1	-36.2	18.3	0.00e+00	0	56	0	699400192	40	4193
2026-01-11 05:20:39.89	329.74	26.71	-35.1	-36.3	18.3	0.00e+00	0	56	0	706740224	40	4194
2026-01-11 05:20:40.90	329.46	26.78	-35.1	-36.3	18.3	0.00e+00	0	56	0	714080256	40	4215
2026-01-11 05:20:41.91	329.18	26.86	-35.1	-36.2	18.4	0.00e+00	0	56	0	721420288	40	4179
2026-01-11 05:20:42.92	328.89	26.93	-34.9	-36.0	18.6	0.00e+00	0	56	0	728760320	40	4074
2026-01-11 05:20:43.93	328.61	27.00	-34.8	-35.9	18.7	0.00e+00	0	56	0	736100352	40	4049
2026-01-11 05:20:44.94	328.32	27.07	-34.7	-35.9	18.7	0.00e+00	0	55	0	743440384	40	4006
2026-01-11 05:20:45.95	328.03	27.14	-34.6	-35.7	18.9	0.00e+00	0	55	0	750780416	40	3948
2026-01-11 05:20:46.96	327.74	27.21	-34.6	-35.7	18.9	0.00e+00	0	56	0	758120448	40	3937
2026-01-11 05:20:47.97	327.45	27.28	-34.7	-35.8	18.8	0.00e+00	0	56	0	765460480	40	3980
2026-01-11 05:20:48.98	327.16	27.35	-34.7	-35.8	18.8	0.00e+00	0	56	0	772800512	40	3971
2026-01-11 05:20:49.99	326.86	27.42	-34.8	-36.0	18.6	0.00e+00	0	56	0	780140544	40	4064
2026-01-11 05:20:51.00	326.57	27.49	-34.9	-36.0	18.5	0.00e+00	0	56	0	787480576	40	4097
2026-01-11 05:20:52.01	326.27	27.55	-35.0	-36.2	18.5	0.00e+00	0	56	0	794820608	40	4146
2026-01-11 05:20:53.02	325.97	27.62	-35.0	-36.2	18.4	0.00e+00	0	56	0	802160640	40	4165
2026-01-11 05:20:54.03	325.67	27.69	-35.1	-36.3	18.3	0.00e+00	0	56	0	808452096	40	4212
2026-01-11 05:20:55.04	325.37	27.75	-35.1	-36.3	18.4	0.00e+00	0	56	0	815792128	40	4198
2026-01-11 05:20:56.05	325.07	27.82	-35.2	-36.3	18.3	0.00e+00	0	56	0	824180736	40	4228
2026-01-11 05:20:57.07	324.77	27.88	-35.2	-36.4	18.3	0.00e+00	0	56	0	830472192	40	4250
2026-01-11 05:20:58.08	324.46	27.94	-35.1	-36.2	18.4	0.00e+00	0	56	0	837812224	40	4171
2026-01-11 05:20:59.09	324.16	28.00	-35.0	-36.2	18.4	0.00e+00	0	56	0	845152256	40	4162
2026-01-11 05:21:00.10	323.85	28.07	-35.0	-36.1	18.5	0.00e+00	0	56	0	852492288	40	4133
2026-01-11 05:21:01.11	323.54	28.13	-34.9	-36.1	18.5	0.00e+00	0	56	0	859832320	40	4119
2026-01-11 05:21:02.12	323.23	28.19	-34.8	-35.9	18.7	0.00e+00	0	56	0	867172352	40	4039
2026-01-11 05:21:03.12	322.93	28.24	-34.7	-35.8	18.8	0.00e+00	0	56	0	874512384	40	3986
2026-01-11 05:21:04.13	322.62	28.30	-34.5	-35.6	18.9	0.00e+00	0	56	0	881852416	40	3906
2026-01-11 05:21:05.15	322.30	28.36	-34.5	-35.6	19.0	0.00e+00	0	56	0	889192448	40	3897
2026-01-11 05:21:06.15	321.99	28.42	-34.6	-35.7	19.0	0.00e+00	0	56	0	896532480	39	4158
2026-01-11 05:21:07.17	321.67	28.47	-34.6	-35.7	19.0	0.00e+00	0	56	0	903872512	39	4176
2026-01-11 05:21:08.18	321.36	28.53	-34.6	-35.6	19.0	0.00e+00	0	56	0	911212544	39	4143
2026-01-11 05:21:09.19	321.04	28.58	-34.5	-35.6	19.1	0.00e+00	0	56	0	918552576	39	4113
2026-01-11 05:21:10.20	320.72	28.63	-34.5	-35.6	19.0	0.00e+00	0	56	0	925892608	39	4142
2026-01-11 05:21:11.21	320.40	28.68	-34.6	-35.7	19.0	0.00e+00	0	56	0	933232640	39	4150
2026-01-11 05:21:12.22	320.08	28.74	-34.5	-35.6	19.0	0.00e+00	0	56	0	940572672	39	4127
2026-01-11 05:21:13.23	319.76	28.79	-34.5	-35.6	19.1	0.00e+00	0	56	0	947912704	39	4100
2026-01-11 05:21:14.24	319.44	28.84	-34.4	-35.5	19.1	0.00e+00	0	56	0	955252736	39	4090
2026-01-11 05:21:15.25	319.12	28.88	-34.5	-35.6	19.1	0.00e+00	0	56	0	962592768	39	4103
2026-01-11 05:21:16.26	318.79	28.93	-34.5	-35.6	19.1	0.00e+00	0	56	0	969932800	39	4110
2026-01-11 05:21:17.27	318.47	28.98	-34.6	-35.7	19.0	0.00e+00	0	56	0	977272832	39	4151
2026-01-11 05:21:18.28	318.14	29.02	-34.6	-35.7	19.0	0.00e+00	0	56	0	983564288	39	4158
2026-01-11 05:21:19.29	317.82	29.07	-34.5	-35.6	19.1	0.00e+00	0	56	0	990904320	39	4111
2026-01-11 05:21:20.30	317.49	29.11	-34.4	-35.5	19.2	0.00e+00	0	56	0	999292928	39	4066
2026-01-11 05:21:21.31	317.16	29.15	-34.3	-35.3	19.3	0.00e+00	0	56	0	1005584384	39	3998
2026-01-11 05:21:22.32	316.83	29.20	-34.2	-35.3	19.3	0.00e+00	0	56	0	1012924416	39	3974
2026-01-11 05:21:23.33	316.50	29.24	-34.2	-35.3	19.3	0.00e+00	0	56	0	1020264448	39	3981
2026-01-11 05:21:24.34	316.17	29.28	-34.2	-35.3	19.4	0.00e+00	0	56	0	1027604480	39	3961
2026-01-11 05:21:25.35	315.84	29.31	-34.2	-35.2	19.4	0.00e+00	0	56	0	1034944512	39	3955
2026-01-11 05:21:26.36	315.51	29.35	-34.1	-35.2	19.4	0.00e+00	0	56	0	1042284544	39	3931
2026-01-11 05:21:27.37	315.17	29.39	-34.2	-35.2	19.4	0.00e+00	0	56	0	1049624576	39	3958
2026-01-11 05:21:28.38	314.84	29.42	-34.2	-35.3	19.3	0.00e+00	0	56	0	1056964608	39	3976
2026-01-11 05:21:29.39	314.50	29.46	-34.3	-35.4	19.3	0.00e+00	0	56	0	1064304640	39	4007
2026-01-11 05:21:30.40	314.17	29.49	-34.3	-35.4	19.2	0.00e+00	0	56	0	1071644672	39	4023
2026-01-11 05:21:31.42	313.83	29.52	-34.3	-35.4	19.2	0.00e+00	0	56	0	1078984704	39	4017
2026-01-11 05:21:32.42	313.49	29.56	-34.3	-35.4	19.3	0.00e+00	0	56	0	1086324736	39	4015
2026-01-11 05:21:33.43	313.16	29.59	-34.2	-35.3	19.3	0.00e+00	0	56	0	1093664768	39	3978
2026-01-11 05:21:34.44	312.82	29.61	-34.2	-35.3	19.4	0.00e+00	0	56	0	1101004800	39	3963
2026-01-11 05:21:35.45	312.48	29.64	-34.3	-35.3	19.3	0.00e+00	0	56	0	1108344832	39	4001
2026-01-11 05:21:36.46	312.14	29.67	-34.3	-35.3	19.3	0.00e+00	0	56	0	1115684864	39	3998
2026-01-11 05:21:37.47	311.80	29.70	-34.3	-35.4	19.2	0.00e+00	0	56	0	1123024896	39	4028
2026-01-11 05:21:38.48	311.46	29.72	-34.3	-35.3	19.3	0.00e+00	0	56	0	1130364928	39	4003
2026-01-11 05:21:39.49	311.12	29.74	-34.3	-35.4	19.3	0.00e+00	0	56	0	1136656384	39	4020
2026-01-11 05:21:40.50	310.78	29.77	-34.3	-35.4	19.2	0.00e+00	0	56	0	1145044992	39	4034
2026-01-11 05:21:41.51	310.43	29.79	-34.4	-35.5	19.2	0.00e+00	0	56	0	1152385024	39	4061
2026-01-11 05:21:42.52	310.09	29.81	-34.4	-35.5	19.1	0.00e+00	0	56	0	1158676480	39	4080
2026-01-11 05:21:43.53	309.75	29.83	-34.4	-35.5	19.1	0.00e+00	0	56	0	1166016512	39	4087
2026-01-11 05:21:44.54	309.40	29.84	-34.5	-35.6	19.1	0.00e+00	0	56	0	1173356544	39	4100
2026-01-11 05:21:45.55	309.06	29.86	-34.4	-35.5	19.2	0.00e+00	0	56	0	1180696576	39	4052
2026-01-11 05:21:46.56	308.72	29.88	-34.3	-35.4	19.2	0.00e+00	0	56	0	1188036608	39	4029
2026-01-11 05:21:47.57	308.37	29.89	-34.2	-35.3	19.4	0.00e+00	0	56	0	1195376640	39	3967
2026-01-11 05:21:48.58	308.03	29.90	-34.1	-35.2	19.5	0.00e+00	0	56	0	1202716672	39	3922
2026-01-11 05:21:49.59	307.68	29.92	-34.1	-35.1	19.5	0.00e+00	0	56	0	1210056704	39	3910
2026-01-11 05:21:50.60	307.34	29.93	-34.2	-35.3	19.4	0.00e+00	0	56	0	1217396736	39	3976
2026-01-11 05:21:51.61	306.99	29.94	-34.2	-35.3	19.3	0.00e+00	0	56	0	1224736768	39	3978
2026-01-11 05:21:52.62	306.64	29.95	-34.3	-35.4	19.2	0.00e+00	0	56	0	1232076800	39	4023
2026-01-11 05:21:53.63	306.30	29.95	-34.4	-35.5	19.2	0.00e+00	0	56	0	1239416832	39	4066
2026-01-11 05:21:54.64	305.95	29.96	-34.4	-35.5	19.2	0.00e+00	0	56	0	1246756864	39	4061
2026-01-11 05:21:55.65	305.61	29.97	-34.4	-35.5	19.2	0.00e+00	0	56	0	1254096896	39	4074
2026-01-11 05:21:56.66	305.26	29.97	-34.4	-35.5	19.2	0.00e+00	0	56	0	1261436928	39	4067
2026-01-11 05:21:57.67	304.91	29.97	-34.4	-35.5	19.1	0.00e+00	0	56	0	1268776960	39	4088
2026-01-11 05:21:58.68	304.57	29.97	-34.4	-35.4	19.2	0.00e+00	0	56	0	1276116992	39	4046
2026-01-11 05:21:59.69	304.22	29.97	-34.3	-35.4	19.3	0.00e+00	0	56	0	1282408448	39	4024
2026-01-11 05:22:00.70	303.87	29.97	-34.3	-35.3	19.3	0.00e+00	0	56	0	1290797056	39	3996
2026-01-11 05:22:01.71	303.53	29.97	-34.2	-35.3	19.3	0.00e+00	0	56	0	1298137088	39	3987
2026-01-11 05:22:02.72	303.18	29.97	-34.2	-35.2	19.4	0.00e+00	0	56	0	1304428544	39	3943
2026-01-11 05:22:03.73	302.83	29.96	-34.3	-35.3	19.3	0.00e+00	0	56	0	1311768576	39	3992
2026-01-11 05:22:04.74	302.49	29.96	-34.3	-35.4	19.3	0.00e+00	0	56	0	1319108608	39	4022
2026-01-11 05:22:05.75	302.14	29.95	-34.3	-35.4	19.2	0.00e+00	0	56	0	1326448640	39	4044
2026-01-11 05:22:06.76	301.80	29.95	-34.4	-35.4	19.2	0.00e+00	0	56	0	1333788672	39	4044
2026-01-11 05:22:07.77	301.45	29.94	-34.4	-35.5	19.2	0.00e+00	0	56	0	1341128704	39	4084
2026-01-11 05:22:08.78	301.10	29.93	-34.3	-35.4	19.3	0.00e+00	0	56	0	1348468736	39	4036
2026-01-11 05:22:09.79	300.76	29.92	-34.4	-35.4	19.2	0.00e+00	0	56	0	1355808768	39	4047
2026-01-11 05:22:10.80	300.41	29.90	-34.3	-35.4	19.3	0.00e+00	0	56	0	1363148800	39	4021
2026-01-11 05:22:11.81	300.07	29.89	-34.3	-35.3	19.3	0.00e+00	0	56	0	1370488832	39	4002
2026-01-11 05:22:12.82	299.72	29.87	-34.2	-35.3	19.3	0.00e+00	0	56	0	1377828864	39	3984
2026-01-11 05:22:13.82	299.38	29.86	-34.3	-35.3	19.3	0.00e+00	0	56	0	1385168896	39	4001
2026-01-11 05:22:14.84	299.03	29.84	-34.4	-35.5	19.2	0.00e+00	0	56	0	1392508928	39	4070
2026-01-11 05:22:15.85	298.69	29.82	-34.3	-35.4	19.2	0.00e+00	0	56	0	1399848960	39	4027
2026-01-11 05:22:16.86	298.35	29.80	-34.3	-35.3	19.3	0.00e+00	0	56	0	1407188992	39	3995
2026-01-11 05:22:17.87	298.00	29.78	-34.2	-35.3	19.4	0.00e+00	0	56	0	1414529024	39	3969
2026-01-11 05:22:18.88	297.66	29.76	-34.2	-35.3	19.4	0.00e+00	0	56	0	1421869056	39	3975
2026-01-11 05:22:19.89	297.32	29.74	-34.2	-35.3	19.4	0.00e+00	0	56	0	1429209088	39	3961
2026-01-11 05:22:20.90	296.98	29.72	-34.3	-35.4	19.3	0.00e+00	0	56	0	1436549120	39	4016
2026-01-11 05:22:21.91	296.64	29.69	-34.3	-35.3	19.3	0.00e+00	0	56	0	1443889152	39	4003
2026-01-11 05:22:22.92	296.30	29.66	-34.3	-35.4	19.3	0.00e+00	0	56	0	1451229184	39	4039
2026-01-11 05:22:23.93	295.96	29.64	-34.4	-35.5	19.2	0.00e+00	0	56	0	1457520640	39	4071
2026-01-11 05:22:24.94	295.62	29.61	-34.3	-35.4	19.3	0.00e+00	0	56	0	1464860672	39	4034
2026-01-11 05:22:25.95	295.28	29.58	-34.2	-35.3	19.4	0.00e+00	0	56	0	1473249280	39	3972
2026-01-11 05:22:26.96	294.94	29.55	-34.1	-35.2	19.5	0.00e+00	0	56	0	1479540736	39	3934
2026-01-11 05:22:27.97	294.60	29.52	-34.2	-35.2	19.5	0.00e+00	0	56	0	1486880768	39	3942
2026-01-11 05:22:28.98	294.27	29.49	-34.2	-35.3	19.3	0.00e+00	0	56	0	1494220800	39	3984
2026-01-11 05:22:29.99	293.93	29.45	-34.3	-35.4	19.2	0.00e+00	0	56	0	1501560832	39	4034
2026-01-11 05:22:31.00	293.60	29.42	-34.4	-35.5	19.2	0.00e+00	0	56	0	1508900864	39	4055
2026-01-11 05:22:32.02	293.26	29.38	-34.4	-35.5	19.2	0.00e+00	0	56	0	1516240896	39	4072
2026-01-11 05:22:33.03	292.92	29.34	-34.4	-35.5	19.1	0.00e+00	0	56	0	1523580928	39	4080
2026-01-11 05:22:34.04	292.59	29.31	-34.3	-35.4	19.3	0.00e+00	0	56	0	1530920960	39	4017
2026-01-11 05:22:35.04	292.26	29.27	-34.3	-35.3	19.3	0.00e+00	0	56	0	1538260992	39	3997
2026-01-11 05:22:36.05	291.93	29.23	-34.2	-35.3	19.4	0.00e+00	0	56	0	1545601024	39	3967
2026-01-11 05:22:37.06	291.60	29.19	-34.2	-35.3	19.4	0.00e+00	0	56	0	1552941056	39	3972
2026-01-11 05:22:38.07	291.27	29.15	-34.2	-35.2	19.4	0.00e+00	0	56	0	1560281088	39	3946
2026-01-11 05:22:39.09	290.94	29.10	-34.3	-35.4	19.3	0.00e+00	0	56	0	1567621120	39	4021
2026-01-11 05:22:40.10	290.61	29.06	-34.4	-35.5	19.2	0.00e+00	0	56	0	1574961152	39	4052
2026-01-11 05:22:41.11	290.28	29.01	-34.5	-35.5	19.1	0.00e+00	0	56	0	1582301184	39	4097
2026-01-11 05:22:42.12	289.96	28.97	-34.4	-35.5	19.2	0.00e+00	0	56	0	1589641216	39	4066
2026-01-11 05:22:43.12	289.63	28.92	-34.4	-35.5	19.2	0.00e+00	0	56	0	1596981248	39	4066
2026-01-11 05:22:44.13	289.31	28.87	-34.4	-35.5	19.2	0.00e+00	0	56	0	1603272704	39	4052
2026-01-11 05:22:45.15	288.98	28.82	-34.3	-35.3	19.3	0.00e+00	0	56	0	1610612736	39	3993
2026-01-11 05:22:46.15	288.66	28.78	-34.2	-35.3	19.3	0.00e+00	0	56	0	1619001344	39	3980
2026-01-11 05:22:47.16	288.34	28.72	-34.2	-35.3	19.4	0.00e+00	0	56	0	1625292800	39	3967
2026-01-11 05:22:48.17	288.02	28.67	-34.2	-35.3	19.3	0.00e+00	0	56	0	1632632832	39	3980
2026-01-11 05:22:49.18	287.70	28.62	-34.3	-35.4	19.3	0.00e+00	0	56	0	1639972864	39	4010
2026-01-11 05:22:50.19	287.38	28.57	-34.4	-35.5	19.2	0.00e+00	0	56	0	1647312896	39	4055
2026-01-11 05:22:51.20	287.07	28.51	-34.5	-35.6	19.1	0.00e+00	0	56	0	1654652928	39	4105
2026-01-11 05:22:52.21	286.75	28.46	-34.5	-35.6	19.1	0.00e+00	0	56	0	1661992960	39	4119
2026-01-11 05:22:53.22	286.44	28.40	-34.5	-35.6	19.1	0.00e+00	0	56	0	1669332992	39	4121
2026-01-11 05:22:54.23	286.12	28.35	-34.4	-35.5	19.2	0.00e+00	0	56	0	1676673024	39	4066
2026-01-11 05:22:55.24	285.81	28.29	-34.3	-35.4	19.2	0.00e+00	0	56	0	1684013056	39	4042
2026-01-11 05:22:56.25	285.50	28.23	-34.3	-35.4	19.3	0.00e+00	0	56	0	1691353088	39	4025
2026-01-11 05:22:57.26	285.19	28.17	-34.2	-35.2	19.4	0.00e+00	0	56	0	1698693120	39	3954
2026-01-11 05:22:58.27	284.88	28.11	-34.2	-35.2	19.4	0.00e+00	0	56	0	1706033152	39	3957
2026-01-11 05:22:59.28	284.57	28.05	-34.1	-35.2	19.5	0.00e+00	0	56	0	1713373184	39	3915
2026-01-11 05:23:00.29	284.26	27.99	-34.2	-35.2	19.4	0.00e+00	0	56	0	1720713216	39	3946
2026-01-11 05:23:01.30	283.96	27.93	-34.2	-35.3	19.4	0.00e+00	0	56	0	1728053248	39	3966
2026-01-11 05:23:02.31	283.65	27.86	-34.2	-35.3	19.4	0.00e+00	0	56	0	1735393280	39	3962
2026-01-11 05:23:03.33	283.34	27.80	-34.3	-35.4	19.3	0.00e+00	0	56	0	1742733312	39	4009
2026-01-11 05:23:04.34	283.04	27.74	-34.3	-35.4	19.2	0.00e+00	0	56	0	1750073344	39	4022
2026-01-11 05:23:05.35	282.74	27.67	-34.4	-35.5	19.2	0.00e+00	0	56	0	1757413376	39	4058
2026-01-11 05:23:06.36	282.44	27.60	-34.4	-35.5	19.1	0.00e+00	0	56	0	1764753408	39	4091
2026-01-11 05:23:07.37	282.14	27.54	-34.4	-35.5	19.1	0.00e+00	0	56	0	1772093440	39	4088
2026-01-11 05:23:08.38	281.85	27.47	-34.5	-35.6	19.0	0.00e+00	0	56	0	1778384896	39	4126
2026-01-11 05:23:09.39	281.55	27.40	-34.4	-35.5	19.1	0.00e+00	0	56	0	1785724928	39	4067
2026-01-11 05:23:10.40	281.25	27.33	-34.4	-35.5	19.1	0.00e+00	0	56	0	1794113536	39	4070
2026-01-11 05:23:11.41	280.96	27.26	-34.3	-35.4	19.2	0.00e+00	0	56	0	1800404992	39	4036
2026-01-11 05:23:12.42	280.67	27.19	-34.3	-35.3	19.3	0.00e+00	0	56	0	1807745024	39	4004
2026-01-11 05:23:13.42	280.38	27.12	-34.2	-35.3	19.3	0.00e+00	0	56	0	1815085056	39	3990
2026-01-11 05:23:14.43	280.09	27.05	-34.3	-35.4	19.2	0.00e+00	0	56	0	1822425088	39	4016
2026-01-11 05:23:15.44	279.80	26.98	-34.4	-35.4	19.2	0.00e+00	0	56	0	1829765120	39	4044
2026-01-11 05:23:16.45	279.52	26.91	-34.4	-35.5	19.1	0.00e+00	0	56	0	1837105152	39	4058
2026-01-11 05:23:17.46	279.23	26.83	-34.5	-35.6	19.0	0.00e+00	0	56	0	1844445184	39	4119
2026-01-11 05:23:18.47	278.95	26.76	-34.5	-35.6	19.0	0.00e+00	0	56	0	1851785216	39	4145
2026-01-11 05:23:19.48	278.66	26.69	-34.6	-35.7	18.9	0.00e+00	0	56	0	1859125248	39	4171
2026-01-11 05:23:20.49	278.38	26.61	-34.6	-35.7	19.0	0.00e+00	0	56	0	1866465280	39	4149
2026-01-11 05:23:21.50	278.10	26.54	-34.5	-35.7	19.0	0.00e+00	0	56	0	1873805312	39	4150
2026-01-11 05:23:22.51	277.82	26.46	-34.5	-35.6	19.1	0.00e+00	0	56	0	1881145344	39	4100
2026-01-11 05:23:23.52	277.54	26.38	-34.4	-35.5	19.1	0.00e+00	0	56	0	1888485376	39	4069
2026-01-11 05:23:24.53	277.27	26.31	-34.4	-35.4	19.1	0.00e+00	0	56	0	1895825408	39	4051
2026-01-11 05:23:25.55	276.99	26.23	-34.3	-35.4	19.2	0.00e+00	0	56	0	1902116864	39	4043
2026-01-11 05:23:26.55	276.72	26.15	-34.3	-35.4	19.2	0.00e+00	0	56	0	1910505472	39	4019
2026-01-11 05:23:27.56	276.44	26.07	-34.3	-35.4	19.2	0.00e+00	0	56	0	1917845504	39	4020
2026-01-11 05:23:28.57	276.17	25.99	-34.5	-35.6	19.0	0.00e+00	0	56	0	1924136960	39	4120
2026-01-11 05:23:29.59	275.90	25.91	-34.6	-35.7	18.9	0.00e+00	0	56	0	1931476992	39	4151
2026-01-11 05:23:30.60	275.63	25.83	-34.7	-35.8	18.8	0.00e+00	0	56	0	1939865600	39	4202
2026-01-11 05:23:31.61	275.37	25.75	-34.7	-35.8	18.8	0.00e+00	0	56	0	1946157056	39	4230
2026-01-11 05:23:32.62	275.10	25.67	-34.7	-35.8	18.8	0.00e+00	0	56	0	1953497088	39	4209
2026-01-11 05:23:33.63	274.84	25.59	-34.7	-35.8	18.8	0.00e+00	0	56	0	1960837120	39	4212
2026-01-11 05:23:34.64	274.57	25.51	-34.6	-35.7	18.9	0.00e+00	0	56	0	1968177152	39	4168
2026-01-11 05:23:35.65	274.31	25.43	-34.6	-35.7	18.9	0.00e+00	0	56	0	1975517184	39	4187
2026-01-11 05:23:36.66	274.05	25.35	-34.6	-35.7	18.9	0.00e+00	0	56	0	1982857216	39	4170
2026-01-11 05:23:37.67	273.79	25.26	-34.6	-35.7	18.9	0.00e+00	0	56	0	1990197248	39	4158
2026-01-11 05:23:38.68	273.54	25.18	-34.7	-35.8	18.8	0.00e+00	0	56	0	1997537280	39	4200
2026-01-11 05:23:39.69	273.28	25.10	-34.7	-35.8	18.8	0.00e+00	0	56	0	2004877312	39	4233
2026-01-11 05:23:40.70	273.02	25.01	-34.8	-35.9	18.7	0.00e+00	0	56	0	2012217344	39	4257
2026-01-11 05:23:41.71	272.77	24.93	-34.7	-35.8	18.8	0.00e+00	0	56	0	2019557376	39	4231
2026-01-11 05:23:42.72	272.52	24.84	-34.7	-35.8	18.8	0.00e+00	0	56	0	2026897408	39	4209
2026-01-11 05:23:43.73	272.27	24.76	-34.6	-35.7	18.9	0.00e+00	0	56	0	2034237440	39	4155
2026-01-11 05:23:44.74	272.02	24.67	-34.5	-35.6	18.9	0.00e+00	0	56	0	2041577472	39	4143
2026-01-11 05:23:45.75	271.77	24.59	-34.6	-35.7	18.9	0.00e+00	0	56	0	2048917504	39	4151
2026-01-11 05:23:46.76	271.52	24.50	-34.6	-35.7	18.9	0.00e+00	0	56	0	2056257536	39	4177
2026-01-11 05:23:47.77	271.28	24.42	-34.6	-35.8	18.8	0.00e+00	0	56	0	2063597568	39	4197
2026-01-11 05:23:48.78	271.04	24.33	-34.7	-35.9	18.7	0.00e+00	0	56	0	2070937600	39	4249
2026-01-11 05:23:49.79	270.79	24.24	-34.8	-35.9	18.7	0.00e+00	0	56	0	2077229056	39	4266
2026-01-11 05:23:50.80	270.55	24.16	-34.8	-35.9	18.7	0.00e+00	0	56	0	2085617664	39	4252
2026-01-11 05:23:51.81	270.31	24.07	-34.8	-35.9	18.7	0.00e+00	0	56	0	2092957696	39	4256
2026-01-11 05:23:52.82	270.07	23.98	-34.7	-35.8	18.7	0.00e+00	0	56	0	2099249152	39	4218
2026-01-11 05:23:53.83	269.84	23.89	-34.7	-35.9	18.7	0.00e+00	0	56	0	2106589184	39	4252
2026-01-11 05:23:54.84	269.60	23.80	-34.7	-35.8	18.7	0.00e+00	0	56	0	2113929216	39	4236
2026-01-11 05:23:55.85	269.37	23.72	-34.7	-35.9	18.7	0.00e+00	0	56	0	2121269248	39	4246
2026-01-11 05:23:56.86	269.13	23.63	-34.8	-35.9	18.7	0.00e+00	0	56	0	2128609280	39	4266
2026-01-11 05:23:57.87	268.90	23.54	-34.8	-35.9	18.6	0.00e+00	0	56	0	2135949312	39	4290
2026-01-11 05:23:58.88	268.67	23.45	-34.8	-36.0	18.6	0.00e+00	0	56	0	2143289344	39	4303
2026-01-11 05:23:59.89	268.44	23.36	-34.8	-36.0	18.6	0.00e+00	0	56	0	2150629376	39	4298
2026-01-11 05:24:00.90	268.21	23.27	-34.8	-36.0	18.6	0.00e+00	0	56	0	2157969408	39	4307
2026-01-11 05:24:01.91	267.99	23.18	-34.8	-35.9	18.6	0.00e+00	0	56	0	2165309440	39	4288
2026-01-11 05:24:02.92	267.76	23.09	-34.8	-35.9	18.6	0.00e+00	0	56	0	2172649472	39	4280
2026-01-11 05:24:03.93	267.54	23.00	-34.9	-36.0	18.6	0.00e+00	0	56	0	2179989504	39	4313
2026-01-11 05:24:04.95	267.31	22.91	-34.9	-36.0	18.5	0.00e+00	0	57	0	2187329536	39	4330
2026-01-11 05:24:05.96	267.09	22.82	-34.9	-36.0	18.5	0.00e+00	0	56	0	2194669568	39	4336
2026-01-11 05:24:06.97	266.87	22.73	-34.9	-36.0	18.5	0.00e+00	0	56	0	2202009600	39	4333
2026-01-11 05:24:07.98	266.65	22.64	-34.9	-36.0	18.6	0.00e+00	0	56	0	2209349632	39	4320
2026-01-11 05:24:08.99	266.43	22.55	-34.8	-36.0	18.6	0.00e+00	0	56	0	2216689664	39	4292
2026-01-11 05:24:10.00	266.22	22.46	-34.7	-35.8	18.7	0.00e+00	0	56	0	2224029696	39	4241
2026-01-11 05:24:11.01	266.00	22.37	-34.7	-35.8	18.8	0.00e+00	0	56	0	2231369728	39	4209
2026-01-11 05:24:12.02	265.79	22.28	-34.6	-35.7	18.8	0.00e+00	0	56	0	2238709760	39	4187
2026-01-11 05:24:13.03	265.57	22.19	-34.7	-35.8	18.8	0.00e+00	0	56	0	2245001216	39	4221
2026-01-11 05:24:14.04	265.36	22.10	-34.7	-35.8	18.7	0.00e+00	0	56	0	2252341248	39	4219
2026-01-11 05:24:15.05	265.15	22.01	-34.8	-35.9	18.6	0.00e+00	0	56	0	2259681280	39	4273
2026-01-11 05:24:16.06	264.94	21.92	-34.9	-36.1	18.4	0.00e+00	0	56	0	2267021312	39	4367
2026-01-11 05:24:17.07	264.74	21.83	-35.0	-36.1	18.4	0.00e+00	0	56	0	2274361344	39	4389
2026-01-11 05:24:18.08	264.53	21.73	-35.1	-36.3	18.2	0.00e+00	0	56	0	2281701376	39	4469
2026-01-11 05:24:19.09	264.33	21.64	-35.1	-36.3	18.2	0.00e+00	0	56	0	2289041408	39	4477
2026-01-11 05:24:20.10	264.12	21.55	-35.1	-36.3	18.1	0.00e+00	0	56	0	2296381440	39	4477
2026-01-11 05:24:21.10	263.92	21.46	-35.1	-36.3	18.3	0.00e+00	0	56	0	2303721472	39	4449
2026-01-11 05:24:22.12	263.72	21.37	-35.1	-36.2	18.3	0.00e+00	0	56	0	2311061504	39	4433
2026-01-11 05:24:23.12	263.52	21.28	-35.1	-36.3	18.3	0.00e+00	0	56	0	2318401536	39	4444
2026-01-11 05:24:24.13	263.32	21.19	-35.1	-36.3	18.2	0.00e+00	0	57	0	2325741568	39	4452
2026-01-11 05:24:25.15	263.12	21.09	-35.1	-36.3	18.3	0.00e+00	0	56	0	2333081600	39	4450
2026-01-11 05:24:26.15	262.92	21.00	-35.2	-36.3	18.2	0.00e+00	0	56	0	2340421632	39	4488
2026-01-11 05:24:27.16	262.73	20.91	-35.2	-36.4	18.1	0.00e+00	0	56	0	2347761664	39	4500
2026-01-11 05:24:28.18	262.53	20.82	-35.1	-36.3	18.1	0.00e+00	0	57	0	2355101696	40	4218
2026-01-11 05:24:29.19	262.34	20.73	-35.1	-36.3	18.2	0.00e+00	0	56	0	2362441728	40	4196
2026-01-11 05:24:30.19	262.15	20.64	-35.0	-36.2	18.2	0.00e+00	0	57	0	2369781760	40	4174
2026-01-11 05:24:31.20	261.96	20.54	-34.9	-36.1	18.3	0.00e+00	0	56	0	2377121792	40	4131
2026-01-11 05:24:32.21	261.77	20.45	-34.9	-36.1	18.4	0.00e+00	0	56	0	2384461824	40	4113
2026-01-11 05:24:33.22	261.58	20.36	-34.9	-36.1	18.4	0.00e+00	0	57	0	2391801856	40	4109
2026-01-11 05:24:34.23	261.39	20.27	-34.9	-36.1	18.4	0.00e+00	0	56	0	2398093312	40	4106
2026-01-11 05:24:35.24	261.21	20.18	-34.9	-36.0	18.3	0.00e+00	0	56	0	2405433344	40	4098
2026-01-11 05:24:36.25	261.02	20.09	-34.9	-36.1	18.3	0.00e+00	0	57	0	2413821952	40	4114
2026-01-11 05:24:37.26	260.84	19.99	-35.0	-36.1	18.3	0.00e+00	0	57	0	2420113408	40	4130
2026-01-11 05:24:38.27	260.65	19.90	-35.0	-36.2	18.2	0.00e+00	0	56	0	2427453440	40	4156
2026-01-11 05:24:39.28	260.47	19.81	-35.1	-36.3	18.1	0.00e+00	0	57	0	2434793472	40	4221
2026-01-11 05:24:40.28	260.29	19.72	-35.2	-36.3	18.0	0.00e+00	0	57	0	2442133504	40	4241
2026-01-11 05:24:41.29	260.11	19.63	-35.2	-36.4	18.0	0.00e+00	0	56	0	2449473536	40	4265
2026-01-11 05:24:42.30	259.93	19.54	-35.3	-36.5	18.0	0.00e+00	0	57	0	2456813568	40	4293
2026-01-11 05:24:43.31	259.76	19.45	-35.2	-36.4	18.0	0.00e+00	0	56	0	2464153600	40	4272
2026-01-11 05:24:44.33	259.58	19.35	-35.3	-36.5	17.9	0.00e+00	0	57	0	2471493632	40	4336
2026-01-11 05:24:45.34	259.40	19.26	-35.5	-36.7	17.7	0.00e+00	0	57	0	2478833664	40	4407
2026-01-11 05:24:46.35	259.23	19.17	-35.5	-36.7	17.7	0.00e+00	0	56	0	2486173696	40	4415
2026-01-11 05:24:47.36	259.05	19.08	-35.6	-36.8	17.6	0.00e+00	0	56	0	2493513728	40	4470
2026-01-11 05:24:48.37	258.88	18.99	-35.7	-36.9	17.5	0.00e+00	0	56	0	2500853760	40	4521
2026-01-11 05:24:49.38	258.71	18.90	-35.8	-37.1	17.3	0.00e+00	0	56	0	2508193792	41	4341
2026-01-11 05:24:50.39	258.54	18.81	-35.8	-37.1	17.3	0.00e+00	0	56	0	2515533824	41	4372
2026-01-11 05:24:51.40	258.37	18.72	-35.8	-37.0	17.3	0.00e+00	0	57	0	2522873856	41	4333
2026-01-11 05:24:52.41	258.20	18.63	-35.7	-36.9	17.4	0.00e+00	0	57	0	2530213888	41	4274
2026-01-11 05:24:53.42	258.04	18.53	-35.7	-37.0	17.4	0.00e+00	0	56	0	2537553920	41	4304
2026-01-11 05:24:54.43	257.87	18.44	-35.8	-37.1	17.3	0.00e+00	0	57	0	2543845376	41	4346
2026-01-11 05:24:55.44	257.70	18.35	-35.8	-37.1	17.3	0.00e+00	0	57	0	2551185408	41	4362
2026-01-11 05:24:56.45	257.54	18.26	-35.9	-37.2	17.2	0.00e+00	0	57	0	2559574016	41	4410
2026-01-11 05:24:57.46	257.38	18.17	-35.9	-37.2	17.2	0.00e+00	0	56	0	2565865472	41	4409
2026-01-11 05:24:58.47	257.21	18.08	-35.8	-37.1	17.2	0.00e+00	0	56	0	2573205504	41	4377
2026-01-11 05:24:59.48	257.05	17.99	-35.8	-37.1	17.2	0.00e+00	0	56	0	2580545536	41	4379
2026-01-11 05:25:00.49	256.89	17.90	-35.8	-37.1	17.2	0.00e+00	0	57	0	2587885568	41	4377
2026-01-11 05:25:01.50	256.73	17.81	-35.8	-37.1	17.2	0.00e+00	0	56	0	2595225600	41	4369
2026-01-11 05:25:02.51	256.57	17.72	-35.8	-37.1	17.3	0.00e+00	0	56	0	2602565632	41	4354
2026-01-11 05:25:03.52	256.42	17.63	-35.7	-37.0	17.3	0.00e+00	0	56	0	2609905664	41	4315
2026-01-11 05:25:04.53	256.26	17.54	-35.7	-37.0	17.4	0.00e+00	0	57	0	2617245696	41	4323
2026-01-11 05:25:05.55	256.10	17.45	-35.7	-36.9	17.4	0.00e+00	0	56	0	2624585728	41	4288
2026-01-11 05:25:06.56	255.95	17.36	-35.7	-37.0	17.3	0.00e+00	0	57	0	2631925760	41	4305
2026-01-11 05:25:07.57	255.79	17.27	-35.7	-36.9	17.4	0.00e+00	0	56	0	2639265792	41	4277
2026-01-11 05:25:08.58	255.64	17.18	-35.7	-37.0	17.4	0.00e+00	0	56	0	2646605824	41	4300
2026-01-11 05:25:09.59	255.49	17.09	-35.8	-37.1	17.2	0.00e+00	0	57	0	2653945856	41	4365
2026-01-11 05:25:10.60	255.34	17.00	-35.9	-37.1	17.1	0.00e+00	0	57	0	2661285888	41	4386
2026-01-11 05:25:11.61	255.19	16.92	-36.0	-37.3	17.1	0.00e+00	0	57	0	2668625920	41	4445
2026-01-11 05:25:12.62	255.04	16.83	-36.0	-37.3	17.0	0.00e+00	0	57	0	2675965952	41	4491
2026-01-11 05:25:13.63	254.89	16.74	-36.1	-37.4	16.9	0.00e+00	0	57	0	2683305984	41	4528
2026-01-11 05:25:14.64	254.74	16.65	-36.2	-37.5	16.8	0.00e+00	0	56	0	2690646016	41	4559
2026-01-11 05:25:15.65	254.60	16.56	-36.2	-37.6	16.8	0.00e+00	0	57	0	2697986048	42	4341
2026-01-11 05:25:16.66	254.45	16.47	-36.1	-37.5	16.9	0.00e+00	0	57	0	2705326080	42	4293
2026-01-11 05:25:17.67	254.31	16.39	-36.2	-37.5	16.8	0.00e+00	0	56	0	2712666112	42	4314
2026-01-11 05:25:18.68	254.16	16.30	-36.1	-37.4	16.9	0.00e+00	0	57	0	2718957568	42	4275
2026-01-11 05:25:19.69	254.02	16.21	-36.1	-37.4	17.0	0.00e+00	0	57	0	2726297600	42	4244
2026-01-11 05:25:20.70	253.88	16.12	-36.2	-37.5	16.8	0.00e+00	0	57	0	2734686208	42	4312
2026-01-11 05:25:21.71	253.74	16.03	-36.2	-37.5	16.8	0.00e+00	0	56	0	2740977664	42	4319
2026-01-11 05:25:22.72	253.60	15.95	-36.2	-37.6	16.7	0.00e+00	0	56	0	2748317696	42	4345
2026-01-11 05:25:23.73	253.46	15.86	-36.2	-37.6	16.7	0.00e+00	0	56	0	2755657728	42	4352
2026-01-11 05:25:24.74	253.32	15.77	-36.4	-37.7	16.6	0.00e+00	0	57	0	2762997760	42	4441
2026-01-11 05:25:25.76	253.18	15.68	-36.5	-37.8	16.5	0.00e+00	0	57	0	2770337792	42	4490
2026-01-11 05:25:26.77	253.04	15.60	-36.5	-37.9	16.4	0.00e+00	0	57	0	2777677824	42	4503
2026-01-11 05:25:27.77	252.90	15.51	-36.5	-37.9	16.4	0.00e+00	0	57	0	2785017856	42	4516
2026-01-11 05:25:28.78	252.77	15.42	-36.5	-37.9	16.4	0.00e+00	0	56	0	2792357888	42	4511
2026-01-11 05:25:29.80	252.63	15.34	-36.5	-37.9	16.4	0.00e+00	0	57	0	2799697920	42	4536
2026-01-11 05:25:30.81	252.50	15.25	-36.7	-38.1	16.2	0.00e+00	0	57	0	2807037952	42	4616
2026-01-11 05:25:31.81	252.37	15.17	-36.6	-38.0	16.3	0.00e+00	0	57	0	2814377984	42	4549
2026-01-11 05:25:32.82	252.23	15.08	-36.6	-38.0	16.3	0.00e+00	0	57	0	2821718016	42	4561
2026-01-11 05:25:33.83	252.10	14.99	-36.4	-37.8	16.5	0.00e+00	0	56	0	2829058048	42	4475
2026-01-11 05:25:34.84	251.97	14.91	-36.4	-37.7	16.5	0.00e+00	0	57	0	2836398080	42	4431
2026-01-11 05:25:35.85	251.84	14.82	-36.4	-37.8	16.5	0.00e+00	0	57	0	2843738112	42	4465
2026-01-11 05:25:36.86	251.71	14.74	-36.5	-37.9	16.4	0.00e+00	0	57	0	2851078144	42	4515
2026-01-11 05:25:37.87	251.58	14.65	-36.6	-38.0	16.2	0.00e+00	0	57	0	2858418176	42	4578
2026-01-11 05:25:38.88	251.46	14.57	-36.7	-38.2	16.1	0.00e+00	0	57	0	2864709632	42	4652
2026-01-11 05:25:39.89	251.33	14.48	-36.8	-38.2	16.0	0.00e+00	0	57	0	2872049664	43	4424
2026-01-11 05:25:40.89	251.20	14.40	-36.7	-38.2	16.0	0.00e+00	0	57	0	2879389696	43	4409
2026-01-11 05:25:41.90	251.08	14.31	-36.8	-38.2	16.0	0.00e+00	0	57	0	2886729728	43	4414
2026-01-11 05:25:42.92	250.95	14.23	-36.8	-38.2	16.0	0.00e+00	0	57	0	2894069760	43	4441
2026-01-11 05:25:43.93	250.83	14.14	-36.8	-38.3	16.0	0.00e+00	0	57	0	2901409792	43	4445
2026-01-11 05:25:44.93	250.70	14.06	-36.8	-38.3	15.9	0.00e+00	0	57	0	2908749824	43	4470
2026-01-11 05:25:45.94	250.58	13.98	-36.9	-38.3	15.9	0.00e+00	0	56	0	2916089856	43	4488
2026-01-11 05:25:46.95	250.46	13.89	-36.9	-38.3	15.9	0.00e+00	0	57	0	2923429888	43	4487
2026-01-11 05:25:47.96	250.34	13.81	-36.8	-38.3	15.9	0.00e+00	0	56	0	2930769920	43	4466
2026-01-11 05:25:48.97	250.22	13.72	-36.8	-38.3	15.9	0.00e+00	0	57	0	2938109952	43	4471
2026-01-11 05:25:49.98	250.10	13.64	-36.9	-38.3	15.9	0.00e+00	0	56	0	2945449984	43	4482
2026-01-11 05:25:50.99	249.98	13.56	-36.9	-38.4	15.8	0.00e+00	0	57	0	2952790016	43	4495
2026-01-11 05:25:52.00	249.86	13.47	-36.9	-38.4	15.8	0.00e+00	0	57	0	2960130048	43	4510
2026-01-11 05:25:53.01	249.74	13.39	-36.8	-38.3	15.9	0.00e+00	0	57	0	2967470080	43	4463
2026-01-11 05:25:54.02	249.62	13.31	-36.8	-38.3	15.9	0.00e+00	0	57	0	2974810112	43	4463
2026-01-11 05:25:55.03	249.51	13.23	-36.8	-38.3	15.9	0.00e+00	0	57	0	2982150144	43	4447
2026-01-11 05:25:56.04	249.39	13.14	-36.8	-38.3	15.9	0.00e+00	0	57	0	2989490176	43	4449
2026-01-11 05:25:57.05	249.27	13.06	-36.8	-38.3	15.9	0.00e+00	0	56	0	2995781632	43	4473
2026-01-11 05:25:58.05	249.16	12.98	-36.7	-38.2	16.0	0.00e+00	0	57	0	3004170240	43	4393
2026-01-11 05:25:59.06	249.05	12.90	-36.7	-38.1	16.0	0.00e+00	0	56	0	3011510272	43	4388
2026-01-11 05:26:00.08	248.93	12.82	-36.8	-38.2	16.0	0.00e+00	0	57	0	3017801728	43	4416
2026-01-11 05:26:01.09	248.82	12.73	-36.8	-38.2	15.9	0.00e+00	0	56	0	3025141760	43	4426
2026-01-11 05:26:02.10	248.71	12.65	-36.8	-38.3	15.8	0.00e+00	0	57	0	3032481792	43	4471
2026-01-11 05:26:03.10	248.60	12.57	-36.9	-38.3	15.8	0.00e+00	0	57	0	3039821824	43	4491
2026-01-11 05:26:04.11	248.49	12.49	-36.8	-38.3	15.9	0.00e+00	0	57	0	3047161856	43	4457
2026-01-11 05:26:05.13	248.37	12.41	-36.9	-38.4	15.8	0.00e+00	0	56	0	3054501888	43	4507
2026-01-11 05:26:06.13	248.27	12.33	-37.0	-38.4	15.7	0.00e+00	0	57	0	3061841920	43	4542
2026-01-11 05:26:07.15	248.16	12.25	-37.0	-38.4	15.7	0.00e+00	0	57	0	3069181952	43	4542
2026-01-11 05:26:08.16	248.05	12.17	-36.9	-38.4	15.7	0.00e+00	0	57	0	3076521984	43	4522
2026-01-11 05:26:09.17	247.94	12.09	-37.0	-38.5	15.7	0.00e+00	0	57	0	3083862016	43	4560
2026-01-11 05:26:10.18	247.83	12.01	-37.0	-38.5	15.6	0.00e+00	0	57	0	3091202048	43	4598
2026-01-11 05:26:11.19	247.73	11.93	-37.1	-38.7	15.4	0.00e+00	0	57	0	3098542080	43	4669
2026-01-11 05:26:12.20	247.62	11.85	-37.1	-38.6	15.5	0.00e+00	0	57	0	3105882112	43	4615
2026-01-11 05:26:13.20	247.51	11.77	-36.9	-38.4	15.7	0.00e+00	0	57	0	3113222144	43	4512
2026-01-11 05:26:14.21	247.41	11.69	-36.9	-38.4	15.7	0.00e+00	0	57	0	3120562176	43	4513
2026-01-11 05:26:15.22	247.31	11.61	-36.9	-38.4	15.7	0.00e+00	0	57	0	3127902208	43	4544
2026-01-11 05:26:16.23	247.20	11.53	-37.0	-38.5	15.6	0.00e+00	0	57	0	3135242240	43	4565
2026-01-11 05:26:17.24	247.10	11.45	-37.1	-38.6	15.5	0.00e+00	0	57	0	3141533696	43	4611
2026-01-11 05:26:18.25	247.00	11.37	-37.2	-38.7	15.4	0.00e+00	0	57	0	3149922304	43	4683
2026-01-11 05:26:19.26	246.89	11.29	-37.5	-39.0	15.2	0.00e+00	0	57	0	3157262336	44	4593
2026-01-11 05:26:20.27	246.79	11.21	-37.6	-39.2	15.1	0.00e+00	0	57	0	3163553792	44	4667
2026-01-11 05:26:21.28	246.69	11.14	-37.7	-39.3	14.9	0.00e+00	0	57	0	3170893824	44	4723
2026-01-11 05:26:22.29	246.59	11.06	-37.7	-39.4	14.9	0.00e+00	0	57	0	3178233856	45	4500
2026-01-11 05:26:23.30	246.49	10.98	-37.8	-39.5	14.7	2.20e-06	0	57	0	3185573888	45	4574
2026-01-11 05:26:24.31	246.39	10.90	-37.9	-39.6	14.6	0.00e+00	0	57	0	3192913920	45	4607
2026-01-11 05:26:25.31	246.29	10.83	-37.9	-39.6	14.6	0.00e+00	0	56	0	3200253952	45	4636
2026-01-11 05:26:26.33	246.19	10.75	-37.9	-39.6	14.6	0.00e+00	0	57	0	3207593984	45	4644
2026-01-11 05:26:27.33	246.10	10.67	-38.0	-39.7	14.5	0.00e+00	0	57	0	3214934016	45	4690
2026-01-11 05:26:28.34	246.00	10.59	-38.1	-39.8	14.4	1.10e-06	0	57	0	3222274048	45	4752
2026-01-11 05:26:29.35	245.90	10.52	-38.0	-39.7	14.5	3.40e-06	0	57	0	3229614080	45	4695
2026-01-11 05:26:30.36	245.81	10.44	-37.9	-39.6	14.5	0.00e+00	0	57	0	3236954112	45	4648
2026-01-11 05:26:31.37	245.71	10.36	-38.0	-39.7	14.5	1.10e-06	0	57	0	3244294144	45	4666
2026-01-11 05:26:32.39	245.62	10.29	-37.9	-39.6	14.6	0.00e+00	0	57	0	3251634176	45	4638
2026-01-11 05:26:33.40	245.52	10.21	-37.9	-39.7	14.5	0.00e+00	0	57	0	3258974208	45	4656
2026-01-11 05:26:34.41	245.43	10.13	-37.8	-39.5	14.7	0.00e+00	0	56	0	3266314240	45	4575
2026-01-11 05:26:35.42	245.33	10.06	-37.9	-39.5	14.6	0.00e+00	0	56	0	3273654272	45	4590
2026-01-11 05:26:36.43	245.24	9.98	-37.7	-39.4	14.8	1.10e-06	0	57	0	3280994304	45	4498
2026-01-11 05:26:37.44	245.15	9.90	-37.7	-39.3	14.8	0.00e+00	0	57	0	3288334336	45	4488
2026-01-11 05:26:38.45	245.06	9.83	-37.8	-39.4	14.7	0.00e+00	0	57	0	3295674368	45	4524
2026-01-11 05:26:39.46	244.96	9.75	-37.7	-39.4	14.8	0.00e+00	0	57	0	3303014400	45	4510
2026-01-11 05:26:40.47	244.87	9.68	-37.8	-39.5	14.7	0.00e+00	0	57	0	3310354432	45	4553
2026-01-11 05:26:41.48	244.78	9.60	-37.8	-39.5	14.7	0.00e+00	0	57	0	3316645888	45	4559
2026-01-11 05:26:42.49	244.69	9.53	-37.8	-39.5	14.6	1.10e-06	0	57	0	3323985920	45	4573
2026-01-11 05:26:43.50	244.60	9.45	-37.9	-39.6	14.5	1.10e-06	0	57	0	3332374528	45	4635
2026-01-11 05:26:44.51	244.51	9.38	-38.0	-39.7	14.4	1.10e-06	0	57	0	3338665984	45	4677
2026-01-11 05:26:45.52	244.42	9.30	-38.0	-39.8	14.3	3.40e-06	0	56	0	3346006016	45	4718
2026-01-11 05:26:46.53	244.34	9.23	-38.0	-39.7	14.4	2.20e-06	0	57	0	3353346048	45	4680
2026-01-11 05:26:47.54	244.25	9.16	-38.0	-39.8	14.3	2.20e-06	0	57	0	3360686080	45	4707
2026-01-11 05:26:48.55	244.16	9.08	-38.0	-39.8	14.3	0.00e+00	0	57	0	3368026112	45	4723
2026-01-11 05:26:49.56	244.07	9.01	-38.1	-39.9	14.2	0.00e+00	0	57	0	3375366144	45	4767
2026-01-11 05:26:50.57	243.99	8.93	-38.2	-39.9	14.1	1.10e-06	0	57	0	3382706176	46	4543
2026-01-11 05:26:51.58	243.90	8.86	-38.2	-39.9	14.2	2.20e-06	0	57	0	3390046208	46	4544
2026-01-11 05:26:52.59	243.81	8.79	-38.2	-40.0	14.1	0.00e+00	0	57	0	3397386240	46	4551
2026-01-11 05:26:53.60	243.73	8.71	-38.3	-40.1	14.0	1.10e-06	0	57	0	3404726272	46	4624
2026-01-11 05:26:54.61	243.64	8.64	-38.2	-40.0	14.0	1.10e-06	0	57	0	3412066304	46	4568
2026-01-11 05:26:55.62	243.56	8.57	-38.3	-40.1	14.0	4.50e-06	0	57	0	3419406336	46	4632
2026-01-11 05:26:56.63	243.48	8.50	-38.3	-40.1	14.0	2.20e-06	0	57	0	3426746368	46	4635
2026-01-11 05:26:57.64	243.39	8.42	-38.2	-40.0	14.1	2.20e-06	0	57	0	3434086400	46	4556
2026-01-11 05:26:58.65	243.31	8.35	-38.1	-39.9	14.1	2.20e-06	0	57	0	3441426432	46	4517
2026-01-11 05:26:59.66	243.23	8.28	-38.2	-40.0	14.0	8.00e-06	0	57	0	3448766464	46	4597
2026-01-11 05:27:00.67	243.15	8.21	-38.1	-39.9	14.2	0.00e+00	0	57	0	3456106496	46	4502
2026-01-11 05:27:01.68	243.06	8.13	-38.2	-39.9	14.1	2.20e-06	0	57	0	3462397952	46	4544
2026-01-11 05:27:02.69	242.98	8.06	-38.2	-40.0	14.0	2.20e-06	0	57	0	3469737984	46	4571
