passes_logs/2026/01/11/R2.0S_Moscow/R2.0S_Moscow__20260111_113950_FENGYUN_3D_rec.log

#Pass ID: 20260111_113950_FENGYUN 3D
#Satellite: FENGYUN 3D
#Configuration: FENGYUN 3D
#almurnet v.1.7.20251203
#Start time: 2026-01-11 11:39:50

#Version: 2.2.20231116
#Station: R2.0S_Moscow
#Location: 37.707566 lon 55.798166 lat
#TLE: 1 43010U 17072A   26009.92921666 -.00000228  00000+0 -86059-4 0  9998
#TLE: 2 43010  98.9936 341.6668 0002176 116.7510 243.3888 14.19693142422537

#Time	Az	El	Level	Level2	SNR	BER	BlckErr	Temp	State	Recorded	gain1	gain2
2026-01-11 11:39:50.32	151.91	1.98	-43.9	-55.3	3.8	8.47e-01	0	47	0	0	59	13373
2026-01-11 11:39:51.32	151.90	2.04	-43.9	-55.3	3.8	8.46e-01	0	47	104	0	59	13388
2026-01-11 11:39:52.33	151.89	2.11	-43.9	-55.3	3.8	8.45e-01	0	47	104	0	59	13388
2026-01-11 11:39:53.34	151.88	2.17	-43.9	-55.3	3.8	8.47e-01	0	47	104	0	59	13371
2026-01-11 11:39:54.35	151.86	2.24	-43.9	-55.3	3.8	8.46e-01	0	48	104	0	59	13387
2026-01-11 11:39:55.36	151.85	2.30	-43.9	-55.3	3.8	8.46e-01	0	48	104	0	59	13365
2026-01-11 11:39:56.38	151.84	2.37	-43.9	-55.3	3.8	8.46e-01	0	48	104	0	59	13374
2026-01-11 11:39:57.39	151.83	2.43	-43.9	-55.3	3.8	8.46e-01	0	48	104	0	59	13345
2026-01-11 11:39:58.40	151.82	2.50	-43.9	-55.3	3.8	8.46e-01	0	48	104	0	59	13400
2026-01-11 11:39:59.41	151.81	2.57	-43.9	-55.3	3.8	8.46e-01	0	48	104	0	59	13399
2026-01-11 11:40:00.42	151.80	2.63	-43.9	-55.3	3.8	8.47e-01	0	48	104	0	59	13384
2026-01-11 11:40:01.43	151.79	2.70	-43.9	-55.3	3.8	8.45e-01	0	48	104	0	59	13357
2026-01-11 11:40:02.44	151.78	2.76	-43.9	-55.3	3.8	8.46e-01	0	48	104	0	59	13354
2026-01-11 11:40:03.45	151.77	2.83	-43.9	-55.3	3.8	8.46e-01	0	48	104	0	59	13345
2026-01-11 11:40:04.46	151.76	2.90	-43.9	-55.3	3.8	8.46e-01	0	48	104	0	59	13344
2026-01-11 11:40:05.47	151.75	2.97	-43.9	-55.3	3.8	8.46e-01	0	48	104	0	59	13366
2026-01-11 11:40:06.49	151.73	3.03	-43.9	-55.3	3.8	8.46e-01	0	48	104	0	59	13339
2026-01-11 11:40:07.50	151.72	3.10	-43.9	-55.3	3.8	8.45e-01	0	49	104	0	59	13357
2026-01-11 11:40:08.51	151.71	3.17	-43.9	-55.3	3.8	8.46e-01	0	48	104	0	59	13354
2026-01-11 11:40:09.52	151.70	3.24	-43.9	-55.3	3.8	8.46e-01	0	49	104	0	59	13314
2026-01-11 11:40:10.53	151.69	3.30	-43.9	-55.3	3.8	8.46e-01	0	49	104	0	59	13319
2026-01-11 11:40:11.54	151.68	3.37	-43.9	-55.3	3.8	8.46e-01	0	49	104	0	59	13336
2026-01-11 11:40:12.55	151.67	3.44	-43.9	-55.3	3.8	8.46e-01	0	49	104	0	59	13343
2026-01-11 11:40:13.56	151.65	3.51	-43.9	-55.3	3.8	8.46e-01	0	49	104	0	59	13394
2026-01-11 11:40:14.57	151.64	3.58	-43.9	-55.3	3.8	8.45e-01	0	49	104	0	59	13317
2026-01-11 11:40:15.59	151.63	3.65	-43.9	-55.3	3.8	8.45e-01	0	49	104	0	59	13293
2026-01-11 11:40:16.60	151.62	3.71	-43.9	-55.3	3.8	8.47e-01	0	49	104	0	59	13299
2026-01-11 11:40:17.61	151.61	3.78	-43.9	-55.3	3.8	8.47e-01	0	49	104	0	59	13352
2026-01-11 11:40:18.62	151.59	3.85	-43.9	-55.3	3.8	8.46e-01	0	49	104	0	59	13346
2026-01-11 11:40:19.63	151.58	3.92	-43.9	-55.3	3.8	8.46e-01	0	49	104	0	59	13337
2026-01-11 11:40:20.64	151.57	3.99	-43.9	-55.3	3.8	8.46e-01	0	49	104	0	59	13354
2026-01-11 11:40:21.65	151.56	4.06	-43.9	-55.3	3.8	8.46e-01	0	49	104	0	59	13328
2026-01-11 11:40:22.66	151.55	4.13	-43.9	-55.3	3.8	8.47e-01	0	50	104	0	59	13353
2026-01-11 11:40:23.67	151.53	4.20	-43.9	-55.3	3.8	8.47e-01	0	49	104	0	59	13344
2026-01-11 11:40:24.69	151.52	4.27	-43.9	-55.3	3.8	8.46e-01	0	50	104	0	59	13286
2026-01-11 11:40:25.70	151.51	4.34	-43.9	-55.3	3.8	8.47e-01	0	50	104	0	59	13337
2026-01-11 11:40:26.71	151.50	4.41	-43.9	-55.3	3.8	8.47e-01	0	49	104	0	59	13343
2026-01-11 11:40:27.72	151.48	4.48	-43.9	-55.3	3.8	8.45e-01	0	50	104	0	59	13346
2026-01-11 11:40:28.73	151.47	4.55	-43.9	-55.3	3.8	8.46e-01	0	50	104	0	59	13387
2026-01-11 11:40:29.74	151.46	4.63	-43.9	-55.3	3.8	8.46e-01	0	50	104	0	59	13377
2026-01-11 11:40:30.75	151.45	4.70	-43.9	-55.3	3.8	8.47e-01	0	50	104	0	59	13330
2026-01-11 11:40:31.76	151.43	4.77	-43.9	-55.3	3.8	8.45e-01	0	50	104	0	59	13289
2026-01-11 11:40:32.77	151.42	4.84	-43.8	-55.3	3.8	8.45e-01	0	50	104	0	59	13289
2026-01-11 11:40:33.78	151.41	4.91	-43.9	-55.3	3.8	8.46e-01	0	50	104	0	59	13266
2026-01-11 11:40:34.79	151.39	4.98	-43.9	-55.3	3.8	8.46e-01	0	50	104	0	59	13300
2026-01-11 11:40:35.80	151.38	5.06	-43.9	-55.3	3.8	8.47e-01	0	50	104	0	59	13295
2026-01-11 11:40:36.81	151.37	5.13	-43.9	-55.3	3.8	8.47e-01	0	50	104	0	59	13273
2026-01-11 11:40:37.82	151.35	5.20	-43.9	-55.2	3.8	8.46e-01	0	50	104	0	59	13256
2026-01-11 11:40:38.84	151.34	5.28	-43.9	-55.2	3.8	8.46e-01	0	50	104	0	59	13256
2026-01-11 11:40:39.85	151.33	5.35	-43.9	-55.2	3.8	8.46e-01	0	51	104	0	59	13188
2026-01-11 11:40:40.86	151.31	5.42	-43.8	-55.1	3.8	8.46e-01	0	51	104	0	59	13012
2026-01-11 11:40:41.87	151.30	5.50	-43.8	-55.0	3.8	8.47e-01	0	50	104	0	59	12854
2026-01-11 11:40:42.88	151.29	5.57	-43.8	-54.7	3.8	8.47e-01	0	50	104	0	59	12492
2026-01-11 11:40:43.89	151.27	5.64	-43.8	-54.5	3.8	8.46e-01	0	51	104	0	59	12175
2026-01-11 11:40:44.90	151.26	5.72	-43.8	-54.3	3.8	8.46e-01	0	51	104	0	59	11849
2026-01-11 11:40:45.91	151.24	5.79	-43.7	-54.1	3.8	8.45e-01	0	51	104	0	59	11561
2026-01-11 11:40:46.92	151.23	5.87	-43.7	-54.0	3.8	8.47e-01	0	51	104	0	59	11482
2026-01-11 11:40:47.93	151.22	5.94	-43.7	-54.0	3.8	8.46e-01	0	51	104	0	59	11530
2026-01-11 11:40:48.94	151.20	6.02	-43.7	-54.1	3.8	8.45e-01	0	51	104	0	59	11640
2026-01-11 11:40:49.96	151.19	6.09	-43.7	-54.0	3.8	8.45e-01	0	51	104	0	59	11517
2026-01-11 11:40:50.97	151.17	6.17	-43.7	-53.8	3.8	8.46e-01	0	51	104	0	59	11169
2026-01-11 11:40:51.98	151.16	6.24	-43.6	-53.5	3.8	8.45e-01	0	51	104	0	59	10817
2026-01-11 11:40:52.99	151.14	6.32	-43.6	-53.6	3.8	8.45e-01	0	51	104	0	59	10937
2026-01-11 11:40:54.00	151.13	6.40	-43.7	-54.0	3.8	8.46e-01	0	51	104	0	59	11547
2026-01-11 11:40:55.01	151.11	6.47	-43.7	-54.1	3.8	8.46e-01	0	51	104	0	59	11586
2026-01-11 11:40:56.02	151.10	6.55	-43.7	-54.1	3.8	8.45e-01	0	51	104	0	59	11594
2026-01-11 11:40:57.03	151.08	6.62	-43.8	-54.6	3.8	8.46e-01	0	51	104	0	59	12267
2026-01-11 11:40:58.04	151.07	6.70	-43.8	-54.9	3.8	8.45e-01	0	51	104	0	59	12785
2026-01-11 11:40:59.05	151.05	6.78	-43.9	-55.2	3.8	8.48e-01	0	51	104	0	59	13131
2026-01-11 11:41:00.07	151.04	6.86	-43.9	-55.2	3.8	8.46e-01	0	51	104	0	59	13250
2026-01-11 11:41:01.08	151.02	6.93	-43.8	-55.1	3.8	8.47e-01	0	51	104	0	59	13024
2026-01-11 11:41:02.09	151.01	7.01	-43.7	-54.1	3.8	8.45e-01	0	52	104	0	59	11669
2026-01-11 11:41:03.10	150.99	7.09	-43.5	-52.8	3.8	8.45e-01	0	52	104	0	59	10002
2026-01-11 11:41:04.11	150.98	7.17	-43.3	-51.2	4.3	8.32e-01	0	52	0	0	58	8805
2026-01-11 11:41:05.12	150.96	7.25	-42.9	-49.6	5.0	7.96e-01	0	52	0	0	57	7791
2026-01-11 11:41:06.13	150.94	7.33	-42.5	-48.0	6.1	3.71e-01	0	52	0	3145728	57	6471
2026-01-11 11:41:07.14	150.93	7.41	-42.1	-46.9	7.1	2.22e-01	0	52	0	8388608	56	6057
2026-01-11 11:41:08.15	150.91	7.49	-41.4	-45.5	8.3	9.54e-02	0	52	0	13631488	54	5761
2026-01-11 11:41:09.16	150.90	7.56	-40.8	-44.4	9.4	2.69e-02	0	52	0	19922944	53	5358
2026-01-11 11:41:10.18	150.88	7.65	-40.3	-43.6	10.3	9.82e-03	0	52	0	25165824	52	5161
2026-01-11 11:41:11.18	150.86	7.72	-39.8	-42.6	11.4	2.18e-03	0	52	0	31457280	51	4895
2026-01-11 11:41:12.20	150.85	7.81	-39.4	-42.1	11.9	9.31e-04	0	52	0	36700160	50	4894
2026-01-11 11:41:13.21	150.83	7.89	-39.0	-41.5	12.5	1.86e-04	0	52	0	41943040	50	4589
2026-01-11 11:41:14.22	150.81	7.97	-38.7	-41.1	13.0	8.46e-05	0	52	0	48234496	49	4600
2026-01-11 11:41:15.23	150.80	8.05	-38.5	-40.8	13.2	3.31e-05	0	52	0	53477376	49	4489
2026-01-11 11:41:16.24	150.78	8.13	-40.1	-43.0	11.1	3.13e-03	0	52	0	59768832	51	5126
2026-01-11 11:41:17.25	150.76	8.21	-41.5	-45.8	7.9	4.25e-01	0	52	0	65011712	55	5595
2026-01-11 11:41:18.26	150.75	8.29	-38.7	-41.1	12.9	4.46e-05	0	52	0	70254592	47	5184
2026-01-11 11:41:19.27	150.73	8.38	-41.4	-45.4	8.5	4.01e-01	0	52	0	75497472	54	5660
2026-01-11 11:41:20.28	150.71	8.46	-40.9	-44.9	8.5	7.67e-02	0	52	0	81788928	53	5713
2026-01-11 11:41:21.29	150.69	8.54	-38.1	-40.2	13.8	1.48e-05	0	52	0	87031808	48	4422
2026-01-11 11:41:22.30	150.68	8.62	-37.9	-40.0	13.9	6.80e-06	0	52	0	93323264	47	4593
2026-01-11 11:41:23.31	150.66	8.71	-37.9	-40.0	14.0	6.80e-06	0	52	0	98566144	47	4550
2026-01-11 11:41:24.32	150.64	8.79	-37.8	-39.8	14.2	1.10e-06	0	52	0	103809024	47	4480
2026-01-11 11:41:25.33	150.62	8.87	-37.8	-39.8	14.2	5.70e-06	0	52	0	110100480	47	4467
2026-01-11 11:41:26.34	150.61	8.96	-37.6	-39.6	14.4	1.10e-06	0	53	0	115343360	47	4356
2026-01-11 11:41:27.35	150.59	9.04	-37.6	-39.6	14.4	0.00e+00	0	53	0	121634816	47	4355
2026-01-11 11:41:28.35	150.57	9.13	-37.6	-39.6	14.5	0.00e+00	0	53	0	126877696	47	4348
2026-01-11 11:41:29.37	150.55	9.21	-37.5	-39.5	14.5	1.10e-06	0	53	0	133169152	47	4333
2026-01-11 11:41:30.37	150.53	9.30	-37.4	-39.4	14.7	1.10e-06	0	53	0	138412032	46	4504
2026-01-11 11:41:31.38	150.51	9.38	-37.5	-39.4	14.7	0.00e+00	0	52	0	144703488	46	4535
2026-01-11 11:41:32.39	150.49	9.47	-37.4	-39.4	14.7	1.10e-06	0	52	0	149946368	46	4502
2026-01-11 11:41:33.40	150.48	9.55	-37.4	-39.3	14.8	0.00e+00	0	53	0	155189248	46	4477
2026-01-11 11:41:34.41	150.46	9.64	-37.4	-39.3	14.8	0.00e+00	0	53	0	161480704	46	4451
2026-01-11 11:41:35.42	150.44	9.73	-37.3	-39.2	14.9	0.00e+00	0	53	0	166723584	46	4422
2026-01-11 11:41:36.43	150.42	9.81	-37.3	-39.2	15.0	0.00e+00	0	53	0	173015040	46	4403
2026-01-11 11:41:37.44	150.40	9.90	-37.3	-39.2	15.0	0.00e+00	0	53	0	178257920	46	4393
2026-01-11 11:41:38.45	150.38	9.99	-37.2	-39.1	15.1	0.00e+00	0	53	0	183500800	46	4354
2026-01-11 11:41:39.46	150.36	10.08	-37.2	-39.1	15.1	0.00e+00	0	53	0	189792256	46	4347
2026-01-11 11:41:40.47	150.34	10.16	-37.2	-39.0	15.2	0.00e+00	0	53	0	195035136	46	4319
2026-01-11 11:41:41.48	150.32	10.25	-37.1	-38.9	15.3	0.00e+00	0	53	0	201326592	46	4269
2026-01-11 11:41:42.49	150.30	10.34	-37.2	-39.0	15.2	0.00e+00	0	53	0	206569472	46	4312
2026-01-11 11:41:43.50	150.28	10.43	-37.1	-38.9	15.3	0.00e+00	0	53	0	211812352	46	4265
2026-01-11 11:41:44.50	150.26	10.52	-37.1	-38.9	15.4	0.00e+00	0	53	0	218103808	46	4261
2026-01-11 11:41:45.51	150.24	10.61	-37.0	-38.8	15.5	0.00e+00	0	53	0	223346688	46	4216
2026-01-11 11:41:46.52	150.22	10.70	-37.0	-38.8	15.5	0.00e+00	0	53	0	229638144	45	4454
2026-01-11 11:41:47.53	150.20	10.79	-37.0	-38.7	15.5	0.00e+00	0	53	0	234881024	45	4439
2026-01-11 11:41:48.54	150.18	10.88	-36.9	-38.7	15.6	0.00e+00	0	53	0	241172480	45	4418
2026-01-11 11:41:49.55	150.16	10.97	-37.0	-38.7	15.6	0.00e+00	0	53	0	246415360	45	4430
2026-01-11 11:41:50.56	150.13	11.06	-36.9	-38.7	15.7	0.00e+00	0	53	0	251658240	45	4399
2026-01-11 11:41:51.57	150.11	11.16	-37.0	-38.7	15.6	0.00e+00	0	53	0	257949696	45	4432
2026-01-11 11:41:52.58	150.09	11.25	-36.8	-38.5	15.8	0.00e+00	0	53	0	263192576	45	4332
2026-01-11 11:41:53.59	150.07	11.34	-36.8	-38.5	15.8	0.00e+00	0	53	0	269484032	45	4327
2026-01-11 11:41:54.60	150.05	11.43	-36.8	-38.6	15.8	0.00e+00	0	53	0	274726912	45	4353
2026-01-11 11:41:55.61	150.03	11.53	-36.9	-38.6	15.7	0.00e+00	0	53	0	279969792	45	4384
2026-01-11 11:41:56.62	150.00	11.62	-36.8	-38.5	15.8	0.00e+00	0	53	0	286261248	45	4331
2026-01-11 11:41:57.63	149.98	11.71	-36.7	-38.4	16.0	0.00e+00	0	53	0	291504128	45	4276
2026-01-11 11:41:58.64	149.96	11.81	-36.8	-38.5	16.0	0.00e+00	0	53	0	297795584	45	4302
2026-01-11 11:41:59.65	149.94	11.90	-36.8	-38.5	15.9	0.00e+00	0	53	0	303038464	45	4302
2026-01-11 11:42:00.66	149.91	12.00	-36.8	-38.5	15.9	0.00e+00	0	53	0	308281344	45	4313
2026-01-11 11:42:01.67	149.89	12.09	-36.7	-38.4	16.0	0.00e+00	0	54	0	314572800	45	4277
2026-01-11 11:42:02.68	149.87	12.19	-36.7	-38.4	16.0	0.00e+00	0	53	0	319815680	45	4283
2026-01-11 11:42:03.69	149.84	12.28	-36.7	-38.4	16.1	0.00e+00	0	53	0	326107136	45	4265
2026-01-11 11:42:04.70	149.82	12.38	-36.7	-38.4	16.0	0.00e+00	0	53	0	331350016	45	4285
2026-01-11 11:42:05.71	149.80	12.48	-36.7	-38.4	16.0	0.00e+00	0	54	0	337641472	45	4269
2026-01-11 11:42:06.72	149.77	12.57	-36.7	-38.4	16.1	0.00e+00	0	54	0	342884352	45	4253
2026-01-11 11:42:07.73	149.75	12.67	-36.7	-38.4	16.1	0.00e+00	0	54	0	349175808	45	4243
2026-01-11 11:42:08.74	149.73	12.77	-36.7	-38.4	16.1	0.00e+00	0	54	0	354418688	45	4262
2026-01-11 11:42:09.76	149.70	12.87	-36.7	-38.4	16.0	0.00e+00	0	54	0	359661568	45	4291
2026-01-11 11:42:10.76	149.68	12.97	-36.7	-38.4	16.1	0.00e+00	0	54	0	365953024	45	4263
2026-01-11 11:42:11.77	149.65	13.07	-36.8	-38.5	16.0	0.00e+00	0	54	0	371195904	45	4311
2026-01-11 11:42:12.78	149.63	13.17	-36.6	-38.3	16.2	0.00e+00	0	54	0	377487360	45	4236
2026-01-11 11:42:13.79	149.60	13.27	-36.7	-38.4	16.1	0.00e+00	0	54	0	382730240	45	4262
2026-01-11 11:42:14.80	149.58	13.37	-36.7	-38.4	16.1	0.00e+00	0	54	0	387973120	45	4266
2026-01-11 11:42:15.81	149.55	13.47	-36.7	-38.4	16.2	0.00e+00	0	54	0	394264576	45	4245
2026-01-11 11:42:16.82	149.53	13.57	-36.7	-38.4	16.2	0.00e+00	0	54	0	399507456	45	4262
2026-01-11 11:42:17.83	149.50	13.67	-36.6	-38.3	16.3	0.00e+00	0	54	0	405798912	45	4203
2026-01-11 11:42:18.84	149.47	13.77	-36.6	-38.3	16.3	0.00e+00	0	54	0	411041792	45	4224
2026-01-11 11:42:19.85	149.45	13.87	-36.6	-38.3	16.3	0.00e+00	0	54	0	416284672	45	4215
2026-01-11 11:42:20.86	149.42	13.98	-36.6	-38.3	16.3	0.00e+00	0	54	0	422576128	45	4209
2026-01-11 11:42:21.87	149.40	14.08	-36.5	-38.2	16.4	0.00e+00	0	54	0	427819008	45	4173
2026-01-11 11:42:22.88	149.37	14.18	-36.5	-38.2	16.4	0.00e+00	0	54	0	434110464	45	4163
2026-01-11 11:42:23.89	149.34	14.29	-36.5	-38.2	16.4	0.00e+00	0	54	0	439353344	45	4154
2026-01-11 11:42:24.89	149.31	14.39	-36.5	-38.1	16.5	0.00e+00	0	54	0	445644800	45	4139
2026-01-11 11:42:25.90	149.29	14.50	-36.4	-38.1	16.5	0.00e+00	0	54	0	450887680	44	4353
2026-01-11 11:42:26.91	149.26	14.60	-36.4	-38.0	16.6	0.00e+00	0	54	0	456130560	44	4315
2026-01-11 11:42:27.92	149.23	14.71	-36.4	-38.0	16.7	0.00e+00	0	54	0	462422016	44	4307
2026-01-11 11:42:28.93	149.20	14.82	-36.3	-38.0	16.7	0.00e+00	0	54	0	467664896	44	4298
2026-01-11 11:42:29.94	149.18	14.92	-36.2	-37.8	16.8	0.00e+00	0	54	0	473956352	44	4217
2026-01-11 11:42:30.95	149.15	15.03	-36.1	-37.7	16.9	0.00e+00	0	54	0	479199232	44	4179
2026-01-11 11:42:31.96	149.12	15.14	-36.2	-37.8	16.9	0.00e+00	0	54	0	484442112	44	4197
2026-01-11 11:42:32.97	149.09	15.25	-36.1	-37.6	17.0	0.00e+00	0	54	0	490733568	44	4144
2026-01-11 11:42:33.98	149.06	15.35	-36.0	-37.5	17.1	0.00e+00	0	54	0	495976448	44	4095
2026-01-11 11:42:34.99	149.03	15.46	-35.8	-37.3	17.2	0.00e+00	0	54	0	502267904	43	4232
2026-01-11 11:42:36.00	149.00	15.57	-35.8	-37.3	17.2	0.00e+00	0	54	0	507510784	43	4231
2026-01-11 11:42:37.01	148.97	15.68	-35.8	-37.3	17.2	0.00e+00	0	54	0	512753664	43	4206
2026-01-11 11:42:38.02	148.94	15.79	-35.7	-37.2	17.3	0.00e+00	0	54	0	519045120	43	4189
2026-01-11 11:42:39.02	148.91	15.90	-35.7	-37.2	17.4	0.00e+00	0	54	0	524288000	43	4159
2026-01-11 11:42:40.03	148.88	16.02	-35.7	-37.2	17.4	0.00e+00	0	54	0	530579456	43	4155
2026-01-11 11:42:41.04	148.85	16.13	-35.6	-37.1	17.4	0.00e+00	0	54	0	535822336	43	4143
2026-01-11 11:42:42.05	148.82	16.24	-35.6	-37.1	17.4	0.00e+00	0	54	0	542113792	43	4132
2026-01-11 11:42:43.06	148.79	16.35	-35.6	-37.1	17.5	0.00e+00	0	54	0	547356672	43	4118
2026-01-11 11:42:44.07	148.75	16.47	-35.6	-37.1	17.5	0.00e+00	0	54	0	552599552	43	4119
2026-01-11 11:42:45.08	148.72	16.58	-35.6	-37.1	17.5	0.00e+00	0	55	0	558891008	43	4117
2026-01-11 11:42:46.09	148.69	16.70	-35.6	-37.1	17.4	0.00e+00	0	55	0	564133888	43	4115
2026-01-11 11:42:47.11	148.66	16.81	-35.6	-37.0	17.5	0.00e+00	0	54	0	570425344	43	4090
2026-01-11 11:42:48.12	148.62	16.93	-35.5	-37.0	17.6	0.00e+00	0	54	0	575668224	43	4078
2026-01-11 11:42:49.13	148.59	17.05	-35.5	-37.0	17.6	0.00e+00	0	55	0	581959680	43	4079
2026-01-11 11:42:50.14	148.56	17.16	-35.5	-37.0	17.6	0.00e+00	0	54	0	587202560	43	4078
2026-01-11 11:42:51.15	148.52	17.28	-35.5	-37.0	17.6	0.00e+00	0	55	0	592445440	43	4079
2026-01-11 11:42:52.16	148.49	17.40	-35.5	-37.0	17.6	0.00e+00	0	54	0	598736896	43	4053
2026-01-11 11:42:53.17	148.46	17.52	-35.5	-36.9	17.6	0.00e+00	0	55	0	603979776	42	4289
2026-01-11 11:42:54.18	148.42	17.64	-35.4	-36.8	17.7	0.00e+00	0	55	0	610271232	42	4238
2026-01-11 11:42:55.19	148.39	17.76	-35.4	-36.8	17.8	0.00e+00	0	55	0	615514112	42	4223
2026-01-11 11:42:56.20	148.35	17.88	-35.3	-36.8	17.8	0.00e+00	0	55	0	620756992	42	4195
2026-01-11 11:42:57.21	148.32	18.00	-35.3	-36.7	17.8	0.00e+00	0	55	0	627048448	42	4191
2026-01-11 11:42:58.22	148.28	18.12	-35.2	-36.7	17.9	0.00e+00	0	55	0	632291328	42	4172
2026-01-11 11:42:59.23	148.25	18.24	-35.2	-36.7	17.9	0.00e+00	0	55	0	638582784	42	4148
2026-01-11 11:43:00.24	148.21	18.36	-35.2	-36.6	18.0	0.00e+00	0	54	0	643825664	42	4135
2026-01-11 11:43:01.25	148.17	18.49	-35.1	-36.6	18.0	0.00e+00	0	55	0	650117120	42	4101
2026-01-11 11:43:02.26	148.14	18.61	-35.1	-36.5	17.9	0.00e+00	0	55	0	655360000	42	4094
2026-01-11 11:43:03.27	148.10	18.74	-35.1	-36.6	18.0	0.00e+00	0	55	0	660602880	42	4105
2026-01-11 11:43:04.28	148.06	18.86	-35.1	-36.5	18.0	0.00e+00	0	55	0	666894336	42	4094
2026-01-11 11:43:05.29	148.02	18.99	-35.1	-36.5	18.1	0.00e+00	0	55	0	672137216	42	4098
2026-01-11 11:43:06.30	147.99	19.11	-35.1	-36.5	18.1	0.00e+00	0	55	0	678428672	42	4072
2026-01-11 11:43:07.31	147.95	19.24	-35.0	-36.5	18.2	0.00e+00	0	55	0	683671552	42	4057
2026-01-11 11:43:08.32	147.91	19.37	-35.1	-36.5	18.1	0.00e+00	0	55	0	689963008	42	4063
2026-01-11 11:43:09.33	147.87	19.50	-35.0	-36.5	18.2	0.00e+00	0	55	0	695205888	42	4058
2026-01-11 11:43:10.35	147.83	19.63	-35.0	-36.4	18.2	0.00e+00	0	55	0	700448768	42	4045
2026-01-11 11:43:11.36	147.79	19.76	-35.0	-36.4	18.2	0.00e+00	0	55	0	706740224	42	4035
2026-01-11 11:43:12.36	147.75	19.88	-34.9	-36.4	18.3	0.00e+00	0	55	0	711983104	41	4244
2026-01-11 11:43:13.37	147.71	20.02	-35.0	-36.4	18.2	0.00e+00	0	55	0	717225984	41	4270
2026-01-11 11:43:14.39	147.67	20.15	-34.9	-36.4	18.3	0.00e+00	0	55	0	723517440	41	4245
2026-01-11 11:43:15.40	147.63	20.28	-35.0	-36.4	18.2	0.00e+00	0	55	0	728760320	41	4269
2026-01-11 11:43:16.41	147.58	20.41	-35.0	-36.4	18.3	0.00e+00	0	55	0	735051776	41	4258
2026-01-11 11:43:17.42	147.54	20.55	-34.9	-36.3	18.3	0.00e+00	0	55	0	740294656	41	4237
2026-01-11 11:43:18.43	147.50	20.68	-34.9	-36.3	18.3	0.00e+00	0	55	0	746586112	41	4223
2026-01-11 11:43:19.44	147.46	20.82	-34.8	-36.2	18.4	0.00e+00	0	55	0	751828992	41	4187
2026-01-11 11:43:20.45	147.41	20.95	-34.9	-36.3	18.4	0.00e+00	0	55	0	758120448	41	4196
2026-01-11 11:43:21.46	147.37	21.09	-34.8	-36.2	18.4	0.00e+00	0	55	0	763363328	41	4174
2026-01-11 11:43:22.47	147.32	21.23	-34.8	-36.2	18.5	0.00e+00	0	55	0	768606208	41	4151
2026-01-11 11:43:23.48	147.28	21.37	-34.8	-36.1	18.5	0.00e+00	0	55	0	774897664	41	4142
2026-01-11 11:43:24.49	147.23	21.50	-34.7	-36.1	18.5	0.00e+00	0	55	0	780140544	41	4122
2026-01-11 11:43:25.50	147.19	21.64	-34.7	-36.1	18.5	0.00e+00	0	55	0	786432000	41	4119
2026-01-11 11:43:26.51	147.14	21.78	-34.7	-36.1	18.6	0.00e+00	0	55	0	791674880	41	4111
2026-01-11 11:43:27.52	147.10	21.92	-34.7	-36.1	18.6	0.00e+00	0	55	0	796917760	41	4106
2026-01-11 11:43:28.53	147.05	22.07	-34.6	-36.0	18.6	0.00e+00	0	55	0	803209216	41	4085
2026-01-11 11:43:29.54	147.00	22.21	-34.6	-36.0	18.6	0.00e+00	0	55	0	808452096	41	4085
2026-01-11 11:43:30.55	146.95	22.35	-34.6	-36.0	18.7	0.00e+00	0	55	0	814743552	41	4070
2026-01-11 11:43:31.56	146.91	22.50	-34.6	-36.0	18.7	0.00e+00	0	55	0	819986432	41	4054
2026-01-11 11:43:32.58	146.86	22.64	-34.6	-36.0	18.7	0.00e+00	0	55	0	826277888	41	4054
2026-01-11 11:43:33.59	146.81	22.79	-34.5	-35.9	18.8	0.00e+00	0	55	0	831520768	41	4039
2026-01-11 11:43:34.60	146.76	22.93	-34.5	-35.9	18.8	0.00e+00	0	55	0	836763648	41	4007
2026-01-11 11:43:35.61	146.71	23.08	-34.5	-35.9	18.8	0.00e+00	0	55	0	843055104	41	4012
2026-01-11 11:43:36.62	146.66	23.23	-34.4	-35.8	18.9	0.00e+00	0	55	0	848297984	40	4214
2026-01-11 11:43:37.62	146.61	23.38	-34.4	-35.8	18.9	0.00e+00	0	55	0	854589440	40	4215
2026-01-11 11:43:38.63	146.56	23.53	-34.4	-35.7	18.9	0.00e+00	0	55	0	859832320	40	4193
2026-01-11 11:43:39.64	146.50	23.68	-34.4	-35.8	18.9	0.00e+00	0	55	0	866123776	40	4199
2026-01-11 11:43:40.65	146.45	23.83	-34.4	-35.7	18.9	0.00e+00	0	55	0	871366656	40	4189
2026-01-11 11:43:41.66	146.40	23.98	-34.4	-35.8	18.9	0.00e+00	0	55	0	876609536	40	4194
2026-01-11 11:43:42.67	146.34	24.14	-34.4	-35.8	18.9	0.00e+00	0	55	0	882900992	40	4202
2026-01-11 11:43:43.68	146.29	24.29	-34.5	-35.8	18.9	0.00e+00	0	55	0	888143872	40	4219
2026-01-11 11:43:44.69	146.23	24.44	-34.4	-35.8	18.9	0.00e+00	0	55	0	894435328	40	4214
2026-01-11 11:43:45.70	146.18	24.60	-34.4	-35.7	19.0	0.00e+00	0	55	0	899678208	40	4184
2026-01-11 11:43:46.71	146.12	24.76	-34.4	-35.7	19.0	0.00e+00	0	55	0	904921088	40	4188
2026-01-11 11:43:47.72	146.07	24.92	-34.3	-35.7	19.1	0.00e+00	0	55	0	911212544	40	4151
2026-01-11 11:43:48.74	146.01	25.08	-34.3	-35.6	19.1	0.00e+00	0	55	0	916455424	40	4121
2026-01-11 11:43:49.75	145.95	25.23	-34.3	-35.6	19.1	0.00e+00	0	55	0	922746880	40	4108
2026-01-11 11:43:50.76	145.89	25.40	-34.3	-35.6	19.2	0.00e+00	0	55	0	927989760	40	4113
2026-01-11 11:43:51.77	145.83	25.56	-34.2	-35.5	19.2	0.00e+00	0	55	0	933232640	40	4080
2026-01-11 11:43:52.78	145.77	25.72	-34.2	-35.5	19.3	0.00e+00	0	55	0	939524096	40	4062
2026-01-11 11:43:53.78	145.71	25.88	-34.2	-35.5	19.3	0.00e+00	0	55	0	944766976	40	4055
2026-01-11 11:43:54.79	145.65	26.05	-34.1	-35.5	19.3	0.00e+00	0	55	0	951058432	40	4054
2026-01-11 11:43:55.80	145.59	26.21	-34.2	-35.5	19.2	0.00e+00	0	55	0	956301312	40	4074
2026-01-11 11:43:56.81	145.53	26.38	-34.2	-35.5	19.2	0.00e+00	0	56	0	962592768	40	4058
2026-01-11 11:43:57.82	145.46	26.54	-34.2	-35.5	19.2	0.00e+00	0	55	0	967835648	40	4095
2026-01-11 11:43:58.83	145.40	26.71	-34.3	-35.6	19.1	0.00e+00	0	55	0	974127104	40	4131
2026-01-11 11:43:59.84	145.34	26.88	-34.3	-35.7	19.0	0.00e+00	0	56	0	979369984	40	4160
2026-01-11 11:44:00.85	145.27	27.05	-34.4	-35.7	19.0	0.00e+00	0	55	0	984612864	40	4177
2026-01-11 11:44:01.86	145.20	27.22	-34.4	-35.7	19.0	0.00e+00	0	56	0	990904320	40	4190
2026-01-11 11:44:02.87	145.14	27.40	-34.4	-35.7	19.0	0.00e+00	0	55	0	996147200	40	4178
2026-01-11 11:44:03.88	145.07	27.57	-34.3	-35.6	19.1	0.00e+00	0	56	0	1002438656	40	4135
2026-01-11 11:44:04.89	145.00	27.74	-34.2	-35.5	19.2	0.00e+00	0	56	0	1007681536	40	4074
2026-01-11 11:44:05.90	144.93	27.92	-34.0	-35.3	19.4	0.00e+00	0	56	0	1012924416	40	3993
2026-01-11 11:44:06.91	144.86	28.10	-34.0	-35.3	19.5	0.00e+00	0	55	0	1019215872	39	4218
2026-01-11 11:44:07.92	144.79	28.27	-34.0	-35.2	19.6	0.00e+00	0	55	0	1024458752	39	4192
2026-01-11 11:44:08.93	144.72	28.45	-33.9	-35.2	19.6	0.00e+00	0	56	0	1030750208	39	4175
2026-01-11 11:44:09.93	144.65	28.63	-33.9	-35.2	19.6	0.00e+00	0	56	0	1035993088	39	4180
2026-01-11 11:44:10.94	144.58	28.81	-34.0	-35.2	19.6	0.00e+00	0	56	0	1041235968	39	4188
2026-01-11 11:44:11.96	144.50	28.99	-34.0	-35.3	19.6	0.00e+00	0	55	0	1047527424	39	4204
2026-01-11 11:44:12.97	144.43	29.18	-34.0	-35.3	19.6	0.00e+00	0	56	0	1052770304	39	4197
2026-01-11 11:44:13.97	144.35	29.36	-33.9	-35.2	19.6	0.00e+00	0	56	0	1059061760	39	4158
2026-01-11 11:44:14.98	144.28	29.55	-33.9	-35.2	19.6	0.00e+00	0	55	0	1064304640	39	4172
2026-01-11 11:44:16.00	144.20	29.73	-33.9	-35.2	19.6	0.00e+00	0	56	0	1070596096	39	4171
2026-01-11 11:44:17.01	144.12	29.92	-33.9	-35.2	19.6	0.00e+00	0	55	0	1075838976	39	4162
2026-01-11 11:44:18.01	144.04	30.11	-33.9	-35.2	19.6	0.00e+00	0	55	0	1081081856	39	4151
2026-01-11 11:44:19.02	143.96	30.30	-33.8	-35.1	19.7	0.00e+00	0	56	0	1087373312	39	4129
2026-01-11 11:44:20.03	143.88	30.49	-33.8	-35.1	19.7	0.00e+00	0	56	0	1092616192	39	4119
2026-01-11 11:44:21.04	143.80	30.68	-33.7	-35.0	19.8	0.00e+00	0	56	0	1098907648	39	4080
2026-01-11 11:44:22.05	143.71	30.88	-33.7	-35.0	19.8	0.00e+00	0	56	0	1104150528	39	4074
2026-01-11 11:44:23.06	143.63	31.07	-33.7	-35.0	19.8	0.00e+00	0	56	0	1109393408	39	4067
2026-01-11 11:44:24.07	143.54	31.27	-33.7	-35.0	19.8	0.00e+00	0	56	0	1115684864	39	4072
2026-01-11 11:44:25.08	143.46	31.47	-33.7	-35.0	19.8	0.00e+00	0	55	0	1120927744	39	4081
2026-01-11 11:44:26.09	143.37	31.67	-33.7	-35.0	19.7	0.00e+00	0	56	0	1127219200	39	4086
2026-01-11 11:44:27.10	143.28	31.87	-33.7	-34.9	19.8	0.00e+00	0	56	0	1132462080	39	4047
2026-01-11 11:44:28.11	143.19	32.07	-33.7	-34.9	19.8	0.00e+00	0	56	0	1137704960	39	4047
2026-01-11 11:44:29.12	143.10	32.27	-33.7	-34.9	19.8	0.00e+00	0	56	0	1143996416	39	4035
2026-01-11 11:44:30.13	143.01	32.47	-33.7	-35.0	19.8	0.00e+00	0	55	0	1149239296	39	4058
2026-01-11 11:44:31.14	142.91	32.68	-33.7	-34.9	19.8	0.00e+00	0	56	0	1155530752	39	4049
2026-01-11 11:44:32.15	142.82	32.89	-33.7	-35.0	19.8	0.00e+00	0	56	0	1160773632	39	4077
2026-01-11 11:44:33.16	142.72	33.09	-33.7	-35.0	19.8	0.00e+00	0	56	0	1167065088	39	4083
2026-01-11 11:44:34.17	142.62	33.30	-33.7	-35.0	19.8	0.00e+00	0	56	0	1172307968	39	4078
2026-01-11 11:44:35.18	142.53	33.51	-33.7	-35.0	19.8	0.00e+00	0	56	0	1178599424	39	4052
2026-01-11 11:44:36.19	142.43	33.72	-33.7	-35.0	19.8	0.00e+00	0	56	0	1183842304	39	4057
2026-01-11 11:44:37.19	142.33	33.94	-33.7	-35.0	19.8	0.00e+00	0	56	0	1189085184	39	4072
2026-01-11 11:44:38.21	142.22	34.15	-33.7	-35.0	19.8	0.00e+00	0	56	0	1195376640	39	4077
2026-01-11 11:44:39.21	142.12	34.37	-33.8	-35.0	19.8	0.00e+00	0	56	0	1200619520	39	4086
2026-01-11 11:44:40.22	142.01	34.58	-33.8	-35.1	19.8	0.00e+00	0	56	0	1205862400	39	4100
2026-01-11 11:44:41.23	141.91	34.80	-33.8	-35.0	19.8	0.00e+00	0	56	0	1212153856	39	4090
2026-01-11 11:44:42.25	141.80	35.03	-33.7	-35.0	19.9	0.00e+00	0	56	0	1217396736	39	4060
2026-01-11 11:44:43.26	141.69	35.25	-33.6	-34.9	20.0	0.00e+00	0	56	0	1223688192	39	4015
2026-01-11 11:44:44.27	141.58	35.47	-33.6	-34.8	20.1	0.00e+00	0	56	0	1228931072	39	3968
2026-01-11 11:44:45.28	141.46	35.69	-33.6	-34.8	20.1	0.00e+00	0	56	0	1235222528	39	3979
2026-01-11 11:44:46.29	141.35	35.92	-33.6	-34.8	20.1	0.00e+00	0	56	0	1240465408	39	3975
2026-01-11 11:44:47.30	141.23	36.15	-33.5	-34.8	20.1	0.00e+00	0	56	0	1245708288	39	3972
2026-01-11 11:44:48.31	141.11	36.38	-33.5	-34.7	20.1	0.00e+00	0	56	0	1251999744	39	3946
2026-01-11 11:44:49.32	141.00	36.61	-33.5	-34.8	20.1	0.00e+00	0	56	0	1257242624	39	3965
2026-01-11 11:44:50.33	140.87	36.84	-33.6	-34.9	20.0	0.00e+00	0	56	0	1263534080	39	4014
2026-01-11 11:44:51.34	140.75	37.07	-33.7	-34.9	20.0	0.00e+00	0	56	0	1268776960	39	4042
2026-01-11 11:44:52.35	140.63	37.31	-33.7	-34.9	20.0	0.00e+00	0	56	0	1275068416	39	4042
2026-01-11 11:44:53.36	140.50	37.54	-33.7	-35.0	19.9	0.00e+00	0	56	0	1280311296	39	4065
2026-01-11 11:44:54.37	140.37	37.78	-33.7	-34.9	20.0	0.00e+00	0	56	0	1285554176	39	4048
2026-01-11 11:44:55.38	140.24	38.02	-33.7	-35.0	19.9	0.00e+00	0	56	0	1291845632	39	4068
2026-01-11 11:44:56.39	140.11	38.26	-33.8	-35.0	19.9	0.00e+00	0	56	0	1297088512	39	4081
2026-01-11 11:44:57.40	139.97	38.51	-33.8	-35.1	19.8	0.00e+00	0	56	0	1303379968	39	4129
2026-01-11 11:44:58.41	139.84	38.75	-33.9	-35.2	19.8	0.00e+00	0	56	0	1308622848	39	4162
2026-01-11 11:44:59.41	139.70	38.99	-33.9	-35.2	19.8	0.00e+00	0	56	0	1313865728	39	4154
2026-01-11 11:45:00.42	139.56	39.24	-33.9	-35.1	19.8	0.00e+00	0	56	0	1320157184	39	4128
2026-01-11 11:45:01.43	139.41	39.49	-33.8	-35.1	19.8	0.00e+00	0	56	0	1325400064	39	4121
2026-01-11 11:45:02.44	139.27	39.74	-33.8	-35.1	19.8	0.00e+00	0	56	0	1331691520	39	4117
2026-01-11 11:45:03.45	139.12	39.99	-33.9	-35.2	19.7	0.00e+00	0	56	0	1336934400	39	4178
2026-01-11 11:45:04.46	138.97	40.25	-34.0	-35.2	19.7	0.00e+00	0	56	0	1342177280	39	4188
2026-01-11 11:45:05.47	138.82	40.50	-34.2	-35.5	19.5	0.00e+00	0	56	0	1348468736	39	4296
2026-01-11 11:45:06.48	138.66	40.76	-34.3	-35.6	19.3	0.00e+00	0	56	0	1353711616	39	4381
2026-01-11 11:45:07.49	138.51	41.02	-34.4	-35.7	19.3	0.00e+00	0	56	0	1360003072	39	4404
2026-01-11 11:45:08.50	138.35	41.28	-34.3	-35.6	19.4	0.00e+00	0	56	0	1365245952	39	4367
2026-01-11 11:45:09.51	138.18	41.54	-34.2	-35.5	19.5	0.00e+00	0	56	0	1371537408	39	4322
2026-01-11 11:45:10.52	138.02	41.80	-34.1	-35.4	19.6	0.00e+00	0	56	0	1376780288	39	4278
2026-01-11 11:45:11.54	137.85	42.07	-34.1	-35.4	19.6	0.00e+00	0	56	0	1383071744	39	4248
2026-01-11 11:45:12.55	137.68	42.34	-34.0	-35.3	19.7	0.00e+00	0	56	0	1388314624	39	4221
2026-01-11 11:45:13.56	137.50	42.60	-34.0	-35.3	19.7	0.00e+00	0	56	0	1393557504	39	4221
2026-01-11 11:45:14.56	137.33	42.87	-34.0	-35.3	19.7	0.00e+00	0	56	0	1399848960	39	4219
2026-01-11 11:45:15.57	137.15	43.14	-34.1	-35.4	19.7	0.00e+00	0	56	0	1405091840	39	4243
2026-01-11 11:45:16.58	136.96	43.41	-34.0	-35.3	19.8	0.00e+00	0	56	0	1411383296	39	4206
2026-01-11 11:45:17.59	136.78	43.69	-33.9	-35.1	19.9	0.00e+00	0	56	0	1416626176	39	4133
2026-01-11 11:45:18.60	136.59	43.97	-33.9	-35.1	19.9	0.00e+00	0	56	0	1421869056	39	4116
2026-01-11 11:45:19.61	136.40	44.24	-34.0	-35.3	19.7	0.00e+00	0	56	0	1428160512	39	4215
2026-01-11 11:45:20.62	136.20	44.52	-34.2	-35.5	19.5	0.00e+00	0	56	0	1433403392	39	4300
2026-01-11 11:45:21.63	136.00	44.80	-34.2	-35.5	19.5	0.00e+00	0	56	0	1439694848	39	4321
2026-01-11 11:45:22.64	135.80	45.09	-34.1	-35.3	19.7	0.00e+00	0	56	0	1444937728	39	4235
2026-01-11 11:45:23.65	135.59	45.37	-33.9	-35.1	19.9	0.00e+00	0	56	0	1450180608	39	4118
2026-01-11 11:45:24.66	135.38	45.66	-33.7	-35.0	20.0	0.00e+00	0	56	0	1456472064	39	4060
2026-01-11 11:45:25.66	135.16	45.94	-33.8	-35.0	20.0	0.00e+00	0	56	0	1461714944	39	4082
2026-01-11 11:45:26.68	134.94	46.23	-33.9	-35.1	19.9	0.00e+00	0	56	0	1468006400	39	4126
2026-01-11 11:45:27.69	134.72	46.52	-33.9	-35.1	19.9	0.00e+00	0	56	0	1473249280	39	4120
2026-01-11 11:45:28.70	134.49	46.82	-33.8	-35.0	20.0	0.00e+00	0	56	0	1479540736	39	4085
2026-01-11 11:45:29.71	134.26	47.11	-34.0	-35.2	19.9	0.00e+00	0	56	0	1484783616	39	4168
2026-01-11 11:45:30.72	134.02	47.40	-34.2	-35.5	19.6	0.00e+00	0	56	0	1490026496	39	4310
2026-01-11 11:45:31.73	133.78	47.70	-34.4	-35.7	19.4	0.00e+00	0	56	0	1496317952	39	4426
2026-01-11 11:45:32.74	133.54	48.00	-34.5	-35.7	19.4	0.00e+00	0	56	0	1501560832	39	4440
2026-01-11 11:45:33.75	133.29	48.30	-34.5	-35.7	19.3	0.00e+00	0	56	0	1507852288	39	4434
2026-01-11 11:45:34.76	133.03	48.60	-34.4	-35.7	19.4	0.00e+00	0	56	0	1513095168	39	4414
2026-01-11 11:45:35.77	132.77	48.90	-34.5	-35.8	19.3	0.00e+00	0	56	0	1518338048	39	4466
2026-01-11 11:45:36.78	132.51	49.21	-34.7	-36.0	19.1	0.00e+00	0	56	0	1524629504	39	4573
2026-01-11 11:45:37.79	132.24	49.51	-34.9	-36.2	18.8	0.00e+00	0	56	0	1529872384	40	4424
2026-01-11 11:45:38.80	131.96	49.82	-34.9	-36.3	18.8	0.00e+00	0	56	0	1536163840	40	4454
2026-01-11 11:45:39.81	131.68	50.13	-34.8	-36.2	18.9	0.00e+00	0	56	0	1541406720	40	4401
2026-01-11 11:45:40.81	131.39	50.43	-34.8	-36.1	18.9	0.00e+00	0	56	0	1546649600	40	4380
2026-01-11 11:45:41.82	131.10	50.74	-35.1	-36.5	18.6	0.00e+00	0	56	0	1552941056	40	4550
2026-01-11 11:45:42.83	130.80	51.06	-35.3	-36.7	18.3	0.00e+00	0	56	0	1558183936	41	4433
2026-01-11 11:45:43.84	130.49	51.37	-35.3	-36.7	18.4	0.00e+00	0	56	0	1564475392	41	4401
2026-01-11 11:45:44.85	130.18	51.68	-35.0	-36.4	18.6	0.00e+00	0	56	0	1569718272	41	4266
2026-01-11 11:45:45.86	129.86	52.00	-34.8	-36.1	19.0	0.00e+00	0	56	0	1576009728	41	4128
2026-01-11 11:45:46.87	129.53	52.31	-34.5	-35.8	19.3	0.00e+00	0	56	0	1581252608	41	3959
2026-01-11 11:45:47.89	129.19	52.64	-34.6	-35.8	19.3	0.00e+00	0	56	0	1587544064	40	4230
2026-01-11 11:45:48.89	128.86	52.95	-34.7	-36.0	19.1	0.00e+00	0	56	0	1592786944	40	4297
2026-01-11 11:45:49.90	128.51	53.27	-34.6	-35.9	19.2	0.00e+00	0	56	0	1598029824	40	4257
2026-01-11 11:45:50.91	128.15	53.59	-34.5	-35.8	19.3	0.00e+00	0	56	0	1604321280	40	4200
2026-01-11 11:45:51.92	127.79	53.91	-34.5	-35.7	19.4	0.00e+00	0	56	0	1609564160	40	4182
2026-01-11 11:45:52.93	127.41	54.23	-34.5	-35.8	19.3	0.00e+00	0	56	0	1615855616	40	4207
2026-01-11 11:45:53.94	127.03	54.56	-34.5	-35.8	19.2	0.00e+00	0	56	0	1621098496	40	4234
2026-01-11 11:45:54.95	126.64	54.88	-34.7	-36.0	19.0	0.00e+00	0	56	0	1626341376	40	4319
2026-01-11 11:45:55.96	126.24	55.21	-34.9	-36.2	18.8	0.00e+00	0	56	0	1632632832	40	4434
2026-01-11 11:45:56.97	125.83	55.53	-34.7	-36.1	18.9	0.00e+00	0	56	0	1637875712	40	4346
2026-01-11 11:45:57.98	125.42	55.86	-34.5	-35.7	19.3	0.00e+00	0	56	0	1644167168	40	4185
2026-01-11 11:45:58.99	124.99	56.18	-34.5	-35.8	19.2	0.00e+00	0	56	0	1649410048	40	4212
2026-01-11 11:46:00.00	124.55	56.51	-34.6	-35.9	19.1	0.00e+00	0	56	0	1654652928	40	4276
2026-01-11 11:46:01.01	124.10	56.83	-34.7	-36.1	18.9	0.00e+00	0	56	0	1660944384	40	4361
2026-01-11 11:46:02.02	123.64	57.16	-34.7	-36.0	19.0	0.00e+00	0	56	0	1666187264	40	4332
2026-01-11 11:46:03.03	123.17	57.49	-34.5	-35.8	19.2	0.00e+00	0	56	0	1672478720	40	4218
2026-01-11 11:46:04.04	122.69	57.81	-34.6	-35.9	19.2	0.00e+00	0	56	0	1677721600	40	4266
2026-01-11 11:46:05.05	122.19	58.14	-34.7	-36.1	19.0	0.00e+00	0	56	0	1684013056	40	4356
2026-01-11 11:46:06.06	121.69	58.46	-34.8	-36.1	19.0	0.00e+00	0	56	0	1689255936	40	4369
2026-01-11 11:46:07.07	121.17	58.79	-34.7	-36.0	19.0	0.00e+00	0	56	0	1694498816	40	4331
2026-01-11 11:46:08.08	120.63	59.12	-34.4	-35.6	19.4	0.00e+00	0	56	0	1700790272	40	4145
2026-01-11 11:46:09.09	120.09	59.44	-34.4	-35.7	19.3	0.00e+00	0	56	0	1706033152	40	4147
2026-01-11 11:46:10.10	119.53	59.76	-34.7	-36.1	18.9	0.00e+00	0	56	0	1712324608	40	4351
2026-01-11 11:46:11.11	118.96	60.09	-34.6	-35.9	19.1	0.00e+00	0	56	0	1717567488	40	4280
2026-01-11 11:46:12.12	118.37	60.41	-34.1	-35.4	19.6	0.00e+00	0	56	0	1722810368	40	4027
2026-01-11 11:46:13.13	117.76	60.73	-34.1	-35.3	19.7	0.00e+00	0	56	0	1729101824	40	3986
2026-01-11 11:46:14.15	117.14	61.05	-34.2	-35.4	19.6	0.00e+00	0	56	0	1734344704	40	4045
2026-01-11 11:46:15.16	116.50	61.37	-34.0	-35.2	19.9	0.00e+00	0	56	0	1740636160	39	4163
2026-01-11 11:46:16.17	115.85	61.69	-34.0	-35.2	19.9	0.00e+00	0	56	0	1745879040	39	4149
2026-01-11 11:46:17.18	115.18	62.00	-34.1	-35.3	19.7	0.00e+00	0	56	0	1752170496	39	4224
2026-01-11 11:46:18.19	114.50	62.31	-33.9	-35.1	19.9	0.00e+00	0	56	0	1757413376	39	4136
2026-01-11 11:46:19.19	113.80	62.62	-33.6	-34.8	20.2	0.00e+00	0	56	0	1762656256	39	3977
2026-01-11 11:46:20.20	113.08	62.93	-33.6	-34.8	20.2	0.00e+00	0	56	0	1768947712	39	3982
2026-01-11 11:46:21.21	112.34	63.23	-33.7	-34.9	20.1	0.00e+00	0	56	0	1774190592	39	4020
2026-01-11 11:46:22.22	111.58	63.54	-33.7	-35.0	20.0	0.00e+00	0	56	0	1780482048	39	4066
2026-01-11 11:46:23.23	110.80	63.83	-33.5	-34.7	20.3	0.00e+00	0	56	0	1785724928	38	4150
2026-01-11 11:46:24.24	110.00	64.13	-33.5	-34.6	20.3	0.00e+00	0	56	0	1792016384	38	4143
2026-01-11 11:46:25.25	109.18	64.42	-33.6	-34.8	20.2	0.00e+00	0	56	0	1797259264	38	4216
2026-01-11 11:46:26.26	108.34	64.71	-33.7	-34.9	20.1	0.00e+00	0	56	0	1802502144	38	4255
2026-01-11 11:46:27.27	107.48	65.00	-33.6	-34.8	20.1	0.00e+00	0	56	0	1808793600	38	4238
2026-01-11 11:46:28.28	106.59	65.28	-33.3	-34.5	20.5	0.00e+00	0	56	0	1814036480	38	4066
2026-01-11 11:46:29.29	105.68	65.55	-33.1	-34.3	20.7	0.00e+00	0	56	0	1820327936	38	3965
2026-01-11 11:46:30.30	104.75	65.83	-32.8	-33.9	21.0	0.00e+00	0	56	0	1825570816	37	4051
2026-01-11 11:46:31.31	103.80	66.09	-33.1	-34.2	20.7	0.00e+00	0	56	0	1830813696	37	4172
2026-01-11 11:46:32.32	102.82	66.35	-33.4	-34.6	20.3	0.00e+00	0	56	0	1837105152	37	4357
2026-01-11 11:46:33.33	101.82	66.61	-33.1	-34.3	20.5	0.00e+00	0	56	0	1842348032	37	4215
2026-01-11 11:46:34.34	100.79	66.86	-32.8	-34.0	20.8	0.00e+00	0	56	0	1848639488	37	4071
2026-01-11 11:46:35.35	99.74	67.10	-32.8	-34.0	20.8	0.00e+00	0	56	0	1853882368	37	4070
2026-01-11 11:46:36.36	98.67	67.34	-32.7	-33.8	21.0	0.00e+00	0	56	0	1859125248	37	4002
2026-01-11 11:46:37.37	97.57	67.57	-32.8	-34.0	20.9	0.00e+00	0	56	0	1865416704	37	4063
2026-01-11 11:46:38.38	96.45	67.79	-32.9	-34.0	20.9	0.00e+00	0	56	0	1870659584	37	4089
2026-01-11 11:46:39.39	95.30	68.01	-32.8	-33.9	20.9	0.00e+00	0	56	0	1876951040	37	4050
2026-01-11 11:46:40.40	94.13	68.22	-32.9	-34.1	20.8	0.00e+00	0	56	0	1882193920	37	4100
2026-01-11 11:46:41.41	92.93	68.41	-33.1	-34.3	20.6	0.00e+00	0	56	0	1888485376	37	4194
2026-01-11 11:46:42.42	91.71	68.61	-33.1	-34.3	20.6	0.00e+00	0	56	0	1893728256	37	4200
2026-01-11 11:46:43.43	90.47	68.79	-33.0	-34.2	20.6	0.00e+00	0	56	0	1900019712	37	4159
2026-01-11 11:46:44.44	89.21	68.96	-32.9	-34.0	20.8	0.00e+00	0	56	0	1905262592	37	4082
2026-01-11 11:46:45.44	87.93	69.12	-32.8	-33.9	20.9	0.00e+00	0	56	0	1910505472	37	4048
2026-01-11 11:46:46.45	86.62	69.28	-33.1	-34.2	20.6	0.00e+00	0	56	0	1916796928	37	4185
2026-01-11 11:46:47.46	85.30	69.42	-33.3	-34.5	20.4	0.00e+00	0	56	0	1922039808	37	4306
2026-01-11 11:46:48.47	83.95	69.55	-33.4	-34.6	20.3	0.00e+00	0	57	0	1928331264	37	4385
2026-01-11 11:46:49.48	82.58	69.68	-33.3	-34.5	20.4	0.00e+00	0	56	0	1933574144	37	4316
2026-01-11 11:46:50.49	81.20	69.79	-33.3	-34.5	20.4	0.00e+00	0	57	0	1938817024	37	4319
2026-01-11 11:46:51.51	79.79	69.89	-33.5	-34.8	20.1	0.00e+00	0	56	0	1945108480	37	4446
2026-01-11 11:46:52.51	78.39	69.98	-33.2	-34.4	20.4	0.00e+00	0	57	0	1950351360	37	4284
2026-01-11 11:46:53.52	76.96	70.06	-33.2	-34.4	20.4	0.00e+00	0	56	0	1955594240	37	4256
2026-01-11 11:46:54.53	75.52	70.13	-33.3	-34.5	20.3	0.00e+00	0	56	0	1961885696	37	4310
2026-01-11 11:46:55.54	74.08	70.18	-33.4	-34.6	20.2	0.00e+00	0	56	0	1967128576	37	4377
2026-01-11 11:46:56.55	72.62	70.22	-33.2	-34.3	20.5	0.00e+00	0	57	0	1973420032	37	4234
2026-01-11 11:46:57.56	71.16	70.26	-33.1	-34.3	20.6	0.00e+00	0	56	0	1978662912	37	4213
2026-01-11 11:46:58.57	69.70	70.28	-33.5	-34.7	20.3	0.00e+00	0	57	0	1984954368	37	4398
2026-01-11 11:46:59.58	68.23	70.28	-33.6	-34.8	20.1	0.00e+00	0	56	0	1990197248	37	4461
2026-01-11 11:47:00.59	66.76	70.28	-33.5	-34.8	20.1	0.00e+00	0	56	0	1996488704	37	4442
2026-01-11 11:47:01.60	65.30	70.26	-33.1	-34.3	20.5	0.00e+00	0	57	0	2001731584	37	4227
2026-01-11 11:47:02.61	63.84	70.23	-33.1	-34.3	20.5	0.00e+00	0	56	0	2006974464	37	4229
2026-01-11 11:47:03.62	62.38	70.19	-32.9	-34.1	20.8	0.00e+00	0	56	0	2013265920	37	4128
2026-01-11 11:47:04.63	60.94	70.14	-32.8	-34.0	20.9	0.00e+00	0	56	0	2018508800	37	4055
2026-01-11 11:47:05.64	59.50	70.07	-32.9	-34.0	20.8	0.00e+00	0	57	0	2024800256	37	4091
2026-01-11 11:47:06.65	58.07	69.99	-33.0	-34.2	20.7	0.00e+00	0	57	0	2030043136	37	4166
2026-01-11 11:47:07.66	56.65	69.91	-33.0	-34.2	20.7	0.00e+00	0	57	0	2035286016	37	4168
2026-01-11 11:47:08.67	55.25	69.81	-33.0	-34.1	20.7	0.00e+00	0	56	0	2041577472	37	4128
2026-01-11 11:47:09.68	53.87	69.70	-33.1	-34.3	20.5	0.00e+00	0	56	0	2046820352	37	4227
2026-01-11 11:47:10.69	52.50	69.57	-33.1	-34.3	20.6	0.00e+00	0	56	0	2053111808	37	4230
2026-01-11 11:47:11.70	51.15	69.44	-33.1	-34.3	20.6	0.00e+00	0	56	0	2058354688	37	4194
2026-01-11 11:47:12.71	49.82	69.30	-33.1	-34.3	20.6	0.00e+00	0	57	0	2063597568	37	4206
2026-01-11 11:47:13.72	48.51	69.15	-33.1	-34.3	20.6	0.00e+00	0	57	0	2069889024	37	4206
2026-01-11 11:47:14.73	47.22	68.99	-32.8	-33.9	21.0	0.00e+00	0	56	0	2075131904	37	4042
2026-01-11 11:47:15.74	45.95	68.82	-32.7	-33.8	21.1	0.00e+00	0	56	0	2081423360	37	3976
2026-01-11 11:47:16.75	44.71	68.63	-32.8	-34.0	21.0	0.00e+00	0	56	0	2086666240	37	4059
2026-01-11 11:47:17.76	43.49	68.45	-33.1	-34.2	20.7	0.00e+00	0	56	0	2092957696	37	4188
2026-01-11 11:47:18.77	42.29	68.25	-32.9	-34.1	20.8	0.00e+00	0	56	0	2098200576	37	4105
2026-01-11 11:47:19.78	41.11	68.04	-33.0	-34.1	20.8	0.00e+00	0	56	0	2104492032	37	4136
2026-01-11 11:47:20.79	39.96	67.83	-33.1	-34.3	20.6	0.00e+00	0	57	0	2109734912	37	4194
2026-01-11 11:47:21.80	38.84	67.61	-32.9	-34.1	20.8	0.00e+00	0	56	0	2114977792	37	4115
2026-01-11 11:47:22.81	37.74	67.38	-32.9	-34.0	20.9	0.00e+00	0	57	0	2121269248	37	4076
2026-01-11 11:47:23.82	36.66	67.14	-32.9	-34.1	20.8	0.00e+00	0	57	0	2126512128	37	4118
2026-01-11 11:47:24.83	35.61	66.90	-32.9	-34.1	20.8	0.00e+00	0	57	0	2132803584	37	4116
2026-01-11 11:47:25.84	34.58	66.65	-32.8	-33.9	21.0	0.00e+00	0	57	0	2138046464	37	4034
2026-01-11 11:47:26.85	33.58	66.40	-32.9	-34.0	21.0	0.00e+00	0	57	0	2143289344	37	4091
2026-01-11 11:47:27.86	32.60	66.14	-33.1	-34.3	20.7	0.00e+00	0	57	0	2149580800	37	4213
2026-01-11 11:47:28.87	31.64	65.87	-33.1	-34.2	20.7	0.00e+00	0	56	0	2154823680	37	4186
2026-01-11 11:47:29.88	30.71	65.60	-33.1	-34.2	20.8	0.00e+00	0	57	0	2161115136	37	4168
2026-01-11 11:47:30.89	29.80	65.33	-33.0	-34.1	20.8	0.00e+00	0	57	0	2166358016	37	4137
2026-01-11 11:47:31.90	28.91	65.05	-33.1	-34.3	20.7	0.00e+00	0	57	0	2171600896	37	4216
2026-01-11 11:47:32.91	28.04	64.76	-33.1	-34.2	20.8	0.00e+00	0	57	0	2177892352	37	4168
2026-01-11 11:47:33.92	27.20	64.48	-33.3	-34.5	20.5	0.00e+00	0	56	0	2183135232	37	4315
2026-01-11 11:47:34.93	26.38	64.18	-33.6	-34.8	20.3	0.00e+00	0	57	0	2189426688	37	4475
2026-01-11 11:47:35.94	25.57	63.89	-33.6	-34.8	20.3	0.00e+00	0	57	0	2194669568	37	4460
2026-01-11 11:47:36.95	24.79	63.59	-33.5	-34.7	20.4	0.00e+00	0	57	0	2200961024	37	4405
2026-01-11 11:47:37.96	24.03	63.29	-33.7	-34.9	20.3	0.00e+00	0	56	0	2206203904	37	4502
2026-01-11 11:47:38.97	23.29	62.98	-34.0	-35.2	19.9	0.00e+00	0	56	0	2211446784	38	4400
2026-01-11 11:47:39.98	22.56	62.68	-33.9	-35.2	19.9	0.00e+00	0	57	0	2217738240	38	4408
2026-01-11 11:47:40.99	21.86	62.37	-33.8	-35.0	20.1	0.00e+00	0	57	0	2222981120	38	4300
2026-01-11 11:47:42.00	21.17	62.06	-33.5	-34.7	20.3	0.00e+00	0	57	0	2229272576	38	4176
2026-01-11 11:47:43.01	20.50	61.74	-33.6	-34.8	20.2	0.00e+00	0	57	0	2234515456	38	4217
2026-01-11 11:47:44.02	19.85	61.43	-33.7	-34.9	20.2	0.00e+00	0	57	0	2239758336	38	4246
2026-01-11 11:47:45.03	19.21	61.11	-33.6	-34.8	20.3	0.00e+00	0	57	0	2246049792	38	4224
2026-01-11 11:47:46.04	18.59	60.79	-33.5	-34.7	20.4	0.00e+00	0	57	0	2251292672	38	4146
2026-01-11 11:47:47.05	17.99	60.47	-33.7	-34.9	20.2	0.00e+00	0	57	0	2257584128	38	4286
2026-01-11 11:47:48.06	17.40	60.15	-34.0	-35.2	19.9	0.00e+00	0	56	0	2262827008	38	4431
2026-01-11 11:47:49.07	16.82	59.83	-34.2	-35.5	19.7	0.00e+00	0	57	0	2268069888	39	4306
2026-01-11 11:47:50.07	16.27	59.51	-34.4	-35.7	19.5	0.00e+00	0	57	0	2274361344	39	4421
2026-01-11 11:47:51.09	15.72	59.19	-34.3	-35.5	19.7	0.00e+00	0	57	0	2279604224	39	4328
2026-01-11 11:47:52.10	15.18	58.86	-34.2	-35.4	19.8	0.00e+00	0	57	0	2285895680	39	4262
2026-01-11 11:47:53.11	14.66	58.54	-34.4	-35.7	19.5	0.00e+00	0	56	0	2291138560	39	4414
2026-01-11 11:47:54.12	14.15	58.21	-34.6	-35.9	19.3	0.00e+00	0	57	0	2297430016	39	4515
2026-01-11 11:47:55.13	13.66	57.89	-34.5	-35.8	19.4	0.00e+00	0	56	0	2302672896	39	4445
2026-01-11 11:47:56.14	13.17	57.56	-34.4	-35.7	19.5	0.00e+00	0	57	0	2308964352	39	4396
2026-01-11 11:47:57.15	12.70	57.24	-34.4	-35.6	19.5	0.00e+00	0	57	0	2314207232	39	4376
2026-01-11 11:47:58.16	12.24	56.91	-34.3	-35.6	19.5	0.00e+00	0	57	0	2319450112	39	4354
2026-01-11 11:47:59.17	11.79	56.59	-34.3	-35.5	19.6	0.00e+00	0	57	0	2325741568	39	4322
2026-01-11 11:48:00.18	11.35	56.26	-34.3	-35.5	19.6	0.00e+00	0	56	0	2330984448	39	4321
2026-01-11 11:48:01.19	10.92	55.94	-34.6	-35.8	19.3	0.00e+00	0	56	0	2337275904	39	4481
2026-01-11 11:48:02.20	10.50	55.61	-34.8	-36.2	18.9	0.00e+00	0	56	0	2342518784	40	4395
2026-01-11 11:48:03.21	10.09	55.29	-35.0	-36.4	18.7	0.00e+00	0	57	0	2347761664	40	4503
2026-01-11 11:48:04.22	9.69	54.96	-34.9	-36.3	18.8	0.00e+00	0	57	0	2354053120	40	4456
2026-01-11 11:48:05.22	9.31	54.64	-34.9	-36.2	18.9	0.00e+00	0	57	0	2359296000	40	4429
2026-01-11 11:48:06.23	8.93	54.32	-34.9	-36.2	18.9	0.00e+00	0	56	0	2365587456	40	4418
2026-01-11 11:48:07.24	8.55	54.00	-34.9	-36.2	18.9	0.00e+00	0	57	0	2370830336	40	4435
2026-01-11 11:48:08.25	8.19	53.68	-34.8	-36.1	19.0	0.00e+00	0	57	0	2376073216	40	4382
2026-01-11 11:48:09.26	7.83	53.36	-34.7	-36.0	19.1	0.00e+00	0	57	0	2382364672	40	4324
2026-01-11 11:48:10.27	7.48	53.04	-34.6	-35.9	19.2	0.00e+00	0	57	0	2387607552	40	4273
2026-01-11 11:48:11.28	7.14	52.72	-34.6	-35.9	19.3	0.00e+00	0	57	0	2393899008	40	4250
2026-01-11 11:48:12.29	6.80	52.41	-34.6	-35.9	19.2	0.00e+00	0	57	0	2399141888	40	4281
2026-01-11 11:48:13.30	6.48	52.09	-34.6	-35.9	19.2	0.00e+00	0	57	0	2405433344	40	4245
2026-01-11 11:48:14.32	6.15	51.77	-34.4	-35.7	19.4	0.00e+00	0	57	0	2410676224	40	4150
2026-01-11 11:48:15.33	5.84	51.46	-34.4	-35.7	19.4	0.00e+00	0	57	0	2416967680	40	4148
2026-01-11 11:48:16.34	5.53	51.15	-34.3	-35.6	19.4	0.00e+00	0	57	0	2422210560	40	4132
2026-01-11 11:48:17.35	5.23	50.84	-34.2	-35.5	19.5	0.00e+00	0	57	0	2427453440	40	4075
2026-01-11 11:48:18.36	4.94	50.53	-34.0	-35.2	19.8	0.00e+00	0	57	0	2433744896	40	3950
2026-01-11 11:48:19.37	4.65	50.22	-34.0	-35.2	19.9	0.00e+00	0	57	0	2438987776	39	4154
2026-01-11 11:48:20.37	4.37	49.91	-34.0	-35.3	19.8	0.00e+00	0	57	0	2445279232	39	4197
2026-01-11 11:48:21.38	4.09	49.61	-34.2	-35.3	20.0	0.00e+00	0	57	0	2450522112	39	4231
2026-01-11 11:48:22.39	3.82	49.30	-34.2	-35.3	20.1	0.00e+00	0	57	0	2455764992	39	4232
2026-01-11 11:48:23.40	3.55	49.00	-34.0	-35.2	20.2	0.00e+00	0	57	0	2462056448	39	4152
2026-01-11 11:48:24.41	3.29	48.70	-34.0	-35.1	20.3	0.00e+00	0	57	0	2467299328	39	4105
2026-01-11 11:48:25.42	3.04	48.40	-33.9	-35.1	20.3	0.00e+00	0	57	0	2472542208	39	4101
2026-01-11 11:48:26.43	2.79	48.10	-34.0	-35.1	20.2	0.00e+00	0	57	0	2478833664	39	4144
2026-01-11 11:48:27.44	2.54	47.80	-34.0	-35.1	20.2	0.00e+00	0	57	0	2484076544	39	4144
2026-01-11 11:48:28.45	2.30	47.51	-34.0	-35.1	20.2	0.00e+00	0	57	0	2490368000	39	4137
2026-01-11 11:48:29.46	2.06	47.21	-34.1	-35.2	20.2	0.00e+00	0	57	0	2495610880	39	4168
2026-01-11 11:48:30.47	1.83	46.92	-34.1	-35.2	20.1	0.00e+00	0	57	0	2501902336	39	4175
2026-01-11 11:48:31.48	1.60	46.63	-34.1	-35.2	20.1	0.00e+00	0	56	0	2507145216	39	4190
2026-01-11 11:48:32.49	1.38	46.34	-34.1	-35.2	20.2	0.00e+00	0	57	0	2513436672	39	4179
2026-01-11 11:48:33.51	1.16	46.05	-34.0	-35.1	20.3	0.00e+00	0	57	0	2518679552	39	4112
2026-01-11 11:48:34.52	0.95	45.76	-33.9	-35.0	20.3	0.00e+00	0	57	0	2523922432	39	4066
2026-01-11 11:48:35.53	0.73	45.48	-33.8	-34.9	20.4	0.00e+00	0	57	0	2530213888	39	4049
2026-01-11 11:48:36.54	0.53	45.19	-33.9	-35.1	20.3	0.00e+00	0	57	0	2535456768	39	4107
2026-01-11 11:48:37.54	0.33	44.91	-34.0	-35.2	20.2	0.00e+00	0	57	0	2541748224	39	4155
2026-01-11 11:48:38.55	0.12	44.63	-34.0	-35.1	20.2	0.00e+00	0	57	0	2546991104	39	4140
2026-01-11 11:48:39.56	359.93	44.35	-33.9	-35.0	20.4	0.00e+00	0	57	0	2552233984	39	4068
2026-01-11 11:48:40.57	359.74	44.08	-33.8	-34.8	20.5	0.00e+00	0	57	0	2558525440	39	4002
2026-01-11 11:48:41.58	359.55	43.80	-33.8	-34.9	20.4	0.00e+00	0	57	0	2563768320	39	4027
2026-01-11 11:48:42.59	359.36	43.53	-33.9	-35.1	20.3	0.00e+00	0	57	0	2570059776	39	4102
2026-01-11 11:48:43.60	359.18	43.25	-34.0	-35.2	20.2	0.00e+00	0	57	0	2575302656	39	4162
2026-01-11 11:48:44.61	359.00	42.98	-34.1	-35.3	20.0	0.00e+00	0	57	0	2580545536	39	4214
2026-01-11 11:48:45.62	358.82	42.71	-34.1	-35.3	20.1	0.00e+00	0	57	0	2586836992	39	4203
2026-01-11 11:48:46.63	358.65	42.45	-34.0	-35.2	20.2	0.00e+00	0	57	0	2592079872	39	4157
2026-01-11 11:48:47.64	358.47	42.18	-33.9	-35.0	20.3	0.00e+00	0	57	0	2598371328	39	4074
2026-01-11 11:48:48.65	358.31	41.92	-33.8	-34.9	20.4	0.00e+00	0	57	0	2603614208	39	4013
2026-01-11 11:48:49.66	358.14	41.65	-33.7	-34.8	20.6	0.00e+00	0	57	0	2609905664	39	3964
2026-01-11 11:48:50.67	357.98	41.39	-33.6	-34.7	20.6	0.00e+00	0	57	0	2615148544	39	3921
2026-01-11 11:48:51.68	357.82	41.13	-33.6	-34.6	20.6	0.00e+00	0	57	0	2621440000	39	3906
2026-01-11 11:48:52.69	357.66	40.88	-33.6	-34.6	20.6	0.00e+00	0	57	0	2626682880	39	3913
2026-01-11 11:48:53.70	357.51	40.62	-33.6	-34.7	20.6	0.00e+00	0	57	0	2631925760	39	3936
2026-01-11 11:48:54.71	357.35	40.37	-33.7	-34.8	20.5	0.00e+00	0	57	0	2638217216	39	3987
2026-01-11 11:48:55.72	357.20	40.11	-33.7	-34.8	20.5	0.00e+00	0	57	0	2643460096	39	4002
2026-01-11 11:48:56.73	357.06	39.86	-33.7	-34.9	20.4	0.00e+00	0	57	0	2649751552	39	4010
2026-01-11 11:48:57.74	356.91	39.61	-33.7	-34.9	20.5	0.00e+00	0	57	0	2654994432	39	4008
2026-01-11 11:48:58.75	356.77	39.36	-33.6	-34.8	20.5	0.00e+00	0	57	0	2660237312	39	3965
2026-01-11 11:48:59.77	356.62	39.11	-33.6	-34.7	20.6	0.00e+00	0	57	0	2666528768	39	3940
2026-01-11 11:49:00.78	356.49	38.87	-33.6	-34.7	20.6	0.00e+00	0	57	0	2671771648	39	3935
2026-01-11 11:49:01.79	356.35	38.63	-33.6	-34.7	20.6	0.00e+00	0	57	0	2678063104	39	3922
2026-01-11 11:49:02.80	356.22	38.38	-33.5	-34.6	20.6	0.00e+00	0	57	0	2683305984	39	3907
2026-01-11 11:49:03.81	356.08	38.14	-33.5	-34.6	20.7	0.00e+00	0	57	0	2688548864	39	3879
2026-01-11 11:49:04.82	355.95	37.90	-33.4	-34.5	20.8	0.00e+00	0	57	0	2694840320	38	4052
2026-01-11 11:49:05.83	355.82	37.67	-33.3	-34.4	20.8	0.00e+00	0	57	0	2700083200	38	4032
2026-01-11 11:49:06.84	355.70	37.43	-33.3	-34.4	20.8	0.00e+00	0	57	0	2706374656	38	4026
2026-01-11 11:49:07.84	355.57	37.20	-33.3	-34.4	20.8	0.00e+00	0	57	0	2711617536	38	4030
2026-01-11 11:49:08.85	355.45	36.97	-33.4	-34.5	20.8	0.00e+00	0	57	0	2717908992	38	4065
2026-01-11 11:49:09.86	355.33	36.73	-33.5	-34.6	20.7	0.00e+00	0	57	0	2723151872	38	4105
2026-01-11 11:49:10.87	355.21	36.50	-33.6	-34.7	20.6	0.00e+00	0	57	0	2729443328	38	4150
2026-01-11 11:49:11.88	355.09	36.28	-33.6	-34.7	20.5	0.00e+00	0	57	0	2734686208	38	4186
2026-01-11 11:49:12.90	354.98	36.05	-33.7	-34.8	20.5	0.00e+00	0	57	0	2739929088	38	4216
2026-01-11 11:49:13.91	354.86	35.82	-33.7	-34.8	20.5	0.00e+00	0	57	0	2746220544	38	4229
2026-01-11 11:49:14.92	354.75	35.60	-33.7	-34.8	20.4	0.00e+00	0	57	0	2751463424	38	4239
2026-01-11 11:49:15.93	354.64	35.37	-33.8	-34.9	20.4	0.00e+00	0	57	0	2757754880	38	4256
2026-01-11 11:49:16.94	354.53	35.15	-33.8	-34.9	20.3	0.00e+00	0	57	0	2762997760	38	4267
2026-01-11 11:49:17.95	354.42	34.93	-33.8	-34.9	20.3	0.00e+00	0	57	0	2768240640	38	4283
2026-01-11 11:49:18.96	354.31	34.72	-33.8	-34.9	20.3	0.00e+00	0	57	0	2774532096	38	4284
2026-01-11 11:49:19.97	354.21	34.50	-33.8	-34.9	20.4	0.00e+00	0	57	0	2779774976	38	4261
2026-01-11 11:49:20.98	354.10	34.28	-33.7	-34.8	20.4	0.00e+00	0	57	0	2786066432	38	4216
2026-01-11 11:49:21.99	354.00	34.07	-33.6	-34.7	20.5	0.00e+00	0	57	0	2791309312	38	4172
2026-01-11 11:49:23.00	353.90	33.86	-33.6	-34.7	20.5	0.00e+00	0	57	0	2796552192	38	4155
2026-01-11 11:49:24.01	353.80	33.64	-33.6	-34.7	20.5	0.00e+00	0	57	0	2802843648	38	4147
2026-01-11 11:49:25.02	353.70	33.43	-33.6	-34.7	20.5	0.00e+00	0	57	0	2808086528	38	4175
2026-01-11 11:49:26.03	353.61	33.23	-33.7	-34.8	20.4	0.00e+00	0	57	0	2814377984	38	4220
2026-01-11 11:49:27.04	353.51	33.02	-33.8	-34.9	20.3	0.00e+00	0	57	0	2819620864	38	4263
2026-01-11 11:49:28.06	353.42	32.81	-33.9	-35.0	20.2	0.00e+00	0	57	0	2825912320	38	4312
2026-01-11 11:49:29.06	353.32	32.61	-34.0	-35.2	20.0	0.00e+00	0	57	0	2831155200	38	4400
2026-01-11 11:49:30.07	353.23	32.40	-34.1	-35.2	20.0	0.00e+00	0	57	0	2836398080	38	4441
2026-01-11 11:49:31.08	353.14	32.20	-34.2	-35.4	19.8	0.00e+00	0	57	0	2842689536	38	4503
2026-01-11 11:49:32.09	353.05	32.00	-34.3	-35.5	19.7	0.00e+00	0	57	0	2847932416	39	4293
2026-01-11 11:49:33.10	352.96	31.80	-34.3	-35.5	19.7	0.00e+00	0	57	0	2854223872	39	4309
2026-01-11 11:49:34.11	352.88	31.60	-34.3	-35.5	19.7	0.00e+00	0	57	0	2859466752	39	4328
2026-01-11 11:49:35.12	352.79	31.41	-34.3	-35.5	19.7	0.00e+00	0	57	0	2864709632	39	4330
2026-01-11 11:49:36.13	352.70	31.21	-34.4	-35.5	19.7	0.00e+00	0	57	0	2871001088	39	4339
2026-01-11 11:49:37.14	352.62	31.02	-34.3	-35.5	19.7	0.00e+00	0	57	0	2876243968	39	4324
2026-01-11 11:49:38.15	352.54	30.82	-34.3	-35.5	19.6	0.00e+00	0	57	0	2882535424	39	4337
2026-01-11 11:49:39.16	352.45	30.63	-34.4	-35.5	19.6	0.00e+00	0	57	0	2887778304	39	4338
2026-01-11 11:49:40.17	352.37	30.44	-34.4	-35.5	19.6	0.00e+00	0	57	0	2893021184	39	4340
2026-01-11 11:49:41.18	352.29	30.25	-34.3	-35.5	19.6	0.00e+00	0	57	0	2899312640	39	4331
2026-01-11 11:49:42.19	352.21	30.06	-34.4	-35.5	19.6	0.00e+00	0	57	0	2904555520	39	4336
2026-01-11 11:49:43.20	352.14	29.87	-34.3	-35.5	19.6	0.00e+00	0	57	0	2910846976	39	4327
2026-01-11 11:49:44.21	352.06	29.69	-34.3	-35.5	19.7	0.00e+00	0	57	0	2916089856	39	4318
2026-01-11 11:49:45.22	351.98	29.50	-34.3	-35.5	19.7	0.00e+00	0	57	0	2922381312	39	4299
2026-01-11 11:49:46.23	351.91	29.32	-34.2	-35.4	19.7	0.00e+00	0	57	0	2927624192	39	4273
2026-01-11 11:49:47.24	351.83	29.14	-34.2	-35.4	19.8	0.00e+00	0	57	0	2933915648	39	4253
2026-01-11 11:49:48.24	351.76	28.96	-34.2	-35.4	19.7	0.00e+00	0	57	0	2939158528	39	4244
2026-01-11 11:49:49.25	351.69	28.77	-34.1	-35.3	19.8	0.00e+00	0	57	0	2944401408	39	4214
2026-01-11 11:49:50.26	351.62	28.60	-34.1	-35.3	19.8	0.00e+00	0	57	0	2950692864	39	4214
2026-01-11 11:49:51.27	351.55	28.42	-34.1	-35.2	19.8	0.00e+00	0	57	0	2955935744	39	4193
2026-01-11 11:49:52.28	351.48	28.24	-34.1	-35.2	19.8	0.00e+00	0	57	0	2962227200	39	4188
2026-01-11 11:49:53.29	351.41	28.06	-34.1	-35.2	19.8	0.00e+00	0	57	0	2967470080	39	4180
2026-01-11 11:49:54.30	351.34	27.89	-34.1	-35.2	19.8	0.00e+00	0	57	0	2972712960	39	4176
2026-01-11 11:49:55.31	351.27	27.71	-34.1	-35.2	19.8	0.00e+00	0	57	0	2979004416	39	4176
2026-01-11 11:49:56.32	351.20	27.54	-34.1	-35.2	19.8	0.00e+00	0	57	0	2984247296	39	4175
2026-01-11 11:49:57.33	351.14	27.37	-34.0	-35.2	19.8	0.00e+00	0	57	0	2990538752	39	4171
2026-01-11 11:49:58.34	351.07	27.20	-34.0	-35.2	19.8	0.00e+00	0	57	0	2995781632	39	4156
2026-01-11 11:49:59.35	351.01	27.03	-34.1	-35.2	19.8	0.00e+00	0	57	0	3001024512	39	4180
2026-01-11 11:50:00.36	350.94	26.86	-34.0	-35.2	19.8	0.00e+00	0	57	0	3007315968	39	4182
2026-01-11 11:50:01.37	350.88	26.69	-34.1	-35.2	19.7	0.00e+00	0	57	0	3012558848	39	4178
2026-01-11 11:50:02.39	350.82	26.52	-34.0	-35.2	19.7	0.00e+00	0	57	0	3018850304	39	4177
2026-01-11 11:50:03.39	350.75	26.36	-34.1	-35.2	19.7	0.00e+00	0	57	0	3024093184	39	4189
2026-01-11 11:50:04.40	350.69	26.19	-34.1	-35.2	19.7	0.00e+00	0	57	0	3030384640	39	4186
2026-01-11 11:50:05.41	350.63	26.03	-34.1	-35.3	19.6	0.00e+00	0	57	0	3035627520	39	4208
2026-01-11 11:50:06.42	350.57	25.87	-34.1	-35.3	19.6	0.00e+00	0	57	0	3040870400	39	4207
2026-01-11 11:50:07.43	350.51	25.70	-34.1	-35.3	19.6	0.00e+00	0	57	0	3047161856	39	4204
2026-01-11 11:50:08.44	350.45	25.54	-34.1	-35.3	19.6	0.00e+00	0	57	0	3052404736	39	4216
2026-01-11 11:50:09.45	350.40	25.38	-34.1	-35.3	19.6	0.00e+00	0	57	0	3058696192	39	4209
2026-01-11 11:50:10.46	350.34	25.22	-34.1	-35.3	19.5	0.00e+00	0	57	0	3063939072	39	4214
2026-01-11 11:50:11.47	350.28	25.07	-34.1	-35.3	19.5	0.00e+00	0	57	0	3070230528	39	4214
2026-01-11 11:50:12.49	350.23	24.91	-34.2	-35.3	19.5	0.00e+00	0	57	0	3075473408	39	4237
2026-01-11 11:50:13.50	350.17	24.75	-34.2	-35.4	19.4	0.00e+00	0	57	0	3080716288	39	4246
2026-01-11 11:50:14.50	350.12	24.60	-34.2	-35.4	19.4	0.00e+00	0	57	0	3087007744	39	4251
2026-01-11 11:50:15.51	350.06	24.44	-34.2	-35.4	19.3	0.00e+00	0	57	0	3092250624	39	4271
2026-01-11 11:50:16.52	350.01	24.29	-34.3	-35.5	19.3	0.00e+00	0	57	0	3098542080	39	4296
2026-01-11 11:50:17.53	349.95	24.14	-34.3	-35.5	19.2	0.00e+00	0	57	0	3103784960	39	4310
2026-01-11 11:50:18.55	349.90	23.98	-34.5	-35.7	19.0	0.00e+00	0	57	0	3109027840	39	4401
2026-01-11 11:50:19.56	349.85	23.83	-34.4	-35.6	19.0	0.00e+00	0	57	0	3115319296	39	4368
2026-01-11 11:50:20.57	349.80	23.68	-34.5	-35.7	18.9	0.00e+00	0	57	0	3120562176	39	4431
2026-01-11 11:50:21.58	349.75	23.53	-34.7	-36.0	18.5	0.00e+00	0	57	0	3126853632	39	4576
2026-01-11 11:50:22.59	349.70	23.38	-34.6	-35.9	18.5	0.00e+00	0	57	0	3132096512	40	4274
2026-01-11 11:50:23.60	349.65	23.23	-34.5	-35.8	18.4	0.00e+00	0	57	0	3138387968	40	4233
2026-01-11 11:50:24.61	349.60	23.09	-34.7	-36.0	18.1	0.00e+00	0	57	0	3143630848	40	4334
2026-01-11 11:50:25.61	349.55	22.94	-34.9	-36.4	17.7	0.00e+00	0	57	0	3148873728	40	4496
2026-01-11 11:50:26.62	349.50	22.80	-34.9	-36.4	17.6	0.00e+00	0	57	0	3155165184	40	4494
2026-01-11 11:50:27.63	349.45	22.65	-34.7	-36.2	17.7	0.00e+00	0	57	0	3160408064	40	4413
2026-01-11 11:50:28.64	349.40	22.51	-34.6	-36.1	17.7	0.00e+00	0	57	0	3166699520	40	4342
2026-01-11 11:50:29.65	349.36	22.37	-34.5	-35.9	17.7	0.00e+00	0	57	0	3171942400	40	4290
2026-01-11 11:50:30.66	349.31	22.22	-34.5	-36.0	17.6	0.00e+00	0	57	0	3177185280	40	4292
2026-01-11 11:50:31.67	349.26	22.08	-34.5	-35.9	17.6	0.00e+00	0	57	0	3183476736	40	4282
2026-01-11 11:50:32.68	349.22	21.94	-34.6	-36.1	17.4	0.00e+00	0	57	0	3188719616	40	4346
2026-01-11 11:50:33.69	349.17	21.80	-34.9	-36.5	16.9	0.00e+00	0	57	0	3195011072	40	4554
2026-01-11 11:50:34.70	349.13	21.66	-35.4	-37.1	16.2	0.00e+00	0	57	0	3200253952	41	4608
2026-01-11 11:50:35.71	349.08	21.52	-36.1	-38.0	15.1	0.00e+00	0	57	0	3205496832	42	4830
2026-01-11 11:50:36.72	349.04	21.39	-37.1	-39.2	13.8	5.70e-06	0	57	0	3211788288	44	4981
2026-01-11 11:50:37.73	348.99	21.25	-37.9	-40.6	12.1	1.38e-04	0	57	0	3217031168	46	5167
2026-01-11 11:50:38.74	348.95	21.11	-38.7	-42.0	10.4	2.21e-03	0	57	0	3223322624	47	5758
2026-01-11 11:50:39.75	348.91	20.98	-39.4	-43.6	8.6	3.08e-02	0	57	0	3228565504	49	6168
2026-01-11 11:50:40.77	348.87	20.84	-40.0	-45.2	6.8	1.25e-01	0	57	0	3234856960	50	7034
2026-01-11 11:50:41.77	348.82	20.71	-40.3	-46.9	5.4	5.67e-01	0	57	0	3239051264	51	8038
2026-01-11 11:50:42.78	348.78	20.57	-40.4	-48.3	4.5	7.93e-01	0	57	0	3240099840	51	9461
2026-01-11 11:50:43.79	348.74	20.44	-40.5	-49.7	4.1	8.39e-01	0	57	0	3240099840	51	11124
2026-01-11 11:50:44.80	348.70	20.31	-40.6	-50.7	3.8	8.43e-01	0	57	104	3240099840	51	12509
2026-01-11 11:50:45.81	348.66	20.18	-40.6	-51.4	3.8	8.45e-01	0	57	104	3240099840	51	13532
2026-01-11 11:50:46.82	348.62	20.05	-40.7	-51.9	3.8	8.46e-01	0	57	104	3240099840	51	14367
2026-01-11 11:50:47.83	348.58	19.92	-40.7	-52.2	3.8	8.46e-01	0	57	104	3240099840	52	13925
2026-01-11 11:50:48.84	348.54	19.79	-40.8	-52.4	3.8	8.46e-01	0	57	104	3240099840	52	14227
2026-01-11 11:50:49.85	348.50	19.66	-40.8	-52.5	3.8	8.47e-01	0	57	104	3240099840	52	14494
2026-01-11 11:50:50.86	348.46	19.53	-40.8	-52.6	3.8	8.46e-01	0	57	104	3240099840	52	14606
2026-01-11 11:50:51.87	348.43	19.40	-40.9	-52.5	3.8	8.46e-01	0	57	104	3240099840	52	14437
2026-01-11 11:50:52.88	348.39	19.28	-40.8	-52.5	3.8	8.46e-01	0	57	104	3240099840	52	14407
2026-01-11 11:50:53.89	348.35	19.15	-40.8	-52.5	3.8	8.46e-01	0	57	104	3240099840	52	14464
2026-01-11 11:50:54.90	348.31	19.03	-40.9	-52.6	3.8	8.46e-01	0	57	104	3240099840	52	14561
2026-01-11 11:50:55.91	348.28	18.90	-40.9	-52.6	3.8	8.46e-01	0	57	104	3240099840	52	14677
2026-01-11 11:50:56.92	348.24	18.78	-40.7	-52.6	3.8	8.46e-01	0	57	104	3240099840	52	14658
2026-01-11 11:50:57.93	348.20	18.65	-40.7	-52.5	3.8	8.46e-01	0	57	104	3240099840	52	14409
2026-01-11 11:50:58.94	348.17	18.53	-40.6	-52.5	3.8	8.46e-01	0	57	104	3240099840	52	14423
2026-01-11 11:50:59.95	348.13	18.41	-40.9	-52.6	3.8	8.46e-01	0	57	104	3240099840	52	14548
2026-01-11 11:51:00.96	348.10	18.28	-41.5	-53.2	3.8	8.46e-01	0	57	104	3240099840	53	14800
2026-01-11 11:51:01.97	348.06	18.16	-40.8	-52.5	3.8	8.47e-01	0	57	104	3240099840	53	13713
2026-01-11 11:51:02.98	348.03	18.04	-40.7	-52.5	3.8	8.47e-01	0	57	104	3240099840	53	13587
2026-01-11 11:51:03.99	347.99	17.92	-40.7	-52.4	3.8	8.45e-01	0	57	104	3240099840	53	13520
2026-01-11 11:51:05.00	347.96	17.80	-40.7	-52.4	3.8	8.45e-01	0	57	104	3240099840	53	13495
2026-01-11 11:51:06.01	347.93	17.68	-40.9	-52.5	3.8	8.45e-01	0	57	104	3240099840	53	13709
2026-01-11 11:51:07.01	347.89	17.57	-40.7	-52.4	3.8	8.46e-01	0	57	104	3240099840	53	13532
2026-01-11 11:51:08.02	347.86	17.45	-41.4	-53.2	3.8	8.46e-01	0	57	104	3240099840	53	14718
2026-01-11 11:51:09.03	347.83	17.33	-40.6	-52.4	3.8	8.46e-01	0	57	104	3240099840	53	13565
2026-01-11 11:51:10.04	347.79	17.21	-41.3	-52.8	3.8	8.46e-01	0	57	104	3240099840	53	14175
2026-01-11 11:51:11.05	347.76	17.10	-41.1	-52.7	3.8	8.46e-01	0	57	104	3240099840	53	13992
2026-01-11 11:51:12.06	347.73	16.98	-41.3	-52.9	3.8	8.46e-01	0	57	104	3240099840	53	14274
2026-01-11 11:51:13.07	347.70	16.87	-41.4	-53.0	3.8	8.46e-01	0	57	104	3240099840	53	14452
2026-01-11 11:51:14.08	347.67	16.75	-41.5	-53.3	3.8	8.46e-01	0	57	104	3240099840	53	14908
2026-01-11 11:51:15.09	347.64	16.64	-41.4	-53.1	3.8	8.46e-01	0	57	104	3240099840	53	14610
2026-01-11 11:51:16.10	347.60	16.53	-41.5	-53.1	3.8	8.47e-01	0	57	104	3240099840	53	14653
2026-01-11 11:51:17.12	347.57	16.41	-41.4	-53.1	3.8	8.47e-01	0	57	104	3240099840	53	14694
2026-01-11 11:51:18.13	347.54	16.30	-41.3	-53.0	3.8	8.47e-01	0	57	104	3240099840	53	14480
2026-01-11 11:51:19.14	347.51	16.19	-41.4	-53.1	3.8	8.46e-01	0	57	104	3240099840	53	14579
2026-01-11 11:51:20.15	347.48	16.07	-41.3	-53.0	3.8	8.46e-01	0	57	104	3240099840	53	14416
2026-01-11 11:51:21.16	347.45	15.96	-41.5	-53.2	3.8	8.46e-01	0	57	104	3240099840	53	14840
2026-01-11 11:51:22.17	347.42	15.85	-41.4	-53.2	3.8	8.46e-01	0	57	104	3240099840	53	14806
2026-01-11 11:51:23.18	347.39	15.74	-41.5	-53.2	3.8	8.46e-01	0	57	104	3240099840	53	14819
