passes_logs/2026/01/11/R2.0S_Moscow/R2.0S_Moscow__20260111_132542_FENGYUN_3E_rec.log

#Pass ID: 20260111_132542_FENGYUN 3E
#Satellite: FENGYUN 3E
#Configuration: FENGYUN 3E
#almurnet v.1.7.20251203
#Start time: 2026-01-11 13:34:26

#Version: 2.2.20231116
#Station: R2.0S_Moscow
#Location: 37.707566 lon 55.798166 lat
#TLE: 1 49008U 21062A   26010.98903141  .00000148  00000+0  90257-4 0  9995
#TLE: 2 49008  98.7490  16.1644 0001865 146.3673 213.7622 14.19884943234274

#Time	Az	El	Level	Level2	SNR	BER	BlckErr	Temp	State	Recorded	gain1	gain2
2026-01-11 13:34:26.02	16.86	33.92	-45.0	-56.7	3.8	8.47e-01	0	56	0	0	60	14837
2026-01-11 13:34:27.02	16.59	33.77	-45.8	-56.8	3.8	8.45e-01	0	56	104	0	62	12601
2026-01-11 13:34:28.03	16.32	33.61	-45.8	-56.8	3.8	8.45e-01	0	56	104	0	62	12642
2026-01-11 13:34:29.04	16.06	33.45	-45.7	-56.8	3.8	8.45e-01	0	56	104	0	62	12532
2026-01-11 13:34:30.05	15.80	33.29	-45.7	-56.7	3.8	8.46e-01	0	56	104	0	62	12378
2026-01-11 13:34:31.06	15.54	33.13	-45.3	-54.3	3.8	8.46e-01	0	56	104	0	61	10037
2026-01-11 13:34:32.07	15.28	32.98	-44.6	-50.6	5.2	8.16e-01	0	56	104	0	59	7293
2026-01-11 13:34:33.08	15.02	32.82	-45.4	-55.9	3.8	8.46e-01	0	56	104	0	60	12721
2026-01-11 13:34:34.09	14.77	32.66	-45.3	-55.7	3.8	8.47e-01	0	56	104	0	60	12440
2026-01-11 13:34:35.10	14.52	32.51	-45.3	-56.0	3.8	8.45e-01	0	57	104	0	60	12865
2026-01-11 13:34:36.12	14.27	32.35	-45.3	-55.9	3.8	8.47e-01	0	57	104	0	60	12691
2026-01-11 13:34:37.13	14.03	32.19	-45.3	-55.7	3.8	8.46e-01	0	56	104	0	60	12416
2026-01-11 13:34:38.14	13.79	32.03	-45.3	-55.6	3.8	8.47e-01	0	56	104	0	60	12308
2026-01-11 13:34:39.15	13.55	31.88	-45.3	-55.7	3.8	8.46e-01	0	56	104	0	60	12416
2026-01-11 13:34:40.16	13.31	31.72	-45.3	-55.8	3.8	8.46e-01	0	56	104	0	60	12549
2026-01-11 13:34:41.17	13.07	31.57	-45.3	-55.8	3.8	8.46e-01	0	57	104	0	60	12599
2026-01-11 13:34:42.18	12.84	31.41	-45.3	-55.9	3.8	8.47e-01	0	56	104	0	60	12687
2026-01-11 13:34:43.19	12.61	31.26	-45.3	-56.0	3.8	8.47e-01	0	56	104	0	60	12816
2026-01-11 13:34:44.20	12.38	31.10	-45.3	-56.1	3.8	8.46e-01	0	56	104	0	60	12972
2026-01-11 13:34:45.21	12.16	30.95	-45.3	-56.2	3.8	8.46e-01	0	57	104	0	60	13189
2026-01-11 13:34:46.22	11.93	30.79	-45.3	-56.2	3.8	8.46e-01	0	56	104	0	60	13174
2026-01-11 13:34:47.23	11.71	30.64	-45.3	-56.1	3.8	8.46e-01	0	56	104	0	60	13070
2026-01-11 13:34:48.24	11.49	30.49	-45.3	-56.1	3.8	8.47e-01	0	57	104	0	60	13033
2026-01-11 13:34:49.25	11.27	30.33	-45.3	-56.2	3.8	8.46e-01	0	56	104	0	60	13204
2026-01-11 13:34:50.26	11.06	30.18	-45.3	-56.2	3.8	8.46e-01	0	56	104	0	60	13124
2026-01-11 13:34:51.27	10.84	30.03	-45.3	-56.0	3.8	8.46e-01	0	57	104	0	60	12957
2026-01-11 13:34:52.28	10.63	29.88	-45.3	-55.8	3.8	8.46e-01	0	57	104	0	60	12552
2026-01-11 13:34:53.29	10.42	29.73	-45.2	-55.6	3.8	8.46e-01	0	57	104	0	60	12363
2026-01-11 13:34:54.30	10.22	29.57	-45.3	-55.9	3.8	8.46e-01	0	56	104	0	60	12745
2026-01-11 13:34:55.31	10.01	29.42	-45.3	-56.3	3.8	8.46e-01	0	57	104	0	60	13318
2026-01-11 13:34:56.32	9.81	29.27	-45.3	-56.4	3.8	8.46e-01	0	56	104	0	60	13436
2026-01-11 13:34:57.33	9.60	29.12	-45.3	-56.4	3.8	8.46e-01	0	57	104	0	60	13417
2026-01-11 13:34:58.34	9.40	28.97	-45.3	-56.3	3.8	8.46e-01	0	56	104	0	60	13276
2026-01-11 13:34:59.35	9.21	28.82	-45.3	-56.1	3.8	8.47e-01	0	57	104	0	60	13083
2026-01-11 13:35:00.36	9.01	28.68	-45.3	-55.9	3.8	8.45e-01	0	57	104	0	60	12768
2026-01-11 13:35:01.37	8.82	28.53	-45.2	-55.6	3.8	8.47e-01	0	57	104	0	60	12243
2026-01-11 13:35:02.39	8.62	28.38	-45.1	-54.8	3.8	8.47e-01	0	57	104	0	60	11172
2026-01-11 13:35:03.40	8.43	28.23	-44.9	-53.2	4.1	8.43e-01	0	57	104	0	60	9386
2026-01-11 13:35:04.41	8.24	28.08	-44.5	-51.3	4.7	8.10e-01	0	57	0	0	60	7472
2026-01-11 13:35:05.42	8.06	27.94	-44.0	-49.1	6.0	5.53e-01	0	57	0	1048576	59	6195
2026-01-11 13:35:06.43	7.87	27.79	-43.3	-47.5	7.4	1.29e-01	0	57	0	8388608	57	5732
2026-01-11 13:35:07.44	7.69	27.64	-42.8	-46.4	8.5	5.28e-02	0	57	0	15728640	56	5364
2026-01-11 13:35:08.45	7.51	27.50	-42.5	-45.9	9.0	2.91e-02	0	57	0	23068672	56	5064
2026-01-11 13:35:09.46	7.33	27.35	-42.5	-45.8	9.0	2.40e-02	0	57	0	30408704	56	5036
2026-01-11 13:35:10.47	7.15	27.21	-42.8	-46.4	8.5	3.66e-02	0	57	0	37748736	56	5373
2026-01-11 13:35:11.48	6.97	27.07	-43.2	-47.3	7.6	8.54e-02	0	57	0	45088768	56	5970
2026-01-11 13:35:12.49	6.79	26.92	-43.6	-48.1	6.9	1.57e-01	0	57	0	52428800	56	6540
2026-01-11 13:35:13.50	6.62	26.78	-43.6	-48.1	6.8	1.94e-01	0	57	0	59768832	56	6557
2026-01-11 13:35:14.51	6.45	26.64	-42.9	-46.7	8.2	8.76e-02	0	57	0	66060288	56	5570
2026-01-11 13:35:15.52	6.28	26.49	-41.3	-44.0	10.8	4.55e-03	0	57	0	74448896	53	4853
2026-01-11 13:35:16.53	6.11	26.35	-39.7	-41.7	13.4	4.57e-05	0	57	0	81788928	50	4405
2026-01-11 13:35:17.54	5.94	26.21	-37.9	-39.5	15.4	0.00e+00	0	57	0	88080384	46	4305
2026-01-11 13:35:18.55	5.78	26.07	-36.7	-38.0	17.0	0.00e+00	0	57	0	95420416	44	4070
2026-01-11 13:35:19.56	5.61	25.93	-35.7	-36.9	17.9	0.00e+00	0	57	0	102760448	42	4029
2026-01-11 13:35:20.58	5.45	25.79	-35.2	-36.4	18.4	0.00e+00	0	57	0	110100480	41	4013
2026-01-11 13:35:21.59	5.28	25.65	-36.0	-37.3	17.6	0.00e+00	0	57	0	117440512	41	4458
2026-01-11 13:35:22.60	5.12	25.51	-36.8	-37.8	17.3	0.00e+00	0	57	0	124780544	42	4475
2026-01-11 13:35:23.60	4.97	25.37	-40.0	-42.0	13.1	3.16e-03	0	57	0	132120576	50	4573
2026-01-11 13:35:24.62	4.81	25.24	-35.1	-36.2	18.5	0.00e+00	0	57	0	139460608	41	3951
2026-01-11 13:35:25.62	4.65	25.10	-36.3	-37.5	17.2	0.00e+00	0	57	0	146800640	43	4086
2026-01-11 13:35:26.63	4.50	24.96	-35.0	-36.1	18.6	0.00e+00	0	57	0	154140672	40	4141
2026-01-11 13:35:27.64	4.35	24.83	-34.9	-36.0	18.7	0.00e+00	0	57	0	161480704	40	4073
2026-01-11 13:35:28.65	4.20	24.69	-34.8	-35.9	18.7	0.00e+00	0	57	0	168820736	40	4043
2026-01-11 13:35:29.66	4.04	24.55	-34.8	-36.0	18.7	0.00e+00	0	57	0	176160768	40	4064
2026-01-11 13:35:30.67	3.90	24.42	-34.9	-36.0	18.7	0.00e+00	0	57	0	183500800	40	4074
2026-01-11 13:35:31.68	3.75	24.29	-34.9	-36.0	18.6	0.00e+00	0	57	0	190840832	40	4086
2026-01-11 13:35:32.69	3.60	24.15	-34.9	-36.1	18.6	0.00e+00	0	57	0	198180864	40	4104
2026-01-11 13:35:33.70	3.46	24.02	-35.0	-36.1	18.5	0.00e+00	0	57	0	205520896	40	4143
2026-01-11 13:35:34.71	3.31	23.88	-35.1	-36.3	18.4	0.00e+00	0	57	0	211812352	40	4194
2026-01-11 13:35:35.72	3.17	23.75	-35.1	-36.3	18.4	0.00e+00	0	57	0	220200960	40	4206
2026-01-11 13:35:36.73	3.03	23.62	-35.1	-36.3	18.3	0.00e+00	0	57	0	227540992	40	4240
2026-01-11 13:35:37.74	2.89	23.49	-35.1	-36.3	18.3	0.00e+00	0	57	0	233832448	40	4228
2026-01-11 13:35:38.75	2.75	23.36	-35.2	-36.4	18.2	0.00e+00	0	57	0	241172480	40	4276
2026-01-11 13:35:39.76	2.61	23.23	-35.3	-36.5	18.1	0.00e+00	0	57	0	248512512	40	4307
2026-01-11 13:35:40.77	2.47	23.10	-35.3	-36.5	18.2	0.00e+00	0	57	0	255852544	40	4298
2026-01-11 13:35:41.78	2.34	22.97	-35.2	-36.4	18.2	0.00e+00	0	57	0	263192576	40	4270
2026-01-11 13:35:42.78	2.20	22.84	-35.2	-36.4	18.2	0.00e+00	0	57	0	270532608	40	4243
2026-01-11 13:35:43.79	2.07	22.71	-35.2	-36.3	18.2	0.00e+00	0	57	0	277872640	40	4238
2026-01-11 13:35:44.80	1.94	22.58	-35.1	-36.3	18.3	0.00e+00	0	57	0	285212672	40	4219
2026-01-11 13:35:45.81	1.81	22.45	-35.1	-36.3	18.3	0.00e+00	0	57	0	292552704	40	4204
2026-01-11 13:35:46.82	1.68	22.33	-35.2	-36.3	18.2	0.00e+00	0	57	0	299892736	40	4238
2026-01-11 13:35:47.83	1.55	22.20	-35.2	-36.4	18.2	0.00e+00	0	57	0	307232768	40	4270
2026-01-11 13:35:48.84	1.42	22.07	-35.3	-36.5	18.1	0.00e+00	0	57	0	314572800	40	4310
2026-01-11 13:35:49.85	1.29	21.95	-35.3	-36.6	18.0	0.00e+00	0	57	0	321912832	40	4348
2026-01-11 13:35:50.86	1.17	21.82	-35.4	-36.6	17.9	0.00e+00	0	57	0	329252864	40	4349
2026-01-11 13:35:51.87	1.04	21.70	-35.4	-36.6	18.0	0.00e+00	0	57	0	336592896	40	4358
2026-01-11 13:35:52.88	0.92	21.57	-35.4	-36.6	17.9	0.00e+00	0	57	0	343932928	40	4381
2026-01-11 13:35:53.89	0.80	21.45	-35.6	-36.8	17.7	0.00e+00	0	57	0	351272960	40	4459
2026-01-11 13:35:54.90	0.68	21.32	-35.5	-36.7	17.8	0.00e+00	0	57	0	358612992	40	4416
2026-01-11 13:35:55.91	0.56	21.20	-35.5	-36.7	17.8	0.00e+00	0	57	0	364904448	40	4398
2026-01-11 13:35:56.92	0.44	21.08	-35.5	-36.7	17.8	0.00e+00	0	57	0	373293056	40	4411
2026-01-11 13:35:57.93	0.32	20.96	-35.6	-36.8	17.7	0.00e+00	0	57	0	380633088	40	4464
2026-01-11 13:35:58.94	0.20	20.84	-35.6	-36.8	17.6	0.00e+00	0	57	0	386924544	40	4476
2026-01-11 13:35:59.95	0.08	20.71	-35.7	-36.9	17.5	0.00e+00	0	57	0	394264576	40	4523
2026-01-11 13:36:00.96	359.97	20.59	-35.7	-37.0	17.4	0.00e+00	0	57	0	401604608	41	4318
2026-01-11 13:36:01.97	359.85	20.47	-35.8	-37.1	17.3	0.00e+00	0	57	0	408944640	41	4376
2026-01-11 13:36:02.98	359.74	20.35	-35.8	-37.1	17.3	0.00e+00	0	57	0	416284672	41	4379
2026-01-11 13:36:03.99	359.63	20.23	-35.9	-37.2	17.2	0.00e+00	0	57	0	423624704	41	4431
2026-01-11 13:36:05.00	359.51	20.11	-36.0	-37.3	17.1	0.00e+00	0	57	0	430964736	41	4469
2026-01-11 13:36:06.01	359.40	20.00	-36.0	-37.3	17.1	0.00e+00	0	57	0	438304768	41	4460
2026-01-11 13:36:07.02	359.29	19.88	-36.0	-37.4	17.0	0.00e+00	0	57	0	445644800	41	4503
2026-01-11 13:36:08.03	359.18	19.76	-36.0	-37.3	17.1	0.00e+00	0	57	0	452984832	41	4471
2026-01-11 13:36:09.04	359.07	19.64	-36.0	-37.3	17.0	0.00e+00	0	57	0	460324864	41	4473
2026-01-11 13:36:10.05	358.97	19.53	-36.0	-37.3	16.9	0.00e+00	0	57	0	467664896	41	4484
2026-01-11 13:36:11.06	358.86	19.41	-36.0	-37.3	16.8	0.00e+00	0	57	0	475004928	41	4493
2026-01-11 13:36:12.07	358.75	19.29	-35.8	-37.1	17.0	0.00e+00	0	57	0	482344960	41	4379
2026-01-11 13:36:13.08	358.65	19.18	-35.9	-37.3	16.8	0.00e+00	0	57	0	489684992	41	4450
2026-01-11 13:36:14.09	358.54	19.06	-35.9	-37.2	16.8	0.00e+00	0	57	0	497025024	41	4439
2026-01-11 13:36:15.10	358.44	18.95	-35.8	-37.2	16.7	0.00e+00	0	57	0	504365056	41	4419
2026-01-11 13:36:16.11	358.34	18.83	-35.9	-37.3	16.6	0.00e+00	0	57	0	510656512	41	4461
2026-01-11 13:36:17.13	358.23	18.72	-35.7	-37.0	16.8	0.00e+00	0	57	0	519045120	41	4335
2026-01-11 13:36:18.13	358.13	18.61	-35.7	-37.1	16.7	0.00e+00	0	57	0	526385152	41	4363
2026-01-11 13:36:19.14	358.03	18.50	-36.0	-37.4	16.4	0.00e+00	0	57	0	532676608	41	4499
2026-01-11 13:36:20.15	357.93	18.38	-36.1	-37.6	16.1	0.00e+00	0	57	0	540016640	41	4615
2026-01-11 13:36:21.16	357.83	18.27	-36.1	-37.6	16.0	0.00e+00	0	57	0	547356672	41	4625
2026-01-11 13:36:22.17	357.74	18.16	-36.2	-37.7	15.8	0.00e+00	0	57	0	554696704	42	4438
2026-01-11 13:36:23.18	357.64	18.05	-36.2	-37.7	15.8	0.00e+00	0	57	0	562036736	42	4409
2026-01-11 13:36:24.19	357.54	17.94	-36.2	-37.6	15.8	0.00e+00	0	57	0	569376768	42	4386
2026-01-11 13:36:25.20	357.45	17.83	-36.2	-37.7	15.7	0.00e+00	0	57	0	576716800	42	4407
2026-01-11 13:36:26.21	357.35	17.72	-36.2	-37.7	15.6	0.00e+00	0	57	0	584056832	42	4412
2026-01-11 13:36:27.22	357.26	17.61	-36.1	-37.6	15.7	0.00e+00	0	57	0	591396864	42	4358
2026-01-11 13:36:28.23	357.16	17.50	-36.0	-37.5	15.8	0.00e+00	0	57	0	598736896	42	4294
2026-01-11 13:36:29.24	357.07	17.39	-35.8	-37.3	15.9	0.00e+00	0	57	0	606076928	42	4217
2026-01-11 13:36:30.25	356.98	17.28	-35.8	-37.2	15.9	0.00e+00	0	57	0	613416960	42	4182
2026-01-11 13:36:31.26	356.88	17.17	-35.7	-37.2	15.9	0.00e+00	0	57	0	620756992	42	4163
2026-01-11 13:36:32.26	356.79	17.07	-35.8	-37.3	15.7	0.00e+00	0	57	0	628097024	42	4227
2026-01-11 13:36:33.27	356.70	16.96	-36.0	-37.5	15.3	0.00e+00	0	57	0	635437056	42	4335
2026-01-11 13:36:34.28	356.61	16.85	-36.2	-37.8	14.9	0.00e+00	0	57	0	642777088	42	4489
2026-01-11 13:36:35.29	356.52	16.75	-36.6	-38.3	14.3	3.40e-06	0	57	0	650117120	42	4757
2026-01-11 13:36:36.31	356.44	16.64	-36.9	-38.8	13.7	5.70e-06	0	57	0	657457152	43	4720
2026-01-11 13:36:37.32	356.35	16.53	-37.5	-39.6	12.9	3.66e-05	0	57	0	663748608	44	4922
2026-01-11 13:36:38.33	356.26	16.43	-38.0	-40.3	12.0	2.20e-04	0	57	0	672137216	45	5018
2026-01-11 13:36:39.34	356.17	16.32	-38.5	-41.3	10.8	1.84e-03	0	57	0	679477248	46	5283
2026-01-11 13:36:40.35	356.09	16.22	-38.9	-42.0	9.9	6.46e-03	0	57	0	685768704	47	5429
2026-01-11 13:36:41.36	356.00	16.12	-39.5	-43.0	8.9	2.39e-02	0	57	0	693108736	48	5779
2026-01-11 13:36:42.37	355.92	16.01	-39.8	-43.9	7.9	6.75e-02	0	57	0	700448768	49	6028
2026-01-11 13:36:43.37	355.83	15.91	-40.2	-45.0	6.7	1.70e-01	0	57	0	707788800	49	6861
2026-01-11 13:36:44.38	355.75	15.81	-40.5	-46.0	5.9	3.41e-01	0	57	0	715128832	50	7256
2026-01-11 13:36:45.39	355.67	15.70	-40.7	-47.0	5.1	7.45e-01	0	57	0	718274560	50	8160
2026-01-11 13:36:46.41	355.59	15.60	-40.8	-47.8	4.7	8.02e-01	0	57	0	719323136	51	8400
2026-01-11 13:36:47.41	355.50	15.50	-40.9	-48.6	4.3	8.26e-01	0	57	0	719323136	51	9260
2026-01-11 13:36:48.42	355.42	15.40	-40.9	-49.3	4.1	8.40e-01	0	57	0	719323136	51	10024
2026-01-11 13:36:49.43	355.34	15.30	-41.0	-50.0	3.9	8.44e-01	0	57	104	719323136	51	10856
2026-01-11 13:36:50.44	355.26	15.20	-40.7	-50.2	3.8	8.45e-01	0	57	104	719323136	51	11049
2026-01-11 13:36:51.45	355.18	15.10	-40.8	-50.9	3.8	8.43e-01	0	57	104	719323136	51	12056
2026-01-11 13:36:52.46	355.10	15.00	-40.9	-51.2	3.8	8.45e-01	0	57	104	719323136	51	12408
2026-01-11 13:36:53.47	355.03	14.90	-40.7	-51.5	3.8	8.44e-01	0	57	104	719323136	51	12894
2026-01-11 13:36:54.48	354.95	14.80	-40.9	-51.6	3.8	8.46e-01	0	57	104	719323136	51	13090
2026-01-11 13:36:55.49	354.87	14.70	-40.8	-51.8	3.8	8.46e-01	0	57	104	719323136	51	13330
2026-01-11 13:36:56.50	354.79	14.60	-41.0	-52.0	3.8	8.46e-01	0	57	104	719323136	51	13627
2026-01-11 13:36:57.51	354.72	14.50	-41.1	-52.0	3.8	8.46e-01	0	57	104	719323136	51	13672
2026-01-11 13:36:58.52	354.64	14.40	-41.0	-51.9	3.8	8.46e-01	0	57	104	719323136	51	13467
2026-01-11 13:36:59.53	354.57	14.31	-41.1	-52.0	3.8	8.48e-01	0	57	104	719323136	51	13653
2026-01-11 13:37:00.54	354.49	14.21	-41.0	-52.0	3.8	8.46e-01	0	57	104	719323136	51	13655
2026-01-11 13:37:01.55	354.42	14.11	-41.0	-52.0	3.8	8.45e-01	0	57	104	719323136	51	13591
2026-01-11 13:37:02.56	354.35	14.01	-40.6	-51.7	3.8	8.42e-01	0	57	104	719323136	51	13169
2026-01-11 13:37:03.57	354.27	13.92	-40.9	-52.0	3.8	8.47e-01	0	57	104	719323136	51	13626
2026-01-11 13:37:04.58	354.20	13.82	-40.7	-51.8	3.8	8.46e-01	0	57	104	719323136	51	13330
2026-01-11 13:37:05.59	354.13	13.73	-40.7	-51.8	3.8	8.45e-01	0	57	104	719323136	51	13342
2026-01-11 13:37:06.60	354.06	13.63	-40.9	-51.9	3.8	8.42e-01	0	57	104	719323136	51	13443
2026-01-11 13:37:07.61	353.99	13.54	-40.6	-51.7	3.8	8.44e-01	0	57	104	719323136	51	13195
2026-01-11 13:37:08.62	353.91	13.44	-40.7	-51.9	3.8	8.45e-01	0	57	104	719323136	51	13420
2026-01-11 13:37:09.63	353.84	13.35	-40.6	-51.5	3.8	8.46e-01	0	57	104	719323136	51	12948
2026-01-11 13:37:10.65	353.77	13.25	-40.4	-51.3	3.9	8.43e-01	0	57	104	719323136	51	12593
2026-01-11 13:37:11.65	353.71	13.16	-40.6	-51.5	3.8	8.41e-01	0	57	104	719323136	51	12833
2026-01-11 13:37:12.66	353.64	13.07	-40.5	-51.4	3.8	8.44e-01	0	57	104	719323136	51	12751
2026-01-11 13:37:13.67	353.57	12.97	-40.2	-51.0	3.9	8.38e-01	0	57	104	719323136	51	12161
2026-01-11 13:37:14.68	353.50	12.88	-40.1	-51.0	3.9	8.37e-01	0	57	104	719323136	51	12111
2026-01-11 13:37:15.69	353.43	12.79	-39.6	-50.9	4.0	8.36e-01	0	57	104	719323136	50	12757
2026-01-11 13:37:16.70	353.37	12.70	-40.2	-51.4	3.9	8.35e-01	0	57	104	719323136	50	13510
2026-01-11 13:37:17.71	353.30	12.60	-40.0	-51.0	4.0	8.37e-01	0	57	104	719323136	50	12915
2026-01-11 13:37:18.72	353.23	12.51	-39.0	-50.4	4.1	8.37e-01	0	57	104	719323136	48	13467
2026-01-11 13:37:19.73	353.17	12.42	-39.4	-50.7	4.1	8.35e-01	0	57	104	719323136	49	13205
2026-01-11 13:37:20.74	353.10	12.33	-38.0	-50.4	4.2	8.31e-01	0	57	104	719323136	46	15211
2026-01-11 13:37:21.75	353.04	12.24	-38.3	-50.3	4.1	8.31e-01	0	57	104	719323136	47	14155
2026-01-11 13:37:22.77	352.97	12.15	-38.7	-50.2	4.2	8.33e-01	0	57	104	719323136	47	13971
2026-01-11 13:37:23.78	352.91	12.06	-39.0	-50.3	4.1	8.31e-01	0	57	104	719323136	47	14066
2026-01-11 13:37:24.79	352.85	11.97	-38.4	-50.4	4.1	8.32e-01	0	57	104	719323136	47	14235
2026-01-11 13:37:25.80	352.78	11.88	-40.7	-51.4	3.9	8.40e-01	0	57	104	719323136	51	12710
2026-01-11 13:37:26.80	352.72	11.79	-40.3	-51.3	3.9	8.41e-01	0	57	104	719323136	51	12552
2026-01-11 13:37:27.82	352.66	11.70	-38.0	-50.1	4.2	8.37e-01	0	57	104	719323136	46	14612
2026-01-11 13:37:28.83	352.60	11.61	-37.8	-50.2	4.2	8.30e-01	0	57	104	719323136	46	14857
2026-01-11 13:37:29.84	352.53	11.53	-40.3	-51.7	3.8	8.46e-01	0	57	104	719323136	50	13980
2026-01-11 13:37:30.84	352.47	11.44	-40.3	-51.7	3.8	8.47e-01	0	57	104	719323136	50	13961
2026-01-11 13:37:31.85	352.41	11.35	-40.4	-51.7	3.8	8.45e-01	0	57	104	719323136	50	13967
2026-01-11 13:37:32.86	352.35	11.26	-40.7	-52.0	3.8	8.46e-01	0	57	104	719323136	50	14387
2026-01-11 13:37:33.87	352.29	11.18	-40.6	-51.7	3.8	8.46e-01	0	57	104	719323136	51	13199
2026-01-11 13:37:34.88	352.23	11.09	-41.0	-52.0	3.8	8.46e-01	0	57	104	719323136	51	13625
2026-01-11 13:37:35.89	352.17	11.00	-40.7	-51.7	3.8	8.46e-01	0	57	104	719323136	51	13250
2026-01-11 13:37:36.90	352.11	10.92	-41.0	-52.0	3.8	8.47e-01	0	57	104	719323136	51	13669
2026-01-11 13:37:37.91	352.06	10.83	-40.7	-51.8	3.8	8.46e-01	0	57	104	719323136	51	13349
2026-01-11 13:37:38.92	352.00	10.75	-40.6	-51.8	3.8	8.47e-01	0	57	104	719323136	51	13287
2026-01-11 13:37:39.93	351.94	10.66	-39.2	-51.2	4.0	8.37e-01	0	57	104	719323136	48	14790
2026-01-11 13:37:40.94	351.88	10.57	-38.8	-50.9	4.0	8.37e-01	0	57	104	719323136	48	14307
2026-01-11 13:37:41.95	351.83	10.49	-38.7	-50.9	4.0	8.38e-01	0	57	104	719323136	48	14256
2026-01-11 13:37:42.96	351.77	10.40	-38.2	-50.6	4.0	8.38e-01	0	57	104	719323136	47	14544
2026-01-11 13:37:43.97	351.71	10.32	-38.6	-50.8	4.1	8.37e-01	0	57	104	719323136	47	14895
2026-01-11 13:37:44.98	351.66	10.24	-40.4	-51.3	3.9	8.39e-01	0	57	104	719323136	50	13284
2026-01-11 13:37:45.99	351.60	10.15	-39.5	-51.0	4.0	8.38e-01	0	57	104	719323136	48	14407
2026-01-11 13:37:47.00	351.55	10.07	-39.0	-51.4	4.0	8.38e-01	0	57	104	719323136	48	15162
2026-01-11 13:37:48.01	351.49	9.99	-40.0	-51.1	4.0	8.39e-01	0	57	104	719323136	49	13867
2026-01-11 13:37:49.00	351.44	9.90	-39.2	-51.0	4.0	8.37e-01	0	57	104	719323136	48	14393
2026-01-11 13:37:50.01	351.38	9.82	-39.3	-50.9	4.0	8.35e-01	0	57	104	719323136	48	14253
2026-01-11 13:37:51.02	351.33	9.74	-39.6	-51.1	4.0	8.39e-01	0	57	104	719323136	48	14554
2026-01-11 13:37:52.03	351.28	9.66	-39.7	-51.1	4.0	8.36e-01	0	57	104	719323136	49	13754
2026-01-11 13:37:53.04	351.22	9.57	-38.7	-51.0	4.0	8.37e-01	0	57	104	719323136	48	14483
2026-01-11 13:37:54.05	351.17	9.49	-40.1	-51.0	4.0	8.38e-01	0	57	104	719323136	49	13689
2026-01-11 13:37:55.06	351.12	9.41	-41.0	-52.0	3.8	8.47e-01	0	57	104	719323136	51	13590
2026-01-11 13:37:56.07	351.06	9.33	-40.6	-51.7	3.8	8.47e-01	0	57	104	719323136	51	13225
2026-01-11 13:37:57.08	351.01	9.25	-41.0	-51.9	3.8	8.46e-01	0	57	104	719323136	51	13526
2026-01-11 13:37:58.09	350.96	9.17	-40.7	-51.8	3.8	8.46e-01	0	57	104	719323136	51	13309
2026-01-11 13:37:59.10	350.91	9.09	-41.2	-52.1	3.8	8.46e-01	0	57	104	719323136	51	13795
2026-01-11 13:38:00.11	350.86	9.01	-40.8	-51.7	3.8	8.46e-01	0	57	104	719323136	52	12454
2026-01-11 13:38:01.12	350.81	8.93	-41.1	-52.1	3.8	8.46e-01	0	57	104	719323136	52	13012
2026-01-11 13:38:02.13	350.76	8.85	-40.8	-51.7	3.8	8.46e-01	0	57	104	719323136	52	12504
2026-01-11 13:38:03.14	350.71	8.77	-40.9	-51.9	3.8	8.45e-01	0	57	104	719323136	52	12727
2026-01-11 13:38:04.14	350.66	8.69	-40.9	-52.0	3.8	8.47e-01	0	57	104	719323136	52	12813
2026-01-11 13:38:05.15	350.61	8.61	-40.9	-51.9	3.8	8.47e-01	0	57	104	719323136	52	12732
2026-01-11 13:38:06.16	350.56	8.53	-41.0	-52.0	3.8	8.47e-01	0	57	104	719323136	52	12844
2026-01-11 13:38:07.18	350.51	8.45	-40.9	-51.9	3.8	8.46e-01	0	57	104	719323136	52	12730
2026-01-11 13:38:08.19	350.46	8.37	-41.0	-51.9	3.8	8.46e-01	0	57	104	719323136	52	12784
2026-01-11 13:38:09.20	350.41	8.29	-40.8	-51.9	3.8	8.46e-01	0	57	104	719323136	52	12675
2026-01-11 13:38:10.21	350.36	8.21	-41.1	-52.0	3.8	8.46e-01	0	57	104	719323136	52	12885
2026-01-11 13:38:11.21	350.31	8.14	-40.9	-51.9	3.8	8.47e-01	0	57	104	719323136	52	12699
2026-01-11 13:38:12.22	350.27	8.06	-40.9	-51.9	3.8	8.47e-01	0	57	104	719323136	52	12778
2026-01-11 13:38:13.23	350.22	7.98	-41.1	-52.1	3.8	8.46e-01	0	57	104	719323136	52	13026
2026-01-11 13:38:14.25	350.17	7.90	-41.2	-52.2	3.8	8.47e-01	0	57	104	719323136	52	13152
2026-01-11 13:38:15.25	350.13	7.83	-44.0	-54.9	3.8	8.46e-01	0	57	104	719323136	57	13488
2026-01-11 13:38:16.27	350.08	7.75	-45.2	-56.2	3.8	8.46e-01	0	57	104	719323136	60	13191
2026-01-11 13:38:17.28	350.03	7.67	-45.3	-56.4	3.8	8.46e-01	0	57	104	719323136	60	13545
2026-01-11 13:38:18.29	349.99	7.60	-45.4	-56.5	3.8	8.46e-01	0	57	104	719323136	60	13636
2026-01-11 13:38:19.30	349.94	7.52	-45.5	-56.6	3.8	8.46e-01	0	57	104	719323136	60	13755
2026-01-11 13:38:20.31	349.90	7.44	-45.5	-56.6	3.8	8.46e-01	0	57	104	719323136	60	13779
2026-01-11 13:38:21.32	349.85	7.37	-45.6	-56.6	3.8	8.46e-01	0	57	104	719323136	60	13840
2026-01-11 13:38:22.33	349.80	7.29	-45.6	-56.6	3.8	8.45e-01	0	58	104	719323136	60	13873
2026-01-11 13:38:23.34	349.76	7.22	-45.5	-56.6	3.8	8.47e-01	0	57	104	719323136	60	13792
2026-01-11 13:38:24.35	349.72	7.14	-45.6	-56.6	3.8	8.46e-01	0	58	104	719323136	60	13806
2026-01-11 13:38:25.36	349.67	7.07	-45.5	-56.5	3.8	8.46e-01	0	58	104	719323136	60	13688
2026-01-11 13:38:26.38	349.63	6.99	-45.5	-56.5	3.8	8.45e-01	0	57	104	719323136	60	13669
2026-01-11 13:38:27.39	349.58	6.92	-45.5	-56.5	3.8	8.47e-01	0	57	104	719323136	60	13604
2026-01-11 13:38:28.40	349.54	6.84	-45.5	-56.5	3.8	8.46e-01	0	57	104	719323136	60	13652
2026-01-11 13:38:29.41	349.50	6.77	-45.5	-56.5	3.8	8.47e-01	0	57	104	719323136	60	13635
2026-01-11 13:38:30.42	349.45	6.69	-45.5	-56.4	3.8	8.46e-01	0	57	104	719323136	60	13523
2026-01-11 13:38:31.43	349.41	6.62	-45.4	-56.4	3.8	8.46e-01	0	57	104	719323136	60	13545
2026-01-11 13:38:32.44	349.37	6.55	-45.5	-56.5	3.8	8.45e-01	0	57	104	719323136	60	13570
2026-01-11 13:38:33.45	349.33	6.47	-45.5	-56.5	3.8	8.47e-01	0	57	104	719323136	60	13576
2026-01-11 13:38:34.46	349.28	6.40	-45.4	-56.4	3.8	8.46e-01	0	57	104	719323136	60	13558
2026-01-11 13:38:35.47	349.24	6.33	-45.5	-56.4	3.8	8.46e-01	0	57	104	719323136	60	13561
2026-01-11 13:38:36.48	349.20	6.25	-45.5	-56.4	3.8	8.45e-01	0	57	104	719323136	60	13539
2026-01-11 13:38:37.49	349.16	6.18	-45.4	-56.4	3.8	8.46e-01	0	57	104	719323136	60	13533
2026-01-11 13:38:38.50	349.12	6.11	-45.5	-56.4	3.8	8.46e-01	0	57	104	719323136	60	13561
2026-01-11 13:38:39.52	349.08	6.04	-45.5	-56.4	3.8	8.47e-01	0	57	104	719323136	60	13496
2026-01-11 13:38:40.53	349.04	5.96	-45.5	-56.4	3.8	8.46e-01	0	58	104	719323136	60	13497
2026-01-11 13:38:41.53	349.00	5.89	-45.5	-56.4	3.8	8.46e-01	0	57	104	719323136	60	13518
2026-01-11 13:38:42.55	348.95	5.82	-45.5	-56.4	3.8	8.47e-01	0	57	104	719323136	60	13545
2026-01-11 13:38:43.56	348.91	5.75	-45.4	-56.4	3.8	8.46e-01	0	57	104	719323136	60	13525
2026-01-11 13:38:44.57	348.87	5.68	-45.4	-56.4	3.8	8.47e-01	0	57	104	719323136	60	13551
2026-01-11 13:38:45.58	348.83	5.61	-45.4	-56.4	3.8	8.47e-01	0	58	104	719323136	60	13519
2026-01-11 13:38:46.59	348.80	5.53	-45.4	-56.4	3.8	8.45e-01	0	57	104	719323136	60	13546
2026-01-11 13:38:47.60	348.76	5.46	-45.4	-56.5	3.8	8.45e-01	0	57	104	719323136	60	13589
2026-01-11 13:38:48.61	348.72	5.39	-45.4	-56.4	3.8	8.46e-01	0	57	104	719323136	60	13472
2026-01-11 13:38:49.62	348.68	5.32	-45.4	-56.4	3.8	8.45e-01	0	57	104	719323136	60	13523
2026-01-11 13:38:50.63	348.64	5.25	-45.4	-56.4	3.8	8.48e-01	0	58	104	719323136	60	13540
2026-01-11 13:38:51.64	348.60	5.18	-45.4	-56.4	3.8	8.46e-01	0	57	104	719323136	60	13540
2026-01-11 13:38:52.65	348.56	5.11	-45.4	-56.4	3.8	8.47e-01	0	58	104	719323136	60	13513
2026-01-11 13:38:53.66	348.53	5.04	-45.4	-56.4	3.8	8.45e-01	0	58	104	719323136	60	13521
2026-01-11 13:38:54.67	348.49	4.97	-45.4	-56.4	3.8	8.46e-01	0	57	104	719323136	60	13539
2026-01-11 13:38:55.68	348.45	4.90	-45.4	-56.4	3.8	8.46e-01	0	57	104	719323136	60	13554
2026-01-11 13:38:56.69	348.41	4.83	-45.4	-56.4	3.8	8.47e-01	0	58	104	719323136	60	13491
2026-01-11 13:38:57.70	348.38	4.76	-45.4	-56.4	3.8	8.47e-01	0	58	104	719323136	60	13452
2026-01-11 13:38:58.71	348.34	4.70	-45.4	-56.5	3.8	8.47e-01	0	58	104	719323136	60	13573
2026-01-11 13:38:59.72	348.30	4.63	-45.4	-56.4	3.8	8.46e-01	0	57	104	719323136	60	13519
2026-01-11 13:39:00.73	348.27	4.56	-45.4	-56.4	3.8	8.46e-01	0	57	104	719323136	60	13476
2026-01-11 13:39:01.74	348.23	4.49	-45.4	-56.4	3.8	8.47e-01	0	57	104	719323136	60	13505
2026-01-11 13:39:02.75	348.19	4.42	-45.4	-56.4	3.8	8.46e-01	0	58	104	719323136	60	13519
2026-01-11 13:39:03.77	348.16	4.35	-45.4	-56.4	3.8	8.46e-01	0	58	104	719323136	60	13493
2026-01-11 13:39:04.78	348.12	4.28	-45.4	-56.4	3.8	8.46e-01	0	57	104	719323136	60	13475
2026-01-11 13:39:05.79	348.08	4.22	-45.4	-56.4	3.8	8.46e-01	0	57	104	719323136	60	13477
2026-01-11 13:39:06.80	348.05	4.15	-45.4	-56.4	3.8	8.46e-01	0	57	104	719323136	60	13426
2026-01-11 13:39:07.81	348.01	4.08	-45.4	-56.4	3.8	8.46e-01	0	57	104	719323136	60	13449
2026-01-11 13:39:08.82	347.98	4.01	-45.4	-56.4	3.8	8.46e-01	0	58	104	719323136	60	13490
2026-01-11 13:39:09.83	347.94	3.95	-45.4	-56.4	3.8	8.46e-01	0	57	104	719323136	60	13483
2026-01-11 13:39:10.84	347.91	3.88	-45.4	-56.4	3.8	8.46e-01	0	58	104	719323136	60	13478
2026-01-11 13:39:11.85	347.87	3.81	-45.4	-56.4	3.8	8.46e-01	0	58	104	719323136	60	13510
2026-01-11 13:39:12.86	347.84	3.75	-45.4	-56.4	3.8	8.46e-01	0	58	104	719323136	60	13445
2026-01-11 13:39:13.87	347.81	3.68	-45.4	-56.4	3.8	8.46e-01	0	57	104	719323136	60	13469
2026-01-11 13:39:14.89	347.77	3.61	-45.4	-56.4	3.8	8.46e-01	0	57	104	719323136	60	13486
2026-01-11 13:39:15.90	347.74	3.55	-45.4	-56.4	3.8	8.46e-01	0	58	104	719323136	60	13489
2026-01-11 13:39:16.91	347.70	3.48	-45.4	-56.4	3.8	8.45e-01	0	58	104	719323136	60	13490
2026-01-11 13:39:17.92	347.67	3.41	-45.4	-56.4	3.8	8.46e-01	0	57	104	719323136	60	13469
2026-01-11 13:39:18.93	347.64	3.35	-45.4	-56.4	3.8	8.46e-01	0	58	104	719323136	60	13435
2026-01-11 13:39:19.94	347.60	3.28	-45.4	-56.4	3.8	8.46e-01	0	58	104	719323136	60	13459
2026-01-11 13:39:20.95	347.57	3.22	-45.4	-56.4	3.8	8.46e-01	0	57	104	719323136	60	13467
2026-01-11 13:39:21.96	347.54	3.15	-45.4	-56.4	3.8	8.46e-01	0	57	104	719323136	60	13509
2026-01-11 13:39:22.97	347.51	3.09	-45.4	-56.4	3.8	8.46e-01	0	57	104	719323136	60	13437
2026-01-11 13:39:23.98	347.47	3.02	-45.4	-56.4	3.8	8.46e-01	0	57	104	719323136	60	13471
2026-01-11 13:39:24.99	347.44	2.96	-45.4	-56.4	3.8	8.46e-01	0	57	104	719323136	60	13490
2026-01-11 13:39:26.00	347.41	2.89	-45.4	-56.4	3.8	8.47e-01	0	57	104	719323136	60	13473
2026-01-11 13:39:27.01	347.38	2.83	-45.4	-56.4	3.8	8.46e-01	0	57	104	719323136	60	13492
2026-01-11 13:39:28.02	347.34	2.76	-45.4	-56.4	3.8	8.46e-01	0	58	104	719323136	60	13517
2026-01-11 13:39:29.04	347.31	2.70	-45.4	-56.4	3.8	8.46e-01	0	58	104	719323136	60	13454
2026-01-11 13:39:30.05	347.28	2.63	-45.4	-56.4	3.8	8.48e-01	0	57	104	719323136	60	13479
2026-01-11 13:39:31.06	347.25	2.57	-45.4	-56.4	3.8	8.46e-01	0	58	104	719323136	60	13486
2026-01-11 13:39:32.07	347.22	2.51	-45.4	-56.4	3.8	8.46e-01	0	58	104	719323136	60	13436
2026-01-11 13:39:33.08	347.19	2.44	-45.4	-56.4	3.8	8.46e-01	0	58	104	719323136	60	13493
2026-01-11 13:39:34.09	347.16	2.38	-45.4	-56.4	3.8	8.45e-01	0	58	104	719323136	60	13467
2026-01-11 13:39:35.10	347.13	2.31	-45.4	-56.4	3.8	8.46e-01	0	57	104	719323136	60	13468
2026-01-11 13:39:36.11	347.09	2.25	-45.4	-56.4	3.8	8.46e-01	0	57	104	719323136	60	13534
2026-01-11 13:39:37.12	347.06	2.19	-45.4	-56.4	3.8	8.46e-01	0	58	104	719323136	60	13496
2026-01-11 13:39:38.14	347.03	2.12	-45.4	-56.4	3.8	8.46e-01	0	57	104	719323136	60	13507
2026-01-11 13:39:39.15	347.00	2.06	-45.4	-56.4	3.8	8.45e-01	0	57	104	719323136	60	13442
2026-01-11 13:39:40.16	346.97	2.00	-45.4	-56.3	3.8	8.46e-01	0	58	104	719323136	60	13413
2026-01-11 13:39:41.17	346.94	1.93	-45.4	-56.4	3.8	8.47e-01	0	58	104	719323136	60	13476

#Closed at: 2026-01-11 13:39:41
#Recorded file [719 MB]: D:/lorett/data/31039_260111_163425.dat