passes_logs/2026/01/11/R2.0S_Moscow/R2.0S_Moscow__20260111_124015_AQUA_rec.log

#Pass ID: 20260111_124015_AQUA
#Satellite: AQUA
#Configuration: AQUA
#almurnet v.1.7.20251203
#Start time: 2026-01-11 12:40:17

#Version: 2.2.20231116
#Station: R2.0S_Moscow
#Location: 37.707566 lon 55.798166 lat
#TLE: 1 27424U 02022A   26009.89520876  .00001045  00000+0  21914-3 0  9996
#TLE: 2 27424  98.4076 336.2372 0002032  84.5955   1.0356 14.61811442260144

#Time	Az	El	Level	Level2	SNR	BER	BlckErr	Temp	State	Recorded	gain1	gain2
2026-01-11 12:40:17.65	193.51	2.15	-44.7	-63.6	3.8	7.45e-01	0	46	0	0	61	30984
2026-01-11 12:40:18.65	193.57	2.21	-44.7	-63.6	3.8	7.47e-01	0	46	104	0	60	32863
2026-01-11 12:40:19.66	193.63	2.27	-44.7	-63.6	3.8	7.46e-01	0	47	104	0	60	32842
2026-01-11 12:40:20.67	193.68	2.33	-44.7	-63.6	3.8	7.46e-01	0	47	104	0	60	32882
2026-01-11 12:40:21.68	193.74	2.40	-44.7	-63.6	3.8	7.45e-01	0	47	104	0	60	32862
2026-01-11 12:40:22.69	193.81	2.46	-44.6	-63.6	3.8	7.44e-01	0	47	104	0	60	32781
2026-01-11 12:40:23.70	193.87	2.53	-44.6	-63.6	3.8	7.45e-01	0	47	104	0	60	32856
2026-01-11 12:40:24.71	193.93	2.59	-44.7	-63.6	3.8	7.43e-01	0	47	104	0	60	32802
2026-01-11 12:40:25.72	193.99	2.65	-44.7	-63.6	3.8	7.47e-01	0	47	104	0	60	32811
2026-01-11 12:40:26.73	194.05	2.72	-44.7	-63.6	3.8	7.47e-01	0	47	104	0	60	32781
2026-01-11 12:40:27.74	194.11	2.78	-44.7	-63.6	3.8	7.47e-01	0	47	104	0	60	32818
2026-01-11 12:40:28.76	194.17	2.85	-44.7	-63.6	3.8	7.45e-01	0	47	104	0	60	32778
2026-01-11 12:40:29.77	194.24	2.91	-44.7	-63.6	3.8	7.47e-01	0	48	104	0	60	32816
2026-01-11 12:40:30.78	194.30	2.97	-44.7	-63.6	3.8	7.45e-01	0	48	104	0	60	32816
2026-01-11 12:40:31.79	194.36	3.04	-44.7	-63.6	3.8	7.49e-01	0	48	104	0	60	32754
2026-01-11 12:40:32.80	194.42	3.10	-44.7	-63.6	3.8	7.42e-01	0	47	104	0	60	32754
2026-01-11 12:40:33.81	194.49	3.17	-44.7	-63.6	3.8	7.43e-01	0	48	104	0	60	32780
2026-01-11 12:40:34.82	194.55	3.23	-44.7	-63.6	3.8	7.46e-01	0	48	104	0	60	32783
2026-01-11 12:40:35.83	194.61	3.30	-44.7	-63.6	3.8	7.45e-01	0	48	104	0	60	32809
2026-01-11 12:40:36.84	194.68	3.36	-44.6	-63.6	3.8	7.47e-01	0	48	104	0	60	32742
2026-01-11 12:40:37.85	194.74	3.43	-44.7	-63.6	3.8	7.44e-01	0	48	104	0	60	32833
2026-01-11 12:40:38.87	194.81	3.50	-44.7	-63.6	3.8	7.44e-01	0	48	104	0	60	32727
2026-01-11 12:40:39.88	194.87	3.56	-44.7	-63.6	3.8	7.42e-01	0	48	104	0	60	32753
2026-01-11 12:40:40.89	194.94	3.63	-44.7	-63.6	3.8	7.46e-01	0	48	104	0	60	32747
2026-01-11 12:40:41.90	195.00	3.69	-44.7	-63.6	3.8	7.43e-01	0	48	104	0	60	32748
2026-01-11 12:40:42.91	195.07	3.76	-44.7	-63.6	3.8	7.44e-01	0	48	104	0	60	32805
2026-01-11 12:40:43.92	195.14	3.83	-44.6	-63.6	3.8	7.40e-01	0	48	104	0	60	32742
2026-01-11 12:40:44.93	195.20	3.89	-44.7	-63.6	3.8	7.45e-01	0	49	104	0	60	32810
2026-01-11 12:40:45.94	195.27	3.96	-44.7	-63.6	3.8	7.45e-01	0	49	104	0	60	32756
2026-01-11 12:40:46.95	195.34	4.03	-44.7	-63.6	3.8	7.45e-01	0	49	104	0	60	32726
2026-01-11 12:40:47.97	195.41	4.09	-44.7	-63.6	3.8	7.47e-01	0	49	104	0	60	32790
2026-01-11 12:40:48.98	195.47	4.16	-44.7	-63.6	3.8	7.44e-01	0	49	104	0	60	32694
2026-01-11 12:40:49.99	195.54	4.23	-44.7	-63.6	3.8	7.45e-01	0	49	104	0	60	32735
2026-01-11 12:40:51.00	195.61	4.30	-44.7	-63.6	3.8	7.44e-01	0	49	104	0	60	32770
2026-01-11 12:40:52.01	195.68	4.36	-44.7	-63.6	3.8	7.46e-01	0	49	104	0	60	32755
2026-01-11 12:40:53.02	195.75	4.43	-44.7	-63.6	3.8	7.42e-01	0	49	104	0	60	32796
2026-01-11 12:40:54.03	195.82	4.50	-44.7	-63.6	3.8	7.45e-01	0	49	104	0	60	32731
2026-01-11 12:40:55.04	195.89	4.57	-44.7	-63.6	3.8	7.45e-01	0	49	104	0	60	32711
2026-01-11 12:40:56.05	195.96	4.64	-44.7	-63.6	3.8	7.45e-01	0	49	104	0	60	32580
2026-01-11 12:40:57.06	196.03	4.70	-44.7	-63.6	3.8	7.46e-01	0	49	104	0	60	32666
2026-01-11 12:40:58.08	196.10	4.77	-44.7	-63.5	3.8	7.44e-01	0	49	104	0	60	32195
2026-01-11 12:40:59.09	196.17	4.84	-44.7	-63.6	3.8	7.46e-01	0	49	104	0	60	32576
2026-01-11 12:41:00.10	196.25	4.91	-44.7	-63.4	3.8	7.42e-01	0	49	104	0	60	31932
2026-01-11 12:41:01.11	196.32	4.98	-44.7	-63.4	3.8	7.43e-01	0	49	104	0	60	31985
2026-01-11 12:41:02.12	196.39	5.05	-44.7	-63.2	3.8	7.47e-01	0	49	104	0	60	31111
2026-01-11 12:41:03.13	196.46	5.12	-44.7	-62.9	3.8	7.45e-01	0	50	104	0	60	30118
2026-01-11 12:41:04.14	196.54	5.19	-44.7	-62.9	3.8	7.47e-01	0	50	104	0	60	30221
2026-01-11 12:41:05.16	196.61	5.26	-44.7	-62.3	3.8	7.47e-01	0	50	104	0	60	28181
2026-01-11 12:41:06.17	196.68	5.33	-44.7	-62.1	3.8	7.50e-01	0	50	104	0	60	27618
2026-01-11 12:41:07.18	196.76	5.40	-44.6	-61.4	3.9	7.46e-01	0	50	104	0	60	25426
2026-01-11 12:41:08.19	196.83	5.47	-44.6	-60.5	4.0	7.39e-01	0	50	104	0	60	22849
2026-01-11 12:41:09.20	196.91	5.54	-44.6	-60.5	4.1	7.43e-01	0	50	104	0	60	22803
2026-01-11 12:41:10.21	196.98	5.61	-44.6	-59.2	4.4	7.23e-01	0	50	104	0	60	19815
2026-01-11 12:41:11.22	197.06	5.68	-44.6	-59.6	3.9	7.38e-01	0	50	104	0	60	20727
2026-01-11 12:41:12.23	197.13	5.75	-44.6	-58.6	4.7	7.18e-01	0	50	104	0	60	18438
2026-01-11 12:41:13.24	197.21	5.82	-44.5	-58.0	5.0	7.08e-01	0	50	0	0	60	17154
2026-01-11 12:41:14.25	197.29	5.90	-44.5	-57.8	5.1	7.06e-01	0	50	0	0	60	16835
2026-01-11 12:41:15.27	197.37	5.97	-44.5	-57.6	5.3	7.02e-01	8	50	0	0	60	16364
2026-01-11 12:41:16.28	197.44	6.04	-44.5	-57.1	5.6	6.93e-01	91	50	0	524288	60	15569
2026-01-11 12:41:17.29	197.52	6.11	-44.5	-56.9	5.7	6.93e-01	0	50	0	1048576	60	15177
2026-01-11 12:41:18.30	197.60	6.18	-44.4	-56.7	5.9	6.87e-01	47	50	0	2097152	60	14731
2026-01-11 12:41:19.31	197.68	6.26	-44.4	-56.4	6.1	6.82e-01	90	50	0	4194304	60	14280
2026-01-11 12:41:20.32	197.76	6.33	-44.4	-55.9	6.5	6.73e-01	91	50	0	5767168	60	13460
2026-01-11 12:41:21.33	197.84	6.40	-44.3	-55.3	7.0	6.64e-01	91	50	0	7864320	60	12586
2026-01-11 12:41:22.34	197.92	6.47	-44.3	-55.2	7.1	6.64e-01	92	51	0	9437184	60	12482
2026-01-11 12:41:23.35	198.00	6.55	-44.3	-54.7	7.6	6.53e-01	91	51	0	11534336	60	11804
2026-01-11 12:41:24.36	198.08	6.62	-44.3	-54.9	7.4	6.59e-01	90	50	0	13107200	60	12047
2026-01-11 12:41:25.37	198.16	6.69	-44.3	-54.6	7.7	6.51e-01	90	51	0	15204352	60	11664
2026-01-11 12:41:26.38	198.24	6.77	-44.2	-54.4	7.9	6.50e-01	92	51	0	17301504	60	11355
2026-01-11 12:41:27.40	198.33	6.84	-44.1	-53.8	8.5	6.40e-01	14	51	0	18874368	60	10545
2026-01-11 12:41:28.41	198.41	6.92	-44.1	-53.3	9.0	6.34e-01	1	51	0	20971520	60	10021
2026-01-11 12:41:29.42	198.49	6.99	-44.0	-52.9	9.4	6.30e-01	0	51	0	22544384	60	9572
2026-01-11 12:41:30.43	198.58	7.06	-44.1	-52.4	10.3	6.21e-01	0	51	0	24641536	59	9508
2026-01-11 12:41:31.44	198.66	7.14	-43.9	-51.2	11.6	6.14e-01	0	51	0	26738688	59	8314
2026-01-11 12:41:32.45	198.75	7.21	-43.6	-50.0	12.8	6.12e-01	0	51	0	28311552	59	7259
2026-01-11 12:41:33.46	198.83	7.29	-43.1	-48.6	14.3	6.09e-01	0	51	0	30408704	58	6507
2026-01-11 12:41:34.47	198.92	7.36	-42.8	-47.7	15.1	6.07e-01	0	51	0	32505856	57	6265
2026-01-11 12:41:35.48	199.00	7.44	-42.5	-47.0	15.9	6.07e-01	0	51	0	34078720	57	5758
2026-01-11 12:41:36.49	199.09	7.51	-42.0	-46.1	16.8	6.08e-01	0	51	0	36175872	56	5489
2026-01-11 12:41:37.50	199.18	7.59	-41.5	-45.2	17.6	6.08e-01	0	51	0	37748736	55	5254
2026-01-11 12:41:38.51	199.26	7.67	-41.3	-44.8	18.1	6.07e-01	0	51	0	39845888	54	5282
2026-01-11 12:41:39.52	199.35	7.74	-41.2	-44.6	18.3	6.05e-01	0	51	0	41943040	54	5163
2026-01-11 12:41:40.53	199.44	7.82	-41.1	-44.4	18.4	6.06e-01	0	51	0	43515904	54	5091
2026-01-11 12:41:41.54	199.53	7.89	-41.0	-44.3	18.5	6.06e-01	0	51	0	45613056	54	5030
2026-01-11 12:41:42.55	199.62	7.97	-41.2	-44.5	18.4	6.07e-01	0	51	0	47710208	54	5143
2026-01-11 12:41:43.56	199.71	8.05	-41.3	-44.6	18.3	6.04e-01	0	52	0	49283072	54	5215
2026-01-11 12:41:44.57	199.80	8.13	-43.5	-50.2	13.1	6.12e-01	0	51	0	51380224	57	8340
2026-01-11 12:41:45.58	199.89	8.20	-41.0	-44.1	18.0	6.05e-01	0	51	0	51904512	54	4909
2026-01-11 12:41:46.59	199.98	8.28	-42.3	-46.2	17.0	6.07e-01	0	51	0	53477376	56	5578
2026-01-11 12:41:47.60	200.07	8.36	-41.1	-44.3	18.9	6.07e-01	0	52	0	55574528	54	5003
2026-01-11 12:41:48.60	200.16	8.43	-41.6	-45.1	17.6	6.06e-01	0	52	0	57671680	55	5169
2026-01-11 12:41:49.61	200.26	8.51	-40.9	-44.0	19.1	6.08e-01	0	52	0	59244544	53	5103
2026-01-11 12:41:50.62	200.35	8.59	-41.0	-44.0	19.1	6.05e-01	0	52	0	61341696	53	5156
2026-01-11 12:41:51.63	200.44	8.67	-40.9	-44.0	19.1	6.06e-01	0	52	0	62914560	53	5110
2026-01-11 12:41:52.64	200.54	8.75	-41.0	-44.1	19.1	6.06e-01	0	52	0	65011712	53	5170
2026-01-11 12:41:53.65	200.63	8.83	-41.0	-44.1	19.0	6.06e-01	0	52	0	67108864	53	5214
2026-01-11 12:41:54.66	200.73	8.91	-40.9	-43.9	19.2	6.07e-01	0	52	0	68681728	53	5075
2026-01-11 12:41:55.67	200.82	8.99	-40.8	-43.7	19.4	6.08e-01	0	52	0	70778880	53	4955
2026-01-11 12:41:56.68	200.92	9.07	-40.8	-43.8	19.4	6.06e-01	0	52	0	72351744	53	5006
2026-01-11 12:41:57.69	201.02	9.15	-40.8	-43.7	19.4	6.09e-01	0	52	0	74448896	53	4983
2026-01-11 12:41:58.70	201.11	9.23	-40.8	-43.7	19.4	6.08e-01	0	52	0	76021760	53	4976
2026-01-11 12:41:59.71	201.21	9.31	-40.6	-43.5	19.7	6.07e-01	0	52	0	78118912	53	4849
2026-01-11 12:42:00.72	201.31	9.39	-40.6	-43.4	19.7	6.08e-01	0	52	0	80216064	53	4791
2026-01-11 12:42:01.73	201.41	9.47	-40.6	-43.4	19.8	6.05e-01	0	52	0	81788928	53	4770
2026-01-11 12:42:02.74	201.51	9.55	-40.5	-43.3	19.9	6.09e-01	0	52	0	83886080	53	4709
2026-01-11 12:42:03.75	201.61	9.63	-40.5	-43.2	20.0	6.04e-01	0	52	0	85983232	53	4684
2026-01-11 12:42:04.76	201.71	9.71	-40.4	-43.0	20.2	6.09e-01	0	52	0	87556096	52	4869
2026-01-11 12:42:05.77	201.81	9.79	-40.4	-43.1	20.1	6.05e-01	0	52	0	89653248	52	4910
2026-01-11 12:42:06.78	201.92	9.88	-40.5	-43.2	20.0	6.05e-01	0	52	0	91226112	52	4946
2026-01-11 12:42:07.78	202.02	9.96	-40.4	-43.1	20.1	6.06e-01	0	52	0	93323264	52	4918
2026-01-11 12:42:08.79	202.12	10.04	-40.5	-43.2	20.0	6.06e-01	0	52	0	95420416	52	4950
2026-01-11 12:42:09.80	202.23	10.12	-40.4	-43.1	20.1	6.05e-01	0	52	0	96993280	52	4915
2026-01-11 12:42:10.81	202.33	10.20	-40.4	-43.1	20.1	6.05e-01	0	52	0	99090432	52	4903
2026-01-11 12:42:11.82	202.44	10.29	-40.3	-43.0	20.2	6.08e-01	0	52	0	101187584	52	4849
2026-01-11 12:42:12.83	202.54	10.37	-40.4	-43.1	20.2	6.08e-01	0	52	0	102760448	52	4873
2026-01-11 12:42:13.84	202.65	10.45	-40.3	-42.9	20.3	6.06e-01	0	52	0	104857600	52	4802
2026-01-11 12:42:14.85	202.76	10.54	-40.2	-42.8	20.4	6.08e-01	0	52	0	106430464	52	4752
2026-01-11 12:42:15.86	202.86	10.62	-40.2	-42.8	20.5	6.06e-01	0	52	0	108527616	52	4745
2026-01-11 12:42:16.87	202.97	10.71	-40.2	-42.8	20.5	6.05e-01	0	52	0	110624768	52	4755
2026-01-11 12:42:17.88	203.08	10.79	-40.2	-42.9	20.4	6.06e-01	0	52	0	112197632	52	4766
2026-01-11 12:42:18.89	203.19	10.88	-40.4	-43.0	20.3	6.05e-01	0	52	0	114294784	52	4861
2026-01-11 12:42:19.90	203.30	10.96	-40.3	-42.9	20.4	6.06e-01	0	52	0	115867648	52	4802
2026-01-11 12:42:20.91	203.41	11.05	-40.3	-43.0	20.3	6.07e-01	0	52	0	117964800	52	4823
2026-01-11 12:42:21.92	203.53	11.13	-40.4	-43.1	20.3	6.06e-01	0	53	0	120061952	52	4889
2026-01-11 12:42:22.93	203.64	11.22	-40.3	-43.0	20.4	6.06e-01	0	53	0	121634816	52	4819
2026-01-11 12:42:23.94	203.75	11.30	-40.4	-43.0	20.3	6.08e-01	0	53	0	123731968	52	4840
2026-01-11 12:42:24.95	203.86	11.39	-40.3	-42.9	20.5	6.07e-01	0	52	0	125304832	52	4769
2026-01-11 12:42:25.96	203.98	11.48	-40.2	-42.8	20.5	6.07e-01	0	53	0	127401984	52	4737
2026-01-11 12:42:26.97	204.09	11.56	-40.2	-42.7	20.7	6.08e-01	0	53	0	129499136	52	4673
2026-01-11 12:42:27.98	204.21	11.65	-40.2	-42.7	20.7	6.05e-01	0	53	0	131072000	52	4670
2026-01-11 12:42:28.99	204.33	11.74	-40.1	-42.6	20.8	6.07e-01	0	53	0	133169152	52	4618
2026-01-11 12:42:30.00	204.45	11.82	-40.1	-42.6	20.8	6.08e-01	0	53	0	134742016	52	4611
2026-01-11 12:42:31.01	204.56	11.91	-40.1	-42.5	20.9	6.05e-01	0	53	0	136839168	52	4580
2026-01-11 12:42:32.02	204.68	12.00	-40.1	-42.5	20.8	6.08e-01	0	53	0	138936320	52	4596
2026-01-11 12:42:33.03	204.80	12.09	-40.1	-42.6	20.8	6.05e-01	0	53	0	140509184	52	4629
2026-01-11 12:42:34.04	204.92	12.18	-40.1	-42.5	20.9	6.09e-01	0	53	0	142606336	52	4578
2026-01-11 12:42:35.05	205.04	12.26	-40.1	-42.6	20.8	6.07e-01	0	53	0	144179200	52	4633
2026-01-11 12:42:36.06	205.17	12.35	-40.2	-42.7	20.8	6.07e-01	0	53	0	146276352	52	4653
2026-01-11 12:42:37.06	205.29	12.44	-40.1	-42.6	20.8	6.06e-01	0	53	0	148373504	52	4624
2026-01-11 12:42:38.07	205.41	12.53	-40.1	-42.6	20.8	6.05e-01	0	53	0	149946368	52	4612
2026-01-11 12:42:39.08	205.54	12.62	-40.1	-42.6	20.9	6.07e-01	0	53	0	152043520	52	4609
2026-01-11 12:42:40.09	205.66	12.71	-40.0	-42.5	20.9	6.08e-01	0	53	0	154140672	52	4566
2026-01-11 12:42:41.10	205.79	12.80	-40.1	-42.5	20.9	6.06e-01	0	53	0	155713536	52	4586
2026-01-11 12:42:42.11	205.91	12.89	-40.0	-42.4	21.0	6.05e-01	0	53	0	157810688	52	4519
2026-01-11 12:42:43.12	206.04	12.98	-40.1	-42.5	21.0	6.09e-01	0	53	0	159383552	51	4836
2026-01-11 12:42:44.14	206.17	13.07	-40.0	-42.4	21.1	6.05e-01	0	53	0	161480704	51	4805
2026-01-11 12:42:45.14	206.30	13.16	-40.0	-42.4	21.1	6.03e-01	0	53	0	163577856	51	4791
2026-01-11 12:42:46.16	206.43	13.26	-40.1	-42.5	21.1	6.06e-01	0	53	0	165150720	51	4826
2026-01-11 12:42:47.17	206.56	13.35	-40.1	-42.5	21.1	6.06e-01	0	53	0	167247872	51	4847
2026-01-11 12:42:48.18	206.69	13.44	-40.2	-42.6	21.0	6.04e-01	0	53	0	169345024	51	4900
2026-01-11 12:42:49.18	206.82	13.53	-40.1	-42.5	21.1	6.07e-01	0	53	0	170917888	51	4828
2026-01-11 12:42:50.20	206.96	13.62	-40.0	-42.4	21.1	6.06e-01	0	53	0	173015040	51	4795
2026-01-11 12:42:51.21	207.09	13.72	-40.0	-42.3	21.2	6.05e-01	0	53	0	174587904	51	4752
2026-01-11 12:42:52.22	207.23	13.81	-40.0	-42.3	21.3	6.06e-01	0	53	0	176685056	51	4738
2026-01-11 12:42:53.23	207.36	13.90	-39.9	-42.3	21.3	6.07e-01	0	53	0	178782208	51	4721
2026-01-11 12:42:54.24	207.50	14.00	-40.0	-42.4	21.2	6.01e-01	0	53	0	180355072	51	4774
2026-01-11 12:42:55.25	207.64	14.09	-40.1	-42.4	21.1	6.08e-01	0	53	0	182452224	51	4811
2026-01-11 12:42:56.25	207.78	14.18	-40.0	-42.4	21.2	6.07e-01	0	53	0	184025088	51	4766
2026-01-11 12:42:57.26	207.91	14.28	-40.1	-42.4	21.1	6.06e-01	0	53	0	186122240	51	4803
2026-01-11 12:42:58.28	208.06	14.37	-40.0	-42.3	21.3	6.07e-01	0	53	0	188219392	51	4751
2026-01-11 12:42:59.29	208.20	14.47	-40.0	-42.4	21.3	6.07e-01	0	53	0	189792256	51	4760
2026-01-11 12:43:00.30	208.34	14.56	-40.0	-42.3	21.3	6.06e-01	0	53	0	191889408	51	4732
2026-01-11 12:43:01.31	208.48	14.66	-40.0	-42.4	21.2	6.06e-01	0	53	0	193986560	51	4771
2026-01-11 12:43:02.31	208.63	14.75	-40.0	-42.3	21.3	6.07e-01	0	53	0	195559424	51	4758
2026-01-11 12:43:03.33	208.77	14.85	-40.0	-42.4	21.3	6.06e-01	0	53	0	197656576	51	4790
2026-01-11 12:43:04.34	208.92	14.95	-40.0	-42.4	21.2	6.06e-01	0	53	0	199229440	51	4789
2026-01-11 12:43:05.35	209.07	15.04	-40.0	-42.3	21.4	6.09e-01	0	53	0	201326592	51	4724
2026-01-11 12:43:06.36	209.22	15.14	-39.9	-42.2	21.4	6.07e-01	0	53	0	203423744	51	4685
2026-01-11 12:43:07.37	209.36	15.24	-39.9	-42.2	21.5	6.09e-01	0	53	0	204996608	51	4674
2026-01-11 12:43:08.38	209.52	15.33	-39.9	-42.2	21.5	6.07e-01	0	53	0	207093760	51	4683
2026-01-11 12:43:09.39	209.67	15.43	-39.9	-42.2	21.4	6.06e-01	0	53	0	208666624	51	4687
2026-01-11 12:43:10.40	209.82	15.53	-40.0	-42.3	21.4	6.06e-01	0	53	0	210763776	51	4711
2026-01-11 12:43:11.41	209.97	15.62	-40.0	-42.3	21.3	6.06e-01	0	53	0	212860928	51	4739
2026-01-11 12:43:12.41	210.12	15.72	-39.9	-42.2	21.4	6.06e-01	0	53	0	214433792	51	4698
2026-01-11 12:43:13.42	210.28	15.82	-39.9	-42.2	21.4	6.06e-01	0	53	0	216530944	51	4700
2026-01-11 12:43:14.43	210.44	15.92	-39.9	-42.2	21.5	6.08e-01	0	54	0	218103808	51	4678
2026-01-11 12:43:15.44	210.59	16.02	-39.9	-42.2	21.5	6.09e-01	0	53	0	220200960	51	4674
2026-01-11 12:43:16.45	210.75	16.12	-39.9	-42.2	21.5	6.08e-01	0	53	0	222298112	51	4683
2026-01-11 12:43:17.46	210.91	16.22	-39.9	-42.2	21.5	6.06e-01	0	53	0	223870976	51	4656
2026-01-11 12:43:18.47	211.07	16.32	-39.9	-42.1	21.6	6.04e-01	0	54	0	225968128	51	4639
2026-01-11 12:43:19.48	211.24	16.42	-39.9	-42.2	21.5	6.08e-01	0	53	0	227540992	51	4658
2026-01-11 12:43:20.49	211.40	16.52	-39.9	-42.2	21.5	6.05e-01	0	54	0	229638144	51	4687
2026-01-11 12:43:21.50	211.56	16.62	-40.0	-42.3	21.5	6.06e-01	0	54	0	231735296	51	4714
2026-01-11 12:43:22.51	211.73	16.72	-40.0	-42.3	21.4	6.07e-01	0	54	0	233308160	51	4730
2026-01-11 12:43:23.52	211.89	16.82	-39.9	-42.2	21.5	6.06e-01	0	54	0	235405312	51	4697
2026-01-11 12:43:24.53	212.06	16.92	-39.9	-42.2	21.5	6.06e-01	0	54	0	237502464	51	4656
2026-01-11 12:43:25.53	212.23	17.02	-39.9	-42.2	21.5	6.06e-01	0	54	0	239075328	51	4676
2026-01-11 12:43:26.54	212.40	17.12	-39.9	-42.2	21.5	6.05e-01	0	54	0	241172480	51	4695
2026-01-11 12:43:27.55	212.57	17.22	-39.9	-42.2	21.5	6.08e-01	0	54	0	242745344	51	4671
2026-01-11 12:43:28.56	212.74	17.32	-39.8	-42.1	21.7	6.06e-01	0	53	0	244842496	51	4608
2026-01-11 12:43:29.57	212.92	17.43	-39.8	-42.1	21.7	6.07e-01	0	54	0	246939648	51	4609
2026-01-11 12:43:30.58	213.09	17.53	-39.8	-42.1	21.7	6.06e-01	0	54	0	248512512	51	4600
2026-01-11 12:43:31.59	213.27	17.63	-39.8	-42.1	21.7	6.03e-01	0	54	0	250609664	51	4600
2026-01-11 12:43:32.60	213.44	17.73	-39.9	-42.1	21.6	6.07e-01	0	54	0	252182528	51	4649
2026-01-11 12:43:33.61	213.62	17.84	-39.9	-42.1	21.7	6.07e-01	0	54	0	254279680	51	4633
2026-01-11 12:43:34.62	213.80	17.94	-39.8	-42.0	21.7	6.06e-01	0	54	0	256376832	51	4598
2026-01-11 12:43:35.63	213.98	18.04	-39.8	-42.0	21.7	6.04e-01	0	54	0	257949696	51	4580
2026-01-11 12:43:36.64	214.17	18.15	-39.8	-42.1	21.7	6.06e-01	0	54	0	260046848	51	4612
2026-01-11 12:43:37.65	214.35	18.25	-39.8	-42.1	21.7	6.06e-01	0	54	0	261619712	51	4611
2026-01-11 12:43:38.66	214.53	18.36	-39.8	-42.0	21.7	6.07e-01	0	54	0	263716864	51	4590
2026-01-11 12:43:39.67	214.72	18.46	-39.8	-42.0	21.8	6.04e-01	0	54	0	265814016	51	4581
2026-01-11 12:43:40.68	214.91	18.56	-39.9	-42.1	21.7	6.06e-01	0	54	0	267386880	51	4624
2026-01-11 12:43:41.69	215.10	18.67	-39.9	-42.2	21.6	6.07e-01	0	54	0	269484032	51	4677
2026-01-11 12:43:42.70	215.29	18.77	-39.9	-42.2	21.6	6.06e-01	0	54	0	271056896	51	4671
2026-01-11 12:43:43.70	215.48	18.88	-39.9	-42.1	21.7	6.06e-01	0	54	0	273154048	51	4619
2026-01-11 12:43:44.71	215.67	18.98	-39.8	-42.0	21.8	6.05e-01	0	54	0	275251200	51	4558
2026-01-11 12:43:45.72	215.86	19.09	-39.7	-41.9	21.9	6.07e-01	0	54	0	276824064	51	4538
2026-01-11 12:43:46.73	216.06	19.19	-39.7	-41.9	21.9	6.08e-01	0	54	0	278921216	51	4529
2026-01-11 12:43:47.74	216.26	19.30	-39.7	-41.9	21.9	6.07e-01	0	54	0	280494080	51	4529
2026-01-11 12:43:48.75	216.46	19.41	-39.7	-41.9	21.9	6.07e-01	0	54	0	282591232	51	4519
2026-01-11 12:43:49.76	216.66	19.51	-39.7	-41.9	21.9	6.05e-01	0	54	0	284688384	51	4531
2026-01-11 12:43:50.77	216.86	19.62	-39.8	-42.0	21.8	6.05e-01	0	54	0	286261248	51	4571
2026-01-11 12:43:51.78	217.06	19.73	-39.9	-42.2	21.7	6.07e-01	0	54	0	288358400	51	4664
2026-01-11 12:43:52.79	217.26	19.83	-40.0	-42.2	21.6	6.07e-01	0	54	0	290455552	51	4698
2026-01-11 12:43:53.80	217.47	19.94	-39.9	-42.1	21.7	6.06e-01	0	54	0	292028416	51	4650
2026-01-11 12:43:54.81	217.68	20.05	-39.8	-42.0	21.8	6.06e-01	0	54	0	294125568	51	4584
2026-01-11 12:43:55.82	217.89	20.15	-39.8	-42.0	21.8	6.03e-01	0	54	0	295698432	51	4570
2026-01-11 12:43:56.83	218.10	20.26	-39.7	-41.9	21.9	6.05e-01	0	54	0	297795584	51	4519
2026-01-11 12:43:57.84	218.31	20.37	-39.8	-42.0	21.9	6.06e-01	0	54	0	299892736	51	4557
2026-01-11 12:43:58.85	218.52	20.48	-39.8	-42.0	21.8	6.06e-01	0	54	0	301465600	51	4576
2026-01-11 12:43:59.86	218.74	20.58	-39.9	-42.1	21.7	6.06e-01	0	54	0	303562752	51	4638
2026-01-11 12:44:00.86	218.95	20.69	-39.9	-42.1	21.8	6.05e-01	0	54	0	305659904	51	4620
2026-01-11 12:44:01.87	219.17	20.80	-39.9	-42.1	21.7	6.06e-01	0	54	0	307232768	51	4639
2026-01-11 12:44:02.88	219.39	20.91	-39.9	-42.2	21.7	6.08e-01	0	54	0	309329920	51	4657
2026-01-11 12:44:03.89	219.61	21.01	-40.0	-42.3	21.6	6.09e-01	0	54	0	310902784	51	4713
2026-01-11 12:44:04.90	219.83	21.12	-40.0	-42.2	21.6	6.07e-01	0	54	0	312999936	51	4704
2026-01-11 12:44:05.91	220.06	21.23	-39.9	-42.2	21.7	6.06e-01	0	54	0	315097088	51	4655
2026-01-11 12:44:06.92	220.28	21.34	-39.8	-42.0	21.9	6.04e-01	0	54	0	316669952	51	4572
2026-01-11 12:44:07.93	220.51	21.45	-39.8	-42.0	21.8	6.07e-01	0	54	0	318767104	51	4595
2026-01-11 12:44:08.94	220.74	21.56	-39.9	-42.2	21.7	6.07e-01	0	54	0	320339968	51	4659
2026-01-11 12:44:09.95	220.97	21.66	-40.0	-42.3	21.6	6.04e-01	0	54	0	322437120	51	4722
2026-01-11 12:44:10.96	221.20	21.77	-40.0	-42.3	21.6	6.07e-01	0	54	0	324534272	51	4736
2026-01-11 12:44:11.97	221.44	21.88	-40.1	-42.3	21.5	6.06e-01	0	54	0	326107136	51	4756
2026-01-11 12:44:12.98	221.67	21.99	-40.1	-42.4	21.6	6.06e-01	0	54	0	328204288	51	4767
2026-01-11 12:44:13.99	221.91	22.10	-40.1	-42.3	21.6	6.06e-01	0	54	0	329777152	51	4748
2026-01-11 12:44:15.00	222.15	22.21	-40.0	-42.2	21.7	6.08e-01	0	54	0	331874304	51	4694
2026-01-11 12:44:16.01	222.39	22.32	-40.0	-42.2	21.7	6.04e-01	0	54	0	333971456	51	4674
2026-01-11 12:44:17.02	222.63	22.43	-39.9	-42.1	21.8	6.04e-01	0	54	0	335544320	51	4648
2026-01-11 12:44:18.03	222.88	22.53	-39.9	-42.2	21.8	6.09e-01	0	54	0	337641472	51	4653
2026-01-11 12:44:19.04	223.13	22.64	-40.0	-42.3	21.6	6.05e-01	0	54	0	339214336	51	4738
2026-01-11 12:44:20.05	223.37	22.75	-40.1	-42.4	21.5	6.07e-01	0	54	0	341311488	51	4779
2026-01-11 12:44:21.06	223.62	22.86	-40.1	-42.4	21.5	6.06e-01	0	54	0	343408640	51	4792
2026-01-11 12:44:22.07	223.88	22.97	-40.0	-42.3	21.6	6.07e-01	0	54	0	344981504	51	4725
2026-01-11 12:44:23.07	224.13	23.08	-40.1	-42.3	21.6	6.06e-01	0	54	0	347078656	51	4751
2026-01-11 12:44:24.08	224.38	23.19	-40.1	-42.3	21.6	6.08e-01	0	54	0	348651520	51	4753
2026-01-11 12:44:25.09	224.64	23.29	-40.0	-42.2	21.7	6.04e-01	0	54	0	350748672	51	4696
2026-01-11 12:44:26.10	224.90	23.40	-39.9	-42.1	21.8	6.07e-01	0	54	0	352845824	51	4627
2026-01-11 12:44:27.11	225.16	23.51	-40.1	-42.3	21.6	6.08e-01	0	55	0	354418688	51	4747
2026-01-11 12:44:28.12	225.42	23.62	-40.2	-42.5	21.4	6.04e-01	0	54	0	356515840	51	4843
2026-01-11 12:44:29.13	225.69	23.73	-40.2	-42.4	21.5	6.07e-01	0	54	0	358612992	51	4812
2026-01-11 12:44:30.14	225.95	23.84	-40.1	-42.4	21.5	6.06e-01	0	54	0	360185856	51	4773
2026-01-11 12:44:31.15	226.22	23.94	-40.2	-42.5	21.5	6.05e-01	0	54	0	362283008	51	4831
2026-01-11 12:44:32.16	226.49	24.05	-40.2	-42.5	21.5	6.10e-01	0	54	0	363855872	51	4841
2026-01-11 12:44:33.17	226.76	24.16	-40.1	-42.4	21.6	6.06e-01	0	54	0	365953024	51	4763
2026-01-11 12:44:34.18	227.04	24.27	-40.0	-42.3	21.6	6.06e-01	0	55	0	368050176	51	4732
2026-01-11 12:44:35.19	227.31	24.37	-40.1	-42.3	21.6	6.06e-01	0	55	0	369623040	51	4744
2026-01-11 12:44:36.20	227.59	24.48	-40.2	-42.5	21.4	6.05e-01	0	54	0	371720192	51	4850
2026-01-11 12:44:37.21	227.87	24.59	-40.1	-42.4	21.5	6.06e-01	0	55	0	373817344	51	4780
2026-01-11 12:44:38.22	228.15	24.69	-40.0	-42.2	21.7	6.06e-01	0	54	0	375390208	51	4686
2026-01-11 12:44:39.22	228.43	24.80	-40.2	-42.5	21.5	6.06e-01	0	54	0	377487360	51	4837
2026-01-11 12:44:40.23	228.72	24.91	-40.2	-42.6	21.4	6.06e-01	0	55	0	379060224	51	4890
2026-01-11 12:44:41.24	229.01	25.01	-40.1	-42.4	21.6	6.07e-01	0	54	0	381157376	51	4792
2026-01-11 12:44:42.25	229.30	25.12	-40.1	-42.4	21.6	6.06e-01	0	54	0	383254528	51	4779
2026-01-11 12:44:43.26	229.59	25.22	-40.1	-42.4	21.6	6.07e-01	0	55	0	384827392	51	4785
2026-01-11 12:44:44.27	229.88	25.33	-40.1	-42.4	21.6	6.08e-01	0	54	0	386924544	51	4770
2026-01-11 12:44:45.28	230.18	25.43	-40.1	-42.3	21.6	6.06e-01	0	55	0	388497408	51	4755
2026-01-11 12:44:46.29	230.47	25.54	-40.2	-42.5	21.5	6.07e-01	0	55	0	390594560	51	4819
2026-01-11 12:44:47.30	230.77	25.64	-40.1	-42.4	21.5	6.06e-01	0	55	0	392167424	51	4787
2026-01-11 12:44:48.31	231.07	25.74	-40.2	-42.5	21.5	6.05e-01	0	55	0	394264576	51	4836
2026-01-11 12:44:49.32	231.38	25.85	-40.2	-42.6	21.4	6.07e-01	0	54	0	396361728	51	4882
2026-01-11 12:44:50.33	231.68	25.95	-40.1	-42.4	21.6	6.06e-01	0	55	0	397934592	51	4793
2026-01-11 12:44:51.34	231.99	26.05	-40.1	-42.4	21.6	6.07e-01	0	55	0	400031744	51	4785
2026-01-11 12:44:52.35	232.30	26.16	-40.3	-42.6	21.4	6.06e-01	0	54	0	402128896	51	4896
2026-01-11 12:44:53.36	232.61	26.26	-40.2	-42.5	21.4	6.07e-01	0	55	0	403701760	51	4862
2026-01-11 12:44:54.37	232.93	26.36	-40.2	-42.5	21.5	6.04e-01	0	54	0	405798912	51	4831
2026-01-11 12:44:55.38	233.24	26.46	-40.3	-42.6	21.4	6.08e-01	0	55	0	407371776	51	4890
2026-01-11 12:44:56.39	233.56	26.56	-40.2	-42.5	21.5	6.07e-01	0	55	0	409468928	51	4848
2026-01-11 12:44:57.39	233.88	26.66	-40.2	-42.5	21.5	6.06e-01	0	54	0	411566080	51	4841
2026-01-11 12:44:58.40	234.20	26.76	-40.3	-42.6	21.4	6.06e-01	0	55	0	413138944	51	4915
2026-01-11 12:44:59.41	234.52	26.86	-40.3	-42.6	21.4	6.08e-01	0	55	0	415236096	51	4923
2026-01-11 12:45:00.42	234.85	26.95	-40.1	-42.3	21.7	6.05e-01	0	55	0	416808960	51	4729
2026-01-11 12:45:01.43	235.18	27.05	-40.1	-42.4	21.6	6.03e-01	0	55	0	418906112	51	4805
2026-01-11 12:45:02.44	235.51	27.15	-40.3	-42.6	21.4	6.07e-01	0	55	0	421003264	51	4910
2026-01-11 12:45:03.45	235.84	27.24	-40.3	-42.6	21.4	6.06e-01	0	54	0	422576128	51	4881
2026-01-11 12:45:04.46	236.17	27.34	-40.2	-42.5	21.5	6.07e-01	0	55	0	424673280	51	4826
2026-01-11 12:45:05.47	236.51	27.44	-40.1	-42.4	21.6	6.07e-01	0	55	0	426770432	51	4771
2026-01-11 12:45:06.48	236.85	27.53	-40.1	-42.4	21.6	6.07e-01	0	55	0	428343296	51	4763
2026-01-11 12:45:07.49	237.19	27.62	-40.0	-42.3	21.8	6.05e-01	0	55	0	430440448	51	4725
2026-01-11 12:45:08.50	237.53	27.72	-40.1	-42.3	21.7	6.06e-01	0	55	0	432013312	51	4749
2026-01-11 12:45:09.51	237.87	27.81	-40.2	-42.6	21.4	6.07e-01	0	54	0	434110464	51	4882
2026-01-11 12:45:10.52	238.22	27.90	-40.1	-42.4	21.6	6.05e-01	0	55	0	436207616	51	4780
2026-01-11 12:45:11.53	238.57	27.99	-40.0	-42.2	21.8	6.07e-01	0	55	0	437780480	51	4686
2026-01-11 12:45:12.54	238.92	28.08	-40.0	-42.2	21.7	6.06e-01	0	55	0	439877632	51	4702
2026-01-11 12:45:13.55	239.27	28.17	-40.0	-42.2	21.8	6.07e-01	0	55	0	441450496	51	4699
2026-01-11 12:45:14.56	239.62	28.26	-40.1	-42.4	21.6	6.08e-01	0	55	0	443547648	51	4790
2026-01-11 12:45:15.57	239.98	28.35	-40.2	-42.5	21.5	6.06e-01	0	55	0	445644800	51	4844
2026-01-11 12:45:16.57	240.34	28.43	-40.1	-42.4	21.6	6.08e-01	0	55	0	447217664	51	4786
2026-01-11 12:45:17.58	240.70	28.52	-40.0	-42.2	21.8	6.06e-01	0	55	0	449314816	51	4689
2026-01-11 12:45:18.59	241.06	28.60	-39.9	-42.1	21.8	6.06e-01	0	55	0	450887680	51	4647
2026-01-11 12:45:19.61	241.43	28.69	-40.1	-42.3	21.7	6.06e-01	0	55	0	452984832	51	4747
2026-01-11 12:45:20.62	241.79	28.77	-40.1	-42.4	21.6	6.07e-01	0	55	0	455081984	51	4769
2026-01-11 12:45:21.63	242.16	28.85	-40.1	-42.3	21.7	6.05e-01	0	55	0	456654848	51	4757
2026-01-11 12:45:22.63	242.53	28.93	-40.1	-42.3	21.7	6.06e-01	0	55	0	458752000	51	4737
2026-01-11 12:45:23.64	242.90	29.01	-40.0	-42.2	21.8	6.07e-01	0	55	0	460324864	51	4678
2026-01-11 12:45:24.65	243.27	29.09	-40.0	-42.2	21.8	6.06e-01	0	55	0	462422016	51	4703
2026-01-11 12:45:25.66	243.65	29.17	-40.0	-42.2	21.8	6.06e-01	0	55	0	464519168	51	4686
2026-01-11 12:45:26.67	244.02	29.25	-40.1	-42.4	20.8	6.07e-01	0	55	0	466092032	51	4784
2026-01-11 12:45:27.68	244.40	29.32	-40.0	-42.2	21.8	6.07e-01	0	55	0	468189184	51	4665
2026-01-11 12:45:28.69	244.78	29.40	-39.9	-42.1	21.9	6.06e-01	0	55	0	470286336	51	4636
2026-01-11 12:45:29.70	245.17	29.47	-40.1	-42.3	21.7	6.07e-01	0	55	0	471859200	51	4751
2026-01-11 12:45:30.71	245.55	29.54	-40.0	-42.3	21.7	6.07e-01	0	55	0	473956352	51	4709
2026-01-11 12:45:31.72	245.94	29.61	-39.8	-42.0	22.0	6.08e-01	0	55	0	475529216	51	4553
2026-01-11 12:45:32.73	246.32	29.68	-39.9	-42.1	21.9	6.03e-01	0	55	0	477626368	51	4644
2026-01-11 12:45:33.74	246.71	29.75	-40.0	-42.2	21.8	6.07e-01	0	55	0	479723520	51	4680
2026-01-11 12:45:34.75	247.10	29.82	-40.0	-42.2	21.8	6.06e-01	0	55	0	481296384	51	4658
2026-01-11 12:45:35.76	247.50	29.89	-40.0	-42.2	21.8	6.06e-01	0	55	0	483393536	51	4660
2026-01-11 12:45:36.77	247.89	29.95	-39.8	-42.0	22.0	6.05e-01	0	55	0	484966400	51	4579
2026-01-11 12:45:37.78	248.29	30.01	-39.8	-41.9	22.1	6.07e-01	0	55	0	487063552	51	4533
2026-01-11 12:45:38.79	248.69	30.08	-40.0	-42.3	21.8	6.07e-01	0	55	0	489160704	51	4719
2026-01-11 12:45:39.80	249.09	30.14	-39.9	-42.1	21.9	6.07e-01	0	55	0	490733568	51	4607
2026-01-11 12:45:40.80	249.48	30.20	-39.7	-41.8	22.2	6.06e-01	0	55	0	492830720	51	4478
2026-01-11 12:45:41.81	249.88	30.26	-39.7	-41.9	22.1	6.07e-01	0	55	0	494927872	51	4504
2026-01-11 12:45:42.82	250.29	30.31	-40.1	-42.4	21.6	6.06e-01	0	55	0	496500736	51	4775
2026-01-11 12:45:43.83	250.69	30.37	-39.9	-42.1	21.9	6.06e-01	0	55	0	498597888	51	4614
2026-01-11 12:45:44.84	251.10	30.42	-39.9	-42.2	21.9	6.06e-01	0	55	0	500170752	51	4653
2026-01-11 12:45:45.85	251.51	30.48	-39.7	-41.9	22.2	6.07e-01	0	55	0	502267904	51	4500
2026-01-11 12:45:46.86	251.92	30.53	-39.7	-41.8	22.2	6.07e-01	0	55	0	504365056	51	4476
2026-01-11 12:45:47.87	252.33	30.58	-39.9	-42.1	21.9	6.05e-01	0	55	0	505937920	51	4619
2026-01-11 12:45:48.88	252.74	30.63	-40.0	-42.2	21.8	6.10e-01	0	55	0	508035072	51	4659
2026-01-11 12:45:49.89	253.15	30.67	-39.7	-41.8	22.2	6.06e-01	0	55	0	509607936	51	4468
2026-01-11 12:45:50.90	253.57	30.72	-39.7	-41.8	22.2	6.07e-01	0	55	0	511705088	51	4477
2026-01-11 12:45:51.91	253.98	30.76	-39.8	-42.0	22.0	6.06e-01	0	55	0	513802240	51	4556
2026-01-11 12:45:52.92	254.40	30.81	-39.8	-42.0	22.1	6.07e-01	0	55	0	515375104	51	4554
2026-01-11 12:45:53.92	254.81	30.85	-39.7	-41.8	22.2	6.05e-01	0	55	0	517472256	51	4461
2026-01-11 12:45:54.93	255.23	30.89	-39.7	-41.8	22.2	6.09e-01	0	55	0	519045120	51	4463
2026-01-11 12:45:55.94	255.65	30.92	-39.7	-41.9	22.2	6.04e-01	0	55	0	521142272	51	4498
2026-01-11 12:45:56.95	256.07	30.96	-39.6	-41.7	22.3	6.08e-01	0	55	0	523239424	51	4435
2026-01-11 12:45:57.96	256.49	31.00	-39.7	-41.8	22.2	6.06e-01	0	55	0	524812288	51	4462
2026-01-11 12:45:58.97	256.91	31.03	-39.6	-41.7	22.3	6.07e-01	0	55	0	526909440	51	4439
2026-01-11 12:45:59.98	257.34	31.06	-39.7	-41.8	22.2	6.07e-01	0	55	0	528482304	51	4446
2026-01-11 12:46:00.99	257.76	31.09	-39.6	-41.7	22.3	6.06e-01	0	55	0	530579456	51	4401
2026-01-11 12:46:02.00	258.19	31.12	-39.6	-41.6	22.4	6.05e-01	0	55	0	532676608	51	4387
2026-01-11 12:46:03.01	258.61	31.14	-39.6	-41.8	22.2	6.06e-01	0	55	0	534249472	51	4445
2026-01-11 12:46:04.02	259.04	31.17	-39.7	-41.8	22.2	6.05e-01	0	55	0	536346624	51	4456
2026-01-11 12:46:05.03	259.46	31.19	-39.5	-41.6	22.4	6.09e-01	0	55	0	538443776	51	4361
2026-01-11 12:46:06.04	259.89	31.21	-39.5	-41.6	22.4	6.09e-01	0	55	0	540016640	50	4634
2026-01-11 12:46:07.05	260.32	31.23	-39.6	-41.7	22.3	6.08e-01	0	55	0	542113792	50	4665
2026-01-11 12:46:08.05	260.74	31.25	-39.6	-41.7	22.3	6.04e-01	0	55	0	543686656	50	4700
2026-01-11 12:46:09.06	261.17	31.27	-39.6	-41.6	22.4	6.07e-01	0	55	0	545783808	50	4642
2026-01-11 12:46:10.08	261.61	31.28	-39.5	-41.6	22.5	6.07e-01	0	55	0	547880960	50	4605
2026-01-11 12:46:11.08	262.03	31.30	-39.5	-41.6	22.4	6.06e-01	0	55	0	549453824	50	4622
2026-01-11 12:46:12.09	262.46	31.31	-39.7	-41.8	22.2	6.08e-01	0	55	0	551550976	50	4712
2026-01-11 12:46:13.10	262.89	31.32	-39.6	-41.7	22.4	6.06e-01	0	55	0	553123840	50	4652
2026-01-11 12:46:14.11	263.32	31.33	-39.5	-41.5	22.5	6.07e-01	0	55	0	555220992	50	4594
2026-01-11 12:46:15.12	263.75	31.33	-39.4	-41.5	22.5	6.07e-01	0	55	0	557318144	50	4563
2026-01-11 12:46:16.13	264.18	31.34	-39.4	-41.5	22.5	6.09e-01	0	55	0	558891008	50	4563
2026-01-11 12:46:17.14	264.62	31.34	-39.6	-41.7	22.3	6.05e-01	0	55	0	560988160	50	4653
2026-01-11 12:46:18.15	265.05	31.34	-39.6	-41.6	22.3	6.06e-01	0	55	0	563085312	50	4648
2026-01-11 12:46:19.16	265.48	31.34	-39.4	-41.5	22.5	6.06e-01	0	55	0	564658176	50	4557
2026-01-11 12:46:20.17	265.91	31.34	-39.4	-41.4	22.6	6.07e-01	0	55	0	566755328	50	4512
2026-01-11 12:46:21.18	266.34	31.34	-39.4	-41.5	22.5	6.07e-01	0	55	0	568328192	50	4546
2026-01-11 12:46:22.19	266.77	31.33	-39.6	-41.7	22.3	6.08e-01	0	55	0	570425344	50	4659
2026-01-11 12:46:23.20	267.20	31.32	-39.4	-41.5	22.5	6.07e-01	0	55	0	572522496	50	4550
2026-01-11 12:46:24.21	267.63	31.31	-39.5	-41.6	22.5	6.07e-01	0	55	0	574095360	50	4601
2026-01-11 12:46:25.22	268.06	31.30	-39.4	-41.5	22.5	6.06e-01	0	55	0	576192512	50	4567
2026-01-11 12:46:26.23	268.49	31.29	-39.4	-41.4	22.6	6.06e-01	0	55	0	577765376	50	4508
2026-01-11 12:46:27.24	268.92	31.28	-39.5	-41.5	22.5	6.07e-01	0	55	0	579862528	50	4597
2026-01-11 12:46:28.24	269.34	31.26	-39.5	-41.5	22.5	6.07e-01	0	55	0	581435392	50	4587
2026-01-11 12:46:29.25	269.77	31.24	-39.3	-41.3	22.7	6.06e-01	0	55	0	583532544	50	4468
2026-01-11 12:46:30.26	270.20	31.22	-39.3	-41.3	22.7	6.06e-01	0	55	0	585629696	50	4470
2026-01-11 12:46:31.27	270.63	31.20	-39.4	-41.4	22.6	6.08e-01	0	55	0	587202560	50	4508
2026-01-11 12:46:32.28	271.05	31.18	-39.3	-41.4	22.6	6.05e-01	0	55	0	589299712	50	4499
2026-01-11 12:46:33.29	271.48	31.16	-39.4	-41.5	22.5	6.06e-01	0	55	0	591396864	50	4551
2026-01-11 12:46:34.30	271.90	31.13	-39.3	-41.3	22.6	6.07e-01	0	55	0	592969728	50	4487
2026-01-11 12:46:35.31	272.33	31.10	-39.3	-41.3	22.6	6.06e-01	0	55	0	595066880	50	4480
2026-01-11 12:46:36.32	272.75	31.07	-39.4	-41.4	22.6	6.05e-01	0	55	0	596639744	50	4525
2026-01-11 12:46:37.33	273.18	31.04	-39.3	-41.3	22.7	6.06e-01	0	55	0	598736896	50	4443
2026-01-11 12:46:38.34	273.60	31.01	-39.3	-41.3	22.7	6.09e-01	0	55	0	600834048	50	4483
2026-01-11 12:46:39.35	274.02	30.98	-39.5	-41.6	22.4	6.04e-01	0	55	0	602406912	50	4637
2026-01-11 12:46:40.36	274.44	30.94	-39.3	-41.3	22.7	6.07e-01	0	55	0	604504064	50	4442
2026-01-11 12:46:41.37	274.86	30.90	-39.5	-41.5	22.5	6.05e-01	0	55	0	606601216	50	4572
2026-01-11 12:46:42.38	275.28	30.86	-39.5	-41.6	22.4	6.06e-01	0	55	0	608174080	50	4632
2026-01-11 12:46:43.39	275.70	30.82	-39.4	-41.5	22.5	6.07e-01	0	55	0	610271232	50	4561
2026-01-11 12:46:44.39	276.11	30.78	-39.5	-41.5	22.5	6.08e-01	0	55	0	611844096	50	4578
2026-01-11 12:46:45.40	276.52	30.74	-39.4	-41.4	22.6	6.08e-01	0	55	0	613941248	50	4521
2026-01-11 12:46:46.41	276.94	30.69	-39.3	-41.4	22.6	6.07e-01	0	55	0	616038400	50	4500
2026-01-11 12:46:47.42	277.35	30.65	-39.4	-41.4	22.6	6.05e-01	0	55	0	617611264	50	4512
2026-01-11 12:46:48.43	277.76	30.60	-39.3	-41.3	22.7	6.06e-01	0	55	0	619708416	50	4472
2026-01-11 12:46:49.44	278.17	30.55	-39.3	-41.3	22.7	6.07e-01	0	55	0	621281280	50	4454
2026-01-11 12:46:50.45	278.58	30.50	-39.3	-41.3	22.6	6.05e-01	0	55	0	623378432	50	4472
2026-01-11 12:46:51.46	278.99	30.45	-39.3	-41.3	22.7	6.09e-01	0	55	0	625475584	50	4452
2026-01-11 12:46:52.47	279.39	30.39	-39.3	-41.3	22.7	6.06e-01	0	55	0	627048448	50	4458
2026-01-11 12:46:53.48	279.80	30.34	-39.4	-41.4	22.6	6.06e-01	0	55	0	629145600	50	4515
2026-01-11 12:46:54.49	280.20	30.28	-39.3	-41.3	22.7	6.07e-01	0	55	0	630718464	50	4469
2026-01-11 12:46:55.50	280.60	30.23	-39.2	-41.2	22.8	6.08e-01	0	55	0	632815616	50	4400
2026-01-11 12:46:56.51	281.00	30.17	-39.2	-41.2	22.8	6.07e-01	0	55	0	634912768	50	4425
2026-01-11 12:46:57.51	281.40	30.11	-39.4	-41.5	22.5	6.08e-01	0	55	0	636485632	50	4550
2026-01-11 12:46:58.52	281.80	30.05	-39.3	-41.3	22.7	6.08e-01	0	55	0	638582784	50	4467
2026-01-11 12:46:59.53	282.19	29.98	-39.4	-41.4	22.6	6.04e-01	0	55	0	640155648	50	4516
2026-01-11 12:47:00.54	282.59	29.92	-39.3	-41.3	22.6	6.07e-01	0	55	0	642252800	50	4473
2026-01-11 12:47:01.55	282.98	29.85	-39.2	-41.2	22.8	6.05e-01	0	55	0	644349952	50	4411
2026-01-11 12:47:02.56	283.37	29.79	-39.4	-41.4	22.6	6.06e-01	0	55	0	645922816	50	4530
2026-01-11 12:47:03.57	283.76	29.72	-39.5	-41.6	22.4	6.07e-01	0	55	0	648019968	50	4637
2026-01-11 12:47:04.58	284.15	29.65	-39.5	-41.5	22.4	6.07e-01	0	55	0	649592832	50	4582
2026-01-11 12:47:05.59	284.53	29.58	-39.3	-41.3	22.7	6.08e-01	0	55	0	651689984	50	4449
2026-01-11 12:47:06.60	284.92	29.51	-39.3	-41.3	22.6	6.06e-01	0	55	0	653787136	50	4483
2026-01-11 12:47:07.61	285.30	29.43	-39.3	-41.3	22.7	6.06e-01	0	55	0	655360000	50	4446
2026-01-11 12:47:08.62	285.68	29.36	-39.4	-41.4	22.6	6.05e-01	0	55	0	657457152	50	4523
2026-01-11 12:47:09.63	286.06	29.28	-39.5	-41.5	22.4	6.07e-01	0	55	0	659554304	50	4582
2026-01-11 12:47:10.63	286.43	29.21	-39.4	-41.5	22.5	6.06e-01	0	55	0	661127168	50	4561
2026-01-11 12:47:11.64	286.81	29.13	-39.4	-41.4	22.5	6.08e-01	0	55	0	663224320	50	4540
2026-01-11 12:47:12.65	287.18	29.05	-39.3	-41.3	22.7	6.08e-01	0	55	0	664797184	50	4452
2026-01-11 12:47:13.66	287.55	28.98	-39.3	-41.3	22.6	6.07e-01	0	55	0	666894336	50	4480
2026-01-11 12:47:14.67	287.92	28.90	-39.4	-41.5	22.4	6.06e-01	0	55	0	668991488	50	4584
2026-01-11 12:47:15.68	288.29	28.81	-39.4	-41.4	22.6	6.09e-01	0	55	0	670564352	50	4499
2026-01-11 12:47:16.69	288.65	28.73	-39.4	-41.4	22.6	6.06e-01	0	55	0	672661504	50	4511
2026-01-11 12:47:17.70	289.02	28.65	-39.4	-41.4	22.5	6.06e-01	0	55	0	674758656	50	4532
2026-01-11 12:47:18.71	289.38	28.57	-39.5	-41.5	22.5	6.04e-01	0	55	0	676331520	50	4578
2026-01-11 12:47:19.72	289.74	28.48	-39.4	-41.5	22.5	6.08e-01	0	55	0	678428672	50	4569
2026-01-11 12:47:20.73	290.10	28.39	-39.5	-41.5	22.5	6.05e-01	0	55	0	680001536	50	4574
2026-01-11 12:47:21.74	290.45	28.31	-39.5	-41.6	22.4	6.06e-01	0	55	0	682098688	50	4618
2026-01-11 12:47:22.75	290.81	28.22	-39.5	-41.6	22.4	6.07e-01	0	55	0	683671552	50	4616
2026-01-11 12:47:23.76	291.16	28.13	-39.4	-41.5	22.5	6.06e-01	0	55	0	685768704	50	4554
2026-01-11 12:47:24.77	291.51	28.04	-39.5	-41.6	22.4	6.07e-01	0	55	0	687865856	50	4610
2026-01-11 12:47:25.78	291.86	27.95	-39.6	-41.7	22.2	6.07e-01	0	56	0	689438720	50	4676
2026-01-11 12:47:26.79	292.20	27.86	-39.6	-41.7	22.2	6.04e-01	0	55	0	691535872	50	4701
2026-01-11 12:47:27.80	292.55	27.77	-39.5	-41.6	22.4	6.05e-01	0	55	0	693108736	50	4607
2026-01-11 12:47:28.81	292.89	27.68	-39.5	-41.6	22.4	6.05e-01	0	55	0	695205888	50	4609
2026-01-11 12:47:29.82	293.23	27.59	-39.6	-41.6	22.3	6.08e-01	0	55	0	697303040	50	4650
2026-01-11 12:47:30.83	293.57	27.49	-39.7	-41.8	22.1	6.05e-01	0	55	0	698875904	50	4730
2026-01-11 12:47:31.84	293.90	27.40	-39.7	-41.8	22.1	6.05e-01	0	55	0	700973056	50	4741
2026-01-11 12:47:32.85	294.23	27.30	-39.6	-41.7	22.3	6.07e-01	0	55	0	703070208	50	4659
2026-01-11 12:47:33.86	294.57	27.21	-39.6	-41.8	22.2	6.07e-01	0	55	0	704643072	50	4714
2026-01-11 12:47:34.87	294.90	27.11	-39.6	-41.7	22.2	6.06e-01	0	55	0	706740224	50	4684
2026-01-11 12:47:35.88	295.22	27.02	-39.5	-41.6	22.4	6.06e-01	0	55	0	708313088	50	4602
2026-01-11 12:47:36.88	295.55	26.92	-39.6	-41.6	22.3	6.05e-01	0	55	0	710410240	50	4647
2026-01-11 12:47:37.89	295.87	26.82	-39.8	-41.9	22.0	6.07e-01	0	55	0	712507392	50	4800
2026-01-11 12:47:38.90	296.19	26.72	-39.8	-42.0	21.9	6.06e-01	0	55	0	714080256	50	4851
2026-01-11 12:47:39.91	296.51	26.63	-39.7	-41.8	22.1	6.04e-01	0	55	0	716177408	50	4721
2026-01-11 12:47:40.92	296.83	26.53	-39.6	-41.7	22.3	6.08e-01	0	55	0	717750272	50	4655
2026-01-11 12:47:41.93	297.14	26.43	-39.7	-41.8	22.1	6.07e-01	0	55	0	719847424	50	4735
2026-01-11 12:47:42.94	297.46	26.33	-39.8	-42.0	21.9	6.08e-01	0	55	0	721944576	50	4861
2026-01-11 12:47:43.95	297.77	26.23	-39.8	-42.0	22.0	6.07e-01	0	55	0	723517440	50	4815
2026-01-11 12:47:44.96	298.08	26.12	-39.7	-41.9	22.1	6.07e-01	0	55	0	725614592	50	4786
2026-01-11 12:47:45.97	298.39	26.02	-39.7	-41.8	22.1	6.05e-01	0	55	0	727711744	50	4742
2026-01-11 12:47:46.98	298.69	25.92	-39.8	-42.0	21.9	6.04e-01	0	55	0	729284608	50	4845
2026-01-11 12:47:47.99	298.99	25.82	-39.9	-42.1	21.8	6.04e-01	0	55	0	731381760	50	4912
2026-01-11 12:47:49.00	299.29	25.72	-39.8	-42.0	21.9	6.07e-01	0	55	0	732954624	50	4854
2026-01-11 12:47:50.01	299.59	25.61	-39.7	-41.8	22.1	6.06e-01	0	55	0	735051776	50	4726
2026-01-11 12:47:51.02	299.89	25.51	-39.6	-41.7	22.1	6.06e-01	0	55	0	737148928	50	4696
2026-01-11 12:47:52.03	300.19	25.40	-39.9	-42.1	21.9	6.06e-01	0	55	0	738721792	50	4873
2026-01-11 12:47:53.04	300.48	25.30	-40.0	-42.2	21.7	6.06e-01	0	55	0	740818944	50	4979
2026-01-11 12:47:54.04	300.77	25.20	-40.0	-42.2	21.6	6.06e-01	0	55	0	742391808	50	4974
2026-01-11 12:47:55.05	301.06	25.09	-39.9	-42.1	21.7	6.07e-01	0	55	0	744488960	50	4908
2026-01-11 12:47:56.06	301.34	24.99	-39.8	-42.0	21.9	6.09e-01	0	55	0	746586112	50	4860
2026-01-11 12:47:57.07	301.63	24.88	-39.8	-42.0	21.9	6.08e-01	0	55	0	748158976	50	4837
2026-01-11 12:47:58.08	301.91	24.78	-39.8	-42.0	21.9	6.06e-01	0	55	0	750256128	50	4842
2026-01-11 12:47:59.09	302.20	24.67	-39.8	-42.0	21.9	6.06e-01	0	55	0	751828992	50	4854
2026-01-11 12:48:00.10	302.47	24.56	-39.7	-41.9	21.9	6.07e-01	0	55	0	753926144	50	4782
2026-01-11 12:48:01.11	302.75	24.46	-39.7	-41.8	22.1	6.06e-01	0	56	0	756023296	50	4734
2026-01-11 12:48:02.12	303.03	24.35	-39.8	-41.9	21.9	6.07e-01	0	55	0	757596160	50	4795
2026-01-11 12:48:03.13	303.30	24.25	-39.9	-42.1	21.7	6.06e-01	0	56	0	759693312	50	4895
2026-01-11 12:48:04.14	303.57	24.14	-39.9	-42.2	21.7	6.06e-01	0	55	0	761266176	50	4943
2026-01-11 12:48:05.15	303.84	24.03	-39.9	-42.1	21.7	6.07e-01	0	55	0	763363328	50	4919
2026-01-11 12:48:06.16	304.11	23.93	-39.8	-42.0	21.8	6.03e-01	0	55	0	765460480	50	4861
2026-01-11 12:48:07.17	304.38	23.82	-39.9	-42.2	21.7	6.06e-01	0	55	0	767033344	50	4941
2026-01-11 12:48:08.18	304.64	23.71	-39.8	-42.1	21.8	6.07e-01	0	55	0	769130496	50	4884
2026-01-11 12:48:09.19	304.90	23.60	-39.7	-41.9	21.9	6.07e-01	0	56	0	771227648	50	4800
2026-01-11 12:48:10.20	305.17	23.50	-39.7	-41.9	22.0	6.06e-01	0	56	0	772800512	50	4773
2026-01-11 12:48:11.20	305.42	23.39	-39.8	-41.9	21.9	6.06e-01	0	55	0	774897664	50	4813
2026-01-11 12:48:12.21	305.68	23.28	-39.9	-42.1	21.7	6.08e-01	0	55	0	776470528	50	4922
2026-01-11 12:48:13.22	305.93	23.17	-39.9	-42.1	21.8	6.07e-01	0	56	0	778567680	50	4895
2026-01-11 12:48:14.23	306.19	23.07	-39.8	-42.1	21.8	6.04e-01	0	55	0	780664832	50	4875
2026-01-11 12:48:15.24	306.44	22.96	-39.9	-42.1	21.7	6.05e-01	0	55	0	782237696	50	4903
2026-01-11 12:48:16.25	306.69	22.85	-39.9	-42.1	21.7	6.06e-01	0	55	0	784334848	50	4902
2026-01-11 12:48:17.26	306.94	22.74	-39.8	-42.0	21.8	6.07e-01	0	55	0	785907712	50	4865
2026-01-11 12:48:18.27	307.18	22.63	-39.8	-42.0	21.8	6.09e-01	0	55	0	788004864	50	4817
2026-01-11 12:48:19.28	307.43	22.53	-39.8	-42.0	21.8	6.05e-01	0	55	0	790102016	50	4819
2026-01-11 12:48:20.29	307.67	22.42	-39.7	-41.9	21.9	6.06e-01	0	55	0	791674880	50	4783
2026-01-11 12:48:21.30	307.91	22.31	-39.7	-41.9	21.9	6.06e-01	0	56	0	793772032	50	4769
2026-01-11 12:48:22.31	308.15	22.20	-39.7	-41.9	21.9	6.07e-01	0	56	0	795869184	50	4787
2026-01-11 12:48:23.31	308.39	22.10	-39.8	-41.9	21.9	6.07e-01	0	55	0	797442048	50	4811
2026-01-11 12:48:24.32	308.62	21.99	-39.8	-42.0	21.7	6.05e-01	0	56	0	799539200	50	4862
2026-01-11 12:48:25.33	308.86	21.88	-39.8	-42.1	21.7	6.07e-01	0	55	0	801112064	50	4879
2026-01-11 12:48:26.34	309.09	21.77	-39.8	-42.0	21.8	6.08e-01	0	55	0	803209216	50	4851
2026-01-11 12:48:27.35	309.32	21.66	-39.8	-42.0	21.8	6.06e-01	0	56	0	804782080	50	4868
2026-01-11 12:48:28.36	309.55	21.56	-39.8	-42.0	21.9	6.07e-01	0	55	0	806879232	50	4816
2026-01-11 12:48:29.36	309.77	21.45	-39.8	-42.0	21.8	6.07e-01	0	56	0	808976384	50	4816
2026-01-11 12:48:30.38	310.00	21.34	-39.7	-41.9	21.9	6.07e-01	0	56	0	810549248	50	4780
2026-01-11 12:48:31.38	310.22	21.24	-39.7	-41.9	21.9	6.07e-01	0	55	0	812646400	50	4775
2026-01-11 12:48:32.39	310.45	21.13	-39.7	-41.9	21.9	6.05e-01	0	55	0	814219264	50	4767
2026-01-11 12:48:33.40	310.67	21.02	-39.7	-41.9	21.9	6.05e-01	0	55	0	816316416	50	4775
2026-01-11 12:48:34.41	310.89	20.91	-39.7	-41.9	21.9	6.08e-01	0	55	0	818413568	50	4779
2026-01-11 12:48:35.42	311.11	20.81	-39.7	-41.9	21.9	6.08e-01	0	55	0	819986432	50	4777
2026-01-11 12:48:36.43	311.32	20.70	-39.7	-41.9	21.9	6.07e-01	0	55	0	822083584	50	4760
2026-01-11 12:48:37.44	311.54	20.59	-39.7	-41.9	21.9	6.07e-01	0	55	0	824180736	50	4782
2026-01-11 12:48:38.45	311.75	20.49	-39.7	-41.9	21.9	6.06e-01	0	56	0	825753600	50	4775
2026-01-11 12:48:39.46	311.96	20.38	-39.6	-41.8	21.9	6.07e-01	0	55	0	827850752	50	4744
2026-01-11 12:48:40.47	312.17	20.27	-39.6	-41.8	21.9	6.05e-01	0	55	0	829423616	50	4726
2026-01-11 12:48:41.48	312.38	20.17	-39.6	-41.7	22.0	6.08e-01	0	55	0	831520768	50	4701
2026-01-11 12:48:42.49	312.59	20.06	-39.6	-41.8	22.0	6.07e-01	0	55	0	833617920	50	4711
2026-01-11 12:48:43.50	312.79	19.95	-39.6	-41.8	22.0	6.06e-01	0	56	0	835190784	50	4713
2026-01-11 12:48:44.50	313.00	19.85	-39.6	-41.8	21.9	6.05e-01	0	55	0	837287936	50	4736
2026-01-11 12:48:45.51	313.20	19.74	-39.7	-41.8	21.9	6.05e-01	0	55	0	839385088	50	4758
2026-01-11 12:48:46.52	313.40	19.64	-39.6	-41.8	21.9	6.05e-01	0	55	0	840957952	50	4750
2026-01-11 12:48:47.53	313.60	19.53	-39.7	-41.9	21.8	6.07e-01	0	56	0	843055104	50	4779
2026-01-11 12:48:48.54	313.80	19.43	-39.6	-41.8	21.9	6.06e-01	0	55	0	844627968	50	4751
2026-01-11 12:48:49.55	314.00	19.32	-39.6	-41.8	21.9	6.04e-01	0	55	0	846725120	50	4726
2026-01-11 12:48:50.56	314.19	19.22	-39.6	-41.8	21.9	6.04e-01	0	55	0	848822272	50	4712
2026-01-11 12:48:51.57	314.39	19.11	-39.5	-41.7	22.0	6.07e-01	0	56	0	850395136	50	4686
2026-01-11 12:48:52.58	314.58	19.01	-39.6	-41.8	22.0	6.06e-01	0	55	0	852492288	50	4706
2026-01-11 12:48:53.59	314.77	18.90	-39.6	-41.8	21.9	6.08e-01	0	55	0	854065152	50	4711
2026-01-11 12:48:54.60	314.96	18.80	-39.6	-41.8	21.9	6.06e-01	0	55	0	856162304	50	4742
2026-01-11 12:48:55.61	315.15	18.69	-39.7	-41.9	21.8	6.08e-01	0	56	0	858259456	50	4769
2026-01-11 12:48:56.62	315.34	18.59	-39.6	-41.8	21.9	6.09e-01	0	56	0	859832320	50	4736
2026-01-11 12:48:57.63	315.53	18.49	-39.6	-41.8	21.8	6.07e-01	0	55	0	861929472	50	4731
2026-01-11 12:48:58.63	315.71	18.39	-39.6	-41.8	21.9	6.06e-01	0	56	0	863502336	50	4714
2026-01-11 12:48:59.64	315.89	18.28	-39.6	-41.7	21.9	6.06e-01	0	55	0	865599488	50	4694
2026-01-11 12:49:00.65	316.08	18.18	-39.5	-41.7	21.9	6.08e-01	0	55	0	867696640	50	4658
2026-01-11 12:49:01.66	316.26	18.08	-39.5	-41.7	21.9	6.08e-01	0	55	0	869269504	50	4682
2026-01-11 12:49:02.67	316.44	17.97	-39.5	-41.7	21.9	6.05e-01	0	55	0	871366656	50	4681
2026-01-11 12:49:03.68	316.62	17.87	-39.6	-41.8	21.9	6.07e-01	0	55	0	872939520	50	4731
2026-01-11 12:49:04.69	316.79	17.77	-39.6	-41.8	21.9	6.06e-01	0	55	0	875036672	50	4729
2026-01-11 12:49:05.70	316.97	17.67	-39.6	-41.8	21.8	6.07e-01	0	55	0	877133824	50	4740
2026-01-11 12:49:06.71	317.14	17.57	-39.6	-41.8	21.8	6.04e-01	0	55	0	878706688	50	4735
2026-01-11 12:49:07.72	317.32	17.46	-39.6	-41.8	21.8	6.05e-01	0	55	0	880803840	50	4730
2026-01-11 12:49:08.73	317.49	17.36	-39.6	-41.8	21.8	6.07e-01	0	55	0	882376704	50	4749
2026-01-11 12:49:09.74	317.66	17.26	-39.6	-41.8	21.9	6.07e-01	0	55	0	884473856	50	4706
2026-01-11 12:49:10.75	317.83	17.16	-39.5	-41.7	21.9	6.05e-01	0	55	0	886571008	50	4678
2026-01-11 12:49:11.76	318.00	17.06	-39.5	-41.7	22.0	6.06e-01	0	56	0	888143872	50	4666
2026-01-11 12:49:12.77	318.17	16.96	-39.5	-41.6	22.0	6.06e-01	0	55	0	890241024	50	4644
2026-01-11 12:49:13.78	318.34	16.86	-39.5	-41.6	22.0	6.06e-01	0	55	0	892338176	50	4623
2026-01-11 12:49:14.79	318.50	16.76	-39.5	-41.6	22.0	6.06e-01	0	55	0	893911040	50	4645
2026-01-11 12:49:15.79	318.66	16.66	-39.5	-41.6	22.0	6.08e-01	0	55	0	896008192	50	4638
2026-01-11 12:49:16.80	318.83	16.56	-39.5	-41.7	21.9	6.08e-01	0	55	0	897581056	50	4667
2026-01-11 12:49:17.81	318.99	16.46	-39.5	-41.7	21.9	6.05e-01	0	55	0	899678208	50	4666
2026-01-11 12:49:18.82	319.15	16.36	-39.5	-41.7	21.9	6.05e-01	0	55	0	901775360	50	4694
2026-01-11 12:49:19.83	319.31	16.27	-39.6	-41.8	21.8	6.06e-01	0	55	0	903348224	50	4742
2026-01-11 12:49:20.84	319.47	16.17	-39.6	-41.8	21.8	6.05e-01	0	56	0	905445376	50	4747
2026-01-11 12:49:21.85	319.63	16.07	-39.6	-41.9	21.7	6.05e-01	0	56	0	907018240	50	4769
2026-01-11 12:49:22.86	319.78	15.97	-39.6	-41.9	21.7	6.08e-01	0	56	0	909115392	50	4772
2026-01-11 12:49:23.87	319.94	15.87	-39.6	-41.9	21.7	6.07e-01	0	55	0	911212544	50	4778
2026-01-11 12:49:24.88	320.10	15.78	-39.6	-41.8	21.7	6.06e-01	0	56	0	912785408	50	4758
2026-01-11 12:49:25.89	320.25	15.68	-39.6	-41.8	21.8	6.06e-01	0	55	0	914882560	50	4733
2026-01-11 12:49:26.90	320.40	15.58	-39.6	-41.8	21.7	6.06e-01	0	55	0	916455424	50	4740
2026-01-11 12:49:27.91	320.55	15.49	-39.5	-41.7	21.8	6.06e-01	0	55	0	918552576	50	4705
2026-01-11 12:49:28.91	320.70	15.39	-39.6	-41.8	21.8	6.05e-01	0	55	0	920649728	50	4723
2026-01-11 12:49:29.92	320.85	15.29	-39.6	-41.8	21.7	6.07e-01	0	55	0	922222592	50	4738
2026-01-11 12:49:30.93	321.00	15.20	-39.6	-41.8	21.7	6.06e-01	0	56	0	924319744	50	4732
2026-01-11 12:49:31.94	321.15	15.10	-39.6	-41.8	21.7	6.04e-01	0	56	0	925892608	50	4741
2026-01-11 12:49:32.95	321.30	15.01	-39.6	-41.8	21.7	6.08e-01	0	56	0	927989760	50	4757
2026-01-11 12:49:33.96	321.44	14.91	-39.7	-41.9	21.6	6.08e-01	0	56	0	930086912	50	4795
2026-01-11 12:49:34.97	321.59	14.82	-39.6	-41.9	21.7	6.07e-01	0	56	0	931659776	50	4775
2026-01-11 12:49:35.98	321.73	14.72	-39.7	-41.9	21.6	6.06e-01	0	55	0	933756928	50	4796
2026-01-11 12:49:36.99	321.87	14.63	-39.7	-41.9	21.6	6.07e-01	0	55	0	935854080	50	4802
2026-01-11 12:49:38.00	322.01	14.53	-39.7	-42.0	21.5	6.06e-01	0	56	0	937426944	50	4847
2026-01-11 12:49:39.01	322.16	14.44	-39.8	-42.1	21.5	6.06e-01	0	56	0	939524096	50	4875
2026-01-11 12:49:40.02	322.30	14.35	-39.8	-42.1	21.4	6.09e-01	0	55	0	941096960	50	4907
2026-01-11 12:49:41.03	322.43	14.25	-39.8	-42.1	21.4	6.05e-01	0	55	0	943194112	50	4909
2026-01-11 12:49:42.04	322.57	14.16	-39.8	-42.1	21.4	6.06e-01	0	56	0	945291264	50	4880
2026-01-11 12:49:43.05	322.71	14.07	-39.8	-42.1	21.4	6.07e-01	0	55	0	946864128	50	4879
2026-01-11 12:49:44.06	322.85	13.97	-39.7	-42.0	21.4	6.06e-01	0	55	0	948961280	50	4869
2026-01-11 12:49:45.07	322.98	13.88	-39.7	-42.0	21.4	6.05e-01	0	56	0	950534144	50	4856
2026-01-11 12:49:46.08	323.12	13.79	-39.7	-42.0	21.4	6.06e-01	0	56	0	952631296	50	4866
2026-01-11 12:49:47.09	323.25	13.70	-39.6	-41.9	21.5	6.05e-01	0	56	0	954728448	50	4799
2026-01-11 12:49:48.10	323.38	13.61	-39.6	-41.9	21.6	6.06e-01	0	56	0	956301312	50	4778
2026-01-11 12:49:49.11	323.52	13.51	-39.7	-41.9	21.5	6.05e-01	0	56	0	958398464	50	4809
2026-01-11 12:49:50.12	323.65	13.42	-39.6	-41.9	21.5	6.06e-01	0	56	0	960495616	50	4787
2026-01-11 12:49:51.13	323.78	13.33	-39.7	-42.0	21.5	6.03e-01	0	56	0	962068480	50	4830
2026-01-11 12:49:52.14	323.91	13.24	-39.7	-42.0	21.5	6.01e-01	0	55	0	964165632	50	4829
2026-01-11 12:49:53.15	324.04	13.15	-39.7	-42.0	21.4	6.03e-01	0	56	0	965738496	50	4853
2026-01-11 12:49:54.16	324.16	13.06	-39.8	-42.1	21.3	6.00e-01	0	56	0	967835648	50	4891
2026-01-11 12:49:55.17	324.29	12.97	-39.9	-42.2	21.2	6.02e-01	0	56	0	969932800	50	4966
2026-01-11 12:49:56.18	324.42	12.88	-39.9	-42.3	21.1	6.03e-01	0	55	0	971505664	50	4997
2026-01-11 12:49:57.19	324.54	12.79	-39.9	-42.3	21.1	6.06e-01	0	56	0	973602816	50	5029
2026-01-11 12:49:58.20	324.67	12.70	-40.0	-42.4	21.0	5.99e-01	0	55	0	975175680	50	5054
2026-01-11 12:49:59.21	324.79	12.62	-40.0	-42.4	21.0	6.02e-01	0	56	0	977272832	50	5065
2026-01-11 12:50:00.22	324.92	12.53	-40.0	-42.4	21.0	6.03e-01	0	56	0	979369984	50	5055
2026-01-11 12:50:01.23	325.04	12.44	-40.0	-42.4	21.0	6.02e-01	0	55	0	980942848	50	5068
2026-01-11 12:50:02.24	325.16	12.35	-39.9	-42.3	21.1	6.02e-01	0	56	0	983040000	50	5013
2026-01-11 12:50:03.25	325.28	12.26	-40.0	-42.4	21.0	6.02e-01	0	56	0	984612864	50	5059
2026-01-11 12:50:04.26	325.40	12.17	-39.9	-42.4	21.0	6.02e-01	0	56	0	986710016	50	5054
2026-01-11 12:50:05.27	325.52	12.09	-39.9	-42.4	21.0	6.02e-01	0	55	0	988807168	50	5052
2026-01-11 12:50:06.28	325.64	12.00	-40.0	-42.4	21.0	6.03e-01	0	55	0	990380032	50	5061
2026-01-11 12:50:07.28	325.76	11.91	-40.0	-42.4	20.9	6.03e-01	0	56	0	992477184	50	5062
2026-01-11 12:50:08.29	325.87	11.83	-40.0	-42.4	20.9	6.03e-01	0	56	0	994050048	50	5099
2026-01-11 12:50:09.30	325.99	11.74	-40.0	-42.4	20.9	6.03e-01	0	56	0	996147200	50	5086
2026-01-11 12:50:10.31	326.11	11.66	-39.9	-42.4	20.9	6.00e-01	0	56	0	998244352	50	5059
2026-01-11 12:50:11.32	326.22	11.57	-39.9	-42.4	20.9	6.02e-01	0	56	0	999817216	50	5057
2026-01-11 12:50:12.33	326.34	11.48	-40.0	-42.5	20.8	6.01e-01	0	56	0	1001914368	50	5113
2026-01-11 12:50:13.34	326.45	11.40	-40.0	-42.4	20.9	6.02e-01	0	56	0	1003487232	50	5076
2026-01-11 12:50:14.35	326.56	11.31	-40.0	-42.4	20.8	5.98e-01	0	56	0	1005584384	50	5080
2026-01-11 12:50:15.36	326.68	11.23	-40.0	-42.5	20.8	6.04e-01	0	55	0	1007681536	50	5116
2026-01-11 12:50:16.37	326.79	11.14	-40.0	-42.5	20.8	6.05e-01	0	56	0	1009254400	50	5121
2026-01-11 12:50:17.38	326.90	11.06	-40.0	-42.5	20.7	6.02e-01	0	55	0	1011351552	50	5158
2026-01-11 12:50:18.39	327.01	10.97	-40.1	-42.6	20.6	6.00e-01	0	56	0	1013448704	50	5174
2026-01-11 12:50:19.40	327.12	10.89	-40.1	-42.6	20.6	6.03e-01	0	56	0	1015021568	50	5202
2026-01-11 12:50:20.41	327.23	10.81	-40.2	-42.7	20.5	6.03e-01	0	55	0	1017118720	50	5263
2026-01-11 12:50:21.42	327.34	10.72	-40.1	-42.7	20.5	6.01e-01	0	56	0	1018691584	50	5247
2026-01-11 12:50:22.43	327.44	10.64	-40.2	-42.8	20.4	5.99e-01	0	56	0	1020788736	50	5308
2026-01-11 12:50:23.43	327.55	10.56	-40.1	-42.7	20.4	6.01e-01	0	56	0	1022885888	51	4952
2026-01-11 12:50:24.44	327.66	10.48	-40.2	-42.8	20.3	5.99e-01	0	56	0	1024458752	51	5021
2026-01-11 12:50:25.45	327.76	10.39	-40.2	-42.9	20.3	6.04e-01	0	56	0	1026555904	51	5049
2026-01-11 12:50:26.46	327.87	10.31	-40.2	-42.8	20.4	6.00e-01	0	55	0	1028653056	51	5022
2026-01-11 12:50:27.47	327.97	10.23	-40.3	-43.0	20.2	6.03e-01	0	56	0	1030225920	51	5136
2026-01-11 12:50:28.48	328.08	10.15	-40.2	-42.9	20.3	6.02e-01	0	56	0	1032323072	51	5043
2026-01-11 12:50:29.49	328.18	10.06	-40.3	-42.9	20.2	6.05e-01	0	56	0	1033895936	51	5095
2026-01-11 12:50:30.50	328.28	9.98	-40.3	-42.9	20.2	6.02e-01	0	56	0	1035993088	51	5090
2026-01-11 12:50:31.51	328.39	9.90	-40.3	-43.0	20.1	5.99e-01	0	56	0	1038090240	51	5138
2026-01-11 12:50:32.52	328.49	9.82	-40.3	-43.0	20.1	6.03e-01	0	56	0	1039663104	51	5146
2026-01-11 12:50:33.53	328.59	9.74	-40.4	-43.1	20.0	6.04e-01	0	56	0	1041760256	51	5172
2026-01-11 12:50:34.54	328.69	9.66	-40.4	-43.1	20.0	6.02e-01	0	56	0	1043333120	51	5175
2026-01-11 12:50:35.55	328.79	9.58	-40.2	-42.9	20.2	6.02e-01	0	55	0	1045430272	51	5068
2026-01-11 12:50:36.56	328.89	9.50	-40.3	-43.0	20.0	6.01e-01	0	56	0	1047527424	51	5135
2026-01-11 12:50:37.57	328.99	9.42	-40.4	-43.2	19.9	6.04e-01	0	56	0	1049100288	51	5225
2026-01-11 12:50:38.58	329.09	9.34	-40.4	-43.1	19.9	6.03e-01	0	56	0	1051197440	51	5186
2026-01-11 12:50:39.59	329.19	9.26	-40.4	-43.2	19.8	6.01e-01	0	56	0	1052770304	51	5225
2026-01-11 12:50:40.60	329.28	9.18	-40.4	-43.2	19.8	6.05e-01	0	56	0	1054867456	51	5254
2026-01-11 12:50:41.60	329.38	9.10	-40.4	-43.1	19.9	6.03e-01	0	56	0	1056964608	51	5195
2026-01-11 12:50:42.61	329.48	9.02	-40.4	-43.2	19.8	6.00e-01	0	55	0	1058537472	51	5267
2026-01-11 12:50:43.62	329.57	8.95	-40.4	-43.2	19.8	6.00e-01	0	56	0	1060634624	51	5252
2026-01-11 12:50:44.63	329.67	8.87	-40.4	-43.2	19.8	6.01e-01	0	55	0	1062207488	51	5250
2026-01-11 12:50:45.64	329.76	8.79	-40.4	-43.2	19.8	6.00e-01	0	56	0	1064304640	51	5245
2026-01-11 12:50:46.65	329.86	8.71	-40.4	-43.2	19.8	6.01e-01	0	55	0	1066401792	51	5255
2026-01-11 12:50:47.66	329.95	8.63	-40.5	-43.3	19.6	6.00e-01	0	56	0	1067974656	51	5322
2026-01-11 12:50:48.67	330.04	8.56	-40.5	-43.3	19.6	6.00e-01	0	56	0	1070071808	51	5330
2026-01-11 12:50:49.68	330.13	8.48	-40.5	-43.3	19.7	6.03e-01	0	56	0	1071644672	51	5306
2026-01-11 12:50:50.69	330.23	8.40	-40.4	-43.3	19.7	6.04e-01	0	56	0	1073741824	51	5282
2026-01-11 12:50:51.70	330.32	8.32	-40.5	-43.4	19.6	6.01e-01	0	56	0	1075838976	51	5368
2026-01-11 12:50:52.71	330.41	8.25	-40.5	-43.4	19.5	6.02e-01	0	56	0	1077411840	51	5362
2026-01-11 12:50:53.72	330.50	8.17	-40.5	-43.4	19.5	6.03e-01	0	56	0	1079508992	51	5355
2026-01-11 12:50:54.73	330.59	8.09	-40.5	-43.4	19.5	6.03e-01	0	56	0	1081606144	51	5347
2026-01-11 12:50:55.74	330.68	8.02	-44.4	-55.3	2.9	7.10e-01	0	56	104	1083179008	60	12572
2026-01-11 12:50:56.75	330.77	7.94	-45.1	-63.6	3.8	7.45e-01	0	56	104	1083179008	61	30917
2026-01-11 12:50:57.76	330.86	7.87	-44.4	-62.0	3.9	7.43e-01	0	56	104	1083179008	60	27179
2026-01-11 12:50:58.77	330.95	7.79	-45.7	-64.5	3.9	7.47e-01	0	56	104	1083179008	62	32250
2026-01-11 12:50:59.78	331.03	7.72	-45.9	-64.7	3.8	7.45e-01	0	56	104	1083179008	62	32991
2026-01-11 12:51:00.79	331.12	7.64	-46.0	-64.8	3.8	7.48e-01	0	56	104	1083179008	62	33670
2026-01-11 12:51:01.80	331.21	7.57	-46.1	-64.9	3.8	7.44e-01	0	56	104	1083179008	62	33934
2026-01-11 12:51:02.81	331.29	7.49	-46.1	-65.0	3.8	7.41e-01	0	56	104	1083179008	62	34214
2026-01-11 12:51:03.83	331.38	7.42	-46.2	-65.0	3.8	7.46e-01	0	56	104	1083179008	62	34264
2026-01-11 12:51:04.84	331.47	7.34	-46.1	-65.0	3.8	7.46e-01	0	56	104	1083179008	62	34349
2026-01-11 12:51:05.85	331.55	7.27	-46.1	-65.0	3.8	7.47e-01	0	56	104	1083179008	62	34323
2026-01-11 12:51:06.86	331.63	7.19	-46.0	-65.0	3.8	7.45e-01	0	56	104	1083179008	62	34177
2026-01-11 12:51:07.87	331.72	7.12	-46.1	-65.0	3.8	7.43e-01	0	56	104	1083179008	62	34272
2026-01-11 12:51:08.88	331.80	7.05	-46.1	-65.0	3.8	7.40e-01	0	56	104	1083179008	62	34309
2026-01-11 12:51:09.89	331.89	6.97	-46.1	-65.0	3.8	7.45e-01	0	56	104	1083179008	62	34105
2026-01-11 12:51:10.90	331.97	6.90	-46.1	-65.0	3.8	7.48e-01	0	56	104	1083179008	62	34123
2026-01-11 12:51:11.91	332.05	6.83	-46.1	-65.0	3.8	7.45e-01	0	56	104	1083179008	62	34178
2026-01-11 12:51:12.92	332.13	6.75	-46.1	-64.9	3.8	7.45e-01	0	56	104	1083179008	62	34077
2026-01-11 12:51:13.93	332.21	6.68	-46.0	-65.0	3.8	7.44e-01	0	56	104	1083179008	62	34113
2026-01-11 12:51:14.94	332.30	6.61	-46.1	-65.0	3.8	7.46e-01	0	56	104	1083179008	62	34095
2026-01-11 12:51:15.95	332.38	6.54	-46.0	-64.9	3.8	7.42e-01	0	56	104	1083179008	62	34076
2026-01-11 12:51:16.97	332.46	6.46	-46.0	-64.9	3.8	7.48e-01	0	56	104	1083179008	62	34050
2026-01-11 12:51:17.98	332.54	6.39	-46.0	-65.0	3.8	7.46e-01	0	56	104	1083179008	62	34099
2026-01-11 12:51:18.99	332.62	6.32	-46.0	-64.9	3.8	7.47e-01	0	56	104	1083179008	62	34025
2026-01-11 12:51:20.00	332.70	6.25	-45.4	-64.9	3.8	7.44e-01	0	56	104	1083179008	62	34073
2026-01-11 12:51:21.01	332.77	6.18	-46.0	-64.9	3.8	7.46e-01	0	56	104	1083179008	62	34039
2026-01-11 12:51:22.02	332.85	6.11	-46.0	-65.0	3.8	7.45e-01	0	56	104	1083179008	62	34150
2026-01-11 12:51:23.03	332.93	6.04	-45.9	-64.9	3.8	7.44e-01	0	56	104	1083179008	62	33994
2026-01-11 12:51:24.04	333.01	5.97	-46.0	-64.9	3.8	7.46e-01	0	56	104	1083179008	62	34044
2026-01-11 12:51:25.05	333.09	5.89	-46.0	-64.9	3.8	7.47e-01	0	56	104	1083179008	62	34005
2026-01-11 12:51:26.06	333.16	5.82	-46.0	-64.9	3.8	7.43e-01	0	56	104	1083179008	62	34000
2026-01-11 12:51:27.08	333.24	5.75	-46.0	-64.9	3.8	7.46e-01	0	56	104	1083179008	62	33978
2026-01-11 12:51:28.09	333.31	5.68	-46.0	-64.9	3.8	7.46e-01	0	56	104	1083179008	62	34007
2026-01-11 12:51:29.10	333.39	5.61	-46.0	-64.9	3.8	7.47e-01	0	56	104	1083179008	62	34006
2026-01-11 12:51:30.11	333.47	5.54	-46.0	-64.9	3.8	7.43e-01	0	56	104	1083179008	62	34016
2026-01-11 12:51:31.12	333.54	5.47	-46.0	-64.9	3.8	7.43e-01	0	56	104	1083179008	62	33931
2026-01-11 12:51:32.13	333.62	5.40	-45.3	-64.9	3.8	7.44e-01	0	56	104	1083179008	62	34038
2026-01-11 12:51:33.14	333.69	5.34	-46.0	-64.9	3.8	7.47e-01	0	56	104	1083179008	62	33941
2026-01-11 12:51:34.15	333.76	5.27	-46.0	-64.9	3.8	7.46e-01	0	56	104	1083179008	62	34030
2026-01-11 12:51:35.16	333.84	5.20	-46.0	-64.9	3.8	7.45e-01	0	56	104	1083179008	62	33990
2026-01-11 12:51:36.17	333.91	5.13	-46.0	-64.9	3.8	7.45e-01	0	56	104	1083179008	62	33937
2026-01-11 12:51:37.19	333.98	5.06	-46.0	-64.9	3.8	7.46e-01	0	56	104	1083179008	62	34018
2026-01-11 12:51:38.20	334.06	4.99	-46.0	-64.9	3.8	7.48e-01	0	56	104	1083179008	62	33913
2026-01-11 12:51:39.21	334.13	4.92	-46.0	-64.9	3.8	7.44e-01	0	56	104	1083179008	62	33954
2026-01-11 12:51:40.22	334.20	4.85	-46.0	-64.9	3.8	7.48e-01	0	56	104	1083179008	62	33922
2026-01-11 12:51:41.23	334.27	4.79	-46.0	-64.9	3.8	7.48e-01	0	56	104	1083179008	62	33944
2026-01-11 12:51:42.24	334.34	4.72	-46.0	-64.9	3.8	7.43e-01	0	56	104	1083179008	62	33976
2026-01-11 12:51:43.25	334.41	4.65	-46.0	-64.9	3.8	7.47e-01	0	56	104	1083179008	62	33876
2026-01-11 12:51:44.26	334.48	4.58	-46.0	-64.9	3.8	7.46e-01	0	56	104	1083179008	62	33911
2026-01-11 12:51:45.27	334.55	4.52	-46.0	-64.9	3.8	7.46e-01	0	56	104	1083179008	62	33996
2026-01-11 12:51:46.29	334.62	4.45	-46.0	-64.9	3.8	7.46e-01	0	56	104	1083179008	62	33963
2026-01-11 12:51:47.30	334.69	4.38	-46.0	-64.9	3.8	7.48e-01	0	56	104	1083179008	62	33851
2026-01-11 12:51:48.31	334.76	4.31	-46.0	-64.9	3.8	7.46e-01	0	56	104	1083179008	62	33930
2026-01-11 12:51:49.32	334.83	4.25	-46.0	-64.9	3.8	7.45e-01	0	56	104	1083179008	62	33888
2026-01-11 12:51:50.33	334.90	4.18	-46.0	-64.9	3.8	7.43e-01	0	56	104	1083179008	62	33875
2026-01-11 12:51:51.34	334.97	4.12	-46.0	-64.9	3.8	7.49e-01	0	56	104	1083179008	62	33930
2026-01-11 12:51:52.35	335.03	4.05	-46.0	-64.9	3.8	7.44e-01	0	56	104	1083179008	62	33885
