passes_logs/2026/01/11/R2.0S_Moscow/R2.0S_Moscow__20260111_092041_NOAA_20_JPSS-1_rec.log

#Pass ID: 20260111_092041_NOAA 20 (JPSS-1)
#Satellite: NOAA 20 (JPSS-1)
#Configuration: NOAA 20
#almurnet v.1.7.20251203
#Start time: 2026-01-11 09:20:42

#Version: 2.2.20231116
#Station: R2.0S_Moscow
#Location: 37.707566 lon 55.798166 lat
#TLE: 1 43013U 17073A   26009.69119415  .00000109  00000+0  72598-4 0  9996
#TLE: 2 43013  98.7631 310.6868 0001678  46.7442 313.3874 14.19534878421981

#Time	Az	El	Level	Level2	SNR	BER	BlckErr	Temp	State	Recorded	gain1	gain2
2026-01-11 09:20:42.11	143.85	2.03	-43.8	-58.2	3.8	1.49e+00	0	47	0	0	59	18606
2026-01-11 09:20:43.12	143.82	2.10	-43.8	-58.2	3.8	1.49e+00	0	48	104	0	59	18645
2026-01-11 09:20:44.13	143.80	2.16	-43.8	-58.2	3.8	1.49e+00	0	48	104	0	59	18563
2026-01-11 09:20:45.14	143.78	2.23	-43.8	-58.2	3.8	1.49e+00	0	48	104	0	59	18571
2026-01-11 09:20:46.15	143.75	2.29	-43.8	-58.2	3.8	1.49e+00	0	48	104	0	59	18562
2026-01-11 09:20:47.16	143.73	2.36	-43.8	-58.2	3.8	1.49e+00	0	48	104	0	59	18563
2026-01-11 09:20:48.17	143.70	2.42	-43.8	-58.2	3.8	1.49e+00	0	48	104	0	59	18553
2026-01-11 09:20:49.18	143.68	2.49	-43.8	-58.2	3.8	1.49e+00	0	48	104	0	59	18605
2026-01-11 09:20:50.19	143.66	2.55	-43.8	-58.2	3.8	1.49e+00	0	48	104	0	59	18563
2026-01-11 09:20:51.20	143.63	2.62	-43.8	-58.2	3.8	1.49e+00	0	48	104	0	59	18568
2026-01-11 09:20:52.22	143.61	2.68	-43.8	-58.2	3.8	1.49e+00	0	48	104	0	59	18537
2026-01-11 09:20:53.23	143.58	2.75	-43.8	-58.2	3.8	1.49e+00	0	48	104	0	59	18592
2026-01-11 09:20:54.24	143.56	2.82	-43.8	-58.2	3.8	1.49e+00	0	48	104	0	59	18592
2026-01-11 09:20:55.25	143.53	2.88	-43.8	-58.2	3.8	1.49e+00	0	49	104	0	59	18593
2026-01-11 09:20:56.26	143.51	2.95	-43.8	-58.2	3.8	1.49e+00	0	48	104	0	59	18561
2026-01-11 09:20:57.27	143.49	3.01	-43.8	-58.2	3.8	1.49e+00	0	49	104	0	59	18585
2026-01-11 09:20:58.28	143.46	3.08	-43.8	-58.2	3.8	1.49e+00	0	49	104	0	59	18600
2026-01-11 09:20:59.29	143.43	3.15	-43.8	-58.2	3.8	1.49e+00	0	49	104	0	59	18586
2026-01-11 09:21:00.30	143.41	3.21	-43.8	-58.2	3.8	1.49e+00	0	49	104	0	59	18600
2026-01-11 09:21:01.31	143.38	3.28	-43.8	-58.2	3.8	1.49e+00	0	49	104	0	59	18528
2026-01-11 09:21:02.32	143.36	3.35	-43.8	-58.2	3.8	1.49e+00	0	49	104	0	59	18583
2026-01-11 09:21:03.33	143.33	3.42	-43.8	-58.2	3.8	1.49e+00	0	49	104	0	59	18608
2026-01-11 09:21:04.34	143.31	3.48	-43.8	-58.2	3.8	1.49e+00	0	49	104	0	59	18519
2026-01-11 09:21:05.35	143.28	3.55	-43.8	-58.2	3.8	1.49e+00	0	49	104	0	59	18540
2026-01-11 09:21:06.37	143.26	3.62	-43.8	-58.2	3.8	1.49e+00	0	49	104	0	59	18572
2026-01-11 09:21:07.38	143.23	3.69	-43.8	-58.2	3.8	1.49e+00	0	49	104	0	59	18564
2026-01-11 09:21:08.39	143.20	3.75	-43.8	-58.2	3.8	1.49e+00	0	49	104	0	59	18593
2026-01-11 09:21:09.40	143.18	3.82	-43.8	-58.2	3.8	1.49e+00	0	49	104	0	59	18525
2026-01-11 09:21:10.41	143.15	3.89	-43.8	-58.2	3.8	1.49e+00	0	50	104	0	59	18545
2026-01-11 09:21:11.42	143.12	3.96	-43.8	-58.2	3.8	1.49e+00	0	49	104	0	59	18605
2026-01-11 09:21:12.43	143.10	4.03	-43.8	-58.1	3.8	1.49e+00	0	50	104	0	59	18513
2026-01-11 09:21:13.44	143.07	4.10	-43.8	-58.2	3.8	1.49e+00	0	50	104	0	59	18574
2026-01-11 09:21:14.45	143.04	4.17	-43.8	-58.2	3.8	1.49e+00	0	50	104	0	59	18591
2026-01-11 09:21:15.46	143.02	4.24	-43.8	-58.2	3.8	1.49e+00	0	50	104	0	59	18588
2026-01-11 09:21:16.48	142.99	4.31	-43.8	-58.2	3.8	1.49e+00	0	50	104	0	59	18540
2026-01-11 09:21:17.49	142.96	4.38	-43.8	-58.2	3.8	1.49e+00	0	50	104	0	59	18526
2026-01-11 09:21:18.50	142.93	4.44	-43.8	-58.2	3.8	1.49e+00	0	50	104	0	59	18579
2026-01-11 09:21:19.51	142.90	4.51	-43.8	-58.2	3.8	1.49e+00	0	50	104	0	59	18595
2026-01-11 09:21:20.52	142.88	4.58	-43.8	-58.2	3.8	1.49e+00	0	50	104	0	59	18555
2026-01-11 09:21:21.53	142.85	4.66	-43.8	-58.1	3.8	1.49e+00	0	50	104	0	59	18517
2026-01-11 09:21:22.54	142.82	4.73	-43.8	-58.2	3.8	1.49e+00	0	50	104	0	59	18558
2026-01-11 09:21:23.55	142.79	4.80	-43.8	-58.2	3.8	1.49e+00	0	50	104	0	59	18551
2026-01-11 09:21:24.56	142.76	4.87	-43.8	-58.1	3.8	1.49e+00	0	50	104	0	59	18476
2026-01-11 09:21:25.57	142.73	4.94	-43.8	-58.1	3.8	1.49e+00	0	50	104	0	59	18480
2026-01-11 09:21:26.59	142.71	5.01	-43.8	-58.1	3.8	1.49e+00	0	51	104	0	59	18390
2026-01-11 09:21:27.60	142.68	5.08	-43.8	-58.0	3.8	1.49e+00	0	51	104	0	59	18258
2026-01-11 09:21:28.61	142.65	5.15	-43.8	-58.0	3.8	1.49e+00	0	51	104	0	59	18143
2026-01-11 09:21:29.62	142.62	5.22	-43.8	-57.9	3.8	1.49e+00	0	51	104	0	59	17975
2026-01-11 09:21:30.63	142.59	5.30	-43.8	-57.8	3.8	1.49e+00	0	51	104	0	59	17745
2026-01-11 09:21:31.64	142.56	5.37	-43.7	-57.6	3.8	1.49e+00	0	51	104	0	59	17380
2026-01-11 09:21:32.65	142.53	5.44	-43.8	-57.6	3.8	1.49e+00	0	51	104	0	59	17319
2026-01-11 09:21:33.66	142.50	5.51	-43.7	-57.4	3.8	1.49e+00	0	51	104	0	59	16949
2026-01-11 09:21:34.67	142.47	5.59	-43.7	-57.3	3.8	1.49e+00	0	51	104	0	59	16848
2026-01-11 09:21:35.68	142.44	5.66	-43.7	-57.3	3.8	1.49e+00	0	51	104	0	59	16762
2026-01-11 09:21:36.70	142.41	5.73	-43.7	-57.1	3.8	1.49e+00	0	51	104	0	59	16473
2026-01-11 09:21:37.71	142.38	5.81	-43.7	-57.0	3.8	1.49e+00	0	51	104	0	59	16194
2026-01-11 09:21:38.72	142.35	5.88	-43.7	-56.9	3.8	1.49e+00	0	51	104	0	59	15991
2026-01-11 09:21:39.73	142.32	5.95	-43.7	-56.9	3.8	1.49e+00	0	51	104	0	59	16114
2026-01-11 09:21:40.74	142.29	6.03	-43.7	-57.0	3.8	1.49e+00	0	51	104	0	59	16157
2026-01-11 09:21:41.75	142.25	6.10	-43.7	-56.9	3.8	1.49e+00	0	51	104	0	59	16046
2026-01-11 09:21:42.76	142.22	6.18	-43.7	-56.9	3.8	1.49e+00	0	51	104	0	59	16090
2026-01-11 09:21:43.77	142.19	6.25	-43.7	-57.1	3.8	1.49e+00	0	51	104	0	59	16416
2026-01-11 09:21:44.78	142.16	6.32	-43.7	-57.0	3.8	1.49e+00	0	51	104	0	59	16182
2026-01-11 09:21:45.79	142.13	6.40	-43.7	-57.2	3.8	1.49e+00	0	51	104	0	59	16534
2026-01-11 09:21:46.81	142.09	6.48	-43.7	-57.3	3.8	1.49e+00	0	51	104	0	59	16838
2026-01-11 09:21:47.82	142.06	6.55	-43.7	-57.5	3.8	1.49e+00	0	51	104	0	59	17107
2026-01-11 09:21:48.83	142.03	6.63	-43.7	-57.8	3.8	1.49e+00	0	52	104	0	59	17780
2026-01-11 09:21:49.84	142.00	6.70	-43.8	-57.8	3.8	1.49e+00	0	51	104	0	59	17885
2026-01-11 09:21:50.85	141.96	6.78	-43.8	-58.1	3.8	1.49e+00	0	51	104	0	59	18461
2026-01-11 09:21:51.86	141.93	6.85	-43.8	-58.1	3.8	1.49e+00	0	52	104	0	59	18482
2026-01-11 09:21:52.87	141.90	6.93	-43.8	-58.0	3.8	1.49e+00	0	52	104	0	59	18154
2026-01-11 09:21:53.88	141.86	7.01	-43.7	-57.5	3.8	1.49e+00	0	52	104	0	59	17264
2026-01-11 09:21:54.89	141.83	7.08	-43.7	-56.8	3.8	1.49e+00	0	52	104	0	59	15891
2026-01-11 09:21:55.90	141.80	7.16	-43.6	-55.3	4.1	1.49e+00	0	52	104	0	59	13313
2026-01-11 09:21:56.92	141.76	7.24	-43.5	-54.3	4.3	1.41e+00	0	52	0	0	59	11819
2026-01-11 09:21:57.93	141.73	7.32	-43.3	-52.8	4.9	8.85e-01	0	52	0	1048576	58	10541
2026-01-11 09:21:58.94	141.69	7.39	-43.1	-51.2	5.9	5.01e-01	0	52	0	3145728	58	8784
2026-01-11 09:21:59.95	141.66	7.47	-42.9	-50.2	6.7	2.76e-01	0	52	0	5242880	57	8347
2026-01-11 09:22:00.96	141.63	7.55	-42.6	-49.0	7.8	1.07e-01	0	52	0	7340032	57	7267
2026-01-11 09:22:01.97	141.59	7.63	-42.3	-48.0	8.9	4.11e-02	0	52	0	8388608	56	6803
2026-01-11 09:22:02.98	141.56	7.71	-42.1	-47.4	9.5	1.93e-02	0	52	0	10485760	56	6386
2026-01-11 09:22:03.99	141.52	7.79	-41.6	-46.5	10.3	6.52e-03	0	52	0	12582912	55	6068
2026-01-11 09:22:05.00	141.48	7.87	-41.3	-45.7	11.1	2.72e-03	0	52	0	14680064	54	5881
2026-01-11 09:22:06.01	141.45	7.94	-41.1	-45.2	11.7	1.10e-03	0	52	0	16777216	54	5545
2026-01-11 09:22:07.02	141.41	8.02	-41.1	-45.1	11.8	5.43e-04	0	52	0	17825792	54	5477
2026-01-11 09:22:08.03	141.38	8.10	-44.3	-58.5	3.8	1.49e+00	0	52	104	18874368	59	19262
2026-01-11 09:22:09.04	141.34	8.18	-43.7	-55.3	3.9	1.49e+00	0	52	104	18874368	59	13273
2026-01-11 09:22:10.05	141.30	8.26	-42.5	-49.3	7.5	3.19e-02	0	52	0	19922944	55	8409
2026-01-11 09:22:11.06	141.27	8.34	-43.5	-52.8	5.0	1.71e-01	0	52	0	22020096	57	11166
2026-01-11 09:22:12.07	141.23	8.43	-41.4	-46.2	10.3	7.03e-04	0	52	0	23068672	53	6614
2026-01-11 09:22:13.08	141.19	8.51	-40.8	-44.8	11.9	1.34e-03	0	52	0	25165824	53	5596
2026-01-11 09:22:14.09	141.15	8.59	-40.5	-44.1	12.7	1.01e-04	0	52	0	27262976	52	5474
2026-01-11 09:22:15.10	141.12	8.67	-40.4	-44.0	12.8	5.49e-05	0	53	0	29360128	52	5404
2026-01-11 09:22:16.11	141.08	8.75	-40.5	-44.0	12.8	4.80e-05	0	53	0	31457280	52	5428
2026-01-11 09:22:17.11	141.04	8.83	-40.5	-44.0	12.9	5.64e-05	0	52	0	33554432	52	5413
2026-01-11 09:22:18.13	141.00	8.92	-40.5	-44.0	12.9	5.56e-05	0	53	0	34603008	52	5420
2026-01-11 09:22:19.14	140.96	9.00	-40.7	-44.4	12.5	4.50e-05	0	53	0	36700160	52	5665
2026-01-11 09:22:20.14	140.92	9.08	-40.6	-44.1	12.7	7.09e-05	0	52	0	38797312	52	5503
2026-01-11 09:22:21.15	140.89	9.16	-40.4	-43.8	13.1	3.89e-05	0	53	0	40894464	52	5291
2026-01-11 09:22:22.16	140.85	9.25	-40.4	-43.9	13.0	3.35e-05	0	53	0	42991616	52	5365
2026-01-11 09:22:23.17	140.81	9.33	-40.5	-44.0	12.9	3.96e-05	0	53	0	44040192	52	5447
2026-01-11 09:22:24.19	140.77	9.42	-40.5	-44.0	12.9	4.73e-05	0	53	0	46137344	52	5461
2026-01-11 09:22:25.19	140.73	9.50	-40.4	-43.9	13.1	4.50e-05	0	53	0	48234496	52	5345
2026-01-11 09:22:26.20	140.69	9.58	-40.5	-44.0	12.9	3.73e-05	0	53	0	50331648	52	5419
2026-01-11 09:22:27.21	140.65	9.67	-40.5	-44.0	12.9	3.20e-05	0	53	0	52428800	52	5441
2026-01-11 09:22:28.22	140.60	9.75	-40.5	-44.0	12.9	3.96e-05	0	53	0	53477376	52	5417
2026-01-11 09:22:29.23	140.56	9.84	-40.4	-43.8	13.2	3.66e-05	0	53	0	55574528	52	5285
2026-01-11 09:22:30.24	140.52	9.92	-40.5	-43.9	13.0	3.20e-05	0	53	0	57671680	52	5363
2026-01-11 09:22:31.25	140.48	10.01	-40.4	-43.8	13.1	2.21e-05	0	53	0	59768832	52	5303
2026-01-11 09:22:32.26	140.44	10.10	-40.6	-44.1	12.9	2.89e-05	0	53	0	61865984	52	5468
2026-01-11 09:22:33.27	140.40	10.18	-40.4	-43.8	13.1	2.97e-05	0	53	0	62914560	52	5310
2026-01-11 09:22:34.28	140.35	10.27	-40.4	-43.8	13.1	2.82e-05	0	53	0	65011712	52	5311
2026-01-11 09:22:35.29	140.31	10.36	-40.3	-43.6	13.4	1.44e-05	0	53	0	67108864	52	5176
2026-01-11 09:22:36.30	140.27	10.44	-40.3	-43.6	13.4	1.06e-05	0	53	0	69206016	52	5177
2026-01-11 09:22:37.31	140.23	10.53	-40.4	-43.6	13.5	9.10e-06	0	53	0	71303168	51	5509
2026-01-11 09:22:38.32	140.18	10.62	-40.3	-43.6	13.5	1.44e-05	0	53	0	72351744	51	5488
2026-01-11 09:22:39.33	140.14	10.71	-40.3	-43.6	13.5	1.60e-05	0	53	0	74448896	51	5470
2026-01-11 09:22:40.34	140.09	10.79	-40.3	-43.4	13.7	1.22e-05	0	53	0	76546048	51	5372
2026-01-11 09:22:41.35	140.05	10.88	-40.2	-43.4	13.7	6.10e-06	0	53	0	78643200	51	5349
2026-01-11 09:22:42.35	140.01	10.97	-40.2	-43.4	13.8	3.00e-06	0	53	0	80740352	51	5351
2026-01-11 09:22:43.36	139.96	11.06	-40.3	-43.4	13.8	3.00e-06	0	53	0	81788928	51	5363
2026-01-11 09:22:44.37	139.92	11.15	-40.4	-43.6	13.6	6.10e-06	0	53	0	83886080	51	5470
2026-01-11 09:22:45.38	139.87	11.24	-40.5	-43.8	13.4	9.90e-06	0	53	0	85983232	51	5596
2026-01-11 09:22:46.39	139.82	11.33	-40.4	-43.7	13.5	1.60e-05	0	53	0	88080384	51	5551
2026-01-11 09:22:47.40	139.78	11.42	-40.5	-43.8	13.4	2.05e-05	0	54	0	90177536	51	5645
2026-01-11 09:22:48.41	139.73	11.51	-40.3	-43.8	13.4	1.83e-05	0	53	0	91226112	51	5618
2026-01-11 09:22:49.42	139.69	11.60	-40.5	-43.8	13.5	1.98e-05	0	54	0	93323264	51	5595
2026-01-11 09:22:50.43	139.64	11.70	-40.5	-43.8	13.6	1.44e-05	0	53	0	95420416	51	5600
2026-01-11 09:22:51.44	139.59	11.79	-40.5	-43.7	13.6	6.10e-06	0	53	0	97517568	51	5553
2026-01-11 09:22:52.45	139.54	11.88	-40.6	-43.9	13.5	7.62e-05	0	53	0	99614720	51	5690
2026-01-11 09:22:53.46	139.50	11.97	-40.5	-43.6	13.7	6.80e-06	0	53	0	101711872	51	5525
2026-01-11 09:22:54.47	139.45	12.07	-40.5	-43.6	13.8	9.90e-06	0	54	0	102760448	51	5503
2026-01-11 09:22:55.48	139.40	12.16	-40.3	-43.5	13.9	1.14e-05	0	53	0	104857600	51	5422
2026-01-11 09:22:56.49	139.35	12.25	-40.4	-43.4	14.0	1.40e-04	0	53	0	106954752	51	5384
2026-01-11 09:22:57.50	139.30	12.35	-40.3	-43.3	14.2	3.39e-04	0	53	0	109051904	51	5306
2026-01-11 09:22:58.51	139.25	12.44	-38.2	-43.2	14.1	1.01e-03	0	54	0	111149056	51	5220
2026-01-11 09:22:59.52	139.20	12.53	-38.5	-43.2	14.1	1.63e-03	0	54	0	112197632	51	5243
2026-01-11 09:23:00.53	139.15	12.63	-40.0	-43.4	14.0	2.84e-03	0	54	0	114294784	51	5365
2026-01-11 09:23:01.54	139.10	12.72	-39.8	-43.4	13.5	5.27e-03	0	54	0	116391936	49	6003
2026-01-11 09:23:02.55	139.05	12.82	-40.1	-43.6	13.5	1.33e-02	0	54	0	118489088	50	5811
2026-01-11 09:23:03.56	139.00	12.92	-37.0	-43.0	13.4	1.39e-02	0	54	0	120586240	49	5772
2026-01-11 09:23:04.57	138.95	13.01	-39.9	-43.4	14.0	4.88e-05	0	54	0	121634816	50	5706
2026-01-11 09:23:05.57	138.90	13.11	-38.8	-43.5	14.0	1.96e-03	0	54	0	123731968	49	6088
2026-01-11 09:23:06.59	138.84	13.21	-40.5	-43.5	14.0	2.39e-04	0	54	0	125829120	51	5443
2026-01-11 09:23:07.59	138.79	13.30	-40.4	-43.6	14.0	1.19e-03	0	54	0	127926272	51	5466
2026-01-11 09:23:08.60	138.74	13.40	-40.5	-43.5	14.0	8.54e-04	0	54	0	130023424	51	5439
2026-01-11 09:23:09.61	138.68	13.50	-39.3	-43.4	14.1	6.51e-04	0	54	0	131072000	51	5378
2026-01-11 09:23:10.62	138.63	13.60	-40.4	-43.4	14.2	1.61e-04	0	54	0	133169152	51	5360
2026-01-11 09:23:11.63	138.58	13.70	-40.7	-43.5	14.2	3.43e-05	0	54	0	135266304	51	5424
2026-01-11 09:23:12.64	138.52	13.80	-39.3	-43.3	14.3	2.77e-03	0	54	0	137363456	49	5926
2026-01-11 09:23:13.65	138.47	13.90	-40.2	-43.1	14.5	1.91e-03	0	54	0	139460608	51	5196
2026-01-11 09:23:14.66	138.41	14.00	-40.3	-43.1	14.5	4.34e-05	0	54	0	140509184	51	5198
2026-01-11 09:23:15.67	138.36	14.10	-37.5	-43.0	14.3	3.27e-04	0	54	0	142606336	46	6818
2026-01-11 09:23:16.68	138.30	14.20	-40.2	-43.0	14.6	4.27e-05	0	54	0	144703488	51	5155
2026-01-11 09:23:17.69	138.24	14.30	-40.2	-43.0	14.6	1.61e-04	0	54	0	146800640	51	5154
2026-01-11 09:23:18.70	138.19	14.40	-39.6	-43.0	14.4	7.81e-03	0	54	0	148897792	50	5417
2026-01-11 09:23:19.70	138.13	14.50	-40.2	-42.9	14.7	9.90e-03	0	54	0	149946368	50	5398
2026-01-11 09:23:20.72	138.07	14.60	-40.1	-43.0	14.6	3.58e-05	0	54	0	152043520	51	5144
2026-01-11 09:23:21.72	138.01	14.71	-40.1	-42.8	14.9	1.67e-05	0	54	0	154140672	50	5331
2026-01-11 09:23:22.73	137.96	14.81	-39.3	-42.8	14.9	5.56e-05	0	54	0	156237824	50	5319
2026-01-11 09:23:23.74	137.90	14.91	-39.4	-42.8	14.9	4.39e-04	0	54	0	158334976	49	5619
2026-01-11 09:23:24.75	137.84	15.02	-39.7	-42.8	14.9	2.44e-04	0	54	0	159383552	50	5298
2026-01-11 09:23:25.76	137.78	15.12	-40.1	-42.8	14.9	2.02e-04	0	54	0	161480704	50	5336
2026-01-11 09:23:26.77	137.72	15.23	-39.5	-42.9	14.8	3.43e-04	0	54	0	163577856	50	5341
2026-01-11 09:23:27.78	137.66	15.33	-40.0	-42.9	14.8	3.31e-04	0	54	0	165675008	50	5399
2026-01-11 09:23:28.79	137.60	15.44	-40.2	-43.0	14.8	4.27e-05	0	54	0	167772160	51	5134
2026-01-11 09:23:29.80	137.53	15.54	-40.3	-43.1	14.7	5.34e-05	0	54	0	168820736	51	5186
2026-01-11 09:23:30.81	137.47	15.65	-40.3	-43.1	14.6	2.19e-03	0	54	0	170917888	51	5185
2026-01-11 09:23:31.82	137.41	15.76	-40.3	-43.1	14.7	2.28e-05	0	54	0	173015040	51	5203
2026-01-11 09:23:32.83	137.35	15.86	-40.2	-42.9	14.9	4.50e-06	0	54	0	175112192	51	5070
2026-01-11 09:23:33.84	137.28	15.97	-40.2	-42.9	14.9	9.10e-06	0	54	0	177209344	50	5362
2026-01-11 09:23:34.85	137.22	16.08	-40.1	-42.7	15.1	1.90e-05	0	54	0	178257920	50	5277
2026-01-11 09:23:35.86	137.15	16.19	-40.0	-42.6	15.3	1.52e-05	0	54	0	180355072	50	5162
2026-01-11 09:23:36.87	137.09	16.30	-39.9	-42.4	15.4	3.50e-05	0	54	0	182452224	50	5091
2026-01-11 09:23:37.88	137.02	16.41	-40.0	-42.5	15.3	2.51e-05	0	54	0	184549376	50	5135
2026-01-11 09:23:38.88	136.96	16.52	-40.0	-42.6	15.3	1.52e-05	0	54	0	186646528	50	5173
2026-01-11 09:23:39.89	136.89	16.63	-40.1	-42.8	15.1	9.91e-05	0	54	0	187695104	50	5284
2026-01-11 09:23:40.90	136.83	16.74	-40.2	-42.8	15.1	1.83e-05	0	55	0	189792256	50	5317
2026-01-11 09:23:41.91	136.76	16.85	-40.3	-43.1	14.8	3.18e-04	0	54	0	191889408	51	5192
2026-01-11 09:23:42.92	136.69	16.96	-39.4	-43.0	13.8	2.27e-04	0	54	0	193986560	47	6445
2026-01-11 09:23:43.93	136.62	17.07	-40.2	-43.0	14.8	1.31e-04	0	54	0	196083712	51	5155
2026-01-11 09:23:44.94	136.55	17.19	-40.3	-42.9	14.9	7.38e-04	0	54	0	198180864	51	5086
2026-01-11 09:23:45.95	136.48	17.30	-40.1	-42.8	15.1	6.17e-05	0	55	0	199229440	51	4986
2026-01-11 09:23:46.96	136.41	17.42	-40.0	-42.5	15.4	1.96e-04	0	55	0	201326592	50	5152
2026-01-11 09:23:47.97	136.34	17.53	-40.0	-42.5	15.5	4.50e-06	0	54	0	203423744	50	5104
2026-01-11 09:23:48.98	136.27	17.64	-39.9	-42.4	15.5	2.51e-05	0	54	0	205520896	50	5079
2026-01-11 09:23:49.99	136.20	17.76	-39.8	-42.5	15.4	2.22e-04	0	55	0	207618048	50	5143
2026-01-11 09:23:51.00	136.13	17.88	-40.0	-42.5	15.4	1.99e-03	0	54	0	208666624	50	5147
2026-01-11 09:23:52.01	136.05	17.99	-40.0	-42.6	15.4	9.99e-05	0	55	0	210763776	50	5185
2026-01-11 09:23:53.02	135.98	18.11	-39.8	-42.7	14.2	1.60e-05	0	54	0	212860928	49	5552
2026-01-11 09:23:54.03	135.91	18.23	-40.2	-42.8	15.2	9.90e-06	0	54	0	214958080	50	5311
2026-01-11 09:23:55.04	135.83	18.34	-40.2	-42.8	15.2	1.29e-05	0	55	0	217055232	50	5288
2026-01-11 09:23:56.05	135.76	18.46	-40.1	-42.6	15.3	1.52e-05	0	54	0	218103808	50	5217
2026-01-11 09:23:57.06	135.68	18.58	-39.7	-42.6	15.4	2.13e-05	0	55	0	220200960	50	5161
2026-01-11 09:23:58.07	135.60	18.70	-40.0	-42.5	15.5	6.10e-06	0	55	0	222298112	50	5137
2026-01-11 09:23:59.08	135.53	18.82	-40.0	-42.5	15.5	0.00e+00	0	55	0	224395264	50	5148
2026-01-11 09:24:00.09	135.45	18.94	-40.1	-42.6	15.4	7.00e-07	0	55	0	226492416	50	5186
2026-01-11 09:24:01.10	135.37	19.06	-40.2	-42.7	15.3	0.00e+00	0	55	0	227540992	50	5273
2026-01-11 09:24:02.11	135.29	19.18	-40.2	-42.8	15.2	1.83e-05	0	55	0	229638144	51	5011
2026-01-11 09:24:03.12	135.21	19.31	-40.2	-42.8	15.2	1.50e-06	0	54	0	231735296	51	5019
2026-01-11 09:24:04.12	135.13	19.43	-40.3	-42.9	15.2	0.00e+00	0	55	0	233832448	51	5054
2026-01-11 09:24:05.13	135.05	19.55	-40.2	-42.8	15.3	0.00e+00	0	55	0	235929600	51	5021
2026-01-11 09:24:06.14	134.97	19.67	-40.2	-42.7	15.3	0.00e+00	0	55	0	236978176	51	4966
2026-01-11 09:24:07.15	134.89	19.80	-40.2	-42.8	15.3	0.00e+00	0	55	0	239075328	51	5000
2026-01-11 09:24:08.16	134.80	19.92	-40.2	-42.7	15.3	0.00e+00	0	55	0	241172480	51	4973
2026-01-11 09:24:09.17	134.72	20.05	-40.3	-42.9	15.2	0.00e+00	0	55	0	243269632	51	5070
2026-01-11 09:24:10.18	134.64	20.17	-40.4	-43.0	15.0	0.00e+00	0	55	0	245366784	51	5157
2026-01-11 09:24:11.19	134.55	20.30	-40.5	-43.2	14.9	0.00e+00	0	55	0	246415360	51	5250
2026-01-11 09:24:12.20	134.47	20.43	-40.6	-43.3	14.8	0.00e+00	0	55	0	248512512	51	5327
2026-01-11 09:24:13.21	134.38	20.56	-40.6	-43.3	14.7	0.00e+00	0	55	0	250609664	51	5331
2026-01-11 09:24:14.22	134.29	20.68	-40.6	-43.3	14.8	7.00e-07	0	55	0	252706816	51	5305
2026-01-11 09:24:15.23	134.20	20.81	-40.6	-43.3	14.7	0.00e+00	0	55	0	254803968	51	5337
2026-01-11 09:24:16.24	134.11	20.94	-40.5	-43.2	14.9	0.00e+00	0	55	0	255852544	51	5264
2026-01-11 09:24:17.25	134.02	21.07	-40.6	-43.3	14.8	0.00e+00	0	55	0	257949696	51	5318
2026-01-11 09:24:18.25	133.94	21.20	-40.6	-43.4	14.7	7.00e-07	0	55	0	260046848	51	5371
2026-01-11 09:24:19.26	133.84	21.33	-40.7	-43.5	14.6	7.00e-07	0	55	0	262144000	52	5119
2026-01-11 09:24:20.27	133.75	21.47	-40.8	-43.7	14.4	7.00e-07	0	55	0	264241152	52	5237
2026-01-11 09:24:21.28	133.66	21.60	-40.9	-43.8	14.2	1.50e-06	0	55	0	266338304	52	5313
2026-01-11 09:24:22.29	133.57	21.73	-40.8	-43.8	14.3	7.00e-07	0	55	0	267386880	52	5281
2026-01-11 09:24:23.30	133.47	21.86	-40.8	-43.7	14.4	1.50e-06	0	55	0	269484032	52	5248
2026-01-11 09:24:24.31	133.38	22.00	-40.7	-43.4	14.6	0.00e+00	0	55	0	271581184	52	5097
2026-01-11 09:24:25.32	133.28	22.13	-40.7	-43.4	14.6	0.00e+00	0	55	0	273678336	52	5091
2026-01-11 09:24:26.33	133.18	22.27	-40.7	-43.5	14.6	7.00e-07	0	55	0	275775488	52	5113
2026-01-11 09:24:27.34	133.08	22.41	-40.8	-43.6	14.5	7.00e-07	0	55	0	276824064	52	5179
2026-01-11 09:24:28.35	132.99	22.54	-40.8	-43.7	14.4	1.50e-06	0	55	0	278921216	52	5233
2026-01-11 09:24:29.36	132.89	22.68	-40.9	-43.8	14.3	7.00e-07	0	55	0	281018368	52	5289
2026-01-11 09:24:30.37	132.79	22.82	-40.9	-43.7	14.3	0.00e+00	0	55	0	283115520	52	5279
2026-01-11 09:24:31.38	132.68	22.96	-40.8	-43.7	14.4	7.00e-07	0	55	0	285212672	52	5248
2026-01-11 09:24:32.39	132.58	23.10	-40.8	-43.6	14.5	7.00e-07	0	55	0	286261248	52	5185
2026-01-11 09:24:33.40	132.48	23.24	-40.8	-43.7	14.4	0.00e+00	0	55	0	288358400	52	5251
2026-01-11 09:24:34.41	132.37	23.38	-40.8	-43.7	14.4	0.00e+00	0	55	0	290455552	52	5268
2026-01-11 09:24:35.41	132.27	23.52	-40.9	-43.8	14.4	0.00e+00	0	55	0	292552704	52	5280
2026-01-11 09:24:36.42	132.16	23.66	-41.0	-44.0	14.1	7.00e-07	0	55	0	294649856	52	5419
2026-01-11 09:24:37.43	132.06	23.80	-41.0	-44.1	14.1	2.20e-06	0	55	0	295698432	52	5470
2026-01-11 09:24:38.44	131.95	23.95	-41.1	-44.1	14.0	3.80e-06	0	55	0	297795584	52	5494
2026-01-11 09:24:39.45	131.84	24.09	-41.1	-44.2	13.9	2.20e-06	0	55	0	299892736	52	5565
2026-01-11 09:24:40.46	131.73	24.23	-41.1	-44.2	14.0	3.80e-06	0	55	0	301989888	52	5529
2026-01-11 09:24:41.47	131.62	24.38	-41.2	-44.3	13.9	6.10e-06	0	55	0	304087040	52	5608
2026-01-11 09:24:42.48	131.50	24.53	-41.2	-44.3	13.8	8.30e-06	0	55	0	305135616	53	5327
2026-01-11 09:24:43.49	131.39	24.67	-41.3	-44.4	13.7	3.80e-06	0	55	0	307232768	53	5392
2026-01-11 09:24:44.50	131.28	24.82	-41.3	-44.5	13.6	1.14e-05	0	55	0	309329920	53	5453
2026-01-11 09:24:45.51	131.16	24.97	-41.4	-44.6	13.5	5.30e-06	0	55	0	311427072	53	5513
2026-01-11 09:24:46.52	131.04	25.12	-41.3	-44.4	13.7	6.80e-06	0	55	0	313524224	53	5391
2026-01-11 09:24:47.53	130.93	25.27	-41.3	-44.5	13.6	7.60e-06	0	55	0	314572800	53	5459
2026-01-11 09:24:48.53	130.81	25.42	-41.3	-44.5	13.6	8.30e-06	0	55	0	316669952	53	5438
2026-01-11 09:24:49.54	130.69	25.57	-41.3	-44.5	13.6	8.30e-06	0	55	0	318767104	53	5454
2026-01-11 09:24:50.55	130.57	25.72	-41.4	-44.6	13.5	7.60e-06	0	55	0	320864256	53	5495
2026-01-11 09:24:51.56	130.44	25.87	-41.5	-44.8	13.4	1.29e-05	0	55	0	322961408	53	5598
2026-01-11 09:24:52.57	130.32	26.02	-41.5	-44.8	13.4	8.30e-06	0	55	0	324009984	53	5596
2026-01-11 09:24:53.58	130.20	26.18	-41.6	-44.9	13.2	1.67e-05	0	55	0	326107136	53	5708
2026-01-11 09:24:54.59	130.07	26.33	-41.6	-45.0	13.1	1.98e-05	0	55	0	328204288	53	5744
2026-01-11 09:24:55.60	129.94	26.49	-41.7	-45.1	13.0	3.20e-05	0	55	0	330301440	53	5852
2026-01-11 09:24:56.61	129.81	26.64	-41.8	-45.3	12.8	6.10e-05	0	55	0	332398592	54	5626
2026-01-11 09:24:57.62	129.68	26.80	-41.8	-45.4	12.7	7.47e-05	0	55	0	334495744	54	5689
2026-01-11 09:24:58.63	129.55	26.96	-41.7	-45.2	12.9	5.11e-05	0	55	0	335544320	54	5576
2026-01-11 09:24:59.64	129.42	27.12	-41.7	-45.2	13.0	4.11e-05	0	55	0	337641472	54	5536
2026-01-11 09:25:00.65	129.28	27.28	-41.7	-45.0	13.1	3.05e-05	0	55	0	339738624	54	5462
2026-01-11 09:25:01.66	129.15	27.44	-41.7	-45.1	13.0	3.43e-05	0	55	0	341835776	54	5500
2026-01-11 09:25:02.66	129.01	27.60	-41.7	-45.0	13.1	4.04e-05	0	55	0	343932928	54	5460
2026-01-11 09:25:03.67	128.88	27.76	-41.6	-44.9	13.2	1.52e-05	0	55	0	344981504	54	5402
2026-01-11 09:25:04.68	128.74	27.92	-41.6	-45.0	13.2	1.90e-05	0	55	0	347078656	54	5422
2026-01-11 09:25:05.69	128.59	28.08	-41.7	-45.0	13.1	2.36e-05	0	55	0	349175808	54	5457
2026-01-11 09:25:06.70	128.45	28.25	-41.6	-44.9	13.2	3.66e-05	0	55	0	351272960	54	5401
2026-01-11 09:25:07.71	128.31	28.41	-41.6	-44.9	13.2	1.98e-05	0	55	0	353370112	54	5391
2026-01-11 09:25:08.72	128.16	28.58	-41.6	-44.9	13.3	1.67e-05	0	55	0	354418688	54	5374
2026-01-11 09:25:09.73	128.01	28.74	-41.5	-44.7	13.5	7.60e-06	0	55	0	356515840	54	5264
2026-01-11 09:25:10.74	127.87	28.91	-41.4	-44.6	13.6	9.90e-06	0	55	0	358612992	54	5183
2026-01-11 09:25:11.75	127.72	29.08	-41.5	-44.7	13.5	8.30e-06	0	55	0	360710144	54	5250
2026-01-11 09:25:12.76	127.56	29.24	-41.5	-44.8	13.4	9.90e-06	0	55	0	362807296	54	5314
2026-01-11 09:25:13.77	127.41	29.41	-41.5	-44.8	13.4	1.14e-05	0	55	0	363855872	54	5286
2026-01-11 09:25:14.78	127.26	29.58	-41.4	-44.6	13.6	9.90e-06	0	55	0	365953024	54	5175
2026-01-11 09:25:15.79	127.10	29.75	-41.5	-44.7	13.5	7.60e-06	0	55	0	368050176	54	5237
2026-01-11 09:25:16.80	126.94	29.92	-41.5	-44.7	13.5	1.22e-05	0	55	0	370147328	54	5226
2026-01-11 09:25:17.81	126.78	30.10	-41.6	-44.8	13.4	1.14e-05	0	55	0	372244480	54	5330
2026-01-11 09:25:18.82	126.62	30.27	-41.7	-45.0	13.2	2.36e-05	0	55	0	373293056	54	5438
2026-01-11 09:25:19.82	126.46	30.44	-41.7	-45.0	13.2	1.37e-05	0	55	0	375390208	54	5442
2026-01-11 09:25:20.83	126.29	30.62	-41.7	-45.0	13.1	3.05e-05	0	55	0	377487360	54	5460
2026-01-11 09:25:21.84	126.12	30.79	-41.8	-45.2	13.0	3.28e-05	0	55	0	379584512	54	5576
2026-01-11 09:25:22.85	125.95	30.97	-41.7	-45.0	13.2	3.05e-05	0	55	0	381681664	54	5459
2026-01-11 09:25:23.86	125.78	31.15	-41.8	-45.3	13.0	3.05e-05	0	55	0	382730240	54	5615
2026-01-11 09:25:24.87	125.61	31.32	-41.9	-45.4	12.8	4.04e-05	0	55	0	384827392	54	5691
2026-01-11 09:25:25.88	125.43	31.50	-42.0	-45.6	12.7	5.49e-05	0	56	0	386924544	54	5799
2026-01-11 09:25:26.89	125.26	31.68	-42.0	-45.6	12.6	9.15e-05	0	55	0	389021696	54	5815
2026-01-11 09:25:27.90	125.08	31.86	-42.0	-45.7	12.5	1.26e-04	0	55	0	391118848	54	5902
2026-01-11 09:25:28.91	124.90	32.04	-42.0	-45.7	12.6	9.46e-05	0	55	0	392167424	54	5862
2026-01-11 09:25:29.92	124.72	32.22	-42.0	-45.6	12.6	1.05e-04	0	56	0	394264576	54	5845
2026-01-11 09:25:30.93	124.53	32.41	-42.0	-45.6	12.6	9.07e-05	0	56	0	396361728	54	5855
2026-01-11 09:25:31.94	124.34	32.59	-42.0	-45.7	12.5	1.29e-04	0	55	0	398458880	54	5886
2026-01-11 09:25:32.95	124.15	32.77	-42.1	-45.9	12.3	1.91e-04	0	55	0	400556032	54	6024
2026-01-11 09:25:33.96	123.96	32.96	-42.1	-45.9	12.3	1.62e-04	0	55	0	402653184	54	6017
2026-01-11 09:25:34.97	123.77	33.14	-42.0	-45.6	12.6	1.40e-04	0	56	0	403701760	54	5823
2026-01-11 09:25:35.98	123.57	33.33	-42.1	-45.7	12.5	1.15e-04	0	55	0	405798912	54	5890
2026-01-11 09:25:36.99	123.37	33.52	-42.1	-45.8	12.4	1.43e-04	0	55	0	407896064	54	5959
2026-01-11 09:25:38.00	123.17	33.70	-42.3	-46.1	12.1	2.17e-04	0	56	0	409993216	55	5845
2026-01-11 09:25:39.01	122.97	33.89	-42.4	-46.4	11.8	4.10e-04	0	55	0	412090368	55	5996
2026-01-11 09:25:40.02	122.77	34.08	-42.4	-46.4	11.9	4.49e-04	0	56	0	413138944	55	5993
2026-01-11 09:25:41.03	122.56	34.27	-42.2	-46.1	12.1	3.07e-04	0	55	0	415236096	55	5821
2026-01-11 09:25:42.04	122.35	34.46	-42.2	-46.0	12.2	2.08e-04	0	56	0	417333248	55	5759
2026-01-11 09:25:43.05	122.14	34.65	-42.2	-45.9	12.3	1.85e-04	0	55	0	419430400	55	5720
2026-01-11 09:25:44.06	121.92	34.84	-42.2	-46.0	12.3	1.60e-04	0	55	0	421527552	55	5724
2026-01-11 09:25:45.07	121.70	35.04	-42.2	-46.1	12.1	2.88e-04	0	56	0	422576128	55	5838
2026-01-11 09:25:46.07	121.48	35.23	-42.1	-45.8	12.5	1.68e-04	0	55	0	424673280	55	5601
2026-01-11 09:25:47.09	121.26	35.42	-41.9	-45.3	12.9	7.47e-05	0	55	0	426770432	55	5335
2026-01-11 09:25:48.10	121.03	35.62	-41.8	-45.2	13.1	5.95e-05	0	55	0	428867584	55	5257
2026-01-11 09:25:49.11	120.80	35.81	-41.7	-45.0	13.2	2.36e-05	0	56	0	430964736	55	5136
2026-01-11 09:25:50.11	120.58	36.01	-41.7	-45.0	13.3	1.52e-05	0	56	0	432013312	55	5122
2026-01-11 09:25:51.12	120.34	36.21	-41.7	-45.0	13.3	2.44e-05	0	56	0	434110464	55	5129
2026-01-11 09:25:52.13	120.10	36.40	-41.6	-44.8	13.5	1.06e-05	0	55	0	436207616	55	5015
2026-01-11 09:25:53.14	119.86	36.60	-41.6	-44.8	13.6	5.30e-06	0	56	0	438304768	55	4993
2026-01-11 09:25:54.15	119.62	36.80	-41.6	-44.9	13.3	7.60e-06	0	56	0	440401920	55	5080
2026-01-11 09:25:55.16	119.38	37.00	-41.7	-45.1	13.1	2.82e-05	0	55	0	441450496	55	5196
2026-01-11 09:25:56.17	119.13	37.20	-41.8	-45.3	13.0	3.89e-05	0	55	0	443547648	55	5327
2026-01-11 09:25:57.19	118.87	37.40	-41.9	-45.4	12.9	3.58e-05	0	55	0	445644800	55	5384
2026-01-11 09:25:58.19	118.62	37.60	-41.9	-45.4	12.9	3.43e-05	0	55	0	447741952	55	5365
2026-01-11 09:25:59.21	118.36	37.80	-41.9	-45.5	12.8	4.34e-05	0	56	0	449839104	55	5412
2026-01-11 09:26:00.22	118.10	38.01	-41.9	-45.3	13.0	4.34e-05	0	56	0	450887680	55	5299
2026-01-11 09:26:01.23	117.83	38.21	-41.8	-45.2	13.0	3.73e-05	0	56	0	452984832	55	5274
2026-01-11 09:26:02.23	117.57	38.41	-41.8	-45.3	13.0	3.89e-05	0	56	0	455081984	55	5298
2026-01-11 09:26:03.25	117.29	38.62	-41.8	-45.1	13.1	3.43e-05	0	56	0	457179136	55	5209
2026-01-11 09:26:04.26	117.02	38.82	-41.9	-45.4	12.9	3.89e-05	0	55	0	459276288	55	5365
2026-01-11 09:26:05.27	116.74	39.02	-42.0	-45.5	12.8	7.09e-05	0	56	0	460324864	55	5415
2026-01-11 09:26:06.28	116.46	39.23	-42.0	-45.6	12.7	5.72e-05	0	56	0	462422016	55	5502
2026-01-11 09:26:07.29	116.17	39.43	-42.0	-45.6	12.7	8.62e-05	0	56	0	464519168	55	5477
2026-01-11 09:26:08.30	115.88	39.64	-42.1	-45.8	12.4	7.40e-05	0	56	0	466616320	55	5637
2026-01-11 09:26:09.30	115.59	39.84	-42.1	-45.8	12.5	1.43e-04	0	56	0	468713472	55	5607
2026-01-11 09:26:10.31	115.30	40.05	-42.1	-45.7	12.6	1.09e-04	0	56	0	470810624	55	5546
2026-01-11 09:26:11.32	114.99	40.26	-42.0	-45.5	12.8	5.49e-05	0	56	0	471859200	55	5425
2026-01-11 09:26:12.33	114.69	40.46	-42.0	-45.6	12.7	7.70e-05	0	55	0	473956352	55	5494
2026-01-11 09:26:13.34	114.38	40.67	-42.0	-45.5	12.8	4.27e-05	0	56	0	476053504	55	5456
2026-01-11 09:26:14.35	114.07	40.88	-42.0	-45.5	12.8	4.65e-05	0	56	0	478150656	55	5438
2026-01-11 09:26:15.36	113.75	41.09	-42.0	-45.5	12.7	7.40e-05	0	55	0	480247808	55	5452
2026-01-11 09:26:16.37	113.43	41.30	-41.9	-45.4	12.9	6.63e-05	0	56	0	481296384	55	5367
2026-01-11 09:26:17.38	113.11	41.50	-41.8	-45.2	13.1	3.20e-05	0	55	0	483393536	55	5261
2026-01-11 09:26:18.39	112.78	41.71	-41.9	-45.3	13.0	3.96e-05	0	55	0	485490688	55	5302
2026-01-11 09:26:19.40	112.44	41.92	-41.8	-45.2	13.1	4.04e-05	0	56	0	487587840	55	5239
2026-01-11 09:26:20.41	112.11	42.13	-41.9	-45.3	13.0	2.74e-05	0	56	0	489684992	55	5313
2026-01-11 09:26:21.42	111.76	42.34	-42.2	-45.9	12.4	1.01e-04	0	56	0	490733568	55	5664
2026-01-11 09:26:22.43	111.42	42.55	-42.5	-46.6	11.7	3.09e-04	0	56	0	492830720	55	6135
2026-01-11 09:26:23.44	111.07	42.75	-42.6	-46.8	11.5	6.51e-04	0	56	0	494927872	55	6293
2026-01-11 09:26:24.45	110.71	42.96	-42.5	-46.5	11.8	4.71e-04	0	56	0	497025024	55	6098
2026-01-11 09:26:25.46	110.35	43.17	-42.5	-46.5	11.8	5.45e-04	0	56	0	499122176	55	6111
2026-01-11 09:26:26.47	109.99	43.38	-42.5	-46.6	11.7	5.77e-04	0	56	0	500170752	55	6201
2026-01-11 09:26:27.48	109.62	43.59	-42.5	-46.6	11.6	6.40e-04	0	56	0	502267904	55	6154
2026-01-11 09:26:28.49	109.24	43.79	-42.4	-46.3	11.9	3.96e-04	0	56	0	504365056	55	5965
2026-01-11 09:26:29.49	108.86	44.00	-42.1	-45.7	12.7	1.35e-04	0	56	0	506462208	55	5552
2026-01-11 09:26:30.50	108.48	44.21	-42.0	-45.5	12.8	6.17e-05	0	56	0	508559360	55	5451
2026-01-11 09:26:31.51	108.09	44.41	-42.1	-45.7	12.6	1.01e-04	0	56	0	509607936	55	5591
2026-01-11 09:26:32.52	107.70	44.62	-42.1	-45.8	12.6	1.27e-04	0	56	0	511705088	55	5612
2026-01-11 09:26:33.53	107.30	44.83	-42.3	-46.2	12.2	1.74e-04	0	56	0	513802240	55	5860
2026-01-11 09:26:34.54	106.89	45.03	-42.4	-46.3	12.0	2.49e-04	0	56	0	515899392	55	5960
2026-01-11 09:26:35.55	106.48	45.24	-42.5	-46.4	11.9	3.36e-04	0	56	0	517996544	55	6050
2026-01-11 09:26:36.56	106.06	45.44	-42.4	-46.2	12.1	3.36e-04	0	56	0	519045120	55	5916
2026-01-11 09:26:37.57	105.64	45.64	-42.6	-46.8	11.5	8.73e-04	0	56	0	521142272	55	6303
2026-01-11 09:26:38.58	105.22	45.85	-42.9	-47.3	11.2	1.39e-03	0	56	0	523239424	56	6303
2026-01-11 09:26:39.59	104.78	46.05	-42.7	-46.8	11.7	9.80e-04	0	56	0	525336576	56	5951
2026-01-11 09:26:40.60	104.35	46.25	-42.5	-46.4	12.1	2.55e-04	0	56	0	527433728	56	5717
2026-01-11 09:26:41.61	103.90	46.45	-42.4	-46.1	12.5	1.82e-04	0	56	0	528482304	56	5471
2026-01-11 09:26:42.62	103.45	46.65	-42.3	-45.9	12.6	1.23e-04	0	56	0	530579456	56	5396
2026-01-11 09:26:43.63	103.00	46.85	-42.2	-45.7	12.9	8.23e-05	0	56	0	532676608	56	5256
2026-01-11 09:26:44.64	102.54	47.04	-42.3	-46.0	12.5	9.30e-05	0	56	0	534773760	56	5414
2026-01-11 09:26:45.64	102.08	47.24	-42.2	-45.8	12.8	5.87e-05	0	56	0	536870912	56	5289
2026-01-11 09:26:46.65	101.60	47.43	-42.1	-45.6	13.0	3.81e-05	0	56	0	538968064	56	5186
2026-01-11 09:26:47.66	101.12	47.63	-42.0	-45.4	13.2	3.58e-05	0	56	0	540016640	56	5055
2026-01-11 09:26:48.67	100.64	47.82	-41.9	-45.2	13.2	2.05e-05	0	56	0	542113792	55	5279
2026-01-11 09:26:49.68	100.15	48.01	-42.0	-45.4	13.0	1.44e-05	0	56	0	544210944	55	5385
2026-01-11 09:26:50.69	99.65	48.20	-42.0	-45.5	12.9	4.42e-05	0	56	0	546308096	55	5450
2026-01-11 09:26:51.70	99.15	48.39	-41.7	-45.0	13.4	5.95e-05	0	56	0	548405248	55	5133
2026-01-11 09:26:52.71	98.64	48.57	-41.5	-44.6	13.9	5.30e-06	0	56	0	549453824	55	4897
2026-01-11 09:26:53.72	98.13	48.76	-41.4	-44.4	14.1	3.00e-06	0	56	0	551550976	54	5051
2026-01-11 09:26:54.73	97.61	48.94	-41.3	-44.2	14.3	7.00e-07	0	56	0	553648128	54	4972
2026-01-11 09:26:55.74	97.08	49.12	-41.3	-44.2	14.3	1.50e-06	0	56	0	555745280	54	4977
2026-01-11 09:26:56.75	96.55	49.30	-41.3	-44.2	14.2	2.20e-06	0	56	0	557842432	54	4946
2026-01-11 09:26:57.76	96.01	49.47	-41.3	-44.3	14.1	7.00e-07	0	56	0	558891008	54	5034
2026-01-11 09:26:58.78	95.46	49.65	-41.5	-44.5	13.9	2.20e-06	0	56	0	560988160	54	5144
2026-01-11 09:26:59.79	94.90	49.82	-41.7	-44.9	13.6	1.14e-05	0	56	0	563085312	54	5363
2026-01-11 09:27:00.79	94.35	49.99	-41.9	-45.2	13.3	1.75e-05	0	56	0	565182464	54	5554
2026-01-11 09:27:01.80	93.79	50.16	-41.9	-45.2	13.2	2.51e-05	0	56	0	567279616	54	5590
2026-01-11 09:27:02.81	93.21	50.33	-41.9	-45.3	13.1	2.36e-05	0	56	0	568328192	54	5654
2026-01-11 09:27:03.82	92.64	50.49	-41.9	-45.2	13.2	1.83e-05	0	56	0	570425344	54	5579
2026-01-11 09:27:04.83	92.05	50.65	-41.8	-45.2	13.4	9.90e-06	0	56	0	572522496	54	5540
2026-01-11 09:27:05.84	91.46	50.81	-41.9	-45.2	13.3	2.51e-05	0	56	0	574619648	54	5571
2026-01-11 09:27:06.85	90.87	50.96	-42.1	-45.5	13.1	1.37e-05	0	56	0	576716800	54	5777
2026-01-11 09:27:07.86	90.27	51.12	-42.1	-45.6	12.9	5.56e-05	0	56	0	577765376	54	5816
2026-01-11 09:27:08.87	89.66	51.27	-42.0	-45.3	13.1	5.26e-05	0	56	0	579862528	54	5654
2026-01-11 09:27:09.87	89.05	51.41	-41.7	-44.9	13.6	1.22e-05	0	56	0	581959680	54	5396
2026-01-11 09:27:10.88	88.43	51.55	-41.5	-44.5	14.0	1.50e-06	0	56	0	584056832	54	5107
2026-01-11 09:27:11.89	87.80	51.70	-41.4	-44.4	14.1	3.80e-06	0	56	0	586153984	54	5044
2026-01-11 09:27:12.90	87.17	51.83	-41.6	-44.7	13.8	7.60e-06	0	56	0	587202560	54	5246
2026-01-11 09:27:13.91	86.53	51.97	-41.4	-44.4	14.1	3.80e-06	0	56	0	589299712	54	5051
2026-01-11 09:27:14.92	85.89	52.10	-41.2	-44.0	14.6	0.00e+00	0	56	0	591396864	54	4822
2026-01-11 09:27:15.93	85.24	52.22	-41.0	-43.8	14.8	0.00e+00	0	56	0	593494016	54	4709
2026-01-11 09:27:16.94	84.59	52.35	-40.7	-43.2	15.2	0.00e+00	0	56	0	595591168	53	4704
2026-01-11 09:27:17.95	83.93	52.47	-40.3	-42.7	15.8	7.00e-07	0	56	0	596639744	52	4681
2026-01-11 09:27:18.96	83.26	52.59	-40.5	-42.9	15.7	0.00e+00	0	56	0	598736896	52	4793
2026-01-11 09:27:19.97	82.59	52.70	-40.6	-43.1	15.4	0.00e+00	0	56	0	600834048	52	4921
2026-01-11 09:27:20.98	81.91	52.81	-40.4	-42.9	15.6	0.00e+00	0	56	0	602931200	52	4785
2026-01-11 09:27:21.99	81.23	52.91	-40.3	-42.6	15.9	0.00e+00	0	56	0	605028352	52	4632
2026-01-11 09:27:23.00	80.55	53.01	-39.9	-42.1	16.4	0.00e+00	0	56	0	606076928	51	4646
2026-01-11 09:27:24.01	79.86	53.11	-39.6	-41.6	17.0	0.00e+00	0	56	0	608174080	51	4376
2026-01-11 09:27:25.02	79.16	53.20	-39.3	-41.3	17.3	0.00e+00	0	56	0	610271232	50	4457
2026-01-11 09:27:26.03	78.47	53.29	-39.0	-40.9	17.8	0.00e+00	0	56	0	612368384	49	4494
2026-01-11 09:27:27.04	77.76	53.38	-38.9	-40.7	17.9	0.00e+00	0	56	0	614465536	49	4409
2026-01-11 09:27:28.05	77.06	53.46	-38.6	-40.4	18.2	0.00e+00	0	56	0	615514112	49	4249
2026-01-11 09:27:29.06	76.34	53.53	-38.4	-40.2	18.4	0.00e+00	0	56	0	617611264	48	4406
2026-01-11 09:27:30.07	75.63	53.60	-38.2	-39.8	18.8	0.00e+00	0	56	0	619708416	48	4235
2026-01-11 09:27:31.08	74.91	53.67	-38.1	-39.7	18.9	0.00e+00	0	56	0	621805568	48	4186
2026-01-11 09:27:32.09	74.19	53.73	-38.1	-39.8	18.8	0.00e+00	0	56	0	623902720	48	4229
2026-01-11 09:27:33.10	73.47	53.79	-38.0	-39.7	18.9	0.00e+00	0	56	0	624951296	48	4163
2026-01-11 09:27:34.10	72.75	53.84	-37.9	-39.6	18.9	0.00e+00	0	56	0	627048448	47	4342
2026-01-11 09:27:35.11	72.02	53.89	-38.1	-39.8	18.7	0.00e+00	0	56	0	629145600	47	4493
2026-01-11 09:27:36.12	71.29	53.94	-38.1	-39.8	18.7	0.00e+00	0	56	0	631242752	47	4491
2026-01-11 09:27:37.13	70.55	53.98	-38.0	-39.6	18.9	0.00e+00	0	56	0	633339904	47	4376
2026-01-11 09:27:38.14	69.82	54.01	-38.2	-39.9	18.7	0.00e+00	0	56	0	635437056	47	4505
2026-01-11 09:27:39.15	69.08	54.04	-38.3	-40.0	18.5	0.00e+00	0	56	0	636485632	47	4579
2026-01-11 09:27:40.16	68.34	54.06	-38.3	-40.1	18.5	0.00e+00	0	56	0	638582784	47	4612
2026-01-11 09:27:41.17	67.60	54.08	-38.4	-40.2	18.3	0.00e+00	0	56	0	640679936	47	4679
2026-01-11 09:27:42.18	66.86	54.10	-38.8	-40.7	17.9	0.00e+00	0	56	0	642777088	48	4673
2026-01-11 09:27:43.19	66.12	54.11	-38.8	-40.6	18.0	0.00e+00	0	56	0	644874240	48	4650
2026-01-11 09:27:44.20	65.38	54.12	-38.7	-40.5	18.1	0.00e+00	0	56	0	645922816	48	4589
2026-01-11 09:27:45.21	64.64	54.12	-38.9	-40.8	17.9	0.00e+00	0	56	0	648019968	48	4713
2026-01-11 09:27:46.22	63.89	54.11	-38.9	-40.8	17.9	0.00e+00	0	56	0	650117120	48	4710
2026-01-11 09:27:47.23	63.15	54.10	-38.9	-40.7	17.9	0.00e+00	0	56	0	652214272	48	4699
2026-01-11 09:27:48.24	62.41	54.09	-38.9	-40.7	17.9	0.00e+00	0	56	0	654311424	48	4685
2026-01-11 09:27:49.25	61.67	54.07	-38.9	-40.7	18.0	0.00e+00	0	56	0	655360000	48	4675
2026-01-11 09:27:50.26	60.93	54.05	-38.7	-40.4	18.2	0.00e+00	0	56	0	657457152	48	4530
2026-01-11 09:27:51.27	60.20	54.02	-38.5	-40.3	18.4	0.00e+00	0	56	0	659554304	48	4453
2026-01-11 09:27:52.28	59.46	53.99	-38.5	-40.3	18.3	0.00e+00	0	56	0	661651456	48	4469
2026-01-11 09:27:53.28	58.73	53.95	-38.4	-40.1	18.5	0.00e+00	0	56	0	663748608	48	4380
2026-01-11 09:27:54.29	58.00	53.91	-38.2	-39.8	18.8	0.00e+00	0	56	0	664797184	48	4229
2026-01-11 09:27:55.30	57.27	53.86	-38.2	-39.8	18.8	0.00e+00	0	56	0	666894336	48	4233
2026-01-11 09:27:56.31	56.54	53.81	-38.1	-39.8	18.8	0.00e+00	0	56	0	668991488	48	4208
2026-01-11 09:27:57.32	55.82	53.75	-38.1	-39.8	18.9	0.00e+00	0	56	0	671088640	48	4198
2026-01-11 09:27:58.33	55.10	53.69	-38.1	-39.8	18.9	0.00e+00	0	56	0	673185792	48	4225
2026-01-11 09:27:59.34	54.38	53.63	-38.3	-40.0	18.7	0.00e+00	0	56	0	674234368	48	4312
2026-01-11 09:28:00.35	53.66	53.56	-38.1	-39.7	18.9	0.00e+00	0	56	0	676331520	48	4181
2026-01-11 09:28:01.36	52.95	53.48	-38.0	-39.6	19.0	0.00e+00	0	56	0	678428672	48	4135
2026-01-11 09:28:02.37	52.25	53.41	-38.0	-39.6	19.0	0.00e+00	0	56	0	680525824	48	4145
2026-01-11 09:28:03.38	51.54	53.32	-38.1	-39.8	18.8	0.00e+00	0	56	0	682622976	48	4221
2026-01-11 09:28:04.39	50.84	53.24	-38.1	-39.8	18.8	0.00e+00	0	56	0	683671552	48	4212
2026-01-11 09:28:05.40	50.15	53.15	-38.3	-40.1	18.6	0.00e+00	0	56	0	685768704	48	4343
2026-01-11 09:28:06.41	49.46	53.05	-38.7	-40.5	18.2	0.00e+00	0	56	0	687865856	48	4554
2026-01-11 09:28:07.42	48.77	52.95	-39.0	-41.0	17.7	0.00e+00	0	56	0	689963008	48	4819
2026-01-11 09:28:08.43	48.09	52.85	-39.1	-41.0	17.6	0.00e+00	0	56	0	692060160	48	4841
2026-01-11 09:28:09.44	47.41	52.74	-39.1	-41.1	17.6	0.00e+00	0	56	0	693108736	48	4884
2026-01-11 09:28:10.45	46.74	52.63	-39.3	-41.3	17.3	0.00e+00	0	56	0	695205888	49	4755
2026-01-11 09:28:11.45	46.08	52.52	-39.6	-41.7	17.0	0.00e+00	0	56	0	697303040	49	4944
2026-01-11 09:28:12.46	45.42	52.40	-40.0	-42.3	16.3	0.00e+00	0	56	0	699400192	50	5009
2026-01-11 09:28:13.47	44.76	52.27	-40.3	-42.7	15.9	0.00e+00	0	56	0	701497344	51	4978
2026-01-11 09:28:14.48	44.11	52.15	-40.5	-42.9	15.8	0.00e+00	0	56	0	703594496	51	5078
2026-01-11 09:28:15.49	43.47	52.02	-40.4	-42.8	15.8	0.00e+00	0	56	0	704643072	51	5023
2026-01-11 09:28:16.50	42.83	51.89	-40.5	-43.0	15.6	0.00e+00	0	56	0	706740224	51	5120
2026-01-11 09:28:17.51	42.20	51.75	-40.5	-43.0	15.6	0.00e+00	0	56	0	708837376	51	5137
2026-01-11 09:28:18.52	41.57	51.61	-40.6	-43.2	15.5	0.00e+00	0	56	0	710934528	51	5222
2026-01-11 09:28:19.53	40.95	51.47	-40.7	-43.3	15.4	0.00e+00	0	56	0	713031680	51	5280
2026-01-11 09:28:20.54	40.33	51.33	-40.7	-43.4	15.2	0.00e+00	0	56	0	714080256	52	5047
2026-01-11 09:28:21.55	39.72	51.18	-40.7	-43.4	15.2	0.00e+00	0	56	0	716177408	52	5050
2026-01-11 09:28:22.56	39.12	51.03	-40.7	-43.3	15.3	0.00e+00	0	56	0	718274560	52	4994
2026-01-11 09:28:23.57	38.52	50.87	-40.6	-43.1	15.5	0.00e+00	0	56	0	720371712	52	4913
2026-01-11 09:28:24.58	37.93	50.72	-40.7	-43.3	15.3	0.00e+00	0	56	0	722468864	52	5011
2026-01-11 09:28:25.59	37.35	50.56	-40.8	-43.4	15.2	0.00e+00	0	56	0	723517440	52	5073
2026-01-11 09:28:26.60	36.77	50.39	-40.8	-43.5	15.1	0.00e+00	0	56	0	725614592	52	5123
2026-01-11 09:28:27.61	36.20	50.23	-41.0	-43.8	14.9	7.00e-07	0	56	0	727711744	52	5293
2026-01-11 09:28:28.62	35.63	50.06	-41.3	-44.3	14.2	0.00e+00	0	56	0	729808896	53	5331
2026-01-11 09:28:29.63	35.07	49.89	-41.4	-44.4	14.2	1.50e-06	0	56	0	731906048	53	5360
2026-01-11 09:28:30.64	34.52	49.72	-41.2	-44.1	14.5	7.00e-07	0	56	0	732954624	53	5182
2026-01-11 09:28:31.65	33.97	49.55	-40.9	-43.7	14.9	0.00e+00	0	56	0	735051776	53	4944
2026-01-11 09:28:32.66	33.43	49.37	-41.3	-44.2	14.3	7.00e-07	0	56	0	737148928	53	5264
2026-01-11 09:28:33.67	32.90	49.20	-41.5	-44.5	14.1	2.20e-06	0	56	0	739246080	53	5434
2026-01-11 09:28:34.68	32.37	49.02	-41.8	-45.1	13.6	7.60e-06	0	56	0	741343232	54	5469
2026-01-11 09:28:35.69	31.85	48.84	-42.0	-45.5	13.0	1.75e-05	0	56	0	742391808	54	5763
2026-01-11 09:28:36.70	31.33	48.65	-42.4	-46.4	12.2	6.94e-05	0	56	0	744488960	55	6002
2026-01-11 09:28:37.71	30.82	48.47	-42.5	-46.4	12.1	2.64e-04	0	56	0	746586112	55	6019
2026-01-11 09:28:38.72	30.32	48.28	-42.4	-46.3	12.1	2.73e-04	0	56	0	748683264	55	5953
2026-01-11 09:28:39.73	29.82	48.09	-42.6	-46.7	11.7	2.77e-04	0	56	0	750780416	55	6259
2026-01-11 09:28:40.74	29.33	47.90	-43.1	-47.6	11.1	1.52e-03	0	56	0	751828992	56	6506
2026-01-11 09:28:41.75	28.84	47.71	-43.3	-48.2	10.4	3.21e-03	0	56	0	753926144	57	6610
2026-01-11 09:28:42.76	28.36	47.52	-43.5	-48.6	9.9	5.41e-03	0	56	0	756023296	57	6895
2026-01-11 09:28:43.77	27.89	47.33	-43.4	-48.5	10.1	6.56e-03	0	56	0	758120448	57	6827
2026-01-11 09:28:44.78	27.42	47.13	-43.2	-48.0	10.6	4.12e-03	0	56	0	760217600	57	6439
2026-01-11 09:28:45.79	26.96	46.94	-43.3	-48.1	10.5	3.01e-03	0	56	0	761266176	57	6524
2026-01-11 09:28:46.80	26.50	46.74	-43.3	-48.2	10.4	4.36e-03	0	56	0	763363328	57	6643
2026-01-11 09:28:47.81	26.05	46.54	-43.3	-48.1	10.5	5.49e-03	0	56	0	765460480	57	6524
2026-01-11 09:28:48.82	25.61	46.34	-43.1	-47.6	11.0	3.33e-03	0	56	0	767557632	57	6175
2026-01-11 09:28:49.83	25.17	46.14	-43.0	-47.5	11.1	1.74e-03	0	56	0	769654784	57	6073
2026-01-11 09:28:50.84	24.74	45.94	-42.9	-47.2	11.4	1.38e-03	0	56	0	771751936	57	5894
2026-01-11 09:28:51.85	24.31	45.74	-42.9	-47.1	11.5	1.31e-03	0	56	0	772800512	57	5830
2026-01-11 09:28:52.86	23.89	45.54	-42.8	-46.9	11.7	5.67e-04	0	56	0	774897664	57	5722
2026-01-11 09:28:53.87	23.47	45.33	-42.8	-47.0	11.6	7.05e-04	0	56	0	776994816	57	5745
2026-01-11 09:28:54.88	23.06	45.13	-42.7	-46.8	11.8	5.84e-04	0	56	0	779091968	57	5637
2026-01-11 09:28:55.89	22.65	44.93	-42.5	-46.3	12.3	3.62e-04	0	56	0	781189120	57	5327
2026-01-11 09:28:56.89	22.26	44.72	-42.3	-45.9	12.7	1.37e-04	0	56	0	782237696	56	5397
2026-01-11 09:28:57.90	21.86	44.52	-42.4	-46.0	12.6	6.33e-05	0	56	0	784334848	56	5448
2026-01-11 09:28:58.92	21.47	44.31	-42.4	-46.1	12.5	1.21e-04	0	56	0	786432000	56	5519
2026-01-11 09:28:59.92	21.09	44.11	-42.4	-46.2	12.5	1.63e-04	0	56	0	788529152	56	5541
2026-01-11 09:29:00.93	20.71	43.90	-42.4	-46.2	12.5	9.76e-05	0	56	0	790626304	56	5544
2026-01-11 09:29:01.94	20.33	43.69	-42.5	-46.3	12.4	1.46e-04	0	56	0	791674880	56	5640
2026-01-11 09:29:02.95	19.96	43.49	-42.3	-46.0	12.7	1.39e-04	0	56	0	793772032	56	5412
2026-01-11 09:29:03.96	19.59	43.28	-42.3	-45.8	12.8	6.79e-05	0	56	0	795869184	56	5337
2026-01-11 09:29:04.97	19.23	43.07	-42.3	-45.9	12.8	7.78e-05	0	56	0	797966336	56	5354
2026-01-11 09:29:05.98	18.88	42.86	-42.4	-46.2	12.5	8.08e-05	0	56	0	800063488	56	5560
2026-01-11 09:29:06.99	18.52	42.66	-42.5	-46.3	12.3	1.68e-04	0	56	0	801112064	56	5630
2026-01-11 09:29:08.00	18.18	42.45	-42.5	-46.3	12.3	1.94e-04	0	56	0	803209216	56	5644
2026-01-11 09:29:09.00	17.84	42.24	-42.6	-46.6	12.0	2.44e-04	0	56	0	805306368	56	5843
2026-01-11 09:29:10.01	17.50	42.04	-42.9	-47.3	11.3	5.97e-04	0	56	0	807403520	56	6309
2026-01-11 09:29:11.02	17.17	41.83	-42.9	-47.3	11.3	1.24e-03	0	56	0	809500672	56	6292
2026-01-11 09:29:12.03	16.84	41.62	-43.0	-47.5	11.1	1.56e-03	0	56	0	810549248	56	6433
2026-01-11 09:29:13.04	16.51	41.41	-43.0	-47.3	11.2	1.60e-03	0	56	0	812646400	56	6344
2026-01-11 09:29:14.05	16.19	41.21	-43.0	-47.5	11.0	1.95e-03	0	56	0	814743552	56	6476
2026-01-11 09:29:15.06	15.87	41.00	-42.8	-47.1	11.4	1.72e-03	0	56	0	816840704	56	6156
2026-01-11 09:29:16.07	15.56	40.79	-42.8	-46.9	11.6	8.78e-04	0	56	0	818937856	56	6050
2026-01-11 09:29:17.08	15.25	40.59	-42.8	-46.9	11.6	7.04e-04	0	56	0	819986432	56	6054
2026-01-11 09:29:18.09	14.94	40.38	-42.9	-47.2	11.4	6.77e-04	0	56	0	822083584	56	6212
2026-01-11 09:29:19.10	14.64	40.17	-42.9	-47.1	11.4	1.19e-03	0	56	0	824180736	56	6199
2026-01-11 09:29:20.11	14.35	39.97	-42.8	-47.0	11.5	1.13e-03	0	56	0	826277888	56	6131
2026-01-11 09:29:21.11	14.06	39.77	-42.8	-46.9	11.6	7.41e-04	0	56	0	828375040	56	6038
2026-01-11 09:29:22.13	13.76	39.56	-42.8	-47.1	11.4	1.02e-03	0	56	0	829423616	56	6150
2026-01-11 09:29:23.13	13.48	39.36	-42.8	-46.9	11.7	8.40e-04	0	56	0	831520768	56	6039
2026-01-11 09:29:24.14	13.20	39.15	-42.8	-47.0	11.6	7.70e-04	0	56	0	833617920	56	6074
2026-01-11 09:29:25.15	12.92	38.95	-42.6	-46.7	11.9	7.18e-04	0	56	0	835715072	56	5880
2026-01-11 09:29:26.16	12.64	38.74	-42.6	-46.7	11.9	3.33e-04	0	56	0	837812224	56	5858
2026-01-11 09:29:27.17	12.37	38.54	-42.6	-46.6	11.9	3.58e-04	0	56	0	839909376	56	5855
2026-01-11 09:29:28.18	12.10	38.34	-42.8	-47.0	11.5	6.12e-04	0	56	0	840957952	56	6080
2026-01-11 09:29:29.19	11.84	38.14	-42.8	-47.1	11.4	9.31e-04	0	56	0	843055104	56	6132
2026-01-11 09:29:30.20	11.58	37.94	-42.9	-47.2	11.3	1.12e-03	0	56	0	845152256	56	6231
2026-01-11 09:29:31.21	11.32	37.73	-42.7	-46.9	11.6	9.09e-04	0	56	0	847249408	56	6029
2026-01-11 09:29:32.22	11.06	37.53	-42.7	-46.9	11.6	7.09e-04	0	56	0	849346560	56	6029
2026-01-11 09:29:33.23	10.81	37.33	-42.8	-46.9	11.6	7.71e-04	0	56	0	850395136	56	6053
2026-01-11 09:29:34.24	10.56	37.14	-42.8	-47.0	11.5	8.65e-04	0	56	0	852492288	56	6092
2026-01-11 09:29:35.25	10.31	36.94	-42.6	-46.6	12.0	5.86e-04	0	56	0	854589440	56	5796
2026-01-11 09:29:36.26	10.07	36.74	-42.6	-46.6	11.9	3.11e-04	0	56	0	856686592	56	5823
2026-01-11 09:29:37.27	9.83	36.54	-42.5	-46.5	12.0	2.97e-04	0	56	0	858783744	56	5771
2026-01-11 09:29:38.28	9.59	36.34	-42.6	-46.6	11.8	4.54e-04	0	56	0	859832320	56	5852
2026-01-11 09:29:39.29	9.36	36.15	-42.5	-46.4	12.0	3.42e-04	0	56	0	861929472	56	5716
2026-01-11 09:29:40.29	9.13	35.95	-42.4	-46.3	12.3	2.10e-04	0	56	0	864026624	56	5596
2026-01-11 09:29:41.30	8.90	35.76	-42.2	-45.9	12.6	1.30e-04	0	56	0	866123776	56	5381
2026-01-11 09:29:42.31	8.67	35.57	-42.1	-45.7	12.8	6.25e-05	0	56	0	868220928	56	5274
2026-01-11 09:29:43.32	8.45	35.37	-42.1	-45.7	12.9	4.27e-05	0	56	0	869269504	56	5241
2026-01-11 09:29:44.33	8.23	35.18	-42.3	-45.9	12.6	5.87e-05	0	56	0	871366656	56	5379
2026-01-11 09:29:45.34	8.01	34.99	-42.2	-45.9	12.6	9.23e-05	0	56	0	873463808	56	5360
2026-01-11 09:29:46.35	7.80	34.80	-42.4	-46.2	12.3	1.44e-04	0	56	0	875560960	56	5569
2026-01-11 09:29:47.36	7.58	34.61	-42.5	-46.5	12.0	2.55e-04	0	56	0	877658112	56	5735
2026-01-11 09:29:48.37	7.37	34.42	-42.6	-46.7	11.7	3.14e-04	0	56	0	878706688	56	5897
2026-01-11 09:29:49.38	7.17	34.23	-42.7	-46.9	11.6	6.79e-04	0	56	0	880803840	56	6014
2026-01-11 09:29:50.39	6.96	34.04	-42.6	-46.7	11.7	6.04e-04	0	56	0	882900992	56	5922
2026-01-11 09:29:51.40	6.76	33.85	-42.6	-46.6	11.8	5.23e-04	0	56	0	884998144	56	5827
2026-01-11 09:29:52.41	6.56	33.66	-42.6	-46.7	11.8	4.39e-04	0	56	0	887095296	56	5856
2026-01-11 09:29:53.42	6.36	33.48	-42.5	-46.4	12.0	5.08e-04	0	56	0	888143872	56	5714
2026-01-11 09:29:54.43	6.16	33.29	-42.5	-46.5	11.9	3.36e-04	0	56	0	890241024	56	5748
2026-01-11 09:29:55.44	5.97	33.11	-42.6	-46.7	11.8	4.55e-04	0	56	0	892338176	56	5874
2026-01-11 09:29:56.45	5.78	32.92	-42.5	-46.6	11.9	4.09e-04	0	56	0	894435328	56	5802
2026-01-11 09:29:57.46	5.59	32.74	-42.5	-46.5	11.9	3.97e-04	0	56	0	896532480	56	5766
2026-01-11 09:29:58.47	5.40	32.56	-42.4	-46.4	12.0	3.02e-04	0	56	0	897581056	56	5684
2026-01-11 09:29:59.48	5.22	32.37	-42.6	-46.6	11.8	4.18e-04	0	56	0	899678208	56	5846
2026-01-11 09:30:00.49	5.03	32.19	-42.6	-46.7	11.7	4.61e-04	0	56	0	901775360	56	5894
2026-01-11 09:30:01.50	4.85	32.01	-42.6	-46.7	11.7	5.40e-04	0	56	0	903872512	56	5887
2026-01-11 09:30:02.51	4.67	31.83	-42.6	-46.7	11.7	5.61e-04	0	56	0	905969664	56	5891
2026-01-11 09:30:03.52	4.50	31.65	-42.7	-46.8	11.5	7.02e-04	0	56	0	908066816	56	5976
2026-01-11 09:30:04.53	4.32	31.48	-42.7	-47.0	11.4	8.63e-04	0	56	0	909115392	56	6084
2026-01-11 09:30:05.54	4.15	31.30	-42.8	-47.3	11.0	1.69e-03	0	56	0	911212544	56	6327
2026-01-11 09:30:06.55	3.98	31.12	-43.0	-47.6	10.7	2.57e-03	0	56	0	913309696	56	6543
2026-01-11 09:30:07.56	3.81	30.95	-43.0	-47.8	10.6	3.43e-03	0	56	0	915406848	56	6648
2026-01-11 09:30:08.57	3.64	30.77	-42.9	-47.4	10.9	2.78e-03	0	56	0	917504000	56	6370
2026-01-11 09:30:09.58	3.48	30.60	-42.8	-47.2	11.2	1.76e-03	0	56	0	918552576	56	6206
2026-01-11 09:30:10.59	3.31	30.43	-42.5	-46.7	11.7	9.60e-04	0	56	0	920649728	56	5861
2026-01-11 09:30:11.60	3.15	30.25	-42.4	-46.4	11.9	3.96e-04	0	56	0	922746880	56	5720
2026-01-11 09:30:12.61	2.99	30.08	-42.4	-46.5	11.9	3.82e-04	0	56	0	924844032	56	5729
2026-01-11 09:30:13.62	2.83	29.91	-42.5	-46.5	11.8	3.84e-04	0	56	0	926941184	56	5788
2026-01-11 09:30:14.63	2.67	29.74	-42.5	-46.5	11.8	4.63e-04	0	56	0	927989760	56	5781
2026-01-11 09:30:15.64	2.52	29.57	-42.5	-46.5	11.8	4.56e-04	0	56	0	930086912	56	5760
2026-01-11 09:30:16.64	2.37	29.40	-42.4	-46.5	11.9	4.48e-04	0	56	0	932184064	56	5735
2026-01-11 09:30:17.65	2.22	29.24	-42.3	-46.3	12.1	3.07e-04	0	56	0	934281216	56	5604
2026-01-11 09:30:18.66	2.07	29.07	-42.2	-45.9	12.5	1.89e-04	0	56	0	936378368	56	5363
2026-01-11 09:30:19.67	1.92	28.90	-42.1	-45.7	12.7	8.85e-05	0	56	0	937426944	56	5275
2026-01-11 09:30:20.69	1.77	28.73	-41.8	-45.4	12.9	6.86e-05	0	56	0	939524096	55	5359
2026-01-11 09:30:21.70	1.62	28.57	-41.8	-45.3	12.9	3.96e-05	0	56	0	941621248	55	5307
2026-01-11 09:30:22.70	1.48	28.41	-41.7	-45.2	13.0	3.73e-05	0	56	0	943718400	55	5272
2026-01-11 09:30:23.71	1.34	28.24	-41.8	-45.3	12.9	4.42e-05	0	56	0	945815552	55	5291
2026-01-11 09:30:24.72	1.20	28.08	-41.8	-45.4	12.8	4.80e-05	0	56	0	946864128	55	5346
2026-01-11 09:30:25.73	1.06	27.92	-41.8	-45.4	12.8	5.11e-05	0	56	0	948961280	55	5372
2026-01-11 09:30:26.74	0.92	27.76	-41.9	-45.5	12.7	6.79e-05	0	56	0	951058432	55	5420
2026-01-11 09:30:27.75	0.78	27.60	-41.8	-45.5	12.7	8.77e-05	0	56	0	953155584	55	5411
2026-01-11 09:30:28.76	0.65	27.44	-41.8	-45.5	12.7	6.63e-05	0	56	0	955252736	55	5423
2026-01-11 09:30:29.77	0.51	27.28	-41.7	-45.2	12.9	6.63e-05	0	56	0	956301312	55	5274
2026-01-11 09:30:30.78	0.38	27.12	-41.6	-45.0	13.1	4.19e-05	0	56	0	958398464	55	5142
2026-01-11 09:30:31.79	0.25	26.97	-41.5	-44.8	13.4	1.52e-05	0	56	0	960495616	55	5006
2026-01-11 09:30:32.80	0.12	26.81	-41.3	-44.5	13.6	1.29e-05	0	56	0	962592768	54	5159
2026-01-11 09:30:33.81	359.99	26.65	-41.2	-44.4	13.8	5.30e-06	0	56	0	964689920	54	5070
2026-01-11 09:30:34.82	359.87	26.50	-41.2	-44.3	13.9	3.80e-06	0	56	0	965738496	54	5012
2026-01-11 09:30:35.83	359.74	26.34	-41.2	-44.4	13.8	3.00e-06	0	56	0	967835648	54	5047
2026-01-11 09:30:36.84	359.61	26.19	-41.3	-44.4	13.8	5.30e-06	0	56	0	969932800	54	5089
2026-01-11 09:30:37.85	359.49	26.04	-41.3	-44.5	13.6	8.30e-06	0	56	0	972029952	54	5134
2026-01-11 09:30:38.86	359.37	25.88	-41.3	-44.5	13.6	1.14e-05	0	56	0	974127104	54	5152
2026-01-11 09:30:39.87	359.25	25.73	-41.3	-44.5	13.6	1.06e-05	0	56	0	976224256	54	5154
2026-01-11 09:30:40.88	359.13	25.58	-41.3	-44.5	13.6	1.14e-05	0	56	0	977272832	54	5141
2026-01-11 09:30:41.89	359.01	25.43	-41.3	-44.5	13.6	1.06e-05	0	56	0	979369984	54	5144
2026-01-11 09:30:42.90	358.89	25.28	-41.1	-44.3	13.7	1.37e-05	0	56	0	981467136	54	4999
2026-01-11 09:30:43.91	358.77	25.13	-41.1	-44.2	13.9	3.00e-06	0	56	0	983564288	54	4938
2026-01-11 09:30:44.92	358.66	24.99	-41.0	-44.0	14.1	2.20e-06	0	56	0	985661440	54	4850
2026-01-11 09:30:45.93	358.55	24.84	-41.0	-44.0	14.1	3.00e-06	0	56	0	986710016	54	4846
2026-01-11 09:30:46.94	358.43	24.69	-40.9	-43.8	14.2	1.50e-06	0	56	0	988807168	53	5024
2026-01-11 09:30:47.95	358.32	24.55	-40.9	-43.8	14.2	1.50e-06	0	56	0	990904320	53	5038
2026-01-11 09:30:48.96	358.21	24.40	-40.9	-43.9	14.2	7.00e-07	0	56	0	993001472	53	5050
2026-01-11 09:30:49.97	358.10	24.26	-40.9	-43.9	14.2	1.50e-06	0	56	0	995098624	53	5047
2026-01-11 09:30:50.98	357.99	24.11	-41.0	-44.0	14.0	0.00e+00	0	56	0	996147200	53	5157
2026-01-11 09:30:51.98	357.88	23.97	-41.1	-44.2	13.8	7.00e-07	0	56	0	998244352	53	5259
2026-01-11 09:30:52.99	357.78	23.83	-41.2	-44.4	13.6	8.30e-06	0	56	0	1000341504	53	5358
2026-01-11 09:30:54.00	357.67	23.69	-41.3	-44.6	13.4	1.22e-05	0	56	0	1002438656	53	5501
2026-01-11 09:30:55.01	357.57	23.55	-41.4	-44.8	13.2	1.67e-05	0	56	0	1004535808	53	5625
2026-01-11 09:30:56.02	357.46	23.41	-41.4	-44.9	13.1	2.51e-05	0	56	0	1005584384	53	5683
2026-01-11 09:30:57.03	357.36	23.27	-41.4	-44.8	13.1	2.89e-05	0	56	0	1007681536	53	5613
2026-01-11 09:30:58.04	357.26	23.13	-41.4	-44.9	13.0	3.20e-05	0	56	0	1009778688	53	5692
2026-01-11 09:30:59.04	357.16	22.99	-41.3	-44.7	13.2	3.50e-05	0	56	0	1011875840	53	5549
2026-01-11 09:31:00.05	357.06	22.85	-41.3	-44.7	13.1	3.20e-05	0	56	0	1013972992	53	5579
2026-01-11 09:31:01.06	356.96	22.72	-41.3	-44.7	13.2	2.89e-05	0	56	0	1015021568	53	5547
2026-01-11 09:31:02.07	356.86	22.58	-41.2	-44.6	13.2	2.51e-05	0	56	0	1017118720	53	5485
2026-01-11 09:31:03.08	356.76	22.44	-41.1	-44.5	13.3	1.98e-05	0	56	0	1019215872	53	5458
2026-01-11 09:31:04.09	356.66	22.31	-41.1	-44.5	13.2	2.82e-05	0	56	0	1021313024	53	5432
2026-01-11 09:31:05.10	356.57	22.17	-41.1	-44.5	13.1	1.90e-05	0	56	0	1023410176	53	5418
2026-01-11 09:31:06.11	356.47	22.04	-41.0	-44.4	13.1	1.60e-05	0	56	0	1024458752	53	5374
2026-01-11 09:31:07.12	356.38	21.91	-41.0	-44.6	12.9	4.42e-05	0	56	0	1026555904	53	5491
2026-01-11 09:31:08.13	356.29	21.77	-41.0	-44.6	12.8	6.10e-05	0	56	0	1028653056	53	5522
2026-01-11 09:31:09.14	356.19	21.64	-40.9	-44.5	12.8	6.86e-05	0	56	0	1030750208	53	5412
2026-01-11 09:31:10.15	356.10	21.51	-40.8	-44.4	12.9	5.56e-05	0	56	0	1032847360	53	5351
2026-01-11 09:31:11.16	356.01	21.38	-40.7	-44.2	13.0	3.89e-05	0	56	0	1033895936	53	5248
2026-01-11 09:31:12.17	355.92	21.25	-40.7	-44.2	12.8	4.50e-05	0	56	0	1035993088	53	5278
2026-01-11 09:31:13.18	355.83	21.12	-40.6	-44.1	12.9	4.34e-05	0	56	0	1038090240	53	5185
2026-01-11 09:31:14.19	355.74	20.99	-40.5	-44.0	13.0	3.73e-05	0	56	0	1040187392	53	5147
2026-01-11 09:31:15.20	355.66	20.86	-40.5	-44.2	12.8	4.65e-05	0	56	0	1042284544	53	5220
2026-01-11 09:31:16.21	355.57	20.73	-40.7	-44.6	12.1	1.85e-04	0	56	0	1044381696	53	5524
2026-01-11 09:31:17.21	355.48	20.61	-40.9	-45.3	11.3	8.02e-04	0	56	0	1045430272	53	5959
2026-01-11 09:31:18.22	355.40	20.48	-41.1	-46.0	10.2	2.58e-03	0	56	0	1047527424	53	6474
2026-01-11 09:31:19.23	355.31	20.35	-41.3	-47.1	8.9	1.08e-02	0	56	0	1049624576	53	7289
2026-01-11 09:31:20.24	355.23	20.23	-41.4	-48.0	7.7	6.46e-02	0	56	0	1051721728	53	8140
2026-01-11 09:31:21.25	355.15	20.10	-41.5	-49.2	6.4	1.67e-01	0	56	0	1052770304	53	9329
2026-01-11 09:31:22.26	355.06	19.98	-41.5	-50.3	5.4	3.56e-01	0	56	0	1054867456	53	10629
2026-01-11 09:31:23.27	354.98	19.85	-41.4	-51.5	4.6	8.26e-01	0	56	0	1056964608	53	12184
2026-01-11 09:31:24.28	354.90	19.73	-41.4	-52.4	4.2	1.30e+00	0	56	0	1058013184	53	13545
2026-01-11 09:31:25.29	354.82	19.61	-41.3	-53.4	4.0	1.45e+00	0	56	104	1058013184	53	15188
2026-01-11 09:31:26.30	354.74	19.48	-41.2	-54.1	3.8	1.49e+00	0	56	104	1058013184	53	16458
2026-01-11 09:31:27.31	354.66	19.36	-41.2	-54.7	3.8	1.49e+00	0	56	104	1058013184	53	17493
2026-01-11 09:31:28.32	354.58	19.24	-41.1	-54.7	3.8	1.49e+00	0	56	104	1058013184	53	17652
2026-01-11 09:31:29.33	354.51	19.12	-41.1	-55.0	3.8	1.49e+00	0	56	104	1058013184	53	18123
2026-01-11 09:31:30.34	354.43	19.00	-40.9	-55.4	3.8	1.49e+00	0	56	104	1058013184	53	18964
2026-01-11 09:31:31.35	354.35	18.88	-40.9	-55.3	3.8	1.49e+00	0	56	104	1058013184	53	18936
2026-01-11 09:31:32.36	354.28	18.76	-41.3	-55.1	3.8	1.49e+00	0	56	104	1058013184	53	18456
2026-01-11 09:31:33.37	354.20	18.64	-40.9	-55.4	3.8	1.49e+00	0	56	104	1058013184	53	18988
2026-01-11 09:31:34.38	354.13	18.52	-40.9	-55.4	3.8	1.49e+00	0	56	104	1058013184	53	18983
2026-01-11 09:31:35.39	354.05	18.41	-40.8	-55.3	3.8	1.49e+00	0	56	104	1058013184	53	18836
2026-01-11 09:31:36.40	353.98	18.29	-40.7	-55.2	3.8	1.49e+00	0	56	104	1058013184	53	18640
2026-01-11 09:31:37.41	353.91	18.17	-40.6	-55.2	3.8	1.49e+00	0	56	104	1058013184	52	19710
2026-01-11 09:31:38.42	353.83	18.06	-40.9	-55.4	3.8	1.49e+00	0	56	104	1058013184	52	20087
2026-01-11 09:31:39.43	353.76	17.94	-40.7	-55.2	3.8	1.49e+00	0	56	104	1058013184	52	19729
2026-01-11 09:31:40.44	353.69	17.83	-40.6	-55.2	3.8	1.49e+00	0	56	104	1058013184	52	19692
2026-01-11 09:31:41.45	353.62	17.71	-40.6	-55.3	3.8	1.49e+00	0	56	104	1058013184	52	19860
2026-01-11 09:31:42.46	353.55	17.60	-40.5	-55.1	3.8	1.49e+00	0	56	104	1058013184	52	19401
2026-01-11 09:31:43.46	353.48	17.48	-40.3	-55.1	3.8	1.49e+00	0	56	104	1058013184	52	19467
2026-01-11 09:31:44.47	353.41	17.37	-40.4	-55.1	3.8	1.49e+00	0	56	104	1058013184	52	19485
2026-01-11 09:31:45.48	353.34	17.26	-40.3	-55.1	3.8	1.49e+00	0	56	104	1058013184	52	19454
2026-01-11 09:31:46.49	353.28	17.15	-40.5	-55.2	3.8	1.49e+00	0	56	104	1058013184	52	19677
2026-01-11 09:31:47.51	353.21	17.03	-40.3	-55.1	3.8	1.49e+00	0	56	104	1058013184	52	19563
2026-01-11 09:31:48.52	353.14	16.92	-40.2	-55.1	3.8	1.49e+00	0	56	104	1058013184	52	19485
2026-01-11 09:31:49.53	353.07	16.81	-40.1	-55.1	3.8	1.49e+00	0	56	104	1058013184	52	19576
2026-01-11 09:31:50.54	353.01	16.70	-40.0	-55.2	3.8	1.49e+00	0	57	104	1058013184	51	20856
2026-01-11 09:31:51.55	352.94	16.59	-40.1	-55.2	3.8	1.49e+00	0	57	104	1058013184	51	20946
2026-01-11 09:31:52.56	352.88	16.48	-40.1	-55.3	3.8	1.49e+00	0	57	104	1058013184	51	21028
2026-01-11 09:31:53.57	352.81	16.37	-40.1	-55.3	3.8	1.49e+00	0	56	104	1058013184	51	21045
2026-01-11 09:31:54.58	352.75	16.26	-40.5	-55.3	3.8	1.49e+00	0	56	104	1058013184	51	21219
2026-01-11 09:31:55.59	352.69	16.16	-40.1	-55.3	3.8	1.49e+00	0	56	104	1058013184	51	21205
2026-01-11 09:31:56.60	352.62	16.05	-40.3	-55.4	3.8	1.49e+00	0	56	104	1058013184	51	21311
2026-01-11 09:31:57.61	352.56	15.94	-40.3	-55.4	3.8	1.49e+00	0	56	104	1058013184	51	21313
2026-01-11 09:31:58.62	352.50	15.83	-40.7	-55.3	3.8	1.49e+00	0	56	104	1058013184	51	21176
2026-01-11 09:31:59.62	352.44	15.73	-40.3	-55.4	3.8	1.49e+00	0	56	104	1058013184	51	21320
2026-01-11 09:32:00.63	352.38	15.62	-40.6	-55.3	3.8	1.49e+00	0	56	104	1058013184	51	21246
2026-01-11 09:32:01.64	352.32	15.52	-40.5	-55.4	3.8	1.49e+00	0	57	104	1058013184	51	21342
2026-01-11 09:32:02.65	352.26	15.41	-40.4	-55.3	3.8	1.49e+00	0	56	104	1058013184	51	21056
2026-01-11 09:32:03.66	352.20	15.31	-40.7	-55.2	3.8	1.49e+00	0	56	104	1058013184	52	19801
2026-01-11 09:32:04.67	352.14	15.20	-40.4	-55.2	3.8	1.49e+00	0	56	104	1058013184	52	19748
2026-01-11 09:32:05.68	352.08	15.10	-40.7	-55.2	3.8	1.49e+00	0	56	104	1058013184	52	19721
2026-01-11 09:32:06.69	352.02	15.00	-40.6	-55.1	3.8	1.49e+00	0	57	104	1058013184	52	19545
2026-01-11 09:32:07.70	351.97	14.89	-40.5	-55.2	3.8	1.49e+00	0	56	104	1058013184	52	19821
2026-01-11 09:32:08.71	351.91	14.79	-40.5	-55.1	3.8	1.49e+00	0	56	104	1058013184	52	19435
2026-01-11 09:32:09.72	351.85	14.69	-40.6	-55.2	3.8	1.49e+00	0	57	104	1058013184	52	19658
2026-01-11 09:32:10.73	351.79	14.59	-40.3	-55.2	3.8	1.49e+00	0	56	104	1058013184	52	19757
2026-01-11 09:32:11.74	351.74	14.48	-40.7	-55.2	3.8	1.49e+00	0	56	104	1058013184	52	19695
2026-01-11 09:32:12.75	351.68	14.38	-40.4	-55.2	3.8	1.49e+00	0	56	104	1058013184	52	19674
2026-01-11 09:32:13.76	351.63	14.28	-40.7	-55.3	3.8	1.49e+00	0	57	104	1058013184	52	19850
2026-01-11 09:32:14.77	351.57	14.18	-40.7	-55.2	3.8	1.49e+00	0	56	104	1058013184	52	19757
2026-01-11 09:32:15.78	351.52	14.08	-40.5	-55.1	3.8	1.49e+00	0	56	104	1058013184	52	19523
2026-01-11 09:32:16.79	351.46	13.98	-40.7	-55.3	3.8	1.49e+00	0	57	104	1058013184	52	19859
2026-01-11 09:32:17.80	351.41	13.88	-40.5	-55.1	3.8	1.49e+00	0	56	104	1058013184	52	19480
2026-01-11 09:32:18.81	351.36	13.79	-40.5	-55.3	3.8	1.49e+00	0	56	104	1058013184	52	19879
2026-01-11 09:32:19.82	351.30	13.69	-40.6	-55.1	3.8	1.49e+00	0	56	104	1058013184	52	19556
