passes_logs/2026/01/11/R2.0S_Moscow/R2.0S_Moscow__20260111_090022_SUOMI_NPP_rec.log

#Pass ID: 20260111_090022_SUOMI NPP
#Satellite: SUOMI NPP
#Configuration: NPP
#almurnet v.1.7.20251203
#Start time: 2026-01-11 09:00:23

#Version: 2.2.20231116
#Station: R2.0S_Moscow
#Location: 37.707566 lon 55.798166 lat
#TLE: 1 37849U 11061A   26009.81756760  .00000113  00000+0  74747-4 0  9994
#TLE: 2 37849  98.7806 311.9110 0002525  72.5604 287.5848 14.19524046735974

#Time	Az	El	Level	Level2	SNR	BER	BlckErr	Temp	State	Recorded	gain1	gain2
2026-01-11 09:00:23.08	131.82	2.04	-12.9	-34.6	3.6	1.50e+00	0	47	0	0	1	34613
2026-01-11 09:00:24.09	131.77	2.11	-13.2	-29.0	3.7	1.51e+00	0	47	104	0	0	19361
2026-01-11 09:00:25.10	131.73	2.17	-20.5	-36.6	3.5	1.50e+00	0	47	104	0	10	25907
2026-01-11 09:00:26.11	131.69	2.23	-15.3	-36.6	3.3	1.50e+00	0	47	104	0	5	34688
2026-01-11 09:00:27.12	131.65	2.29	-18.1	-37.5	3.6	1.50e+00	0	47	104	0	15	21735
2026-01-11 09:00:28.13	131.61	2.36	-13.2	-36.7	3.7	1.50e+00	0	47	104	0	1	44184
2026-01-11 09:00:29.14	131.57	2.42	-15.0	-32.4	3.7	1.50e+00	0	47	104	0	2	25496
2026-01-11 09:00:30.15	131.53	2.48	-18.8	-38.3	3.5	1.50e+00	0	47	104	0	14	25068
2026-01-11 09:00:31.16	131.48	2.55	-21.0	-36.6	3.6	1.50e+00	0	47	104	0	10	26142
2026-01-11 09:00:32.17	131.44	2.61	-23.9	-40.7	3.5	1.50e+00	0	47	0	0	14	32973
2026-01-11 09:00:33.18	131.40	2.67	-18.1	-36.7	3.5	1.50e+00	0	47	104	0	13	22176
2026-01-11 09:00:34.19	131.36	2.74	-15.4	-34.7	3.5	1.50e+00	0	47	104	0	5	27895
2026-01-11 09:00:35.20	131.31	2.80	-19.0	-36.0	3.6	1.50e+00	0	47	104	0	12	21660
2026-01-11 09:00:36.21	131.27	2.86	-16.1	-38.7	3.4	1.50e+00	0	48	0	0	12	29667
2026-01-11 09:00:37.23	131.23	2.93	-20.0	-39.7	3.7	1.50e+00	0	48	104	0	18	23363
2026-01-11 09:00:38.24	131.18	2.99	-21.2	-38.7	3.5	1.50e+00	0	48	0	0	14	26196
2026-01-11 09:00:39.25	131.14	3.06	-21.2	-40.6	3.7	1.50e+00	0	48	104	0	17	27424
2026-01-11 09:00:40.26	131.10	3.12	-23.7	-39.2	3.8	1.50e+00	0	48	104	0	14	27782
2026-01-11 09:00:41.27	131.05	3.19	-23.1	-38.9	3.5	1.50e+00	0	48	104	0	13	28660
2026-01-11 09:00:42.28	131.01	3.25	-20.8	-38.2	3.5	1.50e+00	0	48	104	0	13	26448
2026-01-11 09:00:43.29	130.96	3.32	-20.6	-37.2	3.6	1.50e+00	0	48	0	0	13	23497
2026-01-11 09:00:44.30	130.92	3.38	-16.4	-33.1	3.7	1.51e+00	0	48	104	0	3	26021
2026-01-11 09:00:45.31	130.87	3.44	-19.7	-34.4	3.7	1.51e+00	0	48	104	0	7	23872
2026-01-11 09:00:46.32	130.83	3.51	-18.1	-38.4	3.6	1.50e+00	0	48	104	0	13	26995
2026-01-11 09:00:47.34	130.78	3.58	-18.5	-36.2	3.6	1.50e+00	0	48	104	0	6	31377
2026-01-11 09:00:48.35	130.74	3.64	-20.6	-35.0	3.8	1.50e+00	0	48	104	0	2	34167
2026-01-11 09:00:49.36	130.69	3.71	-19.0	-37.1	3.5	1.50e+00	0	48	104	0	9	29076
2026-01-11 09:00:50.37	130.65	3.77	-17.7	-34.1	3.9	1.50e+00	0	48	104	0	1	32886
2026-01-11 09:00:51.38	130.60	3.84	-21.3	-37.2	3.6	1.50e+00	0	48	104	0	2	44184
2026-01-11 09:00:52.39	130.55	3.90	-13.5	-32.7	3.8	1.51e+00	0	48	104	0	7	19770
2026-01-11 09:00:53.40	130.51	3.97	-18.6	-38.7	3.6	1.51e+00	0	49	104	0	9	35003
2026-01-11 09:00:54.41	130.46	4.04	-13.4	-31.3	4.0	1.50e+00	0	49	104	0	0	25151
2026-01-11 09:00:55.42	130.41	4.10	-19.6	-38.1	3.3	1.51e+00	0	49	104	0	7	36573
2026-01-11 09:00:56.44	130.36	4.17	-16.8	-32.4	3.7	1.50e+00	0	49	104	0	5	21356
2026-01-11 09:00:57.45	130.32	4.24	-14.7	-30.6	3.4	1.51e+00	0	49	104	0	5	17387
2026-01-11 09:00:58.46	130.27	4.30	-20.5	-37.2	3.5	1.50e+00	0	49	104	0	10	27750
2026-01-11 09:00:59.47	130.22	4.37	-21.7	-39.2	3.4	1.50e+00	0	49	104	0	12	31108
2026-01-11 09:01:00.48	130.17	4.44	-22.6	-41.0	3.5	1.50e+00	0	49	104	0	16	30691
2026-01-11 09:01:01.49	130.12	4.51	-15.8	-31.9	3.7	1.50e+00	0	49	104	0	0	26782
2026-01-11 09:01:02.50	130.08	4.57	-14.6	-32.0	3.8	1.50e+00	0	49	0	0	0	27313
2026-01-11 09:01:03.51	130.03	4.64	-13.5	-32.6	3.6	1.51e+00	0	49	104	0	1	27665
2026-01-11 09:01:04.52	129.98	4.71	-17.5	-38.1	3.7	1.50e+00	0	49	104	0	10	31029
2026-01-11 09:01:05.53	129.93	4.78	-19.0	-35.2	3.8	1.50e+00	0	49	104	0	5	29673
2026-01-11 09:01:06.54	129.88	4.84	-18.5	-34.8	3.8	1.50e+00	0	50	104	0	5	28122
2026-01-11 09:01:07.55	129.83	4.91	-16.4	-36.7	3.6	1.50e+00	0	49	104	0	10	26231
2026-01-11 09:01:08.56	129.78	4.98	-21.3	-38.7	3.5	1.51e+00	0	49	104	0	15	24711
2026-01-11 09:01:09.57	129.73	5.05	-17.9	-31.8	3.7	1.50e+00	0	49	104	0	6	18798
2026-01-11 09:01:10.59	129.68	5.12	-14.7	-32.1	3.6	1.50e+00	0	50	104	0	1	25858
2026-01-11 09:01:11.60	129.63	5.19	-21.6	-37.1	3.5	1.50e+00	0	50	104	0	10	27531
2026-01-11 09:01:12.61	129.58	5.26	-23.6	-38.6	3.6	1.50e+00	0	50	104	0	13	27593
2026-01-11 09:01:13.62	129.52	5.33	-20.2	-38.3	3.5	1.50e+00	0	50	104	0	13	26597
2026-01-11 09:01:14.63	129.47	5.40	-22.8	-41.0	3.5	1.50e+00	0	50	0	0	16	30586
2026-01-11 09:01:15.64	129.42	5.47	-14.1	-30.8	3.7	1.50e+00	0	50	104	0	0	23822
2026-01-11 09:01:16.65	129.37	5.53	-23.0	-40.3	3.5	1.50e+00	0	50	104	0	15	29912
2026-01-11 09:01:17.66	129.32	5.60	-17.0	-34.8	3.8	1.50e+00	0	50	104	0	9	22299
2026-01-11 09:01:18.67	129.26	5.67	-21.7	-39.1	3.6	1.50e+00	0	50	0	0	15	25911
2026-01-11 09:01:19.68	129.21	5.74	-20.1	-36.2	3.9	1.50e+00	0	50	104	0	8	27917
2026-01-11 09:01:20.69	129.16	5.82	-14.1	-32.5	3.7	1.50e+00	0	50	0	0	0	28738
2026-01-11 09:01:21.71	129.10	5.89	-13.3	-35.1	3.9	1.50e+00	0	50	104	0	9	23114
2026-01-11 09:01:22.72	129.05	5.96	-20.3	-36.5	3.8	1.50e+00	0	50	104	0	11	24140
2026-01-11 09:01:23.73	129.00	6.03	-24.6	-38.4	3.5	1.50e+00	0	50	104	0	7	37983
2026-01-11 09:01:24.74	128.94	6.10	-14.9	-35.6	3.9	1.50e+00	0	50	104	0	7	27429
2026-01-11 09:01:25.75	128.89	6.17	-18.8	-34.3	3.6	1.51e+00	0	51	104	0	2	31778
2026-01-11 09:01:26.76	128.83	6.24	-16.8	-32.1	4.1	1.51e+00	0	50	104	0	7	18516
2026-01-11 09:01:27.77	128.78	6.31	-16.8	-34.4	3.5	1.50e+00	0	51	0	0	5	26812
2026-01-11 09:01:28.79	128.72	6.38	-20.9	-37.3	3.8	1.50e+00	0	50	104	0	10	28225
2026-01-11 09:01:29.79	128.67	6.46	-16.1	-34.1	3.2	1.50e+00	0	51	104	0	8	21954
2026-01-11 09:01:30.80	128.61	6.53	-22.8	-42.1	3.7	1.50e+00	0	51	104	0	9	51650
2026-01-11 09:01:31.82	128.55	6.60	-20.1	-36.3	3.4	1.50e+00	0	51	104	0	6	31734
2026-01-11 09:01:32.83	128.50	6.67	-21.4	-41.4	3.6	1.50e+00	0	51	104	0	19	26958
2026-01-11 09:01:33.84	128.44	6.75	-21.5	-37.7	3.6	1.50e+00	0	51	0	0	12	26392
2026-01-11 09:01:34.85	128.38	6.82	-21.7	-38.4	3.6	1.50e+00	0	51	104	0	14	25275
2026-01-11 09:01:35.86	128.32	6.89	-22.3	-40.6	3.6	1.50e+00	0	51	104	0	17	27553
2026-01-11 09:01:36.87	128.27	6.96	-14.6	-33.7	3.7	1.50e+00	0	51	104	0	2	29413
2026-01-11 09:01:37.88	128.21	7.04	-14.8	-31.4	3.9	1.50e+00	0	51	104	0	0	25436
2026-01-11 09:01:38.90	128.15	7.11	-14.9	-33.2	3.7	1.51e+00	0	51	0	0	1	29486
2026-01-11 09:01:39.90	128.09	7.18	-15.5	-33.1	3.5	1.50e+00	0	51	104	0	1	29325
2026-01-11 09:01:40.92	128.03	7.26	-14.2	-33.9	3.8	1.50e+00	0	51	104	0	2	30136
2026-01-11 09:01:41.93	127.97	7.33	-15.2	-34.4	3.5	1.50e+00	0	51	104	0	2	32063
2026-01-11 09:01:42.94	127.91	7.41	-15.9	-33.2	3.6	1.50e+00	0	51	104	0	0	31376
2026-01-11 09:01:43.95	127.85	7.48	-19.1	-38.1	3.6	1.50e+00	0	51	104	0	4	43879
2026-01-11 09:01:44.96	127.79	7.56	-12.9	-32.7	3.9	1.50e+00	0	51	104	0	4	23466
2026-01-11 09:01:45.97	127.73	7.63	-15.9	-39.1	3.6	1.50e+00	0	51	104	0	12	30935
2026-01-11 09:01:46.98	127.67	7.71	-22.5	-39.4	3.5	1.50e+00	0	51	104	0	14	28499
2026-01-11 09:01:47.99	127.61	7.78	-16.9	-38.1	3.7	1.50e+00	0	51	104	0	11	29278
2026-01-11 09:01:49.01	127.55	7.86	-23.0	-38.8	3.9	1.50e+00	0	51	104	0	13	28239
2026-01-11 09:01:50.02	127.49	7.93	-16.8	-36.8	3.7	1.50e+00	0	51	104	0	13	22272
2026-01-11 09:01:51.03	127.42	8.01	-13.2	-31.2	3.8	1.51e+00	0	52	104	0	0	24920
2026-01-11 09:01:52.04	127.36	8.08	-19.4	-37.9	3.7	1.50e+00	0	51	104	0	12	26853
2026-01-11 09:01:53.05	127.30	8.16	-15.8	-33.7	3.5	1.50e+00	0	52	0	0	2	29353
2026-01-11 09:01:54.06	127.24	8.24	-17.5	-35.0	3.8	1.50e+00	0	51	0	0	3	32219
2026-01-11 09:01:55.07	127.17	8.31	-18.9	-42.0	4.5	1.50e+00	0	51	104	0	14	38270
2026-01-11 09:01:56.08	127.11	8.39	-21.7	-40.1	3.7	1.49e+00	0	52	104	0	12	34787
2026-01-11 09:01:57.09	127.04	8.47	-23.8	-35.6	3.8	1.50e+00	0	52	0	0	4	32764
2026-01-11 09:01:58.10	126.98	8.54	-23.8	-39.9	4.2	1.50e+00	0	52	104	0	16	26892
2026-01-11 09:01:59.12	126.91	8.62	-18.9	-35.3	3.7	1.49e+00	0	52	0	0	8	25107
2026-01-11 09:02:00.13	126.85	8.70	-21.6	-38.4	4.0	1.50e+00	0	52	104	0	13	26820
2026-01-11 09:02:01.14	126.78	8.78	-23.6	-41.6	4.6	1.51e+00	0	52	104	0	14	36614
2026-01-11 09:02:02.15	126.72	8.86	-24.7	-42.3	4.3	1.50e+00	0	52	104	0	14	39928
2026-01-11 09:02:03.16	126.65	8.93	-20.9	-44.1	4.0	1.50e+00	0	52	104	0	22	31031
2026-01-11 09:02:04.17	126.58	9.01	-25.5	-40.7	3.7	1.50e+00	0	52	0	0	17	27827
2026-01-11 09:02:05.18	126.52	9.09	-19.4	-33.8	3.8	1.51e+00	0	52	104	0	2	29752
2026-01-11 09:02:06.19	126.45	9.17	-24.9	-41.6	4.1	1.51e+00	0	52	104	0	17	31046
2026-01-11 09:02:07.20	126.38	9.25	-21.9	-41.8	5.0	1.50e+00	0	52	104	0	28	16762
2026-01-11 09:02:08.21	126.31	9.33	-25.3	-45.9	4.4	1.48e+00	0	52	104	0	25	31953
2026-01-11 09:02:09.22	126.24	9.41	-30.2	-51.0	4.4	1.51e+00	0	52	104	0	32	38549
2026-01-11 09:02:10.23	126.17	9.49	-16.7	-34.3	3.5	1.50e+00	0	52	104	0	6	25008
2026-01-11 09:02:11.24	126.10	9.57	-19.3	-36.1	3.7	1.50e+00	0	52	0	0	9	25963
2026-01-11 09:02:12.25	126.04	9.65	-20.1	-38.5	3.7	1.51e+00	0	52	0	0	14	25595
2026-01-11 09:02:13.26	125.96	9.73	-23.9	-42.3	3.2	1.50e+00	0	52	104	0	13	42287
2026-01-11 09:02:14.27	125.89	9.81	-25.2	-42.6	3.7	1.50e+00	0	52	0	0	19	31077
2026-01-11 09:02:15.27	125.82	9.89	-20.9	-41.1	4.5	1.50e+00	0	52	0	0	17	29255
2026-01-11 09:02:16.28	125.75	9.97	-26.5	-45.9	4.5	1.47e+00	0	52	104	0	31	22548
2026-01-11 09:02:17.30	125.68	10.05	-27.5	-46.0	4.5	1.51e+00	0	52	104	0	28	27131
2026-01-11 09:02:18.31	125.61	10.13	-28.4	-46.4	4.5	1.50e+00	0	52	0	0	29	26967
2026-01-11 09:02:19.32	125.53	10.21	-23.8	-44.6	4.5	1.49e+00	0	52	104	0	24	29218
2026-01-11 09:02:20.33	125.46	10.29	-27.6	-45.5	4.2	1.50e+00	0	52	104	0	23	34407
2026-01-11 09:02:21.34	125.39	10.38	-28.3	-48.4	4.7	1.50e+00	0	53	104	0	33	27021
2026-01-11 09:02:22.35	125.31	10.46	-26.0	-43.3	4.9	1.46e+00	0	52	104	0	28	19884
2026-01-11 09:02:23.36	125.24	10.54	-23.0	-42.0	5.1	1.44e+00	0	52	104	0	22	24384
2026-01-11 09:02:24.37	125.16	10.62	-37.7	-50.2	5.7	7.40e-01	0	52	0	0	48	13936
2026-01-11 09:02:25.38	125.09	10.71	-26.0	-42.8	4.7	1.39e+00	0	52	104	1048576	30	16728
2026-01-11 09:02:26.39	125.01	10.79	-31.1	-44.3	4.6	1.08e+00	0	53	104	1048576	34	15903
2026-01-11 09:02:27.40	124.94	10.87	-34.9	-46.4	4.9	1.37e+00	0	53	104	1048576	36	17985
2026-01-11 09:02:28.41	124.86	10.96	-25.0	-42.5	4.5	9.00e-01	0	53	104	1048576	30	16184
2026-01-11 09:02:29.42	124.78	11.04	-33.1	-45.4	7.6	5.40e-01	0	53	0	1048576	37	15168
2026-01-11 09:02:30.43	124.71	11.12	-28.5	-43.4	6.6	4.32e-01	0	53	0	3145728	33	15056
2026-01-11 09:02:31.44	124.63	11.21	-31.0	-43.7	8.5	6.31e-01	0	53	0	5242880	37	12484
2026-01-11 09:02:32.45	124.55	11.29	-33.4	-44.3	7.2	3.90e-01	0	53	0	7340032	39	11856
2026-01-11 09:02:33.46	124.47	11.38	-29.5	-44.2	8.3	3.20e-01	0	53	0	8388608	34	15710
2026-01-11 09:02:34.47	124.39	11.46	-32.2	-43.6	7.9	4.27e-01	0	53	0	10485760	32	16353
2026-01-11 09:02:35.48	124.31	11.55	-32.5	-44.1	4.8	4.03e-01	0	53	104	12582912	27	23089
2026-01-11 09:02:36.49	124.23	11.63	-30.0	-44.5	6.6	3.71e-01	0	53	0	12582912	29	21528
2026-01-11 09:02:37.50	124.15	11.72	-30.6	-44.2	7.7	2.63e-01	0	53	0	14680064	31	18648
2026-01-11 09:02:38.51	124.07	11.81	-31.3	-45.2	8.1	2.75e-01	0	53	0	15728640	36	15651
2026-01-11 09:02:39.52	123.99	11.89	-33.6	-44.3	7.9	2.44e-01	0	53	0	17825792	33	16872
2026-01-11 09:02:40.53	123.90	11.98	-34.9	-44.7	8.7	1.23e-01	0	53	0	19922944	40	11746
2026-01-11 09:02:41.54	123.82	12.07	-30.3	-44.1	8.2	1.02e-01	0	53	0	22020096	33	16446
2026-01-11 09:02:42.55	123.74	12.15	-37.3	-44.6	9.6	3.09e-01	0	53	0	24117248	41	10920
2026-01-11 09:02:43.56	123.65	12.24	-32.9	-44.7	9.9	9.09e-02	0	53	0	25165824	40	11780
2026-01-11 09:02:44.57	123.57	12.33	-38.6	-44.6	9.3	1.03e-01	0	53	0	27262976	42	10364
2026-01-11 09:02:45.58	123.49	12.41	-35.1	-44.7	9.6	1.54e-01	0	53	0	29360128	47	7832
2026-01-11 09:02:46.59	123.40	12.50	-35.1	-43.4	5.6	2.30e-01	0	53	0	31457280	27	21407
2026-01-11 09:02:47.60	123.31	12.59	-39.6	-45.1	10.7	3.82e-02	0	53	0	33554432	49	7330
2026-01-11 09:02:48.60	123.23	12.68	-36.8	-45.2	10.9	3.00e-02	0	53	0	34603008	48	7860
2026-01-11 09:02:49.61	123.14	12.77	-35.6	-44.7	10.8	2.50e-02	0	53	0	36700160	43	9933
2026-01-11 09:02:50.63	123.05	12.86	-38.7	-45.1	10.7	4.16e-02	0	53	0	38797312	46	8694
2026-01-11 09:02:51.64	122.96	12.95	-37.2	-44.9	11.4	5.04e-02	0	53	0	40894464	49	7147
2026-01-11 09:02:52.65	122.88	13.04	-37.8	-44.6	11.5	1.10e-02	0	53	0	42991616	48	7324
2026-01-11 09:02:53.66	122.79	13.13	-38.6	-44.4	12.3	8.19e-03	0	53	0	44040192	48	7130
2026-01-11 09:02:54.66	122.70	13.22	-39.6	-44.5	12.7	6.17e-03	0	53	0	46137344	51	6066
2026-01-11 09:02:55.67	122.61	13.31	-39.6	-44.6	12.4	3.25e-03	0	53	0	48234496	51	6173
2026-01-11 09:02:56.68	122.52	13.40	-40.1	-45.2	11.7	6.61e-03	0	53	0	50331648	50	6962
2026-01-11 09:02:57.69	122.43	13.49	-38.9	-44.3	12.1	4.58e-03	0	53	0	52428800	49	6721
2026-01-11 09:02:58.70	122.33	13.58	-37.7	-44.0	12.3	7.24e-03	0	53	0	53477376	47	7251
2026-01-11 09:02:59.71	122.24	13.67	-34.6	-43.5	9.8	6.97e-03	0	54	0	55574528	39	10825
2026-01-11 09:03:00.72	122.15	13.76	-33.5	-43.3	10.5	3.01e-02	0	53	0	57671680	40	10036
2026-01-11 09:03:01.73	122.05	13.85	-37.9	-43.9	12.7	1.26e-02	0	53	0	59768832	48	6778
2026-01-11 09:03:02.74	121.96	13.95	-38.1	-44.3	12.6	3.67e-03	0	53	0	61865984	50	6340
2026-01-11 09:03:03.75	121.86	14.04	-39.6	-44.3	12.2	3.80e-03	0	54	0	62914560	49	6682
2026-01-11 09:03:04.76	121.77	14.13	-38.9	-44.9	12.3	4.79e-03	0	53	0	65011712	50	6749
2026-01-11 09:03:05.77	121.67	14.22	-39.1	-44.7	12.2	8.11e-03	0	54	0	67108864	50	6582
2026-01-11 09:03:06.78	121.58	14.32	-39.4	-44.4	12.7	9.38e-03	0	53	0	69206016	49	6781
2026-01-11 09:03:07.79	121.48	14.41	-39.0	-44.5	12.6	4.12e-03	0	54	0	71303168	50	6428
2026-01-11 09:03:08.80	121.38	14.51	-39.2	-43.8	10.9	4.02e-03	0	53	0	72351744	44	8439
2026-01-11 09:03:09.81	121.28	14.60	-39.6	-44.2	12.5	1.02e-02	0	54	0	74448896	49	6611
2026-01-11 09:03:10.81	121.18	14.69	-39.6	-44.1	13.1	3.64e-03	0	54	0	76546048	50	6164
2026-01-11 09:03:11.83	121.08	14.79	-37.9	-43.9	11.9	7.47e-03	0	54	0	78643200	46	7592
2026-01-11 09:03:12.84	120.98	14.88	-37.3	-44.3	12.0	1.15e-02	0	53	0	80740352	48	7084
2026-01-11 09:03:13.85	120.88	14.98	-38.2	-44.8	11.9	1.56e-02	0	54	0	81788928	48	7501
2026-01-11 09:03:14.85	120.78	15.07	-38.7	-44.1	13.1	9.03e-03	0	53	0	83886080	49	6550
2026-01-11 09:03:15.86	120.68	15.17	-39.2	-44.0	12.9	2.52e-03	0	53	0	85983232	49	6471
2026-01-11 09:03:16.87	120.57	15.27	-38.8	-43.6	13.2	3.54e-03	0	53	0	88080384	48	6570
2026-01-11 09:03:17.88	120.47	15.36	-39.3	-43.6	12.8	9.55e-03	0	54	0	90177536	49	6168
2026-01-11 09:03:18.89	120.37	15.46	-39.9	-43.8	13.4	3.94e-02	0	54	0	91226112	42	9459
2026-01-11 09:03:19.90	120.26	15.56	-38.5	-43.7	13.2	1.78e-03	0	54	0	93323264	48	6588
2026-01-11 09:03:20.91	120.15	15.65	-40.6	-44.5	13.3	1.37e-03	0	54	0	95420416	51	6115
2026-01-11 09:03:21.92	120.05	15.75	-39.7	-44.0	13.3	2.54e-03	0	54	0	97517568	50	6072
2026-01-11 09:03:22.93	119.94	15.85	-40.2	-43.8	13.5	1.25e-02	0	54	0	99614720	50	5968
2026-01-11 09:03:23.94	119.83	15.95	-40.3	-43.8	13.7	1.03e-03	0	54	0	101711872	51	5608
2026-01-11 09:03:24.95	119.72	16.04	-39.5	-43.3	14.2	1.45e-03	0	54	0	102760448	50	5622
2026-01-11 09:03:25.96	119.61	16.14	-39.6	-42.9	14.4	6.13e-04	0	54	0	104857600	50	5401
2026-01-11 09:03:26.97	119.50	16.24	-39.5	-42.8	14.7	2.81e-04	0	54	0	106954752	50	5327
2026-01-11 09:03:27.98	119.39	16.34	-39.8	-42.8	14.6	4.73e-04	0	54	0	109051904	50	5338
2026-01-11 09:03:28.99	119.28	16.44	-40.1	-43.2	14.3	3.70e-04	0	54	0	111149056	51	5236
2026-01-11 09:03:29.99	119.17	16.54	-40.4	-43.5	13.7	1.13e-04	0	54	0	112197632	50	5757
2026-01-11 09:03:31.01	119.05	16.64	-40.5	-43.7	13.9	8.72e-04	0	54	0	114294784	51	5585
2026-01-11 09:03:32.01	118.94	16.74	-40.6	-43.8	13.8	5.48e-04	0	54	0	116391936	51	5602
2026-01-11 09:03:33.02	118.82	16.84	-40.6	-43.8	13.8	5.95e-05	0	54	0	118489088	51	5613
2026-01-11 09:03:34.03	118.71	16.94	-40.0	-43.4	14.2	4.57e-05	0	54	0	120586240	51	5388
2026-01-11 09:03:35.04	118.59	17.04	-39.8	-43.1	14.6	8.16e-05	0	54	0	121634816	51	5177
2026-01-11 09:03:36.05	118.47	17.15	-39.9	-42.9	14.7	8.30e-06	0	54	0	123731968	51	5097
2026-01-11 09:03:37.06	118.36	17.25	-40.4	-43.3	14.4	1.78e-04	0	54	0	125829120	51	5319
2026-01-11 09:03:38.07	118.24	17.35	-40.4	-43.6	14.2	3.20e-05	0	54	0	127926272	51	5470
2026-01-11 09:03:39.08	118.12	17.45	-40.9	-44.1	13.5	5.30e-06	0	54	0	130023424	52	5511
2026-01-11 09:03:40.09	118.00	17.56	-41.0	-44.3	13.4	1.37e-05	0	54	0	131072000	52	5596
2026-01-11 09:03:41.10	117.88	17.66	-41.1	-44.6	13.1	1.83e-05	0	54	0	133169152	52	5802
2026-01-11 09:03:42.11	117.75	17.76	-40.9	-44.1	13.6	1.37e-05	0	54	0	135266304	52	5488
2026-01-11 09:03:43.12	117.63	17.87	-40.5	-43.5	14.1	1.50e-06	0	54	0	137363456	52	5141
2026-01-11 09:03:44.13	117.51	17.97	-40.1	-42.8	14.8	0.00e+00	0	54	0	139460608	52	4753
2026-01-11 09:03:45.14	117.38	18.07	-40.2	-43.0	14.7	0.00e+00	0	54	0	140509184	52	4817
2026-01-11 09:03:46.15	117.25	18.18	-40.3	-43.0	14.7	7.00e-07	0	54	0	142606336	51	5108
2026-01-11 09:03:47.16	117.13	18.28	-40.5	-43.2	14.6	0.00e+00	0	54	0	144703488	51	5271
2026-01-11 09:03:48.17	117.00	18.39	-40.6	-43.5	14.3	7.00e-07	0	54	0	146800640	51	5447
2026-01-11 09:03:49.18	116.87	18.49	-40.8	-43.9	13.8	3.00e-06	0	54	0	148897792	52	5354
2026-01-11 09:03:50.19	116.74	18.60	-40.6	-43.5	14.3	7.00e-07	0	54	0	149946368	52	5132
2026-01-11 09:03:51.20	116.61	18.71	-40.6	-43.5	14.2	7.00e-07	0	54	0	152043520	52	5155
2026-01-11 09:03:52.21	116.48	18.81	-40.5	-43.4	14.4	1.50e-06	0	54	0	154140672	52	5059
2026-01-11 09:03:53.22	116.35	18.92	-40.5	-43.4	14.4	0.00e+00	0	54	0	156237824	52	5083
2026-01-11 09:03:54.23	116.22	19.03	-40.6	-43.9	14.0	3.00e-06	0	54	0	158334976	52	5352
2026-01-11 09:03:55.24	116.08	19.13	-40.9	-44.3	13.5	3.00e-06	0	54	0	159383552	52	5619
2026-01-11 09:03:56.25	115.95	19.24	-41.2	-44.5	13.2	1.60e-05	0	54	0	161480704	52	5783
2026-01-11 09:03:57.26	115.81	19.35	-41.2	-44.7	12.9	1.29e-05	0	54	0	163577856	53	5558
2026-01-11 09:03:58.27	115.67	19.46	-41.1	-44.3	13.5	9.10e-06	0	54	0	165675008	53	5313
2026-01-11 09:03:59.28	115.54	19.57	-40.9	-44.1	13.7	2.59e-05	0	54	0	167772160	52	5487
2026-01-11 09:04:00.29	115.40	19.68	-41.1	-44.3	13.5	2.28e-05	0	54	0	169869312	53	5300
2026-01-11 09:04:01.30	115.26	19.79	-41.1	-44.4	13.4	1.29e-05	0	54	0	170917888	53	5386
2026-01-11 09:04:02.31	115.12	19.89	-40.9	-45.0	12.8	1.67e-05	0	54	0	173015040	52	6108
2026-01-11 09:04:03.32	114.97	20.00	-41.3	-44.9	12.9	9.46e-05	0	54	0	175112192	53	5670
2026-01-11 09:04:04.33	114.83	20.11	-41.1	-44.4	13.4	2.28e-05	0	54	0	177209344	53	5370
2026-01-11 09:04:05.34	114.69	20.23	-41.0	-44.4	13.4	5.03e-05	0	54	0	179306496	52	5671
2026-01-11 09:04:06.35	114.54	20.34	-41.1	-44.3	13.5	6.10e-06	0	54	0	180355072	52	5634
2026-01-11 09:04:07.36	114.39	20.45	-41.1	-44.4	13.5	1.22e-05	0	54	0	182452224	52	5665
2026-01-11 09:04:08.37	114.25	20.56	-41.1	-44.4	13.4	1.90e-05	0	54	0	184549376	53	5365
2026-01-11 09:04:09.38	114.10	20.67	-41.1	-44.3	13.5	1.37e-05	0	54	0	186646528	53	5338
2026-01-11 09:04:10.39	113.95	20.78	-41.5	-45.1	12.7	6.80e-06	0	54	0	188743680	53	5848
2026-01-11 09:04:11.40	113.80	20.89	-41.1	-44.3	13.5	6.10e-06	0	54	0	189792256	53	5306
2026-01-11 09:04:12.41	113.65	21.01	-41.0	-44.2	13.6	1.06e-05	0	54	0	191889408	53	5230
2026-01-11 09:04:13.42	113.49	21.12	-41.1	-44.2	13.6	2.51e-05	0	54	0	193986560	53	5276
2026-01-11 09:04:14.43	113.34	21.23	-41.1	-44.3	13.6	6.80e-06	0	54	0	196083712	53	5281
2026-01-11 09:04:15.44	113.18	21.34	-41.1	-44.3	13.5	1.14e-05	0	54	0	198180864	53	5324
2026-01-11 09:04:16.45	113.03	21.46	-41.0	-44.1	13.8	2.13e-05	0	54	0	199229440	53	5188
2026-01-11 09:04:17.46	112.87	21.57	-40.9	-43.9	14.0	1.50e-06	0	54	0	201326592	53	5048
2026-01-11 09:04:18.47	112.71	21.69	-41.1	-44.2	13.6	0.00e+00	0	54	0	203423744	53	5256
2026-01-11 09:04:19.48	112.55	21.80	-40.6	-43.4	14.4	7.00e-07	0	54	0	205520896	52	5071
2026-01-11 09:04:20.49	112.39	21.92	-40.6	-43.5	14.5	0.00e+00	0	55	0	207618048	52	5101
2026-01-11 09:04:21.50	112.23	22.03	-40.8	-43.7	14.2	4.50e-06	0	54	0	208666624	52	5241
2026-01-11 09:04:22.51	112.07	22.15	-41.0	-44.1	13.8	3.80e-06	0	54	0	210763776	52	5517
2026-01-11 09:04:23.52	111.90	22.26	-40.8	-43.7	14.1	3.00e-06	0	55	0	212860928	52	5270
2026-01-11 09:04:24.53	111.73	22.38	-40.5	-43.2	14.7	2.20e-06	0	55	0	214958080	52	4972
2026-01-11 09:04:25.54	111.57	22.49	-40.3	-42.9	15.1	7.00e-07	0	55	0	217055232	52	4760
2026-01-11 09:04:26.55	111.40	22.61	-35.1	-42.6	13.9	1.06e-02	0	55	0	218103808	41	8665
2026-01-11 09:04:27.56	111.23	22.73	-34.9	-42.9	13.8	1.68e-02	0	55	0	220200960	41	9022
2026-01-11 09:04:28.56	111.06	22.84	-32.5	-43.2	13.2	1.81e-02	0	55	0	222298112	37	11712
2026-01-11 09:04:29.57	110.89	22.96	-29.0	-42.6	13.1	1.87e-02	0	55	0	224395264	30	16387
2026-01-11 09:04:30.58	110.71	23.08	-29.2	-42.3	13.3	2.27e-02	0	54	0	226492416	29	16783
2026-01-11 09:04:31.59	110.54	23.19	-29.3	-41.9	13.5	3.11e-02	0	55	0	227540992	27	18067
2026-01-11 09:04:32.60	110.36	23.31	-29.4	-42.0	13.6	2.70e-02	0	55	0	229638144	31	14389
2026-01-11 09:04:33.61	110.18	23.43	-32.0	-42.4	13.2	3.53e-02	0	54	0	231735296	33	13491
2026-01-11 09:04:34.62	110.01	23.55	-33.9	-43.4	13.3	1.74e-02	0	55	0	233832448	37	12031
2026-01-11 09:04:35.63	109.83	23.67	-30.6	-43.2	12.9	1.84e-02	0	55	0	235929600	34	13963
2026-01-11 09:04:36.64	109.64	23.78	-29.6	-43.2	12.5	1.90e-02	0	55	0	238026752	32	15739
2026-01-11 09:04:37.65	109.46	23.90	-40.0	-43.4	13.2	2.27e-02	0	55	0	239075328	32	16092
2026-01-11 09:04:38.66	109.28	24.02	-40.9	-43.9	14.0	3.80e-06	0	55	0	241172480	52	5371
2026-01-11 09:04:39.67	109.09	24.14	-41.4	-44.7	13.3	6.80e-06	0	55	0	243269632	53	5546
2026-01-11 09:04:40.68	108.90	24.26	-41.5	-45.0	12.9	2.51e-05	0	55	0	245366784	53	5786
2026-01-11 09:04:41.69	108.71	24.38	-41.7	-45.4	12.6	9.23e-05	0	55	0	247463936	54	5687
2026-01-11 09:04:42.70	108.52	24.50	-41.5	-45.0	12.9	8.16e-05	0	55	0	248512512	54	5452
2026-01-11 09:04:43.71	108.33	24.62	-41.5	-45.0	13.0	5.03e-05	0	54	0	250609664	54	5413
2026-01-11 09:04:44.72	108.14	24.74	-41.7	-45.2	12.7	3.28e-05	0	55	0	252706816	54	5592
2026-01-11 09:04:45.73	107.94	24.86	-41.8	-45.4	12.5	1.25e-04	0	55	0	254803968	54	5703
2026-01-11 09:04:46.74	107.75	24.98	-40.8	-45.4	12.3	1.28e-02	0	55	0	256901120	53	6008
2026-01-11 09:04:47.75	107.55	25.10	-40.7	-45.8	11.8	1.29e-02	0	55	0	257949696	53	6346
2026-01-11 09:04:48.76	107.35	25.23	-40.9	-45.7	11.9	1.31e-02	0	55	0	260046848	52	6597
2026-01-11 09:04:49.77	107.15	25.35	-40.1	-45.5	12.1	1.32e-02	0	55	0	262144000	52	6452
2026-01-11 09:04:50.78	106.95	25.47	-40.7	-45.7	11.9	1.33e-02	0	55	0	264241152	51	7010
2026-01-11 09:04:51.79	106.74	25.59	-40.3	-45.2	12.4	1.33e-02	0	55	0	266338304	52	6220
2026-01-11 09:04:52.80	106.54	25.71	-39.9	-45.1	12.5	1.33e-02	0	55	0	267386880	51	6502
2026-01-11 09:04:53.81	106.33	25.83	-39.8	-45.1	12.4	1.35e-02	0	55	0	269484032	51	6556
2026-01-11 09:04:54.81	106.12	25.95	-39.7	-45.4	12.2	1.37e-02	0	55	0	271581184	51	6776
2026-01-11 09:04:55.82	105.91	26.08	-40.0	-45.5	12.1	1.38e-02	0	55	0	273678336	51	6843
2026-01-11 09:04:56.83	105.70	26.20	-40.9	-45.7	11.8	1.36e-02	0	55	0	275775488	52	6603
2026-01-11 09:04:57.85	105.48	26.32	-41.1	-45.2	12.5	1.32e-02	0	55	0	276824064	53	5864
2026-01-11 09:04:58.85	105.27	26.44	-40.6	-44.7	12.9	1.27e-02	0	55	0	278921216	53	5591
2026-01-11 09:04:59.86	105.05	26.57	-39.4	-44.3	13.1	1.34e-02	0	55	0	281018368	50	6335
2026-01-11 09:05:00.87	104.83	26.69	-38.6	-44.2	13.2	1.40e-02	0	55	0	283115520	48	6991
2026-01-11 09:05:01.88	104.61	26.81	-38.5	-44.1	13.3	1.40e-02	0	55	0	285212672	49	6504
2026-01-11 09:05:02.89	104.39	26.94	-39.3	-44.8	12.8	1.35e-02	0	55	0	286261248	50	6663
2026-01-11 09:05:03.91	104.17	27.06	-41.4	-44.6	13.4	1.90e-05	0	55	0	288358400	53	5528
2026-01-11 09:05:04.91	103.94	27.18	-41.6	-45.1	12.9	1.83e-05	0	55	0	290455552	53	5823
2026-01-11 09:05:05.92	103.71	27.31	-41.6	-45.0	13.0	2.97e-05	0	55	0	292552704	53	5769
2026-01-11 09:05:06.93	103.49	27.43	-41.5	-44.8	13.2	2.67e-05	0	55	0	294649856	53	5654
2026-01-11 09:05:07.94	103.25	27.55	-41.5	-44.9	13.1	2.51e-05	0	55	0	295698432	53	5709
2026-01-11 09:05:08.95	103.02	27.68	-41.5	-44.9	13.1	2.28e-05	0	55	0	297795584	54	5349
2026-01-11 09:05:09.96	102.79	27.80	-41.6	-45.0	13.0	4.34e-05	0	55	0	299892736	54	5440
2026-01-11 09:05:10.97	102.55	27.92	-41.7	-45.2	12.9	6.56e-05	0	55	0	301989888	54	5542
2026-01-11 09:05:11.98	102.31	28.05	-41.6	-45.1	13.0	2.89e-05	0	55	0	304087040	54	5481
2026-01-11 09:05:12.99	102.07	28.17	-41.5	-44.9	13.2	3.12e-05	0	55	0	306184192	54	5360
2026-01-11 09:05:14.00	101.83	28.29	-41.7	-45.2	12.9	3.89e-05	0	55	0	307232768	54	5576
2026-01-11 09:05:15.01	101.59	28.41	-41.9	-45.7	12.4	4.65e-05	0	55	0	309329920	54	5880
2026-01-11 09:05:16.02	101.34	28.54	-41.6	-45.1	13.0	4.65e-05	0	55	0	311427072	54	5468
2026-01-11 09:05:17.03	101.09	28.66	-41.4	-44.8	13.3	5.72e-05	0	55	0	313524224	54	5293
2026-01-11 09:05:18.04	100.84	28.78	-41.5	-44.9	13.1	1.14e-04	0	55	0	315621376	54	5378
2026-01-11 09:05:19.05	100.59	28.91	-41.6	-45.3	12.7	2.40e-04	0	55	0	316669952	54	5622
2026-01-11 09:05:20.06	100.34	29.03	-41.7	-45.6	12.3	7.92e-04	0	55	0	318767104	54	5793
2026-01-11 09:05:21.07	100.08	29.15	-41.6	-45.3	12.6	1.77e-03	0	55	0	320864256	54	5622
2026-01-11 09:05:22.08	99.82	29.28	-41.4	-44.9	12.9	1.95e-03	0	55	0	322961408	54	5355
2026-01-11 09:05:23.09	99.56	29.40	-41.5	-45.2	12.7	2.27e-03	0	55	0	325058560	54	5535
2026-01-11 09:05:24.09	99.31	29.52	-41.6	-45.3	12.6	1.84e-03	0	55	0	326107136	54	5625
2026-01-11 09:05:25.10	99.04	29.64	-41.8	-45.7	12.2	1.79e-03	0	55	0	328204288	54	5887
2026-01-11 09:05:26.11	98.78	29.76	-41.7	-45.4	12.5	1.40e-03	0	55	0	330301440	54	5718
2026-01-11 09:05:27.12	98.51	29.89	-41.5	-45.1	12.8	1.27e-03	0	55	0	332398592	54	5466
2026-01-11 09:05:28.13	98.24	30.01	-41.3	-44.6	13.3	7.24e-04	0	55	0	334495744	54	5210
2026-01-11 09:05:29.14	97.97	30.13	-41.5	-45.0	13.0	3.20e-04	0	55	0	335544320	54	5437
2026-01-11 09:05:30.15	97.69	30.25	-41.7	-45.3	12.7	2.05e-04	0	55	0	337641472	54	5634
2026-01-11 09:05:31.16	97.42	30.37	-41.7	-45.3	12.8	9.30e-05	0	55	0	339738624	54	5652
2026-01-11 09:05:32.17	97.14	30.49	-41.8	-45.4	12.7	7.62e-05	0	55	0	341835776	54	5708
2026-01-11 09:05:33.18	96.86	30.61	-41.8	-45.4	12.7	7.47e-05	0	55	0	343932928	54	5697
2026-01-11 09:05:34.19	96.58	30.73	-42.2	-46.1	11.9	3.50e-04	0	55	0	344981504	55	5841
2026-01-11 09:05:35.20	96.30	30.85	-42.2	-46.3	11.8	5.62e-04	0	55	0	347078656	55	5942
2026-01-11 09:05:36.21	96.01	30.97	-42.6	-47.0	11.1	8.51e-04	0	55	0	349175808	55	6434
2026-01-11 09:05:37.22	95.72	31.09	-42.5	-46.9	11.1	7.79e-04	0	55	0	351272960	55	6357
2026-01-11 09:05:38.23	95.43	31.21	-42.9	-47.5	10.5	2.75e-03	0	55	0	353370112	56	6491
2026-01-11 09:05:39.24	95.14	31.33	-43.1	-48.0	10.2	7.10e-03	0	55	0	354418688	56	6851
2026-01-11 09:05:40.25	94.84	31.45	-43.1	-48.1	10.1	9.32e-03	0	55	0	356515840	57	6498
2026-01-11 09:05:41.26	94.55	31.57	-43.2	-48.3	9.9	9.17e-03	0	55	0	358612992	57	6660
2026-01-11 09:05:42.27	94.25	31.69	-43.0	-47.8	10.3	6.01e-03	0	55	0	360710144	57	6281
2026-01-11 09:05:43.28	93.95	31.80	-42.9	-47.5	10.7	2.57e-03	0	55	0	362807296	57	6063
2026-01-11 09:05:44.28	93.64	31.92	-42.6	-46.9	11.3	1.53e-03	0	55	0	363855872	57	5687
2026-01-11 09:05:45.29	93.34	32.04	-42.7	-47.0	11.2	1.09e-03	0	55	0	365953024	57	5742
2026-01-11 09:05:46.30	93.03	32.15	-42.4	-46.2	11.9	6.77e-04	0	55	0	368050176	56	5574
2026-01-11 09:05:47.31	92.72	32.27	-42.3	-46.2	12.1	3.00e-04	0	55	0	370147328	56	5551
2026-01-11 09:05:48.32	92.41	32.38	-42.6	-46.7	11.5	7.19e-04	0	55	0	372244480	56	5889
2026-01-11 09:05:49.33	92.09	32.50	-43.0	-47.6	10.6	1.28e-03	0	55	0	374341632	56	6537
2026-01-11 09:05:50.34	91.78	32.61	-43.4	-48.8	9.4	6.74e-03	0	55	0	375390208	57	7069
2026-01-11 09:05:51.35	91.46	32.72	-43.4	-48.9	9.2	1.58e-02	0	55	0	377487360	57	7148
2026-01-11 09:05:52.36	91.14	32.84	-43.4	-48.8	9.3	1.83e-02	0	55	0	379584512	57	7079
2026-01-11 09:05:53.37	90.81	32.95	-43.4	-48.9	9.2	1.44e-02	0	55	0	381681664	57	7138
2026-01-11 09:05:54.38	90.49	33.06	-43.5	-49.2	8.9	1.41e-02	0	55	0	383778816	57	7448
2026-01-11 09:05:55.39	90.16	33.17	-43.1	-48.0	10.1	8.47e-03	0	55	0	384827392	57	6489
2026-01-11 09:05:56.40	89.83	33.28	-42.6	-47.6	10.4	4.57e-03	0	55	0	386924544	57	6164
2026-01-11 09:05:57.41	89.50	33.39	-42.4	-47.1	11.0	2.29e-03	0	55	0	389021696	56	6161
2026-01-11 09:05:58.42	89.16	33.50	-42.5	-47.4	10.6	1.99e-03	0	55	0	391118848	56	6378
2026-01-11 09:05:59.43	88.83	33.60	-42.8	-48.3	9.7	6.49e-03	0	55	0	393216000	56	7108
2026-01-11 09:06:00.44	88.49	33.71	-43.1	-49.3	8.7	9.04e-03	0	55	0	394264576	56	7966
2026-01-11 09:06:01.45	88.15	33.82	-43.3	-50.1	7.9	5.05e-02	0	55	0	396361728	57	8269
2026-01-11 09:06:02.46	87.80	33.92	-43.1	-49.2	8.8	4.13e-02	0	55	0	398458880	57	7433
2026-01-11 09:06:03.46	87.46	34.03	-43.2	-49.5	8.4	3.55e-02	0	55	0	400556032	57	7680
2026-01-11 09:06:04.47	87.11	34.13	-42.8	-48.2	9.8	2.28e-02	0	55	0	402653184	57	6643
2026-01-11 09:06:05.48	86.76	34.23	-42.5	-47.6	10.5	5.61e-03	0	55	0	403701760	57	6147
2026-01-11 09:06:06.49	86.41	34.34	-42.6	-47.9	10.2	5.92e-03	0	55	0	405798912	57	6397
2026-01-11 09:06:07.50	86.05	34.44	-42.6	-47.8	10.5	4.57e-03	0	55	0	407896064	56	6683
2026-01-11 09:06:08.52	85.69	34.54	-42.4	-47.3	10.8	2.01e-03	0	55	0	409993216	56	6288
2026-01-11 09:06:09.53	85.33	34.64	-42.5	-47.4	10.6	2.60e-03	0	55	0	412090368	56	6419
2026-01-11 09:06:10.53	84.98	34.74	-42.6	-47.7	10.4	2.85e-03	0	55	0	413138944	56	6592
2026-01-11 09:06:11.54	84.61	34.83	-42.5	-47.6	10.5	3.00e-03	0	55	0	415236096	56	6520
2026-01-11 09:06:12.55	84.25	34.93	-42.2	-46.7	11.3	2.36e-03	0	55	0	417333248	56	5919
2026-01-11 09:06:13.56	83.88	35.02	-41.9	-46.3	11.7	4.62e-04	0	56	0	419430400	55	5925
2026-01-11 09:06:14.57	83.51	35.12	-41.8	-45.9	12.0	3.29e-04	0	55	0	421527552	55	5666
2026-01-11 09:06:15.58	83.14	35.21	-41.8	-46.0	11.9	1.94e-04	0	55	0	422576128	55	5738
2026-01-11 09:06:16.59	82.76	35.30	-41.9	-46.4	11.5	3.34e-04	0	55	0	424673280	55	6021
2026-01-11 09:06:17.60	82.39	35.39	-41.8	-46.3	11.6	5.36e-04	0	55	0	426770432	55	5932
2026-01-11 09:06:18.61	82.01	35.48	-41.8	-46.3	11.6	6.35e-04	0	55	0	428867584	55	5949
2026-01-11 09:06:19.62	81.63	35.57	-41.6	-45.7	12.2	4.63e-04	0	55	0	430964736	55	5574
2026-01-11 09:06:20.63	81.25	35.66	-41.6	-45.6	12.3	1.72e-04	0	55	0	432013312	55	5503
2026-01-11 09:06:21.63	80.87	35.75	-41.2	-44.9	13.1	3.20e-05	0	55	0	434110464	54	5391
2026-01-11 09:06:22.64	80.48	35.83	-41.4	-45.2	12.8	2.51e-05	0	55	0	436207616	54	5566
2026-01-11 09:06:23.65	80.09	35.91	-41.3	-45.1	12.9	9.38e-05	0	55	0	438304768	54	5514
2026-01-11 09:06:24.66	79.70	36.00	-41.2	-44.9	13.2	3.73e-05	0	55	0	440401920	54	5348
2026-01-11 09:06:25.67	79.31	36.08	-41.0	-44.5	13.6	1.52e-05	0	55	0	441450496	54	5115
2026-01-11 09:06:26.68	78.91	36.16	-40.9	-44.2	13.8	4.50e-06	0	55	0	443547648	53	5271
2026-01-11 09:06:27.69	78.52	36.24	-40.8	-44.0	14.0	1.50e-06	0	55	0	445644800	53	5147
2026-01-11 09:06:28.70	78.12	36.31	-40.5	-43.6	14.5	1.50e-06	0	55	0	447741952	52	5178
2026-01-11 09:06:29.71	77.72	36.39	-40.3	-43.2	14.9	0.00e+00	0	55	0	449839104	51	5258
2026-01-11 09:06:30.72	77.32	36.46	-40.1	-42.9	15.2	0.00e+00	0	55	0	450887680	51	5083
2026-01-11 09:06:31.73	76.91	36.53	-40.1	-42.8	15.3	0.00e+00	0	55	0	452984832	51	5026
2026-01-11 09:06:32.74	76.51	36.61	-40.3	-43.3	14.8	0.00e+00	0	55	0	455081984	51	5280
2026-01-11 09:06:33.75	76.10	36.67	-40.4	-43.4	14.7	7.00e-07	0	55	0	457179136	51	5390
2026-01-11 09:06:34.76	75.69	36.74	-40.6	-43.7	14.4	7.00e-07	0	55	0	459276288	51	5579
2026-01-11 09:06:35.77	75.28	36.81	-40.6	-43.8	14.4	0.00e+00	0	55	0	460324864	51	5597
2026-01-11 09:06:36.78	74.87	36.87	-40.5	-43.6	14.4	2.20e-06	0	55	0	462422016	52	5207
2026-01-11 09:06:37.78	74.46	36.94	-40.1	-42.9	15.1	7.00e-07	0	55	0	464519168	52	4767
2026-01-11 09:06:38.79	74.04	37.00	-39.9	-42.5	15.7	0.00e+00	0	55	0	466616320	51	4825
2026-01-11 09:06:39.80	73.62	37.06	-39.6	-42.0	16.1	0.00e+00	0	55	0	468713472	51	4587
2026-01-11 09:06:40.81	73.21	37.12	-39.4	-41.6	16.5	0.00e+00	0	55	0	470810624	50	4651
2026-01-11 09:06:41.82	72.79	37.18	-39.4	-41.8	16.4	0.00e+00	0	55	0	471859200	50	4724
2026-01-11 09:06:42.83	72.36	37.23	-39.6	-42.0	16.1	0.00e+00	0	55	0	473956352	50	4868
2026-01-11 09:06:43.84	71.94	37.28	-39.5	-41.9	16.3	0.00e+00	0	56	0	476053504	50	4768
2026-01-11 09:06:44.85	71.52	37.34	-39.6	-42.0	16.2	0.00e+00	0	55	0	478150656	50	4865
2026-01-11 09:06:45.86	71.09	37.39	-39.9	-42.4	15.8	0.00e+00	0	56	0	480247808	50	5064
2026-01-11 09:06:46.87	70.66	37.43	-40.3	-43.0	15.2	0.00e+00	0	55	0	481296384	51	5144
2026-01-11 09:06:47.88	70.24	37.48	-40.5	-43.3	14.9	0.00e+00	0	55	0	483393536	51	5324
2026-01-11 09:06:48.89	69.81	37.53	-40.6	-43.4	14.8	7.00e-07	0	56	0	485490688	51	5390
2026-01-11 09:06:49.90	69.38	37.57	-40.2	-42.9	15.3	0.00e+00	0	55	0	487587840	51	5066
2026-01-11 09:06:50.91	68.94	37.61	-40.1	-42.7	15.5	0.00e+00	0	55	0	489684992	51	4983
2026-01-11 09:06:51.92	68.51	37.65	-39.8	-42.3	15.9	0.00e+00	0	55	0	490733568	51	4714
2026-01-11 09:06:52.93	68.08	37.69	-39.5	-41.8	16.5	0.00e+00	0	55	0	492830720	50	4707
2026-01-11 09:06:53.94	67.64	37.72	-39.4	-41.7	16.6	0.00e+00	0	55	0	494927872	50	4655
2026-01-11 09:06:54.95	67.21	37.76	-39.3	-41.5	16.8	0.00e+00	0	56	0	497025024	50	4587
2026-01-11 09:06:55.96	66.77	37.79	-39.3	-41.5	16.6	0.00e+00	0	56	0	499122176	50	4592
2026-01-11 09:06:56.97	66.33	37.82	-39.7	-42.0	16.3	0.00e+00	0	56	0	500170752	50	4829
2026-01-11 09:06:57.98	65.90	37.85	-40.0	-42.5	15.7	0.00e+00	0	56	0	502267904	50	5140
2026-01-11 09:06:58.99	65.46	37.88	-40.1	-42.6	15.7	0.00e+00	0	56	0	504365056	51	4879
2026-01-11 09:07:00.00	65.02	37.90	-40.2	-42.8	15.5	0.00e+00	0	55	0	506462208	51	4984
2026-01-11 09:07:01.01	64.58	37.92	-40.3	-42.9	15.3	0.00e+00	0	55	0	508559360	51	5081
2026-01-11 09:07:02.02	64.14	37.94	-40.5	-43.3	15.0	0.00e+00	0	56	0	509607936	51	5280
2026-01-11 09:07:03.03	63.70	37.96	-40.5	-43.4	14.7	0.00e+00	0	56	0	511705088	52	5095
2026-01-11 09:07:04.04	63.25	37.98	-40.8	-43.8	14.4	1.50e-06	0	56	0	513802240	52	5310
2026-01-11 09:07:05.05	62.81	38.00	-41.3	-44.8	13.4	6.80e-06	0	55	0	515899392	53	5603
2026-01-11 09:07:06.06	62.37	38.01	-41.5	-45.3	12.8	3.89e-05	0	56	0	517996544	53	5938
2026-01-11 09:07:07.07	61.93	38.02	-41.5	-45.2	12.9	7.01e-05	0	56	0	519045120	54	5551
2026-01-11 09:07:08.07	61.49	38.03	-41.4	-45.0	13.1	3.12e-05	0	56	0	521142272	54	5448
2026-01-11 09:07:09.08	61.04	38.04	-41.3	-44.7	13.5	7.60e-06	0	55	0	523239424	54	5227
2026-01-11 09:07:10.09	60.60	38.04	-41.4	-44.9	13.2	1.98e-05	0	56	0	525336576	54	5378
2026-01-11 09:07:11.10	60.16	38.05	-41.4	-45.0	13.2	2.74e-05	0	55	0	527433728	54	5435
2026-01-11 09:07:12.11	59.71	38.05	-41.2	-44.6	13.6	1.75e-05	0	56	0	528482304	54	5173
2026-01-11 09:07:13.12	59.27	38.05	-41.2	-44.4	13.8	2.20e-06	0	56	0	530579456	54	5098
2026-01-11 09:07:14.13	58.82	38.04	-41.2	-44.5	13.8	5.30e-06	0	56	0	532676608	54	5157
2026-01-11 09:07:15.14	58.38	38.04	-40.9	-43.9	14.1	3.00e-06	0	55	0	534773760	53	5095
2026-01-11 09:07:16.15	57.94	38.03	-40.8	-43.8	14.3	7.00e-07	0	56	0	536870912	53	5022
2026-01-11 09:07:17.16	57.49	38.03	-40.9	-44.1	14.1	0.00e+00	0	56	0	538968064	53	5208
2026-01-11 09:07:18.17	57.05	38.02	-41.0	-44.1	14.1	0.00e+00	0	56	0	540016640	53	5208
2026-01-11 09:07:19.18	56.61	38.00	-40.9	-44.0	14.1	1.50e-06	0	55	0	542113792	53	5140
2026-01-11 09:07:20.19	56.17	37.99	-41.0	-44.3	13.9	2.20e-06	0	55	0	544210944	53	5293
2026-01-11 09:07:21.19	55.73	37.97	-41.4	-45.1	13.0	1.06e-05	0	55	0	546308096	53	5844
2026-01-11 09:07:22.20	55.29	37.95	-41.8	-45.9	12.2	6.48e-05	0	56	0	548405248	54	6029
2026-01-11 09:07:23.21	54.85	37.94	-42.2	-46.9	11.1	2.02e-03	0	56	0	549453824	55	6370
2026-01-11 09:07:24.22	54.41	37.91	-42.3	-47.1	10.9	2.34e-03	0	56	0	551550976	55	6509
2026-01-11 09:07:25.23	53.97	37.89	-41.9	-46.1	11.9	1.05e-03	0	55	0	553648128	55	5808
2026-01-11 09:07:26.24	53.53	37.86	-41.9	-46.1	12.0	2.98e-04	0	56	0	555745280	55	5826
2026-01-11 09:07:27.25	53.09	37.84	-41.9	-46.3	11.8	3.24e-04	0	56	0	557842432	55	5929
2026-01-11 09:07:28.26	52.65	37.81	-42.2	-46.8	11.2	5.35e-04	0	56	0	558891008	55	6339
2026-01-11 09:07:29.27	52.22	37.78	-42.1	-46.7	11.3	1.55e-03	0	56	0	560988160	55	6255
2026-01-11 09:07:30.28	51.78	37.74	-42.2	-47.0	10.9	1.83e-03	0	56	0	563085312	55	6493
2026-01-11 09:07:31.29	51.35	37.71	-42.2	-46.9	11.1	2.22e-03	0	56	0	565182464	55	6398
2026-01-11 09:07:32.30	50.91	37.67	-42.1	-46.7	11.3	1.60e-03	0	55	0	567279616	55	6258
2026-01-11 09:07:33.31	50.48	37.63	-42.1	-46.8	11.2	2.39e-03	0	55	0	568328192	55	6331
2026-01-11 09:07:34.32	50.05	37.59	-41.9	-46.2	11.9	1.55e-03	0	55	0	570425344	55	5865
2026-01-11 09:07:35.33	49.62	37.55	-41.8	-46.0	12.0	4.40e-04	0	56	0	572522496	55	5781
2026-01-11 09:07:36.34	49.19	37.51	-41.6	-45.8	12.1	1.17e-04	0	56	0	574619648	54	5948
2026-01-11 09:07:37.35	48.76	37.46	-41.5	-45.7	12.3	1.97e-04	0	56	0	576716800	54	5858
2026-01-11 09:07:38.36	48.33	37.41	-41.6	-45.9	12.1	1.59e-04	0	56	0	577765376	54	6030
2026-01-11 09:07:39.37	47.91	37.36	-41.7	-46.2	11.9	4.08e-04	0	56	0	579862528	54	6215
2026-01-11 09:07:40.38	47.48	37.31	-42.1	-47.0	11.0	1.14e-03	0	56	0	581959680	54	6833
2026-01-11 09:07:41.39	47.06	37.26	-42.7	-48.7	9.4	1.33e-02	0	56	0	584056832	56	7429
2026-01-11 09:07:42.39	46.64	37.21	-43.2	-50.6	7.5	6.83e-02	0	56	0	586153984	56	9229
2026-01-11 09:07:43.39	46.22	37.15	-43.0	-49.7	8.4	6.90e-02	0	56	0	587202560	56	8325
2026-01-11 09:07:44.40	45.81	37.09	-42.3	-47.3	10.7	7.14e-03	0	56	0	589299712	56	6318
2026-01-11 09:07:45.41	45.39	37.03	-42.1	-46.6	11.5	7.11e-04	0	56	0	591396864	56	5809
2026-01-11 09:07:46.42	44.97	36.97	-42.0	-46.6	11.4	4.08e-04	0	56	0	593494016	55	6148
2026-01-11 09:07:47.43	44.56	36.91	-41.5	-45.4	12.6	2.30e-04	0	56	0	595591168	54	5691
2026-01-11 09:07:48.44	44.15	36.85	-41.4	-45.3	12.8	5.79e-05	0	56	0	596639744	54	5595
2026-01-11 09:07:49.45	43.74	36.78	-41.3	-45.1	13.0	1.67e-05	0	55	0	598736896	54	5508
2026-01-11 09:07:50.46	43.33	36.71	-41.9	-46.4	11.6	1.68e-04	0	56	0	600834048	54	6364
2026-01-11 09:07:51.47	42.92	36.64	-41.9	-46.3	11.6	7.77e-04	0	56	0	602931200	54	6282
2026-01-11 09:07:52.48	42.51	36.57	-41.3	-44.8	13.2	5.56e-05	0	56	0	605028352	54	5336
2026-01-11 09:07:53.49	42.11	36.50	-40.9	-44.1	14.0	6.10e-06	0	56	0	607125504	53	5198
2026-01-11 09:07:54.49	41.71	36.43	-40.9	-44.0	14.2	0.00e+00	0	56	0	608174080	53	5141
2026-01-11 09:07:55.50	41.31	36.36	-40.8	-43.7	14.5	7.00e-07	0	56	0	610271232	53	4981
2026-01-11 09:07:56.51	40.91	36.28	-40.6	-43.5	14.7	7.00e-07	0	56	0	612368384	53	4823
2026-01-11 09:07:57.52	40.52	36.20	-40.7	-43.7	14.5	0.00e+00	0	56	0	614465536	53	4961
2026-01-11 09:07:58.53	40.12	36.12	-40.9	-44.2	14.0	3.00e-06	0	56	0	616562688	53	5245
2026-01-11 09:07:59.54	39.73	36.04	-40.8	-44.0	14.0	3.00e-06	0	56	0	617611264	53	5143
2026-01-11 09:08:00.55	39.34	35.96	-40.7	-43.9	14.2	0.00e+00	0	56	0	619708416	53	5090
2026-01-11 09:08:01.56	38.95	35.88	-41.1	-44.5	13.6	1.50e-06	0	56	0	621805568	53	5441
2026-01-11 09:08:02.57	38.56	35.80	-41.2	-44.7	13.5	7.60e-06	0	56	0	623902720	53	5537
2026-01-11 09:08:03.58	38.18	35.71	-41.1	-44.4	13.7	1.44e-05	0	56	0	625999872	53	5401
2026-01-11 09:08:04.59	37.80	35.62	-41.0	-44.2	14.0	4.50e-06	0	56	0	627048448	53	5241
2026-01-11 09:08:05.60	37.41	35.54	-41.0	-44.3	14.0	3.00e-06	0	56	0	629145600	53	5284
2026-01-11 09:08:06.61	37.04	35.45	-41.3	-44.9	13.3	6.10e-06	0	56	0	631242752	53	5708
2026-01-11 09:08:07.62	36.66	35.36	-41.9	-46.2	12.0	5.18e-05	0	56	0	633339904	54	6203
2026-01-11 09:08:08.63	36.29	35.27	-41.7	-45.8	12.4	2.09e-04	0	56	0	635437056	54	5937
2026-01-11 09:08:09.64	35.91	35.17	-41.6	-45.4	12.7	5.41e-05	0	56	0	636485632	54	5706
2026-01-11 09:08:10.65	35.54	35.08	-41.6	-45.4	12.8	6.10e-05	0	56	0	638582784	54	5690
2026-01-11 09:08:11.65	35.18	34.99	-41.7	-45.8	12.4	9.46e-05	0	56	0	640679936	54	5930
2026-01-11 09:08:12.67	34.81	34.89	-41.3	-44.8	13.4	4.27e-05	0	56	0	642777088	54	5293
2026-01-11 09:08:13.68	34.45	34.79	-40.8	-43.9	14.3	9.10e-06	0	56	0	644874240	53	5072
2026-01-11 09:08:14.69	34.08	34.70	-40.5	-43.5	14.7	0.00e+00	0	56	0	645922816	52	5121
2026-01-11 09:08:15.70	33.73	34.60	-41.0	-44.2	14.0	0.00e+00	0	56	0	648019968	52	5590
2026-01-11 09:08:16.71	33.37	34.50	-40.7	-43.7	14.4	7.00e-07	0	56	0	650117120	52	5253
2026-01-11 09:08:17.72	33.01	34.40	-40.5	-43.3	14.8	0.00e+00	0	56	0	652214272	52	5033
2026-01-11 09:08:18.73	32.66	34.30	-40.3	-43.1	15.1	0.00e+00	0	56	0	654311424	52	4898
2026-01-11 09:08:19.74	32.31	34.20	-41.1	-44.3	13.9	7.00e-07	0	56	0	655360000	52	5654
2026-01-11 09:08:20.75	31.96	34.09	-41.1	-44.3	13.7	3.00e-06	0	56	0	657457152	53	5333
2026-01-11 09:08:21.76	31.62	33.99	-40.7	-43.7	14.4	6.80e-06	0	56	0	659554304	53	4972
2026-01-11 09:08:22.77	31.27	33.88	-40.3	-42.9	15.3	0.00e+00	0	56	0	661651456	52	4808
2026-01-11 09:08:23.78	30.93	33.78	-40.6	-43.4	14.8	0.00e+00	0	56	0	663748608	52	5053
2026-01-11 09:08:24.79	30.59	33.67	-40.9	-44.0	14.2	0.00e+00	0	56	0	664797184	52	5446
2026-01-11 09:08:25.80	30.25	33.57	-41.4	-44.9	13.3	4.50e-06	0	56	0	666894336	53	5682
2026-01-11 09:08:26.81	29.92	33.46	-41.3	-44.6	13.6	2.51e-05	0	56	0	668991488	53	5495
2026-01-11 09:08:27.82	29.59	33.35	-41.5	-45.0	13.1	2.82e-05	0	56	0	671088640	53	5732
2026-01-11 09:08:28.83	29.26	33.24	-41.4	-44.9	13.4	2.28e-05	0	56	0	673185792	53	5659
2026-01-11 09:08:29.84	28.93	33.13	-41.2	-44.6	13.6	1.90e-05	0	56	0	675282944	53	5496
2026-01-11 09:08:30.84	28.61	33.02	-41.0	-44.2	14.0	3.00e-06	0	56	0	676331520	53	5247
2026-01-11 09:08:31.85	28.28	32.91	-40.9	-44.1	14.0	3.80e-06	0	56	0	678428672	53	5171
2026-01-11 09:08:32.86	27.96	32.80	-41.0	-44.3	13.9	2.20e-06	0	56	0	680525824	53	5284
2026-01-11 09:08:33.87	27.64	32.68	-41.5	-45.1	13.1	1.60e-05	0	56	0	682622976	53	5825
2026-01-11 09:08:34.88	27.33	32.57	-41.5	-45.2	13.0	3.05e-05	0	56	0	684720128	53	5870
2026-01-11 09:08:35.89	27.01	32.46	-41.7	-45.5	12.7	5.87e-05	0	56	0	685768704	53	6109
2026-01-11 09:08:36.90	26.70	32.34	-41.7	-45.5	12.7	6.79e-05	0	56	0	687865856	53	6084
2026-01-11 09:08:37.91	26.39	32.23	-41.9	-45.8	12.4	1.02e-04	0	56	0	689963008	54	5954
2026-01-11 09:08:38.92	26.08	32.11	-42.2	-46.6	11.6	3.89e-04	0	56	0	692060160	54	6542
2026-01-11 09:08:39.93	25.77	32.00	-42.8	-47.8	10.6	1.50e-03	0	56	0	694157312	56	6665
2026-01-11 09:08:40.94	25.47	31.88	-42.6	-47.2	11.2	2.11e-03	0	56	0	695205888	56	6263
2026-01-11 09:08:41.95	25.17	31.77	-42.3	-46.6	11.6	4.99e-04	0	56	0	697303040	56	5832
2026-01-11 09:08:42.96	24.87	31.65	-41.9	-45.7	12.4	2.18e-04	0	56	0	699400192	55	5581
2026-01-11 09:08:43.97	24.57	31.53	-42.1	-46.3	11.8	3.19e-04	0	56	0	701497344	55	5935
2026-01-11 09:08:44.98	24.28	31.41	-42.2	-46.6	11.5	8.96e-04	0	56	0	703594496	55	6164
2026-01-11 09:08:45.99	23.99	31.30	-42.3	-46.6	11.5	8.18e-04	0	56	0	704643072	55	6179
2026-01-11 09:08:47.01	23.69	31.18	-42.0	-45.9	12.2	4.26e-04	0	56	0	706740224	55	5719
2026-01-11 09:08:48.02	23.40	31.06	-41.8	-45.6	12.6	7.01e-05	0	56	0	708837376	55	5475
2026-01-11 09:08:49.03	23.12	30.94	-41.1	-44.2	13.9	6.80e-06	0	56	0	710934528	54	4975
2026-01-11 09:08:50.04	22.83	30.82	-40.9	-43.9	14.2	0.00e+00	0	56	0	713031680	53	5061
2026-01-11 09:08:51.05	22.55	30.70	-40.7	-43.6	14.5	7.00e-07	0	56	0	714080256	53	4916
2026-01-11 09:08:52.06	22.27	30.58	-40.6	-43.4	14.8	0.00e+00	0	56	0	716177408	53	4806
2026-01-11 09:08:53.07	21.99	30.46	-40.5	-43.3	14.9	0.00e+00	0	56	0	718274560	53	4716
2026-01-11 09:08:54.08	21.72	30.34	-40.4	-43.1	15.1	0.00e+00	0	56	0	720371712	52	4914
2026-01-11 09:08:55.09	21.44	30.22	-40.6	-43.4	14.8	0.00e+00	0	56	0	722468864	52	5093
2026-01-11 09:08:56.10	21.17	30.10	-40.8	-43.8	14.4	0.00e+00	0	56	0	723517440	52	5319
2026-01-11 09:08:57.11	20.90	29.98	-41.2	-44.4	13.9	2.20e-06	0	56	0	725614592	52	5681
2026-01-11 09:08:58.11	20.64	29.86	-41.5	-45.0	13.2	1.44e-05	0	56	0	727711744	53	5788
2026-01-11 09:08:59.12	20.37	29.73	-41.9	-45.7	12.5	6.86e-05	0	56	0	729808896	54	5917
2026-01-11 09:09:00.13	20.11	29.61	-42.3	-46.6	11.5	5.38e-04	0	56	0	731906048	55	6189
2026-01-11 09:09:01.14	19.85	29.49	-42.6	-47.3	10.7	1.86e-03	0	56	0	732954624	55	6706
2026-01-11 09:09:02.15	19.59	29.37	-42.4	-47.0	11.2	2.40e-03	0	56	0	735051776	55	6437
2026-01-11 09:09:03.16	19.33	29.25	-42.3	-46.8	11.4	1.57e-03	0	56	0	737148928	55	6295
2026-01-11 09:09:04.17	19.08	29.12	-41.8	-45.7	12.5	2.68e-04	0	56	0	739246080	55	5536
2026-01-11 09:09:05.18	18.82	29.00	-41.7	-45.5	12.6	1.42e-04	0	56	0	741343232	55	5440
2026-01-11 09:09:06.19	18.57	28.88	-41.6	-45.2	12.9	9.76e-05	0	56	0	743440384	55	5254
2026-01-11 09:09:07.20	18.32	28.76	-41.6	-45.3	12.8	6.63e-05	0	56	0	744488960	55	5316
2026-01-11 09:09:08.21	18.07	28.63	-41.7	-45.3	12.8	5.49e-05	0	56	0	746586112	55	5332
2026-01-11 09:09:09.22	17.83	28.51	-41.4	-45.0	13.2	4.04e-05	0	56	0	748683264	54	5407
2026-01-11 09:09:10.23	17.58	28.39	-41.1	-44.2	13.9	3.80e-06	0	56	0	750780416	54	4976
2026-01-11 09:09:11.24	17.34	28.27	-40.9	-44.0	14.2	2.20e-06	0	56	0	752877568	53	5110
2026-01-11 09:09:12.25	17.10	28.14	-40.9	-44.0	14.2	7.00e-07	0	56	0	753926144	53	5108
2026-01-11 09:09:13.26	16.86	28.02	-40.8	-43.8	14.4	7.00e-07	0	56	0	756023296	53	4993
2026-01-11 09:09:14.27	16.63	27.90	-40.5	-43.2	14.9	7.00e-07	0	56	0	758120448	52	4967
2026-01-11 09:09:15.28	16.39	27.77	-40.4	-43.1	15.1	0.00e+00	0	56	0	760217600	52	4894
2026-01-11 09:09:16.29	16.16	27.65	-40.4	-43.1	15.1	0.00e+00	0	56	0	762314752	52	4886
2026-01-11 09:09:17.30	15.93	27.53	-40.4	-43.2	15.0	7.00e-07	0	55	0	763363328	52	4940
2026-01-11 09:09:18.31	15.70	27.41	-40.5	-43.3	14.9	0.00e+00	0	56	0	765460480	52	4987
2026-01-11 09:09:19.31	15.48	27.29	-40.8	-43.8	14.3	7.00e-07	0	56	0	767557632	52	5334
2026-01-11 09:09:20.32	15.25	27.16	-41.2	-44.5	13.6	6.80e-06	0	56	0	769654784	53	5442
2026-01-11 09:09:21.34	15.02	27.04	-41.4	-44.9	13.3	1.22e-05	0	56	0	771751936	53	5677
2026-01-11 09:09:22.35	14.80	26.92	-41.4	-44.9	13.2	1.60e-05	0	56	0	772800512	53	5679
2026-01-11 09:09:23.36	14.58	26.79	-41.3	-44.7	13.4	9.10e-06	0	56	0	774897664	53	5562
2026-01-11 09:09:24.36	14.36	26.67	-41.4	-44.9	13.3	1.29e-05	0	56	0	776994816	53	5675
2026-01-11 09:09:25.37	14.15	26.55	-41.2	-44.4	13.7	1.22e-05	0	56	0	779091968	53	5392
2026-01-11 09:09:26.38	13.93	26.43	-41.2	-44.5	13.7	7.60e-06	0	56	0	781189120	53	5406
2026-01-11 09:09:27.39	13.72	26.31	-41.0	-44.2	14.0	3.80e-06	0	56	0	782237696	53	5248
2026-01-11 09:09:28.40	13.51	26.18	-40.8	-43.9	14.3	7.00e-07	0	56	0	784334848	53	5049
2026-01-11 09:09:29.41	13.30	26.06	-40.6	-43.5	14.6	1.50e-06	0	56	0	786432000	53	4861
2026-01-11 09:09:30.42	13.09	25.94	-40.9	-43.9	14.2	0.00e+00	0	56	0	788529152	53	5084
2026-01-11 09:09:31.43	12.88	25.82	-40.7	-43.6	14.6	1.50e-06	0	56	0	790626304	53	4881
2026-01-11 09:09:32.44	12.68	25.70	-40.7	-43.6	14.5	7.00e-07	0	56	0	791674880	53	4873
2026-01-11 09:09:33.45	12.47	25.58	-40.8	-43.8	14.3	7.00e-07	0	56	0	793772032	53	5014
2026-01-11 09:09:34.45	12.27	25.46	-40.9	-44.0	14.1	7.00e-07	0	56	0	795869184	53	5137
2026-01-11 09:09:35.46	12.07	25.34	-40.9	-44.0	14.1	2.20e-06	0	56	0	797966336	53	5157
2026-01-11 09:09:36.47	11.87	25.22	-40.9	-44.0	14.1	0.00e+00	0	56	0	800063488	53	5113
2026-01-11 09:09:37.48	11.67	25.10	-41.0	-44.2	14.0	5.30e-06	0	56	0	801112064	53	5228
2026-01-11 09:09:38.49	11.48	24.98	-41.0	-44.3	13.8	6.10e-06	0	56	0	803209216	53	5284
2026-01-11 09:09:39.50	11.28	24.86	-41.2	-44.6	13.5	1.37e-05	0	56	0	805306368	53	5486
2026-01-11 09:09:40.51	11.09	24.74	-41.3	-44.7	13.4	5.30e-06	0	56	0	807403520	53	5572
2026-01-11 09:09:41.52	10.90	24.62	-41.6	-45.3	12.7	3.66e-05	0	56	0	809500672	53	5974
2026-01-11 09:09:42.53	10.71	24.50	-41.6	-45.4	12.7	5.03e-05	0	56	0	811597824	53	6002
2026-01-11 09:09:43.54	10.52	24.38	-41.5	-45.2	12.8	4.57e-05	0	56	0	812646400	53	5887
2026-01-11 09:09:44.55	10.33	24.26	-41.8	-45.8	12.3	1.29e-04	0	56	0	814743552	54	5929
2026-01-11 09:09:45.56	10.15	24.14	-42.0	-46.0	12.1	2.88e-04	0	56	0	816840704	54	6131
2026-01-11 09:09:46.57	9.96	24.02	-41.7	-45.5	12.5	2.28e-04	0	56	0	818937856	54	5725
2026-01-11 09:09:47.58	9.78	23.90	-41.9	-45.9	12.2	1.56e-04	0	56	0	821035008	54	5997
2026-01-11 09:09:48.59	9.60	23.78	-41.9	-45.9	12.1	2.85e-04	0	56	0	822083584	54	6011
2026-01-11 09:09:49.60	9.42	23.66	-41.7	-45.5	12.6	9.00e-05	0	56	0	824180736	54	5769
2026-01-11 09:09:50.61	9.24	23.55	-41.7	-45.4	12.6	1.17e-04	0	56	0	826277888	54	5708
2026-01-11 09:09:51.61	9.06	23.43	-41.6	-45.3	12.7	6.10e-05	0	56	0	828375040	54	5609
2026-01-11 09:09:52.62	8.89	23.31	-41.3	-44.8	13.2	4.65e-05	0	56	0	830472192	54	5316
2026-01-11 09:09:53.63	8.71	23.20	-41.1	-44.3	13.7	2.13e-05	0	56	0	831520768	54	5025
2026-01-11 09:09:54.64	8.54	23.08	-41.0	-44.2	13.8	3.80e-06	0	56	0	833617920	53	5277
2026-01-11 09:09:55.65	8.37	22.96	-40.8	-43.8	14.3	2.20e-06	0	56	0	835715072	53	4991
2026-01-11 09:09:56.66	8.20	22.85	-40.7	-43.7	14.3	3.00e-06	0	56	0	837812224	53	4971
2026-01-11 09:09:57.67	8.03	22.73	-40.6	-43.5	14.6	7.00e-07	0	56	0	839909376	53	4815
2026-01-11 09:09:58.68	7.86	22.61	-40.8	-43.8	14.2	7.00e-07	0	56	0	840957952	53	4991
2026-01-11 09:09:59.69	7.69	22.50	-40.8	-43.8	14.2	7.00e-07	0	56	0	843055104	53	5041
2026-01-11 09:10:00.70	7.53	22.38	-41.1	-44.4	13.6	2.20e-06	0	56	0	845152256	53	5349
2026-01-11 09:10:01.71	7.36	22.27	-41.2	-44.6	13.4	9.10e-06	0	56	0	847249408	53	5487
2026-01-11 09:10:02.72	7.20	22.15	-41.1	-44.4	13.6	1.14e-05	0	56	0	849346560	53	5390
2026-01-11 09:10:03.73	7.04	22.04	-40.9	-44.0	14.0	9.90e-06	0	56	0	850395136	53	5116
2026-01-11 09:10:04.74	6.88	21.92	-40.6	-43.6	14.4	2.20e-06	0	56	0	852492288	53	4894
2026-01-11 09:10:05.75	6.72	21.81	-40.5	-43.3	14.6	7.00e-07	0	56	0	854589440	52	5039
2026-01-11 09:10:06.76	6.56	21.70	-40.4	-43.2	14.9	0.00e+00	0	56	0	856686592	52	4936
2026-01-11 09:10:07.77	6.40	21.58	-40.5	-43.4	14.5	0.00e+00	0	56	0	858783744	52	5092
2026-01-11 09:10:08.78	6.24	21.47	-40.7	-43.8	14.2	7.00e-07	0	56	0	859832320	52	5302
2026-01-11 09:10:09.79	6.09	21.36	-41.0	-44.2	13.8	3.00e-06	0	56	0	861929472	52	5538
2026-01-11 09:10:10.80	5.94	21.24	-41.3	-44.8	13.1	1.14e-05	0	56	0	864026624	53	5633
2026-01-11 09:10:11.81	5.78	21.13	-41.7	-45.6	12.3	1.46e-04	0	56	0	866123776	54	5798
2026-01-11 09:10:12.82	5.63	21.02	-42.1	-46.5	11.5	4.96e-04	0	56	0	868220928	54	6471
2026-01-11 09:10:13.83	5.48	20.91	-42.1	-46.5	11.4	6.32e-04	0	56	0	869269504	54	6480
2026-01-11 09:10:14.84	5.33	20.80	-42.2	-46.7	11.1	1.53e-03	0	56	0	871366656	55	6274
2026-01-11 09:10:15.85	5.18	20.69	-42.1	-46.5	11.4	9.05e-04	0	56	0	873463808	55	6068
2026-01-11 09:10:16.86	5.04	20.57	-42.0	-46.2	11.6	8.89e-04	0	56	0	875560960	55	5871
2026-01-11 09:10:17.87	4.89	20.46	-41.7	-45.6	12.2	2.88e-04	0	56	0	877658112	55	5516
2026-01-11 09:10:18.88	4.75	20.35	-41.8	-45.8	12.0	2.83e-04	0	56	0	879755264	55	5602
2026-01-11 09:10:19.89	4.60	20.24	-41.5	-45.3	12.5	1.01e-04	0	56	0	880803840	55	5315
2026-01-11 09:10:20.90	4.46	20.13	-41.6	-45.5	12.6	8.92e-05	0	56	0	882900992	54	5727
2026-01-11 09:10:21.91	4.32	20.02	-41.4	-45.1	12.8	1.07e-04	0	56	0	884998144	54	5468
2026-01-11 09:10:22.92	4.18	19.91	-41.3	-44.9	12.9	3.50e-05	0	56	0	887095296	54	5368
2026-01-11 09:10:23.93	4.04	19.81	-41.3	-44.8	13.0	4.42e-05	0	56	0	889192448	54	5300
2026-01-11 09:10:24.93	3.90	19.70	-41.2	-44.7	13.1	1.75e-05	0	56	0	890241024	54	5256
2026-01-11 09:10:25.94	3.76	19.59	-41.2	-44.8	13.0	4.04e-05	0	56	0	892338176	54	5289
2026-01-11 09:10:26.95	3.63	19.48	-41.3	-44.8	12.9	4.73e-05	0	56	0	894435328	54	5330
2026-01-11 09:10:27.96	3.49	19.37	-41.3	-45.0	12.7	7.78e-05	0	56	0	896532480	54	5433
2026-01-11 09:10:28.97	3.36	19.27	-41.4	-45.1	12.7	1.24e-04	0	56	0	898629632	54	5470
2026-01-11 09:10:29.98	3.22	19.16	-41.4	-45.1	12.7	7.40e-05	0	56	0	899678208	54	5468
2026-01-11 09:10:30.99	3.09	19.05	-41.2	-44.8	13.0	5.95e-05	0	56	0	901775360	54	5280
2026-01-11 09:10:32.00	2.96	18.95	-40.9	-44.3	13.4	2.05e-05	0	56	0	903872512	53	5306
2026-01-11 09:10:33.01	2.83	18.84	-40.7	-43.9	13.8	8.30e-06	0	56	0	905969664	53	5068
2026-01-11 09:10:34.02	2.70	18.73	-40.4	-43.4	14.3	0.00e+00	0	56	0	908066816	52	5090
2026-01-11 09:10:35.03	2.57	18.63	-40.3	-43.2	14.4	0.00e+00	0	56	0	909115392	52	4980
2026-01-11 09:10:36.04	2.44	18.52	-40.1	-42.8	14.8	0.00e+00	0	56	0	911212544	52	4754
2026-01-11 09:10:37.05	2.31	18.42	-40.2	-43.1	14.6	7.00e-07	0	56	0	913309696	52	4874
2026-01-11 09:10:38.06	2.19	18.31	-40.3	-43.3	14.3	2.20e-06	0	56	0	915406848	52	5016
2026-01-11 09:10:39.06	2.06	18.21	-40.5	-43.6	14.0	1.50e-06	0	56	0	917504000	52	5197
2026-01-11 09:10:40.07	1.94	18.11	-40.7	-43.9	13.7	3.00e-06	0	56	0	918552576	52	5373
2026-01-11 09:10:41.08	1.81	18.00	-40.9	-44.3	13.4	1.29e-05	0	56	0	920649728	52	5593
2026-01-11 09:10:42.09	1.69	17.90	-41.0	-44.4	13.2	3.12e-05	0	56	0	922746880	52	5720
2026-01-11 09:10:43.10	1.57	17.80	-41.0	-44.6	12.9	3.73e-05	0	56	0	924844032	52	5823
2026-01-11 09:10:44.11	1.45	17.69	-41.1	-44.8	12.8	5.79e-05	0	56	0	926941184	52	5962
2026-01-11 09:10:45.12	1.33	17.59	-41.0	-44.6	12.9	7.17e-05	0	56	0	927989760	52	5847
2026-01-11 09:10:46.13	1.21	17.49	-40.9	-44.4	13.1	5.18e-05	0	56	0	930086912	53	5375
2026-01-11 09:10:47.14	1.09	17.39	-40.9	-44.4	13.1	2.97e-05	0	56	0	932184064	53	5355
2026-01-11 09:10:48.15	0.97	17.28	-40.9	-44.3	13.1	2.13e-05	0	56	0	934281216	53	5336
2026-01-11 09:10:49.16	0.86	17.18	-40.8	-44.3	13.2	1.22e-05	0	56	0	936378368	53	5295
2026-01-11 09:10:50.17	0.74	17.08	-40.8	-44.3	13.2	2.59e-05	0	56	0	937426944	53	5291
2026-01-11 09:10:51.18	0.62	16.98	-40.9	-44.4	13.0	2.89e-05	0	56	0	939524096	53	5387
2026-01-11 09:10:52.18	0.51	16.88	-40.9	-44.4	12.9	4.88e-05	0	56	0	941621248	53	5397
2026-01-11 09:10:53.20	0.40	16.78	-41.0	-44.6	12.8	5.03e-05	0	56	0	943718400	53	5502
2026-01-11 09:10:54.21	0.28	16.68	-41.1	-44.8	12.6	1.14e-04	0	56	0	945815552	53	5628
2026-01-11 09:10:55.22	0.17	16.58	-41.1	-44.9	12.4	1.14e-04	0	56	0	947912704	53	5690
2026-01-11 09:10:56.23	0.06	16.48	-41.2	-45.0	12.4	2.01e-04	0	56	0	948961280	53	5744
2026-01-11 09:10:57.24	359.95	16.38	-41.2	-45.2	12.1	1.85e-04	0	56	0	951058432	53	5880
2026-01-11 09:10:58.25	359.84	16.28	-41.2	-45.2	12.1	2.54e-04	0	56	0	953155584	53	5880
2026-01-11 09:10:59.25	359.73	16.19	-41.3	-45.4	11.9	2.19e-04	0	56	0	955252736	53	6052
2026-01-11 09:11:00.26	359.62	16.09	-41.3	-45.4	11.9	3.47e-04	0	56	0	957349888	53	6045
2026-01-11 09:11:01.27	359.52	15.99	-41.4	-45.7	11.6	5.39e-04	0	56	0	958398464	53	6205
2026-01-11 09:11:02.28	359.41	15.89	-41.5	-45.9	11.3	9.70e-04	0	56	0	960495616	53	6413
2026-01-11 09:11:03.29	359.30	15.79	-41.6	-46.1	11.1	1.51e-03	0	56	0	962592768	53	6517
2026-01-11 09:11:04.30	359.20	15.70	-41.6	-46.2	10.9	1.78e-03	0	56	0	964689920	53	6590
2026-01-11 09:11:05.31	359.09	15.60	-41.6	-46.4	10.7	2.28e-03	0	56	0	965738496	53	6760
2026-01-11 09:11:06.32	358.99	15.50	-41.6	-46.5	10.6	3.73e-03	0	56	0	967835648	54	6427
2026-01-11 09:11:07.33	358.88	15.41	-41.6	-46.4	10.7	3.42e-03	0	56	0	969932800	54	6389
2026-01-11 09:11:08.34	358.78	15.31	-41.5	-46.2	10.7	2.88e-03	0	56	0	972029952	54	6274
2026-01-11 09:11:09.35	358.68	15.22	-41.5	-46.3	10.7	2.73e-03	0	56	0	974127104	54	6296
2026-01-11 09:11:10.36	358.58	15.12	-41.6	-46.5	10.3	4.12e-03	0	56	0	976224256	54	6485
2026-01-11 09:11:11.37	358.48	15.03	-41.2	-45.8	11.1	2.83e-03	0	56	0	977272832	54	5925
2026-01-11 09:11:12.38	358.38	14.93	-40.7	-44.8	12.0	9.45e-04	0	56	0	979369984	53	5634
2026-01-11 09:11:13.39	358.28	14.84	-40.4	-44.4	12.3	2.58e-04	0	56	0	981467136	52	5679
2026-01-11 09:11:14.40	358.18	14.74	-40.2	-44.1	12.5	6.79e-05	0	56	0	983564288	52	5480
2026-01-11 09:11:15.41	358.08	14.65	-40.0	-43.7	12.8	8.08e-05	0	56	0	985661440	52	5270
2026-01-11 09:11:16.42	357.98	14.56	-40.0	-43.9	12.5	1.09e-04	0	56	0	986710016	52	5369
2026-01-11 09:11:17.43	357.89	14.46	-40.1	-44.0	12.3	1.85e-04	0	56	0	988807168	52	5452
2026-01-11 09:11:18.44	357.79	14.37	-40.2	-44.4	11.9	2.76e-04	0	56	0	990904320	52	5673
2026-01-11 09:11:19.45	357.69	14.28	-40.1	-44.2	12.1	3.17e-04	0	56	0	993001472	51	5875
2026-01-11 09:11:20.46	357.60	14.18	-40.2	-44.4	11.8	3.66e-04	0	56	0	995098624	51	5998
2026-01-11 09:11:21.47	357.51	14.09	-40.0	-44.1	12.0	3.54e-04	0	56	0	996147200	51	5827
2026-01-11 09:11:22.48	357.41	14.00	-40.1	-44.4	11.7	3.71e-04	0	56	0	998244352	51	6000
2026-01-11 09:11:23.49	357.32	13.91	-40.0	-44.3	11.7	7.90e-04	0	56	0	1000341504	51	5951
2026-01-11 09:11:24.50	357.23	13.82	-40.0	-44.2	11.8	4.45e-04	0	56	0	1002438656	51	5901
2026-01-11 09:11:25.51	357.13	13.72	-40.1	-44.6	11.3	8.01e-04	0	56	0	1004535808	51	6171
2026-01-11 09:11:26.52	357.04	13.63	-40.0	-44.4	11.4	1.04e-03	0	56	0	1005584384	51	6032
2026-01-11 09:11:27.53	356.95	13.54	-39.9	-44.0	11.7	6.21e-04	0	56	0	1007681536	51	5787
2026-01-11 09:11:28.54	356.86	13.45	-39.8	-44.0	11.7	4.04e-04	0	56	0	1009778688	51	5761
2026-01-11 09:11:29.54	356.77	13.36	-39.9	-44.2	11.5	7.75e-04	0	56	0	1011875840	51	5916
2026-01-11 09:11:30.55	356.68	13.27	-39.9	-44.5	11.1	1.18e-03	0	56	0	1013972992	51	6122
2026-01-11 09:11:31.56	356.60	13.18	-40.2	-45.2	10.3	2.67e-03	0	56	0	1015021568	51	6602
2026-01-11 09:11:32.57	356.51	13.09	-40.3	-45.9	9.5	1.02e-02	0	56	0	1017118720	51	7138
2026-01-11 09:11:33.58	356.42	13.00	-40.2	-46.0	9.2	1.82e-02	0	56	0	1019215872	51	7220
2026-01-11 09:11:34.59	356.33	12.92	-40.3	-46.4	8.6	3.09e-02	0	56	0	1021313024	51	7600
2026-01-11 09:11:35.60	356.25	12.83	-40.3	-46.9	8.0	4.94e-02	0	56	0	1023410176	51	8007
2026-01-11 09:11:36.61	356.16	12.74	-40.3	-47.8	7.0	1.23e-01	0	56	0	1024458752	51	8932
2026-01-11 09:11:37.62	356.08	12.65	-40.4	-49.2	5.7	2.77e-01	0	56	0	1026555904	51	10474
2026-01-11 09:11:38.63	355.99	12.56	-40.5	-50.5	4.8	5.42e-01	0	56	0	1028653056	51	12106
2026-01-11 09:11:39.64	355.91	12.48	-40.5	-51.8	4.2	1.25e+00	0	56	0	1030750208	51	14132
2026-01-11 09:11:40.65	355.82	12.39	-40.5	-53.2	3.8	1.46e+00	0	56	104	1030750208	51	16653
2026-01-11 09:11:41.66	355.74	12.30	-40.4	-54.1	3.8	1.49e+00	0	56	104	1030750208	51	18351
2026-01-11 09:11:42.66	355.66	12.22	-40.3	-54.6	3.8	1.49e+00	0	56	104	1030750208	51	19552
2026-01-11 09:11:43.67	355.58	12.13	-40.3	-54.8	3.8	1.49e+00	0	56	104	1030750208	51	20012
2026-01-11 09:11:44.68	355.49	12.04	-40.3	-54.9	3.8	1.49e+00	0	56	104	1030750208	51	20212
2026-01-11 09:11:45.69	355.41	11.96	-40.2	-55.0	3.8	1.49e+00	0	56	104	1030750208	51	20367
2026-01-11 09:11:46.70	355.33	11.87	-40.3	-55.0	3.8	1.49e+00	0	56	104	1030750208	51	20436
2026-01-11 09:11:47.71	355.25	11.78	-40.3	-55.2	3.8	1.49e+00	0	56	104	1030750208	51	20902
2026-01-11 09:11:48.72	355.17	11.70	-40.2	-54.8	3.8	1.49e+00	0	56	104	1030750208	51	19917
2026-01-11 09:11:49.73	355.09	11.61	-40.3	-54.9	3.8	1.49e+00	0	56	104	1030750208	51	20156
2026-01-11 09:11:50.74	355.01	11.53	-40.1	-54.7	3.8	1.49e+00	0	56	104	1030750208	51	19729
2026-01-11 09:11:51.75	354.94	11.44	-40.1	-54.7	3.8	1.49e+00	0	56	104	1030750208	51	19769
2026-01-11 09:11:52.76	354.86	11.36	-40.1	-54.7	3.8	1.49e+00	0	56	104	1030750208	51	19654
2026-01-11 09:11:53.77	354.78	11.28	-40.1	-54.7	3.8	1.49e+00	0	56	104	1030750208	51	19676
2026-01-11 09:11:54.78	354.70	11.19	-40.1	-54.7	3.8	1.49e+00	0	56	104	1030750208	51	19695
2026-01-11 09:11:55.79	354.63	11.11	-40.3	-54.9	3.8	1.49e+00	0	56	104	1030750208	51	20117
2026-01-11 09:11:56.80	354.55	11.02	-40.1	-54.7	3.8	1.49e+00	0	56	104	1030750208	51	19780
2026-01-11 09:11:57.81	354.48	10.94	-40.1	-54.6	3.8	1.49e+00	0	56	104	1030750208	51	19588
2026-01-11 09:11:58.82	354.40	10.86	-40.2	-54.8	3.8	1.49e+00	0	56	104	1030750208	51	20027
2026-01-11 09:11:59.83	354.33	10.78	-40.0	-54.6	3.8	1.49e+00	0	56	104	1030750208	51	19560
2026-01-11 09:12:00.84	354.25	10.69	-40.2	-54.8	3.8	1.49e+00	0	56	104	1030750208	51	19849
2026-01-11 09:12:01.85	354.18	10.61	-40.0	-54.8	3.8	1.49e+00	0	56	104	1030750208	51	19950
2026-01-11 09:12:02.86	354.11	10.53	-40.0	-54.6	3.8	1.49e+00	0	56	104	1030750208	51	19543
2026-01-11 09:12:03.87	354.03	10.45	-40.0	-54.7	3.8	1.49e+00	0	56	104	1030750208	51	19833
2026-01-11 09:12:04.88	353.96	10.37	-40.0	-54.6	3.8	1.49e+00	0	56	104	1030750208	51	19484
2026-01-11 09:12:05.89	353.89	10.28	-40.2	-54.7	3.8	1.49e+00	0	56	104	1030750208	51	19774
2026-01-11 09:12:06.90	353.82	10.20	-40.1	-54.7	3.8	1.49e+00	0	56	104	1030750208	51	19640
2026-01-11 09:12:07.91	353.75	10.12	-40.2	-54.8	3.8	1.49e+00	0	56	104	1030750208	51	19871
