passes_logs/2026/01/11/R2.0S_Moscow/R2.0S_Moscow__20260111_001956_NOAA_21_JPSS-2_rec.log

#Pass ID: 20260111_001956_NOAA 21 (JPSS-2)
#Satellite: NOAA 21 (JPSS-2)
#Configuration: NOAA-21
#almurnet v.1.7.20251203
#Start time: 2026-01-11 00:22:02

#Version: 2.2.20231116
#Station: R2.0S_Moscow
#Location: 37.707566 lon 55.798166 lat
#TLE: 1 54234U 22150A   26009.79679979  .00000100  00000+0  68070-4 0  9993
#TLE: 2 54234  98.7494 310.7596 0000833 322.2782  37.8335 14.19533646164071

#Time	Az	El	Level	Level2	SNR	BER	BlckErr	Temp	State	Recorded	gain1	gain2
2026-01-11 00:22:02.98	8.96	11.35	-44.9	-56.7	3.8	8.46e-01	0	56	0	0	60	14817
2026-01-11 00:22:03.99	8.91	11.44	-45.3	-57.8	3.8	1.49e+00	0	56	104	0	62	14985
2026-01-11 00:22:05.00	8.86	11.53	-45.3	-57.8	3.8	1.49e+00	0	56	104	0	62	14970
2026-01-11 00:22:06.01	8.81	11.62	-45.2	-57.7	3.8	1.49e+00	0	56	104	0	62	14833
2026-01-11 00:22:07.02	8.76	11.70	-45.2	-57.7	3.8	1.49e+00	0	57	104	0	62	14727
2026-01-11 00:22:08.03	8.70	11.80	-45.1	-57.6	3.8	1.49e+00	0	56	104	0	62	14550
2026-01-11 00:22:09.04	8.65	11.89	-45.0	-57.5	3.8	1.49e+00	0	57	104	0	62	14441
2026-01-11 00:22:10.05	8.60	11.98	-44.9	-57.3	3.8	1.49e+00	0	56	104	0	61	15011
2026-01-11 00:22:11.06	8.54	12.07	-44.7	-56.8	3.8	1.49e+00	0	56	104	0	61	14195
2026-01-11 00:22:12.07	8.49	12.16	-44.4	-56.9	3.8	1.49e+00	0	56	104	0	60	15109
2026-01-11 00:22:13.08	8.44	12.25	-44.4	-56.8	3.8	1.49e+00	0	57	104	0	60	14888
2026-01-11 00:22:14.09	8.38	12.34	-44.4	-56.5	3.8	1.49e+00	0	56	104	0	60	14510
2026-01-11 00:22:15.10	8.33	12.44	-44.4	-56.2	3.8	1.49e+00	0	56	104	0	60	13935
2026-01-11 00:22:16.11	8.27	12.53	-44.3	-55.8	3.8	1.49e+00	0	57	104	0	60	13377
2026-01-11 00:22:17.13	8.21	12.62	-44.3	-55.5	3.8	1.49e+00	0	57	104	0	60	12895
2026-01-11 00:22:18.14	8.16	12.72	-44.3	-55.0	3.9	1.49e+00	0	57	104	0	60	12223
2026-01-11 00:22:19.15	8.10	12.81	-44.2	-55.2	3.9	1.49e+00	0	57	104	0	60	12487
2026-01-11 00:22:20.16	8.04	12.90	-44.2	-55.0	3.9	1.49e+00	0	57	104	0	60	12160
2026-01-11 00:22:21.17	7.99	13.00	-44.2	-55.2	3.8	1.49e+00	0	56	104	0	60	12404
2026-01-11 00:22:22.18	7.93	13.09	-44.2	-55.2	3.8	1.49e+00	0	57	104	0	60	12438
2026-01-11 00:22:23.19	7.87	13.19	-44.2	-55.1	3.8	1.48e+00	0	57	104	0	60	12276
2026-01-11 00:22:24.20	7.81	13.28	-44.2	-55.1	3.8	1.49e+00	0	56	104	0	60	12318
2026-01-11 00:22:25.21	7.75	13.38	-44.2	-55.2	3.8	1.49e+00	0	56	104	0	60	12460
2026-01-11 00:22:26.22	7.69	13.47	-44.3	-55.6	3.8	1.49e+00	0	57	104	0	60	13079
2026-01-11 00:22:27.23	7.64	13.57	-44.3	-55.7	3.8	1.49e+00	0	57	104	0	60	13131
2026-01-11 00:22:28.24	7.58	13.67	-44.3	-55.4	3.8	1.49e+00	0	57	104	0	60	12672
2026-01-11 00:22:29.25	7.51	13.76	-44.2	-54.6	4.0	1.48e+00	0	57	104	0	60	11561
2026-01-11 00:22:30.26	7.45	13.86	-44.1	-54.5	3.9	1.48e+00	0	57	104	0	60	11451
2026-01-11 00:22:31.28	7.39	13.96	-44.0	-53.3	4.2	1.46e+00	0	57	104	0	60	10027
2026-01-11 00:22:32.29	7.33	14.06	-44.0	-53.0	3.9	1.45e+00	0	57	104	0	59	10277
2026-01-11 00:22:33.30	7.27	14.16	-43.8	-52.1	4.0	1.17e+00	0	57	104	0	59	9251
2026-01-11 00:22:34.31	7.20	14.26	-43.8	-51.1	5.1	6.44e-01	0	57	0	1048576	59	8179
2026-01-11 00:22:35.32	7.14	14.36	-43.7	-50.7	5.3	5.79e-01	0	56	0	5242880	59	7856
2026-01-11 00:22:36.33	7.08	14.46	-43.6	-50.2	5.6	4.89e-01	0	56	0	8388608	59	7393
2026-01-11 00:22:37.34	7.01	14.56	-43.5	-50.2	5.6	4.36e-01	0	57	0	11534336	59	7413
2026-01-11 00:22:38.35	6.95	14.66	-43.6	-50.5	5.4	5.07e-01	0	56	0	13631488	59	7712
2026-01-11 00:22:39.36	6.88	14.76	-43.8	-51.2	5.0	6.47e-01	0	56	0	16777216	59	8284
2026-01-11 00:22:40.37	6.82	14.86	-44.0	-52.3	4.5	1.20e+00	4	57	104	18874368	59	9452
2026-01-11 00:22:41.38	6.75	14.96	-44.2	-54.1	4.0	1.48e+00	0	57	104	18874368	59	11559
2026-01-11 00:22:42.39	6.69	15.06	-44.4	-56.0	3.8	1.49e+00	0	57	104	18874368	59	14447
2026-01-11 00:22:43.40	6.62	15.16	-44.5	-56.5	3.8	1.49e+00	0	57	104	18874368	59	15254
2026-01-11 00:22:44.41	6.55	15.27	-44.3	-54.8	3.8	1.49e+00	0	57	104	18874368	59	12607
2026-01-11 00:22:45.42	6.48	15.37	-43.8	-51.3	4.9	1.19e+00	0	56	104	18874368	59	8406
2026-01-11 00:22:46.43	6.42	15.47	-43.1	-48.5	7.0	2.50e-01	0	57	0	20971520	58	6437
2026-01-11 00:22:47.44	6.35	15.58	-42.2	-46.4	9.0	3.71e-02	0	56	0	24117248	56	5690
2026-01-11 00:22:48.45	6.28	15.68	-41.2	-44.5	10.8	3.62e-03	0	56	0	27262976	54	5140
2026-01-11 00:22:49.46	6.21	15.79	-40.5	-43.3	12.1	6.38e-04	0	57	0	30408704	53	4725
2026-01-11 00:22:50.47	6.14	15.89	-39.9	-42.4	13.1	6.79e-05	0	57	0	33554432	51	4789
2026-01-11 00:22:51.48	6.07	16.00	-39.5	-41.7	13.8	5.30e-06	0	56	0	36700160	51	4430
2026-01-11 00:22:52.49	6.00	16.10	-39.1	-41.2	14.3	1.50e-06	0	56	0	39845888	50	4432
2026-01-11 00:22:53.50	5.92	16.21	-39.0	-41.1	14.4	1.50e-06	0	56	0	42991616	50	4373
2026-01-11 00:22:54.51	5.85	16.32	-39.1	-41.2	14.4	7.00e-07	0	57	0	46137344	50	4411
2026-01-11 00:22:55.52	5.78	16.42	-39.4	-41.5	14.0	1.50e-06	0	57	0	49283072	50	4594
2026-01-11 00:22:56.53	5.70	16.53	-39.7	-42.1	13.4	3.00e-06	0	56	0	52428800	50	4893
2026-01-11 00:22:57.54	5.63	16.64	-39.7	-42.0	13.5	4.88e-05	0	57	0	55574528	50	4852
2026-01-11 00:22:58.55	5.56	16.75	-39.5	-41.7	13.9	1.50e-06	0	56	0	58720256	50	4698
2026-01-11 00:22:59.56	5.48	16.86	-40.3	-42.9	12.9	1.37e-05	0	56	0	61865984	50	5359
2026-01-11 00:23:00.57	5.40	16.97	-42.7	-47.3	8.1	8.76e-01	0	57	0	62914560	57	5987
2026-01-11 00:23:01.58	5.33	17.08	-38.9	-40.9	14.4	4.78e-01	0	57	104	63963136	49	4528
2026-01-11 00:23:02.59	5.25	17.19	-39.4	-41.6	13.9	9.10e-06	0	56	0	66060288	50	4650
2026-01-11 00:23:03.60	5.17	17.30	-39.0	-41.0	14.5	7.00e-07	0	57	0	69206016	49	4594
2026-01-11 00:23:04.61	5.10	17.41	-39.0	-41.1	14.5	7.00e-07	0	57	0	72351744	49	4620
2026-01-11 00:23:05.62	5.02	17.52	-38.9	-40.9	14.6	7.00e-07	0	57	0	75497472	49	4525
2026-01-11 00:23:06.63	4.94	17.63	-39.0	-41.0	14.6	7.00e-07	0	56	0	79691776	49	4568
2026-01-11 00:23:07.64	4.86	17.74	-38.9	-40.9	14.6	7.00e-07	0	57	0	82837504	49	4544
2026-01-11 00:23:08.65	4.78	17.86	-38.9	-41.0	14.6	0.00e+00	0	57	0	84934656	49	4557
2026-01-11 00:23:09.65	4.70	17.97	-38.8	-40.8	14.8	0.00e+00	0	57	0	88080384	49	4457
2026-01-11 00:23:10.66	4.61	18.08	-38.8	-40.7	14.8	0.00e+00	0	57	0	91226112	49	4436
2026-01-11 00:23:11.68	4.53	18.20	-38.8	-40.8	14.8	7.00e-07	0	57	0	95420416	49	4466
2026-01-11 00:23:12.69	4.45	18.31	-38.8	-40.7	14.8	0.00e+00	0	57	0	98566144	49	4437
2026-01-11 00:23:13.69	4.36	18.43	-38.7	-40.7	14.9	0.00e+00	0	56	0	101711872	49	4396
2026-01-11 00:23:14.70	4.28	18.54	-38.8	-40.8	14.8	0.00e+00	0	56	0	104857600	49	4456
2026-01-11 00:23:15.72	4.19	18.66	-38.7	-40.7	15.0	0.00e+00	0	57	0	106954752	49	4394
2026-01-11 00:23:16.73	4.11	18.78	-38.7	-40.6	15.0	0.00e+00	0	57	0	111149056	49	4362
2026-01-11 00:23:17.74	4.02	18.89	-38.6	-40.6	15.1	0.00e+00	0	56	0	114294784	49	4342
2026-01-11 00:23:18.75	3.93	19.01	-38.6	-40.4	15.2	0.00e+00	0	57	0	117440512	49	4285
2026-01-11 00:23:19.76	3.85	19.13	-38.6	-40.5	15.1	0.00e+00	0	56	0	120586240	49	4329
2026-01-11 00:23:20.77	3.76	19.25	-38.6	-40.5	15.2	0.00e+00	0	56	0	123731968	49	4297
2026-01-11 00:23:21.78	3.67	19.37	-38.5	-40.4	15.3	0.00e+00	0	56	0	126877696	49	4261
2026-01-11 00:23:22.79	3.58	19.49	-38.6	-40.5	15.1	0.00e+00	0	57	0	130023424	49	4321
2026-01-11 00:23:23.80	3.49	19.61	-38.5	-40.4	15.3	0.00e+00	0	56	0	133169152	49	4251
2026-01-11 00:23:24.81	3.39	19.73	-38.4	-40.2	15.4	0.00e+00	0	56	0	136314880	48	4421
2026-01-11 00:23:25.82	3.30	19.85	-38.4	-40.2	15.4	0.00e+00	0	56	0	139460608	48	4436
2026-01-11 00:23:26.83	3.21	19.97	-38.3	-40.1	15.6	0.00e+00	0	57	0	142606336	48	4367
2026-01-11 00:23:27.84	3.11	20.09	-38.4	-40.2	15.5	0.00e+00	0	57	0	145752064	48	4397
2026-01-11 00:23:28.85	3.02	20.21	-38.3	-40.1	15.5	0.00e+00	0	56	0	148897792	48	4389
2026-01-11 00:23:29.86	2.92	20.34	-38.3	-40.1	15.6	0.00e+00	0	56	0	152043520	48	4364
2026-01-11 00:23:30.87	2.83	20.46	-38.3	-40.1	15.6	0.00e+00	0	56	0	155189248	48	4355
2026-01-11 00:23:31.88	2.73	20.59	-38.2	-39.9	15.7	0.00e+00	0	57	0	158334976	48	4290
2026-01-11 00:23:32.89	2.63	20.71	-38.1	-39.9	15.8	0.00e+00	0	56	0	161480704	48	4263
2026-01-11 00:23:33.90	2.53	20.84	-38.0	-39.8	15.9	0.00e+00	0	56	0	164626432	48	4212
2026-01-11 00:23:34.91	2.43	20.96	-37.9	-39.7	15.9	0.00e+00	0	56	0	167772160	47	4396
2026-01-11 00:23:35.92	2.33	21.09	-37.8	-39.5	16.1	0.00e+00	0	57	0	170917888	47	4336
2026-01-11 00:23:36.93	2.23	21.21	-37.8	-39.5	16.1	0.00e+00	0	56	0	174063616	47	4299
2026-01-11 00:23:37.94	2.13	21.34	-37.7	-39.3	16.2	0.00e+00	0	56	0	177209344	47	4233
2026-01-11 00:23:38.95	2.03	21.47	-37.7	-39.4	16.2	0.00e+00	0	56	0	180355072	47	4247
2026-01-11 00:23:39.96	1.92	21.60	-37.6	-39.2	16.4	0.00e+00	0	56	0	183500800	47	4172
2026-01-11 00:23:40.97	1.82	21.73	-37.5	-39.2	16.4	0.00e+00	0	56	0	186646528	47	4153
2026-01-11 00:23:41.98	1.71	21.86	-37.5	-39.1	16.5	0.00e+00	0	56	0	189792256	46	4376
2026-01-11 00:23:42.99	1.61	21.99	-37.4	-39.0	16.6	0.00e+00	0	57	0	192937984	46	4324
2026-01-11 00:23:44.00	1.50	22.12	-37.4	-39.0	16.7	0.00e+00	0	57	0	196083712	46	4292
2026-01-11 00:23:45.01	1.39	22.25	-37.4	-38.9	16.7	0.00e+00	0	56	0	199229440	46	4291
2026-01-11 00:23:46.02	1.28	22.38	-37.3	-38.9	16.7	0.00e+00	0	56	0	202375168	46	4278
2026-01-11 00:23:47.03	1.17	22.51	-37.3	-38.9	16.7	0.00e+00	0	56	0	205520896	46	4277
2026-01-11 00:23:48.04	1.06	22.65	-37.2	-38.7	16.9	0.00e+00	0	57	0	208666624	46	4183
2026-01-11 00:23:49.05	0.95	22.78	-37.2	-38.8	16.9	0.00e+00	0	57	0	211812352	46	4203
2026-01-11 00:23:50.06	0.83	22.92	-37.1	-38.7	17.0	0.00e+00	0	56	0	214958080	46	4168
2026-01-11 00:23:51.07	0.72	23.05	-37.1	-38.7	17.0	0.00e+00	0	57	0	218103808	46	4164
2026-01-11 00:23:52.08	0.60	23.19	-37.2	-38.7	16.9	0.00e+00	0	56	0	221249536	46	4188
2026-01-11 00:23:53.09	0.49	23.32	-37.2	-38.7	17.0	0.00e+00	0	57	0	224395264	46	4188
2026-01-11 00:23:54.10	0.37	23.46	-37.1	-38.6	17.0	0.00e+00	0	56	0	227540992	46	4145
2026-01-11 00:23:55.11	0.25	23.59	-37.2	-38.8	16.9	0.00e+00	0	56	0	230686720	46	4208
2026-01-11 00:23:56.12	0.13	23.73	-37.2	-38.7	16.9	0.00e+00	0	57	0	233832448	46	4190
2026-01-11 00:23:57.13	0.01	23.87	-37.3	-38.8	16.9	0.00e+00	0	56	0	236978176	46	4233
2026-01-11 00:23:58.14	359.89	24.01	-37.3	-38.8	16.9	0.00e+00	0	56	0	240123904	46	4227
2026-01-11 00:23:59.15	359.76	24.15	-37.3	-38.9	16.8	0.00e+00	0	57	0	243269632	46	4267
2026-01-11 00:24:00.16	359.64	24.29	-37.4	-38.9	16.8	0.00e+00	0	56	0	246415360	46	4288
2026-01-11 00:24:01.17	359.51	24.43	-37.5	-39.1	16.6	0.00e+00	0	57	0	249561088	46	4363
2026-01-11 00:24:02.19	359.39	24.57	-37.5	-39.1	16.6	0.00e+00	0	57	0	252706816	46	4363
2026-01-11 00:24:03.19	359.26	24.71	-37.7	-39.3	16.4	0.00e+00	0	56	0	255852544	46	4488
2026-01-11 00:24:04.20	359.13	24.86	-37.7	-39.4	16.4	0.00e+00	0	56	0	258998272	46	4505
2026-01-11 00:24:05.21	359.00	25.00	-37.8	-39.5	16.2	0.00e+00	0	57	0	262144000	46	4592
2026-01-11 00:24:06.22	358.87	25.14	-38.0	-39.7	16.1	0.00e+00	0	56	0	265289728	46	4664
2026-01-11 00:24:07.23	358.74	25.29	-38.0	-39.8	16.0	0.00e+00	0	57	0	268435456	46	4728
2026-01-11 00:24:08.24	358.60	25.43	-38.1	-39.9	15.9	0.00e+00	0	56	0	271581184	46	4763
2026-01-11 00:24:09.25	358.47	25.58	-38.1	-39.8	16.0	0.00e+00	0	56	0	274726912	46	4741
2026-01-11 00:24:10.26	358.33	25.72	-38.1	-39.8	16.0	0.00e+00	0	56	0	277872640	46	4729
2026-01-11 00:24:11.27	358.19	25.87	-38.1	-39.8	16.0	0.00e+00	0	56	0	281018368	46	4728
2026-01-11 00:24:12.28	358.06	26.02	-38.0	-39.7	16.0	0.00e+00	0	57	0	284164096	46	4694
2026-01-11 00:24:13.29	357.92	26.17	-38.1	-39.8	16.0	0.00e+00	0	56	0	287309824	46	4758
2026-01-11 00:24:14.30	357.77	26.31	-38.1	-39.8	16.0	0.00e+00	0	56	0	290455552	46	4735
2026-01-11 00:24:15.31	357.63	26.46	-38.1	-39.9	15.9	0.00e+00	0	56	0	293601280	46	4779
2026-01-11 00:24:16.32	357.49	26.61	-38.2	-39.9	15.9	0.00e+00	0	56	0	296747008	46	4791
2026-01-11 00:24:17.33	357.34	26.76	-38.2	-40.0	15.8	0.00e+00	0	57	0	299892736	46	4822
2026-01-11 00:24:18.34	357.19	26.92	-38.3	-40.0	15.7	0.00e+00	0	56	0	303038464	47	4597
2026-01-11 00:24:19.36	357.04	27.07	-38.3	-40.1	15.7	0.00e+00	0	57	0	306184192	47	4644
2026-01-11 00:24:20.37	356.89	27.22	-38.4	-40.2	15.6	0.00e+00	0	56	0	309329920	47	4685
2026-01-11 00:24:21.38	356.74	27.37	-38.5	-40.3	15.5	0.00e+00	0	56	0	312475648	47	4757
2026-01-11 00:24:22.39	356.59	27.53	-38.6	-40.5	15.4	0.00e+00	0	57	0	315621376	47	4820
2026-01-11 00:24:23.40	356.43	27.68	-38.7	-40.6	15.3	0.00e+00	0	56	0	318767104	47	4891
2026-01-11 00:24:24.41	356.28	27.84	-38.8	-40.7	15.3	0.00e+00	0	57	0	321912832	48	4674
2026-01-11 00:24:25.42	356.12	27.99	-38.8	-40.7	15.3	0.00e+00	0	56	0	325058560	48	4668
2026-01-11 00:24:26.43	355.96	28.15	-38.9	-40.8	15.1	0.00e+00	0	56	0	328204288	48	4747
2026-01-11 00:24:27.44	355.80	28.31	-38.8	-40.6	15.3	0.00e+00	0	57	0	331350016	48	4642
2026-01-11 00:24:28.45	355.64	28.46	-38.7	-40.6	15.4	0.00e+00	0	57	0	334495744	48	4608
2026-01-11 00:24:29.46	355.47	28.62	-38.6	-40.5	15.5	0.00e+00	0	57	0	337641472	48	4549
2026-01-11 00:24:30.47	355.31	28.78	-38.6	-40.4	15.6	0.00e+00	0	57	0	340787200	48	4500
2026-01-11 00:24:31.48	355.14	28.94	-38.5	-40.2	15.7	0.00e+00	0	57	0	343932928	48	4435
2026-01-11 00:24:32.49	354.97	29.10	-38.4	-40.2	15.8	0.00e+00	0	56	0	347078656	48	4407
2026-01-11 00:24:33.50	354.80	29.26	-38.4	-40.2	15.8	0.00e+00	0	57	0	350224384	48	4392
2026-01-11 00:24:34.51	354.63	29.42	-38.5	-40.3	15.6	0.00e+00	0	56	0	353370112	48	4480
2026-01-11 00:24:35.52	354.45	29.59	-38.5	-40.3	15.7	0.00e+00	0	56	0	356515840	48	4453
2026-01-11 00:24:36.53	354.28	29.75	-38.6	-40.4	15.6	0.00e+00	0	57	0	359661568	48	4501
2026-01-11 00:24:37.54	354.10	29.91	-38.5	-40.3	15.7	0.00e+00	0	56	0	362807296	48	4475
2026-01-11 00:24:38.55	353.92	30.08	-38.5	-40.3	15.7	0.00e+00	0	56	0	365953024	48	4449
2026-01-11 00:24:39.56	353.74	30.24	-38.4	-40.1	15.9	0.00e+00	0	56	0	369098752	48	4375
2026-01-11 00:24:40.57	353.55	30.40	-38.3	-40.0	15.9	0.00e+00	0	56	0	372244480	48	4340
2026-01-11 00:24:41.58	353.37	30.57	-38.2	-39.8	16.1	0.00e+00	0	57	0	376438784	48	4242
2026-01-11 00:24:42.59	353.18	30.74	-38.1	-39.8	16.2	0.00e+00	0	57	0	378535936	48	4196
2026-01-11 00:24:43.60	352.99	30.90	-38.1	-39.7	16.2	0.00e+00	0	56	0	381681664	48	4186
2026-01-11 00:24:44.61	352.80	31.07	-38.1	-39.7	16.2	0.00e+00	0	56	0	384827392	48	4179
2026-01-11 00:24:45.62	352.61	31.24	-38.1	-39.8	16.1	0.00e+00	0	56	0	387973120	48	4223
2026-01-11 00:24:46.63	352.41	31.41	-38.2	-39.9	16.0	0.00e+00	0	57	0	392167424	48	4285
2026-01-11 00:24:47.64	352.21	31.58	-38.3	-40.0	15.9	0.00e+00	0	57	0	395313152	48	4335
2026-01-11 00:24:48.65	352.01	31.75	-38.4	-40.2	15.8	0.00e+00	0	57	0	398458880	48	4403
2026-01-11 00:24:49.66	351.81	31.92	-38.5	-40.3	15.6	0.00e+00	0	56	0	400556032	48	4483
2026-01-11 00:24:50.67	351.61	32.09	-38.5	-40.2	15.7	0.00e+00	0	57	0	403701760	48	4433
2026-01-11 00:24:51.68	351.40	32.26	-38.5	-40.3	15.7	0.00e+00	0	56	0	407896064	48	4453
2026-01-11 00:24:52.69	351.19	32.43	-38.5	-40.3	15.7	0.00e+00	0	57	0	411041792	48	4485
2026-01-11 00:24:53.70	350.98	32.61	-38.5	-40.2	15.8	0.00e+00	0	56	0	414187520	48	4436
2026-01-11 00:24:54.71	350.77	32.78	-38.4	-40.1	15.9	0.00e+00	0	56	0	417333248	48	4372
2026-01-11 00:24:55.72	350.55	32.95	-38.3	-40.0	16.0	0.00e+00	0	56	0	420478976	48	4324
2026-01-11 00:24:56.73	350.34	33.13	-38.3	-40.0	16.0	0.00e+00	0	57	0	423624704	48	4307
2026-01-11 00:24:57.74	350.12	33.30	-38.4	-40.1	15.9	0.00e+00	0	57	0	426770432	48	4368
2026-01-11 00:24:58.75	349.89	33.48	-38.4	-40.1	15.9	0.00e+00	0	56	0	429916160	48	4376
2026-01-11 00:24:59.76	349.67	33.65	-38.7	-40.6	15.5	0.00e+00	0	57	0	433061888	48	4612
2026-01-11 00:25:00.77	349.44	33.83	-38.9	-40.8	15.2	0.00e+00	0	57	0	436207616	48	4747
2026-01-11 00:25:01.78	349.21	34.01	-39.1	-41.1	15.0	0.00e+00	0	57	0	439353344	48	4871
2026-01-11 00:25:02.79	348.98	34.18	-39.2	-41.2	14.8	0.00e+00	0	56	0	442499072	48	4956
2026-01-11 00:25:03.80	348.74	34.36	-39.3	-41.2	14.8	0.00e+00	0	56	0	445644800	49	4698
2026-01-11 00:25:04.81	348.50	34.54	-39.2	-41.2	14.8	0.00e+00	0	57	0	448790528	49	4677
2026-01-11 00:25:05.82	348.26	34.72	-39.3	-41.3	14.8	0.00e+00	0	57	0	451936256	49	4742
2026-01-11 00:25:06.83	348.02	34.90	-39.3	-41.3	14.8	0.00e+00	0	57	0	455081984	49	4717
2026-01-11 00:25:07.84	347.77	35.08	-39.4	-41.5	14.6	7.00e-07	0	57	0	458227712	49	4849
2026-01-11 00:25:08.85	347.53	35.26	-39.5	-41.5	14.6	7.00e-07	0	56	0	461373440	49	4862
2026-01-11 00:25:09.87	347.27	35.44	-39.6	-41.6	14.4	1.50e-06	0	57	0	464519168	49	4926
2026-01-11 00:25:10.88	347.02	35.62	-39.7	-41.9	14.2	1.50e-06	0	57	0	467664896	49	5050
2026-01-11 00:25:11.89	346.76	35.80	-39.8	-42.0	14.1	7.00e-07	0	56	0	470810624	50	4843
2026-01-11 00:25:12.90	346.50	35.98	-40.0	-42.2	13.9	2.20e-06	0	57	0	473956352	50	4962
2026-01-11 00:25:13.91	346.24	36.17	-39.9	-42.2	13.9	3.00e-06	0	57	0	477102080	50	4928
2026-01-11 00:25:14.92	345.97	36.35	-39.9	-42.1	14.0	3.00e-06	0	56	0	480247808	50	4903
2026-01-11 00:25:15.93	345.70	36.53	-39.9	-42.0	14.1	1.50e-06	0	57	0	483393536	50	4852
2026-01-11 00:25:16.94	345.43	36.71	-39.9	-42.1	14.0	3.00e-06	0	56	0	486539264	50	4895
2026-01-11 00:25:17.95	345.15	36.90	-40.0	-42.2	13.9	3.80e-06	0	57	0	489684992	50	4966
2026-01-11 00:25:18.96	344.88	37.08	-40.2	-42.5	13.6	8.30e-06	0	57	0	492830720	50	5112
2026-01-11 00:25:19.97	344.59	37.26	-40.3	-42.6	13.5	1.22e-05	0	56	0	495976448	51	4905
2026-01-11 00:25:20.97	344.31	37.45	-40.4	-42.8	13.3	1.75e-05	0	57	0	499122176	51	5036
2026-01-11 00:25:21.98	344.02	37.63	-40.2	-42.6	13.5	1.37e-05	0	57	0	502267904	51	4899
2026-01-11 00:25:22.99	343.73	37.82	-40.2	-42.6	13.5	1.52e-05	0	57	0	505413632	51	4889
2026-01-11 00:25:24.01	343.44	38.00	-40.2	-42.5	13.6	1.06e-05	0	57	0	508559360	51	4845
2026-01-11 00:25:25.02	343.14	38.19	-40.1	-42.4	13.8	4.50e-06	0	57	0	511705088	51	4763
2026-01-11 00:25:26.03	342.84	38.37	-40.0	-42.2	13.9	1.50e-06	0	57	0	514850816	51	4666
2026-01-11 00:25:27.03	342.53	38.55	-40.0	-42.2	13.8	5.30e-06	0	56	0	517996544	51	4704
2026-01-11 00:25:28.04	342.23	38.74	-39.9	-42.1	14.0	3.00e-06	0	56	0	521142272	51	4623
2026-01-11 00:25:29.05	341.91	38.92	-39.9	-42.1	14.1	2.20e-06	0	56	0	524288000	51	4600
2026-01-11 00:25:30.06	341.60	39.11	-40.0	-42.2	14.0	4.50e-06	0	57	0	527433728	51	4660
2026-01-11 00:25:31.07	341.28	39.29	-39.8	-41.9	14.2	7.00e-07	0	57	0	530579456	51	4507
2026-01-11 00:25:32.08	340.95	39.48	-39.6	-41.7	14.4	0.00e+00	0	56	0	533725184	51	4422
2026-01-11 00:25:33.09	340.63	39.66	-39.8	-42.0	14.1	1.50e-06	0	56	0	536870912	51	4579
2026-01-11 00:25:34.10	340.30	39.85	-40.0	-42.2	13.9	1.50e-06	0	57	0	540016640	51	4675
2026-01-11 00:25:35.11	339.96	40.03	-40.0	-42.2	13.9	3.00e-06	0	57	0	543162368	51	4691
2026-01-11 00:25:36.12	339.62	40.22	-39.9	-42.2	14.0	2.20e-06	0	57	0	546308096	51	4654
2026-01-11 00:25:37.13	339.28	40.40	-40.0	-42.2	13.9	2.20e-06	0	57	0	549453824	51	4693
2026-01-11 00:25:38.14	338.94	40.58	-40.2	-42.5	13.5	7.60e-06	0	57	0	552599552	51	4869
2026-01-11 00:25:39.15	338.59	40.77	-40.3	-42.7	13.5	9.10e-06	0	57	0	555745280	51	4949
2026-01-11 00:25:40.16	338.23	40.95	-40.4	-42.8	13.3	1.90e-05	0	57	0	558891008	51	5032
2026-01-11 00:25:41.17	337.87	41.14	-40.6	-43.2	13.0	3.58e-05	0	57	0	562036736	51	5244
2026-01-11 00:25:42.19	337.51	41.32	-40.7	-43.4	12.7	5.03e-05	0	56	0	565182464	52	5042
2026-01-11 00:25:43.19	337.14	41.50	-40.6	-43.2	12.9	4.95e-05	0	57	0	568328192	52	4966
2026-01-11 00:25:44.20	336.77	41.68	-40.6	-43.1	13.0	4.80e-05	0	57	0	571473920	52	4920
2026-01-11 00:25:45.21	336.40	41.86	-40.8	-43.4	12.6	6.25e-05	0	56	0	574619648	52	5088
2026-01-11 00:25:46.22	336.02	42.04	-40.8	-43.4	12.7	7.62e-05	0	57	0	577765376	52	5058
2026-01-11 00:25:47.23	335.64	42.22	-40.9	-43.6	12.5	9.68e-05	0	57	0	580911104	52	5194
2026-01-11 00:25:48.24	335.25	42.40	-40.8	-43.5	12.6	1.01e-04	0	56	0	584056832	52	5105
2026-01-11 00:25:49.25	334.86	42.58	-40.7	-43.2	12.8	7.32e-05	0	57	0	587202560	52	4962
2026-01-11 00:25:50.26	334.46	42.76	-40.6	-43.2	12.9	4.57e-05	0	57	0	590348288	52	4953
2026-01-11 00:25:51.27	334.06	42.94	-40.5	-43.0	13.2	3.73e-05	0	57	0	593494016	52	4817
2026-01-11 00:25:52.28	333.65	43.12	-40.4	-42.8	13.3	1.83e-05	0	57	0	596639744	52	4738
2026-01-11 00:25:53.29	333.24	43.29	-40.4	-42.8	13.2	1.22e-05	0	57	0	599785472	52	4745
2026-01-11 00:25:54.30	332.83	43.47	-40.5	-43.0	13.1	2.74e-05	0	57	0	602931200	52	4832
2026-01-11 00:25:55.30	332.41	43.64	-40.6	-43.1	13.0	4.57e-05	0	57	0	606076928	52	4878
2026-01-11 00:25:56.32	331.98	43.82	-40.6	-43.2	12.9	5.72e-05	0	57	0	609222656	52	4960
2026-01-11 00:25:57.33	331.56	43.99	-40.7	-43.2	12.8	4.65e-05	0	57	0	612368384	52	4978
2026-01-11 00:25:58.34	331.12	44.16	-40.7	-43.2	12.9	6.33e-05	0	57	0	615514112	52	4982
2026-01-11 00:25:59.35	330.68	44.33	-40.7	-43.2	12.9	4.57e-05	0	57	0	618659840	52	4979
2026-01-11 00:26:00.36	330.24	44.50	-40.7	-43.2	12.9	5.79e-05	0	57	0	621805568	52	4975
2026-01-11 00:26:01.37	329.79	44.67	-40.6	-43.2	13.0	4.65e-05	0	57	0	624951296	52	4928
2026-01-11 00:26:02.38	329.34	44.84	-40.6	-43.1	13.0	3.43e-05	0	57	0	628097024	52	4889
2026-01-11 00:26:03.39	328.88	45.00	-40.5	-42.9	13.2	2.51e-05	0	57	0	631242752	52	4813
2026-01-11 00:26:04.40	328.42	45.16	-40.4	-42.8	13.3	2.21e-05	0	57	0	634388480	52	4728
2026-01-11 00:26:05.41	327.96	45.33	-40.5	-43.0	13.2	2.36e-05	0	57	0	637534208	52	4825
2026-01-11 00:26:06.42	327.48	45.49	-40.6	-43.2	13.0	4.04e-05	0	57	0	640679936	52	4928
2026-01-11 00:26:07.43	327.01	45.65	-40.6	-43.1	12.9	5.34e-05	0	57	0	643825664	52	4912
2026-01-11 00:26:08.43	326.53	45.80	-40.4	-42.9	13.2	2.21e-05	0	57	0	646971392	52	4768
2026-01-11 00:26:09.44	326.05	45.96	-40.3	-42.6	13.5	2.05e-05	0	57	0	650117120	52	4645
2026-01-11 00:26:10.45	325.55	46.12	-40.4	-42.8	13.4	1.29e-05	0	57	0	653262848	52	4711
2026-01-11 00:26:11.46	325.06	46.27	-40.4	-42.8	13.3	1.52e-05	0	57	0	656408576	52	4716
2026-01-11 00:26:12.47	324.56	46.42	-40.0	-42.2	13.9	2.20e-06	0	57	0	659554304	52	4427
2026-01-11 00:26:13.48	324.05	46.57	-39.9	-42.1	14.1	3.80e-06	0	57	0	662700032	51	4616
2026-01-11 00:26:14.49	323.54	46.72	-40.0	-42.1	14.0	7.00e-07	0	57	0	665845760	51	4645
2026-01-11 00:26:15.50	323.03	46.86	-40.2	-42.4	13.8	5.30e-06	0	57	0	668991488	51	4803
2026-01-11 00:26:16.51	322.51	47.00	-40.5	-42.9	13.3	1.67e-05	0	57	0	672137216	51	5051
2026-01-11 00:26:17.53	321.98	47.15	-40.7	-43.2	13.0	2.89e-05	0	57	0	675282944	51	5244
2026-01-11 00:26:18.54	321.45	47.29	-40.6	-43.1	13.1	3.05e-05	0	57	0	678428672	51	5183
2026-01-11 00:26:19.54	320.92	47.42	-40.6	-43.0	13.2	2.74e-05	0	57	0	681574400	51	5140
2026-01-11 00:26:20.55	320.38	47.56	-40.7	-43.2	13.0	3.43e-05	0	57	0	684720128	51	5232
2026-01-11 00:26:21.56	319.84	47.69	-40.9	-43.6	12.5	1.01e-04	0	57	0	687865856	52	5203
2026-01-11 00:26:22.57	319.29	47.82	-41.1	-43.9	12.2	1.75e-04	0	57	0	692060160	52	5367
2026-01-11 00:26:23.59	318.73	47.94	-40.9	-43.5	12.6	1.38e-04	0	57	0	694157312	52	5155
2026-01-11 00:26:24.59	318.18	48.07	-40.7	-43.3	12.9	9.00e-05	0	57	0	697303040	52	4985
2026-01-11 00:26:25.60	317.62	48.19	-40.7	-43.3	12.8	5.34e-05	0	57	0	700448768	52	5015
2026-01-11 00:26:26.61	317.05	48.31	-40.7	-43.3	12.8	5.64e-05	0	57	0	703594496	52	5009
2026-01-11 00:26:27.62	316.48	48.43	-40.7	-43.3	12.8	5.72e-05	0	57	0	707788800	52	4990
2026-01-11 00:26:28.64	315.90	48.54	-40.5	-43.0	13.2	3.50e-05	0	57	0	710934528	52	4818
2026-01-11 00:26:29.65	315.32	48.65	-40.1	-42.4	13.8	6.10e-06	0	57	0	714080256	52	4494
2026-01-11 00:26:30.65	314.74	48.76	-40.1	-42.4	13.7	5.30e-06	0	57	0	717225984	52	4542
2026-01-11 00:26:31.66	314.16	48.86	-40.2	-42.6	13.6	9.90e-06	0	57	0	719323136	52	4599
2026-01-11 00:26:32.68	313.56	48.97	-40.1	-42.5	13.7	3.00e-06	0	57	0	723517440	52	4552
2026-01-11 00:26:33.69	312.96	49.06	-40.1	-42.4	13.7	3.80e-06	0	57	0	726663168	52	4541
2026-01-11 00:26:34.70	312.36	49.16	-40.1	-42.3	13.8	5.30e-06	0	57	0	729808896	52	4486
2026-01-11 00:26:35.70	311.77	49.25	-40.1	-42.4	13.7	2.20e-06	0	57	0	732954624	52	4544
2026-01-11 00:26:36.71	311.16	49.34	-40.3	-42.6	13.5	7.60e-06	0	57	0	736100352	52	4638
2026-01-11 00:26:37.72	310.55	49.43	-40.1	-42.4	13.7	9.10e-06	0	57	0	739246080	52	4530
2026-01-11 00:26:38.74	309.93	49.51	-40.0	-42.3	13.8	8.30e-06	0	56	0	742391808	52	4471
2026-01-11 00:26:39.75	309.31	49.59	-40.0	-42.3	13.8	6.80e-06	0	57	0	745537536	52	4467
2026-01-11 00:26:40.76	308.70	49.66	-40.1	-42.5	13.6	6.10e-06	0	57	0	748683264	52	4554
2026-01-11 00:26:41.77	308.07	49.74	-40.2	-42.6	13.5	9.90e-06	0	57	0	751828992	52	4621
2026-01-11 00:26:42.77	307.45	49.81	-40.0	-42.3	13.8	3.00e-06	0	57	0	754974720	52	4476
2026-01-11 00:26:43.78	306.82	49.87	-40.2	-42.5	13.8	1.50e-06	0	57	0	758120448	51	4816
2026-01-11 00:26:44.79	306.19	49.93	-40.2	-42.6	13.6	8.30e-06	0	57	0	761266176	51	4878
2026-01-11 00:26:45.80	305.56	49.99	-40.0	-42.2	14.0	3.00e-06	0	57	0	764411904	51	4689
2026-01-11 00:26:46.81	304.92	50.04	-40.1	-42.4	13.8	3.00e-06	0	57	0	767557632	51	4791
2026-01-11 00:26:47.82	304.29	50.10	-40.2	-42.5	13.7	5.30e-06	0	57	0	770703360	51	4862
2026-01-11 00:26:48.83	303.64	50.14	-40.1	-42.4	13.8	3.00e-06	0	57	0	773849088	51	4785
2026-01-11 00:26:49.84	303.00	50.18	-40.1	-42.4	13.8	3.00e-06	0	57	0	776994816	51	4792
2026-01-11 00:26:50.85	302.36	50.22	-40.0	-42.2	14.1	3.00e-06	0	57	0	780140544	51	4652
2026-01-11 00:26:51.86	301.71	50.26	-39.8	-42.0	14.2	1.50e-06	0	57	0	783286272	51	4557
2026-01-11 00:26:52.87	301.07	50.29	-40.0	-42.1	14.0	2.20e-06	0	57	0	786432000	51	4649
2026-01-11 00:26:53.88	300.42	50.32	-40.0	-42.2	14.0	3.80e-06	0	57	0	789577728	51	4692
2026-01-11 00:26:54.89	299.77	50.34	-40.2	-42.6	13.7	3.80e-06	0	57	0	792723456	51	4872
2026-01-11 00:26:55.90	299.12	50.36	-40.0	-42.2	14.0	1.50e-06	0	57	0	795869184	51	4700
2026-01-11 00:26:56.91	298.47	50.38	-40.0	-42.2	14.0	7.00e-07	0	57	0	799014912	51	4666
2026-01-11 00:26:57.92	297.81	50.39	-40.1	-42.4	13.8	3.80e-06	0	57	0	802160640	51	4808
2026-01-11 00:26:58.93	297.16	50.40	-40.0	-42.2	14.0	3.80e-06	0	57	0	805306368	51	4688
2026-01-11 00:26:59.94	296.51	50.40	-40.2	-42.5	13.7	4.50e-06	0	57	0	808452096	51	4848
2026-01-11 00:27:00.95	295.86	50.40	-40.0	-42.3	13.9	3.00e-06	0	57	0	811597824	51	4713
2026-01-11 00:27:01.96	295.20	50.40	-40.0	-42.2	14.0	2.20e-06	0	57	0	814743552	51	4669
2026-01-11 00:27:02.97	294.55	50.39	-39.9	-42.0	14.1	7.00e-07	0	57	0	817889280	51	4587
2026-01-11 00:27:03.97	293.90	50.38	-39.6	-41.7	14.5	0.00e+00	0	57	0	821035008	51	4408
2026-01-11 00:27:04.98	293.25	50.37	-39.8	-42.0	14.3	7.00e-07	0	57	0	824180736	51	4557
2026-01-11 00:27:05.99	292.60	50.35	-39.8	-42.0	14.2	7.00e-07	0	57	0	827326464	51	4579
2026-01-11 00:27:07.00	291.95	50.32	-39.9	-42.1	14.1	1.50e-06	0	57	0	830472192	51	4648
2026-01-11 00:27:08.01	291.30	50.30	-40.0	-42.3	13.9	6.80e-06	0	57	0	833617920	51	4730
2026-01-11 00:27:09.02	290.66	50.26	-40.1	-42.4	13.8	6.80e-06	0	57	0	836763648	51	4771
2026-01-11 00:27:10.03	290.01	50.23	-39.9	-42.1	14.1	1.50e-06	0	57	0	839909376	51	4649
2026-01-11 00:27:11.04	289.37	50.19	-40.0	-42.3	13.9	2.20e-06	0	57	0	843055104	51	4739
2026-01-11 00:27:12.05	288.72	50.15	-40.3	-42.6	13.5	8.30e-06	0	57	0	846200832	51	4917
2026-01-11 00:27:13.06	288.08	50.10	-40.5	-43.0	13.2	1.29e-05	0	57	0	849346560	51	5120
2026-01-11 00:27:14.06	287.45	50.05	-40.5	-42.9	13.3	1.14e-05	0	57	0	852492288	51	5080
2026-01-11 00:27:15.07	286.81	50.00	-40.5	-43.0	13.1	2.21e-05	0	57	0	855638016	51	5153
2026-01-11 00:27:16.08	286.18	49.94	-40.5	-43.0	13.2	3.35e-05	0	57	0	858783744	51	5145
2026-01-11 00:27:17.10	285.54	49.88	-40.4	-42.8	13.4	1.90e-05	0	57	0	861929472	51	5016
2026-01-11 00:27:18.10	284.91	49.82	-40.3	-42.6	13.6	1.22e-05	0	57	0	865075200	51	4897
2026-01-11 00:27:19.12	284.28	49.75	-40.1	-42.3	13.9	5.30e-06	0	57	0	868220928	51	4757
2026-01-11 00:27:20.13	283.66	49.68	-40.2	-42.4	13.7	3.00e-06	0	57	0	871366656	51	4810
2026-01-11 00:27:21.14	283.04	49.60	-40.5	-43.0	13.2	2.05e-05	0	57	0	874512384	51	5127
2026-01-11 00:27:22.15	282.42	49.52	-40.4	-42.8	13.3	1.60e-05	0	57	0	877658112	51	5011
2026-01-11 00:27:23.16	281.80	49.44	-40.1	-42.4	13.8	7.60e-06	0	57	0	880803840	51	4777
2026-01-11 00:27:24.17	281.19	49.35	-40.1	-42.3	13.8	6.10e-06	0	57	0	883949568	51	4734
2026-01-11 00:27:25.18	280.59	49.26	-39.8	-41.9	14.2	1.50e-06	0	57	0	887095296	51	4511
2026-01-11 00:27:26.19	279.98	49.17	-40.0	-42.3	13.8	2.20e-06	0	57	0	890241024	51	4711
2026-01-11 00:27:27.20	279.38	49.08	-40.2	-42.4	13.8	7.60e-06	0	57	0	893386752	51	4810
2026-01-11 00:27:28.21	278.78	48.98	-39.9	-42.0	14.1	0.00e+00	0	57	0	896532480	51	4588
2026-01-11 00:27:29.22	278.19	48.88	-40.0	-42.1	14.0	7.00e-07	0	57	0	899678208	51	4648
2026-01-11 00:27:30.23	277.60	48.77	-39.8	-41.9	14.3	0.00e+00	0	57	0	902823936	51	4504
2026-01-11 00:27:31.24	277.02	48.66	-39.6	-41.7	14.5	0.00e+00	0	57	0	905969664	51	4407
2026-01-11 00:27:32.25	276.44	48.55	-39.5	-41.6	14.6	0.00e+00	0	57	0	909115392	51	4353
2026-01-11 00:27:33.26	275.86	48.44	-39.6	-41.6	14.6	7.00e-07	0	57	0	912261120	51	4382
2026-01-11 00:27:34.27	275.29	48.32	-39.8	-42.0	14.2	1.50e-06	0	57	0	915406848	51	4558
2026-01-11 00:27:35.28	274.72	48.21	-39.9	-42.1	14.0	5.30e-06	0	57	0	918552576	51	4648
2026-01-11 00:27:36.29	274.16	48.08	-40.0	-42.2	14.0	4.50e-06	0	57	0	921698304	51	4657
2026-01-11 00:27:37.30	273.60	47.96	-39.8	-41.9	14.3	0.00e+00	0	57	0	924844032	51	4523
2026-01-11 00:27:38.31	273.04	47.83	-39.4	-41.5	14.7	0.00e+00	0	57	0	927989760	50	4546
2026-01-11 00:27:39.32	272.49	47.70	-39.4	-41.5	14.7	0.00e+00	0	57	0	931135488	50	4551
2026-01-11 00:27:40.33	271.95	47.57	-39.7	-41.7	14.4	0.00e+00	0	57	0	934281216	50	4702
2026-01-11 00:27:41.34	271.41	47.44	-40.1	-42.4	13.8	2.20e-06	0	57	0	937426944	50	5083
2026-01-11 00:27:42.35	270.87	47.30	-40.6	-43.2	12.8	3.12e-05	0	57	0	940572672	52	4975
2026-01-11 00:27:43.36	270.34	47.16	-41.1	-44.0	12.1	2.95e-04	0	57	0	943718400	52	5452
2026-01-11 00:27:44.37	269.81	47.02	-40.6	-43.2	12.9	8.08e-05	0	57	0	946864128	52	4935
2026-01-11 00:27:45.38	269.29	46.88	-39.8	-42.0	14.2	9.10e-06	0	57	0	950009856	51	4561
2026-01-11 00:27:46.39	268.78	46.73	-39.3	-41.2	15.0	0.00e+00	0	57	0	953155584	50	4415
2026-01-11 00:27:47.40	268.26	46.58	-39.2	-41.1	15.1	0.00e+00	0	57	0	956301312	50	4357
2026-01-11 00:27:48.41	267.76	46.43	-39.4	-41.4	14.8	0.00e+00	0	57	0	959447040	50	4517
2026-01-11 00:27:49.42	267.25	46.28	-40.0	-42.3	14.0	7.00e-07	0	57	0	962592768	50	4989
2026-01-11 00:27:50.43	266.76	46.13	-40.7	-43.3	12.7	3.05e-05	0	57	0	965738496	52	5029
2026-01-11 00:27:51.44	266.26	45.98	-40.8	-43.5	12.4	1.55e-04	0	57	0	968884224	52	5154
2026-01-11 00:27:52.45	265.77	45.82	-40.3	-42.7	13.2	4.73e-05	0	57	0	972029952	52	4676
2026-01-11 00:27:53.46	265.29	45.66	-39.7	-41.8	14.2	5.30e-06	0	57	0	975175680	51	4492
2026-01-11 00:27:54.47	264.81	45.50	-39.5	-41.6	14.6	1.50e-06	0	57	0	978321408	51	4356
2026-01-11 00:27:55.48	264.34	45.34	-39.9	-42.0	14.1	1.50e-06	0	57	0	981467136	51	4581
2026-01-11 00:27:56.49	263.87	45.18	-40.5	-43.0	13.1	2.21e-05	0	57	0	984612864	51	5130
2026-01-11 00:27:57.50	263.41	45.01	-41.3	-44.4	11.6	5.20e-04	0	57	0	987758592	53	5346
2026-01-11 00:27:58.51	262.95	44.85	-41.5	-44.6	11.3	1.13e-03	0	57	0	990904320	53	5468
2026-01-11 00:27:59.52	262.49	44.68	-40.5	-42.9	12.9	2.04e-04	0	57	0	994050048	52	4806
2026-01-11 00:28:00.53	262.05	44.51	-39.4	-41.4	14.6	1.50e-06	0	57	0	997195776	50	4498
2026-01-11 00:28:01.54	261.60	44.34	-38.8	-40.6	15.4	0.00e+00	0	57	0	1000341504	49	4371
2026-01-11 00:28:02.55	261.16	44.17	-38.7	-40.5	15.6	0.00e+00	0	57	0	1003487232	49	4311
2026-01-11 00:28:03.56	260.73	44.00	-38.9	-40.7	15.4	0.00e+00	0	57	0	1006632960	49	4409
2026-01-11 00:28:04.57	260.30	43.83	-39.4	-41.4	14.6	0.00e+00	0	57	0	1009778688	49	4779
2026-01-11 00:28:05.58	259.87	43.65	-40.7	-43.4	12.6	5.64e-05	0	57	0	1012924416	52	5049
2026-01-11 00:28:06.59	259.45	43.48	-41.9	-45.3	10.6	1.42e-03	0	57	0	1016070144	54	5645
2026-01-11 00:28:07.60	259.03	43.30	-41.8	-45.2	10.4	6.01e-03	0	57	0	1019215872	54	5583
2026-01-11 00:28:08.60	258.62	43.13	-41.0	-43.9	11.6	1.31e-03	0	57	0	1022361600	54	4786
2026-01-11 00:28:09.61	258.22	42.95	-40.6	-43.2	12.5	1.29e-04	0	57	0	1025507328	53	4655
2026-01-11 00:28:10.62	257.81	42.77	-40.2	-42.5	13.4	1.06e-05	0	57	0	1029701632	52	4591
2026-01-11 00:28:11.63	257.42	42.59	-39.9	-42.0	14.0	6.80e-06	0	57	0	1032847360	51	4590
2026-01-11 00:28:12.64	257.02	42.41	-40.0	-42.3	13.9	3.00e-06	0	57	0	1034944512	51	4707
2026-01-11 00:28:13.65	256.63	42.23	-40.5	-42.9	13.2	9.10e-06	0	57	0	1038090240	51	5089
2026-01-11 00:28:14.66	256.25	42.05	-41.0	-43.8	12.3	9.99e-05	0	57	0	1041235968	52	5297
2026-01-11 00:28:15.67	255.87	41.87	-41.1	-43.9	12.1	3.12e-04	0	57	0	1044381696	52	5363
2026-01-11 00:28:16.68	255.49	41.69	-40.6	-43.1	12.9	7.93e-05	0	57	0	1048576000	52	4901
2026-01-11 00:28:17.69	255.12	41.50	-40.0	-42.2	13.9	3.00e-06	0	57	0	1051721728	51	4680
2026-01-11 00:28:18.70	254.75	41.32	-39.5	-41.6	14.5	1.50e-06	0	57	0	1054867456	51	4356
2026-01-11 00:28:19.71	254.38	41.14	-39.5	-41.5	14.6	2.20e-06	0	57	0	1056964608	50	4573
2026-01-11 00:28:20.72	254.02	40.95	-39.9	-42.1	14.0	4.50e-06	0	57	0	1060110336	50	4912
2026-01-11 00:28:21.73	253.67	40.77	-40.5	-43.0	13.0	2.05e-05	0	57	0	1064304640	51	5146
2026-01-11 00:28:22.74	253.32	40.58	-40.9	-43.7	12.3	1.40e-04	0	57	0	1067450368	52	5261
2026-01-11 00:28:23.75	252.97	40.40	-41.1	-43.9	12.1	2.58e-04	0	57	0	1070596096	52	5372
2026-01-11 00:28:24.76	252.62	40.21	-40.7	-43.3	12.7	1.06e-04	0	57	0	1073741824	52	5014
2026-01-11 00:28:25.77	252.28	40.03	-40.4	-42.9	13.0	3.96e-05	0	57	0	1076887552	52	4760
2026-01-11 00:28:26.78	251.95	39.84	-40.3	-42.8	13.2	2.36e-05	0	57	0	1080033280	52	4710
2026-01-11 00:28:27.79	251.62	39.66	-40.1	-42.4	13.6	1.60e-05	0	57	0	1083179008	52	4534
2026-01-11 00:28:28.80	251.29	39.47	-39.9	-42.1	14.0	3.00e-06	0	57	0	1086324736	51	4638
2026-01-11 00:28:29.81	250.96	39.29	-39.6	-41.7	14.4	7.00e-07	0	57	0	1089470464	51	4438
2026-01-11 00:28:30.82	250.64	39.10	-39.6	-41.7	14.4	1.50e-06	0	57	0	1092616192	51	4402
2026-01-11 00:28:31.83	250.32	38.92	-39.9	-42.2	13.9	1.50e-06	0	57	0	1095761920	51	4669
2026-01-11 00:28:32.84	250.01	38.73	-40.5	-42.9	13.2	7.60e-06	0	57	0	1098907648	51	5094
2026-01-11 00:28:33.85	249.70	38.54	-40.7	-43.4	12.6	6.63e-05	0	57	0	1102053376	52	5073
2026-01-11 00:28:34.85	249.40	38.36	-40.8	-43.5	12.5	1.63e-04	0	57	0	1105199104	52	5135
2026-01-11 00:28:35.86	249.09	38.18	-40.3	-42.8	13.2	3.43e-05	0	57	0	1108344832	52	4720
2026-01-11 00:28:36.87	248.79	37.99	-39.5	-41.6	14.5	7.00e-07	0	57	0	1111490560	51	4356
2026-01-11 00:28:37.88	248.50	37.80	-39.3	-41.2	14.8	7.00e-07	0	57	0	1114636288	50	4435
2026-01-11 00:28:38.90	248.20	37.62	-39.3	-41.3	14.8	0.00e+00	0	57	0	1117782016	50	4459
2026-01-11 00:28:39.91	247.91	37.43	-39.7	-41.9	14.2	1.50e-06	0	57	0	1120927744	50	4762
2026-01-11 00:28:40.92	247.63	37.25	-40.1	-42.3	13.7	4.50e-06	0	57	0	1124073472	50	5036
2026-01-11 00:28:41.93	247.34	37.06	-40.2	-42.6	13.4	9.90e-06	0	57	0	1127219200	51	4895
2026-01-11 00:28:42.94	247.06	36.88	-40.1	-42.3	13.7	2.20e-06	0	57	0	1130364928	51	4759
2026-01-11 00:28:43.95	246.79	36.69	-39.8	-42.0	14.1	3.00e-06	0	57	0	1133510656	51	4574
2026-01-11 00:28:44.96	246.51	36.51	-39.8	-42.0	14.1	2.20e-06	0	57	0	1136656384	51	4566
2026-01-11 00:28:45.97	246.24	36.33	-39.7	-41.8	14.3	0.00e+00	0	57	0	1139802112	51	4475
2026-01-11 00:28:46.98	245.98	36.14	-39.3	-41.3	14.8	0.00e+00	0	57	0	1142947840	50	4448
2026-01-11 00:28:47.99	245.71	35.96	-39.0	-40.8	15.2	0.00e+00	0	57	0	1146093568	50	4238
2026-01-11 00:28:49.00	245.45	35.78	-38.6	-40.3	15.7	0.00e+00	0	57	0	1149239296	49	4234
2026-01-11 00:28:50.01	245.19	35.60	-38.3	-40.0	16.1	0.00e+00	0	57	0	1152385024	48	4295
2026-01-11 00:28:51.01	244.94	35.42	-38.2	-39.8	16.2	0.00e+00	0	57	0	1155530752	48	4230
2026-01-11 00:28:52.02	244.68	35.24	-38.1	-39.7	16.3	0.00e+00	0	57	0	1158676480	48	4190
2026-01-11 00:28:53.03	244.43	35.05	-38.2	-39.9	16.2	0.00e+00	0	57	0	1161822208	48	4247
2026-01-11 00:28:54.04	244.19	34.87	-38.5	-40.3	15.8	0.00e+00	0	57	0	1164967936	48	4450
2026-01-11 00:28:55.05	243.94	34.69	-38.8	-40.6	15.5	0.00e+00	0	57	0	1168113664	48	4611
2026-01-11 00:28:56.06	243.70	34.51	-38.8	-40.7	15.3	0.00e+00	0	57	0	1171259392	48	4665
2026-01-11 00:28:57.07	243.46	34.34	-38.8	-40.7	15.3	0.00e+00	0	57	0	1174405120	48	4687
2026-01-11 00:28:58.08	243.23	34.16	-38.9	-40.8	15.2	0.00e+00	0	57	0	1177550848	48	4729
2026-01-11 00:28:59.09	242.99	33.98	-39.0	-40.9	15.2	0.00e+00	0	57	0	1180696576	48	4772
2026-01-11 00:29:00.10	242.76	33.80	-39.0	-40.9	15.1	0.00e+00	0	57	0	1183842304	48	4802
2026-01-11 00:29:01.11	242.53	33.62	-39.1	-41.1	15.0	7.00e-07	0	57	0	1186988032	48	4897
2026-01-11 00:29:02.12	242.31	33.45	-39.2	-41.2	14.9	0.00e+00	0	57	0	1190133760	48	4954
2026-01-11 00:29:03.13	242.08	33.27	-39.0	-41.0	15.1	0.00e+00	0	57	0	1193279488	48	4835
2026-01-11 00:29:04.14	241.86	33.09	-38.7	-40.5	15.5	0.00e+00	0	57	0	1196425216	48	4588
2026-01-11 00:29:05.15	241.64	32.92	-38.4	-40.1	15.8	0.00e+00	0	57	0	1199570944	48	4390
2026-01-11 00:29:06.16	241.42	32.74	-38.2	-39.9	16.2	0.00e+00	0	57	0	1202716672	48	4245
2026-01-11 00:29:07.17	241.21	32.57	-38.2	-39.9	16.1	0.00e+00	0	57	0	1205862400	48	4249
2026-01-11 00:29:08.17	241.00	32.40	-38.3	-40.0	16.0	0.00e+00	0	57	0	1209008128	48	4322
2026-01-11 00:29:09.18	240.79	32.23	-38.4	-40.2	15.9	0.00e+00	0	57	0	1212153856	48	4398
2026-01-11 00:29:10.20	240.58	32.05	-38.3	-40.1	16.0	0.00e+00	0	57	0	1215299584	48	4341
2026-01-11 00:29:11.20	240.38	31.88	-38.2	-39.9	16.1	0.00e+00	0	57	0	1218445312	48	4279
2026-01-11 00:29:12.21	240.17	31.71	-38.2	-39.8	16.2	0.00e+00	0	57	0	1221591040	48	4238
2026-01-11 00:29:13.23	239.97	31.54	-38.1	-39.8	16.2	0.00e+00	0	57	0	1224736768	48	4212
2026-01-11 00:29:14.24	239.77	31.37	-38.2	-39.8	16.2	0.00e+00	0	57	0	1227882496	48	4238
2026-01-11 00:29:15.24	239.58	31.20	-38.0	-39.7	16.3	0.00e+00	0	57	0	1231028224	48	4159
2026-01-11 00:29:16.25	239.38	31.03	-38.1	-39.7	16.3	0.00e+00	0	57	0	1234173952	48	4174
2026-01-11 00:29:17.26	239.19	30.86	-38.0	-39.7	16.3	0.00e+00	0	57	0	1237319680	48	4157
2026-01-11 00:29:18.28	239.00	30.69	-38.2	-39.9	16.2	0.00e+00	0	57	0	1240465408	48	4248
2026-01-11 00:29:19.29	238.81	30.52	-38.3	-40.0	16.0	0.00e+00	0	57	0	1243611136	48	4298
2026-01-11 00:29:20.29	238.62	30.36	-38.2	-39.9	16.1	0.00e+00	0	57	0	1246756864	48	4289
2026-01-11 00:29:21.30	238.44	30.19	-38.1	-39.8	16.2	0.00e+00	0	57	0	1249902592	48	4207
2026-01-11 00:29:22.31	238.26	30.03	-37.9	-39.5	16.4	0.00e+00	0	57	0	1253048320	47	4328
2026-01-11 00:29:23.32	238.08	29.86	-37.8	-39.4	16.4	0.00e+00	0	57	0	1256194048	47	4290
2026-01-11 00:29:24.33	237.90	29.70	-37.9	-39.5	16.4	0.00e+00	0	57	0	1259339776	47	4338
2026-01-11 00:29:25.34	237.72	29.54	-38.1	-39.7	16.2	0.00e+00	0	57	0	1262485504	47	4439
2026-01-11 00:29:26.35	237.54	29.37	-38.2	-40.0	15.9	0.00e+00	0	57	0	1265631232	47	4558
2026-01-11 00:29:27.36	237.37	29.21	-38.3	-40.1	15.8	0.00e+00	0	57	0	1268776960	47	4609
2026-01-11 00:29:28.37	237.20	29.05	-38.3	-40.1	15.8	0.00e+00	0	57	0	1271922688	47	4600
2026-01-11 00:29:29.38	237.03	28.89	-38.3	-40.0	15.9	0.00e+00	0	57	0	1275068416	47	4594
2026-01-11 00:29:30.39	236.86	28.73	-38.2	-40.0	15.9	0.00e+00	0	57	0	1278214144	47	4551
2026-01-11 00:29:31.40	236.69	28.57	-38.4	-40.2	15.7	0.00e+00	0	57	0	1281359872	47	4666
2026-01-11 00:29:32.41	236.53	28.41	-38.4	-40.3	15.5	0.00e+00	0	57	0	1284505600	47	4724
2026-01-11 00:29:33.41	236.36	28.25	-38.5	-40.4	15.5	0.00e+00	0	57	0	1287651328	47	4776
2026-01-11 00:29:34.42	236.20	28.10	-38.4	-40.2	15.7	0.00e+00	0	57	0	1290797056	47	4672
2026-01-11 00:29:35.43	236.04	27.94	-38.1	-39.8	16.0	0.00e+00	0	57	0	1293942784	47	4481
2026-01-11 00:29:36.44	235.88	27.78	-37.9	-39.5	16.3	0.00e+00	0	57	0	1297088512	47	4334
2026-01-11 00:29:37.45	235.73	27.63	-37.8	-39.4	16.4	0.00e+00	0	57	0	1300234240	47	4270
2026-01-11 00:29:38.46	235.57	27.47	-37.7	-39.4	16.4	0.00e+00	0	57	0	1303379968	47	4254
2026-01-11 00:29:39.47	235.42	27.32	-37.8	-39.4	16.4	0.00e+00	0	57	0	1306525696	47	4285
2026-01-11 00:29:40.48	235.26	27.16	-37.9	-39.6	16.3	0.00e+00	0	57	0	1309671424	47	4345
2026-01-11 00:29:41.49	235.11	27.01	-37.9	-39.5	16.3	0.00e+00	0	57	0	1312817152	47	4334
2026-01-11 00:29:42.50	234.96	26.86	-37.8	-39.5	16.4	0.00e+00	0	57	0	1315962880	47	4295
2026-01-11 00:29:43.51	234.82	26.70	-37.7	-39.3	16.5	0.00e+00	0	57	0	1319108608	47	4229
2026-01-11 00:29:44.52	234.67	26.55	-37.6	-39.2	16.6	0.00e+00	0	57	0	1322254336	47	4177
2026-01-11 00:29:45.53	234.52	26.40	-37.6	-39.2	16.7	0.00e+00	0	57	0	1325400064	47	4151
2026-01-11 00:29:46.54	234.38	26.25	-37.7	-39.3	16.5	0.00e+00	0	57	0	1328545792	47	4225
2026-01-11 00:29:47.55	234.24	26.10	-37.8	-39.5	16.3	0.00e+00	0	57	0	1331691520	47	4320
2026-01-11 00:29:48.56	234.10	25.95	-37.9	-39.6	16.2	0.00e+00	0	57	0	1334837248	47	4373
2026-01-11 00:29:49.57	233.96	25.81	-38.1	-39.8	16.0	0.00e+00	0	57	0	1337982976	47	4476
2026-01-11 00:29:50.58	233.82	25.66	-38.2	-40.0	15.9	0.00e+00	0	57	0	1341128704	47	4580
2026-01-11 00:29:51.59	233.68	25.51	-38.3	-40.1	15.7	0.00e+00	0	57	0	1344274432	47	4647
2026-01-11 00:29:52.60	233.54	25.37	-38.4	-40.2	15.6	0.00e+00	0	57	0	1347420160	47	4705
2026-01-11 00:29:53.61	233.41	25.22	-38.4	-40.3	15.6	0.00e+00	0	57	0	1350565888	47	4706
2026-01-11 00:29:54.62	233.28	25.07	-38.4	-40.2	15.6	0.00e+00	0	57	0	1353711616	47	4683
2026-01-11 00:29:55.63	233.14	24.93	-38.4	-40.2	15.6	0.00e+00	0	57	0	1356857344	47	4704
2026-01-11 00:29:56.64	233.01	24.79	-38.3	-40.1	15.7	0.00e+00	0	57	0	1360003072	47	4636
2026-01-11 00:29:57.65	232.88	24.64	-38.3	-40.0	15.8	0.00e+00	0	57	0	1363148800	47	4596
2026-01-11 00:29:58.66	232.75	24.50	-38.2	-40.0	15.9	0.00e+00	0	57	0	1366294528	47	4554
2026-01-11 00:29:59.66	232.63	24.36	-38.1	-39.9	16.0	0.00e+00	0	57	0	1369440256	47	4504
2026-01-11 00:30:00.67	232.50	24.22	-38.0	-39.7	16.1	0.00e+00	0	57	0	1372585984	47	4410
2026-01-11 00:30:01.69	232.37	24.08	-38.0	-39.7	16.2	0.00e+00	0	57	0	1375731712	47	4403
2026-01-11 00:30:02.69	232.25	23.94	-37.9	-39.6	16.2	0.00e+00	0	57	0	1378877440	47	4359
2026-01-11 00:30:03.70	232.13	23.80	-37.9	-39.5	16.3	0.00e+00	0	57	0	1382023168	47	4335
2026-01-11 00:30:04.71	232.01	23.66	-37.9	-39.6	16.2	0.00e+00	0	57	0	1385168896	47	4352
2026-01-11 00:30:05.72	231.89	23.52	-37.9	-39.6	16.2	0.00e+00	0	57	0	1389363200	47	4386
2026-01-11 00:30:06.74	231.77	23.38	-37.9	-39.6	16.2	0.00e+00	0	57	0	1392508928	47	4343
2026-01-11 00:30:07.75	231.65	23.24	-37.9	-39.6	16.3	0.00e+00	0	57	0	1395654656	47	4347
2026-01-11 00:30:08.76	231.53	23.11	-37.9	-39.6	16.2	0.00e+00	0	57	0	1397751808	47	4343
2026-01-11 00:30:09.76	231.41	22.97	-37.9	-39.6	16.2	0.00e+00	0	57	0	1400897536	47	4347
2026-01-11 00:30:10.77	231.30	22.84	-37.8	-39.5	16.3	0.00e+00	0	57	0	1405091840	47	4297
2026-01-11 00:30:11.78	231.18	22.70	-37.7	-39.4	16.4	0.00e+00	0	57	0	1408237568	47	4245
2026-01-11 00:30:12.79	231.07	22.57	-37.7	-39.3	16.5	0.00e+00	0	57	0	1411383296	47	4220
2026-01-11 00:30:13.80	230.96	22.43	-37.7	-39.3	16.4	0.00e+00	0	57	0	1414529024	47	4233
2026-01-11 00:30:14.81	230.85	22.30	-37.7	-39.4	16.4	0.00e+00	0	57	0	1417674752	47	4247
2026-01-11 00:30:15.82	230.74	22.17	-37.8	-39.4	16.3	0.00e+00	0	57	0	1420820480	47	4278
2026-01-11 00:30:16.83	230.63	22.04	-37.8	-39.5	16.3	0.00e+00	0	57	0	1423966208	47	4314
2026-01-11 00:30:17.85	230.52	21.90	-37.8	-39.5	16.2	0.00e+00	0	57	0	1427111936	47	4327
2026-01-11 00:30:18.86	230.41	21.77	-37.9	-39.6	16.2	0.00e+00	0	57	0	1430257664	47	4341
2026-01-11 00:30:19.87	230.30	21.64	-37.8	-39.5	16.3	0.00e+00	0	57	0	1433403392	47	4320
2026-01-11 00:30:20.88	230.20	21.51	-37.9	-39.6	16.2	0.00e+00	0	57	0	1436549120	47	4364
2026-01-11 00:30:21.89	230.09	21.38	-37.9	-39.6	16.1	0.00e+00	0	57	0	1439694848	47	4379
2026-01-11 00:30:22.90	229.99	21.26	-38.0	-39.7	16.1	0.00e+00	0	57	0	1442840576	47	4400
2026-01-11 00:30:23.91	229.88	21.13	-38.0	-39.7	16.0	0.00e+00	0	57	0	1445986304	47	4431
2026-01-11 00:30:24.92	229.78	21.00	-38.1	-39.8	16.0	0.00e+00	0	57	0	1449132032	47	4473
2026-01-11 00:30:25.93	229.68	20.87	-38.1	-39.8	16.0	0.00e+00	0	57	0	1452277760	47	4465
2026-01-11 00:30:26.94	229.58	20.75	-38.0	-39.7	16.0	0.00e+00	0	57	0	1455423488	47	4433
2026-01-11 00:30:27.95	229.48	20.62	-38.0	-39.8	16.0	0.00e+00	0	57	0	1458569216	47	4464
2026-01-11 00:30:28.96	229.38	20.50	-37.9	-39.7	16.1	0.00e+00	0	57	0	1461714944	47	4399
2026-01-11 00:30:29.97	229.28	20.37	-37.9	-39.6	16.2	0.00e+00	0	57	0	1464860672	47	4351
2026-01-11 00:30:30.98	229.19	20.25	-37.8	-39.4	16.3	0.00e+00	0	57	0	1468006400	47	4281
2026-01-11 00:30:31.99	229.09	20.12	-37.7	-39.4	16.3	0.00e+00	0	57	0	1471152128	47	4259
2026-01-11 00:30:33.00	228.99	20.00	-37.6	-39.3	16.4	0.00e+00	0	57	0	1474297856	47	4201
2026-01-11 00:30:34.01	228.90	19.88	-37.6	-39.2	16.5	0.00e+00	0	57	0	1477443584	47	4177
2026-01-11 00:30:35.02	228.80	19.76	-37.5	-39.1	16.6	0.00e+00	0	57	0	1480589312	47	4129
2026-01-11 00:30:36.03	228.71	19.63	-37.5	-39.1	16.6	0.00e+00	0	57	0	1483735040	47	4111
2026-01-11 00:30:37.03	228.62	19.51	-37.5	-39.1	16.6	0.00e+00	0	57	0	1486880768	46	4371
2026-01-11 00:30:38.04	228.53	19.39	-37.5	-39.2	16.5	0.00e+00	0	57	0	1490026496	46	4399
2026-01-11 00:30:39.05	228.44	19.27	-37.6	-39.2	16.5	0.00e+00	0	57	0	1493172224	46	4399
2026-01-11 00:30:40.06	228.35	19.15	-37.6	-39.2	16.5	0.00e+00	0	57	0	1496317952	46	4411
2026-01-11 00:30:41.07	228.26	19.03	-37.7	-39.3	16.4	0.00e+00	0	57	0	1499463680	46	4475
2026-01-11 00:30:42.08	228.17	18.92	-37.7	-39.4	16.3	0.00e+00	0	57	0	1502609408	46	4497
2026-01-11 00:30:43.09	228.08	18.80	-37.8	-39.5	16.2	0.00e+00	0	57	0	1505755136	46	4575
2026-01-11 00:30:44.10	227.99	18.68	-37.9	-39.7	16.1	0.00e+00	0	57	0	1508900864	46	4662
2026-01-11 00:30:45.11	227.90	18.56	-38.0	-39.7	16.0	0.00e+00	0	57	0	1512046592	46	4694
2026-01-11 00:30:46.12	227.82	18.45	-38.1	-39.8	15.9	0.00e+00	0	57	0	1515192320	46	4728
2026-01-11 00:30:47.13	227.73	18.33	-38.1	-39.9	15.8	0.00e+00	0	57	0	1518338048	46	4789
2026-01-11 00:30:48.14	227.65	18.21	-38.2	-40.0	15.7	7.00e-07	0	57	0	1521483776	47	4584
2026-01-11 00:30:49.15	227.56	18.10	-38.3	-40.1	15.6	0.00e+00	0	57	0	1524629504	47	4645
2026-01-11 00:30:50.16	227.48	17.98	-38.4	-40.2	15.5	0.00e+00	0	57	0	1527775232	47	4679
2026-01-11 00:30:51.18	227.40	17.87	-38.4	-40.3	15.4	0.00e+00	0	57	0	1530920960	47	4716
2026-01-11 00:30:52.19	227.31	17.75	-38.5	-40.4	15.3	0.00e+00	0	57	0	1534066688	47	4764
2026-01-11 00:30:53.19	227.23	17.64	-38.5	-40.4	15.3	0.00e+00	0	57	0	1537212416	47	4771
2026-01-11 00:30:54.20	227.15	17.53	-38.5	-40.4	15.3	0.00e+00	0	57	0	1540358144	47	4765
2026-01-11 00:30:55.21	227.07	17.42	-38.6	-40.5	15.2	0.00e+00	0	57	0	1543503872	47	4816
2026-01-11 00:30:56.22	226.99	17.30	-38.6	-40.5	15.2	0.00e+00	0	57	0	1546649600	47	4851
2026-01-11 00:30:57.23	226.91	17.19	-38.7	-40.6	15.1	7.00e-07	0	57	0	1549795328	47	4907
2026-01-11 00:30:58.24	226.83	17.08	-38.6	-40.5	15.1	0.00e+00	0	57	0	1552941056	47	4866
2026-01-11 00:30:59.25	226.76	16.97	-38.7	-40.6	15.1	0.00e+00	0	57	0	1556086784	47	4901
2026-01-11 00:31:00.26	226.68	16.86	-38.7	-40.7	15.0	0.00e+00	0	57	0	1559232512	47	4937
2026-01-11 00:31:01.27	226.60	16.75	-38.7	-40.7	15.0	0.00e+00	0	57	0	1562378240	47	4940
2026-01-11 00:31:02.28	226.53	16.64	-38.8	-40.8	15.0	0.00e+00	0	57	0	1565523968	48	4727
2026-01-11 00:31:03.28	226.45	16.53	-38.9	-40.8	14.9	0.00e+00	0	57	0	1568669696	48	4758
2026-01-11 00:31:04.30	226.38	16.42	-38.8	-40.8	14.9	0.00e+00	0	57	0	1571815424	48	4723
2026-01-11 00:31:05.31	226.30	16.32	-38.8	-40.8	15.0	0.00e+00	0	57	0	1574961152	48	4713
2026-01-11 00:31:06.32	226.23	16.21	-38.8	-40.7	15.0	0.00e+00	0	57	0	1578106880	48	4690
2026-01-11 00:31:07.33	226.15	16.10	-38.7	-40.7	15.0	0.00e+00	0	57	0	1581252608	48	4664
2026-01-11 00:31:08.34	226.08	15.99	-38.7	-40.6	15.1	0.00e+00	0	57	0	1584398336	48	4630
2026-01-11 00:31:09.35	226.01	15.89	-38.7	-40.6	15.1	0.00e+00	0	57	0	1587544064	48	4615
2026-01-11 00:31:10.36	225.94	15.78	-38.6	-40.4	15.2	0.00e+00	0	57	0	1590689792	48	4541
2026-01-11 00:31:11.37	225.87	15.68	-38.5	-40.4	15.3	0.00e+00	0	57	0	1593835520	48	4520
2026-01-11 00:31:12.38	225.79	15.57	-38.5	-40.3	15.4	0.00e+00	0	57	0	1596981248	48	4483
2026-01-11 00:31:13.39	225.72	15.47	-38.5	-40.3	15.4	0.00e+00	0	57	0	1600126976	48	4474
2026-01-11 00:31:14.40	225.65	15.36	-38.5	-40.3	15.4	0.00e+00	0	57	0	1603272704	48	4467
2026-01-11 00:31:15.41	225.58	15.26	-38.4	-40.2	15.5	0.00e+00	0	57	0	1606418432	48	4409
2026-01-11 00:31:16.42	225.52	15.16	-38.4	-40.2	15.5	0.00e+00	0	57	0	1609564160	48	4405
2026-01-11 00:31:17.43	225.45	15.05	-38.4	-40.2	15.5	0.00e+00	0	57	0	1612709888	48	4400
2026-01-11 00:31:18.44	225.38	14.95	-38.3	-40.2	15.5	0.00e+00	0	57	0	1615855616	48	4392
2026-01-11 00:31:19.44	225.31	14.85	-38.4	-40.2	15.4	0.00e+00	0	57	0	1619001344	48	4415
2026-01-11 00:31:20.45	225.25	14.75	-38.4	-40.2	15.4	7.00e-07	0	57	0	1622147072	48	4435
2026-01-11 00:31:21.46	225.18	14.64	-38.4	-40.2	15.4	0.00e+00	0	57	0	1625292800	48	4420
2026-01-11 00:31:22.47	225.11	14.54	-38.4	-40.3	15.4	0.00e+00	0	57	0	1628438528	48	4447
2026-01-11 00:31:23.48	225.05	14.44	-38.5	-40.3	15.3	0.00e+00	0	57	0	1631584256	48	4487
2026-01-11 00:31:24.49	224.98	14.34	-38.4	-40.3	15.3	0.00e+00	0	57	0	1634729984	48	4471
2026-01-11 00:31:25.50	224.92	14.24	-38.5	-40.4	15.2	0.00e+00	0	57	0	1637875712	48	4523
2026-01-11 00:31:26.51	224.85	14.14	-38.6	-40.5	15.2	0.00e+00	0	57	0	1641021440	48	4547
2026-01-11 00:31:27.52	224.79	14.04	-38.6	-40.5	15.1	0.00e+00	0	57	0	1644167168	48	4577
2026-01-11 00:31:28.53	224.73	13.94	-38.7	-40.6	15.0	0.00e+00	0	57	0	1647312896	48	4625
2026-01-11 00:31:29.54	224.67	13.85	-38.7	-40.6	15.0	7.00e-07	0	57	0	1650458624	48	4629
2026-01-11 00:31:30.55	224.60	13.75	-38.7	-40.7	14.9	0.00e+00	0	57	0	1653604352	48	4672
2026-01-11 00:31:31.56	224.54	13.65	-38.8	-40.8	14.8	0.00e+00	0	57	0	1656750080	48	4713
2026-01-11 00:31:32.58	224.48	13.55	-38.8	-40.9	14.7	0.00e+00	0	57	0	1659895808	48	4764
2026-01-11 00:31:33.59	224.42	13.45	-38.9	-40.9	14.7	0.00e+00	0	57	0	1663041536	48	4801
2026-01-11 00:31:34.59	224.36	13.36	-39.0	-41.0	14.5	7.00e-07	0	57	0	1666187264	48	4859
2026-01-11 00:31:35.60	224.30	13.26	-39.0	-41.1	14.5	0.00e+00	0	57	0	1669332992	48	4873
2026-01-11 00:31:36.61	224.24	13.17	-39.1	-41.2	14.4	1.50e-06	0	57	0	1672478720	48	4956
2026-01-11 00:31:37.62	224.18	13.07	-39.2	-41.3	14.3	1.50e-06	0	57	0	1675624448	48	5002
2026-01-11 00:31:38.63	224.12	12.97	-39.2	-41.4	14.1	1.50e-06	0	57	0	1678770176	49	4789
2026-01-11 00:31:39.64	224.06	12.88	-39.3	-41.5	14.0	2.20e-06	0	57	0	1681915904	49	4870
2026-01-11 00:31:40.66	224.00	12.78	-39.4	-41.6	13.9	7.00e-07	0	57	0	1685061632	49	4899
2026-01-11 00:31:41.66	223.94	12.69	-39.4	-41.7	13.8	3.80e-06	0	57	0	1688207360	49	4957
2026-01-11 00:31:42.67	223.89	12.60	-39.4	-41.7	13.8	7.00e-07	0	57	0	1691353088	49	4932
2026-01-11 00:31:43.68	223.83	12.50	-39.5	-41.8	13.7	5.30e-06	0	57	0	1694498816	49	5032
2026-01-11 00:31:44.69	223.77	12.41	-39.5	-41.8	13.7	4.50e-06	0	57	0	1697644544	49	5040
2026-01-11 00:31:45.70	223.72	12.32	-39.6	-41.9	13.6	9.10e-06	0	57	0	1700790272	49	5083
2026-01-11 00:31:46.71	223.66	12.22	-39.6	-42.0	13.5	1.14e-05	0	57	0	1703936000	49	5111
2026-01-11 00:31:47.72	223.60	12.13	-39.6	-41.9	13.5	9.90e-06	0	57	0	1708130304	49	5067
2026-01-11 00:31:48.73	223.55	12.04	-39.4	-41.7	13.8	5.30e-06	0	57	0	1711276032	49	4965
2026-01-11 00:31:49.75	223.49	11.95	-39.4	-41.7	13.7	2.20e-06	0	57	0	1713373184	49	4967
2026-01-11 00:31:50.76	223.44	11.85	-39.2	-41.5	14.0	1.50e-06	0	57	0	1716518912	49	4825
2026-01-11 00:31:51.77	223.39	11.76	-39.3	-41.5	13.9	4.50e-06	0	57	0	1719664640	49	4842
2026-01-11 00:31:52.78	223.33	11.67	-39.3	-41.5	13.9	6.80e-06	0	57	0	1723858944	49	4852
2026-01-11 00:31:53.79	223.28	11.58	-39.1	-41.3	14.1	3.00e-06	0	57	0	1727004672	49	4752
2026-01-11 00:31:54.80	223.22	11.49	-39.1	-41.3	14.1	7.00e-07	0	57	0	1730150400	49	4719
2026-01-11 00:31:55.81	223.17	11.40	-39.1	-41.3	14.1	1.50e-06	0	57	0	1733296128	49	4730
2026-01-11 00:31:56.82	223.12	11.31	-39.1	-41.3	14.0	0.00e+00	0	57	0	1735393280	49	4748
2026-01-11 00:31:57.83	223.07	11.22	-39.2	-41.4	14.0	2.20e-06	0	57	0	1739587584	49	4792
2026-01-11 00:31:58.84	223.02	11.13	-39.3	-41.6	13.8	4.50e-06	0	57	0	1742733312	49	4893
2026-01-11 00:31:59.85	222.96	11.05	-39.2	-41.5	13.9	4.50e-06	0	57	0	1745879040	49	4825
2026-01-11 00:32:00.86	222.91	10.96	-39.1	-41.3	14.0	4.50e-06	0	57	0	1749024768	49	4750
2026-01-11 00:32:01.87	222.86	10.87	-39.1	-41.3	14.0	3.80e-06	0	57	0	1752170496	49	4725
2026-01-11 00:32:02.88	222.81	10.78	-39.2	-41.4	14.0	3.00e-06	0	57	0	1755316224	49	4780
2026-01-11 00:32:03.89	222.76	10.69	-39.1	-41.3	14.0	7.00e-07	0	57	0	1758461952	49	4758
2026-01-11 00:32:04.90	222.71	10.61	-39.1	-41.3	14.0	1.50e-06	0	57	0	1761607680	49	4731
2026-01-11 00:32:05.91	222.66	10.52	-39.2	-41.4	13.9	7.00e-07	0	57	0	1764753408	49	4763
2026-01-11 00:32:06.92	222.61	10.43	-39.2	-41.4	14.0	3.80e-06	0	57	0	1767899136	49	4779
2026-01-11 00:32:07.93	222.56	10.35	-39.2	-41.4	13.9	2.20e-06	0	57	0	1771044864	49	4779
2026-01-11 00:32:08.94	222.51	10.26	-39.2	-41.3	13.9	3.00e-06	0	57	0	1774190592	49	4758
2026-01-11 00:32:09.95	222.47	10.17	-39.1	-41.3	14.0	3.80e-06	0	57	0	1777336320	49	4733
2026-01-11 00:32:10.96	222.42	10.09	-39.1	-41.4	13.9	3.80e-06	0	57	0	1780482048	49	4765
2026-01-11 00:32:11.97	222.37	10.00	-39.2	-41.4	13.8	3.00e-06	0	57	0	1783627776	49	4805
2026-01-11 00:32:12.98	222.32	9.92	-39.2	-41.4	13.9	8.30e-06	0	57	0	1786773504	49	4785
2026-01-11 00:32:13.99	222.28	9.83	-39.2	-41.4	13.9	4.50e-06	0	57	0	1789919232	49	4791
2026-01-11 00:32:15.00	222.23	9.75	-39.2	-41.5	13.7	5.30e-06	0	57	0	1793064960	49	4837
2026-01-11 00:32:16.01	222.18	9.67	-39.2	-41.5	13.7	6.10e-06	0	57	0	1796210688	49	4831
2026-01-11 00:32:17.02	222.14	9.58	-39.2	-41.5	13.8	6.80e-06	0	57	0	1799356416	49	4838
2026-01-11 00:32:18.03	222.09	9.50	-39.3	-41.6	13.7	6.10e-06	0	57	0	1802502144	49	4897
2026-01-11 00:32:19.04	222.04	9.41	-39.2	-41.5	13.7	8.30e-06	0	57	0	1805647872	49	4851
2026-01-11 00:32:20.05	222.00	9.33	-39.3	-41.7	13.6	1.06e-05	0	57	0	1808793600	49	4930
2026-01-11 00:32:21.05	221.95	9.25	-39.3	-41.6	13.6	6.80e-06	0	57	0	1811939328	49	4903
2026-01-11 00:32:22.06	221.91	9.17	-39.3	-41.6	13.6	6.80e-06	0	57	0	1815085056	49	4910
2026-01-11 00:32:23.07	221.86	9.08	-39.3	-41.7	13.5	1.52e-05	0	57	0	1818230784	49	4967
2026-01-11 00:32:24.08	221.82	9.00	-39.4	-41.8	13.4	1.14e-05	0	57	0	1821376512	49	5005
2026-01-11 00:32:25.09	221.78	8.92	-39.3	-41.7	13.5	4.50e-06	0	57	0	1824522240	49	4932
2026-01-11 00:32:26.10	221.73	8.84	-39.4	-41.8	13.4	1.22e-05	0	57	0	1827667968	49	5010
2026-01-11 00:32:27.11	221.69	8.76	-39.4	-41.9	13.3	2.05e-05	0	57	0	1830813696	49	5065
2026-01-11 00:32:28.12	221.64	8.68	-39.4	-41.9	13.2	1.29e-05	0	57	0	1833959424	49	5062
2026-01-11 00:32:29.13	221.60	8.60	-39.5	-42.0	13.1	2.67e-05	0	57	0	1837105152	49	5159
2026-01-11 00:32:30.14	221.56	8.51	-39.5	-42.0	13.1	2.59e-05	0	57	0	1840250880	49	5137
2026-01-11 00:32:31.15	221.52	8.43	-39.6	-42.2	12.9	4.73e-05	0	57	0	1843396608	49	5235
2026-01-11 00:32:32.16	221.47	8.35	-39.6	-42.2	12.9	4.27e-05	0	57	0	1846542336	49	5232
2026-01-11 00:32:33.17	221.43	8.27	-39.6	-42.1	13.0	3.89e-05	0	57	0	1849688064	49	5207
2026-01-11 00:32:34.18	221.39	8.19	-39.6	-42.2	12.9	5.64e-05	0	57	0	1852833792	49	5231
2026-01-11 00:32:35.19	221.35	8.12	-39.6	-42.2	12.8	6.63e-05	0	57	0	1855979520	49	5275
2026-01-11 00:32:36.20	221.31	8.04	-39.7	-42.3	12.7	6.56e-05	0	57	0	1859125248	49	5321
2026-01-11 00:32:37.21	221.26	7.96	-44.4	-56.5	3.8	1.49e+00	0	57	104	1860173824	59	15356
2026-01-11 00:32:38.22	221.22	7.88	-44.7	-57.3	3.8	1.49e+00	0	57	104	1860173824	60	15788
2026-01-11 00:32:39.23	221.18	7.80	-44.8	-57.3	3.8	1.49e+00	0	57	104	1860173824	60	15804
2026-01-11 00:32:40.24	221.14	7.72	-45.0	-57.4	3.8	1.49e+00	0	57	104	1860173824	60	16078
2026-01-11 00:32:41.25	221.10	7.64	-45.0	-57.5	3.8	1.49e+00	0	57	104	1860173824	60	16205
2026-01-11 00:32:42.26	221.06	7.57	-45.1	-57.6	3.8	1.49e+00	0	57	104	1860173824	60	16336
2026-01-11 00:32:43.27	221.02	7.49	-45.2	-57.6	3.8	1.49e+00	0	57	104	1860173824	60	16487
2026-01-11 00:32:44.28	220.98	7.41	-45.2	-57.7	3.8	1.49e+00	0	57	104	1860173824	60	16564
2026-01-11 00:32:45.29	220.94	7.33	-45.2	-57.6	3.8	1.49e+00	0	57	104	1860173824	60	16475
2026-01-11 00:32:46.30	220.90	7.26	-45.1	-57.6	3.8	1.49e+00	0	57	104	1860173824	60	16478
2026-01-11 00:32:47.31	220.87	7.18	-45.1	-57.6	3.8	1.49e+00	0	57	104	1860173824	60	16438
2026-01-11 00:32:48.32	220.83	7.10	-45.0	-57.6	3.8	1.49e+00	0	57	104	1860173824	60	16400
2026-01-11 00:32:49.33	220.79	7.03	-45.1	-57.6	3.8	1.49e+00	0	57	104	1860173824	60	16401
2026-01-11 00:32:50.34	220.75	6.95	-45.1	-57.6	3.8	1.49e+00	0	57	104	1860173824	60	16350
2026-01-11 00:32:51.35	220.71	6.88	-45.0	-57.6	3.8	1.49e+00	0	57	104	1860173824	60	16380
2026-01-11 00:32:52.36	220.67	6.80	-45.1	-57.6	3.8	1.49e+00	0	57	104	1860173824	60	16467
2026-01-11 00:32:53.37	220.64	6.72	-45.1	-57.6	3.8	1.49e+00	0	57	104	1860173824	60	16447
2026-01-11 00:32:54.38	220.60	6.65	-45.1	-57.6	3.8	1.49e+00	0	57	104	1860173824	60	16379
2026-01-11 00:32:55.39	220.56	6.57	-45.0	-57.6	3.8	1.49e+00	0	57	104	1860173824	60	16364
2026-01-11 00:32:56.40	220.52	6.50	-45.0	-57.6	3.8	1.49e+00	0	57	104	1860173824	60	16354
2026-01-11 00:32:57.41	220.49	6.42	-45.0	-57.5	3.8	1.49e+00	0	57	104	1860173824	60	16307
2026-01-11 00:32:58.43	220.45	6.35	-45.0	-57.6	3.8	1.49e+00	0	57	104	1860173824	60	16384
2026-01-11 00:32:59.44	220.41	6.28	-45.0	-57.6	3.8	1.49e+00	0	57	104	1860173824	60	16360
2026-01-11 00:33:00.45	220.38	6.20	-45.0	-57.6	3.8	1.49e+00	0	57	104	1860173824	60	16359
2026-01-11 00:33:01.46	220.34	6.13	-45.0	-57.5	3.8	1.49e+00	0	57	104	1860173824	60	16295
2026-01-11 00:33:02.47	220.31	6.05	-45.0	-57.5	3.8	1.49e+00	0	57	104	1860173824	60	16303
2026-01-11 00:33:03.48	220.27	5.98	-45.0	-57.5	3.8	1.49e+00	0	57	104	1860173824	60	16300
2026-01-11 00:33:04.49	220.23	5.91	-45.0	-57.5	3.8	1.49e+00	0	57	104	1860173824	60	16310
2026-01-11 00:33:05.51	220.20	5.83	-45.0	-57.5	3.8	1.49e+00	0	57	104	1860173824	60	16276
2026-01-11 00:33:06.52	220.16	5.76	-45.0	-57.5	3.8	1.49e+00	0	57	104	1860173824	60	16293
2026-01-11 00:33:07.53	220.13	5.69	-45.0	-57.5	3.8	1.49e+00	0	57	104	1860173824	60	16266
2026-01-11 00:33:08.54	220.09	5.62	-44.9	-57.5	3.8	1.49e+00	0	57	104	1860173824	60	16289
2026-01-11 00:33:09.55	220.06	5.54	-45.0	-57.5	3.8	1.49e+00	0	57	104	1860173824	60	16273
2026-01-11 00:33:10.56	220.03	5.47	-45.0	-57.5	3.8	1.49e+00	0	57	104	1860173824	60	16208
2026-01-11 00:33:11.57	219.99	5.40	-45.0	-57.5	3.8	1.49e+00	0	57	104	1860173824	60	16242
2026-01-11 00:33:12.58	219.96	5.33	-44.9	-57.5	3.8	1.49e+00	0	57	104	1860173824	60	16224
2026-01-11 00:33:13.59	219.92	5.26	-45.0	-57.5	3.8	1.49e+00	0	57	104	1860173824	60	16279
2026-01-11 00:33:14.60	219.89	5.18	-45.0	-57.5	3.8	1.49e+00	0	57	104	1860173824	60	16265
2026-01-11 00:33:15.61	219.86	5.11	-45.0	-57.5	3.8	1.49e+00	0	57	104	1860173824	60	16214
2026-01-11 00:33:16.63	219.82	5.04	-45.0	-57.5	3.8	1.49e+00	0	57	104	1860173824	60	16242
2026-01-11 00:33:17.64	219.79	4.97	-45.0	-57.5	3.8	1.49e+00	0	57	104	1860173824	60	16260
2026-01-11 00:33:18.65	219.76	4.90	-45.0	-57.5	3.8	1.49e+00	0	57	104	1860173824	60	16247
2026-01-11 00:33:19.66	219.72	4.83	-45.0	-57.5	3.8	1.49e+00	0	57	104	1860173824	60	16255
2026-01-11 00:33:20.67	219.69	4.76	-45.0	-57.5	3.8	1.49e+00	0	57	104	1860173824	60	16214
2026-01-11 00:33:21.68	219.66	4.69	-45.0	-57.5	3.8	1.49e+00	0	57	104	1860173824	60	16246
2026-01-11 00:33:22.69	219.63	4.62	-45.0	-57.5	3.8	1.49e+00	0	57	104	1860173824	60	16227
2026-01-11 00:33:23.70	219.59	4.55	-45.0	-57.5	3.8	1.49e+00	0	57	104	1860173824	60	16191
2026-01-11 00:33:24.71	219.56	4.48	-45.0	-57.5	3.8	1.49e+00	0	57	104	1860173824	60	16209
2026-01-11 00:33:25.73	219.53	4.41	-45.0	-57.5	3.8	1.49e+00	0	57	104	1860173824	60	16249
2026-01-11 00:33:26.74	219.50	4.34	-45.0	-57.5	3.8	1.49e+00	0	57	104	1860173824	60	16230
2026-01-11 00:33:27.75	219.47	4.27	-45.0	-57.5	3.8	1.49e+00	0	57	104	1860173824	60	16206
2026-01-11 00:33:28.76	219.44	4.20	-45.0	-57.5	3.8	1.49e+00	0	57	104	1860173824	60	16253
2026-01-11 00:33:29.77	219.40	4.13	-45.0	-57.5	3.8	1.49e+00	0	57	104	1860173824	60	16186
2026-01-11 00:33:30.78	219.37	4.07	-45.0	-57.5	3.8	1.49e+00	0	57	104	1860173824	60	16259
2026-01-11 00:33:31.79	219.34	4.00	-45.0	-57.5	3.8	1.49e+00	0	57	104	1860173824	60	16230
2026-01-11 00:33:32.80	219.31	3.93	-44.9	-57.5	3.8	1.49e+00	0	57	104	1860173824	60	16185
2026-01-11 00:33:33.81	219.28	3.86	-44.8	-57.5	3.8	1.49e+00	0	57	104	1860173824	60	16213
