passes_logs/2026/01/11/R2.0S_Moscow/R2.0S_Moscow__20260111_150600_FENGYUN_3E_rec.log

#Pass ID: 20260111_150600_FENGYUN 3E
#Satellite: FENGYUN 3E
#Configuration: FENGYUN 3E
#almurnet v.1.7.20251203
#Start time: 2026-01-11 15:06:01

#Version: 2.2.20231116
#Station: R2.0S_Moscow
#Location: 37.707566 lon 55.798166 lat
#TLE: 1 49008U 21062A   26010.98903141  .00000148  00000+0  90257-4 0  9995
#TLE: 2 49008  98.7490  16.1644 0001865 146.3673 213.7622 14.19884943234274

#Time	Az	El	Level	Level2	SNR	BER	BlckErr	Temp	State	Recorded	gain1	gain2
2026-01-11 15:06:01.19	187.27	2.05	-44.4	-55.1	3.8	8.46e-01	0	47	0	0	59	12374
2026-01-11 15:06:02.19	187.32	2.11	-44.4	-55.2	3.8	8.47e-01	0	48	104	0	59	12388
2026-01-11 15:06:03.21	187.36	2.17	-44.4	-55.1	3.8	8.46e-01	0	48	104	0	59	12373
2026-01-11 15:06:04.22	187.40	2.23	-44.4	-55.1	3.8	8.46e-01	0	48	104	0	59	12349
2026-01-11 15:06:05.23	187.45	2.30	-44.4	-55.2	3.8	8.47e-01	0	48	104	0	59	12377
2026-01-11 15:06:06.24	187.49	2.36	-44.4	-55.1	3.8	8.45e-01	0	48	104	0	59	12358
2026-01-11 15:06:07.25	187.54	2.42	-44.4	-55.2	3.8	8.46e-01	0	48	104	0	59	12378
2026-01-11 15:06:08.26	187.58	2.48	-44.4	-55.2	3.8	8.45e-01	0	48	104	0	59	12377
2026-01-11 15:06:09.27	187.63	2.55	-44.4	-55.2	3.8	8.46e-01	0	48	104	0	59	12406
2026-01-11 15:06:10.28	187.67	2.61	-44.4	-55.1	3.8	8.45e-01	0	48	104	0	59	12319
2026-01-11 15:06:11.30	187.72	2.67	-44.4	-55.2	3.8	8.46e-01	0	48	104	0	59	12392
2026-01-11 15:06:12.31	187.76	2.74	-44.4	-55.1	3.8	8.45e-01	0	48	104	0	59	12351
2026-01-11 15:06:13.32	187.81	2.80	-44.4	-55.2	3.8	8.46e-01	0	49	104	0	59	12377
2026-01-11 15:06:14.33	187.85	2.86	-44.4	-55.1	3.8	8.46e-01	0	49	104	0	59	12337
2026-01-11 15:06:15.34	187.90	2.93	-44.4	-55.2	3.8	8.46e-01	0	49	104	0	59	12425
2026-01-11 15:06:16.35	187.95	2.99	-44.4	-55.2	3.8	8.45e-01	0	49	104	0	59	12410
2026-01-11 15:06:17.36	187.99	3.05	-44.4	-55.1	3.8	8.46e-01	0	49	104	0	59	12366
2026-01-11 15:06:18.37	188.04	3.12	-44.4	-55.1	3.8	8.46e-01	0	49	104	0	59	12362
2026-01-11 15:06:19.38	188.09	3.18	-44.4	-55.1	3.8	8.46e-01	0	49	104	0	59	12346
2026-01-11 15:06:20.39	188.13	3.25	-44.4	-55.1	3.8	8.45e-01	0	49	104	0	59	12335
2026-01-11 15:06:21.40	188.18	3.31	-44.4	-55.1	3.8	8.47e-01	0	49	104	0	59	12348
2026-01-11 15:06:22.41	188.23	3.38	-44.4	-55.2	3.8	8.45e-01	0	49	104	0	59	12390
2026-01-11 15:06:23.42	188.27	3.44	-44.4	-55.1	3.8	8.45e-01	0	49	104	0	59	12346
2026-01-11 15:06:24.44	188.32	3.51	-44.4	-55.2	3.8	8.47e-01	0	49	104	0	59	12398
2026-01-11 15:06:25.45	188.37	3.57	-44.4	-55.1	3.8	8.46e-01	0	49	104	0	59	12341
2026-01-11 15:06:26.46	188.42	3.64	-44.4	-55.1	3.8	8.45e-01	0	50	104	0	59	12343
2026-01-11 15:06:27.47	188.47	3.70	-44.4	-55.1	3.8	8.45e-01	0	50	104	0	59	12359
2026-01-11 15:06:28.48	188.52	3.77	-44.4	-55.2	3.8	8.46e-01	0	50	104	0	59	12396
2026-01-11 15:06:29.49	188.56	3.83	-44.4	-55.1	3.8	8.46e-01	0	50	104	0	59	12365
2026-01-11 15:06:30.50	188.61	3.90	-44.4	-55.1	3.8	8.46e-01	0	50	104	0	59	12322
2026-01-11 15:06:31.51	188.66	3.96	-44.4	-55.1	3.8	8.46e-01	0	50	104	0	59	12343
2026-01-11 15:06:32.52	188.71	4.03	-44.4	-55.1	3.8	8.46e-01	0	50	104	0	59	12373
2026-01-11 15:06:33.53	188.76	4.10	-44.4	-55.1	3.8	8.47e-01	0	50	104	0	59	12312
2026-01-11 15:06:34.54	188.81	4.16	-44.4	-55.1	3.8	8.45e-01	0	50	104	0	59	12335
2026-01-11 15:06:35.55	188.86	4.23	-44.4	-55.1	3.8	8.46e-01	0	50	104	0	59	12331
2026-01-11 15:06:36.56	188.91	4.29	-44.4	-55.1	3.8	8.47e-01	0	50	104	0	59	12306
2026-01-11 15:06:37.58	188.96	4.36	-44.4	-55.1	3.8	8.46e-01	0	50	104	0	59	12258
2026-01-11 15:06:38.59	189.01	4.43	-44.4	-55.0	3.8	8.46e-01	0	50	104	0	59	12206
2026-01-11 15:06:39.60	189.06	4.50	-44.4	-54.9	3.8	8.46e-01	0	50	104	0	59	11977
2026-01-11 15:06:40.61	189.11	4.56	-44.3	-54.8	3.8	8.45e-01	0	50	104	0	59	11844
2026-01-11 15:06:41.62	189.17	4.63	-44.3	-54.7	3.8	8.46e-01	0	51	104	0	59	11697
2026-01-11 15:06:42.63	189.22	4.70	-44.3	-54.6	3.8	8.45e-01	0	50	104	0	59	11630
2026-01-11 15:06:43.64	189.27	4.77	-44.3	-54.6	3.8	8.46e-01	0	51	104	0	59	11575
2026-01-11 15:06:44.65	189.32	4.83	-44.3	-54.3	3.8	8.46e-01	0	51	104	0	59	11241
2026-01-11 15:06:45.66	189.37	4.90	-44.3	-54.2	3.8	8.45e-01	0	51	104	0	59	11088
2026-01-11 15:06:46.67	189.43	4.97	-44.2	-54.0	3.8	8.47e-01	0	51	104	0	59	10863
2026-01-11 15:06:47.69	189.48	5.04	-44.2	-53.9	3.8	8.47e-01	0	51	104	0	59	10756
2026-01-11 15:06:48.70	189.53	5.11	-44.2	-53.6	3.8	8.45e-01	0	51	104	0	59	10335
2026-01-11 15:06:49.71	189.58	5.17	-44.1	-53.2	3.8	8.46e-01	0	51	104	0	59	9941
2026-01-11 15:06:50.72	189.64	5.24	-44.0	-52.9	3.8	8.45e-01	0	51	104	0	59	9541
2026-01-11 15:06:51.73	189.69	5.31	-44.0	-52.7	4.0	8.45e-01	0	51	104	0	59	9288
2026-01-11 15:06:52.74	189.74	5.38	-44.0	-52.5	3.8	8.42e-01	0	51	104	0	58	9653
2026-01-11 15:06:53.75	189.80	5.45	-44.0	-52.3	3.9	8.44e-01	0	51	104	0	58	9490
2026-01-11 15:06:54.76	189.85	5.52	-43.9	-51.9	4.1	8.40e-01	0	51	0	0	58	9031
2026-01-11 15:06:55.77	189.91	5.59	-43.8	-51.4	4.2	8.36e-01	0	51	0	0	58	8549
2026-01-11 15:06:56.78	189.96	5.66	-43.8	-51.3	4.3	8.34e-01	0	51	0	0	58	8418
2026-01-11 15:06:57.80	190.02	5.73	-43.7	-51.2	4.3	8.36e-01	0	51	0	0	58	8280
2026-01-11 15:06:58.81	190.07	5.80	-43.6	-50.7	4.5	8.31e-01	0	51	0	0	58	7812
2026-01-11 15:06:59.82	190.13	5.87	-43.6	-50.7	4.5	8.23e-01	0	52	0	0	58	7869
2026-01-11 15:07:00.83	190.18	5.94	-43.5	-50.3	4.6	8.16e-01	0	52	0	0	58	7498
2026-01-11 15:07:01.84	190.24	6.01	-43.5	-50.3	4.7	8.13e-01	0	51	0	0	58	7460
2026-01-11 15:07:02.85	190.30	6.08	-43.4	-49.9	4.8	7.97e-01	0	52	0	0	57	7578
2026-01-11 15:07:03.86	190.35	6.15	-43.3	-49.7	4.9	7.88e-01	0	52	0	0	57	7447
2026-01-11 15:07:04.87	190.41	6.22	-43.4	-50.0	4.8	7.92e-01	0	52	0	0	57	7632
2026-01-11 15:07:05.88	190.47	6.29	-43.4	-50.0	4.8	7.90e-01	0	52	0	0	57	7651
2026-01-11 15:07:06.89	190.52	6.36	-43.4	-49.9	4.8	7.94e-01	0	52	0	0	57	7569
2026-01-11 15:07:07.91	190.58	6.44	-43.5	-50.3	4.6	8.01e-01	0	52	0	0	57	7990
2026-01-11 15:07:08.92	190.64	6.51	-43.4	-50.1	4.7	8.10e-01	0	52	0	0	57	7723
2026-01-11 15:07:09.93	190.70	6.58	-43.5	-50.3	4.6	7.97e-01	0	52	0	0	57	7970
2026-01-11 15:07:10.94	190.76	6.65	-43.4	-50.2	4.7	8.07e-01	0	52	0	0	57	7830
2026-01-11 15:07:11.95	190.82	6.72	-43.4	-49.8	4.9	7.91e-01	0	52	0	0	57	7520
2026-01-11 15:07:12.96	190.88	6.80	-43.2	-49.6	5.0	7.73e-01	0	52	0	0	57	7317
2026-01-11 15:07:13.97	190.93	6.87	-43.1	-49.0	5.3	7.46e-01	0	52	0	0	57	6841
2026-01-11 15:07:14.98	190.99	6.94	-42.7	-48.1	6.0	3.76e-01	0	52	0	3145728	56	6496
2026-01-11 15:07:15.99	191.05	7.01	-42.3	-47.2	6.6	2.57e-01	0	52	0	10485760	55	6254
2026-01-11 15:07:17.00	191.11	7.09	-41.8	-46.1	7.6	1.10e-01	0	52	0	18874368	54	5789
2026-01-11 15:07:18.02	191.18	7.16	-41.2	-45.1	8.6	4.91e-02	0	52	0	25165824	53	5471
2026-01-11 15:07:19.03	191.24	7.24	-40.9	-44.5	9.2	3.07e-02	0	52	0	32505856	52	5453
2026-01-11 15:07:20.04	191.30	7.31	-40.2	-43.4	10.3	8.26e-03	0	52	0	39845888	51	5086
2026-01-11 15:07:21.05	191.36	7.38	-39.8	-42.9	11.0	2.76e-03	0	52	0	47185920	50	5047
2026-01-11 15:07:22.06	191.42	7.46	-39.4	-42.2	11.6	9.18e-04	0	53	0	54525952	49	4968
2026-01-11 15:07:23.07	191.48	7.53	-38.9	-41.7	12.2	3.18e-04	0	53	0	61865984	48	4930
2026-01-11 15:07:24.08	191.54	7.61	-38.6	-41.2	12.6	1.09e-04	0	53	0	69206016	48	4692
2026-01-11 15:07:25.09	191.61	7.68	-38.1	-40.7	13.0	1.17e-04	0	53	0	76546048	47	4662
2026-01-11 15:07:26.10	191.67	7.75	-38.0	-40.5	13.2	3.31e-05	0	53	0	83886080	46	4816
2026-01-11 15:07:27.11	191.73	7.83	-37.9	-40.4	13.3	1.94e-05	0	53	0	91226112	46	4795
2026-01-11 15:07:28.12	191.80	7.91	-37.8	-40.3	13.4	1.37e-05	0	53	0	98566144	46	4721
2026-01-11 15:07:29.13	191.86	7.98	-37.9	-40.4	13.3	1.60e-05	0	53	0	105906176	46	4767
2026-01-11 15:07:30.14	191.92	8.06	-38.1	-40.7	12.9	3.43e-05	0	53	0	113246208	46	4964
2026-01-11 15:07:31.16	191.99	8.13	-43.4	-49.5	5.1	8.01e-01	0	53	0	117440512	57	7287
2026-01-11 15:07:32.16	192.05	8.21	-43.2	-49.6	4.9	5.31e-01	0	53	0	122683392	56	7722
2026-01-11 15:07:33.17	192.12	8.28	-40.2	-43.3	10.7	3.24e-03	0	53	0	130023424	50	5304
2026-01-11 15:07:34.18	192.18	8.36	-39.5	-42.4	11.6	1.29e-03	0	53	0	136314880	49	5054
2026-01-11 15:07:35.20	192.25	8.44	-41.7	-45.9	7.7	1.90e-01	0	53	0	144703488	54	5699
2026-01-11 15:07:36.21	192.31	8.51	-37.3	-39.7	14.0	1.02e-05	0	53	0	152043520	45	4688
2026-01-11 15:07:37.21	192.38	8.59	-37.5	-39.9	13.8	1.10e-06	0	53	0	158334976	45	4800
2026-01-11 15:07:38.23	192.45	8.67	-37.5	-39.9	13.8	3.40e-06	0	53	0	165675008	45	4807
2026-01-11 15:07:39.24	192.51	8.75	-37.6	-40.1	13.7	6.80e-06	0	53	0	173015040	45	4903
2026-01-11 15:07:40.25	192.58	8.82	-37.4	-39.8	14.0	3.40e-06	0	53	0	180355072	45	4709
2026-01-11 15:07:41.26	192.65	8.90	-37.3	-39.7	14.1	1.10e-06	0	53	0	187695104	45	4684
2026-01-11 15:07:42.27	192.72	8.98	-37.4	-39.8	13.9	3.40e-06	0	54	0	195035136	45	4751
2026-01-11 15:07:43.28	192.79	9.06	-37.3	-39.7	14.1	2.20e-06	0	53	0	202375168	45	4659
2026-01-11 15:07:44.29	192.85	9.14	-37.3	-39.7	14.1	3.40e-06	0	53	0	209715200	45	4682
2026-01-11 15:07:45.30	192.92	9.22	-37.3	-39.7	14.1	2.20e-06	0	53	0	217055232	45	4662
2026-01-11 15:07:46.31	192.99	9.29	-37.4	-39.8	14.0	0.00e+00	0	53	0	224395264	45	4743
2026-01-11 15:07:47.32	193.06	9.37	-37.2	-39.5	14.2	0.00e+00	0	53	0	231735296	45	4589
2026-01-11 15:07:48.34	193.13	9.45	-37.2	-39.6	14.2	0.00e+00	0	53	0	239075328	45	4631
2026-01-11 15:07:49.34	193.20	9.53	-37.2	-39.6	14.2	3.40e-06	0	53	0	246415360	45	4623
2026-01-11 15:07:50.35	193.27	9.61	-37.3	-39.6	14.2	0.00e+00	0	54	0	253755392	45	4639
2026-01-11 15:07:51.36	193.35	9.69	-37.2	-39.6	14.3	1.10e-06	0	54	0	261095424	45	4628
2026-01-11 15:07:52.37	193.42	9.77	-37.2	-39.5	14.3	1.10e-06	0	54	0	268435456	45	4594
2026-01-11 15:07:53.38	193.49	9.85	-37.2	-39.6	14.3	0.00e+00	0	54	0	275775488	45	4599
2026-01-11 15:07:54.39	193.56	9.93	-37.0	-39.4	14.5	0.00e+00	0	54	0	283115520	45	4516
2026-01-11 15:07:55.40	193.63	10.01	-37.1	-39.5	14.4	0.00e+00	0	54	0	290455552	45	4553
2026-01-11 15:07:56.41	193.71	10.09	-37.2	-39.6	14.3	0.00e+00	0	54	0	297795584	44	4900
2026-01-11 15:07:57.42	193.78	10.18	-37.0	-39.4	14.5	1.10e-06	0	54	0	304087040	44	4762
2026-01-11 15:07:58.43	193.85	10.26	-37.0	-39.3	14.6	0.00e+00	0	54	0	311427072	44	4746
2026-01-11 15:07:59.44	193.93	10.34	-36.9	-39.2	14.7	0.00e+00	0	54	0	319815680	44	4687
2026-01-11 15:08:00.45	194.00	10.42	-37.0	-39.3	14.6	0.00e+00	0	54	0	326107136	44	4741
2026-01-11 15:08:01.46	194.08	10.50	-37.0	-39.4	14.5	0.00e+00	0	54	0	333447168	44	4799
2026-01-11 15:08:02.47	194.15	10.59	-36.7	-39.0	15.0	0.00e+00	0	54	0	340787200	44	4562
2026-01-11 15:08:03.48	194.23	10.67	-36.8	-39.0	14.9	0.00e+00	0	54	0	348127232	44	4592
2026-01-11 15:08:04.49	194.31	10.75	-36.6	-38.8	15.1	0.00e+00	0	54	0	355467264	44	4487
2026-01-11 15:08:05.50	194.38	10.84	-36.7	-38.9	15.1	0.00e+00	0	54	0	362807296	44	4537
2026-01-11 15:08:06.51	194.46	10.92	-36.8	-39.0	14.9	0.00e+00	0	54	0	370147328	44	4593
2026-01-11 15:08:07.52	194.54	11.00	-36.6	-38.9	15.1	0.00e+00	0	54	0	377487360	44	4496
2026-01-11 15:08:08.53	194.62	11.09	-36.6	-38.8	15.2	0.00e+00	0	54	0	384827392	44	4477
2026-01-11 15:08:09.54	194.69	11.17	-36.6	-38.8	15.2	0.00e+00	0	54	0	392167424	44	4451
2026-01-11 15:08:10.55	194.77	11.25	-36.6	-38.8	15.2	0.00e+00	0	54	0	399507456	44	4462
2026-01-11 15:08:11.56	194.85	11.34	-36.5	-38.7	15.1	0.00e+00	0	54	0	406847488	43	4698
2026-01-11 15:08:12.57	194.93	11.42	-36.5	-38.7	15.2	0.00e+00	0	54	0	414187520	43	4663
2026-01-11 15:08:13.58	195.01	11.51	-36.4	-38.6	15.3	0.00e+00	0	54	0	421527552	43	4604
2026-01-11 15:08:14.59	195.09	11.59	-36.4	-38.6	15.3	0.00e+00	0	54	0	428867584	43	4622
2026-01-11 15:08:15.60	195.17	11.68	-36.4	-38.6	15.3	0.00e+00	0	54	0	436207616	43	4634
2026-01-11 15:08:16.61	195.26	11.77	-36.3	-38.5	15.5	0.00e+00	0	54	0	443547648	43	4546
2026-01-11 15:08:17.62	195.34	11.85	-36.4	-38.6	15.3	0.00e+00	0	54	0	450887680	43	4600
2026-01-11 15:08:18.64	195.42	11.94	-36.4	-38.6	15.3	0.00e+00	0	54	0	458227712	43	4636
2026-01-11 15:08:19.64	195.50	12.03	-36.4	-38.5	15.4	0.00e+00	0	54	0	465567744	43	4597
2026-01-11 15:08:20.65	195.59	12.11	-36.3	-38.5	15.4	0.00e+00	0	54	0	472907776	43	4564
2026-01-11 15:08:21.66	195.67	12.20	-36.2	-38.4	15.5	0.00e+00	0	54	0	479199232	43	4521
2026-01-11 15:08:22.67	195.76	12.29	-36.2	-38.3	15.6	0.00e+00	0	55	0	486539264	43	4475
2026-01-11 15:08:23.68	195.84	12.37	-36.3	-38.6	15.4	0.00e+00	0	54	0	493879296	43	4602
2026-01-11 15:08:24.69	195.93	12.46	-36.3	-38.5	15.5	0.00e+00	0	54	0	501219328	43	4546
2026-01-11 15:08:25.70	196.01	12.55	-36.2	-38.4	15.5	0.00e+00	0	55	0	508559360	43	4529
2026-01-11 15:08:26.71	196.10	12.64	-36.3	-38.5	15.5	0.00e+00	0	54	0	515899392	43	4548
2026-01-11 15:08:27.72	196.18	12.73	-35.9	-38.0	15.9	0.00e+00	0	54	0	523239424	42	4597
2026-01-11 15:08:28.73	196.27	12.82	-36.3	-38.5	15.5	0.00e+00	0	55	0	530579456	42	4841
2026-01-11 15:08:29.74	196.36	12.91	-36.3	-38.5	15.5	0.00e+00	0	55	0	537919488	42	4840
2026-01-11 15:08:30.75	196.45	13.00	-36.2	-38.4	15.5	0.00e+00	0	55	0	545259520	42	4806
2026-01-11 15:08:31.76	196.54	13.09	-36.3	-38.5	15.5	0.00e+00	0	54	0	552599552	42	4826
2026-01-11 15:08:32.77	196.63	13.18	-36.1	-38.3	15.7	0.00e+00	0	55	0	559939584	42	4713
2026-01-11 15:08:33.78	196.72	13.27	-36.3	-38.6	15.4	0.00e+00	0	55	0	567279616	42	4882
2026-01-11 15:08:34.79	196.81	13.36	-36.3	-38.6	15.4	0.00e+00	0	55	0	574619648	42	4872
2026-01-11 15:08:35.80	196.90	13.45	-36.2	-38.5	15.5	0.00e+00	0	55	0	581959680	42	4818
2026-01-11 15:08:36.81	196.99	13.54	-36.3	-38.6	15.4	0.00e+00	0	55	0	589299712	42	4872
2026-01-11 15:08:37.82	197.08	13.63	-36.3	-38.6	15.4	0.00e+00	0	55	0	596639744	42	4893
2026-01-11 15:08:38.83	197.17	13.72	-36.3	-38.5	15.5	0.00e+00	0	55	0	603979776	42	4821
2026-01-11 15:08:39.84	197.27	13.81	-36.2	-38.4	15.6	0.00e+00	0	55	0	611319808	42	4779
2026-01-11 15:08:40.85	197.36	13.91	-36.1	-38.3	15.7	0.00e+00	0	55	0	618659840	42	4727
2026-01-11 15:08:41.86	197.46	14.00	-36.1	-38.2	15.8	0.00e+00	0	55	0	625999872	42	4676
2026-01-11 15:08:42.87	197.55	14.09	-36.0	-38.1	15.9	0.00e+00	0	55	0	632291328	42	4647
2026-01-11 15:08:43.88	197.65	14.18	-36.0	-38.1	15.9	0.00e+00	0	55	0	639631360	42	4609
2026-01-11 15:08:44.89	197.74	14.28	-35.9	-38.0	16.0	0.00e+00	0	55	0	646971392	42	4567
2026-01-11 15:08:45.90	197.84	14.37	-35.9	-38.0	16.0	0.00e+00	0	55	0	654311424	42	4553
2026-01-11 15:08:46.91	197.94	14.47	-35.8	-37.9	16.1	0.00e+00	0	55	0	661651456	42	4513
2026-01-11 15:08:47.92	198.03	14.56	-35.8	-37.9	16.1	0.00e+00	0	55	0	668991488	42	4515
2026-01-11 15:08:48.93	198.13	14.65	-35.7	-37.7	16.3	0.00e+00	0	55	0	676331520	42	4414
2026-01-11 15:08:49.94	198.23	14.75	-35.8	-37.9	16.1	0.00e+00	0	55	0	683671552	42	4503
2026-01-11 15:08:50.95	198.33	14.85	-35.8	-37.8	16.1	0.00e+00	0	55	0	691011584	42	4490
2026-01-11 15:08:51.96	198.43	14.94	-35.8	-37.8	16.1	0.00e+00	0	55	0	698351616	42	4479
2026-01-11 15:08:52.97	198.53	15.04	-35.8	-37.8	16.2	0.00e+00	0	55	0	705691648	42	4481
2026-01-11 15:08:53.98	198.63	15.13	-35.6	-37.7	16.3	0.00e+00	0	55	0	713031680	42	4392
2026-01-11 15:08:54.99	198.73	15.23	-35.7	-37.7	16.3	0.00e+00	0	55	0	720371712	42	4397
2026-01-11 15:08:56.00	198.84	15.33	-35.8	-37.8	16.3	0.00e+00	0	55	0	727711744	42	4443
2026-01-11 15:08:57.01	198.94	15.42	-35.7	-37.7	16.3	0.00e+00	0	55	0	735051776	42	4398
2026-01-11 15:08:58.02	199.04	15.52	-35.7	-37.7	16.3	0.00e+00	0	55	0	742391808	42	4428
2026-01-11 15:08:59.03	199.15	15.62	-35.7	-37.6	16.4	0.00e+00	0	55	0	749731840	42	4373
2026-01-11 15:09:00.04	199.26	15.72	-35.6	-37.5	16.5	0.00e+00	0	55	0	757071872	41	4592
2026-01-11 15:09:01.05	199.36	15.81	-35.6	-37.5	16.4	0.00e+00	0	55	0	764411904	41	4588
2026-01-11 15:09:02.06	199.47	15.91	-35.6	-37.5	16.5	0.00e+00	0	55	0	771751936	41	4588
2026-01-11 15:09:03.07	199.58	16.01	-35.6	-37.6	16.4	0.00e+00	0	55	0	778043392	41	4604
2026-01-11 15:09:04.08	199.68	16.11	-35.6	-37.6	16.5	0.00e+00	0	55	0	785383424	41	4615
2026-01-11 15:09:05.09	199.79	16.21	-35.6	-37.5	16.4	0.00e+00	0	55	0	793772032	41	4598
2026-01-11 15:09:06.10	199.90	16.31	-35.6	-37.6	16.4	0.00e+00	0	55	0	800063488	41	4634
2026-01-11 15:09:07.11	200.01	16.41	-35.6	-37.6	16.4	0.00e+00	0	55	0	807403520	41	4607
2026-01-11 15:09:08.12	200.12	16.51	-35.7	-37.6	16.4	0.00e+00	0	55	0	814743552	41	4644
2026-01-11 15:09:09.13	200.23	16.61	-35.6	-37.6	16.4	0.00e+00	0	55	0	822083584	41	4641
2026-01-11 15:09:10.14	200.35	16.71	-35.5	-37.5	16.5	0.00e+00	0	55	0	829423616	41	4563
2026-01-11 15:09:11.15	200.46	16.81	-35.5	-37.4	16.6	0.00e+00	0	55	0	836763648	41	4542
2026-01-11 15:09:12.16	200.57	16.91	-35.5	-37.4	16.6	0.00e+00	0	55	0	844103680	41	4520
2026-01-11 15:09:13.17	200.69	17.02	-35.4	-37.3	16.7	0.00e+00	0	55	0	851443712	41	4467
2026-01-11 15:09:14.18	200.80	17.12	-35.4	-37.3	16.7	0.00e+00	0	55	0	858783744	41	4473
2026-01-11 15:09:15.19	200.92	17.22	-35.4	-37.3	16.8	0.00e+00	0	55	0	866123776	41	4449
2026-01-11 15:09:16.19	201.03	17.32	-35.3	-37.2	16.9	0.00e+00	0	55	0	873463808	41	4396
2026-01-11 15:09:17.20	201.15	17.43	-35.3	-37.1	16.9	0.00e+00	0	56	0	880803840	41	4382
2026-01-11 15:09:18.21	201.27	17.53	-35.1	-36.9	17.1	0.00e+00	0	56	0	888143872	41	4281
2026-01-11 15:09:19.23	201.39	17.63	-35.1	-36.9	17.1	0.00e+00	0	55	0	895483904	41	4269
2026-01-11 15:09:20.24	201.51	17.74	-35.0	-36.8	17.2	0.00e+00	0	55	0	902823936	40	4453
2026-01-11 15:09:21.25	201.63	17.84	-35.0	-36.9	17.2	0.00e+00	0	56	0	910163968	40	4498
2026-01-11 15:09:22.26	201.75	17.95	-35.0	-36.9	17.2	0.00e+00	0	56	0	917504000	40	4502
2026-01-11 15:09:23.26	201.87	18.05	-35.0	-36.8	17.2	0.00e+00	0	56	0	924844032	40	4471
2026-01-11 15:09:24.27	202.00	18.16	-34.9	-36.7	17.3	0.00e+00	0	55	0	931135488	40	4422
2026-01-11 15:09:25.28	202.12	18.26	-35.0	-36.8	17.2	0.00e+00	0	56	0	939524096	40	4467
2026-01-11 15:09:26.29	202.25	18.37	-35.0	-36.8	17.2	0.00e+00	0	55	0	946864128	40	4482
2026-01-11 15:09:27.31	202.37	18.48	-34.9	-36.8	17.3	0.00e+00	0	56	0	953155584	40	4457
2026-01-11 15:09:28.32	202.50	18.58	-35.0	-36.9	17.2	0.00e+00	0	56	0	960495616	40	4495
2026-01-11 15:09:29.33	202.63	18.69	-35.1	-36.9	17.2	0.00e+00	0	55	0	967835648	40	4532
2026-01-11 15:09:30.34	202.76	18.80	-35.0	-36.9	17.2	0.00e+00	0	56	0	975175680	40	4531
2026-01-11 15:09:31.35	202.88	18.91	-35.1	-36.9	17.1	0.00e+00	0	55	0	982515712	40	4545
2026-01-11 15:09:32.36	203.02	19.01	-35.0	-36.9	17.2	0.00e+00	0	56	0	989855744	40	4507
2026-01-11 15:09:33.37	203.15	19.12	-35.0	-36.9	17.2	0.00e+00	0	56	0	997195776	40	4514
2026-01-11 15:09:34.38	203.28	19.23	-34.9	-36.8	17.3	0.00e+00	0	56	0	1004535808	40	4472
2026-01-11 15:09:35.39	203.41	19.34	-35.0	-36.9	17.2	0.00e+00	0	56	0	1011875840	40	4537
2026-01-11 15:09:36.40	203.54	19.45	-34.9	-36.8	17.4	0.00e+00	0	56	0	1019215872	40	4454
2026-01-11 15:09:37.41	203.68	19.56	-35.0	-36.8	17.3	0.00e+00	0	56	0	1026555904	40	4487
2026-01-11 15:09:38.42	203.81	19.67	-34.9	-36.8	17.4	0.00e+00	0	56	0	1033895936	40	4449
2026-01-11 15:09:39.43	203.95	19.78	-34.8	-36.7	17.4	0.00e+00	0	56	0	1041235968	40	4418
2026-01-11 15:09:40.44	204.09	19.89	-34.8	-36.7	17.5	0.00e+00	0	55	0	1048576000	40	4396
2026-01-11 15:09:41.45	204.23	20.00	-34.7	-36.6	17.6	0.00e+00	0	56	0	1055916032	40	4352
2026-01-11 15:09:42.46	204.37	20.11	-34.7	-36.6	17.5	0.00e+00	0	56	0	1063256064	40	4359
2026-01-11 15:09:43.47	204.51	20.23	-34.6	-36.4	17.7	0.00e+00	0	56	0	1070596096	40	4270
2026-01-11 15:09:44.48	204.65	20.34	-34.6	-36.4	17.7	0.00e+00	0	56	0	1077936128	40	4262
2026-01-11 15:09:45.49	204.79	20.45	-34.5	-36.3	17.8	0.00e+00	0	56	0	1085276160	40	4214
2026-01-11 15:09:46.50	204.93	20.56	-34.6	-36.4	17.8	0.00e+00	0	56	0	1092616192	39	4507
2026-01-11 15:09:47.52	205.08	20.68	-34.5	-36.3	17.9	0.00e+00	0	56	0	1098907648	39	4470
2026-01-11 15:09:48.53	205.23	20.79	-34.4	-36.1	18.0	0.00e+00	0	56	0	1106247680	39	4391
2026-01-11 15:09:49.53	205.37	20.90	-34.4	-36.2	18.0	0.00e+00	0	56	0	1114636288	39	4413
2026-01-11 15:09:50.55	205.52	21.02	-34.4	-36.1	18.1	0.00e+00	0	56	0	1120927744	39	4378
2026-01-11 15:09:51.56	205.67	21.13	-34.5	-36.2	18.0	0.00e+00	0	56	0	1128267776	39	4427
2026-01-11 15:09:52.57	205.82	21.25	-34.4	-36.1	18.1	0.00e+00	0	56	0	1135607808	39	4379
2026-01-11 15:09:53.58	205.97	21.36	-34.4	-36.2	18.0	0.00e+00	0	56	0	1142947840	39	4409
2026-01-11 15:09:54.59	206.12	21.48	-34.5	-36.3	17.9	0.00e+00	0	56	0	1150287872	39	4468
2026-01-11 15:09:55.60	206.28	21.59	-34.5	-36.3	17.9	0.00e+00	0	56	0	1157627904	39	4467
2026-01-11 15:09:56.61	206.43	21.71	-34.5	-36.3	17.9	0.00e+00	0	56	0	1164967936	39	4464
2026-01-11 15:09:57.62	206.58	21.83	-34.5	-36.3	17.9	0.00e+00	0	56	0	1172307968	39	4467
2026-01-11 15:09:58.63	206.74	21.94	-34.5	-36.3	17.9	0.00e+00	0	56	0	1179648000	39	4466
2026-01-11 15:09:59.63	206.90	22.06	-34.4	-36.2	17.9	0.00e+00	0	56	0	1186988032	39	4438
2026-01-11 15:10:00.64	207.06	22.18	-34.5	-36.4	17.8	0.00e+00	0	56	0	1194328064	39	4496
2026-01-11 15:10:01.65	207.22	22.30	-34.4	-36.2	17.9	0.00e+00	0	56	0	1201668096	39	4440
2026-01-11 15:10:02.66	207.38	22.41	-34.4	-36.3	17.9	0.00e+00	0	56	0	1209008128	39	4442
2026-01-11 15:10:03.67	207.54	22.53	-34.4	-36.2	17.9	0.00e+00	0	56	0	1216348160	39	4427
2026-01-11 15:10:04.68	207.70	22.65	-34.3	-36.1	18.0	0.00e+00	0	56	0	1223688192	39	4389
2026-01-11 15:10:05.69	207.87	22.77	-34.3	-36.1	18.0	0.00e+00	0	56	0	1231028224	39	4374
2026-01-11 15:10:06.70	208.03	22.89	-34.2	-36.0	18.1	0.00e+00	0	56	0	1238368256	39	4338
2026-01-11 15:10:07.71	208.20	23.01	-34.3	-36.1	18.0	0.00e+00	0	56	0	1245708288	39	4379
2026-01-11 15:10:08.73	208.37	23.13	-34.2	-36.0	18.2	0.00e+00	0	56	0	1251999744	39	4301
2026-01-11 15:10:09.74	208.54	23.25	-34.1	-35.9	18.2	0.00e+00	0	56	0	1260388352	39	4271
2026-01-11 15:10:10.75	208.71	23.37	-34.1	-35.9	18.2	0.00e+00	0	56	0	1267728384	39	4271
2026-01-11 15:10:11.76	208.88	23.49	-34.1	-35.9	18.2	0.00e+00	0	56	0	1274019840	39	4261
2026-01-11 15:10:12.77	209.06	23.61	-34.1	-35.9	18.2	0.00e+00	0	56	0	1281359872	39	4274
2026-01-11 15:10:13.78	209.23	23.73	-34.2	-36.0	18.1	0.00e+00	0	56	0	1288699904	39	4332
2026-01-11 15:10:14.79	209.41	23.86	-34.2	-36.0	18.1	0.00e+00	0	56	0	1296039936	39	4309
2026-01-11 15:10:15.80	209.59	23.98	-34.2	-36.0	18.1	0.00e+00	0	56	0	1303379968	39	4333
2026-01-11 15:10:16.81	209.77	24.10	-34.2	-36.1	18.0	0.00e+00	0	56	0	1310720000	39	4361
2026-01-11 15:10:17.82	209.95	24.22	-34.3	-36.2	18.0	0.00e+00	0	56	0	1318060032	39	4398
2026-01-11 15:10:18.83	210.13	24.35	-34.2	-36.0	18.1	0.00e+00	0	56	0	1325400064	39	4339
2026-01-11 15:10:19.84	210.31	24.47	-34.2	-36.1	18.1	0.00e+00	0	56	0	1332740096	39	4359
2026-01-11 15:10:20.85	210.50	24.59	-34.2	-36.1	18.1	0.00e+00	0	56	0	1340080128	39	4360
2026-01-11 15:10:21.86	210.68	24.72	-34.2	-36.0	18.2	0.00e+00	0	56	0	1347420160	39	4308
2026-01-11 15:10:22.87	210.87	24.84	-34.1	-35.9	18.2	0.00e+00	0	56	0	1354760192	39	4284
2026-01-11 15:10:23.88	211.06	24.96	-34.1	-35.8	18.3	0.00e+00	0	56	0	1362100224	39	4236
2026-01-11 15:10:24.89	211.25	25.09	-34.0	-35.8	18.4	0.00e+00	0	56	0	1369440256	39	4201
2026-01-11 15:10:25.90	211.44	25.21	-34.0	-35.7	18.4	0.00e+00	0	56	0	1376780288	39	4191
2026-01-11 15:10:26.91	211.63	25.34	-34.1	-35.8	18.4	0.00e+00	0	56	0	1384120320	38	4481
2026-01-11 15:10:27.92	211.83	25.46	-34.1	-35.8	18.3	0.00e+00	0	56	0	1391460352	38	4488
2026-01-11 15:10:28.93	212.02	25.59	-34.0	-35.8	18.4	0.00e+00	0	56	0	1397751808	38	4464
2026-01-11 15:10:29.94	212.22	25.71	-34.1	-35.9	18.3	0.00e+00	0	56	0	1406140416	38	4498
2026-01-11 15:10:30.95	212.42	25.84	-34.1	-35.9	18.3	0.00e+00	0	56	0	1413480448	38	4512
2026-01-11 15:10:31.97	212.63	25.97	-34.0	-35.8	18.3	0.00e+00	0	56	0	1419771904	38	4465
2026-01-11 15:10:32.98	212.83	26.10	-34.2	-36.0	18.1	0.00e+00	0	56	0	1427111936	38	4573
2026-01-11 15:10:33.99	213.03	26.22	-34.0	-35.8	18.3	0.00e+00	0	56	0	1435500544	38	4486
2026-01-11 15:10:35.00	213.24	26.35	-34.0	-35.8	18.3	0.00e+00	0	56	0	1441792000	38	4476
2026-01-11 15:10:36.01	213.44	26.48	-34.0	-35.8	18.3	0.00e+00	0	56	0	1449132032	38	4468
2026-01-11 15:10:37.02	213.65	26.60	-34.0	-35.7	18.4	0.00e+00	0	56	0	1456472064	38	4420
2026-01-11 15:10:38.03	213.86	26.73	-33.9	-35.7	18.4	0.00e+00	0	56	0	1463812096	38	4404
2026-01-11 15:10:39.04	214.08	26.86	-33.9	-35.6	18.4	0.00e+00	0	56	0	1471152128	38	4388
2026-01-11 15:10:40.05	214.29	26.99	-34.0	-35.8	18.3	0.00e+00	0	56	0	1478492160	38	4462
2026-01-11 15:10:41.06	214.51	27.11	-34.0	-35.7	18.4	0.00e+00	0	56	0	1485832192	38	4437
2026-01-11 15:10:42.07	214.72	27.24	-34.0	-35.8	18.3	0.00e+00	0	56	0	1493172224	38	4471
2026-01-11 15:10:43.08	214.94	27.37	-34.0	-35.8	18.4	0.00e+00	0	56	0	1500512256	38	4475
2026-01-11 15:10:44.09	215.16	27.50	-33.9	-35.6	18.5	0.00e+00	0	56	0	1507852288	38	4372
2026-01-11 15:10:45.10	215.39	27.63	-34.0	-35.7	18.5	0.00e+00	0	56	0	1515192320	38	4429
2026-01-11 15:10:46.11	215.61	27.76	-33.9	-35.6	18.6	1.10e-06	0	56	0	1522532352	38	4386
2026-01-11 15:10:47.12	215.84	27.89	-33.9	-35.6	18.6	0.00e+00	0	56	0	1529872384	38	4357
2026-01-11 15:10:48.13	216.06	28.02	-33.8	-35.6	18.6	0.00e+00	0	56	0	1537212416	38	4347
2026-01-11 15:10:49.14	216.29	28.15	-33.8	-35.5	18.7	0.00e+00	0	56	0	1544552448	38	4329
2026-01-11 15:10:50.15	216.52	28.27	-33.7	-35.4	18.8	0.00e+00	0	56	0	1551892480	38	4290
2026-01-11 15:10:51.16	216.76	28.40	-33.7	-35.4	18.8	0.00e+00	0	56	0	1559232512	38	4288
2026-01-11 15:10:52.17	216.99	28.53	-33.8	-35.5	18.7	0.00e+00	0	56	0	1566572544	38	4330
2026-01-11 15:10:53.18	217.23	28.66	-33.8	-35.5	18.7	0.00e+00	0	56	0	1572864000	38	4333
2026-01-11 15:10:54.19	217.47	28.79	-33.8	-35.6	18.7	0.00e+00	0	56	0	1581252608	38	4343
2026-01-11 15:10:55.19	217.71	28.92	-33.8	-35.6	18.7	0.00e+00	0	56	0	1588592640	38	4343
2026-01-11 15:10:56.20	217.95	29.05	-33.8	-35.6	18.6	0.00e+00	0	56	0	1594884096	38	4389
2026-01-11 15:10:57.21	218.19	29.18	-33.9	-35.7	18.5	0.00e+00	0	56	0	1602224128	38	4437
2026-01-11 15:10:58.22	218.44	29.31	-34.0	-35.8	18.4	0.00e+00	0	56	0	1609564160	38	4485
2026-01-11 15:10:59.23	218.69	29.44	-34.0	-35.9	18.3	0.00e+00	0	56	0	1616904192	38	4510
2026-01-11 15:11:00.24	218.94	29.57	-33.8	-35.7	18.5	0.00e+00	0	57	0	1624244224	38	4412
2026-01-11 15:11:01.25	219.19	29.70	-33.8	-35.7	18.5	0.00e+00	0	56	0	1631584256	38	4406
2026-01-11 15:11:02.26	219.45	29.83	-33.8	-35.7	18.5	0.00e+00	0	56	0	1638924288	38	4412
2026-01-11 15:11:03.27	219.70	29.96	-33.9	-35.7	18.4	0.00e+00	0	56	0	1646264320	38	4432
2026-01-11 15:11:04.28	219.96	30.09	-33.8	-35.6	18.5	0.00e+00	0	56	0	1653604352	38	4388
2026-01-11 15:11:05.29	220.22	30.22	-33.8	-35.7	18.4	0.00e+00	0	56	0	1660944384	38	4404
2026-01-11 15:11:06.30	220.49	30.35	-33.8	-35.7	18.4	2.20e-06	0	56	0	1668284416	38	4399
2026-01-11 15:11:07.31	220.75	30.48	-33.7	-35.6	18.5	0.00e+00	0	56	0	1675624448	38	4367
2026-01-11 15:11:08.32	221.02	30.61	-33.7	-35.5	18.6	0.00e+00	0	57	0	1682964480	38	4319
2026-01-11 15:11:09.33	221.29	30.74	-33.8	-35.6	18.5	0.00e+00	0	57	0	1690304512	38	4356
2026-01-11 15:11:10.34	221.56	30.87	-33.8	-35.7	18.4	0.00e+00	0	57	0	1697644544	38	4402
2026-01-11 15:11:11.35	221.83	31.00	-33.9	-35.8	18.3	0.00e+00	0	57	0	1704984576	38	4442
2026-01-11 15:11:12.36	222.11	31.13	-33.9	-35.7	18.3	0.00e+00	0	56	0	1712324608	38	4437
2026-01-11 15:11:13.37	222.38	31.26	-33.9	-35.8	18.3	0.00e+00	0	57	0	1718616064	38	4452
2026-01-11 15:11:14.38	222.66	31.39	-33.8	-35.6	18.5	0.00e+00	0	57	0	1727004672	38	4362
2026-01-11 15:11:15.39	222.94	31.52	-33.8	-35.6	18.5	0.00e+00	0	56	0	1734344704	38	4361
2026-01-11 15:11:16.41	223.23	31.65	-33.8	-35.5	18.6	0.00e+00	0	56	0	1740636160	38	4313
2026-01-11 15:11:17.42	223.52	31.78	-33.8	-35.6	18.5	0.00e+00	0	56	0	1747976192	38	4353
2026-01-11 15:11:18.43	223.81	31.90	-33.8	-35.5	18.6	0.00e+00	0	57	0	1755316224	38	4314
2026-01-11 15:11:19.44	224.10	32.03	-33.8	-35.6	18.6	0.00e+00	0	56	0	1762656256	38	4354
2026-01-11 15:11:20.45	224.39	32.16	-33.8	-35.6	18.6	0.00e+00	0	56	0	1769996288	38	4351
2026-01-11 15:11:21.46	224.69	32.29	-33.9	-35.6	18.6	0.00e+00	0	57	0	1777336320	38	4360
2026-01-11 15:11:22.47	224.98	32.41	-33.8	-35.5	18.7	0.00e+00	0	56	0	1784676352	38	4313
2026-01-11 15:11:23.48	225.28	32.54	-33.8	-35.5	18.7	0.00e+00	0	56	0	1792016384	38	4317
2026-01-11 15:11:24.49	225.59	32.67	-33.8	-35.5	18.7	0.00e+00	0	57	0	1799356416	38	4338
2026-01-11 15:11:25.50	225.89	32.79	-33.7	-35.4	18.8	0.00e+00	0	57	0	1806696448	38	4284
2026-01-11 15:11:26.51	226.20	32.92	-33.7	-35.5	18.7	0.00e+00	0	56	0	1814036480	38	4313
2026-01-11 15:11:27.52	226.51	33.04	-33.9	-35.6	18.6	0.00e+00	0	57	0	1821376512	38	4388
2026-01-11 15:11:28.53	226.82	33.17	-33.9	-35.7	18.5	0.00e+00	0	57	0	1828716544	38	4437
2026-01-11 15:11:29.54	227.13	33.29	-34.0	-35.9	18.3	0.00e+00	0	57	0	1836056576	38	4505
2026-01-11 15:11:30.55	227.45	33.42	-34.0	-35.9	18.3	0.00e+00	0	57	0	1843396608	38	4497
2026-01-11 15:11:31.56	227.77	33.54	-33.9	-35.7	18.5	0.00e+00	0	57	0	1850736640	38	4396
2026-01-11 15:11:32.57	228.09	33.67	-33.9	-35.7	18.4	0.00e+00	0	57	0	1858076672	38	4431
2026-01-11 15:11:33.58	228.41	33.79	-33.9	-35.7	18.4	0.00e+00	0	57	0	1865416704	38	4407
2026-01-11 15:11:34.59	228.74	33.91	-33.8	-35.7	18.4	0.00e+00	0	57	0	1872756736	38	4405
2026-01-11 15:11:35.60	229.06	34.03	-33.8	-35.7	18.4	0.00e+00	0	57	0	1880096768	38	4418
2026-01-11 15:11:36.61	229.40	34.15	-33.7	-35.5	18.6	0.00e+00	0	56	0	1887436800	38	4321
2026-01-11 15:11:37.62	229.73	34.27	-33.6	-35.4	18.7	0.00e+00	0	57	0	1893728256	38	4247
2026-01-11 15:11:38.63	230.06	34.39	-33.5	-35.3	18.8	0.00e+00	0	57	0	1902116864	38	4200
2026-01-11 15:11:39.64	230.40	34.51	-33.5	-35.2	18.9	0.00e+00	0	57	0	1909456896	38	4185
2026-01-11 15:11:40.65	230.74	34.63	-33.6	-35.3	18.8	0.00e+00	0	57	0	1915748352	38	4201
2026-01-11 15:11:41.66	231.09	34.75	-33.7	-35.4	18.7	0.00e+00	0	57	0	1923088384	38	4263
2026-01-11 15:11:42.67	231.43	34.87	-33.7	-35.5	18.7	0.00e+00	0	57	0	1930428416	38	4294
2026-01-11 15:11:43.68	231.78	34.98	-33.8	-35.5	18.7	0.00e+00	0	57	0	1937768448	38	4317
2026-01-11 15:11:44.69	232.13	35.10	-33.7	-35.5	18.7	0.00e+00	0	56	0	1945108480	38	4297
2026-01-11 15:11:45.71	232.48	35.22	-33.8	-35.5	18.7	0.00e+00	0	57	0	1952448512	38	4329
2026-01-11 15:11:46.72	232.84	35.33	-33.9	-35.6	18.6	0.00e+00	0	57	0	1959788544	38	4381
2026-01-11 15:11:47.73	233.20	35.44	-33.8	-35.6	18.6	0.00e+00	0	57	0	1967128576	38	4375
2026-01-11 15:11:48.74	233.56	35.56	-33.7	-35.5	18.7	0.00e+00	0	57	0	1974468608	38	4305
2026-01-11 15:11:49.75	233.92	35.67	-33.7	-35.4	18.8	0.00e+00	0	57	0	1981808640	38	4270
2026-01-11 15:11:50.76	234.28	35.78	-33.7	-35.4	18.8	0.00e+00	0	57	0	1989148672	38	4285
2026-01-11 15:11:51.77	234.65	35.89	-33.7	-35.4	18.8	0.00e+00	0	57	0	1996488704	38	4291
2026-01-11 15:11:52.78	235.02	36.00	-33.7	-35.4	18.8	0.00e+00	0	57	0	2003828736	38	4289
2026-01-11 15:11:53.79	235.39	36.11	-33.7	-35.5	18.7	0.00e+00	0	57	0	2011168768	38	4337
2026-01-11 15:11:54.79	235.76	36.21	-33.7	-35.5	18.7	0.00e+00	0	57	0	2018508800	38	4309
2026-01-11 15:11:55.80	236.14	36.32	-33.7	-35.4	18.7	0.00e+00	0	57	0	2025848832	38	4290
2026-01-11 15:11:56.81	236.52	36.43	-33.7	-35.5	18.7	0.00e+00	0	57	0	2033188864	38	4299
2026-01-11 15:11:57.82	236.90	36.53	-33.8	-35.6	18.6	0.00e+00	0	57	0	2039480320	38	4361
2026-01-11 15:11:58.83	237.29	36.63	-33.8	-35.5	18.7	0.00e+00	0	57	0	2047868928	38	4323
2026-01-11 15:11:59.84	237.67	36.73	-33.9	-35.6	18.6	0.00e+00	0	57	0	2055208960	38	4377
2026-01-11 15:12:00.85	238.06	36.83	-33.9	-35.6	18.7	0.00e+00	0	57	0	2061500416	38	4352
2026-01-11 15:12:01.86	238.45	36.93	-33.8	-35.5	18.7	0.00e+00	0	57	0	2068840448	38	4309
2026-01-11 15:12:02.87	238.85	37.03	-33.7	-35.4	18.8	0.00e+00	0	57	0	2076180480	38	4268
2026-01-11 15:12:03.88	239.24	37.13	-33.7	-35.4	18.9	0.00e+00	0	57	0	2083520512	38	4262
2026-01-11 15:12:04.90	239.65	37.23	-33.7	-35.3	18.9	0.00e+00	0	57	0	2090860544	38	4232
2026-01-11 15:12:05.90	240.04	37.32	-33.7	-35.4	18.9	0.00e+00	0	57	0	2098200576	38	4248
2026-01-11 15:12:06.92	240.45	37.42	-33.6	-35.3	18.9	0.00e+00	0	57	0	2105540608	38	4232
2026-01-11 15:12:07.93	240.85	37.51	-33.7	-35.5	18.8	0.00e+00	0	57	0	2112880640	38	4303
2026-01-11 15:12:08.94	241.26	37.60	-33.7	-35.5	18.8	0.00e+00	0	57	0	2120220672	38	4299
2026-01-11 15:12:09.94	241.67	37.69	-33.9	-35.6	18.6	0.00e+00	0	57	0	2127560704	38	4382
2026-01-11 15:12:10.95	242.08	37.78	-33.8	-35.6	18.7	0.00e+00	0	57	0	2134900736	38	4342
2026-01-11 15:12:11.96	242.49	37.86	-33.9	-35.7	18.5	0.00e+00	0	57	0	2142240768	38	4410
2026-01-11 15:12:12.97	242.91	37.95	-33.8	-35.6	18.6	0.00e+00	0	57	0	2149580800	38	4377
2026-01-11 15:12:13.98	243.33	38.03	-33.9	-35.7	18.5	0.00e+00	0	57	0	2156920832	38	4419
2026-01-11 15:12:14.99	243.75	38.11	-33.8	-35.7	18.5	0.00e+00	0	57	0	2164260864	38	4392
2026-01-11 15:12:16.00	244.17	38.19	-33.8	-35.6	18.6	0.00e+00	0	57	0	2171600896	38	4344
2026-01-11 15:12:17.01	244.59	38.27	-33.9	-35.7	18.5	0.00e+00	0	57	0	2178940928	38	4419
2026-01-11 15:12:18.02	245.02	38.35	-34.0	-35.8	18.3	0.00e+00	0	57	0	2186280960	38	4475
2026-01-11 15:12:19.03	245.45	38.43	-34.2	-36.1	18.2	0.00e+00	0	57	0	2193620992	38	4606
2026-01-11 15:12:20.04	245.88	38.50	-34.2	-36.0	18.2	0.00e+00	0	57	0	2200961024	38	4581
2026-01-11 15:12:21.05	246.31	38.57	-34.0	-35.8	18.4	0.00e+00	0	57	0	2208301056	38	4466
2026-01-11 15:12:22.06	246.75	38.65	-33.8	-35.5	18.7	0.00e+00	0	57	0	2214592512	38	4336
2026-01-11 15:12:23.07	247.18	38.72	-33.7	-35.3	18.9	0.00e+00	0	57	0	2221932544	38	4221
2026-01-11 15:12:24.08	247.62	38.78	-33.6	-35.1	19.1	0.00e+00	0	57	0	2229272576	38	4141
2026-01-11 15:12:25.09	248.06	38.85	-33.6	-35.2	19.1	0.00e+00	0	57	0	2236612608	38	4161
2026-01-11 15:12:26.10	248.50	38.91	-33.7	-35.4	18.9	0.00e+00	0	57	0	2243952640	38	4265
2026-01-11 15:12:27.11	248.94	38.98	-34.0	-35.7	18.6	0.00e+00	0	57	0	2251292672	38	4425
2026-01-11 15:12:28.12	249.39	39.04	-34.0	-35.7	18.5	0.00e+00	0	57	0	2258632704	38	4440
2026-01-11 15:12:29.13	249.84	39.10	-33.9	-35.7	18.6	0.00e+00	0	57	0	2265972736	38	4399
2026-01-11 15:12:30.14	250.28	39.15	-34.4	-35.5	19.3	0.00e+00	0	57	0	2273312768	38	4316
2026-01-11 15:12:31.15	250.73	39.21	-34.4	-35.5	19.4	0.00e+00	0	57	0	2280652800	38	4296
2026-01-11 15:12:32.16	251.18	39.26	-34.4	-35.5	19.4	0.00e+00	0	57	0	2287992832	38	4301
2026-01-11 15:12:33.17	251.64	39.31	-34.5	-35.6	19.3	0.00e+00	0	57	0	2295332864	38	4366
2026-01-11 15:12:34.18	252.09	39.36	-34.7	-35.8	19.0	0.00e+00	0	57	0	2302672896	39	4229
2026-01-11 15:12:35.19	252.55	39.41	-34.7	-35.8	19.1	0.00e+00	0	57	0	2310012928	39	4219
2026-01-11 15:12:36.19	253.00	39.46	-34.6	-35.8	19.1	0.00e+00	0	57	0	2317352960	39	4198
2026-01-11 15:12:37.21	253.46	39.50	-34.5	-35.6	19.3	0.00e+00	0	57	0	2324692992	39	4124
2026-01-11 15:12:38.22	253.92	39.54	-34.3	-35.4	19.5	0.00e+00	0	57	0	2332033024	39	4015
2026-01-11 15:12:39.23	254.38	39.58	-34.1	-35.2	19.7	0.00e+00	0	57	0	2338324480	39	3924
2026-01-11 15:12:40.24	254.84	39.62	-34.0	-35.1	19.8	0.00e+00	0	57	0	2346713088	39	3873
2026-01-11 15:12:41.25	255.30	39.66	-34.0	-35.1	19.8	0.00e+00	0	57	0	2354053120	39	3882
2026-01-11 15:12:42.26	255.76	39.69	-34.1	-35.2	19.7	0.00e+00	0	57	0	2360344576	39	3920
2026-01-11 15:12:43.27	256.23	39.72	-34.2	-35.3	19.6	0.00e+00	0	57	0	2367684608	39	3965
2026-01-11 15:12:44.28	256.69	39.75	-34.3	-35.3	19.5	0.00e+00	0	57	0	2375024640	39	4001
2026-01-11 15:12:45.29	257.16	39.78	-34.3	-35.4	19.5	0.00e+00	0	57	0	2382364672	39	4029
2026-01-11 15:12:46.30	257.62	39.80	-34.5	-35.6	19.3	0.00e+00	0	57	0	2389704704	39	4100
2026-01-11 15:12:47.31	258.09	39.83	-34.6	-35.7	19.1	0.00e+00	0	57	0	2397044736	39	4178
2026-01-11 15:12:48.32	258.56	39.85	-34.5	-35.6	19.2	0.00e+00	0	57	0	2404384768	39	4142
2026-01-11 15:12:49.33	259.03	39.87	-34.5	-35.6	19.3	0.00e+00	0	57	0	2411724800	39	4129
2026-01-11 15:12:50.34	259.50	39.89	-34.5	-35.6	19.3	0.00e+00	0	57	0	2419064832	39	4136
2026-01-11 15:12:51.35	259.97	39.90	-34.6	-35.8	19.1	0.00e+00	0	57	0	2426404864	39	4210
2026-01-11 15:12:52.36	260.44	39.92	-34.8	-35.9	19.0	0.00e+00	0	57	0	2433744896	39	4285
2026-01-11 15:12:53.37	260.91	39.93	-34.8	-36.0	18.9	0.00e+00	0	57	0	2441084928	39	4314
2026-01-11 15:12:54.38	261.38	39.93	-34.7	-35.9	19.0	0.00e+00	0	57	0	2448424960	39	4253
2026-01-11 15:12:55.39	261.85	39.94	-34.7	-35.8	19.1	0.00e+00	0	57	0	2455764992	39	4211
2026-01-11 15:12:56.40	262.32	39.95	-34.8	-35.9	19.0	0.00e+00	0	57	0	2463105024	39	4259
2026-01-11 15:12:57.41	262.79	39.95	-34.7	-35.8	19.1	0.00e+00	0	57	0	2470445056	39	4205
2026-01-11 15:12:58.42	263.26	39.95	-34.7	-35.9	19.0	0.00e+00	0	57	0	2477785088	39	4243
2026-01-11 15:12:59.43	263.73	39.95	-34.6	-35.8	19.1	0.00e+00	0	57	0	2485125120	39	4199
2026-01-11 15:13:00.44	264.20	39.94	-34.6	-35.7	19.2	0.00e+00	0	57	0	2492465152	39	4173
2026-01-11 15:13:01.45	264.67	39.94	-34.5	-35.6	19.3	0.00e+00	0	57	0	2499805184	39	4121
2026-01-11 15:13:02.46	265.14	39.93	-34.5	-35.6	19.2	0.00e+00	0	57	0	2507145216	39	4117
2026-01-11 15:13:03.47	265.61	39.92	-34.5	-35.6	19.2	0.00e+00	0	57	0	2513436672	39	4128
2026-01-11 15:13:04.48	266.08	39.91	-34.6	-35.6	19.2	0.00e+00	0	57	0	2520776704	39	4144
2026-01-11 15:13:05.49	266.55	39.89	-34.6	-35.6	19.2	0.00e+00	0	57	0	2529165312	39	4145
2026-01-11 15:13:06.50	267.02	39.88	-34.6	-35.7	19.2	0.00e+00	0	57	0	2535456768	39	4174
2026-01-11 15:13:07.51	267.48	39.86	-34.5	-35.6	19.3	0.00e+00	0	57	0	2542796800	39	4124
2026-01-11 15:13:08.52	267.95	39.84	-34.4	-35.5	19.4	0.00e+00	0	57	0	2550136832	39	4076
2026-01-11 15:13:09.53	268.42	39.81	-34.3	-35.4	19.4	0.00e+00	0	57	0	2557476864	39	4032
2026-01-11 15:13:10.54	268.89	39.79	-34.3	-35.3	19.5	0.00e+00	0	57	0	2564816896	39	3999
2026-01-11 15:13:11.55	269.35	39.76	-34.4	-35.5	19.3	0.00e+00	0	57	0	2572156928	39	4067
2026-01-11 15:13:12.56	269.82	39.73	-34.6	-35.7	19.2	0.00e+00	0	57	0	2579496960	39	4160
2026-01-11 15:13:13.57	270.28	39.70	-34.7	-35.8	19.0	0.00e+00	0	57	0	2586836992	39	4236
2026-01-11 15:13:14.57	270.74	39.67	-34.8	-36.0	18.9	0.00e+00	0	57	0	2594177024	39	4292
2026-01-11 15:13:15.58	271.20	39.63	-34.7	-35.9	19.0	0.00e+00	0	57	0	2601517056	39	4249
2026-01-11 15:13:16.59	271.66	39.60	-34.6	-35.7	19.2	0.00e+00	0	57	0	2608857088	39	4163
2026-01-11 15:13:17.60	272.12	39.56	-34.6	-35.7	19.2	0.00e+00	0	57	0	2616197120	39	4168
2026-01-11 15:13:18.61	272.58	39.52	-34.5	-35.6	19.2	0.00e+00	0	57	0	2623537152	39	4138
2026-01-11 15:13:19.62	273.04	39.47	-34.7	-35.8	19.0	0.00e+00	0	57	0	2630877184	39	4218
2026-01-11 15:13:20.63	273.49	39.43	-34.7	-35.8	19.0	0.00e+00	0	57	0	2638217216	39	4242
2026-01-11 15:13:21.64	273.95	39.38	-34.7	-35.9	19.0	0.00e+00	0	57	0	2645557248	39	4252
2026-01-11 15:13:22.65	274.40	39.33	-34.6	-35.7	19.1	0.00e+00	0	57	0	2652897280	39	4192
2026-01-11 15:13:23.66	274.85	39.28	-34.5	-35.6	19.3	0.00e+00	0	57	0	2659188736	39	4106
2026-01-11 15:13:24.67	275.30	39.23	-34.4	-35.5	19.4	0.00e+00	0	57	0	2666528768	39	4064
2026-01-11 15:13:25.68	275.75	39.17	-34.5	-35.6	19.3	0.00e+00	0	57	0	2673868800	39	4100
2026-01-11 15:13:26.69	276.20	39.12	-34.5	-35.6	19.3	0.00e+00	0	57	0	2681208832	39	4107
2026-01-11 15:13:27.70	276.65	39.06	-34.6	-35.7	19.2	0.00e+00	0	57	0	2688548864	39	4165
2026-01-11 15:13:28.71	277.09	39.00	-34.6	-35.7	19.2	0.00e+00	0	57	0	2695888896	39	4164
2026-01-11 15:13:29.72	277.54	38.94	-34.5	-35.5	19.3	0.00e+00	0	57	0	2703228928	39	4095
2026-01-11 15:13:30.73	277.98	38.87	-34.3	-35.4	19.5	0.00e+00	0	57	0	2710568960	39	4011
2026-01-11 15:13:31.74	278.42	38.81	-34.2	-35.2	19.6	0.00e+00	0	57	0	2717908992	39	3941
2026-01-11 15:13:32.75	278.85	38.74	-34.1	-35.2	19.7	0.00e+00	0	57	0	2725249024	39	3915
2026-01-11 15:13:33.76	279.29	38.67	-34.1	-35.2	19.7	0.00e+00	0	57	0	2732589056	39	3921
2026-01-11 15:13:34.77	279.72	38.60	-34.3	-35.3	19.5	0.00e+00	0	57	0	2739929088	39	3997
2026-01-11 15:13:35.78	280.16	38.53	-34.4	-35.5	19.4	0.00e+00	0	57	0	2747269120	39	4074
2026-01-11 15:13:36.79	280.59	38.46	-34.5	-35.6	19.2	0.00e+00	0	57	0	2754609152	39	4143
2026-01-11 15:13:37.80	281.01	38.38	-34.6	-35.7	19.1	0.00e+00	0	57	0	2761949184	39	4182
2026-01-11 15:13:38.81	281.44	38.30	-34.6	-35.7	19.2	0.00e+00	0	57	0	2769289216	39	4169
2026-01-11 15:13:39.82	281.87	38.22	-34.5	-35.6	19.2	0.00e+00	0	57	0	2776629248	39	4127
2026-01-11 15:13:40.83	282.29	38.14	-34.4	-35.4	19.4	0.00e+00	0	57	0	2783969280	39	4043
2026-01-11 15:13:41.84	282.71	38.06	-34.2	-35.3	19.5	0.00e+00	0	57	0	2791309312	39	3980
2026-01-11 15:13:42.85	283.13	37.98	-34.1	-35.2	19.6	0.00e+00	0	57	0	2798649344	39	3934
2026-01-11 15:13:43.86	283.54	37.90	-34.2	-35.2	19.6	0.00e+00	0	57	0	2805989376	39	3948
2026-01-11 15:13:44.87	283.96	37.81	-34.1	-35.2	19.6	0.00e+00	0	57	0	2812280832	39	3936
2026-01-11 15:13:45.88	284.37	37.72	-34.1	-35.2	19.5	0.00e+00	0	57	0	2819620864	39	3930
2026-01-11 15:13:46.89	284.78	37.63	-34.3	-35.3	19.5	0.00e+00	0	57	0	2828009472	39	3988
2026-01-11 15:13:47.90	285.18	37.54	-34.4	-35.5	19.3	0.00e+00	0	57	0	2834300928	39	4082
2026-01-11 15:13:48.91	285.59	37.45	-34.5	-35.5	19.3	0.00e+00	0	57	0	2841640960	39	4096
2026-01-11 15:13:49.92	285.99	37.36	-34.5	-35.6	19.3	0.00e+00	0	57	0	2848980992	39	4104
2026-01-11 15:13:50.93	286.39	37.27	-34.5	-35.6	19.2	0.00e+00	0	57	0	2856321024	39	4132
2026-01-11 15:13:51.94	286.79	37.17	-34.6	-35.7	19.1	0.00e+00	0	57	0	2863661056	39	4177
2026-01-11 15:13:52.95	287.19	37.07	-34.7	-35.8	19.1	0.00e+00	0	57	0	2871001088	39	4207
2026-01-11 15:13:53.96	287.58	36.98	-34.7	-35.8	19.1	0.00e+00	0	57	0	2878341120	39	4211
2026-01-11 15:13:54.97	287.97	36.88	-34.7	-35.8	19.0	0.00e+00	0	57	0	2885681152	39	4224
2026-01-11 15:13:55.98	288.36	36.78	-34.6	-35.7	19.1	0.00e+00	0	57	0	2893021184	39	4176
2026-01-11 15:13:56.99	288.75	36.68	-34.7	-35.8	19.1	0.00e+00	0	57	0	2900361216	39	4208
2026-01-11 15:13:58.00	289.13	36.57	-34.5	-35.6	19.2	0.00e+00	0	57	0	2907701248	39	4138
2026-01-11 15:13:59.01	289.51	36.47	-34.4	-35.5	19.4	0.00e+00	0	57	0	2915041280	39	4058
2026-01-11 15:14:00.02	289.89	36.37	-34.2	-35.3	19.6	0.00e+00	0	57	0	2922381312	39	3959
2026-01-11 15:14:01.01	290.26	36.26	-34.1	-35.2	19.6	0.00e+00	0	57	0	2929721344	39	3930
2026-01-11 15:14:02.02	290.63	36.16	-34.2	-35.2	19.6	0.00e+00	0	57	0	2937061376	39	3958
2026-01-11 15:14:03.03	291.01	36.05	-34.3	-35.4	19.4	0.00e+00	0	57	0	2943352832	39	4023
2026-01-11 15:14:04.04	291.38	35.94	-34.4	-35.5	19.3	0.00e+00	0	57	0	2951741440	39	4069
2026-01-11 15:14:05.05	291.74	35.83	-34.4	-35.5	19.3	0.00e+00	0	57	0	2959081472	39	4085
2026-01-11 15:14:06.06	292.11	35.72	-34.5	-35.6	19.2	0.00e+00	0	57	0	2965372928	39	4110
2026-01-11 15:14:07.07	292.47	35.61	-34.5	-35.6	19.2	0.00e+00	0	57	0	2972712960	39	4116
2026-01-11 15:14:08.08	292.83	35.50	-34.5	-35.5	19.2	0.00e+00	0	57	0	2980052992	39	4090
2026-01-11 15:14:09.09	293.19	35.39	-34.6	-35.7	19.2	0.00e+00	0	57	0	2987393024	39	4155
2026-01-11 15:14:10.10	293.54	35.27	-34.4	-35.5	19.3	0.00e+00	0	57	0	2994733056	39	4089
2026-01-11 15:14:11.11	293.90	35.16	-34.5	-35.6	19.2	0.00e+00	0	57	0	3002073088	39	4107
2026-01-11 15:14:12.12	294.25	35.04	-34.5	-35.6	19.2	0.00e+00	0	57	0	3009413120	39	4132
2026-01-11 15:14:13.13	294.59	34.93	-34.5	-35.6	19.2	0.00e+00	0	57	0	3016753152	39	4114
2026-01-11 15:14:14.14	294.94	34.81	-34.5	-35.6	19.2	0.00e+00	0	57	0	3024093184	39	4118
2026-01-11 15:14:15.15	295.28	34.69	-34.5	-35.6	19.2	0.00e+00	0	57	0	3031433216	39	4102
2026-01-11 15:14:16.16	295.62	34.58	-34.4	-35.5	19.3	0.00e+00	0	57	0	3038773248	39	4075
2026-01-11 15:14:17.17	295.96	34.46	-34.3	-35.4	19.4	0.00e+00	0	57	0	3046113280	39	4022
2026-01-11 15:14:18.18	296.29	34.34	-34.3	-35.4	19.4	0.00e+00	0	57	0	3053453312	39	4016
2026-01-11 15:14:19.19	296.63	34.22	-34.3	-35.4	19.4	0.00e+00	0	57	0	3060793344	39	4037
2026-01-11 15:14:20.20	296.96	34.10	-34.4	-35.5	19.3	0.00e+00	0	57	0	3068133376	39	4058
2026-01-11 15:14:21.21	297.29	33.98	-34.4	-35.5	19.3	0.00e+00	0	57	0	3075473408	39	4073
2026-01-11 15:14:22.22	297.61	33.86	-34.4	-35.5	19.3	0.00e+00	0	57	0	3082813440	39	4054
2026-01-11 15:14:23.22	297.93	33.74	-34.5	-35.6	19.2	0.00e+00	0	57	0	3089104896	39	4103
2026-01-11 15:14:24.23	298.25	33.61	-34.6	-35.7	19.1	0.00e+00	0	57	0	3097493504	39	4162
2026-01-11 15:14:25.24	298.57	33.49	-34.6	-35.7	19.1	0.00e+00	0	57	0	3104833536	39	4188
2026-01-11 15:14:26.25	298.89	33.37	-34.7	-35.9	19.0	0.00e+00	0	57	0	3111124992	39	4246
2026-01-11 15:14:27.26	299.20	33.24	-34.7	-35.9	18.9	0.00e+00	0	57	0	3118465024	39	4257
2026-01-11 15:14:28.27	299.51	33.12	-34.7	-35.8	19.0	0.00e+00	0	57	0	3125805056	39	4224
2026-01-11 15:14:29.28	299.82	33.00	-34.7	-35.8	19.0	0.00e+00	0	57	0	3133145088	39	4239
2026-01-11 15:14:30.29	300.13	32.87	-34.6	-35.7	19.1	0.00e+00	0	57	0	3140485120	39	4184
2026-01-11 15:14:31.30	300.43	32.75	-34.5	-35.6	19.2	0.00e+00	0	57	0	3147825152	39	4139
2026-01-11 15:14:32.31	300.74	32.62	-34.4	-35.5	19.3	0.00e+00	0	57	0	3155165184	39	4075
2026-01-11 15:14:33.32	301.04	32.49	-34.4	-35.5	19.3	0.00e+00	0	57	0	3162505216	39	4081
2026-01-11 15:14:34.33	301.33	32.37	-34.4	-35.5	19.3	0.00e+00	0	57	0	3169845248	39	4094
2026-01-11 15:14:35.34	301.63	32.24	-34.5	-35.6	19.2	0.00e+00	0	57	0	3177185280	39	4114
2026-01-11 15:14:36.36	301.93	32.11	-34.5	-35.6	19.2	0.00e+00	0	57	0	3184525312	39	4118
2026-01-11 15:14:37.37	302.22	31.99	-34.5	-35.6	19.2	0.00e+00	0	57	0	3191865344	39	4116
2026-01-11 15:14:38.38	302.51	31.86	-34.5	-35.6	19.2	0.00e+00	0	57	0	3199205376	39	4101
2026-01-11 15:14:39.39	302.79	31.73	-34.6	-35.7	19.1	0.00e+00	0	57	0	3206545408	39	4156
2026-01-11 15:14:40.40	303.08	31.60	-34.6	-35.7	18.9	0.00e+00	0	57	0	3213885440	39	4183
2026-01-11 15:14:41.41	303.36	31.47	-34.7	-35.8	19.0	0.00e+00	0	57	0	3221225472	39	4203
2026-01-11 15:14:42.42	303.64	31.35	-34.8	-35.9	18.8	0.00e+00	0	57	0	3228565504	39	4285
2026-01-11 15:14:43.43	303.92	31.22	-34.9	-36.0	18.7	0.00e+00	0	58	0	3235905536	39	4337
2026-01-11 15:14:44.44	304.19	31.09	-34.9	-36.1	18.7	0.00e+00	0	57	0	3243245568	39	4344
2026-01-11 15:14:45.45	304.46	30.96	-34.9	-36.0	18.8	0.00e+00	0	57	0	3250585600	39	4318
2026-01-11 15:14:46.46	304.74	30.83	-34.8	-35.9	18.9	0.00e+00	0	57	0	3257925632	39	4270
2026-01-11 15:14:47.47	305.00	30.70	-34.6	-35.7	19.0	0.00e+00	0	57	0	3264217088	39	4184
2026-01-11 15:14:48.48	305.27	30.57	-34.5	-35.6	19.1	0.00e+00	0	57	0	3271557120	39	4137
2026-01-11 15:14:49.49	305.54	30.45	-34.5	-35.6	19.2	0.00e+00	0	57	0	3279945728	39	4105
2026-01-11 15:14:50.50	305.80	30.32	-34.5	-35.6	19.1	0.00e+00	0	57	0	3286237184	39	4126
2026-01-11 15:14:51.51	306.06	30.19	-34.5	-35.6	19.1	0.00e+00	0	57	0	3293577216	39	4105
2026-01-11 15:14:52.52	306.32	30.06	-34.5	-35.6	19.1	0.00e+00	0	57	0	3300917248	39	4135
2026-01-11 15:14:53.53	306.58	29.93	-34.7	-35.8	18.9	0.00e+00	0	57	0	3308257280	39	4233
2026-01-11 15:14:54.54	306.83	29.80	-34.8	-35.9	18.8	0.00e+00	0	57	0	3315597312	39	4271
2026-01-11 15:14:55.55	307.08	29.67	-34.8	-35.9	18.8	0.00e+00	0	57	0	3322937344	39	4287
2026-01-11 15:14:56.56	307.33	29.54	-34.9	-36.0	18.7	0.00e+00	0	57	0	3330277376	39	4322
2026-01-11 15:14:57.57	307.58	29.41	-34.8	-36.0	18.8	0.00e+00	0	57	0	3337617408	39	4296
2026-01-11 15:14:58.58	307.83	29.28	-34.8	-36.0	18.8	0.00e+00	0	57	0	3344957440	39	4294
2026-01-11 15:14:59.59	308.07	29.15	-34.8	-36.0	18.7	0.00e+00	0	57	0	3352297472	39	4314
2026-01-11 15:15:00.60	308.32	29.02	-34.8	-35.9	18.8	0.00e+00	0	57	0	3359637504	39	4270
2026-01-11 15:15:01.61	308.56	28.90	-34.8	-35.9	18.8	0.00e+00	0	57	0	3366977536	39	4267
2026-01-11 15:15:02.62	308.80	28.77	-34.7	-35.8	18.9	0.00e+00	0	58	0	3374317568	39	4218
2026-01-11 15:15:03.63	309.03	28.64	-34.6	-35.7	19.0	0.00e+00	0	57	0	3381657600	39	4183
2026-01-11 15:15:04.64	309.27	28.51	-34.6	-35.7	19.0	0.00e+00	0	57	0	3388997632	39	4163
2026-01-11 15:15:05.65	309.50	28.38	-34.6	-35.7	19.0	0.00e+00	0	57	0	3396337664	39	4166
2026-01-11 15:15:06.66	309.73	28.25	-34.6	-35.7	19.0	0.00e+00	0	57	0	3403677696	39	4160
2026-01-11 15:15:07.67	309.96	28.12	-34.6	-35.7	19.0	0.00e+00	0	57	0	3409969152	39	4165
2026-01-11 15:15:08.68	310.19	27.99	-34.7	-35.8	18.9	0.00e+00	0	57	0	3417309184	39	4219
2026-01-11 15:15:09.69	310.42	27.87	-34.7	-35.9	18.9	0.00e+00	0	57	0	3425697792	39	4249
2026-01-11 15:15:10.70	310.64	27.74	-34.8	-36.0	18.7	0.00e+00	0	57	0	3431989248	39	4298
2026-01-11 15:15:11.71	310.86	27.61	-34.8	-36.0	18.7	0.00e+00	0	57	0	3439329280	39	4303
2026-01-11 15:15:12.72	311.09	27.48	-34.9	-36.0	18.6	0.00e+00	0	57	0	3446669312	39	4321
2026-01-11 15:15:13.73	311.31	27.35	-34.8	-35.9	18.8	0.00e+00	0	57	0	3454009344	39	4285
2026-01-11 15:15:14.74	311.52	27.23	-34.8	-35.9	18.8	0.00e+00	0	57	0	3461349376	39	4281
2026-01-11 15:15:15.75	311.74	27.10	-34.8	-35.9	18.8	0.00e+00	0	57	0	3468689408	39	4267
2026-01-11 15:15:16.76	311.95	26.97	-34.8	-35.9	18.8	0.00e+00	0	57	0	3476029440	39	4267
2026-01-11 15:15:17.77	312.16	26.85	-34.7	-35.9	18.8	0.00e+00	0	57	0	3483369472	39	4247
2026-01-11 15:15:18.77	312.37	26.72	-34.7	-35.8	18.9	0.00e+00	0	57	0	3490709504	39	4211
2026-01-11 15:15:19.78	312.58	26.59	-34.7	-35.8	18.9	0.00e+00	0	58	0	3498049536	39	4221
2026-01-11 15:15:20.79	312.79	26.47	-34.6	-35.7	18.9	0.00e+00	0	57	0	3505389568	39	4192
2026-01-11 15:15:21.80	313.00	26.34	-34.7	-35.8	18.9	0.00e+00	0	57	0	3512729600	39	4206
2026-01-11 15:15:22.81	313.20	26.21	-34.7	-35.8	18.9	0.00e+00	0	57	0	3520069632	39	4223
2026-01-11 15:15:23.82	313.40	26.09	-34.7	-35.8	18.8	0.00e+00	0	57	0	3527409664	39	4221
2026-01-11 15:15:24.83	313.60	25.96	-34.8	-35.9	18.7	0.00e+00	0	57	0	3534749696	39	4260
2026-01-11 15:15:25.84	313.80	25.84	-34.8	-35.9	18.7	0.00e+00	0	57	0	3542089728	39	4273
2026-01-11 15:15:26.86	314.00	25.71	-34.9	-36.0	18.7	0.00e+00	0	57	0	3549429760	39	4311
2026-01-11 15:15:27.87	314.20	25.59	-34.9	-36.1	18.5	0.00e+00	0	58	0	3556769792	39	4351
2026-01-11 15:15:28.88	314.40	25.46	-34.9	-36.0	18.7	0.00e+00	0	57	0	3563061248	39	4316
2026-01-11 15:15:29.88	314.59	25.34	-34.9	-36.0	18.6	0.00e+00	0	57	0	3571449856	39	4325
2026-01-11 15:15:30.90	314.78	25.21	-34.9	-36.0	18.6	0.00e+00	0	57	0	3578789888	39	4322
2026-01-11 15:15:31.91	314.97	25.09	-34.9	-36.0	18.6	0.00e+00	0	57	0	3585081344	39	4322
2026-01-11 15:15:32.92	315.16	24.97	-34.9	-36.1	18.6	0.00e+00	0	57	0	3592421376	39	4375
2026-01-11 15:15:33.93	315.35	24.84	-34.9	-36.0	18.5	0.00e+00	0	57	0	3599761408	39	4323
2026-01-11 15:15:34.94	315.54	24.72	-34.9	-36.0	18.6	0.00e+00	0	57	0	3607101440	39	4333
2026-01-11 15:15:35.95	315.72	24.60	-34.9	-36.1	18.6	0.00e+00	0	58	0	3614441472	39	4354
2026-01-11 15:15:36.96	315.90	24.48	-34.9	-36.1	18.5	0.00e+00	0	57	0	3621781504	39	4351
2026-01-11 15:15:37.97	316.09	24.35	-34.9	-36.1	18.5	0.00e+00	0	57	0	3629121536	39	4358
2026-01-11 15:15:38.98	316.27	24.23	-35.0	-36.1	18.5	0.00e+00	0	57	0	3636461568	39	4384
2026-01-11 15:15:39.98	316.44	24.11	-35.0	-36.2	18.4	0.00e+00	0	57	0	3643801600	39	4408
2026-01-11 15:15:41.00	316.62	23.99	-35.0	-36.2	18.4	0.00e+00	0	57	0	3651141632	39	4405
2026-01-11 15:15:42.01	316.80	23.87	-35.1	-36.3	18.4	0.00e+00	0	57	0	3658481664	39	4446
2026-01-11 15:15:43.02	316.98	23.75	-35.2	-36.3	18.3	0.00e+00	0	57	0	3665821696	39	4491
2026-01-11 15:15:44.03	317.15	23.63	-35.1	-36.3	18.3	0.00e+00	0	57	0	3673161728	39	4482
2026-01-11 15:15:45.04	317.32	23.51	-35.1	-36.3	18.3	0.00e+00	0	57	0	3680501760	39	4482
2026-01-11 15:15:46.05	317.49	23.39	-35.1	-36.3	18.3	0.00e+00	0	57	0	3687841792	39	4467
2026-01-11 15:15:47.06	317.67	23.27	-35.0	-36.2	18.4	0.00e+00	0	57	0	3695181824	39	4417
2026-01-11 15:15:48.07	317.83	23.15	-34.9	-36.0	18.6	0.00e+00	0	57	0	3702521856	39	4329
2026-01-11 15:15:49.08	318.00	23.03	-34.8	-36.0	18.6	0.00e+00	0	57	0	3708813312	39	4293
2026-01-11 15:15:50.09	318.17	22.91	-34.8	-35.9	18.6	0.00e+00	0	57	0	3717201920	39	4283
2026-01-11 15:15:51.10	318.33	22.79	-34.8	-35.9	18.6	0.00e+00	0	57	0	3724541952	39	4285
2026-01-11 15:15:52.11	318.50	22.67	-34.8	-35.9	18.6	0.00e+00	0	57	0	3730833408	39	4281
2026-01-11 15:15:53.12	318.66	22.56	-34.8	-35.9	18.7	0.00e+00	0	57	0	3738173440	39	4278
2026-01-11 15:15:54.13	318.82	22.44	-34.8	-36.0	18.6	0.00e+00	0	57	0	3746562048	39	4305
2026-01-11 15:15:55.14	318.98	22.32	-35.0	-36.1	18.4	0.00e+00	0	58	0	3752853504	39	4376
2026-01-11 15:15:56.15	319.14	22.20	-35.0	-36.2	18.4	0.00e+00	0	57	0	3760193536	39	4404
2026-01-11 15:15:57.17	319.30	22.09	-35.1	-36.3	18.3	0.00e+00	0	57	0	3767533568	39	4479
2026-01-11 15:15:58.18	319.46	21.97	-35.2	-36.4	18.2	0.00e+00	0	57	0	3774873600	39	4510
2026-01-11 15:15:59.19	319.61	21.85	-35.2	-36.4	18.1	0.00e+00	0	57	0	3782213632	40	4252
2026-01-11 15:16:00.20	319.77	21.74	-35.3	-36.5	18.0	0.00e+00	0	57	0	3789553664	40	4307
2026-01-11 15:16:01.20	319.92	21.63	-35.3	-36.5	18.0	0.00e+00	0	57	0	3796893696	40	4312
2026-01-11 15:16:02.21	320.07	21.51	-35.4	-36.6	17.9	0.00e+00	0	57	0	3804233728	40	4363
2026-01-11 15:16:03.22	320.22	21.40	-35.4	-36.6	17.9	0.00e+00	0	57	0	3811573760	40	4372
2026-01-11 15:16:04.23	320.37	21.28	-35.3	-36.5	18.0	0.00e+00	0	57	0	3818913792	40	4337
2026-01-11 15:16:05.24	320.52	21.17	-35.4	-36.6	17.9	0.00e+00	0	58	0	3826253824	40	4350
2026-01-11 15:16:06.25	320.67	21.05	-35.3	-36.5	18.0	0.00e+00	0	57	0	3833593856	40	4329
2026-01-11 15:16:07.26	320.82	20.94	-35.3	-36.5	17.9	0.00e+00	0	57	0	3840933888	40	4320
2026-01-11 15:16:08.28	320.97	20.83	-35.3	-36.5	18.0	0.00e+00	0	57	0	3848273920	40	4292
2026-01-11 15:16:09.29	321.11	20.71	-35.2	-36.4	18.0	0.00e+00	0	57	0	3855613952	40	4279
2026-01-11 15:16:10.30	321.26	20.60	-35.3	-36.5	18.0	0.00e+00	0	57	0	3862953984	40	4304
2026-01-11 15:16:11.31	321.40	20.49	-35.3	-36.5	17.9	0.00e+00	0	57	0	3870294016	40	4333
2026-01-11 15:16:12.32	321.54	20.38	-35.3	-36.5	17.9	0.00e+00	0	57	0	3877634048	40	4339
2026-01-11 15:16:13.33	321.68	20.27	-35.4	-36.7	17.8	0.00e+00	0	57	0	3883925504	40	4393
2026-01-11 15:16:14.34	321.82	20.16	-35.5	-36.7	17.8	0.00e+00	0	57	0	3892314112	40	4412
2026-01-11 15:16:15.35	321.96	20.05	-35.6	-36.8	17.6	0.00e+00	0	57	0	3899654144	40	4473
2026-01-11 15:16:16.36	322.10	19.94	-35.6	-36.9	17.6	0.00e+00	0	57	0	3905945600	40	4501
2026-01-11 15:16:17.37	322.24	19.83	-35.6	-36.8	17.6	0.00e+00	0	57	0	3913285632	40	4492
2026-01-11 15:16:18.37	322.37	19.72	-35.7	-36.9	17.5	0.00e+00	0	58	0	3920625664	40	4532
2026-01-11 15:16:19.38	322.51	19.61	-35.7	-36.9	17.5	0.00e+00	0	57	0	3927965696	40	4541
2026-01-11 15:16:20.39	322.64	19.50	-35.7	-37.0	17.5	0.00e+00	0	57	0	3935305728	40	4548
2026-01-11 15:16:21.40	322.77	19.39	-35.7	-37.0	17.5	0.00e+00	0	57	0	3942645760	41	4308
2026-01-11 15:16:22.41	322.91	19.28	-35.7	-36.9	17.5	0.00e+00	0	57	0	3949985792	41	4286
2026-01-11 15:16:23.42	323.04	19.18	-35.7	-37.0	17.4	0.00e+00	0	57	0	3957325824	41	4300
2026-01-11 15:16:24.43	323.17	19.07	-35.7	-37.0	17.3	0.00e+00	0	57	0	3964665856	41	4319
2026-01-11 15:16:25.44	323.30	18.96	-35.8	-37.1	17.4	0.00e+00	0	57	0	3972005888	41	4341
2026-01-11 15:16:26.46	323.43	18.85	-35.7	-37.0	17.4	0.00e+00	0	57	0	3979345920	41	4305
2026-01-11 15:16:27.47	323.56	18.75	-35.7	-37.0	17.4	0.00e+00	0	57	0	3986685952	41	4314
2026-01-11 15:16:28.48	323.68	18.64	-35.7	-37.0	17.4	0.00e+00	0	57	0	3994025984	41	4321
2026-01-11 15:16:29.48	323.81	18.53	-35.7	-37.0	17.4	0.00e+00	0	58	0	4001366016	41	4322
2026-01-11 15:16:30.50	323.94	18.43	-35.6	-36.9	17.4	0.00e+00	0	57	0	4008706048	41	4276
2026-01-11 15:16:31.51	324.06	18.32	-35.7	-37.0	17.4	0.00e+00	0	57	0	4016046080	41	4293
2026-01-11 15:16:32.52	324.18	18.22	-35.6	-36.9	17.5	0.00e+00	0	57	0	4023386112	41	4272
2026-01-11 15:16:33.53	324.31	18.11	-35.7	-36.9	17.4	0.00e+00	0	57	0	4029677568	41	4280
2026-01-11 15:16:34.53	324.43	18.01	-35.6	-36.9	17.5	0.00e+00	0	57	0	4038066176	41	4274
2026-01-11 15:16:35.54	324.55	17.91	-35.7	-36.9	17.5	0.00e+00	0	57	0	4045406208	41	4276
2026-01-11 15:16:36.55	324.67	17.80	-35.7	-37.0	17.3	0.00e+00	0	57	0	4051697664	41	4321
2026-01-11 15:16:37.56	324.79	17.70	-35.7	-37.0	17.4	0.00e+00	0	57	0	4059037696	41	4321
2026-01-11 15:16:38.57	324.91	17.60	-35.8	-37.1	17.2	0.00e+00	0	57	0	4066377728	41	4376
2026-01-11 15:16:39.58	325.03	17.49	-35.9	-37.2	17.2	0.00e+00	0	57	0	4073717760	41	4397
2026-01-11 15:16:40.59	325.14	17.39	-36.0	-37.3	17.0	0.00e+00	0	57	0	4081057792	41	4457
2026-01-11 15:16:41.60	325.26	17.29	-36.1	-37.4	17.0	0.00e+00	0	57	0	4088397824	41	4505
2026-01-11 15:16:42.61	325.38	17.19	-36.1	-37.4	16.9	0.00e+00	0	57	0	4095737856	41	4516
2026-01-11 15:16:43.62	325.49	17.09	-36.2	-37.5	16.8	0.00e+00	0	58	0	4103077888	41	4577
2026-01-11 15:16:44.63	325.61	16.98	-36.2	-37.6	16.8	0.00e+00	0	57	0	4110417920	41	4606
2026-01-11 15:16:45.64	325.72	16.88	-36.3	-37.6	16.7	0.00e+00	0	57	0	4117757952	42	4372
2026-01-11 15:16:46.65	325.83	16.78	-36.2	-37.6	16.7	0.00e+00	0	57	0	4125097984	42	4372
2026-01-11 15:16:47.66	325.95	16.68	-36.3	-37.6	16.7	0.00e+00	0	57	0	4132438016	42	4374
2026-01-11 15:16:48.67	326.06	16.58	-36.3	-37.7	16.7	0.00e+00	0	57	0	4139778048	42	4402
2026-01-11 15:16:49.68	326.17	16.48	-36.3	-37.7	16.6	0.00e+00	0	57	0	4147118080	42	4417
2026-01-11 15:16:50.69	326.28	16.38	-36.3	-37.7	16.6	0.00e+00	0	57	0	4154458112	42	4428
2026-01-11 15:16:51.71	326.39	16.28	-36.3	-37.7	16.6	0.00e+00	0	57	0	4161798144	42	4427
2026-01-11 15:16:52.72	326.50	16.19	-36.4	-37.7	16.5	0.00e+00	0	57	0	4169138176	42	4440
2026-01-11 15:16:53.72	326.60	16.09	-36.3	-37.7	16.6	0.00e+00	0	57	0	4176478208	42	4404
2026-01-11 15:16:54.73	326.71	15.99	-36.4	-37.7	16.5	0.00e+00	0	57	0	4183818240	42	4432
2026-01-11 15:16:55.74	326.82	15.89	-36.4	-37.8	16.5	0.00e+00	0	57	0	4191158272	42	4461
2026-01-11 15:16:56.75	326.92	15.79	-36.4	-37.8	16.5	0.00e+00	0	57	0	4198498304	42	4472
2026-01-11 15:16:57.77	327.03	15.70	-36.4	-37.8	16.5	0.00e+00	0	57	0	4204789760	42	4457
2026-01-11 15:16:58.77	327.13	15.60	-36.4	-37.8	16.5	0.00e+00	0	57	0	4212129792	42	4464
2026-01-11 15:16:59.78	327.24	15.50	-36.4	-37.8	16.4	0.00e+00	0	57	0	4220518400	42	4485
2026-01-11 15:17:00.79	327.34	15.41	-36.4	-37.7	16.5	0.00e+00	0	57	0	4226809856	42	4440
2026-01-11 15:17:01.80	327.45	15.31	-36.4	-37.8	16.5	0.00e+00	0	57	0	4234149888	42	4455
2026-01-11 15:17:02.81	327.55	15.22	-36.4	-37.8	16.5	0.00e+00	0	57	0	4241489920	42	4449
2026-01-11 15:17:03.83	327.65	15.12	-36.4	-37.8	16.4	0.00e+00	0	57	0	4248829952	42	4469
2026-01-11 15:17:04.83	327.75	15.03	-36.4	-37.8	16.4	0.00e+00	0	57	0	4256169984	42	4483
2026-01-11 15:17:05.84	327.85	14.93	-36.5	-37.9	16.4	0.00e+00	0	57	0	4263510016	42	4494
2026-01-11 15:17:06.85	327.95	14.84	-36.5	-37.8	16.4	0.00e+00	0	57	0	4270850048	42	4493
2026-01-11 15:17:07.86	328.05	14.74	-36.4	-37.8	16.4	0.00e+00	0	57	0	4278190080	42	4480
2026-01-11 15:17:08.87	328.15	14.65	-36.5	-37.9	16.3	0.00e+00	0	57	0	4285530112	42	4533
2026-01-11 15:17:09.88	328.25	14.56	-36.6	-38.0	16.2	0.00e+00	0	57	0	4292870144	42	4557
2026-01-11 15:17:10.89	328.34	14.46	-36.6	-38.0	16.2	0.00e+00	0	57	0	4300210176	42	4567
2026-01-11 15:17:11.90	328.44	14.37	-36.7	-38.1	16.1	0.00e+00	0	57	0	4307550208	42	4622
2026-01-11 15:17:12.91	328.54	14.28	-36.6	-38.0	16.1	0.00e+00	0	58	0	4314890240	43	4339
2026-01-11 15:17:13.92	328.63	14.18	-36.7	-38.2	16.0	0.00e+00	0	57	0	4322230272	43	4402
2026-01-11 15:17:14.93	328.73	14.09	-36.7	-38.2	16.0	0.00e+00	0	57	0	4329570304	43	4410
2026-01-11 15:17:15.95	328.82	14.00	-36.8	-38.2	16.0	0.00e+00	0	57	0	4336910336	43	4425
2026-01-11 15:17:16.96	328.92	13.91	-36.8	-38.3	15.9	0.00e+00	0	57	0	4344250368	43	4453
2026-01-11 15:17:17.97	329.01	13.82	-36.9	-38.4	15.8	0.00e+00	0	58	0	4350541824	43	4496
2026-01-11 15:17:18.98	329.10	13.73	-36.9	-38.4	15.7	0.00e+00	0	57	0	4357881856	43	4534
2026-01-11 15:17:19.99	329.19	13.63	-37.0	-38.5	15.6	0.00e+00	0	57	0	4366270464	43	4569
2026-01-11 15:17:21.00	329.29	13.54	-37.0	-38.6	15.6	0.00e+00	0	57	0	4372561920	43	4606
2026-01-11 15:17:22.01	329.38	13.45	-37.1	-38.6	15.5	0.00e+00	0	57	0	4379901952	43	4635
2026-01-11 15:17:23.02	329.47	13.36	-37.1	-38.6	15.5	0.00e+00	0	57	0	4387241984	43	4633
2026-01-11 15:17:24.03	329.56	13.27	-37.1	-38.6	15.5	0.00e+00	0	57	0	4394582016	43	4651
2026-01-11 15:17:25.04	329.65	13.19	-37.1	-38.7	15.4	0.00e+00	0	57	0	4401922048	43	4667
2026-01-11 15:17:26.05	329.74	13.10	-37.4	-38.9	15.3	0.00e+00	0	57	0	4409262080	44	4540
2026-01-11 15:17:27.06	329.83	13.01	-37.3	-38.9	15.4	0.00e+00	0	57	0	4416602112	44	4497
2026-01-11 15:17:28.07	329.91	12.92	-37.3	-38.9	15.3	0.00e+00	0	57	0	4423942144	44	4521
2026-01-11 15:17:29.08	330.00	12.83	-37.4	-38.9	15.3	1.10e-06	0	58	0	4431282176	44	4534
2026-01-11 15:17:30.09	330.09	12.74	-37.4	-38.9	15.3	0.00e+00	0	58	0	4438622208	44	4525
2026-01-11 15:17:31.10	330.18	12.65	-37.5	-39.1	15.1	0.00e+00	0	57	0	4445962240	44	4643
2026-01-11 15:17:32.11	330.26	12.57	-37.5	-39.1	15.2	1.10e-06	0	57	0	4453302272	44	4600
2026-01-11 15:17:33.12	330.35	12.48	-37.3	-38.9	15.3	0.00e+00	0	57	0	4460642304	44	4509
