passes_logs/2026/01/11/R2.0S_Moscow/R2.0S_Moscow__20260111_100138_FENGYUN_3D_rec.log

#Pass ID: 20260111_100138_FENGYUN 3D
#Satellite: FENGYUN 3D
#Configuration: FENGYUN 3D
#almurnet v.1.7.20251203
#Start time: 2026-01-11 10:01:39

#Version: 2.2.20231116
#Station: R2.0S_Moscow
#Location: 37.707566 lon 55.798166 lat
#TLE: 1 43010U 17072A   26009.92921666 -.00000228  00000+0 -86059-4 0  9998
#TLE: 2 43010  98.9936 341.6668 0002176 116.7510 243.3888 14.19693142422537

#Time	Az	El	Level	Level2	SNR	BER	BlckErr	Temp	State	Recorded	gain1	gain2
2026-01-11 10:01:39.32	103.64	2.05	-40.0	-51.6	3.8	8.46e-01	0	46	0	0	50	14621
2026-01-11 10:01:40.32	103.57	2.10	-40.0	-51.5	3.8	8.46e-01	0	47	104	0	51	13719
2026-01-11 10:01:41.33	103.49	2.15	-39.9	-51.6	3.8	8.47e-01	0	47	104	0	51	13735
2026-01-11 10:01:42.34	103.41	2.21	-39.9	-51.5	3.8	8.46e-01	0	47	104	0	51	13682
2026-01-11 10:01:43.35	103.34	2.26	-39.9	-51.6	3.8	8.46e-01	0	47	104	0	51	13767
2026-01-11 10:01:44.36	103.26	2.32	-39.7	-51.5	3.8	8.46e-01	0	47	104	0	50	14523
2026-01-11 10:01:45.37	103.18	2.37	-40.0	-51.6	3.8	8.46e-01	0	47	104	0	50	14562
2026-01-11 10:01:46.38	103.10	2.43	-40.0	-51.6	3.8	8.46e-01	0	47	104	0	50	14577
2026-01-11 10:01:47.39	103.02	2.48	-39.9	-51.6	3.8	8.47e-01	0	47	104	0	50	14588
2026-01-11 10:01:48.40	102.94	2.54	-40.0	-51.6	3.8	8.46e-01	0	47	104	0	50	14551
2026-01-11 10:01:49.41	102.86	2.59	-40.0	-51.6	3.8	8.46e-01	0	48	104	0	50	14541
2026-01-11 10:01:50.43	102.78	2.65	-39.9	-51.5	3.8	8.46e-01	0	48	104	0	50	14505
2026-01-11 10:01:51.44	102.70	2.70	-39.9	-51.6	3.8	8.46e-01	0	48	104	0	50	14548
2026-01-11 10:01:52.45	102.62	2.76	-39.9	-51.6	3.8	8.46e-01	0	48	104	0	50	14580
2026-01-11 10:01:53.46	102.54	2.81	-39.9	-51.6	3.8	8.45e-01	0	48	104	0	50	14591
2026-01-11 10:01:54.47	102.46	2.87	-40.0	-51.5	3.8	8.45e-01	0	48	104	0	50	14530
2026-01-11 10:01:55.48	102.38	2.92	-40.0	-51.6	3.8	8.47e-01	0	48	104	0	50	14573
2026-01-11 10:01:56.49	102.30	2.98	-40.0	-51.5	3.8	8.46e-01	0	48	104	0	50	14539
2026-01-11 10:01:57.50	102.22	3.03	-39.9	-51.6	3.8	8.46e-01	0	48	104	0	50	14546
2026-01-11 10:01:58.51	102.13	3.09	-39.9	-51.6	3.8	8.46e-01	0	48	104	0	50	14586
2026-01-11 10:01:59.53	102.05	3.14	-39.9	-51.6	3.8	8.46e-01	0	48	104	0	50	14548
2026-01-11 10:02:00.54	101.97	3.20	-39.9	-51.6	3.8	8.46e-01	0	48	104	0	50	14546
2026-01-11 10:02:01.55	101.88	3.25	-40.0	-51.5	3.8	8.47e-01	0	48	104	0	50	14534
2026-01-11 10:02:02.56	101.80	3.31	-39.9	-51.5	3.8	8.45e-01	0	48	104	0	50	14529
2026-01-11 10:02:03.57	101.72	3.36	-39.9	-51.6	3.8	8.46e-01	0	49	104	0	50	14582
2026-01-11 10:02:04.58	101.63	3.42	-39.9	-51.6	3.8	8.46e-01	0	48	104	0	50	14564
2026-01-11 10:02:05.59	101.55	3.48	-39.9	-51.6	3.8	8.47e-01	0	48	104	0	50	14563
2026-01-11 10:02:06.60	101.46	3.53	-39.9	-51.6	3.8	8.47e-01	0	48	104	0	50	14551
2026-01-11 10:02:07.61	101.38	3.59	-39.9	-51.6	3.8	8.47e-01	0	49	104	0	50	14552
2026-01-11 10:02:08.62	101.29	3.64	-39.9	-51.5	3.8	8.46e-01	0	49	104	0	50	14534
2026-01-11 10:02:09.63	101.21	3.70	-39.9	-51.5	3.8	8.46e-01	0	49	104	0	50	14539
2026-01-11 10:02:10.64	101.12	3.75	-39.9	-51.6	3.8	8.48e-01	0	49	104	0	50	14565
2026-01-11 10:02:11.66	101.03	3.81	-39.9	-51.6	3.8	8.47e-01	0	49	104	0	50	14628
2026-01-11 10:02:12.67	100.95	3.87	-39.9	-51.6	3.8	8.46e-01	0	49	104	0	50	14558
2026-01-11 10:02:13.68	100.86	3.92	-39.9	-51.6	3.8	8.46e-01	0	49	104	0	50	14547
2026-01-11 10:02:14.69	100.77	3.98	-39.9	-51.6	3.8	8.47e-01	0	49	104	0	50	14569
2026-01-11 10:02:15.70	100.68	4.04	-39.9	-51.6	3.8	8.45e-01	0	49	104	0	50	14551
2026-01-11 10:02:16.71	100.60	4.09	-39.9	-51.5	3.8	8.47e-01	0	49	104	0	50	14516
2026-01-11 10:02:17.72	100.51	4.15	-39.9	-51.5	3.8	8.45e-01	0	49	104	0	50	14516
2026-01-11 10:02:18.73	100.42	4.20	-39.9	-51.6	3.8	8.47e-01	0	49	104	0	50	14547
2026-01-11 10:02:19.75	100.33	4.26	-39.9	-51.6	3.8	8.47e-01	0	50	104	0	50	14601
2026-01-11 10:02:20.76	100.24	4.32	-39.9	-51.6	3.8	8.46e-01	0	49	104	0	50	14545
2026-01-11 10:02:21.77	100.15	4.37	-39.9	-51.6	3.8	8.46e-01	0	50	104	0	50	14551
2026-01-11 10:02:22.78	100.06	4.43	-39.9	-51.6	3.8	8.45e-01	0	50	104	0	50	14568
2026-01-11 10:02:23.79	99.97	4.49	-39.9	-51.5	3.8	8.46e-01	0	50	104	0	50	14513
2026-01-11 10:02:24.80	99.88	4.54	-39.9	-51.6	3.8	8.46e-01	0	50	104	0	50	14579
2026-01-11 10:02:25.81	99.79	4.60	-39.9	-51.6	3.8	8.44e-01	0	50	104	0	50	14572
2026-01-11 10:02:26.82	99.69	4.66	-39.9	-51.6	3.8	8.46e-01	0	50	104	0	50	14551
2026-01-11 10:02:27.83	99.60	4.71	-39.9	-51.6	3.8	8.46e-01	0	50	104	0	50	14563
2026-01-11 10:02:28.84	99.51	4.77	-40.0	-51.5	3.8	8.46e-01	0	50	104	0	50	14494
2026-01-11 10:02:29.85	99.42	4.83	-39.9	-51.5	3.8	8.46e-01	0	50	104	0	50	14455
2026-01-11 10:02:30.86	99.32	4.89	-39.9	-51.5	3.8	8.46e-01	0	50	104	0	50	14528
2026-01-11 10:02:31.87	99.23	4.94	-39.9	-51.5	3.8	8.47e-01	0	50	104	0	50	14499
2026-01-11 10:02:32.89	99.14	5.00	-39.9	-51.6	3.8	8.46e-01	0	50	104	0	50	14562
2026-01-11 10:02:33.89	99.04	5.06	-39.9	-51.6	3.8	8.47e-01	0	50	104	0	50	14607
2026-01-11 10:02:34.91	98.95	5.11	-39.9	-51.5	3.8	8.46e-01	0	50	104	0	50	14516
2026-01-11 10:02:35.92	98.85	5.17	-39.9	-51.6	3.8	8.46e-01	0	50	104	0	50	14571
2026-01-11 10:02:36.93	98.76	5.23	-39.9	-51.6	3.8	8.47e-01	0	50	104	0	50	14572
2026-01-11 10:02:37.94	98.66	5.29	-39.9	-51.5	3.8	8.46e-01	0	50	104	0	50	14504
2026-01-11 10:02:38.95	98.56	5.34	-39.9	-51.5	3.8	8.46e-01	0	50	104	0	50	14532
2026-01-11 10:02:39.96	98.47	5.40	-39.9	-51.5	3.8	8.47e-01	0	50	104	0	50	14532
2026-01-11 10:02:40.97	98.37	5.46	-39.9	-51.6	3.8	8.47e-01	0	50	104	0	50	14569
2026-01-11 10:02:41.98	98.27	5.52	-39.9	-51.6	3.8	8.46e-01	0	51	104	0	50	14542
2026-01-11 10:02:42.99	98.17	5.57	-39.9	-51.5	3.8	8.46e-01	0	51	104	0	50	14515
2026-01-11 10:02:44.00	98.08	5.63	-39.9	-51.5	3.8	8.48e-01	0	51	104	0	50	14522
2026-01-11 10:02:45.02	97.98	5.69	-39.9	-51.5	3.8	8.46e-01	0	51	104	0	50	14515
2026-01-11 10:02:46.03	97.88	5.75	-39.9	-51.5	3.8	8.46e-01	0	51	104	0	50	14524
2026-01-11 10:02:47.04	97.78	5.80	-39.9	-51.6	3.8	8.47e-01	0	51	104	0	50	14561
2026-01-11 10:02:48.05	97.68	5.86	-39.9	-51.5	3.8	8.46e-01	0	51	104	0	50	14492
2026-01-11 10:02:49.06	97.58	5.92	-39.9	-51.5	3.8	8.46e-01	0	51	104	0	50	14447
2026-01-11 10:02:50.07	97.48	5.98	-39.9	-51.5	3.8	8.45e-01	0	51	104	0	50	14520
2026-01-11 10:02:51.08	97.38	6.04	-39.9	-51.5	3.8	8.47e-01	0	51	104	0	50	14533
2026-01-11 10:02:52.10	97.27	6.10	-39.9	-51.5	3.8	8.46e-01	0	51	104	0	50	14533
2026-01-11 10:02:53.11	97.17	6.15	-39.9	-51.5	3.8	8.46e-01	0	51	104	0	50	14488
2026-01-11 10:02:54.12	97.07	6.21	-39.9	-51.5	3.8	8.46e-01	0	51	104	0	50	14510
2026-01-11 10:02:55.13	96.97	6.27	-39.9	-51.5	3.8	8.45e-01	0	51	104	0	50	14519
2026-01-11 10:02:56.14	96.86	6.33	-39.9	-51.6	3.8	8.47e-01	0	51	104	0	50	14545
2026-01-11 10:02:57.15	96.76	6.39	-39.9	-51.5	3.8	8.46e-01	0	51	104	0	50	14531
2026-01-11 10:02:58.16	96.66	6.44	-39.8	-51.5	3.8	8.47e-01	0	51	104	0	50	14502
2026-01-11 10:02:59.17	96.55	6.50	-39.9	-51.5	3.8	8.45e-01	0	51	104	0	50	14497
2026-01-11 10:03:00.18	96.45	6.56	-39.9	-51.5	3.8	8.47e-01	0	51	104	0	50	14502
2026-01-11 10:03:01.19	96.34	6.62	-39.9	-51.6	3.8	8.45e-01	0	51	104	0	50	14542
2026-01-11 10:03:02.20	96.24	6.68	-39.9	-51.5	3.8	8.46e-01	0	51	104	0	50	14526
2026-01-11 10:03:03.21	96.13	6.74	-39.9	-51.6	3.8	8.46e-01	0	51	104	0	50	14542
2026-01-11 10:03:04.22	96.02	6.79	-39.9	-51.6	3.8	8.46e-01	0	51	104	0	50	14564
2026-01-11 10:03:05.24	95.91	6.85	-39.9	-51.5	3.8	8.46e-01	0	51	104	0	50	14535
2026-01-11 10:03:06.25	95.81	6.91	-39.9	-51.6	3.8	8.48e-01	0	51	104	0	50	14554
2026-01-11 10:03:07.26	95.70	6.97	-39.9	-51.5	3.8	8.46e-01	0	52	104	0	50	14514
2026-01-11 10:03:08.27	95.59	7.03	-39.9	-51.5	3.8	8.47e-01	0	52	104	0	50	14537
2026-01-11 10:03:09.28	95.48	7.09	-39.8	-51.5	3.8	8.46e-01	0	52	104	0	50	14489
2026-01-11 10:03:10.29	95.37	7.15	-39.8	-51.5	3.8	8.46e-01	0	52	104	0	50	14512
2026-01-11 10:03:11.30	95.26	7.21	-39.9	-51.5	3.8	8.46e-01	0	52	104	0	50	14503
2026-01-11 10:03:12.31	95.15	7.26	-39.9	-51.5	3.8	8.45e-01	0	52	104	0	50	14527
2026-01-11 10:03:13.32	95.04	7.32	-39.9	-51.5	3.8	8.47e-01	0	52	104	0	50	14524
2026-01-11 10:03:14.33	94.93	7.38	-39.9	-51.6	3.8	8.47e-01	0	52	104	0	50	14545
2026-01-11 10:03:15.35	94.82	7.44	-39.9	-51.6	3.8	8.46e-01	0	52	104	0	50	14544
2026-01-11 10:03:16.36	94.71	7.50	-39.9	-51.5	3.8	8.46e-01	0	52	104	0	50	14513
2026-01-11 10:03:17.37	94.59	7.56	-39.9	-51.5	3.8	8.47e-01	0	52	104	0	50	14519
2026-01-11 10:03:18.38	94.48	7.62	-39.9	-51.5	3.8	8.46e-01	0	52	104	0	50	14513
2026-01-11 10:03:19.39	94.37	7.68	-39.9	-51.5	3.8	8.46e-01	0	52	104	0	50	14507
2026-01-11 10:03:20.40	94.25	7.74	-39.9	-51.5	3.8	8.46e-01	0	52	104	0	50	14513
2026-01-11 10:03:21.41	94.14	7.80	-39.9	-51.5	3.8	8.46e-01	0	52	104	0	50	14519
2026-01-11 10:03:22.42	94.02	7.86	-39.9	-51.6	3.8	8.45e-01	0	52	104	0	50	14548
2026-01-11 10:03:23.43	93.91	7.92	-39.9	-51.5	3.8	8.46e-01	0	52	104	0	50	14506
2026-01-11 10:03:24.44	93.79	7.97	-39.9	-51.5	3.8	8.45e-01	0	52	104	0	50	14526
2026-01-11 10:03:25.45	93.68	8.03	-40.6	-52.1	3.8	8.46e-01	0	52	104	0	51	14697
2026-01-11 10:03:26.46	93.56	8.09	-42.9	-54.4	3.8	8.46e-01	0	52	104	0	57	13556
2026-01-11 10:03:27.47	93.44	8.15	-40.0	-51.6	3.8	8.45e-01	0	52	104	0	51	13824
2026-01-11 10:03:28.48	93.33	8.21	-40.0	-51.6	3.8	8.46e-01	0	52	104	0	51	13831
2026-01-11 10:03:29.49	93.21	8.27	-40.1	-51.6	3.8	8.46e-01	0	52	104	0	51	13863
2026-01-11 10:03:30.50	93.09	8.33	-40.0	-51.6	3.8	8.47e-01	0	52	104	0	51	13777
2026-01-11 10:03:31.51	92.97	8.39	-40.1	-51.7	3.8	8.45e-01	0	52	104	0	51	13977
2026-01-11 10:03:32.53	92.85	8.45	-40.0	-51.6	3.8	8.46e-01	0	52	104	0	51	13775
2026-01-11 10:03:33.54	92.73	8.51	-40.1	-51.7	3.8	8.46e-01	0	52	104	0	51	13949
2026-01-11 10:03:34.55	92.61	8.57	-40.1	-51.6	3.8	8.46e-01	0	53	104	0	50	14696
2026-01-11 10:03:35.56	92.49	8.63	-40.1	-51.7	3.8	8.46e-01	0	53	104	0	50	14789
2026-01-11 10:03:36.57	92.36	8.69	-40.2	-51.8	3.8	8.46e-01	0	53	104	0	50	14890
2026-01-11 10:03:37.58	92.24	8.75	-40.0	-51.7	3.8	8.46e-01	0	53	104	0	51	13922
2026-01-11 10:03:38.59	92.12	8.81	-40.1	-51.8	3.8	8.46e-01	0	53	104	0	51	14057
2026-01-11 10:03:39.60	92.00	8.87	-40.0	-51.7	3.8	8.46e-01	0	53	104	0	51	13923
2026-01-11 10:03:40.61	91.87	8.93	-40.0	-51.6	3.8	8.47e-01	0	53	104	0	51	13759
2026-01-11 10:03:41.62	91.75	8.99	-40.0	-51.7	3.8	8.47e-01	0	53	104	0	51	13927
2026-01-11 10:03:42.63	91.62	9.04	-40.1	-51.7	3.8	8.45e-01	0	53	104	0	51	13939
2026-01-11 10:03:43.64	91.50	9.10	-40.0	-51.6	3.8	8.46e-01	0	53	104	0	51	13884
2026-01-11 10:03:44.65	91.37	9.16	-40.3	-52.0	3.8	8.46e-01	0	53	104	0	51	14390
2026-01-11 10:03:45.66	91.25	9.22	-40.0	-51.1	3.8	8.47e-01	0	53	104	0	52	12258
2026-01-11 10:03:46.67	91.12	9.28	-40.0	-50.7	3.8	8.46e-01	0	53	104	0	51	12465
2026-01-11 10:03:47.68	90.99	9.34	-39.8	-48.6	4.1	8.45e-01	0	53	104	0	51	9743
2026-01-11 10:03:48.69	90.86	9.40	-39.5	-47.0	4.6	8.28e-01	0	53	0	0	51	8125
2026-01-11 10:03:49.70	90.74	9.46	-39.6	-47.0	4.7	7.99e-01	0	53	0	0	50	8590
2026-01-11 10:03:50.71	90.61	9.52	-39.8	-48.4	4.2	8.26e-01	0	53	0	0	50	10089
2026-01-11 10:03:51.72	90.48	9.58	-40.1	-50.4	3.8	8.45e-01	0	53	104	0	50	12767
2026-01-11 10:03:52.73	90.35	9.64	-40.3	-51.3	3.8	8.45e-01	0	53	104	0	51	13335
2026-01-11 10:03:53.75	90.22	9.70	-40.1	-51.5	3.8	8.46e-01	0	53	104	0	51	13652
2026-01-11 10:03:54.75	90.09	9.76	-40.4	-51.5	3.8	8.48e-01	0	53	104	0	51	13604
2026-01-11 10:03:55.76	89.95	9.82	-40.0	-51.6	3.8	8.47e-01	0	53	104	0	51	13820
2026-01-11 10:03:56.77	89.82	9.88	-40.6	-52.2	3.8	8.47e-01	0	53	104	0	52	13970
2026-01-11 10:03:57.78	89.69	9.94	-40.4	-52.2	3.8	8.46e-01	0	53	104	0	52	13959
2026-01-11 10:03:58.79	89.56	10.00	-40.4	-52.1	3.8	8.46e-01	0	53	104	0	51	14563
2026-01-11 10:03:59.80	89.42	10.06	-40.6	-52.1	3.8	8.46e-01	0	53	104	0	51	14642
2026-01-11 10:04:00.81	89.29	10.12	-39.9	-52.1	3.8	8.46e-01	0	53	104	0	51	14640
2026-01-11 10:04:01.82	89.15	10.18	-40.5	-52.2	3.8	8.45e-01	0	53	104	0	51	14828
2026-01-11 10:04:02.83	89.02	10.24	-40.2	-52.1	3.8	8.46e-01	0	53	104	0	51	14690
2026-01-11 10:04:03.84	88.88	10.30	-39.6	-52.0	3.8	8.46e-01	0	53	104	0	50	15243
2026-01-11 10:04:04.85	88.74	10.36	-39.5	-52.4	3.8	8.46e-01	0	53	104	0	50	16048
2026-01-11 10:04:05.86	88.61	10.42	-39.8	-52.2	3.8	8.44e-01	0	54	104	0	50	15617
2026-01-11 10:04:06.87	88.47	10.48	-40.3	-52.3	3.8	8.46e-01	0	54	104	0	51	14917
2026-01-11 10:04:07.88	88.33	10.54	-39.3	-52.0	3.8	8.47e-01	0	54	104	0	50	15395
2026-01-11 10:04:08.89	88.19	10.60	-39.9	-52.3	3.8	8.46e-01	0	54	104	0	51	14927
2026-01-11 10:04:09.90	88.05	10.65	-39.8	-52.3	3.8	8.45e-01	0	54	104	0	51	14981
2026-01-11 10:04:10.91	87.91	10.71	-38.3	-51.8	3.8	8.46e-01	0	54	104	0	49	15912
2026-01-11 10:04:11.92	87.77	10.77	-40.5	-52.3	3.8	8.45e-01	0	53	104	0	51	14907
2026-01-11 10:04:12.93	87.63	10.83	-40.0	-52.0	3.8	8.46e-01	0	54	104	0	51	14404
2026-01-11 10:04:13.94	87.49	10.89	-40.3	-52.0	3.8	8.47e-01	0	53	104	0	51	14391
2026-01-11 10:04:14.95	87.35	10.95	-39.7	-52.1	3.8	8.45e-01	0	54	104	0	50	15536
2026-01-11 10:04:15.96	87.20	11.01	-40.1	-52.0	3.8	8.46e-01	0	54	104	0	51	14418
2026-01-11 10:04:16.97	87.06	11.07	-40.0	-52.0	3.8	8.47e-01	0	54	104	0	50	15360
2026-01-11 10:04:17.98	86.91	11.13	-40.6	-52.3	3.8	8.44e-01	0	54	104	0	51	14906
2026-01-11 10:04:18.99	86.77	11.19	-40.3	-52.0	3.8	8.46e-01	0	54	104	0	51	14485
2026-01-11 10:04:20.00	86.62	11.25	-40.6	-52.3	3.8	8.46e-01	0	54	104	0	51	14955
2026-01-11 10:04:21.01	86.48	11.31	-40.3	-52.0	3.8	8.46e-01	0	54	104	0	51	14479
2026-01-11 10:04:22.02	86.33	11.37	-40.2	-51.9	3.8	8.46e-01	0	54	104	0	51	14308
2026-01-11 10:04:23.03	86.18	11.43	-40.3	-51.9	3.8	8.47e-01	0	54	104	0	51	14369
2026-01-11 10:04:24.04	86.04	11.49	-40.2	-51.9	3.8	8.46e-01	0	54	104	0	51	14308
2026-01-11 10:04:25.05	85.89	11.54	-40.3	-51.9	3.8	8.46e-01	0	54	104	0	51	14360
2026-01-11 10:04:26.06	85.74	11.60	-40.5	-52.2	3.8	8.47e-01	0	54	104	0	51	14810
2026-01-11 10:04:27.06	85.59	11.66	-40.3	-51.9	3.8	8.46e-01	0	54	104	0	51	14260
2026-01-11 10:04:28.07	85.44	11.72	-40.5	-52.1	3.8	8.46e-01	0	54	104	0	51	14665
2026-01-11 10:04:29.08	85.29	11.78	-40.3	-51.8	3.8	8.47e-01	0	54	104	0	51	14171
2026-01-11 10:04:30.09	85.14	11.84	-40.4	-51.9	3.8	8.46e-01	0	54	104	0	51	14292
2026-01-11 10:04:31.10	84.99	11.90	-40.2	-51.9	3.8	8.46e-01	0	54	104	0	51	14278
2026-01-11 10:04:32.11	84.83	11.96	-40.4	-51.9	3.8	8.46e-01	0	54	104	0	51	14307
2026-01-11 10:04:33.13	84.68	12.01	-40.2	-51.9	3.8	8.46e-01	0	54	104	0	51	14255
2026-01-11 10:04:34.14	84.53	12.07	-40.5	-52.0	3.8	8.46e-01	0	54	104	0	51	14535
2026-01-11 10:04:35.15	84.37	12.13	-40.3	-51.8	3.8	8.47e-01	0	54	104	0	51	14147
2026-01-11 10:04:36.15	84.22	12.19	-40.6	-52.0	3.8	8.46e-01	0	54	104	0	51	14506
2026-01-11 10:04:37.17	84.06	12.25	-40.3	-51.8	3.8	8.46e-01	0	54	104	0	51	14168
2026-01-11 10:04:38.18	83.90	12.31	-40.4	-52.0	3.8	8.46e-01	0	54	104	0	51	14439
2026-01-11 10:04:39.19	83.75	12.37	-40.4	-51.9	3.8	8.46e-01	0	54	104	0	51	14264
2026-01-11 10:04:40.20	83.59	12.42	-40.4	-52.0	3.8	8.46e-01	0	54	104	0	51	14478
2026-01-11 10:04:41.21	83.43	12.48	-40.4	-51.9	3.8	8.46e-01	0	54	104	0	51	14351
2026-01-11 10:04:42.22	83.27	12.54	-40.6	-52.1	3.8	8.46e-01	0	54	104	0	52	13775
2026-01-11 10:04:43.23	83.11	12.60	-40.2	-51.8	3.8	8.46e-01	0	54	104	0	52	13378
2026-01-11 10:04:44.24	82.95	12.66	-40.6	-52.0	3.8	8.47e-01	0	54	104	0	52	13605
2026-01-11 10:04:45.25	82.79	12.71	-40.2	-51.8	3.8	8.47e-01	0	54	104	0	52	13307
2026-01-11 10:04:46.26	82.63	12.77	-40.5	-51.9	3.8	8.45e-01	0	54	104	0	52	13550
2026-01-11 10:04:47.27	82.47	12.83	-40.3	-51.9	3.8	8.45e-01	0	54	104	0	52	13464
2026-01-11 10:04:48.28	82.30	12.89	-40.4	-51.9	3.8	8.46e-01	0	54	104	0	52	13562
2026-01-11 10:04:49.29	82.14	12.94	-40.4	-51.9	3.8	8.45e-01	0	54	104	0	52	13524
2026-01-11 10:04:50.30	81.98	13.00	-40.7	-51.8	3.8	8.46e-01	0	54	104	0	52	13276
2026-01-11 10:04:51.31	81.81	13.06	-40.3	-51.9	3.8	8.46e-01	0	55	104	0	52	13470
2026-01-11 10:04:52.32	81.65	13.11	-40.7	-52.0	3.8	8.46e-01	0	54	104	0	52	13633
2026-01-11 10:04:53.33	81.48	13.17	-40.4	-51.9	3.8	8.46e-01	0	54	104	0	52	13455
2026-01-11 10:04:54.34	81.31	13.23	-40.5	-52.0	3.8	8.47e-01	0	55	104	0	52	13671
2026-01-11 10:04:55.35	81.15	13.29	-40.4	-52.0	3.8	8.46e-01	0	54	104	0	52	13614
2026-01-11 10:04:56.36	80.98	13.34	-40.5	-51.8	3.8	8.47e-01	0	54	104	0	52	13308
2026-01-11 10:04:57.37	80.81	13.40	-40.5	-52.2	3.8	8.46e-01	0	55	104	0	52	13943
2026-01-11 10:04:58.38	80.64	13.46	-40.7	-51.5	3.8	8.46e-01	0	54	104	0	52	12955
2026-01-11 10:04:59.39	80.47	13.51	-40.4	-51.8	3.8	8.46e-01	0	54	104	0	52	13313
2026-01-11 10:05:00.40	80.30	13.57	-40.3	-49.8	3.8	8.43e-01	0	55	104	0	52	10594
2026-01-11 10:05:01.41	80.13	13.62	-40.4	-50.3	3.8	8.46e-01	0	55	104	0	52	11228
2026-01-11 10:05:02.43	79.96	13.68	-40.2	-49.1	4.1	8.41e-01	0	55	0	0	52	9724
2026-01-11 10:05:03.44	79.78	13.74	-40.1	-48.4	4.3	8.32e-01	0	55	0	0	52	8981
2026-01-11 10:05:04.44	79.61	13.79	-40.3	-48.9	4.2	8.37e-01	0	55	0	0	52	9505
2026-01-11 10:05:05.46	79.44	13.85	-40.2	-48.1	4.5	8.29e-01	0	55	0	0	52	8754
2026-01-11 10:05:06.47	79.26	13.90	-40.0	-47.0	5.0	8.07e-01	0	55	0	0	52	7679
2026-01-11 10:05:07.48	79.09	13.96	-40.0	-46.1	5.7	6.31e-01	0	55	0	0	52	6905
2026-01-11 10:05:08.49	78.91	14.01	-39.7	-45.3	6.3	3.35e-01	0	55	0	5242880	51	6660
2026-01-11 10:05:09.50	78.73	14.07	-39.6	-44.9	6.6	2.39e-01	0	55	0	10485760	51	6377
2026-01-11 10:05:10.51	78.56	14.12	-39.4	-44.3	7.1	1.88e-01	0	55	0	16777216	50	6333
2026-01-11 10:05:11.52	78.38	14.18	-39.1	-43.7	7.7	1.28e-01	0	55	0	22020096	50	5878
2026-01-11 10:05:12.53	78.20	14.23	-38.8	-43.1	8.2	7.56e-02	0	55	0	28311552	49	5818
2026-01-11 10:05:13.54	78.02	14.29	-38.8	-43.0	8.3	5.99e-02	0	55	0	33554432	49	5755
2026-01-11 10:05:14.55	77.84	14.34	-38.6	-42.6	8.8	4.51e-02	0	55	0	39845888	49	5474
2026-01-11 10:05:15.56	77.66	14.40	-38.0	-41.3	10.2	1.01e-02	0	55	0	45088768	48	5040
2026-01-11 10:05:16.57	77.48	14.45	-37.7	-40.9	10.6	5.21e-03	0	55	0	51380224	47	5069
2026-01-11 10:05:17.58	77.30	14.50	-37.5	-40.5	11.1	2.58e-03	0	55	0	56623104	47	4839
2026-01-11 10:05:18.59	77.12	14.56	-37.5	-40.6	11.0	2.46e-03	0	55	0	61865984	46	5166
2026-01-11 10:05:19.60	76.93	14.61	-37.5	-40.6	11.0	2.16e-03	0	55	0	68157440	46	5170
2026-01-11 10:05:20.61	76.75	14.66	-37.5	-40.6	11.0	2.69e-03	0	55	0	73400320	46	5165
2026-01-11 10:05:21.62	76.57	14.72	-37.5	-40.6	11.0	2.54e-03	0	55	0	79691776	46	5166
2026-01-11 10:05:22.63	76.38	14.77	-37.7	-40.9	10.7	3.34e-03	0	55	0	84934656	46	5345
2026-01-11 10:05:23.64	76.20	14.82	-37.9	-41.2	10.4	4.94e-03	0	55	0	90177536	46	5536
2026-01-11 10:05:24.65	76.01	14.87	-37.9	-41.3	10.2	7.30e-03	0	55	0	96468992	46	5616
2026-01-11 10:05:25.66	75.82	14.93	-38.1	-41.6	9.9	9.93e-03	0	55	0	101711872	46	5796
2026-01-11 10:05:26.67	75.63	14.98	-38.3	-42.0	9.5	1.67e-02	0	55	0	108003328	47	5728
2026-01-11 10:05:27.68	75.45	15.03	-38.5	-42.3	9.0	2.70e-02	0	55	0	113246208	47	5989
2026-01-11 10:05:28.69	75.26	15.08	-38.6	-42.6	8.8	3.70e-02	0	55	0	118489088	47	6156
2026-01-11 10:05:29.70	75.07	15.13	-38.5	-42.5	8.9	3.93e-02	0	55	0	124780544	47	6093
2026-01-11 10:05:30.71	74.88	15.19	-38.5	-42.4	9.0	3.15e-02	0	55	0	130023424	47	6037
2026-01-11 10:05:31.72	74.69	15.24	-38.5	-42.3	9.1	2.87e-02	0	55	0	136314880	47	5980
2026-01-11 10:05:32.73	74.49	15.29	-38.4	-42.1	9.4	2.09e-02	0	55	0	141557760	47	5808
2026-01-11 10:05:33.75	74.30	15.34	-38.3	-41.8	9.7	1.55e-02	0	55	0	147849216	47	5648
2026-01-11 10:05:34.75	74.11	15.39	-38.2	-41.7	9.9	1.27e-02	0	55	0	153092096	47	5574
2026-01-11 10:05:35.76	73.91	15.44	-38.2	-41.8	9.9	1.12e-02	0	55	0	158334976	47	5597
2026-01-11 10:05:36.77	73.72	15.49	-38.2	-41.6	10.1	9.26e-03	0	55	0	164626432	47	5497
2026-01-11 10:05:37.78	73.53	15.54	-38.2	-41.7	10.0	9.38e-03	0	55	0	169869312	47	5543
2026-01-11 10:05:38.79	73.33	15.59	-38.0	-41.3	10.4	7.54e-03	0	55	0	176160768	47	5334
2026-01-11 10:05:39.80	73.13	15.64	-38.1	-41.5	10.2	7.60e-03	0	55	0	181403648	47	5406
2026-01-11 10:05:40.81	72.94	15.69	-38.1	-41.5	10.2	8.04e-03	0	55	0	186646528	47	5420
2026-01-11 10:05:41.82	72.74	15.74	-38.2	-41.6	10.0	9.70e-03	0	55	0	192937984	47	5509
2026-01-11 10:05:42.83	72.54	15.78	-38.2	-41.7	9.9	1.10e-02	0	55	0	198180864	47	5558
2026-01-11 10:05:43.84	72.34	15.83	-38.2	-41.7	9.8	1.32e-02	0	55	0	204472320	47	5551
2026-01-11 10:05:44.85	72.14	15.88	-38.1	-41.5	10.0	1.06e-02	0	55	0	209715200	47	5464
2026-01-11 10:05:45.86	71.94	15.93	-38.3	-41.9	9.7	1.47e-02	0	55	0	214958080	47	5687
2026-01-11 10:05:46.87	71.74	15.98	-38.4	-42.0	9.6	1.64e-02	0	55	0	221249536	47	5758
2026-01-11 10:05:47.88	71.54	16.02	-38.3	-41.8	9.9	1.25e-02	0	55	0	226492416	47	5595
2026-01-11 10:05:48.89	71.34	16.07	-38.2	-41.6	10.1	8.86e-03	0	55	0	232783872	47	5514
2026-01-11 10:05:49.90	71.14	16.12	-38.3	-41.6	10.2	8.27e-03	0	55	0	238026752	47	5510
2026-01-11 10:05:50.91	70.93	16.16	-38.4	-41.7	10.1	7.50e-03	0	55	0	244318208	47	5586
2026-01-11 10:05:51.93	70.73	16.21	-38.0	-41.1	10.9	3.41e-03	0	55	0	249561088	47	5181
2026-01-11 10:05:52.94	70.52	16.26	-37.8	-40.6	11.6	1.23e-03	0	55	0	255852544	47	4896
2026-01-11 10:05:53.95	70.32	16.30	-37.6	-40.3	11.9	7.45e-04	0	55	0	261095424	47	4752
2026-01-11 10:05:54.96	70.11	16.35	-37.4	-40.0	12.5	2.71e-04	0	55	0	266338304	46	4822
2026-01-11 10:05:55.97	69.90	16.39	-37.3	-39.7	12.8	1.20e-04	0	55	0	272629760	46	4687
2026-01-11 10:05:56.98	69.70	16.44	-37.1	-39.5	13.2	5.03e-05	0	55	0	277872640	46	4552
2026-01-11 10:05:57.99	69.49	16.48	-36.9	-39.1	13.7	1.83e-05	0	55	0	284164096	45	4605
2026-01-11 10:05:58.99	69.28	16.52	-36.7	-38.9	13.9	8.00e-06	0	55	0	289406976	45	4496
2026-01-11 10:06:00.00	69.07	16.57	-36.6	-38.6	14.2	4.50e-06	0	55	0	294649856	45	4386
2026-01-11 10:06:01.01	68.86	16.61	-36.5	-38.5	14.4	0.00e+00	0	55	0	300941312	45	4330
2026-01-11 10:06:02.02	68.65	16.65	-36.5	-38.5	14.6	0.00e+00	0	55	0	306184192	45	4317
2026-01-11 10:06:03.03	68.44	16.70	-36.5	-38.4	14.7	0.00e+00	0	55	0	312475648	45	4283
2026-01-11 10:06:04.04	68.23	16.74	-36.4	-38.2	15.0	1.10e-06	0	55	0	317718528	44	4440
2026-01-11 10:06:05.05	68.02	16.78	-36.2	-38.1	15.3	0.00e+00	0	55	0	322961408	44	4350
2026-01-11 10:06:06.06	67.81	16.82	-36.1	-38.0	15.5	0.00e+00	0	55	0	329252864	44	4300
2026-01-11 10:06:07.07	67.59	16.87	-35.8	-37.5	15.8	0.00e+00	0	55	0	334495744	43	4324
2026-01-11 10:06:08.09	67.38	16.91	-35.6	-37.3	16.1	0.00e+00	0	55	0	340787200	43	4228
2026-01-11 10:06:09.10	67.16	16.95	-35.5	-37.1	16.4	0.00e+00	0	55	0	346030080	43	4132
2026-01-11 10:06:10.11	66.95	16.99	-35.4	-37.0	16.5	0.00e+00	0	55	0	352321536	42	4333
2026-01-11 10:06:11.12	66.73	17.03	-35.3	-36.8	16.8	0.00e+00	0	55	0	357564416	42	4240
2026-01-11 10:06:12.13	66.52	17.07	-35.2	-36.8	16.9	0.00e+00	0	55	0	363855872	42	4211
2026-01-11 10:06:13.14	66.30	17.11	-35.2	-36.8	17.0	0.00e+00	0	55	0	369098752	42	4221
2026-01-11 10:06:14.14	66.09	17.15	-35.3	-36.9	16.9	0.00e+00	0	55	0	374341632	42	4272
2026-01-11 10:06:15.15	65.87	17.19	-35.3	-36.9	16.9	0.00e+00	0	55	0	380633088	42	4264
2026-01-11 10:06:16.16	65.65	17.22	-35.4	-37.0	16.9	0.00e+00	0	55	0	385875968	42	4301
2026-01-11 10:06:17.17	65.43	17.26	-35.4	-37.0	16.9	0.00e+00	0	55	0	392167424	42	4320
2026-01-11 10:06:18.18	65.21	17.30	-35.4	-37.0	16.9	0.00e+00	0	55	0	397410304	42	4308
2026-01-11 10:06:19.19	64.99	17.34	-35.4	-37.0	17.0	0.00e+00	0	55	0	402653184	42	4304
2026-01-11 10:06:20.20	64.77	17.37	-35.3	-36.9	17.1	0.00e+00	0	55	0	408944640	42	4246
2026-01-11 10:06:21.21	64.55	17.41	-35.3	-36.8	17.2	0.00e+00	0	55	0	414187520	42	4227
2026-01-11 10:06:22.22	64.33	17.45	-35.4	-36.9	17.1	0.00e+00	0	55	0	420478976	42	4272
2026-01-11 10:06:23.24	64.10	17.48	-35.5	-37.0	17.0	0.00e+00	0	55	0	425721856	42	4326
2026-01-11 10:06:24.25	63.88	17.52	-35.4	-36.9	17.1	0.00e+00	0	55	0	430964736	42	4291
2026-01-11 10:06:25.26	63.66	17.55	-35.4	-36.9	17.1	0.00e+00	0	55	0	437256192	42	4272
2026-01-11 10:06:26.27	63.43	17.59	-35.3	-36.9	17.2	0.00e+00	0	55	0	442499072	42	4244
2026-01-11 10:06:27.28	63.21	17.62	-35.3	-36.8	17.3	0.00e+00	0	55	0	448790528	42	4204
2026-01-11 10:06:28.29	62.99	17.66	-35.2	-36.7	17.4	0.00e+00	0	55	0	454033408	42	4180
2026-01-11 10:06:29.30	62.76	17.69	-35.2	-36.7	17.4	0.00e+00	0	55	0	460324864	42	4188
2026-01-11 10:06:30.31	62.53	17.72	-35.3	-36.8	17.3	0.00e+00	0	55	0	465567744	42	4219
2026-01-11 10:06:31.32	62.31	17.76	-35.4	-36.9	17.2	0.00e+00	0	55	0	471859200	42	4276
2026-01-11 10:06:32.33	62.08	17.79	-35.5	-37.0	17.1	0.00e+00	0	55	0	477102080	42	4335
2026-01-11 10:06:33.34	61.85	17.82	-35.5	-37.0	17.1	0.00e+00	0	55	0	482344960	42	4333
2026-01-11 10:06:34.35	61.63	17.85	-35.4	-37.0	17.2	0.00e+00	0	55	0	488636416	42	4292
2026-01-11 10:06:35.36	61.40	17.88	-35.3	-36.8	17.3	0.00e+00	0	55	0	493879296	42	4223
2026-01-11 10:06:36.37	61.17	17.91	-35.2	-36.7	17.5	0.00e+00	0	55	0	500170752	42	4167
2026-01-11 10:06:37.38	60.94	17.94	-35.2	-36.7	17.5	0.00e+00	0	55	0	505413632	42	4170
2026-01-11 10:06:38.39	60.71	17.97	-35.2	-36.7	17.5	0.00e+00	0	55	0	510656512	42	4193
2026-01-11 10:06:39.40	60.48	18.00	-35.3	-36.8	17.4	0.00e+00	0	55	0	516947968	42	4198
2026-01-11 10:06:40.41	60.25	18.03	-35.2	-36.7	17.5	0.00e+00	0	55	0	522190848	42	4161
2026-01-11 10:06:41.42	60.02	18.06	-35.2	-36.7	17.6	0.00e+00	0	55	0	528482304	42	4146
2026-01-11 10:06:42.44	59.79	18.09	-35.2	-36.6	17.6	0.00e+00	0	55	0	533725184	42	4140
2026-01-11 10:06:43.44	59.56	18.11	-35.2	-36.5	18.0	0.00e+00	0	56	0	538968064	42	4084
2026-01-11 10:06:44.45	59.33	18.14	-35.1	-36.4	18.1	0.00e+00	0	55	0	545259520	42	4039
2026-01-11 10:06:45.46	59.09	18.17	-35.1	-36.4	18.2	0.00e+00	0	55	0	550502400	42	4009
2026-01-11 10:06:46.47	58.86	18.19	-35.0	-36.3	18.2	0.00e+00	0	55	0	556793856	42	3999
2026-01-11 10:06:47.48	58.63	18.22	-35.0	-36.3	18.2	0.00e+00	0	56	0	562036736	42	4003
2026-01-11 10:06:48.49	58.39	18.24	-35.0	-36.3	18.2	0.00e+00	0	56	0	568328192	42	3999
2026-01-11 10:06:49.50	58.16	18.27	-35.1	-36.4	18.1	0.00e+00	0	55	0	573571072	42	4035
2026-01-11 10:06:50.51	57.92	18.29	-35.1	-36.5	18.1	0.00e+00	0	56	0	578813952	42	4064
2026-01-11 10:06:51.52	57.69	18.31	-35.2	-36.5	18.0	0.00e+00	0	55	0	585105408	42	4087
2026-01-11 10:06:52.54	57.45	18.34	-35.3	-36.6	18.0	0.00e+00	0	55	0	590348288	42	4109
2026-01-11 10:06:53.55	57.22	18.36	-35.2	-36.5	18.1	0.00e+00	0	55	0	596639744	42	4073
2026-01-11 10:06:54.56	56.98	18.38	-35.1	-36.4	18.2	0.00e+00	0	56	0	601882624	42	4032
2026-01-11 10:06:55.57	56.74	18.40	-35.0	-36.3	18.3	0.00e+00	0	55	0	608174080	42	3977
2026-01-11 10:06:56.58	56.51	18.43	-34.9	-36.2	18.4	0.00e+00	0	55	0	613416960	41	4181
2026-01-11 10:06:57.59	56.27	18.45	-35.0	-36.3	18.3	0.00e+00	0	56	0	618659840	41	4202
2026-01-11 10:06:58.59	56.04	18.47	-35.0	-36.3	18.3	0.00e+00	0	56	0	624951296	41	4221
2026-01-11 10:06:59.61	55.80	18.49	-35.0	-36.3	18.2	0.00e+00	0	55	0	630194176	41	4242
2026-01-11 10:07:00.62	55.56	18.51	-35.1	-36.4	18.2	0.00e+00	0	55	0	636485632	41	4252
2026-01-11 10:07:01.63	55.32	18.52	-35.1	-36.4	18.2	0.00e+00	0	56	0	641728512	41	4264
2026-01-11 10:07:02.64	55.08	18.54	-35.1	-36.3	18.3	0.00e+00	0	56	0	646971392	41	4242
2026-01-11 10:07:03.65	54.84	18.56	-35.0	-36.3	18.3	0.00e+00	0	56	0	653262848	41	4211
2026-01-11 10:07:04.66	54.60	18.58	-35.0	-36.2	18.4	0.00e+00	0	56	0	658505728	41	4184
2026-01-11 10:07:05.66	54.37	18.59	-34.9	-36.2	18.4	0.00e+00	0	55	0	664797184	41	4174
2026-01-11 10:07:06.67	54.13	18.61	-35.0	-36.3	18.3	0.00e+00	0	55	0	670040064	41	4218
2026-01-11 10:07:07.69	53.89	18.63	-35.0	-36.3	18.3	0.00e+00	0	55	0	676331520	41	4235
2026-01-11 10:07:08.70	53.65	18.64	-35.1	-36.3	18.2	0.00e+00	0	55	0	681574400	41	4241
2026-01-11 10:07:09.71	53.41	18.66	-35.1	-36.4	18.2	0.00e+00	0	56	0	686817280	41	4264
2026-01-11 10:07:10.71	53.17	18.67	-35.1	-36.4	18.3	0.00e+00	0	55	0	693108736	41	4250
2026-01-11 10:07:11.72	52.93	18.68	-35.1	-36.4	18.2	0.00e+00	0	56	0	698351616	41	4248
2026-01-11 10:07:12.73	52.69	18.70	-35.0	-36.3	18.3	0.00e+00	0	56	0	704643072	41	4238
2026-01-11 10:07:13.75	52.44	18.71	-35.1	-36.3	18.3	0.00e+00	0	56	0	709885952	41	4239
2026-01-11 10:07:14.75	52.20	18.72	-35.1	-36.3	18.3	0.00e+00	0	56	0	715128832	41	4242
2026-01-11 10:07:15.76	51.96	18.73	-34.9	-36.2	18.4	0.00e+00	0	56	0	721420288	41	4166
2026-01-11 10:07:16.78	51.72	18.75	-34.9	-36.2	18.4	0.00e+00	0	56	0	726663168	41	4160
2026-01-11 10:07:17.79	51.48	18.76	-34.9	-36.2	18.5	0.00e+00	0	56	0	732954624	41	4155
2026-01-11 10:07:18.80	51.24	18.77	-34.9	-36.2	18.5	0.00e+00	0	55	0	738197504	41	4147
2026-01-11 10:07:19.81	50.99	18.78	-34.9	-36.2	18.4	0.00e+00	0	55	0	743440384	41	4168
2026-01-11 10:07:20.82	50.75	18.79	-35.0	-36.2	18.4	0.00e+00	0	55	0	749731840	41	4187
2026-01-11 10:07:21.83	50.51	18.79	-34.9	-36.2	18.4	0.00e+00	0	56	0	754974720	41	4166
2026-01-11 10:07:22.84	50.27	18.80	-34.9	-36.2	18.4	0.00e+00	0	56	0	761266176	41	4174
2026-01-11 10:07:23.85	50.02	18.81	-34.9	-36.2	18.4	0.00e+00	0	56	0	766509056	41	4170
2026-01-11 10:07:24.86	49.78	18.82	-35.0	-36.3	18.4	0.00e+00	0	56	0	772800512	41	4209
2026-01-11 10:07:25.87	49.54	18.82	-35.0	-36.3	18.4	0.00e+00	0	55	0	778043392	41	4203
2026-01-11 10:07:26.88	49.29	18.83	-35.0	-36.3	18.4	0.00e+00	0	56	0	784334848	41	4217
2026-01-11 10:07:27.89	49.05	18.83	-34.9	-36.2	18.4	0.00e+00	0	56	0	789577728	41	4179
2026-01-11 10:07:28.90	48.81	18.84	-34.9	-36.2	18.4	0.00e+00	0	56	0	794820608	41	4179
2026-01-11 10:07:29.91	48.57	18.84	-34.9	-36.2	18.4	0.00e+00	0	56	0	801112064	41	4174
2026-01-11 10:07:30.92	48.32	18.85	-34.9	-36.2	18.4	0.00e+00	0	56	0	806354944	41	4170
2026-01-11 10:07:31.94	48.08	18.85	-34.9	-36.2	18.4	0.00e+00	0	56	0	812646400	41	4188
2026-01-11 10:07:32.95	47.83	18.85	-35.0	-36.3	18.4	0.00e+00	0	56	0	817889280	41	4221
2026-01-11 10:07:33.96	47.59	18.85	-35.1	-36.3	18.3	0.00e+00	0	55	0	823132160	41	4241
2026-01-11 10:07:34.97	47.35	18.86	-35.0	-36.3	18.4	0.00e+00	0	56	0	829423616	41	4199
2026-01-11 10:07:35.97	47.11	18.86	-35.0	-36.3	18.3	0.00e+00	0	56	0	834666496	41	4222
2026-01-11 10:07:36.98	46.86	18.86	-35.0	-36.3	18.3	0.00e+00	0	56	0	840957952	41	4223
2026-01-11 10:07:37.99	46.62	18.86	-35.0	-36.3	18.3	0.00e+00	0	56	0	846200832	41	4242
2026-01-11 10:07:39.00	46.38	18.86	-35.0	-36.3	18.3	0.00e+00	0	56	0	851443712	41	4226
2026-01-11 10:07:40.01	46.13	18.86	-35.0	-36.3	18.4	0.00e+00	0	56	0	857735168	41	4200
2026-01-11 10:07:41.02	45.89	18.85	-34.9	-36.2	18.4	0.00e+00	0	56	0	862978048	41	4174
2026-01-11 10:07:42.03	45.65	18.85	-34.9	-36.1	18.5	0.00e+00	0	56	0	869269504	41	4140
2026-01-11 10:07:43.04	45.40	18.85	-34.8	-36.0	18.7	0.00e+00	0	56	0	874512384	41	4081
2026-01-11 10:07:44.04	45.16	18.85	-34.8	-36.0	18.6	0.00e+00	0	56	0	880803840	41	4088
2026-01-11 10:07:45.05	44.92	18.84	-34.8	-36.1	18.6	0.00e+00	0	56	0	886046720	41	4111
2026-01-11 10:07:46.06	44.68	18.84	-34.9	-36.2	18.5	0.00e+00	0	56	0	892338176	41	4163
2026-01-11 10:07:47.07	44.43	18.83	-34.9	-36.2	18.4	0.00e+00	0	56	0	897581056	41	4190
2026-01-11 10:07:48.08	44.19	18.83	-34.9	-36.2	18.5	0.00e+00	0	56	0	902823936	41	4161
2026-01-11 10:07:49.09	43.95	18.82	-34.8	-36.0	18.6	0.00e+00	0	56	0	909115392	41	4093
2026-01-11 10:07:50.10	43.70	18.82	-34.7	-35.9	18.7	0.00e+00	0	56	0	914358272	41	4046
2026-01-11 10:07:51.11	43.46	18.81	-34.7	-35.9	18.7	0.00e+00	0	56	0	920649728	41	4046
2026-01-11 10:07:52.12	43.22	18.80	-34.8	-36.0	18.6	0.00e+00	0	56	0	925892608	41	4086
2026-01-11 10:07:53.13	42.98	18.79	-34.8	-36.0	18.6	0.00e+00	0	56	0	931135488	41	4096
2026-01-11 10:07:54.14	42.73	18.78	-34.8	-36.1	18.6	0.00e+00	0	55	0	937426944	41	4113
2026-01-11 10:07:55.15	42.49	18.77	-34.8	-36.1	18.6	0.00e+00	0	56	0	942669824	41	4111
2026-01-11 10:07:56.16	42.25	18.77	-34.9	-36.2	18.5	0.00e+00	0	56	0	948961280	41	4166
2026-01-11 10:07:57.17	42.01	18.76	-34.9	-36.2	18.4	0.00e+00	0	56	0	954204160	41	4179
2026-01-11 10:07:58.18	41.77	18.74	-35.0	-36.2	18.4	0.00e+00	0	55	0	959447040	41	4192
2026-01-11 10:07:59.18	41.53	18.73	-35.0	-36.3	18.3	0.00e+00	0	56	0	965738496	41	4230
2026-01-11 10:08:00.19	41.29	18.72	-35.1	-36.4	18.3	0.00e+00	0	56	0	970981376	41	4252
2026-01-11 10:08:01.21	41.04	18.71	-35.0	-36.3	18.3	0.00e+00	0	56	0	977272832	41	4234
2026-01-11 10:08:02.22	40.80	18.70	-35.1	-36.3	18.3	0.00e+00	0	56	0	982515712	41	4239
2026-01-11 10:08:03.23	40.56	18.68	-35.0	-36.3	18.3	0.00e+00	0	56	0	988807168	41	4235
2026-01-11 10:08:04.24	40.32	18.67	-35.0	-36.3	18.3	0.00e+00	0	56	0	994050048	41	4225
2026-01-11 10:08:05.25	40.08	18.66	-35.0	-36.3	18.4	0.00e+00	0	56	0	999292928	41	4196
2026-01-11 10:08:06.26	39.84	18.64	-35.0	-36.3	18.4	0.00e+00	0	56	0	1005584384	41	4220
2026-01-11 10:08:07.27	39.60	18.63	-35.1	-36.4	18.3	0.00e+00	0	56	0	1010827264	41	4248
2026-01-11 10:08:08.28	39.36	18.61	-35.1	-36.4	18.3	0.00e+00	0	56	0	1017118720	41	4246
2026-01-11 10:08:09.29	39.12	18.59	-35.1	-36.4	18.2	0.00e+00	0	56	0	1022361600	41	4264
2026-01-11 10:08:10.30	38.88	18.58	-35.1	-36.4	18.3	0.00e+00	0	56	0	1027604480	41	4259
2026-01-11 10:08:11.31	38.65	18.56	-35.0	-36.3	18.3	0.00e+00	0	56	0	1033895936	41	4227
2026-01-11 10:08:12.32	38.41	18.54	-35.0	-36.3	18.3	0.00e+00	0	56	0	1039138816	41	4217
2026-01-11 10:08:13.33	38.17	18.52	-35.0	-36.3	18.3	0.00e+00	0	56	0	1045430272	41	4233
2026-01-11 10:08:14.34	37.93	18.50	-35.0	-36.3	18.3	0.00e+00	0	56	0	1050673152	41	4235
2026-01-11 10:08:15.35	37.69	18.48	-35.1	-36.4	18.3	0.00e+00	0	56	0	1055916032	41	4254
2026-01-11 10:08:16.36	37.46	18.46	-35.1	-36.4	18.2	0.00e+00	0	56	0	1062207488	41	4282
2026-01-11 10:08:17.37	37.22	18.44	-35.1	-36.4	18.3	0.00e+00	0	56	0	1067450368	41	4261
2026-01-11 10:08:18.38	36.98	18.42	-35.1	-36.5	18.2	0.00e+00	0	56	0	1073741824	41	4294
2026-01-11 10:08:19.39	36.75	18.40	-35.2	-36.5	18.2	0.00e+00	0	56	0	1078984704	41	4296
2026-01-11 10:08:20.40	36.51	18.38	-35.3	-36.6	18.0	0.00e+00	0	56	0	1085276160	41	4371
2026-01-11 10:08:21.41	36.28	18.36	-35.3	-36.6	18.0	0.00e+00	0	56	0	1090519040	41	4370
2026-01-11 10:08:22.42	36.04	18.34	-35.3	-36.7	18.0	0.00e+00	0	56	0	1096810496	41	4394
2026-01-11 10:08:23.43	35.81	18.31	-35.3	-36.6	18.0	0.00e+00	0	56	0	1102053376	41	4377
2026-01-11 10:08:24.44	35.57	18.29	-35.2	-36.5	18.1	0.00e+00	0	56	0	1107296256	41	4313
2026-01-11 10:08:25.45	35.34	18.26	-35.1	-36.4	18.2	0.00e+00	0	56	0	1113587712	41	4277
2026-01-11 10:08:26.46	35.10	18.24	-35.1	-36.4	18.3	0.00e+00	0	56	0	1118830592	41	4246
2026-01-11 10:08:27.47	34.87	18.21	-35.0	-36.3	18.3	0.00e+00	0	56	0	1125122048	41	4221
2026-01-11 10:08:28.48	34.64	18.19	-35.1	-36.4	18.3	0.00e+00	0	56	0	1130364928	41	4246
2026-01-11 10:08:29.49	34.41	18.16	-35.1	-36.4	18.3	0.00e+00	0	56	0	1135607808	41	4243
2026-01-11 10:08:30.51	34.17	18.14	-35.1	-36.4	18.3	0.00e+00	0	56	0	1141899264	41	4245
2026-01-11 10:08:31.52	33.94	18.11	-35.1	-36.4	18.3	0.00e+00	0	56	0	1147142144	41	4251
2026-01-11 10:08:32.52	33.71	18.08	-35.0	-36.3	18.3	0.00e+00	0	56	0	1153433600	41	4199
2026-01-11 10:08:33.53	33.48	18.05	-34.9	-36.2	18.4	0.00e+00	0	56	0	1158676480	41	4169
2026-01-11 10:08:34.54	33.25	18.03	-35.0	-36.2	18.4	0.00e+00	0	56	0	1163919360	41	4191
2026-01-11 10:08:35.56	33.02	18.00	-35.1	-36.4	18.3	0.00e+00	0	56	0	1170210816	41	4250
2026-01-11 10:08:36.57	32.79	17.97	-35.2	-36.5	18.2	0.00e+00	0	56	0	1175453696	41	4307
2026-01-11 10:08:37.57	32.56	17.94	-35.2	-36.6	18.1	0.00e+00	0	56	0	1181745152	41	4348
2026-01-11 10:08:38.58	32.33	17.91	-35.3	-36.6	18.0	0.00e+00	0	56	0	1186988032	41	4381
2026-01-11 10:08:39.59	32.10	17.88	-35.3	-36.6	18.0	0.00e+00	0	56	0	1193279488	41	4359
2026-01-11 10:08:40.60	31.88	17.85	-35.3	-36.6	18.0	0.00e+00	0	56	0	1198522368	41	4352
2026-01-11 10:08:41.61	31.65	17.82	-35.3	-36.6	18.0	0.00e+00	0	56	0	1204813824	41	4374
2026-01-11 10:08:42.62	31.42	17.78	-35.3	-36.7	18.0	0.00e+00	0	56	0	1210056704	41	4394
2026-01-11 10:08:43.63	31.20	17.75	-35.3	-36.6	18.0	0.00e+00	0	56	0	1215299584	41	4390
2026-01-11 10:08:44.64	30.97	17.72	-35.2	-36.6	18.0	0.00e+00	0	56	0	1221591040	41	4347
2026-01-11 10:08:45.65	30.75	17.69	-35.1	-36.4	18.2	0.00e+00	0	56	0	1226833920	41	4290
2026-01-11 10:08:46.66	30.52	17.65	-35.1	-36.4	18.2	0.00e+00	0	56	0	1233125376	41	4262
2026-01-11 10:08:47.67	30.30	17.62	-35.1	-36.5	18.2	0.00e+00	0	56	0	1238368256	41	4295
2026-01-11 10:08:48.68	30.07	17.59	-35.2	-36.5	18.1	0.00e+00	0	56	0	1243611136	41	4305
2026-01-11 10:08:49.69	29.85	17.55	-35.2	-36.5	18.1	0.00e+00	0	56	0	1249902592	41	4340
2026-01-11 10:08:50.70	29.63	17.52	-35.2	-36.6	18.1	0.00e+00	0	56	0	1255145472	41	4350
2026-01-11 10:08:51.71	29.41	17.48	-35.2	-36.5	18.1	0.00e+00	0	56	0	1261436928	41	4333
2026-01-11 10:08:52.72	29.18	17.44	-35.2	-36.6	18.0	0.00e+00	0	56	0	1266679808	41	4344
2026-01-11 10:08:53.73	28.96	17.41	-35.2	-36.6	18.0	0.00e+00	0	56	0	1271922688	41	4348
2026-01-11 10:08:54.73	28.75	17.37	-35.3	-36.6	18.0	0.00e+00	0	56	0	1278214144	41	4371
2026-01-11 10:08:55.75	28.52	17.33	-35.3	-36.6	18.0	0.00e+00	0	56	0	1283457024	41	4376
2026-01-11 10:08:56.76	28.30	17.30	-35.3	-36.6	17.9	0.00e+00	0	56	0	1289748480	41	4383
2026-01-11 10:08:57.76	28.09	17.26	-35.3	-36.6	18.0	0.00e+00	0	56	0	1294991360	41	4373
2026-01-11 10:08:58.77	27.87	17.22	-35.3	-36.6	18.0	0.00e+00	0	56	0	1301282816	41	4381
2026-01-11 10:08:59.78	27.65	17.18	-35.4	-36.7	17.9	0.00e+00	0	56	0	1306525696	41	4421
2026-01-11 10:09:00.79	27.43	17.15	-35.5	-36.8	17.8	0.00e+00	0	56	0	1311768576	41	4483
2026-01-11 10:09:01.80	27.22	17.11	-35.6	-37.0	17.6	0.00e+00	0	56	0	1318060032	41	4552
2026-01-11 10:09:02.81	27.00	17.07	-35.7	-37.1	17.5	0.00e+00	0	56	0	1323302912	41	4615
2026-01-11 10:09:03.82	26.79	17.03	-35.7	-37.1	17.5	0.00e+00	0	56	0	1329594368	41	4626
2026-01-11 10:09:04.83	26.57	16.99	-35.7	-37.1	17.5	0.00e+00	0	56	0	1334837248	41	4615
2026-01-11 10:09:05.84	26.36	16.95	-35.7	-37.0	17.5	0.00e+00	0	56	0	1340080128	41	4589
2026-01-11 10:09:06.85	26.14	16.91	-35.6	-37.0	17.6	0.00e+00	0	56	0	1346371584	41	4547
2026-01-11 10:09:07.86	25.93	16.86	-35.6	-37.0	17.6	0.00e+00	0	56	0	1351614464	41	4563
2026-01-11 10:09:08.87	25.72	16.82	-35.6	-37.0	17.5	0.00e+00	0	56	0	1357905920	41	4582
2026-01-11 10:09:09.88	25.51	16.78	-35.6	-37.0	17.6	0.00e+00	0	56	0	1363148800	41	4575
2026-01-11 10:09:10.89	25.30	16.74	-35.6	-37.0	17.6	0.00e+00	0	56	0	1368391680	41	4554
2026-01-11 10:09:11.90	25.08	16.70	-35.6	-37.0	17.6	0.00e+00	0	56	0	1374683136	41	4547
2026-01-11 10:09:12.91	24.87	16.65	-35.6	-37.0	17.6	0.00e+00	0	56	0	1379926016	41	4576
2026-01-11 10:09:13.92	24.66	16.61	-35.6	-37.0	17.6	0.00e+00	0	56	0	1386217472	41	4571
2026-01-11 10:09:14.93	24.46	16.57	-35.6	-37.0	17.6	0.00e+00	0	56	0	1391460352	41	4583
2026-01-11 10:09:15.94	24.25	16.52	-35.6	-37.0	17.6	0.00e+00	0	56	0	1397751808	41	4584
2026-01-11 10:09:16.95	24.04	16.48	-35.7	-37.0	17.5	0.00e+00	0	56	0	1402994688	41	4591
2026-01-11 10:09:17.96	23.83	16.43	-35.7	-37.1	17.5	0.00e+00	0	56	0	1409286144	41	4607
2026-01-11 10:09:18.97	23.63	16.39	-35.7	-37.2	17.4	0.00e+00	0	56	0	1414529024	42	4393
2026-01-11 10:09:19.98	23.42	16.34	-35.8	-37.3	17.3	0.00e+00	0	56	0	1419771904	42	4451
2026-01-11 10:09:20.99	23.22	16.30	-35.9	-37.4	17.2	0.00e+00	0	56	0	1426063360	42	4519
2026-01-11 10:09:22.00	23.01	16.25	-36.0	-37.4	17.1	0.00e+00	0	56	0	1431306240	42	4538
2026-01-11 10:09:23.01	22.81	16.21	-35.9	-37.4	17.2	0.00e+00	0	56	0	1437597696	42	4512
2026-01-11 10:09:24.01	22.61	16.16	-35.9	-37.3	17.3	0.00e+00	0	56	0	1442840576	42	4482
2026-01-11 10:09:25.02	22.40	16.12	-35.9	-37.3	17.3	0.00e+00	0	56	0	1448083456	42	4462
2026-01-11 10:09:26.03	22.20	16.07	-35.8	-37.2	17.4	0.00e+00	0	56	0	1454374912	42	4407
2026-01-11 10:09:27.04	22.00	16.02	-35.8	-37.3	17.3	0.00e+00	0	56	0	1459617792	42	4446
2026-01-11 10:09:28.05	21.80	15.98	-35.9	-37.4	17.2	0.00e+00	0	56	0	1465909248	42	4501
2026-01-11 10:09:29.07	21.60	15.93	-36.0	-37.5	17.1	0.00e+00	0	56	0	1471152128	42	4567
2026-01-11 10:09:30.08	21.40	15.88	-36.1	-37.6	17.0	0.00e+00	0	56	0	1476395008	42	4604
2026-01-11 10:09:31.08	21.20	15.83	-36.1	-37.5	17.0	0.00e+00	0	56	0	1482686464	42	4592
2026-01-11 10:09:32.09	21.00	15.78	-36.0	-37.4	17.1	0.00e+00	0	56	0	1487929344	42	4540
2026-01-11 10:09:33.11	20.80	15.74	-35.9	-37.3	17.2	0.00e+00	0	56	0	1494220800	42	4480
2026-01-11 10:09:34.12	20.61	15.69	-35.9	-37.3	17.3	0.00e+00	0	56	0	1499463680	42	4465
2026-01-11 10:09:35.13	20.41	15.64	-35.9	-37.3	17.2	0.00e+00	0	56	0	1505755136	42	4482
2026-01-11 10:09:36.14	20.22	15.59	-36.0	-37.4	17.1	0.00e+00	0	56	0	1510998016	42	4521
2026-01-11 10:09:37.15	20.02	15.54	-36.0	-37.5	17.1	0.00e+00	0	56	0	1516240896	42	4559
2026-01-11 10:09:38.16	19.83	15.49	-36.0	-37.5	17.0	0.00e+00	0	56	0	1522532352	42	4562
2026-01-11 10:09:39.17	19.63	15.44	-36.0	-37.5	17.1	0.00e+00	0	56	0	1527775232	42	4557
2026-01-11 10:09:40.18	19.44	15.39	-36.0	-37.5	17.0	0.00e+00	0	56	0	1534066688	42	4561
2026-01-11 10:09:41.19	19.25	15.34	-36.0	-37.5	17.1	0.00e+00	0	56	0	1539309568	42	4553
2026-01-11 10:09:42.20	19.06	15.29	-36.1	-37.5	17.0	0.00e+00	0	56	0	1544552448	42	4587
2026-01-11 10:09:43.21	18.87	15.24	-36.1	-37.6	16.9	0.00e+00	0	56	0	1550843904	42	4639
2026-01-11 10:09:44.22	18.68	15.19	-36.2	-37.7	16.8	0.00e+00	0	56	0	1556086784	42	4665
2026-01-11 10:09:45.23	18.49	15.14	-36.2	-37.7	16.8	0.00e+00	0	56	0	1562378240	42	4656
2026-01-11 10:09:46.24	18.30	15.08	-36.1	-37.6	16.9	0.00e+00	0	56	0	1567621120	42	4645
2026-01-11 10:09:47.25	18.11	15.03	-36.1	-37.6	16.9	0.00e+00	0	56	0	1572864000	42	4606
2026-01-11 10:09:48.26	17.92	14.98	-36.1	-37.6	16.9	0.00e+00	0	56	0	1579155456	42	4644
2026-01-11 10:09:49.27	17.74	14.93	-36.1	-37.6	16.9	0.00e+00	0	56	0	1584398336	42	4642
2026-01-11 10:09:50.28	17.55	14.88	-36.2	-37.7	16.8	0.00e+00	0	56	0	1590689792	42	4673
2026-01-11 10:09:51.29	17.36	14.82	-36.3	-37.8	16.7	0.00e+00	0	56	0	1595932672	43	4462
2026-01-11 10:09:52.30	17.18	14.77	-36.3	-37.8	16.7	0.00e+00	0	56	0	1602224128	43	4456
2026-01-11 10:09:53.32	16.99	14.72	-36.2	-37.7	16.7	0.00e+00	0	56	0	1607467008	43	4441
2026-01-11 10:09:54.33	16.81	14.67	-36.1	-37.6	16.8	0.00e+00	0	56	0	1613758464	43	4372
2026-01-11 10:09:55.34	16.63	14.61	-36.1	-37.6	16.8	0.00e+00	0	56	0	1619001344	43	4369
2026-01-11 10:09:56.35	16.44	14.56	-36.2	-37.7	16.8	0.00e+00	0	56	0	1624244224	43	4400
2026-01-11 10:09:57.35	16.26	14.51	-36.2	-37.7	16.7	0.00e+00	0	56	0	1630535680	43	4432
2026-01-11 10:09:58.36	16.08	14.45	-36.3	-37.8	16.6	0.00e+00	0	56	0	1635778560	43	4481
2026-01-11 10:09:59.37	15.90	14.40	-36.4	-38.0	16.4	0.00e+00	0	56	0	1642070016	43	4563
2026-01-11 10:10:00.38	15.72	14.34	-36.4	-38.0	16.5	0.00e+00	0	56	0	1647312896	43	4554
2026-01-11 10:10:01.39	15.55	14.29	-36.3	-37.9	16.6	0.00e+00	0	56	0	1652555776	43	4495
2026-01-11 10:10:02.40	15.37	14.24	-36.2	-37.7	16.7	0.00e+00	0	56	0	1658847232	43	4416
2026-01-11 10:10:03.41	15.19	14.18	-36.1	-37.6	16.8	0.00e+00	0	56	0	1664090112	43	4375
2026-01-11 10:10:04.42	15.01	14.13	-36.2	-37.6	16.7	0.00e+00	0	56	0	1670381568	43	4391
2026-01-11 10:10:05.43	14.84	14.07	-36.2	-37.8	16.6	0.00e+00	0	56	0	1675624448	43	4446
2026-01-11 10:10:06.44	14.66	14.02	-36.3	-37.9	16.5	0.00e+00	0	56	0	1680867328	43	4509
2026-01-11 10:10:07.45	14.49	13.96	-36.3	-37.9	16.5	0.00e+00	0	56	0	1687158784	43	4516
2026-01-11 10:10:08.46	14.31	13.91	-36.4	-38.0	16.4	0.00e+00	0	56	0	1692401664	43	4558
2026-01-11 10:10:09.47	14.14	13.85	-36.4	-37.9	16.4	0.00e+00	0	56	0	1698693120	43	4534
2026-01-11 10:10:10.48	13.97	13.80	-36.3	-37.8	16.5	0.00e+00	0	56	0	1703936000	43	4484
2026-01-11 10:10:11.49	13.79	13.74	-36.3	-37.8	16.5	0.00e+00	0	56	0	1710227456	43	4464
2026-01-11 10:10:12.50	13.62	13.69	-36.3	-37.8	16.5	0.00e+00	0	56	0	1715470336	43	4476
2026-01-11 10:10:13.51	13.45	13.63	-36.4	-37.9	16.4	0.00e+00	0	56	0	1721761792	43	4521
2026-01-11 10:10:14.52	13.28	13.57	-36.4	-38.0	16.3	0.00e+00	0	56	0	1727004672	43	4575
2026-01-11 10:10:15.53	13.11	13.52	-36.5	-38.1	16.2	0.00e+00	0	56	0	1732247552	43	4622
2026-01-11 10:10:16.54	12.94	13.46	-36.6	-38.2	16.0	0.00e+00	0	56	0	1738539008	43	4690
2026-01-11 10:10:17.55	12.77	13.40	-36.9	-38.5	15.9	0.00e+00	0	56	0	1743781888	44	4596
2026-01-11 10:10:18.57	12.60	13.35	-36.9	-38.5	15.9	0.00e+00	0	56	0	1750073344	44	4595
2026-01-11 10:10:19.58	12.44	13.29	-36.8	-38.5	15.9	0.00e+00	0	56	0	1755316224	44	4567
2026-01-11 10:10:20.59	12.27	13.23	-36.8	-38.4	15.9	0.00e+00	0	56	0	1760559104	44	4531
2026-01-11 10:10:21.60	12.10	13.18	-36.8	-38.5	15.8	0.00e+00	0	56	0	1766850560	44	4561
2026-01-11 10:10:22.61	11.94	13.12	-36.9	-38.5	15.8	0.00e+00	0	56	0	1772093440	44	4586
2026-01-11 10:10:23.62	11.78	13.06	-37.0	-38.7	15.6	0.00e+00	0	56	0	1778384896	44	4659
2026-01-11 10:10:24.63	11.61	13.01	-36.9	-38.7	15.6	0.00e+00	0	56	0	1783627776	44	4652
2026-01-11 10:10:25.64	11.45	12.95	-36.9	-38.6	15.6	0.00e+00	0	56	0	1788870656	44	4609
2026-01-11 10:10:26.65	11.29	12.89	-36.9	-38.6	15.6	0.00e+00	0	56	0	1795162112	44	4616
2026-01-11 10:10:27.66	11.12	12.84	-36.9	-38.7	15.4	0.00e+00	0	56	0	1800404992	44	4667
2026-01-11 10:10:28.67	10.96	12.78	-36.9	-38.6	15.3	0.00e+00	0	56	0	1806696448	44	4639
2026-01-11 10:10:29.68	10.80	12.72	-36.9	-38.7	15.2	0.00e+00	0	56	0	1811939328	44	4678
2026-01-11 10:10:30.69	10.64	12.66	-36.7	-38.5	15.3	0.00e+00	0	56	0	1818230784	44	4566
2026-01-11 10:10:31.70	10.48	12.61	-36.6	-38.4	15.4	0.00e+00	0	56	0	1823473664	44	4506
2026-01-11 10:10:32.71	10.32	12.55	-36.7	-38.4	15.3	0.00e+00	0	56	0	1829765120	44	4535
2026-01-11 10:10:33.72	10.17	12.49	-36.6	-38.4	15.3	0.00e+00	0	56	0	1835008000	44	4505
2026-01-11 10:10:34.74	10.01	12.43	-36.5	-38.2	15.3	0.00e+00	0	56	0	1840250880	44	4436
2026-01-11 10:10:35.74	9.85	12.37	-36.5	-38.3	15.2	0.00e+00	0	56	0	1846542336	44	4482
2026-01-11 10:10:36.75	9.70	12.32	-36.4	-38.2	15.3	0.00e+00	0	56	0	1851785216	44	4407
2026-01-11 10:10:37.76	9.54	12.26	-36.4	-38.2	15.2	0.00e+00	0	56	0	1858076672	44	4395
2026-01-11 10:10:38.77	9.39	12.20	-36.3	-38.2	15.1	0.00e+00	0	56	0	1863319552	44	4402
2026-01-11 10:10:39.78	9.23	12.14	-36.4	-38.3	14.9	0.00e+00	0	56	0	1868562432	44	4472
2026-01-11 10:10:40.79	9.08	12.08	-36.6	-38.6	14.6	2.20e-06	0	56	0	1874853888	44	4605
2026-01-11 10:10:41.81	8.92	12.02	-36.8	-38.8	14.2	0.00e+00	0	56	0	1880096768	44	4735
2026-01-11 10:10:42.82	8.77	11.97	-36.9	-39.0	14.0	3.40e-06	0	56	0	1886388224	44	4836
2026-01-11 10:10:43.83	8.62	11.91	-37.1	-39.3	13.5	1.02e-05	0	56	0	1891631104	44	5022
2026-01-11 10:10:44.84	8.47	11.85	-37.3	-39.7	13.0	4.11e-05	0	56	0	1896873984	45	4953
2026-01-11 10:10:45.85	8.32	11.79	-37.5	-40.0	12.5	1.42e-04	0	56	0	1903165440	45	5143
2026-01-11 10:10:46.86	8.17	11.73	-37.8	-40.5	12.0	3.76e-04	0	56	0	1908408320	46	5123
2026-01-11 10:10:47.87	8.02	11.67	-38.0	-40.9	11.4	1.19e-03	0	56	0	1914699776	46	5358
2026-01-11 10:10:48.88	7.87	11.61	-38.4	-41.5	10.5	3.26e-03	0	56	0	1919942656	47	5460
2026-01-11 10:10:49.89	7.72	11.55	-38.9	-42.5	9.5	1.12e-02	0	56	0	1926234112	48	5783
2026-01-11 10:10:50.90	7.57	11.50	-39.4	-43.8	8.0	5.82e-02	0	57	0	1931476992	49	6338
2026-01-11 10:10:51.91	7.43	11.44	-39.8	-45.0	6.7	1.44e-01	0	57	0	1936719872	50	6848
2026-01-11 10:10:52.92	7.28	11.38	-40.2	-46.4	5.5	4.64e-01	0	57	0	1941962752	50	8059
2026-01-11 10:10:53.93	7.14	11.32	-40.3	-47.6	4.7	7.69e-01	0	56	0	1943011328	51	8751
2026-01-11 10:10:54.94	6.99	11.26	-40.5	-48.7	4.3	8.31e-01	0	56	0	1943011328	51	9936
2026-01-11 10:10:55.95	6.85	11.20	-40.5	-49.5	4.0	8.38e-01	0	57	0	1943011328	51	10885
2026-01-11 10:10:56.96	6.70	11.14	-40.5	-50.1	3.8	8.44e-01	0	57	104	1943011328	51	11585
2026-01-11 10:10:57.97	6.56	11.08	-40.5	-50.4	3.8	8.46e-01	0	57	104	1943011328	51	11958
2026-01-11 10:10:58.98	6.42	11.02	-40.5	-50.9	3.8	8.46e-01	0	56	104	1943011328	51	12716
2026-01-11 10:10:59.99	6.28	10.96	-40.5	-51.4	3.8	8.46e-01	0	56	104	1943011328	51	13420
2026-01-11 10:11:01.00	6.13	10.90	-40.5	-51.8	3.8	8.45e-01	0	56	104	1943011328	51	14086
2026-01-11 10:11:02.01	5.99	10.85	-40.4	-51.9	3.8	8.45e-01	0	56	104	1943011328	51	14351
2026-01-11 10:11:03.02	5.85	10.79	-40.4	-51.9	3.8	8.46e-01	0	56	104	1943011328	51	14252
2026-01-11 10:11:04.03	5.71	10.73	-40.7	-51.5	3.8	8.46e-01	0	57	104	1943011328	51	13706
2026-01-11 10:11:05.04	5.57	10.67	-40.0	-51.6	3.8	8.47e-01	0	57	104	1943011328	51	13750
2026-01-11 10:11:06.05	5.43	10.61	-40.1	-51.7	3.8	8.47e-01	0	57	104	1943011328	51	13959
2026-01-11 10:11:07.06	5.30	10.55	-40.4	-52.0	3.8	8.46e-01	0	56	104	1943011328	51	14500
2026-01-11 10:11:08.07	5.16	10.49	-40.0	-51.7	3.8	8.46e-01	0	56	104	1943011328	51	13943
2026-01-11 10:11:09.08	5.02	10.43	-40.3	-52.0	3.8	8.46e-01	0	57	104	1943011328	51	14423
2026-01-11 10:11:10.09	4.89	10.37	-40.4	-52.0	3.8	8.46e-01	0	56	104	1943011328	51	14416
2026-01-11 10:11:11.10	4.75	10.31	-39.9	-51.5	3.8	8.47e-01	0	57	104	1943011328	51	13571
2026-01-11 10:11:12.11	4.62	10.25	-40.3	-51.9	3.8	8.46e-01	0	57	104	1943011328	51	14245
2026-01-11 10:11:13.12	4.48	10.19	-39.9	-51.4	3.8	8.46e-01	0	56	104	1943011328	51	13556
2026-01-11 10:11:14.13	4.35	10.13	-40.0	-51.6	3.8	8.47e-01	0	57	104	1943011328	51	13846
2026-01-11 10:11:15.14	4.21	10.07	-40.1	-51.7	3.8	8.45e-01	0	57	104	1943011328	51	13982
2026-01-11 10:11:16.15	4.08	10.01	-39.9	-51.5	3.8	8.46e-01	0	56	104	1943011328	51	13687
2026-01-11 10:11:17.16	3.95	9.95	-40.0	-51.7	3.8	8.46e-01	0	56	104	1943011328	51	13911
2026-01-11 10:11:18.17	3.82	9.89	-40.2	-51.8	3.8	8.46e-01	0	56	104	1943011328	51	14095
2026-01-11 10:11:19.18	3.69	9.84	-39.9	-51.5	3.8	8.46e-01	0	56	104	1943011328	51	13615
2026-01-11 10:11:20.19	3.55	9.78	-40.1	-51.8	3.8	8.46e-01	0	56	104	1943011328	51	14057
2026-01-11 10:11:21.20	3.42	9.72	-39.8	-51.4	3.8	8.46e-01	0	56	104	1943011328	51	13546
2026-01-11 10:11:22.20	3.30	9.66	-39.8	-51.5	3.8	8.45e-01	0	56	104	1943011328	51	13606
2026-01-11 10:11:23.21	3.17	9.60	-39.9	-51.6	3.8	8.46e-01	0	57	104	1943011328	51	13744
2026-01-11 10:11:24.23	3.04	9.54	-39.8	-51.4	3.8	8.45e-01	0	57	104	1943011328	51	13565
2026-01-11 10:11:25.24	2.91	9.48	-39.9	-51.6	3.8	8.46e-01	0	56	104	1943011328	51	13767
2026-01-11 10:11:26.25	2.78	9.42	-39.9	-51.6	3.8	8.46e-01	0	57	104	1943011328	51	13760
2026-01-11 10:11:27.25	2.66	9.36	-39.8	-51.4	3.8	8.46e-01	0	57	104	1943011328	51	13479
2026-01-11 10:11:28.26	2.53	9.30	-39.9	-51.5	3.8	8.46e-01	0	56	104	1943011328	51	13710
2026-01-11 10:11:29.27	2.40	9.24	-39.8	-51.4	3.8	8.46e-01	0	57	104	1943011328	51	13552
2026-01-11 10:11:30.29	2.28	9.18	-39.9	-51.5	3.8	8.47e-01	0	57	104	1943011328	51	13679
2026-01-11 10:11:31.30	2.15	9.12	-39.8	-51.4	3.8	8.46e-01	0	57	104	1943011328	51	13563
2026-01-11 10:11:32.31	2.03	9.06	-39.8	-51.5	3.8	8.46e-01	0	56	104	1943011328	51	13629
2026-01-11 10:11:33.32	1.90	9.00	-39.8	-51.4	3.8	8.47e-01	0	57	104	1943011328	51	13549
2026-01-11 10:11:34.33	1.78	8.94	-39.8	-51.5	3.8	8.47e-01	0	56	104	1943011328	51	13659
2026-01-11 10:11:35.34	1.66	8.88	-39.8	-51.5	3.8	8.46e-01	0	56	104	1943011328	51	13666
2026-01-11 10:11:36.35	1.54	8.82	-39.8	-51.5	3.8	8.45e-01	0	56	104	1943011328	51	13625
2026-01-11 10:11:37.36	1.41	8.76	-39.6	-51.4	3.8	8.46e-01	0	56	104	1943011328	51	13540
2026-01-11 10:11:38.37	1.29	8.71	-39.6	-51.4	3.8	8.47e-01	0	57	104	1943011328	50	14308
2026-01-11 10:11:39.38	1.17	8.65	-39.7	-51.4	3.8	8.45e-01	0	56	104	1943011328	50	14361
2026-01-11 10:11:40.39	1.05	8.59	-39.5	-51.4	3.8	8.46e-01	0	57	104	1943011328	50	14225
2026-01-11 10:11:41.40	0.93	8.53	-39.7	-51.5	3.8	8.46e-01	0	57	104	1943011328	50	14427
2026-01-11 10:11:42.41	0.81	8.47	-39.6	-51.5	3.8	8.46e-01	0	56	104	1943011328	50	14388
2026-01-11 10:11:43.42	0.69	8.41	-39.5	-51.4	3.8	8.47e-01	0	57	104	1943011328	50	14298
2026-01-11 10:11:44.43	0.58	8.35	-39.5	-51.5	3.8	8.45e-01	0	57	104	1943011328	50	14385
2026-01-11 10:11:45.44	0.46	8.29	-39.5	-51.4	3.8	8.46e-01	0	57	104	1943011328	50	14260
2026-01-11 10:11:46.45	0.34	8.23	-39.4	-51.4	3.8	8.45e-01	0	56	104	1943011328	50	14361
2026-01-11 10:11:47.46	0.22	8.17	-39.4	-51.4	3.8	8.46e-01	0	57	104	1943011328	50	14314
2026-01-11 10:11:48.46	0.11	8.11	-39.3	-51.4	3.8	8.47e-01	0	57	104	1943011328	50	14315
2026-01-11 10:11:49.48	359.99	8.05	-39.4	-51.4	3.8	8.45e-01	0	57	104	1943011328	50	14366
2026-01-11 10:11:50.49	359.88	7.99	-39.3	-51.5	3.8	8.46e-01	0	56	104	1943011328	50	14423
2026-01-11 10:11:51.50	359.76	7.94	-42.0	-53.7	3.9	8.45e-01	0	57	104	1943011328	54	14737
2026-01-11 10:11:52.51	359.65	7.88	-44.7	-56.1	3.8	8.46e-01	0	57	104	1943011328	59	14639
2026-01-11 10:11:53.52	359.53	7.82	-44.9	-56.6	3.8	8.47e-01	0	57	104	1943011328	60	14643
2026-01-11 10:11:54.53	359.42	7.76	-45.0	-56.8	3.8	8.46e-01	0	57	104	1943011328	60	14912
2026-01-11 10:11:55.54	359.31	7.70	-45.1	-56.9	3.8	8.46e-01	0	57	104	1943011328	60	15154
2026-01-11 10:11:56.55	359.20	7.64	-45.3	-57.0	3.8	8.46e-01	0	57	104	1943011328	61	14487
2026-01-11 10:11:57.56	359.08	7.58	-45.3	-57.0	3.8	8.46e-01	0	57	104	1943011328	61	14515
2026-01-11 10:11:58.58	358.97	7.52	-45.3	-57.0	3.8	8.46e-01	0	57	104	1943011328	61	14489
2026-01-11 10:11:59.59	358.86	7.46	-45.3	-57.1	3.8	8.47e-01	0	57	104	1943011328	61	14565
2026-01-11 10:12:00.60	358.75	7.40	-45.2	-57.0	3.8	8.46e-01	0	57	104	1943011328	61	14527
2026-01-11 10:12:01.61	358.64	7.35	-45.2	-57.0	3.8	8.46e-01	0	57	104	1943011328	61	14433
2026-01-11 10:12:02.62	358.53	7.29	-45.2	-57.0	3.8	8.46e-01	0	57	104	1943011328	61	14483
2026-01-11 10:12:03.63	358.42	7.23	-45.2	-57.0	3.8	8.46e-01	0	57	104	1943011328	60	15297
2026-01-11 10:12:04.64	358.31	7.17	-45.1	-57.0	3.8	8.45e-01	0	57	104	1943011328	60	15272
2026-01-11 10:12:05.65	358.20	7.11	-45.1	-57.0	3.8	8.47e-01	0	56	104	1943011328	60	15301
2026-01-11 10:12:06.66	358.10	7.05	-45.1	-56.9	3.8	8.46e-01	0	57	104	1943011328	60	15205
2026-01-11 10:12:07.67	357.99	6.99	-45.1	-56.9	3.8	8.46e-01	0	57	104	1943011328	60	15162
2026-01-11 10:12:08.69	357.88	6.94	-45.1	-56.9	3.8	8.46e-01	0	57	104	1943011328	60	15119
2026-01-11 10:12:09.70	357.77	6.88	-45.1	-56.9	3.8	8.47e-01	0	57	104	1943011328	60	15135
2026-01-11 10:12:10.71	357.67	6.82	-45.1	-56.9	3.8	8.46e-01	0	57	104	1943011328	60	15153
2026-01-11 10:12:11.72	357.56	6.76	-45.1	-56.9	3.8	8.46e-01	0	57	104	1943011328	60	15146
2026-01-11 10:12:12.73	357.46	6.70	-45.1	-56.9	3.8	8.46e-01	0	56	104	1943011328	60	15150
2026-01-11 10:12:13.74	357.35	6.64	-45.1	-56.9	3.8	8.46e-01	0	57	104	1943011328	60	15136
2026-01-11 10:12:14.75	357.25	6.58	-45.1	-56.9	3.8	8.46e-01	0	57	104	1943011328	60	15162
2026-01-11 10:12:15.76	357.15	6.53	-45.1	-56.9	3.8	8.47e-01	0	57	104	1943011328	60	15110
2026-01-11 10:12:16.77	357.04	6.47	-45.0	-56.9	3.8	8.47e-01	0	57	104	1943011328	60	15078
2026-01-11 10:12:17.78	356.94	6.41	-45.1	-56.9	3.8	8.47e-01	0	57	104	1943011328	60	15083
2026-01-11 10:12:18.79	356.84	6.35	-45.1	-56.9	3.8	8.46e-01	0	57	104	1943011328	60	15102
2026-01-11 10:12:19.80	356.73	6.29	-45.1	-56.9	3.8	8.46e-01	0	57	104	1943011328	60	15084
2026-01-11 10:12:20.81	356.63	6.24	-45.1	-56.9	3.8	8.47e-01	0	57	104	1943011328	60	15116
2026-01-11 10:12:21.82	356.53	6.18	-45.0	-56.9	3.8	8.46e-01	0	57	104	1943011328	60	15058
2026-01-11 10:12:22.83	356.43	6.12	-45.0	-56.9	3.8	8.47e-01	0	57	104	1943011328	60	15096
2026-01-11 10:12:23.85	356.33	6.06	-45.0	-56.9	3.8	8.46e-01	0	57	104	1943011328	60	15082
2026-01-11 10:12:24.86	356.23	6.00	-45.0	-56.9	3.8	8.45e-01	0	57	104	1943011328	60	15061
2026-01-11 10:12:25.87	356.13	5.95	-45.1	-56.9	3.8	8.47e-01	0	57	104	1943011328	60	15109
2026-01-11 10:12:26.88	356.03	5.89	-45.0	-56.9	3.8	8.47e-01	0	57	104	1943011328	60	15099
2026-01-11 10:12:27.89	355.93	5.83	-45.0	-56.9	3.8	8.46e-01	0	57	104	1943011328	60	15113
2026-01-11 10:12:28.90	355.83	5.77	-45.0	-56.9	3.8	8.46e-01	0	57	104	1943011328	60	15078
2026-01-11 10:12:29.91	355.73	5.72	-45.0	-56.9	3.8	8.47e-01	0	57	104	1943011328	60	15067
2026-01-11 10:12:30.92	355.64	5.66	-45.0	-56.9	3.8	8.46e-01	0	57	104	1943011328	60	15068
2026-01-11 10:12:31.94	355.54	5.60	-45.0	-56.9	3.8	8.47e-01	0	57	104	1943011328	60	15063
2026-01-11 10:12:32.95	355.44	5.54	-45.0	-56.8	3.8	8.46e-01	0	57	104	1943011328	60	15037
2026-01-11 10:12:33.96	355.35	5.48	-45.0	-56.9	3.8	8.45e-01	0	57	104	1943011328	60	15072
2026-01-11 10:12:34.97	355.25	5.43	-45.0	-56.9	3.8	8.46e-01	0	57	104	1943011328	60	15108
2026-01-11 10:12:35.98	355.15	5.37	-45.0	-56.9	3.8	8.46e-01	0	57	104	1943011328	60	15065
2026-01-11 10:12:36.99	355.06	5.31	-45.1	-56.9	3.8	8.47e-01	0	57	104	1943011328	60	15097
2026-01-11 10:12:38.00	354.96	5.26	-45.0	-56.9	3.8	8.47e-01	0	57	104	1943011328	60	15110
2026-01-11 10:12:39.01	354.87	5.20	-45.0	-56.9	3.8	8.46e-01	0	57	104	1943011328	60	15064
2026-01-11 10:12:40.02	354.78	5.14	-45.0	-56.8	3.8	8.47e-01	0	57	104	1943011328	60	15045
2026-01-11 10:12:41.03	354.68	5.08	-45.0	-56.9	3.8	8.45e-01	0	57	104	1943011328	60	15065
2026-01-11 10:12:42.05	354.59	5.03	-45.0	-56.9	3.8	8.44e-01	0	57	104	1943011328	60	15055
2026-01-11 10:12:43.06	354.49	4.97	-45.1	-56.9	3.8	8.46e-01	0	57	104	1943011328	60	15078
2026-01-11 10:12:44.07	354.40	4.91	-45.0	-56.9	3.8	8.46e-01	0	57	104	1943011328	60	15072
2026-01-11 10:12:45.08	354.31	4.86	-45.0	-56.9	3.8	8.46e-01	0	57	104	1943011328	60	15070
2026-01-11 10:12:46.09	354.22	4.80	-45.0	-56.8	3.8	8.46e-01	0	57	104	1943011328	60	15032
2026-01-11 10:12:47.10	354.13	4.74	-45.0	-56.8	3.8	8.46e-01	0	57	104	1943011328	60	15051
2026-01-11 10:12:48.11	354.04	4.69	-45.0	-56.8	3.8	8.45e-01	0	56	104	1943011328	60	15040
2026-01-11 10:12:49.12	353.94	4.63	-45.0	-56.8	3.8	8.46e-01	0	56	104	1943011328	60	15023
2026-01-11 10:12:50.14	353.85	4.57	-45.0	-56.9	3.8	8.47e-01	0	57	104	1943011328	60	15103
2026-01-11 10:12:51.15	353.76	4.52	-45.0	-56.8	3.8	8.45e-01	0	57	104	1943011328	60	15048
2026-01-11 10:12:52.16	353.67	4.46	-45.0	-56.9	3.8	8.46e-01	0	57	104	1943011328	60	15064
2026-01-11 10:12:53.17	353.58	4.40	-45.0	-56.9	3.8	8.47e-01	0	57	104	1943011328	60	15058
2026-01-11 10:12:54.18	353.50	4.35	-45.0	-56.8	3.8	8.46e-01	0	57	104	1943011328	60	15024
2026-01-11 10:12:55.19	353.41	4.29	-45.0	-56.8	3.8	8.45e-01	0	57	104	1943011328	60	15020
2026-01-11 10:12:56.20	353.32	4.23	-45.0	-56.8	3.8	8.45e-01	0	57	104	1943011328	60	15051
2026-01-11 10:12:57.21	353.23	4.18	-45.0	-56.8	3.8	8.46e-01	0	57	104	1943011328	60	15042
2026-01-11 10:12:58.22	353.14	4.12	-45.0	-56.8	3.8	8.47e-01	0	57	104	1943011328	60	15044
2026-01-11 10:12:59.23	353.06	4.06	-45.0	-56.9	3.8	8.46e-01	0	57	104	1943011328	60	15092
2026-01-11 10:13:00.25	352.97	4.01	-45.0	-56.8	3.8	8.46e-01	0	57	104	1943011328	60	15031
2026-01-11 10:13:01.26	352.88	3.95	-45.0	-56.8	3.8	8.46e-01	0	57	104	1943011328	60	15024
2026-01-11 10:13:02.27	352.80	3.90	-45.0	-56.8	3.8	8.47e-01	0	57	104	1943011328	60	15029
2026-01-11 10:13:03.28	352.71	3.84	-45.0	-56.9	3.8	8.45e-01	0	57	104	1943011328	60	15095
2026-01-11 10:13:04.29	352.63	3.78	-45.0	-56.9	3.8	8.46e-01	0	57	104	1943011328	60	15057
2026-01-11 10:13:05.30	352.54	3.73	-45.0	-56.8	3.8	8.47e-01	0	57	104	1943011328	60	15006
2026-01-11 10:13:06.31	352.46	3.67	-45.0	-56.8	3.8	8.46e-01	0	57	104	1943011328	60	15010
2026-01-11 10:13:07.32	352.37	3.62	-45.0	-56.8	3.8	8.47e-01	0	57	104	1943011328	60	14996
2026-01-11 10:13:08.33	352.29	3.56	-45.0	-56.8	3.8	8.47e-01	0	57	104	1943011328	60	15051
2026-01-11 10:13:09.34	352.20	3.51	-45.0	-56.8	3.8	8.47e-01	0	56	104	1943011328	60	15034
2026-01-11 10:13:10.35	352.12	3.45	-45.0	-56.8	3.8	8.45e-01	0	57	104	1943011328	60	14981
2026-01-11 10:13:11.37	352.04	3.39	-45.0	-56.8	3.8	8.46e-01	0	57	104	1943011328	60	15034
2026-01-11 10:13:12.38	351.95	3.34	-45.0	-56.8	3.8	8.46e-01	0	57	104	1943011328	60	15042
2026-01-11 10:13:13.39	351.87	3.28	-45.0	-56.8	3.8	8.46e-01	0	57	104	1943011328	60	15039
2026-01-11 10:13:14.40	351.79	3.23	-45.0	-56.9	3.8	8.47e-01	0	57	104	1943011328	60	15079
2026-01-11 10:13:15.41	351.71	3.17	-45.0	-56.8	3.8	8.46e-01	0	57	104	1943011328	60	15048
2026-01-11 10:13:16.42	351.63	3.12	-45.0	-56.8	3.8	8.46e-01	0	57	104	1943011328	60	15026
2026-01-11 10:13:17.43	351.54	3.06	-45.0	-56.8	3.8	8.46e-01	0	57	104	1943011328	60	15001
2026-01-11 10:13:18.44	351.46	3.01	-45.0	-56.8	3.8	8.45e-01	0	57	104	1943011328	60	15040
2026-01-11 10:13:19.45	351.38	2.95	-45.0	-56.8	3.8	8.47e-01	0	57	104	1943011328	60	15039
2026-01-11 10:13:20.47	351.30	2.90	-45.0	-56.8	3.8	8.45e-01	0	56	104	1943011328	60	15005
2026-01-11 10:13:21.48	351.22	2.84	-45.0	-56.8	3.8	8.47e-01	0	57	104	1943011328	60	14980
2026-01-11 10:13:22.49	351.14	2.79	-45.0	-56.8	3.8	8.46e-01	0	57	104	1943011328	60	15003
2026-01-11 10:13:23.50	351.06	2.73	-45.0	-56.8	3.8	8.45e-01	0	56	104	1943011328	60	14958
2026-01-11 10:13:24.51	350.98	2.68	-45.0	-56.8	3.8	8.46e-01	0	57	104	1943011328	60	14975
2026-01-11 10:13:25.52	350.91	2.62	-45.0	-56.8	3.8	8.46e-01	0	57	104	1943011328	60	14997
2026-01-11 10:13:26.53	350.83	2.57	-44.6	-56.8	3.8	8.46e-01	0	57	104	1943011328	60	15000
2026-01-11 10:13:27.54	350.75	2.51	-45.0	-56.8	3.8	8.46e-01	0	57	104	1943011328	60	15015
