passes_logs/2026/01/11/R2.0S_Moscow/R2.0S_Moscow__20260111_012831_AQUA_rec.log

#Pass ID: 20260111_012831_AQUA
#Satellite: AQUA
#Configuration: AQUA
#almurnet v.1.7.20251203
#Start time: 2026-01-11 01:28:31

#Version: 2.2.20231116
#Station: R2.0S_Moscow
#Location: 37.707566 lon 55.798166 lat
#TLE: 1 27424U 02022A   26009.89520876  .00001045  00000+0  21914-3 0  9996
#TLE: 2 27424  98.4076 336.2372 0002032  84.5955   1.0356 14.61811442260144

#Time	Az	El	Level	Level2	SNR	BER	BlckErr	Temp	State	Recorded	gain1	gain2
2026-01-11 01:28:31.09	14.81	1.97	-44.0	-63.2	3.8	7.44e-01	0	47	0	0	59	32947
2026-01-11 01:28:32.09	14.81	2.04	-44.0	-63.2	3.8	7.45e-01	0	48	104	0	58	35017
2026-01-11 01:28:33.10	14.80	2.10	-44.0	-63.2	3.8	7.45e-01	0	48	104	0	58	34883
2026-01-11 01:28:34.11	14.80	2.17	-44.0	-63.1	3.8	7.45e-01	0	48	104	0	58	34862
2026-01-11 01:28:35.12	14.80	2.24	-44.0	-63.2	3.8	7.44e-01	0	48	104	0	58	34960
2026-01-11 01:28:36.13	14.79	2.31	-44.0	-63.2	3.8	7.45e-01	0	48	104	0	58	34949
2026-01-11 01:28:37.14	14.79	2.37	-44.0	-63.2	3.8	7.44e-01	0	48	104	0	58	34916
2026-01-11 01:28:38.15	14.79	2.44	-44.0	-63.2	3.8	7.46e-01	0	48	104	0	58	34944
2026-01-11 01:28:39.16	14.78	2.51	-44.0	-63.1	3.8	7.47e-01	0	48	104	0	58	34864
2026-01-11 01:28:40.17	14.78	2.58	-44.0	-63.2	3.8	7.47e-01	0	48	104	0	58	34886
2026-01-11 01:28:41.18	14.77	2.65	-44.0	-63.1	3.8	7.45e-01	0	48	104	0	58	34838
2026-01-11 01:28:42.19	14.77	2.71	-44.0	-63.1	3.8	7.48e-01	0	48	104	0	58	34871
2026-01-11 01:28:43.20	14.77	2.78	-44.0	-63.1	3.8	7.47e-01	0	48	104	0	58	34868
2026-01-11 01:28:44.22	14.76	2.85	-44.0	-63.1	3.8	7.45e-01	0	48	104	0	58	34854
2026-01-11 01:28:45.23	14.76	2.92	-44.0	-63.1	3.8	7.42e-01	0	48	104	0	58	34839
2026-01-11 01:28:46.24	14.75	2.99	-44.0	-63.2	3.8	7.44e-01	0	48	104	0	58	34897
2026-01-11 01:28:47.25	14.75	3.06	-44.0	-63.1	3.8	7.45e-01	0	49	104	0	58	34820
2026-01-11 01:28:48.26	14.75	3.13	-44.0	-63.1	3.8	7.46e-01	0	49	104	0	58	34861
2026-01-11 01:28:49.27	14.74	3.20	-44.0	-63.1	3.8	7.46e-01	0	49	104	0	58	34874
2026-01-11 01:28:50.28	14.74	3.27	-44.0	-63.1	3.8	7.47e-01	0	49	104	0	58	34819
2026-01-11 01:28:51.29	14.73	3.34	-44.0	-63.1	3.8	7.42e-01	0	49	104	0	58	34817
2026-01-11 01:28:52.31	14.73	3.41	-44.0	-63.1	3.8	7.41e-01	0	49	104	0	58	34846
2026-01-11 01:28:53.32	14.72	3.48	-44.0	-63.1	3.8	7.46e-01	0	49	104	0	58	34718
2026-01-11 01:28:54.33	14.72	3.55	-44.0	-63.1	3.8	7.46e-01	0	49	104	0	58	34778
2026-01-11 01:28:55.34	14.72	3.62	-44.0	-63.1	3.8	7.44e-01	0	49	104	0	58	34646
2026-01-11 01:28:56.35	14.71	3.70	-44.0	-63.1	3.8	7.47e-01	0	49	104	0	58	34646
2026-01-11 01:28:57.36	14.71	3.77	-44.0	-63.1	3.8	7.44e-01	0	49	104	0	58	34642
2026-01-11 01:28:58.37	14.70	3.84	-44.0	-63.1	3.8	7.43e-01	0	49	104	0	58	34588
2026-01-11 01:28:59.38	14.70	3.91	-44.0	-63.1	3.8	7.44e-01	0	49	104	0	58	34561
2026-01-11 01:29:00.39	14.69	3.98	-44.0	-63.1	3.8	7.48e-01	0	49	104	0	58	34585
2026-01-11 01:29:01.40	14.69	4.05	-44.0	-63.1	3.8	7.45e-01	0	49	104	0	58	34681
2026-01-11 01:29:02.41	14.68	4.13	-44.0	-63.1	3.8	7.46e-01	0	49	104	0	58	34556
2026-01-11 01:29:03.42	14.68	4.20	-44.0	-63.1	3.8	7.46e-01	0	50	104	0	58	34819
2026-01-11 01:29:04.43	14.67	4.27	-44.0	-63.1	3.8	7.45e-01	0	50	104	0	58	34482
2026-01-11 01:29:05.45	14.67	4.35	-44.0	-63.1	3.8	7.47e-01	0	50	104	0	58	34740
2026-01-11 01:29:06.46	14.66	4.42	-44.0	-63.0	3.8	7.44e-01	0	50	104	0	58	34167
2026-01-11 01:29:07.47	14.66	4.49	-44.0	-63.1	3.8	7.46e-01	0	50	104	0	58	34801
2026-01-11 01:29:08.48	14.65	4.57	-44.0	-62.9	3.8	7.44e-01	0	50	104	0	58	33996
2026-01-11 01:29:09.49	14.65	4.64	-44.0	-63.1	3.8	7.48e-01	0	50	104	0	58	34645
2026-01-11 01:29:10.50	14.64	4.72	-44.0	-62.9	3.8	7.44e-01	0	50	104	0	58	33762
2026-01-11 01:29:11.51	14.64	4.79	-44.0	-63.0	3.8	7.42e-01	0	50	104	0	58	34173
2026-01-11 01:29:12.52	14.63	4.86	-44.0	-62.9	3.8	7.46e-01	0	50	104	0	58	33854
2026-01-11 01:29:13.53	14.63	4.94	-44.0	-62.7	3.8	7.45e-01	0	50	104	0	58	32939
2026-01-11 01:29:14.54	14.62	5.02	-44.0	-62.9	3.8	7.42e-01	0	50	104	0	58	33942
2026-01-11 01:29:15.55	14.62	5.09	-44.0	-62.5	3.8	7.45e-01	0	50	104	0	58	32363
2026-01-11 01:29:16.56	14.61	5.17	-44.0	-62.4	3.8	7.44e-01	0	50	104	0	58	32156
2026-01-11 01:29:17.57	14.60	5.24	-44.0	-62.6	3.8	7.50e-01	0	50	104	0	58	32743
2026-01-11 01:29:18.59	14.60	5.32	-44.0	-62.1	3.8	7.45e-01	0	50	104	0	58	30942
2026-01-11 01:29:19.60	14.59	5.40	-44.0	-61.9	3.8	7.45e-01	0	50	104	0	58	30062
2026-01-11 01:29:20.61	14.59	5.47	-44.0	-62.2	3.8	7.47e-01	0	50	104	0	58	31338
2026-01-11 01:29:21.61	14.58	5.55	-44.0	-62.0	3.8	7.46e-01	0	50	104	0	58	30666
2026-01-11 01:29:22.63	14.58	5.63	-44.0	-61.5	3.8	7.44e-01	0	50	104	0	58	28781
2026-01-11 01:29:23.64	14.57	5.70	-44.0	-61.3	3.9	7.45e-01	0	51	104	0	58	28046
2026-01-11 01:29:24.65	14.56	5.78	-44.0	-61.7	3.8	7.43e-01	0	51	104	0	58	29481
2026-01-11 01:29:25.66	14.56	5.86	-44.0	-62.0	3.8	7.45e-01	0	51	104	0	58	30443
2026-01-11 01:29:26.67	14.55	5.94	-44.0	-62.2	3.8	7.44e-01	0	51	104	0	58	31098
2026-01-11 01:29:27.68	14.54	6.02	-44.0	-61.6	3.8	7.46e-01	0	51	104	0	58	29324
2026-01-11 01:29:28.69	14.54	6.09	-43.9	-60.9	3.8	7.44e-01	0	51	104	0	58	26940
2026-01-11 01:29:29.70	14.53	6.17	-43.9	-60.7	4.0	7.40e-01	0	51	104	0	58	26222
2026-01-11 01:29:30.71	14.53	6.25	-44.0	-61.8	3.8	7.48e-01	0	51	104	0	58	29780
2026-01-11 01:29:31.72	14.52	6.33	-44.0	-62.7	3.8	7.45e-01	0	51	104	0	58	33055
2026-01-11 01:29:32.74	14.51	6.41	-44.0	-63.0	3.8	7.42e-01	0	51	104	0	58	34283
2026-01-11 01:29:33.75	14.51	6.49	-44.0	-62.1	3.8	7.46e-01	0	51	104	0	58	30880
2026-01-11 01:29:34.76	14.50	6.57	-43.9	-60.1	4.0	7.35e-01	0	51	104	0	58	24464
2026-01-11 01:29:35.77	14.49	6.65	-43.8	-57.7	4.9	7.10e-01	0	51	104	0	58	18525
2026-01-11 01:29:36.78	14.49	6.74	-43.7	-55.7	6.2	6.79e-01	92	51	0	524288	58	14839
2026-01-11 01:29:37.79	14.48	6.82	-43.6	-53.9	7.8	6.49e-01	92	51	0	2621440	58	12069
2026-01-11 01:29:38.80	14.47	6.90	-43.3	-52.4	9.5	6.27e-01	0	51	0	4718592	58	10099
2026-01-11 01:29:39.81	14.46	6.98	-43.0	-50.5	11.4	6.12e-01	0	51	0	6291456	58	8125
2026-01-11 01:29:40.82	14.46	7.06	-42.6	-49.1	12.9	6.06e-01	0	51	0	8388608	57	7330
2026-01-11 01:29:41.83	14.45	7.14	-42.2	-47.7	14.4	6.03e-01	0	51	0	9961472	56	6596
2026-01-11 01:29:42.85	14.44	7.23	-41.5	-46.2	15.8	6.02e-01	0	51	0	12058624	55	5870
2026-01-11 01:29:43.86	14.44	7.31	-41.1	-45.4	16.7	6.04e-01	0	51	0	14155776	54	5661
2026-01-11 01:29:44.87	14.43	7.39	-41.1	-45.3	16.7	6.03e-01	0	52	0	15728640	54	5655
2026-01-11 01:29:45.88	14.42	7.48	-41.2	-45.5	16.6	6.01e-01	0	51	0	17825792	54	5746
2026-01-11 01:29:46.89	14.41	7.56	-41.6	-46.4	15.7	6.02e-01	0	52	0	19922944	54	6375
2026-01-11 01:29:47.90	14.41	7.65	-41.5	-46.2	15.8	6.00e-01	0	51	0	21495808	54	6259
2026-01-11 01:29:48.91	14.40	7.73	-41.2	-45.6	16.5	6.02e-01	0	51	0	23592960	54	5795
2026-01-11 01:29:49.92	14.39	7.81	-41.2	-45.4	16.7	6.04e-01	0	52	0	25165824	54	5697
2026-01-11 01:29:50.93	14.38	7.90	-41.6	-46.3	15.7	6.02e-01	0	52	0	27262976	54	6331
2026-01-11 01:29:51.94	14.38	7.99	-41.9	-47.3	14.7	6.04e-01	0	52	0	29360128	54	7053
2026-01-11 01:29:52.95	14.37	8.07	-41.8	-46.8	15.2	6.03e-01	0	52	0	30932992	54	6723
2026-01-11 01:29:53.96	14.36	8.16	-42.5	-48.2	14.1	6.04e-01	0	52	0	33030144	55	7403
2026-01-11 01:29:54.97	14.35	8.24	-42.3	-47.5	14.9	6.04e-01	0	52	0	34603008	55	6876
2026-01-11 01:29:55.98	14.34	8.33	-42.9	-61.5	3.7	7.49e-01	0	52	104	36175872	57	30651
2026-01-11 01:29:56.99	14.33	8.42	-44.0	-55.4	6.7	6.69e-01	92	52	0	36175872	58	14369
2026-01-11 01:29:58.00	14.33	8.50	-40.7	-44.1	18.1	6.03e-01	0	52	0	38273024	52	5526
2026-01-11 01:29:59.01	14.32	8.59	-40.6	-44.0	18.3	6.04e-01	0	52	0	39845888	52	5442
2026-01-11 01:30:00.02	14.31	8.68	-40.4	-43.7	18.7	6.05e-01	0	52	0	41943040	52	5226
2026-01-11 01:30:01.03	14.30	8.77	-40.5	-43.8	18.6	6.04e-01	0	52	0	43515904	52	5319
2026-01-11 01:30:02.04	14.29	8.86	-40.4	-43.7	18.7	6.02e-01	0	52	0	45613056	52	5227
2026-01-11 01:30:03.05	14.28	8.95	-40.5	-43.8	18.6	6.06e-01	0	52	0	47710208	52	5311
2026-01-11 01:30:04.05	14.27	9.04	-40.4	-43.6	18.9	6.04e-01	0	52	0	49283072	52	5160
2026-01-11 01:30:05.06	14.27	9.13	-40.7	-44.0	18.5	6.04e-01	0	52	0	51380224	52	5434
2026-01-11 01:30:06.07	14.26	9.22	-40.5	-43.6	18.9	6.02e-01	0	52	0	53477376	52	5193
2026-01-11 01:30:07.08	14.25	9.31	-40.5	-43.6	18.9	6.02e-01	0	52	0	55050240	52	5199
2026-01-11 01:30:08.09	14.24	9.40	-40.4	-43.5	19.0	6.03e-01	0	52	0	57147392	52	5144
2026-01-11 01:30:09.10	14.23	9.49	-40.3	-43.4	19.2	6.06e-01	0	52	0	58720256	52	5069
2026-01-11 01:30:10.11	14.22	9.58	-40.5	-43.6	18.9	6.06e-01	0	52	0	60817408	52	5215
2026-01-11 01:30:11.12	14.21	9.67	-40.5	-43.7	19.0	6.03e-01	0	52	0	62914560	52	5225
2026-01-11 01:30:12.13	14.20	9.77	-40.4	-43.5	19.1	6.01e-01	0	53	0	64487424	52	5121
2026-01-11 01:30:13.14	14.19	9.86	-40.4	-43.5	19.1	6.04e-01	0	53	0	66584576	52	5142
2026-01-11 01:30:14.15	14.18	9.95	-40.4	-43.4	19.2	6.03e-01	0	52	0	68681728	52	5090
2026-01-11 01:30:15.16	14.17	10.04	-40.4	-43.4	19.2	6.03e-01	0	52	0	70254592	52	5090
2026-01-11 01:30:16.17	14.16	10.14	-40.3	-43.2	19.4	6.02e-01	0	52	0	72351744	52	4951
2026-01-11 01:30:17.18	14.15	10.23	-40.3	-43.2	19.4	6.02e-01	0	53	0	73924608	52	4957
2026-01-11 01:30:18.18	14.14	10.33	-40.3	-43.3	19.4	6.04e-01	0	52	0	76021760	52	4989
2026-01-11 01:30:19.19	14.13	10.42	-40.3	-43.2	19.5	6.02e-01	0	53	0	78118912	52	4966
2026-01-11 01:30:20.20	14.12	10.52	-40.3	-43.3	19.4	6.02e-01	0	53	0	79691776	52	5008
2026-01-11 01:30:21.21	14.11	10.61	-40.3	-43.3	19.4	6.01e-01	0	52	0	81788928	52	4994
2026-01-11 01:30:22.22	14.10	10.71	-40.4	-43.3	19.4	6.02e-01	0	53	0	83361792	52	5025
2026-01-11 01:30:23.23	14.09	10.81	-40.4	-43.3	19.4	6.04e-01	0	53	0	85458944	52	5025
2026-01-11 01:30:24.24	14.08	10.90	-40.3	-43.2	19.6	6.04e-01	0	53	0	87556096	52	4934
2026-01-11 01:30:25.25	14.07	11.00	-40.4	-43.3	19.5	6.05e-01	0	53	0	89128960	52	5001
2026-01-11 01:30:26.26	14.06	11.10	-40.3	-43.2	19.6	6.05e-01	0	53	0	91226112	52	4955
2026-01-11 01:30:27.27	14.05	11.20	-40.3	-43.2	19.6	6.01e-01	0	53	0	92798976	52	4973
2026-01-11 01:30:28.28	14.03	11.30	-40.4	-43.3	19.5	6.03e-01	0	53	0	94896128	52	5023
2026-01-11 01:30:29.28	14.02	11.40	-40.4	-43.3	19.6	5.99e-01	0	53	0	96993280	52	4986
2026-01-11 01:30:30.29	14.01	11.50	-40.3	-43.1	19.8	6.01e-01	0	53	0	98566144	52	4905
2026-01-11 01:30:31.30	14.00	11.60	-40.3	-43.1	19.7	6.03e-01	0	53	0	100663296	52	4901
2026-01-11 01:30:32.31	13.99	11.70	-40.3	-43.2	19.7	6.05e-01	0	53	0	102236160	52	4964
2026-01-11 01:30:33.32	13.98	11.80	-40.3	-43.2	19.7	6.03e-01	0	53	0	104333312	52	4959
2026-01-11 01:30:34.33	13.96	11.90	-40.3	-43.1	19.7	6.03e-01	0	53	0	106430464	52	4919
2026-01-11 01:30:35.34	13.95	12.00	-40.2	-43.0	19.8	6.04e-01	0	53	0	108003328	52	4867
2026-01-11 01:30:36.35	13.94	12.11	-40.2	-43.0	19.9	6.04e-01	0	53	0	110100480	52	4847
2026-01-11 01:30:37.36	13.93	12.21	-40.2	-42.9	19.9	6.03e-01	0	53	0	111673344	52	4800
2026-01-11 01:30:38.37	13.92	12.31	-40.2	-43.0	19.9	6.02e-01	0	53	0	113770496	52	4815
2026-01-11 01:30:39.38	13.90	12.42	-40.2	-43.0	19.9	6.04e-01	0	53	0	115867648	52	4815
2026-01-11 01:30:40.39	13.89	12.52	-40.2	-43.0	20.0	6.04e-01	0	53	0	117440512	52	4834
2026-01-11 01:30:41.40	13.88	12.63	-40.2	-42.9	20.1	6.06e-01	0	53	0	119537664	52	4781
2026-01-11 01:30:42.41	13.86	12.73	-40.1	-42.8	20.2	6.02e-01	0	53	0	121634816	52	4735
2026-01-11 01:30:43.42	13.85	12.84	-40.1	-42.8	20.2	6.05e-01	0	53	0	123207680	52	4738
2026-01-11 01:30:44.43	13.84	12.95	-40.1	-42.8	20.2	6.03e-01	0	53	0	125304832	52	4733
2026-01-11 01:30:45.44	13.83	13.05	-40.1	-42.8	20.3	6.02e-01	0	53	0	126877696	52	4728
2026-01-11 01:30:46.45	13.81	13.16	-40.2	-42.9	20.2	6.03e-01	0	53	0	128974848	52	4777
2026-01-11 01:30:47.46	13.80	13.27	-40.2	-42.8	20.3	6.03e-01	0	53	0	131072000	52	4750
2026-01-11 01:30:48.47	13.78	13.38	-40.0	-42.6	20.5	6.01e-01	0	53	0	132644864	52	4643
2026-01-11 01:30:49.48	13.77	13.49	-40.1	-42.7	20.5	6.04e-01	0	53	0	134742016	52	4656
2026-01-11 01:30:50.49	13.76	13.60	-40.0	-42.6	20.5	6.04e-01	0	53	0	136839168	52	4644
2026-01-11 01:30:51.50	13.74	13.71	-40.0	-42.5	20.6	6.01e-01	0	53	0	138412032	52	4596
2026-01-11 01:30:52.51	13.73	13.82	-40.0	-42.6	20.6	6.04e-01	0	53	0	140509184	52	4629
2026-01-11 01:30:53.52	13.71	13.93	-40.0	-42.5	20.7	6.04e-01	0	53	0	142082048	52	4577
2026-01-11 01:30:54.53	13.70	14.04	-40.1	-42.6	20.7	6.04e-01	0	53	0	144179200	51	4883
2026-01-11 01:30:55.54	13.68	14.16	-40.1	-42.6	20.7	6.02e-01	0	53	0	146276352	51	4909
2026-01-11 01:30:56.55	13.67	14.27	-40.0	-42.6	20.7	6.03e-01	0	53	0	147849216	51	4872
2026-01-11 01:30:57.56	13.65	14.38	-39.9	-42.4	20.8	6.03e-01	0	53	0	149946368	51	4802
2026-01-11 01:30:58.57	13.64	14.50	-39.9	-42.4	20.9	6.02e-01	0	53	0	151519232	51	4796
2026-01-11 01:30:59.58	13.62	14.61	-40.0	-42.5	20.8	6.02e-01	0	53	0	153616384	51	4815
2026-01-11 01:31:00.59	13.61	14.73	-39.9	-42.4	20.9	6.01e-01	0	54	0	155189248	51	4795
2026-01-11 01:31:01.59	13.59	14.85	-40.0	-42.5	20.7	6.02e-01	0	53	0	157286400	51	4863
2026-01-11 01:31:02.60	13.58	14.96	-40.0	-42.5	20.8	6.02e-01	0	53	0	159383552	51	4831
2026-01-11 01:31:03.61	13.56	15.08	-39.9	-42.4	20.9	6.03e-01	0	53	0	160956416	51	4803
2026-01-11 01:31:04.62	13.54	15.20	-39.9	-42.4	20.9	6.05e-01	0	53	0	163053568	51	4798
2026-01-11 01:31:05.63	13.53	15.32	-40.0	-42.5	20.8	6.04e-01	0	53	0	165150720	51	4825
2026-01-11 01:31:06.64	13.51	15.44	-39.9	-42.4	20.9	6.05e-01	0	53	0	166723584	51	4786
2026-01-11 01:31:07.65	13.50	15.56	-39.9	-42.4	21.0	6.03e-01	0	53	0	168820736	51	4768
2026-01-11 01:31:08.66	13.48	15.68	-39.9	-42.4	21.0	6.03e-01	0	53	0	170393600	51	4774
2026-01-11 01:31:09.67	13.46	15.80	-39.9	-42.3	21.0	6.02e-01	0	54	0	172490752	51	4727
2026-01-11 01:31:10.68	13.44	15.92	-39.9	-42.3	21.1	6.06e-01	0	54	0	174587904	51	4716
2026-01-11 01:31:11.69	13.43	16.04	-39.9	-42.2	21.2	6.02e-01	0	54	0	176160768	51	4694
2026-01-11 01:31:12.70	13.41	16.17	-39.8	-42.1	21.3	6.05e-01	0	54	0	178257920	51	4631
2026-01-11 01:31:13.71	13.39	16.29	-39.7	-42.1	21.4	6.03e-01	0	54	0	179830784	51	4611
2026-01-11 01:31:14.72	13.37	16.42	-39.8	-42.1	21.3	6.04e-01	0	54	0	181927936	51	4641
2026-01-11 01:31:15.73	13.35	16.54	-39.7	-42.1	21.4	6.02e-01	0	54	0	184025088	51	4602
2026-01-11 01:31:16.74	13.34	16.67	-39.7	-42.0	21.4	6.03e-01	0	53	0	185597952	51	4575
2026-01-11 01:31:17.75	13.32	16.80	-39.7	-42.0	21.4	6.03e-01	0	54	0	187695104	51	4588
2026-01-11 01:31:18.76	13.30	16.92	-39.8	-42.1	21.4	6.06e-01	0	54	0	189792256	51	4611
2026-01-11 01:31:19.77	13.28	17.05	-39.7	-42.1	21.4	6.03e-01	0	54	0	191365120	51	4603
2026-01-11 01:31:20.78	13.26	17.18	-39.8	-42.1	21.4	6.04e-01	0	54	0	193462272	51	4629
2026-01-11 01:31:21.79	13.24	17.31	-39.8	-42.1	21.4	6.02e-01	0	54	0	195035136	51	4617
2026-01-11 01:31:22.79	13.22	17.44	-39.8	-42.1	21.4	6.02e-01	0	54	0	197132288	51	4626
2026-01-11 01:31:23.81	13.20	17.57	-39.9	-42.2	21.3	6.04e-01	0	54	0	199229440	51	4692
2026-01-11 01:31:24.81	13.18	17.71	-39.9	-42.2	21.3	6.05e-01	0	54	0	200802304	51	4699
2026-01-11 01:31:25.83	13.16	17.84	-39.9	-42.3	21.3	6.03e-01	0	53	0	202899456	51	4715
2026-01-11 01:31:26.83	13.14	17.97	-39.9	-42.2	21.3	6.03e-01	0	54	0	204472320	51	4695
2026-01-11 01:31:27.84	13.12	18.11	-39.9	-42.2	21.3	6.02e-01	0	54	0	206569472	51	4696
2026-01-11 01:31:28.85	13.10	18.24	-39.9	-42.3	21.3	6.05e-01	0	54	0	208666624	51	4728
2026-01-11 01:31:29.86	13.08	18.38	-39.9	-42.3	21.3	6.04e-01	0	54	0	210239488	51	4722
2026-01-11 01:31:30.87	13.06	18.52	-40.0	-42.3	21.3	6.01e-01	0	54	0	212336640	51	4730
2026-01-11 01:31:31.88	13.03	18.65	-39.9	-42.3	21.3	6.02e-01	0	54	0	213909504	51	4725
2026-01-11 01:31:32.89	13.01	18.79	-40.0	-42.4	21.2	6.05e-01	0	54	0	216006656	51	4763
2026-01-11 01:31:33.90	12.99	18.93	-40.0	-42.4	21.2	6.01e-01	0	54	0	218103808	51	4760
2026-01-11 01:31:34.91	12.97	19.07	-40.0	-42.4	21.2	6.01e-01	0	54	0	219676672	51	4777
2026-01-11 01:31:35.92	12.95	19.22	-40.0	-42.4	21.2	6.02e-01	0	54	0	221773824	51	4775
2026-01-11 01:31:36.93	12.92	19.36	-40.0	-42.4	21.2	6.01e-01	0	54	0	223346688	51	4790
2026-01-11 01:31:37.94	12.90	19.50	-40.0	-42.4	21.2	6.02e-01	0	54	0	225443840	51	4779
2026-01-11 01:31:38.95	12.88	19.65	-40.0	-42.3	21.3	6.01e-01	0	54	0	227540992	51	4736
2026-01-11 01:31:39.95	12.85	19.79	-40.0	-42.3	21.3	6.02e-01	0	54	0	229113856	51	4743
2026-01-11 01:31:40.96	12.83	19.94	-40.0	-42.3	21.3	6.02e-01	0	54	0	231211008	51	4740
2026-01-11 01:31:41.97	12.80	20.08	-40.0	-42.3	21.4	6.03e-01	0	54	0	233308160	51	4720
2026-01-11 01:31:42.98	12.78	20.23	-40.0	-42.3	21.4	6.02e-01	0	54	0	234881024	51	4720
2026-01-11 01:31:43.99	12.75	20.38	-40.0	-42.4	21.2	6.02e-01	0	54	0	236978176	51	4775
2026-01-11 01:31:45.00	12.73	20.53	-40.0	-42.3	21.3	6.03e-01	0	54	0	238551040	51	4741
2026-01-11 01:31:46.01	12.70	20.68	-40.1	-42.5	21.2	6.03e-01	0	54	0	240648192	51	4819
2026-01-11 01:31:47.02	12.68	20.83	-40.1	-42.4	21.3	6.06e-01	0	54	0	242745344	51	4792
2026-01-11 01:31:48.03	12.65	20.99	-40.1	-42.4	21.3	6.02e-01	0	54	0	244318208	51	4790
2026-01-11 01:31:49.04	12.62	21.14	-40.1	-42.5	21.2	6.02e-01	0	54	0	246415360	51	4841
2026-01-11 01:31:50.05	12.60	21.29	-40.1	-42.5	20.8	6.05e-01	0	54	0	247988224	51	4849
2026-01-11 01:31:51.06	12.57	21.45	-40.2	-42.5	21.2	6.05e-01	0	54	0	250085376	51	4864
2026-01-11 01:31:52.07	12.54	21.61	-40.2	-42.5	21.1	6.03e-01	0	54	0	252182528	51	4860
2026-01-11 01:31:53.08	12.52	21.77	-40.1	-42.5	21.2	6.03e-01	0	54	0	253755392	51	4852
2026-01-11 01:31:54.09	12.49	21.92	-40.2	-42.5	21.1	6.01e-01	0	54	0	255852544	51	4860
2026-01-11 01:31:55.10	12.46	22.08	-40.2	-42.5	21.2	6.04e-01	0	54	0	257949696	51	4868
2026-01-11 01:31:56.11	12.43	22.25	-40.2	-42.5	21.2	6.04e-01	0	54	0	259522560	51	4863
2026-01-11 01:31:57.12	12.40	22.41	-40.1	-42.5	21.2	6.01e-01	0	54	0	261619712	51	4843
2026-01-11 01:31:58.13	12.37	22.57	-40.1	-42.5	21.2	6.03e-01	0	54	0	263192576	51	4846
2026-01-11 01:31:59.14	12.34	22.74	-40.2	-42.5	21.2	6.03e-01	0	54	0	265289728	51	4852
2026-01-11 01:32:00.15	12.31	22.90	-40.2	-42.5	21.2	6.06e-01	0	54	0	267386880	51	4865
2026-01-11 01:32:01.16	12.28	23.07	-40.2	-42.5	21.2	6.03e-01	0	54	0	268959744	51	4863
2026-01-11 01:32:02.17	12.25	23.24	-40.2	-42.5	21.2	6.03e-01	0	54	0	271056896	51	4860
2026-01-11 01:32:03.18	12.22	23.41	-40.2	-42.5	21.2	6.03e-01	0	54	0	272629760	51	4854
2026-01-11 01:32:04.19	12.19	23.58	-40.1	-42.4	21.3	6.04e-01	0	54	0	274726912	51	4811
2026-01-11 01:32:05.20	12.15	23.75	-40.1	-42.4	21.3	6.02e-01	0	54	0	276824064	51	4796
2026-01-11 01:32:06.21	12.12	23.92	-40.1	-42.4	21.2	6.03e-01	0	54	0	278396928	51	4782
2026-01-11 01:32:07.22	12.09	24.10	-40.1	-42.4	21.4	6.04e-01	0	54	0	280494080	51	4784
2026-01-11 01:32:08.23	12.05	24.27	-40.0	-42.4	21.4	6.03e-01	0	54	0	282066944	51	4761
2026-01-11 01:32:09.23	12.02	24.45	-40.0	-42.3	21.5	6.05e-01	0	54	0	284164096	51	4715
2026-01-11 01:32:10.25	11.99	24.63	-40.0	-42.3	21.5	6.03e-01	0	54	0	286261248	51	4713
2026-01-11 01:32:11.26	11.95	24.81	-40.0	-42.3	21.5	6.03e-01	0	54	0	287834112	51	4724
2026-01-11 01:32:12.27	11.91	24.99	-40.0	-42.3	21.5	6.02e-01	0	54	0	289931264	51	4724
2026-01-11 01:32:13.28	11.88	25.17	-40.0	-42.3	21.4	6.04e-01	0	54	0	291504128	51	4734
2026-01-11 01:32:14.29	11.84	25.35	-40.0	-42.3	21.5	6.02e-01	0	54	0	293601280	51	4714
2026-01-11 01:32:15.30	11.81	25.54	-40.0	-42.3	21.4	6.04e-01	0	54	0	295698432	51	4734
2026-01-11 01:32:16.31	11.77	25.73	-40.1	-42.4	21.4	6.04e-01	0	54	0	297271296	51	4770
2026-01-11 01:32:17.32	11.73	25.91	-40.0	-42.3	21.5	6.02e-01	0	54	0	299368448	51	4733
2026-01-11 01:32:18.33	11.69	26.10	-40.0	-42.3	21.5	6.05e-01	0	54	0	301465600	51	4708
2026-01-11 01:32:19.34	11.65	26.29	-39.9	-42.1	21.7	6.05e-01	0	55	0	303038464	51	4642
2026-01-11 01:32:20.35	11.61	26.49	-39.9	-42.1	21.7	6.06e-01	0	54	0	305135616	51	4612
2026-01-11 01:32:21.36	11.57	26.68	-39.8	-42.1	21.7	6.06e-01	0	54	0	306708480	51	4601
2026-01-11 01:32:22.37	11.53	26.87	-39.8	-42.0	21.8	6.05e-01	0	54	0	308805632	51	4562
2026-01-11 01:32:23.38	11.49	27.07	-39.8	-42.0	21.8	6.04e-01	0	54	0	310902784	51	4555
2026-01-11 01:32:24.39	11.45	27.27	-39.7	-41.9	21.9	6.04e-01	0	55	0	312475648	51	4498
2026-01-11 01:32:25.40	11.41	27.47	-39.7	-41.8	22.0	6.02e-01	0	55	0	314572800	51	4486
2026-01-11 01:32:26.40	11.37	27.67	-39.7	-41.9	21.9	6.03e-01	0	54	0	316145664	51	4499
2026-01-11 01:32:27.42	11.32	27.87	-39.7	-41.9	21.9	6.05e-01	0	55	0	318242816	51	4537
2026-01-11 01:32:28.43	11.28	28.08	-39.7	-41.9	21.9	6.04e-01	0	55	0	320339968	51	4530
2026-01-11 01:32:29.44	11.23	28.28	-39.8	-42.0	21.8	6.03e-01	0	54	0	321912832	51	4596
2026-01-11 01:32:30.45	11.19	28.49	-39.8	-42.0	21.8	6.04e-01	0	54	0	324009984	51	4571
2026-01-11 01:32:31.46	11.14	28.70	-39.7	-41.9	21.9	6.03e-01	0	55	0	326107136	51	4511
2026-01-11 01:32:32.46	11.10	28.91	-39.5	-41.6	22.2	6.03e-01	0	54	0	327680000	51	4387
2026-01-11 01:32:33.47	11.05	29.12	-39.4	-41.5	22.4	6.04e-01	0	55	0	329777152	50	4556
2026-01-11 01:32:34.48	11.00	29.34	-39.4	-41.5	22.4	6.02e-01	0	55	0	331350016	50	4560
2026-01-11 01:32:35.49	10.95	29.55	-39.4	-41.5	22.4	6.03e-01	0	55	0	333447168	50	4562
2026-01-11 01:32:36.50	10.90	29.77	-39.4	-41.5	22.4	6.02e-01	0	55	0	335544320	50	4548
2026-01-11 01:32:37.51	10.85	29.99	-39.4	-41.5	22.3	6.06e-01	0	55	0	337117184	50	4575
2026-01-11 01:32:38.52	10.80	30.21	-39.5	-41.6	22.3	6.04e-01	0	55	0	339214336	50	4617
2026-01-11 01:32:39.53	10.75	30.43	-39.6	-41.7	22.2	6.05e-01	0	54	0	340787200	50	4665
2026-01-11 01:32:40.54	10.70	30.66	-39.6	-41.7	22.1	6.02e-01	0	55	0	342884352	50	4701
2026-01-11 01:32:41.55	10.64	30.89	-39.6	-41.7	22.2	6.04e-01	0	55	0	344981504	50	4689
2026-01-11 01:32:42.56	10.59	31.11	-39.6	-41.7	22.2	6.00e-01	0	55	0	346554368	50	4670
2026-01-11 01:32:43.57	10.53	31.35	-39.6	-41.7	22.2	6.01e-01	0	55	0	348651520	50	4677
2026-01-11 01:32:44.58	10.48	31.58	-39.5	-41.6	22.3	6.02e-01	0	55	0	350224384	50	4602
2026-01-11 01:32:45.59	10.42	31.81	-39.4	-41.5	22.4	6.01e-01	0	55	0	352321536	50	4557
2026-01-11 01:32:46.60	10.36	32.05	-39.4	-41.5	22.4	6.05e-01	0	55	0	354418688	50	4553
2026-01-11 01:32:47.61	10.30	32.29	-39.4	-41.5	22.4	6.02e-01	0	55	0	355991552	50	4571
2026-01-11 01:32:48.62	10.24	32.53	-39.4	-41.5	22.4	6.06e-01	0	55	0	358088704	50	4574
2026-01-11 01:32:49.63	10.18	32.77	-39.6	-41.7	22.2	6.01e-01	0	55	0	359661568	50	4675
2026-01-11 01:32:50.64	10.12	33.02	-39.8	-42.0	22.0	6.04e-01	0	55	0	361758720	50	4816
2026-01-11 01:32:51.65	10.06	33.26	-39.8	-42.0	21.9	6.03e-01	0	55	0	363855872	50	4827
2026-01-11 01:32:52.66	9.99	33.51	-39.9	-42.0	21.9	6.03e-01	0	55	0	365428736	50	4870
2026-01-11 01:32:53.67	9.93	33.76	-39.9	-42.1	21.8	6.02e-01	0	55	0	367525888	50	4898
2026-01-11 01:32:54.68	9.86	34.02	-40.0	-42.2	21.7	6.04e-01	0	55	0	369623040	50	4960
2026-01-11 01:32:55.69	9.79	34.27	-40.2	-42.5	21.5	6.02e-01	0	55	0	371195904	50	5101
2026-01-11 01:32:56.70	9.73	34.53	-40.3	-42.6	21.4	6.02e-01	0	55	0	373293056	51	4878
2026-01-11 01:32:57.71	9.66	34.79	-40.4	-42.8	21.2	6.03e-01	0	55	0	374865920	51	4987
2026-01-11 01:32:58.72	9.59	35.05	-40.4	-42.8	21.1	6.05e-01	0	55	0	376963072	51	5033
2026-01-11 01:32:59.73	9.51	35.32	-40.6	-43.0	20.9	6.02e-01	0	55	0	379060224	51	5158
2026-01-11 01:33:00.74	9.44	35.58	-40.7	-43.2	20.8	6.03e-01	0	55	0	380633088	51	5227
2026-01-11 01:33:01.75	9.37	35.85	-40.8	-43.3	20.7	6.05e-01	0	55	0	382730240	52	5000
2026-01-11 01:33:02.76	9.29	36.13	-40.8	-43.4	20.5	6.03e-01	0	55	0	384303104	52	5085
2026-01-11 01:33:03.77	9.21	36.40	-41.0	-43.6	20.3	6.04e-01	0	55	0	386400256	52	5187
2026-01-11 01:33:04.78	9.13	36.68	-41.0	-43.6	20.3	6.03e-01	0	55	0	388497408	52	5212
2026-01-11 01:33:05.79	9.05	36.96	-41.0	-43.6	20.4	6.02e-01	0	55	0	390070272	52	5182
2026-01-11 01:33:06.80	8.97	37.24	-41.1	-43.8	20.2	6.03e-01	0	55	0	392167424	52	5293
2026-01-11 01:33:07.81	8.89	37.52	-41.2	-43.9	20.0	6.02e-01	0	55	0	394264576	53	5087
2026-01-11 01:33:08.82	8.80	37.81	-41.3	-44.1	19.9	6.05e-01	0	55	0	395837440	53	5172
2026-01-11 01:33:09.82	8.72	38.09	-41.4	-44.2	19.8	6.03e-01	0	55	0	397934592	53	5220
2026-01-11 01:33:10.84	8.63	38.39	-41.4	-44.2	19.7	6.02e-01	0	55	0	399507456	53	5254
2026-01-11 01:33:11.84	8.54	38.68	-41.4	-44.2	19.8	6.04e-01	0	55	0	401604608	53	5257
2026-01-11 01:33:12.85	8.45	38.98	-41.4	-44.2	19.7	6.02e-01	0	55	0	403701760	53	5271
2026-01-11 01:33:13.87	8.36	39.28	-41.3	-44.1	19.8	6.03e-01	0	55	0	405274624	53	5199
2026-01-11 01:33:14.88	8.26	39.58	-41.4	-44.3	19.7	6.03e-01	0	55	0	407371776	53	5301
2026-01-11 01:33:15.89	8.16	39.88	-41.4	-44.2	19.8	6.03e-01	0	55	0	408944640	53	5250
2026-01-11 01:33:16.90	8.07	40.19	-41.4	-44.2	19.8	6.03e-01	0	55	0	411041792	53	5255
2026-01-11 01:33:17.90	7.97	40.50	-41.3	-44.1	19.8	6.00e-01	0	55	0	413138944	53	5203
2026-01-11 01:33:18.91	7.86	40.81	-41.5	-44.3	19.7	6.03e-01	0	55	0	414711808	53	5328
2026-01-11 01:33:19.92	7.76	41.13	-41.5	-44.4	19.6	6.05e-01	0	55	0	416808960	53	5341
2026-01-11 01:33:20.93	7.65	41.45	-41.4	-44.1	19.8	6.01e-01	0	55	0	418381824	53	5218
2026-01-11 01:33:21.94	7.54	41.77	-41.2	-43.9	20.0	6.03e-01	0	55	0	420478976	53	5093
2026-01-11 01:33:22.95	7.43	42.09	-41.0	-43.6	20.4	6.03e-01	0	55	0	422576128	53	4901
2026-01-11 01:33:23.96	7.31	42.42	-41.0	-43.7	20.3	6.03e-01	0	55	0	424148992	53	4944
2026-01-11 01:33:24.97	7.20	42.75	-40.8	-43.4	20.6	6.03e-01	0	55	0	426246144	53	4774
2026-01-11 01:33:25.98	7.08	43.08	-40.6	-43.0	20.6	6.05e-01	0	55	0	427819008	53	4579
2026-01-11 01:33:26.99	6.96	43.42	-40.4	-42.7	21.3	6.04e-01	0	55	0	429916160	52	4689
2026-01-11 01:33:28.00	6.83	43.76	-40.5	-42.9	21.1	6.03e-01	0	55	0	432013312	52	4790
2026-01-11 01:33:29.01	6.70	44.10	-40.6	-43.0	20.9	6.02e-01	0	55	0	433586176	52	4866
2026-01-11 01:33:30.02	6.57	44.45	-40.4	-42.7	21.2	6.04e-01	0	55	0	435683328	52	4704
2026-01-11 01:33:31.03	6.44	44.79	-40.1	-42.3	21.6	6.02e-01	0	55	0	437780480	52	4488
2026-01-11 01:33:32.04	6.30	45.15	-40.2	-42.5	21.5	6.00e-01	0	55	0	439353344	52	4557
2026-01-11 01:33:33.05	6.16	45.50	-40.2	-42.5	21.6	6.02e-01	0	55	0	441450496	52	4553
2026-01-11 01:33:34.06	6.02	45.86	-40.2	-42.4	21.6	6.06e-01	0	55	0	443023360	52	4544
2026-01-11 01:33:35.07	5.88	46.22	-40.2	-42.5	21.6	6.03e-01	0	55	0	445120512	52	4551
2026-01-11 01:33:36.08	5.73	46.58	-40.2	-42.4	21.6	6.03e-01	0	55	0	447217664	52	4544
2026-01-11 01:33:37.09	5.57	46.95	-40.0	-42.2	21.8	6.04e-01	0	55	0	448790528	51	4692
2026-01-11 01:33:38.10	5.41	47.32	-40.1	-42.3	21.7	6.06e-01	0	55	0	450887680	51	4750
2026-01-11 01:33:39.10	5.26	47.69	-40.3	-42.6	21.5	6.04e-01	0	55	0	452460544	51	4918
2026-01-11 01:33:40.11	5.09	48.07	-40.3	-42.6	21.5	6.03e-01	0	55	0	454557696	51	4896
2026-01-11 01:33:41.12	4.92	48.44	-40.2	-42.5	21.6	6.03e-01	0	55	0	456654848	51	4824
2026-01-11 01:33:42.13	4.75	48.83	-40.2	-42.5	21.6	6.03e-01	0	55	0	458227712	51	4835
2026-01-11 01:33:43.14	4.57	49.21	-40.2	-42.4	21.6	6.02e-01	0	55	0	460324864	51	4802
2026-01-11 01:33:44.15	4.38	49.60	-40.1	-42.4	21.7	6.02e-01	0	55	0	462422016	51	4764
2026-01-11 01:33:45.16	4.20	50.00	-40.0	-42.2	21.8	6.04e-01	0	55	0	463994880	51	4702
2026-01-11 01:33:46.17	4.00	50.39	-40.0	-42.2	21.8	6.03e-01	0	55	0	466092032	51	4684
2026-01-11 01:33:47.18	3.80	50.79	-39.8	-41.9	22.2	6.04e-01	0	55	0	467664896	51	4522
2026-01-11 01:33:48.19	3.60	51.19	-39.8	-42.0	22.1	6.04e-01	0	55	0	469762048	51	4560
2026-01-11 01:33:49.21	3.39	51.60	-39.9	-42.1	22.0	6.02e-01	0	55	0	471859200	51	4631
2026-01-11 01:33:50.22	3.17	52.01	-39.5	-41.6	22.5	6.03e-01	0	55	0	473432064	51	4355
2026-01-11 01:33:51.23	2.95	52.42	-39.5	-41.6	22.5	6.05e-01	0	55	0	475529216	51	4356
2026-01-11 01:33:52.24	2.72	52.84	-39.4	-41.4	22.6	6.00e-01	0	55	0	477626368	50	4521
2026-01-11 01:33:53.25	2.49	53.26	-39.4	-41.4	22.7	6.02e-01	0	55	0	479199232	50	4505
2026-01-11 01:33:54.26	2.25	53.68	-39.3	-41.3	22.7	6.01e-01	0	55	0	481296384	50	4477
2026-01-11 01:33:55.26	2.00	54.10	-39.2	-41.1	22.9	6.03e-01	0	55	0	482869248	50	4364
2026-01-11 01:33:56.27	1.74	54.53	-39.2	-41.2	22.8	6.04e-01	0	55	0	484966400	50	4418
2026-01-11 01:33:57.28	1.48	54.96	-39.3	-41.3	22.7	6.00e-01	0	55	0	486539264	50	4480
2026-01-11 01:33:58.29	1.20	55.39	-39.3	-41.3	22.7	6.03e-01	0	55	0	488636416	50	4481
2026-01-11 01:33:59.30	0.92	55.83	-39.4	-41.5	22.6	6.02e-01	0	55	0	490733568	50	4549
2026-01-11 01:34:00.31	0.63	56.27	-39.7	-41.8	22.2	6.02e-01	0	55	0	492306432	50	4757
2026-01-11 01:34:01.32	0.33	56.71	-39.8	-41.9	22.1	6.03e-01	0	55	0	494403584	50	4814
2026-01-11 01:34:02.33	0.02	57.16	-40.2	-42.5	21.5	6.04e-01	0	55	0	495976448	51	4839
2026-01-11 01:34:03.34	359.69	57.60	-40.1	-42.3	21.8	6.03e-01	0	55	0	498073600	51	4717
2026-01-11 01:34:04.34	359.37	58.05	-40.5	-42.9	21.2	6.06e-01	0	55	0	500170752	51	5051
2026-01-11 01:34:05.35	359.02	58.51	-40.7	-43.1	21.0	6.03e-01	0	55	0	501743616	51	5205
2026-01-11 01:34:06.36	358.66	58.96	-40.7	-43.1	21.0	6.03e-01	0	55	0	503840768	51	5181
2026-01-11 01:34:07.37	358.30	59.42	-40.5	-42.8	21.3	6.02e-01	0	55	0	505937920	51	5028
2026-01-11 01:34:08.38	357.91	59.88	-41.0	-43.6	20.5	6.02e-01	0	55	0	507510784	52	5179
2026-01-11 01:34:09.39	357.52	60.35	-40.8	-43.3	20.7	6.02e-01	0	55	0	509607936	52	5018
2026-01-11 01:34:10.40	357.10	60.81	-41.0	-43.6	20.5	6.02e-01	0	55	0	511180800	52	5183
2026-01-11 01:34:11.41	356.68	61.28	-41.0	-43.6	20.5	6.02e-01	0	55	0	513277952	52	5205
2026-01-11 01:34:12.42	356.23	61.75	-41.1	-43.7	20.4	6.02e-01	0	55	0	515375104	52	5279
2026-01-11 01:34:13.43	355.77	62.22	-41.2	-44.0	20.0	6.04e-01	0	55	0	516947968	53	5122
2026-01-11 01:34:14.44	355.29	62.70	-40.9	-43.5	20.5	6.02e-01	0	55	0	519045120	53	4827
2026-01-11 01:34:15.45	354.79	63.17	-41.3	-44.0	20.1	6.03e-01	0	55	0	520617984	53	5142
2026-01-11 01:34:16.46	354.27	63.65	-41.5	-44.3	19.8	6.03e-01	0	55	0	522715136	53	5317
2026-01-11 01:34:17.47	353.73	64.13	-41.7	-44.6	19.5	6.02e-01	0	55	0	524812288	54	5197
2026-01-11 01:34:18.48	353.16	64.61	-41.8	-44.8	19.3	6.04e-01	0	55	0	526385152	54	5325
2026-01-11 01:34:19.49	352.57	65.09	-42.3	-45.7	18.4	6.02e-01	0	55	0	528482304	55	5544
2026-01-11 01:34:20.50	351.95	65.57	-42.6	-46.2	17.8	6.01e-01	0	55	0	530579456	55	5918
2026-01-11 01:34:21.51	351.31	66.05	-42.5	-45.9	18.2	6.04e-01	0	55	0	532152320	55	5700
2026-01-11 01:34:22.52	350.64	66.53	-43.1	-46.9	17.2	6.03e-01	0	55	0	534249472	56	6052
2026-01-11 01:34:23.53	349.93	67.01	-43.3	-47.6	16.5	6.04e-01	0	55	0	535822336	57	6160
2026-01-11 01:34:24.54	349.19	67.49	-42.8	-46.4	17.7	6.04e-01	0	55	0	537919488	57	5376
2026-01-11 01:34:25.55	348.42	67.97	-43.3	-47.5	16.7	6.01e-01	0	55	0	540016640	57	6074
2026-01-11 01:34:26.56	347.61	68.45	-43.1	-47.0	17.1	6.04e-01	0	55	0	541589504	57	5778
2026-01-11 01:34:27.57	346.75	68.93	-42.8	-46.4	17.6	6.02e-01	0	55	0	543686656	57	5401
2026-01-11 01:34:28.58	345.86	69.40	-42.9	-46.7	17.5	6.05e-01	0	55	0	545259520	57	5546
2026-01-11 01:34:29.59	344.92	69.88	-43.1	-46.9	17.1	6.01e-01	0	55	0	547356672	57	5710
2026-01-11 01:34:30.60	343.93	70.35	-42.6	-46.2	18.0	6.03e-01	0	55	0	549453824	57	5219
2026-01-11 01:34:31.60	342.90	70.81	-42.8	-46.4	17.7	6.04e-01	0	55	0	551026688	57	5373
2026-01-11 01:34:32.61	341.80	71.27	-43.0	-46.9	17.2	6.01e-01	0	55	0	553123840	57	5703
2026-01-11 01:34:33.62	340.65	71.73	-42.5	-45.9	18.2	6.02e-01	0	55	0	554696704	57	5069
2026-01-11 01:34:34.63	339.43	72.18	-42.8	-46.5	17.7	6.04e-01	0	55	0	556793856	56	5750
2026-01-11 01:34:35.64	338.15	72.63	-43.1	-47.0	17.1	6.05e-01	0	55	0	558891008	56	6127
2026-01-11 01:34:36.65	336.79	73.07	-42.5	-46.0	18.1	6.01e-01	0	55	0	560463872	56	5430
2026-01-11 01:34:37.66	335.36	73.50	-43.0	-46.8	17.4	6.03e-01	0	55	0	562561024	56	5937
2026-01-11 01:34:38.67	333.85	73.92	-42.9	-46.6	17.5	6.01e-01	0	55	0	564133888	56	5801
2026-01-11 01:34:39.68	332.25	74.33	-42.9	-46.6	17.6	6.04e-01	0	55	0	566231040	56	5823
2026-01-11 01:34:40.69	330.57	74.73	-42.5	-46.1	18.0	6.04e-01	0	55	0	568328192	55	5789
2026-01-11 01:34:41.70	328.79	75.12	-42.7	-46.4	17.6	6.03e-01	0	55	0	569901056	55	6000
2026-01-11 01:34:42.71	326.91	75.50	-42.3	-45.6	18.3	6.05e-01	0	55	0	571998208	55	5516
2026-01-11 01:34:43.72	324.94	75.86	-42.5	-46.1	17.8	6.03e-01	0	55	0	574095360	55	5821
2026-01-11 01:34:44.73	322.85	76.21	-42.6	-46.2	17.8	6.04e-01	0	55	0	575668224	56	5575
2026-01-11 01:34:45.74	320.66	76.53	-41.8	-44.9	19.1	6.03e-01	0	55	0	577765376	55	5061
2026-01-11 01:34:46.75	318.36	76.84	-42.3	-45.6	18.3	6.03e-01	0	55	0	579338240	55	5520
2026-01-11 01:34:47.76	315.95	77.13	-42.2	-45.5	18.4	6.02e-01	0	55	0	581435392	55	5434
2026-01-11 01:34:48.77	313.43	77.39	-41.9	-45.0	18.9	6.05e-01	0	55	0	583532544	55	5148
2026-01-11 01:34:49.78	310.80	77.63	-42.1	-45.4	18.5	6.03e-01	0	55	0	585105408	55	5386
2026-01-11 01:34:50.79	308.07	77.85	-42.2	-45.6	18.4	6.02e-01	0	55	0	587202560	55	5497
2026-01-11 01:34:51.80	305.25	78.03	-41.8	-44.8	19.1	6.05e-01	0	55	0	588775424	55	5012
2026-01-11 01:34:52.81	302.35	78.19	-42.5	-46.1	17.9	6.02e-01	0	55	0	590872576	55	5798
2026-01-11 01:34:53.82	299.37	78.32	-41.7	-44.7	19.2	6.04e-01	0	55	0	592969728	55	4957
2026-01-11 01:34:54.83	296.33	78.41	-41.3	-44.0	19.9	6.01e-01	0	55	0	594542592	54	4853
2026-01-11 01:34:55.84	293.25	78.47	-41.2	-44.0	19.9	6.03e-01	0	55	0	596639744	54	4816
2026-01-11 01:34:56.85	290.15	78.50	-41.3	-44.1	19.8	6.03e-01	0	55	0	598736896	54	4923
2026-01-11 01:34:57.86	287.03	78.50	-41.0	-43.6	20.3	6.03e-01	0	55	0	600309760	54	4632
2026-01-11 01:34:58.87	283.93	78.46	-41.4	-44.3	19.7	6.03e-01	0	55	0	602406912	53	5301
2026-01-11 01:34:59.88	280.86	78.40	-41.3	-44.1	19.8	6.03e-01	0	55	0	603979776	53	5193
2026-01-11 01:35:00.89	277.83	78.29	-41.1	-43.8	20.2	6.04e-01	0	55	0	606076928	53	5034
2026-01-11 01:35:01.90	274.87	78.16	-41.8	-44.9	19.0	5.99e-01	0	55	0	608174080	54	5346
2026-01-11 01:35:02.90	272.00	78.00	-41.1	-43.8	20.1	6.05e-01	0	55	0	609746944	54	4751
2026-01-11 01:35:03.91	269.20	77.81	-41.7	-44.8	19.2	6.02e-01	0	55	0	611844096	54	5304
2026-01-11 01:35:04.92	266.48	77.59	-41.4	-44.2	19.7	6.03e-01	0	55	0	613416960	54	4937
2026-01-11 01:35:05.93	263.88	77.35	-41.4	-44.2	19.7	6.01e-01	0	55	0	615514112	54	4973
2026-01-11 01:35:06.94	261.37	77.08	-41.7	-44.7	19.4	6.02e-01	0	55	0	617611264	54	5230
2026-01-11 01:35:07.95	258.98	76.79	-41.6	-44.6	19.4	6.04e-01	0	55	0	619184128	54	5170
2026-01-11 01:35:08.96	256.70	76.48	-41.7	-44.7	19.3	6.05e-01	0	55	0	621281280	54	5275
2026-01-11 01:35:09.97	254.52	76.15	-42.0	-45.3	18.7	6.04e-01	0	55	0	622854144	54	5605
2026-01-11 01:35:10.98	252.45	75.80	-42.0	-45.3	18.7	6.03e-01	0	55	0	624951296	54	5637
2026-01-11 01:35:11.99	250.49	75.43	-42.1	-45.3	18.7	6.04e-01	0	55	0	627048448	55	5322
2026-01-11 01:35:13.00	248.63	75.05	-42.4	-46.0	18.0	6.03e-01	0	56	0	628621312	55	5744
2026-01-11 01:35:14.01	246.87	74.66	-42.3	-45.7	18.3	6.04e-01	0	55	0	630718464	55	5534
2026-01-11 01:35:15.02	245.20	74.26	-42.5	-46.1	17.9	6.04e-01	0	55	0	632291328	55	5831
2026-01-11 01:35:16.03	243.62	73.84	-43.1	-47.1	17.0	6.02e-01	0	55	0	634388480	56	6153
2026-01-11 01:35:17.04	242.12	73.42	-42.9	-46.7	17.5	6.05e-01	0	55	0	636485632	56	5899
2026-01-11 01:35:18.05	240.70	72.98	-42.7	-46.2	17.8	6.03e-01	0	55	0	638058496	56	5584
2026-01-11 01:35:19.06	239.36	72.54	-42.5	-46.0	18.1	6.03e-01	0	55	0	640155648	56	5450
2026-01-11 01:35:20.07	238.08	72.09	-43.0	-47.0	17.2	6.05e-01	0	55	0	642252800	56	6109
2026-01-11 01:35:21.08	236.88	71.64	-42.8	-46.5	17.4	6.01e-01	0	55	0	643825664	57	5459
2026-01-11 01:35:22.08	235.74	71.19	-42.5	-46.0	18.1	6.06e-01	0	55	0	645922816	56	5438
2026-01-11 01:35:23.09	234.66	70.72	-43.2	-47.3	16.9	6.04e-01	0	55	0	647495680	56	6277
2026-01-11 01:35:24.10	233.62	70.25	-43.2	-47.3	16.7	6.04e-01	0	56	0	649592832	57	5947
2026-01-11 01:35:25.11	232.64	69.78	-43.0	-46.8	17.4	6.03e-01	0	55	0	651689984	57	5645
2026-01-11 01:35:26.12	231.71	69.31	-43.4	-47.7	16.5	6.03e-01	0	55	0	653262848	57	6216
2026-01-11 01:35:27.13	230.82	68.83	-43.8	-48.6	15.6	6.02e-01	0	55	0	655360000	58	6512
2026-01-11 01:35:28.14	229.98	68.35	-43.6	-48.0	16.1	6.03e-01	0	55	0	656932864	58	6105
2026-01-11 01:35:29.16	229.16	67.87	-43.5	-47.9	16.3	6.02e-01	0	55	0	659030016	58	6007
2026-01-11 01:35:30.16	228.40	67.39	-43.9	-48.9	15.2	6.03e-01	0	55	0	661127168	58	6788
2026-01-11 01:35:31.17	227.67	66.91	-43.7	-48.3	15.7	6.05e-01	0	55	0	662700032	58	6323
2026-01-11 01:35:32.18	226.97	66.43	-43.1	-47.0	17.0	6.02e-01	0	55	0	664797184	58	5456
2026-01-11 01:35:33.19	226.30	65.94	-43.0	-46.9	17.3	6.03e-01	0	55	0	666894336	57	5669
2026-01-11 01:35:34.20	225.66	65.46	-42.9	-46.7	17.4	6.03e-01	0	55	0	668467200	57	5582
2026-01-11 01:35:35.21	225.05	64.98	-42.7	-46.4	17.8	6.04e-01	0	55	0	670564352	57	5366
2026-01-11 01:35:36.22	224.46	64.50	-42.5	-45.9	18.2	6.02e-01	0	55	0	672137216	57	5087
2026-01-11 01:35:37.23	223.90	64.02	-42.1	-45.3	18.9	6.03e-01	0	55	0	674234368	56	4991
2026-01-11 01:35:38.24	223.36	63.54	-42.1	-45.3	18.8	6.06e-01	0	55	0	676331520	55	5310
2026-01-11 01:35:39.25	222.84	63.06	-41.9	-45.0	19.0	6.03e-01	0	55	0	677904384	55	5114
2026-01-11 01:35:40.26	222.35	62.58	-41.7	-44.7	19.4	6.03e-01	0	55	0	680001536	55	4975
2026-01-11 01:35:41.27	221.87	62.11	-41.1	-43.7	20.4	6.03e-01	0	55	0	681574400	54	4701
2026-01-11 01:35:42.28	221.41	61.64	-41.4	-44.3	19.8	6.02e-01	0	55	0	683671552	54	4997
2026-01-11 01:35:43.29	220.97	61.17	-41.5	-44.3	19.7	6.02e-01	0	55	0	685768704	54	5033
2026-01-11 01:35:44.30	220.54	60.70	-41.4	-44.2	19.8	6.05e-01	0	55	0	687341568	54	4975
2026-01-11 01:35:45.31	220.14	60.23	-41.1	-43.8	20.2	6.02e-01	0	56	0	689438720	54	4743
2026-01-11 01:35:46.32	219.74	59.76	-40.8	-43.2	20.8	6.02e-01	0	55	0	691011584	53	4700
2026-01-11 01:35:47.33	219.36	59.30	-41.0	-43.7	20.4	6.03e-01	0	55	0	693108736	53	4941
2026-01-11 01:35:48.34	218.99	58.84	-41.2	-44.0	20.1	6.03e-01	0	56	0	695205888	53	5119
2026-01-11 01:35:49.35	218.64	58.38	-41.0	-43.6	20.4	6.02e-01	0	55	0	696778752	53	4906
2026-01-11 01:35:50.35	218.30	57.93	-40.4	-42.7	21.3	6.02e-01	0	56	0	698875904	52	4677
2026-01-11 01:35:51.37	217.96	57.48	-40.4	-42.8	21.3	6.05e-01	0	56	0	700448768	52	4723
2026-01-11 01:35:52.37	217.65	57.03	-40.0	-42.3	21.7	6.03e-01	0	55	0	702545920	52	4454
2026-01-11 01:35:53.38	217.34	56.59	-40.2	-42.5	21.7	6.02e-01	0	55	0	704643072	52	4564
2026-01-11 01:35:54.39	217.04	56.14	-39.9	-42.0	22.0	6.00e-01	0	55	0	706215936	51	4586
2026-01-11 01:35:55.40	216.75	55.70	-39.9	-42.1	22.0	6.06e-01	0	55	0	708313088	51	4601
2026-01-11 01:35:56.41	216.47	55.26	-39.5	-41.5	22.5	6.03e-01	0	55	0	710410240	51	4335
2026-01-11 01:35:57.42	216.19	54.83	-39.1	-41.0	23.1	6.02e-01	0	55	0	711983104	50	4327
2026-01-11 01:35:58.43	215.93	54.40	-38.9	-40.8	23.2	6.07e-01	0	55	0	714080256	49	4475
2026-01-11 01:35:59.44	215.67	53.97	-39.2	-41.2	22.8	6.03e-01	0	55	0	715653120	49	4661
2026-01-11 01:36:00.45	215.43	53.54	-39.6	-41.7	22.3	6.03e-01	0	56	0	717750272	49	4973
2026-01-11 01:36:01.46	215.19	53.12	-39.5	-41.5	22.5	6.03e-01	0	56	0	719847424	49	4848
2026-01-11 01:36:02.47	214.95	52.70	-39.1	-41.0	23.0	6.01e-01	0	55	0	721420288	49	4593
2026-01-11 01:36:03.48	214.72	52.29	-39.1	-41.0	23.1	6.03e-01	0	56	0	723517440	49	4558
2026-01-11 01:36:04.49	214.50	51.87	-39.4	-41.5	22.6	6.05e-01	0	56	0	725090304	49	4823
2026-01-11 01:36:05.50	214.29	51.46	-39.4	-41.5	22.6	6.03e-01	0	56	0	727187456	49	4836
2026-01-11 01:36:06.51	214.08	51.06	-39.8	-41.9	22.2	6.04e-01	0	55	0	729284608	50	4781
2026-01-11 01:36:07.52	213.88	50.66	-40.2	-42.4	21.6	6.03e-01	0	55	0	730857472	50	5094
2026-01-11 01:36:08.53	213.68	50.26	-40.0	-42.2	21.9	6.03e-01	0	55	0	732954624	50	4944
2026-01-11 01:36:09.54	213.48	49.86	-39.8	-42.0	22.1	6.00e-01	0	55	0	735051776	50	4816
2026-01-11 01:36:10.55	213.30	49.47	-39.7	-41.9	22.2	6.05e-01	0	55	0	736624640	50	4771
2026-01-11 01:36:11.55	213.12	49.08	-39.8	-41.9	22.2	6.03e-01	0	55	0	738721792	50	4774
2026-01-11 01:36:12.56	212.94	48.69	-40.1	-42.3	21.8	6.05e-01	0	55	0	740294656	50	5013
2026-01-11 01:36:13.57	212.76	48.31	-40.3	-42.6	21.5	6.02e-01	0	55	0	742391808	51	4924
2026-01-11 01:36:14.58	212.60	47.93	-40.3	-42.7	21.4	6.02e-01	0	55	0	743964672	51	4947
2026-01-11 01:36:15.59	212.43	47.55	-40.3	-42.6	21.4	6.03e-01	0	55	0	746061824	51	4918
2026-01-11 01:36:16.60	212.27	47.18	-40.0	-42.1	21.9	6.01e-01	0	55	0	748158976	51	4647
2026-01-11 01:36:17.61	212.11	46.81	-40.1	-42.4	21.7	6.05e-01	0	56	0	749731840	51	4792
2026-01-11 01:36:18.62	211.96	46.44	-40.2	-42.6	21.5	6.03e-01	0	55	0	751828992	51	4876
2026-01-11 01:36:19.63	211.81	46.07	-39.8	-42.0	22.0	6.03e-01	0	55	0	753401856	51	4550
2026-01-11 01:36:20.64	211.66	45.71	-39.7	-41.8	22.2	6.03e-01	0	56	0	755499008	51	4485
2026-01-11 01:36:21.65	211.52	45.35	-39.9	-42.1	22.0	6.03e-01	0	56	0	757596160	51	4601
2026-01-11 01:36:22.66	211.38	45.00	-40.1	-42.3	21.7	6.02e-01	0	56	0	759169024	51	4759
2026-01-11 01:36:23.67	211.25	44.65	-40.3	-42.6	21.5	6.04e-01	0	55	0	761266176	51	4916
2026-01-11 01:36:24.68	211.11	44.30	-40.2	-42.4	21.6	6.04e-01	0	55	0	763363328	51	4813
2026-01-11 01:36:25.69	210.98	43.95	-40.1	-42.4	21.6	6.03e-01	0	55	0	764936192	51	4777
2026-01-11 01:36:26.70	210.86	43.61	-40.1	-42.3	21.8	6.02e-01	0	56	0	767033344	51	4723
2026-01-11 01:36:27.71	210.73	43.27	-39.9	-42.1	21.9	6.02e-01	0	56	0	768606208	51	4618
2026-01-11 01:36:28.72	210.61	42.93	-39.9	-42.1	21.9	6.05e-01	0	55	0	770703360	51	4615
2026-01-11 01:36:29.73	210.49	42.60	-40.0	-42.2	21.8	6.02e-01	0	55	0	772800512	51	4675
2026-01-11 01:36:30.74	210.37	42.27	-40.3	-42.6	21.4	6.00e-01	0	55	0	774373376	51	4916
2026-01-11 01:36:31.75	210.26	41.94	-40.4	-42.8	21.3	6.03e-01	0	55	0	776470528	51	5008
2026-01-11 01:36:32.76	210.15	41.62	-40.6	-43.0	21.0	6.02e-01	0	56	0	778567680	51	5141
2026-01-11 01:36:33.77	210.04	41.29	-40.9	-43.4	20.6	6.03e-01	0	55	0	780140544	52	5094
2026-01-11 01:36:34.78	209.93	40.97	-41.0	-43.7	20.3	6.02e-01	0	56	0	782237696	52	5239
2026-01-11 01:36:35.79	209.83	40.66	-41.0	-43.7	20.3	6.01e-01	0	55	0	783810560	52	5258
2026-01-11 01:36:36.80	209.72	40.34	-41.1	-43.8	20.2	6.04e-01	0	56	0	785907712	52	5288
2026-01-11 01:36:37.81	209.62	40.03	-41.2	-43.9	19.5	6.03e-01	0	55	0	788004864	52	5366
2026-01-11 01:36:38.82	209.52	39.73	-41.2	-43.9	20.0	6.03e-01	0	55	0	789577728	53	5082
2026-01-11 01:36:39.83	209.43	39.42	-40.9	-43.5	20.4	6.04e-01	0	55	0	791674880	53	4852
2026-01-11 01:36:40.84	209.33	39.12	-40.9	-43.5	20.4	6.04e-01	0	56	0	793247744	53	4870
2026-01-11 01:36:41.85	209.24	38.82	-41.0	-43.7	20.3	6.04e-01	0	56	0	795344896	53	4929
2026-01-11 01:36:42.86	209.15	38.52	-41.3	-44.1	19.8	6.02e-01	0	56	0	797442048	53	5210
2026-01-11 01:36:43.87	209.06	38.23	-41.3	-44.2	19.8	6.02e-01	0	55	0	799014912	53	5230
2026-01-11 01:36:44.88	208.97	37.93	-41.1	-43.9	20.0	6.03e-01	0	56	0	801112064	53	5057
2026-01-11 01:36:45.89	208.88	37.64	-41.0	-43.7	20.2	6.03e-01	0	55	0	803209216	53	4954
2026-01-11 01:36:46.90	208.80	37.36	-40.9	-43.5	20.4	6.04e-01	0	55	0	804782080	53	4857
2026-01-11 01:36:47.91	208.71	37.07	-41.0	-43.7	20.2	6.03e-01	0	55	0	806879232	53	4948
2026-01-11 01:36:48.92	208.63	36.79	-41.0	-43.6	20.3	6.02e-01	0	56	0	808452096	53	4921
2026-01-11 01:36:49.93	208.55	36.51	-40.9	-43.5	20.4	6.01e-01	0	55	0	810549248	53	4853
2026-01-11 01:36:50.94	208.47	36.24	-40.7	-43.2	20.7	6.04e-01	0	55	0	812646400	53	4656
2026-01-11 01:36:51.95	208.40	35.96	-40.5	-43.0	20.9	6.03e-01	0	55	0	814219264	53	4569
2026-01-11 01:36:52.96	208.32	35.69	-40.5	-42.9	21.0	6.04e-01	0	55	0	816316416	52	4785
2026-01-11 01:36:53.97	208.25	35.42	-40.4	-42.8	21.1	6.03e-01	0	56	0	817889280	52	4716
2026-01-11 01:36:54.98	208.17	35.15	-40.3	-42.6	21.3	6.04e-01	0	55	0	819986432	52	4625
2026-01-11 01:36:55.99	208.10	34.89	-40.1	-42.4	21.5	6.04e-01	0	55	0	821559296	52	4539
2026-01-11 01:36:57.00	208.03	34.62	-40.0	-42.2	21.6	6.00e-01	0	56	0	823656448	52	4439
2026-01-11 01:36:58.00	207.96	34.37	-40.0	-42.3	21.6	6.04e-01	0	55	0	825753600	51	4732
2026-01-11 01:36:59.01	207.89	34.11	-40.1	-42.3	21.6	6.02e-01	0	55	0	827326464	51	4745
2026-01-11 01:37:00.02	207.82	33.85	-40.0	-42.3	21.7	6.04e-01	0	56	0	829423616	51	4707
2026-01-11 01:37:01.03	207.76	33.60	-39.9	-42.1	21.8	6.04e-01	0	55	0	831520768	51	4645
2026-01-11 01:37:02.04	207.69	33.35	-39.8	-42.0	21.9	6.03e-01	0	56	0	833093632	51	4580
2026-01-11 01:37:03.05	207.63	33.10	-39.7	-41.9	22.1	6.04e-01	0	55	0	835190784	51	4499
2026-01-11 01:37:04.06	207.57	32.85	-39.6	-41.7	22.2	6.04e-01	0	56	0	836763648	51	4423
2026-01-11 01:37:05.07	207.50	32.60	-39.4	-41.5	22.4	6.03e-01	0	55	0	838860800	50	4561
2026-01-11 01:37:06.08	207.44	32.36	-39.4	-41.4	22.5	6.05e-01	0	56	0	840957952	50	4538
2026-01-11 01:37:07.09	207.38	32.12	-39.4	-41.4	22.5	6.02e-01	0	56	0	842530816	50	4513
2026-01-11 01:37:08.10	207.32	31.88	-39.4	-41.5	22.4	6.03e-01	0	56	0	844627968	50	4555
2026-01-11 01:37:09.11	207.27	31.64	-39.4	-41.5	22.4	6.03e-01	0	55	0	846200832	50	4582
2026-01-11 01:37:10.11	207.21	31.41	-39.4	-41.5	22.4	6.03e-01	0	55	0	848297984	50	4586
2026-01-11 01:37:11.12	207.15	31.18	-39.4	-41.5	22.4	6.04e-01	0	55	0	850395136	50	4572
2026-01-11 01:37:12.14	207.10	30.94	-39.4	-41.5	22.4	6.02e-01	0	55	0	851968000	50	4558
2026-01-11 01:37:13.15	207.04	30.71	-39.4	-41.5	22.4	6.00e-01	0	55	0	854065152	50	4551
2026-01-11 01:37:14.16	206.99	30.49	-39.4	-41.5	22.4	6.04e-01	0	55	0	856162304	50	4569
2026-01-11 01:37:15.17	206.93	30.26	-39.4	-41.5	22.4	6.04e-01	0	56	0	857735168	50	4574
2026-01-11 01:37:16.18	206.88	30.04	-39.4	-41.5	22.4	6.02e-01	0	56	0	859832320	50	4575
2026-01-11 01:37:17.19	206.83	29.82	-39.4	-41.4	22.4	6.05e-01	0	55	0	861405184	50	4543
2026-01-11 01:37:18.20	206.78	29.60	-39.3	-41.4	22.5	6.01e-01	0	55	0	863502336	50	4512
2026-01-11 01:37:19.21	206.73	29.38	-39.3	-41.3	22.6	6.04e-01	0	55	0	865599488	50	4468
2026-01-11 01:37:20.22	206.68	29.16	-39.3	-41.3	22.6	6.04e-01	0	55	0	867172352	50	4471
2026-01-11 01:37:21.23	206.63	28.95	-39.3	-41.3	22.5	6.04e-01	0	56	0	869269504	50	4481
2026-01-11 01:37:22.24	206.58	28.73	-39.3	-41.4	22.5	6.04e-01	0	56	0	871366656	50	4510
2026-01-11 01:37:23.25	206.54	28.52	-39.4	-41.4	22.4	6.04e-01	0	56	0	872939520	50	4525
2026-01-11 01:37:24.26	206.49	28.31	-39.4	-41.5	22.3	6.04e-01	0	55	0	875036672	50	4559
2026-01-11 01:37:25.27	206.45	28.11	-39.4	-41.4	22.4	6.03e-01	0	55	0	876609536	50	4543
2026-01-11 01:37:26.28	206.40	27.90	-39.3	-41.3	22.5	6.04e-01	0	55	0	878706688	50	4490
2026-01-11 01:37:27.29	206.36	27.69	-39.4	-41.5	22.3	6.04e-01	0	55	0	880803840	50	4569
2026-01-11 01:37:28.30	206.31	27.49	-39.5	-41.6	22.2	6.02e-01	0	55	0	882376704	50	4622
2026-01-11 01:37:29.31	206.27	27.29	-39.6	-41.7	22.1	6.05e-01	0	56	0	884473856	50	4684
2026-01-11 01:37:30.32	206.23	27.09	-39.6	-41.8	22.1	6.03e-01	0	56	0	886046720	50	4706
2026-01-11 01:37:31.33	206.18	26.89	-39.7	-41.8	22.0	6.04e-01	0	56	0	888143872	50	4758
2026-01-11 01:37:32.34	206.14	26.69	-39.8	-42.0	21.8	6.04e-01	0	56	0	890241024	50	4832
2026-01-11 01:37:33.35	206.10	26.50	-39.9	-42.1	21.8	6.04e-01	0	55	0	891813888	50	4879
2026-01-11 01:37:34.36	206.06	26.31	-39.9	-42.2	21.7	6.01e-01	0	56	0	893911040	50	4936
2026-01-11 01:37:35.37	206.02	26.11	-40.0	-42.2	21.6	6.04e-01	0	55	0	895483904	50	4967
2026-01-11 01:37:36.37	205.98	25.92	-40.0	-42.3	21.6	6.03e-01	0	55	0	897581056	50	5003
2026-01-11 01:37:37.38	205.94	25.73	-40.0	-42.3	21.5	6.03e-01	0	55	0	899678208	50	5008
2026-01-11 01:37:38.39	205.90	25.55	-40.0	-42.3	21.5	6.02e-01	0	56	0	901251072	50	5030
2026-01-11 01:37:39.39	205.87	25.36	-40.1	-42.3	21.5	6.03e-01	0	55	0	903348224	50	5033
2026-01-11 01:37:40.40	205.83	25.18	-40.0	-42.3	21.5	6.02e-01	0	55	0	904921088	50	5037
2026-01-11 01:37:41.41	205.79	24.99	-40.1	-42.4	21.4	6.02e-01	0	56	0	907018240	50	5067
2026-01-11 01:37:42.42	205.76	24.81	-40.1	-42.4	21.4	6.03e-01	0	56	0	909115392	50	5099
2026-01-11 01:37:43.43	205.72	24.63	-40.2	-42.5	21.3	6.04e-01	0	55	0	910688256	50	5146
2026-01-11 01:37:44.44	205.69	24.45	-40.2	-42.6	21.2	6.02e-01	0	55	0	912785408	50	5193
2026-01-11 01:37:45.45	205.65	24.27	-40.3	-42.7	21.1	6.03e-01	0	55	0	914358272	51	4931
2026-01-11 01:37:46.46	205.62	24.09	-40.3	-42.7	21.1	6.02e-01	0	55	0	916455424	51	4933
2026-01-11 01:37:47.47	205.58	23.92	-40.3	-42.7	21.1	6.03e-01	0	56	0	918552576	51	4940
2026-01-11 01:37:48.48	205.55	23.74	-40.2	-42.6	21.2	6.03e-01	0	55	0	920125440	51	4880
2026-01-11 01:37:49.49	205.52	23.57	-40.2	-42.6	21.2	6.03e-01	0	55	0	922222592	51	4891
2026-01-11 01:37:50.50	205.48	23.40	-40.2	-42.6	21.2	6.03e-01	0	56	0	924319744	51	4883
2026-01-11 01:37:51.51	205.45	23.23	-40.2	-42.6	21.2	6.06e-01	0	56	0	925892608	51	4886
2026-01-11 01:37:52.51	205.42	23.06	-40.2	-42.6	21.2	6.03e-01	0	56	0	927989760	51	4887
2026-01-11 01:37:53.52	205.39	22.89	-40.2	-42.6	21.1	6.02e-01	0	55	0	929562624	51	4890
2026-01-11 01:37:54.53	205.36	22.72	-40.2	-42.6	21.1	6.03e-01	0	56	0	931659776	51	4895
2026-01-11 01:37:55.54	205.33	22.56	-40.3	-42.6	21.1	6.02e-01	0	55	0	933756928	51	4921
2026-01-11 01:37:56.55	205.29	22.39	-40.3	-42.7	21.1	6.03e-01	0	56	0	935329792	51	4930
2026-01-11 01:37:57.56	205.26	22.23	-40.3	-42.7	21.0	6.02e-01	0	56	0	937426944	51	4945
2026-01-11 01:37:58.57	205.23	22.06	-40.3	-42.7	21.0	6.04e-01	0	55	0	938999808	51	4967
2026-01-11 01:37:59.58	205.21	21.90	-40.3	-42.8	21.0	6.03e-01	0	55	0	941096960	51	4985
2026-01-11 01:38:00.59	205.18	21.74	-40.3	-42.8	20.9	6.03e-01	0	56	0	943194112	51	5004
2026-01-11 01:38:01.60	205.15	21.58	-40.4	-42.8	20.9	6.03e-01	0	55	0	944766976	51	5028
2026-01-11 01:38:02.61	205.12	21.42	-40.4	-42.8	20.9	6.03e-01	0	55	0	946864128	51	5031
2026-01-11 01:38:03.62	205.09	21.27	-40.4	-42.8	20.9	6.02e-01	0	55	0	948436992	51	5038
2026-01-11 01:38:04.63	205.06	21.11	-40.4	-42.9	20.8	6.04e-01	0	56	0	950534144	51	5055
2026-01-11 01:38:05.64	205.04	20.96	-40.4	-42.9	20.8	6.05e-01	0	55	0	952631296	51	5054
2026-01-11 01:38:06.65	205.01	20.80	-40.4	-42.8	20.9	6.02e-01	0	56	0	954204160	51	5031
2026-01-11 01:38:07.66	204.98	20.65	-40.4	-42.8	20.9	6.02e-01	0	56	0	956301312	51	5020
2026-01-11 01:38:08.67	204.96	20.50	-40.3	-42.8	20.9	6.04e-01	0	55	0	957874176	51	4990
2026-01-11 01:38:09.68	204.93	20.35	-40.3	-42.8	20.9	6.03e-01	0	55	0	959971328	51	4993
2026-01-11 01:38:10.69	204.90	20.20	-40.3	-42.8	20.9	6.02e-01	0	55	0	962068480	51	4984
2026-01-11 01:38:11.70	204.88	20.05	-40.3	-42.7	21.0	6.04e-01	0	56	0	963641344	51	4944
2026-01-11 01:38:12.71	204.85	19.90	-40.3	-42.7	21.0	6.04e-01	0	55	0	965738496	51	4954
2026-01-11 01:38:13.72	204.83	19.75	-40.3	-42.7	20.9	6.03e-01	0	56	0	967835648	51	4961
2026-01-11 01:38:14.73	204.80	19.60	-40.3	-42.7	20.9	6.00e-01	0	56	0	969408512	51	4972
2026-01-11 01:38:15.74	204.78	19.46	-40.3	-42.7	20.9	6.04e-01	0	56	0	971505664	51	4958
2026-01-11 01:38:16.75	204.75	19.31	-40.3	-42.7	20.9	6.04e-01	0	55	0	973078528	51	4950
2026-01-11 01:38:17.76	204.73	19.17	-40.3	-42.7	21.0	6.04e-01	0	56	0	975175680	51	4945
2026-01-11 01:38:18.77	204.71	19.03	-40.2	-42.6	21.0	6.06e-01	0	56	0	977272832	51	4918
2026-01-11 01:38:19.78	204.68	18.89	-40.2	-42.6	21.0	6.00e-01	0	56	0	978845696	51	4907
2026-01-11 01:38:20.79	204.66	18.75	-40.2	-42.6	21.1	6.04e-01	0	56	0	980942848	51	4873
2026-01-11 01:38:21.79	204.64	18.61	-40.2	-42.5	21.1	6.02e-01	0	56	0	982515712	51	4870
2026-01-11 01:38:22.80	204.62	18.47	-40.2	-42.6	21.0	6.01e-01	0	55	0	984612864	51	4872
2026-01-11 01:38:23.81	204.59	18.33	-40.1	-42.5	21.1	6.03e-01	0	56	0	986710016	51	4858
2026-01-11 01:38:24.82	204.57	18.19	-40.1	-42.5	21.1	6.03e-01	0	56	0	988282880	51	4823
2026-01-11 01:38:25.83	204.55	18.06	-40.0	-42.4	21.2	6.02e-01	0	56	0	990380032	51	4790
2026-01-11 01:38:26.84	204.53	17.92	-40.1	-42.5	21.1	6.04e-01	0	56	0	992477184	51	4816
2026-01-11 01:38:27.85	204.51	17.79	-40.1	-42.4	21.1	6.04e-01	0	56	0	994050048	51	4809
2026-01-11 01:38:28.86	204.49	17.65	-40.0	-42.4	21.2	6.02e-01	0	56	0	996147200	51	4791
2026-01-11 01:38:29.87	204.46	17.52	-40.1	-42.5	21.1	6.04e-01	0	55	0	997720064	51	4834
2026-01-11 01:38:30.88	204.44	17.39	-40.1	-42.4	21.1	6.04e-01	0	55	0	999817216	51	4800
2026-01-11 01:38:31.89	204.42	17.25	-40.1	-42.5	21.1	6.00e-01	0	55	0	1001914368	51	4827
2026-01-11 01:38:32.90	204.40	17.12	-40.1	-42.5	21.0	6.02e-01	0	56	0	1003487232	51	4843
2026-01-11 01:38:33.91	204.38	16.99	-40.1	-42.6	21.0	6.01e-01	0	55	0	1005584384	51	4882
2026-01-11 01:38:34.92	204.36	16.86	-40.1	-42.5	21.0	6.03e-01	0	56	0	1007157248	51	4846
2026-01-11 01:38:35.93	204.34	16.73	-40.1	-42.6	21.0	6.03e-01	0	56	0	1009254400	51	4875
2026-01-11 01:38:36.94	204.32	16.61	-40.1	-42.6	21.0	6.02e-01	0	56	0	1011351552	51	4872
2026-01-11 01:38:37.95	204.30	16.48	-40.1	-42.6	20.9	6.05e-01	0	55	0	1012924416	51	4884
2026-01-11 01:38:38.96	204.29	16.35	-40.1	-42.5	21.0	6.03e-01	0	55	0	1015021568	51	4863
2026-01-11 01:38:39.97	204.27	16.23	-40.1	-42.5	21.0	6.05e-01	0	56	0	1016594432	51	4853
2026-01-11 01:38:40.98	204.25	16.10	-40.2	-42.6	20.9	6.03e-01	0	56	0	1018691584	51	4899
2026-01-11 01:38:41.99	204.23	15.98	-40.1	-42.6	20.9	6.03e-01	0	56	0	1020788736	51	4880
2026-01-11 01:38:43.00	204.21	15.85	-40.2	-42.7	20.8	6.04e-01	0	56	0	1022361600	51	4929
2026-01-11 01:38:44.01	204.19	15.73	-40.2	-42.7	20.8	6.03e-01	0	55	0	1024458752	51	4940
2026-01-11 01:38:45.02	204.17	15.61	-40.2	-42.7	20.8	6.02e-01	0	56	0	1026031616	51	4927
2026-01-11 01:38:46.03	204.16	15.49	-40.2	-42.7	20.8	6.04e-01	0	56	0	1028128768	51	4938
2026-01-11 01:38:47.04	204.14	15.36	-40.2	-42.7	20.8	6.04e-01	0	55	0	1030225920	51	4956
2026-01-11 01:38:48.05	204.12	15.24	-40.2	-42.7	20.8	6.03e-01	0	55	0	1031798784	51	4936
2026-01-11 01:38:49.06	204.10	15.12	-40.2	-42.6	20.8	6.00e-01	0	56	0	1033895936	51	4926
2026-01-11 01:38:50.07	204.09	15.01	-40.3	-42.8	20.7	6.04e-01	0	56	0	1035993088	51	4991
2026-01-11 01:38:51.08	204.07	14.89	-40.3	-42.8	20.7	6.03e-01	0	56	0	1037565952	51	4996
2026-01-11 01:38:52.09	204.05	14.77	-40.3	-42.8	20.6	6.02e-01	0	56	0	1039663104	51	5018
2026-01-11 01:38:53.10	204.04	14.65	-40.3	-42.8	20.6	6.04e-01	0	56	0	1041235968	51	5026
2026-01-11 01:38:54.11	204.02	14.54	-40.3	-42.9	20.6	6.04e-01	0	56	0	1043333120	51	5046
2026-01-11 01:38:55.12	204.00	14.42	-40.3	-42.9	20.5	6.03e-01	0	55	0	1045430272	51	5072
2026-01-11 01:38:56.13	203.99	14.30	-40.3	-42.9	20.5	6.05e-01	0	55	0	1047003136	51	5082
2026-01-11 01:38:57.13	203.97	14.19	-40.4	-43.0	20.4	6.02e-01	0	56	0	1049100288	51	5111
2026-01-11 01:38:58.14	203.96	14.08	-40.4	-43.0	20.4	6.04e-01	0	56	0	1050673152	51	5119
2026-01-11 01:38:59.15	203.94	13.96	-40.4	-42.9	20.4	6.04e-01	0	55	0	1052770304	51	5100
2026-01-11 01:39:00.16	203.93	13.85	-40.4	-43.0	20.4	6.03e-01	0	56	0	1054867456	51	5113
2026-01-11 01:39:01.17	203.91	13.74	-40.3	-42.9	20.4	6.04e-01	0	55	0	1056440320	51	5092
2026-01-11 01:39:02.18	203.90	13.63	-40.4	-42.9	20.4	6.02e-01	0	56	0	1058537472	51	5098
2026-01-11 01:39:03.19	203.88	13.51	-40.4	-43.0	20.4	6.04e-01	0	56	0	1060634624	51	5107
2026-01-11 01:39:04.20	203.87	13.40	-40.4	-43.1	20.3	6.03e-01	0	56	0	1062207488	51	5164
2026-01-11 01:39:05.21	203.85	13.29	-40.4	-43.0	20.4	6.02e-01	0	56	0	1064304640	51	5109
2026-01-11 01:39:06.22	203.84	13.18	-40.3	-42.9	20.4	6.04e-01	0	55	0	1065877504	51	5096
2026-01-11 01:39:07.23	203.82	13.08	-40.3	-42.9	20.4	6.03e-01	0	56	0	1067974656	51	5100
2026-01-11 01:39:08.24	203.81	12.97	-40.4	-43.0	20.4	6.02e-01	0	56	0	1070071808	51	5110
2026-01-11 01:39:09.25	203.79	12.86	-40.3	-43.0	20.4	6.04e-01	0	56	0	1071644672	51	5109
2026-01-11 01:39:10.26	203.78	12.75	-40.4	-43.0	20.3	6.03e-01	0	56	0	1073741824	51	5145
2026-01-11 01:39:11.27	203.76	12.64	-40.3	-42.9	20.4	6.05e-01	0	56	0	1075314688	51	5059
2026-01-11 01:39:12.28	203.75	12.54	-40.3	-42.9	20.4	6.03e-01	0	56	0	1077411840	51	5100
2026-01-11 01:39:13.29	203.74	12.43	-40.3	-42.9	20.4	6.02e-01	0	56	0	1079508992	51	5088
2026-01-11 01:39:14.29	203.72	12.33	-40.3	-42.9	20.3	6.04e-01	0	56	0	1081081856	51	5096
2026-01-11 01:39:15.30	203.71	12.22	-40.3	-42.9	20.4	6.03e-01	0	56	0	1083179008	51	5084
2026-01-11 01:39:16.32	203.70	12.12	-40.3	-43.0	20.3	6.03e-01	0	56	0	1084751872	51	5105
2026-01-11 01:39:17.33	203.68	12.01	-40.3	-43.0	20.3	6.04e-01	0	55	0	1086849024	51	5110
2026-01-11 01:39:18.34	203.67	11.91	-40.3	-43.0	20.3	6.05e-01	0	56	0	1088946176	51	5111
2026-01-11 01:39:19.35	203.66	11.81	-40.4	-43.1	20.2	6.04e-01	0	56	0	1090519040	51	5180
2026-01-11 01:39:20.36	203.64	11.70	-40.4	-43.1	20.2	6.04e-01	0	56	0	1092616192	51	5172
2026-01-11 01:39:21.36	203.63	11.60	-40.4	-43.0	20.2	6.06e-01	0	56	0	1094189056	51	5147
2026-01-11 01:39:22.38	203.62	11.50	-40.4	-43.1	20.2	6.03e-01	0	56	0	1096286208	51	5187
2026-01-11 01:39:23.39	203.61	11.40	-40.4	-43.2	20.1	6.06e-01	0	55	0	1098383360	51	5240
2026-01-11 01:39:24.40	203.59	11.30	-40.4	-43.2	20.0	6.03e-01	0	56	0	1099956224	51	5237
2026-01-11 01:39:25.40	203.58	11.20	-40.4	-43.2	20.0	6.04e-01	0	56	0	1102053376	51	5242
2026-01-11 01:39:26.42	203.57	11.10	-40.5	-43.2	20.0	6.03e-01	0	56	0	1104150528	51	5270
2026-01-11 01:39:27.43	203.56	11.00	-40.5	-43.3	19.9	6.04e-01	0	56	0	1105723392	51	5299
2026-01-11 01:39:28.44	203.55	10.90	-40.5	-43.3	19.9	6.04e-01	0	56	0	1107820544	51	5298
2026-01-11 01:39:29.44	203.53	10.80	-40.6	-43.4	19.9	6.05e-01	0	56	0	1109393408	51	5345
2026-01-11 01:39:30.45	203.52	10.71	-40.5	-43.3	20.0	6.05e-01	0	56	0	1111490560	51	5294
2026-01-11 01:39:31.46	203.51	10.61	-40.6	-43.4	19.8	6.02e-01	0	56	0	1113587712	51	5366
2026-01-11 01:39:32.47	203.50	10.51	-40.7	-43.5	19.6	6.04e-01	0	56	0	1115160576	51	5461
2026-01-11 01:39:33.48	203.49	10.42	-40.7	-43.5	19.6	6.04e-01	0	55	0	1117257728	51	5453
2026-01-11 01:39:34.49	203.48	10.32	-40.6	-43.5	19.7	6.05e-01	0	56	0	1118830592	51	5434
2026-01-11 01:39:35.50	203.47	10.22	-40.7	-43.6	19.6	6.01e-01	0	56	0	1120927744	51	5469
2026-01-11 01:39:36.51	203.45	10.13	-40.7	-43.6	19.6	6.03e-01	0	56	0	1123024896	51	5468
2026-01-11 01:39:37.52	203.44	10.03	-40.6	-43.6	19.5	6.04e-01	0	55	0	1124597760	52	5168
2026-01-11 01:39:38.53	203.43	9.94	-40.6	-43.5	19.6	6.02e-01	0	56	0	1126694912	52	5143
2026-01-11 01:39:39.54	203.42	9.84	-40.6	-43.6	19.5	6.04e-01	0	56	0	1128792064	52	5178
2026-01-11 01:39:40.55	203.41	9.75	-40.7	-43.7	19.4	6.02e-01	0	56	0	1130364928	52	5228
2026-01-11 01:39:41.56	203.40	9.66	-40.8	-43.8	19.2	6.03e-01	0	55	0	1132462080	52	5318
2026-01-11 01:39:42.57	203.39	9.56	-40.7	-43.7	19.4	6.03e-01	0	56	0	1134034944	52	5229
2026-01-11 01:39:43.58	203.38	9.47	-40.7	-43.8	19.2	6.04e-01	0	56	0	1136132096	52	5302
2026-01-11 01:39:44.59	203.37	9.38	-40.8	-43.8	19.2	6.03e-01	0	56	0	1138229248	52	5315
2026-01-11 01:39:45.60	203.36	9.29	-40.7	-43.8	19.2	6.05e-01	0	56	0	1139802112	52	5312
2026-01-11 01:39:46.61	203.35	9.20	-40.8	-43.9	19.0	6.03e-01	0	56	0	1141899264	52	5394
2026-01-11 01:39:47.62	203.34	9.11	-40.6	-43.7	19.3	6.05e-01	0	56	0	1143472128	52	5222
2026-01-11 01:39:48.63	203.33	9.01	-40.7	-43.8	19.1	6.01e-01	0	56	0	1145569280	52	5337
2026-01-11 01:39:49.64	203.32	8.92	-40.7	-43.7	19.2	6.02e-01	0	56	0	1147666432	52	5273
2026-01-11 01:39:50.65	203.31	8.83	-40.7	-43.9	19.0	6.03e-01	0	56	0	1149239296	52	5341
2026-01-11 01:39:51.66	203.30	8.74	-40.7	-43.7	19.1	6.07e-01	0	56	0	1151336448	52	5267
2026-01-11 01:39:52.67	203.29	8.66	-40.8	-43.9	18.9	6.01e-01	0	56	0	1152909312	52	5363
2026-01-11 01:39:53.68	203.28	8.57	-40.7	-43.8	19.0	6.02e-01	0	56	0	1155006464	52	5332
2026-01-11 01:39:54.69	203.27	8.48	-40.7	-43.7	19.0	6.04e-01	0	56	0	1157103616	52	5279
2026-01-11 01:39:55.70	203.26	8.39	-40.7	-43.9	18.9	6.02e-01	0	55	0	1158676480	52	5373
2026-01-11 01:39:56.71	203.25	8.30	-40.7	-43.9	18.8	6.02e-01	0	56	0	1160773632	52	5375
2026-01-11 01:39:57.72	203.24	8.21	-40.7	-43.9	18.8	6.03e-01	0	56	0	1162346496	52	5363
2026-01-11 01:39:58.73	203.23	8.13	-40.7	-43.9	18.8	6.01e-01	0	56	0	1164443648	52	5377
2026-01-11 01:39:59.74	203.22	8.04	-40.7	-44.0	18.6	6.04e-01	0	56	0	1166540800	52	5414
2026-01-11 01:40:00.75	203.21	7.95	-44.7	-55.2	8.9	6.48e-01	45	56	0	1168113664	59	13117
2026-01-11 01:40:01.76	203.20	7.87	-45.3	-64.0	3.8	7.50e-01	0	56	104	1168637952	61	32541
2026-01-11 01:40:02.77	203.20	7.78	-45.5	-64.4	3.8	7.48e-01	0	56	104	1168637952	61	33782
2026-01-11 01:40:03.78	203.19	7.70	-45.7	-64.5	3.8	7.46e-01	0	56	104	1168637952	61	34468
2026-01-11 01:40:04.79	203.18	7.61	-45.9	-64.7	3.8	7.45e-01	0	56	104	1168637952	62	33279
2026-01-11 01:40:05.80	203.17	7.53	-45.9	-64.8	3.8	7.46e-01	0	56	104	1168637952	62	33633
2026-01-11 01:40:06.81	203.16	7.44	-46.0	-64.9	3.8	7.44e-01	0	56	104	1168637952	62	33871
2026-01-11 01:40:07.82	203.15	7.36	-46.0	-64.9	3.8	7.47e-01	0	56	104	1168637952	62	34061
2026-01-11 01:40:08.83	203.14	7.27	-46.0	-65.0	3.8	7.44e-01	0	56	104	1168637952	62	34096
2026-01-11 01:40:09.84	203.14	7.19	-46.0	-64.9	3.8	7.43e-01	0	56	104	1168637952	62	34001
2026-01-11 01:40:10.85	203.13	7.11	-46.0	-64.9	3.8	7.47e-01	0	56	104	1168637952	62	34035
