passes_logs/2026/01/11/R2.0S_Moscow/R2.0S_Moscow__20260111_032948_FENGYUN_3D_rec.log

#Pass ID: 20260111_032948_FENGYUN 3D
#Satellite: FENGYUN 3D
#Configuration: FENGYUN 3D
#almurnet v.1.7.20251203
#Start time: 2026-01-11 03:29:48

#Version: 2.2.20231116
#Station: R2.0S_Moscow
#Location: 37.707566 lon 55.798166 lat
#TLE: 1 43010U 17072A   26009.92921666 -.00000228  00000+0 -86059-4 0  9998
#TLE: 2 43010  98.9936 341.6668 0002176 116.7510 243.3888 14.19693142422537

#Time	Az	El	Level	Level2	SNR	BER	BlckErr	Temp	State	Recorded	gain1	gain2
2026-01-11 03:29:48.12	10.57	1.97	-39.7	-51.3	3.8	8.44e-01	0	47	0	0	51	13395
2026-01-11 03:29:49.13	10.50	2.03	-39.7	-51.3	3.8	8.46e-01	0	47	104	0	51	13402
2026-01-11 03:29:50.14	10.43	2.08	-39.7	-51.3	3.8	8.46e-01	0	47	104	0	51	13402
2026-01-11 03:29:51.15	10.36	2.14	-39.7	-51.3	3.8	8.46e-01	0	47	104	0	51	13363
2026-01-11 03:29:52.16	10.30	2.19	-39.7	-51.3	3.8	8.46e-01	0	47	104	0	51	13408
2026-01-11 03:29:53.17	10.23	2.25	-39.7	-51.3	3.8	8.47e-01	0	48	104	0	51	13355
2026-01-11 03:29:54.18	10.16	2.31	-39.7	-51.3	3.8	8.46e-01	0	47	104	0	51	13363
2026-01-11 03:29:55.19	10.09	2.36	-39.7	-51.3	3.8	8.46e-01	0	48	104	0	51	13364
2026-01-11 03:29:56.20	10.02	2.42	-39.7	-51.3	3.8	8.45e-01	0	48	104	0	51	13369
2026-01-11 03:29:57.21	9.95	2.48	-39.7	-51.3	3.8	8.46e-01	0	48	104	0	51	13360
2026-01-11 03:29:58.22	9.88	2.53	-39.7	-51.3	3.8	8.46e-01	0	48	104	0	51	13343
2026-01-11 03:29:59.23	9.81	2.59	-39.7	-51.3	3.8	8.46e-01	0	48	104	0	51	13387
2026-01-11 03:30:00.24	9.74	2.65	-39.7	-51.3	3.8	8.46e-01	0	48	104	0	51	13384
2026-01-11 03:30:01.25	9.67	2.71	-39.7	-51.3	3.8	8.46e-01	0	48	104	0	51	13408
2026-01-11 03:30:02.26	9.60	2.76	-39.7	-51.3	3.8	8.47e-01	0	48	104	0	51	13388
2026-01-11 03:30:03.27	9.53	2.82	-39.7	-51.3	3.8	8.46e-01	0	48	104	0	51	13377
2026-01-11 03:30:04.28	9.45	2.88	-39.7	-51.3	3.8	8.47e-01	0	48	104	0	51	13371
2026-01-11 03:30:05.30	9.38	2.93	-39.7	-51.4	3.8	8.45e-01	0	48	104	0	51	13443
2026-01-11 03:30:06.31	9.31	2.99	-39.7	-51.3	3.8	8.46e-01	0	49	104	0	51	13371
2026-01-11 03:30:07.32	9.24	3.05	-39.7	-51.3	3.8	8.46e-01	0	49	104	0	51	13363
2026-01-11 03:30:08.33	9.16	3.11	-39.7	-51.3	3.8	8.46e-01	0	48	104	0	51	13391
2026-01-11 03:30:09.34	9.09	3.16	-39.7	-51.3	3.8	8.47e-01	0	48	104	0	51	13359
2026-01-11 03:30:10.35	9.02	3.22	-39.7	-51.3	3.8	8.46e-01	0	49	104	0	51	13387
2026-01-11 03:30:11.36	8.94	3.28	-39.7	-51.3	3.8	8.47e-01	0	49	104	0	51	13318
2026-01-11 03:30:12.37	8.87	3.34	-39.7	-51.3	3.8	8.46e-01	0	49	104	0	51	13367
2026-01-11 03:30:13.39	8.79	3.40	-39.7	-51.3	3.8	8.46e-01	0	49	104	0	51	13405
2026-01-11 03:30:14.40	8.72	3.45	-39.7	-51.3	3.8	8.46e-01	0	49	104	0	51	13356
2026-01-11 03:30:15.41	8.64	3.51	-39.7	-51.3	3.8	8.46e-01	0	49	104	0	51	13363
2026-01-11 03:30:16.42	8.57	3.57	-39.7	-51.3	3.8	8.47e-01	0	49	104	0	51	13326
2026-01-11 03:30:17.43	8.49	3.63	-39.7	-51.3	3.8	8.47e-01	0	49	104	0	51	13341
2026-01-11 03:30:18.44	8.42	3.69	-39.7	-51.3	3.8	8.45e-01	0	49	104	0	51	13340
2026-01-11 03:30:19.45	8.34	3.75	-39.7	-51.3	3.8	8.46e-01	0	49	104	0	51	13331
2026-01-11 03:30:20.46	8.26	3.80	-39.7	-51.3	3.8	8.47e-01	0	49	104	0	51	13344
2026-01-11 03:30:21.47	8.18	3.86	-39.7	-51.3	3.8	8.46e-01	0	49	104	0	51	13373
2026-01-11 03:30:22.48	8.11	3.92	-39.7	-51.3	3.8	8.46e-01	0	49	104	0	51	13331
2026-01-11 03:30:23.49	8.03	3.98	-39.7	-51.3	3.8	8.46e-01	0	50	104	0	51	13353
2026-01-11 03:30:24.51	7.95	4.04	-39.7	-51.3	3.8	8.47e-01	0	50	104	0	51	13339
2026-01-11 03:30:25.52	7.87	4.10	-39.7	-51.3	3.8	8.46e-01	0	50	104	0	51	13388
2026-01-11 03:30:26.53	7.79	4.16	-39.7	-51.3	3.8	8.45e-01	0	50	104	0	51	13363
2026-01-11 03:30:27.54	7.71	4.22	-39.7	-51.3	3.8	8.46e-01	0	50	104	0	51	13356
2026-01-11 03:30:28.55	7.64	4.27	-39.7	-51.3	3.8	8.45e-01	0	50	104	0	51	13357
2026-01-11 03:30:29.56	7.56	4.33	-39.7	-51.4	3.8	8.46e-01	0	50	104	0	51	13426
2026-01-11 03:30:30.57	7.48	4.39	-39.7	-51.3	3.8	8.47e-01	0	50	104	0	51	13368
2026-01-11 03:30:31.58	7.40	4.45	-39.7	-51.3	3.8	8.46e-01	0	50	104	0	51	13363
2026-01-11 03:30:32.59	7.31	4.51	-39.7	-51.3	3.8	8.46e-01	0	50	104	0	51	13321
2026-01-11 03:30:33.60	7.23	4.57	-39.7	-51.3	3.8	8.46e-01	0	50	104	0	51	13322
2026-01-11 03:30:34.61	7.15	4.63	-39.7	-51.3	3.8	8.46e-01	0	50	104	0	51	13383
2026-01-11 03:30:35.62	7.07	4.69	-39.7	-51.3	3.8	8.46e-01	0	50	104	0	51	13375
2026-01-11 03:30:36.63	6.99	4.75	-39.7	-51.3	3.8	8.46e-01	0	50	104	0	51	13363
2026-01-11 03:30:37.65	6.91	4.81	-39.7	-51.3	3.8	8.45e-01	0	50	104	0	51	13343
2026-01-11 03:30:38.66	6.82	4.87	-39.7	-51.3	3.8	8.46e-01	0	50	104	0	51	13281
2026-01-11 03:30:39.67	6.74	4.93	-39.7	-51.3	3.8	8.47e-01	0	50	104	0	51	13381
2026-01-11 03:30:40.68	6.66	4.99	-39.7	-51.3	3.8	8.46e-01	0	50	104	0	51	13322
2026-01-11 03:30:41.69	6.57	5.05	-39.7	-51.4	3.8	8.46e-01	0	51	104	0	51	13415
2026-01-11 03:30:42.70	6.49	5.11	-39.7	-51.3	3.8	8.46e-01	0	51	104	0	51	13356
2026-01-11 03:30:43.71	6.40	5.17	-39.7	-51.3	3.8	8.46e-01	0	51	104	0	51	13359
2026-01-11 03:30:44.72	6.32	5.23	-39.7	-51.3	3.8	8.46e-01	0	51	104	0	51	13335
2026-01-11 03:30:45.74	6.23	5.29	-39.7	-51.3	3.8	8.47e-01	0	51	104	0	51	13392
2026-01-11 03:30:46.75	6.15	5.35	-39.7	-51.3	3.8	8.47e-01	0	51	104	0	51	13408
2026-01-11 03:30:47.76	6.06	5.41	-39.7	-51.3	3.8	8.46e-01	0	51	104	0	51	13327
2026-01-11 03:30:48.77	5.97	5.47	-39.7	-51.3	3.8	8.47e-01	0	51	104	0	51	13327
2026-01-11 03:30:49.78	5.89	5.53	-39.7	-51.3	3.8	8.47e-01	0	51	104	0	51	13322
2026-01-11 03:30:50.79	5.80	5.59	-39.7	-51.3	3.8	8.46e-01	0	51	104	0	51	13351
2026-01-11 03:30:51.80	5.71	5.66	-39.7	-51.3	3.8	8.47e-01	0	51	104	0	51	13312
2026-01-11 03:30:52.81	5.62	5.72	-39.7	-51.3	3.8	8.47e-01	0	51	104	0	51	13352
2026-01-11 03:30:53.83	5.53	5.78	-39.7	-51.3	3.8	8.47e-01	0	51	104	0	51	13341
2026-01-11 03:30:54.84	5.45	5.84	-39.7	-51.3	3.8	8.47e-01	0	51	104	0	51	13347
2026-01-11 03:30:55.85	5.36	5.90	-39.7	-51.3	3.8	8.47e-01	0	51	104	0	51	13344
2026-01-11 03:30:56.86	5.27	5.96	-39.7	-51.3	3.8	8.46e-01	0	51	104	0	51	13341
2026-01-11 03:30:57.87	5.18	6.02	-39.7	-51.3	3.8	8.47e-01	0	51	104	0	51	13359
2026-01-11 03:30:58.88	5.09	6.08	-39.7	-51.3	3.8	8.46e-01	0	51	104	0	51	13293
2026-01-11 03:30:59.89	5.00	6.15	-39.7	-51.3	3.8	8.47e-01	0	52	104	0	51	13371
2026-01-11 03:31:00.90	4.90	6.21	-39.7	-51.3	3.8	8.46e-01	0	51	104	0	51	13339
2026-01-11 03:31:01.91	4.81	6.27	-39.7	-51.3	3.8	8.47e-01	0	52	104	0	51	13365
2026-01-11 03:31:02.92	4.72	6.33	-39.7	-51.3	3.8	8.46e-01	0	52	104	0	51	13350
2026-01-11 03:31:03.94	4.63	6.39	-39.7	-51.3	3.8	8.47e-01	0	52	104	0	51	13356
2026-01-11 03:31:04.95	4.54	6.45	-39.7	-51.3	3.8	8.47e-01	0	52	104	0	51	13317
2026-01-11 03:31:05.96	4.44	6.52	-39.7	-51.3	3.8	8.46e-01	0	52	104	0	51	13363
2026-01-11 03:31:06.97	4.35	6.58	-39.7	-51.3	3.8	8.45e-01	0	52	104	0	51	13354
2026-01-11 03:31:07.98	4.25	6.64	-39.7	-51.3	3.8	8.46e-01	0	52	104	0	51	13347
2026-01-11 03:31:08.99	4.16	6.70	-39.7	-51.3	3.8	8.46e-01	0	52	104	0	51	13358
2026-01-11 03:31:10.00	4.06	6.76	-39.7	-51.3	3.8	8.46e-01	0	52	104	0	51	13333
2026-01-11 03:31:11.01	3.97	6.83	-39.7	-51.3	3.8	8.45e-01	0	52	104	0	51	13362
2026-01-11 03:31:12.02	3.87	6.89	-39.7	-51.3	3.8	8.46e-01	0	52	104	0	51	13363
2026-01-11 03:31:13.03	3.78	6.95	-39.7	-51.3	3.8	8.46e-01	0	52	104	0	51	13316
2026-01-11 03:31:14.04	3.68	7.01	-39.7	-51.3	3.8	8.46e-01	0	52	104	0	51	13317
2026-01-11 03:31:15.06	3.58	7.08	-39.7	-51.3	3.8	8.47e-01	0	52	104	0	51	13327
2026-01-11 03:31:16.07	3.49	7.14	-39.7	-51.3	3.8	8.46e-01	0	52	104	0	51	13337
2026-01-11 03:31:17.08	3.39	7.20	-39.7	-51.3	3.8	8.47e-01	0	52	104	0	51	13346
2026-01-11 03:31:18.09	3.29	7.27	-39.7	-51.3	3.8	8.46e-01	0	52	104	0	51	13367
2026-01-11 03:31:19.10	3.19	7.33	-39.7	-51.3	3.8	8.46e-01	0	52	104	0	51	13346
2026-01-11 03:31:20.11	3.09	7.39	-39.7	-51.3	3.8	8.46e-01	0	52	104	0	51	13343
2026-01-11 03:31:21.12	2.99	7.45	-39.7	-51.3	3.8	8.45e-01	0	52	104	0	51	13388
2026-01-11 03:31:22.13	2.89	7.52	-39.7	-51.3	3.8	8.45e-01	0	53	104	0	51	13372
2026-01-11 03:31:23.14	2.79	7.58	-39.7	-51.3	3.8	8.45e-01	0	52	104	0	51	13344
2026-01-11 03:31:24.15	2.69	7.64	-39.7	-51.3	3.8	8.47e-01	0	52	104	0	51	13370
2026-01-11 03:31:25.16	2.59	7.71	-39.7	-51.3	3.8	8.46e-01	0	52	104	0	51	13315
2026-01-11 03:31:26.18	2.49	7.77	-39.7	-51.3	3.8	8.45e-01	0	52	104	0	51	13325
2026-01-11 03:31:27.19	2.38	7.83	-39.7	-51.3	3.8	8.46e-01	0	53	104	0	51	13348
2026-01-11 03:31:28.20	2.28	7.90	-39.7	-51.3	3.8	8.46e-01	0	52	104	0	51	13296
2026-01-11 03:31:29.21	2.18	7.96	-39.7	-51.3	3.8	8.47e-01	0	53	104	0	51	13297
2026-01-11 03:31:30.22	2.07	8.03	-39.7	-51.3	3.8	8.46e-01	0	53	104	0	51	13359
2026-01-11 03:31:31.23	1.97	8.09	-39.6	-51.4	3.8	8.46e-01	0	53	104	0	51	13458
2026-01-11 03:31:32.24	1.87	8.15	-39.7	-51.4	3.8	8.46e-01	0	53	104	0	51	13540
2026-01-11 03:31:33.25	1.76	8.22	-39.7	-51.3	3.8	8.46e-01	0	53	104	0	51	13363
2026-01-11 03:31:34.26	1.65	8.28	-39.8	-51.4	3.8	8.46e-01	0	53	104	0	51	13514
2026-01-11 03:31:35.27	1.55	8.34	-39.6	-51.4	3.8	8.47e-01	0	53	104	0	51	13432
2026-01-11 03:31:36.28	1.44	8.41	-39.8	-51.5	3.8	8.47e-01	0	53	104	0	51	13607
2026-01-11 03:31:37.29	1.33	8.47	-39.5	-51.3	3.8	8.47e-01	0	53	104	0	51	13372
2026-01-11 03:31:38.30	1.23	8.54	-39.5	-51.4	3.8	8.46e-01	0	53	104	0	51	13492
2026-01-11 03:31:39.31	1.12	8.60	-39.7	-51.4	3.8	8.45e-01	0	53	104	0	51	13494
2026-01-11 03:31:40.32	1.01	8.67	-39.6	-51.4	3.8	8.45e-01	0	53	104	0	51	13424
2026-01-11 03:31:41.33	0.90	8.73	-39.7	-51.4	3.8	8.47e-01	0	53	104	0	51	13504
2026-01-11 03:31:42.34	0.79	8.79	-39.6	-51.4	3.8	8.46e-01	0	53	104	0	51	13468
2026-01-11 03:31:43.35	0.68	8.86	-39.4	-51.3	3.8	8.46e-01	0	53	104	0	50	14131
2026-01-11 03:31:44.36	0.57	8.92	-39.6	-51.4	3.8	8.47e-01	0	53	104	0	50	14253
2026-01-11 03:31:45.37	0.46	8.99	-39.4	-51.3	3.8	8.46e-01	0	53	104	0	50	14197
2026-01-11 03:31:46.38	0.35	9.05	-39.6	-51.3	3.8	8.47e-01	0	53	104	0	50	14209
2026-01-11 03:31:47.39	0.24	9.12	-39.5	-51.4	3.8	8.47e-01	0	53	104	0	50	14225
2026-01-11 03:31:48.39	0.12	9.18	-39.5	-51.4	3.8	8.47e-01	0	53	104	0	50	14236
2026-01-11 03:31:49.40	0.01	9.25	-39.6	-51.3	3.8	8.45e-01	0	53	104	0	50	14197
2026-01-11 03:31:50.41	359.90	9.31	-39.6	-51.3	3.8	8.47e-01	0	53	104	0	50	14203
2026-01-11 03:31:51.42	359.78	9.38	-39.4	-51.4	3.8	8.45e-01	0	53	104	0	50	14255
2026-01-11 03:31:52.43	359.67	9.44	-39.5	-51.4	3.8	8.46e-01	0	53	104	0	50	14264
2026-01-11 03:31:53.44	359.55	9.51	-39.1	-51.4	3.8	8.46e-01	0	53	104	0	50	14248
2026-01-11 03:31:54.45	359.44	9.57	-39.3	-51.4	3.8	8.46e-01	0	53	104	0	50	14278
2026-01-11 03:31:55.46	359.32	9.64	-39.3	-51.4	3.8	8.47e-01	0	53	104	0	50	14223
2026-01-11 03:31:56.47	359.20	9.70	-39.2	-51.4	3.8	8.46e-01	0	53	104	0	50	14243
2026-01-11 03:31:57.49	359.09	9.77	-39.5	-51.4	3.8	8.46e-01	0	53	104	0	50	14236
2026-01-11 03:31:58.50	358.97	9.83	-39.2	-51.3	3.8	8.45e-01	0	54	104	0	50	14202
2026-01-11 03:31:59.50	358.85	9.90	-39.1	-51.3	3.8	8.47e-01	0	54	104	0	50	14173
2026-01-11 03:32:00.52	358.73	9.97	-39.2	-51.3	3.8	8.46e-01	0	54	104	0	50	14185
2026-01-11 03:32:01.53	358.61	10.03	-39.4	-51.3	3.8	8.47e-01	0	53	104	0	50	14175
2026-01-11 03:32:02.54	358.49	10.10	-39.2	-51.3	3.8	8.46e-01	0	54	104	0	50	14185
2026-01-11 03:32:03.55	358.37	10.16	-39.2	-51.3	3.8	8.45e-01	0	53	104	0	50	14187
2026-01-11 03:32:04.56	358.25	10.23	-39.3	-51.4	3.8	8.47e-01	0	54	104	0	50	14230
2026-01-11 03:32:05.57	358.13	10.29	-39.3	-51.4	3.8	8.45e-01	0	54	104	0	50	14350
2026-01-11 03:32:06.58	358.00	10.36	-39.4	-51.4	3.8	8.46e-01	0	54	104	0	50	14225
2026-01-11 03:32:07.59	357.88	10.43	-39.4	-51.4	3.8	8.46e-01	0	54	104	0	50	14312
2026-01-11 03:32:08.60	357.76	10.49	-39.5	-51.4	3.8	8.45e-01	0	54	104	0	50	14310
2026-01-11 03:32:09.61	357.63	10.56	-39.6	-51.4	3.8	8.46e-01	0	54	104	0	50	14337
2026-01-11 03:32:10.62	357.51	10.62	-39.5	-51.4	3.8	8.46e-01	0	54	104	0	50	14344
2026-01-11 03:32:11.63	357.38	10.69	-39.8	-51.5	3.8	8.46e-01	0	54	104	0	50	14401
2026-01-11 03:32:12.64	357.26	10.76	-39.7	-51.5	3.8	8.46e-01	0	54	104	0	50	14439
2026-01-11 03:32:13.65	357.13	10.82	-39.6	-51.6	3.8	8.47e-01	0	54	104	0	50	14662
2026-01-11 03:32:14.66	357.00	10.89	-39.6	-51.4	3.8	8.46e-01	0	54	104	0	50	14373
2026-01-11 03:32:15.67	356.88	10.95	-39.8	-51.6	3.8	8.45e-01	0	54	104	0	50	14679
2026-01-11 03:32:16.68	356.75	11.02	-39.5	-51.4	3.8	8.46e-01	0	54	104	0	50	14290
2026-01-11 03:32:17.69	356.62	11.09	-39.4	-51.4	3.8	8.47e-01	0	54	104	0	49	15090
2026-01-11 03:32:18.70	356.49	11.15	-38.6	-51.3	3.8	8.46e-01	0	54	104	0	49	14930
2026-01-11 03:32:19.71	356.36	11.22	-38.7	-51.3	3.8	8.46e-01	0	54	104	0	49	14927
2026-01-11 03:32:20.72	356.23	11.29	-39.1	-51.3	3.8	8.46e-01	0	54	104	0	49	14891
2026-01-11 03:32:21.73	356.10	11.35	-39.2	-51.2	3.8	8.47e-01	0	54	104	0	49	14866
2026-01-11 03:32:22.74	355.97	11.42	-39.7	-51.4	3.8	8.46e-01	0	54	104	0	49	15111
2026-01-11 03:32:23.75	355.83	11.48	-39.9	-51.5	3.8	8.45e-01	0	54	104	0	50	14412
2026-01-11 03:32:24.76	355.70	11.55	-39.9	-51.9	3.8	8.44e-01	0	54	104	0	50	15215
2026-01-11 03:32:25.77	355.57	11.62	-40.6	-52.5	3.8	8.46e-01	0	54	104	0	51	15262
2026-01-11 03:32:26.78	355.43	11.68	-39.7	-51.6	3.8	8.46e-01	0	54	104	0	51	13770
2026-01-11 03:32:27.79	355.30	11.75	-39.7	-51.5	3.8	8.47e-01	0	54	104	0	51	13638
2026-01-11 03:32:28.80	355.16	11.82	-39.7	-51.6	3.8	8.46e-01	0	54	104	0	51	13742
2026-01-11 03:32:29.81	355.03	11.88	-39.7	-51.5	3.8	8.46e-01	0	54	104	0	51	13681
2026-01-11 03:32:30.82	354.89	11.95	-39.8	-51.6	3.8	8.46e-01	0	54	104	0	51	13780
2026-01-11 03:32:31.83	354.75	12.02	-39.8	-51.6	3.8	8.46e-01	0	54	104	0	51	13802
2026-01-11 03:32:32.85	354.61	12.09	-40.2	-51.9	3.8	8.46e-01	0	54	104	0	51	14363
2026-01-11 03:32:33.85	354.47	12.15	-40.1	-51.8	3.8	8.47e-01	0	55	104	0	51	14117
2026-01-11 03:32:34.86	354.33	12.22	-40.1	-51.9	3.8	8.46e-01	0	54	104	0	51	14296
2026-01-11 03:32:35.87	354.19	12.28	-40.2	-51.9	3.8	8.45e-01	0	54	104	0	51	14236
2026-01-11 03:32:36.88	354.05	12.35	-40.2	-51.9	3.8	8.46e-01	0	54	104	0	51	14248
2026-01-11 03:32:37.89	353.91	12.42	-40.1	-51.9	3.8	8.47e-01	0	55	104	0	51	14234
2026-01-11 03:32:38.90	353.77	12.48	-39.9	-51.7	3.8	8.46e-01	0	55	104	0	51	14031
2026-01-11 03:32:39.91	353.63	12.55	-40.2	-51.9	3.8	8.46e-01	0	55	104	0	51	14289
2026-01-11 03:32:40.92	353.48	12.62	-39.8	-51.8	3.8	8.47e-01	0	54	104	0	51	14131
2026-01-11 03:32:41.93	353.34	12.69	-40.6	-52.2	3.8	8.45e-01	0	54	104	0	51	14750
2026-01-11 03:32:42.94	353.20	12.75	-40.2	-51.8	3.8	8.46e-01	0	54	104	0	51	14169
2026-01-11 03:32:43.95	353.05	12.82	-40.6	-52.3	3.8	8.46e-01	0	54	104	0	51	14943
2026-01-11 03:32:44.96	352.90	12.89	-40.2	-51.9	3.8	8.46e-01	0	55	104	0	51	14236
2026-01-11 03:32:45.97	352.76	12.95	-40.5	-52.1	3.8	8.47e-01	0	55	104	0	51	14604
2026-01-11 03:32:46.99	352.61	13.02	-40.1	-52.1	3.8	8.46e-01	0	55	104	0	51	14543
2026-01-11 03:32:47.99	352.46	13.09	-40.5	-52.1	3.8	8.46e-01	0	55	104	0	51	14698
2026-01-11 03:32:49.00	352.31	13.15	-40.3	-52.1	3.8	8.47e-01	0	55	104	0	51	14595
2026-01-11 03:32:50.02	352.16	13.22	-40.6	-52.2	3.8	8.47e-01	0	55	104	0	51	14773
2026-01-11 03:32:51.03	352.01	13.29	-40.5	-52.1	3.8	8.46e-01	0	55	104	0	51	14648
2026-01-11 03:32:52.04	351.86	13.35	-40.6	-52.2	3.8	8.46e-01	0	55	104	0	51	14857
2026-01-11 03:32:53.05	351.71	13.42	-40.6	-52.3	3.8	8.46e-01	0	55	104	0	51	14896
2026-01-11 03:32:54.06	351.56	13.49	-40.6	-52.1	3.8	8.47e-01	0	55	104	0	51	14688
2026-01-11 03:32:55.07	351.40	13.55	-40.4	-52.1	3.8	8.47e-01	0	55	104	0	51	14704
2026-01-11 03:32:56.08	351.25	13.62	-40.6	-52.2	3.8	8.46e-01	0	55	104	0	51	14722
2026-01-11 03:32:57.09	351.10	13.69	-40.5	-52.2	3.8	8.47e-01	0	55	104	0	51	14878
2026-01-11 03:32:58.10	350.94	13.75	-40.5	-52.3	3.8	8.46e-01	0	55	104	0	51	14998
2026-01-11 03:32:59.11	350.79	13.82	-40.6	-52.2	3.8	8.46e-01	0	55	104	0	51	14822
2026-01-11 03:33:00.12	350.63	13.89	-40.4	-52.3	3.8	8.47e-01	0	55	104	0	51	14982
2026-01-11 03:33:01.13	350.47	13.95	-40.5	-52.2	3.8	8.46e-01	0	55	104	0	51	14748
2026-01-11 03:33:02.14	350.31	14.02	-40.4	-52.5	3.8	8.47e-01	0	55	104	0	51	15316
2026-01-11 03:33:03.15	350.15	14.09	-40.7	-52.4	3.8	8.45e-01	0	55	104	0	51	15122
2026-01-11 03:33:04.16	350.00	14.15	-40.4	-52.6	3.8	8.46e-01	0	55	104	0	51	15464
2026-01-11 03:33:05.17	349.83	14.22	-40.5	-52.4	3.8	8.46e-01	0	55	104	0	51	15069
2026-01-11 03:33:06.18	349.67	14.29	-40.8	-52.6	3.8	8.48e-01	0	55	104	0	52	14587
2026-01-11 03:33:07.19	349.51	14.35	-40.3	-52.2	3.8	8.46e-01	0	55	104	0	52	13991
2026-01-11 03:33:08.20	349.35	14.42	-41.0	-52.8	3.8	8.47e-01	0	55	104	0	52	14891
2026-01-11 03:33:09.21	349.19	14.48	-40.3	-52.2	3.8	8.46e-01	0	55	104	0	52	13991
2026-01-11 03:33:10.22	349.02	14.55	-40.2	-52.5	3.8	8.46e-01	0	55	104	0	52	14419
2026-01-11 03:33:11.23	348.86	14.62	-40.4	-52.3	3.8	8.46e-01	0	55	104	0	52	14081
2026-01-11 03:33:12.24	348.69	14.68	-40.4	-52.4	3.8	8.45e-01	0	55	104	0	52	14229
2026-01-11 03:33:13.25	348.53	14.75	-40.5	-52.4	3.8	8.46e-01	0	55	104	0	52	14327
2026-01-11 03:33:14.26	348.36	14.81	-40.6	-52.5	3.8	8.47e-01	0	55	104	0	52	14420
2026-01-11 03:33:15.27	348.19	14.88	-40.8	-52.6	3.8	8.46e-01	0	55	104	0	52	14682
2026-01-11 03:33:16.28	348.02	14.95	-41.1	-52.9	3.8	8.46e-01	0	55	104	0	52	15063
2026-01-11 03:33:17.29	347.85	15.01	-41.1	-53.0	3.8	8.46e-01	0	55	104	0	53	14471
2026-01-11 03:33:18.30	347.68	15.08	-41.3	-53.1	3.8	8.45e-01	0	55	104	0	53	14584
2026-01-11 03:33:19.31	347.51	15.14	-41.2	-53.0	3.8	8.46e-01	0	55	104	0	53	14378
2026-01-11 03:33:20.33	347.34	15.21	-41.4	-53.1	3.8	8.46e-01	0	55	104	0	53	14571
2026-01-11 03:33:21.33	347.17	15.27	-41.2	-53.0	3.8	8.45e-01	0	55	104	0	53	14401
2026-01-11 03:33:22.35	347.00	15.34	-41.3	-53.0	3.8	8.47e-01	0	55	104	0	53	14466
2026-01-11 03:33:23.36	346.82	15.40	-41.3	-53.1	3.8	8.47e-01	0	55	104	0	53	14648
2026-01-11 03:33:24.37	346.65	15.47	-41.3	-53.0	3.8	8.46e-01	0	55	104	0	53	14411
2026-01-11 03:33:25.38	346.47	15.53	-41.2	-52.8	3.8	8.45e-01	0	55	104	0	53	14180
2026-01-11 03:33:26.38	346.30	15.60	-41.0	-52.6	3.8	8.46e-01	0	55	104	0	53	13754
2026-01-11 03:33:27.39	346.12	15.66	-41.3	-52.9	3.8	8.47e-01	0	55	104	0	53	14373
2026-01-11 03:33:28.40	345.94	15.73	-40.5	-52.3	3.8	8.47e-01	0	55	104	0	53	13300
2026-01-11 03:33:29.41	345.76	15.79	-40.4	-52.2	3.8	8.45e-01	0	55	104	0	52	14019
2026-01-11 03:33:30.42	345.59	15.86	-40.6	-52.2	3.8	8.46e-01	0	55	104	0	52	14045
2026-01-11 03:33:31.43	345.41	15.92	-40.4	-52.2	3.8	8.46e-01	0	55	104	0	52	13978
2026-01-11 03:33:32.45	345.22	15.99	-40.4	-52.3	3.8	8.46e-01	0	55	104	0	52	14062
2026-01-11 03:33:33.46	345.04	16.05	-40.7	-52.4	3.8	8.46e-01	0	55	104	0	52	14372
2026-01-11 03:33:34.46	344.86	16.11	-40.5	-52.3	3.8	8.46e-01	0	55	104	0	52	14064
2026-01-11 03:33:35.47	344.68	16.18	-40.5	-52.2	3.8	8.46e-01	0	55	104	0	52	13965
2026-01-11 03:33:36.49	344.49	16.24	-40.6	-52.3	3.8	8.47e-01	0	56	104	0	52	14090
2026-01-11 03:33:37.49	344.31	16.31	-40.5	-52.2	3.8	8.46e-01	0	55	104	0	52	13960
2026-01-11 03:33:38.50	344.12	16.37	-40.5	-52.3	3.8	8.46e-01	0	55	104	0	51	14979
2026-01-11 03:33:39.51	343.94	16.43	-40.5	-52.3	3.8	8.46e-01	0	55	104	0	51	14918
2026-01-11 03:33:40.52	343.75	16.50	-40.3	-52.3	3.8	8.46e-01	0	55	104	0	51	14904
2026-01-11 03:33:41.53	343.56	16.56	-40.6	-52.3	3.8	8.46e-01	0	55	104	0	52	14193
2026-01-11 03:33:42.54	343.37	16.62	-40.0	-52.2	3.8	8.47e-01	0	55	104	0	51	14845
2026-01-11 03:33:43.55	343.18	16.68	-40.0	-52.2	3.8	8.46e-01	0	56	104	0	51	14834
2026-01-11 03:33:44.56	342.99	16.75	-40.0	-52.3	3.8	8.45e-01	0	56	104	0	51	14898
2026-01-11 03:33:45.57	342.80	16.81	-40.4	-52.2	3.8	8.46e-01	0	55	104	0	51	14848
2026-01-11 03:33:46.58	342.61	16.87	-40.1	-52.3	3.8	8.46e-01	0	55	104	0	51	14957
2026-01-11 03:33:47.59	342.42	16.93	-40.4	-52.2	3.8	8.45e-01	0	55	104	0	51	14868
2026-01-11 03:33:48.60	342.22	16.99	-40.4	-52.3	3.8	8.45e-01	0	55	104	0	51	14937
2026-01-11 03:33:49.61	342.03	17.06	-40.3	-52.3	3.8	8.45e-01	0	55	104	0	51	14897
2026-01-11 03:33:50.62	341.83	17.12	-40.2	-52.0	3.8	8.46e-01	0	55	104	0	51	14524
2026-01-11 03:33:51.63	341.64	17.18	-40.2	-52.1	3.8	8.46e-01	0	55	104	0	51	14695
2026-01-11 03:33:52.64	341.44	17.24	-40.2	-52.1	3.8	8.45e-01	0	55	104	0	51	14562
2026-01-11 03:33:53.65	341.24	17.30	-40.5	-52.2	3.8	8.46e-01	0	56	104	0	51	14858
2026-01-11 03:33:54.66	341.04	17.36	-40.2	-52.1	3.8	8.46e-01	0	56	104	0	51	14603
2026-01-11 03:33:55.67	340.85	17.42	-40.6	-52.3	3.8	8.45e-01	0	55	104	0	51	14985
2026-01-11 03:33:56.68	340.65	17.48	-40.3	-52.1	3.8	8.46e-01	0	55	104	0	52	13864
2026-01-11 03:33:57.69	340.44	17.54	-40.5	-52.2	3.8	8.46e-01	0	56	104	0	52	13932
2026-01-11 03:33:58.70	340.24	17.60	-40.6	-51.0	3.8	8.45e-01	0	55	104	0	52	12161
2026-01-11 03:33:59.71	340.04	17.66	-40.6	-50.5	3.8	8.47e-01	0	55	104	0	52	11467
2026-01-11 03:34:00.72	339.84	17.72	-40.6	-48.5	4.5	8.31e-01	0	56	0	0	52	9102
2026-01-11 03:34:01.73	339.63	17.78	-40.2	-46.4	5.8	7.30e-01	0	56	0	0	52	7136
2026-01-11 03:34:02.74	339.43	17.84	-39.7	-44.0	8.2	1.64e-01	0	56	0	5242880	51	5772
2026-01-11 03:34:03.75	339.22	17.90	-38.6	-41.7	11.0	7.29e-03	0	55	0	11534336	49	4934
2026-01-11 03:34:04.76	339.01	17.96	-37.3	-39.5	13.5	1.49e-04	0	56	0	16777216	46	4573
2026-01-11 03:34:05.77	338.81	18.01	-36.1	-37.8	15.5	1.10e-06	0	55	0	23068672	44	4219
2026-01-11 03:34:06.78	338.60	18.07	-35.2	-36.7	16.7	0.00e+00	0	56	0	28311552	42	4173
2026-01-11 03:34:07.79	338.39	18.13	-34.9	-36.4	17.2	0.00e+00	0	56	0	33554432	41	4266
2026-01-11 03:34:08.80	338.18	18.19	-34.9	-36.4	17.4	0.00e+00	0	56	0	39845888	41	4248
2026-01-11 03:34:09.81	337.97	18.25	-35.1	-36.6	17.2	0.00e+00	0	56	0	45088768	41	4367
2026-01-11 03:34:10.82	337.76	18.30	-35.4	-36.9	17.0	0.00e+00	0	56	0	51380224	41	4519
2026-01-11 03:34:11.83	337.55	18.36	-35.8	-37.4	16.7	0.00e+00	0	56	0	56623104	42	4523
2026-01-11 03:34:12.84	337.33	18.41	-35.8	-37.3	16.9	0.00e+00	0	56	0	62914560	42	4460
2026-01-11 03:34:13.85	337.12	18.47	-35.3	-36.8	17.6	0.00e+00	0	56	0	68157440	42	4194
2026-01-11 03:34:14.86	336.90	18.53	-35.5	-37.0	17.5	0.00e+00	0	56	0	73400320	42	4295
2026-01-11 03:34:15.87	336.69	18.58	-35.5	-37.0	17.6	0.00e+00	0	56	0	79691776	42	4297
2026-01-11 03:34:16.88	336.47	18.64	-35.5	-36.9	17.7	0.00e+00	0	56	0	84934656	42	4256
2026-01-11 03:34:17.89	336.26	18.69	-35.6	-37.0	17.5	0.00e+00	0	56	0	91226112	42	4332
2026-01-11 03:34:18.90	336.04	18.75	-35.4	-36.8	17.8	0.00e+00	0	56	0	96468992	42	4225
2026-01-11 03:34:19.91	335.82	18.80	-35.4	-36.8	17.8	0.00e+00	0	56	0	101711872	42	4214
2026-01-11 03:34:20.92	335.60	18.86	-35.5	-36.8	17.8	0.00e+00	0	56	0	108003328	42	4241
2026-01-11 03:34:21.93	335.38	18.91	-35.2	-36.6	18.1	0.00e+00	0	56	0	113246208	42	4106
2026-01-11 03:34:22.94	335.16	18.96	-35.2	-36.5	18.1	0.00e+00	0	56	0	119537664	42	4087
2026-01-11 03:34:23.95	334.94	19.01	-35.1	-36.5	18.2	0.00e+00	0	56	0	124780544	42	4060
2026-01-11 03:34:24.96	334.71	19.07	-35.2	-36.5	18.2	0.00e+00	0	56	0	130023424	42	4065
2026-01-11 03:34:25.97	334.49	19.12	-35.2	-36.5	18.2	0.00e+00	0	56	0	136314880	42	4067
2026-01-11 03:34:26.98	334.27	19.17	-35.3	-36.6	18.1	0.00e+00	0	56	0	141557760	42	4120
2026-01-11 03:34:27.99	334.04	19.22	-35.2	-36.5	18.2	0.00e+00	0	56	0	147849216	42	4089
2026-01-11 03:34:29.00	333.82	19.27	-35.2	-36.5	18.2	0.00e+00	0	56	0	153092096	42	4089
2026-01-11 03:34:30.01	333.59	19.33	-35.1	-36.4	18.3	0.00e+00	0	56	0	159383552	42	4042
2026-01-11 03:34:31.02	333.36	19.38	-35.1	-36.4	18.4	0.00e+00	0	56	0	164626432	42	4007
2026-01-11 03:34:32.03	333.13	19.43	-35.0	-36.3	18.4	0.00e+00	0	56	0	170917888	42	3990
2026-01-11 03:34:33.04	332.90	19.48	-35.0	-36.3	18.5	0.00e+00	0	56	0	176160768	42	3974
2026-01-11 03:34:34.05	332.68	19.53	-35.0	-36.3	18.5	0.00e+00	0	56	0	181403648	41	4199
2026-01-11 03:34:35.06	332.44	19.57	-35.0	-36.3	18.5	0.00e+00	0	56	0	187695104	41	4198
2026-01-11 03:34:36.07	332.21	19.62	-34.9	-36.2	18.6	0.00e+00	0	56	0	192937984	41	4150
2026-01-11 03:34:37.08	331.98	19.67	-34.8	-36.0	18.7	0.00e+00	0	56	0	199229440	41	4089
2026-01-11 03:34:38.09	331.75	19.72	-34.7	-36.0	18.8	0.00e+00	0	56	0	204472320	41	4071
2026-01-11 03:34:39.10	331.52	19.77	-34.7	-35.9	18.8	0.00e+00	0	56	0	209715200	41	4034
2026-01-11 03:34:40.11	331.28	19.81	-34.7	-35.9	18.8	0.00e+00	0	56	0	216006656	41	4041
2026-01-11 03:34:41.12	331.05	19.86	-34.7	-36.0	18.8	0.00e+00	0	56	0	221249536	41	4060
2026-01-11 03:34:42.13	330.81	19.91	-34.7	-36.0	18.8	0.00e+00	0	56	0	227540992	41	4064
2026-01-11 03:34:43.14	330.58	19.95	-34.7	-36.0	18.8	0.00e+00	0	56	0	232783872	41	4070
2026-01-11 03:34:44.15	330.34	20.00	-34.7	-35.9	18.8	0.00e+00	0	56	0	238026752	41	4043
2026-01-11 03:34:45.16	330.10	20.04	-34.7	-35.9	18.9	0.00e+00	0	56	0	244318208	41	4039
2026-01-11 03:34:46.17	329.86	20.09	-34.7	-35.9	18.9	0.00e+00	0	56	0	249561088	41	4032
2026-01-11 03:34:47.18	329.62	20.13	-34.7	-36.0	18.8	0.00e+00	0	56	0	255852544	41	4057
2026-01-11 03:34:48.19	329.38	20.17	-34.8	-36.1	18.7	0.00e+00	0	56	0	261095424	41	4123
2026-01-11 03:34:49.20	329.14	20.22	-34.9	-36.2	18.6	0.00e+00	0	56	0	267386880	41	4164
2026-01-11 03:34:50.21	328.90	20.26	-34.9	-36.2	18.6	0.00e+00	0	56	0	272629760	41	4183
2026-01-11 03:34:51.22	328.66	20.30	-34.9	-36.2	18.6	0.00e+00	0	56	0	278921216	41	4149
2026-01-11 03:34:52.23	328.42	20.34	-34.8	-36.0	18.8	0.00e+00	0	56	0	284164096	41	4090
2026-01-11 03:34:53.24	328.18	20.39	-34.7	-35.9	18.9	0.00e+00	0	56	0	289406976	41	4042
2026-01-11 03:34:54.24	327.93	20.43	-34.7	-36.0	18.8	0.00e+00	0	56	0	295698432	41	4071
2026-01-11 03:34:55.26	327.69	20.47	-34.8	-36.1	18.7	0.00e+00	0	56	0	300941312	41	4117
2026-01-11 03:34:56.27	327.44	20.51	-34.9	-36.2	18.7	0.00e+00	0	56	0	307232768	41	4147
2026-01-11 03:34:57.28	327.20	20.55	-34.8	-36.1	18.7	0.00e+00	0	56	0	312475648	41	4126
2026-01-11 03:34:58.29	326.95	20.58	-34.9	-36.1	18.7	0.00e+00	0	56	0	317718528	41	4130
2026-01-11 03:34:59.30	326.70	20.62	-34.8	-36.1	18.7	0.00e+00	0	56	0	324009984	41	4121
2026-01-11 03:35:00.31	326.46	20.66	-34.8	-36.1	18.7	0.00e+00	0	56	0	329252864	41	4108
2026-01-11 03:35:01.31	326.21	20.70	-34.8	-36.1	18.8	0.00e+00	0	56	0	335544320	41	4107
2026-01-11 03:35:02.32	325.96	20.73	-34.8	-36.0	18.8	0.00e+00	0	56	0	340787200	41	4093
2026-01-11 03:35:03.34	325.71	20.77	-34.7	-36.0	18.8	0.00e+00	0	56	0	346030080	41	4066
2026-01-11 03:35:04.35	325.46	20.81	-34.7	-35.9	18.9	0.00e+00	0	56	0	352321536	41	4035
2026-01-11 03:35:05.35	325.21	20.84	-34.6	-35.9	18.9	0.00e+00	0	56	0	357564416	41	4013
2026-01-11 03:35:06.36	324.96	20.88	-34.5	-35.8	19.1	0.00e+00	0	56	0	363855872	41	3959
2026-01-11 03:35:07.38	324.71	20.91	-34.5	-35.7	19.1	0.00e+00	0	56	0	369098752	41	3941
2026-01-11 03:35:08.39	324.45	20.94	-34.4	-35.7	19.1	0.00e+00	0	56	0	374341632	40	4147
2026-01-11 03:35:09.40	324.20	20.98	-34.3	-35.5	19.3	0.00e+00	0	56	0	380633088	40	4092
2026-01-11 03:35:10.40	323.95	21.01	-34.3	-35.5	19.3	0.00e+00	0	56	0	385875968	40	4091
2026-01-11 03:35:11.41	323.70	21.04	-34.3	-35.5	19.3	0.00e+00	0	56	0	392167424	40	4088
2026-01-11 03:35:12.42	323.44	21.07	-34.4	-35.6	19.2	0.00e+00	0	56	0	397410304	40	4109
2026-01-11 03:35:13.44	323.18	21.10	-34.3	-35.5	19.3	0.00e+00	0	56	0	403701760	40	4089
2026-01-11 03:35:14.45	322.93	21.13	-34.3	-35.5	19.3	0.00e+00	0	56	0	408944640	40	4094
2026-01-11 03:35:15.46	322.67	21.16	-34.3	-35.6	19.2	0.00e+00	0	56	0	414187520	40	4102
2026-01-11 03:35:16.47	322.42	21.19	-34.3	-35.5	19.3	0.00e+00	0	56	0	420478976	40	4084
2026-01-11 03:35:17.48	322.16	21.22	-34.3	-35.5	19.3	0.00e+00	0	56	0	425721856	40	4068
2026-01-11 03:35:18.49	321.90	21.25	-34.3	-35.5	19.3	0.00e+00	0	56	0	432013312	40	4084
2026-01-11 03:35:19.50	321.64	21.28	-34.3	-35.5	19.3	0.00e+00	0	56	0	437256192	40	4093
2026-01-11 03:35:20.51	321.39	21.30	-34.4	-35.6	19.2	0.00e+00	0	56	0	442499072	40	4117
2026-01-11 03:35:21.52	321.13	21.33	-34.3	-35.5	19.3	0.00e+00	0	56	0	448790528	40	4097
2026-01-11 03:35:22.53	320.87	21.36	-34.4	-35.6	19.2	0.00e+00	0	56	0	454033408	40	4131
2026-01-11 03:35:23.54	320.61	21.38	-34.4	-35.7	19.2	0.00e+00	0	56	0	460324864	40	4148
2026-01-11 03:35:24.55	320.35	21.41	-34.5	-35.7	19.1	0.00e+00	0	56	0	465567744	40	4173
2026-01-11 03:35:25.56	320.09	21.43	-34.5	-35.7	19.1	0.00e+00	0	56	0	471859200	40	4177
2026-01-11 03:35:26.57	319.83	21.45	-34.5	-35.7	19.1	0.00e+00	0	56	0	477102080	40	4176
2026-01-11 03:35:27.58	319.56	21.48	-34.5	-35.8	19.0	0.00e+00	0	56	0	482344960	40	4197
2026-01-11 03:35:28.59	319.30	21.50	-34.5	-35.8	19.0	0.00e+00	0	56	0	488636416	40	4203
2026-01-11 03:35:29.60	319.04	21.52	-34.6	-35.8	19.0	0.00e+00	0	56	0	493879296	40	4230
2026-01-11 03:35:30.61	318.78	21.54	-34.6	-35.9	18.9	0.00e+00	0	56	0	500170752	40	4262
2026-01-11 03:35:31.62	318.52	21.56	-34.7	-36.0	18.8	0.00e+00	0	56	0	505413632	40	4304
2026-01-11 03:35:32.63	318.25	21.58	-34.7	-35.9	18.9	0.00e+00	0	56	0	511705088	40	4277
2026-01-11 03:35:33.64	317.99	21.60	-34.6	-35.9	18.9	0.00e+00	0	56	0	516947968	40	4268
2026-01-11 03:35:34.65	317.72	21.62	-34.5	-35.7	19.1	0.00e+00	0	56	0	522190848	40	4173
2026-01-11 03:35:35.66	317.46	21.63	-34.3	-35.5	19.3	0.00e+00	0	56	0	528482304	40	4086
2026-01-11 03:35:36.67	317.20	21.65	-34.2	-35.4	19.4	0.00e+00	0	56	0	533725184	40	4036
2026-01-11 03:35:37.68	316.93	21.67	-34.2	-35.4	19.4	0.00e+00	0	56	0	540016640	40	4045
2026-01-11 03:35:38.69	316.67	21.68	-34.3	-35.5	19.3	0.00e+00	0	56	0	545259520	40	4071
2026-01-11 03:35:39.69	316.40	21.70	-34.3	-35.5	19.3	0.00e+00	0	56	0	550502400	40	4072
2026-01-11 03:35:40.70	316.14	21.71	-34.3	-35.6	19.2	0.00e+00	0	56	0	556793856	40	4100
2026-01-11 03:35:41.71	315.87	21.73	-34.4	-35.6	19.2	0.00e+00	0	56	0	562036736	40	4115
2026-01-11 03:35:42.72	315.61	21.74	-34.4	-35.6	19.2	0.00e+00	0	56	0	568328192	40	4125
2026-01-11 03:35:43.74	315.34	21.75	-34.3	-35.5	19.3	0.00e+00	0	56	0	573571072	40	4092
2026-01-11 03:35:44.75	315.07	21.76	-34.3	-35.6	19.2	0.00e+00	0	56	0	578813952	40	4104
2026-01-11 03:35:45.76	314.80	21.77	-34.3	-35.5	19.3	0.00e+00	0	56	0	585105408	40	4087
2026-01-11 03:35:46.77	314.54	21.79	-34.4	-35.6	19.2	0.00e+00	0	56	0	590348288	40	4114
2026-01-11 03:35:47.78	314.27	21.80	-34.3	-35.5	19.3	0.00e+00	0	56	0	596639744	40	4078
2026-01-11 03:35:48.79	314.00	21.80	-34.2	-35.4	19.4	0.00e+00	0	56	0	601882624	40	4051
2026-01-11 03:35:49.80	313.73	21.81	-34.2	-35.4	19.4	0.00e+00	0	56	0	608174080	40	4010
2026-01-11 03:35:50.81	313.47	21.82	-34.1	-35.3	19.5	0.00e+00	0	56	0	613416960	40	3999
2026-01-11 03:35:51.82	313.20	21.83	-34.2	-35.4	19.4	0.00e+00	0	56	0	619708416	40	4020
2026-01-11 03:35:52.83	312.93	21.83	-34.3	-35.5	19.4	0.00e+00	0	56	0	624951296	40	4054
2026-01-11 03:35:53.84	312.66	21.84	-34.3	-35.5	19.3	0.00e+00	0	56	0	630194176	40	4086
2026-01-11 03:35:54.85	312.40	21.85	-34.4	-35.6	19.2	0.00e+00	0	56	0	636485632	40	4134
2026-01-11 03:35:55.86	312.13	21.85	-34.4	-35.6	19.2	0.00e+00	0	56	0	641728512	40	4143
2026-01-11 03:35:56.87	311.86	21.85	-34.5	-35.8	19.0	0.00e+00	0	56	0	648019968	40	4203
2026-01-11 03:35:57.88	311.59	21.86	-34.6	-35.8	19.0	0.00e+00	0	56	0	653262848	40	4230
2026-01-11 03:35:58.89	311.32	21.86	-34.6	-35.8	19.0	0.00e+00	0	56	0	658505728	40	4223
2026-01-11 03:35:59.90	311.05	21.86	-34.6	-35.8	19.0	0.00e+00	0	56	0	664797184	40	4217
2026-01-11 03:36:00.91	310.79	21.86	-34.4	-35.6	19.2	0.00e+00	0	56	0	670040064	40	4137
2026-01-11 03:36:01.93	310.51	21.86	-34.3	-35.5	19.3	0.00e+00	0	56	0	676331520	40	4059
2026-01-11 03:36:02.94	310.25	21.86	-34.1	-35.3	19.5	0.00e+00	0	56	0	681574400	40	3993
2026-01-11 03:36:03.95	309.98	21.86	-34.1	-35.3	19.5	0.00e+00	0	56	0	686817280	40	3972
2026-01-11 03:36:04.96	309.71	21.86	-34.1	-35.3	19.5	0.00e+00	0	56	0	693108736	40	4000
2026-01-11 03:36:05.97	309.44	21.86	-34.2	-35.4	19.4	0.00e+00	0	56	0	698351616	40	4027
2026-01-11 03:36:06.98	309.17	21.86	-34.2	-35.4	19.4	0.00e+00	0	56	0	704643072	40	4043
2026-01-11 03:36:07.99	308.90	21.85	-34.2	-35.4	19.4	0.00e+00	0	56	0	709885952	40	4047
2026-01-11 03:36:09.00	308.64	21.85	-34.2	-35.4	19.4	0.00e+00	0	56	0	716177408	40	4040
2026-01-11 03:36:10.00	308.37	21.84	-34.3	-35.5	19.4	0.00e+00	0	56	0	721420288	40	4058
2026-01-11 03:36:11.01	308.10	21.84	-34.3	-35.5	19.4	0.00e+00	0	56	0	727711744	40	4055
2026-01-11 03:36:12.02	307.83	21.83	-34.3	-35.5	19.3	0.00e+00	0	56	0	732954624	40	4065
2026-01-11 03:36:13.03	307.57	21.83	-34.4	-35.6	19.2	0.00e+00	0	56	0	738197504	40	4113
2026-01-11 03:36:14.04	307.30	21.82	-34.4	-35.6	19.2	0.00e+00	0	56	0	744488960	40	4137
2026-01-11 03:36:15.05	307.03	21.81	-34.5	-35.7	19.1	0.00e+00	0	56	0	749731840	40	4182
2026-01-11 03:36:16.06	306.76	21.80	-34.6	-35.8	19.0	0.00e+00	0	56	0	754974720	40	4211
2026-01-11 03:36:17.07	306.50	21.79	-34.5	-35.8	19.0	0.00e+00	0	56	0	761266176	40	4208
2026-01-11 03:36:18.08	306.23	21.78	-34.5	-35.7	19.1	0.00e+00	0	56	0	766509056	40	4187
2026-01-11 03:36:19.09	305.96	21.77	-34.5	-35.7	19.1	0.00e+00	0	56	0	772800512	40	4175
2026-01-11 03:36:20.10	305.69	21.76	-34.4	-35.7	19.1	0.00e+00	0	56	0	778043392	40	4155
2026-01-11 03:36:21.11	305.43	21.75	-34.5	-35.7	19.1	0.00e+00	0	56	0	783286272	40	4181
2026-01-11 03:36:22.12	305.16	21.73	-34.5	-35.8	19.0	0.00e+00	0	56	0	789577728	40	4206
2026-01-11 03:36:23.13	304.89	21.72	-34.5	-35.7	19.1	0.00e+00	0	56	0	794820608	40	4183
2026-01-11 03:36:24.14	304.63	21.71	-34.4	-35.6	19.2	0.00e+00	0	56	0	801112064	40	4122
2026-01-11 03:36:25.15	304.36	21.69	-34.3	-35.5	19.3	0.00e+00	0	56	0	806354944	40	4082
2026-01-11 03:36:26.16	304.10	21.68	-34.3	-35.5	19.3	0.00e+00	0	56	0	812646400	40	4058
2026-01-11 03:36:27.17	303.83	21.66	-34.3	-35.5	19.3	0.00e+00	0	56	0	817889280	40	4082
2026-01-11 03:36:28.18	303.57	21.64	-34.3	-35.5	19.3	0.00e+00	0	56	0	824180736	40	4076
2026-01-11 03:36:29.19	303.30	21.63	-34.3	-35.5	19.3	0.00e+00	0	56	0	829423616	40	4060
2026-01-11 03:36:30.20	303.04	21.61	-34.2	-35.3	19.4	0.00e+00	0	56	0	834666496	40	3998
2026-01-11 03:36:31.21	302.77	21.59	-34.1	-35.3	19.5	0.00e+00	0	56	0	840957952	40	3993
2026-01-11 03:36:32.22	302.51	21.57	-34.2	-35.4	19.3	0.00e+00	0	56	0	846200832	40	4037
2026-01-11 03:36:33.23	302.25	21.55	-34.3	-35.5	19.3	0.00e+00	0	56	0	852492288	40	4091
2026-01-11 03:36:34.24	301.98	21.53	-34.4	-35.6	19.2	0.00e+00	0	56	0	857735168	40	4134
2026-01-11 03:36:35.25	301.72	21.51	-34.4	-35.6	19.2	0.00e+00	0	56	0	862978048	40	4134
2026-01-11 03:36:36.26	301.46	21.49	-34.4	-35.6	19.2	0.00e+00	0	56	0	869269504	40	4100
2026-01-11 03:36:37.27	301.20	21.47	-34.3	-35.5	19.3	0.00e+00	0	56	0	874512384	40	4064
2026-01-11 03:36:38.28	300.93	21.44	-34.3	-35.4	19.3	0.00e+00	0	56	0	880803840	40	4049
2026-01-11 03:36:39.29	300.67	21.42	-34.3	-35.5	19.3	0.00e+00	0	56	0	886046720	40	4072
2026-01-11 03:36:40.30	300.41	21.40	-34.3	-35.5	19.3	0.00e+00	0	56	0	891289600	40	4073
2026-01-11 03:36:41.32	300.15	21.37	-34.2	-35.4	19.4	0.00e+00	0	56	0	897581056	40	4038
2026-01-11 03:36:42.32	299.89	21.35	-34.2	-35.4	19.4	0.00e+00	0	56	0	902823936	40	4019
2026-01-11 03:36:43.33	299.63	21.32	-34.2	-35.4	19.4	0.00e+00	0	56	0	909115392	40	4026
2026-01-11 03:36:44.34	299.37	21.29	-34.2	-35.4	19.4	0.00e+00	0	56	0	914358272	40	4016
2026-01-11 03:36:45.35	299.11	21.27	-34.1	-35.3	19.4	0.00e+00	0	56	0	920649728	40	4002
2026-01-11 03:36:46.36	298.86	21.24	-34.2	-35.4	19.4	0.00e+00	0	56	0	925892608	40	4036
2026-01-11 03:36:47.37	298.60	21.21	-34.2	-35.4	19.3	0.00e+00	0	56	0	932184064	40	4047
2026-01-11 03:36:48.38	298.34	21.18	-34.3	-35.5	19.3	0.00e+00	0	56	0	937426944	40	4074
2026-01-11 03:36:49.39	298.08	21.15	-34.3	-35.5	19.3	0.00e+00	0	56	0	942669824	40	4087
2026-01-11 03:36:50.40	297.83	21.12	-34.3	-35.6	19.2	0.00e+00	0	56	0	948961280	40	4104
2026-01-11 03:36:51.41	297.57	21.09	-34.3	-35.5	19.3	0.00e+00	0	56	0	954204160	40	4063
2026-01-11 03:36:52.41	297.32	21.06	-34.3	-35.5	19.3	0.00e+00	0	56	0	960495616	40	4052
2026-01-11 03:36:53.42	297.06	21.03	-34.3	-35.5	19.3	0.00e+00	0	56	0	965738496	40	4073
2026-01-11 03:36:54.44	296.81	21.00	-34.4	-35.6	19.2	0.00e+00	0	56	0	970981376	40	4134
2026-01-11 03:36:55.45	296.55	20.96	-34.4	-35.6	19.2	0.00e+00	0	56	0	977272832	40	4124
2026-01-11 03:36:56.46	296.30	20.93	-34.4	-35.6	19.1	0.00e+00	0	56	0	982515712	40	4141
2026-01-11 03:36:57.47	296.05	20.90	-34.3	-35.5	19.2	0.00e+00	0	56	0	988807168	40	4094
2026-01-11 03:36:58.48	295.80	20.86	-34.3	-35.5	19.3	0.00e+00	0	56	0	994050048	40	4059
2026-01-11 03:36:59.49	295.54	20.83	-34.2	-35.4	19.4	0.00e+00	0	56	0	999292928	40	4031
2026-01-11 03:37:00.50	295.29	20.79	-34.1	-35.3	19.5	0.00e+00	0	56	0	1005584384	40	3971
2026-01-11 03:37:01.51	295.04	20.76	-34.1	-35.3	19.4	0.00e+00	0	56	0	1010827264	40	3989
2026-01-11 03:37:02.52	294.79	20.72	-34.3	-35.5	19.3	0.00e+00	0	56	0	1017118720	40	4076
2026-01-11 03:37:03.53	294.54	20.68	-34.4	-35.6	19.2	0.00e+00	0	56	0	1022361600	40	4122
2026-01-11 03:37:04.54	294.30	20.65	-34.4	-35.7	19.1	0.00e+00	0	57	0	1028653056	40	4151
2026-01-11 03:37:05.55	294.05	20.61	-34.4	-35.7	19.1	0.00e+00	0	56	0	1033895936	40	4146
2026-01-11 03:37:06.56	293.80	20.57	-34.4	-35.6	19.1	0.00e+00	0	56	0	1039138816	40	4134
2026-01-11 03:37:07.57	293.55	20.53	-34.3	-35.6	19.2	0.00e+00	0	56	0	1045430272	40	4109
2026-01-11 03:37:08.58	293.31	20.49	-34.5	-35.7	19.0	0.00e+00	0	56	0	1050673152	40	4188
2026-01-11 03:37:09.59	293.06	20.45	-34.6	-35.9	18.9	0.00e+00	0	56	0	1056964608	40	4256
2026-01-11 03:37:10.60	292.82	20.41	-34.7	-35.9	18.8	0.00e+00	0	57	0	1062207488	40	4281
2026-01-11 03:37:11.61	292.57	20.37	-34.7	-36.0	18.8	0.00e+00	0	56	0	1067450368	40	4302
2026-01-11 03:37:12.62	292.33	20.33	-34.7	-36.0	18.8	0.00e+00	0	56	0	1073741824	40	4312
2026-01-11 03:37:13.63	292.09	20.29	-34.7	-35.9	18.8	0.00e+00	0	56	0	1078984704	40	4287
2026-01-11 03:37:14.64	291.84	20.24	-34.6	-35.8	18.9	0.00e+00	0	56	0	1085276160	40	4241
2026-01-11 03:37:15.65	291.60	20.20	-34.5	-35.7	19.0	0.00e+00	0	56	0	1090519040	40	4191
2026-01-11 03:37:16.66	291.36	20.16	-34.5	-35.7	19.0	0.00e+00	0	56	0	1095761920	40	4187
2026-01-11 03:37:17.67	291.12	20.11	-34.5	-35.8	19.0	0.00e+00	0	56	0	1102053376	40	4200
2026-01-11 03:37:18.68	290.88	20.07	-34.4	-35.7	19.1	0.00e+00	0	56	0	1107296256	40	4156
2026-01-11 03:37:19.69	290.64	20.02	-34.4	-35.6	19.1	0.00e+00	0	56	0	1113587712	40	4144
2026-01-11 03:37:20.70	290.41	19.98	-34.4	-35.6	19.1	0.00e+00	0	56	0	1118830592	40	4143
2026-01-11 03:37:21.71	290.17	19.93	-34.5	-35.7	19.0	0.00e+00	0	56	0	1125122048	40	4175
2026-01-11 03:37:22.72	289.93	19.89	-34.5	-35.8	19.0	0.00e+00	0	56	0	1130364928	40	4198
2026-01-11 03:37:23.72	289.70	19.84	-34.6	-35.8	18.9	0.00e+00	0	57	0	1136656384	40	4220
2026-01-11 03:37:24.73	289.46	19.79	-34.6	-35.9	18.9	0.00e+00	0	56	0	1141899264	40	4244
2026-01-11 03:37:25.74	289.23	19.75	-34.6	-35.9	18.9	0.00e+00	0	56	0	1147142144	40	4247
2026-01-11 03:37:26.75	288.99	19.70	-34.7	-35.9	18.8	0.00e+00	0	56	0	1153433600	40	4277
2026-01-11 03:37:27.76	288.76	19.65	-34.7	-36.0	18.8	0.00e+00	0	56	0	1158676480	40	4300
2026-01-11 03:37:28.77	288.53	19.60	-34.7	-36.0	18.8	0.00e+00	0	56	0	1164967936	40	4311
2026-01-11 03:37:29.78	288.30	19.55	-34.7	-36.0	18.7	0.00e+00	0	56	0	1170210816	40	4320
2026-01-11 03:37:30.79	288.07	19.50	-34.8	-36.0	18.7	0.00e+00	0	56	0	1175453696	40	4340
2026-01-11 03:37:31.80	287.84	19.45	-34.8	-36.0	18.7	0.00e+00	0	56	0	1181745152	40	4328
2026-01-11 03:37:32.81	287.61	19.40	-34.8	-36.1	18.7	0.00e+00	0	56	0	1186988032	40	4348
2026-01-11 03:37:33.83	287.38	19.35	-34.8	-36.1	18.6	0.00e+00	0	56	0	1193279488	40	4381
2026-01-11 03:37:34.84	287.15	19.30	-34.9	-36.2	18.5	0.00e+00	0	56	0	1198522368	40	4415
2026-01-11 03:37:35.85	286.92	19.25	-34.9	-36.2	18.5	0.00e+00	0	57	0	1203765248	40	4419
2026-01-11 03:37:36.86	286.70	19.20	-34.9	-36.1	18.6	0.00e+00	0	56	0	1210056704	40	4385
2026-01-11 03:37:37.85	286.47	19.15	-34.7	-36.0	18.7	0.00e+00	0	57	0	1215299584	40	4300
2026-01-11 03:37:38.86	286.25	19.10	-34.7	-36.0	18.8	0.00e+00	0	56	0	1221591040	40	4295
2026-01-11 03:37:39.87	286.03	19.04	-34.7	-36.0	18.7	0.00e+00	0	56	0	1226833920	40	4321
2026-01-11 03:37:40.88	285.80	18.99	-34.8	-36.1	18.6	0.00e+00	0	56	0	1233125376	40	4362
2026-01-11 03:37:41.89	285.58	18.94	-34.9	-36.2	18.5	0.00e+00	0	57	0	1238368256	40	4404
2026-01-11 03:37:42.90	285.36	18.88	-34.9	-36.1	18.6	0.00e+00	0	56	0	1244659712	40	4387
2026-01-11 03:37:43.91	285.14	18.83	-34.9	-36.2	18.5	0.00e+00	0	56	0	1249902592	40	4410
2026-01-11 03:37:44.92	284.92	18.78	-34.9	-36.2	18.5	0.00e+00	0	56	0	1255145472	40	4424
2026-01-11 03:37:45.93	284.70	18.72	-35.0	-36.3	18.4	0.00e+00	0	56	0	1261436928	40	4460
2026-01-11 03:37:46.94	284.48	18.67	-35.1	-36.3	18.3	0.00e+00	0	56	0	1266679808	40	4493
2026-01-11 03:37:47.95	284.26	18.61	-35.0	-36.3	18.3	0.00e+00	0	56	0	1272971264	40	4490
2026-01-11 03:37:48.96	284.04	18.56	-35.1	-36.4	18.3	0.00e+00	0	56	0	1278214144	40	4510
2026-01-11 03:37:49.97	283.83	18.50	-35.1	-36.4	18.3	0.00e+00	0	56	0	1283457024	40	4507
2026-01-11 03:37:50.98	283.61	18.44	-35.1	-36.4	18.3	0.00e+00	0	56	0	1289748480	40	4527
2026-01-11 03:37:51.99	283.40	18.39	-35.1	-36.5	18.2	0.00e+00	0	56	0	1294991360	40	4553
2026-01-11 03:37:53.00	283.19	18.33	-35.2	-36.5	18.1	0.00e+00	0	56	0	1300234240	40	4590
2026-01-11 03:37:54.01	282.97	18.27	-35.3	-36.6	18.1	0.00e+00	0	56	0	1306525696	41	4365
2026-01-11 03:37:55.02	282.76	18.22	-35.3	-36.6	18.1	0.00e+00	0	56	0	1311768576	41	4363
2026-01-11 03:37:56.03	282.55	18.16	-35.3	-36.6	18.0	0.00e+00	0	56	0	1318060032	41	4363
2026-01-11 03:37:57.03	282.34	18.10	-35.3	-36.7	18.0	0.00e+00	0	56	0	1323302912	41	4399
2026-01-11 03:37:58.04	282.13	18.05	-35.2	-36.5	18.2	0.00e+00	0	56	0	1329594368	41	4305
2026-01-11 03:37:59.05	281.92	17.99	-35.2	-36.5	18.1	0.00e+00	0	56	0	1334837248	41	4331
2026-01-11 03:38:00.06	281.71	17.93	-35.3	-36.7	18.0	0.00e+00	0	57	0	1341128704	41	4402
2026-01-11 03:38:01.07	281.51	17.87	-35.5	-36.9	17.8	0.00e+00	0	56	0	1346371584	41	4499
2026-01-11 03:38:02.08	281.30	17.81	-35.5	-36.9	17.8	0.00e+00	0	56	0	1351614464	41	4506
2026-01-11 03:38:03.09	281.09	17.75	-35.3	-36.6	18.0	0.00e+00	0	56	0	1357905920	41	4388
2026-01-11 03:38:04.10	280.89	17.69	-35.2	-36.5	18.1	0.00e+00	0	56	0	1363148800	41	4331
2026-01-11 03:38:05.11	280.69	17.63	-35.2	-36.5	18.1	0.00e+00	0	56	0	1369440256	41	4335
2026-01-11 03:38:06.12	280.48	17.57	-35.0	-36.4	18.3	0.00e+00	0	56	0	1374683136	41	4244
2026-01-11 03:38:07.13	280.28	17.51	-35.1	-36.4	18.2	0.00e+00	0	56	0	1379926016	41	4269
2026-01-11 03:38:08.14	280.08	17.45	-35.2	-36.5	18.0	0.00e+00	0	56	0	1386217472	41	4335
2026-01-11 03:38:09.15	279.88	17.39	-35.2	-36.6	18.0	0.00e+00	0	56	0	1391460352	41	4343
2026-01-11 03:38:10.17	279.68	17.33	-35.3	-36.6	18.0	0.00e+00	0	56	0	1397751808	41	4370
2026-01-11 03:38:11.17	279.48	17.27	-35.3	-36.7	17.9	0.00e+00	0	56	0	1402994688	41	4393
2026-01-11 03:38:12.18	279.28	17.21	-35.3	-36.6	18.0	0.00e+00	0	56	0	1408237568	41	4375
2026-01-11 03:38:13.19	279.08	17.15	-35.3	-36.6	18.0	0.00e+00	0	56	0	1414529024	41	4365
2026-01-11 03:38:14.20	278.89	17.09	-35.3	-36.7	17.9	0.00e+00	0	56	0	1419771904	41	4394
2026-01-11 03:38:15.21	278.69	17.02	-35.3	-36.7	17.8	0.00e+00	0	56	0	1426063360	41	4424
2026-01-11 03:38:16.22	278.49	16.96	-35.3	-36.7	17.9	0.00e+00	0	57	0	1431306240	41	4416
2026-01-11 03:38:17.23	278.30	16.90	-35.4	-36.7	17.8	0.00e+00	0	56	0	1437597696	41	4431
2026-01-11 03:38:18.24	278.11	16.84	-35.3	-36.7	17.8	0.00e+00	0	57	0	1442840576	41	4416
2026-01-11 03:38:19.25	277.91	16.77	-35.4	-36.7	17.8	0.00e+00	0	56	0	1449132032	41	4437
2026-01-11 03:38:20.26	277.72	16.71	-35.5	-36.8	17.7	0.00e+00	0	56	0	1454374912	41	4489
2026-01-11 03:38:21.27	277.53	16.65	-35.6	-37.0	17.6	0.00e+00	0	56	0	1459617792	41	4573
2026-01-11 03:38:22.29	277.34	16.59	-35.8	-37.2	17.4	0.00e+00	0	56	0	1465909248	42	4417
2026-01-11 03:38:23.29	277.15	16.52	-35.7	-37.2	17.4	0.00e+00	0	56	0	1471152128	42	4392
2026-01-11 03:38:24.30	276.96	16.46	-35.8	-37.2	17.4	0.00e+00	0	56	0	1477443584	42	4399
2026-01-11 03:38:25.32	276.77	16.40	-35.5	-36.9	17.6	0.00e+00	0	56	0	1482686464	42	4267
2026-01-11 03:38:26.32	276.59	16.33	-35.4	-36.8	17.8	0.00e+00	0	56	0	1487929344	42	4205
2026-01-11 03:38:27.33	276.40	16.27	-35.4	-36.8	17.8	0.00e+00	0	56	0	1494220800	42	4210
2026-01-11 03:38:28.35	276.21	16.20	-35.6	-37.0	17.6	0.00e+00	0	56	0	1499463680	42	4296
2026-01-11 03:38:29.36	276.03	16.14	-35.7	-37.1	17.4	0.00e+00	0	56	0	1505755136	42	4366
2026-01-11 03:38:30.37	275.85	16.08	-35.8	-37.3	17.3	0.00e+00	0	56	0	1510998016	42	4446
2026-01-11 03:38:31.38	275.66	16.01	-35.9	-37.3	17.2	0.00e+00	0	56	0	1516240896	42	4476
2026-01-11 03:38:32.39	275.48	15.95	-35.7	-37.2	17.3	0.00e+00	0	56	0	1522532352	42	4401
2026-01-11 03:38:33.40	275.30	15.88	-35.7	-37.1	17.4	0.00e+00	0	56	0	1527775232	42	4375
2026-01-11 03:38:34.41	275.12	15.82	-35.7	-37.1	17.4	0.00e+00	0	57	0	1534066688	42	4389
2026-01-11 03:38:35.42	274.94	15.75	-35.8	-37.3	17.2	0.00e+00	0	56	0	1539309568	42	4461
2026-01-11 03:38:36.43	274.76	15.69	-35.9	-37.4	17.2	0.00e+00	0	56	0	1545601024	42	4494
2026-01-11 03:38:37.44	274.58	15.62	-36.0	-37.4	17.1	0.00e+00	0	56	0	1550843904	42	4533
2026-01-11 03:38:38.45	274.40	15.56	-36.0	-37.5	17.1	0.00e+00	0	56	0	1557135360	42	4547
2026-01-11 03:38:39.46	274.23	15.49	-36.0	-37.4	17.1	0.00e+00	0	57	0	1562378240	42	4534
2026-01-11 03:38:40.47	274.05	15.43	-35.8	-37.2	17.2	0.00e+00	0	57	0	1567621120	42	4441
2026-01-11 03:38:41.48	273.87	15.36	-35.6	-37.0	17.5	0.00e+00	0	56	0	1573912576	42	4311
2026-01-11 03:38:42.49	273.70	15.30	-35.4	-36.8	17.7	0.00e+00	0	57	0	1579155456	42	4221
2026-01-11 03:38:43.50	273.53	15.23	-35.4	-36.8	17.7	0.00e+00	0	57	0	1584398336	42	4200
2026-01-11 03:38:44.51	273.35	15.17	-35.5	-36.9	17.6	0.00e+00	0	57	0	1590689792	42	4286
2026-01-11 03:38:45.52	273.18	15.10	-35.6	-37.0	17.5	0.00e+00	0	57	0	1595932672	42	4309
2026-01-11 03:38:46.53	273.01	15.04	-35.7	-37.2	17.3	0.00e+00	0	57	0	1602224128	42	4403
2026-01-11 03:38:47.54	272.84	14.97	-35.8	-37.3	17.2	0.00e+00	0	56	0	1607467008	42	4464
2026-01-11 03:38:48.55	272.67	14.90	-35.9	-37.3	17.2	0.00e+00	0	56	0	1613758464	42	4486
2026-01-11 03:38:49.56	272.50	14.84	-35.9	-37.3	17.1	0.00e+00	0	57	0	1619001344	42	4487
2026-01-11 03:38:50.57	272.33	14.77	-35.8	-37.3	17.2	0.00e+00	0	57	0	1624244224	42	4445
2026-01-11 03:38:51.58	272.16	14.71	-35.8	-37.2	17.3	0.00e+00	0	56	0	1630535680	42	4415
2026-01-11 03:38:52.59	272.00	14.64	-35.9	-37.3	17.1	0.00e+00	0	56	0	1635778560	42	4476
2026-01-11 03:38:53.60	271.83	14.57	-36.0	-37.4	17.0	0.00e+00	0	57	0	1642070016	42	4533
2026-01-11 03:38:54.61	271.67	14.51	-36.0	-37.5	16.9	0.00e+00	0	56	0	1647312896	42	4584
2026-01-11 03:38:55.62	271.50	14.44	-36.1	-37.6	16.8	0.00e+00	0	56	0	1653604352	42	4642
2026-01-11 03:38:56.63	271.34	14.37	-36.0	-37.4	17.0	0.00e+00	0	57	0	1658847232	42	4544
2026-01-11 03:38:57.64	271.17	14.31	-35.8	-37.3	17.2	0.00e+00	0	57	0	1664090112	42	4452
2026-01-11 03:38:58.65	271.01	14.24	-35.8	-37.3	17.1	0.00e+00	0	56	0	1670381568	42	4467
2026-01-11 03:38:59.66	270.85	14.17	-35.9	-37.4	17.1	0.00e+00	0	57	0	1675624448	42	4504
2026-01-11 03:39:00.67	270.69	14.11	-36.0	-37.4	17.0	0.00e+00	0	56	0	1681915904	42	4536
2026-01-11 03:39:01.68	270.53	14.04	-35.9	-37.4	17.0	0.00e+00	0	56	0	1687158784	42	4521
2026-01-11 03:39:02.69	270.37	13.97	-36.0	-37.4	17.0	0.00e+00	0	56	0	1692401664	42	4529
2026-01-11 03:39:03.70	270.21	13.91	-36.0	-37.4	17.0	0.00e+00	0	56	0	1698693120	42	4531
2026-01-11 03:39:04.71	270.05	13.84	-36.0	-37.5	16.9	0.00e+00	0	56	0	1703936000	42	4568
2026-01-11 03:39:05.72	269.89	13.77	-36.1	-37.6	16.8	0.00e+00	0	57	0	1710227456	42	4615
2026-01-11 03:39:06.74	269.74	13.71	-36.2	-37.7	16.7	0.00e+00	0	56	0	1715470336	42	4674
2026-01-11 03:39:07.75	269.58	13.64	-36.2	-37.7	16.7	0.00e+00	0	57	0	1720713216	43	4421
2026-01-11 03:39:08.76	269.43	13.57	-36.1	-37.6	16.8	0.00e+00	0	57	0	1727004672	43	4359
2026-01-11 03:39:09.77	269.27	13.51	-36.1	-37.6	16.8	0.00e+00	0	57	0	1732247552	43	4368
2026-01-11 03:39:10.78	269.12	13.44	-36.2	-37.7	16.7	0.00e+00	0	56	0	1738539008	43	4432
2026-01-11 03:39:11.78	268.97	13.37	-36.2	-37.7	16.6	0.00e+00	0	56	0	1743781888	43	4438
2026-01-11 03:39:12.79	268.81	13.30	-36.2	-37.8	16.6	0.00e+00	0	57	0	1750073344	43	4458
2026-01-11 03:39:13.80	268.66	13.24	-36.4	-37.9	16.4	0.00e+00	0	57	0	1755316224	43	4535
2026-01-11 03:39:14.81	268.51	13.17	-36.4	-38.0	16.4	0.00e+00	0	57	0	1761607680	43	4560
2026-01-11 03:39:15.82	268.36	13.10	-36.5	-38.1	16.3	0.00e+00	0	56	0	1766850560	43	4620
2026-01-11 03:39:16.83	268.21	13.04	-36.4	-38.0	16.4	0.00e+00	0	56	0	1772093440	43	4570
2026-01-11 03:39:17.84	268.06	12.97	-36.3	-37.8	16.6	0.00e+00	0	56	0	1778384896	43	4467
2026-01-11 03:39:18.85	267.91	12.90	-36.4	-37.9	16.5	0.00e+00	0	57	0	1783627776	43	4514
2026-01-11 03:39:19.86	267.77	12.84	-36.4	-38.0	16.3	0.00e+00	0	57	0	1789919232	43	4575
2026-01-11 03:39:20.87	267.62	12.77	-36.5	-38.1	16.3	0.00e+00	0	56	0	1795162112	43	4606
2026-01-11 03:39:21.88	267.47	12.70	-36.5	-38.1	16.2	0.00e+00	0	57	0	1800404992	43	4626
2026-01-11 03:39:22.89	267.33	12.63	-36.5	-38.1	16.2	0.00e+00	0	57	0	1806696448	43	4617
2026-01-11 03:39:23.90	267.18	12.57	-36.3	-37.9	16.4	0.00e+00	0	56	0	1811939328	43	4517
2026-01-11 03:39:24.91	267.04	12.50	-36.3	-37.8	16.5	0.00e+00	0	56	0	1818230784	43	4461
2026-01-11 03:39:25.92	266.89	12.43	-36.3	-37.9	16.5	0.00e+00	0	57	0	1823473664	43	4507
2026-01-11 03:39:26.93	266.75	12.37	-36.5	-38.0	16.3	0.00e+00	0	56	0	1828716544	43	4585
2026-01-11 03:39:27.94	266.61	12.30	-36.4	-38.0	16.3	0.00e+00	0	56	0	1835008000	43	4567
2026-01-11 03:39:28.95	266.47	12.23	-36.6	-38.2	16.2	0.00e+00	0	56	0	1840250880	43	4664
2026-01-11 03:39:29.96	266.33	12.17	-36.4	-38.0	16.3	0.00e+00	0	57	0	1846542336	43	4562
2026-01-11 03:39:30.97	266.19	12.10	-36.4	-38.0	16.3	0.00e+00	0	57	0	1851785216	43	4570
2026-01-11 03:39:31.98	266.05	12.03	-36.5	-38.1	16.2	0.00e+00	0	57	0	1858076672	43	4617
2026-01-11 03:39:32.99	265.91	11.96	-36.6	-38.2	16.1	0.00e+00	0	56	0	1863319552	43	4681
2026-01-11 03:39:34.00	265.77	11.90	-36.6	-38.2	16.0	0.00e+00	0	56	0	1868562432	43	4703
2026-01-11 03:39:35.01	265.63	11.83	-36.5	-38.0	16.2	0.00e+00	0	57	0	1874853888	43	4596
2026-01-11 03:39:36.02	265.50	11.76	-36.5	-38.1	16.1	0.00e+00	0	57	0	1880096768	43	4638
2026-01-11 03:39:37.03	265.36	11.70	-36.5	-38.1	16.2	0.00e+00	0	57	0	1886388224	43	4601
2026-01-11 03:39:38.04	265.22	11.63	-36.3	-37.9	16.3	0.00e+00	0	57	0	1891631104	43	4520
2026-01-11 03:39:39.05	265.09	11.56	-36.5	-38.1	16.1	0.00e+00	0	57	0	1896873984	43	4637
2026-01-11 03:39:40.06	264.95	11.50	-36.6	-38.2	16.0	0.00e+00	0	56	0	1903165440	43	4675
2026-01-11 03:39:41.07	264.82	11.43	-36.6	-38.2	16.0	0.00e+00	0	57	0	1908408320	43	4680
2026-01-11 03:39:42.08	264.69	11.36	-36.6	-38.3	15.9	0.00e+00	0	56	0	1914699776	43	4722
2026-01-11 03:39:43.09	264.55	11.30	-36.7	-38.4	15.8	0.00e+00	0	57	0	1919942656	43	4770
2026-01-11 03:39:44.10	264.42	11.23	-36.9	-38.5	15.8	0.00e+00	0	57	0	1926234112	44	4597
2026-01-11 03:39:45.11	264.29	11.16	-36.9	-38.6	15.8	0.00e+00	0	56	0	1931476992	44	4622
2026-01-11 03:39:46.12	264.16	11.10	-36.8	-38.5	15.9	0.00e+00	0	57	0	1936719872	44	4548
2026-01-11 03:39:47.13	264.03	11.03	-36.9	-38.6	15.8	0.00e+00	0	56	0	1943011328	44	4615
2026-01-11 03:39:48.14	263.90	10.96	-36.9	-38.6	15.7	0.00e+00	0	57	0	1948254208	44	4626
2026-01-11 03:39:49.15	263.77	10.90	-37.1	-38.8	15.6	0.00e+00	0	57	0	1954545664	44	4715
2026-01-11 03:39:50.16	263.64	10.83	-36.9	-38.6	15.7	0.00e+00	0	57	0	1959788544	44	4644
2026-01-11 03:39:51.17	263.51	10.76	-37.0	-38.7	15.6	0.00e+00	0	56	0	1966080000	44	4693
2026-01-11 03:39:52.18	263.39	10.70	-37.0	-38.7	15.6	0.00e+00	0	56	0	1971322880	44	4696
2026-01-11 03:39:53.19	263.26	10.63	-37.0	-38.8	15.6	0.00e+00	0	57	0	1976565760	44	4712
2026-01-11 03:39:54.20	263.13	10.56	-36.9	-38.6	15.7	0.00e+00	0	56	0	1982857216	44	4641
2026-01-11 03:39:55.21	263.01	10.50	-36.9	-38.6	15.7	0.00e+00	0	57	0	1988100096	44	4639
2026-01-11 03:39:56.22	262.88	10.43	-37.1	-38.9	15.4	0.00e+00	0	57	0	1994391552	44	4761
2026-01-11 03:39:57.23	262.76	10.37	-37.2	-38.9	15.4	1.10e-06	0	57	0	1999634432	44	4782
2026-01-11 03:39:58.24	262.63	10.30	-37.2	-39.0	15.3	0.00e+00	0	57	0	2004877312	45	4562
2026-01-11 03:39:59.25	262.51	10.23	-37.2	-38.9	15.3	0.00e+00	0	57	0	2011168768	45	4540
2026-01-11 03:40:00.26	262.39	10.17	-37.2	-39.0	15.3	0.00e+00	0	57	0	2016411648	45	4552
2026-01-11 03:40:01.27	262.27	10.10	-37.2	-39.0	15.3	0.00e+00	0	57	0	2022703104	45	4547
2026-01-11 03:40:02.29	262.14	10.04	-37.3	-39.1	15.2	0.00e+00	0	57	0	2027945984	45	4614
2026-01-11 03:40:03.30	262.02	9.97	-37.2	-39.0	15.3	0.00e+00	0	57	0	2033188864	45	4563
2026-01-11 03:40:04.31	261.90	9.90	-37.1	-38.9	15.4	0.00e+00	0	57	0	2039480320	45	4518
2026-01-11 03:40:05.32	261.78	9.84	-37.2	-38.9	15.3	1.10e-06	0	56	0	2044723200	45	4540
2026-01-11 03:40:06.33	261.66	9.77	-37.3	-39.0	15.2	0.00e+00	0	57	0	2051014656	45	4593
2026-01-11 03:40:07.34	261.54	9.71	-37.2	-38.9	15.3	0.00e+00	0	57	0	2056257536	45	4535
2026-01-11 03:40:08.35	261.43	9.64	-37.2	-38.9	15.3	0.00e+00	0	57	0	2062548992	45	4544
2026-01-11 03:40:09.36	261.31	9.58	-37.3	-39.1	15.1	0.00e+00	0	57	0	2067791872	45	4622
2026-01-11 03:40:10.37	261.19	9.51	-37.4	-39.2	15.0	0.00e+00	0	57	0	2074083328	45	4693
2026-01-11 03:40:11.38	261.07	9.44	-37.5	-39.3	14.9	0.00e+00	0	57	0	2079326208	45	4743
2026-01-11 03:40:12.39	260.96	9.38	-37.5	-39.3	14.9	0.00e+00	0	57	0	2084569088	45	4742
2026-01-11 03:40:13.40	260.84	9.31	-37.5	-39.4	14.8	1.10e-06	0	56	0	2090860544	45	4777
2026-01-11 03:40:14.41	260.73	9.25	-37.6	-39.5	14.7	2.20e-06	0	57	0	2096103424	45	4821
2026-01-11 03:40:15.42	260.61	9.18	-37.8	-39.7	14.6	1.10e-06	0	57	0	2102394880	46	4672
2026-01-11 03:40:16.43	260.50	9.12	-37.6	-39.5	14.7	0.00e+00	0	56	0	2107637760	46	4560
2026-01-11 03:40:17.44	260.39	9.05	-37.5	-39.4	14.8	1.10e-06	0	57	0	2112880640	46	4523
2026-01-11 03:40:18.45	260.27	8.99	-37.5	-39.4	14.8	0.00e+00	0	57	0	2119172096	46	4505
2026-01-11 03:40:19.46	260.16	8.92	-37.6	-39.5	14.7	0.00e+00	0	57	0	2124414976	46	4577
2026-01-11 03:40:20.47	260.05	8.86	-37.7	-39.6	14.6	0.00e+00	0	57	0	2130706432	46	4630
2026-01-11 03:40:21.48	259.94	8.79	-37.8	-39.8	14.4	1.10e-06	0	57	0	2135949312	46	4706
2026-01-11 03:40:22.49	259.83	8.73	-37.7	-39.6	14.6	1.10e-06	0	57	0	2141192192	46	4629
2026-01-11 03:40:23.50	259.72	8.66	-37.7	-39.6	14.5	0.00e+00	0	57	0	2147483648	46	4649
2026-01-11 03:40:24.51	259.61	8.60	-37.8	-39.8	14.4	1.10e-06	0	56	0	2152726528	46	4713
2026-01-11 03:40:25.52	259.50	8.54	-37.8	-39.7	14.4	1.10e-06	0	57	0	2159017984	46	4692
2026-01-11 03:40:26.53	259.39	8.47	-37.9	-39.9	14.3	3.40e-06	0	57	0	2164260864	46	4767
2026-01-11 03:40:27.54	259.28	8.41	-37.7	-39.7	14.5	0.00e+00	0	57	0	2170552320	46	4652
2026-01-11 03:40:28.55	259.17	8.34	-37.7	-39.6	14.6	0.00e+00	0	57	0	2175795200	46	4600
2026-01-11 03:40:29.56	259.06	8.28	-37.7	-39.6	14.5	2.20e-06	0	56	0	2182086656	46	4638
2026-01-11 03:40:30.57	258.96	8.21	-37.7	-39.6	14.6	4.50e-06	0	57	0	2187329536	46	4616
2026-01-11 03:40:31.58	258.85	8.15	-37.6	-39.5	14.6	1.10e-06	0	57	0	2192572416	46	4561
2026-01-11 03:40:32.59	258.74	8.09	-37.6	-39.5	14.6	1.10e-06	0	57	0	2198863872	46	4598
2026-01-11 03:40:33.60	258.64	8.02	-41.5	-45.7	9.1	0.00e+00	0	57	0	2204106752	53	6254
2026-01-11 03:40:34.61	258.53	7.96	-44.4	-55.5	3.8	8.46e-01	0	57	104	2205155328	59	13577
2026-01-11 03:40:35.62	258.43	7.89	-44.7	-56.2	3.8	8.46e-01	0	56	104	2205155328	59	14728
2026-01-11 03:40:36.63	258.32	7.83	-44.8	-56.5	3.8	8.46e-01	0	57	104	2205155328	60	14413
2026-01-11 03:40:37.64	258.22	7.77	-44.9	-56.6	3.8	8.46e-01	0	57	104	2205155328	60	14667
2026-01-11 03:40:38.66	258.12	7.70	-44.9	-56.7	3.8	8.46e-01	0	57	104	2205155328	60	14746
2026-01-11 03:40:39.67	258.01	7.64	-45.0	-56.7	3.8	8.46e-01	0	57	104	2205155328	60	14839
2026-01-11 03:40:40.68	257.91	7.58	-45.0	-56.8	3.8	8.48e-01	0	57	104	2205155328	60	14888
2026-01-11 03:40:41.69	257.81	7.51	-45.1	-56.8	3.8	8.46e-01	0	57	104	2205155328	60	15004
2026-01-11 03:40:42.70	257.71	7.45	-45.1	-56.8	3.8	8.46e-01	0	57	104	2205155328	60	14923
2026-01-11 03:40:43.71	257.61	7.39	-45.0	-56.8	3.8	8.46e-01	0	57	104	2205155328	60	14990
2026-01-11 03:40:44.72	257.51	7.32	-45.0	-56.8	3.8	8.47e-01	0	57	104	2205155328	60	14931
2026-01-11 03:40:45.73	257.41	7.26	-44.9	-56.8	3.8	8.46e-01	0	57	104	2205155328	60	14884
2026-01-11 03:40:46.74	257.31	7.20	-45.0	-56.7	3.8	8.47e-01	0	57	104	2205155328	60	14846
2026-01-11 03:40:47.75	257.21	7.13	-44.9	-56.7	3.8	8.46e-01	0	57	104	2205155328	60	14822
2026-01-11 03:40:48.77	257.11	7.07	-44.9	-56.7	3.8	8.47e-01	0	57	104	2205155328	60	14843
2026-01-11 03:40:49.77	257.01	7.01	-44.9	-56.7	3.8	8.45e-01	0	57	104	2205155328	60	14870
2026-01-11 03:40:50.78	256.91	6.94	-44.9	-56.7	3.8	8.45e-01	0	57	104	2205155328	60	14824
2026-01-11 03:40:51.80	256.81	6.88	-44.9	-56.7	3.8	8.45e-01	0	57	104	2205155328	60	14819
2026-01-11 03:40:52.81	256.72	6.82	-44.9	-56.7	3.8	8.47e-01	0	57	104	2205155328	60	14794
2026-01-11 03:40:53.82	256.62	6.76	-44.9	-56.7	3.8	8.47e-01	0	57	104	2205155328	60	14767
2026-01-11 03:40:54.83	256.52	6.69	-44.9	-56.7	3.8	8.45e-01	0	57	104	2205155328	60	14800
2026-01-11 03:40:55.84	256.43	6.63	-44.9	-56.7	3.8	8.45e-01	0	57	104	2205155328	60	14762
2026-01-11 03:40:56.85	256.33	6.57	-44.9	-56.7	3.8	8.47e-01	0	57	104	2205155328	60	14780
2026-01-11 03:40:57.86	256.24	6.51	-44.9	-56.7	3.8	8.45e-01	0	57	104	2205155328	60	14728
2026-01-11 03:40:58.87	256.14	6.44	-44.9	-56.7	3.8	8.46e-01	0	57	104	2205155328	60	14786
2026-01-11 03:40:59.88	256.05	6.38	-44.9	-56.7	3.8	8.47e-01	0	57	104	2205155328	60	14776
2026-01-11 03:41:00.89	255.95	6.32	-44.9	-56.7	3.8	8.47e-01	0	57	104	2205155328	60	14778
2026-01-11 03:41:01.90	255.86	6.26	-44.9	-56.7	3.8	8.46e-01	0	57	104	2205155328	60	14777
2026-01-11 03:41:02.91	255.77	6.20	-44.9	-56.7	3.8	8.46e-01	0	57	104	2205155328	60	14765
2026-01-11 03:41:03.93	255.68	6.13	-44.9	-56.7	3.8	8.46e-01	0	57	104	2205155328	60	14794
2026-01-11 03:41:04.94	255.58	6.07	-44.9	-56.6	3.8	8.47e-01	0	57	104	2205155328	60	14703
2026-01-11 03:41:05.95	255.49	6.01	-44.9	-56.7	3.8	8.46e-01	0	57	104	2205155328	60	14747
2026-01-11 03:41:06.96	255.40	5.95	-44.9	-56.7	3.8	8.46e-01	0	57	104	2205155328	60	14713
2026-01-11 03:41:07.97	255.31	5.89	-44.8	-56.7	3.8	8.47e-01	0	57	104	2205155328	60	14731
2026-01-11 03:41:08.98	255.22	5.83	-44.8	-56.7	3.8	8.45e-01	0	57	104	2205155328	60	14765
2026-01-11 03:41:09.99	255.13	5.77	-44.8	-56.7	3.8	8.46e-01	0	57	104	2205155328	60	14734
2026-01-11 03:41:11.00	255.04	5.70	-44.8	-56.7	3.8	8.46e-01	0	57	104	2205155328	60	14778
2026-01-11 03:41:12.01	254.95	5.64	-44.9	-56.6	3.8	8.46e-01	0	57	104	2205155328	60	14700
2026-01-11 03:41:13.03	254.86	5.58	-44.8	-56.7	3.8	8.46e-01	0	57	104	2205155328	60	14725
2026-01-11 03:41:14.04	254.77	5.52	-44.8	-56.7	3.8	8.46e-01	0	57	104	2205155328	60	14720
2026-01-11 03:41:15.05	254.68	5.46	-44.8	-56.6	3.8	8.46e-01	0	57	104	2205155328	60	14657
2026-01-11 03:41:16.06	254.60	5.40	-44.8	-56.6	3.8	8.45e-01	0	57	104	2205155328	60	14700
2026-01-11 03:41:17.07	254.51	5.34	-44.8	-56.6	3.8	8.46e-01	0	57	104	2205155328	60	14680
2026-01-11 03:41:18.08	254.42	5.28	-44.8	-56.7	3.8	8.47e-01	0	57	104	2205155328	60	14719
2026-01-11 03:41:19.09	254.33	5.22	-44.8	-56.7	3.8	8.48e-01	0	57	104	2205155328	60	14738
2026-01-11 03:41:20.10	254.25	5.16	-44.8	-56.7	3.8	8.46e-01	0	57	104	2205155328	60	14737
2026-01-11 03:41:21.11	254.16	5.10	-44.8	-56.6	3.8	8.45e-01	0	57	104	2205155328	60	14700
2026-01-11 03:41:22.13	254.08	5.04	-44.8	-56.6	3.8	8.45e-01	0	57	104	2205155328	60	14695
2026-01-11 03:41:23.14	253.99	4.97	-44.8	-56.6	3.8	8.46e-01	0	57	104	2205155328	60	14646
2026-01-11 03:41:24.15	253.91	4.91	-44.8	-56.6	3.8	8.46e-01	0	57	104	2205155328	60	14669
2026-01-11 03:41:25.16	253.82	4.85	-44.8	-56.6	3.8	8.46e-01	0	57	104	2205155328	60	14696
2026-01-11 03:41:26.17	253.74	4.79	-44.8	-56.7	3.8	8.46e-01	0	57	104	2205155328	60	14736
2026-01-11 03:41:27.18	253.65	4.73	-44.8	-56.6	3.8	8.45e-01	0	57	104	2205155328	60	14647
2026-01-11 03:41:28.19	253.57	4.67	-44.8	-56.7	3.8	8.47e-01	0	57	104	2205155328	60	14745
2026-01-11 03:41:29.20	253.49	4.61	-44.8	-56.6	3.8	8.46e-01	0	57	104	2205155328	60	14658
2026-01-11 03:41:30.21	253.40	4.56	-44.8	-56.6	3.8	8.45e-01	0	57	104	2205155328	60	14686
2026-01-11 03:41:31.22	253.32	4.50	-44.8	-56.6	3.8	8.46e-01	0	57	104	2205155328	60	14679
2026-01-11 03:41:32.24	253.24	4.44	-44.8	-56.6	3.8	8.45e-01	0	57	104	2205155328	60	14683
2026-01-11 03:41:33.25	253.16	4.38	-44.8	-56.6	3.8	8.46e-01	0	57	104	2205155328	60	14692
2026-01-11 03:41:34.26	253.07	4.32	-44.8	-56.6	3.8	8.48e-01	0	57	104	2205155328	60	14703
2026-01-11 03:41:35.27	252.99	4.26	-44.8	-56.7	3.8	8.47e-01	0	57	104	2205155328	60	14714
2026-01-11 03:41:36.28	252.91	4.20	-44.8	-56.7	3.8	8.46e-01	0	57	104	2205155328	60	14727
