passes_logs/2026/01/11/R2.0S_Moscow/R2.0S_Moscow__20260111_004937_SUOMI_NPP_rec.log

#Pass ID: 20260111_004937_SUOMI NPP
#Satellite: SUOMI NPP
#Configuration: NPP
#almurnet v.1.7.20251203
#Start time: 2026-01-11 00:49:37

#Version: 2.2.20231116
#Station: R2.0S_Moscow
#Location: 37.707566 lon 55.798166 lat
#TLE: 1 37849U 11061A   26009.81756760  .00000113  00000+0  74747-4 0  9994
#TLE: 2 37849  98.7806 311.9110 0002525  72.5604 287.5848 14.19524046735974

#Time	Az	El	Level	Level2	SNR	BER	BlckErr	Temp	State	Recorded	gain1	gain2
2026-01-11 00:49:37.32	12.07	2.01	-39.8	-54.3	3.8	1.49e+00	0	46	0	0	51	18877
2026-01-11 00:49:38.33	12.02	2.07	-39.8	-54.3	3.8	1.49e+00	0	47	104	0	51	18805
2026-01-11 00:49:39.34	11.98	2.14	-39.8	-54.3	3.8	1.49e+00	0	47	104	0	51	18828
2026-01-11 00:49:40.35	11.94	2.20	-39.8	-54.3	3.8	1.49e+00	0	47	104	0	51	18863
2026-01-11 00:49:41.36	11.90	2.26	-39.8	-54.3	3.8	1.49e+00	0	47	104	0	51	18822
2026-01-11 00:49:42.38	11.85	2.32	-39.8	-54.3	3.8	1.49e+00	0	47	104	0	51	18829
2026-01-11 00:49:43.39	11.81	2.38	-39.8	-54.3	3.8	1.49e+00	0	47	104	0	51	18767
2026-01-11 00:49:44.40	11.76	2.45	-39.8	-54.3	3.8	1.49e+00	0	47	104	0	51	18813
2026-01-11 00:49:45.41	11.72	2.51	-39.8	-54.3	3.8	1.49e+00	0	47	104	0	51	18785
2026-01-11 00:49:46.42	11.68	2.57	-39.8	-54.3	3.8	1.49e+00	0	47	104	0	51	18785
2026-01-11 00:49:47.43	11.63	2.63	-39.8	-54.3	3.8	1.49e+00	0	47	104	0	51	18826
2026-01-11 00:49:48.44	11.59	2.70	-39.8	-54.3	3.8	1.49e+00	0	47	104	0	51	18876
2026-01-11 00:49:49.45	11.54	2.76	-39.8	-54.3	3.8	1.49e+00	0	48	104	0	51	18788
2026-01-11 00:49:50.46	11.50	2.82	-39.8	-54.3	3.8	1.49e+00	0	47	104	0	51	18813
2026-01-11 00:49:51.47	11.45	2.88	-39.8	-54.3	3.8	1.49e+00	0	48	104	0	51	18781
2026-01-11 00:49:52.48	11.41	2.95	-39.8	-54.3	3.8	1.49e+00	0	47	104	0	51	18768
2026-01-11 00:49:53.49	11.36	3.01	-39.8	-54.3	3.8	1.49e+00	0	48	104	0	51	18844
2026-01-11 00:49:54.51	11.32	3.07	-39.8	-54.3	3.8	1.49e+00	0	48	104	0	51	18734
2026-01-11 00:49:55.52	11.27	3.14	-39.8	-54.3	3.8	1.49e+00	0	48	104	0	51	18789
2026-01-11 00:49:56.53	11.23	3.20	-39.8	-54.2	3.8	1.49e+00	0	48	104	0	51	18719
2026-01-11 00:49:57.54	11.18	3.26	-39.8	-54.3	3.8	1.49e+00	0	48	104	0	51	18780
2026-01-11 00:49:58.55	11.13	3.33	-39.8	-54.3	3.8	1.49e+00	0	48	104	0	51	18816
2026-01-11 00:49:59.56	11.09	3.39	-39.8	-54.3	3.8	1.49e+00	0	48	104	0	51	18755
2026-01-11 00:50:00.57	11.04	3.46	-39.8	-54.3	3.8	1.49e+00	0	48	104	0	51	18760
2026-01-11 00:50:01.58	10.99	3.52	-39.8	-54.3	3.8	1.49e+00	0	48	104	0	51	18739
2026-01-11 00:50:02.59	10.95	3.59	-39.8	-54.3	3.8	1.49e+00	0	48	104	0	51	18747
2026-01-11 00:50:03.60	10.90	3.65	-39.8	-54.3	3.8	1.49e+00	0	48	104	0	51	18754
2026-01-11 00:50:04.61	10.85	3.71	-39.8	-54.3	3.8	1.49e+00	0	49	104	0	51	18774
2026-01-11 00:50:05.62	10.80	3.78	-39.8	-54.3	3.8	1.49e+00	0	49	104	0	51	18753
2026-01-11 00:50:06.64	10.75	3.84	-39.8	-54.3	3.8	1.49e+00	0	49	104	0	51	18744
2026-01-11 00:50:07.64	10.71	3.91	-39.8	-54.3	3.8	1.49e+00	0	49	104	0	51	18801
2026-01-11 00:50:08.66	10.66	3.97	-39.8	-54.3	3.8	1.49e+00	0	49	104	0	51	18737
2026-01-11 00:50:09.67	10.61	4.04	-39.8	-54.3	3.8	1.49e+00	0	49	104	0	51	18774
2026-01-11 00:50:10.68	10.56	4.11	-39.8	-54.3	3.8	1.49e+00	0	49	104	0	51	18745
2026-01-11 00:50:11.69	10.51	4.17	-39.8	-54.2	3.8	1.49e+00	0	49	104	0	51	18721
2026-01-11 00:50:12.70	10.46	4.24	-39.8	-54.3	3.8	1.49e+00	0	49	104	0	51	18761
2026-01-11 00:50:13.71	10.41	4.30	-39.8	-54.3	3.8	1.49e+00	0	49	104	0	51	18745
2026-01-11 00:50:14.72	10.36	4.37	-39.8	-54.2	3.8	1.49e+00	0	49	104	0	51	18724
2026-01-11 00:50:15.73	10.31	4.43	-39.8	-54.3	3.8	1.49e+00	0	49	104	0	51	18733
2026-01-11 00:50:16.74	10.26	4.50	-39.8	-54.3	3.8	1.49e+00	0	49	104	0	51	18759
2026-01-11 00:50:17.75	10.21	4.57	-39.8	-54.3	3.8	1.49e+00	0	49	104	0	51	18781
2026-01-11 00:50:18.76	10.16	4.63	-39.8	-54.2	3.8	1.49e+00	0	49	104	0	51	18713
2026-01-11 00:50:19.78	10.10	4.70	-39.8	-54.3	3.8	1.49e+00	0	49	104	0	51	18772
2026-01-11 00:50:20.79	10.05	4.77	-39.8	-54.3	3.8	1.49e+00	0	49	104	0	51	18736
2026-01-11 00:50:21.80	10.00	4.84	-39.8	-54.3	3.8	1.49e+00	0	50	104	0	51	18768
2026-01-11 00:50:22.81	9.95	4.90	-39.8	-54.3	3.8	1.49e+00	0	50	104	0	51	18741
2026-01-11 00:50:23.82	9.90	4.97	-39.8	-54.3	3.8	1.49e+00	0	49	104	0	51	18756
2026-01-11 00:50:24.83	9.84	5.04	-39.8	-54.3	3.8	1.49e+00	0	50	104	0	51	18758
2026-01-11 00:50:25.84	9.79	5.10	-39.8	-54.3	3.8	1.49e+00	0	50	104	0	51	18768
2026-01-11 00:50:26.86	9.74	5.17	-39.8	-54.3	3.8	1.49e+00	0	49	104	0	51	18753
2026-01-11 00:50:27.87	9.68	5.24	-39.8	-54.3	3.8	1.49e+00	0	50	104	0	51	18810
2026-01-11 00:50:28.88	9.63	5.31	-39.8	-54.2	3.8	1.49e+00	0	50	104	0	51	18710
2026-01-11 00:50:29.89	9.58	5.38	-39.8	-54.2	3.8	1.49e+00	0	50	104	0	51	18713
2026-01-11 00:50:30.90	9.52	5.45	-39.8	-54.3	3.8	1.49e+00	0	50	104	0	51	18793
2026-01-11 00:50:31.91	9.47	5.51	-39.8	-54.2	3.8	1.49e+00	0	50	104	0	51	18720
2026-01-11 00:50:32.92	9.41	5.58	-39.8	-54.3	3.8	1.49e+00	0	50	104	0	51	18732
2026-01-11 00:50:33.93	9.36	5.65	-39.8	-54.3	3.8	1.49e+00	0	50	104	0	51	18786
2026-01-11 00:50:34.94	9.30	5.72	-39.8	-54.3	3.8	1.49e+00	0	50	104	0	51	18797
2026-01-11 00:50:35.95	9.25	5.79	-39.8	-54.3	3.8	1.49e+00	0	50	104	0	51	18783
2026-01-11 00:50:36.96	9.19	5.86	-39.8	-54.3	3.8	1.49e+00	0	50	104	0	51	18807
2026-01-11 00:50:37.97	9.13	5.93	-39.8	-54.3	3.8	1.49e+00	0	50	104	0	51	18790
2026-01-11 00:50:38.98	9.08	6.00	-39.8	-54.3	3.8	1.49e+00	0	50	104	0	51	18824
2026-01-11 00:50:39.99	9.02	6.07	-39.8	-54.3	3.8	1.49e+00	0	50	104	0	51	18757
2026-01-11 00:50:41.01	8.96	6.14	-39.8	-54.2	3.8	1.49e+00	0	50	104	0	51	18690
2026-01-11 00:50:42.02	8.90	6.21	-39.8	-54.2	3.8	1.49e+00	0	50	104	0	51	18687
2026-01-11 00:50:43.03	8.85	6.28	-39.8	-54.3	3.8	1.49e+00	0	50	104	0	51	18781
2026-01-11 00:50:44.04	8.79	6.35	-39.8	-54.3	3.8	1.49e+00	0	51	104	0	51	18804
2026-01-11 00:50:45.05	8.73	6.42	-39.8	-54.3	3.8	1.49e+00	0	51	104	0	51	18736
2026-01-11 00:50:46.06	8.67	6.49	-39.8	-54.3	3.8	1.49e+00	0	51	104	0	51	18813
2026-01-11 00:50:47.07	8.61	6.56	-39.8	-54.3	3.8	1.49e+00	0	51	104	0	51	18747
2026-01-11 00:50:48.08	8.55	6.63	-39.8	-54.3	3.8	1.49e+00	0	51	104	0	51	18799
2026-01-11 00:50:49.09	8.49	6.70	-39.8	-54.3	3.8	1.49e+00	0	51	104	0	51	18779
2026-01-11 00:50:50.10	8.43	6.77	-39.8	-54.3	3.8	1.49e+00	0	51	104	0	51	18792
2026-01-11 00:50:51.11	8.37	6.85	-39.8	-54.3	3.8	1.49e+00	0	51	104	0	51	18802
2026-01-11 00:50:52.13	8.31	6.92	-39.8	-54.3	3.8	1.49e+00	0	51	104	0	51	18780
2026-01-11 00:50:53.14	8.25	6.99	-39.8	-54.3	3.8	1.49e+00	0	51	104	0	51	18793
2026-01-11 00:50:54.15	8.19	7.06	-39.8	-54.3	3.8	1.49e+00	0	51	104	0	51	18765
2026-01-11 00:50:55.16	8.13	7.13	-39.8	-54.3	3.8	1.49e+00	0	51	104	0	51	18737
2026-01-11 00:50:56.17	8.07	7.21	-39.8	-54.3	3.8	1.49e+00	0	51	104	0	51	18797
2026-01-11 00:50:57.18	8.01	7.28	-39.8	-54.2	3.8	1.49e+00	0	51	104	0	51	18714
2026-01-11 00:50:58.19	7.94	7.35	-39.8	-54.3	3.8	1.49e+00	0	51	104	0	51	18815
2026-01-11 00:50:59.20	7.88	7.42	-39.8	-54.3	3.8	1.49e+00	0	51	104	0	51	18758
2026-01-11 00:51:00.21	7.82	7.50	-39.8	-54.3	3.8	1.49e+00	0	51	104	0	51	18790
2026-01-11 00:51:01.23	7.75	7.57	-39.8	-54.3	3.8	1.49e+00	0	51	104	0	51	18768
2026-01-11 00:51:02.24	7.69	7.64	-39.8	-54.2	3.8	1.49e+00	0	51	104	0	51	18707
2026-01-11 00:51:03.25	7.63	7.72	-39.8	-54.3	3.8	1.49e+00	0	51	104	0	51	18785
2026-01-11 00:51:04.26	7.56	7.79	-39.8	-54.3	3.8	1.49e+00	0	51	104	0	51	18749
2026-01-11 00:51:05.27	7.50	7.87	-39.8	-54.3	3.8	1.49e+00	0	51	104	0	51	18783
2026-01-11 00:51:06.28	7.43	7.94	-39.8	-54.3	3.8	1.49e+00	0	52	104	0	51	18794
2026-01-11 00:51:07.29	7.37	8.01	-39.8	-54.3	3.8	1.49e+00	0	51	104	0	51	18757
2026-01-11 00:51:08.30	7.30	8.09	-39.8	-54.3	3.8	1.49e+00	0	52	104	0	51	18744
2026-01-11 00:51:09.31	7.23	8.16	-39.8	-54.3	3.8	1.49e+00	0	52	104	0	51	18795
2026-01-11 00:51:10.32	7.17	8.24	-39.9	-54.3	3.8	1.49e+00	0	52	104	0	51	18869
2026-01-11 00:51:11.33	7.10	8.31	-39.9	-54.4	3.8	1.49e+00	0	52	104	0	51	18997
2026-01-11 00:51:12.35	7.03	8.39	-39.9	-54.4	3.8	1.49e+00	0	52	104	0	51	19007
2026-01-11 00:51:13.36	6.96	8.47	-39.8	-54.2	3.8	1.49e+00	0	52	104	0	51	18722
2026-01-11 00:51:14.37	6.90	8.54	-39.9	-54.4	3.8	1.49e+00	0	52	104	0	51	18970
2026-01-11 00:51:15.37	6.83	8.62	-39.8	-54.2	3.8	1.49e+00	0	52	104	0	51	18696
2026-01-11 00:51:16.38	6.76	8.69	-39.8	-54.3	3.8	1.49e+00	0	52	104	0	51	18910
2026-01-11 00:51:17.39	6.69	8.77	-39.8	-54.3	3.8	1.49e+00	0	52	104	0	51	18917
2026-01-11 00:51:18.40	6.62	8.84	-39.9	-54.3	3.8	1.49e+00	0	52	104	0	51	18939
2026-01-11 00:51:19.41	6.55	8.92	-39.8	-54.3	3.8	1.49e+00	0	52	104	0	51	18851
2026-01-11 00:51:20.42	6.48	9.00	-39.9	-54.3	3.8	1.49e+00	0	52	104	0	51	18927
2026-01-11 00:51:21.43	6.41	9.07	-39.8	-54.3	3.8	1.49e+00	0	52	104	0	51	18740
2026-01-11 00:51:22.45	6.34	9.15	-39.9	-54.4	3.8	1.49e+00	0	52	104	0	51	18953
2026-01-11 00:51:23.46	6.27	9.23	-39.8	-54.3	3.8	1.49e+00	0	52	104	0	51	18786
2026-01-11 00:51:24.47	6.19	9.31	-39.9	-54.4	3.8	1.49e+00	0	52	104	0	51	18998
2026-01-11 00:51:25.48	6.12	9.38	-39.8	-54.3	3.8	1.49e+00	0	52	104	0	51	18889
2026-01-11 00:51:26.49	6.05	9.46	-39.9	-54.4	3.8	1.49e+00	0	52	104	0	51	19069
2026-01-11 00:51:27.50	5.98	9.54	-39.9	-54.4	3.8	1.49e+00	0	52	104	0	51	18968
2026-01-11 00:51:28.51	5.90	9.62	-39.9	-54.4	3.8	1.49e+00	0	53	104	0	51	19150
2026-01-11 00:51:29.52	5.83	9.70	-39.9	-54.4	3.8	1.49e+00	0	52	104	0	51	19116
2026-01-11 00:51:30.53	5.75	9.78	-39.9	-54.4	3.8	1.49e+00	0	52	104	0	51	19136
2026-01-11 00:51:31.54	5.68	9.85	-39.8	-54.3	3.8	1.49e+00	0	52	104	0	51	18788
2026-01-11 00:51:32.55	5.60	9.93	-39.7	-54.2	3.8	1.49e+00	0	53	104	0	51	18729
2026-01-11 00:51:33.56	5.53	10.01	-39.7	-54.2	3.8	1.49e+00	0	52	104	0	51	18659
2026-01-11 00:51:34.57	5.45	10.09	-39.7	-54.3	3.8	1.49e+00	0	52	104	0	51	18774
2026-01-11 00:51:35.58	5.38	10.17	-39.7	-54.3	3.8	1.49e+00	0	53	104	0	51	18755
2026-01-11 00:51:36.59	5.30	10.25	-39.8	-54.4	3.8	1.49e+00	0	53	104	0	51	18975
2026-01-11 00:51:37.59	5.22	10.33	-40.0	-54.6	3.8	1.49e+00	0	53	104	0	51	19479
2026-01-11 00:51:38.61	5.14	10.41	-40.1	-54.7	3.8	1.49e+00	0	52	104	0	51	19684
2026-01-11 00:51:39.61	5.07	10.49	-40.3	-54.8	3.8	1.49e+00	0	53	104	0	51	20037
2026-01-11 00:51:40.62	4.99	10.57	-40.0	-54.6	3.8	1.49e+00	0	53	104	0	51	19405
2026-01-11 00:51:41.63	4.91	10.65	-39.8	-54.3	3.8	1.49e+00	0	53	104	0	51	18937
2026-01-11 00:51:42.64	4.83	10.74	-39.8	-54.4	3.8	1.49e+00	0	53	104	0	51	19028
2026-01-11 00:51:43.65	4.75	10.82	-39.8	-54.4	3.8	1.49e+00	0	53	104	0	51	19039
2026-01-11 00:51:44.66	4.67	10.90	-39.8	-54.4	3.8	1.49e+00	0	53	104	0	51	19049
2026-01-11 00:51:45.67	4.59	10.98	-39.9	-54.4	3.8	1.49e+00	0	53	104	0	51	19094
2026-01-11 00:51:46.68	4.50	11.06	-40.5	-55.0	3.8	1.49e+00	0	53	104	0	51	20361
2026-01-11 00:51:47.69	4.42	11.14	-40.3	-54.8	3.8	1.49e+00	0	53	104	0	52	18742
2026-01-11 00:51:48.70	4.34	11.23	-40.0	-54.6	3.8	1.49e+00	0	53	104	0	51	19402
2026-01-11 00:51:49.71	4.26	11.31	-40.0	-54.6	3.8	1.49e+00	0	53	104	0	51	19488
2026-01-11 00:51:50.72	4.17	11.39	-40.1	-54.6	3.8	1.49e+00	0	53	104	0	51	19500
2026-01-11 00:51:51.73	4.09	11.48	-40.1	-54.6	3.8	1.49e+00	0	53	104	0	51	19591
2026-01-11 00:51:52.74	4.00	11.56	-40.3	-54.7	3.8	1.49e+00	0	53	104	0	51	19773
2026-01-11 00:51:53.75	3.92	11.64	-40.1	-54.6	3.8	1.49e+00	0	53	104	0	51	19500
2026-01-11 00:51:54.76	3.83	11.73	-41.1	-55.4	3.8	1.49e+00	0	53	104	0	52	20292
2026-01-11 00:51:55.77	3.75	11.81	-40.4	-55.0	3.8	1.49e+00	0	53	104	0	52	19318
2026-01-11 00:51:56.78	3.66	11.89	-40.1	-54.6	3.8	1.49e+00	0	53	104	0	52	18373
2026-01-11 00:51:57.79	3.57	11.98	-40.2	-54.7	3.8	1.49e+00	0	53	104	0	52	18585
2026-01-11 00:51:58.80	3.49	12.06	-40.2	-54.7	3.8	1.49e+00	0	53	104	0	52	18626
2026-01-11 00:51:59.81	3.40	12.15	-40.2	-54.7	3.8	1.49e+00	0	53	104	0	52	18521
2026-01-11 00:52:00.82	3.31	12.23	-40.3	-54.8	3.8	1.49e+00	0	53	104	0	52	18899
2026-01-11 00:52:01.83	3.22	12.32	-40.9	-55.0	3.8	1.49e+00	0	53	104	0	52	19176
2026-01-11 00:52:02.83	3.13	12.40	-40.6	-55.1	3.8	1.49e+00	0	53	104	0	52	19508
2026-01-11 00:52:03.84	3.04	12.49	-41.7	-55.2	3.8	1.49e+00	0	53	104	0	53	18666
2026-01-11 00:52:04.85	2.95	12.58	-40.2	-54.7	3.8	1.49e+00	0	53	104	0	52	18590
2026-01-11 00:52:05.86	2.86	12.66	-40.1	-54.7	3.8	1.49e+00	0	53	104	0	52	18680
2026-01-11 00:52:06.87	2.77	12.75	-40.2	-54.7	3.8	1.49e+00	0	53	104	0	52	18594
2026-01-11 00:52:07.88	2.67	12.83	-40.2	-54.4	3.8	1.49e+00	0	53	104	0	52	18091
2026-01-11 00:52:08.89	2.58	12.92	-40.3	-54.3	3.8	1.49e+00	0	53	104	0	52	17820
2026-01-11 00:52:09.90	2.49	13.01	-40.3	-54.3	3.8	1.49e+00	0	53	104	0	52	17768
2026-01-11 00:52:10.91	2.39	13.10	-42.4	-55.0	3.8	1.41e+00	0	53	104	0	55	16192
2026-01-11 00:52:11.92	2.30	13.18	-42.0	-50.1	6.0	1.22e+00	0	53	0	0	55	9255
2026-01-11 00:52:12.93	2.20	13.27	-41.2	-55.7	3.8	3.24e-01	0	54	104	1048576	54	18623
2026-01-11 00:52:13.94	2.11	13.36	-41.4	-48.0	7.8	1.26e+00	0	53	104	1048576	54	7680
2026-01-11 00:52:14.95	2.01	13.45	-41.4	-47.4	8.5	5.26e-02	0	54	0	2097152	54	7195
2026-01-11 00:52:15.96	1.91	13.54	-41.1	-46.7	9.3	2.94e-02	0	54	0	4194304	54	6573
2026-01-11 00:52:16.97	1.81	13.63	-41.0	-46.2	9.9	1.14e-02	0	54	0	6291456	54	6218
2026-01-11 00:52:17.98	1.72	13.72	-40.5	-45.1	10.9	3.60e-03	0	54	0	7340032	53	5827
2026-01-11 00:52:18.99	1.62	13.80	-40.2	-44.4	11.7	5.71e-04	0	53	0	9437184	52	5720
2026-01-11 00:52:19.99	1.52	13.89	-40.0	-44.0	12.2	5.78e-04	0	54	0	11534336	52	5437
2026-01-11 00:52:21.00	1.42	13.98	-40.0	-43.8	12.5	1.69e-04	0	53	0	13631488	51	5641
2026-01-11 00:52:22.01	1.32	14.07	-40.1	-43.9	12.4	1.89e-04	0	54	0	15728640	51	5695
2026-01-11 00:52:23.02	1.22	14.16	-40.1	-44.0	12.4	1.38e-04	0	54	0	16777216	51	5759
2026-01-11 00:52:24.03	1.11	14.25	-40.2	-44.1	12.4	8.46e-05	0	54	0	18874368	51	5805
2026-01-11 00:52:25.04	1.01	14.34	-40.3	-44.1	12.4	1.59e-04	0	54	0	20971520	51	5830
2026-01-11 00:52:26.05	0.91	14.44	-40.4	-44.2	12.3	1.62e-04	0	54	0	23068672	51	5919
2026-01-11 00:52:27.06	0.80	14.53	-40.5	-44.5	12.1	2.17e-04	0	54	0	25165824	51	6081
2026-01-11 00:52:28.07	0.70	14.62	-40.5	-44.3	12.3	2.51e-04	0	54	0	26214400	51	5974
2026-01-11 00:52:29.08	0.59	14.71	-40.4	-44.1	12.7	1.50e-04	0	54	0	28311552	51	5798
2026-01-11 00:52:30.08	0.49	14.80	-40.5	-44.2	12.5	1.13e-04	0	54	0	30408704	51	5916
2026-01-11 00:52:31.09	0.38	14.89	-40.6	-44.3	12.7	6.48e-05	0	54	0	32505856	51	5939
2026-01-11 00:52:32.11	0.27	14.99	-40.7	-44.6	12.4	6.48e-05	0	54	0	34603008	52	5812
2026-01-11 00:52:33.11	0.16	15.08	-40.9	-44.8	12.2	2.14e-04	0	54	0	35651584	52	5991
2026-01-11 00:52:34.13	0.05	15.17	-41.0	-44.9	12.0	3.90e-04	0	54	0	37748736	52	6007
2026-01-11 00:52:35.13	359.95	15.27	-40.9	-44.6	12.5	1.22e-04	0	54	0	39845888	52	5835
2026-01-11 00:52:36.14	359.84	15.36	-40.9	-44.6	12.5	1.21e-04	0	54	0	41943040	52	5843
2026-01-11 00:52:37.15	359.72	15.45	-41.0	-44.9	12.4	1.61e-04	0	54	0	44040192	52	5997
2026-01-11 00:52:38.16	359.61	15.55	-41.0	-44.9	12.3	1.81e-04	0	54	0	45088768	52	6016
2026-01-11 00:52:39.17	359.50	15.64	-41.0	-44.8	12.4	1.16e-04	0	54	0	47185920	52	5970
2026-01-11 00:52:40.18	359.39	15.74	-41.0	-44.8	12.4	1.05e-04	0	54	0	49283072	52	5992
2026-01-11 00:52:41.19	359.27	15.83	-41.0	-44.8	12.4	1.63e-04	0	54	0	51380224	52	5932
2026-01-11 00:52:42.20	359.16	15.92	-40.8	-44.5	12.7	1.30e-04	0	54	0	53477376	52	5743
2026-01-11 00:52:43.21	359.04	16.02	-41.1	-45.0	12.2	1.88e-04	0	54	0	55574528	52	6086
2026-01-11 00:52:44.22	358.93	16.12	-40.9	-44.7	12.4	1.41e-04	0	54	0	56623104	52	5899
2026-01-11 00:52:45.23	358.81	16.21	-40.9	-44.7	12.4	1.27e-04	0	54	0	58720256	52	5893
2026-01-11 00:52:46.24	358.69	16.31	-40.9	-44.6	12.5	1.25e-04	0	54	0	60817408	52	5840
2026-01-11 00:52:47.25	358.57	16.40	-40.9	-44.7	12.3	1.57e-04	0	54	0	62914560	52	5887
2026-01-11 00:52:48.26	358.45	16.50	-40.9	-44.7	12.3	1.43e-04	0	54	0	65011712	52	5887
2026-01-11 00:52:49.27	358.33	16.60	-40.6	-44.1	12.9	1.50e-04	0	54	0	66060288	52	5505
2026-01-11 00:52:50.28	358.21	16.69	-40.3	-43.7	13.3	2.51e-05	0	54	0	68157440	52	5233
2026-01-11 00:52:51.29	358.09	16.79	-40.5	-44.0	13.0	2.28e-05	0	54	0	70254592	52	5424
2026-01-11 00:52:52.30	357.97	16.89	-40.4	-43.9	13.0	3.12e-05	0	54	0	72351744	52	5375
2026-01-11 00:52:53.31	357.85	16.99	-40.3	-43.7	13.2	2.74e-05	0	54	0	74448896	52	5270
2026-01-11 00:52:54.32	357.72	17.08	-40.3	-43.6	13.2	2.44e-05	0	54	0	75497472	52	5218
2026-01-11 00:52:55.33	357.60	17.18	-40.1	-43.4	13.3	2.74e-05	0	54	0	77594624	52	5090
2026-01-11 00:52:56.34	357.47	17.28	-40.0	-43.2	13.6	1.14e-05	0	54	0	79691776	51	5247
2026-01-11 00:52:57.35	357.34	17.38	-39.9	-43.1	13.7	9.10e-06	0	54	0	81788928	51	5185
2026-01-11 00:52:58.36	357.22	17.48	-39.8	-42.9	13.8	5.30e-06	0	54	0	83886080	51	5080
2026-01-11 00:52:59.36	357.09	17.58	-39.7	-42.8	13.8	6.10e-06	0	54	0	84934656	51	5035
2026-01-11 00:53:00.38	356.96	17.68	-39.6	-42.7	13.8	1.50e-06	0	54	0	87031808	51	4951
2026-01-11 00:53:01.38	356.83	17.78	-39.8	-43.2	13.2	1.22e-05	0	54	0	89128960	51	5261
2026-01-11 00:53:02.39	356.70	17.88	-40.0	-43.7	12.5	9.99e-05	0	54	0	91226112	51	5586
2026-01-11 00:53:03.40	356.57	17.98	-40.4	-44.7	11.2	4.83e-04	0	54	0	93323264	51	6270
2026-01-11 00:53:04.41	356.43	18.08	-40.6	-45.6	10.1	3.13e-03	0	54	0	94371840	51	6956
2026-01-11 00:53:05.42	356.30	18.18	-40.7	-46.7	8.6	2.64e-02	0	54	0	96468992	52	7432
2026-01-11 00:53:06.43	356.16	18.28	-41.0	-48.3	6.9	9.69e-02	0	54	0	98566144	52	8939
2026-01-11 00:53:07.44	356.03	18.38	-41.0	-49.4	5.8	2.54e-01	0	54	0	100663296	52	10092
2026-01-11 00:53:08.45	355.89	18.48	-41.0	-50.3	5.1	4.69e-01	0	54	0	102760448	52	11286
2026-01-11 00:53:09.46	355.75	18.58	-41.0	-51.3	4.5	9.82e-01	0	55	0	103809024	52	12653
2026-01-11 00:53:10.47	355.62	18.69	-41.0	-52.4	4.1	1.34e+00	0	54	0	104857600	52	14287
2026-01-11 00:53:11.48	355.48	18.79	-41.1	-54.1	3.8	1.48e+00	0	54	104	104857600	52	17351
2026-01-11 00:53:12.49	355.34	18.89	-41.1	-55.2	3.8	1.49e+00	0	55	104	104857600	52	19634
2026-01-11 00:53:13.50	355.19	18.99	-41.1	-55.4	3.8	1.49e+00	0	54	104	104857600	52	20152
2026-01-11 00:53:14.51	355.05	19.10	-41.0	-54.8	3.8	1.49e+00	0	55	104	104857600	52	18858
2026-01-11 00:53:15.52	354.91	19.20	-41.0	-54.1	3.8	1.49e+00	0	55	104	104857600	52	17362
2026-01-11 00:53:16.53	354.76	19.30	-41.0	-54.0	3.8	1.49e+00	0	54	104	104857600	52	17213
2026-01-11 00:53:17.54	354.62	19.41	-41.0	-54.6	3.8	1.49e+00	0	55	104	104857600	52	18335
2026-01-11 00:53:18.55	354.47	19.51	-41.0	-54.9	3.8	1.49e+00	0	55	104	104857600	52	19107
2026-01-11 00:53:19.56	354.33	19.62	-41.1	-54.9	3.8	1.49e+00	0	54	104	104857600	52	19080
2026-01-11 00:53:20.57	354.18	19.72	-41.1	-54.9	3.8	1.49e+00	0	54	104	104857600	52	19119
2026-01-11 00:53:21.57	354.03	19.82	-41.2	-55.1	3.8	1.49e+00	0	54	104	104857600	52	19409
2026-01-11 00:53:22.58	353.88	19.93	-41.2	-54.9	3.8	1.49e+00	0	55	104	104857600	52	19155
2026-01-11 00:53:23.59	353.73	20.03	-41.1	-54.6	3.8	1.49e+00	0	54	104	104857600	52	18513
2026-01-11 00:53:24.60	353.57	20.14	-41.2	-54.2	3.9	1.49e+00	0	55	104	104857600	53	16572
2026-01-11 00:53:25.61	353.42	20.25	-41.3	-53.2	4.0	1.48e+00	0	55	104	104857600	53	14852
2026-01-11 00:53:26.62	353.27	20.35	-41.4	-52.3	4.3	1.40e+00	0	55	0	104857600	53	13394
2026-01-11 00:53:27.63	353.11	20.46	-41.6	-52.6	4.3	1.20e+00	0	55	0	105906176	53	13806
2026-01-11 00:53:28.64	352.95	20.56	-41.7	-52.2	4.5	1.06e+00	0	55	0	106954752	53	13117
2026-01-11 00:53:29.65	352.80	20.67	-41.9	-52.0	4.7	9.32e-01	0	55	0	109051904	54	12139
2026-01-11 00:53:30.66	352.64	20.78	-41.9	-51.6	5.0	8.02e-01	0	55	0	111149056	54	11562
2026-01-11 00:53:31.66	352.48	20.88	-41.8	-50.9	5.5	6.06e-01	0	55	0	113246208	54	10685
2026-01-11 00:53:32.67	352.32	20.99	-41.6	-49.8	6.2	3.57e-01	0	55	0	115343360	54	9404
2026-01-11 00:53:33.68	352.15	21.10	-41.5	-48.7	7.3	2.37e-01	0	55	0	116391936	54	8333
2026-01-11 00:53:34.69	351.99	21.20	-41.6	-48.3	7.8	1.08e-01	0	55	0	118489088	54	7970
2026-01-11 00:53:35.70	351.82	21.31	-41.7	-48.4	7.8	6.64e-02	0	55	0	120586240	54	8081
2026-01-11 00:53:36.71	351.66	21.42	-41.7	-47.9	8.4	6.06e-02	0	55	0	122683392	54	7588
2026-01-11 00:53:37.72	351.49	21.53	-41.5	-47.1	9.1	3.31e-02	0	55	0	124780544	54	6959
2026-01-11 00:53:38.73	351.32	21.64	-41.2	-46.4	9.9	2.04e-02	0	55	0	125829120	54	6396
2026-01-11 00:53:39.74	351.15	21.75	-40.9	-45.5	10.9	4.63e-03	0	55	0	127926272	53	6073
2026-01-11 00:53:40.75	350.98	21.85	-40.6	-44.9	11.6	1.37e-03	0	55	0	130023424	53	5683
2026-01-11 00:53:41.76	350.81	21.96	-40.6	-44.7	11.8	4.74e-04	0	55	0	132120576	53	5547
2026-01-11 00:53:42.77	350.64	22.07	-40.4	-44.2	12.3	1.98e-04	0	55	0	134217728	52	5557
2026-01-11 00:53:43.78	350.46	22.18	-40.4	-44.2	12.4	1.22e-04	0	55	0	135266304	52	5564
2026-01-11 00:53:44.79	350.29	22.29	-40.1	-43.6	13.1	3.35e-05	0	55	0	137363456	52	5185
2026-01-11 00:53:45.80	350.11	22.40	-40.0	-43.3	13.5	1.44e-05	0	55	0	139460608	52	5033
2026-01-11 00:53:46.81	349.93	22.51	-40.1	-43.4	13.5	1.44e-05	0	55	0	141557760	52	5064
2026-01-11 00:53:47.82	349.75	22.62	-40.3	-43.6	13.4	9.10e-06	0	55	0	143654912	52	5212
2026-01-11 00:53:48.82	349.57	22.73	-40.6	-44.1	13.0	2.44e-05	0	55	0	144703488	52	5486
2026-01-11 00:53:49.83	349.39	22.84	-40.7	-44.2	13.0	2.89e-05	0	55	0	146800640	52	5554
2026-01-11 00:53:50.84	349.20	22.95	-40.7	-44.1	13.2	2.89e-05	0	55	0	148897792	52	5494
2026-01-11 00:53:51.85	349.02	23.06	-40.8	-44.3	13.0	3.05e-05	0	55	0	150994944	52	5597
2026-01-11 00:53:52.86	348.83	23.17	-40.5	-43.7	13.7	6.10e-06	0	55	0	153092096	52	5244
2026-01-11 00:53:53.87	348.65	23.28	-40.3	-43.3	14.0	1.50e-06	0	55	0	155189248	52	5035
2026-01-11 00:53:54.88	348.46	23.40	-40.5	-43.7	13.8	7.00e-07	0	55	0	156237824	52	5235
2026-01-11 00:53:55.89	348.27	23.51	-40.8	-44.1	13.5	9.10e-06	0	55	0	158334976	52	5469
2026-01-11 00:53:56.90	348.07	23.62	-40.8	-44.1	13.6	1.22e-05	0	55	0	160432128	52	5467
2026-01-11 00:53:57.91	347.88	23.73	-40.9	-44.2	13.4	1.14e-05	0	55	0	162529280	52	5532
2026-01-11 00:53:58.92	347.69	23.84	-40.9	-44.1	13.4	6.80e-06	0	55	0	164626432	52	5528
2026-01-11 00:53:59.93	347.49	23.95	-40.8	-43.9	13.7	1.06e-05	0	55	0	165675008	52	5401
2026-01-11 00:54:00.94	347.29	24.06	-41.0	-44.4	13.3	2.74e-05	0	55	0	167772160	52	5665
2026-01-11 00:54:01.95	347.09	24.18	-41.0	-44.4	13.3	1.22e-05	0	55	0	169869312	52	5658
2026-01-11 00:54:02.96	346.89	24.29	-41.2	-44.7	12.9	3.12e-05	0	55	0	171966464	53	5573
2026-01-11 00:54:03.97	346.69	24.40	-41.4	-45.0	12.7	5.87e-05	0	55	0	174063616	53	5727
2026-01-11 00:54:04.98	346.49	24.51	-41.5	-45.3	12.4	9.30e-05	0	55	0	175112192	53	5961
2026-01-11 00:54:05.99	346.28	24.63	-41.6	-45.3	12.4	1.70e-04	0	55	0	177209344	53	5989
2026-01-11 00:54:07.00	346.08	24.74	-41.7	-45.5	12.2	1.56e-04	0	55	0	179306496	53	6119
2026-01-11 00:54:08.01	345.87	24.85	-41.9	-46.1	11.6	5.26e-04	0	55	0	181403648	54	6155
2026-01-11 00:54:09.02	345.66	24.96	-42.2	-46.6	11.2	9.58e-04	0	55	0	183500800	54	6526
2026-01-11 00:54:10.04	345.45	25.08	-42.2	-46.6	11.2	1.46e-03	0	55	0	184549376	54	6507
2026-01-11 00:54:11.05	345.24	25.19	-42.1	-46.5	11.3	1.27e-03	0	55	0	186646528	54	6443
2026-01-11 00:54:12.05	345.02	25.30	-42.1	-46.4	11.4	1.19e-03	0	55	0	188743680	54	6395
2026-01-11 00:54:13.06	344.81	25.41	-42.0	-46.2	11.6	9.56e-04	0	55	0	190840832	54	6266
2026-01-11 00:54:14.08	344.59	25.53	-41.9	-46.0	11.9	3.76e-04	0	55	0	192937984	54	6071
2026-01-11 00:54:15.09	344.37	25.64	-42.0	-46.1	11.7	4.52e-04	0	55	0	193986560	54	6181
2026-01-11 00:54:16.10	344.15	25.75	-41.9	-45.9	11.9	4.24e-04	0	55	0	196083712	54	6049
2026-01-11 00:54:17.11	343.93	25.87	-41.9	-45.8	12.0	3.52e-04	0	55	0	198180864	54	5987
2026-01-11 00:54:18.12	343.71	25.98	-42.0	-46.1	11.8	3.16e-04	0	55	0	200278016	54	6144
2026-01-11 00:54:19.13	343.48	26.09	-41.9	-45.8	12.1	3.10e-04	0	55	0	202375168	54	5953
2026-01-11 00:54:20.14	343.25	26.21	-41.9	-45.9	12.1	3.66e-04	0	55	0	203423744	54	6012
2026-01-11 00:54:21.15	343.03	26.32	-41.8	-45.6	12.3	2.72e-04	0	55	0	205520896	54	5851
2026-01-11 00:54:22.16	342.80	26.43	-41.7	-45.4	12.5	1.04e-04	0	55	0	207618048	54	5683
2026-01-11 00:54:23.17	342.56	26.54	-41.8	-45.5	12.4	1.04e-04	0	55	0	209715200	54	5780
2026-01-11 00:54:24.18	342.33	26.66	-41.6	-45.2	12.8	5.72e-05	0	55	0	211812352	54	5544
2026-01-11 00:54:25.19	342.10	26.77	-41.6	-45.2	12.8	4.73e-05	0	55	0	212860928	54	5559
2026-01-11 00:54:26.20	341.86	26.88	-41.6	-45.2	12.7	5.72e-05	0	55	0	214958080	54	5539
2026-01-11 00:54:27.20	341.62	26.99	-41.6	-45.2	12.8	4.73e-05	0	55	0	217055232	54	5553
2026-01-11 00:54:28.21	341.38	27.11	-41.5	-45.0	13.0	6.02e-05	0	55	0	219152384	54	5444
2026-01-11 00:54:29.22	341.14	27.22	-41.6	-45.1	13.0	4.27e-05	0	55	0	221249536	54	5487
2026-01-11 00:54:30.23	340.90	27.33	-41.5	-45.0	13.0	2.74e-05	0	55	0	223346688	54	5440
2026-01-11 00:54:31.24	340.65	27.44	-41.6	-45.1	12.9	4.34e-05	0	55	0	224395264	54	5494
2026-01-11 00:54:32.25	340.41	27.55	-41.7	-45.4	12.6	3.96e-05	0	55	0	226492416	54	5676
2026-01-11 00:54:33.26	340.16	27.67	-41.8	-45.4	12.6	6.56e-05	0	55	0	228589568	54	5708
2026-01-11 00:54:34.27	339.91	27.78	-41.5	-45.0	13.0	8.46e-05	0	55	0	230686720	54	5435
2026-01-11 00:54:35.28	339.66	27.89	-41.7	-45.4	12.6	1.59e-04	0	55	0	232783872	54	5678
2026-01-11 00:54:36.29	339.40	28.00	-41.7	-45.3	12.7	8.23e-05	0	55	0	233832448	54	5627
2026-01-11 00:54:37.30	339.15	28.11	-41.8	-45.4	12.7	4.50e-05	0	55	0	235929600	54	5690
2026-01-11 00:54:38.31	338.89	28.22	-41.6	-45.1	12.9	7.47e-05	0	56	0	238026752	54	5519
2026-01-11 00:54:39.32	338.63	28.33	-41.6	-45.2	12.9	4.11e-05	0	55	0	240123904	54	5534
2026-01-11 00:54:40.33	338.37	28.44	-41.7	-45.4	12.7	6.40e-05	0	55	0	242221056	54	5684
2026-01-11 00:54:41.34	338.10	28.55	-41.5	-45.0	13.1	3.81e-05	0	55	0	243269632	54	5410
2026-01-11 00:54:42.35	337.84	28.66	-41.6	-45.1	13.1	4.11e-05	0	55	0	245366784	54	5473
2026-01-11 00:54:43.36	337.57	28.77	-41.7	-45.3	12.7	7.55e-05	0	55	0	247463936	54	5639
2026-01-11 00:54:44.37	337.30	28.88	-41.8	-45.4	12.7	9.76e-05	0	55	0	249561088	54	5675
2026-01-11 00:54:45.37	337.04	28.99	-42.0	-45.9	12.2	1.34e-04	0	55	0	251658240	54	6012
2026-01-11 00:54:46.38	336.76	29.10	-42.1	-46.1	12.0	2.78e-04	0	55	0	252706816	54	6137
2026-01-11 00:54:47.39	336.49	29.21	-42.1	-46.0	12.0	3.88e-04	0	55	0	254803968	54	6097
2026-01-11 00:54:48.40	336.21	29.32	-41.8	-45.6	12.5	2.84e-04	0	55	0	256901120	54	5805
2026-01-11 00:54:49.41	335.94	29.42	-41.7	-45.2	12.9	1.14e-04	0	55	0	258998272	54	5569
2026-01-11 00:54:50.42	335.66	29.53	-41.4	-44.8	13.3	2.74e-05	0	55	0	261095424	54	5287
2026-01-11 00:54:51.43	335.37	29.64	-41.4	-44.6	13.4	1.37e-05	0	55	0	262144000	54	5214
2026-01-11 00:54:52.44	335.09	29.75	-41.5	-44.8	13.3	1.44e-05	0	55	0	264241152	54	5309
2026-01-11 00:54:53.45	334.81	29.85	-41.5	-44.9	13.3	1.14e-05	0	55	0	266338304	54	5344
2026-01-11 00:54:54.46	334.52	29.96	-41.6	-45.1	13.0	3.20e-05	0	55	0	268435456	54	5524
2026-01-11 00:54:55.47	334.23	30.06	-41.8	-45.5	12.7	7.85e-05	0	55	0	270532608	54	5727
2026-01-11 00:54:56.48	333.94	30.17	-41.8	-45.4	12.8	7.78e-05	0	55	0	271581184	54	5693
2026-01-11 00:54:57.49	333.64	30.27	-42.0	-45.7	12.4	1.11e-04	0	55	0	273678336	54	5921
2026-01-11 00:54:58.50	333.35	30.38	-42.2	-46.2	11.9	3.37e-04	0	55	0	275775488	54	6261
2026-01-11 00:54:59.51	333.05	30.48	-42.4	-46.7	11.4	6.78e-04	0	55	0	277872640	55	6223
2026-01-11 00:55:00.52	332.75	30.59	-42.6	-47.2	10.9	1.62e-03	0	56	0	279969792	55	6579
2026-01-11 00:55:01.53	332.45	30.69	-42.9	-47.6	10.6	3.25e-03	0	55	0	281018368	56	6539
2026-01-11 00:55:02.54	332.15	30.79	-42.8	-47.5	10.8	3.31e-03	0	55	0	283115520	56	6426
2026-01-11 00:55:03.55	331.84	30.89	-43.0	-48.0	10.3	3.60e-03	0	56	0	285212672	56	6815
2026-01-11 00:55:04.56	331.54	30.99	-42.6	-46.8	11.4	2.78e-03	0	55	0	287309824	56	5988
2026-01-11 00:55:05.57	331.23	31.09	-42.3	-46.1	12.1	4.49e-04	0	55	0	289406976	56	5524
2026-01-11 00:55:06.58	330.92	31.19	-42.2	-46.0	12.3	2.03e-04	0	55	0	291504128	56	5464
2026-01-11 00:55:07.59	330.61	31.29	-42.3	-46.2	12.1	1.42e-04	0	55	0	292552704	56	5566
2026-01-11 00:55:08.60	330.29	31.39	-42.5	-46.6	11.7	3.07e-04	0	55	0	294649856	56	5853
2026-01-11 00:55:09.61	329.97	31.49	-42.6	-47.0	11.4	8.16e-04	0	55	0	296747008	56	6076
2026-01-11 00:55:10.61	329.66	31.59	-42.9	-47.5	10.7	2.23e-03	0	55	0	298844160	56	6479
2026-01-11 00:55:11.62	329.34	31.68	-42.8	-47.4	10.8	4.47e-03	0	55	0	300941312	56	6353
2026-01-11 00:55:12.63	329.02	31.78	-42.9	-47.6	10.6	4.25e-03	0	55	0	301989888	56	6558
2026-01-11 00:55:13.64	328.69	31.88	-43.2	-48.2	10.2	4.77e-03	0	55	0	304087040	56	7011
2026-01-11 00:55:14.65	328.37	31.97	-43.1	-48.1	10.1	4.86e-03	0	55	0	306184192	56	6942
2026-01-11 00:55:15.66	328.04	32.06	-43.2	-48.4	9.8	8.50e-03	0	55	0	308281344	57	6764
2026-01-11 00:55:16.67	327.71	32.16	-43.4	-48.9	9.3	1.49e-02	0	56	0	310378496	57	7157
2026-01-11 00:55:17.68	327.38	32.25	-43.4	-48.8	9.4	4.17e-02	0	55	0	311427072	57	7085
2026-01-11 00:55:18.69	327.04	32.34	-43.5	-49.4	8.8	3.23e-02	0	56	0	313524224	57	7547
2026-01-11 00:55:19.70	326.71	32.43	-43.8	-50.2	8.0	5.46e-02	0	55	0	315621376	58	7896
2026-01-11 00:55:20.71	326.37	32.52	-43.7	-50.0	8.2	4.21e-02	0	55	0	317718528	58	7656
2026-01-11 00:55:21.72	326.03	32.61	-43.6	-49.7	8.4	5.54e-02	0	55	0	319815680	58	7412
2026-01-11 00:55:22.73	325.69	32.70	-43.5	-49.2	8.9	2.16e-02	0	55	0	320864256	58	7018
2026-01-11 00:55:23.74	325.35	32.78	-43.4	-48.8	9.4	1.89e-02	0	56	0	322961408	58	6720
2026-01-11 00:55:24.75	325.00	32.87	-43.2	-48.4	9.9	1.34e-02	0	55	0	325058560	58	6363
2026-01-11 00:55:25.76	324.65	32.96	-43.1	-47.9	10.3	7.28e-03	0	55	0	327155712	57	6398
2026-01-11 00:55:26.77	324.31	33.04	-43.0	-47.8	10.5	4.16e-03	0	55	0	329252864	57	6299
2026-01-11 00:55:27.78	323.96	33.12	-43.0	-47.8	10.5	3.49e-03	0	55	0	330301440	57	6281
2026-01-11 00:55:28.79	323.60	33.21	-43.1	-48.0	10.3	4.64e-03	0	56	0	332398592	57	6431
2026-01-11 00:55:29.79	323.25	33.29	-43.0	-47.8	10.4	3.86e-03	0	55	0	334495744	57	6332
2026-01-11 00:55:30.80	322.90	33.37	-42.9	-47.5	10.7	7.47e-03	0	55	0	336592896	57	6085
2026-01-11 00:55:31.81	322.54	33.45	-42.9	-47.6	10.6	3.58e-03	0	56	0	338690048	57	6189
2026-01-11 00:55:32.83	322.18	33.53	-42.8	-47.3	11.0	3.64e-03	0	56	0	339738624	57	5930
2026-01-11 00:55:33.83	321.82	33.60	-42.7	-47.0	11.4	1.50e-03	0	55	0	341835776	57	5758
2026-01-11 00:55:34.84	321.46	33.68	-42.6	-46.8	11.5	1.40e-03	0	55	0	343932928	57	5617
2026-01-11 00:55:35.85	321.09	33.75	-42.7	-47.1	11.2	1.13e-03	0	55	0	346030080	57	5832
2026-01-11 00:55:36.86	320.73	33.83	-42.9	-47.6	10.7	1.89e-03	0	56	0	348127232	57	6197
2026-01-11 00:55:37.87	320.36	33.90	-43.4	-49.0	9.1	7.83e-03	0	56	0	349175808	57	7246
2026-01-11 00:55:38.88	319.99	33.97	-43.6	-49.7	8.4	4.46e-02	0	55	0	351272960	58	7411
2026-01-11 00:55:39.89	319.62	34.04	-43.4	-48.8	9.3	2.84e-02	0	55	0	353370112	58	6712
2026-01-11 00:55:40.90	319.24	34.11	-42.9	-47.6	10.5	9.72e-03	0	56	0	355467264	57	6192
2026-01-11 00:55:41.91	318.87	34.18	-42.7	-47.0	11.3	1.82e-03	0	56	0	357564416	57	5783
2026-01-11 00:55:42.92	318.49	34.24	-42.5	-46.6	11.7	6.36e-04	0	56	0	359661568	57	5521
2026-01-11 00:55:43.93	318.12	34.31	-42.4	-46.4	11.9	5.40e-04	0	56	0	360710144	56	5718
2026-01-11 00:55:44.94	317.74	34.37	-42.4	-46.4	11.9	4.98e-04	0	55	0	362807296	56	5669
2026-01-11 00:55:45.95	317.36	34.43	-42.4	-46.4	12.0	6.16e-04	0	56	0	364904448	56	5662
2026-01-11 00:55:46.96	316.98	34.50	-42.4	-46.3	12.0	3.11e-04	0	56	0	367001600	56	5651
2026-01-11 00:55:47.97	316.59	34.56	-42.2	-46.0	12.3	4.67e-04	0	56	0	368050176	56	5451
2026-01-11 00:55:48.98	316.21	34.61	-41.7	-45.1	13.1	2.67e-05	0	56	0	370147328	54	5497
2026-01-11 00:55:49.99	315.82	34.67	-40.7	-43.5	14.7	7.00e-07	0	56	0	372244480	53	4862
2026-01-11 00:55:51.00	315.43	34.73	-40.3	-42.9	15.4	7.00e-07	0	55	0	374341632	52	4767
2026-01-11 00:55:52.01	315.04	34.78	-40.1	-42.6	15.7	0.00e+00	0	56	0	376438784	52	4610
2026-01-11 00:55:53.01	314.66	34.83	-40.2	-42.7	15.6	0.00e+00	0	55	0	377487360	52	4656
2026-01-11 00:55:54.02	314.27	34.89	-40.3	-42.8	15.4	0.00e+00	0	55	0	379584512	52	4731
2026-01-11 00:55:55.03	313.87	34.94	-40.4	-43.0	15.3	0.00e+00	0	56	0	381681664	52	4830
2026-01-11 00:55:56.04	313.48	34.99	-40.5	-43.1	15.1	0.00e+00	0	55	0	383778816	52	4909
2026-01-11 00:55:57.05	313.09	35.03	-40.5	-43.2	15.1	0.00e+00	0	56	0	385875968	52	4951
2026-01-11 00:55:58.06	312.69	35.08	-41.0	-44.0	14.2	1.50e-06	0	55	0	387973120	52	5436
2026-01-11 00:55:59.07	312.29	35.12	-41.4	-44.7	13.5	7.60e-06	0	56	0	389021696	53	5557
2026-01-11 00:56:00.08	311.89	35.17	-41.5	-44.9	13.3	1.29e-05	0	55	0	391118848	53	5673
2026-01-11 00:56:01.09	311.49	35.21	-41.4	-44.7	13.5	1.37e-05	0	55	0	393216000	53	5572
2026-01-11 00:56:02.10	311.09	35.25	-41.2	-44.3	13.9	5.30e-06	0	56	0	395313152	53	5315
2026-01-11 00:56:03.11	310.69	35.28	-40.9	-43.9	14.3	0.00e+00	0	56	0	397410304	53	5046
2026-01-11 00:56:04.12	310.29	35.32	-40.9	-43.8	14.5	1.50e-06	0	55	0	398458880	53	5012
2026-01-11 00:56:05.13	309.89	35.36	-41.1	-44.2	14.1	1.50e-06	0	56	0	400556032	53	5221
2026-01-11 00:56:06.14	309.48	35.39	-41.0	-44.0	14.3	1.50e-06	0	55	0	402653184	53	5120
2026-01-11 00:56:07.15	309.08	35.42	-41.0	-44.1	14.1	0.00e+00	0	55	0	404750336	53	5165
2026-01-11 00:56:08.15	308.68	35.45	-41.0	-44.0	14.2	7.00e-07	0	56	0	406847488	53	5150
2026-01-11 00:56:09.16	308.27	35.48	-41.0	-44.0	14.2	7.00e-07	0	56	0	407896064	53	5144
2026-01-11 00:56:10.17	307.86	35.51	-41.1	-44.1	14.1	1.50e-06	0	55	0	409993216	53	5197
2026-01-11 00:56:11.18	307.46	35.53	-41.3	-44.5	13.7	3.80e-06	0	55	0	412090368	53	5444
2026-01-11 00:56:12.19	307.05	35.56	-41.1	-44.2	14.0	3.80e-06	0	56	0	414187520	53	5263
2026-01-11 00:56:13.20	306.64	35.58	-40.7	-43.4	14.8	3.00e-06	0	55	0	416284672	53	4807
2026-01-11 00:56:14.21	306.23	35.60	-40.3	-42.9	15.4	0.00e+00	0	56	0	417333248	52	4774
2026-01-11 00:56:15.22	305.82	35.62	-40.3	-42.8	15.5	0.00e+00	0	56	0	419430400	52	4708
2026-01-11 00:56:16.23	305.41	35.63	-40.7	-43.4	14.8	0.00e+00	0	55	0	421527552	52	5093
2026-01-11 00:56:17.24	305.00	35.65	-41.3	-44.5	13.7	2.20e-06	0	55	0	423624704	53	5451
2026-01-11 00:56:18.25	304.59	35.66	-41.6	-45.1	13.1	1.52e-05	0	56	0	425721856	53	5810
2026-01-11 00:56:19.26	304.17	35.68	-41.7	-45.1	13.2	3.66e-05	0	55	0	426770432	54	5506
2026-01-11 00:56:20.27	303.76	35.69	-41.8	-45.4	12.8	4.04e-05	0	55	0	428867584	54	5691
2026-01-11 00:56:21.28	303.35	35.70	-41.9	-45.6	12.7	8.54e-05	0	56	0	430964736	54	5806
2026-01-11 00:56:22.29	302.94	35.70	-41.7	-45.1	13.1	6.17e-05	0	55	0	433061888	54	5503
2026-01-11 00:56:23.30	302.53	35.71	-41.5	-44.9	13.3	3.05e-05	0	56	0	435159040	54	5384
2026-01-11 00:56:24.30	302.12	35.71	-41.3	-44.4	13.8	3.00e-06	0	56	0	436207616	54	5085
2026-01-11 00:56:25.32	301.70	35.71	-41.3	-44.5	13.8	5.30e-06	0	56	0	438304768	54	5115
2026-01-11 00:56:26.33	301.29	35.71	-41.3	-44.5	13.7	9.10e-06	0	55	0	440401920	54	5116
2026-01-11 00:56:27.34	300.87	35.71	-41.4	-44.7	13.5	1.44e-05	0	56	0	442499072	54	5248
2026-01-11 00:56:28.35	300.46	35.71	-41.5	-44.8	13.4	1.29e-05	0	56	0	444596224	54	5314
2026-01-11 00:56:29.35	300.05	35.71	-41.5	-44.9	13.3	2.44e-05	0	56	0	445644800	54	5375
2026-01-11 00:56:30.36	299.64	35.70	-41.5	-44.8	13.5	1.60e-05	0	56	0	447741952	54	5289
2026-01-11 00:56:31.37	299.23	35.69	-41.1	-44.1	14.2	3.00e-06	0	56	0	449839104	54	4895
2026-01-11 00:56:32.38	298.82	35.68	-40.7	-43.5	14.5	0.00e+00	0	55	0	451936256	53	4850
2026-01-11 00:56:33.39	298.40	35.67	-40.7	-43.5	14.7	7.00e-07	0	56	0	454033408	53	4846
2026-01-11 00:56:34.40	297.99	35.66	-41.1	-44.1	14.2	7.00e-07	0	56	0	456130560	53	5173
2026-01-11 00:56:35.41	297.58	35.64	-41.3	-44.5	13.8	5.30e-06	0	56	0	457179136	53	5403
2026-01-11 00:56:36.42	297.17	35.62	-41.3	-44.5	13.8	1.14e-05	0	56	0	459276288	53	5408
2026-01-11 00:56:37.43	296.76	35.61	-41.3	-44.5	13.7	3.80e-06	0	56	0	461373440	53	5430
2026-01-11 00:56:38.44	296.35	35.59	-41.7	-45.1	13.1	2.28e-05	0	56	0	463470592	53	5834
2026-01-11 00:56:39.45	295.94	35.57	-42.1	-45.9	12.3	5.95e-05	0	56	0	465567744	54	6034
2026-01-11 00:56:40.46	295.53	35.54	-42.2	-46.1	12.0	3.44e-04	0	56	0	466616320	55	5850
2026-01-11 00:56:41.47	295.12	35.52	-42.0	-45.9	12.2	2.33e-04	0	56	0	468713472	55	5677
2026-01-11 00:56:42.48	294.72	35.49	-42.0	-45.8	12.4	1.26e-04	0	56	0	470810624	55	5631
2026-01-11 00:56:43.49	294.31	35.46	-41.6	-45.1	13.1	2.74e-05	0	56	0	472907776	55	5175
2026-01-11 00:56:44.50	293.90	35.43	-41.5	-44.9	13.3	1.83e-05	0	56	0	475004928	54	5341
2026-01-11 00:56:45.51	293.50	35.40	-41.7	-45.2	12.9	2.67e-05	0	56	0	476053504	54	5585
2026-01-11 00:56:46.52	293.09	35.37	-42.3	-46.4	11.8	2.18e-04	0	56	0	478150656	55	6016
2026-01-11 00:56:47.53	292.69	35.33	-42.5	-46.9	11.2	1.34e-03	0	56	0	480247808	55	6412
2026-01-11 00:56:48.54	292.28	35.30	-42.7	-47.2	11.1	2.26e-03	0	56	0	482344960	56	6226
2026-01-11 00:56:49.55	291.88	35.26	-42.6	-46.8	11.5	1.43e-03	0	56	0	484442112	56	5947
2026-01-11 00:56:50.56	291.48	35.22	-42.5	-46.7	11.6	4.51e-04	0	56	0	485490688	56	5864
2026-01-11 00:56:51.57	291.08	35.18	-41.8	-45.3	12.9	1.01e-04	0	56	0	487587840	55	5299
2026-01-11 00:56:52.58	290.68	35.14	-41.6	-44.9	13.4	7.09e-05	0	56	0	489684992	54	5372
2026-01-11 00:56:53.59	290.28	35.10	-41.6	-44.9	13.2	2.67e-05	0	56	0	491782144	54	5386
2026-01-11 00:56:54.60	289.89	35.05	-41.9	-45.6	12.7	6.48e-05	0	56	0	493879296	54	5792
2026-01-11 00:56:55.61	289.49	35.00	-41.8	-45.5	12.7	1.45e-04	0	56	0	494927872	54	5725
2026-01-11 00:56:56.62	289.10	34.96	-42.3	-46.3	11.9	3.17e-04	0	56	0	497025024	55	5947
2026-01-11 00:56:57.63	288.70	34.91	-42.4	-46.6	11.6	4.05e-04	0	56	0	499122176	55	6166
2026-01-11 00:56:58.64	288.31	34.85	-42.2	-46.2	11.9	7.77e-04	0	56	0	501219328	55	5894
2026-01-11 00:56:59.65	287.92	34.80	-42.1	-46.0	12.1	1.80e-04	0	56	0	503316480	55	5770
2026-01-11 00:57:00.66	287.53	34.75	-42.0	-45.8	12.4	1.40e-04	0	56	0	504365056	55	5595
2026-01-11 00:57:01.67	287.14	34.69	-41.9	-45.5	12.7	1.12e-04	0	56	0	506462208	55	5444
2026-01-11 00:57:02.68	286.75	34.64	-41.6	-44.9	13.3	2.74e-05	0	56	0	508559360	55	5088
2026-01-11 00:57:03.69	286.37	34.58	-41.1	-44.1	14.1	9.10e-06	0	56	0	510656512	54	4874
2026-01-11 00:57:04.70	285.98	34.52	-41.1	-44.1	14.1	3.00e-06	0	56	0	512753664	53	5213
2026-01-11 00:57:05.71	285.60	34.46	-41.2	-44.2	14.0	2.20e-06	0	56	0	513802240	53	5258
2026-01-11 00:57:06.72	285.22	34.39	-41.7	-45.2	13.0	3.73e-05	0	56	0	515899392	54	5557
2026-01-11 00:57:07.73	284.84	34.33	-41.9	-45.5	12.7	6.25e-05	0	56	0	517996544	54	5770
2026-01-11 00:57:08.74	284.46	34.27	-41.8	-45.3	12.9	6.56e-05	0	56	0	520093696	54	5620
2026-01-11 00:57:09.75	284.08	34.20	-41.6	-45.1	13.1	4.34e-05	0	56	0	522190848	54	5480
2026-01-11 00:57:10.76	283.71	34.13	-41.4	-44.7	13.5	1.37e-05	0	56	0	524288000	54	5232
2026-01-11 00:57:11.77	283.33	34.06	-40.9	-43.9	14.3	5.30e-06	0	56	0	525336576	53	5049
2026-01-11 00:57:12.78	282.96	33.99	-40.9	-43.7	14.4	0.00e+00	0	56	0	527433728	53	4965
2026-01-11 00:57:13.79	282.59	33.92	-40.8	-43.5	14.6	0.00e+00	0	56	0	529530880	53	4858
2026-01-11 00:57:14.80	282.22	33.85	-41.0	-44.0	14.2	7.00e-07	0	56	0	531628032	53	5118
2026-01-11 00:57:15.81	281.85	33.78	-41.4	-44.7	13.5	7.60e-06	0	56	0	533725184	53	5575
2026-01-11 00:57:16.82	281.49	33.70	-41.8	-45.4	12.7	4.19e-05	0	56	0	534773760	54	5679
2026-01-11 00:57:17.82	281.13	33.63	-42.4	-46.6	11.4	3.52e-04	0	56	0	536870912	55	6176
2026-01-11 00:57:18.83	280.76	33.55	-42.3	-46.4	11.7	5.43e-04	0	56	0	538968064	55	6049
2026-01-11 00:57:19.84	280.40	33.47	-42.0	-45.8	12.4	1.85e-04	0	56	0	541065216	55	5606
2026-01-11 00:57:20.85	280.04	33.39	-41.3	-44.3	13.8	1.98e-05	0	56	0	543162368	54	5037
2026-01-11 00:57:21.86	279.69	33.31	-40.8	-43.6	14.6	7.00e-07	0	56	0	544210944	53	4888
2026-01-11 00:57:22.87	279.33	33.23	-41.0	-44.0	14.1	7.00e-07	0	56	0	546308096	53	5125
2026-01-11 00:57:23.88	278.98	33.15	-41.4	-44.7	13.4	5.30e-06	0	56	0	548405248	53	5575
2026-01-11 00:57:24.89	278.62	33.07	-41.9	-45.5	12.3	1.83e-05	0	56	0	550502400	54	5783
2026-01-11 00:57:25.90	278.27	32.98	-42.1	-46.0	12.2	1.17e-04	0	56	0	552599552	54	6062
2026-01-11 00:57:26.91	277.93	32.90	-42.3	-46.4	11.7	3.80e-04	0	56	0	553648128	55	6009
2026-01-11 00:57:27.92	277.58	32.81	-43.0	-47.8	10.5	1.41e-03	0	56	0	555745280	56	6669
2026-01-11 00:57:28.93	277.23	32.73	-43.0	-47.9	10.3	4.70e-03	0	56	0	557842432	56	6764
2026-01-11 00:57:29.94	276.89	32.64	-43.0	-48.0	10.2	4.87e-03	0	56	0	559939584	56	6829
2026-01-11 00:57:30.95	276.55	32.55	-43.1	-48.2	10.0	4.98e-03	0	56	0	562036736	56	7039
2026-01-11 00:57:31.96	276.21	32.46	-43.1	-48.2	10.1	5.33e-03	0	56	0	563085312	56	6965
2026-01-11 00:57:32.97	275.87	32.37	-42.8	-47.3	10.9	4.01e-03	0	56	0	565182464	56	6337
2026-01-11 00:57:33.98	275.54	32.28	-42.6	-47.0	11.2	1.65e-03	0	56	0	567279616	56	6110
2026-01-11 00:57:34.99	275.21	32.19	-42.7	-47.2	11.1	1.40e-03	0	56	0	569376768	56	6211
2026-01-11 00:57:35.99	274.88	32.09	-43.0	-47.9	10.3	3.90e-03	0	56	0	571473920	56	6752
2026-01-11 00:57:37.00	274.55	32.00	-42.8	-47.5	10.7	2.96e-03	0	56	0	572522496	56	6482
2026-01-11 00:57:38.01	274.22	31.90	-42.7	-47.1	11.1	1.98e-03	0	56	0	574619648	56	6194
2026-01-11 00:57:39.02	273.89	31.81	-42.3	-46.1	12.0	3.38e-04	0	56	0	576716800	56	5523
2026-01-11 00:57:40.03	273.57	31.71	-41.8	-45.4	12.7	1.03e-04	0	56	0	578813952	55	5350
2026-01-11 00:57:41.04	273.25	31.62	-41.2	-44.2	13.9	2.13e-05	0	56	0	580911104	54	4968
2026-01-11 00:57:42.05	272.93	31.52	-41.3	-44.5	13.7	1.06e-05	0	56	0	581959680	54	5101
2026-01-11 00:57:43.06	272.61	31.42	-41.2	-44.4	13.7	6.80e-06	0	56	0	584056832	54	5044
2026-01-11 00:57:44.07	272.29	31.32	-41.2	-44.4	13.7	3.80e-06	0	56	0	586153984	54	5043
2026-01-11 00:57:45.08	271.98	31.22	-40.8	-43.7	14.5	0.00e+00	0	56	0	588251136	53	4957
2026-01-11 00:57:46.09	271.67	31.12	-40.9	-43.8	14.3	7.00e-07	0	56	0	590348288	53	4994
2026-01-11 00:57:47.10	271.36	31.02	-41.3	-44.5	13.5	2.20e-06	0	56	0	592445440	53	5452
2026-01-11 00:57:48.11	271.05	30.92	-42.0	-45.8	12.4	2.82e-05	0	56	0	593494016	54	5963
2026-01-11 00:57:49.12	270.74	30.82	-42.4	-46.6	11.5	7.48e-04	0	56	0	595591168	55	6177
2026-01-11 00:57:50.13	270.44	30.72	-42.9	-47.7	10.5	2.07e-03	0	56	0	597688320	56	6644
2026-01-11 00:57:51.14	270.13	30.61	-42.8	-47.5	10.7	4.31e-03	0	56	0	599785472	56	6464
2026-01-11 00:57:52.14	269.84	30.51	-42.6	-46.9	11.2	1.55e-03	0	56	0	601882624	56	6039
2026-01-11 00:57:53.16	269.53	30.41	-42.1	-46.0	12.3	3.00e-04	0	56	0	602931200	56	5411
2026-01-11 00:57:54.16	269.24	30.30	-41.4	-44.7	13.2	5.03e-05	0	56	0	605028352	54	5277
2026-01-11 00:57:55.17	268.95	30.20	-41.5	-44.9	13.2	2.97e-05	0	56	0	607125504	54	5376
2026-01-11 00:57:56.18	268.65	30.09	-41.9	-45.6	12.5	3.58e-05	0	56	0	609222656	54	5809
2026-01-11 00:57:57.19	268.36	29.99	-42.4	-46.8	11.3	4.12e-04	0	56	0	611319808	55	6310
2026-01-11 00:57:58.20	268.07	29.88	-43.2	-48.5	9.7	7.99e-03	0	56	0	612368384	56	7272
2026-01-11 00:57:59.21	267.79	29.77	-43.4	-49.3	8.9	2.31e-02	0	56	0	614465536	57	7502
2026-01-11 00:58:00.22	267.50	29.67	-43.1	-48.3	9.9	1.05e-02	0	56	0	616562688	57	6670
2026-01-11 00:58:01.23	267.22	29.56	-42.9	-47.6	10.5	4.95e-03	0	56	0	618659840	57	6181
2026-01-11 00:58:02.24	266.94	29.45	-42.6	-47.0	10.8	1.95e-03	0	56	0	620756992	57	5755
2026-01-11 00:58:03.25	266.66	29.34	-42.5	-46.7	11.5	1.56e-03	0	56	0	621805568	56	5863
2026-01-11 00:58:04.26	266.38	29.23	-42.4	-46.5	11.8	5.42e-04	0	56	0	623902720	56	5740
2026-01-11 00:58:05.27	266.10	29.13	-42.6	-47.0	11.4	1.00e-03	0	56	0	625999872	56	6066
2026-01-11 00:58:06.28	265.83	29.02	-42.5	-46.8	11.4	1.00e-03	0	56	0	628097024	56	5982
2026-01-11 00:58:07.29	265.56	28.91	-42.6	-47.1	11.1	1.04e-03	0	56	0	630194176	56	6137
2026-01-11 00:58:08.30	265.29	28.80	-42.6	-47.1	11.2	9.31e-04	0	56	0	631242752	56	6135
2026-01-11 00:58:09.31	265.02	28.69	-42.9	-47.8	10.5	2.83e-03	0	56	0	633339904	56	6660
2026-01-11 00:58:10.32	264.75	28.58	-42.8	-47.6	10.6	4.64e-03	0	56	0	635437056	56	6550
2026-01-11 00:58:11.33	264.49	28.47	-42.4	-46.6	11.5	1.31e-03	0	56	0	637534208	56	5844
2026-01-11 00:58:12.34	264.22	28.35	-42.1	-45.9	12.3	3.39e-04	0	56	0	639631360	56	5367
2026-01-11 00:58:13.35	263.96	28.24	-41.9	-45.7	12.3	1.21e-04	0	56	0	640679936	55	5585
2026-01-11 00:58:14.35	263.70	28.13	-41.6	-45.1	12.9	3.89e-05	0	56	0	642777088	55	5208
2026-01-11 00:58:15.37	263.44	28.02	-41.6	-45.1	12.9	3.73e-05	0	56	0	644874240	55	5182
2026-01-11 00:58:16.38	263.19	27.91	-41.6	-45.0	13.0	3.73e-05	0	56	0	646971392	55	5132
2026-01-11 00:58:17.39	262.94	27.80	-41.8	-45.4	12.6	6.02e-05	0	56	0	649068544	55	5358
2026-01-11 00:58:18.40	262.68	27.69	-41.8	-45.4	12.5	1.15e-04	0	56	0	650117120	55	5368
2026-01-11 00:58:19.40	262.44	27.57	-41.8	-45.5	12.5	1.17e-04	0	56	0	652214272	55	5444
2026-01-11 00:58:20.41	262.19	27.46	-41.9	-45.7	12.3	1.31e-04	0	56	0	654311424	55	5570
2026-01-11 00:58:21.42	261.94	27.35	-41.7	-45.3	12.7	9.53e-05	0	56	0	656408576	55	5338
2026-01-11 00:58:22.43	261.69	27.24	-41.4	-44.7	13.4	2.74e-05	0	56	0	658505728	54	5247
2026-01-11 00:58:23.44	261.45	27.12	-41.0	-44.0	14.0	6.10e-06	0	56	0	660602880	53	5114
2026-01-11 00:58:24.45	261.21	27.01	-40.6	-43.4	14.6	0.00e+00	0	56	0	661651456	53	4790
2026-01-11 00:58:25.46	260.97	26.90	-40.5	-43.3	14.7	7.00e-07	0	56	0	663748608	53	4731
2026-01-11 00:58:26.47	260.73	26.79	-40.8	-43.7	14.3	7.00e-07	0	56	0	665845760	53	4953
2026-01-11 00:58:27.48	260.49	26.67	-40.8	-43.8	14.3	0.00e+00	0	56	0	667942912	53	5006
2026-01-11 00:58:28.49	260.26	26.56	-40.9	-43.9	14.1	1.50e-06	0	56	0	670040064	53	5083
2026-01-11 00:58:29.50	260.03	26.45	-40.7	-43.7	14.4	7.00e-07	0	56	0	671088640	53	4938
2026-01-11 00:58:30.51	259.80	26.33	-40.7	-43.7	14.4	2.20e-06	0	56	0	673185792	53	4943
2026-01-11 00:58:31.51	259.57	26.22	-40.5	-43.3	14.7	0.00e+00	0	56	0	675282944	53	4728
2026-01-11 00:58:32.52	259.34	26.11	-40.2	-42.7	15.3	0.00e+00	0	56	0	677380096	52	4699
2026-01-11 00:58:33.54	259.11	25.99	-40.0	-42.6	15.5	0.00e+00	0	56	0	679477248	52	4608
2026-01-11 00:58:34.55	258.89	25.88	-39.8	-42.2	15.8	0.00e+00	0	56	0	680525824	51	4688
2026-01-11 00:58:35.56	258.66	25.77	-39.7	-42.0	16.1	0.00e+00	0	56	0	682622976	51	4578
2026-01-11 00:58:36.56	258.44	25.65	-39.7	-42.0	16.1	0.00e+00	0	56	0	684720128	51	4553
2026-01-11 00:58:37.57	258.22	25.54	-39.9	-42.3	15.8	0.00e+00	0	56	0	686817280	51	4712
2026-01-11 00:58:38.58	258.00	25.43	-40.1	-42.7	15.4	0.00e+00	0	56	0	688914432	51	4955
2026-01-11 00:58:39.59	257.79	25.31	-40.5	-43.3	14.9	0.00e+00	0	56	0	689963008	51	5291
2026-01-11 00:58:40.60	257.57	25.20	-40.7	-43.6	14.5	0.00e+00	0	56	0	692060160	51	5467
2026-01-11 00:58:41.61	257.36	25.09	-40.6	-43.6	14.5	1.50e-06	0	56	0	694157312	52	5160
2026-01-11 00:58:42.62	257.15	24.97	-40.3	-43.0	15.0	1.50e-06	0	56	0	696254464	52	4851
2026-01-11 00:58:43.63	256.93	24.86	-40.1	-42.6	15.4	0.00e+00	0	56	0	698351616	52	4633
2026-01-11 00:58:44.64	256.73	24.75	-40.0	-42.5	15.5	0.00e+00	0	56	0	699400192	52	4583
2026-01-11 00:58:45.65	256.52	24.64	-39.9	-42.4	15.7	0.00e+00	0	56	0	701497344	51	4770
2026-01-11 00:58:46.65	256.31	24.52	-40.0	-42.5	15.6	0.00e+00	0	56	0	703594496	51	4833
2026-01-11 00:58:47.66	256.11	24.41	-40.3	-42.9	15.2	0.00e+00	0	56	0	705691648	51	5071
2026-01-11 00:58:48.67	255.91	24.30	-40.2	-42.8	15.3	0.00e+00	0	56	0	707788800	51	4999
2026-01-11 00:58:49.69	255.70	24.18	-40.1	-42.5	15.5	0.00e+00	0	56	0	708837376	51	4856
2026-01-11 00:58:50.70	255.50	24.07	-40.1	-42.6	15.5	0.00e+00	0	56	0	710934528	51	4871
2026-01-11 00:58:51.71	255.30	23.96	-40.0	-42.5	15.6	0.00e+00	0	56	0	713031680	51	4833
2026-01-11 00:58:52.72	255.10	23.85	-39.9	-42.3	15.8	0.00e+00	0	56	0	715128832	51	4719
2026-01-11 00:58:53.72	254.91	23.74	-39.9	-42.3	15.8	0.00e+00	0	56	0	717225984	51	4722
2026-01-11 00:58:54.73	254.72	23.62	-40.0	-42.5	15.5	0.00e+00	0	56	0	718274560	51	4849
2026-01-11 00:58:55.74	254.52	23.51	-39.9	-42.4	15.6	0.00e+00	0	56	0	720371712	51	4786
2026-01-11 00:58:56.75	254.33	23.40	-40.0	-42.4	15.6	0.00e+00	0	56	0	722468864	51	4803
2026-01-11 00:58:57.76	254.14	23.29	-39.9	-42.3	15.7	0.00e+00	0	56	0	724566016	51	4737
2026-01-11 00:58:58.77	253.95	23.18	-40.0	-42.4	15.6	0.00e+00	0	56	0	726663168	51	4807
2026-01-11 00:58:59.78	253.76	23.07	-39.8	-42.2	15.9	1.50e-06	0	56	0	728760320	51	4667
2026-01-11 00:59:00.79	253.58	22.95	-39.8	-42.1	15.8	0.00e+00	0	56	0	729808896	51	4638
2026-01-11 00:59:01.80	253.39	22.84	-40.0	-42.5	15.5	0.00e+00	0	56	0	731906048	51	4860
2026-01-11 00:59:02.81	253.21	22.73	-40.1	-42.7	15.3	0.00e+00	0	56	0	734003200	51	4964
2026-01-11 00:59:03.82	253.02	22.62	-40.2	-42.8	15.2	0.00e+00	0	56	0	736100352	51	5019
2026-01-11 00:59:04.83	252.84	22.51	-40.2	-42.8	15.2	0.00e+00	0	56	0	738197504	51	5005
2026-01-11 00:59:05.84	252.66	22.40	-40.1	-42.7	15.4	0.00e+00	0	56	0	739246080	51	4964
2026-01-11 00:59:06.85	252.48	22.29	-40.0	-42.5	15.6	0.00e+00	0	56	0	741343232	51	4818
2026-01-11 00:59:07.86	252.31	22.18	-40.3	-43.0	15.0	0.00e+00	0	56	0	743440384	51	5141
2026-01-11 00:59:08.87	252.13	22.07	-40.4	-43.2	14.8	0.00e+00	0	56	0	745537536	51	5257
2026-01-11 00:59:09.88	251.96	21.96	-40.5	-43.2	14.8	0.00e+00	0	56	0	747634688	51	5277
2026-01-11 00:59:10.89	251.78	21.85	-40.6	-43.5	14.4	0.00e+00	0	56	0	748683264	52	5124
2026-01-11 00:59:11.90	251.61	21.74	-40.9	-43.9	14.0	7.00e-07	0	56	0	750780416	52	5394
2026-01-11 00:59:12.91	251.44	21.63	-40.7	-43.7	14.3	2.20e-06	0	56	0	752877568	52	5220
2026-01-11 00:59:13.92	251.27	21.52	-40.6	-43.5	14.4	7.00e-07	0	56	0	754974720	52	5113
2026-01-11 00:59:14.93	251.10	21.42	-40.6	-43.6	14.4	1.50e-06	0	56	0	757071872	52	5167
2026-01-11 00:59:15.93	250.93	21.31	-40.6	-43.5	14.5	7.00e-07	0	56	0	758120448	52	5108
2026-01-11 00:59:16.94	250.77	21.20	-40.6	-43.4	14.5	7.00e-07	0	56	0	760217600	52	5098
2026-01-11 00:59:17.95	250.60	21.09	-40.7	-43.6	14.4	7.00e-07	0	56	0	762314752	52	5163
2026-01-11 00:59:18.96	250.44	20.98	-40.9	-43.9	14.0	2.20e-06	0	56	0	764411904	52	5394
2026-01-11 00:59:19.97	250.28	20.88	-41.0	-44.1	13.8	2.20e-06	0	56	0	766509056	52	5496
2026-01-11 00:59:20.98	250.11	20.77	-41.1	-44.3	13.6	5.30e-06	0	56	0	767557632	52	5629
2026-01-11 00:59:21.99	249.95	20.66	-41.2	-44.5	13.3	9.10e-06	0	56	0	769654784	53	5446
2026-01-11 00:59:23.00	249.79	20.55	-41.1	-44.4	13.5	1.06e-05	0	56	0	771751936	53	5356
2026-01-11 00:59:24.01	249.64	20.45	-41.0	-44.2	13.7	8.30e-06	0	56	0	773849088	53	5229
2026-01-11 00:59:25.02	249.48	20.34	-40.9	-43.9	13.9	3.80e-06	0	56	0	775946240	53	5091
2026-01-11 00:59:26.03	249.32	20.23	-40.6	-43.5	14.3	7.00e-07	0	56	0	776994816	53	4842
2026-01-11 00:59:27.04	249.17	20.13	-40.4	-43.2	14.6	0.00e+00	0	56	0	779091968	52	4983
2026-01-11 00:59:28.04	249.02	20.02	-40.6	-43.5	14.4	1.50e-06	0	56	0	781189120	52	5159
2026-01-11 00:59:29.05	248.86	19.92	-40.5	-43.3	14.6	0.00e+00	0	56	0	783286272	52	4987
2026-01-11 00:59:30.06	248.71	19.81	-40.5	-43.4	14.5	0.00e+00	0	56	0	785383424	52	5068
2026-01-11 00:59:31.08	248.56	19.71	-40.6	-43.5	14.3	7.00e-07	0	56	0	786432000	52	5133
2026-01-11 00:59:32.08	248.41	19.60	-40.8	-43.8	14.1	0.00e+00	0	56	0	788529152	52	5311
2026-01-11 00:59:33.10	248.26	19.50	-40.6	-43.5	14.3	1.50e-06	0	56	0	790626304	52	5149
2026-01-11 00:59:34.11	248.11	19.39	-40.7	-43.6	14.3	1.50e-06	0	56	0	792723456	52	5211
2026-01-11 00:59:35.12	247.97	19.29	-40.5	-43.3	14.6	0.00e+00	0	56	0	794820608	52	5022
2026-01-11 00:59:36.13	247.82	19.18	-40.3	-43.0	14.9	0.00e+00	0	56	0	796917760	52	4825
2026-01-11 00:59:37.14	247.68	19.08	-40.2	-42.8	15.0	0.00e+00	0	56	0	797966336	52	4748
2026-01-11 00:59:38.15	247.53	18.98	-40.1	-42.8	15.1	7.00e-07	0	56	0	800063488	52	4724
2026-01-11 00:59:39.16	247.39	18.87	-40.2	-42.9	15.0	7.00e-07	0	56	0	802160640	52	4779
2026-01-11 00:59:40.17	247.25	18.77	-40.1	-42.8	15.1	0.00e+00	0	56	0	804257792	52	4715
2026-01-11 00:59:41.18	247.11	18.67	-40.3	-43.0	14.8	0.00e+00	0	56	0	806354944	52	4860
2026-01-11 00:59:42.19	246.97	18.57	-40.2	-42.9	15.0	0.00e+00	0	56	0	807403520	52	4778
2026-01-11 00:59:43.20	246.83	18.46	-40.2	-42.9	15.0	0.00e+00	0	56	0	809500672	52	4760
2026-01-11 00:59:44.21	246.69	18.36	-40.3	-43.0	14.8	0.00e+00	0	56	0	811597824	52	4856
2026-01-11 00:59:45.22	246.55	18.26	-40.3	-43.1	14.7	1.50e-06	0	56	0	813694976	52	4907
2026-01-11 00:59:46.23	246.42	18.16	-40.3	-43.1	14.8	0.00e+00	0	56	0	815792128	52	4895
2026-01-11 00:59:47.24	246.28	18.06	-40.3	-43.0	14.8	0.00e+00	0	56	0	816840704	52	4840
2026-01-11 00:59:48.25	246.15	17.96	-40.4	-43.2	14.6	0.00e+00	0	56	0	818937856	52	4942
2026-01-11 00:59:49.26	246.01	17.85	-40.2	-42.8	15.0	0.00e+00	0	56	0	821035008	52	4745
2026-01-11 00:59:50.27	245.88	17.75	-40.3	-43.0	14.8	0.00e+00	0	56	0	823132160	52	4854
2026-01-11 00:59:51.28	245.75	17.65	-40.2	-42.9	14.9	7.00e-07	0	56	0	825229312	52	4797
2026-01-11 00:59:52.29	245.62	17.55	-40.2	-43.0	14.9	0.00e+00	0	56	0	826277888	52	4823
2026-01-11 00:59:53.30	245.49	17.45	-40.1	-42.7	15.1	0.00e+00	0	56	0	828375040	52	4669
2026-01-11 00:59:54.31	245.36	17.35	-40.1	-42.7	15.1	0.00e+00	0	56	0	830472192	52	4674
2026-01-11 00:59:55.32	245.23	17.26	-40.2	-42.8	15.0	0.00e+00	0	56	0	832569344	52	4746
2026-01-11 00:59:56.33	245.11	17.16	-40.1	-42.8	15.1	0.00e+00	0	56	0	834666496	52	4710
2026-01-11 00:59:57.34	244.98	17.06	-40.3	-43.1	14.7	0.00e+00	0	56	0	835715072	52	4906
2026-01-11 00:59:58.35	244.85	16.96	-40.4	-43.2	14.6	0.00e+00	0	56	0	837812224	52	4981
2026-01-11 00:59:59.35	244.73	16.86	-40.7	-43.7	14.1	1.50e-06	0	56	0	839909376	52	5229
2026-01-11 01:00:00.36	244.61	16.76	-41.0	-44.2	13.5	5.30e-06	0	56	0	842006528	52	5592
2026-01-11 01:00:01.37	244.48	16.67	-41.3	-44.7	13.1	2.82e-05	0	56	0	844103680	53	5539
2026-01-11 01:00:02.38	244.36	16.57	-41.5	-45.2	12.6	9.30e-05	0	56	0	845152256	53	5881
2026-01-11 01:00:03.39	244.24	16.47	-41.7	-45.4	12.3	1.10e-04	0	56	0	847249408	53	6048
2026-01-11 01:00:04.40	244.12	16.37	-41.7	-45.5	12.3	2.58e-04	0	56	0	849346560	54	5725
2026-01-11 01:00:05.41	244.00	16.28	-41.3	-44.8	12.9	9.07e-05	0	56	0	851443712	54	5318
2026-01-11 01:00:06.42	243.88	16.18	-41.2	-44.7	13.1	5.64e-05	0	56	0	853540864	54	5221
2026-01-11 01:00:07.43	243.76	16.08	-41.0	-44.2	13.6	1.98e-05	0	56	0	854589440	54	4976
2026-01-11 01:00:08.44	243.65	15.99	-40.6	-43.6	14.1	3.80e-06	0	56	0	856686592	53	4904
2026-01-11 01:00:09.45	243.53	15.89	-40.4	-43.3	14.5	7.00e-07	0	56	0	858783744	52	5014
2026-01-11 01:00:10.46	243.41	15.80	-40.2	-42.9	14.9	0.00e+00	0	56	0	860880896	52	4790
2026-01-11 01:00:11.47	243.30	15.70	-40.1	-42.8	15.0	0.00e+00	0	56	0	862978048	52	4709
2026-01-11 01:00:12.48	243.18	15.61	-40.2	-42.8	15.0	0.00e+00	0	56	0	865075200	51	5024
2026-01-11 01:00:13.49	243.07	15.51	-40.4	-43.1	14.7	0.00e+00	0	56	0	866123776	51	5212
2026-01-11 01:00:14.49	242.96	15.42	-40.5	-43.3	14.5	7.00e-07	0	56	0	868220928	51	5322
2026-01-11 01:00:15.50	242.85	15.33	-40.6	-43.5	14.2	2.20e-06	0	56	0	870318080	51	5462
2026-01-11 01:00:16.51	242.73	15.23	-40.9	-44.1	13.7	6.10e-06	0	56	0	872415232	52	5492
2026-01-11 01:00:17.52	242.62	15.14	-41.1	-44.5	13.2	1.98e-05	0	56	0	874512384	52	5753
2026-01-11 01:00:18.53	242.51	15.04	-41.3	-44.8	13.0	4.11e-05	0	56	0	875560960	53	5611
2026-01-11 01:00:19.54	242.40	14.95	-41.4	-45.0	12.7	5.87e-05	0	56	0	877658112	53	5763
2026-01-11 01:00:20.55	242.29	14.86	-41.5	-45.1	12.6	8.62e-05	0	56	0	879755264	53	5847
2026-01-11 01:00:21.56	242.19	14.77	-41.5	-45.2	12.6	1.17e-04	0	56	0	881852416	53	5861
2026-01-11 01:00:22.57	242.08	14.67	-41.5	-45.2	12.5	1.04e-04	0	56	0	883949568	53	5858
2026-01-11 01:00:23.58	241.97	14.58	-41.3	-44.9	12.8	1.06e-04	0	56	0	884998144	53	5714
2026-01-11 01:00:24.59	241.87	14.49	-41.2	-44.7	13.0	6.40e-05	0	56	0	887095296	53	5564
2026-01-11 01:00:25.60	241.76	14.40	-41.3	-44.8	12.9	3.96e-05	0	56	0	889192448	53	5622
2026-01-11 01:00:26.61	241.66	14.31	-41.1	-44.4	13.2	3.12e-05	0	56	0	891289600	53	5380
2026-01-11 01:00:27.61	241.55	14.22	-41.2	-44.6	13.1	1.98e-05	0	56	0	893386752	53	5502
2026-01-11 01:00:28.62	241.45	14.12	-41.2	-44.7	13.0	4.19e-05	0	56	0	894435328	53	5548
2026-01-11 01:00:29.63	241.35	14.03	-41.3	-44.9	12.8	3.35e-05	0	56	0	896532480	53	5693
2026-01-11 01:00:30.64	241.25	13.94	-41.3	-44.9	12.7	5.64e-05	0	56	0	898629632	53	5701
2026-01-11 01:00:31.65	241.14	13.85	-41.3	-44.8	12.9	6.33e-05	0	56	0	900726784	53	5638
2026-01-11 01:00:32.66	241.04	13.76	-41.3	-44.9	12.7	1.04e-04	0	56	0	902823936	53	5680
2026-01-11 01:00:33.67	240.94	13.67	-41.4	-45.0	12.6	8.39e-05	0	56	0	903872512	53	5759
2026-01-11 01:00:34.68	240.84	13.58	-41.4	-45.0	12.6	7.55e-05	0	56	0	905969664	53	5772
2026-01-11 01:00:35.69	240.74	13.49	-41.4	-45.1	12.5	7.70e-05	0	56	0	908066816	53	5841
2026-01-11 01:00:36.70	240.65	13.41	-41.4	-45.0	12.6	9.15e-05	0	56	0	910163968	53	5765
2026-01-11 01:00:37.71	240.55	13.32	-41.4	-45.1	12.5	1.07e-04	0	56	0	912261120	53	5842
2026-01-11 01:00:38.72	240.45	13.23	-41.4	-45.2	12.4	1.43e-04	0	56	0	913309696	53	5869
2026-01-11 01:00:39.73	240.35	13.14	-41.5	-45.3	12.3	1.62e-04	0	56	0	915406848	53	5965
2026-01-11 01:00:40.74	240.26	13.05	-41.6	-45.5	12.1	2.44e-04	0	56	0	917504000	53	6102
2026-01-11 01:00:41.75	240.16	12.96	-41.5	-45.4	12.2	2.04e-04	0	56	0	919601152	53	6015
2026-01-11 01:00:42.76	240.07	12.88	-41.5	-45.3	12.3	2.40e-04	0	56	0	921698304	53	5930
2026-01-11 01:00:43.77	239.97	12.79	-41.5	-45.3	12.3	1.76e-04	0	56	0	922746880	53	5926
2026-01-11 01:00:44.78	239.88	12.70	-41.5	-45.3	12.3	1.93e-04	0	56	0	924844032	53	5933
2026-01-11 01:00:45.79	239.79	12.62	-41.3	-45.0	12.6	1.11e-04	0	56	0	926941184	53	5772
2026-01-11 01:00:46.80	239.69	12.53	-41.3	-44.9	12.6	1.24e-04	0	56	0	929038336	53	5722
2026-01-11 01:00:47.81	239.60	12.44	-41.2	-44.7	12.9	5.64e-05	0	56	0	931135488	53	5566
2026-01-11 01:00:48.82	239.51	12.36	-41.0	-44.4	13.1	3.35e-05	0	56	0	932184064	53	5396
2026-01-11 01:00:49.83	239.42	12.27	-41.0	-44.3	13.3	2.21e-05	0	56	0	934281216	53	5334
2026-01-11 01:00:50.84	239.33	12.18	-40.8	-44.0	13.5	6.10e-06	0	56	0	936378368	53	5144
2026-01-11 01:00:51.85	239.24	12.10	-40.6	-43.7	13.7	9.10e-06	0	56	0	938475520	53	4971
2026-01-11 01:00:52.86	239.15	12.01	-40.6	-43.6	13.8	3.00e-06	0	56	0	940572672	53	4916
2026-01-11 01:00:53.87	239.06	11.93	-40.6	-43.8	13.8	1.50e-06	0	56	0	941621248	53	5005
2026-01-11 01:00:54.88	238.97	11.84	-40.6	-43.7	13.8	1.50e-06	0	56	0	943718400	53	4969
2026-01-11 01:00:55.89	238.89	11.76	-40.7	-43.8	13.7	7.60e-06	0	56	0	945815552	53	5016
2026-01-11 01:00:56.89	238.80	11.68	-40.8	-44.1	13.4	1.22e-05	0	56	0	947912704	53	5207
2026-01-11 01:00:57.90	238.71	11.59	-41.0	-44.4	13.1	1.67e-05	0	56	0	950009856	53	5361
2026-01-11 01:00:58.91	238.63	11.51	-41.0	-44.5	12.9	2.28e-05	0	56	0	951058432	53	5450
2026-01-11 01:00:59.92	238.54	11.42	-41.3	-45.0	12.4	1.03e-04	0	56	0	953155584	53	5783
2026-01-11 01:01:00.93	238.45	11.34	-41.5	-45.5	12.0	2.34e-04	0	56	0	955252736	53	6078
2026-01-11 01:01:01.94	238.37	11.26	-41.6	-45.7	11.7	3.63e-04	0	56	0	957349888	53	6238
2026-01-11 01:01:02.95	238.29	11.17	-41.9	-46.2	11.2	7.57e-04	0	56	0	959447040	54	6257
2026-01-11 01:01:03.96	238.20	11.09	-41.9	-46.5	10.9	1.73e-03	0	56	0	961544192	54	6440
2026-01-11 01:01:04.97	238.12	11.01	-42.0	-46.6	10.8	2.39e-03	0	56	0	962592768	54	6567
2026-01-11 01:01:05.98	238.04	10.93	-42.0	-46.7	10.7	3.18e-03	0	56	0	964689920	54	6584
2026-01-11 01:01:06.99	237.95	10.84	-42.1	-46.8	10.5	3.05e-03	0	56	0	966787072	54	6714
2026-01-11 01:01:08.00	237.87	10.76	-42.1	-47.0	10.4	3.56e-03	0	56	0	968884224	54	6844
2026-01-11 01:01:09.01	237.79	10.68	-42.0	-46.7	10.6	3.53e-03	0	56	0	970981376	54	6640
2026-01-11 01:01:10.02	237.71	10.60	-42.0	-46.7	10.6	3.90e-03	0	56	0	972029952	54	6624
2026-01-11 01:01:11.02	237.63	10.52	-41.9	-46.5	10.9	2.67e-03	0	56	0	974127104	54	6434
2026-01-11 01:01:12.03	237.55	10.44	-41.9	-46.4	11.0	2.77e-03	0	56	0	976224256	54	6372
2026-01-11 01:01:13.04	237.47	10.36	-41.8	-46.2	11.1	1.64e-03	0	56	0	978321408	54	6247
2026-01-11 01:01:14.05	237.39	10.28	-41.8	-46.2	11.2	1.57e-03	0	56	0	980418560	54	6233
2026-01-11 01:01:15.06	237.31	10.20	-41.7	-45.9	11.4	1.48e-03	0	56	0	981467136	54	6057
2026-01-11 01:01:16.07	237.23	10.12	-41.7	-46.0	11.3	1.13e-03	0	56	0	983564288	54	6130
2026-01-11 01:01:17.08	237.16	10.04	-41.6	-45.9	11.5	1.05e-03	0	56	0	985661440	54	6025
2026-01-11 01:01:18.09	237.08	9.96	-41.6	-45.9	11.5	8.22e-04	0	56	0	987758592	54	6011
2026-01-11 01:01:19.10	237.00	9.88	-41.6	-45.8	11.5	7.64e-04	0	56	0	989855744	54	5983
2026-01-11 01:01:20.11	236.93	9.80	-41.6	-45.7	11.6	5.98e-04	0	56	0	990904320	54	5894
2026-01-11 01:01:21.12	236.85	9.72	-41.6	-45.8	11.5	6.13e-04	0	56	0	993001472	54	5939
2026-01-11 01:01:22.13	236.77	9.64	-41.6	-45.9	11.5	6.44e-04	0	56	0	995098624	54	5996
2026-01-11 01:01:23.14	236.70	9.56	-41.4	-45.3	12.0	4.03e-04	0	56	0	997195776	54	5650
