passes_logs/2026/01/11/R2.0S_Moscow/R2.0S_Moscow__20260111_132108_FENGYUN_3D_rec.log

#Pass ID: 20260111_132108_FENGYUN 3D
#Satellite: FENGYUN 3D
#Configuration: FENGYUN 3D
#almurnet v.1.7.20251203
#Start time: 2026-01-11 13:21:07

#Version: 2.2.20231116
#Station: R2.0S_Moscow
#Location: 37.707566 lon 55.798166 lat
#TLE: 1 43010U 17072A   26010.98637270  .00000005  00000+0  24269-4 0  9997
#TLE: 2 43010  98.9936 342.7405 0002213 115.1030 245.0375 14.19693961422685

#Time	Az	El	Level	Level2	SNR	BER	BlckErr	Temp	State	Recorded	gain1	gain2
2026-01-11 13:21:07.66	202.43	1.99	-44.0	-55.5	3.8	8.46e-01	0	46	0	0	59	13573
2026-01-11 13:21:08.67	202.50	2.04	-44.0	-55.5	3.8	8.46e-01	0	46	104	0	59	13601
2026-01-11 13:21:09.68	202.57	2.10	-44.0	-55.5	3.8	8.45e-01	0	47	104	0	59	13615
2026-01-11 13:21:10.69	202.63	2.16	-44.0	-55.4	3.8	8.44e-01	0	47	104	0	59	13561
2026-01-11 13:21:11.70	202.70	2.22	-44.0	-55.5	3.8	8.45e-01	0	47	104	0	59	13616
2026-01-11 13:21:12.71	202.77	2.27	-44.0	-55.4	3.8	8.48e-01	0	47	104	0	59	13560
2026-01-11 13:21:13.73	202.83	2.33	-44.0	-55.5	3.8	8.46e-01	0	47	104	0	59	13575
2026-01-11 13:21:14.74	202.90	2.39	-44.0	-55.4	3.8	8.46e-01	0	47	104	0	59	13546
2026-01-11 13:21:15.75	202.97	2.45	-44.0	-55.5	3.8	8.47e-01	0	47	104	0	59	13585
2026-01-11 13:21:16.76	203.04	2.50	-44.0	-55.5	3.8	8.46e-01	0	47	104	0	59	13621
2026-01-11 13:21:17.77	203.11	2.56	-44.0	-55.5	3.8	8.46e-01	0	47	104	0	59	13614
2026-01-11 13:21:18.78	203.18	2.62	-44.0	-55.5	3.8	8.47e-01	0	47	104	0	59	13572
2026-01-11 13:21:19.79	203.24	2.68	-44.0	-55.5	3.8	8.47e-01	0	47	104	0	59	13623
2026-01-11 13:21:20.80	203.31	2.74	-44.0	-55.4	3.8	8.46e-01	0	47	104	0	59	13563
2026-01-11 13:21:21.81	203.38	2.80	-44.0	-55.4	3.8	8.46e-01	0	48	104	0	59	13552
2026-01-11 13:21:22.82	203.45	2.85	-44.0	-55.4	3.8	8.44e-01	0	48	104	0	59	13537
2026-01-11 13:21:23.83	203.52	2.91	-44.0	-55.5	3.8	8.47e-01	0	48	104	0	59	13615
2026-01-11 13:21:24.84	203.59	2.97	-44.0	-55.4	3.8	8.46e-01	0	48	104	0	59	13539
2026-01-11 13:21:25.85	203.66	3.03	-44.0	-55.5	3.8	8.46e-01	0	48	104	0	59	13595
2026-01-11 13:21:26.86	203.73	3.09	-44.0	-55.4	3.8	8.46e-01	0	48	104	0	59	13560
2026-01-11 13:21:27.87	203.81	3.15	-44.0	-55.5	3.8	8.46e-01	0	48	104	0	59	13585
2026-01-11 13:21:28.89	203.88	3.21	-44.0	-55.5	3.8	8.45e-01	0	48	104	0	59	13588
2026-01-11 13:21:29.90	203.95	3.27	-44.0	-55.5	3.8	8.46e-01	0	48	104	0	59	13610
2026-01-11 13:21:30.91	204.02	3.33	-44.0	-55.5	3.8	8.46e-01	0	48	104	0	59	13574
2026-01-11 13:21:31.92	204.09	3.38	-44.0	-55.4	3.8	8.47e-01	0	48	104	0	59	13555
2026-01-11 13:21:32.93	204.17	3.44	-44.0	-55.5	3.8	8.46e-01	0	48	104	0	59	13585
2026-01-11 13:21:33.94	204.24	3.50	-44.0	-55.4	3.8	8.46e-01	0	48	104	0	59	13555
2026-01-11 13:21:34.95	204.31	3.56	-44.0	-55.5	3.8	8.46e-01	0	49	104	0	59	13590
2026-01-11 13:21:35.96	204.38	3.62	-44.0	-55.5	3.8	8.46e-01	0	48	104	0	59	13580
2026-01-11 13:21:36.97	204.46	3.68	-44.0	-55.5	3.8	8.46e-01	0	48	104	0	59	13576
2026-01-11 13:21:37.98	204.53	3.74	-44.0	-55.4	3.8	8.47e-01	0	49	104	0	59	13534
2026-01-11 13:21:38.99	204.61	3.80	-44.0	-55.4	3.8	8.45e-01	0	49	104	0	59	13539
2026-01-11 13:21:40.00	204.68	3.86	-44.0	-55.5	3.8	8.46e-01	0	49	104	0	59	13573
2026-01-11 13:21:41.01	204.76	3.92	-44.0	-55.5	3.8	8.46e-01	0	49	104	0	59	13571
2026-01-11 13:21:42.03	204.83	3.98	-44.0	-55.5	3.8	8.47e-01	0	49	104	0	59	13640
2026-01-11 13:21:43.03	204.91	4.04	-44.0	-55.5	3.8	8.47e-01	0	49	104	0	59	13593
2026-01-11 13:21:44.05	204.98	4.10	-44.0	-55.5	3.8	8.47e-01	0	49	104	0	59	13602
2026-01-11 13:21:45.06	205.06	4.16	-44.0	-55.5	3.8	8.46e-01	0	49	104	0	59	13617
2026-01-11 13:21:46.07	205.13	4.22	-44.0	-55.4	3.8	8.46e-01	0	49	104	0	59	13567
2026-01-11 13:21:47.08	205.21	4.29	-44.0	-55.4	3.8	8.46e-01	0	49	104	0	59	13561
2026-01-11 13:21:48.09	205.29	4.35	-44.0	-55.5	3.8	8.47e-01	0	49	104	0	59	13592
2026-01-11 13:21:49.10	205.37	4.41	-44.0	-55.4	3.8	8.47e-01	0	49	104	0	59	13549
2026-01-11 13:21:50.11	205.44	4.47	-44.0	-55.4	3.8	8.45e-01	0	49	104	0	59	13554
2026-01-11 13:21:51.13	205.52	4.53	-44.0	-55.4	3.8	8.47e-01	0	50	104	0	59	13549
2026-01-11 13:21:52.14	205.60	4.59	-44.0	-55.5	3.8	8.47e-01	0	50	104	0	59	13600
2026-01-11 13:21:53.15	205.68	4.65	-44.0	-55.4	3.8	8.45e-01	0	49	104	0	59	13482
2026-01-11 13:21:54.16	205.76	4.71	-44.0	-55.4	3.8	8.46e-01	0	50	104	0	59	13478
2026-01-11 13:21:55.17	205.84	4.78	-44.0	-55.4	3.8	8.45e-01	0	50	104	0	59	13457
2026-01-11 13:21:56.18	205.91	4.84	-44.0	-55.4	3.8	8.46e-01	0	50	104	0	59	13516
2026-01-11 13:21:57.19	205.99	4.90	-44.0	-55.4	3.8	8.46e-01	0	50	104	0	59	13501
2026-01-11 13:21:58.20	206.07	4.96	-44.0	-55.3	3.8	8.47e-01	0	50	104	0	59	13344
2026-01-11 13:21:59.21	206.15	5.02	-44.0	-55.4	3.8	8.46e-01	0	50	104	0	59	13483
2026-01-11 13:22:00.22	206.24	5.08	-44.0	-55.3	3.8	8.45e-01	0	50	104	0	59	13405
2026-01-11 13:22:01.24	206.32	5.15	-44.0	-55.4	3.8	8.48e-01	0	50	104	0	59	13503
2026-01-11 13:22:02.25	206.40	5.21	-44.0	-55.4	3.8	8.46e-01	0	50	104	0	59	13481
2026-01-11 13:22:03.26	206.48	5.27	-44.0	-55.4	3.8	8.45e-01	0	50	104	0	59	13451
2026-01-11 13:22:04.27	206.56	5.33	-44.0	-55.4	3.8	8.46e-01	0	50	104	0	59	13451
2026-01-11 13:22:05.28	206.64	5.40	-44.0	-55.3	3.8	8.46e-01	0	50	104	0	59	13369
2026-01-11 13:22:06.29	206.73	5.46	-44.0	-55.3	3.8	8.46e-01	0	50	104	0	59	13338
2026-01-11 13:22:07.30	206.81	5.52	-43.9	-55.0	3.8	8.46e-01	0	50	104	0	59	12898
2026-01-11 13:22:08.31	206.89	5.58	-43.9	-54.9	3.8	8.46e-01	0	50	104	0	59	12688
2026-01-11 13:22:09.32	206.98	5.65	-43.9	-54.4	3.8	8.45e-01	0	50	104	0	59	12048
2026-01-11 13:22:10.33	207.06	5.71	-43.8	-54.2	3.8	8.47e-01	0	50	104	0	59	11807
2026-01-11 13:22:11.34	207.15	5.77	-43.8	-53.8	3.8	8.45e-01	0	50	104	0	59	11218
2026-01-11 13:22:12.36	207.23	5.84	-43.8	-53.7	3.8	8.45e-01	0	50	104	0	59	11030
2026-01-11 13:22:13.36	207.32	5.90	-43.7	-53.3	3.8	8.45e-01	0	51	104	0	59	10617
2026-01-11 13:22:14.38	207.40	5.96	-43.7	-53.0	3.8	8.45e-01	0	51	104	0	59	10217
2026-01-11 13:22:15.39	207.49	6.03	-43.6	-52.3	4.1	8.40e-01	0	51	0	0	59	9414
2026-01-11 13:22:16.40	207.57	6.09	-43.5	-52.0	4.1	8.39e-01	0	51	0	0	59	9109
2026-01-11 13:22:17.41	207.66	6.15	-43.5	-51.8	4.2	8.38e-01	0	51	0	0	59	8911
2026-01-11 13:22:18.42	207.75	6.22	-43.4	-51.1	4.4	8.29e-01	0	51	0	0	58	8751
2026-01-11 13:22:19.43	207.83	6.28	-43.3	-50.8	4.5	8.19e-01	0	51	0	0	58	8460
2026-01-11 13:22:20.44	207.92	6.35	-43.3	-50.6	4.7	8.13e-01	0	51	0	0	58	8220
2026-01-11 13:22:21.45	208.01	6.41	-43.2	-50.4	4.7	8.01e-01	0	51	0	0	58	8039
2026-01-11 13:22:22.46	208.10	6.47	-43.3	-50.6	4.7	8.04e-01	0	51	0	0	58	8180
2026-01-11 13:22:23.47	208.19	6.54	-43.2	-50.3	4.8	7.99e-01	0	51	0	0	58	7943
2026-01-11 13:22:24.48	208.28	6.60	-43.1	-49.9	5.0	7.77e-01	0	51	0	0	58	7577
2026-01-11 13:22:25.50	208.37	6.67	-43.1	-49.7	5.1	7.67e-01	0	51	0	0	58	7428
2026-01-11 13:22:26.51	208.46	6.73	-43.1	-49.9	5.0	7.67e-01	0	51	0	0	58	7547
2026-01-11 13:22:27.52	208.55	6.80	-43.1	-50.0	4.9	7.80e-01	0	51	0	0	58	7637
2026-01-11 13:22:28.53	208.64	6.86	-43.1	-49.8	5.0	7.74e-01	0	51	0	0	58	7518
2026-01-11 13:22:29.54	208.73	6.93	-43.1	-49.9	5.0	7.65e-01	0	51	0	0	58	7620
2026-01-11 13:22:30.55	208.82	6.99	-43.1	-49.9	5.0	7.71e-01	0	51	0	0	58	7583
2026-01-11 13:22:31.56	208.91	7.06	-43.1	-49.8	5.0	7.78e-01	0	52	0	0	58	7491
2026-01-11 13:22:32.57	209.00	7.12	-42.8	-48.9	5.6	7.01e-01	0	51	0	0	57	7174
2026-01-11 13:22:33.58	209.10	7.19	-42.7	-48.4	6.0	4.49e-01	0	51	0	4194304	57	6764
2026-01-11 13:22:34.59	209.19	7.25	-42.4	-47.6	6.6	2.45e-01	0	51	0	10485760	56	6558
2026-01-11 13:22:35.60	209.28	7.32	-42.0	-46.6	7.5	1.72e-01	0	52	0	15728640	56	5818
2026-01-11 13:22:36.61	209.38	7.38	-41.2	-45.0	9.0	4.19e-02	0	51	0	22020096	54	5433
2026-01-11 13:22:37.62	209.47	7.45	-40.6	-44.0	10.0	1.42e-02	0	52	0	27262976	53	5119
2026-01-11 13:22:38.63	209.57	7.52	-40.2	-43.3	10.7	4.62e-03	0	52	0	33554432	52	5023
2026-01-11 13:22:39.65	209.66	7.58	-39.8	-42.5	11.7	1.38e-03	0	52	0	38797312	51	4836
2026-01-11 13:22:40.66	209.76	7.65	-39.3	-41.8	12.4	3.34e-04	0	52	0	44040192	50	4739
2026-01-11 13:22:41.67	209.85	7.71	-38.9	-41.2	12.9	9.61e-05	0	52	0	50331648	49	4695
2026-01-11 13:22:42.68	209.95	7.78	-38.4	-40.6	13.6	1.02e-05	0	52	0	55574528	48	4644
2026-01-11 13:22:43.69	210.05	7.85	-38.4	-40.6	13.6	1.60e-05	0	52	0	61865984	48	4613
2026-01-11 13:22:44.70	210.14	7.91	-38.2	-40.3	13.9	8.00e-06	0	52	0	67108864	48	4456
2026-01-11 13:22:45.71	210.24	7.98	-38.2	-40.3	13.9	5.70e-06	0	52	0	73400320	48	4475
2026-01-11 13:22:46.72	210.34	8.05	-38.2	-40.4	13.8	5.70e-06	0	52	0	78643200	48	4506
2026-01-11 13:22:47.73	210.44	8.11	-38.2	-40.3	13.9	4.50e-06	0	52	0	83886080	47	4750
2026-01-11 13:22:48.74	210.54	8.18	-39.2	-41.6	12.7	2.40e-05	0	52	0	90177536	48	5192
2026-01-11 13:22:49.75	210.64	8.25	-40.1	-43.0	11.3	4.00e-05	0	52	0	95420416	50	5435
2026-01-11 13:22:50.76	210.74	8.31	-43.4	-52.0	4.1	2.38e-01	0	52	0	100663296	57	10235
2026-01-11 13:22:51.77	210.84	8.38	-38.3	-40.5	13.9	2.13e-04	0	52	0	101711872	47	4837
2026-01-11 13:22:52.78	210.94	8.45	-38.1	-40.2	14.2	1.37e-04	0	52	0	106954752	48	4403
2026-01-11 13:22:53.79	211.04	8.52	-37.9	-39.9	14.3	3.40e-06	0	52	0	113246208	47	4534
2026-01-11 13:22:54.80	211.14	8.58	-37.7	-39.7	14.5	5.70e-06	0	52	0	118489088	47	4422
2026-01-11 13:22:55.81	211.24	8.65	-37.7	-39.6	14.6	3.40e-06	0	52	0	124780544	47	4387
2026-01-11 13:22:56.82	211.34	8.72	-37.5	-39.5	14.8	1.10e-06	0	52	0	130023424	47	4309
2026-01-11 13:22:57.83	211.45	8.79	-37.6	-39.6	14.7	0.00e+00	0	52	0	136314880	47	4347
2026-01-11 13:22:58.84	211.55	8.86	-37.5	-39.4	14.9	0.00e+00	0	52	0	141557760	47	4259
2026-01-11 13:22:59.85	211.65	8.92	-37.3	-39.2	15.1	1.10e-06	0	52	0	146800640	46	4423
2026-01-11 13:23:00.85	211.76	8.99	-37.5	-39.4	14.9	0.00e+00	0	52	0	153092096	46	4525
2026-01-11 13:23:01.86	211.86	9.06	-37.4	-39.3	15.0	0.00e+00	0	53	0	158334976	46	4475
2026-01-11 13:23:02.87	211.97	9.13	-37.4	-39.2	15.1	0.00e+00	0	53	0	164626432	46	4433
2026-01-11 13:23:03.88	212.07	9.20	-37.4	-39.2	15.1	0.00e+00	0	53	0	169869312	46	4436
2026-01-11 13:23:04.89	212.18	9.26	-37.3	-39.1	15.2	0.00e+00	0	53	0	175112192	46	4384
2026-01-11 13:23:05.91	212.29	9.33	-37.3	-39.1	15.2	0.00e+00	0	53	0	181403648	46	4377
2026-01-11 13:23:06.92	212.40	9.40	-37.2	-39.0	15.3	0.00e+00	0	53	0	186646528	46	4329
2026-01-11 13:23:07.93	212.50	9.47	-37.2	-39.0	15.4	0.00e+00	0	53	0	192937984	46	4305
2026-01-11 13:23:08.94	212.61	9.54	-37.2	-39.0	15.4	0.00e+00	0	53	0	198180864	46	4293
2026-01-11 13:23:09.95	212.72	9.61	-37.1	-38.9	15.4	0.00e+00	0	53	0	203423744	46	4280
2026-01-11 13:23:10.96	212.83	9.68	-37.1	-38.9	15.5	0.00e+00	0	53	0	209715200	46	4256
2026-01-11 13:23:11.97	212.94	9.75	-37.1	-38.9	15.5	0.00e+00	0	53	0	214958080	46	4264
2026-01-11 13:23:12.98	213.05	9.82	-37.0	-38.8	15.6	0.00e+00	0	53	0	221249536	46	4205
2026-01-11 13:23:13.99	213.16	9.89	-37.1	-38.9	15.5	0.00e+00	0	53	0	226492416	46	4264
2026-01-11 13:23:15.00	213.27	9.96	-37.0	-38.8	15.6	0.00e+00	0	53	0	232783872	46	4217
2026-01-11 13:23:16.01	213.38	10.03	-37.0	-38.8	15.6	0.00e+00	0	53	0	238026752	46	4230
2026-01-11 13:23:17.02	213.50	10.10	-37.0	-38.8	15.6	0.00e+00	0	53	0	244318208	46	4194
2026-01-11 13:23:18.03	213.61	10.17	-37.0	-38.7	15.7	0.00e+00	0	53	0	249561088	45	4434
2026-01-11 13:23:19.04	213.72	10.24	-36.9	-38.7	15.7	0.00e+00	0	53	0	254803968	45	4416
2026-01-11 13:23:20.05	213.84	10.31	-37.0	-38.8	15.6	0.00e+00	0	53	0	261095424	45	4460
2026-01-11 13:23:21.06	213.95	10.38	-37.0	-38.8	15.6	0.00e+00	0	53	0	266338304	45	4457
2026-01-11 13:23:22.07	214.06	10.45	-37.1	-38.8	15.6	0.00e+00	0	53	0	272629760	45	4491
2026-01-11 13:23:23.09	214.18	10.52	-37.0	-38.8	15.6	0.00e+00	0	53	0	277872640	45	4464
2026-01-11 13:23:24.10	214.30	10.59	-36.9	-38.7	15.7	0.00e+00	0	53	0	283115520	45	4417
2026-01-11 13:23:25.11	214.41	10.66	-37.0	-38.8	15.6	0.00e+00	0	53	0	289406976	45	4458
2026-01-11 13:23:26.12	214.53	10.73	-37.1	-38.9	15.6	0.00e+00	0	53	0	294649856	45	4521
2026-01-11 13:23:27.13	214.65	10.80	-37.1	-38.8	15.6	0.00e+00	0	53	0	300941312	45	4491
2026-01-11 13:23:28.13	214.77	10.87	-37.1	-38.9	15.6	0.00e+00	0	53	0	306184192	45	4510
2026-01-11 13:23:29.15	214.89	10.94	-37.1	-38.9	15.5	0.00e+00	0	53	0	311427072	45	4515
2026-01-11 13:23:30.15	215.00	11.01	-37.0	-38.8	15.7	0.00e+00	0	53	0	317718528	45	4450
2026-01-11 13:23:31.16	215.12	11.09	-37.0	-38.8	15.7	0.00e+00	0	53	0	322961408	45	4468
2026-01-11 13:23:32.17	215.24	11.16	-36.9	-38.7	15.8	0.00e+00	0	53	0	329252864	45	4419
2026-01-11 13:23:33.18	215.36	11.23	-36.9	-38.6	15.8	0.00e+00	0	53	0	334495744	45	4386
2026-01-11 13:23:34.19	215.49	11.30	-36.8	-38.5	15.9	0.00e+00	0	53	0	340787200	45	4330
2026-01-11 13:23:35.20	215.61	11.37	-36.8	-38.6	15.9	0.00e+00	0	53	0	346030080	45	4343
2026-01-11 13:23:36.21	215.73	11.44	-36.7	-38.5	16.0	0.00e+00	0	54	0	351272960	45	4295
2026-01-11 13:23:37.22	215.85	11.51	-36.9	-38.6	15.9	0.00e+00	0	53	0	357564416	45	4372
2026-01-11 13:23:38.23	215.98	11.59	-36.8	-38.5	15.9	0.00e+00	0	53	0	362807296	45	4334
2026-01-11 13:23:39.24	216.10	11.66	-36.8	-38.5	16.0	0.00e+00	0	53	0	369098752	45	4330
2026-01-11 13:23:40.25	216.23	11.73	-36.9	-38.6	15.9	0.00e+00	0	53	0	374341632	45	4377
2026-01-11 13:23:41.26	216.35	11.80	-36.8	-38.6	15.9	0.00e+00	0	54	0	380633088	45	4354
2026-01-11 13:23:42.27	216.48	11.88	-36.8	-38.5	16.0	0.00e+00	0	54	0	385875968	45	4324
2026-01-11 13:23:43.28	216.61	11.95	-36.8	-38.6	15.9	0.00e+00	0	54	0	391118848	45	4342
2026-01-11 13:23:44.29	216.73	12.02	-36.8	-38.5	16.0	0.00e+00	0	53	0	397410304	45	4340
2026-01-11 13:23:45.30	216.86	12.09	-36.8	-38.5	16.0	0.00e+00	0	53	0	402653184	45	4300
2026-01-11 13:23:46.31	216.99	12.17	-36.6	-38.3	16.2	0.00e+00	0	54	0	408944640	45	4218
2026-01-11 13:23:47.32	217.12	12.24	-36.5	-38.2	16.3	0.00e+00	0	53	0	414187520	45	4146
2026-01-11 13:23:48.33	217.25	12.31	-36.5	-38.1	16.4	0.00e+00	0	54	0	419430400	45	4124
2026-01-11 13:23:49.34	217.38	12.38	-36.4	-38.1	16.5	0.00e+00	0	54	0	425721856	44	4346
2026-01-11 13:23:50.35	217.51	12.46	-36.4	-38.0	16.5	0.00e+00	0	54	0	430964736	44	4321
2026-01-11 13:23:51.36	217.64	12.53	-36.4	-38.1	16.5	0.00e+00	0	54	0	437256192	44	4344
2026-01-11 13:23:52.37	217.78	12.60	-36.5	-38.1	16.4	0.00e+00	0	54	0	442499072	44	4377
2026-01-11 13:23:53.38	217.91	12.68	-36.6	-38.2	16.3	0.00e+00	0	54	0	448790528	44	4433
2026-01-11 13:23:54.39	218.04	12.75	-36.6	-38.3	16.3	0.00e+00	0	54	0	454033408	44	4448
2026-01-11 13:23:55.40	218.18	12.82	-36.6	-38.3	16.3	0.00e+00	0	54	0	459276288	44	4472
2026-01-11 13:23:56.41	218.31	12.90	-36.6	-38.3	16.2	0.00e+00	0	54	0	465567744	44	4481
2026-01-11 13:23:57.42	218.45	12.97	-36.6	-38.3	16.3	0.00e+00	0	54	0	470810624	44	4444
2026-01-11 13:23:58.43	218.58	13.04	-36.6	-38.2	16.3	0.00e+00	0	54	0	477102080	44	4438
2026-01-11 13:23:59.44	218.72	13.12	-36.5	-38.2	16.4	0.00e+00	0	54	0	482344960	44	4416
2026-01-11 13:24:00.45	218.86	13.19	-36.5	-38.1	16.4	0.00e+00	0	54	0	487587840	44	4387
2026-01-11 13:24:01.46	219.00	13.26	-36.5	-38.1	16.4	0.00e+00	0	54	0	493879296	44	4390
2026-01-11 13:24:02.47	219.14	13.34	-36.6	-38.2	16.4	0.00e+00	0	54	0	499122176	44	4428
2026-01-11 13:24:03.48	219.28	13.41	-36.5	-38.2	16.4	0.00e+00	0	54	0	505413632	44	4394
2026-01-11 13:24:04.49	219.42	13.49	-36.5	-38.2	16.4	0.00e+00	0	54	0	510656512	44	4414
2026-01-11 13:24:05.50	219.56	13.56	-36.6	-38.3	16.3	0.00e+00	0	54	0	515899392	44	4451
2026-01-11 13:24:06.51	219.70	13.63	-36.6	-38.3	16.3	0.00e+00	0	54	0	522190848	44	4483
2026-01-11 13:24:07.52	219.84	13.71	-36.6	-38.2	16.4	0.00e+00	0	54	0	527433728	44	4431
2026-01-11 13:24:08.53	219.98	13.78	-36.5	-38.1	16.5	0.00e+00	0	54	0	533725184	44	4384
2026-01-11 13:24:09.54	220.13	13.86	-36.3	-38.0	16.6	0.00e+00	0	54	0	538968064	44	4296
2026-01-11 13:24:10.55	220.27	13.93	-36.3	-37.9	16.7	0.00e+00	0	54	0	545259520	44	4249
2026-01-11 13:24:11.56	220.42	14.01	-36.2	-37.8	16.8	0.00e+00	0	54	0	550502400	44	4228
2026-01-11 13:24:12.57	220.56	14.08	-36.2	-37.8	16.8	0.00e+00	0	54	0	556793856	44	4205
2026-01-11 13:24:13.58	220.71	14.16	-36.1	-37.7	16.9	0.00e+00	0	54	0	562036736	44	4175
2026-01-11 13:24:14.59	220.86	14.23	-36.1	-37.7	16.9	0.00e+00	0	54	0	567279616	44	4171
2026-01-11 13:24:15.60	221.01	14.31	-36.1	-37.7	16.9	0.00e+00	0	54	0	573571072	44	4166
2026-01-11 13:24:16.61	221.15	14.38	-36.2	-37.8	16.9	0.00e+00	0	54	0	578813952	44	4196
2026-01-11 13:24:17.62	221.30	14.46	-36.1	-37.7	16.9	0.00e+00	0	54	0	585105408	44	4171
2026-01-11 13:24:18.62	221.45	14.53	-36.1	-37.7	16.9	0.00e+00	0	54	0	590348288	44	4171
2026-01-11 13:24:19.63	221.60	14.60	-36.1	-37.7	16.9	0.00e+00	0	54	0	595591168	44	4163
2026-01-11 13:24:20.64	221.76	14.68	-36.1	-37.6	17.0	0.00e+00	0	54	0	601882624	44	4143
2026-01-11 13:24:21.65	221.91	14.75	-35.8	-37.3	17.1	0.00e+00	0	54	0	607125504	43	4241
2026-01-11 13:24:22.66	222.06	14.83	-35.8	-37.3	17.1	0.00e+00	0	54	0	613416960	43	4223
2026-01-11 13:24:23.67	222.21	14.90	-35.8	-37.3	17.1	0.00e+00	0	54	0	618659840	43	4240
2026-01-11 13:24:24.68	222.37	14.98	-35.8	-37.3	17.1	0.00e+00	0	54	0	623902720	43	4228
2026-01-11 13:24:25.69	222.53	15.05	-35.8	-37.4	17.1	0.00e+00	0	54	0	630194176	43	4252
2026-01-11 13:24:26.70	222.68	15.13	-35.8	-37.3	17.1	0.00e+00	0	54	0	635437056	43	4233
2026-01-11 13:24:27.71	222.84	15.21	-35.8	-37.3	17.1	0.00e+00	0	54	0	641728512	43	4239
2026-01-11 13:24:28.72	223.00	15.28	-35.8	-37.3	17.2	0.00e+00	0	54	0	646971392	43	4214
2026-01-11 13:24:29.73	223.15	15.36	-35.7	-37.3	17.2	0.00e+00	0	54	0	653262848	43	4204
2026-01-11 13:24:30.74	223.31	15.43	-35.7	-37.2	17.3	0.00e+00	0	54	0	658505728	43	4159
2026-01-11 13:24:31.75	223.47	15.51	-35.6	-37.1	17.4	0.00e+00	0	54	0	663748608	43	4117
2026-01-11 13:24:32.76	223.64	15.58	-35.5	-37.0	17.5	0.00e+00	0	54	0	670040064	43	4088
2026-01-11 13:24:33.77	223.80	15.66	-35.6	-37.0	17.4	0.00e+00	0	54	0	675282944	43	4096
2026-01-11 13:24:34.78	223.96	15.73	-35.6	-37.1	17.4	0.00e+00	0	54	0	681574400	43	4100
2026-01-11 13:24:35.79	224.12	15.81	-35.6	-37.1	17.4	0.00e+00	0	54	0	686817280	43	4125
2026-01-11 13:24:36.80	224.29	15.88	-35.7	-37.2	17.3	0.00e+00	0	54	0	692060160	43	4173
2026-01-11 13:24:37.81	224.45	15.96	-35.7	-37.2	17.3	0.00e+00	0	55	0	698351616	43	4188
2026-01-11 13:24:38.82	224.62	16.03	-35.7	-37.2	17.3	0.00e+00	0	54	0	703594496	43	4176
2026-01-11 13:24:39.83	224.78	16.11	-35.6	-37.2	17.3	0.00e+00	0	54	0	709885952	43	4153
2026-01-11 13:24:40.84	224.95	16.19	-35.6	-37.2	17.3	0.00e+00	0	54	0	715128832	43	4152
2026-01-11 13:24:41.85	225.12	16.26	-35.7	-37.2	17.3	0.00e+00	0	54	0	720371712	43	4153
2026-01-11 13:24:42.86	225.29	16.34	-35.6	-37.1	17.4	0.00e+00	0	54	0	726663168	43	4121
2026-01-11 13:24:43.86	225.46	16.41	-35.6	-37.1	17.4	0.00e+00	0	54	0	731906048	43	4116
2026-01-11 13:24:44.87	225.63	16.49	-35.5	-37.0	17.5	0.00e+00	0	54	0	738197504	43	4078
2026-01-11 13:24:45.88	225.80	16.56	-35.5	-37.0	17.5	0.00e+00	0	55	0	743440384	43	4086
2026-01-11 13:24:46.89	225.97	16.64	-35.5	-37.0	17.5	0.00e+00	0	55	0	749731840	43	4063
2026-01-11 13:24:47.90	226.14	16.71	-35.5	-37.0	17.5	0.00e+00	0	55	0	754974720	43	4072
2026-01-11 13:24:48.91	226.32	16.79	-35.6	-37.0	17.5	0.00e+00	0	54	0	761266176	43	4091
2026-01-11 13:24:49.92	226.49	16.86	-35.5	-37.0	17.5	0.00e+00	0	55	0	766509056	43	4088
2026-01-11 13:24:50.93	226.67	16.94	-35.5	-37.0	17.6	0.00e+00	0	55	0	771751936	43	4058
2026-01-11 13:24:51.94	226.85	17.02	-35.5	-36.9	17.6	0.00e+00	0	55	0	778043392	42	4286
2026-01-11 13:24:52.95	227.02	17.09	-35.4	-36.9	17.7	0.00e+00	0	55	0	783286272	42	4252
2026-01-11 13:24:53.96	227.20	17.17	-35.3	-36.8	17.8	0.00e+00	0	55	0	789577728	42	4206
2026-01-11 13:24:54.97	227.38	17.24	-35.3	-36.7	17.8	0.00e+00	0	55	0	794820608	42	4192
2026-01-11 13:24:55.98	227.56	17.32	-35.3	-36.7	17.8	0.00e+00	0	55	0	800063488	42	4186
2026-01-11 13:24:56.99	227.74	17.39	-35.3	-36.8	17.8	0.00e+00	0	54	0	806354944	42	4202
2026-01-11 13:24:58.00	227.92	17.47	-35.3	-36.7	17.8	0.00e+00	0	55	0	811597824	42	4180
2026-01-11 13:24:59.01	228.11	17.54	-35.3	-36.7	17.8	0.00e+00	0	54	0	816840704	42	4175
2026-01-11 13:25:00.02	228.29	17.62	-35.3	-36.7	17.8	0.00e+00	0	55	0	823132160	42	4179
2026-01-11 13:25:01.03	228.47	17.69	-35.3	-36.8	17.7	0.00e+00	0	55	0	828375040	42	4196
2026-01-11 13:25:02.03	228.66	17.77	-35.4	-36.8	17.7	0.00e+00	0	55	0	834666496	42	4232
2026-01-11 13:25:03.04	228.84	17.84	-35.4	-36.8	17.7	0.00e+00	0	55	0	839909376	42	4234
2026-01-11 13:25:04.05	229.03	17.92	-35.3	-36.8	17.7	0.00e+00	0	55	0	846200832	42	4205
2026-01-11 13:25:05.06	229.22	17.99	-35.2	-36.7	17.9	0.00e+00	0	55	0	851443712	42	4161
2026-01-11 13:25:06.07	229.41	18.07	-35.2	-36.6	17.9	0.00e+00	0	55	0	857735168	42	4137
2026-01-11 13:25:07.08	229.60	18.14	-35.1	-36.6	17.9	0.00e+00	0	55	0	862978048	42	4113
2026-01-11 13:25:08.09	229.79	18.22	-35.1	-36.6	18.0	0.00e+00	0	55	0	868220928	42	4115
2026-01-11 13:25:09.10	229.98	18.29	-35.2	-36.6	17.9	0.00e+00	0	55	0	874512384	42	4130
2026-01-11 13:25:10.12	230.17	18.37	-35.1	-36.6	18.0	0.00e+00	0	55	0	879755264	42	4102
2026-01-11 13:25:11.13	230.37	18.44	-35.1	-36.5	18.1	0.00e+00	0	55	0	886046720	42	4067
2026-01-11 13:25:12.14	230.56	18.51	-35.1	-36.5	18.0	0.00e+00	0	55	0	891289600	42	4077
2026-01-11 13:25:13.15	230.76	18.59	-35.1	-36.5	18.0	0.00e+00	0	55	0	896532480	42	4064
2026-01-11 13:25:14.16	230.95	18.66	-35.1	-36.5	18.0	0.00e+00	0	55	0	902823936	42	4083
2026-01-11 13:25:15.17	231.15	18.74	-35.1	-36.6	18.0	0.00e+00	0	55	0	908066816	42	4103
2026-01-11 13:25:16.18	231.35	18.81	-35.1	-36.5	18.0	0.00e+00	0	55	0	914358272	42	4093
2026-01-11 13:25:17.19	231.55	18.88	-35.1	-36.6	17.9	0.00e+00	0	55	0	919601152	42	4124
2026-01-11 13:25:18.20	231.75	18.96	-35.1	-36.5	18.0	0.00e+00	0	55	0	924844032	42	4097
2026-01-11 13:25:19.21	231.95	19.03	-35.0	-36.5	18.0	0.00e+00	0	55	0	931135488	42	4064
2026-01-11 13:25:20.22	232.15	19.10	-35.0	-36.4	18.1	0.00e+00	0	55	0	936378368	41	4244
2026-01-11 13:25:21.23	232.35	19.18	-34.9	-36.3	18.2	0.00e+00	0	55	0	942669824	41	4218
2026-01-11 13:25:22.24	232.56	19.25	-34.9	-36.3	18.3	0.00e+00	0	54	0	947912704	41	4199
2026-01-11 13:25:23.25	232.76	19.32	-34.9	-36.3	18.3	0.00e+00	0	55	0	954204160	41	4211
2026-01-11 13:25:24.26	232.97	19.40	-34.9	-36.3	18.2	0.00e+00	0	55	0	959447040	41	4201
2026-01-11 13:25:25.27	233.18	19.47	-34.8	-36.2	18.3	0.00e+00	0	55	0	965738496	41	4191
2026-01-11 13:25:26.27	233.38	19.54	-34.9	-36.3	18.3	0.00e+00	0	55	0	970981376	41	4201
2026-01-11 13:25:27.28	233.59	19.61	-34.8	-36.2	18.3	0.00e+00	0	55	0	976224256	41	4179
2026-01-11 13:25:28.29	233.80	19.68	-34.8	-36.2	18.3	0.00e+00	0	55	0	982515712	41	4183
2026-01-11 13:25:29.31	234.01	19.76	-34.8	-36.2	18.3	0.00e+00	0	55	0	987758592	41	4173
2026-01-11 13:25:30.31	234.22	19.83	-34.9	-36.3	18.2	0.00e+00	0	55	0	994050048	41	4219
2026-01-11 13:25:31.32	234.43	19.90	-35.0	-36.4	18.1	0.00e+00	0	55	0	999292928	41	4273
2026-01-11 13:25:32.33	234.65	19.97	-34.9	-36.3	18.2	0.00e+00	0	55	0	1004535808	41	4216
2026-01-11 13:25:33.34	234.86	20.04	-34.8	-36.2	18.3	0.00e+00	0	55	0	1010827264	41	4181
2026-01-11 13:25:34.35	235.08	20.11	-34.8	-36.1	18.4	0.00e+00	0	55	0	1016070144	41	4145
2026-01-11 13:25:35.36	235.29	20.18	-34.6	-36.0	18.5	0.00e+00	0	55	0	1022361600	41	4067
2026-01-11 13:25:36.37	235.51	20.25	-34.5	-35.8	18.6	0.00e+00	0	55	0	1027604480	41	3998
2026-01-11 13:25:37.38	235.73	20.32	-34.5	-35.9	18.6	0.00e+00	0	55	0	1032847360	40	4245
2026-01-11 13:25:38.39	235.95	20.40	-34.6	-36.0	18.5	0.00e+00	0	55	0	1039138816	40	4300
2026-01-11 13:25:39.40	236.17	20.47	-34.7	-36.1	18.4	0.00e+00	0	55	0	1044381696	40	4348
2026-01-11 13:25:40.41	236.39	20.53	-34.7	-36.0	18.5	0.00e+00	0	55	0	1050673152	40	4327
2026-01-11 13:25:41.42	236.61	20.60	-34.6	-36.0	18.5	0.00e+00	0	55	0	1055916032	40	4294
2026-01-11 13:25:42.43	236.84	20.67	-34.6	-36.0	18.5	0.00e+00	0	55	0	1062207488	40	4303
2026-01-11 13:25:43.44	237.06	20.74	-34.6	-36.0	18.5	0.00e+00	0	55	0	1067450368	40	4301
2026-01-11 13:25:44.45	237.28	20.81	-34.6	-36.0	18.5	0.00e+00	0	55	0	1072693248	40	4324
2026-01-11 13:25:45.46	237.51	20.88	-34.6	-36.0	18.5	0.00e+00	0	55	0	1078984704	40	4308
2026-01-11 13:25:46.47	237.74	20.95	-34.6	-36.0	18.5	0.00e+00	0	55	0	1084227584	40	4329
2026-01-11 13:25:47.48	237.97	21.02	-34.6	-36.0	18.4	0.00e+00	0	55	0	1090519040	40	4337
2026-01-11 13:25:48.49	238.20	21.08	-34.7	-36.1	18.4	0.00e+00	0	55	0	1095761920	40	4357
2026-01-11 13:25:49.50	238.43	21.15	-34.7	-36.1	18.4	0.00e+00	0	55	0	1101004800	40	4377
2026-01-11 13:25:50.51	238.66	21.22	-34.8	-36.2	18.3	0.00e+00	0	55	0	1107296256	40	4404
2026-01-11 13:25:51.52	238.89	21.29	-34.8	-36.2	18.3	0.00e+00	0	55	0	1112539136	40	4426
2026-01-11 13:25:52.53	239.12	21.35	-34.7	-36.2	18.3	0.00e+00	0	55	0	1118830592	40	4395
2026-01-11 13:25:53.54	239.36	21.42	-34.8	-36.0	18.9	0.00e+00	0	55	0	1124073472	40	4323
2026-01-11 13:25:54.55	239.59	21.48	-34.6	-35.8	19.1	0.00e+00	0	55	0	1129316352	40	4222
2026-01-11 13:25:55.56	239.83	21.55	-34.4	-35.6	19.2	0.00e+00	0	55	0	1135607808	40	4143
2026-01-11 13:25:56.57	240.06	21.62	-34.4	-35.6	19.2	0.00e+00	0	55	0	1140850688	40	4133
2026-01-11 13:25:57.58	240.30	21.68	-34.4	-35.6	19.2	0.00e+00	0	55	0	1147142144	40	4145
2026-01-11 13:25:58.59	240.54	21.75	-34.5	-35.8	19.1	0.00e+00	0	55	0	1152385024	40	4202
2026-01-11 13:25:59.60	240.78	21.81	-34.7	-36.0	18.9	0.00e+00	0	55	0	1158676480	40	4319
2026-01-11 13:26:00.61	241.02	21.87	-34.8	-36.1	18.8	0.00e+00	0	55	0	1163919360	40	4350
2026-01-11 13:26:01.62	241.26	21.94	-34.8	-36.0	18.9	0.00e+00	0	55	0	1170210816	40	4306
2026-01-11 13:26:02.63	241.50	22.00	-34.7	-35.9	19.0	0.00e+00	0	55	0	1175453696	40	4273
2026-01-11 13:26:03.64	241.75	22.06	-34.4	-35.6	19.2	0.00e+00	0	55	0	1180696576	40	4139
2026-01-11 13:26:04.65	241.99	22.13	-34.2	-35.4	19.5	0.00e+00	0	55	0	1186988032	40	4033
2026-01-11 13:26:05.66	242.24	22.19	-34.2	-35.3	19.5	0.00e+00	0	55	0	1192230912	40	4001
2026-01-11 13:26:06.67	242.49	22.25	-34.2	-35.3	19.5	0.00e+00	0	55	0	1198522368	40	4004
2026-01-11 13:26:07.68	242.73	22.31	-34.3	-35.4	19.4	0.00e+00	0	55	0	1203765248	40	4050
2026-01-11 13:26:08.69	242.98	22.37	-34.4	-35.5	19.3	0.00e+00	0	55	0	1209008128	40	4098
2026-01-11 13:26:09.70	243.23	22.43	-34.5	-35.8	19.1	0.00e+00	0	55	0	1215299584	40	4196
2026-01-11 13:26:10.71	243.48	22.49	-34.7	-35.9	19.0	0.00e+00	0	55	0	1220542464	40	4268
2026-01-11 13:26:11.72	243.73	22.55	-34.6	-35.8	19.1	0.00e+00	0	55	0	1226833920	40	4227
2026-01-11 13:26:12.73	243.98	22.61	-34.5	-35.7	19.2	0.00e+00	0	55	0	1232076800	40	4164
2026-01-11 13:26:13.73	244.24	22.67	-34.3	-35.5	19.3	0.00e+00	0	55	0	1237319680	40	4097
2026-01-11 13:26:14.74	244.49	22.73	-34.3	-35.5	19.4	0.00e+00	0	55	0	1243611136	40	4073
2026-01-11 13:26:15.76	244.75	22.79	-34.4	-35.5	19.4	0.00e+00	0	55	0	1248854016	40	4095
2026-01-11 13:26:16.77	245.00	22.85	-34.3	-35.5	19.4	0.00e+00	0	55	0	1255145472	40	4091
2026-01-11 13:26:17.78	245.26	22.90	-34.3	-35.5	19.3	0.00e+00	0	55	0	1260388352	40	4091
2026-01-11 13:26:18.79	245.52	22.96	-34.3	-35.5	19.4	0.00e+00	0	55	0	1266679808	40	4067
2026-01-11 13:26:19.80	245.78	23.02	-34.2	-35.4	19.5	0.00e+00	0	55	0	1271922688	40	4032
2026-01-11 13:26:20.81	246.04	23.07	-34.3	-35.4	19.4	0.00e+00	0	55	0	1277165568	40	4050
2026-01-11 13:26:21.82	246.30	23.13	-34.3	-35.5	19.4	0.00e+00	0	55	0	1283457024	40	4068
2026-01-11 13:26:22.82	246.56	23.18	-34.3	-35.5	19.4	0.00e+00	0	55	0	1288699904	40	4089
2026-01-11 13:26:23.84	246.82	23.24	-34.3	-35.5	19.3	0.00e+00	0	55	0	1294991360	40	4094
2026-01-11 13:26:24.85	247.08	23.29	-34.2	-35.4	19.5	0.00e+00	0	55	0	1300234240	40	4038
2026-01-11 13:26:25.86	247.35	23.34	-34.1	-35.3	19.6	0.00e+00	0	55	0	1305477120	40	3975
2026-01-11 13:26:26.87	247.61	23.40	-34.1	-35.2	19.7	0.00e+00	0	55	0	1311768576	40	3943
2026-01-11 13:26:27.88	247.88	23.45	-34.0	-35.2	19.7	0.00e+00	0	55	0	1317011456	40	3923
2026-01-11 13:26:28.89	248.15	23.50	-34.2	-35.4	19.5	0.00e+00	0	55	0	1323302912	40	4013
2026-01-11 13:26:29.90	248.41	23.55	-34.3	-35.5	19.4	0.00e+00	0	55	0	1328545792	40	4059
2026-01-11 13:26:30.91	248.68	23.60	-34.3	-35.5	19.4	0.00e+00	0	55	0	1333788672	40	4077
2026-01-11 13:26:31.92	248.95	23.65	-34.3	-35.5	19.4	0.00e+00	0	55	0	1340080128	40	4074
2026-01-11 13:26:32.93	249.22	23.70	-34.3	-35.5	19.4	0.00e+00	0	55	0	1345323008	40	4078
2026-01-11 13:26:33.94	249.49	23.75	-34.3	-35.5	19.4	0.00e+00	0	55	0	1351614464	40	4074
2026-01-11 13:26:34.95	249.76	23.80	-34.3	-35.5	19.4	0.00e+00	0	55	0	1356857344	40	4054
2026-01-11 13:26:35.96	250.04	23.85	-34.2	-35.4	19.5	0.00e+00	0	55	0	1363148800	40	4021
2026-01-11 13:26:36.97	250.31	23.89	-34.1	-35.2	19.7	0.00e+00	0	55	0	1368391680	40	3953
2026-01-11 13:26:37.98	250.58	23.94	-34.0	-35.1	19.7	0.00e+00	0	55	0	1374683136	40	3907
2026-01-11 13:26:38.99	250.86	23.99	-34.0	-35.1	19.7	0.00e+00	0	55	0	1379926016	40	3911
2026-01-11 13:26:40.00	251.13	24.03	-34.0	-35.2	19.7	0.00e+00	0	55	0	1385168896	40	3929
2026-01-11 13:26:41.01	251.41	24.08	-34.1	-35.3	19.6	0.00e+00	0	55	0	1391460352	40	3975
2026-01-11 13:26:42.02	251.69	24.12	-34.1	-35.3	19.6	0.00e+00	0	55	0	1396703232	40	3972
2026-01-11 13:26:43.03	251.97	24.16	-34.1	-35.3	19.6	0.00e+00	0	55	0	1402994688	40	3966
2026-01-11 13:26:44.04	252.24	24.21	-34.0	-35.2	19.7	0.00e+00	0	55	0	1408237568	40	3935
2026-01-11 13:26:45.05	252.52	24.25	-34.0	-35.1	19.8	0.00e+00	0	55	0	1413480448	40	3912
2026-01-11 13:26:46.05	252.80	24.29	-34.0	-35.2	19.8	0.00e+00	0	55	0	1419771904	39	4162
2026-01-11 13:26:47.06	253.08	24.33	-34.1	-35.2	19.8	0.00e+00	0	55	0	1425014784	39	4175
2026-01-11 13:26:48.07	253.36	24.37	-34.1	-35.3	19.7	0.00e+00	0	55	0	1431306240	39	4221
2026-01-11 13:26:49.08	253.65	24.41	-34.2	-35.3	19.6	0.00e+00	0	55	0	1436549120	39	4241
2026-01-11 13:26:50.09	253.93	24.45	-34.2	-35.3	19.6	0.00e+00	0	55	0	1441792000	39	4242
2026-01-11 13:26:51.10	254.21	24.49	-34.1	-35.2	19.7	0.00e+00	0	55	0	1448083456	39	4186
2026-01-11 13:26:52.11	254.50	24.53	-34.0	-35.2	19.8	0.00e+00	0	55	0	1453326336	39	4170
2026-01-11 13:26:53.12	254.78	24.56	-34.0	-35.2	19.8	0.00e+00	0	55	0	1459617792	39	4163
2026-01-11 13:26:54.13	255.07	24.60	-33.9	-35.1	19.9	0.00e+00	0	55	0	1464860672	39	4109
2026-01-11 13:26:55.14	255.35	24.64	-34.0	-35.1	19.9	0.00e+00	0	55	0	1471152128	39	4130
2026-01-11 13:26:56.15	255.64	24.67	-34.0	-35.1	19.8	0.00e+00	0	55	0	1476395008	39	4133
2026-01-11 13:26:57.17	255.93	24.71	-34.0	-35.2	19.8	0.00e+00	0	56	0	1482686464	39	4147
2026-01-11 13:26:58.18	256.22	24.74	-34.0	-35.1	19.8	0.00e+00	0	55	0	1487929344	39	4126
2026-01-11 13:26:59.19	256.51	24.77	-33.9	-35.0	19.9	0.00e+00	0	55	0	1493172224	39	4098
2026-01-11 13:27:00.20	256.80	24.80	-33.9	-35.0	19.9	0.00e+00	0	55	0	1499463680	39	4089
2026-01-11 13:27:01.20	257.08	24.84	-33.9	-35.1	19.9	0.00e+00	0	56	0	1504706560	39	4117
2026-01-11 13:27:02.21	257.38	24.87	-34.1	-35.3	19.7	0.00e+00	0	55	0	1510998016	39	4195
2026-01-11 13:27:03.22	257.67	24.90	-34.2	-35.3	19.7	0.00e+00	0	55	0	1516240896	39	4233
2026-01-11 13:27:04.23	257.96	24.93	-34.1	-35.3	19.7	0.00e+00	0	56	0	1521483776	39	4206
2026-01-11 13:27:05.24	258.25	24.95	-34.0	-35.2	19.8	0.00e+00	0	55	0	1527775232	39	4164
2026-01-11 13:27:06.25	258.54	24.98	-34.0	-35.1	19.9	0.00e+00	0	56	0	1533018112	39	4122
2026-01-11 13:27:07.26	258.84	25.01	-33.9	-35.1	19.9	0.00e+00	0	55	0	1538260992	39	4100
2026-01-11 13:27:08.27	259.13	25.04	-34.0	-35.1	19.8	0.00e+00	0	55	0	1544552448	39	4130
2026-01-11 13:27:09.28	259.42	25.06	-33.9	-35.1	19.9	0.00e+00	0	55	0	1549795328	39	4122
2026-01-11 13:27:10.28	259.71	25.09	-33.9	-35.0	19.9	0.00e+00	0	55	0	1556086784	39	4097
2026-01-11 13:27:11.29	260.01	25.11	-33.8	-35.0	20.0	0.00e+00	0	55	0	1561329664	39	4063
2026-01-11 13:27:12.31	260.31	25.13	-33.7	-34.9	20.1	0.00e+00	0	56	0	1567621120	39	4019
2026-01-11 13:27:13.32	260.60	25.16	-33.8	-34.9	20.1	0.00e+00	0	55	0	1572864000	39	4029
2026-01-11 13:27:14.32	260.90	25.18	-33.8	-34.9	20.0	0.00e+00	0	55	0	1579155456	39	4050
2026-01-11 13:27:15.33	261.19	25.20	-33.8	-35.0	20.0	0.00e+00	0	56	0	1584398336	39	4066
2026-01-11 13:27:16.34	261.49	25.22	-33.9	-35.0	20.0	0.00e+00	0	56	0	1589641216	39	4079
2026-01-11 13:27:17.35	261.79	25.24	-33.9	-35.0	20.0	0.00e+00	0	55	0	1595932672	39	4085
2026-01-11 13:27:18.36	262.08	25.26	-33.9	-35.1	19.9	0.00e+00	0	55	0	1601175552	39	4101
2026-01-11 13:27:19.37	262.38	25.27	-33.8	-35.0	20.0	0.00e+00	0	55	0	1607467008	39	4060
2026-01-11 13:27:20.38	262.68	25.29	-33.8	-34.9	20.0	0.00e+00	0	56	0	1612709888	39	4037
2026-01-11 13:27:21.39	262.98	25.31	-33.9	-35.0	20.0	0.00e+00	0	55	0	1617952768	39	4068
2026-01-11 13:27:22.40	263.28	25.32	-34.0	-35.1	19.9	0.00e+00	0	55	0	1624244224	39	4119
2026-01-11 13:27:23.41	263.58	25.34	-34.0	-35.2	19.8	0.00e+00	0	55	0	1629487104	39	4168
2026-01-11 13:27:24.42	263.88	25.35	-34.1	-35.2	19.8	0.00e+00	0	55	0	1635778560	39	4180
2026-01-11 13:27:25.43	264.18	25.36	-34.0	-35.2	19.8	0.00e+00	0	56	0	1641021440	39	4160
2026-01-11 13:27:26.44	264.48	25.38	-33.9	-35.0	20.0	0.00e+00	0	55	0	1646264320	39	4088
2026-01-11 13:27:27.45	264.78	25.39	-33.8	-34.9	20.0	0.00e+00	0	56	0	1652555776	39	4045
2026-01-11 13:27:28.46	265.08	25.40	-33.9	-35.0	20.0	0.00e+00	0	55	0	1657798656	39	4074
2026-01-11 13:27:29.47	265.38	25.41	-34.0	-35.1	19.8	0.00e+00	0	56	0	1664090112	39	4141
2026-01-11 13:27:30.48	265.68	25.42	-34.1	-35.3	19.7	0.00e+00	0	55	0	1669332992	39	4204
2026-01-11 13:27:31.49	265.98	25.43	-34.1	-35.3	19.7	0.00e+00	0	55	0	1675624448	39	4212
2026-01-11 13:27:32.49	266.28	25.43	-34.1	-35.2	19.8	0.00e+00	0	56	0	1680867328	39	4181
2026-01-11 13:27:33.50	266.58	25.44	-34.0	-35.2	19.8	0.00e+00	0	55	0	1686110208	39	4159
2026-01-11 13:27:34.52	266.88	25.44	-34.0	-35.2	19.8	0.00e+00	0	55	0	1692401664	39	4155
2026-01-11 13:27:35.52	267.18	25.45	-34.0	-35.2	19.8	0.00e+00	0	56	0	1697644544	39	4148
2026-01-11 13:27:36.53	267.48	25.45	-33.9	-35.0	19.9	0.00e+00	0	55	0	1703936000	39	4097
2026-01-11 13:27:37.54	267.78	25.46	-33.8	-35.0	20.0	0.00e+00	0	56	0	1709178880	39	4057
2026-01-11 13:27:38.56	268.09	25.46	-33.9	-35.0	20.0	0.00e+00	0	55	0	1714421760	39	4071
2026-01-11 13:27:39.57	268.39	25.46	-33.9	-35.0	19.9	0.00e+00	0	56	0	1720713216	39	4095
2026-01-11 13:27:40.58	268.69	25.46	-34.0	-35.1	19.9	0.00e+00	0	56	0	1725956096	39	4132
2026-01-11 13:27:41.59	268.99	25.46	-33.9	-35.1	19.9	0.00e+00	0	56	0	1732247552	39	4121
2026-01-11 13:27:42.60	269.29	25.46	-33.9	-35.0	19.9	0.00e+00	0	56	0	1737490432	39	4087
2026-01-11 13:27:43.60	269.59	25.46	-33.8	-35.0	20.0	0.00e+00	0	56	0	1742733312	39	4059
2026-01-11 13:27:44.61	269.89	25.46	-33.8	-34.9	20.1	0.00e+00	0	56	0	1749024768	39	4026
2026-01-11 13:27:45.62	270.19	25.45	-33.8	-35.0	20.0	0.00e+00	0	56	0	1754267648	39	4066
2026-01-11 13:27:46.63	270.49	25.45	-33.9	-35.0	19.9	0.00e+00	0	56	0	1760559104	39	4087
2026-01-11 13:27:47.64	270.80	25.44	-34.0	-35.1	19.9	0.00e+00	0	56	0	1765801984	39	4129
2026-01-11 13:27:48.65	271.10	25.44	-33.9	-35.0	19.9	0.00e+00	0	56	0	1772093440	39	4093
2026-01-11 13:27:49.66	271.40	25.43	-33.9	-35.0	20.0	0.00e+00	0	56	0	1777336320	39	4079
2026-01-11 13:27:50.67	271.70	25.42	-33.9	-35.0	19.9	0.00e+00	0	56	0	1783627776	39	4096
2026-01-11 13:27:51.68	272.00	25.41	-33.9	-35.1	19.9	0.00e+00	0	56	0	1788870656	39	4116
2026-01-11 13:27:52.69	272.30	25.41	-34.0	-35.1	19.9	0.00e+00	0	56	0	1794113536	39	4130
2026-01-11 13:27:53.70	272.60	25.40	-33.9	-35.1	19.9	0.00e+00	0	56	0	1800404992	39	4112
2026-01-11 13:27:54.71	272.90	25.38	-33.9	-35.0	20.0	0.00e+00	0	56	0	1805647872	39	4082
2026-01-11 13:27:55.72	273.20	25.37	-33.8	-35.0	20.0	0.00e+00	0	56	0	1811939328	39	4060
2026-01-11 13:27:56.73	273.50	25.36	-33.8	-34.9	20.0	0.00e+00	0	56	0	1817182208	39	4037
2026-01-11 13:27:57.74	273.80	25.35	-33.8	-35.0	20.0	0.00e+00	0	56	0	1822425088	39	4055
2026-01-11 13:27:58.75	274.10	25.33	-33.8	-35.0	20.0	0.00e+00	0	56	0	1828716544	39	4065
2026-01-11 13:27:59.76	274.40	25.32	-33.9	-35.0	19.9	0.00e+00	0	56	0	1833959424	39	4092
2026-01-11 13:28:00.77	274.69	25.30	-33.9	-35.0	20.0	0.00e+00	0	56	0	1840250880	39	4074
2026-01-11 13:28:01.78	274.99	25.29	-33.8	-35.0	20.0	0.00e+00	0	56	0	1845493760	39	4058
2026-01-11 13:28:02.79	275.29	25.27	-33.9	-35.0	20.0	0.00e+00	0	56	0	1850736640	39	4075
2026-01-11 13:28:03.80	275.59	25.25	-33.9	-35.1	19.9	0.00e+00	0	56	0	1857028096	39	4115
2026-01-11 13:28:04.81	275.88	25.23	-34.0	-35.1	19.8	0.00e+00	0	56	0	1862270976	39	4143
2026-01-11 13:28:05.82	276.18	25.21	-34.1	-35.2	19.8	0.00e+00	0	56	0	1868562432	39	4175
2026-01-11 13:28:06.83	276.48	25.19	-34.0	-35.2	19.8	0.00e+00	0	56	0	1873805312	39	4170
2026-01-11 13:28:07.84	276.77	25.17	-34.0	-35.1	19.9	0.00e+00	0	56	0	1880096768	39	4126
2026-01-11 13:28:08.85	277.07	25.15	-33.9	-35.1	19.9	0.00e+00	0	56	0	1885339648	39	4099
2026-01-11 13:28:09.85	277.36	25.13	-33.9	-35.0	19.9	0.00e+00	0	55	0	1890582528	39	4095
2026-01-11 13:28:10.86	277.66	25.10	-34.0	-35.1	19.9	0.00e+00	0	56	0	1896873984	39	4127
2026-01-11 13:28:11.87	277.95	25.08	-34.1	-35.2	19.7	0.00e+00	0	56	0	1902116864	39	4180
2026-01-11 13:28:12.89	278.25	25.05	-34.1	-35.2	19.7	0.00e+00	0	56	0	1908408320	39	4177
2026-01-11 13:28:13.90	278.54	25.03	-34.0	-35.2	19.8	0.00e+00	0	56	0	1913651200	39	4156
2026-01-11 13:28:14.91	278.83	25.00	-33.9	-35.1	19.9	0.00e+00	0	56	0	1918894080	39	4112
2026-01-11 13:28:15.92	279.13	24.98	-33.9	-35.1	19.9	0.00e+00	0	56	0	1925185536	39	4101
2026-01-11 13:28:16.93	279.42	24.95	-33.9	-35.0	19.9	0.00e+00	0	56	0	1930428416	39	4094
2026-01-11 13:28:17.94	279.71	24.92	-33.9	-35.1	19.9	0.00e+00	0	56	0	1936719872	39	4102
2026-01-11 13:28:18.95	280.00	24.89	-34.0	-35.1	19.8	0.00e+00	0	56	0	1941962752	39	4139
2026-01-11 13:28:19.96	280.29	24.86	-34.0	-35.2	19.8	0.00e+00	0	56	0	1948254208	39	4147
2026-01-11 13:28:20.97	280.58	24.83	-34.0	-35.1	19.8	0.00e+00	0	56	0	1953497088	39	4138
2026-01-11 13:28:21.98	280.87	24.80	-33.9	-35.1	19.9	0.00e+00	0	56	0	1958739968	39	4109
2026-01-11 13:28:22.99	281.16	24.76	-33.9	-35.0	19.9	0.00e+00	0	56	0	1965031424	39	4086
2026-01-11 13:28:24.00	281.45	24.73	-33.9	-35.1	19.9	0.00e+00	0	56	0	1970274304	39	4117
2026-01-11 13:28:25.00	281.73	24.70	-34.0	-35.1	19.8	0.00e+00	0	56	0	1976565760	39	4124
2026-01-11 13:28:26.01	282.02	24.66	-34.0	-35.2	19.8	0.00e+00	0	56	0	1981808640	39	4153
2026-01-11 13:28:27.02	282.30	24.63	-34.0	-35.1	19.8	0.00e+00	0	56	0	1988100096	39	4129
2026-01-11 13:28:28.03	282.59	24.59	-34.1	-35.2	19.7	0.00e+00	0	56	0	1993342976	39	4182
2026-01-11 13:28:29.04	282.87	24.56	-34.2	-35.4	19.6	0.00e+00	0	56	0	1998585856	39	4243
2026-01-11 13:28:30.05	283.16	24.52	-34.3	-35.5	19.5	0.00e+00	0	56	0	2004877312	39	4301
2026-01-11 13:28:31.06	283.44	24.48	-34.3	-35.6	19.4	0.00e+00	0	56	0	2010120192	39	4342
2026-01-11 13:28:32.07	283.72	24.44	-34.4	-35.6	19.3	0.00e+00	0	56	0	2016411648	39	4385
2026-01-11 13:28:33.08	284.01	24.40	-34.4	-35.6	19.4	0.00e+00	0	56	0	2021654528	39	4365
2026-01-11 13:28:34.09	284.29	24.36	-34.4	-35.6	19.4	0.00e+00	0	56	0	2026897408	39	4353
2026-01-11 13:28:35.10	284.57	24.32	-34.3	-35.5	19.4	0.00e+00	0	56	0	2033188864	39	4325
2026-01-11 13:28:36.11	284.85	24.28	-34.3	-35.5	19.5	0.00e+00	0	56	0	2038431744	39	4314
2026-01-11 13:28:37.11	285.13	24.24	-34.2	-35.4	19.6	0.00e+00	0	56	0	2044723200	39	4255
2026-01-11 13:28:38.13	285.41	24.20	-34.2	-35.4	19.6	0.00e+00	0	56	0	2049966080	39	4259
2026-01-11 13:28:39.13	285.68	24.16	-34.2	-35.4	19.5	0.00e+00	0	56	0	2055208960	39	4280
2026-01-11 13:28:40.15	285.96	24.11	-34.3	-35.4	19.5	0.00e+00	0	56	0	2061500416	39	4283
2026-01-11 13:28:41.16	286.24	24.07	-34.2	-35.4	19.5	0.00e+00	0	56	0	2066743296	39	4270
2026-01-11 13:28:42.17	286.51	24.02	-34.2	-35.4	19.5	0.00e+00	0	56	0	2073034752	39	4269
2026-01-11 13:28:43.18	286.79	23.98	-34.2	-35.4	19.6	0.00e+00	0	56	0	2078277632	39	4249
2026-01-11 13:28:44.18	287.06	23.93	-34.2	-35.4	19.6	0.00e+00	0	56	0	2083520512	39	4258
2026-01-11 13:28:45.19	287.33	23.88	-34.3	-35.4	19.5	0.00e+00	0	56	0	2089811968	39	4284
2026-01-11 13:28:46.20	287.60	23.84	-34.3	-35.5	19.5	0.00e+00	0	56	0	2095054848	39	4322
2026-01-11 13:28:47.21	287.88	23.79	-34.3	-35.5	19.5	0.00e+00	0	56	0	2101346304	39	4303
2026-01-11 13:28:48.22	288.15	23.74	-34.3	-35.5	19.4	0.00e+00	0	56	0	2106589184	39	4318
2026-01-11 13:28:49.23	288.42	23.69	-34.3	-35.5	19.5	0.00e+00	0	56	0	2112880640	39	4303
2026-01-11 13:28:50.24	288.69	23.64	-34.3	-35.5	19.5	0.00e+00	0	56	0	2118123520	39	4292
2026-01-11 13:28:51.25	288.95	23.59	-34.3	-35.5	19.5	0.00e+00	0	56	0	2123366400	39	4301
2026-01-11 13:28:52.26	289.22	23.54	-34.3	-35.5	19.4	0.00e+00	0	56	0	2129657856	39	4310
2026-01-11 13:28:53.27	289.49	23.49	-34.3	-35.5	19.4	0.00e+00	0	56	0	2134900736	39	4314
2026-01-11 13:28:54.28	289.75	23.44	-34.3	-35.5	19.5	0.00e+00	0	56	0	2141192192	39	4310
2026-01-11 13:28:55.29	290.02	23.39	-34.4	-35.5	19.4	0.00e+00	0	56	0	2146435072	39	4337
2026-01-11 13:28:56.31	290.28	23.33	-34.4	-35.6	19.3	0.00e+00	0	56	0	2151677952	39	4370
2026-01-11 13:28:57.32	290.55	23.28	-34.5	-35.7	19.3	0.00e+00	0	56	0	2157969408	39	4408
2026-01-11 13:28:58.33	290.81	23.23	-34.5	-35.7	19.2	0.00e+00	0	56	0	2163212288	39	4437
2026-01-11 13:28:59.34	291.07	23.17	-34.6	-35.8	19.2	0.00e+00	0	56	0	2169503744	39	4455
2026-01-11 13:29:00.35	291.33	23.12	-34.6	-35.8	19.2	0.00e+00	0	56	0	2174746624	39	4455
2026-01-11 13:29:01.36	291.59	23.06	-34.6	-35.8	19.2	0.00e+00	0	56	0	2179989504	39	4448
2026-01-11 13:29:02.37	291.85	23.01	-34.5	-35.7	19.2	0.00e+00	0	56	0	2186280960	39	4424
2026-01-11 13:29:03.38	292.11	22.95	-34.5	-35.7	19.3	0.00e+00	0	56	0	2191523840	39	4403
2026-01-11 13:29:04.39	292.36	22.90	-34.5	-35.7	19.2	0.00e+00	0	56	0	2197815296	39	4425
2026-01-11 13:29:05.40	292.62	22.84	-34.5	-35.8	19.2	0.00e+00	0	56	0	2203058176	39	4442
2026-01-11 13:29:06.41	292.87	22.78	-34.6	-35.8	19.2	0.00e+00	0	56	0	2209349632	39	4453
2026-01-11 13:29:07.42	293.13	22.72	-34.6	-35.8	19.1	0.00e+00	0	56	0	2214592512	39	4483
2026-01-11 13:29:08.43	293.38	22.67	-34.6	-35.9	19.1	0.00e+00	0	56	0	2220883968	39	4494
2026-01-11 13:29:09.44	293.63	22.61	-34.6	-35.9	19.0	0.00e+00	0	56	0	2226126848	39	4503
2026-01-11 13:29:10.44	293.88	22.55	-34.6	-35.8	19.1	0.00e+00	0	56	0	2231369728	39	4486
2026-01-11 13:29:11.45	294.13	22.49	-34.6	-35.8	19.1	0.00e+00	0	56	0	2237661184	39	4481
2026-01-11 13:29:12.46	294.38	22.43	-34.6	-35.9	19.1	0.00e+00	0	56	0	2242904064	39	4507
2026-01-11 13:29:13.47	294.63	22.37	-34.7	-35.9	19.0	0.00e+00	0	56	0	2249195520	39	4531
2026-01-11 13:29:14.48	294.88	22.31	-34.7	-35.9	19.0	0.00e+00	0	56	0	2254438400	39	4542
2026-01-11 13:29:15.49	295.12	22.25	-34.7	-35.9	18.9	0.00e+00	0	56	0	2259681280	40	4268
2026-01-11 13:29:16.50	295.37	22.19	-34.7	-35.9	18.9	0.00e+00	0	56	0	2265972736	40	4267
2026-01-11 13:29:17.52	295.62	22.12	-34.6	-35.8	19.0	0.00e+00	0	56	0	2271215616	40	4231
2026-01-11 13:29:18.53	295.86	22.06	-34.6	-35.8	19.0	0.00e+00	0	56	0	2277507072	40	4216
2026-01-11 13:29:19.54	296.10	22.00	-34.6	-35.8	19.0	0.00e+00	0	56	0	2282749952	40	4241
2026-01-11 13:29:20.55	296.34	21.93	-34.7	-35.9	18.9	0.00e+00	0	56	0	2287992832	40	4281
2026-01-11 13:29:21.56	296.58	21.87	-34.8	-36.0	18.8	0.00e+00	0	56	0	2294284288	40	4337
2026-01-11 13:29:22.57	296.82	21.81	-34.8	-36.1	18.7	0.00e+00	0	56	0	2299527168	40	4373
2026-01-11 13:29:23.58	297.06	21.74	-34.9	-36.1	18.7	0.00e+00	0	56	0	2305818624	40	4387
2026-01-11 13:29:24.59	297.30	21.68	-34.8	-36.1	18.7	0.00e+00	0	56	0	2311061504	40	4361
2026-01-11 13:29:25.60	297.54	21.62	-34.8	-36.1	18.8	0.00e+00	0	56	0	2317352960	40	4348
2026-01-11 13:29:26.61	297.77	21.55	-34.8	-36.0	18.8	0.00e+00	0	56	0	2322595840	40	4320
2026-01-11 13:29:27.62	298.01	21.48	-34.7	-35.9	18.9	0.00e+00	0	56	0	2328887296	40	4261
2026-01-11 13:29:28.62	298.24	21.42	-34.6	-35.8	19.0	0.00e+00	0	56	0	2334130176	40	4222
2026-01-11 13:29:29.63	298.47	21.35	-34.5	-35.7	19.1	0.00e+00	0	56	0	2339373056	40	4180
2026-01-11 13:29:30.64	298.70	21.29	-34.5	-35.7	19.1	0.00e+00	0	56	0	2345664512	40	4180
2026-01-11 13:29:31.65	298.93	21.22	-34.6	-35.8	19.0	0.00e+00	0	56	0	2350907392	40	4235
2026-01-11 13:29:32.66	299.16	21.15	-34.8	-36.0	18.8	0.00e+00	0	56	0	2357198848	40	4318
2026-01-11 13:29:33.67	299.39	21.09	-34.9	-36.2	18.6	0.00e+00	0	56	0	2362441728	40	4409
2026-01-11 13:29:34.68	299.62	21.02	-35.0	-36.3	18.6	0.00e+00	0	56	0	2367684608	40	4457
2026-01-11 13:29:35.69	299.85	20.95	-35.1	-36.4	18.4	0.00e+00	0	56	0	2373976064	40	4519
2026-01-11 13:29:36.70	300.07	20.88	-35.1	-36.4	18.4	0.00e+00	0	56	0	2379218944	40	4539
2026-01-11 13:29:37.71	300.30	20.82	-35.0	-36.3	18.5	0.00e+00	0	56	0	2385510400	40	4489
2026-01-11 13:29:38.72	300.52	20.75	-35.0	-36.3	18.5	0.00e+00	0	56	0	2390753280	40	4458
2026-01-11 13:29:39.73	300.75	20.68	-35.0	-36.3	18.5	0.00e+00	0	56	0	2395996160	40	4459
2026-01-11 13:29:40.74	300.97	20.61	-35.0	-36.3	18.5	0.00e+00	0	56	0	2402287616	40	4453
2026-01-11 13:29:41.75	301.19	20.54	-35.0	-36.3	18.5	0.00e+00	0	56	0	2407530496	40	4485
2026-01-11 13:29:42.77	301.41	20.47	-35.0	-36.3	18.5	0.00e+00	0	56	0	2413821952	40	4484
2026-01-11 13:29:43.78	301.63	20.40	-35.0	-36.3	18.5	0.00e+00	0	56	0	2419064832	40	4471
2026-01-11 13:29:44.79	301.85	20.33	-35.1	-36.3	18.4	0.00e+00	0	56	0	2425356288	40	4488
2026-01-11 13:29:45.79	302.06	20.26	-35.0	-36.3	18.5	0.00e+00	0	56	0	2430599168	40	4460
2026-01-11 13:29:46.80	302.28	20.19	-35.0	-36.3	18.5	0.00e+00	0	56	0	2435842048	40	4455
2026-01-11 13:29:47.81	302.50	20.12	-34.9	-36.2	18.6	0.00e+00	0	56	0	2442133504	40	4421
2026-01-11 13:29:48.82	302.71	20.05	-35.0	-36.2	18.6	0.00e+00	0	56	0	2447376384	40	4429
2026-01-11 13:29:49.83	302.92	19.98	-35.0	-36.3	18.5	0.00e+00	0	56	0	2453667840	40	4467
2026-01-11 13:29:50.84	303.14	19.91	-35.1	-36.4	18.4	0.00e+00	0	56	0	2458910720	40	4517
2026-01-11 13:29:51.85	303.35	19.84	-35.1	-36.4	18.4	0.00e+00	0	56	0	2464153600	40	4532
2026-01-11 13:29:52.86	303.56	19.77	-35.1	-36.4	18.4	0.00e+00	0	56	0	2470445056	40	4534
2026-01-11 13:29:53.87	303.77	19.70	-35.1	-36.4	18.3	0.00e+00	0	56	0	2475687936	40	4532
2026-01-11 13:29:54.88	303.98	19.63	-35.1	-36.4	18.4	0.00e+00	0	56	0	2481979392	40	4505
2026-01-11 13:29:55.89	304.18	19.55	-35.1	-36.4	18.4	0.00e+00	0	56	0	2487222272	40	4524
2026-01-11 13:29:56.90	304.39	19.48	-35.2	-36.5	18.3	0.00e+00	0	56	0	2492465152	40	4559
2026-01-11 13:29:57.91	304.60	19.41	-35.3	-36.7	18.1	0.00e+00	0	56	0	2498756608	41	4404
2026-01-11 13:29:58.92	304.80	19.34	-35.4	-36.7	18.0	0.00e+00	0	56	0	2503999488	41	4434
2026-01-11 13:29:59.93	305.00	19.27	-35.5	-36.9	17.9	0.00e+00	0	56	0	2510290944	41	4496
2026-01-11 13:30:00.94	305.21	19.19	-35.5	-36.9	17.9	0.00e+00	0	56	0	2515533824	41	4503
2026-01-11 13:30:01.95	305.41	19.12	-35.5	-36.9	17.9	0.00e+00	0	56	0	2521825280	41	4503
2026-01-11 13:30:02.95	305.61	19.05	-35.5	-36.8	17.9	0.00e+00	0	56	0	2527068160	41	4471
2026-01-11 13:30:03.96	305.81	18.98	-35.4	-36.8	18.0	0.00e+00	0	56	0	2533359616	41	4447
2026-01-11 13:30:04.97	306.01	18.90	-35.5	-36.9	17.9	0.00e+00	0	56	0	2538602496	41	4496
2026-01-11 13:30:05.98	306.21	18.83	-35.6	-37.0	17.8	0.00e+00	0	56	0	2543845376	41	4553
2026-01-11 13:30:06.99	306.40	18.76	-35.6	-37.0	17.8	0.00e+00	0	56	0	2550136832	41	4573
2026-01-11 13:30:08.00	306.60	18.68	-35.7	-37.0	17.7	0.00e+00	0	56	0	2555379712	41	4594
2026-01-11 13:30:09.01	306.79	18.61	-35.7	-37.0	17.7	0.00e+00	0	56	0	2560622592	41	4589
2026-01-11 13:30:10.02	306.99	18.54	-35.7	-37.0	17.7	0.00e+00	0	56	0	2566914048	41	4596
2026-01-11 13:30:11.03	307.18	18.46	-35.6	-37.0	17.8	0.00e+00	0	56	0	2572156928	41	4565
2026-01-11 13:30:12.04	307.38	18.39	-35.5	-36.9	17.9	0.00e+00	0	56	0	2578448384	41	4513
2026-01-11 13:30:13.05	307.57	18.31	-35.5	-36.9	17.9	0.00e+00	0	56	0	2583691264	41	4494
2026-01-11 13:30:14.06	307.76	18.24	-35.5	-36.9	17.8	0.00e+00	0	56	0	2589982720	41	4507
2026-01-11 13:30:15.07	307.95	18.17	-35.6	-36.9	17.8	0.00e+00	0	56	0	2595225600	41	4544
2026-01-11 13:30:16.08	308.14	18.09	-35.6	-37.0	17.7	0.00e+00	0	56	0	2600468480	41	4560
2026-01-11 13:30:17.09	308.32	18.02	-35.6	-37.0	17.8	0.00e+00	0	56	0	2606759936	41	4563
2026-01-11 13:30:18.10	308.51	17.94	-35.7	-37.1	17.7	0.00e+00	0	56	0	2612002816	41	4603
2026-01-11 13:30:19.11	308.70	17.87	-35.7	-37.1	17.6	0.00e+00	0	56	0	2618294272	41	4625
2026-01-11 13:30:20.12	308.88	17.80	-35.7	-37.1	17.7	0.00e+00	0	56	0	2623537152	41	4605
2026-01-11 13:30:21.13	309.07	17.72	-35.6	-37.0	17.7	0.00e+00	0	56	0	2629828608	41	4590
2026-01-11 13:30:22.14	309.25	17.65	-35.6	-37.0	17.7	0.00e+00	0	56	0	2635071488	41	4563
2026-01-11 13:30:23.15	309.43	17.57	-35.5	-36.9	17.8	0.00e+00	0	56	0	2640314368	41	4506
2026-01-11 13:30:24.16	309.62	17.50	-35.5	-36.8	17.9	0.00e+00	0	56	0	2646605824	41	4476
2026-01-11 13:30:25.17	309.80	17.42	-35.5	-36.8	17.9	0.00e+00	0	56	0	2651848704	41	4473
2026-01-11 13:30:26.18	309.98	17.35	-35.6	-36.9	17.8	0.00e+00	0	56	0	2658140160	41	4535
2026-01-11 13:30:27.19	310.16	17.27	-35.7	-37.1	17.6	0.00e+00	0	56	0	2663383040	41	4617
2026-01-11 13:30:28.19	310.33	17.20	-35.9	-37.3	17.4	0.00e+00	0	56	0	2668625920	42	4461
2026-01-11 13:30:29.20	310.51	17.13	-36.0	-37.5	17.2	0.00e+00	0	56	0	2674917376	42	4567
2026-01-11 13:30:30.21	310.69	17.05	-36.2	-37.7	17.1	0.00e+00	0	56	0	2680160256	42	4653
2026-01-11 13:30:31.22	310.86	16.98	-36.2	-37.7	17.0	0.00e+00	0	56	0	2686451712	43	4425
2026-01-11 13:30:32.23	311.04	16.90	-36.2	-37.6	17.1	0.00e+00	0	56	0	2691694592	43	4386
2026-01-11 13:30:33.24	311.21	16.83	-36.2	-37.6	17.1	0.00e+00	0	56	0	2696937472	43	4375
2026-01-11 13:30:34.25	311.39	16.75	-36.0	-37.4	17.2	0.00e+00	0	56	0	2703228928	43	4290
2026-01-11 13:30:35.26	311.56	16.68	-36.0	-37.4	17.3	0.00e+00	0	56	0	2708471808	43	4262
2026-01-11 13:30:36.27	311.73	16.60	-35.9	-37.3	17.3	0.00e+00	0	56	0	2714763264	43	4241
2026-01-11 13:30:37.28	311.90	16.53	-36.0	-37.4	17.3	0.00e+00	0	56	0	2720006144	43	4268
2026-01-11 13:30:38.29	312.07	16.45	-36.0	-37.4	17.2	0.00e+00	0	56	0	2726297600	43	4289
2026-01-11 13:30:39.30	312.24	16.38	-36.1	-37.5	17.2	0.00e+00	0	56	0	2731540480	43	4323
2026-01-11 13:30:40.31	312.41	16.30	-36.1	-37.5	17.2	0.00e+00	0	56	0	2736783360	43	4337
2026-01-11 13:30:41.32	312.58	16.23	-36.1	-37.6	17.1	0.00e+00	0	56	0	2743074816	43	4363
2026-01-11 13:30:42.32	312.74	16.15	-36.1	-37.5	17.1	0.00e+00	0	56	0	2748317696	43	4330
2026-01-11 13:30:43.34	312.91	16.08	-36.1	-37.5	17.2	0.00e+00	0	56	0	2754609152	43	4320
2026-01-11 13:30:44.35	313.07	16.00	-36.1	-37.5	17.2	0.00e+00	0	56	0	2759852032	43	4320
2026-01-11 13:30:45.36	313.24	15.93	-36.1	-37.5	17.2	0.00e+00	0	56	0	2765094912	43	4317
2026-01-11 13:30:46.37	313.40	15.85	-36.1	-37.6	17.1	0.00e+00	0	56	0	2771386368	43	4363
2026-01-11 13:30:47.38	313.56	15.78	-36.1	-37.6	17.1	0.00e+00	0	56	0	2776629248	43	4368
2026-01-11 13:30:48.39	313.73	15.70	-36.1	-37.6	17.1	0.00e+00	0	56	0	2782920704	43	4369
2026-01-11 13:30:49.40	313.89	15.63	-36.2	-37.7	17.0	0.00e+00	0	56	0	2788163584	43	4401
2026-01-11 13:30:50.41	314.05	15.55	-36.2	-37.7	17.0	0.00e+00	0	56	0	2793406464	43	4394
2026-01-11 13:30:51.42	314.21	15.48	-36.1	-37.6	17.1	0.00e+00	0	56	0	2799697920	43	4346
2026-01-11 13:30:52.43	314.37	15.41	-36.1	-37.5	17.1	0.00e+00	0	56	0	2804940800	43	4319
2026-01-11 13:30:53.44	314.52	15.33	-36.1	-37.5	17.1	0.00e+00	0	56	0	2811232256	43	4327
2026-01-11 13:30:54.44	314.68	15.26	-36.1	-37.6	17.1	0.00e+00	0	56	0	2816475136	43	4342
2026-01-11 13:30:55.45	314.84	15.18	-36.1	-37.6	17.1	0.00e+00	0	56	0	2822766592	43	4355
2026-01-11 13:30:56.46	314.99	15.11	-36.2	-37.6	17.0	0.00e+00	0	56	0	2828009472	43	4390
2026-01-11 13:30:57.47	315.15	15.03	-36.2	-37.7	16.9	0.00e+00	0	56	0	2834300928	43	4425
2026-01-11 13:30:58.48	315.30	14.96	-36.3	-37.8	16.9	0.00e+00	0	56	0	2839543808	43	4463
2026-01-11 13:30:59.49	315.45	14.88	-36.3	-37.8	16.8	0.00e+00	0	56	0	2844786688	43	4491
2026-01-11 13:31:00.50	315.61	14.81	-36.4	-37.9	16.8	0.00e+00	0	56	0	2851078144	43	4499
2026-01-11 13:31:01.51	315.76	14.74	-36.3	-37.8	16.8	0.00e+00	0	56	0	2856321024	43	4477
2026-01-11 13:31:02.52	315.91	14.66	-36.3	-37.8	16.8	0.00e+00	0	56	0	2862612480	43	4457
2026-01-11 13:31:03.53	316.06	14.59	-36.2	-37.7	16.9	0.00e+00	0	56	0	2867855360	43	4430
2026-01-11 13:31:04.54	316.21	14.51	-36.2	-37.6	17.0	0.00e+00	0	56	0	2873098240	43	4379
2026-01-11 13:31:05.55	316.36	14.44	-36.1	-37.6	17.0	0.00e+00	0	56	0	2879389696	43	4346
2026-01-11 13:31:06.56	316.51	14.36	-36.1	-37.5	17.1	0.00e+00	0	56	0	2884632576	43	4331
2026-01-11 13:31:07.57	316.66	14.29	-36.2	-37.6	17.0	0.00e+00	0	56	0	2890924032	43	4369
2026-01-11 13:31:08.58	316.80	14.22	-36.2	-37.7	16.9	0.00e+00	0	56	0	2896166912	43	4408
2026-01-11 13:31:09.59	316.95	14.14	-36.3	-37.8	16.8	0.00e+00	0	56	0	2901409792	43	4461
2026-01-11 13:31:10.60	317.10	14.07	-36.4	-37.9	16.7	0.00e+00	0	56	0	2907701248	43	4525
2026-01-11 13:31:11.60	317.24	14.00	-36.5	-38.0	16.6	0.00e+00	0	56	0	2912944128	43	4568
2026-01-11 13:31:12.61	317.38	13.92	-36.5	-38.0	16.5	0.00e+00	0	56	0	2919235584	43	4587
2026-01-11 13:31:13.62	317.53	13.85	-36.5	-38.1	16.5	0.00e+00	0	56	0	2924478464	43	4607
2026-01-11 13:31:14.63	317.67	13.77	-36.6	-38.2	16.4	0.00e+00	0	56	0	2930769920	43	4670
2026-01-11 13:31:15.64	317.81	13.70	-36.6	-38.2	16.4	0.00e+00	0	56	0	2936012800	43	4657
2026-01-11 13:31:16.65	317.95	13.63	-36.6	-38.1	16.4	0.00e+00	0	56	0	2941255680	43	4649
2026-01-11 13:31:17.66	318.09	13.55	-36.6	-38.1	16.4	0.00e+00	0	56	0	2947547136	43	4639
2026-01-11 13:31:18.67	318.23	13.48	-36.6	-38.1	16.5	0.00e+00	0	56	0	2952790016	43	4620
2026-01-11 13:31:19.68	318.37	13.41	-36.6	-38.2	16.4	0.00e+00	0	56	0	2959081472	43	4674
2026-01-11 13:31:20.69	318.51	13.33	-36.6	-38.2	16.3	0.00e+00	0	56	0	2964324352	43	4678
2026-01-11 13:31:21.70	318.65	13.26	-36.7	-38.3	16.3	0.00e+00	0	56	0	2969567232	43	4716
2026-01-11 13:31:22.71	318.79	13.19	-36.9	-38.5	16.2	0.00e+00	0	56	0	2975858688	44	4566
2026-01-11 13:31:23.72	318.92	13.11	-36.9	-38.5	16.2	0.00e+00	0	56	0	2981101568	44	4595
2026-01-11 13:31:24.73	319.06	13.04	-36.9	-38.6	16.2	0.00e+00	0	56	0	2987393024	44	4603
2026-01-11 13:31:25.73	319.19	12.97	-37.0	-38.6	16.1	0.00e+00	0	56	0	2992635904	44	4606
2026-01-11 13:31:26.75	319.33	12.90	-37.0	-38.7	16.1	0.00e+00	0	56	0	2997878784	44	4655
2026-01-11 13:31:27.76	319.46	12.82	-37.0	-38.7	16.1	0.00e+00	0	56	0	3004170240	44	4652
2026-01-11 13:31:28.77	319.60	12.75	-37.0	-38.6	16.1	0.00e+00	0	56	0	3009413120	44	4644
2026-01-11 13:31:29.77	319.73	12.68	-37.0	-38.6	16.1	0.00e+00	0	56	0	3015704576	44	4627
2026-01-11 13:31:30.78	319.86	12.61	-37.0	-38.6	16.1	0.00e+00	0	56	0	3020947456	44	4607
2026-01-11 13:31:31.79	319.99	12.53	-37.1	-38.7	16.0	0.00e+00	0	56	0	3027238912	44	4676
2026-01-11 13:31:32.80	320.12	12.46	-37.1	-38.8	15.9	0.00e+00	0	56	0	3032481792	44	4725
2026-01-11 13:31:33.81	320.25	12.39	-37.1	-38.7	16.0	0.00e+00	0	56	0	3038773248	44	4677
2026-01-11 13:31:34.82	320.38	12.32	-37.0	-38.7	16.0	0.00e+00	0	56	0	3044016128	44	4660
2026-01-11 13:31:35.83	320.51	12.25	-37.1	-38.7	16.0	0.00e+00	0	56	0	3049259008	44	4670
2026-01-11 13:31:36.84	320.64	12.17	-37.1	-38.8	15.9	0.00e+00	0	56	0	3055550464	44	4736
2026-01-11 13:31:37.85	320.77	12.10	-37.1	-38.7	15.9	0.00e+00	0	56	0	3060793344	44	4691
2026-01-11 13:31:38.86	320.90	12.03	-37.1	-38.7	15.9	0.00e+00	0	56	0	3067084800	44	4679
2026-01-11 13:31:39.87	321.02	11.96	-37.0	-38.6	16.0	0.00e+00	0	56	0	3072327680	44	4639
2026-01-11 13:31:40.88	321.15	11.89	-37.0	-38.6	16.0	0.00e+00	0	56	0	3077570560	44	4647
2026-01-11 13:31:41.89	321.28	11.81	-37.0	-38.6	16.0	0.00e+00	0	56	0	3083862016	44	4636
2026-01-11 13:31:42.90	321.40	11.74	-37.0	-38.6	16.0	0.00e+00	0	56	0	3089104896	44	4649
2026-01-11 13:31:43.91	321.53	11.67	-37.1	-38.7	15.9	0.00e+00	0	56	0	3095396352	44	4657
2026-01-11 13:31:44.92	321.65	11.60	-37.0	-38.6	15.9	0.00e+00	0	56	0	3100639232	44	4648
2026-01-11 13:31:45.93	321.77	11.53	-37.1	-38.7	15.9	0.00e+00	0	56	0	3105882112	44	4702
2026-01-11 13:31:46.94	321.89	11.46	-37.2	-38.8	15.8	0.00e+00	0	56	0	3112173568	44	4736
2026-01-11 13:31:47.95	322.02	11.39	-37.1	-38.8	15.8	0.00e+00	0	56	0	3117416448	44	4726
2026-01-11 13:31:48.96	322.14	11.32	-37.2	-38.9	15.7	0.00e+00	0	56	0	3123707904	44	4768
2026-01-11 13:31:49.98	322.26	11.25	-37.3	-39.0	15.6	0.00e+00	0	56	0	3128950784	45	4547
2026-01-11 13:31:50.99	322.38	11.17	-37.3	-39.0	15.6	0.00e+00	0	56	0	3135242240	45	4559
2026-01-11 13:31:52.00	322.50	11.10	-37.3	-39.0	15.6	0.00e+00	0	56	0	3140485120	45	4550
2026-01-11 13:31:53.01	322.62	11.03	-37.3	-39.1	15.5	0.00e+00	0	56	0	3146776576	45	4604
2026-01-11 13:31:54.02	322.74	10.96	-37.3	-39.0	15.5	0.00e+00	0	56	0	3152019456	45	4598
2026-01-11 13:31:55.03	322.86	10.89	-37.4	-39.1	15.5	0.00e+00	0	56	0	3157262336	45	4606
2026-01-11 13:31:56.04	322.97	10.82	-37.3	-39.0	15.5	0.00e+00	0	56	0	3163553792	45	4570
2026-01-11 13:31:57.05	323.09	10.75	-37.3	-39.0	15.5	0.00e+00	0	56	0	3168796672	45	4577
2026-01-11 13:31:58.06	323.21	10.68	-37.2	-38.9	15.7	0.00e+00	0	56	0	3174039552	45	4506
2026-01-11 13:31:59.07	323.32	10.61	-37.2	-38.9	15.6	0.00e+00	0	56	0	3180331008	45	4534
2026-01-11 13:32:00.08	323.44	10.54	-37.2	-38.9	15.7	0.00e+00	0	56	0	3185573888	45	4499
2026-01-11 13:32:01.09	323.55	10.47	-37.3	-39.0	15.6	0.00e+00	0	56	0	3191865344	45	4549
2026-01-11 13:32:02.10	323.67	10.40	-37.1	-38.8	15.7	0.00e+00	0	56	0	3197108224	45	4462
2026-01-11 13:32:03.11	323.78	10.33	-37.2	-38.8	15.7	0.00e+00	0	56	0	3202351104	45	4489
2026-01-11 13:32:04.12	323.90	10.26	-37.2	-38.8	15.7	0.00e+00	0	56	0	3208642560	45	4485
2026-01-11 13:32:05.12	324.01	10.20	-37.2	-38.8	15.7	0.00e+00	0	56	0	3213885440	45	4487
2026-01-11 13:32:06.13	324.12	10.13	-37.2	-38.9	15.6	0.00e+00	0	56	0	3220176896	45	4525
2026-01-11 13:32:07.14	324.23	10.06	-37.3	-39.0	15.5	0.00e+00	0	56	0	3225419776	45	4557
2026-01-11 13:32:08.15	324.34	9.99	-37.3	-39.0	15.5	0.00e+00	0	56	0	3231711232	45	4577
2026-01-11 13:32:09.16	324.45	9.92	-37.4	-39.1	15.4	0.00e+00	0	56	0	3236954112	45	4620
2026-01-11 13:32:10.17	324.57	9.85	-37.4	-39.1	15.3	0.00e+00	0	56	0	3243245568	45	4635
2026-01-11 13:32:11.18	324.68	9.78	-37.4	-39.2	15.3	0.00e+00	0	56	0	3248488448	45	4653
2026-01-11 13:32:12.19	324.78	9.71	-37.4	-39.2	15.2	0.00e+00	0	56	0	3253731328	45	4691
2026-01-11 13:32:13.20	324.89	9.65	-37.5	-39.2	15.2	0.00e+00	0	56	0	3260022784	45	4692
2026-01-11 13:32:14.21	325.00	9.58	-37.5	-39.3	15.1	0.00e+00	0	56	0	3265265664	45	4756
2026-01-11 13:32:15.22	325.11	9.51	-37.5	-39.3	15.1	0.00e+00	0	56	0	3271557120	45	4741
2026-01-11 13:32:16.23	325.22	9.44	-37.6	-39.4	15.0	0.00e+00	0	56	0	3276800000	45	4802
2026-01-11 13:32:17.24	325.32	9.37	-37.6	-39.5	14.9	0.00e+00	0	56	0	3282042880	45	4828
2026-01-11 13:32:18.25	325.43	9.30	-37.7	-39.5	14.9	0.00e+00	0	56	0	3288334336	45	4836
2026-01-11 13:32:19.26	325.54	9.24	-37.7	-39.5	14.8	0.00e+00	0	56	0	3293577216	45	4860
2026-01-11 13:32:20.27	325.64	9.17	-37.7	-39.5	14.8	0.00e+00	0	56	0	3299868672	46	4589
2026-01-11 13:32:21.28	325.75	9.10	-37.8	-39.6	14.7	0.00e+00	0	56	0	3305111552	46	4642
2026-01-11 13:32:22.29	325.85	9.03	-37.9	-39.8	14.6	1.10e-06	0	56	0	3310354432	46	4712
2026-01-11 13:32:23.30	325.96	8.97	-38.0	-39.9	14.4	0.00e+00	0	56	0	3316645888	46	4799
2026-01-11 13:32:24.31	326.06	8.90	-37.9	-39.8	14.5	0.00e+00	0	56	0	3321888768	46	4735
2026-01-11 13:32:25.32	326.16	8.83	-37.9	-39.9	14.5	0.00e+00	0	56	0	3328180224	46	4767
2026-01-11 13:32:26.33	326.27	8.76	-38.0	-40.0	14.4	1.10e-06	0	56	0	3333423104	46	4817
2026-01-11 13:32:27.34	326.37	8.70	-38.1	-40.2	14.2	4.50e-06	0	56	0	3339714560	46	4927
2026-01-11 13:32:28.35	326.47	8.63	-38.0	-40.0	14.4	2.20e-06	0	56	0	3344957440	46	4826
2026-01-11 13:32:29.36	326.57	8.56	-38.0	-40.0	14.3	4.50e-06	0	56	0	3350200320	46	4837
2026-01-11 13:32:30.37	326.67	8.50	-38.2	-40.2	14.1	5.70e-06	0	56	0	3356491776	46	4959
2026-01-11 13:32:31.38	326.77	8.43	-38.0	-40.0	14.3	3.40e-06	0	56	0	3361734656	46	4830
2026-01-11 13:32:32.38	326.87	8.36	-38.0	-40.0	14.3	3.40e-06	0	56	0	3368026112	46	4822
2026-01-11 13:32:33.39	326.97	8.30	-38.0	-40.0	14.3	1.10e-06	0	56	0	3373268992	46	4817
2026-01-11 13:32:34.40	327.07	8.23	-37.9	-39.9	14.4	2.20e-06	0	56	0	3378511872	46	4779
2026-01-11 13:32:35.41	327.17	8.17	-38.0	-39.9	14.3	0.00e+00	0	56	0	3384803328	46	4795
2026-01-11 13:32:36.42	327.27	8.10	-38.0	-40.0	14.3	0.00e+00	0	56	0	3390046208	46	4828
2026-01-11 13:32:37.43	327.37	8.03	-38.5	-40.6	13.8	5.70e-06	0	56	0	3396337664	47	4906
2026-01-11 13:32:38.44	327.46	7.97	-44.4	-55.5	3.8	8.47e-01	0	56	104	3397386240	59	13633
2026-01-11 13:32:39.45	327.56	7.90	-44.7	-56.1	3.8	8.46e-01	0	56	104	3397386240	59	14633
2026-01-11 13:32:40.46	327.66	7.84	-44.8	-56.5	3.8	8.45e-01	0	56	104	3397386240	60	14375
2026-01-11 13:32:41.47	327.75	7.77	-44.9	-56.6	3.8	8.47e-01	0	56	104	3397386240	60	14651
