passes_logs/2026/01/11/R2.0S_Moscow/R2.0S_Moscow__20260111_115303_NOAA_21_JPSS-2_rec.log

#Pass ID: 20260111_115303_NOAA 21 (JPSS-2)
#Satellite: NOAA 21 (JPSS-2)
#Configuration: NOAA-21
#almurnet v.1.7.20251203
#Start time: 2026-01-11 11:54:20

#Version: 2.2.20231116
#Station: R2.0S_Moscow
#Location: 37.707566 lon 55.798166 lat
#TLE: 1 54234U 22150A   26009.79679979  .00000100  00000+0  68070-4 0  9993
#TLE: 2 54234  98.7494 310.7596 0000833 322.2782  37.8335 14.19533646164071

#Time	Az	El	Level	Level2	SNR	BER	BlckErr	Temp	State	Recorded	gain1	gain2
2026-01-11 11:54:20.62	229.55	5.83	-45.0	-56.8	3.8	8.46e-01	0	57	0	0	60	14898
2026-01-11 11:54:21.62	229.66	5.88	-45.2	-57.7	3.8	1.49e+00	0	57	104	0	62	14710
2026-01-11 11:54:22.63	229.78	5.93	-45.2	-57.6	3.8	1.49e+00	0	57	104	0	62	14661
2026-01-11 11:54:23.64	229.90	5.98	-45.2	-57.6	3.8	1.49e+00	0	57	104	0	62	14625
2026-01-11 11:54:24.65	230.02	6.03	-45.2	-57.6	3.8	1.49e+00	0	57	104	0	62	14624
2026-01-11 11:54:25.67	230.14	6.08	-45.1	-57.6	3.8	1.49e+00	0	57	104	0	62	14600
2026-01-11 11:54:26.67	230.25	6.13	-45.1	-57.6	3.8	1.49e+00	0	57	104	0	62	14551
2026-01-11 11:54:27.68	230.37	6.18	-45.1	-57.5	3.8	1.49e+00	0	57	104	0	62	14433
2026-01-11 11:54:28.69	230.49	6.23	-45.0	-57.4	3.8	1.49e+00	0	57	104	0	62	14290
2026-01-11 11:54:29.70	230.61	6.28	-44.8	-57.3	3.8	1.49e+00	0	57	104	0	61	14880
2026-01-11 11:54:30.71	230.73	6.34	-44.7	-57.1	3.8	1.49e+00	0	57	104	0	61	14624
2026-01-11 11:54:31.72	230.85	6.39	-44.5	-56.8	3.8	1.49e+00	0	57	104	0	60	15049
2026-01-11 11:54:32.73	230.97	6.44	-44.2	-56.6	3.8	1.49e+00	0	57	104	0	60	14545
2026-01-11 11:54:33.74	231.09	6.49	-44.2	-56.6	3.8	1.49e+00	0	57	104	0	60	14567
2026-01-11 11:54:34.75	231.21	6.54	-44.2	-56.6	3.8	1.49e+00	0	57	104	0	60	14594
2026-01-11 11:54:35.76	231.34	6.59	-44.2	-56.6	3.8	1.49e+00	0	57	104	0	60	14561
2026-01-11 11:54:36.77	231.46	6.64	-44.1	-56.6	3.8	1.49e+00	0	57	104	0	60	14596
2026-01-11 11:54:37.79	231.58	6.69	-44.1	-56.6	3.8	1.49e+00	0	57	104	0	60	14580
2026-01-11 11:54:38.79	231.70	6.74	-44.1	-56.6	3.8	1.49e+00	0	57	104	0	60	14606
2026-01-11 11:54:39.80	231.83	6.79	-44.1	-56.6	3.8	1.49e+00	0	57	104	0	60	14561
2026-01-11 11:54:40.81	231.95	6.84	-44.1	-56.6	3.8	1.49e+00	0	57	104	0	60	14564
2026-01-11 11:54:41.82	232.08	6.89	-44.1	-56.5	3.8	1.49e+00	0	57	104	0	60	14459
2026-01-11 11:54:42.83	232.20	6.94	-44.1	-56.5	3.8	1.49e+00	0	57	104	0	60	14378
2026-01-11 11:54:43.84	232.33	6.99	-44.1	-56.4	3.8	1.49e+00	0	57	104	0	60	14210
2026-01-11 11:54:44.86	232.45	7.04	-44.1	-56.2	3.8	1.49e+00	0	57	104	0	60	13911
2026-01-11 11:54:45.86	232.58	7.09	-44.0	-55.9	3.8	1.49e+00	0	57	104	0	60	13530
2026-01-11 11:54:46.88	232.71	7.14	-44.0	-55.6	3.8	1.49e+00	0	57	104	0	60	13074
2026-01-11 11:54:47.89	232.83	7.20	-44.0	-55.2	3.8	1.49e+00	0	57	104	0	60	12463
2026-01-11 11:54:48.90	232.96	7.25	-44.0	-54.7	3.9	1.49e+00	0	57	104	0	59	12471
2026-01-11 11:54:49.91	233.09	7.30	-44.0	-54.0	4.0	1.48e+00	0	57	104	0	59	11487
2026-01-11 11:54:50.92	233.22	7.35	-43.9	-54.0	3.9	1.47e+00	0	57	104	0	59	11446
2026-01-11 11:54:51.93	233.35	7.40	-43.9	-53.1	4.2	1.47e+00	0	57	104	0	59	10303
2026-01-11 11:54:52.94	233.48	7.45	-43.8	-52.8	4.0	1.46e+00	0	57	104	0	59	9951
2026-01-11 11:54:53.95	233.61	7.50	-43.8	-52.4	4.4	1.45e+00	0	57	104	0	59	9541
2026-01-11 11:54:54.96	233.74	7.55	-43.8	-52.2	4.1	1.38e+00	0	57	104	0	59	9384
2026-01-11 11:54:55.97	233.87	7.60	-43.7	-52.0	4.5	1.33e+00	4	57	104	0	59	9157
2026-01-11 11:54:56.98	234.00	7.65	-43.7	-51.9	4.5	1.16e+00	2	57	104	0	59	8990
2026-01-11 11:54:57.99	234.13	7.70	-43.7	-52.5	4.0	1.01e+00	5	57	104	0	59	9627
2026-01-11 11:54:59.00	234.26	7.75	-43.7	-51.9	4.5	1.26e+00	0	57	104	0	59	9025
2026-01-11 11:55:00.01	234.39	7.80	-43.7	-52.6	4.0	1.26e+00	0	57	104	0	59	9753
2026-01-11 11:55:01.02	234.53	7.85	-43.7	-52.0	4.5	1.19e+00	9	57	104	0	59	9098
2026-01-11 11:55:02.04	234.66	7.90	-43.7	-52.6	4.0	1.23e+00	0	57	104	0	59	9794
2026-01-11 11:55:03.05	234.79	7.95	-43.7	-51.8	4.6	1.23e+00	0	57	104	0	59	8904
2026-01-11 11:55:04.06	234.93	8.00	-43.6	-51.9	4.0	8.34e-01	0	57	104	0	59	9015
2026-01-11 11:55:05.07	235.06	8.05	-43.4	-50.3	5.4	5.80e-01	0	57	0	1048576	58	7973
2026-01-11 11:55:06.08	235.20	8.10	-43.1	-49.1	6.2	3.14e-01	0	57	0	4194304	58	6938
2026-01-11 11:55:07.09	235.33	8.15	-42.6	-47.8	7.3	1.72e-01	0	57	0	7340032	57	6318
2026-01-11 11:55:08.10	235.47	8.20	-42.2	-46.6	8.6	5.56e-02	0	57	0	10485760	56	5820
2026-01-11 11:55:09.11	235.60	8.25	-41.5	-45.3	9.7	1.48e-02	0	57	0	13631488	55	5307
2026-01-11 11:55:10.12	235.74	8.30	-40.9	-44.2	10.9	3.26e-03	0	57	0	16777216	53	5252
2026-01-11 11:55:11.13	235.88	8.35	-40.5	-43.5	11.4	7.29e-04	0	57	0	19922944	52	5137
2026-01-11 11:55:12.14	236.02	8.40	-40.1	-42.8	12.4	1.81e-04	0	57	0	23068672	52	4719
2026-01-11 11:55:13.15	236.15	8.45	-40.0	-42.6	12.7	9.30e-05	0	57	0	26214400	51	4903
2026-01-11 11:55:14.16	236.29	8.50	-39.9	-42.4	12.8	6.79e-05	0	57	0	29360128	51	4792
2026-01-11 11:55:15.17	236.43	8.55	-40.0	-42.6	12.7	9.46e-05	0	57	0	32505856	51	4884
2026-01-11 11:55:16.18	236.57	8.60	-44.6	-56.7	3.8	1.49e+00	0	57	104	33554432	59	15672
2026-01-11 11:55:17.19	236.71	8.65	-44.0	-54.7	3.8	1.01e+00	0	57	104	33554432	58	13110
2026-01-11 11:55:18.20	236.85	8.69	-41.2	-44.6	10.6	2.98e-03	0	57	0	34603008	53	5482
2026-01-11 11:55:19.21	236.99	8.74	-40.7	-43.8	11.4	2.21e-03	0	57	0	37748736	53	4996
2026-01-11 11:55:20.22	237.13	8.79	-41.9	-46.1	8.8	5.19e-02	0	57	0	41943040	55	5847
2026-01-11 11:55:21.23	237.27	8.84	-39.7	-42.2	13.1	4.57e-05	0	57	0	45088768	51	4678
2026-01-11 11:55:22.24	237.42	8.89	-39.7	-42.2	13.1	2.59e-05	0	57	0	47185920	51	4655
2026-01-11 11:55:23.25	237.56	8.94	-39.8	-42.3	13.1	3.12e-05	0	57	0	50331648	51	4709
2026-01-11 11:55:24.26	237.70	8.99	-39.6	-42.0	13.3	1.98e-05	0	57	0	53477376	51	4587
2026-01-11 11:55:25.27	237.85	9.04	-39.7	-42.0	13.3	1.90e-05	0	57	0	57671680	51	4597
2026-01-11 11:55:26.28	237.99	9.09	-39.7	-42.1	13.3	1.83e-05	0	57	0	60817408	51	4640
2026-01-11 11:55:27.29	238.13	9.14	-39.8	-42.2	13.1	2.51e-05	0	57	0	63963136	51	4689
2026-01-11 11:55:28.30	238.28	9.19	-39.6	-42.0	13.3	2.36e-05	0	57	0	67108864	51	4590
2026-01-11 11:55:29.31	238.42	9.23	-39.6	-41.9	13.4	2.13e-05	0	57	0	69206016	51	4537
2026-01-11 11:55:30.32	238.57	9.28	-39.6	-41.9	13.5	1.14e-05	0	57	0	73400320	51	4522
2026-01-11 11:55:31.33	238.72	9.33	-39.3	-41.5	13.8	4.50e-06	0	57	0	76546048	50	4593
2026-01-11 11:55:32.34	238.86	9.38	-39.2	-41.4	14.0	1.50e-06	0	57	0	79691776	50	4526
2026-01-11 11:55:33.35	239.01	9.43	-39.2	-41.3	14.0	3.80e-06	0	57	0	82837504	50	4488
2026-01-11 11:55:34.36	239.16	9.48	-39.1	-41.2	14.2	7.00e-07	0	57	0	85983232	50	4414
2026-01-11 11:55:35.37	239.31	9.53	-39.0	-41.1	14.2	3.00e-06	0	57	0	89128960	50	4386
2026-01-11 11:55:36.39	239.46	9.57	-39.0	-41.2	14.2	1.50e-06	0	57	0	92274688	50	4400
2026-01-11 11:55:37.39	239.61	9.62	-39.0	-41.2	14.2	3.00e-06	0	57	0	95420416	50	4401
2026-01-11 11:55:38.40	239.75	9.67	-39.0	-41.1	14.2	2.20e-06	0	57	0	98566144	50	4382
2026-01-11 11:55:39.41	239.90	9.72	-39.0	-41.1	14.2	2.20e-06	0	57	0	101711872	50	4386
2026-01-11 11:55:40.42	240.06	9.77	-39.0	-41.1	14.2	0.00e+00	0	57	0	104857600	50	4386
2026-01-11 11:55:41.43	240.21	9.81	-39.0	-41.1	14.2	1.50e-06	0	57	0	108003328	50	4382
2026-01-11 11:55:42.44	240.36	9.86	-38.9	-41.0	14.4	0.00e+00	0	57	0	111149056	49	4572
2026-01-11 11:55:43.45	240.51	9.91	-38.9	-41.0	14.3	2.20e-06	0	57	0	114294784	49	4598
2026-01-11 11:55:44.46	240.66	9.96	-39.0	-41.1	14.2	1.50e-06	0	57	0	117440512	49	4624
2026-01-11 11:55:45.47	240.82	10.00	-39.0	-41.2	14.2	0.00e+00	0	57	0	120586240	49	4664
2026-01-11 11:55:46.48	240.97	10.05	-39.0	-41.1	14.2	0.00e+00	0	57	0	123731968	49	4651
2026-01-11 11:55:47.48	241.12	10.10	-38.9	-41.1	14.3	1.50e-06	0	57	0	126877696	49	4607
2026-01-11 11:55:48.49	241.28	10.15	-38.9	-41.0	14.4	0.00e+00	0	57	0	130023424	49	4585
2026-01-11 11:55:49.51	241.43	10.19	-38.9	-41.0	14.4	1.50e-06	0	57	0	133169152	49	4573
2026-01-11 11:55:50.51	241.59	10.24	-39.0	-41.1	14.3	7.00e-07	0	57	0	136314880	49	4627
2026-01-11 11:55:51.52	241.74	10.29	-38.9	-41.0	14.4	0.00e+00	0	57	0	139460608	49	4588
2026-01-11 11:55:52.53	241.90	10.33	-39.0	-41.0	14.4	0.00e+00	0	57	0	142606336	49	4595
2026-01-11 11:55:53.54	242.06	10.38	-38.9	-41.0	14.4	0.00e+00	0	57	0	145752064	49	4577
2026-01-11 11:55:54.55	242.21	10.43	-38.9	-41.0	14.4	0.00e+00	0	57	0	148897792	49	4572
2026-01-11 11:55:55.56	242.37	10.47	-38.9	-40.9	14.5	7.00e-07	0	57	0	152043520	49	4541
2026-01-11 11:55:56.57	242.53	10.52	-38.8	-40.9	14.6	7.00e-07	0	57	0	155189248	49	4498
2026-01-11 11:55:57.58	242.69	10.57	-38.7	-40.7	14.7	0.00e+00	0	57	0	158334976	49	4418
2026-01-11 11:55:58.59	242.85	10.61	-38.7	-40.7	14.8	0.00e+00	0	57	0	161480704	49	4414
2026-01-11 11:55:59.60	243.01	10.66	-38.8	-40.8	14.6	0.00e+00	0	58	0	164626432	49	4476
2026-01-11 11:56:00.61	243.17	10.71	-38.7	-40.7	14.7	0.00e+00	0	57	0	167772160	49	4414
2026-01-11 11:56:01.62	243.33	10.75	-38.8	-40.8	14.7	0.00e+00	0	57	0	170917888	49	4467
2026-01-11 11:56:02.63	243.49	10.80	-38.7	-40.7	14.7	0.00e+00	0	57	0	174063616	49	4414
2026-01-11 11:56:03.64	243.65	10.84	-38.7	-40.7	14.8	0.00e+00	0	57	0	177209344	49	4400
2026-01-11 11:56:04.65	243.81	10.89	-38.6	-40.6	14.8	7.00e-07	0	57	0	180355072	49	4362
2026-01-11 11:56:05.66	243.98	10.93	-38.7	-40.6	14.8	0.00e+00	0	57	0	183500800	49	4380
2026-01-11 11:56:06.67	244.14	10.98	-38.7	-40.6	14.8	0.00e+00	0	57	0	186646528	49	4369
2026-01-11 11:56:07.68	244.30	11.02	-38.7	-40.7	14.8	2.20e-06	0	57	0	189792256	49	4404
2026-01-11 11:56:08.69	244.47	11.07	-38.7	-40.7	14.8	0.00e+00	0	57	0	192937984	49	4398
2026-01-11 11:56:09.70	244.63	11.11	-38.7	-40.7	14.8	7.00e-07	0	57	0	196083712	49	4393
2026-01-11 11:56:10.71	244.80	11.16	-38.7	-40.6	14.8	0.00e+00	0	57	0	199229440	49	4387
2026-01-11 11:56:11.72	244.96	11.20	-38.7	-40.7	14.8	0.00e+00	0	57	0	202375168	49	4406
2026-01-11 11:56:12.74	245.13	11.25	-38.7	-40.7	14.7	0.00e+00	0	57	0	205520896	49	4436
2026-01-11 11:56:13.75	245.30	11.29	-38.8	-40.8	14.7	0.00e+00	0	57	0	208666624	49	4443
2026-01-11 11:56:14.75	245.46	11.34	-38.7	-40.8	14.7	0.00e+00	0	57	0	211812352	49	4442
2026-01-11 11:56:15.76	245.63	11.38	-38.8	-40.8	14.7	0.00e+00	0	57	0	214958080	49	4446
2026-01-11 11:56:16.77	245.80	11.42	-38.8	-40.8	14.7	0.00e+00	0	57	0	218103808	49	4451
2026-01-11 11:56:17.78	245.97	11.47	-38.7	-40.7	14.8	0.00e+00	0	57	0	221249536	49	4392
2026-01-11 11:56:18.79	246.14	11.51	-38.7	-40.7	14.8	7.00e-07	0	57	0	224395264	49	4412
2026-01-11 11:56:19.80	246.31	11.56	-38.7	-40.7	14.8	0.00e+00	0	57	0	227540992	49	4418
2026-01-11 11:56:20.81	246.48	11.60	-38.6	-40.6	14.9	0.00e+00	0	57	0	230686720	49	4364
2026-01-11 11:56:21.82	246.65	11.64	-38.7	-40.7	14.8	0.00e+00	0	57	0	233832448	49	4405
2026-01-11 11:56:22.83	246.82	11.69	-38.8	-40.8	14.7	0.00e+00	0	57	0	236978176	49	4456
2026-01-11 11:56:23.84	246.99	11.73	-38.8	-40.9	14.6	0.00e+00	0	57	0	240123904	49	4497
2026-01-11 11:56:24.86	247.16	11.77	-38.9	-40.9	14.6	7.00e-07	0	57	0	243269632	49	4525
2026-01-11 11:56:25.86	247.33	11.81	-38.9	-40.9	14.6	0.00e+00	0	57	0	246415360	49	4518
2026-01-11 11:56:26.88	247.51	11.86	-38.9	-41.0	14.5	7.00e-07	0	57	0	249561088	49	4555
2026-01-11 11:56:27.89	247.68	11.90	-38.9	-41.0	14.5	0.00e+00	0	58	0	252706816	49	4570
2026-01-11 11:56:28.90	247.86	11.94	-38.9	-41.0	14.5	0.00e+00	0	57	0	255852544	49	4551
2026-01-11 11:56:29.90	248.03	11.98	-39.0	-41.0	14.5	0.00e+00	0	57	0	258998272	49	4590
2026-01-11 11:56:30.92	248.21	12.03	-39.0	-41.1	14.4	7.00e-07	0	57	0	262144000	49	4621
2026-01-11 11:56:31.93	248.38	12.07	-39.0	-41.0	14.5	0.00e+00	0	57	0	265289728	49	4593
2026-01-11 11:56:32.94	248.56	12.11	-39.0	-41.0	14.5	7.00e-07	0	57	0	268435456	49	4598
2026-01-11 11:56:33.95	248.73	12.15	-38.9	-41.0	14.5	0.00e+00	0	57	0	271581184	49	4560
2026-01-11 11:56:34.96	248.91	12.19	-38.9	-41.0	14.6	0.00e+00	0	57	0	274726912	49	4564
2026-01-11 11:56:35.97	249.09	12.23	-38.9	-40.9	14.6	0.00e+00	0	57	0	277872640	49	4522
2026-01-11 11:56:36.98	249.26	12.27	-38.8	-40.9	14.7	7.00e-07	0	57	0	281018368	49	4495
2026-01-11 11:56:37.99	249.44	12.31	-38.9	-40.9	14.6	0.00e+00	0	57	0	284164096	49	4516
2026-01-11 11:56:39.00	249.62	12.35	-38.8	-40.7	14.8	0.00e+00	0	57	0	287309824	49	4437
2026-01-11 11:56:40.01	249.80	12.39	-38.7	-40.7	14.8	0.00e+00	0	57	0	290455552	49	4405
2026-01-11 11:56:41.02	249.98	12.43	-38.6	-40.5	14.9	7.00e-07	0	57	0	293601280	49	4339
2026-01-11 11:56:42.03	250.16	12.47	-38.7	-40.7	14.9	0.00e+00	0	57	0	296747008	49	4405
2026-01-11 11:56:43.04	250.34	12.51	-38.7	-40.7	14.9	7.00e-07	0	57	0	299892736	49	4394
2026-01-11 11:56:44.05	250.52	12.55	-38.8	-40.7	14.8	0.00e+00	0	57	0	303038464	49	4437
2026-01-11 11:56:45.06	250.70	12.59	-38.7	-40.7	14.8	0.00e+00	0	57	0	306184192	49	4428
2026-01-11 11:56:46.07	250.89	12.63	-38.8	-40.8	14.8	0.00e+00	0	57	0	309329920	49	4445
2026-01-11 11:56:47.08	251.07	12.67	-38.8	-40.8	14.7	7.00e-07	0	57	0	312475648	49	4464
2026-01-11 11:56:48.09	251.25	12.71	-38.8	-40.8	14.8	0.00e+00	0	57	0	315621376	49	4447
2026-01-11 11:56:49.10	251.43	12.75	-38.8	-40.8	14.7	0.00e+00	0	57	0	318767104	49	4473
2026-01-11 11:56:50.11	251.62	12.79	-38.8	-40.8	14.7	0.00e+00	0	57	0	321912832	49	4464
2026-01-11 11:56:51.12	251.80	12.82	-38.8	-40.8	14.7	0.00e+00	0	57	0	325058560	49	4482
2026-01-11 11:56:52.13	251.99	12.86	-38.8	-40.8	14.7	7.00e-07	0	57	0	328204288	49	4461
2026-01-11 11:56:53.14	252.17	12.90	-38.8	-40.8	14.8	0.00e+00	0	57	0	331350016	49	4454
2026-01-11 11:56:54.15	252.36	12.94	-38.8	-40.8	14.8	0.00e+00	0	57	0	334495744	49	4447
2026-01-11 11:56:55.16	252.55	12.97	-38.8	-40.8	14.7	7.00e-07	0	57	0	337641472	49	4473
2026-01-11 11:56:56.17	252.73	13.01	-38.9	-40.9	14.7	0.00e+00	0	57	0	340787200	49	4500
2026-01-11 11:56:57.18	252.92	13.05	-38.8	-40.8	14.7	0.00e+00	0	57	0	343932928	49	4491
2026-01-11 11:56:58.19	253.11	13.08	-38.8	-40.8	14.7	0.00e+00	0	57	0	347078656	49	4470
2026-01-11 11:56:59.20	253.29	13.12	-38.8	-40.8	14.7	0.00e+00	0	57	0	350224384	49	4472
2026-01-11 11:57:00.21	253.48	13.16	-38.8	-40.8	14.8	0.00e+00	0	57	0	353370112	49	4479
2026-01-11 11:57:01.22	253.67	13.19	-38.8	-40.8	14.7	0.00e+00	0	57	0	356515840	49	4481
2026-01-11 11:57:02.23	253.86	13.23	-38.8	-40.8	14.7	7.00e-07	0	57	0	360710144	49	4469
2026-01-11 11:57:03.24	254.05	13.26	-38.8	-40.8	14.8	0.00e+00	0	57	0	362807296	49	4447
2026-01-11 11:57:04.25	254.24	13.30	-38.8	-40.7	14.8	0.00e+00	0	57	0	365953024	49	4436
2026-01-11 11:57:05.26	254.43	13.33	-38.7	-40.7	14.8	1.50e-06	0	57	0	369098752	49	4426
2026-01-11 11:57:06.27	254.62	13.37	-38.7	-40.7	14.9	0.00e+00	0	57	0	372244480	49	4396
2026-01-11 11:57:07.28	254.81	13.40	-38.6	-40.6	15.0	0.00e+00	0	57	0	376438784	49	4347
2026-01-11 11:57:08.29	255.01	13.44	-38.6	-40.5	15.0	0.00e+00	0	57	0	379584512	49	4321
2026-01-11 11:57:09.29	255.20	13.47	-38.6	-40.5	15.1	7.00e-07	0	58	0	382730240	49	4306
2026-01-11 11:57:10.31	255.39	13.50	-38.6	-40.5	15.0	0.00e+00	0	57	0	384827392	49	4326
2026-01-11 11:57:11.32	255.58	13.54	-38.6	-40.5	15.1	0.00e+00	0	57	0	387973120	49	4317
2026-01-11 11:57:12.33	255.78	13.57	-38.6	-40.5	15.0	0.00e+00	0	57	0	392167424	49	4313
2026-01-11 11:57:13.34	255.97	13.60	-38.6	-40.5	15.1	0.00e+00	0	57	0	395313152	49	4303
2026-01-11 11:57:14.35	256.17	13.64	-38.7	-40.6	15.0	0.00e+00	0	57	0	398458880	49	4365
2026-01-11 11:57:15.36	256.36	13.67	-38.6	-40.6	15.0	0.00e+00	0	57	0	401604608	49	4358
2026-01-11 11:57:16.37	256.56	13.70	-38.7	-40.6	15.0	0.00e+00	0	57	0	404750336	49	4373
2026-01-11 11:57:17.38	256.75	13.73	-38.6	-40.5	15.0	0.00e+00	0	57	0	407896064	49	4331
2026-01-11 11:57:18.39	256.95	13.76	-38.6	-40.5	15.1	0.00e+00	0	57	0	411041792	49	4296
2026-01-11 11:57:19.40	257.14	13.79	-38.6	-40.5	15.1	0.00e+00	0	57	0	414187520	49	4293
2026-01-11 11:57:20.41	257.34	13.83	-38.5	-40.4	15.2	0.00e+00	0	57	0	417333248	49	4259
2026-01-11 11:57:21.42	257.54	13.86	-38.5	-40.4	15.2	0.00e+00	0	57	0	420478976	48	4500
2026-01-11 11:57:22.43	257.74	13.89	-38.4	-40.3	15.3	0.00e+00	0	58	0	423624704	48	4445
2026-01-11 11:57:23.44	257.93	13.92	-38.5	-40.3	15.2	0.00e+00	0	57	0	426770432	48	4483
2026-01-11 11:57:24.45	258.13	13.95	-38.5	-40.4	15.2	0.00e+00	0	57	0	429916160	48	4519
2026-01-11 11:57:25.46	258.33	13.98	-38.6	-40.5	15.0	0.00e+00	0	57	0	433061888	48	4581
2026-01-11 11:57:26.47	258.53	14.01	-38.6	-40.5	15.1	0.00e+00	0	57	0	436207616	48	4576
2026-01-11 11:57:27.48	258.73	14.04	-38.6	-40.5	15.1	0.00e+00	0	57	0	439353344	48	4562
2026-01-11 11:57:28.49	258.93	14.06	-38.6	-40.6	15.0	0.00e+00	0	57	0	442499072	48	4608
2026-01-11 11:57:29.50	259.13	14.09	-38.7	-40.6	15.0	0.00e+00	0	57	0	445644800	48	4620
2026-01-11 11:57:30.51	259.33	14.12	-38.6	-40.5	15.0	0.00e+00	0	57	0	448790528	48	4582
2026-01-11 11:57:31.52	259.53	14.15	-38.5	-40.4	15.1	0.00e+00	0	58	0	451936256	48	4541
2026-01-11 11:57:32.53	259.73	14.18	-38.6	-40.5	15.1	0.00e+00	0	57	0	455081984	48	4551
2026-01-11 11:57:33.54	259.93	14.20	-38.5	-40.4	15.1	0.00e+00	0	57	0	458227712	48	4526
2026-01-11 11:57:34.55	260.14	14.23	-38.6	-40.5	15.1	0.00e+00	0	57	0	461373440	48	4550
2026-01-11 11:57:35.56	260.34	14.26	-38.5	-40.4	15.2	0.00e+00	0	57	0	464519168	48	4522
2026-01-11 11:57:36.57	260.54	14.28	-38.4	-40.3	15.3	0.00e+00	0	57	0	467664896	48	4479
2026-01-11 11:57:37.58	260.74	14.31	-38.4	-40.3	15.3	0.00e+00	0	57	0	470810624	48	4462
2026-01-11 11:57:38.59	260.95	14.34	-38.4	-40.3	15.3	0.00e+00	0	57	0	473956352	48	4456
2026-01-11 11:57:39.60	261.15	14.36	-38.3	-40.2	15.4	0.00e+00	0	57	0	477102080	48	4394
2026-01-11 11:57:40.61	261.36	14.39	-38.3	-40.1	15.5	0.00e+00	0	57	0	480247808	48	4350
2026-01-11 11:57:41.62	261.56	14.41	-38.3	-40.1	15.5	0.00e+00	0	57	0	483393536	48	4359
2026-01-11 11:57:42.63	261.77	14.44	-38.2	-40.0	15.5	0.00e+00	0	57	0	486539264	48	4330
2026-01-11 11:57:43.64	261.97	14.46	-38.3	-40.1	15.5	0.00e+00	0	57	0	489684992	48	4358
2026-01-11 11:57:44.65	262.18	14.48	-38.3	-40.0	15.6	0.00e+00	0	57	0	492830720	48	4338
2026-01-11 11:57:45.66	262.38	14.51	-38.3	-40.2	15.4	0.00e+00	0	57	0	495976448	48	4398
2026-01-11 11:57:46.67	262.59	14.53	-38.4	-40.2	15.4	0.00e+00	0	57	0	499122176	48	4413
2026-01-11 11:57:47.68	262.79	14.55	-38.5	-40.3	15.3	0.00e+00	0	57	0	502267904	48	4484
2026-01-11 11:57:48.69	263.00	14.58	-38.5	-40.4	15.2	0.00e+00	0	58	0	505413632	48	4519
2026-01-11 11:57:49.70	263.21	14.60	-38.6	-40.5	15.1	0.00e+00	0	58	0	508559360	48	4573
2026-01-11 11:57:50.71	263.42	14.62	-38.6	-40.5	15.1	0.00e+00	0	57	0	511705088	48	4568
2026-01-11 11:57:51.72	263.62	14.64	-38.5	-40.3	15.2	0.00e+00	0	57	0	514850816	48	4488
2026-01-11 11:57:52.73	263.83	14.66	-38.4	-40.2	15.3	0.00e+00	0	57	0	517996544	48	4432
2026-01-11 11:57:53.74	264.04	14.69	-38.3	-40.1	15.4	0.00e+00	0	58	0	521142272	48	4388
2026-01-11 11:57:54.75	264.25	14.71	-38.3	-40.0	15.5	0.00e+00	0	58	0	524288000	48	4339
2026-01-11 11:57:55.76	264.46	14.73	-38.2	-40.0	15.6	0.00e+00	0	57	0	527433728	48	4299
2026-01-11 11:57:56.77	264.67	14.75	-38.2	-40.0	15.6	0.00e+00	0	57	0	530579456	48	4328
2026-01-11 11:57:57.78	264.87	14.77	-38.2	-40.0	15.6	0.00e+00	0	58	0	533725184	48	4316
2026-01-11 11:57:58.79	265.08	14.78	-38.2	-40.0	15.5	0.00e+00	0	57	0	536870912	48	4325
2026-01-11 11:57:59.80	265.29	14.80	-38.2	-40.0	15.5	0.00e+00	0	57	0	540016640	48	4331
2026-01-11 11:58:00.81	265.50	14.82	-38.2	-40.0	15.6	0.00e+00	0	57	0	543162368	48	4301
2026-01-11 11:58:01.82	265.71	14.84	-38.2	-40.0	15.6	0.00e+00	0	57	0	546308096	48	4323
2026-01-11 11:58:02.83	265.92	14.86	-38.2	-40.0	15.6	0.00e+00	0	57	0	549453824	48	4333
2026-01-11 11:58:03.84	266.14	14.88	-38.3	-40.1	15.5	0.00e+00	0	57	0	552599552	48	4350
2026-01-11 11:58:04.85	266.35	14.89	-38.3	-40.1	15.5	0.00e+00	0	57	0	555745280	48	4361
2026-01-11 11:58:05.86	266.56	14.91	-38.3	-40.1	15.4	0.00e+00	0	57	0	558891008	48	4376
2026-01-11 11:58:06.87	266.77	14.93	-38.4	-40.2	15.4	0.00e+00	0	57	0	562036736	48	4412
2026-01-11 11:58:07.88	266.98	14.94	-38.4	-40.2	15.3	0.00e+00	0	57	0	565182464	48	4440
2026-01-11 11:58:08.89	267.19	14.96	-38.4	-40.3	15.3	0.00e+00	0	57	0	568328192	48	4469
2026-01-11 11:58:09.90	267.41	14.97	-38.5	-40.3	15.2	0.00e+00	0	57	0	571473920	48	4491
2026-01-11 11:58:10.91	267.62	14.99	-38.4	-40.3	15.3	0.00e+00	0	57	0	574619648	48	4444
2026-01-11 11:58:11.92	267.83	15.00	-38.4	-40.2	15.4	0.00e+00	0	57	0	577765376	48	4412
2026-01-11 11:58:12.93	268.04	15.02	-38.3	-40.1	15.4	0.00e+00	0	57	0	580911104	48	4387
2026-01-11 11:58:13.94	268.26	15.03	-38.2	-40.0	15.6	0.00e+00	0	57	0	584056832	48	4299
2026-01-11 11:58:14.95	268.47	15.05	-38.1	-39.9	15.6	0.00e+00	0	57	0	587202560	48	4270
2026-01-11 11:58:15.96	268.68	15.06	-38.2	-40.0	15.6	0.00e+00	0	57	0	590348288	48	4308
2026-01-11 11:58:16.97	268.90	15.07	-38.2	-40.0	15.6	0.00e+00	0	57	0	593494016	48	4328
2026-01-11 11:58:17.98	269.11	15.09	-38.2	-40.0	15.6	0.00e+00	0	57	0	596639744	48	4313
2026-01-11 11:58:18.99	269.32	15.10	-38.2	-40.0	15.6	0.00e+00	0	57	0	599785472	48	4307
2026-01-11 11:58:20.00	269.54	15.11	-38.2	-40.0	15.5	0.00e+00	0	57	0	602931200	48	4329
2026-01-11 11:58:21.01	269.75	15.12	-38.2	-40.0	15.5	0.00e+00	0	57	0	606076928	48	4337
2026-01-11 11:58:22.02	269.97	15.13	-38.2	-40.0	15.5	0.00e+00	0	57	0	609222656	48	4330
2026-01-11 11:58:23.03	270.18	15.14	-38.2	-40.0	15.5	7.00e-07	0	57	0	612368384	48	4338
2026-01-11 11:58:24.03	270.39	15.15	-38.2	-40.0	15.5	0.00e+00	0	57	0	615514112	48	4327
2026-01-11 11:58:25.04	270.61	15.16	-38.3	-40.1	15.5	0.00e+00	0	57	0	618659840	48	4362
2026-01-11 11:58:26.05	270.82	15.17	-38.3	-40.1	15.4	0.00e+00	0	57	0	621805568	48	4391
2026-01-11 11:58:27.06	271.04	15.18	-38.4	-40.3	15.3	0.00e+00	0	57	0	624951296	48	4445
2026-01-11 11:58:28.07	271.25	15.19	-38.4	-40.3	15.3	0.00e+00	0	57	0	628097024	48	4462
2026-01-11 11:58:29.08	271.47	15.20	-38.4	-40.2	15.3	0.00e+00	0	57	0	631242752	48	4434
2026-01-11 11:58:30.09	271.68	15.21	-38.4	-40.2	15.3	0.00e+00	0	57	0	634388480	48	4418
2026-01-11 11:58:31.10	271.90	15.21	-38.3	-40.2	15.4	0.00e+00	0	57	0	637534208	48	4402
2026-01-11 11:58:32.11	272.11	15.22	-38.4	-40.2	15.4	0.00e+00	0	57	0	640679936	48	4424
2026-01-11 11:58:33.12	272.33	15.23	-38.3	-40.2	15.4	0.00e+00	0	57	0	643825664	48	4409
2026-01-11 11:58:34.13	272.54	15.24	-38.4	-40.3	15.2	0.00e+00	0	57	0	646971392	48	4471
2026-01-11 11:58:35.14	272.76	15.24	-38.5	-40.4	15.1	0.00e+00	0	57	0	650117120	48	4507
2026-01-11 11:58:36.15	272.98	15.25	-38.6	-40.5	15.0	0.00e+00	0	57	0	653262848	48	4595
2026-01-11 11:58:37.16	273.19	15.25	-38.6	-40.5	15.1	0.00e+00	0	57	0	656408576	48	4577
2026-01-11 11:58:38.17	273.41	15.26	-38.6	-40.5	15.1	0.00e+00	0	57	0	659554304	48	4548
2026-01-11 11:58:39.19	273.63	15.26	-38.6	-40.5	15.0	0.00e+00	0	57	0	662700032	48	4573
2026-01-11 11:58:40.19	273.84	15.27	-38.5	-40.3	15.2	0.00e+00	0	57	0	665845760	48	4486
2026-01-11 11:58:41.20	274.06	15.27	-38.4	-40.3	15.2	0.00e+00	0	57	0	668991488	48	4459
2026-01-11 11:58:42.21	274.27	15.28	-38.4	-40.2	15.3	0.00e+00	0	58	0	672137216	48	4425
2026-01-11 11:58:43.22	274.49	15.28	-38.3	-40.2	15.4	0.00e+00	0	58	0	675282944	48	4400
2026-01-11 11:58:44.23	274.71	15.28	-38.3	-40.2	15.4	0.00e+00	0	57	0	678428672	48	4408
2026-01-11 11:58:45.24	274.92	15.28	-38.4	-40.2	15.3	0.00e+00	0	57	0	681574400	48	4428
2026-01-11 11:58:46.25	275.14	15.29	-38.4	-40.3	15.3	0.00e+00	0	58	0	684720128	48	4459
2026-01-11 11:58:47.26	275.35	15.29	-38.5	-40.4	15.2	0.00e+00	0	58	0	687865856	48	4523
2026-01-11 11:58:48.27	275.57	15.29	-38.5	-40.4	15.1	0.00e+00	0	57	0	691011584	48	4517
2026-01-11 11:58:49.27	275.79	15.29	-38.6	-40.5	15.0	0.00e+00	0	57	0	695205888	48	4559
2026-01-11 11:58:50.28	276.00	15.29	-38.6	-40.6	14.9	0.00e+00	0	57	0	698351616	48	4615
2026-01-11 11:58:51.29	276.22	15.29	-38.6	-40.6	14.9	0.00e+00	0	57	0	701497344	48	4616
2026-01-11 11:58:52.30	276.43	15.29	-38.6	-40.5	15.0	0.00e+00	0	58	0	703594496	48	4592
2026-01-11 11:58:53.31	276.65	15.29	-38.6	-40.5	15.0	0.00e+00	0	57	0	706740224	48	4564
2026-01-11 11:58:54.32	276.87	15.29	-38.6	-40.5	15.1	0.00e+00	0	58	0	710934528	48	4551
2026-01-11 11:58:55.33	277.08	15.29	-38.5	-40.4	15.1	0.00e+00	0	58	0	714080256	48	4543
2026-01-11 11:58:56.34	277.30	15.29	-38.5	-40.4	15.1	0.00e+00	0	58	0	717225984	48	4522
2026-01-11 11:58:57.35	277.52	15.28	-38.5	-40.4	15.2	0.00e+00	0	58	0	720371712	48	4498
2026-01-11 11:58:58.36	277.73	15.28	-38.5	-40.4	15.1	0.00e+00	0	58	0	723517440	48	4519
2026-01-11 11:58:59.37	277.95	15.28	-38.5	-40.4	15.1	0.00e+00	0	57	0	726663168	48	4515
2026-01-11 11:59:00.38	278.16	15.27	-38.5	-40.4	15.1	0.00e+00	0	58	0	729808896	48	4535
2026-01-11 11:59:01.39	278.38	15.27	-38.5	-40.4	15.1	7.00e-07	0	58	0	732954624	48	4537
2026-01-11 11:59:02.40	278.60	15.27	-38.5	-40.4	15.1	0.00e+00	0	57	0	736100352	48	4518
2026-01-11 11:59:03.41	278.81	15.26	-38.5	-40.4	15.1	0.00e+00	0	58	0	739246080	48	4524
2026-01-11 11:59:04.42	279.03	15.26	-38.5	-40.4	15.1	0.00e+00	0	58	0	742391808	48	4518
2026-01-11 11:59:05.43	279.24	15.25	-38.5	-40.4	15.1	0.00e+00	0	58	0	745537536	48	4513
2026-01-11 11:59:06.44	279.46	15.25	-38.4	-40.3	15.2	0.00e+00	0	58	0	748683264	48	4472
2026-01-11 11:59:07.45	279.68	15.24	-38.4	-40.3	15.2	0.00e+00	0	58	0	751828992	48	4464
2026-01-11 11:59:08.46	279.89	15.23	-38.4	-40.2	15.3	7.00e-07	0	57	0	754974720	48	4436
2026-01-11 11:59:09.47	280.11	15.23	-38.3	-40.2	15.3	0.00e+00	0	58	0	758120448	48	4394
2026-01-11 11:59:10.48	280.32	15.22	-38.3	-40.1	15.4	0.00e+00	0	58	0	761266176	48	4376
2026-01-11 11:59:11.49	280.54	15.21	-38.3	-40.1	15.4	0.00e+00	0	57	0	764411904	48	4349
2026-01-11 11:59:12.50	280.75	15.20	-38.2	-40.1	15.4	0.00e+00	0	58	0	767557632	48	4341
2026-01-11 11:59:13.51	280.97	15.20	-38.2	-40.0	15.4	0.00e+00	0	58	0	770703360	48	4338
2026-01-11 11:59:14.52	281.18	15.19	-38.2	-40.1	15.4	0.00e+00	0	58	0	773849088	48	4351
2026-01-11 11:59:15.53	281.40	15.18	-38.2	-40.0	15.4	0.00e+00	0	58	0	776994816	48	4326
2026-01-11 11:59:16.54	281.61	15.17	-38.2	-40.1	15.4	0.00e+00	0	58	0	780140544	48	4362
2026-01-11 11:59:17.55	281.83	15.16	-38.3	-40.1	15.3	0.00e+00	0	57	0	783286272	48	4386
2026-01-11 11:59:18.56	282.04	15.15	-38.3	-40.2	15.2	0.00e+00	0	58	0	786432000	48	4417
2026-01-11 11:59:19.57	282.26	15.14	-38.3	-40.2	15.3	0.00e+00	0	58	0	789577728	48	4417
2026-01-11 11:59:20.58	282.47	15.13	-38.4	-40.3	15.2	0.00e+00	0	58	0	792723456	48	4447
2026-01-11 11:59:21.59	282.68	15.12	-38.4	-40.2	15.2	0.00e+00	0	58	0	795869184	48	4441
2026-01-11 11:59:22.60	282.90	15.11	-38.4	-40.3	15.2	0.00e+00	0	58	0	799014912	48	4453
2026-01-11 11:59:23.61	283.11	15.09	-38.4	-40.2	15.2	0.00e+00	0	58	0	802160640	48	4440
2026-01-11 11:59:24.62	283.32	15.08	-38.5	-40.4	15.1	0.00e+00	0	58	0	805306368	48	4501
2026-01-11 11:59:25.63	283.54	15.07	-38.5	-40.4	15.1	0.00e+00	0	57	0	808452096	48	4515
2026-01-11 11:59:26.64	283.75	15.06	-38.5	-40.5	15.0	0.00e+00	0	58	0	811597824	48	4547
2026-01-11 11:59:27.65	283.96	15.04	-38.5	-40.4	15.0	0.00e+00	0	58	0	814743552	48	4525
2026-01-11 11:59:28.66	284.18	15.03	-38.5	-40.5	15.0	7.00e-07	0	57	0	817889280	48	4550
2026-01-11 11:59:29.67	284.39	15.01	-38.5	-40.4	15.1	0.00e+00	0	58	0	821035008	48	4499
2026-01-11 11:59:30.68	284.60	15.00	-38.4	-40.3	15.2	0.00e+00	0	57	0	824180736	48	4463
2026-01-11 11:59:31.69	284.81	14.99	-38.4	-40.2	15.2	0.00e+00	0	58	0	827326464	48	4430
2026-01-11 11:59:32.70	285.02	14.97	-38.4	-40.3	15.1	0.00e+00	0	57	0	830472192	48	4483
2026-01-11 11:59:33.71	285.24	14.95	-38.4	-40.3	15.1	0.00e+00	0	57	0	833617920	48	4474
2026-01-11 11:59:34.71	285.45	14.94	-38.5	-40.4	15.0	0.00e+00	0	57	0	836763648	48	4513
2026-01-11 11:59:35.72	285.66	14.92	-38.6	-40.5	14.9	1.50e-06	0	57	0	839909376	48	4592
2026-01-11 11:59:36.74	285.87	14.91	-38.6	-40.6	14.9	7.00e-07	0	58	0	843055104	48	4606
2026-01-11 11:59:37.75	286.08	14.89	-38.7	-40.6	14.8	0.00e+00	0	58	0	846200832	48	4646
2026-01-11 11:59:38.76	286.29	14.87	-38.7	-40.7	14.8	0.00e+00	0	58	0	849346560	48	4660
2026-01-11 11:59:39.77	286.50	14.85	-38.6	-40.6	14.8	0.00e+00	0	58	0	852492288	48	4615
2026-01-11 11:59:40.78	286.71	14.84	-38.6	-40.5	14.9	7.00e-07	0	58	0	855638016	48	4578
2026-01-11 11:59:41.79	286.92	14.82	-38.5	-40.4	15.0	0.00e+00	0	58	0	858783744	48	4525
2026-01-11 11:59:42.80	287.13	14.80	-38.5	-40.4	15.0	0.00e+00	0	58	0	861929472	48	4525
2026-01-11 11:59:43.81	287.34	14.78	-38.5	-40.5	14.9	0.00e+00	0	58	0	865075200	48	4556
2026-01-11 11:59:44.82	287.55	14.76	-38.5	-40.5	14.9	0.00e+00	0	57	0	868220928	48	4559
2026-01-11 11:59:45.82	287.75	14.74	-38.6	-40.6	14.8	0.00e+00	0	57	0	871366656	48	4605
2026-01-11 11:59:46.83	287.96	14.72	-38.5	-40.5	14.9	0.00e+00	0	58	0	874512384	48	4570
2026-01-11 11:59:47.84	288.17	14.70	-38.5	-40.5	14.9	0.00e+00	0	58	0	877658112	48	4564
2026-01-11 11:59:48.85	288.38	14.68	-38.6	-40.5	14.8	0.00e+00	0	57	0	880803840	48	4596
2026-01-11 11:59:49.86	288.59	14.66	-38.6	-40.5	14.9	7.00e-07	0	58	0	883949568	48	4577
2026-01-11 11:59:50.87	288.79	14.64	-38.6	-40.6	14.8	0.00e+00	0	58	0	887095296	48	4610
2026-01-11 11:59:51.88	289.00	14.62	-38.7	-40.6	14.7	0.00e+00	0	58	0	890241024	48	4648
2026-01-11 11:59:52.89	289.21	14.59	-38.7	-40.7	14.7	7.00e-07	0	58	0	893386752	48	4674
2026-01-11 11:59:53.90	289.41	14.57	-38.7	-40.7	14.7	0.00e+00	0	57	0	896532480	48	4697
2026-01-11 11:59:54.91	289.62	14.55	-38.7	-40.8	14.6	0.00e+00	0	58	0	899678208	48	4713
2026-01-11 11:59:55.92	289.82	14.53	-38.7	-40.8	14.6	0.00e+00	0	58	0	902823936	48	4725
2026-01-11 11:59:56.93	290.03	14.50	-38.8	-40.8	14.5	0.00e+00	0	58	0	905969664	48	4743
2026-01-11 11:59:57.94	290.24	14.48	-38.7	-40.7	14.7	7.00e-07	0	58	0	909115392	48	4664
2026-01-11 11:59:58.95	290.44	14.46	-38.6	-40.6	14.8	7.00e-07	0	58	0	912261120	48	4609
2026-01-11 11:59:59.97	290.65	14.43	-38.5	-40.4	14.9	0.00e+00	0	58	0	915406848	48	4530
2026-01-11 12:00:00.98	290.85	14.41	-38.4	-40.3	15.0	0.00e+00	0	58	0	918552576	48	4472
2026-01-11 12:00:01.98	291.05	14.38	-38.3	-40.2	15.0	0.00e+00	0	58	0	921698304	48	4428
2026-01-11 12:00:02.99	291.26	14.36	-38.3	-40.2	15.1	0.00e+00	0	58	0	924844032	48	4418
2026-01-11 12:00:04.00	291.46	14.33	-38.3	-40.2	15.1	0.00e+00	0	58	0	927989760	48	4419
2026-01-11 12:00:05.01	291.66	14.31	-38.3	-40.2	15.1	0.00e+00	0	58	0	931135488	48	4398
2026-01-11 12:00:06.02	291.86	14.28	-38.2	-40.2	15.1	0.00e+00	0	57	0	934281216	48	4397
2026-01-11 12:00:07.03	292.07	14.25	-38.2	-40.1	15.1	0.00e+00	0	58	0	937426944	48	4374
2026-01-11 12:00:08.04	292.27	14.23	-38.2	-40.1	15.1	0.00e+00	0	58	0	940572672	48	4377
2026-01-11 12:00:09.05	292.47	14.20	-38.3	-40.2	15.0	0.00e+00	0	57	0	943718400	48	4425
2026-01-11 12:00:10.06	292.67	14.17	-38.3	-40.3	14.9	0.00e+00	0	58	0	946864128	48	4451
2026-01-11 12:00:11.06	292.87	14.15	-38.3	-40.3	15.0	0.00e+00	0	58	0	950009856	48	4444
2026-01-11 12:00:12.08	293.07	14.12	-38.4	-40.3	14.9	7.00e-07	0	58	0	953155584	48	4478
2026-01-11 12:00:13.09	293.27	14.09	-38.3	-40.2	15.0	0.00e+00	0	58	0	956301312	48	4440
2026-01-11 12:00:14.10	293.47	14.06	-38.3	-40.2	15.0	0.00e+00	0	58	0	959447040	48	4412
2026-01-11 12:00:15.11	293.67	14.03	-38.3	-40.2	15.0	0.00e+00	0	58	0	962592768	48	4433
2026-01-11 12:00:16.12	293.87	14.00	-38.2	-40.1	15.0	0.00e+00	0	58	0	965738496	48	4388
2026-01-11 12:00:17.13	294.07	13.97	-38.2	-40.2	15.0	0.00e+00	0	58	0	968884224	48	4404
2026-01-11 12:00:18.14	294.26	13.94	-38.2	-40.1	15.0	0.00e+00	0	58	0	972029952	48	4384
2026-01-11 12:00:19.15	294.46	13.91	-38.2	-40.1	15.0	7.00e-07	0	58	0	975175680	48	4376
2026-01-11 12:00:20.16	294.66	13.88	-38.2	-40.1	15.0	0.00e+00	0	58	0	978321408	48	4376
2026-01-11 12:00:21.17	294.85	13.85	-38.2	-40.1	15.0	0.00e+00	0	58	0	981467136	48	4390
2026-01-11 12:00:22.18	295.05	13.82	-38.2	-40.1	15.1	0.00e+00	0	58	0	984612864	48	4371
2026-01-11 12:00:23.19	295.25	13.79	-38.2	-40.1	15.0	0.00e+00	0	58	0	987758592	48	4378
2026-01-11 12:00:24.20	295.44	13.76	-38.2	-40.2	15.0	0.00e+00	0	58	0	990904320	48	4403
2026-01-11 12:00:25.21	295.64	13.73	-38.3	-40.2	15.0	0.00e+00	0	58	0	994050048	48	4405
2026-01-11 12:00:26.22	295.83	13.70	-38.3	-40.3	14.9	0.00e+00	0	58	0	997195776	48	4450
2026-01-11 12:00:27.23	296.03	13.67	-38.4	-40.3	14.9	0.00e+00	0	58	0	1000341504	48	4475
2026-01-11 12:00:28.24	296.22	13.63	-38.4	-40.3	14.9	0.00e+00	0	58	0	1003487232	48	4476
2026-01-11 12:00:29.25	296.41	13.60	-38.4	-40.4	14.9	0.00e+00	0	58	0	1006632960	48	4495
2026-01-11 12:00:30.26	296.61	13.57	-38.4	-40.4	14.8	0.00e+00	0	58	0	1009778688	48	4526
2026-01-11 12:00:31.27	296.80	13.54	-38.5	-40.4	14.8	0.00e+00	0	58	0	1012924416	48	4529
2026-01-11 12:00:32.28	296.99	13.50	-38.5	-40.4	14.8	0.00e+00	0	58	0	1017118720	48	4534
2026-01-11 12:00:33.29	297.18	13.47	-38.5	-40.4	14.8	0.00e+00	0	58	0	1019215872	48	4535
2026-01-11 12:00:34.30	297.38	13.44	-38.5	-40.4	14.8	7.00e-07	0	58	0	1022361600	48	4544
2026-01-11 12:00:35.31	297.57	13.40	-38.5	-40.5	14.8	0.00e+00	0	58	0	1025507328	48	4570
2026-01-11 12:00:36.32	297.76	13.37	-38.5	-40.5	14.8	2.20e-06	0	57	0	1028653056	48	4592
2026-01-11 12:00:37.33	297.95	13.33	-38.5	-40.5	14.8	0.00e+00	0	58	0	1032847360	48	4577
2026-01-11 12:00:38.34	298.14	13.30	-38.5	-40.5	14.9	0.00e+00	0	58	0	1035993088	48	4551
2026-01-11 12:00:39.35	298.33	13.26	-38.5	-40.5	14.8	0.00e+00	0	58	0	1039138816	48	4566
2026-01-11 12:00:40.36	298.51	13.23	-38.5	-40.4	14.9	0.00e+00	0	58	0	1041235968	48	4521
2026-01-11 12:00:41.37	298.70	13.19	-38.5	-40.4	15.0	0.00e+00	0	58	0	1045430272	48	4506
2026-01-11 12:00:42.38	298.89	13.16	-38.5	-40.4	15.0	0.00e+00	0	58	0	1048576000	48	4523
2026-01-11 12:00:43.40	299.08	13.12	-38.5	-40.5	14.9	0.00e+00	0	58	0	1051721728	48	4546
2026-01-11 12:00:44.41	299.27	13.09	-38.5	-40.5	14.9	0.00e+00	0	57	0	1054867456	48	4566
2026-01-11 12:00:45.42	299.45	13.05	-38.5	-40.4	15.0	1.50e-06	0	58	0	1058013184	48	4539
2026-01-11 12:00:46.43	299.64	13.01	-38.5	-40.5	14.9	0.00e+00	0	57	0	1061158912	48	4555
2026-01-11 12:00:47.44	299.82	12.98	-38.5	-40.5	14.9	0.00e+00	0	58	0	1064304640	48	4558
2026-01-11 12:00:48.44	300.01	12.94	-38.6	-40.5	14.9	0.00e+00	0	58	0	1067450368	48	4576
2026-01-11 12:00:49.45	300.19	12.90	-38.6	-40.5	14.9	0.00e+00	0	58	0	1070596096	48	4591
2026-01-11 12:00:50.46	300.38	12.86	-38.6	-40.6	14.8	0.00e+00	0	58	0	1073741824	48	4627
2026-01-11 12:00:51.47	300.56	12.83	-38.6	-40.6	14.9	0.00e+00	0	58	0	1076887552	48	4603
2026-01-11 12:00:52.48	300.74	12.79	-38.6	-40.5	14.9	0.00e+00	0	58	0	1080033280	48	4577
2026-01-11 12:00:53.49	300.93	12.75	-38.5	-40.5	15.0	0.00e+00	0	58	0	1083179008	48	4548
2026-01-11 12:00:54.51	301.11	12.71	-38.5	-40.4	15.0	0.00e+00	0	58	0	1086324736	48	4517
2026-01-11 12:00:55.52	301.29	12.67	-38.4	-40.3	15.1	0.00e+00	0	58	0	1089470464	48	4480
2026-01-11 12:00:56.53	301.47	12.64	-38.4	-40.3	15.1	0.00e+00	0	58	0	1092616192	48	4485
2026-01-11 12:00:57.54	301.66	12.60	-38.5	-40.4	15.0	0.00e+00	0	58	0	1095761920	48	4513
2026-01-11 12:00:58.55	301.84	12.56	-38.5	-40.4	15.0	0.00e+00	0	58	0	1098907648	48	4527
2026-01-11 12:00:59.56	302.02	12.52	-38.4	-40.2	15.2	0.00e+00	0	58	0	1102053376	48	4437
2026-01-11 12:01:00.57	302.20	12.48	-38.3	-40.2	15.2	0.00e+00	0	58	0	1105199104	48	4400
2026-01-11 12:01:01.58	302.38	12.44	-38.4	-40.2	15.2	0.00e+00	0	58	0	1108344832	48	4433
2026-01-11 12:01:02.59	302.55	12.40	-38.4	-40.2	15.2	0.00e+00	0	58	0	1111490560	48	4439
2026-01-11 12:01:03.60	302.73	12.36	-38.4	-40.3	15.0	0.00e+00	0	58	0	1114636288	48	4492
2026-01-11 12:01:04.61	302.91	12.32	-38.4	-40.4	15.0	0.00e+00	0	58	0	1117782016	48	4494
2026-01-11 12:01:05.62	303.09	12.28	-38.5	-40.4	15.0	0.00e+00	0	58	0	1120927744	48	4526
2026-01-11 12:01:06.63	303.26	12.24	-38.6	-40.5	14.9	0.00e+00	0	58	0	1124073472	48	4573
2026-01-11 12:01:07.64	303.44	12.20	-38.5	-40.5	14.9	0.00e+00	0	58	0	1127219200	48	4566
2026-01-11 12:01:08.65	303.62	12.16	-38.6	-40.6	14.8	7.00e-07	0	58	0	1130364928	48	4637
2026-01-11 12:01:09.66	303.79	12.12	-38.6	-40.6	14.8	7.00e-07	0	58	0	1133510656	48	4621
2026-01-11 12:01:10.67	303.97	12.08	-38.6	-40.6	14.8	0.00e+00	0	58	0	1136656384	48	4609
2026-01-11 12:01:11.68	304.14	12.04	-38.6	-40.6	14.8	7.00e-07	0	58	0	1139802112	48	4629
2026-01-11 12:01:12.68	304.31	11.99	-38.7	-40.6	14.7	1.50e-06	0	58	0	1142947840	48	4647
2026-01-11 12:01:13.69	304.49	11.95	-38.6	-40.6	14.8	0.00e+00	0	58	0	1146093568	48	4601
2026-01-11 12:01:14.70	304.66	11.91	-38.6	-40.5	14.9	0.00e+00	0	58	0	1149239296	48	4580
2026-01-11 12:01:15.71	304.83	11.87	-38.6	-40.5	14.8	0.00e+00	0	58	0	1152385024	48	4598
2026-01-11 12:01:16.72	305.00	11.83	-38.6	-40.6	14.8	7.00e-07	0	58	0	1155530752	48	4616
2026-01-11 12:01:17.73	305.17	11.78	-38.6	-40.5	14.8	7.00e-07	0	58	0	1158676480	48	4597
2026-01-11 12:01:18.75	305.35	11.74	-38.6	-40.6	14.7	0.00e+00	0	58	0	1161822208	48	4636
2026-01-11 12:01:19.76	305.52	11.70	-38.7	-40.7	14.7	0.00e+00	0	58	0	1164967936	48	4655
2026-01-11 12:01:20.77	305.69	11.66	-38.7	-40.6	14.7	0.00e+00	0	58	0	1168113664	48	4647
2026-01-11 12:01:21.78	305.86	11.61	-38.7	-40.7	14.6	0.00e+00	0	58	0	1171259392	48	4690
2026-01-11 12:01:22.79	306.03	11.57	-38.8	-40.9	14.5	0.00e+00	0	58	0	1174405120	48	4775
2026-01-11 12:01:23.80	306.20	11.53	-38.8	-40.9	14.5	7.00e-07	0	58	0	1177550848	48	4773
2026-01-11 12:01:24.81	306.36	11.48	-38.9	-41.0	14.4	1.50e-06	0	58	0	1180696576	48	4831
2026-01-11 12:01:25.82	306.53	11.44	-38.9	-40.9	14.4	2.20e-06	0	58	0	1183842304	48	4813
2026-01-11 12:01:26.83	306.70	11.40	-38.9	-41.0	14.4	7.00e-07	0	58	0	1186988032	48	4823
2026-01-11 12:01:27.84	306.87	11.35	-38.9	-41.0	14.3	1.50e-06	0	58	0	1190133760	48	4847
2026-01-11 12:01:28.85	307.03	11.31	-38.9	-41.0	14.3	7.00e-07	0	58	0	1193279488	48	4853
2026-01-11 12:01:29.86	307.20	11.27	-38.9	-41.0	14.3	1.50e-06	0	58	0	1196425216	48	4861
2026-01-11 12:01:30.87	307.36	11.22	-38.9	-41.0	14.4	3.80e-06	0	58	0	1199570944	48	4816
2026-01-11 12:01:31.87	307.53	11.18	-38.9	-40.9	14.4	7.00e-07	0	58	0	1202716672	48	4813
2026-01-11 12:01:32.89	307.69	11.13	-38.8	-40.9	14.4	0.00e+00	0	58	0	1205862400	48	4788
2026-01-11 12:01:33.90	307.85	11.09	-38.9	-41.0	14.3	7.00e-07	0	58	0	1209008128	48	4847
2026-01-11 12:01:34.91	308.02	11.04	-38.9	-40.9	14.4	1.50e-06	0	58	0	1212153856	48	4808
2026-01-11 12:01:35.92	308.18	11.00	-38.9	-40.9	14.4	7.00e-07	0	58	0	1215299584	48	4813
2026-01-11 12:01:36.93	308.34	10.95	-38.8	-40.9	14.4	7.00e-07	0	58	0	1218445312	48	4802
2026-01-11 12:01:37.94	308.51	10.91	-39.0	-41.2	14.2	7.00e-07	0	58	0	1221591040	48	4933
2026-01-11 12:01:38.95	308.67	10.86	-39.0	-41.1	14.2	3.00e-06	0	58	0	1224736768	48	4900
2026-01-11 12:01:39.96	308.83	10.82	-39.0	-41.1	14.2	0.00e+00	0	58	0	1227882496	48	4925
2026-01-11 12:01:40.97	308.99	10.77	-39.1	-41.2	14.1	3.00e-06	0	58	0	1231028224	48	4982
2026-01-11 12:01:41.98	309.15	10.73	-39.2	-41.4	14.0	3.80e-06	0	58	0	1234173952	48	5051
2026-01-11 12:01:42.99	309.31	10.68	-39.2	-41.4	13.9	4.50e-06	0	58	0	1237319680	49	4809
2026-01-11 12:01:44.00	309.47	10.64	-39.2	-41.5	13.8	4.50e-06	0	58	0	1240465408	49	4826
2026-01-11 12:01:45.01	309.62	10.59	-39.3	-41.6	13.7	4.50e-06	0	58	0	1243611136	49	4885
2026-01-11 12:01:46.02	309.78	10.55	-39.3	-41.6	13.7	3.80e-06	0	58	0	1246756864	49	4916
2026-01-11 12:01:47.03	309.94	10.50	-39.3	-41.6	13.7	4.50e-06	0	58	0	1249902592	49	4873
2026-01-11 12:01:48.04	310.10	10.45	-39.3	-41.5	13.7	6.10e-06	0	58	0	1253048320	49	4850
2026-01-11 12:01:49.05	310.25	10.41	-39.3	-41.6	13.6	7.60e-06	0	58	0	1256194048	49	4920
2026-01-11 12:01:50.06	310.41	10.36	-39.3	-41.5	13.7	4.50e-06	0	58	0	1259339776	49	4868
2026-01-11 12:01:51.07	310.56	10.31	-39.2	-41.5	13.8	3.00e-06	0	58	0	1262485504	49	4820
2026-01-11 12:01:52.08	310.72	10.27	-39.2	-41.5	13.8	3.00e-06	0	58	0	1265631232	49	4815
2026-01-11 12:01:53.09	310.87	10.22	-39.2	-41.4	13.8	6.10e-06	0	58	0	1268776960	49	4776
2026-01-11 12:01:54.10	311.03	10.17	-39.2	-41.4	13.8	4.50e-06	0	58	0	1271922688	49	4789
2026-01-11 12:01:55.11	311.18	10.13	-39.2	-41.5	13.7	3.80e-06	0	58	0	1275068416	49	4845
2026-01-11 12:01:56.12	311.34	10.08	-39.3	-41.5	13.7	6.10e-06	0	58	0	1278214144	49	4846
2026-01-11 12:01:57.13	311.49	10.03	-39.2	-41.5	13.8	3.80e-06	0	58	0	1281359872	49	4831
2026-01-11 12:01:58.14	311.64	9.99	-39.3	-41.6	13.7	5.30e-06	0	58	0	1284505600	49	4886
2026-01-11 12:01:59.15	311.79	9.94	-39.3	-41.7	13.6	6.80e-06	0	58	0	1287651328	49	4927
2026-01-11 12:02:00.16	311.94	9.89	-39.4	-41.7	13.5	1.29e-05	0	58	0	1290797056	49	4953
2026-01-11 12:02:01.17	312.09	9.85	-39.4	-41.7	13.5	4.50e-06	0	58	0	1293942784	49	4956
2026-01-11 12:02:02.18	312.24	9.80	-39.4	-41.8	13.4	1.83e-05	0	58	0	1297088512	49	4987
2026-01-11 12:02:03.20	312.40	9.75	-39.5	-41.9	13.3	1.44e-05	0	58	0	1300234240	49	5045
2026-01-11 12:02:04.21	312.55	9.70	-39.3	-41.6	13.6	9.90e-06	0	58	0	1303379968	49	4871
2026-01-11 12:02:05.22	312.69	9.66	-39.3	-41.6	13.5	8.30e-06	0	58	0	1306525696	49	4918
2026-01-11 12:02:06.23	312.84	9.61	-39.3	-41.6	13.6	3.80e-06	0	58	0	1309671424	49	4871
2026-01-11 12:02:07.24	312.99	9.56	-39.3	-41.6	13.6	4.50e-06	0	58	0	1312817152	49	4887
2026-01-11 12:02:08.25	313.14	9.51	-39.3	-41.6	13.6	5.30e-06	0	58	0	1315962880	49	4883
2026-01-11 12:02:09.26	313.29	9.46	-39.3	-41.7	13.5	1.37e-05	0	58	0	1319108608	49	4931
2026-01-11 12:02:10.27	313.43	9.42	-39.4	-41.8	13.4	9.90e-06	0	58	0	1322254336	49	5004
2026-01-11 12:02:11.28	313.58	9.37	-39.3	-41.6	13.6	8.30e-06	0	58	0	1326448640	49	4899
2026-01-11 12:02:12.29	313.72	9.32	-39.4	-41.7	13.4	8.30e-06	0	58	0	1329594368	49	4974
2026-01-11 12:02:13.30	313.87	9.27	-39.5	-41.8	13.3	1.29e-05	0	57	0	1332740096	49	5034
2026-01-11 12:02:14.31	314.01	9.22	-39.4	-41.8	13.4	1.90e-05	0	58	0	1334837248	49	4990
2026-01-11 12:02:15.32	314.16	9.18	-39.4	-41.7	13.4	9.90e-06	0	58	0	1337982976	49	4971
2026-01-11 12:02:16.33	314.30	9.13	-39.4	-41.8	13.3	1.52e-05	0	58	0	1342177280	49	5016
2026-01-11 12:02:17.34	314.44	9.08	-39.4	-41.8	13.3	2.82e-05	0	58	0	1345323008	49	5016
2026-01-11 12:02:18.35	314.59	9.03	-39.5	-41.9	13.2	2.28e-05	0	58	0	1348468736	49	5093
2026-01-11 12:02:19.36	314.73	8.98	-39.4	-41.8	13.3	1.52e-05	0	58	0	1351614464	49	5009
2026-01-11 12:02:20.37	314.87	8.93	-39.5	-42.0	13.1	1.98e-05	0	58	0	1354760192	49	5110
2026-01-11 12:02:21.38	315.01	8.89	-39.6	-42.1	13.0	3.66e-05	0	58	0	1357905920	49	5161
2026-01-11 12:02:22.39	315.15	8.84	-39.5	-41.9	13.1	2.36e-05	0	58	0	1361051648	49	5098
2026-01-11 12:02:23.40	315.29	8.79	-39.7	-42.2	12.9	4.27e-05	0	58	0	1364197376	49	5231
2026-01-11 12:02:24.42	315.44	8.74	-39.6	-42.1	13.0	3.66e-05	0	58	0	1367343104	49	5172
2026-01-11 12:02:25.43	315.58	8.69	-39.7	-42.2	12.9	4.88e-05	0	58	0	1370488832	49	5237
2026-01-11 12:02:26.43	315.71	8.64	-39.7	-42.3	12.8	5.41e-05	0	58	0	1373634560	50	4990
2026-01-11 12:02:27.44	315.85	8.59	-39.7	-42.2	12.9	4.73e-05	0	58	0	1376780288	50	4966
2026-01-11 12:02:28.45	315.99	8.54	-39.8	-42.4	12.7	8.08e-05	0	58	0	1379926016	50	5060
2026-01-11 12:02:29.46	316.13	8.49	-39.8	-42.4	12.6	9.46e-05	0	58	0	1383071744	50	5093
2026-01-11 12:02:30.47	316.27	8.45	-39.9	-42.5	12.6	9.53e-05	0	58	0	1386217472	50	5141
2026-01-11 12:02:31.48	316.40	8.40	-40.0	-42.6	12.5	1.30e-04	0	58	0	1389363200	50	5195
2026-01-11 12:02:32.49	316.54	8.35	-39.8	-42.4	12.7	8.77e-05	0	58	0	1392508928	50	5070
2026-01-11 12:02:33.50	316.68	8.30	-39.7	-42.2	12.9	4.80e-05	0	58	0	1395654656	50	4970
2026-01-11 12:02:34.51	316.81	8.25	-39.7	-42.3	12.8	5.87e-05	0	58	0	1398800384	50	4993
2026-01-11 12:02:35.52	316.95	8.20	-39.6	-42.1	13.0	3.89e-05	0	58	0	1401946112	50	4885
2026-01-11 12:02:36.53	317.08	8.15	-39.6	-42.1	12.9	4.11e-05	0	58	0	1405091840	50	4919
2026-01-11 12:02:37.54	317.22	8.10	-39.6	-42.2	12.9	4.80e-05	0	58	0	1408237568	50	4938
2026-01-11 12:02:38.55	317.35	8.05	-39.6	-42.2	12.9	4.80e-05	0	58	0	1411383296	50	4940
2026-01-11 12:02:39.56	317.48	8.00	-41.4	-45.2	10.0	5.26e-05	0	58	0	1414529024	53	5913
2026-01-11 12:02:40.57	317.62	7.95	-44.5	-56.7	3.8	1.49e+00	0	58	104	1414529024	59	15623
2026-01-11 12:02:41.58	317.75	7.90	-44.7	-57.1	3.8	1.49e+00	0	58	104	1414529024	60	15466
2026-01-11 12:02:42.59	317.88	7.85	-44.9	-57.2	3.8	1.49e+00	0	58	104	1414529024	60	15729
2026-01-11 12:02:43.61	318.01	7.80	-45.0	-57.4	3.8	1.49e+00	0	58	104	1414529024	60	16125
2026-01-11 12:02:44.62	318.14	7.75	-45.1	-57.5	3.8	1.49e+00	0	58	104	1414529024	60	16247
2026-01-11 12:02:45.63	318.28	7.70	-45.1	-57.6	3.8	1.49e+00	0	58	104	1414529024	60	16391
2026-01-11 12:02:46.64	318.41	7.66	-45.2	-57.6	3.8	1.49e+00	0	58	104	1414529024	60	16447
2026-01-11 12:02:47.65	318.54	7.61	-45.2	-57.7	3.8	1.49e+00	0	58	104	1414529024	60	16522
2026-01-11 12:02:48.66	318.67	7.56	-45.2	-57.7	3.8	1.49e+00	0	58	104	1414529024	60	16566
2026-01-11 12:02:49.67	318.79	7.51	-45.2	-57.7	3.8	1.49e+00	0	58	104	1414529024	60	16526
2026-01-11 12:02:50.68	318.92	7.46	-45.1	-57.6	3.8	1.49e+00	0	58	104	1414529024	60	16451
2026-01-11 12:02:51.69	319.05	7.41	-45.1	-57.6	3.8	1.49e+00	0	58	104	1414529024	60	16486
2026-01-11 12:02:52.70	319.18	7.36	-45.1	-57.6	3.8	1.49e+00	0	58	104	1414529024	60	16486
2026-01-11 12:02:53.71	319.31	7.31	-45.1	-57.7	3.8	1.49e+00	0	58	104	1414529024	60	16535
2026-01-11 12:02:54.72	319.43	7.26	-45.1	-57.6	3.8	1.49e+00	0	58	104	1414529024	60	16479
2026-01-11 12:02:55.73	319.56	7.21	-45.1	-57.6	3.8	1.49e+00	0	58	104	1414529024	60	16440
2026-01-11 12:02:56.74	319.69	7.16	-45.1	-57.6	3.8	1.49e+00	0	58	104	1414529024	60	16411
2026-01-11 12:02:57.75	319.81	7.11	-45.1	-57.6	3.8	1.49e+00	0	58	104	1414529024	60	16467
2026-01-11 12:02:58.76	319.94	7.06	-45.1	-57.6	3.8	1.49e+00	0	58	104	1414529024	60	16427
2026-01-11 12:02:59.77	320.06	7.01	-45.1	-57.6	3.8	1.49e+00	0	58	104	1414529024	60	16412
2026-01-11 12:03:00.78	320.19	6.96	-45.1	-57.6	3.8	1.49e+00	0	58	104	1414529024	60	16343
2026-01-11 12:03:01.79	320.31	6.91	-45.1	-57.6	3.8	1.49e+00	0	58	104	1414529024	60	16412
2026-01-11 12:03:02.81	320.44	6.86	-45.1	-57.6	3.8	1.49e+00	0	58	104	1414529024	60	16400
2026-01-11 12:03:03.82	320.56	6.81	-45.1	-57.6	3.8	1.49e+00	0	58	104	1414529024	60	16383
2026-01-11 12:03:04.83	320.68	6.76	-45.1	-57.6	3.8	1.49e+00	0	58	104	1414529024	60	16379
2026-01-11 12:03:05.84	320.80	6.71	-45.1	-57.6	3.8	1.49e+00	0	58	104	1414529024	60	16379
2026-01-11 12:03:06.85	320.93	6.66	-45.1	-57.6	3.8	1.49e+00	0	58	104	1414529024	60	16368
2026-01-11 12:03:07.86	321.05	6.61	-45.1	-57.6	3.8	1.49e+00	0	58	104	1414529024	60	16368
2026-01-11 12:03:08.87	321.17	6.56	-45.1	-57.6	3.8	1.49e+00	0	58	104	1414529024	60	16357
2026-01-11 12:03:09.88	321.29	6.51	-45.1	-57.6	3.8	1.49e+00	0	58	104	1414529024	60	16333
2026-01-11 12:03:10.89	321.41	6.46	-45.1	-57.6	3.8	1.49e+00	0	58	104	1414529024	60	16357
2026-01-11 12:03:11.90	321.53	6.41	-45.1	-57.6	3.8	1.49e+00	0	58	104	1414529024	60	16376
2026-01-11 12:03:12.92	321.65	6.36	-45.1	-57.6	3.8	1.49e+00	0	58	104	1414529024	60	16326
2026-01-11 12:03:13.93	321.77	6.31	-45.1	-57.6	3.8	1.49e+00	0	58	104	1414529024	60	16379
2026-01-11 12:03:14.94	321.89	6.26	-45.1	-57.6	3.8	1.49e+00	0	58	104	1414529024	60	16377
2026-01-11 12:03:15.95	322.01	6.21	-45.1	-57.6	3.8	1.49e+00	0	58	104	1414529024	60	16331
2026-01-11 12:03:16.96	322.13	6.16	-45.1	-57.6	3.8	1.49e+00	0	58	104	1414529024	60	16333
2026-01-11 12:03:17.97	322.24	6.11	-45.1	-57.6	3.8	1.49e+00	0	58	104	1414529024	60	16344
2026-01-11 12:03:18.98	322.36	6.06	-45.1	-57.6	3.8	1.49e+00	0	58	104	1414529024	60	16370
2026-01-11 12:03:19.99	322.48	6.01	-45.1	-57.6	3.8	1.49e+00	0	58	104	1414529024	60	16337
2026-01-11 12:03:21.00	322.59	5.96	-45.1	-57.6	3.8	1.49e+00	0	58	104	1414529024	60	16355
2026-01-11 12:03:22.01	322.71	5.91	-45.1	-57.6	3.8	1.49e+00	0	58	104	1414529024	60	16343
2026-01-11 12:03:23.03	322.83	5.86	-45.1	-57.6	3.8	1.49e+00	0	58	104	1414529024	60	16409
2026-01-11 12:03:24.04	322.94	5.81	-45.1	-57.6	3.8	1.49e+00	0	58	104	1414529024	60	16386
2026-01-11 12:03:25.05	323.06	5.76	-45.1	-57.6	3.8	1.49e+00	0	58	104	1414529024	60	16336
2026-01-11 12:03:26.06	323.17	5.71	-45.1	-57.6	3.8	1.49e+00	0	58	104	1414529024	60	16351
2026-01-11 12:03:27.07	323.29	5.66	-45.1	-57.6	3.8	1.49e+00	0	58	104	1414529024	60	16360
2026-01-11 12:03:28.08	323.40	5.61	-45.1	-57.6	3.8	1.49e+00	0	58	104	1414529024	60	16366
2026-01-11 12:03:29.09	323.51	5.56	-45.0	-57.6	3.8	1.49e+00	0	58	104	1414529024	60	16323
2026-01-11 12:03:30.10	323.63	5.51	-45.0	-57.6	3.8	1.49e+00	0	58	104	1414529024	60	16392
2026-01-11 12:03:31.11	323.74	5.46	-45.0	-57.6	3.8	1.49e+00	0	58	104	1414529024	60	16355
2026-01-11 12:03:32.12	323.85	5.41	-45.0	-57.6	3.8	1.49e+00	0	58	104	1414529024	60	16363
2026-01-11 12:03:33.13	323.97	5.36	-45.1	-57.6	3.8	1.49e+00	0	58	104	1414529024	60	16368
2026-01-11 12:03:34.14	324.08	5.31	-45.0	-57.6	3.8	1.49e+00	0	58	104	1414529024	60	16335
2026-01-11 12:03:35.15	324.19	5.26	-45.0	-57.6	3.8	1.49e+00	0	58	104	1414529024	60	16328
2026-01-11 12:03:36.16	324.30	5.21	-45.0	-57.6	3.8	1.49e+00	0	58	104	1414529024	60	16333
2026-01-11 12:03:37.18	324.41	5.16	-45.0	-57.5	3.8	1.49e+00	0	58	104	1414529024	60	16309
2026-01-11 12:03:38.19	324.52	5.11	-43.7	-57.3	3.8	1.49e+00	0	58	104	1414529024	59	16773
2026-01-11 12:03:39.20	324.63	5.06	-45.1	-57.5	3.8	1.49e+00	0	58	104	1414529024	60	16293
2026-01-11 12:03:40.21	324.74	5.01	-45.0	-57.5	3.8	1.49e+00	0	58	104	1414529024	60	16282
2026-01-11 12:03:41.22	324.85	4.96	-45.0	-57.6	3.8	1.49e+00	0	58	104	1414529024	60	16318
2026-01-11 12:03:42.23	324.96	4.91	-45.0	-57.6	3.8	1.49e+00	0	58	104	1414529024	60	16356
2026-01-11 12:03:43.24	325.07	4.86	-45.0	-57.5	3.8	1.49e+00	0	58	104	1414529024	60	16309
2026-01-11 12:03:44.25	325.17	4.81	-45.0	-57.6	3.8	1.49e+00	0	58	104	1414529024	60	16329
2026-01-11 12:03:45.26	325.28	4.76	-45.0	-57.6	3.8	1.49e+00	0	58	104	1414529024	60	16351
2026-01-11 12:03:46.28	325.39	4.71	-45.0	-57.6	3.8	1.49e+00	0	58	104	1414529024	60	16343
2026-01-11 12:03:47.29	325.50	4.66	-45.0	-57.5	3.8	1.49e+00	0	58	104	1414529024	60	16310
2026-01-11 12:03:48.30	325.60	4.61	-45.0	-57.5	3.8	1.49e+00	0	58	104	1414529024	60	16285
2026-01-11 12:03:49.31	325.71	4.56	-45.0	-57.5	3.8	1.49e+00	0	58	104	1414529024	60	16287
2026-01-11 12:03:50.32	325.82	4.51	-45.0	-57.5	3.8	1.49e+00	0	58	104	1414529024	60	16298
2026-01-11 12:03:51.33	325.92	4.46	-45.0	-57.6	3.8	1.49e+00	0	58	104	1414529024	60	16394
2026-01-11 12:03:52.34	326.03	4.41	-45.0	-57.6	3.8	1.49e+00	0	58	104	1414529024	60	16346
2026-01-11 12:03:53.35	326.13	4.36	-45.0	-57.6	3.8	1.49e+00	0	58	104	1414529024	60	16349
2026-01-11 12:03:54.36	326.24	4.31	-45.0	-57.5	3.8	1.49e+00	0	58	104	1414529024	60	16283
2026-01-11 12:03:55.37	326.34	4.26	-45.0	-57.5	3.8	1.49e+00	0	58	104	1414529024	60	16305
2026-01-11 12:03:56.39	326.45	4.21	-45.0	-57.6	3.8	1.49e+00	0	58	104	1414529024	60	16332
2026-01-11 12:03:57.40	326.55	4.16	-45.0	-57.5	3.8	1.49e+00	0	58	104	1414529024	60	16270
2026-01-11 12:03:58.41	326.65	4.11	-45.0	-57.5	3.8	1.49e+00	0	58	104	1414529024	60	16296
2026-01-11 12:03:59.42	326.76	4.06	-45.0	-57.5	3.8	1.49e+00	0	58	104	1414529024	60	16266
2026-01-11 12:04:00.43	326.86	4.01	-45.0	-57.5	3.8	1.49e+00	0	58	104	1414529024	60	16283
2026-01-11 12:04:01.44	326.96	3.96	-45.0	-57.5	3.8	1.49e+00	0	58	104	1414529024	60	16278
2026-01-11 12:04:02.45	327.06	3.91	-44.6	-57.5	3.8	1.49e+00	0	58	104	1414529024	60	16295
2026-01-11 12:04:03.46	327.17	3.86	-45.0	-57.5	3.8	1.49e+00	0	58	104	1414529024	60	16294
2026-01-11 12:04:04.47	327.27	3.81	-45.0	-57.5	3.8	1.49e+00	0	58	104	1414529024	60	16279
2026-01-11 12:04:05.48	327.37	3.76	-45.0	-57.5	3.8	1.49e+00	0	58	104	1414529024	60	16265
2026-01-11 12:04:06.50	327.47	3.71	-45.0	-57.5	3.8	1.49e+00	0	58	104	1414529024	60	16280
2026-01-11 12:04:07.51	327.57	3.66	-45.0	-57.6	3.8	1.49e+00	0	58	104	1414529024	60	16315
2026-01-11 12:04:08.52	327.67	3.61	-45.0	-57.5	3.8	1.49e+00	0	58	104	1414529024	60	16278
2026-01-11 12:04:09.53	327.77	3.56	-45.0	-57.5	3.8	1.49e+00	0	58	104	1414529024	60	16284
2026-01-11 12:04:10.54	327.87	3.52	-45.0	-57.5	3.8	1.49e+00	0	58	104	1414529024	60	16312
2026-01-11 12:04:11.55	327.97	3.47	-44.7	-57.5	3.8	1.49e+00	0	58	104	1414529024	60	16252
2026-01-11 12:04:12.56	328.07	3.42	-45.0	-57.5	3.8	1.49e+00	0	58	104	1414529024	60	16308
2026-01-11 12:04:13.57	328.16	3.37	-45.0	-57.5	3.8	1.49e+00	0	58	104	1414529024	60	16280
2026-01-11 12:04:14.58	328.26	3.32	-45.0	-57.5	3.8	1.49e+00	0	58	104	1414529024	60	16282
2026-01-11 12:04:15.59	328.36	3.27	-45.0	-57.5	3.8	1.49e+00	0	58	104	1414529024	60	16272
2026-01-11 12:04:16.60	328.46	3.22	-45.0	-57.5	3.8	1.49e+00	0	58	104	1414529024	60	16288
2026-01-11 12:04:17.62	328.56	3.17	-45.0	-57.5	3.8	1.49e+00	0	58	104	1414529024	60	16247
2026-01-11 12:04:18.63	328.65	3.12	-45.0	-57.5	3.8	1.49e+00	0	58	104	1414529024	60	16301
2026-01-11 12:04:19.64	328.75	3.07	-45.0	-57.6	3.8	1.49e+00	0	58	104	1414529024	60	16318
2026-01-11 12:04:20.65	328.85	3.02	-45.0	-57.5	3.8	1.49e+00	0	58	104	1414529024	60	16268
2026-01-11 12:04:21.66	328.94	2.97	-45.0	-57.5	3.8	1.49e+00	0	58	104	1414529024	60	16242
2026-01-11 12:04:22.67	329.04	2.92	-45.0	-57.5	3.8	1.49e+00	0	58	104	1414529024	60	16254
2026-01-11 12:04:23.68	329.13	2.87	-45.0	-57.5	3.8	1.49e+00	0	58	104	1414529024	60	16282
2026-01-11 12:04:24.69	329.23	2.83	-45.0	-57.5	3.8	1.49e+00	0	58	104	1414529024	60	16258
2026-01-11 12:04:25.70	329.32	2.78	-45.0	-57.5	3.8	1.49e+00	0	58	104	1414529024	60	16290
2026-01-11 12:04:26.71	329.42	2.73	-45.0	-57.5	3.8	1.49e+00	0	58	104	1414529024	60	16285
2026-01-11 12:04:27.73	329.51	2.68	-45.0	-57.5	3.8	1.49e+00	0	58	104	1414529024	60	16256
2026-01-11 12:04:28.74	329.61	2.63	-45.0	-57.5	3.8	1.49e+00	0	58	104	1414529024	60	16292
2026-01-11 12:04:29.75	329.70	2.58	-45.0	-57.5	3.8	1.49e+00	0	58	104	1414529024	60	16276
2026-01-11 12:04:30.76	329.79	2.53	-45.0	-57.5	3.8	1.49e+00	0	58	104	1414529024	60	16238
2026-01-11 12:04:31.77	329.89	2.48	-45.0	-57.5	3.8	1.49e+00	0	58	104	1414529024	60	16247
2026-01-11 12:04:32.78	329.98	2.43	-45.0	-57.5	3.8	1.49e+00	0	58	104	1414529024	60	16275
2026-01-11 12:04:33.79	330.07	2.38	-45.0	-57.5	3.8	1.49e+00	0	58	104	1414529024	60	16304
2026-01-11 12:04:34.80	330.16	2.34	-45.0	-57.5	3.8	1.49e+00	0	58	104	1414529024	60	16259
2026-01-11 12:04:35.82	330.26	2.29	-45.0	-57.5	3.8	1.49e+00	0	58	104	1414529024	60	16277
2026-01-11 12:04:36.83	330.35	2.24	-45.0	-57.5	3.8	1.49e+00	0	58	104	1414529024	60	16272
2026-01-11 12:04:37.84	330.44	2.19	-45.0	-57.5	3.8	1.49e+00	0	58	104	1414529024	60	16251
2026-01-11 12:04:38.85	330.53	2.14	-45.0	-57.5	3.8	1.49e+00	0	58	104	1414529024	60	16232
2026-01-11 12:04:39.86	330.62	2.09	-45.0	-57.5	3.8	1.49e+00	0	58	104	1414529024	60	16270
2026-01-11 12:04:40.87	330.71	2.04	-45.0	-57.5	3.8	1.49e+00	0	58	104	1414529024	60	16275
2026-01-11 12:04:41.88	330.80	1.99	-45.0	-57.5	3.8	1.49e+00	0	58	104	1414529024	60	16285
2026-01-11 12:04:42.89	330.89	1.95	-45.0	-57.5	3.8	1.49e+00	0	58	104	1414529024	60	16302
2026-01-11 12:04:43.90	330.98	1.90	-45.0	-57.5	3.8	1.49e+00	0	58	104	1414529024	60	16246

#Closed at: 2026-01-11 12:04:44
#Recorded file [1414 MB]: D:/lorett/data/31039_260111_145420.dat