passes_logs/2025/01/17/SPB_Silybum_02/SPB_Silybum_02__20250117_105637_TERRA_rec.log

#Pass ID: 20250117_105637_TERRA
#Satellite: TERRA
#Configuration: TERRA
#Start time: 2025-01-17 10:56:37

#Version: 2.0.20230423
#Station: SPB_Silybum_02
#Location: 30.233357 lon 59.946436 lat
#TLE: 1 25994U 99068A   25016.77398677  .00000840  00000+0  18282-3 0  9994
#TLE: 2 25994  98.0212  79.7479 0003409  69.0484  40.6664 14.60398530334334

#Time	Az	El	Level	Level2	SNR	BER	Gain	Gain2
2025-01-17 10:56:39.15	6.57	4.11	
2025-01-17 10:56:39.35	6.54	4.12	
2025-01-17 10:56:39.55	6.52	4.13	
2025-01-17 10:56:39.76	6.49	4.14	
2025-01-17 10:56:39.96	6.47	4.15	
2025-01-17 10:56:40.16	6.45	4.16	
2025-01-17 10:56:40.37	6.42	4.17	
2025-01-17 10:56:40.57	6.40	4.18	
2025-01-17 10:56:40.77	6.38	4.19	
2025-01-17 10:56:40.97	6.35	4.20	
2025-01-17 10:56:41.18	6.33	4.21	
2025-01-17 10:56:41.38	6.30	4.22	
2025-01-17 10:56:41.58	6.28	4.23	
2025-01-17 10:56:41.79	6.25	4.24	
2025-01-17 10:56:41.99	6.23	4.25	
2025-01-17 10:56:42.19	6.21	4.26	
2025-01-17 10:56:42.40	6.18	4.27	
2025-01-17 10:56:42.60	6.16	4.28	
2025-01-17 10:56:42.80	6.13	4.29	
2025-01-17 10:56:43.00	6.11	4.30	
2025-01-17 10:56:43.21	6.09	4.31	
2025-01-17 10:56:43.41	6.06	4.32	
2025-01-17 10:56:43.61	6.04	4.33	
2025-01-17 10:56:43.82	6.01	4.34	
2025-01-17 10:56:44.02	5.99	4.35	
2025-01-17 10:56:44.22	5.97	4.36	
2025-01-17 10:56:44.42	5.94	4.37	
2025-01-17 10:56:44.63	5.92	4.38	
2025-01-17 10:56:44.83	5.89	4.39	
2025-01-17 10:56:45.03	5.87	4.40	
2025-01-17 10:56:45.24	5.84	4.41	
2025-01-17 10:56:45.44	5.82	4.42	
2025-01-17 10:56:45.64	5.80	4.43	
2025-01-17 10:56:45.85	5.77	4.44	
2025-01-17 10:56:46.05	5.75	4.45	
2025-01-17 10:56:46.25	5.72	4.46	
2025-01-17 10:56:46.45	5.70	4.47	
2025-01-17 10:56:46.66	5.67	4.48	
2025-01-17 10:56:46.86	5.65	4.49	
2025-01-17 10:56:47.06	5.62	4.50	
2025-01-17 10:56:47.27	5.60	4.52	
2025-01-17 10:56:47.47	5.57	4.53	
2025-01-17 10:56:47.67	5.55	4.54	
2025-01-17 10:56:47.88	5.52	4.55	
2025-01-17 10:56:48.08	5.50	4.56	
2025-01-17 10:56:48.28	5.48	4.57	
2025-01-17 10:56:48.48	5.45	4.58	
2025-01-17 10:56:48.69	5.43	4.59	
2025-01-17 10:56:48.89	5.40	4.60	
2025-01-17 10:56:49.09	5.38	4.61	
2025-01-17 10:56:49.30	5.35	4.62	
2025-01-17 10:56:49.50	5.33	4.63	
2025-01-17 10:56:49.70	5.30	4.64	
2025-01-17 10:56:49.91	5.28	4.65	
2025-01-17 10:56:50.11	5.25	4.66	
2025-01-17 10:56:50.31	5.23	4.67	
2025-01-17 10:56:50.51	5.20	4.68	
2025-01-17 10:56:50.72	5.18	4.69	
2025-01-17 10:56:50.92	5.15	4.70	
2025-01-17 10:56:51.12	5.13	4.71	
2025-01-17 10:56:51.33	5.10	4.72	
2025-01-17 10:56:51.53	5.08	4.73	
2025-01-17 10:56:51.73	5.05	4.74	
2025-01-17 10:56:51.93	5.03	4.75	
2025-01-17 10:56:52.14	5.00	4.76	
2025-01-17 10:56:52.34	4.98	4.77	
2025-01-17 10:56:52.54	4.95	4.78	
2025-01-17 10:56:52.75	4.93	4.79	
2025-01-17 10:56:52.95	4.90	4.80	
2025-01-17 10:56:53.15	4.88	4.81	
2025-01-17 10:56:53.36	4.85	4.82	
2025-01-17 10:56:53.56	4.83	4.83	
2025-01-17 10:56:53.76	4.80	4.84	
2025-01-17 10:56:53.96	4.78	4.85	
2025-01-17 10:56:54.17	4.75	4.86	
2025-01-17 10:56:54.37	4.73	4.87	
2025-01-17 10:56:54.57	4.70	4.88	
2025-01-17 10:56:54.78	4.68	4.89	
2025-01-17 10:56:54.98	4.65	4.90	
2025-01-17 10:56:55.18	4.63	4.91	
2025-01-17 10:56:55.39	4.60	4.92	
2025-01-17 10:56:55.59	4.58	4.93	
2025-01-17 10:56:55.79	4.55	4.94	
2025-01-17 10:56:55.99	4.53	4.95	
2025-01-17 10:56:56.20	4.50	4.96	
2025-01-17 10:56:56.40	4.47	4.97	
2025-01-17 10:56:56.60	4.45	4.98	
2025-01-17 10:56:56.81	4.42	4.99	
2025-01-17 10:56:57.01	4.40	5.00	
2025-01-17 10:56:57.21	4.37	5.01	
2025-01-17 10:56:57.42	4.35	5.02	
2025-01-17 10:56:57.62	4.32	5.03	
2025-01-17 10:56:57.82	4.30	5.04	
2025-01-17 10:56:58.02	4.27	5.05	
2025-01-17 10:56:58.23	4.24	5.06	
2025-01-17 10:56:58.43	4.22	5.07	
2025-01-17 10:56:58.63	4.19	5.08	
2025-01-17 10:56:58.84	4.17	5.09	
2025-01-17 10:56:59.04	4.14	5.10	
2025-01-17 10:56:59.24	4.12	5.11	
2025-01-17 10:56:59.44	4.09	5.12	
2025-01-17 10:56:59.65	4.06	5.14	
2025-01-17 10:56:59.85	4.04	5.15	
2025-01-17 10:57:00.05	4.01	5.16	
2025-01-17 10:57:00.26	3.99	5.17	
2025-01-17 10:57:00.46	3.96	5.18	
2025-01-17 10:57:00.66	3.94	5.19	
2025-01-17 10:57:00.87	3.91	5.20	
2025-01-17 10:57:01.07	3.88	5.21	
2025-01-17 10:57:01.27	3.86	5.22	
2025-01-17 10:57:01.47	3.83	5.23	
2025-01-17 10:57:01.68	3.81	5.24	
2025-01-17 10:57:01.88	3.78	5.25	
2025-01-17 10:57:02.08	3.75	5.26	
2025-01-17 10:57:02.29	3.73	5.27	
2025-01-17 10:57:02.49	3.70	5.28	
2025-01-17 10:57:02.69	3.68	5.29	
2025-01-17 10:57:02.90	3.65	5.30	
2025-01-17 10:57:03.10	3.62	5.31	
2025-01-17 10:57:03.30	3.60	5.32	
2025-01-17 10:57:03.50	3.57	5.33	
2025-01-17 10:57:03.71	3.54	5.34	
2025-01-17 10:57:03.91	3.52	5.35	
2025-01-17 10:57:04.11	3.49	5.36	
2025-01-17 10:57:04.32	3.47	5.37	
2025-01-17 10:57:04.52	3.44	5.38	
2025-01-17 10:57:04.72	3.41	5.39	
2025-01-17 10:57:04.93	3.39	5.40	
2025-01-17 10:57:05.13	3.36	5.41	
2025-01-17 10:57:05.33	3.33	5.42	
2025-01-17 10:57:05.53	3.31	5.43	
2025-01-17 10:57:05.74	3.28	5.44	
2025-01-17 10:57:05.94	3.26	5.45	
2025-01-17 10:57:06.14	3.23	5.46	
2025-01-17 10:57:06.35	3.20	5.47	
2025-01-17 10:57:06.55	3.18	5.48	
2025-01-17 10:57:06.75	3.15	5.49	
2025-01-17 10:57:06.95	3.12	5.50	
2025-01-17 10:57:07.16	3.10	5.51	
2025-01-17 10:57:07.36	3.07	5.52	
2025-01-17 10:57:07.56	3.04	5.53	
2025-01-17 10:57:07.77	3.02	5.54	
2025-01-17 10:57:07.97	2.99	5.55	
2025-01-17 10:57:08.17	2.96	5.56	
2025-01-17 10:57:08.38	2.94	5.57	
2025-01-17 10:57:08.58	2.91	5.58	
2025-01-17 10:57:08.78	2.88	5.59	
2025-01-17 10:57:08.98	2.86	5.60	
2025-01-17 10:57:09.19	2.83	5.61	
2025-01-17 10:57:09.39	2.80	5.62	
2025-01-17 10:57:09.59	2.78	5.63	
2025-01-17 10:57:09.80	2.75	5.64	
2025-01-17 10:57:10.00	2.72	5.65	
2025-01-17 10:57:10.20	2.70	5.66	
2025-01-17 10:57:10.41	2.67	5.67	
2025-01-17 10:57:10.61	2.64	5.68	
2025-01-17 10:57:10.81	2.62	5.69	
2025-01-17 10:57:11.01	2.59	5.70	
2025-01-17 10:57:11.22	2.56	5.71	
2025-01-17 10:57:11.42	2.54	5.72	
2025-01-17 10:57:11.62	2.51	5.73	
2025-01-17 10:57:11.83	2.48	5.74	
2025-01-17 10:57:12.03	2.45	5.75	
2025-01-17 10:57:12.23	2.43	5.76	
2025-01-17 10:57:12.44	2.40	5.77	
2025-01-17 10:57:12.64	2.37	5.78	
2025-01-17 10:57:12.84	2.35	5.79	
2025-01-17 10:57:13.04	2.32	5.80	
2025-01-17 10:57:13.25	2.29	5.81	
2025-01-17 10:57:13.45	2.26	5.82	
2025-01-17 10:57:13.65	2.24	5.83	
2025-01-17 10:57:13.86	2.21	5.84	
2025-01-17 10:57:14.06	2.18	5.85	
2025-01-17 10:57:14.26	2.16	5.86	
2025-01-17 10:57:14.46	2.13	5.87	
2025-01-17 10:57:14.67	2.10	5.88	
2025-01-17 10:57:14.87	2.07	5.89	
2025-01-17 10:57:15.07	2.05	5.90	
2025-01-17 10:57:15.28	2.02	5.91	
2025-01-17 10:57:15.48	1.99	5.92	
2025-01-17 10:57:15.68	1.97	5.93	
2025-01-17 10:57:15.89	1.94	5.94	
2025-01-17 10:57:16.09	1.91	5.95	
2025-01-17 10:57:16.29	1.88	5.96	
2025-01-17 10:57:16.49	1.86	5.97	
2025-01-17 10:57:16.70	1.83	5.98	
2025-01-17 10:57:16.90	1.80	5.99	
2025-01-17 10:57:17.10	1.77	6.00	
2025-01-17 10:57:17.31	1.74	6.01	
2025-01-17 10:57:17.51	1.72	6.02	
2025-01-17 10:57:17.71	1.69	6.03	
2025-01-17 10:57:17.92	1.66	6.04	
2025-01-17 10:57:18.12	1.63	6.05	
2025-01-17 10:57:18.32	1.61	6.06	
2025-01-17 10:57:18.52	1.58	6.07	
2025-01-17 10:57:18.73	1.55	6.08	
2025-01-17 10:57:18.93	1.52	6.09	
2025-01-17 10:57:19.13	1.50	6.10	
2025-01-17 10:57:19.34	1.47	6.11	
2025-01-17 10:57:19.54	1.44	6.12	
2025-01-17 10:57:19.74	1.41	6.13	
2025-01-17 10:57:19.95	1.38	6.14	
2025-01-17 10:57:20.15	1.36	6.15	
2025-01-17 10:57:20.35	1.33	6.16	
2025-01-17 10:57:20.55	1.30	6.17	
2025-01-17 10:57:20.76	1.27	6.18	
2025-01-17 10:57:20.96	1.25	6.19	
2025-01-17 10:57:21.16	1.22	6.20	
2025-01-17 10:57:21.37	1.19	6.21	
2025-01-17 10:57:21.57	1.16	6.22	
2025-01-17 10:57:21.77	1.13	6.23	
2025-01-17 10:57:21.97	1.11	6.24	
2025-01-17 10:57:22.18	1.08	6.25	
2025-01-17 10:57:22.38	1.05	6.26	
2025-01-17 10:57:22.58	1.02	6.27	
2025-01-17 10:57:22.79	0.99	6.28	
2025-01-17 10:57:22.99	0.97	6.29	
2025-01-17 10:57:23.19	0.94	6.30	
2025-01-17 10:57:23.40	0.91	6.31	
2025-01-17 10:57:23.60	0.88	6.32	
2025-01-17 10:57:23.80	0.85	6.33	
2025-01-17 10:57:24.00	0.82	6.34	
2025-01-17 10:57:24.21	0.80	6.35	
2025-01-17 10:57:24.41	0.77	6.36	
2025-01-17 10:57:24.61	0.74	6.37	
2025-01-17 10:57:24.82	0.71	6.38	
2025-01-17 10:57:25.02	0.68	6.39	
2025-01-17 10:57:25.22	0.65	6.40	
2025-01-17 10:57:25.43	0.62	6.41	
2025-01-17 10:57:25.63	0.60	6.42	
2025-01-17 10:57:25.83	0.57	6.43	
2025-01-17 10:57:26.03	0.54	6.44	
2025-01-17 10:57:26.24	0.51	6.45	
2025-01-17 10:57:26.44	0.48	6.46	
2025-01-17 10:57:26.64	0.46	6.47	
2025-01-17 10:57:26.85	0.43	6.48	
2025-01-17 10:57:27.05	0.40	6.49	
2025-01-17 10:57:27.25	0.37	6.50	
2025-01-17 10:57:27.45	0.34	6.51	
2025-01-17 10:57:27.66	0.31	6.52	
2025-01-17 10:57:27.86	0.28	6.53	
2025-01-17 10:57:28.06	0.25	6.54	
2025-01-17 10:57:28.27	0.23	6.55	
2025-01-17 10:57:28.47	0.20	6.56	
2025-01-17 10:57:28.67	0.17	6.57	
2025-01-17 10:57:28.88	0.14	6.58	
2025-01-17 10:57:29.08	0.11	6.59	
2025-01-17 10:57:29.28	0.08	6.60	
2025-01-17 10:57:29.48	0.05	6.61	
2025-01-17 10:57:29.69	0.02	6.62	
2025-01-17 10:57:29.89	360.00	6.63	
2025-01-17 10:57:30.09	359.97	6.64	
2025-01-17 10:57:30.30	359.94	6.65	
2025-01-17 10:57:30.50	359.91	6.66	
2025-01-17 10:57:30.70	359.88	6.67	
2025-01-17 10:57:30.91	359.85	6.68	
2025-01-17 10:57:31.11	359.82	6.69	
2025-01-17 10:57:31.31	359.79	6.70	
2025-01-17 10:57:31.51	359.76	6.71	
2025-01-17 10:57:31.72	359.73	6.72	
2025-01-17 10:57:31.92	359.71	6.73	
2025-01-17 10:57:32.12	359.68	6.74	
2025-01-17 10:57:32.33	359.65	6.75	
2025-01-17 10:57:32.53	359.62	6.76	
2025-01-17 10:57:32.73	359.59	6.77	
2025-01-17 10:57:32.94	359.56	6.78	
2025-01-17 10:57:33.14	359.53	6.79	
2025-01-17 10:57:33.34	359.50	6.80	
2025-01-17 10:57:33.54	359.47	6.81	
2025-01-17 10:57:33.75	359.44	6.82	
2025-01-17 10:57:33.95	359.41	6.83	
2025-01-17 10:57:34.15	359.38	6.84	
2025-01-17 10:57:34.36	359.35	6.85	
2025-01-17 10:57:34.56	359.32	6.86	
2025-01-17 10:57:34.76	359.30	6.87	
2025-01-17 10:57:34.96	359.27	6.88	
2025-01-17 10:57:35.17	359.24	6.89	
2025-01-17 10:57:35.37	359.21	6.90	
2025-01-17 10:57:35.57	359.18	6.91	
2025-01-17 10:57:35.78	359.15	6.92	
2025-01-17 10:57:35.98	359.12	6.93	
2025-01-17 10:57:36.18	359.09	6.94	
2025-01-17 10:57:36.39	359.06	6.95	
2025-01-17 10:57:36.59	359.03	6.96	
2025-01-17 10:57:36.79	359.00	6.97	
2025-01-17 10:57:36.99	358.97	6.98	
2025-01-17 10:57:37.20	358.94	6.99	
2025-01-17 10:57:37.40	358.91	7.00	
2025-01-17 10:57:37.60	358.88	7.01	
2025-01-17 10:57:37.81	358.85	7.02	
2025-01-17 10:57:38.01	358.82	7.03	
2025-01-17 10:57:38.21	358.79	7.04	
2025-01-17 10:57:38.42	358.76	7.05	
2025-01-17 10:57:38.62	358.73	7.06	
2025-01-17 10:57:38.82	358.70	7.07	
2025-01-17 10:57:39.02	358.67	7.08	
2025-01-17 10:57:39.23	358.64	7.09	
2025-01-17 10:57:39.43	358.61	7.10	
2025-01-17 10:57:39.63	358.58	7.11	
2025-01-17 10:57:39.84	358.55	7.12	
2025-01-17 10:57:40.04	358.52	7.13	
2025-01-17 10:57:40.24	358.49	7.14	
2025-01-17 10:57:40.45	358.46	7.15	
2025-01-17 10:57:40.65	358.43	7.16	
2025-01-17 10:57:40.85	358.40	7.17	
2025-01-17 10:57:41.05	358.37	7.18	
2025-01-17 10:57:41.26	358.34	7.19	
2025-01-17 10:57:41.46	358.31	7.20	
2025-01-17 10:57:41.66	358.28	7.20	
2025-01-17 10:57:41.87	358.25	7.21	
2025-01-17 10:57:42.07	358.22	7.22	
2025-01-17 10:57:42.27	358.19	7.23	
2025-01-17 10:57:42.47	358.16	7.24	
2025-01-17 10:57:42.68	358.13	7.25	
2025-01-17 10:57:42.88	358.10	7.26	
2025-01-17 10:57:43.08	358.07	7.27	
2025-01-17 10:57:43.29	358.04	7.28	
2025-01-17 10:57:43.49	358.01	7.29	
2025-01-17 10:57:43.69	357.98	7.30	
2025-01-17 10:57:43.90	357.95	7.31	
2025-01-17 10:57:44.10	357.92	7.32	
2025-01-17 10:57:44.30	357.89	7.33	
2025-01-17 10:57:44.50	357.86	7.34	
2025-01-17 10:57:44.71	357.83	7.35	
2025-01-17 10:57:44.91	357.80	7.36	
2025-01-17 10:57:45.11	357.77	7.37	
2025-01-17 10:57:45.32	357.73	7.38	
2025-01-17 10:57:45.52	357.70	7.39	
2025-01-17 10:57:45.72	357.67	7.40	
2025-01-17 10:57:45.93	357.64	7.41	
2025-01-17 10:57:46.13	357.61	7.42	
2025-01-17 10:57:46.33	357.58	7.43	
2025-01-17 10:57:46.53	357.55	7.44	
2025-01-17 10:57:46.74	357.52	7.45	
2025-01-17 10:57:46.94	357.49	7.46	
2025-01-17 10:57:47.14	357.46	7.47	
2025-01-17 10:57:47.35	357.43	7.48	
2025-01-17 10:57:47.55	357.40	7.49	
2025-01-17 10:57:47.75	357.37	7.50	
2025-01-17 10:57:47.96	357.33	7.51	
2025-01-17 10:57:48.16	357.30	7.52	
2025-01-17 10:57:48.36	357.27	7.53	
2025-01-17 10:57:48.56	357.24	7.54	
2025-01-17 10:57:48.77	357.21	7.55	
2025-01-17 10:57:48.97	357.18	7.55	
2025-01-17 10:57:49.17	357.15	7.56	
2025-01-17 10:57:49.38	357.12	7.57	
2025-01-17 10:57:49.58	357.09	7.58	
2025-01-17 10:57:49.78	357.06	7.59	
2025-01-17 10:57:49.98	357.03	7.60	
2025-01-17 10:57:50.19	356.99	7.61	
2025-01-17 10:57:50.39	356.96	7.62	
2025-01-17 10:57:50.59	356.93	7.63	
2025-01-17 10:57:50.80	356.90	7.64	
2025-01-17 10:57:51.00	356.87	7.65	
2025-01-17 10:57:51.20	356.84	7.66	
2025-01-17 10:57:51.41	356.81	7.67	
2025-01-17 10:57:51.61	356.78	7.68	
2025-01-17 10:57:51.81	356.74	7.69	
2025-01-17 10:57:52.01	356.71	7.70	
2025-01-17 10:57:52.22	356.68	7.71	
2025-01-17 10:57:52.42	356.65	7.72	
2025-01-17 10:57:52.62	356.62	7.73	
2025-01-17 10:57:52.83	356.59	7.74	
2025-01-17 10:57:53.03	356.56	7.75	
2025-01-17 10:57:53.23	356.52	7.76	
2025-01-17 10:57:53.44	356.49	7.77	
2025-01-17 10:57:53.64	356.46	7.78	
2025-01-17 10:57:53.84	356.43	7.79	
2025-01-17 10:57:54.04	356.40	7.80	
2025-01-17 10:57:54.25	356.37	7.81	
2025-01-17 10:57:54.45	356.34	7.81	
2025-01-17 10:57:54.65	356.30	7.82	
2025-01-17 10:57:54.86	356.27	7.83	
2025-01-17 10:57:55.06	356.24	7.84	
2025-01-17 10:57:55.26	356.21	7.85	
2025-01-17 10:57:55.47	356.18	7.86	
2025-01-17 10:57:55.67	356.14	7.87	
2025-01-17 10:57:55.87	356.11	7.88	
2025-01-17 10:57:56.07	356.08	7.89	
2025-01-17 10:57:56.28	356.05	7.90	
2025-01-17 10:57:56.48	356.02	7.91	
2025-01-17 10:57:56.68	355.99	7.92	
2025-01-17 10:57:56.89	355.95	7.93	
2025-01-17 10:57:57.09	355.92	7.94	
2025-01-17 10:57:57.29	355.89	7.95	
2025-01-17 10:57:57.49	355.86	7.96	
2025-01-17 10:57:57.70	355.83	7.97	
2025-01-17 10:57:57.90	355.79	7.98	
2025-01-17 10:57:58.10	355.76	7.99	
2025-01-17 10:57:58.31	355.73	8.00	
2025-01-17 10:57:58.51	355.70	8.01	
2025-01-17 10:57:58.71	355.67	8.01	
2025-01-17 10:57:58.92	355.63	8.02	
2025-01-17 10:57:59.12	355.60	8.03	
2025-01-17 10:57:59.32	355.57	8.04	
2025-01-17 10:57:59.52	355.54	8.05	
2025-01-17 10:57:59.73	355.50	8.06	
2025-01-17 10:57:59.93	355.47	8.07	
2025-01-17 10:58:00.13	355.44	8.08	
2025-01-17 10:58:00.34	355.41	8.09	
2025-01-17 10:58:00.54	355.38	8.10	
2025-01-17 10:58:00.74	355.34	8.11	
2025-01-17 10:58:00.95	355.31	8.12	
2025-01-17 10:58:01.15	355.28	8.13	
2025-01-17 10:58:01.35	355.25	8.14	
2025-01-17 10:58:01.55	355.21	8.15	
2025-01-17 10:58:01.76	355.18	8.16	
2025-01-17 10:58:01.96	355.15	8.17	
2025-01-17 10:58:02.16	355.12	8.18	
2025-01-17 10:58:02.37	355.08	8.19	
2025-01-17 10:58:02.57	355.05	8.19	
2025-01-17 10:58:02.77	355.02	8.20	
2025-01-17 10:58:02.98	354.99	8.21	
2025-01-17 10:58:03.18	354.95	8.22	
2025-01-17 10:58:03.38	354.92	8.23	
2025-01-17 10:58:03.58	354.89	8.24	
2025-01-17 10:58:03.79	354.86	8.25	
2025-01-17 10:58:03.99	354.82	8.26	
2025-01-17 10:58:04.19	354.79	8.27	
2025-01-17 10:58:04.40	354.76	8.28	
2025-01-17 10:58:04.60	354.72	8.29	
2025-01-17 10:58:04.80	354.69	8.30	
2025-01-17 10:58:05.00	354.66	8.31	
2025-01-17 10:58:05.21	354.63	8.32	
2025-01-17 10:58:05.41	354.59	8.33	
2025-01-17 10:58:05.61	354.56	8.33	
2025-01-17 10:58:05.82	354.53	8.34	
2025-01-17 10:58:06.02	354.50	8.35	
2025-01-17 10:58:06.22	354.46	8.36	
2025-01-17 10:58:06.43	354.43	8.37	
2025-01-17 10:58:06.63	354.40	8.38	
2025-01-17 10:58:06.83	354.36	8.39	
2025-01-17 10:58:07.03	354.33	8.40	
2025-01-17 10:58:07.24	354.30	8.41	
2025-01-17 10:58:07.44	354.26	8.42	
2025-01-17 10:58:07.64	354.23	8.43	
2025-01-17 10:58:07.85	354.20	8.44	
2025-01-17 10:58:08.05	354.16	8.45	
2025-01-17 10:58:08.25	354.13	8.46	
2025-01-17 10:58:08.46	354.10	8.47	
2025-01-17 10:58:08.66	354.06	8.47	
2025-01-17 10:58:08.86	354.03	8.48	
2025-01-17 10:58:09.06	354.00	8.49	
2025-01-17 10:58:09.27	353.96	8.50	
2025-01-17 10:58:09.47	353.93	8.51	
2025-01-17 10:58:09.67	353.90	8.52	
2025-01-17 10:58:09.88	353.86	8.53	
2025-01-17 10:58:10.08	353.83	8.54	
2025-01-17 10:58:10.28	353.80	8.55	
2025-01-17 10:58:10.49	353.76	8.56	
2025-01-17 10:58:10.69	353.73	8.57	
2025-01-17 10:58:10.89	353.70	8.58	
2025-01-17 10:58:11.09	353.66	8.59	
2025-01-17 10:58:11.30	353.63	8.59	
2025-01-17 10:58:11.50	353.60	8.60	
2025-01-17 10:58:11.70	353.56	8.61	
2025-01-17 10:58:11.91	353.53	8.62	
2025-01-17 10:58:12.11	353.50	8.63	
2025-01-17 10:58:12.31	353.46	8.64	
2025-01-17 10:58:12.51	353.43	8.65	
2025-01-17 10:58:12.72	353.39	8.66	
2025-01-17 10:58:12.92	353.36	8.67	
2025-01-17 10:58:13.12	353.33	8.68	
2025-01-17 10:58:13.33	353.29	8.69	
2025-01-17 10:58:13.53	353.26	8.70	
2025-01-17 10:58:13.73	353.23	8.70	
2025-01-17 10:58:13.94	353.19	8.71	
2025-01-17 10:58:14.14	353.16	8.72	
2025-01-17 10:58:14.34	353.13	8.73	
2025-01-17 10:58:14.54	353.09	8.74	
2025-01-17 10:58:14.75	353.06	8.75	
2025-01-17 10:58:14.95	353.02	8.76	
2025-01-17 10:58:15.15	352.99	8.77	
2025-01-17 10:58:15.36	352.95	8.78	
2025-01-17 10:58:15.56	352.92	8.79	
2025-01-17 10:58:15.76	352.89	8.80	
2025-01-17 10:58:15.97	352.85	8.81	
2025-01-17 10:58:16.17	352.82	8.81	
2025-01-17 10:58:16.37	352.78	8.82	
2025-01-17 10:58:16.57	352.75	8.83	
2025-01-17 10:58:16.78	352.72	8.84	
2025-01-17 10:58:16.98	352.68	8.85	
2025-01-17 10:58:17.18	352.65	8.86	
2025-01-17 10:58:17.39	352.61	8.87	
2025-01-17 10:58:17.59	352.58	8.88	
2025-01-17 10:58:17.79	352.55	8.89	
2025-01-17 10:58:18.00	352.51	8.90	
2025-01-17 10:58:18.20	352.48	8.90	
2025-01-17 10:58:18.40	352.44	8.91	
2025-01-17 10:58:18.60	352.41	8.92	
2025-01-17 10:58:18.81	352.37	8.93	
2025-01-17 10:58:19.01	352.34	8.94	
2025-01-17 10:58:19.21	352.30	8.95	
2025-01-17 10:58:19.42	352.27	8.96	
2025-01-17 10:58:19.62	352.24	8.97	
2025-01-17 10:58:19.82	352.20	8.98	
2025-01-17 10:58:20.02	352.17	8.99	
2025-01-17 10:58:20.23	352.13	8.99	
2025-01-17 10:58:20.43	352.10	9.00	
2025-01-17 10:58:20.63	352.06	9.01	
2025-01-17 10:58:20.84	352.03	9.02	
2025-01-17 10:58:21.04	351.99	9.03	
2025-01-17 10:58:21.24	351.96	9.04	
2025-01-17 10:58:21.45	351.92	9.05	
2025-01-17 10:58:21.65	351.89	9.06	
2025-01-17 10:58:21.85	351.85	9.07	
2025-01-17 10:58:22.05	351.82	9.07	
2025-01-17 10:58:22.26	351.78	9.08	
2025-01-17 10:58:22.46	351.75	9.09	
2025-01-17 10:58:22.66	351.72	9.10	
2025-01-17 10:58:22.87	351.68	9.11	
2025-01-17 10:58:23.07	351.65	9.12	
2025-01-17 10:58:23.27	351.61	9.13	
2025-01-17 10:58:23.48	351.57	9.14	
2025-01-17 10:58:23.68	351.54	9.15	
2025-01-17 10:58:23.88	351.51	9.15	
2025-01-17 10:58:24.08	351.47	9.16	
2025-01-17 10:58:24.29	351.44	9.17	
2025-01-17 10:58:24.49	351.40	9.18	
2025-01-17 10:58:24.69	351.37	9.19	
2025-01-17 10:58:24.90	351.33	9.20	
2025-01-17 10:58:25.10	351.30	9.21	
2025-01-17 10:58:25.30	351.26	9.22	
2025-01-17 10:58:25.50	351.23	9.23	
2025-01-17 10:58:25.71	351.19	9.23	
2025-01-17 10:58:25.91	351.15	9.24	
2025-01-17 10:58:26.11	351.12	9.25	
2025-01-17 10:58:26.32	351.08	9.26	
2025-01-17 10:58:26.52	351.05	9.27	
2025-01-17 10:58:26.72	351.01	9.28	
2025-01-17 10:58:26.93	350.98	9.29	
2025-01-17 10:58:27.13	350.94	9.30	
2025-01-17 10:58:27.33	350.91	9.30	
2025-01-17 10:58:27.53	350.87	9.31	
2025-01-17 10:58:27.74	350.84	9.32	
2025-01-17 10:58:27.94	350.80	9.33	
2025-01-17 10:58:28.14	350.77	9.34	
2025-01-17 10:58:28.35	350.73	9.35	
2025-01-17 10:58:28.55	350.69	9.36	
2025-01-17 10:58:28.75	350.66	9.37	
2025-01-17 10:58:28.96	350.62	9.37	
2025-01-17 10:58:29.16	350.59	9.38	
2025-01-17 10:58:29.36	350.55	9.39	
2025-01-17 10:58:29.56	350.52	9.40	
2025-01-17 10:58:29.77	350.48	9.41	
2025-01-17 10:58:29.97	350.45	9.42	
2025-01-17 10:58:30.17	350.41	9.43	
2025-01-17 10:58:30.38	350.37	9.44	
2025-01-17 10:58:30.58	350.34	9.44	
2025-01-17 10:58:30.78	350.30	9.45	
2025-01-17 10:58:30.99	350.27	9.46	
2025-01-17 10:58:31.19	350.23	9.47	
2025-01-17 10:58:31.39	350.19	9.48	
2025-01-17 10:58:31.59	350.16	9.49	
2025-01-17 10:58:31.80	350.12	9.50	
2025-01-17 10:58:32.00	350.09	9.50	
2025-01-17 10:58:32.20	350.05	9.51	
2025-01-17 10:58:32.41	350.01	9.52	
2025-01-17 10:58:32.61	349.98	9.53	
2025-01-17 10:58:32.81	349.94	9.54	
2025-01-17 10:58:33.01	349.91	9.55	
2025-01-17 10:58:33.22	349.87	9.56	
2025-01-17 10:58:33.42	349.83	9.56	
2025-01-17 10:58:33.62	349.80	9.57	
2025-01-17 10:58:33.83	349.76	9.58	
2025-01-17 10:58:34.03	349.73	9.59	
2025-01-17 10:58:34.23	349.69	9.60	
2025-01-17 10:58:34.44	349.65	9.61	
2025-01-17 10:58:34.64	349.62	9.62	
2025-01-17 10:58:34.84	349.58	9.62	
2025-01-17 10:58:35.04	349.55	9.63	
2025-01-17 10:58:35.25	349.51	9.64	
2025-01-17 10:58:35.45	349.47	9.65	
2025-01-17 10:58:35.65	349.44	9.66	
2025-01-17 10:58:35.86	349.40	9.67	
2025-01-17 10:58:36.06	349.36	9.67	
2025-01-17 10:58:36.26	349.33	9.68	
2025-01-17 10:58:36.47	349.29	9.69	
2025-01-17 10:58:36.67	349.25	9.70	
2025-01-17 10:58:36.87	349.22	9.71	
2025-01-17 10:58:37.07	349.18	9.72	
2025-01-17 10:58:37.28	349.14	9.73	
2025-01-17 10:58:37.48	349.11	9.73	
2025-01-17 10:58:37.68	349.07	9.74	
2025-01-17 10:58:37.89	349.03	9.75	
2025-01-17 10:58:38.09	349.00	9.76	
2025-01-17 10:58:38.29	348.96	9.77	
2025-01-17 10:58:38.50	348.92	9.78	
2025-01-17 10:58:38.70	348.89	9.78	
2025-01-17 10:58:38.90	348.85	9.79	
2025-01-17 10:58:39.10	348.82	9.80	
2025-01-17 10:58:39.31	348.78	9.81	
2025-01-17 10:58:39.51	348.74	9.82	
2025-01-17 10:58:39.71	348.71	9.83	
2025-01-17 10:58:39.92	348.67	9.83	
2025-01-17 10:58:40.12	348.63	9.84	
2025-01-17 10:58:40.32	348.59	9.85	
2025-01-17 10:58:40.52	348.56	9.86	
2025-01-17 10:58:40.73	348.52	9.87	
2025-01-17 10:58:40.93	348.48	9.88	
2025-01-17 10:58:41.13	348.45	9.88	
2025-01-17 10:58:41.34	348.41	9.89	
2025-01-17 10:58:41.54	348.37	9.90	
2025-01-17 10:58:41.74	348.34	9.91	
2025-01-17 10:58:41.95	348.30	9.92	
2025-01-17 10:58:42.15	348.26	9.93	
2025-01-17 10:58:42.35	348.22	9.93	
2025-01-17 10:58:42.55	348.19	9.94	
2025-01-17 10:58:42.76	348.15	9.95	
2025-01-17 10:58:42.96	348.11	9.96	
2025-01-17 10:58:43.16	348.08	9.97	
2025-01-17 10:58:43.37	348.04	9.97	
2025-01-17 10:58:43.57	348.00	9.98	
2025-01-17 10:58:43.77	347.96	9.99	
2025-01-17 10:58:43.98	347.93	10.00	
2025-01-17 10:58:44.18	347.89	10.01	
2025-01-17 10:58:44.38	347.85	10.01	
2025-01-17 10:58:44.58	347.82	10.02	
2025-01-17 10:58:44.79	347.78	10.03	
2025-01-17 10:58:44.99	347.74	10.04	
2025-01-17 10:58:45.19	347.70	10.05	
2025-01-17 10:58:45.40	347.66	10.06	
2025-01-17 10:58:45.60	347.63	10.06	
2025-01-17 10:58:45.80	347.59	10.07	
2025-01-17 10:58:46.01	347.55	10.08	
2025-01-17 10:58:46.21	347.51	10.09	
2025-01-17 10:58:46.41	347.48	10.10	
2025-01-17 10:58:46.61	347.44	10.10	
2025-01-17 10:58:46.82	347.40	10.11	
2025-01-17 10:58:47.02	347.36	10.12	
2025-01-17 10:58:47.22	347.33	10.13	
2025-01-17 10:58:47.43	347.29	10.14	
2025-01-17 10:58:47.63	347.25	10.14	
2025-01-17 10:58:47.83	347.21	10.15	
2025-01-17 10:58:48.03	347.18	10.16	
2025-01-17 10:58:48.24	347.14	10.17	
2025-01-17 10:58:48.44	347.10	10.18	
2025-01-17 10:58:48.65	347.06	10.18	
2025-01-17 10:58:48.85	347.02	10.19	
2025-01-17 10:58:49.05	346.99	10.20	
2025-01-17 10:58:49.26	346.95	10.21	
2025-01-17 10:58:49.46	346.91	10.22	
2025-01-17 10:58:49.67	346.87	10.22	
2025-01-17 10:58:49.87	346.83	10.23	
2025-01-17 10:58:50.07	346.80	10.24	
2025-01-17 10:58:50.28	346.76	10.25	
2025-01-17 10:58:50.48	346.72	10.26	
2025-01-17 10:58:50.68	346.68	10.26	
2025-01-17 10:58:50.89	346.64	10.27	
2025-01-17 10:58:51.09	346.60	10.28	
2025-01-17 10:58:51.29	346.57	10.29	
2025-01-17 10:58:51.49	346.53	10.30	
2025-01-17 10:58:51.70	346.49	10.30	
2025-01-17 10:58:51.90	346.45	10.31	
2025-01-17 10:58:52.10	346.41	10.32	
2025-01-17 10:58:52.31	346.38	10.33	
2025-01-17 10:58:52.51	346.34	10.33	
2025-01-17 10:58:52.71	346.30	10.34	
2025-01-17 10:58:52.92	346.26	10.35	
2025-01-17 10:58:53.12	346.22	10.36	
2025-01-17 10:58:53.32	346.18	10.37	
2025-01-17 10:58:53.52	346.15	10.37	
2025-01-17 10:58:53.73	346.11	10.38	
2025-01-17 10:58:53.93	346.07	10.39	
2025-01-17 10:58:54.13	346.03	10.40	
2025-01-17 10:58:54.34	345.99	10.40	
2025-01-17 10:58:54.54	345.95	10.41	
2025-01-17 10:58:54.74	345.92	10.42	
2025-01-17 10:58:54.94	345.88	10.43	
2025-01-17 10:58:55.15	345.84	10.44	
2025-01-17 10:58:55.35	345.80	10.44	
2025-01-17 10:58:55.55	345.76	10.45	
2025-01-17 10:58:55.76	345.72	10.46	
2025-01-17 10:58:55.96	345.68	10.47	
2025-01-17 10:58:56.16	345.65	10.47	
2025-01-17 10:58:56.37	345.61	10.48	
2025-01-17 10:58:56.57	345.57	10.49	
2025-01-17 10:58:56.77	345.53	10.50	
2025-01-17 10:58:56.99	345.49	10.50	
2025-01-17 10:58:57.19	345.45	10.51	
2025-01-17 10:58:57.39	345.41	10.52	
2025-01-17 10:58:57.60	345.37	10.53	
2025-01-17 10:58:57.80	345.33	10.53	
2025-01-17 10:58:58.00	345.29	10.54	
2025-01-17 10:58:58.21	345.25	10.55	
2025-01-17 10:58:58.41	345.22	10.56	
2025-01-17 10:58:58.61	345.18	10.56	
2025-01-17 10:58:58.82	345.14	10.57	
2025-01-17 10:58:59.02	345.10	10.58	
2025-01-17 10:58:59.22	345.06	10.59	
2025-01-17 10:58:59.42	345.02	10.59	
2025-01-17 10:58:59.63	344.98	10.60	
2025-01-17 10:58:59.83	344.94	10.61	
2025-01-17 10:59:00.03	344.91	10.62	
2025-01-17 10:59:00.24	344.86	10.62	
2025-01-17 10:59:00.44	344.83	10.63	
2025-01-17 10:59:00.64	344.79	10.64	
2025-01-17 10:59:00.84	344.75	10.65	
2025-01-17 10:59:01.05	344.71	10.65	
2025-01-17 10:59:01.25	344.67	10.66	
2025-01-17 10:59:01.45	344.63	10.67	
2025-01-17 10:59:01.66	344.59	10.68	
2025-01-17 10:59:01.86	344.55	10.68	
2025-01-17 10:59:02.06	344.51	10.69	
2025-01-17 10:59:02.27	344.47	10.70	
2025-01-17 10:59:02.47	344.43	10.71	
2025-01-17 10:59:02.67	344.40	10.71	
2025-01-17 10:59:02.87	344.36	10.72	
2025-01-17 10:59:03.08	344.32	10.73	
2025-01-17 10:59:03.28	344.28	10.74	
2025-01-17 10:59:03.48	344.24	10.74	
2025-01-17 10:59:03.69	344.20	10.75	
2025-01-17 10:59:03.89	344.16	10.76	
2025-01-17 10:59:04.09	344.12	10.76	
2025-01-17 10:59:04.30	344.08	10.77	
2025-01-17 10:59:04.50	344.04	10.78	
2025-01-17 10:59:04.70	344.00	10.79	
2025-01-17 10:59:04.90	343.96	10.79	
2025-01-17 10:59:05.11	343.92	10.80	
2025-01-17 10:59:05.31	343.88	10.81	
2025-01-17 10:59:05.51	343.84	10.82	
2025-01-17 10:59:05.72	343.80	10.82	
2025-01-17 10:59:05.92	343.76	10.83	
2025-01-17 10:59:06.12	343.72	10.84	
2025-01-17 10:59:06.33	343.68	10.84	
2025-01-17 10:59:06.53	343.64	10.85	
2025-01-17 10:59:06.73	343.60	10.86	
2025-01-17 10:59:06.93	343.56	10.87	
2025-01-17 10:59:07.14	343.52	10.87	
2025-01-17 10:59:07.34	343.48	10.88	
2025-01-17 10:59:07.54	343.44	10.89	
2025-01-17 10:59:07.75	343.40	10.89	
2025-01-17 10:59:07.95	343.36	10.90	
2025-01-17 10:59:08.15	343.32	10.91	
2025-01-17 10:59:08.35	343.29	10.91	
2025-01-17 10:59:08.56	343.24	10.92	
2025-01-17 10:59:08.76	343.20	10.93	
2025-01-17 10:59:08.96	343.17	10.94	
2025-01-17 10:59:09.17	343.12	10.94	
2025-01-17 10:59:09.37	343.08	10.95	
2025-01-17 10:59:09.57	343.04	10.96	
2025-01-17 10:59:09.78	343.00	10.96	
2025-01-17 10:59:09.98	342.96	10.97	
2025-01-17 10:59:10.18	342.92	10.98	
2025-01-17 10:59:10.38	342.88	10.98	
2025-01-17 10:59:10.59	342.84	10.99	
2025-01-17 10:59:10.79	342.80	11.00	
2025-01-17 10:59:10.99	342.76	11.01	
2025-01-17 10:59:11.20	342.72	11.01	
2025-01-17 10:59:11.40	342.68	11.02	
2025-01-17 10:59:11.60	342.64	11.03	
2025-01-17 10:59:11.81	342.60	11.03	
2025-01-17 10:59:12.01	342.56	11.04	
2025-01-17 10:59:12.21	342.52	11.05	
2025-01-17 10:59:12.41	342.48	11.05	
2025-01-17 10:59:12.62	342.44	11.06	
2025-01-17 10:59:12.82	342.40	11.07	
2025-01-17 10:59:13.02	342.36	11.07	
2025-01-17 10:59:13.23	342.32	11.08	
2025-01-17 10:59:13.43	342.28	11.09	
2025-01-17 10:59:13.63	342.24	11.09	
2025-01-17 10:59:13.84	342.20	11.10	
2025-01-17 10:59:14.04	342.16	11.11	
2025-01-17 10:59:14.24	342.12	11.11	
2025-01-17 10:59:14.44	342.08	11.12	
2025-01-17 10:59:14.65	342.04	11.13	
2025-01-17 10:59:14.85	342.00	11.13	
2025-01-17 10:59:15.05	341.96	11.14	
2025-01-17 10:59:15.26	341.91	11.15	
2025-01-17 10:59:15.46	341.87	11.15	
2025-01-17 10:59:15.66	341.83	11.16	
2025-01-17 10:59:15.86	341.79	11.17	
2025-01-17 10:59:16.07	341.75	11.17	
2025-01-17 10:59:16.27	341.71	11.18	
2025-01-17 10:59:16.47	341.67	11.19	
2025-01-17 10:59:16.68	341.63	11.19	
2025-01-17 10:59:16.88	341.59	11.20	
2025-01-17 10:59:17.08	341.55	11.21	
2025-01-17 10:59:17.29	341.51	11.21	
2025-01-17 10:59:17.49	341.47	11.22	
2025-01-17 10:59:17.69	341.43	11.23	
2025-01-17 10:59:17.89	341.38	11.23	
2025-01-17 10:59:18.10	341.34	11.24	
2025-01-17 10:59:18.30	341.30	11.25	
2025-01-17 10:59:18.50	341.26	11.25	
2025-01-17 10:59:18.71	341.22	11.26	
2025-01-17 10:59:18.91	341.18	11.27	
2025-01-17 10:59:19.11	341.14	11.27	
2025-01-17 10:59:19.32	341.10	11.28	
2025-01-17 10:59:19.52	341.06	11.29	
2025-01-17 10:59:19.72	341.02	11.29	
2025-01-17 10:59:19.92	340.97	11.30	
2025-01-17 10:59:20.13	340.93	11.31	
2025-01-17 10:59:20.33	340.89	11.31	
2025-01-17 10:59:20.53	340.85	11.32	
2025-01-17 10:59:20.74	340.81	11.32	
2025-01-17 10:59:20.94	340.77	11.33	
2025-01-17 10:59:21.14	340.73	11.34	
2025-01-17 10:59:21.35	340.68	11.34	
2025-01-17 10:59:21.55	340.64	11.35	
2025-01-17 10:59:21.75	340.60	11.36	
2025-01-17 10:59:21.95	340.56	11.36	
2025-01-17 10:59:22.16	340.52	11.37	
2025-01-17 10:59:22.36	340.48	11.37	
2025-01-17 10:59:22.56	340.44	11.38	
2025-01-17 10:59:22.77	340.40	11.39	
2025-01-17 10:59:22.97	340.35	11.39	
2025-01-17 10:59:23.17	340.31	11.40	
2025-01-17 10:59:23.37	340.27	11.41	
2025-01-17 10:59:23.58	340.23	11.41	
2025-01-17 10:59:23.78	340.19	11.42	
2025-01-17 10:59:23.98	340.15	11.42	
2025-01-17 10:59:24.19	340.11	11.43	
2025-01-17 10:59:24.39	340.06	11.44	
2025-01-17 10:59:24.59	340.02	11.44	
2025-01-17 10:59:24.80	339.98	11.45	
2025-01-17 10:59:25.00	339.94	11.46	
2025-01-17 10:59:25.20	339.90	11.46	
2025-01-17 10:59:25.40	339.86	11.47	
2025-01-17 10:59:25.61	339.81	11.47	
2025-01-17 10:59:25.81	339.77	11.48	
2025-01-17 10:59:26.01	339.73	11.49	
2025-01-17 10:59:26.22	339.69	11.49	
2025-01-17 10:59:26.42	339.65	11.50	
2025-01-17 10:59:26.62	339.61	11.50	
2025-01-17 10:59:26.83	339.56	11.51	
2025-01-17 10:59:27.03	339.52	11.52	
2025-01-17 10:59:27.23	339.48	11.52	
2025-01-17 10:59:27.43	339.44	11.53	
2025-01-17 10:59:27.64	339.40	11.53	
2025-01-17 10:59:27.84	339.36	11.54	
2025-01-17 10:59:28.04	339.31	11.55	
2025-01-17 10:59:28.25	339.27	11.55	
2025-01-17 10:59:28.45	339.23	11.56	
2025-01-17 10:59:28.65	339.19	11.56	
2025-01-17 10:59:28.85	339.15	11.57	
2025-01-17 10:59:29.06	339.10	11.58	
2025-01-17 10:59:29.26	339.06	11.58	
2025-01-17 10:59:29.46	339.02	11.59	
2025-01-17 10:59:29.67	338.98	11.59	
2025-01-17 10:59:29.87	338.94	11.60	
2025-01-17 10:59:30.07	338.89	11.60	
2025-01-17 10:59:30.28	338.85	11.61	
2025-01-17 10:59:30.48	338.81	11.62	
2025-01-17 10:59:30.68	338.77	11.62	
2025-01-17 10:59:30.88	338.73	11.63	
2025-01-17 10:59:31.09	338.68	11.63	
2025-01-17 10:59:31.29	338.64	11.64	
2025-01-17 10:59:31.49	338.60	11.64	
2025-01-17 10:59:31.70	338.56	11.65	
2025-01-17 10:59:31.90	338.51	11.66	
2025-01-17 10:59:32.10	338.47	11.66	
2025-01-17 10:59:32.31	338.43	11.67	
2025-01-17 10:59:32.51	338.39	11.67	
2025-01-17 10:59:32.71	338.35	11.68	
2025-01-17 10:59:32.91	338.30	11.68	
2025-01-17 10:59:33.12	338.26	11.69	
2025-01-17 10:59:33.32	338.22	11.70	
2025-01-17 10:59:33.52	338.18	11.70	
2025-01-17 10:59:33.73	338.13	11.71	
2025-01-17 10:59:33.93	338.09	11.71	
2025-01-17 10:59:34.13	338.05	11.72	
2025-01-17 10:59:34.34	338.01	11.72	
2025-01-17 10:59:34.54	337.96	11.73	
2025-01-17 10:59:34.74	337.92	11.73	
2025-01-17 10:59:34.94	337.88	11.74	
2025-01-17 10:59:35.15	337.84	11.75	
2025-01-17 10:59:35.35	337.79	11.75	
2025-01-17 10:59:35.55	337.75	11.76	
2025-01-17 10:59:35.76	337.71	11.76	
2025-01-17 10:59:35.96	337.67	11.77	
2025-01-17 10:59:36.16	337.62	11.77	
2025-01-17 10:59:36.36	337.58	11.78	
2025-01-17 10:59:36.57	337.54	11.78	
2025-01-17 10:59:36.77	337.50	11.79	
2025-01-17 10:59:36.97	337.45	11.79	
2025-01-17 10:59:37.18	337.41	11.80	
2025-01-17 10:59:37.38	337.37	11.81	
2025-01-17 10:59:37.58	337.33	11.81	
2025-01-17 10:59:37.79	337.28	11.82	
2025-01-17 10:59:37.99	337.24	11.82	
2025-01-17 10:59:38.19	337.20	11.83	
2025-01-17 10:59:38.39	337.16	11.83	
2025-01-17 10:59:38.60	337.11	11.84	
2025-01-17 10:59:38.80	337.07	11.84	
2025-01-17 10:59:39.00	337.03	11.85	
2025-01-17 10:59:39.21	336.98	11.85	
2025-01-17 10:59:39.41	336.94	11.86	
2025-01-17 10:59:39.61	336.90	11.86	
2025-01-17 10:59:39.82	336.85	11.87	
2025-01-17 10:59:40.02	336.81	11.87	
2025-01-17 10:59:40.22	336.77	11.88	
2025-01-17 10:59:40.42	336.73	11.88	
2025-01-17 10:59:40.63	336.68	11.89	
2025-01-17 10:59:40.83	336.64	11.89	
2025-01-17 10:59:41.03	336.60	11.90	
2025-01-17 10:59:41.24	336.55	11.90	
2025-01-17 10:59:41.44	336.51	11.91	
2025-01-17 10:59:41.64	336.47	11.91	
2025-01-17 10:59:41.85	336.42	11.92	
2025-01-17 10:59:42.05	336.38	11.92	
2025-01-17 10:59:42.25	336.34	11.93	
2025-01-17 10:59:42.45	336.30	11.93	
2025-01-17 10:59:42.66	336.25	11.94	
2025-01-17 10:59:42.86	336.21	11.94	
2025-01-17 10:59:43.06	336.17	11.95	
2025-01-17 10:59:43.27	336.12	11.95	
2025-01-17 10:59:43.47	336.08	11.96	
2025-01-17 10:59:43.67	336.04	11.96	
2025-01-17 10:59:43.87	335.99	11.97	
2025-01-17 10:59:44.08	335.95	11.97	
2025-01-17 10:59:44.28	335.91	11.98	
2025-01-17 10:59:44.48	335.86	11.98	
2025-01-17 10:59:44.69	335.82	11.99	
2025-01-17 10:59:44.89	335.78	11.99	
2025-01-17 10:59:45.09	335.73	12.00	
2025-01-17 10:59:45.30	335.69	12.00	
2025-01-17 10:59:45.50	335.65	12.01	
2025-01-17 10:59:45.70	335.60	12.01	
2025-01-17 10:59:45.90	335.56	12.02	
2025-01-17 10:59:46.11	335.52	12.02	
2025-01-17 10:59:46.31	335.47	12.03	
2025-01-17 10:59:46.51	335.43	12.03	
2025-01-17 10:59:46.72	335.39	12.04	
2025-01-17 10:59:46.92	335.34	12.04	
2025-01-17 10:59:47.12	335.30	12.05	
2025-01-17 10:59:47.33	335.26	12.05	
2025-01-17 10:59:47.53	335.21	12.05	
2025-01-17 10:59:47.73	335.17	12.06	
2025-01-17 10:59:47.93	335.13	12.06	
2025-01-17 10:59:48.14	335.08	12.07	
2025-01-17 10:59:48.34	335.04	12.07	
2025-01-17 10:59:48.54	335.00	12.08	
2025-01-17 10:59:48.75	334.95	12.08	
2025-01-17 10:59:48.95	334.91	12.09	
2025-01-17 10:59:49.15	334.86	12.09	
2025-01-17 10:59:49.36	334.82	12.10	
2025-01-17 10:59:49.56	334.78	12.10	
2025-01-17 10:59:49.76	334.73	12.11	
2025-01-17 10:59:49.96	334.69	12.11	
2025-01-17 10:59:50.17	334.65	12.11	
2025-01-17 10:59:50.37	334.60	12.12	
2025-01-17 10:59:50.57	334.56	12.12	
2025-01-17 10:59:50.78	334.51	12.13	
2025-01-17 10:59:50.98	334.47	12.13	
2025-01-17 10:59:51.18	334.43	12.14	
2025-01-17 10:59:51.38	334.38	12.14	
2025-01-17 10:59:51.59	334.34	12.14	
2025-01-17 10:59:51.79	334.30	12.15	
2025-01-17 10:59:51.99	334.25	12.15	
2025-01-17 10:59:52.20	334.21	12.16	
2025-01-17 10:59:52.40	334.16	12.16	
2025-01-17 10:59:52.60	334.12	12.17	
2025-01-17 10:59:52.81	334.08	12.17	
2025-01-17 10:59:53.01	334.03	12.17	
2025-01-17 10:59:53.21	333.99	12.18	
2025-01-17 10:59:53.41	333.95	12.18	
2025-01-17 10:59:53.62	333.90	12.19	
2025-01-17 10:59:53.82	333.86	12.19	
2025-01-17 10:59:54.02	333.81	12.20	
2025-01-17 10:59:54.23	333.77	12.20	
2025-01-17 10:59:54.43	333.73	12.20	
2025-01-17 10:59:54.63	333.68	12.21	
2025-01-17 10:59:54.84	333.64	12.21	
2025-01-17 10:59:55.04	333.59	12.22	
2025-01-17 10:59:55.24	333.55	12.22	
2025-01-17 10:59:55.44	333.51	12.22	
2025-01-17 10:59:55.65	333.46	12.23	
2025-01-17 10:59:55.85	333.42	12.23	
2025-01-17 10:59:56.05	333.37	12.24	
2025-01-17 10:59:56.26	333.33	12.24	
2025-01-17 10:59:56.46	333.28	12.25	
2025-01-17 10:59:56.66	333.24	12.25	
2025-01-17 10:59:56.87	333.20	12.25	
2025-01-17 10:59:57.07	333.15	12.26	
2025-01-17 10:59:57.27	333.11	12.26	
2025-01-17 10:59:57.47	333.07	12.26	
2025-01-17 10:59:57.68	333.02	12.27	
2025-01-17 10:59:57.88	332.98	12.27	
2025-01-17 10:59:58.08	332.93	12.28	
2025-01-17 10:59:58.29	332.89	12.28	
2025-01-17 10:59:58.49	332.84	12.28	
2025-01-17 10:59:58.69	332.80	12.29	
2025-01-17 10:59:58.89	332.76	12.29	
2025-01-17 10:59:59.10	332.71	12.30	
2025-01-17 10:59:59.30	332.67	12.30	
2025-01-17 10:59:59.50	332.62	12.30	
2025-01-17 10:59:59.71	332.58	12.31	
2025-01-17 10:59:59.91	332.53	12.31	
2025-01-17 11:00:00.11	332.49	12.31	
2025-01-17 11:00:00.32	332.44	12.32	
2025-01-17 11:00:00.52	332.40	12.32	
2025-01-17 11:00:00.72	332.36	12.33	
2025-01-17 11:00:00.92	332.31	12.33	
2025-01-17 11:00:01.13	332.27	12.33	
2025-01-17 11:00:01.33	332.22	12.34	
2025-01-17 11:00:01.53	332.18	12.34	
2025-01-17 11:00:01.74	332.13	12.34	
2025-01-17 11:00:01.94	332.09	12.35	
2025-01-17 11:00:02.14	332.05	12.35	
2025-01-17 11:00:02.35	332.00	12.35	
2025-01-17 11:00:02.55	331.96	12.36	
2025-01-17 11:00:02.75	331.91	12.36	
2025-01-17 11:00:02.95	331.87	12.37	
2025-01-17 11:00:03.16	331.82	12.37	
2025-01-17 11:00:03.36	331.78	12.37	
2025-01-17 11:00:03.56	331.73	12.38	
2025-01-17 11:00:03.77	331.69	12.38	
2025-01-17 11:00:03.97	331.64	12.38	
2025-01-17 11:00:04.17	331.60	12.39	
2025-01-17 11:00:04.38	331.55	12.39	
2025-01-17 11:00:04.58	331.51	12.39	
2025-01-17 11:00:04.78	331.47	12.40	
2025-01-17 11:00:04.98	331.42	12.40	
2025-01-17 11:00:05.19	331.38	12.40	
2025-01-17 11:00:05.39	331.33	12.41	
2025-01-17 11:00:05.59	331.29	12.41	
2025-01-17 11:00:05.80	331.24	12.41	
2025-01-17 11:00:06.00	331.20	12.42	
2025-01-17 11:00:06.20	331.15	12.42	
2025-01-17 11:00:06.40	331.11	12.42	
2025-01-17 11:00:06.61	331.06	12.43	
2025-01-17 11:00:06.81	331.02	12.43	
2025-01-17 11:00:07.01	330.98	12.43	
2025-01-17 11:00:07.22	330.93	12.44	
2025-01-17 11:00:07.42	330.88	12.44	
2025-01-17 11:00:07.62	330.84	12.44	
2025-01-17 11:00:07.83	330.79	12.45	
2025-01-17 11:00:08.03	330.75	12.45	
2025-01-17 11:00:08.23	330.71	12.45	
2025-01-17 11:00:08.43	330.66	12.45	
2025-01-17 11:00:08.64	330.62	12.46	
2025-01-17 11:00:08.84	330.57	12.46	
2025-01-17 11:00:09.04	330.53	12.46	
2025-01-17 11:00:09.25	330.48	12.47	
2025-01-17 11:00:09.45	330.44	12.47	
2025-01-17 11:00:09.65	330.39	12.47	
2025-01-17 11:00:09.86	330.35	12.48	
2025-01-17 11:00:10.06	330.30	12.48	
2025-01-17 11:00:10.26	330.26	12.48	
2025-01-17 11:00:10.46	330.21	12.48	
2025-01-17 11:00:10.67	330.17	12.49	
2025-01-17 11:00:10.87	330.12	12.49	
2025-01-17 11:00:11.07	330.08	12.49	
2025-01-17 11:00:11.28	330.03	12.50	
2025-01-17 11:00:11.48	329.99	12.50	
2025-01-17 11:00:11.68	329.94	12.50	
2025-01-17 11:00:11.89	329.90	12.50	
2025-01-17 11:00:12.09	329.85	12.51	
2025-01-17 11:00:12.29	329.81	12.51	
2025-01-17 11:00:12.49	329.76	12.51	
2025-01-17 11:00:12.70	329.72	12.52	
2025-01-17 11:00:12.90	329.67	12.52	
2025-01-17 11:00:13.10	329.63	12.52	
2025-01-17 11:00:13.31	329.58	12.52	
2025-01-17 11:00:13.51	329.54	12.53	
2025-01-17 11:00:13.71	329.49	12.53	
2025-01-17 11:00:13.91	329.45	12.53	
2025-01-17 11:00:14.12	329.40	12.53	
2025-01-17 11:00:14.32	329.36	12.54	
2025-01-17 11:00:14.52	329.31	12.54	
2025-01-17 11:00:14.73	329.27	12.54	
2025-01-17 11:00:14.93	329.22	12.55	
2025-01-17 11:00:15.13	329.18	12.55	
2025-01-17 11:00:15.34	329.13	12.55	
2025-01-17 11:00:15.54	329.09	12.55	
2025-01-17 11:00:15.74	329.04	12.56	
2025-01-17 11:00:15.94	329.00	12.56	
2025-01-17 11:00:16.15	328.95	12.56	
2025-01-17 11:00:16.35	328.91	12.56	
2025-01-17 11:00:16.55	328.86	12.57	
2025-01-17 11:00:16.76	328.81	12.57	
2025-01-17 11:00:16.96	328.77	12.57	
2025-01-17 11:00:17.16	328.73	12.57	
2025-01-17 11:00:17.37	328.68	12.58	
2025-01-17 11:00:17.57	328.63	12.58	
2025-01-17 11:00:17.77	328.59	12.58	
2025-01-17 11:00:17.97	328.55	12.58	
2025-01-17 11:00:18.18	328.50	12.58	
2025-01-17 11:00:18.38	328.45	12.59	
2025-01-17 11:00:18.58	328.41	12.59	
2025-01-17 11:00:18.79	328.36	12.59	
2025-01-17 11:00:18.99	328.32	12.59	
2025-01-17 11:00:19.19	328.27	12.60	
2025-01-17 11:00:19.40	328.23	12.60	
2025-01-17 11:00:19.60	328.18	12.60	
2025-01-17 11:00:19.80	328.14	12.60	
2025-01-17 11:00:20.00	328.09	12.60	
2025-01-17 11:00:20.21	328.05	12.61	
2025-01-17 11:00:20.41	328.00	12.61	
2025-01-17 11:00:20.61	327.96	12.61	
2025-01-17 11:00:20.82	327.91	12.61	
2025-01-17 11:00:21.02	327.86	12.62	
2025-01-17 11:00:21.22	327.82	12.62	
2025-01-17 11:00:21.42	327.78	12.62	
2025-01-17 11:00:21.63	327.73	12.62	
2025-01-17 11:00:21.83	327.68	12.62	
2025-01-17 11:00:22.03	327.64	12.63	
2025-01-17 11:00:22.24	327.59	12.63	
2025-01-17 11:00:22.44	327.55	12.63	
2025-01-17 11:00:22.64	327.50	12.63	
2025-01-17 11:00:22.85	327.46	12.63	
2025-01-17 11:00:23.05	327.41	12.64	
2025-01-17 11:00:23.25	327.37	12.64	
2025-01-17 11:00:23.45	327.32	12.64	
2025-01-17 11:00:23.66	327.27	12.64	
2025-01-17 11:00:23.86	327.23	12.64	
2025-01-17 11:00:24.06	327.18	12.64	
2025-01-17 11:00:24.27	327.14	12.65	
2025-01-17 11:00:24.47	327.09	12.65	
2025-01-17 11:00:24.67	327.05	12.65	
2025-01-17 11:00:24.88	327.00	12.65	
2025-01-17 11:00:25.08	326.96	12.65	
2025-01-17 11:00:25.28	326.91	12.66	
2025-01-17 11:00:25.48	326.87	12.66	
2025-01-17 11:00:25.69	326.82	12.66	
2025-01-17 11:00:25.89	326.77	12.66	
2025-01-17 11:00:26.09	326.73	12.66	
2025-01-17 11:00:26.30	326.68	12.66	
2025-01-17 11:00:26.50	326.64	12.67	
2025-01-17 11:00:26.70	326.59	12.67	
2025-01-17 11:00:26.91	326.55	12.67	
2025-01-17 11:00:27.11	326.50	12.67	
2025-01-17 11:00:27.31	326.46	12.67	
2025-01-17 11:00:27.51	326.41	12.67	
2025-01-17 11:00:27.72	326.36	12.68	
2025-01-17 11:00:27.92	326.32	12.68	
2025-01-17 11:00:28.12	326.27	12.68	
2025-01-17 11:00:28.33	326.23	12.68	
2025-01-17 11:00:28.53	326.18	12.68	
2025-01-17 11:00:28.73	326.14	12.68	
2025-01-17 11:00:28.93	326.09	12.68	
2025-01-17 11:00:29.14	326.05	12.69	
2025-01-17 11:00:29.34	326.00	12.69	
2025-01-17 11:00:29.54	325.96	12.69	
2025-01-17 11:00:29.75	325.91	12.69	
2025-01-17 11:00:29.95	325.86	12.69	
2025-01-17 11:00:30.15	325.82	12.69	
2025-01-17 11:00:30.36	325.77	12.69	
2025-01-17 11:00:30.56	325.73	12.70	
2025-01-17 11:00:30.76	325.68	12.70	
2025-01-17 11:00:30.96	325.64	12.70	
2025-01-17 11:00:31.17	325.59	12.70	
2025-01-17 11:00:31.37	325.54	12.70	
2025-01-17 11:00:31.57	325.50	12.70	
2025-01-17 11:00:31.78	325.45	12.70	
2025-01-17 11:00:31.98	325.41	12.70	
2025-01-17 11:00:32.18	325.36	12.71	
2025-01-17 11:00:32.39	325.31	12.71	
2025-01-17 11:00:32.59	325.27	12.71	
2025-01-17 11:00:32.79	325.22	12.71	
2025-01-17 11:00:32.99	325.18	12.71	
2025-01-17 11:00:33.20	325.13	12.71	
2025-01-17 11:00:33.40	325.09	12.71	
2025-01-17 11:00:33.60	325.04	12.71	
2025-01-17 11:00:33.81	325.00	12.71	
2025-01-17 11:00:34.01	324.95	12.72	
2025-01-17 11:00:34.21	324.91	12.72	
2025-01-17 11:00:34.41	324.86	12.72	
2025-01-17 11:00:34.62	324.81	12.72	
2025-01-17 11:00:34.82	324.77	12.72	
2025-01-17 11:00:35.02	324.72	12.72	
2025-01-17 11:00:35.23	324.68	12.72	
2025-01-17 11:00:35.43	324.63	12.72	
2025-01-17 11:00:35.63	324.59	12.72	
2025-01-17 11:00:35.84	324.54	12.72	
2025-01-17 11:00:36.04	324.49	12.72	
2025-01-17 11:00:36.24	324.45	12.73	
2025-01-17 11:00:36.44	324.40	12.73	
2025-01-17 11:00:36.65	324.36	12.73	
2025-01-17 11:00:36.85	324.31	12.73	
2025-01-17 11:00:37.05	324.27	12.73	
2025-01-17 11:00:37.26	324.22	12.73	
2025-01-17 11:00:37.46	324.17	12.73	
2025-01-17 11:00:37.66	324.13	12.73	
2025-01-17 11:00:37.87	324.08	12.73	
2025-01-17 11:00:38.07	324.04	12.73	
2025-01-17 11:00:38.27	323.99	12.73	
2025-01-17 11:00:38.47	323.95	12.73	
2025-01-17 11:00:38.68	323.90	12.73	
2025-01-17 11:00:38.88	323.85	12.73	
2025-01-17 11:00:39.08	323.81	12.74	
2025-01-17 11:00:39.29	323.76	12.74	
2025-01-17 11:00:39.49	323.72	12.74	
2025-01-17 11:00:39.69	323.67	12.74	
2025-01-17 11:00:39.90	323.62	12.74	
2025-01-17 11:00:40.10	323.58	12.74	
2025-01-17 11:00:40.30	323.53	12.74	
2025-01-17 11:00:40.50	323.49	12.74	
2025-01-17 11:00:40.71	323.44	12.74	
2025-01-17 11:00:40.91	323.40	12.74	
2025-01-17 11:00:41.11	323.35	12.74	
2025-01-17 11:00:41.32	323.30	12.74	
2025-01-17 11:00:41.52	323.26	12.74	
2025-01-17 11:00:41.72	323.21	12.74	
2025-01-17 11:00:41.92	323.17	12.74	
2025-01-17 11:00:42.13	323.12	12.74	
2025-01-17 11:00:42.33	323.07	12.74	
2025-01-17 11:00:42.53	323.03	12.74	
2025-01-17 11:00:42.74	322.98	12.74	
2025-01-17 11:00:42.94	322.94	12.74	
2025-01-17 11:00:43.14	322.89	12.74	
2025-01-17 11:00:43.35	322.84	12.74	
2025-01-17 11:00:43.55	322.80	12.74	
2025-01-17 11:00:43.75	322.75	12.74	
2025-01-17 11:00:43.95	322.71	12.74	
2025-01-17 11:00:44.16	322.66	12.74	
2025-01-17 11:00:44.36	322.62	12.75	
2025-01-17 11:00:44.56	322.57	12.75	
2025-01-17 11:00:44.77	322.52	12.75	
2025-01-17 11:00:44.97	322.48	12.75	
2025-01-17 11:00:45.17	322.43	12.75	
2025-01-17 11:00:45.38	322.39	12.75	
2025-01-17 11:00:45.58	322.34	12.75	
2025-01-17 11:00:45.78	322.30	12.75	
2025-01-17 11:00:45.98	322.25	12.75	
2025-01-17 11:00:46.19	322.20	12.75	
2025-01-17 11:00:46.39	322.16	12.75	
2025-01-17 11:00:46.59	322.11	12.75	
2025-01-17 11:00:46.80	322.07	12.75	
2025-01-17 11:00:47.00	322.02	12.75	
2025-01-17 11:00:47.20	321.98	12.75	
2025-01-17 11:00:47.41	321.93	12.75	
2025-01-17 11:00:47.61	321.88	12.75	
2025-01-17 11:00:47.81	321.84	12.75	
2025-01-17 11:00:48.01	321.79	12.75	
2025-01-17 11:00:48.22	321.75	12.75	
2025-01-17 11:00:48.42	321.70	12.74	
2025-01-17 11:00:48.62	321.66	12.74	
2025-01-17 11:00:48.83	321.61	12.74	
2025-01-17 11:00:49.03	321.56	12.74	
2025-01-17 11:00:49.23	321.52	12.74	
2025-01-17 11:00:49.43	321.47	12.74	
2025-01-17 11:00:49.64	321.43	12.74	
2025-01-17 11:00:49.84	321.38	12.74	
2025-01-17 11:00:50.04	321.34	12.74	
2025-01-17 11:00:50.25	321.29	12.74	
2025-01-17 11:00:50.45	321.24	12.74	
2025-01-17 11:00:50.65	321.20	12.74	
2025-01-17 11:00:50.86	321.15	12.74	
2025-01-17 11:00:51.06	321.10	12.74	
2025-01-17 11:00:51.26	321.06	12.74	
2025-01-17 11:00:51.46	321.01	12.74	
2025-01-17 11:00:51.67	320.97	12.74	
2025-01-17 11:00:51.87	320.92	12.74	
2025-01-17 11:00:52.07	320.88	12.74	
2025-01-17 11:00:52.28	320.83	12.74	
2025-01-17 11:00:52.48	320.78	12.74	
2025-01-17 11:00:52.68	320.74	12.74	
2025-01-17 11:00:52.89	320.69	12.74	
2025-01-17 11:00:53.09	320.65	12.74	
2025-01-17 11:00:53.29	320.60	12.74	
2025-01-17 11:00:53.49	320.56	12.73	
2025-01-17 11:00:53.70	320.51	12.73	
2025-01-17 11:00:53.90	320.46	12.73	
2025-01-17 11:00:54.10	320.42	12.73	
2025-01-17 11:00:54.31	320.37	12.73	
2025-01-17 11:00:54.51	320.33	12.73	
2025-01-17 11:00:54.71	320.28	12.73	
2025-01-17 11:00:54.92	320.23	12.73	
2025-01-17 11:00:55.12	320.19	12.73	
2025-01-17 11:00:55.32	320.14	12.73	
2025-01-17 11:00:55.52	320.10	12.73	
2025-01-17 11:00:55.73	320.05	12.73	
2025-01-17 11:00:55.93	320.01	12.73	
2025-01-17 11:00:56.13	319.96	12.73	
2025-01-17 11:00:56.34	319.91	12.72	
2025-01-17 11:00:56.54	319.87	12.72	
2025-01-17 11:00:56.74	319.82	12.72	
2025-01-17 11:00:56.94	319.78	12.72	
2025-01-17 11:00:57.15	319.73	12.72	
2025-01-17 11:00:57.35	319.69	12.72	
2025-01-17 11:00:57.55	319.64	12.72	
2025-01-17 11:00:57.76	319.59	12.72	
2025-01-17 11:00:57.96	319.55	12.72	
2025-01-17 11:00:58.16	319.50	12.72	
2025-01-17 11:00:58.37	319.46	12.72	
2025-01-17 11:00:58.57	319.41	12.71	
2025-01-17 11:00:58.77	319.37	12.71	
2025-01-17 11:00:58.97	319.32	12.71	
2025-01-17 11:00:59.18	319.27	12.71	
2025-01-17 11:00:59.38	319.23	12.71	
2025-01-17 11:00:59.58	319.18	12.71	
2025-01-17 11:00:59.79	319.14	12.71	
2025-01-17 11:00:59.99	319.09	12.71	
2025-01-17 11:01:00.19	319.05	12.71	
2025-01-17 11:01:00.40	319.00	12.70	
2025-01-17 11:01:00.60	318.96	12.70	
2025-01-17 11:01:00.80	318.91	12.70	
2025-01-17 11:01:01.00	318.87	12.70	
2025-01-17 11:01:01.21	318.82	12.70	
2025-01-17 11:01:01.41	318.77	12.70	
2025-01-17 11:01:01.61	318.73	12.70	
2025-01-17 11:01:01.82	318.68	12.70	
2025-01-17 11:01:02.02	318.64	12.69	
2025-01-17 11:01:02.22	318.59	12.69	
2025-01-17 11:01:02.42	318.55	12.69	
2025-01-17 11:01:02.63	318.50	12.69	
2025-01-17 11:01:02.83	318.45	12.69	
2025-01-17 11:01:03.03	318.41	12.69	
2025-01-17 11:01:03.24	318.36	12.69	
2025-01-17 11:01:03.44	318.32	12.68	
2025-01-17 11:01:03.64	318.27	12.68	
2025-01-17 11:01:03.85	318.22	12.68	
2025-01-17 11:01:04.05	318.18	12.68	
2025-01-17 11:01:04.25	318.13	12.68	
2025-01-17 11:01:04.45	318.09	12.68	
2025-01-17 11:01:04.66	318.04	12.68	
2025-01-17 11:01:04.86	318.00	12.67	
2025-01-17 11:01:05.06	317.95	12.67	
2025-01-17 11:01:05.27	317.91	12.67	
2025-01-17 11:01:05.47	317.86	12.67	
2025-01-17 11:01:05.67	317.82	12.67	
2025-01-17 11:01:05.88	317.77	12.67	
2025-01-17 11:01:06.08	317.72	12.66	
2025-01-17 11:01:06.28	317.68	12.66	
2025-01-17 11:01:06.48	317.63	12.66	
2025-01-17 11:01:06.69	317.59	12.66	
2025-01-17 11:01:06.89	317.54	12.66	
2025-01-17 11:01:07.09	317.50	12.66	
2025-01-17 11:01:07.30	317.45	12.65	
2025-01-17 11:01:07.50	317.41	12.65	
2025-01-17 11:01:07.70	317.36	12.65	
2025-01-17 11:01:07.91	317.31	12.65	
2025-01-17 11:01:08.11	317.27	12.65	
2025-01-17 11:01:08.31	317.22	12.65	
2025-01-17 11:01:08.51	317.18	12.64	
2025-01-17 11:01:08.72	317.13	12.64	
2025-01-17 11:01:08.92	317.09	12.64	
2025-01-17 11:01:09.12	317.04	12.64	
2025-01-17 11:01:09.33	317.00	12.64	
2025-01-17 11:01:09.53	316.95	12.63	
2025-01-17 11:01:09.73	316.91	12.63	
2025-01-17 11:01:09.93	316.86	12.63	
2025-01-17 11:01:10.14	316.81	12.63	
2025-01-17 11:01:10.34	316.77	12.63	
2025-01-17 11:01:10.54	316.72	12.62	
2025-01-17 11:01:10.75	316.68	12.62	
2025-01-17 11:01:10.95	316.63	12.62	
2025-01-17 11:01:11.15	316.59	12.62	
2025-01-17 11:01:11.36	316.54	12.62	
2025-01-17 11:01:11.56	316.50	12.61	
2025-01-17 11:01:11.76	316.45	12.61	
2025-01-17 11:01:11.96	316.41	12.61	
2025-01-17 11:01:12.17	316.36	12.61	
2025-01-17 11:01:12.37	316.32	12.61	
2025-01-17 11:01:12.57	316.27	12.60	
2025-01-17 11:01:12.78	316.22	12.60	
2025-01-17 11:01:12.98	316.18	12.60	
2025-01-17 11:01:13.18	316.13	12.60	
2025-01-17 11:01:13.39	316.09	12.59	
2025-01-17 11:01:13.59	316.04	12.59	
2025-01-17 11:01:13.79	316.00	12.59	
2025-01-17 11:01:13.99	315.95	12.59	
2025-01-17 11:01:14.20	315.91	12.59	
2025-01-17 11:01:14.40	315.86	12.58	
2025-01-17 11:01:14.60	315.82	12.58	
2025-01-17 11:01:14.81	315.77	12.58	
2025-01-17 11:01:15.01	315.73	12.58	
2025-01-17 11:01:15.21	315.68	12.57	
2025-01-17 11:01:15.41	315.64	12.57	
2025-01-17 11:01:15.62	315.59	12.57	
2025-01-17 11:01:15.82	315.55	12.57	
2025-01-17 11:01:16.02	315.50	12.56	
2025-01-17 11:01:16.23	315.45	12.56	
2025-01-17 11:01:16.43	315.41	12.56	
2025-01-17 11:01:16.63	315.37	12.56	
2025-01-17 11:01:16.84	315.32	12.55	
2025-01-17 11:01:17.04	315.27	12.55	
2025-01-17 11:01:17.24	315.23	12.55	
2025-01-17 11:01:17.44	315.18	12.55	
2025-01-17 11:01:17.65	315.14	12.54	
2025-01-17 11:01:17.85	315.09	12.54	
2025-01-17 11:01:18.05	315.05	12.54	
2025-01-17 11:01:18.26	315.00	12.54	
2025-01-17 11:01:18.46	314.96	12.53	
2025-01-17 11:01:18.66	314.91	12.53	
2025-01-17 11:01:18.87	314.87	12.53	
2025-01-17 11:01:19.07	314.82	12.53	
2025-01-17 11:01:19.27	314.78	12.52	
2025-01-17 11:01:19.47	314.73	12.52	
2025-01-17 11:01:19.68	314.69	12.52	
2025-01-17 11:01:19.88	314.64	12.51	
2025-01-17 11:01:20.08	314.60	12.51	
2025-01-17 11:01:20.29	314.55	12.51	
2025-01-17 11:01:20.49	314.51	12.51	
2025-01-17 11:01:20.69	314.46	12.50	
2025-01-17 11:01:20.90	314.42	12.50	
2025-01-17 11:01:21.10	314.37	12.50	
2025-01-17 11:01:21.30	314.33	12.49	
2025-01-17 11:01:21.50	314.28	12.49	
2025-01-17 11:01:21.71	314.24	12.49	
2025-01-17 11:01:21.91	314.19	12.49	
2025-01-17 11:01:22.11	314.15	12.48	
2025-01-17 11:01:22.32	314.10	12.48	
2025-01-17 11:01:22.52	314.06	12.48	
2025-01-17 11:01:22.72	314.01	12.47	
2025-01-17 11:01:22.92	313.97	12.47	
2025-01-17 11:01:23.13	313.92	12.47	
2025-01-17 11:01:23.33	313.88	12.46	
2025-01-17 11:01:23.53	313.83	12.46	
2025-01-17 11:01:23.74	313.79	12.46	
2025-01-17 11:01:23.94	313.74	12.46	
2025-01-17 11:01:24.14	313.70	12.45	
2025-01-17 11:01:24.35	313.65	12.45	
2025-01-17 11:01:24.55	313.61	12.45	
2025-01-17 11:01:24.75	313.56	12.44	
2025-01-17 11:01:24.95	313.52	12.44	
2025-01-17 11:01:25.16	313.47	12.44	
2025-01-17 11:01:25.36	313.43	12.43	
2025-01-17 11:01:25.56	313.39	12.43	
2025-01-17 11:01:25.77	313.34	12.43	
2025-01-17 11:01:25.97	313.30	12.42	
2025-01-17 11:01:26.17	313.25	12.42	
2025-01-17 11:01:26.38	313.20	12.42	
2025-01-17 11:01:26.58	313.16	12.41	
2025-01-17 11:01:26.78	313.12	12.41	
2025-01-17 11:01:26.98	313.07	12.41	
2025-01-17 11:01:27.19	313.03	12.40	
2025-01-17 11:01:27.39	312.98	12.40	
2025-01-17 11:01:27.59	312.94	12.40	
2025-01-17 11:01:27.80	312.89	12.39	
2025-01-17 11:01:28.00	312.85	12.39	
2025-01-17 11:01:28.20	312.80	12.39	
2025-01-17 11:01:28.41	312.76	12.38	
2025-01-17 11:01:28.61	312.71	12.38	
2025-01-17 11:01:28.81	312.67	12.38	
2025-01-17 11:01:29.01	312.63	12.37	
2025-01-17 11:01:29.22	312.58	12.37	
2025-01-17 11:01:29.42	312.54	12.37	
2025-01-17 11:01:29.62	312.49	12.36	
2025-01-17 11:01:29.83	312.45	12.36	
2025-01-17 11:01:30.03	312.40	12.36	
2025-01-17 11:01:30.23	312.36	12.35	
2025-01-17 11:01:30.43	312.31	12.35	
2025-01-17 11:01:30.64	312.27	12.34	
2025-01-17 11:01:30.84	312.22	12.34	
2025-01-17 11:01:31.04	312.18	12.34	
2025-01-17 11:01:31.25	312.13	12.33	
2025-01-17 11:01:31.45	312.09	12.33	
2025-01-17 11:01:31.65	312.05	12.33	
2025-01-17 11:01:31.86	312.00	12.32	
2025-01-17 11:01:32.06	311.96	12.32	
2025-01-17 11:01:32.26	311.91	12.32	
2025-01-17 11:01:32.46	311.87	12.31	
2025-01-17 11:01:32.67	311.82	12.31	
2025-01-17 11:01:32.87	311.78	12.30	
2025-01-17 11:01:33.07	311.74	12.30	
2025-01-17 11:01:33.28	311.69	12.30	
2025-01-17 11:01:33.48	311.65	12.29	
2025-01-17 11:01:33.68	311.60	12.29	
2025-01-17 11:01:33.89	311.56	12.29	
2025-01-17 11:01:34.09	311.51	12.28	
2025-01-17 11:01:34.29	311.47	12.28	
2025-01-17 11:01:34.49	311.43	12.27	
2025-01-17 11:01:34.70	311.38	12.27	
2025-01-17 11:01:34.90	311.34	12.27	
2025-01-17 11:01:35.10	311.29	12.26	
2025-01-17 11:01:35.31	311.25	12.26	
2025-01-17 11:01:35.51	311.20	12.25	
2025-01-17 11:01:35.71	311.16	12.25	
2025-01-17 11:01:35.92	311.11	12.25	
2025-01-17 11:01:36.12	311.07	12.24	
2025-01-17 11:01:36.32	311.03	12.24	
2025-01-17 11:01:36.52	310.98	12.23	
2025-01-17 11:01:36.73	310.94	12.23	
2025-01-17 11:01:36.93	310.90	12.23	
2025-01-17 11:01:37.13	310.85	12.22	
2025-01-17 11:01:37.34	310.81	12.22	
2025-01-17 11:01:37.54	310.76	12.21	
2025-01-17 11:01:37.74	310.72	12.21	
2025-01-17 11:01:37.94	310.68	12.21	
2025-01-17 11:01:38.15	310.63	12.20	
2025-01-17 11:01:38.35	310.59	12.20	
2025-01-17 11:01:38.55	310.54	12.19	
2025-01-17 11:01:38.76	310.50	12.19	
2025-01-17 11:01:38.96	310.45	12.18	
2025-01-17 11:01:39.16	310.41	12.18	
2025-01-17 11:01:39.37	310.37	12.18	
2025-01-17 11:01:39.57	310.32	12.17	
2025-01-17 11:01:39.77	310.28	12.17	
2025-01-17 11:01:39.97	310.24	12.16	
2025-01-17 11:01:40.18	310.19	12.16	
2025-01-17 11:01:40.38	310.15	12.15	
2025-01-17 11:01:40.58	310.10	12.15	
2025-01-17 11:01:40.79	310.06	12.15	
2025-01-17 11:01:40.99	310.02	12.14	
2025-01-17 11:01:41.19	309.97	12.14	
2025-01-17 11:01:41.40	309.93	12.13	
2025-01-17 11:01:41.60	309.88	12.13	
2025-01-17 11:01:41.80	309.84	12.12	
2025-01-17 11:01:42.00	309.80	12.12	
2025-01-17 11:01:42.21	309.75	12.11	
2025-01-17 11:01:42.41	309.71	12.11	
2025-01-17 11:01:42.61	309.67	12.11	
2025-01-17 11:01:42.82	309.62	12.10	
2025-01-17 11:01:43.02	309.58	12.10	
2025-01-17 11:01:43.22	309.53	12.09	
2025-01-17 11:01:43.43	309.49	12.09	
2025-01-17 11:01:43.63	309.45	12.08	
2025-01-17 11:01:43.83	309.40	12.08	
2025-01-17 11:01:44.03	309.36	12.07	
2025-01-17 11:01:44.24	309.32	12.07	
2025-01-17 11:01:44.44	309.27	12.07	
2025-01-17 11:01:44.64	309.23	12.06	
2025-01-17 11:01:44.85	309.18	12.06	
2025-01-17 11:01:45.05	309.14	12.05	
2025-01-17 11:01:45.25	309.10	12.05	
2025-01-17 11:01:45.45	309.06	12.04	
2025-01-17 11:01:45.66	309.01	12.04	
2025-01-17 11:01:45.86	308.97	12.03	
2025-01-17 11:01:46.06	308.92	12.03	
2025-01-17 11:01:46.27	308.88	12.02	
2025-01-17 11:01:46.47	308.84	12.02	
2025-01-17 11:01:46.67	308.79	12.01	
2025-01-17 11:01:46.88	308.75	12.01	
2025-01-17 11:01:47.08	308.71	12.00	
2025-01-17 11:01:47.28	308.66	12.00	
2025-01-17 11:01:47.48	308.62	11.99	
2025-01-17 11:01:47.69	308.58	11.99	
2025-01-17 11:01:47.89	308.53	11.98	
2025-01-17 11:01:48.09	308.49	11.98	
2025-01-17 11:01:48.30	308.45	11.97	
2025-01-17 11:01:48.50	308.40	11.97	
2025-01-17 11:01:48.70	308.36	11.97	
2025-01-17 11:01:48.91	308.32	11.96	
2025-01-17 11:01:49.11	308.27	11.96	
2025-01-17 11:01:49.31	308.23	11.95	
2025-01-17 11:01:49.51	308.19	11.95	
2025-01-17 11:01:49.72	308.14	11.94	
2025-01-17 11:01:49.92	308.10	11.94	
2025-01-17 11:01:50.12	308.06	11.93	
2025-01-17 11:01:50.33	308.01	11.93	
2025-01-17 11:01:50.53	307.97	11.92	
2025-01-17 11:01:50.73	307.93	11.92	
2025-01-17 11:01:50.94	307.88	11.91	
2025-01-17 11:01:51.14	307.84	11.91	
2025-01-17 11:01:51.34	307.80	11.90	
2025-01-17 11:01:51.54	307.76	11.89	
2025-01-17 11:01:51.75	307.71	11.89	
2025-01-17 11:01:51.95	307.67	11.88	
2025-01-17 11:01:52.15	307.63	11.88	
2025-01-17 11:01:52.36	307.58	11.87	
2025-01-17 11:01:52.56	307.54	11.87	
2025-01-17 11:01:52.76	307.50	11.86	
2025-01-17 11:01:52.96	307.46	11.86	
2025-01-17 11:01:53.17	307.41	11.85	
2025-01-17 11:01:53.37	307.37	11.85	
2025-01-17 11:01:53.57	307.33	11.84	
2025-01-17 11:01:53.78	307.28	11.84	
2025-01-17 11:01:53.98	307.24	11.83	
2025-01-17 11:01:54.18	307.20	11.83	
2025-01-17 11:01:54.39	307.15	11.82	
2025-01-17 11:01:54.59	307.11	11.82	
2025-01-17 11:01:54.79	307.07	11.81	
2025-01-17 11:01:54.99	307.03	11.81	
2025-01-17 11:01:55.20	306.98	11.80	
2025-01-17 11:01:55.40	306.94	11.80	
2025-01-17 11:01:55.60	306.90	11.79	
2025-01-17 11:01:55.81	306.85	11.78	
2025-01-17 11:01:56.01	306.81	11.78	
2025-01-17 11:01:56.21	306.77	11.77	
2025-01-17 11:01:56.42	306.73	11.77	
2025-01-17 11:01:56.62	306.68	11.76	
2025-01-17 11:01:56.82	306.64	11.76	
2025-01-17 11:01:57.02	306.60	11.75	
2025-01-17 11:01:57.23	306.56	11.75	
2025-01-17 11:01:57.43	306.51	11.74	
2025-01-17 11:01:57.63	306.47	11.74	
2025-01-17 11:01:57.84	306.43	11.73	
2025-01-17 11:01:58.04	306.39	11.72	
2025-01-17 11:01:58.24	306.34	11.72	
2025-01-17 11:01:58.45	306.30	11.71	
2025-01-17 11:01:58.65	306.26	11.71	
2025-01-17 11:01:58.85	306.22	11.70	
2025-01-17 11:01:59.05	306.17	11.70	
2025-01-17 11:01:59.26	306.13	11.69	
2025-01-17 11:01:59.46	306.09	11.69	
2025-01-17 11:01:59.66	306.05	11.68	
2025-01-17 11:01:59.87	306.00	11.67	
2025-01-17 11:02:00.07	305.96	11.67	
2025-01-17 11:02:00.27	305.92	11.66	
2025-01-17 11:02:00.47	305.88	11.66	
2025-01-17 11:02:00.68	305.83	11.65	
2025-01-17 11:02:00.88	305.79	11.65	
2025-01-17 11:02:01.08	305.75	11.64	
2025-01-17 11:02:01.29	305.71	11.63	
2025-01-17 11:02:01.49	305.67	11.63	
2025-01-17 11:02:01.69	305.62	11.62	
2025-01-17 11:02:01.90	305.58	11.62	
2025-01-17 11:02:02.10	305.54	11.61	
2025-01-17 11:02:02.30	305.50	11.61	
2025-01-17 11:02:02.50	305.46	11.60	
2025-01-17 11:02:02.71	305.41	11.59	
2025-01-17 11:02:02.91	305.37	11.59	
2025-01-17 11:02:03.11	305.33	11.58	
2025-01-17 11:02:03.32	305.29	11.58	
2025-01-17 11:02:03.52	305.24	11.57	
2025-01-17 11:02:03.72	305.20	11.56	
2025-01-17 11:02:03.93	305.16	11.56	
2025-01-17 11:02:04.13	305.12	11.55	
2025-01-17 11:02:04.33	305.08	11.55	
2025-01-17 11:02:04.53	305.04	11.54	
2025-01-17 11:02:04.74	304.99	11.53	
2025-01-17 11:02:04.94	304.95	11.53	
2025-01-17 11:02:05.14	304.91	11.52	
2025-01-17 11:02:05.35	304.87	11.52	
2025-01-17 11:02:05.55	304.82	11.51	
2025-01-17 11:02:05.75	304.78	11.50	
2025-01-17 11:02:05.96	304.74	11.50	
2025-01-17 11:02:06.16	304.70	11.49	
2025-01-17 11:02:06.36	304.66	11.49	
2025-01-17 11:02:06.56	304.62	11.48	
2025-01-17 11:02:06.77	304.57	11.47	
2025-01-17 11:02:06.97	304.53	11.47	
2025-01-17 11:02:07.17	304.49	11.46	
2025-01-17 11:02:07.38	304.45	11.46	
2025-01-17 11:02:07.58	304.41	11.45	
2025-01-17 11:02:07.78	304.37	11.44	
2025-01-17 11:02:07.98	304.32	11.44	
2025-01-17 11:02:08.19	304.28	11.43	
2025-01-17 11:02:08.39	304.24	11.43	
2025-01-17 11:02:08.59	304.20	11.42	
2025-01-17 11:02:08.80	304.16	11.41	
2025-01-17 11:02:09.00	304.12	11.41	
2025-01-17 11:02:09.20	304.07	11.40	
2025-01-17 11:02:09.41	304.03	11.39	
2025-01-17 11:02:09.61	303.99	11.39	
2025-01-17 11:02:09.81	303.95	11.38	
2025-01-17 11:02:10.01	303.91	11.38	
2025-01-17 11:02:10.22	303.87	11.37	
2025-01-17 11:02:10.42	303.83	11.36	
2025-01-17 11:02:10.62	303.78	11.36	
2025-01-17 11:02:10.83	303.74	11.35	
2025-01-17 11:02:11.03	303.70	11.34	
2025-01-17 11:02:11.23	303.66	11.34	
2025-01-17 11:02:11.44	303.62	11.33	
2025-01-17 11:02:11.64	303.58	11.32	
2025-01-17 11:02:11.84	303.54	11.32	
2025-01-17 11:02:12.04	303.50	11.31	
