passes_logs/2025/01/17/SPB_Silybum_02/SPB_Silybum_02__20250117_093751_AQUA_rec.log

#Pass ID: 20250117_093751_AQUA
#Satellite: AQUA
#Configuration: AQUA
#Start time: 2025-01-17 09:41:34

#Version: 2.0.20230423
#Station: SPB_Silybum_02
#Location: 30.233357 lon 59.946436 lat
#TLE: 1 27424U 02022A   25016.84910416  .00001840  00000+0  38758-3 0  9998
#TLE: 2 27424  98.3592 333.5297 0001787 109.3464 277.9036 14.60690037207895

#Time	Az	El	Level	Level2	SNR	BER	Gain	Gain2
2025-01-17 09:41:36.08	70.57	19.10	
2025-01-17 09:41:36.28	70.52	19.11	
2025-01-17 09:41:36.49	70.46	19.13	
2025-01-17 09:41:36.69	70.41	19.14	
2025-01-17 09:41:36.89	70.36	19.15	
2025-01-17 09:41:37.10	70.30	19.16	
2025-01-17 09:41:37.30	70.25	19.17	
2025-01-17 09:41:37.50	70.20	19.18	
2025-01-17 09:41:37.71	70.14	19.19	
2025-01-17 09:41:37.91	70.09	19.20	
2025-01-17 09:41:38.11	70.04	19.21	
2025-01-17 09:41:38.31	69.99	19.22	
2025-01-17 09:41:38.52	69.93	19.23	
2025-01-17 09:41:38.72	69.88	19.24	
2025-01-17 09:41:38.92	69.82	19.26	
2025-01-17 09:41:39.13	69.77	19.27	
2025-01-17 09:41:39.33	69.72	19.28	
2025-01-17 09:41:39.53	69.66	19.29	
2025-01-17 09:41:39.73	69.61	19.30	
2025-01-17 09:41:39.94	69.55	19.31	
2025-01-17 09:41:40.14	69.50	19.32	
2025-01-17 09:41:40.34	69.45	19.33	
2025-01-17 09:41:40.55	69.39	19.34	
2025-01-17 09:41:40.75	69.34	19.35	
2025-01-17 09:41:40.95	69.29	19.36	
2025-01-17 09:41:41.16	69.23	19.37	
2025-01-17 09:41:41.36	69.18	19.38	
2025-01-17 09:41:41.56	69.12	19.39	
2025-01-17 09:41:41.76	69.07	19.40	
2025-01-17 09:41:41.97	69.01	19.41	
2025-01-17 09:41:42.17	68.96	19.42	
2025-01-17 09:41:42.37	68.91	19.43	
2025-01-17 09:41:42.58	68.85	19.45	
2025-01-17 09:41:42.78	68.80	19.46	
2025-01-17 09:41:42.98	68.74	19.47	
2025-01-17 09:41:43.19	68.69	19.48	
2025-01-17 09:41:43.39	68.63	19.49	
2025-01-17 09:41:43.59	68.58	19.50	
2025-01-17 09:41:43.79	68.53	19.51	
2025-01-17 09:41:44.00	68.47	19.52	
2025-01-17 09:41:44.20	68.42	19.53	
2025-01-17 09:41:44.40	68.36	19.54	
2025-01-17 09:41:44.61	68.31	19.55	
2025-01-17 09:41:44.81	68.25	19.56	
2025-01-17 09:41:45.01	68.20	19.57	
2025-01-17 09:41:45.22	68.14	19.58	
2025-01-17 09:41:45.42	68.09	19.59	
2025-01-17 09:41:45.62	68.03	19.60	
2025-01-17 09:41:45.82	67.98	19.61	
2025-01-17 09:41:46.03	67.92	19.62	
2025-01-17 09:41:46.23	67.87	19.63	
2025-01-17 09:41:46.43	67.81	19.64	
2025-01-17 09:41:46.64	67.76	19.65	
2025-01-17 09:41:46.84	67.70	19.66	
2025-01-17 09:41:47.04	67.65	19.67	
2025-01-17 09:41:47.24	67.59	19.68	
2025-01-17 09:41:47.45	67.54	19.69	
2025-01-17 09:41:47.65	67.48	19.70	
2025-01-17 09:41:47.85	67.43	19.71	
2025-01-17 09:41:48.06	67.37	19.72	
2025-01-17 09:41:48.26	67.32	19.73	
2025-01-17 09:41:48.46	67.26	19.74	
2025-01-17 09:41:48.67	67.20	19.75	
2025-01-17 09:41:48.87	67.15	19.76	
2025-01-17 09:41:49.07	67.10	19.77	
2025-01-17 09:41:49.27	67.04	19.77	
2025-01-17 09:41:49.48	66.98	19.78	
2025-01-17 09:41:49.68	66.93	19.79	
2025-01-17 09:41:49.88	66.87	19.80	
2025-01-17 09:41:50.09	66.82	19.81	
2025-01-17 09:41:50.29	66.76	19.82	
2025-01-17 09:41:50.49	66.71	19.83	
2025-01-17 09:41:50.70	66.65	19.84	
2025-01-17 09:41:50.90	66.59	19.85	
2025-01-17 09:41:51.10	66.54	19.86	
2025-01-17 09:41:51.30	66.48	19.87	
2025-01-17 09:41:51.51	66.43	19.88	
2025-01-17 09:41:51.71	66.37	19.89	
2025-01-17 09:41:51.91	66.32	19.90	
2025-01-17 09:41:52.12	66.26	19.91	
2025-01-17 09:41:52.32	66.20	19.92	
2025-01-17 09:41:52.52	66.15	19.93	
2025-01-17 09:41:52.73	66.09	19.94	
2025-01-17 09:41:52.93	66.03	19.94	
2025-01-17 09:41:53.13	65.98	19.95	
2025-01-17 09:41:53.33	65.92	19.96	
2025-01-17 09:41:53.54	65.86	19.97	
2025-01-17 09:41:53.74	65.81	19.98	
2025-01-17 09:41:53.94	65.75	19.99	
2025-01-17 09:41:54.15	65.69	20.00	
2025-01-17 09:41:54.35	65.64	20.01	
2025-01-17 09:41:54.55	65.58	20.02	
2025-01-17 09:41:54.75	65.53	20.03	
2025-01-17 09:41:54.96	65.47	20.04	
2025-01-17 09:41:55.16	65.41	20.04	
2025-01-17 09:41:55.36	65.36	20.05	
2025-01-17 09:41:55.57	65.30	20.06	
2025-01-17 09:41:55.77	65.24	20.07	
2025-01-17 09:41:55.97	65.19	20.08	
2025-01-17 09:41:56.18	65.13	20.09	
2025-01-17 09:41:56.38	65.07	20.10	
2025-01-17 09:41:56.58	65.02	20.11	
2025-01-17 09:41:56.78	64.96	20.11	
2025-01-17 09:41:56.99	64.90	20.12	
2025-01-17 09:41:57.19	64.85	20.13	
2025-01-17 09:41:57.39	64.79	20.14	
2025-01-17 09:41:57.60	64.73	20.15	
2025-01-17 09:41:57.80	64.67	20.16	
2025-01-17 09:41:58.00	64.62	20.17	
2025-01-17 09:41:58.21	64.56	20.18	
2025-01-17 09:41:58.41	64.50	20.18	
2025-01-17 09:41:58.61	64.45	20.19	
2025-01-17 09:41:58.81	64.39	20.20	
2025-01-17 09:41:59.02	64.33	20.21	
2025-01-17 09:41:59.22	64.27	20.22	
2025-01-17 09:41:59.42	64.22	20.23	
2025-01-17 09:41:59.63	64.16	20.24	
2025-01-17 09:41:59.83	64.10	20.24	
2025-01-17 09:42:00.03	64.05	20.25	
2025-01-17 09:42:00.23	63.99	20.26	
2025-01-17 09:42:00.44	63.93	20.27	
2025-01-17 09:42:00.64	63.87	20.28	
2025-01-17 09:42:00.84	63.82	20.28	
2025-01-17 09:42:01.05	63.76	20.29	
2025-01-17 09:42:01.25	63.70	20.30	
2025-01-17 09:42:01.45	63.64	20.31	
2025-01-17 09:42:01.66	63.58	20.32	
2025-01-17 09:42:01.86	63.53	20.33	
2025-01-17 09:42:02.06	63.47	20.33	
2025-01-17 09:42:02.26	63.41	20.34	
2025-01-17 09:42:02.47	63.35	20.35	
2025-01-17 09:42:02.67	63.30	20.36	
2025-01-17 09:42:02.87	63.24	20.37	
2025-01-17 09:42:03.08	63.18	20.37	
2025-01-17 09:42:03.28	63.12	20.38	
2025-01-17 09:42:03.48	63.07	20.39	
2025-01-17 09:42:03.69	63.01	20.40	
2025-01-17 09:42:03.89	62.95	20.41	
2025-01-17 09:42:04.09	62.89	20.41	
2025-01-17 09:42:04.29	62.83	20.42	
2025-01-17 09:42:04.50	62.77	20.43	
2025-01-17 09:42:04.70	62.72	20.44	
2025-01-17 09:42:04.90	62.66	20.44	
2025-01-17 09:42:05.11	62.60	20.45	
2025-01-17 09:42:05.31	62.54	20.46	
2025-01-17 09:42:05.51	62.48	20.47	
2025-01-17 09:42:05.72	62.42	20.47	
2025-01-17 09:42:05.92	62.37	20.48	
2025-01-17 09:42:06.12	62.31	20.49	
2025-01-17 09:42:06.32	62.25	20.50	
2025-01-17 09:42:06.53	62.19	20.50	
2025-01-17 09:42:06.73	62.13	20.51	
2025-01-17 09:42:06.93	62.08	20.52	
2025-01-17 09:42:07.14	62.02	20.53	
2025-01-17 09:42:07.34	61.96	20.53	
2025-01-17 09:42:07.54	61.90	20.54	
2025-01-17 09:42:07.74	61.84	20.55	
2025-01-17 09:42:07.95	61.78	20.56	
2025-01-17 09:42:08.15	61.72	20.56	
2025-01-17 09:42:08.35	61.67	20.57	
2025-01-17 09:42:08.56	61.61	20.58	
2025-01-17 09:42:08.76	61.55	20.59	
2025-01-17 09:42:08.96	61.49	20.59	
2025-01-17 09:42:09.17	61.43	20.60	
2025-01-17 09:42:09.37	61.37	20.61	
2025-01-17 09:42:09.57	61.31	20.61	
2025-01-17 09:42:09.77	61.26	20.62	
2025-01-17 09:42:09.98	61.19	20.63	
2025-01-17 09:42:10.18	61.14	20.63	
2025-01-17 09:42:10.38	61.08	20.64	
2025-01-17 09:42:10.59	61.02	20.65	
2025-01-17 09:42:10.79	60.96	20.66	
2025-01-17 09:42:10.99	60.90	20.66	
2025-01-17 09:42:11.20	60.84	20.67	
2025-01-17 09:42:11.40	60.78	20.68	
2025-01-17 09:42:11.60	60.72	20.68	
2025-01-17 09:42:11.80	60.66	20.69	
2025-01-17 09:42:12.01	60.60	20.70	
2025-01-17 09:42:12.21	60.55	20.70	
2025-01-17 09:42:12.41	60.49	20.71	
2025-01-17 09:42:12.62	60.43	20.72	
2025-01-17 09:42:12.82	60.37	20.72	
2025-01-17 09:42:13.02	60.31	20.73	
2025-01-17 09:42:13.23	60.25	20.74	
2025-01-17 09:42:13.43	60.19	20.74	
2025-01-17 09:42:13.63	60.13	20.75	
2025-01-17 09:42:13.83	60.07	20.76	
2025-01-17 09:42:14.04	60.01	20.76	
2025-01-17 09:42:14.24	59.95	20.77	
2025-01-17 09:42:14.44	59.89	20.77	
2025-01-17 09:42:14.65	59.83	20.78	
2025-01-17 09:42:14.85	59.77	20.79	
2025-01-17 09:42:15.05	59.71	20.79	
2025-01-17 09:42:15.25	59.66	20.80	
2025-01-17 09:42:15.46	59.59	20.81	
2025-01-17 09:42:15.66	59.54	20.81	
2025-01-17 09:42:15.86	59.48	20.82	
2025-01-17 09:42:16.07	59.41	20.82	
2025-01-17 09:42:16.27	59.36	20.83	
2025-01-17 09:42:16.47	59.30	20.84	
2025-01-17 09:42:16.68	59.24	20.84	
2025-01-17 09:42:16.88	59.18	20.85	
2025-01-17 09:42:17.08	59.12	20.85	
2025-01-17 09:42:17.28	59.06	20.86	
2025-01-17 09:42:17.49	59.00	20.87	
2025-01-17 09:42:17.69	58.94	20.87	
2025-01-17 09:42:17.89	58.88	20.88	
2025-01-17 09:42:18.10	58.82	20.88	
2025-01-17 09:42:18.30	58.76	20.89	
2025-01-17 09:42:18.50	58.70	20.90	
2025-01-17 09:42:18.71	58.64	20.90	
2025-01-17 09:42:18.91	58.58	20.91	
2025-01-17 09:42:19.11	58.52	20.91	
2025-01-17 09:42:19.31	58.46	20.92	
2025-01-17 09:42:19.52	58.40	20.92	
2025-01-17 09:42:19.72	58.34	20.93	
2025-01-17 09:42:19.92	58.28	20.93	
2025-01-17 09:42:20.13	58.22	20.94	
2025-01-17 09:42:20.33	58.16	20.95	
2025-01-17 09:42:20.53	58.10	20.95	
2025-01-17 09:42:20.74	58.03	20.96	
2025-01-17 09:42:20.94	57.98	20.96	
2025-01-17 09:42:21.14	57.92	20.97	
2025-01-17 09:42:21.34	57.86	20.97	
2025-01-17 09:42:21.55	57.79	20.98	
2025-01-17 09:42:21.75	57.73	20.98	
2025-01-17 09:42:21.95	57.68	20.99	
2025-01-17 09:42:22.16	57.61	20.99	
2025-01-17 09:42:22.36	57.55	21.00	
2025-01-17 09:42:22.56	57.49	21.00	
2025-01-17 09:42:22.76	57.43	21.01	
2025-01-17 09:42:22.97	57.37	21.01	
2025-01-17 09:42:23.17	57.31	21.02	
2025-01-17 09:42:23.37	57.25	21.02	
2025-01-17 09:42:23.58	57.19	21.03	
2025-01-17 09:42:23.78	57.13	21.03	
2025-01-17 09:42:23.98	57.07	21.04	
2025-01-17 09:42:24.19	57.01	21.04	
2025-01-17 09:42:24.39	56.95	21.05	
2025-01-17 09:42:24.59	56.89	21.05	
2025-01-17 09:42:24.79	56.83	21.06	
2025-01-17 09:42:25.00	56.77	21.06	
2025-01-17 09:42:25.20	56.71	21.07	
2025-01-17 09:42:25.40	56.65	21.07	
2025-01-17 09:42:25.61	56.58	21.08	
2025-01-17 09:42:25.81	56.52	21.08	
2025-01-17 09:42:26.01	56.46	21.09	
2025-01-17 09:42:26.22	56.40	21.09	
2025-01-17 09:42:26.42	56.34	21.10	
2025-01-17 09:42:26.62	56.28	21.10	
2025-01-17 09:42:26.82	56.22	21.11	
2025-01-17 09:42:27.03	56.16	21.11	
2025-01-17 09:42:27.23	56.10	21.11	
2025-01-17 09:42:27.43	56.04	21.12	
2025-01-17 09:42:27.64	55.98	21.12	
2025-01-17 09:42:27.84	55.92	21.13	
2025-01-17 09:42:28.04	55.86	21.13	
2025-01-17 09:42:28.25	55.79	21.14	
2025-01-17 09:42:28.45	55.73	21.14	
2025-01-17 09:42:28.65	55.67	21.14	
2025-01-17 09:42:28.85	55.61	21.15	
2025-01-17 09:42:29.06	55.55	21.15	
2025-01-17 09:42:29.26	55.49	21.16	
2025-01-17 09:42:29.46	55.43	21.16	
2025-01-17 09:42:29.67	55.37	21.17	
2025-01-17 09:42:29.87	55.31	21.17	
2025-01-17 09:42:30.07	55.24	21.17	
2025-01-17 09:42:30.27	55.18	21.18	
2025-01-17 09:42:30.48	55.12	21.18	
2025-01-17 09:42:30.68	55.06	21.18	
2025-01-17 09:42:30.88	55.00	21.19	
2025-01-17 09:42:31.09	54.94	21.19	
2025-01-17 09:42:31.29	54.88	21.20	
2025-01-17 09:42:31.49	54.82	21.20	
2025-01-17 09:42:31.70	54.75	21.20	
2025-01-17 09:42:31.90	54.69	21.21	
2025-01-17 09:42:32.10	54.63	21.21	
2025-01-17 09:42:32.30	54.57	21.21	
2025-01-17 09:42:32.51	54.51	21.22	
2025-01-17 09:42:32.71	54.45	21.22	
2025-01-17 09:42:32.91	54.39	21.23	
2025-01-17 09:42:33.12	54.32	21.23	
2025-01-17 09:42:33.32	54.26	21.23	
2025-01-17 09:42:33.52	54.20	21.24	
2025-01-17 09:42:33.73	54.14	21.24	
2025-01-17 09:42:33.93	54.08	21.24	
2025-01-17 09:42:34.13	54.02	21.25	
2025-01-17 09:42:34.33	53.96	21.25	
2025-01-17 09:42:34.54	53.90	21.25	
2025-01-17 09:42:34.74	53.83	21.26	
2025-01-17 09:42:34.94	53.77	21.26	
2025-01-17 09:42:35.15	53.71	21.26	
2025-01-17 09:42:35.35	53.65	21.26	
2025-01-17 09:42:35.55	53.59	21.27	
2025-01-17 09:42:35.76	53.53	21.27	
2025-01-17 09:42:35.96	53.47	21.27	
2025-01-17 09:42:36.16	53.40	21.28	
2025-01-17 09:42:36.36	53.34	21.28	
2025-01-17 09:42:36.57	53.28	21.28	
2025-01-17 09:42:36.77	53.22	21.29	
2025-01-17 09:42:36.97	53.16	21.29	
2025-01-17 09:42:37.18	53.09	21.29	
2025-01-17 09:42:37.38	53.03	21.29	
2025-01-17 09:42:37.58	52.97	21.30	
2025-01-17 09:42:37.78	52.91	21.30	
2025-01-17 09:42:37.99	52.85	21.30	
2025-01-17 09:42:38.19	52.79	21.31	
2025-01-17 09:42:38.39	52.73	21.31	
2025-01-17 09:42:38.60	52.66	21.31	
2025-01-17 09:42:38.80	52.60	21.31	
2025-01-17 09:42:39.00	52.54	21.32	
2025-01-17 09:42:39.21	52.48	21.32	
2025-01-17 09:42:39.41	52.42	21.32	
2025-01-17 09:42:39.61	52.36	21.32	
2025-01-17 09:42:39.81	52.30	21.33	
2025-01-17 09:42:40.02	52.23	21.33	
2025-01-17 09:42:40.22	52.17	21.33	
2025-01-17 09:42:40.42	52.11	21.33	
2025-01-17 09:42:40.63	52.05	21.33	
2025-01-17 09:42:40.83	51.99	21.34	
2025-01-17 09:42:41.03	51.92	21.34	
2025-01-17 09:42:41.24	51.86	21.34	
2025-01-17 09:42:41.44	51.80	21.34	
2025-01-17 09:42:41.64	51.74	21.35	
2025-01-17 09:42:41.84	51.68	21.35	
2025-01-17 09:42:42.05	51.61	21.35	
2025-01-17 09:42:42.25	51.55	21.35	
2025-01-17 09:42:42.45	51.49	21.35	
2025-01-17 09:42:42.66	51.43	21.36	
2025-01-17 09:42:42.86	51.37	21.36	
2025-01-17 09:42:43.06	51.31	21.36	
2025-01-17 09:42:43.27	51.24	21.36	
2025-01-17 09:42:43.47	51.18	21.36	
2025-01-17 09:42:43.67	51.12	21.36	
2025-01-17 09:42:43.87	51.06	21.37	
2025-01-17 09:42:44.08	50.99	21.37	
2025-01-17 09:42:44.28	50.93	21.37	
2025-01-17 09:42:44.48	50.87	21.37	
2025-01-17 09:42:44.69	50.81	21.37	
2025-01-17 09:42:44.89	50.75	21.37	
2025-01-17 09:42:45.09	50.69	21.38	
2025-01-17 09:42:45.29	50.63	21.38	
2025-01-17 09:42:45.50	50.56	21.38	
2025-01-17 09:42:45.70	50.50	21.38	
2025-01-17 09:42:45.90	50.44	21.38	
2025-01-17 09:42:46.11	50.38	21.38	
2025-01-17 09:42:46.31	50.31	21.38	
2025-01-17 09:42:46.51	50.25	21.39	
2025-01-17 09:42:46.72	50.19	21.39	
2025-01-17 09:42:46.92	50.13	21.39	
2025-01-17 09:42:47.12	50.07	21.39	
2025-01-17 09:42:47.32	50.01	21.39	
2025-01-17 09:42:47.53	49.94	21.39	
2025-01-17 09:42:47.73	49.88	21.39	
2025-01-17 09:42:47.93	49.82	21.39	
2025-01-17 09:42:48.14	49.76	21.39	
2025-01-17 09:42:48.34	49.69	21.39	
2025-01-17 09:42:48.54	49.63	21.40	
2025-01-17 09:42:48.75	49.57	21.40	
2025-01-17 09:42:48.95	49.51	21.40	
2025-01-17 09:42:49.15	49.45	21.40	
2025-01-17 09:42:49.35	49.39	21.40	
2025-01-17 09:42:49.56	49.32	21.40	
2025-01-17 09:42:49.76	49.26	21.40	
2025-01-17 09:42:49.96	49.20	21.40	
2025-01-17 09:42:50.17	49.13	21.40	
2025-01-17 09:42:50.37	49.07	21.40	
2025-01-17 09:42:50.57	49.01	21.40	
2025-01-17 09:42:50.78	48.95	21.40	
2025-01-17 09:42:50.98	48.89	21.40	
2025-01-17 09:42:51.18	48.83	21.40	
2025-01-17 09:42:51.38	48.76	21.41	
2025-01-17 09:42:51.59	48.70	21.41	
2025-01-17 09:42:51.79	48.64	21.41	
2025-01-17 09:42:51.99	48.58	21.41	
2025-01-17 09:42:52.20	48.51	21.41	
2025-01-17 09:42:52.40	48.45	21.41	
2025-01-17 09:42:52.60	48.39	21.41	
2025-01-17 09:42:52.80	48.33	21.41	
2025-01-17 09:42:53.01	48.27	21.41	
2025-01-17 09:42:53.21	48.21	21.41	
2025-01-17 09:42:53.41	48.14	21.41	
2025-01-17 09:42:53.62	48.08	21.41	
2025-01-17 09:42:53.82	48.02	21.41	
2025-01-17 09:42:54.02	47.96	21.41	
2025-01-17 09:42:54.23	47.89	21.41	
2025-01-17 09:42:54.43	47.83	21.41	
2025-01-17 09:42:54.63	47.77	21.41	
2025-01-17 09:42:54.83	47.71	21.41	
2025-01-17 09:42:55.04	47.65	21.41	
2025-01-17 09:42:55.24	47.58	21.41	
2025-01-17 09:42:55.44	47.52	21.41	
2025-01-17 09:42:55.65	47.46	21.41	
2025-01-17 09:42:55.85	47.40	21.41	
2025-01-17 09:42:56.05	47.34	21.41	
2025-01-17 09:42:56.26	47.27	21.41	
2025-01-17 09:42:56.46	47.21	21.41	
2025-01-17 09:42:56.66	47.15	21.40	
2025-01-17 09:42:56.86	47.09	21.40	
2025-01-17 09:42:57.07	47.02	21.40	
2025-01-17 09:42:57.27	46.96	21.40	
2025-01-17 09:42:57.47	46.90	21.40	
2025-01-17 09:42:57.68	46.84	21.40	
2025-01-17 09:42:57.88	46.78	21.40	
2025-01-17 09:42:58.08	46.72	21.40	
2025-01-17 09:42:58.28	46.65	21.40	
2025-01-17 09:42:58.49	46.59	21.40	
2025-01-17 09:42:58.69	46.53	21.40	
2025-01-17 09:42:58.89	46.47	21.40	
2025-01-17 09:42:59.10	46.40	21.40	
2025-01-17 09:42:59.30	46.34	21.40	
2025-01-17 09:42:59.50	46.28	21.40	
2025-01-17 09:42:59.71	46.22	21.39	
2025-01-17 09:42:59.91	46.16	21.39	
2025-01-17 09:43:00.11	46.10	21.39	
2025-01-17 09:43:00.31	46.03	21.39	
2025-01-17 09:43:00.52	45.97	21.39	
2025-01-17 09:43:00.72	45.91	21.39	
2025-01-17 09:43:00.92	45.85	21.39	
2025-01-17 09:43:01.13	45.78	21.39	
2025-01-17 09:43:01.33	45.72	21.39	
2025-01-17 09:43:01.53	45.66	21.38	
2025-01-17 09:43:01.74	45.60	21.38	
2025-01-17 09:43:01.94	45.54	21.38	
2025-01-17 09:43:02.14	45.48	21.38	
2025-01-17 09:43:02.34	45.41	21.38	
2025-01-17 09:43:02.55	45.35	21.38	
2025-01-17 09:43:02.75	45.29	21.38	
2025-01-17 09:43:02.95	45.23	21.37	
2025-01-17 09:43:03.16	45.16	21.37	
2025-01-17 09:43:03.36	45.10	21.37	
2025-01-17 09:43:03.56	45.04	21.37	
2025-01-17 09:43:03.77	44.98	21.37	
2025-01-17 09:43:03.97	44.92	21.37	
2025-01-17 09:43:04.17	44.86	21.36	
2025-01-17 09:43:04.37	44.80	21.36	
2025-01-17 09:43:04.58	44.73	21.36	
2025-01-17 09:43:04.78	44.67	21.36	
2025-01-17 09:43:04.98	44.61	21.36	
2025-01-17 09:43:05.19	44.55	21.36	
2025-01-17 09:43:05.39	44.48	21.35	
2025-01-17 09:43:05.59	44.42	21.35	
2025-01-17 09:43:05.79	44.36	21.35	
2025-01-17 09:43:06.00	44.30	21.35	
2025-01-17 09:43:06.20	44.24	21.35	
2025-01-17 09:43:06.40	44.18	21.34	
2025-01-17 09:43:06.61	44.11	21.34	
2025-01-17 09:43:06.81	44.05	21.34	
2025-01-17 09:43:07.01	43.99	21.34	
2025-01-17 09:43:07.22	43.93	21.34	
2025-01-17 09:43:07.42	43.87	21.33	
2025-01-17 09:43:07.62	43.81	21.33	
2025-01-17 09:43:07.82	43.75	21.33	
2025-01-17 09:43:08.03	43.68	21.33	
2025-01-17 09:43:08.23	43.62	21.32	
2025-01-17 09:43:08.43	43.56	21.32	
2025-01-17 09:43:08.64	43.50	21.32	
2025-01-17 09:43:08.84	43.44	21.32	
2025-01-17 09:43:09.04	43.37	21.31	
2025-01-17 09:43:09.25	43.31	21.31	
2025-01-17 09:43:09.45	43.25	21.31	
2025-01-17 09:43:09.65	43.19	21.31	
2025-01-17 09:43:09.85	43.13	21.30	
2025-01-17 09:43:10.06	43.06	21.30	
2025-01-17 09:43:10.26	43.00	21.30	
2025-01-17 09:43:10.46	42.94	21.30	
2025-01-17 09:43:10.67	42.88	21.29	
2025-01-17 09:43:10.87	42.82	21.29	
2025-01-17 09:43:11.07	42.76	21.29	
2025-01-17 09:43:11.28	42.69	21.28	
2025-01-17 09:43:11.48	42.63	21.28	
2025-01-17 09:43:11.68	42.57	21.28	
2025-01-17 09:43:11.88	42.51	21.28	
2025-01-17 09:43:12.09	42.45	21.27	
2025-01-17 09:43:12.29	42.39	21.27	
2025-01-17 09:43:12.49	42.33	21.27	
2025-01-17 09:43:12.70	42.26	21.26	
2025-01-17 09:43:12.90	42.20	21.26	
2025-01-17 09:43:13.10	42.14	21.26	
2025-01-17 09:43:13.30	42.08	21.25	
2025-01-17 09:43:13.51	42.02	21.25	
2025-01-17 09:43:13.71	41.96	21.25	
2025-01-17 09:43:13.91	41.90	21.24	
2025-01-17 09:43:14.12	41.84	21.24	
2025-01-17 09:43:14.32	41.77	21.24	
2025-01-17 09:43:14.52	41.71	21.23	
2025-01-17 09:43:14.73	41.65	21.23	
2025-01-17 09:43:14.93	41.59	21.23	
2025-01-17 09:43:15.13	41.53	21.22	
2025-01-17 09:43:15.33	41.47	21.22	
2025-01-17 09:43:15.54	41.41	21.22	
2025-01-17 09:43:15.74	41.35	21.21	
2025-01-17 09:43:15.94	41.29	21.21	
2025-01-17 09:43:16.15	41.22	21.20	
2025-01-17 09:43:16.35	41.16	21.20	
2025-01-17 09:43:16.55	41.10	21.20	
2025-01-17 09:43:16.76	41.04	21.19	
2025-01-17 09:43:16.96	40.98	21.19	
2025-01-17 09:43:17.16	40.92	21.19	
2025-01-17 09:43:17.36	40.86	21.18	
2025-01-17 09:43:17.57	40.79	21.18	
2025-01-17 09:43:17.77	40.73	21.17	
2025-01-17 09:43:17.97	40.67	21.17	
2025-01-17 09:43:18.18	40.61	21.17	
2025-01-17 09:43:18.38	40.55	21.16	
2025-01-17 09:43:18.58	40.49	21.16	
2025-01-17 09:43:18.79	40.43	21.15	
2025-01-17 09:43:18.99	40.37	21.15	
2025-01-17 09:43:19.19	40.31	21.15	
2025-01-17 09:43:19.39	40.25	21.14	
2025-01-17 09:43:19.60	40.18	21.14	
2025-01-17 09:43:19.80	40.12	21.13	
2025-01-17 09:43:20.00	40.06	21.13	
2025-01-17 09:43:20.21	40.00	21.12	
2025-01-17 09:43:20.41	39.94	21.12	
2025-01-17 09:43:20.61	39.88	21.12	
2025-01-17 09:43:20.81	39.82	21.11	
2025-01-17 09:43:21.02	39.76	21.11	
2025-01-17 09:43:21.22	39.70	21.10	
2025-01-17 09:43:21.42	39.64	21.10	
2025-01-17 09:43:21.63	39.58	21.09	
2025-01-17 09:43:21.83	39.52	21.09	
2025-01-17 09:43:22.03	39.46	21.08	
2025-01-17 09:43:22.24	39.39	21.08	
2025-01-17 09:43:22.44	39.33	21.08	
2025-01-17 09:43:22.64	39.27	21.07	
2025-01-17 09:43:22.84	39.21	21.07	
2025-01-17 09:43:23.05	39.15	21.06	
2025-01-17 09:43:23.25	39.09	21.06	
2025-01-17 09:43:23.45	39.03	21.05	
2025-01-17 09:43:23.66	38.97	21.05	
2025-01-17 09:43:23.86	38.91	21.04	
2025-01-17 09:43:24.06	38.85	21.04	
2025-01-17 09:43:24.27	38.79	21.03	
2025-01-17 09:43:24.47	38.73	21.03	
2025-01-17 09:43:24.67	38.67	21.02	
2025-01-17 09:43:24.87	38.61	21.02	
2025-01-17 09:43:25.08	38.55	21.01	
2025-01-17 09:43:25.28	38.49	21.01	
2025-01-17 09:43:25.48	38.43	21.00	
2025-01-17 09:43:25.69	38.37	21.00	
2025-01-17 09:43:25.89	38.31	20.99	
2025-01-17 09:43:26.09	38.25	20.99	
2025-01-17 09:43:26.30	38.18	20.98	
2025-01-17 09:43:26.50	38.13	20.98	
2025-01-17 09:43:26.70	38.07	20.97	
2025-01-17 09:43:26.90	38.01	20.96	
2025-01-17 09:43:27.11	37.94	20.96	
2025-01-17 09:43:27.31	37.89	20.95	
2025-01-17 09:43:27.51	37.83	20.95	
2025-01-17 09:43:27.72	37.76	20.94	
2025-01-17 09:43:27.92	37.70	20.94	
2025-01-17 09:43:28.12	37.65	20.93	
2025-01-17 09:43:28.32	37.59	20.93	
2025-01-17 09:43:28.53	37.52	20.92	
2025-01-17 09:43:28.73	37.47	20.91	
2025-01-17 09:43:28.93	37.41	20.91	
2025-01-17 09:43:29.14	37.34	20.90	
2025-01-17 09:43:29.34	37.29	20.90	
2025-01-17 09:43:29.54	37.23	20.89	
2025-01-17 09:43:29.75	37.16	20.89	
2025-01-17 09:43:29.95	37.11	20.88	
2025-01-17 09:43:30.15	37.05	20.87	
2025-01-17 09:43:30.35	36.99	20.87	
2025-01-17 09:43:30.56	36.93	20.86	
2025-01-17 09:43:30.76	36.87	20.86	
2025-01-17 09:43:30.96	36.81	20.85	
2025-01-17 09:43:31.17	36.75	20.84	
2025-01-17 09:43:31.37	36.69	20.84	
2025-01-17 09:43:31.57	36.63	20.83	
2025-01-17 09:43:31.78	36.57	20.83	
2025-01-17 09:43:31.98	36.51	20.82	
2025-01-17 09:43:32.18	36.45	20.81	
2025-01-17 09:43:32.38	36.39	20.81	
2025-01-17 09:43:32.59	36.33	20.80	
2025-01-17 09:43:32.79	36.27	20.80	
2025-01-17 09:43:32.99	36.21	20.79	
2025-01-17 09:43:33.20	36.15	20.78	
2025-01-17 09:43:33.40	36.09	20.78	
2025-01-17 09:43:33.60	36.03	20.77	
2025-01-17 09:43:33.81	35.97	20.76	
2025-01-17 09:43:34.01	35.91	20.76	
2025-01-17 09:43:34.21	35.86	20.75	
2025-01-17 09:43:34.41	35.80	20.75	
2025-01-17 09:43:34.62	35.74	20.74	
2025-01-17 09:43:34.82	35.68	20.73	
2025-01-17 09:43:35.02	35.62	20.73	
2025-01-17 09:43:35.23	35.56	20.72	
2025-01-17 09:43:35.43	35.50	20.71	
2025-01-17 09:43:35.63	35.44	20.71	
2025-01-17 09:43:35.83	35.38	20.70	
2025-01-17 09:43:36.04	35.32	20.69	
2025-01-17 09:43:36.24	35.26	20.69	
2025-01-17 09:43:36.44	35.21	20.68	
2025-01-17 09:43:36.65	35.14	20.67	
2025-01-17 09:43:36.85	35.09	20.67	
2025-01-17 09:43:37.05	35.03	20.66	
2025-01-17 09:43:37.26	34.97	20.65	
2025-01-17 09:43:37.46	34.91	20.64	
2025-01-17 09:43:37.66	34.85	20.64	
2025-01-17 09:43:37.86	34.79	20.63	
2025-01-17 09:43:38.07	34.73	20.62	
2025-01-17 09:43:38.27	34.67	20.62	
2025-01-17 09:43:38.47	34.62	20.61	
2025-01-17 09:43:38.68	34.56	20.60	
2025-01-17 09:43:38.88	34.50	20.60	
2025-01-17 09:43:39.08	34.44	20.59	
2025-01-17 09:43:39.29	34.38	20.58	
2025-01-17 09:43:39.49	34.32	20.57	
2025-01-17 09:43:39.69	34.26	20.57	
2025-01-17 09:43:39.89	34.21	20.56	
2025-01-17 09:43:40.10	34.15	20.55	
2025-01-17 09:43:40.30	34.09	20.54	
2025-01-17 09:43:40.50	34.03	20.54	
2025-01-17 09:43:40.71	33.97	20.53	
2025-01-17 09:43:40.91	33.91	20.52	
2025-01-17 09:43:41.11	33.86	20.52	
2025-01-17 09:43:41.32	33.80	20.51	
2025-01-17 09:43:41.52	33.74	20.50	
2025-01-17 09:43:41.72	33.68	20.49	
2025-01-17 09:43:41.92	33.62	20.49	
2025-01-17 09:43:42.13	33.56	20.48	
2025-01-17 09:43:42.33	33.51	20.47	
2025-01-17 09:43:42.53	33.45	20.46	
2025-01-17 09:43:42.74	33.39	20.46	
2025-01-17 09:43:42.94	33.33	20.45	
2025-01-17 09:43:43.14	33.27	20.44	
2025-01-17 09:43:43.34	33.22	20.43	
2025-01-17 09:43:43.55	33.16	20.42	
2025-01-17 09:43:43.75	33.10	20.42	
2025-01-17 09:43:43.95	33.04	20.41	
2025-01-17 09:43:44.16	32.98	20.40	
2025-01-17 09:43:44.36	32.93	20.39	
2025-01-17 09:43:44.56	32.87	20.39	
2025-01-17 09:43:44.77	32.81	20.38	
2025-01-17 09:43:44.97	32.75	20.37	
2025-01-17 09:43:45.17	32.69	20.36	
2025-01-17 09:43:45.37	32.64	20.35	
2025-01-17 09:43:45.58	32.58	20.35	
2025-01-17 09:43:45.78	32.52	20.34	
2025-01-17 09:43:45.98	32.46	20.33	
2025-01-17 09:43:46.19	32.41	20.32	
2025-01-17 09:43:46.39	32.35	20.31	
2025-01-17 09:43:46.59	32.29	20.31	
2025-01-17 09:43:46.80	32.23	20.30	
2025-01-17 09:43:47.00	32.18	20.29	
2025-01-17 09:43:47.20	32.12	20.28	
2025-01-17 09:43:47.40	32.06	20.27	
2025-01-17 09:43:47.61	32.00	20.26	
2025-01-17 09:43:47.81	31.95	20.26	
2025-01-17 09:43:48.01	31.89	20.25	
2025-01-17 09:43:48.22	31.83	20.24	
2025-01-17 09:43:48.42	31.77	20.23	
2025-01-17 09:43:48.62	31.72	20.22	
2025-01-17 09:43:48.83	31.66	20.21	
2025-01-17 09:43:49.03	31.60	20.21	
2025-01-17 09:43:49.23	31.55	20.20	
2025-01-17 09:43:49.43	31.49	20.19	
2025-01-17 09:43:49.64	31.43	20.18	
2025-01-17 09:43:49.84	31.38	20.17	
2025-01-17 09:43:50.04	31.32	20.16	
2025-01-17 09:43:50.25	31.26	20.15	
2025-01-17 09:43:50.45	31.20	20.15	
2025-01-17 09:43:50.65	31.15	20.14	
2025-01-17 09:43:50.85	31.09	20.13	
2025-01-17 09:43:51.06	31.03	20.12	
2025-01-17 09:43:51.26	30.98	20.11	
2025-01-17 09:43:51.46	30.92	20.10	
2025-01-17 09:43:51.67	30.86	20.09	
2025-01-17 09:43:51.87	30.81	20.08	
2025-01-17 09:43:52.07	30.75	20.08	
2025-01-17 09:43:52.28	30.69	20.07	
2025-01-17 09:43:52.48	30.64	20.06	
2025-01-17 09:43:52.68	30.58	20.05	
2025-01-17 09:43:52.88	30.53	20.04	
2025-01-17 09:43:53.09	30.47	20.03	
2025-01-17 09:43:53.29	30.41	20.02	
2025-01-17 09:43:53.49	30.36	20.01	
2025-01-17 09:43:53.70	30.30	20.00	
2025-01-17 09:43:53.90	30.24	20.00	
2025-01-17 09:43:54.10	30.19	19.99	
2025-01-17 09:43:54.31	30.13	19.98	
2025-01-17 09:43:54.51	30.07	19.97	
2025-01-17 09:43:54.71	30.02	19.96	
2025-01-17 09:43:54.91	29.96	19.95	
2025-01-17 09:43:55.12	29.91	19.94	
2025-01-17 09:43:55.32	29.85	19.93	
2025-01-17 09:43:55.52	29.80	19.92	
2025-01-17 09:43:55.73	29.74	19.91	
2025-01-17 09:43:55.93	29.68	19.90	
2025-01-17 09:43:56.13	29.63	19.89	
2025-01-17 09:43:56.33	29.57	19.89	
2025-01-17 09:43:56.54	29.51	19.88	
2025-01-17 09:43:56.74	29.46	19.87	
2025-01-17 09:43:56.94	29.40	19.86	
2025-01-17 09:43:57.15	29.35	19.85	
2025-01-17 09:43:57.35	29.29	19.84	
2025-01-17 09:43:57.55	29.24	19.83	
2025-01-17 09:43:57.76	29.18	19.82	
2025-01-17 09:43:57.96	29.13	19.81	
2025-01-17 09:43:58.16	29.07	19.80	
2025-01-17 09:43:58.36	29.02	19.79	
2025-01-17 09:43:58.57	28.96	19.78	
2025-01-17 09:43:58.77	28.90	19.77	
2025-01-17 09:43:58.97	28.85	19.76	
2025-01-17 09:43:59.18	28.79	19.75	
2025-01-17 09:43:59.38	28.74	19.74	
2025-01-17 09:43:59.58	28.68	19.73	
2025-01-17 09:43:59.79	28.63	19.72	
2025-01-17 09:43:59.99	28.57	19.71	
2025-01-17 09:44:00.19	28.52	19.70	
2025-01-17 09:44:00.39	28.46	19.69	
2025-01-17 09:44:00.60	28.41	19.68	
2025-01-17 09:44:00.80	28.35	19.67	
2025-01-17 09:44:01.00	28.30	19.66	
2025-01-17 09:44:01.21	28.24	19.65	
2025-01-17 09:44:01.41	28.19	19.64	
2025-01-17 09:44:01.61	28.13	19.63	
2025-01-17 09:44:01.82	28.08	19.62	
2025-01-17 09:44:02.02	28.02	19.61	
2025-01-17 09:44:02.22	27.97	19.60	
2025-01-17 09:44:02.42	27.91	19.59	
2025-01-17 09:44:02.63	27.86	19.58	
2025-01-17 09:44:02.83	27.80	19.57	
2025-01-17 09:44:03.03	27.75	19.56	
2025-01-17 09:44:03.24	27.69	19.55	
2025-01-17 09:44:03.44	27.64	19.54	
2025-01-17 09:44:03.64	27.59	19.53	
2025-01-17 09:44:03.84	27.53	19.52	
2025-01-17 09:44:04.05	27.48	19.51	
2025-01-17 09:44:04.25	27.42	19.50	
2025-01-17 09:44:04.45	27.37	19.49	
2025-01-17 09:44:04.66	27.31	19.48	
2025-01-17 09:44:04.86	27.26	19.47	
2025-01-17 09:44:05.06	27.21	19.46	
2025-01-17 09:44:05.27	27.15	19.45	
2025-01-17 09:44:05.47	27.10	19.44	
2025-01-17 09:44:05.67	27.04	19.43	
2025-01-17 09:44:05.87	26.99	19.42	
2025-01-17 09:44:06.08	26.93	19.41	
2025-01-17 09:44:06.28	26.88	19.40	
2025-01-17 09:44:06.48	26.83	19.39	
2025-01-17 09:44:06.69	26.77	19.38	
2025-01-17 09:44:06.89	26.72	19.37	
2025-01-17 09:44:07.09	26.67	19.36	
2025-01-17 09:44:07.30	26.61	19.35	
2025-01-17 09:44:07.50	26.56	19.34	
2025-01-17 09:44:07.70	26.50	19.33	
2025-01-17 09:44:07.90	26.45	19.32	
2025-01-17 09:44:08.11	26.40	19.31	
2025-01-17 09:44:08.31	26.34	19.30	
2025-01-17 09:44:08.51	26.29	19.28	
2025-01-17 09:44:08.72	26.23	19.27	
2025-01-17 09:44:08.92	26.18	19.26	
2025-01-17 09:44:09.12	26.13	19.25	
2025-01-17 09:44:09.33	26.07	19.24	
2025-01-17 09:44:09.53	26.02	19.23	
2025-01-17 09:44:09.73	25.97	19.22	
2025-01-17 09:44:09.93	25.92	19.21	
2025-01-17 09:44:10.14	25.86	19.20	
2025-01-17 09:44:10.34	25.81	19.19	
2025-01-17 09:44:10.54	25.76	19.18	
2025-01-17 09:44:10.75	25.70	19.17	
2025-01-17 09:44:10.95	25.65	19.16	
2025-01-17 09:44:11.15	25.60	19.14	
2025-01-17 09:44:11.35	25.54	19.13	
2025-01-17 09:44:11.56	25.49	19.12	
2025-01-17 09:44:11.76	25.44	19.11	
2025-01-17 09:44:11.96	25.39	19.10	
2025-01-17 09:44:12.17	25.33	19.09	
2025-01-17 09:44:12.37	25.28	19.08	
2025-01-17 09:44:12.57	25.23	19.07	
2025-01-17 09:44:12.78	25.17	19.06	
2025-01-17 09:44:12.98	25.12	19.05	
2025-01-17 09:44:13.18	25.07	19.03	
2025-01-17 09:44:13.38	25.02	19.02	
2025-01-17 09:44:13.59	24.96	19.01	
2025-01-17 09:44:13.79	24.91	19.00	
2025-01-17 09:44:13.99	24.86	18.99	
2025-01-17 09:44:14.20	24.80	18.98	
2025-01-17 09:44:14.40	24.75	18.97	
2025-01-17 09:44:14.60	24.70	18.96	
2025-01-17 09:44:14.81	24.65	18.94	
2025-01-17 09:44:15.01	24.60	18.93	
2025-01-17 09:44:15.21	24.54	18.92	
2025-01-17 09:44:15.41	24.49	18.91	
2025-01-17 09:44:15.62	24.44	18.90	
2025-01-17 09:44:15.82	24.39	18.89	
2025-01-17 09:44:16.02	24.34	18.88	
2025-01-17 09:44:16.23	24.28	18.87	
2025-01-17 09:44:16.43	24.23	18.85	
2025-01-17 09:44:16.63	24.18	18.84	
2025-01-17 09:44:16.84	24.13	18.83	
2025-01-17 09:44:17.04	24.08	18.82	
2025-01-17 09:44:17.24	24.02	18.81	
2025-01-17 09:44:17.44	23.97	18.80	
2025-01-17 09:44:17.65	23.92	18.79	
2025-01-17 09:44:17.85	23.87	18.77	
2025-01-17 09:44:18.05	23.82	18.76	
2025-01-17 09:44:18.26	23.77	18.75	
2025-01-17 09:44:18.46	23.71	18.74	
2025-01-17 09:44:18.66	23.66	18.73	
2025-01-17 09:44:18.86	23.61	18.72	
2025-01-17 09:44:19.07	23.56	18.71	
2025-01-17 09:44:19.27	23.51	18.69	
2025-01-17 09:44:19.47	23.46	18.68	
2025-01-17 09:44:19.68	23.41	18.67	
2025-01-17 09:44:19.88	23.35	18.66	
2025-01-17 09:44:20.08	23.30	18.65	
2025-01-17 09:44:20.29	23.25	18.64	
2025-01-17 09:44:20.49	23.20	18.62	
2025-01-17 09:44:20.69	23.15	18.61	
2025-01-17 09:44:20.89	23.10	18.60	
2025-01-17 09:44:21.10	23.05	18.59	
2025-01-17 09:44:21.30	23.00	18.58	
2025-01-17 09:44:21.50	22.95	18.57	
2025-01-17 09:44:21.71	22.89	18.55	
2025-01-17 09:44:21.91	22.84	18.54	
2025-01-17 09:44:22.11	22.79	18.53	
2025-01-17 09:44:22.32	22.74	18.52	
2025-01-17 09:44:22.52	22.69	18.51	
2025-01-17 09:44:22.72	22.64	18.49	
2025-01-17 09:44:22.92	22.59	18.48	
2025-01-17 09:44:23.13	22.54	18.47	
2025-01-17 09:44:23.33	22.49	18.46	
2025-01-17 09:44:23.53	22.44	18.45	
2025-01-17 09:44:23.74	22.39	18.43	
2025-01-17 09:44:23.94	22.34	18.42	
2025-01-17 09:44:24.14	22.29	18.41	
2025-01-17 09:44:24.35	22.24	18.40	
2025-01-17 09:44:24.55	22.19	18.39	
2025-01-17 09:44:24.75	22.14	18.37	
2025-01-17 09:44:24.95	22.09	18.36	
2025-01-17 09:44:25.16	22.04	18.35	
2025-01-17 09:44:25.36	21.99	18.34	
2025-01-17 09:44:25.56	21.94	18.33	
2025-01-17 09:44:25.77	21.89	18.31	
2025-01-17 09:44:25.97	21.84	18.30	
2025-01-17 09:44:26.17	21.79	18.29	
2025-01-17 09:44:26.37	21.74	18.28	
2025-01-17 09:44:26.58	21.69	18.26	
2025-01-17 09:44:26.78	21.64	18.25	
2025-01-17 09:44:26.98	21.59	18.24	
2025-01-17 09:44:27.19	21.54	18.23	
2025-01-17 09:44:27.39	21.49	18.22	
2025-01-17 09:44:27.59	21.44	18.20	
2025-01-17 09:44:27.80	21.39	18.19	
2025-01-17 09:44:28.00	21.34	18.18	
2025-01-17 09:44:28.20	21.29	18.17	
2025-01-17 09:44:28.40	21.24	18.15	
2025-01-17 09:44:28.61	21.19	18.14	
2025-01-17 09:44:28.81	21.14	18.13	
2025-01-17 09:44:29.01	21.09	18.12	
2025-01-17 09:44:29.22	21.04	18.10	
2025-01-17 09:44:29.42	20.99	18.09	
2025-01-17 09:44:29.62	20.95	18.08	
2025-01-17 09:44:29.83	20.89	18.07	
2025-01-17 09:44:30.03	20.85	18.06	
2025-01-17 09:44:30.23	20.80	18.04	
2025-01-17 09:44:30.43	20.75	18.03	
2025-01-17 09:44:30.64	20.70	18.02	
2025-01-17 09:44:30.84	20.65	18.01	
2025-01-17 09:44:31.04	20.60	17.99	
2025-01-17 09:44:31.25	20.55	17.98	
2025-01-17 09:44:31.45	20.50	17.97	
2025-01-17 09:44:31.65	20.46	17.96	
2025-01-17 09:44:31.86	20.41	17.94	
2025-01-17 09:44:32.06	20.36	17.93	
2025-01-17 09:44:32.26	20.31	17.92	
2025-01-17 09:44:32.46	20.26	17.91	
2025-01-17 09:44:32.67	20.21	17.89	
2025-01-17 09:44:32.87	20.16	17.88	
2025-01-17 09:44:33.07	20.12	17.87	
2025-01-17 09:44:33.28	20.07	17.85	
2025-01-17 09:44:33.48	20.02	17.84	
2025-01-17 09:44:33.68	19.97	17.83	
2025-01-17 09:44:33.88	19.92	17.82	
2025-01-17 09:44:34.09	19.87	17.80	
2025-01-17 09:44:34.29	19.83	17.79	
2025-01-17 09:44:34.49	19.78	17.78	
2025-01-17 09:44:34.70	19.73	17.77	
2025-01-17 09:44:34.90	19.68	17.75	
2025-01-17 09:44:35.10	19.63	17.74	
2025-01-17 09:44:35.31	19.58	17.73	
2025-01-17 09:44:35.51	19.54	17.71	
2025-01-17 09:44:35.71	19.49	17.70	
2025-01-17 09:44:35.91	19.44	17.69	
2025-01-17 09:44:36.12	19.39	17.68	
2025-01-17 09:44:36.32	19.35	17.66	
2025-01-17 09:44:36.52	19.30	17.65	
2025-01-17 09:44:36.73	19.25	17.64	
2025-01-17 09:44:36.93	19.20	17.62	
2025-01-17 09:44:37.13	19.16	17.61	
2025-01-17 09:44:37.34	19.11	17.60	
2025-01-17 09:44:37.54	19.06	17.59	
2025-01-17 09:44:37.74	19.01	17.57	
2025-01-17 09:44:37.94	18.97	17.56	
2025-01-17 09:44:38.15	18.92	17.55	
2025-01-17 09:44:38.35	18.87	17.53	
2025-01-17 09:44:38.55	18.82	17.52	
2025-01-17 09:44:38.76	18.77	17.51	
2025-01-17 09:44:38.96	18.73	17.50	
2025-01-17 09:44:39.16	18.68	17.48	
2025-01-17 09:44:39.37	18.63	17.47	
2025-01-17 09:44:39.57	18.59	17.46	
2025-01-17 09:44:39.77	18.54	17.44	
2025-01-17 09:44:39.97	18.49	17.43	
2025-01-17 09:44:40.18	18.45	17.42	
2025-01-17 09:44:40.38	18.40	17.40	
2025-01-17 09:44:40.58	18.35	17.39	
2025-01-17 09:44:40.79	18.30	17.38	
2025-01-17 09:44:40.99	18.26	17.37	
2025-01-17 09:44:41.19	18.21	17.35	
2025-01-17 09:44:41.39	18.17	17.34	
2025-01-17 09:44:41.60	18.12	17.33	
2025-01-17 09:44:41.80	18.07	17.31	
2025-01-17 09:44:42.00	18.03	17.30	
2025-01-17 09:44:42.21	17.98	17.29	
2025-01-17 09:44:42.41	17.93	17.27	
2025-01-17 09:44:42.61	17.89	17.26	
2025-01-17 09:44:42.82	17.84	17.25	
2025-01-17 09:44:43.02	17.79	17.23	
2025-01-17 09:44:43.22	17.75	17.22	
2025-01-17 09:44:43.42	17.70	17.21	
2025-01-17 09:44:43.63	17.65	17.19	
2025-01-17 09:44:43.83	17.61	17.18	
2025-01-17 09:44:44.03	17.56	17.17	
2025-01-17 09:44:44.24	17.52	17.15	
2025-01-17 09:44:44.44	17.47	17.14	
2025-01-17 09:44:44.64	17.42	17.13	
2025-01-17 09:44:44.85	17.38	17.11	
2025-01-17 09:44:45.05	17.33	17.10	
2025-01-17 09:44:45.25	17.29	17.09	
2025-01-17 09:44:45.45	17.24	17.07	
2025-01-17 09:44:45.66	17.19	17.06	
2025-01-17 09:44:45.86	17.15	17.05	
2025-01-17 09:44:46.06	17.10	17.03	
2025-01-17 09:44:46.27	17.06	17.02	
2025-01-17 09:44:46.47	17.01	17.01	
2025-01-17 09:44:46.67	16.97	16.99	
2025-01-17 09:44:46.88	16.92	16.98	
2025-01-17 09:44:47.08	16.88	16.97	
2025-01-17 09:44:47.28	16.83	16.95	
2025-01-17 09:44:47.48	16.79	16.94	
2025-01-17 09:44:47.69	16.74	16.93	
2025-01-17 09:44:47.89	16.69	16.91	
2025-01-17 09:44:48.09	16.65	16.90	
2025-01-17 09:44:48.30	16.60	16.89	
2025-01-17 09:44:48.50	16.56	16.87	
2025-01-17 09:44:48.70	16.51	16.86	
2025-01-17 09:44:48.90	16.47	16.85	
2025-01-17 09:44:49.11	16.42	16.83	
2025-01-17 09:44:49.31	16.38	16.82	
2025-01-17 09:44:49.51	16.33	16.81	
2025-01-17 09:44:49.72	16.29	16.79	
2025-01-17 09:44:49.92	16.24	16.78	
2025-01-17 09:44:50.12	16.20	16.77	
2025-01-17 09:44:50.33	16.15	16.75	
2025-01-17 09:44:50.53	16.11	16.74	
2025-01-17 09:44:50.73	16.07	16.72	
2025-01-17 09:44:50.93	16.02	16.71	
2025-01-17 09:44:51.14	15.97	16.70	
2025-01-17 09:44:51.34	15.93	16.68	
2025-01-17 09:44:51.54	15.89	16.67	
2025-01-17 09:44:51.75	15.84	16.66	
2025-01-17 09:44:51.95	15.80	16.64	
2025-01-17 09:44:52.15	15.75	16.63	
2025-01-17 09:44:52.36	15.71	16.62	
2025-01-17 09:44:52.56	15.66	16.60	
2025-01-17 09:44:52.76	15.62	16.59	
2025-01-17 09:44:52.96	15.58	16.57	
2025-01-17 09:44:53.17	15.53	16.56	
2025-01-17 09:44:53.37	15.49	16.55	
2025-01-17 09:44:53.57	15.44	16.53	
2025-01-17 09:44:53.78	15.40	16.52	
2025-01-17 09:44:53.98	15.36	16.51	
2025-01-17 09:44:54.18	15.31	16.49	
2025-01-17 09:44:54.38	15.27	16.48	
2025-01-17 09:44:54.59	15.22	16.46	
2025-01-17 09:44:54.79	15.18	16.45	
2025-01-17 09:44:54.99	15.14	16.44	
2025-01-17 09:44:55.20	15.09	16.42	
2025-01-17 09:44:55.40	15.05	16.41	
2025-01-17 09:44:55.60	15.01	16.40	
2025-01-17 09:44:55.81	14.96	16.38	
2025-01-17 09:44:56.01	14.92	16.37	
2025-01-17 09:44:56.21	14.88	16.35	
2025-01-17 09:44:56.41	14.83	16.34	
2025-01-17 09:44:56.62	14.79	16.33	
2025-01-17 09:44:56.82	14.74	16.31	
2025-01-17 09:44:57.02	14.70	16.30	
2025-01-17 09:44:57.23	14.66	16.29	
2025-01-17 09:44:57.43	14.61	16.27	
2025-01-17 09:44:57.63	14.57	16.26	
2025-01-17 09:44:57.84	14.53	16.24	
2025-01-17 09:44:58.04	14.48	16.23	
2025-01-17 09:44:58.24	14.44	16.22	
2025-01-17 09:44:58.44	14.40	16.20	
2025-01-17 09:44:58.65	14.36	16.19	
2025-01-17 09:44:58.85	14.31	16.17	
2025-01-17 09:44:59.05	14.27	16.16	
2025-01-17 09:44:59.26	14.23	16.15	
2025-01-17 09:44:59.46	14.18	16.13	
2025-01-17 09:44:59.66	14.14	16.12	
2025-01-17 09:44:59.87	14.10	16.10	
2025-01-17 09:45:00.07	14.06	16.09	
2025-01-17 09:45:00.27	14.01	16.08	
2025-01-17 09:45:00.47	13.97	16.06	
2025-01-17 09:45:00.68	13.93	16.05	
2025-01-17 09:45:00.88	13.89	16.04	
2025-01-17 09:45:01.08	13.84	16.02	
2025-01-17 09:45:01.29	13.80	16.01	
2025-01-17 09:45:01.49	13.76	15.99	
2025-01-17 09:45:01.69	13.72	15.98	
2025-01-17 09:45:01.89	13.67	15.97	
2025-01-17 09:45:02.10	13.63	15.95	
2025-01-17 09:45:02.30	13.59	15.94	
2025-01-17 09:45:02.50	13.55	15.92	
2025-01-17 09:45:02.71	13.50	15.91	
2025-01-17 09:45:02.91	13.46	15.90	
2025-01-17 09:45:03.11	13.42	15.88	
2025-01-17 09:45:03.32	13.38	15.87	
2025-01-17 09:45:03.52	13.34	15.85	
2025-01-17 09:45:03.72	13.30	15.84	
2025-01-17 09:45:03.92	13.25	15.83	
2025-01-17 09:45:04.13	13.21	15.81	
2025-01-17 09:45:04.33	13.17	15.80	
2025-01-17 09:45:04.53	13.13	15.78	
2025-01-17 09:45:04.74	13.09	15.77	
2025-01-17 09:45:04.94	13.04	15.76	
2025-01-17 09:45:05.14	13.00	15.74	
2025-01-17 09:45:05.35	12.96	15.73	
2025-01-17 09:45:05.55	12.92	15.71	
2025-01-17 09:45:05.75	12.88	15.70	
2025-01-17 09:45:05.95	12.84	15.69	
2025-01-17 09:45:06.16	12.79	15.67	
2025-01-17 09:45:06.36	12.75	15.66	
2025-01-17 09:45:06.56	12.71	15.64	
2025-01-17 09:45:06.77	12.67	15.63	
2025-01-17 09:45:06.97	12.63	15.61	
2025-01-17 09:45:07.17	12.59	15.60	
2025-01-17 09:45:07.38	12.55	15.59	
2025-01-17 09:45:07.58	12.51	15.57	
2025-01-17 09:45:07.78	12.47	15.56	
2025-01-17 09:45:07.98	12.43	15.54	
2025-01-17 09:45:08.19	12.38	15.53	
2025-01-17 09:45:08.39	12.34	15.52	
2025-01-17 09:45:08.59	12.30	15.50	
2025-01-17 09:45:08.80	12.26	15.49	
2025-01-17 09:45:09.00	12.22	15.47	
2025-01-17 09:45:09.20	12.18	15.46	
2025-01-17 09:45:09.40	12.14	15.44	
2025-01-17 09:45:09.61	12.10	15.43	
2025-01-17 09:45:09.81	12.06	15.42	
2025-01-17 09:45:10.01	12.02	15.40	
2025-01-17 09:45:10.22	11.97	15.39	
2025-01-17 09:45:10.42	11.94	15.37	
2025-01-17 09:45:10.62	11.90	15.36	
2025-01-17 09:45:10.83	11.85	15.34	
2025-01-17 09:45:11.03	11.81	15.33	
2025-01-17 09:45:11.23	11.77	15.32	
2025-01-17 09:45:11.43	11.73	15.30	
2025-01-17 09:45:11.64	11.69	15.29	
2025-01-17 09:45:11.84	11.65	15.27	
2025-01-17 09:45:12.04	11.61	15.26	
2025-01-17 09:45:12.25	11.57	15.24	
2025-01-17 09:45:12.45	11.53	15.23	
2025-01-17 09:45:12.65	11.49	15.22	
2025-01-17 09:45:12.86	11.45	15.20	
2025-01-17 09:45:13.06	11.41	15.19	
2025-01-17 09:45:13.26	11.37	15.17	
2025-01-17 09:45:13.46	11.33	15.16	
2025-01-17 09:45:13.67	11.29	15.14	
2025-01-17 09:45:13.87	11.25	15.13	
2025-01-17 09:45:14.07	11.21	15.12	
2025-01-17 09:45:14.28	11.17	15.10	
2025-01-17 09:45:14.48	11.13	15.09	
2025-01-17 09:45:14.68	11.09	15.07	
2025-01-17 09:45:14.89	11.05	15.06	
2025-01-17 09:45:15.09	11.01	15.04	
2025-01-17 09:45:15.29	10.97	15.03	
2025-01-17 09:45:15.49	10.94	15.02	
2025-01-17 09:45:15.70	10.90	15.00	
2025-01-17 09:45:15.90	10.86	14.99	
2025-01-17 09:45:16.10	10.82	14.97	
2025-01-17 09:45:16.31	10.78	14.96	
2025-01-17 09:45:16.51	10.74	14.94	
2025-01-17 09:45:16.71	10.70	14.93	
2025-01-17 09:45:16.91	10.66	14.92	
2025-01-17 09:45:17.12	10.62	14.90	
2025-01-17 09:45:17.32	10.58	14.89	
2025-01-17 09:45:17.52	10.54	14.87	
2025-01-17 09:45:17.73	10.50	14.86	
2025-01-17 09:45:17.93	10.46	14.84	
2025-01-17 09:45:18.13	10.43	14.83	
2025-01-17 09:45:18.34	10.39	14.82	
2025-01-17 09:45:18.54	10.35	14.80	
2025-01-17 09:45:18.74	10.31	14.79	
2025-01-17 09:45:18.94	10.27	14.77	
2025-01-17 09:45:19.15	10.23	14.76	
2025-01-17 09:45:19.35	10.19	14.74	
2025-01-17 09:45:19.55	10.15	14.73	
2025-01-17 09:45:19.76	10.11	14.71	
2025-01-17 09:45:19.96	10.08	14.70	
2025-01-17 09:45:20.16	10.04	14.69	
2025-01-17 09:45:20.37	10.00	14.67	
2025-01-17 09:45:20.57	9.96	14.66	
2025-01-17 09:45:20.77	9.92	14.64	
2025-01-17 09:45:20.97	9.88	14.63	
2025-01-17 09:45:21.18	9.85	14.61	
2025-01-17 09:45:21.38	9.81	14.60	
2025-01-17 09:45:21.58	9.77	14.59	
2025-01-17 09:45:21.79	9.73	14.57	
2025-01-17 09:45:21.99	9.69	14.56	
2025-01-17 09:45:22.19	9.65	14.54	
2025-01-17 09:45:22.40	9.62	14.53	
2025-01-17 09:45:22.60	9.58	14.51	
2025-01-17 09:45:22.80	9.54	14.50	
2025-01-17 09:45:23.00	9.50	14.48	
2025-01-17 09:45:23.21	9.46	14.47	
2025-01-17 09:45:23.41	9.43	14.46	
2025-01-17 09:45:23.61	9.39	14.44	
2025-01-17 09:45:23.82	9.35	14.43	
2025-01-17 09:45:24.02	9.31	14.41	
2025-01-17 09:45:24.22	9.28	14.40	
2025-01-17 09:45:24.42	9.24	14.38	
2025-01-17 09:45:24.63	9.20	14.37	
2025-01-17 09:45:24.83	9.16	14.35	
2025-01-17 09:45:25.03	9.13	14.34	
2025-01-17 09:45:25.24	9.09	14.33	
2025-01-17 09:45:25.44	9.05	14.31	
2025-01-17 09:45:25.64	9.01	14.30	
2025-01-17 09:45:25.85	8.97	14.28	
2025-01-17 09:45:26.05	8.94	14.27	
2025-01-17 09:45:26.25	8.90	14.25	
2025-01-17 09:45:26.45	8.86	14.24	
2025-01-17 09:45:26.66	8.82	14.22	
2025-01-17 09:45:26.86	8.79	14.21	
2025-01-17 09:45:27.06	8.75	14.20	
2025-01-17 09:45:27.27	8.71	14.18	
2025-01-17 09:45:27.47	8.68	14.17	
2025-01-17 09:45:27.67	8.64	14.15	
2025-01-17 09:45:27.88	8.60	14.14	
2025-01-17 09:45:28.08	8.56	14.12	
2025-01-17 09:45:28.28	8.53	14.11	
2025-01-17 09:45:28.48	8.49	14.09	
2025-01-17 09:45:28.69	8.45	14.08	
2025-01-17 09:45:28.89	8.42	14.06	
2025-01-17 09:45:29.09	8.38	14.05	
2025-01-17 09:45:29.30	8.34	14.04	
2025-01-17 09:45:29.50	8.31	14.02	
2025-01-17 09:45:29.70	8.27	14.01	
2025-01-17 09:45:29.91	8.23	13.99	
2025-01-17 09:45:30.11	8.20	13.98	
2025-01-17 09:45:30.31	8.16	13.96	
2025-01-17 09:45:30.51	8.12	13.95	
2025-01-17 09:45:30.72	8.09	13.93	
2025-01-17 09:45:30.92	8.05	13.92	
2025-01-17 09:45:31.12	8.02	13.91	
2025-01-17 09:45:31.33	7.98	13.89	
2025-01-17 09:45:31.53	7.94	13.88	
2025-01-17 09:45:31.73	7.91	13.86	
2025-01-17 09:45:31.93	7.87	13.85	
2025-01-17 09:45:32.14	7.83	13.83	
2025-01-17 09:45:32.34	7.80	13.82	
2025-01-17 09:45:32.54	7.76	13.80	
2025-01-17 09:45:32.75	7.72	13.79	
2025-01-17 09:45:32.95	7.69	13.77	
2025-01-17 09:45:33.15	7.65	13.76	
2025-01-17 09:45:33.36	7.62	13.75	
2025-01-17 09:45:33.56	7.58	13.73	
2025-01-17 09:45:33.76	7.55	13.72	
2025-01-17 09:45:33.96	7.51	13.70	
2025-01-17 09:45:34.17	7.47	13.69	
2025-01-17 09:45:34.37	7.44	13.67	
2025-01-17 09:45:34.57	7.40	13.66	
2025-01-17 09:45:34.78	7.37	13.64	
2025-01-17 09:45:34.98	7.33	13.63	
2025-01-17 09:45:35.18	7.29	13.61	
2025-01-17 09:45:35.39	7.26	13.60	
2025-01-17 09:45:35.59	7.22	13.59	
2025-01-17 09:45:35.79	7.19	13.57	
2025-01-17 09:45:35.99	7.15	13.56	
2025-01-17 09:45:36.20	7.12	13.54	
2025-01-17 09:45:36.40	7.08	13.53	
2025-01-17 09:45:36.60	7.05	13.51	
2025-01-17 09:45:36.81	7.01	13.50	
2025-01-17 09:45:37.01	6.98	13.48	
2025-01-17 09:45:37.21	6.94	13.47	
2025-01-17 09:45:37.42	6.90	13.45	
2025-01-17 09:45:37.62	6.87	13.44	
2025-01-17 09:45:37.82	6.83	13.43	
2025-01-17 09:45:38.02	6.80	13.41	
2025-01-17 09:45:38.23	6.76	13.40	
2025-01-17 09:45:38.43	6.73	13.38	
2025-01-17 09:45:38.63	6.69	13.37	
2025-01-17 09:45:38.84	6.66	13.35	
2025-01-17 09:45:39.04	6.62	13.34	
2025-01-17 09:45:39.24	6.59	13.32	
2025-01-17 09:45:39.44	6.56	13.31	
2025-01-17 09:45:39.65	6.52	13.29	
2025-01-17 09:45:39.85	6.49	13.28	
2025-01-17 09:45:40.05	6.45	13.27	
2025-01-17 09:45:40.26	6.42	13.25	
2025-01-17 09:45:40.46	6.38	13.24	
2025-01-17 09:45:40.66	6.35	13.22	
2025-01-17 09:45:40.87	6.31	13.21	
2025-01-17 09:45:41.07	6.28	13.19	
2025-01-17 09:45:41.27	6.24	13.18	
2025-01-17 09:45:41.47	6.21	13.16	
2025-01-17 09:45:41.68	6.17	13.15	
2025-01-17 09:45:41.88	6.14	13.13	
2025-01-17 09:45:42.08	6.11	13.12	
2025-01-17 09:45:42.29	6.07	13.11	
2025-01-17 09:45:42.49	6.04	13.09	
2025-01-17 09:45:42.69	6.00	13.08	
2025-01-17 09:45:42.90	5.97	13.06	
2025-01-17 09:45:43.10	5.93	13.05	
2025-01-17 09:45:43.30	5.90	13.03	
2025-01-17 09:45:43.50	5.87	13.02	
2025-01-17 09:45:43.71	5.83	13.00	
2025-01-17 09:45:43.91	5.80	12.99	
2025-01-17 09:45:44.11	5.76	12.97	
2025-01-17 09:45:44.32	5.73	12.96	
2025-01-17 09:45:44.52	5.70	12.95	
2025-01-17 09:45:44.72	5.66	12.93	
2025-01-17 09:45:44.93	5.63	12.92	
2025-01-17 09:45:45.13	5.59	12.90	
2025-01-17 09:45:45.33	5.56	12.89	
2025-01-17 09:45:45.53	5.53	12.87	
2025-01-17 09:45:45.74	5.49	12.86	
2025-01-17 09:45:45.94	5.46	12.84	
2025-01-17 09:45:46.14	5.43	12.83	
2025-01-17 09:45:46.35	5.39	12.81	
2025-01-17 09:45:46.55	5.36	12.80	
2025-01-17 09:45:46.75	5.32	12.79	
2025-01-17 09:45:46.95	5.29	12.77	
2025-01-17 09:45:47.16	5.26	12.76	
2025-01-17 09:45:47.36	5.22	12.74	
2025-01-17 09:45:47.56	5.19	12.73	
2025-01-17 09:45:47.77	5.16	12.71	
2025-01-17 09:45:47.97	5.12	12.70	
2025-01-17 09:45:48.17	5.09	12.68	
2025-01-17 09:45:48.38	5.06	12.67	
2025-01-17 09:45:48.58	5.02	12.65	
2025-01-17 09:45:48.78	4.99	12.64	
2025-01-17 09:45:48.98	4.96	12.63	
2025-01-17 09:45:49.19	4.92	12.61	
2025-01-17 09:45:49.39	4.89	12.60	
2025-01-17 09:45:49.59	4.86	12.58	
2025-01-17 09:45:49.80	4.83	12.57	
2025-01-17 09:45:50.00	4.79	12.55	
2025-01-17 09:45:50.20	4.76	12.54	
2025-01-17 09:45:50.41	4.73	12.52	
2025-01-17 09:45:50.61	4.69	12.51	
2025-01-17 09:45:50.81	4.66	12.49	
2025-01-17 09:45:51.01	4.63	12.48	
2025-01-17 09:45:51.22	4.60	12.47	
2025-01-17 09:45:51.42	4.56	12.45	
2025-01-17 09:45:51.62	4.53	12.44	
2025-01-17 09:45:51.83	4.50	12.42	
2025-01-17 09:45:52.03	4.47	12.41	
2025-01-17 09:45:52.23	4.43	12.39	
2025-01-17 09:45:52.44	4.40	12.38	
2025-01-17 09:45:52.64	4.37	12.36	
2025-01-17 09:45:52.84	4.34	12.35	
2025-01-17 09:45:53.04	4.30	12.33	
2025-01-17 09:45:53.25	4.27	12.32	
2025-01-17 09:45:53.45	4.24	12.31	
2025-01-17 09:45:53.65	4.21	12.29	
2025-01-17 09:45:53.86	4.17	12.28	
2025-01-17 09:45:54.06	4.14	12.26	
2025-01-17 09:45:54.26	4.11	12.25	
2025-01-17 09:45:54.46	4.08	12.23	
2025-01-17 09:45:54.67	4.04	12.22	
2025-01-17 09:45:54.87	4.01	12.20	
2025-01-17 09:45:55.07	3.98	12.19	
2025-01-17 09:45:55.28	3.95	12.17	
2025-01-17 09:45:55.48	3.92	12.16	
2025-01-17 09:45:55.68	3.88	12.15	
2025-01-17 09:45:55.89	3.85	12.13	
2025-01-17 09:45:56.09	3.82	12.12	
2025-01-17 09:45:56.29	3.79	12.10	
2025-01-17 09:45:56.49	3.76	12.09	
2025-01-17 09:45:56.70	3.72	12.07	
2025-01-17 09:45:56.90	3.69	12.06	
2025-01-17 09:45:57.10	3.66	12.04	
2025-01-17 09:45:57.31	3.63	12.03	
2025-01-17 09:45:57.51	3.60	12.02	
2025-01-17 09:45:57.71	3.57	12.00	
2025-01-17 09:45:57.92	3.53	11.99	
2025-01-17 09:45:58.12	3.50	11.97	
2025-01-17 09:45:58.32	3.47	11.96	
2025-01-17 09:45:58.52	3.44	11.94	
2025-01-17 09:45:58.73	3.41	11.93	
2025-01-17 09:45:58.93	3.38	11.91	
2025-01-17 09:45:59.13	3.35	11.90	
2025-01-17 09:45:59.34	3.31	11.88	
2025-01-17 09:45:59.54	3.28	11.87	
2025-01-17 09:45:59.74	3.25	11.86	
2025-01-17 09:45:59.94	3.22	11.84	
2025-01-17 09:46:00.15	3.19	11.83	
2025-01-17 09:46:00.35	3.16	11.81	
2025-01-17 09:46:00.55	3.13	11.80	
2025-01-17 09:46:00.76	3.10	11.78	
2025-01-17 09:46:00.96	3.06	11.77	
2025-01-17 09:46:01.16	3.03	11.75	
2025-01-17 09:46:01.37	3.00	11.74	
2025-01-17 09:46:01.57	2.97	11.73	
2025-01-17 09:46:01.77	2.94	11.71	
2025-01-17 09:46:01.97	2.91	11.70	
2025-01-17 09:46:02.18	2.88	11.68	
2025-01-17 09:46:02.38	2.85	11.67	
2025-01-17 09:46:02.58	2.82	11.65	
2025-01-17 09:46:02.79	2.79	11.64	
2025-01-17 09:46:02.99	2.76	11.62	
2025-01-17 09:46:03.19	2.73	11.61	
2025-01-17 09:46:03.40	2.69	11.59	
2025-01-17 09:46:03.60	2.66	11.58	
2025-01-17 09:46:03.80	2.63	11.57	
2025-01-17 09:46:04.00	2.60	11.55	
2025-01-17 09:46:04.21	2.57	11.54	
2025-01-17 09:46:04.41	2.54	11.52	
2025-01-17 09:46:04.61	2.51	11.51	
2025-01-17 09:46:04.82	2.48	11.49	
2025-01-17 09:46:05.02	2.45	11.48	
2025-01-17 09:46:05.22	2.42	11.47	
2025-01-17 09:46:05.43	2.39	11.45	
2025-01-17 09:46:05.63	2.36	11.44	
2025-01-17 09:46:05.83	2.33	11.42	
2025-01-17 09:46:06.03	2.30	11.41	
2025-01-17 09:46:06.24	2.27	11.39	
2025-01-17 09:46:06.44	2.24	11.38	
2025-01-17 09:46:06.64	2.21	11.36	
2025-01-17 09:46:06.85	2.18	11.35	
2025-01-17 09:46:07.05	2.15	11.34	
2025-01-17 09:46:07.25	2.12	11.32	
2025-01-17 09:46:07.45	2.09	11.31	
2025-01-17 09:46:07.66	2.06	11.29	
2025-01-17 09:46:07.86	2.03	11.28	
2025-01-17 09:46:08.06	2.00	11.26	
2025-01-17 09:46:08.27	1.97	11.25	
2025-01-17 09:46:08.47	1.94	11.23	
2025-01-17 09:46:08.67	1.91	11.22	
2025-01-17 09:46:08.88	1.88	11.21	
2025-01-17 09:46:09.08	1.85	11.19	
2025-01-17 09:46:09.28	1.82	11.18	
2025-01-17 09:46:09.48	1.79	11.16	
2025-01-17 09:46:09.69	1.76	11.15	
2025-01-17 09:46:09.89	1.73	11.13	
2025-01-17 09:46:10.09	1.70	11.12	
2025-01-17 09:46:10.30	1.67	11.10	
2025-01-17 09:46:10.50	1.64	11.09	
2025-01-17 09:46:10.70	1.61	11.08	
2025-01-17 09:46:10.91	1.58	11.06	
2025-01-17 09:46:11.11	1.55	11.05	
2025-01-17 09:46:11.33	1.52	11.03	
2025-01-17 09:46:11.53	1.49	11.02	
2025-01-17 09:46:11.73	1.46	11.00	
2025-01-17 09:46:11.94	1.43	10.99	
2025-01-17 09:46:12.14	1.40	10.97	
2025-01-17 09:46:12.34	1.37	10.96	
2025-01-17 09:46:12.54	1.35	10.95	
2025-01-17 09:46:12.75	1.32	10.93	
2025-01-17 09:46:12.95	1.29	10.92	
2025-01-17 09:46:13.15	1.26	10.90	
2025-01-17 09:46:13.36	1.23	10.89	
2025-01-17 09:46:13.56	1.20	10.87	
2025-01-17 09:46:13.76	1.17	10.86	
2025-01-17 09:46:13.97	1.14	10.84	
2025-01-17 09:46:14.17	1.11	10.83	
2025-01-17 09:46:14.37	1.08	10.82	
2025-01-17 09:46:14.57	1.06	10.80	
2025-01-17 09:46:14.78	1.03	10.79	
2025-01-17 09:46:14.98	1.00	10.77	
2025-01-17 09:46:15.18	0.97	10.76	
2025-01-17 09:46:15.39	0.94	10.74	
2025-01-17 09:46:15.59	0.91	10.73	
2025-01-17 09:46:15.79	0.88	10.72	
2025-01-17 09:46:16.00	0.85	10.70	
2025-01-17 09:46:16.20	0.82	10.69	
2025-01-17 09:46:16.40	0.80	10.67	
2025-01-17 09:46:16.60	0.77	10.66	
2025-01-17 09:46:16.81	0.74	10.64	
2025-01-17 09:46:17.01	0.71	10.63	
2025-01-17 09:46:17.21	0.68	10.62	
2025-01-17 09:46:17.42	0.65	10.60	
2025-01-17 09:46:17.62	0.62	10.59	
2025-01-17 09:46:17.82	0.60	10.57	
2025-01-17 09:46:18.03	0.57	10.56	
2025-01-17 09:46:18.23	0.54	10.54	
2025-01-17 09:46:18.43	0.51	10.53	
2025-01-17 09:46:18.63	0.48	10.52	
2025-01-17 09:46:18.84	0.45	10.50	
2025-01-17 09:46:19.04	0.43	10.49	
2025-01-17 09:46:19.24	0.40	10.47	
2025-01-17 09:46:19.45	0.37	10.46	
2025-01-17 09:46:19.65	0.34	10.44	
2025-01-17 09:46:19.85	0.31	10.43	
2025-01-17 09:46:20.05	0.29	10.42	
2025-01-17 09:46:20.26	0.26	10.40	
2025-01-17 09:46:20.46	0.23	10.39	
2025-01-17 09:46:20.66	0.20	10.37	
2025-01-17 09:46:20.87	0.17	10.36	
2025-01-17 09:46:21.07	0.15	10.34	
2025-01-17 09:46:21.27	0.12	10.33	
2025-01-17 09:46:21.48	0.09	10.32	
2025-01-17 09:46:21.68	0.06	10.30	
2025-01-17 09:46:21.88	0.03	10.29	
2025-01-17 09:46:22.08	0.01	10.27	
2025-01-17 09:46:22.29	359.98	10.26	
2025-01-17 09:46:22.49	359.95	10.25	
2025-01-17 09:46:22.69	359.92	10.23	
2025-01-17 09:46:22.90	359.90	10.22	
2025-01-17 09:46:23.10	359.87	10.20	
2025-01-17 09:46:23.30	359.84	10.19	
2025-01-17 09:46:23.51	359.81	10.17	
2025-01-17 09:46:23.71	359.79	10.16	
2025-01-17 09:46:23.91	359.76	10.15	
2025-01-17 09:46:24.11	359.73	10.13	
2025-01-17 09:46:24.32	359.70	10.12	
2025-01-17 09:46:24.52	359.68	10.10	
2025-01-17 09:46:24.72	359.65	10.09	
2025-01-17 09:46:24.93	359.62	10.07	
2025-01-17 09:46:25.13	359.59	10.06	
2025-01-17 09:46:25.33	359.57	10.05	
2025-01-17 09:46:25.54	359.54	10.03	
2025-01-17 09:46:25.74	359.51	10.02	
2025-01-17 09:46:25.94	359.48	10.00	
2025-01-17 09:46:26.14	359.46	9.99	
2025-01-17 09:46:26.35	359.43	9.97	
2025-01-17 09:46:26.55	359.40	9.96	
2025-01-17 09:46:26.75	359.38	9.95	
2025-01-17 09:46:26.96	359.35	9.93	
2025-01-17 09:46:27.16	359.32	9.92	
2025-01-17 09:46:27.36	359.29	9.90	
2025-01-17 09:46:27.56	359.27	9.89	
2025-01-17 09:46:27.77	359.24	9.88	
2025-01-17 09:46:27.97	359.21	9.86	
2025-01-17 09:46:28.17	359.19	9.85	
2025-01-17 09:46:28.38	359.16	9.83	
2025-01-17 09:46:28.58	359.13	9.82	
2025-01-17 09:46:28.78	359.11	9.81	
2025-01-17 09:46:28.99	359.08	9.79	
2025-01-17 09:46:29.19	359.05	9.78	
2025-01-17 09:46:29.39	359.03	9.76	
2025-01-17 09:46:29.59	359.00	9.75	
2025-01-17 09:46:29.80	358.97	9.73	
2025-01-17 09:46:30.00	358.95	9.72	
2025-01-17 09:46:30.20	358.92	9.71	
2025-01-17 09:46:30.41	358.89	9.69	
2025-01-17 09:46:30.61	358.87	9.68	
2025-01-17 09:46:30.81	358.84	9.66	
2025-01-17 09:46:31.02	358.81	9.65	
2025-01-17 09:46:31.22	358.79	9.64	
2025-01-17 09:46:31.42	358.76	9.62	
2025-01-17 09:46:31.62	358.73	9.61	
2025-01-17 09:46:31.83	358.71	9.59	
2025-01-17 09:46:32.03	358.68	9.58	
2025-01-17 09:46:32.23	358.66	9.57	
2025-01-17 09:46:32.44	358.63	9.55	
2025-01-17 09:46:32.64	358.60	9.54	
2025-01-17 09:46:32.84	358.58	9.52	
2025-01-17 09:46:33.05	358.55	9.51	
2025-01-17 09:46:33.25	358.52	9.50	
2025-01-17 09:46:33.45	358.50	9.48	
2025-01-17 09:46:33.65	358.47	9.47	
2025-01-17 09:46:33.86	358.44	9.45	
2025-01-17 09:46:34.06	358.42	9.44	
2025-01-17 09:46:34.26	358.39	9.43	
2025-01-17 09:46:34.47	358.37	9.41	
2025-01-17 09:46:34.67	358.34	9.40	
2025-01-17 09:46:34.87	358.32	9.38	
2025-01-17 09:46:35.07	358.29	9.37	
2025-01-17 09:46:35.28	358.26	9.35	
2025-01-17 09:46:35.48	358.24	9.34	
2025-01-17 09:46:35.68	358.21	9.33	
2025-01-17 09:46:35.89	358.19	9.31	
2025-01-17 09:46:36.09	358.16	9.30	
2025-01-17 09:46:36.29	358.13	9.28	
2025-01-17 09:46:36.50	358.11	9.27	
2025-01-17 09:46:36.70	358.08	9.26	
2025-01-17 09:46:36.90	358.06	9.24	
2025-01-17 09:46:37.10	358.03	9.23	
2025-01-17 09:46:37.31	358.01	9.21	
2025-01-17 09:46:37.51	357.98	9.20	
2025-01-17 09:46:37.71	357.95	9.19	
2025-01-17 09:46:37.92	357.93	9.17	
2025-01-17 09:46:38.12	357.90	9.16	
2025-01-17 09:46:38.32	357.88	9.14	
2025-01-17 09:46:38.53	357.85	9.13	
2025-01-17 09:46:38.73	357.83	9.12	
2025-01-17 09:46:38.93	357.80	9.10	
2025-01-17 09:46:39.13	357.78	9.09	
2025-01-17 09:46:39.34	357.75	9.07	
2025-01-17 09:46:39.54	357.73	9.06	
2025-01-17 09:46:39.74	357.70	9.05	
2025-01-17 09:46:39.95	357.67	9.03	
2025-01-17 09:46:40.15	357.65	9.02	
2025-01-17 09:46:40.35	357.62	9.01	
2025-01-17 09:46:40.55	357.60	8.99	
2025-01-17 09:46:40.76	357.57	8.98	
2025-01-17 09:46:40.96	357.55	8.96	
2025-01-17 09:46:41.16	357.52	8.95	
2025-01-17 09:46:41.37	357.50	8.94	
2025-01-17 09:46:41.57	357.47	8.92	
2025-01-17 09:46:41.77	357.45	8.91	
2025-01-17 09:46:41.98	357.42	8.89	
2025-01-17 09:46:42.18	357.40	8.88	
2025-01-17 09:46:42.38	357.37	8.87	
2025-01-17 09:46:42.58	357.35	8.85	
2025-01-17 09:46:42.79	357.32	8.84	
2025-01-17 09:46:42.99	357.30	8.82	
2025-01-17 09:46:43.19	357.27	8.81	
2025-01-17 09:46:43.40	357.25	8.80	
2025-01-17 09:46:43.60	357.22	8.78	
2025-01-17 09:46:43.80	357.20	8.77	
2025-01-17 09:46:44.01	357.17	8.75	
2025-01-17 09:46:44.21	357.15	8.74	
2025-01-17 09:46:44.41	357.13	8.73	
2025-01-17 09:46:44.61	357.10	8.71	
2025-01-17 09:46:44.82	357.08	8.70	
2025-01-17 09:46:45.02	357.05	8.69	
2025-01-17 09:46:45.22	357.03	8.67	
2025-01-17 09:46:45.43	357.00	8.66	
2025-01-17 09:46:45.63	356.98	8.64	
2025-01-17 09:46:45.83	356.95	8.63	
2025-01-17 09:46:46.04	356.93	8.62	
2025-01-17 09:46:46.24	356.90	8.60	
2025-01-17 09:46:46.44	356.88	8.59	
2025-01-17 09:46:46.64	356.86	8.57	
2025-01-17 09:46:46.85	356.83	8.56	
2025-01-17 09:46:47.05	356.81	8.55	
2025-01-17 09:46:47.25	356.78	8.53	
2025-01-17 09:46:47.46	356.76	8.52	
2025-01-17 09:46:47.66	356.73	8.51	
2025-01-17 09:46:47.86	356.71	8.49	
2025-01-17 09:46:48.06	356.69	8.48	
2025-01-17 09:46:48.27	356.66	8.46	
2025-01-17 09:46:48.47	356.64	8.45	
2025-01-17 09:46:48.67	356.61	8.44	
2025-01-17 09:46:48.88	356.59	8.42	
2025-01-17 09:46:49.08	356.56	8.41	
2025-01-17 09:46:49.28	356.54	8.40	
2025-01-17 09:46:49.49	356.52	8.38	
2025-01-17 09:46:49.69	356.49	8.37	
2025-01-17 09:46:49.89	356.47	8.35	
2025-01-17 09:46:50.09	356.44	8.34	
2025-01-17 09:46:50.30	356.42	8.33	
2025-01-17 09:46:50.50	356.40	8.31	
2025-01-17 09:46:50.70	356.37	8.30	
2025-01-17 09:46:50.91	356.35	8.28	
2025-01-17 09:46:51.11	356.32	8.27	
2025-01-17 09:46:51.31	356.30	8.26	
2025-01-17 09:46:51.52	356.28	8.24	
2025-01-17 09:46:51.72	356.25	8.23	
2025-01-17 09:46:51.92	356.23	8.22	
2025-01-17 09:46:52.12	356.21	8.20	
2025-01-17 09:46:52.33	356.18	8.19	
2025-01-17 09:46:52.53	356.16	8.18	
2025-01-17 09:46:52.73	356.14	8.16	
2025-01-17 09:46:52.94	356.11	8.15	
2025-01-17 09:46:53.14	356.09	8.13	
2025-01-17 09:46:53.34	356.06	8.12	
2025-01-17 09:46:53.55	356.04	8.11	
2025-01-17 09:46:53.75	356.02	8.09	
2025-01-17 09:46:53.95	355.99	8.08	
2025-01-17 09:46:54.15	355.97	8.07	
2025-01-17 09:46:54.36	355.95	8.05	
2025-01-17 09:46:54.56	355.92	8.04	
2025-01-17 09:46:54.76	355.90	8.02	
2025-01-17 09:46:54.97	355.88	8.01	
2025-01-17 09:46:55.17	355.85	8.00	
2025-01-17 09:46:55.37	355.83	7.98	
2025-01-17 09:46:55.57	355.81	7.97	
2025-01-17 09:46:55.78	355.78	7.96	
2025-01-17 09:46:55.98	355.76	7.94	
2025-01-17 09:46:56.18	355.74	7.93	
2025-01-17 09:46:56.39	355.71	7.92	
2025-01-17 09:46:56.59	355.69	7.90	
2025-01-17 09:46:56.79	355.67	7.89	
2025-01-17 09:46:57.00	355.64	7.87	
2025-01-17 09:46:57.20	355.62	7.86	
2025-01-17 09:46:57.40	355.60	7.85	
2025-01-17 09:46:57.60	355.57	7.83	
2025-01-17 09:46:57.81	355.55	7.82	
2025-01-17 09:46:58.01	355.53	7.81	
2025-01-17 09:46:58.21	355.51	7.79	
2025-01-17 09:46:58.42	355.48	7.78	
2025-01-17 09:46:58.62	355.46	7.77	
2025-01-17 09:46:58.82	355.44	7.75	
2025-01-17 09:46:59.03	355.41	7.74	
2025-01-17 09:46:59.23	355.39	7.72	
2025-01-17 09:46:59.43	355.37	7.71	
2025-01-17 09:46:59.63	355.35	7.70	
2025-01-17 09:46:59.84	355.32	7.68	
2025-01-17 09:47:00.04	355.30	7.67	
2025-01-17 09:47:00.24	355.28	7.66	
2025-01-17 09:47:00.45	355.25	7.64	
2025-01-17 09:47:00.65	355.23	7.63	
2025-01-17 09:47:00.85	355.21	7.62	
2025-01-17 09:47:01.06	355.19	7.60	
2025-01-17 09:47:01.26	355.16	7.59	
2025-01-17 09:47:01.46	355.14	7.58	
2025-01-17 09:47:01.66	355.12	7.56	
2025-01-17 09:47:01.87	355.10	7.55	
2025-01-17 09:47:02.07	355.07	7.53	
2025-01-17 09:47:02.27	355.05	7.52	
2025-01-17 09:47:02.48	355.03	7.51	
2025-01-17 09:47:02.68	355.01	7.49	
2025-01-17 09:47:02.88	354.98	7.48	
2025-01-17 09:47:03.08	354.96	7.47	
2025-01-17 09:47:03.29	354.94	7.45	
2025-01-17 09:47:03.49	354.92	7.44	
2025-01-17 09:47:03.69	354.89	7.43	
2025-01-17 09:47:03.90	354.87	7.41	
2025-01-17 09:47:04.10	354.85	7.40	
2025-01-17 09:47:04.30	354.83	7.39	
2025-01-17 09:47:04.51	354.80	7.37	
2025-01-17 09:47:04.71	354.78	7.36	
2025-01-17 09:47:04.91	354.76	7.35	
2025-01-17 09:47:05.11	354.74	7.33	
2025-01-17 09:47:05.32	354.72	7.32	
2025-01-17 09:47:05.52	354.69	7.31	
2025-01-17 09:47:05.72	354.67	7.29	
2025-01-17 09:47:05.93	354.65	7.28	
2025-01-17 09:47:06.13	354.63	7.26	
2025-01-17 09:47:06.33	354.61	7.25	
2025-01-17 09:47:06.54	354.58	7.24	
2025-01-17 09:47:06.74	354.56	7.22	
2025-01-17 09:47:06.94	354.54	7.21	
2025-01-17 09:47:07.14	354.52	7.20	
2025-01-17 09:47:07.35	354.49	7.18	
2025-01-17 09:47:07.55	354.47	7.17	
2025-01-17 09:47:07.75	354.45	7.16	
2025-01-17 09:47:07.96	354.43	7.14	
2025-01-17 09:47:08.16	354.41	7.13	
2025-01-17 09:47:08.36	354.39	7.12	
2025-01-17 09:47:08.57	354.36	7.10	
2025-01-17 09:47:08.77	354.34	7.09	
2025-01-17 09:47:08.97	354.32	7.08	
2025-01-17 09:47:09.17	354.30	7.06	
2025-01-17 09:47:09.38	354.28	7.05	
2025-01-17 09:47:09.58	354.26	7.04	
2025-01-17 09:47:09.78	354.23	7.02	
2025-01-17 09:47:09.99	354.21	7.01	
2025-01-17 09:47:10.19	354.19	7.00	
2025-01-17 09:47:10.39	354.17	6.98	
2025-01-17 09:47:10.59	354.15	6.97	
2025-01-17 09:47:10.80	354.13	6.96	
2025-01-17 09:47:11.00	354.10	6.94	
2025-01-17 09:47:11.20	354.08	6.93	
2025-01-17 09:47:11.41	354.06	6.92	
2025-01-17 09:47:11.61	354.04	6.90	
2025-01-17 09:47:11.81	354.02	6.89	
2025-01-17 09:47:12.02	354.00	6.88	
2025-01-17 09:47:12.22	353.97	6.86	
2025-01-17 09:47:12.42	353.95	6.85	
2025-01-17 09:47:12.62	353.93	6.84	
2025-01-17 09:47:12.83	353.91	6.82	
2025-01-17 09:47:13.03	353.89	6.81	
2025-01-17 09:47:13.23	353.87	6.80	
2025-01-17 09:47:13.44	353.85	6.78	
