passes_logs/2025/01/17/SPB_Silybum_02/SPB_Silybum_02__20250117_231633_SUOMI_NPP_rec.log

#Pass ID: 20250117_231633_SUOMI NPP
#Satellite: SUOMI NPP
#Configuration: NPP
#Start time: 2025-01-17 23:16:31

#Version: 2.0.20230423
#Station: SPB_Silybum_02
#Location: 30.233357 lon 59.946436 lat
#TLE: 1 37849U 11061A   25017.17539025  .00000183  00000+0  10766-3 0  9991
#TLE: 2 37849  98.7449 318.1364 0001599  37.8052 322.3236 14.19539290685226

#Time	Az	El	Level	Level2	SNR	BER	Gain	Gain2
2025-01-17 23:16:33.97	22.19	4.01	
2025-01-17 23:16:34.17	22.20	4.02	
2025-01-17 23:16:34.38	22.21	4.04	
2025-01-17 23:16:34.58	22.22	4.05	
2025-01-17 23:16:34.78	22.23	4.06	
2025-01-17 23:16:34.99	22.25	4.08	
2025-01-17 23:16:35.19	22.26	4.09	
2025-01-17 23:16:35.39	22.27	4.10	
2025-01-17 23:16:35.60	22.28	4.12	
2025-01-17 23:16:35.80	22.29	4.13	
2025-01-17 23:16:36.00	22.30	4.14	
2025-01-17 23:16:36.20	22.31	4.16	
2025-01-17 23:16:36.41	22.32	4.17	
2025-01-17 23:16:36.61	22.33	4.18	
2025-01-17 23:16:36.81	22.34	4.19	
2025-01-17 23:16:37.02	22.35	4.21	
2025-01-17 23:16:37.22	22.36	4.22	
2025-01-17 23:16:37.42	22.37	4.23	
2025-01-17 23:16:37.63	22.38	4.25	
2025-01-17 23:16:37.83	22.39	4.26	
2025-01-17 23:16:38.03	22.40	4.27	
2025-01-17 23:16:38.23	22.41	4.29	
2025-01-17 23:16:38.44	22.42	4.30	
2025-01-17 23:16:38.64	22.44	4.31	
2025-01-17 23:16:38.84	22.45	4.33	
2025-01-17 23:16:39.05	22.46	4.34	
2025-01-17 23:16:39.25	22.47	4.35	
2025-01-17 23:16:39.45	22.48	4.37	
2025-01-17 23:16:39.66	22.49	4.38	
2025-01-17 23:16:39.86	22.50	4.39	
2025-01-17 23:16:40.06	22.51	4.40	
2025-01-17 23:16:40.26	22.52	4.42	
2025-01-17 23:16:40.47	22.53	4.43	
2025-01-17 23:16:40.67	22.54	4.44	
2025-01-17 23:16:40.87	22.55	4.46	
2025-01-17 23:16:41.08	22.56	4.47	
2025-01-17 23:16:41.28	22.57	4.48	
2025-01-17 23:16:41.48	22.58	4.50	
2025-01-17 23:16:41.69	22.60	4.51	
2025-01-17 23:16:41.89	22.61	4.52	
2025-01-17 23:16:42.09	22.62	4.54	
2025-01-17 23:16:42.29	22.63	4.55	
2025-01-17 23:16:42.50	22.64	4.56	
2025-01-17 23:16:42.70	22.65	4.58	
2025-01-17 23:16:42.90	22.66	4.59	
2025-01-17 23:16:43.11	22.67	4.60	
2025-01-17 23:16:43.31	22.68	4.62	
2025-01-17 23:16:43.51	22.69	4.63	
2025-01-17 23:16:43.71	22.70	4.64	
2025-01-17 23:16:43.92	22.71	4.66	
2025-01-17 23:16:44.12	22.72	4.67	
2025-01-17 23:16:44.32	22.74	4.68	
2025-01-17 23:16:44.53	22.75	4.70	
2025-01-17 23:16:44.73	22.76	4.71	
2025-01-17 23:16:44.93	22.77	4.72	
2025-01-17 23:16:45.14	22.78	4.74	
2025-01-17 23:16:45.34	22.79	4.75	
2025-01-17 23:16:45.54	22.80	4.76	
2025-01-17 23:16:45.74	22.81	4.78	
2025-01-17 23:16:45.95	22.82	4.79	
2025-01-17 23:16:46.15	22.83	4.80	
2025-01-17 23:16:46.35	22.84	4.82	
2025-01-17 23:16:46.56	22.86	4.83	
2025-01-17 23:16:46.76	22.87	4.84	
2025-01-17 23:16:46.96	22.88	4.86	
2025-01-17 23:16:47.17	22.89	4.87	
2025-01-17 23:16:47.37	22.90	4.88	
2025-01-17 23:16:47.57	22.91	4.90	
2025-01-17 23:16:47.77	22.92	4.91	
2025-01-17 23:16:47.98	22.93	4.92	
2025-01-17 23:16:48.18	22.94	4.94	
2025-01-17 23:16:48.38	22.95	4.95	
2025-01-17 23:16:48.59	22.97	4.96	
2025-01-17 23:16:48.79	22.98	4.98	
2025-01-17 23:16:48.99	22.99	4.99	
2025-01-17 23:16:49.20	23.00	5.00	
2025-01-17 23:16:49.40	23.01	5.02	
2025-01-17 23:16:49.60	23.02	5.03	
2025-01-17 23:16:49.80	23.03	5.04	
2025-01-17 23:16:50.01	23.04	5.06	
2025-01-17 23:16:50.21	23.05	5.07	
2025-01-17 23:16:50.41	23.07	5.08	
2025-01-17 23:16:50.62	23.08	5.10	
2025-01-17 23:16:50.82	23.09	5.11	
2025-01-17 23:16:51.02	23.10	5.13	
2025-01-17 23:16:51.23	23.11	5.14	
2025-01-17 23:16:51.43	23.12	5.15	
2025-01-17 23:16:51.63	23.13	5.17	
2025-01-17 23:16:51.83	23.14	5.18	
2025-01-17 23:16:52.04	23.16	5.19	
2025-01-17 23:16:52.24	23.17	5.21	
2025-01-17 23:16:52.44	23.18	5.22	
2025-01-17 23:16:52.65	23.19	5.23	
2025-01-17 23:16:52.85	23.20	5.25	
2025-01-17 23:16:53.05	23.21	5.26	
2025-01-17 23:16:53.25	23.22	5.27	
2025-01-17 23:16:53.46	23.23	5.29	
2025-01-17 23:16:53.66	23.25	5.30	
2025-01-17 23:16:53.86	23.26	5.32	
2025-01-17 23:16:54.07	23.27	5.33	
2025-01-17 23:16:54.27	23.28	5.34	
2025-01-17 23:16:54.47	23.29	5.36	
2025-01-17 23:16:54.68	23.30	5.37	
2025-01-17 23:16:54.88	23.31	5.38	
2025-01-17 23:16:55.08	23.32	5.40	
2025-01-17 23:16:55.28	23.34	5.41	
2025-01-17 23:16:55.49	23.35	5.42	
2025-01-17 23:16:55.69	23.36	5.44	
2025-01-17 23:16:55.89	23.37	5.45	
2025-01-17 23:16:56.10	23.38	5.47	
2025-01-17 23:16:56.30	23.39	5.48	
2025-01-17 23:16:56.50	23.40	5.49	
2025-01-17 23:16:56.71	23.42	5.51	
2025-01-17 23:16:56.91	23.43	5.52	
2025-01-17 23:16:57.11	23.44	5.53	
2025-01-17 23:16:57.31	23.45	5.55	
2025-01-17 23:16:57.52	23.46	5.56	
2025-01-17 23:16:57.72	23.47	5.57	
2025-01-17 23:16:57.92	23.48	5.59	
2025-01-17 23:16:58.13	23.50	5.60	
2025-01-17 23:16:58.33	23.51	5.62	
2025-01-17 23:16:58.53	23.52	5.63	
2025-01-17 23:16:58.74	23.53	5.64	
2025-01-17 23:16:58.94	23.54	5.66	
2025-01-17 23:16:59.14	23.55	5.67	
2025-01-17 23:16:59.34	23.57	5.68	
2025-01-17 23:16:59.55	23.58	5.70	
2025-01-17 23:16:59.75	23.59	5.71	
2025-01-17 23:16:59.95	23.60	5.73	
2025-01-17 23:17:00.16	23.61	5.74	
2025-01-17 23:17:00.36	23.62	5.75	
2025-01-17 23:17:00.56	23.63	5.77	
2025-01-17 23:17:00.77	23.65	5.78	
2025-01-17 23:17:00.97	23.66	5.79	
2025-01-17 23:17:01.17	23.67	5.81	
2025-01-17 23:17:01.37	23.68	5.82	
2025-01-17 23:17:01.58	23.69	5.84	
2025-01-17 23:17:01.78	23.70	5.85	
2025-01-17 23:17:01.98	23.72	5.86	
2025-01-17 23:17:02.19	23.73	5.88	
2025-01-17 23:17:02.39	23.74	5.89	
2025-01-17 23:17:02.59	23.75	5.91	
2025-01-17 23:17:02.79	23.76	5.92	
2025-01-17 23:17:03.00	23.78	5.93	
2025-01-17 23:17:03.20	23.79	5.95	
2025-01-17 23:17:03.40	23.80	5.96	
2025-01-17 23:17:03.61	23.81	5.98	
2025-01-17 23:17:03.81	23.82	5.99	
2025-01-17 23:17:04.01	23.83	6.00	
2025-01-17 23:17:04.22	23.85	6.02	
2025-01-17 23:17:04.42	23.86	6.03	
2025-01-17 23:17:04.62	23.87	6.04	
2025-01-17 23:17:04.82	23.88	6.06	
2025-01-17 23:17:05.03	23.89	6.07	
2025-01-17 23:17:05.23	23.90	6.09	
2025-01-17 23:17:05.43	23.92	6.10	
2025-01-17 23:17:05.64	23.93	6.11	
2025-01-17 23:17:05.84	23.94	6.13	
2025-01-17 23:17:06.04	23.95	6.14	
2025-01-17 23:17:06.25	23.96	6.16	
2025-01-17 23:17:06.45	23.98	6.17	
2025-01-17 23:17:06.65	23.99	6.18	
2025-01-17 23:17:06.85	24.00	6.20	
2025-01-17 23:17:07.06	24.01	6.21	
2025-01-17 23:17:07.26	24.02	6.23	
2025-01-17 23:17:07.46	24.04	6.24	
2025-01-17 23:17:07.67	24.05	6.25	
2025-01-17 23:17:07.87	24.06	6.27	
2025-01-17 23:17:08.07	24.07	6.28	
2025-01-17 23:17:08.28	24.08	6.30	
2025-01-17 23:17:08.48	24.10	6.31	
2025-01-17 23:17:08.68	24.11	6.32	
2025-01-17 23:17:08.88	24.12	6.34	
2025-01-17 23:17:09.09	24.13	6.35	
2025-01-17 23:17:09.29	24.14	6.37	
2025-01-17 23:17:09.49	24.16	6.38	
2025-01-17 23:17:09.70	24.17	6.40	
2025-01-17 23:17:09.90	24.18	6.41	
2025-01-17 23:17:10.10	24.19	6.42	
2025-01-17 23:17:10.31	24.21	6.44	
2025-01-17 23:17:10.51	24.22	6.45	
2025-01-17 23:17:10.71	24.23	6.47	
2025-01-17 23:17:10.91	24.24	6.48	
2025-01-17 23:17:11.12	24.25	6.49	
2025-01-17 23:17:11.32	24.27	6.51	
2025-01-17 23:17:11.52	24.28	6.52	
2025-01-17 23:17:11.73	24.29	6.54	
2025-01-17 23:17:11.93	24.30	6.55	
2025-01-17 23:17:12.13	24.31	6.56	
2025-01-17 23:17:12.33	24.33	6.58	
2025-01-17 23:17:12.54	24.34	6.59	
2025-01-17 23:17:12.74	24.35	6.61	
2025-01-17 23:17:12.94	24.36	6.62	
2025-01-17 23:17:13.15	24.38	6.64	
2025-01-17 23:17:13.35	24.39	6.65	
2025-01-17 23:17:13.55	24.40	6.66	
2025-01-17 23:17:13.76	24.41	6.68	
2025-01-17 23:17:13.96	24.43	6.69	
2025-01-17 23:17:14.16	24.44	6.71	
2025-01-17 23:17:14.36	24.45	6.72	
2025-01-17 23:17:14.57	24.46	6.74	
2025-01-17 23:17:14.77	24.47	6.75	
2025-01-17 23:17:14.97	24.49	6.76	
2025-01-17 23:17:15.18	24.50	6.78	
2025-01-17 23:17:15.38	24.51	6.79	
2025-01-17 23:17:15.58	24.52	6.81	
2025-01-17 23:17:15.79	24.54	6.82	
2025-01-17 23:17:15.99	24.55	6.84	
2025-01-17 23:17:16.19	24.56	6.85	
2025-01-17 23:17:16.39	24.57	6.86	
2025-01-17 23:17:16.60	24.59	6.88	
2025-01-17 23:17:16.80	24.60	6.89	
2025-01-17 23:17:17.00	24.61	6.91	
2025-01-17 23:17:17.21	24.62	6.92	
2025-01-17 23:17:17.41	24.64	6.94	
2025-01-17 23:17:17.61	24.65	6.95	
2025-01-17 23:17:17.82	24.66	6.96	
2025-01-17 23:17:18.02	24.67	6.98	
2025-01-17 23:17:18.22	24.69	6.99	
2025-01-17 23:17:18.42	24.70	7.01	
2025-01-17 23:17:18.63	24.71	7.02	
2025-01-17 23:17:18.83	24.72	7.04	
2025-01-17 23:17:19.03	24.74	7.05	
2025-01-17 23:17:19.24	24.75	7.07	
2025-01-17 23:17:19.44	24.76	7.08	
2025-01-17 23:17:19.64	24.77	7.09	
2025-01-17 23:17:19.85	24.79	7.11	
2025-01-17 23:17:20.05	24.80	7.12	
2025-01-17 23:17:20.25	24.81	7.14	
2025-01-17 23:17:20.45	24.82	7.15	
2025-01-17 23:17:20.66	24.84	7.17	
2025-01-17 23:17:20.86	24.85	7.18	
2025-01-17 23:17:21.06	24.86	7.19	
2025-01-17 23:17:21.27	24.88	7.21	
2025-01-17 23:17:21.47	24.89	7.22	
2025-01-17 23:17:21.67	24.90	7.24	
2025-01-17 23:17:21.88	24.91	7.25	
2025-01-17 23:17:22.08	24.93	7.27	
2025-01-17 23:17:22.28	24.94	7.28	
2025-01-17 23:17:22.48	24.95	7.30	
2025-01-17 23:17:22.69	24.97	7.31	
2025-01-17 23:17:22.89	24.98	7.33	
2025-01-17 23:17:23.09	24.99	7.34	
2025-01-17 23:17:23.30	25.00	7.35	
2025-01-17 23:17:23.50	25.02	7.37	
2025-01-17 23:17:23.70	25.03	7.38	
2025-01-17 23:17:23.90	25.04	7.40	
2025-01-17 23:17:24.11	25.06	7.41	
2025-01-17 23:17:24.31	25.07	7.43	
2025-01-17 23:17:24.51	25.08	7.44	
2025-01-17 23:17:24.72	25.09	7.46	
2025-01-17 23:17:24.92	25.11	7.47	
2025-01-17 23:17:25.12	25.12	7.49	
2025-01-17 23:17:25.33	25.13	7.50	
2025-01-17 23:17:25.53	25.15	7.52	
2025-01-17 23:17:25.73	25.16	7.53	
2025-01-17 23:17:25.93	25.17	7.54	
2025-01-17 23:17:26.14	25.19	7.56	
2025-01-17 23:17:26.34	25.20	7.57	
2025-01-17 23:17:26.54	25.21	7.59	
2025-01-17 23:17:26.75	25.22	7.60	
2025-01-17 23:17:26.95	25.24	7.62	
2025-01-17 23:17:27.15	25.25	7.63	
2025-01-17 23:17:27.36	25.26	7.65	
2025-01-17 23:17:27.56	25.28	7.66	
2025-01-17 23:17:27.76	25.29	7.68	
2025-01-17 23:17:27.96	25.30	7.69	
2025-01-17 23:17:28.17	25.32	7.71	
2025-01-17 23:17:28.37	25.33	7.72	
2025-01-17 23:17:28.57	25.34	7.74	
2025-01-17 23:17:28.78	25.36	7.75	
2025-01-17 23:17:28.98	25.37	7.77	
2025-01-17 23:17:29.18	25.38	7.78	
2025-01-17 23:17:29.39	25.40	7.80	
2025-01-17 23:17:29.59	25.41	7.81	
2025-01-17 23:17:29.79	25.42	7.82	
2025-01-17 23:17:29.99	25.43	7.84	
2025-01-17 23:17:30.20	25.45	7.85	
2025-01-17 23:17:30.40	25.46	7.87	
2025-01-17 23:17:30.60	25.47	7.88	
2025-01-17 23:17:30.81	25.49	7.90	
2025-01-17 23:17:31.01	25.50	7.91	
2025-01-17 23:17:31.21	25.51	7.93	
2025-01-17 23:17:31.42	25.53	7.94	
2025-01-17 23:17:31.62	25.54	7.96	
2025-01-17 23:17:31.82	25.55	7.97	
2025-01-17 23:17:32.02	25.57	7.99	
2025-01-17 23:17:32.23	25.58	8.00	
2025-01-17 23:17:32.43	25.59	8.02	
2025-01-17 23:17:32.63	25.61	8.03	
2025-01-17 23:17:32.84	25.62	8.05	
2025-01-17 23:17:33.04	25.64	8.06	
2025-01-17 23:17:33.24	25.65	8.08	
2025-01-17 23:17:33.44	25.66	8.09	
2025-01-17 23:17:33.65	25.68	8.11	
2025-01-17 23:17:33.85	25.69	8.12	
2025-01-17 23:17:34.05	25.70	8.14	
2025-01-17 23:17:34.26	25.72	8.15	
2025-01-17 23:17:34.46	25.73	8.17	
2025-01-17 23:17:34.66	25.74	8.18	
2025-01-17 23:17:34.87	25.76	8.20	
2025-01-17 23:17:35.07	25.77	8.21	
2025-01-17 23:17:35.27	25.78	8.23	
2025-01-17 23:17:35.47	25.80	8.24	
2025-01-17 23:17:35.68	25.81	8.26	
2025-01-17 23:17:35.88	25.82	8.27	
2025-01-17 23:17:36.08	25.84	8.29	
2025-01-17 23:17:36.29	25.85	8.30	
2025-01-17 23:17:36.49	25.87	8.32	
2025-01-17 23:17:36.69	25.88	8.33	
2025-01-17 23:17:36.90	25.89	8.35	
2025-01-17 23:17:37.10	25.91	8.36	
2025-01-17 23:17:37.30	25.92	8.38	
2025-01-17 23:17:37.50	25.93	8.39	
2025-01-17 23:17:37.71	25.95	8.41	
2025-01-17 23:17:37.91	25.96	8.42	
2025-01-17 23:17:38.11	25.97	8.44	
2025-01-17 23:17:38.32	25.99	8.45	
2025-01-17 23:17:38.52	26.00	8.47	
2025-01-17 23:17:38.72	26.02	8.48	
2025-01-17 23:17:38.93	26.03	8.50	
2025-01-17 23:17:39.13	26.04	8.51	
2025-01-17 23:17:39.33	26.06	8.53	
2025-01-17 23:17:39.53	26.07	8.54	
2025-01-17 23:17:39.74	26.09	8.56	
2025-01-17 23:17:39.94	26.10	8.57	
2025-01-17 23:17:40.14	26.11	8.59	
2025-01-17 23:17:40.35	26.13	8.60	
2025-01-17 23:17:40.55	26.14	8.62	
2025-01-17 23:17:40.75	26.16	8.63	
2025-01-17 23:17:40.96	26.17	8.65	
2025-01-17 23:17:41.16	26.18	8.66	
2025-01-17 23:17:41.36	26.20	8.68	
2025-01-17 23:17:41.56	26.21	8.69	
2025-01-17 23:17:41.77	26.23	8.71	
2025-01-17 23:17:41.97	26.24	8.73	
2025-01-17 23:17:42.17	26.25	8.74	
2025-01-17 23:17:42.38	26.27	8.76	
2025-01-17 23:17:42.58	26.28	8.77	
2025-01-17 23:17:42.78	26.30	8.79	
2025-01-17 23:17:42.98	26.31	8.80	
2025-01-17 23:17:43.19	26.32	8.82	
2025-01-17 23:17:43.39	26.34	8.83	
2025-01-17 23:17:43.59	26.35	8.85	
2025-01-17 23:17:43.80	26.37	8.86	
2025-01-17 23:17:44.00	26.38	8.88	
2025-01-17 23:17:44.20	26.39	8.89	
2025-01-17 23:17:44.41	26.41	8.91	
2025-01-17 23:17:44.61	26.42	8.92	
2025-01-17 23:17:44.81	26.44	8.94	
2025-01-17 23:17:45.01	26.45	8.96	
2025-01-17 23:17:45.22	26.47	8.97	
2025-01-17 23:17:45.42	26.48	8.99	
2025-01-17 23:17:45.62	26.49	9.00	
2025-01-17 23:17:45.83	26.51	9.02	
2025-01-17 23:17:46.03	26.52	9.03	
2025-01-17 23:17:46.23	26.54	9.05	
2025-01-17 23:17:46.44	26.55	9.06	
2025-01-17 23:17:46.64	26.57	9.08	
2025-01-17 23:17:46.84	26.58	9.09	
2025-01-17 23:17:47.04	26.59	9.11	
2025-01-17 23:17:47.25	26.61	9.13	
2025-01-17 23:17:47.45	26.62	9.14	
2025-01-17 23:17:47.65	26.64	9.16	
2025-01-17 23:17:47.86	26.65	9.17	
2025-01-17 23:17:48.06	26.67	9.19	
2025-01-17 23:17:48.26	26.68	9.20	
2025-01-17 23:17:48.47	26.70	9.22	
2025-01-17 23:17:48.67	26.71	9.23	
2025-01-17 23:17:48.87	26.72	9.25	
2025-01-17 23:17:49.07	26.74	9.26	
2025-01-17 23:17:49.28	26.75	9.28	
2025-01-17 23:17:49.48	26.77	9.30	
2025-01-17 23:17:49.68	26.78	9.31	
2025-01-17 23:17:49.89	26.80	9.33	
2025-01-17 23:17:50.09	26.81	9.34	
2025-01-17 23:17:50.29	26.83	9.36	
2025-01-17 23:17:50.50	26.84	9.37	
2025-01-17 23:17:50.70	26.86	9.39	
2025-01-17 23:17:50.90	26.87	9.40	
2025-01-17 23:17:51.10	26.88	9.42	
2025-01-17 23:17:51.31	26.90	9.44	
2025-01-17 23:17:51.51	26.91	9.45	
2025-01-17 23:17:51.71	26.93	9.47	
2025-01-17 23:17:51.92	26.94	9.48	
2025-01-17 23:17:52.12	26.96	9.50	
2025-01-17 23:17:52.32	26.97	9.51	
2025-01-17 23:17:52.52	26.99	9.53	
2025-01-17 23:17:52.73	27.00	9.55	
2025-01-17 23:17:52.94	27.02	9.56	
2025-01-17 23:17:53.14	27.03	9.58	
2025-01-17 23:17:53.34	27.05	9.59	
2025-01-17 23:17:53.55	27.06	9.61	
2025-01-17 23:17:53.75	27.08	9.62	
2025-01-17 23:17:53.95	27.09	9.64	
2025-01-17 23:17:54.15	27.11	9.66	
2025-01-17 23:17:54.36	27.12	9.67	
2025-01-17 23:17:54.56	27.14	9.69	
2025-01-17 23:17:54.76	27.15	9.70	
2025-01-17 23:17:54.97	27.17	9.72	
2025-01-17 23:17:55.17	27.18	9.74	
2025-01-17 23:17:55.37	27.20	9.75	
2025-01-17 23:17:55.58	27.21	9.77	
2025-01-17 23:17:55.78	27.23	9.78	
2025-01-17 23:17:55.98	27.24	9.80	
2025-01-17 23:17:56.18	27.26	9.81	
2025-01-17 23:17:56.39	27.27	9.83	
2025-01-17 23:17:56.59	27.29	9.85	
2025-01-17 23:17:56.79	27.30	9.86	
2025-01-17 23:17:57.00	27.32	9.88	
2025-01-17 23:17:57.20	27.33	9.89	
2025-01-17 23:17:57.40	27.35	9.91	
2025-01-17 23:17:57.61	27.36	9.93	
2025-01-17 23:17:57.81	27.38	9.94	
2025-01-17 23:17:58.01	27.39	9.96	
2025-01-17 23:17:58.21	27.41	9.97	
2025-01-17 23:17:58.42	27.42	9.99	
2025-01-17 23:17:58.62	27.44	10.00	
2025-01-17 23:17:58.82	27.45	10.02	
2025-01-17 23:17:59.03	27.47	10.04	
2025-01-17 23:17:59.23	27.48	10.05	
2025-01-17 23:17:59.43	27.50	10.07	
2025-01-17 23:17:59.64	27.51	10.09	
2025-01-17 23:17:59.84	27.53	10.10	
2025-01-17 23:18:00.04	27.54	10.12	
2025-01-17 23:18:00.24	27.56	10.13	
2025-01-17 23:18:00.45	27.58	10.15	
2025-01-17 23:18:00.65	27.59	10.16	
2025-01-17 23:18:00.85	27.61	10.18	
2025-01-17 23:18:01.06	27.62	10.20	
2025-01-17 23:18:01.26	27.64	10.21	
2025-01-17 23:18:01.46	27.65	10.23	
2025-01-17 23:18:01.67	27.67	10.25	
2025-01-17 23:18:01.87	27.68	10.26	
2025-01-17 23:18:02.07	27.70	10.28	
2025-01-17 23:18:02.27	27.71	10.29	
2025-01-17 23:18:02.48	27.73	10.31	
2025-01-17 23:18:02.68	27.75	10.33	
2025-01-17 23:18:02.88	27.76	10.34	
2025-01-17 23:18:03.09	27.78	10.36	
2025-01-17 23:18:03.29	27.79	10.37	
2025-01-17 23:18:03.49	27.81	10.39	
2025-01-17 23:18:03.69	27.82	10.41	
2025-01-17 23:18:03.90	27.84	10.42	
2025-01-17 23:18:04.10	27.85	10.44	
2025-01-17 23:18:04.30	27.87	10.45	
2025-01-17 23:18:04.51	27.89	10.47	
2025-01-17 23:18:04.71	27.90	10.49	
2025-01-17 23:18:04.91	27.92	10.50	
2025-01-17 23:18:05.12	27.93	10.52	
2025-01-17 23:18:05.32	27.95	10.54	
2025-01-17 23:18:05.52	27.96	10.55	
2025-01-17 23:18:05.72	27.98	10.57	
2025-01-17 23:18:05.93	28.00	10.58	
2025-01-17 23:18:06.13	28.01	10.60	
2025-01-17 23:18:06.33	28.03	10.62	
2025-01-17 23:18:06.54	28.04	10.63	
2025-01-17 23:18:06.74	28.06	10.65	
2025-01-17 23:18:06.94	28.08	10.67	
2025-01-17 23:18:07.15	28.09	10.68	
2025-01-17 23:18:07.35	28.11	10.70	
2025-01-17 23:18:07.55	28.12	10.71	
2025-01-17 23:18:07.75	28.14	10.73	
2025-01-17 23:18:07.96	28.16	10.75	
2025-01-17 23:18:08.16	28.17	10.76	
2025-01-17 23:18:08.36	28.19	10.78	
2025-01-17 23:18:08.57	28.20	10.80	
2025-01-17 23:18:08.77	28.22	10.81	
2025-01-17 23:18:08.97	28.24	10.83	
2025-01-17 23:18:09.18	28.25	10.85	
2025-01-17 23:18:09.38	28.27	10.86	
2025-01-17 23:18:09.58	28.28	10.88	
2025-01-17 23:18:09.78	28.30	10.89	
2025-01-17 23:18:09.99	28.32	10.91	
2025-01-17 23:18:10.19	28.33	10.93	
2025-01-17 23:18:10.39	28.35	10.94	
2025-01-17 23:18:10.60	28.36	10.96	
2025-01-17 23:18:10.80	28.38	10.98	
2025-01-17 23:18:11.00	28.40	10.99	
2025-01-17 23:18:11.21	28.41	11.01	
2025-01-17 23:18:11.41	28.43	11.03	
2025-01-17 23:18:11.61	28.45	11.04	
2025-01-17 23:18:11.81	28.46	11.06	
2025-01-17 23:18:12.02	28.48	11.08	
2025-01-17 23:18:12.22	28.49	11.09	
2025-01-17 23:18:12.42	28.51	11.11	
2025-01-17 23:18:12.63	28.53	11.13	
2025-01-17 23:18:12.83	28.54	11.14	
2025-01-17 23:18:13.03	28.56	11.16	
2025-01-17 23:18:13.24	28.58	11.18	
2025-01-17 23:18:13.44	28.59	11.19	
2025-01-17 23:18:13.64	28.61	11.21	
2025-01-17 23:18:13.84	28.63	11.22	
2025-01-17 23:18:14.05	28.64	11.24	
2025-01-17 23:18:14.25	28.66	11.26	
2025-01-17 23:18:14.45	28.67	11.27	
2025-01-17 23:18:14.66	28.69	11.29	
2025-01-17 23:18:14.86	28.71	11.31	
2025-01-17 23:18:15.06	28.72	11.32	
2025-01-17 23:18:15.26	28.74	11.34	
2025-01-17 23:18:15.47	28.76	11.36	
2025-01-17 23:18:15.67	28.77	11.38	
2025-01-17 23:18:15.87	28.79	11.39	
2025-01-17 23:18:16.08	28.81	11.41	
2025-01-17 23:18:16.28	28.82	11.43	
2025-01-17 23:18:16.48	28.84	11.44	
2025-01-17 23:18:16.69	28.86	11.46	
2025-01-17 23:18:16.89	28.87	11.48	
2025-01-17 23:18:17.09	28.89	11.49	
2025-01-17 23:18:17.29	28.91	11.51	
2025-01-17 23:18:17.50	28.92	11.53	
2025-01-17 23:18:17.70	28.94	11.54	
2025-01-17 23:18:17.90	28.96	11.56	
2025-01-17 23:18:18.11	28.98	11.58	
2025-01-17 23:18:18.31	28.99	11.59	
2025-01-17 23:18:18.51	29.01	11.61	
2025-01-17 23:18:18.72	29.03	11.63	
2025-01-17 23:18:18.92	29.04	11.64	
2025-01-17 23:18:19.12	29.06	11.66	
2025-01-17 23:18:19.32	29.08	11.68	
2025-01-17 23:18:19.53	29.09	11.69	
2025-01-17 23:18:19.73	29.11	11.71	
2025-01-17 23:18:19.93	29.13	11.73	
2025-01-17 23:18:20.14	29.14	11.75	
2025-01-17 23:18:20.34	29.16	11.76	
2025-01-17 23:18:20.54	29.18	11.78	
2025-01-17 23:18:20.75	29.20	11.80	
2025-01-17 23:18:20.95	29.21	11.81	
2025-01-17 23:18:21.15	29.23	11.83	
2025-01-17 23:18:21.35	29.25	11.85	
2025-01-17 23:18:21.56	29.26	11.86	
2025-01-17 23:18:21.76	29.28	11.88	
2025-01-17 23:18:21.96	29.30	11.90	
2025-01-17 23:18:22.17	29.32	11.91	
2025-01-17 23:18:22.37	29.33	11.93	
2025-01-17 23:18:22.57	29.35	11.95	
2025-01-17 23:18:22.78	29.37	11.97	
2025-01-17 23:18:22.98	29.38	11.98	
2025-01-17 23:18:23.18	29.40	12.00	
2025-01-17 23:18:23.38	29.42	12.02	
2025-01-17 23:18:23.59	29.44	12.03	
2025-01-17 23:18:23.79	29.45	12.05	
2025-01-17 23:18:23.99	29.47	12.07	
2025-01-17 23:18:24.20	29.49	12.09	
2025-01-17 23:18:24.40	29.51	12.10	
2025-01-17 23:18:24.60	29.52	12.12	
2025-01-17 23:18:24.80	29.54	12.14	
2025-01-17 23:18:25.01	29.56	12.15	
2025-01-17 23:18:25.21	29.58	12.17	
2025-01-17 23:18:25.41	29.59	12.19	
2025-01-17 23:18:25.62	29.61	12.20	
2025-01-17 23:18:25.82	29.63	12.22	
2025-01-17 23:18:26.02	29.65	12.24	
2025-01-17 23:18:26.23	29.66	12.26	
2025-01-17 23:18:26.43	29.68	12.27	
2025-01-17 23:18:26.63	29.70	12.29	
2025-01-17 23:18:26.83	29.72	12.31	
2025-01-17 23:18:27.04	29.73	12.33	
2025-01-17 23:18:27.24	29.75	12.34	
2025-01-17 23:18:27.44	29.77	12.36	
2025-01-17 23:18:27.65	29.79	12.38	
2025-01-17 23:18:27.85	29.81	12.39	
2025-01-17 23:18:28.05	29.82	12.41	
2025-01-17 23:18:28.26	29.84	12.43	
2025-01-17 23:18:28.46	29.86	12.45	
2025-01-17 23:18:28.66	29.88	12.46	
2025-01-17 23:18:28.86	29.89	12.48	
2025-01-17 23:18:29.07	29.91	12.50	
2025-01-17 23:18:29.27	29.93	12.52	
2025-01-17 23:18:29.47	29.95	12.53	
2025-01-17 23:18:29.68	29.97	12.55	
2025-01-17 23:18:29.88	29.98	12.57	
2025-01-17 23:18:30.08	30.00	12.58	
2025-01-17 23:18:30.29	30.02	12.60	
2025-01-17 23:18:30.49	30.04	12.62	
2025-01-17 23:18:30.69	30.06	12.64	
2025-01-17 23:18:30.89	30.07	12.65	
2025-01-17 23:18:31.10	30.09	12.67	
2025-01-17 23:18:31.30	30.11	12.69	
2025-01-17 23:18:31.50	30.13	12.71	
2025-01-17 23:18:31.71	30.15	12.72	
2025-01-17 23:18:31.91	30.16	12.74	
2025-01-17 23:18:32.11	30.18	12.76	
2025-01-17 23:18:32.32	30.20	12.78	
2025-01-17 23:18:32.52	30.22	12.79	
2025-01-17 23:18:32.72	30.24	12.81	
2025-01-17 23:18:32.92	30.25	12.83	
2025-01-17 23:18:33.13	30.27	12.85	
2025-01-17 23:18:33.33	30.29	12.86	
2025-01-17 23:18:33.53	30.31	12.88	
2025-01-17 23:18:33.74	30.33	12.90	
2025-01-17 23:18:33.94	30.35	12.92	
2025-01-17 23:18:34.14	30.36	12.93	
2025-01-17 23:18:34.34	30.38	12.95	
2025-01-17 23:18:34.55	30.40	12.97	
2025-01-17 23:18:34.75	30.42	12.99	
2025-01-17 23:18:34.95	30.44	13.00	
2025-01-17 23:18:35.16	30.46	13.02	
2025-01-17 23:18:35.36	30.48	13.04	
2025-01-17 23:18:35.56	30.49	13.06	
2025-01-17 23:18:35.77	30.51	13.08	
2025-01-17 23:18:35.97	30.53	13.09	
2025-01-17 23:18:36.17	30.55	13.11	
2025-01-17 23:18:36.37	30.57	13.13	
2025-01-17 23:18:36.58	30.59	13.15	
2025-01-17 23:18:36.78	30.61	13.16	
2025-01-17 23:18:36.98	30.62	13.18	
2025-01-17 23:18:37.19	30.64	13.20	
2025-01-17 23:18:37.39	30.66	13.22	
2025-01-17 23:18:37.59	30.68	13.23	
2025-01-17 23:18:37.80	30.70	13.25	
2025-01-17 23:18:38.00	30.72	13.27	
2025-01-17 23:18:38.20	30.74	13.29	
2025-01-17 23:18:38.40	30.76	13.31	
2025-01-17 23:18:38.61	30.77	13.32	
2025-01-17 23:18:38.81	30.79	13.34	
2025-01-17 23:18:39.01	30.81	13.36	
2025-01-17 23:18:39.22	30.83	13.38	
2025-01-17 23:18:39.42	30.85	13.40	
2025-01-17 23:18:39.62	30.87	13.41	
2025-01-17 23:18:39.83	30.89	13.43	
2025-01-17 23:18:40.03	30.91	13.45	
2025-01-17 23:18:40.23	30.93	13.47	
2025-01-17 23:18:40.43	30.94	13.48	
2025-01-17 23:18:40.64	30.96	13.50	
2025-01-17 23:18:40.84	30.98	13.52	
2025-01-17 23:18:41.04	31.00	13.54	
2025-01-17 23:18:41.25	31.02	13.56	
2025-01-17 23:18:41.45	31.04	13.57	
2025-01-17 23:18:41.65	31.06	13.59	
2025-01-17 23:18:41.86	31.08	13.61	
2025-01-17 23:18:42.06	31.10	13.63	
2025-01-17 23:18:42.26	31.12	13.65	
2025-01-17 23:18:42.46	31.14	13.66	
2025-01-17 23:18:42.67	31.16	13.68	
2025-01-17 23:18:42.87	31.17	13.70	
2025-01-17 23:18:43.07	31.19	13.72	
2025-01-17 23:18:43.28	31.21	13.74	
2025-01-17 23:18:43.48	31.23	13.75	
2025-01-17 23:18:43.68	31.25	13.77	
2025-01-17 23:18:43.88	31.27	13.79	
2025-01-17 23:18:44.09	31.29	13.81	
2025-01-17 23:18:44.29	31.31	13.83	
2025-01-17 23:18:44.49	31.33	13.84	
2025-01-17 23:18:44.70	31.35	13.86	
2025-01-17 23:18:44.90	31.37	13.88	
2025-01-17 23:18:45.10	31.39	13.90	
2025-01-17 23:18:45.31	31.41	13.92	
2025-01-17 23:18:45.51	31.43	13.94	
2025-01-17 23:18:45.71	31.45	13.95	
2025-01-17 23:18:45.91	31.47	13.97	
2025-01-17 23:18:46.12	31.49	13.99	
2025-01-17 23:18:46.32	31.51	14.01	
2025-01-17 23:18:46.52	31.53	14.03	
2025-01-17 23:18:46.73	31.55	14.05	
2025-01-17 23:18:46.93	31.57	14.06	
2025-01-17 23:18:47.13	31.59	14.08	
2025-01-17 23:18:47.34	31.61	14.10	
2025-01-17 23:18:47.54	31.63	14.12	
2025-01-17 23:18:47.74	31.64	14.14	
2025-01-17 23:18:47.94	31.66	14.15	
2025-01-17 23:18:48.15	31.68	14.17	
2025-01-17 23:18:48.35	31.70	14.19	
2025-01-17 23:18:48.55	31.72	14.21	
2025-01-17 23:18:48.76	31.74	14.23	
2025-01-17 23:18:48.96	31.76	14.25	
2025-01-17 23:18:49.16	31.78	14.26	
2025-01-17 23:18:49.37	31.80	14.28	
2025-01-17 23:18:49.57	31.82	14.30	
2025-01-17 23:18:49.77	31.84	14.32	
2025-01-17 23:18:49.97	31.86	14.34	
2025-01-17 23:18:50.18	31.88	14.36	
2025-01-17 23:18:50.38	31.90	14.37	
2025-01-17 23:18:50.58	31.92	14.39	
2025-01-17 23:18:50.79	31.95	14.41	
2025-01-17 23:18:50.99	31.97	14.43	
2025-01-17 23:18:51.19	31.99	14.45	
2025-01-17 23:18:51.40	32.01	14.47	
2025-01-17 23:18:51.60	32.03	14.49	
2025-01-17 23:18:51.80	32.05	14.50	
2025-01-17 23:18:52.00	32.07	14.52	
2025-01-17 23:18:52.21	32.09	14.54	
2025-01-17 23:18:52.41	32.11	14.56	
2025-01-17 23:18:52.61	32.13	14.58	
2025-01-17 23:18:52.82	32.15	14.60	
2025-01-17 23:18:53.02	32.17	14.62	
2025-01-17 23:18:53.22	32.19	14.63	
2025-01-17 23:18:53.42	32.21	14.65	
2025-01-17 23:18:53.63	32.23	14.67	
2025-01-17 23:18:53.83	32.25	14.69	
2025-01-17 23:18:54.03	32.27	14.71	
2025-01-17 23:18:54.24	32.29	14.73	
2025-01-17 23:18:54.44	32.31	14.75	
2025-01-17 23:18:54.64	32.33	14.76	
2025-01-17 23:18:54.85	32.35	14.78	
2025-01-17 23:18:55.05	32.38	14.80	
2025-01-17 23:18:55.25	32.40	14.82	
2025-01-17 23:18:55.45	32.42	14.84	
2025-01-17 23:18:55.66	32.44	14.86	
2025-01-17 23:18:55.86	32.46	14.88	
2025-01-17 23:18:56.06	32.48	14.90	
2025-01-17 23:18:56.27	32.50	14.91	
2025-01-17 23:18:56.47	32.52	14.93	
2025-01-17 23:18:56.67	32.54	14.95	
2025-01-17 23:18:56.88	32.56	14.97	
2025-01-17 23:18:57.08	32.58	14.99	
2025-01-17 23:18:57.28	32.60	15.01	
2025-01-17 23:18:57.48	32.62	15.03	
2025-01-17 23:18:57.69	32.65	15.05	
2025-01-17 23:18:57.89	32.67	15.06	
2025-01-17 23:18:58.09	32.69	15.08	
2025-01-17 23:18:58.30	32.71	15.10	
2025-01-17 23:18:58.50	32.73	15.12	
2025-01-17 23:18:58.70	32.75	15.14	
2025-01-17 23:18:58.91	32.77	15.16	
2025-01-17 23:18:59.11	32.79	15.18	
2025-01-17 23:18:59.31	32.82	15.20	
2025-01-17 23:18:59.51	32.84	15.22	
2025-01-17 23:18:59.72	32.86	15.23	
2025-01-17 23:18:59.92	32.88	15.25	
2025-01-17 23:19:00.12	32.90	15.27	
2025-01-17 23:19:00.33	32.92	15.29	
2025-01-17 23:19:00.53	32.94	15.31	
2025-01-17 23:19:00.73	32.96	15.33	
2025-01-17 23:19:00.94	32.99	15.35	
2025-01-17 23:19:01.14	33.01	15.37	
2025-01-17 23:19:01.34	33.03	15.39	
2025-01-17 23:19:01.54	33.05	15.41	
2025-01-17 23:19:01.75	33.07	15.42	
2025-01-17 23:19:01.95	33.09	15.44	
2025-01-17 23:19:02.15	33.12	15.46	
2025-01-17 23:19:02.36	33.14	15.48	
2025-01-17 23:19:02.56	33.16	15.50	
2025-01-17 23:19:02.76	33.18	15.52	
2025-01-17 23:19:02.97	33.20	15.54	
2025-01-17 23:19:03.17	33.22	15.56	
2025-01-17 23:19:03.37	33.25	15.58	
2025-01-17 23:19:03.57	33.27	15.60	
2025-01-17 23:19:03.78	33.29	15.62	
2025-01-17 23:19:03.98	33.31	15.63	
2025-01-17 23:19:04.18	33.33	15.65	
2025-01-17 23:19:04.39	33.36	15.67	
2025-01-17 23:19:04.59	33.38	15.69	
2025-01-17 23:19:04.79	33.40	15.71	
2025-01-17 23:19:04.99	33.42	15.73	
2025-01-17 23:19:05.20	33.44	15.75	
2025-01-17 23:19:05.40	33.46	15.77	
2025-01-17 23:19:05.60	33.49	15.79	
2025-01-17 23:19:05.81	33.51	15.81	
2025-01-17 23:19:06.01	33.53	15.83	
2025-01-17 23:19:06.21	33.55	15.85	
2025-01-17 23:19:06.42	33.58	15.87	
2025-01-17 23:19:06.62	33.60	15.89	
2025-01-17 23:19:06.82	33.62	15.90	
2025-01-17 23:19:07.02	33.64	15.92	
2025-01-17 23:19:07.23	33.66	15.94	
2025-01-17 23:19:07.43	33.69	15.96	
2025-01-17 23:19:07.63	33.71	15.98	
2025-01-17 23:19:07.84	33.73	16.00	
2025-01-17 23:19:08.04	33.75	16.02	
2025-01-17 23:19:08.24	33.78	16.04	
2025-01-17 23:19:08.45	33.80	16.06	
2025-01-17 23:19:08.65	33.82	16.08	
2025-01-17 23:19:08.85	33.84	16.10	
2025-01-17 23:19:09.05	33.87	16.12	
2025-01-17 23:19:09.26	33.89	16.14	
2025-01-17 23:19:09.46	33.91	16.16	
2025-01-17 23:19:09.66	33.93	16.18	
2025-01-17 23:19:09.87	33.96	16.20	
2025-01-17 23:19:10.07	33.98	16.22	
2025-01-17 23:19:10.27	34.00	16.23	
2025-01-17 23:19:10.48	34.03	16.25	
2025-01-17 23:19:10.68	34.05	16.27	
2025-01-17 23:19:10.88	34.07	16.29	
2025-01-17 23:19:11.08	34.09	16.31	
2025-01-17 23:19:11.29	34.12	16.33	
2025-01-17 23:19:11.49	34.14	16.35	
2025-01-17 23:19:11.69	34.16	16.37	
2025-01-17 23:19:11.90	34.18	16.39	
2025-01-17 23:19:12.10	34.21	16.41	
2025-01-17 23:19:12.30	34.23	16.43	
2025-01-17 23:19:12.51	34.25	16.45	
2025-01-17 23:19:12.71	34.28	16.47	
2025-01-17 23:19:12.91	34.30	16.49	
2025-01-17 23:19:13.11	34.32	16.51	
2025-01-17 23:19:13.32	34.35	16.53	
2025-01-17 23:19:13.52	34.37	16.55	
2025-01-17 23:19:13.72	34.39	16.57	
2025-01-17 23:19:13.93	34.42	16.59	
2025-01-17 23:19:14.13	34.44	16.61	
2025-01-17 23:19:14.33	34.46	16.63	
2025-01-17 23:19:14.53	34.48	16.65	
2025-01-17 23:19:14.74	34.51	16.67	
2025-01-17 23:19:14.94	34.53	16.69	
2025-01-17 23:19:15.14	34.55	16.71	
2025-01-17 23:19:15.35	34.58	16.73	
2025-01-17 23:19:15.55	34.60	16.75	
2025-01-17 23:19:15.75	34.63	16.77	
2025-01-17 23:19:15.96	34.65	16.79	
2025-01-17 23:19:16.16	34.67	16.81	
2025-01-17 23:19:16.36	34.70	16.83	
2025-01-17 23:19:16.56	34.72	16.85	
2025-01-17 23:19:16.77	34.74	16.87	
2025-01-17 23:19:16.97	34.77	16.89	
2025-01-17 23:19:17.17	34.79	16.91	
2025-01-17 23:19:17.38	34.81	16.93	
2025-01-17 23:19:17.58	34.84	16.95	
2025-01-17 23:19:17.78	34.86	16.97	
2025-01-17 23:19:17.99	34.89	16.99	
2025-01-17 23:19:18.19	34.91	17.01	
2025-01-17 23:19:18.39	34.93	17.03	
2025-01-17 23:19:18.59	34.96	17.05	
2025-01-17 23:19:18.80	34.98	17.07	
2025-01-17 23:19:19.00	35.01	17.09	
2025-01-17 23:19:19.20	35.03	17.11	
2025-01-17 23:19:19.41	35.05	17.13	
2025-01-17 23:19:19.61	35.08	17.15	
2025-01-17 23:19:19.81	35.10	17.17	
2025-01-17 23:19:20.02	35.13	17.19	
2025-01-17 23:19:20.22	35.15	17.21	
2025-01-17 23:19:20.42	35.17	17.23	
2025-01-17 23:19:20.62	35.20	17.25	
2025-01-17 23:19:20.83	35.22	17.27	
2025-01-17 23:19:21.03	35.25	17.29	
2025-01-17 23:19:21.23	35.27	17.31	
2025-01-17 23:19:21.44	35.30	17.33	
2025-01-17 23:19:21.64	35.32	17.35	
2025-01-17 23:19:21.84	35.34	17.37	
2025-01-17 23:19:22.05	35.37	17.39	
2025-01-17 23:19:22.25	35.39	17.41	
2025-01-17 23:19:22.45	35.42	17.43	
2025-01-17 23:19:22.65	35.44	17.45	
2025-01-17 23:19:22.86	35.47	17.47	
2025-01-17 23:19:23.06	35.49	17.49	
2025-01-17 23:19:23.26	35.52	17.51	
2025-01-17 23:19:23.47	35.54	17.53	
2025-01-17 23:19:23.67	35.57	17.55	
2025-01-17 23:19:23.87	35.59	17.57	
2025-01-17 23:19:24.07	35.61	17.59	
2025-01-17 23:19:24.28	35.64	17.61	
2025-01-17 23:19:24.48	35.66	17.63	
2025-01-17 23:19:24.68	35.69	17.65	
2025-01-17 23:19:24.89	35.71	17.67	
2025-01-17 23:19:25.09	35.74	17.69	
2025-01-17 23:19:25.29	35.76	17.71	
2025-01-17 23:19:25.50	35.79	17.73	
2025-01-17 23:19:25.70	35.81	17.75	
2025-01-17 23:19:25.90	35.84	17.77	
2025-01-17 23:19:26.10	35.86	17.79	
2025-01-17 23:19:26.31	35.89	17.82	
2025-01-17 23:19:26.51	35.91	17.84	
2025-01-17 23:19:26.71	35.94	17.86	
2025-01-17 23:19:26.92	35.96	17.88	
2025-01-17 23:19:27.12	35.99	17.90	
2025-01-17 23:19:27.32	36.01	17.92	
2025-01-17 23:19:27.53	36.04	17.94	
2025-01-17 23:19:27.73	36.07	17.96	
2025-01-17 23:19:27.93	36.09	17.98	
2025-01-17 23:19:28.13	36.12	18.00	
2025-01-17 23:19:28.34	36.14	18.02	
2025-01-17 23:19:28.54	36.17	18.04	
2025-01-17 23:19:28.74	36.19	18.06	
2025-01-17 23:19:28.95	36.22	18.08	
2025-01-17 23:19:29.15	36.24	18.10	
2025-01-17 23:19:29.35	36.27	18.12	
2025-01-17 23:19:29.56	36.30	18.14	
2025-01-17 23:19:29.76	36.32	18.17	
2025-01-17 23:19:29.96	36.35	18.19	
2025-01-17 23:19:30.16	36.37	18.21	
2025-01-17 23:19:30.37	36.40	18.23	
2025-01-17 23:19:30.57	36.42	18.25	
2025-01-17 23:19:30.77	36.45	18.27	
2025-01-17 23:19:30.98	36.48	18.29	
2025-01-17 23:19:31.18	36.50	18.31	
2025-01-17 23:19:31.38	36.53	18.33	
2025-01-17 23:19:31.59	36.55	18.35	
2025-01-17 23:19:31.79	36.58	18.37	
2025-01-17 23:19:31.99	36.60	18.39	
2025-01-17 23:19:32.19	36.63	18.41	
2025-01-17 23:19:32.40	36.66	18.44	
2025-01-17 23:19:32.60	36.68	18.46	
2025-01-17 23:19:32.80	36.71	18.48	
2025-01-17 23:19:33.01	36.74	18.50	
2025-01-17 23:19:33.21	36.76	18.52	
2025-01-17 23:19:33.41	36.79	18.54	
2025-01-17 23:19:33.61	36.81	18.56	
2025-01-17 23:19:33.82	36.84	18.58	
2025-01-17 23:19:34.02	36.87	18.60	
2025-01-17 23:19:34.22	36.89	18.62	
2025-01-17 23:19:34.43	36.92	18.64	
2025-01-17 23:19:34.63	36.95	18.66	
2025-01-17 23:19:34.83	36.97	18.69	
2025-01-17 23:19:35.04	37.00	18.71	
2025-01-17 23:19:35.24	37.03	18.73	
2025-01-17 23:19:35.44	37.05	18.75	
2025-01-17 23:19:35.64	37.08	18.77	
2025-01-17 23:19:35.85	37.11	18.79	
2025-01-17 23:19:36.05	37.13	18.81	
2025-01-17 23:19:36.25	37.16	18.83	
2025-01-17 23:19:36.46	37.19	18.85	
2025-01-17 23:19:36.66	37.21	18.88	
2025-01-17 23:19:36.86	37.24	18.90	
2025-01-17 23:19:37.07	37.27	18.92	
2025-01-17 23:19:37.27	37.29	18.94	
2025-01-17 23:19:37.47	37.32	18.96	
2025-01-17 23:19:37.67	37.35	18.98	
2025-01-17 23:19:37.88	37.38	19.00	
2025-01-17 23:19:38.08	37.40	19.02	
2025-01-17 23:19:38.28	37.43	19.04	
2025-01-17 23:19:38.49	37.46	19.07	
2025-01-17 23:19:38.69	37.48	19.09	
2025-01-17 23:19:38.89	37.51	19.11	
2025-01-17 23:19:39.10	37.54	19.13	
2025-01-17 23:19:39.30	37.57	19.15	
2025-01-17 23:19:39.50	37.59	19.17	
2025-01-17 23:19:39.70	37.62	19.19	
2025-01-17 23:19:39.91	37.65	19.21	
2025-01-17 23:19:40.11	37.68	19.24	
2025-01-17 23:19:40.31	37.70	19.26	
2025-01-17 23:19:40.52	37.73	19.28	
2025-01-17 23:19:40.72	37.76	19.30	
2025-01-17 23:19:40.92	37.79	19.32	
2025-01-17 23:19:41.13	37.81	19.34	
2025-01-17 23:19:41.33	37.84	19.36	
2025-01-17 23:19:41.53	37.87	19.38	
2025-01-17 23:19:41.73	37.90	19.41	
2025-01-17 23:19:41.94	37.92	19.43	
2025-01-17 23:19:42.14	37.95	19.45	
2025-01-17 23:19:42.34	37.98	19.47	
2025-01-17 23:19:42.55	38.01	19.49	
2025-01-17 23:19:42.75	38.04	19.51	
2025-01-17 23:19:42.95	38.06	19.53	
2025-01-17 23:19:43.16	38.09	19.56	
2025-01-17 23:19:43.36	38.12	19.58	
2025-01-17 23:19:43.56	38.15	19.60	
2025-01-17 23:19:43.76	38.18	19.62	
2025-01-17 23:19:43.97	38.20	19.64	
2025-01-17 23:19:44.17	38.23	19.66	
2025-01-17 23:19:44.37	38.26	19.68	
2025-01-17 23:19:44.58	38.29	19.71	
2025-01-17 23:19:44.78	38.32	19.73	
2025-01-17 23:19:44.98	38.35	19.75	
2025-01-17 23:19:45.18	38.37	19.77	
2025-01-17 23:19:45.39	38.40	19.79	
2025-01-17 23:19:45.59	38.43	19.81	
2025-01-17 23:19:45.79	38.46	19.84	
2025-01-17 23:19:46.00	38.49	19.86	
2025-01-17 23:19:46.20	38.52	19.88	
2025-01-17 23:19:46.40	38.55	19.90	
2025-01-17 23:19:46.61	38.58	19.92	
2025-01-17 23:19:46.81	38.60	19.94	
2025-01-17 23:19:47.01	38.63	19.97	
2025-01-17 23:19:47.21	38.66	19.99	
2025-01-17 23:19:47.42	38.69	20.01	
2025-01-17 23:19:47.62	38.72	20.03	
2025-01-17 23:19:47.82	38.75	20.05	
2025-01-17 23:19:48.03	38.78	20.08	
2025-01-17 23:19:48.23	38.81	20.10	
2025-01-17 23:19:48.43	38.83	20.12	
2025-01-17 23:19:48.64	38.86	20.14	
2025-01-17 23:19:48.84	38.89	20.16	
2025-01-17 23:19:49.04	38.92	20.18	
2025-01-17 23:19:49.24	38.95	20.21	
2025-01-17 23:19:49.45	38.98	20.23	
2025-01-17 23:19:49.65	39.01	20.25	
2025-01-17 23:19:49.85	39.04	20.27	
2025-01-17 23:19:50.06	39.07	20.29	
2025-01-17 23:19:50.26	39.10	20.32	
2025-01-17 23:19:50.46	39.13	20.34	
2025-01-17 23:19:50.67	39.16	20.36	
2025-01-17 23:19:50.87	39.19	20.38	
2025-01-17 23:19:51.07	39.22	20.40	
2025-01-17 23:19:51.27	39.24	20.42	
2025-01-17 23:19:51.48	39.28	20.45	
2025-01-17 23:19:51.68	39.30	20.47	
2025-01-17 23:19:51.88	39.33	20.49	
2025-01-17 23:19:52.09	39.36	20.51	
2025-01-17 23:19:52.29	39.39	20.53	
2025-01-17 23:19:52.49	39.42	20.56	
2025-01-17 23:19:52.70	39.45	20.58	
2025-01-17 23:19:52.90	39.48	20.60	
2025-01-17 23:19:53.10	39.51	20.62	
2025-01-17 23:19:53.30	39.54	20.64	
2025-01-17 23:19:53.51	39.57	20.67	
2025-01-17 23:19:53.71	39.60	20.69	
2025-01-17 23:19:53.91	39.63	20.71	
2025-01-17 23:19:54.12	39.66	20.73	
2025-01-17 23:19:54.32	39.69	20.76	
2025-01-17 23:19:54.52	39.72	20.78	
2025-01-17 23:19:54.72	39.75	20.80	
2025-01-17 23:19:54.93	39.79	20.82	
2025-01-17 23:19:55.13	39.82	20.84	
2025-01-17 23:19:55.33	39.85	20.87	
2025-01-17 23:19:55.54	39.88	20.89	
2025-01-17 23:19:55.74	39.91	20.91	
2025-01-17 23:19:55.94	39.94	20.93	
2025-01-17 23:19:56.15	39.97	20.96	
2025-01-17 23:19:56.35	40.00	20.98	
2025-01-17 23:19:56.55	40.03	21.00	
2025-01-17 23:19:56.75	40.06	21.02	
2025-01-17 23:19:56.96	40.09	21.04	
2025-01-17 23:19:57.16	40.12	21.07	
2025-01-17 23:19:57.36	40.15	21.09	
2025-01-17 23:19:57.57	40.18	21.11	
2025-01-17 23:19:57.77	40.21	21.13	
2025-01-17 23:19:57.97	40.25	21.16	
2025-01-17 23:19:58.18	40.28	21.18	
2025-01-17 23:19:58.38	40.31	21.20	
2025-01-17 23:19:58.58	40.34	21.22	
2025-01-17 23:19:58.78	40.37	21.24	
2025-01-17 23:19:58.99	40.40	21.27	
2025-01-17 23:19:59.19	40.43	21.29	
2025-01-17 23:19:59.39	40.46	21.31	
2025-01-17 23:19:59.60	40.50	21.34	
2025-01-17 23:19:59.80	40.53	21.36	
2025-01-17 23:20:00.00	40.56	21.38	
2025-01-17 23:20:00.21	40.59	21.40	
2025-01-17 23:20:00.41	40.62	21.43	
2025-01-17 23:20:00.61	40.65	21.45	
2025-01-17 23:20:00.81	40.68	21.47	
2025-01-17 23:20:01.02	40.72	21.49	
2025-01-17 23:20:01.22	40.75	21.51	
2025-01-17 23:20:01.42	40.78	21.54	
2025-01-17 23:20:01.63	40.81	21.56	
2025-01-17 23:20:01.83	40.84	21.58	
2025-01-17 23:20:02.03	40.87	21.60	
2025-01-17 23:20:02.24	40.91	21.63	
2025-01-17 23:20:02.44	40.94	21.65	
2025-01-17 23:20:02.64	40.97	21.67	
2025-01-17 23:20:02.84	41.00	21.70	
2025-01-17 23:20:03.05	41.04	21.72	
2025-01-17 23:20:03.25	41.07	21.74	
2025-01-17 23:20:03.45	41.10	21.76	
2025-01-17 23:20:03.66	41.13	21.79	
2025-01-17 23:20:03.86	41.16	21.81	
2025-01-17 23:20:04.06	41.20	21.83	
2025-01-17 23:20:04.26	41.23	21.85	
2025-01-17 23:20:04.47	41.26	21.88	
2025-01-17 23:20:04.67	41.29	21.90	
2025-01-17 23:20:04.87	41.33	21.92	
2025-01-17 23:20:05.08	41.36	21.95	
2025-01-17 23:20:05.28	41.39	21.97	
2025-01-17 23:20:05.48	41.42	21.99	
2025-01-17 23:20:05.69	41.46	22.01	
2025-01-17 23:20:05.89	41.49	22.04	
2025-01-17 23:20:06.09	41.52	22.06	
2025-01-17 23:20:06.29	41.55	22.08	
2025-01-17 23:20:06.50	41.59	22.10	
2025-01-17 23:20:06.70	41.62	22.13	
2025-01-17 23:20:06.90	41.65	22.15	
2025-01-17 23:20:07.11	41.69	22.17	
2025-01-17 23:20:07.31	41.72	22.20	
2025-01-17 23:20:07.51	41.75	22.22	
2025-01-17 23:20:07.72	41.79	22.24	
2025-01-17 23:20:07.92	41.82	22.26	
2025-01-17 23:20:08.12	41.85	22.29	
2025-01-17 23:20:08.32	41.89	22.31	
2025-01-17 23:20:08.53	41.92	22.33	
2025-01-17 23:20:08.73	41.95	22.36	
2025-01-17 23:20:08.93	41.99	22.38	
2025-01-17 23:20:09.14	42.02	22.40	
2025-01-17 23:20:09.34	42.05	22.43	
2025-01-17 23:20:09.54	42.09	22.45	
2025-01-17 23:20:09.75	42.12	22.47	
2025-01-17 23:20:09.95	42.15	22.49	
2025-01-17 23:20:10.15	42.19	22.52	
2025-01-17 23:20:10.35	42.22	22.54	
2025-01-17 23:20:10.56	42.26	22.56	
2025-01-17 23:20:10.76	42.29	22.59	
2025-01-17 23:20:10.96	42.32	22.61	
2025-01-17 23:20:11.17	42.36	22.63	
2025-01-17 23:20:11.37	42.39	22.66	
2025-01-17 23:20:11.57	42.43	22.68	
2025-01-17 23:20:11.78	42.46	22.70	
2025-01-17 23:20:11.98	42.49	22.73	
2025-01-17 23:20:12.18	42.53	22.75	
2025-01-17 23:20:12.38	42.56	22.77	
2025-01-17 23:20:12.59	42.60	22.79	
2025-01-17 23:20:12.79	42.63	22.82	
2025-01-17 23:20:12.99	42.67	22.84	
2025-01-17 23:20:13.20	42.70	22.86	
2025-01-17 23:20:13.40	42.74	22.89	
2025-01-17 23:20:13.60	42.77	22.91	
2025-01-17 23:20:13.81	42.81	22.93	
2025-01-17 23:20:14.01	42.84	22.96	
2025-01-17 23:20:14.21	42.87	22.98	
2025-01-17 23:20:14.41	42.91	23.00	
2025-01-17 23:20:14.62	42.94	23.03	
2025-01-17 23:20:14.82	42.98	23.05	
2025-01-17 23:20:15.02	43.01	23.07	
2025-01-17 23:20:15.23	43.05	23.10	
2025-01-17 23:20:15.43	43.08	23.12	
2025-01-17 23:20:15.63	43.12	23.14	
2025-01-17 23:20:15.83	43.15	23.17	
2025-01-17 23:20:16.04	43.19	23.19	
2025-01-17 23:20:16.24	43.22	23.21	
2025-01-17 23:20:16.44	43.26	23.24	
2025-01-17 23:20:16.65	43.30	23.26	
2025-01-17 23:20:16.85	43.33	23.28	
2025-01-17 23:20:17.05	43.37	23.31	
2025-01-17 23:20:17.26	43.40	23.33	
2025-01-17 23:20:17.46	43.44	23.35	
2025-01-17 23:20:17.66	43.47	23.38	
2025-01-17 23:20:17.86	43.51	23.40	
2025-01-17 23:20:18.07	43.54	23.42	
2025-01-17 23:20:18.27	43.58	23.45	
2025-01-17 23:20:18.47	43.61	23.47	
2025-01-17 23:20:18.68	43.65	23.49	
2025-01-17 23:20:18.88	43.69	23.52	
2025-01-17 23:20:19.08	43.72	23.54	
2025-01-17 23:20:19.29	43.76	23.57	
2025-01-17 23:20:19.49	43.80	23.59	
2025-01-17 23:20:19.69	43.83	23.61	
2025-01-17 23:20:19.89	43.87	23.63	
2025-01-17 23:20:20.10	43.90	23.66	
2025-01-17 23:20:20.30	43.94	23.68	
2025-01-17 23:20:20.50	43.98	23.71	
2025-01-17 23:20:20.71	44.01	23.73	
2025-01-17 23:20:20.91	44.05	23.75	
2025-01-17 23:20:21.11	44.09	23.78	
2025-01-17 23:20:21.32	44.12	23.80	
2025-01-17 23:20:21.52	44.16	23.82	
2025-01-17 23:20:21.72	44.20	23.85	
2025-01-17 23:20:21.92	44.23	23.87	
2025-01-17 23:20:22.13	44.27	23.89	
2025-01-17 23:20:22.33	44.31	23.92	
2025-01-17 23:20:22.53	44.34	23.94	
2025-01-17 23:20:22.74	44.38	23.97	
2025-01-17 23:20:22.94	44.42	23.99	
2025-01-17 23:20:23.14	44.45	24.01	
2025-01-17 23:20:23.35	44.49	24.04	
2025-01-17 23:20:23.55	44.53	24.06	
2025-01-17 23:20:23.75	44.57	24.08	
2025-01-17 23:20:23.95	44.60	24.11	
2025-01-17 23:20:24.16	44.64	24.13	
2025-01-17 23:20:24.36	44.68	24.16	
2025-01-17 23:20:24.56	44.71	24.18	
2025-01-17 23:20:24.77	44.75	24.20	
2025-01-17 23:20:24.97	44.79	24.23	
2025-01-17 23:20:25.17	44.83	24.25	
2025-01-17 23:20:25.37	44.86	24.27	
2025-01-17 23:20:25.58	44.90	24.30	
2025-01-17 23:20:25.78	44.94	24.32	
2025-01-17 23:20:25.98	44.98	24.35	
2025-01-17 23:20:26.19	45.02	24.37	
2025-01-17 23:20:26.39	45.05	24.39	
2025-01-17 23:20:26.59	45.09	24.42	
2025-01-17 23:20:26.80	45.13	24.44	
2025-01-17 23:20:27.00	45.17	24.46	
2025-01-17 23:20:27.20	45.21	24.49	
2025-01-17 23:20:27.40	45.24	24.51	
2025-01-17 23:20:27.61	45.28	24.54	
2025-01-17 23:20:27.81	45.32	24.56	
2025-01-17 23:20:28.01	45.36	24.58	
2025-01-17 23:20:28.22	45.40	24.61	
2025-01-17 23:20:28.42	45.44	24.63	
2025-01-17 23:20:28.62	45.48	24.66	
2025-01-17 23:20:28.83	45.52	24.68	
2025-01-17 23:20:29.03	45.55	24.70	
2025-01-17 23:20:29.23	45.59	24.73	
2025-01-17 23:20:29.43	45.63	24.75	
2025-01-17 23:20:29.64	45.67	24.78	
2025-01-17 23:20:29.84	45.71	24.80	
2025-01-17 23:20:30.04	45.75	24.82	
2025-01-17 23:20:30.25	45.79	24.85	
2025-01-17 23:20:30.45	45.83	24.87	
2025-01-17 23:20:30.65	45.86	24.90	
2025-01-17 23:20:30.86	45.90	24.92	
2025-01-17 23:20:31.06	45.94	24.94	
2025-01-17 23:20:31.26	45.98	24.97	
2025-01-17 23:20:31.46	46.02	24.99	
2025-01-17 23:20:31.67	46.06	25.02	
2025-01-17 23:20:31.87	46.10	25.04	
2025-01-17 23:20:32.07	46.14	25.06	
2025-01-17 23:20:32.28	46.18	25.09	
2025-01-17 23:20:32.48	46.22	25.11	
2025-01-17 23:20:32.68	46.26	25.14	
2025-01-17 23:20:32.89	46.30	25.16	
2025-01-17 23:20:33.09	46.34	25.18	
2025-01-17 23:20:33.29	46.38	25.21	
2025-01-17 23:20:33.49	46.42	25.23	
2025-01-17 23:20:33.70	46.46	25.26	
2025-01-17 23:20:33.90	46.50	25.28	
2025-01-17 23:20:34.10	46.54	25.30	
2025-01-17 23:20:34.31	46.58	25.33	
2025-01-17 23:20:34.51	46.62	25.35	
2025-01-17 23:20:34.71	46.66	25.38	
2025-01-17 23:20:34.91	46.70	25.40	
2025-01-17 23:20:35.12	46.74	25.43	
2025-01-17 23:20:35.32	46.78	25.45	
2025-01-17 23:20:35.52	46.82	25.47	
2025-01-17 23:20:35.73	46.86	25.50	
2025-01-17 23:20:35.93	46.90	25.52	
2025-01-17 23:20:36.13	46.94	25.55	
2025-01-17 23:20:36.34	46.99	25.57	
2025-01-17 23:20:36.54	47.03	25.60	
2025-01-17 23:20:36.74	47.07	25.62	
2025-01-17 23:20:36.94	47.11	25.64	
2025-01-17 23:20:37.15	47.15	25.67	
2025-01-17 23:20:37.35	47.19	25.69	
2025-01-17 23:20:37.55	47.23	25.72	
2025-01-17 23:20:37.76	47.27	25.74	
2025-01-17 23:20:37.96	47.31	25.77	
2025-01-17 23:20:38.16	47.35	25.79	
2025-01-17 23:20:38.37	47.40	25.81	
2025-01-17 23:20:38.57	47.44	25.84	
2025-01-17 23:20:38.77	47.48	25.86	
2025-01-17 23:20:38.97	47.52	25.89	
2025-01-17 23:20:39.18	47.56	25.91	
2025-01-17 23:20:39.38	47.60	25.94	
2025-01-17 23:20:39.58	47.65	25.96	
2025-01-17 23:20:39.79	47.69	25.99	
2025-01-17 23:20:39.99	47.73	26.01	
2025-01-17 23:20:40.19	47.77	26.03	
2025-01-17 23:20:40.40	47.82	26.06	
2025-01-17 23:20:40.60	47.86	26.08	
2025-01-17 23:20:40.80	47.90	26.11	
2025-01-17 23:20:41.00	47.94	26.13	
2025-01-17 23:20:41.21	47.98	26.16	
2025-01-17 23:20:41.41	48.03	26.18	
2025-01-17 23:20:41.61	48.07	26.20	
2025-01-17 23:20:41.82	48.11	26.23	
2025-01-17 23:20:42.02	48.15	26.25	
2025-01-17 23:20:42.22	48.19	26.28	
2025-01-17 23:20:42.43	48.24	26.30	
2025-01-17 23:20:42.63	48.28	26.33	
2025-01-17 23:20:42.83	48.32	26.35	
2025-01-17 23:20:43.03	48.37	26.37	
2025-01-17 23:20:43.24	48.41	26.40	
2025-01-17 23:20:43.44	48.45	26.42	
2025-01-17 23:20:43.64	48.49	26.45	
2025-01-17 23:20:43.85	48.54	26.47	
2025-01-17 23:20:44.05	48.58	26.50	
2025-01-17 23:20:44.25	48.62	26.52	
2025-01-17 23:20:44.45	48.67	26.55	
2025-01-17 23:20:44.66	48.71	26.57	
2025-01-17 23:20:44.86	48.76	26.60	
2025-01-17 23:20:45.06	48.80	26.62	
2025-01-17 23:20:45.27	48.84	26.64	
2025-01-17 23:20:45.47	48.89	26.67	
2025-01-17 23:20:45.67	48.93	26.69	
2025-01-17 23:20:45.88	48.97	26.72	
2025-01-17 23:20:46.08	49.02	26.74	
2025-01-17 23:20:46.28	49.06	26.77	
2025-01-17 23:20:46.48	49.10	26.79	
2025-01-17 23:20:46.69	49.15	26.82	
2025-01-17 23:20:46.89	49.19	26.84	
2025-01-17 23:20:47.09	49.24	26.86	
2025-01-17 23:20:47.30	49.28	26.89	
2025-01-17 23:20:47.50	49.33	26.91	
2025-01-17 23:20:47.70	49.37	26.94	
2025-01-17 23:20:47.91	49.42	26.96	
2025-01-17 23:20:48.11	49.46	26.99	
2025-01-17 23:20:48.31	49.50	27.01	
2025-01-17 23:20:48.51	49.55	27.04	
2025-01-17 23:20:48.72	49.59	27.06	
2025-01-17 23:20:48.92	49.64	27.09	
2025-01-17 23:20:49.12	49.68	27.11	
2025-01-17 23:20:49.33	49.73	27.14	
2025-01-17 23:20:49.53	49.77	27.16	
2025-01-17 23:20:49.73	49.82	27.18	
2025-01-17 23:20:49.94	49.86	27.21	
2025-01-17 23:20:50.14	49.91	27.23	
2025-01-17 23:20:50.34	49.95	27.26	
2025-01-17 23:20:50.54	50.00	27.28	
2025-01-17 23:20:50.75	50.05	27.31	
2025-01-17 23:20:50.95	50.09	27.33	
2025-01-17 23:20:51.15	50.14	27.36	
2025-01-17 23:20:51.36	50.18	27.38	
2025-01-17 23:20:51.56	50.23	27.41	
2025-01-17 23:20:51.76	50.27	27.43	
2025-01-17 23:20:51.97	50.32	27.46	
2025-01-17 23:20:52.17	50.37	27.48	
2025-01-17 23:20:52.37	50.41	27.50	
2025-01-17 23:20:52.57	50.46	27.53	
2025-01-17 23:20:52.78	50.50	27.55	
2025-01-17 23:20:52.98	50.55	27.58	
2025-01-17 23:20:53.18	50.59	27.60	
2025-01-17 23:20:53.39	50.64	27.63	
2025-01-17 23:20:53.59	50.69	27.65	
2025-01-17 23:20:53.79	50.73	27.68	
2025-01-17 23:20:54.00	50.78	27.70	
2025-01-17 23:20:54.20	50.83	27.73	
2025-01-17 23:20:54.40	50.87	27.75	
2025-01-17 23:20:54.60	50.92	27.78	
2025-01-17 23:20:54.81	50.97	27.80	
2025-01-17 23:20:55.01	51.02	27.83	
2025-01-17 23:20:55.21	51.06	27.85	
2025-01-17 23:20:55.42	51.11	27.88	
2025-01-17 23:20:55.62	51.16	27.90	
2025-01-17 23:20:55.82	51.20	27.92	
2025-01-17 23:20:56.02	51.25	27.95	
2025-01-17 23:20:56.23	51.30	27.97	
2025-01-17 23:20:56.43	51.35	28.00	
2025-01-17 23:20:56.63	51.39	28.02	
2025-01-17 23:20:56.84	51.44	28.05	
2025-01-17 23:20:57.04	51.49	28.07	
2025-01-17 23:20:57.24	51.53	28.10	
2025-01-17 23:20:57.45	51.58	28.12	
2025-01-17 23:20:57.65	51.63	28.15	
2025-01-17 23:20:57.85	51.68	28.17	
2025-01-17 23:20:58.05	51.73	28.20	
2025-01-17 23:20:58.26	51.78	28.22	
2025-01-17 23:20:58.46	51.82	28.25	
2025-01-17 23:20:58.66	51.87	28.27	
2025-01-17 23:20:58.87	51.92	28.30	
2025-01-17 23:20:59.07	51.97	28.32	
2025-01-17 23:20:59.27	52.02	28.34	
2025-01-17 23:20:59.48	52.07	28.37	
2025-01-17 23:20:59.68	52.11	28.39	
2025-01-17 23:20:59.88	52.16	28.42	
2025-01-17 23:21:00.08	52.21	28.44	
2025-01-17 23:21:00.29	52.26	28.47	
2025-01-17 23:21:00.49	52.31	28.49	
2025-01-17 23:21:00.69	52.36	28.52	
2025-01-17 23:21:00.90	52.41	28.54	
2025-01-17 23:21:01.10	52.46	28.57	
2025-01-17 23:21:01.30	52.50	28.59	
2025-01-17 23:21:01.51	52.55	28.62	
2025-01-17 23:21:01.71	52.60	28.64	
2025-01-17 23:21:01.91	52.65	28.67	
2025-01-17 23:21:02.11	52.70	28.69	
2025-01-17 23:21:02.32	52.75	28.72	
2025-01-17 23:21:02.52	52.80	28.74	
2025-01-17 23:21:02.72	52.85	28.76	
2025-01-17 23:21:02.93	52.90	28.79	
2025-01-17 23:21:03.13	52.95	28.81	
2025-01-17 23:21:03.33	53.00	28.84	
2025-01-17 23:21:03.54	53.05	28.86	
2025-01-17 23:21:03.74	53.10	28.89	
2025-01-17 23:21:03.94	53.15	28.91	
2025-01-17 23:21:04.14	53.20	28.94	
2025-01-17 23:21:04.35	53.25	28.96	
2025-01-17 23:21:04.55	53.30	28.99	
2025-01-17 23:21:04.75	53.35	29.01	
2025-01-17 23:21:04.96	53.40	29.04	
2025-01-17 23:21:05.16	53.45	29.06	
2025-01-17 23:21:05.36	53.50	29.09	
2025-01-17 23:21:05.56	53.55	29.11	
2025-01-17 23:21:05.77	53.61	29.14	
2025-01-17 23:21:05.97	53.66	29.16	
2025-01-17 23:21:06.17	53.71	29.18	
2025-01-17 23:21:06.38	53.76	29.21	
2025-01-17 23:21:06.58	53.81	29.23	
2025-01-17 23:21:06.78	53.86	29.26	
2025-01-17 23:21:06.99	53.91	29.28	
2025-01-17 23:21:07.19	53.96	29.31	
2025-01-17 23:21:07.39	54.01	29.33	
2025-01-17 23:21:07.59	54.06	29.36	
2025-01-17 23:21:07.80	54.12	29.38	
2025-01-17 23:21:08.00	54.17	29.41	
2025-01-17 23:21:08.20	54.22	29.43	
2025-01-17 23:21:08.41	54.27	29.46	
2025-01-17 23:21:08.61	54.32	29.48	
2025-01-17 23:21:08.81	54.38	29.51	
2025-01-17 23:21:09.02	54.43	29.53	
2025-01-17 23:21:09.22	54.48	29.56	
2025-01-17 23:21:09.42	54.53	29.58	
2025-01-17 23:21:09.62	54.58	29.60	
2025-01-17 23:21:09.83	54.64	29.63	
2025-01-17 23:21:10.03	54.69	29.65	
2025-01-17 23:21:10.23	54.74	29.68	
2025-01-17 23:21:10.44	54.80	29.70	
2025-01-17 23:21:10.64	54.85	29.73	
2025-01-17 23:21:10.84	54.90	29.75	
2025-01-17 23:21:11.05	54.95	29.78	
2025-01-17 23:21:11.25	55.01	29.80	
2025-01-17 23:21:11.45	55.06	29.83	
2025-01-17 23:21:11.65	55.11	29.85	
2025-01-17 23:21:11.86	55.17	29.88	
2025-01-17 23:21:12.06	55.22	29.90	
2025-01-17 23:21:12.26	55.27	29.92	
2025-01-17 23:21:12.47	55.33	29.95	
2025-01-17 23:21:12.67	55.38	29.97	
2025-01-17 23:21:12.87	55.43	30.00	
2025-01-17 23:21:13.07	55.48	30.02	
2025-01-17 23:21:13.28	55.54	30.05	
2025-01-17 23:21:13.48	55.59	30.07	
2025-01-17 23:21:13.68	55.65	30.10	
2025-01-17 23:21:13.89	55.70	30.12	
2025-01-17 23:21:14.09	55.75	30.14	
2025-01-17 23:21:14.29	55.81	30.17	
2025-01-17 23:21:14.50	55.86	30.19	
2025-01-17 23:21:14.70	55.92	30.22	
2025-01-17 23:21:14.90	55.97	30.24	
2025-01-17 23:21:15.10	56.02	30.27	
2025-01-17 23:21:15.31	56.08	30.29	
2025-01-17 23:21:15.51	56.13	30.32	
2025-01-17 23:21:15.71	56.19	30.34	
2025-01-17 23:21:15.92	56.25	30.37	
2025-01-17 23:21:16.12	56.30	30.39	
2025-01-17 23:21:16.32	56.35	30.41	
2025-01-17 23:21:16.53	56.41	30.44	
2025-01-17 23:21:16.73	56.46	30.46	
2025-01-17 23:21:16.93	56.52	30.49	
2025-01-17 23:21:17.13	56.57	30.51	
2025-01-17 23:21:17.34	56.63	30.54	
2025-01-17 23:21:17.54	56.69	30.56	
2025-01-17 23:21:17.74	56.74	30.58	
2025-01-17 23:21:17.95	56.80	30.61	
2025-01-17 23:21:18.15	56.85	30.63	
2025-01-17 23:21:18.35	56.91	30.66	
2025-01-17 23:21:18.56	56.97	30.68	
2025-01-17 23:21:18.76	57.02	30.71	
2025-01-17 23:21:18.96	57.08	30.73	
2025-01-17 23:21:19.16	57.13	30.76	
2025-01-17 23:21:19.37	57.19	30.78	
2025-01-17 23:21:19.57	57.24	30.80	
2025-01-17 23:21:19.77	57.30	30.83	
2025-01-17 23:21:19.98	57.36	30.85	
2025-01-17 23:21:20.18	57.41	30.88	
2025-01-17 23:21:20.38	57.47	30.90	
2025-01-17 23:21:20.59	57.53	30.93	
2025-01-17 23:21:20.79	57.58	30.95	
2025-01-17 23:21:20.99	57.64	30.97	
2025-01-17 23:21:21.19	57.70	31.00	
2025-01-17 23:21:21.40	57.75	31.02	
2025-01-17 23:21:21.60	57.81	31.05	
2025-01-17 23:21:21.80	57.87	31.07	
2025-01-17 23:21:22.01	57.93	31.10	
2025-01-17 23:21:22.21	57.98	31.12	
2025-01-17 23:21:22.41	58.04	31.14	
2025-01-17 23:21:22.62	58.10	31.17	
2025-01-17 23:21:22.82	58.16	31.19	
2025-01-17 23:21:23.02	58.21	31.22	
2025-01-17 23:21:23.22	58.27	31.24	
2025-01-17 23:21:23.43	58.33	31.27	
2025-01-17 23:21:23.63	58.39	31.29	
2025-01-17 23:21:23.83	58.44	31.31	
2025-01-17 23:21:24.04	58.50	31.34	
2025-01-17 23:21:24.24	58.56	31.36	
2025-01-17 23:21:24.44	58.62	31.39	
2025-01-17 23:21:24.65	58.68	31.41	
2025-01-17 23:21:24.85	58.74	31.43	
2025-01-17 23:21:25.05	58.79	31.46	
2025-01-17 23:21:25.25	58.85	31.48	
2025-01-17 23:21:25.46	58.91	31.51	
2025-01-17 23:21:25.66	58.97	31.53	
2025-01-17 23:21:25.86	59.03	31.55	
2025-01-17 23:21:26.07	59.09	31.58	
2025-01-17 23:21:26.27	59.15	31.60	
2025-01-17 23:21:26.47	59.21	31.63	
2025-01-17 23:21:26.67	59.26	31.65	
2025-01-17 23:21:26.88	59.33	31.67	
2025-01-17 23:21:27.08	59.38	31.70	
2025-01-17 23:21:27.28	59.44	31.72	
2025-01-17 23:21:27.49	59.50	31.75	
2025-01-17 23:21:27.69	59.56	31.77	
2025-01-17 23:21:27.89	59.62	31.79	
2025-01-17 23:21:28.10	59.68	31.82	
2025-01-17 23:21:28.30	59.74	31.84	
2025-01-17 23:21:28.50	59.80	31.86	
2025-01-17 23:21:28.70	59.86	31.89	
2025-01-17 23:21:28.91	59.92	31.91	
2025-01-17 23:21:29.11	59.98	31.94	
2025-01-17 23:21:29.31	60.04	31.96	
2025-01-17 23:21:29.52	60.11	31.98	
2025-01-17 23:21:29.72	60.16	32.01	
2025-01-17 23:21:29.92	60.22	32.03	
2025-01-17 23:21:30.13	60.29	32.05	
2025-01-17 23:21:30.33	60.35	32.08	
2025-01-17 23:21:30.53	60.41	32.10	
2025-01-17 23:21:30.73	60.47	32.12	
2025-01-17 23:21:30.94	60.53	32.15	
2025-01-17 23:21:31.14	60.59	32.17	
2025-01-17 23:21:31.34	60.65	32.20	
2025-01-17 23:21:31.55	60.71	32.22	
2025-01-17 23:21:31.75	60.77	32.24	
2025-01-17 23:21:31.95	60.84	32.27	
2025-01-17 23:21:32.16	60.90	32.29	
2025-01-17 23:21:32.36	60.96	32.31	
2025-01-17 23:21:32.56	61.02	32.34	
2025-01-17 23:21:32.76	61.08	32.36	
2025-01-17 23:21:32.97	61.15	32.38	
2025-01-17 23:21:33.17	61.21	32.41	
2025-01-17 23:21:33.37	61.27	32.43	
2025-01-17 23:21:33.58	61.33	32.45	
2025-01-17 23:21:33.78	61.39	32.48	
2025-01-17 23:21:33.98	61.45	32.50	
2025-01-17 23:21:34.19	61.52	32.52	
2025-01-17 23:21:34.39	61.58	32.55	
2025-01-17 23:21:34.59	61.64	32.57	
2025-01-17 23:21:34.79	61.70	32.59	
2025-01-17 23:21:35.00	61.77	32.62	
2025-01-17 23:21:35.20	61.83	32.64	
2025-01-17 23:21:35.40	61.89	32.66	
2025-01-17 23:21:35.61	61.96	32.69	
2025-01-17 23:21:35.81	62.02	32.71	
2025-01-17 23:21:36.01	62.08	32.73	
2025-01-17 23:21:36.21	62.15	32.76	
2025-01-17 23:21:36.42	62.21	32.78	
2025-01-17 23:21:36.62	62.27	32.80	
2025-01-17 23:21:36.82	62.34	32.83	
2025-01-17 23:21:37.03	62.40	32.85	
2025-01-17 23:21:37.23	62.47	32.87	
2025-01-17 23:21:37.43	62.53	32.89	
2025-01-17 23:21:37.64	62.59	32.92	
2025-01-17 23:21:37.84	62.66	32.94	
2025-01-17 23:21:38.04	62.72	32.96	
2025-01-17 23:21:38.24	62.78	32.99	
2025-01-17 23:21:38.45	62.85	33.01	
2025-01-17 23:21:38.65	62.91	33.03	
2025-01-17 23:21:38.85	62.98	33.06	
2025-01-17 23:21:39.06	63.04	33.08	
2025-01-17 23:21:39.26	63.11	33.10	
2025-01-17 23:21:39.46	63.17	33.12	
2025-01-17 23:21:39.67	63.24	33.15	
2025-01-17 23:21:39.87	63.30	33.17	
2025-01-17 23:21:40.07	63.37	33.19	
2025-01-17 23:21:40.27	63.43	33.21	
2025-01-17 23:21:40.48	63.50	33.24	
2025-01-17 23:21:40.68	63.56	33.26	
2025-01-17 23:21:40.88	63.63	33.28	
2025-01-17 23:21:41.09	63.70	33.31	
2025-01-17 23:21:41.29	63.76	33.33	
2025-01-17 23:21:41.49	63.82	33.35	
2025-01-17 23:21:41.70	63.89	33.37	
2025-01-17 23:21:41.90	63.96	33.40	
2025-01-17 23:21:42.10	64.02	33.42	
2025-01-17 23:21:42.30	64.09	33.44	
2025-01-17 23:21:42.51	64.16	33.46	
2025-01-17 23:21:42.71	64.22	33.49	
2025-01-17 23:21:42.91	64.29	33.51	
2025-01-17 23:21:43.12	64.36	33.53	
2025-01-17 23:21:43.32	64.42	33.55	
2025-01-17 23:21:43.52	64.49	33.58	
2025-01-17 23:21:43.73	64.56	33.60	
2025-01-17 23:21:43.93	64.62	33.62	
2025-01-17 23:21:44.13	64.69	33.64	
2025-01-17 23:21:44.33	64.75	33.66	
2025-01-17 23:21:44.54	64.82	33.69	
2025-01-17 23:21:44.74	64.89	33.71	
2025-01-17 23:21:44.94	64.95	33.73	
2025-01-17 23:21:45.15	65.02	33.75	
2025-01-17 23:21:45.35	65.09	33.78	
2025-01-17 23:21:45.55	65.16	33.80	
2025-01-17 23:21:45.75	65.22	33.82	
2025-01-17 23:21:45.96	65.29	33.84	
2025-01-17 23:21:46.16	65.36	33.86	
2025-01-17 23:21:46.36	65.43	33.89	
2025-01-17 23:21:46.57	65.50	33.91	
2025-01-17 23:21:46.77	65.56	33.93	
2025-01-17 23:21:46.97	65.63	33.95	
2025-01-17 23:21:47.18	65.70	33.97	
2025-01-17 23:21:47.38	65.77	34.00	
2025-01-17 23:21:47.58	65.84	34.02	
2025-01-17 23:21:47.78	65.90	34.04	
2025-01-17 23:21:47.99	65.98	34.06	
2025-01-17 23:21:48.19	66.04	34.08	
2025-01-17 23:21:48.39	66.11	34.10	
2025-01-17 23:21:48.60	66.18	34.13	
2025-01-17 23:21:48.80	66.25	34.15	
2025-01-17 23:21:49.00	66.32	34.17	
2025-01-17 23:21:49.21	66.39	34.19	
2025-01-17 23:21:49.41	66.46	34.21	
2025-01-17 23:21:49.61	66.53	34.23	
2025-01-17 23:21:49.81	66.59	34.25	
2025-01-17 23:21:50.02	66.67	34.28	
2025-01-17 23:21:50.22	66.73	34.30	
2025-01-17 23:21:50.42	66.80	34.32	
2025-01-17 23:21:50.63	66.87	34.34	
2025-01-17 23:21:50.83	66.94	34.36	
2025-01-17 23:21:51.03	67.01	34.38	
2025-01-17 23:21:51.24	67.08	34.40	
2025-01-17 23:21:51.44	67.15	34.43	
2025-01-17 23:21:51.64	67.22	34.45	
2025-01-17 23:21:51.84	67.29	34.47	
2025-01-17 23:21:52.05	67.37	34.49	
2025-01-17 23:21:52.25	67.43	34.51	
2025-01-17 23:21:52.45	67.50	34.53	
2025-01-17 23:21:52.66	67.58	34.55	
2025-01-17 23:21:52.86	67.65	34.57	
2025-01-17 23:21:53.06	67.72	34.59	
2025-01-17 23:21:53.27	67.79	34.61	
2025-01-17 23:21:53.47	67.86	34.64	
2025-01-17 23:21:53.67	67.93	34.66	
2025-01-17 23:21:53.87	68.00	34.68	
2025-01-17 23:21:54.08	68.07	34.70	
2025-01-17 23:21:54.28	68.14	34.72	
2025-01-17 23:21:54.48	68.21	34.74	
2025-01-17 23:21:54.69	68.29	34.76	
2025-01-17 23:21:54.89	68.36	34.78	
2025-01-17 23:21:55.09	68.43	34.80	
2025-01-17 23:21:55.29	68.50	34.82	
2025-01-17 23:21:55.50	68.57	34.84	
2025-01-17 23:21:55.70	68.65	34.86	
2025-01-17 23:21:55.90	68.72	34.88	
2025-01-17 23:21:56.11	68.79	34.90	
2025-01-17 23:21:56.31	68.86	34.92	
2025-01-17 23:21:56.51	68.93	34.94	
2025-01-17 23:21:56.72	69.01	34.96	
2025-01-17 23:21:56.92	69.08	34.98	
2025-01-17 23:21:57.12	69.15	35.00	
2025-01-17 23:21:57.32	69.22	35.02	
2025-01-17 23:21:57.53	69.30	35.05	
2025-01-17 23:21:57.73	69.37	35.07	
2025-01-17 23:21:57.93	69.44	35.09	
2025-01-17 23:21:58.14	69.52	35.11	
2025-01-17 23:21:58.34	69.59	35.13	
2025-01-17 23:21:58.54	69.66	35.15	
2025-01-17 23:21:58.75	69.74	35.17	
2025-01-17 23:21:58.95	69.81	35.19	
2025-01-17 23:21:59.15	69.88	35.20	
2025-01-17 23:21:59.35	69.96	35.22	
2025-01-17 23:21:59.56	70.03	35.24	
2025-01-17 23:21:59.76	70.10	35.26	
2025-01-17 23:21:59.96	70.18	35.28	
2025-01-17 23:22:00.17	70.25	35.30	
2025-01-17 23:22:00.37	70.33	35.32	
2025-01-17 23:22:00.57	70.40	35.34	
2025-01-17 23:22:00.78	70.48	35.36	
2025-01-17 23:22:00.98	70.55	35.38	
2025-01-17 23:22:01.18	70.62	35.40	
2025-01-17 23:22:01.38	70.70	35.42	
2025-01-17 23:22:01.59	70.77	35.44	
2025-01-17 23:22:01.79	70.85	35.46	
2025-01-17 23:22:01.99	70.92	35.48	
2025-01-17 23:22:02.20	71.00	35.50	
2025-01-17 23:22:02.40	71.07	35.52	
2025-01-17 23:22:02.60	71.15	35.54	
2025-01-17 23:22:02.81	71.22	35.56	
2025-01-17 23:22:03.01	71.30	35.57	
2025-01-17 23:22:03.21	71.37	35.59	
2025-01-17 23:22:03.41	71.45	35.61	
2025-01-17 23:22:03.62	71.52	35.63	
2025-01-17 23:22:03.82	71.60	35.65	
2025-01-17 23:22:04.02	71.67	35.67	
2025-01-17 23:22:04.23	71.75	35.69	
2025-01-17 23:22:04.43	71.83	35.71	
2025-01-17 23:22:04.63	71.90	35.73	
2025-01-17 23:22:04.84	71.98	35.74	
2025-01-17 23:22:05.04	72.05	35.76	
2025-01-17 23:22:05.24	72.13	35.78	
2025-01-17 23:22:05.44	72.20	35.80	
2025-01-17 23:22:05.65	72.28	35.82	
2025-01-17 23:22:05.85	72.36	35.84	
2025-01-17 23:22:06.05	72.43	35.86	
2025-01-17 23:22:06.26	72.51	35.87	
2025-01-17 23:22:06.46	72.59	35.89	
2025-01-17 23:22:06.66	72.66	35.91	
2025-01-17 23:22:06.86	72.74	35.93	
2025-01-17 23:22:07.07	72.82	35.95	
2025-01-17 23:22:07.27	72.89	35.96	
2025-01-17 23:22:07.47	72.97	35.98	
2025-01-17 23:22:07.68	73.05	36.00	
2025-01-17 23:22:07.88	73.13	36.02	
2025-01-17 23:22:08.08	73.20	36.04	
2025-01-17 23:22:08.29	73.28	36.06	
2025-01-17 23:22:08.49	73.36	36.07	
2025-01-17 23:22:08.69	73.44	36.09	
2025-01-17 23:22:08.89	73.51	36.11	
2025-01-17 23:22:09.10	73.59	36.13	
2025-01-17 23:22:09.30	73.67	36.14	
2025-01-17 23:22:09.50	73.75	36.16	
2025-01-17 23:22:09.71	73.83	36.18	
2025-01-17 23:22:09.91	73.90	36.20	
2025-01-17 23:22:10.11	73.98	36.21	
2025-01-17 23:22:10.32	74.06	36.23	
2025-01-17 23:22:10.52	74.14	36.25	
2025-01-17 23:22:10.72	74.22	36.27	
2025-01-17 23:22:10.92	74.29	36.28	
2025-01-17 23:22:11.13	74.37	36.30	
2025-01-17 23:22:11.33	74.45	36.32	
2025-01-17 23:22:11.53	74.53	36.33	
2025-01-17 23:22:11.74	74.61	36.35	
2025-01-17 23:22:11.94	74.69	36.37	
2025-01-17 23:22:12.14	74.77	36.39	
