passes_logs/2025/01/17/SPB_Silybum_02/SPB_Silybum_02__20250117_171801_TERRA_rec.log

#Pass ID: 20250117_171801_TERRA
#Satellite: TERRA
#Configuration: TERRA
#Start time: 2025-01-17 17:18:02

#Version: 2.0.20230423
#Station: SPB_Silybum_02
#Location: 30.233357 lon 59.946436 lat
#TLE: 1 25994U 99068A   25016.77398677  .00000840  00000+0  18282-3 0  9994
#TLE: 2 25994  98.0212  79.7479 0003409  69.0484  40.6664 14.60398530334334

#Time	Az	El	Level	Level2	SNR	BER	Gain	Gain2
2025-01-17 17:18:04.18	123.62	4.20	
2025-01-17 17:18:04.39	123.61	4.22	
2025-01-17 17:18:04.59	123.60	4.23	
2025-01-17 17:18:04.79	123.58	4.24	
2025-01-17 17:18:05.00	123.57	4.26	
2025-01-17 17:18:05.20	123.56	4.27	
2025-01-17 17:18:05.40	123.55	4.29	
2025-01-17 17:18:05.61	123.53	4.30	
2025-01-17 17:18:05.81	123.52	4.31	
2025-01-17 17:18:06.01	123.51	4.33	
2025-01-17 17:18:06.22	123.50	4.34	
2025-01-17 17:18:06.42	123.48	4.35	
2025-01-17 17:18:06.62	123.47	4.37	
2025-01-17 17:18:06.82	123.46	4.38	
2025-01-17 17:18:07.03	123.45	4.40	
2025-01-17 17:18:07.23	123.43	4.41	
2025-01-17 17:18:07.43	123.42	4.42	
2025-01-17 17:18:07.64	123.41	4.44	
2025-01-17 17:18:07.84	123.39	4.45	
2025-01-17 17:18:08.04	123.38	4.46	
2025-01-17 17:18:08.25	123.37	4.48	
2025-01-17 17:18:08.45	123.36	4.49	
2025-01-17 17:18:08.65	123.34	4.51	
2025-01-17 17:18:08.86	123.33	4.52	
2025-01-17 17:18:09.06	123.32	4.53	
2025-01-17 17:18:09.26	123.30	4.55	
2025-01-17 17:18:09.46	123.29	4.56	
2025-01-17 17:18:09.67	123.28	4.58	
2025-01-17 17:18:09.87	123.27	4.59	
2025-01-17 17:18:10.07	123.25	4.60	
2025-01-17 17:18:10.28	123.24	4.62	
2025-01-17 17:18:10.48	123.23	4.63	
2025-01-17 17:18:10.68	123.21	4.64	
2025-01-17 17:18:10.89	123.20	4.66	
2025-01-17 17:18:11.09	123.19	4.67	
2025-01-17 17:18:11.29	123.18	4.69	
2025-01-17 17:18:11.50	123.16	4.70	
2025-01-17 17:18:11.70	123.15	4.71	
2025-01-17 17:18:11.90	123.14	4.73	
2025-01-17 17:18:12.10	123.12	4.74	
2025-01-17 17:18:12.31	123.11	4.76	
2025-01-17 17:18:12.51	123.10	4.77	
2025-01-17 17:18:12.71	123.08	4.78	
2025-01-17 17:18:12.92	123.07	4.80	
2025-01-17 17:18:13.12	123.06	4.81	
2025-01-17 17:18:13.32	123.04	4.83	
2025-01-17 17:18:13.53	123.03	4.84	
2025-01-17 17:18:13.73	123.02	4.85	
2025-01-17 17:18:13.93	123.01	4.87	
2025-01-17 17:18:14.14	122.99	4.88	
2025-01-17 17:18:14.34	122.98	4.90	
2025-01-17 17:18:14.54	122.97	4.91	
2025-01-17 17:18:14.74	122.95	4.92	
2025-01-17 17:18:14.95	122.94	4.94	
2025-01-17 17:18:15.15	122.93	4.95	
2025-01-17 17:18:15.35	122.91	4.97	
2025-01-17 17:18:15.56	122.90	4.98	
2025-01-17 17:18:15.76	122.89	4.99	
2025-01-17 17:18:15.96	122.87	5.01	
2025-01-17 17:18:16.17	122.86	5.02	
2025-01-17 17:18:16.37	122.85	5.04	
2025-01-17 17:18:16.57	122.83	5.05	
2025-01-17 17:18:16.78	122.82	5.07	
2025-01-17 17:18:16.98	122.81	5.08	
2025-01-17 17:18:17.18	122.79	5.09	
2025-01-17 17:18:17.38	122.78	5.11	
2025-01-17 17:18:17.59	122.76	5.12	
2025-01-17 17:18:17.79	122.75	5.14	
2025-01-17 17:18:17.99	122.74	5.15	
2025-01-17 17:18:18.20	122.72	5.16	
2025-01-17 17:18:18.40	122.71	5.18	
2025-01-17 17:18:18.60	122.70	5.19	
2025-01-17 17:18:18.81	122.68	5.21	
2025-01-17 17:18:19.01	122.67	5.22	
2025-01-17 17:18:19.21	122.66	5.23	
2025-01-17 17:18:19.42	122.64	5.25	
2025-01-17 17:18:19.62	122.63	5.26	
2025-01-17 17:18:19.82	122.62	5.28	
2025-01-17 17:18:20.02	122.60	5.29	
2025-01-17 17:18:20.23	122.59	5.31	
2025-01-17 17:18:20.43	122.58	5.32	
2025-01-17 17:18:20.63	122.56	5.33	
2025-01-17 17:18:20.84	122.55	5.35	
2025-01-17 17:18:21.04	122.53	5.36	
2025-01-17 17:18:21.24	122.52	5.38	
2025-01-17 17:18:21.45	122.51	5.39	
2025-01-17 17:18:21.65	122.49	5.41	
2025-01-17 17:18:21.85	122.48	5.42	
2025-01-17 17:18:22.05	122.47	5.43	
2025-01-17 17:18:22.26	122.45	5.45	
2025-01-17 17:18:22.46	122.44	5.46	
2025-01-17 17:18:22.66	122.42	5.48	
2025-01-17 17:18:22.87	122.41	5.49	
2025-01-17 17:18:23.07	122.40	5.51	
2025-01-17 17:18:23.27	122.38	5.52	
2025-01-17 17:18:23.48	122.37	5.54	
2025-01-17 17:18:23.68	122.35	5.55	
2025-01-17 17:18:23.88	122.34	5.56	
2025-01-17 17:18:24.09	122.33	5.58	
2025-01-17 17:18:24.29	122.31	5.59	
2025-01-17 17:18:24.49	122.30	5.61	
2025-01-17 17:18:24.69	122.29	5.62	
2025-01-17 17:18:24.90	122.27	5.64	
2025-01-17 17:18:25.10	122.26	5.65	
2025-01-17 17:18:25.30	122.24	5.66	
2025-01-17 17:18:25.51	122.23	5.68	
2025-01-17 17:18:25.71	122.21	5.69	
2025-01-17 17:18:25.91	122.20	5.71	
2025-01-17 17:18:26.12	122.19	5.72	
2025-01-17 17:18:26.32	122.17	5.74	
2025-01-17 17:18:26.52	122.16	5.75	
2025-01-17 17:18:26.73	122.14	5.77	
2025-01-17 17:18:26.93	122.13	5.78	
2025-01-17 17:18:27.13	122.12	5.79	
2025-01-17 17:18:27.33	122.10	5.81	
2025-01-17 17:18:27.54	122.09	5.82	
2025-01-17 17:18:27.74	122.07	5.84	
2025-01-17 17:18:27.94	122.06	5.85	
2025-01-17 17:18:28.15	122.04	5.87	
2025-01-17 17:18:28.35	122.03	5.88	
2025-01-17 17:18:28.55	122.02	5.90	
2025-01-17 17:18:28.76	122.00	5.91	
2025-01-17 17:18:28.96	121.99	5.92	
2025-01-17 17:18:29.16	121.97	5.94	
2025-01-17 17:18:29.37	121.96	5.95	
2025-01-17 17:18:29.57	121.94	5.97	
2025-01-17 17:18:29.77	121.93	5.98	
2025-01-17 17:18:29.97	121.92	6.00	
2025-01-17 17:18:30.18	121.90	6.01	
2025-01-17 17:18:30.38	121.89	6.03	
2025-01-17 17:18:30.58	121.87	6.04	
2025-01-17 17:18:30.79	121.86	6.06	
2025-01-17 17:18:30.99	121.84	6.07	
2025-01-17 17:18:31.19	121.83	6.09	
2025-01-17 17:18:31.40	121.81	6.10	
2025-01-17 17:18:31.60	121.80	6.11	
2025-01-17 17:18:31.80	121.79	6.13	
2025-01-17 17:18:32.01	121.77	6.14	
2025-01-17 17:18:32.21	121.76	6.16	
2025-01-17 17:18:32.41	121.74	6.17	
2025-01-17 17:18:32.61	121.73	6.19	
2025-01-17 17:18:32.82	121.71	6.20	
2025-01-17 17:18:33.02	121.70	6.22	
2025-01-17 17:18:33.22	121.68	6.23	
2025-01-17 17:18:33.43	121.67	6.25	
2025-01-17 17:18:33.63	121.65	6.26	
2025-01-17 17:18:33.83	121.64	6.28	
2025-01-17 17:18:34.04	121.62	6.29	
2025-01-17 17:18:34.24	121.61	6.31	
2025-01-17 17:18:34.44	121.60	6.32	
2025-01-17 17:18:34.65	121.58	6.34	
2025-01-17 17:18:34.85	121.57	6.35	
2025-01-17 17:18:35.05	121.55	6.36	
2025-01-17 17:18:35.25	121.54	6.38	
2025-01-17 17:18:35.46	121.52	6.39	
2025-01-17 17:18:35.66	121.51	6.41	
2025-01-17 17:18:35.86	121.49	6.42	
2025-01-17 17:18:36.07	121.48	6.44	
2025-01-17 17:18:36.27	121.46	6.45	
2025-01-17 17:18:36.47	121.45	6.47	
2025-01-17 17:18:36.68	121.43	6.48	
2025-01-17 17:18:36.88	121.42	6.50	
2025-01-17 17:18:37.08	121.40	6.51	
2025-01-17 17:18:37.29	121.39	6.53	
2025-01-17 17:18:37.49	121.37	6.54	
2025-01-17 17:18:37.69	121.36	6.56	
2025-01-17 17:18:37.89	121.34	6.57	
2025-01-17 17:18:38.10	121.33	6.59	
2025-01-17 17:18:38.30	121.31	6.60	
2025-01-17 17:18:38.50	121.30	6.62	
2025-01-17 17:18:38.71	121.28	6.63	
2025-01-17 17:18:38.91	121.27	6.65	
2025-01-17 17:18:39.11	121.25	6.66	
2025-01-17 17:18:39.32	121.24	6.68	
2025-01-17 17:18:39.52	121.22	6.69	
2025-01-17 17:18:39.72	121.21	6.71	
2025-01-17 17:18:39.93	121.19	6.72	
2025-01-17 17:18:40.13	121.17	6.74	
2025-01-17 17:18:40.33	121.16	6.75	
2025-01-17 17:18:40.53	121.14	6.77	
2025-01-17 17:18:40.74	121.13	6.78	
2025-01-17 17:18:40.94	121.11	6.80	
2025-01-17 17:18:41.14	121.10	6.81	
2025-01-17 17:18:41.35	121.08	6.83	
2025-01-17 17:18:41.55	121.07	6.84	
2025-01-17 17:18:41.75	121.05	6.86	
2025-01-17 17:18:41.96	121.04	6.87	
2025-01-17 17:18:42.16	121.02	6.89	
2025-01-17 17:18:42.36	121.01	6.90	
2025-01-17 17:18:42.57	120.99	6.92	
2025-01-17 17:18:42.77	120.97	6.93	
2025-01-17 17:18:42.97	120.96	6.95	
2025-01-17 17:18:43.17	120.94	6.96	
2025-01-17 17:18:43.38	120.93	6.98	
2025-01-17 17:18:43.58	120.91	6.99	
2025-01-17 17:18:43.78	120.90	7.01	
2025-01-17 17:18:43.99	120.88	7.02	
2025-01-17 17:18:44.19	120.87	7.04	
2025-01-17 17:18:44.39	120.85	7.05	
2025-01-17 17:18:44.60	120.83	7.07	
2025-01-17 17:18:44.80	120.82	7.08	
2025-01-17 17:18:45.00	120.80	7.10	
2025-01-17 17:18:45.21	120.79	7.11	
2025-01-17 17:18:45.41	120.77	7.13	
2025-01-17 17:18:45.61	120.76	7.14	
2025-01-17 17:18:45.81	120.74	7.16	
2025-01-17 17:18:46.02	120.72	7.17	
2025-01-17 17:18:46.22	120.71	7.19	
2025-01-17 17:18:46.42	120.69	7.20	
2025-01-17 17:18:46.63	120.68	7.22	
2025-01-17 17:18:46.83	120.66	7.23	
2025-01-17 17:18:47.03	120.65	7.25	
2025-01-17 17:18:47.24	120.63	7.27	
2025-01-17 17:18:47.44	120.61	7.28	
2025-01-17 17:18:47.64	120.60	7.30	
2025-01-17 17:18:47.85	120.58	7.31	
2025-01-17 17:18:48.05	120.57	7.33	
2025-01-17 17:18:48.25	120.55	7.34	
2025-01-17 17:18:48.45	120.53	7.36	
2025-01-17 17:18:48.66	120.52	7.37	
2025-01-17 17:18:48.86	120.50	7.39	
2025-01-17 17:18:49.06	120.49	7.40	
2025-01-17 17:18:49.27	120.47	7.42	
2025-01-17 17:18:49.47	120.45	7.43	
2025-01-17 17:18:49.67	120.44	7.45	
2025-01-17 17:18:49.88	120.42	7.46	
2025-01-17 17:18:50.08	120.41	7.48	
2025-01-17 17:18:50.28	120.39	7.49	
2025-01-17 17:18:50.49	120.37	7.51	
2025-01-17 17:18:50.69	120.36	7.53	
2025-01-17 17:18:50.89	120.34	7.54	
2025-01-17 17:18:51.09	120.33	7.56	
2025-01-17 17:18:51.30	120.31	7.57	
2025-01-17 17:18:51.50	120.29	7.59	
2025-01-17 17:18:51.70	120.28	7.60	
2025-01-17 17:18:51.91	120.26	7.62	
2025-01-17 17:18:52.11	120.24	7.63	
2025-01-17 17:18:52.31	120.23	7.65	
2025-01-17 17:18:52.52	120.21	7.66	
2025-01-17 17:18:52.72	120.19	7.68	
2025-01-17 17:18:52.92	120.18	7.70	
2025-01-17 17:18:53.13	120.16	7.71	
2025-01-17 17:18:53.33	120.14	7.73	
2025-01-17 17:18:53.53	120.13	7.74	
2025-01-17 17:18:53.73	120.11	7.76	
2025-01-17 17:18:53.94	120.10	7.77	
2025-01-17 17:18:54.14	120.08	7.79	
2025-01-17 17:18:54.34	120.06	7.80	
2025-01-17 17:18:54.55	120.05	7.82	
2025-01-17 17:18:54.75	120.03	7.83	
2025-01-17 17:18:54.95	120.01	7.85	
2025-01-17 17:18:55.16	120.00	7.87	
2025-01-17 17:18:55.36	119.98	7.88	
2025-01-17 17:18:55.56	119.96	7.90	
2025-01-17 17:18:55.77	119.95	7.91	
2025-01-17 17:18:55.97	119.93	7.93	
2025-01-17 17:18:56.17	119.91	7.94	
2025-01-17 17:18:56.37	119.90	7.96	
2025-01-17 17:18:56.58	119.88	7.98	
2025-01-17 17:18:56.78	119.86	7.99	
2025-01-17 17:18:56.98	119.85	8.01	
2025-01-17 17:18:57.19	119.83	8.02	
2025-01-17 17:18:57.39	119.81	8.04	
2025-01-17 17:18:57.59	119.80	8.05	
2025-01-17 17:18:57.80	119.78	8.07	
2025-01-17 17:18:58.00	119.76	8.08	
2025-01-17 17:18:58.20	119.74	8.10	
2025-01-17 17:18:58.41	119.73	8.12	
2025-01-17 17:18:58.61	119.71	8.13	
2025-01-17 17:18:58.81	119.69	8.15	
2025-01-17 17:18:59.01	119.68	8.16	
2025-01-17 17:18:59.22	119.66	8.18	
2025-01-17 17:18:59.42	119.64	8.19	
2025-01-17 17:18:59.62	119.63	8.21	
2025-01-17 17:18:59.83	119.61	8.23	
2025-01-17 17:19:00.03	119.59	8.24	
2025-01-17 17:19:00.23	119.57	8.26	
2025-01-17 17:19:00.44	119.56	8.27	
2025-01-17 17:19:00.64	119.54	8.29	
2025-01-17 17:19:00.84	119.52	8.31	
2025-01-17 17:19:01.05	119.50	8.32	
2025-01-17 17:19:01.25	119.49	8.34	
2025-01-17 17:19:01.45	119.47	8.35	
2025-01-17 17:19:01.65	119.45	8.37	
2025-01-17 17:19:01.86	119.44	8.38	
2025-01-17 17:19:02.06	119.42	8.40	
2025-01-17 17:19:02.26	119.40	8.42	
2025-01-17 17:19:02.47	119.38	8.43	
2025-01-17 17:19:02.67	119.37	8.45	
2025-01-17 17:19:02.87	119.35	8.46	
2025-01-17 17:19:03.08	119.33	8.48	
2025-01-17 17:19:03.28	119.31	8.50	
2025-01-17 17:19:03.48	119.30	8.51	
2025-01-17 17:19:03.69	119.28	8.53	
2025-01-17 17:19:03.89	119.26	8.54	
2025-01-17 17:19:04.09	119.24	8.56	
2025-01-17 17:19:04.29	119.23	8.58	
2025-01-17 17:19:04.50	119.21	8.59	
2025-01-17 17:19:04.70	119.19	8.61	
2025-01-17 17:19:04.90	119.17	8.62	
2025-01-17 17:19:05.11	119.16	8.64	
2025-01-17 17:19:05.31	119.14	8.66	
2025-01-17 17:19:05.51	119.12	8.67	
2025-01-17 17:19:05.72	119.10	8.69	
2025-01-17 17:19:05.92	119.09	8.70	
2025-01-17 17:19:06.12	119.07	8.72	
2025-01-17 17:19:06.33	119.05	8.74	
2025-01-17 17:19:06.53	119.03	8.75	
2025-01-17 17:19:06.73	119.01	8.77	
2025-01-17 17:19:06.93	119.00	8.78	
2025-01-17 17:19:07.14	118.98	8.80	
2025-01-17 17:19:07.34	118.96	8.82	
2025-01-17 17:19:07.54	118.94	8.83	
2025-01-17 17:19:07.75	118.92	8.85	
2025-01-17 17:19:07.95	118.91	8.86	
2025-01-17 17:19:08.15	118.89	8.88	
2025-01-17 17:19:08.36	118.87	8.90	
2025-01-17 17:19:08.56	118.85	8.91	
2025-01-17 17:19:08.76	118.84	8.93	
2025-01-17 17:19:08.97	118.82	8.95	
2025-01-17 17:19:09.17	118.80	8.96	
2025-01-17 17:19:09.37	118.78	8.98	
2025-01-17 17:19:09.57	118.76	8.99	
2025-01-17 17:19:09.78	118.74	9.01	
2025-01-17 17:19:09.98	118.73	9.03	
2025-01-17 17:19:10.18	118.71	9.04	
2025-01-17 17:19:10.39	118.69	9.06	
2025-01-17 17:19:10.59	118.67	9.07	
2025-01-17 17:19:10.79	118.65	9.09	
2025-01-17 17:19:11.00	118.64	9.11	
2025-01-17 17:19:11.20	118.62	9.12	
2025-01-17 17:19:11.40	118.60	9.14	
2025-01-17 17:19:11.61	118.58	9.16	
2025-01-17 17:19:11.81	118.56	9.17	
2025-01-17 17:19:12.01	118.54	9.19	
2025-01-17 17:19:12.21	118.53	9.20	
2025-01-17 17:19:12.42	118.51	9.22	
2025-01-17 17:19:12.62	118.49	9.24	
2025-01-17 17:19:12.82	118.47	9.25	
2025-01-17 17:19:13.03	118.45	9.27	
2025-01-17 17:19:13.23	118.43	9.29	
2025-01-17 17:19:13.43	118.41	9.30	
2025-01-17 17:19:13.64	118.40	9.32	
2025-01-17 17:19:13.84	118.38	9.34	
2025-01-17 17:19:14.04	118.36	9.35	
2025-01-17 17:19:14.25	118.34	9.37	
2025-01-17 17:19:14.45	118.32	9.38	
2025-01-17 17:19:14.65	118.30	9.40	
2025-01-17 17:19:14.85	118.28	9.42	
2025-01-17 17:19:15.06	118.26	9.43	
2025-01-17 17:19:15.26	118.25	9.45	
2025-01-17 17:19:15.46	118.23	9.47	
2025-01-17 17:19:15.67	118.21	9.48	
2025-01-17 17:19:15.87	118.19	9.50	
2025-01-17 17:19:16.07	118.17	9.52	
2025-01-17 17:19:16.28	118.15	9.53	
2025-01-17 17:19:16.48	118.13	9.55	
2025-01-17 17:19:16.68	118.11	9.57	
2025-01-17 17:19:16.89	118.09	9.58	
2025-01-17 17:19:17.09	118.08	9.60	
2025-01-17 17:19:17.29	118.06	9.62	
2025-01-17 17:19:17.49	118.04	9.63	
2025-01-17 17:19:17.70	118.02	9.65	
2025-01-17 17:19:17.90	118.00	9.66	
2025-01-17 17:19:18.10	117.98	9.68	
2025-01-17 17:19:18.31	117.96	9.70	
2025-01-17 17:19:18.51	117.94	9.71	
2025-01-17 17:19:18.71	117.92	9.73	
2025-01-17 17:19:18.92	117.90	9.75	
2025-01-17 17:19:19.12	117.89	9.76	
2025-01-17 17:19:19.32	117.87	9.78	
2025-01-17 17:19:19.52	117.85	9.80	
2025-01-17 17:19:19.73	117.83	9.81	
2025-01-17 17:19:19.93	117.81	9.83	
2025-01-17 17:19:20.13	117.79	9.85	
2025-01-17 17:19:20.34	117.77	9.86	
2025-01-17 17:19:20.54	117.75	9.88	
2025-01-17 17:19:20.74	117.73	9.90	
2025-01-17 17:19:20.95	117.71	9.91	
2025-01-17 17:19:21.15	117.69	9.93	
2025-01-17 17:19:21.35	117.67	9.95	
2025-01-17 17:19:21.56	117.65	9.96	
2025-01-17 17:19:21.76	117.63	9.98	
2025-01-17 17:19:21.96	117.61	10.00	
2025-01-17 17:19:22.17	117.59	10.02	
2025-01-17 17:19:22.37	117.57	10.03	
2025-01-17 17:19:22.57	117.56	10.05	
2025-01-17 17:19:22.77	117.54	10.06	
2025-01-17 17:19:22.98	117.52	10.08	
2025-01-17 17:19:23.18	117.50	10.10	
2025-01-17 17:19:23.38	117.48	10.12	
2025-01-17 17:19:23.59	117.46	10.13	
2025-01-17 17:19:23.79	117.44	10.15	
2025-01-17 17:19:23.99	117.42	10.17	
2025-01-17 17:19:24.20	117.40	10.18	
2025-01-17 17:19:24.40	117.38	10.20	
2025-01-17 17:19:24.60	117.36	10.22	
2025-01-17 17:19:24.81	117.34	10.23	
2025-01-17 17:19:25.01	117.32	10.25	
2025-01-17 17:19:25.21	117.30	10.27	
2025-01-17 17:19:25.41	117.28	10.28	
2025-01-17 17:19:25.62	117.26	10.30	
2025-01-17 17:19:25.82	117.24	10.32	
2025-01-17 17:19:26.02	117.22	10.33	
2025-01-17 17:19:26.23	117.20	10.35	
2025-01-17 17:19:26.43	117.18	10.37	
2025-01-17 17:19:26.63	117.16	10.39	
2025-01-17 17:19:26.84	117.14	10.40	
2025-01-17 17:19:27.04	117.12	10.42	
2025-01-17 17:19:27.24	117.10	10.44	
2025-01-17 17:19:27.45	117.08	10.45	
2025-01-17 17:19:27.65	117.06	10.47	
2025-01-17 17:19:27.85	117.04	10.49	
2025-01-17 17:19:28.05	117.02	10.50	
2025-01-17 17:19:28.26	116.99	10.52	
2025-01-17 17:19:28.46	116.97	10.54	
2025-01-17 17:19:28.66	116.95	10.56	
2025-01-17 17:19:28.87	116.93	10.57	
2025-01-17 17:19:29.07	116.91	10.59	
2025-01-17 17:19:29.27	116.89	10.61	
2025-01-17 17:19:29.48	116.87	10.63	
2025-01-17 17:19:29.68	116.85	10.64	
2025-01-17 17:19:29.88	116.83	10.66	
2025-01-17 17:19:30.09	116.81	10.68	
2025-01-17 17:19:30.29	116.79	10.69	
2025-01-17 17:19:30.49	116.77	10.71	
2025-01-17 17:19:30.69	116.75	10.73	
2025-01-17 17:19:30.90	116.73	10.75	
2025-01-17 17:19:31.10	116.71	10.76	
2025-01-17 17:19:31.30	116.69	10.78	
2025-01-17 17:19:31.51	116.67	10.80	
2025-01-17 17:19:31.71	116.65	10.81	
2025-01-17 17:19:31.91	116.62	10.83	
2025-01-17 17:19:32.12	116.60	10.85	
2025-01-17 17:19:32.32	116.58	10.87	
2025-01-17 17:19:32.52	116.56	10.88	
2025-01-17 17:19:32.72	116.54	10.90	
2025-01-17 17:19:32.93	116.52	10.92	
2025-01-17 17:19:33.13	116.50	10.93	
2025-01-17 17:19:33.33	116.48	10.95	
2025-01-17 17:19:33.54	116.46	10.97	
2025-01-17 17:19:33.74	116.44	10.99	
2025-01-17 17:19:33.94	116.41	11.00	
2025-01-17 17:19:34.15	116.39	11.02	
2025-01-17 17:19:34.35	116.37	11.04	
2025-01-17 17:19:34.55	116.35	11.06	
2025-01-17 17:19:34.76	116.33	11.07	
2025-01-17 17:19:34.96	116.31	11.09	
2025-01-17 17:19:35.16	116.29	11.11	
2025-01-17 17:19:35.36	116.27	11.12	
2025-01-17 17:19:35.57	116.24	11.14	
2025-01-17 17:19:35.77	116.22	11.16	
2025-01-17 17:19:35.97	116.20	11.18	
2025-01-17 17:19:36.18	116.18	11.20	
2025-01-17 17:19:36.38	116.16	11.21	
2025-01-17 17:19:36.58	116.14	11.23	
2025-01-17 17:19:36.79	116.12	11.25	
2025-01-17 17:19:36.99	116.09	11.26	
2025-01-17 17:19:37.19	116.07	11.28	
2025-01-17 17:19:37.40	116.05	11.30	
2025-01-17 17:19:37.60	116.03	11.32	
2025-01-17 17:19:37.80	116.01	11.33	
2025-01-17 17:19:38.00	115.99	11.35	
2025-01-17 17:19:38.21	115.96	11.37	
2025-01-17 17:19:38.41	115.94	11.39	
2025-01-17 17:19:38.61	115.92	11.40	
2025-01-17 17:19:38.82	115.90	11.42	
2025-01-17 17:19:39.02	115.88	11.44	
2025-01-17 17:19:39.22	115.86	11.46	
2025-01-17 17:19:39.43	115.83	11.48	
2025-01-17 17:19:39.63	115.81	11.49	
2025-01-17 17:19:39.83	115.79	11.51	
2025-01-17 17:19:40.04	115.77	11.53	
2025-01-17 17:19:40.24	115.75	11.55	
2025-01-17 17:19:40.44	115.72	11.56	
2025-01-17 17:19:40.64	115.70	11.58	
2025-01-17 17:19:40.85	115.68	11.60	
2025-01-17 17:19:41.05	115.66	11.62	
2025-01-17 17:19:41.25	115.64	11.63	
2025-01-17 17:19:41.46	115.61	11.65	
2025-01-17 17:19:41.66	115.59	11.67	
2025-01-17 17:19:41.86	115.57	11.69	
2025-01-17 17:19:42.07	115.55	11.71	
2025-01-17 17:19:42.27	115.53	11.72	
2025-01-17 17:19:42.47	115.50	11.74	
2025-01-17 17:19:42.68	115.48	11.76	
2025-01-17 17:19:42.88	115.46	11.78	
2025-01-17 17:19:43.08	115.44	11.79	
2025-01-17 17:19:43.28	115.41	11.81	
2025-01-17 17:19:43.49	115.39	11.83	
2025-01-17 17:19:43.69	115.37	11.85	
2025-01-17 17:19:43.89	115.35	11.86	
2025-01-17 17:19:44.10	115.32	11.88	
2025-01-17 17:19:44.30	115.30	11.90	
2025-01-17 17:19:44.50	115.28	11.92	
2025-01-17 17:19:44.71	115.26	11.94	
2025-01-17 17:19:44.91	115.23	11.95	
2025-01-17 17:19:45.11	115.21	11.97	
2025-01-17 17:19:45.32	115.19	11.99	
2025-01-17 17:19:45.52	115.17	12.01	
2025-01-17 17:19:45.72	115.14	12.03	
2025-01-17 17:19:45.92	115.12	12.04	
2025-01-17 17:19:46.13	115.10	12.06	
2025-01-17 17:19:46.33	115.07	12.08	
2025-01-17 17:19:46.53	115.05	12.10	
2025-01-17 17:19:46.74	115.03	12.12	
2025-01-17 17:19:46.94	115.01	12.13	
2025-01-17 17:19:47.14	114.98	12.15	
2025-01-17 17:19:47.35	114.96	12.17	
2025-01-17 17:19:47.55	114.94	12.19	
2025-01-17 17:19:47.75	114.91	12.21	
2025-01-17 17:19:47.96	114.89	12.22	
2025-01-17 17:19:48.16	114.87	12.24	
2025-01-17 17:19:48.36	114.84	12.26	
2025-01-17 17:19:48.56	114.82	12.28	
2025-01-17 17:19:48.77	114.80	12.30	
2025-01-17 17:19:48.97	114.77	12.31	
2025-01-17 17:19:49.17	114.75	12.33	
2025-01-17 17:19:49.38	114.73	12.35	
2025-01-17 17:19:49.58	114.70	12.37	
2025-01-17 17:19:49.78	114.68	12.39	
2025-01-17 17:19:49.99	114.66	12.40	
2025-01-17 17:19:50.19	114.63	12.42	
2025-01-17 17:19:50.39	114.61	12.44	
2025-01-17 17:19:50.60	114.59	12.46	
2025-01-17 17:19:50.80	114.56	12.48	
2025-01-17 17:19:51.00	114.54	12.50	
2025-01-17 17:19:51.20	114.52	12.51	
2025-01-17 17:19:51.41	114.49	12.53	
2025-01-17 17:19:51.61	114.47	12.55	
2025-01-17 17:19:51.81	114.45	12.57	
2025-01-17 17:19:52.02	114.42	12.59	
2025-01-17 17:19:52.22	114.40	12.60	
2025-01-17 17:19:52.42	114.37	12.62	
2025-01-17 17:19:52.63	114.35	12.64	
2025-01-17 17:19:52.83	114.33	12.66	
2025-01-17 17:19:53.03	114.30	12.68	
2025-01-17 17:19:53.24	114.28	12.70	
2025-01-17 17:19:53.44	114.25	12.71	
2025-01-17 17:19:53.64	114.23	12.73	
2025-01-17 17:19:53.84	114.21	12.75	
2025-01-17 17:19:54.05	114.18	12.77	
2025-01-17 17:19:54.25	114.16	12.79	
2025-01-17 17:19:54.45	114.13	12.81	
2025-01-17 17:19:54.66	114.11	12.82	
2025-01-17 17:19:54.86	114.09	12.84	
2025-01-17 17:19:55.06	114.06	12.86	
2025-01-17 17:19:55.27	114.04	12.88	
2025-01-17 17:19:55.47	114.01	12.90	
2025-01-17 17:19:55.67	113.99	12.92	
2025-01-17 17:19:55.88	113.96	12.94	
2025-01-17 17:19:56.08	113.94	12.95	
2025-01-17 17:19:56.28	113.92	12.97	
2025-01-17 17:19:56.48	113.89	12.99	
2025-01-17 17:19:56.69	113.87	13.01	
2025-01-17 17:19:56.89	113.84	13.03	
2025-01-17 17:19:57.09	113.82	13.05	
2025-01-17 17:19:57.30	113.79	13.06	
2025-01-17 17:19:57.50	113.77	13.08	
2025-01-17 17:19:57.70	113.74	13.10	
2025-01-17 17:19:57.91	113.72	13.12	
2025-01-17 17:19:58.11	113.69	13.14	
2025-01-17 17:19:58.31	113.67	13.16	
2025-01-17 17:19:58.52	113.64	13.18	
2025-01-17 17:19:58.72	113.62	13.19	
2025-01-17 17:19:58.92	113.59	13.21	
2025-01-17 17:19:59.12	113.57	13.23	
2025-01-17 17:19:59.33	113.54	13.25	
2025-01-17 17:19:59.53	113.52	13.27	
2025-01-17 17:19:59.73	113.50	13.29	
2025-01-17 17:19:59.94	113.47	13.31	
2025-01-17 17:20:00.14	113.44	13.32	
2025-01-17 17:20:00.34	113.42	13.34	
2025-01-17 17:20:00.55	113.39	13.36	
2025-01-17 17:20:00.75	113.37	13.38	
2025-01-17 17:20:00.95	113.34	13.40	
2025-01-17 17:20:01.16	113.32	13.42	
2025-01-17 17:20:01.36	113.29	13.44	
2025-01-17 17:20:01.56	113.27	13.46	
2025-01-17 17:20:01.76	113.24	13.47	
2025-01-17 17:20:01.97	113.22	13.49	
2025-01-17 17:20:02.17	113.19	13.51	
2025-01-17 17:20:02.37	113.17	13.53	
2025-01-17 17:20:02.58	113.14	13.55	
2025-01-17 17:20:02.78	113.12	13.57	
2025-01-17 17:20:02.98	113.09	13.59	
2025-01-17 17:20:03.19	113.06	13.61	
2025-01-17 17:20:03.39	113.04	13.62	
2025-01-17 17:20:03.59	113.01	13.64	
2025-01-17 17:20:03.80	112.99	13.66	
2025-01-17 17:20:04.00	112.96	13.68	
2025-01-17 17:20:04.20	112.94	13.70	
2025-01-17 17:20:04.40	112.91	13.72	
2025-01-17 17:20:04.61	112.88	13.74	
2025-01-17 17:20:04.81	112.86	13.76	
2025-01-17 17:20:05.01	112.83	13.78	
2025-01-17 17:20:05.22	112.81	13.79	
2025-01-17 17:20:05.42	112.78	13.81	
2025-01-17 17:20:05.62	112.75	13.83	
2025-01-17 17:20:05.83	112.73	13.85	
2025-01-17 17:20:06.03	112.70	13.87	
2025-01-17 17:20:06.23	112.68	13.89	
2025-01-17 17:20:06.44	112.65	13.91	
2025-01-17 17:20:06.64	112.62	13.93	
2025-01-17 17:20:06.84	112.60	13.95	
2025-01-17 17:20:07.04	112.57	13.96	
2025-01-17 17:20:07.25	112.54	13.98	
2025-01-17 17:20:07.45	112.52	14.00	
2025-01-17 17:20:07.65	112.49	14.02	
2025-01-17 17:20:07.86	112.47	14.04	
2025-01-17 17:20:08.06	112.44	14.06	
2025-01-17 17:20:08.26	112.41	14.08	
2025-01-17 17:20:08.47	112.39	14.10	
2025-01-17 17:20:08.67	112.36	14.12	
2025-01-17 17:20:08.87	112.33	14.14	
2025-01-17 17:20:09.08	112.31	14.16	
2025-01-17 17:20:09.28	112.28	14.18	
2025-01-17 17:20:09.48	112.25	14.19	
2025-01-17 17:20:09.68	112.23	14.21	
2025-01-17 17:20:09.89	112.20	14.23	
2025-01-17 17:20:10.09	112.17	14.25	
2025-01-17 17:20:10.29	112.15	14.27	
2025-01-17 17:20:10.50	112.12	14.29	
2025-01-17 17:20:10.70	112.09	14.31	
2025-01-17 17:20:10.90	112.07	14.33	
2025-01-17 17:20:11.11	112.04	14.35	
2025-01-17 17:20:11.31	112.01	14.37	
2025-01-17 17:20:11.51	111.98	14.39	
2025-01-17 17:20:11.72	111.96	14.41	
2025-01-17 17:20:11.92	111.93	14.43	
2025-01-17 17:20:12.12	111.90	14.44	
2025-01-17 17:20:12.32	111.88	14.46	
2025-01-17 17:20:12.53	111.85	14.48	
2025-01-17 17:20:12.73	111.82	14.50	
2025-01-17 17:20:12.93	111.79	14.52	
2025-01-17 17:20:13.14	111.76	14.54	
2025-01-17 17:20:13.34	111.74	14.56	
2025-01-17 17:20:13.54	111.71	14.58	
2025-01-17 17:20:13.75	111.68	14.60	
2025-01-17 17:20:13.95	111.66	14.62	
2025-01-17 17:20:14.15	111.63	14.64	
2025-01-17 17:20:14.36	111.60	14.66	
2025-01-17 17:20:14.56	111.57	14.68	
2025-01-17 17:20:14.76	111.54	14.70	
2025-01-17 17:20:14.96	111.52	14.72	
2025-01-17 17:20:15.17	111.49	14.74	
2025-01-17 17:20:15.37	111.46	14.75	
2025-01-17 17:20:15.57	111.43	14.77	
2025-01-17 17:20:15.78	111.40	14.79	
2025-01-17 17:20:15.98	111.38	14.81	
2025-01-17 17:20:16.18	111.35	14.83	
2025-01-17 17:20:16.39	111.32	14.85	
2025-01-17 17:20:16.59	111.29	14.87	
2025-01-17 17:20:16.79	111.27	14.89	
2025-01-17 17:20:17.00	111.24	14.91	
2025-01-17 17:20:17.20	111.21	14.93	
2025-01-17 17:20:17.40	111.18	14.95	
2025-01-17 17:20:17.60	111.15	14.97	
2025-01-17 17:20:17.81	111.12	14.99	
2025-01-17 17:20:18.01	111.10	15.01	
2025-01-17 17:20:18.21	111.07	15.03	
2025-01-17 17:20:18.42	111.04	15.05	
2025-01-17 17:20:18.62	111.01	15.07	
2025-01-17 17:20:18.82	110.98	15.09	
2025-01-17 17:20:19.03	110.95	15.11	
2025-01-17 17:20:19.23	110.92	15.13	
2025-01-17 17:20:19.43	110.90	15.15	
2025-01-17 17:20:19.64	110.87	15.17	
2025-01-17 17:20:19.84	110.84	15.19	
2025-01-17 17:20:20.04	110.81	15.20	
2025-01-17 17:20:20.24	110.78	15.22	
2025-01-17 17:20:20.45	110.75	15.24	
2025-01-17 17:20:20.65	110.72	15.26	
2025-01-17 17:20:20.85	110.69	15.28	
2025-01-17 17:20:21.06	110.66	15.30	
2025-01-17 17:20:21.26	110.64	15.32	
2025-01-17 17:20:21.46	110.61	15.34	
2025-01-17 17:20:21.67	110.58	15.36	
2025-01-17 17:20:21.87	110.55	15.38	
2025-01-17 17:20:22.07	110.52	15.40	
2025-01-17 17:20:22.28	110.49	15.42	
2025-01-17 17:20:22.48	110.46	15.44	
2025-01-17 17:20:22.68	110.43	15.46	
2025-01-17 17:20:22.88	110.40	15.48	
2025-01-17 17:20:23.09	110.37	15.50	
2025-01-17 17:20:23.29	110.34	15.52	
2025-01-17 17:20:23.49	110.32	15.54	
2025-01-17 17:20:23.70	110.28	15.56	
2025-01-17 17:20:23.90	110.26	15.58	
2025-01-17 17:20:24.10	110.23	15.60	
2025-01-17 17:20:24.31	110.20	15.62	
2025-01-17 17:20:24.51	110.17	15.64	
2025-01-17 17:20:24.71	110.14	15.66	
2025-01-17 17:20:24.92	110.11	15.68	
2025-01-17 17:20:25.12	110.08	15.70	
2025-01-17 17:20:25.32	110.05	15.72	
2025-01-17 17:20:25.52	110.02	15.74	
2025-01-17 17:20:25.73	109.99	15.76	
2025-01-17 17:20:25.93	109.96	15.78	
2025-01-17 17:20:26.13	109.93	15.80	
2025-01-17 17:20:26.34	109.90	15.82	
2025-01-17 17:20:26.54	109.87	15.84	
2025-01-17 17:20:26.74	109.84	15.86	
2025-01-17 17:20:26.95	109.81	15.88	
2025-01-17 17:20:27.15	109.78	15.90	
2025-01-17 17:20:27.35	109.75	15.92	
2025-01-17 17:20:27.56	109.72	15.94	
2025-01-17 17:20:27.76	109.69	15.96	
2025-01-17 17:20:27.96	109.66	15.98	
2025-01-17 17:20:28.16	109.63	16.00	
2025-01-17 17:20:28.37	109.59	16.02	
2025-01-17 17:20:28.57	109.56	16.04	
2025-01-17 17:20:28.77	109.53	16.06	
2025-01-17 17:20:28.98	109.50	16.08	
2025-01-17 17:20:29.18	109.47	16.10	
2025-01-17 17:20:29.38	109.44	16.12	
2025-01-17 17:20:29.59	109.41	16.14	
2025-01-17 17:20:29.79	109.38	16.16	
2025-01-17 17:20:29.99	109.35	16.18	
2025-01-17 17:20:30.20	109.32	16.20	
2025-01-17 17:20:30.40	109.29	16.22	
2025-01-17 17:20:30.60	109.26	16.24	
2025-01-17 17:20:30.80	109.23	16.26	
2025-01-17 17:20:31.01	109.19	16.29	
2025-01-17 17:20:31.21	109.16	16.31	
2025-01-17 17:20:31.41	109.13	16.33	
2025-01-17 17:20:31.62	109.10	16.35	
2025-01-17 17:20:31.82	109.07	16.37	
2025-01-17 17:20:32.02	109.04	16.39	
2025-01-17 17:20:32.23	109.01	16.41	
2025-01-17 17:20:32.43	108.97	16.43	
2025-01-17 17:20:32.63	108.94	16.45	
2025-01-17 17:20:32.83	108.91	16.47	
2025-01-17 17:20:33.04	108.88	16.49	
2025-01-17 17:20:33.24	108.85	16.51	
2025-01-17 17:20:33.44	108.82	16.53	
2025-01-17 17:20:33.65	108.78	16.55	
2025-01-17 17:20:33.85	108.75	16.57	
2025-01-17 17:20:34.05	108.72	16.59	
2025-01-17 17:20:34.26	108.69	16.61	
2025-01-17 17:20:34.46	108.66	16.63	
2025-01-17 17:20:34.66	108.63	16.65	
2025-01-17 17:20:34.87	108.59	16.67	
2025-01-17 17:20:35.07	108.56	16.69	
2025-01-17 17:20:35.27	108.53	16.71	
2025-01-17 17:20:35.48	108.50	16.73	
2025-01-17 17:20:35.68	108.47	16.75	
2025-01-17 17:20:35.88	108.43	16.77	
2025-01-17 17:20:36.08	108.40	16.79	
2025-01-17 17:20:36.29	108.37	16.82	
2025-01-17 17:20:36.49	108.34	16.84	
2025-01-17 17:20:36.69	108.30	16.86	
2025-01-17 17:20:36.90	108.27	16.88	
2025-01-17 17:20:37.10	108.24	16.90	
2025-01-17 17:20:37.30	108.21	16.92	
2025-01-17 17:20:37.51	108.17	16.94	
2025-01-17 17:20:37.71	108.14	16.96	
2025-01-17 17:20:37.91	108.11	16.98	
2025-01-17 17:20:38.11	108.08	17.00	
2025-01-17 17:20:38.32	108.04	17.02	
2025-01-17 17:20:38.52	108.01	17.04	
2025-01-17 17:20:38.72	107.98	17.06	
2025-01-17 17:20:38.93	107.94	17.08	
2025-01-17 17:20:39.13	107.91	17.10	
2025-01-17 17:20:39.33	107.88	17.12	
2025-01-17 17:20:39.54	107.85	17.15	
2025-01-17 17:20:39.74	107.81	17.17	
2025-01-17 17:20:39.94	107.78	17.19	
2025-01-17 17:20:40.15	107.75	17.21	
2025-01-17 17:20:40.35	107.71	17.23	
2025-01-17 17:20:40.55	107.68	17.25	
2025-01-17 17:20:40.76	107.65	17.27	
2025-01-17 17:20:40.96	107.61	17.29	
2025-01-17 17:20:41.16	107.58	17.31	
2025-01-17 17:20:41.36	107.55	17.33	
2025-01-17 17:20:41.57	107.51	17.35	
2025-01-17 17:20:41.77	107.48	17.37	
2025-01-17 17:20:41.97	107.45	17.39	
2025-01-17 17:20:42.18	107.41	17.42	
2025-01-17 17:20:42.38	107.38	17.44	
2025-01-17 17:20:42.58	107.34	17.46	
2025-01-17 17:20:42.79	107.31	17.48	
2025-01-17 17:20:42.99	107.28	17.50	
2025-01-17 17:20:43.19	107.24	17.52	
2025-01-17 17:20:43.39	107.21	17.54	
2025-01-17 17:20:43.60	107.17	17.56	
2025-01-17 17:20:43.80	107.14	17.58	
2025-01-17 17:20:44.00	107.11	17.60	
2025-01-17 17:20:44.21	107.07	17.62	
2025-01-17 17:20:44.41	107.04	17.64	
2025-01-17 17:20:44.61	107.00	17.67	
2025-01-17 17:20:44.82	106.97	17.69	
2025-01-17 17:20:45.02	106.93	17.71	
2025-01-17 17:20:45.22	106.90	17.73	
2025-01-17 17:20:45.43	106.86	17.75	
2025-01-17 17:20:45.63	106.83	17.77	
2025-01-17 17:20:45.83	106.80	17.79	
2025-01-17 17:20:46.03	106.76	17.81	
2025-01-17 17:20:46.24	106.73	17.83	
2025-01-17 17:20:46.44	106.69	17.85	
2025-01-17 17:20:46.64	106.66	17.88	
2025-01-17 17:20:46.85	106.62	17.90	
2025-01-17 17:20:47.05	106.59	17.92	
2025-01-17 17:20:47.25	106.55	17.94	
2025-01-17 17:20:47.46	106.52	17.96	
2025-01-17 17:20:47.66	106.48	17.98	
2025-01-17 17:20:47.86	106.45	18.00	
2025-01-17 17:20:48.07	106.41	18.02	
2025-01-17 17:20:48.27	106.38	18.04	
2025-01-17 17:20:48.47	106.34	18.07	
2025-01-17 17:20:48.67	106.31	18.09	
2025-01-17 17:20:48.88	106.27	18.11	
2025-01-17 17:20:49.08	106.24	18.13	
2025-01-17 17:20:49.28	106.20	18.15	
2025-01-17 17:20:49.49	106.16	18.17	
2025-01-17 17:20:49.69	106.13	18.19	
2025-01-17 17:20:49.89	106.09	18.21	
2025-01-17 17:20:50.10	106.06	18.24	
2025-01-17 17:20:50.30	106.02	18.26	
2025-01-17 17:20:50.50	105.99	18.28	
2025-01-17 17:20:50.71	105.95	18.30	
2025-01-17 17:20:50.91	105.91	18.32	
2025-01-17 17:20:51.11	105.88	18.34	
2025-01-17 17:20:51.31	105.84	18.36	
2025-01-17 17:20:51.52	105.81	18.38	
2025-01-17 17:20:51.72	105.77	18.40	
2025-01-17 17:20:51.92	105.73	18.43	
2025-01-17 17:20:52.13	105.70	18.45	
2025-01-17 17:20:52.33	105.66	18.47	
2025-01-17 17:20:52.53	105.63	18.49	
2025-01-17 17:20:52.74	105.59	18.51	
2025-01-17 17:20:52.94	105.55	18.53	
2025-01-17 17:20:53.14	105.52	18.55	
2025-01-17 17:20:53.35	105.48	18.58	
2025-01-17 17:20:53.55	105.44	18.60	
2025-01-17 17:20:53.75	105.41	18.62	
2025-01-17 17:20:53.95	105.37	18.64	
2025-01-17 17:20:54.16	105.33	18.66	
2025-01-17 17:20:54.36	105.30	18.68	
2025-01-17 17:20:54.56	105.26	18.70	
2025-01-17 17:20:54.77	105.22	18.72	
2025-01-17 17:20:54.97	105.18	18.75	
2025-01-17 17:20:55.17	105.15	18.77	
2025-01-17 17:20:55.38	105.11	18.79	
2025-01-17 17:20:55.58	105.07	18.81	
2025-01-17 17:20:55.78	105.04	18.83	
2025-01-17 17:20:55.99	105.00	18.85	
2025-01-17 17:20:56.19	104.96	18.87	
2025-01-17 17:20:56.39	104.92	18.90	
2025-01-17 17:20:56.59	104.89	18.92	
2025-01-17 17:20:56.80	104.85	18.94	
2025-01-17 17:20:57.00	104.81	18.96	
2025-01-17 17:20:57.20	104.77	18.98	
2025-01-17 17:20:57.41	104.73	19.00	
2025-01-17 17:20:57.61	104.70	19.02	
2025-01-17 17:20:57.81	104.66	19.05	
2025-01-17 17:20:58.02	104.62	19.07	
2025-01-17 17:20:58.22	104.58	19.09	
2025-01-17 17:20:58.42	104.55	19.11	
2025-01-17 17:20:58.63	104.51	19.13	
2025-01-17 17:20:58.83	104.47	19.15	
2025-01-17 17:20:59.03	104.43	19.17	
2025-01-17 17:20:59.23	104.39	19.20	
2025-01-17 17:20:59.44	104.35	19.22	
2025-01-17 17:20:59.64	104.32	19.24	
2025-01-17 17:20:59.84	104.28	19.26	
2025-01-17 17:21:00.05	104.24	19.28	
2025-01-17 17:21:00.25	104.20	19.30	
2025-01-17 17:21:00.45	104.16	19.33	
2025-01-17 17:21:00.66	104.12	19.35	
2025-01-17 17:21:00.86	104.09	19.37	
2025-01-17 17:21:01.06	104.05	19.39	
2025-01-17 17:21:01.27	104.01	19.41	
2025-01-17 17:21:01.47	103.97	19.43	
2025-01-17 17:21:01.67	103.93	19.46	
2025-01-17 17:21:01.87	103.89	19.48	
2025-01-17 17:21:02.08	103.85	19.50	
2025-01-17 17:21:02.28	103.81	19.52	
2025-01-17 17:21:02.48	103.78	19.54	
2025-01-17 17:21:02.69	103.73	19.56	
2025-01-17 17:21:02.89	103.70	19.59	
2025-01-17 17:21:03.09	103.66	19.61	
2025-01-17 17:21:03.30	103.62	19.63	
2025-01-17 17:21:03.50	103.58	19.65	
2025-01-17 17:21:03.70	103.54	19.67	
2025-01-17 17:21:03.91	103.50	19.69	
2025-01-17 17:21:04.11	103.46	19.72	
2025-01-17 17:21:04.31	103.42	19.74	
2025-01-17 17:21:04.51	103.38	19.76	
2025-01-17 17:21:04.72	103.34	19.78	
2025-01-17 17:21:04.92	103.30	19.80	
2025-01-17 17:21:05.12	103.26	19.82	
2025-01-17 17:21:05.33	103.22	19.85	
2025-01-17 17:21:05.53	103.18	19.87	
2025-01-17 17:21:05.73	103.14	19.89	
2025-01-17 17:21:05.94	103.10	19.91	
2025-01-17 17:21:06.14	103.06	19.93	
2025-01-17 17:21:06.34	103.02	19.96	
2025-01-17 17:21:06.55	102.98	19.98	
2025-01-17 17:21:06.75	102.94	20.00	
2025-01-17 17:21:06.95	102.90	20.02	
2025-01-17 17:21:07.15	102.86	20.04	
2025-01-17 17:21:07.36	102.82	20.07	
2025-01-17 17:21:07.56	102.78	20.09	
2025-01-17 17:21:07.76	102.74	20.11	
2025-01-17 17:21:07.97	102.69	20.13	
2025-01-17 17:21:08.17	102.65	20.15	
2025-01-17 17:21:08.37	102.61	20.17	
2025-01-17 17:21:08.58	102.57	20.20	
2025-01-17 17:21:08.78	102.53	20.22	
2025-01-17 17:21:08.98	102.49	20.24	
2025-01-17 17:21:09.19	102.45	20.26	
2025-01-17 17:21:09.39	102.41	20.28	
2025-01-17 17:21:09.59	102.37	20.31	
2025-01-17 17:21:09.79	102.33	20.33	
2025-01-17 17:21:10.00	102.28	20.35	
2025-01-17 17:21:10.20	102.24	20.37	
2025-01-17 17:21:10.40	102.20	20.39	
2025-01-17 17:21:10.61	102.16	20.42	
2025-01-17 17:21:10.81	102.12	20.44	
2025-01-17 17:21:11.01	102.08	20.46	
2025-01-17 17:21:11.22	102.03	20.48	
2025-01-17 17:21:11.42	101.99	20.50	
2025-01-17 17:21:11.62	101.95	20.52	
2025-01-17 17:21:11.83	101.91	20.55	
2025-01-17 17:21:12.03	101.87	20.57	
2025-01-17 17:21:12.23	101.83	20.59	
2025-01-17 17:21:12.43	101.78	20.61	
2025-01-17 17:21:12.64	101.74	20.63	
2025-01-17 17:21:12.84	101.70	20.66	
2025-01-17 17:21:13.04	101.66	20.68	
2025-01-17 17:21:13.25	101.61	20.70	
2025-01-17 17:21:13.45	101.57	20.72	
2025-01-17 17:21:13.65	101.53	20.74	
2025-01-17 17:21:13.86	101.49	20.77	
2025-01-17 17:21:14.06	101.44	20.79	
2025-01-17 17:21:14.26	101.40	20.81	
2025-01-17 17:21:14.47	101.36	20.83	
2025-01-17 17:21:14.67	101.31	20.86	
2025-01-17 17:21:14.87	101.27	20.88	
2025-01-17 17:21:15.07	101.23	20.90	
2025-01-17 17:21:15.28	101.19	20.92	
2025-01-17 17:21:15.48	101.14	20.94	
2025-01-17 17:21:15.68	101.10	20.96	
2025-01-17 17:21:15.89	101.06	20.99	
2025-01-17 17:21:16.09	101.01	21.01	
2025-01-17 17:21:16.29	100.97	21.03	
2025-01-17 17:21:16.50	100.93	21.05	
2025-01-17 17:21:16.70	100.88	21.08	
2025-01-17 17:21:16.90	100.84	21.10	
2025-01-17 17:21:17.11	100.79	21.12	
2025-01-17 17:21:17.31	100.75	21.14	
2025-01-17 17:21:17.51	100.71	21.16	
2025-01-17 17:21:17.71	100.67	21.19	
2025-01-17 17:21:17.92	100.62	21.21	
2025-01-17 17:21:18.12	100.58	21.23	
2025-01-17 17:21:18.32	100.53	21.25	
2025-01-17 17:21:18.53	100.49	21.27	
2025-01-17 17:21:18.73	100.44	21.30	
2025-01-17 17:21:18.93	100.40	21.32	
2025-01-17 17:21:19.14	100.35	21.34	
2025-01-17 17:21:19.34	100.31	21.36	
2025-01-17 17:21:19.54	100.27	21.38	
2025-01-17 17:21:19.75	100.22	21.41	
2025-01-17 17:21:19.95	100.18	21.43	
2025-01-17 17:21:20.15	100.13	21.45	
2025-01-17 17:21:20.35	100.09	21.47	
2025-01-17 17:21:20.56	100.04	21.50	
2025-01-17 17:21:20.76	100.00	21.52	
2025-01-17 17:21:20.96	99.95	21.54	
2025-01-17 17:21:21.17	99.91	21.56	
2025-01-17 17:21:21.37	99.86	21.58	
2025-01-17 17:21:21.57	99.82	21.61	
2025-01-17 17:21:21.78	99.77	21.63	
2025-01-17 17:21:21.98	99.73	21.65	
2025-01-17 17:21:22.18	99.68	21.67	
2025-01-17 17:21:22.39	99.64	21.70	
2025-01-17 17:21:22.59	99.59	21.72	
2025-01-17 17:21:22.79	99.55	21.74	
2025-01-17 17:21:22.99	99.50	21.76	
2025-01-17 17:21:23.20	99.45	21.78	
2025-01-17 17:21:23.40	99.41	21.81	
2025-01-17 17:21:23.60	99.36	21.83	
2025-01-17 17:21:23.81	99.32	21.85	
2025-01-17 17:21:24.01	99.27	21.87	
2025-01-17 17:21:24.21	99.23	21.89	
2025-01-17 17:21:24.42	99.18	21.92	
2025-01-17 17:21:24.62	99.13	21.94	
2025-01-17 17:21:24.82	99.09	21.96	
2025-01-17 17:21:25.03	99.04	21.98	
2025-01-17 17:21:25.23	98.99	22.01	
2025-01-17 17:21:25.43	98.95	22.03	
2025-01-17 17:21:25.63	98.90	22.05	
2025-01-17 17:21:25.84	98.85	22.07	
2025-01-17 17:21:26.04	98.81	22.09	
2025-01-17 17:21:26.24	98.76	22.12	
2025-01-17 17:21:26.45	98.71	22.14	
2025-01-17 17:21:26.65	98.67	22.16	
2025-01-17 17:21:26.85	98.62	22.18	
2025-01-17 17:21:27.06	98.57	22.21	
2025-01-17 17:21:27.26	98.53	22.23	
2025-01-17 17:21:27.46	98.48	22.25	
2025-01-17 17:21:27.67	98.43	22.27	
2025-01-17 17:21:27.87	98.39	22.29	
2025-01-17 17:21:28.07	98.34	22.32	
2025-01-17 17:21:28.27	98.29	22.34	
2025-01-17 17:21:28.48	98.24	22.36	
2025-01-17 17:21:28.68	98.20	22.38	
2025-01-17 17:21:28.88	98.15	22.41	
2025-01-17 17:21:29.09	98.10	22.43	
2025-01-17 17:21:29.29	98.05	22.45	
2025-01-17 17:21:29.49	98.01	22.47	
2025-01-17 17:21:29.70	97.96	22.50	
2025-01-17 17:21:29.90	97.91	22.52	
2025-01-17 17:21:30.10	97.86	22.54	
2025-01-17 17:21:30.31	97.81	22.56	
2025-01-17 17:21:30.51	97.76	22.58	
2025-01-17 17:21:30.71	97.72	22.61	
2025-01-17 17:21:30.91	97.67	22.63	
2025-01-17 17:21:31.12	97.62	22.65	
2025-01-17 17:21:31.32	97.57	22.67	
2025-01-17 17:21:31.52	97.52	22.69	
2025-01-17 17:21:31.73	97.47	22.72	
2025-01-17 17:21:31.93	97.43	22.74	
2025-01-17 17:21:32.13	97.38	22.76	
2025-01-17 17:21:32.34	97.33	22.78	
2025-01-17 17:21:32.54	97.28	22.81	
2025-01-17 17:21:32.74	97.23	22.83	
2025-01-17 17:21:32.95	97.18	22.85	
2025-01-17 17:21:33.15	97.13	22.87	
2025-01-17 17:21:33.35	97.08	22.89	
2025-01-17 17:21:33.55	97.03	22.92	
2025-01-17 17:21:33.76	96.98	22.94	
2025-01-17 17:21:33.96	96.93	22.96	
2025-01-17 17:21:34.16	96.89	22.98	
2025-01-17 17:21:34.37	96.83	23.01	
2025-01-17 17:21:34.57	96.79	23.03	
2025-01-17 17:21:34.77	96.74	23.05	
2025-01-17 17:21:34.98	96.68	23.07	
2025-01-17 17:21:35.18	96.64	23.09	
2025-01-17 17:21:35.38	96.59	23.12	
2025-01-17 17:21:35.59	96.53	23.14	
2025-01-17 17:21:35.79	96.49	23.16	
2025-01-17 17:21:35.99	96.44	23.18	
2025-01-17 17:21:36.19	96.39	23.21	
2025-01-17 17:21:36.40	96.33	23.23	
2025-01-17 17:21:36.60	96.28	23.25	
2025-01-17 17:21:36.80	96.23	23.27	
2025-01-17 17:21:37.01	96.18	23.29	
2025-01-17 17:21:37.21	96.13	23.32	
2025-01-17 17:21:37.41	96.08	23.34	
2025-01-17 17:21:37.62	96.03	23.36	
2025-01-17 17:21:37.82	95.98	23.38	
2025-01-17 17:21:38.02	95.93	23.41	
2025-01-17 17:21:38.22	95.88	23.43	
2025-01-17 17:21:38.43	95.83	23.45	
2025-01-17 17:21:38.63	95.78	23.47	
2025-01-17 17:21:38.83	95.73	23.49	
2025-01-17 17:21:39.04	95.67	23.52	
2025-01-17 17:21:39.24	95.62	23.54	
2025-01-17 17:21:39.44	95.57	23.56	
2025-01-17 17:21:39.65	95.52	23.58	
2025-01-17 17:21:39.85	95.47	23.60	
2025-01-17 17:21:40.05	95.42	23.63	
2025-01-17 17:21:40.26	95.36	23.65	
2025-01-17 17:21:40.46	95.31	23.67	
2025-01-17 17:21:40.66	95.26	23.69	
2025-01-17 17:21:40.87	95.21	23.72	
2025-01-17 17:21:41.07	95.16	23.74	
2025-01-17 17:21:41.27	95.10	23.76	
2025-01-17 17:21:41.47	95.05	23.78	
2025-01-17 17:21:41.68	95.00	23.80	
2025-01-17 17:21:41.88	94.95	23.83	
2025-01-17 17:21:42.08	94.89	23.85	
2025-01-17 17:21:42.29	94.84	23.87	
2025-01-17 17:21:42.49	94.79	23.89	
2025-01-17 17:21:42.69	94.74	23.91	
2025-01-17 17:21:42.90	94.68	23.94	
2025-01-17 17:21:43.10	94.63	23.96	
2025-01-17 17:21:43.30	94.58	23.98	
2025-01-17 17:21:43.51	94.52	24.00	
2025-01-17 17:21:43.71	94.47	24.02	
2025-01-17 17:21:43.91	94.42	24.05	
2025-01-17 17:21:44.11	94.37	24.07	
2025-01-17 17:21:44.32	94.31	24.09	
2025-01-17 17:21:44.52	94.26	24.11	
2025-01-17 17:21:44.72	94.21	24.13	
2025-01-17 17:21:44.93	94.15	24.16	
2025-01-17 17:21:45.13	94.10	24.18	
2025-01-17 17:21:45.33	94.04	24.20	
2025-01-17 17:21:45.54	93.99	24.22	
2025-01-17 17:21:45.74	93.94	24.24	
2025-01-17 17:21:45.94	93.88	24.27	
2025-01-17 17:21:46.15	93.83	24.29	
2025-01-17 17:21:46.35	93.77	24.31	
2025-01-17 17:21:46.55	93.72	24.33	
2025-01-17 17:21:46.75	93.67	24.35	
2025-01-17 17:21:46.96	93.61	24.38	
2025-01-17 17:21:47.16	93.56	24.40	
2025-01-17 17:21:47.36	93.50	24.42	
2025-01-17 17:21:47.57	93.45	24.44	
2025-01-17 17:21:47.77	93.39	24.46	
2025-01-17 17:21:47.97	93.34	24.49	
2025-01-17 17:21:48.18	93.28	24.51	
2025-01-17 17:21:48.38	93.23	24.53	
2025-01-17 17:21:48.58	93.17	24.55	
2025-01-17 17:21:48.79	93.12	24.57	
2025-01-17 17:21:48.99	93.06	24.60	
2025-01-17 17:21:49.19	93.01	24.62	
2025-01-17 17:21:49.39	92.95	24.64	
2025-01-17 17:21:49.60	92.90	24.66	
2025-01-17 17:21:49.80	92.84	24.68	
2025-01-17 17:21:50.00	92.79	24.70	
2025-01-17 17:21:50.21	92.73	24.73	
2025-01-17 17:21:50.41	92.67	24.75	
2025-01-17 17:21:50.61	92.62	24.77	
2025-01-17 17:21:50.82	92.56	24.79	
2025-01-17 17:21:51.02	92.51	24.81	
2025-01-17 17:21:51.22	92.45	24.84	
2025-01-17 17:21:51.42	92.40	24.86	
2025-01-17 17:21:51.63	92.34	24.88	
2025-01-17 17:21:51.83	92.28	24.90	
2025-01-17 17:21:52.03	92.23	24.92	
2025-01-17 17:21:52.24	92.17	24.94	
2025-01-17 17:21:52.44	92.11	24.97	
2025-01-17 17:21:52.64	92.06	24.99	
2025-01-17 17:21:52.85	92.00	25.01	
2025-01-17 17:21:53.05	91.94	25.03	
2025-01-17 17:21:53.25	91.89	25.05	
2025-01-17 17:21:53.46	91.83	25.07	
2025-01-17 17:21:53.66	91.77	25.10	
2025-01-17 17:21:53.86	91.71	25.12	
2025-01-17 17:21:54.06	91.66	25.14	
2025-01-17 17:21:54.27	91.60	25.16	
2025-01-17 17:21:54.47	91.54	25.18	
2025-01-17 17:21:54.67	91.49	25.20	
2025-01-17 17:21:54.88	91.43	25.23	
2025-01-17 17:21:55.08	91.37	25.25	
2025-01-17 17:21:55.28	91.31	25.27	
2025-01-17 17:21:55.49	91.25	25.29	
2025-01-17 17:21:55.69	91.20	25.31	
2025-01-17 17:21:55.89	91.14	25.33	
2025-01-17 17:21:56.10	91.08	25.36	
2025-01-17 17:21:56.30	91.02	25.38	
2025-01-17 17:21:56.50	90.96	25.40	
2025-01-17 17:21:56.70	90.91	25.42	
2025-01-17 17:21:56.91	90.85	25.44	
2025-01-17 17:21:57.11	90.79	25.46	
2025-01-17 17:21:57.31	90.73	25.48	
2025-01-17 17:21:57.52	90.67	25.51	
2025-01-17 17:21:57.72	90.61	25.53	
2025-01-17 17:21:57.92	90.56	25.55	
2025-01-17 17:21:58.13	90.49	25.57	
2025-01-17 17:21:58.33	90.44	25.59	
2025-01-17 17:21:58.53	90.38	25.61	
2025-01-17 17:21:58.74	90.32	25.63	
2025-01-17 17:21:58.94	90.26	25.65	
2025-01-17 17:21:59.14	90.20	25.68	
2025-01-17 17:21:59.34	90.14	25.70	
2025-01-17 17:21:59.55	90.08	25.72	
2025-01-17 17:21:59.75	90.02	25.74	
2025-01-17 17:21:59.95	89.96	25.76	
2025-01-17 17:22:00.16	89.90	25.78	
2025-01-17 17:22:00.36	89.84	25.80	
2025-01-17 17:22:00.56	89.78	25.82	
2025-01-17 17:22:00.77	89.72	25.85	
2025-01-17 17:22:00.97	89.66	25.87	
2025-01-17 17:22:01.17	89.60	25.89	
2025-01-17 17:22:01.38	89.54	25.91	
2025-01-17 17:22:01.58	89.48	25.93	
2025-01-17 17:22:01.78	89.42	25.95	
2025-01-17 17:22:01.98	89.36	25.97	
2025-01-17 17:22:02.19	89.30	25.99	
2025-01-17 17:22:02.39	89.24	26.01	
2025-01-17 17:22:02.59	89.18	26.04	
2025-01-17 17:22:02.80	89.12	26.06	
2025-01-17 17:22:03.00	89.06	26.08	
2025-01-17 17:22:03.20	89.00	26.10	
2025-01-17 17:22:03.41	88.94	26.12	
2025-01-17 17:22:03.61	88.88	26.14	
2025-01-17 17:22:03.81	88.81	26.16	
2025-01-17 17:22:04.02	88.75	26.18	
2025-01-17 17:22:04.22	88.69	26.20	
2025-01-17 17:22:04.42	88.63	26.22	
2025-01-17 17:22:04.62	88.57	26.25	
2025-01-17 17:22:04.83	88.51	26.27	
2025-01-17 17:22:05.03	88.45	26.29	
2025-01-17 17:22:05.23	88.38	26.31	
2025-01-17 17:22:05.44	88.32	26.33	
2025-01-17 17:22:05.64	88.26	26.35	
2025-01-17 17:22:05.84	88.20	26.37	
2025-01-17 17:22:06.05	88.13	26.39	
2025-01-17 17:22:06.25	88.07	26.41	
2025-01-17 17:22:06.45	88.01	26.43	
2025-01-17 17:22:06.66	87.95	26.45	
2025-01-17 17:22:06.86	87.89	26.47	
2025-01-17 17:22:07.06	87.82	26.49	
2025-01-17 17:22:07.26	87.76	26.51	
2025-01-17 17:22:07.47	87.70	26.54	
2025-01-17 17:22:07.67	87.64	26.56	
2025-01-17 17:22:07.87	87.57	26.58	
2025-01-17 17:22:08.08	87.51	26.60	
2025-01-17 17:22:08.28	87.45	26.62	
2025-01-17 17:22:08.48	87.38	26.64	
2025-01-17 17:22:08.69	87.32	26.66	
2025-01-17 17:22:08.89	87.26	26.68	
2025-01-17 17:22:09.09	87.19	26.70	
2025-01-17 17:22:09.30	87.13	26.72	
2025-01-17 17:22:09.50	87.07	26.74	
2025-01-17 17:22:09.70	87.00	26.76	
2025-01-17 17:22:09.90	86.94	26.78	
2025-01-17 17:22:10.11	86.87	26.80	
2025-01-17 17:22:10.31	86.81	26.82	
2025-01-17 17:22:10.51	86.75	26.84	
2025-01-17 17:22:10.72	86.68	26.86	
2025-01-17 17:22:10.92	86.62	26.88	
2025-01-17 17:22:11.12	86.56	26.90	
2025-01-17 17:22:11.33	86.49	26.92	
2025-01-17 17:22:11.53	86.43	26.94	
2025-01-17 17:22:11.73	86.36	26.96	
2025-01-17 17:22:11.94	86.30	26.98	
2025-01-17 17:22:12.14	86.23	27.00	
2025-01-17 17:22:12.34	86.17	27.02	
2025-01-17 17:22:12.54	86.10	27.04	
2025-01-17 17:22:12.75	86.04	27.06	
2025-01-17 17:22:12.95	85.97	27.08	
2025-01-17 17:22:13.15	85.91	27.10	
2025-01-17 17:22:13.36	85.84	27.13	
2025-01-17 17:22:13.56	85.78	27.14	
2025-01-17 17:22:13.76	85.71	27.16	
2025-01-17 17:22:13.97	85.65	27.18	
2025-01-17 17:22:14.17	85.58	27.20	
2025-01-17 17:22:14.37	85.52	27.22	
2025-01-17 17:22:14.58	85.45	27.24	
2025-01-17 17:22:14.78	85.38	27.26	
2025-01-17 17:22:14.98	85.32	27.28	
2025-01-17 17:22:15.18	85.25	27.30	
2025-01-17 17:22:15.39	85.19	27.32	
2025-01-17 17:22:15.59	85.12	27.34	
2025-01-17 17:22:15.79	85.06	27.36	
2025-01-17 17:22:16.00	84.99	27.38	
2025-01-17 17:22:16.20	84.92	27.40	
2025-01-17 17:22:16.40	84.86	27.42	
2025-01-17 17:22:16.61	84.79	27.44	
2025-01-17 17:22:16.81	84.72	27.46	
2025-01-17 17:22:17.01	84.66	27.48	
2025-01-17 17:22:17.22	84.59	27.50	
2025-01-17 17:22:17.42	84.52	27.52	
2025-01-17 17:22:17.62	84.46	27.54	
2025-01-17 17:22:17.82	84.39	27.56	
2025-01-17 17:22:18.03	84.32	27.58	
2025-01-17 17:22:18.23	84.25	27.60	
2025-01-17 17:22:18.43	84.19	27.62	
2025-01-17 17:22:18.64	84.12	27.64	
2025-01-17 17:22:18.84	84.05	27.65	
2025-01-17 17:22:19.04	83.98	27.67	
2025-01-17 17:22:19.25	83.91	27.69	
2025-01-17 17:22:19.45	83.85	27.71	
2025-01-17 17:22:19.65	83.78	27.73	
2025-01-17 17:22:19.86	83.71	27.75	
2025-01-17 17:22:20.06	83.64	27.77	
2025-01-17 17:22:20.26	83.58	27.79	
2025-01-17 17:22:20.46	83.51	27.81	
2025-01-17 17:22:20.67	83.44	27.83	
2025-01-17 17:22:20.87	83.37	27.85	
2025-01-17 17:22:21.07	83.30	27.86	
2025-01-17 17:22:21.28	83.23	27.88	
2025-01-17 17:22:21.48	83.17	27.90	
2025-01-17 17:22:21.68	83.10	27.92	
2025-01-17 17:22:21.89	83.03	27.94	
2025-01-17 17:22:22.09	82.96	27.96	
2025-01-17 17:22:22.29	82.89	27.98	
2025-01-17 17:22:22.50	82.82	28.00	
2025-01-17 17:22:22.70	82.75	28.02	
2025-01-17 17:22:22.90	82.68	28.03	
2025-01-17 17:22:23.10	82.62	28.05	
2025-01-17 17:22:23.31	82.54	28.07	
2025-01-17 17:22:23.51	82.48	28.09	
2025-01-17 17:22:23.71	82.41	28.11	
2025-01-17 17:22:23.92	82.34	28.13	
2025-01-17 17:22:24.12	82.27	28.15	
2025-01-17 17:22:24.32	82.20	28.16	
2025-01-17 17:22:24.53	82.13	28.18	
2025-01-17 17:22:24.73	82.06	28.20	
2025-01-17 17:22:24.93	81.99	28.22	
2025-01-17 17:22:25.14	81.92	28.24	
2025-01-17 17:22:25.34	81.85	28.26	
2025-01-17 17:22:25.54	81.78	28.27	
2025-01-17 17:22:25.74	81.71	28.29	
2025-01-17 17:22:25.95	81.64	28.31	
2025-01-17 17:22:26.15	81.57	28.33	
2025-01-17 17:22:26.35	81.50	28.35	
2025-01-17 17:22:26.56	81.42	28.36	
2025-01-17 17:22:26.76	81.35	28.38	
2025-01-17 17:22:26.96	81.28	28.40	
2025-01-17 17:22:27.17	81.21	28.42	
2025-01-17 17:22:27.37	81.14	28.44	
2025-01-17 17:22:27.57	81.07	28.45	
2025-01-17 17:22:27.78	81.00	28.47	
2025-01-17 17:22:27.98	80.93	28.49	
2025-01-17 17:22:28.18	80.86	28.51	
2025-01-17 17:22:28.38	80.79	28.53	
2025-01-17 17:22:28.59	80.71	28.54	
2025-01-17 17:22:28.79	80.64	28.56	
2025-01-17 17:22:28.99	80.57	28.58	
2025-01-17 17:22:29.20	80.50	28.60	
2025-01-17 17:22:29.40	80.43	28.61	
2025-01-17 17:22:29.60	80.36	28.63	
2025-01-17 17:22:29.81	80.28	28.65	
2025-01-17 17:22:30.01	80.21	28.67	
2025-01-17 17:22:30.21	80.14	28.68	
2025-01-17 17:22:30.42	80.07	28.70	
2025-01-17 17:22:30.62	79.99	28.72	
2025-01-17 17:22:30.82	79.92	28.74	
2025-01-17 17:22:31.02	79.85	28.75	
2025-01-17 17:22:31.23	79.78	28.77	
2025-01-17 17:22:31.43	79.71	28.79	
2025-01-17 17:22:31.63	79.63	28.80	
2025-01-17 17:22:31.84	79.56	28.82	
2025-01-17 17:22:32.04	79.49	28.84	
2025-01-17 17:22:32.24	79.42	28.86	
2025-01-17 17:22:32.45	79.34	28.87	
2025-01-17 17:22:32.65	79.27	28.89	
2025-01-17 17:22:32.85	79.20	28.91	
2025-01-17 17:22:33.06	79.12	28.92	
2025-01-17 17:22:33.26	79.05	28.94	
2025-01-17 17:22:33.46	78.98	28.96	
2025-01-17 17:22:33.66	78.90	28.97	
2025-01-17 17:22:33.87	78.83	28.99	
2025-01-17 17:22:34.07	78.75	29.01	
2025-01-17 17:22:34.27	78.68	29.02	
2025-01-17 17:22:34.48	78.61	29.04	
2025-01-17 17:22:34.68	78.53	29.06	
2025-01-17 17:22:34.88	78.46	29.07	
2025-01-17 17:22:35.09	78.38	29.09	
2025-01-17 17:22:35.29	78.31	29.11	
2025-01-17 17:22:35.49	78.24	29.12	
2025-01-17 17:22:35.70	78.16	29.14	
2025-01-17 17:22:35.90	78.09	29.16	
2025-01-17 17:22:36.10	78.01	29.17	
2025-01-17 17:22:36.30	77.94	29.19	
2025-01-17 17:22:36.51	77.86	29.21	
2025-01-17 17:22:36.71	77.79	29.22	
2025-01-17 17:22:36.91	77.72	29.24	
2025-01-17 17:22:37.12	77.64	29.25	
2025-01-17 17:22:37.32	77.57	29.27	
2025-01-17 17:22:37.52	77.49	29.29	
2025-01-17 17:22:37.73	77.41	29.30	
2025-01-17 17:22:37.93	77.34	29.32	
2025-01-17 17:22:38.13	77.27	29.33	
2025-01-17 17:22:38.34	77.19	29.35	
2025-01-17 17:22:38.54	77.11	29.36	
2025-01-17 17:22:38.74	77.04	29.38	
2025-01-17 17:22:38.94	76.97	29.40	
2025-01-17 17:22:39.15	76.89	29.41	
2025-01-17 17:22:39.35	76.81	29.43	
2025-01-17 17:22:39.55	76.74	29.44	
2025-01-17 17:22:39.76	76.66	29.46	
2025-01-17 17:22:39.96	76.59	29.47	
2025-01-17 17:22:40.16	76.51	29.49	
2025-01-17 17:22:40.37	76.43	29.50	
2025-01-17 17:22:40.57	76.36	29.52	
2025-01-17 17:22:40.77	76.28	29.53	
2025-01-17 17:22:40.98	76.20	29.55	
2025-01-17 17:22:41.18	76.13	29.57	
2025-01-17 17:22:41.38	76.05	29.58	
2025-01-17 17:22:41.58	75.98	29.60	
2025-01-17 17:22:41.79	75.90	29.61	
2025-01-17 17:22:41.99	75.82	29.63	
2025-01-17 17:22:42.19	75.75	29.64	
2025-01-17 17:22:42.40	75.67	29.66	
2025-01-17 17:22:42.60	75.59	29.67	
2025-01-17 17:22:42.80	75.52	29.68	
2025-01-17 17:22:43.01	75.44	29.70	
2025-01-17 17:22:43.21	75.36	29.71	
2025-01-17 17:22:43.41	75.28	29.73	
2025-01-17 17:22:43.62	75.20	29.74	
2025-01-17 17:22:43.82	75.13	29.76	
2025-01-17 17:22:44.02	75.05	29.77	
2025-01-17 17:22:44.22	74.98	29.79	
2025-01-17 17:22:44.43	74.90	29.80	
2025-01-17 17:22:44.63	74.82	29.82	
2025-01-17 17:22:44.83	74.74	29.83	
2025-01-17 17:22:45.04	74.66	29.84	
2025-01-17 17:22:45.24	74.59	29.86	
2025-01-17 17:22:45.44	74.51	29.87	
2025-01-17 17:22:45.65	74.43	29.89	
2025-01-17 17:22:45.85	74.35	29.90	
2025-01-17 17:22:46.05	74.28	29.91	
2025-01-17 17:22:46.26	74.19	29.93	
2025-01-17 17:22:46.46	74.12	29.94	
2025-01-17 17:22:46.66	74.04	29.96	
2025-01-17 17:22:46.86	73.96	29.97	
2025-01-17 17:22:47.07	73.88	29.98	
2025-01-17 17:22:47.27	73.81	30.00	
2025-01-17 17:22:47.47	73.73	30.01	
2025-01-17 17:22:47.68	73.65	30.03	
2025-01-17 17:22:47.88	73.57	30.04	
2025-01-17 17:22:48.08	73.49	30.05	
2025-01-17 17:22:48.29	73.41	30.07	
2025-01-17 17:22:48.49	73.33	30.08	
2025-01-17 17:22:48.69	73.25	30.09	
2025-01-17 17:22:48.90	73.17	30.11	
2025-01-17 17:22:49.10	73.10	30.12	
2025-01-17 17:22:49.30	73.02	30.13	
2025-01-17 17:22:49.50	72.94	30.14	
2025-01-17 17:22:49.71	72.86	30.16	
2025-01-17 17:22:49.91	72.78	30.17	
2025-01-17 17:22:50.11	72.70	30.18	
2025-01-17 17:22:50.32	72.62	30.20	
2025-01-17 17:22:50.52	72.54	30.21	
2025-01-17 17:22:50.72	72.46	30.22	
2025-01-17 17:22:50.93	72.38	30.24	
2025-01-17 17:22:51.13	72.30	30.25	
2025-01-17 17:22:51.33	72.22	30.26	
2025-01-17 17:22:51.54	72.14	30.27	
2025-01-17 17:22:51.74	72.06	30.29	
2025-01-17 17:22:51.94	71.98	30.30	
2025-01-17 17:22:52.14	71.90	30.31	
2025-01-17 17:22:52.35	71.82	30.32	
2025-01-17 17:22:52.55	71.74	30.33	
2025-01-17 17:22:52.75	71.66	30.35	
2025-01-17 17:22:52.96	71.58	30.36	
2025-01-17 17:22:53.16	71.50	30.37	
2025-01-17 17:22:53.36	71.42	30.38	
2025-01-17 17:22:53.57	71.34	30.40	
2025-01-17 17:22:53.77	71.26	30.41	
2025-01-17 17:22:53.97	71.18	30.42	
2025-01-17 17:22:54.18	71.10	30.43	
2025-01-17 17:22:54.38	71.02	30.44	
2025-01-17 17:22:54.58	70.94	30.45	
2025-01-17 17:22:54.78	70.86	30.47	
2025-01-17 17:22:54.99	70.77	30.48	
2025-01-17 17:22:55.19	70.69	30.49	
2025-01-17 17:22:55.39	70.61	30.50	
2025-01-17 17:22:55.60	70.53	30.51	
2025-01-17 17:22:55.80	70.45	30.52	
2025-01-17 17:22:56.00	70.37	30.53	
2025-01-17 17:22:56.21	70.29	30.55	
2025-01-17 17:22:56.41	70.21	30.56	
2025-01-17 17:22:56.61	70.13	30.57	
2025-01-17 17:22:56.81	70.05	30.58	
2025-01-17 17:22:57.02	69.96	30.59	
2025-01-17 17:22:57.22	69.88	30.60	
2025-01-17 17:22:57.42	69.80	30.61	
2025-01-17 17:22:57.63	69.72	30.62	
2025-01-17 17:22:57.83	69.64	30.63	
2025-01-17 17:22:58.03	69.56	30.64	
2025-01-17 17:22:58.24	69.47	30.66	
2025-01-17 17:22:58.44	69.39	30.67	
2025-01-17 17:22:58.64	69.31	30.68	
2025-01-17 17:22:58.85	69.22	30.69	
2025-01-17 17:22:59.05	69.14	30.70	
2025-01-17 17:22:59.25	69.06	30.71	
2025-01-17 17:22:59.46	68.98	30.72	
2025-01-17 17:22:59.66	68.90	30.73	
2025-01-17 17:22:59.86	68.82	30.74	
2025-01-17 17:23:00.06	68.73	30.75	
2025-01-17 17:23:00.27	68.65	30.76	
2025-01-17 17:23:00.47	68.57	30.77	
2025-01-17 17:23:00.67	68.49	30.78	
2025-01-17 17:23:00.88	68.40	30.79	
2025-01-17 17:23:01.08	68.32	30.80	
2025-01-17 17:23:01.28	68.24	30.81	
2025-01-17 17:23:01.49	68.15	30.82	
2025-01-17 17:23:01.69	68.07	30.83	
2025-01-17 17:23:01.89	67.99	30.84	
2025-01-17 17:23:02.09	67.91	30.85	
2025-01-17 17:23:02.30	67.82	30.86	
2025-01-17 17:23:02.50	67.74	30.87	
2025-01-17 17:23:02.70	67.66	30.87	
2025-01-17 17:23:02.91	67.57	30.88	
2025-01-17 17:23:03.11	67.49	30.89	
2025-01-17 17:23:03.31	67.41	30.90	
2025-01-17 17:23:03.52	67.32	30.91	
2025-01-17 17:23:03.72	67.24	30.92	
2025-01-17 17:23:03.92	67.16	30.93	
2025-01-17 17:23:04.13	67.07	30.94	
2025-01-17 17:23:04.33	66.99	30.95	
2025-01-17 17:23:04.53	66.91	30.96	
2025-01-17 17:23:04.73	66.83	30.96	
2025-01-17 17:23:04.94	66.74	30.97	
2025-01-17 17:23:05.14	66.66	30.98	
2025-01-17 17:23:05.34	66.58	30.99	
2025-01-17 17:23:05.55	66.49	31.00	
2025-01-17 17:23:05.75	66.41	31.01	
2025-01-17 17:23:05.95	66.33	31.02	
2025-01-17 17:23:06.16	66.24	31.02	
2025-01-17 17:23:06.36	66.16	31.03	
2025-01-17 17:23:06.56	66.07	31.04	
2025-01-17 17:23:06.77	65.99	31.05	
2025-01-17 17:23:06.97	65.90	31.06	
2025-01-17 17:23:07.17	65.82	31.06	
2025-01-17 17:23:07.37	65.74	31.07	
2025-01-17 17:23:07.58	65.65	31.08	
2025-01-17 17:23:07.78	65.57	31.09	
2025-01-17 17:23:07.98	65.49	31.09	
2025-01-17 17:23:08.19	65.40	31.10	
2025-01-17 17:23:08.39	65.32	31.11	
2025-01-17 17:23:08.59	65.23	31.12	
2025-01-17 17:23:08.80	65.15	31.12	
2025-01-17 17:23:09.00	65.06	31.13	
2025-01-17 17:23:09.20	64.98	31.14	
2025-01-17 17:23:09.41	64.89	31.15	
2025-01-17 17:23:09.61	64.81	31.15	
2025-01-17 17:23:09.81	64.73	31.16	
2025-01-17 17:23:10.01	64.64	31.17	
2025-01-17 17:23:10.22	64.56	31.17	
2025-01-17 17:23:10.42	64.47	31.18	
2025-01-17 17:23:10.62	64.39	31.19	
2025-01-17 17:23:10.83	64.30	31.20	
2025-01-17 17:23:11.03	64.22	31.20	
2025-01-17 17:23:11.23	64.13	31.21	
2025-01-17 17:23:11.44	64.05	31.21	
2025-01-17 17:23:11.64	63.96	31.22	
2025-01-17 17:23:11.84	63.88	31.23	
2025-01-17 17:23:12.05	63.79	31.23	
2025-01-17 17:23:12.25	63.71	31.24	
2025-01-17 17:23:12.45	63.62	31.25	
2025-01-17 17:23:12.65	63.54	31.25	
2025-01-17 17:23:12.86	63.45	31.26	
2025-01-17 17:23:13.06	63.37	31.26	
2025-01-17 17:23:13.26	63.28	31.27	
2025-01-17 17:23:13.47	63.20	31.28	
2025-01-17 17:23:13.67	63.11	31.28	
2025-01-17 17:23:13.87	63.03	31.29	
2025-01-17 17:23:14.08	62.94	31.29	
2025-01-17 17:23:14.28	62.86	31.30	
2025-01-17 17:23:14.48	62.77	31.30	
2025-01-17 17:23:14.69	62.68	31.31	
2025-01-17 17:23:14.89	62.60	31.32	
2025-01-17 17:23:15.09	62.52	31.32	
2025-01-17 17:23:15.29	62.43	31.33	
2025-01-17 17:23:15.50	62.34	31.33	
2025-01-17 17:23:15.70	62.26	31.34	
2025-01-17 17:23:15.90	62.18	31.34	
2025-01-17 17:23:16.11	62.09	31.35	
2025-01-17 17:23:16.31	62.00	31.35	
2025-01-17 17:23:16.51	61.92	31.36	
2025-01-17 17:23:16.72	61.83	31.36	
2025-01-17 17:23:16.92	61.75	31.37	
2025-01-17 17:23:17.12	61.66	31.37	
2025-01-17 17:23:17.33	61.57	31.37	
2025-01-17 17:23:17.53	61.49	31.38	
2025-01-17 17:23:17.73	61.40	31.38	
2025-01-17 17:23:17.93	61.32	31.39	
2025-01-17 17:23:18.14	61.23	31.39	
2025-01-17 17:23:18.34	61.15	31.40	
2025-01-17 17:23:18.54	61.06	31.40	
2025-01-17 17:23:18.75	60.97	31.40	
2025-01-17 17:23:18.95	60.89	31.41	
2025-01-17 17:23:19.15	60.80	31.41	
2025-01-17 17:23:19.36	60.72	31.42	
2025-01-17 17:23:19.56	60.63	31.42	
2025-01-17 17:23:19.76	60.55	31.42	
2025-01-17 17:23:19.97	60.46	31.43	
2025-01-17 17:23:20.17	60.37	31.43	
2025-01-17 17:23:20.37	60.29	31.43	
2025-01-17 17:23:20.57	60.20	31.44	
2025-01-17 17:23:20.78	60.11	31.44	
2025-01-17 17:23:20.98	60.03	31.44	
2025-01-17 17:23:21.18	59.95	31.45	
2025-01-17 17:23:21.39	59.86	31.45	
2025-01-17 17:23:21.59	59.77	31.45	
2025-01-17 17:23:21.79	59.69	31.46	
2025-01-17 17:23:22.00	59.60	31.46	
2025-01-17 17:23:22.20	59.51	31.46	
2025-01-17 17:23:22.40	59.43	31.46	
2025-01-17 17:23:22.61	59.34	31.47	
2025-01-17 17:23:22.81	59.25	31.47	
2025-01-17 17:23:23.01	59.17	31.47	
2025-01-17 17:23:23.21	59.08	31.47	
2025-01-17 17:23:23.42	58.99	31.48	
2025-01-17 17:23:23.62	58.91	31.48	
2025-01-17 17:23:23.82	58.83	31.48	
2025-01-17 17:23:24.03	58.74	31.48	
2025-01-17 17:23:24.23	58.65	31.49	
2025-01-17 17:23:24.43	58.57	31.49	
2025-01-17 17:23:24.64	58.48	31.49	
2025-01-17 17:23:24.84	58.39	31.49	
2025-01-17 17:23:25.04	58.31	31.49	
2025-01-17 17:23:25.25	58.22	31.50	
2025-01-17 17:23:25.45	58.13	31.50	
2025-01-17 17:23:25.65	58.05	31.50	
2025-01-17 17:23:25.85	57.96	31.50	
2025-01-17 17:23:26.06	57.87	31.50	
2025-01-17 17:23:26.26	57.79	31.50	
2025-01-17 17:23:26.46	57.70	31.51	
2025-01-17 17:23:26.67	57.61	31.51	
2025-01-17 17:23:26.87	57.53	31.51	
2025-01-17 17:23:27.07	57.44	31.51	
2025-01-17 17:23:27.28	57.35	31.51	
2025-01-17 17:23:27.48	57.27	31.51	
2025-01-17 17:23:27.68	57.18	31.51	
2025-01-17 17:23:27.89	57.09	31.51	
2025-01-17 17:23:28.09	57.01	31.51	
2025-01-17 17:23:28.29	56.92	31.51	
2025-01-17 17:23:28.49	56.84	31.51	
2025-01-17 17:23:28.70	56.75	31.52	
2025-01-17 17:23:28.90	56.67	31.52	
2025-01-17 17:23:29.10	56.58	31.52	
2025-01-17 17:23:29.31	56.49	31.52	
2025-01-17 17:23:29.51	56.41	31.52	
2025-01-17 17:23:29.71	56.32	31.52	
2025-01-17 17:23:29.92	56.23	31.52	
2025-01-17 17:23:30.12	56.15	31.52	
2025-01-17 17:23:30.32	56.06	31.52	
2025-01-17 17:23:30.53	55.97	31.52	
2025-01-17 17:23:30.73	55.89	31.52	
2025-01-17 17:23:30.93	55.80	31.52	
2025-01-17 17:23:31.13	55.72	31.52	
2025-01-17 17:23:31.34	55.63	31.52	
2025-01-17 17:23:31.54	55.54	31.52	
2025-01-17 17:23:31.74	55.46	31.51	
2025-01-17 17:23:31.95	55.37	31.51	
2025-01-17 17:23:32.15	55.28	31.51	
2025-01-17 17:23:32.35	55.20	31.51	
2025-01-17 17:23:32.56	55.11	31.51	
2025-01-17 17:23:32.76	55.02	31.51	
2025-01-17 17:23:32.96	54.94	31.51	
2025-01-17 17:23:33.17	54.85	31.51	
2025-01-17 17:23:33.37	54.76	31.51	
2025-01-17 17:23:33.57	54.68	31.51	
2025-01-17 17:23:33.77	54.59	31.51	
2025-01-17 17:23:33.98	54.50	31.50	
2025-01-17 17:23:34.18	54.42	31.50	
2025-01-17 17:23:34.38	54.33	31.50	
2025-01-17 17:23:34.59	54.24	31.50	
2025-01-17 17:23:34.79	54.16	31.50	
2025-01-17 17:23:34.99	54.07	31.50	
2025-01-17 17:23:35.20	53.99	31.50	
2025-01-17 17:23:35.40	53.90	31.49	
2025-01-17 17:23:35.60	53.82	31.49	
2025-01-17 17:23:35.81	53.73	31.49	
2025-01-17 17:23:36.01	53.64	31.49	
2025-01-17 17:23:36.21	53.56	31.49	
2025-01-17 17:23:36.41	53.47	31.48	
2025-01-17 17:23:36.62	53.38	31.48	
2025-01-17 17:23:36.82	53.30	31.48	
