passes_logs/2025/01/17/SPB_Silybum_02/SPB_Silybum_02__20250117_061355_SUOMI_NPP_rec.log

#Pass ID: 20250117_061355_SUOMI NPP
#Satellite: SUOMI NPP
#Configuration: NPP
#Start time: 2025-01-17 06:13:55

#Version: 2.0.20230423
#Station: SPB_Silybum_02
#Location: 30.233357 lon 59.946436 lat
#TLE: 1 37849U 11061A   25016.82296503  .00000177  00000+0  10458-3 0  9994
#TLE: 2 37849  98.7449 317.7884 0001611  38.3630 321.7660 14.19539095685172

#Time	Az	El	Level	Level2	SNR	BER	Gain	Gain2
2025-01-17 06:13:57.92	45.49	4.10	
2025-01-17 06:13:58.12	45.47	4.11	
2025-01-17 06:13:58.33	45.44	4.11	
2025-01-17 06:13:58.53	45.42	4.12	
2025-01-17 06:13:58.73	45.39	4.13	
2025-01-17 06:13:58.93	45.37	4.13	
2025-01-17 06:13:59.14	45.34	4.14	
2025-01-17 06:13:59.34	45.32	4.15	
2025-01-17 06:13:59.54	45.29	4.16	
2025-01-17 06:13:59.75	45.26	4.16	
2025-01-17 06:13:59.95	45.24	4.17	
2025-01-17 06:14:00.15	45.21	4.18	
2025-01-17 06:14:00.36	45.19	4.19	
2025-01-17 06:14:00.56	45.16	4.19	
2025-01-17 06:14:00.76	45.14	4.20	
2025-01-17 06:14:00.97	45.11	4.21	
2025-01-17 06:14:01.17	45.09	4.22	
2025-01-17 06:14:01.37	45.06	4.22	
2025-01-17 06:14:01.57	45.04	4.23	
2025-01-17 06:14:01.78	45.01	4.24	
2025-01-17 06:14:01.98	44.98	4.24	
2025-01-17 06:14:02.18	44.96	4.25	
2025-01-17 06:14:02.39	44.93	4.26	
2025-01-17 06:14:02.59	44.91	4.27	
2025-01-17 06:14:02.79	44.88	4.27	
2025-01-17 06:14:03.00	44.85	4.28	
2025-01-17 06:14:03.20	44.83	4.29	
2025-01-17 06:14:03.40	44.80	4.29	
2025-01-17 06:14:03.61	44.78	4.30	
2025-01-17 06:14:03.81	44.75	4.31	
2025-01-17 06:14:04.01	44.73	4.32	
2025-01-17 06:14:04.21	44.70	4.32	
2025-01-17 06:14:04.42	44.67	4.33	
2025-01-17 06:14:04.62	44.65	4.34	
2025-01-17 06:14:04.82	44.62	4.34	
2025-01-17 06:14:05.03	44.60	4.35	
2025-01-17 06:14:05.23	44.57	4.36	
2025-01-17 06:14:05.43	44.55	4.37	
2025-01-17 06:14:05.64	44.52	4.37	
2025-01-17 06:14:05.84	44.49	4.38	
2025-01-17 06:14:06.04	44.47	4.39	
2025-01-17 06:14:06.25	44.44	4.40	
2025-01-17 06:14:06.45	44.42	4.40	
2025-01-17 06:14:06.65	44.39	4.41	
2025-01-17 06:14:06.85	44.37	4.42	
2025-01-17 06:14:07.06	44.34	4.42	
2025-01-17 06:14:07.26	44.31	4.43	
2025-01-17 06:14:07.46	44.29	4.44	
2025-01-17 06:14:07.67	44.26	4.45	
2025-01-17 06:14:07.87	44.23	4.45	
2025-01-17 06:14:08.07	44.21	4.46	
2025-01-17 06:14:08.28	44.18	4.47	
2025-01-17 06:14:08.48	44.16	4.47	
2025-01-17 06:14:08.68	44.13	4.48	
2025-01-17 06:14:08.89	44.10	4.49	
2025-01-17 06:14:09.09	44.08	4.50	
2025-01-17 06:14:09.29	44.05	4.50	
2025-01-17 06:14:09.49	44.03	4.51	
2025-01-17 06:14:09.70	44.00	4.52	
2025-01-17 06:14:09.90	43.97	4.52	
2025-01-17 06:14:10.10	43.95	4.53	
2025-01-17 06:14:10.31	43.92	4.54	
2025-01-17 06:14:10.51	43.90	4.55	
2025-01-17 06:14:10.71	43.87	4.55	
2025-01-17 06:14:10.92	43.84	4.56	
2025-01-17 06:14:11.12	43.82	4.57	
2025-01-17 06:14:11.32	43.79	4.57	
2025-01-17 06:14:11.53	43.76	4.58	
2025-01-17 06:14:11.73	43.74	4.59	
2025-01-17 06:14:11.93	43.71	4.59	
2025-01-17 06:14:12.13	43.69	4.60	
2025-01-17 06:14:12.34	43.66	4.61	
2025-01-17 06:14:12.54	43.63	4.62	
2025-01-17 06:14:12.74	43.61	4.62	
2025-01-17 06:14:12.95	43.58	4.63	
2025-01-17 06:14:13.15	43.55	4.64	
2025-01-17 06:14:13.35	43.53	4.64	
2025-01-17 06:14:13.56	43.50	4.65	
2025-01-17 06:14:13.76	43.47	4.66	
2025-01-17 06:14:13.96	43.45	4.66	
2025-01-17 06:14:14.17	43.42	4.67	
2025-01-17 06:14:14.37	43.40	4.68	
2025-01-17 06:14:14.57	43.37	4.69	
2025-01-17 06:14:14.77	43.34	4.69	
2025-01-17 06:14:14.98	43.32	4.70	
2025-01-17 06:14:15.18	43.29	4.71	
2025-01-17 06:14:15.38	43.26	4.71	
2025-01-17 06:14:15.59	43.24	4.72	
2025-01-17 06:14:15.79	43.21	4.73	
2025-01-17 06:14:15.99	43.18	4.74	
2025-01-17 06:14:16.20	43.16	4.74	
2025-01-17 06:14:16.40	43.13	4.75	
2025-01-17 06:14:16.60	43.10	4.76	
2025-01-17 06:14:16.81	43.08	4.76	
2025-01-17 06:14:17.01	43.05	4.77	
2025-01-17 06:14:17.21	43.02	4.78	
2025-01-17 06:14:17.41	43.00	4.78	
2025-01-17 06:14:17.62	42.97	4.79	
2025-01-17 06:14:17.82	42.94	4.80	
2025-01-17 06:14:18.02	42.92	4.80	
2025-01-17 06:14:18.23	42.89	4.81	
2025-01-17 06:14:18.43	42.86	4.82	
2025-01-17 06:14:18.63	42.84	4.83	
2025-01-17 06:14:18.84	42.81	4.83	
2025-01-17 06:14:19.04	42.78	4.84	
2025-01-17 06:14:19.24	42.76	4.85	
2025-01-17 06:14:19.45	42.73	4.85	
2025-01-17 06:14:19.65	42.70	4.86	
2025-01-17 06:14:19.85	42.68	4.87	
2025-01-17 06:14:20.05	42.65	4.87	
2025-01-17 06:14:20.26	42.62	4.88	
2025-01-17 06:14:20.46	42.60	4.89	
2025-01-17 06:14:20.66	42.57	4.89	
2025-01-17 06:14:20.87	42.54	4.90	
2025-01-17 06:14:21.07	42.52	4.91	
2025-01-17 06:14:21.27	42.49	4.92	
2025-01-17 06:14:21.48	42.46	4.92	
2025-01-17 06:14:21.68	42.44	4.93	
2025-01-17 06:14:21.88	42.41	4.94	
2025-01-17 06:14:22.09	42.38	4.94	
2025-01-17 06:14:22.29	42.36	4.95	
2025-01-17 06:14:22.49	42.33	4.96	
2025-01-17 06:14:22.69	42.30	4.96	
2025-01-17 06:14:22.90	42.27	4.97	
2025-01-17 06:14:23.10	42.25	4.98	
2025-01-17 06:14:23.30	42.22	4.98	
2025-01-17 06:14:23.51	42.19	4.99	
2025-01-17 06:14:23.71	42.17	5.00	
2025-01-17 06:14:23.91	42.14	5.00	
2025-01-17 06:14:24.12	42.11	5.01	
2025-01-17 06:14:24.32	42.09	5.02	
2025-01-17 06:14:24.52	42.06	5.03	
2025-01-17 06:14:24.73	42.03	5.03	
2025-01-17 06:14:24.93	42.00	5.04	
2025-01-17 06:14:25.13	41.98	5.05	
2025-01-17 06:14:25.33	41.95	5.05	
2025-01-17 06:14:25.54	41.92	5.06	
2025-01-17 06:14:25.74	41.90	5.07	
2025-01-17 06:14:25.94	41.87	5.07	
2025-01-17 06:14:26.15	41.84	5.08	
2025-01-17 06:14:26.35	41.81	5.09	
2025-01-17 06:14:26.55	41.79	5.09	
2025-01-17 06:14:26.76	41.76	5.10	
2025-01-17 06:14:26.96	41.73	5.11	
2025-01-17 06:14:27.16	41.71	5.11	
2025-01-17 06:14:27.37	41.68	5.12	
2025-01-17 06:14:27.57	41.65	5.13	
2025-01-17 06:14:27.77	41.62	5.13	
2025-01-17 06:14:27.97	41.60	5.14	
2025-01-17 06:14:28.18	41.57	5.15	
2025-01-17 06:14:28.38	41.54	5.15	
2025-01-17 06:14:28.58	41.51	5.16	
2025-01-17 06:14:28.79	41.49	5.17	
2025-01-17 06:14:28.99	41.46	5.17	
2025-01-17 06:14:29.19	41.43	5.18	
2025-01-17 06:14:29.40	41.40	5.19	
2025-01-17 06:14:29.60	41.38	5.19	
2025-01-17 06:14:29.80	41.35	5.20	
2025-01-17 06:14:30.00	41.32	5.21	
2025-01-17 06:14:30.21	41.29	5.21	
2025-01-17 06:14:30.41	41.27	5.22	
2025-01-17 06:14:30.61	41.24	5.23	
2025-01-17 06:14:30.82	41.21	5.23	
2025-01-17 06:14:31.02	41.19	5.24	
2025-01-17 06:14:31.22	41.16	5.25	
2025-01-17 06:14:31.43	41.13	5.26	
2025-01-17 06:14:31.63	41.10	5.26	
2025-01-17 06:14:31.83	41.08	5.27	
2025-01-17 06:14:32.04	41.05	5.28	
2025-01-17 06:14:32.24	41.02	5.28	
2025-01-17 06:14:32.44	40.99	5.29	
2025-01-17 06:14:32.64	40.97	5.29	
2025-01-17 06:14:32.85	40.94	5.30	
2025-01-17 06:14:33.05	40.91	5.31	
2025-01-17 06:14:33.25	40.88	5.31	
2025-01-17 06:14:33.46	40.85	5.32	
2025-01-17 06:14:33.66	40.83	5.33	
2025-01-17 06:14:33.86	40.80	5.33	
2025-01-17 06:14:34.07	40.77	5.34	
2025-01-17 06:14:34.27	40.74	5.35	
2025-01-17 06:14:34.47	40.72	5.35	
2025-01-17 06:14:34.68	40.69	5.36	
2025-01-17 06:14:34.88	40.66	5.37	
2025-01-17 06:14:35.08	40.63	5.37	
2025-01-17 06:14:35.28	40.61	5.38	
2025-01-17 06:14:35.49	40.58	5.39	
2025-01-17 06:14:35.69	40.55	5.39	
2025-01-17 06:14:35.89	40.52	5.40	
2025-01-17 06:14:36.10	40.49	5.41	
2025-01-17 06:14:36.30	40.47	5.41	
2025-01-17 06:14:36.50	40.44	5.42	
2025-01-17 06:14:36.71	40.41	5.43	
2025-01-17 06:14:36.91	40.38	5.43	
2025-01-17 06:14:37.11	40.36	5.44	
2025-01-17 06:14:37.32	40.33	5.45	
2025-01-17 06:14:37.52	40.30	5.45	
2025-01-17 06:14:37.72	40.27	5.46	
2025-01-17 06:14:37.92	40.24	5.47	
2025-01-17 06:14:38.13	40.22	5.47	
2025-01-17 06:14:38.33	40.19	5.48	
2025-01-17 06:14:38.53	40.16	5.49	
2025-01-17 06:14:38.74	40.13	5.49	
2025-01-17 06:14:38.94	40.10	5.50	
2025-01-17 06:14:39.14	40.08	5.51	
2025-01-17 06:14:39.35	40.05	5.51	
2025-01-17 06:14:39.55	40.02	5.52	
2025-01-17 06:14:39.75	39.99	5.52	
2025-01-17 06:14:39.96	39.96	5.53	
2025-01-17 06:14:40.16	39.94	5.54	
2025-01-17 06:14:40.36	39.91	5.54	
2025-01-17 06:14:40.56	39.88	5.55	
2025-01-17 06:14:40.77	39.85	5.56	
2025-01-17 06:14:40.97	39.82	5.56	
2025-01-17 06:14:41.17	39.80	5.57	
2025-01-17 06:14:41.38	39.77	5.58	
2025-01-17 06:14:41.58	39.74	5.58	
2025-01-17 06:14:41.78	39.71	5.59	
2025-01-17 06:14:41.99	39.68	5.60	
2025-01-17 06:14:42.19	39.65	5.60	
2025-01-17 06:14:42.39	39.63	5.61	
2025-01-17 06:14:42.60	39.60	5.62	
2025-01-17 06:14:42.80	39.57	5.62	
2025-01-17 06:14:43.00	39.54	5.63	
2025-01-17 06:14:43.20	39.51	5.63	
2025-01-17 06:14:43.41	39.48	5.64	
2025-01-17 06:14:43.61	39.46	5.65	
2025-01-17 06:14:43.81	39.43	5.65	
2025-01-17 06:14:44.02	39.40	5.66	
2025-01-17 06:14:44.22	39.37	5.67	
2025-01-17 06:14:44.42	39.34	5.67	
2025-01-17 06:14:44.63	39.31	5.68	
2025-01-17 06:14:44.83	39.29	5.69	
2025-01-17 06:14:45.03	39.26	5.69	
2025-01-17 06:14:45.24	39.23	5.70	
2025-01-17 06:14:45.44	39.20	5.70	
2025-01-17 06:14:45.64	39.17	5.71	
2025-01-17 06:14:45.84	39.15	5.72	
2025-01-17 06:14:46.05	39.12	5.72	
2025-01-17 06:14:46.25	39.09	5.73	
2025-01-17 06:14:46.45	39.06	5.74	
2025-01-17 06:14:46.66	39.03	5.74	
2025-01-17 06:14:46.86	39.00	5.75	
2025-01-17 06:14:47.06	38.97	5.76	
2025-01-17 06:14:47.27	38.95	5.76	
2025-01-17 06:14:47.47	38.92	5.77	
2025-01-17 06:14:47.67	38.89	5.77	
2025-01-17 06:14:47.88	38.86	5.78	
2025-01-17 06:14:48.08	38.83	5.79	
2025-01-17 06:14:48.29	38.80	5.79	
2025-01-17 06:14:48.49	38.77	5.80	
2025-01-17 06:14:48.70	38.74	5.81	
2025-01-17 06:14:48.90	38.72	5.81	
2025-01-17 06:14:49.10	38.69	5.82	
2025-01-17 06:14:49.30	38.66	5.82	
2025-01-17 06:14:49.51	38.63	5.83	
2025-01-17 06:14:49.71	38.60	5.84	
2025-01-17 06:14:49.91	38.57	5.84	
2025-01-17 06:14:50.12	38.54	5.85	
2025-01-17 06:14:50.32	38.52	5.86	
2025-01-17 06:14:50.52	38.49	5.86	
2025-01-17 06:14:50.73	38.46	5.87	
2025-01-17 06:14:50.93	38.43	5.87	
2025-01-17 06:14:51.13	38.40	5.88	
2025-01-17 06:14:51.33	38.37	5.89	
2025-01-17 06:14:51.54	38.34	5.89	
2025-01-17 06:14:51.74	38.31	5.90	
2025-01-17 06:14:51.94	38.29	5.91	
2025-01-17 06:14:52.15	38.26	5.91	
2025-01-17 06:14:52.35	38.23	5.92	
2025-01-17 06:14:52.55	38.20	5.92	
2025-01-17 06:14:52.76	38.17	5.93	
2025-01-17 06:14:52.96	38.14	5.94	
2025-01-17 06:14:53.16	38.11	5.94	
2025-01-17 06:14:53.37	38.08	5.95	
2025-01-17 06:14:53.57	38.06	5.95	
2025-01-17 06:14:53.77	38.03	5.96	
2025-01-17 06:14:53.97	38.00	5.97	
2025-01-17 06:14:54.18	37.97	5.97	
2025-01-17 06:14:54.38	37.94	5.98	
2025-01-17 06:14:54.58	37.91	5.99	
2025-01-17 06:14:54.79	37.88	5.99	
2025-01-17 06:14:54.99	37.85	6.00	
2025-01-17 06:14:55.19	37.82	6.00	
2025-01-17 06:14:55.40	37.79	6.01	
2025-01-17 06:14:55.60	37.77	6.02	
2025-01-17 06:14:55.80	37.74	6.02	
2025-01-17 06:14:56.01	37.71	6.03	
2025-01-17 06:14:56.21	37.68	6.03	
2025-01-17 06:14:56.41	37.65	6.04	
2025-01-17 06:14:56.61	37.62	6.05	
2025-01-17 06:14:56.82	37.59	6.05	
2025-01-17 06:14:57.02	37.56	6.06	
2025-01-17 06:14:57.22	37.53	6.06	
2025-01-17 06:14:57.43	37.50	6.07	
2025-01-17 06:14:57.63	37.48	6.08	
2025-01-17 06:14:57.83	37.45	6.08	
2025-01-17 06:14:58.04	37.42	6.09	
2025-01-17 06:14:58.24	37.39	6.09	
2025-01-17 06:14:58.44	37.36	6.10	
2025-01-17 06:14:58.65	37.33	6.11	
2025-01-17 06:14:58.85	37.30	6.11	
2025-01-17 06:14:59.05	37.27	6.12	
2025-01-17 06:14:59.25	37.24	6.12	
2025-01-17 06:14:59.46	37.21	6.13	
2025-01-17 06:14:59.66	37.18	6.14	
2025-01-17 06:14:59.86	37.15	6.14	
2025-01-17 06:15:00.07	37.12	6.15	
2025-01-17 06:15:00.27	37.10	6.15	
2025-01-17 06:15:00.47	37.07	6.16	
2025-01-17 06:15:00.68	37.04	6.17	
2025-01-17 06:15:00.88	37.01	6.17	
2025-01-17 06:15:01.08	36.98	6.18	
2025-01-17 06:15:01.29	36.95	6.18	
2025-01-17 06:15:01.49	36.92	6.19	
2025-01-17 06:15:01.69	36.89	6.20	
2025-01-17 06:15:01.89	36.86	6.20	
2025-01-17 06:15:02.10	36.83	6.21	
2025-01-17 06:15:02.30	36.80	6.21	
2025-01-17 06:15:02.50	36.77	6.22	
2025-01-17 06:15:02.71	36.74	6.23	
2025-01-17 06:15:02.91	36.71	6.23	
2025-01-17 06:15:03.11	36.68	6.24	
2025-01-17 06:15:03.32	36.65	6.24	
2025-01-17 06:15:03.52	36.63	6.25	
2025-01-17 06:15:03.72	36.60	6.26	
2025-01-17 06:15:03.93	36.57	6.26	
2025-01-17 06:15:04.13	36.54	6.27	
2025-01-17 06:15:04.33	36.51	6.27	
2025-01-17 06:15:04.53	36.48	6.28	
2025-01-17 06:15:04.74	36.45	6.28	
2025-01-17 06:15:04.94	36.42	6.29	
2025-01-17 06:15:05.14	36.39	6.30	
2025-01-17 06:15:05.35	36.36	6.30	
2025-01-17 06:15:05.55	36.33	6.31	
2025-01-17 06:15:05.75	36.30	6.31	
2025-01-17 06:15:05.96	36.27	6.32	
2025-01-17 06:15:06.16	36.24	6.33	
2025-01-17 06:15:06.36	36.21	6.33	
2025-01-17 06:15:06.57	36.18	6.34	
2025-01-17 06:15:06.77	36.15	6.34	
2025-01-17 06:15:06.97	36.12	6.35	
2025-01-17 06:15:07.17	36.09	6.35	
2025-01-17 06:15:07.38	36.06	6.36	
2025-01-17 06:15:07.58	36.03	6.37	
2025-01-17 06:15:07.78	36.00	6.37	
2025-01-17 06:15:07.99	35.97	6.38	
2025-01-17 06:15:08.19	35.94	6.38	
2025-01-17 06:15:08.39	35.91	6.39	
2025-01-17 06:15:08.60	35.88	6.39	
2025-01-17 06:15:08.80	35.85	6.40	
2025-01-17 06:15:09.00	35.82	6.41	
2025-01-17 06:15:09.21	35.79	6.41	
2025-01-17 06:15:09.41	35.76	6.42	
2025-01-17 06:15:09.61	35.74	6.42	
2025-01-17 06:15:09.81	35.71	6.43	
2025-01-17 06:15:10.02	35.68	6.43	
2025-01-17 06:15:10.22	35.65	6.44	
2025-01-17 06:15:10.42	35.62	6.45	
2025-01-17 06:15:10.63	35.59	6.45	
2025-01-17 06:15:10.83	35.56	6.46	
2025-01-17 06:15:11.03	35.53	6.46	
2025-01-17 06:15:11.24	35.50	6.47	
2025-01-17 06:15:11.44	35.47	6.47	
2025-01-17 06:15:11.64	35.44	6.48	
2025-01-17 06:15:11.85	35.41	6.49	
2025-01-17 06:15:12.05	35.38	6.49	
2025-01-17 06:15:12.25	35.35	6.50	
2025-01-17 06:15:12.45	35.32	6.50	
2025-01-17 06:15:12.66	35.29	6.51	
2025-01-17 06:15:12.86	35.26	6.51	
2025-01-17 06:15:13.06	35.23	6.52	
2025-01-17 06:15:13.27	35.20	6.52	
2025-01-17 06:15:13.47	35.17	6.53	
2025-01-17 06:15:13.67	35.14	6.54	
2025-01-17 06:15:13.88	35.11	6.54	
2025-01-17 06:15:14.08	35.08	6.55	
2025-01-17 06:15:14.28	35.05	6.55	
2025-01-17 06:15:14.49	35.01	6.56	
2025-01-17 06:15:14.69	34.99	6.56	
2025-01-17 06:15:14.89	34.96	6.57	
2025-01-17 06:15:15.09	34.93	6.57	
2025-01-17 06:15:15.30	34.89	6.58	
2025-01-17 06:15:15.50	34.86	6.59	
2025-01-17 06:15:15.70	34.84	6.59	
2025-01-17 06:15:15.91	34.80	6.60	
2025-01-17 06:15:16.11	34.77	6.60	
2025-01-17 06:15:16.31	34.74	6.61	
2025-01-17 06:15:16.52	34.71	6.61	
2025-01-17 06:15:16.72	34.68	6.62	
2025-01-17 06:15:16.92	34.65	6.62	
2025-01-17 06:15:17.13	34.62	6.63	
2025-01-17 06:15:17.33	34.59	6.64	
2025-01-17 06:15:17.53	34.56	6.64	
2025-01-17 06:15:17.73	34.53	6.65	
2025-01-17 06:15:17.94	34.50	6.65	
2025-01-17 06:15:18.14	34.47	6.66	
2025-01-17 06:15:18.34	34.44	6.66	
2025-01-17 06:15:18.55	34.41	6.67	
2025-01-17 06:15:18.75	34.38	6.67	
2025-01-17 06:15:18.95	34.35	6.68	
2025-01-17 06:15:19.16	34.32	6.68	
2025-01-17 06:15:19.36	34.29	6.69	
2025-01-17 06:15:19.56	34.26	6.69	
2025-01-17 06:15:19.77	34.23	6.70	
2025-01-17 06:15:19.97	34.20	6.71	
2025-01-17 06:15:20.17	34.17	6.71	
2025-01-17 06:15:20.37	34.14	6.72	
2025-01-17 06:15:20.58	34.11	6.72	
2025-01-17 06:15:20.78	34.08	6.73	
2025-01-17 06:15:20.98	34.05	6.73	
2025-01-17 06:15:21.19	34.01	6.74	
2025-01-17 06:15:21.39	33.98	6.74	
2025-01-17 06:15:21.59	33.95	6.75	
2025-01-17 06:15:21.80	33.92	6.75	
2025-01-17 06:15:22.00	33.89	6.76	
2025-01-17 06:15:22.20	33.86	6.76	
2025-01-17 06:15:22.41	33.83	6.77	
2025-01-17 06:15:22.61	33.80	6.78	
2025-01-17 06:15:22.81	33.77	6.78	
2025-01-17 06:15:23.01	33.74	6.79	
2025-01-17 06:15:23.22	33.71	6.79	
2025-01-17 06:15:23.42	33.68	6.80	
2025-01-17 06:15:23.62	33.65	6.80	
2025-01-17 06:15:23.83	33.62	6.81	
2025-01-17 06:15:24.03	33.59	6.81	
2025-01-17 06:15:24.23	33.56	6.82	
2025-01-17 06:15:24.44	33.52	6.82	
2025-01-17 06:15:24.64	33.49	6.83	
2025-01-17 06:15:24.84	33.46	6.83	
2025-01-17 06:15:25.05	33.43	6.84	
2025-01-17 06:15:25.25	33.40	6.84	
2025-01-17 06:15:25.45	33.37	6.85	
2025-01-17 06:15:25.65	33.34	6.85	
2025-01-17 06:15:25.86	33.31	6.86	
2025-01-17 06:15:26.06	33.28	6.86	
2025-01-17 06:15:26.26	33.25	6.87	
2025-01-17 06:15:26.47	33.22	6.87	
2025-01-17 06:15:26.67	33.19	6.88	
2025-01-17 06:15:26.87	33.16	6.88	
2025-01-17 06:15:27.08	33.12	6.89	
2025-01-17 06:15:27.28	33.09	6.90	
2025-01-17 06:15:27.48	33.06	6.90	
2025-01-17 06:15:27.69	33.03	6.91	
2025-01-17 06:15:27.89	33.00	6.91	
2025-01-17 06:15:28.09	32.97	6.92	
2025-01-17 06:15:28.29	32.94	6.92	
2025-01-17 06:15:28.50	32.91	6.93	
2025-01-17 06:15:28.70	32.88	6.93	
2025-01-17 06:15:28.90	32.85	6.94	
2025-01-17 06:15:29.11	32.82	6.94	
2025-01-17 06:15:29.31	32.79	6.95	
2025-01-17 06:15:29.51	32.76	6.95	
2025-01-17 06:15:29.72	32.72	6.96	
2025-01-17 06:15:29.92	32.69	6.96	
2025-01-17 06:15:30.12	32.66	6.97	
2025-01-17 06:15:30.33	32.63	6.97	
2025-01-17 06:15:30.53	32.60	6.98	
2025-01-17 06:15:30.73	32.57	6.98	
2025-01-17 06:15:30.93	32.54	6.99	
2025-01-17 06:15:31.14	32.51	6.99	
2025-01-17 06:15:31.34	32.48	7.00	
2025-01-17 06:15:31.54	32.45	7.00	
2025-01-17 06:15:31.75	32.41	7.01	
2025-01-17 06:15:31.95	32.38	7.01	
2025-01-17 06:15:32.15	32.35	7.02	
2025-01-17 06:15:32.36	32.32	7.02	
2025-01-17 06:15:32.56	32.29	7.03	
2025-01-17 06:15:32.76	32.26	7.03	
2025-01-17 06:15:32.96	32.23	7.04	
2025-01-17 06:15:33.17	32.20	7.04	
2025-01-17 06:15:33.37	32.16	7.05	
2025-01-17 06:15:33.57	32.13	7.05	
2025-01-17 06:15:33.78	32.10	7.06	
2025-01-17 06:15:33.98	32.07	7.06	
2025-01-17 06:15:34.18	32.04	7.07	
2025-01-17 06:15:34.39	32.01	7.07	
2025-01-17 06:15:34.59	31.98	7.08	
2025-01-17 06:15:34.79	31.95	7.08	
2025-01-17 06:15:35.00	31.91	7.09	
2025-01-17 06:15:35.20	31.88	7.09	
2025-01-17 06:15:35.40	31.85	7.10	
2025-01-17 06:15:35.60	31.82	7.10	
2025-01-17 06:15:35.81	31.79	7.11	
2025-01-17 06:15:36.01	31.76	7.11	
2025-01-17 06:15:36.21	31.73	7.11	
2025-01-17 06:15:36.42	31.70	7.12	
2025-01-17 06:15:36.62	31.66	7.12	
2025-01-17 06:15:36.82	31.63	7.13	
2025-01-17 06:15:37.03	31.60	7.13	
2025-01-17 06:15:37.23	31.57	7.14	
2025-01-17 06:15:37.43	31.54	7.14	
2025-01-17 06:15:37.64	31.51	7.15	
2025-01-17 06:15:37.84	31.48	7.15	
2025-01-17 06:15:38.04	31.44	7.16	
2025-01-17 06:15:38.24	31.41	7.16	
2025-01-17 06:15:38.45	31.38	7.17	
2025-01-17 06:15:38.65	31.35	7.17	
2025-01-17 06:15:38.85	31.32	7.18	
2025-01-17 06:15:39.06	31.29	7.18	
2025-01-17 06:15:39.26	31.26	7.19	
2025-01-17 06:15:39.46	31.23	7.19	
2025-01-17 06:15:39.67	31.19	7.20	
2025-01-17 06:15:39.87	31.16	7.20	
2025-01-17 06:15:40.07	31.13	7.21	
2025-01-17 06:15:40.28	31.10	7.21	
2025-01-17 06:15:40.48	31.07	7.21	
2025-01-17 06:15:40.68	31.04	7.22	
2025-01-17 06:15:40.88	31.00	7.22	
2025-01-17 06:15:41.09	30.97	7.23	
2025-01-17 06:15:41.29	30.94	7.23	
2025-01-17 06:15:41.49	30.91	7.24	
2025-01-17 06:15:41.70	30.88	7.24	
2025-01-17 06:15:41.90	30.85	7.25	
2025-01-17 06:15:42.10	30.81	7.25	
2025-01-17 06:15:42.31	30.78	7.26	
2025-01-17 06:15:42.51	30.75	7.26	
2025-01-17 06:15:42.71	30.72	7.27	
2025-01-17 06:15:42.92	30.69	7.27	
2025-01-17 06:15:43.12	30.66	7.28	
2025-01-17 06:15:43.32	30.62	7.28	
2025-01-17 06:15:43.52	30.59	7.28	
2025-01-17 06:15:43.73	30.56	7.29	
2025-01-17 06:15:43.93	30.53	7.29	
2025-01-17 06:15:44.13	30.50	7.30	
2025-01-17 06:15:44.34	30.47	7.30	
2025-01-17 06:15:44.54	30.43	7.31	
2025-01-17 06:15:44.74	30.40	7.31	
2025-01-17 06:15:44.95	30.37	7.32	
2025-01-17 06:15:45.15	30.34	7.32	
2025-01-17 06:15:45.35	30.31	7.33	
2025-01-17 06:15:45.56	30.27	7.33	
2025-01-17 06:15:45.76	30.24	7.33	
2025-01-17 06:15:45.96	30.21	7.34	
2025-01-17 06:15:46.16	30.18	7.34	
2025-01-17 06:15:46.37	30.15	7.35	
2025-01-17 06:15:46.57	30.12	7.35	
2025-01-17 06:15:46.77	30.08	7.36	
2025-01-17 06:15:46.98	30.05	7.36	
2025-01-17 06:15:47.18	30.02	7.37	
2025-01-17 06:15:47.38	29.99	7.37	
2025-01-17 06:15:47.59	29.96	7.37	
2025-01-17 06:15:47.79	29.92	7.38	
2025-01-17 06:15:47.99	29.89	7.38	
2025-01-17 06:15:48.20	29.86	7.39	
2025-01-17 06:15:48.40	29.83	7.39	
2025-01-17 06:15:48.60	29.80	7.40	
2025-01-17 06:15:48.80	29.77	7.40	
2025-01-17 06:15:49.01	29.73	7.41	
2025-01-17 06:15:49.21	29.70	7.41	
2025-01-17 06:15:49.41	29.67	7.41	
2025-01-17 06:15:49.62	29.64	7.42	
2025-01-17 06:15:49.82	29.61	7.42	
2025-01-17 06:15:50.02	29.57	7.43	
2025-01-17 06:15:50.23	29.54	7.43	
2025-01-17 06:15:50.43	29.51	7.44	
2025-01-17 06:15:50.63	29.48	7.44	
2025-01-17 06:15:50.84	29.44	7.44	
2025-01-17 06:15:51.04	29.41	7.45	
2025-01-17 06:15:51.24	29.38	7.45	
2025-01-17 06:15:51.44	29.35	7.46	
2025-01-17 06:15:51.65	29.32	7.46	
2025-01-17 06:15:51.85	29.29	7.47	
2025-01-17 06:15:52.05	29.25	7.47	
2025-01-17 06:15:52.26	29.22	7.47	
2025-01-17 06:15:52.46	29.19	7.48	
2025-01-17 06:15:52.66	29.16	7.48	
2025-01-17 06:15:52.87	29.12	7.49	
2025-01-17 06:15:53.07	29.09	7.49	
2025-01-17 06:15:53.27	29.06	7.50	
2025-01-17 06:15:53.48	29.03	7.50	
2025-01-17 06:15:53.68	29.00	7.50	
2025-01-17 06:15:53.88	28.96	7.51	
2025-01-17 06:15:54.08	28.93	7.51	
2025-01-17 06:15:54.29	28.90	7.52	
2025-01-17 06:15:54.49	28.87	7.52	
2025-01-17 06:15:54.69	28.84	7.52	
2025-01-17 06:15:54.90	28.80	7.53	
2025-01-17 06:15:55.10	28.77	7.53	
2025-01-17 06:15:55.30	28.74	7.54	
2025-01-17 06:15:55.51	28.71	7.54	
2025-01-17 06:15:55.71	28.67	7.55	
2025-01-17 06:15:55.91	28.64	7.55	
2025-01-17 06:15:56.12	28.61	7.55	
2025-01-17 06:15:56.32	28.58	7.56	
2025-01-17 06:15:56.52	28.54	7.56	
2025-01-17 06:15:56.72	28.51	7.57	
2025-01-17 06:15:56.93	28.48	7.57	
2025-01-17 06:15:57.13	28.45	7.57	
2025-01-17 06:15:57.33	28.42	7.58	
2025-01-17 06:15:57.54	28.38	7.58	
2025-01-17 06:15:57.74	28.35	7.59	
2025-01-17 06:15:57.94	28.32	7.59	
2025-01-17 06:15:58.15	28.29	7.59	
2025-01-17 06:15:58.35	28.25	7.60	
2025-01-17 06:15:58.55	28.22	7.60	
2025-01-17 06:15:58.76	28.19	7.61	
2025-01-17 06:15:58.96	28.16	7.61	
2025-01-17 06:15:59.16	28.12	7.61	
2025-01-17 06:15:59.36	28.09	7.62	
2025-01-17 06:15:59.57	28.06	7.62	
2025-01-17 06:15:59.77	28.03	7.63	
2025-01-17 06:15:59.97	27.99	7.63	
2025-01-17 06:16:00.18	27.96	7.63	
2025-01-17 06:16:00.38	27.93	7.64	
2025-01-17 06:16:00.58	27.90	7.64	
2025-01-17 06:16:00.79	27.86	7.65	
2025-01-17 06:16:00.99	27.83	7.65	
2025-01-17 06:16:01.19	27.80	7.65	
2025-01-17 06:16:01.40	27.77	7.66	
2025-01-17 06:16:01.60	27.73	7.66	
2025-01-17 06:16:01.80	27.70	7.67	
2025-01-17 06:16:02.00	27.67	7.67	
2025-01-17 06:16:02.21	27.64	7.67	
2025-01-17 06:16:02.41	27.60	7.68	
2025-01-17 06:16:02.61	27.57	7.68	
2025-01-17 06:16:02.82	27.54	7.68	
2025-01-17 06:16:03.02	27.51	7.69	
2025-01-17 06:16:03.22	27.47	7.69	
2025-01-17 06:16:03.43	27.44	7.70	
2025-01-17 06:16:03.63	27.41	7.70	
2025-01-17 06:16:03.83	27.38	7.70	
2025-01-17 06:16:04.04	27.34	7.71	
2025-01-17 06:16:04.24	27.31	7.71	
2025-01-17 06:16:04.44	27.28	7.72	
2025-01-17 06:16:04.64	27.25	7.72	
2025-01-17 06:16:04.85	27.21	7.72	
2025-01-17 06:16:05.05	27.18	7.73	
2025-01-17 06:16:05.25	27.15	7.73	
2025-01-17 06:16:05.46	27.11	7.73	
2025-01-17 06:16:05.66	27.08	7.74	
2025-01-17 06:16:05.86	27.05	7.74	
2025-01-17 06:16:06.07	27.02	7.75	
2025-01-17 06:16:06.27	26.98	7.75	
2025-01-17 06:16:06.47	26.95	7.75	
2025-01-17 06:16:06.68	26.92	7.76	
2025-01-17 06:16:06.88	26.88	7.76	
2025-01-17 06:16:07.08	26.85	7.76	
2025-01-17 06:16:07.28	26.82	7.77	
2025-01-17 06:16:07.49	26.79	7.77	
2025-01-17 06:16:07.69	26.75	7.77	
2025-01-17 06:16:07.89	26.72	7.78	
2025-01-17 06:16:08.10	26.69	7.78	
2025-01-17 06:16:08.30	26.66	7.79	
2025-01-17 06:16:08.50	26.62	7.79	
2025-01-17 06:16:08.71	26.59	7.79	
2025-01-17 06:16:08.91	26.56	7.80	
2025-01-17 06:16:09.11	26.52	7.80	
2025-01-17 06:16:09.32	26.49	7.80	
2025-01-17 06:16:09.52	26.46	7.81	
2025-01-17 06:16:09.72	26.43	7.81	
2025-01-17 06:16:09.92	26.39	7.81	
2025-01-17 06:16:10.13	26.36	7.82	
2025-01-17 06:16:10.33	26.33	7.82	
2025-01-17 06:16:10.54	26.29	7.82	
2025-01-17 06:16:10.75	26.26	7.83	
2025-01-17 06:16:10.95	26.23	7.83	
2025-01-17 06:16:11.15	26.19	7.84	
2025-01-17 06:16:11.35	26.16	7.84	
2025-01-17 06:16:11.56	26.13	7.84	
2025-01-17 06:16:11.76	26.10	7.85	
2025-01-17 06:16:11.96	26.06	7.85	
2025-01-17 06:16:12.17	26.03	7.85	
2025-01-17 06:16:12.37	26.00	7.86	
2025-01-17 06:16:12.57	25.96	7.86	
2025-01-17 06:16:12.78	25.93	7.86	
2025-01-17 06:16:12.98	25.90	7.87	
2025-01-17 06:16:13.18	25.86	7.87	
2025-01-17 06:16:13.39	25.83	7.87	
2025-01-17 06:16:13.59	25.80	7.88	
2025-01-17 06:16:13.79	25.77	7.88	
2025-01-17 06:16:13.99	25.73	7.88	
2025-01-17 06:16:14.20	25.70	7.89	
2025-01-17 06:16:14.40	25.67	7.89	
2025-01-17 06:16:14.60	25.63	7.89	
2025-01-17 06:16:14.81	25.60	7.90	
2025-01-17 06:16:15.01	25.57	7.90	
2025-01-17 06:16:15.21	25.53	7.90	
2025-01-17 06:16:15.42	25.50	7.91	
2025-01-17 06:16:15.62	25.47	7.91	
2025-01-17 06:16:15.82	25.43	7.91	
2025-01-17 06:16:16.03	25.40	7.92	
2025-01-17 06:16:16.23	25.37	7.92	
2025-01-17 06:16:16.43	25.34	7.92	
2025-01-17 06:16:16.63	25.30	7.93	
2025-01-17 06:16:16.84	25.27	7.93	
2025-01-17 06:16:17.04	25.24	7.93	
2025-01-17 06:16:17.24	25.20	7.94	
2025-01-17 06:16:17.45	25.17	7.94	
2025-01-17 06:16:17.65	25.14	7.94	
2025-01-17 06:16:17.85	25.10	7.95	
2025-01-17 06:16:18.06	25.07	7.95	
2025-01-17 06:16:18.26	25.04	7.95	
2025-01-17 06:16:18.46	25.00	7.96	
2025-01-17 06:16:18.67	24.97	7.96	
2025-01-17 06:16:18.87	24.94	7.96	
2025-01-17 06:16:19.07	24.90	7.97	
2025-01-17 06:16:19.27	24.87	7.97	
2025-01-17 06:16:19.48	24.84	7.97	
2025-01-17 06:16:19.68	24.80	7.97	
2025-01-17 06:16:19.88	24.77	7.98	
2025-01-17 06:16:20.09	24.74	7.98	
2025-01-17 06:16:20.29	24.70	7.98	
2025-01-17 06:16:20.49	24.67	7.99	
2025-01-17 06:16:20.70	24.64	7.99	
2025-01-17 06:16:20.90	24.60	7.99	
2025-01-17 06:16:21.10	24.57	8.00	
2025-01-17 06:16:21.31	24.54	8.00	
2025-01-17 06:16:21.51	24.50	8.00	
2025-01-17 06:16:21.71	24.47	8.01	
2025-01-17 06:16:21.91	24.44	8.01	
2025-01-17 06:16:22.12	24.40	8.01	
2025-01-17 06:16:22.32	24.37	8.01	
2025-01-17 06:16:22.52	24.34	8.02	
2025-01-17 06:16:22.73	24.30	8.02	
2025-01-17 06:16:22.93	24.27	8.02	
2025-01-17 06:16:23.13	24.24	8.03	
2025-01-17 06:16:23.34	24.20	8.03	
2025-01-17 06:16:23.54	24.17	8.03	
2025-01-17 06:16:23.74	24.14	8.04	
2025-01-17 06:16:23.95	24.10	8.04	
2025-01-17 06:16:24.15	24.07	8.04	
2025-01-17 06:16:24.35	24.04	8.04	
2025-01-17 06:16:24.55	24.00	8.05	
2025-01-17 06:16:24.76	23.97	8.05	
2025-01-17 06:16:24.96	23.94	8.05	
2025-01-17 06:16:25.16	23.90	8.06	
2025-01-17 06:16:25.37	23.87	8.06	
2025-01-17 06:16:25.57	23.84	8.06	
2025-01-17 06:16:25.77	23.80	8.06	
2025-01-17 06:16:25.98	23.77	8.07	
2025-01-17 06:16:26.18	23.74	8.07	
2025-01-17 06:16:26.38	23.70	8.07	
2025-01-17 06:16:26.59	23.67	8.08	
2025-01-17 06:16:26.79	23.64	8.08	
2025-01-17 06:16:26.99	23.60	8.08	
2025-01-17 06:16:27.19	23.57	8.08	
2025-01-17 06:16:27.40	23.54	8.09	
2025-01-17 06:16:27.60	23.50	8.09	
2025-01-17 06:16:27.80	23.47	8.09	
2025-01-17 06:16:28.01	23.43	8.10	
2025-01-17 06:16:28.21	23.40	8.10	
2025-01-17 06:16:28.41	23.37	8.10	
2025-01-17 06:16:28.62	23.33	8.10	
2025-01-17 06:16:28.82	23.30	8.11	
2025-01-17 06:16:29.02	23.27	8.11	
2025-01-17 06:16:29.23	23.23	8.11	
2025-01-17 06:16:29.43	23.20	8.12	
2025-01-17 06:16:29.63	23.17	8.12	
2025-01-17 06:16:29.83	23.13	8.12	
2025-01-17 06:16:30.04	23.10	8.12	
2025-01-17 06:16:30.24	23.07	8.13	
2025-01-17 06:16:30.44	23.03	8.13	
2025-01-17 06:16:30.65	23.00	8.13	
2025-01-17 06:16:30.85	22.97	8.13	
2025-01-17 06:16:31.05	22.93	8.14	
2025-01-17 06:16:31.26	22.90	8.14	
2025-01-17 06:16:31.46	22.86	8.14	
2025-01-17 06:16:31.66	22.83	8.14	
2025-01-17 06:16:31.87	22.80	8.15	
2025-01-17 06:16:32.07	22.76	8.15	
2025-01-17 06:16:32.27	22.73	8.15	
2025-01-17 06:16:32.47	22.70	8.15	
2025-01-17 06:16:32.68	22.66	8.16	
2025-01-17 06:16:32.88	22.63	8.16	
2025-01-17 06:16:33.08	22.60	8.16	
2025-01-17 06:16:33.29	22.56	8.17	
2025-01-17 06:16:33.49	22.53	8.17	
2025-01-17 06:16:33.69	22.49	8.17	
2025-01-17 06:16:33.90	22.46	8.17	
2025-01-17 06:16:34.10	22.43	8.18	
2025-01-17 06:16:34.30	22.39	8.18	
2025-01-17 06:16:34.51	22.36	8.18	
2025-01-17 06:16:34.71	22.32	8.18	
2025-01-17 06:16:34.91	22.29	8.19	
2025-01-17 06:16:35.11	22.26	8.19	
2025-01-17 06:16:35.32	22.22	8.19	
2025-01-17 06:16:35.52	22.19	8.19	
2025-01-17 06:16:35.72	22.16	8.19	
2025-01-17 06:16:35.93	22.12	8.20	
2025-01-17 06:16:36.13	22.09	8.20	
2025-01-17 06:16:36.33	22.06	8.20	
2025-01-17 06:16:36.54	22.02	8.20	
2025-01-17 06:16:36.74	21.99	8.21	
2025-01-17 06:16:36.94	21.95	8.21	
2025-01-17 06:16:37.15	21.92	8.21	
2025-01-17 06:16:37.35	21.89	8.21	
2025-01-17 06:16:37.55	21.85	8.22	
2025-01-17 06:16:37.75	21.82	8.22	
2025-01-17 06:16:37.96	21.78	8.22	
2025-01-17 06:16:38.16	21.75	8.22	
2025-01-17 06:16:38.36	21.72	8.23	
2025-01-17 06:16:38.57	21.68	8.23	
2025-01-17 06:16:38.77	21.65	8.23	
2025-01-17 06:16:38.97	21.62	8.23	
2025-01-17 06:16:39.18	21.58	8.24	
2025-01-17 06:16:39.38	21.55	8.24	
2025-01-17 06:16:39.58	21.51	8.24	
2025-01-17 06:16:39.79	21.48	8.24	
2025-01-17 06:16:39.99	21.45	8.24	
2025-01-17 06:16:40.19	21.41	8.25	
2025-01-17 06:16:40.39	21.38	8.25	
2025-01-17 06:16:40.60	21.34	8.25	
2025-01-17 06:16:40.80	21.31	8.25	
2025-01-17 06:16:41.00	21.28	8.26	
2025-01-17 06:16:41.21	21.24	8.26	
2025-01-17 06:16:41.41	21.21	8.26	
2025-01-17 06:16:41.61	21.18	8.26	
2025-01-17 06:16:41.82	21.14	8.26	
2025-01-17 06:16:42.02	21.11	8.27	
2025-01-17 06:16:42.22	21.07	8.27	
2025-01-17 06:16:42.43	21.04	8.27	
2025-01-17 06:16:42.63	21.01	8.27	
2025-01-17 06:16:42.83	20.97	8.27	
2025-01-17 06:16:43.03	20.94	8.28	
2025-01-17 06:16:43.24	20.90	8.28	
2025-01-17 06:16:43.44	20.87	8.28	
2025-01-17 06:16:43.64	20.84	8.28	
2025-01-17 06:16:43.85	20.80	8.28	
2025-01-17 06:16:44.05	20.77	8.29	
2025-01-17 06:16:44.25	20.73	8.29	
2025-01-17 06:16:44.46	20.70	8.29	
2025-01-17 06:16:44.66	20.67	8.29	
2025-01-17 06:16:44.86	20.63	8.29	
2025-01-17 06:16:45.07	20.60	8.30	
2025-01-17 06:16:45.27	20.56	8.30	
2025-01-17 06:16:45.47	20.53	8.30	
2025-01-17 06:16:45.67	20.50	8.30	
2025-01-17 06:16:45.88	20.46	8.30	
2025-01-17 06:16:46.08	20.43	8.31	
2025-01-17 06:16:46.28	20.39	8.31	
2025-01-17 06:16:46.49	20.36	8.31	
2025-01-17 06:16:46.69	20.33	8.31	
2025-01-17 06:16:46.89	20.29	8.31	
2025-01-17 06:16:47.10	20.26	8.32	
2025-01-17 06:16:47.30	20.22	8.32	
2025-01-17 06:16:47.50	20.19	8.32	
2025-01-17 06:16:47.71	20.15	8.32	
2025-01-17 06:16:47.91	20.12	8.32	
2025-01-17 06:16:48.11	20.09	8.33	
2025-01-17 06:16:48.31	20.05	8.33	
2025-01-17 06:16:48.52	20.02	8.33	
2025-01-17 06:16:48.72	19.99	8.33	
2025-01-17 06:16:48.92	19.95	8.33	
2025-01-17 06:16:49.13	19.92	8.34	
2025-01-17 06:16:49.33	19.88	8.34	
2025-01-17 06:16:49.53	19.85	8.34	
2025-01-17 06:16:49.74	19.81	8.34	
2025-01-17 06:16:49.94	19.78	8.34	
2025-01-17 06:16:50.14	19.75	8.34	
2025-01-17 06:16:50.35	19.71	8.35	
2025-01-17 06:16:50.55	19.68	8.35	
2025-01-17 06:16:50.75	19.64	8.35	
2025-01-17 06:16:50.95	19.61	8.35	
2025-01-17 06:16:51.16	19.58	8.35	
2025-01-17 06:16:51.36	19.54	8.35	
2025-01-17 06:16:51.56	19.51	8.36	
2025-01-17 06:16:51.77	19.47	8.36	
2025-01-17 06:16:51.97	19.44	8.36	
2025-01-17 06:16:52.17	19.41	8.36	
2025-01-17 06:16:52.38	19.37	8.36	
2025-01-17 06:16:52.58	19.34	8.36	
2025-01-17 06:16:52.78	19.30	8.37	
2025-01-17 06:16:52.98	19.27	8.37	
2025-01-17 06:16:53.19	19.23	8.37	
2025-01-17 06:16:53.39	19.20	8.37	
2025-01-17 06:16:53.59	19.17	8.37	
2025-01-17 06:16:53.80	19.13	8.37	
2025-01-17 06:16:54.00	19.10	8.38	
2025-01-17 06:16:54.20	19.06	8.38	
2025-01-17 06:16:54.41	19.03	8.38	
2025-01-17 06:16:54.61	19.00	8.38	
2025-01-17 06:16:54.81	18.96	8.38	
2025-01-17 06:16:55.02	18.93	8.38	
2025-01-17 06:16:55.22	18.89	8.39	
2025-01-17 06:16:55.42	18.86	8.39	
2025-01-17 06:16:55.62	18.82	8.39	
2025-01-17 06:16:55.83	18.79	8.39	
2025-01-17 06:16:56.03	18.76	8.39	
2025-01-17 06:16:56.23	18.72	8.39	
2025-01-17 06:16:56.44	18.69	8.39	
2025-01-17 06:16:56.64	18.65	8.40	
2025-01-17 06:16:56.84	18.62	8.40	
2025-01-17 06:16:57.05	18.58	8.40	
2025-01-17 06:16:57.25	18.55	8.40	
2025-01-17 06:16:57.45	18.52	8.40	
2025-01-17 06:16:57.66	18.48	8.40	
2025-01-17 06:16:57.86	18.45	8.40	
2025-01-17 06:16:58.06	18.41	8.41	
2025-01-17 06:16:58.26	18.38	8.41	
2025-01-17 06:16:58.47	18.34	8.41	
2025-01-17 06:16:58.67	18.31	8.41	
2025-01-17 06:16:58.87	18.28	8.41	
2025-01-17 06:16:59.08	18.24	8.41	
2025-01-17 06:16:59.28	18.21	8.41	
2025-01-17 06:16:59.48	18.17	8.42	
2025-01-17 06:16:59.69	18.14	8.42	
2025-01-17 06:16:59.89	18.10	8.42	
2025-01-17 06:17:00.09	18.07	8.42	
2025-01-17 06:17:00.30	18.04	8.42	
2025-01-17 06:17:00.50	18.00	8.42	
2025-01-17 06:17:00.70	17.97	8.42	
2025-01-17 06:17:00.90	17.93	8.42	
2025-01-17 06:17:01.11	17.90	8.43	
2025-01-17 06:17:01.31	17.87	8.43	
2025-01-17 06:17:01.51	17.83	8.43	
2025-01-17 06:17:01.72	17.80	8.43	
2025-01-17 06:17:01.92	17.76	8.43	
2025-01-17 06:17:02.12	17.73	8.43	
2025-01-17 06:17:02.33	17.69	8.43	
2025-01-17 06:17:02.53	17.66	8.43	
2025-01-17 06:17:02.73	17.63	8.44	
2025-01-17 06:17:02.94	17.59	8.44	
2025-01-17 06:17:03.14	17.56	8.44	
2025-01-17 06:17:03.34	17.52	8.44	
2025-01-17 06:17:03.54	17.49	8.44	
2025-01-17 06:17:03.75	17.45	8.44	
2025-01-17 06:17:03.95	17.42	8.44	
2025-01-17 06:17:04.15	17.39	8.44	
2025-01-17 06:17:04.36	17.35	8.44	
2025-01-17 06:17:04.56	17.32	8.45	
2025-01-17 06:17:04.76	17.28	8.45	
2025-01-17 06:17:04.97	17.25	8.45	
2025-01-17 06:17:05.17	17.21	8.45	
2025-01-17 06:17:05.37	17.18	8.45	
2025-01-17 06:17:05.58	17.14	8.45	
2025-01-17 06:17:05.78	17.11	8.45	
2025-01-17 06:17:05.98	17.08	8.45	
2025-01-17 06:17:06.18	17.04	8.45	
2025-01-17 06:17:06.39	17.01	8.46	
2025-01-17 06:17:06.59	16.97	8.46	
2025-01-17 06:17:06.79	16.94	8.46	
2025-01-17 06:17:07.00	16.90	8.46	
2025-01-17 06:17:07.20	16.87	8.46	
2025-01-17 06:17:07.40	16.84	8.46	
2025-01-17 06:17:07.61	16.80	8.46	
2025-01-17 06:17:07.81	16.77	8.46	
2025-01-17 06:17:08.01	16.73	8.46	
2025-01-17 06:17:08.22	16.70	8.46	
2025-01-17 06:17:08.42	16.66	8.46	
2025-01-17 06:17:08.62	16.63	8.47	
2025-01-17 06:17:08.82	16.59	8.47	
2025-01-17 06:17:09.03	16.56	8.47	
2025-01-17 06:17:09.23	16.53	8.47	
2025-01-17 06:17:09.43	16.49	8.47	
2025-01-17 06:17:09.64	16.46	8.47	
2025-01-17 06:17:09.84	16.42	8.47	
2025-01-17 06:17:10.04	16.39	8.47	
2025-01-17 06:17:10.25	16.35	8.47	
2025-01-17 06:17:10.45	16.32	8.47	
2025-01-17 06:17:10.65	16.28	8.47	
2025-01-17 06:17:10.86	16.25	8.47	
2025-01-17 06:17:11.06	16.22	8.48	
2025-01-17 06:17:11.26	16.18	8.48	
2025-01-17 06:17:11.46	16.15	8.48	
2025-01-17 06:17:11.67	16.11	8.48	
2025-01-17 06:17:11.87	16.08	8.48	
2025-01-17 06:17:12.07	16.04	8.48	
2025-01-17 06:17:12.28	16.01	8.48	
2025-01-17 06:17:12.48	15.97	8.48	
2025-01-17 06:17:12.68	15.94	8.48	
2025-01-17 06:17:12.89	15.90	8.48	
2025-01-17 06:17:13.09	15.87	8.48	
2025-01-17 06:17:13.29	15.84	8.48	
2025-01-17 06:17:13.50	15.80	8.48	
2025-01-17 06:17:13.70	15.77	8.48	
2025-01-17 06:17:13.90	15.73	8.49	
2025-01-17 06:17:14.10	15.70	8.49	
2025-01-17 06:17:14.31	15.66	8.49	
2025-01-17 06:17:14.51	15.63	8.49	
2025-01-17 06:17:14.71	15.60	8.49	
2025-01-17 06:17:14.92	15.56	8.49	
2025-01-17 06:17:15.12	15.53	8.49	
2025-01-17 06:17:15.32	15.49	8.49	
2025-01-17 06:17:15.53	15.46	8.49	
2025-01-17 06:17:15.73	15.42	8.49	
2025-01-17 06:17:15.93	15.39	8.49	
2025-01-17 06:17:16.14	15.35	8.49	
2025-01-17 06:17:16.34	15.32	8.49	
2025-01-17 06:17:16.54	15.29	8.49	
2025-01-17 06:17:16.74	15.25	8.49	
2025-01-17 06:17:16.95	15.22	8.49	
2025-01-17 06:17:17.15	15.18	8.49	
2025-01-17 06:17:17.35	15.15	8.49	
2025-01-17 06:17:17.56	15.11	8.50	
2025-01-17 06:17:17.76	15.08	8.50	
2025-01-17 06:17:17.96	15.04	8.50	
2025-01-17 06:17:18.17	15.01	8.50	
2025-01-17 06:17:18.37	14.98	8.50	
2025-01-17 06:17:18.57	14.94	8.50	
2025-01-17 06:17:18.78	14.91	8.50	
2025-01-17 06:17:18.98	14.87	8.50	
2025-01-17 06:17:19.18	14.84	8.50	
2025-01-17 06:17:19.38	14.80	8.50	
2025-01-17 06:17:19.59	14.77	8.50	
2025-01-17 06:17:19.79	14.73	8.50	
2025-01-17 06:17:19.99	14.70	8.50	
2025-01-17 06:17:20.20	14.66	8.50	
2025-01-17 06:17:20.40	14.63	8.50	
2025-01-17 06:17:20.60	14.60	8.50	
2025-01-17 06:17:20.81	14.56	8.50	
2025-01-17 06:17:21.01	14.53	8.50	
2025-01-17 06:17:21.21	14.49	8.50	
2025-01-17 06:17:21.42	14.46	8.50	
2025-01-17 06:17:21.62	14.42	8.50	
2025-01-17 06:17:21.82	14.39	8.50	
2025-01-17 06:17:22.02	14.36	8.50	
2025-01-17 06:17:22.23	14.32	8.50	
2025-01-17 06:17:22.43	14.29	8.50	
2025-01-17 06:17:22.63	14.25	8.50	
2025-01-17 06:17:22.84	14.22	8.50	
2025-01-17 06:17:23.04	14.18	8.50	
2025-01-17 06:17:23.24	14.15	8.50	
2025-01-17 06:17:23.45	14.11	8.50	
2025-01-17 06:17:23.65	14.08	8.50	
2025-01-17 06:17:23.85	14.04	8.50	
2025-01-17 06:17:24.06	14.01	8.51	
2025-01-17 06:17:24.26	13.98	8.51	
2025-01-17 06:17:24.46	13.94	8.51	
2025-01-17 06:17:24.66	13.91	8.51	
2025-01-17 06:17:24.87	13.87	8.51	
2025-01-17 06:17:25.07	13.84	8.51	
2025-01-17 06:17:25.27	13.80	8.51	
2025-01-17 06:17:25.48	13.77	8.51	
2025-01-17 06:17:25.68	13.73	8.51	
2025-01-17 06:17:25.88	13.70	8.51	
2025-01-17 06:17:26.09	13.66	8.51	
2025-01-17 06:17:26.29	13.63	8.51	
2025-01-17 06:17:26.49	13.60	8.51	
2025-01-17 06:17:26.70	13.56	8.51	
2025-01-17 06:17:26.90	13.53	8.51	
2025-01-17 06:17:27.10	13.49	8.51	
2025-01-17 06:17:27.30	13.46	8.51	
2025-01-17 06:17:27.51	13.42	8.51	
2025-01-17 06:17:27.71	13.39	8.51	
2025-01-17 06:17:27.91	13.36	8.51	
2025-01-17 06:17:28.12	13.32	8.51	
2025-01-17 06:17:28.32	13.29	8.51	
2025-01-17 06:17:28.52	13.25	8.51	
2025-01-17 06:17:28.73	13.22	8.51	
2025-01-17 06:17:28.93	13.18	8.51	
2025-01-17 06:17:29.13	13.15	8.51	
2025-01-17 06:17:29.34	13.11	8.51	
2025-01-17 06:17:29.54	13.08	8.51	
2025-01-17 06:17:29.74	13.04	8.51	
2025-01-17 06:17:29.94	13.01	8.51	
2025-01-17 06:17:30.15	12.97	8.51	
2025-01-17 06:17:30.35	12.94	8.50	
2025-01-17 06:17:30.55	12.91	8.50	
2025-01-17 06:17:30.76	12.87	8.50	
2025-01-17 06:17:30.96	12.84	8.50	
2025-01-17 06:17:31.16	12.80	8.50	
2025-01-17 06:17:31.37	12.77	8.50	
2025-01-17 06:17:31.57	12.73	8.50	
2025-01-17 06:17:31.77	12.70	8.50	
2025-01-17 06:17:31.97	12.67	8.50	
2025-01-17 06:17:32.18	12.63	8.50	
2025-01-17 06:17:32.38	12.60	8.50	
2025-01-17 06:17:32.58	12.56	8.50	
2025-01-17 06:17:32.79	12.53	8.50	
2025-01-17 06:17:32.99	12.49	8.50	
2025-01-17 06:17:33.19	12.46	8.50	
2025-01-17 06:17:33.40	12.42	8.50	
2025-01-17 06:17:33.60	12.39	8.50	
2025-01-17 06:17:33.80	12.36	8.50	
2025-01-17 06:17:34.01	12.32	8.50	
2025-01-17 06:17:34.21	12.29	8.50	
2025-01-17 06:17:34.41	12.25	8.50	
2025-01-17 06:17:34.62	12.22	8.50	
2025-01-17 06:17:34.82	12.18	8.50	
2025-01-17 06:17:35.02	12.15	8.50	
2025-01-17 06:17:35.22	12.11	8.50	
2025-01-17 06:17:35.43	12.08	8.50	
2025-01-17 06:17:35.63	12.04	8.50	
2025-01-17 06:17:35.83	12.01	8.50	
2025-01-17 06:17:36.04	11.97	8.50	
2025-01-17 06:17:36.24	11.94	8.50	
2025-01-17 06:17:36.44	11.91	8.50	
2025-01-17 06:17:36.65	11.87	8.50	
2025-01-17 06:17:36.85	11.84	8.49	
2025-01-17 06:17:37.05	11.80	8.49	
2025-01-17 06:17:37.26	11.77	8.49	
2025-01-17 06:17:37.46	11.73	8.49	
2025-01-17 06:17:37.66	11.70	8.49	
2025-01-17 06:17:37.86	11.67	8.49	
2025-01-17 06:17:38.07	11.63	8.49	
2025-01-17 06:17:38.27	11.60	8.49	
2025-01-17 06:17:38.47	11.56	8.49	
2025-01-17 06:17:38.68	11.53	8.49	
2025-01-17 06:17:38.88	11.49	8.49	
2025-01-17 06:17:39.08	11.46	8.49	
2025-01-17 06:17:39.29	11.42	8.49	
2025-01-17 06:17:39.49	11.39	8.49	
2025-01-17 06:17:39.69	11.36	8.49	
2025-01-17 06:17:39.89	11.32	8.49	
2025-01-17 06:17:40.10	11.29	8.49	
2025-01-17 06:17:40.30	11.25	8.49	
2025-01-17 06:17:40.50	11.22	8.48	
2025-01-17 06:17:40.71	11.18	8.48	
2025-01-17 06:17:40.91	11.15	8.48	
2025-01-17 06:17:41.11	11.11	8.48	
2025-01-17 06:17:41.32	11.08	8.48	
2025-01-17 06:17:41.52	11.05	8.48	
2025-01-17 06:17:41.72	11.01	8.48	
2025-01-17 06:17:41.93	10.98	8.48	
2025-01-17 06:17:42.13	10.94	8.48	
2025-01-17 06:17:42.33	10.91	8.48	
2025-01-17 06:17:42.54	10.87	8.48	
2025-01-17 06:17:42.74	10.84	8.48	
2025-01-17 06:17:42.94	10.80	8.48	
2025-01-17 06:17:43.15	10.77	8.48	
2025-01-17 06:17:43.35	10.74	8.47	
2025-01-17 06:17:43.55	10.70	8.47	
2025-01-17 06:17:43.76	10.67	8.47	
2025-01-17 06:17:43.96	10.63	8.47	
2025-01-17 06:17:44.16	10.60	8.47	
2025-01-17 06:17:44.37	10.56	8.47	
2025-01-17 06:17:44.57	10.53	8.47	
2025-01-17 06:17:44.77	10.49	8.47	
2025-01-17 06:17:44.97	10.46	8.47	
2025-01-17 06:17:45.18	10.43	8.47	
2025-01-17 06:17:45.38	10.39	8.47	
2025-01-17 06:17:45.58	10.36	8.47	
2025-01-17 06:17:45.79	10.32	8.46	
2025-01-17 06:17:45.99	10.29	8.46	
2025-01-17 06:17:46.19	10.25	8.46	
2025-01-17 06:17:46.40	10.22	8.46	
2025-01-17 06:17:46.60	10.18	8.46	
2025-01-17 06:17:46.80	10.15	8.46	
2025-01-17 06:17:47.00	10.12	8.46	
2025-01-17 06:17:47.21	10.08	8.46	
2025-01-17 06:17:47.41	10.05	8.46	
2025-01-17 06:17:47.61	10.01	8.46	
2025-01-17 06:17:47.82	9.98	8.46	
2025-01-17 06:17:48.02	9.94	8.45	
2025-01-17 06:17:48.22	9.91	8.45	
2025-01-17 06:17:48.43	9.88	8.45	
2025-01-17 06:17:48.63	9.84	8.45	
2025-01-17 06:17:48.83	9.81	8.45	
2025-01-17 06:17:49.04	9.77	8.45	
2025-01-17 06:17:49.24	9.74	8.45	
2025-01-17 06:17:49.44	9.70	8.45	
2025-01-17 06:17:49.65	9.67	8.45	
2025-01-17 06:17:49.85	9.63	8.44	
2025-01-17 06:17:50.05	9.60	8.44	
2025-01-17 06:17:50.25	9.57	8.44	
2025-01-17 06:17:50.46	9.53	8.44	
2025-01-17 06:17:50.66	9.50	8.44	
2025-01-17 06:17:50.86	9.46	8.44	
2025-01-17 06:17:51.07	9.43	8.44	
2025-01-17 06:17:51.27	9.39	8.44	
2025-01-17 06:17:51.47	9.36	8.44	
2025-01-17 06:17:51.68	9.33	8.43	
2025-01-17 06:17:51.88	9.29	8.43	
2025-01-17 06:17:52.08	9.26	8.43	
2025-01-17 06:17:52.28	9.22	8.43	
2025-01-17 06:17:52.49	9.19	8.43	
2025-01-17 06:17:52.69	9.15	8.43	
2025-01-17 06:17:52.89	9.12	8.43	
2025-01-17 06:17:53.10	9.09	8.43	
2025-01-17 06:17:53.30	9.05	8.42	
2025-01-17 06:17:53.50	9.02	8.42	
2025-01-17 06:17:53.71	8.98	8.42	
2025-01-17 06:17:53.91	8.95	8.42	
2025-01-17 06:17:54.11	8.92	8.42	
2025-01-17 06:17:54.32	8.88	8.42	
2025-01-17 06:17:54.52	8.85	8.42	
2025-01-17 06:17:54.72	8.81	8.42	
2025-01-17 06:17:54.92	8.78	8.41	
2025-01-17 06:17:55.13	8.74	8.41	
2025-01-17 06:17:55.33	8.71	8.41	
2025-01-17 06:17:55.53	8.68	8.41	
2025-01-17 06:17:55.74	8.64	8.41	
2025-01-17 06:17:55.94	8.61	8.41	
2025-01-17 06:17:56.14	8.57	8.41	
2025-01-17 06:17:56.35	8.54	8.40	
2025-01-17 06:17:56.55	8.50	8.40	
2025-01-17 06:17:56.75	8.47	8.40	
2025-01-17 06:17:56.96	8.43	8.40	
2025-01-17 06:17:57.16	8.40	8.40	
2025-01-17 06:17:57.36	8.37	8.40	
2025-01-17 06:17:57.56	8.33	8.40	
2025-01-17 06:17:57.77	8.30	8.39	
2025-01-17 06:17:57.97	8.26	8.39	
2025-01-17 06:17:58.17	8.23	8.39	
2025-01-17 06:17:58.38	8.20	8.39	
2025-01-17 06:17:58.58	8.16	8.39	
2025-01-17 06:17:58.78	8.13	8.39	
2025-01-17 06:17:58.99	8.09	8.39	
2025-01-17 06:17:59.19	8.06	8.38	
2025-01-17 06:17:59.39	8.03	8.38	
2025-01-17 06:17:59.60	7.99	8.38	
2025-01-17 06:17:59.80	7.96	8.38	
2025-01-17 06:18:00.00	7.92	8.38	
2025-01-17 06:18:00.20	7.89	8.38	
2025-01-17 06:18:00.41	7.85	8.37	
2025-01-17 06:18:00.61	7.82	8.37	
2025-01-17 06:18:00.81	7.79	8.37	
2025-01-17 06:18:01.02	7.75	8.37	
2025-01-17 06:18:01.22	7.72	8.37	
2025-01-17 06:18:01.42	7.68	8.37	
2025-01-17 06:18:01.63	7.65	8.36	
2025-01-17 06:18:01.83	7.61	8.36	
2025-01-17 06:18:02.03	7.58	8.36	
2025-01-17 06:18:02.24	7.55	8.36	
2025-01-17 06:18:02.44	7.51	8.36	
2025-01-17 06:18:02.64	7.48	8.36	
2025-01-17 06:18:02.84	7.44	8.35	
2025-01-17 06:18:03.05	7.41	8.35	
2025-01-17 06:18:03.25	7.38	8.35	
2025-01-17 06:18:03.45	7.34	8.35	
2025-01-17 06:18:03.66	7.31	8.35	
2025-01-17 06:18:03.86	7.27	8.35	
2025-01-17 06:18:04.06	7.24	8.34	
2025-01-17 06:18:04.27	7.20	8.34	
2025-01-17 06:18:04.47	7.17	8.34	
2025-01-17 06:18:04.67	7.14	8.34	
2025-01-17 06:18:04.88	7.10	8.34	
2025-01-17 06:18:05.08	7.07	8.34	
2025-01-17 06:18:05.28	7.04	8.33	
2025-01-17 06:18:05.48	7.00	8.33	
2025-01-17 06:18:05.69	6.97	8.33	
2025-01-17 06:18:05.89	6.93	8.33	
2025-01-17 06:18:06.09	6.90	8.33	
2025-01-17 06:18:06.30	6.86	8.32	
2025-01-17 06:18:06.50	6.83	8.32	
2025-01-17 06:18:06.70	6.80	8.32	
2025-01-17 06:18:06.91	6.76	8.32	
2025-01-17 06:18:07.11	6.73	8.32	
2025-01-17 06:18:07.31	6.69	8.32	
2025-01-17 06:18:07.52	6.66	8.31	
2025-01-17 06:18:07.72	6.63	8.31	
2025-01-17 06:18:07.92	6.59	8.31	
2025-01-17 06:18:08.12	6.56	8.31	
2025-01-17 06:18:08.33	6.52	8.31	
2025-01-17 06:18:08.53	6.49	8.30	
2025-01-17 06:18:08.73	6.46	8.30	
2025-01-17 06:18:08.94	6.42	8.30	
2025-01-17 06:18:09.14	6.39	8.30	
2025-01-17 06:18:09.34	6.36	8.30	
2025-01-17 06:18:09.55	6.32	8.29	
2025-01-17 06:18:09.75	6.29	8.29	
2025-01-17 06:18:09.95	6.25	8.29	
2025-01-17 06:18:10.16	6.22	8.29	
2025-01-17 06:18:10.36	6.18	8.29	
2025-01-17 06:18:10.56	6.15	8.28	
2025-01-17 06:18:10.76	6.12	8.28	
2025-01-17 06:18:10.97	6.08	8.28	
2025-01-17 06:18:11.17	6.05	8.28	
2025-01-17 06:18:11.37	6.02	8.27	
2025-01-17 06:18:11.58	5.98	8.27	
2025-01-17 06:18:11.78	5.95	8.27	
2025-01-17 06:18:11.98	5.91	8.27	
2025-01-17 06:18:12.19	5.88	8.27	
2025-01-17 06:18:12.39	5.85	8.26	
2025-01-17 06:18:12.59	5.81	8.26	
2025-01-17 06:18:12.80	5.78	8.26	
2025-01-17 06:18:13.00	5.74	8.26	
2025-01-17 06:18:13.20	5.71	8.26	
2025-01-17 06:18:13.40	5.68	8.25	
2025-01-17 06:18:13.61	5.64	8.25	
2025-01-17 06:18:13.81	5.61	8.25	
2025-01-17 06:18:14.01	5.58	8.25	
2025-01-17 06:18:14.22	5.54	8.24	
2025-01-17 06:18:14.42	5.51	8.24	
2025-01-17 06:18:14.62	5.47	8.24	
2025-01-17 06:18:14.83	5.44	8.24	
2025-01-17 06:18:15.03	5.41	8.24	
2025-01-17 06:18:15.23	5.37	8.23	
2025-01-17 06:18:15.44	5.34	8.23	
2025-01-17 06:18:15.64	5.30	8.23	
2025-01-17 06:18:15.84	5.27	8.23	
2025-01-17 06:18:16.04	5.24	8.22	
2025-01-17 06:18:16.25	5.20	8.22	
2025-01-17 06:18:16.45	5.17	8.22	
2025-01-17 06:18:16.65	5.14	8.22	
2025-01-17 06:18:16.86	5.10	8.21	
2025-01-17 06:18:17.06	5.07	8.21	
2025-01-17 06:18:17.26	5.03	8.21	
2025-01-17 06:18:17.47	5.00	8.21	
2025-01-17 06:18:17.67	4.97	8.21	
2025-01-17 06:18:17.87	4.93	8.20	
2025-01-17 06:18:18.08	4.90	8.20	
2025-01-17 06:18:18.28	4.86	8.20	
2025-01-17 06:18:18.48	4.83	8.20	
2025-01-17 06:18:18.68	4.80	8.19	
2025-01-17 06:18:18.89	4.76	8.19	
2025-01-17 06:18:19.09	4.73	8.19	
2025-01-17 06:18:19.29	4.70	8.19	
2025-01-17 06:18:19.50	4.66	8.18	
2025-01-17 06:18:19.70	4.63	8.18	
2025-01-17 06:18:19.90	4.60	8.18	
2025-01-17 06:18:20.11	4.56	8.18	
2025-01-17 06:18:20.31	4.53	8.17	
2025-01-17 06:18:20.51	4.49	8.17	
2025-01-17 06:18:20.72	4.46	8.17	
2025-01-17 06:18:20.92	4.43	8.17	
2025-01-17 06:18:21.12	4.39	8.16	
2025-01-17 06:18:21.32	4.36	8.16	
2025-01-17 06:18:21.53	4.33	8.16	
2025-01-17 06:18:21.73	4.29	8.16	
2025-01-17 06:18:21.93	4.26	8.15	
2025-01-17 06:18:22.14	4.22	8.15	
2025-01-17 06:18:22.34	4.19	8.15	
2025-01-17 06:18:22.54	4.16	8.15	
2025-01-17 06:18:22.75	4.12	8.14	
2025-01-17 06:18:22.95	4.09	8.14	
2025-01-17 06:18:23.15	4.06	8.14	
2025-01-17 06:18:23.36	4.02	8.13	
2025-01-17 06:18:23.56	3.99	8.13	
2025-01-17 06:18:23.76	3.96	8.13	
2025-01-17 06:18:23.96	3.92	8.13	
2025-01-17 06:18:24.17	3.89	8.12	
2025-01-17 06:18:24.37	3.86	8.12	
2025-01-17 06:18:24.57	3.82	8.12	
2025-01-17 06:18:24.78	3.79	8.12	
2025-01-17 06:18:24.98	3.75	8.11	
2025-01-17 06:18:25.18	3.72	8.11	
2025-01-17 06:18:25.39	3.69	8.11	
2025-01-17 06:18:25.59	3.65	8.10	
2025-01-17 06:18:25.79	3.62	8.10	
2025-01-17 06:18:26.00	3.59	8.10	
2025-01-17 06:18:26.20	3.55	8.10	
2025-01-17 06:18:26.40	3.52	8.09	
2025-01-17 06:18:26.60	3.49	8.09	
2025-01-17 06:18:26.81	3.45	8.09	
2025-01-17 06:18:27.01	3.42	8.09	
2025-01-17 06:18:27.21	3.39	8.08	
2025-01-17 06:18:27.42	3.35	8.08	
2025-01-17 06:18:27.62	3.32	8.08	
2025-01-17 06:18:27.82	3.29	8.07	
2025-01-17 06:18:28.03	3.25	8.07	
2025-01-17 06:18:28.23	3.22	8.07	
2025-01-17 06:18:28.43	3.19	8.07	
2025-01-17 06:18:28.64	3.15	8.06	
2025-01-17 06:18:28.84	3.12	8.06	
2025-01-17 06:18:29.04	3.08	8.06	
2025-01-17 06:18:29.24	3.05	8.05	
2025-01-17 06:18:29.45	3.02	8.05	
2025-01-17 06:18:29.65	2.98	8.05	
2025-01-17 06:18:29.85	2.95	8.05	
2025-01-17 06:18:30.06	2.92	8.04	
2025-01-17 06:18:30.26	2.88	8.04	
2025-01-17 06:18:30.46	2.85	8.04	
2025-01-17 06:18:30.67	2.82	8.03	
2025-01-17 06:18:30.87	2.78	8.03	
2025-01-17 06:18:31.07	2.75	8.03	
2025-01-17 06:18:31.28	2.72	8.02	
2025-01-17 06:18:31.48	2.68	8.02	
2025-01-17 06:18:31.68	2.65	8.02	
2025-01-17 06:18:31.88	2.62	8.02	
2025-01-17 06:18:32.09	2.58	8.01	
2025-01-17 06:18:32.29	2.55	8.01	
2025-01-17 06:18:32.49	2.52	8.01	
2025-01-17 06:18:32.70	2.48	8.00	
2025-01-17 06:18:32.90	2.45	8.00	
2025-01-17 06:18:33.10	2.42	8.00	
2025-01-17 06:18:33.31	2.38	7.99	
2025-01-17 06:18:33.51	2.35	7.99	
2025-01-17 06:18:33.71	2.32	7.99	
2025-01-17 06:18:33.92	2.28	7.98	
2025-01-17 06:18:34.12	2.25	7.98	
2025-01-17 06:18:34.32	2.22	7.98	
2025-01-17 06:18:34.52	2.19	7.98	
2025-01-17 06:18:34.73	2.15	7.97	
2025-01-17 06:18:34.93	2.12	7.97	
2025-01-17 06:18:35.13	2.09	7.97	
2025-01-17 06:18:35.34	2.05	7.96	
2025-01-17 06:18:35.54	2.02	7.96	
2025-01-17 06:18:35.74	1.99	7.96	
2025-01-17 06:18:35.95	1.95	7.95	
2025-01-17 06:18:36.15	1.92	7.95	
2025-01-17 06:18:36.35	1.89	7.95	
2025-01-17 06:18:36.55	1.85	7.94	
2025-01-17 06:18:36.76	1.82	7.94	
2025-01-17 06:18:36.96	1.79	7.94	
2025-01-17 06:18:37.16	1.75	7.93	
2025-01-17 06:18:37.37	1.72	7.93	
2025-01-17 06:18:37.57	1.69	7.93	
2025-01-17 06:18:37.77	1.66	7.92	
2025-01-17 06:18:37.98	1.62	7.92	
2025-01-17 06:18:38.18	1.59	7.92	
2025-01-17 06:18:38.38	1.56	7.91	
2025-01-17 06:18:38.59	1.52	7.91	
2025-01-17 06:18:38.79	1.49	7.91	
2025-01-17 06:18:38.99	1.46	7.90	
2025-01-17 06:18:39.19	1.42	7.90	
2025-01-17 06:18:39.40	1.39	7.90	
2025-01-17 06:18:39.60	1.36	7.89	
2025-01-17 06:18:39.80	1.32	7.89	
2025-01-17 06:18:40.01	1.29	7.89	
2025-01-17 06:18:40.21	1.26	7.88	
2025-01-17 06:18:40.41	1.23	7.88	
2025-01-17 06:18:40.62	1.19	7.88	
2025-01-17 06:18:40.82	1.16	7.87	
2025-01-17 06:18:41.02	1.13	7.87	
2025-01-17 06:18:41.23	1.09	7.87	
2025-01-17 06:18:41.43	1.06	7.86	
2025-01-17 06:18:41.63	1.03	7.86	
2025-01-17 06:18:41.83	0.99	7.86	
2025-01-17 06:18:42.04	0.96	7.85	
2025-01-17 06:18:42.24	0.93	7.85	
2025-01-17 06:18:42.44	0.90	7.85	
2025-01-17 06:18:42.65	0.86	7.84	
2025-01-17 06:18:42.85	0.83	7.84	
2025-01-17 06:18:43.05	0.80	7.84	
2025-01-17 06:18:43.26	0.76	7.83	
2025-01-17 06:18:43.46	0.73	7.83	
2025-01-17 06:18:43.66	0.70	7.83	
2025-01-17 06:18:43.87	0.66	7.82	
2025-01-17 06:18:44.07	0.63	7.82	
2025-01-17 06:18:44.27	0.60	7.82	
2025-01-17 06:18:44.47	0.57	7.81	
2025-01-17 06:18:44.68	0.53	7.81	
2025-01-17 06:18:44.88	0.50	7.80	
2025-01-17 06:18:45.08	0.47	7.80	
2025-01-17 06:18:45.29	0.43	7.80	
2025-01-17 06:18:45.49	0.40	7.79	
2025-01-17 06:18:45.69	0.37	7.79	
2025-01-17 06:18:45.90	0.34	7.79	
2025-01-17 06:18:46.10	0.30	7.78	
2025-01-17 06:18:46.30	0.27	7.78	
2025-01-17 06:18:46.51	0.24	7.78	
2025-01-17 06:18:46.71	0.21	7.77	
2025-01-17 06:18:46.91	0.17	7.77	
2025-01-17 06:18:47.11	0.14	7.76	
2025-01-17 06:18:47.32	0.11	7.76	
2025-01-17 06:18:47.52	0.07	7.76	
2025-01-17 06:18:47.72	0.04	7.75	
2025-01-17 06:18:47.93	0.01	7.75	
2025-01-17 06:18:48.13	359.98	7.75	
2025-01-17 06:18:48.33	359.94	7.74	
2025-01-17 06:18:48.54	359.91	7.74	
2025-01-17 06:18:48.74	359.88	7.73	
2025-01-17 06:18:48.94	359.85	7.73	
2025-01-17 06:18:49.15	359.81	7.73	
2025-01-17 06:18:49.35	359.78	7.72	
2025-01-17 06:18:49.55	359.75	7.72	
2025-01-17 06:18:49.75	359.72	7.72	
2025-01-17 06:18:49.96	359.68	7.71	
2025-01-17 06:18:50.16	359.65	7.71	
2025-01-17 06:18:50.36	359.62	7.70	
2025-01-17 06:18:50.57	359.58	7.70	
2025-01-17 06:18:50.77	359.55	7.70	
2025-01-17 06:18:50.97	359.52	7.69	
2025-01-17 06:18:51.18	359.49	7.69	
2025-01-17 06:18:51.38	359.45	7.69	
2025-01-17 06:18:51.58	359.42	7.68	
2025-01-17 06:18:51.79	359.39	7.68	
2025-01-17 06:18:51.99	359.36	7.67	
2025-01-17 06:18:52.19	359.32	7.67	
2025-01-17 06:18:52.39	359.29	7.67	
2025-01-17 06:18:52.60	359.26	7.66	
2025-01-17 06:18:52.80	359.23	7.66	
2025-01-17 06:18:53.00	359.20	7.65	
2025-01-17 06:18:53.21	359.16	7.65	
2025-01-17 06:18:53.41	359.13	7.65	
2025-01-17 06:18:53.61	359.10	7.64	
2025-01-17 06:18:53.82	359.06	7.64	
2025-01-17 06:18:54.02	359.03	7.64	
2025-01-17 06:18:54.22	359.00	7.63	
2025-01-17 06:18:54.43	358.97	7.63	
2025-01-17 06:18:54.63	358.93	7.62	
2025-01-17 06:18:54.83	358.90	7.62	
2025-01-17 06:18:55.03	358.87	7.62	
2025-01-17 06:18:55.24	358.84	7.61	
2025-01-17 06:18:55.44	358.81	7.61	
2025-01-17 06:18:55.64	358.77	7.60	
2025-01-17 06:18:55.85	358.74	7.60	
2025-01-17 06:18:56.05	358.71	7.60	
2025-01-17 06:18:56.25	358.68	7.59	
2025-01-17 06:18:56.46	358.64	7.59	
2025-01-17 06:18:56.66	358.61	7.58	
2025-01-17 06:18:56.86	358.58	7.58	
2025-01-17 06:18:57.07	358.55	7.58	
2025-01-17 06:18:57.27	358.51	7.57	
2025-01-17 06:18:57.47	358.48	7.57	
2025-01-17 06:18:57.67	358.45	7.56	
2025-01-17 06:18:57.88	358.42	7.56	
2025-01-17 06:18:58.08	358.39	7.55	
2025-01-17 06:18:58.28	358.35	7.55	
2025-01-17 06:18:58.49	358.32	7.55	
2025-01-17 06:18:58.69	358.29	7.54	
2025-01-17 06:18:58.89	358.26	7.54	
2025-01-17 06:18:59.10	358.22	7.53	
2025-01-17 06:18:59.30	358.19	7.53	
2025-01-17 06:18:59.50	358.16	7.53	
2025-01-17 06:18:59.71	358.13	7.52	
2025-01-17 06:18:59.91	358.10	7.52	
2025-01-17 06:19:00.11	358.06	7.51	
2025-01-17 06:19:00.31	358.03	7.51	
2025-01-17 06:19:00.52	358.00	7.51	
2025-01-17 06:19:00.72	357.97	7.50	
2025-01-17 06:19:00.92	357.94	7.50	
2025-01-17 06:19:01.13	357.90	7.49	
2025-01-17 06:19:01.33	357.87	7.49	
2025-01-17 06:19:01.53	357.84	7.48	
2025-01-17 06:19:01.74	357.81	7.48	
2025-01-17 06:19:01.94	357.77	7.48	
2025-01-17 06:19:02.14	357.74	7.47	
2025-01-17 06:19:02.35	357.71	7.47	
2025-01-17 06:19:02.55	357.68	7.46	
2025-01-17 06:19:02.75	357.65	7.46	
2025-01-17 06:19:02.95	357.61	7.45	
2025-01-17 06:19:03.16	357.58	7.45	
2025-01-17 06:19:03.36	357.55	7.45	
2025-01-17 06:19:03.56	357.52	7.44	
2025-01-17 06:19:03.77	357.49	7.44	
2025-01-17 06:19:03.97	357.45	7.43	
2025-01-17 06:19:04.17	357.42	7.43	
2025-01-17 06:19:04.38	357.39	7.42	
2025-01-17 06:19:04.58	357.36	7.42	
2025-01-17 06:19:04.78	357.33	7.42	
2025-01-17 06:19:04.99	357.29	7.41	
2025-01-17 06:19:05.19	357.26	7.41	
2025-01-17 06:19:05.39	357.23	7.40	
2025-01-17 06:19:05.59	357.20	7.40	
2025-01-17 06:19:05.80	357.17	7.39	
2025-01-17 06:19:06.00	357.13	7.39	
2025-01-17 06:19:06.20	357.10	7.38	
2025-01-17 06:19:06.41	357.07	7.38	
2025-01-17 06:19:06.61	357.04	7.38	
2025-01-17 06:19:06.81	357.01	7.37	
2025-01-17 06:19:07.02	356.97	7.37	
2025-01-17 06:19:07.22	356.94	7.36	
2025-01-17 06:19:07.42	356.91	7.36	
2025-01-17 06:19:07.62	356.88	7.35	
2025-01-17 06:19:07.83	356.85	7.35	
2025-01-17 06:19:08.03	356.82	7.34	
2025-01-17 06:19:08.23	356.79	7.34	
2025-01-17 06:19:08.44	356.75	7.34	
2025-01-17 06:19:08.64	356.72	7.33	
2025-01-17 06:19:08.84	356.69	7.33	
2025-01-17 06:19:09.05	356.66	7.32	
2025-01-17 06:19:09.25	356.63	7.32	
2025-01-17 06:19:09.45	356.59	7.31	
2025-01-17 06:19:09.66	356.56	7.31	
2025-01-17 06:19:09.86	356.53	7.30	
2025-01-17 06:19:10.06	356.50	7.30	
2025-01-17 06:19:10.27	356.47	7.29	
2025-01-17 06:19:10.47	356.44	7.29	
2025-01-17 06:19:10.67	356.40	7.29	
2025-01-17 06:19:10.87	356.37	7.28	
2025-01-17 06:19:11.08	356.34	7.28	
2025-01-17 06:19:11.28	356.31	7.27	
2025-01-17 06:19:11.48	356.28	7.27	
2025-01-17 06:19:11.69	356.25	7.26	
2025-01-17 06:19:11.89	356.21	7.26	
2025-01-17 06:19:12.09	356.18	7.25	
2025-01-17 06:19:12.30	356.15	7.25	
2025-01-17 06:19:12.50	356.12	7.24	
2025-01-17 06:19:12.70	356.09	7.24	
2025-01-17 06:19:12.91	356.06	7.24	
2025-01-17 06:19:13.11	356.02	7.23	
2025-01-17 06:19:13.31	355.99	7.23	
2025-01-17 06:19:13.51	355.96	7.22	
2025-01-17 06:19:13.72	355.93	7.22	
2025-01-17 06:19:13.92	355.90	7.21	
2025-01-17 06:19:14.12	355.87	7.21	
2025-01-17 06:19:14.33	355.84	7.20	
2025-01-17 06:19:14.53	355.80	7.20	
2025-01-17 06:19:14.73	355.77	7.19	
2025-01-17 06:19:14.94	355.74	7.19	
2025-01-17 06:19:15.14	355.71	7.18	
2025-01-17 06:19:15.34	355.68	7.18	
2025-01-17 06:19:15.55	355.65	7.17	
2025-01-17 06:19:15.75	355.62	7.17	
2025-01-17 06:19:15.95	355.58	7.16	
2025-01-17 06:19:16.15	355.55	7.16	
2025-01-17 06:19:16.36	355.52	7.15	
2025-01-17 06:19:16.56	355.49	7.15	
2025-01-17 06:19:16.76	355.46	7.15	
2025-01-17 06:19:16.97	355.43	7.14	
2025-01-17 06:19:17.17	355.40	7.14	
2025-01-17 06:19:17.37	355.37	7.13	
2025-01-17 06:19:17.58	355.33	7.13	
2025-01-17 06:19:17.78	355.30	7.12	
2025-01-17 06:19:17.98	355.27	7.12	
2025-01-17 06:19:18.19	355.24	7.11	
2025-01-17 06:19:18.39	355.21	7.11	
2025-01-17 06:19:18.59	355.18	7.10	
2025-01-17 06:19:18.79	355.15	7.10	
2025-01-17 06:19:19.00	355.11	7.09	
2025-01-17 06:19:19.20	355.08	7.09	
2025-01-17 06:19:19.40	355.05	7.08	
2025-01-17 06:19:19.61	355.02	7.08	
2025-01-17 06:19:19.81	354.99	7.07	
2025-01-17 06:19:20.01	354.96	7.07	
2025-01-17 06:19:20.22	354.93	7.06	
2025-01-17 06:19:20.42	354.90	7.06	
2025-01-17 06:19:20.62	354.87	7.05	
2025-01-17 06:19:20.82	354.84	7.05	
2025-01-17 06:19:21.03	354.80	7.04	
2025-01-17 06:19:21.23	354.77	7.04	
2025-01-17 06:19:21.43	354.74	7.03	
2025-01-17 06:19:21.64	354.71	7.03	
2025-01-17 06:19:21.84	354.68	7.02	
2025-01-17 06:19:22.04	354.65	7.02	
2025-01-17 06:19:22.25	354.62	7.01	
2025-01-17 06:19:22.45	354.59	7.01	
2025-01-17 06:19:22.65	354.55	7.00	
2025-01-17 06:19:22.86	354.52	7.00	
2025-01-17 06:19:23.06	354.49	6.99	
2025-01-17 06:19:23.26	354.46	6.99	
2025-01-17 06:19:23.46	354.43	6.98	
2025-01-17 06:19:23.67	354.40	6.98	
2025-01-17 06:19:23.87	354.37	6.97	
2025-01-17 06:19:24.07	354.34	6.97	
2025-01-17 06:19:24.28	354.31	6.96	
2025-01-17 06:19:24.48	354.28	6.96	
2025-01-17 06:19:24.68	354.25	6.95	
2025-01-17 06:19:24.89	354.21	6.95	
2025-01-17 06:19:25.09	354.18	6.94	
2025-01-17 06:19:25.29	354.15	6.94	
2025-01-17 06:19:25.50	354.12	6.93	
2025-01-17 06:19:25.70	354.09	6.93	
2025-01-17 06:19:25.90	354.06	6.92	
2025-01-17 06:19:26.10	354.03	6.92	
2025-01-17 06:19:26.31	354.00	6.91	
2025-01-17 06:19:26.51	353.97	6.91	
2025-01-17 06:19:26.71	353.94	6.90	
2025-01-17 06:19:26.92	353.90	6.90	
2025-01-17 06:19:27.12	353.87	6.89	
2025-01-17 06:19:27.32	353.84	6.89	
2025-01-17 06:19:27.53	353.81	6.88	
2025-01-17 06:19:27.73	353.78	6.88	
2025-01-17 06:19:27.93	353.75	6.87	
2025-01-17 06:19:28.14	353.72	6.87	
2025-01-17 06:19:28.34	353.69	6.86	
2025-01-17 06:19:28.54	353.66	6.86	
2025-01-17 06:19:28.74	353.63	6.85	
2025-01-17 06:19:28.95	353.60	6.85	
2025-01-17 06:19:29.15	353.57	6.84	
2025-01-17 06:19:29.35	353.54	6.84	
2025-01-17 06:19:29.56	353.51	6.83	
2025-01-17 06:19:29.76	353.48	6.82	
2025-01-17 06:19:29.96	353.45	6.82	
2025-01-17 06:19:30.17	353.41	6.81	
2025-01-17 06:19:30.37	353.38	6.81	
2025-01-17 06:19:30.57	353.35	6.80	
2025-01-17 06:19:30.78	353.32	6.80	
2025-01-17 06:19:30.98	353.29	6.79	
2025-01-17 06:19:31.18	353.26	6.79	
2025-01-17 06:19:31.38	353.23	6.78	
2025-01-17 06:19:31.59	353.20	6.78	
2025-01-17 06:19:31.79	353.17	6.77	
2025-01-17 06:19:31.99	353.14	6.77	
2025-01-17 06:19:32.20	353.11	6.76	
2025-01-17 06:19:32.40	353.08	6.76	
2025-01-17 06:19:32.60	353.05	6.75	
2025-01-17 06:19:32.81	353.02	6.75	
2025-01-17 06:19:33.01	352.99	6.74	
2025-01-17 06:19:33.21	352.96	6.73	
2025-01-17 06:19:33.42	352.92	6.73	
2025-01-17 06:19:33.62	352.89	6.72	
2025-01-17 06:19:33.82	352.86	6.72	
2025-01-17 06:19:34.02	352.83	6.71	
2025-01-17 06:19:34.23	352.80	6.71	
2025-01-17 06:19:34.43	352.77	6.70	
2025-01-17 06:19:34.63	352.74	6.70	
2025-01-17 06:19:34.84	352.71	6.69	
2025-01-17 06:19:35.04	352.68	6.69	
2025-01-17 06:19:35.24	352.65	6.68	
2025-01-17 06:19:35.45	352.62	6.68	
2025-01-17 06:19:35.65	352.59	6.67	
2025-01-17 06:19:35.85	352.56	6.66	
2025-01-17 06:19:36.06	352.53	6.66	
2025-01-17 06:19:36.26	352.50	6.65	
2025-01-17 06:19:36.46	352.47	6.65	
2025-01-17 06:19:36.66	352.44	6.64	
2025-01-17 06:19:36.87	352.41	6.64	
2025-01-17 06:19:37.07	352.38	6.63	
2025-01-17 06:19:37.27	352.35	6.63	
2025-01-17 06:19:37.48	352.32	6.62	
2025-01-17 06:19:37.68	352.29	6.62	
2025-01-17 06:19:37.88	352.26	6.61	
2025-01-17 06:19:38.09	352.23	6.60	
2025-01-17 06:19:38.29	352.20	6.60	
2025-01-17 06:19:38.49	352.17	6.59	
2025-01-17 06:19:38.70	352.14	6.59	
2025-01-17 06:19:38.90	352.11	6.58	
2025-01-17 06:19:39.10	352.08	6.58	
2025-01-17 06:19:39.30	352.05	6.57	
2025-01-17 06:19:39.51	352.02	6.57	
2025-01-17 06:19:39.71	351.99	6.56	
2025-01-17 06:19:39.91	351.96	6.55	
2025-01-17 06:19:40.12	351.93	6.55	
2025-01-17 06:19:40.32	351.90	6.54	
2025-01-17 06:19:40.52	351.87	6.54	
2025-01-17 06:19:40.73	351.84	6.53	
2025-01-17 06:19:40.93	351.81	6.53	
2025-01-17 06:19:41.13	351.78	6.52	
2025-01-17 06:19:41.34	351.75	6.52	
2025-01-17 06:19:41.54	351.72	6.51	
2025-01-17 06:19:41.74	351.69	6.50	
2025-01-17 06:19:41.94	351.66	6.50	
2025-01-17 06:19:42.15	351.63	6.49	
2025-01-17 06:19:42.35	351.60	6.49	
2025-01-17 06:19:42.55	351.57	6.48	
2025-01-17 06:19:42.76	351.54	6.48	
2025-01-17 06:19:42.96	351.51	6.47	
2025-01-17 06:19:43.16	351.48	6.47	
2025-01-17 06:19:43.37	351.45	6.46	
2025-01-17 06:19:43.57	351.42	6.45	
