passes_logs/2025/01/17/SPB_Silybum_02/SPB_Silybum_02__20250117_185457_TERRA_rec.log

#Pass ID: 20250117_185457_TERRA
#Satellite: TERRA
#Configuration: TERRA
#Start time: 2025-01-17 18:54:55

#Version: 2.0.20230423
#Station: SPB_Silybum_02
#Location: 30.233357 lon 59.946436 lat
#TLE: 1 25994U 99068A   25016.77398677  .00000840  00000+0  18282-3 0  9994
#TLE: 2 25994  98.0212  79.7479 0003409  69.0484  40.6664 14.60398530334334

#Time	Az	El	Level	Level2	SNR	BER	Gain	Gain2
2025-01-17 18:54:57.53	173.67	4.03	
2025-01-17 18:54:57.73	173.67	4.05	
2025-01-17 18:54:57.94	173.68	4.06	
2025-01-17 18:54:58.14	173.68	4.08	
2025-01-17 18:54:58.34	173.69	4.09	
2025-01-17 18:54:58.55	173.69	4.11	
2025-01-17 18:54:58.75	173.70	4.12	
2025-01-17 18:54:58.95	173.70	4.13	
2025-01-17 18:54:59.16	173.71	4.15	
2025-01-17 18:54:59.36	173.71	4.16	
2025-01-17 18:54:59.56	173.72	4.18	
2025-01-17 18:54:59.77	173.73	4.19	
2025-01-17 18:54:59.97	173.73	4.21	
2025-01-17 18:55:00.17	173.74	4.22	
2025-01-17 18:55:00.37	173.74	4.24	
2025-01-17 18:55:00.58	173.75	4.25	
2025-01-17 18:55:00.78	173.75	4.27	
2025-01-17 18:55:00.98	173.76	4.28	
2025-01-17 18:55:01.19	173.76	4.29	
2025-01-17 18:55:01.39	173.77	4.31	
2025-01-17 18:55:01.59	173.77	4.32	
2025-01-17 18:55:01.80	173.78	4.34	
2025-01-17 18:55:02.00	173.79	4.35	
2025-01-17 18:55:02.20	173.79	4.37	
2025-01-17 18:55:02.41	173.80	4.38	
2025-01-17 18:55:02.61	173.80	4.40	
2025-01-17 18:55:02.81	173.81	4.41	
2025-01-17 18:55:03.01	173.81	4.43	
2025-01-17 18:55:03.22	173.82	4.44	
2025-01-17 18:55:03.42	173.82	4.46	
2025-01-17 18:55:03.62	173.83	4.47	
2025-01-17 18:55:03.83	173.83	4.49	
2025-01-17 18:55:04.03	173.84	4.50	
2025-01-17 18:55:04.23	173.85	4.52	
2025-01-17 18:55:04.44	173.85	4.53	
2025-01-17 18:55:04.64	173.86	4.54	
2025-01-17 18:55:04.84	173.86	4.56	
2025-01-17 18:55:05.05	173.87	4.57	
2025-01-17 18:55:05.25	173.87	4.59	
2025-01-17 18:55:05.45	173.88	4.60	
2025-01-17 18:55:05.65	173.88	4.62	
2025-01-17 18:55:05.86	173.89	4.63	
2025-01-17 18:55:06.06	173.90	4.65	
2025-01-17 18:55:06.26	173.90	4.66	
2025-01-17 18:55:06.47	173.91	4.68	
2025-01-17 18:55:06.67	173.91	4.69	
2025-01-17 18:55:06.87	173.92	4.71	
2025-01-17 18:55:07.08	173.92	4.72	
2025-01-17 18:55:07.28	173.93	4.74	
2025-01-17 18:55:07.48	173.93	4.75	
2025-01-17 18:55:07.69	173.94	4.77	
2025-01-17 18:55:07.89	173.95	4.78	
2025-01-17 18:55:08.09	173.95	4.80	
2025-01-17 18:55:08.29	173.96	4.81	
2025-01-17 18:55:08.50	173.96	4.83	
2025-01-17 18:55:08.70	173.97	4.84	
2025-01-17 18:55:08.90	173.97	4.86	
2025-01-17 18:55:09.11	173.98	4.87	
2025-01-17 18:55:09.31	173.99	4.89	
2025-01-17 18:55:09.51	173.99	4.90	
2025-01-17 18:55:09.72	174.00	4.92	
2025-01-17 18:55:09.92	174.00	4.93	
2025-01-17 18:55:10.12	174.01	4.95	
2025-01-17 18:55:10.33	174.01	4.96	
2025-01-17 18:55:10.53	174.02	4.98	
2025-01-17 18:55:10.73	174.03	4.99	
2025-01-17 18:55:10.93	174.03	5.01	
2025-01-17 18:55:11.14	174.04	5.02	
2025-01-17 18:55:11.34	174.04	5.04	
2025-01-17 18:55:11.54	174.05	5.05	
2025-01-17 18:55:11.75	174.05	5.07	
2025-01-17 18:55:11.95	174.06	5.08	
2025-01-17 18:55:12.15	174.07	5.10	
2025-01-17 18:55:12.36	174.07	5.11	
2025-01-17 18:55:12.56	174.08	5.13	
2025-01-17 18:55:12.76	174.08	5.14	
2025-01-17 18:55:12.96	174.09	5.16	
2025-01-17 18:55:13.17	174.09	5.17	
2025-01-17 18:55:13.37	174.10	5.19	
2025-01-17 18:55:13.57	174.11	5.20	
2025-01-17 18:55:13.78	174.11	5.22	
2025-01-17 18:55:13.98	174.12	5.23	
2025-01-17 18:55:14.18	174.12	5.25	
2025-01-17 18:55:14.39	174.13	5.27	
2025-01-17 18:55:14.59	174.13	5.28	
2025-01-17 18:55:14.79	174.14	5.30	
2025-01-17 18:55:15.00	174.15	5.31	
2025-01-17 18:55:15.20	174.15	5.33	
2025-01-17 18:55:15.40	174.16	5.34	
2025-01-17 18:55:15.60	174.16	5.36	
2025-01-17 18:55:15.81	174.17	5.37	
2025-01-17 18:55:16.01	174.18	5.39	
2025-01-17 18:55:16.21	174.18	5.40	
2025-01-17 18:55:16.42	174.19	5.42	
2025-01-17 18:55:16.62	174.19	5.43	
2025-01-17 18:55:16.82	174.20	5.45	
2025-01-17 18:55:17.03	174.20	5.46	
2025-01-17 18:55:17.23	174.21	5.48	
2025-01-17 18:55:17.43	174.22	5.49	
2025-01-17 18:55:17.64	174.22	5.51	
2025-01-17 18:55:17.84	174.23	5.53	
2025-01-17 18:55:18.04	174.23	5.54	
2025-01-17 18:55:18.24	174.24	5.56	
2025-01-17 18:55:18.45	174.25	5.57	
2025-01-17 18:55:18.65	174.25	5.59	
2025-01-17 18:55:18.85	174.26	5.60	
2025-01-17 18:55:19.06	174.26	5.62	
2025-01-17 18:55:19.26	174.27	5.63	
2025-01-17 18:55:19.46	174.28	5.65	
2025-01-17 18:55:19.67	174.28	5.66	
2025-01-17 18:55:19.87	174.29	5.68	
2025-01-17 18:55:20.07	174.29	5.70	
2025-01-17 18:55:20.28	174.30	5.71	
2025-01-17 18:55:20.48	174.31	5.73	
2025-01-17 18:55:20.68	174.31	5.74	
2025-01-17 18:55:20.88	174.32	5.76	
2025-01-17 18:55:21.09	174.32	5.77	
2025-01-17 18:55:21.29	174.33	5.79	
2025-01-17 18:55:21.49	174.34	5.80	
2025-01-17 18:55:21.70	174.34	5.82	
2025-01-17 18:55:21.90	174.35	5.84	
2025-01-17 18:55:22.10	174.35	5.85	
2025-01-17 18:55:22.31	174.36	5.87	
2025-01-17 18:55:22.51	174.37	5.88	
2025-01-17 18:55:22.71	174.37	5.90	
2025-01-17 18:55:22.92	174.38	5.91	
2025-01-17 18:55:23.12	174.38	5.93	
2025-01-17 18:55:23.32	174.39	5.94	
2025-01-17 18:55:23.52	174.40	5.96	
2025-01-17 18:55:23.73	174.40	5.98	
2025-01-17 18:55:23.93	174.41	5.99	
2025-01-17 18:55:24.13	174.41	6.01	
2025-01-17 18:55:24.34	174.42	6.02	
2025-01-17 18:55:24.54	174.43	6.04	
2025-01-17 18:55:24.74	174.43	6.05	
2025-01-17 18:55:24.95	174.44	6.07	
2025-01-17 18:55:25.15	174.45	6.09	
2025-01-17 18:55:25.35	174.45	6.10	
2025-01-17 18:55:25.56	174.46	6.12	
2025-01-17 18:55:25.76	174.46	6.13	
2025-01-17 18:55:25.96	174.47	6.15	
2025-01-17 18:55:26.16	174.48	6.16	
2025-01-17 18:55:26.37	174.48	6.18	
2025-01-17 18:55:26.57	174.49	6.20	
2025-01-17 18:55:26.77	174.49	6.21	
2025-01-17 18:55:26.98	174.50	6.23	
2025-01-17 18:55:27.18	174.51	6.24	
2025-01-17 18:55:27.38	174.51	6.26	
2025-01-17 18:55:27.59	174.52	6.28	
2025-01-17 18:55:27.79	174.53	6.29	
2025-01-17 18:55:27.99	174.53	6.31	
2025-01-17 18:55:28.20	174.54	6.32	
2025-01-17 18:55:28.40	174.54	6.34	
2025-01-17 18:55:28.60	174.55	6.36	
2025-01-17 18:55:28.80	174.56	6.37	
2025-01-17 18:55:29.01	174.56	6.39	
2025-01-17 18:55:29.21	174.57	6.40	
2025-01-17 18:55:29.41	174.58	6.42	
2025-01-17 18:55:29.62	174.58	6.44	
2025-01-17 18:55:29.82	174.59	6.45	
2025-01-17 18:55:30.02	174.59	6.47	
2025-01-17 18:55:30.23	174.60	6.48	
2025-01-17 18:55:30.43	174.61	6.50	
2025-01-17 18:55:30.63	174.61	6.52	
2025-01-17 18:55:30.84	174.62	6.53	
2025-01-17 18:55:31.04	174.63	6.55	
2025-01-17 18:55:31.24	174.63	6.56	
2025-01-17 18:55:31.44	174.64	6.58	
2025-01-17 18:55:31.65	174.64	6.60	
2025-01-17 18:55:31.85	174.65	6.61	
2025-01-17 18:55:32.05	174.66	6.63	
2025-01-17 18:55:32.26	174.66	6.64	
2025-01-17 18:55:32.46	174.67	6.66	
2025-01-17 18:55:32.66	174.68	6.68	
2025-01-17 18:55:32.87	174.68	6.69	
2025-01-17 18:55:33.07	174.69	6.71	
2025-01-17 18:55:33.27	174.70	6.72	
2025-01-17 18:55:33.48	174.70	6.74	
2025-01-17 18:55:33.68	174.71	6.76	
2025-01-17 18:55:33.88	174.72	6.77	
2025-01-17 18:55:34.08	174.72	6.79	
2025-01-17 18:55:34.29	174.73	6.81	
2025-01-17 18:55:34.49	174.73	6.82	
2025-01-17 18:55:34.69	174.74	6.84	
2025-01-17 18:55:34.90	174.75	6.86	
2025-01-17 18:55:35.10	174.75	6.87	
2025-01-17 18:55:35.30	174.76	6.89	
2025-01-17 18:55:35.51	174.77	6.90	
2025-01-17 18:55:35.71	174.77	6.92	
2025-01-17 18:55:35.91	174.78	6.94	
2025-01-17 18:55:36.12	174.79	6.95	
2025-01-17 18:55:36.32	174.79	6.97	
2025-01-17 18:55:36.52	174.80	6.99	
2025-01-17 18:55:36.72	174.81	7.00	
2025-01-17 18:55:36.93	174.81	7.02	
2025-01-17 18:55:37.13	174.82	7.03	
2025-01-17 18:55:37.33	174.83	7.05	
2025-01-17 18:55:37.54	174.83	7.07	
2025-01-17 18:55:37.74	174.84	7.08	
2025-01-17 18:55:37.94	174.84	7.10	
2025-01-17 18:55:38.15	174.85	7.12	
2025-01-17 18:55:38.35	174.86	7.13	
2025-01-17 18:55:38.55	174.86	7.15	
2025-01-17 18:55:38.76	174.87	7.17	
2025-01-17 18:55:38.96	174.88	7.18	
2025-01-17 18:55:39.16	174.88	7.20	
2025-01-17 18:55:39.36	174.89	7.22	
2025-01-17 18:55:39.57	174.90	7.23	
2025-01-17 18:55:39.77	174.90	7.25	
2025-01-17 18:55:39.97	174.91	7.27	
2025-01-17 18:55:40.18	174.92	7.28	
2025-01-17 18:55:40.38	174.92	7.30	
2025-01-17 18:55:40.58	174.93	7.32	
2025-01-17 18:55:40.79	174.94	7.33	
2025-01-17 18:55:40.99	174.94	7.35	
2025-01-17 18:55:41.19	174.95	7.37	
2025-01-17 18:55:41.40	174.96	7.38	
2025-01-17 18:55:41.60	174.96	7.40	
2025-01-17 18:55:41.80	174.97	7.42	
2025-01-17 18:55:42.00	174.98	7.43	
2025-01-17 18:55:42.21	174.98	7.45	
2025-01-17 18:55:42.41	174.99	7.47	
2025-01-17 18:55:42.61	175.00	7.48	
2025-01-17 18:55:42.82	175.00	7.50	
2025-01-17 18:55:43.02	175.01	7.52	
2025-01-17 18:55:43.22	175.02	7.53	
2025-01-17 18:55:43.43	175.03	7.55	
2025-01-17 18:55:43.63	175.03	7.57	
2025-01-17 18:55:43.83	175.04	7.58	
2025-01-17 18:55:44.04	175.05	7.60	
2025-01-17 18:55:44.24	175.05	7.62	
2025-01-17 18:55:44.44	175.06	7.63	
2025-01-17 18:55:44.64	175.07	7.65	
2025-01-17 18:55:44.85	175.07	7.67	
2025-01-17 18:55:45.05	175.08	7.68	
2025-01-17 18:55:45.25	175.09	7.70	
2025-01-17 18:55:45.46	175.09	7.72	
2025-01-17 18:55:45.66	175.10	7.73	
2025-01-17 18:55:45.86	175.11	7.75	
2025-01-17 18:55:46.07	175.11	7.77	
2025-01-17 18:55:46.27	175.12	7.79	
2025-01-17 18:55:46.47	175.13	7.80	
2025-01-17 18:55:46.68	175.13	7.82	
2025-01-17 18:55:46.88	175.14	7.84	
2025-01-17 18:55:47.08	175.15	7.85	
2025-01-17 18:55:47.28	175.15	7.87	
2025-01-17 18:55:47.49	175.16	7.89	
2025-01-17 18:55:47.69	175.17	7.90	
2025-01-17 18:55:47.89	175.18	7.92	
2025-01-17 18:55:48.10	175.18	7.94	
2025-01-17 18:55:48.30	175.19	7.95	
2025-01-17 18:55:48.50	175.20	7.97	
2025-01-17 18:55:48.71	175.20	7.99	
2025-01-17 18:55:48.91	175.21	8.01	
2025-01-17 18:55:49.11	175.22	8.02	
2025-01-17 18:55:49.32	175.22	8.04	
2025-01-17 18:55:49.52	175.23	8.06	
2025-01-17 18:55:49.72	175.24	8.07	
2025-01-17 18:55:49.92	175.25	8.09	
2025-01-17 18:55:50.13	175.25	8.11	
2025-01-17 18:55:50.33	175.26	8.13	
2025-01-17 18:55:50.53	175.27	8.14	
2025-01-17 18:55:50.74	175.27	8.16	
2025-01-17 18:55:50.94	175.28	8.18	
2025-01-17 18:55:51.14	175.29	8.19	
2025-01-17 18:55:51.35	175.30	8.21	
2025-01-17 18:55:51.55	175.30	8.23	
2025-01-17 18:55:51.75	175.31	8.25	
2025-01-17 18:55:51.96	175.32	8.26	
2025-01-17 18:55:52.16	175.32	8.28	
2025-01-17 18:55:52.36	175.33	8.30	
2025-01-17 18:55:52.56	175.34	8.32	
2025-01-17 18:55:52.77	175.34	8.33	
2025-01-17 18:55:52.97	175.35	8.35	
2025-01-17 18:55:53.17	175.36	8.37	
2025-01-17 18:55:53.38	175.37	8.39	
2025-01-17 18:55:53.58	175.37	8.40	
2025-01-17 18:55:53.78	175.38	8.42	
2025-01-17 18:55:53.99	175.39	8.44	
2025-01-17 18:55:54.19	175.40	8.46	
2025-01-17 18:55:54.39	175.40	8.47	
2025-01-17 18:55:54.60	175.41	8.49	
2025-01-17 18:55:54.80	175.42	8.51	
2025-01-17 18:55:55.00	175.42	8.52	
2025-01-17 18:55:55.20	175.43	8.54	
2025-01-17 18:55:55.41	175.44	8.56	
2025-01-17 18:55:55.61	175.45	8.58	
2025-01-17 18:55:55.81	175.45	8.59	
2025-01-17 18:55:56.02	175.46	8.61	
2025-01-17 18:55:56.22	175.47	8.63	
2025-01-17 18:55:56.42	175.47	8.65	
2025-01-17 18:55:56.63	175.48	8.67	
2025-01-17 18:55:56.83	175.49	8.68	
2025-01-17 18:55:57.03	175.50	8.70	
2025-01-17 18:55:57.24	175.50	8.72	
2025-01-17 18:55:57.44	175.51	8.74	
2025-01-17 18:55:57.64	175.52	8.75	
2025-01-17 18:55:57.84	175.53	8.77	
2025-01-17 18:55:58.05	175.53	8.79	
2025-01-17 18:55:58.25	175.54	8.81	
2025-01-17 18:55:58.45	175.55	8.82	
2025-01-17 18:55:58.66	175.56	8.84	
2025-01-17 18:55:58.86	175.56	8.86	
2025-01-17 18:55:59.06	175.57	8.88	
2025-01-17 18:55:59.27	175.58	8.90	
2025-01-17 18:55:59.47	175.59	8.91	
2025-01-17 18:55:59.67	175.59	8.93	
2025-01-17 18:55:59.88	175.60	8.95	
2025-01-17 18:56:00.08	175.61	8.97	
2025-01-17 18:56:00.28	175.61	8.98	
2025-01-17 18:56:00.48	175.62	9.00	
2025-01-17 18:56:00.69	175.63	9.02	
2025-01-17 18:56:00.89	175.64	9.04	
2025-01-17 18:56:01.09	175.64	9.06	
2025-01-17 18:56:01.30	175.65	9.07	
2025-01-17 18:56:01.50	175.66	9.09	
2025-01-17 18:56:01.70	175.67	9.11	
2025-01-17 18:56:01.91	175.68	9.13	
2025-01-17 18:56:02.11	175.68	9.15	
2025-01-17 18:56:02.31	175.69	9.16	
2025-01-17 18:56:02.52	175.70	9.18	
2025-01-17 18:56:02.72	175.71	9.20	
2025-01-17 18:56:02.92	175.71	9.22	
2025-01-17 18:56:03.12	175.72	9.24	
2025-01-17 18:56:03.33	175.73	9.25	
2025-01-17 18:56:03.53	175.74	9.27	
2025-01-17 18:56:03.73	175.74	9.29	
2025-01-17 18:56:03.94	175.75	9.31	
2025-01-17 18:56:04.14	175.76	9.33	
2025-01-17 18:56:04.34	175.77	9.34	
2025-01-17 18:56:04.55	175.77	9.36	
2025-01-17 18:56:04.75	175.78	9.38	
2025-01-17 18:56:04.95	175.79	9.40	
2025-01-17 18:56:05.16	175.80	9.42	
2025-01-17 18:56:05.36	175.80	9.44	
2025-01-17 18:56:05.56	175.81	9.45	
2025-01-17 18:56:05.76	175.82	9.47	
2025-01-17 18:56:05.97	175.83	9.49	
2025-01-17 18:56:06.17	175.84	9.51	
2025-01-17 18:56:06.37	175.84	9.53	
2025-01-17 18:56:06.58	175.85	9.54	
2025-01-17 18:56:06.78	175.86	9.56	
2025-01-17 18:56:06.98	175.87	9.58	
2025-01-17 18:56:07.19	175.87	9.60	
2025-01-17 18:56:07.39	175.88	9.62	
2025-01-17 18:56:07.59	175.89	9.64	
2025-01-17 18:56:07.80	175.90	9.65	
2025-01-17 18:56:08.00	175.91	9.67	
2025-01-17 18:56:08.20	175.91	9.69	
2025-01-17 18:56:08.40	175.92	9.71	
2025-01-17 18:56:08.61	175.93	9.73	
2025-01-17 18:56:08.81	175.94	9.75	
2025-01-17 18:56:09.01	175.94	9.76	
2025-01-17 18:56:09.22	175.95	9.78	
2025-01-17 18:56:09.42	175.96	9.80	
2025-01-17 18:56:09.62	175.97	9.82	
2025-01-17 18:56:09.83	175.98	9.84	
2025-01-17 18:56:10.03	175.98	9.86	
2025-01-17 18:56:10.23	175.99	9.88	
2025-01-17 18:56:10.44	176.00	9.89	
2025-01-17 18:56:10.64	176.01	9.91	
2025-01-17 18:56:10.84	176.02	9.93	
2025-01-17 18:56:11.04	176.02	9.95	
2025-01-17 18:56:11.25	176.03	9.97	
2025-01-17 18:56:11.45	176.04	9.99	
2025-01-17 18:56:11.65	176.05	10.01	
2025-01-17 18:56:11.86	176.06	10.03	
2025-01-17 18:56:12.06	176.06	10.04	
2025-01-17 18:56:12.26	176.07	10.06	
2025-01-17 18:56:12.47	176.08	10.08	
2025-01-17 18:56:12.67	176.09	10.10	
2025-01-17 18:56:12.87	176.10	10.12	
2025-01-17 18:56:13.08	176.10	10.14	
2025-01-17 18:56:13.28	176.11	10.16	
2025-01-17 18:56:13.48	176.12	10.17	
2025-01-17 18:56:13.68	176.13	10.19	
2025-01-17 18:56:13.89	176.14	10.21	
2025-01-17 18:56:14.09	176.14	10.23	
2025-01-17 18:56:14.29	176.15	10.25	
2025-01-17 18:56:14.50	176.16	10.27	
2025-01-17 18:56:14.70	176.17	10.29	
2025-01-17 18:56:14.90	176.18	10.31	
2025-01-17 18:56:15.11	176.18	10.33	
2025-01-17 18:56:15.31	176.19	10.34	
2025-01-17 18:56:15.51	176.20	10.36	
2025-01-17 18:56:15.72	176.21	10.38	
2025-01-17 18:56:15.92	176.22	10.40	
2025-01-17 18:56:16.12	176.23	10.42	
2025-01-17 18:56:16.32	176.23	10.44	
2025-01-17 18:56:16.53	176.24	10.46	
2025-01-17 18:56:16.73	176.25	10.48	
2025-01-17 18:56:16.93	176.26	10.50	
2025-01-17 18:56:17.14	176.27	10.52	
2025-01-17 18:56:17.34	176.28	10.53	
2025-01-17 18:56:17.54	176.28	10.55	
2025-01-17 18:56:17.75	176.29	10.57	
2025-01-17 18:56:17.95	176.30	10.59	
2025-01-17 18:56:18.15	176.31	10.61	
2025-01-17 18:56:18.36	176.32	10.63	
2025-01-17 18:56:18.56	176.33	10.65	
2025-01-17 18:56:18.76	176.33	10.67	
2025-01-17 18:56:18.96	176.34	10.69	
2025-01-17 18:56:19.17	176.35	10.71	
2025-01-17 18:56:19.37	176.36	10.73	
2025-01-17 18:56:19.57	176.37	10.75	
2025-01-17 18:56:19.78	176.38	10.77	
2025-01-17 18:56:19.98	176.38	10.78	
2025-01-17 18:56:20.18	176.39	10.80	
2025-01-17 18:56:20.39	176.40	10.82	
2025-01-17 18:56:20.59	176.41	10.84	
2025-01-17 18:56:20.79	176.42	10.86	
2025-01-17 18:56:20.99	176.43	10.88	
2025-01-17 18:56:21.20	176.43	10.90	
2025-01-17 18:56:21.40	176.44	10.92	
2025-01-17 18:56:21.60	176.45	10.94	
2025-01-17 18:56:21.81	176.46	10.96	
2025-01-17 18:56:22.01	176.47	10.98	
2025-01-17 18:56:22.21	176.48	11.00	
2025-01-17 18:56:22.42	176.49	11.02	
2025-01-17 18:56:22.62	176.49	11.04	
2025-01-17 18:56:22.82	176.50	11.06	
2025-01-17 18:56:23.03	176.51	11.08	
2025-01-17 18:56:23.23	176.52	11.10	
2025-01-17 18:56:23.43	176.53	11.11	
2025-01-17 18:56:23.63	176.54	11.13	
2025-01-17 18:56:23.84	176.55	11.15	
2025-01-17 18:56:24.04	176.55	11.17	
2025-01-17 18:56:24.24	176.56	11.19	
2025-01-17 18:56:24.45	176.57	11.21	
2025-01-17 18:56:24.65	176.58	11.23	
2025-01-17 18:56:24.85	176.59	11.25	
2025-01-17 18:56:25.06	176.60	11.27	
2025-01-17 18:56:25.26	176.61	11.29	
2025-01-17 18:56:25.46	176.62	11.31	
2025-01-17 18:56:25.67	176.62	11.33	
2025-01-17 18:56:25.87	176.63	11.35	
2025-01-17 18:56:26.07	176.64	11.37	
2025-01-17 18:56:26.27	176.65	11.39	
2025-01-17 18:56:26.48	176.66	11.41	
2025-01-17 18:56:26.68	176.67	11.43	
2025-01-17 18:56:26.88	176.68	11.45	
2025-01-17 18:56:27.09	176.69	11.47	
2025-01-17 18:56:27.29	176.69	11.49	
2025-01-17 18:56:27.49	176.70	11.51	
2025-01-17 18:56:27.70	176.71	11.53	
2025-01-17 18:56:27.90	176.72	11.55	
2025-01-17 18:56:28.10	176.73	11.57	
2025-01-17 18:56:28.31	176.74	11.59	
2025-01-17 18:56:28.51	176.75	11.61	
2025-01-17 18:56:28.71	176.76	11.63	
2025-01-17 18:56:28.91	176.77	11.65	
2025-01-17 18:56:29.12	176.77	11.67	
2025-01-17 18:56:29.32	176.78	11.69	
2025-01-17 18:56:29.52	176.79	11.71	
2025-01-17 18:56:29.73	176.80	11.73	
2025-01-17 18:56:29.93	176.81	11.75	
2025-01-17 18:56:30.13	176.82	11.77	
2025-01-17 18:56:30.34	176.83	11.79	
2025-01-17 18:56:30.54	176.84	11.81	
2025-01-17 18:56:30.74	176.85	11.83	
2025-01-17 18:56:30.95	176.86	11.85	
2025-01-17 18:56:31.15	176.86	11.87	
2025-01-17 18:56:31.35	176.87	11.89	
2025-01-17 18:56:31.55	176.88	11.91	
2025-01-17 18:56:31.76	176.89	11.93	
2025-01-17 18:56:31.96	176.90	11.95	
2025-01-17 18:56:32.16	176.91	11.97	
2025-01-17 18:56:32.37	176.92	11.99	
2025-01-17 18:56:32.57	176.93	12.01	
2025-01-17 18:56:32.77	176.94	12.03	
2025-01-17 18:56:32.98	176.95	12.05	
2025-01-17 18:56:33.18	176.96	12.08	
2025-01-17 18:56:33.38	176.97	12.10	
2025-01-17 18:56:33.59	176.97	12.12	
2025-01-17 18:56:33.79	176.98	12.14	
2025-01-17 18:56:33.99	176.99	12.16	
2025-01-17 18:56:34.19	177.00	12.18	
2025-01-17 18:56:34.40	177.01	12.20	
2025-01-17 18:56:34.60	177.02	12.22	
2025-01-17 18:56:34.80	177.03	12.24	
2025-01-17 18:56:35.01	177.04	12.26	
2025-01-17 18:56:35.21	177.05	12.28	
2025-01-17 18:56:35.41	177.06	12.30	
2025-01-17 18:56:35.62	177.07	12.32	
2025-01-17 18:56:35.82	177.08	12.34	
2025-01-17 18:56:36.02	177.09	12.36	
2025-01-17 18:56:36.23	177.10	12.38	
2025-01-17 18:56:36.43	177.10	12.40	
2025-01-17 18:56:36.63	177.11	12.42	
2025-01-17 18:56:36.83	177.12	12.45	
2025-01-17 18:56:37.04	177.13	12.47	
2025-01-17 18:56:37.24	177.14	12.49	
2025-01-17 18:56:37.44	177.15	12.51	
2025-01-17 18:56:37.65	177.16	12.53	
2025-01-17 18:56:37.85	177.17	12.55	
2025-01-17 18:56:38.05	177.18	12.57	
2025-01-17 18:56:38.26	177.19	12.59	
2025-01-17 18:56:38.46	177.20	12.61	
2025-01-17 18:56:38.66	177.21	12.63	
2025-01-17 18:56:38.87	177.22	12.66	
2025-01-17 18:56:39.07	177.23	12.68	
2025-01-17 18:56:39.27	177.24	12.70	
2025-01-17 18:56:39.47	177.25	12.72	
2025-01-17 18:56:39.68	177.26	12.74	
2025-01-17 18:56:39.88	177.27	12.76	
2025-01-17 18:56:40.08	177.28	12.78	
2025-01-17 18:56:40.29	177.29	12.80	
2025-01-17 18:56:40.49	177.30	12.82	
2025-01-17 18:56:40.69	177.31	12.84	
2025-01-17 18:56:40.90	177.32	12.87	
2025-01-17 18:56:41.10	177.32	12.89	
2025-01-17 18:56:41.30	177.33	12.91	
2025-01-17 18:56:41.51	177.34	12.93	
2025-01-17 18:56:41.71	177.35	12.95	
2025-01-17 18:56:41.91	177.36	12.97	
2025-01-17 18:56:42.11	177.37	12.99	
2025-01-17 18:56:42.32	177.38	13.01	
2025-01-17 18:56:42.52	177.39	13.04	
2025-01-17 18:56:42.72	177.40	13.06	
2025-01-17 18:56:42.93	177.41	13.08	
2025-01-17 18:56:43.13	177.42	13.10	
2025-01-17 18:56:43.33	177.43	13.12	
2025-01-17 18:56:43.54	177.44	13.14	
2025-01-17 18:56:43.74	177.45	13.16	
2025-01-17 18:56:43.94	177.46	13.18	
2025-01-17 18:56:44.15	177.47	13.21	
2025-01-17 18:56:44.35	177.48	13.23	
2025-01-17 18:56:44.55	177.49	13.25	
2025-01-17 18:56:44.75	177.50	13.27	
2025-01-17 18:56:44.96	177.51	13.29	
2025-01-17 18:56:45.16	177.52	13.31	
2025-01-17 18:56:45.36	177.53	13.34	
2025-01-17 18:56:45.57	177.54	13.36	
2025-01-17 18:56:45.77	177.55	13.38	
2025-01-17 18:56:45.97	177.56	13.40	
2025-01-17 18:56:46.18	177.57	13.42	
2025-01-17 18:56:46.38	177.58	13.44	
2025-01-17 18:56:46.58	177.59	13.47	
2025-01-17 18:56:46.79	177.60	13.49	
2025-01-17 18:56:46.99	177.61	13.51	
2025-01-17 18:56:47.19	177.62	13.53	
2025-01-17 18:56:47.39	177.63	13.55	
2025-01-17 18:56:47.60	177.64	13.57	
2025-01-17 18:56:47.80	177.65	13.60	
2025-01-17 18:56:48.00	177.66	13.62	
2025-01-17 18:56:48.21	177.67	13.64	
2025-01-17 18:56:48.41	177.68	13.66	
2025-01-17 18:56:48.61	177.69	13.68	
2025-01-17 18:56:48.82	177.70	13.71	
2025-01-17 18:56:49.02	177.71	13.73	
2025-01-17 18:56:49.22	177.72	13.75	
2025-01-17 18:56:49.43	177.74	13.77	
2025-01-17 18:56:49.63	177.75	13.79	
2025-01-17 18:56:49.83	177.76	13.82	
2025-01-17 18:56:50.03	177.77	13.84	
2025-01-17 18:56:50.24	177.78	13.86	
2025-01-17 18:56:50.44	177.79	13.88	
2025-01-17 18:56:50.64	177.80	13.90	
2025-01-17 18:56:50.85	177.81	13.93	
2025-01-17 18:56:51.05	177.82	13.95	
2025-01-17 18:56:51.25	177.83	13.97	
2025-01-17 18:56:51.46	177.84	13.99	
2025-01-17 18:56:51.66	177.85	14.02	
2025-01-17 18:56:51.86	177.86	14.04	
2025-01-17 18:56:52.07	177.87	14.06	
2025-01-17 18:56:52.27	177.88	14.08	
2025-01-17 18:56:52.47	177.89	14.10	
2025-01-17 18:56:52.67	177.90	14.13	
2025-01-17 18:56:52.88	177.91	14.15	
2025-01-17 18:56:53.08	177.92	14.17	
2025-01-17 18:56:53.28	177.93	14.19	
2025-01-17 18:56:53.49	177.94	14.22	
2025-01-17 18:56:53.69	177.95	14.24	
2025-01-17 18:56:53.89	177.97	14.26	
2025-01-17 18:56:54.10	177.98	14.28	
2025-01-17 18:56:54.30	177.99	14.31	
2025-01-17 18:56:54.50	178.00	14.33	
2025-01-17 18:56:54.71	178.01	14.35	
2025-01-17 18:56:54.91	178.02	14.37	
2025-01-17 18:56:55.11	178.03	14.40	
2025-01-17 18:56:55.31	178.04	14.42	
2025-01-17 18:56:55.52	178.05	14.44	
2025-01-17 18:56:55.72	178.06	14.46	
2025-01-17 18:56:55.92	178.07	14.49	
2025-01-17 18:56:56.13	178.08	14.51	
2025-01-17 18:56:56.33	178.09	14.53	
2025-01-17 18:56:56.53	178.11	14.56	
2025-01-17 18:56:56.74	178.12	14.58	
2025-01-17 18:56:56.94	178.13	14.60	
2025-01-17 18:56:57.14	178.14	14.62	
2025-01-17 18:56:57.35	178.15	14.65	
2025-01-17 18:56:57.55	178.16	14.67	
2025-01-17 18:56:57.75	178.17	14.69	
2025-01-17 18:56:57.95	178.18	14.72	
2025-01-17 18:56:58.16	178.19	14.74	
2025-01-17 18:56:58.36	178.20	14.76	
2025-01-17 18:56:58.56	178.21	14.78	
2025-01-17 18:56:58.77	178.23	14.81	
2025-01-17 18:56:58.97	178.24	14.83	
2025-01-17 18:56:59.17	178.25	14.85	
2025-01-17 18:56:59.38	178.26	14.88	
2025-01-17 18:56:59.58	178.27	14.90	
2025-01-17 18:56:59.78	178.28	14.92	
2025-01-17 18:56:59.99	178.29	14.95	
2025-01-17 18:57:00.19	178.30	14.97	
2025-01-17 18:57:00.39	178.32	14.99	
2025-01-17 18:57:00.59	178.33	15.02	
2025-01-17 18:57:00.80	178.34	15.04	
2025-01-17 18:57:01.00	178.35	15.06	
2025-01-17 18:57:01.20	178.36	15.09	
2025-01-17 18:57:01.41	178.37	15.11	
2025-01-17 18:57:01.61	178.38	15.13	
2025-01-17 18:57:01.81	178.39	15.16	
2025-01-17 18:57:02.02	178.41	15.18	
2025-01-17 18:57:02.22	178.42	15.20	
2025-01-17 18:57:02.42	178.43	15.23	
2025-01-17 18:57:02.63	178.44	15.25	
2025-01-17 18:57:02.83	178.45	15.27	
2025-01-17 18:57:03.03	178.46	15.30	
2025-01-17 18:57:03.23	178.47	15.32	
2025-01-17 18:57:03.44	178.49	15.34	
2025-01-17 18:57:03.64	178.50	15.37	
2025-01-17 18:57:03.84	178.51	15.39	
2025-01-17 18:57:04.05	178.52	15.42	
2025-01-17 18:57:04.25	178.53	15.44	
2025-01-17 18:57:04.45	178.54	15.46	
2025-01-17 18:57:04.66	178.55	15.49	
2025-01-17 18:57:04.86	178.57	15.51	
2025-01-17 18:57:05.06	178.58	15.53	
2025-01-17 18:57:05.27	178.59	15.56	
2025-01-17 18:57:05.47	178.60	15.58	
2025-01-17 18:57:05.67	178.61	15.61	
2025-01-17 18:57:05.87	178.62	15.63	
2025-01-17 18:57:06.08	178.64	15.65	
2025-01-17 18:57:06.28	178.65	15.68	
2025-01-17 18:57:06.48	178.66	15.70	
2025-01-17 18:57:06.69	178.67	15.73	
2025-01-17 18:57:06.89	178.68	15.75	
2025-01-17 18:57:07.09	178.69	15.77	
2025-01-17 18:57:07.30	178.71	15.80	
2025-01-17 18:57:07.50	178.72	15.82	
2025-01-17 18:57:07.70	178.73	15.85	
2025-01-17 18:57:07.91	178.74	15.87	
2025-01-17 18:57:08.11	178.75	15.89	
2025-01-17 18:57:08.31	178.77	15.92	
2025-01-17 18:57:08.51	178.78	15.94	
2025-01-17 18:57:08.72	178.79	15.97	
2025-01-17 18:57:08.92	178.80	15.99	
2025-01-17 18:57:09.12	178.81	16.01	
2025-01-17 18:57:09.33	178.83	16.04	
2025-01-17 18:57:09.53	178.84	16.06	
2025-01-17 18:57:09.73	178.85	16.09	
2025-01-17 18:57:09.94	178.86	16.11	
2025-01-17 18:57:10.14	178.87	16.14	
2025-01-17 18:57:10.34	178.89	16.16	
2025-01-17 18:57:10.55	178.90	16.19	
2025-01-17 18:57:10.75	178.91	16.21	
2025-01-17 18:57:10.95	178.92	16.23	
2025-01-17 18:57:11.15	178.93	16.26	
2025-01-17 18:57:11.36	178.95	16.28	
2025-01-17 18:57:11.56	178.96	16.31	
2025-01-17 18:57:11.76	178.97	16.33	
2025-01-17 18:57:11.97	178.98	16.36	
2025-01-17 18:57:12.17	179.00	16.38	
2025-01-17 18:57:12.37	179.01	16.41	
2025-01-17 18:57:12.58	179.02	16.43	
2025-01-17 18:57:12.78	179.03	16.46	
2025-01-17 18:57:12.98	179.04	16.48	
2025-01-17 18:57:13.19	179.06	16.51	
2025-01-17 18:57:13.39	179.07	16.53	
2025-01-17 18:57:13.59	179.08	16.56	
2025-01-17 18:57:13.79	179.09	16.58	
2025-01-17 18:57:14.00	179.11	16.61	
2025-01-17 18:57:14.20	179.12	16.63	
2025-01-17 18:57:14.40	179.13	16.66	
2025-01-17 18:57:14.61	179.14	16.68	
2025-01-17 18:57:14.81	179.16	16.71	
2025-01-17 18:57:15.01	179.17	16.73	
2025-01-17 18:57:15.22	179.18	16.76	
2025-01-17 18:57:15.42	179.19	16.78	
2025-01-17 18:57:15.62	179.21	16.81	
2025-01-17 18:57:15.83	179.22	16.83	
2025-01-17 18:57:16.03	179.23	16.86	
2025-01-17 18:57:16.23	179.24	16.88	
2025-01-17 18:57:16.43	179.26	16.91	
2025-01-17 18:57:16.64	179.27	16.93	
2025-01-17 18:57:16.84	179.28	16.96	
2025-01-17 18:57:17.04	179.30	16.98	
2025-01-17 18:57:17.25	179.31	17.01	
2025-01-17 18:57:17.45	179.32	17.03	
2025-01-17 18:57:17.65	179.33	17.06	
2025-01-17 18:57:17.86	179.35	17.08	
2025-01-17 18:57:18.06	179.36	17.11	
2025-01-17 18:57:18.26	179.37	17.13	
2025-01-17 18:57:18.47	179.39	17.16	
2025-01-17 18:57:18.67	179.40	17.19	
2025-01-17 18:57:18.87	179.41	17.21	
2025-01-17 18:57:19.07	179.42	17.24	
2025-01-17 18:57:19.28	179.44	17.26	
2025-01-17 18:57:19.48	179.45	17.29	
2025-01-17 18:57:19.68	179.46	17.31	
2025-01-17 18:57:19.89	179.48	17.34	
2025-01-17 18:57:20.09	179.49	17.37	
2025-01-17 18:57:20.29	179.50	17.39	
2025-01-17 18:57:20.50	179.52	17.42	
2025-01-17 18:57:20.70	179.53	17.44	
2025-01-17 18:57:20.90	179.54	17.47	
2025-01-17 18:57:21.11	179.56	17.50	
2025-01-17 18:57:21.31	179.57	17.52	
2025-01-17 18:57:21.51	179.58	17.55	
2025-01-17 18:57:21.71	179.60	17.57	
2025-01-17 18:57:21.92	179.61	17.60	
2025-01-17 18:57:22.12	179.62	17.62	
2025-01-17 18:57:22.32	179.64	17.65	
2025-01-17 18:57:22.53	179.65	17.68	
2025-01-17 18:57:22.73	179.66	17.70	
2025-01-17 18:57:22.93	179.68	17.73	
2025-01-17 18:57:23.14	179.69	17.76	
2025-01-17 18:57:23.34	179.70	17.78	
2025-01-17 18:57:23.54	179.72	17.81	
2025-01-17 18:57:23.75	179.73	17.83	
2025-01-17 18:57:23.95	179.74	17.86	
2025-01-17 18:57:24.15	179.76	17.89	
2025-01-17 18:57:24.35	179.77	17.91	
2025-01-17 18:57:24.56	179.78	17.94	
2025-01-17 18:57:24.76	179.80	17.97	
2025-01-17 18:57:24.96	179.81	17.99	
2025-01-17 18:57:25.17	179.83	18.02	
2025-01-17 18:57:25.37	179.84	18.05	
2025-01-17 18:57:25.57	179.85	18.07	
2025-01-17 18:57:25.78	179.87	18.10	
2025-01-17 18:57:25.98	179.88	18.12	
2025-01-17 18:57:26.18	179.89	18.15	
2025-01-17 18:57:26.39	179.91	18.18	
2025-01-17 18:57:26.59	179.92	18.21	
2025-01-17 18:57:26.79	179.93	18.23	
2025-01-17 18:57:26.99	179.95	18.26	
2025-01-17 18:57:27.20	179.96	18.29	
2025-01-17 18:57:27.40	179.98	18.31	
2025-01-17 18:57:27.60	179.99	18.34	
2025-01-17 18:57:27.81	180.01	18.37	
2025-01-17 18:57:28.01	180.02	18.39	
2025-01-17 18:57:28.21	180.03	18.42	
2025-01-17 18:57:28.42	180.05	18.45	
2025-01-17 18:57:28.62	180.06	18.47	
2025-01-17 18:57:28.82	180.07	18.50	
2025-01-17 18:57:29.03	180.09	18.53	
2025-01-17 18:57:29.23	180.10	18.55	
2025-01-17 18:57:29.43	180.12	18.58	
2025-01-17 18:57:29.63	180.13	18.61	
2025-01-17 18:57:29.84	180.15	18.64	
2025-01-17 18:57:30.04	180.16	18.66	
2025-01-17 18:57:30.24	180.17	18.69	
2025-01-17 18:57:30.45	180.19	18.72	
2025-01-17 18:57:30.65	180.20	18.74	
2025-01-17 18:57:30.85	180.22	18.77	
2025-01-17 18:57:31.06	180.23	18.80	
2025-01-17 18:57:31.26	180.25	18.83	
2025-01-17 18:57:31.46	180.26	18.85	
2025-01-17 18:57:31.66	180.28	18.88	
2025-01-17 18:57:31.87	180.29	18.91	
2025-01-17 18:57:32.07	180.30	18.94	
2025-01-17 18:57:32.27	180.32	18.96	
2025-01-17 18:57:32.48	180.33	18.99	
2025-01-17 18:57:32.68	180.35	19.02	
2025-01-17 18:57:32.88	180.36	19.05	
2025-01-17 18:57:33.09	180.38	19.08	
2025-01-17 18:57:33.29	180.39	19.10	
2025-01-17 18:57:33.49	180.41	19.13	
2025-01-17 18:57:33.70	180.42	19.16	
2025-01-17 18:57:33.90	180.44	19.19	
2025-01-17 18:57:34.10	180.45	19.21	
2025-01-17 18:57:34.30	180.47	19.24	
2025-01-17 18:57:34.51	180.48	19.27	
2025-01-17 18:57:34.71	180.50	19.30	
2025-01-17 18:57:34.91	180.51	19.32	
2025-01-17 18:57:35.12	180.53	19.35	
2025-01-17 18:57:35.32	180.54	19.38	
2025-01-17 18:57:35.52	180.56	19.41	
2025-01-17 18:57:35.73	180.57	19.44	
2025-01-17 18:57:35.93	180.59	19.47	
2025-01-17 18:57:36.13	180.60	19.49	
2025-01-17 18:57:36.34	180.62	19.52	
2025-01-17 18:57:36.54	180.63	19.55	
2025-01-17 18:57:36.74	180.65	19.58	
2025-01-17 18:57:36.94	180.66	19.61	
2025-01-17 18:57:37.15	180.68	19.64	
2025-01-17 18:57:37.35	180.69	19.66	
2025-01-17 18:57:37.55	180.71	19.69	
2025-01-17 18:57:37.76	180.72	19.72	
2025-01-17 18:57:37.96	180.74	19.75	
2025-01-17 18:57:38.16	180.75	19.78	
2025-01-17 18:57:38.37	180.77	19.81	
2025-01-17 18:57:38.57	180.78	19.83	
2025-01-17 18:57:38.77	180.80	19.86	
2025-01-17 18:57:38.98	180.81	19.89	
2025-01-17 18:57:39.18	180.83	19.92	
2025-01-17 18:57:39.38	180.85	19.95	
2025-01-17 18:57:39.58	180.86	19.98	
2025-01-17 18:57:39.79	180.88	20.01	
2025-01-17 18:57:39.99	180.89	20.04	
2025-01-17 18:57:40.19	180.91	20.06	
2025-01-17 18:57:40.40	180.92	20.09	
2025-01-17 18:57:40.60	180.94	20.12	
2025-01-17 18:57:40.80	180.95	20.15	
2025-01-17 18:57:41.01	180.97	20.18	
2025-01-17 18:57:41.21	180.99	20.21	
2025-01-17 18:57:41.41	181.00	20.24	
2025-01-17 18:57:41.62	181.02	20.27	
2025-01-17 18:57:41.82	181.03	20.30	
2025-01-17 18:57:42.02	181.05	20.33	
2025-01-17 18:57:42.22	181.07	20.35	
2025-01-17 18:57:42.43	181.08	20.38	
2025-01-17 18:57:42.63	181.10	20.41	
2025-01-17 18:57:42.83	181.11	20.44	
2025-01-17 18:57:43.04	181.13	20.47	
2025-01-17 18:57:43.24	181.15	20.50	
2025-01-17 18:57:43.44	181.16	20.53	
2025-01-17 18:57:43.65	181.18	20.56	
2025-01-17 18:57:43.85	181.19	20.59	
2025-01-17 18:57:44.05	181.21	20.62	
2025-01-17 18:57:44.26	181.23	20.65	
2025-01-17 18:57:44.46	181.24	20.68	
2025-01-17 18:57:44.66	181.26	20.71	
2025-01-17 18:57:44.86	181.28	20.74	
2025-01-17 18:57:45.07	181.29	20.77	
2025-01-17 18:57:45.27	181.31	20.80	
2025-01-17 18:57:45.47	181.32	20.83	
2025-01-17 18:57:45.68	181.34	20.86	
2025-01-17 18:57:45.88	181.36	20.89	
2025-01-17 18:57:46.08	181.37	20.92	
2025-01-17 18:57:46.29	181.39	20.95	
2025-01-17 18:57:46.49	181.41	20.98	
2025-01-17 18:57:46.69	181.42	21.01	
2025-01-17 18:57:46.90	181.44	21.04	
2025-01-17 18:57:47.10	181.46	21.07	
2025-01-17 18:57:47.30	181.47	21.10	
2025-01-17 18:57:47.50	181.49	21.13	
2025-01-17 18:57:47.71	181.51	21.16	
2025-01-17 18:57:47.91	181.52	21.19	
2025-01-17 18:57:48.11	181.54	21.22	
2025-01-17 18:57:48.32	181.56	21.25	
2025-01-17 18:57:48.52	181.58	21.28	
2025-01-17 18:57:48.72	181.59	21.31	
2025-01-17 18:57:48.93	181.61	21.34	
2025-01-17 18:57:49.13	181.63	21.37	
2025-01-17 18:57:49.33	181.64	21.40	
2025-01-17 18:57:49.54	181.66	21.43	
2025-01-17 18:57:49.74	181.68	21.46	
2025-01-17 18:57:49.94	181.69	21.49	
2025-01-17 18:57:50.14	181.71	21.52	
2025-01-17 18:57:50.35	181.73	21.55	
2025-01-17 18:57:50.55	181.75	21.58	
2025-01-17 18:57:50.75	181.76	21.61	
2025-01-17 18:57:50.96	181.78	21.65	
2025-01-17 18:57:51.16	181.80	21.68	
2025-01-17 18:57:51.36	181.82	21.71	
2025-01-17 18:57:51.57	181.83	21.74	
2025-01-17 18:57:51.77	181.85	21.77	
2025-01-17 18:57:51.97	181.87	21.80	
2025-01-17 18:57:52.18	181.89	21.83	
2025-01-17 18:57:52.38	181.90	21.86	
2025-01-17 18:57:52.58	181.92	21.89	
2025-01-17 18:57:52.78	181.94	21.92	
2025-01-17 18:57:52.99	181.96	21.95	
2025-01-17 18:57:53.19	181.97	21.99	
2025-01-17 18:57:53.39	181.99	22.02	
2025-01-17 18:57:53.60	182.01	22.05	
2025-01-17 18:57:53.80	182.03	22.08	
2025-01-17 18:57:54.00	182.05	22.11	
2025-01-17 18:57:54.21	182.06	22.14	
2025-01-17 18:57:54.41	182.08	22.17	
2025-01-17 18:57:54.61	182.10	22.20	
2025-01-17 18:57:54.82	182.12	22.24	
2025-01-17 18:57:55.02	182.14	22.27	
2025-01-17 18:57:55.22	182.15	22.30	
2025-01-17 18:57:55.42	182.17	22.33	
2025-01-17 18:57:55.63	182.19	22.36	
2025-01-17 18:57:55.83	182.21	22.39	
2025-01-17 18:57:56.03	182.23	22.43	
2025-01-17 18:57:56.24	182.24	22.46	
2025-01-17 18:57:56.44	182.26	22.49	
2025-01-17 18:57:56.64	182.28	22.52	
2025-01-17 18:57:56.85	182.30	22.55	
2025-01-17 18:57:57.05	182.32	22.59	
2025-01-17 18:57:57.25	182.34	22.62	
2025-01-17 18:57:57.46	182.36	22.65	
2025-01-17 18:57:57.66	182.37	22.68	
2025-01-17 18:57:57.86	182.39	22.71	
2025-01-17 18:57:58.06	182.41	22.75	
2025-01-17 18:57:58.27	182.43	22.78	
2025-01-17 18:57:58.47	182.45	22.81	
2025-01-17 18:57:58.67	182.47	22.84	
2025-01-17 18:57:58.88	182.49	22.88	
2025-01-17 18:57:59.08	182.50	22.91	
2025-01-17 18:57:59.28	182.52	22.94	
2025-01-17 18:57:59.49	182.54	22.97	
2025-01-17 18:57:59.69	182.56	23.01	
2025-01-17 18:57:59.89	182.58	23.04	
2025-01-17 18:58:00.10	182.60	23.07	
2025-01-17 18:58:00.30	182.62	23.10	
2025-01-17 18:58:00.50	182.64	23.14	
2025-01-17 18:58:00.70	182.66	23.17	
2025-01-17 18:58:00.91	182.68	23.20	
2025-01-17 18:58:01.11	182.69	23.23	
2025-01-17 18:58:01.31	182.71	23.27	
2025-01-17 18:58:01.52	182.73	23.30	
2025-01-17 18:58:01.72	182.75	23.33	
2025-01-17 18:58:01.92	182.77	23.36	
2025-01-17 18:58:02.13	182.79	23.40	
2025-01-17 18:58:02.33	182.81	23.43	
2025-01-17 18:58:02.53	182.83	23.46	
2025-01-17 18:58:02.74	182.85	23.50	
2025-01-17 18:58:02.94	182.87	23.53	
2025-01-17 18:58:03.14	182.89	23.56	
2025-01-17 18:58:03.34	182.91	23.60	
2025-01-17 18:58:03.55	182.93	23.63	
2025-01-17 18:58:03.75	182.95	23.66	
2025-01-17 18:58:03.95	182.97	23.70	
2025-01-17 18:58:04.16	182.99	23.73	
2025-01-17 18:58:04.36	183.01	23.76	
2025-01-17 18:58:04.56	183.03	23.80	
2025-01-17 18:58:04.77	183.05	23.83	
2025-01-17 18:58:04.97	183.07	23.87	
2025-01-17 18:58:05.17	183.09	23.90	
2025-01-17 18:58:05.38	183.11	23.93	
2025-01-17 18:58:05.58	183.13	23.97	
2025-01-17 18:58:05.78	183.15	24.00	
2025-01-17 18:58:05.98	183.17	24.03	
2025-01-17 18:58:06.19	183.19	24.07	
2025-01-17 18:58:06.39	183.21	24.10	
2025-01-17 18:58:06.59	183.23	24.13	
2025-01-17 18:58:06.80	183.25	24.17	
2025-01-17 18:58:07.00	183.27	24.20	
2025-01-17 18:58:07.20	183.29	24.24	
2025-01-17 18:58:07.41	183.31	24.27	
2025-01-17 18:58:07.61	183.33	24.31	
2025-01-17 18:58:07.81	183.35	24.34	
2025-01-17 18:58:08.02	183.37	24.38	
2025-01-17 18:58:08.22	183.39	24.41	
2025-01-17 18:58:08.42	183.41	24.44	
2025-01-17 18:58:08.62	183.43	24.48	
2025-01-17 18:58:08.83	183.46	24.51	
2025-01-17 18:58:09.03	183.48	24.55	
2025-01-17 18:58:09.23	183.50	24.58	
2025-01-17 18:58:09.44	183.52	24.62	
2025-01-17 18:58:09.64	183.54	24.65	
2025-01-17 18:58:09.84	183.56	24.68	
2025-01-17 18:58:10.05	183.58	24.72	
2025-01-17 18:58:10.25	183.60	24.75	
2025-01-17 18:58:10.45	183.62	24.79	
2025-01-17 18:58:10.66	183.65	24.82	
2025-01-17 18:58:10.86	183.67	24.86	
2025-01-17 18:58:11.06	183.69	24.89	
2025-01-17 18:58:11.26	183.71	24.93	
2025-01-17 18:58:11.47	183.73	24.96	
2025-01-17 18:58:11.67	183.75	25.00	
2025-01-17 18:58:11.87	183.77	25.03	
2025-01-17 18:58:12.08	183.80	25.07	
2025-01-17 18:58:12.28	183.82	25.10	
2025-01-17 18:58:12.48	183.84	25.14	
2025-01-17 18:58:12.69	183.86	25.18	
2025-01-17 18:58:12.89	183.88	25.21	
2025-01-17 18:58:13.09	183.90	25.25	
2025-01-17 18:58:13.30	183.93	25.28	
2025-01-17 18:58:13.50	183.95	25.32	
2025-01-17 18:58:13.70	183.97	25.35	
2025-01-17 18:58:13.90	183.99	25.39	
2025-01-17 18:58:14.11	184.01	25.42	
2025-01-17 18:58:14.31	184.04	25.46	
2025-01-17 18:58:14.51	184.06	25.49	
2025-01-17 18:58:14.72	184.08	25.53	
2025-01-17 18:58:14.92	184.10	25.57	
2025-01-17 18:58:15.12	184.12	25.60	
2025-01-17 18:58:15.33	184.15	25.64	
2025-01-17 18:58:15.53	184.17	25.67	
2025-01-17 18:58:15.73	184.19	25.71	
2025-01-17 18:58:15.94	184.21	25.75	
2025-01-17 18:58:16.14	184.24	25.78	
2025-01-17 18:58:16.34	184.26	25.82	
2025-01-17 18:58:16.54	184.28	25.85	
2025-01-17 18:58:16.75	184.31	25.89	
2025-01-17 18:58:16.95	184.33	25.93	
2025-01-17 18:58:17.15	184.35	25.96	
2025-01-17 18:58:17.36	184.37	26.00	
2025-01-17 18:58:17.56	184.40	26.04	
2025-01-17 18:58:17.76	184.42	26.07	
2025-01-17 18:58:17.97	184.44	26.11	
2025-01-17 18:58:18.17	184.47	26.15	
2025-01-17 18:58:18.37	184.49	26.18	
2025-01-17 18:58:18.58	184.51	26.22	
2025-01-17 18:58:18.78	184.54	26.26	
2025-01-17 18:58:18.98	184.56	26.29	
2025-01-17 18:58:19.18	184.58	26.33	
2025-01-17 18:58:19.39	184.61	26.37	
2025-01-17 18:58:19.59	184.63	26.40	
2025-01-17 18:58:19.79	184.65	26.44	
2025-01-17 18:58:20.00	184.68	26.48	
2025-01-17 18:58:20.20	184.70	26.52	
2025-01-17 18:58:20.40	184.72	26.55	
2025-01-17 18:58:20.61	184.75	26.59	
2025-01-17 18:58:20.81	184.77	26.63	
2025-01-17 18:58:21.01	184.79	26.66	
2025-01-17 18:58:21.22	184.82	26.70	
2025-01-17 18:58:21.42	184.84	26.74	
2025-01-17 18:58:21.62	184.87	26.78	
2025-01-17 18:58:21.82	184.89	26.81	
2025-01-17 18:58:22.03	184.92	26.85	
2025-01-17 18:58:22.23	184.94	26.89	
2025-01-17 18:58:22.43	184.96	26.93	
2025-01-17 18:58:22.64	184.99	26.97	
2025-01-17 18:58:22.84	185.01	27.00	
2025-01-17 18:58:23.04	185.04	27.04	
2025-01-17 18:58:23.25	185.06	27.08	
2025-01-17 18:58:23.45	185.09	27.12	
2025-01-17 18:58:23.65	185.11	27.15	
2025-01-17 18:58:23.86	185.14	27.19	
2025-01-17 18:58:24.06	185.16	27.23	
2025-01-17 18:58:24.26	185.18	27.27	
2025-01-17 18:58:24.46	185.21	27.31	
2025-01-17 18:58:24.67	185.23	27.35	
2025-01-17 18:58:24.87	185.26	27.38	
2025-01-17 18:58:25.07	185.28	27.42	
2025-01-17 18:58:25.28	185.31	27.46	
2025-01-17 18:58:25.48	185.33	27.50	
2025-01-17 18:58:25.68	185.36	27.54	
2025-01-17 18:58:25.89	185.39	27.58	
2025-01-17 18:58:26.09	185.41	27.61	
2025-01-17 18:58:26.29	185.44	27.65	
2025-01-17 18:58:26.50	185.46	27.69	
2025-01-17 18:58:26.70	185.49	27.73	
2025-01-17 18:58:26.90	185.51	27.77	
2025-01-17 18:58:27.10	185.54	27.81	
2025-01-17 18:58:27.31	185.56	27.85	
2025-01-17 18:58:27.51	185.59	27.89	
2025-01-17 18:58:27.71	185.62	27.92	
2025-01-17 18:58:27.92	185.64	27.96	
2025-01-17 18:58:28.12	185.67	28.00	
2025-01-17 18:58:28.32	185.69	28.04	
2025-01-17 18:58:28.53	185.72	28.08	
2025-01-17 18:58:28.73	185.75	28.12	
2025-01-17 18:58:28.93	185.77	28.16	
2025-01-17 18:58:29.14	185.80	28.20	
2025-01-17 18:58:29.34	185.82	28.24	
2025-01-17 18:58:29.54	185.85	28.28	
2025-01-17 18:58:29.74	185.88	28.32	
2025-01-17 18:58:29.95	185.90	28.36	
2025-01-17 18:58:30.15	185.93	28.40	
2025-01-17 18:58:30.35	185.96	28.44	
2025-01-17 18:58:30.56	185.98	28.48	
2025-01-17 18:58:30.76	186.01	28.52	
2025-01-17 18:58:30.96	186.04	28.56	
2025-01-17 18:58:31.17	186.07	28.60	
2025-01-17 18:58:31.37	186.09	28.64	
2025-01-17 18:58:31.57	186.12	28.68	
2025-01-17 18:58:31.78	186.15	28.72	
2025-01-17 18:58:31.98	186.17	28.76	
2025-01-17 18:58:32.18	186.20	28.80	
2025-01-17 18:58:32.38	186.23	28.84	
2025-01-17 18:58:32.59	186.26	28.88	
2025-01-17 18:58:32.79	186.28	28.92	
2025-01-17 18:58:32.99	186.31	28.96	
2025-01-17 18:58:33.20	186.34	29.00	
2025-01-17 18:58:33.40	186.37	29.04	
2025-01-17 18:58:33.60	186.39	29.08	
2025-01-17 18:58:33.81	186.42	29.12	
2025-01-17 18:58:34.01	186.45	29.16	
2025-01-17 18:58:34.21	186.48	29.20	
2025-01-17 18:58:34.42	186.51	29.24	
2025-01-17 18:58:34.62	186.53	29.29	
2025-01-17 18:58:34.82	186.56	29.33	
2025-01-17 18:58:35.02	186.59	29.37	
2025-01-17 18:58:35.23	186.62	29.41	
2025-01-17 18:58:35.43	186.65	29.45	
2025-01-17 18:58:35.63	186.67	29.49	
2025-01-17 18:58:35.84	186.70	29.53	
2025-01-17 18:58:36.04	186.73	29.57	
2025-01-17 18:58:36.24	186.76	29.61	
2025-01-17 18:58:36.45	186.79	29.66	
2025-01-17 18:58:36.65	186.82	29.70	
2025-01-17 18:58:36.85	186.85	29.74	
2025-01-17 18:58:37.06	186.88	29.78	
2025-01-17 18:58:37.26	186.91	29.82	
2025-01-17 18:58:37.46	186.93	29.86	
2025-01-17 18:58:37.66	186.96	29.90	
2025-01-17 18:58:37.87	186.99	29.95	
2025-01-17 18:58:38.07	187.02	29.99	
2025-01-17 18:58:38.27	187.05	30.03	
2025-01-17 18:58:38.48	187.08	30.07	
2025-01-17 18:58:38.68	187.11	30.11	
2025-01-17 18:58:38.88	187.14	30.16	
2025-01-17 18:58:39.09	187.17	30.20	
2025-01-17 18:58:39.29	187.20	30.24	
2025-01-17 18:58:39.49	187.23	30.28	
2025-01-17 18:58:39.70	187.26	30.33	
2025-01-17 18:58:39.90	187.29	30.37	
2025-01-17 18:58:40.10	187.32	30.41	
2025-01-17 18:58:40.30	187.35	30.45	
2025-01-17 18:58:40.51	187.38	30.50	
2025-01-17 18:58:40.71	187.41	30.54	
2025-01-17 18:58:40.91	187.44	30.58	
2025-01-17 18:58:41.12	187.47	30.62	
2025-01-17 18:58:41.32	187.50	30.67	
2025-01-17 18:58:41.52	187.53	30.71	
2025-01-17 18:58:41.73	187.57	30.75	
2025-01-17 18:58:41.93	187.60	30.80	
2025-01-17 18:58:42.13	187.63	30.84	
2025-01-17 18:58:42.34	187.66	30.88	
2025-01-17 18:58:42.54	187.69	30.93	
2025-01-17 18:58:42.74	187.72	30.97	
2025-01-17 18:58:42.94	187.75	31.01	
2025-01-17 18:58:43.15	187.78	31.06	
2025-01-17 18:58:43.35	187.81	31.10	
2025-01-17 18:58:43.55	187.85	31.14	
2025-01-17 18:58:43.76	187.88	31.19	
2025-01-17 18:58:43.96	187.91	31.23	
2025-01-17 18:58:44.16	187.94	31.27	
2025-01-17 18:58:44.37	187.97	31.32	
2025-01-17 18:58:44.57	188.01	31.36	
2025-01-17 18:58:44.77	188.04	31.40	
2025-01-17 18:58:44.97	188.07	31.45	
2025-01-17 18:58:45.18	188.10	31.49	
2025-01-17 18:58:45.38	188.13	31.54	
2025-01-17 18:58:45.58	188.17	31.58	
2025-01-17 18:58:45.79	188.20	31.62	
2025-01-17 18:58:45.99	188.23	31.67	
2025-01-17 18:58:46.19	188.26	31.71	
2025-01-17 18:58:46.40	188.30	31.76	
2025-01-17 18:58:46.60	188.33	31.80	
2025-01-17 18:58:46.80	188.36	31.84	
2025-01-17 18:58:47.01	188.40	31.89	
2025-01-17 18:58:47.21	188.43	31.93	
2025-01-17 18:58:47.41	188.46	31.98	
2025-01-17 18:58:47.61	188.50	32.02	
2025-01-17 18:58:47.82	188.53	32.07	
2025-01-17 18:58:48.02	188.56	32.11	
2025-01-17 18:58:48.22	188.60	32.16	
2025-01-17 18:58:48.43	188.63	32.20	
2025-01-17 18:58:48.63	188.66	32.25	
2025-01-17 18:58:48.83	188.70	32.29	
2025-01-17 18:58:49.04	188.73	32.34	
2025-01-17 18:58:49.24	188.77	32.38	
2025-01-17 18:58:49.44	188.80	32.43	
2025-01-17 18:58:49.65	188.84	32.47	
2025-01-17 18:58:49.85	188.87	32.52	
2025-01-17 18:58:50.05	188.90	32.56	
2025-01-17 18:58:50.25	188.94	32.61	
2025-01-17 18:58:50.46	188.97	32.66	
2025-01-17 18:58:50.66	189.01	32.70	
2025-01-17 18:58:50.86	189.04	32.75	
2025-01-17 18:58:51.07	189.08	32.79	
2025-01-17 18:58:51.27	189.11	32.84	
2025-01-17 18:58:51.47	189.15	32.88	
2025-01-17 18:58:51.68	189.18	32.93	
2025-01-17 18:58:51.88	189.22	32.98	
2025-01-17 18:58:52.08	189.25	33.02	
2025-01-17 18:58:52.29	189.29	33.07	
2025-01-17 18:58:52.49	189.32	33.11	
2025-01-17 18:58:52.69	189.36	33.16	
2025-01-17 18:58:52.89	189.40	33.21	
2025-01-17 18:58:53.10	189.43	33.25	
2025-01-17 18:58:53.30	189.47	33.30	
2025-01-17 18:58:53.50	189.50	33.35	
2025-01-17 18:58:53.71	189.54	33.39	
2025-01-17 18:58:53.91	189.58	33.44	
2025-01-17 18:58:54.11	189.61	33.49	
2025-01-17 18:58:54.32	189.65	33.53	
2025-01-17 18:58:54.52	189.69	33.58	
2025-01-17 18:58:54.72	189.72	33.63	
2025-01-17 18:58:54.93	189.76	33.67	
2025-01-17 18:58:55.13	189.80	33.72	
2025-01-17 18:58:55.33	189.83	33.77	
2025-01-17 18:58:55.53	189.87	33.81	
2025-01-17 18:58:55.74	189.91	33.86	
2025-01-17 18:58:55.94	189.95	33.91	
2025-01-17 18:58:56.14	189.98	33.96	
2025-01-17 18:58:56.35	190.02	34.00	
2025-01-17 18:58:56.55	190.06	34.05	
2025-01-17 18:58:56.75	190.10	34.10	
2025-01-17 18:58:56.96	190.14	34.15	
2025-01-17 18:58:57.16	190.17	34.19	
2025-01-17 18:58:57.36	190.21	34.24	
2025-01-17 18:58:57.57	190.25	34.29	
2025-01-17 18:58:57.77	190.29	34.34	
2025-01-17 18:58:57.97	190.33	34.39	
2025-01-17 18:58:58.17	190.37	34.43	
2025-01-17 18:58:58.38	190.41	34.48	
2025-01-17 18:58:58.58	190.44	34.53	
2025-01-17 18:58:58.78	190.48	34.58	
2025-01-17 18:58:58.99	190.52	34.63	
2025-01-17 18:58:59.19	190.56	34.67	
2025-01-17 18:58:59.39	190.60	34.72	
2025-01-17 18:58:59.60	190.64	34.77	
2025-01-17 18:58:59.80	190.68	34.82	
2025-01-17 18:59:00.00	190.72	34.87	
2025-01-17 18:59:00.21	190.76	34.92	
2025-01-17 18:59:00.41	190.80	34.97	
2025-01-17 18:59:00.61	190.84	35.01	
2025-01-17 18:59:00.81	190.88	35.06	
2025-01-17 18:59:01.02	190.92	35.11	
2025-01-17 18:59:01.22	190.96	35.16	
2025-01-17 18:59:01.42	191.00	35.21	
2025-01-17 18:59:01.63	191.04	35.26	
2025-01-17 18:59:01.83	191.08	35.31	
2025-01-17 18:59:02.03	191.12	35.36	
2025-01-17 18:59:02.24	191.16	35.41	
2025-01-17 18:59:02.44	191.21	35.46	
2025-01-17 18:59:02.64	191.25	35.50	
2025-01-17 18:59:02.85	191.29	35.56	
2025-01-17 18:59:03.05	191.33	35.60	
2025-01-17 18:59:03.25	191.37	35.65	
2025-01-17 18:59:03.45	191.41	35.70	
2025-01-17 18:59:03.66	191.46	35.75	
2025-01-17 18:59:03.86	191.50	35.80	
2025-01-17 18:59:04.06	191.54	35.85	
2025-01-17 18:59:04.27	191.58	35.90	
2025-01-17 18:59:04.47	191.62	35.95	
2025-01-17 18:59:04.67	191.67	36.00	
2025-01-17 18:59:04.88	191.71	36.05	
2025-01-17 18:59:05.08	191.75	36.10	
2025-01-17 18:59:05.28	191.79	36.15	
2025-01-17 18:59:05.49	191.84	36.21	
2025-01-17 18:59:05.69	191.88	36.25	
2025-01-17 18:59:05.89	191.92	36.30	
2025-01-17 18:59:06.09	191.97	36.35	
2025-01-17 18:59:06.30	192.01	36.41	
2025-01-17 18:59:06.50	192.06	36.46	
2025-01-17 18:59:06.70	192.10	36.51	
2025-01-17 18:59:06.91	192.14	36.56	
2025-01-17 18:59:07.11	192.19	36.61	
2025-01-17 18:59:07.31	192.23	36.66	
2025-01-17 18:59:07.52	192.28	36.71	
2025-01-17 18:59:07.72	192.32	36.76	
2025-01-17 18:59:07.92	192.37	36.81	
2025-01-17 18:59:08.13	192.41	36.87	
2025-01-17 18:59:08.33	192.46	36.92	
2025-01-17 18:59:08.53	192.50	36.97	
2025-01-17 18:59:08.73	192.55	37.02	
2025-01-17 18:59:08.94	192.59	37.07	
2025-01-17 18:59:09.14	192.64	37.12	
2025-01-17 18:59:09.34	192.68	37.17	
2025-01-17 18:59:09.55	192.73	37.22	
2025-01-17 18:59:09.75	192.78	37.28	
2025-01-17 18:59:09.95	192.82	37.33	
2025-01-17 18:59:10.16	192.87	37.38	
2025-01-17 18:59:10.36	192.91	37.43	
2025-01-17 18:59:10.56	192.96	37.48	
2025-01-17 18:59:10.77	193.01	37.54	
2025-01-17 18:59:10.97	193.05	37.59	
2025-01-17 18:59:11.17	193.10	37.64	
2025-01-17 18:59:11.37	193.15	37.69	
2025-01-17 18:59:11.58	193.20	37.74	
2025-01-17 18:59:11.78	193.24	37.80	
2025-01-17 18:59:11.98	193.29	37.85	
2025-01-17 18:59:12.19	193.34	37.90	
2025-01-17 18:59:12.39	193.39	37.95	
2025-01-17 18:59:12.59	193.43	38.01	
2025-01-17 18:59:12.80	193.48	38.06	
2025-01-17 18:59:13.00	193.53	38.11	
2025-01-17 18:59:13.20	193.58	38.16	
2025-01-17 18:59:13.41	193.63	38.22	
2025-01-17 18:59:13.61	193.68	38.27	
2025-01-17 18:59:13.81	193.73	38.32	
2025-01-17 18:59:14.01	193.78	38.38	
2025-01-17 18:59:14.22	193.83	38.43	
2025-01-17 18:59:14.42	193.88	38.48	
2025-01-17 18:59:14.62	193.92	38.54	
2025-01-17 18:59:14.83	193.98	38.59	
2025-01-17 18:59:15.03	194.03	38.64	
2025-01-17 18:59:15.23	194.08	38.70	
2025-01-17 18:59:15.44	194.13	38.75	
2025-01-17 18:59:15.64	194.18	38.80	
2025-01-17 18:59:15.84	194.23	38.86	
2025-01-17 18:59:16.05	194.28	38.91	
2025-01-17 18:59:16.25	194.33	38.97	
2025-01-17 18:59:16.45	194.38	39.02	
2025-01-17 18:59:16.65	194.43	39.07	
2025-01-17 18:59:16.86	194.48	39.13	
2025-01-17 18:59:17.06	194.54	39.18	
2025-01-17 18:59:17.26	194.59	39.23	
2025-01-17 18:59:17.47	194.64	39.29	
2025-01-17 18:59:17.67	194.69	39.34	
2025-01-17 18:59:17.87	194.74	39.40	
2025-01-17 18:59:18.08	194.80	39.45	
2025-01-17 18:59:18.28	194.85	39.51	
2025-01-17 18:59:18.48	194.90	39.56	
2025-01-17 18:59:18.69	194.96	39.62	
2025-01-17 18:59:18.89	195.01	39.67	
2025-01-17 18:59:19.09	195.06	39.72	
2025-01-17 18:59:19.29	195.12	39.78	
2025-01-17 18:59:19.50	195.17	39.83	
2025-01-17 18:59:19.70	195.22	39.89	
2025-01-17 18:59:19.90	195.28	39.94	
2025-01-17 18:59:20.11	195.33	40.00	
2025-01-17 18:59:20.31	195.39	40.05	
2025-01-17 18:59:20.51	195.44	40.11	
2025-01-17 18:59:20.72	195.50	40.17	
2025-01-17 18:59:20.92	195.55	40.22	
2025-01-17 18:59:21.12	195.61	40.27	
2025-01-17 18:59:21.33	195.66	40.33	
2025-01-17 18:59:21.53	195.72	40.39	
2025-01-17 18:59:21.73	195.77	40.44	
2025-01-17 18:59:21.93	195.83	40.50	
2025-01-17 18:59:22.14	195.89	40.55	
2025-01-17 18:59:22.34	195.94	40.61	
2025-01-17 18:59:22.54	196.00	40.66	
2025-01-17 18:59:22.75	196.06	40.72	
2025-01-17 18:59:22.95	196.12	40.77	
2025-01-17 18:59:23.15	196.17	40.83	
2025-01-17 18:59:23.36	196.23	40.89	
2025-01-17 18:59:23.56	196.29	40.94	
2025-01-17 18:59:23.76	196.34	41.00	
2025-01-17 18:59:23.97	196.40	41.06	
2025-01-17 18:59:24.17	196.46	41.11	
2025-01-17 18:59:24.37	196.52	41.17	
2025-01-17 18:59:24.57	196.58	41.22	
2025-01-17 18:59:24.78	196.64	41.28	
2025-01-17 18:59:24.98	196.70	41.34	
2025-01-17 18:59:25.18	196.76	41.39	
2025-01-17 18:59:25.39	196.82	41.45	
2025-01-17 18:59:25.59	196.88	41.51	
2025-01-17 18:59:25.79	196.93	41.56	
2025-01-17 18:59:26.00	197.00	41.62	
2025-01-17 18:59:26.20	197.06	41.68	
2025-01-17 18:59:26.40	197.12	41.73	
2025-01-17 18:59:26.61	197.18	41.79	
2025-01-17 18:59:26.81	197.24	41.85	
2025-01-17 18:59:27.01	197.30	41.90	
2025-01-17 18:59:27.21	197.36	41.96	
2025-01-17 18:59:27.42	197.42	42.02	
2025-01-17 18:59:27.62	197.48	42.08	
2025-01-17 18:59:27.82	197.55	42.13	
2025-01-17 18:59:28.03	197.61	42.19	
2025-01-17 18:59:28.23	197.67	42.25	
2025-01-17 18:59:28.43	197.73	42.30	
2025-01-17 18:59:28.64	197.80	42.36	
2025-01-17 18:59:28.84	197.86	42.42	
2025-01-17 18:59:29.04	197.92	42.48	
2025-01-17 18:59:29.25	197.99	42.54	
2025-01-17 18:59:29.45	198.05	42.59	
2025-01-17 18:59:29.65	198.12	42.65	
2025-01-17 18:59:29.85	198.18	42.71	
2025-01-17 18:59:30.06	198.25	42.77	
2025-01-17 18:59:30.26	198.31	42.82	
2025-01-17 18:59:30.46	198.37	42.88	
2025-01-17 18:59:30.67	198.44	42.94	
2025-01-17 18:59:30.87	198.51	43.00	
2025-01-17 18:59:31.07	198.57	43.06	
2025-01-17 18:59:31.28	198.64	43.12	
2025-01-17 18:59:31.48	198.70	43.17	
2025-01-17 18:59:31.68	198.77	43.23	
2025-01-17 18:59:31.89	198.84	43.29	
2025-01-17 18:59:32.09	198.90	43.35	
2025-01-17 18:59:32.29	198.97	43.41	
2025-01-17 18:59:32.49	199.04	43.46	
2025-01-17 18:59:32.70	199.11	43.53	
2025-01-17 18:59:32.90	199.17	43.58	
2025-01-17 18:59:33.10	199.24	43.64	
2025-01-17 18:59:33.31	199.31	43.70	
2025-01-17 18:59:33.51	199.38	43.76	
2025-01-17 18:59:33.71	199.45	43.82	
2025-01-17 18:59:33.92	199.52	43.88	
2025-01-17 18:59:34.12	199.59	43.94	
2025-01-17 18:59:34.32	199.66	43.99	
2025-01-17 18:59:34.53	199.73	44.06	
2025-01-17 18:59:34.73	199.80	44.11	
2025-01-17 18:59:34.93	199.87	44.17	
2025-01-17 18:59:35.13	199.94	44.23	
2025-01-17 18:59:35.34	200.01	44.29	
2025-01-17 18:59:35.54	200.08	44.35	
2025-01-17 18:59:35.74	200.15	44.41	
2025-01-17 18:59:35.95	200.23	44.47	
2025-01-17 18:59:36.15	200.30	44.53	
2025-01-17 18:59:36.35	200.37	44.59	
2025-01-17 18:59:36.56	200.44	44.65	
2025-01-17 18:59:36.76	200.52	44.71	
2025-01-17 18:59:36.96	200.59	44.76	
2025-01-17 18:59:37.17	200.66	44.83	
2025-01-17 18:59:37.37	200.74	44.89	
2025-01-17 18:59:37.57	200.81	44.94	
2025-01-17 18:59:37.77	200.88	45.00	
2025-01-17 18:59:37.98	200.96	45.06	
2025-01-17 18:59:38.18	201.03	45.12	
2025-01-17 18:59:38.38	201.11	45.18	
2025-01-17 18:59:38.59	201.19	45.24	
2025-01-17 18:59:38.79	201.26	45.30	
2025-01-17 18:59:38.99	201.34	45.36	
2025-01-17 18:59:39.20	201.41	45.42	
2025-01-17 18:59:39.40	201.49	45.48	
2025-01-17 18:59:39.60	201.57	45.54	
2025-01-17 18:59:39.81	201.64	45.61	
2025-01-17 18:59:40.01	201.72	45.66	
2025-01-17 18:59:40.21	201.80	45.72	
2025-01-17 18:59:40.41	201.87	45.78	
2025-01-17 18:59:40.62	201.96	45.85	
2025-01-17 18:59:40.82	202.03	45.90	
2025-01-17 18:59:41.02	202.11	45.96	
2025-01-17 18:59:41.23	202.19	46.03	
2025-01-17 18:59:41.43	202.27	46.09	
2025-01-17 18:59:41.63	202.35	46.15	
2025-01-17 18:59:41.84	202.43	46.21	
2025-01-17 18:59:42.04	202.51	46.27	
2025-01-17 18:59:42.24	202.59	46.33	
2025-01-17 18:59:42.45	202.68	46.39	
2025-01-17 18:59:42.65	202.76	46.45	
2025-01-17 18:59:42.85	202.84	46.51	
2025-01-17 18:59:43.05	202.92	46.57	
2025-01-17 18:59:43.26	203.00	46.63	
2025-01-17 18:59:43.46	203.08	46.69	
2025-01-17 18:59:43.66	203.17	46.75	
2025-01-17 18:59:43.87	203.25	46.82	
2025-01-17 18:59:44.07	203.33	46.87	
2025-01-17 18:59:44.27	203.42	46.93	
2025-01-17 18:59:44.48	203.50	47.00	
2025-01-17 18:59:44.68	203.59	47.06	
2025-01-17 18:59:44.88	203.67	47.12	
2025-01-17 18:59:45.09	203.76	47.18	
2025-01-17 18:59:45.29	203.84	47.24	
2025-01-17 18:59:45.49	203.93	47.30	
2025-01-17 18:59:45.69	204.01	47.36	
2025-01-17 18:59:45.90	204.10	47.42	
2025-01-17 18:59:46.10	204.19	47.48	
2025-01-17 18:59:46.30	204.28	47.54	
2025-01-17 18:59:46.51	204.37	47.61	
2025-01-17 18:59:46.71	204.45	47.67	
2025-01-17 18:59:46.91	204.54	47.73	
2025-01-17 18:59:47.12	204.63	47.79	
2025-01-17 18:59:47.32	204.72	47.85	
2025-01-17 18:59:47.52	204.81	47.91	
2025-01-17 18:59:47.73	204.90	47.98	
2025-01-17 18:59:47.93	204.99	48.04	
2025-01-17 18:59:48.13	205.08	48.10	
2025-01-17 18:59:48.33	205.17	48.16	
2025-01-17 18:59:48.54	205.26	48.22	
2025-01-17 18:59:48.74	205.35	48.28	
2025-01-17 18:59:48.94	205.44	48.34	
2025-01-17 18:59:49.15	205.54	48.40	
2025-01-17 18:59:49.35	205.63	48.46	
2025-01-17 18:59:49.55	205.72	48.53	
2025-01-17 18:59:49.76	205.82	48.59	
2025-01-17 18:59:49.96	205.91	48.65	
2025-01-17 18:59:50.16	206.00	48.71	
2025-01-17 18:59:50.37	206.10	48.77	
2025-01-17 18:59:50.57	206.19	48.83	
2025-01-17 18:59:50.77	206.29	48.89	
2025-01-17 18:59:50.97	206.38	48.95	
2025-01-17 18:59:51.18	206.48	49.02	
2025-01-17 18:59:51.38	206.58	49.08	
2025-01-17 18:59:51.58	206.67	49.14	
2025-01-17 18:59:51.79	206.77	49.20	
2025-01-17 18:59:51.99	206.87	49.26	
2025-01-17 18:59:52.19	206.97	49.32	
2025-01-17 18:59:52.40	207.07	49.39	
2025-01-17 18:59:52.60	207.17	49.45	
2025-01-17 18:59:52.80	207.26	49.51	
2025-01-17 18:59:53.01	207.37	49.57	
2025-01-17 18:59:53.21	207.46	49.63	
2025-01-17 18:59:53.41	207.56	49.69	
2025-01-17 18:59:53.61	207.66	49.75	
2025-01-17 18:59:53.82	207.77	49.82	
2025-01-17 18:59:54.02	207.87	49.88	
2025-01-17 18:59:54.22	207.97	49.94	
2025-01-17 18:59:54.43	208.07	50.00	
2025-01-17 18:59:54.63	208.18	50.06	
2025-01-17 18:59:54.83	208.28	50.12	
2025-01-17 18:59:55.04	208.38	50.19	
2025-01-17 18:59:55.24	208.49	50.25	
2025-01-17 18:59:55.44	208.59	50.31	
2025-01-17 18:59:55.64	208.69	50.37	
2025-01-17 18:59:55.85	208.80	50.43	
2025-01-17 18:59:56.05	208.91	50.49	
2025-01-17 18:59:56.25	209.01	50.55	
2025-01-17 18:59:56.46	209.12	50.61	
2025-01-17 18:59:56.66	209.23	50.68	
2025-01-17 18:59:56.86	209.33	50.74	
2025-01-17 18:59:57.07	209.44	50.80	
2025-01-17 18:59:57.27	209.55	50.86	
2025-01-17 18:59:57.47	209.66	50.92	
2025-01-17 18:59:57.68	209.77	50.98	
2025-01-17 18:59:57.88	209.88	51.04	
2025-01-17 18:59:58.08	209.99	51.10	
2025-01-17 18:59:58.28	210.10	51.16	
2025-01-17 18:59:58.49	210.21	51.23	
2025-01-17 18:59:58.69	210.32	51.29	
2025-01-17 18:59:58.89	210.43	51.35	
2025-01-17 18:59:59.10	210.55	51.41	
2025-01-17 18:59:59.30	210.66	51.47	
2025-01-17 18:59:59.50	210.77	51.53	
2025-01-17 18:59:59.71	210.89	51.59	
2025-01-17 18:59:59.91	211.00	51.65	
2025-01-17 19:00:00.11	211.12	51.71	
2025-01-17 19:00:00.32	211.24	51.78	
2025-01-17 19:00:00.52	211.35	51.83	
2025-01-17 19:00:00.72	211.46	51.89	
2025-01-17 19:00:00.92	211.58	51.95	
2025-01-17 19:00:01.13	211.70	52.02	
2025-01-17 19:00:01.33	211.82	52.08	
2025-01-17 19:00:01.53	211.93	52.14	
2025-01-17 19:00:01.74	212.05	52.20	
2025-01-17 19:00:01.94	212.17	52.26	
2025-01-17 19:00:02.14	212.29	52.32	
2025-01-17 19:00:02.35	212.41	52.38	
2025-01-17 19:00:02.55	212.53	52.44	
2025-01-17 19:00:02.75	212.65	52.50	
2025-01-17 19:00:02.96	212.78	52.56	
2025-01-17 19:00:03.16	212.90	52.62	
2025-01-17 19:00:03.36	213.02	52.68	
2025-01-17 19:00:03.56	213.14	52.74	
2025-01-17 19:00:03.77	213.27	52.80	
2025-01-17 19:00:03.97	213.39	52.86	
2025-01-17 19:00:04.17	213.51	52.92	
2025-01-17 19:00:04.38	213.64	52.98	
2025-01-17 19:00:04.58	213.77	53.04	
2025-01-17 19:00:04.78	213.89	53.10	
2025-01-17 19:00:04.99	214.02	53.16	
2025-01-17 19:00:05.19	214.15	53.22	
2025-01-17 19:00:05.39	214.27	53.28	
2025-01-17 19:00:05.60	214.40	53.34	
2025-01-17 19:00:05.80	214.53	53.40	
2025-01-17 19:00:06.00	214.66	53.45	
2025-01-17 19:00:06.20	214.79	53.51	
2025-01-17 19:00:06.41	214.92	53.57	
2025-01-17 19:00:06.61	215.05	53.63	
2025-01-17 19:00:06.81	215.18	53.69	
2025-01-17 19:00:07.02	215.32	53.75	
2025-01-17 19:00:07.22	215.45	53.81	
2025-01-17 19:00:07.42	215.58	53.87	
2025-01-17 19:00:07.63	215.72	53.93	
2025-01-17 19:00:07.83	215.85	53.99	
2025-01-17 19:00:08.03	215.98	54.04	
2025-01-17 19:00:08.24	216.12	54.10	
2025-01-17 19:00:08.44	216.25	54.16	
2025-01-17 19:00:08.64	216.39	54.22	
2025-01-17 19:00:08.84	216.52	54.27	
2025-01-17 19:00:09.05	216.67	54.33	
2025-01-17 19:00:09.25	216.80	54.39	
2025-01-17 19:00:09.45	216.94	54.45	
2025-01-17 19:00:09.66	217.08	54.51	
2025-01-17 19:00:09.86	217.22	54.57	
2025-01-17 19:00:10.06	217.36	54.62	
2025-01-17 19:00:10.27	217.50	54.68	
2025-01-17 19:00:10.47	217.64	54.74	
2025-01-17 19:00:10.67	217.78	54.79	
2025-01-17 19:00:10.88	217.93	54.85	
2025-01-17 19:00:11.08	218.07	54.91	
2025-01-17 19:00:11.28	218.21	54.96	
2025-01-17 19:00:11.48	218.35	55.02	
2025-01-17 19:00:11.69	218.50	55.08	
2025-01-17 19:00:11.89	218.65	55.14	
2025-01-17 19:00:12.09	218.79	55.19	
2025-01-17 19:00:12.30	218.94	55.25	
2025-01-17 19:00:12.50	219.09	55.30	
2025-01-17 19:00:12.70	219.23	55.36	
2025-01-17 19:00:12.91	219.38	55.42	
2025-01-17 19:00:13.11	219.53	55.47	
2025-01-17 19:00:13.31	219.68	55.53	
2025-01-17 19:00:13.52	219.83	55.58	
2025-01-17 19:00:13.72	219.98	55.64	
2025-01-17 19:00:13.92	220.13	55.69	
2025-01-17 19:00:14.12	220.28	55.75	
2025-01-17 19:00:14.33	220.44	55.80	
2025-01-17 19:00:14.53	220.59	55.86	
2025-01-17 19:00:14.73	220.74	55.91	
2025-01-17 19:00:14.94	220.90	55.97	
2025-01-17 19:00:15.14	221.05	56.02	
2025-01-17 19:00:15.34	221.20	56.08	
2025-01-17 19:00:15.55	221.37	56.13	
2025-01-17 19:00:15.75	221.52	56.19	
2025-01-17 19:00:15.95	221.68	56.24	
2025-01-17 19:00:16.16	221.84	56.29	
2025-01-17 19:00:16.36	221.99	56.35	
2025-01-17 19:00:16.56	222.15	56.40	
2025-01-17 19:00:16.76	222.31	56.45	
2025-01-17 19:00:16.97	222.47	56.51	
2025-01-17 19:00:17.17	222.63	56.56	
2025-01-17 19:00:17.37	222.79	56.61	
2025-01-17 19:00:17.58	222.96	56.66	
2025-01-17 19:00:17.78	223.12	56.72	
2025-01-17 19:00:17.98	223.28	56.77	
2025-01-17 19:00:18.19	223.45	56.82	
2025-01-17 19:00:18.39	223.61	56.87	
2025-01-17 19:00:18.59	223.78	56.92	
2025-01-17 19:00:18.80	223.95	56.98	
2025-01-17 19:00:19.00	224.11	57.03	
2025-01-17 19:00:19.20	224.28	57.08	
2025-01-17 19:00:19.40	224.44	57.13	
2025-01-17 19:00:19.61	224.61	57.18	
2025-01-17 19:00:19.81	224.78	57.23	
2025-01-17 19:00:20.01	224.95	57.28	
2025-01-17 19:00:20.22	225.12	57.33	
2025-01-17 19:00:20.42	225.29	57.38	
2025-01-17 19:00:20.62	225.46	57.43	
2025-01-17 19:00:20.83	225.64	57.48	
2025-01-17 19:00:21.03	225.81	57.53	
2025-01-17 19:00:21.23	225.98	57.58	
2025-01-17 19:00:21.44	226.16	57.63	
2025-01-17 19:00:21.64	226.33	57.68	
2025-01-17 19:00:21.84	226.50	57.73	
2025-01-17 19:00:22.04	226.68	57.77	
2025-01-17 19:00:22.25	226.86	57.82	
2025-01-17 19:00:22.45	227.04	57.87	
2025-01-17 19:00:22.65	227.21	57.92	
2025-01-17 19:00:22.86	227.39	57.97	
2025-01-17 19:00:23.06	227.57	58.01	
2025-01-17 19:00:23.26	227.75	58.06	
2025-01-17 19:00:23.47	227.93	58.11	
2025-01-17 19:00:23.67	228.11	58.16	
2025-01-17 19:00:23.87	228.29	58.20	
2025-01-17 19:00:24.08	228.48	58.25	
2025-01-17 19:00:24.28	228.66	58.29	
2025-01-17 19:00:24.48	228.84	58.34	
2025-01-17 19:00:24.68	229.02	58.38	
2025-01-17 19:00:24.89	229.21	58.43	
2025-01-17 19:00:25.09	229.40	58.48	
2025-01-17 19:00:25.29	229.58	58.52	
2025-01-17 19:00:25.50	229.77	58.57	
2025-01-17 19:00:25.70	229.96	58.61	
2025-01-17 19:00:25.90	230.14	58.65	
2025-01-17 19:00:26.11	230.34	58.70	
2025-01-17 19:00:26.31	230.52	58.74	
