passes_logs/2025/01/17/SPB_Silybum_02/SPB_Silybum_02__20250117_075031_SUOMI_NPP_rec.log

#Pass ID: 20250117_075031_SUOMI NPP
#Satellite: SUOMI NPP
#Configuration: NPP
#Start time: 2025-01-17 07:52:42

#Version: 2.0.20230423
#Station: SPB_Silybum_02
#Location: 30.233357 lon 59.946436 lat
#TLE: 1 37849U 11061A   25016.82296503  .00000177  00000+0  10458-3 0  9994
#TLE: 2 37849  98.7449 317.7884 0001611  38.3630 321.7660 14.19539095685172

#Time	Az	El	Level	Level2	SNR	BER	Gain	Gain2
2025-01-17 07:52:44.13	73.53	11.35	
2025-01-17 07:52:44.34	73.50	11.36	
2025-01-17 07:52:44.54	73.47	11.37	
2025-01-17 07:52:44.74	73.44	11.38	
2025-01-17 07:52:44.94	73.41	11.39	
2025-01-17 07:52:45.15	73.38	11.40	
2025-01-17 07:52:45.35	73.35	11.41	
2025-01-17 07:52:45.55	73.32	11.42	
2025-01-17 07:52:45.76	73.29	11.43	
2025-01-17 07:52:45.96	73.25	11.44	
2025-01-17 07:52:46.16	73.22	11.45	
2025-01-17 07:52:46.37	73.19	11.47	
2025-01-17 07:52:46.57	73.16	11.48	
2025-01-17 07:52:46.77	73.13	11.49	
2025-01-17 07:52:46.98	73.10	11.50	
2025-01-17 07:52:47.18	73.07	11.51	
2025-01-17 07:52:47.38	73.04	11.52	
2025-01-17 07:52:47.58	73.01	11.53	
2025-01-17 07:52:47.79	72.97	11.54	
2025-01-17 07:52:47.99	72.94	11.55	
2025-01-17 07:52:48.19	72.91	11.56	
2025-01-17 07:52:48.40	72.88	11.58	
2025-01-17 07:52:48.60	72.85	11.59	
2025-01-17 07:52:48.80	72.82	11.60	
2025-01-17 07:52:49.01	72.79	11.61	
2025-01-17 07:52:49.21	72.75	11.62	
2025-01-17 07:52:49.41	72.72	11.63	
2025-01-17 07:52:49.62	72.69	11.64	
2025-01-17 07:52:49.82	72.66	11.65	
2025-01-17 07:52:50.02	72.63	11.66	
2025-01-17 07:52:50.23	72.60	11.67	
2025-01-17 07:52:50.43	72.56	11.68	
2025-01-17 07:52:50.63	72.53	11.69	
2025-01-17 07:52:50.83	72.50	11.71	
2025-01-17 07:52:51.04	72.47	11.72	
2025-01-17 07:52:51.24	72.44	11.73	
2025-01-17 07:52:51.44	72.41	11.74	
2025-01-17 07:52:51.65	72.37	11.75	
2025-01-17 07:52:51.85	72.34	11.76	
2025-01-17 07:52:52.05	72.31	11.77	
2025-01-17 07:52:52.26	72.28	11.78	
2025-01-17 07:52:52.46	72.25	11.79	
2025-01-17 07:52:52.66	72.22	11.80	
2025-01-17 07:52:52.87	72.18	11.81	
2025-01-17 07:52:53.07	72.15	11.82	
2025-01-17 07:52:53.27	72.12	11.83	
2025-01-17 07:52:53.48	72.09	11.85	
2025-01-17 07:52:53.68	72.06	11.86	
2025-01-17 07:52:53.88	72.02	11.87	
2025-01-17 07:52:54.08	71.99	11.88	
2025-01-17 07:52:54.29	71.96	11.89	
2025-01-17 07:52:54.49	71.93	11.90	
2025-01-17 07:52:54.69	71.90	11.91	
2025-01-17 07:52:54.90	71.86	11.92	
2025-01-17 07:52:55.10	71.83	11.93	
2025-01-17 07:52:55.30	71.80	11.94	
2025-01-17 07:52:55.51	71.77	11.95	
2025-01-17 07:52:55.71	71.73	11.96	
2025-01-17 07:52:55.91	71.70	11.97	
2025-01-17 07:52:56.12	71.67	11.99	
2025-01-17 07:52:56.32	71.64	12.00	
2025-01-17 07:52:56.52	71.61	12.01	
2025-01-17 07:52:56.73	71.57	12.02	
2025-01-17 07:52:56.93	71.54	12.03	
2025-01-17 07:52:57.13	71.51	12.04	
2025-01-17 07:52:57.33	71.48	12.05	
2025-01-17 07:52:57.54	71.44	12.06	
2025-01-17 07:52:57.74	71.41	12.07	
2025-01-17 07:52:57.94	71.38	12.08	
2025-01-17 07:52:58.15	71.35	12.09	
2025-01-17 07:52:58.35	71.31	12.10	
2025-01-17 07:52:58.55	71.28	12.11	
2025-01-17 07:52:58.76	71.25	12.13	
2025-01-17 07:52:58.96	71.22	12.14	
2025-01-17 07:52:59.16	71.18	12.15	
2025-01-17 07:52:59.37	71.15	12.16	
2025-01-17 07:52:59.57	71.12	12.17	
2025-01-17 07:52:59.77	71.09	12.18	
2025-01-17 07:52:59.97	71.05	12.19	
2025-01-17 07:53:00.18	71.02	12.20	
2025-01-17 07:53:00.38	70.99	12.21	
2025-01-17 07:53:00.58	70.95	12.22	
2025-01-17 07:53:00.79	70.92	12.23	
2025-01-17 07:53:00.99	70.89	12.24	
2025-01-17 07:53:01.19	70.86	12.25	
2025-01-17 07:53:01.40	70.82	12.26	
2025-01-17 07:53:01.60	70.79	12.27	
2025-01-17 07:53:01.80	70.76	12.28	
2025-01-17 07:53:02.01	70.72	12.30	
2025-01-17 07:53:02.21	70.69	12.31	
2025-01-17 07:53:02.41	70.66	12.32	
2025-01-17 07:53:02.62	70.62	12.33	
2025-01-17 07:53:02.82	70.59	12.34	
2025-01-17 07:53:03.02	70.56	12.35	
2025-01-17 07:53:03.22	70.53	12.36	
2025-01-17 07:53:03.43	70.49	12.37	
2025-01-17 07:53:03.63	70.46	12.38	
2025-01-17 07:53:03.83	70.43	12.39	
2025-01-17 07:53:04.04	70.39	12.40	
2025-01-17 07:53:04.24	70.36	12.41	
2025-01-17 07:53:04.44	70.33	12.42	
2025-01-17 07:53:04.65	70.29	12.43	
2025-01-17 07:53:04.85	70.26	12.44	
2025-01-17 07:53:05.05	70.23	12.45	
2025-01-17 07:53:05.26	70.19	12.46	
2025-01-17 07:53:05.46	70.16	12.47	
2025-01-17 07:53:05.66	70.13	12.49	
2025-01-17 07:53:05.87	70.09	12.50	
2025-01-17 07:53:06.07	70.06	12.51	
2025-01-17 07:53:06.27	70.03	12.52	
2025-01-17 07:53:06.47	69.99	12.53	
2025-01-17 07:53:06.68	69.96	12.54	
2025-01-17 07:53:06.88	69.93	12.55	
2025-01-17 07:53:07.08	69.89	12.56	
2025-01-17 07:53:07.29	69.86	12.57	
2025-01-17 07:53:07.49	69.82	12.58	
2025-01-17 07:53:07.69	69.79	12.59	
2025-01-17 07:53:07.90	69.76	12.60	
2025-01-17 07:53:08.10	69.72	12.61	
2025-01-17 07:53:08.30	69.69	12.62	
2025-01-17 07:53:08.51	69.66	12.63	
2025-01-17 07:53:08.71	69.62	12.64	
2025-01-17 07:53:08.91	69.59	12.65	
2025-01-17 07:53:09.11	69.56	12.66	
2025-01-17 07:53:09.32	69.52	12.67	
2025-01-17 07:53:09.52	69.49	12.68	
2025-01-17 07:53:09.72	69.45	12.69	
2025-01-17 07:53:09.93	69.42	12.70	
2025-01-17 07:53:10.13	69.39	12.72	
2025-01-17 07:53:10.33	69.35	12.73	
2025-01-17 07:53:10.54	69.32	12.74	
2025-01-17 07:53:10.74	69.28	12.75	
2025-01-17 07:53:10.94	69.25	12.76	
2025-01-17 07:53:11.15	69.21	12.77	
2025-01-17 07:53:11.35	69.18	12.78	
2025-01-17 07:53:11.55	69.15	12.79	
2025-01-17 07:53:11.76	69.11	12.80	
2025-01-17 07:53:11.96	69.08	12.81	
2025-01-17 07:53:12.16	69.04	12.82	
2025-01-17 07:53:12.36	69.01	12.83	
2025-01-17 07:53:12.57	68.98	12.84	
2025-01-17 07:53:12.77	68.94	12.85	
2025-01-17 07:53:12.97	68.91	12.86	
2025-01-17 07:53:13.18	68.87	12.87	
2025-01-17 07:53:13.38	68.84	12.88	
2025-01-17 07:53:13.58	68.81	12.89	
2025-01-17 07:53:13.79	68.77	12.90	
2025-01-17 07:53:13.99	68.74	12.91	
2025-01-17 07:53:14.19	68.70	12.92	
2025-01-17 07:53:14.40	68.67	12.93	
2025-01-17 07:53:14.60	68.63	12.94	
2025-01-17 07:53:14.80	68.60	12.95	
2025-01-17 07:53:15.01	68.56	12.96	
2025-01-17 07:53:15.21	68.53	12.97	
2025-01-17 07:53:15.41	68.49	12.98	
2025-01-17 07:53:15.61	68.46	12.99	
2025-01-17 07:53:15.82	68.42	13.00	
2025-01-17 07:53:16.02	68.39	13.01	
2025-01-17 07:53:16.22	68.36	13.02	
2025-01-17 07:53:16.43	68.32	13.03	
2025-01-17 07:53:16.63	68.29	13.05	
2025-01-17 07:53:16.83	68.25	13.06	
2025-01-17 07:53:17.04	68.22	13.07	
2025-01-17 07:53:17.24	68.18	13.08	
2025-01-17 07:53:17.44	68.15	13.09	
2025-01-17 07:53:17.65	68.11	13.10	
2025-01-17 07:53:17.85	68.08	13.11	
2025-01-17 07:53:18.05	68.04	13.12	
2025-01-17 07:53:18.26	68.01	13.13	
2025-01-17 07:53:18.46	67.97	13.14	
2025-01-17 07:53:18.66	67.94	13.15	
2025-01-17 07:53:18.86	67.90	13.16	
2025-01-17 07:53:19.07	67.87	13.17	
2025-01-17 07:53:19.27	67.83	13.18	
2025-01-17 07:53:19.47	67.80	13.19	
2025-01-17 07:53:19.68	67.76	13.20	
2025-01-17 07:53:19.88	67.73	13.21	
2025-01-17 07:53:20.08	67.69	13.22	
2025-01-17 07:53:20.29	67.66	13.23	
2025-01-17 07:53:20.49	67.62	13.24	
2025-01-17 07:53:20.69	67.59	13.25	
2025-01-17 07:53:20.90	67.55	13.26	
2025-01-17 07:53:21.10	67.52	13.27	
2025-01-17 07:53:21.30	67.48	13.28	
2025-01-17 07:53:21.50	67.45	13.29	
2025-01-17 07:53:21.71	67.41	13.30	
2025-01-17 07:53:21.91	67.38	13.31	
2025-01-17 07:53:22.11	67.34	13.32	
2025-01-17 07:53:22.32	67.30	13.33	
2025-01-17 07:53:22.52	67.27	13.34	
2025-01-17 07:53:22.72	67.23	13.35	
2025-01-17 07:53:22.93	67.20	13.36	
2025-01-17 07:53:23.13	67.16	13.37	
2025-01-17 07:53:23.33	67.13	13.38	
2025-01-17 07:53:23.54	67.09	13.39	
2025-01-17 07:53:23.74	67.06	13.40	
2025-01-17 07:53:23.94	67.02	13.41	
2025-01-17 07:53:24.15	66.98	13.42	
2025-01-17 07:53:24.35	66.95	13.43	
2025-01-17 07:53:24.55	66.91	13.44	
2025-01-17 07:53:24.75	66.88	13.45	
2025-01-17 07:53:24.96	66.84	13.46	
2025-01-17 07:53:25.16	66.81	13.47	
2025-01-17 07:53:25.36	66.77	13.48	
2025-01-17 07:53:25.57	66.73	13.49	
2025-01-17 07:53:25.77	66.70	13.50	
2025-01-17 07:53:25.97	66.66	13.51	
2025-01-17 07:53:26.18	66.63	13.52	
2025-01-17 07:53:26.38	66.59	13.53	
2025-01-17 07:53:26.58	66.56	13.54	
2025-01-17 07:53:26.79	66.52	13.55	
2025-01-17 07:53:26.99	66.48	13.56	
2025-01-17 07:53:27.19	66.45	13.57	
2025-01-17 07:53:27.39	66.41	13.58	
2025-01-17 07:53:27.60	66.38	13.59	
2025-01-17 07:53:27.80	66.34	13.60	
2025-01-17 07:53:28.00	66.30	13.61	
2025-01-17 07:53:28.21	66.27	13.62	
2025-01-17 07:53:28.41	66.23	13.63	
2025-01-17 07:53:28.61	66.20	13.64	
2025-01-17 07:53:28.82	66.16	13.65	
2025-01-17 07:53:29.02	66.12	13.66	
2025-01-17 07:53:29.22	66.09	13.67	
2025-01-17 07:53:29.43	66.05	13.68	
2025-01-17 07:53:29.63	66.01	13.69	
2025-01-17 07:53:29.83	65.98	13.69	
2025-01-17 07:53:30.04	65.94	13.70	
2025-01-17 07:53:30.24	65.91	13.71	
2025-01-17 07:53:30.44	65.87	13.72	
2025-01-17 07:53:30.64	65.83	13.73	
2025-01-17 07:53:30.85	65.80	13.74	
2025-01-17 07:53:31.05	65.76	13.75	
2025-01-17 07:53:31.25	65.72	13.76	
2025-01-17 07:53:31.46	65.69	13.77	
2025-01-17 07:53:31.66	65.65	13.78	
2025-01-17 07:53:31.86	65.61	13.79	
2025-01-17 07:53:32.07	65.58	13.80	
2025-01-17 07:53:32.27	65.54	13.81	
2025-01-17 07:53:32.47	65.51	13.82	
2025-01-17 07:53:32.68	65.47	13.83	
2025-01-17 07:53:32.88	65.43	13.84	
2025-01-17 07:53:33.08	65.40	13.85	
2025-01-17 07:53:33.29	65.36	13.86	
2025-01-17 07:53:33.49	65.32	13.87	
2025-01-17 07:53:33.69	65.28	13.88	
2025-01-17 07:53:33.89	65.25	13.89	
2025-01-17 07:53:34.10	65.21	13.90	
2025-01-17 07:53:34.30	65.17	13.91	
2025-01-17 07:53:34.50	65.14	13.92	
2025-01-17 07:53:34.71	65.10	13.93	
2025-01-17 07:53:34.91	65.06	13.94	
2025-01-17 07:53:35.11	65.03	13.95	
2025-01-17 07:53:35.32	64.99	13.96	
2025-01-17 07:53:35.52	64.95	13.97	
2025-01-17 07:53:35.72	64.92	13.98	
2025-01-17 07:53:35.93	64.88	13.98	
2025-01-17 07:53:36.13	64.84	13.99	
2025-01-17 07:53:36.33	64.80	14.00	
2025-01-17 07:53:36.54	64.77	14.01	
2025-01-17 07:53:36.74	64.73	14.02	
2025-01-17 07:53:36.94	64.69	14.03	
2025-01-17 07:53:37.14	64.66	14.04	
2025-01-17 07:53:37.35	64.62	14.05	
2025-01-17 07:53:37.55	64.58	14.06	
2025-01-17 07:53:37.75	64.55	14.07	
2025-01-17 07:53:37.96	64.51	14.08	
2025-01-17 07:53:38.16	64.47	14.09	
2025-01-17 07:53:38.36	64.43	14.10	
2025-01-17 07:53:38.57	64.39	14.11	
2025-01-17 07:53:38.77	64.36	14.12	
2025-01-17 07:53:38.97	64.32	14.13	
2025-01-17 07:53:39.18	64.28	14.14	
2025-01-17 07:53:39.38	64.25	14.15	
2025-01-17 07:53:39.58	64.21	14.15	
2025-01-17 07:53:39.79	64.17	14.16	
2025-01-17 07:53:39.99	64.13	14.17	
2025-01-17 07:53:40.19	64.10	14.18	
2025-01-17 07:53:40.39	64.06	14.19	
2025-01-17 07:53:40.60	64.02	14.20	
2025-01-17 07:53:40.80	63.98	14.21	
2025-01-17 07:53:41.00	63.95	14.22	
2025-01-17 07:53:41.21	63.91	14.23	
2025-01-17 07:53:41.41	63.87	14.24	
2025-01-17 07:53:41.61	63.83	14.25	
2025-01-17 07:53:41.82	63.79	14.26	
2025-01-17 07:53:42.02	63.76	14.27	
2025-01-17 07:53:42.22	63.72	14.28	
2025-01-17 07:53:42.43	63.68	14.29	
2025-01-17 07:53:42.63	63.64	14.29	
2025-01-17 07:53:42.83	63.61	14.30	
2025-01-17 07:53:43.03	63.57	14.31	
2025-01-17 07:53:43.24	63.53	14.32	
2025-01-17 07:53:43.44	63.49	14.33	
2025-01-17 07:53:43.64	63.46	14.34	
2025-01-17 07:53:43.85	63.42	14.35	
2025-01-17 07:53:44.05	63.38	14.36	
2025-01-17 07:53:44.25	63.34	14.37	
2025-01-17 07:53:44.46	63.30	14.38	
2025-01-17 07:53:44.66	63.26	14.39	
2025-01-17 07:53:44.86	63.23	14.40	
2025-01-17 07:53:45.07	63.19	14.41	
2025-01-17 07:53:45.27	63.15	14.41	
2025-01-17 07:53:45.47	63.11	14.42	
2025-01-17 07:53:45.68	63.07	14.43	
2025-01-17 07:53:45.88	63.04	14.44	
2025-01-17 07:53:46.08	63.00	14.45	
2025-01-17 07:53:46.28	62.96	14.46	
2025-01-17 07:53:46.49	62.92	14.47	
2025-01-17 07:53:46.69	62.88	14.48	
2025-01-17 07:53:46.89	62.85	14.49	
2025-01-17 07:53:47.10	62.81	14.50	
2025-01-17 07:53:47.30	62.77	14.51	
2025-01-17 07:53:47.50	62.73	14.51	
2025-01-17 07:53:47.71	62.69	14.52	
2025-01-17 07:53:47.91	62.65	14.53	
2025-01-17 07:53:48.11	62.62	14.54	
2025-01-17 07:53:48.32	62.58	14.55	
2025-01-17 07:53:48.52	62.54	14.56	
2025-01-17 07:53:48.72	62.50	14.57	
2025-01-17 07:53:48.92	62.46	14.58	
2025-01-17 07:53:49.13	62.42	14.59	
2025-01-17 07:53:49.33	62.38	14.60	
2025-01-17 07:53:49.53	62.35	14.60	
2025-01-17 07:53:49.74	62.31	14.61	
2025-01-17 07:53:49.94	62.27	14.62	
2025-01-17 07:53:50.14	62.23	14.63	
2025-01-17 07:53:50.35	62.19	14.64	
2025-01-17 07:53:50.55	62.15	14.65	
2025-01-17 07:53:50.75	62.11	14.66	
2025-01-17 07:53:50.96	62.07	14.67	
2025-01-17 07:53:51.16	62.04	14.68	
2025-01-17 07:53:51.36	62.00	14.68	
2025-01-17 07:53:51.57	61.96	14.69	
2025-01-17 07:53:51.77	61.92	14.70	
2025-01-17 07:53:51.97	61.88	14.71	
2025-01-17 07:53:52.17	61.84	14.72	
2025-01-17 07:53:52.38	61.80	14.73	
2025-01-17 07:53:52.58	61.76	14.74	
2025-01-17 07:53:52.78	61.72	14.75	
2025-01-17 07:53:52.99	61.68	14.75	
2025-01-17 07:53:53.19	61.65	14.76	
2025-01-17 07:53:53.39	61.61	14.77	
2025-01-17 07:53:53.60	61.57	14.78	
2025-01-17 07:53:53.80	61.53	14.79	
2025-01-17 07:53:54.00	61.49	14.80	
2025-01-17 07:53:54.21	61.45	14.81	
2025-01-17 07:53:54.41	61.41	14.82	
2025-01-17 07:53:54.61	61.37	14.82	
2025-01-17 07:53:54.82	61.33	14.83	
2025-01-17 07:53:55.02	61.29	14.84	
2025-01-17 07:53:55.22	61.26	14.85	
2025-01-17 07:53:55.42	61.22	14.86	
2025-01-17 07:53:55.63	61.18	14.87	
2025-01-17 07:53:55.83	61.14	14.88	
2025-01-17 07:53:56.03	61.10	14.88	
2025-01-17 07:53:56.24	61.06	14.89	
2025-01-17 07:53:56.44	61.02	14.90	
2025-01-17 07:53:56.64	60.98	14.91	
2025-01-17 07:53:56.85	60.94	14.92	
2025-01-17 07:53:57.05	60.90	14.93	
2025-01-17 07:53:57.25	60.86	14.94	
2025-01-17 07:53:57.46	60.82	14.95	
2025-01-17 07:53:57.66	60.78	14.95	
2025-01-17 07:53:57.86	60.74	14.96	
2025-01-17 07:53:58.07	60.70	14.97	
2025-01-17 07:53:58.27	60.66	14.98	
2025-01-17 07:53:58.47	60.62	14.99	
2025-01-17 07:53:58.67	60.58	15.00	
2025-01-17 07:53:58.88	60.54	15.00	
2025-01-17 07:53:59.08	60.50	15.01	
2025-01-17 07:53:59.28	60.47	15.02	
2025-01-17 07:53:59.49	60.42	15.03	
2025-01-17 07:53:59.69	60.39	15.04	
2025-01-17 07:53:59.89	60.35	15.05	
2025-01-17 07:54:00.10	60.31	15.06	
2025-01-17 07:54:00.30	60.27	15.06	
2025-01-17 07:54:00.50	60.23	15.07	
2025-01-17 07:54:00.71	60.19	15.08	
2025-01-17 07:54:00.91	60.15	15.09	
2025-01-17 07:54:01.11	60.11	15.10	
2025-01-17 07:54:01.31	60.07	15.10	
2025-01-17 07:54:01.52	60.03	15.11	
2025-01-17 07:54:01.72	59.99	15.12	
2025-01-17 07:54:01.92	59.95	15.13	
2025-01-17 07:54:02.13	59.91	15.14	
2025-01-17 07:54:02.33	59.87	15.15	
2025-01-17 07:54:02.53	59.83	15.15	
2025-01-17 07:54:02.74	59.79	15.16	
2025-01-17 07:54:02.94	59.75	15.17	
2025-01-17 07:54:03.14	59.71	15.18	
2025-01-17 07:54:03.35	59.67	15.19	
2025-01-17 07:54:03.55	59.63	15.20	
2025-01-17 07:54:03.75	59.59	15.20	
2025-01-17 07:54:03.96	59.54	15.21	
2025-01-17 07:54:04.16	59.51	15.22	
2025-01-17 07:54:04.36	59.47	15.23	
2025-01-17 07:54:04.56	59.43	15.24	
2025-01-17 07:54:04.77	59.38	15.25	
2025-01-17 07:54:04.97	59.34	15.25	
2025-01-17 07:54:05.17	59.30	15.26	
2025-01-17 07:54:05.38	59.26	15.27	
2025-01-17 07:54:05.58	59.22	15.28	
2025-01-17 07:54:05.78	59.18	15.29	
2025-01-17 07:54:05.99	59.14	15.29	
2025-01-17 07:54:06.19	59.10	15.30	
2025-01-17 07:54:06.39	59.06	15.31	
2025-01-17 07:54:06.60	59.02	15.32	
2025-01-17 07:54:06.80	58.98	15.33	
2025-01-17 07:54:07.00	58.94	15.33	
2025-01-17 07:54:07.20	58.90	15.34	
2025-01-17 07:54:07.41	58.86	15.35	
2025-01-17 07:54:07.61	58.82	15.36	
2025-01-17 07:54:07.81	58.78	15.37	
2025-01-17 07:54:08.02	58.74	15.37	
2025-01-17 07:54:08.22	58.70	15.38	
2025-01-17 07:54:08.42	58.66	15.39	
2025-01-17 07:54:08.63	58.61	15.40	
2025-01-17 07:54:08.83	58.57	15.41	
2025-01-17 07:54:09.03	58.53	15.41	
2025-01-17 07:54:09.24	58.49	15.42	
2025-01-17 07:54:09.44	58.45	15.43	
2025-01-17 07:54:09.64	58.41	15.44	
2025-01-17 07:54:09.85	58.37	15.45	
2025-01-17 07:54:10.05	58.33	15.45	
2025-01-17 07:54:10.25	58.29	15.46	
2025-01-17 07:54:10.46	58.25	15.47	
2025-01-17 07:54:10.66	58.21	15.48	
2025-01-17 07:54:10.86	58.17	15.48	
2025-01-17 07:54:11.06	58.13	15.49	
2025-01-17 07:54:11.27	58.08	15.50	
2025-01-17 07:54:11.47	58.04	15.51	
2025-01-17 07:54:11.67	58.00	15.51	
2025-01-17 07:54:11.88	57.96	15.52	
2025-01-17 07:54:12.08	57.92	15.53	
2025-01-17 07:54:12.28	57.88	15.54	
2025-01-17 07:54:12.49	57.84	15.55	
2025-01-17 07:54:12.69	57.80	15.55	
2025-01-17 07:54:12.89	57.75	15.56	
2025-01-17 07:54:13.10	57.71	15.57	
2025-01-17 07:54:13.30	57.67	15.58	
2025-01-17 07:54:13.50	57.63	15.58	
2025-01-17 07:54:13.70	57.59	15.59	
2025-01-17 07:54:13.91	57.55	15.60	
2025-01-17 07:54:14.11	57.51	15.61	
2025-01-17 07:54:14.31	57.47	15.61	
2025-01-17 07:54:14.52	57.42	15.62	
2025-01-17 07:54:14.72	57.38	15.63	
2025-01-17 07:54:14.92	57.34	15.64	
2025-01-17 07:54:15.13	57.30	15.64	
2025-01-17 07:54:15.33	57.26	15.65	
2025-01-17 07:54:15.53	57.22	15.66	
2025-01-17 07:54:15.74	57.17	15.67	
2025-01-17 07:54:15.94	57.13	15.67	
2025-01-17 07:54:16.14	57.09	15.68	
2025-01-17 07:54:16.35	57.05	15.69	
2025-01-17 07:54:16.55	57.01	15.70	
2025-01-17 07:54:16.75	56.97	15.70	
2025-01-17 07:54:16.95	56.93	15.71	
2025-01-17 07:54:17.16	56.88	15.72	
2025-01-17 07:54:17.36	56.84	15.73	
2025-01-17 07:54:17.56	56.80	15.73	
2025-01-17 07:54:17.77	56.76	15.74	
2025-01-17 07:54:17.97	56.72	15.75	
2025-01-17 07:54:18.17	56.68	15.76	
2025-01-17 07:54:18.38	56.63	15.76	
2025-01-17 07:54:18.58	56.59	15.77	
2025-01-17 07:54:18.78	56.55	15.78	
2025-01-17 07:54:18.99	56.51	15.79	
2025-01-17 07:54:19.19	56.47	15.79	
2025-01-17 07:54:19.39	56.43	15.80	
2025-01-17 07:54:19.60	56.38	15.81	
2025-01-17 07:54:19.80	56.34	15.81	
2025-01-17 07:54:20.00	56.30	15.82	
2025-01-17 07:54:20.20	56.26	15.83	
2025-01-17 07:54:20.41	56.22	15.84	
2025-01-17 07:54:20.61	56.17	15.84	
2025-01-17 07:54:20.81	56.13	15.85	
2025-01-17 07:54:21.02	56.09	15.86	
2025-01-17 07:54:21.22	56.05	15.86	
2025-01-17 07:54:21.42	56.01	15.87	
2025-01-17 07:54:21.63	55.96	15.88	
2025-01-17 07:54:21.83	55.92	15.89	
2025-01-17 07:54:22.03	55.88	15.89	
2025-01-17 07:54:22.24	55.84	15.90	
2025-01-17 07:54:22.44	55.80	15.91	
2025-01-17 07:54:22.64	55.75	15.91	
2025-01-17 07:54:22.84	55.71	15.92	
2025-01-17 07:54:23.05	55.67	15.93	
2025-01-17 07:54:23.25	55.63	15.93	
2025-01-17 07:54:23.45	55.59	15.94	
2025-01-17 07:54:23.66	55.54	15.95	
2025-01-17 07:54:23.86	55.50	15.96	
2025-01-17 07:54:24.06	55.46	15.96	
2025-01-17 07:54:24.27	55.41	15.97	
2025-01-17 07:54:24.47	55.37	15.98	
2025-01-17 07:54:24.67	55.33	15.98	
2025-01-17 07:54:24.88	55.29	15.99	
2025-01-17 07:54:25.08	55.25	16.00	
2025-01-17 07:54:25.28	55.20	16.00	
2025-01-17 07:54:25.49	55.16	16.01	
2025-01-17 07:54:25.69	55.12	16.02	
2025-01-17 07:54:25.89	55.08	16.02	
2025-01-17 07:54:26.09	55.03	16.03	
2025-01-17 07:54:26.30	54.99	16.04	
2025-01-17 07:54:26.50	54.95	16.04	
2025-01-17 07:54:26.70	54.91	16.05	
2025-01-17 07:54:26.91	54.86	16.06	
2025-01-17 07:54:27.11	54.82	16.06	
2025-01-17 07:54:27.31	54.78	16.07	
2025-01-17 07:54:27.52	54.74	16.08	
2025-01-17 07:54:27.72	54.69	16.08	
2025-01-17 07:54:27.92	54.65	16.09	
2025-01-17 07:54:28.13	54.61	16.10	
2025-01-17 07:54:28.33	54.56	16.10	
2025-01-17 07:54:28.53	54.52	16.11	
2025-01-17 07:54:28.73	54.48	16.12	
2025-01-17 07:54:28.94	54.44	16.12	
2025-01-17 07:54:29.14	54.39	16.13	
2025-01-17 07:54:29.34	54.35	16.14	
2025-01-17 07:54:29.55	54.31	16.14	
2025-01-17 07:54:29.75	54.27	16.15	
2025-01-17 07:54:29.95	54.22	16.16	
2025-01-17 07:54:30.16	54.18	16.16	
2025-01-17 07:54:30.36	54.14	16.17	
2025-01-17 07:54:30.56	54.09	16.18	
2025-01-17 07:54:30.77	54.05	16.18	
2025-01-17 07:54:30.97	54.01	16.19	
2025-01-17 07:54:31.17	53.97	16.20	
2025-01-17 07:54:31.38	53.92	16.20	
2025-01-17 07:54:31.58	53.88	16.21	
2025-01-17 07:54:31.78	53.84	16.22	
2025-01-17 07:54:31.98	53.79	16.22	
2025-01-17 07:54:32.19	53.75	16.23	
2025-01-17 07:54:32.39	53.71	16.23	
2025-01-17 07:54:32.59	53.66	16.24	
2025-01-17 07:54:32.80	53.62	16.25	
2025-01-17 07:54:33.00	53.58	16.25	
2025-01-17 07:54:33.20	53.54	16.26	
2025-01-17 07:54:33.41	53.49	16.27	
2025-01-17 07:54:33.61	53.45	16.27	
2025-01-17 07:54:33.81	53.41	16.28	
2025-01-17 07:54:34.02	53.36	16.29	
2025-01-17 07:54:34.22	53.32	16.29	
2025-01-17 07:54:34.42	53.28	16.30	
2025-01-17 07:54:34.63	53.23	16.30	
2025-01-17 07:54:34.83	53.19	16.31	
2025-01-17 07:54:35.03	53.15	16.32	
2025-01-17 07:54:35.23	53.10	16.32	
2025-01-17 07:54:35.44	53.06	16.33	
2025-01-17 07:54:35.64	53.02	16.33	
2025-01-17 07:54:35.84	52.97	16.34	
2025-01-17 07:54:36.05	52.93	16.35	
2025-01-17 07:54:36.25	52.89	16.35	
2025-01-17 07:54:36.45	52.84	16.36	
2025-01-17 07:54:36.66	52.80	16.36	
2025-01-17 07:54:36.86	52.75	16.37	
2025-01-17 07:54:37.06	52.71	16.38	
2025-01-17 07:54:37.27	52.67	16.38	
2025-01-17 07:54:37.47	52.62	16.39	
2025-01-17 07:54:37.67	52.58	16.39	
2025-01-17 07:54:37.88	52.54	16.40	
2025-01-17 07:54:38.08	52.49	16.41	
2025-01-17 07:54:38.28	52.45	16.41	
2025-01-17 07:54:38.48	52.41	16.42	
2025-01-17 07:54:38.69	52.36	16.42	
2025-01-17 07:54:38.89	52.32	16.43	
2025-01-17 07:54:39.09	52.28	16.44	
2025-01-17 07:54:39.30	52.23	16.44	
2025-01-17 07:54:39.50	52.19	16.45	
2025-01-17 07:54:39.70	52.15	16.45	
2025-01-17 07:54:39.91	52.10	16.46	
2025-01-17 07:54:40.11	52.06	16.46	
2025-01-17 07:54:40.31	52.01	16.47	
2025-01-17 07:54:40.52	51.97	16.48	
2025-01-17 07:54:40.72	51.93	16.48	
2025-01-17 07:54:40.92	51.88	16.49	
2025-01-17 07:54:41.12	51.84	16.49	
2025-01-17 07:54:41.33	51.79	16.50	
2025-01-17 07:54:41.53	51.75	16.50	
2025-01-17 07:54:41.73	51.71	16.51	
2025-01-17 07:54:41.94	51.66	16.52	
2025-01-17 07:54:42.14	51.62	16.52	
2025-01-17 07:54:42.34	51.58	16.53	
2025-01-17 07:54:42.55	51.53	16.53	
2025-01-17 07:54:42.75	51.49	16.54	
2025-01-17 07:54:42.95	51.44	16.54	
2025-01-17 07:54:43.16	51.40	16.55	
2025-01-17 07:54:43.36	51.35	16.55	
2025-01-17 07:54:43.56	51.31	16.56	
2025-01-17 07:54:43.77	51.27	16.57	
2025-01-17 07:54:43.97	51.22	16.57	
2025-01-17 07:54:44.17	51.18	16.58	
2025-01-17 07:54:44.37	51.14	16.58	
2025-01-17 07:54:44.58	51.09	16.59	
2025-01-17 07:54:44.78	51.05	16.59	
2025-01-17 07:54:44.98	51.00	16.60	
2025-01-17 07:54:45.19	50.96	16.60	
2025-01-17 07:54:45.39	50.91	16.61	
2025-01-17 07:54:45.59	50.87	16.61	
2025-01-17 07:54:45.80	50.82	16.62	
2025-01-17 07:54:46.00	50.78	16.63	
2025-01-17 07:54:46.20	50.74	16.63	
2025-01-17 07:54:46.41	50.69	16.64	
2025-01-17 07:54:46.61	50.65	16.64	
2025-01-17 07:54:46.81	50.60	16.65	
2025-01-17 07:54:47.02	50.56	16.65	
2025-01-17 07:54:47.22	50.52	16.66	
2025-01-17 07:54:47.42	50.47	16.66	
2025-01-17 07:54:47.62	50.43	16.67	
2025-01-17 07:54:47.83	50.38	16.67	
2025-01-17 07:54:48.03	50.34	16.68	
2025-01-17 07:54:48.23	50.29	16.68	
2025-01-17 07:54:48.44	50.25	16.69	
2025-01-17 07:54:48.64	50.20	16.69	
2025-01-17 07:54:48.84	50.16	16.70	
2025-01-17 07:54:49.05	50.12	16.70	
2025-01-17 07:54:49.25	50.07	16.71	
2025-01-17 07:54:49.45	50.03	16.71	
2025-01-17 07:54:49.66	49.98	16.72	
2025-01-17 07:54:49.86	49.94	16.72	
2025-01-17 07:54:50.06	49.89	16.73	
2025-01-17 07:54:50.27	49.85	16.73	
2025-01-17 07:54:50.47	49.80	16.74	
2025-01-17 07:54:50.67	49.76	16.74	
2025-01-17 07:54:50.87	49.72	16.75	
2025-01-17 07:54:51.08	49.67	16.75	
2025-01-17 07:54:51.28	49.63	16.76	
2025-01-17 07:54:51.48	49.58	16.76	
2025-01-17 07:54:51.69	49.54	16.77	
2025-01-17 07:54:51.89	49.49	16.77	
2025-01-17 07:54:52.09	49.45	16.78	
2025-01-17 07:54:52.30	49.40	16.78	
2025-01-17 07:54:52.50	49.36	16.79	
2025-01-17 07:54:52.70	49.31	16.79	
2025-01-17 07:54:52.91	49.27	16.80	
2025-01-17 07:54:53.11	49.22	16.80	
2025-01-17 07:54:53.31	49.18	16.81	
2025-01-17 07:54:53.51	49.14	16.81	
2025-01-17 07:54:53.72	49.09	16.81	
2025-01-17 07:54:53.92	49.05	16.82	
2025-01-17 07:54:54.12	49.00	16.82	
2025-01-17 07:54:54.33	48.95	16.83	
2025-01-17 07:54:54.53	48.91	16.83	
2025-01-17 07:54:54.73	48.87	16.84	
2025-01-17 07:54:54.94	48.82	16.84	
2025-01-17 07:54:55.14	48.78	16.85	
2025-01-17 07:54:55.34	48.73	16.85	
2025-01-17 07:54:55.55	48.69	16.86	
2025-01-17 07:54:55.75	48.64	16.86	
2025-01-17 07:54:55.95	48.60	16.87	
2025-01-17 07:54:56.16	48.55	16.87	
2025-01-17 07:54:56.36	48.51	16.87	
2025-01-17 07:54:56.56	48.46	16.88	
2025-01-17 07:54:56.76	48.42	16.88	
2025-01-17 07:54:56.97	48.37	16.89	
2025-01-17 07:54:57.17	48.33	16.89	
2025-01-17 07:54:57.37	48.28	16.90	
2025-01-17 07:54:57.58	48.24	16.90	
2025-01-17 07:54:57.78	48.19	16.90	
2025-01-17 07:54:57.98	48.15	16.91	
2025-01-17 07:54:58.19	48.10	16.91	
2025-01-17 07:54:58.39	48.06	16.92	
2025-01-17 07:54:58.59	48.01	16.92	
2025-01-17 07:54:58.80	47.96	16.93	
2025-01-17 07:54:59.00	47.92	16.93	
2025-01-17 07:54:59.20	47.88	16.93	
2025-01-17 07:54:59.41	47.83	16.94	
2025-01-17 07:54:59.61	47.78	16.94	
2025-01-17 07:54:59.81	47.74	16.95	
2025-01-17 07:55:00.01	47.70	16.95	
2025-01-17 07:55:00.22	47.65	16.96	
2025-01-17 07:55:00.42	47.60	16.96	
2025-01-17 07:55:00.62	47.56	16.96	
2025-01-17 07:55:00.83	47.51	16.97	
2025-01-17 07:55:01.03	47.47	16.97	
2025-01-17 07:55:01.23	47.42	16.98	
2025-01-17 07:55:01.44	47.38	16.98	
2025-01-17 07:55:01.64	47.33	16.98	
2025-01-17 07:55:01.84	47.29	16.99	
2025-01-17 07:55:02.05	47.24	16.99	
2025-01-17 07:55:02.25	47.20	17.00	
2025-01-17 07:55:02.45	47.15	17.00	
2025-01-17 07:55:02.65	47.11	17.00	
2025-01-17 07:55:02.86	47.06	17.01	
2025-01-17 07:55:03.06	47.02	17.01	
2025-01-17 07:55:03.26	46.97	17.02	
2025-01-17 07:55:03.47	46.92	17.02	
2025-01-17 07:55:03.67	46.88	17.02	
2025-01-17 07:55:03.87	46.83	17.03	
2025-01-17 07:55:04.08	46.79	17.03	
2025-01-17 07:55:04.28	46.74	17.03	
2025-01-17 07:55:04.48	46.70	17.04	
2025-01-17 07:55:04.69	46.65	17.04	
2025-01-17 07:55:04.89	46.61	17.05	
2025-01-17 07:55:05.09	46.56	17.05	
2025-01-17 07:55:05.30	46.51	17.05	
2025-01-17 07:55:05.50	46.47	17.06	
2025-01-17 07:55:05.70	46.43	17.06	
2025-01-17 07:55:05.90	46.38	17.06	
2025-01-17 07:55:06.11	46.33	17.07	
2025-01-17 07:55:06.31	46.29	17.07	
2025-01-17 07:55:06.51	46.24	17.07	
2025-01-17 07:55:06.72	46.20	17.08	
2025-01-17 07:55:06.92	46.15	17.08	
2025-01-17 07:55:07.12	46.11	17.09	
2025-01-17 07:55:07.33	46.06	17.09	
2025-01-17 07:55:07.53	46.01	17.09	
2025-01-17 07:55:07.73	45.97	17.10	
2025-01-17 07:55:07.94	45.92	17.10	
2025-01-17 07:55:08.14	45.88	17.10	
2025-01-17 07:55:08.34	45.83	17.11	
2025-01-17 07:55:08.55	45.79	17.11	
2025-01-17 07:55:08.75	45.74	17.11	
2025-01-17 07:55:08.95	45.70	17.12	
2025-01-17 07:55:09.15	45.65	17.12	
2025-01-17 07:55:09.36	45.60	17.12	
2025-01-17 07:55:09.56	45.56	17.13	
2025-01-17 07:55:09.76	45.51	17.13	
2025-01-17 07:55:09.97	45.47	17.13	
2025-01-17 07:55:10.17	45.42	17.14	
2025-01-17 07:55:10.37	45.38	17.14	
2025-01-17 07:55:10.58	45.33	17.14	
2025-01-17 07:55:10.78	45.28	17.15	
2025-01-17 07:55:10.98	45.24	17.15	
2025-01-17 07:55:11.19	45.19	17.15	
2025-01-17 07:55:11.39	45.15	17.15	
2025-01-17 07:55:11.59	45.10	17.16	
2025-01-17 07:55:11.79	45.06	17.16	
2025-01-17 07:55:12.00	45.01	17.16	
2025-01-17 07:55:12.20	44.96	17.17	
2025-01-17 07:55:12.40	44.92	17.17	
2025-01-17 07:55:12.61	44.87	17.17	
2025-01-17 07:55:12.81	44.83	17.18	
2025-01-17 07:55:13.01	44.78	17.18	
2025-01-17 07:55:13.22	44.73	17.18	
2025-01-17 07:55:13.42	44.69	17.19	
2025-01-17 07:55:13.62	44.64	17.19	
2025-01-17 07:55:13.83	44.60	17.19	
2025-01-17 07:55:14.03	44.55	17.19	
2025-01-17 07:55:14.23	44.50	17.20	
2025-01-17 07:55:14.44	44.46	17.20	
2025-01-17 07:55:14.64	44.41	17.20	
2025-01-17 07:55:14.84	44.37	17.21	
2025-01-17 07:55:15.04	44.32	17.21	
2025-01-17 07:55:15.25	44.27	17.21	
2025-01-17 07:55:15.45	44.23	17.21	
2025-01-17 07:55:15.65	44.18	17.22	
2025-01-17 07:55:15.86	44.14	17.22	
2025-01-17 07:55:16.06	44.09	17.22	
2025-01-17 07:55:16.26	44.05	17.22	
2025-01-17 07:55:16.47	44.00	17.23	
2025-01-17 07:55:16.67	43.95	17.23	
2025-01-17 07:55:16.87	43.91	17.23	
2025-01-17 07:55:17.08	43.86	17.24	
2025-01-17 07:55:17.28	43.81	17.24	
2025-01-17 07:55:17.48	43.77	17.24	
2025-01-17 07:55:17.69	43.72	17.24	
2025-01-17 07:55:17.89	43.68	17.25	
2025-01-17 07:55:18.09	43.63	17.25	
2025-01-17 07:55:18.29	43.58	17.25	
2025-01-17 07:55:18.50	43.54	17.25	
2025-01-17 07:55:18.70	43.49	17.26	
2025-01-17 07:55:18.90	43.45	17.26	
2025-01-17 07:55:19.11	43.40	17.26	
2025-01-17 07:55:19.31	43.35	17.26	
2025-01-17 07:55:19.51	43.31	17.27	
2025-01-17 07:55:19.72	43.26	17.27	
2025-01-17 07:55:19.92	43.21	17.27	
2025-01-17 07:55:20.12	43.17	17.27	
2025-01-17 07:55:20.33	43.12	17.27	
2025-01-17 07:55:20.53	43.08	17.28	
2025-01-17 07:55:20.73	43.03	17.28	
2025-01-17 07:55:20.93	42.99	17.28	
2025-01-17 07:55:21.14	42.94	17.28	
2025-01-17 07:55:21.34	42.89	17.29	
2025-01-17 07:55:21.54	42.85	17.29	
2025-01-17 07:55:21.75	42.80	17.29	
2025-01-17 07:55:21.95	42.75	17.29	
2025-01-17 07:55:22.15	42.71	17.29	
2025-01-17 07:55:22.36	42.66	17.30	
2025-01-17 07:55:22.56	42.61	17.30	
2025-01-17 07:55:22.76	42.57	17.30	
2025-01-17 07:55:22.97	42.52	17.30	
2025-01-17 07:55:23.17	42.48	17.31	
2025-01-17 07:55:23.37	42.43	17.31	
2025-01-17 07:55:23.58	42.38	17.31	
2025-01-17 07:55:23.78	42.34	17.31	
2025-01-17 07:55:23.98	42.29	17.31	
2025-01-17 07:55:24.18	42.25	17.32	
2025-01-17 07:55:24.39	42.20	17.32	
2025-01-17 07:55:24.59	42.15	17.32	
2025-01-17 07:55:24.79	42.11	17.32	
2025-01-17 07:55:25.00	42.06	17.32	
2025-01-17 07:55:25.20	42.01	17.32	
2025-01-17 07:55:25.40	41.97	17.33	
2025-01-17 07:55:25.61	41.92	17.33	
2025-01-17 07:55:25.81	41.87	17.33	
2025-01-17 07:55:26.01	41.83	17.33	
2025-01-17 07:55:26.22	41.78	17.33	
2025-01-17 07:55:26.42	41.73	17.34	
2025-01-17 07:55:26.62	41.69	17.34	
2025-01-17 07:55:26.83	41.64	17.34	
2025-01-17 07:55:27.03	41.60	17.34	
2025-01-17 07:55:27.23	41.55	17.34	
2025-01-17 07:55:27.43	41.50	17.34	
2025-01-17 07:55:27.64	41.46	17.35	
2025-01-17 07:55:27.84	41.41	17.35	
2025-01-17 07:55:28.04	41.36	17.35	
2025-01-17 07:55:28.25	41.32	17.35	
2025-01-17 07:55:28.45	41.27	17.35	
2025-01-17 07:55:28.65	41.23	17.35	
2025-01-17 07:55:28.86	41.18	17.36	
2025-01-17 07:55:29.06	41.13	17.36	
2025-01-17 07:55:29.26	41.09	17.36	
2025-01-17 07:55:29.47	41.04	17.36	
2025-01-17 07:55:29.67	40.99	17.36	
2025-01-17 07:55:29.87	40.95	17.36	
2025-01-17 07:55:30.08	40.90	17.36	
2025-01-17 07:55:30.28	40.85	17.37	
2025-01-17 07:55:30.48	40.81	17.37	
2025-01-17 07:55:30.68	40.76	17.37	
2025-01-17 07:55:30.89	40.71	17.37	
2025-01-17 07:55:31.09	40.67	17.37	
2025-01-17 07:55:31.29	40.62	17.37	
2025-01-17 07:55:31.50	40.57	17.37	
2025-01-17 07:55:31.70	40.53	17.37	
2025-01-17 07:55:31.90	40.48	17.38	
2025-01-17 07:55:32.11	40.43	17.38	
2025-01-17 07:55:32.31	40.39	17.38	
2025-01-17 07:55:32.51	40.34	17.38	
2025-01-17 07:55:32.72	40.29	17.38	
2025-01-17 07:55:32.92	40.25	17.38	
2025-01-17 07:55:33.12	40.20	17.38	
2025-01-17 07:55:33.32	40.16	17.38	
2025-01-17 07:55:33.53	40.11	17.38	
2025-01-17 07:55:33.73	40.06	17.39	
2025-01-17 07:55:33.93	40.02	17.39	
2025-01-17 07:55:34.14	39.97	17.39	
2025-01-17 07:55:34.34	39.92	17.39	
2025-01-17 07:55:34.54	39.88	17.39	
2025-01-17 07:55:34.75	39.83	17.39	
2025-01-17 07:55:34.95	39.78	17.39	
2025-01-17 07:55:35.15	39.74	17.39	
2025-01-17 07:55:35.36	39.69	17.39	
2025-01-17 07:55:35.56	39.64	17.39	
2025-01-17 07:55:35.76	39.60	17.40	
2025-01-17 07:55:35.97	39.55	17.40	
2025-01-17 07:55:36.17	39.50	17.40	
2025-01-17 07:55:36.37	39.46	17.40	
2025-01-17 07:55:36.57	39.41	17.40	
2025-01-17 07:55:36.78	39.36	17.40	
2025-01-17 07:55:36.98	39.32	17.40	
2025-01-17 07:55:37.18	39.27	17.40	
2025-01-17 07:55:37.39	39.22	17.40	
2025-01-17 07:55:37.59	39.18	17.40	
2025-01-17 07:55:37.79	39.13	17.40	
2025-01-17 07:55:38.00	39.09	17.40	
2025-01-17 07:55:38.20	39.04	17.40	
2025-01-17 07:55:38.40	38.99	17.40	
2025-01-17 07:55:38.61	38.95	17.41	
2025-01-17 07:55:38.81	38.90	17.41	
2025-01-17 07:55:39.01	38.85	17.41	
2025-01-17 07:55:39.22	38.81	17.41	
2025-01-17 07:55:39.42	38.76	17.41	
2025-01-17 07:55:39.62	38.71	17.41	
2025-01-17 07:55:39.82	38.67	17.41	
2025-01-17 07:55:40.03	38.62	17.41	
2025-01-17 07:55:40.23	38.57	17.41	
2025-01-17 07:55:40.43	38.53	17.41	
2025-01-17 07:55:40.64	38.48	17.41	
2025-01-17 07:55:40.84	38.43	17.41	
2025-01-17 07:55:41.04	38.39	17.41	
2025-01-17 07:55:41.25	38.34	17.41	
2025-01-17 07:55:41.45	38.29	17.41	
2025-01-17 07:55:41.65	38.25	17.41	
2025-01-17 07:55:41.86	38.20	17.41	
2025-01-17 07:55:42.06	38.15	17.41	
2025-01-17 07:55:42.26	38.11	17.41	
2025-01-17 07:55:42.46	38.06	17.41	
2025-01-17 07:55:42.67	38.01	17.41	
2025-01-17 07:55:42.87	37.97	17.41	
2025-01-17 07:55:43.07	37.92	17.41	
2025-01-17 07:55:43.28	37.87	17.41	
2025-01-17 07:55:43.48	37.83	17.41	
2025-01-17 07:55:43.68	37.78	17.41	
2025-01-17 07:55:43.89	37.73	17.41	
2025-01-17 07:55:44.09	37.69	17.41	
2025-01-17 07:55:44.29	37.64	17.41	
2025-01-17 07:55:44.50	37.59	17.41	
2025-01-17 07:55:44.70	37.55	17.41	
2025-01-17 07:55:44.90	37.50	17.41	
2025-01-17 07:55:45.11	37.45	17.41	
2025-01-17 07:55:45.31	37.41	17.41	
2025-01-17 07:55:45.51	37.36	17.41	
2025-01-17 07:55:45.71	37.32	17.41	
2025-01-17 07:55:45.92	37.27	17.41	
2025-01-17 07:55:46.12	37.22	17.41	
2025-01-17 07:55:46.32	37.18	17.41	
2025-01-17 07:55:46.53	37.13	17.41	
2025-01-17 07:55:46.73	37.08	17.41	
2025-01-17 07:55:46.93	37.04	17.41	
2025-01-17 07:55:47.14	36.99	17.41	
2025-01-17 07:55:47.34	36.94	17.41	
2025-01-17 07:55:47.54	36.90	17.41	
2025-01-17 07:55:47.75	36.85	17.41	
2025-01-17 07:55:47.95	36.80	17.41	
2025-01-17 07:55:48.15	36.76	17.41	
2025-01-17 07:55:48.36	36.71	17.41	
2025-01-17 07:55:48.56	36.66	17.41	
2025-01-17 07:55:48.76	36.62	17.41	
2025-01-17 07:55:48.96	36.57	17.41	
2025-01-17 07:55:49.17	36.52	17.41	
2025-01-17 07:55:49.37	36.48	17.41	
2025-01-17 07:55:49.57	36.43	17.41	
2025-01-17 07:55:49.78	36.38	17.41	
2025-01-17 07:55:49.98	36.34	17.41	
2025-01-17 07:55:50.18	36.29	17.41	
2025-01-17 07:55:50.39	36.24	17.41	
2025-01-17 07:55:50.59	36.20	17.41	
2025-01-17 07:55:50.79	36.15	17.41	
2025-01-17 07:55:51.00	36.10	17.41	
2025-01-17 07:55:51.20	36.06	17.40	
2025-01-17 07:55:51.40	36.01	17.40	
2025-01-17 07:55:51.60	35.97	17.40	
2025-01-17 07:55:51.81	35.92	17.40	
2025-01-17 07:55:52.01	35.87	17.40	
2025-01-17 07:55:52.21	35.83	17.40	
2025-01-17 07:55:52.42	35.78	17.40	
2025-01-17 07:55:52.62	35.73	17.40	
2025-01-17 07:55:52.82	35.69	17.40	
2025-01-17 07:55:53.03	35.64	17.40	
2025-01-17 07:55:53.23	35.59	17.40	
2025-01-17 07:55:53.43	35.55	17.40	
2025-01-17 07:55:53.64	35.50	17.40	
2025-01-17 07:55:53.84	35.45	17.39	
2025-01-17 07:55:54.04	35.41	17.39	
2025-01-17 07:55:54.25	35.36	17.39	
2025-01-17 07:55:54.45	35.31	17.39	
2025-01-17 07:55:54.65	35.27	17.39	
2025-01-17 07:55:54.85	35.22	17.39	
2025-01-17 07:55:55.06	35.17	17.39	
2025-01-17 07:55:55.26	35.13	17.39	
2025-01-17 07:55:55.46	35.08	17.39	
2025-01-17 07:55:55.67	35.03	17.39	
2025-01-17 07:55:55.87	34.99	17.39	
2025-01-17 07:55:56.07	34.94	17.38	
2025-01-17 07:55:56.28	34.90	17.38	
2025-01-17 07:55:56.48	34.85	17.38	
2025-01-17 07:55:56.68	34.80	17.38	
2025-01-17 07:55:56.89	34.76	17.38	
2025-01-17 07:55:57.09	34.71	17.38	
2025-01-17 07:55:57.29	34.66	17.38	
2025-01-17 07:55:57.50	34.62	17.38	
2025-01-17 07:55:57.70	34.57	17.37	
2025-01-17 07:55:57.90	34.52	17.37	
2025-01-17 07:55:58.10	34.48	17.37	
2025-01-17 07:55:58.31	34.43	17.37	
2025-01-17 07:55:58.51	34.39	17.37	
2025-01-17 07:55:58.71	34.34	17.37	
2025-01-17 07:55:58.92	34.29	17.37	
2025-01-17 07:55:59.12	34.25	17.37	
2025-01-17 07:55:59.32	34.20	17.36	
2025-01-17 07:55:59.53	34.15	17.36	
2025-01-17 07:55:59.73	34.11	17.36	
2025-01-17 07:55:59.93	34.06	17.36	
2025-01-17 07:56:00.14	34.01	17.36	
2025-01-17 07:56:00.34	33.97	17.36	
2025-01-17 07:56:00.54	33.92	17.36	
2025-01-17 07:56:00.75	33.87	17.35	
2025-01-17 07:56:00.95	33.83	17.35	
2025-01-17 07:56:01.15	33.78	17.35	
2025-01-17 07:56:01.35	33.74	17.35	
2025-01-17 07:56:01.56	33.69	17.35	
2025-01-17 07:56:01.76	33.64	17.35	
2025-01-17 07:56:01.96	33.60	17.34	
2025-01-17 07:56:02.17	33.55	17.34	
2025-01-17 07:56:02.37	33.50	17.34	
2025-01-17 07:56:02.57	33.46	17.34	
2025-01-17 07:56:02.78	33.41	17.34	
2025-01-17 07:56:02.98	33.36	17.34	
2025-01-17 07:56:03.18	33.32	17.33	
2025-01-17 07:56:03.39	33.27	17.33	
2025-01-17 07:56:03.59	33.23	17.33	
2025-01-17 07:56:03.79	33.18	17.33	
2025-01-17 07:56:03.99	33.13	17.33	
2025-01-17 07:56:04.20	33.09	17.33	
2025-01-17 07:56:04.40	33.04	17.32	
2025-01-17 07:56:04.60	33.00	17.32	
2025-01-17 07:56:04.81	32.95	17.32	
2025-01-17 07:56:05.01	32.90	17.32	
2025-01-17 07:56:05.21	32.86	17.32	
2025-01-17 07:56:05.42	32.81	17.31	
2025-01-17 07:56:05.62	32.76	17.31	
2025-01-17 07:56:05.82	32.72	17.31	
2025-01-17 07:56:06.03	32.67	17.31	
2025-01-17 07:56:06.23	32.62	17.31	
2025-01-17 07:56:06.43	32.58	17.30	
2025-01-17 07:56:06.64	32.53	17.30	
2025-01-17 07:56:06.84	32.49	17.30	
2025-01-17 07:56:07.04	32.44	17.30	
2025-01-17 07:56:07.24	32.39	17.30	
2025-01-17 07:56:07.45	32.35	17.29	
2025-01-17 07:56:07.65	32.30	17.29	
2025-01-17 07:56:07.85	32.26	17.29	
2025-01-17 07:56:08.06	32.21	17.29	
2025-01-17 07:56:08.26	32.16	17.28	
2025-01-17 07:56:08.46	32.12	17.28	
2025-01-17 07:56:08.67	32.07	17.28	
2025-01-17 07:56:08.87	32.02	17.28	
2025-01-17 07:56:09.07	31.98	17.28	
2025-01-17 07:56:09.28	31.93	17.27	
2025-01-17 07:56:09.48	31.88	17.27	
2025-01-17 07:56:09.68	31.84	17.27	
2025-01-17 07:56:09.89	31.79	17.27	
2025-01-17 07:56:10.09	31.75	17.26	
2025-01-17 07:56:10.29	31.70	17.26	
2025-01-17 07:56:10.49	31.66	17.26	
2025-01-17 07:56:10.70	31.61	17.26	
2025-01-17 07:56:10.90	31.56	17.25	
2025-01-17 07:56:11.10	31.52	17.25	
2025-01-17 07:56:11.31	31.47	17.25	
2025-01-17 07:56:11.51	31.42	17.25	
2025-01-17 07:56:11.71	31.38	17.24	
2025-01-17 07:56:11.92	31.33	17.24	
2025-01-17 07:56:12.12	31.29	17.24	
2025-01-17 07:56:12.32	31.24	17.24	
2025-01-17 07:56:12.53	31.19	17.23	
2025-01-17 07:56:12.73	31.15	17.23	
2025-01-17 07:56:12.93	31.10	17.23	
2025-01-17 07:56:13.13	31.06	17.23	
2025-01-17 07:56:13.34	31.01	17.22	
2025-01-17 07:56:13.54	30.96	17.22	
2025-01-17 07:56:13.74	30.92	17.22	
2025-01-17 07:56:13.95	30.87	17.22	
2025-01-17 07:56:14.15	30.83	17.21	
2025-01-17 07:56:14.35	30.78	17.21	
2025-01-17 07:56:14.56	30.73	17.21	
2025-01-17 07:56:14.76	30.69	17.20	
2025-01-17 07:56:14.96	30.64	17.20	
2025-01-17 07:56:15.17	30.60	17.20	
2025-01-17 07:56:15.37	30.55	17.20	
2025-01-17 07:56:15.57	30.51	17.19	
2025-01-17 07:56:15.78	30.46	17.19	
2025-01-17 07:56:15.98	30.41	17.19	
2025-01-17 07:56:16.18	30.37	17.18	
2025-01-17 07:56:16.38	30.32	17.18	
2025-01-17 07:56:16.59	30.28	17.18	
2025-01-17 07:56:16.79	30.23	17.17	
2025-01-17 07:56:16.99	30.19	17.17	
2025-01-17 07:56:17.20	30.14	17.17	
2025-01-17 07:56:17.40	30.09	17.17	
2025-01-17 07:56:17.60	30.05	17.16	
2025-01-17 07:56:17.81	30.00	17.16	
2025-01-17 07:56:18.01	29.96	17.16	
2025-01-17 07:56:18.21	29.91	17.15	
2025-01-17 07:56:18.42	29.86	17.15	
2025-01-17 07:56:18.62	29.82	17.15	
2025-01-17 07:56:18.82	29.77	17.14	
2025-01-17 07:56:19.03	29.73	17.14	
2025-01-17 07:56:19.23	29.68	17.14	
2025-01-17 07:56:19.43	29.64	17.13	
2025-01-17 07:56:19.63	29.59	17.13	
2025-01-17 07:56:19.84	29.54	17.13	
2025-01-17 07:56:20.04	29.50	17.12	
2025-01-17 07:56:20.24	29.45	17.12	
2025-01-17 07:56:20.45	29.41	17.12	
2025-01-17 07:56:20.65	29.36	17.11	
2025-01-17 07:56:20.85	29.32	17.11	
2025-01-17 07:56:21.06	29.27	17.11	
2025-01-17 07:56:21.26	29.22	17.10	
2025-01-17 07:56:21.46	29.18	17.10	
2025-01-17 07:56:21.67	29.13	17.10	
2025-01-17 07:56:21.87	29.09	17.09	
2025-01-17 07:56:22.07	29.04	17.09	
2025-01-17 07:56:22.27	29.00	17.09	
2025-01-17 07:56:22.48	28.95	17.08	
2025-01-17 07:56:22.68	28.91	17.08	
2025-01-17 07:56:22.88	28.86	17.08	
2025-01-17 07:56:23.09	28.81	17.07	
2025-01-17 07:56:23.29	28.77	17.07	
2025-01-17 07:56:23.49	28.72	17.07	
2025-01-17 07:56:23.70	28.68	17.06	
2025-01-17 07:56:23.90	28.63	17.06	
2025-01-17 07:56:24.10	28.59	17.05	
2025-01-17 07:56:24.31	28.54	17.05	
2025-01-17 07:56:24.51	28.50	17.05	
2025-01-17 07:56:24.71	28.45	17.04	
2025-01-17 07:56:24.92	28.40	17.04	
2025-01-17 07:56:25.12	28.36	17.04	
2025-01-17 07:56:25.32	28.32	17.03	
2025-01-17 07:56:25.52	28.27	17.03	
2025-01-17 07:56:25.73	28.22	17.02	
2025-01-17 07:56:25.93	28.18	17.02	
2025-01-17 07:56:26.13	28.13	17.02	
2025-01-17 07:56:26.34	28.09	17.01	
2025-01-17 07:56:26.54	28.04	17.01	
2025-01-17 07:56:26.74	28.00	17.01	
2025-01-17 07:56:26.95	27.95	17.00	
2025-01-17 07:56:27.15	27.91	17.00	
2025-01-17 07:56:27.35	27.86	16.99	
2025-01-17 07:56:27.56	27.82	16.99	
2025-01-17 07:56:27.76	27.77	16.99	
2025-01-17 07:56:27.96	27.73	16.98	
2025-01-17 07:56:28.17	27.68	16.98	
2025-01-17 07:56:28.37	27.64	16.97	
2025-01-17 07:56:28.57	27.59	16.97	
2025-01-17 07:56:28.77	27.55	16.97	
2025-01-17 07:56:28.98	27.50	16.96	
2025-01-17 07:56:29.18	27.45	16.96	
2025-01-17 07:56:29.38	27.41	16.95	
2025-01-17 07:56:29.59	27.36	16.95	
2025-01-17 07:56:29.79	27.32	16.95	
2025-01-17 07:56:29.99	27.28	16.94	
2025-01-17 07:56:30.20	27.23	16.94	
2025-01-17 07:56:30.40	27.18	16.93	
2025-01-17 07:56:30.60	27.14	16.93	
2025-01-17 07:56:30.81	27.09	16.92	
2025-01-17 07:56:31.01	27.05	16.92	
2025-01-17 07:56:31.21	27.00	16.92	
2025-01-17 07:56:31.42	26.96	16.91	
2025-01-17 07:56:31.62	26.91	16.91	
2025-01-17 07:56:31.82	26.87	16.90	
2025-01-17 07:56:32.02	26.82	16.90	
2025-01-17 07:56:32.23	26.78	16.89	
2025-01-17 07:56:32.43	26.73	16.89	
2025-01-17 07:56:32.63	26.69	16.89	
2025-01-17 07:56:32.84	26.64	16.88	
2025-01-17 07:56:33.04	26.60	16.88	
2025-01-17 07:56:33.24	26.56	16.87	
2025-01-17 07:56:33.45	26.51	16.87	
2025-01-17 07:56:33.65	26.46	16.86	
2025-01-17 07:56:33.85	26.42	16.86	
2025-01-17 07:56:34.06	26.37	16.85	
2025-01-17 07:56:34.26	26.33	16.85	
2025-01-17 07:56:34.46	26.29	16.85	
2025-01-17 07:56:34.66	26.24	16.84	
2025-01-17 07:56:34.87	26.20	16.84	
2025-01-17 07:56:35.07	26.15	16.83	
2025-01-17 07:56:35.27	26.11	16.83	
2025-01-17 07:56:35.48	26.06	16.82	
2025-01-17 07:56:35.68	26.02	16.82	
2025-01-17 07:56:35.88	25.97	16.81	
2025-01-17 07:56:36.09	25.93	16.81	
2025-01-17 07:56:36.29	25.88	16.80	
2025-01-17 07:56:36.49	25.84	16.80	
2025-01-17 07:56:36.70	25.79	16.79	
2025-01-17 07:56:36.90	25.75	16.79	
2025-01-17 07:56:37.10	25.70	16.78	
2025-01-17 07:56:37.31	25.66	16.78	
2025-01-17 07:56:37.51	25.61	16.77	
2025-01-17 07:56:37.71	25.57	16.77	
2025-01-17 07:56:37.91	25.53	16.77	
2025-01-17 07:56:38.12	25.48	16.76	
2025-01-17 07:56:38.32	25.44	16.76	
2025-01-17 07:56:38.52	25.39	16.75	
2025-01-17 07:56:38.73	25.35	16.75	
2025-01-17 07:56:38.93	25.30	16.74	
2025-01-17 07:56:39.13	25.26	16.74	
2025-01-17 07:56:39.34	25.21	16.73	
2025-01-17 07:56:39.54	25.17	16.73	
2025-01-17 07:56:39.74	25.13	16.72	
2025-01-17 07:56:39.95	25.08	16.72	
2025-01-17 07:56:40.15	25.04	16.71	
2025-01-17 07:56:40.35	24.99	16.71	
2025-01-17 07:56:40.56	24.95	16.70	
2025-01-17 07:56:40.76	24.90	16.70	
2025-01-17 07:56:40.96	24.86	16.69	
2025-01-17 07:56:41.16	24.82	16.69	
2025-01-17 07:56:41.37	24.77	16.68	
2025-01-17 07:56:41.57	24.73	16.68	
2025-01-17 07:56:41.77	24.68	16.67	
2025-01-17 07:56:41.98	24.64	16.67	
2025-01-17 07:56:42.18	24.59	16.66	
2025-01-17 07:56:42.38	24.55	16.65	
2025-01-17 07:56:42.59	24.50	16.65	
2025-01-17 07:56:42.79	24.46	16.64	
2025-01-17 07:56:42.99	24.42	16.64	
2025-01-17 07:56:43.20	24.37	16.63	
2025-01-17 07:56:43.40	24.33	16.63	
2025-01-17 07:56:43.60	24.28	16.62	
2025-01-17 07:56:43.80	24.24	16.62	
2025-01-17 07:56:44.01	24.20	16.61	
2025-01-17 07:56:44.21	24.15	16.61	
2025-01-17 07:56:44.41	24.11	16.60	
2025-01-17 07:56:44.62	24.06	16.60	
2025-01-17 07:56:44.82	24.02	16.59	
2025-01-17 07:56:45.02	23.98	16.59	
2025-01-17 07:56:45.23	23.93	16.58	
2025-01-17 07:56:45.43	23.89	16.57	
2025-01-17 07:56:45.63	23.84	16.57	
2025-01-17 07:56:45.84	23.80	16.56	
2025-01-17 07:56:46.04	23.76	16.56	
2025-01-17 07:56:46.24	23.71	16.55	
2025-01-17 07:56:46.45	23.67	16.55	
2025-01-17 07:56:46.65	23.62	16.54	
2025-01-17 07:56:46.85	23.58	16.54	
2025-01-17 07:56:47.05	23.54	16.53	
2025-01-17 07:56:47.26	23.49	16.53	
2025-01-17 07:56:47.46	23.45	16.52	
2025-01-17 07:56:47.66	23.41	16.51	
2025-01-17 07:56:47.87	23.36	16.51	
2025-01-17 07:56:48.07	23.32	16.50	
2025-01-17 07:56:48.27	23.27	16.50	
2025-01-17 07:56:48.48	23.23	16.49	
2025-01-17 07:56:48.68	23.19	16.49	
2025-01-17 07:56:48.88	23.14	16.48	
2025-01-17 07:56:49.09	23.10	16.47	
2025-01-17 07:56:49.29	23.05	16.47	
2025-01-17 07:56:49.49	23.01	16.46	
2025-01-17 07:56:49.70	22.97	16.46	
2025-01-17 07:56:49.90	22.92	16.45	
2025-01-17 07:56:50.10	22.88	16.45	
2025-01-17 07:56:50.30	22.84	16.44	
2025-01-17 07:56:50.51	22.79	16.43	
2025-01-17 07:56:50.71	22.75	16.43	
2025-01-17 07:56:50.91	22.71	16.42	
2025-01-17 07:56:51.12	22.66	16.42	
2025-01-17 07:56:51.32	22.62	16.41	
2025-01-17 07:56:51.52	22.58	16.40	
2025-01-17 07:56:51.73	22.53	16.40	
2025-01-17 07:56:51.93	22.49	16.39	
2025-01-17 07:56:52.13	22.45	16.39	
2025-01-17 07:56:52.34	22.40	16.38	
2025-01-17 07:56:52.54	22.36	16.37	
2025-01-17 07:56:52.74	22.32	16.37	
2025-01-17 07:56:52.94	22.27	16.36	
2025-01-17 07:56:53.15	22.23	16.36	
2025-01-17 07:56:53.35	22.18	16.35	
2025-01-17 07:56:53.55	22.14	16.34	
2025-01-17 07:56:53.76	22.10	16.34	
2025-01-17 07:56:53.96	22.05	16.33	
2025-01-17 07:56:54.16	22.01	16.33	
2025-01-17 07:56:54.37	21.97	16.32	
2025-01-17 07:56:54.57	21.93	16.31	
2025-01-17 07:56:54.77	21.88	16.31	
2025-01-17 07:56:54.98	21.84	16.30	
2025-01-17 07:56:55.18	21.80	16.30	
2025-01-17 07:56:55.38	21.75	16.29	
2025-01-17 07:56:55.59	21.71	16.28	
2025-01-17 07:56:55.79	21.67	16.28	
2025-01-17 07:56:55.99	21.62	16.27	
2025-01-17 07:56:56.19	21.58	16.26	
2025-01-17 07:56:56.40	21.54	16.26	
2025-01-17 07:56:56.60	21.49	16.25	
2025-01-17 07:56:56.80	21.45	16.25	
2025-01-17 07:56:57.01	21.41	16.24	
2025-01-17 07:56:57.21	21.36	16.23	
2025-01-17 07:56:57.41	21.32	16.23	
2025-01-17 07:56:57.62	21.28	16.22	
2025-01-17 07:56:57.82	21.24	16.21	
2025-01-17 07:56:58.02	21.19	16.21	
2025-01-17 07:56:58.23	21.15	16.20	
2025-01-17 07:56:58.43	21.11	16.19	
2025-01-17 07:56:58.63	21.06	16.19	
2025-01-17 07:56:58.84	21.02	16.18	
2025-01-17 07:56:59.04	20.98	16.18	
2025-01-17 07:56:59.24	20.94	16.17	
2025-01-17 07:56:59.44	20.89	16.16	
2025-01-17 07:56:59.65	20.85	16.16	
2025-01-17 07:56:59.85	20.81	16.15	
2025-01-17 07:57:00.05	20.77	16.14	
2025-01-17 07:57:00.26	20.72	16.14	
2025-01-17 07:57:00.46	20.68	16.13	
2025-01-17 07:57:00.66	20.64	16.12	
2025-01-17 07:57:00.87	20.59	16.12	
2025-01-17 07:57:01.07	20.55	16.11	
2025-01-17 07:57:01.27	20.51	16.10	
2025-01-17 07:57:01.48	20.47	16.10	
2025-01-17 07:57:01.68	20.42	16.09	
2025-01-17 07:57:01.88	20.38	16.08	
2025-01-17 07:57:02.08	20.34	16.08	
2025-01-17 07:57:02.29	20.30	16.07	
2025-01-17 07:57:02.49	20.25	16.06	
2025-01-17 07:57:02.69	20.21	16.06	
2025-01-17 07:57:02.90	20.17	16.05	
2025-01-17 07:57:03.10	20.13	16.04	
2025-01-17 07:57:03.30	20.08	16.04	
2025-01-17 07:57:03.51	20.04	16.03	
2025-01-17 07:57:03.71	20.00	16.02	
2025-01-17 07:57:03.91	19.96	16.02	
2025-01-17 07:57:04.12	19.91	16.01	
2025-01-17 07:57:04.32	19.87	16.00	
2025-01-17 07:57:04.52	19.83	16.00	
2025-01-17 07:57:04.73	19.79	15.99	
2025-01-17 07:57:04.93	19.74	15.98	
2025-01-17 07:57:05.13	19.70	15.97	
2025-01-17 07:57:05.33	19.66	15.97	
2025-01-17 07:57:05.54	19.62	15.96	
2025-01-17 07:57:05.74	19.58	15.95	
2025-01-17 07:57:05.94	19.54	15.95	
2025-01-17 07:57:06.15	19.49	15.94	
2025-01-17 07:57:06.35	19.45	15.93	
2025-01-17 07:57:06.55	19.41	15.93	
2025-01-17 07:57:06.76	19.37	15.92	
2025-01-17 07:57:06.96	19.32	15.91	
2025-01-17 07:57:07.16	19.28	15.91	
2025-01-17 07:57:07.37	19.24	15.90	
2025-01-17 07:57:07.57	19.20	15.89	
2025-01-17 07:57:07.77	19.16	15.88	
2025-01-17 07:57:07.98	19.11	15.88	
2025-01-17 07:57:08.18	19.07	15.87	
2025-01-17 07:57:08.38	19.03	15.86	
2025-01-17 07:57:08.58	18.99	15.86	
2025-01-17 07:57:08.79	18.95	15.85	
2025-01-17 07:57:08.99	18.90	15.84	
2025-01-17 07:57:09.19	18.86	15.83	
2025-01-17 07:57:09.40	18.82	15.83	
2025-01-17 07:57:09.60	18.78	15.82	
2025-01-17 07:57:09.80	18.74	15.81	
2025-01-17 07:57:10.01	18.69	15.81	
2025-01-17 07:57:10.21	18.65	15.80	
2025-01-17 07:57:10.41	18.61	15.79	
2025-01-17 07:57:10.62	18.57	15.78	
2025-01-17 07:57:10.82	18.53	15.78	
2025-01-17 07:57:11.02	18.49	15.77	
2025-01-17 07:57:11.23	18.44	15.76	
2025-01-17 07:57:11.43	18.40	15.75	
2025-01-17 07:57:11.63	18.36	15.75	
2025-01-17 07:57:11.83	18.32	15.74	
2025-01-17 07:57:12.04	18.28	15.73	
2025-01-17 07:57:12.24	18.24	15.73	
2025-01-17 07:57:12.44	18.20	15.72	
2025-01-17 07:57:12.65	18.15	15.71	
2025-01-17 07:57:12.85	18.11	15.70	
2025-01-17 07:57:13.05	18.07	15.70	
2025-01-17 07:57:13.26	18.03	15.69	
2025-01-17 07:57:13.46	17.99	15.68	
2025-01-17 07:57:13.66	17.95	15.67	
2025-01-17 07:57:13.87	17.90	15.67	
2025-01-17 07:57:14.07	17.86	15.66	
2025-01-17 07:57:14.27	17.82	15.65	
2025-01-17 07:57:14.47	17.78	15.64	
2025-01-17 07:57:14.68	17.74	15.64	
2025-01-17 07:57:14.88	17.70	15.63	
2025-01-17 07:57:15.08	17.66	15.62	
2025-01-17 07:57:15.29	17.62	15.61	
2025-01-17 07:57:15.49	17.58	15.61	
2025-01-17 07:57:15.69	17.54	15.60	
2025-01-17 07:57:15.90	17.49	15.59	
2025-01-17 07:57:16.10	17.45	15.58	
2025-01-17 07:57:16.30	17.41	15.58	
2025-01-17 07:57:16.51	17.37	15.57	
2025-01-17 07:57:16.71	17.33	15.56	
2025-01-17 07:57:16.91	17.29	15.55	
2025-01-17 07:57:17.12	17.25	15.54	
2025-01-17 07:57:17.32	17.21	15.54	
2025-01-17 07:57:17.52	17.17	15.53	
2025-01-17 07:57:17.72	17.12	15.52	
2025-01-17 07:57:17.93	17.08	15.51	
2025-01-17 07:57:18.13	17.04	15.51	
2025-01-17 07:57:18.33	17.00	15.50	
2025-01-17 07:57:18.54	16.96	15.49	
2025-01-17 07:57:18.74	16.92	15.48	
2025-01-17 07:57:18.94	16.88	15.48	
2025-01-17 07:57:19.15	16.84	15.47	
2025-01-17 07:57:19.35	16.80	15.46	
2025-01-17 07:57:19.55	16.76	15.45	
2025-01-17 07:57:19.76	16.71	15.44	
2025-01-17 07:57:19.96	16.67	15.44	
2025-01-17 07:57:20.16	16.63	15.43	
2025-01-17 07:57:20.37	16.59	15.42	
2025-01-17 07:57:20.57	16.55	15.41	
2025-01-17 07:57:20.77	16.51	15.40	
2025-01-17 07:57:20.97	16.47	15.40	
2025-01-17 07:57:21.18	16.43	15.39	
2025-01-17 07:57:21.38	16.39	15.38	
2025-01-17 07:57:21.58	16.35	15.37	
2025-01-17 07:57:21.79	16.31	15.36	
2025-01-17 07:57:21.99	16.27	15.36	
2025-01-17 07:57:22.19	16.23	15.35	
2025-01-17 07:57:22.40	16.19	15.34	
2025-01-17 07:57:22.60	16.15	15.33	
2025-01-17 07:57:22.80	16.11	15.33	
2025-01-17 07:57:23.01	16.07	15.32	
2025-01-17 07:57:23.21	16.03	15.31	
2025-01-17 07:57:23.41	15.99	15.30	
2025-01-17 07:57:23.61	15.95	15.29	
2025-01-17 07:57:23.82	15.90	15.28	
2025-01-17 07:57:24.02	15.87	15.28	
2025-01-17 07:57:24.22	15.83	15.27	
2025-01-17 07:57:24.43	15.78	15.26	
2025-01-17 07:57:24.63	15.74	15.25	
2025-01-17 07:57:24.83	15.70	15.24	
2025-01-17 07:57:25.04	15.66	15.24	
2025-01-17 07:57:25.24	15.62	15.23	
2025-01-17 07:57:25.44	15.58	15.22	
2025-01-17 07:57:25.65	15.54	15.21	
2025-01-17 07:57:25.85	15.50	15.20	
2025-01-17 07:57:26.05	15.46	15.20	
2025-01-17 07:57:26.26	15.42	15.19	
2025-01-17 07:57:26.46	15.38	15.18	
2025-01-17 07:57:26.66	15.34	15.17	
2025-01-17 07:57:26.86	15.30	15.16	
2025-01-17 07:57:27.07	15.26	15.15	
2025-01-17 07:57:27.27	15.22	15.15	
2025-01-17 07:57:27.47	15.18	15.14	
2025-01-17 07:57:27.68	15.14	15.13	
2025-01-17 07:57:27.88	15.10	15.12	
2025-01-17 07:57:28.08	15.06	15.11	
2025-01-17 07:57:28.29	15.02	15.10	
2025-01-17 07:57:28.49	14.98	15.10	
2025-01-17 07:57:28.69	14.95	15.09	
2025-01-17 07:57:28.90	14.90	15.08	
2025-01-17 07:57:29.10	14.86	15.07	
2025-01-17 07:57:29.30	14.83	15.06	
2025-01-17 07:57:29.51	14.78	15.05	
2025-01-17 07:57:29.71	14.75	15.05	
2025-01-17 07:57:29.91	14.71	15.04	
2025-01-17 07:57:30.11	14.67	15.03	
2025-01-17 07:57:30.32	14.63	15.02	
2025-01-17 07:57:30.52	14.59	15.01	
2025-01-17 07:57:30.72	14.55	15.00	
2025-01-17 07:57:30.93	14.51	15.00	
2025-01-17 07:57:31.13	14.47	14.99	
2025-01-17 07:57:31.33	14.43	14.98	
2025-01-17 07:57:31.54	14.39	14.97	
2025-01-17 07:57:31.74	14.35	14.96	
2025-01-17 07:57:31.94	14.31	14.95	
2025-01-17 07:57:32.15	14.27	14.94	
2025-01-17 07:57:32.35	14.23	14.94	
2025-01-17 07:57:32.55	14.19	14.93	
2025-01-17 07:57:32.75	14.15	14.92	
2025-01-17 07:57:32.96	14.11	14.91	
2025-01-17 07:57:33.16	14.08	14.90	
2025-01-17 07:57:33.36	14.04	14.89	
2025-01-17 07:57:33.57	14.00	14.88	
2025-01-17 07:57:33.77	13.96	14.88	
2025-01-17 07:57:33.97	13.92	14.87	
2025-01-17 07:57:34.18	13.88	14.86	
2025-01-17 07:57:34.38	13.84	14.85	
2025-01-17 07:57:34.58	13.80	14.84	
2025-01-17 07:57:34.79	13.76	14.83	
2025-01-17 07:57:34.99	13.72	14.82	
2025-01-17 07:57:35.19	13.68	14.82	
2025-01-17 07:57:35.40	13.64	14.81	
2025-01-17 07:57:35.60	13.61	14.80	
2025-01-17 07:57:35.80	13.57	14.79	
2025-01-17 07:57:36.00	13.53	14.78	
2025-01-17 07:57:36.21	13.49	14.77	
2025-01-17 07:57:36.41	13.45	14.76	
2025-01-17 07:57:36.61	13.41	14.76	
2025-01-17 07:57:36.82	13.37	14.75	
2025-01-17 07:57:37.02	13.33	14.74	
2025-01-17 07:57:37.22	13.30	14.73	
2025-01-17 07:57:37.43	13.26	14.72	
2025-01-17 07:57:37.63	13.22	14.71	
2025-01-17 07:57:37.83	13.18	14.70	
2025-01-17 07:57:38.04	13.14	14.69	
2025-01-17 07:57:38.24	13.10	14.68	
2025-01-17 07:57:38.44	13.06	14.68	
2025-01-17 07:57:38.65	13.02	14.67	
2025-01-17 07:57:38.85	12.99	14.66	
2025-01-17 07:57:39.05	12.95	14.65	
2025-01-17 07:57:39.25	12.91	14.64	
2025-01-17 07:57:39.46	12.87	14.63	
2025-01-17 07:57:39.66	12.83	14.62	
2025-01-17 07:57:39.86	12.79	14.61	
2025-01-17 07:57:40.07	12.75	14.60	
2025-01-17 07:57:40.27	12.72	14.60	
2025-01-17 07:57:40.47	12.68	14.59	
2025-01-17 07:57:40.68	12.64	14.58	
2025-01-17 07:57:40.88	12.60	14.57	
2025-01-17 07:57:41.08	12.56	14.56	
2025-01-17 07:57:41.29	12.52	14.55	
2025-01-17 07:57:41.49	12.49	14.54	
2025-01-17 07:57:41.69	12.45	14.53	
2025-01-17 07:57:41.90	12.41	14.52	
2025-01-17 07:57:42.10	12.37	14.51	
2025-01-17 07:57:42.30	12.33	14.51	
2025-01-17 07:57:42.50	12.30	14.50	
2025-01-17 07:57:42.71	12.26	14.49	
2025-01-17 07:57:42.91	12.22	14.48	
2025-01-17 07:57:43.11	12.18	14.47	
2025-01-17 07:57:43.32	12.14	14.46	
2025-01-17 07:57:43.52	12.10	14.45	
2025-01-17 07:57:43.72	12.07	14.44	
2025-01-17 07:57:43.93	12.03	14.43	
2025-01-17 07:57:44.13	11.99	14.42	
2025-01-17 07:57:44.33	11.95	14.42	
2025-01-17 07:57:44.54	11.91	14.41	
2025-01-17 07:57:44.74	11.88	14.40	
2025-01-17 07:57:44.94	11.84	14.39	
2025-01-17 07:57:45.14	11.80	14.38	
2025-01-17 07:57:45.35	11.76	14.37	
2025-01-17 07:57:45.55	11.72	14.36	
2025-01-17 07:57:45.75	11.69	14.35	
2025-01-17 07:57:45.96	11.65	14.34	
2025-01-17 07:57:46.16	11.61	14.33	
2025-01-17 07:57:46.36	11.57	14.32	
2025-01-17 07:57:46.57	11.53	14.31	
2025-01-17 07:57:46.77	11.50	14.31	
2025-01-17 07:57:46.97	11.46	14.30	
2025-01-17 07:57:47.18	11.42	14.29	
2025-01-17 07:57:47.38	11.38	14.28	
2025-01-17 07:57:47.58	11.35	14.27	
2025-01-17 07:57:47.79	11.31	14.26	
2025-01-17 07:57:47.99	11.27	14.25	
2025-01-17 07:57:48.19	11.23	14.24	
2025-01-17 07:57:48.39	11.20	14.23	
2025-01-17 07:57:48.60	11.16	14.22	
2025-01-17 07:57:48.80	11.12	14.21	
2025-01-17 07:57:49.00	11.09	14.20	
2025-01-17 07:57:49.21	11.05	14.19	
2025-01-17 07:57:49.41	11.01	14.18	
2025-01-17 07:57:49.61	10.97	14.18	
2025-01-17 07:57:49.82	10.93	14.17	
2025-01-17 07:57:50.02	10.90	14.16	
2025-01-17 07:57:50.22	10.86	14.15	
2025-01-17 07:57:50.43	10.82	14.14	
2025-01-17 07:57:50.63	10.79	14.13	
2025-01-17 07:57:50.83	10.75	14.12	
2025-01-17 07:57:51.04	10.71	14.11	
2025-01-17 07:57:51.24	10.67	14.10	
2025-01-17 07:57:51.44	10.64	14.09	
2025-01-17 07:57:51.64	10.60	14.08	
2025-01-17 07:57:51.85	10.56	14.07	
2025-01-17 07:57:52.05	10.53	14.06	
2025-01-17 07:57:52.25	10.49	14.05	
2025-01-17 07:57:52.46	10.45	14.04	
2025-01-17 07:57:52.66	10.42	14.03	
2025-01-17 07:57:52.86	10.38	14.02	
2025-01-17 07:57:53.07	10.34	14.01	
2025-01-17 07:57:53.27	10.30	14.01	
2025-01-17 07:57:53.47	10.27	14.00	
2025-01-17 07:57:53.68	10.23	13.99	
2025-01-17 07:57:53.88	10.19	13.98	
2025-01-17 07:57:54.08	10.16	13.97	
2025-01-17 07:57:54.28	10.12	13.96	
2025-01-17 07:57:54.49	10.08	13.95	
2025-01-17 07:57:54.69	10.05	13.94	
2025-01-17 07:57:54.89	10.01	13.93	
2025-01-17 07:57:55.10	9.97	13.92	
2025-01-17 07:57:55.30	9.94	13.91	
2025-01-17 07:57:55.50	9.90	13.90	
2025-01-17 07:57:55.71	9.86	13.89	
2025-01-17 07:57:55.91	9.83	13.88	
2025-01-17 07:57:56.11	9.79	13.87	
2025-01-17 07:57:56.32	9.75	13.86	
2025-01-17 07:57:56.52	9.72	13.85	
2025-01-17 07:57:56.72	9.68	13.84	
2025-01-17 07:57:56.93	9.64	13.83	
2025-01-17 07:57:57.13	9.61	13.82	
2025-01-17 07:57:57.33	9.57	13.81	
2025-01-17 07:57:57.53	9.54	13.80	
2025-01-17 07:57:57.74	9.50	13.79	
2025-01-17 07:57:57.94	9.46	13.79	
2025-01-17 07:57:58.14	9.43	13.78	
2025-01-17 07:57:58.35	9.39	13.77	
2025-01-17 07:57:58.55	9.35	13.76	
2025-01-17 07:57:58.75	9.32	13.75	
2025-01-17 07:57:58.96	9.28	13.74	
2025-01-17 07:57:59.16	9.24	13.73	
2025-01-17 07:57:59.36	9.21	13.72	
2025-01-17 07:57:59.57	9.17	13.71	
2025-01-17 07:57:59.77	9.14	13.70	
2025-01-17 07:57:59.97	9.10	13.69	
2025-01-17 07:58:00.18	9.06	13.68	
2025-01-17 07:58:00.38	9.03	13.67	
2025-01-17 07:58:00.58	8.99	13.66	
2025-01-17 07:58:00.78	8.96	13.65	
2025-01-17 07:58:00.99	8.92	13.64	
2025-01-17 07:58:01.19	8.88	13.63	
2025-01-17 07:58:01.39	8.85	13.62	
2025-01-17 07:58:01.60	8.81	13.61	
2025-01-17 07:58:01.80	8.78	13.60	
2025-01-17 07:58:02.00	8.74	13.59	
2025-01-17 07:58:02.21	8.70	13.58	
2025-01-17 07:58:02.41	8.67	13.57	
2025-01-17 07:58:02.61	8.63	13.56	
2025-01-17 07:58:02.82	8.60	13.55	
2025-01-17 07:58:03.02	8.56	13.54	
2025-01-17 07:58:03.22	8.52	13.53	
2025-01-17 07:58:03.42	8.49	13.52	
2025-01-17 07:58:03.63	8.45	13.51	
2025-01-17 07:58:03.83	8.42	13.50	
2025-01-17 07:58:04.03	8.38	13.49	
2025-01-17 07:58:04.24	8.35	13.48	
2025-01-17 07:58:04.44	8.31	13.47	
2025-01-17 07:58:04.64	8.28	13.46	
2025-01-17 07:58:04.85	8.24	13.45	
2025-01-17 07:58:05.05	8.20	13.44	
2025-01-17 07:58:05.25	8.17	13.43	
2025-01-17 07:58:05.46	8.13	13.42	
2025-01-17 07:58:05.66	8.10	13.41	
2025-01-17 07:58:05.86	8.06	13.40	
2025-01-17 07:58:06.07	8.03	13.39	
2025-01-17 07:58:06.27	7.99	13.38	
2025-01-17 07:58:06.47	7.96	13.37	
2025-01-17 07:58:06.67	7.92	13.36	
2025-01-17 07:58:06.88	7.89	13.35	
2025-01-17 07:58:07.08	7.85	13.34	
2025-01-17 07:58:07.28	7.82	13.33	
2025-01-17 07:58:07.49	7.78	13.32	
2025-01-17 07:58:07.69	7.74	13.31	
2025-01-17 07:58:07.89	7.71	13.30	
2025-01-17 07:58:08.10	7.67	13.29	
2025-01-17 07:58:08.30	7.64	13.28	
2025-01-17 07:58:08.50	7.60	13.27	
2025-01-17 07:58:08.71	7.57	13.26	
2025-01-17 07:58:08.91	7.53	13.25	
2025-01-17 07:58:09.11	7.50	13.24	
2025-01-17 07:58:09.32	7.46	13.23	
2025-01-17 07:58:09.52	7.43	13.22	
2025-01-17 07:58:09.72	7.39	13.21	
2025-01-17 07:58:09.92	7.36	13.20	
2025-01-17 07:58:10.13	7.32	13.19	
2025-01-17 07:58:10.33	7.29	13.18	
2025-01-17 07:58:10.53	7.25	13.17	
2025-01-17 07:58:10.74	7.22	13.16	
2025-01-17 07:58:10.94	7.18	13.15	
2025-01-17 07:58:11.14	7.15	13.14	
2025-01-17 07:58:11.35	7.11	13.13	
2025-01-17 07:58:11.55	7.08	13.12	
2025-01-17 07:58:11.75	7.05	13.11	
2025-01-17 07:58:11.96	7.01	13.10	
2025-01-17 07:58:12.16	6.98	13.09	
2025-01-17 07:58:12.36	6.94	13.08	
2025-01-17 07:58:12.56	6.91	13.07	
2025-01-17 07:58:12.77	6.87	13.06	
2025-01-17 07:58:12.97	6.84	13.05	
2025-01-17 07:58:13.17	6.80	13.04	
2025-01-17 07:58:13.38	6.77	13.03	
2025-01-17 07:58:13.58	6.73	13.02	
2025-01-17 07:58:13.78	6.70	13.01	
2025-01-17 07:58:13.99	6.66	13.00	
2025-01-17 07:58:14.19	6.63	12.99	
2025-01-17 07:58:14.39	6.60	12.98	
2025-01-17 07:58:14.60	6.56	12.97	
2025-01-17 07:58:14.80	6.53	12.96	
2025-01-17 07:58:15.00	6.49	12.95	
2025-01-17 07:58:15.21	6.46	12.94	
2025-01-17 07:58:15.41	6.42	12.93	
2025-01-17 07:58:15.61	6.39	12.92	
2025-01-17 07:58:15.81	6.36	12.91	
2025-01-17 07:58:16.02	6.32	12.90	
2025-01-17 07:58:16.22	6.29	12.89	
2025-01-17 07:58:16.42	6.25	12.88	
2025-01-17 07:58:16.63	6.22	12.86	
2025-01-17 07:58:16.83	6.19	12.85	
2025-01-17 07:58:17.03	6.15	12.84	
2025-01-17 07:58:17.24	6.12	12.83	
2025-01-17 07:58:17.44	6.08	12.82	
2025-01-17 07:58:17.64	6.05	12.81	
2025-01-17 07:58:17.85	6.01	12.80	
2025-01-17 07:58:18.05	5.98	12.79	
2025-01-17 07:58:18.25	5.95	12.78	
2025-01-17 07:58:18.46	5.91	12.77	
2025-01-17 07:58:18.66	5.88	12.76	
2025-01-17 07:58:18.86	5.85	12.75	
2025-01-17 07:58:19.06	5.81	12.74	
2025-01-17 07:58:19.27	5.78	12.73	
2025-01-17 07:58:19.47	5.74	12.72	
2025-01-17 07:58:19.67	5.71	12.71	
2025-01-17 07:58:19.88	5.68	12.70	
2025-01-17 07:58:20.08	5.64	12.69	
2025-01-17 07:58:20.28	5.61	12.68	
2025-01-17 07:58:20.49	5.58	12.67	
2025-01-17 07:58:20.69	5.54	12.66	
2025-01-17 07:58:20.89	5.51	12.65	
