passes_logs/2025/01/17/SPB_Silybum_02/SPB_Silybum_02__20250117_111353_AQUA_rec.log

#Pass ID: 20250117_111353_AQUA
#Satellite: AQUA
#Configuration: AQUA
#Start time: 2025-01-17 11:21:57

#Version: 2.0.20230423
#Station: SPB_Silybum_02
#Location: 30.233357 lon 59.946436 lat
#TLE: 1 27424U 02022A   25016.84910416  .00001840  00000+0  38758-3 0  9998
#TLE: 2 27424  98.3592 333.5297 0001787 109.3464 277.9036 14.60690037207895

#Time	Az	El	Level	Level2	SNR	BER	Gain	Gain2
2025-01-17 11:21:59.33	347.37	32.41	
2025-01-17 11:21:59.54	347.36	32.36	
2025-01-17 11:21:59.74	347.35	32.32	
2025-01-17 11:21:59.94	347.34	32.27	
2025-01-17 11:22:00.14	347.33	32.22	
2025-01-17 11:22:00.35	347.32	32.17	
2025-01-17 11:22:00.55	347.31	32.13	
2025-01-17 11:22:00.75	347.29	32.08	
2025-01-17 11:22:00.96	347.28	32.03	
2025-01-17 11:22:01.16	347.27	31.98	
2025-01-17 11:22:01.36	347.26	31.94	
2025-01-17 11:22:01.57	347.25	31.89	
2025-01-17 11:22:01.77	347.24	31.84	
2025-01-17 11:22:01.97	347.23	31.79	
2025-01-17 11:22:02.17	347.22	31.75	
2025-01-17 11:22:02.38	347.21	31.70	
2025-01-17 11:22:02.58	347.20	31.65	
2025-01-17 11:22:02.78	347.19	31.61	
2025-01-17 11:22:02.99	347.18	31.56	
2025-01-17 11:22:03.19	347.17	31.51	
2025-01-17 11:22:03.39	347.16	31.47	
2025-01-17 11:22:03.60	347.15	31.42	
2025-01-17 11:22:03.80	347.14	31.37	
2025-01-17 11:22:04.00	347.13	31.33	
2025-01-17 11:22:04.20	347.12	31.28	
2025-01-17 11:22:04.41	347.11	31.23	
2025-01-17 11:22:04.61	347.10	31.19	
2025-01-17 11:22:04.81	347.09	31.14	
2025-01-17 11:22:05.02	347.08	31.09	
2025-01-17 11:22:05.22	347.07	31.05	
2025-01-17 11:22:05.42	347.06	31.00	
2025-01-17 11:22:05.62	347.05	30.96	
2025-01-17 11:22:05.83	347.04	30.91	
2025-01-17 11:22:06.03	347.03	30.87	
2025-01-17 11:22:06.23	347.02	30.82	
2025-01-17 11:22:06.44	347.01	30.77	
2025-01-17 11:22:06.64	347.00	30.73	
2025-01-17 11:22:06.84	346.99	30.68	
2025-01-17 11:22:07.05	346.98	30.64	
2025-01-17 11:22:07.25	346.97	30.59	
2025-01-17 11:22:07.45	346.96	30.55	
2025-01-17 11:22:07.65	346.95	30.50	
2025-01-17 11:22:07.86	346.94	30.46	
2025-01-17 11:22:08.06	346.93	30.41	
2025-01-17 11:22:08.26	346.92	30.37	
2025-01-17 11:22:08.47	346.91	30.32	
2025-01-17 11:22:08.67	346.91	30.28	
2025-01-17 11:22:08.87	346.90	30.24	
2025-01-17 11:22:09.08	346.89	30.19	
2025-01-17 11:22:09.28	346.88	30.15	
2025-01-17 11:22:09.48	346.87	30.10	
2025-01-17 11:22:09.68	346.86	30.06	
2025-01-17 11:22:09.89	346.85	30.01	
2025-01-17 11:22:10.09	346.84	29.97	
2025-01-17 11:22:10.29	346.83	29.93	
2025-01-17 11:22:10.50	346.82	29.88	
2025-01-17 11:22:10.70	346.81	29.84	
2025-01-17 11:22:10.90	346.80	29.79	
2025-01-17 11:22:11.11	346.79	29.75	
2025-01-17 11:22:11.31	346.79	29.70	
2025-01-17 11:22:11.51	346.78	29.66	
2025-01-17 11:22:11.71	346.77	29.62	
2025-01-17 11:22:11.92	346.76	29.57	
2025-01-17 11:22:12.12	346.75	29.53	
2025-01-17 11:22:12.32	346.74	29.49	
2025-01-17 11:22:12.53	346.73	29.44	
2025-01-17 11:22:12.73	346.72	29.40	
2025-01-17 11:22:12.93	346.71	29.36	
2025-01-17 11:22:13.13	346.71	29.32	
2025-01-17 11:22:13.34	346.70	29.27	
2025-01-17 11:22:13.54	346.69	29.23	
2025-01-17 11:22:13.74	346.68	29.19	
2025-01-17 11:22:13.95	346.67	29.14	
2025-01-17 11:22:14.15	346.66	29.10	
2025-01-17 11:22:14.35	346.65	29.06	
2025-01-17 11:22:14.56	346.64	29.01	
2025-01-17 11:22:14.76	346.64	28.97	
2025-01-17 11:22:14.96	346.63	28.93	
2025-01-17 11:22:15.16	346.62	28.89	
2025-01-17 11:22:15.37	346.61	28.84	
2025-01-17 11:22:15.57	346.60	28.80	
2025-01-17 11:22:15.77	346.59	28.76	
2025-01-17 11:22:15.98	346.58	28.72	
2025-01-17 11:22:16.18	346.58	28.68	
2025-01-17 11:22:16.38	346.57	28.64	
2025-01-17 11:22:16.59	346.56	28.59	
2025-01-17 11:22:16.79	346.55	28.55	
2025-01-17 11:22:16.99	346.54	28.51	
2025-01-17 11:22:17.19	346.54	28.47	
2025-01-17 11:22:17.40	346.53	28.43	
2025-01-17 11:22:17.60	346.52	28.38	
2025-01-17 11:22:17.80	346.51	28.34	
2025-01-17 11:22:18.01	346.50	28.30	
2025-01-17 11:22:18.21	346.49	28.26	
2025-01-17 11:22:18.41	346.49	28.22	
2025-01-17 11:22:18.62	346.48	28.18	
2025-01-17 11:22:18.82	346.47	28.14	
2025-01-17 11:22:19.02	346.46	28.10	
2025-01-17 11:22:19.22	346.45	28.05	
2025-01-17 11:22:19.43	346.45	28.01	
2025-01-17 11:22:19.63	346.44	27.97	
2025-01-17 11:22:19.83	346.43	27.93	
2025-01-17 11:22:20.04	346.42	27.89	
2025-01-17 11:22:20.24	346.41	27.85	
2025-01-17 11:22:20.44	346.41	27.81	
2025-01-17 11:22:20.64	346.40	27.77	
2025-01-17 11:22:20.85	346.39	27.73	
2025-01-17 11:22:21.05	346.38	27.69	
2025-01-17 11:22:21.25	346.37	27.65	
2025-01-17 11:22:21.46	346.37	27.61	
2025-01-17 11:22:21.66	346.36	27.57	
2025-01-17 11:22:21.86	346.35	27.53	
2025-01-17 11:22:22.07	346.34	27.48	
2025-01-17 11:22:22.27	346.34	27.45	
2025-01-17 11:22:22.47	346.33	27.41	
2025-01-17 11:22:22.67	346.32	27.37	
2025-01-17 11:22:22.88	346.31	27.32	
2025-01-17 11:22:23.08	346.30	27.29	
2025-01-17 11:22:23.28	346.30	27.25	
2025-01-17 11:22:23.49	346.29	27.21	
2025-01-17 11:22:23.69	346.28	27.17	
2025-01-17 11:22:23.89	346.27	27.13	
2025-01-17 11:22:24.10	346.27	27.09	
2025-01-17 11:22:24.30	346.26	27.05	
2025-01-17 11:22:24.50	346.25	27.01	
2025-01-17 11:22:24.70	346.24	26.97	
2025-01-17 11:22:24.91	346.24	26.93	
2025-01-17 11:22:25.11	346.23	26.89	
2025-01-17 11:22:25.31	346.22	26.85	
2025-01-17 11:22:25.52	346.22	26.81	
2025-01-17 11:22:25.72	346.21	26.77	
2025-01-17 11:22:25.92	346.20	26.73	
2025-01-17 11:22:26.13	346.19	26.69	
2025-01-17 11:22:26.33	346.19	26.66	
2025-01-17 11:22:26.53	346.18	26.62	
2025-01-17 11:22:26.73	346.17	26.58	
2025-01-17 11:22:26.94	346.16	26.54	
2025-01-17 11:22:27.14	346.16	26.50	
2025-01-17 11:22:27.34	346.15	26.46	
2025-01-17 11:22:27.55	346.14	26.42	
2025-01-17 11:22:27.75	346.14	26.39	
2025-01-17 11:22:27.95	346.13	26.35	
2025-01-17 11:22:28.15	346.12	26.31	
2025-01-17 11:22:28.36	346.11	26.27	
2025-01-17 11:22:28.56	346.11	26.23	
2025-01-17 11:22:28.76	346.10	26.19	
2025-01-17 11:22:28.97	346.09	26.16	
2025-01-17 11:22:29.17	346.09	26.12	
2025-01-17 11:22:29.37	346.08	26.08	
2025-01-17 11:22:29.58	346.07	26.04	
2025-01-17 11:22:29.78	346.07	26.00	
2025-01-17 11:22:29.98	346.06	25.97	
2025-01-17 11:22:30.18	346.05	25.93	
2025-01-17 11:22:30.39	346.04	25.89	
2025-01-17 11:22:30.59	346.04	25.85	
2025-01-17 11:22:30.79	346.03	25.82	
2025-01-17 11:22:31.00	346.02	25.78	
2025-01-17 11:22:31.20	346.02	25.74	
2025-01-17 11:22:31.40	346.01	25.70	
2025-01-17 11:22:31.61	346.00	25.66	
2025-01-17 11:22:31.81	346.00	25.63	
2025-01-17 11:22:32.01	345.99	25.59	
2025-01-17 11:22:32.21	345.98	25.55	
2025-01-17 11:22:32.42	345.98	25.52	
2025-01-17 11:22:32.62	345.97	25.48	
2025-01-17 11:22:32.82	345.96	25.44	
2025-01-17 11:22:33.03	345.96	25.40	
2025-01-17 11:22:33.23	345.95	25.37	
2025-01-17 11:22:33.43	345.94	25.33	
2025-01-17 11:22:33.64	345.94	25.29	
2025-01-17 11:22:33.84	345.93	25.26	
2025-01-17 11:22:34.04	345.92	25.22	
2025-01-17 11:22:34.24	345.92	25.19	
2025-01-17 11:22:34.45	345.91	25.15	
2025-01-17 11:22:34.65	345.90	25.11	
2025-01-17 11:22:34.85	345.90	25.08	
2025-01-17 11:22:35.06	345.89	25.04	
2025-01-17 11:22:35.26	345.88	25.00	
2025-01-17 11:22:35.46	345.88	24.97	
2025-01-17 11:22:35.66	345.87	24.93	
2025-01-17 11:22:35.87	345.87	24.89	
2025-01-17 11:22:36.07	345.86	24.86	
2025-01-17 11:22:36.27	345.85	24.82	
2025-01-17 11:22:36.48	345.85	24.78	
2025-01-17 11:22:36.68	345.84	24.75	
2025-01-17 11:22:36.88	345.83	24.71	
2025-01-17 11:22:37.09	345.83	24.68	
2025-01-17 11:22:37.29	345.82	24.64	
2025-01-17 11:22:37.49	345.82	24.61	
2025-01-17 11:22:37.69	345.81	24.57	
2025-01-17 11:22:37.90	345.80	24.53	
2025-01-17 11:22:38.10	345.80	24.50	
2025-01-17 11:22:38.30	345.79	24.46	
2025-01-17 11:22:38.51	345.78	24.43	
2025-01-17 11:22:38.71	345.78	24.39	
2025-01-17 11:22:38.91	345.77	24.36	
2025-01-17 11:22:39.12	345.77	24.32	
2025-01-17 11:22:39.32	345.76	24.29	
2025-01-17 11:22:39.52	345.75	24.25	
2025-01-17 11:22:39.72	345.75	24.22	
2025-01-17 11:22:39.93	345.74	24.18	
2025-01-17 11:22:40.13	345.74	24.14	
2025-01-17 11:22:40.33	345.73	24.11	
2025-01-17 11:22:40.54	345.72	24.07	
2025-01-17 11:22:40.74	345.72	24.04	
2025-01-17 11:22:40.94	345.71	24.00	
2025-01-17 11:22:41.14	345.71	23.97	
2025-01-17 11:22:41.35	345.70	23.93	
2025-01-17 11:22:41.55	345.69	23.90	
2025-01-17 11:22:41.75	345.69	23.87	
2025-01-17 11:22:41.96	345.68	23.83	
2025-01-17 11:22:42.16	345.68	23.80	
2025-01-17 11:22:42.36	345.67	23.76	
2025-01-17 11:22:42.57	345.66	23.73	
2025-01-17 11:22:42.77	345.66	23.69	
2025-01-17 11:22:42.97	345.65	23.66	
2025-01-17 11:22:43.17	345.65	23.62	
2025-01-17 11:22:43.38	345.64	23.59	
2025-01-17 11:22:43.58	345.63	23.56	
2025-01-17 11:22:43.78	345.63	23.52	
2025-01-17 11:22:43.99	345.62	23.49	
2025-01-17 11:22:44.19	345.62	23.45	
2025-01-17 11:22:44.39	345.61	23.42	
2025-01-17 11:22:44.60	345.61	23.38	
2025-01-17 11:22:44.80	345.60	23.35	
2025-01-17 11:22:45.00	345.59	23.32	
2025-01-17 11:22:45.20	345.59	23.28	
2025-01-17 11:22:45.41	345.58	23.25	
2025-01-17 11:22:45.61	345.58	23.21	
2025-01-17 11:22:45.81	345.57	23.18	
2025-01-17 11:22:46.02	345.57	23.15	
2025-01-17 11:22:46.22	345.56	23.11	
2025-01-17 11:22:46.42	345.56	23.08	
2025-01-17 11:22:46.63	345.55	23.05	
2025-01-17 11:22:46.83	345.54	23.01	
2025-01-17 11:22:47.03	345.54	22.98	
2025-01-17 11:22:47.23	345.53	22.95	
2025-01-17 11:22:47.44	345.53	22.91	
2025-01-17 11:22:47.64	345.52	22.88	
2025-01-17 11:22:47.84	345.52	22.85	
2025-01-17 11:22:48.05	345.51	22.81	
2025-01-17 11:22:48.25	345.51	22.78	
2025-01-17 11:22:48.45	345.50	22.75	
2025-01-17 11:22:48.65	345.50	22.71	
2025-01-17 11:22:48.86	345.49	22.68	
2025-01-17 11:22:49.06	345.48	22.65	
2025-01-17 11:22:49.26	345.48	22.62	
2025-01-17 11:22:49.47	345.47	22.58	
2025-01-17 11:22:49.67	345.47	22.55	
2025-01-17 11:22:49.87	345.46	22.52	
2025-01-17 11:22:50.08	345.46	22.48	
2025-01-17 11:22:50.28	345.45	22.45	
2025-01-17 11:22:50.48	345.45	22.42	
2025-01-17 11:22:50.68	345.44	22.39	
2025-01-17 11:22:50.89	345.44	22.35	
2025-01-17 11:22:51.09	345.43	22.32	
2025-01-17 11:22:51.29	345.43	22.29	
2025-01-17 11:22:51.50	345.42	22.25	
2025-01-17 11:22:51.70	345.42	22.22	
2025-01-17 11:22:51.90	345.41	22.19	
2025-01-17 11:22:52.11	345.40	22.16	
2025-01-17 11:22:52.31	345.40	22.13	
2025-01-17 11:22:52.51	345.39	22.09	
2025-01-17 11:22:52.71	345.39	22.06	
2025-01-17 11:22:52.92	345.38	22.03	
2025-01-17 11:22:53.12	345.38	22.00	
2025-01-17 11:22:53.32	345.37	21.97	
2025-01-17 11:22:53.53	345.37	21.93	
2025-01-17 11:22:53.73	345.36	21.90	
2025-01-17 11:22:53.93	345.36	21.87	
2025-01-17 11:22:54.14	345.35	21.84	
2025-01-17 11:22:54.34	345.35	21.80	
2025-01-17 11:22:54.54	345.34	21.77	
2025-01-17 11:22:54.74	345.34	21.74	
2025-01-17 11:22:54.95	345.33	21.71	
2025-01-17 11:22:55.15	345.33	21.68	
2025-01-17 11:22:55.35	345.32	21.65	
2025-01-17 11:22:55.56	345.32	21.61	
2025-01-17 11:22:55.76	345.31	21.58	
2025-01-17 11:22:55.96	345.31	21.55	
2025-01-17 11:22:56.16	345.30	21.52	
2025-01-17 11:22:56.37	345.30	21.49	
2025-01-17 11:22:56.57	345.29	21.46	
2025-01-17 11:22:56.77	345.29	21.43	
2025-01-17 11:22:56.98	345.28	21.39	
2025-01-17 11:22:57.18	345.28	21.36	
2025-01-17 11:22:57.38	345.27	21.33	
2025-01-17 11:22:57.59	345.27	21.30	
2025-01-17 11:22:57.79	345.26	21.27	
2025-01-17 11:22:57.99	345.26	21.24	
2025-01-17 11:22:58.19	345.25	21.21	
2025-01-17 11:22:58.40	345.25	21.18	
2025-01-17 11:22:58.60	345.25	21.15	
2025-01-17 11:22:58.80	345.24	21.12	
2025-01-17 11:22:59.01	345.24	21.08	
2025-01-17 11:22:59.21	345.23	21.05	
2025-01-17 11:22:59.41	345.23	21.02	
2025-01-17 11:22:59.62	345.22	20.99	
2025-01-17 11:22:59.82	345.22	20.96	
2025-01-17 11:23:00.02	345.21	20.93	
2025-01-17 11:23:00.22	345.21	20.90	
2025-01-17 11:23:00.43	345.20	20.87	
2025-01-17 11:23:00.63	345.20	20.84	
2025-01-17 11:23:00.83	345.19	20.81	
2025-01-17 11:23:01.04	345.19	20.78	
2025-01-17 11:23:01.24	345.18	20.75	
2025-01-17 11:23:01.44	345.18	20.72	
2025-01-17 11:23:01.65	345.17	20.69	
2025-01-17 11:23:01.85	345.17	20.66	
2025-01-17 11:23:02.05	345.17	20.63	
2025-01-17 11:23:02.25	345.16	20.60	
2025-01-17 11:23:02.46	345.16	20.57	
2025-01-17 11:23:02.66	345.15	20.54	
2025-01-17 11:23:02.86	345.15	20.51	
2025-01-17 11:23:03.07	345.14	20.47	
2025-01-17 11:23:03.27	345.14	20.45	
2025-01-17 11:23:03.47	345.13	20.42	
2025-01-17 11:23:03.67	345.13	20.39	
2025-01-17 11:23:03.88	345.12	20.36	
2025-01-17 11:23:04.08	345.12	20.33	
2025-01-17 11:23:04.28	345.12	20.30	
2025-01-17 11:23:04.49	345.11	20.27	
2025-01-17 11:23:04.69	345.11	20.24	
2025-01-17 11:23:04.89	345.10	20.21	
2025-01-17 11:23:05.10	345.10	20.18	
2025-01-17 11:23:05.30	345.09	20.15	
2025-01-17 11:23:05.50	345.09	20.12	
2025-01-17 11:23:05.70	345.08	20.09	
2025-01-17 11:23:05.91	345.08	20.06	
2025-01-17 11:23:06.11	345.08	20.03	
2025-01-17 11:23:06.31	345.07	20.00	
2025-01-17 11:23:06.52	345.07	19.97	
2025-01-17 11:23:06.72	345.06	19.94	
2025-01-17 11:23:06.92	345.06	19.91	
2025-01-17 11:23:07.13	345.05	19.88	
2025-01-17 11:23:07.33	345.05	19.85	
2025-01-17 11:23:07.53	345.05	19.82	
2025-01-17 11:23:07.73	345.04	19.80	
2025-01-17 11:23:07.94	345.04	19.76	
2025-01-17 11:23:08.14	345.03	19.74	
2025-01-17 11:23:08.34	345.03	19.71	
2025-01-17 11:23:08.55	345.02	19.68	
2025-01-17 11:23:08.75	345.02	19.65	
2025-01-17 11:23:08.95	345.02	19.62	
2025-01-17 11:23:09.16	345.01	19.59	
2025-01-17 11:23:09.36	345.01	19.56	
2025-01-17 11:23:09.56	345.00	19.53	
2025-01-17 11:23:09.76	345.00	19.51	
2025-01-17 11:23:09.97	344.99	19.48	
2025-01-17 11:23:10.17	344.99	19.45	
2025-01-17 11:23:10.37	344.99	19.42	
2025-01-17 11:23:10.58	344.98	19.39	
2025-01-17 11:23:10.78	344.98	19.36	
2025-01-17 11:23:10.98	344.97	19.33	
2025-01-17 11:23:11.18	344.97	19.30	
2025-01-17 11:23:11.39	344.96	19.27	
2025-01-17 11:23:11.59	344.96	19.25	
2025-01-17 11:23:11.79	344.96	19.22	
2025-01-17 11:23:12.00	344.95	19.19	
2025-01-17 11:23:12.20	344.95	19.16	
2025-01-17 11:23:12.40	344.94	19.13	
2025-01-17 11:23:12.61	344.94	19.10	
2025-01-17 11:23:12.81	344.94	19.08	
2025-01-17 11:23:13.01	344.93	19.05	
2025-01-17 11:23:13.21	344.93	19.02	
2025-01-17 11:23:13.42	344.92	18.99	
2025-01-17 11:23:13.62	344.92	18.96	
2025-01-17 11:23:13.82	344.92	18.94	
2025-01-17 11:23:14.03	344.91	18.91	
2025-01-17 11:23:14.23	344.91	18.88	
2025-01-17 11:23:14.43	344.90	18.85	
2025-01-17 11:23:14.64	344.90	18.82	
2025-01-17 11:23:14.84	344.90	18.80	
2025-01-17 11:23:15.04	344.89	18.77	
2025-01-17 11:23:15.24	344.89	18.74	
2025-01-17 11:23:15.45	344.88	18.71	
2025-01-17 11:23:15.65	344.88	18.68	
2025-01-17 11:23:15.85	344.88	18.66	
2025-01-17 11:23:16.06	344.87	18.63	
2025-01-17 11:23:16.26	344.87	18.60	
2025-01-17 11:23:16.46	344.86	18.57	
2025-01-17 11:23:16.67	344.86	18.55	
2025-01-17 11:23:16.87	344.86	18.52	
2025-01-17 11:23:17.07	344.85	18.49	
2025-01-17 11:23:17.27	344.85	18.46	
2025-01-17 11:23:17.48	344.85	18.44	
2025-01-17 11:23:17.68	344.84	18.41	
2025-01-17 11:23:17.88	344.84	18.38	
2025-01-17 11:23:18.09	344.83	18.35	
2025-01-17 11:23:18.29	344.83	18.33	
2025-01-17 11:23:18.49	344.83	18.30	
2025-01-17 11:23:18.69	344.82	18.27	
2025-01-17 11:23:18.90	344.82	18.24	
2025-01-17 11:23:19.10	344.82	18.22	
2025-01-17 11:23:19.30	344.81	18.19	
2025-01-17 11:23:19.51	344.81	18.16	
2025-01-17 11:23:19.71	344.80	18.14	
2025-01-17 11:23:19.91	344.80	18.11	
2025-01-17 11:23:20.12	344.80	18.08	
2025-01-17 11:23:20.32	344.79	18.05	
2025-01-17 11:23:20.52	344.79	18.03	
2025-01-17 11:23:20.72	344.79	18.00	
2025-01-17 11:23:20.93	344.78	17.97	
2025-01-17 11:23:21.13	344.78	17.95	
2025-01-17 11:23:21.33	344.77	17.92	
2025-01-17 11:23:21.54	344.77	17.89	
2025-01-17 11:23:21.74	344.77	17.87	
2025-01-17 11:23:21.94	344.76	17.84	
2025-01-17 11:23:22.15	344.76	17.81	
2025-01-17 11:23:22.35	344.76	17.79	
2025-01-17 11:23:22.55	344.75	17.76	
2025-01-17 11:23:22.75	344.75	17.73	
2025-01-17 11:23:22.96	344.74	17.71	
2025-01-17 11:23:23.16	344.74	17.68	
2025-01-17 11:23:23.36	344.74	17.65	
2025-01-17 11:23:23.57	344.73	17.63	
2025-01-17 11:23:23.77	344.73	17.60	
2025-01-17 11:23:23.97	344.73	17.57	
2025-01-17 11:23:24.18	344.72	17.55	
2025-01-17 11:23:24.38	344.72	17.52	
2025-01-17 11:23:24.58	344.72	17.49	
2025-01-17 11:23:24.78	344.71	17.47	
2025-01-17 11:23:24.99	344.71	17.44	
2025-01-17 11:23:25.19	344.71	17.41	
2025-01-17 11:23:25.39	344.70	17.39	
2025-01-17 11:23:25.60	344.70	17.36	
2025-01-17 11:23:25.80	344.70	17.34	
2025-01-17 11:23:26.00	344.69	17.31	
2025-01-17 11:23:26.20	344.69	17.28	
2025-01-17 11:23:26.41	344.68	17.26	
2025-01-17 11:23:26.61	344.68	17.23	
2025-01-17 11:23:26.81	344.68	17.21	
2025-01-17 11:23:27.02	344.67	17.18	
2025-01-17 11:23:27.22	344.67	17.15	
2025-01-17 11:23:27.42	344.67	17.13	
2025-01-17 11:23:27.63	344.66	17.10	
2025-01-17 11:23:27.83	344.66	17.08	
2025-01-17 11:23:28.03	344.66	17.05	
2025-01-17 11:23:28.23	344.65	17.03	
2025-01-17 11:23:28.44	344.65	17.00	
2025-01-17 11:23:28.64	344.65	16.97	
2025-01-17 11:23:28.84	344.64	16.95	
2025-01-17 11:23:29.05	344.64	16.92	
2025-01-17 11:23:29.25	344.64	16.90	
2025-01-17 11:23:29.45	344.63	16.87	
2025-01-17 11:23:29.66	344.63	16.84	
2025-01-17 11:23:29.86	344.63	16.82	
2025-01-17 11:23:30.06	344.62	16.79	
2025-01-17 11:23:30.26	344.62	16.77	
2025-01-17 11:23:30.47	344.62	16.74	
2025-01-17 11:23:30.67	344.61	16.72	
2025-01-17 11:23:30.87	344.61	16.69	
2025-01-17 11:23:31.08	344.61	16.67	
2025-01-17 11:23:31.28	344.60	16.64	
2025-01-17 11:23:31.48	344.60	16.62	
2025-01-17 11:23:31.69	344.60	16.59	
2025-01-17 11:23:31.89	344.59	16.56	
2025-01-17 11:23:32.09	344.59	16.54	
2025-01-17 11:23:32.29	344.59	16.51	
2025-01-17 11:23:32.50	344.58	16.49	
2025-01-17 11:23:32.70	344.58	16.46	
2025-01-17 11:23:32.90	344.58	16.44	
2025-01-17 11:23:33.11	344.57	16.41	
2025-01-17 11:23:33.31	344.57	16.39	
2025-01-17 11:23:33.51	344.57	16.36	
2025-01-17 11:23:33.71	344.56	16.34	
2025-01-17 11:23:33.92	344.56	16.31	
2025-01-17 11:23:34.12	344.56	16.29	
2025-01-17 11:23:34.32	344.55	16.26	
2025-01-17 11:23:34.53	344.55	16.24	
2025-01-17 11:23:34.73	344.55	16.21	
2025-01-17 11:23:34.93	344.55	16.19	
2025-01-17 11:23:35.14	344.54	16.16	
2025-01-17 11:23:35.34	344.54	16.14	
2025-01-17 11:23:35.54	344.54	16.11	
2025-01-17 11:23:35.74	344.53	16.09	
2025-01-17 11:23:35.95	344.53	16.06	
2025-01-17 11:23:36.15	344.53	16.04	
2025-01-17 11:23:36.35	344.52	16.02	
2025-01-17 11:23:36.56	344.52	15.99	
2025-01-17 11:23:36.76	344.52	15.97	
2025-01-17 11:23:36.96	344.51	15.94	
2025-01-17 11:23:37.17	344.51	15.92	
2025-01-17 11:23:37.37	344.51	15.89	
2025-01-17 11:23:37.57	344.50	15.87	
2025-01-17 11:23:37.77	344.50	15.84	
2025-01-17 11:23:37.98	344.50	15.82	
2025-01-17 11:23:38.18	344.50	15.79	
2025-01-17 11:23:38.38	344.49	15.77	
2025-01-17 11:23:38.59	344.49	15.75	
2025-01-17 11:23:38.79	344.49	15.72	
2025-01-17 11:23:38.99	344.48	15.70	
2025-01-17 11:23:39.19	344.48	15.67	
2025-01-17 11:23:39.40	344.48	15.65	
2025-01-17 11:23:39.60	344.47	15.62	
2025-01-17 11:23:39.80	344.47	15.60	
2025-01-17 11:23:40.01	344.47	15.58	
2025-01-17 11:23:40.21	344.47	15.55	
2025-01-17 11:23:40.41	344.46	15.53	
2025-01-17 11:23:40.62	344.46	15.50	
2025-01-17 11:23:40.82	344.46	15.48	
2025-01-17 11:23:41.02	344.45	15.46	
2025-01-17 11:23:41.22	344.45	15.43	
2025-01-17 11:23:41.43	344.45	15.41	
2025-01-17 11:23:41.63	344.44	15.38	
2025-01-17 11:23:41.83	344.44	15.36	
2025-01-17 11:23:42.04	344.44	15.34	
2025-01-17 11:23:42.24	344.44	15.31	
2025-01-17 11:23:42.44	344.43	15.29	
2025-01-17 11:23:42.65	344.43	15.26	
2025-01-17 11:23:42.85	344.43	15.24	
2025-01-17 11:23:43.05	344.42	15.22	
2025-01-17 11:23:43.25	344.42	15.19	
2025-01-17 11:23:43.46	344.42	15.17	
2025-01-17 11:23:43.66	344.42	15.15	
2025-01-17 11:23:43.86	344.41	15.12	
2025-01-17 11:23:44.07	344.41	15.10	
2025-01-17 11:23:44.27	344.41	15.07	
2025-01-17 11:23:44.47	344.40	15.05	
2025-01-17 11:23:44.68	344.40	15.03	
2025-01-17 11:23:44.88	344.40	15.00	
2025-01-17 11:23:45.08	344.40	14.98	
2025-01-17 11:23:45.28	344.39	14.96	
2025-01-17 11:23:45.49	344.39	14.93	
2025-01-17 11:23:45.69	344.39	14.91	
2025-01-17 11:23:45.89	344.38	14.89	
2025-01-17 11:23:46.10	344.38	14.86	
2025-01-17 11:23:46.30	344.38	14.84	
2025-01-17 11:23:46.50	344.38	14.82	
2025-01-17 11:23:46.70	344.37	14.79	
2025-01-17 11:23:46.91	344.37	14.77	
2025-01-17 11:23:47.11	344.37	14.75	
2025-01-17 11:23:47.31	344.36	14.72	
2025-01-17 11:23:47.52	344.36	14.70	
2025-01-17 11:23:47.72	344.36	14.68	
2025-01-17 11:23:47.92	344.36	14.65	
2025-01-17 11:23:48.13	344.35	14.63	
2025-01-17 11:23:48.33	344.35	14.61	
2025-01-17 11:23:48.53	344.35	14.58	
2025-01-17 11:23:48.73	344.35	14.56	
2025-01-17 11:23:48.94	344.34	14.54	
2025-01-17 11:23:49.14	344.34	14.51	
2025-01-17 11:23:49.34	344.34	14.49	
2025-01-17 11:23:49.55	344.33	14.47	
2025-01-17 11:23:49.75	344.33	14.45	
2025-01-17 11:23:49.95	344.33	14.42	
2025-01-17 11:23:50.16	344.33	14.40	
2025-01-17 11:23:50.36	344.32	14.38	
2025-01-17 11:23:50.56	344.32	14.35	
2025-01-17 11:23:50.76	344.32	14.33	
2025-01-17 11:23:50.97	344.32	14.31	
2025-01-17 11:23:51.17	344.31	14.29	
2025-01-17 11:23:51.37	344.31	14.26	
2025-01-17 11:23:51.58	344.31	14.24	
2025-01-17 11:23:51.78	344.31	14.22	
2025-01-17 11:23:51.98	344.30	14.19	
2025-01-17 11:23:52.19	344.30	14.17	
2025-01-17 11:23:52.39	344.30	14.15	
2025-01-17 11:23:52.59	344.29	14.13	
2025-01-17 11:23:52.79	344.29	14.10	
2025-01-17 11:23:53.00	344.29	14.08	
2025-01-17 11:23:53.20	344.29	14.06	
2025-01-17 11:23:53.40	344.28	14.04	
2025-01-17 11:23:53.61	344.28	14.01	
2025-01-17 11:23:53.81	344.28	13.99	
2025-01-17 11:23:54.01	344.28	13.97	
2025-01-17 11:23:54.21	344.27	13.95	
2025-01-17 11:23:54.42	344.27	13.92	
2025-01-17 11:23:54.62	344.27	13.90	
2025-01-17 11:23:54.82	344.27	13.88	
2025-01-17 11:23:55.03	344.26	13.86	
2025-01-17 11:23:55.23	344.26	13.83	
2025-01-17 11:23:55.43	344.26	13.81	
2025-01-17 11:23:55.64	344.26	13.79	
2025-01-17 11:23:55.84	344.25	13.77	
2025-01-17 11:23:56.04	344.25	13.74	
2025-01-17 11:23:56.24	344.25	13.72	
2025-01-17 11:23:56.45	344.25	13.70	
2025-01-17 11:23:56.65	344.24	13.68	
2025-01-17 11:23:56.85	344.24	13.66	
2025-01-17 11:23:57.06	344.24	13.63	
2025-01-17 11:23:57.26	344.24	13.61	
2025-01-17 11:23:57.46	344.23	13.59	
2025-01-17 11:23:57.67	344.23	13.57	
2025-01-17 11:23:57.87	344.23	13.54	
2025-01-17 11:23:58.07	344.23	13.52	
2025-01-17 11:23:58.27	344.22	13.50	
2025-01-17 11:23:58.48	344.22	13.48	
2025-01-17 11:23:58.68	344.22	13.46	
2025-01-17 11:23:58.88	344.22	13.44	
2025-01-17 11:23:59.09	344.21	13.41	
2025-01-17 11:23:59.29	344.21	13.39	
2025-01-17 11:23:59.49	344.21	13.37	
2025-01-17 11:23:59.70	344.21	13.35	
2025-01-17 11:23:59.90	344.20	13.33	
2025-01-17 11:24:00.10	344.20	13.30	
2025-01-17 11:24:00.30	344.20	13.28	
2025-01-17 11:24:00.51	344.20	13.26	
2025-01-17 11:24:00.71	344.19	13.24	
2025-01-17 11:24:00.91	344.19	13.22	
2025-01-17 11:24:01.12	344.19	13.19	
2025-01-17 11:24:01.32	344.19	13.17	
2025-01-17 11:24:01.52	344.18	13.15	
2025-01-17 11:24:01.72	344.18	13.13	
2025-01-17 11:24:01.93	344.18	13.11	
2025-01-17 11:24:02.13	344.18	13.09	
2025-01-17 11:24:02.33	344.18	13.07	
2025-01-17 11:24:02.54	344.17	13.04	
2025-01-17 11:24:02.74	344.17	13.02	
2025-01-17 11:24:02.94	344.17	13.00	
2025-01-17 11:24:03.15	344.17	12.98	
2025-01-17 11:24:03.35	344.16	12.96	
2025-01-17 11:24:03.55	344.16	12.94	
2025-01-17 11:24:03.75	344.16	12.92	
2025-01-17 11:24:03.96	344.16	12.89	
2025-01-17 11:24:04.16	344.15	12.87	
2025-01-17 11:24:04.36	344.15	12.85	
2025-01-17 11:24:04.57	344.15	12.83	
2025-01-17 11:24:04.77	344.15	12.81	
2025-01-17 11:24:04.97	344.14	12.79	
2025-01-17 11:24:05.18	344.14	12.76	
2025-01-17 11:24:05.38	344.14	12.74	
2025-01-17 11:24:05.58	344.14	12.72	
2025-01-17 11:24:05.78	344.14	12.70	
2025-01-17 11:24:05.99	344.13	12.68	
2025-01-17 11:24:06.19	344.13	12.66	
2025-01-17 11:24:06.39	344.13	12.64	
2025-01-17 11:24:06.60	344.13	12.62	
2025-01-17 11:24:06.80	344.12	12.60	
2025-01-17 11:24:07.00	344.12	12.57	
2025-01-17 11:24:07.21	344.12	12.55	
2025-01-17 11:24:07.41	344.12	12.53	
2025-01-17 11:24:07.61	344.12	12.51	
2025-01-17 11:24:07.81	344.11	12.49	
2025-01-17 11:24:08.02	344.11	12.47	
2025-01-17 11:24:08.22	344.11	12.45	
2025-01-17 11:24:08.42	344.11	12.43	
2025-01-17 11:24:08.63	344.10	12.41	
2025-01-17 11:24:08.83	344.10	12.39	
2025-01-17 11:24:09.03	344.10	12.36	
2025-01-17 11:24:09.23	344.10	12.34	
2025-01-17 11:24:09.44	344.10	12.32	
2025-01-17 11:24:09.64	344.09	12.30	
2025-01-17 11:24:09.84	344.09	12.28	
2025-01-17 11:24:10.05	344.09	12.26	
2025-01-17 11:24:10.25	344.09	12.24	
2025-01-17 11:24:10.45	344.08	12.22	
2025-01-17 11:24:10.66	344.08	12.20	
2025-01-17 11:24:10.86	344.08	12.18	
2025-01-17 11:24:11.06	344.08	12.16	
2025-01-17 11:24:11.26	344.08	12.14	
2025-01-17 11:24:11.47	344.07	12.12	
2025-01-17 11:24:11.67	344.07	12.09	
2025-01-17 11:24:11.87	344.07	12.07	
2025-01-17 11:24:12.08	344.07	12.05	
2025-01-17 11:24:12.28	344.07	12.03	
2025-01-17 11:24:12.48	344.06	12.01	
2025-01-17 11:24:12.69	344.06	11.99	
2025-01-17 11:24:12.89	344.06	11.97	
2025-01-17 11:24:13.09	344.06	11.95	
2025-01-17 11:24:13.29	344.05	11.93	
2025-01-17 11:24:13.50	344.05	11.91	
2025-01-17 11:24:13.70	344.05	11.89	
2025-01-17 11:24:13.90	344.05	11.87	
2025-01-17 11:24:14.11	344.05	11.85	
2025-01-17 11:24:14.31	344.04	11.83	
2025-01-17 11:24:14.51	344.04	11.81	
2025-01-17 11:24:14.72	344.04	11.79	
2025-01-17 11:24:14.92	344.04	11.77	
2025-01-17 11:24:15.12	344.04	11.75	
2025-01-17 11:24:15.32	344.03	11.73	
2025-01-17 11:24:15.53	344.03	11.71	
2025-01-17 11:24:15.73	344.03	11.69	
2025-01-17 11:24:15.93	344.03	11.67	
2025-01-17 11:24:16.14	344.03	11.64	
2025-01-17 11:24:16.34	344.02	11.62	
2025-01-17 11:24:16.54	344.02	11.60	
2025-01-17 11:24:16.74	344.02	11.59	
2025-01-17 11:24:16.95	344.02	11.56	
2025-01-17 11:24:17.15	344.02	11.54	
2025-01-17 11:24:17.35	344.01	11.52	
2025-01-17 11:24:17.56	344.01	11.50	
2025-01-17 11:24:17.76	344.01	11.48	
2025-01-17 11:24:17.96	344.01	11.46	
2025-01-17 11:24:18.17	344.01	11.44	
2025-01-17 11:24:18.37	344.00	11.42	
2025-01-17 11:24:18.57	344.00	11.40	
2025-01-17 11:24:18.77	344.00	11.38	
2025-01-17 11:24:18.98	344.00	11.36	
2025-01-17 11:24:19.18	344.00	11.34	
2025-01-17 11:24:19.38	343.99	11.32	
2025-01-17 11:24:19.59	343.99	11.30	
2025-01-17 11:24:19.79	343.99	11.28	
2025-01-17 11:24:19.99	343.99	11.26	
2025-01-17 11:24:20.20	343.99	11.24	
2025-01-17 11:24:20.40	343.98	11.22	
2025-01-17 11:24:20.60	343.98	11.20	
2025-01-17 11:24:20.80	343.98	11.19	
2025-01-17 11:24:21.01	343.98	11.16	
2025-01-17 11:24:21.21	343.98	11.15	
2025-01-17 11:24:21.41	343.97	11.13	
2025-01-17 11:24:21.62	343.97	11.11	
2025-01-17 11:24:21.82	343.97	11.09	
2025-01-17 11:24:22.02	343.97	11.07	
2025-01-17 11:24:22.23	343.97	11.05	
2025-01-17 11:24:22.43	343.96	11.03	
2025-01-17 11:24:22.63	343.96	11.01	
2025-01-17 11:24:22.83	343.96	10.99	
2025-01-17 11:24:23.04	343.96	10.97	
2025-01-17 11:24:23.24	343.96	10.95	
2025-01-17 11:24:23.44	343.95	10.93	
2025-01-17 11:24:23.65	343.95	10.91	
2025-01-17 11:24:23.85	343.95	10.89	
2025-01-17 11:24:24.05	343.95	10.87	
2025-01-17 11:24:24.25	343.95	10.85	
2025-01-17 11:24:24.46	343.94	10.83	
2025-01-17 11:24:24.66	343.94	10.81	
2025-01-17 11:24:24.86	343.94	10.79	
2025-01-17 11:24:25.07	343.94	10.77	
2025-01-17 11:24:25.27	343.94	10.75	
2025-01-17 11:24:25.47	343.94	10.73	
2025-01-17 11:24:25.68	343.93	10.71	
2025-01-17 11:24:25.88	343.93	10.69	
2025-01-17 11:24:26.08	343.93	10.68	
2025-01-17 11:24:26.28	343.93	10.66	
2025-01-17 11:24:26.49	343.93	10.64	
2025-01-17 11:24:26.69	343.92	10.62	
2025-01-17 11:24:26.89	343.92	10.60	
2025-01-17 11:24:27.10	343.92	10.58	
2025-01-17 11:24:27.30	343.92	10.56	
2025-01-17 11:24:27.50	343.92	10.54	
2025-01-17 11:24:27.71	343.92	10.52	
2025-01-17 11:24:27.91	343.91	10.50	
2025-01-17 11:24:28.11	343.91	10.48	
2025-01-17 11:24:28.31	343.91	10.46	
2025-01-17 11:24:28.52	343.91	10.44	
2025-01-17 11:24:28.72	343.91	10.43	
2025-01-17 11:24:28.92	343.90	10.41	
2025-01-17 11:24:29.13	343.90	10.39	
2025-01-17 11:24:29.33	343.90	10.37	
2025-01-17 11:24:29.53	343.90	10.35	
2025-01-17 11:24:29.74	343.90	10.33	
2025-01-17 11:24:29.94	343.90	10.31	
2025-01-17 11:24:30.14	343.89	10.29	
2025-01-17 11:24:30.34	343.89	10.27	
2025-01-17 11:24:30.55	343.89	10.25	
2025-01-17 11:24:30.75	343.89	10.23	
2025-01-17 11:24:30.95	343.89	10.22	
2025-01-17 11:24:31.16	343.88	10.20	
2025-01-17 11:24:31.36	343.88	10.18	
2025-01-17 11:24:31.56	343.88	10.16	
2025-01-17 11:24:31.76	343.88	10.14	
2025-01-17 11:24:31.97	343.88	10.12	
2025-01-17 11:24:32.17	343.88	10.10	
2025-01-17 11:24:32.37	343.87	10.08	
2025-01-17 11:24:32.58	343.87	10.06	
2025-01-17 11:24:32.78	343.87	10.05	
2025-01-17 11:24:32.98	343.87	10.03	
2025-01-17 11:24:33.19	343.87	10.01	
2025-01-17 11:24:33.39	343.87	9.99	
2025-01-17 11:24:33.59	343.86	9.97	
2025-01-17 11:24:33.79	343.86	9.95	
2025-01-17 11:24:34.00	343.86	9.93	
2025-01-17 11:24:34.20	343.86	9.91	
2025-01-17 11:24:34.40	343.86	9.90	
2025-01-17 11:24:34.61	343.86	9.88	
2025-01-17 11:24:34.81	343.85	9.86	
2025-01-17 11:24:35.01	343.85	9.84	
2025-01-17 11:24:35.22	343.85	9.82	
2025-01-17 11:24:35.42	343.85	9.80	
2025-01-17 11:24:35.62	343.85	9.78	
2025-01-17 11:24:35.82	343.85	9.77	
2025-01-17 11:24:36.03	343.84	9.75	
2025-01-17 11:24:36.23	343.84	9.73	
2025-01-17 11:24:36.43	343.84	9.71	
2025-01-17 11:24:36.64	343.84	9.69	
2025-01-17 11:24:36.84	343.84	9.67	
2025-01-17 11:24:37.04	343.84	9.65	
2025-01-17 11:24:37.24	343.83	9.64	
2025-01-17 11:24:37.45	343.83	9.62	
2025-01-17 11:24:37.65	343.83	9.60	
2025-01-17 11:24:37.85	343.83	9.58	
2025-01-17 11:24:38.06	343.83	9.56	
2025-01-17 11:24:38.26	343.83	9.54	
2025-01-17 11:24:38.46	343.82	9.53	
2025-01-17 11:24:38.67	343.82	9.51	
2025-01-17 11:24:38.87	343.82	9.49	
2025-01-17 11:24:39.07	343.82	9.47	
2025-01-17 11:24:39.27	343.82	9.45	
2025-01-17 11:24:39.48	343.82	9.43	
2025-01-17 11:24:39.68	343.81	9.41	
2025-01-17 11:24:39.88	343.81	9.40	
2025-01-17 11:24:40.09	343.81	9.38	
2025-01-17 11:24:40.29	343.81	9.36	
2025-01-17 11:24:40.49	343.81	9.34	
2025-01-17 11:24:40.70	343.81	9.32	
2025-01-17 11:24:40.90	343.80	9.31	
2025-01-17 11:24:41.10	343.80	9.29	
2025-01-17 11:24:41.30	343.80	9.27	
2025-01-17 11:24:41.51	343.80	9.25	
2025-01-17 11:24:41.71	343.80	9.23	
2025-01-17 11:24:41.91	343.80	9.21	
2025-01-17 11:24:42.12	343.79	9.20	
2025-01-17 11:24:42.32	343.79	9.18	
2025-01-17 11:24:42.52	343.79	9.16	
2025-01-17 11:24:42.73	343.79	9.14	
2025-01-17 11:24:42.93	343.79	9.12	
2025-01-17 11:24:43.13	343.79	9.11	
2025-01-17 11:24:43.33	343.79	9.09	
2025-01-17 11:24:43.54	343.78	9.07	
2025-01-17 11:24:43.74	343.78	9.05	
2025-01-17 11:24:43.94	343.78	9.03	
2025-01-17 11:24:44.15	343.78	9.02	
2025-01-17 11:24:44.35	343.78	9.00	
2025-01-17 11:24:44.55	343.78	8.98	
2025-01-17 11:24:44.75	343.77	8.96	
2025-01-17 11:24:44.96	343.77	8.94	
2025-01-17 11:24:45.16	343.77	8.93	
2025-01-17 11:24:45.36	343.77	8.91	
2025-01-17 11:24:45.57	343.77	8.89	
2025-01-17 11:24:45.77	343.77	8.87	
2025-01-17 11:24:45.97	343.77	8.85	
2025-01-17 11:24:46.18	343.76	8.84	
2025-01-17 11:24:46.38	343.76	8.82	
2025-01-17 11:24:46.58	343.76	8.80	
2025-01-17 11:24:46.78	343.76	8.78	
2025-01-17 11:24:46.99	343.76	8.77	
2025-01-17 11:24:47.19	343.76	8.75	
2025-01-17 11:24:47.39	343.76	8.73	
2025-01-17 11:24:47.60	343.75	8.71	
2025-01-17 11:24:47.80	343.75	8.69	
2025-01-17 11:24:48.00	343.75	8.68	
2025-01-17 11:24:48.21	343.75	8.66	
2025-01-17 11:24:48.41	343.75	8.64	
2025-01-17 11:24:48.61	343.75	8.62	
2025-01-17 11:24:48.81	343.74	8.61	
2025-01-17 11:24:49.02	343.74	8.59	
2025-01-17 11:24:49.22	343.74	8.57	
2025-01-17 11:24:49.42	343.74	8.55	
2025-01-17 11:24:49.63	343.74	8.54	
2025-01-17 11:24:49.83	343.74	8.52	
2025-01-17 11:24:50.03	343.74	8.50	
2025-01-17 11:24:50.24	343.73	8.48	
2025-01-17 11:24:50.44	343.73	8.47	
2025-01-17 11:24:50.64	343.73	8.45	
2025-01-17 11:24:50.84	343.73	8.43	
2025-01-17 11:24:51.05	343.73	8.41	
2025-01-17 11:24:51.25	343.73	8.40	
2025-01-17 11:24:51.45	343.73	8.38	
2025-01-17 11:24:51.66	343.72	8.36	
2025-01-17 11:24:51.86	343.72	8.34	
2025-01-17 11:24:52.06	343.72	8.33	
2025-01-17 11:24:52.26	343.72	8.31	
2025-01-17 11:24:52.47	343.72	8.29	
2025-01-17 11:24:52.67	343.72	8.27	
2025-01-17 11:24:52.87	343.72	8.26	
2025-01-17 11:24:53.08	343.71	8.24	
2025-01-17 11:24:53.28	343.71	8.22	
2025-01-17 11:24:53.48	343.71	8.20	
2025-01-17 11:24:53.69	343.71	8.19	
2025-01-17 11:24:53.89	343.71	8.17	
2025-01-17 11:24:54.09	343.71	8.15	
2025-01-17 11:24:54.29	343.71	8.13	
2025-01-17 11:24:54.50	343.70	8.12	
2025-01-17 11:24:54.70	343.70	8.10	
2025-01-17 11:24:54.90	343.70	8.08	
2025-01-17 11:24:55.11	343.70	8.07	
2025-01-17 11:24:55.31	343.70	8.05	
2025-01-17 11:24:55.51	343.70	8.03	
2025-01-17 11:24:55.72	343.70	8.01	
2025-01-17 11:24:55.92	343.70	8.00	
2025-01-17 11:24:56.12	343.69	7.98	
2025-01-17 11:24:56.32	343.69	7.96	
2025-01-17 11:24:56.53	343.69	7.94	
2025-01-17 11:24:56.73	343.69	7.93	
2025-01-17 11:24:56.93	343.69	7.91	
2025-01-17 11:24:57.14	343.69	7.89	
2025-01-17 11:24:57.34	343.69	7.88	
2025-01-17 11:24:57.54	343.68	7.86	
2025-01-17 11:24:57.75	343.68	7.84	
2025-01-17 11:24:57.95	343.68	7.83	
2025-01-17 11:24:58.15	343.68	7.81	
2025-01-17 11:24:58.35	343.68	7.79	
2025-01-17 11:24:58.56	343.68	7.77	
2025-01-17 11:24:58.76	343.68	7.76	
2025-01-17 11:24:58.96	343.68	7.74	
2025-01-17 11:24:59.17	343.67	7.72	
2025-01-17 11:24:59.37	343.67	7.71	
2025-01-17 11:24:59.57	343.67	7.69	
2025-01-17 11:24:59.77	343.67	7.67	
2025-01-17 11:24:59.98	343.67	7.66	
2025-01-17 11:25:00.20	343.67	7.64	
2025-01-17 11:25:00.40	343.67	7.62	
2025-01-17 11:25:00.60	343.66	7.60	
2025-01-17 11:25:00.81	343.66	7.59	
2025-01-17 11:25:01.01	343.66	7.57	
2025-01-17 11:25:01.21	343.66	7.55	
2025-01-17 11:25:01.41	343.66	7.54	
2025-01-17 11:25:01.62	343.66	7.52	
2025-01-17 11:25:01.82	343.66	7.50	
2025-01-17 11:25:02.02	343.66	7.49	
2025-01-17 11:25:02.23	343.65	7.47	
2025-01-17 11:25:02.43	343.65	7.45	
2025-01-17 11:25:02.63	343.65	7.44	
2025-01-17 11:25:02.84	343.65	7.42	
2025-01-17 11:25:03.04	343.65	7.40	
2025-01-17 11:25:03.24	343.65	7.39	
2025-01-17 11:25:03.44	343.65	7.37	
2025-01-17 11:25:03.65	343.65	7.35	
2025-01-17 11:25:03.85	343.64	7.33	
2025-01-17 11:25:04.05	343.64	7.32	
2025-01-17 11:25:04.26	343.64	7.30	
2025-01-17 11:25:04.46	343.64	7.28	
2025-01-17 11:25:04.66	343.64	7.27	
2025-01-17 11:25:04.86	343.64	7.25	
2025-01-17 11:25:05.07	343.64	7.23	
2025-01-17 11:25:05.27	343.64	7.22	
2025-01-17 11:25:05.47	343.63	7.20	
2025-01-17 11:25:05.68	343.63	7.18	
2025-01-17 11:25:05.88	343.63	7.17	
2025-01-17 11:25:06.08	343.63	7.15	
2025-01-17 11:25:06.29	343.63	7.14	
2025-01-17 11:25:06.49	343.63	7.12	
2025-01-17 11:25:06.69	343.63	7.10	
2025-01-17 11:25:06.89	343.63	7.09	
2025-01-17 11:25:07.10	343.62	7.07	
2025-01-17 11:25:07.30	343.62	7.05	
2025-01-17 11:25:07.50	343.62	7.04	
2025-01-17 11:25:07.71	343.62	7.02	
2025-01-17 11:25:07.91	343.62	7.00	
2025-01-17 11:25:08.11	343.62	6.99	
2025-01-17 11:25:08.32	343.62	6.97	
2025-01-17 11:25:08.52	343.62	6.95	
2025-01-17 11:25:08.72	343.61	6.94	
2025-01-17 11:25:08.92	343.61	6.92	
2025-01-17 11:25:09.13	343.61	6.90	
2025-01-17 11:25:09.33	343.61	6.89	
2025-01-17 11:25:09.53	343.61	6.87	
2025-01-17 11:25:09.74	343.61	6.86	
2025-01-17 11:25:09.94	343.61	6.84	
2025-01-17 11:25:10.14	343.61	6.82	
2025-01-17 11:25:10.35	343.60	6.81	
2025-01-17 11:25:10.55	343.60	6.79	
2025-01-17 11:25:10.75	343.60	6.77	
2025-01-17 11:25:10.95	343.60	6.76	
2025-01-17 11:25:11.16	343.60	6.74	
2025-01-17 11:25:11.36	343.60	6.73	
2025-01-17 11:25:11.56	343.60	6.71	
2025-01-17 11:25:11.77	343.60	6.69	
2025-01-17 11:25:11.97	343.60	6.68	
2025-01-17 11:25:12.17	343.59	6.66	
2025-01-17 11:25:12.37	343.59	6.64	
2025-01-17 11:25:12.58	343.59	6.63	
2025-01-17 11:25:12.78	343.59	6.61	
2025-01-17 11:25:12.98	343.59	6.60	
2025-01-17 11:25:13.19	343.59	6.58	
2025-01-17 11:25:13.39	343.59	6.56	
2025-01-17 11:25:13.59	343.59	6.55	
2025-01-17 11:25:13.80	343.59	6.53	
2025-01-17 11:25:14.00	343.58	6.51	
2025-01-17 11:25:14.20	343.58	6.50	
2025-01-17 11:25:14.40	343.58	6.48	
2025-01-17 11:25:14.61	343.58	6.47	
2025-01-17 11:25:14.81	343.58	6.45	
2025-01-17 11:25:15.01	343.58	6.43	
2025-01-17 11:25:15.22	343.58	6.42	
2025-01-17 11:25:15.42	343.58	6.40	
2025-01-17 11:25:15.62	343.58	6.39	
2025-01-17 11:25:15.83	343.57	6.37	
2025-01-17 11:25:16.03	343.57	6.35	
2025-01-17 11:25:16.23	343.57	6.34	
2025-01-17 11:25:16.43	343.57	6.32	
2025-01-17 11:25:16.64	343.57	6.31	
2025-01-17 11:25:16.84	343.57	6.29	
2025-01-17 11:25:17.04	343.57	6.27	
2025-01-17 11:25:17.25	343.57	6.26	
2025-01-17 11:25:17.45	343.57	6.24	
2025-01-17 11:25:17.65	343.56	6.23	
2025-01-17 11:25:17.86	343.56	6.21	
2025-01-17 11:25:18.06	343.56	6.19	
2025-01-17 11:25:18.26	343.56	6.18	
2025-01-17 11:25:18.46	343.56	6.16	
2025-01-17 11:25:18.67	343.56	6.15	
2025-01-17 11:25:18.87	343.56	6.13	
2025-01-17 11:25:19.07	343.56	6.12	
2025-01-17 11:25:19.28	343.56	6.10	
2025-01-17 11:25:19.48	343.55	6.08	
2025-01-17 11:25:19.68	343.55	6.07	
2025-01-17 11:25:19.88	343.55	6.05	
2025-01-17 11:25:20.09	343.55	6.04	
2025-01-17 11:25:20.29	343.55	6.02	
2025-01-17 11:25:20.49	343.55	6.01	
2025-01-17 11:25:20.70	343.55	5.99	
2025-01-17 11:25:20.90	343.55	5.97	
2025-01-17 11:25:21.10	343.55	5.96	
2025-01-17 11:25:21.31	343.54	5.94	
2025-01-17 11:25:21.51	343.54	5.93	
2025-01-17 11:25:21.71	343.54	5.91	
2025-01-17 11:25:21.91	343.54	5.90	
2025-01-17 11:25:22.12	343.54	5.88	
2025-01-17 11:25:22.32	343.54	5.86	
2025-01-17 11:25:22.52	343.54	5.85	
2025-01-17 11:25:22.73	343.54	5.83	
2025-01-17 11:25:22.93	343.54	5.82	
2025-01-17 11:25:23.13	343.54	5.80	
2025-01-17 11:25:23.34	343.53	5.78	
2025-01-17 11:25:23.54	343.53	5.77	
2025-01-17 11:25:23.74	343.53	5.75	
2025-01-17 11:25:23.94	343.53	5.74	
2025-01-17 11:25:24.15	343.53	5.72	
2025-01-17 11:25:24.35	343.53	5.71	
2025-01-17 11:25:24.55	343.53	5.69	
2025-01-17 11:25:24.76	343.53	5.68	
2025-01-17 11:25:24.96	343.53	5.66	
2025-01-17 11:25:25.16	343.53	5.65	
2025-01-17 11:25:25.36	343.52	5.63	
2025-01-17 11:25:25.57	343.52	5.61	
2025-01-17 11:25:25.77	343.52	5.60	
2025-01-17 11:25:25.97	343.52	5.58	
2025-01-17 11:25:26.18	343.52	5.57	
2025-01-17 11:25:26.38	343.52	5.55	
2025-01-17 11:25:26.58	343.52	5.54	
2025-01-17 11:25:26.79	343.52	5.52	
2025-01-17 11:25:26.99	343.52	5.51	
2025-01-17 11:25:27.19	343.52	5.49	
2025-01-17 11:25:27.39	343.51	5.48	
2025-01-17 11:25:27.60	343.51	5.46	
2025-01-17 11:25:27.80	343.51	5.44	
2025-01-17 11:25:28.00	343.51	5.43	
2025-01-17 11:25:28.21	343.51	5.41	
2025-01-17 11:25:28.41	343.51	5.40	
2025-01-17 11:25:28.61	343.51	5.38	
2025-01-17 11:25:28.82	343.51	5.37	
2025-01-17 11:25:29.02	343.51	5.35	
2025-01-17 11:25:29.22	343.51	5.34	
2025-01-17 11:25:29.42	343.50	5.32	
2025-01-17 11:25:29.63	343.50	5.31	
2025-01-17 11:25:29.83	343.50	5.29	
2025-01-17 11:25:30.03	343.50	5.28	
2025-01-17 11:25:30.24	343.50	5.26	
2025-01-17 11:25:30.44	343.50	5.24	
2025-01-17 11:25:30.64	343.50	5.23	
2025-01-17 11:25:30.85	343.50	5.21	
2025-01-17 11:25:31.05	343.50	5.20	
2025-01-17 11:25:31.25	343.50	5.18	
2025-01-17 11:25:31.45	343.50	5.17	
2025-01-17 11:25:31.66	343.49	5.15	
2025-01-17 11:25:31.86	343.49	5.14	
2025-01-17 11:25:32.06	343.49	5.12	
2025-01-17 11:25:32.27	343.49	5.11	
2025-01-17 11:25:32.47	343.49	5.09	
2025-01-17 11:25:32.67	343.49	5.08	
2025-01-17 11:25:32.87	343.49	5.06	
2025-01-17 11:25:33.08	343.49	5.05	
2025-01-17 11:25:33.28	343.49	5.03	
2025-01-17 11:25:33.48	343.49	5.02	
2025-01-17 11:25:33.69	343.48	5.00	
2025-01-17 11:25:33.89	343.48	4.99	
2025-01-17 11:25:34.09	343.48	4.97	
2025-01-17 11:25:34.30	343.48	4.96	
2025-01-17 11:25:34.50	343.48	4.94	
2025-01-17 11:25:34.70	343.48	4.93	
2025-01-17 11:25:34.90	343.48	4.91	
2025-01-17 11:25:35.11	343.48	4.90	
2025-01-17 11:25:35.31	343.48	4.88	
2025-01-17 11:25:35.51	343.48	4.87	
2025-01-17 11:25:35.72	343.48	4.85	
2025-01-17 11:25:35.92	343.48	4.84	
2025-01-17 11:25:36.12	343.47	4.82	
2025-01-17 11:25:36.33	343.47	4.81	
2025-01-17 11:25:36.53	343.47	4.79	
2025-01-17 11:25:36.73	343.47	4.78	
2025-01-17 11:25:36.93	343.47	4.76	
2025-01-17 11:25:37.14	343.47	4.75	
2025-01-17 11:25:37.34	343.47	4.73	
2025-01-17 11:25:37.54	343.47	4.72	
2025-01-17 11:25:37.75	343.47	4.70	
2025-01-17 11:25:37.95	343.47	4.69	
2025-01-17 11:25:38.15	343.47	4.67	
2025-01-17 11:25:38.36	343.46	4.66	
2025-01-17 11:25:38.56	343.46	4.64	
2025-01-17 11:25:38.76	343.46	4.63	
2025-01-17 11:25:38.96	343.46	4.61	
2025-01-17 11:25:39.17	343.46	4.60	
2025-01-17 11:25:39.37	343.46	4.58	
2025-01-17 11:25:39.57	343.46	4.57	
2025-01-17 11:25:39.78	343.46	4.55	
2025-01-17 11:25:39.98	343.46	4.54	
2025-01-17 11:25:40.18	343.46	4.52	
2025-01-17 11:25:40.38	343.46	4.51	
2025-01-17 11:25:40.59	343.45	4.49	
2025-01-17 11:25:40.79	343.45	4.48	
2025-01-17 11:25:40.99	343.45	4.46	
2025-01-17 11:25:41.20	343.45	4.45	
2025-01-17 11:25:41.40	343.45	4.43	
2025-01-17 11:25:41.60	343.45	4.42	
2025-01-17 11:25:41.81	343.45	4.40	
2025-01-17 11:25:42.01	343.45	4.39	
2025-01-17 11:25:42.21	343.45	4.38	
2025-01-17 11:25:42.41	343.45	4.36	
2025-01-17 11:25:42.62	343.45	4.35	
2025-01-17 11:25:42.82	343.45	4.33	
2025-01-17 11:25:43.02	343.44	4.32	
2025-01-17 11:25:43.23	343.44	4.30	
2025-01-17 11:25:43.43	343.44	4.29	
2025-01-17 11:25:43.63	343.44	4.27	
2025-01-17 11:25:43.84	343.44	4.26	
2025-01-17 11:25:44.04	343.44	4.24	
2025-01-17 11:25:44.24	343.44	4.23	
2025-01-17 11:25:44.44	343.44	4.21	
2025-01-17 11:25:44.65	343.44	4.20	
2025-01-17 11:25:44.85	343.44	4.18	
2025-01-17 11:25:45.05	343.44	4.17	
2025-01-17 11:25:45.26	343.44	4.16	
2025-01-17 11:25:45.46	343.44	4.14	
2025-01-17 11:25:45.66	343.43	4.13	
2025-01-17 11:25:45.87	343.43	4.11	
2025-01-17 11:25:46.07	343.43	4.10	
2025-01-17 11:25:46.27	343.43	4.08	
2025-01-17 11:25:46.47	343.43	4.07	
2025-01-17 11:25:46.68	343.43	4.05	
2025-01-17 11:25:46.88	343.43	4.04	
2025-01-17 11:25:47.08	343.43	4.02	
2025-01-17 11:25:47.29	343.43	4.01	
2025-01-17 11:25:47.49	343.43	4.00	

#Closed at: 2025-01-17 11:25:47