passes_logs/2025/01/17/SPB_Silybum_02/SPB_Silybum_02__20250117_091836_TERRA_rec.log

#Pass ID: 20250117_091836_TERRA
#Satellite: TERRA
#Configuration: TERRA
#Start time: 2025-01-17 09:18:35

#Version: 2.0.20230423
#Station: SPB_Silybum_02
#Location: 30.233357 lon 59.946436 lat
#TLE: 1 25994U 99068A   25016.77398677  .00000840  00000+0  18282-3 0  9994
#TLE: 2 25994  98.0212  79.7479 0003409  69.0484  40.6664 14.60398530334334

#Time	Az	El	Level	Level2	SNR	BER	Gain	Gain2
2025-01-17 09:18:37.73	12.37	4.10	
2025-01-17 09:18:37.93	12.36	4.11	
2025-01-17 09:18:38.14	12.35	4.13	
2025-01-17 09:18:38.34	12.34	4.14	
2025-01-17 09:18:38.54	12.33	4.16	
2025-01-17 09:18:38.74	12.33	4.17	
2025-01-17 09:18:38.95	12.32	4.18	
2025-01-17 09:18:39.15	12.31	4.20	
2025-01-17 09:18:39.35	12.30	4.21	
2025-01-17 09:18:39.56	12.29	4.23	
2025-01-17 09:18:39.76	12.28	4.24	
2025-01-17 09:18:39.96	12.27	4.25	
2025-01-17 09:18:40.16	12.26	4.27	
2025-01-17 09:18:40.37	12.25	4.28	
2025-01-17 09:18:40.57	12.24	4.30	
2025-01-17 09:18:40.77	12.23	4.31	
2025-01-17 09:18:40.98	12.22	4.33	
2025-01-17 09:18:41.18	12.21	4.34	
2025-01-17 09:18:41.38	12.20	4.35	
2025-01-17 09:18:41.59	12.19	4.37	
2025-01-17 09:18:41.79	12.18	4.38	
2025-01-17 09:18:41.99	12.17	4.40	
2025-01-17 09:18:42.19	12.16	4.41	
2025-01-17 09:18:42.40	12.15	4.42	
2025-01-17 09:18:42.60	12.15	4.44	
2025-01-17 09:18:42.80	12.14	4.45	
2025-01-17 09:18:43.01	12.13	4.47	
2025-01-17 09:18:43.21	12.12	4.48	
2025-01-17 09:18:43.41	12.11	4.49	
2025-01-17 09:18:43.62	12.10	4.51	
2025-01-17 09:18:43.82	12.09	4.52	
2025-01-17 09:18:44.02	12.08	4.54	
2025-01-17 09:18:44.22	12.07	4.55	
2025-01-17 09:18:44.43	12.06	4.57	
2025-01-17 09:18:44.63	12.05	4.58	
2025-01-17 09:18:44.83	12.04	4.59	
2025-01-17 09:18:45.04	12.03	4.61	
2025-01-17 09:18:45.24	12.02	4.62	
2025-01-17 09:18:45.44	12.01	4.64	
2025-01-17 09:18:45.65	12.00	4.65	
2025-01-17 09:18:45.85	11.99	4.67	
2025-01-17 09:18:46.05	11.98	4.68	
2025-01-17 09:18:46.25	11.97	4.69	
2025-01-17 09:18:46.46	11.96	4.71	
2025-01-17 09:18:46.66	11.95	4.72	
2025-01-17 09:18:46.86	11.94	4.74	
2025-01-17 09:18:47.07	11.93	4.75	
2025-01-17 09:18:47.27	11.92	4.77	
2025-01-17 09:18:47.47	11.91	4.78	
2025-01-17 09:18:47.67	11.90	4.79	
2025-01-17 09:18:47.88	11.89	4.81	
2025-01-17 09:18:48.08	11.88	4.82	
2025-01-17 09:18:48.28	11.87	4.84	
2025-01-17 09:18:48.49	11.86	4.85	
2025-01-17 09:18:48.69	11.85	4.87	
2025-01-17 09:18:48.89	11.84	4.88	
2025-01-17 09:18:49.10	11.83	4.90	
2025-01-17 09:18:49.30	11.82	4.91	
2025-01-17 09:18:49.50	11.81	4.92	
2025-01-17 09:18:49.70	11.80	4.94	
2025-01-17 09:18:49.91	11.79	4.95	
2025-01-17 09:18:50.11	11.78	4.97	
2025-01-17 09:18:50.31	11.77	4.98	
2025-01-17 09:18:50.52	11.76	5.00	
2025-01-17 09:18:50.72	11.75	5.01	
2025-01-17 09:18:50.92	11.74	5.03	
2025-01-17 09:18:51.13	11.73	5.04	
2025-01-17 09:18:51.33	11.72	5.05	
2025-01-17 09:18:51.53	11.71	5.07	
2025-01-17 09:18:51.73	11.70	5.08	
2025-01-17 09:18:51.94	11.69	5.10	
2025-01-17 09:18:52.14	11.68	5.11	
2025-01-17 09:18:52.34	11.67	5.13	
2025-01-17 09:18:52.55	11.66	5.14	
2025-01-17 09:18:52.75	11.65	5.16	
2025-01-17 09:18:52.95	11.64	5.17	
2025-01-17 09:18:53.16	11.63	5.19	
2025-01-17 09:18:53.36	11.62	5.20	
2025-01-17 09:18:53.56	11.61	5.21	
2025-01-17 09:18:53.76	11.60	5.23	
2025-01-17 09:18:53.97	11.59	5.24	
2025-01-17 09:18:54.17	11.58	5.26	
2025-01-17 09:18:54.37	11.57	5.27	
2025-01-17 09:18:54.58	11.56	5.29	
2025-01-17 09:18:54.78	11.55	5.30	
2025-01-17 09:18:54.98	11.54	5.32	
2025-01-17 09:18:55.18	11.53	5.33	
2025-01-17 09:18:55.39	11.52	5.35	
2025-01-17 09:18:55.59	11.51	5.36	
2025-01-17 09:18:55.79	11.50	5.37	
2025-01-17 09:18:56.00	11.49	5.39	
2025-01-17 09:18:56.20	11.48	5.40	
2025-01-17 09:18:56.40	11.47	5.42	
2025-01-17 09:18:56.61	11.46	5.43	
2025-01-17 09:18:56.81	11.45	5.45	
2025-01-17 09:18:57.01	11.44	5.46	
2025-01-17 09:18:57.21	11.43	5.48	
2025-01-17 09:18:57.42	11.42	5.49	
2025-01-17 09:18:57.62	11.41	5.51	
2025-01-17 09:18:57.82	11.40	5.52	
2025-01-17 09:18:58.03	11.39	5.54	
2025-01-17 09:18:58.23	11.38	5.55	
2025-01-17 09:18:58.43	11.37	5.57	
2025-01-17 09:18:58.64	11.35	5.58	
2025-01-17 09:18:58.84	11.34	5.60	
2025-01-17 09:18:59.04	11.33	5.61	
2025-01-17 09:18:59.24	11.32	5.63	
2025-01-17 09:18:59.45	11.31	5.64	
2025-01-17 09:18:59.65	11.30	5.66	
2025-01-17 09:18:59.85	11.29	5.67	
2025-01-17 09:19:00.06	11.28	5.69	
2025-01-17 09:19:00.26	11.27	5.70	
2025-01-17 09:19:00.46	11.26	5.71	
2025-01-17 09:19:00.67	11.25	5.73	
2025-01-17 09:19:00.87	11.24	5.74	
2025-01-17 09:19:01.07	11.23	5.76	
2025-01-17 09:19:01.27	11.22	5.77	
2025-01-17 09:19:01.48	11.21	5.79	
2025-01-17 09:19:01.68	11.20	5.80	
2025-01-17 09:19:01.88	11.19	5.82	
2025-01-17 09:19:02.09	11.17	5.83	
2025-01-17 09:19:02.29	11.16	5.85	
2025-01-17 09:19:02.49	11.15	5.86	
2025-01-17 09:19:02.69	11.14	5.88	
2025-01-17 09:19:02.90	11.13	5.89	
2025-01-17 09:19:03.10	11.12	5.91	
2025-01-17 09:19:03.30	11.11	5.92	
2025-01-17 09:19:03.51	11.10	5.94	
2025-01-17 09:19:03.71	11.09	5.95	
2025-01-17 09:19:03.91	11.08	5.97	
2025-01-17 09:19:04.12	11.07	5.98	
2025-01-17 09:19:04.32	11.06	6.00	
2025-01-17 09:19:04.52	11.05	6.01	
2025-01-17 09:19:04.72	11.04	6.03	
2025-01-17 09:19:04.93	11.02	6.04	
2025-01-17 09:19:05.13	11.01	6.06	
2025-01-17 09:19:05.33	11.00	6.07	
2025-01-17 09:19:05.54	10.99	6.09	
2025-01-17 09:19:05.74	10.98	6.10	
2025-01-17 09:19:05.94	10.97	6.12	
2025-01-17 09:19:06.15	10.96	6.13	
2025-01-17 09:19:06.35	10.95	6.15	
2025-01-17 09:19:06.55	10.94	6.16	
2025-01-17 09:19:06.75	10.93	6.18	
2025-01-17 09:19:06.96	10.91	6.19	
2025-01-17 09:19:07.16	10.90	6.21	
2025-01-17 09:19:07.36	10.89	6.22	
2025-01-17 09:19:07.57	10.88	6.24	
2025-01-17 09:19:07.77	10.87	6.26	
2025-01-17 09:19:07.97	10.86	6.27	
2025-01-17 09:19:08.17	10.85	6.29	
2025-01-17 09:19:08.38	10.84	6.30	
2025-01-17 09:19:08.58	10.83	6.32	
2025-01-17 09:19:08.78	10.82	6.33	
2025-01-17 09:19:08.99	10.80	6.35	
2025-01-17 09:19:09.19	10.79	6.36	
2025-01-17 09:19:09.39	10.78	6.38	
2025-01-17 09:19:09.60	10.77	6.39	
2025-01-17 09:19:09.80	10.76	6.41	
2025-01-17 09:19:10.00	10.75	6.42	
2025-01-17 09:19:10.20	10.74	6.44	
2025-01-17 09:19:10.41	10.73	6.45	
2025-01-17 09:19:10.61	10.71	6.47	
2025-01-17 09:19:10.81	10.70	6.48	
2025-01-17 09:19:11.02	10.69	6.50	
2025-01-17 09:19:11.22	10.68	6.51	
2025-01-17 09:19:11.42	10.67	6.53	
2025-01-17 09:19:11.63	10.66	6.55	
2025-01-17 09:19:11.83	10.65	6.56	
2025-01-17 09:19:12.03	10.64	6.58	
2025-01-17 09:19:12.23	10.62	6.59	
2025-01-17 09:19:12.44	10.61	6.61	
2025-01-17 09:19:12.64	10.60	6.62	
2025-01-17 09:19:12.84	10.59	6.64	
2025-01-17 09:19:13.05	10.58	6.65	
2025-01-17 09:19:13.25	10.57	6.67	
2025-01-17 09:19:13.45	10.56	6.68	
2025-01-17 09:19:13.66	10.54	6.70	
2025-01-17 09:19:13.86	10.53	6.71	
2025-01-17 09:19:14.06	10.52	6.73	
2025-01-17 09:19:14.26	10.51	6.75	
2025-01-17 09:19:14.47	10.50	6.76	
2025-01-17 09:19:14.67	10.49	6.78	
2025-01-17 09:19:14.87	10.47	6.79	
2025-01-17 09:19:15.08	10.46	6.81	
2025-01-17 09:19:15.28	10.45	6.82	
2025-01-17 09:19:15.48	10.44	6.84	
2025-01-17 09:19:15.68	10.43	6.85	
2025-01-17 09:19:15.89	10.42	6.87	
2025-01-17 09:19:16.09	10.41	6.88	
2025-01-17 09:19:16.29	10.39	6.90	
2025-01-17 09:19:16.50	10.38	6.92	
2025-01-17 09:19:16.70	10.37	6.93	
2025-01-17 09:19:16.90	10.36	6.95	
2025-01-17 09:19:17.11	10.35	6.96	
2025-01-17 09:19:17.31	10.34	6.98	
2025-01-17 09:19:17.51	10.32	6.99	
2025-01-17 09:19:17.71	10.31	7.01	
2025-01-17 09:19:17.92	10.30	7.03	
2025-01-17 09:19:18.12	10.29	7.04	
2025-01-17 09:19:18.32	10.28	7.06	
2025-01-17 09:19:18.53	10.26	7.07	
2025-01-17 09:19:18.73	10.25	7.09	
2025-01-17 09:19:18.93	10.24	7.10	
2025-01-17 09:19:19.14	10.23	7.12	
2025-01-17 09:19:19.34	10.22	7.13	
2025-01-17 09:19:19.54	10.21	7.15	
2025-01-17 09:19:19.74	10.19	7.17	
2025-01-17 09:19:19.95	10.18	7.18	
2025-01-17 09:19:20.15	10.17	7.20	
2025-01-17 09:19:20.35	10.16	7.21	
2025-01-17 09:19:20.56	10.15	7.23	
2025-01-17 09:19:20.76	10.13	7.24	
2025-01-17 09:19:20.96	10.12	7.26	
2025-01-17 09:19:21.17	10.11	7.28	
2025-01-17 09:19:21.37	10.10	7.29	
2025-01-17 09:19:21.57	10.09	7.31	
2025-01-17 09:19:21.77	10.07	7.32	
2025-01-17 09:19:21.98	10.06	7.34	
2025-01-17 09:19:22.18	10.05	7.36	
2025-01-17 09:19:22.38	10.04	7.37	
2025-01-17 09:19:22.59	10.03	7.39	
2025-01-17 09:19:22.79	10.01	7.40	
2025-01-17 09:19:22.99	10.00	7.42	
2025-01-17 09:19:23.19	9.99	7.43	
2025-01-17 09:19:23.40	9.98	7.45	
2025-01-17 09:19:23.60	9.96	7.47	
2025-01-17 09:19:23.80	9.95	7.48	
2025-01-17 09:19:24.01	9.94	7.50	
2025-01-17 09:19:24.21	9.93	7.51	
2025-01-17 09:19:24.41	9.92	7.53	
2025-01-17 09:19:24.62	9.90	7.55	
2025-01-17 09:19:24.82	9.89	7.56	
2025-01-17 09:19:25.02	9.88	7.58	
2025-01-17 09:19:25.22	9.87	7.59	
2025-01-17 09:19:25.43	9.85	7.61	
2025-01-17 09:19:25.63	9.84	7.63	
2025-01-17 09:19:25.83	9.83	7.64	
2025-01-17 09:19:26.04	9.82	7.66	
2025-01-17 09:19:26.24	9.80	7.67	
2025-01-17 09:19:26.44	9.79	7.69	
2025-01-17 09:19:26.65	9.78	7.71	
2025-01-17 09:19:26.85	9.77	7.72	
2025-01-17 09:19:27.05	9.76	7.74	
2025-01-17 09:19:27.25	9.74	7.75	
2025-01-17 09:19:27.46	9.73	7.77	
2025-01-17 09:19:27.66	9.72	7.79	
2025-01-17 09:19:27.86	9.71	7.80	
2025-01-17 09:19:28.07	9.69	7.82	
2025-01-17 09:19:28.27	9.68	7.83	
2025-01-17 09:19:28.47	9.67	7.85	
2025-01-17 09:19:28.68	9.65	7.87	
2025-01-17 09:19:28.88	9.64	7.88	
2025-01-17 09:19:29.08	9.63	7.90	
2025-01-17 09:19:29.28	9.62	7.92	
2025-01-17 09:19:29.49	9.60	7.93	
2025-01-17 09:19:29.69	9.59	7.95	
2025-01-17 09:19:29.89	9.58	7.96	
2025-01-17 09:19:30.10	9.57	7.98	
2025-01-17 09:19:30.30	9.55	8.00	
2025-01-17 09:19:30.50	9.54	8.01	
2025-01-17 09:19:30.70	9.53	8.03	
2025-01-17 09:19:30.91	9.52	8.05	
2025-01-17 09:19:31.11	9.50	8.06	
2025-01-17 09:19:31.31	9.49	8.08	
2025-01-17 09:19:31.52	9.48	8.09	
2025-01-17 09:19:31.72	9.46	8.11	
2025-01-17 09:19:31.92	9.45	8.13	
2025-01-17 09:19:32.13	9.44	8.14	
2025-01-17 09:19:32.33	9.43	8.16	
2025-01-17 09:19:32.53	9.41	8.18	
2025-01-17 09:19:32.73	9.40	8.19	
2025-01-17 09:19:32.94	9.39	8.21	
2025-01-17 09:19:33.14	9.37	8.22	
2025-01-17 09:19:33.34	9.36	8.24	
2025-01-17 09:19:33.55	9.35	8.26	
2025-01-17 09:19:33.75	9.34	8.27	
2025-01-17 09:19:33.95	9.32	8.29	
2025-01-17 09:19:34.16	9.31	8.31	
2025-01-17 09:19:34.36	9.30	8.32	
2025-01-17 09:19:34.56	9.28	8.34	
2025-01-17 09:19:34.76	9.27	8.36	
2025-01-17 09:19:34.97	9.26	8.37	
2025-01-17 09:19:35.17	9.24	8.39	
2025-01-17 09:19:35.37	9.23	8.41	
2025-01-17 09:19:35.58	9.22	8.42	
2025-01-17 09:19:35.78	9.20	8.44	
2025-01-17 09:19:35.98	9.19	8.45	
2025-01-17 09:19:36.19	9.18	8.47	
2025-01-17 09:19:36.39	9.17	8.49	
2025-01-17 09:19:36.59	9.15	8.50	
2025-01-17 09:19:36.79	9.14	8.52	
2025-01-17 09:19:37.00	9.13	8.54	
2025-01-17 09:19:37.20	9.11	8.55	
2025-01-17 09:19:37.40	9.10	8.57	
2025-01-17 09:19:37.61	9.09	8.59	
2025-01-17 09:19:37.81	9.07	8.60	
2025-01-17 09:19:38.01	9.06	8.62	
2025-01-17 09:19:38.21	9.05	8.64	
2025-01-17 09:19:38.42	9.03	8.65	
2025-01-17 09:19:38.62	9.02	8.67	
2025-01-17 09:19:38.82	9.01	8.69	
2025-01-17 09:19:39.03	8.99	8.70	
2025-01-17 09:19:39.23	8.98	8.72	
2025-01-17 09:19:39.43	8.97	8.74	
2025-01-17 09:19:39.64	8.95	8.75	
2025-01-17 09:19:39.84	8.94	8.77	
2025-01-17 09:19:40.04	8.92	8.79	
2025-01-17 09:19:40.24	8.91	8.80	
2025-01-17 09:19:40.45	8.90	8.82	
2025-01-17 09:19:40.65	8.88	8.84	
2025-01-17 09:19:40.85	8.87	8.85	
2025-01-17 09:19:41.06	8.86	8.87	
2025-01-17 09:19:41.26	8.84	8.89	
2025-01-17 09:19:41.46	8.83	8.90	
2025-01-17 09:19:41.67	8.82	8.92	
2025-01-17 09:19:41.87	8.80	8.94	
2025-01-17 09:19:42.07	8.79	8.96	
2025-01-17 09:19:42.27	8.78	8.97	
2025-01-17 09:19:42.48	8.76	8.99	
2025-01-17 09:19:42.68	8.75	9.01	
2025-01-17 09:19:42.88	8.73	9.02	
2025-01-17 09:19:43.09	8.72	9.04	
2025-01-17 09:19:43.29	8.71	9.06	
2025-01-17 09:19:43.49	8.69	9.07	
2025-01-17 09:19:43.70	8.68	9.09	
2025-01-17 09:19:43.90	8.66	9.11	
2025-01-17 09:19:44.10	8.65	9.12	
2025-01-17 09:19:44.30	8.64	9.14	
2025-01-17 09:19:44.51	8.62	9.16	
2025-01-17 09:19:44.71	8.61	9.18	
2025-01-17 09:19:44.91	8.60	9.19	
2025-01-17 09:19:45.12	8.58	9.21	
2025-01-17 09:19:45.32	8.57	9.23	
2025-01-17 09:19:45.52	8.55	9.24	
2025-01-17 09:19:45.72	8.54	9.26	
2025-01-17 09:19:45.93	8.52	9.28	
2025-01-17 09:19:46.13	8.51	9.29	
2025-01-17 09:19:46.33	8.50	9.31	
2025-01-17 09:19:46.54	8.48	9.33	
2025-01-17 09:19:46.74	8.47	9.35	
2025-01-17 09:19:46.94	8.45	9.36	
2025-01-17 09:19:47.15	8.44	9.38	
2025-01-17 09:19:47.35	8.43	9.40	
2025-01-17 09:19:47.55	8.41	9.41	
2025-01-17 09:19:47.75	8.40	9.43	
2025-01-17 09:19:47.96	8.38	9.45	
2025-01-17 09:19:48.16	8.37	9.47	
2025-01-17 09:19:48.36	8.36	9.48	
2025-01-17 09:19:48.57	8.34	9.50	
2025-01-17 09:19:48.77	8.33	9.52	
2025-01-17 09:19:48.97	8.31	9.53	
2025-01-17 09:19:49.18	8.30	9.55	
2025-01-17 09:19:49.38	8.28	9.57	
2025-01-17 09:19:49.58	8.27	9.59	
2025-01-17 09:19:49.78	8.25	9.60	
2025-01-17 09:19:49.99	8.24	9.62	
2025-01-17 09:19:50.19	8.23	9.64	
2025-01-17 09:19:50.39	8.21	9.66	
2025-01-17 09:19:50.60	8.20	9.67	
2025-01-17 09:19:50.80	8.18	9.69	
2025-01-17 09:19:51.00	8.17	9.71	
2025-01-17 09:19:51.21	8.15	9.73	
2025-01-17 09:19:51.41	8.14	9.74	
2025-01-17 09:19:51.61	8.12	9.76	
2025-01-17 09:19:51.81	8.11	9.78	
2025-01-17 09:19:52.02	8.09	9.79	
2025-01-17 09:19:52.22	8.08	9.81	
2025-01-17 09:19:52.42	8.07	9.83	
2025-01-17 09:19:52.63	8.05	9.85	
2025-01-17 09:19:52.83	8.04	9.86	
2025-01-17 09:19:53.03	8.02	9.88	
2025-01-17 09:19:53.23	8.01	9.90	
2025-01-17 09:19:53.44	7.99	9.92	
2025-01-17 09:19:53.64	7.98	9.93	
2025-01-17 09:19:53.84	7.96	9.95	
2025-01-17 09:19:54.05	7.95	9.97	
2025-01-17 09:19:54.25	7.93	9.99	
2025-01-17 09:19:54.45	7.92	10.00	
2025-01-17 09:19:54.66	7.90	10.02	
2025-01-17 09:19:54.86	7.89	10.04	
2025-01-17 09:19:55.06	7.87	10.06	
2025-01-17 09:19:55.26	7.86	10.07	
2025-01-17 09:19:55.47	7.84	10.09	
2025-01-17 09:19:55.67	7.83	10.11	
2025-01-17 09:19:55.87	7.81	10.13	
2025-01-17 09:19:56.08	7.80	10.14	
2025-01-17 09:19:56.28	7.78	10.16	
2025-01-17 09:19:56.48	7.77	10.18	
2025-01-17 09:19:56.69	7.75	10.20	
2025-01-17 09:19:56.89	7.74	10.22	
2025-01-17 09:19:57.09	7.72	10.23	
2025-01-17 09:19:57.29	7.71	10.25	
2025-01-17 09:19:57.50	7.69	10.27	
2025-01-17 09:19:57.70	7.68	10.29	
2025-01-17 09:19:57.90	7.66	10.30	
2025-01-17 09:19:58.11	7.65	10.32	
2025-01-17 09:19:58.31	7.63	10.34	
2025-01-17 09:19:58.51	7.62	10.36	
2025-01-17 09:19:58.71	7.60	10.37	
2025-01-17 09:19:58.92	7.59	10.39	
2025-01-17 09:19:59.12	7.57	10.41	
2025-01-17 09:19:59.32	7.56	10.43	
2025-01-17 09:19:59.53	7.54	10.45	
2025-01-17 09:19:59.73	7.52	10.46	
2025-01-17 09:19:59.93	7.51	10.48	
2025-01-17 09:20:00.14	7.49	10.50	
2025-01-17 09:20:00.34	7.48	10.52	
2025-01-17 09:20:00.54	7.46	10.54	
2025-01-17 09:20:00.74	7.45	10.55	
2025-01-17 09:20:00.95	7.43	10.57	
2025-01-17 09:20:01.15	7.42	10.59	
2025-01-17 09:20:01.35	7.40	10.61	
2025-01-17 09:20:01.56	7.38	10.63	
2025-01-17 09:20:01.76	7.37	10.64	
2025-01-17 09:20:01.96	7.35	10.66	
2025-01-17 09:20:02.17	7.34	10.68	
2025-01-17 09:20:02.37	7.32	10.70	
2025-01-17 09:20:02.57	7.31	10.72	
2025-01-17 09:20:02.77	7.29	10.73	
2025-01-17 09:20:02.98	7.27	10.75	
2025-01-17 09:20:03.18	7.26	10.77	
2025-01-17 09:20:03.38	7.24	10.79	
2025-01-17 09:20:03.59	7.23	10.81	
2025-01-17 09:20:03.79	7.21	10.82	
2025-01-17 09:20:03.99	7.20	10.84	
2025-01-17 09:20:04.20	7.18	10.86	
2025-01-17 09:20:04.40	7.16	10.88	
2025-01-17 09:20:04.60	7.15	10.90	
2025-01-17 09:20:04.80	7.13	10.91	
2025-01-17 09:20:05.01	7.12	10.93	
2025-01-17 09:20:05.21	7.10	10.95	
2025-01-17 09:20:05.41	7.08	10.97	
2025-01-17 09:20:05.62	7.07	10.99	
2025-01-17 09:20:05.82	7.05	11.01	
2025-01-17 09:20:06.02	7.04	11.02	
2025-01-17 09:20:06.23	7.02	11.04	
2025-01-17 09:20:06.43	7.00	11.06	
2025-01-17 09:20:06.63	6.99	11.08	
2025-01-17 09:20:06.83	6.97	11.10	
2025-01-17 09:20:07.04	6.96	11.12	
2025-01-17 09:20:07.24	6.94	11.13	
2025-01-17 09:20:07.44	6.92	11.15	
2025-01-17 09:20:07.65	6.91	11.17	
2025-01-17 09:20:07.85	6.89	11.19	
2025-01-17 09:20:08.05	6.87	11.21	
2025-01-17 09:20:08.25	6.86	11.22	
2025-01-17 09:20:08.46	6.84	11.24	
2025-01-17 09:20:08.66	6.83	11.26	
2025-01-17 09:20:08.86	6.81	11.28	
2025-01-17 09:20:09.07	6.79	11.30	
2025-01-17 09:20:09.27	6.78	11.32	
2025-01-17 09:20:09.47	6.76	11.34	
2025-01-17 09:20:09.68	6.74	11.35	
2025-01-17 09:20:09.88	6.73	11.37	
2025-01-17 09:20:10.08	6.71	11.39	
2025-01-17 09:20:10.28	6.69	11.41	
2025-01-17 09:20:10.49	6.68	11.43	
2025-01-17 09:20:10.69	6.66	11.45	
2025-01-17 09:20:10.89	6.64	11.47	
2025-01-17 09:20:11.10	6.63	11.48	
2025-01-17 09:20:11.30	6.61	11.50	
2025-01-17 09:20:11.50	6.59	11.52	
2025-01-17 09:20:11.71	6.58	11.54	
2025-01-17 09:20:11.91	6.56	11.56	
2025-01-17 09:20:12.11	6.54	11.58	
2025-01-17 09:20:12.31	6.53	11.60	
2025-01-17 09:20:12.52	6.51	11.61	
2025-01-17 09:20:12.72	6.49	11.63	
2025-01-17 09:20:12.92	6.48	11.65	
2025-01-17 09:20:13.13	6.46	11.67	
2025-01-17 09:20:13.33	6.44	11.69	
2025-01-17 09:20:13.53	6.43	11.71	
2025-01-17 09:20:13.74	6.41	11.73	
2025-01-17 09:20:13.94	6.39	11.75	
2025-01-17 09:20:14.14	6.37	11.76	
2025-01-17 09:20:14.34	6.36	11.78	
2025-01-17 09:20:14.55	6.34	11.80	
2025-01-17 09:20:14.75	6.32	11.82	
2025-01-17 09:20:14.95	6.31	11.84	
2025-01-17 09:20:15.16	6.29	11.86	
2025-01-17 09:20:15.36	6.27	11.88	
2025-01-17 09:20:15.56	6.25	11.90	
2025-01-17 09:20:15.76	6.24	11.91	
2025-01-17 09:20:15.97	6.22	11.93	
2025-01-17 09:20:16.17	6.20	11.95	
2025-01-17 09:20:16.37	6.19	11.97	
2025-01-17 09:20:16.58	6.17	11.99	
2025-01-17 09:20:16.78	6.15	12.01	
2025-01-17 09:20:16.98	6.13	12.03	
2025-01-17 09:20:17.19	6.12	12.05	
2025-01-17 09:20:17.39	6.10	12.07	
2025-01-17 09:20:17.59	6.08	12.09	
2025-01-17 09:20:17.79	6.06	12.10	
2025-01-17 09:20:18.00	6.05	12.12	
2025-01-17 09:20:18.20	6.03	12.14	
2025-01-17 09:20:18.40	6.01	12.16	
2025-01-17 09:20:18.61	5.99	12.18	
2025-01-17 09:20:18.81	5.98	12.20	
2025-01-17 09:20:19.01	5.96	12.22	
2025-01-17 09:20:19.22	5.94	12.24	
2025-01-17 09:20:19.42	5.92	12.26	
2025-01-17 09:20:19.62	5.91	12.28	
2025-01-17 09:20:19.82	5.89	12.30	
2025-01-17 09:20:20.03	5.87	12.32	
2025-01-17 09:20:20.23	5.85	12.33	
2025-01-17 09:20:20.43	5.83	12.35	
2025-01-17 09:20:20.64	5.82	12.37	
2025-01-17 09:20:20.84	5.80	12.39	
2025-01-17 09:20:21.04	5.78	12.41	
2025-01-17 09:20:21.24	5.76	12.43	
2025-01-17 09:20:21.45	5.74	12.45	
2025-01-17 09:20:21.65	5.73	12.47	
2025-01-17 09:20:21.85	5.71	12.49	
2025-01-17 09:20:22.06	5.69	12.51	
2025-01-17 09:20:22.26	5.67	12.53	
2025-01-17 09:20:22.46	5.66	12.55	
2025-01-17 09:20:22.67	5.64	12.57	
2025-01-17 09:20:22.87	5.62	12.58	
2025-01-17 09:20:23.07	5.60	12.60	
2025-01-17 09:20:23.27	5.58	12.62	
2025-01-17 09:20:23.48	5.56	12.64	
2025-01-17 09:20:23.68	5.55	12.66	
2025-01-17 09:20:23.88	5.53	12.68	
2025-01-17 09:20:24.09	5.51	12.70	
2025-01-17 09:20:24.29	5.49	12.72	
2025-01-17 09:20:24.49	5.47	12.74	
2025-01-17 09:20:24.70	5.45	12.76	
2025-01-17 09:20:24.90	5.44	12.78	
2025-01-17 09:20:25.10	5.42	12.80	
2025-01-17 09:20:25.30	5.40	12.82	
2025-01-17 09:20:25.51	5.38	12.84	
2025-01-17 09:20:25.71	5.36	12.86	
2025-01-17 09:20:25.91	5.34	12.88	
2025-01-17 09:20:26.12	5.32	12.90	
2025-01-17 09:20:26.32	5.31	12.92	
2025-01-17 09:20:26.52	5.29	12.94	
2025-01-17 09:20:26.73	5.27	12.96	
2025-01-17 09:20:26.93	5.25	12.98	
2025-01-17 09:20:27.13	5.23	12.99	
2025-01-17 09:20:27.33	5.21	13.01	
2025-01-17 09:20:27.54	5.19	13.03	
2025-01-17 09:20:27.74	5.18	13.05	
2025-01-17 09:20:27.94	5.16	13.07	
2025-01-17 09:20:28.15	5.14	13.09	
2025-01-17 09:20:28.35	5.12	13.11	
2025-01-17 09:20:28.55	5.10	13.13	
2025-01-17 09:20:28.75	5.08	13.15	
2025-01-17 09:20:28.96	5.06	13.17	
2025-01-17 09:20:29.16	5.04	13.19	
2025-01-17 09:20:29.36	5.02	13.21	
2025-01-17 09:20:29.57	5.01	13.23	
2025-01-17 09:20:29.77	4.99	13.25	
2025-01-17 09:20:29.97	4.97	13.27	
2025-01-17 09:20:30.18	4.95	13.29	
2025-01-17 09:20:30.38	4.93	13.31	
2025-01-17 09:20:30.58	4.91	13.33	
2025-01-17 09:20:30.78	4.89	13.35	
2025-01-17 09:20:30.99	4.87	13.37	
2025-01-17 09:20:31.19	4.85	13.39	
2025-01-17 09:20:31.39	4.83	13.41	
2025-01-17 09:20:31.60	4.81	13.43	
2025-01-17 09:20:31.80	4.79	13.45	
2025-01-17 09:20:32.00	4.78	13.47	
2025-01-17 09:20:32.21	4.76	13.49	
2025-01-17 09:20:32.41	4.74	13.51	
2025-01-17 09:20:32.61	4.72	13.53	
2025-01-17 09:20:32.81	4.70	13.55	
2025-01-17 09:20:33.02	4.68	13.57	
2025-01-17 09:20:33.22	4.66	13.59	
2025-01-17 09:20:33.42	4.64	13.61	
2025-01-17 09:20:33.63	4.62	13.63	
2025-01-17 09:20:33.83	4.60	13.65	
2025-01-17 09:20:34.03	4.58	13.67	
2025-01-17 09:20:34.24	4.56	13.69	
2025-01-17 09:20:34.44	4.54	13.71	
2025-01-17 09:20:34.64	4.52	13.73	
2025-01-17 09:20:34.84	4.50	13.75	
2025-01-17 09:20:35.05	4.48	13.77	
2025-01-17 09:20:35.25	4.46	13.79	
2025-01-17 09:20:35.45	4.44	13.81	
2025-01-17 09:20:35.66	4.42	13.84	
2025-01-17 09:20:35.86	4.40	13.86	
2025-01-17 09:20:36.06	4.38	13.88	
2025-01-17 09:20:36.26	4.36	13.90	
2025-01-17 09:20:36.47	4.34	13.92	
2025-01-17 09:20:36.67	4.32	13.94	
2025-01-17 09:20:36.87	4.30	13.96	
2025-01-17 09:20:37.08	4.28	13.98	
2025-01-17 09:20:37.28	4.26	14.00	
2025-01-17 09:20:37.48	4.24	14.02	
2025-01-17 09:20:37.69	4.22	14.04	
2025-01-17 09:20:37.89	4.20	14.06	
2025-01-17 09:20:38.09	4.18	14.08	
2025-01-17 09:20:38.29	4.16	14.10	
2025-01-17 09:20:38.50	4.14	14.12	
2025-01-17 09:20:38.70	4.12	14.14	
2025-01-17 09:20:38.90	4.10	14.16	
2025-01-17 09:20:39.11	4.08	14.18	
2025-01-17 09:20:39.31	4.06	14.20	
2025-01-17 09:20:39.51	4.04	14.22	
2025-01-17 09:20:39.72	4.02	14.24	
2025-01-17 09:20:39.92	4.00	14.26	
2025-01-17 09:20:40.12	3.98	14.29	
2025-01-17 09:20:40.32	3.96	14.31	
2025-01-17 09:20:40.53	3.93	14.33	
2025-01-17 09:20:40.73	3.91	14.35	
2025-01-17 09:20:40.93	3.89	14.37	
2025-01-17 09:20:41.14	3.87	14.39	
2025-01-17 09:20:41.34	3.85	14.41	
2025-01-17 09:20:41.54	3.83	14.43	
2025-01-17 09:20:41.75	3.81	14.45	
2025-01-17 09:20:41.95	3.79	14.47	
2025-01-17 09:20:42.15	3.77	14.49	
2025-01-17 09:20:42.35	3.75	14.51	
2025-01-17 09:20:42.56	3.73	14.53	
2025-01-17 09:20:42.76	3.71	14.56	
2025-01-17 09:20:42.96	3.68	14.58	
2025-01-17 09:20:43.17	3.66	14.60	
2025-01-17 09:20:43.37	3.64	14.62	
2025-01-17 09:20:43.57	3.62	14.64	
2025-01-17 09:20:43.77	3.60	14.66	
2025-01-17 09:20:43.98	3.58	14.68	
2025-01-17 09:20:44.18	3.56	14.70	
2025-01-17 09:20:44.38	3.54	14.72	
2025-01-17 09:20:44.59	3.51	14.74	
2025-01-17 09:20:44.79	3.49	14.76	
2025-01-17 09:20:44.99	3.47	14.79	
2025-01-17 09:20:45.20	3.45	14.81	
2025-01-17 09:20:45.40	3.43	14.83	
2025-01-17 09:20:45.60	3.41	14.85	
2025-01-17 09:20:45.80	3.39	14.87	
2025-01-17 09:20:46.01	3.36	14.89	
2025-01-17 09:20:46.21	3.34	14.91	
2025-01-17 09:20:46.41	3.32	14.93	
2025-01-17 09:20:46.62	3.30	14.95	
2025-01-17 09:20:46.82	3.28	14.98	
2025-01-17 09:20:47.02	3.26	15.00	
2025-01-17 09:20:47.23	3.23	15.02	
2025-01-17 09:20:47.43	3.21	15.04	
2025-01-17 09:20:47.63	3.19	15.06	
2025-01-17 09:20:47.83	3.17	15.08	
2025-01-17 09:20:48.04	3.15	15.10	
2025-01-17 09:20:48.24	3.13	15.12	
2025-01-17 09:20:48.44	3.10	15.15	
2025-01-17 09:20:48.65	3.08	15.17	
2025-01-17 09:20:48.85	3.06	15.19	
2025-01-17 09:20:49.05	3.04	15.21	
2025-01-17 09:20:49.26	3.02	15.23	
2025-01-17 09:20:49.46	2.99	15.25	
2025-01-17 09:20:49.66	2.97	15.27	
2025-01-17 09:20:49.86	2.95	15.30	
2025-01-17 09:20:50.07	2.93	15.32	
2025-01-17 09:20:50.27	2.91	15.34	
2025-01-17 09:20:50.47	2.88	15.36	
2025-01-17 09:20:50.68	2.86	15.38	
2025-01-17 09:20:50.88	2.84	15.40	
2025-01-17 09:20:51.08	2.82	15.42	
2025-01-17 09:20:51.28	2.79	15.45	
2025-01-17 09:20:51.49	2.77	15.47	
2025-01-17 09:20:51.69	2.75	15.49	
2025-01-17 09:20:51.89	2.73	15.51	
2025-01-17 09:20:52.10	2.70	15.53	
2025-01-17 09:20:52.30	2.68	15.55	
2025-01-17 09:20:52.50	2.66	15.58	
2025-01-17 09:20:52.71	2.64	15.60	
2025-01-17 09:20:52.91	2.61	15.62	
2025-01-17 09:20:53.11	2.59	15.64	
2025-01-17 09:20:53.31	2.57	15.66	
2025-01-17 09:20:53.52	2.54	15.68	
2025-01-17 09:20:53.72	2.52	15.71	
2025-01-17 09:20:53.92	2.50	15.73	
2025-01-17 09:20:54.13	2.48	15.75	
2025-01-17 09:20:54.33	2.45	15.77	
2025-01-17 09:20:54.53	2.43	15.79	
2025-01-17 09:20:54.74	2.41	15.82	
2025-01-17 09:20:54.94	2.38	15.84	
2025-01-17 09:20:55.14	2.36	15.86	
2025-01-17 09:20:55.34	2.34	15.88	
2025-01-17 09:20:55.55	2.31	15.90	
2025-01-17 09:20:55.75	2.29	15.92	
2025-01-17 09:20:55.95	2.27	15.95	
2025-01-17 09:20:56.16	2.24	15.97	
2025-01-17 09:20:56.36	2.22	15.99	
2025-01-17 09:20:56.56	2.20	16.01	
2025-01-17 09:20:56.77	2.17	16.03	
2025-01-17 09:20:56.97	2.15	16.06	
2025-01-17 09:20:57.17	2.13	16.08	
2025-01-17 09:20:57.37	2.10	16.10	
2025-01-17 09:20:57.58	2.08	16.12	
2025-01-17 09:20:57.78	2.06	16.14	
2025-01-17 09:20:57.98	2.03	16.17	
2025-01-17 09:20:58.19	2.01	16.19	
2025-01-17 09:20:58.39	1.99	16.21	
2025-01-17 09:20:58.59	1.96	16.23	
2025-01-17 09:20:58.79	1.94	16.25	
2025-01-17 09:20:59.00	1.91	16.28	
2025-01-17 09:20:59.20	1.89	16.30	
2025-01-17 09:20:59.40	1.87	16.32	
2025-01-17 09:20:59.61	1.84	16.34	
2025-01-17 09:20:59.81	1.82	16.37	
2025-01-17 09:21:00.01	1.79	16.39	
2025-01-17 09:21:00.22	1.77	16.41	
2025-01-17 09:21:00.42	1.75	16.43	
2025-01-17 09:21:00.62	1.72	16.45	
2025-01-17 09:21:00.82	1.70	16.48	
2025-01-17 09:21:01.03	1.67	16.50	
2025-01-17 09:21:01.23	1.65	16.52	
2025-01-17 09:21:01.43	1.63	16.54	
2025-01-17 09:21:01.64	1.60	16.57	
2025-01-17 09:21:01.84	1.58	16.59	
2025-01-17 09:21:02.04	1.55	16.61	
2025-01-17 09:21:02.25	1.53	16.63	
2025-01-17 09:21:02.45	1.50	16.66	
2025-01-17 09:21:02.65	1.48	16.68	
2025-01-17 09:21:02.85	1.45	16.70	
2025-01-17 09:21:03.06	1.43	16.72	
2025-01-17 09:21:03.26	1.40	16.75	
2025-01-17 09:21:03.46	1.38	16.77	
2025-01-17 09:21:03.67	1.35	16.79	
2025-01-17 09:21:03.87	1.33	16.81	
2025-01-17 09:21:04.07	1.31	16.84	
2025-01-17 09:21:04.28	1.28	16.86	
2025-01-17 09:21:04.48	1.26	16.88	
2025-01-17 09:21:04.68	1.23	16.91	
2025-01-17 09:21:04.88	1.21	16.93	
2025-01-17 09:21:05.09	1.18	16.95	
2025-01-17 09:21:05.29	1.16	16.97	
2025-01-17 09:21:05.49	1.13	17.00	
2025-01-17 09:21:05.70	1.11	17.02	
2025-01-17 09:21:05.90	1.08	17.04	
2025-01-17 09:21:06.10	1.06	17.06	
2025-01-17 09:21:06.30	1.03	17.09	
2025-01-17 09:21:06.51	1.00	17.11	
2025-01-17 09:21:06.71	0.98	17.13	
2025-01-17 09:21:06.91	0.95	17.16	
2025-01-17 09:21:07.12	0.93	17.18	
2025-01-17 09:21:07.32	0.90	17.20	
2025-01-17 09:21:07.52	0.88	17.22	
2025-01-17 09:21:07.73	0.85	17.25	
2025-01-17 09:21:07.93	0.83	17.27	
2025-01-17 09:21:08.13	0.80	17.29	
2025-01-17 09:21:08.33	0.78	17.32	
2025-01-17 09:21:08.54	0.75	17.34	
2025-01-17 09:21:08.74	0.72	17.36	
2025-01-17 09:21:08.94	0.70	17.39	
2025-01-17 09:21:09.15	0.67	17.41	
2025-01-17 09:21:09.35	0.65	17.43	
2025-01-17 09:21:09.55	0.62	17.45	
2025-01-17 09:21:09.76	0.59	17.48	
2025-01-17 09:21:09.96	0.57	17.50	
2025-01-17 09:21:10.16	0.54	17.52	
2025-01-17 09:21:10.36	0.52	17.55	
2025-01-17 09:21:10.57	0.49	17.57	
2025-01-17 09:21:10.77	0.46	17.59	
2025-01-17 09:21:10.97	0.44	17.62	
2025-01-17 09:21:11.18	0.41	17.64	
2025-01-17 09:21:11.38	0.38	17.66	
2025-01-17 09:21:11.58	0.36	17.69	
2025-01-17 09:21:11.79	0.33	17.71	
2025-01-17 09:21:11.99	0.30	17.73	
2025-01-17 09:21:12.19	0.28	17.76	
2025-01-17 09:21:12.39	0.25	17.78	
2025-01-17 09:21:12.60	0.22	17.80	
2025-01-17 09:21:12.80	0.20	17.83	
2025-01-17 09:21:13.00	0.17	17.85	
2025-01-17 09:21:13.21	0.14	17.87	
2025-01-17 09:21:13.41	0.12	17.90	
2025-01-17 09:21:13.61	0.09	17.92	
2025-01-17 09:21:13.81	0.07	17.94	
2025-01-17 09:21:14.02	0.04	17.97	
2025-01-17 09:21:14.22	0.01	17.99	
2025-01-17 09:21:14.42	359.98	18.01	
2025-01-17 09:21:14.63	359.96	18.04	
2025-01-17 09:21:14.83	359.93	18.06	
2025-01-17 09:21:15.03	359.90	18.09	
2025-01-17 09:21:15.24	359.87	18.11	
2025-01-17 09:21:15.44	359.85	18.13	
2025-01-17 09:21:15.64	359.82	18.16	
2025-01-17 09:21:15.84	359.79	18.18	
2025-01-17 09:21:16.05	359.77	18.20	
2025-01-17 09:21:16.25	359.74	18.23	
2025-01-17 09:21:16.45	359.71	18.25	
2025-01-17 09:21:16.66	359.68	18.28	
2025-01-17 09:21:16.86	359.66	18.30	
2025-01-17 09:21:17.06	359.63	18.32	
2025-01-17 09:21:17.27	359.60	18.35	
2025-01-17 09:21:17.47	359.57	18.37	
2025-01-17 09:21:17.67	359.55	18.39	
2025-01-17 09:21:17.87	359.52	18.42	
2025-01-17 09:21:18.08	359.49	18.44	
2025-01-17 09:21:18.28	359.46	18.47	
2025-01-17 09:21:18.48	359.43	18.49	
2025-01-17 09:21:18.69	359.41	18.51	
2025-01-17 09:21:18.89	359.38	18.54	
2025-01-17 09:21:19.09	359.35	18.56	
2025-01-17 09:21:19.30	359.32	18.59	
2025-01-17 09:21:19.50	359.29	18.61	
2025-01-17 09:21:19.70	359.27	18.63	
2025-01-17 09:21:19.90	359.24	18.66	
2025-01-17 09:21:20.11	359.21	18.68	
2025-01-17 09:21:20.31	359.18	18.71	
2025-01-17 09:21:20.51	359.15	18.73	
2025-01-17 09:21:20.72	359.12	18.75	
2025-01-17 09:21:20.92	359.09	18.78	
2025-01-17 09:21:21.12	359.07	18.80	
2025-01-17 09:21:21.32	359.04	18.83	
2025-01-17 09:21:21.53	359.01	18.85	
2025-01-17 09:21:21.73	358.98	18.87	
2025-01-17 09:21:21.93	358.95	18.90	
2025-01-17 09:21:22.14	358.92	18.92	
2025-01-17 09:21:22.34	358.89	18.95	
2025-01-17 09:21:22.54	358.86	18.97	
2025-01-17 09:21:22.75	358.84	19.00	
2025-01-17 09:21:22.95	358.81	19.02	
2025-01-17 09:21:23.15	358.78	19.04	
2025-01-17 09:21:23.35	358.75	19.07	
2025-01-17 09:21:23.56	358.72	19.09	
2025-01-17 09:21:23.76	358.69	19.12	
2025-01-17 09:21:23.96	358.66	19.14	
2025-01-17 09:21:24.17	358.63	19.17	
2025-01-17 09:21:24.37	358.60	19.19	
2025-01-17 09:21:24.57	358.57	19.22	
2025-01-17 09:21:24.78	358.54	19.24	
2025-01-17 09:21:24.98	358.51	19.26	
2025-01-17 09:21:25.18	358.48	19.29	
2025-01-17 09:21:25.38	358.46	19.31	
2025-01-17 09:21:25.59	358.42	19.34	
2025-01-17 09:21:25.79	358.40	19.36	
2025-01-17 09:21:25.99	358.37	19.39	
2025-01-17 09:21:26.20	358.33	19.41	
2025-01-17 09:21:26.40	358.31	19.44	
2025-01-17 09:21:26.60	358.28	19.46	
2025-01-17 09:21:26.80	358.25	19.49	
2025-01-17 09:21:27.01	358.22	19.51	
2025-01-17 09:21:27.21	358.19	19.54	
2025-01-17 09:21:27.41	358.16	19.56	
2025-01-17 09:21:27.62	358.12	19.59	
2025-01-17 09:21:27.82	358.09	19.61	
2025-01-17 09:21:28.02	358.06	19.63	
2025-01-17 09:21:28.23	358.03	19.66	
2025-01-17 09:21:28.43	358.00	19.68	
2025-01-17 09:21:28.63	357.97	19.71	
2025-01-17 09:21:28.83	357.94	19.73	
2025-01-17 09:21:29.04	357.91	19.76	
2025-01-17 09:21:29.24	357.88	19.78	
2025-01-17 09:21:29.44	357.85	19.81	
2025-01-17 09:21:29.65	357.82	19.83	
2025-01-17 09:21:29.85	357.79	19.86	
2025-01-17 09:21:30.05	357.76	19.88	
2025-01-17 09:21:30.26	357.73	19.91	
2025-01-17 09:21:30.46	357.70	19.93	
2025-01-17 09:21:30.66	357.67	19.96	
2025-01-17 09:21:30.86	357.64	19.98	
2025-01-17 09:21:31.07	357.60	20.01	
2025-01-17 09:21:31.27	357.57	20.03	
2025-01-17 09:21:31.47	357.54	20.06	
2025-01-17 09:21:31.68	357.51	20.08	
2025-01-17 09:21:31.88	357.48	20.11	
2025-01-17 09:21:32.08	357.45	20.13	
2025-01-17 09:21:32.29	357.41	20.16	
2025-01-17 09:21:32.49	357.38	20.18	
2025-01-17 09:21:32.69	357.35	20.21	
2025-01-17 09:21:32.89	357.32	20.23	
2025-01-17 09:21:33.10	357.29	20.26	
2025-01-17 09:21:33.30	357.26	20.29	
2025-01-17 09:21:33.50	357.23	20.31	
2025-01-17 09:21:33.71	357.19	20.34	
2025-01-17 09:21:33.91	357.16	20.36	
2025-01-17 09:21:34.11	357.13	20.39	
2025-01-17 09:21:34.31	357.10	20.41	
2025-01-17 09:21:34.52	357.07	20.44	
2025-01-17 09:21:34.72	357.03	20.46	
2025-01-17 09:21:34.92	357.00	20.49	
2025-01-17 09:21:35.13	356.97	20.51	
2025-01-17 09:21:35.33	356.94	20.54	
2025-01-17 09:21:35.53	356.91	20.56	
2025-01-17 09:21:35.74	356.87	20.59	
2025-01-17 09:21:35.94	356.84	20.62	
2025-01-17 09:21:36.14	356.81	20.64	
2025-01-17 09:21:36.34	356.78	20.67	
2025-01-17 09:21:36.55	356.74	20.69	
2025-01-17 09:21:36.75	356.71	20.72	
2025-01-17 09:21:36.95	356.68	20.74	
2025-01-17 09:21:37.16	356.64	20.77	
2025-01-17 09:21:37.36	356.61	20.80	
2025-01-17 09:21:37.56	356.58	20.82	
2025-01-17 09:21:37.77	356.54	20.85	
2025-01-17 09:21:37.97	356.51	20.87	
2025-01-17 09:21:38.17	356.48	20.90	
2025-01-17 09:21:38.37	356.45	20.92	
2025-01-17 09:21:38.58	356.41	20.95	
2025-01-17 09:21:38.78	356.38	20.98	
2025-01-17 09:21:38.98	356.35	21.00	
2025-01-17 09:21:39.19	356.31	21.03	
2025-01-17 09:21:39.39	356.28	21.05	
2025-01-17 09:21:39.59	356.25	21.08	
2025-01-17 09:21:39.80	356.21	21.11	
2025-01-17 09:21:40.00	356.18	21.13	
2025-01-17 09:21:40.20	356.14	21.16	
2025-01-17 09:21:40.40	356.11	21.18	
2025-01-17 09:21:40.61	356.08	21.21	
2025-01-17 09:21:40.81	356.04	21.23	
2025-01-17 09:21:41.01	356.01	21.26	
2025-01-17 09:21:41.22	355.97	21.29	
2025-01-17 09:21:41.42	355.94	21.31	
2025-01-17 09:21:41.62	355.91	21.34	
2025-01-17 09:21:41.82	355.87	21.36	
2025-01-17 09:21:42.03	355.84	21.39	
2025-01-17 09:21:42.23	355.80	21.42	
2025-01-17 09:21:42.43	355.77	21.44	
2025-01-17 09:21:42.64	355.73	21.47	
2025-01-17 09:21:42.84	355.70	21.50	
2025-01-17 09:21:43.04	355.67	21.52	
2025-01-17 09:21:43.25	355.63	21.55	
2025-01-17 09:21:43.45	355.60	21.57	
2025-01-17 09:21:43.65	355.56	21.60	
2025-01-17 09:21:43.85	355.53	21.63	
2025-01-17 09:21:44.06	355.49	21.65	
2025-01-17 09:21:44.26	355.46	21.68	
2025-01-17 09:21:44.46	355.42	21.70	
2025-01-17 09:21:44.67	355.39	21.73	
2025-01-17 09:21:44.87	355.35	21.76	
2025-01-17 09:21:45.07	355.32	21.78	
2025-01-17 09:21:45.28	355.28	21.81	
2025-01-17 09:21:45.48	355.25	21.84	
2025-01-17 09:21:45.68	355.21	21.86	
2025-01-17 09:21:45.88	355.18	21.89	
2025-01-17 09:21:46.09	355.14	21.92	
2025-01-17 09:21:46.29	355.10	21.94	
2025-01-17 09:21:46.49	355.07	21.97	
2025-01-17 09:21:46.70	355.03	22.00	
2025-01-17 09:21:46.90	355.00	22.02	
2025-01-17 09:21:47.10	354.96	22.05	
2025-01-17 09:21:47.31	354.92	22.08	
2025-01-17 09:21:47.51	354.89	22.10	
2025-01-17 09:21:47.71	354.85	22.13	
2025-01-17 09:21:47.91	354.82	22.15	
2025-01-17 09:21:48.12	354.78	22.18	
2025-01-17 09:21:48.32	354.74	22.21	
2025-01-17 09:21:48.52	354.71	22.24	
2025-01-17 09:21:48.73	354.67	22.26	
2025-01-17 09:21:48.93	354.64	22.29	
2025-01-17 09:21:49.13	354.60	22.32	
2025-01-17 09:21:49.33	354.56	22.34	
2025-01-17 09:21:49.54	354.53	22.37	
2025-01-17 09:21:49.74	354.49	22.40	
2025-01-17 09:21:49.94	354.45	22.42	
2025-01-17 09:21:50.15	354.41	22.45	
2025-01-17 09:21:50.35	354.38	22.48	
2025-01-17 09:21:50.55	354.34	22.50	
2025-01-17 09:21:50.76	354.30	22.53	
2025-01-17 09:21:50.96	354.27	22.56	
2025-01-17 09:21:51.16	354.23	22.58	
2025-01-17 09:21:51.36	354.19	22.61	
2025-01-17 09:21:51.57	354.16	22.64	
2025-01-17 09:21:51.77	354.12	22.66	
2025-01-17 09:21:51.97	354.08	22.69	
2025-01-17 09:21:52.18	354.04	22.72	
2025-01-17 09:21:52.38	354.01	22.75	
2025-01-17 09:21:52.58	353.97	22.77	
2025-01-17 09:21:52.79	353.93	22.80	
2025-01-17 09:21:52.99	353.89	22.83	
2025-01-17 09:21:53.19	353.85	22.85	
2025-01-17 09:21:53.39	353.82	22.88	
2025-01-17 09:21:53.60	353.78	22.91	
2025-01-17 09:21:53.80	353.74	22.94	
2025-01-17 09:21:54.00	353.70	22.96	
2025-01-17 09:21:54.21	353.66	22.99	
2025-01-17 09:21:54.41	353.63	23.02	
2025-01-17 09:21:54.61	353.59	23.04	
2025-01-17 09:21:54.82	353.55	23.07	
2025-01-17 09:21:55.02	353.51	23.10	
2025-01-17 09:21:55.22	353.47	23.13	
2025-01-17 09:21:55.42	353.43	23.15	
2025-01-17 09:21:55.63	353.39	23.18	
2025-01-17 09:21:55.83	353.36	23.21	
2025-01-17 09:21:56.03	353.32	23.24	
2025-01-17 09:21:56.24	353.28	23.26	
2025-01-17 09:21:56.44	353.24	23.29	
2025-01-17 09:21:56.64	353.20	23.32	
2025-01-17 09:21:56.84	353.16	23.34	
2025-01-17 09:21:57.05	353.12	23.37	
2025-01-17 09:21:57.25	353.08	23.40	
2025-01-17 09:21:57.45	353.04	23.43	
2025-01-17 09:21:57.66	353.00	23.46	
2025-01-17 09:21:57.86	352.96	23.48	
2025-01-17 09:21:58.06	352.92	23.51	
2025-01-17 09:21:58.27	352.88	23.54	
2025-01-17 09:21:58.47	352.84	23.57	
2025-01-17 09:21:58.67	352.80	23.59	
2025-01-17 09:21:58.87	352.77	23.62	
2025-01-17 09:21:59.08	352.72	23.65	
2025-01-17 09:21:59.28	352.68	23.68	
2025-01-17 09:21:59.48	352.65	23.70	
2025-01-17 09:21:59.69	352.60	23.73	
2025-01-17 09:21:59.89	352.56	23.76	
2025-01-17 09:22:00.09	352.52	23.79	
2025-01-17 09:22:00.30	352.48	23.81	
2025-01-17 09:22:00.50	352.44	23.84	
2025-01-17 09:22:00.70	352.40	23.87	
2025-01-17 09:22:00.90	352.36	23.90	
2025-01-17 09:22:01.11	352.32	23.93	
2025-01-17 09:22:01.31	352.28	23.95	
2025-01-17 09:22:01.51	352.24	23.98	
2025-01-17 09:22:01.72	352.20	24.01	
2025-01-17 09:22:01.92	352.16	24.04	
2025-01-17 09:22:02.12	352.12	24.06	
2025-01-17 09:22:02.33	352.07	24.09	
2025-01-17 09:22:02.53	352.03	24.12	
2025-01-17 09:22:02.73	351.99	24.15	
2025-01-17 09:22:02.93	351.95	24.18	
2025-01-17 09:22:03.14	351.91	24.20	
2025-01-17 09:22:03.34	351.87	24.23	
2025-01-17 09:22:03.54	351.83	24.26	
2025-01-17 09:22:03.75	351.78	24.29	
2025-01-17 09:22:03.95	351.74	24.32	
2025-01-17 09:22:04.15	351.70	24.34	
2025-01-17 09:22:04.35	351.66	24.37	
2025-01-17 09:22:04.56	351.62	24.40	
2025-01-17 09:22:04.76	351.57	24.43	
2025-01-17 09:22:04.96	351.53	24.46	
2025-01-17 09:22:05.17	351.49	24.48	
2025-01-17 09:22:05.37	351.45	24.51	
2025-01-17 09:22:05.57	351.40	24.54	
2025-01-17 09:22:05.78	351.36	24.57	
2025-01-17 09:22:05.98	351.32	24.60	
2025-01-17 09:22:06.18	351.28	24.63	
2025-01-17 09:22:06.38	351.23	24.65	
2025-01-17 09:22:06.59	351.19	24.68	
2025-01-17 09:22:06.79	351.15	24.71	
2025-01-17 09:22:06.99	351.11	24.74	
2025-01-17 09:22:07.20	351.06	24.77	
2025-01-17 09:22:07.40	351.02	24.79	
2025-01-17 09:22:07.60	350.98	24.82	
2025-01-17 09:22:07.81	350.93	24.85	
2025-01-17 09:22:08.01	350.89	24.88	
2025-01-17 09:22:08.21	350.85	24.91	
2025-01-17 09:22:08.41	350.80	24.94	
2025-01-17 09:22:08.62	350.76	24.97	
2025-01-17 09:22:08.82	350.71	24.99	
2025-01-17 09:22:09.02	350.67	25.02	
2025-01-17 09:22:09.23	350.63	25.05	
2025-01-17 09:22:09.43	350.58	25.08	
2025-01-17 09:22:09.63	350.54	25.11	
2025-01-17 09:22:09.84	350.49	25.14	
2025-01-17 09:22:10.04	350.45	25.16	
2025-01-17 09:22:10.24	350.41	25.19	
2025-01-17 09:22:10.44	350.36	25.22	
2025-01-17 09:22:10.65	350.32	25.25	
2025-01-17 09:22:10.85	350.27	25.28	
2025-01-17 09:22:11.05	350.23	25.31	
2025-01-17 09:22:11.26	350.18	25.34	
2025-01-17 09:22:11.46	350.14	25.36	
2025-01-17 09:22:11.66	350.09	25.39	
2025-01-17 09:22:11.86	350.05	25.42	
2025-01-17 09:22:12.07	350.00	25.45	
2025-01-17 09:22:12.27	349.96	25.48	
2025-01-17 09:22:12.47	349.91	25.51	
2025-01-17 09:22:12.68	349.87	25.54	
2025-01-17 09:22:12.88	349.82	25.56	
2025-01-17 09:22:13.08	349.78	25.59	
2025-01-17 09:22:13.29	349.73	25.62	
2025-01-17 09:22:13.49	349.68	25.65	
2025-01-17 09:22:13.69	349.64	25.68	
2025-01-17 09:22:13.89	349.59	25.71	
2025-01-17 09:22:14.10	349.54	25.74	
2025-01-17 09:22:14.30	349.50	25.77	
2025-01-17 09:22:14.50	349.45	25.79	
2025-01-17 09:22:14.71	349.41	25.82	
2025-01-17 09:22:14.91	349.36	25.85	
2025-01-17 09:22:15.11	349.31	25.88	
2025-01-17 09:22:15.32	349.27	25.91	
2025-01-17 09:22:15.52	349.22	25.94	
2025-01-17 09:22:15.72	349.17	25.97	
2025-01-17 09:22:15.92	349.13	26.00	
2025-01-17 09:22:16.13	349.08	26.03	
2025-01-17 09:22:16.33	349.03	26.05	
2025-01-17 09:22:16.53	348.99	26.08	
2025-01-17 09:22:16.74	348.94	26.11	
2025-01-17 09:22:16.94	348.89	26.14	
2025-01-17 09:22:17.14	348.85	26.17	
2025-01-17 09:22:17.35	348.80	26.20	
2025-01-17 09:22:17.55	348.75	26.23	
2025-01-17 09:22:17.75	348.70	26.26	
2025-01-17 09:22:17.95	348.66	26.29	
2025-01-17 09:22:18.16	348.61	26.32	
2025-01-17 09:22:18.36	348.56	26.34	
2025-01-17 09:22:18.56	348.51	26.37	
2025-01-17 09:22:18.77	348.46	26.40	
2025-01-17 09:22:18.97	348.41	26.43	
2025-01-17 09:22:19.17	348.37	26.46	
2025-01-17 09:22:19.37	348.32	26.49	
2025-01-17 09:22:19.58	348.27	26.52	
2025-01-17 09:22:19.78	348.22	26.55	
2025-01-17 09:22:19.98	348.17	26.58	
2025-01-17 09:22:20.19	348.12	26.61	
2025-01-17 09:22:20.39	348.07	26.64	
2025-01-17 09:22:20.59	348.03	26.66	
2025-01-17 09:22:20.80	347.98	26.69	
2025-01-17 09:22:21.00	347.93	26.72	
2025-01-17 09:22:21.20	347.88	26.75	
2025-01-17 09:22:21.40	347.83	26.78	
2025-01-17 09:22:21.61	347.78	26.81	
2025-01-17 09:22:21.81	347.73	26.84	
2025-01-17 09:22:22.01	347.68	26.87	
2025-01-17 09:22:22.22	347.63	26.90	
2025-01-17 09:22:22.42	347.58	26.93	
2025-01-17 09:22:22.62	347.53	26.96	
2025-01-17 09:22:22.83	347.48	26.99	
2025-01-17 09:22:23.03	347.43	27.02	
2025-01-17 09:22:23.23	347.38	27.04	
2025-01-17 09:22:23.43	347.33	27.07	
2025-01-17 09:22:23.64	347.28	27.10	
2025-01-17 09:22:23.84	347.23	27.13	
2025-01-17 09:22:24.04	347.18	27.16	
2025-01-17 09:22:24.25	347.13	27.19	
2025-01-17 09:22:24.45	347.08	27.22	
2025-01-17 09:22:24.65	347.03	27.25	
2025-01-17 09:22:24.85	346.98	27.28	
2025-01-17 09:22:25.06	346.92	27.31	
2025-01-17 09:22:25.26	346.87	27.34	
2025-01-17 09:22:25.46	346.82	27.37	
2025-01-17 09:22:25.67	346.77	27.40	
2025-01-17 09:22:25.87	346.72	27.43	
2025-01-17 09:22:26.07	346.67	27.46	
2025-01-17 09:22:26.28	346.62	27.49	
2025-01-17 09:22:26.48	346.56	27.52	
2025-01-17 09:22:26.68	346.51	27.54	
2025-01-17 09:22:26.88	346.46	27.57	
2025-01-17 09:22:27.09	346.41	27.60	
2025-01-17 09:22:27.29	346.36	27.63	
2025-01-17 09:22:27.49	346.31	27.66	
2025-01-17 09:22:27.70	346.25	27.69	
2025-01-17 09:22:27.90	346.20	27.72	
2025-01-17 09:22:28.10	346.15	27.75	
2025-01-17 09:22:28.31	346.09	27.78	
2025-01-17 09:22:28.51	346.04	27.81	
2025-01-17 09:22:28.71	345.99	27.84	
2025-01-17 09:22:28.91	345.94	27.87	
2025-01-17 09:22:29.12	345.88	27.90	
2025-01-17 09:22:29.32	345.83	27.93	
2025-01-17 09:22:29.52	345.78	27.96	
2025-01-17 09:22:29.73	345.72	27.99	
2025-01-17 09:22:29.93	345.67	28.02	
2025-01-17 09:22:30.13	345.62	28.05	
2025-01-17 09:22:30.34	345.56	28.08	
2025-01-17 09:22:30.54	345.51	28.11	
2025-01-17 09:22:30.74	345.45	28.14	
2025-01-17 09:22:30.94	345.40	28.17	
2025-01-17 09:22:31.15	345.35	28.20	
2025-01-17 09:22:31.35	345.29	28.23	
2025-01-17 09:22:31.55	345.24	28.25	
2025-01-17 09:22:31.76	345.18	28.29	
2025-01-17 09:22:31.96	345.13	28.31	
2025-01-17 09:22:32.16	345.07	28.34	
2025-01-17 09:22:32.36	345.02	28.37	
2025-01-17 09:22:32.57	344.96	28.40	
2025-01-17 09:22:32.77	344.91	28.43	
2025-01-17 09:22:32.97	344.86	28.46	
2025-01-17 09:22:33.18	344.80	28.49	
2025-01-17 09:22:33.38	344.74	28.52	
2025-01-17 09:22:33.58	344.69	28.55	
2025-01-17 09:22:33.79	344.63	28.58	
2025-01-17 09:22:33.99	344.58	28.61	
2025-01-17 09:22:34.19	344.52	28.64	
2025-01-17 09:22:34.39	344.47	28.67	
2025-01-17 09:22:34.60	344.41	28.70	
2025-01-17 09:22:34.80	344.35	28.73	
2025-01-17 09:22:35.00	344.30	28.76	
2025-01-17 09:22:35.21	344.24	28.79	
2025-01-17 09:22:35.41	344.18	28.82	
2025-01-17 09:22:35.61	344.13	28.85	
2025-01-17 09:22:35.82	344.07	28.88	
2025-01-17 09:22:36.02	344.01	28.91	
2025-01-17 09:22:36.22	343.96	28.94	
2025-01-17 09:22:36.42	343.90	28.97	
2025-01-17 09:22:36.63	343.84	29.00	
2025-01-17 09:22:36.83	343.79	29.03	
2025-01-17 09:22:37.03	343.73	29.06	
2025-01-17 09:22:37.24	343.67	29.09	
2025-01-17 09:22:37.44	343.62	29.12	
2025-01-17 09:22:37.64	343.56	29.15	
2025-01-17 09:22:37.85	343.50	29.18	
2025-01-17 09:22:38.05	343.44	29.21	
2025-01-17 09:22:38.25	343.38	29.24	
2025-01-17 09:22:38.45	343.33	29.27	
2025-01-17 09:22:38.66	343.27	29.30	
2025-01-17 09:22:38.86	343.21	29.33	
2025-01-17 09:22:39.06	343.15	29.36	
2025-01-17 09:22:39.27	343.09	29.39	
2025-01-17 09:22:39.47	343.03	29.42	
2025-01-17 09:22:39.67	342.98	29.45	
2025-01-17 09:22:39.87	342.92	29.47	
2025-01-17 09:22:40.08	342.86	29.51	
2025-01-17 09:22:40.28	342.80	29.53	
2025-01-17 09:22:40.48	342.74	29.56	
2025-01-17 09:22:40.69	342.68	29.60	
2025-01-17 09:22:40.89	342.62	29.62	
2025-01-17 09:22:41.09	342.56	29.65	
2025-01-17 09:22:41.30	342.50	29.68	
2025-01-17 09:22:41.50	342.44	29.71	
2025-01-17 09:22:41.70	342.38	29.74	
2025-01-17 09:22:41.90	342.32	29.77	
2025-01-17 09:22:42.11	342.26	29.80	
2025-01-17 09:22:42.31	342.20	29.83	
2025-01-17 09:22:42.51	342.14	29.86	
2025-01-17 09:22:42.72	342.08	29.89	
2025-01-17 09:22:42.92	342.02	29.92	
2025-01-17 09:22:43.12	341.96	29.95	
2025-01-17 09:22:43.33	341.90	29.98	
2025-01-17 09:22:43.53	341.84	30.01	
2025-01-17 09:22:43.73	341.78	30.04	
2025-01-17 09:22:43.93	341.72	30.07	
2025-01-17 09:22:44.14	341.65	30.10	
2025-01-17 09:22:44.34	341.59	30.13	
2025-01-17 09:22:44.54	341.53	30.16	
2025-01-17 09:22:44.75	341.47	30.19	
2025-01-17 09:22:44.95	341.41	30.22	
2025-01-17 09:22:45.15	341.35	30.25	
2025-01-17 09:22:45.36	341.28	30.28	
2025-01-17 09:22:45.56	341.22	30.31	
2025-01-17 09:22:45.76	341.16	30.34	
2025-01-17 09:22:45.96	341.10	30.37	
2025-01-17 09:22:46.17	341.04	30.40	
2025-01-17 09:22:46.37	340.97	30.43	
2025-01-17 09:22:46.57	340.91	30.46	
2025-01-17 09:22:46.78	340.85	30.49	
2025-01-17 09:22:46.98	340.78	30.52	
2025-01-17 09:22:47.18	340.72	30.55	
2025-01-17 09:22:47.38	340.66	30.58	
2025-01-17 09:22:47.59	340.59	30.61	
2025-01-17 09:22:47.79	340.53	30.64	
2025-01-17 09:22:47.99	340.47	30.67	
2025-01-17 09:22:48.20	340.40	30.70	
2025-01-17 09:22:48.40	340.34	30.73	
2025-01-17 09:22:48.60	340.28	30.76	
2025-01-17 09:22:48.81	340.21	30.79	
2025-01-17 09:22:49.01	340.15	30.82	
2025-01-17 09:22:49.21	340.09	30.84	
2025-01-17 09:22:49.41	340.02	30.87	
2025-01-17 09:22:49.62	339.96	30.90	
2025-01-17 09:22:49.82	339.89	30.93	
2025-01-17 09:22:50.02	339.83	30.96	
2025-01-17 09:22:50.23	339.76	30.99	
2025-01-17 09:22:50.43	339.70	31.02	
2025-01-17 09:22:50.63	339.63	31.05	
2025-01-17 09:22:50.84	339.56	31.08	
2025-01-17 09:22:51.04	339.50	31.11	
2025-01-17 09:22:51.24	339.44	31.14	
2025-01-17 09:22:51.44	339.37	31.17	
2025-01-17 09:22:51.65	339.30	31.20	
2025-01-17 09:22:51.85	339.24	31.23	
2025-01-17 09:22:52.05	339.17	31.26	
2025-01-17 09:22:52.26	339.10	31.29	
2025-01-17 09:22:52.46	339.04	31.32	
2025-01-17 09:22:52.66	338.97	31.35	
2025-01-17 09:22:52.87	338.91	31.38	
2025-01-17 09:22:53.07	338.84	31.41	
2025-01-17 09:22:53.27	338.77	31.44	
2025-01-17 09:22:53.47	338.71	31.47	
2025-01-17 09:22:53.68	338.64	31.50	
2025-01-17 09:22:53.88	338.57	31.52	
2025-01-17 09:22:54.08	338.51	31.55	
2025-01-17 09:22:54.29	338.44	31.58	
2025-01-17 09:22:54.49	338.37	31.61	
2025-01-17 09:22:54.69	338.30	31.64	
2025-01-17 09:22:54.89	338.24	31.67	
2025-01-17 09:22:55.10	338.17	31.70	
2025-01-17 09:22:55.30	338.10	31.73	
2025-01-17 09:22:55.50	338.03	31.76	
2025-01-17 09:22:55.71	337.96	31.79	
2025-01-17 09:22:55.91	337.89	31.82	
2025-01-17 09:22:56.11	337.83	31.85	
2025-01-17 09:22:56.32	337.76	31.88	
2025-01-17 09:22:56.52	337.69	31.91	
2025-01-17 09:22:56.72	337.62	31.94	
2025-01-17 09:22:56.92	337.55	31.96	
2025-01-17 09:22:57.13	337.48	31.99	
2025-01-17 09:22:57.33	337.41	32.02	
2025-01-17 09:22:57.53	337.34	32.05	
2025-01-17 09:22:57.74	337.27	32.08	
2025-01-17 09:22:57.94	337.20	32.11	
2025-01-17 09:22:58.14	337.13	32.14	
2025-01-17 09:22:58.35	337.06	32.17	
2025-01-17 09:22:58.55	336.99	32.20	
2025-01-17 09:22:58.75	336.92	32.23	
2025-01-17 09:22:58.95	336.85	32.26	
2025-01-17 09:22:59.16	336.78	32.29	
2025-01-17 09:22:59.36	336.71	32.31	
2025-01-17 09:22:59.56	336.64	32.34	
2025-01-17 09:22:59.77	336.57	32.37	
2025-01-17 09:22:59.97	336.50	32.40	
2025-01-17 09:23:00.17	336.43	32.43	
2025-01-17 09:23:00.38	336.35	32.46	
2025-01-17 09:23:00.58	336.28	32.49	
2025-01-17 09:23:00.78	336.21	32.52	
2025-01-17 09:23:00.98	336.14	32.55	
2025-01-17 09:23:01.19	336.07	32.58	
2025-01-17 09:23:01.39	336.00	32.60	
2025-01-17 09:23:01.59	335.93	32.63	
2025-01-17 09:23:01.80	335.85	32.66	
2025-01-17 09:23:02.00	335.78	32.69	
2025-01-17 09:23:02.20	335.71	32.72	
2025-01-17 09:23:02.40	335.64	32.75	
2025-01-17 09:23:02.61	335.56	32.78	
2025-01-17 09:23:02.81	335.49	32.81	
2025-01-17 09:23:03.01	335.42	32.83	
2025-01-17 09:23:03.22	335.34	32.86	
2025-01-17 09:23:03.42	335.27	32.89	
2025-01-17 09:23:03.62	335.20	32.92	
2025-01-17 09:23:03.83	335.12	32.95	
2025-01-17 09:23:04.03	335.05	32.98	
2025-01-17 09:23:04.23	334.98	33.01	
2025-01-17 09:23:04.43	334.90	33.03	
2025-01-17 09:23:04.64	334.83	33.06	
2025-01-17 09:23:04.84	334.76	33.09	
2025-01-17 09:23:05.04	334.68	33.12	
2025-01-17 09:23:05.25	334.60	33.15	
2025-01-17 09:23:05.45	334.53	33.18	
2025-01-17 09:23:05.65	334.46	33.20	
2025-01-17 09:23:05.86	334.38	33.23	
2025-01-17 09:23:06.06	334.31	33.26	
2025-01-17 09:23:06.26	334.23	33.29	
2025-01-17 09:23:06.46	334.16	33.32	
2025-01-17 09:23:06.67	334.08	33.35	
2025-01-17 09:23:06.87	334.01	33.37	
2025-01-17 09:23:07.07	333.93	33.40	
2025-01-17 09:23:07.28	333.85	33.43	
2025-01-17 09:23:07.48	333.78	33.46	
2025-01-17 09:23:07.68	333.70	33.49	
2025-01-17 09:23:07.89	333.62	33.52	
2025-01-17 09:23:08.09	333.55	33.54	
2025-01-17 09:23:08.29	333.47	33.57	
2025-01-17 09:23:08.49	333.40	33.60	
2025-01-17 09:23:08.70	333.32	33.63	
2025-01-17 09:23:08.90	333.24	33.65	
2025-01-17 09:23:09.10	333.17	33.68	
2025-01-17 09:23:09.31	333.09	33.71	
2025-01-17 09:23:09.51	333.01	33.74	
2025-01-17 09:23:09.71	332.93	33.77	
2025-01-17 09:23:09.91	332.86	33.79	
2025-01-17 09:23:10.12	332.78	33.82	
2025-01-17 09:23:10.32	332.70	33.85	
2025-01-17 09:23:10.52	332.62	33.88	
2025-01-17 09:23:10.73	332.54	33.90	
2025-01-17 09:23:10.93	332.47	33.93	
2025-01-17 09:23:11.13	332.39	33.96	
2025-01-17 09:23:11.34	332.31	33.99	
2025-01-17 09:23:11.54	332.23	34.01	
2025-01-17 09:23:11.74	332.15	34.04	
2025-01-17 09:23:11.94	332.07	34.07	
2025-01-17 09:23:12.15	331.99	34.10	
2025-01-17 09:23:12.35	331.91	34.12	
2025-01-17 09:23:12.55	331.84	34.15	
2025-01-17 09:23:12.76	331.75	34.18	
2025-01-17 09:23:12.96	331.67	34.21	
2025-01-17 09:23:13.16	331.60	34.23	
2025-01-17 09:23:13.37	331.51	34.26	
2025-01-17 09:23:13.57	331.43	34.29	
2025-01-17 09:23:13.77	331.36	34.31	
2025-01-17 09:23:13.97	331.28	34.34	
2025-01-17 09:23:14.18	331.19	34.37	
2025-01-17 09:23:14.38	331.11	34.40	
2025-01-17 09:23:14.58	331.03	34.42	
2025-01-17 09:23:14.79	330.95	34.45	
2025-01-17 09:23:14.99	330.87	34.48	
2025-01-17 09:23:15.19	330.79	34.50	
2025-01-17 09:23:15.40	330.71	34.53	
2025-01-17 09:23:15.60	330.63	34.56	
2025-01-17 09:23:15.80	330.55	34.58	
2025-01-17 09:23:16.00	330.47	34.61	
2025-01-17 09:23:16.21	330.38	34.64	
2025-01-17 09:23:16.41	330.30	34.66	
2025-01-17 09:23:16.61	330.22	34.69	
2025-01-17 09:23:16.82	330.13	34.72	
2025-01-17 09:23:17.02	330.05	34.74	
2025-01-17 09:23:17.22	329.97	34.77	
2025-01-17 09:23:17.42	329.89	34.80	
2025-01-17 09:23:17.63	329.80	34.82	
2025-01-17 09:23:17.83	329.72	34.85	
2025-01-17 09:23:18.03	329.64	34.87	
2025-01-17 09:23:18.24	329.55	34.90	
2025-01-17 09:23:18.44	329.47	34.93	
2025-01-17 09:23:18.64	329.39	34.95	
2025-01-17 09:23:18.85	329.30	34.98	
2025-01-17 09:23:19.05	329.22	35.01	
2025-01-17 09:23:19.25	329.14	35.03	
2025-01-17 09:23:19.45	329.05	35.06	
2025-01-17 09:23:19.66	328.97	35.08	
2025-01-17 09:23:19.86	328.88	35.11	
2025-01-17 09:23:20.06	328.80	35.13	
2025-01-17 09:23:20.27	328.71	35.16	
2025-01-17 09:23:20.47	328.63	35.19	
2025-01-17 09:23:20.67	328.55	35.21	
2025-01-17 09:23:20.88	328.46	35.24	
2025-01-17 09:23:21.08	328.37	35.26	
2025-01-17 09:23:21.28	328.29	35.29	
2025-01-17 09:23:21.48	328.21	35.31	
2025-01-17 09:23:21.69	328.12	35.34	
2025-01-17 09:23:21.89	328.03	35.36	
2025-01-17 09:23:22.09	327.95	35.39	
2025-01-17 09:23:22.30	327.86	35.42	
2025-01-17 09:23:22.50	327.77	35.44	
2025-01-17 09:23:22.70	327.69	35.47	
2025-01-17 09:23:22.90	327.60	35.49	
2025-01-17 09:23:23.11	327.51	35.52	
2025-01-17 09:23:23.31	327.43	35.54	
2025-01-17 09:23:23.51	327.34	35.57	
2025-01-17 09:23:23.72	327.25	35.59	
2025-01-17 09:23:23.92	327.17	35.62	
2025-01-17 09:23:24.12	327.08	35.64	
2025-01-17 09:23:24.33	326.99	35.67	
2025-01-17 09:23:24.53	326.91	35.69	
2025-01-17 09:23:24.73	326.82	35.71	
2025-01-17 09:23:24.93	326.73	35.74	
2025-01-17 09:23:25.14	326.64	35.76	
2025-01-17 09:23:25.34	326.55	35.79	
2025-01-17 09:23:25.54	326.47	35.81	
2025-01-17 09:23:25.75	326.38	35.84	
2025-01-17 09:23:25.95	326.29	35.86	
2025-01-17 09:23:26.15	326.20	35.89	
2025-01-17 09:23:26.36	326.11	35.91	
2025-01-17 09:23:26.56	326.02	35.93	
2025-01-17 09:23:26.76	325.93	35.96	
2025-01-17 09:23:26.96	325.85	35.98	
2025-01-17 09:23:27.17	325.75	36.01	
2025-01-17 09:23:27.37	325.67	36.03	
2025-01-17 09:23:27.57	325.58	36.05	
2025-01-17 09:23:27.78	325.48	36.08	
2025-01-17 09:23:27.98	325.40	36.10	
2025-01-17 09:23:28.18	325.31	36.12	
2025-01-17 09:23:28.39	325.21	36.15	
2025-01-17 09:23:28.59	325.13	36.17	
2025-01-17 09:23:28.79	325.04	36.19	
2025-01-17 09:23:28.99	324.95	36.22	
2025-01-17 09:23:29.20	324.85	36.24	
2025-01-17 09:23:29.40	324.76	36.27	
2025-01-17 09:23:29.60	324.67	36.29	
2025-01-17 09:23:29.81	324.58	36.31	
2025-01-17 09:23:30.01	324.49	36.33	
2025-01-17 09:23:30.21	324.40	36.36	
2025-01-17 09:23:30.41	324.31	36.38	
2025-01-17 09:23:30.62	324.22	36.40	
2025-01-17 09:23:30.82	324.13	36.43	
2025-01-17 09:23:31.02	324.03	36.45	
2025-01-17 09:23:31.23	323.94	36.47	
2025-01-17 09:23:31.43	323.85	36.49	
2025-01-17 09:23:31.63	323.76	36.52	
2025-01-17 09:23:31.84	323.66	36.54	
2025-01-17 09:23:32.04	323.57	36.56	
2025-01-17 09:23:32.24	323.48	36.58	
2025-01-17 09:23:32.44	323.39	36.61	
2025-01-17 09:23:32.65	323.29	36.63	
2025-01-17 09:23:32.85	323.20	36.65	
2025-01-17 09:23:33.05	323.11	36.67	
2025-01-17 09:23:33.26	323.01	36.70	
2025-01-17 09:23:33.46	322.92	36.72	
2025-01-17 09:23:33.66	322.83	36.74	
2025-01-17 09:23:33.87	322.73	36.76	
2025-01-17 09:23:34.07	322.64	36.78	
2025-01-17 09:23:34.27	322.55	36.80	
2025-01-17 09:23:34.47	322.45	36.83	
2025-01-17 09:23:34.68	322.36	36.85	
2025-01-17 09:23:34.88	322.26	36.87	
2025-01-17 09:23:35.08	322.17	36.89	
2025-01-17 09:23:35.29	322.07	36.91	
2025-01-17 09:23:35.49	321.98	36.93	
2025-01-17 09:23:35.69	321.89	36.95	
2025-01-17 09:23:35.90	321.79	36.98	
2025-01-17 09:23:36.10	321.69	37.00	
2025-01-17 09:23:36.30	321.60	37.02	
2025-01-17 09:23:36.50	321.51	37.04	
2025-01-17 09:23:36.71	321.41	37.06	
2025-01-17 09:23:36.91	321.31	37.08	
2025-01-17 09:23:37.11	321.22	37.10	
2025-01-17 09:23:37.32	321.12	37.12	
2025-01-17 09:23:37.52	321.02	37.14	
2025-01-17 09:23:37.72	320.93	37.16	
2025-01-17 09:23:37.92	320.84	37.18	
2025-01-17 09:23:38.13	320.74	37.20	
2025-01-17 09:23:38.33	320.64	37.22	
2025-01-17 09:23:38.53	320.55	37.24	
2025-01-17 09:23:38.74	320.45	37.26	
2025-01-17 09:23:38.94	320.35	37.28	
2025-01-17 09:23:39.14	320.25	37.30	
2025-01-17 09:23:39.35	320.15	37.32	
2025-01-17 09:23:39.55	320.06	37.34	
2025-01-17 09:23:39.75	319.96	37.36	
2025-01-17 09:23:39.95	319.87	37.38	
2025-01-17 09:23:40.16	319.77	37.40	
2025-01-17 09:23:40.36	319.67	37.42	
2025-01-17 09:23:40.56	319.57	37.44	
2025-01-17 09:23:40.77	319.47	37.46	
2025-01-17 09:23:40.97	319.38	37.48	
2025-01-17 09:23:41.17	319.28	37.50	
2025-01-17 09:23:41.38	319.18	37.52	
2025-01-17 09:23:41.58	319.08	37.53	
2025-01-17 09:23:41.78	318.98	37.55	
2025-01-17 09:23:41.98	318.89	37.57	
2025-01-17 09:23:42.19	318.78	37.59	
2025-01-17 09:23:42.39	318.69	37.61	
2025-01-17 09:23:42.59	318.59	37.63	
2025-01-17 09:23:42.80	318.49	37.65	
2025-01-17 09:23:43.00	318.39	37.66	
2025-01-17 09:23:43.20	318.29	37.68	
2025-01-17 09:23:43.41	318.19	37.70	
2025-01-17 09:23:43.61	318.09	37.72	
2025-01-17 09:23:43.81	317.99	37.74	
2025-01-17 09:23:44.01	317.89	37.75	
2025-01-17 09:23:44.22	317.79	37.77	
2025-01-17 09:23:44.42	317.69	37.79	
2025-01-17 09:23:44.62	317.59	37.81	
2025-01-17 09:23:44.83	317.49	37.83	
2025-01-17 09:23:45.03	317.39	37.84	
2025-01-17 09:23:45.23	317.29	37.86	
2025-01-17 09:23:45.43	317.19	37.88	
2025-01-17 09:23:45.64	317.09	37.89	
2025-01-17 09:23:45.84	316.99	37.91	
2025-01-17 09:23:46.04	316.89	37.93	
2025-01-17 09:23:46.25	316.78	37.95	
2025-01-17 09:23:46.45	316.69	37.96	
2025-01-17 09:23:46.65	316.59	37.98	
2025-01-17 09:23:46.86	316.48	38.00	
2025-01-17 09:23:47.06	316.38	38.01	
2025-01-17 09:23:47.26	316.28	38.03	
2025-01-17 09:23:47.46	316.18	38.04	
2025-01-17 09:23:47.67	316.08	38.06	
2025-01-17 09:23:47.87	315.97	38.08	
2025-01-17 09:23:48.07	315.87	38.09	
2025-01-17 09:23:48.28	315.77	38.11	
2025-01-17 09:23:48.48	315.67	38.13	
2025-01-17 09:23:48.68	315.57	38.14	
2025-01-17 09:23:48.89	315.46	38.16	
2025-01-17 09:23:49.09	315.36	38.17	
2025-01-17 09:23:49.29	315.26	38.19	
2025-01-17 09:23:49.49	315.16	38.20	
2025-01-17 09:23:49.70	315.05	38.22	
2025-01-17 09:23:49.90	314.95	38.23	
2025-01-17 09:23:50.10	314.85	38.25	
2025-01-17 09:23:50.31	314.74	38.26	
2025-01-17 09:23:50.51	314.64	38.28	
2025-01-17 09:23:50.71	314.54	38.29	
2025-01-17 09:23:50.92	314.43	38.31	
2025-01-17 09:23:51.12	314.33	38.32	
2025-01-17 09:23:51.32	314.23	38.34	
2025-01-17 09:23:51.52	314.13	38.35	
2025-01-17 09:23:51.73	314.02	38.37	
2025-01-17 09:23:51.93	313.92	38.38	
2025-01-17 09:23:52.13	313.81	38.39	
2025-01-17 09:23:52.34	313.71	38.41	
2025-01-17 09:23:52.54	313.60	38.42	
2025-01-17 09:23:52.74	313.50	38.44	
2025-01-17 09:23:52.94	313.40	38.45	
2025-01-17 09:23:53.15	313.29	38.46	
2025-01-17 09:23:53.35	313.19	38.48	
2025-01-17 09:23:53.55	313.09	38.49	
2025-01-17 09:23:53.76	312.98	38.50	
2025-01-17 09:23:53.96	312.87	38.52	
2025-01-17 09:23:54.16	312.77	38.53	
2025-01-17 09:23:54.37	312.66	38.54	
2025-01-17 09:23:54.57	312.56	38.56	
2025-01-17 09:23:54.77	312.45	38.57	
2025-01-17 09:23:54.98	312.35	38.58	
2025-01-17 09:23:55.18	312.24	38.60	
2025-01-17 09:23:55.38	312.14	38.61	
2025-01-17 09:23:55.59	312.03	38.62	
2025-01-17 09:23:55.79	311.93	38.63	
2025-01-17 09:23:55.99	311.82	38.64	
2025-01-17 09:23:56.19	311.72	38.66	
2025-01-17 09:23:56.40	311.61	38.67	
2025-01-17 09:23:56.60	311.50	38.68	
2025-01-17 09:23:56.80	311.40	38.69	
2025-01-17 09:23:57.01	311.29	38.70	
2025-01-17 09:23:57.21	311.19	38.72	
2025-01-17 09:23:57.41	311.08	38.73	
2025-01-17 09:23:57.62	310.97	38.74	
2025-01-17 09:23:57.82	310.87	38.75	
2025-01-17 09:23:58.02	310.76	38.76	
2025-01-17 09:23:58.22	310.66	38.77	
2025-01-17 09:23:58.43	310.55	38.78	
2025-01-17 09:23:58.63	310.44	38.79	
2025-01-17 09:23:58.83	310.34	38.80	
2025-01-17 09:23:59.04	310.23	38.82	
2025-01-17 09:23:59.24	310.12	38.83	
2025-01-17 09:23:59.44	310.02	38.84	
2025-01-17 09:23:59.64	309.91	38.85	
2025-01-17 09:23:59.85	309.80	38.86	
2025-01-17 09:24:00.05	309.69	38.87	
2025-01-17 09:24:00.25	309.59	38.88	
2025-01-17 09:24:00.46	309.48	38.89	
2025-01-17 09:24:00.66	309.37	38.90	
2025-01-17 09:24:00.86	309.27	38.91	
2025-01-17 09:24:01.07	309.15	38.92	
2025-01-17 09:24:01.27	309.05	38.93	
2025-01-17 09:24:01.47	308.94	38.93	
2025-01-17 09:24:01.67	308.84	38.94	
2025-01-17 09:24:01.88	308.73	38.95	
2025-01-17 09:24:02.08	308.62	38.96	
2025-01-17 09:24:02.28	308.51	38.97	
2025-01-17 09:24:02.49	308.40	38.98	
2025-01-17 09:24:02.69	308.30	38.99	
2025-01-17 09:24:02.89	308.19	39.00	
2025-01-17 09:24:03.10	308.08	39.01	
2025-01-17 09:24:03.30	307.97	39.01	
2025-01-17 09:24:03.50	307.86	39.02	
2025-01-17 09:24:03.70	307.76	39.03	
2025-01-17 09:24:03.91	307.65	39.04	
2025-01-17 09:24:04.11	307.54	39.05	
2025-01-17 09:24:04.31	307.43	39.05	
2025-01-17 09:24:04.52	307.32	39.06	
2025-01-17 09:24:04.72	307.21	39.07	
2025-01-17 09:24:04.92	307.11	39.08	
2025-01-17 09:24:05.13	306.99	39.08	
2025-01-17 09:24:05.33	306.89	39.09	
2025-01-17 09:24:05.53	306.78	39.10	
2025-01-17 09:24:05.73	306.67	39.10	
2025-01-17 09:24:05.94	306.56	39.11	
2025-01-17 09:24:06.14	306.45	39.12	
2025-01-17 09:24:06.34	306.35	39.13	
2025-01-17 09:24:06.55	306.23	39.13	
2025-01-17 09:24:06.75	306.13	39.14	
2025-01-17 09:24:06.95	306.02	39.14	
2025-01-17 09:24:07.15	305.91	39.15	
2025-01-17 09:24:07.36	305.80	39.16	
2025-01-17 09:24:07.56	305.69	39.16	
2025-01-17 09:24:07.76	305.58	39.17	
2025-01-17 09:24:07.97	305.47	39.17	
2025-01-17 09:24:08.17	305.36	39.18	
2025-01-17 09:24:08.37	305.25	39.19	
2025-01-17 09:24:08.58	305.14	39.19	
2025-01-17 09:24:08.78	305.03	39.20	
2025-01-17 09:24:08.98	304.93	39.20	
2025-01-17 09:24:09.18	304.82	39.21	
2025-01-17 09:24:09.39	304.70	39.21	
2025-01-17 09:24:09.59	304.60	39.22	
2025-01-17 09:24:09.79	304.49	39.22	
2025-01-17 09:24:10.00	304.38	39.22	
2025-01-17 09:24:10.20	304.27	39.23	
2025-01-17 09:24:10.40	304.16	39.23	
2025-01-17 09:24:10.61	304.05	39.24	
2025-01-17 09:24:10.81	303.94	39.24	
2025-01-17 09:24:11.01	303.83	39.25	
2025-01-17 09:24:11.21	303.72	39.25	
2025-01-17 09:24:11.42	303.61	39.25	
2025-01-17 09:24:11.62	303.50	39.26	
2025-01-17 09:24:11.82	303.39	39.26	
2025-01-17 09:24:12.03	303.28	39.26	
2025-01-17 09:24:12.23	303.17	39.27	
2025-01-17 09:24:12.43	303.06	39.27	
2025-01-17 09:24:12.64	302.95	39.27	
2025-01-17 09:24:12.84	302.84	39.28	
2025-01-17 09:24:13.04	302.73	39.28	
2025-01-17 09:24:13.24	302.62	39.28	
2025-01-17 09:24:13.45	302.51	39.28	
2025-01-17 09:24:13.65	302.40	39.29	
