passes_logs/2025/01/17/SPB_Silybum_02/SPB_Silybum_02__20250117_011543_SUOMI_NPP_rec.log

#Pass ID: 20250117_011543_SUOMI NPP
#Satellite: SUOMI NPP
#Configuration: NPP
#Start time: 2025-01-17 01:15:44

#Version: 2.0.20230423
#Station: SPB_Silybum_02
#Location: 30.233357 lon 59.946436 lat
#TLE: 1 37849U 11061A   25016.11811449  .00000162  00000+0  97827-4 0  9998
#TLE: 2 37849  98.7448 317.0925 0001640  39.6134 320.5162 14.19538688685075

#Time	Az	El	Level	Level2	SNR	BER	Gain	Gain2
2025-01-17 01:15:46.91	15.44	4.20	
2025-01-17 01:15:47.11	15.43	4.22	
2025-01-17 01:15:47.31	15.42	4.23	
2025-01-17 01:15:47.52	15.42	4.24	
2025-01-17 01:15:47.72	15.41	4.26	
2025-01-17 01:15:47.92	15.40	4.27	
2025-01-17 01:15:48.12	15.39	4.28	
2025-01-17 01:15:48.33	15.39	4.30	
2025-01-17 01:15:48.53	15.38	4.31	
2025-01-17 01:15:48.73	15.37	4.33	
2025-01-17 01:15:48.94	15.36	4.34	
2025-01-17 01:15:49.14	15.36	4.35	
2025-01-17 01:15:49.34	15.35	4.37	
2025-01-17 01:15:49.54	15.34	4.38	
2025-01-17 01:15:49.75	15.33	4.39	
2025-01-17 01:15:49.95	15.33	4.41	
2025-01-17 01:15:50.15	15.32	4.42	
2025-01-17 01:15:50.36	15.31	4.44	
2025-01-17 01:15:50.56	15.30	4.45	
2025-01-17 01:15:50.76	15.30	4.46	
2025-01-17 01:15:50.97	15.29	4.48	
2025-01-17 01:15:51.17	15.28	4.49	
2025-01-17 01:15:51.37	15.27	4.50	
2025-01-17 01:15:51.57	15.27	4.52	
2025-01-17 01:15:51.78	15.26	4.53	
2025-01-17 01:15:51.98	15.25	4.54	
2025-01-17 01:15:52.18	15.24	4.56	
2025-01-17 01:15:52.39	15.23	4.57	
2025-01-17 01:15:52.59	15.23	4.59	
2025-01-17 01:15:52.79	15.22	4.60	
2025-01-17 01:15:53.00	15.21	4.61	
2025-01-17 01:15:53.20	15.20	4.63	
2025-01-17 01:15:53.40	15.20	4.64	
2025-01-17 01:15:53.60	15.19	4.65	
2025-01-17 01:15:53.81	15.18	4.67	
2025-01-17 01:15:54.01	15.17	4.68	
2025-01-17 01:15:54.21	15.17	4.70	
2025-01-17 01:15:54.42	15.16	4.71	
2025-01-17 01:15:54.62	15.15	4.72	
2025-01-17 01:15:54.82	15.14	4.74	
2025-01-17 01:15:55.03	15.13	4.75	
2025-01-17 01:15:55.23	15.13	4.77	
2025-01-17 01:15:55.43	15.12	4.78	
2025-01-17 01:15:55.63	15.11	4.79	
2025-01-17 01:15:55.84	15.10	4.81	
2025-01-17 01:15:56.04	15.10	4.82	
2025-01-17 01:15:56.24	15.09	4.83	
2025-01-17 01:15:56.45	15.08	4.85	
2025-01-17 01:15:56.65	15.07	4.86	
2025-01-17 01:15:56.85	15.06	4.88	
2025-01-17 01:15:57.05	15.06	4.89	
2025-01-17 01:15:57.26	15.05	4.90	
2025-01-17 01:15:57.46	15.04	4.92	
2025-01-17 01:15:57.66	15.03	4.93	
2025-01-17 01:15:57.87	15.02	4.95	
2025-01-17 01:15:58.07	15.02	4.96	
2025-01-17 01:15:58.27	15.01	4.97	
2025-01-17 01:15:58.48	15.00	4.99	
2025-01-17 01:15:58.68	14.99	5.00	
2025-01-17 01:15:58.88	14.98	5.01	
2025-01-17 01:15:59.08	14.98	5.03	
2025-01-17 01:15:59.29	14.97	5.04	
2025-01-17 01:15:59.49	14.96	5.06	
2025-01-17 01:15:59.69	14.95	5.07	
2025-01-17 01:15:59.90	14.94	5.08	
2025-01-17 01:16:00.10	14.94	5.10	
2025-01-17 01:16:00.30	14.93	5.11	
2025-01-17 01:16:00.50	14.92	5.13	
2025-01-17 01:16:00.71	14.91	5.14	
2025-01-17 01:16:00.91	14.90	5.15	
2025-01-17 01:16:01.11	14.90	5.17	
2025-01-17 01:16:01.32	14.89	5.18	
2025-01-17 01:16:01.52	14.88	5.20	
2025-01-17 01:16:01.72	14.87	5.21	
2025-01-17 01:16:01.93	14.86	5.23	
2025-01-17 01:16:02.13	14.86	5.24	
2025-01-17 01:16:02.33	14.85	5.25	
2025-01-17 01:16:02.53	14.84	5.27	
2025-01-17 01:16:02.74	14.83	5.28	
2025-01-17 01:16:02.94	14.82	5.30	
2025-01-17 01:16:03.14	14.82	5.31	
2025-01-17 01:16:03.35	14.81	5.32	
2025-01-17 01:16:03.55	14.80	5.34	
2025-01-17 01:16:03.75	14.79	5.35	
2025-01-17 01:16:03.96	14.78	5.37	
2025-01-17 01:16:04.16	14.77	5.38	
2025-01-17 01:16:04.36	14.77	5.39	
2025-01-17 01:16:04.56	14.76	5.41	
2025-01-17 01:16:04.77	14.75	5.42	
2025-01-17 01:16:04.97	14.74	5.44	
2025-01-17 01:16:05.17	14.73	5.45	
2025-01-17 01:16:05.38	14.73	5.46	
2025-01-17 01:16:05.58	14.72	5.48	
2025-01-17 01:16:05.78	14.71	5.49	
2025-01-17 01:16:06.00	14.70	5.51	
2025-01-17 01:16:06.20	14.69	5.52	
2025-01-17 01:16:06.40	14.68	5.54	
2025-01-17 01:16:06.61	14.68	5.55	
2025-01-17 01:16:06.81	14.67	5.56	
2025-01-17 01:16:07.01	14.66	5.58	
2025-01-17 01:16:07.22	14.65	5.59	
2025-01-17 01:16:07.42	14.64	5.61	
2025-01-17 01:16:07.62	14.63	5.62	
2025-01-17 01:16:07.82	14.63	5.64	
2025-01-17 01:16:08.03	14.62	5.65	
2025-01-17 01:16:08.23	14.61	5.66	
2025-01-17 01:16:08.43	14.60	5.68	
2025-01-17 01:16:08.64	14.59	5.69	
2025-01-17 01:16:08.84	14.58	5.71	
2025-01-17 01:16:09.04	14.58	5.72	
2025-01-17 01:16:09.24	14.57	5.74	
2025-01-17 01:16:09.45	14.56	5.75	
2025-01-17 01:16:09.65	14.55	5.76	
2025-01-17 01:16:09.85	14.54	5.78	
2025-01-17 01:16:10.06	14.53	5.79	
2025-01-17 01:16:10.26	14.53	5.81	
2025-01-17 01:16:10.46	14.52	5.82	
2025-01-17 01:16:10.67	14.51	5.84	
2025-01-17 01:16:10.87	14.50	5.85	
2025-01-17 01:16:11.07	14.49	5.86	
2025-01-17 01:16:11.27	14.48	5.88	
2025-01-17 01:16:11.48	14.47	5.89	
2025-01-17 01:16:11.68	14.47	5.91	
2025-01-17 01:16:11.88	14.46	5.92	
2025-01-17 01:16:12.09	14.45	5.94	
2025-01-17 01:16:12.29	14.44	5.95	
2025-01-17 01:16:12.49	14.43	5.97	
2025-01-17 01:16:12.70	14.42	5.98	
2025-01-17 01:16:12.90	14.41	5.99	
2025-01-17 01:16:13.10	14.41	6.01	
2025-01-17 01:16:13.30	14.40	6.02	
2025-01-17 01:16:13.51	14.39	6.04	
2025-01-17 01:16:13.71	14.38	6.05	
2025-01-17 01:16:13.91	14.37	6.07	
2025-01-17 01:16:14.12	14.36	6.08	
2025-01-17 01:16:14.32	14.35	6.10	
2025-01-17 01:16:14.52	14.35	6.11	
2025-01-17 01:16:14.72	14.34	6.12	
2025-01-17 01:16:14.93	14.33	6.14	
2025-01-17 01:16:15.13	14.32	6.15	
2025-01-17 01:16:15.33	14.31	6.17	
2025-01-17 01:16:15.54	14.30	6.18	
2025-01-17 01:16:15.74	14.29	6.20	
2025-01-17 01:16:15.94	14.29	6.21	
2025-01-17 01:16:16.15	14.28	6.23	
2025-01-17 01:16:16.35	14.27	6.24	
2025-01-17 01:16:16.55	14.26	6.26	
2025-01-17 01:16:16.75	14.25	6.27	
2025-01-17 01:16:16.96	14.24	6.28	
2025-01-17 01:16:17.16	14.23	6.30	
2025-01-17 01:16:17.36	14.22	6.31	
2025-01-17 01:16:17.57	14.22	6.33	
2025-01-17 01:16:17.77	14.21	6.34	
2025-01-17 01:16:17.97	14.20	6.36	
2025-01-17 01:16:18.18	14.19	6.37	
2025-01-17 01:16:18.38	14.18	6.39	
2025-01-17 01:16:18.58	14.17	6.40	
2025-01-17 01:16:18.78	14.16	6.42	
2025-01-17 01:16:18.99	14.15	6.43	
2025-01-17 01:16:19.19	14.14	6.45	
2025-01-17 01:16:19.39	14.14	6.46	
2025-01-17 01:16:19.60	14.13	6.48	
2025-01-17 01:16:19.80	14.12	6.49	
2025-01-17 01:16:20.00	14.11	6.50	
2025-01-17 01:16:20.21	14.10	6.52	
2025-01-17 01:16:20.41	14.09	6.53	
2025-01-17 01:16:20.61	14.08	6.55	
2025-01-17 01:16:20.81	14.07	6.56	
2025-01-17 01:16:21.02	14.06	6.58	
2025-01-17 01:16:21.22	14.06	6.59	
2025-01-17 01:16:21.42	14.05	6.61	
2025-01-17 01:16:21.63	14.04	6.62	
2025-01-17 01:16:21.83	14.03	6.64	
2025-01-17 01:16:22.03	14.02	6.65	
2025-01-17 01:16:22.23	14.01	6.67	
2025-01-17 01:16:22.44	14.00	6.68	
2025-01-17 01:16:22.64	13.99	6.70	
2025-01-17 01:16:22.84	13.98	6.71	
2025-01-17 01:16:23.05	13.97	6.73	
2025-01-17 01:16:23.25	13.97	6.74	
2025-01-17 01:16:23.45	13.96	6.75	
2025-01-17 01:16:23.66	13.95	6.77	
2025-01-17 01:16:23.86	13.94	6.78	
2025-01-17 01:16:24.06	13.93	6.80	
2025-01-17 01:16:24.26	13.92	6.81	
2025-01-17 01:16:24.47	13.91	6.83	
2025-01-17 01:16:24.67	13.90	6.84	
2025-01-17 01:16:24.87	13.89	6.86	
2025-01-17 01:16:25.08	13.88	6.87	
2025-01-17 01:16:25.28	13.87	6.89	
2025-01-17 01:16:25.48	13.87	6.90	
2025-01-17 01:16:25.69	13.86	6.92	
2025-01-17 01:16:25.89	13.85	6.93	
2025-01-17 01:16:26.09	13.84	6.95	
2025-01-17 01:16:26.29	13.83	6.96	
2025-01-17 01:16:26.50	13.82	6.98	
2025-01-17 01:16:26.70	13.81	6.99	
2025-01-17 01:16:26.90	13.80	7.01	
2025-01-17 01:16:27.11	13.79	7.02	
2025-01-17 01:16:27.31	13.78	7.04	
2025-01-17 01:16:27.51	13.77	7.05	
2025-01-17 01:16:27.71	13.76	7.07	
2025-01-17 01:16:27.92	13.75	7.08	
2025-01-17 01:16:28.12	13.75	7.10	
2025-01-17 01:16:28.32	13.74	7.11	
2025-01-17 01:16:28.53	13.73	7.13	
2025-01-17 01:16:28.73	13.72	7.14	
2025-01-17 01:16:28.93	13.71	7.16	
2025-01-17 01:16:29.14	13.70	7.17	
2025-01-17 01:16:29.34	13.69	7.19	
2025-01-17 01:16:29.54	13.68	7.20	
2025-01-17 01:16:29.74	13.67	7.22	
2025-01-17 01:16:29.95	13.66	7.23	
2025-01-17 01:16:30.15	13.65	7.25	
2025-01-17 01:16:30.35	13.64	7.26	
2025-01-17 01:16:30.56	13.63	7.28	
2025-01-17 01:16:30.76	13.62	7.29	
2025-01-17 01:16:30.96	13.61	7.31	
2025-01-17 01:16:31.17	13.60	7.32	
2025-01-17 01:16:31.37	13.59	7.34	
2025-01-17 01:16:31.57	13.59	7.35	
2025-01-17 01:16:31.77	13.58	7.37	
2025-01-17 01:16:31.98	13.57	7.38	
2025-01-17 01:16:32.18	13.56	7.40	
2025-01-17 01:16:32.38	13.55	7.41	
2025-01-17 01:16:32.59	13.54	7.43	
2025-01-17 01:16:32.79	13.53	7.45	
2025-01-17 01:16:32.99	13.52	7.46	
2025-01-17 01:16:33.19	13.51	7.48	
2025-01-17 01:16:33.40	13.50	7.49	
2025-01-17 01:16:33.60	13.49	7.51	
2025-01-17 01:16:33.80	13.48	7.52	
2025-01-17 01:16:34.01	13.47	7.54	
2025-01-17 01:16:34.21	13.46	7.55	
2025-01-17 01:16:34.41	13.45	7.57	
2025-01-17 01:16:34.62	13.44	7.58	
2025-01-17 01:16:34.82	13.43	7.60	
2025-01-17 01:16:35.02	13.42	7.61	
2025-01-17 01:16:35.22	13.41	7.63	
2025-01-17 01:16:35.43	13.40	7.64	
2025-01-17 01:16:35.63	13.39	7.66	
2025-01-17 01:16:35.83	13.38	7.67	
2025-01-17 01:16:36.04	13.37	7.69	
2025-01-17 01:16:36.24	13.36	7.70	
2025-01-17 01:16:36.44	13.36	7.72	
2025-01-17 01:16:36.65	13.34	7.74	
2025-01-17 01:16:36.85	13.34	7.75	
2025-01-17 01:16:37.05	13.33	7.77	
2025-01-17 01:16:37.25	13.32	7.78	
2025-01-17 01:16:37.46	13.31	7.80	
2025-01-17 01:16:37.66	13.30	7.81	
2025-01-17 01:16:37.86	13.29	7.83	
2025-01-17 01:16:38.07	13.28	7.84	
2025-01-17 01:16:38.27	13.27	7.86	
2025-01-17 01:16:38.47	13.26	7.87	
2025-01-17 01:16:38.68	13.25	7.89	
2025-01-17 01:16:38.88	13.24	7.90	
2025-01-17 01:16:39.08	13.23	7.92	
2025-01-17 01:16:39.28	13.22	7.94	
2025-01-17 01:16:39.49	13.21	7.95	
2025-01-17 01:16:39.69	13.20	7.97	
2025-01-17 01:16:39.89	13.19	7.98	
2025-01-17 01:16:40.10	13.18	8.00	
2025-01-17 01:16:40.30	13.17	8.01	
2025-01-17 01:16:40.50	13.16	8.03	
2025-01-17 01:16:40.70	13.15	8.04	
2025-01-17 01:16:40.91	13.14	8.06	
2025-01-17 01:16:41.11	13.13	8.08	
2025-01-17 01:16:41.31	13.12	8.09	
2025-01-17 01:16:41.52	13.11	8.11	
2025-01-17 01:16:41.72	13.10	8.12	
2025-01-17 01:16:41.92	13.09	8.14	
2025-01-17 01:16:42.13	13.08	8.15	
2025-01-17 01:16:42.33	13.07	8.17	
2025-01-17 01:16:42.53	13.06	8.18	
2025-01-17 01:16:42.73	13.05	8.20	
2025-01-17 01:16:42.94	13.04	8.22	
2025-01-17 01:16:43.14	13.03	8.23	
2025-01-17 01:16:43.34	13.02	8.25	
2025-01-17 01:16:43.55	13.01	8.26	
2025-01-17 01:16:43.75	13.00	8.28	
2025-01-17 01:16:43.95	12.99	8.29	
2025-01-17 01:16:44.16	12.98	8.31	
2025-01-17 01:16:44.36	12.97	8.33	
2025-01-17 01:16:44.56	12.96	8.34	
2025-01-17 01:16:44.76	12.95	8.36	
2025-01-17 01:16:44.97	12.94	8.37	
2025-01-17 01:16:45.17	12.93	8.39	
2025-01-17 01:16:45.37	12.92	8.40	
2025-01-17 01:16:45.58	12.90	8.42	
2025-01-17 01:16:45.78	12.89	8.43	
2025-01-17 01:16:45.98	12.88	8.45	
2025-01-17 01:16:46.18	12.87	8.47	
2025-01-17 01:16:46.39	12.86	8.48	
2025-01-17 01:16:46.59	12.85	8.50	
2025-01-17 01:16:46.79	12.84	8.51	
2025-01-17 01:16:47.00	12.83	8.53	
2025-01-17 01:16:47.20	12.82	8.55	
2025-01-17 01:16:47.40	12.81	8.56	
2025-01-17 01:16:47.61	12.80	8.58	
2025-01-17 01:16:47.81	12.79	8.59	
2025-01-17 01:16:48.01	12.78	8.61	
2025-01-17 01:16:48.21	12.77	8.62	
2025-01-17 01:16:48.42	12.76	8.64	
2025-01-17 01:16:48.62	12.75	8.66	
2025-01-17 01:16:48.82	12.74	8.67	
2025-01-17 01:16:49.03	12.73	8.69	
2025-01-17 01:16:49.23	12.72	8.70	
2025-01-17 01:16:49.43	12.71	8.72	
2025-01-17 01:16:49.64	12.70	8.74	
2025-01-17 01:16:49.84	12.69	8.75	
2025-01-17 01:16:50.04	12.68	8.77	
2025-01-17 01:16:50.24	12.67	8.78	
2025-01-17 01:16:50.45	12.65	8.80	
2025-01-17 01:16:50.65	12.64	8.82	
2025-01-17 01:16:50.85	12.63	8.83	
2025-01-17 01:16:51.06	12.62	8.85	
2025-01-17 01:16:51.26	12.61	8.86	
2025-01-17 01:16:51.46	12.60	8.88	
2025-01-17 01:16:51.66	12.59	8.89	
2025-01-17 01:16:51.87	12.58	8.91	
2025-01-17 01:16:52.07	12.57	8.93	
2025-01-17 01:16:52.27	12.56	8.94	
2025-01-17 01:16:52.48	12.55	8.96	
2025-01-17 01:16:52.68	12.54	8.98	
2025-01-17 01:16:52.88	12.53	8.99	
2025-01-17 01:16:53.09	12.52	9.01	
2025-01-17 01:16:53.29	12.51	9.02	
2025-01-17 01:16:53.49	12.50	9.04	
2025-01-17 01:16:53.69	12.48	9.06	
2025-01-17 01:16:53.90	12.47	9.07	
2025-01-17 01:16:54.10	12.46	9.09	
2025-01-17 01:16:54.30	12.45	9.10	
2025-01-17 01:16:54.51	12.44	9.12	
2025-01-17 01:16:54.71	12.43	9.14	
2025-01-17 01:16:54.91	12.42	9.15	
2025-01-17 01:16:55.12	12.41	9.17	
2025-01-17 01:16:55.32	12.40	9.18	
2025-01-17 01:16:55.52	12.39	9.20	
2025-01-17 01:16:55.72	12.38	9.22	
2025-01-17 01:16:55.93	12.37	9.23	
2025-01-17 01:16:56.13	12.35	9.25	
2025-01-17 01:16:56.33	12.34	9.27	
2025-01-17 01:16:56.54	12.33	9.28	
2025-01-17 01:16:56.74	12.32	9.30	
2025-01-17 01:16:56.94	12.31	9.31	
2025-01-17 01:16:57.15	12.30	9.33	
2025-01-17 01:16:57.35	12.29	9.35	
2025-01-17 01:16:57.55	12.28	9.36	
2025-01-17 01:16:57.75	12.27	9.38	
2025-01-17 01:16:57.96	12.26	9.40	
2025-01-17 01:16:58.16	12.24	9.41	
2025-01-17 01:16:58.36	12.23	9.43	
2025-01-17 01:16:58.57	12.22	9.44	
2025-01-17 01:16:58.77	12.21	9.46	
2025-01-17 01:16:58.97	12.20	9.48	
2025-01-17 01:16:59.17	12.19	9.49	
2025-01-17 01:16:59.38	12.18	9.51	
2025-01-17 01:16:59.58	12.17	9.53	
2025-01-17 01:16:59.78	12.16	9.54	
2025-01-17 01:16:59.99	12.14	9.56	
2025-01-17 01:17:00.19	12.13	9.58	
2025-01-17 01:17:00.39	12.12	9.59	
2025-01-17 01:17:00.60	12.11	9.61	
2025-01-17 01:17:00.80	12.10	9.62	
2025-01-17 01:17:01.00	12.09	9.64	
2025-01-17 01:17:01.20	12.08	9.66	
2025-01-17 01:17:01.41	12.07	9.67	
2025-01-17 01:17:01.61	12.06	9.69	
2025-01-17 01:17:01.81	12.04	9.71	
2025-01-17 01:17:02.02	12.03	9.72	
2025-01-17 01:17:02.22	12.02	9.74	
2025-01-17 01:17:02.42	12.01	9.76	
2025-01-17 01:17:02.63	12.00	9.77	
2025-01-17 01:17:02.83	11.99	9.79	
2025-01-17 01:17:03.03	11.98	9.81	
2025-01-17 01:17:03.23	11.96	9.82	
2025-01-17 01:17:03.44	11.95	9.84	
2025-01-17 01:17:03.64	11.94	9.86	
2025-01-17 01:17:03.84	11.93	9.87	
2025-01-17 01:17:04.05	11.92	9.89	
2025-01-17 01:17:04.25	11.91	9.91	
2025-01-17 01:17:04.45	11.90	9.92	
2025-01-17 01:17:04.65	11.88	9.94	
2025-01-17 01:17:04.86	11.87	9.96	
2025-01-17 01:17:05.06	11.86	9.97	
2025-01-17 01:17:05.26	11.85	9.99	
2025-01-17 01:17:05.47	11.84	10.01	
2025-01-17 01:17:05.67	11.83	10.02	
2025-01-17 01:17:05.87	11.82	10.04	
2025-01-17 01:17:06.08	11.80	10.06	
2025-01-17 01:17:06.28	11.79	10.07	
2025-01-17 01:17:06.48	11.78	10.09	
2025-01-17 01:17:06.68	11.77	10.10	
2025-01-17 01:17:06.89	11.76	10.12	
2025-01-17 01:17:07.09	11.75	10.14	
2025-01-17 01:17:07.29	11.73	10.16	
2025-01-17 01:17:07.50	11.72	10.17	
2025-01-17 01:17:07.70	11.71	10.19	
2025-01-17 01:17:07.90	11.70	10.21	
2025-01-17 01:17:08.11	11.69	10.22	
2025-01-17 01:17:08.31	11.68	10.24	
2025-01-17 01:17:08.51	11.66	10.26	
2025-01-17 01:17:08.71	11.65	10.27	
2025-01-17 01:17:08.92	11.64	10.29	
2025-01-17 01:17:09.12	11.63	10.31	
2025-01-17 01:17:09.32	11.62	10.32	
2025-01-17 01:17:09.53	11.60	10.34	
2025-01-17 01:17:09.73	11.59	10.36	
2025-01-17 01:17:09.93	11.58	10.37	
2025-01-17 01:17:10.13	11.57	10.39	
2025-01-17 01:17:10.34	11.56	10.41	
2025-01-17 01:17:10.54	11.55	10.42	
2025-01-17 01:17:10.74	11.53	10.44	
2025-01-17 01:17:10.95	11.52	10.46	
2025-01-17 01:17:11.15	11.51	10.48	
2025-01-17 01:17:11.35	11.50	10.49	
2025-01-17 01:17:11.56	11.49	10.51	
2025-01-17 01:17:11.76	11.47	10.53	
2025-01-17 01:17:11.96	11.46	10.54	
2025-01-17 01:17:12.16	11.45	10.56	
2025-01-17 01:17:12.37	11.44	10.58	
2025-01-17 01:17:12.57	11.43	10.59	
2025-01-17 01:17:12.77	11.41	10.61	
2025-01-17 01:17:12.98	11.40	10.63	
2025-01-17 01:17:13.18	11.39	10.65	
2025-01-17 01:17:13.38	11.38	10.66	
2025-01-17 01:17:13.59	11.37	10.68	
2025-01-17 01:17:13.79	11.35	10.70	
2025-01-17 01:17:13.99	11.34	10.71	
2025-01-17 01:17:14.19	11.33	10.73	
2025-01-17 01:17:14.40	11.32	10.75	
2025-01-17 01:17:14.60	11.31	10.76	
2025-01-17 01:17:14.80	11.29	10.78	
2025-01-17 01:17:15.01	11.28	10.80	
2025-01-17 01:17:15.21	11.27	10.82	
2025-01-17 01:17:15.41	11.26	10.83	
2025-01-17 01:17:15.61	11.24	10.85	
2025-01-17 01:17:15.82	11.23	10.87	
2025-01-17 01:17:16.02	11.22	10.88	
2025-01-17 01:17:16.22	11.21	10.90	
2025-01-17 01:17:16.43	11.19	10.92	
2025-01-17 01:17:16.63	11.18	10.94	
2025-01-17 01:17:16.83	11.17	10.95	
2025-01-17 01:17:17.04	11.16	10.97	
2025-01-17 01:17:17.24	11.15	10.99	
2025-01-17 01:17:17.44	11.13	11.01	
2025-01-17 01:17:17.64	11.12	11.02	
2025-01-17 01:17:17.85	11.11	11.04	
2025-01-17 01:17:18.05	11.10	11.06	
2025-01-17 01:17:18.25	11.08	11.07	
2025-01-17 01:17:18.46	11.07	11.09	
2025-01-17 01:17:18.66	11.06	11.11	
2025-01-17 01:17:18.86	11.05	11.13	
2025-01-17 01:17:19.07	11.03	11.14	
2025-01-17 01:17:19.27	11.02	11.16	
2025-01-17 01:17:19.47	11.01	11.18	
2025-01-17 01:17:19.67	11.00	11.20	
2025-01-17 01:17:19.88	10.98	11.21	
2025-01-17 01:17:20.08	10.97	11.23	
2025-01-17 01:17:20.28	10.96	11.25	
2025-01-17 01:17:20.49	10.94	11.27	
2025-01-17 01:17:20.69	10.93	11.28	
2025-01-17 01:17:20.89	10.92	11.30	
2025-01-17 01:17:21.10	10.91	11.32	
2025-01-17 01:17:21.30	10.89	11.34	
2025-01-17 01:17:21.50	10.88	11.35	
2025-01-17 01:17:21.70	10.87	11.37	
2025-01-17 01:17:21.91	10.86	11.39	
2025-01-17 01:17:22.11	10.84	11.41	
2025-01-17 01:17:22.31	10.83	11.42	
2025-01-17 01:17:22.52	10.82	11.44	
2025-01-17 01:17:22.72	10.81	11.46	
2025-01-17 01:17:22.92	10.79	11.48	
2025-01-17 01:17:23.12	10.78	11.49	
2025-01-17 01:17:23.33	10.77	11.51	
2025-01-17 01:17:23.53	10.75	11.53	
2025-01-17 01:17:23.73	10.74	11.55	
2025-01-17 01:17:23.94	10.73	11.56	
2025-01-17 01:17:24.14	10.71	11.58	
2025-01-17 01:17:24.34	10.70	11.60	
2025-01-17 01:17:24.55	10.69	11.62	
2025-01-17 01:17:24.75	10.68	11.63	
2025-01-17 01:17:24.95	10.66	11.65	
2025-01-17 01:17:25.15	10.65	11.67	
2025-01-17 01:17:25.36	10.64	11.69	
2025-01-17 01:17:25.56	10.62	11.70	
2025-01-17 01:17:25.76	10.61	11.72	
2025-01-17 01:17:25.97	10.60	11.74	
2025-01-17 01:17:26.17	10.58	11.76	
2025-01-17 01:17:26.37	10.57	11.78	
2025-01-17 01:17:26.58	10.56	11.79	
2025-01-17 01:17:26.78	10.55	11.81	
2025-01-17 01:17:26.98	10.53	11.83	
2025-01-17 01:17:27.18	10.52	11.85	
2025-01-17 01:17:27.39	10.51	11.86	
2025-01-17 01:17:27.59	10.49	11.88	
2025-01-17 01:17:27.79	10.48	11.90	
2025-01-17 01:17:28.00	10.47	11.92	
2025-01-17 01:17:28.20	10.45	11.94	
2025-01-17 01:17:28.40	10.44	11.95	
2025-01-17 01:17:28.60	10.43	11.97	
2025-01-17 01:17:28.81	10.41	11.99	
2025-01-17 01:17:29.01	10.40	12.01	
2025-01-17 01:17:29.21	10.39	12.03	
2025-01-17 01:17:29.42	10.37	12.04	
2025-01-17 01:17:29.62	10.36	12.06	
2025-01-17 01:17:29.82	10.35	12.08	
2025-01-17 01:17:30.03	10.33	12.10	
2025-01-17 01:17:30.23	10.32	12.12	
2025-01-17 01:17:30.43	10.31	12.13	
2025-01-17 01:17:30.63	10.29	12.15	
2025-01-17 01:17:30.84	10.28	12.17	
2025-01-17 01:17:31.04	10.27	12.19	
2025-01-17 01:17:31.24	10.25	12.20	
2025-01-17 01:17:31.45	10.24	12.22	
2025-01-17 01:17:31.65	10.22	12.24	
2025-01-17 01:17:31.85	10.21	12.26	
2025-01-17 01:17:32.06	10.20	12.28	
2025-01-17 01:17:32.26	10.18	12.30	
2025-01-17 01:17:32.46	10.17	12.31	
2025-01-17 01:17:32.66	10.16	12.33	
2025-01-17 01:17:32.87	10.14	12.35	
2025-01-17 01:17:33.07	10.13	12.37	
2025-01-17 01:17:33.27	10.12	12.39	
2025-01-17 01:17:33.48	10.10	12.40	
2025-01-17 01:17:33.68	10.09	12.42	
2025-01-17 01:17:33.88	10.07	12.44	
2025-01-17 01:17:34.08	10.06	12.46	
2025-01-17 01:17:34.29	10.05	12.48	
2025-01-17 01:17:34.49	10.03	12.49	
2025-01-17 01:17:34.69	10.02	12.51	
2025-01-17 01:17:34.90	10.01	12.53	
2025-01-17 01:17:35.10	9.99	12.55	
2025-01-17 01:17:35.30	9.98	12.57	
2025-01-17 01:17:35.51	9.96	12.59	
2025-01-17 01:17:35.71	9.95	12.60	
2025-01-17 01:17:35.91	9.94	12.62	
2025-01-17 01:17:36.11	9.92	12.64	
2025-01-17 01:17:36.32	9.91	12.66	
2025-01-17 01:17:36.52	9.89	12.68	
2025-01-17 01:17:36.72	9.88	12.70	
2025-01-17 01:17:36.93	9.87	12.71	
2025-01-17 01:17:37.13	9.85	12.73	
2025-01-17 01:17:37.33	9.84	12.75	
2025-01-17 01:17:37.54	9.82	12.77	
2025-01-17 01:17:37.74	9.81	12.79	
2025-01-17 01:17:37.94	9.80	12.81	
2025-01-17 01:17:38.14	9.78	12.82	
2025-01-17 01:17:38.35	9.77	12.84	
2025-01-17 01:17:38.55	9.75	12.86	
2025-01-17 01:17:38.75	9.74	12.88	
2025-01-17 01:17:38.96	9.72	12.90	
2025-01-17 01:17:39.16	9.71	12.92	
2025-01-17 01:17:39.36	9.70	12.94	
2025-01-17 01:17:39.57	9.68	12.95	
2025-01-17 01:17:39.77	9.67	12.97	
2025-01-17 01:17:39.97	9.65	12.99	
2025-01-17 01:17:40.17	9.64	13.01	
2025-01-17 01:17:40.38	9.62	13.03	
2025-01-17 01:17:40.58	9.61	13.05	
2025-01-17 01:17:40.78	9.60	13.07	
2025-01-17 01:17:40.99	9.58	13.08	
2025-01-17 01:17:41.19	9.57	13.10	
2025-01-17 01:17:41.39	9.55	13.12	
2025-01-17 01:17:41.59	9.54	13.14	
2025-01-17 01:17:41.80	9.52	13.16	
2025-01-17 01:17:42.00	9.51	13.18	
2025-01-17 01:17:42.20	9.50	13.20	
2025-01-17 01:17:42.41	9.48	13.21	
2025-01-17 01:17:42.61	9.47	13.23	
2025-01-17 01:17:42.81	9.45	13.25	
2025-01-17 01:17:43.02	9.44	13.27	
2025-01-17 01:17:43.22	9.42	13.29	
2025-01-17 01:17:43.42	9.41	13.31	
2025-01-17 01:17:43.62	9.39	13.33	
2025-01-17 01:17:43.83	9.38	13.35	
2025-01-17 01:17:44.03	9.36	13.36	
2025-01-17 01:17:44.23	9.35	13.38	
2025-01-17 01:17:44.44	9.33	13.40	
2025-01-17 01:17:44.64	9.32	13.42	
2025-01-17 01:17:44.84	9.31	13.44	
2025-01-17 01:17:45.05	9.29	13.46	
2025-01-17 01:17:45.25	9.28	13.48	
2025-01-17 01:17:45.45	9.26	13.50	
2025-01-17 01:17:45.65	9.25	13.51	
2025-01-17 01:17:45.86	9.23	13.53	
2025-01-17 01:17:46.06	9.22	13.55	
2025-01-17 01:17:46.26	9.20	13.57	
2025-01-17 01:17:46.47	9.19	13.59	
2025-01-17 01:17:46.67	9.17	13.61	
2025-01-17 01:17:46.87	9.16	13.63	
2025-01-17 01:17:47.07	9.14	13.65	
2025-01-17 01:17:47.28	9.13	13.67	
2025-01-17 01:17:47.48	9.11	13.69	
2025-01-17 01:17:47.68	9.10	13.70	
2025-01-17 01:17:47.89	9.08	13.72	
2025-01-17 01:17:48.09	9.07	13.74	
2025-01-17 01:17:48.29	9.05	13.76	
2025-01-17 01:17:48.50	9.04	13.78	
2025-01-17 01:17:48.70	9.02	13.80	
2025-01-17 01:17:48.90	9.01	13.82	
2025-01-17 01:17:49.10	8.99	13.84	
2025-01-17 01:17:49.31	8.97	13.86	
2025-01-17 01:17:49.51	8.96	13.88	
2025-01-17 01:17:49.71	8.94	13.90	
2025-01-17 01:17:49.92	8.93	13.91	
2025-01-17 01:17:50.12	8.91	13.93	
2025-01-17 01:17:50.32	8.90	13.95	
2025-01-17 01:17:50.53	8.88	13.97	
2025-01-17 01:17:50.73	8.87	13.99	
2025-01-17 01:17:50.93	8.85	14.01	
2025-01-17 01:17:51.13	8.84	14.03	
2025-01-17 01:17:51.34	8.82	14.05	
2025-01-17 01:17:51.54	8.81	14.07	
2025-01-17 01:17:51.74	8.79	14.09	
2025-01-17 01:17:51.95	8.78	14.11	
2025-01-17 01:17:52.15	8.76	14.13	
2025-01-17 01:17:52.35	8.74	14.15	
2025-01-17 01:17:52.55	8.73	14.16	
2025-01-17 01:17:52.76	8.71	14.18	
2025-01-17 01:17:52.96	8.70	14.20	
2025-01-17 01:17:53.16	8.68	14.22	
2025-01-17 01:17:53.37	8.67	14.24	
2025-01-17 01:17:53.57	8.65	14.26	
2025-01-17 01:17:53.77	8.64	14.28	
2025-01-17 01:17:53.98	8.62	14.30	
2025-01-17 01:17:54.18	8.60	14.32	
2025-01-17 01:17:54.38	8.59	14.34	
2025-01-17 01:17:54.58	8.57	14.36	
2025-01-17 01:17:54.79	8.56	14.38	
2025-01-17 01:17:54.99	8.54	14.40	
2025-01-17 01:17:55.19	8.53	14.42	
2025-01-17 01:17:55.40	8.51	14.44	
2025-01-17 01:17:55.60	8.49	14.46	
2025-01-17 01:17:55.80	8.48	14.48	
2025-01-17 01:17:56.01	8.46	14.50	
2025-01-17 01:17:56.21	8.45	14.51	
2025-01-17 01:17:56.41	8.43	14.53	
2025-01-17 01:17:56.61	8.41	14.55	
2025-01-17 01:17:56.82	8.40	14.57	
2025-01-17 01:17:57.02	8.38	14.59	
2025-01-17 01:17:57.22	8.37	14.61	
2025-01-17 01:17:57.43	8.35	14.63	
2025-01-17 01:17:57.63	8.33	14.65	
2025-01-17 01:17:57.83	8.32	14.67	
2025-01-17 01:17:58.04	8.30	14.69	
2025-01-17 01:17:58.24	8.28	14.71	
2025-01-17 01:17:58.44	8.27	14.73	
2025-01-17 01:17:58.64	8.25	14.75	
2025-01-17 01:17:58.85	8.24	14.77	
2025-01-17 01:17:59.05	8.22	14.79	
2025-01-17 01:17:59.25	8.20	14.81	
2025-01-17 01:17:59.46	8.19	14.83	
2025-01-17 01:17:59.66	8.17	14.85	
2025-01-17 01:17:59.86	8.15	14.87	
2025-01-17 01:18:00.06	8.14	14.89	
2025-01-17 01:18:00.27	8.12	14.91	
2025-01-17 01:18:00.47	8.11	14.93	
2025-01-17 01:18:00.67	8.09	14.95	
2025-01-17 01:18:00.88	8.07	14.97	
2025-01-17 01:18:01.08	8.06	14.99	
2025-01-17 01:18:01.28	8.04	15.01	
2025-01-17 01:18:01.49	8.02	15.03	
2025-01-17 01:18:01.69	8.01	15.05	
2025-01-17 01:18:01.89	7.99	15.07	
2025-01-17 01:18:02.09	7.97	15.09	
2025-01-17 01:18:02.30	7.96	15.11	
2025-01-17 01:18:02.50	7.94	15.13	
2025-01-17 01:18:02.70	7.92	15.15	
2025-01-17 01:18:02.91	7.91	15.17	
2025-01-17 01:18:03.11	7.89	15.19	
2025-01-17 01:18:03.31	7.87	15.21	
2025-01-17 01:18:03.52	7.86	15.23	
2025-01-17 01:18:03.72	7.84	15.25	
2025-01-17 01:18:03.92	7.82	15.27	
2025-01-17 01:18:04.12	7.81	15.29	
2025-01-17 01:18:04.33	7.79	15.31	
2025-01-17 01:18:04.53	7.77	15.33	
2025-01-17 01:18:04.73	7.76	15.35	
2025-01-17 01:18:04.94	7.74	15.37	
2025-01-17 01:18:05.14	7.72	15.39	
2025-01-17 01:18:05.34	7.71	15.41	
2025-01-17 01:18:05.54	7.69	15.43	
2025-01-17 01:18:05.75	7.67	15.45	
2025-01-17 01:18:05.95	7.65	15.47	
2025-01-17 01:18:06.15	7.64	15.49	
2025-01-17 01:18:06.36	7.62	15.51	
2025-01-17 01:18:06.56	7.60	15.53	
2025-01-17 01:18:06.76	7.59	15.55	
2025-01-17 01:18:06.97	7.57	15.57	
2025-01-17 01:18:07.17	7.55	15.59	
2025-01-17 01:18:07.37	7.53	15.61	
2025-01-17 01:18:07.57	7.52	15.63	
2025-01-17 01:18:07.78	7.50	15.65	
2025-01-17 01:18:07.98	7.48	15.67	
2025-01-17 01:18:08.18	7.47	15.69	
2025-01-17 01:18:08.39	7.45	15.71	
2025-01-17 01:18:08.59	7.43	15.73	
2025-01-17 01:18:08.79	7.41	15.75	
2025-01-17 01:18:09.00	7.40	15.78	
2025-01-17 01:18:09.20	7.38	15.80	
2025-01-17 01:18:09.40	7.36	15.82	
2025-01-17 01:18:09.60	7.34	15.84	
2025-01-17 01:18:09.81	7.33	15.86	
2025-01-17 01:18:10.01	7.31	15.88	
2025-01-17 01:18:10.21	7.29	15.90	
2025-01-17 01:18:10.42	7.27	15.92	
2025-01-17 01:18:10.62	7.26	15.94	
2025-01-17 01:18:10.82	7.24	15.96	
2025-01-17 01:18:11.02	7.22	15.98	
2025-01-17 01:18:11.23	7.20	16.00	
2025-01-17 01:18:11.43	7.18	16.02	
2025-01-17 01:18:11.63	7.17	16.04	
2025-01-17 01:18:11.84	7.15	16.06	
2025-01-17 01:18:12.04	7.13	16.08	
2025-01-17 01:18:12.24	7.11	16.10	
2025-01-17 01:18:12.45	7.10	16.12	
2025-01-17 01:18:12.65	7.08	16.15	
2025-01-17 01:18:12.85	7.06	16.17	
2025-01-17 01:18:13.05	7.04	16.19	
2025-01-17 01:18:13.26	7.02	16.21	
2025-01-17 01:18:13.46	7.01	16.23	
2025-01-17 01:18:13.66	6.99	16.25	
2025-01-17 01:18:13.87	6.97	16.27	
2025-01-17 01:18:14.07	6.95	16.29	
2025-01-17 01:18:14.27	6.93	16.31	
2025-01-17 01:18:14.48	6.92	16.33	
2025-01-17 01:18:14.68	6.90	16.35	
2025-01-17 01:18:14.88	6.88	16.37	
2025-01-17 01:18:15.08	6.86	16.39	
2025-01-17 01:18:15.29	6.84	16.42	
2025-01-17 01:18:15.49	6.83	16.44	
2025-01-17 01:18:15.69	6.81	16.46	
2025-01-17 01:18:15.90	6.79	16.48	
2025-01-17 01:18:16.10	6.77	16.50	
2025-01-17 01:18:16.30	6.75	16.52	
2025-01-17 01:18:16.51	6.73	16.54	
2025-01-17 01:18:16.71	6.72	16.56	
2025-01-17 01:18:16.91	6.70	16.58	
2025-01-17 01:18:17.11	6.68	16.60	
2025-01-17 01:18:17.32	6.66	16.63	
2025-01-17 01:18:17.52	6.64	16.65	
2025-01-17 01:18:17.72	6.62	16.67	
2025-01-17 01:18:17.93	6.60	16.69	
2025-01-17 01:18:18.13	6.59	16.71	
2025-01-17 01:18:18.33	6.57	16.73	
2025-01-17 01:18:18.53	6.55	16.75	
2025-01-17 01:18:18.74	6.53	16.77	
2025-01-17 01:18:18.94	6.51	16.79	
2025-01-17 01:18:19.14	6.49	16.81	
2025-01-17 01:18:19.35	6.47	16.84	
2025-01-17 01:18:19.55	6.46	16.86	
2025-01-17 01:18:19.75	6.44	16.88	
2025-01-17 01:18:19.96	6.42	16.90	
2025-01-17 01:18:20.16	6.40	16.92	
2025-01-17 01:18:20.36	6.38	16.94	
2025-01-17 01:18:20.56	6.36	16.96	
2025-01-17 01:18:20.77	6.34	16.99	
2025-01-17 01:18:20.97	6.32	17.01	
2025-01-17 01:18:21.17	6.30	17.03	
2025-01-17 01:18:21.38	6.28	17.05	
2025-01-17 01:18:21.58	6.27	17.07	
2025-01-17 01:18:21.78	6.25	17.09	
2025-01-17 01:18:21.99	6.23	17.11	
2025-01-17 01:18:22.19	6.21	17.13	
2025-01-17 01:18:22.39	6.19	17.16	
2025-01-17 01:18:22.59	6.17	17.18	
2025-01-17 01:18:22.80	6.15	17.20	
2025-01-17 01:18:23.00	6.13	17.22	
2025-01-17 01:18:23.20	6.11	17.24	
2025-01-17 01:18:23.41	6.09	17.26	
2025-01-17 01:18:23.61	6.07	17.28	
2025-01-17 01:18:23.81	6.06	17.31	
2025-01-17 01:18:24.01	6.04	17.33	
2025-01-17 01:18:24.22	6.02	17.35	
2025-01-17 01:18:24.42	6.00	17.37	
2025-01-17 01:18:24.62	5.98	17.39	
2025-01-17 01:18:24.83	5.96	17.41	
2025-01-17 01:18:25.03	5.94	17.44	
2025-01-17 01:18:25.23	5.92	17.46	
2025-01-17 01:18:25.44	5.90	17.48	
2025-01-17 01:18:25.64	5.88	17.50	
2025-01-17 01:18:25.84	5.86	17.52	
2025-01-17 01:18:26.04	5.84	17.54	
2025-01-17 01:18:26.25	5.82	17.57	
2025-01-17 01:18:26.45	5.80	17.59	
2025-01-17 01:18:26.65	5.78	17.61	
2025-01-17 01:18:26.86	5.76	17.63	
2025-01-17 01:18:27.06	5.74	17.65	
2025-01-17 01:18:27.26	5.72	17.67	
2025-01-17 01:18:27.47	5.70	17.70	
2025-01-17 01:18:27.67	5.68	17.72	
2025-01-17 01:18:27.87	5.66	17.74	
2025-01-17 01:18:28.07	5.64	17.76	
2025-01-17 01:18:28.28	5.62	17.78	
2025-01-17 01:18:28.48	5.60	17.81	
2025-01-17 01:18:28.68	5.58	17.83	
2025-01-17 01:18:28.89	5.56	17.85	
2025-01-17 01:18:29.09	5.54	17.87	
2025-01-17 01:18:29.29	5.52	17.89	
2025-01-17 01:18:29.49	5.50	17.91	
2025-01-17 01:18:29.70	5.48	17.94	
2025-01-17 01:18:29.90	5.46	17.96	
2025-01-17 01:18:30.10	5.44	17.98	
2025-01-17 01:18:30.31	5.42	18.00	
2025-01-17 01:18:30.51	5.40	18.03	
2025-01-17 01:18:30.71	5.38	18.05	
2025-01-17 01:18:30.92	5.36	18.07	
2025-01-17 01:18:31.12	5.34	18.09	
2025-01-17 01:18:31.32	5.32	18.11	
2025-01-17 01:18:31.52	5.30	18.14	
2025-01-17 01:18:31.73	5.28	18.16	
2025-01-17 01:18:31.93	5.26	18.18	
2025-01-17 01:18:32.13	5.24	18.20	
2025-01-17 01:18:32.34	5.22	18.22	
2025-01-17 01:18:32.54	5.20	18.25	
2025-01-17 01:18:32.74	5.17	18.27	
2025-01-17 01:18:32.95	5.15	18.29	
2025-01-17 01:18:33.15	5.13	18.31	
2025-01-17 01:18:33.35	5.11	18.34	
2025-01-17 01:18:33.55	5.09	18.36	
2025-01-17 01:18:33.76	5.07	18.38	
2025-01-17 01:18:33.96	5.05	18.40	
2025-01-17 01:18:34.16	5.03	18.42	
2025-01-17 01:18:34.37	5.01	18.45	
2025-01-17 01:18:34.57	4.99	18.47	
2025-01-17 01:18:34.77	4.97	18.49	
2025-01-17 01:18:34.98	4.94	18.51	
2025-01-17 01:18:35.18	4.92	18.54	
2025-01-17 01:18:35.38	4.90	18.56	
2025-01-17 01:18:35.58	4.88	18.58	
2025-01-17 01:18:35.79	4.86	18.60	
2025-01-17 01:18:35.99	4.84	18.63	
2025-01-17 01:18:36.19	4.82	18.65	
2025-01-17 01:18:36.40	4.80	18.67	
2025-01-17 01:18:36.60	4.78	18.69	
2025-01-17 01:18:36.80	4.75	18.72	
2025-01-17 01:18:37.00	4.73	18.74	
2025-01-17 01:18:37.21	4.71	18.76	
2025-01-17 01:18:37.41	4.69	18.78	
2025-01-17 01:18:37.61	4.67	18.81	
2025-01-17 01:18:37.82	4.65	18.83	
2025-01-17 01:18:38.02	4.63	18.85	
2025-01-17 01:18:38.22	4.60	18.87	
2025-01-17 01:18:38.43	4.58	18.90	
2025-01-17 01:18:38.63	4.56	18.92	
2025-01-17 01:18:38.83	4.54	18.94	
2025-01-17 01:18:39.03	4.52	18.97	
2025-01-17 01:18:39.24	4.50	18.99	
2025-01-17 01:18:39.44	4.47	19.01	
2025-01-17 01:18:39.64	4.45	19.03	
2025-01-17 01:18:39.85	4.43	19.06	
2025-01-17 01:18:40.05	4.41	19.08	
2025-01-17 01:18:40.25	4.39	19.10	
2025-01-17 01:18:40.46	4.36	19.13	
2025-01-17 01:18:40.66	4.34	19.15	
2025-01-17 01:18:40.86	4.32	19.17	
2025-01-17 01:18:41.06	4.30	19.19	
2025-01-17 01:18:41.27	4.28	19.22	
2025-01-17 01:18:41.47	4.26	19.24	
2025-01-17 01:18:41.67	4.23	19.26	
2025-01-17 01:18:41.88	4.21	19.29	
2025-01-17 01:18:42.08	4.19	19.31	
2025-01-17 01:18:42.28	4.17	19.33	
2025-01-17 01:18:42.48	4.15	19.35	
2025-01-17 01:18:42.69	4.12	19.38	
2025-01-17 01:18:42.89	4.10	19.40	
2025-01-17 01:18:43.09	4.08	19.42	
2025-01-17 01:18:43.30	4.05	19.45	
2025-01-17 01:18:43.50	4.03	19.47	
2025-01-17 01:18:43.70	4.01	19.49	
2025-01-17 01:18:43.91	3.99	19.52	
2025-01-17 01:18:44.11	3.97	19.54	
2025-01-17 01:18:44.31	3.94	19.56	
2025-01-17 01:18:44.51	3.92	19.59	
2025-01-17 01:18:44.72	3.90	19.61	
2025-01-17 01:18:44.92	3.88	19.63	
2025-01-17 01:18:45.12	3.85	19.65	
2025-01-17 01:18:45.33	3.83	19.68	
2025-01-17 01:18:45.53	3.81	19.70	
2025-01-17 01:18:45.73	3.78	19.72	
2025-01-17 01:18:45.94	3.76	19.75	
2025-01-17 01:18:46.14	3.74	19.77	
2025-01-17 01:18:46.34	3.72	19.79	
2025-01-17 01:18:46.54	3.69	19.82	
2025-01-17 01:18:46.75	3.67	19.84	
2025-01-17 01:18:46.95	3.65	19.86	
2025-01-17 01:18:47.15	3.62	19.89	
2025-01-17 01:18:47.36	3.60	19.91	
2025-01-17 01:18:47.56	3.58	19.94	
2025-01-17 01:18:47.76	3.55	19.96	
2025-01-17 01:18:47.96	3.53	19.98	
2025-01-17 01:18:48.17	3.51	20.01	
2025-01-17 01:18:48.37	3.48	20.03	
2025-01-17 01:18:48.57	3.46	20.05	
2025-01-17 01:18:48.78	3.44	20.08	
2025-01-17 01:18:48.98	3.41	20.10	
2025-01-17 01:18:49.18	3.39	20.12	
2025-01-17 01:18:49.39	3.37	20.15	
2025-01-17 01:18:49.59	3.34	20.17	
2025-01-17 01:18:49.79	3.32	20.19	
2025-01-17 01:18:49.99	3.30	20.22	
2025-01-17 01:18:50.20	3.27	20.24	
2025-01-17 01:18:50.40	3.25	20.26	
2025-01-17 01:18:50.60	3.23	20.29	
2025-01-17 01:18:50.81	3.20	20.31	
2025-01-17 01:18:51.01	3.18	20.34	
2025-01-17 01:18:51.21	3.15	20.36	
2025-01-17 01:18:51.42	3.13	20.38	
2025-01-17 01:18:51.62	3.11	20.41	
2025-01-17 01:18:51.82	3.08	20.43	
2025-01-17 01:18:52.02	3.06	20.45	
2025-01-17 01:18:52.23	3.03	20.48	
2025-01-17 01:18:52.43	3.01	20.50	
2025-01-17 01:18:52.63	2.99	20.53	
2025-01-17 01:18:52.84	2.96	20.55	
2025-01-17 01:18:53.04	2.94	20.57	
2025-01-17 01:18:53.24	2.91	20.60	
2025-01-17 01:18:53.44	2.89	20.62	
2025-01-17 01:18:53.65	2.87	20.65	
2025-01-17 01:18:53.85	2.84	20.67	
2025-01-17 01:18:54.05	2.82	20.69	
2025-01-17 01:18:54.26	2.79	20.72	
2025-01-17 01:18:54.46	2.77	20.74	
2025-01-17 01:18:54.66	2.74	20.77	
2025-01-17 01:18:54.87	2.72	20.79	
2025-01-17 01:18:55.07	2.69	20.81	
2025-01-17 01:18:55.27	2.67	20.84	
2025-01-17 01:18:55.47	2.65	20.86	
2025-01-17 01:18:55.68	2.62	20.89	
2025-01-17 01:18:55.88	2.60	20.91	
2025-01-17 01:18:56.08	2.57	20.93	
2025-01-17 01:18:56.29	2.55	20.96	
2025-01-17 01:18:56.49	2.52	20.98	
2025-01-17 01:18:56.69	2.50	21.01	
2025-01-17 01:18:56.90	2.47	21.03	
2025-01-17 01:18:57.10	2.45	21.06	
2025-01-17 01:18:57.30	2.42	21.08	
2025-01-17 01:18:57.50	2.40	21.10	
2025-01-17 01:18:57.71	2.37	21.13	
2025-01-17 01:18:57.91	2.35	21.15	
2025-01-17 01:18:58.11	2.32	21.18	
2025-01-17 01:18:58.32	2.30	21.20	
2025-01-17 01:18:58.52	2.27	21.23	
2025-01-17 01:18:58.72	2.25	21.25	
2025-01-17 01:18:58.93	2.22	21.27	
2025-01-17 01:18:59.13	2.20	21.30	
2025-01-17 01:18:59.33	2.17	21.32	
2025-01-17 01:18:59.53	2.15	21.35	
2025-01-17 01:18:59.74	2.12	21.37	
2025-01-17 01:18:59.94	2.09	21.40	
2025-01-17 01:19:00.14	2.07	21.42	
2025-01-17 01:19:00.35	2.04	21.45	
2025-01-17 01:19:00.55	2.02	21.47	
2025-01-17 01:19:00.75	1.99	21.49	
2025-01-17 01:19:00.95	1.97	21.52	
2025-01-17 01:19:01.16	1.94	21.54	
2025-01-17 01:19:01.36	1.91	21.57	
2025-01-17 01:19:01.56	1.89	21.59	
2025-01-17 01:19:01.77	1.86	21.62	
2025-01-17 01:19:01.97	1.84	21.64	
2025-01-17 01:19:02.17	1.81	21.67	
2025-01-17 01:19:02.38	1.78	21.69	
2025-01-17 01:19:02.58	1.76	21.72	
2025-01-17 01:19:02.78	1.73	21.74	
2025-01-17 01:19:02.98	1.71	21.77	
2025-01-17 01:19:03.19	1.68	21.79	
2025-01-17 01:19:03.39	1.65	21.82	
2025-01-17 01:19:03.59	1.63	21.84	
2025-01-17 01:19:03.80	1.60	21.87	
2025-01-17 01:19:04.00	1.58	21.89	
2025-01-17 01:19:04.20	1.55	21.91	
2025-01-17 01:19:04.41	1.52	21.94	
2025-01-17 01:19:04.61	1.50	21.96	
2025-01-17 01:19:04.81	1.47	21.99	
2025-01-17 01:19:05.01	1.44	22.01	
2025-01-17 01:19:05.22	1.42	22.04	
2025-01-17 01:19:05.42	1.39	22.06	
2025-01-17 01:19:05.62	1.36	22.09	
2025-01-17 01:19:05.83	1.34	22.11	
2025-01-17 01:19:06.03	1.31	22.14	
2025-01-17 01:19:06.23	1.28	22.16	
2025-01-17 01:19:06.43	1.26	22.19	
2025-01-17 01:19:06.64	1.23	22.21	
2025-01-17 01:19:06.84	1.20	22.24	
2025-01-17 01:19:07.04	1.18	22.26	
2025-01-17 01:19:07.25	1.15	22.29	
2025-01-17 01:19:07.45	1.12	22.31	
2025-01-17 01:19:07.65	1.09	22.34	
2025-01-17 01:19:07.86	1.07	22.37	
2025-01-17 01:19:08.06	1.04	22.39	
2025-01-17 01:19:08.26	1.01	22.42	
2025-01-17 01:19:08.46	0.98	22.44	
2025-01-17 01:19:08.67	0.96	22.47	
2025-01-17 01:19:08.87	0.93	22.49	
2025-01-17 01:19:09.07	0.90	22.52	
2025-01-17 01:19:09.28	0.87	22.54	
2025-01-17 01:19:09.48	0.85	22.57	
2025-01-17 01:19:09.68	0.82	22.59	
2025-01-17 01:19:09.89	0.79	22.62	
2025-01-17 01:19:10.09	0.76	22.64	
2025-01-17 01:19:10.29	0.74	22.67	
2025-01-17 01:19:10.49	0.71	22.69	
2025-01-17 01:19:10.70	0.68	22.72	
2025-01-17 01:19:10.90	0.65	22.74	
2025-01-17 01:19:11.10	0.63	22.77	
2025-01-17 01:19:11.31	0.60	22.80	
2025-01-17 01:19:11.51	0.57	22.82	
2025-01-17 01:19:11.71	0.54	22.85	
2025-01-17 01:19:11.92	0.51	22.87	
2025-01-17 01:19:12.12	0.48	22.90	
2025-01-17 01:19:12.32	0.46	22.92	
2025-01-17 01:19:12.52	0.43	22.95	
2025-01-17 01:19:12.73	0.40	22.97	
2025-01-17 01:19:12.93	0.37	23.00	
2025-01-17 01:19:13.13	0.34	23.03	
2025-01-17 01:19:13.34	0.31	23.05	
2025-01-17 01:19:13.54	0.29	23.08	
2025-01-17 01:19:13.74	0.26	23.10	
2025-01-17 01:19:13.94	0.23	23.13	
2025-01-17 01:19:14.15	0.20	23.15	
2025-01-17 01:19:14.35	0.17	23.18	
2025-01-17 01:19:14.55	0.14	23.21	
2025-01-17 01:19:14.76	0.11	23.23	
2025-01-17 01:19:14.96	0.09	23.26	
2025-01-17 01:19:15.16	0.06	23.28	
2025-01-17 01:19:15.37	0.03	23.31	
2025-01-17 01:19:15.57	360.00	23.33	
2025-01-17 01:19:15.77	359.97	23.36	
2025-01-17 01:19:15.97	359.94	23.39	
2025-01-17 01:19:16.18	359.91	23.41	
2025-01-17 01:19:16.38	359.88	23.44	
2025-01-17 01:19:16.58	359.85	23.46	
2025-01-17 01:19:16.79	359.82	23.49	
2025-01-17 01:19:16.99	359.79	23.52	
2025-01-17 01:19:17.19	359.77	23.54	
2025-01-17 01:19:17.40	359.73	23.57	
2025-01-17 01:19:17.60	359.71	23.59	
2025-01-17 01:19:17.80	359.68	23.62	
2025-01-17 01:19:18.00	359.65	23.65	
2025-01-17 01:19:18.21	359.62	23.67	
2025-01-17 01:19:18.41	359.59	23.70	
2025-01-17 01:19:18.61	359.56	23.72	
2025-01-17 01:19:18.82	359.53	23.75	
2025-01-17 01:19:19.02	359.50	23.78	
2025-01-17 01:19:19.22	359.47	23.80	
2025-01-17 01:19:19.42	359.44	23.83	
2025-01-17 01:19:19.63	359.41	23.86	
2025-01-17 01:19:19.83	359.38	23.88	
2025-01-17 01:19:20.03	359.35	23.91	
2025-01-17 01:19:20.24	359.32	23.93	
2025-01-17 01:19:20.44	359.29	23.96	
2025-01-17 01:19:20.64	359.26	23.99	
2025-01-17 01:19:20.85	359.23	24.01	
2025-01-17 01:19:21.05	359.20	24.04	
2025-01-17 01:19:21.25	359.17	24.07	
2025-01-17 01:19:21.45	359.14	24.09	
2025-01-17 01:19:21.66	359.11	24.12	
2025-01-17 01:19:21.86	359.08	24.14	
2025-01-17 01:19:22.06	359.04	24.17	
2025-01-17 01:19:22.27	359.01	24.20	
2025-01-17 01:19:22.47	358.98	24.22	
2025-01-17 01:19:22.67	358.95	24.25	
2025-01-17 01:19:22.88	358.92	24.28	
2025-01-17 01:19:23.08	358.89	24.30	
2025-01-17 01:19:23.28	358.86	24.33	
2025-01-17 01:19:23.48	358.83	24.36	
2025-01-17 01:19:23.69	358.80	24.38	
2025-01-17 01:19:23.89	358.77	24.41	
2025-01-17 01:19:24.09	358.74	24.44	
2025-01-17 01:19:24.30	358.70	24.46	
2025-01-17 01:19:24.50	358.67	24.49	
2025-01-17 01:19:24.70	358.64	24.52	
2025-01-17 01:19:24.90	358.61	24.54	
2025-01-17 01:19:25.11	358.58	24.57	
2025-01-17 01:19:25.31	358.55	24.60	
2025-01-17 01:19:25.51	358.52	24.62	
2025-01-17 01:19:25.72	358.48	24.65	
2025-01-17 01:19:25.92	358.45	24.68	
2025-01-17 01:19:26.12	358.42	24.70	
2025-01-17 01:19:26.33	358.39	24.73	
2025-01-17 01:19:26.53	358.36	24.76	
2025-01-17 01:19:26.73	358.33	24.78	
2025-01-17 01:19:26.93	358.29	24.81	
2025-01-17 01:19:27.14	358.26	24.84	
2025-01-17 01:19:27.34	358.23	24.86	
2025-01-17 01:19:27.54	358.20	24.89	
2025-01-17 01:19:27.75	358.16	24.92	
2025-01-17 01:19:27.95	358.13	24.95	
2025-01-17 01:19:28.15	358.10	24.97	
2025-01-17 01:19:28.36	358.07	25.00	
2025-01-17 01:19:28.56	358.04	25.03	
2025-01-17 01:19:28.76	358.00	25.05	
2025-01-17 01:19:28.96	357.97	25.08	
2025-01-17 01:19:29.17	357.94	25.11	
2025-01-17 01:19:29.37	357.91	25.13	
2025-01-17 01:19:29.57	357.87	25.16	
2025-01-17 01:19:29.78	357.84	25.19	
2025-01-17 01:19:29.98	357.81	25.22	
2025-01-17 01:19:30.18	357.78	25.24	
2025-01-17 01:19:30.38	357.74	25.27	
2025-01-17 01:19:30.59	357.71	25.30	
2025-01-17 01:19:30.79	357.68	25.32	
2025-01-17 01:19:30.99	357.64	25.35	
2025-01-17 01:19:31.20	357.61	25.38	
2025-01-17 01:19:31.40	357.58	25.41	
2025-01-17 01:19:31.60	357.54	25.43	
2025-01-17 01:19:31.81	357.51	25.46	
2025-01-17 01:19:32.01	357.48	25.49	
2025-01-17 01:19:32.21	357.44	25.51	
2025-01-17 01:19:32.41	357.41	25.54	
2025-01-17 01:19:32.62	357.38	25.57	
2025-01-17 01:19:32.82	357.34	25.60	
2025-01-17 01:19:33.02	357.31	25.62	
2025-01-17 01:19:33.23	357.28	25.65	
2025-01-17 01:19:33.43	357.24	25.68	
2025-01-17 01:19:33.63	357.21	25.71	
2025-01-17 01:19:33.84	357.17	25.73	
2025-01-17 01:19:34.04	357.14	25.76	
2025-01-17 01:19:34.24	357.11	25.79	
2025-01-17 01:19:34.44	357.07	25.82	
2025-01-17 01:19:34.65	357.04	25.84	
2025-01-17 01:19:34.85	357.00	25.87	
2025-01-17 01:19:35.05	356.97	25.90	
2025-01-17 01:19:35.26	356.94	25.93	
2025-01-17 01:19:35.46	356.90	25.95	
2025-01-17 01:19:35.66	356.87	25.98	
2025-01-17 01:19:35.87	356.83	26.01	
2025-01-17 01:19:36.07	356.80	26.04	
2025-01-17 01:19:36.27	356.76	26.06	
2025-01-17 01:19:36.47	356.73	26.09	
2025-01-17 01:19:36.68	356.69	26.12	
2025-01-17 01:19:36.88	356.66	26.15	
2025-01-17 01:19:37.08	356.63	26.17	
2025-01-17 01:19:37.29	356.59	26.20	
2025-01-17 01:19:37.49	356.55	26.23	
2025-01-17 01:19:37.69	356.52	26.26	
2025-01-17 01:19:37.89	356.49	26.28	
2025-01-17 01:19:38.10	356.45	26.31	
2025-01-17 01:19:38.30	356.41	26.34	
2025-01-17 01:19:38.50	356.38	26.37	
2025-01-17 01:19:38.71	356.34	26.40	
2025-01-17 01:19:38.91	356.31	26.42	
2025-01-17 01:19:39.11	356.27	26.45	
2025-01-17 01:19:39.32	356.24	26.48	
2025-01-17 01:19:39.52	356.20	26.51	
2025-01-17 01:19:39.72	356.17	26.54	
2025-01-17 01:19:39.92	356.13	26.56	
2025-01-17 01:19:40.13	356.09	26.59	
2025-01-17 01:19:40.33	356.06	26.62	
2025-01-17 01:19:40.53	356.02	26.65	
2025-01-17 01:19:40.74	355.99	26.68	
2025-01-17 01:19:40.94	355.95	26.70	
2025-01-17 01:19:41.14	355.92	26.73	
2025-01-17 01:19:41.35	355.88	26.76	
2025-01-17 01:19:41.55	355.84	26.79	
2025-01-17 01:19:41.75	355.81	26.82	
2025-01-17 01:19:41.95	355.77	26.84	
2025-01-17 01:19:42.16	355.73	26.87	
2025-01-17 01:19:42.36	355.70	26.90	
2025-01-17 01:19:42.56	355.66	26.93	
2025-01-17 01:19:42.77	355.62	26.96	
2025-01-17 01:19:42.97	355.59	26.99	
2025-01-17 01:19:43.17	355.55	27.01	
2025-01-17 01:19:43.37	355.51	27.04	
2025-01-17 01:19:43.58	355.48	27.07	
2025-01-17 01:19:43.78	355.44	27.10	
2025-01-17 01:19:43.98	355.40	27.13	
2025-01-17 01:19:44.19	355.37	27.15	
2025-01-17 01:19:44.39	355.33	27.18	
2025-01-17 01:19:44.59	355.29	27.21	
2025-01-17 01:19:44.80	355.25	27.24	
2025-01-17 01:19:45.00	355.22	27.27	
2025-01-17 01:19:45.20	355.18	27.30	
2025-01-17 01:19:45.40	355.14	27.32	
2025-01-17 01:19:45.61	355.10	27.35	
2025-01-17 01:19:45.81	355.07	27.38	
2025-01-17 01:19:46.01	355.03	27.41	
2025-01-17 01:19:46.22	354.99	27.44	
2025-01-17 01:19:46.42	354.95	27.47	
2025-01-17 01:19:46.62	354.92	27.49	
2025-01-17 01:19:46.83	354.88	27.52	
2025-01-17 01:19:47.03	354.84	27.55	
2025-01-17 01:19:47.23	354.80	27.58	
2025-01-17 01:19:47.43	354.76	27.61	
2025-01-17 01:19:47.64	354.72	27.64	
2025-01-17 01:19:47.84	354.69	27.67	
2025-01-17 01:19:48.04	354.65	27.69	
2025-01-17 01:19:48.25	354.61	27.72	
2025-01-17 01:19:48.45	354.57	27.75	
2025-01-17 01:19:48.65	354.53	27.78	
2025-01-17 01:19:48.85	354.49	27.81	
2025-01-17 01:19:49.06	354.45	27.84	
2025-01-17 01:19:49.26	354.42	27.87	
2025-01-17 01:19:49.46	354.38	27.89	
2025-01-17 01:19:49.67	354.34	27.92	
2025-01-17 01:19:49.87	354.30	27.95	
2025-01-17 01:19:50.07	354.26	27.98	
2025-01-17 01:19:50.28	354.22	28.01	
2025-01-17 01:19:50.48	354.18	28.04	
2025-01-17 01:19:50.68	354.14	28.07	
2025-01-17 01:19:50.88	354.10	28.10	
2025-01-17 01:19:51.09	354.06	28.13	
2025-01-17 01:19:51.29	354.02	28.15	
2025-01-17 01:19:51.49	353.99	28.18	
2025-01-17 01:19:51.70	353.94	28.21	
2025-01-17 01:19:51.90	353.90	28.24	
2025-01-17 01:19:52.10	353.87	28.27	
2025-01-17 01:19:52.31	353.82	28.30	
2025-01-17 01:19:52.51	353.79	28.33	
2025-01-17 01:19:52.71	353.75	28.36	
2025-01-17 01:19:52.91	353.71	28.38	
2025-01-17 01:19:53.12	353.66	28.41	
2025-01-17 01:19:53.32	353.62	28.44	
2025-01-17 01:19:53.52	353.59	28.47	
2025-01-17 01:19:53.73	353.54	28.50	
2025-01-17 01:19:53.93	353.50	28.53	
2025-01-17 01:19:54.13	353.46	28.56	
2025-01-17 01:19:54.34	353.42	28.59	
2025-01-17 01:19:54.54	353.38	28.62	
2025-01-17 01:19:54.74	353.34	28.65	
2025-01-17 01:19:54.94	353.30	28.67	
2025-01-17 01:19:55.15	353.26	28.70	
2025-01-17 01:19:55.35	353.22	28.73	
2025-01-17 01:19:55.55	353.18	28.76	
2025-01-17 01:19:55.76	353.13	28.79	
2025-01-17 01:19:55.96	353.09	28.82	
2025-01-17 01:19:56.16	353.05	28.85	
2025-01-17 01:19:56.36	353.01	28.88	
2025-01-17 01:19:56.57	352.97	28.91	
2025-01-17 01:19:56.77	352.93	28.94	
2025-01-17 01:19:56.97	352.89	28.97	
2025-01-17 01:19:57.18	352.84	29.00	
2025-01-17 01:19:57.38	352.80	29.02	
2025-01-17 01:19:57.58	352.76	29.05	
2025-01-17 01:19:57.79	352.72	29.08	
2025-01-17 01:19:57.99	352.68	29.11	
2025-01-17 01:19:58.19	352.64	29.14	
2025-01-17 01:19:58.39	352.59	29.17	
2025-01-17 01:19:58.60	352.55	29.20	
2025-01-17 01:19:58.80	352.51	29.23	
2025-01-17 01:19:59.00	352.47	29.26	
2025-01-17 01:19:59.22	352.42	29.29	
2025-01-17 01:19:59.42	352.38	29.32	
2025-01-17 01:19:59.63	352.34	29.35	
2025-01-17 01:19:59.83	352.29	29.38	
2025-01-17 01:20:00.03	352.25	29.41	
2025-01-17 01:20:00.24	352.21	29.44	
2025-01-17 01:20:00.44	352.16	29.47	
2025-01-17 01:20:00.64	352.12	29.50	
2025-01-17 01:20:00.84	352.08	29.53	
2025-01-17 01:20:01.05	352.03	29.56	
2025-01-17 01:20:01.25	351.99	29.58	
2025-01-17 01:20:01.45	351.95	29.61	
2025-01-17 01:20:01.66	351.90	29.64	
2025-01-17 01:20:01.86	351.86	29.67	
2025-01-17 01:20:02.06	351.82	29.70	
2025-01-17 01:20:02.27	351.77	29.73	
2025-01-17 01:20:02.47	351.73	29.76	
2025-01-17 01:20:02.67	351.69	29.79	
2025-01-17 01:20:02.87	351.64	29.82	
2025-01-17 01:20:03.08	351.60	29.85	
2025-01-17 01:20:03.28	351.56	29.88	
2025-01-17 01:20:03.48	351.51	29.91	
2025-01-17 01:20:03.69	351.47	29.94	
2025-01-17 01:20:03.89	351.42	29.97	
2025-01-17 01:20:04.09	351.38	30.00	
2025-01-17 01:20:04.30	351.33	30.03	
2025-01-17 01:20:04.50	351.29	30.06	
2025-01-17 01:20:04.70	351.24	30.09	
2025-01-17 01:20:04.90	351.20	30.12	
2025-01-17 01:20:05.11	351.15	30.15	
2025-01-17 01:20:05.31	351.11	30.18	
2025-01-17 01:20:05.51	351.07	30.21	
2025-01-17 01:20:05.72	351.02	30.24	
2025-01-17 01:20:05.92	350.97	30.27	
2025-01-17 01:20:06.12	350.93	30.30	
2025-01-17 01:20:06.32	350.88	30.32	
2025-01-17 01:20:06.53	350.84	30.36	
2025-01-17 01:20:06.73	350.79	30.38	
2025-01-17 01:20:06.93	350.75	30.41	
2025-01-17 01:20:07.14	350.70	30.44	
2025-01-17 01:20:07.34	350.66	30.47	
2025-01-17 01:20:07.54	350.61	30.50	
2025-01-17 01:20:07.75	350.56	30.53	
2025-01-17 01:20:07.95	350.52	30.56	
2025-01-17 01:20:08.15	350.47	30.59	
2025-01-17 01:20:08.35	350.43	30.62	
2025-01-17 01:20:08.56	350.38	30.65	
2025-01-17 01:20:08.76	350.33	30.68	
2025-01-17 01:20:08.96	350.29	30.71	
2025-01-17 01:20:09.17	350.24	30.74	
2025-01-17 01:20:09.37	350.19	30.77	
2025-01-17 01:20:09.57	350.15	30.80	
2025-01-17 01:20:09.78	350.10	30.83	
2025-01-17 01:20:09.98	350.05	30.86	
2025-01-17 01:20:10.18	350.01	30.89	
2025-01-17 01:20:10.38	349.96	30.92	
2025-01-17 01:20:10.59	349.91	30.95	
2025-01-17 01:20:10.79	349.86	30.98	
2025-01-17 01:20:10.99	349.82	31.01	
2025-01-17 01:20:11.20	349.77	31.04	
2025-01-17 01:20:11.40	349.72	31.07	
2025-01-17 01:20:11.60	349.68	31.10	
2025-01-17 01:20:11.80	349.63	31.13	
2025-01-17 01:20:12.01	349.58	31.16	
2025-01-17 01:20:12.21	349.53	31.19	
2025-01-17 01:20:12.41	349.48	31.22	
2025-01-17 01:20:12.62	349.43	31.25	
2025-01-17 01:20:12.82	349.39	31.28	
2025-01-17 01:20:13.02	349.34	31.31	
2025-01-17 01:20:13.23	349.29	31.34	
2025-01-17 01:20:13.43	349.24	31.37	
2025-01-17 01:20:13.63	349.19	31.40	
2025-01-17 01:20:13.83	349.15	31.43	
2025-01-17 01:20:14.04	349.10	31.46	
2025-01-17 01:20:14.24	349.05	31.49	
2025-01-17 01:20:14.44	349.00	31.52	
2025-01-17 01:20:14.65	348.95	31.55	
2025-01-17 01:20:14.85	348.90	31.58	
2025-01-17 01:20:15.05	348.85	31.61	
2025-01-17 01:20:15.26	348.80	31.64	
2025-01-17 01:20:15.46	348.75	31.67	
2025-01-17 01:20:15.66	348.70	31.70	
2025-01-17 01:20:15.86	348.66	31.73	
2025-01-17 01:20:16.07	348.60	31.76	
2025-01-17 01:20:16.27	348.55	31.79	
2025-01-17 01:20:16.47	348.51	31.82	
2025-01-17 01:20:16.68	348.45	31.86	
2025-01-17 01:20:16.88	348.40	31.89	
2025-01-17 01:20:17.08	348.36	31.91	
2025-01-17 01:20:17.28	348.31	31.94	
2025-01-17 01:20:17.49	348.25	31.98	
2025-01-17 01:20:17.69	348.20	32.01	
2025-01-17 01:20:17.89	348.15	32.04	
2025-01-17 01:20:18.10	348.10	32.07	
2025-01-17 01:20:18.30	348.05	32.10	
2025-01-17 01:20:18.50	348.00	32.13	
2025-01-17 01:20:18.71	347.95	32.16	
2025-01-17 01:20:18.91	347.90	32.19	
2025-01-17 01:20:19.11	347.85	32.22	
2025-01-17 01:20:19.31	347.80	32.25	
2025-01-17 01:20:19.52	347.75	32.28	
2025-01-17 01:20:19.72	347.70	32.31	
2025-01-17 01:20:19.92	347.64	32.34	
2025-01-17 01:20:20.13	347.59	32.37	
2025-01-17 01:20:20.33	347.54	32.40	
2025-01-17 01:20:20.53	347.49	32.43	
2025-01-17 01:20:20.74	347.44	32.46	
2025-01-17 01:20:20.94	347.38	32.49	
2025-01-17 01:20:21.14	347.33	32.52	
2025-01-17 01:20:21.34	347.28	32.55	
2025-01-17 01:20:21.55	347.23	32.58	
2025-01-17 01:20:21.75	347.18	32.61	
2025-01-17 01:20:21.95	347.12	32.64	
2025-01-17 01:20:22.16	347.07	32.67	
2025-01-17 01:20:22.36	347.02	32.70	
2025-01-17 01:20:22.56	346.97	32.73	
2025-01-17 01:20:22.76	346.91	32.76	
2025-01-17 01:20:22.97	346.86	32.79	
2025-01-17 01:20:23.17	346.81	32.82	
2025-01-17 01:20:23.37	346.76	32.85	
2025-01-17 01:20:23.58	346.70	32.88	
2025-01-17 01:20:23.78	346.65	32.91	
2025-01-17 01:20:23.98	346.60	32.94	
2025-01-17 01:20:24.19	346.54	32.98	
2025-01-17 01:20:24.39	346.49	33.01	
2025-01-17 01:20:24.59	346.43	33.04	
2025-01-17 01:20:24.79	346.38	33.07	
2025-01-17 01:20:25.00	346.33	33.10	
2025-01-17 01:20:25.20	346.27	33.13	
2025-01-17 01:20:25.40	346.22	33.16	
2025-01-17 01:20:25.61	346.16	33.19	
2025-01-17 01:20:25.81	346.11	33.22	
2025-01-17 01:20:26.01	346.06	33.25	
2025-01-17 01:20:26.22	346.00	33.28	
2025-01-17 01:20:26.42	345.95	33.31	
2025-01-17 01:20:26.62	345.89	33.34	
2025-01-17 01:20:26.82	345.84	33.37	
2025-01-17 01:20:27.03	345.78	33.40	
2025-01-17 01:20:27.23	345.73	33.43	
2025-01-17 01:20:27.43	345.67	33.46	
2025-01-17 01:20:27.64	345.61	33.49	
2025-01-17 01:20:27.84	345.56	33.52	
2025-01-17 01:20:28.04	345.51	33.55	
2025-01-17 01:20:28.25	345.45	33.58	
2025-01-17 01:20:28.45	345.39	33.61	
2025-01-17 01:20:28.65	345.34	33.64	
2025-01-17 01:20:28.85	345.28	33.67	
2025-01-17 01:20:29.06	345.23	33.70	
2025-01-17 01:20:29.26	345.17	33.73	
2025-01-17 01:20:29.46	345.11	33.76	
2025-01-17 01:20:29.67	345.06	33.80	
2025-01-17 01:20:29.87	345.00	33.82	
2025-01-17 01:20:30.07	344.95	33.85	
2025-01-17 01:20:30.27	344.89	33.88	
2025-01-17 01:20:30.48	344.83	33.92	
2025-01-17 01:20:30.68	344.77	33.95	
2025-01-17 01:20:30.88	344.72	33.98	
2025-01-17 01:20:31.09	344.66	34.01	
2025-01-17 01:20:31.29	344.60	34.04	
2025-01-17 01:20:31.49	344.55	34.07	
2025-01-17 01:20:31.70	344.49	34.10	
2025-01-17 01:20:31.90	344.43	34.13	
2025-01-17 01:20:32.10	344.37	34.16	
2025-01-17 01:20:32.30	344.32	34.19	
2025-01-17 01:20:32.51	344.26	34.22	
2025-01-17 01:20:32.71	344.20	34.25	
2025-01-17 01:20:32.91	344.14	34.28	
2025-01-17 01:20:33.12	344.08	34.31	
2025-01-17 01:20:33.32	344.03	34.34	
2025-01-17 01:20:33.52	343.97	34.37	
2025-01-17 01:20:33.73	343.91	34.40	
2025-01-17 01:20:33.93	343.85	34.43	
2025-01-17 01:20:34.13	343.79	34.46	
2025-01-17 01:20:34.33	343.73	34.49	
2025-01-17 01:20:34.54	343.67	34.52	
2025-01-17 01:20:34.74	343.61	34.55	
2025-01-17 01:20:34.94	343.56	34.58	
2025-01-17 01:20:35.15	343.50	34.61	
2025-01-17 01:20:35.35	343.44	34.64	
2025-01-17 01:20:35.55	343.38	34.67	
2025-01-17 01:20:35.75	343.32	34.70	
2025-01-17 01:20:35.96	343.26	34.73	
2025-01-17 01:20:36.16	343.20	34.76	
2025-01-17 01:20:36.36	343.14	34.79	
2025-01-17 01:20:36.57	343.08	34.82	
2025-01-17 01:20:36.77	343.02	34.85	
2025-01-17 01:20:36.97	342.96	34.88	
2025-01-17 01:20:37.18	342.90	34.92	
2025-01-17 01:20:37.38	342.84	34.95	
2025-01-17 01:20:37.58	342.78	34.97	
2025-01-17 01:20:37.78	342.72	35.00	
2025-01-17 01:20:37.99	342.65	35.04	
2025-01-17 01:20:38.19	342.59	35.07	
2025-01-17 01:20:38.39	342.53	35.10	
2025-01-17 01:20:38.60	342.47	35.13	
2025-01-17 01:20:38.80	342.41	35.16	
2025-01-17 01:20:39.00	342.35	35.19	
2025-01-17 01:20:39.21	342.29	35.22	
2025-01-17 01:20:39.41	342.23	35.25	
2025-01-17 01:20:39.61	342.17	35.28	
2025-01-17 01:20:39.81	342.10	35.31	
2025-01-17 01:20:40.02	342.04	35.34	
2025-01-17 01:20:40.22	341.98	35.37	
2025-01-17 01:20:40.42	341.92	35.40	
2025-01-17 01:20:40.63	341.85	35.43	
2025-01-17 01:20:40.83	341.79	35.46	
2025-01-17 01:20:41.03	341.73	35.49	
2025-01-17 01:20:41.24	341.67	35.52	
2025-01-17 01:20:41.44	341.60	35.55	
2025-01-17 01:20:41.64	341.54	35.58	
2025-01-17 01:20:41.84	341.48	35.61	
2025-01-17 01:20:42.05	341.41	35.64	
2025-01-17 01:20:42.25	341.35	35.67	
2025-01-17 01:20:42.45	341.29	35.70	
2025-01-17 01:20:42.66	341.22	35.73	
2025-01-17 01:20:42.86	341.16	35.76	
2025-01-17 01:20:43.06	341.10	35.79	
2025-01-17 01:20:43.26	341.04	35.82	
2025-01-17 01:20:43.47	340.97	35.85	
2025-01-17 01:20:43.67	340.91	35.88	
2025-01-17 01:20:43.87	340.84	35.90	
2025-01-17 01:20:44.08	340.78	35.94	
2025-01-17 01:20:44.28	340.71	35.97	
2025-01-17 01:20:44.48	340.65	35.99	
2025-01-17 01:20:44.69	340.58	36.03	
2025-01-17 01:20:44.89	340.52	36.05	
2025-01-17 01:20:45.09	340.45	36.08	
2025-01-17 01:20:45.29	340.39	36.11	
2025-01-17 01:20:45.50	340.32	36.14	
2025-01-17 01:20:45.70	340.26	36.17	
2025-01-17 01:20:45.90	340.19	36.20	
2025-01-17 01:20:46.11	340.13	36.23	
2025-01-17 01:20:46.31	340.06	36.26	
2025-01-17 01:20:46.51	340.00	36.29	
2025-01-17 01:20:46.72	339.93	36.32	
2025-01-17 01:20:46.92	339.86	36.35	
2025-01-17 01:20:47.12	339.80	36.38	
2025-01-17 01:20:47.32	339.73	36.41	
2025-01-17 01:20:47.53	339.66	36.44	
2025-01-17 01:20:47.73	339.60	36.47	
2025-01-17 01:20:47.93	339.53	36.50	
2025-01-17 01:20:48.14	339.46	36.53	
2025-01-17 01:20:48.34	339.40	36.56	
2025-01-17 01:20:48.54	339.33	36.59	
2025-01-17 01:20:48.74	339.27	36.62	
2025-01-17 01:20:48.95	339.20	36.65	
2025-01-17 01:20:49.15	339.13	36.68	
2025-01-17 01:20:49.35	339.06	36.70	
2025-01-17 01:20:49.56	338.99	36.74	
2025-01-17 01:20:49.76	338.93	36.76	
2025-01-17 01:20:49.96	338.86	36.79	
2025-01-17 01:20:50.17	338.79	36.82	
2025-01-17 01:20:50.37	338.72	36.85	
2025-01-17 01:20:50.57	338.66	36.88	
2025-01-17 01:20:50.77	338.59	36.91	
2025-01-17 01:20:50.98	338.52	36.94	
2025-01-17 01:20:51.18	338.45	36.97	
2025-01-17 01:20:51.38	338.38	37.00	
2025-01-17 01:20:51.59	338.31	37.03	
2025-01-17 01:20:51.79	338.24	37.06	
2025-01-17 01:20:51.99	338.18	37.09	
2025-01-17 01:20:52.20	338.10	37.12	
2025-01-17 01:20:52.40	338.04	37.14	
2025-01-17 01:20:52.60	337.97	37.17	
2025-01-17 01:20:52.80	337.90	37.20	
2025-01-17 01:20:53.01	337.83	37.23	
2025-01-17 01:20:53.21	337.76	37.26	
2025-01-17 01:20:53.41	337.69	37.29	
2025-01-17 01:20:53.62	337.62	37.32	
2025-01-17 01:20:53.82	337.55	37.35	
2025-01-17 01:20:54.02	337.48	37.38	
2025-01-17 01:20:54.22	337.41	37.40	
2025-01-17 01:20:54.43	337.34	37.43	
2025-01-17 01:20:54.63	337.27	37.46	
2025-01-17 01:20:54.83	337.20	37.49	
2025-01-17 01:20:55.04	337.12	37.52	
2025-01-17 01:20:55.24	337.05	37.55	
2025-01-17 01:20:55.44	336.98	37.58	
2025-01-17 01:20:55.65	336.91	37.61	
2025-01-17 01:20:55.85	336.84	37.64	
2025-01-17 01:20:56.05	336.77	37.66	
2025-01-17 01:20:56.25	336.70	37.69	
2025-01-17 01:20:56.46	336.62	37.72	
2025-01-17 01:20:56.66	336.55	37.75	
2025-01-17 01:20:56.86	336.48	37.78	
2025-01-17 01:20:57.07	336.41	37.81	
2025-01-17 01:20:57.27	336.34	37.84	
2025-01-17 01:20:57.47	336.26	37.86	
2025-01-17 01:20:57.68	336.19	37.89	
2025-01-17 01:20:57.88	336.12	37.92	
2025-01-17 01:20:58.08	336.05	37.95	
2025-01-17 01:20:58.28	335.97	37.98	
2025-01-17 01:20:58.49	335.90	38.01	
2025-01-17 01:20:58.69	335.83	38.03	
2025-01-17 01:20:58.89	335.75	38.06	
2025-01-17 01:20:59.10	335.68	38.09	
2025-01-17 01:20:59.30	335.61	38.12	
2025-01-17 01:20:59.50	335.53	38.15	
2025-01-17 01:20:59.71	335.46	38.18	
2025-01-17 01:20:59.91	335.38	38.20	
2025-01-17 01:21:00.11	335.31	38.23	
2025-01-17 01:21:00.31	335.24	38.26	
2025-01-17 01:21:00.52	335.16	38.29	
2025-01-17 01:21:00.72	335.09	38.32	
2025-01-17 01:21:00.92	335.01	38.34	
2025-01-17 01:21:01.13	334.94	38.37	
2025-01-17 01:21:01.33	334.86	38.40	
2025-01-17 01:21:01.53	334.79	38.43	
2025-01-17 01:21:01.73	334.71	38.45	
2025-01-17 01:21:01.94	334.64	38.48	
2025-01-17 01:21:02.14	334.56	38.51	
2025-01-17 01:21:02.34	334.49	38.54	
2025-01-17 01:21:02.55	334.41	38.57	
2025-01-17 01:21:02.75	334.33	38.59	
2025-01-17 01:21:02.95	334.26	38.62	
2025-01-17 01:21:03.16	334.18	38.65	
2025-01-17 01:21:03.36	334.11	38.68	
2025-01-17 01:21:03.56	334.03	38.70	
2025-01-17 01:21:03.76	333.95	38.73	
2025-01-17 01:21:03.97	333.88	38.76	
2025-01-17 01:21:04.17	333.80	38.79	
2025-01-17 01:21:04.37	333.72	38.81	
2025-01-17 01:21:04.58	333.64	38.84	
2025-01-17 01:21:04.78	333.57	38.87	
2025-01-17 01:21:04.98	333.49	38.89	
2025-01-17 01:21:05.19	333.41	38.92	
2025-01-17 01:21:05.39	333.34	38.95	
2025-01-17 01:21:05.59	333.26	38.98	
2025-01-17 01:21:05.79	333.18	39.00	
2025-01-17 01:21:06.00	333.10	39.03	
2025-01-17 01:21:06.20	333.03	39.06	
2025-01-17 01:21:06.40	332.95	39.08	
2025-01-17 01:21:06.61	332.87	39.11	
2025-01-17 01:21:06.81	332.79	39.14	
2025-01-17 01:21:07.01	332.71	39.17	
2025-01-17 01:21:07.21	332.63	39.19	
2025-01-17 01:21:07.42	332.55	39.22	
2025-01-17 01:21:07.62	332.48	39.25	
2025-01-17 01:21:07.82	332.40	39.27	
2025-01-17 01:21:08.03	332.32	39.30	
2025-01-17 01:21:08.23	332.24	39.33	
2025-01-17 01:21:08.43	332.16	39.35	
2025-01-17 01:21:08.64	332.08	39.38	
2025-01-17 01:21:08.84	332.00	39.41	
2025-01-17 01:21:09.04	331.92	39.43	
2025-01-17 01:21:09.24	331.84	39.46	
2025-01-17 01:21:09.45	331.76	39.48	
2025-01-17 01:21:09.65	331.68	39.51	
2025-01-17 01:21:09.85	331.60	39.54	
2025-01-17 01:21:10.06	331.52	39.56	
2025-01-17 01:21:10.26	331.44	39.59	
2025-01-17 01:21:10.46	331.36	39.62	
2025-01-17 01:21:10.67	331.27	39.64	
2025-01-17 01:21:10.87	331.19	39.67	
2025-01-17 01:21:11.07	331.11	39.69	
2025-01-17 01:21:11.27	331.03	39.72	
2025-01-17 01:21:11.48	330.95	39.75	
2025-01-17 01:21:11.68	330.87	39.77	
2025-01-17 01:21:11.88	330.79	39.80	
2025-01-17 01:21:12.09	330.70	39.82	
2025-01-17 01:21:12.29	330.62	39.85	
2025-01-17 01:21:12.49	330.54	39.87	
2025-01-17 01:21:12.69	330.46	39.90	
2025-01-17 01:21:12.90	330.38	39.93	
2025-01-17 01:21:13.10	330.29	39.95	
2025-01-17 01:21:13.30	330.21	39.98	
2025-01-17 01:21:13.51	330.13	40.00	
2025-01-17 01:21:13.71	330.05	40.03	
2025-01-17 01:21:13.91	329.96	40.05	
2025-01-17 01:21:14.12	329.88	40.08	
2025-01-17 01:21:14.32	329.80	40.10	
2025-01-17 01:21:14.52	329.71	40.13	
2025-01-17 01:21:14.72	329.63	40.15	
2025-01-17 01:21:14.93	329.54	40.18	
2025-01-17 01:21:15.13	329.46	40.20	
2025-01-17 01:21:15.33	329.38	40.23	
2025-01-17 01:21:15.54	329.29	40.25	
2025-01-17 01:21:15.74	329.21	40.28	
2025-01-17 01:21:15.94	329.13	40.30	
2025-01-17 01:21:16.15	329.04	40.33	
2025-01-17 01:21:16.35	328.96	40.35	
2025-01-17 01:21:16.55	328.87	40.38	
2025-01-17 01:21:16.75	328.79	40.40	
2025-01-17 01:21:16.96	328.70	40.43	
2025-01-17 01:21:17.16	328.62	40.45	
2025-01-17 01:21:17.36	328.53	40.48	
2025-01-17 01:21:17.57	328.44	40.50	
2025-01-17 01:21:17.77	328.36	40.52	
2025-01-17 01:21:17.97	328.28	40.55	
2025-01-17 01:21:18.18	328.19	40.57	
2025-01-17 01:21:18.38	328.10	40.60	
2025-01-17 01:21:18.58	328.02	40.62	
2025-01-17 01:21:18.78	327.93	40.64	
2025-01-17 01:21:18.99	327.84	40.67	
2025-01-17 01:21:19.19	327.76	40.69	
2025-01-17 01:21:19.39	327.67	40.72	
2025-01-17 01:21:19.60	327.58	40.74	
2025-01-17 01:21:19.80	327.50	40.76	
2025-01-17 01:21:20.00	327.41	40.79	
2025-01-17 01:21:20.20	327.33	40.81	
2025-01-17 01:21:20.41	327.24	40.84	
2025-01-17 01:21:20.61	327.15	40.86	
2025-01-17 01:21:20.81	327.06	40.88	
2025-01-17 01:21:21.02	326.97	40.91	
2025-01-17 01:21:21.22	326.89	40.93	
2025-01-17 01:21:21.42	326.80	40.95	
2025-01-17 01:21:21.63	326.71	40.98	
2025-01-17 01:21:21.83	326.62	41.00	
2025-01-17 01:21:22.03	326.54	41.02	
2025-01-17 01:21:22.23	326.45	41.04	
2025-01-17 01:21:22.44	326.36	41.07	
2025-01-17 01:21:22.64	326.27	41.09	
2025-01-17 01:21:22.84	326.18	41.11	
2025-01-17 01:21:23.05	326.09	41.14	
2025-01-17 01:21:23.25	326.00	41.16	
2025-01-17 01:21:23.45	325.92	41.18	
2025-01-17 01:21:23.66	325.82	41.20	
2025-01-17 01:21:23.86	325.74	41.23	
2025-01-17 01:21:24.06	325.65	41.25	
