passes_logs/2025/01/17/SPB_Silybum_02/SPB_Silybum_02__20250117_025612_SUOMI_NPP_rec.log

#Pass ID: 20250117_025612_SUOMI NPP
#Satellite: SUOMI NPP
#Configuration: NPP
#Start time: 2025-01-17 02:56:13

#Version: 2.0.20230423
#Station: SPB_Silybum_02
#Location: 30.233357 lon 59.946436 lat
#TLE: 1 37849U 11061A   25016.11811449  .00000162  00000+0  97827-4 0  9998
#TLE: 2 37849  98.7448 317.0925 0001640  39.6134 320.5162 14.19538688685075

#Time	Az	El	Level	Level2	SNR	BER	Gain	Gain2
2025-01-17 02:56:15.74	13.91	4.16	
2025-01-17 02:56:15.94	13.89	4.17	
2025-01-17 02:56:16.14	13.87	4.19	
2025-01-17 02:56:16.35	13.85	4.20	
2025-01-17 02:56:16.55	13.83	4.21	
2025-01-17 02:56:16.75	13.81	4.22	
2025-01-17 02:56:16.95	13.79	4.23	
2025-01-17 02:56:17.16	13.77	4.24	
2025-01-17 02:56:17.36	13.75	4.25	
2025-01-17 02:56:17.56	13.73	4.26	
2025-01-17 02:56:17.77	13.71	4.27	
2025-01-17 02:56:17.97	13.69	4.28	
2025-01-17 02:56:18.17	13.68	4.29	
2025-01-17 02:56:18.38	13.66	4.30	
2025-01-17 02:56:18.58	13.64	4.31	
2025-01-17 02:56:18.78	13.62	4.32	
2025-01-17 02:56:18.98	13.60	4.33	
2025-01-17 02:56:19.19	13.58	4.35	
2025-01-17 02:56:19.39	13.56	4.36	
2025-01-17 02:56:19.59	13.54	4.37	
2025-01-17 02:56:19.80	13.52	4.38	
2025-01-17 02:56:20.00	13.50	4.39	
2025-01-17 02:56:20.20	13.48	4.40	
2025-01-17 02:56:20.40	13.46	4.41	
2025-01-17 02:56:20.61	13.44	4.42	
2025-01-17 02:56:20.81	13.42	4.43	
2025-01-17 02:56:21.01	13.40	4.44	
2025-01-17 02:56:21.22	13.38	4.45	
2025-01-17 02:56:21.42	13.36	4.46	
2025-01-17 02:56:21.62	13.34	4.47	
2025-01-17 02:56:21.83	13.32	4.48	
2025-01-17 02:56:22.03	13.30	4.49	
2025-01-17 02:56:22.23	13.28	4.51	
2025-01-17 02:56:22.43	13.26	4.52	
2025-01-17 02:56:22.64	13.24	4.53	
2025-01-17 02:56:22.84	13.22	4.54	
2025-01-17 02:56:23.04	13.20	4.55	
2025-01-17 02:56:23.25	13.18	4.56	
2025-01-17 02:56:23.45	13.16	4.57	
2025-01-17 02:56:23.65	13.14	4.58	
2025-01-17 02:56:23.86	13.12	4.59	
2025-01-17 02:56:24.06	13.10	4.60	
2025-01-17 02:56:24.26	13.08	4.61	
2025-01-17 02:56:24.46	13.06	4.62	
2025-01-17 02:56:24.67	13.04	4.63	
2025-01-17 02:56:24.87	13.02	4.64	
2025-01-17 02:56:25.07	13.00	4.65	
2025-01-17 02:56:25.28	12.98	4.67	
2025-01-17 02:56:25.48	12.96	4.68	
2025-01-17 02:56:25.68	12.94	4.69	
2025-01-17 02:56:25.89	12.92	4.70	
2025-01-17 02:56:26.09	12.90	4.71	
2025-01-17 02:56:26.29	12.88	4.72	
2025-01-17 02:56:26.49	12.86	4.73	
2025-01-17 02:56:26.70	12.84	4.74	
2025-01-17 02:56:26.90	12.82	4.75	
2025-01-17 02:56:27.10	12.80	4.76	
2025-01-17 02:56:27.31	12.78	4.77	
2025-01-17 02:56:27.51	12.76	4.78	
2025-01-17 02:56:27.71	12.74	4.79	
2025-01-17 02:56:27.91	12.72	4.80	
2025-01-17 02:56:28.12	12.70	4.82	
2025-01-17 02:56:28.32	12.68	4.83	
2025-01-17 02:56:28.52	12.66	4.84	
2025-01-17 02:56:28.73	12.64	4.85	
2025-01-17 02:56:28.93	12.62	4.86	
2025-01-17 02:56:29.13	12.60	4.87	
2025-01-17 02:56:29.34	12.58	4.88	
2025-01-17 02:56:29.54	12.56	4.89	
2025-01-17 02:56:29.74	12.54	4.90	
2025-01-17 02:56:29.94	12.52	4.91	
2025-01-17 02:56:30.15	12.50	4.92	
2025-01-17 02:56:30.35	12.48	4.93	
2025-01-17 02:56:30.55	12.46	4.94	
2025-01-17 02:56:30.76	12.44	4.95	
2025-01-17 02:56:30.96	12.42	4.97	
2025-01-17 02:56:31.16	12.40	4.98	
2025-01-17 02:56:31.37	12.38	4.99	
2025-01-17 02:56:31.57	12.36	5.00	
2025-01-17 02:56:31.77	12.34	5.01	
2025-01-17 02:56:31.97	12.32	5.02	
2025-01-17 02:56:32.18	12.29	5.03	
2025-01-17 02:56:32.38	12.27	5.04	
2025-01-17 02:56:32.58	12.25	5.05	
2025-01-17 02:56:32.79	12.23	5.06	
2025-01-17 02:56:32.99	12.21	5.07	
2025-01-17 02:56:33.19	12.19	5.08	
2025-01-17 02:56:33.39	12.17	5.09	
2025-01-17 02:56:33.60	12.15	5.10	
2025-01-17 02:56:33.80	12.13	5.12	
2025-01-17 02:56:34.00	12.11	5.13	
2025-01-17 02:56:34.21	12.09	5.14	
2025-01-17 02:56:34.41	12.07	5.15	
2025-01-17 02:56:34.61	12.05	5.16	
2025-01-17 02:56:34.82	12.03	5.17	
2025-01-17 02:56:35.02	12.01	5.18	
2025-01-17 02:56:35.22	11.99	5.19	
2025-01-17 02:56:35.42	11.96	5.20	
2025-01-17 02:56:35.63	11.94	5.21	
2025-01-17 02:56:35.83	11.92	5.22	
2025-01-17 02:56:36.03	11.90	5.23	
2025-01-17 02:56:36.24	11.88	5.24	
2025-01-17 02:56:36.44	11.86	5.25	
2025-01-17 02:56:36.64	11.84	5.27	
2025-01-17 02:56:36.85	11.82	5.28	
2025-01-17 02:56:37.05	11.80	5.29	
2025-01-17 02:56:37.25	11.78	5.30	
2025-01-17 02:56:37.45	11.76	5.31	
2025-01-17 02:56:37.66	11.73	5.32	
2025-01-17 02:56:37.86	11.71	5.33	
2025-01-17 02:56:38.06	11.69	5.34	
2025-01-17 02:56:38.27	11.67	5.35	
2025-01-17 02:56:38.47	11.65	5.36	
2025-01-17 02:56:38.67	11.63	5.37	
2025-01-17 02:56:38.87	11.61	5.38	
2025-01-17 02:56:39.08	11.59	5.39	
2025-01-17 02:56:39.28	11.57	5.41	
2025-01-17 02:56:39.48	11.55	5.42	
2025-01-17 02:56:39.69	11.52	5.43	
2025-01-17 02:56:39.89	11.50	5.44	
2025-01-17 02:56:40.09	11.48	5.45	
2025-01-17 02:56:40.30	11.46	5.46	
2025-01-17 02:56:40.50	11.44	5.47	
2025-01-17 02:56:40.70	11.42	5.48	
2025-01-17 02:56:40.90	11.40	5.49	
2025-01-17 02:56:41.11	11.38	5.50	
2025-01-17 02:56:41.31	11.35	5.51	
2025-01-17 02:56:41.51	11.33	5.52	
2025-01-17 02:56:41.72	11.31	5.53	
2025-01-17 02:56:41.92	11.29	5.55	
2025-01-17 02:56:42.12	11.27	5.56	
2025-01-17 02:56:42.33	11.25	5.57	
2025-01-17 02:56:42.53	11.23	5.58	
2025-01-17 02:56:42.73	11.21	5.59	
2025-01-17 02:56:42.93	11.18	5.60	
2025-01-17 02:56:43.14	11.16	5.61	
2025-01-17 02:56:43.34	11.14	5.62	
2025-01-17 02:56:43.54	11.12	5.63	
2025-01-17 02:56:43.75	11.10	5.64	
2025-01-17 02:56:43.95	11.08	5.65	
2025-01-17 02:56:44.15	11.06	5.66	
2025-01-17 02:56:44.35	11.03	5.67	
2025-01-17 02:56:44.56	11.01	5.68	
2025-01-17 02:56:44.76	10.99	5.70	
2025-01-17 02:56:44.96	10.97	5.71	
2025-01-17 02:56:45.17	10.95	5.72	
2025-01-17 02:56:45.37	10.93	5.73	
2025-01-17 02:56:45.57	10.91	5.74	
2025-01-17 02:56:45.78	10.88	5.75	
2025-01-17 02:56:45.98	10.86	5.76	
2025-01-17 02:56:46.18	10.84	5.77	
2025-01-17 02:56:46.38	10.82	5.78	
2025-01-17 02:56:46.59	10.80	5.79	
2025-01-17 02:56:46.79	10.77	5.80	
2025-01-17 02:56:46.99	10.75	5.81	
2025-01-17 02:56:47.20	10.73	5.83	
2025-01-17 02:56:47.40	10.71	5.84	
2025-01-17 02:56:47.60	10.69	5.85	
2025-01-17 02:56:47.81	10.67	5.86	
2025-01-17 02:56:48.01	10.64	5.87	
2025-01-17 02:56:48.21	10.62	5.88	
2025-01-17 02:56:48.41	10.60	5.89	
2025-01-17 02:56:48.62	10.58	5.90	
2025-01-17 02:56:48.82	10.56	5.91	
2025-01-17 02:56:49.02	10.54	5.92	
2025-01-17 02:56:49.23	10.51	5.93	
2025-01-17 02:56:49.43	10.49	5.94	
2025-01-17 02:56:49.63	10.47	5.95	
2025-01-17 02:56:49.84	10.45	5.97	
2025-01-17 02:56:50.04	10.43	5.98	
2025-01-17 02:56:50.24	10.40	5.99	
2025-01-17 02:56:50.44	10.38	6.00	
2025-01-17 02:56:50.65	10.36	6.01	
2025-01-17 02:56:50.85	10.34	6.02	
2025-01-17 02:56:51.05	10.32	6.03	
2025-01-17 02:56:51.26	10.29	6.04	
2025-01-17 02:56:51.46	10.27	6.05	
2025-01-17 02:56:51.66	10.25	6.06	
2025-01-17 02:56:51.86	10.23	6.07	
2025-01-17 02:56:52.07	10.20	6.08	
2025-01-17 02:56:52.27	10.18	6.09	
2025-01-17 02:56:52.47	10.16	6.10	
2025-01-17 02:56:52.68	10.14	6.12	
2025-01-17 02:56:52.88	10.12	6.13	
2025-01-17 02:56:53.08	10.09	6.14	
2025-01-17 02:56:53.29	10.07	6.15	
2025-01-17 02:56:53.49	10.05	6.16	
2025-01-17 02:56:53.69	10.03	6.17	
2025-01-17 02:56:53.89	10.01	6.18	
2025-01-17 02:56:54.10	9.98	6.19	
2025-01-17 02:56:54.30	9.96	6.20	
2025-01-17 02:56:54.50	9.94	6.21	
2025-01-17 02:56:54.71	9.92	6.22	
2025-01-17 02:56:54.91	9.89	6.23	
2025-01-17 02:56:55.11	9.87	6.25	
2025-01-17 02:56:55.32	9.85	6.26	
2025-01-17 02:56:55.52	9.83	6.27	
2025-01-17 02:56:55.72	9.80	6.28	
2025-01-17 02:56:55.92	9.78	6.29	
2025-01-17 02:56:56.13	9.76	6.30	
2025-01-17 02:56:56.33	9.74	6.31	
2025-01-17 02:56:56.53	9.71	6.32	
2025-01-17 02:56:56.74	9.69	6.33	
2025-01-17 02:56:56.94	9.67	6.34	
2025-01-17 02:56:57.14	9.65	6.35	
2025-01-17 02:56:57.34	9.62	6.36	
2025-01-17 02:56:57.55	9.60	6.37	
2025-01-17 02:56:57.75	9.58	6.39	
2025-01-17 02:56:57.95	9.56	6.40	
2025-01-17 02:56:58.16	9.53	6.41	
2025-01-17 02:56:58.36	9.51	6.42	
2025-01-17 02:56:58.56	9.49	6.43	
2025-01-17 02:56:58.77	9.47	6.44	
2025-01-17 02:56:58.97	9.44	6.45	
2025-01-17 02:56:59.17	9.42	6.46	
2025-01-17 02:56:59.37	9.40	6.47	
2025-01-17 02:56:59.58	9.37	6.48	
2025-01-17 02:56:59.78	9.35	6.49	
2025-01-17 02:56:59.98	9.33	6.50	
2025-01-17 02:57:00.19	9.31	6.52	
2025-01-17 02:57:00.39	9.28	6.53	
2025-01-17 02:57:00.59	9.26	6.54	
2025-01-17 02:57:00.80	9.24	6.55	
2025-01-17 02:57:01.00	9.21	6.56	
2025-01-17 02:57:01.20	9.19	6.57	
2025-01-17 02:57:01.40	9.17	6.58	
2025-01-17 02:57:01.61	9.15	6.59	
2025-01-17 02:57:01.81	9.12	6.60	
2025-01-17 02:57:02.01	9.10	6.61	
2025-01-17 02:57:02.22	9.08	6.62	
2025-01-17 02:57:02.42	9.05	6.63	
2025-01-17 02:57:02.62	9.03	6.64	
2025-01-17 02:57:02.83	9.01	6.66	
2025-01-17 02:57:03.03	8.98	6.67	
2025-01-17 02:57:03.23	8.96	6.68	
2025-01-17 02:57:03.43	8.94	6.69	
2025-01-17 02:57:03.64	8.92	6.70	
2025-01-17 02:57:03.84	8.89	6.71	
2025-01-17 02:57:04.04	8.87	6.72	
2025-01-17 02:57:04.25	8.85	6.73	
2025-01-17 02:57:04.45	8.82	6.74	
2025-01-17 02:57:04.65	8.80	6.75	
2025-01-17 02:57:04.85	8.78	6.76	
2025-01-17 02:57:05.06	8.75	6.77	
2025-01-17 02:57:05.26	8.73	6.79	
2025-01-17 02:57:05.46	8.71	6.80	
2025-01-17 02:57:05.67	8.68	6.81	
2025-01-17 02:57:05.87	8.66	6.82	
2025-01-17 02:57:06.07	8.64	6.83	
2025-01-17 02:57:06.28	8.61	6.84	
2025-01-17 02:57:06.48	8.59	6.85	
2025-01-17 02:57:06.68	8.57	6.86	
2025-01-17 02:57:06.88	8.54	6.87	
2025-01-17 02:57:07.09	8.52	6.88	
2025-01-17 02:57:07.29	8.50	6.89	
2025-01-17 02:57:07.49	8.47	6.90	
2025-01-17 02:57:07.70	8.45	6.91	
2025-01-17 02:57:07.90	8.43	6.93	
2025-01-17 02:57:08.10	8.40	6.94	
2025-01-17 02:57:08.31	8.38	6.95	
2025-01-17 02:57:08.51	8.36	6.96	
2025-01-17 02:57:08.71	8.33	6.97	
2025-01-17 02:57:08.91	8.31	6.98	
2025-01-17 02:57:09.12	8.28	6.99	
2025-01-17 02:57:09.32	8.26	7.00	
2025-01-17 02:57:09.52	8.24	7.01	
2025-01-17 02:57:09.73	8.21	7.02	
2025-01-17 02:57:09.93	8.19	7.03	
2025-01-17 02:57:10.13	8.17	7.04	
2025-01-17 02:57:10.33	8.14	7.05	
2025-01-17 02:57:10.54	8.12	7.07	
2025-01-17 02:57:10.74	8.10	7.08	
2025-01-17 02:57:10.94	8.07	7.09	
2025-01-17 02:57:11.15	8.05	7.10	
2025-01-17 02:57:11.35	8.02	7.11	
2025-01-17 02:57:11.55	8.00	7.12	
2025-01-17 02:57:11.76	7.98	7.13	
2025-01-17 02:57:11.96	7.95	7.14	
2025-01-17 02:57:12.16	7.93	7.15	
2025-01-17 02:57:12.36	7.91	7.16	
2025-01-17 02:57:12.57	7.88	7.17	
2025-01-17 02:57:12.77	7.86	7.18	
2025-01-17 02:57:12.97	7.83	7.20	
2025-01-17 02:57:13.18	7.81	7.21	
2025-01-17 02:57:13.38	7.79	7.22	
2025-01-17 02:57:13.58	7.76	7.23	
2025-01-17 02:57:13.79	7.74	7.24	
2025-01-17 02:57:13.99	7.71	7.25	
2025-01-17 02:57:14.19	7.69	7.26	
2025-01-17 02:57:14.39	7.67	7.27	
2025-01-17 02:57:14.60	7.64	7.28	
2025-01-17 02:57:14.80	7.62	7.29	
2025-01-17 02:57:15.00	7.59	7.30	
2025-01-17 02:57:15.21	7.57	7.31	
2025-01-17 02:57:15.41	7.54	7.33	
2025-01-17 02:57:15.61	7.52	7.34	
2025-01-17 02:57:15.81	7.50	7.35	
2025-01-17 02:57:16.02	7.47	7.36	
2025-01-17 02:57:16.22	7.45	7.37	
2025-01-17 02:57:16.42	7.42	7.38	
2025-01-17 02:57:16.63	7.40	7.39	
2025-01-17 02:57:16.83	7.38	7.40	
2025-01-17 02:57:17.03	7.35	7.41	
2025-01-17 02:57:17.24	7.33	7.42	
2025-01-17 02:57:17.44	7.30	7.43	
2025-01-17 02:57:17.64	7.28	7.44	
2025-01-17 02:57:17.84	7.25	7.45	
2025-01-17 02:57:18.05	7.23	7.47	
2025-01-17 02:57:18.25	7.21	7.48	
2025-01-17 02:57:18.45	7.18	7.49	
2025-01-17 02:57:18.66	7.16	7.50	
2025-01-17 02:57:18.86	7.13	7.51	
2025-01-17 02:57:19.06	7.11	7.52	
2025-01-17 02:57:19.27	7.08	7.53	
2025-01-17 02:57:19.47	7.06	7.54	
2025-01-17 02:57:19.67	7.03	7.55	
2025-01-17 02:57:19.87	7.01	7.56	
2025-01-17 02:57:20.08	6.98	7.57	
2025-01-17 02:57:20.28	6.96	7.58	
2025-01-17 02:57:20.48	6.94	7.59	
2025-01-17 02:57:20.69	6.91	7.61	
2025-01-17 02:57:20.89	6.89	7.62	
2025-01-17 02:57:21.09	6.86	7.63	
2025-01-17 02:57:21.30	6.84	7.64	
2025-01-17 02:57:21.50	6.81	7.65	
2025-01-17 02:57:21.70	6.79	7.66	
2025-01-17 02:57:21.90	6.76	7.67	
2025-01-17 02:57:22.11	6.74	7.68	
2025-01-17 02:57:22.31	6.71	7.69	
2025-01-17 02:57:22.51	6.69	7.70	
2025-01-17 02:57:22.72	6.66	7.71	
2025-01-17 02:57:22.92	6.64	7.72	
2025-01-17 02:57:23.12	6.61	7.73	
2025-01-17 02:57:23.32	6.59	7.75	
2025-01-17 02:57:23.53	6.56	7.76	
2025-01-17 02:57:23.73	6.54	7.77	
2025-01-17 02:57:23.93	6.51	7.78	
2025-01-17 02:57:24.14	6.49	7.79	
2025-01-17 02:57:24.34	6.46	7.80	
2025-01-17 02:57:24.54	6.44	7.81	
2025-01-17 02:57:24.75	6.41	7.82	
2025-01-17 02:57:24.95	6.39	7.83	
2025-01-17 02:57:25.15	6.36	7.84	
2025-01-17 02:57:25.35	6.34	7.85	
2025-01-17 02:57:25.56	6.31	7.86	
2025-01-17 02:57:25.76	6.29	7.87	
2025-01-17 02:57:25.96	6.26	7.89	
2025-01-17 02:57:26.17	6.24	7.90	
2025-01-17 02:57:26.37	6.21	7.91	
2025-01-17 02:57:26.57	6.19	7.92	
2025-01-17 02:57:26.78	6.16	7.93	
2025-01-17 02:57:26.98	6.14	7.94	
2025-01-17 02:57:27.18	6.11	7.95	
2025-01-17 02:57:27.38	6.09	7.96	
2025-01-17 02:57:27.59	6.06	7.97	
2025-01-17 02:57:27.79	6.04	7.98	
2025-01-17 02:57:27.99	6.01	7.99	
2025-01-17 02:57:28.20	5.99	8.00	
2025-01-17 02:57:28.40	5.96	8.01	
2025-01-17 02:57:28.60	5.94	8.03	
2025-01-17 02:57:28.80	5.91	8.04	
2025-01-17 02:57:29.01	5.88	8.05	
2025-01-17 02:57:29.21	5.86	8.06	
2025-01-17 02:57:29.41	5.83	8.07	
2025-01-17 02:57:29.62	5.81	8.08	
2025-01-17 02:57:29.82	5.78	8.09	
2025-01-17 02:57:30.02	5.76	8.10	
2025-01-17 02:57:30.23	5.73	8.11	
2025-01-17 02:57:30.43	5.71	8.12	
2025-01-17 02:57:30.63	5.68	8.13	
2025-01-17 02:57:30.83	5.66	8.14	
2025-01-17 02:57:31.04	5.63	8.15	
2025-01-17 02:57:31.24	5.60	8.17	
2025-01-17 02:57:31.44	5.58	8.18	
2025-01-17 02:57:31.65	5.55	8.19	
2025-01-17 02:57:31.85	5.53	8.20	
2025-01-17 02:57:32.05	5.50	8.21	
2025-01-17 02:57:32.26	5.47	8.22	
2025-01-17 02:57:32.46	5.45	8.23	
2025-01-17 02:57:32.66	5.42	8.24	
2025-01-17 02:57:32.86	5.40	8.25	
2025-01-17 02:57:33.07	5.37	8.26	
2025-01-17 02:57:33.27	5.35	8.27	
2025-01-17 02:57:33.47	5.32	8.28	
2025-01-17 02:57:33.68	5.29	8.29	
2025-01-17 02:57:33.88	5.27	8.30	
2025-01-17 02:57:34.08	5.24	8.32	
2025-01-17 02:57:34.28	5.22	8.33	
2025-01-17 02:57:34.49	5.19	8.34	
2025-01-17 02:57:34.69	5.16	8.35	
2025-01-17 02:57:34.89	5.14	8.36	
2025-01-17 02:57:35.10	5.11	8.37	
2025-01-17 02:57:35.30	5.09	8.38	
2025-01-17 02:57:35.50	5.06	8.39	
2025-01-17 02:57:35.71	5.03	8.40	
2025-01-17 02:57:35.91	5.01	8.41	
2025-01-17 02:57:36.11	4.98	8.42	
2025-01-17 02:57:36.31	4.96	8.43	
2025-01-17 02:57:36.52	4.93	8.44	
2025-01-17 02:57:36.72	4.90	8.45	
2025-01-17 02:57:36.92	4.88	8.47	
2025-01-17 02:57:37.13	4.85	8.48	
2025-01-17 02:57:37.33	4.83	8.49	
2025-01-17 02:57:37.53	4.80	8.50	
2025-01-17 02:57:37.74	4.77	8.51	
2025-01-17 02:57:37.94	4.75	8.52	
2025-01-17 02:57:38.14	4.72	8.53	
2025-01-17 02:57:38.34	4.69	8.54	
2025-01-17 02:57:38.55	4.67	8.55	
2025-01-17 02:57:38.75	4.64	8.56	
2025-01-17 02:57:38.95	4.62	8.57	
2025-01-17 02:57:39.16	4.59	8.58	
2025-01-17 02:57:39.36	4.56	8.59	
2025-01-17 02:57:39.56	4.54	8.60	
2025-01-17 02:57:39.77	4.51	8.62	
2025-01-17 02:57:39.97	4.48	8.63	
2025-01-17 02:57:40.17	4.46	8.64	
2025-01-17 02:57:40.37	4.43	8.65	
2025-01-17 02:57:40.58	4.40	8.66	
2025-01-17 02:57:40.78	4.38	8.67	
2025-01-17 02:57:40.98	4.35	8.68	
2025-01-17 02:57:41.19	4.32	8.69	
2025-01-17 02:57:41.39	4.30	8.70	
2025-01-17 02:57:41.59	4.27	8.71	
2025-01-17 02:57:41.79	4.24	8.72	
2025-01-17 02:57:42.00	4.22	8.73	
2025-01-17 02:57:42.20	4.19	8.74	
2025-01-17 02:57:42.40	4.16	8.75	
2025-01-17 02:57:42.61	4.14	8.77	
2025-01-17 02:57:42.81	4.11	8.78	
2025-01-17 02:57:43.01	4.08	8.79	
2025-01-17 02:57:43.22	4.06	8.80	
2025-01-17 02:57:43.42	4.03	8.81	
2025-01-17 02:57:43.62	4.00	8.82	
2025-01-17 02:57:43.82	3.98	8.83	
2025-01-17 02:57:44.03	3.95	8.84	
2025-01-17 02:57:44.23	3.92	8.85	
2025-01-17 02:57:44.43	3.90	8.86	
2025-01-17 02:57:44.64	3.87	8.87	
2025-01-17 02:57:44.84	3.84	8.88	
2025-01-17 02:57:45.04	3.81	8.89	
2025-01-17 02:57:45.25	3.79	8.90	
2025-01-17 02:57:45.45	3.76	8.91	
2025-01-17 02:57:45.65	3.73	8.93	
2025-01-17 02:57:45.85	3.71	8.94	
2025-01-17 02:57:46.06	3.68	8.95	
2025-01-17 02:57:46.26	3.65	8.96	
2025-01-17 02:57:46.46	3.63	8.97	
2025-01-17 02:57:46.67	3.60	8.98	
2025-01-17 02:57:46.87	3.57	8.99	
2025-01-17 02:57:47.07	3.54	9.00	
2025-01-17 02:57:47.27	3.52	9.01	
2025-01-17 02:57:47.48	3.49	9.02	
2025-01-17 02:57:47.68	3.46	9.03	
2025-01-17 02:57:47.88	3.44	9.04	
2025-01-17 02:57:48.09	3.41	9.05	
2025-01-17 02:57:48.29	3.38	9.06	
2025-01-17 02:57:48.49	3.35	9.07	
2025-01-17 02:57:48.70	3.32	9.09	
2025-01-17 02:57:48.90	3.30	9.10	
2025-01-17 02:57:49.10	3.27	9.11	
2025-01-17 02:57:49.30	3.24	9.12	
2025-01-17 02:57:49.51	3.22	9.13	
2025-01-17 02:57:49.71	3.19	9.14	
2025-01-17 02:57:49.91	3.16	9.15	
2025-01-17 02:57:50.12	3.13	9.16	
2025-01-17 02:57:50.32	3.11	9.17	
2025-01-17 02:57:50.52	3.08	9.18	
2025-01-17 02:57:50.73	3.05	9.19	
2025-01-17 02:57:50.93	3.02	9.20	
2025-01-17 02:57:51.13	3.00	9.21	
2025-01-17 02:57:51.33	2.97	9.22	
2025-01-17 02:57:51.54	2.94	9.23	
2025-01-17 02:57:51.74	2.91	9.24	
2025-01-17 02:57:51.94	2.89	9.25	
2025-01-17 02:57:52.15	2.86	9.27	
2025-01-17 02:57:52.35	2.83	9.28	
2025-01-17 02:57:52.55	2.80	9.29	
2025-01-17 02:57:52.75	2.77	9.30	
2025-01-17 02:57:52.96	2.75	9.31	
2025-01-17 02:57:53.16	2.72	9.32	
2025-01-17 02:57:53.36	2.69	9.33	
2025-01-17 02:57:53.57	2.66	9.34	
2025-01-17 02:57:53.77	2.64	9.35	
2025-01-17 02:57:53.97	2.61	9.36	
2025-01-17 02:57:54.18	2.58	9.37	
2025-01-17 02:57:54.38	2.55	9.38	
2025-01-17 02:57:54.58	2.52	9.39	
2025-01-17 02:57:54.78	2.50	9.40	
2025-01-17 02:57:54.99	2.47	9.41	
2025-01-17 02:57:55.19	2.44	9.42	
2025-01-17 02:57:55.39	2.41	9.43	
2025-01-17 02:57:55.60	2.38	9.45	
2025-01-17 02:57:55.80	2.36	9.46	
2025-01-17 02:57:56.00	2.33	9.47	
2025-01-17 02:57:56.21	2.30	9.48	
2025-01-17 02:57:56.41	2.27	9.49	
2025-01-17 02:57:56.61	2.24	9.50	
2025-01-17 02:57:56.81	2.22	9.51	
2025-01-17 02:57:57.02	2.19	9.52	
2025-01-17 02:57:57.22	2.16	9.53	
2025-01-17 02:57:57.42	2.13	9.54	
2025-01-17 02:57:57.63	2.10	9.55	
2025-01-17 02:57:57.83	2.07	9.56	
2025-01-17 02:57:58.03	2.05	9.57	
2025-01-17 02:57:58.23	2.02	9.58	
2025-01-17 02:57:58.44	1.99	9.59	
2025-01-17 02:57:58.64	1.96	9.60	
2025-01-17 02:57:58.84	1.93	9.61	
2025-01-17 02:57:59.05	1.90	9.62	
2025-01-17 02:57:59.25	1.88	9.63	
2025-01-17 02:57:59.45	1.85	9.65	
2025-01-17 02:57:59.66	1.82	9.66	
2025-01-17 02:57:59.86	1.79	9.67	
2025-01-17 02:58:00.06	1.76	9.68	
2025-01-17 02:58:00.26	1.73	9.69	
2025-01-17 02:58:00.47	1.70	9.70	
2025-01-17 02:58:00.67	1.68	9.71	
2025-01-17 02:58:00.87	1.65	9.72	
2025-01-17 02:58:01.08	1.62	9.73	
2025-01-17 02:58:01.28	1.59	9.74	
2025-01-17 02:58:01.48	1.56	9.75	
2025-01-17 02:58:01.69	1.53	9.76	
2025-01-17 02:58:01.89	1.50	9.77	
2025-01-17 02:58:02.09	1.48	9.78	
2025-01-17 02:58:02.29	1.45	9.79	
2025-01-17 02:58:02.50	1.42	9.80	
2025-01-17 02:58:02.70	1.39	9.81	
2025-01-17 02:58:02.90	1.36	9.82	
2025-01-17 02:58:03.11	1.33	9.83	
2025-01-17 02:58:03.31	1.30	9.84	
2025-01-17 02:58:03.51	1.27	9.86	
2025-01-17 02:58:03.72	1.24	9.87	
2025-01-17 02:58:03.92	1.22	9.88	
2025-01-17 02:58:04.12	1.19	9.89	
2025-01-17 02:58:04.32	1.16	9.90	
2025-01-17 02:58:04.53	1.13	9.91	
2025-01-17 02:58:04.73	1.10	9.92	
2025-01-17 02:58:04.93	1.07	9.93	
2025-01-17 02:58:05.14	1.04	9.94	
2025-01-17 02:58:05.34	1.01	9.95	
2025-01-17 02:58:05.54	0.98	9.96	
2025-01-17 02:58:05.74	0.96	9.97	
2025-01-17 02:58:05.95	0.93	9.98	
2025-01-17 02:58:06.15	0.90	9.99	
2025-01-17 02:58:06.35	0.87	10.00	
2025-01-17 02:58:06.56	0.84	10.01	
2025-01-17 02:58:06.76	0.81	10.02	
2025-01-17 02:58:06.96	0.78	10.03	
2025-01-17 02:58:07.17	0.75	10.04	
2025-01-17 02:58:07.37	0.72	10.05	
2025-01-17 02:58:07.57	0.69	10.06	
2025-01-17 02:58:07.77	0.66	10.07	
2025-01-17 02:58:07.98	0.63	10.09	
2025-01-17 02:58:08.18	0.60	10.10	
2025-01-17 02:58:08.38	0.57	10.11	
2025-01-17 02:58:08.59	0.54	10.12	
2025-01-17 02:58:08.79	0.52	10.13	
2025-01-17 02:58:08.99	0.49	10.14	
2025-01-17 02:58:09.20	0.46	10.15	
2025-01-17 02:58:09.40	0.43	10.16	
2025-01-17 02:58:09.60	0.40	10.17	
2025-01-17 02:58:09.80	0.37	10.18	
2025-01-17 02:58:10.01	0.34	10.19	
2025-01-17 02:58:10.21	0.31	10.20	
2025-01-17 02:58:10.41	0.28	10.21	
2025-01-17 02:58:10.62	0.25	10.22	
2025-01-17 02:58:10.82	0.22	10.23	
2025-01-17 02:58:11.02	0.19	10.24	
2025-01-17 02:58:11.22	0.16	10.25	
2025-01-17 02:58:11.43	0.13	10.26	
2025-01-17 02:58:11.63	0.10	10.27	
2025-01-17 02:58:11.83	0.07	10.28	
2025-01-17 02:58:12.04	0.04	10.29	
2025-01-17 02:58:12.24	0.01	10.30	
2025-01-17 02:58:12.44	359.98	10.31	
2025-01-17 02:58:12.65	359.95	10.32	
2025-01-17 02:58:12.85	359.92	10.33	
2025-01-17 02:58:13.05	359.89	10.34	
2025-01-17 02:58:13.25	359.86	10.35	
2025-01-17 02:58:13.46	359.83	10.37	
2025-01-17 02:58:13.66	359.80	10.38	
2025-01-17 02:58:13.86	359.77	10.39	
2025-01-17 02:58:14.07	359.74	10.40	
2025-01-17 02:58:14.27	359.71	10.41	
2025-01-17 02:58:14.47	359.68	10.42	
2025-01-17 02:58:14.68	359.65	10.43	
2025-01-17 02:58:14.88	359.62	10.44	
2025-01-17 02:58:15.08	359.59	10.45	
2025-01-17 02:58:15.28	359.56	10.46	
2025-01-17 02:58:15.49	359.53	10.47	
2025-01-17 02:58:15.69	359.50	10.48	
2025-01-17 02:58:15.89	359.47	10.49	
2025-01-17 02:58:16.10	359.44	10.50	
2025-01-17 02:58:16.30	359.41	10.51	
2025-01-17 02:58:16.50	359.38	10.52	
2025-01-17 02:58:16.70	359.35	10.53	
2025-01-17 02:58:16.91	359.32	10.54	
2025-01-17 02:58:17.11	359.29	10.55	
2025-01-17 02:58:17.31	359.26	10.56	
2025-01-17 02:58:17.52	359.23	10.57	
2025-01-17 02:58:17.72	359.20	10.58	
2025-01-17 02:58:17.92	359.17	10.59	
2025-01-17 02:58:18.13	359.14	10.60	
2025-01-17 02:58:18.33	359.11	10.61	
2025-01-17 02:58:18.53	359.08	10.62	
2025-01-17 02:58:18.73	359.05	10.63	
2025-01-17 02:58:18.94	359.02	10.64	
2025-01-17 02:58:19.14	358.99	10.65	
2025-01-17 02:58:19.34	358.96	10.66	
2025-01-17 02:58:19.55	358.93	10.67	
2025-01-17 02:58:19.75	358.90	10.68	
2025-01-17 02:58:19.95	358.87	10.69	
2025-01-17 02:58:20.16	358.83	10.70	
2025-01-17 02:58:20.36	358.80	10.71	
2025-01-17 02:58:20.56	358.77	10.72	
2025-01-17 02:58:20.76	358.74	10.73	
2025-01-17 02:58:20.97	358.71	10.74	
2025-01-17 02:58:21.17	358.68	10.75	
2025-01-17 02:58:21.37	358.65	10.76	
2025-01-17 02:58:21.58	358.62	10.78	
2025-01-17 02:58:21.78	358.59	10.79	
2025-01-17 02:58:21.98	358.56	10.80	
2025-01-17 02:58:22.18	358.53	10.81	
2025-01-17 02:58:22.39	358.50	10.82	
2025-01-17 02:58:22.59	358.46	10.83	
2025-01-17 02:58:22.79	358.43	10.84	
2025-01-17 02:58:23.00	358.40	10.85	
2025-01-17 02:58:23.20	358.37	10.86	
2025-01-17 02:58:23.40	358.34	10.87	
2025-01-17 02:58:23.61	358.31	10.88	
2025-01-17 02:58:23.81	358.28	10.89	
2025-01-17 02:58:24.01	358.25	10.90	
2025-01-17 02:58:24.21	358.22	10.91	
2025-01-17 02:58:24.42	358.19	10.92	
2025-01-17 02:58:24.62	358.15	10.93	
2025-01-17 02:58:24.82	358.12	10.94	
2025-01-17 02:58:25.03	358.09	10.95	
2025-01-17 02:58:25.23	358.06	10.96	
2025-01-17 02:58:25.43	358.03	10.97	
2025-01-17 02:58:25.64	358.00	10.98	
2025-01-17 02:58:25.84	357.97	10.99	
2025-01-17 02:58:26.04	357.94	11.00	
2025-01-17 02:58:26.24	357.91	11.01	
2025-01-17 02:58:26.45	357.87	11.02	
2025-01-17 02:58:26.65	357.84	11.03	
2025-01-17 02:58:26.85	357.81	11.04	
2025-01-17 02:58:27.06	357.78	11.05	
2025-01-17 02:58:27.26	357.75	11.06	
2025-01-17 02:58:27.46	357.72	11.07	
2025-01-17 02:58:27.67	357.68	11.08	
2025-01-17 02:58:27.87	357.65	11.09	
2025-01-17 02:58:28.07	357.62	11.10	
2025-01-17 02:58:28.27	357.59	11.11	
2025-01-17 02:58:28.48	357.56	11.12	
2025-01-17 02:58:28.68	357.53	11.13	
2025-01-17 02:58:28.88	357.50	11.14	
2025-01-17 02:58:29.09	357.46	11.15	
2025-01-17 02:58:29.29	357.43	11.16	
2025-01-17 02:58:29.49	357.40	11.17	
2025-01-17 02:58:29.69	357.37	11.18	
2025-01-17 02:58:29.90	357.34	11.19	
2025-01-17 02:58:30.10	357.31	11.20	
2025-01-17 02:58:30.30	357.28	11.21	
2025-01-17 02:58:30.51	357.24	11.22	
2025-01-17 02:58:30.71	357.21	11.23	
2025-01-17 02:58:30.91	357.18	11.24	
2025-01-17 02:58:31.12	357.15	11.25	
2025-01-17 02:58:31.32	357.12	11.26	
2025-01-17 02:58:31.52	357.08	11.27	
2025-01-17 02:58:31.72	357.05	11.28	
2025-01-17 02:58:31.93	357.02	11.29	
2025-01-17 02:58:32.13	356.99	11.30	
2025-01-17 02:58:32.33	356.96	11.31	
2025-01-17 02:58:32.54	356.92	11.32	
2025-01-17 02:58:32.74	356.89	11.33	
2025-01-17 02:58:32.94	356.86	11.34	
2025-01-17 02:58:33.15	356.83	11.35	
2025-01-17 02:58:33.35	356.80	11.36	
2025-01-17 02:58:33.55	356.76	11.37	
2025-01-17 02:58:33.75	356.73	11.38	
2025-01-17 02:58:33.96	356.70	11.39	
2025-01-17 02:58:34.16	356.67	11.40	
2025-01-17 02:58:34.36	356.64	11.41	
2025-01-17 02:58:34.57	356.60	11.42	
2025-01-17 02:58:34.77	356.57	11.43	
2025-01-17 02:58:34.97	356.54	11.44	
2025-01-17 02:58:35.17	356.51	11.45	
2025-01-17 02:58:35.38	356.47	11.46	
2025-01-17 02:58:35.58	356.44	11.47	
2025-01-17 02:58:35.78	356.41	11.48	
2025-01-17 02:58:35.99	356.38	11.49	
2025-01-17 02:58:36.19	356.35	11.50	
2025-01-17 02:58:36.39	356.31	11.51	
2025-01-17 02:58:36.60	356.28	11.52	
2025-01-17 02:58:36.80	356.25	11.53	
2025-01-17 02:58:37.00	356.22	11.54	
2025-01-17 02:58:37.20	356.18	11.55	
2025-01-17 02:58:37.41	356.15	11.56	
2025-01-17 02:58:37.61	356.12	11.57	
2025-01-17 02:58:37.81	356.09	11.58	
2025-01-17 02:58:38.02	356.05	11.59	
2025-01-17 02:58:38.22	356.02	11.60	
2025-01-17 02:58:38.42	355.99	11.61	
2025-01-17 02:58:38.63	355.95	11.62	
2025-01-17 02:58:38.83	355.92	11.63	
2025-01-17 02:58:39.03	355.89	11.64	
2025-01-17 02:58:39.23	355.86	11.64	
2025-01-17 02:58:39.44	355.82	11.65	
2025-01-17 02:58:39.64	355.79	11.66	
2025-01-17 02:58:39.84	355.76	11.67	
2025-01-17 02:58:40.05	355.73	11.68	
2025-01-17 02:58:40.25	355.69	11.69	
2025-01-17 02:58:40.45	355.66	11.70	
2025-01-17 02:58:40.66	355.63	11.71	
2025-01-17 02:58:40.86	355.59	11.72	
2025-01-17 02:58:41.06	355.56	11.73	
2025-01-17 02:58:41.26	355.53	11.74	
2025-01-17 02:58:41.47	355.50	11.75	
2025-01-17 02:58:41.67	355.46	11.76	
2025-01-17 02:58:41.87	355.43	11.77	
2025-01-17 02:58:42.08	355.40	11.78	
2025-01-17 02:58:42.28	355.36	11.79	
2025-01-17 02:58:42.48	355.33	11.80	
2025-01-17 02:58:42.68	355.30	11.81	
2025-01-17 02:58:42.89	355.26	11.82	
2025-01-17 02:58:43.09	355.23	11.83	
2025-01-17 02:58:43.29	355.20	11.84	
2025-01-17 02:58:43.50	355.16	11.85	
2025-01-17 02:58:43.70	355.13	11.86	
2025-01-17 02:58:43.90	355.10	11.87	
2025-01-17 02:58:44.11	355.06	11.88	
2025-01-17 02:58:44.31	355.03	11.89	
2025-01-17 02:58:44.51	355.00	11.90	
2025-01-17 02:58:44.71	354.97	11.91	
2025-01-17 02:58:44.92	354.93	11.92	
2025-01-17 02:58:45.12	354.90	11.93	
2025-01-17 02:58:45.32	354.87	11.94	
2025-01-17 02:58:45.53	354.83	11.95	
2025-01-17 02:58:45.73	354.80	11.96	
2025-01-17 02:58:45.93	354.77	11.96	
2025-01-17 02:58:46.14	354.73	11.97	
2025-01-17 02:58:46.34	354.70	11.98	
2025-01-17 02:58:46.54	354.67	11.99	
2025-01-17 02:58:46.74	354.63	12.00	
2025-01-17 02:58:46.95	354.60	12.01	
2025-01-17 02:58:47.15	354.56	12.02	
2025-01-17 02:58:47.35	354.53	12.03	
2025-01-17 02:58:47.56	354.50	12.04	
2025-01-17 02:58:47.76	354.46	12.05	
2025-01-17 02:58:47.96	354.43	12.06	
2025-01-17 02:58:48.16	354.40	12.07	
2025-01-17 02:58:48.37	354.36	12.08	
2025-01-17 02:58:48.57	354.33	12.09	
2025-01-17 02:58:48.77	354.30	12.10	
2025-01-17 02:58:48.98	354.26	12.11	
2025-01-17 02:58:49.18	354.23	12.12	
2025-01-17 02:58:49.38	354.19	12.13	
2025-01-17 02:58:49.59	354.16	12.14	
2025-01-17 02:58:49.79	354.13	12.15	
2025-01-17 02:58:49.99	354.09	12.16	
2025-01-17 02:58:50.19	354.06	12.17	
2025-01-17 02:58:50.40	354.02	12.18	
2025-01-17 02:58:50.60	353.99	12.18	
2025-01-17 02:58:50.80	353.96	12.19	
2025-01-17 02:58:51.01	353.92	12.20	
2025-01-17 02:58:51.21	353.89	12.21	
2025-01-17 02:58:51.41	353.85	12.22	
2025-01-17 02:58:51.62	353.82	12.23	
2025-01-17 02:58:51.82	353.79	12.24	
2025-01-17 02:58:52.02	353.75	12.25	
2025-01-17 02:58:52.22	353.72	12.26	
2025-01-17 02:58:52.43	353.68	12.27	
2025-01-17 02:58:52.63	353.65	12.28	
2025-01-17 02:58:52.83	353.62	12.29	
2025-01-17 02:58:53.04	353.58	12.30	
2025-01-17 02:58:53.24	353.55	12.31	
2025-01-17 02:58:53.44	353.51	12.32	
2025-01-17 02:58:53.64	353.48	12.33	
2025-01-17 02:58:53.85	353.44	12.34	
2025-01-17 02:58:54.05	353.41	12.34	
2025-01-17 02:58:54.25	353.38	12.35	
2025-01-17 02:58:54.46	353.34	12.36	
2025-01-17 02:58:54.66	353.31	12.37	
2025-01-17 02:58:54.86	353.27	12.38	
2025-01-17 02:58:55.07	353.24	12.39	
2025-01-17 02:58:55.27	353.20	12.40	
2025-01-17 02:58:55.47	353.17	12.41	
2025-01-17 02:58:55.67	353.13	12.42	
2025-01-17 02:58:55.88	353.10	12.43	
2025-01-17 02:58:56.08	353.07	12.44	
2025-01-17 02:58:56.28	353.03	12.45	
2025-01-17 02:58:56.49	353.00	12.46	
2025-01-17 02:58:56.69	352.96	12.47	
2025-01-17 02:58:56.89	352.93	12.47	
2025-01-17 02:58:57.10	352.89	12.48	
2025-01-17 02:58:57.30	352.86	12.49	
2025-01-17 02:58:57.50	352.82	12.50	
2025-01-17 02:58:57.70	352.79	12.51	
2025-01-17 02:58:57.91	352.75	12.52	
2025-01-17 02:58:58.11	352.72	12.53	
2025-01-17 02:58:58.31	352.68	12.54	
2025-01-17 02:58:58.52	352.65	12.55	
2025-01-17 02:58:58.72	352.61	12.56	
2025-01-17 02:58:58.92	352.58	12.57	
2025-01-17 02:58:59.13	352.54	12.58	
2025-01-17 02:58:59.33	352.51	12.59	
2025-01-17 02:58:59.53	352.47	12.59	
2025-01-17 02:58:59.73	352.44	12.60	
2025-01-17 02:58:59.94	352.40	12.61	
2025-01-17 02:59:00.14	352.37	12.62	
2025-01-17 02:59:00.34	352.33	12.63	
2025-01-17 02:59:00.55	352.30	12.64	
2025-01-17 02:59:00.75	352.26	12.65	
2025-01-17 02:59:00.95	352.23	12.66	
2025-01-17 02:59:01.15	352.19	12.67	
2025-01-17 02:59:01.36	352.16	12.68	
2025-01-17 02:59:01.56	352.12	12.69	
2025-01-17 02:59:01.76	352.09	12.70	
2025-01-17 02:59:01.97	352.05	12.70	
2025-01-17 02:59:02.17	352.02	12.71	
2025-01-17 02:59:02.37	351.98	12.72	
2025-01-17 02:59:02.58	351.95	12.73	
2025-01-17 02:59:02.78	351.91	12.74	
2025-01-17 02:59:02.98	351.88	12.75	
2025-01-17 02:59:03.18	351.84	12.76	
2025-01-17 02:59:03.39	351.81	12.77	
2025-01-17 02:59:03.59	351.77	12.78	
2025-01-17 02:59:03.79	351.74	12.79	
2025-01-17 02:59:04.00	351.70	12.80	
2025-01-17 02:59:04.20	351.66	12.80	
2025-01-17 02:59:04.40	351.63	12.81	
2025-01-17 02:59:04.61	351.59	12.82	
2025-01-17 02:59:04.81	351.56	12.83	
2025-01-17 02:59:05.01	351.52	12.84	
2025-01-17 02:59:05.21	351.49	12.85	
2025-01-17 02:59:05.42	351.45	12.86	
2025-01-17 02:59:05.62	351.42	12.87	
2025-01-17 02:59:05.82	351.38	12.88	
2025-01-17 02:59:06.03	351.34	12.88	
2025-01-17 02:59:06.23	351.31	12.89	
2025-01-17 02:59:06.43	351.27	12.90	
2025-01-17 02:59:06.63	351.24	12.91	
2025-01-17 02:59:06.84	351.20	12.92	
2025-01-17 02:59:07.04	351.17	12.93	
2025-01-17 02:59:07.24	351.13	12.94	
2025-01-17 02:59:07.45	351.09	12.95	
2025-01-17 02:59:07.65	351.06	12.96	
2025-01-17 02:59:07.85	351.02	12.96	
2025-01-17 02:59:08.06	350.99	12.97	
2025-01-17 02:59:08.26	350.95	12.98	
2025-01-17 02:59:08.46	350.92	12.99	
2025-01-17 02:59:08.66	350.88	13.00	
2025-01-17 02:59:08.87	350.84	13.01	
2025-01-17 02:59:09.07	350.81	13.02	
2025-01-17 02:59:09.27	350.77	13.03	
2025-01-17 02:59:09.48	350.74	13.04	
2025-01-17 02:59:09.68	350.70	13.04	
2025-01-17 02:59:09.88	350.66	13.05	
2025-01-17 02:59:10.09	350.63	13.06	
2025-01-17 02:59:10.29	350.59	13.07	
2025-01-17 02:59:10.49	350.56	13.08	
2025-01-17 02:59:10.69	350.52	13.09	
2025-01-17 02:59:10.90	350.48	13.10	
2025-01-17 02:59:11.10	350.45	13.11	
2025-01-17 02:59:11.30	350.41	13.11	
2025-01-17 02:59:11.51	350.37	13.12	
2025-01-17 02:59:11.71	350.34	13.13	
2025-01-17 02:59:11.91	350.30	13.14	
2025-01-17 02:59:12.11	350.27	13.15	
2025-01-17 02:59:12.32	350.23	13.16	
2025-01-17 02:59:12.52	350.19	13.17	
2025-01-17 02:59:12.72	350.16	13.18	
2025-01-17 02:59:12.93	350.12	13.18	
2025-01-17 02:59:13.13	350.08	13.19	
2025-01-17 02:59:13.33	350.05	13.20	
2025-01-17 02:59:13.54	350.01	13.21	
2025-01-17 02:59:13.74	349.97	13.22	
2025-01-17 02:59:13.94	349.94	13.23	
2025-01-17 02:59:14.14	349.90	13.24	
2025-01-17 02:59:14.35	349.86	13.24	
2025-01-17 02:59:14.55	349.83	13.25	
2025-01-17 02:59:14.75	349.79	13.26	
2025-01-17 02:59:14.96	349.75	13.27	
2025-01-17 02:59:15.16	349.72	13.28	
2025-01-17 02:59:15.36	349.68	13.29	
2025-01-17 02:59:15.57	349.64	13.30	
2025-01-17 02:59:15.77	349.61	13.30	
2025-01-17 02:59:15.97	349.57	13.31	
2025-01-17 02:59:16.17	349.54	13.32	
2025-01-17 02:59:16.38	349.50	13.33	
2025-01-17 02:59:16.58	349.46	13.34	
2025-01-17 02:59:16.78	349.43	13.35	
2025-01-17 02:59:16.99	349.39	13.36	
2025-01-17 02:59:17.19	349.35	13.36	
2025-01-17 02:59:17.39	349.32	13.37	
2025-01-17 02:59:17.60	349.28	13.38	
2025-01-17 02:59:17.80	349.24	13.39	
2025-01-17 02:59:18.00	349.20	13.40	
2025-01-17 02:59:18.20	349.17	13.41	
2025-01-17 02:59:18.41	349.13	13.42	
2025-01-17 02:59:18.61	349.09	13.42	
2025-01-17 02:59:18.81	349.06	13.43	
2025-01-17 02:59:19.02	349.02	13.44	
2025-01-17 02:59:19.22	348.98	13.45	
2025-01-17 02:59:19.42	348.95	13.46	
2025-01-17 02:59:19.62	348.91	13.47	
2025-01-17 02:59:19.83	348.87	13.47	
2025-01-17 02:59:20.03	348.83	13.48	
2025-01-17 02:59:20.23	348.80	13.49	
2025-01-17 02:59:20.44	348.76	13.50	
2025-01-17 02:59:20.64	348.72	13.51	
2025-01-17 02:59:20.84	348.69	13.52	
2025-01-17 02:59:21.05	348.65	13.52	
2025-01-17 02:59:21.25	348.61	13.53	
2025-01-17 02:59:21.45	348.57	13.54	
2025-01-17 02:59:21.65	348.54	13.55	
2025-01-17 02:59:21.86	348.50	13.56	
2025-01-17 02:59:22.06	348.46	13.57	
2025-01-17 02:59:22.26	348.42	13.57	
2025-01-17 02:59:22.47	348.39	13.58	
2025-01-17 02:59:22.67	348.35	13.59	
2025-01-17 02:59:22.87	348.31	13.60	
2025-01-17 02:59:23.08	348.27	13.61	
2025-01-17 02:59:23.28	348.24	13.61	
2025-01-17 02:59:23.48	348.20	13.62	
2025-01-17 02:59:23.68	348.16	13.63	
2025-01-17 02:59:23.89	348.12	13.64	
2025-01-17 02:59:24.09	348.09	13.65	
2025-01-17 02:59:24.29	348.05	13.66	
2025-01-17 02:59:24.50	348.01	13.66	
2025-01-17 02:59:24.70	347.97	13.67	
2025-01-17 02:59:24.90	347.94	13.68	
2025-01-17 02:59:25.10	347.90	13.69	
2025-01-17 02:59:25.31	347.86	13.70	
2025-01-17 02:59:25.51	347.82	13.70	
2025-01-17 02:59:25.71	347.79	13.71	
2025-01-17 02:59:25.92	347.75	13.72	
2025-01-17 02:59:26.12	347.71	13.73	
2025-01-17 02:59:26.32	347.67	13.74	
2025-01-17 02:59:26.53	347.63	13.75	
2025-01-17 02:59:26.73	347.60	13.75	
2025-01-17 02:59:26.93	347.56	13.76	
2025-01-17 02:59:27.13	347.52	13.77	
2025-01-17 02:59:27.34	347.48	13.78	
2025-01-17 02:59:27.54	347.44	13.79	
2025-01-17 02:59:27.74	347.41	13.79	
2025-01-17 02:59:27.95	347.37	13.80	
2025-01-17 02:59:28.15	347.33	13.81	
2025-01-17 02:59:28.35	347.29	13.82	
2025-01-17 02:59:28.56	347.25	13.83	
2025-01-17 02:59:28.76	347.22	13.83	
2025-01-17 02:59:28.96	347.18	13.84	
2025-01-17 02:59:29.16	347.14	13.85	
2025-01-17 02:59:29.37	347.10	13.86	
2025-01-17 02:59:29.57	347.06	13.86	
2025-01-17 02:59:29.77	347.03	13.87	
2025-01-17 02:59:29.98	346.99	13.88	
2025-01-17 02:59:30.18	346.95	13.89	
2025-01-17 02:59:30.38	346.91	13.90	
2025-01-17 02:59:30.58	346.87	13.90	
2025-01-17 02:59:30.79	346.83	13.91	
2025-01-17 02:59:30.99	346.80	13.92	
2025-01-17 02:59:31.19	346.76	13.93	
2025-01-17 02:59:31.40	346.72	13.94	
2025-01-17 02:59:31.60	346.68	13.94	
2025-01-17 02:59:31.80	346.64	13.95	
2025-01-17 02:59:32.01	346.60	13.96	
2025-01-17 02:59:32.21	346.57	13.97	
2025-01-17 02:59:32.41	346.53	13.97	
2025-01-17 02:59:32.61	346.49	13.98	
2025-01-17 02:59:32.82	346.45	13.99	
2025-01-17 02:59:33.02	346.41	14.00	
2025-01-17 02:59:33.22	346.38	14.01	
2025-01-17 02:59:33.43	346.34	14.01	
2025-01-17 02:59:33.63	346.30	14.02	
2025-01-17 02:59:33.83	346.26	14.03	
2025-01-17 02:59:34.04	346.22	14.04	
2025-01-17 02:59:34.24	346.18	14.04	
2025-01-17 02:59:34.44	346.14	14.05	
2025-01-17 02:59:34.64	346.11	14.06	
2025-01-17 02:59:34.85	346.07	14.07	
2025-01-17 02:59:35.05	346.03	14.07	
2025-01-17 02:59:35.25	345.99	14.08	
2025-01-17 02:59:35.46	345.95	14.09	
2025-01-17 02:59:35.66	345.91	14.10	
2025-01-17 02:59:35.86	345.87	14.11	
2025-01-17 02:59:36.07	345.83	14.11	
2025-01-17 02:59:36.27	345.79	14.12	
2025-01-17 02:59:36.47	345.76	14.13	
2025-01-17 02:59:36.67	345.72	14.14	
2025-01-17 02:59:36.88	345.68	14.14	
2025-01-17 02:59:37.08	345.64	14.15	
2025-01-17 02:59:37.28	345.60	14.16	
2025-01-17 02:59:37.49	345.56	14.17	
2025-01-17 02:59:37.69	345.52	14.17	
2025-01-17 02:59:37.89	345.48	14.18	
2025-01-17 02:59:38.09	345.45	14.19	
2025-01-17 02:59:38.30	345.41	14.20	
2025-01-17 02:59:38.50	345.37	14.20	
2025-01-17 02:59:38.70	345.33	14.21	
2025-01-17 02:59:38.91	345.29	14.22	
2025-01-17 02:59:39.11	345.25	14.23	
2025-01-17 02:59:39.31	345.21	14.23	
2025-01-17 02:59:39.52	345.17	14.24	
2025-01-17 02:59:39.72	345.13	14.25	
2025-01-17 02:59:39.92	345.09	14.25	
2025-01-17 02:59:40.12	345.05	14.26	
2025-01-17 02:59:40.33	345.01	14.27	
2025-01-17 02:59:40.53	344.98	14.28	
2025-01-17 02:59:40.73	344.94	14.28	
2025-01-17 02:59:40.94	344.90	14.29	
2025-01-17 02:59:41.14	344.86	14.30	
2025-01-17 02:59:41.34	344.82	14.31	
2025-01-17 02:59:41.55	344.78	14.31	
2025-01-17 02:59:41.75	344.74	14.32	
2025-01-17 02:59:41.95	344.70	14.33	
2025-01-17 02:59:42.15	344.66	14.34	
2025-01-17 02:59:42.36	344.62	14.34	
2025-01-17 02:59:42.56	344.58	14.35	
2025-01-17 02:59:42.76	344.54	14.36	
2025-01-17 02:59:42.97	344.50	14.36	
2025-01-17 02:59:43.17	344.46	14.37	
2025-01-17 02:59:43.37	344.42	14.38	
2025-01-17 02:59:43.57	344.39	14.39	
2025-01-17 02:59:43.78	344.35	14.39	
2025-01-17 02:59:43.98	344.31	14.40	
2025-01-17 02:59:44.18	344.27	14.41	
2025-01-17 02:59:44.39	344.23	14.41	
2025-01-17 02:59:44.59	344.19	14.42	
2025-01-17 02:59:44.79	344.15	14.43	
2025-01-17 02:59:45.00	344.11	14.44	
2025-01-17 02:59:45.20	344.07	14.44	
2025-01-17 02:59:45.40	344.03	14.45	
2025-01-17 02:59:45.60	343.99	14.46	
2025-01-17 02:59:45.81	343.95	14.46	
2025-01-17 02:59:46.01	343.91	14.47	
2025-01-17 02:59:46.21	343.87	14.48	
2025-01-17 02:59:46.42	343.83	14.48	
2025-01-17 02:59:46.62	343.79	14.49	
2025-01-17 02:59:46.82	343.75	14.50	
2025-01-17 02:59:47.03	343.71	14.51	
2025-01-17 02:59:47.23	343.67	14.51	
2025-01-17 02:59:47.43	343.63	14.52	
2025-01-17 02:59:47.63	343.59	14.53	
2025-01-17 02:59:47.84	343.55	14.53	
2025-01-17 02:59:48.04	343.51	14.54	
2025-01-17 02:59:48.24	343.47	14.55	
2025-01-17 02:59:48.45	343.43	14.55	
2025-01-17 02:59:48.65	343.39	14.56	
2025-01-17 02:59:48.85	343.35	14.57	
2025-01-17 02:59:49.05	343.31	14.57	
2025-01-17 02:59:49.26	343.27	14.58	
2025-01-17 02:59:49.46	343.23	14.59	
2025-01-17 02:59:49.66	343.19	14.60	
2025-01-17 02:59:49.87	343.15	14.60	
2025-01-17 02:59:50.07	343.11	14.61	
2025-01-17 02:59:50.27	343.07	14.62	
2025-01-17 02:59:50.48	343.03	14.62	
2025-01-17 02:59:50.68	342.99	14.63	
2025-01-17 02:59:50.88	342.95	14.64	
2025-01-17 02:59:51.08	342.91	14.64	
2025-01-17 02:59:51.29	342.87	14.65	
2025-01-17 02:59:51.49	342.83	14.66	
2025-01-17 02:59:51.69	342.79	14.66	
2025-01-17 02:59:51.90	342.75	14.67	
2025-01-17 02:59:52.10	342.71	14.68	
2025-01-17 02:59:52.30	342.67	14.68	
2025-01-17 02:59:52.51	342.63	14.69	
2025-01-17 02:59:52.71	342.59	14.70	
2025-01-17 02:59:52.91	342.55	14.70	
2025-01-17 02:59:53.11	342.51	14.71	
2025-01-17 02:59:53.32	342.47	14.72	
2025-01-17 02:59:53.52	342.43	14.72	
2025-01-17 02:59:53.72	342.39	14.73	
2025-01-17 02:59:53.93	342.34	14.74	
2025-01-17 02:59:54.13	342.30	14.74	
2025-01-17 02:59:54.33	342.26	14.75	
2025-01-17 02:59:54.53	342.22	14.76	
2025-01-17 02:59:54.74	342.18	14.76	
2025-01-17 02:59:54.94	342.14	14.77	
2025-01-17 02:59:55.14	342.10	14.77	
2025-01-17 02:59:55.35	342.06	14.78	
2025-01-17 02:59:55.55	342.02	14.79	
2025-01-17 02:59:55.75	341.98	14.79	
2025-01-17 02:59:55.96	341.94	14.80	
2025-01-17 02:59:56.16	341.90	14.81	
2025-01-17 02:59:56.36	341.86	14.81	
2025-01-17 02:59:56.56	341.82	14.82	
2025-01-17 02:59:56.77	341.78	14.83	
2025-01-17 02:59:56.97	341.74	14.83	
2025-01-17 02:59:57.17	341.70	14.84	
2025-01-17 02:59:57.38	341.65	14.85	
2025-01-17 02:59:57.58	341.61	14.85	
2025-01-17 02:59:57.78	341.57	14.86	
2025-01-17 02:59:57.99	341.53	14.86	
2025-01-17 02:59:58.19	341.49	14.87	
2025-01-17 02:59:58.39	341.45	14.88	
2025-01-17 02:59:58.59	341.41	14.88	
2025-01-17 02:59:58.80	341.37	14.89	
2025-01-17 02:59:59.00	341.33	14.90	
2025-01-17 02:59:59.20	341.29	14.90	
2025-01-17 02:59:59.41	341.24	14.91	
2025-01-17 02:59:59.61	341.20	14.91	
2025-01-17 02:59:59.81	341.16	14.92	
2025-01-17 03:00:00.01	341.12	14.93	
2025-01-17 03:00:00.22	341.08	14.93	
2025-01-17 03:00:00.42	341.04	14.94	
2025-01-17 03:00:00.62	341.00	14.94	
2025-01-17 03:00:00.83	340.96	14.95	
2025-01-17 03:00:01.03	340.92	14.96	
2025-01-17 03:00:01.23	340.88	14.96	
2025-01-17 03:00:01.44	340.83	14.97	
2025-01-17 03:00:01.64	340.79	14.98	
2025-01-17 03:00:01.84	340.75	14.98	
2025-01-17 03:00:02.04	340.71	14.99	
2025-01-17 03:00:02.25	340.67	14.99	
2025-01-17 03:00:02.45	340.63	15.00	
2025-01-17 03:00:02.65	340.59	15.01	
2025-01-17 03:00:02.86	340.55	15.01	
2025-01-17 03:00:03.06	340.51	15.02	
2025-01-17 03:00:03.26	340.46	15.02	
2025-01-17 03:00:03.47	340.42	15.03	
2025-01-17 03:00:03.67	340.38	15.04	
2025-01-17 03:00:03.87	340.34	15.04	
2025-01-17 03:00:04.07	340.30	15.05	
2025-01-17 03:00:04.28	340.26	15.05	
2025-01-17 03:00:04.48	340.22	15.06	
2025-01-17 03:00:04.68	340.18	15.06	
2025-01-17 03:00:04.89	340.13	15.07	
2025-01-17 03:00:05.09	340.09	15.08	
2025-01-17 03:00:05.29	340.05	15.08	
2025-01-17 03:00:05.50	340.01	15.09	
2025-01-17 03:00:05.70	339.97	15.09	
2025-01-17 03:00:05.90	339.93	15.10	
2025-01-17 03:00:06.10	339.89	15.11	
2025-01-17 03:00:06.31	339.84	15.11	
2025-01-17 03:00:06.51	339.80	15.12	
2025-01-17 03:00:06.71	339.76	15.12	
2025-01-17 03:00:06.92	339.72	15.13	
2025-01-17 03:00:07.12	339.68	15.13	
2025-01-17 03:00:07.32	339.64	15.14	
2025-01-17 03:00:07.52	339.59	15.15	
2025-01-17 03:00:07.73	339.55	15.15	
2025-01-17 03:00:07.93	339.51	15.16	
2025-01-17 03:00:08.13	339.47	15.16	
2025-01-17 03:00:08.34	339.43	15.17	
2025-01-17 03:00:08.54	339.39	15.17	
2025-01-17 03:00:08.74	339.34	15.18	
2025-01-17 03:00:08.95	339.30	15.18	
2025-01-17 03:00:09.15	339.26	15.19	
2025-01-17 03:00:09.35	339.22	15.20	
2025-01-17 03:00:09.55	339.18	15.20	
2025-01-17 03:00:09.76	339.13	15.21	
2025-01-17 03:00:09.96	339.09	15.21	
2025-01-17 03:00:10.16	339.05	15.22	
2025-01-17 03:00:10.37	339.01	15.22	
2025-01-17 03:00:10.57	338.97	15.23	
2025-01-17 03:00:10.77	338.93	15.23	
2025-01-17 03:00:10.98	338.88	15.24	
2025-01-17 03:00:11.18	338.84	15.25	
2025-01-17 03:00:11.38	338.80	15.25	
2025-01-17 03:00:11.58	338.76	15.26	
2025-01-17 03:00:11.79	338.72	15.26	
2025-01-17 03:00:11.99	338.67	15.27	
2025-01-17 03:00:12.19	338.63	15.27	
2025-01-17 03:00:12.40	338.59	15.28	
2025-01-17 03:00:12.60	338.55	15.28	
2025-01-17 03:00:12.80	338.51	15.29	
2025-01-17 03:00:13.00	338.46	15.29	
2025-01-17 03:00:13.21	338.42	15.30	
2025-01-17 03:00:13.41	338.38	15.30	
2025-01-17 03:00:13.61	338.34	15.31	
2025-01-17 03:00:13.82	338.29	15.31	
2025-01-17 03:00:14.02	338.25	15.32	
2025-01-17 03:00:14.22	338.21	15.32	
2025-01-17 03:00:14.43	338.17	15.33	
2025-01-17 03:00:14.63	338.13	15.34	
2025-01-17 03:00:14.83	338.09	15.34	
2025-01-17 03:00:15.03	338.04	15.35	
2025-01-17 03:00:15.24	338.00	15.35	
2025-01-17 03:00:15.44	337.96	15.36	
2025-01-17 03:00:15.64	337.92	15.36	
2025-01-17 03:00:15.85	337.87	15.37	
2025-01-17 03:00:16.05	337.83	15.37	
2025-01-17 03:00:16.25	337.79	15.38	
2025-01-17 03:00:16.46	337.75	15.38	
2025-01-17 03:00:16.66	337.70	15.39	
2025-01-17 03:00:16.86	337.66	15.39	
2025-01-17 03:00:17.06	337.62	15.40	
2025-01-17 03:00:17.27	337.58	15.40	
2025-01-17 03:00:17.47	337.54	15.41	
2025-01-17 03:00:17.67	337.49	15.41	
2025-01-17 03:00:17.88	337.45	15.42	
2025-01-17 03:00:18.08	337.41	15.42	
2025-01-17 03:00:18.28	337.37	15.43	
2025-01-17 03:00:18.49	337.32	15.43	
2025-01-17 03:00:18.69	337.28	15.44	
2025-01-17 03:00:18.89	337.24	15.44	
2025-01-17 03:00:19.09	337.20	15.44	
2025-01-17 03:00:19.30	337.15	15.45	
2025-01-17 03:00:19.50	337.11	15.45	
2025-01-17 03:00:19.70	337.07	15.46	
2025-01-17 03:00:19.91	337.02	15.46	
2025-01-17 03:00:20.11	336.98	15.47	
2025-01-17 03:00:20.31	336.94	15.47	
2025-01-17 03:00:20.51	336.90	15.48	
2025-01-17 03:00:20.72	336.86	15.48	
2025-01-17 03:00:20.92	336.81	15.49	
2025-01-17 03:00:21.12	336.77	15.49	
2025-01-17 03:00:21.33	336.73	15.50	
2025-01-17 03:00:21.53	336.68	15.50	
2025-01-17 03:00:21.73	336.64	15.51	
2025-01-17 03:00:21.94	336.60	15.51	
2025-01-17 03:00:22.14	336.56	15.52	
2025-01-17 03:00:22.34	336.51	15.52	
2025-01-17 03:00:22.54	336.47	15.53	
2025-01-17 03:00:22.75	336.43	15.53	
2025-01-17 03:00:22.95	336.39	15.53	
2025-01-17 03:00:23.15	336.34	15.54	
2025-01-17 03:00:23.36	336.30	15.54	
2025-01-17 03:00:23.56	336.26	15.55	
2025-01-17 03:00:23.76	336.22	15.55	
2025-01-17 03:00:23.97	336.17	15.56	
2025-01-17 03:00:24.17	336.13	15.56	
2025-01-17 03:00:24.37	336.09	15.57	
2025-01-17 03:00:24.57	336.04	15.57	
2025-01-17 03:00:24.78	336.00	15.57	
2025-01-17 03:00:24.98	335.96	15.58	
2025-01-17 03:00:25.18	335.92	15.58	
2025-01-17 03:00:25.39	335.87	15.59	
2025-01-17 03:00:25.59	335.83	15.59	
2025-01-17 03:00:25.79	335.79	15.60	
2025-01-17 03:00:25.99	335.74	15.60	
2025-01-17 03:00:26.20	335.70	15.61	
2025-01-17 03:00:26.40	335.66	15.61	
2025-01-17 03:00:26.60	335.62	15.61	
2025-01-17 03:00:26.81	335.57	15.62	
2025-01-17 03:00:27.01	335.53	15.62	
2025-01-17 03:00:27.21	335.49	15.63	
2025-01-17 03:00:27.42	335.44	15.63	
2025-01-17 03:00:27.62	335.40	15.64	
2025-01-17 03:00:27.82	335.36	15.64	
2025-01-17 03:00:28.02	335.31	15.64	
2025-01-17 03:00:28.23	335.27	15.65	
2025-01-17 03:00:28.43	335.23	15.65	
2025-01-17 03:00:28.63	335.18	15.66	
2025-01-17 03:00:28.84	335.14	15.66	
2025-01-17 03:00:29.04	335.10	15.66	
2025-01-17 03:00:29.24	335.06	15.67	
2025-01-17 03:00:29.45	335.01	15.67	
2025-01-17 03:00:29.65	334.97	15.68	
2025-01-17 03:00:29.85	334.93	15.68	
2025-01-17 03:00:30.05	334.88	15.68	
2025-01-17 03:00:30.26	334.84	15.69	
2025-01-17 03:00:30.46	334.80	15.69	
2025-01-17 03:00:30.66	334.75	15.70	
2025-01-17 03:00:30.87	334.71	15.70	
2025-01-17 03:00:31.07	334.67	15.70	
2025-01-17 03:00:31.27	334.62	15.71	
2025-01-17 03:00:31.47	334.58	15.71	
2025-01-17 03:00:31.68	334.54	15.72	
2025-01-17 03:00:31.88	334.49	15.72	
2025-01-17 03:00:32.08	334.45	15.72	
2025-01-17 03:00:32.29	334.41	15.73	
2025-01-17 03:00:32.49	334.36	15.73	
2025-01-17 03:00:32.69	334.32	15.74	
2025-01-17 03:00:32.90	334.28	15.74	
2025-01-17 03:00:33.10	334.23	15.74	
2025-01-17 03:00:33.30	334.19	15.75	
2025-01-17 03:00:33.50	334.15	15.75	
2025-01-17 03:00:33.71	334.10	15.75	
2025-01-17 03:00:33.91	334.06	15.76	
2025-01-17 03:00:34.11	334.02	15.76	
2025-01-17 03:00:34.32	333.97	15.77	
2025-01-17 03:00:34.52	333.93	15.77	
2025-01-17 03:00:34.72	333.89	15.77	
2025-01-17 03:00:34.93	333.84	15.78	
2025-01-17 03:00:35.13	333.80	15.78	
2025-01-17 03:00:35.33	333.76	15.78	
2025-01-17 03:00:35.53	333.71	15.79	
2025-01-17 03:00:35.74	333.67	15.79	
2025-01-17 03:00:35.94	333.63	15.79	
2025-01-17 03:00:36.14	333.58	15.80	
2025-01-17 03:00:36.35	333.54	15.80	
2025-01-17 03:00:36.55	333.49	15.80	
2025-01-17 03:00:36.75	333.45	15.81	
2025-01-17 03:00:36.96	333.41	15.81	
2025-01-17 03:00:37.16	333.36	15.82	
2025-01-17 03:00:37.36	333.32	15.82	
2025-01-17 03:00:37.56	333.28	15.82	
2025-01-17 03:00:37.77	333.23	15.83	
2025-01-17 03:00:37.97	333.19	15.83	
2025-01-17 03:00:38.17	333.15	15.83	
2025-01-17 03:00:38.38	333.10	15.84	
2025-01-17 03:00:38.58	333.06	15.84	
2025-01-17 03:00:38.78	333.02	15.84	
2025-01-17 03:00:38.98	332.97	15.85	
2025-01-17 03:00:39.19	332.93	15.85	
2025-01-17 03:00:39.39	332.88	15.85	
2025-01-17 03:00:39.59	332.84	15.86	
2025-01-17 03:00:39.80	332.80	15.86	
2025-01-17 03:00:40.00	332.75	15.86	
2025-01-17 03:00:40.20	332.71	15.86	
2025-01-17 03:00:40.41	332.66	15.87	
2025-01-17 03:00:40.61	332.62	15.87	
2025-01-17 03:00:40.81	332.58	15.87	
2025-01-17 03:00:41.01	332.54	15.88	
2025-01-17 03:00:41.22	332.49	15.88	
2025-01-17 03:00:41.42	332.45	15.88	
2025-01-17 03:00:41.62	332.40	15.89	
2025-01-17 03:00:41.83	332.36	15.89	
2025-01-17 03:00:42.03	332.32	15.89	
2025-01-17 03:00:42.23	332.27	15.90	
2025-01-17 03:00:42.44	332.23	15.90	
2025-01-17 03:00:42.64	332.18	15.90	
2025-01-17 03:00:42.84	332.14	15.91	
2025-01-17 03:00:43.04	332.10	15.91	
2025-01-17 03:00:43.25	332.05	15.91	
2025-01-17 03:00:43.45	332.01	15.91	
2025-01-17 03:00:43.65	331.97	15.92	
2025-01-17 03:00:43.86	331.92	15.92	
2025-01-17 03:00:44.06	331.88	15.92	
2025-01-17 03:00:44.26	331.83	15.93	
2025-01-17 03:00:44.46	331.79	15.93	
2025-01-17 03:00:44.67	331.74	15.93	
2025-01-17 03:00:44.87	331.70	15.93	
2025-01-17 03:00:45.07	331.66	15.94	
2025-01-17 03:00:45.28	331.61	15.94	
2025-01-17 03:00:45.48	331.57	15.94	
2025-01-17 03:00:45.68	331.53	15.95	
2025-01-17 03:00:45.89	331.48	15.95	
2025-01-17 03:00:46.09	331.44	15.95	
2025-01-17 03:00:46.29	331.39	15.95	
2025-01-17 03:00:46.49	331.35	15.96	
2025-01-17 03:00:46.70	331.30	15.96	
2025-01-17 03:00:46.90	331.26	15.96	
2025-01-17 03:00:47.10	331.22	15.96	
2025-01-17 03:00:47.31	331.17	15.97	
2025-01-17 03:00:47.51	331.13	15.97	
2025-01-17 03:00:47.71	331.09	15.97	
2025-01-17 03:00:47.92	331.04	15.97	
2025-01-17 03:00:48.12	331.00	15.98	
2025-01-17 03:00:48.32	330.95	15.98	
2025-01-17 03:00:48.52	330.91	15.98	
2025-01-17 03:00:48.73	330.86	15.98	
2025-01-17 03:00:48.93	330.82	15.99	
2025-01-17 03:00:49.13	330.78	15.99	
2025-01-17 03:00:49.34	330.73	15.99	
2025-01-17 03:00:49.54	330.69	15.99	
2025-01-17 03:00:49.74	330.64	16.00	
2025-01-17 03:00:49.94	330.60	16.00	
2025-01-17 03:00:50.15	330.56	16.00	
2025-01-17 03:00:50.35	330.51	16.00	
2025-01-17 03:00:50.55	330.47	16.01	
2025-01-17 03:00:50.76	330.42	16.01	
2025-01-17 03:00:50.96	330.38	16.01	
2025-01-17 03:00:51.16	330.34	16.01	
2025-01-17 03:00:51.37	330.29	16.02	
2025-01-17 03:00:51.57	330.25	16.02	
2025-01-17 03:00:51.77	330.20	16.02	
2025-01-17 03:00:51.97	330.16	16.02	
2025-01-17 03:00:52.18	330.11	16.03	
2025-01-17 03:00:52.38	330.07	16.03	
2025-01-17 03:00:52.58	330.03	16.03	
2025-01-17 03:00:52.79	329.98	16.03	
2025-01-17 03:00:52.99	329.94	16.03	
2025-01-17 03:00:53.19	329.89	16.04	
2025-01-17 03:00:53.40	329.85	16.04	
2025-01-17 03:00:53.60	329.80	16.04	
2025-01-17 03:00:53.80	329.76	16.04	
2025-01-17 03:00:54.00	329.72	16.04	
2025-01-17 03:00:54.21	329.67	16.05	
2025-01-17 03:00:54.41	329.63	16.05	
2025-01-17 03:00:54.61	329.58	16.05	
2025-01-17 03:00:54.82	329.54	16.05	
2025-01-17 03:00:55.02	329.50	16.05	
2025-01-17 03:00:55.22	329.45	16.06	
2025-01-17 03:00:55.43	329.41	16.06	
2025-01-17 03:00:55.63	329.36	16.06	
2025-01-17 03:00:55.83	329.32	16.06	
2025-01-17 03:00:56.03	329.27	16.06	
2025-01-17 03:00:56.24	329.23	16.07	
2025-01-17 03:00:56.44	329.19	16.07	
2025-01-17 03:00:56.64	329.14	16.07	
2025-01-17 03:00:56.85	329.10	16.07	
2025-01-17 03:00:57.05	329.05	16.07	
2025-01-17 03:00:57.25	329.01	16.08	
2025-01-17 03:00:57.45	328.96	16.08	
2025-01-17 03:00:57.66	328.92	16.08	
2025-01-17 03:00:57.86	328.87	16.08	
2025-01-17 03:00:58.06	328.83	16.08	
2025-01-17 03:00:58.27	328.79	16.08	
2025-01-17 03:00:58.47	328.74	16.09	
2025-01-17 03:00:58.67	328.70	16.09	
2025-01-17 03:00:58.88	328.65	16.09	
2025-01-17 03:00:59.08	328.61	16.09	
2025-01-17 03:00:59.28	328.56	16.09	
2025-01-17 03:00:59.48	328.52	16.09	
2025-01-17 03:00:59.69	328.47	16.10	
2025-01-17 03:00:59.89	328.43	16.10	
2025-01-17 03:01:00.09	328.39	16.10	
2025-01-17 03:01:00.30	328.34	16.10	
2025-01-17 03:01:00.50	328.30	16.10	
2025-01-17 03:01:00.70	328.25	16.10	
2025-01-17 03:01:00.91	328.21	16.10	
2025-01-17 03:01:01.11	328.16	16.11	
2025-01-17 03:01:01.31	328.12	16.11	
2025-01-17 03:01:01.51	328.08	16.11	
2025-01-17 03:01:01.72	328.03	16.11	
2025-01-17 03:01:01.92	327.99	16.11	
2025-01-17 03:01:02.12	327.94	16.11	
2025-01-17 03:01:02.33	327.90	16.11	
2025-01-17 03:01:02.53	327.85	16.12	
2025-01-17 03:01:02.73	327.81	16.12	
2025-01-17 03:01:02.93	327.76	16.12	
2025-01-17 03:01:03.14	327.72	16.12	
2025-01-17 03:01:03.34	327.68	16.12	
2025-01-17 03:01:03.54	327.63	16.12	
2025-01-17 03:01:03.75	327.59	16.12	
2025-01-17 03:01:03.95	327.54	16.12	
2025-01-17 03:01:04.15	327.50	16.13	
2025-01-17 03:01:04.36	327.45	16.13	
2025-01-17 03:01:04.56	327.41	16.13	
2025-01-17 03:01:04.76	327.36	16.13	
2025-01-17 03:01:04.96	327.32	16.13	
2025-01-17 03:01:05.17	327.27	16.13	
2025-01-17 03:01:05.37	327.23	16.13	
2025-01-17 03:01:05.57	327.19	16.13	
2025-01-17 03:01:05.78	327.14	16.13	
2025-01-17 03:01:05.98	327.10	16.14	
2025-01-17 03:01:06.18	327.05	16.14	
2025-01-17 03:01:06.39	327.01	16.14	
2025-01-17 03:01:06.59	326.96	16.14	
2025-01-17 03:01:06.79	326.92	16.14	
2025-01-17 03:01:06.99	326.87	16.14	
2025-01-17 03:01:07.20	326.83	16.14	
2025-01-17 03:01:07.40	326.78	16.14	
2025-01-17 03:01:07.60	326.74	16.14	
2025-01-17 03:01:07.81	326.69	16.14	
2025-01-17 03:01:08.01	326.65	16.15	
2025-01-17 03:01:08.21	326.61	16.15	
2025-01-17 03:01:08.41	326.56	16.15	
2025-01-17 03:01:08.62	326.52	16.15	
2025-01-17 03:01:08.82	326.47	16.15	
2025-01-17 03:01:09.02	326.43	16.15	
2025-01-17 03:01:09.23	326.38	16.15	
2025-01-17 03:01:09.43	326.34	16.15	
2025-01-17 03:01:09.63	326.29	16.15	
2025-01-17 03:01:09.84	326.25	16.15	
2025-01-17 03:01:10.04	326.20	16.15	
2025-01-17 03:01:10.24	326.16	16.15	
2025-01-17 03:01:10.44	326.12	16.15	
2025-01-17 03:01:10.65	326.07	16.15	
2025-01-17 03:01:10.85	326.03	16.16	
2025-01-17 03:01:11.05	325.98	16.16	
2025-01-17 03:01:11.26	325.94	16.16	
2025-01-17 03:01:11.46	325.89	16.16	
2025-01-17 03:01:11.66	325.85	16.16	
2025-01-17 03:01:11.87	325.80	16.16	
2025-01-17 03:01:12.07	325.76	16.16	
2025-01-17 03:01:12.27	325.71	16.16	
2025-01-17 03:01:12.47	325.67	16.16	
2025-01-17 03:01:12.68	325.62	16.16	
2025-01-17 03:01:12.88	325.58	16.16	
2025-01-17 03:01:13.08	325.54	16.16	
2025-01-17 03:01:13.29	325.49	16.16	
2025-01-17 03:01:13.49	325.45	16.16	
2025-01-17 03:01:13.69	325.40	16.16	
2025-01-17 03:01:13.91	325.35	16.16	
2025-01-17 03:01:14.11	325.31	16.16	
2025-01-17 03:01:14.31	325.27	16.16	
2025-01-17 03:01:14.52	325.22	16.16	
2025-01-17 03:01:14.72	325.18	16.16	
2025-01-17 03:01:14.92	325.13	16.16	
2025-01-17 03:01:15.12	325.09	16.16	
2025-01-17 03:01:15.33	325.04	16.16	
2025-01-17 03:01:15.53	325.00	16.17	
2025-01-17 03:01:15.73	324.95	16.17	
2025-01-17 03:01:15.94	324.91	16.17	
2025-01-17 03:01:16.14	324.86	16.17	
2025-01-17 03:01:16.34	324.82	16.17	
2025-01-17 03:01:16.54	324.78	16.17	
2025-01-17 03:01:16.75	324.73	16.17	
2025-01-17 03:01:16.95	324.69	16.17	
2025-01-17 03:01:17.15	324.64	16.17	
2025-01-17 03:01:17.36	324.60	16.17	
2025-01-17 03:01:17.56	324.55	16.17	
2025-01-17 03:01:17.76	324.51	16.17	
2025-01-17 03:01:17.97	324.46	16.17	
2025-01-17 03:01:18.17	324.42	16.17	
2025-01-17 03:01:18.37	324.37	16.17	
2025-01-17 03:01:18.57	324.33	16.17	
2025-01-17 03:01:18.78	324.28	16.17	
2025-01-17 03:01:18.98	324.24	16.17	
2025-01-17 03:01:19.18	324.19	16.17	
2025-01-17 03:01:19.39	324.15	16.17	
2025-01-17 03:01:19.59	324.10	16.17	
2025-01-17 03:01:19.79	324.06	16.17	
2025-01-17 03:01:20.00	324.01	16.17	
2025-01-17 03:01:20.20	323.97	16.17	
2025-01-17 03:01:20.40	323.93	16.17	
2025-01-17 03:01:20.60	323.88	16.16	
2025-01-17 03:01:20.81	323.84	16.16	
2025-01-17 03:01:21.01	323.79	16.16	
2025-01-17 03:01:21.21	323.75	16.16	
2025-01-17 03:01:21.42	323.70	16.16	
2025-01-17 03:01:21.62	323.66	16.16	
2025-01-17 03:01:21.82	323.61	16.16	
2025-01-17 03:01:22.02	323.57	16.16	
2025-01-17 03:01:22.23	323.52	16.16	
2025-01-17 03:01:22.43	323.48	16.16	
2025-01-17 03:01:22.63	323.44	16.16	
2025-01-17 03:01:22.84	323.39	16.16	
2025-01-17 03:01:23.04	323.35	16.16	
2025-01-17 03:01:23.24	323.30	16.16	
2025-01-17 03:01:23.45	323.26	16.16	
2025-01-17 03:01:23.65	323.21	16.16	
2025-01-17 03:01:23.85	323.17	16.16	
2025-01-17 03:01:24.05	323.12	16.16	
2025-01-17 03:01:24.26	323.08	16.16	
2025-01-17 03:01:24.46	323.03	16.16	
2025-01-17 03:01:24.66	322.99	16.16	
2025-01-17 03:01:24.87	322.94	16.16	
2025-01-17 03:01:25.07	322.90	16.16	
2025-01-17 03:01:25.27	322.86	16.15	
2025-01-17 03:01:25.48	322.81	16.15	
2025-01-17 03:01:25.68	322.77	16.15	
2025-01-17 03:01:25.88	322.72	16.15	
2025-01-17 03:01:26.08	322.68	16.15	
2025-01-17 03:01:26.29	322.63	16.15	
2025-01-17 03:01:26.49	322.59	16.15	
2025-01-17 03:01:26.69	322.54	16.15	
2025-01-17 03:01:26.90	322.50	16.15	
2025-01-17 03:01:27.10	322.45	16.15	
2025-01-17 03:01:27.30	322.41	16.15	
2025-01-17 03:01:27.51	322.36	16.15	
2025-01-17 03:01:27.71	322.32	16.15	
2025-01-17 03:01:27.91	322.28	16.15	
2025-01-17 03:01:28.11	322.23	16.14	
2025-01-17 03:01:28.32	322.19	16.14	
2025-01-17 03:01:28.52	322.14	16.14	
2025-01-17 03:01:28.72	322.10	16.14	
2025-01-17 03:01:28.93	322.05	16.14	
2025-01-17 03:01:29.13	322.01	16.14	
2025-01-17 03:01:29.33	321.96	16.14	
2025-01-17 03:01:29.53	321.92	16.14	
2025-01-17 03:01:29.74	321.87	16.14	
2025-01-17 03:01:29.94	321.83	16.14	
2025-01-17 03:01:30.14	321.79	16.13	
2025-01-17 03:01:30.35	321.74	16.13	
2025-01-17 03:01:30.55	321.70	16.13	
2025-01-17 03:01:30.75	321.65	16.13	
2025-01-17 03:01:30.96	321.61	16.13	
2025-01-17 03:01:31.16	321.56	16.13	
2025-01-17 03:01:31.36	321.52	16.13	
2025-01-17 03:01:31.56	321.47	16.13	
2025-01-17 03:01:31.77	321.43	16.13	
2025-01-17 03:01:31.97	321.38	16.12	
2025-01-17 03:01:32.17	321.34	16.12	
2025-01-17 03:01:32.38	321.29	16.12	
2025-01-17 03:01:32.58	321.25	16.12	
2025-01-17 03:01:32.78	321.21	16.12	
2025-01-17 03:01:32.99	321.16	16.12	
2025-01-17 03:01:33.19	321.12	16.12	
2025-01-17 03:01:33.39	321.07	16.12	
2025-01-17 03:01:33.59	321.03	16.11	
2025-01-17 03:01:33.80	320.98	16.11	
2025-01-17 03:01:34.00	320.94	16.11	
2025-01-17 03:01:34.20	320.90	16.11	
2025-01-17 03:01:34.41	320.85	16.11	
2025-01-17 03:01:34.61	320.81	16.11	
2025-01-17 03:01:34.81	320.76	16.11	
2025-01-17 03:01:35.01	320.72	16.10	
2025-01-17 03:01:35.22	320.67	16.10	
2025-01-17 03:01:35.42	320.63	16.10	
2025-01-17 03:01:35.62	320.58	16.10	
2025-01-17 03:01:35.83	320.54	16.10	
2025-01-17 03:01:36.03	320.50	16.10	
2025-01-17 03:01:36.23	320.45	16.09	
2025-01-17 03:01:36.44	320.41	16.09	
2025-01-17 03:01:36.64	320.36	16.09	
2025-01-17 03:01:36.84	320.32	16.09	
2025-01-17 03:01:37.04	320.27	16.09	
2025-01-17 03:01:37.25	320.23	16.09	
2025-01-17 03:01:37.45	320.18	16.09	
2025-01-17 03:01:37.65	320.14	16.08	
2025-01-17 03:01:37.86	320.09	16.08	
2025-01-17 03:01:38.06	320.05	16.08	
2025-01-17 03:01:38.26	320.01	16.08	
2025-01-17 03:01:38.47	319.96	16.08	
2025-01-17 03:01:38.67	319.92	16.07	
2025-01-17 03:01:38.87	319.87	16.07	
2025-01-17 03:01:39.07	319.83	16.07	
2025-01-17 03:01:39.28	319.78	16.07	
2025-01-17 03:01:39.48	319.74	16.07	
2025-01-17 03:01:39.68	319.70	16.07	
2025-01-17 03:01:39.89	319.65	16.06	
2025-01-17 03:01:40.09	319.61	16.06	
2025-01-17 03:01:40.29	319.56	16.06	
2025-01-17 03:01:40.49	319.52	16.06	
2025-01-17 03:01:40.70	319.47	16.06	
2025-01-17 03:01:40.90	319.43	16.05	
2025-01-17 03:01:41.10	319.39	16.05	
2025-01-17 03:01:41.31	319.34	16.05	
2025-01-17 03:01:41.51	319.30	16.05	
2025-01-17 03:01:41.71	319.25	16.05	
2025-01-17 03:01:41.92	319.21	16.04	
2025-01-17 03:01:42.12	319.16	16.04	
2025-01-17 03:01:42.32	319.12	16.04	
2025-01-17 03:01:42.52	319.08	16.04	
2025-01-17 03:01:42.73	319.03	16.04	
2025-01-17 03:01:42.93	318.99	16.03	
2025-01-17 03:01:43.13	318.94	16.03	
2025-01-17 03:01:43.34	318.90	16.03	
2025-01-17 03:01:43.54	318.85	16.03	
2025-01-17 03:01:43.74	318.81	16.02	
2025-01-17 03:01:43.95	318.77	16.02	
2025-01-17 03:01:44.15	318.72	16.02	
2025-01-17 03:01:44.35	318.68	16.02	
2025-01-17 03:01:44.55	318.63	16.02	
2025-01-17 03:01:44.76	318.59	16.01	
2025-01-17 03:01:44.96	318.55	16.01	
2025-01-17 03:01:45.16	318.50	16.01	
2025-01-17 03:01:45.37	318.46	16.01	
2025-01-17 03:01:45.57	318.41	16.00	
2025-01-17 03:01:45.77	318.37	16.00	
2025-01-17 03:01:45.98	318.32	16.00	
2025-01-17 03:01:46.18	318.28	16.00	
2025-01-17 03:01:46.38	318.24	15.99	
2025-01-17 03:01:46.58	318.19	15.99	
2025-01-17 03:01:46.79	318.15	15.99	
2025-01-17 03:01:46.99	318.10	15.99	
2025-01-17 03:01:47.19	318.06	15.98	
2025-01-17 03:01:47.40	318.01	15.98	
2025-01-17 03:01:47.60	317.97	15.98	
2025-01-17 03:01:47.80	317.93	15.98	
2025-01-17 03:01:48.00	317.88	15.97	
2025-01-17 03:01:48.21	317.84	15.97	
2025-01-17 03:01:48.41	317.80	15.97	
2025-01-17 03:01:48.61	317.75	15.97	
2025-01-17 03:01:48.82	317.71	15.96	
2025-01-17 03:01:49.02	317.66	15.96	
2025-01-17 03:01:49.22	317.62	15.96	
2025-01-17 03:01:49.43	317.57	15.96	
2025-01-17 03:01:49.63	317.53	15.95	
2025-01-17 03:01:49.83	317.49	15.95	
2025-01-17 03:01:50.03	317.44	15.95	
2025-01-17 03:01:50.24	317.40	15.94	
2025-01-17 03:01:50.44	317.35	15.94	
2025-01-17 03:01:50.64	317.31	15.94	
