passes_logs/2025/01/17/SPB_Silybum_02/SPB_Silybum_02__20250117_092826_SUOMI_NPP_rec.log

#Pass ID: 20250117_092826_SUOMI NPP
#Satellite: SUOMI NPP
#Configuration: NPP
#Start time: 2025-01-17 09:30:04

#Version: 2.0.20230423
#Station: SPB_Silybum_02
#Location: 30.233357 lon 59.946436 lat
#TLE: 1 37849U 11061A   25016.82296503  .00000177  00000+0  10458-3 0  9994
#TLE: 2 37849  98.7449 317.7884 0001611  38.3630 321.7660 14.19539095685172

#Time	Az	El	Level	Level2	SNR	BER	Gain	Gain2
2025-01-17 09:30:06.23	132.00	11.75	
2025-01-17 09:30:06.43	131.99	11.77	
2025-01-17 09:30:06.63	131.98	11.79	
2025-01-17 09:30:06.84	131.97	11.81	
2025-01-17 09:30:07.04	131.96	11.83	
2025-01-17 09:30:07.24	131.94	11.85	
2025-01-17 09:30:07.45	131.93	11.86	
2025-01-17 09:30:07.65	131.92	11.88	
2025-01-17 09:30:07.85	131.91	11.90	
2025-01-17 09:30:08.05	131.90	11.92	
2025-01-17 09:30:08.26	131.89	11.94	
2025-01-17 09:30:08.46	131.88	11.96	
2025-01-17 09:30:08.66	131.86	11.97	
2025-01-17 09:30:08.87	131.85	11.99	
2025-01-17 09:30:09.07	131.84	12.01	
2025-01-17 09:30:09.27	131.83	12.03	
2025-01-17 09:30:09.48	131.82	12.05	
2025-01-17 09:30:09.68	131.81	12.07	
2025-01-17 09:30:09.88	131.79	12.08	
2025-01-17 09:30:10.08	131.78	12.10	
2025-01-17 09:30:10.29	131.77	12.12	
2025-01-17 09:30:10.49	131.76	12.14	
2025-01-17 09:30:10.69	131.75	12.16	
2025-01-17 09:30:10.90	131.74	12.18	
2025-01-17 09:30:11.10	131.72	12.19	
2025-01-17 09:30:11.30	131.71	12.21	
2025-01-17 09:30:11.51	131.70	12.23	
2025-01-17 09:30:11.71	131.69	12.25	
2025-01-17 09:30:11.91	131.68	12.27	
2025-01-17 09:30:12.11	131.67	12.29	
2025-01-17 09:30:12.32	131.65	12.31	
2025-01-17 09:30:12.52	131.64	12.32	
2025-01-17 09:30:12.72	131.63	12.34	
2025-01-17 09:30:12.93	131.62	12.36	
2025-01-17 09:30:13.13	131.61	12.38	
2025-01-17 09:30:13.33	131.59	12.40	
2025-01-17 09:30:13.54	131.58	12.42	
2025-01-17 09:30:13.74	131.57	12.44	
2025-01-17 09:30:13.94	131.56	12.46	
2025-01-17 09:30:14.14	131.55	12.47	
2025-01-17 09:30:14.35	131.54	12.49	
2025-01-17 09:30:14.55	131.52	12.51	
2025-01-17 09:30:14.75	131.51	12.53	
2025-01-17 09:30:14.96	131.50	12.55	
2025-01-17 09:30:15.16	131.49	12.57	
2025-01-17 09:30:15.36	131.48	12.59	
2025-01-17 09:30:15.56	131.46	12.60	
2025-01-17 09:30:15.77	131.45	12.62	
2025-01-17 09:30:15.97	131.44	12.64	
2025-01-17 09:30:16.17	131.43	12.66	
2025-01-17 09:30:16.38	131.41	12.68	
2025-01-17 09:30:16.58	131.40	12.70	
2025-01-17 09:30:16.78	131.39	12.72	
2025-01-17 09:30:16.99	131.38	12.74	
2025-01-17 09:30:17.19	131.37	12.76	
2025-01-17 09:30:17.39	131.35	12.77	
2025-01-17 09:30:17.59	131.34	12.79	
2025-01-17 09:30:17.80	131.33	12.81	
2025-01-17 09:30:18.00	131.32	12.83	
2025-01-17 09:30:18.20	131.31	12.85	
2025-01-17 09:30:18.41	131.29	12.87	
2025-01-17 09:30:18.61	131.28	12.89	
2025-01-17 09:30:18.81	131.27	12.91	
2025-01-17 09:30:19.02	131.26	12.93	
2025-01-17 09:30:19.22	131.24	12.95	
2025-01-17 09:30:19.42	131.23	12.96	
2025-01-17 09:30:19.62	131.22	12.98	
2025-01-17 09:30:19.83	131.21	13.00	
2025-01-17 09:30:20.03	131.19	13.02	
2025-01-17 09:30:20.23	131.18	13.04	
2025-01-17 09:30:20.44	131.17	13.06	
2025-01-17 09:30:20.64	131.16	13.08	
2025-01-17 09:30:20.84	131.14	13.10	
2025-01-17 09:30:21.05	131.13	13.12	
2025-01-17 09:30:21.25	131.12	13.14	
2025-01-17 09:30:21.45	131.11	13.16	
2025-01-17 09:30:21.65	131.09	13.17	
2025-01-17 09:30:21.86	131.08	13.19	
2025-01-17 09:30:22.06	131.07	13.21	
2025-01-17 09:30:22.26	131.06	13.23	
2025-01-17 09:30:22.47	131.04	13.25	
2025-01-17 09:30:22.67	131.03	13.27	
2025-01-17 09:30:22.87	131.02	13.29	
2025-01-17 09:30:23.07	131.01	13.31	
2025-01-17 09:30:23.28	130.99	13.33	
2025-01-17 09:30:23.48	130.98	13.35	
2025-01-17 09:30:23.68	130.97	13.37	
2025-01-17 09:30:23.89	130.96	13.39	
2025-01-17 09:30:24.09	130.94	13.41	
2025-01-17 09:30:24.29	130.93	13.43	
2025-01-17 09:30:24.50	130.92	13.45	
2025-01-17 09:30:24.70	130.90	13.46	
2025-01-17 09:30:24.90	130.89	13.48	
2025-01-17 09:30:25.10	130.88	13.50	
2025-01-17 09:30:25.31	130.87	13.52	
2025-01-17 09:30:25.51	130.85	13.54	
2025-01-17 09:30:25.71	130.84	13.56	
2025-01-17 09:30:25.92	130.83	13.58	
2025-01-17 09:30:26.12	130.81	13.60	
2025-01-17 09:30:26.32	130.80	13.62	
2025-01-17 09:30:26.53	130.79	13.64	
2025-01-17 09:30:26.73	130.78	13.66	
2025-01-17 09:30:26.93	130.76	13.68	
2025-01-17 09:30:27.13	130.75	13.70	
2025-01-17 09:30:27.34	130.74	13.72	
2025-01-17 09:30:27.54	130.72	13.74	
2025-01-17 09:30:27.74	130.71	13.76	
2025-01-17 09:30:27.95	130.70	13.78	
2025-01-17 09:30:28.15	130.68	13.80	
2025-01-17 09:30:28.35	130.67	13.82	
2025-01-17 09:30:28.55	130.66	13.84	
2025-01-17 09:30:28.76	130.65	13.86	
2025-01-17 09:30:28.96	130.63	13.88	
2025-01-17 09:30:29.16	130.62	13.89	
2025-01-17 09:30:29.37	130.61	13.92	
2025-01-17 09:30:29.57	130.59	13.93	
2025-01-17 09:30:29.77	130.58	13.95	
2025-01-17 09:30:29.98	130.57	13.97	
2025-01-17 09:30:30.18	130.55	13.99	
2025-01-17 09:30:30.38	130.54	14.01	
2025-01-17 09:30:30.58	130.53	14.03	
2025-01-17 09:30:30.79	130.51	14.05	
2025-01-17 09:30:30.99	130.50	14.07	
2025-01-17 09:30:31.19	130.49	14.09	
2025-01-17 09:30:31.40	130.47	14.11	
2025-01-17 09:30:31.60	130.46	14.13	
2025-01-17 09:30:31.80	130.45	14.15	
2025-01-17 09:30:32.01	130.43	14.17	
2025-01-17 09:30:32.21	130.42	14.19	
2025-01-17 09:30:32.41	130.41	14.21	
2025-01-17 09:30:32.61	130.39	14.23	
2025-01-17 09:30:32.82	130.38	14.25	
2025-01-17 09:30:33.02	130.36	14.27	
2025-01-17 09:30:33.22	130.35	14.29	
2025-01-17 09:30:33.43	130.34	14.31	
2025-01-17 09:30:33.63	130.32	14.33	
2025-01-17 09:30:33.83	130.31	14.35	
2025-01-17 09:30:34.04	130.30	14.37	
2025-01-17 09:30:34.24	130.28	14.39	
2025-01-17 09:30:34.44	130.27	14.41	
2025-01-17 09:30:34.64	130.26	14.43	
2025-01-17 09:30:34.85	130.24	14.45	
2025-01-17 09:30:35.05	130.23	14.47	
2025-01-17 09:30:35.25	130.22	14.49	
2025-01-17 09:30:35.46	130.20	14.51	
2025-01-17 09:30:35.66	130.19	14.53	
2025-01-17 09:30:35.86	130.17	14.55	
2025-01-17 09:30:36.06	130.16	14.57	
2025-01-17 09:30:36.27	130.15	14.59	
2025-01-17 09:30:36.47	130.13	14.61	
2025-01-17 09:30:36.67	130.12	14.63	
2025-01-17 09:30:36.88	130.10	14.66	
2025-01-17 09:30:37.08	130.09	14.68	
2025-01-17 09:30:37.28	130.08	14.70	
2025-01-17 09:30:37.49	130.06	14.72	
2025-01-17 09:30:37.69	130.05	14.74	
2025-01-17 09:30:37.89	130.03	14.76	
2025-01-17 09:30:38.09	130.02	14.78	
2025-01-17 09:30:38.30	130.01	14.80	
2025-01-17 09:30:38.50	129.99	14.82	
2025-01-17 09:30:38.70	129.98	14.84	
2025-01-17 09:30:38.91	129.96	14.86	
2025-01-17 09:30:39.11	129.95	14.88	
2025-01-17 09:30:39.31	129.94	14.90	
2025-01-17 09:30:39.52	129.92	14.92	
2025-01-17 09:30:39.72	129.91	14.94	
2025-01-17 09:30:39.92	129.89	14.96	
2025-01-17 09:30:40.12	129.88	14.98	
2025-01-17 09:30:40.33	129.86	15.00	
2025-01-17 09:30:40.53	129.85	15.02	
2025-01-17 09:30:40.73	129.84	15.04	
2025-01-17 09:30:40.94	129.82	15.06	
2025-01-17 09:30:41.14	129.81	15.08	
2025-01-17 09:30:41.34	129.79	15.10	
2025-01-17 09:30:41.55	129.78	15.13	
2025-01-17 09:30:41.75	129.76	15.15	
2025-01-17 09:30:41.95	129.75	15.17	
2025-01-17 09:30:42.15	129.74	15.19	
2025-01-17 09:30:42.36	129.72	15.21	
2025-01-17 09:30:42.56	129.71	15.23	
2025-01-17 09:30:42.76	129.69	15.25	
2025-01-17 09:30:42.97	129.68	15.27	
2025-01-17 09:30:43.17	129.66	15.29	
2025-01-17 09:30:43.37	129.65	15.31	
2025-01-17 09:30:43.57	129.63	15.33	
2025-01-17 09:30:43.78	129.62	15.35	
2025-01-17 09:30:43.98	129.61	15.37	
2025-01-17 09:30:44.18	129.59	15.39	
2025-01-17 09:30:44.39	129.58	15.42	
2025-01-17 09:30:44.59	129.56	15.44	
2025-01-17 09:30:44.79	129.55	15.46	
2025-01-17 09:30:45.00	129.53	15.48	
2025-01-17 09:30:45.20	129.52	15.50	
2025-01-17 09:30:45.40	129.50	15.52	
2025-01-17 09:30:45.60	129.49	15.54	
2025-01-17 09:30:45.81	129.47	15.56	
2025-01-17 09:30:46.01	129.46	15.58	
2025-01-17 09:30:46.21	129.44	15.60	
2025-01-17 09:30:46.42	129.43	15.63	
2025-01-17 09:30:46.62	129.41	15.65	
2025-01-17 09:30:46.82	129.40	15.67	
2025-01-17 09:30:47.03	129.38	15.69	
2025-01-17 09:30:47.23	129.37	15.71	
2025-01-17 09:30:47.43	129.35	15.73	
2025-01-17 09:30:47.63	129.34	15.75	
2025-01-17 09:30:47.84	129.32	15.77	
2025-01-17 09:30:48.04	129.31	15.79	
2025-01-17 09:30:48.24	129.29	15.82	
2025-01-17 09:30:48.45	129.28	15.84	
2025-01-17 09:30:48.65	129.26	15.86	
2025-01-17 09:30:48.85	129.25	15.88	
2025-01-17 09:30:49.06	129.23	15.90	
2025-01-17 09:30:49.26	129.22	15.92	
2025-01-17 09:30:49.46	129.20	15.94	
2025-01-17 09:30:49.66	129.19	15.96	
2025-01-17 09:30:49.87	129.17	15.99	
2025-01-17 09:30:50.07	129.16	16.01	
2025-01-17 09:30:50.27	129.14	16.03	
2025-01-17 09:30:50.48	129.13	16.05	
2025-01-17 09:30:50.68	129.11	16.07	
2025-01-17 09:30:50.88	129.10	16.09	
2025-01-17 09:30:51.08	129.08	16.11	
2025-01-17 09:30:51.29	129.06	16.13	
2025-01-17 09:30:51.49	129.05	16.16	
2025-01-17 09:30:51.69	129.03	16.18	
2025-01-17 09:30:51.90	129.02	16.20	
2025-01-17 09:30:52.10	129.00	16.22	
2025-01-17 09:30:52.30	128.99	16.24	
2025-01-17 09:30:52.51	128.97	16.26	
2025-01-17 09:30:52.71	128.96	16.29	
2025-01-17 09:30:52.91	128.94	16.31	
2025-01-17 09:30:53.11	128.93	16.33	
2025-01-17 09:30:53.32	128.91	16.35	
2025-01-17 09:30:53.52	128.89	16.37	
2025-01-17 09:30:53.72	128.88	16.39	
2025-01-17 09:30:53.93	128.86	16.41	
2025-01-17 09:30:54.13	128.85	16.44	
2025-01-17 09:30:54.33	128.83	16.46	
2025-01-17 09:30:54.54	128.81	16.48	
2025-01-17 09:30:54.74	128.80	16.50	
2025-01-17 09:30:54.94	128.78	16.52	
2025-01-17 09:30:55.14	128.77	16.54	
2025-01-17 09:30:55.35	128.75	16.57	
2025-01-17 09:30:55.55	128.74	16.59	
2025-01-17 09:30:55.75	128.72	16.61	
2025-01-17 09:30:55.96	128.70	16.63	
2025-01-17 09:30:56.16	128.69	16.65	
2025-01-17 09:30:56.36	128.67	16.68	
2025-01-17 09:30:56.57	128.66	16.70	
2025-01-17 09:30:56.77	128.64	16.72	
2025-01-17 09:30:56.97	128.62	16.74	
2025-01-17 09:30:57.17	128.61	16.76	
2025-01-17 09:30:57.38	128.59	16.79	
2025-01-17 09:30:57.58	128.58	16.81	
2025-01-17 09:30:57.78	128.56	16.83	
2025-01-17 09:30:57.99	128.54	16.85	
2025-01-17 09:30:58.19	128.53	16.87	
2025-01-17 09:30:58.39	128.51	16.89	
2025-01-17 09:30:58.59	128.50	16.92	
2025-01-17 09:30:58.80	128.48	16.94	
2025-01-17 09:30:59.00	128.46	16.96	
2025-01-17 09:30:59.20	128.45	16.98	
2025-01-17 09:30:59.41	128.43	17.01	
2025-01-17 09:30:59.61	128.41	17.03	
2025-01-17 09:30:59.81	128.40	17.05	
2025-01-17 09:31:00.02	128.38	17.07	
2025-01-17 09:31:00.22	128.36	17.09	
2025-01-17 09:31:00.42	128.35	17.12	
2025-01-17 09:31:00.62	128.33	17.14	
2025-01-17 09:31:00.83	128.31	17.16	
2025-01-17 09:31:01.03	128.30	17.18	
2025-01-17 09:31:01.23	128.28	17.20	
2025-01-17 09:31:01.44	128.26	17.23	
2025-01-17 09:31:01.64	128.25	17.25	
2025-01-17 09:31:01.84	128.23	17.27	
2025-01-17 09:31:02.05	128.21	17.29	
2025-01-17 09:31:02.25	128.20	17.32	
2025-01-17 09:31:02.45	128.18	17.34	
2025-01-17 09:31:02.65	128.16	17.36	
2025-01-17 09:31:02.86	128.15	17.38	
2025-01-17 09:31:03.06	128.13	17.41	
2025-01-17 09:31:03.26	128.11	17.43	
2025-01-17 09:31:03.47	128.10	17.45	
2025-01-17 09:31:03.67	128.08	17.47	
2025-01-17 09:31:03.87	128.06	17.49	
2025-01-17 09:31:04.08	128.05	17.52	
2025-01-17 09:31:04.28	128.03	17.54	
2025-01-17 09:31:04.48	128.01	17.56	
2025-01-17 09:31:04.68	128.00	17.58	
2025-01-17 09:31:04.89	127.98	17.61	
2025-01-17 09:31:05.09	127.96	17.63	
2025-01-17 09:31:05.29	127.94	17.65	
2025-01-17 09:31:05.50	127.93	17.68	
2025-01-17 09:31:05.70	127.91	17.70	
2025-01-17 09:31:05.90	127.89	17.72	
2025-01-17 09:31:06.10	127.88	17.74	
2025-01-17 09:31:06.31	127.86	17.77	
2025-01-17 09:31:06.51	127.84	17.79	
2025-01-17 09:31:06.71	127.82	17.81	
2025-01-17 09:31:06.92	127.81	17.83	
2025-01-17 09:31:07.12	127.79	17.86	
2025-01-17 09:31:07.32	127.77	17.88	
2025-01-17 09:31:07.53	127.75	17.90	
2025-01-17 09:31:07.73	127.74	17.93	
2025-01-17 09:31:07.93	127.72	17.95	
2025-01-17 09:31:08.13	127.70	17.97	
2025-01-17 09:31:08.34	127.68	17.99	
2025-01-17 09:31:08.54	127.67	18.02	
2025-01-17 09:31:08.74	127.65	18.04	
2025-01-17 09:31:08.95	127.63	18.06	
2025-01-17 09:31:09.15	127.61	18.09	
2025-01-17 09:31:09.35	127.60	18.11	
2025-01-17 09:31:09.56	127.58	18.13	
2025-01-17 09:31:09.76	127.56	18.15	
2025-01-17 09:31:09.96	127.54	18.18	
2025-01-17 09:31:10.16	127.53	18.20	
2025-01-17 09:31:10.37	127.51	18.22	
2025-01-17 09:31:10.57	127.49	18.25	
2025-01-17 09:31:10.77	127.47	18.27	
2025-01-17 09:31:10.98	127.45	18.29	
2025-01-17 09:31:11.18	127.44	18.32	
2025-01-17 09:31:11.38	127.42	18.34	
2025-01-17 09:31:11.59	127.40	18.36	
2025-01-17 09:31:11.79	127.38	18.39	
2025-01-17 09:31:11.99	127.37	18.41	
2025-01-17 09:31:12.19	127.35	18.43	
2025-01-17 09:31:12.40	127.33	18.46	
2025-01-17 09:31:12.60	127.31	18.48	
2025-01-17 09:31:12.80	127.29	18.50	
2025-01-17 09:31:13.01	127.27	18.53	
2025-01-17 09:31:13.21	127.26	18.55	
2025-01-17 09:31:13.41	127.24	18.57	
2025-01-17 09:31:13.61	127.22	18.59	
2025-01-17 09:31:13.82	127.20	18.62	
2025-01-17 09:31:14.02	127.18	18.64	
2025-01-17 09:31:14.22	127.17	18.67	
2025-01-17 09:31:14.43	127.15	18.69	
2025-01-17 09:31:14.63	127.13	18.71	
2025-01-17 09:31:14.83	127.11	18.74	
2025-01-17 09:31:15.04	127.09	18.76	
2025-01-17 09:31:15.24	127.07	18.78	
2025-01-17 09:31:15.44	127.06	18.81	
2025-01-17 09:31:15.64	127.04	18.83	
2025-01-17 09:31:15.85	127.02	18.85	
2025-01-17 09:31:16.05	127.00	18.88	
2025-01-17 09:31:16.25	126.98	18.90	
2025-01-17 09:31:16.46	126.96	18.92	
2025-01-17 09:31:16.66	126.94	18.95	
2025-01-17 09:31:16.86	126.93	18.97	
2025-01-17 09:31:17.07	126.91	19.00	
2025-01-17 09:31:17.27	126.89	19.02	
2025-01-17 09:31:17.47	126.87	19.04	
2025-01-17 09:31:17.67	126.85	19.07	
2025-01-17 09:31:17.88	126.83	19.09	
2025-01-17 09:31:18.08	126.81	19.11	
2025-01-17 09:31:18.28	126.79	19.14	
2025-01-17 09:31:18.49	126.77	19.16	
2025-01-17 09:31:18.69	126.76	19.19	
2025-01-17 09:31:18.89	126.74	19.21	
2025-01-17 09:31:19.10	126.72	19.23	
2025-01-17 09:31:19.30	126.70	19.26	
2025-01-17 09:31:19.50	126.68	19.28	
2025-01-17 09:31:19.70	126.66	19.30	
2025-01-17 09:31:19.91	126.64	19.33	
2025-01-17 09:31:20.11	126.62	19.35	
2025-01-17 09:31:20.31	126.60	19.38	
2025-01-17 09:31:20.52	126.58	19.40	
2025-01-17 09:31:20.72	126.56	19.43	
2025-01-17 09:31:20.92	126.55	19.45	
2025-01-17 09:31:21.12	126.53	19.47	
2025-01-17 09:31:21.33	126.51	19.50	
2025-01-17 09:31:21.53	126.49	19.52	
2025-01-17 09:31:21.73	126.47	19.55	
2025-01-17 09:31:21.94	126.45	19.57	
2025-01-17 09:31:22.14	126.43	19.59	
2025-01-17 09:31:22.34	126.41	19.62	
2025-01-17 09:31:22.55	126.39	19.64	
2025-01-17 09:31:22.75	126.37	19.67	
2025-01-17 09:31:22.95	126.35	19.69	
2025-01-17 09:31:23.15	126.33	19.71	
2025-01-17 09:31:23.36	126.31	19.74	
2025-01-17 09:31:23.56	126.29	19.76	
2025-01-17 09:31:23.76	126.27	19.79	
2025-01-17 09:31:23.97	126.25	19.81	
2025-01-17 09:31:24.17	126.23	19.84	
2025-01-17 09:31:24.37	126.21	19.86	
2025-01-17 09:31:24.58	126.19	19.89	
2025-01-17 09:31:24.78	126.17	19.91	
2025-01-17 09:31:24.98	126.15	19.93	
2025-01-17 09:31:25.18	126.13	19.96	
2025-01-17 09:31:25.39	126.11	19.98	
2025-01-17 09:31:25.59	126.09	20.01	
2025-01-17 09:31:25.79	126.07	20.03	
2025-01-17 09:31:26.00	126.05	20.06	
2025-01-17 09:31:26.20	126.03	20.08	
2025-01-17 09:31:26.40	126.01	20.11	
2025-01-17 09:31:26.60	125.99	20.13	
2025-01-17 09:31:26.81	125.97	20.16	
2025-01-17 09:31:27.01	125.95	20.18	
2025-01-17 09:31:27.21	125.93	20.20	
2025-01-17 09:31:27.42	125.91	20.23	
2025-01-17 09:31:27.62	125.89	20.25	
2025-01-17 09:31:27.82	125.87	20.28	
2025-01-17 09:31:28.03	125.85	20.30	
2025-01-17 09:31:28.23	125.83	20.33	
2025-01-17 09:31:28.43	125.81	20.35	
2025-01-17 09:31:28.63	125.79	20.38	
2025-01-17 09:31:28.84	125.77	20.40	
2025-01-17 09:31:29.04	125.75	20.43	
2025-01-17 09:31:29.24	125.73	20.45	
2025-01-17 09:31:29.45	125.71	20.48	
2025-01-17 09:31:29.65	125.69	20.50	
2025-01-17 09:31:29.85	125.66	20.53	
2025-01-17 09:31:30.06	125.64	20.55	
2025-01-17 09:31:30.26	125.62	20.58	
2025-01-17 09:31:30.46	125.60	20.60	
2025-01-17 09:31:30.66	125.58	20.63	
2025-01-17 09:31:30.87	125.56	20.65	
2025-01-17 09:31:31.07	125.54	20.68	
2025-01-17 09:31:31.27	125.52	20.70	
2025-01-17 09:31:31.48	125.50	20.73	
2025-01-17 09:31:31.68	125.48	20.75	
2025-01-17 09:31:31.88	125.46	20.78	
2025-01-17 09:31:32.09	125.43	20.80	
2025-01-17 09:31:32.29	125.41	20.83	
2025-01-17 09:31:32.49	125.39	20.85	
2025-01-17 09:31:32.69	125.37	20.88	
2025-01-17 09:31:32.90	125.35	20.91	
2025-01-17 09:31:33.10	125.33	20.93	
2025-01-17 09:31:33.30	125.31	20.96	
2025-01-17 09:31:33.51	125.28	20.98	
2025-01-17 09:31:33.71	125.26	21.01	
2025-01-17 09:31:33.91	125.24	21.03	
2025-01-17 09:31:34.11	125.22	21.06	
2025-01-17 09:31:34.32	125.20	21.08	
2025-01-17 09:31:34.52	125.18	21.11	
2025-01-17 09:31:34.72	125.16	21.13	
2025-01-17 09:31:34.93	125.13	21.16	
2025-01-17 09:31:35.13	125.11	21.18	
2025-01-17 09:31:35.33	125.09	21.21	
2025-01-17 09:31:35.54	125.07	21.24	
2025-01-17 09:31:35.74	125.05	21.26	
2025-01-17 09:31:35.94	125.03	21.29	
2025-01-17 09:31:36.14	125.00	21.31	
2025-01-17 09:31:36.35	124.98	21.34	
2025-01-17 09:31:36.55	124.96	21.36	
2025-01-17 09:31:36.75	124.94	21.39	
2025-01-17 09:31:36.96	124.92	21.42	
2025-01-17 09:31:37.16	124.89	21.44	
2025-01-17 09:31:37.36	124.87	21.47	
2025-01-17 09:31:37.57	124.85	21.49	
2025-01-17 09:31:37.77	124.83	21.52	
2025-01-17 09:31:37.97	124.81	21.54	
2025-01-17 09:31:38.17	124.78	21.57	
2025-01-17 09:31:38.38	124.76	21.60	
2025-01-17 09:31:38.58	124.74	21.62	
2025-01-17 09:31:38.78	124.72	21.65	
2025-01-17 09:31:38.99	124.69	21.67	
2025-01-17 09:31:39.19	124.67	21.70	
2025-01-17 09:31:39.39	124.65	21.72	
2025-01-17 09:31:39.60	124.63	21.75	
2025-01-17 09:31:39.80	124.60	21.78	
2025-01-17 09:31:40.00	124.58	21.80	
2025-01-17 09:31:40.20	124.56	21.83	
2025-01-17 09:31:40.41	124.54	21.86	
2025-01-17 09:31:40.61	124.51	21.88	
2025-01-17 09:31:40.81	124.49	21.91	
2025-01-17 09:31:41.02	124.47	21.93	
2025-01-17 09:31:41.22	124.45	21.96	
2025-01-17 09:31:41.42	124.42	21.99	
2025-01-17 09:31:41.62	124.40	22.01	
2025-01-17 09:31:41.83	124.38	22.04	
2025-01-17 09:31:42.03	124.35	22.06	
2025-01-17 09:31:42.23	124.33	22.09	
2025-01-17 09:31:42.44	124.31	22.12	
2025-01-17 09:31:42.64	124.29	22.14	
2025-01-17 09:31:42.84	124.26	22.17	
2025-01-17 09:31:43.05	124.24	22.20	
2025-01-17 09:31:43.25	124.22	22.22	
2025-01-17 09:31:43.45	124.19	22.25	
2025-01-17 09:31:43.65	124.17	22.27	
2025-01-17 09:31:43.86	124.15	22.30	
2025-01-17 09:31:44.06	124.12	22.33	
2025-01-17 09:31:44.26	124.10	22.35	
2025-01-17 09:31:44.47	124.08	22.38	
2025-01-17 09:31:44.67	124.05	22.41	
2025-01-17 09:31:44.87	124.03	22.43	
2025-01-17 09:31:45.08	124.00	22.46	
2025-01-17 09:31:45.28	123.98	22.49	
2025-01-17 09:31:45.48	123.96	22.51	
2025-01-17 09:31:45.68	123.93	22.54	
2025-01-17 09:31:45.89	123.91	22.57	
2025-01-17 09:31:46.09	123.89	22.59	
2025-01-17 09:31:46.29	123.86	22.62	
2025-01-17 09:31:46.50	123.84	22.65	
2025-01-17 09:31:46.70	123.82	22.67	
2025-01-17 09:31:46.90	123.79	22.70	
2025-01-17 09:31:47.11	123.77	22.73	
2025-01-17 09:31:47.31	123.74	22.75	
2025-01-17 09:31:47.51	123.72	22.78	
2025-01-17 09:31:47.71	123.70	22.81	
2025-01-17 09:31:47.92	123.67	22.84	
2025-01-17 09:31:48.12	123.65	22.86	
2025-01-17 09:31:48.32	123.62	22.89	
2025-01-17 09:31:48.53	123.60	22.92	
2025-01-17 09:31:48.73	123.57	22.94	
2025-01-17 09:31:48.93	123.55	22.97	
2025-01-17 09:31:49.13	123.53	23.00	
2025-01-17 09:31:49.34	123.50	23.02	
2025-01-17 09:31:49.54	123.48	23.05	
2025-01-17 09:31:49.74	123.45	23.08	
2025-01-17 09:31:49.95	123.43	23.11	
2025-01-17 09:31:50.15	123.40	23.13	
2025-01-17 09:31:50.35	123.38	23.16	
2025-01-17 09:31:50.56	123.35	23.19	
2025-01-17 09:31:50.76	123.33	23.21	
2025-01-17 09:31:50.96	123.30	23.24	
2025-01-17 09:31:51.16	123.28	23.27	
2025-01-17 09:31:51.37	123.25	23.30	
2025-01-17 09:31:51.57	123.23	23.32	
2025-01-17 09:31:51.77	123.20	23.35	
2025-01-17 09:31:51.98	123.18	23.38	
2025-01-17 09:31:52.18	123.15	23.40	
2025-01-17 09:31:52.38	123.13	23.43	
2025-01-17 09:31:52.59	123.10	23.46	
2025-01-17 09:31:52.79	123.08	23.49	
2025-01-17 09:31:52.99	123.05	23.51	
2025-01-17 09:31:53.19	123.03	23.54	
2025-01-17 09:31:53.40	123.00	23.57	
2025-01-17 09:31:53.60	122.98	23.60	
2025-01-17 09:31:53.80	122.95	23.62	
2025-01-17 09:31:54.01	122.93	23.65	
2025-01-17 09:31:54.21	122.90	23.68	
2025-01-17 09:31:54.41	122.88	23.71	
2025-01-17 09:31:54.62	122.85	23.74	
2025-01-17 09:31:54.82	122.82	23.76	
2025-01-17 09:31:55.02	122.80	23.79	
2025-01-17 09:31:55.22	122.77	23.82	
2025-01-17 09:31:55.43	122.75	23.85	
2025-01-17 09:31:55.63	122.72	23.87	
2025-01-17 09:31:55.83	122.70	23.90	
2025-01-17 09:31:56.04	122.67	23.93	
2025-01-17 09:31:56.24	122.64	23.96	
2025-01-17 09:31:56.44	122.62	23.98	
2025-01-17 09:31:56.64	122.59	24.01	
2025-01-17 09:31:56.85	122.57	24.04	
2025-01-17 09:31:57.05	122.54	24.07	
2025-01-17 09:31:57.25	122.51	24.10	
2025-01-17 09:31:57.46	122.49	24.12	
2025-01-17 09:31:57.66	122.46	24.15	
2025-01-17 09:31:57.86	122.43	24.18	
2025-01-17 09:31:58.07	122.41	24.21	
2025-01-17 09:31:58.27	122.38	24.24	
2025-01-17 09:31:58.47	122.35	24.26	
2025-01-17 09:31:58.67	122.33	24.29	
2025-01-17 09:31:58.88	122.30	24.32	
2025-01-17 09:31:59.08	122.28	24.35	
2025-01-17 09:31:59.28	122.25	24.38	
2025-01-17 09:31:59.49	122.22	24.41	
2025-01-17 09:31:59.69	122.19	24.43	
2025-01-17 09:31:59.89	122.17	24.46	
2025-01-17 09:32:00.10	122.14	24.49	
2025-01-17 09:32:00.30	122.11	24.52	
2025-01-17 09:32:00.50	122.09	24.55	
2025-01-17 09:32:00.70	122.06	24.57	
2025-01-17 09:32:00.91	122.03	24.60	
2025-01-17 09:32:01.11	122.01	24.63	
2025-01-17 09:32:01.31	121.98	24.66	
2025-01-17 09:32:01.52	121.95	24.69	
2025-01-17 09:32:01.72	121.92	24.72	
2025-01-17 09:32:01.92	121.90	24.74	
2025-01-17 09:32:02.13	121.87	24.77	
2025-01-17 09:32:02.33	121.84	24.80	
2025-01-17 09:32:02.53	121.81	24.83	
2025-01-17 09:32:02.73	121.79	24.86	
2025-01-17 09:32:02.94	121.76	24.89	
2025-01-17 09:32:03.14	121.73	24.92	
2025-01-17 09:32:03.34	121.70	24.94	
2025-01-17 09:32:03.55	121.68	24.97	
2025-01-17 09:32:03.75	121.65	25.00	
2025-01-17 09:32:03.95	121.62	25.03	
2025-01-17 09:32:04.15	121.59	25.06	
2025-01-17 09:32:04.36	121.56	25.09	
2025-01-17 09:32:04.56	121.54	25.12	
2025-01-17 09:32:04.76	121.51	25.15	
2025-01-17 09:32:04.97	121.48	25.18	
2025-01-17 09:32:05.17	121.45	25.20	
2025-01-17 09:32:05.37	121.42	25.23	
2025-01-17 09:32:05.58	121.40	25.26	
2025-01-17 09:32:05.78	121.37	25.29	
2025-01-17 09:32:05.98	121.34	25.32	
2025-01-17 09:32:06.18	121.31	25.35	
2025-01-17 09:32:06.39	121.28	25.38	
2025-01-17 09:32:06.59	121.25	25.41	
2025-01-17 09:32:06.79	121.23	25.44	
2025-01-17 09:32:07.00	121.20	25.47	
2025-01-17 09:32:07.20	121.17	25.49	
2025-01-17 09:32:07.40	121.14	25.52	
2025-01-17 09:32:07.61	121.11	25.55	
2025-01-17 09:32:07.81	121.08	25.58	
2025-01-17 09:32:08.01	121.05	25.61	
2025-01-17 09:32:08.21	121.02	25.64	
2025-01-17 09:32:08.42	120.99	25.67	
2025-01-17 09:32:08.62	120.97	25.70	
2025-01-17 09:32:08.82	120.94	25.73	
2025-01-17 09:32:09.03	120.91	25.76	
2025-01-17 09:32:09.23	120.88	25.79	
2025-01-17 09:32:09.43	120.85	25.82	
2025-01-17 09:32:09.64	120.82	25.85	
2025-01-17 09:32:09.84	120.79	25.87	
2025-01-17 09:32:10.04	120.76	25.90	
2025-01-17 09:32:10.24	120.73	25.93	
2025-01-17 09:32:10.45	120.70	25.96	
2025-01-17 09:32:10.65	120.67	25.99	
2025-01-17 09:32:10.85	120.64	26.02	
2025-01-17 09:32:11.06	120.61	26.05	
2025-01-17 09:32:11.26	120.58	26.08	
2025-01-17 09:32:11.46	120.55	26.11	
2025-01-17 09:32:11.66	120.52	26.14	
2025-01-17 09:32:11.87	120.49	26.17	
2025-01-17 09:32:12.07	120.46	26.20	
2025-01-17 09:32:12.27	120.43	26.23	
2025-01-17 09:32:12.48	120.40	26.26	
2025-01-17 09:32:12.68	120.37	26.29	
2025-01-17 09:32:12.88	120.34	26.32	
2025-01-17 09:32:13.09	120.31	26.35	
2025-01-17 09:32:13.29	120.28	26.38	
2025-01-17 09:32:13.49	120.25	26.41	
2025-01-17 09:32:13.69	120.22	26.44	
2025-01-17 09:32:13.90	120.19	26.47	
2025-01-17 09:32:14.10	120.16	26.50	
2025-01-17 09:32:14.30	120.13	26.53	
2025-01-17 09:32:14.51	120.10	26.56	
2025-01-17 09:32:14.71	120.07	26.59	
2025-01-17 09:32:14.91	120.04	26.62	
2025-01-17 09:32:15.12	120.01	26.65	
2025-01-17 09:32:15.32	119.98	26.68	
2025-01-17 09:32:15.52	119.95	26.71	
2025-01-17 09:32:15.72	119.91	26.74	
2025-01-17 09:32:15.93	119.88	26.77	
2025-01-17 09:32:16.13	119.85	26.80	
2025-01-17 09:32:16.33	119.82	26.83	
2025-01-17 09:32:16.54	119.79	26.86	
2025-01-17 09:32:16.74	119.76	26.89	
2025-01-17 09:32:16.94	119.73	26.92	
2025-01-17 09:32:17.15	119.69	26.95	
2025-01-17 09:32:17.35	119.66	26.98	
2025-01-17 09:32:17.55	119.63	27.01	
2025-01-17 09:32:17.75	119.60	27.04	
2025-01-17 09:32:17.96	119.57	27.07	
2025-01-17 09:32:18.16	119.54	27.10	
2025-01-17 09:32:18.36	119.51	27.13	
2025-01-17 09:32:18.57	119.47	27.16	
2025-01-17 09:32:18.77	119.44	27.19	
2025-01-17 09:32:18.97	119.41	27.22	
2025-01-17 09:32:19.17	119.38	27.25	
2025-01-17 09:32:19.38	119.34	27.28	
2025-01-17 09:32:19.58	119.31	27.31	
2025-01-17 09:32:19.78	119.28	27.34	
2025-01-17 09:32:19.99	119.25	27.38	
2025-01-17 09:32:20.19	119.22	27.41	
2025-01-17 09:32:20.39	119.18	27.44	
2025-01-17 09:32:20.60	119.15	27.47	
2025-01-17 09:32:20.80	119.12	27.50	
2025-01-17 09:32:21.00	119.09	27.53	
2025-01-17 09:32:21.20	119.05	27.56	
2025-01-17 09:32:21.41	119.02	27.59	
2025-01-17 09:32:21.61	118.99	27.62	
2025-01-17 09:32:21.81	118.95	27.65	
2025-01-17 09:32:22.02	118.92	27.68	
2025-01-17 09:32:22.22	118.89	27.71	
2025-01-17 09:32:22.42	118.86	27.74	
2025-01-17 09:32:22.63	118.82	27.78	
2025-01-17 09:32:22.83	118.79	27.81	
2025-01-17 09:32:23.03	118.76	27.84	
2025-01-17 09:32:23.23	118.72	27.87	
2025-01-17 09:32:23.44	118.69	27.90	
2025-01-17 09:32:23.64	118.65	27.93	
2025-01-17 09:32:23.84	118.62	27.96	
2025-01-17 09:32:24.05	118.59	27.99	
2025-01-17 09:32:24.25	118.55	28.02	
2025-01-17 09:32:24.45	118.52	28.05	
2025-01-17 09:32:24.65	118.49	28.08	
2025-01-17 09:32:24.86	118.45	28.12	
2025-01-17 09:32:25.06	118.42	28.15	
2025-01-17 09:32:25.26	118.39	28.18	
2025-01-17 09:32:25.47	118.35	28.21	
2025-01-17 09:32:25.67	118.32	28.24	
2025-01-17 09:32:25.87	118.28	28.27	
2025-01-17 09:32:26.08	118.25	28.30	
2025-01-17 09:32:26.28	118.21	28.34	
2025-01-17 09:32:26.48	118.18	28.37	
2025-01-17 09:32:26.68	118.15	28.40	
2025-01-17 09:32:26.89	118.11	28.43	
2025-01-17 09:32:27.09	118.08	28.46	
2025-01-17 09:32:27.29	118.04	28.49	
2025-01-17 09:32:27.50	118.01	28.52	
2025-01-17 09:32:27.70	117.97	28.56	
2025-01-17 09:32:27.90	117.94	28.59	
2025-01-17 09:32:28.11	117.90	28.62	
2025-01-17 09:32:28.31	117.87	28.65	
2025-01-17 09:32:28.51	117.83	28.68	
2025-01-17 09:32:28.71	117.80	28.71	
2025-01-17 09:32:28.92	117.76	28.75	
2025-01-17 09:32:29.12	117.73	28.78	
2025-01-17 09:32:29.32	117.69	28.81	
2025-01-17 09:32:29.53	117.65	28.84	
2025-01-17 09:32:29.73	117.62	28.87	
2025-01-17 09:32:29.93	117.58	28.90	
2025-01-17 09:32:30.14	117.55	28.94	
2025-01-17 09:32:30.34	117.51	28.97	
2025-01-17 09:32:30.54	117.48	29.00	
2025-01-17 09:32:30.74	117.44	29.03	
2025-01-17 09:32:30.95	117.40	29.06	
2025-01-17 09:32:31.15	117.37	29.09	
2025-01-17 09:32:31.35	117.33	29.13	
2025-01-17 09:32:31.56	117.29	29.16	
2025-01-17 09:32:31.76	117.26	29.19	
2025-01-17 09:32:31.96	117.22	29.22	
2025-01-17 09:32:32.16	117.19	29.25	
2025-01-17 09:32:32.37	117.15	29.29	
2025-01-17 09:32:32.57	117.11	29.32	
2025-01-17 09:32:32.77	117.08	29.35	
2025-01-17 09:32:32.98	117.04	29.38	
2025-01-17 09:32:33.18	117.00	29.42	
2025-01-17 09:32:33.38	116.97	29.45	
2025-01-17 09:32:33.59	116.93	29.48	
2025-01-17 09:32:33.79	116.89	29.51	
2025-01-17 09:32:33.99	116.86	29.54	
2025-01-17 09:32:34.19	116.82	29.58	
2025-01-17 09:32:34.40	116.78	29.61	
2025-01-17 09:32:34.60	116.74	29.64	
2025-01-17 09:32:34.80	116.71	29.67	
2025-01-17 09:32:35.01	116.67	29.71	
2025-01-17 09:32:35.21	116.63	29.74	
2025-01-17 09:32:35.41	116.59	29.77	
2025-01-17 09:32:35.62	116.56	29.80	
2025-01-17 09:32:35.82	116.52	29.84	
2025-01-17 09:32:36.02	116.48	29.87	
2025-01-17 09:32:36.22	116.44	29.90	
2025-01-17 09:32:36.43	116.40	29.93	
2025-01-17 09:32:36.63	116.37	29.97	
2025-01-17 09:32:36.83	116.33	30.00	
2025-01-17 09:32:37.04	116.29	30.03	
2025-01-17 09:32:37.24	116.25	30.06	
2025-01-17 09:32:37.44	116.21	30.10	
2025-01-17 09:32:37.65	116.17	30.13	
2025-01-17 09:32:37.85	116.14	30.16	
2025-01-17 09:32:38.05	116.10	30.19	
2025-01-17 09:32:38.25	116.06	30.23	
2025-01-17 09:32:38.46	116.02	30.26	
2025-01-17 09:32:38.66	115.98	30.29	
2025-01-17 09:32:38.86	115.94	30.32	
2025-01-17 09:32:39.07	115.90	30.36	
2025-01-17 09:32:39.27	115.86	30.39	
2025-01-17 09:32:39.47	115.83	30.42	
2025-01-17 09:32:39.67	115.79	30.45	
2025-01-17 09:32:39.88	115.75	30.49	
2025-01-17 09:32:40.08	115.71	30.52	
2025-01-17 09:32:40.28	115.67	30.55	
2025-01-17 09:32:40.49	115.63	30.59	
2025-01-17 09:32:40.69	115.59	30.62	
2025-01-17 09:32:40.89	115.55	30.65	
2025-01-17 09:32:41.10	115.51	30.69	
2025-01-17 09:32:41.30	115.47	30.72	
2025-01-17 09:32:41.50	115.43	30.75	
2025-01-17 09:32:41.70	115.39	30.78	
2025-01-17 09:32:41.91	115.35	30.82	
2025-01-17 09:32:42.11	115.31	30.85	
2025-01-17 09:32:42.31	115.27	30.88	
2025-01-17 09:32:42.52	115.23	30.92	
2025-01-17 09:32:42.72	115.19	30.95	
2025-01-17 09:32:42.92	115.15	30.98	
2025-01-17 09:32:43.13	115.11	31.02	
2025-01-17 09:32:43.33	115.06	31.05	
2025-01-17 09:32:43.53	115.02	31.08	
2025-01-17 09:32:43.73	114.98	31.12	
2025-01-17 09:32:43.94	114.94	31.15	
2025-01-17 09:32:44.14	114.90	31.18	
2025-01-17 09:32:44.34	114.86	31.22	
2025-01-17 09:32:44.55	114.82	31.25	
2025-01-17 09:32:44.75	114.78	31.28	
2025-01-17 09:32:44.95	114.74	31.32	
2025-01-17 09:32:45.16	114.69	31.35	
2025-01-17 09:32:45.36	114.65	31.38	
2025-01-17 09:32:45.56	114.61	31.42	
2025-01-17 09:32:45.76	114.57	31.45	
2025-01-17 09:32:45.97	114.53	31.49	
2025-01-17 09:32:46.17	114.49	31.52	
2025-01-17 09:32:46.37	114.44	31.55	
2025-01-17 09:32:46.58	114.40	31.59	
2025-01-17 09:32:46.78	114.36	31.62	
2025-01-17 09:32:46.98	114.32	31.65	
2025-01-17 09:32:47.18	114.28	31.69	
2025-01-17 09:32:47.39	114.23	31.72	
2025-01-17 09:32:47.59	114.19	31.75	
2025-01-17 09:32:47.79	114.15	31.79	
2025-01-17 09:32:48.00	114.10	31.82	
2025-01-17 09:32:48.20	114.06	31.86	
2025-01-17 09:32:48.40	114.02	31.89	
2025-01-17 09:32:48.61	113.97	31.92	
2025-01-17 09:32:48.81	113.93	31.96	
2025-01-17 09:32:49.01	113.89	31.99	
2025-01-17 09:32:49.21	113.85	32.02	
2025-01-17 09:32:49.42	113.80	32.06	
2025-01-17 09:32:49.62	113.76	32.09	
2025-01-17 09:32:49.82	113.72	32.13	
2025-01-17 09:32:50.03	113.67	32.16	
2025-01-17 09:32:50.23	113.63	32.19	
2025-01-17 09:32:50.43	113.58	32.23	
2025-01-17 09:32:50.64	113.54	32.26	
2025-01-17 09:32:50.84	113.50	32.30	
2025-01-17 09:32:51.04	113.45	32.33	
2025-01-17 09:32:51.24	113.41	32.36	
2025-01-17 09:32:51.45	113.36	32.40	
2025-01-17 09:32:51.65	113.32	32.43	
2025-01-17 09:32:51.85	113.28	32.47	
2025-01-17 09:32:52.06	113.23	32.50	
2025-01-17 09:32:52.26	113.19	32.53	
2025-01-17 09:32:52.46	113.14	32.57	
2025-01-17 09:32:52.67	113.09	32.60	
2025-01-17 09:32:52.87	113.05	32.64	
2025-01-17 09:32:53.07	113.01	32.67	
2025-01-17 09:32:53.27	112.96	32.70	
2025-01-17 09:32:53.48	112.91	32.74	
2025-01-17 09:32:53.68	112.87	32.77	
2025-01-17 09:32:53.88	112.83	32.81	
2025-01-17 09:32:54.09	112.78	32.84	
2025-01-17 09:32:54.29	112.73	32.88	
2025-01-17 09:32:54.49	112.69	32.91	
2025-01-17 09:32:54.69	112.64	32.94	
2025-01-17 09:32:54.90	112.60	32.98	
2025-01-17 09:32:55.10	112.55	33.01	
2025-01-17 09:32:55.30	112.50	33.05	
2025-01-17 09:32:55.51	112.46	33.08	
2025-01-17 09:32:55.71	112.41	33.12	
2025-01-17 09:32:55.91	112.37	33.15	
2025-01-17 09:32:56.12	112.32	33.19	
2025-01-17 09:32:56.32	112.27	33.22	
2025-01-17 09:32:56.52	112.22	33.26	
2025-01-17 09:32:56.72	112.18	33.29	
2025-01-17 09:32:56.93	112.13	33.33	
2025-01-17 09:32:57.13	112.08	33.36	
2025-01-17 09:32:57.33	112.04	33.39	
2025-01-17 09:32:57.54	111.99	33.43	
2025-01-17 09:32:57.74	111.94	33.46	
2025-01-17 09:32:57.94	111.90	33.50	
2025-01-17 09:32:58.15	111.85	33.53	
2025-01-17 09:32:58.35	111.80	33.57	
2025-01-17 09:32:58.55	111.75	33.60	
2025-01-17 09:32:58.75	111.70	33.64	
2025-01-17 09:32:58.96	111.66	33.67	
2025-01-17 09:32:59.16	111.61	33.71	
2025-01-17 09:32:59.36	111.56	33.74	
2025-01-17 09:32:59.57	111.51	33.78	
2025-01-17 09:32:59.77	111.46	33.81	
2025-01-17 09:32:59.97	111.42	33.84	
2025-01-17 09:33:00.18	111.36	33.88	
2025-01-17 09:33:00.38	111.32	33.92	
2025-01-17 09:33:00.58	111.27	33.95	
2025-01-17 09:33:00.78	111.22	33.98	
2025-01-17 09:33:00.99	111.17	34.02	
2025-01-17 09:33:01.19	111.12	34.05	
2025-01-17 09:33:01.39	111.07	34.09	
2025-01-17 09:33:01.60	111.02	34.12	
2025-01-17 09:33:01.80	110.97	34.16	
2025-01-17 09:33:02.00	110.92	34.19	
2025-01-17 09:33:02.20	110.88	34.23	
2025-01-17 09:33:02.41	110.82	34.26	
2025-01-17 09:33:02.61	110.77	34.30	
2025-01-17 09:33:02.81	110.73	34.33	
2025-01-17 09:33:03.02	110.67	34.37	
2025-01-17 09:33:03.22	110.62	34.40	
2025-01-17 09:33:03.42	110.57	34.44	
2025-01-17 09:33:03.63	110.52	34.48	
2025-01-17 09:33:03.83	110.47	34.51	
2025-01-17 09:33:04.03	110.42	34.54	
2025-01-17 09:33:04.23	110.37	34.58	
2025-01-17 09:33:04.44	110.32	34.62	
2025-01-17 09:33:04.64	110.27	34.65	
2025-01-17 09:33:04.84	110.22	34.68	
2025-01-17 09:33:05.05	110.17	34.72	
2025-01-17 09:33:05.25	110.12	34.76	
2025-01-17 09:33:05.45	110.07	34.79	
2025-01-17 09:33:05.66	110.01	34.83	
2025-01-17 09:33:05.86	109.96	34.86	
2025-01-17 09:33:06.06	109.91	34.90	
2025-01-17 09:33:06.26	109.86	34.93	
2025-01-17 09:33:06.47	109.81	34.97	
2025-01-17 09:33:06.67	109.75	35.00	
2025-01-17 09:33:06.87	109.70	35.04	
2025-01-17 09:33:07.08	109.65	35.07	
2025-01-17 09:33:07.28	109.60	35.11	
2025-01-17 09:33:07.48	109.55	35.14	
2025-01-17 09:33:07.69	109.49	35.18	
2025-01-17 09:33:07.89	109.44	35.21	
2025-01-17 09:33:08.09	109.39	35.25	
2025-01-17 09:33:08.29	109.34	35.28	
2025-01-17 09:33:08.50	109.28	35.32	
2025-01-17 09:33:08.70	109.23	35.36	
2025-01-17 09:33:08.90	109.18	35.39	
2025-01-17 09:33:09.11	109.12	35.43	
2025-01-17 09:33:09.31	109.07	35.46	
2025-01-17 09:33:09.51	109.01	35.50	
2025-01-17 09:33:09.71	108.96	35.53	
2025-01-17 09:33:09.92	108.91	35.57	
2025-01-17 09:33:10.12	108.85	35.60	
2025-01-17 09:33:10.32	108.80	35.64	
2025-01-17 09:33:10.53	108.74	35.67	
2025-01-17 09:33:10.73	108.69	35.71	
2025-01-17 09:33:10.93	108.64	35.74	
2025-01-17 09:33:11.14	108.58	35.78	
2025-01-17 09:33:11.34	108.52	35.82	
2025-01-17 09:33:11.54	108.47	35.85	
2025-01-17 09:33:11.74	108.42	35.89	
2025-01-17 09:33:11.95	108.36	35.92	
2025-01-17 09:33:12.15	108.31	35.96	
2025-01-17 09:33:12.35	108.25	35.99	
2025-01-17 09:33:12.56	108.19	36.03	
2025-01-17 09:33:12.76	108.14	36.07	
2025-01-17 09:33:12.96	108.08	36.10	
2025-01-17 09:33:13.17	108.03	36.14	
2025-01-17 09:33:13.37	107.97	36.17	
2025-01-17 09:33:13.57	107.92	36.21	
2025-01-17 09:33:13.77	107.86	36.24	
2025-01-17 09:33:13.98	107.80	36.28	
2025-01-17 09:33:14.18	107.75	36.31	
2025-01-17 09:33:14.38	107.69	36.35	
2025-01-17 09:33:14.59	107.63	36.39	
2025-01-17 09:33:14.79	107.58	36.42	
2025-01-17 09:33:14.99	107.52	36.46	
2025-01-17 09:33:15.20	107.46	36.49	
2025-01-17 09:33:15.40	107.40	36.53	
2025-01-17 09:33:15.60	107.35	36.56	
2025-01-17 09:33:15.80	107.29	36.60	
2025-01-17 09:33:16.01	107.23	36.64	
2025-01-17 09:33:16.21	107.17	36.67	
2025-01-17 09:33:16.41	107.12	36.71	
2025-01-17 09:33:16.62	107.06	36.74	
2025-01-17 09:33:16.82	107.00	36.78	
2025-01-17 09:33:17.02	106.94	36.81	
2025-01-17 09:33:17.22	106.89	36.85	
2025-01-17 09:33:17.43	106.82	36.89	
2025-01-17 09:33:17.63	106.77	36.92	
2025-01-17 09:33:17.83	106.71	36.96	
2025-01-17 09:33:18.04	106.65	36.99	
2025-01-17 09:33:18.24	106.59	37.03	
2025-01-17 09:33:18.44	106.53	37.06	
2025-01-17 09:33:18.65	106.47	37.10	
2025-01-17 09:33:18.85	106.41	37.14	
2025-01-17 09:33:19.05	106.35	37.17	
2025-01-17 09:33:19.25	106.29	37.21	
2025-01-17 09:33:19.46	106.23	37.24	
2025-01-17 09:33:19.66	106.17	37.28	
2025-01-17 09:33:19.86	106.11	37.31	
2025-01-17 09:33:20.07	106.05	37.35	
2025-01-17 09:33:20.27	105.99	37.39	
2025-01-17 09:33:20.47	105.93	37.42	
2025-01-17 09:33:20.68	105.87	37.46	
2025-01-17 09:33:20.88	105.81	37.49	
2025-01-17 09:33:21.08	105.75	37.53	
2025-01-17 09:33:21.28	105.69	37.56	
2025-01-17 09:33:21.49	105.63	37.60	
2025-01-17 09:33:21.69	105.57	37.64	
2025-01-17 09:33:21.89	105.51	37.67	
2025-01-17 09:33:22.10	105.44	37.71	
2025-01-17 09:33:22.30	105.38	37.74	
2025-01-17 09:33:22.50	105.32	37.78	
2025-01-17 09:33:22.71	105.26	37.82	
2025-01-17 09:33:22.91	105.20	37.85	
2025-01-17 09:33:23.11	105.13	37.89	
2025-01-17 09:33:23.31	105.07	37.92	
2025-01-17 09:33:23.52	105.01	37.96	
2025-01-17 09:33:23.72	104.95	37.99	
2025-01-17 09:33:23.92	104.89	38.03	
2025-01-17 09:33:24.13	104.82	38.07	
2025-01-17 09:33:24.33	104.76	38.10	
2025-01-17 09:33:24.53	104.70	38.14	
2025-01-17 09:33:24.73	104.63	38.17	
2025-01-17 09:33:24.94	104.57	38.21	
2025-01-17 09:33:25.14	104.50	38.24	
2025-01-17 09:33:25.34	104.44	38.28	
2025-01-17 09:33:25.55	104.38	38.32	
2025-01-17 09:33:25.75	104.31	38.35	
2025-01-17 09:33:25.95	104.25	38.39	
2025-01-17 09:33:26.16	104.18	38.42	
2025-01-17 09:33:26.36	104.12	38.46	
2025-01-17 09:33:26.56	104.06	38.50	
2025-01-17 09:33:26.76	103.99	38.53	
2025-01-17 09:33:26.97	103.93	38.57	
2025-01-17 09:33:27.17	103.86	38.60	
2025-01-17 09:33:27.37	103.80	38.64	
2025-01-17 09:33:27.58	103.73	38.67	
2025-01-17 09:33:27.78	103.66	38.71	
2025-01-17 09:33:27.98	103.60	38.75	
2025-01-17 09:33:28.19	103.53	38.78	
2025-01-17 09:33:28.39	103.47	38.82	
2025-01-17 09:33:28.59	103.40	38.85	
2025-01-17 09:33:28.79	103.34	38.89	
2025-01-17 09:33:29.00	103.27	38.92	
2025-01-17 09:33:29.20	103.20	38.96	
2025-01-17 09:33:29.40	103.14	38.99	
2025-01-17 09:33:29.61	103.07	39.03	
2025-01-17 09:33:29.81	103.00	39.07	
2025-01-17 09:33:30.01	102.94	39.10	
2025-01-17 09:33:30.21	102.87	39.14	
2025-01-17 09:33:30.42	102.80	39.17	
2025-01-17 09:33:30.62	102.73	39.21	
2025-01-17 09:33:30.82	102.67	39.24	
2025-01-17 09:33:31.03	102.60	39.28	
2025-01-17 09:33:31.23	102.53	39.32	
2025-01-17 09:33:31.43	102.46	39.35	
2025-01-17 09:33:31.64	102.39	39.39	
2025-01-17 09:33:31.84	102.32	39.42	
2025-01-17 09:33:32.04	102.26	39.46	
2025-01-17 09:33:32.24	102.19	39.49	
2025-01-17 09:33:32.45	102.12	39.53	
2025-01-17 09:33:32.65	102.05	39.56	
2025-01-17 09:33:32.85	101.98	39.60	
2025-01-17 09:33:33.06	101.91	39.64	
2025-01-17 09:33:33.26	101.84	39.67	
2025-01-17 09:33:33.46	101.77	39.71	
2025-01-17 09:33:33.67	101.70	39.74	
2025-01-17 09:33:33.87	101.63	39.78	
2025-01-17 09:33:34.07	101.56	39.81	
2025-01-17 09:33:34.27	101.49	39.85	
2025-01-17 09:33:34.48	101.42	39.88	
2025-01-17 09:33:34.68	101.35	39.92	
2025-01-17 09:33:34.88	101.28	39.95	
2025-01-17 09:33:35.09	101.21	39.99	
2025-01-17 09:33:35.29	101.14	40.03	
2025-01-17 09:33:35.49	101.07	40.06	
2025-01-17 09:33:35.70	100.99	40.10	
2025-01-17 09:33:35.90	100.92	40.13	
2025-01-17 09:33:36.10	100.85	40.17	
2025-01-17 09:33:36.30	100.78	40.20	
2025-01-17 09:33:36.51	100.71	40.24	
2025-01-17 09:33:36.71	100.64	40.27	
2025-01-17 09:33:36.91	100.57	40.31	
2025-01-17 09:33:37.12	100.49	40.34	
2025-01-17 09:33:37.32	100.42	40.38	
2025-01-17 09:33:37.52	100.35	40.41	
2025-01-17 09:33:37.72	100.28	40.45	
2025-01-17 09:33:37.93	100.20	40.48	
2025-01-17 09:33:38.13	100.13	40.52	
2025-01-17 09:33:38.33	100.06	40.55	
2025-01-17 09:33:38.54	99.98	40.59	
2025-01-17 09:33:38.74	99.91	40.62	
2025-01-17 09:33:38.94	99.84	40.66	
2025-01-17 09:33:39.15	99.76	40.69	
2025-01-17 09:33:39.35	99.69	40.73	
2025-01-17 09:33:39.55	99.61	40.76	
2025-01-17 09:33:39.75	99.54	40.80	
2025-01-17 09:33:39.96	99.46	40.83	
2025-01-17 09:33:40.16	99.39	40.87	
2025-01-17 09:33:40.36	99.31	40.90	
2025-01-17 09:33:40.57	99.24	40.94	
2025-01-17 09:33:40.77	99.16	40.97	
2025-01-17 09:33:40.97	99.09	41.01	
2025-01-17 09:33:41.18	99.01	41.04	
2025-01-17 09:33:41.38	98.93	41.08	
2025-01-17 09:33:41.58	98.86	41.11	
2025-01-17 09:33:41.78	98.79	41.15	
2025-01-17 09:33:41.99	98.71	41.18	
2025-01-17 09:33:42.19	98.63	41.22	
2025-01-17 09:33:42.39	98.56	41.25	
2025-01-17 09:33:42.60	98.48	41.29	
2025-01-17 09:33:42.80	98.40	41.32	
2025-01-17 09:33:43.00	98.32	41.35	
2025-01-17 09:33:43.21	98.24	41.39	
2025-01-17 09:33:43.41	98.17	41.42	
2025-01-17 09:33:43.61	98.09	41.46	
2025-01-17 09:33:43.81	98.01	41.49	
2025-01-17 09:33:44.02	97.93	41.53	
2025-01-17 09:33:44.22	97.86	41.56	
2025-01-17 09:33:44.42	97.78	41.60	
2025-01-17 09:33:44.63	97.70	41.63	
2025-01-17 09:33:44.83	97.62	41.67	
2025-01-17 09:33:45.03	97.54	41.70	
2025-01-17 09:33:45.23	97.47	41.73	
2025-01-17 09:33:45.44	97.38	41.77	
2025-01-17 09:33:45.64	97.31	41.80	
2025-01-17 09:33:45.84	97.23	41.84	
2025-01-17 09:33:46.05	97.15	41.87	
2025-01-17 09:33:46.25	97.07	41.90	
2025-01-17 09:33:46.45	96.99	41.94	
2025-01-17 09:33:46.66	96.91	41.97	
2025-01-17 09:33:46.86	96.83	42.01	
2025-01-17 09:33:47.06	96.75	42.04	
2025-01-17 09:33:47.26	96.67	42.07	
2025-01-17 09:33:47.47	96.58	42.11	
2025-01-17 09:33:47.67	96.50	42.14	
2025-01-17 09:33:47.87	96.42	42.18	
2025-01-17 09:33:48.08	96.34	42.21	
2025-01-17 09:33:48.28	96.26	42.24	
2025-01-17 09:33:48.48	96.18	42.28	
2025-01-17 09:33:48.69	96.09	42.31	
2025-01-17 09:33:48.89	96.01	42.35	
2025-01-17 09:33:49.09	95.93	42.38	
2025-01-17 09:33:49.29	95.85	42.41	
2025-01-17 09:33:49.50	95.77	42.45	
2025-01-17 09:33:49.70	95.68	42.48	
2025-01-17 09:33:49.90	95.60	42.51	
2025-01-17 09:33:50.11	95.52	42.55	
2025-01-17 09:33:50.31	95.44	42.58	
2025-01-17 09:33:50.51	95.35	42.61	
2025-01-17 09:33:50.72	95.27	42.65	
2025-01-17 09:33:50.92	95.18	42.68	
2025-01-17 09:33:51.12	95.10	42.71	
2025-01-17 09:33:51.32	95.02	42.75	
2025-01-17 09:33:51.53	94.93	42.78	
2025-01-17 09:33:51.73	94.85	42.81	
2025-01-17 09:33:51.93	94.76	42.85	
2025-01-17 09:33:52.14	94.68	42.88	
2025-01-17 09:33:52.34	94.59	42.91	
2025-01-17 09:33:52.54	94.51	42.94	
2025-01-17 09:33:52.74	94.43	42.98	
2025-01-17 09:33:52.95	94.34	43.01	
2025-01-17 09:33:53.15	94.25	43.04	
2025-01-17 09:33:53.35	94.17	43.08	
2025-01-17 09:33:53.56	94.08	43.11	
2025-01-17 09:33:53.76	93.99	43.14	
2025-01-17 09:33:53.96	93.91	43.17	
2025-01-17 09:33:54.17	93.82	43.21	
2025-01-17 09:33:54.37	93.73	43.24	
2025-01-17 09:33:54.57	93.65	43.27	
2025-01-17 09:33:54.77	93.56	43.30	
2025-01-17 09:33:54.98	93.47	43.34	
2025-01-17 09:33:55.18	93.39	43.37	
2025-01-17 09:33:55.38	93.30	43.40	
2025-01-17 09:33:55.59	93.21	43.43	
2025-01-17 09:33:55.79	93.12	43.47	
2025-01-17 09:33:55.99	93.04	43.50	
2025-01-17 09:33:56.20	92.94	43.53	
2025-01-17 09:33:56.40	92.86	43.56	
2025-01-17 09:33:56.60	92.77	43.59	
2025-01-17 09:33:56.80	92.68	43.63	
2025-01-17 09:33:57.01	92.59	43.66	
2025-01-17 09:33:57.21	92.50	43.69	
2025-01-17 09:33:57.41	92.41	43.72	
2025-01-17 09:33:57.62	92.32	43.75	
2025-01-17 09:33:57.82	92.23	43.79	
2025-01-17 09:33:58.02	92.14	43.82	
2025-01-17 09:33:58.23	92.05	43.85	
2025-01-17 09:33:58.43	91.96	43.88	
2025-01-17 09:33:58.63	91.87	43.91	
2025-01-17 09:33:58.83	91.78	43.94	
2025-01-17 09:33:59.04	91.69	43.98	
2025-01-17 09:33:59.24	91.60	44.01	
2025-01-17 09:33:59.44	91.51	44.04	
2025-01-17 09:33:59.65	91.42	44.07	
2025-01-17 09:33:59.85	91.33	44.10	
2025-01-17 09:34:00.05	91.24	44.13	
2025-01-17 09:34:00.25	91.14	44.16	
2025-01-17 09:34:00.46	91.05	44.19	
2025-01-17 09:34:00.66	90.96	44.22	
2025-01-17 09:34:00.86	90.87	44.25	
2025-01-17 09:34:01.07	90.77	44.29	
2025-01-17 09:34:01.27	90.68	44.32	
2025-01-17 09:34:01.47	90.59	44.35	
2025-01-17 09:34:01.68	90.49	44.38	
2025-01-17 09:34:01.88	90.40	44.41	
2025-01-17 09:34:02.08	90.31	44.44	
2025-01-17 09:34:02.28	90.22	44.47	
2025-01-17 09:34:02.49	90.12	44.50	
2025-01-17 09:34:02.69	90.03	44.53	
2025-01-17 09:34:02.89	89.93	44.56	
2025-01-17 09:34:03.10	89.84	44.59	
2025-01-17 09:34:03.30	89.74	44.62	
2025-01-17 09:34:03.50	89.65	44.65	
2025-01-17 09:34:03.71	89.55	44.68	
2025-01-17 09:34:03.91	89.46	44.71	
2025-01-17 09:34:04.11	89.36	44.74	
2025-01-17 09:34:04.31	89.27	44.77	
2025-01-17 09:34:04.52	89.17	44.80	
2025-01-17 09:34:04.72	89.08	44.83	
2025-01-17 09:34:04.92	88.98	44.86	
2025-01-17 09:34:05.13	88.88	44.89	
2025-01-17 09:34:05.33	88.79	44.92	
2025-01-17 09:34:05.53	88.69	44.95	
2025-01-17 09:34:05.74	88.59	44.98	
2025-01-17 09:34:05.94	88.50	45.01	
2025-01-17 09:34:06.14	88.40	45.04	
2025-01-17 09:34:06.34	88.30	45.07	
2025-01-17 09:34:06.55	88.20	45.10	
2025-01-17 09:34:06.75	88.11	45.12	
2025-01-17 09:34:06.95	88.01	45.15	
2025-01-17 09:34:07.16	87.91	45.18	
2025-01-17 09:34:07.36	87.81	45.21	
2025-01-17 09:34:07.56	87.72	45.24	
2025-01-17 09:34:07.76	87.62	45.27	
2025-01-17 09:34:07.97	87.52	45.30	
2025-01-17 09:34:08.17	87.42	45.32	
2025-01-17 09:34:08.37	87.32	45.35	
2025-01-17 09:34:08.58	87.22	45.38	
2025-01-17 09:34:08.78	87.12	45.41	
2025-01-17 09:34:08.98	87.02	45.44	
2025-01-17 09:34:09.19	86.92	45.47	
2025-01-17 09:34:09.39	86.82	45.49	
2025-01-17 09:34:09.59	86.72	45.52	
2025-01-17 09:34:09.79	86.62	45.55	
2025-01-17 09:34:10.00	86.52	45.58	
2025-01-17 09:34:10.20	86.42	45.61	
2025-01-17 09:34:10.40	86.32	45.63	
2025-01-17 09:34:10.61	86.22	45.66	
2025-01-17 09:34:10.81	86.12	45.69	
2025-01-17 09:34:11.01	86.02	45.72	
2025-01-17 09:34:11.22	85.91	45.74	
2025-01-17 09:34:11.42	85.81	45.77	
2025-01-17 09:34:11.62	85.71	45.80	
2025-01-17 09:34:11.82	85.61	45.82	
2025-01-17 09:34:12.03	85.50	45.85	
2025-01-17 09:34:12.23	85.40	45.88	
2025-01-17 09:34:12.43	85.30	45.90	
2025-01-17 09:34:12.64	85.20	45.93	
2025-01-17 09:34:12.84	85.10	45.96	
2025-01-17 09:34:13.04	84.99	45.98	
2025-01-17 09:34:13.25	84.89	46.01	
2025-01-17 09:34:13.45	84.78	46.04	
2025-01-17 09:34:13.65	84.68	46.06	
2025-01-17 09:34:13.85	84.58	46.09	
2025-01-17 09:34:14.06	84.47	46.12	
2025-01-17 09:34:14.26	84.37	46.14	
2025-01-17 09:34:14.46	84.27	46.17	
2025-01-17 09:34:14.67	84.16	46.19	
2025-01-17 09:34:14.87	84.06	46.22	
2025-01-17 09:34:15.07	83.95	46.25	
2025-01-17 09:34:15.27	83.85	46.27	
2025-01-17 09:34:15.48	83.74	46.30	
2025-01-17 09:34:15.68	83.64	46.32	
2025-01-17 09:34:15.88	83.53	46.35	
2025-01-17 09:34:16.09	83.42	46.37	
2025-01-17 09:34:16.29	83.32	46.40	
2025-01-17 09:34:16.49	83.21	46.42	
2025-01-17 09:34:16.70	83.10	46.45	
2025-01-17 09:34:16.90	83.00	46.47	
2025-01-17 09:34:17.10	82.89	46.50	
2025-01-17 09:34:17.30	82.79	46.52	
2025-01-17 09:34:17.51	82.68	46.55	
2025-01-17 09:34:17.71	82.57	46.57	
2025-01-17 09:34:17.91	82.47	46.60	
2025-01-17 09:34:18.12	82.36	46.62	
2025-01-17 09:34:18.32	82.25	46.64	
2025-01-17 09:34:18.52	82.14	46.67	
2025-01-17 09:34:18.73	82.03	46.69	
2025-01-17 09:34:18.93	81.93	46.72	
2025-01-17 09:34:19.13	81.82	46.74	
2025-01-17 09:34:19.33	81.71	46.76	
2025-01-17 09:34:19.54	81.60	46.79	
2025-01-17 09:34:19.74	81.49	46.81	
2025-01-17 09:34:19.94	81.39	46.83	
2025-01-17 09:34:20.15	81.27	46.86	
2025-01-17 09:34:20.35	81.17	46.88	
2025-01-17 09:34:20.55	81.06	46.90	
2025-01-17 09:34:20.76	80.95	46.93	
2025-01-17 09:34:20.96	80.84	46.95	
2025-01-17 09:34:21.16	80.73	46.97	
2025-01-17 09:34:21.36	80.62	46.99	
2025-01-17 09:34:21.57	80.51	47.02	
2025-01-17 09:34:21.77	80.40	47.04	
2025-01-17 09:34:21.97	80.29	47.06	
2025-01-17 09:34:22.18	80.17	47.09	
2025-01-17 09:34:22.38	80.07	47.11	
2025-01-17 09:34:22.58	79.96	47.13	
2025-01-17 09:34:22.78	79.85	47.15	
2025-01-17 09:34:22.99	79.73	47.17	
2025-01-17 09:34:23.19	79.62	47.19	
2025-01-17 09:34:23.39	79.51	47.22	
2025-01-17 09:34:23.60	79.40	47.24	
2025-01-17 09:34:23.80	79.29	47.26	
2025-01-17 09:34:24.00	79.18	47.28	
2025-01-17 09:34:24.21	79.06	47.30	
2025-01-17 09:34:24.41	78.95	47.32	
2025-01-17 09:34:24.61	78.84	47.34	
2025-01-17 09:34:24.81	78.73	47.36	
2025-01-17 09:34:25.02	78.61	47.39	
2025-01-17 09:34:25.22	78.50	47.41	
2025-01-17 09:34:25.42	78.39	47.43	
2025-01-17 09:34:25.63	78.27	47.45	
2025-01-17 09:34:25.83	78.16	47.47	
2025-01-17 09:34:26.03	78.05	47.49	
2025-01-17 09:34:26.24	77.93	47.51	
2025-01-17 09:34:26.44	77.82	47.53	
2025-01-17 09:34:26.64	77.70	47.55	
2025-01-17 09:34:26.84	77.59	47.57	
2025-01-17 09:34:27.05	77.47	47.59	
2025-01-17 09:34:27.25	77.36	47.61	
2025-01-17 09:34:27.45	77.25	47.63	
2025-01-17 09:34:27.66	77.13	47.65	
2025-01-17 09:34:27.86	77.02	47.66	
2025-01-17 09:34:28.06	76.90	47.68	
2025-01-17 09:34:28.26	76.79	47.70	
2025-01-17 09:34:28.47	76.67	47.72	
2025-01-17 09:34:28.67	76.56	47.74	
2025-01-17 09:34:28.87	76.44	47.76	
2025-01-17 09:34:29.08	76.32	47.78	
2025-01-17 09:34:29.28	76.21	47.79	
2025-01-17 09:34:29.48	76.10	47.81	
2025-01-17 09:34:29.69	75.98	47.83	
2025-01-17 09:34:29.89	75.86	47.85	
2025-01-17 09:34:30.09	75.75	47.87	
2025-01-17 09:34:30.29	75.63	47.88	
2025-01-17 09:34:30.50	75.51	47.90	
2025-01-17 09:34:30.70	75.40	47.92	
2025-01-17 09:34:30.90	75.28	47.94	
2025-01-17 09:34:31.11	75.16	47.95	
2025-01-17 09:34:31.31	75.04	47.97	
2025-01-17 09:34:31.51	74.93	47.99	
2025-01-17 09:34:31.72	74.81	48.01	
2025-01-17 09:34:31.92	74.69	48.02	
2025-01-17 09:34:32.12	74.58	48.04	
2025-01-17 09:34:32.32	74.46	48.05	
2025-01-17 09:34:32.53	74.34	48.07	
2025-01-17 09:34:32.73	74.22	48.09	
2025-01-17 09:34:32.93	74.10	48.10	
2025-01-17 09:34:33.14	73.98	48.12	
2025-01-17 09:34:33.34	73.87	48.14	
2025-01-17 09:34:33.54	73.75	48.15	
2025-01-17 09:34:33.75	73.63	48.17	
2025-01-17 09:34:33.95	73.51	48.18	
2025-01-17 09:34:34.15	73.39	48.20	
2025-01-17 09:34:34.35	73.27	48.21	
2025-01-17 09:34:34.56	73.15	48.23	
2025-01-17 09:34:34.76	73.03	48.24	
2025-01-17 09:34:34.96	72.92	48.26	
2025-01-17 09:34:35.17	72.79	48.27	
2025-01-17 09:34:35.37	72.68	48.29	
2025-01-17 09:34:35.57	72.56	48.30	
2025-01-17 09:34:35.77	72.44	48.32	
2025-01-17 09:34:35.98	72.32	48.33	
2025-01-17 09:34:36.18	72.20	48.34	
2025-01-17 09:34:36.38	72.08	48.36	
2025-01-17 09:34:36.59	71.95	48.37	
2025-01-17 09:34:36.79	71.84	48.39	
2025-01-17 09:34:36.99	71.72	48.40	
2025-01-17 09:34:37.20	71.59	48.41	
2025-01-17 09:34:37.40	71.47	48.43	
2025-01-17 09:34:37.60	71.35	48.44	
2025-01-17 09:34:37.80	71.24	48.45	
2025-01-17 09:34:38.01	71.11	48.46	
2025-01-17 09:34:38.21	70.99	48.48	
2025-01-17 09:34:38.41	70.87	48.49	
2025-01-17 09:34:38.62	70.75	48.50	
2025-01-17 09:34:38.82	70.63	48.51	
2025-01-17 09:34:39.02	70.51	48.53	
2025-01-17 09:34:39.23	70.38	48.54	
2025-01-17 09:34:39.43	70.26	48.55	
2025-01-17 09:34:39.63	70.14	48.56	
2025-01-17 09:34:39.83	70.02	48.57	
2025-01-17 09:34:40.04	69.90	48.59	
2025-01-17 09:34:40.24	69.78	48.60	
2025-01-17 09:34:40.44	69.66	48.61	
2025-01-17 09:34:40.65	69.53	48.62	
2025-01-17 09:34:40.85	69.41	48.63	
2025-01-17 09:34:41.05	69.29	48.64	
2025-01-17 09:34:41.26	69.16	48.65	
2025-01-17 09:34:41.46	69.04	48.66	
2025-01-17 09:34:41.66	68.92	48.67	
2025-01-17 09:34:41.86	68.80	48.68	
2025-01-17 09:34:42.07	68.67	48.69	
2025-01-17 09:34:42.27	68.55	48.70	
2025-01-17 09:34:42.47	68.43	48.71	
2025-01-17 09:34:42.68	68.30	48.72	
2025-01-17 09:34:42.88	68.18	48.73	
2025-01-17 09:34:43.08	68.06	48.74	
2025-01-17 09:34:43.28	67.94	48.75	
2025-01-17 09:34:43.49	67.81	48.76	
2025-01-17 09:34:43.69	67.69	48.77	
2025-01-17 09:34:43.89	67.57	48.78	
2025-01-17 09:34:44.10	67.44	48.79	
2025-01-17 09:34:44.30	67.32	48.79	
2025-01-17 09:34:44.50	67.20	48.80	
2025-01-17 09:34:44.71	67.07	48.81	
2025-01-17 09:34:44.91	66.95	48.82	
2025-01-17 09:34:45.11	66.82	48.83	
2025-01-17 09:34:45.31	66.70	48.84	
2025-01-17 09:34:45.52	66.57	48.84	
2025-01-17 09:34:45.72	66.45	48.85	
2025-01-17 09:34:45.92	66.33	48.86	
2025-01-17 09:34:46.13	66.20	48.87	
2025-01-17 09:34:46.33	66.08	48.87	
2025-01-17 09:34:46.53	65.96	48.88	
2025-01-17 09:34:46.74	65.83	48.89	
2025-01-17 09:34:46.94	65.71	48.89	
2025-01-17 09:34:47.14	65.58	48.90	
2025-01-17 09:34:47.34	65.46	48.91	
2025-01-17 09:34:47.55	65.33	48.91	
2025-01-17 09:34:47.75	65.21	48.92	
2025-01-17 09:34:47.95	65.09	48.92	
2025-01-17 09:34:48.16	64.96	48.93	
2025-01-17 09:34:48.36	64.83	48.94	
2025-01-17 09:34:48.56	64.71	48.94	
2025-01-17 09:34:48.77	64.58	48.95	
2025-01-17 09:34:48.97	64.46	48.95	
2025-01-17 09:34:49.17	64.34	48.96	
2025-01-17 09:34:49.37	64.21	48.96	
2025-01-17 09:34:49.58	64.08	48.97	
2025-01-17 09:34:49.78	63.96	48.97	
2025-01-17 09:34:49.98	63.84	48.98	
2025-01-17 09:34:50.19	63.71	48.98	
2025-01-17 09:34:50.39	63.58	48.98	
2025-01-17 09:34:50.59	63.46	48.99	
2025-01-17 09:34:50.79	63.34	48.99	
2025-01-17 09:34:51.00	63.21	49.00	
2025-01-17 09:34:51.20	63.09	49.00	
2025-01-17 09:34:51.40	62.96	49.00	
2025-01-17 09:34:51.61	62.83	49.01	
2025-01-17 09:34:51.81	62.71	49.01	
2025-01-17 09:34:52.01	62.59	49.01	
2025-01-17 09:34:52.22	62.46	49.02	
2025-01-17 09:34:52.42	62.33	49.02	
2025-01-17 09:34:52.62	62.21	49.02	
2025-01-17 09:34:52.82	62.08	49.02	
2025-01-17 09:34:53.03	61.96	49.03	
2025-01-17 09:34:53.23	61.83	49.03	
2025-01-17 09:34:53.43	61.71	49.03	
2025-01-17 09:34:53.64	61.58	49.03	
2025-01-17 09:34:53.84	61.45	49.03	
2025-01-17 09:34:54.04	61.33	49.04	
2025-01-17 09:34:54.25	61.20	49.04	
2025-01-17 09:34:54.45	61.08	49.04	
2025-01-17 09:34:54.65	60.95	49.04	
2025-01-17 09:34:54.85	60.83	49.04	
2025-01-17 09:34:55.06	60.70	49.04	
2025-01-17 09:34:55.26	60.58	49.04	
2025-01-17 09:34:55.46	60.45	49.04	
2025-01-17 09:34:55.67	60.32	49.04	
2025-01-17 09:34:55.87	60.20	49.04	
2025-01-17 09:34:56.07	60.07	49.04	
2025-01-17 09:34:56.28	59.95	49.04	
2025-01-17 09:34:56.48	59.82	49.04	
2025-01-17 09:34:56.68	59.70	49.04	
2025-01-17 09:34:56.88	59.57	49.04	
2025-01-17 09:34:57.09	59.44	49.04	
2025-01-17 09:34:57.29	59.32	49.04	
2025-01-17 09:34:57.49	59.20	49.04	
2025-01-17 09:34:57.70	59.07	49.04	
2025-01-17 09:34:57.90	58.94	49.04	
2025-01-17 09:34:58.10	58.82	49.04	
2025-01-17 09:34:58.30	58.70	49.03	
2025-01-17 09:34:58.51	58.57	49.03	
2025-01-17 09:34:58.71	58.44	49.03	
2025-01-17 09:34:58.91	58.32	49.03	
2025-01-17 09:34:59.12	58.19	49.03	
2025-01-17 09:34:59.32	58.07	49.02	
2025-01-17 09:34:59.52	57.94	49.02	
2025-01-17 09:34:59.73	57.81	49.02	
2025-01-17 09:34:59.93	57.69	49.02	
2025-01-17 09:35:00.13	57.56	49.01	
2025-01-17 09:35:00.33	57.44	49.01	
2025-01-17 09:35:00.54	57.31	49.01	
2025-01-17 09:35:00.74	57.19	49.00	
2025-01-17 09:35:00.94	57.07	49.00	
2025-01-17 09:35:01.15	56.94	49.00	
2025-01-17 09:35:01.35	56.81	48.99	
2025-01-17 09:35:01.55	56.69	48.99	
2025-01-17 09:35:01.76	56.56	48.98	
2025-01-17 09:35:01.96	56.44	48.98	
2025-01-17 09:35:02.16	56.31	48.98	
2025-01-17 09:35:02.36	56.19	48.97	
2025-01-17 09:35:02.57	56.06	48.97	
2025-01-17 09:35:02.77	55.94	48.96	
2025-01-17 09:35:02.97	55.81	48.96	
2025-01-17 09:35:03.18	55.69	48.95	
2025-01-17 09:35:03.38	55.56	48.95	
2025-01-17 09:35:03.58	55.44	48.94	
2025-01-17 09:35:03.79	55.31	48.94	
2025-01-17 09:35:03.99	55.19	48.93	
2025-01-17 09:35:04.19	55.06	48.92	
2025-01-17 09:35:04.39	54.94	48.92	
2025-01-17 09:35:04.60	54.81	48.91	
2025-01-17 09:35:04.80	54.69	48.91	
2025-01-17 09:35:05.00	54.57	48.90	
2025-01-17 09:35:05.21	54.44	48.89	
2025-01-17 09:35:05.41	54.32	48.89	
2025-01-17 09:35:05.61	54.19	48.88	
2025-01-17 09:35:05.81	54.07	48.87	
2025-01-17 09:35:06.02	53.94	48.87	
2025-01-17 09:35:06.22	53.82	48.86	
2025-01-17 09:35:06.42	53.70	48.85	
2025-01-17 09:35:06.63	53.57	48.84	
2025-01-17 09:35:06.83	53.45	48.84	
2025-01-17 09:35:07.03	53.33	48.83	
2025-01-17 09:35:07.24	53.20	48.82	
2025-01-17 09:35:07.44	53.08	48.81	
2025-01-17 09:35:07.64	52.96	48.80	
2025-01-17 09:35:07.84	52.83	48.80	
2025-01-17 09:35:08.05	52.71	48.79	
2025-01-17 09:35:08.25	52.58	48.78	
2025-01-17 09:35:08.45	52.46	48.77	
2025-01-17 09:35:08.66	52.34	48.76	
2025-01-17 09:35:08.86	52.21	48.75	
2025-01-17 09:35:09.06	52.09	48.74	
2025-01-17 09:35:09.27	51.97	48.73	
2025-01-17 09:35:09.47	51.84	48.72	
2025-01-17 09:35:09.67	51.72	48.71	
2025-01-17 09:35:09.87	51.60	48.70	
2025-01-17 09:35:10.08	51.47	48.69	
2025-01-17 09:35:10.28	51.35	48.68	
2025-01-17 09:35:10.48	51.23	48.67	
2025-01-17 09:35:10.69	51.11	48.66	
2025-01-17 09:35:10.89	50.99	48.65	
2025-01-17 09:35:11.09	50.87	48.64	
2025-01-17 09:35:11.30	50.74	48.63	
2025-01-17 09:35:11.50	50.62	48.62	
2025-01-17 09:35:11.70	50.50	48.61	
2025-01-17 09:35:11.90	50.38	48.60	
2025-01-17 09:35:12.11	50.25	48.59	
2025-01-17 09:35:12.31	50.13	48.58	
2025-01-17 09:35:12.51	50.01	48.56	
2025-01-17 09:35:12.72	49.89	48.55	
2025-01-17 09:35:12.92	49.77	48.54	
2025-01-17 09:35:13.12	49.65	48.53	
2025-01-17 09:35:13.32	49.53	48.52	
2025-01-17 09:35:13.53	49.40	48.50	
2025-01-17 09:35:13.73	49.28	48.49	
2025-01-17 09:35:13.93	49.16	48.48	
2025-01-17 09:35:14.14	49.04	48.47	
2025-01-17 09:35:14.34	48.92	48.45	
2025-01-17 09:35:14.54	48.80	48.44	
2025-01-17 09:35:14.75	48.68	48.43	
2025-01-17 09:35:14.95	48.56	48.41	
2025-01-17 09:35:15.15	48.44	48.40	
2025-01-17 09:35:15.35	48.32	48.39	
2025-01-17 09:35:15.56	48.20	48.37	
2025-01-17 09:35:15.76	48.08	48.36	
2025-01-17 09:35:15.96	47.96	48.35	
2025-01-17 09:35:16.17	47.83	48.33	
2025-01-17 09:35:16.37	47.72	48.32	
2025-01-17 09:35:16.57	47.60	48.30	
2025-01-17 09:35:16.78	47.47	48.29	
2025-01-17 09:35:16.98	47.36	48.27	
2025-01-17 09:35:17.18	47.24	48.26	
2025-01-17 09:35:17.38	47.12	48.25	
2025-01-17 09:35:17.59	47.00	48.23	
2025-01-17 09:35:17.79	46.88	48.22	
2025-01-17 09:35:17.99	46.76	48.20	
2025-01-17 09:35:18.20	46.64	48.18	
2025-01-17 09:35:18.40	46.52	48.17	
2025-01-17 09:35:18.60	46.41	48.15	
2025-01-17 09:35:18.81	46.29	48.14	
2025-01-17 09:35:19.01	46.17	48.12	
2025-01-17 09:35:19.21	46.05	48.11	
2025-01-17 09:35:19.41	45.94	48.09	
2025-01-17 09:35:19.62	45.81	48.07	
2025-01-17 09:35:19.82	45.70	48.06	
2025-01-17 09:35:20.02	45.58	48.04	
2025-01-17 09:35:20.23	45.46	48.02	
2025-01-17 09:35:20.43	45.35	48.01	
2025-01-17 09:35:20.63	45.23	47.99	
2025-01-17 09:35:20.83	45.11	47.97	
2025-01-17 09:35:21.04	44.99	47.96	
2025-01-17 09:35:21.24	44.88	47.94	
2025-01-17 09:35:21.44	44.76	47.92	
2025-01-17 09:35:21.65	44.64	47.91	
2025-01-17 09:35:21.85	44.53	47.89	
2025-01-17 09:35:22.05	44.41	47.87	
2025-01-17 09:35:22.26	44.29	47.85	
2025-01-17 09:35:22.46	44.18	47.83	
2025-01-17 09:35:22.66	44.06	47.82	
2025-01-17 09:35:22.86	43.95	47.80	
2025-01-17 09:35:23.07	43.83	47.78	
2025-01-17 09:35:23.27	43.72	47.76	
2025-01-17 09:35:23.47	43.60	47.74	
2025-01-17 09:35:23.68	43.48	47.72	
2025-01-17 09:35:23.88	43.37	47.71	
2025-01-17 09:35:24.08	43.26	47.69	
2025-01-17 09:35:24.29	43.14	47.67	
2025-01-17 09:35:24.49	43.03	47.65	
2025-01-17 09:35:24.69	42.91	47.63	
2025-01-17 09:35:24.89	42.80	47.61	
2025-01-17 09:35:25.10	42.68	47.59	
2025-01-17 09:35:25.30	42.57	47.57	
2025-01-17 09:35:25.50	42.46	47.55	
2025-01-17 09:35:25.71	42.34	47.53	
2025-01-17 09:35:25.91	42.23	47.51	
2025-01-17 09:35:26.11	42.12	47.49	
2025-01-17 09:35:26.31	42.00	47.47	
2025-01-17 09:35:26.52	41.89	47.45	
2025-01-17 09:35:26.72	41.78	47.43	
2025-01-17 09:35:26.92	41.66	47.41	
2025-01-17 09:35:27.13	41.55	47.39	
2025-01-17 09:35:27.33	41.44	47.37	
2025-01-17 09:35:27.53	41.33	47.35	
2025-01-17 09:35:27.74	41.21	47.33	
2025-01-17 09:35:27.94	41.10	47.31	
2025-01-17 09:35:28.14	40.99	47.29	
2025-01-17 09:35:28.34	40.88	47.26	
2025-01-17 09:35:28.55	40.76	47.24	
2025-01-17 09:35:28.75	40.65	47.22	
2025-01-17 09:35:28.95	40.54	47.20	
2025-01-17 09:35:29.16	40.43	47.18	
2025-01-17 09:35:29.36	40.32	47.16	
2025-01-17 09:35:29.56	40.21	47.13	
2025-01-17 09:35:29.77	40.09	47.11	
2025-01-17 09:35:29.97	39.99	47.09	
2025-01-17 09:35:30.17	39.88	47.07	
2025-01-17 09:35:30.37	39.77	47.05	
2025-01-17 09:35:30.58	39.65	47.02	
2025-01-17 09:35:30.78	39.55	47.00	
2025-01-17 09:35:30.98	39.44	46.98	
2025-01-17 09:35:31.19	39.32	46.95	
2025-01-17 09:35:31.39	39.22	46.93	
2025-01-17 09:35:31.59	39.11	46.91	
2025-01-17 09:35:31.80	39.00	46.89	
2025-01-17 09:35:32.00	38.89	46.86	
2025-01-17 09:35:32.20	38.78	46.84	
2025-01-17 09:35:32.40	38.67	46.82	
2025-01-17 09:35:32.61	38.56	46.79	
2025-01-17 09:35:32.81	38.45	46.77	
2025-01-17 09:35:33.01	38.35	46.75	
2025-01-17 09:35:33.22	38.24	46.72	
2025-01-17 09:35:33.42	38.13	46.70	
2025-01-17 09:35:33.62	38.02	46.67	
2025-01-17 09:35:33.82	37.92	46.65	
2025-01-17 09:35:34.03	37.81	46.63	
2025-01-17 09:35:34.23	37.70	46.60	
2025-01-17 09:35:34.43	37.60	46.58	
2025-01-17 09:35:34.64	37.49	46.55	
2025-01-17 09:35:34.84	37.38	46.53	
2025-01-17 09:35:35.04	37.27	46.50	
2025-01-17 09:35:35.25	37.16	46.48	
2025-01-17 09:35:35.45	37.06	46.45	
2025-01-17 09:35:35.65	36.96	46.43	
2025-01-17 09:35:35.85	36.85	46.41	
2025-01-17 09:35:36.06	36.74	46.38	
