passes_logs/2025/01/17/SPB_Silybum_02/SPB_Silybum_02__20250117_213722_SUOMI_NPP_rec.log

#Pass ID: 20250117_213722_SUOMI NPP
#Satellite: SUOMI NPP
#Configuration: NPP
#Start time: 2025-01-17 21:37:23

#Version: 2.0.20230423
#Station: SPB_Silybum_02
#Location: 30.233357 lon 59.946436 lat
#TLE: 1 37849U 11061A   25017.17539025  .00000183  00000+0  10766-3 0  9991
#TLE: 2 37849  98.7449 318.1364 0001599  37.8052 322.3236 14.19539290685226

#Time	Az	El	Level	Level2	SNR	BER	Gain	Gain2
2025-01-17 21:37:25.58	38.64	4.11	
2025-01-17 21:37:25.78	38.66	4.11	
2025-01-17 21:37:25.98	38.69	4.12	
2025-01-17 21:37:26.19	38.71	4.13	
2025-01-17 21:37:26.39	38.74	4.14	
2025-01-17 21:37:26.59	38.77	4.14	
2025-01-17 21:37:26.79	38.79	4.15	
2025-01-17 21:37:27.00	38.82	4.16	
2025-01-17 21:37:27.20	38.84	4.16	
2025-01-17 21:37:27.40	38.87	4.17	
2025-01-17 21:37:27.61	38.89	4.18	
2025-01-17 21:37:27.81	38.92	4.19	
2025-01-17 21:37:28.01	38.94	4.19	
2025-01-17 21:37:28.21	38.97	4.20	
2025-01-17 21:37:28.42	39.00	4.21	
2025-01-17 21:37:28.62	39.02	4.21	
2025-01-17 21:37:28.82	39.05	4.22	
2025-01-17 21:37:29.03	39.07	4.23	
2025-01-17 21:37:29.23	39.10	4.23	
2025-01-17 21:37:29.43	39.12	4.24	
2025-01-17 21:37:29.64	39.15	4.25	
2025-01-17 21:37:29.84	39.18	4.26	
2025-01-17 21:37:30.04	39.20	4.26	
2025-01-17 21:37:30.24	39.23	4.27	
2025-01-17 21:37:30.45	39.25	4.28	
2025-01-17 21:37:30.65	39.28	4.28	
2025-01-17 21:37:30.85	39.30	4.29	
2025-01-17 21:37:31.06	39.33	4.30	
2025-01-17 21:37:31.26	39.36	4.31	
2025-01-17 21:37:31.46	39.38	4.31	
2025-01-17 21:37:31.67	39.41	4.32	
2025-01-17 21:37:31.87	39.43	4.33	
2025-01-17 21:37:32.07	39.46	4.33	
2025-01-17 21:37:32.27	39.48	4.34	
2025-01-17 21:37:32.48	39.51	4.35	
2025-01-17 21:37:32.68	39.54	4.36	
2025-01-17 21:37:32.88	39.56	4.36	
2025-01-17 21:37:33.09	39.59	4.37	
2025-01-17 21:37:33.29	39.61	4.38	
2025-01-17 21:37:33.49	39.64	4.38	
2025-01-17 21:37:33.70	39.67	4.39	
2025-01-17 21:37:33.90	39.69	4.40	
2025-01-17 21:37:34.10	39.72	4.40	
2025-01-17 21:37:34.30	39.74	4.41	
2025-01-17 21:37:34.51	39.77	4.42	
2025-01-17 21:37:34.71	39.80	4.43	
2025-01-17 21:37:34.91	39.82	4.43	
2025-01-17 21:37:35.12	39.85	4.44	
2025-01-17 21:37:35.32	39.87	4.45	
2025-01-17 21:37:35.52	39.90	4.45	
2025-01-17 21:37:35.73	39.93	4.46	
2025-01-17 21:37:35.93	39.95	4.47	
2025-01-17 21:37:36.13	39.98	4.47	
2025-01-17 21:37:36.33	40.00	4.48	
2025-01-17 21:37:36.54	40.03	4.49	
2025-01-17 21:37:36.74	40.06	4.50	
2025-01-17 21:37:36.94	40.08	4.50	
2025-01-17 21:37:37.15	40.11	4.51	
2025-01-17 21:37:37.35	40.14	4.52	
2025-01-17 21:37:37.55	40.16	4.52	
2025-01-17 21:37:37.75	40.19	4.53	
2025-01-17 21:37:37.96	40.21	4.54	
2025-01-17 21:37:38.16	40.24	4.54	
2025-01-17 21:37:38.36	40.27	4.55	
2025-01-17 21:37:38.57	40.29	4.56	
2025-01-17 21:37:38.77	40.32	4.57	
2025-01-17 21:37:38.97	40.34	4.57	
2025-01-17 21:37:39.18	40.37	4.58	
2025-01-17 21:37:39.38	40.40	4.59	
2025-01-17 21:37:39.58	40.42	4.59	
2025-01-17 21:37:39.78	40.45	4.60	
2025-01-17 21:37:39.99	40.48	4.61	
2025-01-17 21:37:40.19	40.50	4.61	
2025-01-17 21:37:40.39	40.53	4.62	
2025-01-17 21:37:40.60	40.56	4.63	
2025-01-17 21:37:40.80	40.58	4.64	
2025-01-17 21:37:41.00	40.61	4.64	
2025-01-17 21:37:41.21	40.64	4.65	
2025-01-17 21:37:41.41	40.66	4.66	
2025-01-17 21:37:41.61	40.69	4.66	
2025-01-17 21:37:41.81	40.71	4.67	
2025-01-17 21:37:42.02	40.74	4.68	
2025-01-17 21:37:42.22	40.77	4.68	
2025-01-17 21:37:42.42	40.79	4.69	
2025-01-17 21:37:42.63	40.82	4.70	
2025-01-17 21:37:42.83	40.85	4.70	
2025-01-17 21:37:43.03	40.87	4.71	
2025-01-17 21:37:43.24	40.90	4.72	
2025-01-17 21:37:43.44	40.93	4.73	
2025-01-17 21:37:43.64	40.95	4.73	
2025-01-17 21:37:43.84	40.98	4.74	
2025-01-17 21:37:44.05	41.01	4.75	
2025-01-17 21:37:44.25	41.03	4.75	
2025-01-17 21:37:44.45	41.06	4.76	
2025-01-17 21:37:44.66	41.09	4.77	
2025-01-17 21:37:44.86	41.11	4.77	
2025-01-17 21:37:45.06	41.14	4.78	
2025-01-17 21:37:45.27	41.17	4.79	
2025-01-17 21:37:45.47	41.19	4.79	
2025-01-17 21:37:45.67	41.22	4.80	
2025-01-17 21:37:45.87	41.24	4.81	
2025-01-17 21:37:46.08	41.27	4.81	
2025-01-17 21:37:46.28	41.30	4.82	
2025-01-17 21:37:46.48	41.32	4.83	
2025-01-17 21:37:46.69	41.35	4.84	
2025-01-17 21:37:46.89	41.38	4.84	
2025-01-17 21:37:47.09	41.41	4.85	
2025-01-17 21:37:47.29	41.43	4.86	
2025-01-17 21:37:47.50	41.46	4.86	
2025-01-17 21:37:47.70	41.49	4.87	
2025-01-17 21:37:47.90	41.51	4.88	
2025-01-17 21:37:48.11	41.54	4.88	
2025-01-17 21:37:48.31	41.57	4.89	
2025-01-17 21:37:48.51	41.59	4.90	
2025-01-17 21:37:48.72	41.62	4.90	
2025-01-17 21:37:48.92	41.65	4.91	
2025-01-17 21:37:49.12	41.67	4.92	
2025-01-17 21:37:49.32	41.70	4.92	
2025-01-17 21:37:49.53	41.73	4.93	
2025-01-17 21:37:49.73	41.75	4.94	
2025-01-17 21:37:49.93	41.78	4.94	
2025-01-17 21:37:50.14	41.81	4.95	
2025-01-17 21:37:50.34	41.84	4.96	
2025-01-17 21:37:50.54	41.86	4.96	
2025-01-17 21:37:50.75	41.89	4.97	
2025-01-17 21:37:50.95	41.92	4.98	
2025-01-17 21:37:51.15	41.94	4.99	
2025-01-17 21:37:51.35	41.97	4.99	
2025-01-17 21:37:51.56	42.00	5.00	
2025-01-17 21:37:51.76	42.02	5.01	
2025-01-17 21:37:51.96	42.05	5.01	
2025-01-17 21:37:52.17	42.08	5.02	
2025-01-17 21:37:52.37	42.11	5.03	
2025-01-17 21:37:52.57	42.13	5.03	
2025-01-17 21:37:52.78	42.16	5.04	
2025-01-17 21:37:52.98	42.19	5.05	
2025-01-17 21:37:53.18	42.21	5.05	
2025-01-17 21:37:53.38	42.24	5.06	
2025-01-17 21:37:53.59	42.27	5.07	
2025-01-17 21:37:53.79	42.29	5.07	
2025-01-17 21:37:53.99	42.32	5.08	
2025-01-17 21:37:54.20	42.35	5.09	
2025-01-17 21:37:54.40	42.38	5.09	
2025-01-17 21:37:54.60	42.40	5.10	
2025-01-17 21:37:54.81	42.43	5.11	
2025-01-17 21:37:55.01	42.46	5.11	
2025-01-17 21:37:55.21	42.48	5.12	
2025-01-17 21:37:55.41	42.51	5.13	
2025-01-17 21:37:55.62	42.54	5.13	
2025-01-17 21:37:55.82	42.57	5.14	
2025-01-17 21:37:56.02	42.59	5.15	
2025-01-17 21:37:56.23	42.62	5.15	
2025-01-17 21:37:56.43	42.65	5.16	
2025-01-17 21:37:56.63	42.68	5.17	
2025-01-17 21:37:56.83	42.70	5.17	
2025-01-17 21:37:57.04	42.73	5.18	
2025-01-17 21:37:57.24	42.76	5.19	
2025-01-17 21:37:57.44	42.78	5.19	
2025-01-17 21:37:57.65	42.81	5.20	
2025-01-17 21:37:57.85	42.84	5.21	
2025-01-17 21:37:58.05	42.87	5.21	
2025-01-17 21:37:58.26	42.90	5.22	
2025-01-17 21:37:58.46	42.92	5.23	
2025-01-17 21:37:58.66	42.95	5.23	
2025-01-17 21:37:58.86	42.98	5.24	
2025-01-17 21:37:59.07	43.01	5.25	
2025-01-17 21:37:59.27	43.03	5.25	
2025-01-17 21:37:59.47	43.06	5.26	
2025-01-17 21:37:59.68	43.09	5.27	
2025-01-17 21:37:59.88	43.11	5.27	
2025-01-17 21:38:00.08	43.14	5.28	
2025-01-17 21:38:00.29	43.17	5.29	
2025-01-17 21:38:00.49	43.20	5.29	
2025-01-17 21:38:00.69	43.22	5.30	
2025-01-17 21:38:00.89	43.25	5.31	
2025-01-17 21:38:01.10	43.28	5.31	
2025-01-17 21:38:01.30	43.31	5.32	
2025-01-17 21:38:01.50	43.33	5.33	
2025-01-17 21:38:01.71	43.36	5.33	
2025-01-17 21:38:01.91	43.39	5.34	
2025-01-17 21:38:02.11	43.42	5.35	
2025-01-17 21:38:02.32	43.45	5.35	
2025-01-17 21:38:02.52	43.47	5.36	
2025-01-17 21:38:02.72	43.50	5.37	
2025-01-17 21:38:02.92	43.53	5.37	
2025-01-17 21:38:03.13	43.56	5.38	
2025-01-17 21:38:03.33	43.58	5.39	
2025-01-17 21:38:03.53	43.61	5.39	
2025-01-17 21:38:03.74	43.64	5.40	
2025-01-17 21:38:03.94	43.67	5.40	
2025-01-17 21:38:04.14	43.69	5.41	
2025-01-17 21:38:04.35	43.72	5.42	
2025-01-17 21:38:04.55	43.75	5.42	
2025-01-17 21:38:04.75	43.78	5.43	
2025-01-17 21:38:04.95	43.81	5.44	
2025-01-17 21:38:05.16	43.83	5.44	
2025-01-17 21:38:05.36	43.86	5.45	
2025-01-17 21:38:05.56	43.89	5.46	
2025-01-17 21:38:05.77	43.92	5.46	
2025-01-17 21:38:05.97	43.95	5.47	
2025-01-17 21:38:06.17	43.97	5.48	
2025-01-17 21:38:06.38	44.00	5.48	
2025-01-17 21:38:06.58	44.03	5.49	
2025-01-17 21:38:06.78	44.06	5.50	
2025-01-17 21:38:06.98	44.08	5.50	
2025-01-17 21:38:07.19	44.11	5.51	
2025-01-17 21:38:07.39	44.14	5.52	
2025-01-17 21:38:07.59	44.17	5.52	
2025-01-17 21:38:07.80	44.20	5.53	
2025-01-17 21:38:08.00	44.22	5.53	
2025-01-17 21:38:08.20	44.25	5.54	
2025-01-17 21:38:08.40	44.28	5.55	
2025-01-17 21:38:08.61	44.31	5.55	
2025-01-17 21:38:08.81	44.34	5.56	
2025-01-17 21:38:09.01	44.36	5.57	
2025-01-17 21:38:09.22	44.39	5.57	
2025-01-17 21:38:09.42	44.42	5.58	
2025-01-17 21:38:09.62	44.45	5.59	
2025-01-17 21:38:09.83	44.48	5.59	
2025-01-17 21:38:10.03	44.51	5.60	
2025-01-17 21:38:10.23	44.53	5.61	
2025-01-17 21:38:10.43	44.56	5.61	
2025-01-17 21:38:10.64	44.59	5.62	
2025-01-17 21:38:10.84	44.62	5.62	
2025-01-17 21:38:11.04	44.65	5.63	
2025-01-17 21:38:11.25	44.67	5.64	
2025-01-17 21:38:11.45	44.70	5.64	
2025-01-17 21:38:11.65	44.73	5.65	
2025-01-17 21:38:11.86	44.76	5.66	
2025-01-17 21:38:12.06	44.79	5.66	
2025-01-17 21:38:12.26	44.81	5.67	
2025-01-17 21:38:12.46	44.84	5.68	
2025-01-17 21:38:12.67	44.87	5.68	
2025-01-17 21:38:12.87	44.90	5.69	
2025-01-17 21:38:13.07	44.93	5.70	
2025-01-17 21:38:13.28	44.96	5.70	
2025-01-17 21:38:13.48	44.98	5.71	
2025-01-17 21:38:13.68	45.01	5.71	
2025-01-17 21:38:13.89	45.04	5.72	
2025-01-17 21:38:14.09	45.07	5.73	
2025-01-17 21:38:14.29	45.10	5.73	
2025-01-17 21:38:14.49	45.13	5.74	
2025-01-17 21:38:14.70	45.16	5.75	
2025-01-17 21:38:14.90	45.18	5.75	
2025-01-17 21:38:15.10	45.21	5.76	
2025-01-17 21:38:15.31	45.24	5.77	
2025-01-17 21:38:15.51	45.27	5.77	
2025-01-17 21:38:15.71	45.30	5.78	
2025-01-17 21:38:15.91	45.32	5.78	
2025-01-17 21:38:16.12	45.35	5.79	
2025-01-17 21:38:16.32	45.38	5.80	
2025-01-17 21:38:16.52	45.41	5.80	
2025-01-17 21:38:16.73	45.44	5.81	
2025-01-17 21:38:16.93	45.47	5.82	
2025-01-17 21:38:17.13	45.50	5.82	
2025-01-17 21:38:17.34	45.53	5.83	
2025-01-17 21:38:17.54	45.55	5.83	
2025-01-17 21:38:17.74	45.58	5.84	
2025-01-17 21:38:17.94	45.61	5.85	
2025-01-17 21:38:18.15	45.64	5.85	
2025-01-17 21:38:18.35	45.67	5.86	
2025-01-17 21:38:18.55	45.70	5.87	
2025-01-17 21:38:18.76	45.73	5.87	
2025-01-17 21:38:18.96	45.75	5.88	
2025-01-17 21:38:19.16	45.78	5.88	
2025-01-17 21:38:19.37	45.81	5.89	
2025-01-17 21:38:19.57	45.84	5.90	
2025-01-17 21:38:19.77	45.87	5.90	
2025-01-17 21:38:19.97	45.90	5.91	
2025-01-17 21:38:20.18	45.93	5.92	
2025-01-17 21:38:20.38	45.95	5.92	
2025-01-17 21:38:20.58	45.98	5.93	
2025-01-17 21:38:20.79	46.01	5.93	
2025-01-17 21:38:20.99	46.04	5.94	
2025-01-17 21:38:21.19	46.07	5.95	
2025-01-17 21:38:21.40	46.10	5.95	
2025-01-17 21:38:21.60	46.13	5.96	
2025-01-17 21:38:21.80	46.16	5.96	
2025-01-17 21:38:22.00	46.18	5.97	
2025-01-17 21:38:22.21	46.21	5.98	
2025-01-17 21:38:22.41	46.24	5.98	
2025-01-17 21:38:22.61	46.27	5.99	
2025-01-17 21:38:22.82	46.30	6.00	
2025-01-17 21:38:23.02	46.33	6.00	
2025-01-17 21:38:23.22	46.36	6.01	
2025-01-17 21:38:23.43	46.39	6.01	
2025-01-17 21:38:23.63	46.42	6.02	
2025-01-17 21:38:23.83	46.44	6.03	
2025-01-17 21:38:24.03	46.47	6.03	
2025-01-17 21:38:24.24	46.50	6.04	
2025-01-17 21:38:24.44	46.53	6.04	
2025-01-17 21:38:24.64	46.56	6.05	
2025-01-17 21:38:24.85	46.59	6.06	
2025-01-17 21:38:25.05	46.62	6.06	
2025-01-17 21:38:25.25	46.65	6.07	
2025-01-17 21:38:25.46	46.68	6.08	
2025-01-17 21:38:25.66	46.71	6.08	
2025-01-17 21:38:25.86	46.73	6.09	
2025-01-17 21:38:26.06	46.76	6.09	
2025-01-17 21:38:26.27	46.79	6.10	
2025-01-17 21:38:26.47	46.82	6.11	
2025-01-17 21:38:26.67	46.85	6.11	
2025-01-17 21:38:26.88	46.88	6.12	
2025-01-17 21:38:27.08	46.91	6.12	
2025-01-17 21:38:27.28	46.94	6.13	
2025-01-17 21:38:27.48	46.97	6.14	
2025-01-17 21:38:27.69	47.00	6.14	
2025-01-17 21:38:27.89	47.02	6.15	
2025-01-17 21:38:28.09	47.05	6.15	
2025-01-17 21:38:28.30	47.08	6.16	
2025-01-17 21:38:28.50	47.11	6.17	
2025-01-17 21:38:28.70	47.14	6.17	
2025-01-17 21:38:28.91	47.17	6.18	
2025-01-17 21:38:29.11	47.20	6.18	
2025-01-17 21:38:29.31	47.23	6.19	
2025-01-17 21:38:29.51	47.26	6.20	
2025-01-17 21:38:29.72	47.29	6.20	
2025-01-17 21:38:29.92	47.32	6.21	
2025-01-17 21:38:30.12	47.35	6.21	
2025-01-17 21:38:30.33	47.38	6.22	
2025-01-17 21:38:30.53	47.41	6.23	
2025-01-17 21:38:30.73	47.43	6.23	
2025-01-17 21:38:30.94	47.46	6.24	
2025-01-17 21:38:31.14	47.49	6.24	
2025-01-17 21:38:31.34	47.52	6.25	
2025-01-17 21:38:31.54	47.55	6.26	
2025-01-17 21:38:31.75	47.58	6.26	
2025-01-17 21:38:31.95	47.61	6.27	
2025-01-17 21:38:32.15	47.64	6.27	
2025-01-17 21:38:32.36	47.67	6.28	
2025-01-17 21:38:32.56	47.70	6.29	
2025-01-17 21:38:32.76	47.73	6.29	
2025-01-17 21:38:32.97	47.76	6.30	
2025-01-17 21:38:33.17	47.79	6.30	
2025-01-17 21:38:33.37	47.82	6.31	
2025-01-17 21:38:33.57	47.85	6.32	
2025-01-17 21:38:33.78	47.88	6.32	
2025-01-17 21:38:33.98	47.90	6.33	
2025-01-17 21:38:34.18	47.93	6.33	
2025-01-17 21:38:34.39	47.96	6.34	
2025-01-17 21:38:34.59	47.99	6.34	
2025-01-17 21:38:34.79	48.02	6.35	
2025-01-17 21:38:35.00	48.05	6.36	
2025-01-17 21:38:35.20	48.08	6.36	
2025-01-17 21:38:35.40	48.11	6.37	
2025-01-17 21:38:35.60	48.14	6.37	
2025-01-17 21:38:35.81	48.17	6.38	
2025-01-17 21:38:36.01	48.20	6.39	
2025-01-17 21:38:36.21	48.23	6.39	
2025-01-17 21:38:36.42	48.26	6.40	
2025-01-17 21:38:36.62	48.29	6.40	
2025-01-17 21:38:36.82	48.32	6.41	
2025-01-17 21:38:37.03	48.35	6.41	
2025-01-17 21:38:37.23	48.38	6.42	
2025-01-17 21:38:37.43	48.41	6.43	
2025-01-17 21:38:37.63	48.44	6.43	
2025-01-17 21:38:37.84	48.47	6.44	
2025-01-17 21:38:38.04	48.50	6.44	
2025-01-17 21:38:38.24	48.53	6.45	
2025-01-17 21:38:38.45	48.56	6.46	
2025-01-17 21:38:38.65	48.59	6.46	
2025-01-17 21:38:38.85	48.62	6.47	
2025-01-17 21:38:39.05	48.65	6.47	
2025-01-17 21:38:39.26	48.68	6.48	
2025-01-17 21:38:39.46	48.71	6.48	
2025-01-17 21:38:39.66	48.73	6.49	
2025-01-17 21:38:39.87	48.77	6.50	
2025-01-17 21:38:40.07	48.80	6.50	
2025-01-17 21:38:40.27	48.82	6.51	
2025-01-17 21:38:40.48	48.86	6.51	
2025-01-17 21:38:40.68	48.88	6.52	
2025-01-17 21:38:40.88	48.91	6.52	
2025-01-17 21:38:41.08	48.94	6.53	
2025-01-17 21:38:41.29	48.97	6.54	
2025-01-17 21:38:41.49	49.00	6.54	
2025-01-17 21:38:41.69	49.03	6.55	
2025-01-17 21:38:41.90	49.06	6.55	
2025-01-17 21:38:42.10	49.09	6.56	
2025-01-17 21:38:42.30	49.12	6.56	
2025-01-17 21:38:42.51	49.15	6.57	
2025-01-17 21:38:42.71	49.18	6.58	
2025-01-17 21:38:42.91	49.21	6.58	
2025-01-17 21:38:43.11	49.24	6.59	
2025-01-17 21:38:43.32	49.27	6.59	
2025-01-17 21:38:43.52	49.30	6.60	
2025-01-17 21:38:43.72	49.33	6.60	
2025-01-17 21:38:43.93	49.36	6.61	
2025-01-17 21:38:44.13	49.39	6.62	
2025-01-17 21:38:44.33	49.42	6.62	
2025-01-17 21:38:44.54	49.46	6.63	
2025-01-17 21:38:44.74	49.48	6.63	
2025-01-17 21:38:44.94	49.51	6.64	
2025-01-17 21:38:45.14	49.54	6.64	
2025-01-17 21:38:45.35	49.58	6.65	
2025-01-17 21:38:45.55	49.61	6.65	
2025-01-17 21:38:45.75	49.63	6.66	
2025-01-17 21:38:45.96	49.67	6.67	
2025-01-17 21:38:46.16	49.70	6.67	
2025-01-17 21:38:46.36	49.73	6.68	
2025-01-17 21:38:46.57	49.76	6.68	
2025-01-17 21:38:46.77	49.79	6.69	
2025-01-17 21:38:46.97	49.82	6.69	
2025-01-17 21:38:47.17	49.85	6.70	
2025-01-17 21:38:47.38	49.88	6.70	
2025-01-17 21:38:47.58	49.91	6.71	
2025-01-17 21:38:47.78	49.94	6.72	
2025-01-17 21:38:47.99	49.97	6.72	
2025-01-17 21:38:48.19	50.00	6.73	
2025-01-17 21:38:48.39	50.03	6.73	
2025-01-17 21:38:48.59	50.06	6.74	
2025-01-17 21:38:48.80	50.09	6.74	
2025-01-17 21:38:49.00	50.12	6.75	
2025-01-17 21:38:49.20	50.15	6.75	
2025-01-17 21:38:49.41	50.18	6.76	
2025-01-17 21:38:49.61	50.21	6.77	
2025-01-17 21:38:49.81	50.24	6.77	
2025-01-17 21:38:50.02	50.27	6.78	
2025-01-17 21:38:50.22	50.30	6.78	
2025-01-17 21:38:50.42	50.33	6.79	
2025-01-17 21:38:50.62	50.36	6.79	
2025-01-17 21:38:50.83	50.39	6.80	
2025-01-17 21:38:51.03	50.42	6.80	
2025-01-17 21:38:51.23	50.45	6.81	
2025-01-17 21:38:51.44	50.48	6.81	
2025-01-17 21:38:51.64	50.51	6.82	
2025-01-17 21:38:51.84	50.55	6.83	
2025-01-17 21:38:52.05	50.58	6.83	
2025-01-17 21:38:52.25	50.61	6.84	
2025-01-17 21:38:52.45	50.64	6.84	
2025-01-17 21:38:52.65	50.67	6.85	
2025-01-17 21:38:52.86	50.70	6.85	
2025-01-17 21:38:53.06	50.73	6.86	
2025-01-17 21:38:53.26	50.76	6.86	
2025-01-17 21:38:53.47	50.79	6.87	
2025-01-17 21:38:53.67	50.82	6.87	
2025-01-17 21:38:53.87	50.85	6.88	
2025-01-17 21:38:54.08	50.88	6.88	
2025-01-17 21:38:54.28	50.91	6.89	
2025-01-17 21:38:54.48	50.94	6.90	
2025-01-17 21:38:54.68	50.97	6.90	
2025-01-17 21:38:54.89	51.00	6.91	
2025-01-17 21:38:55.09	51.03	6.91	
2025-01-17 21:38:55.29	51.06	6.92	
2025-01-17 21:38:55.50	51.10	6.92	
2025-01-17 21:38:55.70	51.13	6.93	
2025-01-17 21:38:55.90	51.16	6.93	
2025-01-17 21:38:56.11	51.19	6.94	
2025-01-17 21:38:56.31	51.22	6.94	
2025-01-17 21:38:56.51	51.25	6.95	
2025-01-17 21:38:56.71	51.28	6.95	
2025-01-17 21:38:56.92	51.31	6.96	
2025-01-17 21:38:57.12	51.34	6.96	
2025-01-17 21:38:57.32	51.37	6.97	
2025-01-17 21:38:57.53	51.40	6.98	
2025-01-17 21:38:57.73	51.43	6.98	
2025-01-17 21:38:57.93	51.47	6.99	
2025-01-17 21:38:58.13	51.50	6.99	
2025-01-17 21:38:58.34	51.53	7.00	
2025-01-17 21:38:58.54	51.56	7.00	
2025-01-17 21:38:58.74	51.59	7.01	
2025-01-17 21:38:58.95	51.62	7.01	
2025-01-17 21:38:59.15	51.65	7.02	
2025-01-17 21:38:59.35	51.68	7.02	
2025-01-17 21:38:59.56	51.71	7.03	
2025-01-17 21:38:59.76	51.74	7.03	
2025-01-17 21:38:59.96	51.77	7.04	
2025-01-17 21:39:00.16	51.80	7.04	
2025-01-17 21:39:00.37	51.84	7.05	
2025-01-17 21:39:00.57	51.87	7.05	
2025-01-17 21:39:00.77	51.90	7.06	
2025-01-17 21:39:00.98	51.93	7.06	
2025-01-17 21:39:01.18	51.96	7.07	
2025-01-17 21:39:01.38	51.99	7.07	
2025-01-17 21:39:01.59	52.02	7.08	
2025-01-17 21:39:01.79	52.05	7.08	
2025-01-17 21:39:01.99	52.08	7.09	
2025-01-17 21:39:02.19	52.11	7.09	
2025-01-17 21:39:02.40	52.15	7.10	
2025-01-17 21:39:02.60	52.18	7.10	
2025-01-17 21:39:02.80	52.21	7.11	
2025-01-17 21:39:03.01	52.24	7.12	
2025-01-17 21:39:03.21	52.27	7.12	
2025-01-17 21:39:03.41	52.30	7.13	
2025-01-17 21:39:03.62	52.33	7.13	
2025-01-17 21:39:03.82	52.36	7.14	
2025-01-17 21:39:04.02	52.39	7.14	
2025-01-17 21:39:04.22	52.43	7.15	
2025-01-17 21:39:04.43	52.46	7.15	
2025-01-17 21:39:04.63	52.49	7.16	
2025-01-17 21:39:04.83	52.52	7.16	
2025-01-17 21:39:05.04	52.55	7.17	
2025-01-17 21:39:05.24	52.58	7.17	
2025-01-17 21:39:05.44	52.61	7.18	
2025-01-17 21:39:05.65	52.65	7.18	
2025-01-17 21:39:05.85	52.68	7.19	
2025-01-17 21:39:06.05	52.71	7.19	
2025-01-17 21:39:06.25	52.74	7.20	
2025-01-17 21:39:06.46	52.77	7.20	
2025-01-17 21:39:06.66	52.80	7.21	
2025-01-17 21:39:06.86	52.83	7.21	
2025-01-17 21:39:07.07	52.86	7.22	
2025-01-17 21:39:07.27	52.89	7.22	
2025-01-17 21:39:07.47	52.93	7.23	
2025-01-17 21:39:07.67	52.96	7.23	
2025-01-17 21:39:07.88	52.99	7.24	
2025-01-17 21:39:08.08	53.02	7.24	
2025-01-17 21:39:08.28	53.05	7.25	
2025-01-17 21:39:08.49	53.08	7.25	
2025-01-17 21:39:08.69	53.11	7.26	
2025-01-17 21:39:08.89	53.15	7.26	
2025-01-17 21:39:09.10	53.18	7.27	
2025-01-17 21:39:09.30	53.21	7.27	
2025-01-17 21:39:09.50	53.24	7.28	
2025-01-17 21:39:09.70	53.27	7.28	
2025-01-17 21:39:09.91	53.30	7.29	
2025-01-17 21:39:10.11	53.33	7.29	
2025-01-17 21:39:10.31	53.37	7.29	
2025-01-17 21:39:10.52	53.40	7.30	
2025-01-17 21:39:10.72	53.43	7.30	
2025-01-17 21:39:10.92	53.46	7.31	
2025-01-17 21:39:11.13	53.49	7.31	
2025-01-17 21:39:11.33	53.52	7.32	
2025-01-17 21:39:11.53	53.55	7.32	
2025-01-17 21:39:11.73	53.59	7.33	
2025-01-17 21:39:11.94	53.62	7.33	
2025-01-17 21:39:12.14	53.65	7.34	
2025-01-17 21:39:12.34	53.68	7.34	
2025-01-17 21:39:12.55	53.71	7.35	
2025-01-17 21:39:12.75	53.74	7.35	
2025-01-17 21:39:12.95	53.78	7.36	
2025-01-17 21:39:13.16	53.81	7.36	
2025-01-17 21:39:13.36	53.84	7.37	
2025-01-17 21:39:13.56	53.87	7.37	
2025-01-17 21:39:13.76	53.90	7.38	
2025-01-17 21:39:13.97	53.93	7.38	
2025-01-17 21:39:14.17	53.97	7.39	
2025-01-17 21:39:14.37	54.00	7.39	
2025-01-17 21:39:14.58	54.03	7.40	
2025-01-17 21:39:14.78	54.06	7.40	
2025-01-17 21:39:14.98	54.09	7.41	
2025-01-17 21:39:15.19	54.12	7.41	
2025-01-17 21:39:15.39	54.16	7.41	
2025-01-17 21:39:15.59	54.19	7.42	
2025-01-17 21:39:15.79	54.22	7.42	
2025-01-17 21:39:16.00	54.25	7.43	
2025-01-17 21:39:16.20	54.28	7.43	
2025-01-17 21:39:16.40	54.31	7.44	
2025-01-17 21:39:16.61	54.35	7.44	
2025-01-17 21:39:16.81	54.38	7.45	
2025-01-17 21:39:17.01	54.41	7.45	
2025-01-17 21:39:17.22	54.44	7.46	
2025-01-17 21:39:17.42	54.47	7.46	
2025-01-17 21:39:17.62	54.50	7.47	
2025-01-17 21:39:17.82	54.54	7.47	
2025-01-17 21:39:18.03	54.57	7.48	
2025-01-17 21:39:18.23	54.60	7.48	
2025-01-17 21:39:18.43	54.63	7.48	
2025-01-17 21:39:18.64	54.67	7.49	
2025-01-17 21:39:18.84	54.70	7.49	
2025-01-17 21:39:19.04	54.73	7.50	
2025-01-17 21:39:19.24	54.76	7.50	
2025-01-17 21:39:19.45	54.79	7.51	
2025-01-17 21:39:19.65	54.82	7.51	
2025-01-17 21:39:19.85	54.86	7.52	
2025-01-17 21:39:20.06	54.89	7.52	
2025-01-17 21:39:20.26	54.92	7.53	
2025-01-17 21:39:20.46	54.95	7.53	
2025-01-17 21:39:20.67	54.98	7.54	
2025-01-17 21:39:20.87	55.02	7.54	
2025-01-17 21:39:21.07	55.05	7.54	
2025-01-17 21:39:21.27	55.08	7.55	
2025-01-17 21:39:21.48	55.11	7.55	
2025-01-17 21:39:21.68	55.14	7.56	
2025-01-17 21:39:21.88	55.18	7.56	
2025-01-17 21:39:22.09	55.21	7.57	
2025-01-17 21:39:22.29	55.24	7.57	
2025-01-17 21:39:22.49	55.27	7.58	
2025-01-17 21:39:22.70	55.30	7.58	
2025-01-17 21:39:22.90	55.34	7.58	
2025-01-17 21:39:23.10	55.37	7.59	
2025-01-17 21:39:23.30	55.40	7.59	
2025-01-17 21:39:23.51	55.43	7.60	
2025-01-17 21:39:23.71	55.46	7.60	
2025-01-17 21:39:23.91	55.50	7.61	
2025-01-17 21:39:24.12	55.53	7.61	
2025-01-17 21:39:24.32	55.56	7.62	
2025-01-17 21:39:24.52	55.59	7.62	
2025-01-17 21:39:24.73	55.63	7.62	
2025-01-17 21:39:24.93	55.66	7.63	
2025-01-17 21:39:25.13	55.69	7.63	
2025-01-17 21:39:25.33	55.72	7.64	
2025-01-17 21:39:25.54	55.75	7.64	
2025-01-17 21:39:25.74	55.79	7.65	
2025-01-17 21:39:25.94	55.82	7.65	
2025-01-17 21:39:26.15	55.85	7.66	
2025-01-17 21:39:26.35	55.88	7.66	
2025-01-17 21:39:26.55	55.91	7.66	
2025-01-17 21:39:26.75	55.95	7.67	
2025-01-17 21:39:26.96	55.98	7.67	
2025-01-17 21:39:27.16	56.01	7.68	
2025-01-17 21:39:27.36	56.04	7.68	
2025-01-17 21:39:27.57	56.08	7.69	
2025-01-17 21:39:27.77	56.11	7.69	
2025-01-17 21:39:27.97	56.14	7.69	
2025-01-17 21:39:28.18	56.17	7.70	
2025-01-17 21:39:28.38	56.21	7.70	
2025-01-17 21:39:28.58	56.24	7.71	
2025-01-17 21:39:28.78	56.27	7.71	
2025-01-17 21:39:28.99	56.30	7.72	
2025-01-17 21:39:29.19	56.34	7.72	
2025-01-17 21:39:29.39	56.37	7.72	
2025-01-17 21:39:29.60	56.40	7.73	
2025-01-17 21:39:29.80	56.43	7.73	
2025-01-17 21:39:30.00	56.46	7.74	
2025-01-17 21:39:30.21	56.50	7.74	
2025-01-17 21:39:30.41	56.53	7.75	
2025-01-17 21:39:30.61	56.56	7.75	
2025-01-17 21:39:30.81	56.59	7.75	
2025-01-17 21:39:31.02	56.63	7.76	
2025-01-17 21:39:31.22	56.66	7.76	
2025-01-17 21:39:31.42	56.69	7.77	
2025-01-17 21:39:31.63	56.73	7.77	
2025-01-17 21:39:31.83	56.76	7.77	
2025-01-17 21:39:32.03	56.79	7.78	
2025-01-17 21:39:32.24	56.82	7.78	
2025-01-17 21:39:32.44	56.85	7.79	
2025-01-17 21:39:32.64	56.89	7.79	
2025-01-17 21:39:32.84	56.92	7.80	
2025-01-17 21:39:33.05	56.95	7.80	
2025-01-17 21:39:33.25	56.98	7.80	
2025-01-17 21:39:33.45	57.02	7.81	
2025-01-17 21:39:33.66	57.05	7.81	
2025-01-17 21:39:33.86	57.08	7.82	
2025-01-17 21:39:34.06	57.11	7.82	
2025-01-17 21:39:34.27	57.15	7.82	
2025-01-17 21:39:34.47	57.18	7.83	
2025-01-17 21:39:34.67	57.21	7.83	
2025-01-17 21:39:34.87	57.25	7.84	
2025-01-17 21:39:35.08	57.28	7.84	
2025-01-17 21:39:35.28	57.31	7.84	
2025-01-17 21:39:35.48	57.34	7.85	
2025-01-17 21:39:35.69	57.38	7.85	
2025-01-17 21:39:35.89	57.41	7.86	
2025-01-17 21:39:36.09	57.44	7.86	
2025-01-17 21:39:36.30	57.48	7.86	
2025-01-17 21:39:36.50	57.51	7.87	
2025-01-17 21:39:36.70	57.54	7.87	
2025-01-17 21:39:36.90	57.57	7.88	
2025-01-17 21:39:37.11	57.61	7.88	
2025-01-17 21:39:37.31	57.64	7.88	
2025-01-17 21:39:37.51	57.67	7.89	
2025-01-17 21:39:37.72	57.70	7.89	
2025-01-17 21:39:37.92	57.74	7.90	
2025-01-17 21:39:38.12	57.77	7.90	
2025-01-17 21:39:38.32	57.80	7.90	
2025-01-17 21:39:38.53	57.83	7.91	
2025-01-17 21:39:38.73	57.87	7.91	
2025-01-17 21:39:38.93	57.90	7.92	
2025-01-17 21:39:39.14	57.93	7.92	
2025-01-17 21:39:39.34	57.97	7.92	
2025-01-17 21:39:39.54	58.00	7.93	
2025-01-17 21:39:39.75	58.03	7.93	
2025-01-17 21:39:39.95	58.06	7.94	
2025-01-17 21:39:40.15	58.10	7.94	
2025-01-17 21:39:40.35	58.13	7.94	
2025-01-17 21:39:40.56	58.16	7.95	
2025-01-17 21:39:40.76	58.20	7.95	
2025-01-17 21:39:40.96	58.23	7.95	
2025-01-17 21:39:41.17	58.26	7.96	
2025-01-17 21:39:41.37	58.29	7.96	
2025-01-17 21:39:41.57	58.33	7.97	
2025-01-17 21:39:41.78	58.36	7.97	
2025-01-17 21:39:41.98	58.39	7.97	
2025-01-17 21:39:42.18	58.43	7.98	
2025-01-17 21:39:42.38	58.46	7.98	
2025-01-17 21:39:42.59	58.49	7.99	
2025-01-17 21:39:42.79	58.53	7.99	
2025-01-17 21:39:42.99	58.56	7.99	
2025-01-17 21:39:43.20	58.59	8.00	
2025-01-17 21:39:43.40	58.62	8.00	
2025-01-17 21:39:43.60	58.66	8.00	
2025-01-17 21:39:43.81	58.69	8.01	
2025-01-17 21:39:44.01	58.72	8.01	
2025-01-17 21:39:44.21	58.76	8.02	
2025-01-17 21:39:44.41	58.79	8.02	
2025-01-17 21:39:44.62	58.82	8.02	
2025-01-17 21:39:44.82	58.86	8.03	
2025-01-17 21:39:45.02	58.89	8.03	
2025-01-17 21:39:45.23	58.92	8.03	
2025-01-17 21:39:45.43	58.95	8.04	
2025-01-17 21:39:45.63	58.99	8.04	
2025-01-17 21:39:45.84	59.02	8.05	
2025-01-17 21:39:46.04	59.05	8.05	
2025-01-17 21:39:46.24	59.09	8.05	
2025-01-17 21:39:46.44	59.12	8.06	
2025-01-17 21:39:46.65	59.15	8.06	
2025-01-17 21:39:46.85	59.19	8.06	
2025-01-17 21:39:47.05	59.22	8.07	
2025-01-17 21:39:47.26	59.25	8.07	
2025-01-17 21:39:47.46	59.29	8.07	
2025-01-17 21:39:47.66	59.32	8.08	
2025-01-17 21:39:47.86	59.35	8.08	
2025-01-17 21:39:48.07	59.39	8.08	
2025-01-17 21:39:48.27	59.42	8.09	
2025-01-17 21:39:48.47	59.45	8.09	
2025-01-17 21:39:48.68	59.49	8.10	
2025-01-17 21:39:48.88	59.52	8.10	
2025-01-17 21:39:49.08	59.55	8.10	
2025-01-17 21:39:49.29	59.59	8.11	
2025-01-17 21:39:49.49	59.62	8.11	
2025-01-17 21:39:49.69	59.65	8.11	
2025-01-17 21:39:49.89	59.68	8.12	
2025-01-17 21:39:50.10	59.72	8.12	
2025-01-17 21:39:50.30	59.75	8.12	
2025-01-17 21:39:50.50	59.78	8.13	
2025-01-17 21:39:50.71	59.82	8.13	
2025-01-17 21:39:50.91	59.85	8.13	
2025-01-17 21:39:51.11	59.88	8.14	
2025-01-17 21:39:51.32	59.92	8.14	
2025-01-17 21:39:51.52	59.95	8.14	
2025-01-17 21:39:51.72	59.98	8.15	
2025-01-17 21:39:51.92	60.02	8.15	
2025-01-17 21:39:52.13	60.05	8.15	
2025-01-17 21:39:52.33	60.08	8.16	
2025-01-17 21:39:52.53	60.12	8.16	
2025-01-17 21:39:52.74	60.15	8.16	
2025-01-17 21:39:52.94	60.18	8.17	
2025-01-17 21:39:53.14	60.22	8.17	
2025-01-17 21:39:53.35	60.25	8.18	
2025-01-17 21:39:53.55	60.28	8.18	
2025-01-17 21:39:53.75	60.32	8.18	
2025-01-17 21:39:53.95	60.35	8.19	
2025-01-17 21:39:54.16	60.38	8.19	
2025-01-17 21:39:54.36	60.42	8.19	
2025-01-17 21:39:54.56	60.45	8.20	
2025-01-17 21:39:54.77	60.49	8.20	
2025-01-17 21:39:54.97	60.52	8.20	
2025-01-17 21:39:55.17	60.55	8.21	
2025-01-17 21:39:55.38	60.59	8.21	
2025-01-17 21:39:55.58	60.62	8.21	
2025-01-17 21:39:55.78	60.65	8.21	
2025-01-17 21:39:55.98	60.68	8.22	
2025-01-17 21:39:56.19	60.72	8.22	
2025-01-17 21:39:56.39	60.75	8.22	
2025-01-17 21:39:56.59	60.79	8.23	
2025-01-17 21:39:56.80	60.82	8.23	
2025-01-17 21:39:57.00	60.85	8.23	
2025-01-17 21:39:57.20	60.89	8.24	
2025-01-17 21:39:57.41	60.92	8.24	
2025-01-17 21:39:57.61	60.95	8.24	
2025-01-17 21:39:57.81	60.99	8.25	
2025-01-17 21:39:58.01	61.02	8.25	
2025-01-17 21:39:58.22	61.05	8.25	
2025-01-17 21:39:58.42	61.09	8.26	
2025-01-17 21:39:58.62	61.12	8.26	
2025-01-17 21:39:58.83	61.16	8.26	
2025-01-17 21:39:59.03	61.19	8.27	
2025-01-17 21:39:59.23	61.22	8.27	
2025-01-17 21:39:59.43	61.25	8.27	
2025-01-17 21:39:59.64	61.29	8.28	
2025-01-17 21:39:59.84	61.32	8.28	
2025-01-17 21:40:00.04	61.36	8.28	
2025-01-17 21:40:00.25	61.39	8.29	
2025-01-17 21:40:00.45	61.42	8.29	
2025-01-17 21:40:00.65	61.46	8.29	
2025-01-17 21:40:00.86	61.49	8.29	
2025-01-17 21:40:01.06	61.52	8.30	
2025-01-17 21:40:01.26	61.56	8.30	
2025-01-17 21:40:01.46	61.59	8.30	
2025-01-17 21:40:01.67	61.63	8.31	
2025-01-17 21:40:01.87	61.66	8.31	
2025-01-17 21:40:02.07	61.69	8.31	
2025-01-17 21:40:02.28	61.73	8.32	
2025-01-17 21:40:02.48	61.76	8.32	
2025-01-17 21:40:02.68	61.79	8.32	
2025-01-17 21:40:02.89	61.83	8.32	
2025-01-17 21:40:03.09	61.86	8.33	
2025-01-17 21:40:03.29	61.90	8.33	
2025-01-17 21:40:03.49	61.93	8.33	
2025-01-17 21:40:03.70	61.96	8.34	
2025-01-17 21:40:03.90	62.00	8.34	
2025-01-17 21:40:04.10	62.03	8.34	
2025-01-17 21:40:04.31	62.06	8.35	
2025-01-17 21:40:04.51	62.10	8.35	
2025-01-17 21:40:04.71	62.13	8.35	
2025-01-17 21:40:04.92	62.17	8.35	
2025-01-17 21:40:05.12	62.20	8.36	
2025-01-17 21:40:05.32	62.23	8.36	
2025-01-17 21:40:05.52	62.27	8.36	
2025-01-17 21:40:05.73	62.30	8.37	
2025-01-17 21:40:05.93	62.33	8.37	
2025-01-17 21:40:06.13	62.37	8.37	
2025-01-17 21:40:06.34	62.40	8.37	
2025-01-17 21:40:06.54	62.44	8.38	
2025-01-17 21:40:06.74	62.47	8.38	
2025-01-17 21:40:06.95	62.50	8.38	
2025-01-17 21:40:07.15	62.54	8.39	
2025-01-17 21:40:07.35	62.57	8.39	
2025-01-17 21:40:07.55	62.60	8.39	
2025-01-17 21:40:07.76	62.64	8.39	
2025-01-17 21:40:07.96	62.67	8.40	
2025-01-17 21:40:08.16	62.71	8.40	
2025-01-17 21:40:08.37	62.74	8.40	
2025-01-17 21:40:08.57	62.78	8.41	
2025-01-17 21:40:08.77	62.81	8.41	
2025-01-17 21:40:08.97	62.84	8.41	
2025-01-17 21:40:09.18	62.88	8.41	
2025-01-17 21:40:09.38	62.91	8.42	
2025-01-17 21:40:09.58	62.94	8.42	
2025-01-17 21:40:09.79	62.98	8.42	
2025-01-17 21:40:09.99	63.01	8.42	
2025-01-17 21:40:10.19	63.05	8.43	
2025-01-17 21:40:10.40	63.08	8.43	
2025-01-17 21:40:10.60	63.11	8.43	
2025-01-17 21:40:10.80	63.15	8.44	
2025-01-17 21:40:11.00	63.18	8.44	
2025-01-17 21:40:11.21	63.22	8.44	
2025-01-17 21:40:11.41	63.25	8.44	
2025-01-17 21:40:11.61	63.28	8.45	
2025-01-17 21:40:11.82	63.32	8.45	
2025-01-17 21:40:12.02	63.35	8.45	
2025-01-17 21:40:12.22	63.39	8.45	
2025-01-17 21:40:12.43	63.42	8.46	
2025-01-17 21:40:12.63	63.45	8.46	
2025-01-17 21:40:12.83	63.49	8.46	
2025-01-17 21:40:13.03	63.52	8.46	
2025-01-17 21:40:13.24	63.56	8.47	
2025-01-17 21:40:13.44	63.59	8.47	
2025-01-17 21:40:13.64	63.62	8.47	
2025-01-17 21:40:13.85	63.66	8.47	
2025-01-17 21:40:14.05	63.69	8.48	
2025-01-17 21:40:14.25	63.73	8.48	
2025-01-17 21:40:14.46	63.76	8.48	
2025-01-17 21:40:14.66	63.80	8.48	
2025-01-17 21:40:14.86	63.83	8.49	
2025-01-17 21:40:15.06	63.86	8.49	
2025-01-17 21:40:15.27	63.90	8.49	
2025-01-17 21:40:15.47	63.93	8.49	
2025-01-17 21:40:15.67	63.96	8.50	
2025-01-17 21:40:15.88	64.00	8.50	
2025-01-17 21:40:16.08	64.03	8.50	
2025-01-17 21:40:16.28	64.07	8.50	
2025-01-17 21:40:16.49	64.10	8.51	
2025-01-17 21:40:16.69	64.14	8.51	
2025-01-17 21:40:16.89	64.17	8.51	
2025-01-17 21:40:17.09	64.20	8.51	
2025-01-17 21:40:17.30	64.24	8.52	
2025-01-17 21:40:17.50	64.27	8.52	
2025-01-17 21:40:17.70	64.31	8.52	
2025-01-17 21:40:17.91	64.34	8.52	
2025-01-17 21:40:18.11	64.38	8.53	
2025-01-17 21:40:18.31	64.41	8.53	
2025-01-17 21:40:18.51	64.44	8.53	
2025-01-17 21:40:18.72	64.48	8.53	
2025-01-17 21:40:18.92	64.51	8.54	
2025-01-17 21:40:19.12	64.55	8.54	
2025-01-17 21:40:19.33	64.58	8.54	
2025-01-17 21:40:19.53	64.61	8.54	
2025-01-17 21:40:19.73	64.65	8.54	
2025-01-17 21:40:19.94	64.68	8.55	
2025-01-17 21:40:20.14	64.72	8.55	
2025-01-17 21:40:20.34	64.75	8.55	
2025-01-17 21:40:20.54	64.79	8.55	
2025-01-17 21:40:20.75	64.82	8.56	
2025-01-17 21:40:20.95	64.85	8.56	
2025-01-17 21:40:21.15	64.89	8.56	
2025-01-17 21:40:21.36	64.92	8.56	
2025-01-17 21:40:21.56	64.96	8.57	
2025-01-17 21:40:21.76	64.99	8.57	
2025-01-17 21:40:21.97	65.03	8.57	
2025-01-17 21:40:22.17	65.06	8.57	
2025-01-17 21:40:22.37	65.09	8.57	
2025-01-17 21:40:22.57	65.13	8.58	
2025-01-17 21:40:22.78	65.16	8.58	
2025-01-17 21:40:22.98	65.20	8.58	
2025-01-17 21:40:23.18	65.23	8.58	
2025-01-17 21:40:23.39	65.27	8.58	
2025-01-17 21:40:23.59	65.30	8.59	
2025-01-17 21:40:23.79	65.33	8.59	
2025-01-17 21:40:24.00	65.37	8.59	
2025-01-17 21:40:24.20	65.40	8.59	
2025-01-17 21:40:24.40	65.44	8.60	
2025-01-17 21:40:24.60	65.47	8.60	
2025-01-17 21:40:24.81	65.51	8.60	
2025-01-17 21:40:25.01	65.54	8.60	
2025-01-17 21:40:25.21	65.57	8.60	
2025-01-17 21:40:25.42	65.61	8.61	
2025-01-17 21:40:25.62	65.64	8.61	
2025-01-17 21:40:25.82	65.68	8.61	
2025-01-17 21:40:26.03	65.71	8.61	
2025-01-17 21:40:26.23	65.75	8.61	
2025-01-17 21:40:26.43	65.78	8.62	
2025-01-17 21:40:26.63	65.82	8.62	
2025-01-17 21:40:26.84	65.85	8.62	
2025-01-17 21:40:27.04	65.88	8.62	
2025-01-17 21:40:27.24	65.92	8.62	
2025-01-17 21:40:27.45	65.95	8.63	
2025-01-17 21:40:27.65	65.99	8.63	
2025-01-17 21:40:27.85	66.02	8.63	
2025-01-17 21:40:28.05	66.06	8.63	
2025-01-17 21:40:28.26	66.09	8.63	
2025-01-17 21:40:28.46	66.13	8.64	
2025-01-17 21:40:28.66	66.16	8.64	
2025-01-17 21:40:28.87	66.20	8.64	
2025-01-17 21:40:29.07	66.23	8.64	
2025-01-17 21:40:29.27	66.26	8.64	
2025-01-17 21:40:29.48	66.30	8.65	
2025-01-17 21:40:29.68	66.33	8.65	
2025-01-17 21:40:29.88	66.37	8.65	
2025-01-17 21:40:30.08	66.40	8.65	
2025-01-17 21:40:30.29	66.44	8.65	
2025-01-17 21:40:30.49	66.47	8.65	
2025-01-17 21:40:30.69	66.50	8.66	
2025-01-17 21:40:30.90	66.54	8.66	
2025-01-17 21:40:31.10	66.57	8.66	
2025-01-17 21:40:31.30	66.61	8.66	
2025-01-17 21:40:31.51	66.64	8.66	
2025-01-17 21:40:31.71	66.68	8.67	
2025-01-17 21:40:31.91	66.71	8.67	
2025-01-17 21:40:32.11	66.75	8.67	
2025-01-17 21:40:32.32	66.78	8.67	
2025-01-17 21:40:32.52	66.82	8.67	
2025-01-17 21:40:32.72	66.85	8.67	
2025-01-17 21:40:32.93	66.89	8.68	
2025-01-17 21:40:33.13	66.92	8.68	
2025-01-17 21:40:33.33	66.95	8.68	
2025-01-17 21:40:33.54	66.99	8.68	
2025-01-17 21:40:33.74	67.02	8.68	
2025-01-17 21:40:33.94	67.06	8.68	
2025-01-17 21:40:34.14	67.09	8.69	
2025-01-17 21:40:34.35	67.13	8.69	
2025-01-17 21:40:34.55	67.16	8.69	
2025-01-17 21:40:34.75	67.20	8.69	
2025-01-17 21:40:34.96	67.23	8.69	
2025-01-17 21:40:35.16	67.26	8.69	
2025-01-17 21:40:35.36	67.30	8.70	
2025-01-17 21:40:35.57	67.33	8.70	
2025-01-17 21:40:35.77	67.37	8.70	
2025-01-17 21:40:35.97	67.40	8.70	
2025-01-17 21:40:36.17	67.44	8.70	
2025-01-17 21:40:36.38	67.47	8.70	
2025-01-17 21:40:36.58	67.51	8.71	
2025-01-17 21:40:36.78	67.54	8.71	
2025-01-17 21:40:36.99	67.58	8.71	
2025-01-17 21:40:37.19	67.61	8.71	
2025-01-17 21:40:37.39	67.65	8.71	
2025-01-17 21:40:37.59	67.68	8.71	
2025-01-17 21:40:37.80	67.72	8.72	
2025-01-17 21:40:38.00	67.75	8.72	
2025-01-17 21:40:38.20	67.78	8.72	
2025-01-17 21:40:38.41	67.82	8.72	
2025-01-17 21:40:38.61	67.85	8.72	
2025-01-17 21:40:38.81	67.89	8.72	
2025-01-17 21:40:39.02	67.92	8.72	
2025-01-17 21:40:39.22	67.96	8.73	
2025-01-17 21:40:39.42	67.99	8.73	
2025-01-17 21:40:39.62	68.03	8.73	
2025-01-17 21:40:39.83	68.06	8.73	
2025-01-17 21:40:40.03	68.10	8.73	
2025-01-17 21:40:40.23	68.13	8.73	
2025-01-17 21:40:40.44	68.17	8.73	
2025-01-17 21:40:40.64	68.20	8.74	
2025-01-17 21:40:40.84	68.23	8.74	
2025-01-17 21:40:41.05	68.27	8.74	
2025-01-17 21:40:41.25	68.30	8.74	
2025-01-17 21:40:41.45	68.34	8.74	
2025-01-17 21:40:41.65	68.37	8.74	
2025-01-17 21:40:41.86	68.41	8.74	
2025-01-17 21:40:42.06	68.44	8.75	
2025-01-17 21:40:42.26	68.48	8.75	
2025-01-17 21:40:42.47	68.51	8.75	
2025-01-17 21:40:42.67	68.55	8.75	
2025-01-17 21:40:42.87	68.58	8.75	
2025-01-17 21:40:43.08	68.62	8.75	
2025-01-17 21:40:43.28	68.65	8.75	
2025-01-17 21:40:43.48	68.69	8.75	
2025-01-17 21:40:43.68	68.72	8.76	
2025-01-17 21:40:43.89	68.76	8.76	
2025-01-17 21:40:44.09	68.79	8.76	
2025-01-17 21:40:44.29	68.82	8.76	
2025-01-17 21:40:44.50	68.86	8.76	
2025-01-17 21:40:44.70	68.89	8.76	
2025-01-17 21:40:44.90	68.93	8.76	
2025-01-17 21:40:45.11	68.96	8.76	
2025-01-17 21:40:45.31	69.00	8.77	
2025-01-17 21:40:45.51	69.03	8.77	
2025-01-17 21:40:45.71	69.07	8.77	
2025-01-17 21:40:45.92	69.10	8.77	
2025-01-17 21:40:46.12	69.14	8.77	
2025-01-17 21:40:46.32	69.17	8.77	
2025-01-17 21:40:46.53	69.21	8.77	
2025-01-17 21:40:46.73	69.24	8.77	
2025-01-17 21:40:46.93	69.28	8.77	
2025-01-17 21:40:47.14	69.31	8.78	
2025-01-17 21:40:47.34	69.35	8.78	
2025-01-17 21:40:47.54	69.38	8.78	
2025-01-17 21:40:47.74	69.41	8.78	
2025-01-17 21:40:47.95	69.45	8.78	
2025-01-17 21:40:48.15	69.49	8.78	
2025-01-17 21:40:48.35	69.52	8.78	
2025-01-17 21:40:48.56	69.56	8.78	
2025-01-17 21:40:48.76	69.59	8.78	
2025-01-17 21:40:48.96	69.62	8.79	
2025-01-17 21:40:49.16	69.66	8.79	
2025-01-17 21:40:49.37	69.69	8.79	
2025-01-17 21:40:49.57	69.73	8.79	
2025-01-17 21:40:49.77	69.76	8.79	
2025-01-17 21:40:49.98	69.80	8.79	
2025-01-17 21:40:50.18	69.83	8.79	
2025-01-17 21:40:50.38	69.87	8.79	
2025-01-17 21:40:50.59	69.90	8.79	
2025-01-17 21:40:50.79	69.94	8.79	
2025-01-17 21:40:50.99	69.97	8.80	
2025-01-17 21:40:51.19	70.01	8.80	
2025-01-17 21:40:51.40	70.04	8.80	
2025-01-17 21:40:51.60	70.08	8.80	
2025-01-17 21:40:51.80	70.11	8.80	
2025-01-17 21:40:52.01	70.15	8.80	
2025-01-17 21:40:52.21	70.18	8.80	
2025-01-17 21:40:52.41	70.22	8.80	
2025-01-17 21:40:52.62	70.25	8.80	
2025-01-17 21:40:52.82	70.29	8.80	
2025-01-17 21:40:53.02	70.32	8.80	
2025-01-17 21:40:53.22	70.36	8.80	
2025-01-17 21:40:53.43	70.39	8.81	
2025-01-17 21:40:53.63	70.43	8.81	
2025-01-17 21:40:53.83	70.46	8.81	
2025-01-17 21:40:54.04	70.50	8.81	
2025-01-17 21:40:54.24	70.53	8.81	
2025-01-17 21:40:54.44	70.56	8.81	
2025-01-17 21:40:54.65	70.60	8.81	
2025-01-17 21:40:54.85	70.63	8.81	
2025-01-17 21:40:55.05	70.67	8.81	
2025-01-17 21:40:55.25	70.70	8.81	
2025-01-17 21:40:55.46	70.74	8.81	
2025-01-17 21:40:55.66	70.77	8.81	
2025-01-17 21:40:55.86	70.81	8.81	
2025-01-17 21:40:56.07	70.84	8.82	
2025-01-17 21:40:56.27	70.88	8.82	
2025-01-17 21:40:56.47	70.91	8.82	
2025-01-17 21:40:56.68	70.95	8.82	
2025-01-17 21:40:56.88	70.98	8.82	
2025-01-17 21:40:57.08	71.02	8.82	
2025-01-17 21:40:57.28	71.05	8.82	
2025-01-17 21:40:57.49	71.09	8.82	
2025-01-17 21:40:57.69	71.12	8.82	
2025-01-17 21:40:57.89	71.16	8.82	
2025-01-17 21:40:58.10	71.19	8.82	
2025-01-17 21:40:58.30	71.23	8.82	
2025-01-17 21:40:58.50	71.26	8.82	
2025-01-17 21:40:58.70	71.30	8.82	
2025-01-17 21:40:58.91	71.33	8.82	
2025-01-17 21:40:59.11	71.37	8.83	
2025-01-17 21:40:59.31	71.40	8.83	
2025-01-17 21:40:59.52	71.44	8.83	
2025-01-17 21:40:59.72	71.47	8.83	
2025-01-17 21:40:59.92	71.51	8.83	
2025-01-17 21:41:00.13	71.54	8.83	
2025-01-17 21:41:00.33	71.58	8.83	
2025-01-17 21:41:00.53	71.61	8.83	
2025-01-17 21:41:00.73	71.65	8.83	
2025-01-17 21:41:00.94	71.68	8.83	
2025-01-17 21:41:01.14	71.72	8.83	
2025-01-17 21:41:01.34	71.75	8.83	
2025-01-17 21:41:01.55	71.79	8.83	
2025-01-17 21:41:01.75	71.82	8.83	
2025-01-17 21:41:01.95	71.86	8.83	
2025-01-17 21:41:02.16	71.89	8.83	
2025-01-17 21:41:02.36	71.93	8.83	
2025-01-17 21:41:02.56	71.96	8.83	
2025-01-17 21:41:02.76	71.99	8.83	
2025-01-17 21:41:02.97	72.03	8.83	
2025-01-17 21:41:03.17	72.07	8.83	
2025-01-17 21:41:03.37	72.10	8.84	
2025-01-17 21:41:03.58	72.14	8.84	
2025-01-17 21:41:03.78	72.17	8.84	
2025-01-17 21:41:03.98	72.20	8.84	
2025-01-17 21:41:04.19	72.24	8.84	
2025-01-17 21:41:04.39	72.28	8.84	
2025-01-17 21:41:04.59	72.31	8.84	
2025-01-17 21:41:04.79	72.34	8.84	
2025-01-17 21:41:05.00	72.38	8.84	
2025-01-17 21:41:05.20	72.41	8.84	
2025-01-17 21:41:05.40	72.45	8.84	
2025-01-17 21:41:05.61	72.49	8.84	
2025-01-17 21:41:05.81	72.52	8.84	
2025-01-17 21:41:06.01	72.55	8.84	
2025-01-17 21:41:06.22	72.59	8.84	
2025-01-17 21:41:06.42	72.62	8.84	
2025-01-17 21:41:06.62	72.66	8.84	
2025-01-17 21:41:06.82	72.69	8.84	
2025-01-17 21:41:07.03	72.73	8.84	
2025-01-17 21:41:07.23	72.76	8.84	
2025-01-17 21:41:07.43	72.80	8.84	
2025-01-17 21:41:07.64	72.83	8.84	
2025-01-17 21:41:07.84	72.87	8.84	
2025-01-17 21:41:08.04	72.90	8.84	
2025-01-17 21:41:08.24	72.94	8.84	
2025-01-17 21:41:08.45	72.97	8.84	
2025-01-17 21:41:08.65	73.01	8.84	
2025-01-17 21:41:08.85	73.04	8.84	
2025-01-17 21:41:09.06	73.08	8.84	
2025-01-17 21:41:09.26	73.11	8.84	
2025-01-17 21:41:09.46	73.15	8.84	
2025-01-17 21:41:09.67	73.18	8.84	
2025-01-17 21:41:09.87	73.22	8.84	
2025-01-17 21:41:10.07	73.25	8.84	
2025-01-17 21:41:10.27	73.29	8.84	
2025-01-17 21:41:10.48	73.32	8.84	
2025-01-17 21:41:10.68	73.36	8.84	
2025-01-17 21:41:10.88	73.39	8.84	
2025-01-17 21:41:11.09	73.43	8.84	
2025-01-17 21:41:11.29	73.46	8.84	
2025-01-17 21:41:11.49	73.50	8.84	
2025-01-17 21:41:11.70	73.53	8.84	
2025-01-17 21:41:11.90	73.57	8.84	
2025-01-17 21:41:12.10	73.60	8.84	
2025-01-17 21:41:12.30	73.64	8.84	
2025-01-17 21:41:12.51	73.67	8.84	
2025-01-17 21:41:12.71	73.71	8.84	
2025-01-17 21:41:12.91	73.74	8.84	
2025-01-17 21:41:13.12	73.78	8.84	
2025-01-17 21:41:13.32	73.81	8.84	
2025-01-17 21:41:13.52	73.85	8.84	
2025-01-17 21:41:13.73	73.88	8.84	
2025-01-17 21:41:13.93	73.92	8.84	
2025-01-17 21:41:14.13	73.95	8.84	
2025-01-17 21:41:14.33	73.99	8.84	
2025-01-17 21:41:14.54	74.02	8.84	
2025-01-17 21:41:14.74	74.06	8.84	
2025-01-17 21:41:14.94	74.09	8.84	
2025-01-17 21:41:15.15	74.13	8.84	
2025-01-17 21:41:15.35	74.16	8.84	
2025-01-17 21:41:15.55	74.20	8.84	
2025-01-17 21:41:15.76	74.23	8.84	
2025-01-17 21:41:15.96	74.27	8.84	
2025-01-17 21:41:16.16	74.30	8.84	
2025-01-17 21:41:16.36	74.34	8.84	
2025-01-17 21:41:16.57	74.37	8.84	
2025-01-17 21:41:16.77	74.41	8.84	
2025-01-17 21:41:16.97	74.44	8.84	
2025-01-17 21:41:17.18	74.48	8.84	
2025-01-17 21:41:17.38	74.51	8.84	
2025-01-17 21:41:17.58	74.55	8.84	
2025-01-17 21:41:17.79	74.58	8.84	
2025-01-17 21:41:17.99	74.62	8.84	
2025-01-17 21:41:18.19	74.65	8.84	
2025-01-17 21:41:18.39	74.69	8.84	
2025-01-17 21:41:18.60	74.72	8.84	
2025-01-17 21:41:18.80	74.76	8.84	
2025-01-17 21:41:19.00	74.79	8.84	
2025-01-17 21:41:19.21	74.83	8.84	
2025-01-17 21:41:19.41	74.86	8.84	
2025-01-17 21:41:19.61	74.90	8.84	
2025-01-17 21:41:19.81	74.93	8.84	
2025-01-17 21:41:20.02	74.97	8.84	
2025-01-17 21:41:20.22	75.00	8.83	
2025-01-17 21:41:20.42	75.04	8.83	
2025-01-17 21:41:20.63	75.07	8.83	
2025-01-17 21:41:20.83	75.11	8.83	
2025-01-17 21:41:21.03	75.14	8.83	
2025-01-17 21:41:21.24	75.18	8.83	
2025-01-17 21:41:21.44	75.21	8.83	
2025-01-17 21:41:21.64	75.25	8.83	
2025-01-17 21:41:21.84	75.28	8.83	
2025-01-17 21:41:22.05	75.32	8.83	
2025-01-17 21:41:22.25	75.35	8.83	
2025-01-17 21:41:22.45	75.38	8.83	
2025-01-17 21:41:22.66	75.42	8.83	
2025-01-17 21:41:22.86	75.45	8.83	
2025-01-17 21:41:23.06	75.49	8.83	
2025-01-17 21:41:23.27	75.53	8.83	
2025-01-17 21:41:23.47	75.56	8.83	
2025-01-17 21:41:23.67	75.59	8.83	
2025-01-17 21:41:23.87	75.63	8.83	
2025-01-17 21:41:24.08	75.66	8.83	
2025-01-17 21:41:24.28	75.70	8.83	
2025-01-17 21:41:24.48	75.73	8.82	
2025-01-17 21:41:24.69	75.77	8.82	
2025-01-17 21:41:24.89	75.80	8.82	
2025-01-17 21:41:25.09	75.84	8.82	
2025-01-17 21:41:25.30	75.87	8.82	
2025-01-17 21:41:25.50	75.91	8.82	
2025-01-17 21:41:25.70	75.94	8.82	
2025-01-17 21:41:25.90	75.98	8.82	
2025-01-17 21:41:26.11	76.01	8.82	
2025-01-17 21:41:26.31	76.05	8.82	
2025-01-17 21:41:26.51	76.08	8.82	
2025-01-17 21:41:26.72	76.12	8.82	
2025-01-17 21:41:26.92	76.15	8.82	
2025-01-17 21:41:27.12	76.19	8.82	
2025-01-17 21:41:27.33	76.22	8.82	
2025-01-17 21:41:27.53	76.26	8.82	
2025-01-17 21:41:27.73	76.29	8.81	
2025-01-17 21:41:27.93	76.33	8.81	
2025-01-17 21:41:28.14	76.36	8.81	
2025-01-17 21:41:28.34	76.40	8.81	
2025-01-17 21:41:28.54	76.43	8.81	
2025-01-17 21:41:28.75	76.47	8.81	
2025-01-17 21:41:28.95	76.50	8.81	
2025-01-17 21:41:29.15	76.54	8.81	
2025-01-17 21:41:29.35	76.57	8.81	
2025-01-17 21:41:29.56	76.61	8.81	
2025-01-17 21:41:29.76	76.64	8.81	
2025-01-17 21:41:29.96	76.68	8.81	
2025-01-17 21:41:30.17	76.71	8.81	
2025-01-17 21:41:30.37	76.75	8.80	
2025-01-17 21:41:30.57	76.78	8.80	
2025-01-17 21:41:30.78	76.82	8.80	
2025-01-17 21:41:30.98	76.85	8.80	
2025-01-17 21:41:31.18	76.89	8.80	
2025-01-17 21:41:31.38	76.92	8.80	
2025-01-17 21:41:31.59	76.96	8.80	
2025-01-17 21:41:31.79	76.99	8.80	
2025-01-17 21:41:31.99	77.02	8.80	
2025-01-17 21:41:32.20	77.06	8.80	
2025-01-17 21:41:32.40	77.09	8.80	
2025-01-17 21:41:32.60	77.13	8.79	
2025-01-17 21:41:32.81	77.17	8.79	
2025-01-17 21:41:33.01	77.20	8.79	
2025-01-17 21:41:33.21	77.23	8.79	
2025-01-17 21:41:33.41	77.27	8.79	
2025-01-17 21:41:33.62	77.30	8.79	
2025-01-17 21:41:33.82	77.34	8.79	
2025-01-17 21:41:34.02	77.37	8.79	
2025-01-17 21:41:34.23	77.41	8.79	
2025-01-17 21:41:34.43	77.44	8.79	
2025-01-17 21:41:34.63	77.48	8.78	
2025-01-17 21:41:34.84	77.51	8.78	
2025-01-17 21:41:35.04	77.55	8.78	
2025-01-17 21:41:35.24	77.58	8.78	
2025-01-17 21:41:35.44	77.62	8.78	
2025-01-17 21:41:35.65	77.65	8.78	
2025-01-17 21:41:35.85	77.69	8.78	
2025-01-17 21:41:36.05	77.72	8.78	
2025-01-17 21:41:36.26	77.76	8.78	
2025-01-17 21:41:36.46	77.79	8.77	
2025-01-17 21:41:36.66	77.83	8.77	
2025-01-17 21:41:36.87	77.86	8.77	
2025-01-17 21:41:37.07	77.90	8.77	
2025-01-17 21:41:37.27	77.93	8.77	
2025-01-17 21:41:37.47	77.96	8.77	
2025-01-17 21:41:37.68	78.00	8.77	
2025-01-17 21:41:37.88	78.04	8.77	
2025-01-17 21:41:38.08	78.07	8.77	
2025-01-17 21:41:38.29	78.11	8.76	
2025-01-17 21:41:38.49	78.14	8.76	
2025-01-17 21:41:38.69	78.17	8.76	
2025-01-17 21:41:38.89	78.21	8.76	
2025-01-17 21:41:39.10	78.24	8.76	
2025-01-17 21:41:39.30	78.28	8.76	
2025-01-17 21:41:39.50	78.31	8.76	
2025-01-17 21:41:39.71	78.35	8.76	
2025-01-17 21:41:39.91	78.38	8.75	
2025-01-17 21:41:40.11	78.42	8.75	
2025-01-17 21:41:40.32	78.45	8.75	
2025-01-17 21:41:40.52	78.49	8.75	
2025-01-17 21:41:40.72	78.52	8.75	
2025-01-17 21:41:40.92	78.56	8.75	
2025-01-17 21:41:41.13	78.59	8.75	
2025-01-17 21:41:41.33	78.63	8.75	
2025-01-17 21:41:41.53	78.66	8.74	
2025-01-17 21:41:41.74	78.70	8.74	
2025-01-17 21:41:41.94	78.73	8.74	
2025-01-17 21:41:42.14	78.76	8.74	
2025-01-17 21:41:42.35	78.80	8.74	
2025-01-17 21:41:42.55	78.83	8.74	
2025-01-17 21:41:42.75	78.87	8.74	
2025-01-17 21:41:42.95	78.90	8.73	
2025-01-17 21:41:43.16	78.94	8.73	
2025-01-17 21:41:43.36	78.97	8.73	
2025-01-17 21:41:43.56	79.01	8.73	
2025-01-17 21:41:43.77	79.04	8.73	
2025-01-17 21:41:43.97	79.08	8.73	
2025-01-17 21:41:44.17	79.11	8.73	
2025-01-17 21:41:44.38	79.15	8.72	
2025-01-17 21:41:44.58	79.18	8.72	
2025-01-17 21:41:44.78	79.22	8.72	
2025-01-17 21:41:44.98	79.25	8.72	
2025-01-17 21:41:45.19	79.29	8.72	
2025-01-17 21:41:45.39	79.32	8.72	
2025-01-17 21:41:45.59	79.35	8.72	
2025-01-17 21:41:45.80	79.39	8.71	
2025-01-17 21:41:46.00	79.42	8.71	
2025-01-17 21:41:46.20	79.46	8.71	
2025-01-17 21:41:46.41	79.49	8.71	
2025-01-17 21:41:46.61	79.53	8.71	
2025-01-17 21:41:46.81	79.56	8.71	
2025-01-17 21:41:47.01	79.60	8.70	
2025-01-17 21:41:47.22	79.63	8.70	
2025-01-17 21:41:47.42	79.67	8.70	
2025-01-17 21:41:47.62	79.70	8.70	
2025-01-17 21:41:47.83	79.74	8.70	
2025-01-17 21:41:48.03	79.77	8.70	
2025-01-17 21:41:48.23	79.81	8.69	
2025-01-17 21:41:48.44	79.84	8.69	
2025-01-17 21:41:48.64	79.88	8.69	
2025-01-17 21:41:48.84	79.91	8.69	
2025-01-17 21:41:49.04	79.94	8.69	
2025-01-17 21:41:49.25	79.98	8.69	
2025-01-17 21:41:49.45	80.01	8.68	
2025-01-17 21:41:49.65	80.05	8.68	
2025-01-17 21:41:49.86	80.08	8.68	
2025-01-17 21:41:50.06	80.12	8.68	
2025-01-17 21:41:50.26	80.15	8.68	
2025-01-17 21:41:50.46	80.19	8.68	
2025-01-17 21:41:50.67	80.22	8.67	
2025-01-17 21:41:50.87	80.26	8.67	
2025-01-17 21:41:51.07	80.29	8.67	
2025-01-17 21:41:51.28	80.33	8.67	
2025-01-17 21:41:51.48	80.36	8.67	
2025-01-17 21:41:51.68	80.39	8.67	
2025-01-17 21:41:51.89	80.43	8.66	
2025-01-17 21:41:52.09	80.46	8.66	
2025-01-17 21:41:52.29	80.50	8.66	
2025-01-17 21:41:52.49	80.53	8.66	
2025-01-17 21:41:52.70	80.57	8.66	
2025-01-17 21:41:52.90	80.60	8.65	
2025-01-17 21:41:53.10	80.63	8.65	
2025-01-17 21:41:53.31	80.67	8.65	
2025-01-17 21:41:53.51	80.70	8.65	
2025-01-17 21:41:53.71	80.74	8.65	
2025-01-17 21:41:53.92	80.77	8.65	
2025-01-17 21:41:54.12	80.81	8.64	
2025-01-17 21:41:54.32	80.84	8.64	
2025-01-17 21:41:54.52	80.88	8.64	
2025-01-17 21:41:54.73	80.91	8.64	
2025-01-17 21:41:54.93	80.95	8.64	
2025-01-17 21:41:55.13	80.98	8.63	
2025-01-17 21:41:55.34	81.02	8.63	
2025-01-17 21:41:55.54	81.05	8.63	
2025-01-17 21:41:55.74	81.08	8.63	
2025-01-17 21:41:55.95	81.12	8.63	
2025-01-17 21:41:56.15	81.15	8.62	
2025-01-17 21:41:56.35	81.19	8.62	
2025-01-17 21:41:56.55	81.22	8.62	
2025-01-17 21:41:56.76	81.26	8.62	
2025-01-17 21:41:56.96	81.29	8.62	
2025-01-17 21:41:57.16	81.32	8.61	
2025-01-17 21:41:57.37	81.36	8.61	
2025-01-17 21:41:57.57	81.39	8.61	
2025-01-17 21:41:57.77	81.43	8.61	
2025-01-17 21:41:57.98	81.46	8.61	
2025-01-17 21:41:58.18	81.50	8.60	
2025-01-17 21:41:58.38	81.53	8.60	
2025-01-17 21:41:58.58	81.57	8.60	
2025-01-17 21:41:58.79	81.60	8.60	
2025-01-17 21:41:58.99	81.64	8.60	
2025-01-17 21:41:59.19	81.67	8.59	
2025-01-17 21:41:59.40	81.70	8.59	
2025-01-17 21:41:59.60	81.74	8.59	
2025-01-17 21:41:59.80	81.77	8.59	
2025-01-17 21:42:00.00	81.81	8.58	
2025-01-17 21:42:00.21	81.84	8.58	
2025-01-17 21:42:00.41	81.88	8.58	
2025-01-17 21:42:00.61	81.91	8.58	
2025-01-17 21:42:00.82	81.95	8.58	
2025-01-17 21:42:01.02	81.98	8.57	
2025-01-17 21:42:01.22	82.01	8.57	
2025-01-17 21:42:01.43	82.05	8.57	
2025-01-17 21:42:01.63	82.08	8.57	
2025-01-17 21:42:01.83	82.12	8.57	
2025-01-17 21:42:02.03	82.15	8.56	
2025-01-17 21:42:02.24	82.19	8.56	
2025-01-17 21:42:02.44	82.22	8.56	
2025-01-17 21:42:02.64	82.25	8.56	
2025-01-17 21:42:02.85	82.29	8.55	
2025-01-17 21:42:03.05	82.32	8.55	
2025-01-17 21:42:03.25	82.36	8.55	
2025-01-17 21:42:03.46	82.39	8.55	
2025-01-17 21:42:03.66	82.43	8.54	
2025-01-17 21:42:03.86	82.46	8.54	
2025-01-17 21:42:04.06	82.49	8.54	
2025-01-17 21:42:04.27	82.53	8.54	
2025-01-17 21:42:04.47	82.56	8.54	
2025-01-17 21:42:04.67	82.60	8.53	
2025-01-17 21:42:04.88	82.63	8.53	
2025-01-17 21:42:05.08	82.67	8.53	
2025-01-17 21:42:05.28	82.70	8.53	
2025-01-17 21:42:05.49	82.73	8.52	
2025-01-17 21:42:05.69	82.77	8.52	
2025-01-17 21:42:05.89	82.80	8.52	
2025-01-17 21:42:06.09	82.84	8.52	
2025-01-17 21:42:06.30	82.87	8.51	
2025-01-17 21:42:06.50	82.90	8.51	
2025-01-17 21:42:06.70	82.94	8.51	
2025-01-17 21:42:06.91	82.97	8.51	
2025-01-17 21:42:07.11	83.01	8.50	
2025-01-17 21:42:07.31	83.04	8.50	
2025-01-17 21:42:07.52	83.08	8.50	
2025-01-17 21:42:07.72	83.11	8.50	
2025-01-17 21:42:07.92	83.14	8.49	
2025-01-17 21:42:08.12	83.18	8.49	
2025-01-17 21:42:08.33	83.21	8.49	
2025-01-17 21:42:08.53	83.25	8.49	
2025-01-17 21:42:08.73	83.28	8.48	
2025-01-17 21:42:08.94	83.32	8.48	
2025-01-17 21:42:09.14	83.35	8.48	
2025-01-17 21:42:09.34	83.38	8.48	
2025-01-17 21:42:09.54	83.42	8.47	
2025-01-17 21:42:09.75	83.45	8.47	
2025-01-17 21:42:09.95	83.49	8.47	
2025-01-17 21:42:10.15	83.52	8.47	
2025-01-17 21:42:10.36	83.55	8.46	
2025-01-17 21:42:10.56	83.59	8.46	
2025-01-17 21:42:10.76	83.62	8.46	
2025-01-17 21:42:10.97	83.66	8.46	
2025-01-17 21:42:11.17	83.69	8.45	
2025-01-17 21:42:11.37	83.72	8.45	
2025-01-17 21:42:11.57	83.76	8.45	
2025-01-17 21:42:11.78	83.79	8.45	
2025-01-17 21:42:11.98	83.83	8.44	
2025-01-17 21:42:12.18	83.86	8.44	
2025-01-17 21:42:12.39	83.90	8.44	
2025-01-17 21:42:12.59	83.93	8.44	
2025-01-17 21:42:12.79	83.96	8.43	
2025-01-17 21:42:13.00	84.00	8.43	
2025-01-17 21:42:13.20	84.03	8.43	
2025-01-17 21:42:13.40	84.07	8.42	
2025-01-17 21:42:13.60	84.10	8.42	
2025-01-17 21:42:13.81	84.13	8.42	
2025-01-17 21:42:14.01	84.17	8.42	
2025-01-17 21:42:14.21	84.20	8.41	
2025-01-17 21:42:14.42	84.24	8.41	
2025-01-17 21:42:14.62	84.27	8.41	
2025-01-17 21:42:14.82	84.30	8.41	
2025-01-17 21:42:15.03	84.34	8.40	
2025-01-17 21:42:15.23	84.37	8.40	
2025-01-17 21:42:15.43	84.41	8.40	
2025-01-17 21:42:15.63	84.44	8.39	
2025-01-17 21:42:15.84	84.47	8.39	
2025-01-17 21:42:16.04	84.51	8.39	
2025-01-17 21:42:16.24	84.54	8.39	
2025-01-17 21:42:16.45	84.58	8.38	
2025-01-17 21:42:16.65	84.61	8.38	
2025-01-17 21:42:16.85	84.64	8.38	
2025-01-17 21:42:17.06	84.68	8.37	
2025-01-17 21:42:17.26	84.71	8.37	
2025-01-17 21:42:17.46	84.74	8.37	
2025-01-17 21:42:17.66	84.78	8.37	
2025-01-17 21:42:17.87	84.81	8.36	
2025-01-17 21:42:18.07	84.85	8.36	
2025-01-17 21:42:18.27	84.88	8.36	
2025-01-17 21:42:18.48	84.91	8.35	
2025-01-17 21:42:18.68	84.95	8.35	
2025-01-17 21:42:18.88	84.98	8.35	
2025-01-17 21:42:19.08	85.01	8.34	
2025-01-17 21:42:19.29	85.05	8.34	
2025-01-17 21:42:19.49	85.08	8.34	
2025-01-17 21:42:19.69	85.12	8.34	
2025-01-17 21:42:19.90	85.15	8.33	
2025-01-17 21:42:20.10	85.18	8.33	
2025-01-17 21:42:20.30	85.22	8.33	
2025-01-17 21:42:20.51	85.25	8.32	
2025-01-17 21:42:20.71	85.29	8.32	
2025-01-17 21:42:20.91	85.32	8.32	
2025-01-17 21:42:21.11	85.35	8.32	
2025-01-17 21:42:21.32	85.39	8.31	
2025-01-17 21:42:21.52	85.42	8.31	
2025-01-17 21:42:21.72	85.45	8.31	
2025-01-17 21:42:21.93	85.49	8.30	
2025-01-17 21:42:22.13	85.52	8.30	
2025-01-17 21:42:22.33	85.56	8.30	
2025-01-17 21:42:22.54	85.59	8.29	
2025-01-17 21:42:22.74	85.62	8.29	
2025-01-17 21:42:22.94	85.66	8.29	
2025-01-17 21:42:23.14	85.69	8.28	
2025-01-17 21:42:23.35	85.73	8.28	
2025-01-17 21:42:23.55	85.76	8.28	
2025-01-17 21:42:23.75	85.79	8.27	
2025-01-17 21:42:23.96	85.83	8.27	
2025-01-17 21:42:24.16	85.86	8.27	
2025-01-17 21:42:24.38	85.90	8.27	
2025-01-17 21:42:24.58	85.93	8.26	
2025-01-17 21:42:24.78	85.96	8.26	
2025-01-17 21:42:24.99	86.00	8.26	
2025-01-17 21:42:25.19	86.03	8.25	
2025-01-17 21:42:25.39	86.06	8.25	
2025-01-17 21:42:25.60	86.10	8.25	
2025-01-17 21:42:25.80	86.13	8.24	
2025-01-17 21:42:26.00	86.17	8.24	
2025-01-17 21:42:26.20	86.20	8.24	
2025-01-17 21:42:26.41	86.23	8.23	
2025-01-17 21:42:26.61	86.27	8.23	
2025-01-17 21:42:26.81	86.30	8.23	
2025-01-17 21:42:27.02	86.33	8.22	
2025-01-17 21:42:27.22	86.37	8.22	
2025-01-17 21:42:27.42	86.40	8.22	
2025-01-17 21:42:27.63	86.43	8.21	
2025-01-17 21:42:27.83	86.47	8.21	
2025-01-17 21:42:28.03	86.50	8.21	
2025-01-17 21:42:28.23	86.53	8.20	
2025-01-17 21:42:28.44	86.57	8.20	
2025-01-17 21:42:28.64	86.60	8.20	
2025-01-17 21:42:28.84	86.63	8.19	
2025-01-17 21:42:29.05	86.67	8.19	
2025-01-17 21:42:29.25	86.70	8.19	
2025-01-17 21:42:29.45	86.74	8.18	
2025-01-17 21:42:29.66	86.77	8.18	
2025-01-17 21:42:29.86	86.80	8.18	
2025-01-17 21:42:30.06	86.84	8.17	
2025-01-17 21:42:30.26	86.87	8.17	
2025-01-17 21:42:30.47	86.90	8.17	
2025-01-17 21:42:30.67	86.94	8.16	
2025-01-17 21:42:30.87	86.97	8.16	
2025-01-17 21:42:31.08	87.00	8.16	
2025-01-17 21:42:31.28	87.04	8.15	
2025-01-17 21:42:31.48	87.07	8.15	
2025-01-17 21:42:31.69	87.10	8.15	
2025-01-17 21:42:31.89	87.14	8.14	
2025-01-17 21:42:32.09	87.17	8.14	
2025-01-17 21:42:32.29	87.20	8.14	
2025-01-17 21:42:32.50	87.24	8.13	
2025-01-17 21:42:32.70	87.27	8.13	
2025-01-17 21:42:32.90	87.30	8.13	
2025-01-17 21:42:33.11	87.34	8.12	
2025-01-17 21:42:33.31	87.37	8.12	
2025-01-17 21:42:33.51	87.40	8.11	
2025-01-17 21:42:33.72	87.44	8.11	
2025-01-17 21:42:33.92	87.47	8.11	
2025-01-17 21:42:34.12	87.50	8.10	
2025-01-17 21:42:34.32	87.54	8.10	
2025-01-17 21:42:34.53	87.57	8.10	
2025-01-17 21:42:34.73	87.60	8.09	
2025-01-17 21:42:34.93	87.64	8.09	
2025-01-17 21:42:35.14	87.67	8.09	
2025-01-17 21:42:35.34	87.70	8.08	
2025-01-17 21:42:35.54	87.74	8.08	
2025-01-17 21:42:35.74	87.77	8.08	
2025-01-17 21:42:35.95	87.80	8.07	
2025-01-17 21:42:36.15	87.84	8.07	
2025-01-17 21:42:36.35	87.87	8.06	
2025-01-17 21:42:36.56	87.90	8.06	
2025-01-17 21:42:36.76	87.94	8.06	
2025-01-17 21:42:36.96	87.97	8.05	
2025-01-17 21:42:37.17	88.00	8.05	
2025-01-17 21:42:37.37	88.04	8.05	
2025-01-17 21:42:37.57	88.07	8.04	
2025-01-17 21:42:37.77	88.10	8.04	
2025-01-17 21:42:37.98	88.14	8.04	
2025-01-17 21:42:38.18	88.17	8.03	
2025-01-17 21:42:38.38	88.20	8.03	
2025-01-17 21:42:38.59	88.24	8.02	
2025-01-17 21:42:38.79	88.27	8.02	
2025-01-17 21:42:38.99	88.30	8.02	
2025-01-17 21:42:39.20	88.34	8.01	
2025-01-17 21:42:39.40	88.37	8.01	
2025-01-17 21:42:39.60	88.40	8.01	
2025-01-17 21:42:39.80	88.43	8.00	
2025-01-17 21:42:40.01	88.47	8.00	
2025-01-17 21:42:40.21	88.50	7.99	
2025-01-17 21:42:40.41	88.53	7.99	
2025-01-17 21:42:40.62	88.57	7.99	
2025-01-17 21:42:40.82	88.60	7.98	
2025-01-17 21:42:41.02	88.63	7.98	
2025-01-17 21:42:41.23	88.67	7.98	
2025-01-17 21:42:41.43	88.70	7.97	
2025-01-17 21:42:41.63	88.73	7.97	
2025-01-17 21:42:41.83	88.76	7.96	
2025-01-17 21:42:42.04	88.80	7.96	
2025-01-17 21:42:42.24	88.83	7.96	
2025-01-17 21:42:42.44	88.86	7.95	
2025-01-17 21:42:42.65	88.90	7.95	
2025-01-17 21:42:42.85	88.93	7.94	
2025-01-17 21:42:43.05	88.96	7.94	
2025-01-17 21:42:43.26	89.00	7.94	
2025-01-17 21:42:43.46	89.03	7.93	
2025-01-17 21:42:43.66	89.06	7.93	
2025-01-17 21:42:43.86	89.09	7.93	
2025-01-17 21:42:44.07	89.13	7.92	
2025-01-17 21:42:44.27	89.16	7.92	
2025-01-17 21:42:44.47	89.19	7.91	
2025-01-17 21:42:44.68	89.23	7.91	
2025-01-17 21:42:44.88	89.26	7.91	
2025-01-17 21:42:45.08	89.29	7.90	
2025-01-17 21:42:45.28	89.32	7.90	
2025-01-17 21:42:45.49	89.36	7.89	
2025-01-17 21:42:45.69	89.39	7.89	
2025-01-17 21:42:45.89	89.42	7.89	
2025-01-17 21:42:46.10	89.46	7.88	
2025-01-17 21:42:46.30	89.49	7.88	
2025-01-17 21:42:46.50	89.52	7.87	
2025-01-17 21:42:46.71	89.56	7.87	
2025-01-17 21:42:46.91	89.59	7.87	
2025-01-17 21:42:47.11	89.62	7.86	
2025-01-17 21:42:47.31	89.65	7.86	
2025-01-17 21:42:47.52	89.69	7.85	
2025-01-17 21:42:47.72	89.72	7.85	
2025-01-17 21:42:47.92	89.75	7.85	
2025-01-17 21:42:48.13	89.78	7.84	
2025-01-17 21:42:48.33	89.82	7.84	
2025-01-17 21:42:48.53	89.85	7.83	
2025-01-17 21:42:48.74	89.88	7.83	
2025-01-17 21:42:48.94	89.92	7.83	
2025-01-17 21:42:49.14	89.95	7.82	
2025-01-17 21:42:49.34	89.98	7.82	
2025-01-17 21:42:49.55	90.01	7.81	
2025-01-17 21:42:49.75	90.05	7.81	
2025-01-17 21:42:49.95	90.08	7.80	
2025-01-17 21:42:50.16	90.11	7.80	
2025-01-17 21:42:50.36	90.14	7.80	
2025-01-17 21:42:50.56	90.18	7.79	
2025-01-17 21:42:50.77	90.21	7.79	
2025-01-17 21:42:50.97	90.24	7.78	
2025-01-17 21:42:51.17	90.27	7.78	
2025-01-17 21:42:51.37	90.31	7.78	
2025-01-17 21:42:51.58	90.34	7.77	
2025-01-17 21:42:51.78	90.37	7.77	
2025-01-17 21:42:51.98	90.40	7.76	
2025-01-17 21:42:52.19	90.44	7.76	
2025-01-17 21:42:52.39	90.47	7.75	
2025-01-17 21:42:52.59	90.50	7.75	
2025-01-17 21:42:52.80	90.54	7.75	
2025-01-17 21:42:53.00	90.57	7.74	
2025-01-17 21:42:53.20	90.60	7.74	
2025-01-17 21:42:53.40	90.63	7.73	
2025-01-17 21:42:53.61	90.67	7.73	
2025-01-17 21:42:53.81	90.70	7.72	
2025-01-17 21:42:54.01	90.73	7.72	
2025-01-17 21:42:54.22	90.76	7.72	
2025-01-17 21:42:54.42	90.80	7.71	
2025-01-17 21:42:54.62	90.83	7.71	
2025-01-17 21:42:54.83	90.86	7.70	
2025-01-17 21:42:55.03	90.89	7.70	
2025-01-17 21:42:55.23	90.93	7.69	
2025-01-17 21:42:55.43	90.96	7.69	
2025-01-17 21:42:55.64	90.99	7.69	
2025-01-17 21:42:55.84	91.02	7.68	
2025-01-17 21:42:56.04	91.05	7.68	
2025-01-17 21:42:56.25	91.09	7.67	
2025-01-17 21:42:56.45	91.12	7.67	
2025-01-17 21:42:56.65	91.15	7.66	
2025-01-17 21:42:56.85	91.18	7.66	
2025-01-17 21:42:57.06	91.22	7.66	
2025-01-17 21:42:57.26	91.25	7.65	
2025-01-17 21:42:57.46	91.28	7.65	
2025-01-17 21:42:57.67	91.31	7.64	
2025-01-17 21:42:57.87	91.35	7.64	
2025-01-17 21:42:58.07	91.38	7.63	
2025-01-17 21:42:58.28	91.41	7.63	
2025-01-17 21:42:58.48	91.44	7.62	
2025-01-17 21:42:58.68	91.48	7.62	
2025-01-17 21:42:58.88	91.51	7.62	
2025-01-17 21:42:59.09	91.54	7.61	
2025-01-17 21:42:59.29	91.57	7.61	
2025-01-17 21:42:59.49	91.60	7.60	
2025-01-17 21:42:59.70	91.64	7.60	
2025-01-17 21:42:59.90	91.67	7.59	
2025-01-17 21:43:00.10	91.70	7.59	
2025-01-17 21:43:00.31	91.73	7.58	
2025-01-17 21:43:00.51	91.77	7.58	
2025-01-17 21:43:00.71	91.80	7.58	
2025-01-17 21:43:00.91	91.83	7.57	
2025-01-17 21:43:01.12	91.86	7.57	
2025-01-17 21:43:01.32	91.89	7.56	
2025-01-17 21:43:01.52	91.93	7.56	
2025-01-17 21:43:01.73	91.96	7.55	
2025-01-17 21:43:01.93	91.99	7.55	
2025-01-17 21:43:02.13	92.02	7.54	
2025-01-17 21:43:02.34	92.06	7.54	
2025-01-17 21:43:02.54	92.09	7.53	
2025-01-17 21:43:02.74	92.12	7.53	
2025-01-17 21:43:02.94	92.15	7.53	
2025-01-17 21:43:03.15	92.18	7.52	
2025-01-17 21:43:03.35	92.22	7.52	
2025-01-17 21:43:03.55	92.25	7.51	
2025-01-17 21:43:03.76	92.28	7.51	
2025-01-17 21:43:03.96	92.31	7.50	
2025-01-17 21:43:04.16	92.34	7.50	
2025-01-17 21:43:04.37	92.38	7.49	
2025-01-17 21:43:04.57	92.41	7.49	
2025-01-17 21:43:04.77	92.44	7.48	
2025-01-17 21:43:04.97	92.47	7.48	
2025-01-17 21:43:05.18	92.50	7.47	
2025-01-17 21:43:05.38	92.54	7.47	
2025-01-17 21:43:05.58	92.57	7.47	
2025-01-17 21:43:05.79	92.60	7.46	
2025-01-17 21:43:05.99	92.63	7.46	
2025-01-17 21:43:06.19	92.66	7.45	
2025-01-17 21:43:06.39	92.69	7.45	
2025-01-17 21:43:06.60	92.73	7.44	
2025-01-17 21:43:06.80	92.76	7.44	
2025-01-17 21:43:07.00	92.79	7.43	
2025-01-17 21:43:07.21	92.82	7.43	
2025-01-17 21:43:07.41	92.85	7.42	
2025-01-17 21:43:07.61	92.89	7.42	
2025-01-17 21:43:07.82	92.92	7.41	
2025-01-17 21:43:08.02	92.95	7.41	
2025-01-17 21:43:08.22	92.98	7.40	
2025-01-17 21:43:08.42	93.01	7.40	
2025-01-17 21:43:08.63	93.05	7.39	
2025-01-17 21:43:08.83	93.08	7.39	
2025-01-17 21:43:09.03	93.11	7.39	
2025-01-17 21:43:09.24	93.14	7.38	
2025-01-17 21:43:09.44	93.17	7.38	
2025-01-17 21:43:09.64	93.20	7.37	
2025-01-17 21:43:09.85	93.24	7.37	
2025-01-17 21:43:10.05	93.27	7.36	
2025-01-17 21:43:10.25	93.30	7.36	
2025-01-17 21:43:10.45	93.33	7.35	
2025-01-17 21:43:10.66	93.36	7.35	
2025-01-17 21:43:10.86	93.39	7.34	
