passes_logs/2025/01/17/SPB_Silybum_02/SPB_Silybum_02__20250117_154325_TERRA_rec.log

#Pass ID: 20250117_154325_TERRA
#Satellite: TERRA
#Configuration: TERRA
#Start time: 2025-01-17 15:43:25

#Version: 2.0.20230423
#Station: SPB_Silybum_02
#Location: 30.233357 lon 59.946436 lat
#TLE: 1 25994U 99068A   25016.77398677  .00000840  00000+0  18282-3 0  9994
#TLE: 2 25994  98.0212  79.7479 0003409  69.0484  40.6664 14.60398530334334

#Time	Az	El	Level	Level2	SNR	BER	Gain	Gain2
2025-01-17 15:43:28.01	73.39	4.12	
2025-01-17 15:43:28.22	73.36	4.13	
2025-01-17 15:43:28.42	73.34	4.14	
2025-01-17 15:43:28.62	73.31	4.15	
2025-01-17 15:43:28.83	73.29	4.16	
2025-01-17 15:43:29.03	73.26	4.17	
2025-01-17 15:43:29.23	73.23	4.18	
2025-01-17 15:43:29.43	73.21	4.18	
2025-01-17 15:43:29.64	73.18	4.19	
2025-01-17 15:43:29.84	73.16	4.20	
2025-01-17 15:43:30.04	73.13	4.21	
2025-01-17 15:43:30.25	73.10	4.22	
2025-01-17 15:43:30.45	73.08	4.23	
2025-01-17 15:43:30.65	73.05	4.24	
2025-01-17 15:43:30.86	73.02	4.25	
2025-01-17 15:43:31.06	73.00	4.26	
2025-01-17 15:43:31.26	72.97	4.27	
2025-01-17 15:43:31.47	72.94	4.28	
2025-01-17 15:43:31.67	72.92	4.29	
2025-01-17 15:43:31.87	72.89	4.30	
2025-01-17 15:43:32.07	72.87	4.30	
2025-01-17 15:43:32.28	72.84	4.31	
2025-01-17 15:43:32.48	72.81	4.32	
2025-01-17 15:43:32.68	72.79	4.33	
2025-01-17 15:43:32.89	72.76	4.34	
2025-01-17 15:43:33.09	72.73	4.35	
2025-01-17 15:43:33.29	72.71	4.36	
2025-01-17 15:43:33.50	72.68	4.37	
2025-01-17 15:43:33.70	72.66	4.38	
2025-01-17 15:43:33.90	72.63	4.39	
2025-01-17 15:43:34.11	72.60	4.40	
2025-01-17 15:43:34.31	72.58	4.41	
2025-01-17 15:43:34.51	72.55	4.42	
2025-01-17 15:43:34.72	72.52	4.42	
2025-01-17 15:43:34.92	72.50	4.43	
2025-01-17 15:43:35.12	72.47	4.44	
2025-01-17 15:43:35.32	72.44	4.45	
2025-01-17 15:43:35.53	72.42	4.46	
2025-01-17 15:43:35.73	72.39	4.47	
2025-01-17 15:43:35.93	72.36	4.48	
2025-01-17 15:43:36.14	72.34	4.49	
2025-01-17 15:43:36.34	72.31	4.50	
2025-01-17 15:43:36.54	72.28	4.51	
2025-01-17 15:43:36.75	72.26	4.52	
2025-01-17 15:43:36.95	72.23	4.53	
2025-01-17 15:43:37.15	72.20	4.53	
2025-01-17 15:43:37.36	72.17	4.54	
2025-01-17 15:43:37.56	72.15	4.55	
2025-01-17 15:43:37.76	72.12	4.56	
2025-01-17 15:43:37.96	72.10	4.57	
2025-01-17 15:43:38.17	72.07	4.58	
2025-01-17 15:43:38.37	72.04	4.59	
2025-01-17 15:43:38.57	72.01	4.60	
2025-01-17 15:43:38.78	71.99	4.61	
2025-01-17 15:43:38.98	71.96	4.62	
2025-01-17 15:43:39.18	71.93	4.63	
2025-01-17 15:43:39.39	71.91	4.64	
2025-01-17 15:43:39.59	71.88	4.64	
2025-01-17 15:43:39.79	71.85	4.65	
2025-01-17 15:43:40.00	71.82	4.66	
2025-01-17 15:43:40.20	71.80	4.67	
2025-01-17 15:43:40.40	71.77	4.68	
2025-01-17 15:43:40.60	71.74	4.69	
2025-01-17 15:43:40.81	71.72	4.70	
2025-01-17 15:43:41.01	71.69	4.71	
2025-01-17 15:43:41.21	71.66	4.72	
2025-01-17 15:43:41.42	71.63	4.73	
2025-01-17 15:43:41.62	71.61	4.74	
2025-01-17 15:43:41.82	71.58	4.75	
2025-01-17 15:43:42.03	71.55	4.75	
2025-01-17 15:43:42.23	71.53	4.76	
2025-01-17 15:43:42.43	71.50	4.77	
2025-01-17 15:43:42.64	71.47	4.78	
2025-01-17 15:43:42.84	71.44	4.79	
2025-01-17 15:43:43.04	71.42	4.80	
2025-01-17 15:43:43.24	71.39	4.81	
2025-01-17 15:43:43.45	71.36	4.82	
2025-01-17 15:43:43.65	71.34	4.83	
2025-01-17 15:43:43.85	71.31	4.84	
2025-01-17 15:43:44.06	71.28	4.85	
2025-01-17 15:43:44.26	71.25	4.85	
2025-01-17 15:43:44.46	71.23	4.86	
2025-01-17 15:43:44.67	71.20	4.87	
2025-01-17 15:43:44.87	71.17	4.88	
2025-01-17 15:43:45.07	71.14	4.89	
2025-01-17 15:43:45.28	71.11	4.90	
2025-01-17 15:43:45.48	71.09	4.91	
2025-01-17 15:43:45.68	71.06	4.92	
2025-01-17 15:43:45.88	71.03	4.93	
2025-01-17 15:43:46.09	71.00	4.94	
2025-01-17 15:43:46.29	70.98	4.95	
2025-01-17 15:43:46.49	70.95	4.95	
2025-01-17 15:43:46.70	70.92	4.96	
2025-01-17 15:43:46.90	70.89	4.97	
2025-01-17 15:43:47.10	70.87	4.98	
2025-01-17 15:43:47.31	70.84	4.99	
2025-01-17 15:43:47.51	70.81	5.00	
2025-01-17 15:43:47.71	70.78	5.01	
2025-01-17 15:43:47.92	70.75	5.02	
2025-01-17 15:43:48.12	70.73	5.03	
2025-01-17 15:43:48.32	70.70	5.04	
2025-01-17 15:43:48.52	70.67	5.05	
2025-01-17 15:43:48.73	70.64	5.05	
2025-01-17 15:43:48.93	70.62	5.06	
2025-01-17 15:43:49.13	70.59	5.07	
2025-01-17 15:43:49.34	70.56	5.08	
2025-01-17 15:43:49.54	70.53	5.09	
2025-01-17 15:43:49.74	70.50	5.10	
2025-01-17 15:43:49.95	70.48	5.11	
2025-01-17 15:43:50.15	70.45	5.12	
2025-01-17 15:43:50.35	70.42	5.13	
2025-01-17 15:43:50.56	70.39	5.14	
2025-01-17 15:43:50.76	70.36	5.15	
2025-01-17 15:43:50.96	70.34	5.15	
2025-01-17 15:43:51.16	70.31	5.16	
2025-01-17 15:43:51.37	70.28	5.17	
2025-01-17 15:43:51.57	70.25	5.18	
2025-01-17 15:43:51.77	70.22	5.19	
2025-01-17 15:43:51.98	70.20	5.20	
2025-01-17 15:43:52.18	70.17	5.21	
2025-01-17 15:43:52.38	70.14	5.22	
2025-01-17 15:43:52.59	70.11	5.23	
2025-01-17 15:43:52.79	70.08	5.24	
2025-01-17 15:43:52.99	70.05	5.24	
2025-01-17 15:43:53.20	70.03	5.25	
2025-01-17 15:43:53.40	70.00	5.26	
2025-01-17 15:43:53.60	69.97	5.27	
2025-01-17 15:43:53.80	69.94	5.28	
2025-01-17 15:43:54.01	69.91	5.29	
2025-01-17 15:43:54.21	69.88	5.30	
2025-01-17 15:43:54.41	69.86	5.31	
2025-01-17 15:43:54.62	69.83	5.32	
2025-01-17 15:43:54.82	69.80	5.33	
2025-01-17 15:43:55.02	69.77	5.33	
2025-01-17 15:43:55.23	69.74	5.34	
2025-01-17 15:43:55.43	69.71	5.35	
2025-01-17 15:43:55.63	69.69	5.36	
2025-01-17 15:43:55.84	69.66	5.37	
2025-01-17 15:43:56.04	69.63	5.38	
2025-01-17 15:43:56.24	69.60	5.39	
2025-01-17 15:43:56.45	69.57	5.40	
2025-01-17 15:43:56.65	69.54	5.41	
2025-01-17 15:43:56.85	69.51	5.41	
2025-01-17 15:43:57.05	69.49	5.42	
2025-01-17 15:43:57.26	69.46	5.43	
2025-01-17 15:43:57.46	69.43	5.44	
2025-01-17 15:43:57.66	69.40	5.45	
2025-01-17 15:43:57.87	69.37	5.46	
2025-01-17 15:43:58.07	69.34	5.47	
2025-01-17 15:43:58.27	69.31	5.48	
2025-01-17 15:43:58.48	69.28	5.49	
2025-01-17 15:43:58.68	69.25	5.50	
2025-01-17 15:43:58.88	69.23	5.50	
2025-01-17 15:43:59.09	69.20	5.51	
2025-01-17 15:43:59.29	69.17	5.52	
2025-01-17 15:43:59.49	69.14	5.53	
2025-01-17 15:43:59.69	69.11	5.54	
2025-01-17 15:43:59.90	69.08	5.55	
2025-01-17 15:44:00.10	69.05	5.56	
2025-01-17 15:44:00.30	69.02	5.57	
2025-01-17 15:44:00.51	68.99	5.58	
2025-01-17 15:44:00.71	68.97	5.58	
2025-01-17 15:44:00.91	68.94	5.59	
2025-01-17 15:44:01.12	68.91	5.60	
2025-01-17 15:44:01.32	68.88	5.61	
2025-01-17 15:44:01.52	68.85	5.62	
2025-01-17 15:44:01.73	68.82	5.63	
2025-01-17 15:44:01.93	68.79	5.64	
2025-01-17 15:44:02.13	68.76	5.65	
2025-01-17 15:44:02.33	68.73	5.66	
2025-01-17 15:44:02.54	68.70	5.66	
2025-01-17 15:44:02.74	68.67	5.67	
2025-01-17 15:44:02.94	68.65	5.68	
2025-01-17 15:44:03.15	68.62	5.69	
2025-01-17 15:44:03.35	68.59	5.70	
2025-01-17 15:44:03.55	68.56	5.71	
2025-01-17 15:44:03.76	68.53	5.72	
2025-01-17 15:44:03.96	68.50	5.73	
2025-01-17 15:44:04.16	68.47	5.74	
2025-01-17 15:44:04.37	68.44	5.74	
2025-01-17 15:44:04.57	68.41	5.75	
2025-01-17 15:44:04.77	68.38	5.76	
2025-01-17 15:44:04.97	68.35	5.77	
2025-01-17 15:44:05.18	68.32	5.78	
2025-01-17 15:44:05.38	68.29	5.79	
2025-01-17 15:44:05.58	68.26	5.80	
2025-01-17 15:44:05.79	68.23	5.81	
2025-01-17 15:44:05.99	68.20	5.81	
2025-01-17 15:44:06.19	68.18	5.82	
2025-01-17 15:44:06.40	68.14	5.83	
2025-01-17 15:44:06.60	68.12	5.84	
2025-01-17 15:44:06.80	68.09	5.85	
2025-01-17 15:44:07.01	68.06	5.86	
2025-01-17 15:44:07.21	68.03	5.87	
2025-01-17 15:44:07.41	68.00	5.88	
2025-01-17 15:44:07.61	67.97	5.88	
2025-01-17 15:44:07.82	67.94	5.89	
2025-01-17 15:44:08.02	67.91	5.90	
2025-01-17 15:44:08.22	67.88	5.91	
2025-01-17 15:44:08.43	67.85	5.92	
2025-01-17 15:44:08.63	67.82	5.93	
2025-01-17 15:44:08.83	67.79	5.94	
2025-01-17 15:44:09.04	67.76	5.95	
2025-01-17 15:44:09.24	67.73	5.96	
2025-01-17 15:44:09.44	67.70	5.96	
2025-01-17 15:44:09.65	67.67	5.97	
2025-01-17 15:44:09.85	67.64	5.98	
2025-01-17 15:44:10.05	67.61	5.99	
2025-01-17 15:44:10.25	67.58	6.00	
2025-01-17 15:44:10.46	67.55	6.01	
2025-01-17 15:44:10.66	67.52	6.02	
2025-01-17 15:44:10.86	67.49	6.02	
2025-01-17 15:44:11.07	67.46	6.03	
2025-01-17 15:44:11.27	67.43	6.04	
2025-01-17 15:44:11.47	67.40	6.05	
2025-01-17 15:44:11.68	67.37	6.06	
2025-01-17 15:44:11.88	67.34	6.07	
2025-01-17 15:44:12.08	67.31	6.08	
2025-01-17 15:44:12.29	67.28	6.09	
2025-01-17 15:44:12.49	67.25	6.09	
2025-01-17 15:44:12.69	67.22	6.10	
2025-01-17 15:44:12.89	67.19	6.11	
2025-01-17 15:44:13.10	67.16	6.12	
2025-01-17 15:44:13.30	67.13	6.13	
2025-01-17 15:44:13.50	67.10	6.14	
2025-01-17 15:44:13.71	67.07	6.15	
2025-01-17 15:44:13.91	67.04	6.16	
2025-01-17 15:44:14.11	67.01	6.16	
2025-01-17 15:44:14.32	66.98	6.17	
2025-01-17 15:44:14.52	66.95	6.18	
2025-01-17 15:44:14.72	66.92	6.19	
2025-01-17 15:44:14.93	66.88	6.20	
2025-01-17 15:44:15.13	66.85	6.21	
2025-01-17 15:44:15.33	66.82	6.22	
2025-01-17 15:44:15.53	66.79	6.22	
2025-01-17 15:44:15.74	66.76	6.23	
2025-01-17 15:44:15.94	66.73	6.24	
2025-01-17 15:44:16.14	66.70	6.25	
2025-01-17 15:44:16.35	66.67	6.26	
2025-01-17 15:44:16.55	66.64	6.27	
2025-01-17 15:44:16.75	66.61	6.28	
2025-01-17 15:44:16.96	66.58	6.29	
2025-01-17 15:44:17.16	66.55	6.29	
2025-01-17 15:44:17.36	66.52	6.30	
2025-01-17 15:44:17.57	66.49	6.31	
2025-01-17 15:44:17.77	66.46	6.32	
2025-01-17 15:44:17.97	66.43	6.33	
2025-01-17 15:44:18.18	66.40	6.34	
2025-01-17 15:44:18.38	66.37	6.35	
2025-01-17 15:44:18.58	66.34	6.35	
2025-01-17 15:44:18.78	66.30	6.36	
2025-01-17 15:44:18.99	66.27	6.37	
2025-01-17 15:44:19.19	66.24	6.38	
2025-01-17 15:44:19.39	66.21	6.39	
2025-01-17 15:44:19.60	66.18	6.40	
2025-01-17 15:44:19.80	66.15	6.41	
2025-01-17 15:44:20.00	66.12	6.41	
2025-01-17 15:44:20.21	66.09	6.42	
2025-01-17 15:44:20.41	66.06	6.43	
2025-01-17 15:44:20.61	66.03	6.44	
2025-01-17 15:44:20.82	65.99	6.45	
2025-01-17 15:44:21.02	65.96	6.46	
2025-01-17 15:44:21.22	65.93	6.47	
2025-01-17 15:44:21.42	65.90	6.47	
2025-01-17 15:44:21.63	65.87	6.48	
2025-01-17 15:44:21.83	65.84	6.49	
2025-01-17 15:44:22.03	65.81	6.50	
2025-01-17 15:44:22.24	65.78	6.51	
2025-01-17 15:44:22.44	65.75	6.52	
2025-01-17 15:44:22.64	65.72	6.52	
2025-01-17 15:44:22.85	65.68	6.53	
2025-01-17 15:44:23.05	65.65	6.54	
2025-01-17 15:44:23.25	65.62	6.55	
2025-01-17 15:44:23.46	65.59	6.56	
2025-01-17 15:44:23.66	65.56	6.57	
2025-01-17 15:44:23.86	65.53	6.58	
2025-01-17 15:44:24.06	65.50	6.58	
2025-01-17 15:44:24.27	65.47	6.59	
2025-01-17 15:44:24.47	65.43	6.60	
2025-01-17 15:44:24.67	65.40	6.61	
2025-01-17 15:44:24.88	65.37	6.62	
2025-01-17 15:44:25.08	65.34	6.63	
2025-01-17 15:44:25.28	65.31	6.63	
2025-01-17 15:44:25.49	65.28	6.64	
2025-01-17 15:44:25.69	65.25	6.65	
2025-01-17 15:44:25.89	65.21	6.66	
2025-01-17 15:44:26.10	65.18	6.67	
2025-01-17 15:44:26.30	65.15	6.68	
2025-01-17 15:44:26.50	65.12	6.69	
2025-01-17 15:44:26.70	65.09	6.69	
2025-01-17 15:44:26.91	65.06	6.70	
2025-01-17 15:44:27.11	65.03	6.71	
2025-01-17 15:44:27.31	64.99	6.72	
2025-01-17 15:44:27.52	64.96	6.73	
2025-01-17 15:44:27.72	64.93	6.74	
2025-01-17 15:44:27.92	64.90	6.74	
2025-01-17 15:44:28.13	64.87	6.75	
2025-01-17 15:44:28.33	64.84	6.76	
2025-01-17 15:44:28.53	64.80	6.77	
2025-01-17 15:44:28.74	64.77	6.78	
2025-01-17 15:44:28.94	64.74	6.79	
2025-01-17 15:44:29.14	64.71	6.79	
2025-01-17 15:44:29.34	64.68	6.80	
2025-01-17 15:44:29.55	64.64	6.81	
2025-01-17 15:44:29.75	64.61	6.82	
2025-01-17 15:44:29.95	64.58	6.83	
2025-01-17 15:44:30.16	64.55	6.84	
2025-01-17 15:44:30.36	64.52	6.84	
2025-01-17 15:44:30.56	64.49	6.85	
2025-01-17 15:44:30.77	64.45	6.86	
2025-01-17 15:44:30.97	64.42	6.87	
2025-01-17 15:44:31.17	64.39	6.88	
2025-01-17 15:44:31.38	64.36	6.89	
2025-01-17 15:44:31.58	64.32	6.89	
2025-01-17 15:44:31.78	64.29	6.90	
2025-01-17 15:44:31.98	64.26	6.91	
2025-01-17 15:44:32.19	64.23	6.92	
2025-01-17 15:44:32.39	64.20	6.93	
2025-01-17 15:44:32.59	64.17	6.94	
2025-01-17 15:44:32.80	64.13	6.94	
2025-01-17 15:44:33.00	64.10	6.95	
2025-01-17 15:44:33.20	64.07	6.96	
2025-01-17 15:44:33.41	64.04	6.97	
2025-01-17 15:44:33.61	64.00	6.98	
2025-01-17 15:44:33.81	63.97	6.99	
2025-01-17 15:44:34.02	63.94	6.99	
2025-01-17 15:44:34.22	63.91	7.00	
2025-01-17 15:44:34.42	63.87	7.01	
2025-01-17 15:44:34.62	63.84	7.02	
2025-01-17 15:44:34.83	63.81	7.03	
2025-01-17 15:44:35.03	63.78	7.03	
2025-01-17 15:44:35.23	63.75	7.04	
2025-01-17 15:44:35.44	63.71	7.05	
2025-01-17 15:44:35.64	63.68	7.06	
2025-01-17 15:44:35.84	63.65	7.07	
2025-01-17 15:44:36.05	63.61	7.08	
2025-01-17 15:44:36.25	63.58	7.08	
2025-01-17 15:44:36.45	63.55	7.09	
2025-01-17 15:44:36.66	63.52	7.10	
2025-01-17 15:44:36.86	63.48	7.11	
2025-01-17 15:44:37.06	63.45	7.12	
2025-01-17 15:44:37.26	63.42	7.12	
2025-01-17 15:44:37.47	63.39	7.13	
2025-01-17 15:44:37.67	63.35	7.14	
2025-01-17 15:44:37.87	63.32	7.15	
2025-01-17 15:44:38.08	63.29	7.16	
2025-01-17 15:44:38.28	63.26	7.17	
2025-01-17 15:44:38.48	63.22	7.17	
2025-01-17 15:44:38.69	63.19	7.18	
2025-01-17 15:44:38.89	63.16	7.19	
2025-01-17 15:44:39.09	63.13	7.20	
2025-01-17 15:44:39.30	63.09	7.21	
2025-01-17 15:44:39.50	63.06	7.21	
2025-01-17 15:44:39.70	63.03	7.22	
2025-01-17 15:44:39.91	62.99	7.23	
2025-01-17 15:44:40.11	62.96	7.24	
2025-01-17 15:44:40.31	62.93	7.25	
2025-01-17 15:44:40.51	62.90	7.25	
2025-01-17 15:44:40.72	62.86	7.26	
2025-01-17 15:44:40.92	62.83	7.27	
2025-01-17 15:44:41.12	62.80	7.28	
2025-01-17 15:44:41.33	62.76	7.29	
2025-01-17 15:44:41.53	62.73	7.29	
2025-01-17 15:44:41.73	62.70	7.30	
2025-01-17 15:44:41.94	62.66	7.31	
2025-01-17 15:44:42.14	62.63	7.32	
2025-01-17 15:44:42.34	62.60	7.33	
2025-01-17 15:44:42.55	62.56	7.34	
2025-01-17 15:44:42.75	62.53	7.34	
2025-01-17 15:44:42.95	62.50	7.35	
2025-01-17 15:44:43.15	62.47	7.36	
2025-01-17 15:44:43.36	62.43	7.37	
2025-01-17 15:44:43.56	62.40	7.37	
2025-01-17 15:44:43.76	62.37	7.38	
2025-01-17 15:44:43.97	62.33	7.39	
2025-01-17 15:44:44.17	62.30	7.40	
2025-01-17 15:44:44.37	62.27	7.41	
2025-01-17 15:44:44.58	62.23	7.41	
2025-01-17 15:44:44.78	62.20	7.42	
2025-01-17 15:44:44.98	62.17	7.43	
2025-01-17 15:44:45.19	62.13	7.44	
2025-01-17 15:44:45.39	62.10	7.45	
2025-01-17 15:44:45.59	62.07	7.45	
2025-01-17 15:44:45.79	62.03	7.46	
2025-01-17 15:44:46.00	62.00	7.47	
2025-01-17 15:44:46.20	61.97	7.48	
2025-01-17 15:44:46.40	61.93	7.49	
2025-01-17 15:44:46.61	61.90	7.49	
2025-01-17 15:44:46.81	61.87	7.50	
2025-01-17 15:44:47.01	61.83	7.51	
2025-01-17 15:44:47.22	61.80	7.52	
2025-01-17 15:44:47.42	61.76	7.53	
2025-01-17 15:44:47.62	61.73	7.53	
2025-01-17 15:44:47.83	61.70	7.54	
2025-01-17 15:44:48.03	61.66	7.55	
2025-01-17 15:44:48.23	61.63	7.56	
2025-01-17 15:44:48.43	61.60	7.56	
2025-01-17 15:44:48.64	61.56	7.57	
2025-01-17 15:44:48.84	61.53	7.58	
2025-01-17 15:44:49.04	61.50	7.59	
2025-01-17 15:44:49.25	61.46	7.60	
2025-01-17 15:44:49.45	61.43	7.60	
2025-01-17 15:44:49.65	61.39	7.61	
2025-01-17 15:44:49.86	61.36	7.62	
2025-01-17 15:44:50.06	61.33	7.63	
2025-01-17 15:44:50.26	61.29	7.63	
2025-01-17 15:44:50.47	61.26	7.64	
2025-01-17 15:44:50.67	61.22	7.65	
2025-01-17 15:44:50.87	61.19	7.66	
2025-01-17 15:44:51.07	61.16	7.67	
2025-01-17 15:44:51.28	61.12	7.67	
2025-01-17 15:44:51.48	61.09	7.68	
2025-01-17 15:44:51.68	61.05	7.69	
2025-01-17 15:44:51.89	61.02	7.70	
2025-01-17 15:44:52.09	60.99	7.70	
2025-01-17 15:44:52.29	60.95	7.71	
2025-01-17 15:44:52.50	60.92	7.72	
2025-01-17 15:44:52.70	60.88	7.73	
2025-01-17 15:44:52.90	60.85	7.74	
2025-01-17 15:44:53.11	60.81	7.74	
2025-01-17 15:44:53.31	60.78	7.75	
2025-01-17 15:44:53.51	60.75	7.76	
2025-01-17 15:44:53.71	60.71	7.77	
2025-01-17 15:44:53.92	60.68	7.77	
2025-01-17 15:44:54.12	60.64	7.78	
2025-01-17 15:44:54.32	60.61	7.79	
2025-01-17 15:44:54.53	60.58	7.80	
2025-01-17 15:44:54.73	60.54	7.80	
2025-01-17 15:44:54.93	60.51	7.81	
2025-01-17 15:44:55.14	60.47	7.82	
2025-01-17 15:44:55.34	60.44	7.83	
2025-01-17 15:44:55.54	60.40	7.84	
2025-01-17 15:44:55.75	60.37	7.84	
2025-01-17 15:44:55.95	60.33	7.85	
2025-01-17 15:44:56.15	60.30	7.86	
2025-01-17 15:44:56.35	60.27	7.87	
2025-01-17 15:44:56.56	60.23	7.87	
2025-01-17 15:44:56.76	60.20	7.88	
2025-01-17 15:44:56.96	60.16	7.89	
2025-01-17 15:44:57.17	60.13	7.90	
2025-01-17 15:44:57.37	60.09	7.90	
2025-01-17 15:44:57.57	60.06	7.91	
2025-01-17 15:44:57.78	60.02	7.92	
2025-01-17 15:44:57.98	59.99	7.93	
2025-01-17 15:44:58.18	59.96	7.93	
2025-01-17 15:44:58.39	59.92	7.94	
2025-01-17 15:44:58.59	59.89	7.95	
2025-01-17 15:44:58.79	59.85	7.96	
2025-01-17 15:44:58.99	59.82	7.96	
2025-01-17 15:44:59.20	59.78	7.97	
2025-01-17 15:44:59.40	59.75	7.98	
2025-01-17 15:44:59.60	59.71	7.99	
2025-01-17 15:44:59.81	59.68	7.99	
2025-01-17 15:45:00.01	59.64	8.00	
2025-01-17 15:45:00.21	59.61	8.01	
2025-01-17 15:45:00.42	59.57	8.02	
2025-01-17 15:45:00.62	59.54	8.02	
2025-01-17 15:45:00.82	59.50	8.03	
2025-01-17 15:45:01.03	59.47	8.04	
2025-01-17 15:45:01.23	59.43	8.05	
2025-01-17 15:45:01.43	59.40	8.05	
2025-01-17 15:45:01.63	59.36	8.06	
2025-01-17 15:45:01.84	59.33	8.07	
2025-01-17 15:45:02.04	59.29	8.08	
2025-01-17 15:45:02.24	59.26	8.08	
2025-01-17 15:45:02.45	59.22	8.09	
2025-01-17 15:45:02.65	59.19	8.10	
2025-01-17 15:45:02.85	59.15	8.11	
2025-01-17 15:45:03.06	59.12	8.11	
2025-01-17 15:45:03.26	59.08	8.12	
2025-01-17 15:45:03.46	59.05	8.13	
2025-01-17 15:45:03.67	59.01	8.13	
2025-01-17 15:45:03.87	58.98	8.14	
2025-01-17 15:45:04.07	58.94	8.15	
2025-01-17 15:45:04.28	58.91	8.16	
2025-01-17 15:45:04.48	58.87	8.16	
2025-01-17 15:45:04.68	58.84	8.17	
2025-01-17 15:45:04.88	58.80	8.18	
2025-01-17 15:45:05.09	58.77	8.19	
2025-01-17 15:45:05.29	58.73	8.19	
2025-01-17 15:45:05.49	58.70	8.20	
2025-01-17 15:45:05.70	58.66	8.21	
2025-01-17 15:45:05.90	58.62	8.21	
2025-01-17 15:45:06.10	58.59	8.22	
2025-01-17 15:45:06.31	58.55	8.23	
2025-01-17 15:45:06.51	58.52	8.24	
2025-01-17 15:45:06.71	58.48	8.24	
2025-01-17 15:45:06.92	58.45	8.25	
2025-01-17 15:45:07.12	58.41	8.26	
2025-01-17 15:45:07.32	58.38	8.27	
2025-01-17 15:45:07.52	58.34	8.27	
2025-01-17 15:45:07.73	58.30	8.28	
2025-01-17 15:45:07.93	58.27	8.29	
2025-01-17 15:45:08.13	58.23	8.29	
2025-01-17 15:45:08.34	58.20	8.30	
2025-01-17 15:45:08.54	58.16	8.31	
2025-01-17 15:45:08.74	58.13	8.32	
2025-01-17 15:45:08.95	58.09	8.32	
2025-01-17 15:45:09.15	58.06	8.33	
2025-01-17 15:45:09.35	58.02	8.34	
2025-01-17 15:45:09.56	57.98	8.34	
2025-01-17 15:45:09.76	57.95	8.35	
2025-01-17 15:45:09.96	57.91	8.36	
2025-01-17 15:45:10.16	57.88	8.37	
2025-01-17 15:45:10.37	57.84	8.37	
2025-01-17 15:45:10.57	57.81	8.38	
2025-01-17 15:45:10.77	57.77	8.39	
2025-01-17 15:45:10.98	57.73	8.39	
2025-01-17 15:45:11.18	57.70	8.40	
2025-01-17 15:45:11.38	57.66	8.41	
2025-01-17 15:45:11.59	57.62	8.42	
2025-01-17 15:45:11.79	57.59	8.42	
2025-01-17 15:45:11.99	57.55	8.43	
2025-01-17 15:45:12.20	57.52	8.44	
2025-01-17 15:45:12.40	57.48	8.44	
2025-01-17 15:45:12.60	57.45	8.45	
2025-01-17 15:45:12.80	57.41	8.46	
2025-01-17 15:45:13.01	57.37	8.46	
2025-01-17 15:45:13.21	57.34	8.47	
2025-01-17 15:45:13.41	57.30	8.48	
2025-01-17 15:45:13.62	57.26	8.49	
2025-01-17 15:45:13.82	57.23	8.49	
2025-01-17 15:45:14.02	57.19	8.50	
2025-01-17 15:45:14.23	57.16	8.51	
2025-01-17 15:45:14.43	57.12	8.51	
2025-01-17 15:45:14.63	57.08	8.52	
2025-01-17 15:45:14.84	57.05	8.53	
2025-01-17 15:45:15.04	57.01	8.53	
2025-01-17 15:45:15.24	56.98	8.54	
2025-01-17 15:45:15.44	56.94	8.55	
2025-01-17 15:45:15.65	56.90	8.55	
2025-01-17 15:45:15.85	56.87	8.56	
2025-01-17 15:45:16.05	56.83	8.57	
2025-01-17 15:45:16.26	56.79	8.58	
2025-01-17 15:45:16.46	56.76	8.58	
2025-01-17 15:45:16.66	56.72	8.59	
2025-01-17 15:45:16.87	56.68	8.60	
2025-01-17 15:45:17.07	56.65	8.60	
2025-01-17 15:45:17.27	56.61	8.61	
2025-01-17 15:45:17.48	56.57	8.62	
2025-01-17 15:45:17.68	56.54	8.62	
2025-01-17 15:45:17.88	56.50	8.63	
2025-01-17 15:45:18.08	56.47	8.64	
2025-01-17 15:45:18.29	56.43	8.64	
2025-01-17 15:45:18.49	56.39	8.65	
2025-01-17 15:45:18.69	56.36	8.66	
2025-01-17 15:45:18.90	56.32	8.66	
2025-01-17 15:45:19.10	56.28	8.67	
2025-01-17 15:45:19.30	56.25	8.68	
2025-01-17 15:45:19.51	56.21	8.68	
2025-01-17 15:45:19.71	56.17	8.69	
2025-01-17 15:45:19.91	56.14	8.70	
2025-01-17 15:45:20.12	56.10	8.70	
2025-01-17 15:45:20.32	56.06	8.71	
2025-01-17 15:45:20.52	56.03	8.72	
2025-01-17 15:45:20.72	55.99	8.72	
2025-01-17 15:45:20.93	55.95	8.73	
2025-01-17 15:45:21.13	55.92	8.74	
2025-01-17 15:45:21.33	55.88	8.74	
2025-01-17 15:45:21.54	55.84	8.75	
2025-01-17 15:45:21.74	55.81	8.76	
2025-01-17 15:45:21.94	55.77	8.76	
2025-01-17 15:45:22.15	55.73	8.77	
2025-01-17 15:45:22.35	55.69	8.78	
2025-01-17 15:45:22.55	55.66	8.78	
2025-01-17 15:45:22.76	55.62	8.79	
2025-01-17 15:45:22.96	55.58	8.80	
2025-01-17 15:45:23.16	55.55	8.80	
2025-01-17 15:45:23.36	55.51	8.81	
2025-01-17 15:45:23.57	55.47	8.82	
2025-01-17 15:45:23.77	55.44	8.82	
2025-01-17 15:45:23.97	55.40	8.83	
2025-01-17 15:45:24.18	55.36	8.84	
2025-01-17 15:45:24.38	55.32	8.84	
2025-01-17 15:45:24.58	55.29	8.85	
2025-01-17 15:45:24.79	55.25	8.86	
2025-01-17 15:45:24.99	55.21	8.86	
2025-01-17 15:45:25.19	55.18	8.87	
2025-01-17 15:45:25.40	55.14	8.88	
2025-01-17 15:45:25.60	55.10	8.88	
2025-01-17 15:45:25.80	55.06	8.89	
2025-01-17 15:45:26.00	55.03	8.89	
2025-01-17 15:45:26.21	54.99	8.90	
2025-01-17 15:45:26.41	54.95	8.91	
2025-01-17 15:45:26.61	54.92	8.91	
2025-01-17 15:45:26.82	54.88	8.92	
2025-01-17 15:45:27.02	54.84	8.93	
2025-01-17 15:45:27.22	54.80	8.93	
2025-01-17 15:45:27.43	54.77	8.94	
2025-01-17 15:45:27.63	54.73	8.95	
2025-01-17 15:45:27.83	54.69	8.95	
2025-01-17 15:45:28.04	54.65	8.96	
2025-01-17 15:45:28.24	54.62	8.97	
2025-01-17 15:45:28.44	54.58	8.97	
2025-01-17 15:45:28.65	54.54	8.98	
2025-01-17 15:45:28.85	54.50	8.98	
2025-01-17 15:45:29.05	54.47	8.99	
2025-01-17 15:45:29.25	54.43	9.00	
2025-01-17 15:45:29.46	54.39	9.00	
2025-01-17 15:45:29.66	54.35	9.01	
2025-01-17 15:45:29.86	54.32	9.02	
2025-01-17 15:45:30.07	54.28	9.02	
2025-01-17 15:45:30.27	54.24	9.03	
2025-01-17 15:45:30.47	54.20	9.03	
2025-01-17 15:45:30.68	54.17	9.04	
2025-01-17 15:45:30.88	54.13	9.05	
2025-01-17 15:45:31.08	54.09	9.05	
2025-01-17 15:45:31.29	54.05	9.06	
2025-01-17 15:45:31.49	54.01	9.07	
2025-01-17 15:45:31.69	53.98	9.07	
2025-01-17 15:45:31.89	53.94	9.08	
2025-01-17 15:45:32.10	53.90	9.08	
2025-01-17 15:45:32.30	53.86	9.09	
2025-01-17 15:45:32.50	53.83	9.10	
2025-01-17 15:45:32.71	53.79	9.10	
2025-01-17 15:45:32.91	53.75	9.11	
2025-01-17 15:45:33.11	53.71	9.12	
2025-01-17 15:45:33.32	53.67	9.12	
2025-01-17 15:45:33.52	53.64	9.13	
2025-01-17 15:45:33.72	53.60	9.13	
2025-01-17 15:45:33.93	53.56	9.14	
2025-01-17 15:45:34.13	53.52	9.15	
2025-01-17 15:45:34.33	53.49	9.15	
2025-01-17 15:45:34.53	53.45	9.16	
2025-01-17 15:45:34.74	53.41	9.16	
2025-01-17 15:45:34.94	53.37	9.17	
2025-01-17 15:45:35.14	53.33	9.18	
2025-01-17 15:45:35.35	53.29	9.18	
2025-01-17 15:45:35.55	53.26	9.19	
2025-01-17 15:45:35.75	53.22	9.19	
2025-01-17 15:45:35.96	53.18	9.20	
2025-01-17 15:45:36.16	53.14	9.21	
2025-01-17 15:45:36.36	53.11	9.21	
2025-01-17 15:45:36.57	53.07	9.22	
2025-01-17 15:45:36.77	53.03	9.22	
2025-01-17 15:45:36.97	52.99	9.23	
2025-01-17 15:45:37.17	52.95	9.24	
2025-01-17 15:45:37.38	52.91	9.24	
2025-01-17 15:45:37.58	52.88	9.25	
2025-01-17 15:45:37.78	52.84	9.25	
2025-01-17 15:45:37.99	52.80	9.26	
2025-01-17 15:45:38.19	52.76	9.27	
2025-01-17 15:45:38.39	52.72	9.27	
2025-01-17 15:45:38.60	52.68	9.28	
2025-01-17 15:45:38.80	52.65	9.28	
2025-01-17 15:45:39.00	52.61	9.29	
2025-01-17 15:45:39.21	52.57	9.29	
2025-01-17 15:45:39.41	52.53	9.30	
2025-01-17 15:45:39.61	52.49	9.31	
2025-01-17 15:45:39.81	52.45	9.31	
2025-01-17 15:45:40.02	52.42	9.32	
2025-01-17 15:45:40.22	52.38	9.32	
2025-01-17 15:45:40.42	52.34	9.33	
2025-01-17 15:45:40.63	52.30	9.34	
2025-01-17 15:45:40.83	52.26	9.34	
2025-01-17 15:45:41.03	52.22	9.35	
2025-01-17 15:45:41.24	52.18	9.35	
2025-01-17 15:45:41.44	52.15	9.36	
2025-01-17 15:45:41.64	52.11	9.36	
2025-01-17 15:45:41.85	52.07	9.37	
2025-01-17 15:45:42.05	52.03	9.38	
2025-01-17 15:45:42.25	51.99	9.38	
2025-01-17 15:45:42.45	51.95	9.39	
2025-01-17 15:45:42.66	51.91	9.39	
2025-01-17 15:45:42.86	51.88	9.40	
2025-01-17 15:45:43.06	51.84	9.40	
2025-01-17 15:45:43.27	51.80	9.41	
2025-01-17 15:45:43.47	51.76	9.42	
2025-01-17 15:45:43.67	51.72	9.42	
2025-01-17 15:45:43.88	51.68	9.43	
2025-01-17 15:45:44.08	51.64	9.43	
2025-01-17 15:45:44.28	51.61	9.44	
2025-01-17 15:45:44.49	51.57	9.44	
2025-01-17 15:45:44.69	51.53	9.45	
2025-01-17 15:45:44.89	51.49	9.45	
2025-01-17 15:45:45.09	51.45	9.46	
2025-01-17 15:45:45.30	51.41	9.47	
2025-01-17 15:45:45.50	51.37	9.47	
2025-01-17 15:45:45.70	51.33	9.48	
2025-01-17 15:45:45.91	51.29	9.48	
2025-01-17 15:45:46.11	51.25	9.49	
2025-01-17 15:45:46.31	51.22	9.49	
2025-01-17 15:45:46.52	51.18	9.50	
2025-01-17 15:45:46.72	51.14	9.50	
2025-01-17 15:45:46.92	51.10	9.51	
2025-01-17 15:45:47.13	51.06	9.51	
2025-01-17 15:45:47.33	51.02	9.52	
2025-01-17 15:45:47.53	50.98	9.53	
2025-01-17 15:45:47.73	50.94	9.53	
2025-01-17 15:45:47.94	50.90	9.54	
2025-01-17 15:45:48.14	50.87	9.54	
2025-01-17 15:45:48.34	50.83	9.55	
2025-01-17 15:45:48.55	50.79	9.55	
2025-01-17 15:45:48.75	50.75	9.56	
2025-01-17 15:45:48.95	50.71	9.56	
2025-01-17 15:45:49.16	50.67	9.57	
2025-01-17 15:45:49.36	50.63	9.57	
2025-01-17 15:45:49.56	50.59	9.58	
2025-01-17 15:45:49.77	50.55	9.58	
2025-01-17 15:45:49.97	50.51	9.59	
2025-01-17 15:45:50.17	50.47	9.59	
2025-01-17 15:45:50.38	50.43	9.60	
2025-01-17 15:45:50.58	50.39	9.61	
2025-01-17 15:45:50.78	50.36	9.61	
2025-01-17 15:45:50.98	50.32	9.62	
2025-01-17 15:45:51.19	50.28	9.62	
2025-01-17 15:45:51.39	50.24	9.63	
2025-01-17 15:45:51.59	50.20	9.63	
2025-01-17 15:45:51.80	50.16	9.64	
2025-01-17 15:45:52.00	50.12	9.64	
2025-01-17 15:45:52.20	50.08	9.65	
2025-01-17 15:45:52.41	50.04	9.65	
2025-01-17 15:45:52.61	50.00	9.66	
2025-01-17 15:45:52.81	49.96	9.66	
2025-01-17 15:45:53.02	49.92	9.67	
2025-01-17 15:45:53.22	49.88	9.67	
2025-01-17 15:45:53.42	49.84	9.68	
2025-01-17 15:45:53.62	49.80	9.68	
2025-01-17 15:45:53.83	49.76	9.69	
2025-01-17 15:45:54.03	49.73	9.69	
2025-01-17 15:45:54.23	49.69	9.70	
2025-01-17 15:45:54.44	49.65	9.70	
2025-01-17 15:45:54.64	49.61	9.71	
2025-01-17 15:45:54.84	49.57	9.71	
2025-01-17 15:45:55.05	49.53	9.72	
2025-01-17 15:45:55.25	49.49	9.72	
2025-01-17 15:45:55.45	49.45	9.73	
2025-01-17 15:45:55.66	49.41	9.73	
2025-01-17 15:45:55.86	49.37	9.74	
2025-01-17 15:45:56.06	49.33	9.74	
2025-01-17 15:45:56.26	49.29	9.75	
2025-01-17 15:45:56.47	49.25	9.75	
2025-01-17 15:45:56.67	49.21	9.76	
2025-01-17 15:45:56.87	49.17	9.76	
2025-01-17 15:45:57.08	49.13	9.77	
2025-01-17 15:45:57.28	49.09	9.77	
2025-01-17 15:45:57.48	49.05	9.78	
2025-01-17 15:45:57.69	49.01	9.78	
2025-01-17 15:45:57.89	48.97	9.79	
2025-01-17 15:45:58.09	48.93	9.79	
2025-01-17 15:45:58.30	48.89	9.80	
2025-01-17 15:45:58.50	48.85	9.80	
2025-01-17 15:45:58.70	48.81	9.81	
2025-01-17 15:45:58.90	48.77	9.81	
2025-01-17 15:45:59.11	48.73	9.82	
2025-01-17 15:45:59.31	48.69	9.82	
2025-01-17 15:45:59.51	48.65	9.83	
2025-01-17 15:45:59.72	48.61	9.83	
2025-01-17 15:45:59.92	48.57	9.84	
2025-01-17 15:46:00.12	48.53	9.84	
2025-01-17 15:46:00.33	48.49	9.84	
2025-01-17 15:46:00.53	48.45	9.85	
2025-01-17 15:46:00.73	48.41	9.85	
2025-01-17 15:46:00.94	48.37	9.86	
2025-01-17 15:46:01.14	48.33	9.86	
2025-01-17 15:46:01.34	48.29	9.87	
2025-01-17 15:46:01.54	48.25	9.87	
2025-01-17 15:46:01.75	48.21	9.88	
2025-01-17 15:46:01.95	48.17	9.88	
2025-01-17 15:46:02.15	48.13	9.89	
2025-01-17 15:46:02.36	48.09	9.89	
2025-01-17 15:46:02.56	48.05	9.90	
2025-01-17 15:46:02.76	48.01	9.90	
2025-01-17 15:46:02.97	47.97	9.90	
2025-01-17 15:46:03.17	47.93	9.91	
2025-01-17 15:46:03.37	47.89	9.91	
2025-01-17 15:46:03.58	47.85	9.92	
2025-01-17 15:46:03.78	47.81	9.92	
2025-01-17 15:46:03.98	47.77	9.93	
2025-01-17 15:46:04.18	47.73	9.93	
2025-01-17 15:46:04.39	47.69	9.94	
2025-01-17 15:46:04.59	47.65	9.94	
2025-01-17 15:46:04.79	47.61	9.95	
2025-01-17 15:46:05.00	47.57	9.95	
2025-01-17 15:46:05.20	47.53	9.95	
2025-01-17 15:46:05.40	47.49	9.96	
2025-01-17 15:46:05.61	47.45	9.96	
2025-01-17 15:46:05.81	47.41	9.97	
2025-01-17 15:46:06.01	47.37	9.97	
2025-01-17 15:46:06.22	47.33	9.98	
2025-01-17 15:46:06.42	47.29	9.98	
2025-01-17 15:46:06.62	47.25	9.98	
2025-01-17 15:46:06.82	47.21	9.99	
2025-01-17 15:46:07.03	47.17	9.99	
2025-01-17 15:46:07.23	47.13	10.00	
2025-01-17 15:46:07.43	47.09	10.00	
2025-01-17 15:46:07.64	47.04	10.01	
2025-01-17 15:46:07.84	47.00	10.01	
2025-01-17 15:46:08.04	46.96	10.02	
2025-01-17 15:46:08.25	46.92	10.02	
2025-01-17 15:46:08.45	46.88	10.02	
2025-01-17 15:46:08.65	46.84	10.03	
2025-01-17 15:46:08.86	46.80	10.03	
2025-01-17 15:46:09.06	46.76	10.04	
2025-01-17 15:46:09.26	46.72	10.04	
2025-01-17 15:46:09.46	46.68	10.04	
2025-01-17 15:46:09.67	46.64	10.05	
2025-01-17 15:46:09.87	46.60	10.05	
2025-01-17 15:46:10.07	46.56	10.06	
2025-01-17 15:46:10.28	46.52	10.06	
2025-01-17 15:46:10.48	46.48	10.07	
2025-01-17 15:46:10.68	46.44	10.07	
2025-01-17 15:46:10.89	46.40	10.07	
2025-01-17 15:46:11.09	46.36	10.08	
2025-01-17 15:46:11.29	46.32	10.08	
2025-01-17 15:46:11.50	46.27	10.09	
2025-01-17 15:46:11.70	46.23	10.09	
2025-01-17 15:46:11.90	46.19	10.09	
2025-01-17 15:46:12.11	46.15	10.10	
2025-01-17 15:46:12.31	46.11	10.10	
2025-01-17 15:46:12.51	46.07	10.11	
2025-01-17 15:46:12.71	46.03	10.11	
2025-01-17 15:46:12.92	45.99	10.11	
2025-01-17 15:46:13.12	45.95	10.12	
2025-01-17 15:46:13.32	45.91	10.12	
2025-01-17 15:46:13.53	45.87	10.13	
2025-01-17 15:46:13.73	45.83	10.13	
2025-01-17 15:46:13.93	45.79	10.13	
2025-01-17 15:46:14.14	45.74	10.14	
2025-01-17 15:46:14.34	45.70	10.14	
2025-01-17 15:46:14.54	45.66	10.15	
2025-01-17 15:46:14.75	45.62	10.15	
2025-01-17 15:46:14.95	45.58	10.15	
2025-01-17 15:46:15.15	45.54	10.16	
2025-01-17 15:46:15.35	45.50	10.16	
2025-01-17 15:46:15.56	45.46	10.16	
2025-01-17 15:46:15.76	45.42	10.17	
2025-01-17 15:46:15.96	45.38	10.17	
2025-01-17 15:46:16.17	45.33	10.18	
2025-01-17 15:46:16.37	45.29	10.18	
2025-01-17 15:46:16.57	45.25	10.18	
2025-01-17 15:46:16.78	45.21	10.19	
2025-01-17 15:46:16.98	45.17	10.19	
2025-01-17 15:46:17.18	45.13	10.19	
2025-01-17 15:46:17.39	45.09	10.20	
2025-01-17 15:46:17.59	45.05	10.20	
2025-01-17 15:46:17.79	45.01	10.21	
2025-01-17 15:46:17.99	44.97	10.21	
2025-01-17 15:46:18.20	44.92	10.21	
2025-01-17 15:46:18.40	44.88	10.22	
2025-01-17 15:46:18.60	44.84	10.22	
2025-01-17 15:46:18.81	44.80	10.22	
2025-01-17 15:46:19.01	44.76	10.23	
2025-01-17 15:46:19.21	44.72	10.23	
2025-01-17 15:46:19.42	44.68	10.23	
2025-01-17 15:46:19.62	44.64	10.24	
2025-01-17 15:46:19.82	44.60	10.24	
2025-01-17 15:46:20.03	44.55	10.25	
2025-01-17 15:46:20.23	44.51	10.25	
2025-01-17 15:46:20.43	44.47	10.25	
2025-01-17 15:46:20.63	44.43	10.26	
2025-01-17 15:46:20.84	44.39	10.26	
2025-01-17 15:46:21.04	44.35	10.26	
2025-01-17 15:46:21.24	44.31	10.27	
2025-01-17 15:46:21.45	44.27	10.27	
2025-01-17 15:46:21.65	44.22	10.27	
2025-01-17 15:46:21.85	44.18	10.28	
2025-01-17 15:46:22.06	44.14	10.28	
2025-01-17 15:46:22.26	44.10	10.28	
2025-01-17 15:46:22.46	44.06	10.29	
2025-01-17 15:46:22.67	44.02	10.29	
2025-01-17 15:46:22.87	43.98	10.29	
2025-01-17 15:46:23.07	43.94	10.30	
2025-01-17 15:46:23.27	43.90	10.30	
2025-01-17 15:46:23.48	43.85	10.30	
2025-01-17 15:46:23.68	43.81	10.31	
2025-01-17 15:46:23.88	43.77	10.31	
2025-01-17 15:46:24.09	43.73	10.31	
2025-01-17 15:46:24.29	43.69	10.32	
2025-01-17 15:46:24.49	43.65	10.32	
2025-01-17 15:46:24.70	43.60	10.32	
2025-01-17 15:46:24.90	43.56	10.33	
2025-01-17 15:46:25.10	43.52	10.33	
2025-01-17 15:46:25.31	43.48	10.33	
2025-01-17 15:46:25.51	43.44	10.34	
2025-01-17 15:46:25.71	43.40	10.34	
2025-01-17 15:46:25.91	43.36	10.34	
2025-01-17 15:46:26.12	43.31	10.34	
2025-01-17 15:46:26.32	43.27	10.35	
2025-01-17 15:46:26.52	43.23	10.35	
2025-01-17 15:46:26.73	43.19	10.35	
2025-01-17 15:46:26.93	43.15	10.36	
2025-01-17 15:46:27.13	43.11	10.36	
2025-01-17 15:46:27.34	43.06	10.36	
2025-01-17 15:46:27.54	43.02	10.37	
2025-01-17 15:46:27.74	42.98	10.37	
2025-01-17 15:46:27.95	42.94	10.37	
2025-01-17 15:46:28.15	42.90	10.38	
2025-01-17 15:46:28.35	42.86	10.38	
2025-01-17 15:46:28.55	42.82	10.38	
2025-01-17 15:46:28.76	42.77	10.38	
2025-01-17 15:46:28.96	42.73	10.39	
2025-01-17 15:46:29.16	42.69	10.39	
2025-01-17 15:46:29.37	42.65	10.39	
2025-01-17 15:46:29.57	42.61	10.40	
2025-01-17 15:46:29.77	42.57	10.40	
2025-01-17 15:46:29.98	42.52	10.40	
2025-01-17 15:46:30.18	42.48	10.40	
2025-01-17 15:46:30.38	42.44	10.41	
2025-01-17 15:46:30.59	42.40	10.41	
2025-01-17 15:46:30.79	42.36	10.41	
2025-01-17 15:46:30.99	42.32	10.42	
2025-01-17 15:46:31.19	42.28	10.42	
2025-01-17 15:46:31.40	42.23	10.42	
2025-01-17 15:46:31.60	42.19	10.42	
2025-01-17 15:46:31.80	42.15	10.43	
2025-01-17 15:46:32.01	42.11	10.43	
2025-01-17 15:46:32.21	42.07	10.43	
2025-01-17 15:46:32.41	42.02	10.44	
2025-01-17 15:46:32.62	41.98	10.44	
2025-01-17 15:46:32.82	41.94	10.44	
2025-01-17 15:46:33.02	41.90	10.44	
2025-01-17 15:46:33.23	41.86	10.45	
2025-01-17 15:46:33.43	41.82	10.45	
2025-01-17 15:46:33.63	41.77	10.45	
2025-01-17 15:46:33.84	41.73	10.45	
2025-01-17 15:46:34.04	41.69	10.46	
2025-01-17 15:46:34.24	41.65	10.46	
2025-01-17 15:46:34.44	41.61	10.46	
2025-01-17 15:46:34.65	41.56	10.46	
2025-01-17 15:46:34.85	41.52	10.47	
2025-01-17 15:46:35.05	41.48	10.47	
2025-01-17 15:46:35.26	41.44	10.47	
2025-01-17 15:46:35.46	41.40	10.47	
2025-01-17 15:46:35.66	41.36	10.48	
2025-01-17 15:46:35.87	41.31	10.48	
2025-01-17 15:46:36.07	41.27	10.48	
2025-01-17 15:46:36.27	41.23	10.48	
2025-01-17 15:46:36.48	41.19	10.49	
2025-01-17 15:46:36.68	41.15	10.49	
2025-01-17 15:46:36.88	41.10	10.49	
2025-01-17 15:46:37.08	41.06	10.49	
2025-01-17 15:46:37.29	41.02	10.50	
2025-01-17 15:46:37.49	40.98	10.50	
2025-01-17 15:46:37.69	40.94	10.50	
2025-01-17 15:46:37.90	40.89	10.50	
2025-01-17 15:46:38.10	40.85	10.51	
2025-01-17 15:46:38.30	40.81	10.51	
2025-01-17 15:46:38.51	40.77	10.51	
2025-01-17 15:46:38.71	40.73	10.51	
2025-01-17 15:46:38.91	40.68	10.52	
2025-01-17 15:46:39.12	40.64	10.52	
2025-01-17 15:46:39.32	40.60	10.52	
2025-01-17 15:46:39.52	40.56	10.52	
2025-01-17 15:46:39.72	40.52	10.52	
2025-01-17 15:46:39.93	40.47	10.53	
2025-01-17 15:46:40.13	40.43	10.53	
2025-01-17 15:46:40.33	40.39	10.53	
2025-01-17 15:46:40.54	40.35	10.53	
2025-01-17 15:46:40.74	40.31	10.54	
2025-01-17 15:46:40.94	40.26	10.54	
2025-01-17 15:46:41.15	40.22	10.54	
2025-01-17 15:46:41.35	40.18	10.54	
2025-01-17 15:46:41.55	40.14	10.54	
2025-01-17 15:46:41.76	40.09	10.55	
2025-01-17 15:46:41.96	40.05	10.55	
2025-01-17 15:46:42.16	40.01	10.55	
2025-01-17 15:46:42.36	39.97	10.55	
2025-01-17 15:46:42.57	39.93	10.55	
2025-01-17 15:46:42.77	39.88	10.56	
2025-01-17 15:46:42.97	39.84	10.56	
2025-01-17 15:46:43.18	39.80	10.56	
2025-01-17 15:46:43.38	39.76	10.56	
2025-01-17 15:46:43.58	39.72	10.56	
2025-01-17 15:46:43.79	39.67	10.57	
2025-01-17 15:46:43.99	39.63	10.57	
2025-01-17 15:46:44.19	39.59	10.57	
2025-01-17 15:46:44.40	39.55	10.57	
2025-01-17 15:46:44.60	39.50	10.57	
2025-01-17 15:46:44.80	39.46	10.58	
2025-01-17 15:46:45.00	39.42	10.58	
2025-01-17 15:46:45.21	39.38	10.58	
2025-01-17 15:46:45.41	39.34	10.58	
2025-01-17 15:46:45.61	39.30	10.58	
2025-01-17 15:46:45.82	39.25	10.59	
2025-01-17 15:46:46.02	39.21	10.59	
2025-01-17 15:46:46.22	39.17	10.59	
2025-01-17 15:46:46.43	39.12	10.59	
2025-01-17 15:46:46.63	39.08	10.59	
2025-01-17 15:46:46.83	39.04	10.59	
2025-01-17 15:46:47.04	39.00	10.60	
2025-01-17 15:46:47.24	38.96	10.60	
2025-01-17 15:46:47.44	38.91	10.60	
2025-01-17 15:46:47.64	38.87	10.60	
2025-01-17 15:46:47.85	38.83	10.60	
2025-01-17 15:46:48.05	38.79	10.60	
2025-01-17 15:46:48.25	38.75	10.61	
2025-01-17 15:46:48.46	38.70	10.61	
2025-01-17 15:46:48.66	38.66	10.61	
2025-01-17 15:46:48.86	38.62	10.61	
2025-01-17 15:46:49.07	38.58	10.61	
2025-01-17 15:46:49.27	38.53	10.61	
2025-01-17 15:46:49.47	38.49	10.62	
2025-01-17 15:46:49.68	38.45	10.62	
2025-01-17 15:46:49.88	38.41	10.62	
2025-01-17 15:46:50.08	38.36	10.62	
2025-01-17 15:46:50.28	38.32	10.62	
2025-01-17 15:46:50.49	38.28	10.62	
2025-01-17 15:46:50.69	38.24	10.63	
2025-01-17 15:46:50.89	38.20	10.63	
2025-01-17 15:46:51.10	38.15	10.63	
2025-01-17 15:46:51.30	38.11	10.63	
2025-01-17 15:46:51.50	38.07	10.63	
2025-01-17 15:46:51.71	38.02	10.63	
2025-01-17 15:46:51.91	37.98	10.63	
2025-01-17 15:46:52.11	37.94	10.64	
2025-01-17 15:46:52.32	37.90	10.64	
2025-01-17 15:46:52.52	37.86	10.64	
2025-01-17 15:46:52.72	37.81	10.64	
2025-01-17 15:46:52.92	37.77	10.64	
2025-01-17 15:46:53.13	37.73	10.64	
2025-01-17 15:46:53.33	37.69	10.64	
2025-01-17 15:46:53.53	37.65	10.64	
2025-01-17 15:46:53.74	37.60	10.65	
2025-01-17 15:46:53.94	37.56	10.65	
2025-01-17 15:46:54.14	37.52	10.65	
2025-01-17 15:46:54.35	37.47	10.65	
2025-01-17 15:46:54.55	37.43	10.65	
2025-01-17 15:46:54.75	37.39	10.65	
2025-01-17 15:46:54.96	37.35	10.65	
2025-01-17 15:46:55.16	37.30	10.65	
2025-01-17 15:46:55.36	37.26	10.66	
2025-01-17 15:46:55.56	37.22	10.66	
2025-01-17 15:46:55.77	37.18	10.66	
2025-01-17 15:46:55.97	37.14	10.66	
2025-01-17 15:46:56.17	37.09	10.66	
2025-01-17 15:46:56.38	37.05	10.66	
2025-01-17 15:46:56.58	37.01	10.66	
2025-01-17 15:46:56.78	36.97	10.66	
2025-01-17 15:46:56.99	36.92	10.66	
2025-01-17 15:46:57.19	36.88	10.67	
2025-01-17 15:46:57.39	36.84	10.67	
2025-01-17 15:46:57.60	36.79	10.67	
2025-01-17 15:46:57.80	36.75	10.67	
2025-01-17 15:46:58.00	36.71	10.67	
2025-01-17 15:46:58.21	36.67	10.67	
2025-01-17 15:46:58.41	36.63	10.67	
2025-01-17 15:46:58.61	36.58	10.67	
2025-01-17 15:46:58.81	36.54	10.67	
2025-01-17 15:46:59.02	36.50	10.67	
2025-01-17 15:46:59.22	36.46	10.67	
2025-01-17 15:46:59.42	36.41	10.68	
2025-01-17 15:46:59.63	36.37	10.68	
2025-01-17 15:46:59.83	36.33	10.68	
2025-01-17 15:47:00.03	36.29	10.68	
2025-01-17 15:47:00.24	36.24	10.68	
2025-01-17 15:47:00.44	36.20	10.68	
2025-01-17 15:47:00.64	36.16	10.68	
2025-01-17 15:47:00.85	36.11	10.68	
2025-01-17 15:47:01.05	36.07	10.68	
2025-01-17 15:47:01.25	36.03	10.68	
2025-01-17 15:47:01.45	35.99	10.68	
2025-01-17 15:47:01.66	35.95	10.68	
2025-01-17 15:47:01.86	35.90	10.68	
2025-01-17 15:47:02.06	35.86	10.69	
2025-01-17 15:47:02.27	35.82	10.69	
2025-01-17 15:47:02.47	35.78	10.69	
2025-01-17 15:47:02.67	35.73	10.69	
2025-01-17 15:47:02.88	35.69	10.69	
2025-01-17 15:47:03.08	35.65	10.69	
2025-01-17 15:47:03.28	35.61	10.69	
2025-01-17 15:47:03.49	35.56	10.69	
2025-01-17 15:47:03.69	35.52	10.69	
2025-01-17 15:47:03.89	35.48	10.69	
2025-01-17 15:47:04.09	35.44	10.69	
2025-01-17 15:47:04.30	35.39	10.69	
2025-01-17 15:47:04.50	35.35	10.69	
2025-01-17 15:47:04.70	35.31	10.69	
2025-01-17 15:47:04.92	35.26	10.69	
2025-01-17 15:47:05.13	35.22	10.69	
2025-01-17 15:47:05.33	35.18	10.69	
2025-01-17 15:47:05.53	35.13	10.70	
2025-01-17 15:47:05.73	35.09	10.70	
2025-01-17 15:47:05.94	35.05	10.70	
2025-01-17 15:47:06.14	35.01	10.70	
2025-01-17 15:47:06.34	34.96	10.70	
2025-01-17 15:47:06.55	34.92	10.70	
2025-01-17 15:47:06.75	34.88	10.70	
2025-01-17 15:47:06.95	34.84	10.70	
2025-01-17 15:47:07.16	34.79	10.70	
2025-01-17 15:47:07.36	34.75	10.70	
2025-01-17 15:47:07.56	34.71	10.70	
2025-01-17 15:47:07.77	34.67	10.70	
2025-01-17 15:47:07.97	34.62	10.70	
2025-01-17 15:47:08.17	34.58	10.70	
2025-01-17 15:47:08.37	34.54	10.70	
2025-01-17 15:47:08.58	34.50	10.70	
2025-01-17 15:47:08.78	34.45	10.70	
2025-01-17 15:47:08.98	34.41	10.70	
2025-01-17 15:47:09.19	34.37	10.70	
2025-01-17 15:47:09.39	34.33	10.70	
2025-01-17 15:47:09.59	34.28	10.70	
2025-01-17 15:47:09.80	34.24	10.70	
2025-01-17 15:47:10.00	34.20	10.70	
2025-01-17 15:47:10.20	34.16	10.70	
2025-01-17 15:47:10.41	34.11	10.70	
2025-01-17 15:47:10.61	34.07	10.70	
2025-01-17 15:47:10.81	34.03	10.70	
2025-01-17 15:47:11.01	33.99	10.70	
2025-01-17 15:47:11.22	33.94	10.70	
2025-01-17 15:47:11.42	33.90	10.70	
2025-01-17 15:47:11.62	33.86	10.70	
2025-01-17 15:47:11.83	33.81	10.70	
2025-01-17 15:47:12.03	33.77	10.70	
2025-01-17 15:47:12.23	33.73	10.70	
2025-01-17 15:47:12.44	33.69	10.70	
2025-01-17 15:47:12.64	33.64	10.70	
2025-01-17 15:47:12.84	33.60	10.70	
2025-01-17 15:47:13.05	33.56	10.70	
2025-01-17 15:47:13.25	33.52	10.70	
2025-01-17 15:47:13.45	33.47	10.70	
2025-01-17 15:47:13.66	33.43	10.70	
2025-01-17 15:47:13.86	33.39	10.70	
2025-01-17 15:47:14.06	33.35	10.70	
2025-01-17 15:47:14.26	33.31	10.70	
2025-01-17 15:47:14.47	33.26	10.70	
2025-01-17 15:47:14.67	33.22	10.70	
2025-01-17 15:47:14.87	33.18	10.70	
2025-01-17 15:47:15.08	33.13	10.70	
2025-01-17 15:47:15.28	33.09	10.70	
2025-01-17 15:47:15.48	33.05	10.70	
2025-01-17 15:47:15.69	33.01	10.70	
2025-01-17 15:47:15.89	32.96	10.70	
2025-01-17 15:47:16.09	32.92	10.70	
2025-01-17 15:47:16.30	32.88	10.70	
2025-01-17 15:47:16.50	32.84	10.70	
2025-01-17 15:47:16.70	32.79	10.70	
2025-01-17 15:47:16.90	32.75	10.70	
2025-01-17 15:47:17.11	32.71	10.70	
2025-01-17 15:47:17.31	32.67	10.70	
2025-01-17 15:47:17.51	32.62	10.70	
2025-01-17 15:47:17.72	32.58	10.70	
2025-01-17 15:47:17.92	32.54	10.69	
2025-01-17 15:47:18.12	32.50	10.69	
2025-01-17 15:47:18.33	32.45	10.69	
2025-01-17 15:47:18.53	32.41	10.69	
2025-01-17 15:47:18.73	32.37	10.69	
2025-01-17 15:47:18.94	32.32	10.69	
2025-01-17 15:47:19.14	32.28	10.69	
2025-01-17 15:47:19.34	32.24	10.69	
2025-01-17 15:47:19.54	32.20	10.69	
2025-01-17 15:47:19.75	32.15	10.69	
2025-01-17 15:47:19.95	32.11	10.69	
2025-01-17 15:47:20.15	32.07	10.69	
2025-01-17 15:47:20.36	32.03	10.69	
2025-01-17 15:47:20.56	31.99	10.69	
2025-01-17 15:47:20.76	31.94	10.69	
2025-01-17 15:47:20.97	31.90	10.69	
2025-01-17 15:47:21.17	31.86	10.69	
2025-01-17 15:47:21.37	31.82	10.69	
2025-01-17 15:47:21.58	31.77	10.68	
2025-01-17 15:47:21.78	31.73	10.68	
2025-01-17 15:47:21.98	31.69	10.68	
2025-01-17 15:47:22.18	31.65	10.68	
2025-01-17 15:47:22.39	31.60	10.68	
2025-01-17 15:47:22.59	31.56	10.68	
2025-01-17 15:47:22.79	31.52	10.68	
2025-01-17 15:47:23.00	31.47	10.68	
2025-01-17 15:47:23.20	31.43	10.68	
2025-01-17 15:47:23.40	31.39	10.68	
2025-01-17 15:47:23.61	31.35	10.68	
2025-01-17 15:47:23.81	31.31	10.68	
2025-01-17 15:47:24.01	31.26	10.68	
2025-01-17 15:47:24.22	31.22	10.67	
2025-01-17 15:47:24.42	31.18	10.67	
2025-01-17 15:47:24.62	31.14	10.67	
2025-01-17 15:47:24.82	31.09	10.67	
2025-01-17 15:47:25.03	31.05	10.67	
2025-01-17 15:47:25.23	31.01	10.67	
2025-01-17 15:47:25.43	30.97	10.67	
2025-01-17 15:47:25.64	30.92	10.67	
2025-01-17 15:47:25.84	30.88	10.67	
2025-01-17 15:47:26.04	30.84	10.67	
2025-01-17 15:47:26.25	30.80	10.66	
2025-01-17 15:47:26.45	30.75	10.66	
2025-01-17 15:47:26.65	30.71	10.66	
2025-01-17 15:47:26.86	30.67	10.66	
2025-01-17 15:47:27.06	30.63	10.66	
2025-01-17 15:47:27.26	30.58	10.66	
2025-01-17 15:47:27.46	30.54	10.66	
2025-01-17 15:47:27.67	30.50	10.66	
2025-01-17 15:47:27.87	30.46	10.66	
2025-01-17 15:47:28.07	30.41	10.66	
2025-01-17 15:47:28.28	30.37	10.65	
2025-01-17 15:47:28.48	30.33	10.65	
2025-01-17 15:47:28.68	30.29	10.65	
2025-01-17 15:47:28.89	30.24	10.65	
2025-01-17 15:47:29.09	30.20	10.65	
2025-01-17 15:47:29.29	30.16	10.65	
2025-01-17 15:47:29.50	30.12	10.65	
2025-01-17 15:47:29.70	30.07	10.65	
2025-01-17 15:47:29.90	30.03	10.64	
2025-01-17 15:47:30.10	29.99	10.64	
2025-01-17 15:47:30.31	29.95	10.64	
2025-01-17 15:47:30.51	29.91	10.64	
2025-01-17 15:47:30.71	29.86	10.64	
2025-01-17 15:47:30.92	29.82	10.64	
2025-01-17 15:47:31.12	29.78	10.64	
2025-01-17 15:47:31.32	29.74	10.63	
2025-01-17 15:47:31.53	29.69	10.63	
2025-01-17 15:47:31.73	29.65	10.63	
2025-01-17 15:47:31.93	29.61	10.63	
2025-01-17 15:47:32.14	29.57	10.63	
2025-01-17 15:47:32.34	29.52	10.63	
2025-01-17 15:47:32.54	29.48	10.63	
2025-01-17 15:47:32.74	29.44	10.62	
2025-01-17 15:47:32.95	29.40	10.62	
2025-01-17 15:47:33.15	29.36	10.62	
2025-01-17 15:47:33.35	29.31	10.62	
2025-01-17 15:47:33.56	29.27	10.62	
2025-01-17 15:47:33.76	29.23	10.62	
2025-01-17 15:47:33.96	29.19	10.62	
2025-01-17 15:47:34.17	29.14	10.61	
2025-01-17 15:47:34.37	29.10	10.61	
2025-01-17 15:47:34.57	29.06	10.61	
2025-01-17 15:47:34.78	29.02	10.61	
2025-01-17 15:47:34.98	28.97	10.61	
2025-01-17 15:47:35.18	28.93	10.61	
2025-01-17 15:47:35.39	28.89	10.60	
2025-01-17 15:47:35.59	28.85	10.60	
2025-01-17 15:47:35.79	28.81	10.60	
2025-01-17 15:47:35.99	28.76	10.60	
2025-01-17 15:47:36.20	28.72	10.60	
2025-01-17 15:47:36.40	28.68	10.60	
2025-01-17 15:47:36.60	28.64	10.59	
2025-01-17 15:47:36.81	28.59	10.59	
2025-01-17 15:47:37.01	28.55	10.59	
2025-01-17 15:47:37.21	28.51	10.59	
2025-01-17 15:47:37.42	28.47	10.59	
2025-01-17 15:47:37.62	28.43	10.59	
2025-01-17 15:47:37.82	28.38	10.58	
2025-01-17 15:47:38.03	28.34	10.58	
2025-01-17 15:47:38.23	28.30	10.58	
2025-01-17 15:47:38.43	28.26	10.58	
2025-01-17 15:47:38.63	28.22	10.58	
2025-01-17 15:47:38.84	28.17	10.57	
2025-01-17 15:47:39.04	28.13	10.57	
2025-01-17 15:47:39.24	28.09	10.57	
2025-01-17 15:47:39.45	28.05	10.57	
2025-01-17 15:47:39.65	28.00	10.57	
2025-01-17 15:47:39.85	27.96	10.56	
2025-01-17 15:47:40.06	27.92	10.56	
2025-01-17 15:47:40.26	27.88	10.56	
2025-01-17 15:47:40.46	27.84	10.56	
2025-01-17 15:47:40.67	27.79	10.56	
2025-01-17 15:47:40.87	27.75	10.55	
2025-01-17 15:47:41.07	27.71	10.55	
2025-01-17 15:47:41.27	27.67	10.55	
2025-01-17 15:47:41.48	27.63	10.55	
2025-01-17 15:47:41.68	27.58	10.55	
2025-01-17 15:47:41.88	27.54	10.54	
2025-01-17 15:47:42.09	27.50	10.54	
2025-01-17 15:47:42.29	27.46	10.54	
2025-01-17 15:47:42.49	27.42	10.54	
2025-01-17 15:47:42.70	27.37	10.54	
2025-01-17 15:47:42.90	27.33	10.53	
2025-01-17 15:47:43.10	27.29	10.53	
2025-01-17 15:47:43.31	27.25	10.53	
2025-01-17 15:47:43.51	27.20	10.53	
2025-01-17 15:47:43.71	27.16	10.52	
2025-01-17 15:47:43.91	27.12	10.52	
2025-01-17 15:47:44.12	27.08	10.52	
2025-01-17 15:47:44.32	27.04	10.52	
2025-01-17 15:47:44.52	27.00	10.52	
2025-01-17 15:47:44.73	26.95	10.51	
2025-01-17 15:47:44.93	26.91	10.51	
2025-01-17 15:47:45.13	26.87	10.51	
2025-01-17 15:47:45.34	26.83	10.51	
2025-01-17 15:47:45.54	26.79	10.50	
2025-01-17 15:47:45.74	26.74	10.50	
2025-01-17 15:47:45.95	26.70	10.50	
2025-01-17 15:47:46.15	26.66	10.50	
2025-01-17 15:47:46.35	26.62	10.49	
2025-01-17 15:47:46.55	26.58	10.49	
2025-01-17 15:47:46.76	26.53	10.49	
2025-01-17 15:47:46.96	26.49	10.49	
2025-01-17 15:47:47.16	26.45	10.48	
2025-01-17 15:47:47.37	26.41	10.48	
2025-01-17 15:47:47.57	26.37	10.48	
2025-01-17 15:47:47.77	26.33	10.48	
2025-01-17 15:47:47.98	26.28	10.47	
2025-01-17 15:47:48.18	26.24	10.47	
2025-01-17 15:47:48.38	26.20	10.47	
2025-01-17 15:47:48.59	26.16	10.47	
2025-01-17 15:47:48.79	26.12	10.46	
2025-01-17 15:47:48.99	26.07	10.46	
2025-01-17 15:47:49.19	26.03	10.46	
2025-01-17 15:47:49.40	25.99	10.46	
2025-01-17 15:47:49.60	25.95	10.45	
2025-01-17 15:47:49.80	25.91	10.45	
2025-01-17 15:47:50.01	25.86	10.45	
2025-01-17 15:47:50.21	25.82	10.45	
2025-01-17 15:47:50.41	25.78	10.44	
2025-01-17 15:47:50.62	25.74	10.44	
2025-01-17 15:47:50.82	25.70	10.44	
2025-01-17 15:47:51.02	25.66	10.44	
2025-01-17 15:47:51.23	25.61	10.43	
2025-01-17 15:47:51.43	25.57	10.43	
2025-01-17 15:47:51.63	25.53	10.43	
2025-01-17 15:47:51.83	25.49	10.42	
2025-01-17 15:47:52.04	25.45	10.42	
2025-01-17 15:47:52.24	25.41	10.42	
2025-01-17 15:47:52.44	25.37	10.42	
2025-01-17 15:47:52.65	25.32	10.41	
2025-01-17 15:47:52.85	25.28	10.41	
2025-01-17 15:47:53.05	25.24	10.41	
2025-01-17 15:47:53.26	25.20	10.40	
2025-01-17 15:47:53.46	25.16	10.40	
2025-01-17 15:47:53.66	25.12	10.40	
2025-01-17 15:47:53.87	25.07	10.40	
2025-01-17 15:47:54.07	25.03	10.39	
2025-01-17 15:47:54.27	24.99	10.39	
2025-01-17 15:47:54.47	24.95	10.39	
2025-01-17 15:47:54.68	24.91	10.38	
2025-01-17 15:47:54.88	24.87	10.38	
2025-01-17 15:47:55.08	24.83	10.38	
2025-01-17 15:47:55.29	24.78	10.37	
2025-01-17 15:47:55.49	24.74	10.37	
2025-01-17 15:47:55.69	24.70	10.37	
2025-01-17 15:47:55.90	24.66	10.37	
2025-01-17 15:47:56.10	24.62	10.36	
2025-01-17 15:47:56.30	24.58	10.36	
2025-01-17 15:47:56.51	24.53	10.36	
2025-01-17 15:47:56.71	24.49	10.35	
2025-01-17 15:47:56.91	24.45	10.35	
2025-01-17 15:47:57.12	24.41	10.35	
2025-01-17 15:47:57.32	24.37	10.34	
2025-01-17 15:47:57.52	24.33	10.34	
2025-01-17 15:47:57.72	24.29	10.34	
2025-01-17 15:47:57.93	24.24	10.33	
2025-01-17 15:47:58.13	24.20	10.33	
2025-01-17 15:47:58.33	24.16	10.33	
2025-01-17 15:47:58.54	24.12	10.33	
2025-01-17 15:47:58.74	24.08	10.32	
2025-01-17 15:47:58.94	24.04	10.32	
2025-01-17 15:47:59.15	24.00	10.32	
2025-01-17 15:47:59.35	23.95	10.31	
2025-01-17 15:47:59.55	23.91	10.31	
2025-01-17 15:47:59.76	23.87	10.31	
2025-01-17 15:47:59.96	23.83	10.30	
2025-01-17 15:48:00.16	23.79	10.30	
2025-01-17 15:48:00.36	23.75	10.30	
2025-01-17 15:48:00.57	23.71	10.29	
2025-01-17 15:48:00.77	23.67	10.29	
2025-01-17 15:48:00.97	23.63	10.29	
2025-01-17 15:48:01.18	23.58	10.28	
2025-01-17 15:48:01.38	23.54	10.28	
2025-01-17 15:48:01.58	23.50	10.28	
2025-01-17 15:48:01.79	23.46	10.27	
2025-01-17 15:48:01.99	23.42	10.27	
2025-01-17 15:48:02.19	23.38	10.27	
2025-01-17 15:48:02.40	23.33	10.26	
2025-01-17 15:48:02.60	23.29	10.26	
2025-01-17 15:48:02.80	23.25	10.25	
2025-01-17 15:48:03.00	23.21	10.25	
2025-01-17 15:48:03.21	23.17	10.25	
2025-01-17 15:48:03.41	23.13	10.24	
2025-01-17 15:48:03.61	23.09	10.24	
2025-01-17 15:48:03.82	23.05	10.24	
2025-01-17 15:48:04.02	23.01	10.23	
2025-01-17 15:48:04.22	22.97	10.23	
2025-01-17 15:48:04.43	22.92	10.23	
2025-01-17 15:48:04.63	22.88	10.22	
2025-01-17 15:48:04.83	22.84	10.22	
2025-01-17 15:48:05.04	22.80	10.22	
2025-01-17 15:48:05.24	22.76	10.21	
2025-01-17 15:48:05.44	22.72	10.21	
2025-01-17 15:48:05.64	22.68	10.20	
2025-01-17 15:48:05.85	22.64	10.20	
2025-01-17 15:48:06.05	22.60	10.20	
2025-01-17 15:48:06.25	22.56	10.19	
2025-01-17 15:48:06.46	22.51	10.19	
2025-01-17 15:48:06.66	22.47	10.19	
2025-01-17 15:48:06.86	22.43	10.18	
2025-01-17 15:48:07.07	22.39	10.18	
2025-01-17 15:48:07.27	22.35	10.18	
2025-01-17 15:48:07.47	22.31	10.17	
2025-01-17 15:48:07.68	22.27	10.17	
2025-01-17 15:48:07.88	22.23	10.16	
2025-01-17 15:48:08.08	22.19	10.16	
2025-01-17 15:48:08.28	22.15	10.16	
2025-01-17 15:48:08.49	22.11	10.15	
2025-01-17 15:48:08.69	22.07	10.15	
2025-01-17 15:48:08.89	22.03	10.14	
2025-01-17 15:48:09.10	21.98	10.14	
2025-01-17 15:48:09.30	21.94	10.14	
2025-01-17 15:48:09.50	21.90	10.13	
2025-01-17 15:48:09.71	21.86	10.13	
2025-01-17 15:48:09.91	21.82	10.13	
2025-01-17 15:48:10.11	21.78	10.12	
2025-01-17 15:48:10.32	21.74	10.12	
2025-01-17 15:48:10.52	21.70	10.11	
2025-01-17 15:48:10.72	21.66	10.11	
2025-01-17 15:48:10.92	21.62	10.11	
2025-01-17 15:48:11.13	21.58	10.10	
2025-01-17 15:48:11.33	21.54	10.10	
2025-01-17 15:48:11.53	21.50	10.09	
2025-01-17 15:48:11.74	21.45	10.09	
2025-01-17 15:48:11.94	21.41	10.09	
2025-01-17 15:48:12.14	21.37	10.08	
2025-01-17 15:48:12.35	21.33	10.08	
2025-01-17 15:48:12.55	21.29	10.07	
2025-01-17 15:48:12.75	21.25	10.07	
2025-01-17 15:48:12.96	21.21	10.06	
2025-01-17 15:48:13.16	21.17	10.06	
2025-01-17 15:48:13.36	21.13	10.06	
2025-01-17 15:48:13.56	21.09	10.05	
2025-01-17 15:48:13.77	21.05	10.05	
2025-01-17 15:48:13.97	21.01	10.04	
2025-01-17 15:48:14.17	20.97	10.04	
2025-01-17 15:48:14.38	20.93	10.04	
2025-01-17 15:48:14.58	20.89	10.03	
2025-01-17 15:48:14.78	20.85	10.03	
2025-01-17 15:48:14.99	20.81	10.02	
2025-01-17 15:48:15.19	20.77	10.02	
2025-01-17 15:48:15.39	20.73	10.01	
2025-01-17 15:48:15.60	20.68	10.01	
2025-01-17 15:48:15.80	20.64	10.01	
2025-01-17 15:48:16.00	20.60	10.00	
2025-01-17 15:48:16.20	20.56	10.00	
2025-01-17 15:48:16.41	20.52	9.99	
2025-01-17 15:48:16.61	20.48	9.99	
2025-01-17 15:48:16.81	20.44	9.98	
2025-01-17 15:48:17.02	20.40	9.98	
2025-01-17 15:48:17.22	20.36	9.98	
2025-01-17 15:48:17.42	20.32	9.97	
2025-01-17 15:48:17.63	20.28	9.97	
2025-01-17 15:48:17.83	20.24	9.96	
2025-01-17 15:48:18.03	20.20	9.96	
2025-01-17 15:48:18.24	20.16	9.95	
2025-01-17 15:48:18.44	20.12	9.95	
2025-01-17 15:48:18.64	20.08	9.94	
2025-01-17 15:48:18.84	20.04	9.94	
2025-01-17 15:48:19.05	20.00	9.94	
2025-01-17 15:48:19.25	19.96	9.93	
2025-01-17 15:48:19.45	19.92	9.93	
2025-01-17 15:48:19.66	19.88	9.92	
2025-01-17 15:48:19.86	19.84	9.92	
2025-01-17 15:48:20.06	19.80	9.91	
2025-01-17 15:48:20.27	19.76	9.91	
2025-01-17 15:48:20.47	19.72	9.90	
2025-01-17 15:48:20.67	19.68	9.90	
2025-01-17 15:48:20.88	19.64	9.90	
2025-01-17 15:48:21.08	19.60	9.89	
2025-01-17 15:48:21.28	19.56	9.89	
2025-01-17 15:48:21.49	19.52	9.88	
2025-01-17 15:48:21.69	19.48	9.88	
2025-01-17 15:48:21.89	19.44	9.87	
2025-01-17 15:48:22.09	19.40	9.87	
2025-01-17 15:48:22.30	19.36	9.86	
2025-01-17 15:48:22.50	19.32	9.86	
2025-01-17 15:48:22.70	19.28	9.85	
2025-01-17 15:48:22.91	19.24	9.85	
2025-01-17 15:48:23.11	19.20	9.84	
2025-01-17 15:48:23.31	19.16	9.84	
2025-01-17 15:48:23.52	19.12	9.83	
2025-01-17 15:48:23.72	19.08	9.83	
2025-01-17 15:48:23.92	19.04	9.83	
2025-01-17 15:48:24.13	19.00	9.82	
2025-01-17 15:48:24.33	18.96	9.82	
2025-01-17 15:48:24.53	18.92	9.81	
2025-01-17 15:48:24.73	18.88	9.81	
2025-01-17 15:48:24.94	18.84	9.80	
2025-01-17 15:48:25.14	18.80	9.80	
2025-01-17 15:48:25.34	18.76	9.79	
2025-01-17 15:48:25.55	18.72	9.79	
2025-01-17 15:48:25.75	18.68	9.78	
2025-01-17 15:48:25.95	18.64	9.78	
2025-01-17 15:48:26.16	18.60	9.77	
2025-01-17 15:48:26.36	18.56	9.77	
2025-01-17 15:48:26.56	18.52	9.76	
2025-01-17 15:48:26.77	18.48	9.76	
2025-01-17 15:48:26.97	18.44	9.75	
2025-01-17 15:48:27.17	18.41	9.75	
2025-01-17 15:48:27.37	18.37	9.74	
2025-01-17 15:48:27.58	18.33	9.74	
2025-01-17 15:48:27.78	18.29	9.73	
2025-01-17 15:48:27.98	18.25	9.73	
2025-01-17 15:48:28.19	18.21	9.72	
2025-01-17 15:48:28.39	18.17	9.72	
2025-01-17 15:48:28.59	18.13	9.71	
2025-01-17 15:48:28.80	18.09	9.71	
2025-01-17 15:48:29.00	18.05	9.70	
2025-01-17 15:48:29.20	18.01	9.70	
2025-01-17 15:48:29.41	17.97	9.69	
2025-01-17 15:48:29.61	17.93	9.69	
2025-01-17 15:48:29.81	17.89	9.68	
2025-01-17 15:48:30.01	17.85	9.68	
2025-01-17 15:48:30.22	17.81	9.67	
2025-01-17 15:48:30.42	17.77	9.67	
2025-01-17 15:48:30.62	17.73	9.66	
2025-01-17 15:48:30.83	17.69	9.66	
2025-01-17 15:48:31.03	17.66	9.65	
2025-01-17 15:48:31.23	17.62	9.65	
2025-01-17 15:48:31.44	17.58	9.64	
2025-01-17 15:48:31.64	17.54	9.64	
2025-01-17 15:48:31.84	17.50	9.63	
2025-01-17 15:48:32.05	17.46	9.63	
2025-01-17 15:48:32.25	17.42	9.62	
2025-01-17 15:48:32.45	17.38	9.62	
2025-01-17 15:48:32.65	17.34	9.61	
2025-01-17 15:48:32.86	17.30	9.61	
2025-01-17 15:48:33.06	17.26	9.60	
2025-01-17 15:48:33.26	17.22	9.59	
2025-01-17 15:48:33.47	17.18	9.59	
2025-01-17 15:48:33.67	17.15	9.58	
2025-01-17 15:48:33.87	17.11	9.58	
2025-01-17 15:48:34.08	17.07	9.57	
2025-01-17 15:48:34.28	17.03	9.57	
2025-01-17 15:48:34.48	16.99	9.56	
2025-01-17 15:48:34.69	16.95	9.56	
2025-01-17 15:48:34.89	16.91	9.55	
2025-01-17 15:48:35.09	16.87	9.55	
2025-01-17 15:48:35.29	16.83	9.54	
2025-01-17 15:48:35.50	16.79	9.54	
2025-01-17 15:48:35.70	16.76	9.53	
2025-01-17 15:48:35.90	16.72	9.53	
2025-01-17 15:48:36.11	16.68	9.52	
2025-01-17 15:48:36.31	16.64	9.51	
2025-01-17 15:48:36.51	16.60	9.51	
2025-01-17 15:48:36.72	16.56	9.50	
2025-01-17 15:48:36.92	16.52	9.50	
2025-01-17 15:48:37.12	16.48	9.49	
2025-01-17 15:48:37.33	16.44	9.49	
2025-01-17 15:48:37.53	16.41	9.48	
2025-01-17 15:48:37.73	16.37	9.48	
2025-01-17 15:48:37.93	16.33	9.47	
2025-01-17 15:48:38.14	16.29	9.47	
2025-01-17 15:48:38.34	16.25	9.46	
2025-01-17 15:48:38.54	16.21	9.45	
2025-01-17 15:48:38.75	16.17	9.45	
2025-01-17 15:48:38.95	16.13	9.44	
2025-01-17 15:48:39.15	16.10	9.44	
2025-01-17 15:48:39.36	16.06	9.43	
2025-01-17 15:48:39.56	16.02	9.43	
2025-01-17 15:48:39.76	15.98	9.42	
2025-01-17 15:48:39.97	15.94	9.42	
2025-01-17 15:48:40.17	15.90	9.41	
2025-01-17 15:48:40.37	15.86	9.40	
2025-01-17 15:48:40.57	15.83	9.40	
2025-01-17 15:48:40.78	15.79	9.39	
2025-01-17 15:48:40.98	15.75	9.39	
2025-01-17 15:48:41.18	15.71	9.38	
2025-01-17 15:48:41.39	15.67	9.38	
2025-01-17 15:48:41.59	15.63	9.37	
2025-01-17 15:48:41.79	15.59	9.36	
2025-01-17 15:48:42.00	15.56	9.36	
2025-01-17 15:48:42.20	15.52	9.35	
2025-01-17 15:48:42.40	15.48	9.35	
2025-01-17 15:48:42.61	15.44	9.34	
2025-01-17 15:48:42.81	15.40	9.34	
2025-01-17 15:48:43.01	15.36	9.33	
2025-01-17 15:48:43.22	15.32	9.32	
2025-01-17 15:48:43.42	15.29	9.32	
2025-01-17 15:48:43.62	15.25	9.31	
2025-01-17 15:48:43.82	15.21	9.31	
2025-01-17 15:48:44.03	15.17	9.30	
2025-01-17 15:48:44.23	15.13	9.30	
2025-01-17 15:48:44.43	15.10	9.29	
2025-01-17 15:48:44.64	15.06	9.28	
2025-01-17 15:48:44.84	15.02	9.28	
2025-01-17 15:48:45.04	14.98	9.27	
2025-01-17 15:48:45.25	14.94	9.27	
2025-01-17 15:48:45.45	14.90	9.26	
2025-01-17 15:48:45.65	14.87	9.25	
2025-01-17 15:48:45.86	14.83	9.25	
2025-01-17 15:48:46.06	14.79	9.24	
2025-01-17 15:48:46.26	14.75	9.24	
2025-01-17 15:48:46.46	14.71	9.23	
2025-01-17 15:48:46.67	14.68	9.22	
2025-01-17 15:48:46.87	14.64	9.22	
2025-01-17 15:48:47.07	14.60	9.21	
2025-01-17 15:48:47.28	14.56	9.21	
2025-01-17 15:48:47.48	14.52	9.20	
2025-01-17 15:48:47.68	14.49	9.19	
2025-01-17 15:48:47.89	14.45	9.19	
2025-01-17 15:48:48.09	14.41	9.18	
2025-01-17 15:48:48.29	14.37	9.18	
2025-01-17 15:48:48.50	14.33	9.17	
2025-01-17 15:48:48.70	14.30	9.16	
2025-01-17 15:48:48.90	14.26	9.16	
2025-01-17 15:48:49.10	14.22	9.15	
2025-01-17 15:48:49.31	14.18	9.15	
2025-01-17 15:48:49.51	14.14	9.14	
2025-01-17 15:48:49.71	14.11	9.13	
2025-01-17 15:48:49.92	14.07	9.13	
2025-01-17 15:48:50.12	14.03	9.12	
2025-01-17 15:48:50.32	13.99	9.12	
2025-01-17 15:48:50.53	13.96	9.11	
2025-01-17 15:48:50.73	13.92	9.10	
2025-01-17 15:48:50.93	13.88	9.10	
2025-01-17 15:48:51.14	13.84	9.09	
2025-01-17 15:48:51.34	13.80	9.09	
2025-01-17 15:48:51.54	13.77	9.08	
2025-01-17 15:48:51.74	13.73	9.07	
2025-01-17 15:48:51.95	13.69	9.07	
2025-01-17 15:48:52.15	13.65	9.06	
2025-01-17 15:48:52.35	13.62	9.05	
2025-01-17 15:48:52.56	13.58	9.05	
2025-01-17 15:48:52.76	13.54	9.04	
2025-01-17 15:48:52.96	13.51	9.04	
2025-01-17 15:48:53.17	13.47	9.03	
2025-01-17 15:48:53.37	13.43	9.02	
2025-01-17 15:48:53.57	13.39	9.02	
2025-01-17 15:48:53.78	13.35	9.01	
2025-01-17 15:48:53.98	13.32	9.00	
2025-01-17 15:48:54.18	13.28	9.00	
2025-01-17 15:48:54.38	13.24	8.99	
2025-01-17 15:48:54.59	13.20	8.99	
2025-01-17 15:48:54.79	13.17	8.98	
2025-01-17 15:48:54.99	13.13	8.97	
2025-01-17 15:48:55.20	13.09	8.97	
2025-01-17 15:48:55.40	13.06	8.96	
2025-01-17 15:48:55.60	13.02	8.95	
2025-01-17 15:48:55.81	12.98	8.95	
2025-01-17 15:48:56.01	12.94	8.94	
2025-01-17 15:48:56.21	12.91	8.93	
2025-01-17 15:48:56.42	12.87	8.93	
2025-01-17 15:48:56.62	12.83	8.92	
2025-01-17 15:48:56.82	12.80	8.92	
2025-01-17 15:48:57.02	12.76	8.91	
2025-01-17 15:48:57.23	12.72	8.90	
2025-01-17 15:48:57.43	12.68	8.90	
2025-01-17 15:48:57.63	12.65	8.89	
2025-01-17 15:48:57.84	12.61	8.88	
2025-01-17 15:48:58.04	12.57	8.88	
2025-01-17 15:48:58.24	12.54	8.87	
2025-01-17 15:48:58.45	12.50	8.86	
2025-01-17 15:48:58.65	12.46	8.86	
2025-01-17 15:48:58.85	12.42	8.85	
2025-01-17 15:48:59.06	12.39	8.84	
2025-01-17 15:48:59.26	12.35	8.84	
2025-01-17 15:48:59.46	12.31	8.83	
2025-01-17 15:48:59.66	12.28	8.82	
2025-01-17 15:48:59.87	12.24	8.82	
2025-01-17 15:49:00.07	12.20	8.81	
2025-01-17 15:49:00.27	12.17	8.81	
2025-01-17 15:49:00.48	12.13	8.80	
2025-01-17 15:49:00.68	12.09	8.79	
2025-01-17 15:49:00.88	12.06	8.79	
2025-01-17 15:49:01.09	12.02	8.78	
2025-01-17 15:49:01.29	11.98	8.77	
2025-01-17 15:49:01.49	11.94	8.77	
2025-01-17 15:49:01.70	11.91	8.76	
2025-01-17 15:49:01.90	11.87	8.75	
2025-01-17 15:49:02.10	11.83	8.75	
2025-01-17 15:49:02.30	11.80	8.74	
2025-01-17 15:49:02.51	11.76	8.73	
2025-01-17 15:49:02.71	11.72	8.73	
2025-01-17 15:49:02.91	11.69	8.72	
2025-01-17 15:49:03.12	11.65	8.71	
2025-01-17 15:49:03.32	11.61	8.71	
2025-01-17 15:49:03.52	11.58	8.70	
2025-01-17 15:49:03.73	11.54	8.69	
2025-01-17 15:49:03.93	11.50	8.69	
2025-01-17 15:49:04.13	11.47	8.68	
2025-01-17 15:49:04.34	11.43	8.67	
2025-01-17 15:49:04.54	11.40	8.67	
2025-01-17 15:49:04.74	11.36	8.66	
2025-01-17 15:49:04.94	11.32	8.65	
2025-01-17 15:49:05.15	11.29	8.64	
2025-01-17 15:49:05.35	11.25	8.64	
2025-01-17 15:49:05.55	11.21	8.63	
2025-01-17 15:49:05.76	11.18	8.62	
2025-01-17 15:49:05.96	11.14	8.62	
2025-01-17 15:49:06.16	11.10	8.61	
2025-01-17 15:49:06.37	11.07	8.60	
2025-01-17 15:49:06.57	11.03	8.60	
2025-01-17 15:49:06.77	11.00	8.59	
2025-01-17 15:49:06.98	10.96	8.58	
2025-01-17 15:49:07.18	10.92	8.58	
2025-01-17 15:49:07.38	10.89	8.57	
2025-01-17 15:49:07.59	10.85	8.56	
2025-01-17 15:49:07.79	10.81	8.56	
2025-01-17 15:49:07.99	10.78	8.55	
2025-01-17 15:49:08.19	10.74	8.54	
2025-01-17 15:49:08.40	10.71	8.54	
2025-01-17 15:49:08.60	10.67	8.53	
2025-01-17 15:49:08.80	10.63	8.52	
2025-01-17 15:49:09.01	10.60	8.51	
2025-01-17 15:49:09.21	10.56	8.51	
2025-01-17 15:49:09.41	10.53	8.50	
2025-01-17 15:49:09.62	10.49	8.49	
2025-01-17 15:49:09.82	10.45	8.49	
