passes_logs/2025/01/17/SPB_Silybum_02/SPB_Silybum_02__20250117_000012_AQUA_rec.log

#Pass ID: 20250117_000012_AQUA
#Satellite: AQUA
#Configuration: AQUA
#Start time: 2025-01-17 00:00:10

#Version: 2.0.20230423
#Station: SPB_Silybum_02
#Location: 30.233357 lon 59.946436 lat
#TLE: 1 27424U 02022A   25016.17003800  .00001737  00000+0  36656-3 0  9994
#TLE: 2 27424  98.3591 332.8445 0001762 110.2278 308.2748 14.60686749207790

#Time	Az	El	Level	Level2	SNR	BER	Gain	Gain2
2025-01-17 00:00:13.02	25.90	4.03	
2025-01-17 00:00:13.22	25.91	4.04	
2025-01-17 00:00:13.42	25.93	4.05	
2025-01-17 00:00:13.63	25.95	4.06	
2025-01-17 00:00:13.83	25.96	4.08	
2025-01-17 00:00:14.03	25.98	4.09	
2025-01-17 00:00:14.24	25.99	4.10	
2025-01-17 00:00:14.44	26.01	4.12	
2025-01-17 00:00:14.64	26.03	4.13	
2025-01-17 00:00:14.85	26.04	4.14	
2025-01-17 00:00:15.05	26.06	4.15	
2025-01-17 00:00:15.25	26.07	4.17	
2025-01-17 00:00:15.45	26.09	4.18	
2025-01-17 00:00:15.66	26.11	4.19	
2025-01-17 00:00:15.86	26.12	4.21	
2025-01-17 00:00:16.06	26.14	4.22	
2025-01-17 00:00:16.27	26.16	4.23	
2025-01-17 00:00:16.47	26.17	4.24	
2025-01-17 00:00:16.67	26.19	4.26	
2025-01-17 00:00:16.88	26.20	4.27	
2025-01-17 00:00:17.08	26.22	4.28	
2025-01-17 00:00:17.28	26.24	4.30	
2025-01-17 00:00:17.48	26.25	4.31	
2025-01-17 00:00:17.69	26.27	4.32	
2025-01-17 00:00:17.89	26.28	4.33	
2025-01-17 00:00:18.09	26.30	4.35	
2025-01-17 00:00:18.30	26.32	4.36	
2025-01-17 00:00:18.50	26.33	4.37	
2025-01-17 00:00:18.70	26.35	4.39	
2025-01-17 00:00:18.90	26.37	4.40	
2025-01-17 00:00:19.11	26.38	4.41	
2025-01-17 00:00:19.31	26.40	4.42	
2025-01-17 00:00:19.51	26.41	4.44	
2025-01-17 00:00:19.72	26.43	4.45	
2025-01-17 00:00:19.92	26.45	4.46	
2025-01-17 00:00:20.12	26.46	4.48	
2025-01-17 00:00:20.33	26.48	4.49	
2025-01-17 00:00:20.53	26.50	4.50	
2025-01-17 00:00:20.73	26.51	4.51	
2025-01-17 00:00:20.93	26.53	4.53	
2025-01-17 00:00:21.14	26.55	4.54	
2025-01-17 00:00:21.34	26.56	4.55	
2025-01-17 00:00:21.54	26.58	4.57	
2025-01-17 00:00:21.75	26.60	4.58	
2025-01-17 00:00:21.95	26.61	4.59	
2025-01-17 00:00:22.15	26.63	4.60	
2025-01-17 00:00:22.36	26.65	4.62	
2025-01-17 00:00:22.56	26.66	4.63	
2025-01-17 00:00:22.76	26.68	4.64	
2025-01-17 00:00:22.96	26.70	4.66	
2025-01-17 00:00:23.17	26.71	4.67	
2025-01-17 00:00:23.37	26.73	4.68	
2025-01-17 00:00:23.57	26.75	4.70	
2025-01-17 00:00:23.78	26.76	4.71	
2025-01-17 00:00:23.98	26.78	4.72	
2025-01-17 00:00:24.18	26.80	4.73	
2025-01-17 00:00:24.39	26.81	4.75	
2025-01-17 00:00:24.59	26.83	4.76	
2025-01-17 00:00:24.79	26.85	4.77	
2025-01-17 00:00:24.99	26.86	4.79	
2025-01-17 00:00:25.20	26.88	4.80	
2025-01-17 00:00:25.40	26.90	4.81	
2025-01-17 00:00:25.60	26.91	4.83	
2025-01-17 00:00:25.81	26.93	4.84	
2025-01-17 00:00:26.01	26.95	4.85	
2025-01-17 00:00:26.21	26.96	4.87	
2025-01-17 00:00:26.41	26.98	4.88	
2025-01-17 00:00:26.62	27.00	4.89	
2025-01-17 00:00:26.82	27.01	4.90	
2025-01-17 00:00:27.02	27.03	4.92	
2025-01-17 00:00:27.23	27.05	4.93	
2025-01-17 00:00:27.43	27.06	4.94	
2025-01-17 00:00:27.63	27.08	4.96	
2025-01-17 00:00:27.84	27.10	4.97	
2025-01-17 00:00:28.04	27.12	4.98	
2025-01-17 00:00:28.24	27.13	5.00	
2025-01-17 00:00:28.44	27.15	5.01	
2025-01-17 00:00:28.65	27.17	5.02	
2025-01-17 00:00:28.85	27.18	5.04	
2025-01-17 00:00:29.05	27.20	5.05	
2025-01-17 00:00:29.26	27.22	5.06	
2025-01-17 00:00:29.46	27.24	5.08	
2025-01-17 00:00:29.66	27.25	5.09	
2025-01-17 00:00:29.86	27.27	5.10	
2025-01-17 00:00:30.07	27.29	5.12	
2025-01-17 00:00:30.27	27.30	5.13	
2025-01-17 00:00:30.47	27.32	5.14	
2025-01-17 00:00:30.68	27.34	5.15	
2025-01-17 00:00:30.88	27.36	5.17	
2025-01-17 00:00:31.08	27.37	5.18	
2025-01-17 00:00:31.29	27.39	5.19	
2025-01-17 00:00:31.49	27.41	5.21	
2025-01-17 00:00:31.69	27.42	5.22	
2025-01-17 00:00:31.89	27.44	5.23	
2025-01-17 00:00:32.10	27.46	5.25	
2025-01-17 00:00:32.30	27.48	5.26	
2025-01-17 00:00:32.50	27.49	5.27	
2025-01-17 00:00:32.71	27.51	5.29	
2025-01-17 00:00:32.91	27.53	5.30	
2025-01-17 00:00:33.11	27.55	5.31	
2025-01-17 00:00:33.32	27.56	5.33	
2025-01-17 00:00:33.52	27.58	5.34	
2025-01-17 00:00:33.72	27.60	5.35	
2025-01-17 00:00:33.92	27.62	5.37	
2025-01-17 00:00:34.13	27.63	5.38	
2025-01-17 00:00:34.33	27.65	5.39	
2025-01-17 00:00:34.53	27.67	5.41	
2025-01-17 00:00:34.74	27.69	5.42	
2025-01-17 00:00:34.94	27.70	5.43	
2025-01-17 00:00:35.14	27.72	5.45	
2025-01-17 00:00:35.35	27.74	5.46	
2025-01-17 00:00:35.55	27.76	5.47	
2025-01-17 00:00:35.75	27.77	5.49	
2025-01-17 00:00:35.95	27.79	5.50	
2025-01-17 00:00:36.16	27.81	5.51	
2025-01-17 00:00:36.36	27.83	5.53	
2025-01-17 00:00:36.56	27.84	5.54	
2025-01-17 00:00:36.77	27.86	5.55	
2025-01-17 00:00:36.97	27.88	5.57	
2025-01-17 00:00:37.17	27.90	5.58	
2025-01-17 00:00:37.37	27.91	5.59	
2025-01-17 00:00:37.58	27.93	5.61	
2025-01-17 00:00:37.78	27.95	5.62	
2025-01-17 00:00:37.98	27.97	5.63	
2025-01-17 00:00:38.19	27.99	5.65	
2025-01-17 00:00:38.39	28.00	5.66	
2025-01-17 00:00:38.59	28.02	5.67	
2025-01-17 00:00:38.80	28.04	5.69	
2025-01-17 00:00:39.00	28.06	5.70	
2025-01-17 00:00:39.20	28.08	5.71	
2025-01-17 00:00:39.40	28.09	5.73	
2025-01-17 00:00:39.61	28.11	5.74	
2025-01-17 00:00:39.81	28.13	5.75	
2025-01-17 00:00:40.01	28.15	5.77	
2025-01-17 00:00:40.22	28.17	5.78	
2025-01-17 00:00:40.42	28.18	5.79	
2025-01-17 00:00:40.62	28.20	5.81	
2025-01-17 00:00:40.83	28.22	5.82	
2025-01-17 00:00:41.03	28.24	5.83	
2025-01-17 00:00:41.23	28.25	5.85	
2025-01-17 00:00:41.43	28.27	5.86	
2025-01-17 00:00:41.64	28.29	5.88	
2025-01-17 00:00:41.84	28.31	5.89	
2025-01-17 00:00:42.04	28.33	5.90	
2025-01-17 00:00:42.25	28.35	5.92	
2025-01-17 00:00:42.45	28.36	5.93	
2025-01-17 00:00:42.65	28.38	5.94	
2025-01-17 00:00:42.85	28.40	5.96	
2025-01-17 00:00:43.06	28.42	5.97	
2025-01-17 00:00:43.26	28.44	5.98	
2025-01-17 00:00:43.46	28.45	6.00	
2025-01-17 00:00:43.67	28.47	6.01	
2025-01-17 00:00:43.87	28.49	6.02	
2025-01-17 00:00:44.07	28.51	6.04	
2025-01-17 00:00:44.28	28.53	6.05	
2025-01-17 00:00:44.48	28.55	6.06	
2025-01-17 00:00:44.68	28.56	6.08	
2025-01-17 00:00:44.88	28.58	6.09	
2025-01-17 00:00:45.09	28.60	6.11	
2025-01-17 00:00:45.29	28.62	6.12	
2025-01-17 00:00:45.49	28.64	6.13	
2025-01-17 00:00:45.70	28.66	6.15	
2025-01-17 00:00:45.90	28.68	6.16	
2025-01-17 00:00:46.10	28.69	6.17	
2025-01-17 00:00:46.31	28.71	6.19	
2025-01-17 00:00:46.51	28.73	6.20	
2025-01-17 00:00:46.71	28.75	6.21	
2025-01-17 00:00:46.91	28.77	6.23	
2025-01-17 00:00:47.12	28.79	6.24	
2025-01-17 00:00:47.32	28.81	6.26	
2025-01-17 00:00:47.52	28.82	6.27	
2025-01-17 00:00:47.73	28.84	6.28	
2025-01-17 00:00:47.93	28.86	6.30	
2025-01-17 00:00:48.13	28.88	6.31	
2025-01-17 00:00:48.34	28.90	6.32	
2025-01-17 00:00:48.54	28.92	6.34	
2025-01-17 00:00:48.74	28.94	6.35	
2025-01-17 00:00:48.94	28.95	6.36	
2025-01-17 00:00:49.15	28.97	6.38	
2025-01-17 00:00:49.35	28.99	6.39	
2025-01-17 00:00:49.55	29.01	6.41	
2025-01-17 00:00:49.76	29.03	6.42	
2025-01-17 00:00:49.96	29.05	6.43	
2025-01-17 00:00:50.16	29.07	6.45	
2025-01-17 00:00:50.36	29.09	6.46	
2025-01-17 00:00:50.57	29.11	6.47	
2025-01-17 00:00:50.77	29.12	6.49	
2025-01-17 00:00:50.97	29.14	6.50	
2025-01-17 00:00:51.18	29.16	6.52	
2025-01-17 00:00:51.38	29.18	6.53	
2025-01-17 00:00:51.58	29.20	6.54	
2025-01-17 00:00:51.79	29.22	6.56	
2025-01-17 00:00:51.99	29.24	6.57	
2025-01-17 00:00:52.19	29.26	6.58	
2025-01-17 00:00:52.39	29.28	6.60	
2025-01-17 00:00:52.60	29.30	6.61	
2025-01-17 00:00:52.80	29.31	6.63	
2025-01-17 00:00:53.00	29.33	6.64	
2025-01-17 00:00:53.21	29.35	6.65	
2025-01-17 00:00:53.41	29.37	6.67	
2025-01-17 00:00:53.61	29.39	6.68	
2025-01-17 00:00:53.82	29.41	6.70	
2025-01-17 00:00:54.02	29.43	6.71	
2025-01-17 00:00:54.22	29.45	6.72	
2025-01-17 00:00:54.42	29.47	6.74	
2025-01-17 00:00:54.63	29.49	6.75	
2025-01-17 00:00:54.83	29.51	6.76	
2025-01-17 00:00:55.03	29.53	6.78	
2025-01-17 00:00:55.24	29.54	6.79	
2025-01-17 00:00:55.44	29.56	6.81	
2025-01-17 00:00:55.64	29.58	6.82	
2025-01-17 00:00:55.84	29.60	6.83	
2025-01-17 00:00:56.05	29.62	6.85	
2025-01-17 00:00:56.25	29.64	6.86	
2025-01-17 00:00:56.45	29.66	6.87	
2025-01-17 00:00:56.66	29.68	6.89	
2025-01-17 00:00:56.86	29.70	6.90	
2025-01-17 00:00:57.06	29.72	6.92	
2025-01-17 00:00:57.27	29.74	6.93	
2025-01-17 00:00:57.47	29.76	6.94	
2025-01-17 00:00:57.67	29.78	6.96	
2025-01-17 00:00:57.87	29.80	6.97	
2025-01-17 00:00:58.08	29.82	6.99	
2025-01-17 00:00:58.28	29.84	7.00	
2025-01-17 00:00:58.48	29.86	7.01	
2025-01-17 00:00:58.69	29.88	7.03	
2025-01-17 00:00:58.89	29.90	7.04	
2025-01-17 00:00:59.09	29.91	7.06	
2025-01-17 00:00:59.30	29.94	7.07	
2025-01-17 00:00:59.50	29.95	7.08	
2025-01-17 00:00:59.70	29.97	7.10	
2025-01-17 00:00:59.90	29.99	7.11	
2025-01-17 00:01:00.11	30.01	7.13	
2025-01-17 00:01:00.31	30.03	7.14	
2025-01-17 00:01:00.51	30.05	7.15	
2025-01-17 00:01:00.72	30.07	7.17	
2025-01-17 00:01:00.92	30.09	7.18	
2025-01-17 00:01:01.12	30.11	7.20	
2025-01-17 00:01:01.33	30.13	7.21	
2025-01-17 00:01:01.53	30.15	7.23	
2025-01-17 00:01:01.73	30.17	7.24	
2025-01-17 00:01:01.93	30.19	7.25	
2025-01-17 00:01:02.14	30.21	7.27	
2025-01-17 00:01:02.34	30.23	7.28	
2025-01-17 00:01:02.54	30.25	7.30	
2025-01-17 00:01:02.75	30.27	7.31	
2025-01-17 00:01:02.95	30.29	7.32	
2025-01-17 00:01:03.15	30.31	7.34	
2025-01-17 00:01:03.35	30.33	7.35	
2025-01-17 00:01:03.56	30.35	7.37	
2025-01-17 00:01:03.76	30.37	7.38	
2025-01-17 00:01:03.96	30.39	7.39	
2025-01-17 00:01:04.17	30.41	7.41	
2025-01-17 00:01:04.37	30.43	7.42	
2025-01-17 00:01:04.57	30.45	7.44	
2025-01-17 00:01:04.78	30.47	7.45	
2025-01-17 00:01:04.98	30.49	7.46	
2025-01-17 00:01:05.18	30.51	7.48	
2025-01-17 00:01:05.38	30.53	7.49	
2025-01-17 00:01:05.59	30.56	7.51	
2025-01-17 00:01:05.79	30.58	7.52	
2025-01-17 00:01:05.99	30.60	7.54	
2025-01-17 00:01:06.20	30.62	7.55	
2025-01-17 00:01:06.40	30.64	7.56	
2025-01-17 00:01:06.60	30.66	7.58	
2025-01-17 00:01:06.81	30.68	7.59	
2025-01-17 00:01:07.01	30.70	7.61	
2025-01-17 00:01:07.21	30.72	7.62	
2025-01-17 00:01:07.41	30.74	7.63	
2025-01-17 00:01:07.62	30.76	7.65	
2025-01-17 00:01:07.82	30.78	7.66	
2025-01-17 00:01:08.02	30.80	7.68	
2025-01-17 00:01:08.23	30.82	7.69	
2025-01-17 00:01:08.43	30.84	7.71	
2025-01-17 00:01:08.63	30.86	7.72	
2025-01-17 00:01:08.83	30.88	7.73	
2025-01-17 00:01:09.04	30.90	7.75	
2025-01-17 00:01:09.24	30.92	7.76	
2025-01-17 00:01:09.44	30.95	7.78	
2025-01-17 00:01:09.65	30.97	7.79	
2025-01-17 00:01:09.85	30.99	7.81	
2025-01-17 00:01:10.05	31.01	7.82	
2025-01-17 00:01:10.26	31.03	7.84	
2025-01-17 00:01:10.46	31.05	7.85	
2025-01-17 00:01:10.66	31.07	7.86	
2025-01-17 00:01:10.86	31.09	7.88	
2025-01-17 00:01:11.07	31.11	7.89	
2025-01-17 00:01:11.27	31.13	7.91	
2025-01-17 00:01:11.47	31.15	7.92	
2025-01-17 00:01:11.68	31.18	7.94	
2025-01-17 00:01:11.88	31.20	7.95	
2025-01-17 00:01:12.08	31.22	7.96	
2025-01-17 00:01:12.29	31.24	7.98	
2025-01-17 00:01:12.49	31.26	7.99	
2025-01-17 00:01:12.69	31.28	8.01	
2025-01-17 00:01:12.89	31.30	8.02	
2025-01-17 00:01:13.10	31.32	8.04	
2025-01-17 00:01:13.30	31.34	8.05	
2025-01-17 00:01:13.50	31.36	8.06	
2025-01-17 00:01:13.71	31.39	8.08	
2025-01-17 00:01:13.91	31.41	8.09	
2025-01-17 00:01:14.11	31.43	8.11	
2025-01-17 00:01:14.31	31.45	8.12	
2025-01-17 00:01:14.52	31.47	8.14	
2025-01-17 00:01:14.72	31.49	8.15	
2025-01-17 00:01:14.92	31.51	8.17	
2025-01-17 00:01:15.13	31.53	8.18	
2025-01-17 00:01:15.33	31.56	8.19	
2025-01-17 00:01:15.53	31.58	8.21	
2025-01-17 00:01:15.74	31.60	8.22	
2025-01-17 00:01:15.94	31.62	8.24	
2025-01-17 00:01:16.14	31.64	8.25	
2025-01-17 00:01:16.34	31.66	8.27	
2025-01-17 00:01:16.55	31.68	8.28	
2025-01-17 00:01:16.75	31.71	8.30	
2025-01-17 00:01:16.95	31.73	8.31	
2025-01-17 00:01:17.16	31.75	8.33	
2025-01-17 00:01:17.36	31.77	8.34	
2025-01-17 00:01:17.56	31.79	8.35	
2025-01-17 00:01:17.77	31.81	8.37	
2025-01-17 00:01:17.97	31.84	8.38	
2025-01-17 00:01:18.17	31.86	8.40	
2025-01-17 00:01:18.37	31.88	8.41	
2025-01-17 00:01:18.58	31.90	8.43	
2025-01-17 00:01:18.78	31.92	8.44	
2025-01-17 00:01:18.98	31.94	8.46	
2025-01-17 00:01:19.19	31.97	8.47	
2025-01-17 00:01:19.39	31.99	8.49	
2025-01-17 00:01:19.59	32.01	8.50	
2025-01-17 00:01:19.80	32.03	8.52	
2025-01-17 00:01:20.00	32.05	8.53	
2025-01-17 00:01:20.20	32.07	8.54	
2025-01-17 00:01:20.40	32.10	8.56	
2025-01-17 00:01:20.61	32.12	8.57	
2025-01-17 00:01:20.81	32.14	8.59	
2025-01-17 00:01:21.01	32.16	8.60	
2025-01-17 00:01:21.22	32.18	8.62	
2025-01-17 00:01:21.42	32.21	8.63	
2025-01-17 00:01:21.62	32.23	8.65	
2025-01-17 00:01:21.82	32.25	8.66	
2025-01-17 00:01:22.03	32.27	8.68	
2025-01-17 00:01:22.23	32.29	8.69	
2025-01-17 00:01:22.43	32.32	8.70	
2025-01-17 00:01:22.64	32.34	8.72	
2025-01-17 00:01:22.84	32.36	8.73	
2025-01-17 00:01:23.04	32.38	8.75	
2025-01-17 00:01:23.25	32.41	8.76	
2025-01-17 00:01:23.45	32.43	8.78	
2025-01-17 00:01:23.65	32.45	8.79	
2025-01-17 00:01:23.85	32.47	8.81	
2025-01-17 00:01:24.06	32.49	8.82	
2025-01-17 00:01:24.26	32.52	8.84	
2025-01-17 00:01:24.46	32.54	8.85	
2025-01-17 00:01:24.67	32.56	8.87	
2025-01-17 00:01:24.87	32.58	8.88	
2025-01-17 00:01:25.07	32.61	8.90	
2025-01-17 00:01:25.28	32.63	8.91	
2025-01-17 00:01:25.48	32.65	8.93	
2025-01-17 00:01:25.68	32.67	8.94	
2025-01-17 00:01:25.88	32.70	8.96	
2025-01-17 00:01:26.09	32.72	8.97	
2025-01-17 00:01:26.29	32.74	8.99	
2025-01-17 00:01:26.49	32.76	9.00	
2025-01-17 00:01:26.70	32.79	9.02	
2025-01-17 00:01:26.90	32.81	9.03	
2025-01-17 00:01:27.10	32.83	9.04	
2025-01-17 00:01:27.30	32.85	9.06	
2025-01-17 00:01:27.51	32.88	9.07	
2025-01-17 00:01:27.71	32.90	9.09	
2025-01-17 00:01:27.91	32.92	9.10	
2025-01-17 00:01:28.12	32.95	9.12	
2025-01-17 00:01:28.32	32.97	9.13	
2025-01-17 00:01:28.52	32.99	9.15	
2025-01-17 00:01:28.73	33.01	9.16	
2025-01-17 00:01:28.93	33.04	9.18	
2025-01-17 00:01:29.13	33.06	9.19	
2025-01-17 00:01:29.33	33.08	9.21	
2025-01-17 00:01:29.54	33.11	9.22	
2025-01-17 00:01:29.74	33.13	9.24	
2025-01-17 00:01:29.94	33.15	9.25	
2025-01-17 00:01:30.15	33.17	9.27	
2025-01-17 00:01:30.35	33.20	9.28	
2025-01-17 00:01:30.55	33.22	9.30	
2025-01-17 00:01:30.76	33.24	9.31	
2025-01-17 00:01:30.96	33.27	9.33	
2025-01-17 00:01:31.16	33.29	9.34	
2025-01-17 00:01:31.36	33.31	9.36	
2025-01-17 00:01:31.57	33.34	9.37	
2025-01-17 00:01:31.77	33.36	9.39	
2025-01-17 00:01:31.97	33.38	9.40	
2025-01-17 00:01:32.18	33.41	9.42	
2025-01-17 00:01:32.38	33.43	9.43	
2025-01-17 00:01:32.58	33.45	9.45	
2025-01-17 00:01:32.78	33.48	9.46	
2025-01-17 00:01:32.99	33.50	9.48	
2025-01-17 00:01:33.19	33.52	9.49	
2025-01-17 00:01:33.39	33.55	9.51	
2025-01-17 00:01:33.60	33.57	9.52	
2025-01-17 00:01:33.80	33.59	9.54	
2025-01-17 00:01:34.00	33.62	9.55	
2025-01-17 00:01:34.21	33.64	9.57	
2025-01-17 00:01:34.41	33.66	9.58	
2025-01-17 00:01:34.61	33.69	9.60	
2025-01-17 00:01:34.81	33.71	9.61	
2025-01-17 00:01:35.02	33.73	9.63	
2025-01-17 00:01:35.22	33.76	9.64	
2025-01-17 00:01:35.42	33.78	9.66	
2025-01-17 00:01:35.63	33.81	9.67	
2025-01-17 00:01:35.83	33.83	9.69	
2025-01-17 00:01:36.03	33.85	9.70	
2025-01-17 00:01:36.24	33.88	9.72	
2025-01-17 00:01:36.44	33.90	9.73	
2025-01-17 00:01:36.64	33.92	9.75	
2025-01-17 00:01:36.84	33.95	9.76	
2025-01-17 00:01:37.05	33.97	9.78	
2025-01-17 00:01:37.25	34.00	9.79	
2025-01-17 00:01:37.45	34.02	9.81	
2025-01-17 00:01:37.66	34.04	9.82	
2025-01-17 00:01:37.86	34.07	9.84	
2025-01-17 00:01:38.06	34.09	9.85	
2025-01-17 00:01:38.27	34.12	9.87	
2025-01-17 00:01:38.47	34.14	9.89	
2025-01-17 00:01:38.67	34.16	9.90	
2025-01-17 00:01:38.87	34.19	9.92	
2025-01-17 00:01:39.08	34.21	9.93	
2025-01-17 00:01:39.28	34.24	9.95	
2025-01-17 00:01:39.48	34.26	9.96	
2025-01-17 00:01:39.69	34.29	9.98	
2025-01-17 00:01:39.89	34.31	9.99	
2025-01-17 00:01:40.09	34.33	10.01	
2025-01-17 00:01:40.29	34.36	10.02	
2025-01-17 00:01:40.50	34.38	10.04	
2025-01-17 00:01:40.70	34.41	10.05	
2025-01-17 00:01:40.90	34.43	10.07	
2025-01-17 00:01:41.11	34.46	10.08	
2025-01-17 00:01:41.31	34.48	10.10	
2025-01-17 00:01:41.51	34.50	10.11	
2025-01-17 00:01:41.72	34.53	10.13	
2025-01-17 00:01:41.92	34.55	10.14	
2025-01-17 00:01:42.12	34.58	10.16	
2025-01-17 00:01:42.32	34.60	10.17	
2025-01-17 00:01:42.53	34.63	10.19	
2025-01-17 00:01:42.73	34.65	10.21	
2025-01-17 00:01:42.93	34.68	10.22	
2025-01-17 00:01:43.14	34.70	10.24	
2025-01-17 00:01:43.34	34.73	10.25	
2025-01-17 00:01:43.54	34.75	10.27	
2025-01-17 00:01:43.75	34.78	10.28	
2025-01-17 00:01:43.95	34.80	10.30	
2025-01-17 00:01:44.15	34.82	10.31	
2025-01-17 00:01:44.35	34.85	10.33	
2025-01-17 00:01:44.56	34.87	10.34	
2025-01-17 00:01:44.76	34.90	10.36	
2025-01-17 00:01:44.96	34.92	10.37	
2025-01-17 00:01:45.17	34.95	10.39	
2025-01-17 00:01:45.37	34.97	10.40	
2025-01-17 00:01:45.57	35.00	10.42	
2025-01-17 00:01:45.77	35.02	10.44	
2025-01-17 00:01:45.98	35.05	10.45	
2025-01-17 00:01:46.18	35.07	10.47	
2025-01-17 00:01:46.38	35.10	10.48	
2025-01-17 00:01:46.59	35.12	10.50	
2025-01-17 00:01:46.79	35.15	10.51	
2025-01-17 00:01:46.99	35.17	10.53	
2025-01-17 00:01:47.20	35.20	10.54	
2025-01-17 00:01:47.40	35.23	10.56	
2025-01-17 00:01:47.60	35.25	10.57	
2025-01-17 00:01:47.80	35.27	10.59	
2025-01-17 00:01:48.01	35.30	10.61	
2025-01-17 00:01:48.21	35.33	10.62	
2025-01-17 00:01:48.41	35.35	10.64	
2025-01-17 00:01:48.62	35.38	10.65	
2025-01-17 00:01:48.82	35.40	10.67	
2025-01-17 00:01:49.02	35.43	10.68	
2025-01-17 00:01:49.23	35.45	10.70	
2025-01-17 00:01:49.43	35.48	10.71	
2025-01-17 00:01:49.63	35.50	10.73	
2025-01-17 00:01:49.83	35.53	10.74	
2025-01-17 00:01:50.04	35.56	10.76	
2025-01-17 00:01:50.24	35.58	10.78	
2025-01-17 00:01:50.44	35.61	10.79	
2025-01-17 00:01:50.65	35.63	10.81	
2025-01-17 00:01:50.85	35.66	10.82	
2025-01-17 00:01:51.05	35.68	10.84	
2025-01-17 00:01:51.25	35.71	10.85	
2025-01-17 00:01:51.46	35.74	10.87	
2025-01-17 00:01:51.66	35.76	10.89	
2025-01-17 00:01:51.86	35.79	10.90	
2025-01-17 00:01:52.07	35.81	10.92	
2025-01-17 00:01:52.27	35.84	10.93	
2025-01-17 00:01:52.47	35.86	10.95	
2025-01-17 00:01:52.68	35.89	10.96	
2025-01-17 00:01:52.88	35.92	10.98	
2025-01-17 00:01:53.08	35.94	10.99	
2025-01-17 00:01:53.28	35.97	11.01	
2025-01-17 00:01:53.49	36.00	11.03	
2025-01-17 00:01:53.69	36.02	11.04	
2025-01-17 00:01:53.89	36.05	11.06	
2025-01-17 00:01:54.10	36.07	11.07	
2025-01-17 00:01:54.30	36.10	11.09	
2025-01-17 00:01:54.50	36.13	11.10	
2025-01-17 00:01:54.71	36.15	11.12	
2025-01-17 00:01:54.91	36.18	11.14	
2025-01-17 00:01:55.11	36.20	11.15	
2025-01-17 00:01:55.31	36.23	11.17	
2025-01-17 00:01:55.52	36.26	11.18	
2025-01-17 00:01:55.72	36.28	11.20	
2025-01-17 00:01:55.92	36.31	11.21	
2025-01-17 00:01:56.13	36.34	11.23	
2025-01-17 00:01:56.33	36.36	11.25	
2025-01-17 00:01:56.53	36.39	11.26	
2025-01-17 00:01:56.73	36.42	11.28	
2025-01-17 00:01:56.94	36.44	11.29	
2025-01-17 00:01:57.14	36.47	11.31	
2025-01-17 00:01:57.34	36.50	11.32	
2025-01-17 00:01:57.55	36.52	11.34	
2025-01-17 00:01:57.75	36.55	11.36	
2025-01-17 00:01:57.95	36.58	11.37	
2025-01-17 00:01:58.16	36.60	11.39	
2025-01-17 00:01:58.36	36.63	11.40	
2025-01-17 00:01:58.56	36.66	11.42	
2025-01-17 00:01:58.76	36.68	11.43	
2025-01-17 00:01:58.97	36.71	11.45	
2025-01-17 00:01:59.17	36.74	11.47	
2025-01-17 00:01:59.37	36.76	11.48	
2025-01-17 00:01:59.58	36.79	11.50	
2025-01-17 00:01:59.78	36.82	11.51	
2025-01-17 00:01:59.98	36.85	11.53	
2025-01-17 00:02:00.19	36.87	11.55	
2025-01-17 00:02:00.39	36.90	11.56	
2025-01-17 00:02:00.59	36.93	11.58	
2025-01-17 00:02:00.79	36.95	11.59	
2025-01-17 00:02:01.00	36.98	11.61	
2025-01-17 00:02:01.20	37.01	11.62	
2025-01-17 00:02:01.40	37.04	11.64	
2025-01-17 00:02:01.61	37.06	11.66	
2025-01-17 00:02:01.81	37.09	11.67	
2025-01-17 00:02:02.01	37.12	11.69	
2025-01-17 00:02:02.22	37.15	11.70	
2025-01-17 00:02:02.42	37.17	11.72	
2025-01-17 00:02:02.62	37.20	11.74	
2025-01-17 00:02:02.82	37.23	11.75	
2025-01-17 00:02:03.03	37.26	11.77	
2025-01-17 00:02:03.23	37.28	11.78	
2025-01-17 00:02:03.43	37.31	11.80	
2025-01-17 00:02:03.64	37.34	11.82	
2025-01-17 00:02:03.84	37.37	11.83	
2025-01-17 00:02:04.04	37.39	11.85	
2025-01-17 00:02:04.24	37.42	11.86	
2025-01-17 00:02:04.45	37.45	11.88	
2025-01-17 00:02:04.65	37.48	11.90	
2025-01-17 00:02:04.85	37.50	11.91	
2025-01-17 00:02:05.06	37.53	11.93	
2025-01-17 00:02:05.26	37.56	11.94	
2025-01-17 00:02:05.46	37.59	11.96	
2025-01-17 00:02:05.67	37.62	11.98	
2025-01-17 00:02:05.87	37.64	11.99	
2025-01-17 00:02:06.07	37.67	12.01	
2025-01-17 00:02:06.27	37.70	12.02	
2025-01-17 00:02:06.48	37.73	12.04	
2025-01-17 00:02:06.68	37.75	12.06	
2025-01-17 00:02:06.88	37.78	12.07	
2025-01-17 00:02:07.09	37.81	12.09	
2025-01-17 00:02:07.29	37.84	12.10	
2025-01-17 00:02:07.49	37.87	12.12	
2025-01-17 00:02:07.69	37.89	12.14	
2025-01-17 00:02:07.90	37.92	12.15	
2025-01-17 00:02:08.10	37.95	12.17	
2025-01-17 00:02:08.30	37.98	12.18	
2025-01-17 00:02:08.51	38.01	12.20	
2025-01-17 00:02:08.71	38.04	12.22	
2025-01-17 00:02:08.91	38.07	12.23	
2025-01-17 00:02:09.12	38.09	12.25	
2025-01-17 00:02:09.32	38.12	12.26	
2025-01-17 00:02:09.52	38.15	12.28	
2025-01-17 00:02:09.72	38.18	12.30	
2025-01-17 00:02:09.93	38.21	12.31	
2025-01-17 00:02:10.13	38.24	12.33	
2025-01-17 00:02:10.33	38.26	12.35	
2025-01-17 00:02:10.54	38.29	12.36	
2025-01-17 00:02:10.74	38.32	12.38	
2025-01-17 00:02:10.94	38.35	12.39	
2025-01-17 00:02:11.15	38.38	12.41	
2025-01-17 00:02:11.35	38.41	12.43	
2025-01-17 00:02:11.55	38.44	12.44	
2025-01-17 00:02:11.75	38.47	12.46	
2025-01-17 00:02:11.96	38.50	12.48	
2025-01-17 00:02:12.16	38.52	12.49	
2025-01-17 00:02:12.36	38.55	12.51	
2025-01-17 00:02:12.57	38.58	12.52	
2025-01-17 00:02:12.77	38.61	12.54	
2025-01-17 00:02:12.97	38.64	12.56	
2025-01-17 00:02:13.18	38.67	12.57	
2025-01-17 00:02:13.38	38.70	12.59	
2025-01-17 00:02:13.58	38.73	12.60	
2025-01-17 00:02:13.78	38.76	12.62	
2025-01-17 00:02:13.99	38.79	12.64	
2025-01-17 00:02:14.19	38.82	12.65	
2025-01-17 00:02:14.39	38.84	12.67	
2025-01-17 00:02:14.60	38.87	12.69	
2025-01-17 00:02:14.80	38.90	12.70	
2025-01-17 00:02:15.00	38.93	12.72	
2025-01-17 00:02:15.20	38.96	12.73	
2025-01-17 00:02:15.41	38.99	12.75	
2025-01-17 00:02:15.61	39.02	12.77	
2025-01-17 00:02:15.81	39.05	12.78	
2025-01-17 00:02:16.02	39.08	12.80	
2025-01-17 00:02:16.22	39.11	12.82	
2025-01-17 00:02:16.42	39.14	12.83	
2025-01-17 00:02:16.63	39.17	12.85	
2025-01-17 00:02:16.83	39.20	12.87	
2025-01-17 00:02:17.03	39.23	12.88	
2025-01-17 00:02:17.23	39.26	12.90	
2025-01-17 00:02:17.44	39.29	12.91	
2025-01-17 00:02:17.64	39.32	12.93	
2025-01-17 00:02:17.84	39.35	12.95	
2025-01-17 00:02:18.05	39.38	12.96	
2025-01-17 00:02:18.25	39.41	12.98	
2025-01-17 00:02:18.45	39.44	13.00	
2025-01-17 00:02:18.66	39.47	13.01	
2025-01-17 00:02:18.86	39.50	13.03	
2025-01-17 00:02:19.06	39.53	13.05	
2025-01-17 00:02:19.26	39.56	13.06	
2025-01-17 00:02:19.47	39.59	13.08	
2025-01-17 00:02:19.67	39.62	13.09	
2025-01-17 00:02:19.87	39.65	13.11	
2025-01-17 00:02:20.08	39.68	13.13	
2025-01-17 00:02:20.28	39.71	13.14	
2025-01-17 00:02:20.48	39.74	13.16	
2025-01-17 00:02:20.69	39.77	13.18	
2025-01-17 00:02:20.89	39.80	13.19	
2025-01-17 00:02:21.09	39.83	13.21	
2025-01-17 00:02:21.29	39.86	13.23	
2025-01-17 00:02:21.50	39.89	13.24	
2025-01-17 00:02:21.70	39.92	13.26	
2025-01-17 00:02:21.90	39.95	13.28	
2025-01-17 00:02:22.11	39.98	13.29	
2025-01-17 00:02:22.31	40.01	13.31	
2025-01-17 00:02:22.51	40.04	13.32	
2025-01-17 00:02:22.71	40.07	13.34	
2025-01-17 00:02:22.92	40.11	13.36	
2025-01-17 00:02:23.12	40.14	13.37	
2025-01-17 00:02:23.32	40.17	13.39	
2025-01-17 00:02:23.53	40.20	13.41	
2025-01-17 00:02:23.73	40.23	13.42	
2025-01-17 00:02:23.93	40.26	13.44	
2025-01-17 00:02:24.14	40.29	13.46	
2025-01-17 00:02:24.34	40.32	13.47	
2025-01-17 00:02:24.54	40.35	13.49	
2025-01-17 00:02:24.74	40.38	13.51	
2025-01-17 00:02:24.95	40.42	13.52	
2025-01-17 00:02:25.15	40.45	13.54	
2025-01-17 00:02:25.35	40.48	13.56	
2025-01-17 00:02:25.56	40.51	13.57	
2025-01-17 00:02:25.76	40.54	13.59	
2025-01-17 00:02:25.96	40.57	13.61	
2025-01-17 00:02:26.17	40.60	13.62	
2025-01-17 00:02:26.37	40.63	13.64	
2025-01-17 00:02:26.57	40.67	13.66	
2025-01-17 00:02:26.77	40.70	13.67	
2025-01-17 00:02:26.98	40.73	13.69	
2025-01-17 00:02:27.18	40.76	13.71	
2025-01-17 00:02:27.38	40.79	13.72	
2025-01-17 00:02:27.59	40.82	13.74	
2025-01-17 00:02:27.79	40.86	13.76	
2025-01-17 00:02:27.99	40.89	13.77	
2025-01-17 00:02:28.19	40.92	13.79	
2025-01-17 00:02:28.40	40.95	13.81	
2025-01-17 00:02:28.60	40.98	13.82	
2025-01-17 00:02:28.80	41.01	13.84	
2025-01-17 00:02:29.01	41.05	13.86	
2025-01-17 00:02:29.21	41.08	13.87	
2025-01-17 00:02:29.41	41.11	13.89	
2025-01-17 00:02:29.62	41.14	13.91	
2025-01-17 00:02:29.82	41.17	13.92	
2025-01-17 00:02:30.02	41.21	13.94	
2025-01-17 00:02:30.22	41.24	13.95	
2025-01-17 00:02:30.43	41.27	13.97	
2025-01-17 00:02:30.63	41.30	13.99	
2025-01-17 00:02:30.83	41.33	14.01	
2025-01-17 00:02:31.04	41.37	14.02	
2025-01-17 00:02:31.24	41.40	14.04	
2025-01-17 00:02:31.44	41.43	14.06	
2025-01-17 00:02:31.65	41.46	14.07	
2025-01-17 00:02:31.85	41.50	14.09	
2025-01-17 00:02:32.05	41.53	14.11	
2025-01-17 00:02:32.25	41.56	14.12	
2025-01-17 00:02:32.46	41.59	14.14	
2025-01-17 00:02:32.66	41.63	14.16	
2025-01-17 00:02:32.86	41.66	14.17	
2025-01-17 00:02:33.07	41.69	14.19	
2025-01-17 00:02:33.27	41.72	14.21	
2025-01-17 00:02:33.47	41.76	14.22	
2025-01-17 00:02:33.67	41.79	14.24	
2025-01-17 00:02:33.88	41.82	14.26	
2025-01-17 00:02:34.08	41.85	14.27	
2025-01-17 00:02:34.28	41.89	14.29	
2025-01-17 00:02:34.49	41.92	14.31	
2025-01-17 00:02:34.69	41.95	14.32	
2025-01-17 00:02:34.89	41.99	14.34	
2025-01-17 00:02:35.10	42.02	14.36	
2025-01-17 00:02:35.30	42.05	14.37	
2025-01-17 00:02:35.50	42.08	14.39	
2025-01-17 00:02:35.70	42.12	14.41	
2025-01-17 00:02:35.91	42.15	14.42	
2025-01-17 00:02:36.11	42.18	14.44	
2025-01-17 00:02:36.31	42.22	14.46	
2025-01-17 00:02:36.52	42.25	14.48	
2025-01-17 00:02:36.72	42.28	14.49	
2025-01-17 00:02:36.92	42.32	14.51	
2025-01-17 00:02:37.13	42.35	14.53	
2025-01-17 00:02:37.33	42.38	14.54	
2025-01-17 00:02:37.53	42.42	14.56	
2025-01-17 00:02:37.73	42.45	14.58	
2025-01-17 00:02:37.94	42.48	14.59	
2025-01-17 00:02:38.14	42.52	14.61	
2025-01-17 00:02:38.34	42.55	14.63	
2025-01-17 00:02:38.55	42.59	14.64	
2025-01-17 00:02:38.75	42.62	14.66	
2025-01-17 00:02:38.95	42.65	14.68	
2025-01-17 00:02:39.16	42.69	14.69	
2025-01-17 00:02:39.36	42.72	14.71	
2025-01-17 00:02:39.56	42.75	14.73	
2025-01-17 00:02:39.76	42.79	14.74	
2025-01-17 00:02:39.97	42.82	14.76	
2025-01-17 00:02:40.17	42.86	14.78	
2025-01-17 00:02:40.37	42.89	14.80	
2025-01-17 00:02:40.58	42.92	14.81	
2025-01-17 00:02:40.78	42.96	14.83	
2025-01-17 00:02:40.98	42.99	14.85	
2025-01-17 00:02:41.18	43.03	14.86	
2025-01-17 00:02:41.39	43.06	14.88	
2025-01-17 00:02:41.59	43.09	14.90	
2025-01-17 00:02:41.79	43.13	14.91	
2025-01-17 00:02:42.00	43.16	14.93	
2025-01-17 00:02:42.20	43.20	14.95	
2025-01-17 00:02:42.40	43.23	14.96	
2025-01-17 00:02:42.61	43.27	14.98	
2025-01-17 00:02:42.81	43.30	15.00	
2025-01-17 00:02:43.01	43.34	15.02	
2025-01-17 00:02:43.21	43.37	15.03	
2025-01-17 00:02:43.42	43.41	15.05	
2025-01-17 00:02:43.62	43.44	15.07	
2025-01-17 00:02:43.82	43.47	15.08	
2025-01-17 00:02:44.03	43.51	15.10	
2025-01-17 00:02:44.23	43.54	15.12	
2025-01-17 00:02:44.43	43.58	15.13	
2025-01-17 00:02:44.64	43.61	15.15	
2025-01-17 00:02:44.84	43.65	15.17	
2025-01-17 00:02:45.04	43.68	15.19	
2025-01-17 00:02:45.24	43.72	15.20	
2025-01-17 00:02:45.45	43.75	15.22	
2025-01-17 00:02:45.65	43.79	15.24	
2025-01-17 00:02:45.85	43.82	15.25	
2025-01-17 00:02:46.06	43.86	15.27	
2025-01-17 00:02:46.26	43.89	15.29	
2025-01-17 00:02:46.46	43.93	15.30	
2025-01-17 00:02:46.66	43.96	15.32	
2025-01-17 00:02:46.87	44.00	15.34	
2025-01-17 00:02:47.07	44.03	15.36	
2025-01-17 00:02:47.27	44.07	15.37	
2025-01-17 00:02:47.48	44.11	15.39	
2025-01-17 00:02:47.68	44.14	15.41	
2025-01-17 00:02:47.88	44.18	15.42	
2025-01-17 00:02:48.09	44.21	15.44	
2025-01-17 00:02:48.29	44.25	15.46	
2025-01-17 00:02:48.49	44.28	15.48	
2025-01-17 00:02:48.69	44.32	15.49	
2025-01-17 00:02:48.90	44.36	15.51	
2025-01-17 00:02:49.10	44.39	15.53	
2025-01-17 00:02:49.30	44.43	15.54	
2025-01-17 00:02:49.51	44.46	15.56	
2025-01-17 00:02:49.71	44.50	15.58	
2025-01-17 00:02:49.91	44.53	15.59	
2025-01-17 00:02:50.12	44.57	15.61	
2025-01-17 00:02:50.32	44.61	15.63	
2025-01-17 00:02:50.52	44.64	15.65	
2025-01-17 00:02:50.72	44.68	15.66	
2025-01-17 00:02:50.93	44.72	15.68	
2025-01-17 00:02:51.13	44.75	15.70	
2025-01-17 00:02:51.33	44.79	15.71	
2025-01-17 00:02:51.54	44.82	15.73	
2025-01-17 00:02:51.74	44.86	15.75	
2025-01-17 00:02:51.94	44.90	15.77	
2025-01-17 00:02:52.14	44.93	15.78	
2025-01-17 00:02:52.35	44.97	15.80	
2025-01-17 00:02:52.55	45.01	15.82	
2025-01-17 00:02:52.75	45.04	15.83	
2025-01-17 00:02:52.96	45.08	15.85	
2025-01-17 00:02:53.16	45.12	15.87	
2025-01-17 00:02:53.36	45.15	15.89	
2025-01-17 00:02:53.57	45.19	15.90	
2025-01-17 00:02:53.77	45.23	15.92	
2025-01-17 00:02:53.97	45.26	15.94	
2025-01-17 00:02:54.17	45.30	15.95	
2025-01-17 00:02:54.38	45.34	15.97	
2025-01-17 00:02:54.58	45.37	15.99	
2025-01-17 00:02:54.78	45.41	16.01	
2025-01-17 00:02:54.99	45.45	16.02	
2025-01-17 00:02:55.19	45.48	16.04	
2025-01-17 00:02:55.39	45.52	16.06	
2025-01-17 00:02:55.60	45.56	16.07	
2025-01-17 00:02:55.80	45.60	16.09	
2025-01-17 00:02:56.00	45.63	16.11	
2025-01-17 00:02:56.20	45.67	16.13	
2025-01-17 00:02:56.41	45.71	16.14	
2025-01-17 00:02:56.61	45.74	16.16	
2025-01-17 00:02:56.81	45.78	16.18	
2025-01-17 00:02:57.02	45.82	16.20	
2025-01-17 00:02:57.22	45.86	16.21	
2025-01-17 00:02:57.42	45.89	16.23	
2025-01-17 00:02:57.63	45.93	16.25	
2025-01-17 00:02:57.83	45.97	16.26	
2025-01-17 00:02:58.03	46.01	16.28	
2025-01-17 00:02:58.23	46.04	16.30	
2025-01-17 00:02:58.44	46.08	16.32	
2025-01-17 00:02:58.64	46.12	16.33	
2025-01-17 00:02:58.84	46.16	16.35	
2025-01-17 00:02:59.05	46.20	16.37	
2025-01-17 00:02:59.25	46.24	16.38	
2025-01-17 00:02:59.45	46.27	16.40	
2025-01-17 00:02:59.65	46.31	16.42	
2025-01-17 00:02:59.86	46.35	16.44	
2025-01-17 00:03:00.06	46.39	16.45	
2025-01-17 00:03:00.26	46.42	16.47	
2025-01-17 00:03:00.47	46.46	16.49	
2025-01-17 00:03:00.67	46.50	16.50	
2025-01-17 00:03:00.87	46.54	16.52	
2025-01-17 00:03:01.08	46.58	16.54	
2025-01-17 00:03:01.28	46.62	16.56	
2025-01-17 00:03:01.48	46.66	16.57	
2025-01-17 00:03:01.68	46.69	16.59	
2025-01-17 00:03:01.89	46.73	16.61	
2025-01-17 00:03:02.09	46.77	16.63	
2025-01-17 00:03:02.29	46.81	16.64	
2025-01-17 00:03:02.50	46.85	16.66	
2025-01-17 00:03:02.70	46.89	16.68	
2025-01-17 00:03:02.90	46.93	16.69	
2025-01-17 00:03:03.11	46.97	16.71	
2025-01-17 00:03:03.31	47.00	16.73	
2025-01-17 00:03:03.51	47.04	16.75	
2025-01-17 00:03:03.71	47.08	16.76	
2025-01-17 00:03:03.92	47.12	16.78	
2025-01-17 00:03:04.12	47.16	16.80	
2025-01-17 00:03:04.32	47.20	16.81	
2025-01-17 00:03:04.53	47.24	16.83	
2025-01-17 00:03:04.73	47.28	16.85	
2025-01-17 00:03:04.93	47.32	16.87	
2025-01-17 00:03:05.13	47.35	16.88	
2025-01-17 00:03:05.34	47.40	16.90	
2025-01-17 00:03:05.54	47.43	16.92	
2025-01-17 00:03:05.74	47.47	16.94	
2025-01-17 00:03:05.95	47.51	16.95	
2025-01-17 00:03:06.15	47.55	16.97	
2025-01-17 00:03:06.35	47.59	16.99	
2025-01-17 00:03:06.56	47.63	17.01	
2025-01-17 00:03:06.76	47.67	17.02	
2025-01-17 00:03:06.96	47.71	17.04	
2025-01-17 00:03:07.16	47.75	17.06	
2025-01-17 00:03:07.37	47.79	17.07	
2025-01-17 00:03:07.57	47.83	17.09	
2025-01-17 00:03:07.77	47.87	17.11	
2025-01-17 00:03:07.98	47.91	17.13	
2025-01-17 00:03:08.18	47.95	17.14	
2025-01-17 00:03:08.38	47.99	17.16	
2025-01-17 00:03:08.59	48.03	17.18	
2025-01-17 00:03:08.79	48.07	17.20	
2025-01-17 00:03:08.99	48.11	17.21	
2025-01-17 00:03:09.19	48.15	17.23	
2025-01-17 00:03:09.40	48.19	17.25	
2025-01-17 00:03:09.60	48.23	17.26	
2025-01-17 00:03:09.80	48.27	17.28	
2025-01-17 00:03:10.01	48.31	17.30	
2025-01-17 00:03:10.21	48.35	17.32	
2025-01-17 00:03:10.41	48.39	17.33	
2025-01-17 00:03:10.61	48.43	17.35	
2025-01-17 00:03:10.82	48.48	17.37	
2025-01-17 00:03:11.02	48.52	17.39	
2025-01-17 00:03:11.22	48.56	17.40	
2025-01-17 00:03:11.43	48.60	17.42	
2025-01-17 00:03:11.63	48.64	17.44	
2025-01-17 00:03:11.83	48.68	17.45	
2025-01-17 00:03:12.04	48.72	17.47	
2025-01-17 00:03:12.24	48.76	17.49	
2025-01-17 00:03:12.44	48.80	17.51	
2025-01-17 00:03:12.64	48.84	17.52	
2025-01-17 00:03:12.85	48.88	17.54	
2025-01-17 00:03:13.05	48.93	17.56	
2025-01-17 00:03:13.25	48.97	17.58	
2025-01-17 00:03:13.46	49.01	17.59	
2025-01-17 00:03:13.66	49.05	17.61	
2025-01-17 00:03:13.86	49.09	17.63	
2025-01-17 00:03:14.07	49.13	17.65	
2025-01-17 00:03:14.27	49.17	17.66	
2025-01-17 00:03:14.47	49.21	17.68	
2025-01-17 00:03:14.67	49.26	17.70	
2025-01-17 00:03:14.88	49.30	17.71	
2025-01-17 00:03:15.08	49.34	17.73	
2025-01-17 00:03:15.28	49.38	17.75	
2025-01-17 00:03:15.49	49.42	17.77	
2025-01-17 00:03:15.69	49.47	17.78	
2025-01-17 00:03:15.89	49.51	17.80	
2025-01-17 00:03:16.10	49.55	17.82	
2025-01-17 00:03:16.30	49.59	17.83	
2025-01-17 00:03:16.50	49.63	17.85	
2025-01-17 00:03:16.70	49.67	17.87	
2025-01-17 00:03:16.91	49.72	17.89	
2025-01-17 00:03:17.11	49.76	17.90	
2025-01-17 00:03:17.31	49.80	17.92	
2025-01-17 00:03:17.52	49.84	17.94	
2025-01-17 00:03:17.72	49.89	17.96	
2025-01-17 00:03:17.92	49.93	17.97	
2025-01-17 00:03:18.12	49.97	17.99	
2025-01-17 00:03:18.33	50.01	18.01	
2025-01-17 00:03:18.53	50.06	18.02	
2025-01-17 00:03:18.73	50.10	18.04	
2025-01-17 00:03:18.94	50.14	18.06	
2025-01-17 00:03:19.14	50.18	18.08	
2025-01-17 00:03:19.34	50.23	18.09	
2025-01-17 00:03:19.55	50.27	18.11	
2025-01-17 00:03:19.75	50.31	18.13	
2025-01-17 00:03:19.95	50.35	18.15	
2025-01-17 00:03:20.15	50.40	18.16	
2025-01-17 00:03:20.36	50.44	18.18	
2025-01-17 00:03:20.56	50.48	18.20	
2025-01-17 00:03:20.76	50.53	18.21	
2025-01-17 00:03:20.97	50.57	18.23	
2025-01-17 00:03:21.17	50.61	18.25	
2025-01-17 00:03:21.37	50.66	18.27	
2025-01-17 00:03:21.58	50.70	18.28	
2025-01-17 00:03:21.78	50.74	18.30	
2025-01-17 00:03:21.98	50.79	18.32	
2025-01-17 00:03:22.18	50.83	18.34	
2025-01-17 00:03:22.39	50.87	18.35	
2025-01-17 00:03:22.59	50.92	18.37	
2025-01-17 00:03:22.79	50.96	18.39	
2025-01-17 00:03:23.00	51.00	18.40	
2025-01-17 00:03:23.20	51.05	18.42	
2025-01-17 00:03:23.40	51.09	18.44	
2025-01-17 00:03:23.60	51.13	18.46	
2025-01-17 00:03:23.81	51.18	18.47	
2025-01-17 00:03:24.01	51.22	18.49	
2025-01-17 00:03:24.21	51.27	18.51	
2025-01-17 00:03:24.42	51.31	18.53	
2025-01-17 00:03:24.62	51.35	18.54	
2025-01-17 00:03:24.82	51.40	18.56	
2025-01-17 00:03:25.03	51.44	18.58	
2025-01-17 00:03:25.23	51.49	18.59	
2025-01-17 00:03:25.43	51.53	18.61	
2025-01-17 00:03:25.63	51.57	18.63	
2025-01-17 00:03:25.84	51.62	18.65	
2025-01-17 00:03:26.04	51.66	18.66	
2025-01-17 00:03:26.24	51.71	18.68	
2025-01-17 00:03:26.45	51.75	18.70	
2025-01-17 00:03:26.65	51.80	18.71	
2025-01-17 00:03:26.85	51.84	18.73	
2025-01-17 00:03:27.06	51.89	18.75	
2025-01-17 00:03:27.26	51.93	18.77	
2025-01-17 00:03:27.46	51.98	18.78	
2025-01-17 00:03:27.66	52.02	18.80	
2025-01-17 00:03:27.87	52.07	18.82	
2025-01-17 00:03:28.07	52.11	18.83	
2025-01-17 00:03:28.27	52.15	18.85	
2025-01-17 00:03:28.48	52.20	18.87	
2025-01-17 00:03:28.68	52.25	18.89	
2025-01-17 00:03:28.88	52.29	18.90	
2025-01-17 00:03:29.08	52.33	18.92	
2025-01-17 00:03:29.29	52.38	18.94	
2025-01-17 00:03:29.49	52.43	18.95	
2025-01-17 00:03:29.69	52.47	18.97	
2025-01-17 00:03:29.90	52.52	18.99	
2025-01-17 00:03:30.10	52.56	19.01	
2025-01-17 00:03:30.30	52.61	19.02	
2025-01-17 00:03:30.51	52.65	19.04	
2025-01-17 00:03:30.71	52.70	19.06	
2025-01-17 00:03:30.91	52.74	19.07	
2025-01-17 00:03:31.11	52.79	19.09	
2025-01-17 00:03:31.32	52.84	19.11	
2025-01-17 00:03:31.52	52.88	19.13	
2025-01-17 00:03:31.72	52.93	19.14	
2025-01-17 00:03:31.93	52.97	19.16	
2025-01-17 00:03:32.13	53.02	19.18	
2025-01-17 00:03:32.33	53.07	19.19	
2025-01-17 00:03:32.54	53.11	19.21	
2025-01-17 00:03:32.74	53.16	19.23	
2025-01-17 00:03:32.94	53.20	19.25	
2025-01-17 00:03:33.14	53.25	19.26	
2025-01-17 00:03:33.35	53.30	19.28	
2025-01-17 00:03:33.55	53.34	19.30	
2025-01-17 00:03:33.75	53.39	19.31	
2025-01-17 00:03:33.96	53.44	19.33	
2025-01-17 00:03:34.16	53.48	19.35	
2025-01-17 00:03:34.36	53.53	19.37	
2025-01-17 00:03:34.57	53.58	19.38	
2025-01-17 00:03:34.77	53.62	19.40	
2025-01-17 00:03:34.97	53.67	19.42	
2025-01-17 00:03:35.17	53.71	19.43	
2025-01-17 00:03:35.38	53.76	19.45	
2025-01-17 00:03:35.58	53.81	19.47	
2025-01-17 00:03:35.78	53.86	19.48	
2025-01-17 00:03:35.99	53.90	19.50	
2025-01-17 00:03:36.19	53.95	19.52	
2025-01-17 00:03:36.39	54.00	19.54	
2025-01-17 00:03:36.59	54.04	19.55	
2025-01-17 00:03:36.80	54.09	19.57	
2025-01-17 00:03:37.00	54.14	19.59	
2025-01-17 00:03:37.20	54.19	19.60	
2025-01-17 00:03:37.41	54.23	19.62	
2025-01-17 00:03:37.61	54.28	19.64	
2025-01-17 00:03:37.81	54.33	19.65	
2025-01-17 00:03:38.02	54.38	19.67	
2025-01-17 00:03:38.22	54.42	19.69	
2025-01-17 00:03:38.42	54.47	19.71	
2025-01-17 00:03:38.62	54.52	19.72	
2025-01-17 00:03:38.83	54.57	19.74	
2025-01-17 00:03:39.03	54.61	19.76	
2025-01-17 00:03:39.23	54.66	19.77	
2025-01-17 00:03:39.44	54.71	19.79	
2025-01-17 00:03:39.64	54.76	19.81	
2025-01-17 00:03:39.84	54.81	19.82	
2025-01-17 00:03:40.04	54.85	19.84	
2025-01-17 00:03:40.25	54.90	19.86	
2025-01-17 00:03:40.45	54.95	19.87	
2025-01-17 00:03:40.65	55.00	19.89	
2025-01-17 00:03:40.86	55.05	19.91	
2025-01-17 00:03:41.06	55.10	19.92	
2025-01-17 00:03:41.26	55.14	19.94	
2025-01-17 00:03:41.47	55.19	19.96	
2025-01-17 00:03:41.67	55.24	19.98	
2025-01-17 00:03:41.87	55.29	19.99	
2025-01-17 00:03:42.07	55.34	20.01	
2025-01-17 00:03:42.28	55.39	20.03	
2025-01-17 00:03:42.48	55.44	20.04	
2025-01-17 00:03:42.68	55.48	20.06	
2025-01-17 00:03:42.89	55.53	20.08	
2025-01-17 00:03:43.09	55.58	20.09	
2025-01-17 00:03:43.29	55.63	20.11	
2025-01-17 00:03:43.50	55.68	20.13	
2025-01-17 00:03:43.70	55.73	20.14	
2025-01-17 00:03:43.90	55.78	20.16	
2025-01-17 00:03:44.10	55.83	20.18	
2025-01-17 00:03:44.31	55.88	20.19	
2025-01-17 00:03:44.51	55.93	20.21	
2025-01-17 00:03:44.71	55.97	20.23	
2025-01-17 00:03:44.92	56.03	20.24	
2025-01-17 00:03:45.12	56.07	20.26	
2025-01-17 00:03:45.32	56.12	20.28	
2025-01-17 00:03:45.53	56.17	20.29	
2025-01-17 00:03:45.73	56.22	20.31	
2025-01-17 00:03:45.93	56.27	20.33	
2025-01-17 00:03:46.13	56.32	20.34	
2025-01-17 00:03:46.34	56.37	20.36	
2025-01-17 00:03:46.54	56.42	20.38	
2025-01-17 00:03:46.74	56.47	20.39	
2025-01-17 00:03:46.95	56.52	20.41	
2025-01-17 00:03:47.15	56.57	20.43	
2025-01-17 00:03:47.35	56.62	20.44	
2025-01-17 00:03:47.55	56.67	20.46	
2025-01-17 00:03:47.76	56.72	20.48	
2025-01-17 00:03:47.96	56.77	20.49	
2025-01-17 00:03:48.16	56.82	20.51	
2025-01-17 00:03:48.37	56.87	20.53	
2025-01-17 00:03:48.57	56.92	20.54	
2025-01-17 00:03:48.77	56.97	20.56	
2025-01-17 00:03:48.98	57.03	20.58	
2025-01-17 00:03:49.18	57.08	20.59	
2025-01-17 00:03:49.38	57.13	20.61	
2025-01-17 00:03:49.58	57.18	20.63	
2025-01-17 00:03:49.79	57.23	20.64	
2025-01-17 00:03:49.99	57.28	20.66	
2025-01-17 00:03:50.19	57.33	20.68	
2025-01-17 00:03:50.40	57.38	20.69	
2025-01-17 00:03:50.60	57.43	20.71	
2025-01-17 00:03:50.80	57.48	20.72	
2025-01-17 00:03:51.01	57.53	20.74	
2025-01-17 00:03:51.21	57.58	20.76	
2025-01-17 00:03:51.41	57.64	20.77	
2025-01-17 00:03:51.61	57.69	20.79	
2025-01-17 00:03:51.82	57.74	20.81	
2025-01-17 00:03:52.02	57.79	20.82	
2025-01-17 00:03:52.22	57.84	20.84	
2025-01-17 00:03:52.43	57.89	20.86	
2025-01-17 00:03:52.63	57.94	20.87	
2025-01-17 00:03:52.83	58.00	20.89	
2025-01-17 00:03:53.03	58.05	20.90	
2025-01-17 00:03:53.24	58.10	20.92	
2025-01-17 00:03:53.44	58.15	20.94	
2025-01-17 00:03:53.64	58.20	20.95	
2025-01-17 00:03:53.85	58.26	20.97	
2025-01-17 00:03:54.05	58.31	20.99	
2025-01-17 00:03:54.25	58.36	21.00	
2025-01-17 00:03:54.46	58.41	21.02	
2025-01-17 00:03:54.66	58.46	21.04	
2025-01-17 00:03:54.86	58.51	21.05	
2025-01-17 00:03:55.06	58.57	21.07	
2025-01-17 00:03:55.27	58.62	21.08	
2025-01-17 00:03:55.47	58.67	21.10	
2025-01-17 00:03:55.67	58.72	21.12	
2025-01-17 00:03:55.88	58.78	21.13	
2025-01-17 00:03:56.08	58.83	21.15	
2025-01-17 00:03:56.28	58.88	21.17	
2025-01-17 00:03:56.49	58.94	21.18	
2025-01-17 00:03:56.69	58.99	21.20	
2025-01-17 00:03:56.89	59.04	21.21	
2025-01-17 00:03:57.09	59.09	21.23	
2025-01-17 00:03:57.30	59.15	21.25	
2025-01-17 00:03:57.50	59.20	21.26	
2025-01-17 00:03:57.70	59.25	21.28	
2025-01-17 00:03:57.91	59.31	21.29	
2025-01-17 00:03:58.11	59.36	21.31	
2025-01-17 00:03:58.31	59.41	21.33	
2025-01-17 00:03:58.52	59.46	21.34	
2025-01-17 00:03:58.72	59.52	21.36	
2025-01-17 00:03:58.92	59.57	21.37	
2025-01-17 00:03:59.12	59.62	21.39	
2025-01-17 00:03:59.33	59.68	21.41	
2025-01-17 00:03:59.53	59.73	21.42	
2025-01-17 00:03:59.73	59.78	21.44	
2025-01-17 00:03:59.94	59.84	21.45	
2025-01-17 00:04:00.14	59.89	21.47	
2025-01-17 00:04:00.34	59.94	21.49	
2025-01-17 00:04:00.54	60.00	21.50	
2025-01-17 00:04:00.75	60.05	21.52	
2025-01-17 00:04:00.95	60.11	21.53	
2025-01-17 00:04:01.15	60.16	21.55	
2025-01-17 00:04:01.36	60.22	21.57	
2025-01-17 00:04:01.56	60.27	21.58	
2025-01-17 00:04:01.76	60.32	21.60	
2025-01-17 00:04:01.97	60.38	21.61	
2025-01-17 00:04:02.17	60.43	21.63	
2025-01-17 00:04:02.37	60.48	21.64	
2025-01-17 00:04:02.57	60.54	21.66	
2025-01-17 00:04:02.78	60.59	21.68	
2025-01-17 00:04:02.98	60.65	21.69	
2025-01-17 00:04:03.18	60.70	21.71	
2025-01-17 00:04:03.39	60.76	21.72	
2025-01-17 00:04:03.59	60.81	21.74	
2025-01-17 00:04:03.79	60.87	21.75	
2025-01-17 00:04:04.00	60.92	21.77	
2025-01-17 00:04:04.20	60.98	21.79	
2025-01-17 00:04:04.40	61.03	21.80	
2025-01-17 00:04:04.60	61.08	21.82	
2025-01-17 00:04:04.81	61.14	21.83	
2025-01-17 00:04:05.01	61.20	21.85	
2025-01-17 00:04:05.21	61.25	21.86	
2025-01-17 00:04:05.42	61.31	21.88	
2025-01-17 00:04:05.62	61.36	21.90	
2025-01-17 00:04:05.82	61.42	21.91	
2025-01-17 00:04:06.02	61.47	21.93	
2025-01-17 00:04:06.23	61.53	21.94	
2025-01-17 00:04:06.43	61.58	21.96	
2025-01-17 00:04:06.63	61.64	21.97	
2025-01-17 00:04:06.84	61.69	21.99	
2025-01-17 00:04:07.04	61.75	22.00	
2025-01-17 00:04:07.24	61.80	22.02	
2025-01-17 00:04:07.45	61.86	22.03	
2025-01-17 00:04:07.65	61.92	22.05	
2025-01-17 00:04:07.85	61.97	22.06	
2025-01-17 00:04:08.05	62.03	22.08	
2025-01-17 00:04:08.26	62.08	22.10	
2025-01-17 00:04:08.46	62.14	22.11	
2025-01-17 00:04:08.66	62.19	22.13	
2025-01-17 00:04:08.87	62.25	22.14	
2025-01-17 00:04:09.07	62.31	22.16	
2025-01-17 00:04:09.27	62.36	22.17	
2025-01-17 00:04:09.48	62.42	22.19	
2025-01-17 00:04:09.68	62.48	22.20	
2025-01-17 00:04:09.88	62.53	22.22	
2025-01-17 00:04:10.08	62.59	22.23	
2025-01-17 00:04:10.29	62.65	22.25	
2025-01-17 00:04:10.49	62.70	22.26	
2025-01-17 00:04:10.69	62.76	22.28	
2025-01-17 00:04:10.90	62.82	22.29	
2025-01-17 00:04:11.10	62.87	22.31	
2025-01-17 00:04:11.30	62.93	22.32	
2025-01-17 00:04:11.50	62.99	22.34	
2025-01-17 00:04:11.71	63.04	22.35	
2025-01-17 00:04:11.91	63.10	22.37	
2025-01-17 00:04:12.11	63.16	22.38	
2025-01-17 00:04:12.32	63.22	22.40	
2025-01-17 00:04:12.52	63.27	22.41	
2025-01-17 00:04:12.72	63.33	22.43	
2025-01-17 00:04:12.93	63.39	22.44	
2025-01-17 00:04:13.13	63.44	22.46	
2025-01-17 00:04:13.33	63.50	22.47	
2025-01-17 00:04:13.53	63.56	22.49	
2025-01-17 00:04:13.74	63.62	22.50	
2025-01-17 00:04:13.94	63.67	22.52	
2025-01-17 00:04:14.14	63.73	22.53	
2025-01-17 00:04:14.35	63.79	22.55	
2025-01-17 00:04:14.55	63.85	22.56	
2025-01-17 00:04:14.75	63.90	22.58	
2025-01-17 00:04:14.96	63.96	22.59	
2025-01-17 00:04:15.16	64.02	22.61	
2025-01-17 00:04:15.36	64.08	22.62	
2025-01-17 00:04:15.56	64.13	22.64	
2025-01-17 00:04:15.77	64.19	22.65	
2025-01-17 00:04:15.97	64.25	22.67	
2025-01-17 00:04:16.17	64.31	22.68	
2025-01-17 00:04:16.38	64.37	22.69	
2025-01-17 00:04:16.58	64.43	22.71	
2025-01-17 00:04:16.78	64.48	22.72	
2025-01-17 00:04:16.99	64.54	22.74	
2025-01-17 00:04:17.19	64.60	22.75	
2025-01-17 00:04:17.39	64.66	22.77	
2025-01-17 00:04:17.59	64.72	22.78	
2025-01-17 00:04:17.80	64.78	22.80	
2025-01-17 00:04:18.00	64.84	22.81	
2025-01-17 00:04:18.20	64.89	22.83	
2025-01-17 00:04:18.41	64.95	22.84	
2025-01-17 00:04:18.61	65.01	22.85	
2025-01-17 00:04:18.81	65.07	22.87	
2025-01-17 00:04:19.01	65.13	22.88	
2025-01-17 00:04:19.22	65.19	22.90	
2025-01-17 00:04:19.42	65.25	22.91	
2025-01-17 00:04:19.62	65.31	22.93	
2025-01-17 00:04:19.83	65.37	22.94	
2025-01-17 00:04:20.03	65.43	22.95	
2025-01-17 00:04:20.23	65.48	22.97	
2025-01-17 00:04:20.44	65.55	22.98	
2025-01-17 00:04:20.64	65.60	23.00	
2025-01-17 00:04:20.84	65.66	23.01	
2025-01-17 00:04:21.04	65.72	23.02	
2025-01-17 00:04:21.25	65.78	23.04	
2025-01-17 00:04:21.45	65.84	23.05	
2025-01-17 00:04:21.65	65.90	23.07	
2025-01-17 00:04:21.86	65.96	23.08	
2025-01-17 00:04:22.06	66.02	23.10	
2025-01-17 00:04:22.26	66.08	23.11	
2025-01-17 00:04:22.47	66.14	23.12	
2025-01-17 00:04:22.67	66.20	23.14	
2025-01-17 00:04:22.87	66.26	23.15	
2025-01-17 00:04:23.07	66.32	23.16	
2025-01-17 00:04:23.28	66.38	23.18	
2025-01-17 00:04:23.48	66.44	23.19	
2025-01-17 00:04:23.68	66.50	23.21	
2025-01-17 00:04:23.89	66.56	23.22	
2025-01-17 00:04:24.09	66.62	23.23	
2025-01-17 00:04:24.29	66.68	23.25	
2025-01-17 00:04:24.49	66.74	23.26	
2025-01-17 00:04:24.70	66.80	23.28	
2025-01-17 00:04:24.90	66.86	23.29	
2025-01-17 00:04:25.10	66.92	23.30	
2025-01-17 00:04:25.31	66.99	23.32	
2025-01-17 00:04:25.51	67.05	23.33	
2025-01-17 00:04:25.71	67.10	23.34	
2025-01-17 00:04:25.92	67.17	23.36	
2025-01-17 00:04:26.12	67.23	23.37	
2025-01-17 00:04:26.32	67.29	23.38	
2025-01-17 00:04:26.52	67.35	23.40	
2025-01-17 00:04:26.73	67.41	23.41	
2025-01-17 00:04:26.93	67.47	23.42	
2025-01-17 00:04:27.13	67.53	23.44	
2025-01-17 00:04:27.34	67.59	23.45	
2025-01-17 00:04:27.54	67.66	23.47	
2025-01-17 00:04:27.74	67.72	23.48	
2025-01-17 00:04:27.95	67.78	23.49	
2025-01-17 00:04:28.15	67.84	23.51	
2025-01-17 00:04:28.35	67.90	23.52	
2025-01-17 00:04:28.55	67.96	23.53	
2025-01-17 00:04:28.76	68.02	23.55	
2025-01-17 00:04:28.96	68.09	23.56	
2025-01-17 00:04:29.16	68.15	23.57	
2025-01-17 00:04:29.37	68.21	23.58	
2025-01-17 00:04:29.57	68.27	23.60	
2025-01-17 00:04:29.77	68.33	23.61	
2025-01-17 00:04:29.97	68.39	23.62	
2025-01-17 00:04:30.18	68.46	23.64	
2025-01-17 00:04:30.38	68.52	23.65	
2025-01-17 00:04:30.58	68.58	23.66	
2025-01-17 00:04:30.79	68.64	23.68	
2025-01-17 00:04:30.99	68.70	23.69	
2025-01-17 00:04:31.19	68.77	23.70	
2025-01-17 00:04:31.40	68.83	23.71	
2025-01-17 00:04:31.60	68.89	23.73	
2025-01-17 00:04:31.80	68.95	23.74	
2025-01-17 00:04:32.00	69.01	23.75	
2025-01-17 00:04:32.21	69.08	23.77	
2025-01-17 00:04:32.41	69.14	23.78	
2025-01-17 00:04:32.61	69.20	23.79	
2025-01-17 00:04:32.82	69.27	23.80	
2025-01-17 00:04:33.02	69.33	23.82	
2025-01-17 00:04:33.22	69.39	23.83	
2025-01-17 00:04:33.43	69.46	23.84	
2025-01-17 00:04:33.63	69.52	23.85	
2025-01-17 00:04:33.83	69.58	23.87	
2025-01-17 00:04:34.03	69.64	23.88	
2025-01-17 00:04:34.24	69.71	23.89	
2025-01-17 00:04:34.44	69.77	23.90	
2025-01-17 00:04:34.64	69.83	23.92	
2025-01-17 00:04:34.85	69.90	23.93	
2025-01-17 00:04:35.05	69.96	23.94	
2025-01-17 00:04:35.25	70.02	23.95	
2025-01-17 00:04:35.46	70.09	23.97	
2025-01-17 00:04:35.66	70.15	23.98	
2025-01-17 00:04:35.86	70.21	23.99	
2025-01-17 00:04:36.06	70.27	24.00	
2025-01-17 00:04:36.27	70.34	24.02	
2025-01-17 00:04:36.47	70.40	24.03	
2025-01-17 00:04:36.67	70.47	24.04	
2025-01-17 00:04:36.88	70.53	24.05	
2025-01-17 00:04:37.08	70.59	24.06	
2025-01-17 00:04:37.28	70.66	24.08	
2025-01-17 00:04:37.48	70.72	24.09	
2025-01-17 00:04:37.69	70.79	24.10	
2025-01-17 00:04:37.89	70.85	24.11	
2025-01-17 00:04:38.09	70.91	24.12	
2025-01-17 00:04:38.30	70.98	24.14	
2025-01-17 00:04:38.50	71.04	24.15	
2025-01-17 00:04:38.70	71.10	24.16	
2025-01-17 00:04:38.91	71.17	24.17	
2025-01-17 00:04:39.11	71.23	24.18	
2025-01-17 00:04:39.31	71.30	24.20	
2025-01-17 00:04:39.51	71.36	24.21	
2025-01-17 00:04:39.72	71.43	24.22	
2025-01-17 00:04:39.92	71.49	24.23	
2025-01-17 00:04:40.12	71.55	24.24	
2025-01-17 00:04:40.33	71.62	24.25	
2025-01-17 00:04:40.53	71.69	24.27	
2025-01-17 00:04:40.73	71.75	24.28	
2025-01-17 00:04:40.94	71.82	24.29	
2025-01-17 00:04:41.14	71.88	24.30	
2025-01-17 00:04:41.34	71.94	24.31	
2025-01-17 00:04:41.54	72.01	24.32	
2025-01-17 00:04:41.75	72.07	24.34	
2025-01-17 00:04:41.95	72.14	24.35	
2025-01-17 00:04:42.15	72.20	24.36	
2025-01-17 00:04:42.36	72.27	24.37	
2025-01-17 00:04:42.56	72.33	24.38	
2025-01-17 00:04:42.76	72.40	24.39	
2025-01-17 00:04:42.96	72.46	24.40	
2025-01-17 00:04:43.17	72.53	24.41	
2025-01-17 00:04:43.37	72.59	24.43	
2025-01-17 00:04:43.57	72.66	24.44	
2025-01-17 00:04:43.78	72.73	24.45	
2025-01-17 00:04:43.98	72.79	24.46	
2025-01-17 00:04:44.18	72.85	24.47	
2025-01-17 00:04:44.39	72.92	24.48	
2025-01-17 00:04:44.59	72.99	24.49	
2025-01-17 00:04:44.79	73.05	24.50	
2025-01-17 00:04:44.99	73.12	24.51	
2025-01-17 00:04:45.20	73.18	24.52	
2025-01-17 00:04:45.40	73.25	24.54	
2025-01-17 00:04:45.60	73.31	24.55	
2025-01-17 00:04:45.81	73.38	24.56	
2025-01-17 00:04:46.01	73.45	24.57	
2025-01-17 00:04:46.21	73.51	24.58	
2025-01-17 00:04:46.42	73.58	24.59	
2025-01-17 00:04:46.62	73.65	24.60	
2025-01-17 00:04:46.82	73.71	24.61	
2025-01-17 00:04:47.02	73.78	24.62	
2025-01-17 00:04:47.23	73.84	24.63	
2025-01-17 00:04:47.43	73.91	24.64	
2025-01-17 00:04:47.63	73.97	24.65	
2025-01-17 00:04:47.84	74.04	24.66	
2025-01-17 00:04:48.04	74.11	24.67	
2025-01-17 00:04:48.24	74.17	24.68	
2025-01-17 00:04:48.44	74.24	24.69	
2025-01-17 00:04:48.65	74.31	24.70	
2025-01-17 00:04:48.85	74.37	24.71	
2025-01-17 00:04:49.05	74.44	24.72	
2025-01-17 00:04:49.26	74.51	24.73	
2025-01-17 00:04:49.46	74.57	24.75	
2025-01-17 00:04:49.66	74.64	24.76	
2025-01-17 00:04:49.87	74.71	24.77	
2025-01-17 00:04:50.07	74.77	24.78	
2025-01-17 00:04:50.27	74.84	24.79	
2025-01-17 00:04:50.47	74.91	24.80	
2025-01-17 00:04:50.68	74.98	24.81	
2025-01-17 00:04:50.88	75.04	24.82	
2025-01-17 00:04:51.08	75.11	24.82	
2025-01-17 00:04:51.29	75.18	24.84	
2025-01-17 00:04:51.49	75.24	24.84	
2025-01-17 00:04:51.69	75.31	24.85	
2025-01-17 00:04:51.90	75.38	24.86	
2025-01-17 00:04:52.10	75.44	24.87	
2025-01-17 00:04:52.30	75.51	24.88	
2025-01-17 00:04:52.50	75.58	24.89	
2025-01-17 00:04:52.71	75.65	24.90	
2025-01-17 00:04:52.91	75.71	24.91	
2025-01-17 00:04:53.11	75.78	24.92	
2025-01-17 00:04:53.32	75.85	24.93	
2025-01-17 00:04:53.52	75.92	24.94	
2025-01-17 00:04:53.72	75.98	24.95	
2025-01-17 00:04:53.93	76.05	24.96	
2025-01-17 00:04:54.13	76.12	24.97	
2025-01-17 00:04:54.33	76.19	24.98	
2025-01-17 00:04:54.53	76.25	24.99	
2025-01-17 00:04:54.74	76.32	25.00	
2025-01-17 00:04:54.94	76.39	25.01	
2025-01-17 00:04:55.14	76.46	25.02	
2025-01-17 00:04:55.35	76.53	25.02	
2025-01-17 00:04:55.55	76.59	25.03	
2025-01-17 00:04:55.75	76.66	25.04	
2025-01-17 00:04:55.95	76.73	25.05	
2025-01-17 00:04:56.16	76.80	25.06	
2025-01-17 00:04:56.36	76.87	25.07	
2025-01-17 00:04:56.56	76.93	25.08	
2025-01-17 00:04:56.77	77.00	25.09	
2025-01-17 00:04:56.97	77.07	25.10	
2025-01-17 00:04:57.17	77.14	25.10	
2025-01-17 00:04:57.38	77.21	25.11	
2025-01-17 00:04:57.58	77.28	25.12	
2025-01-17 00:04:57.78	77.34	25.13	
2025-01-17 00:04:57.98	77.41	25.14	
2025-01-17 00:04:58.19	77.48	25.15	
2025-01-17 00:04:58.39	77.55	25.16	
2025-01-17 00:04:58.59	77.62	25.17	
2025-01-17 00:04:58.80	77.69	25.17	
2025-01-17 00:04:59.00	77.75	25.18	
2025-01-17 00:04:59.20	77.82	25.19	
2025-01-17 00:04:59.41	77.89	25.20	
2025-01-17 00:04:59.61	77.96	25.21	
2025-01-17 00:04:59.81	78.03	25.22	
2025-01-17 00:05:00.01	78.10	25.22	
2025-01-17 00:05:00.22	78.17	25.23	
2025-01-17 00:05:00.42	78.24	25.24	
2025-01-17 00:05:00.62	78.30	25.25	
2025-01-17 00:05:00.83	78.37	25.26	
2025-01-17 00:05:01.03	78.44	25.26	
2025-01-17 00:05:01.23	78.51	25.27	
2025-01-17 00:05:01.43	78.58	25.28	
2025-01-17 00:05:01.64	78.65	25.29	
2025-01-17 00:05:01.84	78.72	25.30	
2025-01-17 00:05:02.04	78.79	25.30	
2025-01-17 00:05:02.25	78.86	25.31	
2025-01-17 00:05:02.45	78.93	25.32	
2025-01-17 00:05:02.65	78.99	25.33	
2025-01-17 00:05:02.86	79.07	25.34	
2025-01-17 00:05:03.06	79.13	25.34	
2025-01-17 00:05:03.26	79.20	25.35	
2025-01-17 00:05:03.46	79.27	25.36	
2025-01-17 00:05:03.67	79.34	25.37	
2025-01-17 00:05:03.87	79.41	25.37	
2025-01-17 00:05:04.07	79.48	25.38	
2025-01-17 00:05:04.28	79.55	25.39	
2025-01-17 00:05:04.48	79.62	25.40	
2025-01-17 00:05:04.68	79.69	25.40	
2025-01-17 00:05:04.89	79.76	25.41	
2025-01-17 00:05:05.09	79.83	25.42	
2025-01-17 00:05:05.29	79.90	25.42	
2025-01-17 00:05:05.49	79.97	25.43	
2025-01-17 00:05:05.70	80.04	25.44	
2025-01-17 00:05:05.90	80.11	25.45	
2025-01-17 00:05:06.10	80.18	25.45	
2025-01-17 00:05:06.31	80.25	25.46	
2025-01-17 00:05:06.51	80.32	25.47	
2025-01-17 00:05:06.71	80.39	25.47	
2025-01-17 00:05:06.91	80.46	25.48	
2025-01-17 00:05:07.12	80.53	25.49	
2025-01-17 00:05:07.32	80.60	25.49	
2025-01-17 00:05:07.52	80.67	25.50	
2025-01-17 00:05:07.73	80.74	25.51	
2025-01-17 00:05:07.93	80.81	25.52	
2025-01-17 00:05:08.13	80.88	25.52	
2025-01-17 00:05:08.34	80.95	25.53	
2025-01-17 00:05:08.54	81.02	25.53	
2025-01-17 00:05:08.74	81.09	25.54	
2025-01-17 00:05:08.94	81.16	25.55	
2025-01-17 00:05:09.15	81.23	25.55	
2025-01-17 00:05:09.35	81.30	25.56	
2025-01-17 00:05:09.55	81.37	25.57	
2025-01-17 00:05:09.76	81.44	25.57	
2025-01-17 00:05:09.96	81.51	25.58	
2025-01-17 00:05:10.16	81.58	25.59	
2025-01-17 00:05:10.37	81.65	25.59	
2025-01-17 00:05:10.57	81.72	25.60	
2025-01-17 00:05:10.77	81.79	25.60	
2025-01-17 00:05:10.97	81.86	25.61	
2025-01-17 00:05:11.18	81.93	25.62	
2025-01-17 00:05:11.38	82.00	25.62	
2025-01-17 00:05:11.58	82.07	25.63	
2025-01-17 00:05:11.79	82.15	25.63	
2025-01-17 00:05:11.99	82.22	25.64	
2025-01-17 00:05:12.19	82.29	25.65	
2025-01-17 00:05:12.39	82.36	25.65	
2025-01-17 00:05:12.60	82.43	25.66	
2025-01-17 00:05:12.80	82.50	25.66	
2025-01-17 00:05:13.00	82.57	25.67	
2025-01-17 00:05:13.21	82.64	25.67	
2025-01-17 00:05:13.41	82.71	25.68	
2025-01-17 00:05:13.61	82.78	25.69	
2025-01-17 00:05:13.82	82.85	25.69	
2025-01-17 00:05:14.02	82.92	25.70	
2025-01-17 00:05:14.22	82.99	25.70	
2025-01-17 00:05:14.42	83.06	25.71	
2025-01-17 00:05:14.63	83.14	25.71	
2025-01-17 00:05:14.83	83.21	25.72	
2025-01-17 00:05:15.03	83.28	25.72	
2025-01-17 00:05:15.24	83.35	25.73	
2025-01-17 00:05:15.44	83.42	25.73	
2025-01-17 00:05:15.64	83.49	25.74	
2025-01-17 00:05:15.85	83.57	25.74	
2025-01-17 00:05:16.05	83.64	25.75	
2025-01-17 00:05:16.25	83.71	25.75	
2025-01-17 00:05:16.45	83.78	25.76	
2025-01-17 00:05:16.66	83.85	25.76	
2025-01-17 00:05:16.86	83.92	25.77	
2025-01-17 00:05:17.06	83.99	25.77	
2025-01-17 00:05:17.27	84.06	25.78	
2025-01-17 00:05:17.47	84.13	25.78	
2025-01-17 00:05:17.67	84.20	25.79	
2025-01-17 00:05:17.87	84.28	25.79	
2025-01-17 00:05:18.08	84.35	25.80	
2025-01-17 00:05:18.28	84.42	25.80	
2025-01-17 00:05:18.48	84.49	25.80	
2025-01-17 00:05:18.69	84.56	25.81	
2025-01-17 00:05:18.89	84.63	25.81	
2025-01-17 00:05:19.09	84.70	25.82	
2025-01-17 00:05:19.30	84.78	25.82	
2025-01-17 00:05:19.50	84.85	25.83	
2025-01-17 00:05:19.70	84.92	25.83	
2025-01-17 00:05:19.90	84.99	25.83	
2025-01-17 00:05:20.11	85.06	25.84	
2025-01-17 00:05:20.31	85.13	25.84	
2025-01-17 00:05:20.51	85.21	25.85	
2025-01-17 00:05:20.72	85.28	25.85	
2025-01-17 00:05:20.92	85.35	25.85	
2025-01-17 00:05:21.12	85.42	25.86	
2025-01-17 00:05:21.33	85.50	25.86	
2025-01-17 00:05:21.53	85.57	25.87	
2025-01-17 00:05:21.73	85.64	25.87	
2025-01-17 00:05:21.93	85.71	25.87	
2025-01-17 00:05:22.14	85.78	25.88	
2025-01-17 00:05:22.34	85.85	25.88	
2025-01-17 00:05:22.54	85.92	25.88	
2025-01-17 00:05:22.75	86.00	25.89	
2025-01-17 00:05:22.95	86.07	25.89	
2025-01-17 00:05:23.15	86.14	25.89	
2025-01-17 00:05:23.36	86.21	25.90	
2025-01-17 00:05:23.56	86.28	25.90	
2025-01-17 00:05:23.76	86.36	25.90	
2025-01-17 00:05:23.96	86.43	25.91	
2025-01-17 00:05:24.17	86.50	25.91	
2025-01-17 00:05:24.37	86.57	25.91	
2025-01-17 00:05:24.57	86.64	25.92	
2025-01-17 00:05:24.78	86.72	25.92	
2025-01-17 00:05:24.98	86.79	25.92	
2025-01-17 00:05:25.18	86.86	25.93	
2025-01-17 00:05:25.38	86.93	25.93	
2025-01-17 00:05:25.59	87.00	25.93	
2025-01-17 00:05:25.79	87.08	25.93	
2025-01-17 00:05:25.99	87.15	25.94	
2025-01-17 00:05:26.20	87.22	25.94	
2025-01-17 00:05:26.40	87.29	25.94	
2025-01-17 00:05:26.60	87.36	25.94	
2025-01-17 00:05:26.81	87.44	25.95	
2025-01-17 00:05:27.01	87.51	25.95	
2025-01-17 00:05:27.21	87.58	25.95	
2025-01-17 00:05:27.41	87.65	25.96	
2025-01-17 00:05:27.62	87.73	25.96	
2025-01-17 00:05:27.82	87.80	25.96	
2025-01-17 00:05:28.02	87.87	25.96	
2025-01-17 00:05:28.23	87.94	25.96	
2025-01-17 00:05:28.43	88.01	25.97	
2025-01-17 00:05:28.63	88.09	25.97	
2025-01-17 00:05:28.84	88.16	25.97	
2025-01-17 00:05:29.04	88.23	25.97	
2025-01-17 00:05:29.24	88.30	25.98	
2025-01-17 00:05:29.44	88.37	25.98	
2025-01-17 00:05:29.65	88.45	25.98	
2025-01-17 00:05:29.85	88.52	25.98	
2025-01-17 00:05:30.05	88.59	25.98	
2025-01-17 00:05:30.26	88.67	25.98	
2025-01-17 00:05:30.46	88.74	25.99	
2025-01-17 00:05:30.66	88.81	25.99	
2025-01-17 00:05:30.87	88.88	25.99	
2025-01-17 00:05:31.07	88.96	25.99	
2025-01-17 00:05:31.27	89.03	25.99	
2025-01-17 00:05:31.47	89.10	25.99	
2025-01-17 00:05:31.68	89.17	26.00	
2025-01-17 00:05:31.88	89.24	26.00	
2025-01-17 00:05:32.08	89.32	26.00	
2025-01-17 00:05:32.29	89.39	26.00	
2025-01-17 00:05:32.49	89.46	26.00	
2025-01-17 00:05:32.69	89.53	26.00	
2025-01-17 00:05:32.89	89.60	26.00	
2025-01-17 00:05:33.10	89.68	26.01	
2025-01-17 00:05:33.30	89.75	26.01	
2025-01-17 00:05:33.50	89.82	26.01	
2025-01-17 00:05:33.71	89.90	26.01	
2025-01-17 00:05:33.91	89.97	26.01	
2025-01-17 00:05:34.11	90.04	26.01	
2025-01-17 00:05:34.32	90.11	26.01	
2025-01-17 00:05:34.52	90.19	26.01	
2025-01-17 00:05:34.72	90.26	26.01	
2025-01-17 00:05:34.92	90.33	26.01	
2025-01-17 00:05:35.13	90.40	26.01	
2025-01-17 00:05:35.33	90.48	26.01	
2025-01-17 00:05:35.53	90.55	26.02	
2025-01-17 00:05:35.74	90.62	26.02	
2025-01-17 00:05:35.94	90.69	26.02	
2025-01-17 00:05:36.14	90.76	26.02	
2025-01-17 00:05:36.35	90.84	26.02	
2025-01-17 00:05:36.55	90.91	26.02	
2025-01-17 00:05:36.75	90.98	26.02	
2025-01-17 00:05:36.95	91.05	26.02	
2025-01-17 00:05:37.16	91.13	26.02	
2025-01-17 00:05:37.36	91.20	26.02	
2025-01-17 00:05:37.56	91.27	26.02	
2025-01-17 00:05:37.77	91.35	26.02	
2025-01-17 00:05:37.97	91.42	26.02	
2025-01-17 00:05:38.17	91.49	26.02	
2025-01-17 00:05:38.37	91.56	26.02	
2025-01-17 00:05:38.58	91.64	26.02	
2025-01-17 00:05:38.78	91.71	26.02	
2025-01-17 00:05:38.98	91.78	26.02	
2025-01-17 00:05:39.19	91.85	26.02	
2025-01-17 00:05:39.39	91.93	26.02	
2025-01-17 00:05:39.59	92.00	26.02	
2025-01-17 00:05:39.80	92.07	26.02	
2025-01-17 00:05:40.00	92.14	26.02	
2025-01-17 00:05:40.20	92.22	26.02	
2025-01-17 00:05:40.40	92.29	26.02	
2025-01-17 00:05:40.61	92.36	26.02	
2025-01-17 00:05:40.81	92.43	26.01	
2025-01-17 00:05:41.01	92.50	26.01	
2025-01-17 00:05:41.22	92.58	26.01	
2025-01-17 00:05:41.42	92.65	26.01	
2025-01-17 00:05:41.62	92.72	26.01	
2025-01-17 00:05:41.83	92.80	26.01	
2025-01-17 00:05:42.03	92.87	26.01	
2025-01-17 00:05:42.23	92.94	26.01	
2025-01-17 00:05:42.43	93.01	26.01	
2025-01-17 00:05:42.64	93.09	26.01	
2025-01-17 00:05:42.84	93.16	26.01	
2025-01-17 00:05:43.04	93.23	26.00	
2025-01-17 00:05:43.25	93.30	26.00	
2025-01-17 00:05:43.45	93.38	26.00	
2025-01-17 00:05:43.65	93.45	26.00	
2025-01-17 00:05:43.85	93.52	26.00	
2025-01-17 00:05:44.06	93.59	26.00	
2025-01-17 00:05:44.26	93.67	26.00	
2025-01-17 00:05:44.46	93.74	26.00	
2025-01-17 00:05:44.67	93.81	25.99	
2025-01-17 00:05:44.87	93.88	25.99	
2025-01-17 00:05:45.07	93.95	25.99	
2025-01-17 00:05:45.28	94.03	25.99	
2025-01-17 00:05:45.48	94.10	25.99	
2025-01-17 00:05:45.68	94.17	25.99	
2025-01-17 00:05:45.88	94.24	25.98	
2025-01-17 00:05:46.09	94.32	25.98	
2025-01-17 00:05:46.29	94.39	25.98	
2025-01-17 00:05:46.49	94.46	25.98	
2025-01-17 00:05:46.70	94.54	25.98	
2025-01-17 00:05:46.90	94.61	25.97	
2025-01-17 00:05:47.10	94.68	25.97	
2025-01-17 00:05:47.31	94.75	25.97	
2025-01-17 00:05:47.51	94.82	25.97	
2025-01-17 00:05:47.71	94.90	25.97	
2025-01-17 00:05:47.91	94.97	25.96	
2025-01-17 00:05:48.12	95.04	25.96	
2025-01-17 00:05:48.32	95.11	25.96	
2025-01-17 00:05:48.52	95.18	25.96	
2025-01-17 00:05:48.73	95.26	25.95	
2025-01-17 00:05:48.93	95.33	25.95	
2025-01-17 00:05:49.13	95.40	25.95	
2025-01-17 00:05:49.34	95.48	25.95	
2025-01-17 00:05:49.54	95.55	25.94	
2025-01-17 00:05:49.74	95.62	25.94	
2025-01-17 00:05:49.94	95.69	25.94	
2025-01-17 00:05:50.15	95.76	25.94	
2025-01-17 00:05:50.35	95.83	25.93	
2025-01-17 00:05:50.55	95.91	25.93	
2025-01-17 00:05:50.76	95.98	25.93	
2025-01-17 00:05:50.96	96.05	25.92	
2025-01-17 00:05:51.16	96.12	25.92	
