passes_logs/2025/01/17/SPB_Silybum_02/SPB_Silybum_02__20250117_125239_AQUA_rec.log

#Pass ID: 20250117_125239_AQUA
#Satellite: AQUA
#Configuration: AQUA
#Start time: 2025-01-17 12:52:37

#Version: 2.0.20230423
#Station: SPB_Silybum_02
#Location: 30.233357 lon 59.946436 lat
#TLE: 1 27424U 02022A   25016.84910416  .00001840  00000+0  38758-3 0  9998
#TLE: 2 27424  98.3592 333.5297 0001787 109.3464 277.9036 14.60690037207895

#Time	Az	El	Level	Level2	SNR	BER	Gain	Gain2
2025-01-17 12:52:39.62	208.47	4.03	
2025-01-17 12:52:39.82	208.49	4.04	
2025-01-17 12:52:40.02	208.51	4.05	
2025-01-17 12:52:40.23	208.52	4.07	
2025-01-17 12:52:40.43	208.54	4.08	
2025-01-17 12:52:40.63	208.56	4.09	
2025-01-17 12:52:40.84	208.58	4.10	
2025-01-17 12:52:41.04	208.60	4.12	
2025-01-17 12:52:41.24	208.61	4.13	
2025-01-17 12:52:41.45	208.63	4.14	
2025-01-17 12:52:41.65	208.65	4.15	
2025-01-17 12:52:41.85	208.67	4.17	
2025-01-17 12:52:42.05	208.68	4.18	
2025-01-17 12:52:42.26	208.70	4.19	
2025-01-17 12:52:42.46	208.72	4.20	
2025-01-17 12:52:42.66	208.74	4.22	
2025-01-17 12:52:42.87	208.76	4.23	
2025-01-17 12:52:43.07	208.77	4.24	
2025-01-17 12:52:43.27	208.79	4.25	
2025-01-17 12:52:43.48	208.81	4.27	
2025-01-17 12:52:43.68	208.83	4.28	
2025-01-17 12:52:43.88	208.85	4.29	
2025-01-17 12:52:44.08	208.86	4.30	
2025-01-17 12:52:44.29	208.88	4.32	
2025-01-17 12:52:44.49	208.90	4.33	
2025-01-17 12:52:44.69	208.92	4.34	
2025-01-17 12:52:44.90	208.94	4.35	
2025-01-17 12:52:45.10	208.96	4.37	
2025-01-17 12:52:45.30	208.97	4.38	
2025-01-17 12:52:45.51	208.99	4.39	
2025-01-17 12:52:45.71	209.01	4.41	
2025-01-17 12:52:45.91	209.03	4.42	
2025-01-17 12:52:46.11	209.05	4.43	
2025-01-17 12:52:46.32	209.06	4.44	
2025-01-17 12:52:46.52	209.08	4.46	
2025-01-17 12:52:46.72	209.10	4.47	
2025-01-17 12:52:46.93	209.12	4.48	
2025-01-17 12:52:47.13	209.14	4.49	
2025-01-17 12:52:47.33	209.16	4.51	
2025-01-17 12:52:47.53	209.17	4.52	
2025-01-17 12:52:47.74	209.19	4.53	
2025-01-17 12:52:47.94	209.21	4.54	
2025-01-17 12:52:48.14	209.23	4.56	
2025-01-17 12:52:48.35	209.25	4.57	
2025-01-17 12:52:48.55	209.27	4.58	
2025-01-17 12:52:48.75	209.28	4.59	
2025-01-17 12:52:48.96	209.30	4.61	
2025-01-17 12:52:49.16	209.32	4.62	
2025-01-17 12:52:49.36	209.34	4.63	
2025-01-17 12:52:49.56	209.36	4.64	
2025-01-17 12:52:49.77	209.38	4.66	
2025-01-17 12:52:49.97	209.40	4.67	
2025-01-17 12:52:50.17	209.41	4.68	
2025-01-17 12:52:50.38	209.43	4.70	
2025-01-17 12:52:50.58	209.45	4.71	
2025-01-17 12:52:50.78	209.47	4.72	
2025-01-17 12:52:50.99	209.49	4.73	
2025-01-17 12:52:51.19	209.51	4.75	
2025-01-17 12:52:51.39	209.53	4.76	
2025-01-17 12:52:51.59	209.54	4.77	
2025-01-17 12:52:51.80	209.56	4.78	
2025-01-17 12:52:52.00	209.58	4.80	
2025-01-17 12:52:52.20	209.60	4.81	
2025-01-17 12:52:52.41	209.62	4.82	
2025-01-17 12:52:52.61	209.64	4.84	
2025-01-17 12:52:52.81	209.66	4.85	
2025-01-17 12:52:53.02	209.68	4.86	
2025-01-17 12:52:53.22	209.69	4.87	
2025-01-17 12:52:53.42	209.71	4.89	
2025-01-17 12:52:53.62	209.73	4.90	
2025-01-17 12:52:53.83	209.75	4.91	
2025-01-17 12:52:54.03	209.77	4.92	
2025-01-17 12:52:54.23	209.79	4.94	
2025-01-17 12:52:54.44	209.81	4.95	
2025-01-17 12:52:54.64	209.83	4.96	
2025-01-17 12:52:54.84	209.84	4.98	
2025-01-17 12:52:55.05	209.86	4.99	
2025-01-17 12:52:55.25	209.88	5.00	
2025-01-17 12:52:55.45	209.90	5.01	
2025-01-17 12:52:55.65	209.92	5.03	
2025-01-17 12:52:55.86	209.94	5.04	
2025-01-17 12:52:56.06	209.96	5.05	
2025-01-17 12:52:56.26	209.98	5.06	
2025-01-17 12:52:56.47	210.00	5.08	
2025-01-17 12:52:56.67	210.02	5.09	
2025-01-17 12:52:56.87	210.03	5.10	
2025-01-17 12:52:57.07	210.05	5.12	
2025-01-17 12:52:57.28	210.07	5.13	
2025-01-17 12:52:57.48	210.09	5.14	
2025-01-17 12:52:57.68	210.11	5.15	
2025-01-17 12:52:57.89	210.13	5.17	
2025-01-17 12:52:58.09	210.15	5.18	
2025-01-17 12:52:58.29	210.17	5.19	
2025-01-17 12:52:58.50	210.19	5.21	
2025-01-17 12:52:58.70	210.21	5.22	
2025-01-17 12:52:58.90	210.23	5.23	
2025-01-17 12:52:59.10	210.25	5.24	
2025-01-17 12:52:59.31	210.27	5.26	
2025-01-17 12:52:59.51	210.28	5.27	
2025-01-17 12:52:59.71	210.30	5.28	
2025-01-17 12:52:59.92	210.32	5.30	
2025-01-17 12:53:00.12	210.34	5.31	
2025-01-17 12:53:00.32	210.36	5.32	
2025-01-17 12:53:00.53	210.38	5.34	
2025-01-17 12:53:00.73	210.40	5.35	
2025-01-17 12:53:00.93	210.42	5.36	
2025-01-17 12:53:01.13	210.44	5.37	
2025-01-17 12:53:01.34	210.46	5.39	
2025-01-17 12:53:01.54	210.48	5.40	
2025-01-17 12:53:01.74	210.50	5.41	
2025-01-17 12:53:01.95	210.52	5.43	
2025-01-17 12:53:02.15	210.54	5.44	
2025-01-17 12:53:02.35	210.56	5.45	
2025-01-17 12:53:02.56	210.58	5.46	
2025-01-17 12:53:02.76	210.60	5.48	
2025-01-17 12:53:02.96	210.62	5.49	
2025-01-17 12:53:03.16	210.64	5.50	
2025-01-17 12:53:03.37	210.66	5.52	
2025-01-17 12:53:03.57	210.68	5.53	
2025-01-17 12:53:03.77	210.69	5.54	
2025-01-17 12:53:03.98	210.72	5.56	
2025-01-17 12:53:04.18	210.73	5.57	
2025-01-17 12:53:04.38	210.75	5.58	
2025-01-17 12:53:04.58	210.77	5.59	
2025-01-17 12:53:04.79	210.79	5.61	
2025-01-17 12:53:04.99	210.81	5.62	
2025-01-17 12:53:05.19	210.83	5.63	
2025-01-17 12:53:05.40	210.85	5.65	
2025-01-17 12:53:05.60	210.87	5.66	
2025-01-17 12:53:05.80	210.89	5.67	
2025-01-17 12:53:06.01	210.91	5.69	
2025-01-17 12:53:06.21	210.93	5.70	
2025-01-17 12:53:06.41	210.95	5.71	
2025-01-17 12:53:06.61	210.97	5.72	
2025-01-17 12:53:06.82	210.99	5.74	
2025-01-17 12:53:07.02	211.01	5.75	
2025-01-17 12:53:07.22	211.03	5.76	
2025-01-17 12:53:07.43	211.05	5.78	
2025-01-17 12:53:07.63	211.07	5.79	
2025-01-17 12:53:07.83	211.09	5.80	
2025-01-17 12:53:08.04	211.11	5.82	
2025-01-17 12:53:08.24	211.13	5.83	
2025-01-17 12:53:08.44	211.15	5.84	
2025-01-17 12:53:08.64	211.17	5.85	
2025-01-17 12:53:08.85	211.19	5.87	
2025-01-17 12:53:09.05	211.21	5.88	
2025-01-17 12:53:09.25	211.23	5.89	
2025-01-17 12:53:09.46	211.26	5.91	
2025-01-17 12:53:09.66	211.27	5.92	
2025-01-17 12:53:09.86	211.29	5.93	
2025-01-17 12:53:10.06	211.31	5.95	
2025-01-17 12:53:10.27	211.34	5.96	
2025-01-17 12:53:10.47	211.36	5.97	
2025-01-17 12:53:10.67	211.38	5.99	
2025-01-17 12:53:10.88	211.40	6.00	
2025-01-17 12:53:11.08	211.42	6.01	
2025-01-17 12:53:11.28	211.44	6.03	
2025-01-17 12:53:11.49	211.46	6.04	
2025-01-17 12:53:11.69	211.48	6.05	
2025-01-17 12:53:11.89	211.50	6.06	
2025-01-17 12:53:12.09	211.52	6.08	
2025-01-17 12:53:12.30	211.54	6.09	
2025-01-17 12:53:12.50	211.56	6.10	
2025-01-17 12:53:12.70	211.58	6.12	
2025-01-17 12:53:12.91	211.60	6.13	
2025-01-17 12:53:13.11	211.62	6.14	
2025-01-17 12:53:13.31	211.64	6.16	
2025-01-17 12:53:13.52	211.66	6.17	
2025-01-17 12:53:13.72	211.68	6.18	
2025-01-17 12:53:13.92	211.70	6.20	
2025-01-17 12:53:14.12	211.72	6.21	
2025-01-17 12:53:14.33	211.75	6.22	
2025-01-17 12:53:14.53	211.77	6.24	
2025-01-17 12:53:14.73	211.79	6.25	
2025-01-17 12:53:14.94	211.81	6.26	
2025-01-17 12:53:15.14	211.83	6.28	
2025-01-17 12:53:15.34	211.85	6.29	
2025-01-17 12:53:15.55	211.87	6.30	
2025-01-17 12:53:15.75	211.89	6.32	
2025-01-17 12:53:15.95	211.91	6.33	
2025-01-17 12:53:16.15	211.93	6.34	
2025-01-17 12:53:16.36	211.95	6.36	
2025-01-17 12:53:16.56	211.98	6.37	
2025-01-17 12:53:16.76	212.00	6.38	
2025-01-17 12:53:16.97	212.02	6.40	
2025-01-17 12:53:17.17	212.04	6.41	
2025-01-17 12:53:17.37	212.06	6.42	
2025-01-17 12:53:17.57	212.08	6.43	
2025-01-17 12:53:17.78	212.10	6.45	
2025-01-17 12:53:17.98	212.12	6.46	
2025-01-17 12:53:18.18	212.14	6.47	
2025-01-17 12:53:18.39	212.16	6.49	
2025-01-17 12:53:18.59	212.19	6.50	
2025-01-17 12:53:18.79	212.21	6.51	
2025-01-17 12:53:19.00	212.23	6.53	
2025-01-17 12:53:19.20	212.25	6.54	
2025-01-17 12:53:19.40	212.27	6.55	
2025-01-17 12:53:19.60	212.29	6.57	
2025-01-17 12:53:19.81	212.31	6.58	
2025-01-17 12:53:20.01	212.33	6.59	
2025-01-17 12:53:20.21	212.35	6.61	
2025-01-17 12:53:20.42	212.38	6.62	
2025-01-17 12:53:20.62	212.40	6.64	
2025-01-17 12:53:20.82	212.42	6.65	
2025-01-17 12:53:21.03	212.44	6.66	
2025-01-17 12:53:21.23	212.46	6.68	
2025-01-17 12:53:21.43	212.48	6.69	
2025-01-17 12:53:21.63	212.50	6.70	
2025-01-17 12:53:21.84	212.53	6.72	
2025-01-17 12:53:22.04	212.55	6.73	
2025-01-17 12:53:22.24	212.57	6.74	
2025-01-17 12:53:22.45	212.59	6.76	
2025-01-17 12:53:22.65	212.61	6.77	
2025-01-17 12:53:22.85	212.63	6.78	
2025-01-17 12:53:23.06	212.66	6.80	
2025-01-17 12:53:23.26	212.68	6.81	
2025-01-17 12:53:23.46	212.70	6.82	
2025-01-17 12:53:23.66	212.72	6.84	
2025-01-17 12:53:23.87	212.74	6.85	
2025-01-17 12:53:24.07	212.76	6.86	
2025-01-17 12:53:24.27	212.78	6.88	
2025-01-17 12:53:24.48	212.81	6.89	
2025-01-17 12:53:24.68	212.83	6.90	
2025-01-17 12:53:24.88	212.85	6.92	
2025-01-17 12:53:25.08	212.87	6.93	
2025-01-17 12:53:25.29	212.89	6.94	
2025-01-17 12:53:25.49	212.92	6.96	
2025-01-17 12:53:25.69	212.94	6.97	
2025-01-17 12:53:25.90	212.96	6.98	
2025-01-17 12:53:26.10	212.98	7.00	
2025-01-17 12:53:26.30	213.00	7.01	
2025-01-17 12:53:26.51	213.03	7.02	
2025-01-17 12:53:26.71	213.05	7.04	
2025-01-17 12:53:26.91	213.07	7.05	
2025-01-17 12:53:27.11	213.09	7.06	
2025-01-17 12:53:27.32	213.11	7.08	
2025-01-17 12:53:27.52	213.13	7.09	
2025-01-17 12:53:27.72	213.16	7.11	
2025-01-17 12:53:27.93	213.18	7.12	
2025-01-17 12:53:28.13	213.20	7.13	
2025-01-17 12:53:28.33	213.22	7.15	
2025-01-17 12:53:28.54	213.25	7.16	
2025-01-17 12:53:28.74	213.27	7.17	
2025-01-17 12:53:28.94	213.29	7.19	
2025-01-17 12:53:29.14	213.31	7.20	
2025-01-17 12:53:29.35	213.33	7.21	
2025-01-17 12:53:29.55	213.36	7.23	
2025-01-17 12:53:29.75	213.38	7.24	
2025-01-17 12:53:29.96	213.40	7.25	
2025-01-17 12:53:30.16	213.42	7.27	
2025-01-17 12:53:30.36	213.45	7.28	
2025-01-17 12:53:30.57	213.47	7.30	
2025-01-17 12:53:30.77	213.49	7.31	
2025-01-17 12:53:30.97	213.51	7.32	
2025-01-17 12:53:31.17	213.53	7.34	
2025-01-17 12:53:31.38	213.56	7.35	
2025-01-17 12:53:31.58	213.58	7.36	
2025-01-17 12:53:31.78	213.60	7.38	
2025-01-17 12:53:31.99	213.63	7.39	
2025-01-17 12:53:32.19	213.65	7.40	
2025-01-17 12:53:32.39	213.67	7.42	
2025-01-17 12:53:32.59	213.69	7.43	
2025-01-17 12:53:32.80	213.72	7.44	
2025-01-17 12:53:33.00	213.74	7.46	
2025-01-17 12:53:33.20	213.76	7.47	
2025-01-17 12:53:33.41	213.78	7.49	
2025-01-17 12:53:33.61	213.81	7.50	
2025-01-17 12:53:33.81	213.83	7.51	
2025-01-17 12:53:34.02	213.85	7.53	
2025-01-17 12:53:34.22	213.87	7.54	
2025-01-17 12:53:34.42	213.90	7.55	
2025-01-17 12:53:34.62	213.92	7.57	
2025-01-17 12:53:34.83	213.94	7.58	
2025-01-17 12:53:35.03	213.97	7.59	
2025-01-17 12:53:35.23	213.99	7.61	
2025-01-17 12:53:35.44	214.01	7.62	
2025-01-17 12:53:35.64	214.03	7.64	
2025-01-17 12:53:35.84	214.06	7.65	
2025-01-17 12:53:36.05	214.08	7.66	
2025-01-17 12:53:36.25	214.10	7.68	
2025-01-17 12:53:36.45	214.13	7.69	
2025-01-17 12:53:36.65	214.15	7.70	
2025-01-17 12:53:36.86	214.17	7.72	
2025-01-17 12:53:37.06	214.20	7.73	
2025-01-17 12:53:37.26	214.22	7.75	
2025-01-17 12:53:37.47	214.24	7.76	
2025-01-17 12:53:37.67	214.26	7.77	
2025-01-17 12:53:37.87	214.29	7.79	
2025-01-17 12:53:38.08	214.31	7.80	
2025-01-17 12:53:38.28	214.33	7.81	
2025-01-17 12:53:38.48	214.36	7.83	
2025-01-17 12:53:38.68	214.38	7.84	
2025-01-17 12:53:38.89	214.40	7.86	
2025-01-17 12:53:39.09	214.43	7.87	
2025-01-17 12:53:39.29	214.45	7.88	
2025-01-17 12:53:39.50	214.47	7.90	
2025-01-17 12:53:39.70	214.50	7.91	
2025-01-17 12:53:39.90	214.52	7.92	
2025-01-17 12:53:40.10	214.54	7.94	
2025-01-17 12:53:40.31	214.57	7.95	
2025-01-17 12:53:40.51	214.59	7.97	
2025-01-17 12:53:40.71	214.61	7.98	
2025-01-17 12:53:40.92	214.64	7.99	
2025-01-17 12:53:41.12	214.66	8.01	
2025-01-17 12:53:41.32	214.68	8.02	
2025-01-17 12:53:41.53	214.71	8.04	
2025-01-17 12:53:41.73	214.73	8.05	
2025-01-17 12:53:41.93	214.76	8.06	
2025-01-17 12:53:42.13	214.78	8.08	
2025-01-17 12:53:42.34	214.80	8.09	
2025-01-17 12:53:42.54	214.83	8.10	
2025-01-17 12:53:42.74	214.85	8.12	
2025-01-17 12:53:42.95	214.87	8.13	
2025-01-17 12:53:43.15	214.90	8.15	
2025-01-17 12:53:43.35	214.92	8.16	
2025-01-17 12:53:43.56	214.95	8.17	
2025-01-17 12:53:43.76	214.97	8.19	
2025-01-17 12:53:43.96	214.99	8.20	
2025-01-17 12:53:44.16	215.02	8.21	
2025-01-17 12:53:44.37	215.04	8.23	
2025-01-17 12:53:44.57	215.06	8.24	
2025-01-17 12:53:44.77	215.09	8.26	
2025-01-17 12:53:44.98	215.11	8.27	
2025-01-17 12:53:45.18	215.14	8.28	
2025-01-17 12:53:45.38	215.16	8.30	
2025-01-17 12:53:45.59	215.19	8.31	
2025-01-17 12:53:45.79	215.21	8.33	
2025-01-17 12:53:45.99	215.23	8.34	
2025-01-17 12:53:46.19	215.26	8.35	
2025-01-17 12:53:46.40	215.28	8.37	
2025-01-17 12:53:46.60	215.31	8.38	
2025-01-17 12:53:46.80	215.33	8.40	
2025-01-17 12:53:47.01	215.35	8.41	
2025-01-17 12:53:47.21	215.38	8.42	
2025-01-17 12:53:47.41	215.40	8.44	
2025-01-17 12:53:47.61	215.43	8.45	
2025-01-17 12:53:47.82	215.45	8.47	
2025-01-17 12:53:48.02	215.48	8.48	
2025-01-17 12:53:48.22	215.50	8.49	
2025-01-17 12:53:48.43	215.52	8.51	
2025-01-17 12:53:48.63	215.55	8.52	
2025-01-17 12:53:48.83	215.57	8.54	
2025-01-17 12:53:49.04	215.60	8.55	
2025-01-17 12:53:49.24	215.62	8.56	
2025-01-17 12:53:49.44	215.65	8.58	
2025-01-17 12:53:49.64	215.67	8.59	
2025-01-17 12:53:49.85	215.70	8.61	
2025-01-17 12:53:50.05	215.72	8.62	
2025-01-17 12:53:50.25	215.74	8.63	
2025-01-17 12:53:50.46	215.77	8.65	
2025-01-17 12:53:50.66	215.79	8.66	
2025-01-17 12:53:50.86	215.82	8.68	
2025-01-17 12:53:51.07	215.84	8.69	
2025-01-17 12:53:51.27	215.87	8.70	
2025-01-17 12:53:51.47	215.89	8.72	
2025-01-17 12:53:51.67	215.92	8.73	
2025-01-17 12:53:51.88	215.94	8.75	
2025-01-17 12:53:52.08	215.97	8.76	
2025-01-17 12:53:52.28	215.99	8.77	
2025-01-17 12:53:52.49	216.02	8.79	
2025-01-17 12:53:52.69	216.04	8.80	
2025-01-17 12:53:52.89	216.07	8.82	
2025-01-17 12:53:53.09	216.09	8.83	
2025-01-17 12:53:53.30	216.12	8.84	
2025-01-17 12:53:53.50	216.14	8.86	
2025-01-17 12:53:53.70	216.17	8.87	
2025-01-17 12:53:53.91	216.19	8.89	
2025-01-17 12:53:54.11	216.22	8.90	
2025-01-17 12:53:54.31	216.24	8.91	
2025-01-17 12:53:54.52	216.27	8.93	
2025-01-17 12:53:54.72	216.29	8.94	
2025-01-17 12:53:54.92	216.32	8.96	
2025-01-17 12:53:55.12	216.34	8.97	
2025-01-17 12:53:55.33	216.37	8.99	
2025-01-17 12:53:55.53	216.39	9.00	
2025-01-17 12:53:55.73	216.42	9.01	
2025-01-17 12:53:55.94	216.44	9.03	
2025-01-17 12:53:56.14	216.47	9.04	
2025-01-17 12:53:56.34	216.49	9.06	
2025-01-17 12:53:56.55	216.52	9.07	
2025-01-17 12:53:56.75	216.55	9.08	
2025-01-17 12:53:56.95	216.57	9.10	
2025-01-17 12:53:57.15	216.60	9.11	
2025-01-17 12:53:57.36	216.62	9.13	
2025-01-17 12:53:57.56	216.65	9.14	
2025-01-17 12:53:57.76	216.67	9.16	
2025-01-17 12:53:57.97	216.70	9.17	
2025-01-17 12:53:58.17	216.72	9.18	
2025-01-17 12:53:58.37	216.75	9.20	
2025-01-17 12:53:58.58	216.78	9.21	
2025-01-17 12:53:58.78	216.80	9.23	
2025-01-17 12:53:58.98	216.83	9.24	
2025-01-17 12:53:59.18	216.85	9.25	
2025-01-17 12:53:59.39	216.88	9.27	
2025-01-17 12:53:59.59	216.90	9.28	
2025-01-17 12:53:59.79	216.93	9.30	
2025-01-17 12:54:00.00	216.96	9.31	
2025-01-17 12:54:00.20	216.98	9.33	
2025-01-17 12:54:00.40	217.01	9.34	
2025-01-17 12:54:00.60	217.03	9.35	
2025-01-17 12:54:00.81	217.06	9.37	
2025-01-17 12:54:01.01	217.09	9.38	
2025-01-17 12:54:01.21	217.11	9.40	
2025-01-17 12:54:01.42	217.14	9.41	
2025-01-17 12:54:01.62	217.16	9.43	
2025-01-17 12:54:01.82	217.19	9.44	
2025-01-17 12:54:02.03	217.22	9.45	
2025-01-17 12:54:02.23	217.24	9.47	
2025-01-17 12:54:02.43	217.27	9.48	
2025-01-17 12:54:02.63	217.29	9.50	
2025-01-17 12:54:02.84	217.32	9.51	
2025-01-17 12:54:03.04	217.35	9.53	
2025-01-17 12:54:03.24	217.37	9.54	
2025-01-17 12:54:03.45	217.40	9.55	
2025-01-17 12:54:03.65	217.43	9.57	
2025-01-17 12:54:03.85	217.45	9.58	
2025-01-17 12:54:04.06	217.48	9.60	
2025-01-17 12:54:04.26	217.50	9.61	
2025-01-17 12:54:04.46	217.53	9.63	
2025-01-17 12:54:04.66	217.56	9.64	
2025-01-17 12:54:04.87	217.58	9.65	
2025-01-17 12:54:05.07	217.61	9.67	
2025-01-17 12:54:05.27	217.64	9.68	
2025-01-17 12:54:05.48	217.66	9.70	
2025-01-17 12:54:05.68	217.69	9.71	
2025-01-17 12:54:05.88	217.72	9.73	
2025-01-17 12:54:06.09	217.74	9.74	
2025-01-17 12:54:06.29	217.77	9.75	
2025-01-17 12:54:06.49	217.80	9.77	
2025-01-17 12:54:06.69	217.82	9.78	
2025-01-17 12:54:06.90	217.85	9.80	
2025-01-17 12:54:07.10	217.88	9.81	
2025-01-17 12:54:07.30	217.90	9.83	
2025-01-17 12:54:07.51	217.93	9.84	
2025-01-17 12:54:07.71	217.96	9.86	
2025-01-17 12:54:07.91	217.98	9.87	
2025-01-17 12:54:08.11	218.01	9.88	
2025-01-17 12:54:08.32	218.04	9.90	
2025-01-17 12:54:08.52	218.06	9.91	
2025-01-17 12:54:08.72	218.09	9.93	
2025-01-17 12:54:08.93	218.12	9.94	
2025-01-17 12:54:09.13	218.15	9.96	
2025-01-17 12:54:09.33	218.17	9.97	
2025-01-17 12:54:09.54	218.20	9.99	
2025-01-17 12:54:09.74	218.23	10.00	
2025-01-17 12:54:09.94	218.25	10.01	
2025-01-17 12:54:10.14	218.28	10.03	
2025-01-17 12:54:10.35	218.31	10.04	
2025-01-17 12:54:10.55	218.34	10.06	
2025-01-17 12:54:10.75	218.36	10.07	
2025-01-17 12:54:10.96	218.39	10.09	
2025-01-17 12:54:11.16	218.42	10.10	
2025-01-17 12:54:11.36	218.45	10.11	
2025-01-17 12:54:11.57	218.47	10.13	
2025-01-17 12:54:11.77	218.50	10.14	
2025-01-17 12:54:11.97	218.53	10.16	
2025-01-17 12:54:12.17	218.55	10.17	
2025-01-17 12:54:12.38	218.58	10.19	
2025-01-17 12:54:12.58	218.61	10.20	
2025-01-17 12:54:12.78	218.64	10.22	
2025-01-17 12:54:12.99	218.67	10.23	
2025-01-17 12:54:13.19	218.69	10.25	
2025-01-17 12:54:13.39	218.72	10.26	
2025-01-17 12:54:13.60	218.75	10.27	
2025-01-17 12:54:13.80	218.78	10.29	
2025-01-17 12:54:14.00	218.80	10.30	
2025-01-17 12:54:14.20	218.83	10.32	
2025-01-17 12:54:14.41	218.86	10.33	
2025-01-17 12:54:14.61	218.89	10.35	
2025-01-17 12:54:14.81	218.91	10.36	
2025-01-17 12:54:15.02	218.94	10.38	
2025-01-17 12:54:15.22	218.97	10.39	
2025-01-17 12:54:15.42	219.00	10.40	
2025-01-17 12:54:15.62	219.03	10.42	
2025-01-17 12:54:15.83	219.05	10.43	
2025-01-17 12:54:16.03	219.08	10.45	
2025-01-17 12:54:16.23	219.11	10.46	
2025-01-17 12:54:16.44	219.14	10.48	
2025-01-17 12:54:16.64	219.17	10.49	
2025-01-17 12:54:16.84	219.19	10.51	
2025-01-17 12:54:17.05	219.22	10.52	
2025-01-17 12:54:17.25	219.25	10.54	
2025-01-17 12:54:17.45	219.28	10.55	
2025-01-17 12:54:17.65	219.31	10.56	
2025-01-17 12:54:17.86	219.34	10.58	
2025-01-17 12:54:18.06	219.36	10.59	
2025-01-17 12:54:18.26	219.39	10.61	
2025-01-17 12:54:18.47	219.42	10.62	
2025-01-17 12:54:18.67	219.45	10.64	
2025-01-17 12:54:18.87	219.48	10.65	
2025-01-17 12:54:19.08	219.51	10.67	
2025-01-17 12:54:19.28	219.54	10.68	
2025-01-17 12:54:19.48	219.56	10.70	
2025-01-17 12:54:19.68	219.59	10.71	
2025-01-17 12:54:19.89	219.62	10.73	
2025-01-17 12:54:20.09	219.65	10.74	
2025-01-17 12:54:20.29	219.68	10.75	
2025-01-17 12:54:20.50	219.71	10.77	
2025-01-17 12:54:20.70	219.74	10.78	
2025-01-17 12:54:20.90	219.76	10.80	
2025-01-17 12:54:21.11	219.79	10.81	
2025-01-17 12:54:21.31	219.82	10.83	
2025-01-17 12:54:21.51	219.85	10.84	
2025-01-17 12:54:21.71	219.88	10.86	
2025-01-17 12:54:21.92	219.91	10.87	
2025-01-17 12:54:22.12	219.94	10.89	
2025-01-17 12:54:22.32	219.97	10.90	
2025-01-17 12:54:22.53	220.00	10.92	
2025-01-17 12:54:22.73	220.02	10.93	
2025-01-17 12:54:22.93	220.05	10.95	
2025-01-17 12:54:23.13	220.08	10.96	
2025-01-17 12:54:23.34	220.11	10.97	
2025-01-17 12:54:23.54	220.14	10.99	
2025-01-17 12:54:23.74	220.17	11.00	
2025-01-17 12:54:23.95	220.20	11.02	
2025-01-17 12:54:24.15	220.23	11.03	
2025-01-17 12:54:24.35	220.26	11.05	
2025-01-17 12:54:24.56	220.29	11.06	
2025-01-17 12:54:24.76	220.32	11.08	
2025-01-17 12:54:24.96	220.34	11.09	
2025-01-17 12:54:25.16	220.37	11.11	
2025-01-17 12:54:25.37	220.40	11.12	
2025-01-17 12:54:25.57	220.43	11.14	
2025-01-17 12:54:25.77	220.46	11.15	
2025-01-17 12:54:25.98	220.49	11.17	
2025-01-17 12:54:26.18	220.52	11.18	
2025-01-17 12:54:26.38	220.55	11.20	
2025-01-17 12:54:26.59	220.58	11.21	
2025-01-17 12:54:26.79	220.61	11.23	
2025-01-17 12:54:26.99	220.64	11.24	
2025-01-17 12:54:27.19	220.67	11.25	
2025-01-17 12:54:27.40	220.70	11.27	
2025-01-17 12:54:27.60	220.73	11.28	
2025-01-17 12:54:27.80	220.76	11.30	
2025-01-17 12:54:28.01	220.79	11.31	
2025-01-17 12:54:28.21	220.82	11.33	
2025-01-17 12:54:28.41	220.85	11.34	
2025-01-17 12:54:28.62	220.88	11.36	
2025-01-17 12:54:28.82	220.91	11.37	
2025-01-17 12:54:29.02	220.94	11.39	
2025-01-17 12:54:29.22	220.97	11.40	
2025-01-17 12:54:29.43	221.00	11.42	
2025-01-17 12:54:29.63	221.03	11.43	
2025-01-17 12:54:29.83	221.06	11.45	
2025-01-17 12:54:30.04	221.09	11.46	
2025-01-17 12:54:30.24	221.12	11.48	
2025-01-17 12:54:30.44	221.15	11.49	
2025-01-17 12:54:30.64	221.18	11.51	
2025-01-17 12:54:30.85	221.21	11.52	
2025-01-17 12:54:31.05	221.24	11.54	
2025-01-17 12:54:31.25	221.27	11.55	
2025-01-17 12:54:31.46	221.30	11.57	
2025-01-17 12:54:31.66	221.33	11.58	
2025-01-17 12:54:31.86	221.36	11.59	
2025-01-17 12:54:32.07	221.39	11.61	
2025-01-17 12:54:32.27	221.42	11.62	
2025-01-17 12:54:32.47	221.45	11.64	
2025-01-17 12:54:32.67	221.48	11.65	
2025-01-17 12:54:32.88	221.51	11.67	
2025-01-17 12:54:33.08	221.54	11.68	
2025-01-17 12:54:33.28	221.57	11.70	
2025-01-17 12:54:33.49	221.61	11.71	
2025-01-17 12:54:33.69	221.64	11.73	
2025-01-17 12:54:33.89	221.67	11.74	
2025-01-17 12:54:34.10	221.70	11.76	
2025-01-17 12:54:34.30	221.73	11.77	
2025-01-17 12:54:34.50	221.76	11.79	
2025-01-17 12:54:34.70	221.79	11.80	
2025-01-17 12:54:34.91	221.82	11.82	
2025-01-17 12:54:35.11	221.85	11.83	
2025-01-17 12:54:35.31	221.88	11.85	
2025-01-17 12:54:35.52	221.91	11.86	
2025-01-17 12:54:35.72	221.94	11.88	
2025-01-17 12:54:35.92	221.98	11.89	
2025-01-17 12:54:36.13	222.01	11.91	
2025-01-17 12:54:36.33	222.04	11.92	
2025-01-17 12:54:36.53	222.07	11.94	
2025-01-17 12:54:36.73	222.10	11.95	
2025-01-17 12:54:36.94	222.13	11.97	
2025-01-17 12:54:37.14	222.16	11.98	
2025-01-17 12:54:37.34	222.19	12.00	
2025-01-17 12:54:37.55	222.23	12.01	
2025-01-17 12:54:37.75	222.26	12.03	
2025-01-17 12:54:37.95	222.29	12.04	
2025-01-17 12:54:38.15	222.32	12.06	
2025-01-17 12:54:38.36	222.35	12.07	
2025-01-17 12:54:38.56	222.38	12.09	
2025-01-17 12:54:38.76	222.41	12.10	
2025-01-17 12:54:38.97	222.45	12.12	
2025-01-17 12:54:39.17	222.48	12.13	
2025-01-17 12:54:39.37	222.51	12.14	
2025-01-17 12:54:39.58	222.54	12.16	
2025-01-17 12:54:39.78	222.57	12.17	
2025-01-17 12:54:39.98	222.60	12.19	
2025-01-17 12:54:40.18	222.63	12.20	
2025-01-17 12:54:40.39	222.67	12.22	
2025-01-17 12:54:40.59	222.70	12.23	
2025-01-17 12:54:40.79	222.73	12.25	
2025-01-17 12:54:41.00	222.76	12.26	
2025-01-17 12:54:41.20	222.79	12.28	
2025-01-17 12:54:41.40	222.83	12.29	
2025-01-17 12:54:41.61	222.86	12.31	
2025-01-17 12:54:41.81	222.89	12.32	
2025-01-17 12:54:42.01	222.92	12.34	
2025-01-17 12:54:42.21	222.95	12.35	
2025-01-17 12:54:42.42	222.99	12.37	
2025-01-17 12:54:42.62	223.02	12.38	
2025-01-17 12:54:42.82	223.05	12.40	
2025-01-17 12:54:43.03	223.08	12.41	
2025-01-17 12:54:43.23	223.12	12.43	
2025-01-17 12:54:43.43	223.15	12.44	
2025-01-17 12:54:43.64	223.18	12.46	
2025-01-17 12:54:43.84	223.21	12.47	
2025-01-17 12:54:44.04	223.24	12.49	
2025-01-17 12:54:44.24	223.28	12.50	
2025-01-17 12:54:44.45	223.31	12.52	
2025-01-17 12:54:44.65	223.34	12.53	
2025-01-17 12:54:44.85	223.37	12.55	
2025-01-17 12:54:45.06	223.41	12.56	
2025-01-17 12:54:45.26	223.44	12.58	
2025-01-17 12:54:45.46	223.47	12.59	
2025-01-17 12:54:45.66	223.50	12.61	
2025-01-17 12:54:45.87	223.54	12.62	
2025-01-17 12:54:46.07	223.57	12.64	
2025-01-17 12:54:46.27	223.60	12.65	
2025-01-17 12:54:46.48	223.64	12.67	
2025-01-17 12:54:46.68	223.67	12.68	
2025-01-17 12:54:46.88	223.70	12.70	
2025-01-17 12:54:47.09	223.74	12.71	
2025-01-17 12:54:47.29	223.77	12.73	
2025-01-17 12:54:47.49	223.80	12.74	
2025-01-17 12:54:47.69	223.83	12.76	
2025-01-17 12:54:47.90	223.87	12.77	
2025-01-17 12:54:48.10	223.90	12.79	
2025-01-17 12:54:48.30	223.93	12.80	
2025-01-17 12:54:48.51	223.97	12.82	
2025-01-17 12:54:48.71	224.00	12.83	
2025-01-17 12:54:48.91	224.03	12.85	
2025-01-17 12:54:49.12	224.07	12.86	
2025-01-17 12:54:49.32	224.10	12.88	
2025-01-17 12:54:49.52	224.13	12.89	
2025-01-17 12:54:49.72	224.16	12.91	
2025-01-17 12:54:49.93	224.20	12.92	
2025-01-17 12:54:50.13	224.23	12.94	
2025-01-17 12:54:50.33	224.27	12.95	
2025-01-17 12:54:50.54	224.30	12.97	
2025-01-17 12:54:50.74	224.33	12.98	
2025-01-17 12:54:50.94	224.37	13.00	
2025-01-17 12:54:51.14	224.40	13.01	
2025-01-17 12:54:51.35	224.43	13.03	
2025-01-17 12:54:51.55	224.47	13.05	
2025-01-17 12:54:51.75	224.50	13.06	
2025-01-17 12:54:51.96	224.54	13.08	
2025-01-17 12:54:52.16	224.57	13.09	
2025-01-17 12:54:52.36	224.60	13.11	
2025-01-17 12:54:52.57	224.64	13.12	
2025-01-17 12:54:52.77	224.67	13.14	
2025-01-17 12:54:52.97	224.70	13.15	
2025-01-17 12:54:53.17	224.74	13.17	
2025-01-17 12:54:53.38	224.77	13.18	
2025-01-17 12:54:53.58	224.81	13.20	
2025-01-17 12:54:53.78	224.84	13.21	
2025-01-17 12:54:53.99	224.87	13.23	
2025-01-17 12:54:54.19	224.91	13.24	
2025-01-17 12:54:54.39	224.94	13.26	
2025-01-17 12:54:54.60	224.98	13.27	
2025-01-17 12:54:54.80	225.01	13.29	
2025-01-17 12:54:55.00	225.05	13.30	
2025-01-17 12:54:55.20	225.08	13.32	
2025-01-17 12:54:55.41	225.11	13.33	
2025-01-17 12:54:55.61	225.15	13.35	
2025-01-17 12:54:55.81	225.18	13.36	
2025-01-17 12:54:56.02	225.22	13.38	
2025-01-17 12:54:56.22	225.25	13.39	
2025-01-17 12:54:56.42	225.29	13.41	
2025-01-17 12:54:56.63	225.32	13.42	
2025-01-17 12:54:56.83	225.36	13.44	
2025-01-17 12:54:57.03	225.39	13.45	
2025-01-17 12:54:57.23	225.42	13.47	
2025-01-17 12:54:57.44	225.46	13.48	
2025-01-17 12:54:57.64	225.49	13.50	
2025-01-17 12:54:57.84	225.53	13.51	
2025-01-17 12:54:58.05	225.56	13.53	
2025-01-17 12:54:58.25	225.60	13.54	
2025-01-17 12:54:58.45	225.63	13.56	
2025-01-17 12:54:58.65	225.67	13.57	
2025-01-17 12:54:58.86	225.70	13.59	
2025-01-17 12:54:59.06	225.74	13.60	
2025-01-17 12:54:59.26	225.77	13.62	
2025-01-17 12:54:59.47	225.81	13.63	
2025-01-17 12:54:59.67	225.84	13.65	
2025-01-17 12:54:59.87	225.88	13.66	
2025-01-17 12:55:00.08	225.92	13.68	
2025-01-17 12:55:00.28	225.95	13.69	
2025-01-17 12:55:00.48	225.98	13.71	
2025-01-17 12:55:00.68	226.02	13.72	
2025-01-17 12:55:00.89	226.06	13.74	
2025-01-17 12:55:01.09	226.09	13.75	
2025-01-17 12:55:01.29	226.13	13.77	
2025-01-17 12:55:01.50	226.16	13.79	
2025-01-17 12:55:01.70	226.20	13.80	
2025-01-17 12:55:01.90	226.23	13.82	
2025-01-17 12:55:02.11	226.27	13.83	
2025-01-17 12:55:02.31	226.30	13.85	
2025-01-17 12:55:02.51	226.34	13.86	
2025-01-17 12:55:02.71	226.37	13.88	
2025-01-17 12:55:02.92	226.41	13.89	
2025-01-17 12:55:03.12	226.45	13.91	
2025-01-17 12:55:03.32	226.48	13.92	
2025-01-17 12:55:03.53	226.52	13.94	
2025-01-17 12:55:03.73	226.55	13.95	
2025-01-17 12:55:03.93	226.59	13.97	
2025-01-17 12:55:04.14	226.63	13.98	
2025-01-17 12:55:04.34	226.66	14.00	
2025-01-17 12:55:04.54	226.70	14.01	
2025-01-17 12:55:04.74	226.73	14.03	
2025-01-17 12:55:04.95	226.77	14.04	
2025-01-17 12:55:05.15	226.81	14.06	
2025-01-17 12:55:05.35	226.84	14.07	
2025-01-17 12:55:05.56	226.88	14.09	
2025-01-17 12:55:05.76	226.92	14.10	
2025-01-17 12:55:05.96	226.95	14.12	
2025-01-17 12:55:06.16	226.99	14.13	
2025-01-17 12:55:06.37	227.03	14.15	
2025-01-17 12:55:06.57	227.06	14.16	
2025-01-17 12:55:06.77	227.10	14.18	
2025-01-17 12:55:06.98	227.13	14.19	
2025-01-17 12:55:07.18	227.17	14.21	
2025-01-17 12:55:07.38	227.21	14.22	
2025-01-17 12:55:07.59	227.24	14.24	
2025-01-17 12:55:07.79	227.28	14.25	
2025-01-17 12:55:07.99	227.32	14.27	
2025-01-17 12:55:08.19	227.35	14.28	
2025-01-17 12:55:08.40	227.39	14.30	
2025-01-17 12:55:08.60	227.43	14.31	
2025-01-17 12:55:08.80	227.46	14.33	
2025-01-17 12:55:09.01	227.50	14.35	
2025-01-17 12:55:09.21	227.54	14.36	
2025-01-17 12:55:09.41	227.57	14.38	
2025-01-17 12:55:09.62	227.61	14.39	
2025-01-17 12:55:09.82	227.65	14.41	
2025-01-17 12:55:10.02	227.69	14.42	
2025-01-17 12:55:10.22	227.72	14.44	
2025-01-17 12:55:10.43	227.76	14.45	
2025-01-17 12:55:10.63	227.80	14.47	
2025-01-17 12:55:10.83	227.83	14.48	
2025-01-17 12:55:11.04	227.87	14.50	
2025-01-17 12:55:11.24	227.91	14.51	
2025-01-17 12:55:11.44	227.95	14.53	
2025-01-17 12:55:11.65	227.99	14.54	
2025-01-17 12:55:11.85	228.02	14.56	
2025-01-17 12:55:12.05	228.06	14.57	
2025-01-17 12:55:12.25	228.10	14.59	
2025-01-17 12:55:12.46	228.14	14.60	
2025-01-17 12:55:12.66	228.17	14.62	
2025-01-17 12:55:12.86	228.21	14.63	
2025-01-17 12:55:13.07	228.25	14.65	
2025-01-17 12:55:13.27	228.29	14.66	
2025-01-17 12:55:13.47	228.32	14.68	
2025-01-17 12:55:13.67	228.36	14.69	
2025-01-17 12:55:13.88	228.40	14.71	
2025-01-17 12:55:14.08	228.44	14.72	
2025-01-17 12:55:14.28	228.47	14.74	
2025-01-17 12:55:14.49	228.51	14.75	
2025-01-17 12:55:14.69	228.55	14.77	
2025-01-17 12:55:14.89	228.59	14.78	
2025-01-17 12:55:15.10	228.63	14.80	
2025-01-17 12:55:15.30	228.66	14.81	
2025-01-17 12:55:15.50	228.70	14.83	
2025-01-17 12:55:15.70	228.74	14.84	
2025-01-17 12:55:15.91	228.78	14.86	
2025-01-17 12:55:16.11	228.82	14.87	
2025-01-17 12:55:16.31	228.86	14.89	
2025-01-17 12:55:16.52	228.89	14.91	
2025-01-17 12:55:16.72	228.93	14.92	
2025-01-17 12:55:16.92	228.97	14.94	
2025-01-17 12:55:17.13	229.01	14.95	
2025-01-17 12:55:17.33	229.05	14.97	
2025-01-17 12:55:17.53	229.09	14.98	
2025-01-17 12:55:17.73	229.12	15.00	
2025-01-17 12:55:17.94	229.16	15.01	
2025-01-17 12:55:18.14	229.20	15.03	
2025-01-17 12:55:18.34	229.24	15.04	
2025-01-17 12:55:18.55	229.28	15.06	
2025-01-17 12:55:18.75	229.32	15.07	
2025-01-17 12:55:18.95	229.36	15.09	
2025-01-17 12:55:19.16	229.40	15.10	
2025-01-17 12:55:19.36	229.44	15.12	
2025-01-17 12:55:19.56	229.47	15.13	
2025-01-17 12:55:19.76	229.51	15.15	
2025-01-17 12:55:19.97	229.55	15.16	
2025-01-17 12:55:20.17	229.59	15.18	
2025-01-17 12:55:20.37	229.63	15.19	
2025-01-17 12:55:20.58	229.67	15.21	
2025-01-17 12:55:20.78	229.71	15.22	
2025-01-17 12:55:20.98	229.75	15.24	
2025-01-17 12:55:21.18	229.79	15.25	
2025-01-17 12:55:21.39	229.83	15.27	
2025-01-17 12:55:21.59	229.87	15.28	
2025-01-17 12:55:21.79	229.91	15.30	
2025-01-17 12:55:22.00	229.95	15.31	
2025-01-17 12:55:22.20	229.99	15.33	
2025-01-17 12:55:22.40	230.02	15.34	
2025-01-17 12:55:22.61	230.06	15.36	
2025-01-17 12:55:22.81	230.10	15.37	
2025-01-17 12:55:23.01	230.14	15.39	
2025-01-17 12:55:23.21	230.18	15.40	
2025-01-17 12:55:23.42	230.22	15.42	
2025-01-17 12:55:23.62	230.26	15.43	
2025-01-17 12:55:23.82	230.30	15.45	
2025-01-17 12:55:24.03	230.34	15.46	
2025-01-17 12:55:24.23	230.38	15.48	
2025-01-17 12:55:24.43	230.42	15.49	
2025-01-17 12:55:24.64	230.46	15.51	
2025-01-17 12:55:24.84	230.50	15.52	
2025-01-17 12:55:25.04	230.54	15.54	
2025-01-17 12:55:25.24	230.58	15.55	
2025-01-17 12:55:25.45	230.62	15.57	
2025-01-17 12:55:25.65	230.66	15.58	
2025-01-17 12:55:25.85	230.70	15.60	
2025-01-17 12:55:26.06	230.74	15.61	
2025-01-17 12:55:26.26	230.78	15.63	
2025-01-17 12:55:26.46	230.82	15.64	
2025-01-17 12:55:26.67	230.87	15.66	
2025-01-17 12:55:26.87	230.91	15.67	
2025-01-17 12:55:27.07	230.95	15.69	
2025-01-17 12:55:27.27	230.99	15.70	
2025-01-17 12:55:27.48	231.03	15.72	
2025-01-17 12:55:27.68	231.07	15.73	
2025-01-17 12:55:27.88	231.11	15.75	
2025-01-17 12:55:28.09	231.15	15.76	
2025-01-17 12:55:28.29	231.19	15.78	
2025-01-17 12:55:28.49	231.23	15.79	
2025-01-17 12:55:28.69	231.27	15.81	
2025-01-17 12:55:28.90	231.31	15.82	
2025-01-17 12:55:29.10	231.35	15.84	
2025-01-17 12:55:29.30	231.39	15.85	
2025-01-17 12:55:29.51	231.44	15.87	
2025-01-17 12:55:29.71	231.48	15.88	
2025-01-17 12:55:29.91	231.52	15.90	
2025-01-17 12:55:30.12	231.56	15.91	
2025-01-17 12:55:30.32	231.60	15.93	
2025-01-17 12:55:30.52	231.64	15.94	
2025-01-17 12:55:30.72	231.68	15.96	
2025-01-17 12:55:30.93	231.72	15.97	
2025-01-17 12:55:31.13	231.76	15.99	
2025-01-17 12:55:31.33	231.81	16.00	
2025-01-17 12:55:31.54	231.85	16.02	
2025-01-17 12:55:31.74	231.89	16.03	
2025-01-17 12:55:31.94	231.93	16.05	
2025-01-17 12:55:32.15	231.97	16.06	
2025-01-17 12:55:32.35	232.01	16.08	
2025-01-17 12:55:32.55	232.06	16.09	
2025-01-17 12:55:32.75	232.10	16.11	
2025-01-17 12:55:32.96	232.14	16.12	
2025-01-17 12:55:33.16	232.18	16.14	
2025-01-17 12:55:33.36	232.22	16.15	
2025-01-17 12:55:33.57	232.27	16.17	
2025-01-17 12:55:33.77	232.31	16.18	
2025-01-17 12:55:33.97	232.35	16.20	
2025-01-17 12:55:34.18	232.39	16.21	
2025-01-17 12:55:34.38	232.43	16.23	
2025-01-17 12:55:34.58	232.47	16.24	
2025-01-17 12:55:34.78	232.52	16.26	
2025-01-17 12:55:34.99	232.56	16.27	
2025-01-17 12:55:35.19	232.60	16.29	
2025-01-17 12:55:35.39	232.64	16.30	
2025-01-17 12:55:35.60	232.69	16.32	
2025-01-17 12:55:35.80	232.73	16.33	
2025-01-17 12:55:36.00	232.77	16.35	
2025-01-17 12:55:36.20	232.81	16.36	
2025-01-17 12:55:36.41	232.86	16.38	
2025-01-17 12:55:36.61	232.90	16.39	
2025-01-17 12:55:36.81	232.94	16.41	
2025-01-17 12:55:37.02	232.98	16.42	
2025-01-17 12:55:37.22	233.03	16.44	
2025-01-17 12:55:37.42	233.07	16.45	
2025-01-17 12:55:37.63	233.11	16.47	
2025-01-17 12:55:37.83	233.15	16.48	
2025-01-17 12:55:38.03	233.20	16.50	
2025-01-17 12:55:38.23	233.24	16.51	
2025-01-17 12:55:38.44	233.28	16.53	
2025-01-17 12:55:38.64	233.33	16.54	
2025-01-17 12:55:38.84	233.37	16.55	
2025-01-17 12:55:39.05	233.41	16.57	
2025-01-17 12:55:39.25	233.45	16.58	
2025-01-17 12:55:39.45	233.50	16.60	
2025-01-17 12:55:39.66	233.54	16.61	
2025-01-17 12:55:39.86	233.58	16.63	
2025-01-17 12:55:40.06	233.63	16.64	
2025-01-17 12:55:40.26	233.67	16.66	
2025-01-17 12:55:40.47	233.71	16.67	
2025-01-17 12:55:40.67	233.76	16.69	
2025-01-17 12:55:40.87	233.80	16.70	
2025-01-17 12:55:41.08	233.84	16.72	
2025-01-17 12:55:41.28	233.89	16.73	
2025-01-17 12:55:41.48	233.93	16.75	
2025-01-17 12:55:41.68	233.97	16.76	
2025-01-17 12:55:41.89	234.02	16.78	
2025-01-17 12:55:42.09	234.06	16.79	
2025-01-17 12:55:42.29	234.10	16.81	
2025-01-17 12:55:42.50	234.15	16.82	
2025-01-17 12:55:42.70	234.19	16.84	
2025-01-17 12:55:42.90	234.24	16.85	
2025-01-17 12:55:43.11	234.28	16.87	
2025-01-17 12:55:43.31	234.33	16.88	
2025-01-17 12:55:43.51	234.37	16.89	
2025-01-17 12:55:43.71	234.41	16.91	
2025-01-17 12:55:43.92	234.46	16.92	
2025-01-17 12:55:44.12	234.50	16.94	
2025-01-17 12:55:44.32	234.54	16.95	
2025-01-17 12:55:44.53	234.59	16.97	
2025-01-17 12:55:44.73	234.63	16.98	
2025-01-17 12:55:44.93	234.68	17.00	
2025-01-17 12:55:45.14	234.72	17.01	
2025-01-17 12:55:45.34	234.77	17.03	
2025-01-17 12:55:45.54	234.81	17.04	
2025-01-17 12:55:45.74	234.86	17.06	
2025-01-17 12:55:45.95	234.90	17.07	
2025-01-17 12:55:46.15	234.95	17.08	
2025-01-17 12:55:46.35	234.99	17.10	
2025-01-17 12:55:46.56	235.04	17.11	
2025-01-17 12:55:46.76	235.08	17.13	
2025-01-17 12:55:46.96	235.12	17.14	
2025-01-17 12:55:47.17	235.17	17.16	
2025-01-17 12:55:47.37	235.21	17.17	
2025-01-17 12:55:47.57	235.26	17.19	
2025-01-17 12:55:47.77	235.30	17.20	
2025-01-17 12:55:47.98	235.35	17.22	
2025-01-17 12:55:48.18	235.39	17.23	
2025-01-17 12:55:48.38	235.44	17.24	
2025-01-17 12:55:48.59	235.48	17.26	
2025-01-17 12:55:48.79	235.53	17.27	
2025-01-17 12:55:48.99	235.57	17.29	
2025-01-17 12:55:49.19	235.62	17.30	
2025-01-17 12:55:49.40	235.67	17.32	
2025-01-17 12:55:49.60	235.71	17.33	
2025-01-17 12:55:49.80	235.75	17.35	
2025-01-17 12:55:50.01	235.80	17.36	
2025-01-17 12:55:50.21	235.85	17.38	
2025-01-17 12:55:50.41	235.89	17.39	
2025-01-17 12:55:50.62	235.94	17.40	
2025-01-17 12:55:50.82	235.98	17.42	
2025-01-17 12:55:51.02	236.03	17.43	
2025-01-17 12:55:51.22	236.07	17.45	
2025-01-17 12:55:51.43	236.12	17.46	
2025-01-17 12:55:51.63	236.17	17.48	
2025-01-17 12:55:51.83	236.21	17.49	
2025-01-17 12:55:52.04	236.26	17.51	
2025-01-17 12:55:52.24	236.30	17.52	
2025-01-17 12:55:52.44	236.35	17.53	
2025-01-17 12:55:52.65	236.40	17.55	
2025-01-17 12:55:52.85	236.44	17.56	
2025-01-17 12:55:53.05	236.49	17.58	
2025-01-17 12:55:53.25	236.53	17.59	
2025-01-17 12:55:53.46	236.58	17.61	
2025-01-17 12:55:53.66	236.63	17.62	
2025-01-17 12:55:53.86	236.67	17.63	
2025-01-17 12:55:54.07	236.72	17.65	
2025-01-17 12:55:54.27	236.77	17.66	
2025-01-17 12:55:54.47	236.81	17.68	
2025-01-17 12:55:54.68	236.86	17.69	
2025-01-17 12:55:54.88	236.91	17.71	
2025-01-17 12:55:55.08	236.95	17.72	
2025-01-17 12:55:55.28	237.00	17.73	
2025-01-17 12:55:55.49	237.05	17.75	
2025-01-17 12:55:55.69	237.09	17.76	
2025-01-17 12:55:55.89	237.14	17.78	
2025-01-17 12:55:56.10	237.19	17.79	
2025-01-17 12:55:56.30	237.23	17.81	
2025-01-17 12:55:56.50	237.28	17.82	
2025-01-17 12:55:56.70	237.33	17.83	
2025-01-17 12:55:56.91	237.37	17.85	
2025-01-17 12:55:57.11	237.42	17.86	
2025-01-17 12:55:57.31	237.47	17.88	
2025-01-17 12:55:57.52	237.52	17.89	
2025-01-17 12:55:57.72	237.56	17.91	
2025-01-17 12:55:57.92	237.61	17.92	
2025-01-17 12:55:58.13	237.66	17.93	
2025-01-17 12:55:58.33	237.70	17.95	
2025-01-17 12:55:58.53	237.75	17.96	
2025-01-17 12:55:58.73	237.80	17.98	
2025-01-17 12:55:58.94	237.85	17.99	
2025-01-17 12:55:59.14	237.89	18.00	
2025-01-17 12:55:59.34	237.94	18.02	
2025-01-17 12:55:59.55	237.99	18.03	
2025-01-17 12:55:59.75	238.04	18.05	
2025-01-17 12:55:59.95	238.08	18.06	
2025-01-17 12:56:00.16	238.13	18.08	
2025-01-17 12:56:00.36	238.18	18.09	
2025-01-17 12:56:00.56	238.23	18.10	
2025-01-17 12:56:00.76	238.27	18.12	
2025-01-17 12:56:00.97	238.32	18.13	
2025-01-17 12:56:01.17	238.37	18.15	
2025-01-17 12:56:01.37	238.42	18.16	
2025-01-17 12:56:01.58	238.47	18.17	
2025-01-17 12:56:01.78	238.51	18.19	
2025-01-17 12:56:01.98	238.56	18.20	
2025-01-17 12:56:02.19	238.61	18.22	
2025-01-17 12:56:02.39	238.66	18.23	
2025-01-17 12:56:02.59	238.71	18.24	
2025-01-17 12:56:02.79	238.75	18.26	
2025-01-17 12:56:03.00	238.80	18.27	
2025-01-17 12:56:03.20	238.85	18.28	
2025-01-17 12:56:03.40	238.90	18.30	
2025-01-17 12:56:03.61	238.95	18.31	
2025-01-17 12:56:03.81	239.00	18.33	
2025-01-17 12:56:04.01	239.05	18.34	
2025-01-17 12:56:04.22	239.10	18.35	
2025-01-17 12:56:04.42	239.14	18.37	
2025-01-17 12:56:04.62	239.19	18.38	
2025-01-17 12:56:04.82	239.24	18.40	
2025-01-17 12:56:05.03	239.29	18.41	
2025-01-17 12:56:05.23	239.34	18.42	
2025-01-17 12:56:05.43	239.39	18.44	
2025-01-17 12:56:05.64	239.44	18.45	
2025-01-17 12:56:05.84	239.49	18.46	
2025-01-17 12:56:06.04	239.53	18.48	
2025-01-17 12:56:06.24	239.58	18.49	
2025-01-17 12:56:06.45	239.63	18.51	
2025-01-17 12:56:06.65	239.68	18.52	
2025-01-17 12:56:06.85	239.73	18.53	
2025-01-17 12:56:07.06	239.78	18.55	
2025-01-17 12:56:07.26	239.83	18.56	
2025-01-17 12:56:07.46	239.88	18.57	
2025-01-17 12:56:07.67	239.93	18.59	
2025-01-17 12:56:07.87	239.98	18.60	
2025-01-17 12:56:08.07	240.03	18.62	
2025-01-17 12:56:08.27	240.08	18.63	
2025-01-17 12:56:08.48	240.13	18.64	
2025-01-17 12:56:08.68	240.18	18.66	
2025-01-17 12:56:08.88	240.23	18.67	
2025-01-17 12:56:09.09	240.28	18.68	
2025-01-17 12:56:09.29	240.33	18.70	
2025-01-17 12:56:09.49	240.37	18.71	
2025-01-17 12:56:09.70	240.43	18.72	
2025-01-17 12:56:09.90	240.48	18.74	
2025-01-17 12:56:10.10	240.52	18.75	
2025-01-17 12:56:10.30	240.57	18.76	
2025-01-17 12:56:10.51	240.63	18.78	
2025-01-17 12:56:10.71	240.68	18.79	
2025-01-17 12:56:10.91	240.72	18.80	
2025-01-17 12:56:11.12	240.78	18.82	
2025-01-17 12:56:11.32	240.83	18.83	
2025-01-17 12:56:11.52	240.88	18.85	
2025-01-17 12:56:11.72	240.92	18.86	
2025-01-17 12:56:11.93	240.98	18.87	
2025-01-17 12:56:12.13	241.03	18.89	
2025-01-17 12:56:12.33	241.08	18.90	
2025-01-17 12:56:12.54	241.13	18.91	
2025-01-17 12:56:12.74	241.18	18.93	
2025-01-17 12:56:12.94	241.23	18.94	
2025-01-17 12:56:13.15	241.28	18.95	
2025-01-17 12:56:13.35	241.33	18.97	
2025-01-17 12:56:13.55	241.38	18.98	
2025-01-17 12:56:13.75	241.43	18.99	
2025-01-17 12:56:13.96	241.48	19.01	
2025-01-17 12:56:14.16	241.53	19.02	
2025-01-17 12:56:14.36	241.58	19.03	
2025-01-17 12:56:14.57	241.64	19.05	
2025-01-17 12:56:14.77	241.69	19.06	
2025-01-17 12:56:14.97	241.74	19.07	
2025-01-17 12:56:15.18	241.79	19.09	
2025-01-17 12:56:15.38	241.84	19.10	
2025-01-17 12:56:15.58	241.89	19.11	
2025-01-17 12:56:15.78	241.94	19.12	
2025-01-17 12:56:15.99	241.99	19.14	
2025-01-17 12:56:16.19	242.04	19.15	
2025-01-17 12:56:16.39	242.10	19.16	
2025-01-17 12:56:16.60	242.15	19.18	
2025-01-17 12:56:16.80	242.20	19.19	
2025-01-17 12:56:17.00	242.25	19.20	
2025-01-17 12:56:17.21	242.30	19.22	
2025-01-17 12:56:17.41	242.35	19.23	
2025-01-17 12:56:17.61	242.40	19.24	
2025-01-17 12:56:17.81	242.46	19.25	
2025-01-17 12:56:18.02	242.51	19.27	
2025-01-17 12:56:18.22	242.56	19.28	
2025-01-17 12:56:18.42	242.61	19.29	
2025-01-17 12:56:18.63	242.67	19.31	
2025-01-17 12:56:18.83	242.72	19.32	
2025-01-17 12:56:19.03	242.77	19.33	
2025-01-17 12:56:19.23	242.82	19.35	
2025-01-17 12:56:19.44	242.87	19.36	
2025-01-17 12:56:19.64	242.92	19.37	
2025-01-17 12:56:19.84	242.98	19.38	
2025-01-17 12:56:20.05	243.03	19.40	
2025-01-17 12:56:20.25	243.08	19.41	
2025-01-17 12:56:20.45	243.13	19.42	
2025-01-17 12:56:20.66	243.19	19.44	
2025-01-17 12:56:20.86	243.24	19.45	
2025-01-17 12:56:21.06	243.29	19.46	
2025-01-17 12:56:21.26	243.34	19.47	
2025-01-17 12:56:21.47	243.40	19.49	
2025-01-17 12:56:21.67	243.45	19.50	
2025-01-17 12:56:21.87	243.50	19.51	
2025-01-17 12:56:22.08	243.55	19.53	
2025-01-17 12:56:22.28	243.61	19.54	
2025-01-17 12:56:22.48	243.66	19.55	
2025-01-17 12:56:22.69	243.71	19.56	
2025-01-17 12:56:22.89	243.76	19.58	
2025-01-17 12:56:23.09	243.82	19.59	
2025-01-17 12:56:23.29	243.87	19.60	
2025-01-17 12:56:23.50	243.92	19.61	
2025-01-17 12:56:23.70	243.98	19.63	
2025-01-17 12:56:23.90	244.03	19.64	
2025-01-17 12:56:24.11	244.08	19.65	
2025-01-17 12:56:24.31	244.13	19.66	
2025-01-17 12:56:24.51	244.19	19.68	
2025-01-17 12:56:24.72	244.24	19.69	
2025-01-17 12:56:24.92	244.29	19.70	
2025-01-17 12:56:25.12	244.35	19.71	
2025-01-17 12:56:25.32	244.40	19.73	
2025-01-17 12:56:25.53	244.45	19.74	
2025-01-17 12:56:25.73	244.51	19.75	
2025-01-17 12:56:25.93	244.56	19.76	
2025-01-17 12:56:26.14	244.62	19.78	
2025-01-17 12:56:26.34	244.67	19.79	
2025-01-17 12:56:26.54	244.72	19.80	
2025-01-17 12:56:26.74	244.77	19.81	
2025-01-17 12:56:26.95	244.83	19.82	
2025-01-17 12:56:27.15	244.88	19.84	
2025-01-17 12:56:27.35	244.94	19.85	
2025-01-17 12:56:27.56	244.99	19.86	
2025-01-17 12:56:27.76	245.04	19.87	
2025-01-17 12:56:27.96	245.10	19.89	
2025-01-17 12:56:28.17	245.15	19.90	
2025-01-17 12:56:28.37	245.21	19.91	
2025-01-17 12:56:28.57	245.26	19.92	
2025-01-17 12:56:28.77	245.31	19.93	
2025-01-17 12:56:28.98	245.37	19.95	
2025-01-17 12:56:29.18	245.42	19.96	
2025-01-17 12:56:29.38	245.48	19.97	
2025-01-17 12:56:29.59	245.53	19.98	
2025-01-17 12:56:29.79	245.59	20.00	
2025-01-17 12:56:29.99	245.64	20.01	
2025-01-17 12:56:30.20	245.70	20.02	
2025-01-17 12:56:30.40	245.75	20.03	
2025-01-17 12:56:30.60	245.80	20.04	
2025-01-17 12:56:30.80	245.86	20.05	
2025-01-17 12:56:31.01	245.91	20.07	
2025-01-17 12:56:31.21	245.97	20.08	
2025-01-17 12:56:31.41	246.02	20.09	
2025-01-17 12:56:31.62	246.08	20.10	
2025-01-17 12:56:31.82	246.13	20.11	
2025-01-17 12:56:32.02	246.19	20.13	
2025-01-17 12:56:32.23	246.24	20.14	
2025-01-17 12:56:32.43	246.30	20.15	
2025-01-17 12:56:32.63	246.35	20.16	
2025-01-17 12:56:32.83	246.40	20.17	
2025-01-17 12:56:33.04	246.46	20.19	
2025-01-17 12:56:33.24	246.52	20.20	
2025-01-17 12:56:33.44	246.57	20.21	
2025-01-17 12:56:33.65	246.63	20.22	
2025-01-17 12:56:33.85	246.68	20.23	
2025-01-17 12:56:34.05	246.74	20.24	
2025-01-17 12:56:34.25	246.79	20.26	
2025-01-17 12:56:34.46	246.85	20.27	
2025-01-17 12:56:34.66	246.90	20.28	
2025-01-17 12:56:34.86	246.96	20.29	
2025-01-17 12:56:35.07	247.01	20.30	
2025-01-17 12:56:35.27	247.07	20.31	
2025-01-17 12:56:35.47	247.12	20.32	
2025-01-17 12:56:35.68	247.18	20.34	
2025-01-17 12:56:35.88	247.24	20.35	
2025-01-17 12:56:36.08	247.29	20.36	
2025-01-17 12:56:36.28	247.35	20.37	
2025-01-17 12:56:36.49	247.40	20.38	
2025-01-17 12:56:36.69	247.46	20.39	
2025-01-17 12:56:36.89	247.51	20.40	
2025-01-17 12:56:37.10	247.57	20.42	
2025-01-17 12:56:37.30	247.63	20.43	
2025-01-17 12:56:37.50	247.68	20.44	
2025-01-17 12:56:37.71	247.74	20.45	
2025-01-17 12:56:37.91	247.79	20.46	
2025-01-17 12:56:38.11	247.85	20.47	
2025-01-17 12:56:38.31	247.90	20.48	
2025-01-17 12:56:38.52	247.96	20.50	
2025-01-17 12:56:38.72	248.02	20.51	
2025-01-17 12:56:38.92	248.07	20.52	
2025-01-17 12:56:39.13	248.13	20.53	
2025-01-17 12:56:39.33	248.19	20.54	
2025-01-17 12:56:39.53	248.24	20.55	
2025-01-17 12:56:39.73	248.30	20.56	
2025-01-17 12:56:39.94	248.36	20.57	
2025-01-17 12:56:40.14	248.41	20.58	
2025-01-17 12:56:40.34	248.47	20.59	
2025-01-17 12:56:40.55	248.53	20.61	
2025-01-17 12:56:40.75	248.58	20.62	
2025-01-17 12:56:40.95	248.64	20.63	
2025-01-17 12:56:41.16	248.70	20.64	
2025-01-17 12:56:41.36	248.75	20.65	
2025-01-17 12:56:41.56	248.81	20.66	
2025-01-17 12:56:41.76	248.86	20.67	
2025-01-17 12:56:41.97	248.92	20.68	
2025-01-17 12:56:42.17	248.98	20.69	
2025-01-17 12:56:42.37	249.04	20.70	
2025-01-17 12:56:42.58	249.09	20.71	
2025-01-17 12:56:42.78	249.15	20.73	
2025-01-17 12:56:42.98	249.21	20.74	
2025-01-17 12:56:43.19	249.27	20.75	
2025-01-17 12:56:43.39	249.32	20.76	
2025-01-17 12:56:43.59	249.38	20.77	
2025-01-17 12:56:43.79	249.44	20.78	
2025-01-17 12:56:44.00	249.49	20.79	
2025-01-17 12:56:44.20	249.55	20.80	
2025-01-17 12:56:44.40	249.61	20.81	
2025-01-17 12:56:44.61	249.67	20.82	
2025-01-17 12:56:44.81	249.72	20.83	
2025-01-17 12:56:45.01	249.78	20.84	
2025-01-17 12:56:45.22	249.84	20.85	
2025-01-17 12:56:45.42	249.90	20.86	
2025-01-17 12:56:45.62	249.95	20.87	
2025-01-17 12:56:45.82	250.01	20.88	
2025-01-17 12:56:46.03	250.07	20.89	
2025-01-17 12:56:46.23	250.13	20.90	
2025-01-17 12:56:46.43	250.18	20.92	
2025-01-17 12:56:46.64	250.24	20.93	
2025-01-17 12:56:46.84	250.30	20.94	
2025-01-17 12:56:47.04	250.36	20.95	
2025-01-17 12:56:47.24	250.41	20.96	
2025-01-17 12:56:47.45	250.47	20.97	
2025-01-17 12:56:47.65	250.53	20.98	
2025-01-17 12:56:47.85	250.59	20.99	
2025-01-17 12:56:48.06	250.65	21.00	
2025-01-17 12:56:48.26	250.71	21.01	
2025-01-17 12:56:48.46	250.76	21.02	
2025-01-17 12:56:48.67	250.82	21.03	
2025-01-17 12:56:48.87	250.88	21.04	
2025-01-17 12:56:49.07	250.94	21.05	
2025-01-17 12:56:49.27	251.00	21.06	
2025-01-17 12:56:49.48	251.06	21.07	
2025-01-17 12:56:49.68	251.11	21.08	
2025-01-17 12:56:49.88	251.17	21.09	
2025-01-17 12:56:50.09	251.23	21.10	
2025-01-17 12:56:50.29	251.29	21.11	
2025-01-17 12:56:50.49	251.35	21.12	
2025-01-17 12:56:50.70	251.41	21.13	
2025-01-17 12:56:50.90	251.46	21.14	
2025-01-17 12:56:51.10	251.52	21.15	
2025-01-17 12:56:51.30	251.58	21.16	
2025-01-17 12:56:51.51	251.64	21.17	
2025-01-17 12:56:51.71	251.70	21.18	
2025-01-17 12:56:51.91	251.76	21.19	
2025-01-17 12:56:52.12	251.82	21.20	
2025-01-17 12:56:52.32	251.88	21.20	
2025-01-17 12:56:52.52	251.93	21.21	
2025-01-17 12:56:52.73	251.99	21.22	
2025-01-17 12:56:52.93	252.05	21.23	
2025-01-17 12:56:53.13	252.11	21.24	
2025-01-17 12:56:53.33	252.17	21.25	
2025-01-17 12:56:53.54	252.23	21.26	
2025-01-17 12:56:53.74	252.29	21.27	
2025-01-17 12:56:53.94	252.35	21.28	
2025-01-17 12:56:54.15	252.41	21.29	
2025-01-17 12:56:54.35	252.47	21.30	
2025-01-17 12:56:54.55	252.53	21.31	
2025-01-17 12:56:54.75	252.58	21.32	
2025-01-17 12:56:54.96	252.65	21.33	
2025-01-17 12:56:55.16	252.70	21.34	
2025-01-17 12:56:55.36	252.76	21.35	
2025-01-17 12:56:55.57	252.82	21.36	
2025-01-17 12:56:55.77	252.88	21.36	
2025-01-17 12:56:55.97	252.94	21.37	
2025-01-17 12:56:56.18	253.00	21.38	
2025-01-17 12:56:56.38	253.06	21.39	
2025-01-17 12:56:56.58	253.12	21.40	
2025-01-17 12:56:56.78	253.18	21.41	
2025-01-17 12:56:56.99	253.24	21.42	
2025-01-17 12:56:57.19	253.30	21.43	
2025-01-17 12:56:57.39	253.36	21.44	
2025-01-17 12:56:57.60	253.42	21.45	
2025-01-17 12:56:57.80	253.48	21.46	
2025-01-17 12:56:58.00	253.54	21.46	
2025-01-17 12:56:58.21	253.60	21.47	
2025-01-17 12:56:58.41	253.66	21.48	
2025-01-17 12:56:58.61	253.72	21.49	
2025-01-17 12:56:58.81	253.78	21.50	
2025-01-17 12:56:59.02	253.84	21.51	
2025-01-17 12:56:59.22	253.90	21.52	
2025-01-17 12:56:59.42	253.96	21.53	
2025-01-17 12:56:59.63	254.02	21.53	
2025-01-17 12:56:59.83	254.08	21.54	
2025-01-17 12:57:00.03	254.14	21.55	
2025-01-17 12:57:00.24	254.20	21.56	
2025-01-17 12:57:00.44	254.26	21.57	
2025-01-17 12:57:00.64	254.32	21.58	
2025-01-17 12:57:00.84	254.38	21.59	
2025-01-17 12:57:01.05	254.44	21.59	
2025-01-17 12:57:01.25	254.50	21.60	
2025-01-17 12:57:01.45	254.56	21.61	
2025-01-17 12:57:01.66	254.62	21.62	
2025-01-17 12:57:01.86	254.68	21.63	
2025-01-17 12:57:02.06	254.74	21.64	
2025-01-17 12:57:02.27	254.81	21.64	
2025-01-17 12:57:02.47	254.87	21.65	
2025-01-17 12:57:02.67	254.93	21.66	
2025-01-17 12:57:02.87	254.99	21.67	
2025-01-17 12:57:03.08	255.05	21.68	
2025-01-17 12:57:03.28	255.11	21.69	
2025-01-17 12:57:03.48	255.17	21.69	
2025-01-17 12:57:03.69	255.23	21.70	
2025-01-17 12:57:03.89	255.29	21.71	
2025-01-17 12:57:04.09	255.35	21.72	
2025-01-17 12:57:04.29	255.41	21.73	
2025-01-17 12:57:04.50	255.47	21.73	
2025-01-17 12:57:04.70	255.53	21.74	
2025-01-17 12:57:04.90	255.59	21.75	
2025-01-17 12:57:05.11	255.66	21.76	
2025-01-17 12:57:05.31	255.72	21.77	
2025-01-17 12:57:05.51	255.78	21.77	
2025-01-17 12:57:05.72	255.84	21.78	
2025-01-17 12:57:05.92	255.90	21.79	
2025-01-17 12:57:06.12	255.96	21.80	
2025-01-17 12:57:06.32	256.02	21.80	
2025-01-17 12:57:06.53	256.09	21.81	
2025-01-17 12:57:06.73	256.15	21.82	
2025-01-17 12:57:06.93	256.21	21.83	
2025-01-17 12:57:07.14	256.27	21.84	
2025-01-17 12:57:07.34	256.33	21.84	
2025-01-17 12:57:07.54	256.39	21.85	
2025-01-17 12:57:07.75	256.45	21.86	
2025-01-17 12:57:07.95	256.52	21.87	
2025-01-17 12:57:08.15	256.58	21.87	
2025-01-17 12:57:08.35	256.64	21.88	
2025-01-17 12:57:08.56	256.70	21.89	
2025-01-17 12:57:08.76	256.76	21.90	
2025-01-17 12:57:08.96	256.82	21.90	
2025-01-17 12:57:09.17	256.89	21.91	
2025-01-17 12:57:09.37	256.95	21.92	
2025-01-17 12:57:09.57	257.01	21.92	
2025-01-17 12:57:09.77	257.07	21.93	
2025-01-17 12:57:09.98	257.13	21.94	
2025-01-17 12:57:10.18	257.19	21.95	
2025-01-17 12:57:10.38	257.25	21.95	
2025-01-17 12:57:10.59	257.32	21.96	
2025-01-17 12:57:10.79	257.38	21.97	
2025-01-17 12:57:10.99	257.44	21.97	
2025-01-17 12:57:11.20	257.50	21.98	
2025-01-17 12:57:11.40	257.57	21.99	
2025-01-17 12:57:11.60	257.63	22.00	
2025-01-17 12:57:11.80	257.69	22.00	
2025-01-17 12:57:12.01	257.75	22.01	
2025-01-17 12:57:12.21	257.81	22.02	
2025-01-17 12:57:12.41	257.87	22.02	
2025-01-17 12:57:12.62	257.94	22.03	
2025-01-17 12:57:12.82	258.00	22.04	
2025-01-17 12:57:13.02	258.06	22.04	
2025-01-17 12:57:13.23	258.13	22.05	
2025-01-17 12:57:13.43	258.19	22.06	
2025-01-17 12:57:13.63	258.25	22.06	
2025-01-17 12:57:13.83	258.31	22.07	
2025-01-17 12:57:14.04	258.37	22.08	
2025-01-17 12:57:14.24	258.44	22.08	
2025-01-17 12:57:14.44	258.50	22.09	
2025-01-17 12:57:14.65	258.56	22.10	
2025-01-17 12:57:14.85	258.62	22.10	
2025-01-17 12:57:15.05	258.68	22.11	
2025-01-17 12:57:15.26	258.75	22.12	
2025-01-17 12:57:15.46	258.81	22.12	
2025-01-17 12:57:15.66	258.87	22.13	
2025-01-17 12:57:15.86	258.93	22.14	
2025-01-17 12:57:16.07	259.00	22.14	
2025-01-17 12:57:16.27	259.06	22.15	
2025-01-17 12:57:16.47	259.12	22.15	
2025-01-17 12:57:16.68	259.19	22.16	
2025-01-17 12:57:16.88	259.25	22.17	
2025-01-17 12:57:17.08	259.31	22.17	
2025-01-17 12:57:17.28	259.37	22.18	
2025-01-17 12:57:17.49	259.44	22.18	
2025-01-17 12:57:17.69	259.50	22.19	
2025-01-17 12:57:17.89	259.56	22.20	
2025-01-17 12:57:18.10	259.63	22.20	
2025-01-17 12:57:18.30	259.69	22.21	
2025-01-17 12:57:18.50	259.75	22.21	
2025-01-17 12:57:18.71	259.82	22.22	
2025-01-17 12:57:18.91	259.88	22.23	
2025-01-17 12:57:19.11	259.94	22.23	
2025-01-17 12:57:19.31	260.00	22.24	
2025-01-17 12:57:19.52	260.07	22.24	
2025-01-17 12:57:19.72	260.13	22.25	
2025-01-17 12:57:19.92	260.19	22.25	
2025-01-17 12:57:20.13	260.26	22.26	
2025-01-17 12:57:20.33	260.32	22.27	
2025-01-17 12:57:20.53	260.38	22.27	
2025-01-17 12:57:20.74	260.45	22.28	
2025-01-17 12:57:20.94	260.51	22.28	
2025-01-17 12:57:21.14	260.57	22.29	
2025-01-17 12:57:21.34	260.63	22.29	
2025-01-17 12:57:21.55	260.70	22.30	
2025-01-17 12:57:21.75	260.76	22.30	
2025-01-17 12:57:21.95	260.82	22.31	
2025-01-17 12:57:22.16	260.89	22.31	
2025-01-17 12:57:22.36	260.95	22.32	
2025-01-17 12:57:22.56	261.01	22.33	
2025-01-17 12:57:22.77	261.08	22.33	
2025-01-17 12:57:22.97	261.14	22.34	
2025-01-17 12:57:23.17	261.21	22.34	
2025-01-17 12:57:23.37	261.27	22.35	
2025-01-17 12:57:23.58	261.33	22.35	
2025-01-17 12:57:23.78	261.40	22.36	
2025-01-17 12:57:23.98	261.46	22.36	
2025-01-17 12:57:24.19	261.52	22.37	
2025-01-17 12:57:24.39	261.59	22.37	
2025-01-17 12:57:24.59	261.65	22.38	
2025-01-17 12:57:24.79	261.71	22.38	
2025-01-17 12:57:25.00	261.78	22.39	
2025-01-17 12:57:25.20	261.84	22.39	
2025-01-17 12:57:25.40	261.90	22.40	
2025-01-17 12:57:25.61	261.97	22.40	
2025-01-17 12:57:25.81	262.03	22.40	
2025-01-17 12:57:26.01	262.10	22.41	
2025-01-17 12:57:26.22	262.16	22.41	
2025-01-17 12:57:26.42	262.22	22.42	
2025-01-17 12:57:26.62	262.29	22.42	
2025-01-17 12:57:26.82	262.35	22.43	
2025-01-17 12:57:27.03	262.42	22.43	
2025-01-17 12:57:27.23	262.48	22.44	
2025-01-17 12:57:27.43	262.54	22.44	
2025-01-17 12:57:27.64	262.61	22.45	
2025-01-17 12:57:27.84	262.67	22.45	
2025-01-17 12:57:28.04	262.73	22.45	
2025-01-17 12:57:28.25	262.80	22.46	
2025-01-17 12:57:28.45	262.86	22.46	
2025-01-17 12:57:28.65	262.93	22.47	
2025-01-17 12:57:28.85	262.99	22.47	
2025-01-17 12:57:29.06	263.05	22.48	
2025-01-17 12:57:29.26	263.12	22.48	
2025-01-17 12:57:29.46	263.18	22.48	
2025-01-17 12:57:29.67	263.25	22.49	
2025-01-17 12:57:29.87	263.31	22.49	
2025-01-17 12:57:30.07	263.37	22.50	
2025-01-17 12:57:30.28	263.44	22.50	
2025-01-17 12:57:30.48	263.50	22.50	
2025-01-17 12:57:30.68	263.57	22.51	
2025-01-17 12:57:30.88	263.63	22.51	
2025-01-17 12:57:31.09	263.70	22.51	
2025-01-17 12:57:31.29	263.76	22.52	
2025-01-17 12:57:31.49	263.82	22.52	
2025-01-17 12:57:31.70	263.89	22.53	
2025-01-17 12:57:31.90	263.95	22.53	
2025-01-17 12:57:32.10	264.02	22.53	
2025-01-17 12:57:32.30	264.08	22.54	
2025-01-17 12:57:32.51	264.15	22.54	
2025-01-17 12:57:32.71	264.21	22.54	
2025-01-17 12:57:32.91	264.27	22.55	
2025-01-17 12:57:33.12	264.34	22.55	
2025-01-17 12:57:33.32	264.40	22.55	
2025-01-17 12:57:33.52	264.47	22.56	
2025-01-17 12:57:33.73	264.53	22.56	
2025-01-17 12:57:33.93	264.60	22.56	
2025-01-17 12:57:34.13	264.66	22.57	
2025-01-17 12:57:34.33	264.72	22.57	
2025-01-17 12:57:34.54	264.79	22.57	
2025-01-17 12:57:34.74	264.85	22.58	
2025-01-17 12:57:34.94	264.92	22.58	
2025-01-17 12:57:35.15	264.98	22.58	
2025-01-17 12:57:35.35	265.05	22.59	
2025-01-17 12:57:35.55	265.11	22.59	
2025-01-17 12:57:35.76	265.18	22.59	
2025-01-17 12:57:35.96	265.24	22.60	
2025-01-17 12:57:36.16	265.30	22.60	
2025-01-17 12:57:36.36	265.37	22.60	
2025-01-17 12:57:36.57	265.43	22.60	
2025-01-17 12:57:36.77	265.50	22.61	
2025-01-17 12:57:36.97	265.56	22.61	
2025-01-17 12:57:37.18	265.63	22.61	
2025-01-17 12:57:37.38	265.69	22.62	
2025-01-17 12:57:37.58	265.76	22.62	
2025-01-17 12:57:37.79	265.82	22.62	
2025-01-17 12:57:37.99	265.89	22.62	
2025-01-17 12:57:38.19	265.95	22.63	
2025-01-17 12:57:38.39	266.01	22.63	
2025-01-17 12:57:38.60	266.08	22.63	
2025-01-17 12:57:38.80	266.14	22.63	
2025-01-17 12:57:39.00	266.21	22.64	
2025-01-17 12:57:39.21	266.27	22.64	
2025-01-17 12:57:39.41	266.34	22.64	
2025-01-17 12:57:39.61	266.40	22.64	
2025-01-17 12:57:39.81	266.47	22.65	
2025-01-17 12:57:40.02	266.53	22.65	
2025-01-17 12:57:40.22	266.60	22.65	
2025-01-17 12:57:40.42	266.66	22.65	
2025-01-17 12:57:40.63	266.73	22.65	
2025-01-17 12:57:40.83	266.79	22.66	
2025-01-17 12:57:41.03	266.85	22.66	
2025-01-17 12:57:41.24	266.92	22.66	
2025-01-17 12:57:41.44	266.99	22.66	
2025-01-17 12:57:41.64	267.05	22.66	
2025-01-17 12:57:41.84	267.11	22.67	
2025-01-17 12:57:42.05	267.18	22.67	
2025-01-17 12:57:42.25	267.24	22.67	
2025-01-17 12:57:42.45	267.31	22.67	
2025-01-17 12:57:42.66	267.37	22.67	
2025-01-17 12:57:42.86	267.44	22.68	
2025-01-17 12:57:43.06	267.50	22.68	
2025-01-17 12:57:43.27	267.57	22.68	
2025-01-17 12:57:43.47	267.63	22.68	
2025-01-17 12:57:43.67	267.70	22.68	
2025-01-17 12:57:43.87	267.76	22.68	
2025-01-17 12:57:44.08	267.83	22.69	
2025-01-17 12:57:44.28	267.89	22.69	
2025-01-17 12:57:44.48	267.96	22.69	
2025-01-17 12:57:44.69	268.02	22.69	
2025-01-17 12:57:44.89	268.09	22.69	
2025-01-17 12:57:45.09	268.15	22.69	
2025-01-17 12:57:45.30	268.22	22.69	
2025-01-17 12:57:45.50	268.28	22.70	
2025-01-17 12:57:45.70	268.35	22.70	
2025-01-17 12:57:45.90	268.41	22.70	
2025-01-17 12:57:46.11	268.48	22.70	
2025-01-17 12:57:46.31	268.54	22.70	
2025-01-17 12:57:46.51	268.61	22.70	
2025-01-17 12:57:46.72	268.67	22.70	
2025-01-17 12:57:46.92	268.74	22.70	
2025-01-17 12:57:47.12	268.80	22.70	
2025-01-17 12:57:47.32	268.87	22.71	
2025-01-17 12:57:47.53	268.93	22.71	
2025-01-17 12:57:47.73	269.00	22.71	
2025-01-17 12:57:47.93	269.06	22.71	
2025-01-17 12:57:48.14	269.13	22.71	
2025-01-17 12:57:48.34	269.19	22.71	
2025-01-17 12:57:48.54	269.26	22.71	
2025-01-17 12:57:48.75	269.32	22.71	
2025-01-17 12:57:48.95	269.39	22.71	
2025-01-17 12:57:49.15	269.45	22.71	
2025-01-17 12:57:49.35	269.51	22.71	
2025-01-17 12:57:49.56	269.58	22.71	
2025-01-17 12:57:49.76	269.65	22.71	
2025-01-17 12:57:49.96	269.71	22.71	
2025-01-17 12:57:50.17	269.78	22.71	
2025-01-17 12:57:50.37	269.84	22.72	
2025-01-17 12:57:50.57	269.91	22.72	
2025-01-17 12:57:50.78	269.97	22.72	
2025-01-17 12:57:50.98	270.04	22.72	
2025-01-17 12:57:51.18	270.10	22.72	
2025-01-17 12:57:51.38	270.16	22.72	
2025-01-17 12:57:51.59	270.23	22.72	
2025-01-17 12:57:51.79	270.30	22.72	
2025-01-17 12:57:51.99	270.36	22.72	
2025-01-17 12:57:52.20	270.43	22.72	
2025-01-17 12:57:52.40	270.49	22.72	
2025-01-17 12:57:52.60	270.56	22.72	
2025-01-17 12:57:52.80	270.62	22.72	
2025-01-17 12:57:53.01	270.69	22.72	
2025-01-17 12:57:53.21	270.75	22.72	
2025-01-17 12:57:53.41	270.81	22.72	
2025-01-17 12:57:53.62	270.88	22.72	
2025-01-17 12:57:53.82	270.95	22.72	
2025-01-17 12:57:54.02	271.01	22.72	
2025-01-17 12:57:54.23	271.08	22.72	
2025-01-17 12:57:54.43	271.14	22.72	
2025-01-17 12:57:54.63	271.21	22.72	
2025-01-17 12:57:54.83	271.27	22.72	
2025-01-17 12:57:55.04	271.34	22.71	
2025-01-17 12:57:55.24	271.40	22.71	
2025-01-17 12:57:55.44	271.46	22.71	
2025-01-17 12:57:55.65	271.53	22.71	
2025-01-17 12:57:55.85	271.60	22.71	
2025-01-17 12:57:56.05	271.66	22.71	
2025-01-17 12:57:56.26	271.73	22.71	
2025-01-17 12:57:56.46	271.79	22.71	
2025-01-17 12:57:56.66	271.86	22.71	
2025-01-17 12:57:56.86	271.92	22.71	
2025-01-17 12:57:57.07	271.99	22.71	
2025-01-17 12:57:57.27	272.05	22.71	
2025-01-17 12:57:57.47	272.11	22.71	
2025-01-17 12:57:57.68	272.18	22.71	
2025-01-17 12:57:57.88	272.25	22.71	
2025-01-17 12:57:58.08	272.31	22.70	
2025-01-17 12:57:58.29	272.38	22.70	
2025-01-17 12:57:58.49	272.44	22.70	
2025-01-17 12:57:58.69	272.50	22.70	
2025-01-17 12:57:58.89	272.57	22.70	
2025-01-17 12:57:59.10	272.64	22.70	
2025-01-17 12:57:59.30	272.70	22.70	
2025-01-17 12:57:59.50	272.76	22.70	
2025-01-17 12:57:59.71	272.83	22.70	
2025-01-17 12:57:59.91	272.89	22.69	
2025-01-17 12:58:00.11	272.96	22.69	
2025-01-17 12:58:00.31	273.02	22.69	
2025-01-17 12:58:00.52	273.09	22.69	
2025-01-17 12:58:00.72	273.15	22.69	
2025-01-17 12:58:00.92	273.22	22.69	
2025-01-17 12:58:01.13	273.28	22.69	
2025-01-17 12:58:01.33	273.35	22.68	
2025-01-17 12:58:01.53	273.41	22.68	
2025-01-17 12:58:01.74	273.48	22.68	
2025-01-17 12:58:01.94	273.54	22.68	
2025-01-17 12:58:02.14	273.61	22.68	
2025-01-17 12:58:02.34	273.67	22.68	
2025-01-17 12:58:02.55	273.74	22.67	
2025-01-17 12:58:02.75	273.80	22.67	
2025-01-17 12:58:02.95	273.87	22.67	
2025-01-17 12:58:03.16	273.93	22.67	
2025-01-17 12:58:03.36	274.00	22.67	
2025-01-17 12:58:03.56	274.06	22.66	
2025-01-17 12:58:03.77	274.13	22.66	
2025-01-17 12:58:03.97	274.19	22.66	
2025-01-17 12:58:04.17	274.26	22.66	
2025-01-17 12:58:04.37	274.32	22.66	
2025-01-17 12:58:04.58	274.39	22.65	
2025-01-17 12:58:04.78	274.45	22.65	
2025-01-17 12:58:04.98	274.51	22.65	
2025-01-17 12:58:05.19	274.58	22.65	
2025-01-17 12:58:05.39	274.64	22.65	
2025-01-17 12:58:05.59	274.71	22.64	
2025-01-17 12:58:05.80	274.77	22.64	
2025-01-17 12:58:06.00	274.84	22.64	
2025-01-17 12:58:06.20	274.90	22.64	
2025-01-17 12:58:06.40	274.97	22.63	
2025-01-17 12:58:06.61	275.03	22.63	
2025-01-17 12:58:06.81	275.10	22.63	
2025-01-17 12:58:07.01	275.16	22.63	
2025-01-17 12:58:07.22	275.23	22.62	
2025-01-17 12:58:07.42	275.29	22.62	
2025-01-17 12:58:07.62	275.35	22.62	
2025-01-17 12:58:07.82	275.42	22.62	
2025-01-17 12:58:08.03	275.48	22.61	
2025-01-17 12:58:08.23	275.55	22.61	
2025-01-17 12:58:08.43	275.61	22.61	
2025-01-17 12:58:08.64	275.68	22.60	
2025-01-17 12:58:08.84	275.74	22.60	
