passes_logs/2025/01/17/SPB_Silybum_02/SPB_Silybum_02__20250117_203501_TERRA_rec.log

#Pass ID: 20250117_203501_TERRA
#Satellite: TERRA
#Configuration: TERRA
#Start time: 2025-01-17 20:35:01

#Version: 2.0.20230423
#Station: SPB_Silybum_02
#Location: 30.233357 lon 59.946436 lat
#TLE: 1 25994U 99068A   25016.77398677  .00000840  00000+0  18282-3 0  9994
#TLE: 2 25994  98.0212  79.7479 0003409  69.0484  40.6664 14.60398530334334

#Time	Az	El	Level	Level2	SNR	BER	Gain	Gain2
2025-01-17 20:35:03.29	230.83	4.11	
2025-01-17 20:35:03.49	230.85	4.12	
2025-01-17 20:35:03.70	230.88	4.13	
2025-01-17 20:35:03.90	230.90	4.14	
2025-01-17 20:35:04.10	230.93	4.15	
2025-01-17 20:35:04.30	230.95	4.16	
2025-01-17 20:35:04.51	230.97	4.17	
2025-01-17 20:35:04.71	231.00	4.18	
2025-01-17 20:35:04.91	231.02	4.19	
2025-01-17 20:35:05.12	231.05	4.20	
2025-01-17 20:35:05.32	231.07	4.21	
2025-01-17 20:35:05.52	231.10	4.22	
2025-01-17 20:35:05.73	231.12	4.23	
2025-01-17 20:35:05.93	231.15	4.24	
2025-01-17 20:35:06.13	231.17	4.25	
2025-01-17 20:35:06.34	231.19	4.26	
2025-01-17 20:35:06.54	231.22	4.27	
2025-01-17 20:35:06.74	231.24	4.28	
2025-01-17 20:35:06.95	231.27	4.29	
2025-01-17 20:35:07.15	231.29	4.30	
2025-01-17 20:35:07.35	231.32	4.31	
2025-01-17 20:35:07.55	231.34	4.32	
2025-01-17 20:35:07.76	231.37	4.34	
2025-01-17 20:35:07.96	231.39	4.35	
2025-01-17 20:35:08.16	231.41	4.36	
2025-01-17 20:35:08.37	231.44	4.37	
2025-01-17 20:35:08.57	231.46	4.38	
2025-01-17 20:35:08.77	231.49	4.39	
2025-01-17 20:35:08.98	231.51	4.40	
2025-01-17 20:35:09.18	231.54	4.41	
2025-01-17 20:35:09.38	231.56	4.42	
2025-01-17 20:35:09.59	231.59	4.43	
2025-01-17 20:35:09.79	231.61	4.44	
2025-01-17 20:35:09.99	231.64	4.45	
2025-01-17 20:35:10.19	231.66	4.46	
2025-01-17 20:35:10.40	231.69	4.47	
2025-01-17 20:35:10.60	231.71	4.48	
2025-01-17 20:35:10.80	231.74	4.49	
2025-01-17 20:35:11.01	231.76	4.50	
2025-01-17 20:35:11.21	231.79	4.51	
2025-01-17 20:35:11.41	231.81	4.52	
2025-01-17 20:35:11.62	231.84	4.53	
2025-01-17 20:35:11.82	231.86	4.54	
2025-01-17 20:35:12.02	231.89	4.55	
2025-01-17 20:35:12.23	231.91	4.56	
2025-01-17 20:35:12.43	231.94	4.57	
2025-01-17 20:35:12.63	231.96	4.58	
2025-01-17 20:35:12.84	231.99	4.59	
2025-01-17 20:35:13.04	232.01	4.60	
2025-01-17 20:35:13.24	232.04	4.61	
2025-01-17 20:35:13.44	232.06	4.62	
2025-01-17 20:35:13.65	232.09	4.63	
2025-01-17 20:35:13.85	232.11	4.64	
2025-01-17 20:35:14.05	232.14	4.65	
2025-01-17 20:35:14.26	232.16	4.66	
2025-01-17 20:35:14.46	232.19	4.67	
2025-01-17 20:35:14.66	232.21	4.68	
2025-01-17 20:35:14.87	232.24	4.69	
2025-01-17 20:35:15.07	232.26	4.70	
2025-01-17 20:35:15.27	232.29	4.71	
2025-01-17 20:35:15.48	232.31	4.72	
2025-01-17 20:35:15.68	232.34	4.73	
2025-01-17 20:35:15.88	232.36	4.74	
2025-01-17 20:35:16.09	232.39	4.76	
2025-01-17 20:35:16.29	232.41	4.77	
2025-01-17 20:35:16.49	232.44	4.78	
2025-01-17 20:35:16.69	232.46	4.79	
2025-01-17 20:35:16.90	232.49	4.80	
2025-01-17 20:35:17.10	232.52	4.81	
2025-01-17 20:35:17.30	232.54	4.82	
2025-01-17 20:35:17.51	232.57	4.83	
2025-01-17 20:35:17.71	232.59	4.84	
2025-01-17 20:35:17.91	232.62	4.85	
2025-01-17 20:35:18.12	232.64	4.86	
2025-01-17 20:35:18.32	232.67	4.87	
2025-01-17 20:35:18.52	232.69	4.88	
2025-01-17 20:35:18.73	232.72	4.89	
2025-01-17 20:35:18.93	232.75	4.90	
2025-01-17 20:35:19.13	232.77	4.91	
2025-01-17 20:35:19.33	232.80	4.92	
2025-01-17 20:35:19.54	232.82	4.93	
2025-01-17 20:35:19.74	232.85	4.94	
2025-01-17 20:35:19.94	232.87	4.95	
2025-01-17 20:35:20.15	232.90	4.96	
2025-01-17 20:35:20.35	232.93	4.97	
2025-01-17 20:35:20.55	232.95	4.98	
2025-01-17 20:35:20.76	232.98	4.99	
2025-01-17 20:35:20.96	233.00	5.00	
2025-01-17 20:35:21.16	233.03	5.01	
2025-01-17 20:35:21.37	233.05	5.02	
2025-01-17 20:35:21.57	233.08	5.03	
2025-01-17 20:35:21.77	233.11	5.04	
2025-01-17 20:35:21.98	233.13	5.05	
2025-01-17 20:35:22.18	233.16	5.06	
2025-01-17 20:35:22.38	233.18	5.07	
2025-01-17 20:35:22.58	233.21	5.08	
2025-01-17 20:35:22.79	233.24	5.09	
2025-01-17 20:35:22.99	233.26	5.10	
2025-01-17 20:35:23.19	233.29	5.11	
2025-01-17 20:35:23.40	233.31	5.12	
2025-01-17 20:35:23.60	233.34	5.13	
2025-01-17 20:35:23.80	233.37	5.14	
2025-01-17 20:35:24.01	233.39	5.15	
2025-01-17 20:35:24.21	233.42	5.16	
2025-01-17 20:35:24.41	233.44	5.17	
2025-01-17 20:35:24.62	233.47	5.18	
2025-01-17 20:35:24.82	233.50	5.20	
2025-01-17 20:35:25.02	233.52	5.21	
2025-01-17 20:35:25.23	233.55	5.22	
2025-01-17 20:35:25.43	233.57	5.23	
2025-01-17 20:35:25.63	233.60	5.24	
2025-01-17 20:35:25.83	233.63	5.25	
2025-01-17 20:35:26.04	233.65	5.26	
2025-01-17 20:35:26.24	233.68	5.27	
2025-01-17 20:35:26.44	233.71	5.28	
2025-01-17 20:35:26.65	233.73	5.29	
2025-01-17 20:35:26.85	233.76	5.30	
2025-01-17 20:35:27.05	233.78	5.31	
2025-01-17 20:35:27.26	233.81	5.32	
2025-01-17 20:35:27.46	233.84	5.33	
2025-01-17 20:35:27.66	233.86	5.34	
2025-01-17 20:35:27.87	233.89	5.35	
2025-01-17 20:35:28.07	233.92	5.36	
2025-01-17 20:35:28.27	233.94	5.37	
2025-01-17 20:35:28.47	233.97	5.38	
2025-01-17 20:35:28.68	234.00	5.39	
2025-01-17 20:35:28.88	234.02	5.40	
2025-01-17 20:35:29.08	234.05	5.41	
2025-01-17 20:35:29.29	234.08	5.42	
2025-01-17 20:35:29.49	234.10	5.43	
2025-01-17 20:35:29.69	234.13	5.44	
2025-01-17 20:35:29.90	234.16	5.45	
2025-01-17 20:35:30.10	234.18	5.46	
2025-01-17 20:35:30.30	234.21	5.47	
2025-01-17 20:35:30.51	234.24	5.48	
2025-01-17 20:35:30.71	234.26	5.49	
2025-01-17 20:35:30.91	234.29	5.50	
2025-01-17 20:35:31.12	234.32	5.51	
2025-01-17 20:35:31.32	234.34	5.52	
2025-01-17 20:35:31.52	234.37	5.53	
2025-01-17 20:35:31.72	234.40	5.54	
2025-01-17 20:35:31.93	234.42	5.55	
2025-01-17 20:35:32.13	234.45	5.56	
2025-01-17 20:35:32.33	234.48	5.57	
2025-01-17 20:35:32.54	234.50	5.58	
2025-01-17 20:35:32.74	234.53	5.59	
2025-01-17 20:35:32.94	234.56	5.60	
2025-01-17 20:35:33.15	234.59	5.61	
2025-01-17 20:35:33.35	234.61	5.62	
2025-01-17 20:35:33.55	234.64	5.63	
2025-01-17 20:35:33.76	234.67	5.64	
2025-01-17 20:35:33.96	234.69	5.65	
2025-01-17 20:35:34.16	234.72	5.67	
2025-01-17 20:35:34.37	234.75	5.68	
2025-01-17 20:35:34.57	234.77	5.69	
2025-01-17 20:35:34.77	234.80	5.70	
2025-01-17 20:35:34.97	234.83	5.71	
2025-01-17 20:35:35.18	234.86	5.72	
2025-01-17 20:35:35.38	234.88	5.73	
2025-01-17 20:35:35.58	234.91	5.74	
2025-01-17 20:35:35.79	234.94	5.75	
2025-01-17 20:35:35.99	234.96	5.76	
2025-01-17 20:35:36.19	234.99	5.77	
2025-01-17 20:35:36.40	235.02	5.78	
2025-01-17 20:35:36.60	235.05	5.79	
2025-01-17 20:35:36.80	235.07	5.80	
2025-01-17 20:35:37.01	235.10	5.81	
2025-01-17 20:35:37.21	235.13	5.82	
2025-01-17 20:35:37.41	235.16	5.83	
2025-01-17 20:35:37.61	235.18	5.84	
2025-01-17 20:35:37.82	235.21	5.85	
2025-01-17 20:35:38.02	235.24	5.86	
2025-01-17 20:35:38.22	235.26	5.87	
2025-01-17 20:35:38.43	235.29	5.88	
2025-01-17 20:35:38.63	235.32	5.89	
2025-01-17 20:35:38.83	235.35	5.90	
2025-01-17 20:35:39.04	235.38	5.91	
2025-01-17 20:35:39.24	235.40	5.92	
2025-01-17 20:35:39.44	235.43	5.93	
2025-01-17 20:35:39.65	235.46	5.94	
2025-01-17 20:35:39.85	235.49	5.95	
2025-01-17 20:35:40.05	235.51	5.96	
2025-01-17 20:35:40.26	235.54	5.97	
2025-01-17 20:35:40.46	235.57	5.98	
2025-01-17 20:35:40.66	235.60	5.99	
2025-01-17 20:35:40.86	235.62	6.00	
2025-01-17 20:35:41.07	235.65	6.01	
2025-01-17 20:35:41.27	235.68	6.02	
2025-01-17 20:35:41.47	235.71	6.03	
2025-01-17 20:35:41.68	235.74	6.04	
2025-01-17 20:35:41.88	235.76	6.05	
2025-01-17 20:35:42.08	235.79	6.06	
2025-01-17 20:35:42.29	235.82	6.07	
2025-01-17 20:35:42.49	235.85	6.08	
2025-01-17 20:35:42.69	235.87	6.09	
2025-01-17 20:35:42.90	235.90	6.10	
2025-01-17 20:35:43.10	235.93	6.11	
2025-01-17 20:35:43.30	235.96	6.12	
2025-01-17 20:35:43.51	235.99	6.13	
2025-01-17 20:35:43.71	236.01	6.14	
2025-01-17 20:35:43.91	236.04	6.15	
2025-01-17 20:35:44.11	236.07	6.16	
2025-01-17 20:35:44.32	236.10	6.17	
2025-01-17 20:35:44.52	236.13	6.18	
2025-01-17 20:35:44.72	236.15	6.19	
2025-01-17 20:35:44.93	236.18	6.21	
2025-01-17 20:35:45.13	236.21	6.22	
2025-01-17 20:35:45.33	236.24	6.23	
2025-01-17 20:35:45.54	236.27	6.24	
2025-01-17 20:35:45.74	236.30	6.25	
2025-01-17 20:35:45.94	236.32	6.26	
2025-01-17 20:35:46.15	236.35	6.27	
2025-01-17 20:35:46.35	236.38	6.28	
2025-01-17 20:35:46.55	236.41	6.29	
2025-01-17 20:35:46.75	236.44	6.30	
2025-01-17 20:35:46.96	236.46	6.31	
2025-01-17 20:35:47.16	236.49	6.32	
2025-01-17 20:35:47.36	236.52	6.33	
2025-01-17 20:35:47.57	236.55	6.34	
2025-01-17 20:35:47.77	236.58	6.35	
2025-01-17 20:35:47.97	236.61	6.36	
2025-01-17 20:35:48.18	236.64	6.37	
2025-01-17 20:35:48.38	236.66	6.38	
2025-01-17 20:35:48.58	236.69	6.39	
2025-01-17 20:35:48.79	236.72	6.40	
2025-01-17 20:35:48.99	236.75	6.41	
2025-01-17 20:35:49.19	236.78	6.42	
2025-01-17 20:35:49.40	236.81	6.43	
2025-01-17 20:35:49.60	236.84	6.44	
2025-01-17 20:35:49.80	236.86	6.45	
2025-01-17 20:35:50.00	236.89	6.46	
2025-01-17 20:35:50.21	236.92	6.47	
2025-01-17 20:35:50.41	236.95	6.48	
2025-01-17 20:35:50.61	236.98	6.49	
2025-01-17 20:35:50.82	237.01	6.50	
2025-01-17 20:35:51.02	237.04	6.51	
2025-01-17 20:35:51.22	237.06	6.52	
2025-01-17 20:35:51.43	237.09	6.53	
2025-01-17 20:35:51.63	237.12	6.54	
2025-01-17 20:35:51.83	237.15	6.55	
2025-01-17 20:35:52.04	237.18	6.56	
2025-01-17 20:35:52.24	237.21	6.57	
2025-01-17 20:35:52.44	237.24	6.58	
2025-01-17 20:35:52.65	237.27	6.59	
2025-01-17 20:35:52.85	237.30	6.60	
2025-01-17 20:35:53.05	237.32	6.61	
2025-01-17 20:35:53.25	237.35	6.62	
2025-01-17 20:35:53.46	237.38	6.63	
2025-01-17 20:35:53.66	237.41	6.64	
2025-01-17 20:35:53.86	237.44	6.65	
2025-01-17 20:35:54.07	237.47	6.66	
2025-01-17 20:35:54.27	237.50	6.67	
2025-01-17 20:35:54.47	237.53	6.68	
2025-01-17 20:35:54.68	237.56	6.69	
2025-01-17 20:35:54.88	237.59	6.70	
2025-01-17 20:35:55.08	237.61	6.71	
2025-01-17 20:35:55.29	237.64	6.72	
2025-01-17 20:35:55.49	237.67	6.73	
2025-01-17 20:35:55.69	237.70	6.74	
2025-01-17 20:35:55.89	237.73	6.75	
2025-01-17 20:35:56.10	237.76	6.76	
2025-01-17 20:35:56.30	237.79	6.77	
2025-01-17 20:35:56.50	237.82	6.78	
2025-01-17 20:35:56.71	237.85	6.79	
2025-01-17 20:35:56.91	237.88	6.80	
2025-01-17 20:35:57.11	237.91	6.81	
2025-01-17 20:35:57.32	237.94	6.82	
2025-01-17 20:35:57.52	237.97	6.83	
2025-01-17 20:35:57.72	238.00	6.84	
2025-01-17 20:35:57.93	238.03	6.85	
2025-01-17 20:35:58.13	238.06	6.86	
2025-01-17 20:35:58.33	238.08	6.87	
2025-01-17 20:35:58.54	238.11	6.88	
2025-01-17 20:35:58.74	238.14	6.89	
2025-01-17 20:35:58.94	238.17	6.90	
2025-01-17 20:35:59.14	238.20	6.91	
2025-01-17 20:35:59.35	238.23	6.92	
2025-01-17 20:35:59.55	238.26	6.93	
2025-01-17 20:35:59.75	238.29	6.94	
2025-01-17 20:35:59.96	238.32	6.95	
2025-01-17 20:36:00.16	238.35	6.96	
2025-01-17 20:36:00.36	238.38	6.97	
2025-01-17 20:36:00.57	238.41	6.98	
2025-01-17 20:36:00.77	238.44	6.99	
2025-01-17 20:36:00.97	238.47	7.00	
2025-01-17 20:36:01.18	238.50	7.01	
2025-01-17 20:36:01.38	238.53	7.02	
2025-01-17 20:36:01.58	238.56	7.03	
2025-01-17 20:36:01.78	238.59	7.04	
2025-01-17 20:36:01.99	238.62	7.05	
2025-01-17 20:36:02.19	238.65	7.06	
2025-01-17 20:36:02.39	238.68	7.07	
2025-01-17 20:36:02.60	238.71	7.08	
2025-01-17 20:36:02.80	238.74	7.09	
2025-01-17 20:36:03.00	238.77	7.10	
2025-01-17 20:36:03.21	238.80	7.12	
2025-01-17 20:36:03.41	238.83	7.12	
2025-01-17 20:36:03.61	238.86	7.13	
2025-01-17 20:36:03.82	238.89	7.15	
2025-01-17 20:36:04.02	238.92	7.16	
2025-01-17 20:36:04.22	238.95	7.16	
2025-01-17 20:36:04.43	238.98	7.18	
2025-01-17 20:36:04.63	239.01	7.19	
2025-01-17 20:36:04.83	239.04	7.20	
2025-01-17 20:36:05.03	239.07	7.20	
2025-01-17 20:36:05.24	239.10	7.22	
2025-01-17 20:36:05.44	239.13	7.23	
2025-01-17 20:36:05.64	239.16	7.23	
2025-01-17 20:36:05.85	239.19	7.25	
2025-01-17 20:36:06.05	239.22	7.26	
2025-01-17 20:36:06.25	239.25	7.27	
2025-01-17 20:36:06.46	239.28	7.28	
2025-01-17 20:36:06.66	239.31	7.29	
2025-01-17 20:36:06.86	239.34	7.30	
2025-01-17 20:36:07.07	239.37	7.31	
2025-01-17 20:36:07.27	239.40	7.32	
2025-01-17 20:36:07.47	239.43	7.33	
2025-01-17 20:36:07.68	239.47	7.34	
2025-01-17 20:36:07.88	239.50	7.35	
2025-01-17 20:36:08.08	239.53	7.36	
2025-01-17 20:36:08.28	239.56	7.36	
2025-01-17 20:36:08.49	239.59	7.38	
2025-01-17 20:36:08.69	239.62	7.39	
2025-01-17 20:36:08.89	239.65	7.39	
2025-01-17 20:36:09.10	239.68	7.41	
2025-01-17 20:36:09.30	239.71	7.42	
2025-01-17 20:36:09.50	239.74	7.42	
2025-01-17 20:36:09.71	239.77	7.44	
2025-01-17 20:36:09.91	239.80	7.44	
2025-01-17 20:36:10.11	239.83	7.45	
2025-01-17 20:36:10.32	239.86	7.47	
2025-01-17 20:36:10.52	239.90	7.47	
2025-01-17 20:36:10.72	239.93	7.48	
2025-01-17 20:36:10.92	239.96	7.49	
2025-01-17 20:36:11.13	239.99	7.50	
2025-01-17 20:36:11.33	240.02	7.51	
2025-01-17 20:36:11.53	240.05	7.52	
2025-01-17 20:36:11.74	240.08	7.53	
2025-01-17 20:36:11.94	240.11	7.54	
2025-01-17 20:36:12.14	240.14	7.55	
2025-01-17 20:36:12.35	240.17	7.56	
2025-01-17 20:36:12.55	240.20	7.57	
2025-01-17 20:36:12.75	240.23	7.58	
2025-01-17 20:36:12.96	240.27	7.59	
2025-01-17 20:36:13.16	240.30	7.60	
2025-01-17 20:36:13.36	240.33	7.61	
2025-01-17 20:36:13.57	240.36	7.62	
2025-01-17 20:36:13.77	240.39	7.63	
2025-01-17 20:36:13.97	240.42	7.64	
2025-01-17 20:36:14.17	240.45	7.65	
2025-01-17 20:36:14.38	240.48	7.66	
2025-01-17 20:36:14.58	240.52	7.67	
2025-01-17 20:36:14.78	240.55	7.68	
2025-01-17 20:36:14.99	240.58	7.69	
2025-01-17 20:36:15.19	240.61	7.70	
2025-01-17 20:36:15.39	240.64	7.71	
2025-01-17 20:36:15.60	240.67	7.72	
2025-01-17 20:36:15.80	240.70	7.73	
2025-01-17 20:36:16.00	240.73	7.74	
2025-01-17 20:36:16.21	240.77	7.75	
2025-01-17 20:36:16.41	240.80	7.76	
2025-01-17 20:36:16.61	240.83	7.77	
2025-01-17 20:36:16.82	240.86	7.78	
2025-01-17 20:36:17.02	240.89	7.79	
2025-01-17 20:36:17.22	240.92	7.80	
2025-01-17 20:36:17.42	240.96	7.81	
2025-01-17 20:36:17.63	240.99	7.82	
2025-01-17 20:36:17.83	241.02	7.83	
2025-01-17 20:36:18.03	241.05	7.84	
2025-01-17 20:36:18.24	241.08	7.85	
2025-01-17 20:36:18.44	241.11	7.86	
2025-01-17 20:36:18.64	241.15	7.87	
2025-01-17 20:36:18.85	241.18	7.88	
2025-01-17 20:36:19.05	241.21	7.89	
2025-01-17 20:36:19.25	241.24	7.90	
2025-01-17 20:36:19.46	241.27	7.91	
2025-01-17 20:36:19.66	241.30	7.92	
2025-01-17 20:36:19.86	241.34	7.93	
2025-01-17 20:36:20.06	241.37	7.94	
2025-01-17 20:36:20.27	241.40	7.95	
2025-01-17 20:36:20.47	241.43	7.96	
2025-01-17 20:36:20.67	241.46	7.97	
2025-01-17 20:36:20.88	241.50	7.98	
2025-01-17 20:36:21.08	241.53	7.99	
2025-01-17 20:36:21.28	241.56	8.00	
2025-01-17 20:36:21.49	241.59	8.01	
2025-01-17 20:36:21.69	241.62	8.02	
2025-01-17 20:36:21.89	241.66	8.03	
2025-01-17 20:36:22.10	241.69	8.04	
2025-01-17 20:36:22.30	241.72	8.05	
2025-01-17 20:36:22.50	241.75	8.06	
2025-01-17 20:36:22.71	241.79	8.07	
2025-01-17 20:36:22.91	241.82	8.08	
2025-01-17 20:36:23.11	241.85	8.09	
2025-01-17 20:36:23.31	241.88	8.10	
2025-01-17 20:36:23.52	241.91	8.11	
2025-01-17 20:36:23.72	241.95	8.12	
2025-01-17 20:36:23.92	241.98	8.13	
2025-01-17 20:36:24.13	242.01	8.14	
2025-01-17 20:36:24.33	242.04	8.15	
2025-01-17 20:36:24.53	242.07	8.16	
2025-01-17 20:36:24.74	242.11	8.17	
2025-01-17 20:36:24.94	242.14	8.18	
2025-01-17 20:36:25.14	242.17	8.18	
2025-01-17 20:36:25.35	242.21	8.19	
2025-01-17 20:36:25.55	242.24	8.20	
2025-01-17 20:36:25.75	242.27	8.21	
2025-01-17 20:36:25.96	242.30	8.22	
2025-01-17 20:36:26.16	242.34	8.23	
2025-01-17 20:36:26.36	242.37	8.24	
2025-01-17 20:36:26.56	242.40	8.25	
2025-01-17 20:36:26.77	242.43	8.26	
2025-01-17 20:36:26.97	242.47	8.27	
2025-01-17 20:36:27.17	242.50	8.28	
2025-01-17 20:36:27.38	242.53	8.29	
2025-01-17 20:36:27.58	242.56	8.30	
2025-01-17 20:36:27.78	242.60	8.31	
2025-01-17 20:36:27.99	242.63	8.32	
2025-01-17 20:36:28.19	242.66	8.33	
2025-01-17 20:36:28.39	242.69	8.34	
2025-01-17 20:36:28.60	242.73	8.35	
2025-01-17 20:36:28.80	242.76	8.36	
2025-01-17 20:36:29.00	242.79	8.37	
2025-01-17 20:36:29.20	242.83	8.38	
2025-01-17 20:36:29.41	242.86	8.39	
2025-01-17 20:36:29.61	242.89	8.40	
2025-01-17 20:36:29.81	242.92	8.41	
2025-01-17 20:36:30.02	242.96	8.42	
2025-01-17 20:36:30.22	242.99	8.43	
2025-01-17 20:36:30.42	243.02	8.44	
2025-01-17 20:36:30.63	243.06	8.45	
2025-01-17 20:36:30.83	243.09	8.46	
2025-01-17 20:36:31.03	243.12	8.47	
2025-01-17 20:36:31.24	243.16	8.48	
2025-01-17 20:36:31.44	243.19	8.49	
2025-01-17 20:36:31.64	243.22	8.50	
2025-01-17 20:36:31.85	243.26	8.51	
2025-01-17 20:36:32.05	243.29	8.51	
2025-01-17 20:36:32.25	243.32	8.52	
2025-01-17 20:36:32.45	243.35	8.53	
2025-01-17 20:36:32.66	243.39	8.54	
2025-01-17 20:36:32.86	243.42	8.55	
2025-01-17 20:36:33.06	243.45	8.56	
2025-01-17 20:36:33.27	243.49	8.57	
2025-01-17 20:36:33.47	243.52	8.58	
2025-01-17 20:36:33.67	243.55	8.59	
2025-01-17 20:36:33.88	243.59	8.60	
2025-01-17 20:36:34.08	243.62	8.61	
2025-01-17 20:36:34.28	243.66	8.62	
2025-01-17 20:36:34.49	243.69	8.63	
2025-01-17 20:36:34.69	243.72	8.64	
2025-01-17 20:36:34.89	243.76	8.65	
2025-01-17 20:36:35.09	243.79	8.66	
2025-01-17 20:36:35.30	243.82	8.67	
2025-01-17 20:36:35.50	243.86	8.68	
2025-01-17 20:36:35.70	243.89	8.69	
2025-01-17 20:36:35.91	243.92	8.70	
2025-01-17 20:36:36.11	243.96	8.71	
2025-01-17 20:36:36.31	243.99	8.72	
2025-01-17 20:36:36.52	244.03	8.73	
2025-01-17 20:36:36.72	244.06	8.74	
2025-01-17 20:36:36.92	244.09	8.74	
2025-01-17 20:36:37.13	244.13	8.75	
2025-01-17 20:36:37.33	244.16	8.76	
2025-01-17 20:36:37.53	244.19	8.77	
2025-01-17 20:36:37.74	244.23	8.78	
2025-01-17 20:36:37.94	244.26	8.79	
2025-01-17 20:36:38.14	244.30	8.80	
2025-01-17 20:36:38.34	244.33	8.81	
2025-01-17 20:36:38.55	244.36	8.82	
2025-01-17 20:36:38.75	244.40	8.83	
2025-01-17 20:36:38.95	244.43	8.84	
2025-01-17 20:36:39.16	244.47	8.85	
2025-01-17 20:36:39.36	244.50	8.86	
2025-01-17 20:36:39.56	244.53	8.87	
2025-01-17 20:36:39.77	244.57	8.88	
2025-01-17 20:36:39.97	244.60	8.89	
2025-01-17 20:36:40.17	244.64	8.90	
2025-01-17 20:36:40.38	244.67	8.91	
2025-01-17 20:36:40.58	244.70	8.92	
2025-01-17 20:36:40.78	244.74	8.93	
2025-01-17 20:36:40.99	244.77	8.94	
2025-01-17 20:36:41.19	244.81	8.94	
2025-01-17 20:36:41.39	244.84	8.95	
2025-01-17 20:36:41.59	244.87	8.96	
2025-01-17 20:36:41.80	244.91	8.97	
2025-01-17 20:36:42.00	244.94	8.98	
2025-01-17 20:36:42.20	244.98	8.99	
2025-01-17 20:36:42.41	245.01	9.00	
2025-01-17 20:36:42.61	245.05	9.01	
2025-01-17 20:36:42.81	245.08	9.02	
2025-01-17 20:36:43.02	245.12	9.03	
2025-01-17 20:36:43.22	245.15	9.04	
2025-01-17 20:36:43.42	245.19	9.05	
2025-01-17 20:36:43.63	245.22	9.06	
2025-01-17 20:36:43.83	245.25	9.07	
2025-01-17 20:36:44.03	245.29	9.08	
2025-01-17 20:36:44.23	245.32	9.09	
2025-01-17 20:36:44.44	245.36	9.10	
2025-01-17 20:36:44.64	245.39	9.10	
2025-01-17 20:36:44.84	245.43	9.11	
2025-01-17 20:36:45.05	245.46	9.12	
2025-01-17 20:36:45.25	245.50	9.13	
2025-01-17 20:36:45.45	245.53	9.14	
2025-01-17 20:36:45.66	245.57	9.15	
2025-01-17 20:36:45.86	245.60	9.16	
2025-01-17 20:36:46.06	245.64	9.17	
2025-01-17 20:36:46.27	245.67	9.18	
2025-01-17 20:36:46.47	245.71	9.19	
2025-01-17 20:36:46.67	245.74	9.20	
2025-01-17 20:36:46.88	245.78	9.21	
2025-01-17 20:36:47.08	245.81	9.22	
2025-01-17 20:36:47.28	245.85	9.23	
2025-01-17 20:36:47.48	245.88	9.23	
2025-01-17 20:36:47.69	245.92	9.24	
2025-01-17 20:36:47.89	245.95	9.25	
2025-01-17 20:36:48.09	245.98	9.26	
2025-01-17 20:36:48.30	246.02	9.27	
2025-01-17 20:36:48.50	246.06	9.28	
2025-01-17 20:36:48.70	246.09	9.29	
2025-01-17 20:36:48.91	246.13	9.30	
2025-01-17 20:36:49.11	246.16	9.31	
2025-01-17 20:36:49.31	246.20	9.32	
2025-01-17 20:36:49.52	246.23	9.33	
2025-01-17 20:36:49.72	246.27	9.34	
2025-01-17 20:36:49.92	246.30	9.35	
2025-01-17 20:36:50.13	246.34	9.36	
2025-01-17 20:36:50.33	246.37	9.36	
2025-01-17 20:36:50.53	246.41	9.37	
2025-01-17 20:36:50.73	246.44	9.38	
2025-01-17 20:36:50.94	246.48	9.39	
2025-01-17 20:36:51.14	246.51	9.40	
2025-01-17 20:36:51.34	246.55	9.41	
2025-01-17 20:36:51.55	246.59	9.42	
2025-01-17 20:36:51.75	246.62	9.43	
2025-01-17 20:36:51.95	246.66	9.44	
2025-01-17 20:36:52.16	246.69	9.45	
2025-01-17 20:36:52.36	246.73	9.46	
2025-01-17 20:36:52.56	246.76	9.47	
2025-01-17 20:36:52.77	246.80	9.48	
2025-01-17 20:36:52.97	246.83	9.48	
2025-01-17 20:36:53.17	246.87	9.49	
2025-01-17 20:36:53.37	246.90	9.50	
2025-01-17 20:36:53.58	246.94	9.51	
2025-01-17 20:36:53.78	246.98	9.52	
2025-01-17 20:36:53.98	247.01	9.53	
2025-01-17 20:36:54.19	247.05	9.54	
2025-01-17 20:36:54.39	247.08	9.55	
2025-01-17 20:36:54.59	247.12	9.56	
2025-01-17 20:36:54.80	247.16	9.57	
2025-01-17 20:36:55.00	247.19	9.58	
2025-01-17 20:36:55.20	247.23	9.58	
2025-01-17 20:36:55.41	247.26	9.59	
2025-01-17 20:36:55.61	247.30	9.60	
2025-01-17 20:36:55.81	247.33	9.61	
2025-01-17 20:36:56.02	247.37	9.62	
2025-01-17 20:36:56.22	247.41	9.63	
2025-01-17 20:36:56.42	247.44	9.64	
2025-01-17 20:36:56.62	247.48	9.65	
2025-01-17 20:36:56.83	247.51	9.66	
2025-01-17 20:36:57.03	247.55	9.67	
2025-01-17 20:36:57.23	247.59	9.68	
2025-01-17 20:36:57.44	247.62	9.68	
2025-01-17 20:36:57.64	247.66	9.69	
2025-01-17 20:36:57.84	247.69	9.70	
2025-01-17 20:36:58.05	247.73	9.71	
2025-01-17 20:36:58.25	247.77	9.72	
2025-01-17 20:36:58.45	247.80	9.73	
2025-01-17 20:36:58.66	247.84	9.74	
2025-01-17 20:36:58.86	247.88	9.75	
2025-01-17 20:36:59.06	247.91	9.76	
2025-01-17 20:36:59.27	247.95	9.77	
2025-01-17 20:36:59.47	247.99	9.78	
2025-01-17 20:36:59.67	248.02	9.78	
2025-01-17 20:36:59.87	248.06	9.79	
2025-01-17 20:37:00.08	248.10	9.80	
2025-01-17 20:37:00.28	248.13	9.81	
2025-01-17 20:37:00.48	248.17	9.82	
2025-01-17 20:37:00.69	248.20	9.83	
2025-01-17 20:37:00.89	248.24	9.84	
2025-01-17 20:37:01.09	248.28	9.85	
2025-01-17 20:37:01.30	248.31	9.86	
2025-01-17 20:37:01.50	248.35	9.86	
2025-01-17 20:37:01.70	248.39	9.87	
2025-01-17 20:37:01.91	248.42	9.88	
2025-01-17 20:37:02.11	248.46	9.89	
2025-01-17 20:37:02.31	248.50	9.90	
2025-01-17 20:37:02.51	248.53	9.91	
2025-01-17 20:37:02.72	248.57	9.92	
2025-01-17 20:37:02.92	248.61	9.93	
2025-01-17 20:37:03.12	248.64	9.94	
2025-01-17 20:37:03.33	248.68	9.94	
2025-01-17 20:37:03.53	248.72	9.95	
2025-01-17 20:37:03.73	248.75	9.96	
2025-01-17 20:37:03.94	248.79	9.97	
2025-01-17 20:37:04.14	248.83	9.98	
2025-01-17 20:37:04.34	248.86	9.99	
2025-01-17 20:37:04.55	248.90	10.00	
2025-01-17 20:37:04.75	248.94	10.01	
2025-01-17 20:37:04.95	248.98	10.02	
2025-01-17 20:37:05.16	249.01	10.02	
2025-01-17 20:37:05.36	249.05	10.03	
2025-01-17 20:37:05.56	249.09	10.04	
2025-01-17 20:37:05.76	249.12	10.05	
2025-01-17 20:37:05.97	249.16	10.06	
2025-01-17 20:37:06.17	249.20	10.07	
2025-01-17 20:37:06.37	249.23	10.08	
2025-01-17 20:37:06.59	249.27	10.09	
2025-01-17 20:37:06.80	249.31	10.10	
2025-01-17 20:37:07.00	249.35	10.10	
2025-01-17 20:37:07.20	249.39	10.11	
2025-01-17 20:37:07.41	249.43	10.12	
2025-01-17 20:37:07.61	249.46	10.13	
2025-01-17 20:37:07.81	249.50	10.14	
2025-01-17 20:37:08.01	249.54	10.15	
2025-01-17 20:37:08.22	249.57	10.16	
2025-01-17 20:37:08.42	249.61	10.16	
2025-01-17 20:37:08.62	249.65	10.17	
2025-01-17 20:37:08.83	249.69	10.18	
2025-01-17 20:37:09.03	249.72	10.19	
2025-01-17 20:37:09.23	249.76	10.20	
2025-01-17 20:37:09.44	249.80	10.21	
2025-01-17 20:37:09.64	249.84	10.22	
2025-01-17 20:37:09.84	249.87	10.23	
2025-01-17 20:37:10.05	249.91	10.23	
2025-01-17 20:37:10.25	249.95	10.24	
2025-01-17 20:37:10.45	249.99	10.25	
2025-01-17 20:37:10.65	250.02	10.26	
2025-01-17 20:37:10.86	250.06	10.27	
2025-01-17 20:37:11.06	250.10	10.28	
2025-01-17 20:37:11.26	250.14	10.29	
2025-01-17 20:37:11.47	250.17	10.29	
2025-01-17 20:37:11.67	250.21	10.30	
2025-01-17 20:37:11.87	250.25	10.31	
2025-01-17 20:37:12.08	250.29	10.32	
2025-01-17 20:37:12.28	250.33	10.33	
2025-01-17 20:37:12.48	250.36	10.34	
2025-01-17 20:37:12.69	250.40	10.35	
2025-01-17 20:37:12.89	250.44	10.35	
2025-01-17 20:37:13.09	250.48	10.36	
2025-01-17 20:37:13.30	250.52	10.37	
2025-01-17 20:37:13.50	250.55	10.38	
2025-01-17 20:37:13.70	250.59	10.39	
2025-01-17 20:37:13.90	250.63	10.40	
2025-01-17 20:37:14.11	250.67	10.41	
2025-01-17 20:37:14.31	250.70	10.41	
2025-01-17 20:37:14.51	250.74	10.42	
2025-01-17 20:37:14.72	250.78	10.43	
2025-01-17 20:37:14.92	250.82	10.44	
2025-01-17 20:37:15.12	250.86	10.45	
2025-01-17 20:37:15.33	250.90	10.46	
2025-01-17 20:37:15.53	250.93	10.47	
2025-01-17 20:37:15.73	250.97	10.47	
2025-01-17 20:37:15.94	251.01	10.48	
2025-01-17 20:37:16.14	251.05	10.49	
2025-01-17 20:37:16.34	251.09	10.50	
2025-01-17 20:37:16.54	251.12	10.51	
2025-01-17 20:37:16.75	251.16	10.52	
2025-01-17 20:37:16.95	251.20	10.52	
2025-01-17 20:37:17.15	251.24	10.53	
2025-01-17 20:37:17.36	251.28	10.54	
2025-01-17 20:37:17.56	251.32	10.55	
2025-01-17 20:37:17.76	251.35	10.56	
2025-01-17 20:37:17.97	251.39	10.57	
2025-01-17 20:37:18.17	251.43	10.57	
2025-01-17 20:37:18.37	251.47	10.58	
2025-01-17 20:37:18.58	251.51	10.59	
2025-01-17 20:37:18.78	251.55	10.60	
2025-01-17 20:37:18.98	251.59	10.61	
2025-01-17 20:37:19.19	251.63	10.62	
2025-01-17 20:37:19.39	251.66	10.62	
2025-01-17 20:37:19.59	251.70	10.63	
2025-01-17 20:37:19.79	251.74	10.64	
2025-01-17 20:37:20.00	251.78	10.65	
2025-01-17 20:37:20.20	251.82	10.66	
2025-01-17 20:37:20.40	251.86	10.67	
2025-01-17 20:37:20.61	251.90	10.67	
2025-01-17 20:37:20.81	251.93	10.68	
2025-01-17 20:37:21.01	251.97	10.69	
2025-01-17 20:37:21.22	252.01	10.70	
2025-01-17 20:37:21.42	252.05	10.71	
2025-01-17 20:37:21.62	252.09	10.72	
2025-01-17 20:37:21.83	252.13	10.72	
2025-01-17 20:37:22.03	252.17	10.73	
2025-01-17 20:37:22.23	252.21	10.74	
2025-01-17 20:37:22.44	252.25	10.75	
2025-01-17 20:37:22.64	252.29	10.76	
2025-01-17 20:37:22.84	252.32	10.76	
2025-01-17 20:37:23.04	252.36	10.77	
2025-01-17 20:37:23.25	252.40	10.78	
2025-01-17 20:37:23.45	252.44	10.79	
2025-01-17 20:37:23.65	252.48	10.80	
2025-01-17 20:37:23.86	252.52	10.81	
2025-01-17 20:37:24.06	252.56	10.81	
2025-01-17 20:37:24.26	252.60	10.82	
2025-01-17 20:37:24.47	252.64	10.83	
2025-01-17 20:37:24.67	252.68	10.84	
2025-01-17 20:37:24.87	252.71	10.85	
2025-01-17 20:37:25.08	252.76	10.85	
2025-01-17 20:37:25.28	252.79	10.86	
2025-01-17 20:37:25.48	252.83	10.87	
2025-01-17 20:37:25.68	252.87	10.88	
2025-01-17 20:37:25.89	252.91	10.89	
2025-01-17 20:37:26.09	252.95	10.89	
2025-01-17 20:37:26.29	252.99	10.90	
2025-01-17 20:37:26.50	253.03	10.91	
2025-01-17 20:37:26.70	253.07	10.92	
2025-01-17 20:37:26.90	253.11	10.93	
2025-01-17 20:37:27.11	253.15	10.93	
2025-01-17 20:37:27.31	253.19	10.94	
2025-01-17 20:37:27.51	253.23	10.95	
2025-01-17 20:37:27.72	253.27	10.96	
2025-01-17 20:37:27.92	253.31	10.97	
2025-01-17 20:37:28.12	253.35	10.97	
2025-01-17 20:37:28.33	253.39	10.98	
2025-01-17 20:37:28.53	253.43	10.99	
2025-01-17 20:37:28.73	253.46	11.00	
2025-01-17 20:37:28.93	253.50	11.01	
2025-01-17 20:37:29.14	253.55	11.01	
2025-01-17 20:37:29.34	253.58	11.02	
2025-01-17 20:37:29.54	253.62	11.03	
2025-01-17 20:37:29.75	253.66	11.04	
2025-01-17 20:37:29.95	253.70	11.05	
2025-01-17 20:37:30.15	253.74	11.05	
2025-01-17 20:37:30.36	253.78	11.06	
2025-01-17 20:37:30.56	253.82	11.07	
2025-01-17 20:37:30.76	253.86	11.08	
2025-01-17 20:37:30.97	253.90	11.08	
2025-01-17 20:37:31.17	253.94	11.09	
2025-01-17 20:37:31.37	253.98	11.10	
2025-01-17 20:37:31.58	254.02	11.11	
2025-01-17 20:37:31.78	254.06	11.12	
2025-01-17 20:37:31.98	254.10	11.12	
2025-01-17 20:37:32.18	254.14	11.13	
2025-01-17 20:37:32.39	254.18	11.14	
2025-01-17 20:37:32.59	254.22	11.15	
2025-01-17 20:37:32.79	254.26	11.15	
2025-01-17 20:37:33.00	254.30	11.16	
2025-01-17 20:37:33.20	254.34	11.17	
2025-01-17 20:37:33.40	254.38	11.18	
2025-01-17 20:37:33.61	254.42	11.19	
2025-01-17 20:37:33.81	254.46	11.19	
2025-01-17 20:37:34.01	254.50	11.20	
2025-01-17 20:37:34.22	254.55	11.21	
2025-01-17 20:37:34.42	254.59	11.22	
2025-01-17 20:37:34.62	254.62	11.22	
2025-01-17 20:37:34.82	254.66	11.23	
2025-01-17 20:37:35.03	254.71	11.24	
2025-01-17 20:37:35.23	254.75	11.25	
2025-01-17 20:37:35.43	254.79	11.25	
2025-01-17 20:37:35.64	254.83	11.26	
2025-01-17 20:37:35.84	254.87	11.27	
2025-01-17 20:37:36.04	254.91	11.28	
2025-01-17 20:37:36.25	254.95	11.28	
2025-01-17 20:37:36.45	254.99	11.29	
2025-01-17 20:37:36.65	255.03	11.30	
2025-01-17 20:37:36.86	255.07	11.31	
2025-01-17 20:37:37.06	255.11	11.31	
2025-01-17 20:37:37.26	255.15	11.32	
2025-01-17 20:37:37.47	255.19	11.33	
2025-01-17 20:37:37.67	255.23	11.34	
2025-01-17 20:37:37.87	255.27	11.35	
2025-01-17 20:37:38.07	255.31	11.35	
2025-01-17 20:37:38.28	255.36	11.36	
2025-01-17 20:37:38.48	255.40	11.37	
2025-01-17 20:37:38.68	255.44	11.37	
2025-01-17 20:37:38.89	255.48	11.38	
2025-01-17 20:37:39.09	255.52	11.39	
2025-01-17 20:37:39.29	255.56	11.40	
2025-01-17 20:37:39.50	255.60	11.40	
2025-01-17 20:37:39.70	255.64	11.41	
2025-01-17 20:37:39.90	255.68	11.42	
2025-01-17 20:37:40.11	255.72	11.43	
2025-01-17 20:37:40.31	255.76	11.43	
2025-01-17 20:37:40.51	255.80	11.44	
2025-01-17 20:37:40.72	255.85	11.45	
2025-01-17 20:37:40.92	255.89	11.46	
2025-01-17 20:37:41.12	255.93	11.46	
2025-01-17 20:37:41.32	255.97	11.47	
2025-01-17 20:37:41.53	256.01	11.48	
2025-01-17 20:37:41.73	256.05	11.49	
2025-01-17 20:37:41.93	256.09	11.49	
2025-01-17 20:37:42.14	256.13	11.50	
2025-01-17 20:37:42.34	256.17	11.51	
2025-01-17 20:37:42.54	256.21	11.51	
2025-01-17 20:37:42.75	256.26	11.52	
2025-01-17 20:37:42.95	256.30	11.53	
2025-01-17 20:37:43.15	256.34	11.54	
2025-01-17 20:37:43.36	256.38	11.54	
2025-01-17 20:37:43.56	256.42	11.55	
2025-01-17 20:37:43.76	256.46	11.56	
2025-01-17 20:37:43.96	256.50	11.57	
2025-01-17 20:37:44.17	256.54	11.57	
2025-01-17 20:37:44.37	256.59	11.58	
2025-01-17 20:37:44.57	256.63	11.59	
2025-01-17 20:37:44.78	256.67	11.59	
2025-01-17 20:37:44.98	256.71	11.60	
2025-01-17 20:37:45.18	256.75	11.61	
2025-01-17 20:37:45.39	256.79	11.62	
2025-01-17 20:37:45.59	256.83	11.62	
2025-01-17 20:37:45.79	256.88	11.63	
2025-01-17 20:37:46.00	256.92	11.64	
2025-01-17 20:37:46.20	256.96	11.64	
2025-01-17 20:37:46.40	257.00	11.65	
2025-01-17 20:37:46.61	257.04	11.66	
2025-01-17 20:37:46.81	257.08	11.67	
2025-01-17 20:37:47.01	257.12	11.67	
2025-01-17 20:37:47.21	257.17	11.68	
2025-01-17 20:37:47.42	257.21	11.69	
2025-01-17 20:37:47.62	257.25	11.69	
2025-01-17 20:37:47.82	257.29	11.70	
2025-01-17 20:37:48.03	257.33	11.71	
2025-01-17 20:37:48.23	257.38	11.71	
2025-01-17 20:37:48.43	257.42	11.72	
2025-01-17 20:37:48.64	257.46	11.73	
2025-01-17 20:37:48.84	257.50	11.74	
2025-01-17 20:37:49.04	257.54	11.74	
2025-01-17 20:37:49.25	257.59	11.75	
2025-01-17 20:37:49.45	257.63	11.76	
2025-01-17 20:37:49.65	257.67	11.76	
2025-01-17 20:37:49.85	257.71	11.77	
2025-01-17 20:37:50.06	257.75	11.78	
2025-01-17 20:37:50.26	257.79	11.78	
2025-01-17 20:37:50.46	257.83	11.79	
2025-01-17 20:37:50.67	257.88	11.80	
2025-01-17 20:37:50.87	257.92	11.80	
2025-01-17 20:37:51.07	257.96	11.81	
2025-01-17 20:37:51.28	258.00	11.82	
2025-01-17 20:37:51.48	258.05	11.83	
2025-01-17 20:37:51.68	258.09	11.83	
2025-01-17 20:37:51.89	258.13	11.84	
2025-01-17 20:37:52.09	258.17	11.85	
2025-01-17 20:37:52.29	258.21	11.85	
2025-01-17 20:37:52.50	258.26	11.86	
2025-01-17 20:37:52.70	258.30	11.87	
2025-01-17 20:37:52.90	258.34	11.87	
2025-01-17 20:37:53.10	258.38	11.88	
2025-01-17 20:37:53.31	258.43	11.89	
2025-01-17 20:37:53.51	258.47	11.89	
2025-01-17 20:37:53.71	258.51	11.90	
2025-01-17 20:37:53.92	258.55	11.91	
2025-01-17 20:37:54.12	258.59	11.91	
2025-01-17 20:37:54.32	258.64	11.92	
2025-01-17 20:37:54.53	258.68	11.93	
2025-01-17 20:37:54.73	258.72	11.93	
2025-01-17 20:37:54.93	258.76	11.94	
2025-01-17 20:37:55.14	258.81	11.95	
2025-01-17 20:37:55.34	258.85	11.95	
2025-01-17 20:37:55.54	258.89	11.96	
2025-01-17 20:37:55.75	258.93	11.97	
2025-01-17 20:37:55.95	258.98	11.97	
2025-01-17 20:37:56.15	259.02	11.98	
2025-01-17 20:37:56.35	259.06	11.99	
2025-01-17 20:37:56.56	259.10	11.99	
2025-01-17 20:37:56.76	259.15	12.00	
2025-01-17 20:37:56.96	259.19	12.00	
2025-01-17 20:37:57.17	259.23	12.01	
2025-01-17 20:37:57.37	259.27	12.02	
2025-01-17 20:37:57.57	259.32	12.02	
2025-01-17 20:37:57.78	259.36	12.03	
2025-01-17 20:37:57.98	259.40	12.04	
2025-01-17 20:37:58.18	259.44	12.04	
2025-01-17 20:37:58.39	259.49	12.05	
2025-01-17 20:37:58.59	259.53	12.06	
2025-01-17 20:37:58.79	259.57	12.06	
2025-01-17 20:37:58.99	259.62	12.07	
2025-01-17 20:37:59.20	259.66	12.08	
2025-01-17 20:37:59.40	259.70	12.08	
2025-01-17 20:37:59.60	259.74	12.09	
2025-01-17 20:37:59.81	259.79	12.09	
2025-01-17 20:38:00.01	259.83	12.10	
2025-01-17 20:38:00.23	259.88	12.11	
2025-01-17 20:38:00.43	259.92	12.11	
2025-01-17 20:38:00.64	259.96	12.12	
2025-01-17 20:38:00.84	260.01	12.13	
2025-01-17 20:38:01.04	260.05	12.13	
2025-01-17 20:38:01.24	260.09	12.14	
2025-01-17 20:38:01.45	260.13	12.15	
2025-01-17 20:38:01.65	260.18	12.15	
2025-01-17 20:38:01.85	260.22	12.16	
2025-01-17 20:38:02.06	260.26	12.16	
2025-01-17 20:38:02.26	260.31	12.17	
2025-01-17 20:38:02.46	260.35	12.18	
2025-01-17 20:38:02.67	260.39	12.18	
2025-01-17 20:38:02.87	260.44	12.19	
2025-01-17 20:38:03.07	260.48	12.19	
2025-01-17 20:38:03.28	260.52	12.20	
2025-01-17 20:38:03.48	260.57	12.21	
2025-01-17 20:38:03.68	260.61	12.21	
2025-01-17 20:38:03.89	260.65	12.22	
2025-01-17 20:38:04.09	260.70	12.23	
2025-01-17 20:38:04.29	260.74	12.23	
2025-01-17 20:38:04.49	260.78	12.24	
2025-01-17 20:38:04.70	260.83	12.24	
2025-01-17 20:38:04.90	260.87	12.25	
2025-01-17 20:38:05.10	260.91	12.26	
2025-01-17 20:38:05.31	260.96	12.26	
2025-01-17 20:38:05.51	261.00	12.27	
2025-01-17 20:38:05.71	261.04	12.27	
2025-01-17 20:38:05.92	261.09	12.28	
2025-01-17 20:38:06.12	261.13	12.29	
2025-01-17 20:38:06.32	261.17	12.29	
2025-01-17 20:38:06.53	261.22	12.30	
2025-01-17 20:38:06.73	261.26	12.30	
2025-01-17 20:38:06.93	261.30	12.31	
2025-01-17 20:38:07.13	261.35	12.31	
2025-01-17 20:38:07.34	261.39	12.32	
2025-01-17 20:38:07.54	261.43	12.33	
2025-01-17 20:38:07.74	261.48	12.33	
2025-01-17 20:38:07.95	261.52	12.34	
2025-01-17 20:38:08.15	261.56	12.34	
2025-01-17 20:38:08.35	261.61	12.35	
2025-01-17 20:38:08.56	261.65	12.36	
2025-01-17 20:38:08.76	261.70	12.36	
2025-01-17 20:38:08.96	261.74	12.37	
2025-01-17 20:38:09.17	261.78	12.37	
2025-01-17 20:38:09.37	261.83	12.38	
2025-01-17 20:38:09.57	261.87	12.38	
2025-01-17 20:38:09.78	261.92	12.39	
2025-01-17 20:38:09.98	261.96	12.40	
2025-01-17 20:38:10.18	262.00	12.40	
2025-01-17 20:38:10.38	262.04	12.41	
2025-01-17 20:38:10.59	262.09	12.41	
2025-01-17 20:38:10.79	262.13	12.42	
2025-01-17 20:38:10.99	262.18	12.42	
2025-01-17 20:38:11.20	262.22	12.43	
2025-01-17 20:38:11.40	262.27	12.44	
2025-01-17 20:38:11.60	262.31	12.44	
2025-01-17 20:38:11.81	262.35	12.45	
2025-01-17 20:38:12.01	262.40	12.45	
2025-01-17 20:38:12.21	262.44	12.46	
2025-01-17 20:38:12.42	262.49	12.46	
2025-01-17 20:38:12.62	262.53	12.47	
2025-01-17 20:38:12.82	262.57	12.47	
2025-01-17 20:38:13.02	262.62	12.48	
2025-01-17 20:38:13.23	262.66	12.49	
2025-01-17 20:38:13.43	262.71	12.49	
2025-01-17 20:38:13.63	262.75	12.50	
2025-01-17 20:38:13.84	262.79	12.50	
2025-01-17 20:38:14.04	262.84	12.51	
2025-01-17 20:38:14.24	262.88	12.51	
2025-01-17 20:38:14.45	262.93	12.52	
2025-01-17 20:38:14.65	262.97	12.52	
2025-01-17 20:38:14.85	263.01	12.53	
2025-01-17 20:38:15.06	263.06	12.54	
2025-01-17 20:38:15.26	263.10	12.54	
2025-01-17 20:38:15.46	263.15	12.55	
2025-01-17 20:38:15.67	263.19	12.55	
2025-01-17 20:38:15.87	263.24	12.56	
2025-01-17 20:38:16.07	263.28	12.56	
2025-01-17 20:38:16.27	263.32	12.57	
2025-01-17 20:38:16.48	263.37	12.57	
2025-01-17 20:38:16.68	263.41	12.58	
2025-01-17 20:38:16.88	263.46	12.58	
2025-01-17 20:38:17.09	263.50	12.59	
2025-01-17 20:38:17.29	263.55	12.59	
2025-01-17 20:38:17.49	263.59	12.60	
2025-01-17 20:38:17.70	263.64	12.60	
2025-01-17 20:38:17.90	263.68	12.61	
2025-01-17 20:38:18.10	263.72	12.61	
2025-01-17 20:38:18.31	263.77	12.62	
2025-01-17 20:38:18.51	263.81	12.62	
2025-01-17 20:38:18.71	263.86	12.63	
2025-01-17 20:38:18.92	263.90	12.63	
2025-01-17 20:38:19.12	263.95	12.64	
2025-01-17 20:38:19.32	263.99	12.64	
2025-01-17 20:38:19.52	264.03	12.65	
2025-01-17 20:38:19.73	264.08	12.66	
2025-01-17 20:38:19.93	264.12	12.66	
2025-01-17 20:38:20.13	264.17	12.67	
2025-01-17 20:38:20.34	264.22	12.67	
2025-01-17 20:38:20.54	264.26	12.68	
2025-01-17 20:38:20.74	264.30	12.68	
2025-01-17 20:38:20.95	264.35	12.69	
2025-01-17 20:38:21.15	264.39	12.69	
2025-01-17 20:38:21.35	264.44	12.70	
2025-01-17 20:38:21.56	264.48	12.70	
2025-01-17 20:38:21.76	264.53	12.70	
2025-01-17 20:38:21.96	264.57	12.71	
2025-01-17 20:38:22.17	264.62	12.71	
2025-01-17 20:38:22.37	264.66	12.72	
2025-01-17 20:38:22.57	264.71	12.72	
2025-01-17 20:38:22.79	264.75	12.73	
2025-01-17 20:38:22.99	264.80	12.73	
2025-01-17 20:38:23.20	264.85	12.74	
2025-01-17 20:38:23.40	264.89	12.74	
2025-01-17 20:38:23.60	264.93	12.75	
2025-01-17 20:38:23.81	264.98	12.75	
2025-01-17 20:38:24.01	265.02	12.76	
2025-01-17 20:38:24.21	265.07	12.76	
2025-01-17 20:38:24.41	265.11	12.77	
2025-01-17 20:38:24.62	265.16	12.77	
2025-01-17 20:38:24.82	265.20	12.78	
2025-01-17 20:38:25.02	265.25	12.78	
2025-01-17 20:38:25.23	265.29	12.79	
2025-01-17 20:38:25.43	265.34	12.79	
2025-01-17 20:38:25.63	265.38	12.80	
2025-01-17 20:38:25.84	265.43	12.80	
2025-01-17 20:38:26.04	265.47	12.81	
2025-01-17 20:38:26.24	265.52	12.81	
2025-01-17 20:38:26.45	265.57	12.81	
2025-01-17 20:38:26.65	265.61	12.82	
2025-01-17 20:38:26.85	265.65	12.82	
2025-01-17 20:38:27.06	265.70	12.83	
2025-01-17 20:38:27.26	265.75	12.83	
2025-01-17 20:38:27.46	265.79	12.84	
2025-01-17 20:38:27.66	265.83	12.84	
2025-01-17 20:38:27.87	265.88	12.85	
2025-01-17 20:38:28.07	265.93	12.85	
2025-01-17 20:38:28.27	265.97	12.86	
2025-01-17 20:38:28.48	266.02	12.86	
2025-01-17 20:38:28.68	266.06	12.86	
2025-01-17 20:38:28.88	266.11	12.87	
2025-01-17 20:38:29.09	266.15	12.87	
2025-01-17 20:38:29.29	266.20	12.88	
2025-01-17 20:38:29.49	266.24	12.88	
2025-01-17 20:38:29.70	266.29	12.89	
2025-01-17 20:38:29.90	266.33	12.89	
2025-01-17 20:38:30.10	266.38	12.90	
2025-01-17 20:38:30.31	266.43	12.90	
2025-01-17 20:38:30.51	266.47	12.90	
2025-01-17 20:38:30.71	266.51	12.91	
2025-01-17 20:38:30.91	266.56	12.91	
2025-01-17 20:38:31.12	266.61	12.92	
2025-01-17 20:38:31.32	266.65	12.92	
2025-01-17 20:38:31.52	266.70	12.93	
2025-01-17 20:38:31.73	266.74	12.93	
2025-01-17 20:38:31.93	266.79	12.93	
2025-01-17 20:38:32.13	266.83	12.94	
2025-01-17 20:38:32.34	266.88	12.94	
2025-01-17 20:38:32.54	266.92	12.95	
2025-01-17 20:38:32.74	266.97	12.95	
2025-01-17 20:38:32.95	267.02	12.95	
2025-01-17 20:38:33.15	267.06	12.96	
2025-01-17 20:38:33.35	267.11	12.96	
2025-01-17 20:38:33.55	267.15	12.97	
2025-01-17 20:38:33.76	267.20	12.97	
2025-01-17 20:38:33.96	267.24	12.97	
2025-01-17 20:38:34.16	267.29	12.98	
2025-01-17 20:38:34.37	267.33	12.98	
2025-01-17 20:38:34.57	267.38	12.99	
2025-01-17 20:38:34.77	267.42	12.99	
2025-01-17 20:38:34.98	267.47	12.99	
2025-01-17 20:38:35.18	267.52	13.00	
2025-01-17 20:38:35.38	267.56	13.00	
2025-01-17 20:38:35.59	267.61	13.01	
2025-01-17 20:38:35.79	267.65	13.01	
2025-01-17 20:38:35.99	267.70	13.01	
2025-01-17 20:38:36.20	267.75	13.02	
2025-01-17 20:38:36.40	267.79	13.02	
2025-01-17 20:38:36.60	267.84	13.03	
2025-01-17 20:38:36.80	267.88	13.03	
2025-01-17 20:38:37.01	267.93	13.03	
2025-01-17 20:38:37.21	267.97	13.04	
2025-01-17 20:38:37.41	268.02	13.04	
2025-01-17 20:38:37.62	268.07	13.05	
2025-01-17 20:38:37.82	268.11	13.05	
2025-01-17 20:38:38.02	268.16	13.05	
2025-01-17 20:38:38.23	268.20	13.06	
2025-01-17 20:38:38.43	268.25	13.06	
2025-01-17 20:38:38.63	268.29	13.06	
2025-01-17 20:38:38.84	268.34	13.07	
2025-01-17 20:38:39.04	268.39	13.07	
2025-01-17 20:38:39.24	268.43	13.07	
2025-01-17 20:38:39.45	268.48	13.08	
2025-01-17 20:38:39.65	268.53	13.08	
2025-01-17 20:38:39.85	268.57	13.09	
2025-01-17 20:38:40.05	268.62	13.09	
2025-01-17 20:38:40.26	268.66	13.09	
2025-01-17 20:38:40.46	268.71	13.10	
2025-01-17 20:38:40.66	268.75	13.10	
2025-01-17 20:38:40.87	268.80	13.10	
2025-01-17 20:38:41.07	268.85	13.11	
2025-01-17 20:38:41.27	268.89	13.11	
2025-01-17 20:38:41.48	268.94	13.11	
2025-01-17 20:38:41.68	268.99	13.12	
2025-01-17 20:38:41.88	269.03	13.12	
2025-01-17 20:38:42.09	269.08	13.12	
2025-01-17 20:38:42.29	269.12	13.13	
2025-01-17 20:38:42.49	269.17	13.13	
2025-01-17 20:38:42.69	269.21	13.13	
2025-01-17 20:38:42.90	269.26	13.14	
2025-01-17 20:38:43.10	269.31	13.14	
2025-01-17 20:38:43.30	269.35	13.14	
2025-01-17 20:38:43.51	269.40	13.15	
2025-01-17 20:38:43.71	269.45	13.15	
2025-01-17 20:38:43.91	269.49	13.15	
2025-01-17 20:38:44.12	269.54	13.16	
2025-01-17 20:38:44.32	269.58	13.16	
2025-01-17 20:38:44.52	269.63	13.16	
2025-01-17 20:38:44.73	269.68	13.17	
2025-01-17 20:38:44.93	269.72	13.17	
2025-01-17 20:38:45.13	269.77	13.17	
2025-01-17 20:38:45.34	269.82	13.18	
2025-01-17 20:38:45.54	269.86	13.18	
2025-01-17 20:38:45.74	269.91	13.18	
2025-01-17 20:38:45.94	269.95	13.19	
2025-01-17 20:38:46.15	270.00	13.19	
2025-01-17 20:38:46.35	270.05	13.19	
2025-01-17 20:38:46.55	270.09	13.20	
2025-01-17 20:38:46.76	270.14	13.20	
2025-01-17 20:38:46.96	270.19	13.20	
2025-01-17 20:38:47.16	270.23	13.21	
2025-01-17 20:38:47.37	270.28	13.21	
2025-01-17 20:38:47.57	270.33	13.21	
2025-01-17 20:38:47.77	270.37	13.21	
2025-01-17 20:38:47.98	270.42	13.22	
2025-01-17 20:38:48.18	270.46	13.22	
2025-01-17 20:38:48.38	270.51	13.22	
2025-01-17 20:38:48.58	270.56	13.23	
2025-01-17 20:38:48.79	270.60	13.23	
2025-01-17 20:38:48.99	270.65	13.23	
2025-01-17 20:38:49.19	270.70	13.23	
2025-01-17 20:38:49.40	270.74	13.24	
2025-01-17 20:38:49.60	270.79	13.24	
2025-01-17 20:38:49.80	270.84	13.24	
2025-01-17 20:38:50.01	270.88	13.25	
2025-01-17 20:38:50.21	270.93	13.25	
2025-01-17 20:38:50.41	270.97	13.25	
2025-01-17 20:38:50.62	271.02	13.25	
2025-01-17 20:38:50.82	271.07	13.26	
2025-01-17 20:38:51.02	271.11	13.26	
2025-01-17 20:38:51.23	271.16	13.26	
2025-01-17 20:38:51.43	271.21	13.27	
2025-01-17 20:38:51.63	271.25	13.27	
2025-01-17 20:38:51.83	271.30	13.27	
2025-01-17 20:38:52.04	271.35	13.27	
2025-01-17 20:38:52.24	271.39	13.28	
2025-01-17 20:38:52.44	271.44	13.28	
2025-01-17 20:38:52.65	271.49	13.28	
2025-01-17 20:38:52.85	271.53	13.28	
2025-01-17 20:38:53.05	271.58	13.29	
2025-01-17 20:38:53.26	271.63	13.29	
2025-01-17 20:38:53.46	271.67	13.29	
2025-01-17 20:38:53.66	271.72	13.29	
2025-01-17 20:38:53.87	271.77	13.30	
2025-01-17 20:38:54.07	271.81	13.30	
2025-01-17 20:38:54.27	271.86	13.30	
2025-01-17 20:38:54.48	271.91	13.30	
2025-01-17 20:38:54.68	271.95	13.31	
2025-01-17 20:38:54.88	272.00	13.31	
2025-01-17 20:38:55.08	272.05	13.31	
2025-01-17 20:38:55.29	272.09	13.31	
2025-01-17 20:38:55.49	272.14	13.32	
2025-01-17 20:38:55.69	272.19	13.32	
2025-01-17 20:38:55.90	272.23	13.32	
2025-01-17 20:38:56.10	272.28	13.32	
2025-01-17 20:38:56.30	272.33	13.33	
2025-01-17 20:38:56.51	272.37	13.33	
2025-01-17 20:38:56.71	272.42	13.33	
2025-01-17 20:38:56.91	272.47	13.33	
2025-01-17 20:38:57.12	272.52	13.34	
2025-01-17 20:38:57.32	272.56	13.34	
2025-01-17 20:38:57.52	272.61	13.34	
2025-01-17 20:38:57.72	272.65	13.34	
2025-01-17 20:38:57.93	272.70	13.34	
2025-01-17 20:38:58.13	272.75	13.35	
2025-01-17 20:38:58.33	272.79	13.35	
2025-01-17 20:38:58.54	272.84	13.35	
2025-01-17 20:38:58.74	272.89	13.35	
2025-01-17 20:38:58.94	272.93	13.35	
2025-01-17 20:38:59.15	272.98	13.36	
2025-01-17 20:38:59.35	273.03	13.36	
2025-01-17 20:38:59.55	273.08	13.36	
2025-01-17 20:38:59.76	273.12	13.36	
2025-01-17 20:38:59.96	273.17	13.36	
2025-01-17 20:39:00.16	273.22	13.37	
2025-01-17 20:39:00.37	273.26	13.37	
2025-01-17 20:39:00.57	273.31	13.37	
2025-01-17 20:39:00.77	273.36	13.37	
2025-01-17 20:39:00.97	273.40	13.37	
2025-01-17 20:39:01.18	273.45	13.38	
2025-01-17 20:39:01.38	273.50	13.38	
2025-01-17 20:39:01.58	273.54	13.38	
2025-01-17 20:39:01.79	273.59	13.38	
2025-01-17 20:39:01.99	273.64	13.38	
2025-01-17 20:39:02.19	273.68	13.39	
2025-01-17 20:39:02.40	273.73	13.39	
2025-01-17 20:39:02.60	273.78	13.39	
2025-01-17 20:39:02.80	273.83	13.39	
2025-01-17 20:39:03.01	273.87	13.39	
2025-01-17 20:39:03.21	273.92	13.39	
2025-01-17 20:39:03.41	273.97	13.40	
2025-01-17 20:39:03.62	274.02	13.40	
2025-01-17 20:39:03.82	274.06	13.40	
2025-01-17 20:39:04.02	274.11	13.40	
2025-01-17 20:39:04.22	274.15	13.40	
2025-01-17 20:39:04.43	274.20	13.41	
2025-01-17 20:39:04.63	274.25	13.41	
2025-01-17 20:39:04.83	274.30	13.41	
2025-01-17 20:39:05.04	274.34	13.41	
2025-01-17 20:39:05.24	274.39	13.41	
2025-01-17 20:39:05.44	274.44	13.41	
2025-01-17 20:39:05.65	274.48	13.41	
2025-01-17 20:39:05.85	274.53	13.42	
2025-01-17 20:39:06.05	274.58	13.42	
2025-01-17 20:39:06.26	274.63	13.42	
2025-01-17 20:39:06.46	274.67	13.42	
2025-01-17 20:39:06.66	274.72	13.42	
2025-01-17 20:39:06.86	274.77	13.42	
2025-01-17 20:39:07.07	274.81	13.43	
2025-01-17 20:39:07.27	274.86	13.43	
2025-01-17 20:39:07.47	274.91	13.43	
2025-01-17 20:39:07.68	274.96	13.43	
2025-01-17 20:39:07.88	275.00	13.43	
2025-01-17 20:39:08.08	275.05	13.43	
2025-01-17 20:39:08.29	275.10	13.43	
2025-01-17 20:39:08.49	275.14	13.43	
2025-01-17 20:39:08.69	275.19	13.44	
2025-01-17 20:39:08.90	275.24	13.44	
2025-01-17 20:39:09.10	275.28	13.44	
2025-01-17 20:39:09.30	275.33	13.44	
2025-01-17 20:39:09.51	275.38	13.44	
2025-01-17 20:39:09.71	275.43	13.44	
2025-01-17 20:39:09.91	275.47	13.44	
2025-01-17 20:39:10.11	275.52	13.44	
2025-01-17 20:39:10.32	275.57	13.45	
2025-01-17 20:39:10.52	275.61	13.45	
2025-01-17 20:39:10.72	275.66	13.45	
2025-01-17 20:39:10.93	275.71	13.45	
2025-01-17 20:39:11.13	275.75	13.45	
2025-01-17 20:39:11.33	275.80	13.45	
2025-01-17 20:39:11.54	275.85	13.45	
2025-01-17 20:39:11.74	275.90	13.45	
2025-01-17 20:39:11.94	275.94	13.45	
2025-01-17 20:39:12.15	275.99	13.46	
2025-01-17 20:39:12.35	276.04	13.46	
2025-01-17 20:39:12.55	276.08	13.46	
2025-01-17 20:39:12.76	276.13	13.46	
2025-01-17 20:39:12.96	276.18	13.46	
2025-01-17 20:39:13.16	276.23	13.46	
2025-01-17 20:39:13.36	276.27	13.46	
2025-01-17 20:39:13.57	276.32	13.46	
2025-01-17 20:39:13.77	276.37	13.46	
2025-01-17 20:39:13.97	276.41	13.46	
2025-01-17 20:39:14.18	276.46	13.46	
2025-01-17 20:39:14.38	276.51	13.47	
2025-01-17 20:39:14.58	276.56	13.47	
2025-01-17 20:39:14.79	276.60	13.47	
2025-01-17 20:39:14.99	276.65	13.47	
2025-01-17 20:39:15.19	276.70	13.47	
2025-01-17 20:39:15.40	276.75	13.47	
2025-01-17 20:39:15.60	276.79	13.47	
2025-01-17 20:39:15.80	276.84	13.47	
2025-01-17 20:39:16.00	276.89	13.47	
2025-01-17 20:39:16.21	276.93	13.47	
2025-01-17 20:39:16.41	276.98	13.47	
2025-01-17 20:39:16.61	277.03	13.47	
2025-01-17 20:39:16.82	277.08	13.47	
2025-01-17 20:39:17.02	277.12	13.47	
2025-01-17 20:39:17.22	277.17	13.48	
2025-01-17 20:39:17.43	277.22	13.48	
2025-01-17 20:39:17.63	277.26	13.48	
2025-01-17 20:39:17.83	277.31	13.48	
2025-01-17 20:39:18.04	277.36	13.48	
2025-01-17 20:39:18.24	277.41	13.48	
2025-01-17 20:39:18.44	277.45	13.48	
2025-01-17 20:39:18.65	277.50	13.48	
2025-01-17 20:39:18.85	277.55	13.48	
2025-01-17 20:39:19.05	277.59	13.48	
2025-01-17 20:39:19.25	277.64	13.48	
2025-01-17 20:39:19.46	277.69	13.48	
2025-01-17 20:39:19.66	277.74	13.48	
2025-01-17 20:39:19.86	277.78	13.48	
2025-01-17 20:39:20.07	277.83	13.48	
2025-01-17 20:39:20.27	277.88	13.48	
2025-01-17 20:39:20.47	277.92	13.48	
2025-01-17 20:39:20.68	277.97	13.48	
2025-01-17 20:39:20.88	278.02	13.48	
2025-01-17 20:39:21.08	278.07	13.48	
2025-01-17 20:39:21.29	278.12	13.48	
2025-01-17 20:39:21.49	278.16	13.48	
2025-01-17 20:39:21.69	278.21	13.48	
2025-01-17 20:39:21.89	278.25	13.48	
2025-01-17 20:39:22.10	278.30	13.48	
2025-01-17 20:39:22.30	278.35	13.48	
2025-01-17 20:39:22.50	278.40	13.48	
2025-01-17 20:39:22.71	278.45	13.49	
2025-01-17 20:39:22.91	278.49	13.49	
2025-01-17 20:39:23.11	278.54	13.49	
2025-01-17 20:39:23.32	278.59	13.49	
2025-01-17 20:39:23.52	278.63	13.49	
2025-01-17 20:39:23.72	278.68	13.49	
2025-01-17 20:39:23.93	278.73	13.49	
2025-01-17 20:39:24.13	278.78	13.49	
2025-01-17 20:39:24.33	278.82	13.49	
2025-01-17 20:39:24.54	278.87	13.49	
2025-01-17 20:39:24.74	278.92	13.49	
2025-01-17 20:39:24.94	278.96	13.49	
2025-01-17 20:39:25.14	279.01	13.49	
2025-01-17 20:39:25.35	279.06	13.49	
2025-01-17 20:39:25.55	279.11	13.49	
2025-01-17 20:39:25.75	279.15	13.48	
2025-01-17 20:39:25.96	279.20	13.48	
2025-01-17 20:39:26.16	279.25	13.48	
2025-01-17 20:39:26.36	279.29	13.48	
2025-01-17 20:39:26.57	279.34	13.48	
2025-01-17 20:39:26.77	279.39	13.48	
2025-01-17 20:39:26.97	279.44	13.48	
2025-01-17 20:39:27.18	279.48	13.48	
2025-01-17 20:39:27.38	279.53	13.48	
2025-01-17 20:39:27.58	279.58	13.48	
2025-01-17 20:39:27.79	279.63	13.48	
2025-01-17 20:39:27.99	279.67	13.48	
2025-01-17 20:39:28.19	279.72	13.48	
2025-01-17 20:39:28.39	279.77	13.48	
2025-01-17 20:39:28.60	279.82	13.48	
2025-01-17 20:39:28.80	279.86	13.48	
2025-01-17 20:39:29.00	279.91	13.48	
2025-01-17 20:39:29.21	279.96	13.48	
2025-01-17 20:39:29.41	280.00	13.48	
2025-01-17 20:39:29.61	280.05	13.48	
2025-01-17 20:39:29.82	280.10	13.48	
2025-01-17 20:39:30.02	280.15	13.48	
2025-01-17 20:39:30.22	280.19	13.48	
2025-01-17 20:39:30.43	280.24	13.48	
2025-01-17 20:39:30.63	280.29	13.48	
2025-01-17 20:39:30.83	280.33	13.48	
2025-01-17 20:39:31.03	280.38	13.48	
2025-01-17 20:39:31.24	280.43	13.48	
2025-01-17 20:39:31.44	280.47	13.47	
2025-01-17 20:39:31.64	280.52	13.47	
2025-01-17 20:39:31.85	280.57	13.47	
2025-01-17 20:39:32.05	280.62	13.47	
2025-01-17 20:39:32.25	280.66	13.47	
2025-01-17 20:39:32.46	280.71	13.47	
2025-01-17 20:39:32.66	280.76	13.47	
2025-01-17 20:39:32.86	280.80	13.47	
2025-01-17 20:39:33.07	280.85	13.47	
2025-01-17 20:39:33.27	280.90	13.47	
2025-01-17 20:39:33.47	280.95	13.47	
2025-01-17 20:39:33.68	281.00	13.47	
2025-01-17 20:39:33.88	281.04	13.47	
2025-01-17 20:39:34.08	281.09	13.47	
2025-01-17 20:39:34.28	281.13	13.46	
2025-01-17 20:39:34.49	281.18	13.46	
2025-01-17 20:39:34.69	281.23	13.46	
2025-01-17 20:39:34.89	281.28	13.46	
2025-01-17 20:39:35.10	281.32	13.46	
2025-01-17 20:39:35.30	281.37	13.46	
2025-01-17 20:39:35.50	281.42	13.46	
2025-01-17 20:39:35.71	281.47	13.46	
2025-01-17 20:39:35.91	281.51	13.46	
2025-01-17 20:39:36.11	281.56	13.46	
2025-01-17 20:39:36.32	281.61	13.46	
2025-01-17 20:39:36.52	281.65	13.45	
2025-01-17 20:39:36.72	281.70	13.45	
2025-01-17 20:39:36.92	281.75	13.45	
2025-01-17 20:39:37.13	281.80	13.45	
2025-01-17 20:39:37.33	281.84	13.45	
2025-01-17 20:39:37.53	281.89	13.45	
2025-01-17 20:39:37.74	281.94	13.45	
2025-01-17 20:39:37.94	281.98	13.45	
2025-01-17 20:39:38.14	282.03	13.45	
2025-01-17 20:39:38.35	282.08	13.44	
2025-01-17 20:39:38.55	282.12	13.44	
2025-01-17 20:39:38.75	282.17	13.44	
2025-01-17 20:39:38.96	282.22	13.44	
2025-01-17 20:39:39.16	282.27	13.44	
2025-01-17 20:39:39.36	282.31	13.44	
2025-01-17 20:39:39.57	282.36	13.44	
2025-01-17 20:39:39.77	282.41	13.44	
2025-01-17 20:39:39.97	282.45	13.43	
2025-01-17 20:39:40.17	282.50	13.43	
2025-01-17 20:39:40.38	282.55	13.43	
2025-01-17 20:39:40.58	282.60	13.43	
2025-01-17 20:39:40.78	282.64	13.43	
2025-01-17 20:39:40.99	282.69	13.43	
2025-01-17 20:39:41.19	282.74	13.43	
2025-01-17 20:39:41.39	282.78	13.42	
2025-01-17 20:39:41.60	282.83	13.42	
2025-01-17 20:39:41.80	282.88	13.42	
2025-01-17 20:39:42.00	282.92	13.42	
2025-01-17 20:39:42.21	282.97	13.42	
2025-01-17 20:39:42.41	283.02	13.42	
2025-01-17 20:39:42.61	283.06	13.42	
2025-01-17 20:39:42.82	283.11	13.41	
2025-01-17 20:39:43.02	283.16	13.41	
2025-01-17 20:39:43.22	283.21	13.41	
2025-01-17 20:39:43.42	283.25	13.41	
2025-01-17 20:39:43.63	283.30	13.41	
2025-01-17 20:39:43.83	283.35	13.41	
2025-01-17 20:39:44.03	283.39	13.40	
2025-01-17 20:39:44.24	283.44	13.40	
2025-01-17 20:39:44.44	283.49	13.40	
2025-01-17 20:39:44.64	283.53	13.40	
2025-01-17 20:39:44.85	283.58	13.40	
2025-01-17 20:39:45.05	283.63	13.40	
2025-01-17 20:39:45.25	283.67	13.39	
2025-01-17 20:39:45.46	283.72	13.39	
2025-01-17 20:39:45.66	283.77	13.39	
2025-01-17 20:39:45.86	283.82	13.39	
2025-01-17 20:39:46.07	283.86	13.39	
2025-01-17 20:39:46.27	283.91	13.39	
2025-01-17 20:39:46.47	283.96	13.38	
2025-01-17 20:39:46.67	284.00	13.38	
2025-01-17 20:39:46.88	284.05	13.38	
2025-01-17 20:39:47.08	284.10	13.38	
2025-01-17 20:39:47.28	284.14	13.38	
2025-01-17 20:39:47.49	284.19	13.37	
2025-01-17 20:39:47.69	284.24	13.37	
2025-01-17 20:39:47.89	284.28	13.37	
2025-01-17 20:39:48.10	284.33	13.37	
2025-01-17 20:39:48.30	284.38	13.37	
2025-01-17 20:39:48.50	284.42	13.36	
2025-01-17 20:39:48.71	284.47	13.36	
2025-01-17 20:39:48.91	284.52	13.36	
2025-01-17 20:39:49.11	284.56	13.36	
2025-01-17 20:39:49.31	284.61	13.36	
2025-01-17 20:39:49.52	284.66	13.35	
2025-01-17 20:39:49.72	284.71	13.35	
2025-01-17 20:39:49.92	284.75	13.35	
2025-01-17 20:39:50.13	284.80	13.35	
2025-01-17 20:39:50.33	284.85	13.35	
2025-01-17 20:39:50.53	284.89	13.34	
2025-01-17 20:39:50.74	284.94	13.34	
2025-01-17 20:39:50.94	284.99	13.34	
2025-01-17 20:39:51.14	285.03	13.34	
2025-01-17 20:39:51.35	285.08	13.33	
2025-01-17 20:39:51.55	285.13	13.33	
2025-01-17 20:39:51.75	285.17	13.33	
2025-01-17 20:39:51.96	285.22	13.33	
2025-01-17 20:39:52.16	285.27	13.32	
2025-01-17 20:39:52.36	285.31	13.32	
2025-01-17 20:39:52.56	285.36	13.32	
2025-01-17 20:39:52.77	285.41	13.32	
2025-01-17 20:39:52.97	285.45	13.32	
2025-01-17 20:39:53.17	285.50	13.31	
2025-01-17 20:39:53.38	285.55	13.31	
2025-01-17 20:39:53.58	285.59	13.31	
2025-01-17 20:39:53.78	285.64	13.31	
2025-01-17 20:39:53.99	285.69	13.30	
2025-01-17 20:39:54.19	285.73	13.30	
2025-01-17 20:39:54.39	285.78	13.30	
2025-01-17 20:39:54.60	285.83	13.30	
2025-01-17 20:39:54.80	285.87	13.29	
2025-01-17 20:39:55.00	285.92	13.29	
2025-01-17 20:39:55.20	285.96	13.29	
2025-01-17 20:39:55.41	286.01	13.29	
2025-01-17 20:39:55.61	286.06	13.28	
2025-01-17 20:39:55.81	286.10	13.28	
2025-01-17 20:39:56.02	286.15	13.28	
2025-01-17 20:39:56.22	286.20	13.28	
2025-01-17 20:39:56.42	286.24	13.27	
2025-01-17 20:39:56.63	286.29	13.27	
2025-01-17 20:39:56.83	286.34	13.27	
2025-01-17 20:39:57.03	286.38	13.26	
2025-01-17 20:39:57.24	286.43	13.26	
2025-01-17 20:39:57.44	286.48	13.26	
2025-01-17 20:39:57.64	286.52	13.26	
2025-01-17 20:39:57.85	286.57	13.25	
2025-01-17 20:39:58.05	286.62	13.25	
2025-01-17 20:39:58.25	286.66	13.25	
2025-01-17 20:39:58.45	286.71	13.25	
2025-01-17 20:39:58.66	286.76	13.24	
2025-01-17 20:39:58.86	286.80	13.24	
2025-01-17 20:39:59.06	286.85	13.24	
2025-01-17 20:39:59.27	286.89	13.23	
2025-01-17 20:39:59.47	286.94	13.23	
2025-01-17 20:39:59.67	286.99	13.23	
2025-01-17 20:39:59.88	287.03	13.23	
2025-01-17 20:40:00.08	287.08	13.22	
2025-01-17 20:40:00.28	287.12	13.22	
2025-01-17 20:40:00.49	287.17	13.22	
2025-01-17 20:40:00.69	287.22	13.21	
2025-01-17 20:40:00.89	287.26	13.21	
2025-01-17 20:40:01.10	287.31	13.21	
2025-01-17 20:40:01.30	287.36	13.20	
2025-01-17 20:40:01.50	287.40	13.20	
2025-01-17 20:40:01.70	287.45	13.20	
2025-01-17 20:40:01.91	287.50	13.20	
2025-01-17 20:40:02.11	287.54	13.19	
2025-01-17 20:40:02.31	287.59	13.19	
2025-01-17 20:40:02.52	287.63	13.19	
2025-01-17 20:40:02.72	287.68	13.18	
2025-01-17 20:40:02.92	287.73	13.18	
2025-01-17 20:40:03.13	287.77	13.18	
2025-01-17 20:40:03.33	287.82	13.17	
2025-01-17 20:40:03.53	287.86	13.17	
2025-01-17 20:40:03.74	287.91	13.17	
2025-01-17 20:40:03.94	287.96	13.16	
2025-01-17 20:40:04.14	288.00	13.16	
2025-01-17 20:40:04.34	288.05	13.16	
2025-01-17 20:40:04.55	288.10	13.15	
2025-01-17 20:40:04.75	288.14	13.15	
2025-01-17 20:40:04.95	288.19	13.15	
2025-01-17 20:40:05.16	288.23	13.14	
2025-01-17 20:40:05.36	288.28	13.14	
2025-01-17 20:40:05.56	288.33	13.14	
2025-01-17 20:40:05.77	288.37	13.13	
2025-01-17 20:40:05.97	288.42	13.13	
2025-01-17 20:40:06.17	288.46	13.13	
2025-01-17 20:40:06.38	288.51	13.12	
2025-01-17 20:40:06.58	288.56	13.12	
2025-01-17 20:40:06.78	288.60	13.12	
2025-01-17 20:40:06.99	288.65	13.11	
2025-01-17 20:40:07.19	288.69	13.11	
2025-01-17 20:40:07.39	288.74	13.11	
2025-01-17 20:40:07.59	288.78	13.10	
2025-01-17 20:40:07.80	288.83	13.10	
2025-01-17 20:40:08.00	288.88	13.10	
2025-01-17 20:40:08.20	288.92	13.09	
2025-01-17 20:40:08.41	288.97	13.09	
2025-01-17 20:40:08.61	289.01	13.08	
2025-01-17 20:40:08.81	289.06	13.08	
2025-01-17 20:40:09.02	289.11	13.08	
2025-01-17 20:40:09.22	289.15	13.07	
2025-01-17 20:40:09.42	289.20	13.07	
2025-01-17 20:40:09.63	289.25	13.07	
2025-01-17 20:40:09.83	289.29	13.06	
2025-01-17 20:40:10.03	289.34	13.06	
2025-01-17 20:40:10.24	289.38	13.06	
2025-01-17 20:40:10.44	289.43	13.05	
2025-01-17 20:40:10.64	289.47	13.05	
2025-01-17 20:40:10.84	289.52	13.04	
2025-01-17 20:40:11.05	289.56	13.04	
2025-01-17 20:40:11.25	289.61	13.04	
2025-01-17 20:40:11.45	289.65	13.03	
2025-01-17 20:40:11.66	289.70	13.03	
2025-01-17 20:40:11.86	289.75	13.03	
2025-01-17 20:40:12.06	289.79	13.02	
2025-01-17 20:40:12.27	289.84	13.02	
2025-01-17 20:40:12.47	289.88	13.01	
2025-01-17 20:40:12.67	289.93	13.01	
2025-01-17 20:40:12.88	289.98	13.01	
2025-01-17 20:40:13.08	290.02	13.00	
2025-01-17 20:40:13.28	290.07	13.00	
2025-01-17 20:40:13.48	290.11	12.99	
2025-01-17 20:40:13.69	290.16	12.99	
2025-01-17 20:40:13.89	290.20	12.99	
2025-01-17 20:40:14.09	290.25	12.98	
2025-01-17 20:40:14.30	290.29	12.98	
2025-01-17 20:40:14.50	290.34	12.97	
2025-01-17 20:40:14.70	290.38	12.97	
2025-01-17 20:40:14.91	290.43	12.97	
2025-01-17 20:40:15.11	290.48	12.96	
2025-01-17 20:40:15.31	290.52	12.96	
2025-01-17 20:40:15.52	290.57	12.95	
2025-01-17 20:40:15.72	290.61	12.95	
2025-01-17 20:40:15.92	290.66	12.95	
2025-01-17 20:40:16.13	290.70	12.94	
2025-01-17 20:40:16.33	290.75	12.94	
2025-01-17 20:40:16.53	290.79	12.93	
2025-01-17 20:40:16.73	290.84	12.93	
2025-01-17 20:40:16.94	290.88	12.92	
2025-01-17 20:40:17.14	290.93	12.92	
2025-01-17 20:40:17.34	290.97	12.92	
2025-01-17 20:40:17.55	291.02	12.91	
2025-01-17 20:40:17.75	291.07	12.91	
2025-01-17 20:40:17.95	291.11	12.90	
2025-01-17 20:40:18.16	291.16	12.90	
2025-01-17 20:40:18.36	291.20	12.89	
2025-01-17 20:40:18.56	291.25	12.89	
2025-01-17 20:40:18.77	291.29	12.89	
2025-01-17 20:40:18.97	291.34	12.88	
2025-01-17 20:40:19.17	291.38	12.88	
2025-01-17 20:40:19.38	291.43	12.87	
2025-01-17 20:40:19.58	291.47	12.87	
2025-01-17 20:40:19.78	291.52	12.86	
2025-01-17 20:40:19.98	291.56	12.86	
2025-01-17 20:40:20.19	291.61	12.86	
2025-01-17 20:40:20.39	291.65	12.85	
2025-01-17 20:40:20.59	291.70	12.85	
2025-01-17 20:40:20.80	291.74	12.84	
2025-01-17 20:40:21.00	291.79	12.84	
2025-01-17 20:40:21.20	291.83	12.83	
2025-01-17 20:40:21.41	291.88	12.83	
2025-01-17 20:40:21.61	291.92	12.82	
2025-01-17 20:40:21.81	291.97	12.82	
2025-01-17 20:40:22.02	292.01	12.81	
2025-01-17 20:40:22.22	292.06	12.81	
2025-01-17 20:40:22.42	292.10	12.81	
2025-01-17 20:40:22.62	292.15	12.80	
2025-01-17 20:40:22.83	292.19	12.80	
2025-01-17 20:40:23.03	292.24	12.79	
2025-01-17 20:40:23.23	292.28	12.79	
2025-01-17 20:40:23.44	292.33	12.78	
2025-01-17 20:40:23.64	292.37	12.78	
2025-01-17 20:40:23.84	292.42	12.77	
2025-01-17 20:40:24.05	292.46	12.77	
2025-01-17 20:40:24.25	292.51	12.76	
2025-01-17 20:40:24.45	292.55	12.76	
2025-01-17 20:40:24.66	292.60	12.75	
2025-01-17 20:40:24.86	292.64	12.75	
2025-01-17 20:40:25.06	292.69	12.74	
2025-01-17 20:40:25.27	292.73	12.74	
2025-01-17 20:40:25.47	292.78	12.73	
2025-01-17 20:40:25.67	292.82	12.73	
2025-01-17 20:40:25.87	292.86	12.73	
2025-01-17 20:40:26.08	292.91	12.72	
2025-01-17 20:40:26.28	292.95	12.72	
2025-01-17 20:40:26.48	293.00	12.71	
2025-01-17 20:40:26.69	293.04	12.71	
2025-01-17 20:40:26.89	293.09	12.70	
2025-01-17 20:40:27.09	293.13	12.70	
2025-01-17 20:40:27.30	293.18	12.69	
2025-01-17 20:40:27.50	293.22	12.69	
2025-01-17 20:40:27.70	293.27	12.68	
2025-01-17 20:40:27.91	293.31	12.68	
2025-01-17 20:40:28.11	293.36	12.67	
2025-01-17 20:40:28.31	293.40	12.67	
2025-01-17 20:40:28.51	293.44	12.66	
2025-01-17 20:40:28.72	293.49	12.66	
2025-01-17 20:40:28.92	293.53	12.65	
2025-01-17 20:40:29.12	293.58	12.65	
2025-01-17 20:40:29.33	293.62	12.64	
2025-01-17 20:40:29.53	293.67	12.64	
2025-01-17 20:40:29.73	293.71	12.63	
2025-01-17 20:40:29.94	293.76	12.63	
2025-01-17 20:40:30.14	293.80	12.62	
2025-01-17 20:40:30.34	293.84	12.62	
2025-01-17 20:40:30.55	293.89	12.61	
2025-01-17 20:40:30.75	293.93	12.60	
2025-01-17 20:40:30.95	293.98	12.60	
2025-01-17 20:40:31.16	294.02	12.59	
2025-01-17 20:40:31.36	294.07	12.59	
2025-01-17 20:40:31.56	294.11	12.58	
2025-01-17 20:40:31.76	294.15	12.58	
2025-01-17 20:40:31.97	294.20	12.57	
2025-01-17 20:40:32.17	294.24	12.57	
2025-01-17 20:40:32.37	294.29	12.56	
2025-01-17 20:40:32.58	294.33	12.56	
2025-01-17 20:40:32.78	294.37	12.55	
2025-01-17 20:40:32.98	294.42	12.55	
2025-01-17 20:40:33.19	294.46	12.54	
2025-01-17 20:40:33.39	294.51	12.54	
2025-01-17 20:40:33.59	294.55	12.53	
