passes_logs/2025/01/17/SPB_Silybum_02/SPB_Silybum_02__20250117_043606_SUOMI_NPP_rec.log

#Pass ID: 20250117_043606_SUOMI NPP
#Satellite: SUOMI NPP
#Configuration: NPP
#Start time: 2025-01-17 04:36:06

#Version: 2.0.20230423
#Station: SPB_Silybum_02
#Location: 30.233357 lon 59.946436 lat
#TLE: 1 37849U 11061A   25016.11811449  .00000162  00000+0  97827-4 0  9998
#TLE: 2 37849  98.7448 317.0925 0001640  39.6134 320.5162 14.19538688685075

#Time	Az	El	Level	Level2	SNR	BER	Gain	Gain2
2025-01-17 04:36:08.63	19.61	4.07	
2025-01-17 04:36:08.84	19.59	4.08	
2025-01-17 04:36:09.04	19.56	4.09	
2025-01-17 04:36:09.24	19.54	4.09	
2025-01-17 04:36:09.45	19.51	4.10	
2025-01-17 04:36:09.65	19.48	4.11	
2025-01-17 04:36:09.85	19.46	4.11	
2025-01-17 04:36:10.06	19.43	4.12	
2025-01-17 04:36:10.26	19.41	4.13	
2025-01-17 04:36:10.46	19.38	4.13	
2025-01-17 04:36:10.67	19.36	4.14	
2025-01-17 04:36:10.87	19.33	4.15	
2025-01-17 04:36:11.07	19.31	4.16	
2025-01-17 04:36:11.27	19.28	4.16	
2025-01-17 04:36:11.48	19.25	4.17	
2025-01-17 04:36:11.68	19.23	4.18	
2025-01-17 04:36:11.88	19.20	4.18	
2025-01-17 04:36:12.09	19.18	4.19	
2025-01-17 04:36:12.29	19.15	4.20	
2025-01-17 04:36:12.49	19.12	4.21	
2025-01-17 04:36:12.70	19.10	4.21	
2025-01-17 04:36:12.90	19.07	4.22	
2025-01-17 04:36:13.10	19.05	4.23	
2025-01-17 04:36:13.31	19.02	4.23	
2025-01-17 04:36:13.51	19.00	4.24	
2025-01-17 04:36:13.71	18.97	4.25	
2025-01-17 04:36:13.91	18.94	4.25	
2025-01-17 04:36:14.12	18.92	4.26	
2025-01-17 04:36:14.32	18.89	4.27	
2025-01-17 04:36:14.52	18.87	4.28	
2025-01-17 04:36:14.73	18.84	4.28	
2025-01-17 04:36:14.93	18.81	4.29	
2025-01-17 04:36:15.13	18.79	4.30	
2025-01-17 04:36:15.34	18.76	4.30	
2025-01-17 04:36:15.54	18.74	4.31	
2025-01-17 04:36:15.74	18.71	4.32	
2025-01-17 04:36:15.95	18.68	4.32	
2025-01-17 04:36:16.15	18.66	4.33	
2025-01-17 04:36:16.35	18.63	4.34	
2025-01-17 04:36:16.56	18.61	4.35	
2025-01-17 04:36:16.76	18.58	4.35	
2025-01-17 04:36:16.96	18.55	4.36	
2025-01-17 04:36:17.16	18.53	4.37	
2025-01-17 04:36:17.37	18.50	4.37	
2025-01-17 04:36:17.57	18.48	4.38	
2025-01-17 04:36:17.77	18.45	4.39	
2025-01-17 04:36:17.98	18.42	4.39	
2025-01-17 04:36:18.18	18.40	4.40	
2025-01-17 04:36:18.38	18.37	4.41	
2025-01-17 04:36:18.59	18.34	4.41	
2025-01-17 04:36:18.79	18.32	4.42	
2025-01-17 04:36:18.99	18.29	4.43	
2025-01-17 04:36:19.20	18.27	4.44	
2025-01-17 04:36:19.40	18.24	4.44	
2025-01-17 04:36:19.60	18.21	4.45	
2025-01-17 04:36:19.80	18.19	4.46	
2025-01-17 04:36:20.01	18.16	4.46	
2025-01-17 04:36:20.21	18.13	4.47	
2025-01-17 04:36:20.41	18.11	4.48	
2025-01-17 04:36:20.62	18.08	4.48	
2025-01-17 04:36:20.82	18.06	4.49	
2025-01-17 04:36:21.02	18.03	4.50	
2025-01-17 04:36:21.23	18.00	4.50	
2025-01-17 04:36:21.43	17.98	4.51	
2025-01-17 04:36:21.63	17.95	4.52	
2025-01-17 04:36:21.84	17.92	4.52	
2025-01-17 04:36:22.04	17.90	4.53	
2025-01-17 04:36:22.24	17.87	4.54	
2025-01-17 04:36:22.44	17.85	4.54	
2025-01-17 04:36:22.65	17.82	4.55	
2025-01-17 04:36:22.85	17.79	4.56	
2025-01-17 04:36:23.05	17.77	4.57	
2025-01-17 04:36:23.26	17.74	4.57	
2025-01-17 04:36:23.46	17.71	4.58	
2025-01-17 04:36:23.66	17.69	4.59	
2025-01-17 04:36:23.87	17.66	4.59	
2025-01-17 04:36:24.07	17.63	4.60	
2025-01-17 04:36:24.27	17.61	4.61	
2025-01-17 04:36:24.48	17.58	4.61	
2025-01-17 04:36:24.68	17.55	4.62	
2025-01-17 04:36:24.88	17.53	4.63	
2025-01-17 04:36:25.08	17.50	4.63	
2025-01-17 04:36:25.29	17.47	4.64	
2025-01-17 04:36:25.49	17.45	4.65	
2025-01-17 04:36:25.69	17.42	4.65	
2025-01-17 04:36:25.90	17.39	4.66	
2025-01-17 04:36:26.10	17.37	4.67	
2025-01-17 04:36:26.30	17.34	4.67	
2025-01-17 04:36:26.51	17.31	4.68	
2025-01-17 04:36:26.71	17.29	4.69	
2025-01-17 04:36:26.91	17.26	4.69	
2025-01-17 04:36:27.12	17.23	4.70	
2025-01-17 04:36:27.32	17.21	4.71	
2025-01-17 04:36:27.52	17.18	4.71	
2025-01-17 04:36:27.72	17.15	4.72	
2025-01-17 04:36:27.93	17.13	4.73	
2025-01-17 04:36:28.13	17.10	4.73	
2025-01-17 04:36:28.33	17.07	4.74	
2025-01-17 04:36:28.54	17.05	4.75	
2025-01-17 04:36:28.74	17.02	4.75	
2025-01-17 04:36:28.94	16.99	4.76	
2025-01-17 04:36:29.15	16.97	4.77	
2025-01-17 04:36:29.35	16.94	4.77	
2025-01-17 04:36:29.55	16.91	4.78	
2025-01-17 04:36:29.76	16.88	4.79	
2025-01-17 04:36:29.96	16.86	4.80	
2025-01-17 04:36:30.16	16.83	4.80	
2025-01-17 04:36:30.36	16.80	4.81	
2025-01-17 04:36:30.57	16.78	4.82	
2025-01-17 04:36:30.77	16.75	4.82	
2025-01-17 04:36:30.97	16.72	4.83	
2025-01-17 04:36:31.18	16.70	4.84	
2025-01-17 04:36:31.38	16.67	4.84	
2025-01-17 04:36:31.58	16.64	4.85	
2025-01-17 04:36:31.79	16.62	4.86	
2025-01-17 04:36:31.99	16.59	4.86	
2025-01-17 04:36:32.19	16.56	4.87	
2025-01-17 04:36:32.40	16.53	4.88	
2025-01-17 04:36:32.60	16.51	4.88	
2025-01-17 04:36:32.80	16.48	4.89	
2025-01-17 04:36:33.00	16.45	4.89	
2025-01-17 04:36:33.21	16.43	4.90	
2025-01-17 04:36:33.41	16.40	4.91	
2025-01-17 04:36:33.61	16.37	4.91	
2025-01-17 04:36:33.82	16.34	4.92	
2025-01-17 04:36:34.02	16.32	4.93	
2025-01-17 04:36:34.22	16.29	4.93	
2025-01-17 04:36:34.43	16.26	4.94	
2025-01-17 04:36:34.63	16.24	4.95	
2025-01-17 04:36:34.83	16.21	4.95	
2025-01-17 04:36:35.04	16.18	4.96	
2025-01-17 04:36:35.24	16.15	4.97	
2025-01-17 04:36:35.44	16.13	4.97	
2025-01-17 04:36:35.64	16.10	4.98	
2025-01-17 04:36:35.85	16.07	4.99	
2025-01-17 04:36:36.05	16.05	4.99	
2025-01-17 04:36:36.25	16.02	5.00	
2025-01-17 04:36:36.46	15.99	5.01	
2025-01-17 04:36:36.66	15.96	5.01	
2025-01-17 04:36:36.86	15.94	5.02	
2025-01-17 04:36:37.07	15.91	5.03	
2025-01-17 04:36:37.27	15.88	5.03	
2025-01-17 04:36:37.47	15.85	5.04	
2025-01-17 04:36:37.68	15.83	5.05	
2025-01-17 04:36:37.88	15.80	5.05	
2025-01-17 04:36:38.08	15.77	5.06	
2025-01-17 04:36:38.29	15.74	5.07	
2025-01-17 04:36:38.49	15.72	5.07	
2025-01-17 04:36:38.69	15.69	5.08	
2025-01-17 04:36:38.89	15.66	5.08	
2025-01-17 04:36:39.10	15.63	5.09	
2025-01-17 04:36:39.30	15.61	5.10	
2025-01-17 04:36:39.50	15.58	5.10	
2025-01-17 04:36:39.71	15.55	5.11	
2025-01-17 04:36:39.91	15.53	5.12	
2025-01-17 04:36:40.11	15.50	5.12	
2025-01-17 04:36:40.32	15.47	5.13	
2025-01-17 04:36:40.52	15.44	5.14	
2025-01-17 04:36:40.72	15.42	5.14	
2025-01-17 04:36:40.93	15.39	5.15	
2025-01-17 04:36:41.13	15.36	5.16	
2025-01-17 04:36:41.33	15.33	5.16	
2025-01-17 04:36:41.53	15.31	5.17	
2025-01-17 04:36:41.74	15.28	5.18	
2025-01-17 04:36:41.94	15.25	5.18	
2025-01-17 04:36:42.14	15.22	5.19	
2025-01-17 04:36:42.35	15.19	5.19	
2025-01-17 04:36:42.55	15.17	5.20	
2025-01-17 04:36:42.75	15.14	5.21	
2025-01-17 04:36:42.96	15.11	5.21	
2025-01-17 04:36:43.16	15.08	5.22	
2025-01-17 04:36:43.36	15.06	5.23	
2025-01-17 04:36:43.57	15.03	5.23	
2025-01-17 04:36:43.77	15.00	5.24	
2025-01-17 04:36:43.97	14.97	5.25	
2025-01-17 04:36:44.17	14.95	5.25	
2025-01-17 04:36:44.38	14.92	5.26	
2025-01-17 04:36:44.58	14.89	5.27	
2025-01-17 04:36:44.78	14.86	5.27	
2025-01-17 04:36:44.99	14.83	5.28	
2025-01-17 04:36:45.19	14.81	5.28	
2025-01-17 04:36:45.39	14.78	5.29	
2025-01-17 04:36:45.60	14.75	5.30	
2025-01-17 04:36:45.80	14.72	5.30	
2025-01-17 04:36:46.00	14.69	5.31	
2025-01-17 04:36:46.21	14.67	5.32	
2025-01-17 04:36:46.41	14.64	5.32	
2025-01-17 04:36:46.61	14.61	5.33	
2025-01-17 04:36:46.81	14.58	5.33	
2025-01-17 04:36:47.02	14.55	5.34	
2025-01-17 04:36:47.22	14.53	5.35	
2025-01-17 04:36:47.42	14.50	5.35	
2025-01-17 04:36:47.63	14.47	5.36	
2025-01-17 04:36:47.83	14.44	5.37	
2025-01-17 04:36:48.03	14.42	5.37	
2025-01-17 04:36:48.24	14.39	5.38	
2025-01-17 04:36:48.44	14.36	5.39	
2025-01-17 04:36:48.64	14.33	5.39	
2025-01-17 04:36:48.85	14.30	5.40	
2025-01-17 04:36:49.05	14.27	5.40	
2025-01-17 04:36:49.25	14.25	5.41	
2025-01-17 04:36:49.45	14.22	5.42	
2025-01-17 04:36:49.66	14.19	5.42	
2025-01-17 04:36:49.86	14.16	5.43	
2025-01-17 04:36:50.06	14.13	5.44	
2025-01-17 04:36:50.27	14.11	5.44	
2025-01-17 04:36:50.47	14.08	5.45	
2025-01-17 04:36:50.67	14.05	5.45	
2025-01-17 04:36:50.88	14.02	5.46	
2025-01-17 04:36:51.08	13.99	5.47	
2025-01-17 04:36:51.28	13.97	5.47	
2025-01-17 04:36:51.49	13.94	5.48	
2025-01-17 04:36:51.69	13.91	5.49	
2025-01-17 04:36:51.89	13.88	5.49	
2025-01-17 04:36:52.09	13.85	5.50	
2025-01-17 04:36:52.30	13.82	5.50	
2025-01-17 04:36:52.50	13.80	5.51	
2025-01-17 04:36:52.70	13.77	5.52	
2025-01-17 04:36:52.91	13.74	5.52	
2025-01-17 04:36:53.11	13.71	5.53	
2025-01-17 04:36:53.31	13.68	5.53	
2025-01-17 04:36:53.52	13.65	5.54	
2025-01-17 04:36:53.72	13.63	5.55	
2025-01-17 04:36:53.92	13.60	5.55	
2025-01-17 04:36:54.13	13.57	5.56	
2025-01-17 04:36:54.33	13.54	5.57	
2025-01-17 04:36:54.53	13.51	5.57	
2025-01-17 04:36:54.73	13.48	5.58	
2025-01-17 04:36:54.94	13.45	5.58	
2025-01-17 04:36:55.14	13.43	5.59	
2025-01-17 04:36:55.34	13.40	5.60	
2025-01-17 04:36:55.55	13.37	5.60	
2025-01-17 04:36:55.75	13.34	5.61	
2025-01-17 04:36:55.95	13.31	5.61	
2025-01-17 04:36:56.16	13.28	5.62	
2025-01-17 04:36:56.36	13.26	5.63	
2025-01-17 04:36:56.56	13.23	5.63	
2025-01-17 04:36:56.77	13.20	5.64	
2025-01-17 04:36:56.97	13.17	5.64	
2025-01-17 04:36:57.17	13.14	5.65	
2025-01-17 04:36:57.37	13.11	5.66	
2025-01-17 04:36:57.58	13.08	5.66	
2025-01-17 04:36:57.78	13.06	5.67	
2025-01-17 04:36:57.98	13.03	5.67	
2025-01-17 04:36:58.19	13.00	5.68	
2025-01-17 04:36:58.39	12.97	5.69	
2025-01-17 04:36:58.59	12.94	5.69	
2025-01-17 04:36:58.80	12.91	5.70	
2025-01-17 04:36:59.00	12.88	5.70	
2025-01-17 04:36:59.20	12.86	5.71	
2025-01-17 04:36:59.41	12.83	5.72	
2025-01-17 04:36:59.61	12.80	5.72	
2025-01-17 04:36:59.81	12.77	5.73	
2025-01-17 04:37:00.01	12.74	5.73	
2025-01-17 04:37:00.22	12.71	5.74	
2025-01-17 04:37:00.42	12.68	5.75	
2025-01-17 04:37:00.62	12.66	5.75	
2025-01-17 04:37:00.83	12.63	5.76	
2025-01-17 04:37:01.03	12.60	5.76	
2025-01-17 04:37:01.23	12.57	5.77	
2025-01-17 04:37:01.44	12.54	5.78	
2025-01-17 04:37:01.64	12.51	5.78	
2025-01-17 04:37:01.84	12.48	5.79	
2025-01-17 04:37:02.05	12.45	5.79	
2025-01-17 04:37:02.25	12.42	5.80	
2025-01-17 04:37:02.45	12.40	5.81	
2025-01-17 04:37:02.65	12.37	5.81	
2025-01-17 04:37:02.86	12.34	5.82	
2025-01-17 04:37:03.06	12.31	5.82	
2025-01-17 04:37:03.26	12.28	5.83	
2025-01-17 04:37:03.47	12.25	5.84	
2025-01-17 04:37:03.67	12.22	5.84	
2025-01-17 04:37:03.87	12.19	5.85	
2025-01-17 04:37:04.08	12.16	5.85	
2025-01-17 04:37:04.28	12.13	5.86	
2025-01-17 04:37:04.48	12.11	5.87	
2025-01-17 04:37:04.69	12.08	5.87	
2025-01-17 04:37:04.89	12.05	5.88	
2025-01-17 04:37:05.09	12.02	5.88	
2025-01-17 04:37:05.30	11.99	5.89	
2025-01-17 04:37:05.50	11.96	5.89	
2025-01-17 04:37:05.70	11.93	5.90	
2025-01-17 04:37:05.90	11.90	5.91	
2025-01-17 04:37:06.11	11.87	5.91	
2025-01-17 04:37:06.31	11.84	5.92	
2025-01-17 04:37:06.51	11.82	5.92	
2025-01-17 04:37:06.72	11.79	5.93	
2025-01-17 04:37:06.92	11.76	5.94	
2025-01-17 04:37:07.12	11.73	5.94	
2025-01-17 04:37:07.33	11.70	5.95	
2025-01-17 04:37:07.53	11.67	5.95	
2025-01-17 04:37:07.73	11.64	5.96	
2025-01-17 04:37:07.94	11.61	5.96	
2025-01-17 04:37:08.14	11.58	5.97	
2025-01-17 04:37:08.34	11.55	5.98	
2025-01-17 04:37:08.54	11.52	5.98	
2025-01-17 04:37:08.75	11.49	5.99	
2025-01-17 04:37:08.95	11.47	5.99	
2025-01-17 04:37:09.15	11.44	6.00	
2025-01-17 04:37:09.36	11.41	6.00	
2025-01-17 04:37:09.56	11.38	6.01	
2025-01-17 04:37:09.76	11.35	6.02	
2025-01-17 04:37:09.97	11.32	6.02	
2025-01-17 04:37:10.17	11.29	6.03	
2025-01-17 04:37:10.37	11.26	6.03	
2025-01-17 04:37:10.58	11.23	6.04	
2025-01-17 04:37:10.78	11.20	6.04	
2025-01-17 04:37:10.98	11.17	6.05	
2025-01-17 04:37:11.18	11.14	6.06	
2025-01-17 04:37:11.39	11.11	6.06	
2025-01-17 04:37:11.59	11.08	6.07	
2025-01-17 04:37:11.79	11.06	6.07	
2025-01-17 04:37:12.00	11.02	6.08	
2025-01-17 04:37:12.20	11.00	6.08	
2025-01-17 04:37:12.40	10.97	6.09	
2025-01-17 04:37:12.61	10.94	6.10	
2025-01-17 04:37:12.81	10.91	6.10	
2025-01-17 04:37:13.01	10.88	6.11	
2025-01-17 04:37:13.22	10.85	6.11	
2025-01-17 04:37:13.42	10.82	6.12	
2025-01-17 04:37:13.62	10.79	6.12	
2025-01-17 04:37:13.82	10.76	6.13	
2025-01-17 04:37:14.03	10.73	6.13	
2025-01-17 04:37:14.23	10.70	6.14	
2025-01-17 04:37:14.43	10.67	6.15	
2025-01-17 04:37:14.64	10.64	6.15	
2025-01-17 04:37:14.84	10.61	6.16	
2025-01-17 04:37:15.04	10.58	6.16	
2025-01-17 04:37:15.25	10.55	6.17	
2025-01-17 04:37:15.45	10.52	6.17	
2025-01-17 04:37:15.65	10.49	6.18	
2025-01-17 04:37:15.86	10.46	6.18	
2025-01-17 04:37:16.06	10.43	6.19	
2025-01-17 04:37:16.26	10.40	6.20	
2025-01-17 04:37:16.46	10.38	6.20	
2025-01-17 04:37:16.67	10.35	6.21	
2025-01-17 04:37:16.87	10.32	6.21	
2025-01-17 04:37:17.07	10.29	6.22	
2025-01-17 04:37:17.28	10.26	6.22	
2025-01-17 04:37:17.48	10.23	6.23	
2025-01-17 04:37:17.68	10.20	6.23	
2025-01-17 04:37:17.89	10.17	6.24	
2025-01-17 04:37:18.09	10.14	6.25	
2025-01-17 04:37:18.29	10.11	6.25	
2025-01-17 04:37:18.50	10.08	6.26	
2025-01-17 04:37:18.70	10.05	6.26	
2025-01-17 04:37:18.90	10.02	6.27	
2025-01-17 04:37:19.10	9.99	6.27	
2025-01-17 04:37:19.31	9.96	6.28	
2025-01-17 04:37:19.51	9.93	6.28	
2025-01-17 04:37:19.71	9.90	6.29	
2025-01-17 04:37:19.92	9.87	6.29	
2025-01-17 04:37:20.12	9.84	6.30	
2025-01-17 04:37:20.32	9.81	6.31	
2025-01-17 04:37:20.53	9.78	6.31	
2025-01-17 04:37:20.73	9.75	6.32	
2025-01-17 04:37:20.93	9.72	6.32	
2025-01-17 04:37:21.14	9.69	6.33	
2025-01-17 04:37:21.34	9.66	6.33	
2025-01-17 04:37:21.54	9.63	6.34	
2025-01-17 04:37:21.74	9.60	6.34	
2025-01-17 04:37:21.95	9.57	6.35	
2025-01-17 04:37:22.15	9.54	6.35	
2025-01-17 04:37:22.35	9.51	6.36	
2025-01-17 04:37:22.56	9.48	6.36	
2025-01-17 04:37:22.76	9.45	6.37	
2025-01-17 04:37:22.96	9.42	6.37	
2025-01-17 04:37:23.17	9.39	6.38	
2025-01-17 04:37:23.37	9.36	6.39	
2025-01-17 04:37:23.57	9.33	6.39	
2025-01-17 04:37:23.78	9.30	6.40	
2025-01-17 04:37:23.98	9.27	6.40	
2025-01-17 04:37:24.18	9.24	6.41	
2025-01-17 04:37:24.39	9.21	6.41	
2025-01-17 04:37:24.59	9.18	6.42	
2025-01-17 04:37:24.79	9.15	6.42	
2025-01-17 04:37:24.99	9.12	6.43	
2025-01-17 04:37:25.20	9.09	6.43	
2025-01-17 04:37:25.40	9.06	6.44	
2025-01-17 04:37:25.60	9.03	6.44	
2025-01-17 04:37:25.81	9.00	6.45	
2025-01-17 04:37:26.01	8.97	6.45	
2025-01-17 04:37:26.21	8.94	6.46	
2025-01-17 04:37:26.42	8.91	6.46	
2025-01-17 04:37:26.62	8.88	6.47	
2025-01-17 04:37:26.82	8.85	6.47	
2025-01-17 04:37:27.03	8.82	6.48	
2025-01-17 04:37:27.23	8.79	6.49	
2025-01-17 04:37:27.43	8.76	6.49	
2025-01-17 04:37:27.63	8.73	6.50	
2025-01-17 04:37:27.84	8.69	6.50	
2025-01-17 04:37:28.04	8.66	6.51	
2025-01-17 04:37:28.24	8.63	6.51	
2025-01-17 04:37:28.45	8.60	6.52	
2025-01-17 04:37:28.65	8.57	6.52	
2025-01-17 04:37:28.85	8.54	6.53	
2025-01-17 04:37:29.06	8.51	6.53	
2025-01-17 04:37:29.26	8.48	6.54	
2025-01-17 04:37:29.46	8.45	6.54	
2025-01-17 04:37:29.67	8.42	6.55	
2025-01-17 04:37:29.87	8.39	6.55	
2025-01-17 04:37:30.07	8.36	6.56	
2025-01-17 04:37:30.27	8.33	6.56	
2025-01-17 04:37:30.48	8.30	6.57	
2025-01-17 04:37:30.68	8.27	6.57	
2025-01-17 04:37:30.88	8.24	6.58	
2025-01-17 04:37:31.09	8.21	6.58	
2025-01-17 04:37:31.29	8.18	6.59	
2025-01-17 04:37:31.49	8.15	6.59	
2025-01-17 04:37:31.70	8.12	6.60	
2025-01-17 04:37:31.90	8.09	6.60	
2025-01-17 04:37:32.10	8.06	6.61	
2025-01-17 04:37:32.31	8.02	6.61	
2025-01-17 04:37:32.51	7.99	6.62	
2025-01-17 04:37:32.71	7.96	6.62	
2025-01-17 04:37:32.91	7.93	6.63	
2025-01-17 04:37:33.12	7.90	6.63	
2025-01-17 04:37:33.32	7.87	6.64	
2025-01-17 04:37:33.52	7.84	6.64	
2025-01-17 04:37:33.73	7.81	6.65	
2025-01-17 04:37:33.93	7.78	6.65	
2025-01-17 04:37:34.13	7.75	6.66	
2025-01-17 04:37:34.34	7.72	6.66	
2025-01-17 04:37:34.54	7.69	6.67	
2025-01-17 04:37:34.74	7.66	6.67	
2025-01-17 04:37:34.95	7.63	6.68	
2025-01-17 04:37:35.15	7.60	6.68	
2025-01-17 04:37:35.35	7.57	6.69	
2025-01-17 04:37:35.55	7.54	6.69	
2025-01-17 04:37:35.76	7.50	6.70	
2025-01-17 04:37:35.96	7.47	6.70	
2025-01-17 04:37:36.16	7.44	6.71	
2025-01-17 04:37:36.37	7.41	6.71	
2025-01-17 04:37:36.57	7.38	6.72	
2025-01-17 04:37:36.77	7.35	6.72	
2025-01-17 04:37:36.98	7.32	6.73	
2025-01-17 04:37:37.18	7.29	6.73	
2025-01-17 04:37:37.38	7.26	6.74	
2025-01-17 04:37:37.59	7.23	6.74	
2025-01-17 04:37:37.79	7.20	6.75	
2025-01-17 04:37:37.99	7.17	6.75	
2025-01-17 04:37:38.19	7.14	6.76	
2025-01-17 04:37:38.40	7.10	6.76	
2025-01-17 04:37:38.60	7.07	6.77	
2025-01-17 04:37:38.80	7.04	6.77	
2025-01-17 04:37:39.01	7.01	6.78	
2025-01-17 04:37:39.21	6.98	6.78	
2025-01-17 04:37:39.41	6.95	6.79	
2025-01-17 04:37:39.62	6.92	6.79	
2025-01-17 04:37:39.82	6.89	6.79	
2025-01-17 04:37:40.02	6.86	6.80	
2025-01-17 04:37:40.23	6.83	6.80	
2025-01-17 04:37:40.43	6.79	6.81	
2025-01-17 04:37:40.63	6.76	6.81	
2025-01-17 04:37:40.83	6.73	6.82	
2025-01-17 04:37:41.04	6.70	6.82	
2025-01-17 04:37:41.24	6.67	6.83	
2025-01-17 04:37:41.44	6.64	6.83	
2025-01-17 04:37:41.65	6.61	6.84	
2025-01-17 04:37:41.85	6.58	6.84	
2025-01-17 04:37:42.05	6.55	6.85	
2025-01-17 04:37:42.26	6.52	6.85	
2025-01-17 04:37:42.46	6.48	6.86	
2025-01-17 04:37:42.66	6.45	6.86	
2025-01-17 04:37:42.87	6.42	6.87	
2025-01-17 04:37:43.07	6.39	6.87	
2025-01-17 04:37:43.27	6.36	6.88	
2025-01-17 04:37:43.47	6.33	6.88	
2025-01-17 04:37:43.68	6.30	6.88	
2025-01-17 04:37:43.88	6.27	6.89	
2025-01-17 04:37:44.08	6.24	6.89	
2025-01-17 04:37:44.29	6.20	6.90	
2025-01-17 04:37:44.49	6.17	6.90	
2025-01-17 04:37:44.69	6.14	6.91	
2025-01-17 04:37:44.90	6.11	6.91	
2025-01-17 04:37:45.10	6.08	6.92	
2025-01-17 04:37:45.30	6.05	6.92	
2025-01-17 04:37:45.51	6.02	6.93	
2025-01-17 04:37:45.71	5.99	6.93	
2025-01-17 04:37:45.91	5.96	6.94	
2025-01-17 04:37:46.12	5.92	6.94	
2025-01-17 04:37:46.32	5.89	6.94	
2025-01-17 04:37:46.52	5.86	6.95	
2025-01-17 04:37:46.72	5.83	6.95	
2025-01-17 04:37:46.93	5.80	6.96	
2025-01-17 04:37:47.13	5.77	6.96	
2025-01-17 04:37:47.33	5.74	6.97	
2025-01-17 04:37:47.54	5.70	6.97	
2025-01-17 04:37:47.74	5.67	6.98	
2025-01-17 04:37:47.94	5.64	6.98	
2025-01-17 04:37:48.15	5.61	6.99	
2025-01-17 04:37:48.35	5.58	6.99	
2025-01-17 04:37:48.55	5.55	6.99	
2025-01-17 04:37:48.76	5.52	7.00	
2025-01-17 04:37:48.96	5.49	7.00	
2025-01-17 04:37:49.16	5.45	7.01	
2025-01-17 04:37:49.36	5.42	7.01	
2025-01-17 04:37:49.57	5.39	7.02	
2025-01-17 04:37:49.77	5.36	7.02	
2025-01-17 04:37:49.97	5.33	7.02	
2025-01-17 04:37:50.18	5.30	7.03	
2025-01-17 04:37:50.38	5.27	7.03	
2025-01-17 04:37:50.58	5.23	7.04	
2025-01-17 04:37:50.79	5.20	7.04	
2025-01-17 04:37:50.99	5.17	7.05	
2025-01-17 04:37:51.19	5.14	7.05	
2025-01-17 04:37:51.40	5.11	7.06	
2025-01-17 04:37:51.60	5.08	7.06	
2025-01-17 04:37:51.80	5.05	7.06	
2025-01-17 04:37:52.00	5.01	7.07	
2025-01-17 04:37:52.21	4.98	7.07	
2025-01-17 04:37:52.41	4.95	7.08	
2025-01-17 04:37:52.61	4.92	7.08	
2025-01-17 04:37:52.82	4.89	7.09	
2025-01-17 04:37:53.02	4.86	7.09	
2025-01-17 04:37:53.22	4.82	7.09	
2025-01-17 04:37:53.43	4.79	7.10	
2025-01-17 04:37:53.63	4.76	7.10	
2025-01-17 04:37:53.83	4.73	7.11	
2025-01-17 04:37:54.04	4.70	7.11	
2025-01-17 04:37:54.24	4.67	7.12	
2025-01-17 04:37:54.44	4.63	7.12	
2025-01-17 04:37:54.64	4.60	7.12	
2025-01-17 04:37:54.85	4.57	7.13	
2025-01-17 04:37:55.05	4.54	7.13	
2025-01-17 04:37:55.25	4.51	7.14	
2025-01-17 04:37:55.46	4.48	7.14	
2025-01-17 04:37:55.66	4.44	7.15	
2025-01-17 04:37:55.86	4.41	7.15	
2025-01-17 04:37:56.07	4.38	7.15	
2025-01-17 04:37:56.27	4.35	7.16	
2025-01-17 04:37:56.47	4.32	7.16	
2025-01-17 04:37:56.68	4.28	7.17	
2025-01-17 04:37:56.88	4.25	7.17	
2025-01-17 04:37:57.08	4.22	7.18	
2025-01-17 04:37:57.28	4.19	7.18	
2025-01-17 04:37:57.49	4.16	7.18	
2025-01-17 04:37:57.69	4.13	7.19	
2025-01-17 04:37:57.89	4.10	7.19	
2025-01-17 04:37:58.10	4.06	7.20	
2025-01-17 04:37:58.30	4.03	7.20	
2025-01-17 04:37:58.50	4.00	7.20	
2025-01-17 04:37:58.71	3.97	7.21	
2025-01-17 04:37:58.91	3.94	7.21	
2025-01-17 04:37:59.11	3.90	7.22	
2025-01-17 04:37:59.32	3.87	7.22	
2025-01-17 04:37:59.52	3.84	7.22	
2025-01-17 04:37:59.72	3.81	7.23	
2025-01-17 04:37:59.92	3.78	7.23	
2025-01-17 04:38:00.13	3.74	7.24	
2025-01-17 04:38:00.33	3.71	7.24	
2025-01-17 04:38:00.53	3.68	7.24	
2025-01-17 04:38:00.74	3.65	7.25	
2025-01-17 04:38:00.94	3.62	7.25	
2025-01-17 04:38:01.14	3.58	7.26	
2025-01-17 04:38:01.35	3.55	7.26	
2025-01-17 04:38:01.55	3.52	7.27	
2025-01-17 04:38:01.75	3.49	7.27	
2025-01-17 04:38:01.96	3.46	7.27	
2025-01-17 04:38:02.16	3.42	7.28	
2025-01-17 04:38:02.36	3.39	7.28	
2025-01-17 04:38:02.56	3.36	7.28	
2025-01-17 04:38:02.77	3.33	7.29	
2025-01-17 04:38:02.97	3.30	7.29	
2025-01-17 04:38:03.17	3.27	7.30	
2025-01-17 04:38:03.38	3.23	7.30	
2025-01-17 04:38:03.58	3.20	7.30	
2025-01-17 04:38:03.78	3.17	7.31	
2025-01-17 04:38:03.99	3.14	7.31	
2025-01-17 04:38:04.19	3.10	7.32	
2025-01-17 04:38:04.39	3.07	7.32	
2025-01-17 04:38:04.60	3.04	7.32	
2025-01-17 04:38:04.80	3.01	7.33	
2025-01-17 04:38:05.00	2.98	7.33	
2025-01-17 04:38:05.20	2.94	7.34	
2025-01-17 04:38:05.41	2.91	7.34	
2025-01-17 04:38:05.61	2.88	7.34	
2025-01-17 04:38:05.81	2.85	7.35	
2025-01-17 04:38:06.02	2.81	7.35	
2025-01-17 04:38:06.22	2.78	7.35	
2025-01-17 04:38:06.42	2.75	7.36	
2025-01-17 04:38:06.63	2.72	7.36	
2025-01-17 04:38:06.83	2.69	7.37	
2025-01-17 04:38:07.03	2.65	7.37	
2025-01-17 04:38:07.24	2.62	7.37	
2025-01-17 04:38:07.44	2.59	7.38	
2025-01-17 04:38:07.64	2.56	7.38	
2025-01-17 04:38:07.84	2.53	7.39	
2025-01-17 04:38:08.05	2.49	7.39	
2025-01-17 04:38:08.25	2.46	7.39	
2025-01-17 04:38:08.45	2.43	7.40	
2025-01-17 04:38:08.66	2.40	7.40	
2025-01-17 04:38:08.86	2.36	7.40	
2025-01-17 04:38:09.06	2.33	7.41	
2025-01-17 04:38:09.27	2.30	7.41	
2025-01-17 04:38:09.47	2.27	7.41	
2025-01-17 04:38:09.67	2.23	7.42	
2025-01-17 04:38:09.88	2.20	7.42	
2025-01-17 04:38:10.08	2.17	7.43	
2025-01-17 04:38:10.28	2.14	7.43	
2025-01-17 04:38:10.49	2.10	7.43	
2025-01-17 04:38:10.69	2.07	7.44	
2025-01-17 04:38:10.89	2.04	7.44	
2025-01-17 04:38:11.09	2.01	7.44	
2025-01-17 04:38:11.30	1.98	7.45	
2025-01-17 04:38:11.50	1.94	7.45	
2025-01-17 04:38:11.70	1.91	7.45	
2025-01-17 04:38:11.91	1.88	7.46	
2025-01-17 04:38:12.11	1.85	7.46	
2025-01-17 04:38:12.31	1.81	7.47	
2025-01-17 04:38:12.52	1.78	7.47	
2025-01-17 04:38:12.72	1.75	7.47	
2025-01-17 04:38:12.92	1.72	7.48	
2025-01-17 04:38:13.13	1.68	7.48	
2025-01-17 04:38:13.33	1.65	7.48	
2025-01-17 04:38:13.53	1.62	7.49	
2025-01-17 04:38:13.73	1.59	7.49	
2025-01-17 04:38:13.94	1.55	7.49	
2025-01-17 04:38:14.14	1.52	7.50	
2025-01-17 04:38:14.34	1.49	7.50	
2025-01-17 04:38:14.55	1.46	7.50	
2025-01-17 04:38:14.75	1.42	7.51	
2025-01-17 04:38:14.95	1.39	7.51	
2025-01-17 04:38:15.16	1.36	7.51	
2025-01-17 04:38:15.36	1.33	7.52	
2025-01-17 04:38:15.56	1.29	7.52	
2025-01-17 04:38:15.77	1.26	7.53	
2025-01-17 04:38:15.97	1.23	7.53	
2025-01-17 04:38:16.17	1.20	7.53	
2025-01-17 04:38:16.37	1.16	7.54	
2025-01-17 04:38:16.58	1.13	7.54	
2025-01-17 04:38:16.78	1.10	7.54	
2025-01-17 04:38:16.98	1.07	7.55	
2025-01-17 04:38:17.19	1.03	7.55	
2025-01-17 04:38:17.39	1.00	7.55	
2025-01-17 04:38:17.59	0.97	7.56	
2025-01-17 04:38:17.80	0.93	7.56	
2025-01-17 04:38:18.00	0.90	7.56	
2025-01-17 04:38:18.20	0.87	7.57	
2025-01-17 04:38:18.41	0.84	7.57	
2025-01-17 04:38:18.61	0.80	7.57	
2025-01-17 04:38:18.81	0.77	7.58	
2025-01-17 04:38:19.01	0.74	7.58	
2025-01-17 04:38:19.22	0.71	7.58	
2025-01-17 04:38:19.42	0.67	7.59	
2025-01-17 04:38:19.62	0.64	7.59	
2025-01-17 04:38:19.83	0.61	7.59	
2025-01-17 04:38:20.03	0.58	7.60	
2025-01-17 04:38:20.23	0.54	7.60	
2025-01-17 04:38:20.44	0.51	7.60	
2025-01-17 04:38:20.64	0.48	7.61	
2025-01-17 04:38:20.84	0.45	7.61	
2025-01-17 04:38:21.05	0.41	7.61	
2025-01-17 04:38:21.25	0.38	7.61	
2025-01-17 04:38:21.45	0.35	7.62	
2025-01-17 04:38:21.65	0.31	7.62	
2025-01-17 04:38:21.86	0.28	7.62	
2025-01-17 04:38:22.06	0.25	7.63	
2025-01-17 04:38:22.26	0.22	7.63	
2025-01-17 04:38:22.47	0.18	7.63	
2025-01-17 04:38:22.67	0.15	7.64	
2025-01-17 04:38:22.87	0.12	7.64	
2025-01-17 04:38:23.08	0.08	7.64	
2025-01-17 04:38:23.28	0.05	7.65	
2025-01-17 04:38:23.48	0.02	7.65	
2025-01-17 04:38:23.69	359.98	7.65	
2025-01-17 04:38:23.89	359.95	7.66	
2025-01-17 04:38:24.09	359.92	7.66	
2025-01-17 04:38:24.29	359.89	7.66	
2025-01-17 04:38:24.50	359.85	7.67	
2025-01-17 04:38:24.70	359.82	7.67	
2025-01-17 04:38:24.90	359.79	7.67	
2025-01-17 04:38:25.11	359.75	7.67	
2025-01-17 04:38:25.31	359.72	7.68	
2025-01-17 04:38:25.51	359.69	7.68	
2025-01-17 04:38:25.72	359.66	7.68	
2025-01-17 04:38:25.92	359.62	7.69	
2025-01-17 04:38:26.12	359.59	7.69	
2025-01-17 04:38:26.33	359.56	7.69	
2025-01-17 04:38:26.53	359.52	7.70	
2025-01-17 04:38:26.73	359.49	7.70	
2025-01-17 04:38:26.93	359.46	7.70	
2025-01-17 04:38:27.14	359.43	7.70	
2025-01-17 04:38:27.34	359.39	7.71	
2025-01-17 04:38:27.54	359.36	7.71	
2025-01-17 04:38:27.75	359.33	7.71	
2025-01-17 04:38:27.95	359.29	7.72	
2025-01-17 04:38:28.15	359.26	7.72	
2025-01-17 04:38:28.36	359.23	7.72	
2025-01-17 04:38:28.56	359.19	7.72	
2025-01-17 04:38:28.76	359.16	7.73	
2025-01-17 04:38:28.97	359.13	7.73	
2025-01-17 04:38:29.17	359.10	7.73	
2025-01-17 04:38:29.37	359.06	7.74	
2025-01-17 04:38:29.57	359.03	7.74	
2025-01-17 04:38:29.78	359.00	7.74	
2025-01-17 04:38:29.98	358.96	7.75	
2025-01-17 04:38:30.18	358.93	7.75	
2025-01-17 04:38:30.39	358.90	7.75	
2025-01-17 04:38:30.59	358.86	7.75	
2025-01-17 04:38:30.79	358.83	7.76	
2025-01-17 04:38:31.00	358.80	7.76	
2025-01-17 04:38:31.20	358.76	7.76	
2025-01-17 04:38:31.40	358.73	7.76	
2025-01-17 04:38:31.61	358.70	7.77	
2025-01-17 04:38:31.81	358.67	7.77	
2025-01-17 04:38:32.01	358.63	7.77	
2025-01-17 04:38:32.22	358.60	7.78	
2025-01-17 04:38:32.42	358.57	7.78	
2025-01-17 04:38:32.62	358.53	7.78	
2025-01-17 04:38:32.82	358.50	7.78	
2025-01-17 04:38:33.03	358.47	7.79	
2025-01-17 04:38:33.23	358.43	7.79	
2025-01-17 04:38:33.43	358.40	7.79	
2025-01-17 04:38:33.64	358.37	7.79	
2025-01-17 04:38:33.84	358.33	7.80	
2025-01-17 04:38:34.04	358.30	7.80	
2025-01-17 04:38:34.25	358.27	7.80	
2025-01-17 04:38:34.45	358.23	7.81	
2025-01-17 04:38:34.65	358.20	7.81	
2025-01-17 04:38:34.86	358.17	7.81	
2025-01-17 04:38:35.06	358.13	7.81	
2025-01-17 04:38:35.26	358.10	7.82	
2025-01-17 04:38:35.46	358.07	7.82	
2025-01-17 04:38:35.67	358.03	7.82	
2025-01-17 04:38:35.87	358.00	7.82	
2025-01-17 04:38:36.07	357.97	7.83	
2025-01-17 04:38:36.28	357.93	7.83	
2025-01-17 04:38:36.48	357.90	7.83	
2025-01-17 04:38:36.68	357.87	7.83	
2025-01-17 04:38:36.89	357.83	7.84	
2025-01-17 04:38:37.09	357.80	7.84	
2025-01-17 04:38:37.29	357.77	7.84	
2025-01-17 04:38:37.50	357.73	7.84	
2025-01-17 04:38:37.70	357.70	7.85	
2025-01-17 04:38:37.90	357.67	7.85	
2025-01-17 04:38:38.10	357.64	7.85	
2025-01-17 04:38:38.31	357.60	7.85	
2025-01-17 04:38:38.51	357.57	7.86	
2025-01-17 04:38:38.71	357.54	7.86	
2025-01-17 04:38:38.92	357.50	7.86	
2025-01-17 04:38:39.12	357.47	7.86	
2025-01-17 04:38:39.32	357.44	7.87	
2025-01-17 04:38:39.53	357.40	7.87	
2025-01-17 04:38:39.73	357.37	7.87	
2025-01-17 04:38:39.93	357.34	7.87	
2025-01-17 04:38:40.14	357.30	7.88	
2025-01-17 04:38:40.34	357.27	7.88	
2025-01-17 04:38:40.54	357.24	7.88	
2025-01-17 04:38:40.74	357.20	7.88	
2025-01-17 04:38:40.95	357.17	7.89	
2025-01-17 04:38:41.15	357.14	7.89	
2025-01-17 04:38:41.35	357.10	7.89	
2025-01-17 04:38:41.56	357.07	7.89	
2025-01-17 04:38:41.77	357.03	7.90	
2025-01-17 04:38:41.98	357.00	7.90	
2025-01-17 04:38:42.18	356.97	7.90	
2025-01-17 04:38:42.38	356.93	7.90	
2025-01-17 04:38:42.59	356.90	7.90	
2025-01-17 04:38:42.79	356.87	7.91	
2025-01-17 04:38:42.99	356.83	7.91	
2025-01-17 04:38:43.20	356.80	7.91	
2025-01-17 04:38:43.40	356.77	7.91	
2025-01-17 04:38:43.60	356.73	7.92	
2025-01-17 04:38:43.81	356.70	7.92	
2025-01-17 04:38:44.01	356.66	7.92	
2025-01-17 04:38:44.21	356.63	7.92	
2025-01-17 04:38:44.42	356.60	7.92	
2025-01-17 04:38:44.62	356.56	7.93	
2025-01-17 04:38:44.82	356.53	7.93	
2025-01-17 04:38:45.02	356.50	7.93	
2025-01-17 04:38:45.23	356.46	7.93	
2025-01-17 04:38:45.43	356.43	7.94	
2025-01-17 04:38:45.63	356.40	7.94	
2025-01-17 04:38:45.84	356.36	7.94	
2025-01-17 04:38:46.04	356.33	7.94	
2025-01-17 04:38:46.24	356.30	7.94	
2025-01-17 04:38:46.45	356.26	7.95	
2025-01-17 04:38:46.65	356.23	7.95	
2025-01-17 04:38:46.85	356.20	7.95	
2025-01-17 04:38:47.05	356.16	7.95	
2025-01-17 04:38:47.26	356.13	7.95	
2025-01-17 04:38:47.46	356.10	7.96	
2025-01-17 04:38:47.66	356.06	7.96	
2025-01-17 04:38:47.87	356.03	7.96	
2025-01-17 04:38:48.07	355.99	7.96	
2025-01-17 04:38:48.27	355.96	7.97	
2025-01-17 04:38:48.48	355.93	7.97	
2025-01-17 04:38:48.68	355.89	7.97	
2025-01-17 04:38:48.88	355.86	7.97	
2025-01-17 04:38:49.09	355.83	7.97	
2025-01-17 04:38:49.29	355.79	7.98	
2025-01-17 04:38:49.49	355.76	7.98	
2025-01-17 04:38:49.70	355.72	7.98	
2025-01-17 04:38:49.90	355.69	7.98	
2025-01-17 04:38:50.10	355.66	7.98	
2025-01-17 04:38:50.30	355.63	7.98	
2025-01-17 04:38:50.51	355.59	7.99	
2025-01-17 04:38:50.71	355.56	7.99	
2025-01-17 04:38:50.91	355.52	7.99	
2025-01-17 04:38:51.12	355.49	7.99	
2025-01-17 04:38:51.32	355.46	7.99	
2025-01-17 04:38:51.52	355.42	8.00	
2025-01-17 04:38:51.73	355.39	8.00	
2025-01-17 04:38:51.93	355.36	8.00	
2025-01-17 04:38:52.13	355.32	8.00	
2025-01-17 04:38:52.34	355.29	8.00	
2025-01-17 04:38:52.54	355.25	8.01	
2025-01-17 04:38:52.74	355.22	8.01	
2025-01-17 04:38:52.94	355.19	8.01	
2025-01-17 04:38:53.15	355.15	8.01	
2025-01-17 04:38:53.35	355.12	8.01	
2025-01-17 04:38:53.55	355.09	8.01	
2025-01-17 04:38:53.76	355.05	8.02	
2025-01-17 04:38:53.96	355.02	8.02	
2025-01-17 04:38:54.16	354.99	8.02	
2025-01-17 04:38:54.37	354.95	8.02	
2025-01-17 04:38:54.57	354.92	8.02	
2025-01-17 04:38:54.77	354.88	8.03	
2025-01-17 04:38:54.98	354.85	8.03	
2025-01-17 04:38:55.18	354.82	8.03	
2025-01-17 04:38:55.38	354.78	8.03	
2025-01-17 04:38:55.58	354.75	8.03	
2025-01-17 04:38:55.79	354.71	8.03	
2025-01-17 04:38:55.99	354.68	8.04	
2025-01-17 04:38:56.19	354.65	8.04	
2025-01-17 04:38:56.40	354.61	8.04	
2025-01-17 04:38:56.60	354.58	8.04	
2025-01-17 04:38:56.80	354.55	8.04	
2025-01-17 04:38:57.01	354.51	8.04	
2025-01-17 04:38:57.21	354.48	8.05	
2025-01-17 04:38:57.41	354.45	8.05	
2025-01-17 04:38:57.62	354.41	8.05	
2025-01-17 04:38:57.82	354.38	8.05	
2025-01-17 04:38:58.02	354.34	8.05	
2025-01-17 04:38:58.22	354.31	8.05	
2025-01-17 04:38:58.43	354.28	8.06	
2025-01-17 04:38:58.63	354.24	8.06	
2025-01-17 04:38:58.83	354.21	8.06	
2025-01-17 04:38:59.04	354.17	8.06	
2025-01-17 04:38:59.24	354.14	8.06	
2025-01-17 04:38:59.44	354.11	8.06	
2025-01-17 04:38:59.65	354.07	8.06	
2025-01-17 04:38:59.85	354.04	8.07	
2025-01-17 04:39:00.05	354.01	8.07	
2025-01-17 04:39:00.26	353.97	8.07	
2025-01-17 04:39:00.46	353.94	8.07	
2025-01-17 04:39:00.66	353.90	8.07	
2025-01-17 04:39:00.86	353.87	8.07	
2025-01-17 04:39:01.07	353.84	8.08	
2025-01-17 04:39:01.27	353.80	8.08	
2025-01-17 04:39:01.47	353.77	8.08	
2025-01-17 04:39:01.68	353.73	8.08	
2025-01-17 04:39:01.88	353.70	8.08	
2025-01-17 04:39:02.08	353.67	8.08	
2025-01-17 04:39:02.29	353.63	8.08	
2025-01-17 04:39:02.49	353.60	8.09	
2025-01-17 04:39:02.69	353.57	8.09	
2025-01-17 04:39:02.90	353.53	8.09	
2025-01-17 04:39:03.10	353.50	8.09	
2025-01-17 04:39:03.30	353.46	8.09	
2025-01-17 04:39:03.50	353.43	8.09	
2025-01-17 04:39:03.71	353.40	8.09	
2025-01-17 04:39:03.91	353.36	8.09	
2025-01-17 04:39:04.11	353.33	8.10	
2025-01-17 04:39:04.32	353.29	8.10	
2025-01-17 04:39:04.52	353.26	8.10	
2025-01-17 04:39:04.72	353.23	8.10	
2025-01-17 04:39:04.93	353.19	8.10	
2025-01-17 04:39:05.13	353.16	8.10	
2025-01-17 04:39:05.33	353.13	8.10	
2025-01-17 04:39:05.54	353.09	8.11	
2025-01-17 04:39:05.74	353.06	8.11	
2025-01-17 04:39:05.94	353.02	8.11	
2025-01-17 04:39:06.15	352.99	8.11	
2025-01-17 04:39:06.35	352.96	8.11	
2025-01-17 04:39:06.55	352.92	8.11	
2025-01-17 04:39:06.75	352.89	8.11	
2025-01-17 04:39:06.96	352.85	8.11	
2025-01-17 04:39:07.16	352.82	8.11	
2025-01-17 04:39:07.36	352.79	8.12	
2025-01-17 04:39:07.57	352.75	8.12	
2025-01-17 04:39:07.77	352.72	8.12	
2025-01-17 04:39:07.97	352.68	8.12	
2025-01-17 04:39:08.18	352.65	8.12	
2025-01-17 04:39:08.38	352.62	8.12	
2025-01-17 04:39:08.58	352.58	8.12	
2025-01-17 04:39:08.79	352.55	8.12	
2025-01-17 04:39:08.99	352.51	8.12	
2025-01-17 04:39:09.19	352.48	8.13	
2025-01-17 04:39:09.39	352.45	8.13	
2025-01-17 04:39:09.60	352.41	8.13	
2025-01-17 04:39:09.80	352.38	8.13	
2025-01-17 04:39:10.00	352.34	8.13	
2025-01-17 04:39:10.21	352.31	8.13	
2025-01-17 04:39:10.41	352.28	8.13	
2025-01-17 04:39:10.61	352.24	8.13	
2025-01-17 04:39:10.82	352.21	8.13	
2025-01-17 04:39:11.02	352.17	8.14	
2025-01-17 04:39:11.22	352.14	8.14	
2025-01-17 04:39:11.43	352.11	8.14	
2025-01-17 04:39:11.63	352.07	8.14	
2025-01-17 04:39:11.83	352.04	8.14	
2025-01-17 04:39:12.03	352.01	8.14	
2025-01-17 04:39:12.24	351.97	8.14	
2025-01-17 04:39:12.44	351.94	8.14	
2025-01-17 04:39:12.64	351.90	8.14	
2025-01-17 04:39:12.85	351.87	8.14	
2025-01-17 04:39:13.05	351.83	8.14	
2025-01-17 04:39:13.25	351.80	8.15	
2025-01-17 04:39:13.46	351.77	8.15	
2025-01-17 04:39:13.66	351.73	8.15	
2025-01-17 04:39:13.86	351.70	8.15	
2025-01-17 04:39:14.07	351.66	8.15	
2025-01-17 04:39:14.27	351.63	8.15	
2025-01-17 04:39:14.47	351.60	8.15	
2025-01-17 04:39:14.67	351.56	8.15	
2025-01-17 04:39:14.88	351.53	8.15	
2025-01-17 04:39:15.08	351.49	8.15	
2025-01-17 04:39:15.28	351.46	8.15	
2025-01-17 04:39:15.49	351.43	8.15	
2025-01-17 04:39:15.69	351.39	8.16	
2025-01-17 04:39:15.89	351.36	8.16	
2025-01-17 04:39:16.10	351.32	8.16	
2025-01-17 04:39:16.30	351.29	8.16	
2025-01-17 04:39:16.50	351.26	8.16	
2025-01-17 04:39:16.71	351.22	8.16	
2025-01-17 04:39:16.91	351.19	8.16	
2025-01-17 04:39:17.11	351.15	8.16	
2025-01-17 04:39:17.31	351.12	8.16	
2025-01-17 04:39:17.52	351.09	8.16	
2025-01-17 04:39:17.72	351.05	8.16	
2025-01-17 04:39:17.92	351.02	8.16	
2025-01-17 04:39:18.13	350.98	8.16	
2025-01-17 04:39:18.33	350.95	8.16	
2025-01-17 04:39:18.53	350.92	8.17	
2025-01-17 04:39:18.74	350.88	8.17	
2025-01-17 04:39:18.94	350.85	8.17	
2025-01-17 04:39:19.14	350.81	8.17	
2025-01-17 04:39:19.35	350.78	8.17	
2025-01-17 04:39:19.55	350.74	8.17	
2025-01-17 04:39:19.75	350.71	8.17	
2025-01-17 04:39:19.95	350.68	8.17	
2025-01-17 04:39:20.16	350.64	8.17	
2025-01-17 04:39:20.36	350.61	8.17	
2025-01-17 04:39:20.56	350.58	8.17	
2025-01-17 04:39:20.77	350.54	8.17	
2025-01-17 04:39:20.97	350.51	8.17	
2025-01-17 04:39:21.17	350.47	8.17	
2025-01-17 04:39:21.38	350.44	8.17	
2025-01-17 04:39:21.58	350.40	8.17	
2025-01-17 04:39:21.78	350.37	8.17	
2025-01-17 04:39:21.99	350.34	8.18	
2025-01-17 04:39:22.19	350.30	8.18	
2025-01-17 04:39:22.39	350.27	8.18	
2025-01-17 04:39:22.59	350.23	8.18	
2025-01-17 04:39:22.80	350.20	8.18	
2025-01-17 04:39:23.00	350.17	8.18	
2025-01-17 04:39:23.20	350.13	8.18	
2025-01-17 04:39:23.41	350.10	8.18	
2025-01-17 04:39:23.61	350.06	8.18	
2025-01-17 04:39:23.81	350.03	8.18	
2025-01-17 04:39:24.02	349.99	8.18	
2025-01-17 04:39:24.22	349.96	8.18	
2025-01-17 04:39:24.42	349.93	8.18	
2025-01-17 04:39:24.63	349.89	8.18	
2025-01-17 04:39:24.83	349.86	8.18	
2025-01-17 04:39:25.03	349.83	8.18	
2025-01-17 04:39:25.23	349.79	8.18	
2025-01-17 04:39:25.44	349.76	8.18	
2025-01-17 04:39:25.64	349.72	8.18	
2025-01-17 04:39:25.84	349.69	8.18	
2025-01-17 04:39:26.05	349.65	8.18	
2025-01-17 04:39:26.25	349.62	8.18	
2025-01-17 04:39:26.45	349.59	8.18	
2025-01-17 04:39:26.66	349.55	8.18	
2025-01-17 04:39:26.86	349.52	8.18	
2025-01-17 04:39:27.06	349.48	8.18	
2025-01-17 04:39:27.27	349.45	8.18	
2025-01-17 04:39:27.47	349.42	8.18	
2025-01-17 04:39:27.67	349.38	8.18	
2025-01-17 04:39:27.87	349.35	8.19	
2025-01-17 04:39:28.08	349.31	8.19	
2025-01-17 04:39:28.28	349.28	8.19	
2025-01-17 04:39:28.48	349.25	8.19	
2025-01-17 04:39:28.69	349.21	8.19	
2025-01-17 04:39:28.89	349.18	8.19	
2025-01-17 04:39:29.09	349.14	8.19	
2025-01-17 04:39:29.30	349.11	8.19	
2025-01-17 04:39:29.50	349.07	8.19	
2025-01-17 04:39:29.70	349.04	8.19	
2025-01-17 04:39:29.91	349.01	8.19	
2025-01-17 04:39:30.11	348.97	8.19	
2025-01-17 04:39:30.31	348.94	8.19	
2025-01-17 04:39:30.52	348.90	8.19	
2025-01-17 04:39:30.72	348.87	8.19	
2025-01-17 04:39:30.92	348.84	8.19	
2025-01-17 04:39:31.12	348.80	8.19	
2025-01-17 04:39:31.33	348.77	8.19	
2025-01-17 04:39:31.53	348.73	8.19	
2025-01-17 04:39:31.73	348.70	8.19	
2025-01-17 04:39:31.94	348.66	8.19	
2025-01-17 04:39:32.14	348.63	8.19	
2025-01-17 04:39:32.34	348.60	8.19	
2025-01-17 04:39:32.55	348.56	8.19	
2025-01-17 04:39:32.75	348.53	8.19	
2025-01-17 04:39:32.95	348.50	8.19	
2025-01-17 04:39:33.16	348.46	8.19	
2025-01-17 04:39:33.36	348.43	8.19	
2025-01-17 04:39:33.56	348.39	8.19	
2025-01-17 04:39:33.76	348.36	8.19	
2025-01-17 04:39:33.97	348.32	8.19	
2025-01-17 04:39:34.17	348.29	8.19	
2025-01-17 04:39:34.37	348.26	8.19	
2025-01-17 04:39:34.58	348.22	8.19	
2025-01-17 04:39:34.78	348.19	8.19	
2025-01-17 04:39:34.98	348.15	8.19	
2025-01-17 04:39:35.19	348.12	8.19	
2025-01-17 04:39:35.39	348.09	8.19	
2025-01-17 04:39:35.59	348.05	8.19	
2025-01-17 04:39:35.80	348.02	8.19	
2025-01-17 04:39:36.00	347.98	8.19	
2025-01-17 04:39:36.20	347.95	8.19	
2025-01-17 04:39:36.40	347.92	8.19	
2025-01-17 04:39:36.61	347.88	8.18	
2025-01-17 04:39:36.81	347.85	8.18	
2025-01-17 04:39:37.01	347.81	8.18	
2025-01-17 04:39:37.22	347.78	8.18	
2025-01-17 04:39:37.42	347.74	8.18	
2025-01-17 04:39:37.62	347.71	8.18	
2025-01-17 04:39:37.83	347.68	8.18	
2025-01-17 04:39:38.03	347.64	8.18	
2025-01-17 04:39:38.23	347.61	8.18	
2025-01-17 04:39:38.44	347.57	8.18	
2025-01-17 04:39:38.64	347.54	8.18	
2025-01-17 04:39:38.84	347.51	8.18	
2025-01-17 04:39:39.04	347.47	8.18	
2025-01-17 04:39:39.25	347.44	8.18	
2025-01-17 04:39:39.45	347.40	8.18	
2025-01-17 04:39:39.65	347.37	8.18	
2025-01-17 04:39:39.86	347.33	8.18	
2025-01-17 04:39:40.06	347.30	8.18	
2025-01-17 04:39:40.26	347.27	8.18	
2025-01-17 04:39:40.47	347.23	8.18	
2025-01-17 04:39:40.67	347.20	8.18	
2025-01-17 04:39:40.87	347.17	8.18	
2025-01-17 04:39:41.08	347.13	8.18	
2025-01-17 04:39:41.28	347.10	8.18	
2025-01-17 04:39:41.48	347.06	8.18	
2025-01-17 04:39:41.68	347.03	8.18	
2025-01-17 04:39:41.89	346.99	8.18	
2025-01-17 04:39:42.09	346.96	8.18	
2025-01-17 04:39:42.29	346.93	8.18	
2025-01-17 04:39:42.50	346.89	8.17	
2025-01-17 04:39:42.70	346.86	8.17	
2025-01-17 04:39:42.90	346.82	8.17	
2025-01-17 04:39:43.11	346.79	8.17	
2025-01-17 04:39:43.31	346.76	8.17	
2025-01-17 04:39:43.51	346.72	8.17	
2025-01-17 04:39:43.72	346.69	8.17	
2025-01-17 04:39:43.92	346.65	8.17	
2025-01-17 04:39:44.12	346.62	8.17	
2025-01-17 04:39:44.32	346.59	8.17	
2025-01-17 04:39:44.53	346.55	8.17	
2025-01-17 04:39:44.73	346.52	8.17	
2025-01-17 04:39:44.93	346.48	8.17	
2025-01-17 04:39:45.14	346.45	8.17	
2025-01-17 04:39:45.34	346.42	8.17	
2025-01-17 04:39:45.54	346.38	8.17	
2025-01-17 04:39:45.75	346.35	8.17	
2025-01-17 04:39:45.95	346.31	8.17	
2025-01-17 04:39:46.15	346.28	8.16	
2025-01-17 04:39:46.36	346.24	8.16	
2025-01-17 04:39:46.56	346.21	8.16	
2025-01-17 04:39:46.76	346.18	8.16	
2025-01-17 04:39:46.96	346.14	8.16	
2025-01-17 04:39:47.17	346.11	8.16	
2025-01-17 04:39:47.37	346.07	8.16	
2025-01-17 04:39:47.57	346.04	8.16	
2025-01-17 04:39:47.78	346.01	8.16	
2025-01-17 04:39:47.98	345.97	8.16	
2025-01-17 04:39:48.18	345.94	8.16	
2025-01-17 04:39:48.39	345.90	8.16	
2025-01-17 04:39:48.59	345.87	8.16	
2025-01-17 04:39:48.79	345.84	8.16	
2025-01-17 04:39:49.00	345.80	8.15	
2025-01-17 04:39:49.20	345.77	8.15	
2025-01-17 04:39:49.40	345.73	8.15	
2025-01-17 04:39:49.60	345.70	8.15	
2025-01-17 04:39:49.81	345.67	8.15	
2025-01-17 04:39:50.01	345.63	8.15	
2025-01-17 04:39:50.21	345.60	8.15	
2025-01-17 04:39:50.42	345.56	8.15	
2025-01-17 04:39:50.62	345.53	8.15	
2025-01-17 04:39:50.82	345.50	8.15	
2025-01-17 04:39:51.03	345.46	8.15	
2025-01-17 04:39:51.23	345.43	8.14	
2025-01-17 04:39:51.43	345.39	8.14	
2025-01-17 04:39:51.64	345.36	8.14	
2025-01-17 04:39:51.84	345.33	8.14	
2025-01-17 04:39:52.04	345.29	8.14	
2025-01-17 04:39:52.25	345.26	8.14	
2025-01-17 04:39:52.45	345.22	8.14	
2025-01-17 04:39:52.65	345.19	8.14	
2025-01-17 04:39:52.85	345.16	8.14	
2025-01-17 04:39:53.06	345.12	8.14	
2025-01-17 04:39:53.26	345.09	8.14	
2025-01-17 04:39:53.46	345.05	8.13	
2025-01-17 04:39:53.67	345.02	8.13	
2025-01-17 04:39:53.87	344.99	8.13	
2025-01-17 04:39:54.07	344.95	8.13	
2025-01-17 04:39:54.28	344.92	8.13	
2025-01-17 04:39:54.48	344.88	8.13	
2025-01-17 04:39:54.68	344.85	8.13	
2025-01-17 04:39:54.89	344.82	8.13	
2025-01-17 04:39:55.09	344.78	8.13	
2025-01-17 04:39:55.29	344.75	8.13	
2025-01-17 04:39:55.49	344.72	8.12	
2025-01-17 04:39:55.70	344.68	8.12	
2025-01-17 04:39:55.90	344.65	8.12	
2025-01-17 04:39:56.10	344.61	8.12	
2025-01-17 04:39:56.31	344.58	8.12	
2025-01-17 04:39:56.51	344.54	8.12	
2025-01-17 04:39:56.71	344.51	8.12	
2025-01-17 04:39:56.92	344.48	8.12	
2025-01-17 04:39:57.12	344.44	8.11	
2025-01-17 04:39:57.32	344.41	8.11	
2025-01-17 04:39:57.53	344.37	8.11	
2025-01-17 04:39:57.73	344.34	8.11	
2025-01-17 04:39:57.93	344.31	8.11	
2025-01-17 04:39:58.13	344.27	8.11	
2025-01-17 04:39:58.34	344.24	8.11	
2025-01-17 04:39:58.54	344.21	8.11	
2025-01-17 04:39:58.74	344.17	8.11	
2025-01-17 04:39:58.95	344.14	8.10	
2025-01-17 04:39:59.15	344.10	8.10	
2025-01-17 04:39:59.35	344.07	8.10	
2025-01-17 04:39:59.56	344.04	8.10	
2025-01-17 04:39:59.76	344.00	8.10	
2025-01-17 04:39:59.96	343.97	8.10	
2025-01-17 04:40:00.17	343.93	8.10	
2025-01-17 04:40:00.37	343.90	8.09	
2025-01-17 04:40:00.57	343.87	8.09	
2025-01-17 04:40:00.77	343.83	8.09	
2025-01-17 04:40:00.98	343.80	8.09	
2025-01-17 04:40:01.18	343.76	8.09	
2025-01-17 04:40:01.38	343.73	8.09	
2025-01-17 04:40:01.59	343.70	8.09	
2025-01-17 04:40:01.79	343.66	8.09	
2025-01-17 04:40:01.99	343.63	8.08	
2025-01-17 04:40:02.20	343.59	8.08	
2025-01-17 04:40:02.40	343.56	8.08	
2025-01-17 04:40:02.60	343.53	8.08	
2025-01-17 04:40:02.81	343.49	8.08	
2025-01-17 04:40:03.01	343.46	8.08	
2025-01-17 04:40:03.21	343.43	8.08	
2025-01-17 04:40:03.41	343.39	8.07	
2025-01-17 04:40:03.62	343.36	8.07	
2025-01-17 04:40:03.82	343.32	8.07	
2025-01-17 04:40:04.02	343.29	8.07	
2025-01-17 04:40:04.23	343.26	8.07	
2025-01-17 04:40:04.43	343.22	8.07	
2025-01-17 04:40:04.63	343.19	8.07	
2025-01-17 04:40:04.84	343.15	8.06	
2025-01-17 04:40:05.04	343.12	8.06	
2025-01-17 04:40:05.24	343.09	8.06	
2025-01-17 04:40:05.45	343.05	8.06	
2025-01-17 04:40:05.65	343.02	8.06	
2025-01-17 04:40:05.85	342.99	8.06	
2025-01-17 04:40:06.05	342.95	8.05	
2025-01-17 04:40:06.26	342.92	8.05	
2025-01-17 04:40:06.46	342.89	8.05	
2025-01-17 04:40:06.66	342.85	8.05	
2025-01-17 04:40:06.87	342.82	8.05	
2025-01-17 04:40:07.07	342.78	8.05	
2025-01-17 04:40:07.27	342.75	8.04	
2025-01-17 04:40:07.48	342.72	8.04	
2025-01-17 04:40:07.68	342.68	8.04	
2025-01-17 04:40:07.88	342.65	8.04	
2025-01-17 04:40:08.09	342.61	8.04	
2025-01-17 04:40:08.29	342.58	8.04	
2025-01-17 04:40:08.49	342.55	8.03	
2025-01-17 04:40:08.69	342.51	8.03	
2025-01-17 04:40:08.90	342.48	8.03	
2025-01-17 04:40:09.10	342.45	8.03	
2025-01-17 04:40:09.30	342.41	8.03	
2025-01-17 04:40:09.51	342.38	8.03	
2025-01-17 04:40:09.71	342.34	8.02	
2025-01-17 04:40:09.91	342.31	8.02	
2025-01-17 04:40:10.12	342.28	8.02	
2025-01-17 04:40:10.32	342.24	8.02	
2025-01-17 04:40:10.52	342.21	8.02	
2025-01-17 04:40:10.73	342.18	8.02	
2025-01-17 04:40:10.93	342.14	8.01	
2025-01-17 04:40:11.13	342.11	8.01	
2025-01-17 04:40:11.33	342.08	8.01	
2025-01-17 04:40:11.54	342.04	8.01	
2025-01-17 04:40:11.74	342.01	8.01	
2025-01-17 04:40:11.94	341.97	8.00	
2025-01-17 04:40:12.15	341.94	8.00	
2025-01-17 04:40:12.35	341.91	8.00	
2025-01-17 04:40:12.55	341.87	8.00	
2025-01-17 04:40:12.76	341.84	8.00	
2025-01-17 04:40:12.96	341.81	7.99	
2025-01-17 04:40:13.16	341.77	7.99	
2025-01-17 04:40:13.37	341.74	7.99	
2025-01-17 04:40:13.57	341.70	7.99	
2025-01-17 04:40:13.77	341.67	7.99	
2025-01-17 04:40:13.97	341.64	7.99	
2025-01-17 04:40:14.18	341.60	7.98	
2025-01-17 04:40:14.38	341.57	7.98	
2025-01-17 04:40:14.58	341.54	7.98	
2025-01-17 04:40:14.79	341.50	7.98	
2025-01-17 04:40:14.99	341.47	7.98	
2025-01-17 04:40:15.19	341.44	7.97	
2025-01-17 04:40:15.40	341.40	7.97	
2025-01-17 04:40:15.60	341.37	7.97	
2025-01-17 04:40:15.80	341.34	7.97	
2025-01-17 04:40:16.01	341.30	7.97	
2025-01-17 04:40:16.21	341.27	7.96	
2025-01-17 04:40:16.41	341.23	7.96	
2025-01-17 04:40:16.61	341.20	7.96	
2025-01-17 04:40:16.82	341.17	7.96	
2025-01-17 04:40:17.02	341.13	7.96	
2025-01-17 04:40:17.22	341.10	7.95	
2025-01-17 04:40:17.43	341.07	7.95	
2025-01-17 04:40:17.63	341.03	7.95	
2025-01-17 04:40:17.83	341.00	7.95	
2025-01-17 04:40:18.04	340.97	7.94	
2025-01-17 04:40:18.24	340.93	7.94	
2025-01-17 04:40:18.44	340.90	7.94	
2025-01-17 04:40:18.65	340.86	7.94	
2025-01-17 04:40:18.85	340.83	7.94	
2025-01-17 04:40:19.05	340.80	7.93	
2025-01-17 04:40:19.26	340.76	7.93	
2025-01-17 04:40:19.46	340.73	7.93	
2025-01-17 04:40:19.66	340.70	7.93	
2025-01-17 04:40:19.86	340.66	7.93	
2025-01-17 04:40:20.07	340.63	7.92	
2025-01-17 04:40:20.27	340.60	7.92	
2025-01-17 04:40:20.47	340.56	7.92	
2025-01-17 04:40:20.68	340.53	7.92	
2025-01-17 04:40:20.88	340.50	7.91	
2025-01-17 04:40:21.08	340.46	7.91	
2025-01-17 04:40:21.29	340.43	7.91	
2025-01-17 04:40:21.49	340.40	7.91	
2025-01-17 04:40:21.69	340.36	7.90	
2025-01-17 04:40:21.90	340.33	7.90	
2025-01-17 04:40:22.10	340.30	7.90	
2025-01-17 04:40:22.30	340.26	7.90	
2025-01-17 04:40:22.50	340.23	7.90	
2025-01-17 04:40:22.71	340.20	7.89	
2025-01-17 04:40:22.91	340.16	7.89	
2025-01-17 04:40:23.11	340.13	7.89	
2025-01-17 04:40:23.32	340.09	7.89	
2025-01-17 04:40:23.52	340.06	7.88	
2025-01-17 04:40:23.72	340.03	7.88	
2025-01-17 04:40:23.93	339.99	7.88	
2025-01-17 04:40:24.13	339.96	7.88	
2025-01-17 04:40:24.33	339.93	7.87	
2025-01-17 04:40:24.54	339.89	7.87	
2025-01-17 04:40:24.74	339.86	7.87	
2025-01-17 04:40:24.94	339.83	7.87	
2025-01-17 04:40:25.14	339.80	7.86	
2025-01-17 04:40:25.35	339.76	7.86	
2025-01-17 04:40:25.55	339.73	7.86	
2025-01-17 04:40:25.75	339.70	7.86	
2025-01-17 04:40:25.96	339.66	7.85	
2025-01-17 04:40:26.16	339.63	7.85	
2025-01-17 04:40:26.36	339.60	7.85	
2025-01-17 04:40:26.57	339.56	7.85	
2025-01-17 04:40:26.77	339.53	7.84	
2025-01-17 04:40:26.97	339.50	7.84	
2025-01-17 04:40:27.18	339.46	7.84	
2025-01-17 04:40:27.38	339.43	7.84	
2025-01-17 04:40:27.58	339.40	7.83	
2025-01-17 04:40:27.78	339.36	7.83	
2025-01-17 04:40:27.99	339.33	7.83	
2025-01-17 04:40:28.19	339.30	7.83	
2025-01-17 04:40:28.39	339.26	7.82	
2025-01-17 04:40:28.60	339.23	7.82	
2025-01-17 04:40:28.80	339.20	7.82	
2025-01-17 04:40:29.00	339.16	7.82	
2025-01-17 04:40:29.21	339.13	7.81	
2025-01-17 04:40:29.41	339.10	7.81	
2025-01-17 04:40:29.61	339.06	7.81	
2025-01-17 04:40:29.82	339.03	7.81	
2025-01-17 04:40:30.02	339.00	7.80	
2025-01-17 04:40:30.22	338.96	7.80	
2025-01-17 04:40:30.42	338.93	7.80	
2025-01-17 04:40:30.63	338.90	7.80	
2025-01-17 04:40:30.83	338.86	7.79	
2025-01-17 04:40:31.03	338.83	7.79	
2025-01-17 04:40:31.24	338.80	7.79	
2025-01-17 04:40:31.44	338.76	7.78	
2025-01-17 04:40:31.64	338.73	7.78	
2025-01-17 04:40:31.85	338.70	7.78	
2025-01-17 04:40:32.05	338.66	7.78	
2025-01-17 04:40:32.25	338.63	7.77	
2025-01-17 04:40:32.46	338.60	7.77	
2025-01-17 04:40:32.66	338.56	7.77	
2025-01-17 04:40:32.86	338.53	7.77	
2025-01-17 04:40:33.06	338.50	7.76	
2025-01-17 04:40:33.27	338.47	7.76	
2025-01-17 04:40:33.47	338.43	7.76	
2025-01-17 04:40:33.67	338.40	7.75	
2025-01-17 04:40:33.88	338.37	7.75	
2025-01-17 04:40:34.08	338.33	7.75	
2025-01-17 04:40:34.28	338.30	7.75	
2025-01-17 04:40:34.49	338.27	7.74	
2025-01-17 04:40:34.69	338.23	7.74	
2025-01-17 04:40:34.89	338.20	7.74	
2025-01-17 04:40:35.10	338.17	7.73	
2025-01-17 04:40:35.30	338.13	7.73	
2025-01-17 04:40:35.50	338.10	7.73	
2025-01-17 04:40:35.70	338.07	7.73	
2025-01-17 04:40:35.91	338.04	7.72	
2025-01-17 04:40:36.11	338.00	7.72	
2025-01-17 04:40:36.31	337.97	7.72	
2025-01-17 04:40:36.52	337.94	7.71	
2025-01-17 04:40:36.72	337.90	7.71	
2025-01-17 04:40:36.92	337.87	7.71	
2025-01-17 04:40:37.13	337.84	7.71	
2025-01-17 04:40:37.33	337.80	7.70	
2025-01-17 04:40:37.53	337.77	7.70	
2025-01-17 04:40:37.74	337.74	7.70	
2025-01-17 04:40:37.94	337.71	7.69	
2025-01-17 04:40:38.14	337.67	7.69	
2025-01-17 04:40:38.35	337.64	7.69	
2025-01-17 04:40:38.55	337.61	7.68	
2025-01-17 04:40:38.75	337.57	7.68	
2025-01-17 04:40:38.95	337.54	7.68	
2025-01-17 04:40:39.16	337.51	7.68	
2025-01-17 04:40:39.36	337.48	7.67	
2025-01-17 04:40:39.56	337.44	7.67	
2025-01-17 04:40:39.77	337.41	7.67	
2025-01-17 04:40:39.97	337.38	7.66	
2025-01-17 04:40:40.17	337.34	7.66	
2025-01-17 04:40:40.38	337.31	7.66	
2025-01-17 04:40:40.58	337.28	7.65	
2025-01-17 04:40:40.78	337.25	7.65	
2025-01-17 04:40:40.99	337.21	7.65	
2025-01-17 04:40:41.19	337.18	7.64	
2025-01-17 04:40:41.39	337.15	7.64	
2025-01-17 04:40:41.59	337.11	7.64	
2025-01-17 04:40:41.80	337.08	7.63	
2025-01-17 04:40:42.00	337.05	7.63	
2025-01-17 04:40:42.20	337.02	7.63	
2025-01-17 04:40:42.41	336.98	7.63	
2025-01-17 04:40:42.61	336.95	7.62	
2025-01-17 04:40:42.81	336.92	7.62	
2025-01-17 04:40:43.02	336.88	7.62	
2025-01-17 04:40:43.22	336.85	7.61	
2025-01-17 04:40:43.42	336.82	7.61	
2025-01-17 04:40:43.63	336.78	7.61	
2025-01-17 04:40:43.83	336.75	7.60	
2025-01-17 04:40:44.03	336.72	7.60	
2025-01-17 04:40:44.23	336.69	7.60	
2025-01-17 04:40:44.44	336.65	7.59	
2025-01-17 04:40:44.64	336.62	7.59	
2025-01-17 04:40:44.84	336.59	7.59	
2025-01-17 04:40:45.05	336.56	7.58	
2025-01-17 04:40:45.25	336.52	7.58	
2025-01-17 04:40:45.45	336.49	7.58	
2025-01-17 04:40:45.66	336.46	7.57	
2025-01-17 04:40:45.86	336.43	7.57	
2025-01-17 04:40:46.06	336.39	7.57	
2025-01-17 04:40:46.27	336.36	7.56	
2025-01-17 04:40:46.47	336.33	7.56	
2025-01-17 04:40:46.67	336.30	7.56	
2025-01-17 04:40:46.87	336.26	7.55	
2025-01-17 04:40:47.08	336.23	7.55	
2025-01-17 04:40:47.28	336.20	7.55	
2025-01-17 04:40:47.48	336.17	7.54	
2025-01-17 04:40:47.69	336.13	7.54	
2025-01-17 04:40:47.89	336.10	7.54	
2025-01-17 04:40:48.09	336.07	7.53	
2025-01-17 04:40:48.30	336.03	7.53	
2025-01-17 04:40:48.50	336.00	7.53	
2025-01-17 04:40:48.70	335.97	7.52	
2025-01-17 04:40:48.91	335.94	7.52	
2025-01-17 04:40:49.11	335.90	7.52	
2025-01-17 04:40:49.31	335.87	7.51	
2025-01-17 04:40:49.51	335.84	7.51	
2025-01-17 04:40:49.72	335.81	7.51	
2025-01-17 04:40:49.92	335.77	7.50	
2025-01-17 04:40:50.12	335.74	7.50	
2025-01-17 04:40:50.33	335.71	7.49	
2025-01-17 04:40:50.53	335.68	7.49	
2025-01-17 04:40:50.73	335.64	7.49	
2025-01-17 04:40:50.94	335.61	7.48	
2025-01-17 04:40:51.14	335.58	7.48	
2025-01-17 04:40:51.34	335.55	7.48	
2025-01-17 04:40:51.55	335.51	7.47	
2025-01-17 04:40:51.75	335.48	7.47	
2025-01-17 04:40:51.95	335.45	7.47	
2025-01-17 04:40:52.15	335.42	7.46	
2025-01-17 04:40:52.36	335.38	7.46	
2025-01-17 04:40:52.56	335.35	7.46	
2025-01-17 04:40:52.76	335.32	7.45	
2025-01-17 04:40:52.97	335.29	7.45	
2025-01-17 04:40:53.17	335.25	7.44	
2025-01-17 04:40:53.37	335.22	7.44	
2025-01-17 04:40:53.58	335.19	7.44	
2025-01-17 04:40:53.78	335.16	7.43	
2025-01-17 04:40:53.98	335.13	7.43	
2025-01-17 04:40:54.19	335.09	7.43	
2025-01-17 04:40:54.39	335.06	7.42	
2025-01-17 04:40:54.59	335.03	7.42	
2025-01-17 04:40:54.79	335.00	7.42	
2025-01-17 04:40:55.00	334.96	7.41	
2025-01-17 04:40:55.20	334.93	7.41	
2025-01-17 04:40:55.40	334.90	7.40	
2025-01-17 04:40:55.61	334.87	7.40	
2025-01-17 04:40:55.81	334.83	7.40	
2025-01-17 04:40:56.01	334.80	7.39	
2025-01-17 04:40:56.22	334.77	7.39	
2025-01-17 04:40:56.42	334.74	7.39	
2025-01-17 04:40:56.62	334.71	7.38	
2025-01-17 04:40:56.83	334.67	7.38	
2025-01-17 04:40:57.03	334.64	7.37	
2025-01-17 04:40:57.23	334.61	7.37	
2025-01-17 04:40:57.43	334.58	7.37	
2025-01-17 04:40:57.64	334.54	7.36	
2025-01-17 04:40:57.84	334.51	7.36	
2025-01-17 04:40:58.04	334.48	7.36	
2025-01-17 04:40:58.25	334.45	7.35	
2025-01-17 04:40:58.45	334.41	7.35	
2025-01-17 04:40:58.65	334.38	7.34	
2025-01-17 04:40:58.86	334.35	7.34	
2025-01-17 04:40:59.06	334.32	7.34	
2025-01-17 04:40:59.26	334.29	7.33	
2025-01-17 04:40:59.47	334.25	7.33	
2025-01-17 04:40:59.67	334.22	7.32	
2025-01-17 04:40:59.87	334.19	7.32	
2025-01-17 04:41:00.08	334.16	7.32	
2025-01-17 04:41:00.28	334.13	7.31	
2025-01-17 04:41:00.48	334.09	7.31	
2025-01-17 04:41:00.68	334.06	7.31	
2025-01-17 04:41:00.89	334.03	7.30	
2025-01-17 04:41:01.09	334.00	7.30	
2025-01-17 04:41:01.29	333.97	7.29	
2025-01-17 04:41:01.50	333.93	7.29	
2025-01-17 04:41:01.70	333.90	7.29	
2025-01-17 04:41:01.90	333.87	7.28	
2025-01-17 04:41:02.11	333.84	7.28	
2025-01-17 04:41:02.31	333.80	7.27	
2025-01-17 04:41:02.51	333.77	7.27	
2025-01-17 04:41:02.72	333.74	7.27	
2025-01-17 04:41:02.92	333.71	7.26	
2025-01-17 04:41:03.12	333.68	7.26	
2025-01-17 04:41:03.32	333.65	7.25	
2025-01-17 04:41:03.53	333.61	7.25	
2025-01-17 04:41:03.73	333.58	7.25	
2025-01-17 04:41:03.93	333.55	7.24	
2025-01-17 04:41:04.14	333.52	7.24	
2025-01-17 04:41:04.34	333.49	7.23	
2025-01-17 04:41:04.54	333.45	7.23	
2025-01-17 04:41:04.75	333.42	7.23	
2025-01-17 04:41:04.95	333.39	7.22	
2025-01-17 04:41:05.15	333.36	7.22	
2025-01-17 04:41:05.36	333.33	7.21	
2025-01-17 04:41:05.56	333.29	7.21	
2025-01-17 04:41:05.76	333.26	7.21	
2025-01-17 04:41:05.96	333.23	7.20	
2025-01-17 04:41:06.17	333.20	7.20	
2025-01-17 04:41:06.37	333.17	7.19	
2025-01-17 04:41:06.57	333.14	7.19	
2025-01-17 04:41:06.78	333.10	7.18	
2025-01-17 04:41:06.98	333.07	7.18	
2025-01-17 04:41:07.18	333.04	7.18	
2025-01-17 04:41:07.39	333.01	7.17	
2025-01-17 04:41:07.59	332.98	7.17	
2025-01-17 04:41:07.79	332.94	7.16	
2025-01-17 04:41:08.00	332.91	7.16	
2025-01-17 04:41:08.20	332.88	7.16	
2025-01-17 04:41:08.40	332.85	7.15	
2025-01-17 04:41:08.60	332.82	7.15	
2025-01-17 04:41:08.81	332.78	7.14	
2025-01-17 04:41:09.01	332.75	7.14	
2025-01-17 04:41:09.21	332.72	7.13	
2025-01-17 04:41:09.42	332.69	7.13	
2025-01-17 04:41:09.62	332.66	7.13	
2025-01-17 04:41:09.82	332.63	7.12	
2025-01-17 04:41:10.03	332.59	7.12	
2025-01-17 04:41:10.23	332.56	7.11	
2025-01-17 04:41:10.43	332.53	7.11	
2025-01-17 04:41:10.64	332.50	7.10	
2025-01-17 04:41:10.84	332.47	7.10	
2025-01-17 04:41:11.04	332.44	7.10	
2025-01-17 04:41:11.24	332.41	7.09	
2025-01-17 04:41:11.45	332.37	7.09	
2025-01-17 04:41:11.65	332.34	7.08	
2025-01-17 04:41:11.85	332.31	7.08	
2025-01-17 04:41:12.06	332.28	7.07	
2025-01-17 04:41:12.26	332.25	7.07	
2025-01-17 04:41:12.46	332.22	7.07	
2025-01-17 04:41:12.67	332.18	7.06	
2025-01-17 04:41:12.87	332.15	7.06	
2025-01-17 04:41:13.07	332.12	7.05	
2025-01-17 04:41:13.28	332.09	7.05	
2025-01-17 04:41:13.48	332.06	7.04	
2025-01-17 04:41:13.68	332.03	7.04	
2025-01-17 04:41:13.88	332.00	7.03	
2025-01-17 04:41:14.09	331.96	7.03	
2025-01-17 04:41:14.29	331.93	7.03	
2025-01-17 04:41:14.49	331.90	7.02	
2025-01-17 04:41:14.70	331.87	7.02	
2025-01-17 04:41:14.90	331.84	7.01	
2025-01-17 04:41:15.10	331.81	7.01	
2025-01-17 04:41:15.31	331.77	7.00	
2025-01-17 04:41:15.51	331.74	7.00	
2025-01-17 04:41:15.71	331.71	6.99	
2025-01-17 04:41:15.92	331.68	6.99	
2025-01-17 04:41:16.12	331.65	6.99	
2025-01-17 04:41:16.32	331.62	6.98	
2025-01-17 04:41:16.52	331.59	6.98	
2025-01-17 04:41:16.73	331.56	6.97	
2025-01-17 04:41:16.93	331.52	6.97	
2025-01-17 04:41:17.13	331.49	6.96	
2025-01-17 04:41:17.34	331.46	6.96	
2025-01-17 04:41:17.54	331.43	6.95	
2025-01-17 04:41:17.74	331.40	6.95	
2025-01-17 04:41:17.95	331.37	6.95	
2025-01-17 04:41:18.15	331.34	6.94	
2025-01-17 04:41:18.35	331.31	6.94	
2025-01-17 04:41:18.56	331.27	6.93	
2025-01-17 04:41:18.76	331.24	6.93	
2025-01-17 04:41:18.96	331.21	6.92	
2025-01-17 04:41:19.16	331.18	6.92	
2025-01-17 04:41:19.37	331.15	6.91	
2025-01-17 04:41:19.57	331.12	6.91	
2025-01-17 04:41:19.77	331.09	6.90	
2025-01-17 04:41:19.98	331.05	6.90	
2025-01-17 04:41:20.18	331.02	6.89	
2025-01-17 04:41:20.38	330.99	6.89	
2025-01-17 04:41:20.59	330.96	6.89	
2025-01-17 04:41:20.79	330.93	6.88	
2025-01-17 04:41:20.99	330.90	6.88	
2025-01-17 04:41:21.20	330.87	6.87	
2025-01-17 04:41:21.40	330.84	6.87	
2025-01-17 04:41:21.60	330.81	6.86	
2025-01-17 04:41:21.80	330.78	6.86	
2025-01-17 04:41:22.01	330.74	6.85	
2025-01-17 04:41:22.21	330.71	6.85	
2025-01-17 04:41:22.41	330.68	6.84	
2025-01-17 04:41:22.62	330.65	6.84	
2025-01-17 04:41:22.82	330.62	6.83	
2025-01-17 04:41:23.02	330.59	6.83	
2025-01-17 04:41:23.23	330.56	6.82	
2025-01-17 04:41:23.43	330.53	6.82	
2025-01-17 04:41:23.63	330.50	6.82	
2025-01-17 04:41:23.84	330.46	6.81	
2025-01-17 04:41:24.04	330.43	6.81	
2025-01-17 04:41:24.24	330.40	6.80	
2025-01-17 04:41:24.45	330.37	6.80	
2025-01-17 04:41:24.65	330.34	6.79	
2025-01-17 04:41:24.85	330.31	6.79	
2025-01-17 04:41:25.05	330.28	6.78	
2025-01-17 04:41:25.26	330.25	6.78	
2025-01-17 04:41:25.46	330.22	6.77	
2025-01-17 04:41:25.66	330.19	6.77	
2025-01-17 04:41:25.87	330.15	6.76	
2025-01-17 04:41:26.07	330.12	6.76	
2025-01-17 04:41:26.27	330.09	6.75	
2025-01-17 04:41:26.48	330.06	6.75	
2025-01-17 04:41:26.68	330.03	6.74	
2025-01-17 04:41:26.88	330.00	6.74	
2025-01-17 04:41:27.09	329.97	6.73	
2025-01-17 04:41:27.29	329.94	6.73	
2025-01-17 04:41:27.49	329.91	6.72	
2025-01-17 04:41:27.69	329.88	6.72	
2025-01-17 04:41:27.90	329.85	6.71	
2025-01-17 04:41:28.10	329.82	6.71	
2025-01-17 04:41:28.30	329.79	6.70	
2025-01-17 04:41:28.51	329.75	6.70	
2025-01-17 04:41:28.71	329.72	6.69	
2025-01-17 04:41:28.91	329.69	6.69	
2025-01-17 04:41:29.12	329.66	6.68	
2025-01-17 04:41:29.32	329.63	6.68	
2025-01-17 04:41:29.52	329.60	6.67	
2025-01-17 04:41:29.73	329.57	6.67	
2025-01-17 04:41:29.93	329.54	6.66	
2025-01-17 04:41:30.13	329.51	6.66	
2025-01-17 04:41:30.33	329.48	6.65	
2025-01-17 04:41:30.54	329.45	6.65	
2025-01-17 04:41:30.74	329.42	6.64	
2025-01-17 04:41:30.94	329.39	6.64	
2025-01-17 04:41:31.15	329.36	6.63	
2025-01-17 04:41:31.35	329.32	6.63	
2025-01-17 04:41:31.55	329.29	6.62	
2025-01-17 04:41:31.76	329.26	6.62	
2025-01-17 04:41:31.96	329.23	6.61	
2025-01-17 04:41:32.16	329.20	6.61	
2025-01-17 04:41:32.37	329.17	6.60	
2025-01-17 04:41:32.57	329.14	6.60	
2025-01-17 04:41:32.77	329.11	6.59	
2025-01-17 04:41:32.97	329.08	6.59	
2025-01-17 04:41:33.18	329.05	6.58	
2025-01-17 04:41:33.38	329.02	6.58	
2025-01-17 04:41:33.58	328.99	6.57	
2025-01-17 04:41:33.79	328.96	6.57	
2025-01-17 04:41:33.99	328.93	6.56	
2025-01-17 04:41:34.19	328.90	6.56	
2025-01-17 04:41:34.40	328.87	6.55	
2025-01-17 04:41:34.60	328.84	6.55	
2025-01-17 04:41:34.80	328.81	6.54	
2025-01-17 04:41:35.01	328.78	6.54	
2025-01-17 04:41:35.21	328.75	6.53	
2025-01-17 04:41:35.41	328.72	6.53	
2025-01-17 04:41:35.61	328.69	6.52	
2025-01-17 04:41:35.82	328.65	6.52	
2025-01-17 04:41:36.02	328.62	6.51	
2025-01-17 04:41:36.22	328.59	6.51	
2025-01-17 04:41:36.43	328.56	6.50	
2025-01-17 04:41:36.63	328.53	6.50	
2025-01-17 04:41:36.83	328.50	6.49	
2025-01-17 04:41:37.04	328.47	6.49	
2025-01-17 04:41:37.24	328.44	6.48	
2025-01-17 04:41:37.44	328.41	6.48	
2025-01-17 04:41:37.65	328.38	6.47	
2025-01-17 04:41:37.85	328.35	6.47	
2025-01-17 04:41:38.05	328.32	6.46	
2025-01-17 04:41:38.25	328.29	6.46	
2025-01-17 04:41:38.46	328.26	6.45	
2025-01-17 04:41:38.66	328.23	6.44	
2025-01-17 04:41:38.86	328.20	6.44	
2025-01-17 04:41:39.07	328.17	6.43	
2025-01-17 04:41:39.27	328.14	6.43	
2025-01-17 04:41:39.47	328.11	6.42	
2025-01-17 04:41:39.68	328.08	6.42	
2025-01-17 04:41:39.88	328.05	6.41	
2025-01-17 04:41:40.08	328.02	6.41	
2025-01-17 04:41:40.29	327.99	6.40	
2025-01-17 04:41:40.49	327.96	6.40	
2025-01-17 04:41:40.69	327.93	6.39	
2025-01-17 04:41:40.89	327.90	6.39	
2025-01-17 04:41:41.10	327.87	6.38	
2025-01-17 04:41:41.30	327.84	6.38	
2025-01-17 04:41:41.50	327.81	6.37	
2025-01-17 04:41:41.71	327.78	6.37	
2025-01-17 04:41:41.91	327.75	6.36	
2025-01-17 04:41:42.11	327.72	6.35	
2025-01-17 04:41:42.32	327.69	6.35	
2025-01-17 04:41:42.52	327.66	6.34	
2025-01-17 04:41:42.72	327.63	6.34	
2025-01-17 04:41:42.93	327.60	6.33	
2025-01-17 04:41:43.13	327.57	6.33	
2025-01-17 04:41:43.33	327.54	6.32	
2025-01-17 04:41:43.53	327.51	6.32	
2025-01-17 04:41:43.74	327.48	6.31	
2025-01-17 04:41:43.94	327.45	6.31	
2025-01-17 04:41:44.14	327.42	6.30	
2025-01-17 04:41:44.35	327.39	6.30	
2025-01-17 04:41:44.55	327.36	6.29	
2025-01-17 04:41:44.75	327.33	6.28	
2025-01-17 04:41:44.96	327.30	6.28	
2025-01-17 04:41:45.16	327.27	6.27	
2025-01-17 04:41:45.36	327.24	6.27	
2025-01-17 04:41:45.57	327.21	6.26	
2025-01-17 04:41:45.77	327.18	6.26	
2025-01-17 04:41:45.97	327.15	6.25	
2025-01-17 04:41:46.18	327.12	6.25	
2025-01-17 04:41:46.38	327.09	6.24	
2025-01-17 04:41:46.58	327.06	6.24	
2025-01-17 04:41:46.78	327.03	6.23	
2025-01-17 04:41:46.99	327.00	6.22	
2025-01-17 04:41:47.19	326.97	6.22	
2025-01-17 04:41:47.39	326.94	6.21	
2025-01-17 04:41:47.60	326.91	6.21	
2025-01-17 04:41:47.80	326.88	6.20	
2025-01-17 04:41:48.00	326.85	6.20	
2025-01-17 04:41:48.21	326.82	6.19	
2025-01-17 04:41:48.41	326.79	6.19	
2025-01-17 04:41:48.61	326.76	6.18	
2025-01-17 04:41:48.82	326.73	6.17	
2025-01-17 04:41:49.02	326.70	6.17	
2025-01-17 04:41:49.22	326.67	6.16	
2025-01-17 04:41:49.42	326.65	6.16	
2025-01-17 04:41:49.63	326.61	6.15	
2025-01-17 04:41:49.83	326.59	6.15	
2025-01-17 04:41:50.03	326.56	6.14	
