passes_logs/2025/01/17/SPB_Silybum_02/SPB_Silybum_02__20250117_013738_AQUA_rec.log

#Pass ID: 20250117_013738_AQUA
#Satellite: AQUA
#Configuration: AQUA
#Start time: 2025-01-17 01:37:37

#Version: 2.0.20230423
#Station: SPB_Silybum_02
#Location: 30.233357 lon 59.946436 lat
#TLE: 1 27424U 02022A   25016.17003800  .00001737  00000+0  36656-3 0  9994
#TLE: 2 27424  98.3591 332.8445 0001762 110.2278 308.2748 14.60686749207790

#Time	Az	El	Level	Level2	SNR	BER	Gain	Gain2
2025-01-17 01:37:40.02	15.84	4.14	
2025-01-17 01:37:40.22	15.84	4.15	
2025-01-17 01:37:40.43	15.84	4.16	
2025-01-17 01:37:40.63	15.83	4.18	
2025-01-17 01:37:40.83	15.83	4.19	
2025-01-17 01:37:41.03	15.83	4.21	
2025-01-17 01:37:41.24	15.83	4.22	
2025-01-17 01:37:41.44	15.82	4.24	
2025-01-17 01:37:41.64	15.82	4.25	
2025-01-17 01:37:41.85	15.82	4.27	
2025-01-17 01:37:42.05	15.82	4.28	
2025-01-17 01:37:42.25	15.81	4.30	
2025-01-17 01:37:42.45	15.81	4.31	
2025-01-17 01:37:42.66	15.81	4.33	
2025-01-17 01:37:42.86	15.81	4.34	
2025-01-17 01:37:43.06	15.80	4.35	
2025-01-17 01:37:43.27	15.80	4.37	
2025-01-17 01:37:43.47	15.80	4.38	
2025-01-17 01:37:43.67	15.80	4.40	
2025-01-17 01:37:43.88	15.79	4.41	
2025-01-17 01:37:44.08	15.79	4.43	
2025-01-17 01:37:44.28	15.79	4.44	
2025-01-17 01:37:44.48	15.79	4.46	
2025-01-17 01:37:44.69	15.78	4.47	
2025-01-17 01:37:44.89	15.78	4.49	
2025-01-17 01:37:45.09	15.78	4.50	
2025-01-17 01:37:45.30	15.78	4.52	
2025-01-17 01:37:45.50	15.77	4.53	
2025-01-17 01:37:45.70	15.77	4.55	
2025-01-17 01:37:45.91	15.77	4.56	
2025-01-17 01:37:46.11	15.77	4.58	
2025-01-17 01:37:46.31	15.76	4.59	
2025-01-17 01:37:46.51	15.76	4.60	
2025-01-17 01:37:46.72	15.76	4.62	
2025-01-17 01:37:46.92	15.76	4.63	
2025-01-17 01:37:47.12	15.75	4.65	
2025-01-17 01:37:47.33	15.75	4.66	
2025-01-17 01:37:47.53	15.75	4.68	
2025-01-17 01:37:47.73	15.74	4.69	
2025-01-17 01:37:47.94	15.74	4.71	
2025-01-17 01:37:48.14	15.74	4.72	
2025-01-17 01:37:48.34	15.74	4.74	
2025-01-17 01:37:48.54	15.73	4.75	
2025-01-17 01:37:48.75	15.73	4.77	
2025-01-17 01:37:48.95	15.73	4.78	
2025-01-17 01:37:49.15	15.73	4.80	
2025-01-17 01:37:49.36	15.72	4.81	
2025-01-17 01:37:49.56	15.72	4.83	
2025-01-17 01:37:49.76	15.72	4.84	
2025-01-17 01:37:49.96	15.72	4.86	
2025-01-17 01:37:50.17	15.71	4.87	
2025-01-17 01:37:50.37	15.71	4.89	
2025-01-17 01:37:50.57	15.71	4.90	
2025-01-17 01:37:50.78	15.70	4.92	
2025-01-17 01:37:50.98	15.70	4.93	
2025-01-17 01:37:51.18	15.70	4.95	
2025-01-17 01:37:51.39	15.70	4.96	
2025-01-17 01:37:51.59	15.69	4.98	
2025-01-17 01:37:51.79	15.69	4.99	
2025-01-17 01:37:51.99	15.69	5.01	
2025-01-17 01:37:52.20	15.69	5.02	
2025-01-17 01:37:52.40	15.68	5.04	
2025-01-17 01:37:52.60	15.68	5.05	
2025-01-17 01:37:52.81	15.68	5.07	
2025-01-17 01:37:53.01	15.67	5.08	
2025-01-17 01:37:53.21	15.67	5.10	
2025-01-17 01:37:53.42	15.67	5.11	
2025-01-17 01:37:53.62	15.67	5.13	
2025-01-17 01:37:53.82	15.66	5.14	
2025-01-17 01:37:54.02	15.66	5.16	
2025-01-17 01:37:54.23	15.66	5.18	
2025-01-17 01:37:54.43	15.66	5.19	
2025-01-17 01:37:54.63	15.65	5.21	
2025-01-17 01:37:54.84	15.65	5.22	
2025-01-17 01:37:55.04	15.65	5.24	
2025-01-17 01:37:55.24	15.64	5.25	
2025-01-17 01:37:55.44	15.64	5.27	
2025-01-17 01:37:55.65	15.64	5.28	
2025-01-17 01:37:55.85	15.64	5.30	
2025-01-17 01:37:56.05	15.63	5.31	
2025-01-17 01:37:56.26	15.63	5.33	
2025-01-17 01:37:56.46	15.63	5.34	
2025-01-17 01:37:56.66	15.63	5.36	
2025-01-17 01:37:56.87	15.62	5.37	
2025-01-17 01:37:57.07	15.62	5.39	
2025-01-17 01:37:57.27	15.62	5.40	
2025-01-17 01:37:57.47	15.61	5.42	
2025-01-17 01:37:57.68	15.61	5.43	
2025-01-17 01:37:57.88	15.61	5.45	
2025-01-17 01:37:58.08	15.61	5.46	
2025-01-17 01:37:58.29	15.60	5.48	
2025-01-17 01:37:58.49	15.60	5.50	
2025-01-17 01:37:58.69	15.60	5.51	
2025-01-17 01:37:58.90	15.59	5.53	
2025-01-17 01:37:59.10	15.59	5.54	
2025-01-17 01:37:59.30	15.59	5.56	
2025-01-17 01:37:59.50	15.59	5.57	
2025-01-17 01:37:59.71	15.58	5.59	
2025-01-17 01:37:59.91	15.58	5.60	
2025-01-17 01:38:00.11	15.58	5.62	
2025-01-17 01:38:00.32	15.57	5.64	
2025-01-17 01:38:00.52	15.57	5.65	
2025-01-17 01:38:00.72	15.57	5.67	
2025-01-17 01:38:00.92	15.57	5.68	
2025-01-17 01:38:01.13	15.56	5.70	
2025-01-17 01:38:01.33	15.56	5.71	
2025-01-17 01:38:01.53	15.56	5.73	
2025-01-17 01:38:01.74	15.55	5.74	
2025-01-17 01:38:01.94	15.55	5.76	
2025-01-17 01:38:02.14	15.55	5.77	
2025-01-17 01:38:02.35	15.54	5.79	
2025-01-17 01:38:02.55	15.54	5.81	
2025-01-17 01:38:02.75	15.54	5.82	
2025-01-17 01:38:02.95	15.54	5.84	
2025-01-17 01:38:03.16	15.53	5.85	
2025-01-17 01:38:03.36	15.53	5.87	
2025-01-17 01:38:03.56	15.53	5.88	
2025-01-17 01:38:03.77	15.52	5.90	
2025-01-17 01:38:03.97	15.52	5.91	
2025-01-17 01:38:04.17	15.52	5.93	
2025-01-17 01:38:04.38	15.52	5.95	
2025-01-17 01:38:04.58	15.51	5.96	
2025-01-17 01:38:04.78	15.51	5.98	
2025-01-17 01:38:04.98	15.51	5.99	
2025-01-17 01:38:05.19	15.50	6.01	
2025-01-17 01:38:05.39	15.50	6.02	
2025-01-17 01:38:05.59	15.50	6.04	
2025-01-17 01:38:05.80	15.49	6.06	
2025-01-17 01:38:06.00	15.49	6.07	
2025-01-17 01:38:06.20	15.49	6.09	
2025-01-17 01:38:06.41	15.49	6.10	
2025-01-17 01:38:06.61	15.48	6.12	
2025-01-17 01:38:06.81	15.48	6.13	
2025-01-17 01:38:07.01	15.48	6.15	
2025-01-17 01:38:07.22	15.47	6.17	
2025-01-17 01:38:07.42	15.47	6.18	
2025-01-17 01:38:07.62	15.47	6.20	
2025-01-17 01:38:07.83	15.46	6.21	
2025-01-17 01:38:08.03	15.46	6.23	
2025-01-17 01:38:08.23	15.46	6.25	
2025-01-17 01:38:08.43	15.45	6.26	
2025-01-17 01:38:08.64	15.45	6.28	
2025-01-17 01:38:08.84	15.45	6.29	
2025-01-17 01:38:09.04	15.45	6.31	
2025-01-17 01:38:09.25	15.44	6.33	
2025-01-17 01:38:09.45	15.44	6.34	
2025-01-17 01:38:09.65	15.44	6.36	
2025-01-17 01:38:09.86	15.43	6.37	
2025-01-17 01:38:10.06	15.43	6.39	
2025-01-17 01:38:10.26	15.43	6.41	
2025-01-17 01:38:10.46	15.42	6.42	
2025-01-17 01:38:10.67	15.42	6.44	
2025-01-17 01:38:10.87	15.42	6.45	
2025-01-17 01:38:11.07	15.41	6.47	
2025-01-17 01:38:11.28	15.41	6.49	
2025-01-17 01:38:11.48	15.41	6.50	
2025-01-17 01:38:11.68	15.41	6.52	
2025-01-17 01:38:11.89	15.40	6.53	
2025-01-17 01:38:12.09	15.40	6.55	
2025-01-17 01:38:12.29	15.40	6.57	
2025-01-17 01:38:12.49	15.39	6.58	
2025-01-17 01:38:12.70	15.39	6.60	
2025-01-17 01:38:12.90	15.39	6.61	
2025-01-17 01:38:13.10	15.38	6.63	
2025-01-17 01:38:13.31	15.38	6.65	
2025-01-17 01:38:13.51	15.38	6.66	
2025-01-17 01:38:13.71	15.37	6.68	
2025-01-17 01:38:13.91	15.37	6.69	
2025-01-17 01:38:14.12	15.37	6.71	
2025-01-17 01:38:14.32	15.36	6.73	
2025-01-17 01:38:14.52	15.36	6.74	
2025-01-17 01:38:14.73	15.36	6.76	
2025-01-17 01:38:14.93	15.35	6.78	
2025-01-17 01:38:15.13	15.35	6.79	
2025-01-17 01:38:15.34	15.35	6.81	
2025-01-17 01:38:15.54	15.34	6.82	
2025-01-17 01:38:15.74	15.34	6.84	
2025-01-17 01:38:15.94	15.34	6.86	
2025-01-17 01:38:16.15	15.33	6.87	
2025-01-17 01:38:16.35	15.33	6.89	
2025-01-17 01:38:16.55	15.33	6.91	
2025-01-17 01:38:16.76	15.32	6.92	
2025-01-17 01:38:16.96	15.32	6.94	
2025-01-17 01:38:17.16	15.32	6.95	
2025-01-17 01:38:17.37	15.32	6.97	
2025-01-17 01:38:17.57	15.31	6.99	
2025-01-17 01:38:17.77	15.31	7.00	
2025-01-17 01:38:17.97	15.31	7.02	
2025-01-17 01:38:18.18	15.30	7.04	
2025-01-17 01:38:18.38	15.30	7.05	
2025-01-17 01:38:18.58	15.30	7.07	
2025-01-17 01:38:18.79	15.29	7.09	
2025-01-17 01:38:18.99	15.29	7.10	
2025-01-17 01:38:19.19	15.29	7.12	
2025-01-17 01:38:19.39	15.28	7.14	
2025-01-17 01:38:19.60	15.28	7.15	
2025-01-17 01:38:19.80	15.28	7.17	
2025-01-17 01:38:20.00	15.27	7.18	
2025-01-17 01:38:20.21	15.27	7.20	
2025-01-17 01:38:20.41	15.27	7.22	
2025-01-17 01:38:20.61	15.26	7.23	
2025-01-17 01:38:20.82	15.26	7.25	
2025-01-17 01:38:21.02	15.26	7.27	
2025-01-17 01:38:21.22	15.25	7.28	
2025-01-17 01:38:21.42	15.25	7.30	
2025-01-17 01:38:21.63	15.25	7.32	
2025-01-17 01:38:21.83	15.24	7.33	
2025-01-17 01:38:22.03	15.24	7.35	
2025-01-17 01:38:22.24	15.23	7.37	
2025-01-17 01:38:22.44	15.23	7.38	
2025-01-17 01:38:22.64	15.23	7.40	
2025-01-17 01:38:22.85	15.22	7.42	
2025-01-17 01:38:23.05	15.22	7.43	
2025-01-17 01:38:23.25	15.22	7.45	
2025-01-17 01:38:23.45	15.21	7.47	
2025-01-17 01:38:23.66	15.21	7.48	
2025-01-17 01:38:23.86	15.21	7.50	
2025-01-17 01:38:24.06	15.20	7.52	
2025-01-17 01:38:24.27	15.20	7.54	
2025-01-17 01:38:24.47	15.20	7.55	
2025-01-17 01:38:24.67	15.19	7.57	
2025-01-17 01:38:24.88	15.19	7.59	
2025-01-17 01:38:25.08	15.19	7.60	
2025-01-17 01:38:25.28	15.18	7.62	
2025-01-17 01:38:25.48	15.18	7.64	
2025-01-17 01:38:25.69	15.18	7.65	
2025-01-17 01:38:25.89	15.17	7.67	
2025-01-17 01:38:26.09	15.17	7.69	
2025-01-17 01:38:26.30	15.17	7.70	
2025-01-17 01:38:26.50	15.16	7.72	
2025-01-17 01:38:26.70	15.16	7.74	
2025-01-17 01:38:26.90	15.16	7.75	
2025-01-17 01:38:27.11	15.15	7.77	
2025-01-17 01:38:27.31	15.15	7.79	
2025-01-17 01:38:27.51	15.14	7.80	
2025-01-17 01:38:27.72	15.14	7.82	
2025-01-17 01:38:27.92	15.14	7.84	
2025-01-17 01:38:28.12	15.13	7.86	
2025-01-17 01:38:28.33	15.13	7.87	
2025-01-17 01:38:28.53	15.13	7.89	
2025-01-17 01:38:28.73	15.12	7.91	
2025-01-17 01:38:28.93	15.12	7.92	
2025-01-17 01:38:29.14	15.12	7.94	
2025-01-17 01:38:29.34	15.11	7.96	
2025-01-17 01:38:29.54	15.11	7.97	
2025-01-17 01:38:29.75	15.11	7.99	
2025-01-17 01:38:29.95	15.10	8.01	
2025-01-17 01:38:30.15	15.10	8.03	
2025-01-17 01:38:30.36	15.09	8.04	
2025-01-17 01:38:30.56	15.09	8.06	
2025-01-17 01:38:30.76	15.09	8.08	
2025-01-17 01:38:30.96	15.08	8.09	
2025-01-17 01:38:31.17	15.08	8.11	
2025-01-17 01:38:31.37	15.08	8.13	
2025-01-17 01:38:31.57	15.07	8.15	
2025-01-17 01:38:31.78	15.07	8.16	
2025-01-17 01:38:31.98	15.07	8.18	
2025-01-17 01:38:32.18	15.06	8.20	
2025-01-17 01:38:32.38	15.06	8.22	
2025-01-17 01:38:32.59	15.05	8.23	
2025-01-17 01:38:32.79	15.05	8.25	
2025-01-17 01:38:32.99	15.05	8.27	
2025-01-17 01:38:33.20	15.04	8.29	
2025-01-17 01:38:33.40	15.04	8.30	
2025-01-17 01:38:33.60	15.04	8.32	
2025-01-17 01:38:33.81	15.03	8.34	
2025-01-17 01:38:34.01	15.03	8.35	
2025-01-17 01:38:34.21	15.02	8.37	
2025-01-17 01:38:34.41	15.02	8.39	
2025-01-17 01:38:34.62	15.02	8.41	
2025-01-17 01:38:34.82	15.01	8.42	
2025-01-17 01:38:35.02	15.01	8.44	
2025-01-17 01:38:35.23	15.01	8.46	
2025-01-17 01:38:35.43	15.00	8.48	
2025-01-17 01:38:35.63	15.00	8.49	
2025-01-17 01:38:35.84	14.99	8.51	
2025-01-17 01:38:36.04	14.99	8.53	
2025-01-17 01:38:36.24	14.99	8.55	
2025-01-17 01:38:36.44	14.98	8.56	
2025-01-17 01:38:36.65	14.98	8.58	
2025-01-17 01:38:36.85	14.98	8.60	
2025-01-17 01:38:37.05	14.97	8.62	
2025-01-17 01:38:37.26	14.97	8.63	
2025-01-17 01:38:37.46	14.96	8.65	
2025-01-17 01:38:37.66	14.96	8.67	
2025-01-17 01:38:37.86	14.96	8.69	
2025-01-17 01:38:38.07	14.95	8.71	
2025-01-17 01:38:38.27	14.95	8.72	
2025-01-17 01:38:38.47	14.94	8.74	
2025-01-17 01:38:38.68	14.94	8.76	
2025-01-17 01:38:38.88	14.94	8.78	
2025-01-17 01:38:39.08	14.93	8.79	
2025-01-17 01:38:39.29	14.93	8.81	
2025-01-17 01:38:39.49	14.93	8.83	
2025-01-17 01:38:39.69	14.92	8.85	
2025-01-17 01:38:39.89	14.92	8.86	
2025-01-17 01:38:40.10	14.91	8.88	
2025-01-17 01:38:40.30	14.91	8.90	
2025-01-17 01:38:40.50	14.91	8.92	
2025-01-17 01:38:40.71	14.90	8.94	
2025-01-17 01:38:40.91	14.90	8.95	
2025-01-17 01:38:41.11	14.89	8.97	
2025-01-17 01:38:41.32	14.89	8.99	
2025-01-17 01:38:41.52	14.89	9.01	
2025-01-17 01:38:41.72	14.88	9.02	
2025-01-17 01:38:41.92	14.88	9.04	
2025-01-17 01:38:42.13	14.87	9.06	
2025-01-17 01:38:42.33	14.87	9.08	
2025-01-17 01:38:42.53	14.87	9.10	
2025-01-17 01:38:42.74	14.86	9.11	
2025-01-17 01:38:42.94	14.86	9.13	
2025-01-17 01:38:43.14	14.85	9.15	
2025-01-17 01:38:43.35	14.85	9.17	
2025-01-17 01:38:43.55	14.85	9.19	
2025-01-17 01:38:43.75	14.84	9.20	
2025-01-17 01:38:43.95	14.84	9.22	
2025-01-17 01:38:44.16	14.83	9.24	
2025-01-17 01:38:44.36	14.83	9.26	
2025-01-17 01:38:44.56	14.83	9.28	
2025-01-17 01:38:44.77	14.82	9.30	
2025-01-17 01:38:44.97	14.82	9.31	
2025-01-17 01:38:45.17	14.81	9.33	
2025-01-17 01:38:45.37	14.81	9.35	
2025-01-17 01:38:45.58	14.81	9.37	
2025-01-17 01:38:45.78	14.80	9.39	
2025-01-17 01:38:45.98	14.80	9.40	
2025-01-17 01:38:46.19	14.79	9.42	
2025-01-17 01:38:46.39	14.79	9.44	
2025-01-17 01:38:46.59	14.79	9.46	
2025-01-17 01:38:46.80	14.78	9.48	
2025-01-17 01:38:47.00	14.78	9.50	
2025-01-17 01:38:47.20	14.77	9.51	
2025-01-17 01:38:47.40	14.77	9.53	
2025-01-17 01:38:47.61	14.76	9.55	
2025-01-17 01:38:47.81	14.76	9.57	
2025-01-17 01:38:48.01	14.76	9.59	
2025-01-17 01:38:48.22	14.75	9.61	
2025-01-17 01:38:48.42	14.75	9.62	
2025-01-17 01:38:48.62	14.74	9.64	
2025-01-17 01:38:48.82	14.74	9.66	
2025-01-17 01:38:49.03	14.74	9.68	
2025-01-17 01:38:49.23	14.73	9.70	
2025-01-17 01:38:49.43	14.73	9.72	
2025-01-17 01:38:49.64	14.72	9.73	
2025-01-17 01:38:49.84	14.72	9.75	
2025-01-17 01:38:50.04	14.71	9.77	
2025-01-17 01:38:50.25	14.71	9.79	
2025-01-17 01:38:50.45	14.71	9.81	
2025-01-17 01:38:50.65	14.70	9.83	
2025-01-17 01:38:50.85	14.70	9.84	
2025-01-17 01:38:51.06	14.69	9.86	
2025-01-17 01:38:51.26	14.69	9.88	
2025-01-17 01:38:51.46	14.68	9.90	
2025-01-17 01:38:51.67	14.68	9.92	
2025-01-17 01:38:51.87	14.68	9.94	
2025-01-17 01:38:52.07	14.67	9.96	
2025-01-17 01:38:52.28	14.67	9.98	
2025-01-17 01:38:52.48	14.66	9.99	
2025-01-17 01:38:52.68	14.66	10.01	
2025-01-17 01:38:52.88	14.65	10.03	
2025-01-17 01:38:53.09	14.65	10.05	
2025-01-17 01:38:53.29	14.65	10.07	
2025-01-17 01:38:53.49	14.64	10.09	
2025-01-17 01:38:53.70	14.64	10.11	
2025-01-17 01:38:53.90	14.63	10.13	
2025-01-17 01:38:54.10	14.63	10.14	
2025-01-17 01:38:54.31	14.62	10.16	
2025-01-17 01:38:54.51	14.62	10.18	
2025-01-17 01:38:54.71	14.62	10.20	
2025-01-17 01:38:54.91	14.61	10.22	
2025-01-17 01:38:55.12	14.61	10.24	
2025-01-17 01:38:55.32	14.60	10.26	
2025-01-17 01:38:55.52	14.60	10.28	
2025-01-17 01:38:55.73	14.59	10.30	
2025-01-17 01:38:55.93	14.59	10.31	
2025-01-17 01:38:56.13	14.58	10.33	
2025-01-17 01:38:56.33	14.58	10.35	
2025-01-17 01:38:56.54	14.58	10.37	
2025-01-17 01:38:56.74	14.57	10.39	
2025-01-17 01:38:56.94	14.57	10.41	
2025-01-17 01:38:57.15	14.56	10.43	
2025-01-17 01:38:57.35	14.56	10.45	
2025-01-17 01:38:57.55	14.55	10.47	
2025-01-17 01:38:57.76	14.55	10.49	
2025-01-17 01:38:57.96	14.54	10.50	
2025-01-17 01:38:58.16	14.54	10.52	
2025-01-17 01:38:58.36	14.53	10.54	
2025-01-17 01:38:58.57	14.53	10.56	
2025-01-17 01:38:58.77	14.53	10.58	
2025-01-17 01:38:58.97	14.52	10.60	
2025-01-17 01:38:59.18	14.52	10.62	
2025-01-17 01:38:59.38	14.51	10.64	
2025-01-17 01:38:59.58	14.51	10.66	
2025-01-17 01:38:59.79	14.50	10.68	
2025-01-17 01:38:59.99	14.50	10.70	
2025-01-17 01:39:00.19	14.49	10.72	
2025-01-17 01:39:00.39	14.49	10.73	
2025-01-17 01:39:00.60	14.48	10.75	
2025-01-17 01:39:00.80	14.48	10.77	
2025-01-17 01:39:01.00	14.48	10.79	
2025-01-17 01:39:01.21	14.47	10.81	
2025-01-17 01:39:01.41	14.47	10.83	
2025-01-17 01:39:01.61	14.46	10.85	
2025-01-17 01:39:01.81	14.46	10.87	
2025-01-17 01:39:02.02	14.45	10.89	
2025-01-17 01:39:02.22	14.45	10.91	
2025-01-17 01:39:02.42	14.44	10.93	
2025-01-17 01:39:02.63	14.44	10.95	
2025-01-17 01:39:02.83	14.43	10.97	
2025-01-17 01:39:03.03	14.43	10.99	
2025-01-17 01:39:03.24	14.42	11.01	
2025-01-17 01:39:03.44	14.42	11.03	
2025-01-17 01:39:03.64	14.41	11.05	
2025-01-17 01:39:03.84	14.41	11.07	
2025-01-17 01:39:04.05	14.40	11.09	
2025-01-17 01:39:04.25	14.40	11.11	
2025-01-17 01:39:04.45	14.40	11.12	
2025-01-17 01:39:04.66	14.39	11.14	
2025-01-17 01:39:04.86	14.39	11.16	
2025-01-17 01:39:05.06	14.38	11.18	
2025-01-17 01:39:05.27	14.38	11.20	
2025-01-17 01:39:05.47	14.37	11.22	
2025-01-17 01:39:05.67	14.37	11.24	
2025-01-17 01:39:05.87	14.36	11.26	
2025-01-17 01:39:06.08	14.36	11.28	
2025-01-17 01:39:06.28	14.35	11.30	
2025-01-17 01:39:06.48	14.35	11.32	
2025-01-17 01:39:06.69	14.34	11.34	
2025-01-17 01:39:06.89	14.34	11.36	
2025-01-17 01:39:07.09	14.33	11.38	
2025-01-17 01:39:07.30	14.33	11.40	
2025-01-17 01:39:07.50	14.32	11.42	
2025-01-17 01:39:07.70	14.32	11.44	
2025-01-17 01:39:07.90	14.31	11.46	
2025-01-17 01:39:08.11	14.31	11.48	
2025-01-17 01:39:08.31	14.30	11.50	
2025-01-17 01:39:08.51	14.30	11.52	
2025-01-17 01:39:08.72	14.29	11.54	
2025-01-17 01:39:08.92	14.29	11.56	
2025-01-17 01:39:09.12	14.28	11.58	
2025-01-17 01:39:09.32	14.28	11.60	
2025-01-17 01:39:09.53	14.27	11.62	
2025-01-17 01:39:09.73	14.27	11.64	
2025-01-17 01:39:09.93	14.26	11.66	
2025-01-17 01:39:10.14	14.26	11.68	
2025-01-17 01:39:10.34	14.25	11.70	
2025-01-17 01:39:10.54	14.25	11.72	
2025-01-17 01:39:10.75	14.24	11.74	
2025-01-17 01:39:10.95	14.24	11.76	
2025-01-17 01:39:11.15	14.23	11.78	
2025-01-17 01:39:11.35	14.23	11.80	
2025-01-17 01:39:11.56	14.22	11.82	
2025-01-17 01:39:11.76	14.22	11.84	
2025-01-17 01:39:11.96	14.21	11.86	
2025-01-17 01:39:12.17	14.21	11.88	
2025-01-17 01:39:12.37	14.20	11.90	
2025-01-17 01:39:12.57	14.20	11.92	
2025-01-17 01:39:12.78	14.19	11.95	
2025-01-17 01:39:12.98	14.19	11.97	
2025-01-17 01:39:13.18	14.18	11.99	
2025-01-17 01:39:13.38	14.18	12.01	
2025-01-17 01:39:13.59	14.17	12.03	
2025-01-17 01:39:13.79	14.17	12.05	
2025-01-17 01:39:13.99	14.16	12.07	
2025-01-17 01:39:14.20	14.16	12.09	
2025-01-17 01:39:14.40	14.15	12.11	
2025-01-17 01:39:14.60	14.15	12.13	
2025-01-17 01:39:14.80	14.14	12.15	
2025-01-17 01:39:15.01	14.14	12.17	
2025-01-17 01:39:15.21	14.13	12.19	
2025-01-17 01:39:15.41	14.13	12.21	
2025-01-17 01:39:15.62	14.12	12.23	
2025-01-17 01:39:15.82	14.12	12.25	
2025-01-17 01:39:16.02	14.11	12.27	
2025-01-17 01:39:16.23	14.10	12.30	
2025-01-17 01:39:16.43	14.10	12.32	
2025-01-17 01:39:16.63	14.09	12.34	
2025-01-17 01:39:16.83	14.09	12.36	
2025-01-17 01:39:17.04	14.08	12.38	
2025-01-17 01:39:17.24	14.08	12.40	
2025-01-17 01:39:17.44	14.07	12.42	
2025-01-17 01:39:17.65	14.07	12.44	
2025-01-17 01:39:17.85	14.06	12.46	
2025-01-17 01:39:18.05	14.06	12.48	
2025-01-17 01:39:18.26	14.05	12.50	
2025-01-17 01:39:18.46	14.05	12.52	
2025-01-17 01:39:18.66	14.04	12.54	
2025-01-17 01:39:18.86	14.04	12.57	
2025-01-17 01:39:19.07	14.03	12.59	
2025-01-17 01:39:19.27	14.02	12.61	
2025-01-17 01:39:19.47	14.02	12.63	
2025-01-17 01:39:19.68	14.01	12.65	
2025-01-17 01:39:19.88	14.01	12.67	
2025-01-17 01:39:20.08	14.00	12.69	
2025-01-17 01:39:20.28	14.00	12.71	
2025-01-17 01:39:20.49	13.99	12.73	
2025-01-17 01:39:20.69	13.99	12.76	
2025-01-17 01:39:20.89	13.98	12.78	
2025-01-17 01:39:21.10	13.98	12.80	
2025-01-17 01:39:21.30	13.97	12.82	
2025-01-17 01:39:21.50	13.96	12.84	
2025-01-17 01:39:21.71	13.96	12.86	
2025-01-17 01:39:21.91	13.95	12.88	
2025-01-17 01:39:22.11	13.95	12.90	
2025-01-17 01:39:22.31	13.94	12.92	
2025-01-17 01:39:22.52	13.94	12.95	
2025-01-17 01:39:22.72	13.93	12.97	
2025-01-17 01:39:22.92	13.93	12.99	
2025-01-17 01:39:23.13	13.92	13.01	
2025-01-17 01:39:23.33	13.91	13.03	
2025-01-17 01:39:23.53	13.91	13.05	
2025-01-17 01:39:23.74	13.90	13.08	
2025-01-17 01:39:23.94	13.90	13.10	
2025-01-17 01:39:24.14	13.89	13.12	
2025-01-17 01:39:24.34	13.89	13.14	
2025-01-17 01:39:24.55	13.88	13.16	
2025-01-17 01:39:24.75	13.88	13.18	
2025-01-17 01:39:24.95	13.87	13.20	
2025-01-17 01:39:25.16	13.86	13.23	
2025-01-17 01:39:25.36	13.86	13.25	
2025-01-17 01:39:25.56	13.85	13.27	
2025-01-17 01:39:25.77	13.85	13.29	
2025-01-17 01:39:25.97	13.84	13.31	
2025-01-17 01:39:26.17	13.84	13.33	
2025-01-17 01:39:26.37	13.83	13.35	
2025-01-17 01:39:26.58	13.82	13.38	
2025-01-17 01:39:26.78	13.82	13.40	
2025-01-17 01:39:26.98	13.81	13.42	
2025-01-17 01:39:27.19	13.81	13.44	
2025-01-17 01:39:27.39	13.80	13.46	
2025-01-17 01:39:27.59	13.80	13.49	
2025-01-17 01:39:27.79	13.79	13.51	
2025-01-17 01:39:28.00	13.78	13.53	
2025-01-17 01:39:28.20	13.78	13.55	
2025-01-17 01:39:28.40	13.77	13.57	
2025-01-17 01:39:28.61	13.77	13.60	
2025-01-17 01:39:28.81	13.76	13.62	
2025-01-17 01:39:29.01	13.75	13.64	
2025-01-17 01:39:29.22	13.75	13.66	
2025-01-17 01:39:29.42	13.74	13.68	
2025-01-17 01:39:29.62	13.74	13.71	
2025-01-17 01:39:29.82	13.73	13.73	
2025-01-17 01:39:30.03	13.72	13.75	
2025-01-17 01:39:30.23	13.72	13.77	
2025-01-17 01:39:30.43	13.71	13.79	
2025-01-17 01:39:30.64	13.71	13.82	
2025-01-17 01:39:30.84	13.70	13.84	
2025-01-17 01:39:31.04	13.69	13.86	
2025-01-17 01:39:31.25	13.69	13.88	
2025-01-17 01:39:31.45	13.68	13.91	
2025-01-17 01:39:31.65	13.68	13.93	
2025-01-17 01:39:31.85	13.67	13.95	
2025-01-17 01:39:32.06	13.66	13.97	
2025-01-17 01:39:32.26	13.66	13.99	
2025-01-17 01:39:32.46	13.65	14.02	
2025-01-17 01:39:32.67	13.65	14.04	
2025-01-17 01:39:32.87	13.64	14.06	
2025-01-17 01:39:33.07	13.63	14.08	
2025-01-17 01:39:33.27	13.63	14.11	
2025-01-17 01:39:33.48	13.62	14.13	
2025-01-17 01:39:33.68	13.62	14.15	
2025-01-17 01:39:33.88	13.61	14.17	
2025-01-17 01:39:34.09	13.60	14.20	
2025-01-17 01:39:34.29	13.60	14.22	
2025-01-17 01:39:34.49	13.59	14.24	
2025-01-17 01:39:34.70	13.58	14.26	
2025-01-17 01:39:34.90	13.58	14.29	
2025-01-17 01:39:35.10	13.57	14.31	
2025-01-17 01:39:35.30	13.57	14.33	
2025-01-17 01:39:35.51	13.56	14.35	
2025-01-17 01:39:35.71	13.55	14.38	
2025-01-17 01:39:35.91	13.55	14.40	
2025-01-17 01:39:36.12	13.54	14.42	
2025-01-17 01:39:36.32	13.54	14.45	
2025-01-17 01:39:36.52	13.53	14.47	
2025-01-17 01:39:36.73	13.52	14.49	
2025-01-17 01:39:36.93	13.52	14.51	
2025-01-17 01:39:37.13	13.51	14.54	
2025-01-17 01:39:37.33	13.50	14.56	
2025-01-17 01:39:37.54	13.50	14.58	
2025-01-17 01:39:37.74	13.49	14.61	
2025-01-17 01:39:37.94	13.48	14.63	
2025-01-17 01:39:38.15	13.48	14.65	
2025-01-17 01:39:38.35	13.47	14.68	
2025-01-17 01:39:38.55	13.47	14.70	
2025-01-17 01:39:38.75	13.46	14.72	
2025-01-17 01:39:38.96	13.45	14.74	
2025-01-17 01:39:39.16	13.45	14.77	
2025-01-17 01:39:39.36	13.44	14.79	
2025-01-17 01:39:39.57	13.43	14.81	
2025-01-17 01:39:39.77	13.43	14.84	
2025-01-17 01:39:39.97	13.42	14.86	
2025-01-17 01:39:40.18	13.41	14.88	
2025-01-17 01:39:40.38	13.41	14.91	
2025-01-17 01:39:40.58	13.40	14.93	
2025-01-17 01:39:40.78	13.39	14.95	
2025-01-17 01:39:40.99	13.39	14.98	
2025-01-17 01:39:41.19	13.38	15.00	
2025-01-17 01:39:41.39	13.37	15.02	
2025-01-17 01:39:41.60	13.37	15.05	
2025-01-17 01:39:41.80	13.36	15.07	
2025-01-17 01:39:42.00	13.35	15.09	
2025-01-17 01:39:42.21	13.35	15.12	
2025-01-17 01:39:42.41	13.34	15.14	
2025-01-17 01:39:42.61	13.33	15.16	
2025-01-17 01:39:42.81	13.33	15.19	
2025-01-17 01:39:43.02	13.32	15.21	
2025-01-17 01:39:43.22	13.31	15.23	
2025-01-17 01:39:43.42	13.31	15.26	
2025-01-17 01:39:43.63	13.30	15.28	
2025-01-17 01:39:43.83	13.29	15.31	
2025-01-17 01:39:44.03	13.29	15.33	
2025-01-17 01:39:44.24	13.28	15.35	
2025-01-17 01:39:44.44	13.27	15.38	
2025-01-17 01:39:44.64	13.27	15.40	
2025-01-17 01:39:44.84	13.26	15.42	
2025-01-17 01:39:45.05	13.25	15.45	
2025-01-17 01:39:45.25	13.25	15.47	
2025-01-17 01:39:45.45	13.24	15.50	
2025-01-17 01:39:45.66	13.23	15.52	
2025-01-17 01:39:45.86	13.23	15.54	
2025-01-17 01:39:46.06	13.22	15.57	
2025-01-17 01:39:46.26	13.21	15.59	
2025-01-17 01:39:46.47	13.21	15.62	
2025-01-17 01:39:46.67	13.20	15.64	
2025-01-17 01:39:46.87	13.19	15.66	
2025-01-17 01:39:47.08	13.18	15.69	
2025-01-17 01:39:47.28	13.18	15.71	
2025-01-17 01:39:47.48	13.17	15.74	
2025-01-17 01:39:47.69	13.16	15.76	
2025-01-17 01:39:47.89	13.16	15.79	
2025-01-17 01:39:48.09	13.15	15.81	
2025-01-17 01:39:48.29	13.14	15.83	
2025-01-17 01:39:48.50	13.14	15.86	
2025-01-17 01:39:48.70	13.13	15.88	
2025-01-17 01:39:48.90	13.12	15.91	
2025-01-17 01:39:49.11	13.11	15.93	
2025-01-17 01:39:49.31	13.11	15.96	
2025-01-17 01:39:49.51	13.10	15.98	
2025-01-17 01:39:49.72	13.09	16.00	
2025-01-17 01:39:49.92	13.09	16.03	
2025-01-17 01:39:50.12	13.08	16.05	
2025-01-17 01:39:50.32	13.07	16.08	
2025-01-17 01:39:50.53	13.06	16.10	
2025-01-17 01:39:50.73	13.06	16.13	
2025-01-17 01:39:50.93	13.05	16.15	
2025-01-17 01:39:51.14	13.04	16.18	
2025-01-17 01:39:51.34	13.04	16.20	
2025-01-17 01:39:51.54	13.03	16.22	
2025-01-17 01:39:51.74	13.02	16.25	
2025-01-17 01:39:51.95	13.01	16.27	
2025-01-17 01:39:52.15	13.01	16.30	
2025-01-17 01:39:52.35	13.00	16.32	
2025-01-17 01:39:52.56	12.99	16.35	
2025-01-17 01:39:52.76	12.98	16.37	
2025-01-17 01:39:52.96	12.98	16.40	
2025-01-17 01:39:53.17	12.97	16.42	
2025-01-17 01:39:53.37	12.96	16.45	
2025-01-17 01:39:53.57	12.96	16.47	
2025-01-17 01:39:53.77	12.95	16.50	
2025-01-17 01:39:53.98	12.94	16.52	
2025-01-17 01:39:54.18	12.93	16.55	
2025-01-17 01:39:54.38	12.93	16.57	
2025-01-17 01:39:54.59	12.92	16.60	
2025-01-17 01:39:54.79	12.91	16.62	
2025-01-17 01:39:54.99	12.90	16.65	
2025-01-17 01:39:55.20	12.90	16.67	
2025-01-17 01:39:55.40	12.89	16.70	
2025-01-17 01:39:55.60	12.88	16.72	
2025-01-17 01:39:55.80	12.87	16.75	
2025-01-17 01:39:56.01	12.87	16.78	
2025-01-17 01:39:56.21	12.86	16.80	
2025-01-17 01:39:56.41	12.85	16.83	
2025-01-17 01:39:56.62	12.84	16.85	
2025-01-17 01:39:56.82	12.84	16.88	
2025-01-17 01:39:57.02	12.83	16.90	
2025-01-17 01:39:57.22	12.82	16.93	
2025-01-17 01:39:57.43	12.81	16.95	
2025-01-17 01:39:57.63	12.80	16.98	
2025-01-17 01:39:57.83	12.80	17.00	
2025-01-17 01:39:58.04	12.79	17.03	
2025-01-17 01:39:58.24	12.78	17.06	
2025-01-17 01:39:58.44	12.77	17.08	
2025-01-17 01:39:58.65	12.77	17.11	
2025-01-17 01:39:58.85	12.76	17.13	
2025-01-17 01:39:59.05	12.75	17.16	
2025-01-17 01:39:59.25	12.74	17.18	
2025-01-17 01:39:59.46	12.73	17.21	
2025-01-17 01:39:59.66	12.73	17.24	
2025-01-17 01:39:59.86	12.72	17.26	
2025-01-17 01:40:00.07	12.71	17.29	
2025-01-17 01:40:00.27	12.70	17.31	
2025-01-17 01:40:00.47	12.70	17.34	
2025-01-17 01:40:00.68	12.69	17.37	
2025-01-17 01:40:00.88	12.68	17.39	
2025-01-17 01:40:01.08	12.67	17.42	
2025-01-17 01:40:01.28	12.66	17.44	
2025-01-17 01:40:01.49	12.66	17.47	
2025-01-17 01:40:01.69	12.65	17.49	
2025-01-17 01:40:01.89	12.64	17.52	
2025-01-17 01:40:02.10	12.63	17.55	
2025-01-17 01:40:02.30	12.62	17.57	
2025-01-17 01:40:02.50	12.62	17.60	
2025-01-17 01:40:02.71	12.61	17.63	
2025-01-17 01:40:02.91	12.60	17.65	
2025-01-17 01:40:03.11	12.59	17.68	
2025-01-17 01:40:03.31	12.58	17.70	
2025-01-17 01:40:03.52	12.58	17.73	
2025-01-17 01:40:03.72	12.57	17.76	
2025-01-17 01:40:03.92	12.56	17.78	
2025-01-17 01:40:04.13	12.55	17.81	
2025-01-17 01:40:04.33	12.54	17.84	
2025-01-17 01:40:04.53	12.53	17.86	
2025-01-17 01:40:04.73	12.53	17.89	
2025-01-17 01:40:04.94	12.52	17.92	
2025-01-17 01:40:05.14	12.51	17.94	
2025-01-17 01:40:05.34	12.50	17.97	
2025-01-17 01:40:05.55	12.49	18.00	
2025-01-17 01:40:05.75	12.48	18.02	
2025-01-17 01:40:05.95	12.48	18.05	
2025-01-17 01:40:06.16	12.47	18.08	
2025-01-17 01:40:06.36	12.46	18.10	
2025-01-17 01:40:06.56	12.45	18.13	
2025-01-17 01:40:06.76	12.44	18.16	
2025-01-17 01:40:06.97	12.43	18.18	
2025-01-17 01:40:07.17	12.43	18.21	
2025-01-17 01:40:07.37	12.42	18.24	
2025-01-17 01:40:07.58	12.41	18.27	
2025-01-17 01:40:07.78	12.40	18.29	
2025-01-17 01:40:07.98	12.39	18.32	
2025-01-17 01:40:08.19	12.38	18.35	
2025-01-17 01:40:08.39	12.37	18.37	
2025-01-17 01:40:08.59	12.37	18.40	
2025-01-17 01:40:08.79	12.36	18.43	
2025-01-17 01:40:09.00	12.35	18.46	
2025-01-17 01:40:09.20	12.34	18.48	
2025-01-17 01:40:09.40	12.33	18.51	
2025-01-17 01:40:09.61	12.32	18.54	
2025-01-17 01:40:09.81	12.31	18.56	
2025-01-17 01:40:10.01	12.31	18.59	
2025-01-17 01:40:10.21	12.30	18.62	
2025-01-17 01:40:10.42	12.29	18.65	
2025-01-17 01:40:10.62	12.28	18.67	
2025-01-17 01:40:10.82	12.27	18.70	
2025-01-17 01:40:11.03	12.26	18.73	
2025-01-17 01:40:11.23	12.25	18.76	
2025-01-17 01:40:11.43	12.24	18.78	
2025-01-17 01:40:11.64	12.24	18.81	
2025-01-17 01:40:11.84	12.23	18.84	
2025-01-17 01:40:12.04	12.22	18.87	
2025-01-17 01:40:12.24	12.21	18.89	
2025-01-17 01:40:12.45	12.20	18.92	
2025-01-17 01:40:12.65	12.19	18.95	
2025-01-17 01:40:12.85	12.18	18.98	
2025-01-17 01:40:13.06	12.17	19.01	
2025-01-17 01:40:13.26	12.16	19.03	
2025-01-17 01:40:13.46	12.16	19.06	
2025-01-17 01:40:13.67	12.15	19.09	
2025-01-17 01:40:13.87	12.14	19.12	
2025-01-17 01:40:14.07	12.13	19.15	
2025-01-17 01:40:14.27	12.12	19.17	
2025-01-17 01:40:14.48	12.11	19.20	
2025-01-17 01:40:14.68	12.10	19.23	
2025-01-17 01:40:14.88	12.09	19.26	
2025-01-17 01:40:15.09	12.08	19.29	
2025-01-17 01:40:15.29	12.07	19.32	
2025-01-17 01:40:15.49	12.06	19.34	
2025-01-17 01:40:15.69	12.06	19.37	
2025-01-17 01:40:15.90	12.05	19.40	
2025-01-17 01:40:16.10	12.04	19.43	
2025-01-17 01:40:16.30	12.03	19.46	
2025-01-17 01:40:16.51	12.02	19.49	
2025-01-17 01:40:16.71	12.01	19.51	
2025-01-17 01:40:16.91	12.00	19.54	
2025-01-17 01:40:17.12	11.99	19.57	
2025-01-17 01:40:17.32	11.98	19.60	
2025-01-17 01:40:17.52	11.97	19.63	
2025-01-17 01:40:17.72	11.96	19.66	
2025-01-17 01:40:17.93	11.95	19.69	
2025-01-17 01:40:18.13	11.94	19.71	
2025-01-17 01:40:18.33	11.93	19.74	
2025-01-17 01:40:18.54	11.92	19.77	
2025-01-17 01:40:18.74	11.91	19.80	
2025-01-17 01:40:18.94	11.91	19.83	
2025-01-17 01:40:19.15	11.90	19.86	
2025-01-17 01:40:19.35	11.89	19.89	
2025-01-17 01:40:19.55	11.88	19.92	
2025-01-17 01:40:19.75	11.87	19.95	
2025-01-17 01:40:19.96	11.86	19.98	
2025-01-17 01:40:20.16	11.85	20.00	
2025-01-17 01:40:20.36	11.84	20.03	
2025-01-17 01:40:20.57	11.83	20.06	
2025-01-17 01:40:20.77	11.82	20.09	
2025-01-17 01:40:20.97	11.81	20.12	
2025-01-17 01:40:21.18	11.80	20.15	
2025-01-17 01:40:21.38	11.79	20.18	
2025-01-17 01:40:21.58	11.78	20.21	
2025-01-17 01:40:21.78	11.77	20.24	
2025-01-17 01:40:21.99	11.76	20.27	
2025-01-17 01:40:22.19	11.75	20.30	
2025-01-17 01:40:22.39	11.74	20.33	
2025-01-17 01:40:22.60	11.73	20.36	
2025-01-17 01:40:22.80	11.72	20.39	
2025-01-17 01:40:23.00	11.71	20.42	
2025-01-17 01:40:23.20	11.70	20.44	
2025-01-17 01:40:23.41	11.69	20.47	
2025-01-17 01:40:23.61	11.68	20.50	
2025-01-17 01:40:23.81	11.67	20.53	
2025-01-17 01:40:24.02	11.66	20.56	
2025-01-17 01:40:24.22	11.65	20.59	
2025-01-17 01:40:24.42	11.64	20.62	
2025-01-17 01:40:24.63	11.63	20.65	
2025-01-17 01:40:24.83	11.62	20.68	
2025-01-17 01:40:25.03	11.61	20.71	
2025-01-17 01:40:25.23	11.60	20.74	
2025-01-17 01:40:25.44	11.59	20.77	
2025-01-17 01:40:25.64	11.58	20.80	
2025-01-17 01:40:25.84	11.57	20.83	
2025-01-17 01:40:26.05	11.56	20.86	
2025-01-17 01:40:26.25	11.55	20.89	
2025-01-17 01:40:26.45	11.54	20.92	
2025-01-17 01:40:26.66	11.53	20.96	
2025-01-17 01:40:26.86	11.52	20.99	
2025-01-17 01:40:27.06	11.51	21.02	
2025-01-17 01:40:27.26	11.50	21.05	
2025-01-17 01:40:27.47	11.49	21.08	
2025-01-17 01:40:27.67	11.47	21.11	
2025-01-17 01:40:27.87	11.46	21.14	
2025-01-17 01:40:28.08	11.45	21.17	
2025-01-17 01:40:28.28	11.44	21.20	
2025-01-17 01:40:28.48	11.43	21.23	
2025-01-17 01:40:28.68	11.42	21.26	
2025-01-17 01:40:28.89	11.41	21.29	
2025-01-17 01:40:29.09	11.40	21.32	
2025-01-17 01:40:29.29	11.39	21.35	
2025-01-17 01:40:29.50	11.38	21.38	
2025-01-17 01:40:29.70	11.37	21.41	
2025-01-17 01:40:29.90	11.36	21.44	
2025-01-17 01:40:30.11	11.35	21.48	
2025-01-17 01:40:30.31	11.34	21.51	
2025-01-17 01:40:30.51	11.33	21.54	
2025-01-17 01:40:30.71	11.32	21.57	
2025-01-17 01:40:30.92	11.30	21.60	
2025-01-17 01:40:31.12	11.29	21.63	
2025-01-17 01:40:31.32	11.28	21.66	
2025-01-17 01:40:31.53	11.27	21.69	
2025-01-17 01:40:31.73	11.26	21.73	
2025-01-17 01:40:31.93	11.25	21.76	
2025-01-17 01:40:32.14	11.24	21.79	
2025-01-17 01:40:32.34	11.23	21.82	
2025-01-17 01:40:32.54	11.22	21.85	
2025-01-17 01:40:32.74	11.21	21.88	
2025-01-17 01:40:32.95	11.19	21.91	
2025-01-17 01:40:33.15	11.18	21.95	
2025-01-17 01:40:33.35	11.17	21.98	
2025-01-17 01:40:33.56	11.16	22.01	
2025-01-17 01:40:33.76	11.15	22.04	
2025-01-17 01:40:33.96	11.14	22.07	
2025-01-17 01:40:34.16	11.13	22.10	
2025-01-17 01:40:34.37	11.12	22.14	
2025-01-17 01:40:34.57	11.10	22.17	
2025-01-17 01:40:34.77	11.09	22.20	
2025-01-17 01:40:34.98	11.08	22.23	
2025-01-17 01:40:35.18	11.07	22.26	
2025-01-17 01:40:35.38	11.06	22.30	
2025-01-17 01:40:35.59	11.05	22.33	
2025-01-17 01:40:35.79	11.04	22.36	
2025-01-17 01:40:35.99	11.02	22.39	
2025-01-17 01:40:36.19	11.01	22.42	
2025-01-17 01:40:36.40	11.00	22.46	
2025-01-17 01:40:36.60	10.99	22.49	
2025-01-17 01:40:36.80	10.98	22.52	
2025-01-17 01:40:37.01	10.97	22.55	
2025-01-17 01:40:37.21	10.95	22.59	
2025-01-17 01:40:37.41	10.94	22.62	
2025-01-17 01:40:37.62	10.93	22.65	
2025-01-17 01:40:37.82	10.92	22.68	
2025-01-17 01:40:38.02	10.91	22.72	
2025-01-17 01:40:38.22	10.90	22.75	
2025-01-17 01:40:38.43	10.88	22.78	
2025-01-17 01:40:38.63	10.87	22.81	
2025-01-17 01:40:38.83	10.86	22.85	
2025-01-17 01:40:39.04	10.85	22.88	
2025-01-17 01:40:39.24	10.84	22.91	
2025-01-17 01:40:39.44	10.82	22.95	
2025-01-17 01:40:39.65	10.81	22.98	
2025-01-17 01:40:39.85	10.80	23.01	
2025-01-17 01:40:40.05	10.79	23.05	
2025-01-17 01:40:40.25	10.78	23.08	
2025-01-17 01:40:40.46	10.76	23.11	
2025-01-17 01:40:40.66	10.75	23.14	
2025-01-17 01:40:40.86	10.74	23.18	
2025-01-17 01:40:41.07	10.73	23.21	
2025-01-17 01:40:41.27	10.72	23.24	
2025-01-17 01:40:41.47	10.70	23.28	
2025-01-17 01:40:41.67	10.69	23.31	
2025-01-17 01:40:41.88	10.68	23.35	
2025-01-17 01:40:42.08	10.67	23.38	
2025-01-17 01:40:42.28	10.65	23.41	
2025-01-17 01:40:42.49	10.64	23.45	
2025-01-17 01:40:42.69	10.63	23.48	
2025-01-17 01:40:42.89	10.62	23.51	
2025-01-17 01:40:43.10	10.60	23.55	
2025-01-17 01:40:43.30	10.59	23.58	
2025-01-17 01:40:43.50	10.58	23.61	
2025-01-17 01:40:43.70	10.57	23.65	
2025-01-17 01:40:43.91	10.55	23.68	
2025-01-17 01:40:44.11	10.54	23.72	
2025-01-17 01:40:44.31	10.53	23.75	
2025-01-17 01:40:44.52	10.52	23.78	
2025-01-17 01:40:44.72	10.50	23.82	
2025-01-17 01:40:44.92	10.49	23.85	
2025-01-17 01:40:45.13	10.48	23.89	
2025-01-17 01:40:45.33	10.47	23.92	
2025-01-17 01:40:45.53	10.45	23.96	
2025-01-17 01:40:45.73	10.44	23.99	
2025-01-17 01:40:45.94	10.43	24.02	
2025-01-17 01:40:46.14	10.41	24.06	
2025-01-17 01:40:46.34	10.40	24.09	
2025-01-17 01:40:46.55	10.39	24.13	
2025-01-17 01:40:46.75	10.37	24.16	
2025-01-17 01:40:46.95	10.36	24.20	
2025-01-17 01:40:47.15	10.35	24.23	
2025-01-17 01:40:47.36	10.34	24.27	
2025-01-17 01:40:47.56	10.32	24.30	
2025-01-17 01:40:47.76	10.31	24.34	
2025-01-17 01:40:47.97	10.30	24.37	
2025-01-17 01:40:48.17	10.28	24.41	
2025-01-17 01:40:48.37	10.27	24.44	
2025-01-17 01:40:48.58	10.26	24.48	
2025-01-17 01:40:48.78	10.24	24.51	
2025-01-17 01:40:48.98	10.23	24.55	
2025-01-17 01:40:49.18	10.22	24.58	
2025-01-17 01:40:49.39	10.20	24.62	
2025-01-17 01:40:49.59	10.19	24.65	
2025-01-17 01:40:49.79	10.18	24.69	
2025-01-17 01:40:50.00	10.16	24.72	
2025-01-17 01:40:50.20	10.15	24.76	
2025-01-17 01:40:50.40	10.13	24.79	
2025-01-17 01:40:50.61	10.12	24.83	
2025-01-17 01:40:50.81	10.11	24.86	
2025-01-17 01:40:51.01	10.09	24.90	
2025-01-17 01:40:51.21	10.08	24.93	
2025-01-17 01:40:51.42	10.07	24.97	
2025-01-17 01:40:51.62	10.05	25.01	
2025-01-17 01:40:51.82	10.04	25.04	
2025-01-17 01:40:52.03	10.02	25.08	
2025-01-17 01:40:52.23	10.01	25.11	
2025-01-17 01:40:52.43	10.00	25.15	
2025-01-17 01:40:52.63	9.98	25.19	
2025-01-17 01:40:52.84	9.97	25.22	
2025-01-17 01:40:53.04	9.95	25.26	
2025-01-17 01:40:53.24	9.94	25.29	
2025-01-17 01:40:53.45	9.93	25.33	
2025-01-17 01:40:53.65	9.91	25.37	
2025-01-17 01:40:53.85	9.90	25.40	
2025-01-17 01:40:54.06	9.88	25.44	
2025-01-17 01:40:54.26	9.87	25.48	
2025-01-17 01:40:54.46	9.85	25.51	
2025-01-17 01:40:54.66	9.84	25.55	
2025-01-17 01:40:54.87	9.83	25.59	
2025-01-17 01:40:55.07	9.81	25.62	
2025-01-17 01:40:55.27	9.80	25.66	
2025-01-17 01:40:55.48	9.78	25.70	
2025-01-17 01:40:55.68	9.77	25.73	
2025-01-17 01:40:55.88	9.75	25.77	
2025-01-17 01:40:56.09	9.74	25.81	
2025-01-17 01:40:56.29	9.72	25.84	
2025-01-17 01:40:56.49	9.71	25.88	
2025-01-17 01:40:56.69	9.69	25.92	
2025-01-17 01:40:56.90	9.68	25.96	
2025-01-17 01:40:57.10	9.66	25.99	
2025-01-17 01:40:57.30	9.65	26.03	
2025-01-17 01:40:57.51	9.63	26.07	
2025-01-17 01:40:57.71	9.62	26.10	
2025-01-17 01:40:57.91	9.61	26.14	
2025-01-17 01:40:58.12	9.59	26.18	
2025-01-17 01:40:58.32	9.58	26.22	
2025-01-17 01:40:58.52	9.56	26.25	
2025-01-17 01:40:58.72	9.55	26.29	
2025-01-17 01:40:58.93	9.53	26.33	
2025-01-17 01:40:59.13	9.51	26.37	
2025-01-17 01:40:59.33	9.50	26.40	
2025-01-17 01:40:59.54	9.48	26.44	
2025-01-17 01:40:59.74	9.47	26.48	
2025-01-17 01:40:59.94	9.45	26.52	
2025-01-17 01:41:00.14	9.44	26.56	
2025-01-17 01:41:00.35	9.42	26.60	
2025-01-17 01:41:00.55	9.41	26.63	
2025-01-17 01:41:00.75	9.39	26.67	
2025-01-17 01:41:00.96	9.38	26.71	
2025-01-17 01:41:01.16	9.36	26.75	
2025-01-17 01:41:01.36	9.35	26.79	
2025-01-17 01:41:01.57	9.33	26.83	
2025-01-17 01:41:01.77	9.31	26.86	
2025-01-17 01:41:01.97	9.30	26.90	
2025-01-17 01:41:02.17	9.28	26.94	
2025-01-17 01:41:02.38	9.27	26.98	
2025-01-17 01:41:02.58	9.25	27.02	
2025-01-17 01:41:02.78	9.23	27.06	
2025-01-17 01:41:02.99	9.22	27.10	
2025-01-17 01:41:03.19	9.20	27.13	
2025-01-17 01:41:03.39	9.19	27.17	
2025-01-17 01:41:03.60	9.17	27.21	
2025-01-17 01:41:03.80	9.15	27.25	
2025-01-17 01:41:04.00	9.14	27.29	
2025-01-17 01:41:04.20	9.12	27.33	
2025-01-17 01:41:04.41	9.11	27.37	
2025-01-17 01:41:04.61	9.09	27.41	
2025-01-17 01:41:04.81	9.07	27.45	
2025-01-17 01:41:05.02	9.06	27.49	
2025-01-17 01:41:05.22	9.04	27.53	
2025-01-17 01:41:05.42	9.02	27.56	
2025-01-17 01:41:05.62	9.01	27.60	
2025-01-17 01:41:05.83	8.99	27.64	
2025-01-17 01:41:06.03	8.97	27.68	
2025-01-17 01:41:06.23	8.96	27.72	
2025-01-17 01:41:06.44	8.94	27.76	
2025-01-17 01:41:06.64	8.92	27.80	
2025-01-17 01:41:06.84	8.91	27.84	
2025-01-17 01:41:07.05	8.89	27.88	
2025-01-17 01:41:07.25	8.87	27.92	
2025-01-17 01:41:07.45	8.86	27.96	
2025-01-17 01:41:07.65	8.84	28.00	
2025-01-17 01:41:07.86	8.82	28.04	
2025-01-17 01:41:08.06	8.81	28.08	
2025-01-17 01:41:08.26	8.79	28.12	
2025-01-17 01:41:08.47	8.77	28.17	
2025-01-17 01:41:08.67	8.75	28.21	
2025-01-17 01:41:08.87	8.74	28.24	
2025-01-17 01:41:09.08	8.72	28.29	
2025-01-17 01:41:09.28	8.70	28.33	
2025-01-17 01:41:09.48	8.68	28.37	
2025-01-17 01:41:09.68	8.67	28.41	
2025-01-17 01:41:09.89	8.65	28.45	
2025-01-17 01:41:10.09	8.63	28.49	
2025-01-17 01:41:10.29	8.61	28.53	
2025-01-17 01:41:10.50	8.60	28.57	
2025-01-17 01:41:10.70	8.58	28.61	
2025-01-17 01:41:10.90	8.56	28.65	
2025-01-17 01:41:11.10	8.54	28.69	
2025-01-17 01:41:11.31	8.53	28.74	
2025-01-17 01:41:11.51	8.51	28.78	
2025-01-17 01:41:11.71	8.49	28.82	
2025-01-17 01:41:11.92	8.47	28.86	
2025-01-17 01:41:12.12	8.45	28.90	
2025-01-17 01:41:12.32	8.44	28.94	
2025-01-17 01:41:12.53	8.42	28.99	
2025-01-17 01:41:12.73	8.40	29.03	
2025-01-17 01:41:12.93	8.38	29.07	
2025-01-17 01:41:13.13	8.36	29.11	
2025-01-17 01:41:13.34	8.34	29.15	
2025-01-17 01:41:13.54	8.33	29.19	
2025-01-17 01:41:13.74	8.31	29.24	
2025-01-17 01:41:13.95	8.29	29.28	
2025-01-17 01:41:14.15	8.27	29.32	
2025-01-17 01:41:14.35	8.25	29.36	
2025-01-17 01:41:14.56	8.23	29.41	
2025-01-17 01:41:14.76	8.21	29.45	
2025-01-17 01:41:14.96	8.20	29.49	
2025-01-17 01:41:15.16	8.18	29.53	
2025-01-17 01:41:15.37	8.16	29.57	
2025-01-17 01:41:15.57	8.14	29.62	
2025-01-17 01:41:15.77	8.12	29.66	
2025-01-17 01:41:15.98	8.10	29.70	
2025-01-17 01:41:16.18	8.08	29.75	
2025-01-17 01:41:16.38	8.06	29.79	
2025-01-17 01:41:16.58	8.04	29.83	
2025-01-17 01:41:16.79	8.02	29.87	
2025-01-17 01:41:16.99	8.01	29.92	
2025-01-17 01:41:17.19	7.99	29.96	
2025-01-17 01:41:17.40	7.97	30.00	
2025-01-17 01:41:17.60	7.95	30.05	
2025-01-17 01:41:17.80	7.93	30.09	
2025-01-17 01:41:18.01	7.91	30.13	
2025-01-17 01:41:18.21	7.89	30.18	
2025-01-17 01:41:18.41	7.87	30.22	
2025-01-17 01:41:18.61	7.85	30.26	
2025-01-17 01:41:18.82	7.83	30.31	
2025-01-17 01:41:19.02	7.81	30.35	
2025-01-17 01:41:19.22	7.79	30.39	
2025-01-17 01:41:19.43	7.77	30.44	
2025-01-17 01:41:19.63	7.75	30.48	
2025-01-17 01:41:19.83	7.73	30.53	
2025-01-17 01:41:20.04	7.71	30.57	
2025-01-17 01:41:20.24	7.69	30.61	
2025-01-17 01:41:20.44	7.67	30.66	
2025-01-17 01:41:20.64	7.65	30.70	
2025-01-17 01:41:20.85	7.63	30.75	
2025-01-17 01:41:21.05	7.61	30.79	
2025-01-17 01:41:21.25	7.59	30.84	
2025-01-17 01:41:21.46	7.57	30.88	
2025-01-17 01:41:21.66	7.55	30.93	
2025-01-17 01:41:21.86	7.52	30.97	
2025-01-17 01:41:22.07	7.50	31.02	
2025-01-17 01:41:22.27	7.48	31.06	
2025-01-17 01:41:22.47	7.46	31.10	
2025-01-17 01:41:22.67	7.44	31.15	
2025-01-17 01:41:22.88	7.42	31.19	
2025-01-17 01:41:23.08	7.40	31.24	
2025-01-17 01:41:23.28	7.38	31.28	
2025-01-17 01:41:23.49	7.36	31.33	
2025-01-17 01:41:23.69	7.34	31.37	
2025-01-17 01:41:23.89	7.31	31.42	
2025-01-17 01:41:24.09	7.29	31.46	
2025-01-17 01:41:24.30	7.27	31.51	
2025-01-17 01:41:24.50	7.25	31.56	
2025-01-17 01:41:24.70	7.23	31.60	
2025-01-17 01:41:24.91	7.21	31.65	
2025-01-17 01:41:25.11	7.18	31.69	
2025-01-17 01:41:25.31	7.16	31.74	
2025-01-17 01:41:25.52	7.14	31.79	
2025-01-17 01:41:25.72	7.12	31.83	
2025-01-17 01:41:25.92	7.10	31.88	
2025-01-17 01:41:26.12	7.08	31.92	
2025-01-17 01:41:26.33	7.05	31.97	
2025-01-17 01:41:26.53	7.03	32.02	
2025-01-17 01:41:26.73	7.01	32.06	
2025-01-17 01:41:26.94	6.99	32.11	
2025-01-17 01:41:27.14	6.96	32.16	
2025-01-17 01:41:27.34	6.94	32.20	
2025-01-17 01:41:27.55	6.92	32.25	
2025-01-17 01:41:27.75	6.90	32.30	
2025-01-17 01:41:27.95	6.87	32.34	
2025-01-17 01:41:28.15	6.85	32.39	
2025-01-17 01:41:28.36	6.83	32.44	
2025-01-17 01:41:28.56	6.81	32.48	
2025-01-17 01:41:28.76	6.78	32.53	
2025-01-17 01:41:28.97	6.76	32.58	
2025-01-17 01:41:29.17	6.74	32.62	
2025-01-17 01:41:29.37	6.71	32.67	
2025-01-17 01:41:29.57	6.69	32.72	
2025-01-17 01:41:29.78	6.67	32.77	
2025-01-17 01:41:29.98	6.64	32.81	
2025-01-17 01:41:30.18	6.62	32.86	
2025-01-17 01:41:30.39	6.60	32.91	
2025-01-17 01:41:30.59	6.57	32.96	
2025-01-17 01:41:30.79	6.55	33.00	
2025-01-17 01:41:31.00	6.53	33.05	
2025-01-17 01:41:31.20	6.50	33.10	
2025-01-17 01:41:31.40	6.48	33.15	
2025-01-17 01:41:31.60	6.45	33.20	
2025-01-17 01:41:31.81	6.43	33.25	
2025-01-17 01:41:32.01	6.41	33.29	
2025-01-17 01:41:32.21	6.38	33.34	
2025-01-17 01:41:32.42	6.36	33.39	
2025-01-17 01:41:32.62	6.33	33.44	
2025-01-17 01:41:32.82	6.31	33.49	
2025-01-17 01:41:33.03	6.28	33.54	
2025-01-17 01:41:33.23	6.26	33.59	
2025-01-17 01:41:33.43	6.24	33.63	
2025-01-17 01:41:33.63	6.21	33.68	
2025-01-17 01:41:33.84	6.19	33.73	
2025-01-17 01:41:34.04	6.16	33.78	
2025-01-17 01:41:34.24	6.14	33.83	
2025-01-17 01:41:34.45	6.11	33.88	
2025-01-17 01:41:34.65	6.09	33.93	
2025-01-17 01:41:34.85	6.06	33.98	
2025-01-17 01:41:35.05	6.04	34.03	
2025-01-17 01:41:35.26	6.01	34.08	
2025-01-17 01:41:35.46	5.98	34.13	
2025-01-17 01:41:35.66	5.96	34.17	
2025-01-17 01:41:35.87	5.93	34.23	
2025-01-17 01:41:36.07	5.91	34.28	
2025-01-17 01:41:36.27	5.88	34.32	
2025-01-17 01:41:36.48	5.86	34.38	
2025-01-17 01:41:36.68	5.83	34.43	
2025-01-17 01:41:36.88	5.80	34.47	
2025-01-17 01:41:37.08	5.78	34.52	
2025-01-17 01:41:37.29	5.75	34.58	
2025-01-17 01:41:37.49	5.73	34.63	
2025-01-17 01:41:37.69	5.70	34.68	
2025-01-17 01:41:37.90	5.67	34.73	
2025-01-17 01:41:38.10	5.65	34.78	
2025-01-17 01:41:38.30	5.62	34.83	
2025-01-17 01:41:38.51	5.59	34.88	
2025-01-17 01:41:38.71	5.57	34.93	
2025-01-17 01:41:38.91	5.54	34.98	
2025-01-17 01:41:39.11	5.51	35.03	
2025-01-17 01:41:39.32	5.49	35.08	
2025-01-17 01:41:39.52	5.46	35.13	
2025-01-17 01:41:39.72	5.43	35.18	
2025-01-17 01:41:39.93	5.40	35.24	
2025-01-17 01:41:40.13	5.38	35.29	
2025-01-17 01:41:40.33	5.35	35.34	
2025-01-17 01:41:40.54	5.32	35.39	
2025-01-17 01:41:40.74	5.29	35.44	
2025-01-17 01:41:40.94	5.27	35.49	
2025-01-17 01:41:41.14	5.24	35.55	
2025-01-17 01:41:41.35	5.21	35.60	
2025-01-17 01:41:41.55	5.18	35.65	
2025-01-17 01:41:41.75	5.15	35.70	
2025-01-17 01:41:41.96	5.12	35.76	
2025-01-17 01:41:42.16	5.10	35.81	
2025-01-17 01:41:42.36	5.07	35.86	
2025-01-17 01:41:42.56	5.04	35.91	
2025-01-17 01:41:42.77	5.01	35.97	
2025-01-17 01:41:42.97	4.98	36.02	
2025-01-17 01:41:43.17	4.95	36.07	
2025-01-17 01:41:43.38	4.92	36.12	
2025-01-17 01:41:43.58	4.90	36.18	
2025-01-17 01:41:43.78	4.87	36.23	
2025-01-17 01:41:43.99	4.84	36.28	
2025-01-17 01:41:44.19	4.81	36.33	
2025-01-17 01:41:44.39	4.78	36.39	
2025-01-17 01:41:44.59	4.75	36.44	
2025-01-17 01:41:44.80	4.72	36.49	
2025-01-17 01:41:45.00	4.69	36.55	
2025-01-17 01:41:45.20	4.66	36.60	
2025-01-17 01:41:45.41	4.63	36.66	
2025-01-17 01:41:45.61	4.60	36.71	
2025-01-17 01:41:45.81	4.57	36.76	
2025-01-17 01:41:46.02	4.54	36.82	
2025-01-17 01:41:46.22	4.51	36.87	
2025-01-17 01:41:46.42	4.48	36.92	
2025-01-17 01:41:46.62	4.45	36.98	
2025-01-17 01:41:46.83	4.42	37.03	
2025-01-17 01:41:47.03	4.39	37.09	
2025-01-17 01:41:47.23	4.36	37.14	
2025-01-17 01:41:47.44	4.32	37.20	
2025-01-17 01:41:47.64	4.29	37.25	
2025-01-17 01:41:47.84	4.26	37.30	
2025-01-17 01:41:48.04	4.23	37.36	
2025-01-17 01:41:48.25	4.20	37.41	
2025-01-17 01:41:48.45	4.17	37.47	
2025-01-17 01:41:48.65	4.14	37.52	
2025-01-17 01:41:48.86	4.10	37.58	
2025-01-17 01:41:49.06	4.07	37.63	
2025-01-17 01:41:49.26	4.04	37.69	
2025-01-17 01:41:49.47	4.01	37.75	
2025-01-17 01:41:49.67	3.98	37.80	
2025-01-17 01:41:49.87	3.94	37.85	
2025-01-17 01:41:50.07	3.91	37.91	
2025-01-17 01:41:50.28	3.88	37.97	
2025-01-17 01:41:50.48	3.85	38.02	
2025-01-17 01:41:50.68	3.81	38.08	
2025-01-17 01:41:50.89	3.78	38.13	
2025-01-17 01:41:51.09	3.75	38.19	
2025-01-17 01:41:51.29	3.72	38.24	
2025-01-17 01:41:51.50	3.68	38.30	
2025-01-17 01:41:51.70	3.65	38.36	
2025-01-17 01:41:51.90	3.61	38.41	
2025-01-17 01:41:52.10	3.58	38.47	
2025-01-17 01:41:52.31	3.55	38.53	
2025-01-17 01:41:52.51	3.51	38.58	
2025-01-17 01:41:52.71	3.48	38.64	
2025-01-17 01:41:52.92	3.44	38.70	
2025-01-17 01:41:53.12	3.41	38.75	
2025-01-17 01:41:53.32	3.38	38.81	
2025-01-17 01:41:53.52	3.34	38.87	
2025-01-17 01:41:53.73	3.31	38.93	
2025-01-17 01:41:53.93	3.27	38.98	
2025-01-17 01:41:54.13	3.24	39.04	
2025-01-17 01:41:54.34	3.20	39.10	
2025-01-17 01:41:54.54	3.17	39.15	
2025-01-17 01:41:54.74	3.13	39.21	
2025-01-17 01:41:54.95	3.10	39.27	
2025-01-17 01:41:55.15	3.06	39.33	
2025-01-17 01:41:55.35	3.03	39.39	
2025-01-17 01:41:55.55	2.99	39.44	
2025-01-17 01:41:55.76	2.95	39.50	
2025-01-17 01:41:55.96	2.92	39.56	
2025-01-17 01:41:56.16	2.88	39.62	
2025-01-17 01:41:56.37	2.85	39.68	
2025-01-17 01:41:56.57	2.81	39.73	
2025-01-17 01:41:56.77	2.77	39.79	
2025-01-17 01:41:56.98	2.74	39.85	
2025-01-17 01:41:57.18	2.70	39.91	
2025-01-17 01:41:57.38	2.66	39.97	
2025-01-17 01:41:57.58	2.63	40.03	
2025-01-17 01:41:57.79	2.59	40.09	
2025-01-17 01:41:57.99	2.55	40.15	
2025-01-17 01:41:58.19	2.51	40.20	
2025-01-17 01:41:58.40	2.47	40.27	
2025-01-17 01:41:58.60	2.44	40.32	
2025-01-17 01:41:58.80	2.40	40.38	
2025-01-17 01:41:59.00	2.36	40.44	
2025-01-17 01:41:59.21	2.32	40.50	
2025-01-17 01:41:59.41	2.28	40.56	
2025-01-17 01:41:59.61	2.25	40.62	
2025-01-17 01:41:59.82	2.21	40.68	
2025-01-17 01:42:00.02	2.17	40.74	
2025-01-17 01:42:00.22	2.13	40.80	
2025-01-17 01:42:00.43	2.09	40.86	
2025-01-17 01:42:00.63	2.05	40.92	
2025-01-17 01:42:00.83	2.01	40.98	
2025-01-17 01:42:01.03	1.97	41.04	
2025-01-17 01:42:01.24	1.93	41.10	
2025-01-17 01:42:01.44	1.89	41.16	
2025-01-17 01:42:01.64	1.85	41.22	
2025-01-17 01:42:01.85	1.81	41.29	
2025-01-17 01:42:02.05	1.77	41.35	
2025-01-17 01:42:02.25	1.73	41.41	
2025-01-17 01:42:02.46	1.69	41.47	
2025-01-17 01:42:02.66	1.65	41.53	
2025-01-17 01:42:02.86	1.61	41.59	
2025-01-17 01:42:03.06	1.57	41.65	
2025-01-17 01:42:03.27	1.52	41.71	
2025-01-17 01:42:03.47	1.48	41.77	
2025-01-17 01:42:03.67	1.44	41.83	
2025-01-17 01:42:03.88	1.40	41.90	
2025-01-17 01:42:04.08	1.36	41.96	
2025-01-17 01:42:04.28	1.32	42.02	
2025-01-17 01:42:04.49	1.27	42.08	
2025-01-17 01:42:04.69	1.23	42.15	
2025-01-17 01:42:04.89	1.19	42.21	
2025-01-17 01:42:05.09	1.15	42.27	
2025-01-17 01:42:05.30	1.10	42.33	
2025-01-17 01:42:05.50	1.06	42.39	
2025-01-17 01:42:05.70	1.02	42.46	
2025-01-17 01:42:05.91	0.97	42.52	
2025-01-17 01:42:06.11	0.93	42.58	
2025-01-17 01:42:06.31	0.88	42.64	
2025-01-17 01:42:06.51	0.84	42.71	
2025-01-17 01:42:06.72	0.80	42.77	
2025-01-17 01:42:06.92	0.75	42.83	
2025-01-17 01:42:07.12	0.71	42.89	
2025-01-17 01:42:07.33	0.66	42.96	
2025-01-17 01:42:07.53	0.62	43.02	
2025-01-17 01:42:07.73	0.57	43.09	
2025-01-17 01:42:07.94	0.53	43.15	
2025-01-17 01:42:08.14	0.48	43.21	
2025-01-17 01:42:08.34	0.44	43.28	
2025-01-17 01:42:08.54	0.39	43.34	
2025-01-17 01:42:08.75	0.34	43.41	
2025-01-17 01:42:08.95	0.30	43.47	
2025-01-17 01:42:09.15	0.25	43.53	
2025-01-17 01:42:09.36	0.20	43.60	
2025-01-17 01:42:09.56	0.16	43.66	
2025-01-17 01:42:09.76	0.11	43.72	
2025-01-17 01:42:09.97	0.06	43.79	
2025-01-17 01:42:10.17	0.01	43.85	
2025-01-17 01:42:10.37	359.97	43.92	
2025-01-17 01:42:10.57	359.92	43.98	
2025-01-17 01:42:10.78	359.87	44.05	
2025-01-17 01:42:10.98	359.82	44.11	
2025-01-17 01:42:11.18	359.77	44.18	
2025-01-17 01:42:11.39	359.72	44.24	
2025-01-17 01:42:11.59	359.68	44.31	
2025-01-17 01:42:11.79	359.63	44.37	
2025-01-17 01:42:11.99	359.58	44.44	
2025-01-17 01:42:12.20	359.53	44.50	
2025-01-17 01:42:12.40	359.48	44.57	
2025-01-17 01:42:12.60	359.43	44.63	
2025-01-17 01:42:12.81	359.38	44.70	
2025-01-17 01:42:13.01	359.33	44.77	
2025-01-17 01:42:13.21	359.28	44.83	
2025-01-17 01:42:13.42	359.23	44.90	
2025-01-17 01:42:13.62	359.18	44.97	
2025-01-17 01:42:13.82	359.13	45.03	
2025-01-17 01:42:14.02	359.07	45.10	
2025-01-17 01:42:14.23	359.02	45.16	
2025-01-17 01:42:14.43	358.97	45.23	
2025-01-17 01:42:14.63	358.92	45.30	
2025-01-17 01:42:14.84	358.86	45.36	
2025-01-17 01:42:15.04	358.81	45.43	
2025-01-17 01:42:15.24	358.76	45.50	
2025-01-17 01:42:15.45	358.71	45.56	
2025-01-17 01:42:15.65	358.65	45.63	
2025-01-17 01:42:15.85	358.60	45.70	
2025-01-17 01:42:16.05	358.55	45.76	
2025-01-17 01:42:16.26	358.49	45.83	
2025-01-17 01:42:16.46	358.44	45.90	
2025-01-17 01:42:16.66	358.38	45.96	
2025-01-17 01:42:16.87	358.33	46.03	
2025-01-17 01:42:17.07	358.27	46.10	
2025-01-17 01:42:17.27	358.22	46.17	
2025-01-17 01:42:17.48	358.16	46.24	
2025-01-17 01:42:17.68	358.11	46.30	
2025-01-17 01:42:17.88	358.05	46.37	
2025-01-17 01:42:18.08	358.00	46.44	
2025-01-17 01:42:18.29	357.94	46.51	
2025-01-17 01:42:18.49	357.88	46.58	
2025-01-17 01:42:18.69	357.83	46.64	
2025-01-17 01:42:18.90	357.77	46.71	
2025-01-17 01:42:19.10	357.71	46.78	
2025-01-17 01:42:19.30	357.65	46.85	
2025-01-17 01:42:19.50	357.60	46.92	
2025-01-17 01:42:19.71	357.54	46.99	
2025-01-17 01:42:19.91	357.48	47.06	
2025-01-17 01:42:20.11	357.42	47.12	
2025-01-17 01:42:20.32	357.36	47.20	
2025-01-17 01:42:20.52	357.30	47.26	
2025-01-17 01:42:20.72	357.24	47.33	
2025-01-17 01:42:20.93	357.18	47.40	
2025-01-17 01:42:21.13	357.12	47.47	
2025-01-17 01:42:21.33	357.06	47.54	
2025-01-17 01:42:21.53	357.00	47.61	
2025-01-17 01:42:21.74	356.94	47.68	
2025-01-17 01:42:21.94	356.88	47.75	
2025-01-17 01:42:22.14	356.82	47.82	
2025-01-17 01:42:22.35	356.76	47.89	
2025-01-17 01:42:22.55	356.69	47.96	
2025-01-17 01:42:22.75	356.63	48.03	
2025-01-17 01:42:22.96	356.57	48.10	
2025-01-17 01:42:23.16	356.51	48.17	
2025-01-17 01:42:23.36	356.44	48.24	
2025-01-17 01:42:23.56	356.38	48.31	
2025-01-17 01:42:23.77	356.32	48.38	
2025-01-17 01:42:23.97	356.25	48.45	
2025-01-17 01:42:24.17	356.19	48.52	
2025-01-17 01:42:24.38	356.12	48.59	
2025-01-17 01:42:24.58	356.06	48.66	
2025-01-17 01:42:24.78	355.99	48.73	
2025-01-17 01:42:24.98	355.93	48.80	
2025-01-17 01:42:25.19	355.86	48.87	
2025-01-17 01:42:25.39	355.80	48.94	
2025-01-17 01:42:25.59	355.73	49.01	
2025-01-17 01:42:25.80	355.66	49.09	
2025-01-17 01:42:26.00	355.59	49.16	
2025-01-17 01:42:26.20	355.53	49.23	
2025-01-17 01:42:26.41	355.46	49.30	
2025-01-17 01:42:26.61	355.39	49.37	
2025-01-17 01:42:26.81	355.32	49.44	
2025-01-17 01:42:27.01	355.26	49.51	
2025-01-17 01:42:27.22	355.18	49.59	
2025-01-17 01:42:27.42	355.12	49.66	
2025-01-17 01:42:27.62	355.05	49.73	
2025-01-17 01:42:27.83	354.97	49.80	
2025-01-17 01:42:28.03	354.90	49.87	
2025-01-17 01:42:28.23	354.83	49.95	
2025-01-17 01:42:28.44	354.76	50.02	
2025-01-17 01:42:28.64	354.69	50.09	
2025-01-17 01:42:28.84	354.62	50.16	
2025-01-17 01:42:29.04	354.55	50.23	
2025-01-17 01:42:29.25	354.47	50.31	
2025-01-17 01:42:29.45	354.40	50.38	
2025-01-17 01:42:29.65	354.33	50.45	
2025-01-17 01:42:29.86	354.25	50.53	
2025-01-17 01:42:30.06	354.18	50.60	
2025-01-17 01:42:30.26	354.11	50.67	
2025-01-17 01:42:30.46	354.03	50.74	
2025-01-17 01:42:30.67	353.96	50.82	
2025-01-17 01:42:30.87	353.88	50.89	
2025-01-17 01:42:31.07	353.81	50.96	
2025-01-17 01:42:31.28	353.73	51.04	
2025-01-17 01:42:31.48	353.65	51.11	
2025-01-17 01:42:31.68	353.58	51.18	
2025-01-17 01:42:31.89	353.50	51.26	
2025-01-17 01:42:32.09	353.42	51.33	
2025-01-17 01:42:32.29	353.34	51.40	
2025-01-17 01:42:32.49	353.27	51.47	
2025-01-17 01:42:32.70	353.18	51.55	
2025-01-17 01:42:32.90	353.11	51.62	
2025-01-17 01:42:33.10	353.03	51.70	
2025-01-17 01:42:33.31	352.94	51.77	
2025-01-17 01:42:33.51	352.87	51.84	
2025-01-17 01:42:33.71	352.79	51.92	
2025-01-17 01:42:33.92	352.70	51.99	
2025-01-17 01:42:34.12	352.62	52.07	
2025-01-17 01:42:34.32	352.54	52.14	
2025-01-17 01:42:34.52	352.46	52.21	
2025-01-17 01:42:34.73	352.37	52.29	
2025-01-17 01:42:34.93	352.29	52.36	
2025-01-17 01:42:35.13	352.21	52.44	
2025-01-17 01:42:35.34	352.12	52.51	
2025-01-17 01:42:35.54	352.04	52.59	
2025-01-17 01:42:35.74	351.95	52.66	
2025-01-17 01:42:35.95	351.86	52.74	
2025-01-17 01:42:36.15	351.78	52.81	
2025-01-17 01:42:36.35	351.69	52.88	
2025-01-17 01:42:36.55	351.61	52.96	
2025-01-17 01:42:36.76	351.52	53.03	
2025-01-17 01:42:36.96	351.43	53.11	
2025-01-17 01:42:37.16	351.34	53.18	
2025-01-17 01:42:37.37	351.25	53.26	
2025-01-17 01:42:37.57	351.17	53.33	
2025-01-17 01:42:37.77	351.08	53.41	
2025-01-17 01:42:37.97	350.99	53.48	
2025-01-17 01:42:38.18	350.89	53.56	
2025-01-17 01:42:38.38	350.80	53.63	
2025-01-17 01:42:38.58	350.71	53.71	
2025-01-17 01:42:38.79	350.62	53.78	
2025-01-17 01:42:38.99	350.53	53.86	
2025-01-17 01:42:39.19	350.44	53.93	
2025-01-17 01:42:39.40	350.34	54.01	
2025-01-17 01:42:39.60	350.25	54.08	
2025-01-17 01:42:39.80	350.15	54.16	
2025-01-17 01:42:40.00	350.06	54.23	
2025-01-17 01:42:40.21	349.96	54.31	
2025-01-17 01:42:40.41	349.87	54.38	
2025-01-17 01:42:40.61	349.77	54.46	
2025-01-17 01:42:40.82	349.67	54.54	
2025-01-17 01:42:41.02	349.57	54.61	
2025-01-17 01:42:41.22	349.48	54.68	
2025-01-17 01:42:41.43	349.38	54.76	
2025-01-17 01:42:41.63	349.28	54.84	
2025-01-17 01:42:41.83	349.18	54.91	
2025-01-17 01:42:42.03	349.08	54.99	
2025-01-17 01:42:42.24	348.98	55.06	
2025-01-17 01:42:42.44	348.88	55.14	
2025-01-17 01:42:42.64	348.78	55.21	
2025-01-17 01:42:42.85	348.67	55.29	
2025-01-17 01:42:43.05	348.57	55.37	
2025-01-17 01:42:43.25	348.47	55.44	
2025-01-17 01:42:43.45	348.36	55.52	
2025-01-17 01:42:43.66	348.25	55.59	
2025-01-17 01:42:43.86	348.15	55.67	
2025-01-17 01:42:44.06	348.05	55.74	
2025-01-17 01:42:44.27	347.94	55.82	
2025-01-17 01:42:44.47	347.83	55.90	
2025-01-17 01:42:44.67	347.72	55.97	
2025-01-17 01:42:44.88	347.61	56.05	
2025-01-17 01:42:45.08	347.51	56.13	
2025-01-17 01:42:45.28	347.40	56.20	
2025-01-17 01:42:45.48	347.29	56.28	
2025-01-17 01:42:45.69	347.17	56.35	
2025-01-17 01:42:45.89	347.06	56.43	
2025-01-17 01:42:46.09	346.95	56.50	
2025-01-17 01:42:46.30	346.84	56.58	
2025-01-17 01:42:46.50	346.73	56.66	
2025-01-17 01:42:46.70	346.61	56.73	
2025-01-17 01:42:46.91	346.50	56.81	
2025-01-17 01:42:47.11	346.38	56.88	
2025-01-17 01:42:47.31	346.27	56.96	
2025-01-17 01:42:47.51	346.15	57.03	
2025-01-17 01:42:47.72	346.03	57.11	
2025-01-17 01:42:47.92	345.92	57.19	
2025-01-17 01:42:48.12	345.80	57.26	
2025-01-17 01:42:48.33	345.68	57.34	
2025-01-17 01:42:48.53	345.56	57.42	
2025-01-17 01:42:48.73	345.44	57.49	
2025-01-17 01:42:48.93	345.32	57.57	
2025-01-17 01:42:49.14	345.19	57.64	
2025-01-17 01:42:49.34	345.07	57.72	
2025-01-17 01:42:49.54	344.95	57.79	
2025-01-17 01:42:49.75	344.82	57.87	
2025-01-17 01:42:49.95	344.70	57.95	
2025-01-17 01:42:50.15	344.58	58.02	
2025-01-17 01:42:50.36	344.45	58.10	
2025-01-17 01:42:50.56	344.32	58.17	
2025-01-17 01:42:50.76	344.20	58.25	
2025-01-17 01:42:50.96	344.07	58.32	
2025-01-17 01:42:51.17	343.94	58.40	
2025-01-17 01:42:51.37	343.81	58.47	
2025-01-17 01:42:51.57	343.68	58.55	
2025-01-17 01:42:51.78	343.55	58.63	
2025-01-17 01:42:51.98	343.42	58.70	
2025-01-17 01:42:52.18	343.28	58.78	
2025-01-17 01:42:52.39	343.15	58.85	
2025-01-17 01:42:52.59	343.01	58.93	
2025-01-17 01:42:52.79	342.88	59.00	
2025-01-17 01:42:52.99	342.75	59.08	
2025-01-17 01:42:53.20	342.61	59.15	
2025-01-17 01:42:53.40	342.47	59.23	
2025-01-17 01:42:53.60	342.33	59.30	
2025-01-17 01:42:53.81	342.19	59.38	
2025-01-17 01:42:54.01	342.05	59.45	
2025-01-17 01:42:54.21	341.91	59.53	
2025-01-17 01:42:54.42	341.77	59.60	
2025-01-17 01:42:54.62	341.63	59.68	
2025-01-17 01:42:54.82	341.49	59.75	
2025-01-17 01:42:55.02	341.35	59.82	
2025-01-17 01:42:55.23	341.20	59.90	
2025-01-17 01:42:55.43	341.05	59.97	
2025-01-17 01:42:55.63	340.91	60.05	
2025-01-17 01:42:55.84	340.76	60.12	
2025-01-17 01:42:56.04	340.61	60.20	
2025-01-17 01:42:56.24	340.46	60.27	
2025-01-17 01:42:56.44	340.31	60.34	
2025-01-17 01:42:56.65	340.16	60.42	
2025-01-17 01:42:56.85	340.01	60.49	
2025-01-17 01:42:57.05	339.86	60.57	
2025-01-17 01:42:57.26	339.70	60.64	
2025-01-17 01:42:57.46	339.55	60.71	
2025-01-17 01:42:57.66	339.39	60.79	
2025-01-17 01:42:57.87	339.23	60.86	
2025-01-17 01:42:58.07	339.08	60.93	
2025-01-17 01:42:58.27	338.92	61.01	
2025-01-17 01:42:58.47	338.77	61.08	
2025-01-17 01:42:58.68	338.60	61.15	
2025-01-17 01:42:58.88	338.44	61.23	
2025-01-17 01:42:59.08	338.28	61.30	
2025-01-17 01:42:59.29	338.11	61.37	
2025-01-17 01:42:59.49	337.95	61.44	
2025-01-17 01:42:59.69	337.79	61.52	
2025-01-17 01:42:59.90	337.62	61.59	
2025-01-17 01:43:00.10	337.45	61.66	
2025-01-17 01:43:00.30	337.29	61.73	
2025-01-17 01:43:00.50	337.12	61.80	
2025-01-17 01:43:00.71	336.95	61.88	
2025-01-17 01:43:00.91	336.78	61.95	
2025-01-17 01:43:01.11	336.61	62.02	
2025-01-17 01:43:01.32	336.43	62.09	
2025-01-17 01:43:01.52	336.26	62.16	
2025-01-17 01:43:01.72	336.09	62.23	
2025-01-17 01:43:01.92	335.92	62.30	
2025-01-17 01:43:02.13	335.73	62.37	
2025-01-17 01:43:02.33	335.56	62.44	
2025-01-17 01:43:02.53	335.38	62.51	
2025-01-17 01:43:02.74	335.20	62.59	
2025-01-17 01:43:02.94	335.02	62.65	
2025-01-17 01:43:03.14	334.84	62.72	
2025-01-17 01:43:03.35	334.65	62.80	
2025-01-17 01:43:03.55	334.47	62.86	
2025-01-17 01:43:03.75	334.28	62.93	
2025-01-17 01:43:03.95	334.10	63.00	
2025-01-17 01:43:04.16	333.91	63.07	
2025-01-17 01:43:04.36	333.72	63.14	
2025-01-17 01:43:04.56	333.53	63.21	
2025-01-17 01:43:04.77	333.34	63.28	
2025-01-17 01:43:04.97	333.15	63.35	
2025-01-17 01:43:05.17	332.96	63.41	
2025-01-17 01:43:05.38	332.76	63.48	
2025-01-17 01:43:05.58	332.57	63.55	
2025-01-17 01:43:05.78	332.37	63.62	
2025-01-17 01:43:05.98	332.18	63.68	
2025-01-17 01:43:06.19	331.97	63.75	
2025-01-17 01:43:06.39	331.77	63.82	
2025-01-17 01:43:06.59	331.58	63.88	
2025-01-17 01:43:06.80	331.37	63.95	
2025-01-17 01:43:07.00	331.17	64.02	
2025-01-17 01:43:07.20	330.97	64.08	
2025-01-17 01:43:07.40	330.76	64.15	
2025-01-17 01:43:07.61	330.55	64.21	
2025-01-17 01:43:07.81	330.34	64.28	
2025-01-17 01:43:08.01	330.14	64.34	
2025-01-17 01:43:08.22	329.92	64.41	
2025-01-17 01:43:08.42	329.71	64.47	
2025-01-17 01:43:08.62	329.50	64.53	
2025-01-17 01:43:08.83	329.28	64.60	
2025-01-17 01:43:09.03	329.07	64.66	
2025-01-17 01:43:09.23	328.86	64.73	
2025-01-17 01:43:09.43	328.64	64.79	
2025-01-17 01:43:09.64	328.42	64.85	
2025-01-17 01:43:09.84	328.20	64.91	
2025-01-17 01:43:10.04	327.98	64.98	
2025-01-17 01:43:10.25	327.75	65.04	
2025-01-17 01:43:10.45	327.53	65.10	
2025-01-17 01:43:10.65	327.31	65.16	
2025-01-17 01:43:10.86	327.07	65.22	
2025-01-17 01:43:11.06	326.85	65.28	
2025-01-17 01:43:11.26	326.62	65.34	
2025-01-17 01:43:11.46	326.40	65.40	
2025-01-17 01:43:11.67	326.16	65.46	
2025-01-17 01:43:11.87	325.93	65.52	
2025-01-17 01:43:12.07	325.70	65.58	
2025-01-17 01:43:12.28	325.46	65.64	
2025-01-17 01:43:12.48	325.22	65.70	
2025-01-17 01:43:12.68	324.99	65.76	
2025-01-17 01:43:12.88	324.75	65.81	
2025-01-17 01:43:13.09	324.51	65.87	
2025-01-17 01:43:13.29	324.27	65.93	
2025-01-17 01:43:13.49	324.03	65.99	
2025-01-17 01:43:13.70	323.78	66.04	
2025-01-17 01:43:13.90	323.54	66.10	
2025-01-17 01:43:14.10	323.29	66.15	
2025-01-17 01:43:14.31	323.04	66.21	
2025-01-17 01:43:14.51	322.79	66.27	
2025-01-17 01:43:14.71	322.54	66.32	
2025-01-17 01:43:14.91	322.30	66.37	
2025-01-17 01:43:15.12	322.03	66.43	
2025-01-17 01:43:15.32	321.78	66.48	
2025-01-17 01:43:15.52	321.53	66.53	
2025-01-17 01:43:15.73	321.27	66.59	
2025-01-17 01:43:15.93	321.01	66.64	
2025-01-17 01:43:16.13	320.76	66.69	
2025-01-17 01:43:16.34	320.49	66.75	
2025-01-17 01:43:16.54	320.23	66.80	
2025-01-17 01:43:16.74	319.97	66.85	
2025-01-17 01:43:16.94	319.71	66.90	
2025-01-17 01:43:17.15	319.44	66.95	
2025-01-17 01:43:17.35	319.17	67.00	
2025-01-17 01:43:17.55	318.91	67.04	
2025-01-17 01:43:17.76	318.63	67.09	
2025-01-17 01:43:17.96	318.36	67.14	
2025-01-17 01:43:18.16	318.10	67.19	
