passes_logs/2025/01/17/SPB_Silybum_02/SPB_Silybum_02__20250117_230235_AQUA_rec.log

#Pass ID: 20250117_230235_AQUA
#Satellite: AQUA
#Configuration: AQUA
#Start time: 2025-01-17 23:02:34

#Version: 2.0.20230423
#Station: SPB_Silybum_02
#Location: 30.233357 lon 59.946436 lat
#TLE: 1 27424U 02022A   25017.13491740  .00001953  00000+0  41075-3 0  9996
#TLE: 2 27424  98.3596 333.8179 0001829 109.1235 340.1836 14.60691632207930

#Time	Az	El	Level	Level2	SNR	BER	Gain	Gain2
2025-01-17 23:02:36.48	37.94	4.03	
2025-01-17 23:02:36.68	37.97	4.04	
2025-01-17 23:02:36.88	37.99	4.05	
2025-01-17 23:02:37.09	38.02	4.05	
2025-01-17 23:02:37.29	38.05	4.06	
2025-01-17 23:02:37.49	38.07	4.07	
2025-01-17 23:02:37.70	38.10	4.08	
2025-01-17 23:02:37.90	38.13	4.09	
2025-01-17 23:02:38.10	38.15	4.10	
2025-01-17 23:02:38.31	38.18	4.11	
2025-01-17 23:02:38.51	38.21	4.11	
2025-01-17 23:02:38.71	38.23	4.12	
2025-01-17 23:02:38.91	38.26	4.13	
2025-01-17 23:02:39.12	38.29	4.14	
2025-01-17 23:02:39.32	38.31	4.15	
2025-01-17 23:02:39.52	38.34	4.16	
2025-01-17 23:02:39.73	38.37	4.17	
2025-01-17 23:02:39.93	38.39	4.17	
2025-01-17 23:02:40.13	38.42	4.18	
2025-01-17 23:02:40.33	38.45	4.19	
2025-01-17 23:02:40.54	38.48	4.20	
2025-01-17 23:02:40.74	38.50	4.21	
2025-01-17 23:02:40.94	38.53	4.22	
2025-01-17 23:02:41.15	38.56	4.23	
2025-01-17 23:02:41.35	38.58	4.24	
2025-01-17 23:02:41.55	38.61	4.24	
2025-01-17 23:02:41.76	38.64	4.25	
2025-01-17 23:02:41.96	38.66	4.26	
2025-01-17 23:02:42.16	38.69	4.27	
2025-01-17 23:02:42.36	38.72	4.28	
2025-01-17 23:02:42.57	38.75	4.29	
2025-01-17 23:02:42.77	38.77	4.30	
2025-01-17 23:02:42.97	38.80	4.30	
2025-01-17 23:02:43.18	38.83	4.31	
2025-01-17 23:02:43.38	38.85	4.32	
2025-01-17 23:02:43.58	38.88	4.33	
2025-01-17 23:02:43.79	38.91	4.34	
2025-01-17 23:02:43.99	38.94	4.35	
2025-01-17 23:02:44.19	38.96	4.36	
2025-01-17 23:02:44.39	38.99	4.36	
2025-01-17 23:02:44.60	39.02	4.37	
2025-01-17 23:02:44.80	39.05	4.38	
2025-01-17 23:02:45.00	39.07	4.39	
2025-01-17 23:02:45.21	39.10	4.40	
2025-01-17 23:02:45.41	39.13	4.41	
2025-01-17 23:02:45.61	39.15	4.42	
2025-01-17 23:02:45.82	39.18	4.42	
2025-01-17 23:02:46.02	39.21	4.43	
2025-01-17 23:02:46.22	39.24	4.44	
2025-01-17 23:02:46.42	39.26	4.45	
2025-01-17 23:02:46.63	39.29	4.46	
2025-01-17 23:02:46.83	39.32	4.47	
2025-01-17 23:02:47.03	39.35	4.48	
2025-01-17 23:02:47.24	39.38	4.48	
2025-01-17 23:02:47.44	39.40	4.49	
2025-01-17 23:02:47.64	39.43	4.50	
2025-01-17 23:02:47.84	39.46	4.51	
2025-01-17 23:02:48.05	39.49	4.52	
2025-01-17 23:02:48.25	39.51	4.53	
2025-01-17 23:02:48.45	39.54	4.54	
2025-01-17 23:02:48.66	39.57	4.54	
2025-01-17 23:02:48.86	39.60	4.55	
2025-01-17 23:02:49.06	39.62	4.56	
2025-01-17 23:02:49.27	39.65	4.57	
2025-01-17 23:02:49.47	39.68	4.58	
2025-01-17 23:02:49.67	39.71	4.59	
2025-01-17 23:02:49.87	39.73	4.60	
2025-01-17 23:02:50.08	39.76	4.60	
2025-01-17 23:02:50.28	39.79	4.61	
2025-01-17 23:02:50.48	39.82	4.62	
2025-01-17 23:02:50.69	39.85	4.63	
2025-01-17 23:02:50.89	39.87	4.64	
2025-01-17 23:02:51.09	39.90	4.65	
2025-01-17 23:02:51.30	39.93	4.66	
2025-01-17 23:02:51.50	39.96	4.66	
2025-01-17 23:02:51.70	39.99	4.67	
2025-01-17 23:02:51.90	40.01	4.68	
2025-01-17 23:02:52.11	40.04	4.69	
2025-01-17 23:02:52.31	40.07	4.70	
2025-01-17 23:02:52.51	40.10	4.71	
2025-01-17 23:02:52.72	40.13	4.72	
2025-01-17 23:02:52.92	40.15	4.72	
2025-01-17 23:02:53.12	40.18	4.73	
2025-01-17 23:02:53.33	40.21	4.74	
2025-01-17 23:02:53.53	40.24	4.75	
2025-01-17 23:02:53.73	40.27	4.76	
2025-01-17 23:02:53.93	40.29	4.77	
2025-01-17 23:02:54.14	40.32	4.77	
2025-01-17 23:02:54.34	40.35	4.78	
2025-01-17 23:02:54.54	40.38	4.79	
2025-01-17 23:02:54.75	40.41	4.80	
2025-01-17 23:02:54.95	40.43	4.81	
2025-01-17 23:02:55.15	40.46	4.82	
2025-01-17 23:02:55.36	40.49	4.83	
2025-01-17 23:02:55.56	40.52	4.83	
2025-01-17 23:02:55.76	40.55	4.84	
2025-01-17 23:02:55.96	40.58	4.85	
2025-01-17 23:02:56.17	40.60	4.86	
2025-01-17 23:02:56.37	40.63	4.87	
2025-01-17 23:02:56.57	40.66	4.88	
2025-01-17 23:02:56.78	40.69	4.88	
2025-01-17 23:02:56.98	40.72	4.89	
2025-01-17 23:02:57.18	40.75	4.90	
2025-01-17 23:02:57.38	40.77	4.91	
2025-01-17 23:02:57.59	40.80	4.92	
2025-01-17 23:02:57.79	40.83	4.93	
2025-01-17 23:02:57.99	40.86	4.94	
2025-01-17 23:02:58.20	40.89	4.94	
2025-01-17 23:02:58.40	40.92	4.95	
2025-01-17 23:02:58.60	40.94	4.96	
2025-01-17 23:02:58.81	40.97	4.97	
2025-01-17 23:02:59.01	41.00	4.98	
2025-01-17 23:02:59.21	41.03	4.99	
2025-01-17 23:02:59.41	41.06	4.99	
2025-01-17 23:02:59.62	41.09	5.00	
2025-01-17 23:02:59.82	41.12	5.01	
2025-01-17 23:03:00.02	41.14	5.02	
2025-01-17 23:03:00.23	41.17	5.03	
2025-01-17 23:03:00.43	41.20	5.04	
2025-01-17 23:03:00.63	41.23	5.04	
2025-01-17 23:03:00.84	41.26	5.05	
2025-01-17 23:03:01.04	41.29	5.06	
2025-01-17 23:03:01.24	41.32	5.07	
2025-01-17 23:03:01.44	41.35	5.08	
2025-01-17 23:03:01.65	41.37	5.09	
2025-01-17 23:03:01.85	41.40	5.10	
2025-01-17 23:03:02.05	41.43	5.10	
2025-01-17 23:03:02.26	41.46	5.11	
2025-01-17 23:03:02.46	41.49	5.12	
2025-01-17 23:03:02.66	41.52	5.13	
2025-01-17 23:03:02.87	41.55	5.14	
2025-01-17 23:03:03.07	41.58	5.15	
2025-01-17 23:03:03.27	41.61	5.15	
2025-01-17 23:03:03.47	41.63	5.16	
2025-01-17 23:03:03.68	41.66	5.17	
2025-01-17 23:03:03.88	41.69	5.18	
2025-01-17 23:03:04.08	41.72	5.19	
2025-01-17 23:03:04.29	41.75	5.20	
2025-01-17 23:03:04.49	41.78	5.20	
2025-01-17 23:03:04.69	41.81	5.21	
2025-01-17 23:03:04.90	41.84	5.22	
2025-01-17 23:03:05.10	41.87	5.23	
2025-01-17 23:03:05.30	41.90	5.24	
2025-01-17 23:03:05.50	41.92	5.25	
2025-01-17 23:03:05.71	41.95	5.25	
2025-01-17 23:03:05.91	41.98	5.26	
2025-01-17 23:03:06.11	42.01	5.27	
2025-01-17 23:03:06.32	42.04	5.28	
2025-01-17 23:03:06.52	42.07	5.29	
2025-01-17 23:03:06.72	42.10	5.30	
2025-01-17 23:03:06.92	42.13	5.30	
2025-01-17 23:03:07.13	42.16	5.31	
2025-01-17 23:03:07.33	42.19	5.32	
2025-01-17 23:03:07.53	42.22	5.33	
2025-01-17 23:03:07.74	42.25	5.34	
2025-01-17 23:03:07.94	42.28	5.35	
2025-01-17 23:03:08.14	42.30	5.35	
2025-01-17 23:03:08.35	42.33	5.36	
2025-01-17 23:03:08.55	42.36	5.37	
2025-01-17 23:03:08.75	42.39	5.38	
2025-01-17 23:03:08.95	42.42	5.39	
2025-01-17 23:03:09.16	42.45	5.40	
2025-01-17 23:03:09.36	42.48	5.40	
2025-01-17 23:03:09.56	42.51	5.41	
2025-01-17 23:03:09.77	42.54	5.42	
2025-01-17 23:03:09.97	42.57	5.43	
2025-01-17 23:03:10.17	42.60	5.44	
2025-01-17 23:03:10.38	42.63	5.45	
2025-01-17 23:03:10.58	42.66	5.45	
2025-01-17 23:03:10.78	42.69	5.46	
2025-01-17 23:03:10.98	42.72	5.47	
2025-01-17 23:03:11.19	42.75	5.48	
2025-01-17 23:03:11.39	42.78	5.49	
2025-01-17 23:03:11.59	42.81	5.49	
2025-01-17 23:03:11.80	42.84	5.50	
2025-01-17 23:03:12.00	42.87	5.51	
2025-01-17 23:03:12.20	42.89	5.52	
2025-01-17 23:03:12.41	42.93	5.53	
2025-01-17 23:03:12.61	42.95	5.54	
2025-01-17 23:03:12.81	42.98	5.54	
2025-01-17 23:03:13.01	43.01	5.55	
2025-01-17 23:03:13.22	43.04	5.56	
2025-01-17 23:03:13.42	43.07	5.57	
2025-01-17 23:03:13.62	43.10	5.58	
2025-01-17 23:03:13.83	43.13	5.59	
2025-01-17 23:03:14.03	43.16	5.59	
2025-01-17 23:03:14.23	43.19	5.60	
2025-01-17 23:03:14.44	43.22	5.61	
2025-01-17 23:03:14.64	43.25	5.62	
2025-01-17 23:03:14.84	43.28	5.63	
2025-01-17 23:03:15.04	43.31	5.63	
2025-01-17 23:03:15.25	43.34	5.64	
2025-01-17 23:03:15.45	43.37	5.65	
2025-01-17 23:03:15.65	43.40	5.66	
2025-01-17 23:03:15.86	43.43	5.67	
2025-01-17 23:03:16.06	43.46	5.68	
2025-01-17 23:03:16.26	43.49	5.68	
2025-01-17 23:03:16.47	43.52	5.69	
2025-01-17 23:03:16.67	43.55	5.70	
2025-01-17 23:03:16.87	43.58	5.71	
2025-01-17 23:03:17.07	43.61	5.72	
2025-01-17 23:03:17.28	43.64	5.73	
2025-01-17 23:03:17.48	43.67	5.73	
2025-01-17 23:03:17.68	43.70	5.74	
2025-01-17 23:03:17.89	43.73	5.75	
2025-01-17 23:03:18.09	43.76	5.76	
2025-01-17 23:03:18.29	43.79	5.77	
2025-01-17 23:03:18.49	43.82	5.77	
2025-01-17 23:03:18.70	43.85	5.78	
2025-01-17 23:03:18.90	43.88	5.79	
2025-01-17 23:03:19.10	43.91	5.80	
2025-01-17 23:03:19.31	43.95	5.81	
2025-01-17 23:03:19.51	43.98	5.81	
2025-01-17 23:03:19.71	44.01	5.82	
2025-01-17 23:03:19.92	44.04	5.83	
2025-01-17 23:03:20.12	44.07	5.84	
2025-01-17 23:03:20.32	44.10	5.85	
2025-01-17 23:03:20.52	44.13	5.86	
2025-01-17 23:03:20.73	44.16	5.86	
2025-01-17 23:03:20.93	44.19	5.87	
2025-01-17 23:03:21.13	44.22	5.88	
2025-01-17 23:03:21.34	44.25	5.89	
2025-01-17 23:03:21.54	44.28	5.90	
2025-01-17 23:03:21.74	44.31	5.90	
2025-01-17 23:03:21.95	44.34	5.91	
2025-01-17 23:03:22.15	44.37	5.92	
2025-01-17 23:03:22.35	44.40	5.93	
2025-01-17 23:03:22.55	44.43	5.94	
2025-01-17 23:03:22.76	44.46	5.94	
2025-01-17 23:03:22.96	44.49	5.95	
2025-01-17 23:03:23.16	44.52	5.96	
2025-01-17 23:03:23.37	44.56	5.97	
2025-01-17 23:03:23.57	44.59	5.98	
2025-01-17 23:03:23.77	44.62	5.98	
2025-01-17 23:03:23.98	44.65	5.99	
2025-01-17 23:03:24.18	44.68	6.00	
2025-01-17 23:03:24.38	44.71	6.01	
2025-01-17 23:03:24.58	44.74	6.02	
2025-01-17 23:03:24.79	44.77	6.03	
2025-01-17 23:03:24.99	44.80	6.03	
2025-01-17 23:03:25.19	44.83	6.04	
2025-01-17 23:03:25.40	44.86	6.05	
2025-01-17 23:03:25.60	44.89	6.06	
2025-01-17 23:03:25.80	44.92	6.07	
2025-01-17 23:03:26.01	44.96	6.07	
2025-01-17 23:03:26.21	44.99	6.08	
2025-01-17 23:03:26.41	45.02	6.09	
2025-01-17 23:03:26.61	45.05	6.10	
2025-01-17 23:03:26.82	45.08	6.11	
2025-01-17 23:03:27.02	45.11	6.11	
2025-01-17 23:03:27.22	45.14	6.12	
2025-01-17 23:03:27.43	45.17	6.13	
2025-01-17 23:03:27.63	45.20	6.14	
2025-01-17 23:03:27.83	45.23	6.15	
2025-01-17 23:03:28.03	45.26	6.15	
2025-01-17 23:03:28.24	45.30	6.16	
2025-01-17 23:03:28.44	45.33	6.17	
2025-01-17 23:03:28.64	45.36	6.18	
2025-01-17 23:03:28.85	45.39	6.19	
2025-01-17 23:03:29.05	45.42	6.19	
2025-01-17 23:03:29.25	45.45	6.20	
2025-01-17 23:03:29.46	45.48	6.21	
2025-01-17 23:03:29.66	45.51	6.22	
2025-01-17 23:03:29.86	45.55	6.22	
2025-01-17 23:03:30.06	45.58	6.23	
2025-01-17 23:03:30.27	45.61	6.24	
2025-01-17 23:03:30.47	45.64	6.25	
2025-01-17 23:03:30.67	45.67	6.26	
2025-01-17 23:03:30.88	45.70	6.26	
2025-01-17 23:03:31.08	45.73	6.27	
2025-01-17 23:03:31.28	45.76	6.28	
2025-01-17 23:03:31.49	45.80	6.29	
2025-01-17 23:03:31.69	45.83	6.30	
2025-01-17 23:03:31.89	45.86	6.30	
2025-01-17 23:03:32.09	45.89	6.31	
2025-01-17 23:03:32.30	45.92	6.32	
2025-01-17 23:03:32.50	45.95	6.33	
2025-01-17 23:03:32.70	45.98	6.34	
2025-01-17 23:03:32.91	46.02	6.34	
2025-01-17 23:03:33.11	46.05	6.35	
2025-01-17 23:03:33.31	46.08	6.36	
2025-01-17 23:03:33.52	46.11	6.37	
2025-01-17 23:03:33.72	46.14	6.38	
2025-01-17 23:03:33.92	46.17	6.38	
2025-01-17 23:03:34.12	46.21	6.39	
2025-01-17 23:03:34.33	46.24	6.40	
2025-01-17 23:03:34.53	46.27	6.41	
2025-01-17 23:03:34.73	46.30	6.41	
2025-01-17 23:03:34.94	46.33	6.42	
2025-01-17 23:03:35.14	46.36	6.43	
2025-01-17 23:03:35.34	46.40	6.44	
2025-01-17 23:03:35.55	46.43	6.45	
2025-01-17 23:03:35.75	46.46	6.45	
2025-01-17 23:03:35.95	46.49	6.46	
2025-01-17 23:03:36.15	46.52	6.47	
2025-01-17 23:03:36.36	46.56	6.48	
2025-01-17 23:03:36.56	46.59	6.48	
2025-01-17 23:03:36.76	46.62	6.49	
2025-01-17 23:03:36.97	46.65	6.50	
2025-01-17 23:03:37.17	46.68	6.51	
2025-01-17 23:03:37.37	46.71	6.52	
2025-01-17 23:03:37.57	46.75	6.52	
2025-01-17 23:03:37.78	46.78	6.53	
2025-01-17 23:03:37.98	46.81	6.54	
2025-01-17 23:03:38.18	46.84	6.55	
2025-01-17 23:03:38.39	46.87	6.55	
2025-01-17 23:03:38.59	46.91	6.56	
2025-01-17 23:03:38.79	46.94	6.57	
2025-01-17 23:03:39.00	46.97	6.58	
2025-01-17 23:03:39.20	47.00	6.59	
2025-01-17 23:03:39.40	47.03	6.59	
2025-01-17 23:03:39.60	47.07	6.60	
2025-01-17 23:03:39.81	47.10	6.61	
2025-01-17 23:03:40.01	47.13	6.62	
2025-01-17 23:03:40.21	47.16	6.62	
2025-01-17 23:03:40.42	47.20	6.63	
2025-01-17 23:03:40.62	47.23	6.64	
2025-01-17 23:03:40.82	47.26	6.65	
2025-01-17 23:03:41.03	47.29	6.66	
2025-01-17 23:03:41.23	47.32	6.66	
2025-01-17 23:03:41.43	47.36	6.67	
2025-01-17 23:03:41.63	47.39	6.68	
2025-01-17 23:03:41.84	47.42	6.69	
2025-01-17 23:03:42.04	47.45	6.69	
2025-01-17 23:03:42.24	47.48	6.70	
2025-01-17 23:03:42.45	47.52	6.71	
2025-01-17 23:03:42.65	47.55	6.72	
2025-01-17 23:03:42.85	47.58	6.72	
2025-01-17 23:03:43.06	47.62	6.73	
2025-01-17 23:03:43.26	47.65	6.74	
2025-01-17 23:03:43.46	47.68	6.75	
2025-01-17 23:03:43.66	47.71	6.75	
2025-01-17 23:03:43.87	47.75	6.76	
2025-01-17 23:03:44.07	47.78	6.77	
2025-01-17 23:03:44.27	47.81	6.78	
2025-01-17 23:03:44.48	47.84	6.79	
2025-01-17 23:03:44.68	47.87	6.79	
2025-01-17 23:03:44.88	47.91	6.80	
2025-01-17 23:03:45.09	47.94	6.81	
2025-01-17 23:03:45.29	47.97	6.82	
2025-01-17 23:03:45.49	48.00	6.82	
2025-01-17 23:03:45.69	48.04	6.83	
2025-01-17 23:03:45.90	48.07	6.84	
2025-01-17 23:03:46.10	48.10	6.85	
2025-01-17 23:03:46.30	48.14	6.85	
2025-01-17 23:03:46.51	48.17	6.86	
2025-01-17 23:03:46.71	48.20	6.87	
2025-01-17 23:03:46.91	48.23	6.88	
2025-01-17 23:03:47.12	48.27	6.88	
2025-01-17 23:03:47.32	48.30	6.89	
2025-01-17 23:03:47.52	48.33	6.90	
2025-01-17 23:03:47.72	48.36	6.91	
2025-01-17 23:03:47.93	48.40	6.91	
2025-01-17 23:03:48.13	48.43	6.92	
2025-01-17 23:03:48.33	48.46	6.93	
2025-01-17 23:03:48.54	48.50	6.94	
2025-01-17 23:03:48.74	48.53	6.94	
2025-01-17 23:03:48.94	48.56	6.95	
2025-01-17 23:03:49.14	48.59	6.96	
2025-01-17 23:03:49.35	48.63	6.97	
2025-01-17 23:03:49.55	48.66	6.97	
2025-01-17 23:03:49.75	48.69	6.98	
2025-01-17 23:03:49.96	48.73	6.99	
2025-01-17 23:03:50.16	48.76	7.00	
2025-01-17 23:03:50.36	48.79	7.00	
2025-01-17 23:03:50.57	48.83	7.01	
2025-01-17 23:03:50.77	48.86	7.02	
2025-01-17 23:03:50.97	48.89	7.03	
2025-01-17 23:03:51.17	48.93	7.03	
2025-01-17 23:03:51.38	48.96	7.04	
2025-01-17 23:03:51.58	48.99	7.05	
2025-01-17 23:03:51.78	49.03	7.06	
2025-01-17 23:03:51.99	49.06	7.06	
2025-01-17 23:03:52.19	49.09	7.07	
2025-01-17 23:03:52.39	49.12	7.08	
2025-01-17 23:03:52.60	49.16	7.09	
2025-01-17 23:03:52.80	49.19	7.09	
2025-01-17 23:03:53.00	49.22	7.10	
2025-01-17 23:03:53.20	49.26	7.11	
2025-01-17 23:03:53.41	49.29	7.12	
2025-01-17 23:03:53.61	49.33	7.12	
2025-01-17 23:03:53.81	49.36	7.13	
2025-01-17 23:03:54.02	49.39	7.14	
2025-01-17 23:03:54.22	49.43	7.15	
2025-01-17 23:03:54.42	49.46	7.15	
2025-01-17 23:03:54.63	49.49	7.16	
2025-01-17 23:03:54.83	49.53	7.17	
2025-01-17 23:03:55.03	49.56	7.18	
2025-01-17 23:03:55.23	49.59	7.18	
2025-01-17 23:03:55.44	49.63	7.19	
2025-01-17 23:03:55.64	49.66	7.20	
2025-01-17 23:03:55.84	49.69	7.20	
2025-01-17 23:03:56.05	49.73	7.21	
2025-01-17 23:03:56.25	49.76	7.22	
2025-01-17 23:03:56.45	49.79	7.23	
2025-01-17 23:03:56.66	49.83	7.23	
2025-01-17 23:03:56.86	49.86	7.24	
2025-01-17 23:03:57.06	49.89	7.25	
2025-01-17 23:03:57.26	49.93	7.26	
2025-01-17 23:03:57.47	49.96	7.26	
2025-01-17 23:03:57.67	50.00	7.27	
2025-01-17 23:03:57.87	50.03	7.28	
2025-01-17 23:03:58.08	50.06	7.29	
2025-01-17 23:03:58.28	50.10	7.29	
2025-01-17 23:03:58.48	50.13	7.30	
2025-01-17 23:03:58.68	50.16	7.31	
2025-01-17 23:03:58.89	50.20	7.31	
2025-01-17 23:03:59.09	50.23	7.32	
2025-01-17 23:03:59.29	50.27	7.33	
2025-01-17 23:03:59.50	50.30	7.34	
2025-01-17 23:03:59.70	50.33	7.34	
2025-01-17 23:03:59.90	50.37	7.35	
2025-01-17 23:04:00.11	50.40	7.36	
2025-01-17 23:04:00.31	50.44	7.36	
2025-01-17 23:04:00.51	50.47	7.37	
2025-01-17 23:04:00.71	50.50	7.38	
2025-01-17 23:04:00.92	50.54	7.39	
2025-01-17 23:04:01.12	50.57	7.39	
2025-01-17 23:04:01.32	50.61	7.40	
2025-01-17 23:04:01.53	50.64	7.41	
2025-01-17 23:04:01.73	50.67	7.42	
2025-01-17 23:04:01.93	50.71	7.42	
2025-01-17 23:04:02.14	50.74	7.43	
2025-01-17 23:04:02.34	50.78	7.44	
2025-01-17 23:04:02.54	50.81	7.44	
2025-01-17 23:04:02.74	50.84	7.45	
2025-01-17 23:04:02.95	50.88	7.46	
2025-01-17 23:04:03.15	50.91	7.47	
2025-01-17 23:04:03.35	50.95	7.47	
2025-01-17 23:04:03.56	50.98	7.48	
2025-01-17 23:04:03.76	51.02	7.49	
2025-01-17 23:04:03.96	51.05	7.49	
2025-01-17 23:04:04.17	51.08	7.50	
2025-01-17 23:04:04.37	51.12	7.51	
2025-01-17 23:04:04.57	51.15	7.52	
2025-01-17 23:04:04.77	51.19	7.52	
2025-01-17 23:04:04.98	51.22	7.53	
2025-01-17 23:04:05.18	51.26	7.54	
2025-01-17 23:04:05.38	51.29	7.54	
2025-01-17 23:04:05.59	51.32	7.55	
2025-01-17 23:04:05.79	51.36	7.56	
2025-01-17 23:04:05.99	51.39	7.56	
2025-01-17 23:04:06.20	51.43	7.57	
2025-01-17 23:04:06.40	51.46	7.58	
2025-01-17 23:04:06.60	51.50	7.59	
2025-01-17 23:04:06.80	51.53	7.59	
2025-01-17 23:04:07.01	51.57	7.60	
2025-01-17 23:04:07.21	51.60	7.61	
2025-01-17 23:04:07.41	51.63	7.61	
2025-01-17 23:04:07.62	51.67	7.62	
2025-01-17 23:04:07.82	51.70	7.63	
2025-01-17 23:04:08.02	51.74	7.63	
2025-01-17 23:04:08.22	51.77	7.64	
2025-01-17 23:04:08.43	51.81	7.65	
2025-01-17 23:04:08.63	51.84	7.66	
2025-01-17 23:04:08.83	51.88	7.66	
2025-01-17 23:04:09.04	51.91	7.67	
2025-01-17 23:04:09.24	51.95	7.68	
2025-01-17 23:04:09.44	51.98	7.68	
2025-01-17 23:04:09.65	52.02	7.69	
2025-01-17 23:04:09.85	52.05	7.70	
2025-01-17 23:04:10.05	52.09	7.70	
2025-01-17 23:04:10.25	52.12	7.71	
2025-01-17 23:04:10.46	52.16	7.72	
2025-01-17 23:04:10.66	52.19	7.72	
2025-01-17 23:04:10.86	52.22	7.73	
2025-01-17 23:04:11.07	52.26	7.74	
2025-01-17 23:04:11.27	52.29	7.75	
2025-01-17 23:04:11.47	52.33	7.75	
2025-01-17 23:04:11.68	52.37	7.76	
2025-01-17 23:04:11.88	52.40	7.77	
2025-01-17 23:04:12.08	52.43	7.77	
2025-01-17 23:04:12.28	52.47	7.78	
2025-01-17 23:04:12.49	52.50	7.79	
2025-01-17 23:04:12.69	52.54	7.79	
2025-01-17 23:04:12.89	52.57	7.80	
2025-01-17 23:04:13.10	52.61	7.81	
2025-01-17 23:04:13.30	52.64	7.81	
2025-01-17 23:04:13.50	52.68	7.82	
2025-01-17 23:04:13.71	52.72	7.83	
2025-01-17 23:04:13.91	52.75	7.83	
2025-01-17 23:04:14.11	52.78	7.84	
2025-01-17 23:04:14.31	52.82	7.85	
2025-01-17 23:04:14.52	52.86	7.86	
2025-01-17 23:04:14.72	52.89	7.86	
2025-01-17 23:04:14.92	52.93	7.87	
2025-01-17 23:04:15.13	52.96	7.88	
2025-01-17 23:04:15.33	53.00	7.88	
2025-01-17 23:04:15.53	53.03	7.89	
2025-01-17 23:04:15.74	53.07	7.90	
2025-01-17 23:04:15.94	53.10	7.90	
2025-01-17 23:04:16.14	53.14	7.91	
2025-01-17 23:04:16.34	53.17	7.92	
2025-01-17 23:04:16.55	53.21	7.92	
2025-01-17 23:04:16.75	53.24	7.93	
2025-01-17 23:04:16.95	53.28	7.94	
2025-01-17 23:04:17.16	53.31	7.94	
2025-01-17 23:04:17.36	53.35	7.95	
2025-01-17 23:04:17.56	53.38	7.96	
2025-01-17 23:04:17.76	53.42	7.96	
2025-01-17 23:04:17.97	53.46	7.97	
2025-01-17 23:04:18.17	53.49	7.98	
2025-01-17 23:04:18.37	53.53	7.98	
2025-01-17 23:04:18.58	53.56	7.99	
2025-01-17 23:04:18.78	53.60	8.00	
2025-01-17 23:04:18.98	53.63	8.00	
2025-01-17 23:04:19.19	53.67	8.01	
2025-01-17 23:04:19.39	53.70	8.02	
2025-01-17 23:04:19.59	53.74	8.02	
2025-01-17 23:04:19.79	53.78	8.03	
2025-01-17 23:04:20.00	53.81	8.04	
2025-01-17 23:04:20.20	53.85	8.04	
2025-01-17 23:04:20.40	53.88	8.05	
2025-01-17 23:04:20.61	53.92	8.06	
2025-01-17 23:04:20.81	53.95	8.06	
2025-01-17 23:04:21.01	53.99	8.07	
2025-01-17 23:04:21.22	54.03	8.08	
2025-01-17 23:04:21.42	54.06	8.08	
2025-01-17 23:04:21.62	54.10	8.09	
2025-01-17 23:04:21.82	54.13	8.09	
2025-01-17 23:04:22.03	54.17	8.10	
2025-01-17 23:04:22.23	54.20	8.11	
2025-01-17 23:04:22.43	54.24	8.11	
2025-01-17 23:04:22.64	54.28	8.12	
2025-01-17 23:04:22.84	54.31	8.13	
2025-01-17 23:04:23.04	54.35	8.13	
2025-01-17 23:04:23.25	54.38	8.14	
2025-01-17 23:04:23.45	54.42	8.15	
2025-01-17 23:04:23.65	54.46	8.15	
2025-01-17 23:04:23.85	54.49	8.16	
2025-01-17 23:04:24.06	54.53	8.17	
2025-01-17 23:04:24.26	54.56	8.17	
2025-01-17 23:04:24.46	54.60	8.18	
2025-01-17 23:04:24.67	54.64	8.19	
2025-01-17 23:04:24.87	54.67	8.19	
2025-01-17 23:04:25.07	54.71	8.20	
2025-01-17 23:04:25.28	54.74	8.20	
2025-01-17 23:04:25.48	54.78	8.21	
2025-01-17 23:04:25.68	54.82	8.22	
2025-01-17 23:04:25.88	54.85	8.22	
2025-01-17 23:04:26.09	54.89	8.23	
2025-01-17 23:04:26.29	54.92	8.24	
2025-01-17 23:04:26.49	54.96	8.24	
2025-01-17 23:04:26.70	55.00	8.25	
2025-01-17 23:04:26.90	55.03	8.26	
2025-01-17 23:04:27.10	55.07	8.26	
2025-01-17 23:04:27.31	55.11	8.27	
2025-01-17 23:04:27.51	55.14	8.27	
2025-01-17 23:04:27.71	55.18	8.28	
2025-01-17 23:04:27.91	55.21	8.29	
2025-01-17 23:04:28.12	55.25	8.29	
2025-01-17 23:04:28.32	55.29	8.30	
2025-01-17 23:04:28.52	55.32	8.31	
2025-01-17 23:04:28.73	55.36	8.31	
2025-01-17 23:04:28.93	55.40	8.32	
2025-01-17 23:04:29.13	55.43	8.32	
2025-01-17 23:04:29.33	55.47	8.33	
2025-01-17 23:04:29.54	55.51	8.34	
2025-01-17 23:04:29.74	55.54	8.34	
2025-01-17 23:04:29.94	55.58	8.35	
2025-01-17 23:04:30.15	55.62	8.36	
2025-01-17 23:04:30.35	55.65	8.36	
2025-01-17 23:04:30.55	55.69	8.37	
2025-01-17 23:04:30.76	55.73	8.37	
2025-01-17 23:04:30.96	55.76	8.38	
2025-01-17 23:04:31.16	55.80	8.39	
2025-01-17 23:04:31.36	55.83	8.39	
2025-01-17 23:04:31.57	55.87	8.40	
2025-01-17 23:04:31.77	55.91	8.41	
2025-01-17 23:04:31.97	55.94	8.41	
2025-01-17 23:04:32.18	55.98	8.42	
2025-01-17 23:04:32.38	56.02	8.42	
2025-01-17 23:04:32.58	56.05	8.43	
2025-01-17 23:04:32.79	56.09	8.44	
2025-01-17 23:04:32.99	56.13	8.44	
2025-01-17 23:04:33.19	56.16	8.45	
2025-01-17 23:04:33.39	56.20	8.45	
2025-01-17 23:04:33.60	56.24	8.46	
2025-01-17 23:04:33.80	56.27	8.47	
2025-01-17 23:04:34.00	56.31	8.47	
2025-01-17 23:04:34.21	56.35	8.48	
2025-01-17 23:04:34.41	56.39	8.49	
2025-01-17 23:04:34.61	56.42	8.49	
2025-01-17 23:04:34.82	56.46	8.50	
2025-01-17 23:04:35.02	56.50	8.50	
2025-01-17 23:04:35.22	56.53	8.51	
2025-01-17 23:04:35.42	56.57	8.52	
2025-01-17 23:04:35.63	56.61	8.52	
2025-01-17 23:04:35.83	56.64	8.53	
2025-01-17 23:04:36.03	56.68	8.53	
2025-01-17 23:04:36.24	56.72	8.54	
2025-01-17 23:04:36.44	56.75	8.55	
2025-01-17 23:04:36.64	56.79	8.55	
2025-01-17 23:04:36.85	56.83	8.56	
2025-01-17 23:04:37.05	56.87	8.56	
2025-01-17 23:04:37.25	56.90	8.57	
2025-01-17 23:04:37.45	56.94	8.57	
2025-01-17 23:04:37.66	56.98	8.58	
2025-01-17 23:04:37.86	57.01	8.59	
2025-01-17 23:04:38.06	57.05	8.59	
2025-01-17 23:04:38.27	57.09	8.60	
2025-01-17 23:04:38.47	57.12	8.60	
2025-01-17 23:04:38.67	57.16	8.61	
2025-01-17 23:04:38.87	57.20	8.62	
2025-01-17 23:04:39.08	57.24	8.62	
2025-01-17 23:04:39.28	57.27	8.63	
2025-01-17 23:04:39.48	57.31	8.63	
2025-01-17 23:04:39.69	57.35	8.64	
2025-01-17 23:04:39.89	57.39	8.65	
2025-01-17 23:04:40.09	57.42	8.65	
2025-01-17 23:04:40.30	57.46	8.66	
2025-01-17 23:04:40.50	57.50	8.66	
2025-01-17 23:04:40.70	57.53	8.67	
2025-01-17 23:04:40.90	57.57	8.67	
2025-01-17 23:04:41.11	57.61	8.68	
2025-01-17 23:04:41.31	57.65	8.69	
2025-01-17 23:04:41.51	57.68	8.69	
2025-01-17 23:04:41.72	57.72	8.70	
2025-01-17 23:04:41.92	57.76	8.70	
2025-01-17 23:04:42.12	57.80	8.71	
2025-01-17 23:04:42.33	57.83	8.72	
2025-01-17 23:04:42.53	57.87	8.72	
2025-01-17 23:04:42.73	57.91	8.73	
2025-01-17 23:04:42.93	57.95	8.73	
2025-01-17 23:04:43.14	57.98	8.74	
2025-01-17 23:04:43.34	58.02	8.74	
2025-01-17 23:04:43.54	58.06	8.75	
2025-01-17 23:04:43.75	58.10	8.76	
2025-01-17 23:04:43.95	58.13	8.76	
2025-01-17 23:04:44.15	58.17	8.77	
2025-01-17 23:04:44.36	58.21	8.77	
2025-01-17 23:04:44.56	58.25	8.78	
2025-01-17 23:04:44.76	58.28	8.78	
2025-01-17 23:04:44.96	58.32	8.79	
2025-01-17 23:04:45.17	58.36	8.79	
2025-01-17 23:04:45.37	58.40	8.80	
2025-01-17 23:04:45.57	58.43	8.81	
2025-01-17 23:04:45.78	58.47	8.81	
2025-01-17 23:04:45.98	58.51	8.82	
2025-01-17 23:04:46.18	58.55	8.82	
2025-01-17 23:04:46.38	58.58	8.83	
2025-01-17 23:04:46.59	58.62	8.83	
2025-01-17 23:04:46.79	58.66	8.84	
2025-01-17 23:04:46.99	58.70	8.84	
2025-01-17 23:04:47.20	58.74	8.85	
2025-01-17 23:04:47.40	58.77	8.86	
2025-01-17 23:04:47.60	58.81	8.86	
2025-01-17 23:04:47.81	58.85	8.87	
2025-01-17 23:04:48.01	58.89	8.87	
2025-01-17 23:04:48.21	58.93	8.88	
2025-01-17 23:04:48.41	58.96	8.88	
2025-01-17 23:04:48.62	59.00	8.89	
2025-01-17 23:04:48.82	59.04	8.89	
2025-01-17 23:04:49.02	59.08	8.90	
2025-01-17 23:04:49.23	59.12	8.91	
2025-01-17 23:04:49.43	59.15	8.91	
2025-01-17 23:04:49.63	59.19	8.92	
2025-01-17 23:04:49.84	59.23	8.92	
2025-01-17 23:04:50.04	59.27	8.93	
2025-01-17 23:04:50.24	59.31	8.93	
2025-01-17 23:04:50.44	59.34	8.94	
2025-01-17 23:04:50.65	59.38	8.94	
2025-01-17 23:04:50.85	59.42	8.95	
2025-01-17 23:04:51.05	59.46	8.95	
2025-01-17 23:04:51.26	59.50	8.96	
2025-01-17 23:04:51.46	59.53	8.96	
2025-01-17 23:04:51.66	59.57	8.97	
2025-01-17 23:04:51.87	59.61	8.98	
2025-01-17 23:04:52.07	59.65	8.98	
2025-01-17 23:04:52.27	59.69	8.99	
2025-01-17 23:04:52.47	59.72	8.99	
2025-01-17 23:04:52.68	59.76	9.00	
2025-01-17 23:04:52.88	59.80	9.00	
2025-01-17 23:04:53.08	59.84	9.01	
2025-01-17 23:04:53.29	59.88	9.01	
2025-01-17 23:04:53.49	59.92	9.02	
2025-01-17 23:04:53.69	59.95	9.02	
2025-01-17 23:04:53.90	59.99	9.03	
2025-01-17 23:04:54.10	60.03	9.03	
2025-01-17 23:04:54.30	60.07	9.04	
2025-01-17 23:04:54.50	60.11	9.04	
2025-01-17 23:04:54.71	60.15	9.05	
2025-01-17 23:04:54.91	60.19	9.05	
2025-01-17 23:04:55.11	60.22	9.06	
2025-01-17 23:04:55.32	60.26	9.06	
2025-01-17 23:04:55.52	60.30	9.07	
2025-01-17 23:04:55.72	60.34	9.07	
2025-01-17 23:04:55.92	60.38	9.08	
2025-01-17 23:04:56.13	60.42	9.08	
2025-01-17 23:04:56.33	60.45	9.09	
2025-01-17 23:04:56.53	60.49	9.09	
2025-01-17 23:04:56.74	60.53	9.10	
2025-01-17 23:04:56.94	60.57	9.11	
2025-01-17 23:04:57.14	60.61	9.11	
2025-01-17 23:04:57.35	60.65	9.12	
2025-01-17 23:04:57.55	60.69	9.12	
2025-01-17 23:04:57.75	60.72	9.13	
2025-01-17 23:04:57.95	60.76	9.13	
2025-01-17 23:04:58.16	60.80	9.14	
2025-01-17 23:04:58.36	60.84	9.14	
2025-01-17 23:04:58.56	60.88	9.15	
2025-01-17 23:04:58.77	60.92	9.15	
2025-01-17 23:04:58.97	60.96	9.16	
2025-01-17 23:04:59.17	60.99	9.16	
2025-01-17 23:04:59.38	61.03	9.17	
2025-01-17 23:04:59.58	61.07	9.17	
2025-01-17 23:04:59.78	61.11	9.18	
2025-01-17 23:04:59.98	61.15	9.18	
2025-01-17 23:05:00.19	61.19	9.19	
2025-01-17 23:05:00.39	61.23	9.19	
2025-01-17 23:05:00.59	61.27	9.20	
2025-01-17 23:05:00.80	61.31	9.20	
2025-01-17 23:05:01.00	61.34	9.20	
2025-01-17 23:05:01.20	61.38	9.21	
2025-01-17 23:05:01.41	61.42	9.21	
2025-01-17 23:05:01.61	61.46	9.22	
2025-01-17 23:05:01.81	61.50	9.22	
2025-01-17 23:05:02.01	61.54	9.23	
2025-01-17 23:05:02.22	61.58	9.23	
2025-01-17 23:05:02.42	61.62	9.24	
2025-01-17 23:05:02.62	61.65	9.24	
2025-01-17 23:05:02.83	61.69	9.25	
2025-01-17 23:05:03.03	61.73	9.25	
2025-01-17 23:05:03.23	61.77	9.26	
2025-01-17 23:05:03.44	61.81	9.26	
2025-01-17 23:05:03.64	61.85	9.27	
2025-01-17 23:05:03.84	61.89	9.27	
2025-01-17 23:05:04.04	61.93	9.28	
2025-01-17 23:05:04.25	61.97	9.28	
2025-01-17 23:05:04.45	62.01	9.29	
2025-01-17 23:05:04.65	62.04	9.29	
2025-01-17 23:05:04.86	62.08	9.30	
2025-01-17 23:05:05.06	62.12	9.30	
2025-01-17 23:05:05.26	62.16	9.31	
2025-01-17 23:05:05.47	62.20	9.31	
2025-01-17 23:05:05.67	62.24	9.31	
2025-01-17 23:05:05.87	62.28	9.32	
2025-01-17 23:05:06.07	62.32	9.32	
2025-01-17 23:05:06.28	62.36	9.33	
2025-01-17 23:05:06.48	62.40	9.33	
2025-01-17 23:05:06.68	62.44	9.34	
2025-01-17 23:05:06.89	62.48	9.34	
2025-01-17 23:05:07.09	62.51	9.35	
2025-01-17 23:05:07.29	62.55	9.35	
2025-01-17 23:05:07.50	62.59	9.36	
2025-01-17 23:05:07.70	62.63	9.36	
2025-01-17 23:05:07.90	62.67	9.37	
2025-01-17 23:05:08.10	62.71	9.37	
2025-01-17 23:05:08.31	62.75	9.37	
2025-01-17 23:05:08.51	62.79	9.38	
2025-01-17 23:05:08.71	62.83	9.38	
2025-01-17 23:05:08.92	62.87	9.39	
2025-01-17 23:05:09.12	62.91	9.39	
2025-01-17 23:05:09.32	62.95	9.40	
2025-01-17 23:05:09.52	62.98	9.40	
2025-01-17 23:05:09.73	63.03	9.41	
2025-01-17 23:05:09.93	63.06	9.41	
2025-01-17 23:05:10.13	63.10	9.42	
2025-01-17 23:05:10.34	63.14	9.42	
2025-01-17 23:05:10.54	63.18	9.42	
2025-01-17 23:05:10.74	63.22	9.43	
2025-01-17 23:05:10.95	63.26	9.43	
2025-01-17 23:05:11.15	63.30	9.44	
2025-01-17 23:05:11.35	63.34	9.44	
2025-01-17 23:05:11.55	63.38	9.45	
2025-01-17 23:05:11.76	63.42	9.45	
2025-01-17 23:05:11.96	63.46	9.45	
2025-01-17 23:05:12.16	63.50	9.46	
2025-01-17 23:05:12.37	63.54	9.46	
2025-01-17 23:05:12.57	63.58	9.47	
2025-01-17 23:05:12.77	63.62	9.47	
2025-01-17 23:05:12.98	63.66	9.48	
2025-01-17 23:05:13.18	63.70	9.48	
2025-01-17 23:05:13.38	63.74	9.48	
2025-01-17 23:05:13.58	63.77	9.49	
2025-01-17 23:05:13.79	63.82	9.49	
2025-01-17 23:05:13.99	63.86	9.50	
2025-01-17 23:05:14.19	63.89	9.50	
2025-01-17 23:05:14.40	63.94	9.51	
2025-01-17 23:05:14.60	63.97	9.51	
2025-01-17 23:05:14.80	64.01	9.51	
2025-01-17 23:05:15.01	64.05	9.52	
2025-01-17 23:05:15.21	64.09	9.52	
2025-01-17 23:05:15.41	64.13	9.53	
2025-01-17 23:05:15.61	64.17	9.53	
2025-01-17 23:05:15.82	64.21	9.54	
2025-01-17 23:05:16.02	64.25	9.54	
2025-01-17 23:05:16.22	64.29	9.54	
2025-01-17 23:05:16.43	64.33	9.55	
2025-01-17 23:05:16.63	64.37	9.55	
2025-01-17 23:05:16.83	64.41	9.56	
2025-01-17 23:05:17.04	64.45	9.56	
2025-01-17 23:05:17.24	64.49	9.56	
2025-01-17 23:05:17.44	64.53	9.57	
2025-01-17 23:05:17.64	64.57	9.57	
2025-01-17 23:05:17.85	64.61	9.58	
2025-01-17 23:05:18.05	64.65	9.58	
2025-01-17 23:05:18.25	64.69	9.58	
2025-01-17 23:05:18.46	64.73	9.59	
2025-01-17 23:05:18.66	64.77	9.59	
2025-01-17 23:05:18.86	64.81	9.60	
2025-01-17 23:05:19.06	64.85	9.60	
2025-01-17 23:05:19.27	64.89	9.60	
2025-01-17 23:05:19.47	64.93	9.61	
2025-01-17 23:05:19.67	64.97	9.61	
2025-01-17 23:05:19.88	65.01	9.62	
2025-01-17 23:05:20.08	65.05	9.62	
2025-01-17 23:05:20.28	65.09	9.62	
2025-01-17 23:05:20.49	65.13	9.63	
2025-01-17 23:05:20.69	65.17	9.63	
2025-01-17 23:05:20.89	65.21	9.64	
2025-01-17 23:05:21.09	65.25	9.64	
2025-01-17 23:05:21.30	65.29	9.64	
2025-01-17 23:05:21.50	65.33	9.65	
2025-01-17 23:05:21.70	65.37	9.65	
2025-01-17 23:05:21.91	65.41	9.66	
2025-01-17 23:05:22.11	65.45	9.66	
2025-01-17 23:05:22.31	65.49	9.66	
2025-01-17 23:05:22.52	65.53	9.67	
2025-01-17 23:05:22.72	65.57	9.67	
2025-01-17 23:05:22.92	65.61	9.67	
2025-01-17 23:05:23.12	65.65	9.68	
2025-01-17 23:05:23.33	65.69	9.68	
2025-01-17 23:05:23.53	65.73	9.69	
2025-01-17 23:05:23.73	65.77	9.69	
2025-01-17 23:05:23.94	65.81	9.69	
2025-01-17 23:05:24.14	65.85	9.70	
2025-01-17 23:05:24.34	65.89	9.70	
2025-01-17 23:05:24.55	65.93	9.70	
2025-01-17 23:05:24.75	65.97	9.71	
2025-01-17 23:05:24.95	66.01	9.71	
2025-01-17 23:05:25.15	66.05	9.71	
2025-01-17 23:05:25.36	66.09	9.72	
2025-01-17 23:05:25.56	66.13	9.72	
2025-01-17 23:05:25.76	66.17	9.73	
2025-01-17 23:05:25.97	66.22	9.73	
2025-01-17 23:05:26.17	66.26	9.73	
2025-01-17 23:05:26.37	66.30	9.74	
2025-01-17 23:05:26.58	66.34	9.74	
2025-01-17 23:05:26.78	66.38	9.74	
2025-01-17 23:05:26.98	66.42	9.75	
2025-01-17 23:05:27.18	66.46	9.75	
2025-01-17 23:05:27.39	66.50	9.75	
2025-01-17 23:05:27.59	66.54	9.76	
2025-01-17 23:05:27.79	66.58	9.76	
2025-01-17 23:05:28.00	66.62	9.76	
2025-01-17 23:05:28.20	66.66	9.77	
2025-01-17 23:05:28.40	66.70	9.77	
2025-01-17 23:05:28.60	66.74	9.78	
2025-01-17 23:05:28.81	66.78	9.78	
2025-01-17 23:05:29.01	66.82	9.78	
2025-01-17 23:05:29.21	66.86	9.79	
2025-01-17 23:05:29.42	66.90	9.79	
2025-01-17 23:05:29.62	66.94	9.79	
2025-01-17 23:05:29.82	66.98	9.80	
2025-01-17 23:05:30.03	67.03	9.80	
2025-01-17 23:05:30.23	67.06	9.80	
2025-01-17 23:05:30.43	67.10	9.81	
2025-01-17 23:05:30.63	67.14	9.81	
2025-01-17 23:05:30.84	67.19	9.81	
2025-01-17 23:05:31.04	67.23	9.82	
2025-01-17 23:05:31.24	67.27	9.82	
2025-01-17 23:05:31.45	67.31	9.82	
2025-01-17 23:05:31.65	67.35	9.83	
2025-01-17 23:05:31.85	67.39	9.83	
2025-01-17 23:05:32.06	67.43	9.83	
2025-01-17 23:05:32.26	67.47	9.84	
2025-01-17 23:05:32.46	67.51	9.84	
2025-01-17 23:05:32.66	67.55	9.84	
2025-01-17 23:05:32.87	67.59	9.85	
2025-01-17 23:05:33.07	67.63	9.85	
2025-01-17 23:05:33.27	67.67	9.85	
2025-01-17 23:05:33.48	67.72	9.85	
2025-01-17 23:05:33.68	67.76	9.86	
2025-01-17 23:05:33.88	67.80	9.86	
2025-01-17 23:05:34.09	67.84	9.86	
2025-01-17 23:05:34.29	67.88	9.87	
2025-01-17 23:05:34.49	67.92	9.87	
2025-01-17 23:05:34.69	67.96	9.87	
2025-01-17 23:05:34.90	68.00	9.88	
2025-01-17 23:05:35.10	68.04	9.88	
2025-01-17 23:05:35.30	68.08	9.88	
2025-01-17 23:05:35.51	68.12	9.89	
2025-01-17 23:05:35.71	68.16	9.89	
2025-01-17 23:05:35.91	68.20	9.89	
2025-01-17 23:05:36.12	68.25	9.90	
2025-01-17 23:05:36.32	68.29	9.90	
2025-01-17 23:05:36.52	68.33	9.90	
2025-01-17 23:05:36.72	68.37	9.90	
2025-01-17 23:05:36.93	68.41	9.91	
2025-01-17 23:05:37.13	68.45	9.91	
2025-01-17 23:05:37.33	68.49	9.91	
2025-01-17 23:05:37.54	68.53	9.92	
2025-01-17 23:05:37.74	68.57	9.92	
2025-01-17 23:05:37.94	68.61	9.92	
2025-01-17 23:05:38.14	68.65	9.92	
2025-01-17 23:05:38.35	68.69	9.93	
2025-01-17 23:05:38.55	68.74	9.93	
2025-01-17 23:05:38.75	68.78	9.93	
2025-01-17 23:05:38.96	68.82	9.94	
2025-01-17 23:05:39.16	68.86	9.94	
2025-01-17 23:05:39.36	68.90	9.94	
2025-01-17 23:05:39.57	68.94	9.95	
2025-01-17 23:05:39.77	68.98	9.95	
2025-01-17 23:05:39.97	69.02	9.95	
2025-01-17 23:05:40.17	69.06	9.95	
2025-01-17 23:05:40.38	69.10	9.96	
2025-01-17 23:05:40.58	69.15	9.96	
2025-01-17 23:05:40.78	69.19	9.96	
2025-01-17 23:05:40.99	69.23	9.96	
2025-01-17 23:05:41.19	69.27	9.97	
2025-01-17 23:05:41.39	69.31	9.97	
2025-01-17 23:05:41.60	69.35	9.97	
2025-01-17 23:05:41.80	69.39	9.98	
2025-01-17 23:05:42.00	69.43	9.98	
2025-01-17 23:05:42.20	69.47	9.98	
2025-01-17 23:05:42.41	69.52	9.98	
2025-01-17 23:05:42.61	69.56	9.99	
2025-01-17 23:05:42.81	69.60	9.99	
2025-01-17 23:05:43.02	69.64	9.99	
2025-01-17 23:05:43.22	69.68	9.99	
2025-01-17 23:05:43.42	69.72	10.00	
2025-01-17 23:05:43.63	69.76	10.00	
2025-01-17 23:05:43.83	69.80	10.00	
2025-01-17 23:05:44.03	69.84	10.00	
2025-01-17 23:05:44.23	69.88	10.01	
2025-01-17 23:05:44.44	69.93	10.01	
2025-01-17 23:05:44.64	69.97	10.01	
2025-01-17 23:05:44.84	70.01	10.01	
2025-01-17 23:05:45.05	70.05	10.02	
2025-01-17 23:05:45.25	70.09	10.02	
2025-01-17 23:05:45.45	70.13	10.02	
2025-01-17 23:05:45.66	70.17	10.02	
2025-01-17 23:05:45.86	70.21	10.03	
2025-01-17 23:05:46.06	70.26	10.03	
2025-01-17 23:05:46.26	70.30	10.03	
2025-01-17 23:05:46.47	70.34	10.03	
2025-01-17 23:05:46.67	70.38	10.04	
2025-01-17 23:05:46.87	70.42	10.04	
2025-01-17 23:05:47.08	70.46	10.04	
2025-01-17 23:05:47.28	70.50	10.04	
2025-01-17 23:05:47.48	70.54	10.05	
2025-01-17 23:05:47.69	70.59	10.05	
2025-01-17 23:05:47.89	70.63	10.05	
2025-01-17 23:05:48.09	70.67	10.05	
2025-01-17 23:05:48.29	70.71	10.06	
2025-01-17 23:05:48.50	70.75	10.06	
2025-01-17 23:05:48.70	70.79	10.06	
2025-01-17 23:05:48.90	70.83	10.06	
2025-01-17 23:05:49.11	70.88	10.06	
2025-01-17 23:05:49.31	70.92	10.07	
2025-01-17 23:05:49.51	70.96	10.07	
2025-01-17 23:05:49.71	71.00	10.07	
2025-01-17 23:05:49.92	71.04	10.07	
2025-01-17 23:05:50.12	71.08	10.08	
2025-01-17 23:05:50.32	71.12	10.08	
2025-01-17 23:05:50.53	71.17	10.08	
2025-01-17 23:05:50.73	71.21	10.08	
2025-01-17 23:05:50.93	71.25	10.08	
2025-01-17 23:05:51.14	71.29	10.09	
2025-01-17 23:05:51.34	71.33	10.09	
2025-01-17 23:05:51.54	71.37	10.09	
2025-01-17 23:05:51.74	71.41	10.09	
2025-01-17 23:05:51.95	71.46	10.10	
2025-01-17 23:05:52.15	71.50	10.10	
2025-01-17 23:05:52.35	71.54	10.10	
2025-01-17 23:05:52.56	71.58	10.10	
2025-01-17 23:05:52.76	71.62	10.10	
2025-01-17 23:05:52.96	71.66	10.11	
2025-01-17 23:05:53.17	71.70	10.11	
2025-01-17 23:05:53.37	71.75	10.11	
2025-01-17 23:05:53.57	71.79	10.11	
2025-01-17 23:05:53.77	71.83	10.11	
2025-01-17 23:05:53.98	71.87	10.12	
2025-01-17 23:05:54.18	71.91	10.12	
2025-01-17 23:05:54.38	71.95	10.12	
2025-01-17 23:05:54.59	71.99	10.12	
2025-01-17 23:05:54.79	72.04	10.12	
2025-01-17 23:05:54.99	72.08	10.13	
2025-01-17 23:05:55.20	72.12	10.13	
2025-01-17 23:05:55.40	72.16	10.13	
2025-01-17 23:05:55.60	72.20	10.13	
2025-01-17 23:05:55.80	72.24	10.13	
2025-01-17 23:05:56.01	72.29	10.13	
2025-01-17 23:05:56.21	72.33	10.14	
2025-01-17 23:05:56.41	72.37	10.14	
2025-01-17 23:05:56.62	72.41	10.14	
2025-01-17 23:05:56.82	72.45	10.14	
2025-01-17 23:05:57.02	72.49	10.14	
2025-01-17 23:05:57.22	72.53	10.15	
2025-01-17 23:05:57.43	72.58	10.15	
2025-01-17 23:05:57.63	72.62	10.15	
2025-01-17 23:05:57.83	72.66	10.15	
2025-01-17 23:05:58.04	72.70	10.15	
2025-01-17 23:05:58.24	72.74	10.15	
2025-01-17 23:05:58.44	72.78	10.16	
2025-01-17 23:05:58.65	72.83	10.16	
2025-01-17 23:05:58.85	72.87	10.16	
2025-01-17 23:05:59.05	72.91	10.16	
2025-01-17 23:05:59.25	72.95	10.16	
2025-01-17 23:05:59.46	72.99	10.16	
2025-01-17 23:05:59.66	73.03	10.17	
2025-01-17 23:05:59.86	73.07	10.17	
2025-01-17 23:06:00.07	73.12	10.17	
2025-01-17 23:06:00.27	73.16	10.17	
2025-01-17 23:06:00.47	73.20	10.17	
2025-01-17 23:06:00.68	73.24	10.17	
2025-01-17 23:06:00.88	73.28	10.18	
2025-01-17 23:06:01.08	73.32	10.18	
2025-01-17 23:06:01.28	73.37	10.18	
2025-01-17 23:06:01.49	73.41	10.18	
2025-01-17 23:06:01.69	73.45	10.18	
2025-01-17 23:06:01.89	73.49	10.18	
2025-01-17 23:06:02.10	73.53	10.18	
2025-01-17 23:06:02.30	73.58	10.19	
2025-01-17 23:06:02.50	73.62	10.19	
2025-01-17 23:06:02.71	73.66	10.19	
2025-01-17 23:06:02.91	73.70	10.19	
2025-01-17 23:06:03.11	73.74	10.19	
2025-01-17 23:06:03.31	73.78	10.19	
2025-01-17 23:06:03.52	73.83	10.19	
2025-01-17 23:06:03.72	73.87	10.20	
2025-01-17 23:06:03.92	73.91	10.20	
2025-01-17 23:06:04.13	73.95	10.20	
2025-01-17 23:06:04.33	73.99	10.20	
2025-01-17 23:06:04.53	74.03	10.20	
2025-01-17 23:06:04.74	74.08	10.20	
2025-01-17 23:06:04.94	74.12	10.20	
2025-01-17 23:06:05.14	74.16	10.20	
2025-01-17 23:06:05.34	74.20	10.21	
2025-01-17 23:06:05.55	74.24	10.21	
2025-01-17 23:06:05.75	74.29	10.21	
2025-01-17 23:06:05.95	74.33	10.21	
2025-01-17 23:06:06.16	74.37	10.21	
2025-01-17 23:06:06.36	74.41	10.21	
2025-01-17 23:06:06.56	74.45	10.21	
2025-01-17 23:06:06.77	74.50	10.21	
2025-01-17 23:06:06.97	74.54	10.22	
2025-01-17 23:06:07.17	74.58	10.22	
2025-01-17 23:06:07.37	74.62	10.22	
2025-01-17 23:06:07.58	74.66	10.22	
2025-01-17 23:06:07.78	74.70	10.22	
2025-01-17 23:06:07.98	74.74	10.22	
2025-01-17 23:06:08.19	74.79	10.22	
2025-01-17 23:06:08.39	74.83	10.22	
2025-01-17 23:06:08.59	74.87	10.22	
2025-01-17 23:06:08.79	74.91	10.23	
2025-01-17 23:06:09.00	74.95	10.23	
2025-01-17 23:06:09.20	75.00	10.23	
2025-01-17 23:06:09.40	75.04	10.23	
2025-01-17 23:06:09.61	75.08	10.23	
2025-01-17 23:06:09.81	75.12	10.23	
2025-01-17 23:06:10.01	75.16	10.23	
2025-01-17 23:06:10.22	75.21	10.23	
2025-01-17 23:06:10.42	75.25	10.23	
2025-01-17 23:06:10.62	75.29	10.23	
2025-01-17 23:06:10.82	75.33	10.24	
2025-01-17 23:06:11.03	75.37	10.24	
2025-01-17 23:06:11.23	75.41	10.24	
2025-01-17 23:06:11.43	75.46	10.24	
2025-01-17 23:06:11.64	75.50	10.24	
2025-01-17 23:06:11.84	75.54	10.24	
2025-01-17 23:06:12.04	75.58	10.24	
2025-01-17 23:06:12.25	75.63	10.24	
2025-01-17 23:06:12.45	75.67	10.24	
2025-01-17 23:06:12.65	75.71	10.24	
2025-01-17 23:06:12.85	75.75	10.24	
2025-01-17 23:06:13.06	75.79	10.25	
2025-01-17 23:06:13.26	75.83	10.25	
2025-01-17 23:06:13.46	75.88	10.25	
2025-01-17 23:06:13.67	75.92	10.25	
2025-01-17 23:06:13.87	75.96	10.25	
2025-01-17 23:06:14.07	76.00	10.25	
2025-01-17 23:06:14.28	76.04	10.25	
2025-01-17 23:06:14.48	76.09	10.25	
2025-01-17 23:06:14.68	76.13	10.25	
2025-01-17 23:06:14.88	76.17	10.25	
2025-01-17 23:06:15.09	76.21	10.25	
2025-01-17 23:06:15.29	76.25	10.25	
2025-01-17 23:06:15.49	76.29	10.25	
2025-01-17 23:06:15.70	76.34	10.25	
2025-01-17 23:06:15.90	76.38	10.25	
2025-01-17 23:06:16.10	76.42	10.26	
2025-01-17 23:06:16.31	76.46	10.26	
2025-01-17 23:06:16.51	76.51	10.26	
2025-01-17 23:06:16.71	76.55	10.26	
2025-01-17 23:06:16.91	76.59	10.26	
2025-01-17 23:06:17.12	76.63	10.26	
2025-01-17 23:06:17.32	76.67	10.26	
2025-01-17 23:06:17.52	76.71	10.26	
2025-01-17 23:06:17.73	76.76	10.26	
2025-01-17 23:06:17.93	76.80	10.26	
2025-01-17 23:06:18.13	76.84	10.26	
2025-01-17 23:06:18.33	76.88	10.26	
2025-01-17 23:06:18.54	76.92	10.26	
2025-01-17 23:06:18.74	76.97	10.26	
2025-01-17 23:06:18.94	77.01	10.26	
2025-01-17 23:06:19.15	77.05	10.26	
2025-01-17 23:06:19.35	77.09	10.26	
2025-01-17 23:06:19.55	77.13	10.26	
2025-01-17 23:06:19.76	77.18	10.26	
2025-01-17 23:06:19.96	77.22	10.26	
2025-01-17 23:06:20.16	77.26	10.26	
2025-01-17 23:06:20.36	77.30	10.26	
2025-01-17 23:06:20.57	77.34	10.27	
2025-01-17 23:06:20.77	77.39	10.27	
2025-01-17 23:06:20.97	77.43	10.27	
2025-01-17 23:06:21.18	77.47	10.27	
2025-01-17 23:06:21.38	77.51	10.27	
2025-01-17 23:06:21.58	77.55	10.27	
2025-01-17 23:06:21.79	77.60	10.27	
2025-01-17 23:06:21.99	77.64	10.27	
2025-01-17 23:06:22.19	77.68	10.27	
2025-01-17 23:06:22.39	77.72	10.27	
2025-01-17 23:06:22.60	77.76	10.27	
2025-01-17 23:06:22.80	77.81	10.27	
2025-01-17 23:06:23.00	77.85	10.27	
2025-01-17 23:06:23.21	77.89	10.27	
2025-01-17 23:06:23.41	77.93	10.27	
2025-01-17 23:06:23.61	77.97	10.27	
2025-01-17 23:06:23.82	78.02	10.27	
2025-01-17 23:06:24.02	78.06	10.27	
2025-01-17 23:06:24.22	78.10	10.27	
2025-01-17 23:06:24.42	78.14	10.27	
2025-01-17 23:06:24.63	78.18	10.27	
2025-01-17 23:06:24.83	78.23	10.27	
2025-01-17 23:06:25.03	78.27	10.27	
2025-01-17 23:06:25.24	78.31	10.27	
2025-01-17 23:06:25.44	78.35	10.27	
2025-01-17 23:06:25.64	78.39	10.27	
2025-01-17 23:06:25.85	78.44	10.27	
2025-01-17 23:06:26.05	78.48	10.27	
2025-01-17 23:06:26.25	78.52	10.27	
2025-01-17 23:06:26.45	78.56	10.27	
2025-01-17 23:06:26.66	78.60	10.27	
2025-01-17 23:06:26.86	78.65	10.27	
2025-01-17 23:06:27.06	78.69	10.27	
2025-01-17 23:06:27.27	78.73	10.27	
2025-01-17 23:06:27.47	78.77	10.27	
2025-01-17 23:06:27.67	78.81	10.27	
2025-01-17 23:06:27.88	78.86	10.27	
2025-01-17 23:06:28.08	78.90	10.27	
2025-01-17 23:06:28.28	78.94	10.27	
2025-01-17 23:06:28.48	78.98	10.27	
2025-01-17 23:06:28.69	79.02	10.27	
2025-01-17 23:06:28.89	79.07	10.27	
2025-01-17 23:06:29.09	79.11	10.27	
2025-01-17 23:06:29.30	79.15	10.27	
2025-01-17 23:06:29.50	79.19	10.27	
2025-01-17 23:06:29.70	79.23	10.27	
2025-01-17 23:06:29.90	79.27	10.27	
2025-01-17 23:06:30.11	79.32	10.27	
2025-01-17 23:06:30.31	79.36	10.27	
2025-01-17 23:06:30.51	79.40	10.26	
2025-01-17 23:06:30.72	79.44	10.26	
2025-01-17 23:06:30.92	79.49	10.26	
2025-01-17 23:06:31.12	79.53	10.26	
2025-01-17 23:06:31.33	79.57	10.26	
2025-01-17 23:06:31.53	79.61	10.26	
2025-01-17 23:06:31.73	79.65	10.26	
2025-01-17 23:06:31.93	79.69	10.26	
2025-01-17 23:06:32.14	79.74	10.26	
2025-01-17 23:06:32.34	79.78	10.26	
2025-01-17 23:06:32.54	79.82	10.26	
2025-01-17 23:06:32.75	79.86	10.26	
2025-01-17 23:06:32.95	79.91	10.26	
2025-01-17 23:06:33.15	79.95	10.26	
2025-01-17 23:06:33.36	79.99	10.26	
2025-01-17 23:06:33.56	80.03	10.26	
2025-01-17 23:06:33.76	80.07	10.26	
2025-01-17 23:06:33.96	80.11	10.26	
2025-01-17 23:06:34.17	80.16	10.26	
2025-01-17 23:06:34.37	80.20	10.26	
2025-01-17 23:06:34.57	80.24	10.26	
2025-01-17 23:06:34.78	80.28	10.25	
2025-01-17 23:06:34.98	80.33	10.25	
2025-01-17 23:06:35.18	80.37	10.25	
2025-01-17 23:06:35.39	80.41	10.25	
2025-01-17 23:06:35.59	80.45	10.25	
2025-01-17 23:06:35.79	80.49	10.25	
2025-01-17 23:06:35.99	80.53	10.25	
2025-01-17 23:06:36.20	80.58	10.25	
2025-01-17 23:06:36.40	80.62	10.25	
2025-01-17 23:06:36.60	80.66	10.25	
2025-01-17 23:06:36.81	80.70	10.25	
2025-01-17 23:06:37.01	80.74	10.25	
2025-01-17 23:06:37.21	80.79	10.25	
2025-01-17 23:06:37.42	80.83	10.25	
2025-01-17 23:06:37.62	80.87	10.25	
2025-01-17 23:06:37.82	80.91	10.24	
2025-01-17 23:06:38.02	80.95	10.24	
2025-01-17 23:06:38.23	81.00	10.24	
2025-01-17 23:06:38.43	81.04	10.24	
2025-01-17 23:06:38.63	81.08	10.24	
2025-01-17 23:06:38.84	81.12	10.24	
2025-01-17 23:06:39.04	81.16	10.24	
2025-01-17 23:06:39.24	81.21	10.24	
2025-01-17 23:06:39.44	81.25	10.24	
2025-01-17 23:06:39.65	81.29	10.24	
2025-01-17 23:06:39.85	81.33	10.24	
2025-01-17 23:06:40.05	81.37	10.24	
2025-01-17 23:06:40.26	81.42	10.23	
2025-01-17 23:06:40.46	81.46	10.23	
2025-01-17 23:06:40.66	81.50	10.23	
2025-01-17 23:06:40.87	81.54	10.23	
2025-01-17 23:06:41.07	81.58	10.23	
2025-01-17 23:06:41.27	81.62	10.23	
2025-01-17 23:06:41.47	81.67	10.23	
2025-01-17 23:06:41.68	81.71	10.23	
2025-01-17 23:06:41.88	81.75	10.23	
2025-01-17 23:06:42.08	81.79	10.23	
2025-01-17 23:06:42.29	81.84	10.22	
2025-01-17 23:06:42.49	81.88	10.22	
2025-01-17 23:06:42.69	81.92	10.22	
2025-01-17 23:06:42.90	81.96	10.22	
2025-01-17 23:06:43.10	82.00	10.22	
2025-01-17 23:06:43.30	82.04	10.22	
2025-01-17 23:06:43.50	82.08	10.22	
2025-01-17 23:06:43.71	82.13	10.22	
2025-01-17 23:06:43.91	82.17	10.22	
2025-01-17 23:06:44.11	82.21	10.21	
2025-01-17 23:06:44.32	82.25	10.21	
2025-01-17 23:06:44.52	82.29	10.21	
2025-01-17 23:06:44.72	82.34	10.21	
2025-01-17 23:06:44.93	82.38	10.21	
2025-01-17 23:06:45.13	82.42	10.21	
2025-01-17 23:06:45.33	82.46	10.21	
2025-01-17 23:06:45.53	82.50	10.21	
2025-01-17 23:06:45.74	82.55	10.20	
2025-01-17 23:06:45.94	82.59	10.20	
2025-01-17 23:06:46.14	82.63	10.20	
2025-01-17 23:06:46.35	82.67	10.20	
2025-01-17 23:06:46.55	82.71	10.20	
2025-01-17 23:06:46.75	82.75	10.20	
2025-01-17 23:06:46.96	82.80	10.20	
2025-01-17 23:06:47.16	82.84	10.19	
2025-01-17 23:06:47.36	82.88	10.19	
2025-01-17 23:06:47.56	82.92	10.19	
2025-01-17 23:06:47.77	82.96	10.19	
2025-01-17 23:06:47.97	83.01	10.19	
2025-01-17 23:06:48.17	83.05	10.19	
2025-01-17 23:06:48.38	83.09	10.19	
2025-01-17 23:06:48.58	83.13	10.18	
2025-01-17 23:06:48.78	83.17	10.18	
2025-01-17 23:06:48.98	83.21	10.18	
2025-01-17 23:06:49.19	83.26	10.18	
2025-01-17 23:06:49.39	83.30	10.18	
2025-01-17 23:06:49.59	83.34	10.18	
2025-01-17 23:06:49.80	83.38	10.18	
2025-01-17 23:06:50.00	83.42	10.17	
2025-01-17 23:06:50.20	83.46	10.17	
2025-01-17 23:06:50.41	83.51	10.17	
2025-01-17 23:06:50.61	83.55	10.17	
2025-01-17 23:06:50.81	83.59	10.17	
2025-01-17 23:06:51.01	83.63	10.17	
2025-01-17 23:06:51.22	83.67	10.16	
2025-01-17 23:06:51.42	83.71	10.16	
2025-01-17 23:06:51.62	83.76	10.16	
2025-01-17 23:06:51.83	83.80	10.16	
2025-01-17 23:06:52.03	83.84	10.16	
2025-01-17 23:06:52.23	83.88	10.16	
2025-01-17 23:06:52.44	83.92	10.15	
2025-01-17 23:06:52.64	83.97	10.15	
2025-01-17 23:06:52.84	84.01	10.15	
2025-01-17 23:06:53.04	84.05	10.15	
2025-01-17 23:06:53.25	84.09	10.15	
2025-01-17 23:06:53.45	84.13	10.15	
2025-01-17 23:06:53.65	84.17	10.14	
2025-01-17 23:06:53.86	84.22	10.14	
2025-01-17 23:06:54.06	84.26	10.14	
2025-01-17 23:06:54.26	84.30	10.14	
2025-01-17 23:06:54.47	84.34	10.14	
2025-01-17 23:06:54.67	84.38	10.14	
2025-01-17 23:06:54.87	84.42	10.13	
2025-01-17 23:06:55.07	84.46	10.13	
2025-01-17 23:06:55.28	84.51	10.13	
2025-01-17 23:06:55.48	84.55	10.13	
2025-01-17 23:06:55.68	84.59	10.13	
2025-01-17 23:06:55.89	84.63	10.12	
2025-01-17 23:06:56.09	84.67	10.12	
2025-01-17 23:06:56.29	84.71	10.12	
2025-01-17 23:06:56.50	84.76	10.12	
2025-01-17 23:06:56.70	84.80	10.12	
2025-01-17 23:06:56.90	84.84	10.11	
2025-01-17 23:06:57.10	84.88	10.11	
2025-01-17 23:06:57.31	84.92	10.11	
2025-01-17 23:06:57.51	84.96	10.11	
2025-01-17 23:06:57.71	85.00	10.11	
2025-01-17 23:06:57.92	85.05	10.10	
2025-01-17 23:06:58.12	85.09	10.10	
2025-01-17 23:06:58.32	85.13	10.10	
2025-01-17 23:06:58.52	85.17	10.10	
2025-01-17 23:06:58.73	85.21	10.10	
2025-01-17 23:06:58.93	85.25	10.09	
2025-01-17 23:06:59.13	85.30	10.09	
2025-01-17 23:06:59.34	85.34	10.09	
2025-01-17 23:06:59.54	85.38	10.09	
2025-01-17 23:06:59.74	85.42	10.09	
2025-01-17 23:06:59.95	85.46	10.08	
2025-01-17 23:07:00.15	85.50	10.08	
2025-01-17 23:07:00.35	85.54	10.08	
2025-01-17 23:07:00.55	85.59	10.08	
2025-01-17 23:07:00.76	85.63	10.07	
2025-01-17 23:07:00.96	85.67	10.07	
2025-01-17 23:07:01.16	85.71	10.07	
2025-01-17 23:07:01.37	85.75	10.07	
2025-01-17 23:07:01.57	85.79	10.07	
2025-01-17 23:07:01.77	85.83	10.06	
2025-01-17 23:07:01.98	85.88	10.06	
2025-01-17 23:07:02.18	85.92	10.06	
2025-01-17 23:07:02.38	85.96	10.06	
2025-01-17 23:07:02.58	86.00	10.05	
2025-01-17 23:07:02.79	86.04	10.05	
2025-01-17 23:07:02.99	86.08	10.05	
2025-01-17 23:07:03.19	86.12	10.05	
2025-01-17 23:07:03.40	86.17	10.04	
2025-01-17 23:07:03.60	86.21	10.04	
2025-01-17 23:07:03.80	86.25	10.04	
2025-01-17 23:07:04.01	86.29	10.04	
2025-01-17 23:07:04.21	86.33	10.03	
2025-01-17 23:07:04.41	86.37	10.03	
2025-01-17 23:07:04.61	86.41	10.03	
2025-01-17 23:07:04.82	86.46	10.03	
2025-01-17 23:07:05.02	86.50	10.03	
2025-01-17 23:07:05.22	86.54	10.02	
2025-01-17 23:07:05.43	86.58	10.02	
2025-01-17 23:07:05.63	86.62	10.02	
2025-01-17 23:07:05.83	86.66	10.02	
2025-01-17 23:07:06.04	86.70	10.01	
2025-01-17 23:07:06.24	86.74	10.01	
2025-01-17 23:07:06.44	86.79	10.01	
2025-01-17 23:07:06.64	86.83	10.00	
2025-01-17 23:07:06.85	86.87	10.00	
2025-01-17 23:07:07.05	86.91	10.00	
2025-01-17 23:07:07.25	86.95	10.00	
2025-01-17 23:07:07.46	86.99	9.99	
2025-01-17 23:07:07.66	87.03	9.99	
2025-01-17 23:07:07.86	87.07	9.99	
2025-01-17 23:07:08.07	87.12	9.99	
2025-01-17 23:07:08.27	87.16	9.98	
2025-01-17 23:07:08.47	87.20	9.98	
2025-01-17 23:07:08.67	87.24	9.98	
2025-01-17 23:07:08.88	87.28	9.98	
2025-01-17 23:07:09.08	87.32	9.97	
2025-01-17 23:07:09.28	87.36	9.97	
2025-01-17 23:07:09.49	87.40	9.97	
2025-01-17 23:07:09.69	87.45	9.96	
2025-01-17 23:07:09.89	87.49	9.96	
2025-01-17 23:07:10.09	87.53	9.96	
2025-01-17 23:07:10.30	87.57	9.96	
2025-01-17 23:07:10.50	87.61	9.95	
2025-01-17 23:07:10.70	87.65	9.95	
2025-01-17 23:07:10.91	87.69	9.95	
2025-01-17 23:07:11.11	87.73	9.95	
2025-01-17 23:07:11.31	87.77	9.94	
2025-01-17 23:07:11.52	87.82	9.94	
2025-01-17 23:07:11.72	87.86	9.94	
2025-01-17 23:07:11.92	87.90	9.93	
2025-01-17 23:07:12.12	87.94	9.93	
2025-01-17 23:07:12.33	87.98	9.93	
2025-01-17 23:07:12.53	88.02	9.93	
2025-01-17 23:07:12.73	88.06	9.92	
2025-01-17 23:07:12.94	88.10	9.92	
2025-01-17 23:07:13.14	88.14	9.92	
2025-01-17 23:07:13.34	88.18	9.91	
2025-01-17 23:07:13.55	88.23	9.91	
2025-01-17 23:07:13.75	88.27	9.91	
2025-01-17 23:07:13.95	88.31	9.90	
2025-01-17 23:07:14.15	88.35	9.90	
2025-01-17 23:07:14.36	88.39	9.90	
2025-01-17 23:07:14.56	88.43	9.90	
2025-01-17 23:07:14.76	88.47	9.89	
2025-01-17 23:07:14.97	88.51	9.89	
2025-01-17 23:07:15.17	88.55	9.89	
2025-01-17 23:07:15.37	88.59	9.88	
2025-01-17 23:07:15.58	88.64	9.88	
2025-01-17 23:07:15.78	88.68	9.88	
2025-01-17 23:07:15.98	88.72	9.87	
2025-01-17 23:07:16.18	88.76	9.87	
2025-01-17 23:07:16.39	88.80	9.87	
2025-01-17 23:07:16.59	88.84	9.86	
2025-01-17 23:07:16.79	88.88	9.86	
2025-01-17 23:07:17.00	88.92	9.86	
2025-01-17 23:07:17.20	88.96	9.85	
2025-01-17 23:07:17.40	89.00	9.85	
2025-01-17 23:07:17.61	89.04	9.85	
2025-01-17 23:07:17.81	89.08	9.85	
2025-01-17 23:07:18.01	89.12	9.84	
2025-01-17 23:07:18.21	89.16	9.84	
2025-01-17 23:07:18.42	89.21	9.84	
2025-01-17 23:07:18.62	89.25	9.83	
2025-01-17 23:07:18.82	89.29	9.83	
2025-01-17 23:07:19.03	89.33	9.83	
2025-01-17 23:07:19.23	89.37	9.82	
2025-01-17 23:07:19.43	89.41	9.82	
2025-01-17 23:07:19.63	89.45	9.82	
2025-01-17 23:07:19.84	89.49	9.81	
2025-01-17 23:07:20.04	89.53	9.81	
2025-01-17 23:07:20.24	89.57	9.81	
2025-01-17 23:07:20.45	89.61	9.80	
2025-01-17 23:07:20.65	89.65	9.80	
2025-01-17 23:07:20.85	89.69	9.80	
2025-01-17 23:07:21.06	89.74	9.79	
2025-01-17 23:07:21.26	89.78	9.79	
2025-01-17 23:07:21.46	89.82	9.79	
2025-01-17 23:07:21.66	89.86	9.78	
2025-01-17 23:07:21.87	89.90	9.78	
2025-01-17 23:07:22.07	89.94	9.78	
2025-01-17 23:07:22.27	89.98	9.77	
2025-01-17 23:07:22.48	90.02	9.77	
2025-01-17 23:07:22.68	90.06	9.76	
2025-01-17 23:07:22.88	90.10	9.76	
2025-01-17 23:07:23.09	90.14	9.76	
2025-01-17 23:07:23.29	90.18	9.75	
2025-01-17 23:07:23.49	90.22	9.75	
2025-01-17 23:07:23.69	90.26	9.75	
2025-01-17 23:07:23.90	90.30	9.74	
2025-01-17 23:07:24.10	90.34	9.74	
2025-01-17 23:07:24.30	90.38	9.74	
2025-01-17 23:07:24.51	90.42	9.73	
2025-01-17 23:07:24.71	90.46	9.73	
2025-01-17 23:07:24.91	90.50	9.73	
2025-01-17 23:07:25.12	90.55	9.72	
2025-01-17 23:07:25.32	90.59	9.72	
2025-01-17 23:07:25.52	90.63	9.71	
2025-01-17 23:07:25.72	90.67	9.71	
2025-01-17 23:07:25.93	90.71	9.71	
2025-01-17 23:07:26.13	90.75	9.70	
2025-01-17 23:07:26.33	90.79	9.70	
2025-01-17 23:07:26.54	90.83	9.70	
2025-01-17 23:07:26.74	90.87	9.69	
2025-01-17 23:07:26.94	90.91	9.69	
2025-01-17 23:07:27.15	90.95	9.68	
2025-01-17 23:07:27.35	90.99	9.68	
2025-01-17 23:07:27.55	91.03	9.68	
2025-01-17 23:07:27.75	91.07	9.67	
2025-01-17 23:07:27.96	91.11	9.67	
2025-01-17 23:07:28.16	91.15	9.67	
2025-01-17 23:07:28.36	91.19	9.66	
2025-01-17 23:07:28.57	91.23	9.66	
2025-01-17 23:07:28.77	91.27	9.65	
2025-01-17 23:07:28.97	91.31	9.65	
2025-01-17 23:07:29.17	91.35	9.65	
2025-01-17 23:07:29.38	91.39	9.64	
2025-01-17 23:07:29.58	91.43	9.64	
2025-01-17 23:07:29.78	91.47	9.64	
2025-01-17 23:07:29.99	91.51	9.63	
2025-01-17 23:07:30.19	91.55	9.63	
2025-01-17 23:07:30.39	91.59	9.62	
2025-01-17 23:07:30.60	91.63	9.62	
2025-01-17 23:07:30.80	91.67	9.62	
2025-01-17 23:07:31.00	91.71	9.61	
2025-01-17 23:07:31.20	91.75	9.61	
2025-01-17 23:07:31.41	91.79	9.60	
2025-01-17 23:07:31.61	91.83	9.60	
2025-01-17 23:07:31.81	91.87	9.60	
2025-01-17 23:07:32.02	91.91	9.59	
2025-01-17 23:07:32.22	91.95	9.59	
2025-01-17 23:07:32.42	91.99	9.58	
2025-01-17 23:07:32.63	92.03	9.58	
2025-01-17 23:07:32.83	92.07	9.58	
2025-01-17 23:07:33.03	92.11	9.57	
2025-01-17 23:07:33.23	92.15	9.57	
2025-01-17 23:07:33.44	92.19	9.56	
2025-01-17 23:07:33.64	92.23	9.56	
2025-01-17 23:07:33.84	92.27	9.56	
2025-01-17 23:07:34.05	92.31	9.55	
2025-01-17 23:07:34.25	92.35	9.55	
2025-01-17 23:07:34.45	92.39	9.54	
2025-01-17 23:07:34.66	92.43	9.54	
2025-01-17 23:07:34.86	92.47	9.53	
2025-01-17 23:07:35.06	92.51	9.53	
2025-01-17 23:07:35.26	92.55	9.53	
2025-01-17 23:07:35.47	92.59	9.52	
2025-01-17 23:07:35.67	92.63	9.52	
2025-01-17 23:07:35.87	92.67	9.51	
2025-01-17 23:07:36.08	92.71	9.51	
2025-01-17 23:07:36.28	92.75	9.51	
2025-01-17 23:07:36.48	92.79	9.50	
2025-01-17 23:07:36.69	92.83	9.50	
2025-01-17 23:07:36.89	92.87	9.49	
2025-01-17 23:07:37.09	92.91	9.49	
2025-01-17 23:07:37.29	92.95	9.48	
2025-01-17 23:07:37.50	92.99	9.48	
2025-01-17 23:07:37.70	93.03	9.48	
2025-01-17 23:07:37.90	93.07	9.47	
2025-01-17 23:07:38.11	93.11	9.47	
2025-01-17 23:07:38.31	93.15	9.46	
2025-01-17 23:07:38.51	93.19	9.46	
2025-01-17 23:07:38.72	93.23	9.45	
2025-01-17 23:07:38.92	93.27	9.45	
2025-01-17 23:07:39.12	93.31	9.44	
2025-01-17 23:07:39.32	93.35	9.44	
2025-01-17 23:07:39.53	93.39	9.44	
2025-01-17 23:07:39.73	93.43	9.43	
2025-01-17 23:07:39.93	93.47	9.43	
2025-01-17 23:07:40.14	93.51	9.42	
2025-01-17 23:07:40.34	93.55	9.42	
2025-01-17 23:07:40.54	93.59	9.41	
2025-01-17 23:07:40.74	93.62	9.41	
2025-01-17 23:07:40.95	93.67	9.40	
2025-01-17 23:07:41.15	93.70	9.40	
2025-01-17 23:07:41.35	93.74	9.40	
2025-01-17 23:07:41.56	93.78	9.39	
2025-01-17 23:07:41.76	93.82	9.39	
2025-01-17 23:07:41.96	93.86	9.38	
2025-01-17 23:07:42.17	93.90	9.38	
2025-01-17 23:07:42.37	93.94	9.37	
2025-01-17 23:07:42.57	93.98	9.37	
2025-01-17 23:07:42.77	94.02	9.36	
2025-01-17 23:07:42.98	94.06	9.36	
2025-01-17 23:07:43.18	94.10	9.35	
2025-01-17 23:07:43.38	94.14	9.35	
2025-01-17 23:07:43.59	94.18	9.35	
2025-01-17 23:07:43.79	94.22	9.34	
2025-01-17 23:07:43.99	94.26	9.34	
2025-01-17 23:07:44.20	94.30	9.33	
2025-01-17 23:07:44.40	94.34	9.33	
2025-01-17 23:07:44.60	94.37	9.32	
2025-01-17 23:07:44.80	94.41	9.32	
2025-01-17 23:07:45.01	94.45	9.31	
2025-01-17 23:07:45.21	94.49	9.31	
2025-01-17 23:07:45.41	94.53	9.30	
2025-01-17 23:07:45.62	94.57	9.30	
2025-01-17 23:07:45.82	94.61	9.29	
2025-01-17 23:07:46.02	94.65	9.29	
2025-01-17 23:07:46.23	94.69	9.28	
2025-01-17 23:07:46.43	94.73	9.28	
2025-01-17 23:07:46.63	94.77	9.28	
2025-01-17 23:07:46.83	94.81	9.27	
2025-01-17 23:07:47.04	94.85	9.27	
2025-01-17 23:07:47.24	94.88	9.26	
2025-01-17 23:07:47.44	94.92	9.26	
2025-01-17 23:07:47.65	94.96	9.25	
2025-01-17 23:07:47.85	95.00	9.25	
2025-01-17 23:07:48.05	95.04	9.24	
2025-01-17 23:07:48.26	95.08	9.24	
2025-01-17 23:07:48.46	95.12	9.23	
2025-01-17 23:07:48.66	95.16	9.23	
2025-01-17 23:07:48.86	95.20	9.22	
2025-01-17 23:07:49.07	95.24	9.22	
2025-01-17 23:07:49.27	95.28	9.21	
2025-01-17 23:07:49.47	95.31	9.21	
2025-01-17 23:07:49.68	95.35	9.20	
2025-01-17 23:07:49.88	95.39	9.20	
2025-01-17 23:07:50.08	95.43	9.19	
2025-01-17 23:07:50.28	95.47	9.19	
2025-01-17 23:07:50.49	95.51	9.18	
2025-01-17 23:07:50.69	95.55	9.18	
2025-01-17 23:07:50.89	95.59	9.17	
2025-01-17 23:07:51.10	95.63	9.17	
2025-01-17 23:07:51.30	95.66	9.16	
2025-01-17 23:07:51.50	95.70	9.16	
2025-01-17 23:07:51.71	95.74	9.15	
2025-01-17 23:07:51.91	95.78	9.15	
2025-01-17 23:07:52.11	95.82	9.14	
2025-01-17 23:07:52.31	95.86	9.14	
2025-01-17 23:07:52.52	95.90	9.13	
2025-01-17 23:07:52.72	95.94	9.13	
2025-01-17 23:07:52.92	95.97	9.12	
2025-01-17 23:07:53.13	96.01	9.12	
2025-01-17 23:07:53.33	96.05	9.11	
2025-01-17 23:07:53.53	96.09	9.11	
2025-01-17 23:07:53.74	96.13	9.10	
2025-01-17 23:07:53.94	96.17	9.10	
2025-01-17 23:07:54.14	96.21	9.09	
2025-01-17 23:07:54.34	96.24	9.09	
2025-01-17 23:07:54.55	96.28	9.08	
2025-01-17 23:07:54.75	96.32	9.08	
2025-01-17 23:07:54.95	96.36	9.07	
2025-01-17 23:07:55.16	96.40	9.07	
2025-01-17 23:07:55.36	96.44	9.06	
2025-01-17 23:07:55.56	96.48	9.06	
2025-01-17 23:07:55.77	96.52	9.05	
2025-01-17 23:07:55.97	96.55	9.05	
2025-01-17 23:07:56.17	96.59	9.04	
2025-01-17 23:07:56.37	96.63	9.03	
2025-01-17 23:07:56.58	96.67	9.03	
2025-01-17 23:07:56.78	96.71	9.02	
2025-01-17 23:07:56.98	96.75	9.02	
2025-01-17 23:07:57.19	96.79	9.01	
2025-01-17 23:07:57.39	96.82	9.01	
2025-01-17 23:07:57.59	96.86	9.00	
2025-01-17 23:07:57.80	96.90	9.00	
2025-01-17 23:07:58.00	96.94	8.99	
2025-01-17 23:07:58.20	96.98	8.99	
2025-01-17 23:07:58.40	97.02	8.98	
2025-01-17 23:07:58.61	97.05	8.98	
2025-01-17 23:07:58.81	97.09	8.97	
2025-01-17 23:07:59.01	97.13	8.97	
2025-01-17 23:07:59.22	97.17	8.96	
2025-01-17 23:07:59.42	97.21	8.95	
2025-01-17 23:07:59.62	97.25	8.95	
2025-01-17 23:07:59.82	97.28	8.94	
2025-01-17 23:08:00.03	97.32	8.94	
2025-01-17 23:08:00.23	97.36	8.93	
2025-01-17 23:08:00.43	97.40	8.93	
2025-01-17 23:08:00.64	97.44	8.92	
2025-01-17 23:08:00.84	97.48	8.92	
2025-01-17 23:08:01.04	97.51	8.91	
2025-01-17 23:08:01.25	97.55	8.91	
2025-01-17 23:08:01.45	97.59	8.90	
2025-01-17 23:08:01.65	97.63	8.90	
2025-01-17 23:08:01.85	97.66	8.89	
2025-01-17 23:08:02.06	97.70	8.88	
2025-01-17 23:08:02.26	97.74	8.88	
2025-01-17 23:08:02.46	97.78	8.87	
2025-01-17 23:08:02.67	97.82	8.87	
2025-01-17 23:08:02.87	97.86	8.86	
2025-01-17 23:08:03.07	97.89	8.86	
2025-01-17 23:08:03.28	97.93	8.85	
2025-01-17 23:08:03.48	97.97	8.85	
2025-01-17 23:08:03.68	98.01	8.84	
2025-01-17 23:08:03.88	98.05	8.83	
2025-01-17 23:08:04.09	98.08	8.83	
2025-01-17 23:08:04.29	98.12	8.82	
2025-01-17 23:08:04.49	98.16	8.82	
2025-01-17 23:08:04.70	98.20	8.81	
2025-01-17 23:08:04.90	98.24	8.81	
2025-01-17 23:08:05.10	98.27	8.80	
2025-01-17 23:08:05.31	98.31	8.79	
2025-01-17 23:08:05.51	98.35	8.79	
2025-01-17 23:08:05.71	98.39	8.78	
2025-01-17 23:08:05.91	98.42	8.78	
2025-01-17 23:08:06.12	98.46	8.77	
2025-01-17 23:08:06.32	98.50	8.77	
2025-01-17 23:08:06.52	98.54	8.76	
2025-01-17 23:08:06.73	98.58	8.76	
2025-01-17 23:08:06.93	98.61	8.75	
2025-01-17 23:08:07.13	98.65	8.74	
2025-01-17 23:08:07.34	98.69	8.74	
2025-01-17 23:08:07.54	98.73	8.73	
2025-01-17 23:08:07.74	98.76	8.73	
2025-01-17 23:08:07.94	98.80	8.72	
2025-01-17 23:08:08.15	98.84	8.72	
2025-01-17 23:08:08.35	98.88	8.71	
2025-01-17 23:08:08.55	98.91	8.70	
2025-01-17 23:08:08.76	98.95	8.70	
2025-01-17 23:08:08.96	98.99	8.69	
2025-01-17 23:08:09.16	99.03	8.69	
2025-01-17 23:08:09.36	99.06	8.68	
2025-01-17 23:08:09.57	99.10	8.67	
2025-01-17 23:08:09.77	99.14	8.67	
2025-01-17 23:08:09.97	99.18	8.66	
2025-01-17 23:08:10.18	99.22	8.66	
2025-01-17 23:08:10.38	99.25	8.65	
2025-01-17 23:08:10.58	99.29	8.65	
2025-01-17 23:08:10.79	99.33	8.64	
2025-01-17 23:08:10.99	99.37	8.63	
2025-01-17 23:08:11.19	99.40	8.63	
2025-01-17 23:08:11.39	99.44	8.62	
2025-01-17 23:08:11.60	99.48	8.62	
2025-01-17 23:08:11.80	99.51	8.61	
2025-01-17 23:08:12.00	99.55	8.60	
2025-01-17 23:08:12.21	99.59	8.60	
2025-01-17 23:08:12.41	99.63	8.59	
2025-01-17 23:08:12.61	99.66	8.59	
2025-01-17 23:08:12.82	99.70	8.58	
2025-01-17 23:08:13.02	99.74	8.57	
2025-01-17 23:08:13.22	99.78	8.57	
2025-01-17 23:08:13.42	99.81	8.56	
2025-01-17 23:08:13.63	99.85	8.56	
2025-01-17 23:08:13.83	99.89	8.55	
2025-01-17 23:08:14.03	99.92	8.54	
2025-01-17 23:08:14.24	99.96	8.54	
2025-01-17 23:08:14.44	100.00	8.53	
2025-01-17 23:08:14.64	100.04	8.53	
2025-01-17 23:08:14.85	100.07	8.52	
2025-01-17 23:08:15.05	100.11	8.51	
2025-01-17 23:08:15.25	100.15	8.51	
2025-01-17 23:08:15.45	100.18	8.50	
2025-01-17 23:08:15.66	100.22	8.50	
2025-01-17 23:08:15.86	100.26	8.49	
2025-01-17 23:08:16.06	100.30	8.48	
2025-01-17 23:08:16.27	100.33	8.48	
2025-01-17 23:08:16.47	100.37	8.47	
2025-01-17 23:08:16.67	100.41	8.47	
2025-01-17 23:08:16.88	100.44	8.46	
2025-01-17 23:08:17.08	100.48	8.45	
2025-01-17 23:08:17.28	100.52	8.45	
2025-01-17 23:08:17.48	100.55	8.44	
2025-01-17 23:08:17.69	100.59	8.43	
2025-01-17 23:08:17.89	100.63	8.43	
2025-01-17 23:08:18.09	100.66	8.42	
2025-01-17 23:08:18.30	100.70	8.42	
2025-01-17 23:08:18.50	100.74	8.41	
2025-01-17 23:08:18.70	100.78	8.40	
2025-01-17 23:08:18.91	100.81	8.40	
2025-01-17 23:08:19.11	100.85	8.39	
2025-01-17 23:08:19.31	100.89	8.39	
