passes_logs/2025/01/17/SPB_Silybum_02/SPB_Silybum_02__20250117_110846_SUOMI_NPP_rec.log

#Pass ID: 20250117_110846_SUOMI NPP
#Satellite: SUOMI NPP
#Configuration: NPP
#Start time: 2025-01-17 11:08:45

#Version: 2.0.20230423
#Station: SPB_Silybum_02
#Location: 30.233357 lon 59.946436 lat
#TLE: 1 37849U 11061A   25016.82296503  .00000177  00000+0  10458-3 0  9994
#TLE: 2 37849  98.7449 317.7884 0001611  38.3630 321.7660 14.19539095685172

#Time	Az	El	Level	Level2	SNR	BER	Gain	Gain2
2025-01-17 11:08:47.75	185.05	4.10	
2025-01-17 11:08:47.95	185.06	4.12	
2025-01-17 11:08:48.15	185.07	4.13	
2025-01-17 11:08:48.36	185.07	4.14	
2025-01-17 11:08:48.56	185.08	4.16	
2025-01-17 11:08:48.76	185.09	4.17	
2025-01-17 11:08:48.96	185.10	4.18	
2025-01-17 11:08:49.17	185.11	4.20	
2025-01-17 11:08:49.37	185.12	4.21	
2025-01-17 11:08:49.57	185.13	4.22	
2025-01-17 11:08:49.78	185.14	4.24	
2025-01-17 11:08:49.98	185.15	4.25	
2025-01-17 11:08:50.18	185.15	4.27	
2025-01-17 11:08:50.38	185.16	4.28	
2025-01-17 11:08:50.59	185.17	4.29	
2025-01-17 11:08:50.79	185.18	4.31	
2025-01-17 11:08:50.99	185.19	4.32	
2025-01-17 11:08:51.20	185.20	4.33	
2025-01-17 11:08:51.40	185.21	4.35	
2025-01-17 11:08:51.60	185.22	4.36	
2025-01-17 11:08:51.81	185.23	4.37	
2025-01-17 11:08:52.01	185.23	4.39	
2025-01-17 11:08:52.21	185.24	4.40	
2025-01-17 11:08:52.41	185.25	4.41	
2025-01-17 11:08:52.62	185.26	4.43	
2025-01-17 11:08:52.82	185.27	4.44	
2025-01-17 11:08:53.02	185.28	4.46	
2025-01-17 11:08:53.23	185.29	4.47	
2025-01-17 11:08:53.43	185.30	4.48	
2025-01-17 11:08:53.63	185.31	4.50	
2025-01-17 11:08:53.84	185.32	4.51	
2025-01-17 11:08:54.04	185.33	4.52	
2025-01-17 11:08:54.24	185.33	4.54	
2025-01-17 11:08:54.44	185.34	4.55	
2025-01-17 11:08:54.65	185.35	4.57	
2025-01-17 11:08:54.85	185.36	4.58	
2025-01-17 11:08:55.05	185.37	4.59	
2025-01-17 11:08:55.26	185.38	4.61	
2025-01-17 11:08:55.46	185.39	4.62	
2025-01-17 11:08:55.66	185.40	4.63	
2025-01-17 11:08:55.87	185.41	4.65	
2025-01-17 11:08:56.07	185.42	4.66	
2025-01-17 11:08:56.27	185.42	4.67	
2025-01-17 11:08:56.47	185.43	4.69	
2025-01-17 11:08:56.68	185.44	4.70	
2025-01-17 11:08:56.88	185.45	4.72	
2025-01-17 11:08:57.08	185.46	4.73	
2025-01-17 11:08:57.29	185.47	4.74	
2025-01-17 11:08:57.49	185.48	4.76	
2025-01-17 11:08:57.69	185.49	4.77	
2025-01-17 11:08:57.89	185.50	4.78	
2025-01-17 11:08:58.10	185.51	4.80	
2025-01-17 11:08:58.30	185.52	4.81	
2025-01-17 11:08:58.50	185.53	4.83	
2025-01-17 11:08:58.71	185.54	4.84	
2025-01-17 11:08:58.91	185.54	4.85	
2025-01-17 11:08:59.11	185.55	4.87	
2025-01-17 11:08:59.32	185.56	4.88	
2025-01-17 11:08:59.52	185.57	4.90	
2025-01-17 11:08:59.72	185.58	4.91	
2025-01-17 11:08:59.92	185.59	4.92	
2025-01-17 11:09:00.13	185.60	4.94	
2025-01-17 11:09:00.33	185.61	4.95	
2025-01-17 11:09:00.53	185.62	4.96	
2025-01-17 11:09:00.74	185.63	4.98	
2025-01-17 11:09:00.94	185.64	4.99	
2025-01-17 11:09:01.14	185.65	5.01	
2025-01-17 11:09:01.35	185.66	5.02	
2025-01-17 11:09:01.55	185.67	5.03	
2025-01-17 11:09:01.75	185.67	5.05	
2025-01-17 11:09:01.95	185.68	5.06	
2025-01-17 11:09:02.16	185.69	5.08	
2025-01-17 11:09:02.36	185.70	5.09	
2025-01-17 11:09:02.56	185.71	5.10	
2025-01-17 11:09:02.77	185.72	5.12	
2025-01-17 11:09:02.97	185.73	5.13	
2025-01-17 11:09:03.17	185.74	5.15	
2025-01-17 11:09:03.37	185.75	5.16	
2025-01-17 11:09:03.58	185.76	5.17	
2025-01-17 11:09:03.78	185.77	5.19	
2025-01-17 11:09:03.98	185.78	5.20	
2025-01-17 11:09:04.19	185.79	5.22	
2025-01-17 11:09:04.39	185.80	5.23	
2025-01-17 11:09:04.59	185.81	5.24	
2025-01-17 11:09:04.80	185.82	5.26	
2025-01-17 11:09:05.00	185.83	5.27	
2025-01-17 11:09:05.20	185.84	5.29	
2025-01-17 11:09:05.40	185.84	5.30	
2025-01-17 11:09:05.61	185.85	5.31	
2025-01-17 11:09:05.81	185.86	5.33	
2025-01-17 11:09:06.01	185.87	5.34	
2025-01-17 11:09:06.22	185.88	5.36	
2025-01-17 11:09:06.42	185.89	5.37	
2025-01-17 11:09:06.62	185.90	5.38	
2025-01-17 11:09:06.83	185.91	5.40	
2025-01-17 11:09:07.03	185.92	5.41	
2025-01-17 11:09:07.23	185.93	5.43	
2025-01-17 11:09:07.43	185.94	5.44	
2025-01-17 11:09:07.64	185.95	5.45	
2025-01-17 11:09:07.84	185.96	5.47	
2025-01-17 11:09:08.04	185.97	5.48	
2025-01-17 11:09:08.25	185.98	5.50	
2025-01-17 11:09:08.45	185.99	5.51	
2025-01-17 11:09:08.65	186.00	5.53	
2025-01-17 11:09:08.86	186.01	5.54	
2025-01-17 11:09:09.06	186.02	5.55	
2025-01-17 11:09:09.26	186.03	5.57	
2025-01-17 11:09:09.46	186.04	5.58	
2025-01-17 11:09:09.67	186.05	5.60	
2025-01-17 11:09:09.87	186.06	5.61	
2025-01-17 11:09:10.07	186.07	5.62	
2025-01-17 11:09:10.28	186.08	5.64	
2025-01-17 11:09:10.48	186.09	5.65	
2025-01-17 11:09:10.68	186.09	5.67	
2025-01-17 11:09:10.88	186.10	5.68	
2025-01-17 11:09:11.09	186.11	5.70	
2025-01-17 11:09:11.29	186.12	5.71	
2025-01-17 11:09:11.49	186.13	5.72	
2025-01-17 11:09:11.70	186.14	5.74	
2025-01-17 11:09:11.90	186.15	5.75	
2025-01-17 11:09:12.10	186.16	5.77	
2025-01-17 11:09:12.31	186.17	5.78	
2025-01-17 11:09:12.51	186.18	5.80	
2025-01-17 11:09:12.71	186.19	5.81	
2025-01-17 11:09:12.91	186.20	5.82	
2025-01-17 11:09:13.12	186.21	5.84	
2025-01-17 11:09:13.32	186.22	5.85	
2025-01-17 11:09:13.52	186.23	5.87	
2025-01-17 11:09:13.73	186.24	5.88	
2025-01-17 11:09:13.93	186.25	5.90	
2025-01-17 11:09:14.13	186.26	5.91	
2025-01-17 11:09:14.34	186.27	5.92	
2025-01-17 11:09:14.54	186.28	5.94	
2025-01-17 11:09:14.74	186.29	5.95	
2025-01-17 11:09:14.94	186.30	5.97	
2025-01-17 11:09:15.15	186.31	5.98	
2025-01-17 11:09:15.35	186.32	6.00	
2025-01-17 11:09:15.55	186.33	6.01	
2025-01-17 11:09:15.76	186.34	6.03	
2025-01-17 11:09:15.96	186.35	6.04	
2025-01-17 11:09:16.16	186.36	6.05	
2025-01-17 11:09:16.37	186.37	6.07	
2025-01-17 11:09:16.57	186.38	6.08	
2025-01-17 11:09:16.77	186.39	6.10	
2025-01-17 11:09:16.97	186.40	6.11	
2025-01-17 11:09:17.18	186.41	6.13	
2025-01-17 11:09:17.38	186.42	6.14	
2025-01-17 11:09:17.58	186.43	6.15	
2025-01-17 11:09:17.79	186.44	6.17	
2025-01-17 11:09:17.99	186.45	6.18	
2025-01-17 11:09:18.19	186.46	6.20	
2025-01-17 11:09:18.39	186.47	6.21	
2025-01-17 11:09:18.60	186.48	6.23	
2025-01-17 11:09:18.80	186.49	6.24	
2025-01-17 11:09:19.00	186.50	6.26	
2025-01-17 11:09:19.21	186.51	6.27	
2025-01-17 11:09:19.41	186.52	6.29	
2025-01-17 11:09:19.61	186.53	6.30	
2025-01-17 11:09:19.82	186.54	6.32	
2025-01-17 11:09:20.02	186.55	6.33	
2025-01-17 11:09:20.22	186.56	6.34	
2025-01-17 11:09:20.42	186.57	6.36	
2025-01-17 11:09:20.63	186.58	6.37	
2025-01-17 11:09:20.83	186.59	6.39	
2025-01-17 11:09:21.03	186.60	6.40	
2025-01-17 11:09:21.24	186.61	6.42	
2025-01-17 11:09:21.44	186.62	6.43	
2025-01-17 11:09:21.64	186.63	6.45	
2025-01-17 11:09:21.85	186.64	6.46	
2025-01-17 11:09:22.05	186.65	6.48	
2025-01-17 11:09:22.25	186.66	6.49	
2025-01-17 11:09:22.45	186.67	6.50	
2025-01-17 11:09:22.66	186.69	6.52	
2025-01-17 11:09:22.86	186.70	6.53	
2025-01-17 11:09:23.06	186.71	6.55	
2025-01-17 11:09:23.27	186.72	6.56	
2025-01-17 11:09:23.47	186.73	6.58	
2025-01-17 11:09:23.67	186.74	6.59	
2025-01-17 11:09:23.88	186.75	6.61	
2025-01-17 11:09:24.08	186.76	6.62	
2025-01-17 11:09:24.28	186.77	6.64	
2025-01-17 11:09:24.48	186.78	6.65	
2025-01-17 11:09:24.69	186.79	6.67	
2025-01-17 11:09:24.89	186.80	6.68	
2025-01-17 11:09:25.09	186.81	6.70	
2025-01-17 11:09:25.30	186.82	6.71	
2025-01-17 11:09:25.50	186.83	6.73	
2025-01-17 11:09:25.70	186.84	6.74	
2025-01-17 11:09:25.90	186.85	6.75	
2025-01-17 11:09:26.11	186.86	6.77	
2025-01-17 11:09:26.31	186.87	6.78	
2025-01-17 11:09:26.51	186.88	6.80	
2025-01-17 11:09:26.72	186.89	6.81	
2025-01-17 11:09:26.92	186.90	6.83	
2025-01-17 11:09:27.12	186.91	6.84	
2025-01-17 11:09:27.33	186.92	6.86	
2025-01-17 11:09:27.53	186.94	6.87	
2025-01-17 11:09:27.73	186.95	6.89	
2025-01-17 11:09:27.93	186.96	6.90	
2025-01-17 11:09:28.14	186.97	6.92	
2025-01-17 11:09:28.34	186.98	6.93	
2025-01-17 11:09:28.54	186.99	6.95	
2025-01-17 11:09:28.75	187.00	6.96	
2025-01-17 11:09:28.95	187.01	6.98	
2025-01-17 11:09:29.15	187.02	6.99	
2025-01-17 11:09:29.36	187.03	7.01	
2025-01-17 11:09:29.56	187.04	7.02	
2025-01-17 11:09:29.76	187.05	7.04	
2025-01-17 11:09:29.96	187.06	7.05	
2025-01-17 11:09:30.17	187.07	7.07	
2025-01-17 11:09:30.37	187.08	7.08	
2025-01-17 11:09:30.57	187.09	7.10	
2025-01-17 11:09:30.78	187.10	7.11	
2025-01-17 11:09:30.98	187.12	7.13	
2025-01-17 11:09:31.18	187.13	7.14	
2025-01-17 11:09:31.39	187.14	7.16	
2025-01-17 11:09:31.59	187.15	7.17	
2025-01-17 11:09:31.79	187.16	7.19	
2025-01-17 11:09:31.99	187.17	7.20	
2025-01-17 11:09:32.20	187.18	7.22	
2025-01-17 11:09:32.40	187.19	7.23	
2025-01-17 11:09:32.60	187.20	7.25	
2025-01-17 11:09:32.81	187.21	7.26	
2025-01-17 11:09:33.01	187.22	7.28	
2025-01-17 11:09:33.21	187.23	7.29	
2025-01-17 11:09:33.41	187.24	7.31	
2025-01-17 11:09:33.62	187.26	7.32	
2025-01-17 11:09:33.82	187.27	7.34	
2025-01-17 11:09:34.02	187.28	7.35	
2025-01-17 11:09:34.23	187.29	7.37	
2025-01-17 11:09:34.43	187.30	7.38	
2025-01-17 11:09:34.63	187.31	7.40	
2025-01-17 11:09:34.84	187.32	7.41	
2025-01-17 11:09:35.04	187.33	7.43	
2025-01-17 11:09:35.24	187.34	7.44	
2025-01-17 11:09:35.44	187.35	7.46	
2025-01-17 11:09:35.65	187.36	7.47	
2025-01-17 11:09:35.85	187.38	7.49	
2025-01-17 11:09:36.05	187.39	7.50	
2025-01-17 11:09:36.26	187.40	7.52	
2025-01-17 11:09:36.46	187.41	7.53	
2025-01-17 11:09:36.66	187.42	7.55	
2025-01-17 11:09:36.87	187.43	7.56	
2025-01-17 11:09:37.07	187.44	7.58	
2025-01-17 11:09:37.27	187.45	7.59	
2025-01-17 11:09:37.47	187.46	7.61	
2025-01-17 11:09:37.68	187.47	7.63	
2025-01-17 11:09:37.88	187.49	7.64	
2025-01-17 11:09:38.08	187.50	7.66	
2025-01-17 11:09:38.29	187.51	7.67	
2025-01-17 11:09:38.49	187.52	7.69	
2025-01-17 11:09:38.69	187.53	7.70	
2025-01-17 11:09:38.90	187.54	7.72	
2025-01-17 11:09:39.10	187.55	7.73	
2025-01-17 11:09:39.30	187.56	7.75	
2025-01-17 11:09:39.50	187.57	7.76	
2025-01-17 11:09:39.71	187.59	7.78	
2025-01-17 11:09:39.91	187.60	7.79	
2025-01-17 11:09:40.11	187.61	7.81	
2025-01-17 11:09:40.32	187.62	7.82	
2025-01-17 11:09:40.52	187.63	7.84	
2025-01-17 11:09:40.72	187.64	7.85	
2025-01-17 11:09:40.92	187.65	7.87	
2025-01-17 11:09:41.13	187.66	7.89	
2025-01-17 11:09:41.33	187.67	7.90	
2025-01-17 11:09:41.53	187.69	7.92	
2025-01-17 11:09:41.74	187.70	7.93	
2025-01-17 11:09:41.94	187.71	7.95	
2025-01-17 11:09:42.14	187.72	7.96	
2025-01-17 11:09:42.35	187.73	7.98	
2025-01-17 11:09:42.55	187.74	7.99	
2025-01-17 11:09:42.75	187.75	8.01	
2025-01-17 11:09:42.95	187.76	8.02	
2025-01-17 11:09:43.16	187.78	8.04	
2025-01-17 11:09:43.36	187.79	8.06	
2025-01-17 11:09:43.56	187.80	8.07	
2025-01-17 11:09:43.77	187.81	8.09	
2025-01-17 11:09:43.97	187.82	8.10	
2025-01-17 11:09:44.17	187.83	8.12	
2025-01-17 11:09:44.38	187.84	8.13	
2025-01-17 11:09:44.58	187.86	8.15	
2025-01-17 11:09:44.78	187.87	8.16	
2025-01-17 11:09:44.98	187.88	8.18	
2025-01-17 11:09:45.19	187.89	8.20	
2025-01-17 11:09:45.39	187.90	8.21	
2025-01-17 11:09:45.59	187.91	8.23	
2025-01-17 11:09:45.80	187.93	8.24	
2025-01-17 11:09:46.00	187.94	8.26	
2025-01-17 11:09:46.20	187.95	8.27	
2025-01-17 11:09:46.41	187.96	8.29	
2025-01-17 11:09:46.61	187.97	8.30	
2025-01-17 11:09:46.81	187.98	8.32	
2025-01-17 11:09:47.01	187.99	8.34	
2025-01-17 11:09:47.22	188.01	8.35	
2025-01-17 11:09:47.42	188.02	8.37	
2025-01-17 11:09:47.62	188.03	8.38	
2025-01-17 11:09:47.83	188.04	8.40	
2025-01-17 11:09:48.03	188.05	8.41	
2025-01-17 11:09:48.23	188.06	8.43	
2025-01-17 11:09:48.43	188.08	8.45	
2025-01-17 11:09:48.64	188.09	8.46	
2025-01-17 11:09:48.84	188.10	8.48	
2025-01-17 11:09:49.04	188.11	8.49	
2025-01-17 11:09:49.25	188.12	8.51	
2025-01-17 11:09:49.45	188.13	8.52	
2025-01-17 11:09:49.65	188.15	8.54	
2025-01-17 11:09:49.86	188.16	8.56	
2025-01-17 11:09:50.06	188.17	8.57	
2025-01-17 11:09:50.26	188.18	8.59	
2025-01-17 11:09:50.46	188.19	8.60	
2025-01-17 11:09:50.67	188.20	8.62	
2025-01-17 11:09:50.87	188.22	8.63	
2025-01-17 11:09:51.07	188.23	8.65	
2025-01-17 11:09:51.28	188.24	8.67	
2025-01-17 11:09:51.48	188.25	8.68	
2025-01-17 11:09:51.68	188.26	8.70	
2025-01-17 11:09:51.89	188.28	8.71	
2025-01-17 11:09:52.09	188.29	8.73	
2025-01-17 11:09:52.29	188.30	8.75	
2025-01-17 11:09:52.49	188.31	8.76	
2025-01-17 11:09:52.70	188.32	8.78	
2025-01-17 11:09:52.90	188.33	8.79	
2025-01-17 11:09:53.10	188.35	8.81	
2025-01-17 11:09:53.31	188.36	8.83	
2025-01-17 11:09:53.51	188.37	8.84	
2025-01-17 11:09:53.71	188.38	8.86	
2025-01-17 11:09:53.92	188.39	8.87	
2025-01-17 11:09:54.12	188.41	8.89	
2025-01-17 11:09:54.32	188.42	8.90	
2025-01-17 11:09:54.52	188.43	8.92	
2025-01-17 11:09:54.73	188.44	8.94	
2025-01-17 11:09:54.93	188.45	8.95	
2025-01-17 11:09:55.13	188.47	8.97	
2025-01-17 11:09:55.34	188.48	8.98	
2025-01-17 11:09:55.54	188.49	9.00	
2025-01-17 11:09:55.74	188.50	9.02	
2025-01-17 11:09:55.94	188.51	9.03	
2025-01-17 11:09:56.15	188.53	9.05	
2025-01-17 11:09:56.35	188.54	9.06	
2025-01-17 11:09:56.55	188.55	9.08	
2025-01-17 11:09:56.76	188.56	9.10	
2025-01-17 11:09:56.96	188.58	9.11	
2025-01-17 11:09:57.16	188.59	9.13	
2025-01-17 11:09:57.37	188.60	9.15	
2025-01-17 11:09:57.57	188.61	9.16	
2025-01-17 11:09:57.77	188.62	9.18	
2025-01-17 11:09:57.97	188.64	9.19	
2025-01-17 11:09:58.18	188.65	9.21	
2025-01-17 11:09:58.38	188.66	9.23	
2025-01-17 11:09:58.58	188.67	9.24	
2025-01-17 11:09:58.79	188.69	9.26	
2025-01-17 11:09:58.99	188.70	9.27	
2025-01-17 11:09:59.19	188.71	9.29	
2025-01-17 11:09:59.40	188.72	9.31	
2025-01-17 11:09:59.60	188.73	9.32	
2025-01-17 11:09:59.80	188.75	9.34	
2025-01-17 11:10:00.00	188.76	9.36	
2025-01-17 11:10:00.21	188.77	9.37	
2025-01-17 11:10:00.41	188.78	9.39	
2025-01-17 11:10:00.61	188.80	9.40	
2025-01-17 11:10:00.82	188.81	9.42	
2025-01-17 11:10:01.02	188.82	9.44	
2025-01-17 11:10:01.22	188.83	9.45	
2025-01-17 11:10:01.42	188.85	9.47	
2025-01-17 11:10:01.63	188.86	9.49	
2025-01-17 11:10:01.83	188.87	9.50	
2025-01-17 11:10:02.03	188.88	9.52	
2025-01-17 11:10:02.24	188.90	9.53	
2025-01-17 11:10:02.44	188.91	9.55	
2025-01-17 11:10:02.64	188.92	9.57	
2025-01-17 11:10:02.85	188.93	9.58	
2025-01-17 11:10:03.05	188.95	9.60	
2025-01-17 11:10:03.25	188.96	9.62	
2025-01-17 11:10:03.45	188.97	9.63	
2025-01-17 11:10:03.66	188.98	9.65	
2025-01-17 11:10:03.86	189.00	9.67	
2025-01-17 11:10:04.06	189.01	9.68	
2025-01-17 11:10:04.27	189.02	9.70	
2025-01-17 11:10:04.47	189.03	9.71	
2025-01-17 11:10:04.67	189.05	9.73	
2025-01-17 11:10:04.88	189.06	9.75	
2025-01-17 11:10:05.08	189.07	9.76	
2025-01-17 11:10:05.28	189.08	9.78	
2025-01-17 11:10:05.48	189.10	9.80	
2025-01-17 11:10:05.69	189.11	9.81	
2025-01-17 11:10:05.89	189.12	9.83	
2025-01-17 11:10:06.09	189.14	9.85	
2025-01-17 11:10:06.30	189.15	9.86	
2025-01-17 11:10:06.50	189.16	9.88	
2025-01-17 11:10:06.70	189.17	9.90	
2025-01-17 11:10:06.91	189.19	9.91	
2025-01-17 11:10:07.11	189.20	9.93	
2025-01-17 11:10:07.31	189.21	9.95	
2025-01-17 11:10:07.51	189.22	9.96	
2025-01-17 11:10:07.72	189.24	9.98	
2025-01-17 11:10:07.92	189.25	10.00	
2025-01-17 11:10:08.12	189.26	10.01	
2025-01-17 11:10:08.33	189.28	10.03	
2025-01-17 11:10:08.53	189.29	10.05	
2025-01-17 11:10:08.73	189.30	10.06	
2025-01-17 11:10:08.93	189.32	10.08	
2025-01-17 11:10:09.14	189.33	10.10	
2025-01-17 11:10:09.34	189.34	10.11	
2025-01-17 11:10:09.54	189.35	10.13	
2025-01-17 11:10:09.75	189.37	10.15	
2025-01-17 11:10:09.95	189.38	10.16	
2025-01-17 11:10:10.15	189.39	10.18	
2025-01-17 11:10:10.36	189.41	10.20	
2025-01-17 11:10:10.56	189.42	10.21	
2025-01-17 11:10:10.76	189.43	10.23	
2025-01-17 11:10:10.96	189.45	10.25	
2025-01-17 11:10:11.17	189.46	10.26	
2025-01-17 11:10:11.37	189.47	10.28	
2025-01-17 11:10:11.57	189.48	10.30	
2025-01-17 11:10:11.78	189.50	10.31	
2025-01-17 11:10:11.98	189.51	10.33	
2025-01-17 11:10:12.18	189.52	10.35	
2025-01-17 11:10:12.39	189.54	10.36	
2025-01-17 11:10:12.59	189.55	10.38	
2025-01-17 11:10:12.79	189.56	10.40	
2025-01-17 11:10:12.99	189.58	10.41	
2025-01-17 11:10:13.20	189.59	10.43	
2025-01-17 11:10:13.40	189.60	10.45	
2025-01-17 11:10:13.60	189.62	10.46	
2025-01-17 11:10:13.81	189.63	10.48	
2025-01-17 11:10:14.01	189.64	10.50	
2025-01-17 11:10:14.21	189.66	10.52	
2025-01-17 11:10:14.42	189.67	10.53	
2025-01-17 11:10:14.62	189.68	10.55	
2025-01-17 11:10:14.82	189.70	10.57	
2025-01-17 11:10:15.02	189.71	10.58	
2025-01-17 11:10:15.23	189.72	10.60	
2025-01-17 11:10:15.43	189.74	10.62	
2025-01-17 11:10:15.63	189.75	10.63	
2025-01-17 11:10:15.84	189.76	10.65	
2025-01-17 11:10:16.04	189.78	10.67	
2025-01-17 11:10:16.24	189.79	10.68	
2025-01-17 11:10:16.44	189.80	10.70	
2025-01-17 11:10:16.65	189.82	10.72	
2025-01-17 11:10:16.85	189.83	10.74	
2025-01-17 11:10:17.05	189.84	10.75	
2025-01-17 11:10:17.26	189.86	10.77	
2025-01-17 11:10:17.46	189.87	10.79	
2025-01-17 11:10:17.66	189.89	10.80	
2025-01-17 11:10:17.87	189.90	10.82	
2025-01-17 11:10:18.07	189.91	10.84	
2025-01-17 11:10:18.27	189.93	10.86	
2025-01-17 11:10:18.47	189.94	10.87	
2025-01-17 11:10:18.68	189.95	10.89	
2025-01-17 11:10:18.88	189.97	10.91	
2025-01-17 11:10:19.08	189.98	10.92	
2025-01-17 11:10:19.29	189.99	10.94	
2025-01-17 11:10:19.49	190.01	10.96	
2025-01-17 11:10:19.69	190.02	10.98	
2025-01-17 11:10:19.90	190.04	10.99	
2025-01-17 11:10:20.10	190.05	11.01	
2025-01-17 11:10:20.30	190.06	11.03	
2025-01-17 11:10:20.50	190.08	11.04	
2025-01-17 11:10:20.71	190.09	11.06	
2025-01-17 11:10:20.91	190.10	11.08	
2025-01-17 11:10:21.11	190.12	11.10	
2025-01-17 11:10:21.32	190.13	11.11	
2025-01-17 11:10:21.52	190.15	11.13	
2025-01-17 11:10:21.72	190.16	11.15	
2025-01-17 11:10:21.93	190.17	11.17	
2025-01-17 11:10:22.13	190.19	11.18	
2025-01-17 11:10:22.33	190.20	11.20	
2025-01-17 11:10:22.53	190.22	11.22	
2025-01-17 11:10:22.74	190.23	11.24	
2025-01-17 11:10:22.94	190.24	11.25	
2025-01-17 11:10:23.14	190.26	11.27	
2025-01-17 11:10:23.35	190.27	11.29	
2025-01-17 11:10:23.55	190.29	11.31	
2025-01-17 11:10:23.75	190.30	11.32	
2025-01-17 11:10:23.95	190.31	11.34	
2025-01-17 11:10:24.16	190.33	11.36	
2025-01-17 11:10:24.36	190.34	11.37	
2025-01-17 11:10:24.56	190.36	11.39	
2025-01-17 11:10:24.77	190.37	11.41	
2025-01-17 11:10:24.97	190.38	11.43	
2025-01-17 11:10:25.17	190.40	11.44	
2025-01-17 11:10:25.38	190.41	11.46	
2025-01-17 11:10:25.58	190.43	11.48	
2025-01-17 11:10:25.78	190.44	11.50	
2025-01-17 11:10:25.98	190.45	11.51	
2025-01-17 11:10:26.19	190.47	11.53	
2025-01-17 11:10:26.39	190.48	11.55	
2025-01-17 11:10:26.59	190.50	11.57	
2025-01-17 11:10:26.80	190.51	11.59	
2025-01-17 11:10:27.00	190.53	11.60	
2025-01-17 11:10:27.20	190.54	11.62	
2025-01-17 11:10:27.41	190.55	11.64	
2025-01-17 11:10:27.61	190.57	11.66	
2025-01-17 11:10:27.81	190.58	11.67	
2025-01-17 11:10:28.01	190.60	11.69	
2025-01-17 11:10:28.22	190.61	11.71	
2025-01-17 11:10:28.42	190.63	11.73	
2025-01-17 11:10:28.62	190.64	11.74	
2025-01-17 11:10:28.83	190.66	11.76	
2025-01-17 11:10:29.03	190.67	11.78	
2025-01-17 11:10:29.23	190.68	11.80	
2025-01-17 11:10:29.44	190.70	11.81	
2025-01-17 11:10:29.64	190.71	11.83	
2025-01-17 11:10:29.84	190.73	11.85	
2025-01-17 11:10:30.04	190.74	11.87	
2025-01-17 11:10:30.25	190.76	11.89	
2025-01-17 11:10:30.45	190.77	11.90	
2025-01-17 11:10:30.65	190.79	11.92	
2025-01-17 11:10:30.86	190.80	11.94	
2025-01-17 11:10:31.06	190.81	11.96	
2025-01-17 11:10:31.26	190.83	11.97	
2025-01-17 11:10:31.46	190.84	11.99	
2025-01-17 11:10:31.67	190.86	12.01	
2025-01-17 11:10:31.87	190.87	12.03	
2025-01-17 11:10:32.07	190.89	12.05	
2025-01-17 11:10:32.28	190.90	12.06	
2025-01-17 11:10:32.48	190.92	12.08	
2025-01-17 11:10:32.68	190.93	12.10	
2025-01-17 11:10:32.89	190.95	12.12	
2025-01-17 11:10:33.09	190.96	12.14	
2025-01-17 11:10:33.29	190.98	12.15	
2025-01-17 11:10:33.49	190.99	12.17	
2025-01-17 11:10:33.70	191.01	12.19	
2025-01-17 11:10:33.90	191.02	12.21	
2025-01-17 11:10:34.10	191.04	12.23	
2025-01-17 11:10:34.31	191.05	12.24	
2025-01-17 11:10:34.51	191.07	12.26	
2025-01-17 11:10:34.71	191.08	12.28	
2025-01-17 11:10:34.92	191.10	12.30	
2025-01-17 11:10:35.12	191.11	12.32	
2025-01-17 11:10:35.32	191.13	12.33	
2025-01-17 11:10:35.52	191.14	12.35	
2025-01-17 11:10:35.73	191.16	12.37	
2025-01-17 11:10:35.93	191.17	12.39	
2025-01-17 11:10:36.13	191.19	12.41	
2025-01-17 11:10:36.34	191.20	12.42	
2025-01-17 11:10:36.54	191.22	12.44	
2025-01-17 11:10:36.74	191.23	12.46	
2025-01-17 11:10:36.95	191.25	12.48	
2025-01-17 11:10:37.15	191.26	12.50	
2025-01-17 11:10:37.35	191.28	12.51	
2025-01-17 11:10:37.55	191.29	12.53	
2025-01-17 11:10:37.76	191.31	12.55	
2025-01-17 11:10:37.96	191.32	12.57	
2025-01-17 11:10:38.16	191.34	12.59	
2025-01-17 11:10:38.37	191.35	12.61	
2025-01-17 11:10:38.57	191.37	12.62	
2025-01-17 11:10:38.77	191.38	12.64	
2025-01-17 11:10:38.97	191.40	12.66	
2025-01-17 11:10:39.18	191.41	12.68	
2025-01-17 11:10:39.38	191.43	12.70	
2025-01-17 11:10:39.58	191.44	12.72	
2025-01-17 11:10:39.79	191.46	12.73	
2025-01-17 11:10:39.99	191.47	12.75	
2025-01-17 11:10:40.19	191.49	12.77	
2025-01-17 11:10:40.40	191.51	12.79	
2025-01-17 11:10:40.60	191.52	12.81	
2025-01-17 11:10:40.80	191.54	12.83	
2025-01-17 11:10:41.00	191.55	12.84	
2025-01-17 11:10:41.21	191.57	12.86	
2025-01-17 11:10:41.41	191.58	12.88	
2025-01-17 11:10:41.61	191.60	12.90	
2025-01-17 11:10:41.82	191.61	12.92	
2025-01-17 11:10:42.02	191.63	12.94	
2025-01-17 11:10:42.22	191.64	12.95	
2025-01-17 11:10:42.43	191.66	12.97	
2025-01-17 11:10:42.63	191.68	12.99	
2025-01-17 11:10:42.83	191.69	13.01	
2025-01-17 11:10:43.03	191.71	13.03	
2025-01-17 11:10:43.24	191.72	13.05	
2025-01-17 11:10:43.44	191.74	13.07	
2025-01-17 11:10:43.64	191.75	13.08	
2025-01-17 11:10:43.85	191.77	13.10	
2025-01-17 11:10:44.05	191.79	13.12	
2025-01-17 11:10:44.25	191.80	13.14	
2025-01-17 11:10:44.46	191.82	13.16	
2025-01-17 11:10:44.66	191.83	13.18	
2025-01-17 11:10:44.86	191.85	13.20	
2025-01-17 11:10:45.06	191.86	13.21	
2025-01-17 11:10:45.27	191.88	13.23	
2025-01-17 11:10:45.47	191.90	13.25	
2025-01-17 11:10:45.67	191.91	13.27	
2025-01-17 11:10:45.88	191.93	13.29	
2025-01-17 11:10:46.08	191.94	13.31	
2025-01-17 11:10:46.28	191.96	13.33	
2025-01-17 11:10:46.48	191.98	13.35	
2025-01-17 11:10:46.69	191.99	13.36	
2025-01-17 11:10:46.89	192.01	13.38	
2025-01-17 11:10:47.09	192.02	13.40	
2025-01-17 11:10:47.30	192.04	13.42	
2025-01-17 11:10:47.50	192.06	13.44	
2025-01-17 11:10:47.70	192.07	13.46	
2025-01-17 11:10:47.91	192.09	13.48	
2025-01-17 11:10:48.11	192.11	13.50	
2025-01-17 11:10:48.31	192.12	13.51	
2025-01-17 11:10:48.51	192.14	13.53	
2025-01-17 11:10:48.72	192.15	13.55	
2025-01-17 11:10:48.92	192.17	13.57	
2025-01-17 11:10:49.12	192.19	13.59	
2025-01-17 11:10:49.33	192.20	13.61	
2025-01-17 11:10:49.53	192.22	13.63	
2025-01-17 11:10:49.73	192.23	13.65	
2025-01-17 11:10:49.94	192.25	13.67	
2025-01-17 11:10:50.14	192.27	13.69	
2025-01-17 11:10:50.34	192.28	13.70	
2025-01-17 11:10:50.54	192.30	13.72	
2025-01-17 11:10:50.75	192.32	13.74	
2025-01-17 11:10:50.95	192.33	13.76	
2025-01-17 11:10:51.15	192.35	13.78	
2025-01-17 11:10:51.36	192.37	13.80	
2025-01-17 11:10:51.56	192.38	13.82	
2025-01-17 11:10:51.76	192.40	13.84	
2025-01-17 11:10:51.97	192.42	13.86	
2025-01-17 11:10:52.17	192.43	13.88	
2025-01-17 11:10:52.37	192.45	13.89	
2025-01-17 11:10:52.57	192.46	13.91	
2025-01-17 11:10:52.78	192.48	13.93	
2025-01-17 11:10:52.98	192.50	13.95	
2025-01-17 11:10:53.18	192.51	13.97	
2025-01-17 11:10:53.39	192.53	13.99	
2025-01-17 11:10:53.59	192.55	14.01	
2025-01-17 11:10:53.79	192.57	14.03	
2025-01-17 11:10:53.99	192.58	14.05	
2025-01-17 11:10:54.20	192.60	14.07	
2025-01-17 11:10:54.40	192.62	14.09	
2025-01-17 11:10:54.60	192.63	14.10	
2025-01-17 11:10:54.81	192.65	14.12	
2025-01-17 11:10:55.01	192.67	14.14	
2025-01-17 11:10:55.21	192.68	14.16	
2025-01-17 11:10:55.42	192.70	14.18	
2025-01-17 11:10:55.62	192.72	14.20	
2025-01-17 11:10:55.82	192.73	14.22	
2025-01-17 11:10:56.02	192.75	14.24	
2025-01-17 11:10:56.23	192.77	14.26	
2025-01-17 11:10:56.43	192.78	14.28	
2025-01-17 11:10:56.63	192.80	14.30	
2025-01-17 11:10:56.84	192.82	14.32	
2025-01-17 11:10:57.04	192.84	14.34	
2025-01-17 11:10:57.24	192.85	14.36	
2025-01-17 11:10:57.45	192.87	14.38	
2025-01-17 11:10:57.65	192.89	14.40	
2025-01-17 11:10:57.85	192.90	14.41	
2025-01-17 11:10:58.05	192.92	14.43	
2025-01-17 11:10:58.26	192.94	14.45	
2025-01-17 11:10:58.46	192.96	14.47	
2025-01-17 11:10:58.66	192.97	14.49	
2025-01-17 11:10:58.87	192.99	14.51	
2025-01-17 11:10:59.07	193.01	14.53	
2025-01-17 11:10:59.27	193.02	14.55	
2025-01-17 11:10:59.47	193.04	14.57	
2025-01-17 11:10:59.68	193.06	14.59	
2025-01-17 11:10:59.88	193.08	14.61	
2025-01-17 11:11:00.08	193.09	14.63	
2025-01-17 11:11:00.29	193.11	14.65	
2025-01-17 11:11:00.49	193.13	14.67	
2025-01-17 11:11:00.69	193.15	14.69	
2025-01-17 11:11:00.90	193.16	14.71	
2025-01-17 11:11:01.10	193.18	14.73	
2025-01-17 11:11:01.30	193.20	14.75	
2025-01-17 11:11:01.50	193.22	14.77	
2025-01-17 11:11:01.71	193.23	14.79	
2025-01-17 11:11:01.91	193.25	14.81	
2025-01-17 11:11:02.11	193.27	14.83	
2025-01-17 11:11:02.32	193.29	14.85	
2025-01-17 11:11:02.52	193.30	14.87	
2025-01-17 11:11:02.72	193.32	14.89	
2025-01-17 11:11:02.93	193.34	14.91	
2025-01-17 11:11:03.13	193.36	14.93	
2025-01-17 11:11:03.33	193.37	14.95	
2025-01-17 11:11:03.53	193.39	14.96	
2025-01-17 11:11:03.74	193.41	14.99	
2025-01-17 11:11:03.94	193.43	15.00	
2025-01-17 11:11:04.14	193.44	15.02	
2025-01-17 11:11:04.35	193.46	15.04	
2025-01-17 11:11:04.55	193.48	15.06	
2025-01-17 11:11:04.75	193.50	15.08	
2025-01-17 11:11:04.96	193.52	15.10	
2025-01-17 11:11:05.16	193.53	15.12	
2025-01-17 11:11:05.36	193.55	15.14	
2025-01-17 11:11:05.56	193.57	15.16	
2025-01-17 11:11:05.77	193.59	15.18	
2025-01-17 11:11:05.97	193.61	15.20	
2025-01-17 11:11:06.17	193.62	15.22	
2025-01-17 11:11:06.38	193.64	15.24	
2025-01-17 11:11:06.58	193.66	15.26	
2025-01-17 11:11:06.78	193.68	15.28	
2025-01-17 11:11:06.98	193.70	15.30	
2025-01-17 11:11:07.19	193.72	15.32	
2025-01-17 11:11:07.39	193.73	15.34	
2025-01-17 11:11:07.59	193.75	15.36	
2025-01-17 11:11:07.80	193.77	15.38	
2025-01-17 11:11:08.00	193.79	15.40	
2025-01-17 11:11:08.20	193.81	15.42	
2025-01-17 11:11:08.41	193.82	15.45	
2025-01-17 11:11:08.61	193.84	15.47	
2025-01-17 11:11:08.81	193.86	15.49	
2025-01-17 11:11:09.01	193.88	15.51	
2025-01-17 11:11:09.22	193.90	15.53	
2025-01-17 11:11:09.42	193.92	15.55	
2025-01-17 11:11:09.62	193.93	15.57	
2025-01-17 11:11:09.83	193.95	15.59	
2025-01-17 11:11:10.03	193.97	15.61	
2025-01-17 11:11:10.23	193.99	15.63	
2025-01-17 11:11:10.44	194.01	15.65	
2025-01-17 11:11:10.64	194.03	15.67	
2025-01-17 11:11:10.84	194.05	15.69	
2025-01-17 11:11:11.04	194.06	15.71	
2025-01-17 11:11:11.25	194.08	15.73	
2025-01-17 11:11:11.45	194.10	15.75	
2025-01-17 11:11:11.65	194.12	15.77	
2025-01-17 11:11:11.86	194.14	15.79	
2025-01-17 11:11:12.06	194.16	15.81	
2025-01-17 11:11:12.26	194.18	15.83	
2025-01-17 11:11:12.47	194.20	15.85	
2025-01-17 11:11:12.67	194.21	15.87	
2025-01-17 11:11:12.87	194.23	15.89	
2025-01-17 11:11:13.07	194.25	15.91	
2025-01-17 11:11:13.28	194.27	15.93	
2025-01-17 11:11:13.48	194.29	15.95	
2025-01-17 11:11:13.68	194.31	15.97	
2025-01-17 11:11:13.89	194.33	16.00	
2025-01-17 11:11:14.09	194.35	16.02	
2025-01-17 11:11:14.29	194.36	16.04	
2025-01-17 11:11:14.49	194.38	16.06	
2025-01-17 11:11:14.70	194.40	16.08	
2025-01-17 11:11:14.90	194.42	16.10	
2025-01-17 11:11:15.10	194.44	16.12	
2025-01-17 11:11:15.31	194.46	16.14	
2025-01-17 11:11:15.51	194.48	16.16	
2025-01-17 11:11:15.71	194.50	16.18	
2025-01-17 11:11:15.92	194.52	16.20	
2025-01-17 11:11:16.12	194.54	16.22	
2025-01-17 11:11:16.32	194.56	16.24	
2025-01-17 11:11:16.52	194.58	16.26	
2025-01-17 11:11:16.73	194.60	16.28	
2025-01-17 11:11:16.93	194.61	16.30	
2025-01-17 11:11:17.13	194.63	16.33	
2025-01-17 11:11:17.34	194.65	16.35	
2025-01-17 11:11:17.54	194.67	16.37	
2025-01-17 11:11:17.74	194.69	16.39	
2025-01-17 11:11:17.95	194.71	16.41	
2025-01-17 11:11:18.15	194.73	16.43	
2025-01-17 11:11:18.35	194.75	16.45	
2025-01-17 11:11:18.55	194.77	16.47	
2025-01-17 11:11:18.76	194.79	16.49	
2025-01-17 11:11:18.96	194.81	16.51	
2025-01-17 11:11:19.16	194.83	16.53	
2025-01-17 11:11:19.37	194.85	16.56	
2025-01-17 11:11:19.57	194.87	16.58	
2025-01-17 11:11:19.77	194.89	16.60	
2025-01-17 11:11:19.98	194.91	16.62	
2025-01-17 11:11:20.18	194.93	16.64	
2025-01-17 11:11:20.38	194.95	16.66	
2025-01-17 11:11:20.58	194.97	16.68	
2025-01-17 11:11:20.79	194.99	16.70	
2025-01-17 11:11:20.99	195.01	16.72	
2025-01-17 11:11:21.19	195.03	16.74	
2025-01-17 11:11:21.40	195.05	16.77	
2025-01-17 11:11:21.60	195.07	16.79	
2025-01-17 11:11:21.80	195.09	16.81	
2025-01-17 11:11:22.00	195.11	16.83	
2025-01-17 11:11:22.21	195.13	16.85	
2025-01-17 11:11:22.41	195.15	16.87	
2025-01-17 11:11:22.61	195.17	16.89	
2025-01-17 11:11:22.82	195.19	16.91	
2025-01-17 11:11:23.02	195.21	16.93	
2025-01-17 11:11:23.22	195.23	16.96	
2025-01-17 11:11:23.43	195.25	16.98	
2025-01-17 11:11:23.63	195.27	17.00	
2025-01-17 11:11:23.83	195.29	17.02	
2025-01-17 11:11:24.03	195.31	17.04	
2025-01-17 11:11:24.24	195.33	17.06	
2025-01-17 11:11:24.44	195.35	17.08	
2025-01-17 11:11:24.64	195.37	17.10	
2025-01-17 11:11:24.85	195.39	17.13	
2025-01-17 11:11:25.05	195.41	17.15	
2025-01-17 11:11:25.25	195.43	17.17	
2025-01-17 11:11:25.46	195.45	17.19	
2025-01-17 11:11:25.66	195.47	17.21	
2025-01-17 11:11:25.86	195.49	17.23	
2025-01-17 11:11:26.06	195.51	17.25	
2025-01-17 11:11:26.27	195.53	17.28	
2025-01-17 11:11:26.47	195.55	17.30	
2025-01-17 11:11:26.67	195.57	17.32	
2025-01-17 11:11:26.88	195.59	17.34	
2025-01-17 11:11:27.08	195.61	17.36	
2025-01-17 11:11:27.28	195.63	17.38	
2025-01-17 11:11:27.49	195.66	17.41	
2025-01-17 11:11:27.69	195.68	17.43	
2025-01-17 11:11:27.89	195.70	17.45	
2025-01-17 11:11:28.09	195.72	17.47	
2025-01-17 11:11:28.30	195.74	17.49	
2025-01-17 11:11:28.50	195.76	17.51	
2025-01-17 11:11:28.70	195.78	17.53	
2025-01-17 11:11:28.91	195.80	17.56	
2025-01-17 11:11:29.11	195.82	17.58	
2025-01-17 11:11:29.31	195.84	17.60	
2025-01-17 11:11:29.51	195.86	17.62	
2025-01-17 11:11:29.72	195.89	17.64	
2025-01-17 11:11:29.92	195.91	17.67	
2025-01-17 11:11:30.12	195.93	17.69	
2025-01-17 11:11:30.33	195.95	17.71	
2025-01-17 11:11:30.53	195.97	17.73	
2025-01-17 11:11:30.73	195.99	17.75	
2025-01-17 11:11:30.94	196.01	17.77	
2025-01-17 11:11:31.14	196.03	17.80	
2025-01-17 11:11:31.34	196.05	17.82	
2025-01-17 11:11:31.54	196.08	17.84	
2025-01-17 11:11:31.75	196.10	17.86	
2025-01-17 11:11:31.95	196.12	17.88	
2025-01-17 11:11:32.15	196.14	17.91	
2025-01-17 11:11:32.36	196.16	17.93	
2025-01-17 11:11:32.56	196.18	17.95	
2025-01-17 11:11:32.76	196.20	17.97	
2025-01-17 11:11:32.97	196.23	17.99	
2025-01-17 11:11:33.17	196.25	18.02	
2025-01-17 11:11:33.37	196.27	18.04	
2025-01-17 11:11:33.57	196.29	18.06	
2025-01-17 11:11:33.78	196.31	18.08	
2025-01-17 11:11:33.98	196.33	18.10	
2025-01-17 11:11:34.18	196.36	18.13	
2025-01-17 11:11:34.39	196.38	18.15	
2025-01-17 11:11:34.59	196.40	18.17	
2025-01-17 11:11:34.79	196.42	18.19	
2025-01-17 11:11:35.00	196.44	18.21	
2025-01-17 11:11:35.20	196.47	18.24	
2025-01-17 11:11:35.40	196.49	18.26	
2025-01-17 11:11:35.60	196.51	18.28	
2025-01-17 11:11:35.81	196.53	18.30	
2025-01-17 11:11:36.01	196.55	18.33	
2025-01-17 11:11:36.21	196.57	18.35	
2025-01-17 11:11:36.42	196.60	18.37	
2025-01-17 11:11:36.62	196.62	18.39	
2025-01-17 11:11:36.82	196.64	18.41	
2025-01-17 11:11:37.02	196.66	18.44	
2025-01-17 11:11:37.23	196.69	18.46	
2025-01-17 11:11:37.43	196.71	18.48	
2025-01-17 11:11:37.63	196.73	18.50	
2025-01-17 11:11:37.84	196.75	18.53	
2025-01-17 11:11:38.04	196.77	18.55	
2025-01-17 11:11:38.24	196.80	18.57	
2025-01-17 11:11:38.45	196.82	18.59	
2025-01-17 11:11:38.65	196.84	18.62	
2025-01-17 11:11:38.85	196.86	18.64	
2025-01-17 11:11:39.05	196.89	18.66	
2025-01-17 11:11:39.26	196.91	18.68	
2025-01-17 11:11:39.46	196.93	18.71	
2025-01-17 11:11:39.66	196.95	18.73	
2025-01-17 11:11:39.87	196.98	18.75	
2025-01-17 11:11:40.07	197.00	18.77	
2025-01-17 11:11:40.27	197.02	18.80	
2025-01-17 11:11:40.48	197.04	18.82	
2025-01-17 11:11:40.68	197.07	18.84	
2025-01-17 11:11:40.88	197.09	18.86	
2025-01-17 11:11:41.08	197.11	18.89	
2025-01-17 11:11:41.29	197.14	18.91	
2025-01-17 11:11:41.49	197.16	18.93	
2025-01-17 11:11:41.69	197.18	18.95	
2025-01-17 11:11:41.90	197.20	18.98	
2025-01-17 11:11:42.10	197.23	19.00	
2025-01-17 11:11:42.30	197.25	19.02	
2025-01-17 11:11:42.51	197.27	19.05	
2025-01-17 11:11:42.71	197.30	19.07	
2025-01-17 11:11:42.91	197.32	19.09	
2025-01-17 11:11:43.11	197.34	19.11	
2025-01-17 11:11:43.32	197.37	19.14	
2025-01-17 11:11:43.52	197.39	19.16	
2025-01-17 11:11:43.72	197.41	19.18	
2025-01-17 11:11:43.93	197.44	19.20	
2025-01-17 11:11:44.13	197.46	19.23	
2025-01-17 11:11:44.33	197.48	19.25	
2025-01-17 11:11:44.53	197.50	19.27	
2025-01-17 11:11:44.74	197.53	19.30	
2025-01-17 11:11:44.94	197.55	19.32	
2025-01-17 11:11:45.14	197.57	19.34	
2025-01-17 11:11:45.35	197.60	19.37	
2025-01-17 11:11:45.55	197.62	19.39	
2025-01-17 11:11:45.75	197.65	19.41	
2025-01-17 11:11:45.96	197.67	19.43	
2025-01-17 11:11:46.16	197.69	19.46	
2025-01-17 11:11:46.36	197.72	19.48	
2025-01-17 11:11:46.56	197.74	19.50	
2025-01-17 11:11:46.77	197.76	19.53	
2025-01-17 11:11:46.97	197.79	19.55	
2025-01-17 11:11:47.17	197.81	19.57	
2025-01-17 11:11:47.38	197.84	19.60	
2025-01-17 11:11:47.58	197.86	19.62	
2025-01-17 11:11:47.78	197.88	19.64	
2025-01-17 11:11:47.99	197.91	19.67	
2025-01-17 11:11:48.19	197.93	19.69	
2025-01-17 11:11:48.39	197.95	19.71	
2025-01-17 11:11:48.59	197.98	19.73	
2025-01-17 11:11:48.80	198.00	19.76	
2025-01-17 11:11:49.00	198.03	19.78	
2025-01-17 11:11:49.20	198.05	19.80	
2025-01-17 11:11:49.41	198.08	19.83	
2025-01-17 11:11:49.61	198.10	19.85	
2025-01-17 11:11:49.81	198.12	19.87	
2025-01-17 11:11:50.01	198.15	19.90	
2025-01-17 11:11:50.22	198.17	19.92	
2025-01-17 11:11:50.42	198.20	19.94	
2025-01-17 11:11:50.62	198.22	19.97	
2025-01-17 11:11:50.83	198.25	19.99	
2025-01-17 11:11:51.03	198.27	20.01	
2025-01-17 11:11:51.23	198.29	20.04	
2025-01-17 11:11:51.44	198.32	20.06	
2025-01-17 11:11:51.64	198.34	20.09	
2025-01-17 11:11:51.84	198.37	20.11	
2025-01-17 11:11:52.04	198.39	20.13	
2025-01-17 11:11:52.25	198.42	20.16	
2025-01-17 11:11:52.45	198.44	20.18	
2025-01-17 11:11:52.65	198.47	20.20	
2025-01-17 11:11:52.86	198.49	20.23	
2025-01-17 11:11:53.06	198.52	20.25	
2025-01-17 11:11:53.26	198.54	20.27	
2025-01-17 11:11:53.47	198.57	20.30	
2025-01-17 11:11:53.67	198.59	20.32	
2025-01-17 11:11:53.87	198.62	20.34	
2025-01-17 11:11:54.07	198.64	20.37	
2025-01-17 11:11:54.28	198.67	20.39	
2025-01-17 11:11:54.48	198.69	20.42	
2025-01-17 11:11:54.68	198.72	20.44	
2025-01-17 11:11:54.89	198.74	20.46	
2025-01-17 11:11:55.09	198.77	20.49	
2025-01-17 11:11:55.29	198.79	20.51	
2025-01-17 11:11:55.50	198.82	20.54	
2025-01-17 11:11:55.70	198.84	20.56	
2025-01-17 11:11:55.90	198.87	20.58	
2025-01-17 11:11:56.10	198.89	20.61	
2025-01-17 11:11:56.31	198.92	20.63	
2025-01-17 11:11:56.51	198.94	20.65	
2025-01-17 11:11:56.71	198.97	20.68	
2025-01-17 11:11:56.92	199.00	20.70	
2025-01-17 11:11:57.12	199.02	20.73	
2025-01-17 11:11:57.32	199.05	20.75	
2025-01-17 11:11:57.52	199.07	20.77	
2025-01-17 11:11:57.73	199.10	20.80	
2025-01-17 11:11:57.93	199.12	20.82	
2025-01-17 11:11:58.13	199.15	20.85	
2025-01-17 11:11:58.34	199.17	20.87	
2025-01-17 11:11:58.54	199.20	20.89	
2025-01-17 11:11:58.74	199.23	20.92	
2025-01-17 11:11:58.95	199.25	20.94	
2025-01-17 11:11:59.15	199.28	20.97	
2025-01-17 11:11:59.35	199.30	20.99	
2025-01-17 11:11:59.55	199.33	21.01	
2025-01-17 11:11:59.76	199.36	21.04	
2025-01-17 11:11:59.96	199.38	21.06	
2025-01-17 11:12:00.16	199.41	21.09	
2025-01-17 11:12:00.37	199.44	21.11	
2025-01-17 11:12:00.57	199.46	21.14	
2025-01-17 11:12:00.77	199.49	21.16	
2025-01-17 11:12:00.98	199.51	21.19	
2025-01-17 11:12:01.18	199.54	21.21	
2025-01-17 11:12:01.38	199.57	21.23	
2025-01-17 11:12:01.58	199.59	21.26	
2025-01-17 11:12:01.79	199.62	21.28	
2025-01-17 11:12:01.99	199.65	21.31	
2025-01-17 11:12:02.19	199.67	21.33	
2025-01-17 11:12:02.40	199.70	21.36	
2025-01-17 11:12:02.60	199.73	21.38	
2025-01-17 11:12:02.80	199.75	21.40	
2025-01-17 11:12:03.01	199.78	21.43	
2025-01-17 11:12:03.21	199.81	21.45	
2025-01-17 11:12:03.41	199.83	21.48	
2025-01-17 11:12:03.61	199.86	21.50	
2025-01-17 11:12:03.82	199.89	21.53	
2025-01-17 11:12:04.02	199.91	21.55	
2025-01-17 11:12:04.22	199.94	21.58	
2025-01-17 11:12:04.43	199.97	21.60	
2025-01-17 11:12:04.63	199.99	21.63	
2025-01-17 11:12:04.83	200.02	21.65	
2025-01-17 11:12:05.03	200.05	21.67	
2025-01-17 11:12:05.24	200.08	21.70	
2025-01-17 11:12:05.44	200.10	21.72	
2025-01-17 11:12:05.64	200.13	21.75	
2025-01-17 11:12:05.85	200.16	21.77	
2025-01-17 11:12:06.05	200.18	21.80	
2025-01-17 11:12:06.25	200.21	21.82	
2025-01-17 11:12:06.46	200.24	21.85	
2025-01-17 11:12:06.66	200.27	21.87	
2025-01-17 11:12:06.86	200.29	21.90	
2025-01-17 11:12:07.06	200.32	21.92	
2025-01-17 11:12:07.27	200.35	21.95	
2025-01-17 11:12:07.47	200.38	21.97	
2025-01-17 11:12:07.67	200.40	22.00	
2025-01-17 11:12:07.88	200.43	22.02	
2025-01-17 11:12:08.08	200.46	22.05	
2025-01-17 11:12:08.28	200.49	22.07	
2025-01-17 11:12:08.49	200.52	22.10	
2025-01-17 11:12:08.69	200.54	22.12	
2025-01-17 11:12:08.89	200.57	22.15	
2025-01-17 11:12:09.09	200.60	22.17	
2025-01-17 11:12:09.30	200.63	22.20	
2025-01-17 11:12:09.50	200.66	22.22	
2025-01-17 11:12:09.70	200.68	22.25	
2025-01-17 11:12:09.91	200.71	22.27	
2025-01-17 11:12:10.11	200.74	22.30	
2025-01-17 11:12:10.31	200.77	22.32	
2025-01-17 11:12:10.52	200.80	22.35	
2025-01-17 11:12:10.72	200.83	22.37	
2025-01-17 11:12:10.92	200.85	22.40	
2025-01-17 11:12:11.12	200.88	22.42	
2025-01-17 11:12:11.33	200.91	22.45	
2025-01-17 11:12:11.53	200.94	22.47	
2025-01-17 11:12:11.73	200.97	22.50	
2025-01-17 11:12:11.94	201.00	22.52	
2025-01-17 11:12:12.14	201.03	22.55	
2025-01-17 11:12:12.34	201.05	22.57	
2025-01-17 11:12:12.54	201.08	22.60	
2025-01-17 11:12:12.75	201.11	22.62	
2025-01-17 11:12:12.95	201.14	22.65	
2025-01-17 11:12:13.15	201.17	22.67	
2025-01-17 11:12:13.36	201.20	22.70	
2025-01-17 11:12:13.56	201.23	22.73	
2025-01-17 11:12:13.76	201.26	22.75	
2025-01-17 11:12:13.97	201.29	22.78	
2025-01-17 11:12:14.17	201.31	22.80	
2025-01-17 11:12:14.37	201.34	22.83	
2025-01-17 11:12:14.57	201.37	22.85	
2025-01-17 11:12:14.78	201.40	22.88	
2025-01-17 11:12:14.98	201.43	22.90	
2025-01-17 11:12:15.18	201.46	22.93	
2025-01-17 11:12:15.39	201.49	22.95	
2025-01-17 11:12:15.59	201.52	22.98	
2025-01-17 11:12:15.79	201.55	23.01	
2025-01-17 11:12:16.00	201.58	23.03	
2025-01-17 11:12:16.20	201.61	23.06	
2025-01-17 11:12:16.40	201.64	23.08	
2025-01-17 11:12:16.60	201.67	23.11	
2025-01-17 11:12:16.81	201.70	23.13	
2025-01-17 11:12:17.01	201.73	23.16	
2025-01-17 11:12:17.21	201.76	23.18	
2025-01-17 11:12:17.42	201.79	23.21	
2025-01-17 11:12:17.62	201.82	23.24	
2025-01-17 11:12:17.82	201.85	23.26	
2025-01-17 11:12:18.03	201.88	23.29	
2025-01-17 11:12:18.23	201.91	23.31	
2025-01-17 11:12:18.43	201.94	23.34	
2025-01-17 11:12:18.63	201.97	23.37	
2025-01-17 11:12:18.84	202.00	23.39	
2025-01-17 11:12:19.04	202.03	23.42	
2025-01-17 11:12:19.24	202.06	23.44	
2025-01-17 11:12:19.45	202.09	23.47	
2025-01-17 11:12:19.65	202.12	23.50	
2025-01-17 11:12:19.85	202.15	23.52	
2025-01-17 11:12:20.05	202.18	23.55	
2025-01-17 11:12:20.26	202.21	23.57	
2025-01-17 11:12:20.46	202.24	23.60	
2025-01-17 11:12:20.66	202.27	23.62	
2025-01-17 11:12:20.87	202.30	23.65	
2025-01-17 11:12:21.07	202.33	23.68	
2025-01-17 11:12:21.27	202.36	23.70	
2025-01-17 11:12:21.48	202.39	23.73	
2025-01-17 11:12:21.68	202.42	23.76	
2025-01-17 11:12:21.88	202.45	23.78	
2025-01-17 11:12:22.08	202.49	23.81	
2025-01-17 11:12:22.29	202.52	23.83	
2025-01-17 11:12:22.49	202.55	23.86	
2025-01-17 11:12:22.69	202.58	23.89	
2025-01-17 11:12:22.90	202.61	23.91	
2025-01-17 11:12:23.10	202.64	23.94	
2025-01-17 11:12:23.30	202.67	23.96	
2025-01-17 11:12:23.51	202.71	23.99	
2025-01-17 11:12:23.71	202.74	24.02	
2025-01-17 11:12:23.91	202.77	24.04	
2025-01-17 11:12:24.11	202.80	24.07	
2025-01-17 11:12:24.32	202.83	24.10	
2025-01-17 11:12:24.52	202.86	24.12	
2025-01-17 11:12:24.72	202.89	24.15	
2025-01-17 11:12:24.93	202.93	24.18	
2025-01-17 11:12:25.13	202.96	24.20	
2025-01-17 11:12:25.33	202.99	24.23	
2025-01-17 11:12:25.54	203.02	24.26	
2025-01-17 11:12:25.74	203.05	24.28	
2025-01-17 11:12:25.94	203.08	24.31	
2025-01-17 11:12:26.14	203.12	24.33	
2025-01-17 11:12:26.35	203.15	24.36	
2025-01-17 11:12:26.55	203.18	24.39	
2025-01-17 11:12:26.75	203.21	24.41	
2025-01-17 11:12:26.96	203.25	24.44	
2025-01-17 11:12:27.16	203.28	24.47	
2025-01-17 11:12:27.36	203.31	24.49	
2025-01-17 11:12:27.56	203.34	24.52	
2025-01-17 11:12:27.77	203.37	24.55	
2025-01-17 11:12:27.97	203.41	24.57	
2025-01-17 11:12:28.17	203.44	24.60	
2025-01-17 11:12:28.38	203.47	24.63	
2025-01-17 11:12:28.58	203.50	24.65	
2025-01-17 11:12:28.78	203.54	24.68	
2025-01-17 11:12:28.99	203.57	24.71	
2025-01-17 11:12:29.19	203.60	24.73	
2025-01-17 11:12:29.39	203.64	24.76	
2025-01-17 11:12:29.59	203.67	24.79	
2025-01-17 11:12:29.80	203.70	24.81	
2025-01-17 11:12:30.00	203.73	24.84	
2025-01-17 11:12:30.20	203.77	24.87	
2025-01-17 11:12:30.41	203.80	24.90	
2025-01-17 11:12:30.61	203.83	24.92	
2025-01-17 11:12:30.81	203.87	24.95	
2025-01-17 11:12:31.02	203.90	24.98	
2025-01-17 11:12:31.22	203.93	25.00	
2025-01-17 11:12:31.42	203.97	25.03	
2025-01-17 11:12:31.62	204.00	25.06	
2025-01-17 11:12:31.83	204.03	25.08	
2025-01-17 11:12:32.03	204.07	25.11	
2025-01-17 11:12:32.23	204.10	25.14	
2025-01-17 11:12:32.44	204.14	25.16	
2025-01-17 11:12:32.64	204.17	25.19	
2025-01-17 11:12:32.84	204.20	25.22	
2025-01-17 11:12:33.05	204.24	25.25	
2025-01-17 11:12:33.25	204.27	25.27	
2025-01-17 11:12:33.45	204.30	25.30	
2025-01-17 11:12:33.65	204.34	25.33	
2025-01-17 11:12:33.86	204.37	25.35	
2025-01-17 11:12:34.06	204.41	25.38	
2025-01-17 11:12:34.26	204.44	25.41	
2025-01-17 11:12:34.47	204.48	25.44	
2025-01-17 11:12:34.67	204.51	25.46	
2025-01-17 11:12:34.87	204.54	25.49	
2025-01-17 11:12:35.07	204.58	25.52	
2025-01-17 11:12:35.28	204.61	25.55	
2025-01-17 11:12:35.48	204.65	25.57	
2025-01-17 11:12:35.68	204.68	25.60	
2025-01-17 11:12:35.89	204.72	25.63	
2025-01-17 11:12:36.09	204.75	25.65	
2025-01-17 11:12:36.29	204.79	25.68	
2025-01-17 11:12:36.50	204.82	25.71	
2025-01-17 11:12:36.70	204.86	25.74	
2025-01-17 11:12:36.90	204.89	25.76	
2025-01-17 11:12:37.10	204.93	25.79	
2025-01-17 11:12:37.31	204.96	25.82	
2025-01-17 11:12:37.51	205.00	25.85	
2025-01-17 11:12:37.71	205.03	25.87	
2025-01-17 11:12:37.92	205.07	25.90	
2025-01-17 11:12:38.12	205.10	25.93	
2025-01-17 11:12:38.32	205.14	25.96	
2025-01-17 11:12:38.53	205.17	25.98	
2025-01-17 11:12:38.73	205.21	26.01	
2025-01-17 11:12:38.93	205.24	26.04	
2025-01-17 11:12:39.13	205.28	26.07	
2025-01-17 11:12:39.34	205.32	26.09	
2025-01-17 11:12:39.54	205.35	26.12	
2025-01-17 11:12:39.74	205.39	26.15	
2025-01-17 11:12:39.95	205.42	26.18	
2025-01-17 11:12:40.15	205.46	26.20	
2025-01-17 11:12:40.35	205.49	26.23	
2025-01-17 11:12:40.56	205.53	26.26	
2025-01-17 11:12:40.76	205.57	26.29	
2025-01-17 11:12:40.96	205.60	26.32	
2025-01-17 11:12:41.16	205.64	26.34	
2025-01-17 11:12:41.37	205.68	26.37	
2025-01-17 11:12:41.57	205.71	26.40	
2025-01-17 11:12:41.77	205.75	26.43	
2025-01-17 11:12:41.98	205.78	26.46	
2025-01-17 11:12:42.18	205.82	26.48	
2025-01-17 11:12:42.38	205.86	26.51	
2025-01-17 11:12:42.58	205.89	26.54	
2025-01-17 11:12:42.79	205.93	26.57	
2025-01-17 11:12:42.99	205.97	26.59	
2025-01-17 11:12:43.19	206.00	26.62	
2025-01-17 11:12:43.40	206.04	26.65	
2025-01-17 11:12:43.60	206.08	26.68	
2025-01-17 11:12:43.80	206.11	26.71	
2025-01-17 11:12:44.01	206.15	26.73	
2025-01-17 11:12:44.21	206.19	26.76	
2025-01-17 11:12:44.41	206.23	26.79	
2025-01-17 11:12:44.61	206.26	26.82	
2025-01-17 11:12:44.82	206.30	26.85	
2025-01-17 11:12:45.02	206.34	26.87	
2025-01-17 11:12:45.22	206.38	26.90	
2025-01-17 11:12:45.43	206.41	26.93	
2025-01-17 11:12:45.63	206.45	26.96	
2025-01-17 11:12:45.83	206.49	26.99	
2025-01-17 11:12:46.04	206.53	27.02	
2025-01-17 11:12:46.24	206.56	27.04	
2025-01-17 11:12:46.44	206.60	27.07	
2025-01-17 11:12:46.64	206.64	27.10	
2025-01-17 11:12:46.85	206.68	27.13	
2025-01-17 11:12:47.05	206.72	27.16	
2025-01-17 11:12:47.25	206.75	27.18	
2025-01-17 11:12:47.46	206.79	27.21	
2025-01-17 11:12:47.66	206.83	27.24	
2025-01-17 11:12:47.86	206.87	27.27	
2025-01-17 11:12:48.07	206.91	27.30	
2025-01-17 11:12:48.27	206.95	27.33	
2025-01-17 11:12:48.47	206.98	27.35	
2025-01-17 11:12:48.67	207.02	27.38	
2025-01-17 11:12:48.88	207.06	27.41	
2025-01-17 11:12:49.08	207.10	27.44	
2025-01-17 11:12:49.28	207.14	27.47	
2025-01-17 11:12:49.49	207.18	27.50	
2025-01-17 11:12:49.69	207.22	27.53	
2025-01-17 11:12:49.89	207.26	27.55	
2025-01-17 11:12:50.09	207.29	27.58	
2025-01-17 11:12:50.30	207.34	27.61	
2025-01-17 11:12:50.50	207.37	27.64	
2025-01-17 11:12:50.70	207.41	27.67	
2025-01-17 11:12:50.91	207.45	27.70	
2025-01-17 11:12:51.11	207.49	27.72	
2025-01-17 11:12:51.31	207.53	27.75	
2025-01-17 11:12:51.52	207.57	27.78	
2025-01-17 11:12:51.72	207.61	27.81	
2025-01-17 11:12:51.92	207.65	27.84	
2025-01-17 11:12:52.12	207.69	27.87	
2025-01-17 11:12:52.33	207.73	27.90	
2025-01-17 11:12:52.53	207.77	27.93	
2025-01-17 11:12:52.73	207.81	27.95	
2025-01-17 11:12:52.94	207.85	27.98	
2025-01-17 11:12:53.14	207.89	28.01	
2025-01-17 11:12:53.34	207.93	28.04	
2025-01-17 11:12:53.55	207.97	28.07	
2025-01-17 11:12:53.75	208.01	28.10	
2025-01-17 11:12:53.95	208.05	28.13	
2025-01-17 11:12:54.15	208.09	28.15	
2025-01-17 11:12:54.36	208.13	28.18	
2025-01-17 11:12:54.56	208.17	28.21	
2025-01-17 11:12:54.76	208.21	28.24	
2025-01-17 11:12:54.97	208.25	28.27	
2025-01-17 11:12:55.17	208.29	28.30	
2025-01-17 11:12:55.37	208.34	28.33	
2025-01-17 11:12:55.57	208.38	28.36	
2025-01-17 11:12:55.78	208.42	28.39	
2025-01-17 11:12:55.98	208.46	28.42	
2025-01-17 11:12:56.18	208.50	28.44	
2025-01-17 11:12:56.39	208.54	28.47	
2025-01-17 11:12:56.59	208.58	28.50	
2025-01-17 11:12:56.79	208.62	28.53	
2025-01-17 11:12:57.00	208.67	28.56	
2025-01-17 11:12:57.20	208.71	28.59	
2025-01-17 11:12:57.40	208.75	28.62	
2025-01-17 11:12:57.60	208.79	28.65	
2025-01-17 11:12:57.81	208.83	28.68	
2025-01-17 11:12:58.01	208.87	28.71	
2025-01-17 11:12:58.21	208.92	28.73	
2025-01-17 11:12:58.42	208.96	28.76	
2025-01-17 11:12:58.62	209.00	28.79	
2025-01-17 11:12:58.82	209.04	28.82	
2025-01-17 11:12:59.03	209.09	28.85	
2025-01-17 11:12:59.23	209.13	28.88	
2025-01-17 11:12:59.43	209.17	28.91	
2025-01-17 11:12:59.63	209.21	28.94	
2025-01-17 11:12:59.84	209.25	28.97	
2025-01-17 11:13:00.04	209.30	29.00	
2025-01-17 11:13:00.24	209.34	29.03	
2025-01-17 11:13:00.45	209.38	29.06	
2025-01-17 11:13:00.65	209.42	29.08	
2025-01-17 11:13:00.85	209.47	29.11	
2025-01-17 11:13:01.06	209.51	29.14	
2025-01-17 11:13:01.26	209.55	29.17	
2025-01-17 11:13:01.46	209.60	29.20	
2025-01-17 11:13:01.66	209.64	29.23	
2025-01-17 11:13:01.87	209.68	29.26	
2025-01-17 11:13:02.07	209.73	29.29	
2025-01-17 11:13:02.27	209.77	29.32	
2025-01-17 11:13:02.48	209.81	29.35	
2025-01-17 11:13:02.68	209.86	29.38	
2025-01-17 11:13:02.88	209.90	29.41	
2025-01-17 11:13:03.08	209.94	29.44	
2025-01-17 11:13:03.29	209.99	29.47	
2025-01-17 11:13:03.49	210.03	29.50	
2025-01-17 11:13:03.69	210.08	29.52	
2025-01-17 11:13:03.90	210.12	29.56	
2025-01-17 11:13:04.10	210.16	29.58	
2025-01-17 11:13:04.30	210.21	29.61	
2025-01-17 11:13:04.51	210.25	29.64	
2025-01-17 11:13:04.71	210.30	29.67	
2025-01-17 11:13:04.91	210.34	29.70	
2025-01-17 11:13:05.11	210.38	29.73	
2025-01-17 11:13:05.32	210.43	29.76	
2025-01-17 11:13:05.52	210.48	29.79	
2025-01-17 11:13:05.72	210.52	29.82	
2025-01-17 11:13:05.93	210.57	29.85	
2025-01-17 11:13:06.13	210.61	29.88	
2025-01-17 11:13:06.33	210.65	29.91	
2025-01-17 11:13:06.54	210.70	29.94	
2025-01-17 11:13:06.74	210.75	29.97	
2025-01-17 11:13:06.94	210.79	30.00	
2025-01-17 11:13:07.14	210.83	30.03	
2025-01-17 11:13:07.35	210.88	30.06	
2025-01-17 11:13:07.55	210.93	30.09	
2025-01-17 11:13:07.75	210.97	30.12	
2025-01-17 11:13:07.96	211.02	30.15	
2025-01-17 11:13:08.16	211.06	30.18	
2025-01-17 11:13:08.36	211.11	30.21	
2025-01-17 11:13:08.57	211.16	30.24	
2025-01-17 11:13:08.77	211.20	30.27	
2025-01-17 11:13:08.97	211.25	30.30	
2025-01-17 11:13:09.17	211.29	30.32	
2025-01-17 11:13:09.38	211.34	30.36	
2025-01-17 11:13:09.58	211.39	30.38	
2025-01-17 11:13:09.78	211.43	30.41	
2025-01-17 11:13:09.99	211.48	30.44	
2025-01-17 11:13:10.19	211.53	30.47	
2025-01-17 11:13:10.39	211.57	30.50	
2025-01-17 11:13:10.59	211.62	30.53	
2025-01-17 11:13:10.80	211.67	30.56	
2025-01-17 11:13:11.00	211.71	30.59	
2025-01-17 11:13:11.20	211.76	30.62	
2025-01-17 11:13:11.41	211.81	30.65	
2025-01-17 11:13:11.61	211.85	30.68	
2025-01-17 11:13:11.81	211.90	30.71	
2025-01-17 11:13:12.02	211.95	30.74	
2025-01-17 11:13:12.22	212.00	30.77	
2025-01-17 11:13:12.42	212.04	30.80	
2025-01-17 11:13:12.62	212.09	30.83	
2025-01-17 11:13:12.83	212.14	30.86	
2025-01-17 11:13:13.03	212.19	30.89	
2025-01-17 11:13:13.23	212.23	30.92	
2025-01-17 11:13:13.44	212.28	30.95	
2025-01-17 11:13:13.64	212.33	30.98	
2025-01-17 11:13:13.84	212.38	31.01	
2025-01-17 11:13:14.05	212.43	31.04	
2025-01-17 11:13:14.25	212.48	31.07	
2025-01-17 11:13:14.45	212.52	31.10	
2025-01-17 11:13:14.65	212.57	31.13	
2025-01-17 11:13:14.86	212.62	31.16	
2025-01-17 11:13:15.06	212.67	31.19	
2025-01-17 11:13:15.26	212.72	31.22	
2025-01-17 11:13:15.47	212.77	31.25	
2025-01-17 11:13:15.67	212.82	31.28	
2025-01-17 11:13:15.87	212.86	31.31	
2025-01-17 11:13:16.08	212.91	31.34	
2025-01-17 11:13:16.28	212.96	31.37	
2025-01-17 11:13:16.48	213.01	31.40	
2025-01-17 11:13:16.68	213.06	31.43	
2025-01-17 11:13:16.89	213.11	31.46	
2025-01-17 11:13:17.09	213.16	31.49	
2025-01-17 11:13:17.29	213.21	31.52	
2025-01-17 11:13:17.50	213.26	31.55	
2025-01-17 11:13:17.70	213.31	31.58	
2025-01-17 11:13:17.90	213.36	31.61	
2025-01-17 11:13:18.10	213.41	31.64	
2025-01-17 11:13:18.31	213.46	31.68	
2025-01-17 11:13:18.51	213.51	31.71	
2025-01-17 11:13:18.71	213.56	31.73	
2025-01-17 11:13:18.92	213.61	31.77	
2025-01-17 11:13:19.12	213.66	31.80	
2025-01-17 11:13:19.32	213.71	31.83	
2025-01-17 11:13:19.53	213.76	31.86	
2025-01-17 11:13:19.73	213.81	31.89	
2025-01-17 11:13:19.93	213.86	31.92	
2025-01-17 11:13:20.13	213.91	31.95	
2025-01-17 11:13:20.34	213.97	31.98	
2025-01-17 11:13:20.54	214.02	32.01	
2025-01-17 11:13:20.74	214.07	32.04	
2025-01-17 11:13:20.95	214.12	32.07	
2025-01-17 11:13:21.15	214.17	32.10	
2025-01-17 11:13:21.35	214.22	32.13	
2025-01-17 11:13:21.56	214.27	32.16	
2025-01-17 11:13:21.76	214.33	32.19	
2025-01-17 11:13:21.96	214.38	32.22	
2025-01-17 11:13:22.16	214.43	32.25	
2025-01-17 11:13:22.37	214.48	32.28	
2025-01-17 11:13:22.57	214.53	32.31	
2025-01-17 11:13:22.77	214.58	32.34	
2025-01-17 11:13:22.98	214.64	32.37	
2025-01-17 11:13:23.18	214.69	32.40	
2025-01-17 11:13:23.38	214.74	32.43	
2025-01-17 11:13:23.59	214.80	32.46	
2025-01-17 11:13:23.79	214.85	32.49	
2025-01-17 11:13:23.99	214.90	32.52	
2025-01-17 11:13:24.19	214.95	32.55	
2025-01-17 11:13:24.40	215.01	32.58	
2025-01-17 11:13:24.60	215.06	32.61	
2025-01-17 11:13:24.80	215.11	32.64	
2025-01-17 11:13:25.01	215.17	32.68	
2025-01-17 11:13:25.21	215.22	32.71	
2025-01-17 11:13:25.41	215.27	32.74	
2025-01-17 11:13:25.61	215.32	32.77	
2025-01-17 11:13:25.82	215.38	32.80	
2025-01-17 11:13:26.02	215.43	32.83	
2025-01-17 11:13:26.22	215.49	32.86	
2025-01-17 11:13:26.43	215.54	32.89	
2025-01-17 11:13:26.63	215.59	32.92	
2025-01-17 11:13:26.83	215.65	32.95	
2025-01-17 11:13:27.04	215.70	32.98	
2025-01-17 11:13:27.24	215.76	33.01	
2025-01-17 11:13:27.44	215.81	33.04	
2025-01-17 11:13:27.64	215.86	33.07	
2025-01-17 11:13:27.85	215.92	33.10	
2025-01-17 11:13:28.05	215.97	33.13	
2025-01-17 11:13:28.25	216.03	33.16	
2025-01-17 11:13:28.46	216.09	33.19	
2025-01-17 11:13:28.66	216.14	33.22	
2025-01-17 11:13:28.86	216.19	33.25	
2025-01-17 11:13:29.07	216.25	33.28	
2025-01-17 11:13:29.27	216.31	33.31	
2025-01-17 11:13:29.47	216.36	33.34	
2025-01-17 11:13:29.67	216.41	33.37	
2025-01-17 11:13:29.88	216.47	33.40	
2025-01-17 11:13:30.08	216.53	33.43	
2025-01-17 11:13:30.28	216.58	33.46	
2025-01-17 11:13:30.49	216.64	33.50	
2025-01-17 11:13:30.69	216.70	33.53	
2025-01-17 11:13:30.89	216.75	33.56	
2025-01-17 11:13:31.10	216.81	33.59	
2025-01-17 11:13:31.30	216.86	33.62	
2025-01-17 11:13:31.50	216.92	33.65	
2025-01-17 11:13:31.70	216.98	33.68	
2025-01-17 11:13:31.91	217.03	33.71	
2025-01-17 11:13:32.11	217.09	33.74	
2025-01-17 11:13:32.31	217.15	33.77	
2025-01-17 11:13:32.52	217.20	33.80	
2025-01-17 11:13:32.72	217.26	33.83	
2025-01-17 11:13:32.92	217.32	33.86	
2025-01-17 11:13:33.12	217.37	33.89	
2025-01-17 11:13:33.33	217.43	33.92	
2025-01-17 11:13:33.53	217.49	33.95	
2025-01-17 11:13:33.73	217.55	33.98	
2025-01-17 11:13:33.94	217.61	34.01	
2025-01-17 11:13:34.14	217.66	34.04	
2025-01-17 11:13:34.34	217.72	34.07	
2025-01-17 11:13:34.55	217.78	34.11	
2025-01-17 11:13:34.75	217.84	34.14	
2025-01-17 11:13:34.95	217.89	34.17	
2025-01-17 11:13:35.15	217.95	34.20	
2025-01-17 11:13:35.36	218.01	34.23	
2025-01-17 11:13:35.56	218.07	34.26	
2025-01-17 11:13:35.76	218.13	34.29	
2025-01-17 11:13:35.97	218.19	34.32	
2025-01-17 11:13:36.17	218.25	34.35	
2025-01-17 11:13:36.37	218.30	34.38	
2025-01-17 11:13:36.58	218.37	34.41	
2025-01-17 11:13:36.78	218.42	34.44	
2025-01-17 11:13:36.98	218.48	34.47	
2025-01-17 11:13:37.18	218.54	34.50	
2025-01-17 11:13:37.39	218.60	34.53	
2025-01-17 11:13:37.59	218.66	34.56	
2025-01-17 11:13:37.79	218.72	34.59	
2025-01-17 11:13:38.00	218.78	34.62	
2025-01-17 11:13:38.20	218.84	34.65	
2025-01-17 11:13:38.40	218.90	34.68	
2025-01-17 11:13:38.61	218.96	34.71	
2025-01-17 11:13:38.81	219.02	34.74	
2025-01-17 11:13:39.01	219.08	34.77	
2025-01-17 11:13:39.21	219.14	34.80	
2025-01-17 11:13:39.42	219.20	34.83	
2025-01-17 11:13:39.62	219.26	34.86	
2025-01-17 11:13:39.82	219.32	34.89	
2025-01-17 11:13:40.03	219.39	34.93	
2025-01-17 11:13:40.23	219.45	34.96	
2025-01-17 11:13:40.43	219.51	34.99	
2025-01-17 11:13:40.63	219.57	35.01	
2025-01-17 11:13:40.84	219.63	35.05	
2025-01-17 11:13:41.04	219.69	35.08	
2025-01-17 11:13:41.24	219.75	35.11	
2025-01-17 11:13:41.45	219.82	35.14	
2025-01-17 11:13:41.65	219.88	35.17	
2025-01-17 11:13:41.85	219.94	35.20	
2025-01-17 11:13:42.06	220.00	35.23	
2025-01-17 11:13:42.26	220.06	35.26	
2025-01-17 11:13:42.46	220.12	35.29	
2025-01-17 11:13:42.66	220.19	35.32	
2025-01-17 11:13:42.87	220.25	35.35	
2025-01-17 11:13:43.07	220.31	35.38	
2025-01-17 11:13:43.27	220.37	35.41	
2025-01-17 11:13:43.48	220.44	35.44	
2025-01-17 11:13:43.68	220.50	35.47	
2025-01-17 11:13:43.88	220.56	35.50	
2025-01-17 11:13:44.09	220.63	35.53	
2025-01-17 11:13:44.29	220.69	35.56	
2025-01-17 11:13:44.49	220.75	35.59	
2025-01-17 11:13:44.69	220.82	35.62	
2025-01-17 11:13:44.90	220.88	35.65	
2025-01-17 11:13:45.10	220.94	35.68	
2025-01-17 11:13:45.30	221.01	35.71	
2025-01-17 11:13:45.51	221.07	35.74	
2025-01-17 11:13:45.71	221.14	35.77	
2025-01-17 11:13:45.91	221.20	35.80	
2025-01-17 11:13:46.12	221.27	35.83	
2025-01-17 11:13:46.32	221.33	35.86	
2025-01-17 11:13:46.52	221.39	35.89	
2025-01-17 11:13:46.72	221.46	35.92	
2025-01-17 11:13:46.93	221.53	35.95	
2025-01-17 11:13:47.13	221.59	35.98	
2025-01-17 11:13:47.33	221.65	36.01	
2025-01-17 11:13:47.54	221.72	36.04	
2025-01-17 11:13:47.74	221.78	36.07	
2025-01-17 11:13:47.94	221.85	36.10	
2025-01-17 11:13:48.14	221.91	36.13	
2025-01-17 11:13:48.35	221.98	36.16	
2025-01-17 11:13:48.55	222.05	36.19	
2025-01-17 11:13:48.75	222.11	36.22	
2025-01-17 11:13:48.96	222.18	36.25	
2025-01-17 11:13:49.16	222.24	36.28	
2025-01-17 11:13:49.36	222.31	36.31	
2025-01-17 11:13:49.57	222.38	36.34	
2025-01-17 11:13:49.77	222.44	36.37	
2025-01-17 11:13:49.97	222.51	36.40	
2025-01-17 11:13:50.17	222.58	36.43	
2025-01-17 11:13:50.38	222.64	36.46	
2025-01-17 11:13:50.58	222.71	36.49	
2025-01-17 11:13:50.78	222.78	36.52	
2025-01-17 11:13:50.99	222.85	36.55	
2025-01-17 11:13:51.19	222.91	36.58	
2025-01-17 11:13:51.39	222.98	36.61	
2025-01-17 11:13:51.60	223.05	36.64	
2025-01-17 11:13:51.80	223.12	36.67	
2025-01-17 11:13:52.00	223.18	36.70	
2025-01-17 11:13:52.20	223.25	36.73	
2025-01-17 11:13:52.41	223.32	36.76	
2025-01-17 11:13:52.61	223.39	36.78	
2025-01-17 11:13:52.81	223.45	36.81	
2025-01-17 11:13:53.02	223.52	36.84	
2025-01-17 11:13:53.22	223.59	36.87	
2025-01-17 11:13:53.42	223.66	36.90	
2025-01-17 11:13:53.63	223.73	36.93	
2025-01-17 11:13:53.83	223.80	36.96	
2025-01-17 11:13:54.03	223.87	36.99	
2025-01-17 11:13:54.23	223.94	37.02	
2025-01-17 11:13:54.44	224.01	37.05	
2025-01-17 11:13:54.64	224.08	37.08	
2025-01-17 11:13:54.84	224.14	37.11	
2025-01-17 11:13:55.05	224.22	37.14	
2025-01-17 11:13:55.25	224.28	37.17	
2025-01-17 11:13:55.45	224.35	37.20	
2025-01-17 11:13:55.65	224.42	37.23	
2025-01-17 11:13:55.86	224.49	37.26	
2025-01-17 11:13:56.06	224.56	37.28	
2025-01-17 11:13:56.26	224.63	37.31	
2025-01-17 11:13:56.47	224.71	37.34	
2025-01-17 11:13:56.67	224.78	37.37	
2025-01-17 11:13:56.87	224.85	37.40	
2025-01-17 11:13:57.08	224.92	37.43	
2025-01-17 11:13:57.28	224.99	37.46	
2025-01-17 11:13:57.48	225.06	37.49	
2025-01-17 11:13:57.68	225.13	37.52	
2025-01-17 11:13:57.89	225.20	37.55	
2025-01-17 11:13:58.09	225.27	37.58	
2025-01-17 11:13:58.29	225.34	37.60	
2025-01-17 11:13:58.50	225.42	37.63	
2025-01-17 11:13:58.70	225.49	37.66	
2025-01-17 11:13:58.90	225.56	37.69	
2025-01-17 11:13:59.11	225.63	37.72	
2025-01-17 11:13:59.31	225.71	37.75	
2025-01-17 11:13:59.51	225.78	37.78	
2025-01-17 11:13:59.71	225.85	37.81	
2025-01-17 11:13:59.92	225.92	37.84	
2025-01-17 11:14:00.12	226.00	37.86	
2025-01-17 11:14:00.32	226.07	37.89	
2025-01-17 11:14:00.53	226.14	37.92	
2025-01-17 11:14:00.73	226.21	37.95	
2025-01-17 11:14:00.93	226.29	37.98	
2025-01-17 11:14:01.13	226.36	38.01	
2025-01-17 11:14:01.34	226.44	38.04	
2025-01-17 11:14:01.54	226.51	38.07	
2025-01-17 11:14:01.74	226.58	38.09	
2025-01-17 11:14:01.95	226.66	38.12	
2025-01-17 11:14:02.15	226.73	38.15	
2025-01-17 11:14:02.35	226.80	38.18	
2025-01-17 11:14:02.56	226.88	38.21	
2025-01-17 11:14:02.76	226.95	38.24	
2025-01-17 11:14:02.96	227.03	38.26	
2025-01-17 11:14:03.16	227.10	38.29	
2025-01-17 11:14:03.37	227.18	38.32	
2025-01-17 11:14:03.57	227.25	38.35	
2025-01-17 11:14:03.77	227.33	38.38	
2025-01-17 11:14:03.98	227.40	38.41	
2025-01-17 11:14:04.18	227.48	38.43	
2025-01-17 11:14:04.38	227.55	38.46	
2025-01-17 11:14:04.59	227.63	38.49	
2025-01-17 11:14:04.79	227.70	38.52	
2025-01-17 11:14:04.99	227.78	38.55	
2025-01-17 11:14:05.19	227.85	38.57	
2025-01-17 11:14:05.40	227.93	38.60	
2025-01-17 11:14:05.60	228.01	38.63	
2025-01-17 11:14:05.80	228.08	38.66	
2025-01-17 11:14:06.01	228.16	38.69	
2025-01-17 11:14:06.21	228.24	38.71	
2025-01-17 11:14:06.41	228.31	38.74	
2025-01-17 11:14:06.62	228.39	38.77	
2025-01-17 11:14:06.82	228.47	38.80	
2025-01-17 11:14:07.02	228.54	38.83	
2025-01-17 11:14:07.22	228.62	38.85	
2025-01-17 11:14:07.43	228.70	38.88	
2025-01-17 11:14:07.63	228.78	38.91	
2025-01-17 11:14:07.83	228.85	38.94	
2025-01-17 11:14:08.04	228.93	38.96	
2025-01-17 11:14:08.24	229.01	38.99	
2025-01-17 11:14:08.44	229.09	39.02	
2025-01-17 11:14:08.64	229.16	39.05	
2025-01-17 11:14:08.85	229.25	39.07	
2025-01-17 11:14:09.05	229.32	39.10	
2025-01-17 11:14:09.25	229.40	39.13	
2025-01-17 11:14:09.46	229.48	39.16	
2025-01-17 11:14:09.66	229.56	39.18	
2025-01-17 11:14:09.86	229.64	39.21	
2025-01-17 11:14:10.07	229.72	39.24	
2025-01-17 11:14:10.27	229.80	39.27	
2025-01-17 11:14:10.47	229.87	39.29	
2025-01-17 11:14:10.67	229.95	39.32	
2025-01-17 11:14:10.88	230.03	39.35	
2025-01-17 11:14:11.08	230.11	39.37	
2025-01-17 11:14:11.28	230.19	39.40	
2025-01-17 11:14:11.49	230.27	39.43	
2025-01-17 11:14:11.69	230.35	39.45	
2025-01-17 11:14:11.89	230.43	39.48	
2025-01-17 11:14:12.10	230.52	39.51	
2025-01-17 11:14:12.30	230.60	39.53	
2025-01-17 11:14:12.50	230.67	39.56	
2025-01-17 11:14:12.70	230.75	39.59	
2025-01-17 11:14:12.91	230.84	39.61	
2025-01-17 11:14:13.11	230.92	39.64	
2025-01-17 11:14:13.31	231.00	39.67	
2025-01-17 11:14:13.52	231.08	39.69	
2025-01-17 11:14:13.72	231.16	39.72	
2025-01-17 11:14:13.92	231.24	39.75	
2025-01-17 11:14:14.13	231.33	39.77	
2025-01-17 11:14:14.33	231.41	39.80	
2025-01-17 11:14:14.53	231.49	39.83	
2025-01-17 11:14:14.73	231.57	39.85	
2025-01-17 11:14:14.94	231.65	39.88	
2025-01-17 11:14:15.14	231.74	39.90	
2025-01-17 11:14:15.34	231.82	39.93	
2025-01-17 11:14:15.55	231.90	39.96	
2025-01-17 11:14:15.75	231.98	39.98	
2025-01-17 11:14:15.95	232.06	40.01	
2025-01-17 11:14:16.15	232.15	40.03	
2025-01-17 11:14:16.36	232.23	40.06	
2025-01-17 11:14:16.56	232.31	40.09	
