passes_logs/2025/01/17/SPB_Silybum_02/SPB_Silybum_02__20250117_074053_TERRA_rec.log

#Pass ID: 20250117_074053_TERRA
#Satellite: TERRA
#Configuration: TERRA
#Start time: 2025-01-17 07:40:54

#Version: 2.0.20230423
#Station: SPB_Silybum_02
#Location: 30.233357 lon 59.946436 lat
#TLE: 1 25994U 99068A   25016.77398677  .00000840  00000+0  18282-3 0  9994
#TLE: 2 25994  98.0212  79.7479 0003409  69.0484  40.6664 14.60398530334334

#Time	Az	El	Level	Level2	SNR	BER	Gain	Gain2
2025-01-17 07:40:56.32	20.63	4.21	
2025-01-17 07:40:56.52	20.64	4.22	
2025-01-17 07:40:56.72	20.65	4.23	
2025-01-17 07:40:56.93	20.66	4.25	
2025-01-17 07:40:57.13	20.67	4.26	
2025-01-17 07:40:57.33	20.68	4.28	
2025-01-17 07:40:57.53	20.69	4.29	
2025-01-17 07:40:57.74	20.70	4.30	
2025-01-17 07:40:57.94	20.70	4.32	
2025-01-17 07:40:58.14	20.71	4.33	
2025-01-17 07:40:58.35	20.72	4.35	
2025-01-17 07:40:58.55	20.73	4.36	
2025-01-17 07:40:58.75	20.74	4.37	
2025-01-17 07:40:58.96	20.75	4.39	
2025-01-17 07:40:59.16	20.76	4.40	
2025-01-17 07:40:59.36	20.77	4.42	
2025-01-17 07:40:59.57	20.78	4.43	
2025-01-17 07:40:59.77	20.78	4.45	
2025-01-17 07:40:59.97	20.79	4.46	
2025-01-17 07:41:00.18	20.80	4.48	
2025-01-17 07:41:00.38	20.81	4.49	
2025-01-17 07:41:00.58	20.82	4.50	
2025-01-17 07:41:00.78	20.83	4.52	
2025-01-17 07:41:00.99	20.84	4.53	
2025-01-17 07:41:01.19	20.85	4.55	
2025-01-17 07:41:01.39	20.86	4.56	
2025-01-17 07:41:01.60	20.86	4.58	
2025-01-17 07:41:01.80	20.87	4.59	
2025-01-17 07:41:02.00	20.88	4.60	
2025-01-17 07:41:02.21	20.89	4.62	
2025-01-17 07:41:02.41	20.90	4.63	
2025-01-17 07:41:02.61	20.91	4.65	
2025-01-17 07:41:02.82	20.92	4.66	
2025-01-17 07:41:03.02	20.93	4.68	
2025-01-17 07:41:03.22	20.94	4.69	
2025-01-17 07:41:03.42	20.95	4.70	
2025-01-17 07:41:03.63	20.96	4.72	
2025-01-17 07:41:03.83	20.96	4.73	
2025-01-17 07:41:04.03	20.97	4.75	
2025-01-17 07:41:04.24	20.98	4.76	
2025-01-17 07:41:04.44	20.99	4.78	
2025-01-17 07:41:04.64	21.00	4.79	
2025-01-17 07:41:04.85	21.01	4.81	
2025-01-17 07:41:05.05	21.02	4.82	
2025-01-17 07:41:05.25	21.03	4.83	
2025-01-17 07:41:05.46	21.04	4.85	
2025-01-17 07:41:05.66	21.05	4.86	
2025-01-17 07:41:05.86	21.06	4.88	
2025-01-17 07:41:06.07	21.06	4.89	
2025-01-17 07:41:06.27	21.07	4.91	
2025-01-17 07:41:06.47	21.08	4.92	
2025-01-17 07:41:06.67	21.09	4.94	
2025-01-17 07:41:06.88	21.10	4.95	
2025-01-17 07:41:07.08	21.11	4.96	
2025-01-17 07:41:07.28	21.12	4.98	
2025-01-17 07:41:07.49	21.13	4.99	
2025-01-17 07:41:07.69	21.14	5.01	
2025-01-17 07:41:07.89	21.15	5.02	
2025-01-17 07:41:08.10	21.16	5.04	
2025-01-17 07:41:08.30	21.17	5.05	
2025-01-17 07:41:08.50	21.18	5.07	
2025-01-17 07:41:08.71	21.19	5.08	
2025-01-17 07:41:08.91	21.19	5.10	
2025-01-17 07:41:09.11	21.20	5.11	
2025-01-17 07:41:09.32	21.21	5.13	
2025-01-17 07:41:09.52	21.22	5.14	
2025-01-17 07:41:09.72	21.23	5.15	
2025-01-17 07:41:09.92	21.24	5.17	
2025-01-17 07:41:10.13	21.25	5.18	
2025-01-17 07:41:10.33	21.26	5.20	
2025-01-17 07:41:10.53	21.27	5.21	
2025-01-17 07:41:10.74	21.28	5.23	
2025-01-17 07:41:10.94	21.29	5.24	
2025-01-17 07:41:11.14	21.30	5.26	
2025-01-17 07:41:11.35	21.31	5.27	
2025-01-17 07:41:11.55	21.32	5.29	
2025-01-17 07:41:11.75	21.33	5.30	
2025-01-17 07:41:11.96	21.34	5.32	
2025-01-17 07:41:12.16	21.34	5.33	
2025-01-17 07:41:12.36	21.35	5.35	
2025-01-17 07:41:12.57	21.36	5.36	
2025-01-17 07:41:12.77	21.37	5.38	
2025-01-17 07:41:12.97	21.38	5.39	
2025-01-17 07:41:13.17	21.39	5.40	
2025-01-17 07:41:13.38	21.40	5.42	
2025-01-17 07:41:13.58	21.41	5.43	
2025-01-17 07:41:13.78	21.42	5.45	
2025-01-17 07:41:13.99	21.43	5.46	
2025-01-17 07:41:14.19	21.44	5.48	
2025-01-17 07:41:14.39	21.45	5.49	
2025-01-17 07:41:14.60	21.46	5.51	
2025-01-17 07:41:14.80	21.47	5.52	
2025-01-17 07:41:15.00	21.48	5.54	
2025-01-17 07:41:15.21	21.49	5.55	
2025-01-17 07:41:15.41	21.50	5.57	
2025-01-17 07:41:15.61	21.51	5.58	
2025-01-17 07:41:15.81	21.52	5.60	
2025-01-17 07:41:16.02	21.53	5.61	
2025-01-17 07:41:16.22	21.54	5.63	
2025-01-17 07:41:16.42	21.54	5.64	
2025-01-17 07:41:16.63	21.55	5.66	
2025-01-17 07:41:16.83	21.56	5.67	
2025-01-17 07:41:17.03	21.57	5.69	
2025-01-17 07:41:17.24	21.58	5.70	
2025-01-17 07:41:17.44	21.59	5.72	
2025-01-17 07:41:17.64	21.60	5.73	
2025-01-17 07:41:17.85	21.61	5.75	
2025-01-17 07:41:18.05	21.62	5.76	
2025-01-17 07:41:18.25	21.63	5.78	
2025-01-17 07:41:18.46	21.64	5.79	
2025-01-17 07:41:18.66	21.65	5.81	
2025-01-17 07:41:18.86	21.66	5.82	
2025-01-17 07:41:19.06	21.67	5.84	
2025-01-17 07:41:19.27	21.68	5.85	
2025-01-17 07:41:19.47	21.69	5.87	
2025-01-17 07:41:19.67	21.70	5.88	
2025-01-17 07:41:19.88	21.71	5.90	
2025-01-17 07:41:20.08	21.72	5.91	
2025-01-17 07:41:20.28	21.73	5.93	
2025-01-17 07:41:20.49	21.74	5.94	
2025-01-17 07:41:20.69	21.75	5.96	
2025-01-17 07:41:20.89	21.76	5.97	
2025-01-17 07:41:21.10	21.77	5.99	
2025-01-17 07:41:21.30	21.78	6.00	
2025-01-17 07:41:21.50	21.79	6.02	
2025-01-17 07:41:21.71	21.80	6.03	
2025-01-17 07:41:21.91	21.81	6.05	
2025-01-17 07:41:22.11	21.82	6.06	
2025-01-17 07:41:22.31	21.83	6.08	
2025-01-17 07:41:22.52	21.84	6.10	
2025-01-17 07:41:22.72	21.85	6.11	
2025-01-17 07:41:22.92	21.86	6.13	
2025-01-17 07:41:23.13	21.87	6.14	
2025-01-17 07:41:23.33	21.88	6.16	
2025-01-17 07:41:23.53	21.89	6.17	
2025-01-17 07:41:23.74	21.90	6.19	
2025-01-17 07:41:23.94	21.91	6.20	
2025-01-17 07:41:24.14	21.92	6.22	
2025-01-17 07:41:24.35	21.93	6.23	
2025-01-17 07:41:24.55	21.94	6.25	
2025-01-17 07:41:24.75	21.95	6.26	
2025-01-17 07:41:24.95	21.96	6.28	
2025-01-17 07:41:25.16	21.97	6.29	
2025-01-17 07:41:25.36	21.98	6.31	
2025-01-17 07:41:25.56	21.99	6.32	
2025-01-17 07:41:25.77	22.00	6.34	
2025-01-17 07:41:25.97	22.01	6.36	
2025-01-17 07:41:26.17	22.02	6.37	
2025-01-17 07:41:26.38	22.03	6.39	
2025-01-17 07:41:26.58	22.04	6.40	
2025-01-17 07:41:26.78	22.05	6.42	
2025-01-17 07:41:26.99	22.06	6.43	
2025-01-17 07:41:27.19	22.07	6.45	
2025-01-17 07:41:27.39	22.08	6.46	
2025-01-17 07:41:27.60	22.09	6.48	
2025-01-17 07:41:27.80	22.10	6.49	
2025-01-17 07:41:28.00	22.11	6.51	
2025-01-17 07:41:28.20	22.12	6.52	
2025-01-17 07:41:28.41	22.13	6.54	
2025-01-17 07:41:28.61	22.14	6.56	
2025-01-17 07:41:28.81	22.15	6.57	
2025-01-17 07:41:29.02	22.16	6.59	
2025-01-17 07:41:29.22	22.17	6.60	
2025-01-17 07:41:29.42	22.18	6.62	
2025-01-17 07:41:29.63	22.19	6.63	
2025-01-17 07:41:29.83	22.20	6.65	
2025-01-17 07:41:30.03	22.22	6.66	
2025-01-17 07:41:30.24	22.23	6.68	
2025-01-17 07:41:30.44	22.24	6.70	
2025-01-17 07:41:30.64	22.25	6.71	
2025-01-17 07:41:30.85	22.26	6.73	
2025-01-17 07:41:31.05	22.27	6.74	
2025-01-17 07:41:31.25	22.28	6.76	
2025-01-17 07:41:31.45	22.29	6.77	
2025-01-17 07:41:31.66	22.30	6.79	
2025-01-17 07:41:31.86	22.31	6.80	
2025-01-17 07:41:32.06	22.32	6.82	
2025-01-17 07:41:32.27	22.33	6.84	
2025-01-17 07:41:32.47	22.34	6.85	
2025-01-17 07:41:32.67	22.35	6.87	
2025-01-17 07:41:32.88	22.36	6.88	
2025-01-17 07:41:33.08	22.37	6.90	
2025-01-17 07:41:33.28	22.38	6.91	
2025-01-17 07:41:33.49	22.39	6.93	
2025-01-17 07:41:33.69	22.40	6.95	
2025-01-17 07:41:33.89	22.41	6.96	
2025-01-17 07:41:34.10	22.42	6.98	
2025-01-17 07:41:34.30	22.44	6.99	
2025-01-17 07:41:34.50	22.45	7.01	
2025-01-17 07:41:34.70	22.46	7.02	
2025-01-17 07:41:34.91	22.47	7.04	
2025-01-17 07:41:35.11	22.48	7.06	
2025-01-17 07:41:35.31	22.49	7.07	
2025-01-17 07:41:35.52	22.50	7.09	
2025-01-17 07:41:35.72	22.51	7.10	
2025-01-17 07:41:35.92	22.52	7.12	
2025-01-17 07:41:36.13	22.53	7.14	
2025-01-17 07:41:36.33	22.54	7.15	
2025-01-17 07:41:36.53	22.55	7.17	
2025-01-17 07:41:36.74	22.56	7.18	
2025-01-17 07:41:36.94	22.57	7.20	
2025-01-17 07:41:37.14	22.58	7.22	
2025-01-17 07:41:37.34	22.59	7.23	
2025-01-17 07:41:37.55	22.61	7.25	
2025-01-17 07:41:37.75	22.62	7.26	
2025-01-17 07:41:37.95	22.63	7.28	
2025-01-17 07:41:38.16	22.64	7.30	
2025-01-17 07:41:38.36	22.65	7.31	
2025-01-17 07:41:38.56	22.66	7.33	
2025-01-17 07:41:38.77	22.67	7.34	
2025-01-17 07:41:38.97	22.68	7.36	
2025-01-17 07:41:39.17	22.69	7.37	
2025-01-17 07:41:39.38	22.70	7.39	
2025-01-17 07:41:39.58	22.71	7.41	
2025-01-17 07:41:39.78	22.73	7.42	
2025-01-17 07:41:39.99	22.74	7.44	
2025-01-17 07:41:40.19	22.75	7.46	
2025-01-17 07:41:40.39	22.76	7.47	
2025-01-17 07:41:40.59	22.77	7.49	
2025-01-17 07:41:40.80	22.78	7.50	
2025-01-17 07:41:41.00	22.79	7.52	
2025-01-17 07:41:41.20	22.80	7.54	
2025-01-17 07:41:41.41	22.81	7.55	
2025-01-17 07:41:41.61	22.82	7.57	
2025-01-17 07:41:41.81	22.83	7.58	
2025-01-17 07:41:42.02	22.85	7.60	
2025-01-17 07:41:42.22	22.86	7.62	
2025-01-17 07:41:42.42	22.87	7.63	
2025-01-17 07:41:42.63	22.88	7.65	
2025-01-17 07:41:42.83	22.89	7.67	
2025-01-17 07:41:43.03	22.90	7.68	
2025-01-17 07:41:43.23	22.91	7.70	
2025-01-17 07:41:43.44	22.92	7.71	
2025-01-17 07:41:43.64	22.93	7.73	
2025-01-17 07:41:43.84	22.95	7.75	
2025-01-17 07:41:44.05	22.96	7.76	
2025-01-17 07:41:44.25	22.97	7.78	
2025-01-17 07:41:44.45	22.98	7.80	
2025-01-17 07:41:44.66	22.99	7.81	
2025-01-17 07:41:44.86	23.00	7.83	
2025-01-17 07:41:45.06	23.01	7.84	
2025-01-17 07:41:45.27	23.02	7.86	
2025-01-17 07:41:45.47	23.04	7.88	
2025-01-17 07:41:45.67	23.05	7.89	
2025-01-17 07:41:45.88	23.06	7.91	
2025-01-17 07:41:46.08	23.07	7.93	
2025-01-17 07:41:46.28	23.08	7.94	
2025-01-17 07:41:46.48	23.09	7.96	
2025-01-17 07:41:46.69	23.10	7.98	
2025-01-17 07:41:46.89	23.11	7.99	
2025-01-17 07:41:47.09	23.13	8.01	
2025-01-17 07:41:47.30	23.14	8.02	
2025-01-17 07:41:47.50	23.15	8.04	
2025-01-17 07:41:47.70	23.16	8.06	
2025-01-17 07:41:47.91	23.17	8.07	
2025-01-17 07:41:48.11	23.18	8.09	
2025-01-17 07:41:48.31	23.19	8.11	
2025-01-17 07:41:48.52	23.21	8.12	
2025-01-17 07:41:48.72	23.22	8.14	
2025-01-17 07:41:48.92	23.23	8.16	
2025-01-17 07:41:49.13	23.24	8.17	
2025-01-17 07:41:49.33	23.25	8.19	
2025-01-17 07:41:49.53	23.26	8.21	
2025-01-17 07:41:49.73	23.27	8.22	
2025-01-17 07:41:49.94	23.29	8.24	
2025-01-17 07:41:50.14	23.30	8.26	
2025-01-17 07:41:50.34	23.31	8.27	
2025-01-17 07:41:50.55	23.32	8.29	
2025-01-17 07:41:50.75	23.33	8.31	
2025-01-17 07:41:50.95	23.34	8.32	
2025-01-17 07:41:51.16	23.36	8.34	
2025-01-17 07:41:51.36	23.37	8.36	
2025-01-17 07:41:51.56	23.38	8.37	
2025-01-17 07:41:51.77	23.39	8.39	
2025-01-17 07:41:51.97	23.40	8.41	
2025-01-17 07:41:52.17	23.41	8.42	
2025-01-17 07:41:52.38	23.43	8.44	
2025-01-17 07:41:52.58	23.44	8.46	
2025-01-17 07:41:52.78	23.45	8.47	
2025-01-17 07:41:52.98	23.46	8.49	
2025-01-17 07:41:53.19	23.47	8.51	
2025-01-17 07:41:53.39	23.48	8.52	
2025-01-17 07:41:53.59	23.50	8.54	
2025-01-17 07:41:53.80	23.51	8.56	
2025-01-17 07:41:54.00	23.52	8.57	
2025-01-17 07:41:54.20	23.53	8.59	
2025-01-17 07:41:54.41	23.54	8.61	
2025-01-17 07:41:54.61	23.55	8.62	
2025-01-17 07:41:54.81	23.57	8.64	
2025-01-17 07:41:55.02	23.58	8.66	
2025-01-17 07:41:55.22	23.59	8.68	
2025-01-17 07:41:55.42	23.60	8.69	
2025-01-17 07:41:55.63	23.61	8.71	
2025-01-17 07:41:55.83	23.63	8.73	
2025-01-17 07:41:56.03	23.64	8.74	
2025-01-17 07:41:56.23	23.65	8.76	
2025-01-17 07:41:56.44	23.66	8.78	
2025-01-17 07:41:56.64	23.67	8.79	
2025-01-17 07:41:56.84	23.69	8.81	
2025-01-17 07:41:57.05	23.70	8.83	
2025-01-17 07:41:57.25	23.71	8.84	
2025-01-17 07:41:57.45	23.72	8.86	
2025-01-17 07:41:57.66	23.73	8.88	
2025-01-17 07:41:57.86	23.75	8.90	
2025-01-17 07:41:58.06	23.76	8.91	
2025-01-17 07:41:58.27	23.77	8.93	
2025-01-17 07:41:58.47	23.78	8.95	
2025-01-17 07:41:58.67	23.79	8.96	
2025-01-17 07:41:58.87	23.81	8.98	
2025-01-17 07:41:59.08	23.82	9.00	
2025-01-17 07:41:59.28	23.83	9.02	
2025-01-17 07:41:59.48	23.84	9.03	
2025-01-17 07:41:59.69	23.85	9.05	
2025-01-17 07:41:59.89	23.87	9.07	
2025-01-17 07:42:00.09	23.88	9.08	
2025-01-17 07:42:00.30	23.89	9.10	
2025-01-17 07:42:00.50	23.90	9.12	
2025-01-17 07:42:00.70	23.92	9.14	
2025-01-17 07:42:00.91	23.93	9.15	
2025-01-17 07:42:01.11	23.94	9.17	
2025-01-17 07:42:01.31	23.95	9.19	
2025-01-17 07:42:01.52	23.97	9.21	
2025-01-17 07:42:01.72	23.98	9.22	
2025-01-17 07:42:01.92	23.99	9.24	
2025-01-17 07:42:02.12	24.00	9.26	
2025-01-17 07:42:02.33	24.01	9.27	
2025-01-17 07:42:02.53	24.03	9.29	
2025-01-17 07:42:02.73	24.04	9.31	
2025-01-17 07:42:02.94	24.05	9.33	
2025-01-17 07:42:03.14	24.06	9.34	
2025-01-17 07:42:03.34	24.08	9.36	
2025-01-17 07:42:03.55	24.09	9.38	
2025-01-17 07:42:03.75	24.10	9.40	
2025-01-17 07:42:03.95	24.11	9.41	
2025-01-17 07:42:04.16	24.13	9.43	
2025-01-17 07:42:04.36	24.14	9.45	
2025-01-17 07:42:04.56	24.15	9.47	
2025-01-17 07:42:04.76	24.16	9.48	
2025-01-17 07:42:04.97	24.18	9.50	
2025-01-17 07:42:05.17	24.19	9.52	
2025-01-17 07:42:05.37	24.20	9.53	
2025-01-17 07:42:05.58	24.21	9.55	
2025-01-17 07:42:05.78	24.23	9.57	
2025-01-17 07:42:05.98	24.24	9.59	
2025-01-17 07:42:06.19	24.25	9.61	
2025-01-17 07:42:06.39	24.26	9.62	
2025-01-17 07:42:06.59	24.28	9.64	
2025-01-17 07:42:06.80	24.29	9.66	
2025-01-17 07:42:07.00	24.30	9.68	
2025-01-17 07:42:07.20	24.32	9.69	
2025-01-17 07:42:07.41	24.33	9.71	
2025-01-17 07:42:07.61	24.34	9.73	
2025-01-17 07:42:07.81	24.35	9.75	
2025-01-17 07:42:08.01	24.37	9.76	
2025-01-17 07:42:08.22	24.38	9.78	
2025-01-17 07:42:08.42	24.39	9.80	
2025-01-17 07:42:08.62	24.40	9.82	
2025-01-17 07:42:08.83	24.42	9.84	
2025-01-17 07:42:09.03	24.43	9.85	
2025-01-17 07:42:09.23	24.44	9.87	
2025-01-17 07:42:09.44	24.46	9.89	
2025-01-17 07:42:09.64	24.47	9.91	
2025-01-17 07:42:09.84	24.48	9.92	
2025-01-17 07:42:10.05	24.50	9.94	
2025-01-17 07:42:10.25	24.51	9.96	
2025-01-17 07:42:10.45	24.52	9.98	
2025-01-17 07:42:10.66	24.53	10.00	
2025-01-17 07:42:10.86	24.55	10.01	
2025-01-17 07:42:11.06	24.56	10.03	
2025-01-17 07:42:11.26	24.57	10.05	
2025-01-17 07:42:11.47	24.59	10.07	
2025-01-17 07:42:11.67	24.60	10.08	
2025-01-17 07:42:11.87	24.61	10.10	
2025-01-17 07:42:12.08	24.63	10.12	
2025-01-17 07:42:12.28	24.64	10.14	
2025-01-17 07:42:12.48	24.65	10.16	
2025-01-17 07:42:12.69	24.67	10.17	
2025-01-17 07:42:12.89	24.68	10.19	
2025-01-17 07:42:13.09	24.69	10.21	
2025-01-17 07:42:13.30	24.70	10.23	
2025-01-17 07:42:13.50	24.72	10.25	
2025-01-17 07:42:13.70	24.73	10.26	
2025-01-17 07:42:13.91	24.74	10.28	
2025-01-17 07:42:14.11	24.76	10.30	
2025-01-17 07:42:14.31	24.77	10.32	
2025-01-17 07:42:14.51	24.78	10.34	
2025-01-17 07:42:14.72	24.80	10.35	
2025-01-17 07:42:14.92	24.81	10.37	
2025-01-17 07:42:15.12	24.82	10.39	
2025-01-17 07:42:15.33	24.84	10.41	
2025-01-17 07:42:15.53	24.85	10.43	
2025-01-17 07:42:15.73	24.86	10.45	
2025-01-17 07:42:15.94	24.88	10.46	
2025-01-17 07:42:16.14	24.89	10.48	
2025-01-17 07:42:16.34	24.90	10.50	
2025-01-17 07:42:16.55	24.92	10.52	
2025-01-17 07:42:16.75	24.93	10.54	
2025-01-17 07:42:16.95	24.94	10.55	
2025-01-17 07:42:17.15	24.96	10.57	
2025-01-17 07:42:17.36	24.97	10.59	
2025-01-17 07:42:17.56	24.99	10.61	
2025-01-17 07:42:17.76	25.00	10.63	
2025-01-17 07:42:17.97	25.01	10.65	
2025-01-17 07:42:18.17	25.03	10.66	
2025-01-17 07:42:18.37	25.04	10.68	
2025-01-17 07:42:18.58	25.05	10.70	
2025-01-17 07:42:18.78	25.07	10.72	
2025-01-17 07:42:18.98	25.08	10.74	
2025-01-17 07:42:19.19	25.09	10.76	
2025-01-17 07:42:19.39	25.11	10.78	
2025-01-17 07:42:19.59	25.12	10.79	
2025-01-17 07:42:19.80	25.14	10.81	
2025-01-17 07:42:20.00	25.15	10.83	
2025-01-17 07:42:20.20	25.16	10.85	
2025-01-17 07:42:20.40	25.18	10.87	
2025-01-17 07:42:20.61	25.19	10.89	
2025-01-17 07:42:20.81	25.20	10.90	
2025-01-17 07:42:21.01	25.22	10.92	
2025-01-17 07:42:21.22	25.23	10.94	
2025-01-17 07:42:21.42	25.25	10.96	
2025-01-17 07:42:21.62	25.26	10.98	
2025-01-17 07:42:21.83	25.27	11.00	
2025-01-17 07:42:22.03	25.29	11.02	
2025-01-17 07:42:22.23	25.30	11.03	
2025-01-17 07:42:22.44	25.32	11.05	
2025-01-17 07:42:22.64	25.33	11.07	
2025-01-17 07:42:22.84	25.34	11.09	
2025-01-17 07:42:23.04	25.36	11.11	
2025-01-17 07:42:23.25	25.37	11.13	
2025-01-17 07:42:23.45	25.39	11.15	
2025-01-17 07:42:23.65	25.40	11.17	
2025-01-17 07:42:23.86	25.41	11.18	
2025-01-17 07:42:24.06	25.43	11.20	
2025-01-17 07:42:24.26	25.44	11.22	
2025-01-17 07:42:24.47	25.46	11.24	
2025-01-17 07:42:24.67	25.47	11.26	
2025-01-17 07:42:24.87	25.48	11.28	
2025-01-17 07:42:25.08	25.50	11.30	
2025-01-17 07:42:25.28	25.51	11.32	
2025-01-17 07:42:25.48	25.53	11.33	
2025-01-17 07:42:25.69	25.54	11.35	
2025-01-17 07:42:25.89	25.56	11.37	
2025-01-17 07:42:26.09	25.57	11.39	
2025-01-17 07:42:26.30	25.59	11.41	
2025-01-17 07:42:26.50	25.60	11.43	
2025-01-17 07:42:26.70	25.61	11.45	
2025-01-17 07:42:26.90	25.63	11.47	
2025-01-17 07:42:27.11	25.64	11.49	
2025-01-17 07:42:27.31	25.66	11.51	
2025-01-17 07:42:27.51	25.67	11.52	
2025-01-17 07:42:27.72	25.69	11.54	
2025-01-17 07:42:27.92	25.70	11.56	
2025-01-17 07:42:28.12	25.71	11.58	
2025-01-17 07:42:28.33	25.73	11.60	
2025-01-17 07:42:28.53	25.74	11.62	
2025-01-17 07:42:28.73	25.76	11.64	
2025-01-17 07:42:28.94	25.77	11.66	
2025-01-17 07:42:29.14	25.79	11.68	
2025-01-17 07:42:29.34	25.80	11.70	
2025-01-17 07:42:29.54	25.82	11.71	
2025-01-17 07:42:29.75	25.83	11.73	
2025-01-17 07:42:29.95	25.85	11.75	
2025-01-17 07:42:30.15	25.86	11.77	
2025-01-17 07:42:30.36	25.88	11.79	
2025-01-17 07:42:30.56	25.89	11.81	
2025-01-17 07:42:30.76	25.90	11.83	
2025-01-17 07:42:30.97	25.92	11.85	
2025-01-17 07:42:31.17	25.93	11.87	
2025-01-17 07:42:31.37	25.95	11.89	
2025-01-17 07:42:31.58	25.96	11.91	
2025-01-17 07:42:31.78	25.98	11.93	
2025-01-17 07:42:31.98	25.99	11.95	
2025-01-17 07:42:32.19	26.01	11.97	
2025-01-17 07:42:32.39	26.02	11.99	
2025-01-17 07:42:32.59	26.04	12.00	
2025-01-17 07:42:32.79	26.05	12.02	
2025-01-17 07:42:33.00	26.07	12.04	
2025-01-17 07:42:33.20	26.08	12.06	
2025-01-17 07:42:33.40	26.10	12.08	
2025-01-17 07:42:33.61	26.11	12.10	
2025-01-17 07:42:33.81	26.13	12.12	
2025-01-17 07:42:34.01	26.14	12.14	
2025-01-17 07:42:34.22	26.16	12.16	
2025-01-17 07:42:34.42	26.17	12.18	
2025-01-17 07:42:34.62	26.19	12.20	
2025-01-17 07:42:34.83	26.20	12.22	
2025-01-17 07:42:35.03	26.22	12.24	
2025-01-17 07:42:35.23	26.23	12.26	
2025-01-17 07:42:35.44	26.25	12.28	
2025-01-17 07:42:35.64	26.26	12.30	
2025-01-17 07:42:35.84	26.28	12.32	
2025-01-17 07:42:36.04	26.29	12.34	
2025-01-17 07:42:36.25	26.31	12.36	
2025-01-17 07:42:36.45	26.33	12.38	
2025-01-17 07:42:36.65	26.34	12.40	
2025-01-17 07:42:36.86	26.36	12.42	
2025-01-17 07:42:37.06	26.37	12.44	
2025-01-17 07:42:37.26	26.39	12.45	
2025-01-17 07:42:37.47	26.40	12.48	
2025-01-17 07:42:37.67	26.42	12.49	
2025-01-17 07:42:37.87	26.43	12.51	
2025-01-17 07:42:38.08	26.45	12.53	
2025-01-17 07:42:38.28	26.46	12.55	
2025-01-17 07:42:38.48	26.48	12.57	
2025-01-17 07:42:38.68	26.49	12.59	
2025-01-17 07:42:38.89	26.51	12.61	
2025-01-17 07:42:39.09	26.53	12.63	
2025-01-17 07:42:39.29	26.54	12.65	
2025-01-17 07:42:39.50	26.56	12.67	
2025-01-17 07:42:39.70	26.57	12.69	
2025-01-17 07:42:39.90	26.59	12.71	
2025-01-17 07:42:40.11	26.60	12.73	
2025-01-17 07:42:40.31	26.62	12.75	
2025-01-17 07:42:40.51	26.64	12.77	
2025-01-17 07:42:40.72	26.65	12.79	
2025-01-17 07:42:40.92	26.67	12.81	
2025-01-17 07:42:41.12	26.68	12.83	
2025-01-17 07:42:41.33	26.70	12.85	
2025-01-17 07:42:41.53	26.71	12.87	
2025-01-17 07:42:41.73	26.73	12.89	
2025-01-17 07:42:41.93	26.75	12.91	
2025-01-17 07:42:42.14	26.76	12.93	
2025-01-17 07:42:42.34	26.78	12.95	
2025-01-17 07:42:42.54	26.79	12.97	
2025-01-17 07:42:42.75	26.81	12.99	
2025-01-17 07:42:42.95	26.83	13.01	
2025-01-17 07:42:43.15	26.84	13.03	
2025-01-17 07:42:43.36	26.86	13.06	
2025-01-17 07:42:43.56	26.87	13.08	
2025-01-17 07:42:43.76	26.89	13.10	
2025-01-17 07:42:43.97	26.91	13.12	
2025-01-17 07:42:44.17	26.92	13.14	
2025-01-17 07:42:44.37	26.94	13.16	
2025-01-17 07:42:44.58	26.95	13.18	
2025-01-17 07:42:44.78	26.97	13.20	
2025-01-17 07:42:44.98	26.99	13.22	
2025-01-17 07:42:45.18	27.00	13.24	
2025-01-17 07:42:45.39	27.02	13.26	
2025-01-17 07:42:45.59	27.04	13.28	
2025-01-17 07:42:45.79	27.05	13.30	
2025-01-17 07:42:46.00	27.07	13.32	
2025-01-17 07:42:46.20	27.08	13.34	
2025-01-17 07:42:46.40	27.10	13.36	
2025-01-17 07:42:46.61	27.12	13.38	
2025-01-17 07:42:46.81	27.13	13.40	
2025-01-17 07:42:47.01	27.15	13.42	
2025-01-17 07:42:47.22	27.17	13.44	
2025-01-17 07:42:47.42	27.18	13.46	
2025-01-17 07:42:47.62	27.20	13.48	
2025-01-17 07:42:47.82	27.22	13.50	
2025-01-17 07:42:48.03	27.23	13.53	
2025-01-17 07:42:48.23	27.25	13.55	
2025-01-17 07:42:48.43	27.27	13.57	
2025-01-17 07:42:48.64	27.28	13.59	
2025-01-17 07:42:48.84	27.30	13.61	
2025-01-17 07:42:49.04	27.32	13.63	
2025-01-17 07:42:49.25	27.33	13.65	
2025-01-17 07:42:49.45	27.35	13.67	
2025-01-17 07:42:49.65	27.37	13.69	
2025-01-17 07:42:49.86	27.38	13.71	
2025-01-17 07:42:50.06	27.40	13.73	
2025-01-17 07:42:50.26	27.42	13.75	
2025-01-17 07:42:50.47	27.43	13.78	
2025-01-17 07:42:50.67	27.45	13.80	
2025-01-17 07:42:50.87	27.47	13.82	
2025-01-17 07:42:51.07	27.48	13.84	
2025-01-17 07:42:51.28	27.50	13.86	
2025-01-17 07:42:51.48	27.52	13.88	
2025-01-17 07:42:51.68	27.53	13.90	
2025-01-17 07:42:51.89	27.55	13.92	
2025-01-17 07:42:52.09	27.57	13.94	
2025-01-17 07:42:52.29	27.59	13.96	
2025-01-17 07:42:52.50	27.60	13.99	
2025-01-17 07:42:52.70	27.62	14.01	
2025-01-17 07:42:52.90	27.64	14.03	
2025-01-17 07:42:53.11	27.65	14.05	
2025-01-17 07:42:53.31	27.67	14.07	
2025-01-17 07:42:53.51	27.69	14.09	
2025-01-17 07:42:53.72	27.71	14.11	
2025-01-17 07:42:53.92	27.72	14.13	
2025-01-17 07:42:54.12	27.74	14.15	
2025-01-17 07:42:54.32	27.76	14.17	
2025-01-17 07:42:54.53	27.78	14.20	
2025-01-17 07:42:54.73	27.79	14.22	
2025-01-17 07:42:54.93	27.81	14.24	
2025-01-17 07:42:55.14	27.83	14.26	
2025-01-17 07:42:55.34	27.84	14.28	
2025-01-17 07:42:55.54	27.86	14.30	
2025-01-17 07:42:55.75	27.88	14.32	
2025-01-17 07:42:55.95	27.90	14.35	
2025-01-17 07:42:56.15	27.91	14.37	
2025-01-17 07:42:56.36	27.93	14.39	
2025-01-17 07:42:56.56	27.95	14.41	
2025-01-17 07:42:56.76	27.97	14.43	
2025-01-17 07:42:56.96	27.98	14.45	
2025-01-17 07:42:57.17	28.00	14.47	
2025-01-17 07:42:57.37	28.02	14.50	
2025-01-17 07:42:57.57	28.04	14.52	
2025-01-17 07:42:57.78	28.06	14.54	
2025-01-17 07:42:57.98	28.07	14.56	
2025-01-17 07:42:58.18	28.09	14.58	
2025-01-17 07:42:58.39	28.11	14.60	
2025-01-17 07:42:58.59	28.13	14.62	
2025-01-17 07:42:58.79	28.14	14.65	
2025-01-17 07:42:59.00	28.16	14.67	
2025-01-17 07:42:59.20	28.18	14.69	
2025-01-17 07:42:59.40	28.20	14.71	
2025-01-17 07:42:59.61	28.22	14.73	
2025-01-17 07:42:59.81	28.23	14.75	
2025-01-17 07:43:00.01	28.25	14.78	
2025-01-17 07:43:00.21	28.27	14.80	
2025-01-17 07:43:00.42	28.29	14.82	
2025-01-17 07:43:00.62	28.31	14.84	
2025-01-17 07:43:00.82	28.32	14.86	
2025-01-17 07:43:01.03	28.34	14.89	
2025-01-17 07:43:01.23	28.36	14.91	
2025-01-17 07:43:01.43	28.38	14.93	
2025-01-17 07:43:01.64	28.40	14.95	
2025-01-17 07:43:01.84	28.42	14.97	
2025-01-17 07:43:02.04	28.43	14.99	
2025-01-17 07:43:02.25	28.45	15.02	
2025-01-17 07:43:02.45	28.47	15.04	
2025-01-17 07:43:02.65	28.49	15.06	
2025-01-17 07:43:02.86	28.51	15.08	
2025-01-17 07:43:03.06	28.53	15.10	
2025-01-17 07:43:03.26	28.54	15.13	
2025-01-17 07:43:03.46	28.56	15.15	
2025-01-17 07:43:03.67	28.58	15.17	
2025-01-17 07:43:03.87	28.60	15.19	
2025-01-17 07:43:04.07	28.62	15.21	
2025-01-17 07:43:04.28	28.64	15.24	
2025-01-17 07:43:04.48	28.66	15.26	
2025-01-17 07:43:04.68	28.67	15.28	
2025-01-17 07:43:04.89	28.69	15.30	
2025-01-17 07:43:05.09	28.71	15.33	
2025-01-17 07:43:05.29	28.73	15.35	
2025-01-17 07:43:05.50	28.75	15.37	
2025-01-17 07:43:05.70	28.77	15.39	
2025-01-17 07:43:05.90	28.79	15.41	
2025-01-17 07:43:06.11	28.81	15.44	
2025-01-17 07:43:06.31	28.82	15.46	
2025-01-17 07:43:06.51	28.84	15.48	
2025-01-17 07:43:06.71	28.86	15.50	
2025-01-17 07:43:06.92	28.88	15.53	
2025-01-17 07:43:07.12	28.90	15.55	
2025-01-17 07:43:07.32	28.92	15.57	
2025-01-17 07:43:07.53	28.94	15.59	
2025-01-17 07:43:07.73	28.96	15.62	
2025-01-17 07:43:07.93	28.98	15.64	
2025-01-17 07:43:08.14	29.00	15.66	
2025-01-17 07:43:08.34	29.01	15.68	
2025-01-17 07:43:08.54	29.03	15.71	
2025-01-17 07:43:08.75	29.05	15.73	
2025-01-17 07:43:08.95	29.07	15.75	
2025-01-17 07:43:09.15	29.09	15.77	
2025-01-17 07:43:09.35	29.11	15.80	
2025-01-17 07:43:09.56	29.13	15.82	
2025-01-17 07:43:09.76	29.15	15.84	
2025-01-17 07:43:09.96	29.17	15.86	
2025-01-17 07:43:10.17	29.19	15.89	
2025-01-17 07:43:10.37	29.21	15.91	
2025-01-17 07:43:10.57	29.23	15.93	
2025-01-17 07:43:10.78	29.25	15.96	
2025-01-17 07:43:10.98	29.27	15.98	
2025-01-17 07:43:11.18	29.29	16.00	
2025-01-17 07:43:11.39	29.31	16.02	
2025-01-17 07:43:11.59	29.33	16.05	
2025-01-17 07:43:11.79	29.34	16.07	
2025-01-17 07:43:12.00	29.37	16.09	
2025-01-17 07:43:12.20	29.38	16.12	
2025-01-17 07:43:12.40	29.40	16.14	
2025-01-17 07:43:12.60	29.42	16.16	
2025-01-17 07:43:12.81	29.44	16.19	
2025-01-17 07:43:13.01	29.46	16.21	
2025-01-17 07:43:13.21	29.48	16.23	
2025-01-17 07:43:13.42	29.50	16.25	
2025-01-17 07:43:13.62	29.52	16.28	
2025-01-17 07:43:13.82	29.54	16.30	
2025-01-17 07:43:14.03	29.56	16.32	
2025-01-17 07:43:14.23	29.58	16.35	
2025-01-17 07:43:14.43	29.60	16.37	
2025-01-17 07:43:14.64	29.62	16.39	
2025-01-17 07:43:14.84	29.64	16.42	
2025-01-17 07:43:15.04	29.66	16.44	
2025-01-17 07:43:15.25	29.68	16.46	
2025-01-17 07:43:15.45	29.70	16.49	
2025-01-17 07:43:15.65	29.72	16.51	
2025-01-17 07:43:15.85	29.74	16.53	
2025-01-17 07:43:16.06	29.77	16.56	
2025-01-17 07:43:16.26	29.79	16.58	
2025-01-17 07:43:16.46	29.81	16.60	
2025-01-17 07:43:16.67	29.83	16.63	
2025-01-17 07:43:16.87	29.85	16.65	
2025-01-17 07:43:17.07	29.87	16.67	
2025-01-17 07:43:17.28	29.89	16.70	
2025-01-17 07:43:17.48	29.91	16.72	
2025-01-17 07:43:17.68	29.93	16.74	
2025-01-17 07:43:17.89	29.95	16.77	
2025-01-17 07:43:18.09	29.97	16.79	
2025-01-17 07:43:18.29	29.99	16.81	
2025-01-17 07:43:18.49	30.01	16.84	
2025-01-17 07:43:18.70	30.03	16.86	
2025-01-17 07:43:18.90	30.05	16.88	
2025-01-17 07:43:19.10	30.07	16.91	
2025-01-17 07:43:19.31	30.10	16.93	
2025-01-17 07:43:19.51	30.12	16.96	
2025-01-17 07:43:19.71	30.14	16.98	
2025-01-17 07:43:19.92	30.16	17.00	
2025-01-17 07:43:20.12	30.18	17.03	
2025-01-17 07:43:20.32	30.20	17.05	
2025-01-17 07:43:20.53	30.22	17.08	
2025-01-17 07:43:20.73	30.24	17.10	
2025-01-17 07:43:20.93	30.26	17.12	
2025-01-17 07:43:21.14	30.28	17.15	
2025-01-17 07:43:21.34	30.31	17.17	
2025-01-17 07:43:21.54	30.33	17.19	
2025-01-17 07:43:21.74	30.35	17.22	
2025-01-17 07:43:21.95	30.37	17.24	
2025-01-17 07:43:22.15	30.39	17.27	
2025-01-17 07:43:22.35	30.41	17.29	
2025-01-17 07:43:22.56	30.43	17.31	
2025-01-17 07:43:22.76	30.45	17.34	
2025-01-17 07:43:22.96	30.48	17.36	
2025-01-17 07:43:23.17	30.50	17.39	
2025-01-17 07:43:23.37	30.52	17.41	
2025-01-17 07:43:23.57	30.54	17.43	
2025-01-17 07:43:23.78	30.56	17.46	
2025-01-17 07:43:23.98	30.58	17.48	
2025-01-17 07:43:24.18	30.61	17.51	
2025-01-17 07:43:24.39	30.63	17.53	
2025-01-17 07:43:24.59	30.65	17.56	
2025-01-17 07:43:24.79	30.67	17.58	
2025-01-17 07:43:24.99	30.69	17.60	
2025-01-17 07:43:25.20	30.71	17.63	
2025-01-17 07:43:25.40	30.74	17.65	
2025-01-17 07:43:25.60	30.76	17.68	
2025-01-17 07:43:25.81	30.78	17.70	
2025-01-17 07:43:26.01	30.80	17.73	
2025-01-17 07:43:26.21	30.82	17.75	
2025-01-17 07:43:26.42	30.85	17.78	
2025-01-17 07:43:26.62	30.87	17.80	
2025-01-17 07:43:26.82	30.89	17.82	
2025-01-17 07:43:27.03	30.91	17.85	
2025-01-17 07:43:27.23	30.93	17.87	
2025-01-17 07:43:27.43	30.96	17.90	
2025-01-17 07:43:27.63	30.98	17.92	
2025-01-17 07:43:27.84	31.00	17.95	
2025-01-17 07:43:28.04	31.02	17.97	
2025-01-17 07:43:28.24	31.05	18.00	
2025-01-17 07:43:28.45	31.07	18.02	
2025-01-17 07:43:28.65	31.09	18.05	
2025-01-17 07:43:28.85	31.11	18.07	
2025-01-17 07:43:29.06	31.14	18.10	
2025-01-17 07:43:29.26	31.16	18.12	
2025-01-17 07:43:29.46	31.18	18.14	
2025-01-17 07:43:29.67	31.20	18.17	
2025-01-17 07:43:29.87	31.23	18.19	
2025-01-17 07:43:30.07	31.25	18.22	
2025-01-17 07:43:30.28	31.27	18.24	
2025-01-17 07:43:30.48	31.30	18.27	
2025-01-17 07:43:30.68	31.32	18.29	
2025-01-17 07:43:30.88	31.34	18.32	
2025-01-17 07:43:31.09	31.36	18.34	
2025-01-17 07:43:31.29	31.39	18.37	
2025-01-17 07:43:31.49	31.41	18.39	
2025-01-17 07:43:31.70	31.43	18.42	
2025-01-17 07:43:31.90	31.46	18.44	
2025-01-17 07:43:32.10	31.48	18.47	
2025-01-17 07:43:32.31	31.50	18.50	
2025-01-17 07:43:32.51	31.53	18.52	
2025-01-17 07:43:32.71	31.55	18.54	
2025-01-17 07:43:32.92	31.57	18.57	
2025-01-17 07:43:33.12	31.60	18.60	
2025-01-17 07:43:33.32	31.62	18.62	
2025-01-17 07:43:33.53	31.64	18.65	
2025-01-17 07:43:33.73	31.67	18.67	
2025-01-17 07:43:33.93	31.69	18.70	
2025-01-17 07:43:34.13	31.71	18.72	
2025-01-17 07:43:34.34	31.74	18.75	
2025-01-17 07:43:34.54	31.76	18.77	
2025-01-17 07:43:34.74	31.78	18.80	
2025-01-17 07:43:34.95	31.81	18.82	
2025-01-17 07:43:35.15	31.83	18.85	
2025-01-17 07:43:35.35	31.85	18.87	
2025-01-17 07:43:35.56	31.88	18.90	
2025-01-17 07:43:35.76	31.90	18.93	
2025-01-17 07:43:35.96	31.93	18.95	
2025-01-17 07:43:36.17	31.95	18.98	
2025-01-17 07:43:36.37	31.97	19.00	
2025-01-17 07:43:36.57	32.00	19.03	
2025-01-17 07:43:36.77	32.02	19.05	
2025-01-17 07:43:36.98	32.05	19.08	
2025-01-17 07:43:37.18	32.07	19.11	
2025-01-17 07:43:37.38	32.09	19.13	
2025-01-17 07:43:37.59	32.12	19.16	
2025-01-17 07:43:37.79	32.14	19.18	
2025-01-17 07:43:37.99	32.17	19.21	
2025-01-17 07:43:38.20	32.19	19.24	
2025-01-17 07:43:38.40	32.22	19.26	
2025-01-17 07:43:38.60	32.24	19.29	
2025-01-17 07:43:38.81	32.26	19.31	
2025-01-17 07:43:39.01	32.29	19.34	
2025-01-17 07:43:39.21	32.31	19.36	
2025-01-17 07:43:39.42	32.34	19.39	
2025-01-17 07:43:39.62	32.36	19.42	
2025-01-17 07:43:39.82	32.39	19.44	
2025-01-17 07:43:40.02	32.41	19.47	
2025-01-17 07:43:40.23	32.44	19.49	
2025-01-17 07:43:40.43	32.46	19.52	
2025-01-17 07:43:40.63	32.49	19.55	
2025-01-17 07:43:40.84	32.51	19.57	
2025-01-17 07:43:41.04	32.54	19.60	
2025-01-17 07:43:41.24	32.56	19.63	
2025-01-17 07:43:41.45	32.59	19.65	
2025-01-17 07:43:41.65	32.61	19.68	
2025-01-17 07:43:41.85	32.64	19.70	
2025-01-17 07:43:42.06	32.66	19.73	
2025-01-17 07:43:42.26	32.69	19.76	
2025-01-17 07:43:42.46	32.71	19.78	
2025-01-17 07:43:42.67	32.74	19.81	
2025-01-17 07:43:42.87	32.76	19.84	
2025-01-17 07:43:43.07	32.79	19.86	
2025-01-17 07:43:43.27	32.81	19.89	
2025-01-17 07:43:43.48	32.84	19.92	
2025-01-17 07:43:43.68	32.86	19.94	
2025-01-17 07:43:43.88	32.89	19.97	
2025-01-17 07:43:44.09	32.92	20.00	
2025-01-17 07:43:44.29	32.94	20.02	
2025-01-17 07:43:44.49	32.97	20.05	
2025-01-17 07:43:44.70	32.99	20.08	
2025-01-17 07:43:44.90	33.02	20.10	
2025-01-17 07:43:45.10	33.04	20.13	
2025-01-17 07:43:45.31	33.07	20.16	
2025-01-17 07:43:45.51	33.10	20.18	
2025-01-17 07:43:45.71	33.12	20.21	
2025-01-17 07:43:45.92	33.15	20.24	
2025-01-17 07:43:46.12	33.17	20.26	
2025-01-17 07:43:46.32	33.20	20.29	
2025-01-17 07:43:46.52	33.22	20.32	
2025-01-17 07:43:46.73	33.25	20.34	
2025-01-17 07:43:46.93	33.28	20.37	
2025-01-17 07:43:47.13	33.30	20.40	
2025-01-17 07:43:47.34	33.33	20.43	
2025-01-17 07:43:47.54	33.36	20.45	
2025-01-17 07:43:47.74	33.38	20.48	
2025-01-17 07:43:47.95	33.41	20.51	
2025-01-17 07:43:48.15	33.44	20.53	
2025-01-17 07:43:48.35	33.46	20.56	
2025-01-17 07:43:48.56	33.49	20.59	
2025-01-17 07:43:48.76	33.52	20.61	
2025-01-17 07:43:48.96	33.54	20.64	
2025-01-17 07:43:49.16	33.57	20.67	
2025-01-17 07:43:49.37	33.60	20.70	
2025-01-17 07:43:49.57	33.62	20.72	
2025-01-17 07:43:49.77	33.65	20.75	
2025-01-17 07:43:49.98	33.68	20.78	
2025-01-17 07:43:50.18	33.70	20.81	
2025-01-17 07:43:50.38	33.73	20.83	
2025-01-17 07:43:50.59	33.76	20.86	
2025-01-17 07:43:50.79	33.78	20.89	
2025-01-17 07:43:50.99	33.81	20.92	
2025-01-17 07:43:51.20	33.84	20.94	
2025-01-17 07:43:51.40	33.87	20.97	
2025-01-17 07:43:51.60	33.89	21.00	
2025-01-17 07:43:51.81	33.92	21.03	
2025-01-17 07:43:52.01	33.95	21.05	
2025-01-17 07:43:52.21	33.98	21.08	
2025-01-17 07:43:52.41	34.00	21.11	
2025-01-17 07:43:52.62	34.03	21.14	
2025-01-17 07:43:52.82	34.06	21.16	
2025-01-17 07:43:53.02	34.09	21.19	
2025-01-17 07:43:53.23	34.11	21.22	
2025-01-17 07:43:53.43	34.14	21.25	
2025-01-17 07:43:53.63	34.17	21.28	
2025-01-17 07:43:53.84	34.20	21.30	
2025-01-17 07:43:54.04	34.23	21.33	
2025-01-17 07:43:54.24	34.25	21.36	
2025-01-17 07:43:54.45	34.28	21.39	
2025-01-17 07:43:54.65	34.31	21.42	
2025-01-17 07:43:54.85	34.34	21.44	
2025-01-17 07:43:55.06	34.37	21.47	
2025-01-17 07:43:55.26	34.39	21.50	
2025-01-17 07:43:55.46	34.42	21.53	
2025-01-17 07:43:55.66	34.45	21.55	
2025-01-17 07:43:55.87	34.48	21.58	
2025-01-17 07:43:56.07	34.51	21.61	
2025-01-17 07:43:56.27	34.54	21.64	
2025-01-17 07:43:56.48	34.57	21.67	
2025-01-17 07:43:56.68	34.59	21.70	
2025-01-17 07:43:56.88	34.62	21.72	
2025-01-17 07:43:57.09	34.65	21.75	
2025-01-17 07:43:57.29	34.68	21.78	
2025-01-17 07:43:57.49	34.71	21.81	
2025-01-17 07:43:57.70	34.74	21.84	
2025-01-17 07:43:57.90	34.77	21.87	
2025-01-17 07:43:58.10	34.80	21.89	
2025-01-17 07:43:58.30	34.82	21.92	
2025-01-17 07:43:58.51	34.85	21.95	
2025-01-17 07:43:58.71	34.88	21.98	
2025-01-17 07:43:58.91	34.91	22.01	
2025-01-17 07:43:59.12	34.94	22.04	
2025-01-17 07:43:59.32	34.97	22.07	
2025-01-17 07:43:59.52	35.00	22.09	
2025-01-17 07:43:59.73	35.03	22.12	
2025-01-17 07:43:59.93	35.06	22.15	
2025-01-17 07:44:00.13	35.09	22.18	
2025-01-17 07:44:00.34	35.12	22.21	
2025-01-17 07:44:00.54	35.15	22.24	
2025-01-17 07:44:00.74	35.18	22.27	
2025-01-17 07:44:00.95	35.21	22.30	
2025-01-17 07:44:01.15	35.24	22.33	
2025-01-17 07:44:01.35	35.27	22.35	
2025-01-17 07:44:01.55	35.30	22.38	
2025-01-17 07:44:01.76	35.33	22.41	
2025-01-17 07:44:01.96	35.36	22.44	
2025-01-17 07:44:02.16	35.39	22.47	
2025-01-17 07:44:02.37	35.42	22.50	
2025-01-17 07:44:02.57	35.45	22.53	
2025-01-17 07:44:02.77	35.48	22.56	
2025-01-17 07:44:02.98	35.51	22.59	
2025-01-17 07:44:03.18	35.54	22.62	
2025-01-17 07:44:03.38	35.57	22.64	
2025-01-17 07:44:03.59	35.60	22.67	
2025-01-17 07:44:03.79	35.63	22.70	
2025-01-17 07:44:03.99	35.66	22.73	
2025-01-17 07:44:04.20	35.69	22.76	
2025-01-17 07:44:04.40	35.72	22.79	
2025-01-17 07:44:04.60	35.75	22.82	
2025-01-17 07:44:04.80	35.78	22.85	
2025-01-17 07:44:05.01	35.81	22.88	
2025-01-17 07:44:05.21	35.85	22.91	
2025-01-17 07:44:05.41	35.88	22.94	
2025-01-17 07:44:05.62	35.91	22.97	
2025-01-17 07:44:05.82	35.94	23.00	
2025-01-17 07:44:06.02	35.97	23.03	
2025-01-17 07:44:06.23	36.00	23.06	
2025-01-17 07:44:06.43	36.03	23.09	
2025-01-17 07:44:06.63	36.06	23.12	
2025-01-17 07:44:06.84	36.10	23.15	
2025-01-17 07:44:07.04	36.13	23.18	
2025-01-17 07:44:07.24	36.16	23.20	
2025-01-17 07:44:07.44	36.19	23.23	
2025-01-17 07:44:07.65	36.22	23.26	
2025-01-17 07:44:07.85	36.25	23.29	
2025-01-17 07:44:08.05	36.28	23.32	
2025-01-17 07:44:08.26	36.32	23.35	
2025-01-17 07:44:08.46	36.35	23.38	
2025-01-17 07:44:08.66	36.38	23.41	
2025-01-17 07:44:08.87	36.41	23.44	
2025-01-17 07:44:09.07	36.45	23.47	
2025-01-17 07:44:09.27	36.48	23.50	
2025-01-17 07:44:09.48	36.51	23.53	
2025-01-17 07:44:09.68	36.54	23.56	
2025-01-17 07:44:09.88	36.57	23.59	
2025-01-17 07:44:10.09	36.61	23.62	
2025-01-17 07:44:10.29	36.64	23.65	
2025-01-17 07:44:10.49	36.67	23.68	
2025-01-17 07:44:10.69	36.70	23.71	
2025-01-17 07:44:10.90	36.74	23.75	
2025-01-17 07:44:11.10	36.77	23.77	
2025-01-17 07:44:11.30	36.80	23.80	
2025-01-17 07:44:11.51	36.84	23.84	
2025-01-17 07:44:11.71	36.87	23.87	
2025-01-17 07:44:11.91	36.90	23.90	
2025-01-17 07:44:12.12	36.94	23.93	
2025-01-17 07:44:12.32	36.97	23.96	
2025-01-17 07:44:12.52	37.00	23.99	
2025-01-17 07:44:12.73	37.04	24.02	
2025-01-17 07:44:12.93	37.07	24.05	
2025-01-17 07:44:13.13	37.10	24.08	
2025-01-17 07:44:13.34	37.14	24.11	
2025-01-17 07:44:13.54	37.17	24.14	
2025-01-17 07:44:13.74	37.20	24.17	
2025-01-17 07:44:13.94	37.23	24.20	
2025-01-17 07:44:14.15	37.27	24.23	
2025-01-17 07:44:14.35	37.30	24.26	
2025-01-17 07:44:14.55	37.34	24.29	
2025-01-17 07:44:14.76	37.37	24.33	
2025-01-17 07:44:14.96	37.40	24.36	
2025-01-17 07:44:15.16	37.44	24.39	
2025-01-17 07:44:15.37	37.47	24.42	
2025-01-17 07:44:15.57	37.51	24.45	
2025-01-17 07:44:15.77	37.54	24.48	
2025-01-17 07:44:15.98	37.58	24.51	
2025-01-17 07:44:16.18	37.61	24.54	
2025-01-17 07:44:16.38	37.64	24.57	
2025-01-17 07:44:16.59	37.68	24.60	
2025-01-17 07:44:16.79	37.71	24.64	
2025-01-17 07:44:16.99	37.75	24.67	
2025-01-17 07:44:17.19	37.78	24.70	
2025-01-17 07:44:17.40	37.82	24.73	
2025-01-17 07:44:17.60	37.85	24.76	
2025-01-17 07:44:17.80	37.89	24.79	
2025-01-17 07:44:18.01	37.92	24.82	
2025-01-17 07:44:18.21	37.96	24.85	
2025-01-17 07:44:18.41	37.99	24.88	
2025-01-17 07:44:18.62	38.03	24.92	
2025-01-17 07:44:18.82	38.06	24.95	
2025-01-17 07:44:19.02	38.10	24.98	
2025-01-17 07:44:19.23	38.14	25.01	
2025-01-17 07:44:19.43	38.17	25.04	
2025-01-17 07:44:19.63	38.21	25.07	
2025-01-17 07:44:19.83	38.24	25.10	
2025-01-17 07:44:20.04	38.28	25.14	
2025-01-17 07:44:20.24	38.31	25.17	
2025-01-17 07:44:20.44	38.35	25.20	
2025-01-17 07:44:20.65	38.39	25.23	
2025-01-17 07:44:20.85	38.42	25.26	
2025-01-17 07:44:21.05	38.46	25.29	
2025-01-17 07:44:21.26	38.49	25.33	
2025-01-17 07:44:21.46	38.53	25.36	
2025-01-17 07:44:21.66	38.57	25.39	
2025-01-17 07:44:21.87	38.60	25.42	
2025-01-17 07:44:22.07	38.64	25.45	
2025-01-17 07:44:22.27	38.68	25.49	
2025-01-17 07:44:22.48	38.71	25.52	
2025-01-17 07:44:22.68	38.75	25.55	
2025-01-17 07:44:22.88	38.79	25.58	
2025-01-17 07:44:23.08	38.82	25.61	
2025-01-17 07:44:23.29	38.86	25.65	
2025-01-17 07:44:23.49	38.90	25.68	
2025-01-17 07:44:23.69	38.93	25.71	
2025-01-17 07:44:23.90	38.97	25.74	
2025-01-17 07:44:24.10	39.01	25.78	
2025-01-17 07:44:24.30	39.05	25.81	
2025-01-17 07:44:24.51	39.08	25.84	
2025-01-17 07:44:24.71	39.12	25.87	
2025-01-17 07:44:24.91	39.16	25.90	
2025-01-17 07:44:25.12	39.20	25.94	
2025-01-17 07:44:25.32	39.23	25.97	
2025-01-17 07:44:25.52	39.27	26.00	
2025-01-17 07:44:25.73	39.31	26.03	
2025-01-17 07:44:25.93	39.35	26.07	
2025-01-17 07:44:26.13	39.39	26.10	
2025-01-17 07:44:26.33	39.42	26.13	
2025-01-17 07:44:26.54	39.46	26.16	
2025-01-17 07:44:26.74	39.50	26.20	
2025-01-17 07:44:26.94	39.54	26.23	
2025-01-17 07:44:27.15	39.58	26.26	
2025-01-17 07:44:27.35	39.62	26.29	
2025-01-17 07:44:27.55	39.65	26.33	
2025-01-17 07:44:27.76	39.69	26.36	
2025-01-17 07:44:27.96	39.73	26.39	
2025-01-17 07:44:28.16	39.77	26.42	
2025-01-17 07:44:28.37	39.81	26.46	
2025-01-17 07:44:28.57	39.85	26.49	
2025-01-17 07:44:28.77	39.89	26.52	
2025-01-17 07:44:28.97	39.93	26.56	
2025-01-17 07:44:29.18	39.97	26.59	
2025-01-17 07:44:29.38	40.01	26.62	
2025-01-17 07:44:29.58	40.04	26.65	
2025-01-17 07:44:29.79	40.08	26.69	
2025-01-17 07:44:29.99	40.12	26.72	
2025-01-17 07:44:30.19	40.16	26.75	
2025-01-17 07:44:30.40	40.20	26.79	
2025-01-17 07:44:30.60	40.24	26.82	
2025-01-17 07:44:30.80	40.28	26.85	
2025-01-17 07:44:31.01	40.32	26.89	
2025-01-17 07:44:31.21	40.36	26.92	
2025-01-17 07:44:31.41	40.40	26.95	
2025-01-17 07:44:31.62	40.44	26.99	
2025-01-17 07:44:31.82	40.48	27.02	
2025-01-17 07:44:32.02	40.52	27.05	
2025-01-17 07:44:32.22	40.56	27.09	
2025-01-17 07:44:32.43	40.61	27.12	
2025-01-17 07:44:32.63	40.65	27.15	
2025-01-17 07:44:32.83	40.69	27.19	
2025-01-17 07:44:33.04	40.73	27.22	
2025-01-17 07:44:33.24	40.77	27.25	
2025-01-17 07:44:33.44	40.81	27.29	
2025-01-17 07:44:33.65	40.85	27.32	
2025-01-17 07:44:33.85	40.89	27.36	
2025-01-17 07:44:34.05	40.93	27.39	
2025-01-17 07:44:34.26	40.98	27.42	
2025-01-17 07:44:34.46	41.02	27.46	
2025-01-17 07:44:34.66	41.06	27.49	
2025-01-17 07:44:34.87	41.10	27.52	
2025-01-17 07:44:35.07	41.14	27.56	
2025-01-17 07:44:35.27	41.18	27.59	
2025-01-17 07:44:35.47	41.22	27.62	
2025-01-17 07:44:35.68	41.27	27.66	
2025-01-17 07:44:35.88	41.31	27.69	
2025-01-17 07:44:36.08	41.35	27.73	
2025-01-17 07:44:36.29	41.39	27.76	
2025-01-17 07:44:36.49	41.44	27.80	
2025-01-17 07:44:36.69	41.48	27.83	
2025-01-17 07:44:36.90	41.52	27.86	
2025-01-17 07:44:37.10	41.56	27.90	
2025-01-17 07:44:37.30	41.61	27.93	
2025-01-17 07:44:37.51	41.65	27.97	
2025-01-17 07:44:37.71	41.69	28.00	
2025-01-17 07:44:37.91	41.73	28.03	
2025-01-17 07:44:38.11	41.78	28.07	
2025-01-17 07:44:38.32	41.82	28.10	
2025-01-17 07:44:38.52	41.86	28.14	
2025-01-17 07:44:38.72	41.91	28.17	
2025-01-17 07:44:38.93	41.95	28.21	
2025-01-17 07:44:39.13	42.00	28.24	
2025-01-17 07:44:39.33	42.04	28.27	
2025-01-17 07:44:39.54	42.08	28.31	
2025-01-17 07:44:39.74	42.13	28.34	
2025-01-17 07:44:39.94	42.17	28.38	
2025-01-17 07:44:40.15	42.22	28.41	
2025-01-17 07:44:40.35	42.26	28.45	
2025-01-17 07:44:40.55	42.30	28.48	
2025-01-17 07:44:40.76	42.35	28.52	
2025-01-17 07:44:40.96	42.39	28.55	
2025-01-17 07:44:41.16	42.44	28.59	
2025-01-17 07:44:41.36	42.48	28.62	
2025-01-17 07:44:41.57	42.53	28.66	
2025-01-17 07:44:41.77	42.57	28.69	
2025-01-17 07:44:41.97	42.61	28.72	
2025-01-17 07:44:42.18	42.66	28.76	
2025-01-17 07:44:42.38	42.71	28.79	
2025-01-17 07:44:42.58	42.75	28.83	
2025-01-17 07:44:42.79	42.80	28.86	
2025-01-17 07:44:42.99	42.84	28.90	
2025-01-17 07:44:43.19	42.89	28.93	
2025-01-17 07:44:43.40	42.93	28.97	
2025-01-17 07:44:43.60	42.98	29.00	
2025-01-17 07:44:43.80	43.02	29.04	
2025-01-17 07:44:44.01	43.07	29.07	
2025-01-17 07:44:44.21	43.12	29.11	
2025-01-17 07:44:44.41	43.16	29.14	
2025-01-17 07:44:44.61	43.21	29.18	
2025-01-17 07:44:44.82	43.26	29.21	
2025-01-17 07:44:45.02	43.30	29.25	
2025-01-17 07:44:45.22	43.35	29.28	
2025-01-17 07:44:45.43	43.40	29.32	
2025-01-17 07:44:45.63	43.44	29.36	
2025-01-17 07:44:45.83	43.49	29.39	
2025-01-17 07:44:46.04	43.54	29.43	
2025-01-17 07:44:46.24	43.58	29.46	
2025-01-17 07:44:46.44	43.63	29.50	
2025-01-17 07:44:46.65	43.68	29.53	
2025-01-17 07:44:46.85	43.73	29.57	
2025-01-17 07:44:47.05	43.77	29.60	
2025-01-17 07:44:47.25	43.82	29.64	
2025-01-17 07:44:47.46	43.87	29.67	
2025-01-17 07:44:47.66	43.92	29.71	
2025-01-17 07:44:47.86	43.96	29.74	
2025-01-17 07:44:48.07	44.01	29.78	
2025-01-17 07:44:48.27	44.06	29.82	
2025-01-17 07:44:48.47	44.11	29.85	
2025-01-17 07:44:48.68	44.16	29.89	
2025-01-17 07:44:48.88	44.20	29.92	
2025-01-17 07:44:49.08	44.25	29.96	
2025-01-17 07:44:49.29	44.30	30.00	
2025-01-17 07:44:49.49	44.35	30.03	
2025-01-17 07:44:49.69	44.40	30.07	
2025-01-17 07:44:49.90	44.45	30.10	
2025-01-17 07:44:50.10	44.50	30.14	
2025-01-17 07:44:50.30	44.55	30.17	
2025-01-17 07:44:50.50	44.60	30.21	
2025-01-17 07:44:50.71	44.65	30.25	
2025-01-17 07:44:50.91	44.70	30.28	
2025-01-17 07:44:51.11	44.74	30.32	
2025-01-17 07:44:51.32	44.80	30.36	
2025-01-17 07:44:51.52	44.84	30.39	
2025-01-17 07:44:51.72	44.89	30.43	
2025-01-17 07:44:51.93	44.95	30.46	
2025-01-17 07:44:52.13	45.00	30.50	
2025-01-17 07:44:52.33	45.05	30.54	
2025-01-17 07:44:52.54	45.10	30.57	
2025-01-17 07:44:52.74	45.15	30.61	
2025-01-17 07:44:52.94	45.20	30.64	
2025-01-17 07:44:53.15	45.25	30.68	
2025-01-17 07:44:53.35	45.30	30.72	
2025-01-17 07:44:53.55	45.35	30.75	
2025-01-17 07:44:53.75	45.40	30.79	
2025-01-17 07:44:53.96	45.45	30.83	
2025-01-17 07:44:54.16	45.50	30.86	
2025-01-17 07:44:54.36	45.55	30.90	
2025-01-17 07:44:54.57	45.61	30.94	
2025-01-17 07:44:54.77	45.66	30.97	
2025-01-17 07:44:54.97	45.71	31.01	
2025-01-17 07:44:55.18	45.76	31.05	
2025-01-17 07:44:55.38	45.82	31.08	
2025-01-17 07:44:55.58	45.87	31.12	
2025-01-17 07:44:55.79	45.92	31.16	
2025-01-17 07:44:55.99	45.97	31.19	
2025-01-17 07:44:56.19	46.02	31.23	
2025-01-17 07:44:56.40	46.08	31.27	
2025-01-17 07:44:56.60	46.13	31.30	
2025-01-17 07:44:56.80	46.18	31.34	
2025-01-17 07:44:57.00	46.24	31.37	
2025-01-17 07:44:57.21	46.29	31.41	
2025-01-17 07:44:57.41	46.34	31.45	
2025-01-17 07:44:57.61	46.40	31.48	
2025-01-17 07:44:57.82	46.45	31.52	
2025-01-17 07:44:58.02	46.50	31.56	
2025-01-17 07:44:58.22	46.56	31.60	
2025-01-17 07:44:58.43	46.61	31.63	
2025-01-17 07:44:58.63	46.67	31.67	
2025-01-17 07:44:58.83	46.72	31.71	
2025-01-17 07:44:59.04	46.78	31.74	
2025-01-17 07:44:59.24	46.83	31.78	
2025-01-17 07:44:59.44	46.88	31.82	
2025-01-17 07:44:59.64	46.94	31.85	
2025-01-17 07:44:59.85	46.99	31.89	
2025-01-17 07:45:00.05	47.05	31.93	
2025-01-17 07:45:00.25	47.10	31.96	
2025-01-17 07:45:00.46	47.16	32.00	
2025-01-17 07:45:00.66	47.21	32.04	
2025-01-17 07:45:00.86	47.27	32.08	
2025-01-17 07:45:01.07	47.33	32.11	
2025-01-17 07:45:01.27	47.38	32.15	
2025-01-17 07:45:01.47	47.44	32.19	
2025-01-17 07:45:01.68	47.49	32.23	
2025-01-17 07:45:01.88	47.55	32.26	
2025-01-17 07:45:02.08	47.60	32.30	
2025-01-17 07:45:02.29	47.66	32.34	
2025-01-17 07:45:02.49	47.72	32.38	
2025-01-17 07:45:02.69	47.77	32.41	
2025-01-17 07:45:02.89	47.83	32.45	
2025-01-17 07:45:03.10	47.89	32.49	
2025-01-17 07:45:03.30	47.94	32.52	
2025-01-17 07:45:03.50	48.00	32.56	
2025-01-17 07:45:03.71	48.06	32.60	
2025-01-17 07:45:03.91	48.12	32.64	
2025-01-17 07:45:04.11	48.17	32.67	
2025-01-17 07:45:04.32	48.23	32.71	
2025-01-17 07:45:04.52	48.29	32.75	
2025-01-17 07:45:04.72	48.35	32.79	
2025-01-17 07:45:04.93	48.41	32.83	
2025-01-17 07:45:05.13	48.46	32.86	
2025-01-17 07:45:05.33	48.52	32.90	
2025-01-17 07:45:05.54	48.58	32.94	
2025-01-17 07:45:05.74	48.64	32.98	
2025-01-17 07:45:05.94	48.70	33.01	
2025-01-17 07:45:06.14	48.76	33.05	
2025-01-17 07:45:06.35	48.82	33.09	
2025-01-17 07:45:06.55	48.88	33.13	
2025-01-17 07:45:06.75	48.93	33.16	
2025-01-17 07:45:06.96	49.00	33.20	
2025-01-17 07:45:07.16	49.05	33.24	
2025-01-17 07:45:07.36	49.11	33.28	
2025-01-17 07:45:07.57	49.17	33.32	
2025-01-17 07:45:07.77	49.23	33.35	
2025-01-17 07:45:07.97	49.29	33.39	
2025-01-17 07:45:08.18	49.36	33.43	
2025-01-17 07:45:08.38	49.42	33.47	
2025-01-17 07:45:08.58	49.48	33.50	
2025-01-17 07:45:08.78	49.53	33.54	
2025-01-17 07:45:08.99	49.60	33.58	
2025-01-17 07:45:09.19	49.66	33.62	
2025-01-17 07:45:09.39	49.72	33.66	
2025-01-17 07:45:09.60	49.78	33.69	
2025-01-17 07:45:09.80	49.84	33.73	
2025-01-17 07:45:10.00	49.90	33.77	
2025-01-17 07:45:10.21	49.97	33.81	
2025-01-17 07:45:10.41	50.03	33.85	
2025-01-17 07:45:10.61	50.09	33.88	
2025-01-17 07:45:10.82	50.15	33.92	
2025-01-17 07:45:11.02	50.21	33.96	
2025-01-17 07:45:11.22	50.28	34.00	
2025-01-17 07:45:11.43	50.34	34.04	
2025-01-17 07:45:11.63	50.40	34.08	
2025-01-17 07:45:11.83	50.46	34.11	
2025-01-17 07:45:12.03	50.53	34.15	
2025-01-17 07:45:12.24	50.59	34.19	
2025-01-17 07:45:12.44	50.65	34.23	
2025-01-17 07:45:12.64	50.72	34.26	
2025-01-17 07:45:12.85	50.78	34.30	
2025-01-17 07:45:13.05	50.85	34.34	
2025-01-17 07:45:13.25	50.91	34.38	
2025-01-17 07:45:13.46	50.98	34.42	
2025-01-17 07:45:13.66	51.04	34.46	
2025-01-17 07:45:13.86	51.10	34.49	
2025-01-17 07:45:14.07	51.17	34.53	
2025-01-17 07:45:14.27	51.23	34.57	
2025-01-17 07:45:14.47	51.30	34.61	
2025-01-17 07:45:14.68	51.36	34.65	
2025-01-17 07:45:14.88	51.43	34.69	
2025-01-17 07:45:15.08	51.49	34.72	
2025-01-17 07:45:15.28	51.56	34.76	
2025-01-17 07:45:15.49	51.63	34.80	
2025-01-17 07:45:15.69	51.69	34.84	
2025-01-17 07:45:15.89	51.76	34.88	
2025-01-17 07:45:16.10	51.82	34.92	
2025-01-17 07:45:16.30	51.89	34.95	
2025-01-17 07:45:16.50	51.95	34.99	
2025-01-17 07:45:16.71	52.02	35.03	
2025-01-17 07:45:16.91	52.09	35.07	
2025-01-17 07:45:17.11	52.16	35.11	
2025-01-17 07:45:17.32	52.22	35.15	
2025-01-17 07:45:17.52	52.29	35.19	
2025-01-17 07:45:17.72	52.36	35.22	
2025-01-17 07:45:17.92	52.42	35.26	
2025-01-17 07:45:18.13	52.49	35.30	
2025-01-17 07:45:18.33	52.56	35.34	
2025-01-17 07:45:18.53	52.63	35.38	
2025-01-17 07:45:18.74	52.70	35.42	
2025-01-17 07:45:18.94	52.77	35.45	
2025-01-17 07:45:19.14	52.83	35.49	
2025-01-17 07:45:19.35	52.90	35.53	
2025-01-17 07:45:19.55	52.97	35.57	
2025-01-17 07:45:19.75	53.04	35.61	
2025-01-17 07:45:19.96	53.11	35.65	
2025-01-17 07:45:20.16	53.18	35.69	
2025-01-17 07:45:20.36	53.25	35.72	
2025-01-17 07:45:20.57	53.32	35.76	
2025-01-17 07:45:20.77	53.39	35.80	
2025-01-17 07:45:20.97	53.46	35.84	
2025-01-17 07:45:21.17	53.53	35.88	
2025-01-17 07:45:21.38	53.60	35.92	
2025-01-17 07:45:21.58	53.67	35.96	
2025-01-17 07:45:21.78	53.74	35.99	
2025-01-17 07:45:21.99	53.81	36.03	
2025-01-17 07:45:22.19	53.88	36.07	
2025-01-17 07:45:22.39	53.95	36.11	
2025-01-17 07:45:22.60	54.03	36.15	
2025-01-17 07:45:22.80	54.10	36.19	
2025-01-17 07:45:23.00	54.17	36.22	
2025-01-17 07:45:23.21	54.24	36.26	
2025-01-17 07:45:23.41	54.31	36.30	
2025-01-17 07:45:23.61	54.38	36.34	
2025-01-17 07:45:23.82	54.46	36.38	
2025-01-17 07:45:24.02	54.53	36.42	
2025-01-17 07:45:24.22	54.60	36.46	
2025-01-17 07:45:24.42	54.67	36.49	
2025-01-17 07:45:24.63	54.75	36.53	
2025-01-17 07:45:24.83	54.82	36.57	
2025-01-17 07:45:25.03	54.90	36.61	
2025-01-17 07:45:25.24	54.97	36.65	
2025-01-17 07:45:25.44	55.04	36.69	
2025-01-17 07:45:25.64	55.12	36.73	
2025-01-17 07:45:25.85	55.19	36.77	
2025-01-17 07:45:26.05	55.27	36.80	
2025-01-17 07:45:26.25	55.34	36.84	
2025-01-17 07:45:26.46	55.42	36.88	
2025-01-17 07:45:26.66	55.49	36.92	
2025-01-17 07:45:26.86	55.57	36.96	
2025-01-17 07:45:27.07	55.64	37.00	
2025-01-17 07:45:27.27	55.72	37.03	
2025-01-17 07:45:27.47	55.79	37.07	
2025-01-17 07:45:27.67	55.87	37.11	
2025-01-17 07:45:27.88	55.95	37.15	
2025-01-17 07:45:28.08	56.02	37.19	
2025-01-17 07:45:28.28	56.10	37.23	
2025-01-17 07:45:28.49	56.17	37.27	
2025-01-17 07:45:28.69	56.25	37.30	
2025-01-17 07:45:28.89	56.33	37.34	
2025-01-17 07:45:29.10	56.41	37.38	
2025-01-17 07:45:29.30	56.48	37.42	
2025-01-17 07:45:29.50	56.56	37.46	
2025-01-17 07:45:29.71	56.64	37.50	
2025-01-17 07:45:29.91	56.71	37.53	
2025-01-17 07:45:30.11	56.79	37.57	
2025-01-17 07:45:30.31	56.87	37.61	
2025-01-17 07:45:30.52	56.95	37.65	
2025-01-17 07:45:30.72	57.03	37.69	
2025-01-17 07:45:30.92	57.10	37.72	
2025-01-17 07:45:31.13	57.19	37.76	
2025-01-17 07:45:31.33	57.26	37.80	
2025-01-17 07:45:31.53	57.34	37.84	
2025-01-17 07:45:31.74	57.42	37.88	
2025-01-17 07:45:31.94	57.50	37.92	
2025-01-17 07:45:32.14	57.58	37.95	
2025-01-17 07:45:32.35	57.66	37.99	
2025-01-17 07:45:32.55	57.74	38.03	
2025-01-17 07:45:32.75	57.82	38.07	
2025-01-17 07:45:32.96	57.91	38.11	
2025-01-17 07:45:33.16	57.99	38.15	
2025-01-17 07:45:33.36	58.07	38.18	
2025-01-17 07:45:33.56	58.15	38.22	
2025-01-17 07:45:33.77	58.23	38.26	
2025-01-17 07:45:33.97	58.31	38.30	
2025-01-17 07:45:34.17	58.39	38.34	
2025-01-17 07:45:34.38	58.48	38.38	
2025-01-17 07:45:34.58	58.56	38.41	
2025-01-17 07:45:34.78	58.64	38.45	
2025-01-17 07:45:34.99	58.72	38.49	
2025-01-17 07:45:35.19	58.80	38.53	
2025-01-17 07:45:35.39	58.89	38.56	
2025-01-17 07:45:35.60	58.97	38.60	
2025-01-17 07:45:35.80	59.05	38.64	
2025-01-17 07:45:36.00	59.14	38.68	
2025-01-17 07:45:36.21	59.22	38.72	
2025-01-17 07:45:36.41	59.31	38.75	
2025-01-17 07:45:36.61	59.39	38.79	
2025-01-17 07:45:36.81	59.47	38.83	
2025-01-17 07:45:37.02	59.56	38.87	
2025-01-17 07:45:37.22	59.64	38.91	
2025-01-17 07:45:37.42	59.73	38.94	
2025-01-17 07:45:37.63	59.81	38.98	
2025-01-17 07:45:37.83	59.90	39.02	
2025-01-17 07:45:38.03	59.98	39.06	
2025-01-17 07:45:38.24	60.07	39.09	
2025-01-17 07:45:38.44	60.16	39.13	
2025-01-17 07:45:38.64	60.24	39.17	
2025-01-17 07:45:38.85	60.33	39.21	
2025-01-17 07:45:39.05	60.42	39.24	
2025-01-17 07:45:39.25	60.50	39.28	
2025-01-17 07:45:39.45	60.59	39.32	
2025-01-17 07:45:39.66	60.68	39.36	
2025-01-17 07:45:39.86	60.76	39.39	
2025-01-17 07:45:40.06	60.85	39.43	
2025-01-17 07:45:40.27	60.94	39.47	
2025-01-17 07:45:40.47	61.03	39.51	
2025-01-17 07:45:40.67	61.11	39.54	
2025-01-17 07:45:40.88	61.20	39.58	
2025-01-17 07:45:41.08	61.29	39.62	
2025-01-17 07:45:41.28	61.38	39.65	
2025-01-17 07:45:41.49	61.47	39.69	
2025-01-17 07:45:41.69	61.56	39.73	
2025-01-17 07:45:41.89	61.65	39.77	
2025-01-17 07:45:42.10	61.74	39.80	
2025-01-17 07:45:42.30	61.83	39.84	
2025-01-17 07:45:42.50	61.92	39.88	
2025-01-17 07:45:42.70	62.01	39.91	
2025-01-17 07:45:42.91	62.10	39.95	
2025-01-17 07:45:43.11	62.19	39.99	
2025-01-17 07:45:43.31	62.28	40.03	
2025-01-17 07:45:43.52	62.37	40.06	
2025-01-17 07:45:43.72	62.46	40.10	
2025-01-17 07:45:43.92	62.55	40.14	
2025-01-17 07:45:44.13	62.65	40.17	
2025-01-17 07:45:44.33	62.74	40.21	
2025-01-17 07:45:44.53	62.83	40.25	
2025-01-17 07:45:44.74	62.92	40.28	
2025-01-17 07:45:44.94	63.01	40.32	
2025-01-17 07:45:45.14	63.11	40.36	
2025-01-17 07:45:45.35	63.20	40.39	
2025-01-17 07:45:45.55	63.29	40.43	
2025-01-17 07:45:45.75	63.39	40.46	
2025-01-17 07:45:45.95	63.48	40.50	
2025-01-17 07:45:46.16	63.58	40.54	
2025-01-17 07:45:46.36	63.67	40.57	
2025-01-17 07:45:46.56	63.76	40.61	
2025-01-17 07:45:46.77	63.86	40.65	
2025-01-17 07:45:46.97	63.95	40.68	
2025-01-17 07:45:47.17	64.04	40.72	
2025-01-17 07:45:47.38	64.14	40.76	
2025-01-17 07:45:47.58	64.24	40.79	
2025-01-17 07:45:47.78	64.33	40.83	
2025-01-17 07:45:47.99	64.43	40.86	
2025-01-17 07:45:48.19	64.52	40.90	
2025-01-17 07:45:48.39	64.62	40.93	
2025-01-17 07:45:48.59	64.71	40.97	
2025-01-17 07:45:48.80	64.81	41.01	
2025-01-17 07:45:49.00	64.91	41.04	
2025-01-17 07:45:49.20	65.00	41.08	
2025-01-17 07:45:49.41	65.11	41.11	
2025-01-17 07:45:49.61	65.20	41.15	
2025-01-17 07:45:49.81	65.30	41.18	
2025-01-17 07:45:50.02	65.40	41.22	
2025-01-17 07:45:50.22	65.50	41.25	
2025-01-17 07:45:50.42	65.59	41.29	
2025-01-17 07:45:50.63	65.69	41.33	
2025-01-17 07:45:50.83	65.79	41.36	
2025-01-17 07:45:51.03	65.89	41.39	
2025-01-17 07:45:51.24	65.99	41.43	
2025-01-17 07:45:51.44	66.09	41.46	
2025-01-17 07:45:51.64	66.19	41.50	
2025-01-17 07:45:51.84	66.29	41.53	
2025-01-17 07:45:52.05	66.39	41.57	
2025-01-17 07:45:52.25	66.49	41.60	
2025-01-17 07:45:52.45	66.59	41.64	
2025-01-17 07:45:52.66	66.69	41.67	
2025-01-17 07:45:52.86	66.79	41.71	
2025-01-17 07:45:53.06	66.89	41.74	
2025-01-17 07:45:53.27	66.99	41.78	
2025-01-17 07:45:53.47	67.09	41.81	
2025-01-17 07:45:53.67	67.19	41.85	
2025-01-17 07:45:53.88	67.30	41.88	
2025-01-17 07:45:54.08	67.40	41.91	
2025-01-17 07:45:54.28	67.50	41.95	
2025-01-17 07:45:54.49	67.61	41.98	
2025-01-17 07:45:54.69	67.71	42.02	
2025-01-17 07:45:54.89	67.81	42.05	
2025-01-17 07:45:55.09	67.91	42.08	
2025-01-17 07:45:55.30	68.02	42.12	
2025-01-17 07:45:55.50	68.12	42.15	
2025-01-17 07:45:55.70	68.22	42.18	
2025-01-17 07:45:55.91	68.33	42.22	
2025-01-17 07:45:56.11	68.43	42.25	
2025-01-17 07:45:56.31	68.54	42.28	
2025-01-17 07:45:56.52	68.65	42.32	
2025-01-17 07:45:56.72	68.75	42.35	
2025-01-17 07:45:56.92	68.85	42.38	
2025-01-17 07:45:57.13	68.96	42.42	
2025-01-17 07:45:57.33	69.07	42.45	
2025-01-17 07:45:57.53	69.17	42.48	
2025-01-17 07:45:57.74	69.28	42.52	
2025-01-17 07:45:57.94	69.39	42.55	
2025-01-17 07:45:58.14	69.49	42.58	
2025-01-17 07:45:58.34	69.60	42.62	
2025-01-17 07:45:58.55	69.71	42.65	
2025-01-17 07:45:58.75	69.81	42.68	
2025-01-17 07:45:58.95	69.92	42.71	
2025-01-17 07:45:59.16	70.03	42.75	
2025-01-17 07:45:59.36	70.14	42.78	
2025-01-17 07:45:59.56	70.24	42.81	
2025-01-17 07:45:59.77	70.35	42.84	
2025-01-17 07:45:59.97	70.46	42.87	
2025-01-17 07:46:00.17	70.57	42.91	
2025-01-17 07:46:00.38	70.68	42.94	
2025-01-17 07:46:00.58	70.79	42.97	
2025-01-17 07:46:00.78	70.90	43.00	
2025-01-17 07:46:00.98	71.00	43.03	
2025-01-17 07:46:01.19	71.12	43.07	
2025-01-17 07:46:01.39	71.23	43.10	
2025-01-17 07:46:01.59	71.34	43.13	
2025-01-17 07:46:01.80	71.45	43.16	
2025-01-17 07:46:02.00	71.56	43.19	
2025-01-17 07:46:02.20	71.67	43.22	
2025-01-17 07:46:02.41	71.78	43.25	
2025-01-17 07:46:02.61	71.89	43.28	
2025-01-17 07:46:02.81	72.00	43.31	
2025-01-17 07:46:03.02	72.12	43.35	
2025-01-17 07:46:03.22	72.23	43.38	
2025-01-17 07:46:03.42	72.34	43.41	
2025-01-17 07:46:03.63	72.46	43.44	
2025-01-17 07:46:03.83	72.57	43.47	
2025-01-17 07:46:04.03	72.68	43.50	
2025-01-17 07:46:04.23	72.79	43.53	
2025-01-17 07:46:04.44	72.91	43.56	
2025-01-17 07:46:04.64	73.02	43.59	
2025-01-17 07:46:04.84	73.13	43.62	
2025-01-17 07:46:05.05	73.25	43.65	
2025-01-17 07:46:05.25	73.36	43.68	
2025-01-17 07:46:05.45	73.47	43.71	
2025-01-17 07:46:05.66	73.59	43.74	
2025-01-17 07:46:05.86	73.70	43.77	
2025-01-17 07:46:06.06	73.82	43.79	
2025-01-17 07:46:06.27	73.94	43.82	
2025-01-17 07:46:06.47	74.05	43.85	
2025-01-17 07:46:06.67	74.16	43.88	
2025-01-17 07:46:06.88	74.28	43.91	
2025-01-17 07:46:07.08	74.40	43.94	
2025-01-17 07:46:07.28	74.51	43.97	
2025-01-17 07:46:07.48	74.63	44.00	
2025-01-17 07:46:07.69	74.75	44.03	
2025-01-17 07:46:07.89	74.86	44.05	
2025-01-17 07:46:08.09	74.98	44.08	
2025-01-17 07:46:08.30	75.10	44.11	
2025-01-17 07:46:08.50	75.22	44.14	
2025-01-17 07:46:08.70	75.33	44.17	
2025-01-17 07:46:08.91	75.46	44.19	
2025-01-17 07:46:09.11	75.57	44.22	
2025-01-17 07:46:09.31	75.69	44.25	
2025-01-17 07:46:09.52	75.81	44.28	
2025-01-17 07:46:09.72	75.93	44.30	
2025-01-17 07:46:09.92	76.05	44.33	
2025-01-17 07:46:10.12	76.16	44.36	
2025-01-17 07:46:10.33	76.29	44.39	
2025-01-17 07:46:10.53	76.40	44.41	
2025-01-17 07:46:10.73	76.52	44.44	
2025-01-17 07:46:10.94	76.65	44.47	
2025-01-17 07:46:11.14	76.76	44.49	
2025-01-17 07:46:11.34	76.88	44.52	
2025-01-17 07:46:11.55	77.01	44.55	
2025-01-17 07:46:11.75	77.13	44.57	
2025-01-17 07:46:11.95	77.25	44.60	
2025-01-17 07:46:12.16	77.37	44.62	
2025-01-17 07:46:12.36	77.49	44.65	
2025-01-17 07:46:12.56	77.61	44.67	
2025-01-17 07:46:12.77	77.74	44.70	
2025-01-17 07:46:12.97	77.86	44.73	
2025-01-17 07:46:13.17	77.98	44.75	
2025-01-17 07:46:13.37	78.10	44.78	
2025-01-17 07:46:13.58	78.23	44.80	
2025-01-17 07:46:13.78	78.35	44.83	
2025-01-17 07:46:13.98	78.47	44.85	
2025-01-17 07:46:14.19	78.59	44.88	
2025-01-17 07:46:14.39	78.72	44.90	
2025-01-17 07:46:14.59	78.84	44.93	
2025-01-17 07:46:14.80	78.97	44.95	
2025-01-17 07:46:15.00	79.09	44.97	
2025-01-17 07:46:15.20	79.21	45.00	
2025-01-17 07:46:15.41	79.34	45.02	
2025-01-17 07:46:15.61	79.46	45.05	
2025-01-17 07:46:15.81	79.59	45.07	
2025-01-17 07:46:16.02	79.71	45.09	
2025-01-17 07:46:16.22	79.84	45.12	
2025-01-17 07:46:16.42	79.96	45.14	
2025-01-17 07:46:16.62	80.08	45.16	
2025-01-17 07:46:16.83	80.21	45.19	
2025-01-17 07:46:17.03	80.34	45.21	
2025-01-17 07:46:17.23	80.46	45.23	
2025-01-17 07:46:17.44	80.59	45.26	
2025-01-17 07:46:17.64	80.72	45.28	
2025-01-17 07:46:17.84	80.84	45.30	
2025-01-17 07:46:18.05	80.97	45.32	
2025-01-17 07:46:18.25	81.10	45.34	
2025-01-17 07:46:18.45	81.22	45.37	
2025-01-17 07:46:18.66	81.36	45.39	
2025-01-17 07:46:18.86	81.48	45.41	
2025-01-17 07:46:19.06	81.61	45.43	
2025-01-17 07:46:19.26	81.73	45.45	
2025-01-17 07:46:19.47	81.87	45.47	
2025-01-17 07:46:19.67	81.99	45.50	
2025-01-17 07:46:19.87	82.12	45.52	
2025-01-17 07:46:20.08	82.25	45.54	
2025-01-17 07:46:20.28	82.38	45.56	
2025-01-17 07:46:20.48	82.50	45.58	
2025-01-17 07:46:20.69	82.64	45.60	
2025-01-17 07:46:20.89	82.77	45.62	
2025-01-17 07:46:21.09	82.89	45.64	
2025-01-17 07:46:21.30	83.03	45.66	
2025-01-17 07:46:21.50	83.15	45.68	
2025-01-17 07:46:21.70	83.28	45.70	
2025-01-17 07:46:21.91	83.42	45.72	
2025-01-17 07:46:22.11	83.55	45.74	
2025-01-17 07:46:22.31	83.67	45.76	
2025-01-17 07:46:22.51	83.80	45.78	
2025-01-17 07:46:22.72	83.94	45.80	
2025-01-17 07:46:22.92	84.07	45.81	
2025-01-17 07:46:23.12	84.20	45.83	
2025-01-17 07:46:23.33	84.33	45.85	
2025-01-17 07:46:23.53	84.46	45.87	
2025-01-17 07:46:23.73	84.59	45.89	
2025-01-17 07:46:23.94	84.73	45.91	
2025-01-17 07:46:24.14	84.86	45.92	
2025-01-17 07:46:24.34	84.99	45.94	
2025-01-17 07:46:24.55	85.12	45.96	
2025-01-17 07:46:24.75	85.25	45.98	
2025-01-17 07:46:24.95	85.38	45.99	
2025-01-17 07:46:25.16	85.52	46.01	
2025-01-17 07:46:25.36	85.65	46.03	
2025-01-17 07:46:25.56	85.78	46.04	
2025-01-17 07:46:25.76	85.91	46.06	
2025-01-17 07:46:25.97	86.05	46.08	
2025-01-17 07:46:26.17	86.18	46.09	
2025-01-17 07:46:26.37	86.31	46.11	
2025-01-17 07:46:26.58	86.45	46.13	
2025-01-17 07:46:26.78	86.58	46.14	
2025-01-17 07:46:26.98	86.71	46.16	
2025-01-17 07:46:27.19	86.85	46.17	
2025-01-17 07:46:27.39	86.98	46.19	
2025-01-17 07:46:27.59	87.12	46.20	
2025-01-17 07:46:27.80	87.26	46.22	
2025-01-17 07:46:28.00	87.39	46.23	
2025-01-17 07:46:28.20	87.52	46.25	
2025-01-17 07:46:28.40	87.65	46.26	
2025-01-17 07:46:28.61	87.79	46.28	
2025-01-17 07:46:28.81	87.93	46.29	
2025-01-17 07:46:29.01	88.06	46.31	
2025-01-17 07:46:29.22	88.20	46.32	
2025-01-17 07:46:29.42	88.33	46.33	
2025-01-17 07:46:29.62	88.47	46.35	
2025-01-17 07:46:29.83	88.61	46.36	
2025-01-17 07:46:30.03	88.74	46.37	
2025-01-17 07:46:30.23	88.87	46.39	
2025-01-17 07:46:30.44	89.01	46.40	
2025-01-17 07:46:30.64	89.15	46.41	
2025-01-17 07:46:30.84	89.28	46.42	
2025-01-17 07:46:31.05	89.42	46.44	
2025-01-17 07:46:31.25	89.56	46.45	
2025-01-17 07:46:31.45	89.69	46.46	
2025-01-17 07:46:31.65	89.83	46.47	
2025-01-17 07:46:31.86	89.97	46.49	
2025-01-17 07:46:32.06	90.10	46.50	
2025-01-17 07:46:32.26	90.24	46.51	
2025-01-17 07:46:32.47	90.38	46.52	
2025-01-17 07:46:32.67	90.51	46.53	
2025-01-17 07:46:32.87	90.65	46.54	
2025-01-17 07:46:33.08	90.79	46.55	
2025-01-17 07:46:33.28	90.93	46.56	
2025-01-17 07:46:33.48	91.06	46.57	
2025-01-17 07:46:33.69	91.20	46.58	
2025-01-17 07:46:33.89	91.34	46.59	
2025-01-17 07:46:34.09	91.47	46.60	
2025-01-17 07:46:34.30	91.62	46.61	
2025-01-17 07:46:34.50	91.75	46.62	
