passes_logs/2025/01/17/SPB_Silybum_02/SPB_Silybum_02__20250117_060411_TERRA_rec.log

#Pass ID: 20250117_060411_TERRA
#Satellite: TERRA
#Configuration: TERRA
#Start time: 2025-01-17 06:04:09

#Version: 2.0.20230423
#Station: SPB_Silybum_02
#Location: 30.233357 lon 59.946436 lat
#TLE: 1 25994U 99068A   25016.77398677  .00000840  00000+0  18282-3 0  9994
#TLE: 2 25994  98.0212  79.7479 0003409  69.0484  40.6664 14.60398530334334

#Time	Az	El	Level	Level2	SNR	BER	Gain	Gain2
2025-01-17 06:04:11.88	37.49	4.02	
2025-01-17 06:04:12.08	37.52	4.03	
2025-01-17 06:04:12.29	37.55	4.04	
2025-01-17 06:04:12.49	37.57	4.05	
2025-01-17 06:04:12.69	37.60	4.06	
2025-01-17 06:04:12.90	37.63	4.06	
2025-01-17 06:04:13.10	37.65	4.07	
2025-01-17 06:04:13.30	37.68	4.08	
2025-01-17 06:04:13.51	37.71	4.09	
2025-01-17 06:04:13.71	37.73	4.10	
2025-01-17 06:04:13.91	37.76	4.11	
2025-01-17 06:04:14.11	37.79	4.12	
2025-01-17 06:04:14.32	37.81	4.12	
2025-01-17 06:04:14.52	37.84	4.13	
2025-01-17 06:04:14.72	37.87	4.14	
2025-01-17 06:04:14.93	37.90	4.15	
2025-01-17 06:04:15.13	37.92	4.16	
2025-01-17 06:04:15.33	37.95	4.17	
2025-01-17 06:04:15.54	37.98	4.18	
2025-01-17 06:04:15.74	38.00	4.18	
2025-01-17 06:04:15.94	38.03	4.19	
2025-01-17 06:04:16.15	38.06	4.20	
2025-01-17 06:04:16.35	38.09	4.21	
2025-01-17 06:04:16.55	38.11	4.22	
2025-01-17 06:04:16.75	38.14	4.23	
2025-01-17 06:04:16.96	38.17	4.23	
2025-01-17 06:04:17.16	38.19	4.24	
2025-01-17 06:04:17.36	38.22	4.25	
2025-01-17 06:04:17.57	38.25	4.26	
2025-01-17 06:04:17.77	38.28	4.27	
2025-01-17 06:04:17.97	38.30	4.28	
2025-01-17 06:04:18.18	38.33	4.29	
2025-01-17 06:04:18.38	38.36	4.29	
2025-01-17 06:04:18.58	38.39	4.30	
2025-01-17 06:04:18.79	38.41	4.31	
2025-01-17 06:04:18.99	38.44	4.32	
2025-01-17 06:04:19.19	38.47	4.33	
2025-01-17 06:04:19.39	38.49	4.34	
2025-01-17 06:04:19.60	38.52	4.35	
2025-01-17 06:04:19.80	38.55	4.35	
2025-01-17 06:04:20.00	38.58	4.36	
2025-01-17 06:04:20.21	38.61	4.37	
2025-01-17 06:04:20.41	38.63	4.38	
2025-01-17 06:04:20.61	38.66	4.39	
2025-01-17 06:04:20.82	38.69	4.40	
2025-01-17 06:04:21.02	38.72	4.40	
2025-01-17 06:04:21.22	38.74	4.41	
2025-01-17 06:04:21.43	38.77	4.42	
2025-01-17 06:04:21.63	38.80	4.43	
2025-01-17 06:04:21.83	38.83	4.44	
2025-01-17 06:04:22.03	38.85	4.45	
2025-01-17 06:04:22.24	38.88	4.46	
2025-01-17 06:04:22.44	38.91	4.46	
2025-01-17 06:04:22.64	38.94	4.47	
2025-01-17 06:04:22.85	38.96	4.48	
2025-01-17 06:04:23.05	38.99	4.49	
2025-01-17 06:04:23.25	39.02	4.50	
2025-01-17 06:04:23.46	39.05	4.51	
2025-01-17 06:04:23.66	39.08	4.51	
2025-01-17 06:04:23.86	39.10	4.52	
2025-01-17 06:04:24.07	39.13	4.53	
2025-01-17 06:04:24.27	39.16	4.54	
2025-01-17 06:04:24.47	39.19	4.55	
2025-01-17 06:04:24.67	39.21	4.56	
2025-01-17 06:04:24.88	39.24	4.57	
2025-01-17 06:04:25.08	39.27	4.57	
2025-01-17 06:04:25.28	39.30	4.58	
2025-01-17 06:04:25.49	39.33	4.59	
2025-01-17 06:04:25.69	39.35	4.60	
2025-01-17 06:04:25.89	39.38	4.61	
2025-01-17 06:04:26.10	39.41	4.62	
2025-01-17 06:04:26.30	39.44	4.62	
2025-01-17 06:04:26.50	39.47	4.63	
2025-01-17 06:04:26.71	39.49	4.64	
2025-01-17 06:04:26.91	39.52	4.65	
2025-01-17 06:04:27.11	39.55	4.66	
2025-01-17 06:04:27.31	39.58	4.67	
2025-01-17 06:04:27.52	39.61	4.68	
2025-01-17 06:04:27.72	39.63	4.68	
2025-01-17 06:04:27.92	39.66	4.69	
2025-01-17 06:04:28.13	39.69	4.70	
2025-01-17 06:04:28.33	39.72	4.71	
2025-01-17 06:04:28.53	39.75	4.72	
2025-01-17 06:04:28.74	39.78	4.73	
2025-01-17 06:04:28.94	39.80	4.73	
2025-01-17 06:04:29.14	39.83	4.74	
2025-01-17 06:04:29.35	39.86	4.75	
2025-01-17 06:04:29.55	39.89	4.76	
2025-01-17 06:04:29.75	39.92	4.77	
2025-01-17 06:04:29.95	39.94	4.78	
2025-01-17 06:04:30.16	39.97	4.78	
2025-01-17 06:04:30.36	40.00	4.79	
2025-01-17 06:04:30.56	40.03	4.80	
2025-01-17 06:04:30.77	40.06	4.81	
2025-01-17 06:04:30.97	40.09	4.82	
2025-01-17 06:04:31.17	40.11	4.83	
2025-01-17 06:04:31.38	40.14	4.83	
2025-01-17 06:04:31.58	40.17	4.84	
2025-01-17 06:04:31.78	40.20	4.85	
2025-01-17 06:04:31.98	40.23	4.86	
2025-01-17 06:04:32.19	40.26	4.87	
2025-01-17 06:04:32.39	40.29	4.88	
2025-01-17 06:04:32.59	40.31	4.88	
2025-01-17 06:04:32.80	40.34	4.89	
2025-01-17 06:04:33.00	40.37	4.90	
2025-01-17 06:04:33.20	40.40	4.91	
2025-01-17 06:04:33.41	40.43	4.92	
2025-01-17 06:04:33.61	40.46	4.93	
2025-01-17 06:04:33.81	40.49	4.93	
2025-01-17 06:04:34.02	40.52	4.94	
2025-01-17 06:04:34.22	40.54	4.95	
2025-01-17 06:04:34.42	40.57	4.96	
2025-01-17 06:04:34.62	40.60	4.97	
2025-01-17 06:04:34.83	40.63	4.98	
2025-01-17 06:04:35.03	40.66	4.98	
2025-01-17 06:04:35.23	40.69	4.99	
2025-01-17 06:04:35.44	40.72	5.00	
2025-01-17 06:04:35.64	40.74	5.01	
2025-01-17 06:04:35.84	40.77	5.02	
2025-01-17 06:04:36.05	40.80	5.03	
2025-01-17 06:04:36.25	40.83	5.03	
2025-01-17 06:04:36.45	40.86	5.04	
2025-01-17 06:04:36.66	40.89	5.05	
2025-01-17 06:04:36.86	40.92	5.06	
2025-01-17 06:04:37.06	40.95	5.07	
2025-01-17 06:04:37.26	40.97	5.08	
2025-01-17 06:04:37.47	41.00	5.08	
2025-01-17 06:04:37.67	41.03	5.09	
2025-01-17 06:04:37.87	41.06	5.10	
2025-01-17 06:04:38.08	41.09	5.11	
2025-01-17 06:04:38.28	41.12	5.12	
2025-01-17 06:04:38.48	41.15	5.12	
2025-01-17 06:04:38.69	41.18	5.13	
2025-01-17 06:04:38.89	41.21	5.14	
2025-01-17 06:04:39.09	41.24	5.15	
2025-01-17 06:04:39.30	41.27	5.16	
2025-01-17 06:04:39.50	41.29	5.17	
2025-01-17 06:04:39.70	41.32	5.17	
2025-01-17 06:04:39.90	41.35	5.18	
2025-01-17 06:04:40.11	41.38	5.19	
2025-01-17 06:04:40.31	41.41	5.20	
2025-01-17 06:04:40.51	41.44	5.21	
2025-01-17 06:04:40.72	41.47	5.22	
2025-01-17 06:04:40.92	41.50	5.22	
2025-01-17 06:04:41.12	41.53	5.23	
2025-01-17 06:04:41.33	41.56	5.24	
2025-01-17 06:04:41.53	41.59	5.25	
2025-01-17 06:04:41.73	41.62	5.26	
2025-01-17 06:04:41.94	41.65	5.27	
2025-01-17 06:04:42.14	41.67	5.27	
2025-01-17 06:04:42.34	41.70	5.28	
2025-01-17 06:04:42.54	41.73	5.29	
2025-01-17 06:04:42.75	41.76	5.30	
2025-01-17 06:04:42.95	41.79	5.31	
2025-01-17 06:04:43.15	41.82	5.31	
2025-01-17 06:04:43.36	41.85	5.32	
2025-01-17 06:04:43.56	41.88	5.33	
2025-01-17 06:04:43.76	41.91	5.34	
2025-01-17 06:04:43.97	41.94	5.35	
2025-01-17 06:04:44.17	41.97	5.36	
2025-01-17 06:04:44.37	42.00	5.36	
2025-01-17 06:04:44.58	42.03	5.37	
2025-01-17 06:04:44.78	42.06	5.38	
2025-01-17 06:04:44.98	42.09	5.39	
2025-01-17 06:04:45.18	42.12	5.40	
2025-01-17 06:04:45.39	42.15	5.40	
2025-01-17 06:04:45.59	42.18	5.41	
2025-01-17 06:04:45.79	42.21	5.42	
2025-01-17 06:04:46.00	42.24	5.43	
2025-01-17 06:04:46.20	42.27	5.44	
2025-01-17 06:04:46.40	42.29	5.45	
2025-01-17 06:04:46.61	42.33	5.45	
2025-01-17 06:04:46.81	42.35	5.46	
2025-01-17 06:04:47.01	42.38	5.47	
2025-01-17 06:04:47.22	42.41	5.48	
2025-01-17 06:04:47.42	42.44	5.49	
2025-01-17 06:04:47.62	42.47	5.49	
2025-01-17 06:04:47.82	42.50	5.50	
2025-01-17 06:04:48.03	42.53	5.51	
2025-01-17 06:04:48.23	42.56	5.52	
2025-01-17 06:04:48.43	42.59	5.53	
2025-01-17 06:04:48.64	42.62	5.53	
2025-01-17 06:04:48.84	42.65	5.54	
2025-01-17 06:04:49.04	42.68	5.55	
2025-01-17 06:04:49.25	42.71	5.56	
2025-01-17 06:04:49.45	42.74	5.57	
2025-01-17 06:04:49.65	42.77	5.58	
2025-01-17 06:04:49.86	42.80	5.58	
2025-01-17 06:04:50.06	42.83	5.59	
2025-01-17 06:04:50.26	42.86	5.60	
2025-01-17 06:04:50.46	42.89	5.61	
2025-01-17 06:04:50.67	42.92	5.62	
2025-01-17 06:04:50.87	42.95	5.62	
2025-01-17 06:04:51.07	42.98	5.63	
2025-01-17 06:04:51.28	43.01	5.64	
2025-01-17 06:04:51.48	43.04	5.65	
2025-01-17 06:04:51.68	43.07	5.66	
2025-01-17 06:04:51.89	43.10	5.66	
2025-01-17 06:04:52.09	43.13	5.67	
2025-01-17 06:04:52.29	43.16	5.68	
2025-01-17 06:04:52.50	43.20	5.69	
2025-01-17 06:04:52.70	43.22	5.70	
2025-01-17 06:04:52.90	43.25	5.70	
2025-01-17 06:04:53.10	43.28	5.71	
2025-01-17 06:04:53.31	43.32	5.72	
2025-01-17 06:04:53.51	43.35	5.73	
2025-01-17 06:04:53.71	43.38	5.74	
2025-01-17 06:04:53.92	43.41	5.74	
2025-01-17 06:04:54.12	43.44	5.75	
2025-01-17 06:04:54.32	43.47	5.76	
2025-01-17 06:04:54.53	43.50	5.77	
2025-01-17 06:04:54.73	43.53	5.78	
2025-01-17 06:04:54.93	43.56	5.78	
2025-01-17 06:04:55.14	43.59	5.79	
2025-01-17 06:04:55.34	43.62	5.80	
2025-01-17 06:04:55.54	43.65	5.81	
2025-01-17 06:04:55.74	43.68	5.82	
2025-01-17 06:04:55.95	43.71	5.82	
2025-01-17 06:04:56.15	43.74	5.83	
2025-01-17 06:04:56.35	43.77	5.84	
2025-01-17 06:04:56.56	43.80	5.85	
2025-01-17 06:04:56.76	43.83	5.86	
2025-01-17 06:04:56.96	43.86	5.86	
2025-01-17 06:04:57.17	43.90	5.87	
2025-01-17 06:04:57.37	43.93	5.88	
2025-01-17 06:04:57.57	43.96	5.89	
2025-01-17 06:04:57.78	43.99	5.90	
2025-01-17 06:04:57.98	44.02	5.90	
2025-01-17 06:04:58.18	44.05	5.91	
2025-01-17 06:04:58.38	44.08	5.92	
2025-01-17 06:04:58.59	44.11	5.93	
2025-01-17 06:04:58.79	44.14	5.94	
2025-01-17 06:04:58.99	44.17	5.94	
2025-01-17 06:04:59.20	44.20	5.95	
2025-01-17 06:04:59.40	44.23	5.96	
2025-01-17 06:04:59.60	44.26	5.97	
2025-01-17 06:04:59.81	44.30	5.98	
2025-01-17 06:05:00.01	44.33	5.98	
2025-01-17 06:05:00.21	44.36	5.99	
2025-01-17 06:05:00.42	44.39	6.00	
2025-01-17 06:05:00.62	44.42	6.01	
2025-01-17 06:05:00.82	44.45	6.01	
2025-01-17 06:05:01.02	44.48	6.02	
2025-01-17 06:05:01.23	44.51	6.03	
2025-01-17 06:05:01.43	44.54	6.04	
2025-01-17 06:05:01.63	44.57	6.05	
2025-01-17 06:05:01.84	44.60	6.05	
2025-01-17 06:05:02.04	44.64	6.06	
2025-01-17 06:05:02.24	44.67	6.07	
2025-01-17 06:05:02.45	44.70	6.08	
2025-01-17 06:05:02.65	44.73	6.09	
2025-01-17 06:05:02.85	44.76	6.09	
2025-01-17 06:05:03.06	44.79	6.10	
2025-01-17 06:05:03.26	44.82	6.11	
2025-01-17 06:05:03.46	44.85	6.12	
2025-01-17 06:05:03.66	44.88	6.13	
2025-01-17 06:05:03.87	44.92	6.13	
2025-01-17 06:05:04.07	44.95	6.14	
2025-01-17 06:05:04.27	44.98	6.15	
2025-01-17 06:05:04.48	45.01	6.16	
2025-01-17 06:05:04.68	45.04	6.16	
2025-01-17 06:05:04.88	45.07	6.17	
2025-01-17 06:05:05.09	45.10	6.18	
2025-01-17 06:05:05.29	45.14	6.19	
2025-01-17 06:05:05.49	45.17	6.20	
2025-01-17 06:05:05.70	45.20	6.20	
2025-01-17 06:05:05.90	45.23	6.21	
2025-01-17 06:05:06.10	45.26	6.22	
2025-01-17 06:05:06.30	45.29	6.23	
2025-01-17 06:05:06.51	45.32	6.23	
2025-01-17 06:05:06.71	45.35	6.24	
2025-01-17 06:05:06.91	45.39	6.25	
2025-01-17 06:05:07.12	45.42	6.26	
2025-01-17 06:05:07.32	45.45	6.27	
2025-01-17 06:05:07.52	45.48	6.27	
2025-01-17 06:05:07.73	45.51	6.28	
2025-01-17 06:05:07.93	45.54	6.29	
2025-01-17 06:05:08.13	45.58	6.30	
2025-01-17 06:05:08.34	45.61	6.30	
2025-01-17 06:05:08.54	45.64	6.31	
2025-01-17 06:05:08.74	45.67	6.32	
2025-01-17 06:05:08.94	45.70	6.33	
2025-01-17 06:05:09.15	45.73	6.34	
2025-01-17 06:05:09.35	45.77	6.34	
2025-01-17 06:05:09.55	45.80	6.35	
2025-01-17 06:05:09.76	45.83	6.36	
2025-01-17 06:05:09.96	45.86	6.37	
2025-01-17 06:05:10.16	45.89	6.37	
2025-01-17 06:05:10.37	45.93	6.38	
2025-01-17 06:05:10.57	45.96	6.39	
2025-01-17 06:05:10.77	45.99	6.40	
2025-01-17 06:05:10.98	46.02	6.40	
2025-01-17 06:05:11.18	46.05	6.41	
2025-01-17 06:05:11.38	46.08	6.42	
2025-01-17 06:05:11.58	46.11	6.43	
2025-01-17 06:05:11.79	46.15	6.44	
2025-01-17 06:05:11.99	46.18	6.44	
2025-01-17 06:05:12.19	46.21	6.45	
2025-01-17 06:05:12.40	46.24	6.46	
2025-01-17 06:05:12.60	46.28	6.47	
2025-01-17 06:05:12.80	46.31	6.47	
2025-01-17 06:05:13.01	46.34	6.48	
2025-01-17 06:05:13.21	46.37	6.49	
2025-01-17 06:05:13.41	46.40	6.50	
2025-01-17 06:05:13.62	46.44	6.50	
2025-01-17 06:05:13.82	46.47	6.51	
2025-01-17 06:05:14.02	46.50	6.52	
2025-01-17 06:05:14.22	46.53	6.53	
2025-01-17 06:05:14.43	46.56	6.53	
2025-01-17 06:05:14.63	46.60	6.54	
2025-01-17 06:05:14.83	46.63	6.55	
2025-01-17 06:05:15.04	46.66	6.56	
2025-01-17 06:05:15.24	46.69	6.57	
2025-01-17 06:05:15.44	46.72	6.57	
2025-01-17 06:05:15.65	46.76	6.58	
2025-01-17 06:05:15.85	46.79	6.59	
2025-01-17 06:05:16.05	46.82	6.60	
2025-01-17 06:05:16.26	46.86	6.60	
2025-01-17 06:05:16.46	46.89	6.61	
2025-01-17 06:05:16.66	46.92	6.62	
2025-01-17 06:05:16.86	46.95	6.63	
2025-01-17 06:05:17.07	46.98	6.63	
2025-01-17 06:05:17.27	47.02	6.64	
2025-01-17 06:05:17.47	47.05	6.65	
2025-01-17 06:05:17.68	47.08	6.66	
2025-01-17 06:05:17.88	47.11	6.66	
2025-01-17 06:05:18.08	47.15	6.67	
2025-01-17 06:05:18.29	47.18	6.68	
2025-01-17 06:05:18.49	47.21	6.69	
2025-01-17 06:05:18.69	47.24	6.69	
2025-01-17 06:05:18.89	47.28	6.70	
2025-01-17 06:05:19.10	47.31	6.71	
2025-01-17 06:05:19.30	47.34	6.72	
2025-01-17 06:05:19.50	47.37	6.72	
2025-01-17 06:05:19.71	47.41	6.73	
2025-01-17 06:05:19.91	47.44	6.74	
2025-01-17 06:05:20.11	47.47	6.75	
2025-01-17 06:05:20.32	47.50	6.75	
2025-01-17 06:05:20.52	47.54	6.76	
2025-01-17 06:05:20.72	47.57	6.77	
2025-01-17 06:05:20.93	47.60	6.78	
2025-01-17 06:05:21.13	47.64	6.78	
2025-01-17 06:05:21.33	47.67	6.79	
2025-01-17 06:05:21.53	47.70	6.80	
2025-01-17 06:05:21.74	47.73	6.81	
2025-01-17 06:05:21.94	47.77	6.81	
2025-01-17 06:05:22.14	47.80	6.82	
2025-01-17 06:05:22.35	47.83	6.83	
2025-01-17 06:05:22.55	47.86	6.84	
2025-01-17 06:05:22.75	47.90	6.84	
2025-01-17 06:05:22.96	47.93	6.85	
2025-01-17 06:05:23.16	47.96	6.86	
2025-01-17 06:05:23.36	48.00	6.86	
2025-01-17 06:05:23.57	48.03	6.87	
2025-01-17 06:05:23.77	48.06	6.88	
2025-01-17 06:05:23.97	48.09	6.89	
2025-01-17 06:05:24.17	48.13	6.89	
2025-01-17 06:05:24.38	48.16	6.90	
2025-01-17 06:05:24.58	48.19	6.91	
2025-01-17 06:05:24.78	48.23	6.92	
2025-01-17 06:05:24.99	48.26	6.92	
2025-01-17 06:05:25.19	48.29	6.93	
2025-01-17 06:05:25.39	48.33	6.94	
2025-01-17 06:05:25.60	48.36	6.95	
2025-01-17 06:05:25.80	48.39	6.95	
2025-01-17 06:05:26.00	48.43	6.96	
2025-01-17 06:05:26.21	48.46	6.97	
2025-01-17 06:05:26.41	48.49	6.98	
2025-01-17 06:05:26.61	48.53	6.98	
2025-01-17 06:05:26.81	48.56	6.99	
2025-01-17 06:05:27.02	48.59	7.00	
2025-01-17 06:05:27.22	48.63	7.00	
2025-01-17 06:05:27.42	48.66	7.01	
2025-01-17 06:05:27.63	48.69	7.02	
2025-01-17 06:05:27.83	48.73	7.03	
2025-01-17 06:05:28.03	48.76	7.03	
2025-01-17 06:05:28.24	48.79	7.04	
2025-01-17 06:05:28.44	48.83	7.05	
2025-01-17 06:05:28.64	48.86	7.06	
2025-01-17 06:05:28.85	48.89	7.06	
2025-01-17 06:05:29.05	48.93	7.07	
2025-01-17 06:05:29.25	48.96	7.08	
2025-01-17 06:05:29.45	48.99	7.08	
2025-01-17 06:05:29.66	49.03	7.09	
2025-01-17 06:05:29.86	49.06	7.10	
2025-01-17 06:05:30.06	49.09	7.11	
2025-01-17 06:05:30.27	49.13	7.11	
2025-01-17 06:05:30.47	49.16	7.12	
2025-01-17 06:05:30.67	49.19	7.13	
2025-01-17 06:05:30.88	49.23	7.14	
2025-01-17 06:05:31.08	49.26	7.14	
2025-01-17 06:05:31.28	49.29	7.15	
2025-01-17 06:05:31.49	49.33	7.16	
2025-01-17 06:05:31.69	49.36	7.16	
2025-01-17 06:05:31.89	49.39	7.17	
2025-01-17 06:05:32.09	49.43	7.18	
2025-01-17 06:05:32.30	49.46	7.19	
2025-01-17 06:05:32.50	49.50	7.19	
2025-01-17 06:05:32.70	49.53	7.20	
2025-01-17 06:05:32.91	49.56	7.21	
2025-01-17 06:05:33.11	49.60	7.21	
2025-01-17 06:05:33.31	49.63	7.22	
2025-01-17 06:05:33.52	49.67	7.23	
2025-01-17 06:05:33.72	49.70	7.24	
2025-01-17 06:05:33.92	49.73	7.24	
2025-01-17 06:05:34.13	49.77	7.25	
2025-01-17 06:05:34.33	49.80	7.26	
2025-01-17 06:05:34.53	49.83	7.26	
2025-01-17 06:05:34.73	49.87	7.27	
2025-01-17 06:05:34.94	49.90	7.28	
2025-01-17 06:05:35.14	49.94	7.28	
2025-01-17 06:05:35.34	49.97	7.29	
2025-01-17 06:05:35.55	50.00	7.30	
2025-01-17 06:05:35.75	50.04	7.31	
2025-01-17 06:05:35.95	50.07	7.31	
2025-01-17 06:05:36.16	50.11	7.32	
2025-01-17 06:05:36.36	50.14	7.33	
2025-01-17 06:05:36.56	50.17	7.33	
2025-01-17 06:05:36.77	50.21	7.34	
2025-01-17 06:05:36.97	50.24	7.35	
2025-01-17 06:05:37.17	50.28	7.36	
2025-01-17 06:05:37.37	50.31	7.36	
2025-01-17 06:05:37.58	50.35	7.37	
2025-01-17 06:05:37.78	50.38	7.38	
2025-01-17 06:05:37.98	50.41	7.38	
2025-01-17 06:05:38.19	50.45	7.39	
2025-01-17 06:05:38.39	50.48	7.40	
2025-01-17 06:05:38.59	50.52	7.40	
2025-01-17 06:05:38.80	50.55	7.41	
2025-01-17 06:05:39.00	50.58	7.42	
2025-01-17 06:05:39.20	50.62	7.43	
2025-01-17 06:05:39.41	50.65	7.43	
2025-01-17 06:05:39.61	50.69	7.44	
2025-01-17 06:05:39.81	50.72	7.45	
2025-01-17 06:05:40.01	50.76	7.45	
2025-01-17 06:05:40.22	50.79	7.46	
2025-01-17 06:05:40.42	50.83	7.47	
2025-01-17 06:05:40.62	50.86	7.47	
2025-01-17 06:05:40.83	50.89	7.48	
2025-01-17 06:05:41.03	50.93	7.49	
2025-01-17 06:05:41.23	50.96	7.49	
2025-01-17 06:05:41.44	51.00	7.50	
2025-01-17 06:05:41.64	51.03	7.51	
2025-01-17 06:05:41.84	51.07	7.52	
2025-01-17 06:05:42.05	51.10	7.52	
2025-01-17 06:05:42.25	51.14	7.53	
2025-01-17 06:05:42.45	51.17	7.54	
2025-01-17 06:05:42.65	51.20	7.54	
2025-01-17 06:05:42.86	51.24	7.55	
2025-01-17 06:05:43.06	51.27	7.56	
2025-01-17 06:05:43.26	51.31	7.56	
2025-01-17 06:05:43.47	51.34	7.57	
2025-01-17 06:05:43.67	51.38	7.58	
2025-01-17 06:05:43.87	51.41	7.58	
2025-01-17 06:05:44.08	51.45	7.59	
2025-01-17 06:05:44.28	51.48	7.60	
2025-01-17 06:05:44.48	51.52	7.60	
2025-01-17 06:05:44.69	51.55	7.61	
2025-01-17 06:05:44.89	51.59	7.62	
2025-01-17 06:05:45.09	51.62	7.62	
2025-01-17 06:05:45.29	51.66	7.63	
2025-01-17 06:05:45.50	51.69	7.64	
2025-01-17 06:05:45.70	51.73	7.64	
2025-01-17 06:05:45.90	51.76	7.65	
2025-01-17 06:05:46.11	51.80	7.66	
2025-01-17 06:05:46.31	51.83	7.66	
2025-01-17 06:05:46.51	51.86	7.67	
2025-01-17 06:05:46.72	51.90	7.68	
2025-01-17 06:05:46.92	51.94	7.69	
2025-01-17 06:05:47.12	51.97	7.69	
2025-01-17 06:05:47.33	52.01	7.70	
2025-01-17 06:05:47.53	52.04	7.71	
2025-01-17 06:05:47.73	52.07	7.71	
2025-01-17 06:05:47.93	52.11	7.72	
2025-01-17 06:05:48.14	52.15	7.73	
2025-01-17 06:05:48.34	52.18	7.73	
2025-01-17 06:05:48.54	52.21	7.74	
2025-01-17 06:05:48.75	52.25	7.75	
2025-01-17 06:05:48.95	52.29	7.75	
2025-01-17 06:05:49.15	52.32	7.76	
2025-01-17 06:05:49.36	52.36	7.77	
2025-01-17 06:05:49.56	52.39	7.77	
2025-01-17 06:05:49.76	52.43	7.78	
2025-01-17 06:05:49.97	52.46	7.79	
2025-01-17 06:05:50.17	52.50	7.79	
2025-01-17 06:05:50.37	52.53	7.80	
2025-01-17 06:05:50.57	52.57	7.80	
2025-01-17 06:05:50.78	52.60	7.81	
2025-01-17 06:05:50.98	52.64	7.82	
2025-01-17 06:05:51.18	52.67	7.82	
2025-01-17 06:05:51.39	52.71	7.83	
2025-01-17 06:05:51.59	52.74	7.84	
2025-01-17 06:05:51.79	52.78	7.84	
2025-01-17 06:05:52.00	52.82	7.85	
2025-01-17 06:05:52.20	52.85	7.86	
2025-01-17 06:05:52.40	52.88	7.86	
2025-01-17 06:05:52.61	52.92	7.87	
2025-01-17 06:05:52.81	52.96	7.88	
2025-01-17 06:05:53.01	52.99	7.88	
2025-01-17 06:05:53.21	53.03	7.89	
2025-01-17 06:05:53.42	53.06	7.90	
2025-01-17 06:05:53.62	53.10	7.90	
2025-01-17 06:05:53.82	53.13	7.91	
2025-01-17 06:05:54.03	53.17	7.92	
2025-01-17 06:05:54.23	53.20	7.92	
2025-01-17 06:05:54.43	53.24	7.93	
2025-01-17 06:05:54.64	53.28	7.94	
2025-01-17 06:05:54.84	53.31	7.94	
2025-01-17 06:05:55.04	53.35	7.95	
2025-01-17 06:05:55.25	53.38	7.95	
2025-01-17 06:05:55.45	53.42	7.96	
2025-01-17 06:05:55.65	53.45	7.97	
2025-01-17 06:05:55.85	53.49	7.97	
2025-01-17 06:05:56.06	53.53	7.98	
2025-01-17 06:05:56.26	53.56	7.99	
2025-01-17 06:05:56.46	53.60	7.99	
2025-01-17 06:05:56.67	53.63	8.00	
2025-01-17 06:05:56.87	53.67	8.01	
2025-01-17 06:05:57.07	53.70	8.01	
2025-01-17 06:05:57.28	53.74	8.02	
2025-01-17 06:05:57.48	53.78	8.03	
2025-01-17 06:05:57.68	53.81	8.03	
2025-01-17 06:05:57.88	53.85	8.04	
2025-01-17 06:05:58.09	53.88	8.04	
2025-01-17 06:05:58.29	53.92	8.05	
2025-01-17 06:05:58.49	53.95	8.06	
2025-01-17 06:05:58.70	53.99	8.06	
2025-01-17 06:05:58.90	54.03	8.07	
2025-01-17 06:05:59.10	54.06	8.08	
2025-01-17 06:05:59.31	54.10	8.08	
2025-01-17 06:05:59.51	54.14	8.09	
2025-01-17 06:05:59.71	54.17	8.09	
2025-01-17 06:05:59.92	54.21	8.10	
2025-01-17 06:06:00.12	54.24	8.11	
2025-01-17 06:06:00.32	54.28	8.11	
2025-01-17 06:06:00.53	54.32	8.12	
2025-01-17 06:06:00.73	54.35	8.13	
2025-01-17 06:06:00.93	54.39	8.13	
2025-01-17 06:06:01.13	54.42	8.14	
2025-01-17 06:06:01.34	54.46	8.14	
2025-01-17 06:06:01.54	54.50	8.15	
2025-01-17 06:06:01.74	54.53	8.16	
2025-01-17 06:06:01.95	54.57	8.16	
2025-01-17 06:06:02.15	54.60	8.17	
2025-01-17 06:06:02.35	54.64	8.18	
2025-01-17 06:06:02.56	54.68	8.18	
2025-01-17 06:06:02.76	54.71	8.19	
2025-01-17 06:06:02.96	54.75	8.19	
2025-01-17 06:06:03.17	54.79	8.20	
2025-01-17 06:06:03.37	54.82	8.21	
2025-01-17 06:06:03.57	54.86	8.21	
2025-01-17 06:06:03.77	54.89	8.22	
2025-01-17 06:06:03.98	54.93	8.22	
2025-01-17 06:06:04.18	54.97	8.23	
2025-01-17 06:06:04.38	55.00	8.24	
2025-01-17 06:06:04.59	55.04	8.24	
2025-01-17 06:06:04.79	55.08	8.25	
2025-01-17 06:06:04.99	55.11	8.26	
2025-01-17 06:06:05.20	55.15	8.26	
2025-01-17 06:06:05.40	55.19	8.27	
2025-01-17 06:06:05.60	55.22	8.27	
2025-01-17 06:06:05.80	55.26	8.28	
2025-01-17 06:06:06.01	55.30	8.29	
2025-01-17 06:06:06.21	55.33	8.29	
2025-01-17 06:06:06.41	55.37	8.30	
2025-01-17 06:06:06.62	55.41	8.30	
2025-01-17 06:06:06.82	55.44	8.31	
2025-01-17 06:06:07.02	55.48	8.32	
2025-01-17 06:06:07.23	55.52	8.32	
2025-01-17 06:06:07.43	55.55	8.33	
2025-01-17 06:06:07.63	55.59	8.33	
2025-01-17 06:06:07.84	55.63	8.34	
2025-01-17 06:06:08.04	55.66	8.35	
2025-01-17 06:06:08.24	55.70	8.35	
2025-01-17 06:06:08.44	55.73	8.36	
2025-01-17 06:06:08.65	55.77	8.36	
2025-01-17 06:06:08.85	55.81	8.37	
2025-01-17 06:06:09.05	55.84	8.38	
2025-01-17 06:06:09.26	55.88	8.38	
2025-01-17 06:06:09.46	55.92	8.39	
2025-01-17 06:06:09.66	55.95	8.39	
2025-01-17 06:06:09.87	55.99	8.40	
2025-01-17 06:06:10.07	56.03	8.40	
2025-01-17 06:06:10.27	56.07	8.41	
2025-01-17 06:06:10.48	56.10	8.42	
2025-01-17 06:06:10.68	56.14	8.42	
2025-01-17 06:06:10.88	56.18	8.43	
2025-01-17 06:06:11.08	56.21	8.43	
2025-01-17 06:06:11.29	56.25	8.44	
2025-01-17 06:06:11.49	56.29	8.45	
2025-01-17 06:06:11.69	56.32	8.45	
2025-01-17 06:06:11.90	56.36	8.46	
2025-01-17 06:06:12.10	56.40	8.46	
2025-01-17 06:06:12.30	56.43	8.47	
2025-01-17 06:06:12.51	56.47	8.47	
2025-01-17 06:06:12.71	56.51	8.48	
2025-01-17 06:06:12.91	56.55	8.49	
2025-01-17 06:06:13.12	56.58	8.49	
2025-01-17 06:06:13.32	56.62	8.50	
2025-01-17 06:06:13.52	56.66	8.50	
2025-01-17 06:06:13.72	56.69	8.51	
2025-01-17 06:06:13.93	56.73	8.51	
2025-01-17 06:06:14.13	56.77	8.52	
2025-01-17 06:06:14.33	56.81	8.53	
2025-01-17 06:06:14.54	56.84	8.53	
2025-01-17 06:06:14.74	56.88	8.54	
2025-01-17 06:06:14.94	56.92	8.54	
2025-01-17 06:06:15.15	56.96	8.55	
2025-01-17 06:06:15.35	56.99	8.55	
2025-01-17 06:06:15.55	57.03	8.56	
2025-01-17 06:06:15.76	57.07	8.57	
2025-01-17 06:06:15.96	57.10	8.57	
2025-01-17 06:06:16.16	57.14	8.58	
2025-01-17 06:06:16.36	57.18	8.58	
2025-01-17 06:06:16.57	57.22	8.59	
2025-01-17 06:06:16.77	57.25	8.59	
2025-01-17 06:06:16.97	57.29	8.60	
2025-01-17 06:06:17.18	57.33	8.61	
2025-01-17 06:06:17.38	57.37	8.61	
2025-01-17 06:06:17.58	57.40	8.62	
2025-01-17 06:06:17.79	57.44	8.62	
2025-01-17 06:06:17.99	57.48	8.63	
2025-01-17 06:06:18.19	57.51	8.63	
2025-01-17 06:06:18.40	57.55	8.64	
2025-01-17 06:06:18.60	57.59	8.64	
2025-01-17 06:06:18.80	57.63	8.65	
2025-01-17 06:06:19.00	57.66	8.66	
2025-01-17 06:06:19.21	57.70	8.66	
2025-01-17 06:06:19.41	57.74	8.67	
2025-01-17 06:06:19.61	57.78	8.67	
2025-01-17 06:06:19.82	57.82	8.68	
2025-01-17 06:06:20.02	57.85	8.68	
2025-01-17 06:06:20.22	57.89	8.69	
2025-01-17 06:06:20.43	57.93	8.69	
2025-01-17 06:06:20.63	57.97	8.70	
2025-01-17 06:06:20.83	58.00	8.70	
2025-01-17 06:06:21.04	58.04	8.71	
2025-01-17 06:06:21.24	58.08	8.72	
2025-01-17 06:06:21.44	58.12	8.72	
2025-01-17 06:06:21.64	58.15	8.73	
2025-01-17 06:06:21.85	58.19	8.73	
2025-01-17 06:06:22.05	58.23	8.74	
2025-01-17 06:06:22.25	58.27	8.74	
2025-01-17 06:06:22.46	58.31	8.75	
2025-01-17 06:06:22.66	58.34	8.75	
2025-01-17 06:06:22.86	58.38	8.76	
2025-01-17 06:06:23.07	58.42	8.76	
2025-01-17 06:06:23.27	58.46	8.77	
2025-01-17 06:06:23.47	58.49	8.77	
2025-01-17 06:06:23.68	58.53	8.78	
2025-01-17 06:06:23.88	58.57	8.78	
2025-01-17 06:06:24.08	58.61	8.79	
2025-01-17 06:06:24.28	58.64	8.80	
2025-01-17 06:06:24.49	58.68	8.80	
2025-01-17 06:06:24.69	58.72	8.81	
2025-01-17 06:06:24.89	58.76	8.81	
2025-01-17 06:06:25.10	58.80	8.82	
2025-01-17 06:06:25.30	58.84	8.82	
2025-01-17 06:06:25.50	58.87	8.83	
2025-01-17 06:06:25.71	58.91	8.83	
2025-01-17 06:06:25.91	58.95	8.84	
2025-01-17 06:06:26.11	58.99	8.84	
2025-01-17 06:06:26.32	59.03	8.85	
2025-01-17 06:06:26.52	59.06	8.85	
2025-01-17 06:06:26.72	59.10	8.86	
2025-01-17 06:06:26.92	59.14	8.86	
2025-01-17 06:06:27.13	59.18	8.87	
2025-01-17 06:06:27.33	59.22	8.87	
2025-01-17 06:06:27.53	59.25	8.88	
2025-01-17 06:06:27.74	59.29	8.88	
2025-01-17 06:06:27.94	59.33	8.89	
2025-01-17 06:06:28.14	59.37	8.89	
2025-01-17 06:06:28.35	59.41	8.90	
2025-01-17 06:06:28.55	59.44	8.90	
2025-01-17 06:06:28.75	59.48	8.91	
2025-01-17 06:06:28.96	59.52	8.91	
2025-01-17 06:06:29.16	59.56	8.92	
2025-01-17 06:06:29.36	59.60	8.92	
2025-01-17 06:06:29.56	59.64	8.93	
2025-01-17 06:06:29.77	59.67	8.93	
2025-01-17 06:06:29.97	59.71	8.94	
2025-01-17 06:06:30.17	59.75	8.94	
2025-01-17 06:06:30.38	59.79	8.95	
2025-01-17 06:06:30.58	59.83	8.95	
2025-01-17 06:06:30.78	59.87	8.96	
2025-01-17 06:06:30.99	59.90	8.96	
2025-01-17 06:06:31.19	59.94	8.97	
2025-01-17 06:06:31.39	59.98	8.97	
2025-01-17 06:06:31.60	60.02	8.98	
2025-01-17 06:06:31.80	60.06	8.98	
2025-01-17 06:06:32.00	60.10	8.99	
2025-01-17 06:06:32.20	60.13	8.99	
2025-01-17 06:06:32.41	60.17	9.00	
2025-01-17 06:06:32.61	60.21	9.00	
2025-01-17 06:06:32.81	60.25	9.01	
2025-01-17 06:06:33.02	60.29	9.01	
2025-01-17 06:06:33.22	60.33	9.02	
2025-01-17 06:06:33.42	60.37	9.02	
2025-01-17 06:06:33.63	60.40	9.03	
2025-01-17 06:06:33.83	60.44	9.03	
2025-01-17 06:06:34.03	60.48	9.04	
2025-01-17 06:06:34.24	60.52	9.04	
2025-01-17 06:06:34.44	60.56	9.05	
2025-01-17 06:06:34.64	60.60	9.05	
2025-01-17 06:06:34.84	60.63	9.06	
2025-01-17 06:06:35.05	60.67	9.06	
2025-01-17 06:06:35.25	60.71	9.07	
2025-01-17 06:06:35.45	60.75	9.07	
2025-01-17 06:06:35.66	60.79	9.08	
2025-01-17 06:06:35.86	60.83	9.08	
2025-01-17 06:06:36.06	60.87	9.09	
2025-01-17 06:06:36.27	60.91	9.09	
2025-01-17 06:06:36.47	60.95	9.10	
2025-01-17 06:06:36.67	60.98	9.10	
2025-01-17 06:06:36.88	61.02	9.10	
2025-01-17 06:06:37.08	61.06	9.11	
2025-01-17 06:06:37.28	61.10	9.11	
2025-01-17 06:06:37.48	61.14	9.12	
2025-01-17 06:06:37.69	61.18	9.12	
2025-01-17 06:06:37.89	61.22	9.13	
2025-01-17 06:06:38.09	61.25	9.13	
2025-01-17 06:06:38.30	61.30	9.14	
2025-01-17 06:06:38.50	61.33	9.14	
2025-01-17 06:06:38.70	61.37	9.15	
2025-01-17 06:06:38.91	61.41	9.15	
2025-01-17 06:06:39.11	61.45	9.16	
2025-01-17 06:06:39.31	61.49	9.16	
2025-01-17 06:06:39.52	61.53	9.17	
2025-01-17 06:06:39.72	61.57	9.17	
2025-01-17 06:06:39.92	61.61	9.17	
2025-01-17 06:06:40.12	61.64	9.18	
2025-01-17 06:06:40.33	61.68	9.18	
2025-01-17 06:06:40.53	61.72	9.19	
2025-01-17 06:06:40.73	61.76	9.19	
2025-01-17 06:06:40.94	61.80	9.20	
2025-01-17 06:06:41.14	61.84	9.20	
2025-01-17 06:06:41.34	61.88	9.21	
2025-01-17 06:06:41.55	61.92	9.21	
2025-01-17 06:06:41.75	61.96	9.21	
2025-01-17 06:06:41.95	62.00	9.22	
2025-01-17 06:06:42.16	62.04	9.22	
2025-01-17 06:06:42.36	62.07	9.23	
2025-01-17 06:06:42.56	62.11	9.23	
2025-01-17 06:06:42.76	62.15	9.24	
2025-01-17 06:06:42.97	62.19	9.24	
2025-01-17 06:06:43.17	62.23	9.25	
2025-01-17 06:06:43.37	62.27	9.25	
2025-01-17 06:06:43.58	62.31	9.25	
2025-01-17 06:06:43.78	62.35	9.26	
2025-01-17 06:06:43.98	62.39	9.26	
2025-01-17 06:06:44.19	62.43	9.27	
2025-01-17 06:06:44.39	62.47	9.27	
2025-01-17 06:06:44.59	62.50	9.28	
2025-01-17 06:06:44.80	62.55	9.28	
2025-01-17 06:06:45.00	62.58	9.28	
2025-01-17 06:06:45.20	62.62	9.29	
2025-01-17 06:06:45.40	62.66	9.29	
2025-01-17 06:06:45.61	62.70	9.30	
2025-01-17 06:06:45.81	62.74	9.30	
2025-01-17 06:06:46.01	62.78	9.31	
2025-01-17 06:06:46.22	62.82	9.31	
2025-01-17 06:06:46.42	62.86	9.31	
2025-01-17 06:06:46.62	62.90	9.32	
2025-01-17 06:06:46.83	62.94	9.32	
2025-01-17 06:06:47.03	62.98	9.33	
2025-01-17 06:06:47.23	63.02	9.33	
2025-01-17 06:06:47.44	63.06	9.34	
2025-01-17 06:06:47.64	63.10	9.34	
2025-01-17 06:06:47.84	63.13	9.34	
2025-01-17 06:06:48.04	63.17	9.35	
2025-01-17 06:06:48.25	63.21	9.35	
2025-01-17 06:06:48.45	63.25	9.36	
2025-01-17 06:06:48.65	63.29	9.36	
2025-01-17 06:06:48.86	63.33	9.36	
2025-01-17 06:06:49.06	63.37	9.37	
2025-01-17 06:06:49.26	63.41	9.37	
2025-01-17 06:06:49.47	63.45	9.38	
2025-01-17 06:06:49.67	63.49	9.38	
2025-01-17 06:06:49.87	63.53	9.38	
2025-01-17 06:06:50.07	63.57	9.39	
2025-01-17 06:06:50.28	63.61	9.39	
2025-01-17 06:06:50.48	63.65	9.40	
2025-01-17 06:06:50.68	63.69	9.40	
2025-01-17 06:06:50.89	63.73	9.40	
2025-01-17 06:06:51.09	63.77	9.41	
2025-01-17 06:06:51.29	63.81	9.41	
2025-01-17 06:06:51.50	63.85	9.42	
2025-01-17 06:06:51.70	63.89	9.42	
2025-01-17 06:06:51.90	63.93	9.42	
2025-01-17 06:06:52.11	63.97	9.43	
2025-01-17 06:06:52.31	64.01	9.43	
2025-01-17 06:06:52.51	64.04	9.44	
2025-01-17 06:06:52.71	64.08	9.44	
2025-01-17 06:06:52.92	64.13	9.44	
2025-01-17 06:06:53.12	64.16	9.45	
2025-01-17 06:06:53.32	64.20	9.45	
2025-01-17 06:06:53.53	64.24	9.46	
2025-01-17 06:06:53.73	64.28	9.46	
2025-01-17 06:06:53.93	64.32	9.46	
2025-01-17 06:06:54.14	64.36	9.47	
2025-01-17 06:06:54.34	64.40	9.47	
2025-01-17 06:06:54.54	64.44	9.47	
2025-01-17 06:06:54.75	64.48	9.48	
2025-01-17 06:06:54.95	64.52	9.48	
2025-01-17 06:06:55.15	64.56	9.49	
2025-01-17 06:06:55.35	64.60	9.49	
2025-01-17 06:06:55.56	64.64	9.49	
2025-01-17 06:06:55.76	64.68	9.50	
2025-01-17 06:06:55.96	64.72	9.50	
2025-01-17 06:06:56.17	64.76	9.50	
2025-01-17 06:06:56.37	64.80	9.51	
2025-01-17 06:06:56.57	64.84	9.51	
2025-01-17 06:06:56.78	64.88	9.52	
2025-01-17 06:06:56.98	64.92	9.52	
2025-01-17 06:06:57.18	64.96	9.52	
2025-01-17 06:06:57.39	65.00	9.53	
2025-01-17 06:06:57.59	65.04	9.53	
2025-01-17 06:06:57.79	65.08	9.53	
2025-01-17 06:06:57.99	65.12	9.54	
2025-01-17 06:06:58.20	65.16	9.54	
2025-01-17 06:06:58.40	65.20	9.55	
2025-01-17 06:06:58.60	65.24	9.55	
2025-01-17 06:06:58.81	65.28	9.55	
2025-01-17 06:06:59.01	65.32	9.56	
2025-01-17 06:06:59.21	65.36	9.56	
2025-01-17 06:06:59.42	65.40	9.56	
2025-01-17 06:06:59.62	65.44	9.57	
2025-01-17 06:06:59.82	65.48	9.57	
2025-01-17 06:07:00.03	65.52	9.57	
2025-01-17 06:07:00.23	65.56	9.58	
2025-01-17 06:07:00.43	65.60	9.58	
2025-01-17 06:07:00.63	65.64	9.58	
2025-01-17 06:07:00.84	65.68	9.59	
2025-01-17 06:07:01.04	65.72	9.59	
2025-01-17 06:07:01.24	65.76	9.59	
2025-01-17 06:07:01.45	65.80	9.60	
2025-01-17 06:07:01.65	65.84	9.60	
2025-01-17 06:07:01.85	65.88	9.60	
2025-01-17 06:07:02.06	65.92	9.61	
2025-01-17 06:07:02.26	65.96	9.61	
2025-01-17 06:07:02.46	66.00	9.61	
2025-01-17 06:07:02.67	66.05	9.62	
2025-01-17 06:07:02.87	66.09	9.62	
2025-01-17 06:07:03.07	66.12	9.62	
2025-01-17 06:07:03.27	66.16	9.63	
2025-01-17 06:07:03.48	66.21	9.63	
2025-01-17 06:07:03.68	66.25	9.63	
2025-01-17 06:07:03.88	66.29	9.64	
2025-01-17 06:07:04.09	66.33	9.64	
2025-01-17 06:07:04.29	66.37	9.64	
2025-01-17 06:07:04.49	66.41	9.65	
2025-01-17 06:07:04.70	66.45	9.65	
2025-01-17 06:07:04.90	66.49	9.65	
2025-01-17 06:07:05.10	66.53	9.66	
2025-01-17 06:07:05.31	66.57	9.66	
2025-01-17 06:07:05.51	66.61	9.66	
2025-01-17 06:07:05.71	66.65	9.67	
2025-01-17 06:07:05.91	66.69	9.67	
2025-01-17 06:07:06.12	66.73	9.67	
2025-01-17 06:07:06.32	66.77	9.68	
2025-01-17 06:07:06.52	66.81	9.68	
2025-01-17 06:07:06.73	66.85	9.68	
2025-01-17 06:07:06.93	66.89	9.69	
2025-01-17 06:07:07.13	66.93	9.69	
2025-01-17 06:07:07.34	66.97	9.69	
2025-01-17 06:07:07.54	67.01	9.70	
2025-01-17 06:07:07.74	67.05	9.70	
2025-01-17 06:07:07.95	67.10	9.70	
2025-01-17 06:07:08.15	67.14	9.70	
2025-01-17 06:07:08.35	67.17	9.71	
2025-01-17 06:07:08.55	67.21	9.71	
2025-01-17 06:07:08.76	67.26	9.71	
2025-01-17 06:07:08.96	67.30	9.72	
2025-01-17 06:07:09.16	67.34	9.72	
2025-01-17 06:07:09.37	67.38	9.72	
2025-01-17 06:07:09.57	67.42	9.73	
2025-01-17 06:07:09.77	67.46	9.73	
2025-01-17 06:07:09.98	67.50	9.73	
2025-01-17 06:07:10.18	67.54	9.73	
2025-01-17 06:07:10.38	67.58	9.74	
2025-01-17 06:07:10.59	67.62	9.74	
2025-01-17 06:07:10.79	67.66	9.74	
2025-01-17 06:07:10.99	67.70	9.75	
2025-01-17 06:07:11.19	67.74	9.75	
2025-01-17 06:07:11.40	67.78	9.75	
2025-01-17 06:07:11.60	67.82	9.75	
2025-01-17 06:07:11.80	67.86	9.76	
2025-01-17 06:07:12.01	67.91	9.76	
2025-01-17 06:07:12.21	67.95	9.76	
2025-01-17 06:07:12.41	67.99	9.77	
2025-01-17 06:07:12.62	68.03	9.77	
2025-01-17 06:07:12.82	68.07	9.77	
2025-01-17 06:07:13.02	68.11	9.77	
2025-01-17 06:07:13.23	68.15	9.78	
2025-01-17 06:07:13.43	68.19	9.78	
2025-01-17 06:07:13.63	68.23	9.78	
2025-01-17 06:07:13.83	68.27	9.79	
2025-01-17 06:07:14.04	68.31	9.79	
2025-01-17 06:07:14.24	68.35	9.79	
2025-01-17 06:07:14.44	68.39	9.79	
2025-01-17 06:07:14.65	68.44	9.80	
2025-01-17 06:07:14.85	68.48	9.80	
2025-01-17 06:07:15.05	68.52	9.80	
2025-01-17 06:07:15.26	68.56	9.80	
2025-01-17 06:07:15.46	68.60	9.81	
2025-01-17 06:07:15.66	68.64	9.81	
2025-01-17 06:07:15.87	68.68	9.81	
2025-01-17 06:07:16.07	68.72	9.81	
2025-01-17 06:07:16.27	68.76	9.82	
2025-01-17 06:07:16.47	68.80	9.82	
2025-01-17 06:07:16.68	68.84	9.82	
2025-01-17 06:07:16.88	68.88	9.82	
2025-01-17 06:07:17.08	68.92	9.83	
2025-01-17 06:07:17.29	68.97	9.83	
2025-01-17 06:07:17.49	69.01	9.83	
2025-01-17 06:07:17.69	69.05	9.83	
2025-01-17 06:07:17.90	69.09	9.84	
2025-01-17 06:07:18.10	69.13	9.84	
2025-01-17 06:07:18.30	69.17	9.84	
2025-01-17 06:07:18.51	69.21	9.84	
2025-01-17 06:07:18.71	69.25	9.85	
2025-01-17 06:07:18.91	69.29	9.85	
2025-01-17 06:07:19.11	69.33	9.85	
2025-01-17 06:07:19.32	69.38	9.85	
2025-01-17 06:07:19.52	69.42	9.86	
2025-01-17 06:07:19.72	69.46	9.86	
2025-01-17 06:07:19.93	69.50	9.86	
2025-01-17 06:07:20.13	69.54	9.86	
2025-01-17 06:07:20.33	69.58	9.87	
2025-01-17 06:07:20.54	69.62	9.87	
2025-01-17 06:07:20.74	69.66	9.87	
2025-01-17 06:07:20.94	69.70	9.87	
2025-01-17 06:07:21.15	69.74	9.88	
2025-01-17 06:07:21.35	69.79	9.88	
2025-01-17 06:07:21.55	69.83	9.88	
2025-01-17 06:07:21.75	69.87	9.88	
2025-01-17 06:07:21.96	69.91	9.88	
2025-01-17 06:07:22.16	69.95	9.89	
2025-01-17 06:07:22.36	69.99	9.89	
2025-01-17 06:07:22.57	70.03	9.89	
2025-01-17 06:07:22.77	70.07	9.89	
2025-01-17 06:07:22.97	70.11	9.90	
2025-01-17 06:07:23.18	70.16	9.90	
2025-01-17 06:07:23.38	70.20	9.90	
2025-01-17 06:07:23.58	70.24	9.90	
2025-01-17 06:07:23.79	70.28	9.90	
2025-01-17 06:07:23.99	70.32	9.91	
2025-01-17 06:07:24.19	70.36	9.91	
2025-01-17 06:07:24.39	70.40	9.91	
2025-01-17 06:07:24.60	70.44	9.91	
2025-01-17 06:07:24.80	70.48	9.92	
2025-01-17 06:07:25.00	70.52	9.92	
2025-01-17 06:07:25.21	70.57	9.92	
2025-01-17 06:07:25.41	70.61	9.92	
2025-01-17 06:07:25.61	70.65	9.92	
2025-01-17 06:07:25.82	70.69	9.93	
2025-01-17 06:07:26.02	70.73	9.93	
2025-01-17 06:07:26.22	70.77	9.93	
2025-01-17 06:07:26.43	70.81	9.93	
2025-01-17 06:07:26.63	70.85	9.93	
2025-01-17 06:07:26.83	70.89	9.94	
2025-01-17 06:07:27.03	70.94	9.94	
2025-01-17 06:07:27.24	70.98	9.94	
2025-01-17 06:07:27.44	71.02	9.94	
2025-01-17 06:07:27.64	71.06	9.94	
2025-01-17 06:07:27.85	71.10	9.95	
2025-01-17 06:07:28.05	71.14	9.95	
2025-01-17 06:07:28.25	71.18	9.95	
2025-01-17 06:07:28.46	71.23	9.95	
2025-01-17 06:07:28.66	71.27	9.95	
2025-01-17 06:07:28.86	71.31	9.95	
2025-01-17 06:07:29.07	71.35	9.96	
2025-01-17 06:07:29.27	71.39	9.96	
2025-01-17 06:07:29.47	71.43	9.96	
2025-01-17 06:07:29.67	71.47	9.96	
2025-01-17 06:07:29.88	71.51	9.96	
2025-01-17 06:07:30.08	71.55	9.97	
2025-01-17 06:07:30.28	71.60	9.97	
2025-01-17 06:07:30.49	71.64	9.97	
2025-01-17 06:07:30.69	71.68	9.97	
2025-01-17 06:07:30.89	71.72	9.97	
2025-01-17 06:07:31.10	71.76	9.97	
2025-01-17 06:07:31.30	71.80	9.98	
2025-01-17 06:07:31.50	71.84	9.98	
2025-01-17 06:07:31.71	71.89	9.98	
2025-01-17 06:07:31.91	71.93	9.98	
2025-01-17 06:07:32.11	71.97	9.98	
2025-01-17 06:07:32.31	72.01	9.98	
2025-01-17 06:07:32.52	72.05	9.99	
2025-01-17 06:07:32.72	72.09	9.99	
2025-01-17 06:07:32.92	72.13	9.99	
2025-01-17 06:07:33.13	72.18	9.99	
2025-01-17 06:07:33.33	72.22	9.99	
2025-01-17 06:07:33.53	72.26	9.99	
2025-01-17 06:07:33.74	72.30	10.00	
2025-01-17 06:07:33.94	72.34	10.00	
2025-01-17 06:07:34.14	72.38	10.00	
2025-01-17 06:07:34.34	72.42	10.00	
2025-01-17 06:07:34.55	72.46	10.00	
2025-01-17 06:07:34.75	72.51	10.00	
2025-01-17 06:07:34.95	72.55	10.00	
2025-01-17 06:07:35.16	72.59	10.01	
2025-01-17 06:07:35.36	72.63	10.01	
2025-01-17 06:07:35.56	72.67	10.01	
2025-01-17 06:07:35.77	72.71	10.01	
2025-01-17 06:07:35.97	72.75	10.01	
2025-01-17 06:07:36.17	72.80	10.01	
2025-01-17 06:07:36.38	72.84	10.01	
2025-01-17 06:07:36.58	72.88	10.02	
2025-01-17 06:07:36.78	72.92	10.02	
2025-01-17 06:07:36.98	72.96	10.02	
2025-01-17 06:07:37.19	73.00	10.02	
2025-01-17 06:07:37.39	73.04	10.02	
2025-01-17 06:07:37.59	73.09	10.02	
2025-01-17 06:07:37.80	73.13	10.02	
2025-01-17 06:07:38.00	73.17	10.02	
2025-01-17 06:07:38.20	73.21	10.03	
2025-01-17 06:07:38.41	73.25	10.03	
2025-01-17 06:07:38.61	73.29	10.03	
2025-01-17 06:07:38.81	73.33	10.03	
2025-01-17 06:07:39.02	73.38	10.03	
2025-01-17 06:07:39.22	73.42	10.03	
2025-01-17 06:07:39.42	73.46	10.03	
2025-01-17 06:07:39.62	73.50	10.03	
2025-01-17 06:07:39.83	73.54	10.04	
2025-01-17 06:07:40.03	73.58	10.04	
2025-01-17 06:07:40.23	73.62	10.04	
2025-01-17 06:07:40.44	73.67	10.04	
2025-01-17 06:07:40.64	73.71	10.04	
2025-01-17 06:07:40.84	73.75	10.04	
2025-01-17 06:07:41.05	73.79	10.04	
2025-01-17 06:07:41.25	73.83	10.04	
2025-01-17 06:07:41.45	73.87	10.04	
2025-01-17 06:07:41.66	73.92	10.05	
2025-01-17 06:07:41.86	73.96	10.05	
2025-01-17 06:07:42.06	74.00	10.05	
2025-01-17 06:07:42.26	74.04	10.05	
2025-01-17 06:07:42.47	74.08	10.05	
2025-01-17 06:07:42.67	74.12	10.05	
2025-01-17 06:07:42.87	74.16	10.05	
2025-01-17 06:07:43.08	74.21	10.05	
2025-01-17 06:07:43.28	74.25	10.05	
2025-01-17 06:07:43.48	74.29	10.05	
2025-01-17 06:07:43.69	74.33	10.06	
2025-01-17 06:07:43.89	74.37	10.06	
2025-01-17 06:07:44.09	74.41	10.06	
2025-01-17 06:07:44.30	74.46	10.06	
2025-01-17 06:07:44.50	74.50	10.06	
2025-01-17 06:07:44.70	74.54	10.06	
2025-01-17 06:07:44.90	74.58	10.06	
2025-01-17 06:07:45.11	74.62	10.06	
2025-01-17 06:07:45.31	74.66	10.06	
2025-01-17 06:07:45.51	74.71	10.06	
2025-01-17 06:07:45.72	74.75	10.06	
2025-01-17 06:07:45.92	74.79	10.07	
2025-01-17 06:07:46.12	74.83	10.07	
2025-01-17 06:07:46.33	74.87	10.07	
2025-01-17 06:07:46.53	74.91	10.07	
2025-01-17 06:07:46.73	74.95	10.07	
2025-01-17 06:07:46.94	75.00	10.07	
2025-01-17 06:07:47.14	75.04	10.07	
2025-01-17 06:07:47.34	75.08	10.07	
2025-01-17 06:07:47.54	75.12	10.07	
2025-01-17 06:07:47.75	75.16	10.07	
2025-01-17 06:07:47.95	75.20	10.07	
2025-01-17 06:07:48.15	75.25	10.07	
2025-01-17 06:07:48.36	75.29	10.07	
2025-01-17 06:07:48.56	75.33	10.07	
2025-01-17 06:07:48.76	75.37	10.08	
2025-01-17 06:07:48.97	75.41	10.08	
2025-01-17 06:07:49.17	75.46	10.08	
2025-01-17 06:07:49.37	75.50	10.08	
2025-01-17 06:07:49.58	75.54	10.08	
2025-01-17 06:07:49.78	75.58	10.08	
2025-01-17 06:07:49.98	75.62	10.08	
2025-01-17 06:07:50.18	75.66	10.08	
2025-01-17 06:07:50.39	75.71	10.08	
2025-01-17 06:07:50.59	75.75	10.08	
2025-01-17 06:07:50.79	75.79	10.08	
2025-01-17 06:07:51.00	75.83	10.08	
2025-01-17 06:07:51.20	75.87	10.08	
2025-01-17 06:07:51.40	75.91	10.08	
2025-01-17 06:07:51.61	75.96	10.08	
2025-01-17 06:07:51.81	76.00	10.08	
2025-01-17 06:07:52.01	76.04	10.08	
2025-01-17 06:07:52.22	76.08	10.08	
2025-01-17 06:07:52.42	76.12	10.08	
2025-01-17 06:07:52.62	76.16	10.08	
2025-01-17 06:07:52.82	76.20	10.08	
2025-01-17 06:07:53.03	76.25	10.09	
2025-01-17 06:07:53.23	76.29	10.09	
2025-01-17 06:07:53.43	76.33	10.09	
2025-01-17 06:07:53.64	76.37	10.09	
2025-01-17 06:07:53.84	76.41	10.09	
2025-01-17 06:07:54.04	76.45	10.09	
2025-01-17 06:07:54.25	76.50	10.09	
2025-01-17 06:07:54.45	76.54	10.09	
2025-01-17 06:07:54.65	76.58	10.09	
2025-01-17 06:07:54.86	76.62	10.09	
2025-01-17 06:07:55.06	76.66	10.09	
2025-01-17 06:07:55.26	76.70	10.09	
2025-01-17 06:07:55.46	76.75	10.09	
2025-01-17 06:07:55.67	76.79	10.09	
2025-01-17 06:07:55.87	76.83	10.09	
2025-01-17 06:07:56.07	76.87	10.09	
2025-01-17 06:07:56.28	76.91	10.09	
2025-01-17 06:07:56.48	76.95	10.09	
2025-01-17 06:07:56.68	77.00	10.09	
2025-01-17 06:07:56.89	77.04	10.09	
2025-01-17 06:07:57.09	77.08	10.09	
2025-01-17 06:07:57.29	77.12	10.09	
2025-01-17 06:07:57.50	77.16	10.09	
2025-01-17 06:07:57.70	77.21	10.09	
2025-01-17 06:07:57.90	77.25	10.09	
2025-01-17 06:07:58.10	77.29	10.09	
2025-01-17 06:07:58.31	77.33	10.09	
2025-01-17 06:07:58.51	77.37	10.09	
2025-01-17 06:07:58.71	77.41	10.09	
2025-01-17 06:07:58.92	77.46	10.09	
2025-01-17 06:07:59.12	77.50	10.09	
2025-01-17 06:07:59.32	77.54	10.09	
2025-01-17 06:07:59.53	77.58	10.09	
2025-01-17 06:07:59.73	77.62	10.09	
2025-01-17 06:07:59.93	77.66	10.09	
2025-01-17 06:08:00.14	77.71	10.09	
2025-01-17 06:08:00.34	77.75	10.09	
2025-01-17 06:08:00.54	77.79	10.09	
2025-01-17 06:08:00.74	77.83	10.09	
2025-01-17 06:08:00.95	77.87	10.09	
2025-01-17 06:08:01.15	77.91	10.09	
2025-01-17 06:08:01.35	77.95	10.09	
2025-01-17 06:08:01.56	78.00	10.09	
2025-01-17 06:08:01.76	78.04	10.09	
2025-01-17 06:08:01.96	78.08	10.09	
2025-01-17 06:08:02.17	78.12	10.09	
2025-01-17 06:08:02.37	78.16	10.09	
2025-01-17 06:08:02.57	78.20	10.09	
2025-01-17 06:08:02.78	78.25	10.09	
2025-01-17 06:08:02.98	78.29	10.09	
2025-01-17 06:08:03.18	78.33	10.09	
2025-01-17 06:08:03.38	78.37	10.09	
2025-01-17 06:08:03.59	78.41	10.09	
2025-01-17 06:08:03.79	78.46	10.09	
2025-01-17 06:08:03.99	78.50	10.09	
2025-01-17 06:08:04.20	78.54	10.09	
2025-01-17 06:08:04.40	78.58	10.09	
2025-01-17 06:08:04.60	78.62	10.08	
2025-01-17 06:08:04.81	78.66	10.08	
2025-01-17 06:08:05.01	78.71	10.08	
2025-01-17 06:08:05.21	78.75	10.08	
2025-01-17 06:08:05.42	78.79	10.08	
2025-01-17 06:08:05.62	78.83	10.08	
2025-01-17 06:08:05.82	78.87	10.08	
2025-01-17 06:08:06.02	78.91	10.08	
2025-01-17 06:08:06.23	78.96	10.08	
2025-01-17 06:08:06.43	79.00	10.08	
2025-01-17 06:08:06.63	79.04	10.08	
2025-01-17 06:08:06.84	79.08	10.08	
2025-01-17 06:08:07.04	79.12	10.08	
2025-01-17 06:08:07.24	79.16	10.08	
2025-01-17 06:08:07.45	79.21	10.08	
2025-01-17 06:08:07.65	79.25	10.08	
2025-01-17 06:08:07.85	79.29	10.08	
2025-01-17 06:08:08.06	79.33	10.08	
2025-01-17 06:08:08.26	79.37	10.08	
2025-01-17 06:08:08.46	79.41	10.08	
2025-01-17 06:08:08.66	79.45	10.07	
2025-01-17 06:08:08.87	79.50	10.07	
2025-01-17 06:08:09.07	79.54	10.07	
2025-01-17 06:08:09.27	79.58	10.07	
2025-01-17 06:08:09.48	79.62	10.07	
2025-01-17 06:08:09.68	79.66	10.07	
2025-01-17 06:08:09.88	79.70	10.07	
2025-01-17 06:08:10.09	79.75	10.07	
2025-01-17 06:08:10.29	79.79	10.07	
2025-01-17 06:08:10.49	79.83	10.07	
2025-01-17 06:08:10.70	79.87	10.07	
2025-01-17 06:08:10.90	79.91	10.07	
2025-01-17 06:08:11.10	79.95	10.07	
2025-01-17 06:08:11.30	80.00	10.07	
2025-01-17 06:08:11.51	80.04	10.06	
2025-01-17 06:08:11.71	80.08	10.06	
2025-01-17 06:08:11.91	80.12	10.06	
2025-01-17 06:08:12.12	80.16	10.06	
2025-01-17 06:08:12.32	80.20	10.06	
2025-01-17 06:08:12.52	80.25	10.06	
2025-01-17 06:08:12.73	80.29	10.06	
2025-01-17 06:08:12.93	80.33	10.06	
2025-01-17 06:08:13.13	80.37	10.06	
2025-01-17 06:08:13.33	80.41	10.06	
2025-01-17 06:08:13.54	80.45	10.06	
2025-01-17 06:08:13.74	80.50	10.06	
2025-01-17 06:08:13.94	80.54	10.05	
2025-01-17 06:08:14.15	80.58	10.05	
2025-01-17 06:08:14.35	80.62	10.05	
2025-01-17 06:08:14.55	80.66	10.05	
2025-01-17 06:08:14.76	80.70	10.05	
2025-01-17 06:08:14.96	80.75	10.05	
2025-01-17 06:08:15.16	80.79	10.05	
2025-01-17 06:08:15.37	80.83	10.05	
2025-01-17 06:08:15.57	80.87	10.05	
2025-01-17 06:08:15.77	80.91	10.05	
2025-01-17 06:08:15.98	80.95	10.04	
2025-01-17 06:08:16.18	81.00	10.04	
2025-01-17 06:08:16.38	81.04	10.04	
2025-01-17 06:08:16.58	81.08	10.04	
2025-01-17 06:08:16.79	81.12	10.04	
2025-01-17 06:08:16.99	81.16	10.04	
2025-01-17 06:08:17.19	81.20	10.04	
2025-01-17 06:08:17.40	81.24	10.04	
2025-01-17 06:08:17.60	81.29	10.04	
2025-01-17 06:08:17.80	81.33	10.03	
2025-01-17 06:08:18.01	81.37	10.03	
2025-01-17 06:08:18.21	81.41	10.03	
2025-01-17 06:08:18.41	81.45	10.03	
2025-01-17 06:08:18.61	81.49	10.03	
2025-01-17 06:08:18.82	81.54	10.03	
2025-01-17 06:08:19.02	81.58	10.03	
2025-01-17 06:08:19.22	81.62	10.03	
2025-01-17 06:08:19.43	81.66	10.02	
2025-01-17 06:08:19.63	81.70	10.02	
2025-01-17 06:08:19.83	81.74	10.02	
2025-01-17 06:08:20.04	81.78	10.02	
2025-01-17 06:08:20.24	81.83	10.02	
2025-01-17 06:08:20.44	81.87	10.02	
2025-01-17 06:08:20.65	81.91	10.02	
2025-01-17 06:08:20.85	81.95	10.01	
2025-01-17 06:08:21.05	81.99	10.01	
2025-01-17 06:08:21.25	82.03	10.01	
2025-01-17 06:08:21.46	82.07	10.01	
2025-01-17 06:08:21.66	82.12	10.01	
2025-01-17 06:08:21.86	82.16	10.01	
2025-01-17 06:08:22.07	82.20	10.01	
2025-01-17 06:08:22.27	82.24	10.00	
2025-01-17 06:08:22.47	82.28	10.00	
2025-01-17 06:08:22.68	82.32	10.00	
2025-01-17 06:08:22.88	82.36	10.00	
2025-01-17 06:08:23.08	82.41	10.00	
2025-01-17 06:08:23.29	82.45	10.00	
2025-01-17 06:08:23.49	82.49	10.00	
2025-01-17 06:08:23.69	82.53	9.99	
2025-01-17 06:08:23.89	82.57	9.99	
2025-01-17 06:08:24.10	82.61	9.99	
2025-01-17 06:08:24.30	82.65	9.99	
2025-01-17 06:08:24.50	82.70	9.99	
2025-01-17 06:08:24.71	82.74	9.99	
2025-01-17 06:08:24.91	82.78	9.98	
2025-01-17 06:08:25.11	82.82	9.98	
2025-01-17 06:08:25.32	82.86	9.98	
2025-01-17 06:08:25.52	82.90	9.98	
2025-01-17 06:08:25.72	82.94	9.98	
2025-01-17 06:08:25.93	82.99	9.98	
2025-01-17 06:08:26.13	83.03	9.97	
2025-01-17 06:08:26.33	83.07	9.97	
2025-01-17 06:08:26.53	83.11	9.97	
2025-01-17 06:08:26.74	83.15	9.97	
2025-01-17 06:08:26.94	83.19	9.97	
2025-01-17 06:08:27.14	83.23	9.97	
2025-01-17 06:08:27.35	83.28	9.96	
2025-01-17 06:08:27.55	83.32	9.96	
2025-01-17 06:08:27.75	83.36	9.96	
2025-01-17 06:08:27.96	83.40	9.96	
2025-01-17 06:08:28.16	83.44	9.96	
2025-01-17 06:08:28.36	83.48	9.96	
2025-01-17 06:08:28.57	83.52	9.95	
2025-01-17 06:08:28.77	83.56	9.95	
2025-01-17 06:08:28.97	83.61	9.95	
2025-01-17 06:08:29.17	83.65	9.95	
2025-01-17 06:08:29.38	83.69	9.95	
2025-01-17 06:08:29.58	83.73	9.94	
2025-01-17 06:08:29.78	83.77	9.94	
2025-01-17 06:08:29.99	83.81	9.94	
2025-01-17 06:08:30.19	83.85	9.94	
2025-01-17 06:08:30.39	83.89	9.94	
2025-01-17 06:08:30.60	83.94	9.93	
2025-01-17 06:08:30.80	83.98	9.93	
2025-01-17 06:08:31.00	84.02	9.93	
2025-01-17 06:08:31.21	84.06	9.93	
2025-01-17 06:08:31.41	84.10	9.93	
2025-01-17 06:08:31.61	84.14	9.92	
2025-01-17 06:08:31.81	84.18	9.92	
2025-01-17 06:08:32.02	84.22	9.92	
2025-01-17 06:08:32.22	84.27	9.92	
2025-01-17 06:08:32.42	84.31	9.92	
2025-01-17 06:08:32.63	84.35	9.91	
2025-01-17 06:08:32.83	84.39	9.91	
2025-01-17 06:08:33.03	84.43	9.91	
2025-01-17 06:08:33.24	84.47	9.91	
2025-01-17 06:08:33.44	84.51	9.91	
2025-01-17 06:08:33.64	84.55	9.90	
2025-01-17 06:08:33.85	84.60	9.90	
2025-01-17 06:08:34.05	84.64	9.90	
2025-01-17 06:08:34.25	84.68	9.90	
2025-01-17 06:08:34.45	84.72	9.89	
2025-01-17 06:08:34.66	84.76	9.89	
2025-01-17 06:08:34.86	84.80	9.89	
2025-01-17 06:08:35.06	84.84	9.89	
2025-01-17 06:08:35.27	84.88	9.89	
2025-01-17 06:08:35.47	84.92	9.88	
2025-01-17 06:08:35.67	84.96	9.88	
2025-01-17 06:08:35.88	85.01	9.88	
2025-01-17 06:08:36.08	85.05	9.88	
2025-01-17 06:08:36.28	85.09	9.87	
2025-01-17 06:08:36.49	85.13	9.87	
2025-01-17 06:08:36.69	85.17	9.87	
2025-01-17 06:08:36.89	85.21	9.87	
2025-01-17 06:08:37.09	85.25	9.86	
2025-01-17 06:08:37.30	85.29	9.86	
2025-01-17 06:08:37.50	85.33	9.86	
2025-01-17 06:08:37.70	85.38	9.86	
2025-01-17 06:08:37.91	85.42	9.86	
2025-01-17 06:08:38.11	85.46	9.85	
2025-01-17 06:08:38.31	85.50	9.85	
2025-01-17 06:08:38.52	85.54	9.85	
2025-01-17 06:08:38.72	85.58	9.85	
2025-01-17 06:08:38.92	85.62	9.84	
2025-01-17 06:08:39.13	85.66	9.84	
2025-01-17 06:08:39.33	85.70	9.84	
2025-01-17 06:08:39.53	85.74	9.84	
2025-01-17 06:08:39.73	85.78	9.83	
2025-01-17 06:08:39.94	85.83	9.83	
2025-01-17 06:08:40.14	85.87	9.83	
2025-01-17 06:08:40.34	85.91	9.83	
2025-01-17 06:08:40.55	85.95	9.82	
2025-01-17 06:08:40.75	85.99	9.82	
2025-01-17 06:08:40.95	86.03	9.82	
2025-01-17 06:08:41.16	86.07	9.82	
2025-01-17 06:08:41.36	86.11	9.81	
2025-01-17 06:08:41.56	86.15	9.81	
2025-01-17 06:08:41.77	86.20	9.81	
2025-01-17 06:08:41.97	86.24	9.80	
2025-01-17 06:08:42.17	86.28	9.80	
2025-01-17 06:08:42.37	86.32	9.80	
2025-01-17 06:08:42.58	86.36	9.80	
2025-01-17 06:08:42.78	86.40	9.79	
2025-01-17 06:08:42.98	86.44	9.79	
2025-01-17 06:08:43.19	86.48	9.79	
2025-01-17 06:08:43.39	86.52	9.79	
2025-01-17 06:08:43.59	86.56	9.78	
2025-01-17 06:08:43.80	86.60	9.78	
2025-01-17 06:08:44.00	86.64	9.78	
2025-01-17 06:08:44.20	86.68	9.77	
2025-01-17 06:08:44.41	86.73	9.77	
2025-01-17 06:08:44.61	86.77	9.77	
2025-01-17 06:08:44.81	86.81	9.77	
2025-01-17 06:08:45.01	86.85	9.76	
2025-01-17 06:08:45.22	86.89	9.76	
2025-01-17 06:08:45.42	86.93	9.76	
2025-01-17 06:08:45.62	86.97	9.76	
2025-01-17 06:08:45.83	87.01	9.75	
2025-01-17 06:08:46.03	87.05	9.75	
2025-01-17 06:08:46.23	87.09	9.75	
2025-01-17 06:08:46.44	87.13	9.74	
2025-01-17 06:08:46.64	87.17	9.74	
2025-01-17 06:08:46.84	87.21	9.74	
2025-01-17 06:08:47.05	87.26	9.73	
2025-01-17 06:08:47.25	87.30	9.73	
2025-01-17 06:08:47.45	87.34	9.73	
2025-01-17 06:08:47.65	87.38	9.73	
2025-01-17 06:08:47.86	87.42	9.72	
2025-01-17 06:08:48.06	87.46	9.72	
2025-01-17 06:08:48.26	87.50	9.72	
2025-01-17 06:08:48.47	87.54	9.71	
2025-01-17 06:08:48.67	87.58	9.71	
2025-01-17 06:08:48.87	87.62	9.71	
2025-01-17 06:08:49.08	87.66	9.70	
2025-01-17 06:08:49.28	87.70	9.70	
2025-01-17 06:08:49.48	87.74	9.70	
2025-01-17 06:08:49.69	87.78	9.70	
2025-01-17 06:08:49.89	87.82	9.69	
2025-01-17 06:08:50.09	87.86	9.69	
2025-01-17 06:08:50.29	87.90	9.69	
2025-01-17 06:08:50.50	87.95	9.68	
2025-01-17 06:08:50.70	87.99	9.68	
2025-01-17 06:08:50.90	88.03	9.68	
2025-01-17 06:08:51.11	88.07	9.67	
2025-01-17 06:08:51.31	88.11	9.67	
2025-01-17 06:08:51.51	88.15	9.67	
2025-01-17 06:08:51.72	88.19	9.66	
2025-01-17 06:08:51.92	88.23	9.66	
2025-01-17 06:08:52.12	88.27	9.66	
2025-01-17 06:08:52.33	88.31	9.65	
2025-01-17 06:08:52.53	88.35	9.65	
2025-01-17 06:08:52.73	88.39	9.65	
2025-01-17 06:08:52.93	88.43	9.64	
2025-01-17 06:08:53.14	88.47	9.64	
2025-01-17 06:08:53.34	88.51	9.64	
2025-01-17 06:08:53.54	88.55	9.63	
2025-01-17 06:08:53.75	88.59	9.63	
2025-01-17 06:08:53.95	88.63	9.63	
2025-01-17 06:08:54.15	88.67	9.62	
2025-01-17 06:08:54.36	88.71	9.62	
2025-01-17 06:08:54.56	88.75	9.62	
2025-01-17 06:08:54.76	88.79	9.61	
2025-01-17 06:08:54.97	88.84	9.61	
2025-01-17 06:08:55.17	88.88	9.61	
2025-01-17 06:08:55.37	88.92	9.60	
2025-01-17 06:08:55.57	88.96	9.60	
2025-01-17 06:08:55.78	89.00	9.60	
2025-01-17 06:08:55.98	89.04	9.59	
2025-01-17 06:08:56.18	89.08	9.59	
2025-01-17 06:08:56.39	89.12	9.59	
2025-01-17 06:08:56.59	89.16	9.58	
2025-01-17 06:08:56.79	89.20	9.58	
2025-01-17 06:08:57.00	89.24	9.58	
2025-01-17 06:08:57.20	89.28	9.57	
2025-01-17 06:08:57.40	89.32	9.57	
2025-01-17 06:08:57.61	89.36	9.57	
2025-01-17 06:08:57.81	89.40	9.56	
2025-01-17 06:08:58.01	89.44	9.56	
2025-01-17 06:08:58.21	89.48	9.56	
2025-01-17 06:08:58.42	89.52	9.55	
2025-01-17 06:08:58.62	89.56	9.55	
2025-01-17 06:08:58.82	89.60	9.55	
2025-01-17 06:08:59.03	89.64	9.54	
2025-01-17 06:08:59.23	89.68	9.54	
2025-01-17 06:08:59.43	89.72	9.53	
2025-01-17 06:08:59.64	89.76	9.53	
2025-01-17 06:08:59.84	89.80	9.53	
2025-01-17 06:09:00.04	89.84	9.52	
2025-01-17 06:09:00.25	89.88	9.52	
2025-01-17 06:09:00.45	89.92	9.52	
2025-01-17 06:09:00.65	89.96	9.51	
2025-01-17 06:09:00.85	90.00	9.51	
2025-01-17 06:09:01.06	90.04	9.50	
2025-01-17 06:09:01.26	90.08	9.50	
2025-01-17 06:09:01.46	90.12	9.50	
2025-01-17 06:09:01.67	90.16	9.49	
2025-01-17 06:09:01.87	90.20	9.49	
2025-01-17 06:09:02.07	90.24	9.49	
2025-01-17 06:09:02.28	90.28	9.48	
2025-01-17 06:09:02.48	90.32	9.48	
2025-01-17 06:09:02.68	90.36	9.47	
2025-01-17 06:09:02.88	90.40	9.47	
2025-01-17 06:09:03.09	90.44	9.47	
2025-01-17 06:09:03.29	90.48	9.46	
2025-01-17 06:09:03.49	90.52	9.46	
2025-01-17 06:09:03.70	90.56	9.46	
2025-01-17 06:09:03.90	90.60	9.45	
2025-01-17 06:09:04.10	90.64	9.45	
2025-01-17 06:09:04.31	90.68	9.44	
2025-01-17 06:09:04.51	90.72	9.44	
2025-01-17 06:09:04.71	90.76	9.44	
2025-01-17 06:09:04.92	90.80	9.43	
2025-01-17 06:09:05.12	90.84	9.43	
2025-01-17 06:09:05.32	90.88	9.42	
2025-01-17 06:09:05.52	90.92	9.42	
2025-01-17 06:09:05.73	90.96	9.42	
2025-01-17 06:09:05.93	91.00	9.41	
2025-01-17 06:09:06.13	91.04	9.41	
2025-01-17 06:09:06.34	91.08	9.40	
2025-01-17 06:09:06.54	91.12	9.40	
2025-01-17 06:09:06.74	91.16	9.40	
2025-01-17 06:09:06.95	91.20	9.39	
2025-01-17 06:09:07.15	91.24	9.39	
2025-01-17 06:09:07.35	91.28	9.38	
2025-01-17 06:09:07.56	91.32	9.38	
2025-01-17 06:09:07.76	91.36	9.38	
2025-01-17 06:09:07.96	91.39	9.37	
2025-01-17 06:09:08.16	91.43	9.37	
2025-01-17 06:09:08.37	91.47	9.36	
2025-01-17 06:09:08.57	91.51	9.36	
2025-01-17 06:09:08.77	91.55	9.36	
2025-01-17 06:09:08.98	91.59	9.35	
2025-01-17 06:09:09.18	91.63	9.35	
2025-01-17 06:09:09.38	91.67	9.34	
2025-01-17 06:09:09.59	91.71	9.34	
2025-01-17 06:09:09.79	91.75	9.33	
2025-01-17 06:09:09.99	91.79	9.33	
2025-01-17 06:09:10.20	91.83	9.33	
2025-01-17 06:09:10.40	91.87	9.32	
2025-01-17 06:09:10.60	91.91	9.32	
2025-01-17 06:09:10.80	91.95	9.31	
2025-01-17 06:09:11.01	91.99	9.31	
2025-01-17 06:09:11.21	92.03	9.31	
2025-01-17 06:09:11.41	92.07	9.30	
2025-01-17 06:09:11.62	92.11	9.30	
2025-01-17 06:09:11.82	92.15	9.29	
2025-01-17 06:09:12.02	92.18	9.29	
2025-01-17 06:09:12.23	92.23	9.28	
2025-01-17 06:09:12.43	92.26	9.28	
2025-01-17 06:09:12.63	92.30	9.28	
2025-01-17 06:09:12.84	92.34	9.27	
2025-01-17 06:09:13.04	92.38	9.27	
2025-01-17 06:09:13.24	92.42	9.26	
2025-01-17 06:09:13.44	92.46	9.26	
2025-01-17 06:09:13.65	92.50	9.25	
2025-01-17 06:09:13.85	92.54	9.25	
2025-01-17 06:09:14.05	92.58	9.24	
2025-01-17 06:09:14.26	92.62	9.24	
2025-01-17 06:09:14.46	92.66	9.24	
2025-01-17 06:09:14.66	92.70	9.23	
2025-01-17 06:09:14.87	92.74	9.23	
2025-01-17 06:09:15.07	92.77	9.22	
2025-01-17 06:09:15.27	92.81	9.22	
2025-01-17 06:09:15.48	92.85	9.21	
2025-01-17 06:09:15.68	92.89	9.21	
2025-01-17 06:09:15.88	92.93	9.20	
2025-01-17 06:09:16.08	92.97	9.20	
2025-01-17 06:09:16.29	93.01	9.20	
2025-01-17 06:09:16.49	93.05	9.19	
2025-01-17 06:09:16.69	93.09	9.19	
2025-01-17 06:09:16.90	93.13	9.18	
2025-01-17 06:09:17.10	93.17	9.18	
2025-01-17 06:09:17.30	93.20	9.17	
2025-01-17 06:09:17.51	93.25	9.17	
2025-01-17 06:09:17.71	93.28	9.16	
2025-01-17 06:09:17.91	93.32	9.16	
2025-01-17 06:09:18.12	93.36	9.15	
2025-01-17 06:09:18.32	93.40	9.15	
2025-01-17 06:09:18.52	93.44	9.15	
2025-01-17 06:09:18.72	93.48	9.14	
2025-01-17 06:09:18.93	93.52	9.14	
2025-01-17 06:09:19.13	93.56	9.13	
2025-01-17 06:09:19.33	93.59	9.13	
2025-01-17 06:09:19.54	93.64	9.12	
2025-01-17 06:09:19.74	93.67	9.12	
2025-01-17 06:09:19.94	93.71	9.11	
2025-01-17 06:09:20.15	93.75	9.11	
2025-01-17 06:09:20.35	93.79	9.10	
2025-01-17 06:09:20.55	93.83	9.10	
2025-01-17 06:09:20.76	93.87	9.09	
2025-01-17 06:09:20.96	93.91	9.09	
2025-01-17 06:09:21.16	93.95	9.08	
2025-01-17 06:09:21.36	93.98	9.08	
2025-01-17 06:09:21.57	94.02	9.07	
2025-01-17 06:09:21.77	94.06	9.07	
2025-01-17 06:09:21.97	94.10	9.07	
2025-01-17 06:09:22.18	94.14	9.06	
2025-01-17 06:09:22.38	94.18	9.06	
2025-01-17 06:09:22.58	94.22	9.05	
2025-01-17 06:09:22.79	94.26	9.05	
2025-01-17 06:09:22.99	94.29	9.04	
2025-01-17 06:09:23.19	94.33	9.04	
2025-01-17 06:09:23.40	94.37	9.03	
2025-01-17 06:09:23.60	94.41	9.03	
2025-01-17 06:09:23.80	94.45	9.02	
2025-01-17 06:09:24.00	94.49	9.02	
2025-01-17 06:09:24.21	94.53	9.01	
2025-01-17 06:09:24.41	94.57	9.01	
2025-01-17 06:09:24.61	94.60	9.00	
2025-01-17 06:09:24.82	94.64	9.00	
2025-01-17 06:09:25.02	94.68	8.99	
2025-01-17 06:09:25.22	94.72	8.99	
2025-01-17 06:09:25.43	94.76	8.98	
2025-01-17 06:09:25.63	94.80	8.98	
2025-01-17 06:09:25.83	94.84	8.97	
2025-01-17 06:09:26.04	94.87	8.97	
2025-01-17 06:09:26.24	94.91	8.96	
2025-01-17 06:09:26.44	94.95	8.96	
2025-01-17 06:09:26.64	94.99	8.95	
2025-01-17 06:09:26.85	95.03	8.95	
2025-01-17 06:09:27.05	95.07	8.94	
2025-01-17 06:09:27.25	95.10	8.94	
2025-01-17 06:09:27.46	95.14	8.93	
2025-01-17 06:09:27.66	95.18	8.93	
2025-01-17 06:09:27.86	95.22	8.92	
2025-01-17 06:09:28.07	95.26	8.92	
2025-01-17 06:09:28.27	95.30	8.91	
2025-01-17 06:09:28.47	95.33	8.91	
2025-01-17 06:09:28.68	95.37	8.90	
2025-01-17 06:09:28.88	95.41	8.90	
2025-01-17 06:09:29.08	95.45	8.89	
2025-01-17 06:09:29.28	95.49	8.89	
2025-01-17 06:09:29.49	95.53	8.88	
2025-01-17 06:09:29.69	95.57	8.88	
2025-01-17 06:09:29.89	95.60	8.87	
2025-01-17 06:09:30.10	95.64	8.87	
2025-01-17 06:09:30.30	95.68	8.86	
2025-01-17 06:09:30.50	95.72	8.86	
2025-01-17 06:09:30.71	95.76	8.85	
2025-01-17 06:09:30.91	95.79	8.84	
2025-01-17 06:09:31.11	95.83	8.84	
2025-01-17 06:09:31.32	95.87	8.83	
2025-01-17 06:09:31.52	95.91	8.83	
2025-01-17 06:09:31.72	95.95	8.82	
2025-01-17 06:09:31.92	95.98	8.82	
2025-01-17 06:09:32.13	96.02	8.81	
2025-01-17 06:09:32.33	96.06	8.81	
2025-01-17 06:09:32.53	96.10	8.80	
2025-01-17 06:09:32.74	96.14	8.80	
2025-01-17 06:09:32.94	96.18	8.79	
2025-01-17 06:09:33.14	96.21	8.79	
2025-01-17 06:09:33.35	96.25	8.78	
2025-01-17 06:09:33.55	96.29	8.78	
2025-01-17 06:09:33.75	96.33	8.77	
2025-01-17 06:09:33.95	96.36	8.77	
2025-01-17 06:09:34.16	96.40	8.76	
2025-01-17 06:09:34.36	96.44	8.75	
2025-01-17 06:09:34.56	96.48	8.75	
2025-01-17 06:09:34.77	96.52	8.74	
2025-01-17 06:09:34.97	96.56	8.74	
2025-01-17 06:09:35.17	96.59	8.73	
2025-01-17 06:09:35.38	96.63	8.73	
2025-01-17 06:09:35.58	96.67	8.72	
2025-01-17 06:09:35.78	96.71	8.72	
2025-01-17 06:09:35.99	96.75	8.71	
2025-01-17 06:09:36.19	96.78	8.71	
2025-01-17 06:09:36.39	96.82	8.70	
2025-01-17 06:09:36.60	96.86	8.70	
2025-01-17 06:09:36.80	96.90	8.69	
2025-01-17 06:09:37.00	96.93	8.68	
2025-01-17 06:09:37.20	96.97	8.68	
2025-01-17 06:09:37.41	97.01	8.67	
2025-01-17 06:09:37.61	97.05	8.67	
2025-01-17 06:09:37.81	97.08	8.66	
2025-01-17 06:09:38.02	97.12	8.66	
2025-01-17 06:09:38.22	97.16	8.65	
2025-01-17 06:09:38.42	97.20	8.65	
2025-01-17 06:09:38.63	97.24	8.64	
2025-01-17 06:09:38.83	97.27	8.63	
2025-01-17 06:09:39.03	97.31	8.63	
2025-01-17 06:09:39.24	97.35	8.62	
2025-01-17 06:09:39.44	97.39	8.62	
2025-01-17 06:09:39.64	97.42	8.61	
2025-01-17 06:09:39.84	97.46	8.61	
2025-01-17 06:09:40.05	97.50	8.60	
2025-01-17 06:09:40.25	97.54	8.60	
2025-01-17 06:09:40.45	97.57	8.59	
2025-01-17 06:09:40.66	97.61	8.58	
2025-01-17 06:09:40.86	97.65	8.58	
2025-01-17 06:09:41.06	97.68	8.57	
2025-01-17 06:09:41.27	97.72	8.57	
2025-01-17 06:09:41.47	97.76	8.56	
2025-01-17 06:09:41.67	97.80	8.56	
2025-01-17 06:09:41.88	97.84	8.55	
2025-01-17 06:09:42.08	97.87	8.54	
2025-01-17 06:09:42.28	97.91	8.54	
2025-01-17 06:09:42.48	97.95	8.53	
2025-01-17 06:09:42.69	97.98	8.53	
2025-01-17 06:09:42.89	98.02	8.52	
2025-01-17 06:09:43.09	98.06	8.52	
2025-01-17 06:09:43.30	98.10	8.51	
2025-01-17 06:09:43.50	98.13	8.50	
2025-01-17 06:09:43.70	98.17	8.50	
2025-01-17 06:09:43.91	98.21	8.49	
2025-01-17 06:09:44.11	98.25	8.49	
2025-01-17 06:09:44.31	98.28	8.48	
2025-01-17 06:09:44.52	98.32	8.48	
2025-01-17 06:09:44.72	98.36	8.47	
2025-01-17 06:09:44.92	98.39	8.46	
2025-01-17 06:09:45.12	98.43	8.46	
2025-01-17 06:09:45.33	98.47	8.45	
2025-01-17 06:09:45.53	98.51	8.45	
2025-01-17 06:09:45.73	98.54	8.44	
2025-01-17 06:09:45.94	98.58	8.43	
2025-01-17 06:09:46.14	98.62	8.43	
2025-01-17 06:09:46.34	98.65	8.42	
2025-01-17 06:09:46.55	98.69	8.42	
2025-01-17 06:09:46.75	98.73	8.41	
2025-01-17 06:09:46.95	98.76	8.40	
2025-01-17 06:09:47.15	98.80	8.40	
2025-01-17 06:09:47.36	98.84	8.39	
2025-01-17 06:09:47.56	98.88	8.39	
2025-01-17 06:09:47.76	98.91	8.38	
2025-01-17 06:09:47.97	98.95	8.38	
2025-01-17 06:09:48.17	98.99	8.37	
2025-01-17 06:09:48.37	99.02	8.36	
2025-01-17 06:09:48.58	99.06	8.36	
2025-01-17 06:09:48.78	99.10	8.35	
2025-01-17 06:09:48.98	99.13	8.35	
2025-01-17 06:09:49.19	99.17	8.34	
2025-01-17 06:09:49.39	99.21	8.33	
2025-01-17 06:09:49.59	99.24	8.33	
2025-01-17 06:09:49.79	99.28	8.32	
2025-01-17 06:09:50.00	99.32	8.32	
2025-01-17 06:09:50.20	99.35	8.31	
2025-01-17 06:09:50.40	99.39	8.30	
2025-01-17 06:09:50.61	99.43	8.30	
2025-01-17 06:09:50.81	99.46	8.29	
2025-01-17 06:09:51.01	99.50	8.29	
2025-01-17 06:09:51.22	99.54	8.28	
2025-01-17 06:09:51.42	99.58	8.27	
2025-01-17 06:09:51.62	99.61	8.27	
2025-01-17 06:09:51.83	99.65	8.26	
2025-01-17 06:09:52.03	99.69	8.25	
2025-01-17 06:09:52.23	99.72	8.25	
2025-01-17 06:09:52.43	99.76	8.24	
2025-01-17 06:09:52.64	99.79	8.24	
2025-01-17 06:09:52.84	99.83	8.23	
2025-01-17 06:09:53.04	99.87	8.22	
2025-01-17 06:09:53.25	99.90	8.22	
2025-01-17 06:09:53.45	99.94	8.21	
2025-01-17 06:09:53.65	99.98	8.21	
2025-01-17 06:09:53.86	100.01	8.20	
2025-01-17 06:09:54.06	100.05	8.19	
2025-01-17 06:09:54.26	100.09	8.19	
2025-01-17 06:09:54.47	100.12	8.18	
2025-01-17 06:09:54.67	100.16	8.17	
2025-01-17 06:09:54.87	100.20	8.17	
2025-01-17 06:09:55.07	100.23	8.16	
2025-01-17 06:09:55.28	100.27	8.16	
2025-01-17 06:09:55.48	100.30	8.15	
2025-01-17 06:09:55.68	100.34	8.14	
2025-01-17 06:09:55.89	100.38	8.14	
