passes_logs/2025/01/17/SPB_Silybum_02/SPB_Silybum_02__20250117_031529_AQUA_rec.log

#Pass ID: 20250117_031529_AQUA
#Satellite: AQUA
#Configuration: AQUA
#Start time: 2025-01-17 03:15:30

#Version: 2.0.20230423
#Station: SPB_Silybum_02
#Location: 30.233357 lon 59.946436 lat
#TLE: 1 27424U 02022A   25016.17003800  .00001737  00000+0  36656-3 0  9994
#TLE: 2 27424  98.3591 332.8445 0001762 110.2278 308.2748 14.60686749207790

#Time	Az	El	Level	Level2	SNR	BER	Gain	Gain2
2025-01-17 03:15:32.56	9.54	4.18	
2025-01-17 03:15:32.76	9.52	4.19	
2025-01-17 03:15:32.97	9.50	4.20	
2025-01-17 03:15:33.17	9.48	4.21	
2025-01-17 03:15:33.37	9.46	4.23	
2025-01-17 03:15:33.58	9.44	4.24	
2025-01-17 03:15:33.78	9.42	4.25	
2025-01-17 03:15:33.98	9.40	4.26	
2025-01-17 03:15:34.18	9.39	4.27	
2025-01-17 03:15:34.39	9.37	4.29	
2025-01-17 03:15:34.59	9.35	4.30	
2025-01-17 03:15:34.79	9.33	4.31	
2025-01-17 03:15:35.00	9.31	4.32	
2025-01-17 03:15:35.20	9.29	4.33	
2025-01-17 03:15:35.40	9.27	4.35	
2025-01-17 03:15:35.61	9.25	4.36	
2025-01-17 03:15:35.81	9.23	4.37	
2025-01-17 03:15:36.01	9.21	4.38	
2025-01-17 03:15:36.22	9.20	4.40	
2025-01-17 03:15:36.42	9.18	4.41	
2025-01-17 03:15:36.62	9.16	4.42	
2025-01-17 03:15:36.82	9.14	4.43	
2025-01-17 03:15:37.03	9.12	4.44	
2025-01-17 03:15:37.23	9.10	4.46	
2025-01-17 03:15:37.43	9.08	4.47	
2025-01-17 03:15:37.64	9.06	4.48	
2025-01-17 03:15:37.84	9.04	4.49	
2025-01-17 03:15:38.04	9.02	4.51	
2025-01-17 03:15:38.25	9.00	4.52	
2025-01-17 03:15:38.45	8.99	4.53	
2025-01-17 03:15:38.65	8.97	4.54	
2025-01-17 03:15:38.86	8.95	4.55	
2025-01-17 03:15:39.06	8.93	4.57	
2025-01-17 03:15:39.26	8.91	4.58	
2025-01-17 03:15:39.46	8.89	4.59	
2025-01-17 03:15:39.67	8.87	4.60	
2025-01-17 03:15:39.87	8.85	4.62	
2025-01-17 03:15:40.07	8.83	4.63	
2025-01-17 03:15:40.28	8.81	4.64	
2025-01-17 03:15:40.48	8.79	4.65	
2025-01-17 03:15:40.68	8.77	4.66	
2025-01-17 03:15:40.89	8.75	4.68	
2025-01-17 03:15:41.09	8.73	4.69	
2025-01-17 03:15:41.29	8.71	4.70	
2025-01-17 03:15:41.50	8.69	4.71	
2025-01-17 03:15:41.70	8.67	4.73	
2025-01-17 03:15:41.90	8.66	4.74	
2025-01-17 03:15:42.11	8.64	4.75	
2025-01-17 03:15:42.31	8.62	4.76	
2025-01-17 03:15:42.51	8.60	4.77	
2025-01-17 03:15:42.71	8.58	4.79	
2025-01-17 03:15:42.92	8.56	4.80	
2025-01-17 03:15:43.12	8.54	4.81	
2025-01-17 03:15:43.32	8.52	4.82	
2025-01-17 03:15:43.53	8.50	4.84	
2025-01-17 03:15:43.73	8.48	4.85	
2025-01-17 03:15:43.93	8.46	4.86	
2025-01-17 03:15:44.14	8.44	4.87	
2025-01-17 03:15:44.34	8.42	4.89	
2025-01-17 03:15:44.54	8.40	4.90	
2025-01-17 03:15:44.76	8.38	4.91	
2025-01-17 03:15:44.96	8.36	4.92	
2025-01-17 03:15:45.16	8.34	4.93	
2025-01-17 03:15:45.36	8.32	4.95	
2025-01-17 03:15:45.57	8.30	4.96	
2025-01-17 03:15:45.77	8.28	4.97	
2025-01-17 03:15:45.97	8.26	4.98	
2025-01-17 03:15:46.18	8.24	5.00	
2025-01-17 03:15:46.38	8.22	5.01	
2025-01-17 03:15:46.58	8.20	5.02	
2025-01-17 03:15:46.79	8.18	5.03	
2025-01-17 03:15:46.99	8.16	5.05	
2025-01-17 03:15:47.19	8.14	5.06	
2025-01-17 03:15:47.40	8.12	5.07	
2025-01-17 03:15:47.60	8.10	5.08	
2025-01-17 03:15:47.80	8.08	5.10	
2025-01-17 03:15:48.00	8.06	5.11	
2025-01-17 03:15:48.21	8.04	5.12	
2025-01-17 03:15:48.41	8.02	5.13	
2025-01-17 03:15:48.61	8.00	5.14	
2025-01-17 03:15:48.82	7.98	5.16	
2025-01-17 03:15:49.02	7.96	5.17	
2025-01-17 03:15:49.22	7.94	5.18	
2025-01-17 03:15:49.43	7.92	5.19	
2025-01-17 03:15:49.63	7.90	5.21	
2025-01-17 03:15:49.83	7.88	5.22	
2025-01-17 03:15:50.04	7.86	5.23	
2025-01-17 03:15:50.24	7.84	5.24	
2025-01-17 03:15:50.44	7.82	5.26	
2025-01-17 03:15:50.65	7.80	5.27	
2025-01-17 03:15:50.85	7.78	5.28	
2025-01-17 03:15:51.05	7.76	5.29	
2025-01-17 03:15:51.27	7.73	5.31	
2025-01-17 03:15:51.47	7.71	5.32	
2025-01-17 03:15:51.67	7.69	5.33	
2025-01-17 03:15:51.87	7.67	5.34	
2025-01-17 03:15:52.08	7.65	5.36	
2025-01-17 03:15:52.28	7.63	5.37	
2025-01-17 03:15:52.48	7.61	5.38	
2025-01-17 03:15:52.69	7.59	5.39	
2025-01-17 03:15:52.89	7.57	5.41	
2025-01-17 03:15:53.09	7.55	5.42	
2025-01-17 03:15:53.30	7.53	5.43	
2025-01-17 03:15:53.50	7.51	5.44	
2025-01-17 03:15:53.70	7.49	5.46	
2025-01-17 03:15:53.91	7.47	5.47	
2025-01-17 03:15:54.11	7.45	5.48	
2025-01-17 03:15:54.31	7.43	5.49	
2025-01-17 03:15:54.51	7.41	5.51	
2025-01-17 03:15:54.72	7.38	5.52	
2025-01-17 03:15:54.92	7.36	5.53	
2025-01-17 03:15:55.12	7.34	5.54	
2025-01-17 03:15:55.33	7.32	5.56	
2025-01-17 03:15:55.53	7.30	5.57	
2025-01-17 03:15:55.73	7.28	5.58	
2025-01-17 03:15:55.94	7.26	5.59	
2025-01-17 03:15:56.14	7.24	5.61	
2025-01-17 03:15:56.34	7.22	5.62	
2025-01-17 03:15:56.55	7.20	5.63	
2025-01-17 03:15:56.75	7.18	5.64	
2025-01-17 03:15:56.95	7.15	5.66	
2025-01-17 03:15:57.15	7.13	5.67	
2025-01-17 03:15:57.36	7.11	5.68	
2025-01-17 03:15:57.56	7.09	5.69	
2025-01-17 03:15:57.76	7.07	5.71	
2025-01-17 03:15:57.97	7.05	5.72	
2025-01-17 03:15:58.17	7.03	5.73	
2025-01-17 03:15:58.37	7.01	5.74	
2025-01-17 03:15:58.58	6.99	5.76	
2025-01-17 03:15:58.78	6.96	5.77	
2025-01-17 03:15:58.98	6.94	5.78	
2025-01-17 03:15:59.19	6.92	5.79	
2025-01-17 03:15:59.39	6.90	5.81	
2025-01-17 03:15:59.59	6.88	5.82	
2025-01-17 03:15:59.79	6.86	5.83	
2025-01-17 03:16:00.00	6.84	5.84	
2025-01-17 03:16:00.20	6.82	5.86	
2025-01-17 03:16:00.40	6.80	5.87	
2025-01-17 03:16:00.61	6.77	5.88	
2025-01-17 03:16:00.81	6.75	5.89	
2025-01-17 03:16:01.01	6.73	5.91	
2025-01-17 03:16:01.22	6.71	5.92	
2025-01-17 03:16:01.42	6.69	5.93	
2025-01-17 03:16:01.62	6.67	5.94	
2025-01-17 03:16:01.83	6.64	5.96	
2025-01-17 03:16:02.03	6.62	5.97	
2025-01-17 03:16:02.23	6.60	5.98	
2025-01-17 03:16:02.44	6.58	5.99	
2025-01-17 03:16:02.64	6.56	6.01	
2025-01-17 03:16:02.84	6.54	6.02	
2025-01-17 03:16:03.04	6.52	6.03	
2025-01-17 03:16:03.25	6.49	6.04	
2025-01-17 03:16:03.45	6.47	6.06	
2025-01-17 03:16:03.65	6.45	6.07	
2025-01-17 03:16:03.86	6.43	6.08	
2025-01-17 03:16:04.06	6.41	6.09	
2025-01-17 03:16:04.26	6.39	6.11	
2025-01-17 03:16:04.47	6.36	6.12	
2025-01-17 03:16:04.67	6.34	6.13	
2025-01-17 03:16:04.87	6.32	6.15	
2025-01-17 03:16:05.07	6.30	6.16	
2025-01-17 03:16:05.28	6.28	6.17	
2025-01-17 03:16:05.48	6.26	6.18	
2025-01-17 03:16:05.68	6.23	6.20	
2025-01-17 03:16:05.89	6.21	6.21	
2025-01-17 03:16:06.09	6.19	6.22	
2025-01-17 03:16:06.29	6.17	6.23	
2025-01-17 03:16:06.50	6.14	6.25	
2025-01-17 03:16:06.70	6.12	6.26	
2025-01-17 03:16:06.90	6.10	6.27	
2025-01-17 03:16:07.11	6.08	6.28	
2025-01-17 03:16:07.32	6.06	6.30	
2025-01-17 03:16:07.52	6.03	6.31	
2025-01-17 03:16:07.72	6.01	6.32	
2025-01-17 03:16:07.93	5.99	6.34	
2025-01-17 03:16:08.13	5.97	6.35	
2025-01-17 03:16:08.33	5.95	6.36	
2025-01-17 03:16:08.54	5.92	6.37	
2025-01-17 03:16:08.74	5.90	6.39	
2025-01-17 03:16:08.94	5.88	6.40	
2025-01-17 03:16:09.15	5.86	6.41	
2025-01-17 03:16:09.35	5.83	6.42	
2025-01-17 03:16:09.55	5.81	6.44	
2025-01-17 03:16:09.76	5.79	6.45	
2025-01-17 03:16:09.96	5.77	6.46	
2025-01-17 03:16:10.16	5.75	6.47	
2025-01-17 03:16:10.36	5.72	6.49	
2025-01-17 03:16:10.57	5.70	6.50	
2025-01-17 03:16:10.77	5.68	6.51	
2025-01-17 03:16:10.97	5.66	6.53	
2025-01-17 03:16:11.18	5.63	6.54	
2025-01-17 03:16:11.38	5.61	6.55	
2025-01-17 03:16:11.58	5.59	6.56	
2025-01-17 03:16:11.79	5.57	6.58	
2025-01-17 03:16:11.99	5.54	6.59	
2025-01-17 03:16:12.19	5.52	6.60	
2025-01-17 03:16:12.40	5.50	6.62	
2025-01-17 03:16:12.60	5.48	6.63	
2025-01-17 03:16:12.80	5.45	6.64	
2025-01-17 03:16:13.00	5.43	6.65	
2025-01-17 03:16:13.21	5.41	6.67	
2025-01-17 03:16:13.41	5.38	6.68	
2025-01-17 03:16:13.61	5.36	6.69	
2025-01-17 03:16:13.82	5.34	6.70	
2025-01-17 03:16:14.02	5.32	6.72	
2025-01-17 03:16:14.22	5.29	6.73	
2025-01-17 03:16:14.43	5.27	6.74	
2025-01-17 03:16:14.63	5.25	6.76	
2025-01-17 03:16:14.83	5.23	6.77	
2025-01-17 03:16:15.04	5.20	6.78	
2025-01-17 03:16:15.24	5.18	6.79	
2025-01-17 03:16:15.44	5.16	6.81	
2025-01-17 03:16:15.64	5.13	6.82	
2025-01-17 03:16:15.85	5.11	6.83	
2025-01-17 03:16:16.05	5.09	6.84	
2025-01-17 03:16:16.25	5.07	6.86	
2025-01-17 03:16:16.46	5.04	6.87	
2025-01-17 03:16:16.66	5.02	6.88	
2025-01-17 03:16:16.86	5.00	6.90	
2025-01-17 03:16:17.07	4.97	6.91	
2025-01-17 03:16:17.27	4.95	6.92	
2025-01-17 03:16:17.47	4.93	6.93	
2025-01-17 03:16:17.68	4.90	6.95	
2025-01-17 03:16:17.88	4.88	6.96	
2025-01-17 03:16:18.08	4.86	6.97	
2025-01-17 03:16:18.28	4.83	6.99	
2025-01-17 03:16:18.49	4.81	7.00	
2025-01-17 03:16:18.69	4.79	7.01	
2025-01-17 03:16:18.89	4.76	7.02	
2025-01-17 03:16:19.10	4.74	7.04	
2025-01-17 03:16:19.30	4.72	7.05	
2025-01-17 03:16:19.50	4.69	7.06	
2025-01-17 03:16:19.71	4.67	7.08	
2025-01-17 03:16:19.91	4.65	7.09	
2025-01-17 03:16:20.11	4.62	7.10	
2025-01-17 03:16:20.32	4.60	7.11	
2025-01-17 03:16:20.52	4.58	7.13	
2025-01-17 03:16:20.72	4.55	7.14	
2025-01-17 03:16:20.92	4.53	7.15	
2025-01-17 03:16:21.13	4.51	7.17	
2025-01-17 03:16:21.33	4.48	7.18	
2025-01-17 03:16:21.53	4.46	7.19	
2025-01-17 03:16:21.74	4.43	7.20	
2025-01-17 03:16:21.94	4.41	7.22	
2025-01-17 03:16:22.14	4.39	7.23	
2025-01-17 03:16:22.35	4.36	7.24	
2025-01-17 03:16:22.55	4.34	7.26	
2025-01-17 03:16:22.75	4.32	7.27	
2025-01-17 03:16:22.96	4.29	7.28	
2025-01-17 03:16:23.16	4.27	7.29	
2025-01-17 03:16:23.36	4.24	7.31	
2025-01-17 03:16:23.56	4.22	7.32	
2025-01-17 03:16:23.77	4.20	7.33	
2025-01-17 03:16:23.97	4.17	7.35	
2025-01-17 03:16:24.17	4.15	7.36	
2025-01-17 03:16:24.38	4.12	7.37	
2025-01-17 03:16:24.58	4.10	7.38	
2025-01-17 03:16:24.78	4.08	7.40	
2025-01-17 03:16:24.99	4.05	7.41	
2025-01-17 03:16:25.19	4.03	7.42	
2025-01-17 03:16:25.39	4.01	7.44	
2025-01-17 03:16:25.60	3.98	7.45	
2025-01-17 03:16:25.80	3.96	7.46	
2025-01-17 03:16:26.00	3.93	7.47	
2025-01-17 03:16:26.20	3.91	7.49	
2025-01-17 03:16:26.41	3.88	7.50	
2025-01-17 03:16:26.61	3.86	7.51	
2025-01-17 03:16:26.81	3.84	7.53	
2025-01-17 03:16:27.02	3.81	7.54	
2025-01-17 03:16:27.22	3.79	7.55	
2025-01-17 03:16:27.42	3.76	7.56	
2025-01-17 03:16:27.63	3.74	7.58	
2025-01-17 03:16:27.83	3.71	7.59	
2025-01-17 03:16:28.03	3.69	7.60	
2025-01-17 03:16:28.24	3.67	7.62	
2025-01-17 03:16:28.44	3.64	7.63	
2025-01-17 03:16:28.64	3.62	7.64	
2025-01-17 03:16:28.85	3.59	7.66	
2025-01-17 03:16:29.05	3.57	7.67	
2025-01-17 03:16:29.25	3.54	7.68	
2025-01-17 03:16:29.45	3.52	7.69	
2025-01-17 03:16:29.66	3.49	7.71	
2025-01-17 03:16:29.86	3.47	7.72	
2025-01-17 03:16:30.06	3.45	7.73	
2025-01-17 03:16:30.27	3.42	7.75	
2025-01-17 03:16:30.47	3.40	7.76	
2025-01-17 03:16:30.67	3.37	7.77	
2025-01-17 03:16:30.88	3.35	7.79	
2025-01-17 03:16:31.08	3.32	7.80	
2025-01-17 03:16:31.28	3.30	7.81	
2025-01-17 03:16:31.49	3.27	7.82	
2025-01-17 03:16:31.69	3.25	7.84	
2025-01-17 03:16:31.89	3.22	7.85	
2025-01-17 03:16:32.09	3.20	7.86	
2025-01-17 03:16:32.30	3.17	7.88	
2025-01-17 03:16:32.50	3.15	7.89	
2025-01-17 03:16:32.70	3.12	7.90	
2025-01-17 03:16:32.91	3.10	7.92	
2025-01-17 03:16:33.11	3.07	7.93	
2025-01-17 03:16:33.31	3.05	7.94	
2025-01-17 03:16:33.52	3.02	7.95	
2025-01-17 03:16:33.72	3.00	7.97	
2025-01-17 03:16:33.92	2.97	7.98	
2025-01-17 03:16:34.13	2.95	7.99	
2025-01-17 03:16:34.33	2.92	8.01	
2025-01-17 03:16:34.53	2.90	8.02	
2025-01-17 03:16:34.73	2.87	8.03	
2025-01-17 03:16:34.94	2.85	8.05	
2025-01-17 03:16:35.14	2.82	8.06	
2025-01-17 03:16:35.34	2.80	8.07	
2025-01-17 03:16:35.55	2.77	8.09	
2025-01-17 03:16:35.75	2.75	8.10	
2025-01-17 03:16:35.95	2.72	8.11	
2025-01-17 03:16:36.16	2.69	8.12	
2025-01-17 03:16:36.36	2.67	8.14	
2025-01-17 03:16:36.56	2.64	8.15	
2025-01-17 03:16:36.77	2.62	8.16	
2025-01-17 03:16:36.97	2.59	8.18	
2025-01-17 03:16:37.17	2.57	8.19	
2025-01-17 03:16:37.37	2.54	8.20	
2025-01-17 03:16:37.58	2.52	8.22	
2025-01-17 03:16:37.78	2.49	8.23	
2025-01-17 03:16:37.98	2.47	8.24	
2025-01-17 03:16:38.19	2.44	8.26	
2025-01-17 03:16:38.39	2.41	8.27	
2025-01-17 03:16:38.59	2.39	8.28	
2025-01-17 03:16:38.80	2.36	8.29	
2025-01-17 03:16:39.00	2.34	8.31	
2025-01-17 03:16:39.20	2.31	8.32	
2025-01-17 03:16:39.41	2.29	8.33	
2025-01-17 03:16:39.61	2.26	8.35	
2025-01-17 03:16:39.81	2.23	8.36	
2025-01-17 03:16:40.01	2.21	8.37	
2025-01-17 03:16:40.22	2.18	8.39	
2025-01-17 03:16:40.42	2.16	8.40	
2025-01-17 03:16:40.62	2.13	8.41	
2025-01-17 03:16:40.83	2.10	8.43	
2025-01-17 03:16:41.03	2.08	8.44	
2025-01-17 03:16:41.23	2.05	8.45	
2025-01-17 03:16:41.44	2.03	8.46	
2025-01-17 03:16:41.64	2.00	8.48	
2025-01-17 03:16:41.84	1.97	8.49	
2025-01-17 03:16:42.05	1.95	8.50	
2025-01-17 03:16:42.25	1.92	8.52	
2025-01-17 03:16:42.45	1.90	8.53	
2025-01-17 03:16:42.65	1.87	8.54	
2025-01-17 03:16:42.86	1.84	8.56	
2025-01-17 03:16:43.06	1.82	8.57	
2025-01-17 03:16:43.26	1.79	8.58	
2025-01-17 03:16:43.47	1.76	8.60	
2025-01-17 03:16:43.67	1.74	8.61	
2025-01-17 03:16:43.87	1.71	8.62	
2025-01-17 03:16:44.08	1.69	8.64	
2025-01-17 03:16:44.28	1.66	8.65	
2025-01-17 03:16:44.48	1.63	8.66	
2025-01-17 03:16:44.69	1.61	8.67	
2025-01-17 03:16:44.89	1.58	8.69	
2025-01-17 03:16:45.09	1.55	8.70	
2025-01-17 03:16:45.29	1.53	8.71	
2025-01-17 03:16:45.50	1.50	8.73	
2025-01-17 03:16:45.70	1.47	8.74	
2025-01-17 03:16:45.90	1.45	8.75	
2025-01-17 03:16:46.11	1.42	8.77	
2025-01-17 03:16:46.31	1.39	8.78	
2025-01-17 03:16:46.51	1.37	8.79	
2025-01-17 03:16:46.72	1.34	8.81	
2025-01-17 03:16:46.92	1.31	8.82	
2025-01-17 03:16:47.12	1.29	8.83	
2025-01-17 03:16:47.33	1.26	8.85	
2025-01-17 03:16:47.53	1.23	8.86	
2025-01-17 03:16:47.73	1.21	8.87	
2025-01-17 03:16:47.93	1.18	8.88	
2025-01-17 03:16:48.14	1.15	8.90	
2025-01-17 03:16:48.34	1.13	8.91	
2025-01-17 03:16:48.54	1.10	8.92	
2025-01-17 03:16:48.75	1.07	8.94	
2025-01-17 03:16:48.95	1.04	8.95	
2025-01-17 03:16:49.15	1.02	8.96	
2025-01-17 03:16:49.36	0.99	8.98	
2025-01-17 03:16:49.56	0.96	8.99	
2025-01-17 03:16:49.76	0.94	9.00	
2025-01-17 03:16:49.97	0.91	9.02	
2025-01-17 03:16:50.17	0.88	9.03	
2025-01-17 03:16:50.37	0.86	9.04	
2025-01-17 03:16:50.57	0.83	9.06	
2025-01-17 03:16:50.78	0.80	9.07	
2025-01-17 03:16:50.98	0.77	9.08	
2025-01-17 03:16:51.18	0.75	9.10	
2025-01-17 03:16:51.39	0.72	9.11	
2025-01-17 03:16:51.59	0.69	9.12	
2025-01-17 03:16:51.79	0.66	9.14	
2025-01-17 03:16:52.00	0.64	9.15	
2025-01-17 03:16:52.20	0.61	9.16	
2025-01-17 03:16:52.40	0.58	9.18	
2025-01-17 03:16:52.61	0.55	9.19	
2025-01-17 03:16:52.81	0.53	9.20	
2025-01-17 03:16:53.01	0.50	9.22	
2025-01-17 03:16:53.22	0.47	9.23	
2025-01-17 03:16:53.42	0.44	9.24	
2025-01-17 03:16:53.62	0.42	9.25	
2025-01-17 03:16:53.82	0.39	9.27	
2025-01-17 03:16:54.03	0.36	9.28	
2025-01-17 03:16:54.23	0.33	9.29	
2025-01-17 03:16:54.43	0.31	9.31	
2025-01-17 03:16:54.64	0.28	9.32	
2025-01-17 03:16:54.84	0.25	9.33	
2025-01-17 03:16:55.04	0.22	9.35	
2025-01-17 03:16:55.25	0.19	9.36	
2025-01-17 03:16:55.45	0.17	9.37	
2025-01-17 03:16:55.65	0.14	9.39	
2025-01-17 03:16:55.86	0.11	9.40	
2025-01-17 03:16:56.06	0.08	9.41	
2025-01-17 03:16:56.26	0.05	9.43	
2025-01-17 03:16:56.46	0.03	9.44	
2025-01-17 03:16:56.67	360.00	9.45	
2025-01-17 03:16:56.87	359.97	9.47	
2025-01-17 03:16:57.07	359.94	9.48	
2025-01-17 03:16:57.28	359.91	9.49	
2025-01-17 03:16:57.48	359.89	9.51	
2025-01-17 03:16:57.68	359.86	9.52	
2025-01-17 03:16:57.89	359.83	9.53	
2025-01-17 03:16:58.09	359.80	9.55	
2025-01-17 03:16:58.29	359.77	9.56	
2025-01-17 03:16:58.50	359.74	9.57	
2025-01-17 03:16:58.70	359.72	9.59	
2025-01-17 03:16:58.90	359.69	9.60	
2025-01-17 03:16:59.10	359.66	9.61	
2025-01-17 03:16:59.31	359.63	9.63	
2025-01-17 03:16:59.51	359.60	9.64	
2025-01-17 03:16:59.71	359.57	9.65	
2025-01-17 03:16:59.92	359.54	9.67	
2025-01-17 03:17:00.12	359.52	9.68	
2025-01-17 03:17:00.32	359.49	9.69	
2025-01-17 03:17:00.53	359.46	9.71	
2025-01-17 03:17:00.73	359.43	9.72	
2025-01-17 03:17:00.93	359.40	9.73	
2025-01-17 03:17:01.14	359.37	9.75	
2025-01-17 03:17:01.34	359.34	9.76	
2025-01-17 03:17:01.54	359.32	9.77	
2025-01-17 03:17:01.74	359.29	9.79	
2025-01-17 03:17:01.95	359.26	9.80	
2025-01-17 03:17:02.15	359.23	9.81	
2025-01-17 03:17:02.35	359.20	9.83	
2025-01-17 03:17:02.56	359.17	9.84	
2025-01-17 03:17:02.76	359.14	9.85	
2025-01-17 03:17:02.96	359.11	9.87	
2025-01-17 03:17:03.17	359.08	9.88	
2025-01-17 03:17:03.37	359.06	9.89	
2025-01-17 03:17:03.57	359.03	9.91	
2025-01-17 03:17:03.78	359.00	9.92	
2025-01-17 03:17:03.98	358.97	9.93	
2025-01-17 03:17:04.18	358.94	9.95	
2025-01-17 03:17:04.38	358.91	9.96	
2025-01-17 03:17:04.59	358.88	9.97	
2025-01-17 03:17:04.79	358.85	9.99	
2025-01-17 03:17:04.99	358.82	10.00	
2025-01-17 03:17:05.20	358.79	10.01	
2025-01-17 03:17:05.40	358.76	10.03	
2025-01-17 03:17:05.60	358.73	10.04	
2025-01-17 03:17:05.81	358.70	10.05	
2025-01-17 03:17:06.01	358.68	10.07	
2025-01-17 03:17:06.21	358.65	10.08	
2025-01-17 03:17:06.42	358.62	10.09	
2025-01-17 03:17:06.62	358.59	10.11	
2025-01-17 03:17:06.82	358.56	10.12	
2025-01-17 03:17:07.02	358.53	10.13	
2025-01-17 03:17:07.23	358.50	10.15	
2025-01-17 03:17:07.43	358.47	10.16	
2025-01-17 03:17:07.63	358.44	10.17	
2025-01-17 03:17:07.84	358.41	10.19	
2025-01-17 03:17:08.04	358.38	10.20	
2025-01-17 03:17:08.24	358.35	10.21	
2025-01-17 03:17:08.45	358.32	10.23	
2025-01-17 03:17:08.65	358.29	10.24	
2025-01-17 03:17:08.85	358.26	10.25	
2025-01-17 03:17:09.06	358.23	10.27	
2025-01-17 03:17:09.26	358.20	10.28	
2025-01-17 03:17:09.46	358.17	10.29	
2025-01-17 03:17:09.66	358.14	10.30	
2025-01-17 03:17:09.87	358.11	10.32	
2025-01-17 03:17:10.07	358.08	10.33	
2025-01-17 03:17:10.27	358.05	10.34	
2025-01-17 03:17:10.48	358.02	10.36	
2025-01-17 03:17:10.68	357.99	10.37	
2025-01-17 03:17:10.88	357.96	10.38	
2025-01-17 03:17:11.09	357.93	10.40	
2025-01-17 03:17:11.29	357.90	10.41	
2025-01-17 03:17:11.49	357.87	10.42	
2025-01-17 03:17:11.70	357.84	10.44	
2025-01-17 03:17:11.90	357.81	10.45	
2025-01-17 03:17:12.10	357.78	10.46	
2025-01-17 03:17:12.30	357.75	10.48	
2025-01-17 03:17:12.51	357.72	10.49	
2025-01-17 03:17:12.71	357.69	10.51	
2025-01-17 03:17:12.91	357.66	10.52	
2025-01-17 03:17:13.12	357.63	10.53	
2025-01-17 03:17:13.32	357.60	10.55	
2025-01-17 03:17:13.52	357.57	10.56	
2025-01-17 03:17:13.73	357.54	10.57	
2025-01-17 03:17:13.93	357.51	10.59	
2025-01-17 03:17:14.13	357.48	10.60	
2025-01-17 03:17:14.34	357.44	10.61	
2025-01-17 03:17:14.54	357.41	10.63	
2025-01-17 03:17:14.74	357.38	10.64	
2025-01-17 03:17:14.94	357.35	10.65	
2025-01-17 03:17:15.15	357.32	10.67	
2025-01-17 03:17:15.35	357.29	10.68	
2025-01-17 03:17:15.55	357.26	10.69	
2025-01-17 03:17:15.76	357.23	10.71	
2025-01-17 03:17:15.96	357.20	10.72	
2025-01-17 03:17:16.16	357.17	10.73	
2025-01-17 03:17:16.37	357.14	10.75	
2025-01-17 03:17:16.57	357.11	10.76	
2025-01-17 03:17:16.77	357.07	10.77	
2025-01-17 03:17:16.98	357.04	10.79	
2025-01-17 03:17:17.18	357.01	10.80	
2025-01-17 03:17:17.38	356.98	10.81	
2025-01-17 03:17:17.59	356.95	10.83	
2025-01-17 03:17:17.79	356.92	10.84	
2025-01-17 03:17:17.99	356.89	10.85	
2025-01-17 03:17:18.19	356.86	10.87	
2025-01-17 03:17:18.40	356.82	10.88	
2025-01-17 03:17:18.60	356.79	10.89	
2025-01-17 03:17:18.80	356.76	10.91	
2025-01-17 03:17:19.01	356.73	10.92	
2025-01-17 03:17:19.21	356.70	10.93	
2025-01-17 03:17:19.41	356.67	10.95	
2025-01-17 03:17:19.62	356.64	10.96	
2025-01-17 03:17:19.82	356.61	10.97	
2025-01-17 03:17:20.02	356.57	10.99	
2025-01-17 03:17:20.23	356.54	11.00	
2025-01-17 03:17:20.43	356.51	11.01	
2025-01-17 03:17:20.63	356.48	11.03	
2025-01-17 03:17:20.83	356.45	11.04	
2025-01-17 03:17:21.04	356.42	11.05	
2025-01-17 03:17:21.24	356.38	11.07	
2025-01-17 03:17:21.44	356.35	11.08	
2025-01-17 03:17:21.65	356.32	11.09	
2025-01-17 03:17:21.85	356.29	11.11	
2025-01-17 03:17:22.05	356.26	11.12	
2025-01-17 03:17:22.26	356.22	11.13	
2025-01-17 03:17:22.46	356.19	11.15	
2025-01-17 03:17:22.66	356.16	11.16	
2025-01-17 03:17:22.87	356.13	11.17	
2025-01-17 03:17:23.07	356.10	11.19	
2025-01-17 03:17:23.27	356.07	11.20	
2025-01-17 03:17:23.47	356.03	11.21	
2025-01-17 03:17:23.68	356.00	11.23	
2025-01-17 03:17:23.88	355.97	11.24	
2025-01-17 03:17:24.08	355.94	11.25	
2025-01-17 03:17:24.29	355.90	11.27	
2025-01-17 03:17:24.49	355.87	11.28	
2025-01-17 03:17:24.69	355.84	11.29	
2025-01-17 03:17:24.90	355.81	11.31	
2025-01-17 03:17:25.10	355.78	11.32	
2025-01-17 03:17:25.30	355.74	11.33	
2025-01-17 03:17:25.51	355.71	11.35	
2025-01-17 03:17:25.71	355.68	11.36	
2025-01-17 03:17:25.91	355.65	11.37	
2025-01-17 03:17:26.11	355.61	11.39	
2025-01-17 03:17:26.32	355.58	11.40	
2025-01-17 03:17:26.52	355.55	11.41	
2025-01-17 03:17:26.72	355.52	11.43	
2025-01-17 03:17:26.93	355.48	11.44	
2025-01-17 03:17:27.13	355.45	11.45	
2025-01-17 03:17:27.33	355.42	11.47	
2025-01-17 03:17:27.54	355.38	11.48	
2025-01-17 03:17:27.74	355.35	11.49	
2025-01-17 03:17:27.94	355.32	11.51	
2025-01-17 03:17:28.15	355.29	11.52	
2025-01-17 03:17:28.35	355.25	11.53	
2025-01-17 03:17:28.55	355.22	11.55	
2025-01-17 03:17:28.75	355.19	11.56	
2025-01-17 03:17:28.96	355.16	11.57	
2025-01-17 03:17:29.16	355.12	11.59	
2025-01-17 03:17:29.36	355.09	11.60	
2025-01-17 03:17:29.57	355.06	11.61	
2025-01-17 03:17:29.77	355.02	11.63	
2025-01-17 03:17:29.97	354.99	11.64	
2025-01-17 03:17:30.18	354.96	11.65	
2025-01-17 03:17:30.38	354.92	11.67	
2025-01-17 03:17:30.58	354.89	11.68	
2025-01-17 03:17:30.79	354.86	11.69	
2025-01-17 03:17:30.99	354.82	11.71	
2025-01-17 03:17:31.19	354.79	11.72	
2025-01-17 03:17:31.39	354.76	11.73	
2025-01-17 03:17:31.60	354.72	11.75	
2025-01-17 03:17:31.80	354.69	11.76	
2025-01-17 03:17:32.00	354.66	11.77	
2025-01-17 03:17:32.21	354.62	11.79	
2025-01-17 03:17:32.41	354.59	11.80	
2025-01-17 03:17:32.61	354.56	11.81	
2025-01-17 03:17:32.82	354.52	11.83	
2025-01-17 03:17:33.02	354.49	11.84	
2025-01-17 03:17:33.22	354.46	11.85	
2025-01-17 03:17:33.43	354.42	11.87	
2025-01-17 03:17:33.63	354.39	11.88	
2025-01-17 03:17:33.83	354.36	11.89	
2025-01-17 03:17:34.03	354.32	11.91	
2025-01-17 03:17:34.24	354.29	11.92	
2025-01-17 03:17:34.44	354.25	11.93	
2025-01-17 03:17:34.64	354.22	11.95	
2025-01-17 03:17:34.85	354.19	11.96	
2025-01-17 03:17:35.05	354.15	11.97	
2025-01-17 03:17:35.25	354.12	11.99	
2025-01-17 03:17:35.46	354.08	12.00	
2025-01-17 03:17:35.66	354.05	12.01	
2025-01-17 03:17:35.86	354.02	12.03	
2025-01-17 03:17:36.07	353.98	12.04	
2025-01-17 03:17:36.27	353.95	12.05	
2025-01-17 03:17:36.47	353.91	12.07	
2025-01-17 03:17:36.67	353.88	12.08	
2025-01-17 03:17:36.88	353.85	12.09	
2025-01-17 03:17:37.08	353.81	12.11	
2025-01-17 03:17:37.28	353.78	12.12	
2025-01-17 03:17:37.49	353.74	12.13	
2025-01-17 03:17:37.69	353.71	12.15	
2025-01-17 03:17:37.89	353.67	12.16	
2025-01-17 03:17:38.10	353.64	12.17	
2025-01-17 03:17:38.30	353.60	12.19	
2025-01-17 03:17:38.50	353.57	12.20	
2025-01-17 03:17:38.71	353.54	12.21	
2025-01-17 03:17:38.91	353.50	12.23	
2025-01-17 03:17:39.11	353.47	12.24	
2025-01-17 03:17:39.31	353.43	12.25	
2025-01-17 03:17:39.52	353.40	12.27	
2025-01-17 03:17:39.72	353.36	12.28	
2025-01-17 03:17:39.92	353.33	12.29	
2025-01-17 03:17:40.13	353.29	12.31	
2025-01-17 03:17:40.33	353.26	12.32	
2025-01-17 03:17:40.53	353.22	12.33	
2025-01-17 03:17:40.74	353.19	12.35	
2025-01-17 03:17:40.94	353.15	12.36	
2025-01-17 03:17:41.14	353.12	12.37	
2025-01-17 03:17:41.35	353.08	12.39	
2025-01-17 03:17:41.55	353.05	12.40	
2025-01-17 03:17:41.75	353.01	12.41	
2025-01-17 03:17:41.96	352.98	12.43	
2025-01-17 03:17:42.16	352.94	12.44	
2025-01-17 03:17:42.36	352.91	12.45	
2025-01-17 03:17:42.56	352.87	12.46	
2025-01-17 03:17:42.77	352.84	12.48	
2025-01-17 03:17:42.97	352.80	12.49	
2025-01-17 03:17:43.17	352.77	12.50	
2025-01-17 03:17:43.38	352.73	12.52	
2025-01-17 03:17:43.58	352.70	12.53	
2025-01-17 03:17:43.78	352.66	12.54	
2025-01-17 03:17:43.99	352.63	12.56	
2025-01-17 03:17:44.19	352.59	12.57	
2025-01-17 03:17:44.39	352.56	12.58	
2025-01-17 03:17:44.60	352.52	12.60	
2025-01-17 03:17:44.80	352.48	12.61	
2025-01-17 03:17:45.00	352.45	12.62	
2025-01-17 03:17:45.20	352.41	12.64	
2025-01-17 03:17:45.41	352.38	12.65	
2025-01-17 03:17:45.61	352.34	12.66	
2025-01-17 03:17:45.81	352.31	12.68	
2025-01-17 03:17:46.02	352.27	12.69	
2025-01-17 03:17:46.22	352.23	12.70	
2025-01-17 03:17:46.42	352.20	12.72	
2025-01-17 03:17:46.63	352.16	12.73	
2025-01-17 03:17:46.83	352.13	12.74	
2025-01-17 03:17:47.03	352.09	12.76	
2025-01-17 03:17:47.24	352.05	12.77	
2025-01-17 03:17:47.44	352.02	12.78	
2025-01-17 03:17:47.64	351.98	12.80	
2025-01-17 03:17:47.84	351.95	12.81	
2025-01-17 03:17:48.05	351.91	12.82	
2025-01-17 03:17:48.25	351.87	12.83	
2025-01-17 03:17:48.45	351.84	12.85	
2025-01-17 03:17:48.66	351.80	12.86	
2025-01-17 03:17:48.86	351.76	12.87	
2025-01-17 03:17:49.06	351.73	12.89	
2025-01-17 03:17:49.27	351.69	12.90	
2025-01-17 03:17:49.47	351.66	12.91	
2025-01-17 03:17:49.67	351.62	12.93	
2025-01-17 03:17:49.88	351.58	12.94	
2025-01-17 03:17:50.08	351.55	12.95	
2025-01-17 03:17:50.28	351.51	12.97	
2025-01-17 03:17:50.48	351.47	12.98	
2025-01-17 03:17:50.69	351.44	12.99	
2025-01-17 03:17:50.89	351.40	13.01	
2025-01-17 03:17:51.09	351.36	13.02	
2025-01-17 03:17:51.30	351.33	13.03	
2025-01-17 03:17:51.50	351.29	13.05	
2025-01-17 03:17:51.70	351.25	13.06	
2025-01-17 03:17:51.91	351.22	13.07	
2025-01-17 03:17:52.11	351.18	13.08	
2025-01-17 03:17:52.31	351.14	13.10	
2025-01-17 03:17:52.52	351.11	13.11	
2025-01-17 03:17:52.72	351.07	13.12	
2025-01-17 03:17:52.92	351.03	13.14	
2025-01-17 03:17:53.12	351.00	13.15	
2025-01-17 03:17:53.33	350.96	13.16	
2025-01-17 03:17:53.53	350.92	13.18	
2025-01-17 03:17:53.73	350.88	13.19	
2025-01-17 03:17:53.94	350.85	13.20	
2025-01-17 03:17:54.14	350.81	13.22	
2025-01-17 03:17:54.34	350.77	13.23	
2025-01-17 03:17:54.55	350.73	13.24	
2025-01-17 03:17:54.75	350.70	13.25	
2025-01-17 03:17:54.95	350.66	13.27	
2025-01-17 03:17:55.16	350.62	13.28	
2025-01-17 03:17:55.36	350.58	13.29	
2025-01-17 03:17:55.56	350.55	13.31	
2025-01-17 03:17:55.76	350.51	13.32	
2025-01-17 03:17:55.97	350.47	13.33	
2025-01-17 03:17:56.17	350.44	13.35	
2025-01-17 03:17:56.37	350.40	13.36	
2025-01-17 03:17:56.58	350.36	13.37	
2025-01-17 03:17:56.78	350.32	13.39	
2025-01-17 03:17:56.98	350.29	13.40	
2025-01-17 03:17:57.19	350.25	13.41	
2025-01-17 03:17:57.39	350.21	13.42	
2025-01-17 03:17:57.59	350.17	13.44	
2025-01-17 03:17:57.80	350.13	13.45	
2025-01-17 03:17:58.00	350.10	13.46	
2025-01-17 03:17:58.20	350.06	13.48	
2025-01-17 03:17:58.40	350.02	13.49	
2025-01-17 03:17:58.61	349.98	13.50	
2025-01-17 03:17:58.81	349.94	13.52	
2025-01-17 03:17:59.01	349.91	13.53	
2025-01-17 03:17:59.22	349.87	13.54	
2025-01-17 03:17:59.42	349.83	13.55	
2025-01-17 03:17:59.62	349.79	13.57	
2025-01-17 03:17:59.83	349.75	13.58	
2025-01-17 03:18:00.03	349.71	13.59	
2025-01-17 03:18:00.23	349.68	13.61	
2025-01-17 03:18:00.44	349.64	13.62	
2025-01-17 03:18:00.64	349.60	13.63	
2025-01-17 03:18:00.84	349.56	13.65	
2025-01-17 03:18:01.05	349.52	13.66	
2025-01-17 03:18:01.25	349.48	13.67	
2025-01-17 03:18:01.45	349.45	13.68	
2025-01-17 03:18:01.65	349.41	13.70	
2025-01-17 03:18:01.86	349.37	13.71	
2025-01-17 03:18:02.06	349.33	13.72	
2025-01-17 03:18:02.26	349.29	13.74	
2025-01-17 03:18:02.47	349.25	13.75	
2025-01-17 03:18:02.67	349.21	13.76	
2025-01-17 03:18:02.87	349.18	13.77	
2025-01-17 03:18:03.08	349.14	13.79	
2025-01-17 03:18:03.28	349.10	13.80	
2025-01-17 03:18:03.48	349.06	13.81	
2025-01-17 03:18:03.69	349.02	13.83	
2025-01-17 03:18:03.89	348.98	13.84	
2025-01-17 03:18:04.09	348.94	13.85	
2025-01-17 03:18:04.29	348.90	13.86	
2025-01-17 03:18:04.50	348.86	13.88	
2025-01-17 03:18:04.70	348.82	13.89	
2025-01-17 03:18:04.90	348.79	13.90	
2025-01-17 03:18:05.11	348.75	13.92	
2025-01-17 03:18:05.31	348.71	13.93	
2025-01-17 03:18:05.51	348.67	13.94	
2025-01-17 03:18:05.72	348.63	13.96	
2025-01-17 03:18:05.92	348.59	13.97	
2025-01-17 03:18:06.12	348.55	13.98	
2025-01-17 03:18:06.33	348.51	13.99	
2025-01-17 03:18:06.53	348.47	14.01	
2025-01-17 03:18:06.73	348.43	14.02	
2025-01-17 03:18:06.93	348.39	14.03	
2025-01-17 03:18:07.14	348.35	14.04	
2025-01-17 03:18:07.34	348.31	14.06	
2025-01-17 03:18:07.54	348.27	14.07	
2025-01-17 03:18:07.75	348.23	14.08	
2025-01-17 03:18:07.95	348.19	14.10	
2025-01-17 03:18:08.15	348.15	14.11	
2025-01-17 03:18:08.36	348.11	14.12	
2025-01-17 03:18:08.56	348.07	14.13	
2025-01-17 03:18:08.76	348.04	14.15	
2025-01-17 03:18:08.97	347.99	14.16	
2025-01-17 03:18:09.17	347.95	14.17	
2025-01-17 03:18:09.37	347.92	14.18	
2025-01-17 03:18:09.57	347.88	14.20	
2025-01-17 03:18:09.78	347.83	14.21	
2025-01-17 03:18:09.98	347.80	14.22	
2025-01-17 03:18:10.18	347.76	14.24	
2025-01-17 03:18:10.39	347.71	14.25	
2025-01-17 03:18:10.59	347.67	14.26	
2025-01-17 03:18:10.79	347.64	14.27	
2025-01-17 03:18:11.00	347.59	14.29	
2025-01-17 03:18:11.20	347.55	14.30	
2025-01-17 03:18:11.40	347.51	14.31	
2025-01-17 03:18:11.61	347.47	14.32	
2025-01-17 03:18:11.81	347.43	14.34	
2025-01-17 03:18:12.01	347.39	14.35	
2025-01-17 03:18:12.21	347.35	14.36	
2025-01-17 03:18:12.42	347.31	14.38	
2025-01-17 03:18:12.62	347.27	14.39	
2025-01-17 03:18:12.82	347.23	14.40	
2025-01-17 03:18:13.03	347.19	14.41	
2025-01-17 03:18:13.23	347.15	14.43	
2025-01-17 03:18:13.43	347.11	14.44	
2025-01-17 03:18:13.64	347.07	14.45	
2025-01-17 03:18:13.84	347.03	14.46	
2025-01-17 03:18:14.04	346.99	14.48	
2025-01-17 03:18:14.25	346.94	14.49	
2025-01-17 03:18:14.45	346.90	14.50	
2025-01-17 03:18:14.65	346.86	14.51	
2025-01-17 03:18:14.85	346.82	14.53	
2025-01-17 03:18:15.06	346.78	14.54	
2025-01-17 03:18:15.26	346.74	14.55	
2025-01-17 03:18:15.46	346.70	14.56	
2025-01-17 03:18:15.67	346.66	14.58	
2025-01-17 03:18:15.87	346.62	14.59	
2025-01-17 03:18:16.07	346.58	14.60	
2025-01-17 03:18:16.28	346.53	14.61	
2025-01-17 03:18:16.48	346.49	14.63	
2025-01-17 03:18:16.68	346.45	14.64	
2025-01-17 03:18:16.89	346.41	14.65	
2025-01-17 03:18:17.09	346.37	14.66	
2025-01-17 03:18:17.29	346.33	14.68	
2025-01-17 03:18:17.49	346.29	14.69	
2025-01-17 03:18:17.70	346.24	14.70	
2025-01-17 03:18:17.90	346.20	14.71	
2025-01-17 03:18:18.10	346.16	14.73	
2025-01-17 03:18:18.31	346.12	14.74	
2025-01-17 03:18:18.51	346.08	14.75	
2025-01-17 03:18:18.71	346.04	14.76	
2025-01-17 03:18:18.92	345.99	14.78	
2025-01-17 03:18:19.12	345.95	14.79	
2025-01-17 03:18:19.32	345.91	14.80	
2025-01-17 03:18:19.53	345.87	14.81	
2025-01-17 03:18:19.73	345.83	14.83	
2025-01-17 03:18:19.93	345.79	14.84	
2025-01-17 03:18:20.13	345.75	14.85	
2025-01-17 03:18:20.34	345.70	14.86	
2025-01-17 03:18:20.54	345.66	14.88	
2025-01-17 03:18:20.74	345.62	14.89	
2025-01-17 03:18:20.95	345.58	14.90	
2025-01-17 03:18:21.15	345.53	14.91	
2025-01-17 03:18:21.35	345.49	14.92	
2025-01-17 03:18:21.56	345.45	14.94	
2025-01-17 03:18:21.76	345.41	14.95	
2025-01-17 03:18:21.96	345.37	14.96	
2025-01-17 03:18:22.17	345.32	14.97	
2025-01-17 03:18:22.37	345.28	14.99	
2025-01-17 03:18:22.57	345.24	15.00	
2025-01-17 03:18:22.78	345.19	15.01	
2025-01-17 03:18:22.98	345.15	15.02	
2025-01-17 03:18:23.18	345.11	15.04	
2025-01-17 03:18:23.38	345.07	15.05	
2025-01-17 03:18:23.59	345.02	15.06	
2025-01-17 03:18:23.79	344.98	15.07	
2025-01-17 03:18:23.99	344.94	15.08	
2025-01-17 03:18:24.20	344.90	15.10	
2025-01-17 03:18:24.40	344.85	15.11	
2025-01-17 03:18:24.60	344.81	15.12	
2025-01-17 03:18:24.81	344.77	15.13	
2025-01-17 03:18:25.01	344.73	15.15	
2025-01-17 03:18:25.21	344.68	15.16	
2025-01-17 03:18:25.42	344.64	15.17	
2025-01-17 03:18:25.62	344.60	15.18	
2025-01-17 03:18:25.82	344.55	15.19	
2025-01-17 03:18:26.02	344.51	15.21	
2025-01-17 03:18:26.23	344.47	15.22	
2025-01-17 03:18:26.43	344.43	15.23	
2025-01-17 03:18:26.63	344.38	15.24	
2025-01-17 03:18:26.84	344.34	15.25	
2025-01-17 03:18:27.04	344.30	15.27	
2025-01-17 03:18:27.24	344.25	15.28	
2025-01-17 03:18:27.45	344.21	15.29	
2025-01-17 03:18:27.65	344.17	15.30	
2025-01-17 03:18:27.85	344.12	15.31	
2025-01-17 03:18:28.06	344.08	15.33	
2025-01-17 03:18:28.26	344.03	15.34	
2025-01-17 03:18:28.46	343.99	15.35	
2025-01-17 03:18:28.66	343.95	15.36	
2025-01-17 03:18:28.87	343.90	15.38	
2025-01-17 03:18:29.07	343.86	15.39	
2025-01-17 03:18:29.27	343.82	15.40	
2025-01-17 03:18:29.48	343.77	15.41	
2025-01-17 03:18:29.68	343.73	15.42	
2025-01-17 03:18:29.88	343.69	15.43	
2025-01-17 03:18:30.09	343.64	15.45	
2025-01-17 03:18:30.29	343.60	15.46	
2025-01-17 03:18:30.49	343.56	15.47	
2025-01-17 03:18:30.70	343.51	15.48	
2025-01-17 03:18:30.90	343.47	15.49	
2025-01-17 03:18:31.10	343.42	15.51	
2025-01-17 03:18:31.30	343.38	15.52	
2025-01-17 03:18:31.51	343.33	15.53	
2025-01-17 03:18:31.71	343.29	15.54	
2025-01-17 03:18:31.91	343.25	15.55	
2025-01-17 03:18:32.12	343.20	15.57	
2025-01-17 03:18:32.32	343.16	15.58	
2025-01-17 03:18:32.52	343.11	15.59	
2025-01-17 03:18:32.73	343.07	15.60	
2025-01-17 03:18:32.93	343.03	15.61	
2025-01-17 03:18:33.13	342.98	15.63	
2025-01-17 03:18:33.34	342.94	15.64	
2025-01-17 03:18:33.54	342.89	15.65	
2025-01-17 03:18:33.74	342.85	15.66	
2025-01-17 03:18:33.94	342.80	15.67	
2025-01-17 03:18:34.15	342.76	15.68	
2025-01-17 03:18:34.35	342.71	15.70	
2025-01-17 03:18:34.55	342.67	15.71	
2025-01-17 03:18:34.76	342.62	15.72	
2025-01-17 03:18:34.96	342.58	15.73	
2025-01-17 03:18:35.16	342.54	15.74	
2025-01-17 03:18:35.37	342.49	15.75	
2025-01-17 03:18:35.57	342.45	15.77	
2025-01-17 03:18:35.77	342.40	15.78	
2025-01-17 03:18:35.98	342.35	15.79	
2025-01-17 03:18:36.18	342.31	15.80	
2025-01-17 03:18:36.38	342.27	15.81	
2025-01-17 03:18:36.58	342.22	15.82	
2025-01-17 03:18:36.79	342.18	15.84	
2025-01-17 03:18:36.99	342.13	15.85	
2025-01-17 03:18:37.19	342.09	15.86	
2025-01-17 03:18:37.40	342.04	15.87	
2025-01-17 03:18:37.60	342.00	15.88	
2025-01-17 03:18:37.80	341.95	15.89	
2025-01-17 03:18:38.01	341.90	15.91	
2025-01-17 03:18:38.21	341.86	15.92	
2025-01-17 03:18:38.41	341.81	15.93	
2025-01-17 03:18:38.62	341.77	15.94	
2025-01-17 03:18:38.82	341.72	15.95	
2025-01-17 03:18:39.02	341.68	15.96	
2025-01-17 03:18:39.22	341.63	15.97	
2025-01-17 03:18:39.43	341.59	15.99	
2025-01-17 03:18:39.63	341.54	16.00	
2025-01-17 03:18:39.83	341.50	16.01	
2025-01-17 03:18:40.04	341.45	16.02	
2025-01-17 03:18:40.24	341.40	16.03	
2025-01-17 03:18:40.44	341.36	16.04	
2025-01-17 03:18:40.65	341.31	16.05	
2025-01-17 03:18:40.85	341.27	16.07	
2025-01-17 03:18:41.05	341.22	16.08	
2025-01-17 03:18:41.26	341.17	16.09	
2025-01-17 03:18:41.46	341.13	16.10	
2025-01-17 03:18:41.66	341.08	16.11	
2025-01-17 03:18:41.86	341.04	16.12	
2025-01-17 03:18:42.07	340.99	16.13	
2025-01-17 03:18:42.27	340.95	16.15	
2025-01-17 03:18:42.47	340.90	16.16	
2025-01-17 03:18:42.68	340.85	16.17	
2025-01-17 03:18:42.88	340.81	16.18	
2025-01-17 03:18:43.08	340.76	16.19	
2025-01-17 03:18:43.29	340.71	16.20	
2025-01-17 03:18:43.49	340.67	16.21	
2025-01-17 03:18:43.69	340.62	16.22	
2025-01-17 03:18:43.90	340.57	16.24	
2025-01-17 03:18:44.10	340.53	16.25	
2025-01-17 03:18:44.30	340.48	16.26	
2025-01-17 03:18:44.50	340.44	16.27	
2025-01-17 03:18:44.71	340.39	16.28	
2025-01-17 03:18:44.91	340.34	16.29	
2025-01-17 03:18:45.11	340.30	16.30	
2025-01-17 03:18:45.32	340.25	16.31	
2025-01-17 03:18:45.52	340.20	16.32	
2025-01-17 03:18:45.72	340.16	16.34	
2025-01-17 03:18:45.93	340.11	16.35	
2025-01-17 03:18:46.13	340.06	16.36	
2025-01-17 03:18:46.33	340.02	16.37	
2025-01-17 03:18:46.54	339.97	16.38	
2025-01-17 03:18:46.74	339.92	16.39	
2025-01-17 03:18:46.94	339.88	16.40	
2025-01-17 03:18:47.15	339.83	16.41	
2025-01-17 03:18:47.35	339.78	16.42	
2025-01-17 03:18:47.55	339.73	16.43	
2025-01-17 03:18:47.75	339.69	16.45	
2025-01-17 03:18:47.96	339.64	16.46	
2025-01-17 03:18:48.16	339.59	16.47	
2025-01-17 03:18:48.36	339.55	16.48	
2025-01-17 03:18:48.57	339.50	16.49	
2025-01-17 03:18:48.77	339.45	16.50	
2025-01-17 03:18:48.97	339.41	16.51	
2025-01-17 03:18:49.18	339.36	16.52	
2025-01-17 03:18:49.38	339.31	16.53	
2025-01-17 03:18:49.58	339.26	16.54	
2025-01-17 03:18:49.79	339.21	16.55	
2025-01-17 03:18:49.99	339.17	16.57	
2025-01-17 03:18:50.19	339.12	16.58	
2025-01-17 03:18:50.39	339.07	16.59	
2025-01-17 03:18:50.60	339.02	16.60	
2025-01-17 03:18:50.80	338.98	16.61	
2025-01-17 03:18:51.00	338.93	16.62	
2025-01-17 03:18:51.21	338.88	16.63	
2025-01-17 03:18:51.41	338.83	16.64	
2025-01-17 03:18:51.61	338.79	16.65	
2025-01-17 03:18:51.82	338.74	16.66	
2025-01-17 03:18:52.02	338.69	16.67	
2025-01-17 03:18:52.22	338.64	16.68	
2025-01-17 03:18:52.43	338.59	16.69	
2025-01-17 03:18:52.63	338.55	16.70	
2025-01-17 03:18:52.83	338.50	16.72	
2025-01-17 03:18:53.03	338.45	16.73	
2025-01-17 03:18:53.24	338.40	16.74	
2025-01-17 03:18:53.44	338.35	16.75	
2025-01-17 03:18:53.64	338.31	16.76	
2025-01-17 03:18:53.85	338.26	16.77	
2025-01-17 03:18:54.05	338.21	16.78	
2025-01-17 03:18:54.25	338.16	16.79	
2025-01-17 03:18:54.46	338.11	16.80	
2025-01-17 03:18:54.66	338.07	16.81	
2025-01-17 03:18:54.86	338.02	16.82	
2025-01-17 03:18:55.07	337.97	16.83	
2025-01-17 03:18:55.27	337.92	16.84	
2025-01-17 03:18:55.47	337.87	16.85	
2025-01-17 03:18:55.67	337.82	16.86	
2025-01-17 03:18:55.88	337.77	16.87	
2025-01-17 03:18:56.08	337.73	16.88	
2025-01-17 03:18:56.28	337.68	16.89	
2025-01-17 03:18:56.49	337.63	16.90	
2025-01-17 03:18:56.69	337.58	16.91	
2025-01-17 03:18:56.89	337.53	16.92	
2025-01-17 03:18:57.10	337.48	16.93	
2025-01-17 03:18:57.30	337.43	16.94	
2025-01-17 03:18:57.50	337.39	16.96	
2025-01-17 03:18:57.71	337.34	16.97	
2025-01-17 03:18:57.91	337.29	16.98	
2025-01-17 03:18:58.11	337.24	16.99	
2025-01-17 03:18:58.31	337.19	17.00	
2025-01-17 03:18:58.52	337.14	17.01	
2025-01-17 03:18:58.72	337.09	17.02	
2025-01-17 03:18:58.92	337.04	17.03	
2025-01-17 03:18:59.13	336.99	17.04	
2025-01-17 03:18:59.33	336.94	17.05	
2025-01-17 03:18:59.53	336.90	17.06	
2025-01-17 03:18:59.74	336.84	17.07	
2025-01-17 03:18:59.94	336.80	17.08	
2025-01-17 03:19:00.14	336.75	17.09	
2025-01-17 03:19:00.35	336.70	17.10	
2025-01-17 03:19:00.55	336.65	17.11	
2025-01-17 03:19:00.75	336.60	17.12	
2025-01-17 03:19:00.95	336.55	17.13	
2025-01-17 03:19:01.16	336.50	17.14	
2025-01-17 03:19:01.36	336.45	17.15	
2025-01-17 03:19:01.56	336.40	17.16	
2025-01-17 03:19:01.77	336.35	17.17	
2025-01-17 03:19:01.97	336.30	17.18	
2025-01-17 03:19:02.17	336.25	17.19	
2025-01-17 03:19:02.38	336.20	17.20	
2025-01-17 03:19:02.58	336.15	17.21	
2025-01-17 03:19:02.78	336.10	17.22	
2025-01-17 03:19:02.99	336.05	17.23	
2025-01-17 03:19:03.19	336.00	17.24	
2025-01-17 03:19:03.39	335.95	17.25	
2025-01-17 03:19:03.59	335.91	17.26	
2025-01-17 03:19:03.80	335.85	17.27	
2025-01-17 03:19:04.00	335.80	17.28	
2025-01-17 03:19:04.20	335.76	17.28	
2025-01-17 03:19:04.41	335.70	17.29	
2025-01-17 03:19:04.61	335.65	17.30	
2025-01-17 03:19:04.81	335.60	17.31	
2025-01-17 03:19:05.02	335.55	17.32	
2025-01-17 03:19:05.22	335.50	17.33	
2025-01-17 03:19:05.42	335.45	17.34	
2025-01-17 03:19:05.63	335.40	17.35	
2025-01-17 03:19:05.83	335.35	17.36	
2025-01-17 03:19:06.03	335.30	17.37	
2025-01-17 03:19:06.23	335.25	17.38	
2025-01-17 03:19:06.44	335.20	17.39	
2025-01-17 03:19:06.64	335.15	17.40	
2025-01-17 03:19:06.84	335.10	17.41	
2025-01-17 03:19:07.05	335.05	17.42	
2025-01-17 03:19:07.25	335.00	17.43	
2025-01-17 03:19:07.45	334.95	17.44	
2025-01-17 03:19:07.66	334.90	17.45	
2025-01-17 03:19:07.86	334.85	17.46	
2025-01-17 03:19:08.06	334.80	17.47	
2025-01-17 03:19:08.27	334.75	17.48	
2025-01-17 03:19:08.47	334.70	17.49	
2025-01-17 03:19:08.67	334.65	17.49	
2025-01-17 03:19:08.87	334.60	17.50	
2025-01-17 03:19:09.08	334.54	17.51	
2025-01-17 03:19:09.28	334.49	17.52	
2025-01-17 03:19:09.48	334.44	17.53	
2025-01-17 03:19:09.69	334.39	17.54	
2025-01-17 03:19:09.89	334.34	17.55	
2025-01-17 03:19:10.09	334.29	17.56	
2025-01-17 03:19:10.30	334.24	17.57	
2025-01-17 03:19:10.50	334.19	17.58	
2025-01-17 03:19:10.70	334.14	17.59	
2025-01-17 03:19:10.91	334.08	17.60	
2025-01-17 03:19:11.11	334.03	17.61	
2025-01-17 03:19:11.31	333.98	17.61	
2025-01-17 03:19:11.52	333.93	17.62	
2025-01-17 03:19:11.72	333.88	17.63	
2025-01-17 03:19:11.92	333.83	17.64	
2025-01-17 03:19:12.12	333.78	17.65	
2025-01-17 03:19:12.33	333.73	17.66	
2025-01-17 03:19:12.53	333.68	17.67	
2025-01-17 03:19:12.73	333.62	17.68	
2025-01-17 03:19:12.94	333.57	17.69	
2025-01-17 03:19:13.14	333.52	17.70	
2025-01-17 03:19:13.34	333.47	17.70	
2025-01-17 03:19:13.55	333.42	17.71	
2025-01-17 03:19:13.75	333.37	17.72	
2025-01-17 03:19:13.95	333.32	17.73	
2025-01-17 03:19:14.16	333.26	17.74	
2025-01-17 03:19:14.36	333.21	17.75	
2025-01-17 03:19:14.56	333.16	17.76	
2025-01-17 03:19:14.76	333.11	17.77	
2025-01-17 03:19:14.97	333.06	17.77	
2025-01-17 03:19:15.17	333.00	17.78	
2025-01-17 03:19:15.37	332.95	17.79	
2025-01-17 03:19:15.58	332.90	17.80	
2025-01-17 03:19:15.78	332.85	17.81	
2025-01-17 03:19:15.98	332.80	17.82	
2025-01-17 03:19:16.19	332.74	17.83	
2025-01-17 03:19:16.39	332.69	17.84	
2025-01-17 03:19:16.59	332.64	17.84	
2025-01-17 03:19:16.80	332.59	17.85	
2025-01-17 03:19:17.00	332.54	17.86	
2025-01-17 03:19:17.20	332.49	17.87	
2025-01-17 03:19:17.40	332.43	17.88	
2025-01-17 03:19:17.61	332.38	17.89	
2025-01-17 03:19:17.81	332.33	17.90	
2025-01-17 03:19:18.01	332.28	17.90	
2025-01-17 03:19:18.22	332.22	17.91	
2025-01-17 03:19:18.42	332.17	17.92	
2025-01-17 03:19:18.62	332.12	17.93	
2025-01-17 03:19:18.83	332.07	17.94	
2025-01-17 03:19:19.03	332.01	17.95	
2025-01-17 03:19:19.23	331.96	17.95	
2025-01-17 03:19:19.44	331.91	17.96	
2025-01-17 03:19:19.64	331.86	17.97	
2025-01-17 03:19:19.84	331.80	17.98	
2025-01-17 03:19:20.04	331.75	17.99	
2025-01-17 03:19:20.25	331.70	18.00	
2025-01-17 03:19:20.45	331.65	18.00	
2025-01-17 03:19:20.65	331.60	18.01	
2025-01-17 03:19:20.86	331.54	18.02	
2025-01-17 03:19:21.06	331.49	18.03	
2025-01-17 03:19:21.26	331.44	18.04	
2025-01-17 03:19:21.47	331.38	18.04	
2025-01-17 03:19:21.67	331.33	18.05	
2025-01-17 03:19:21.87	331.28	18.06	
2025-01-17 03:19:22.08	331.22	18.07	
2025-01-17 03:19:22.28	331.17	18.08	
2025-01-17 03:19:22.48	331.12	18.08	
2025-01-17 03:19:22.68	331.07	18.09	
2025-01-17 03:19:22.89	331.01	18.10	
2025-01-17 03:19:23.09	330.96	18.11	
2025-01-17 03:19:23.29	330.91	18.12	
2025-01-17 03:19:23.50	330.85	18.12	
2025-01-17 03:19:23.70	330.80	18.13	
2025-01-17 03:19:23.90	330.75	18.14	
2025-01-17 03:19:24.11	330.69	18.15	
2025-01-17 03:19:24.31	330.64	18.16	
2025-01-17 03:19:24.51	330.59	18.16	
2025-01-17 03:19:24.72	330.53	18.17	
2025-01-17 03:19:24.92	330.48	18.18	
2025-01-17 03:19:25.12	330.43	18.19	
2025-01-17 03:19:25.32	330.38	18.19	
2025-01-17 03:19:25.53	330.32	18.20	
2025-01-17 03:19:25.73	330.27	18.21	
2025-01-17 03:19:25.93	330.22	18.22	
2025-01-17 03:19:26.14	330.16	18.23	
2025-01-17 03:19:26.34	330.11	18.23	
2025-01-17 03:19:26.54	330.06	18.24	
2025-01-17 03:19:26.75	330.00	18.25	
2025-01-17 03:19:26.95	329.95	18.26	
2025-01-17 03:19:27.15	329.89	18.26	
2025-01-17 03:19:27.36	329.84	18.27	
2025-01-17 03:19:27.56	329.79	18.28	
2025-01-17 03:19:27.76	329.73	18.29	
2025-01-17 03:19:27.96	329.68	18.29	
2025-01-17 03:19:28.17	329.63	18.30	
2025-01-17 03:19:28.37	329.57	18.31	
2025-01-17 03:19:28.57	329.52	18.31	
2025-01-17 03:19:28.78	329.46	18.32	
2025-01-17 03:19:28.98	329.41	18.33	
2025-01-17 03:19:29.18	329.36	18.34	
2025-01-17 03:19:29.39	329.30	18.34	
2025-01-17 03:19:29.59	329.25	18.35	
2025-01-17 03:19:29.79	329.20	18.36	
2025-01-17 03:19:30.00	329.14	18.37	
2025-01-17 03:19:30.20	329.09	18.37	
2025-01-17 03:19:30.40	329.03	18.38	
2025-01-17 03:19:30.60	328.98	18.39	
2025-01-17 03:19:30.81	328.92	18.39	
2025-01-17 03:19:31.01	328.87	18.40	
2025-01-17 03:19:31.21	328.82	18.41	
2025-01-17 03:19:31.42	328.76	18.42	
2025-01-17 03:19:31.62	328.71	18.42	
2025-01-17 03:19:31.82	328.65	18.43	
2025-01-17 03:19:32.03	328.60	18.44	
2025-01-17 03:19:32.23	328.55	18.44	
2025-01-17 03:19:32.43	328.49	18.45	
2025-01-17 03:19:32.64	328.44	18.46	
2025-01-17 03:19:32.84	328.38	18.46	
2025-01-17 03:19:33.04	328.33	18.47	
2025-01-17 03:19:33.25	328.27	18.48	
2025-01-17 03:19:33.45	328.22	18.48	
2025-01-17 03:19:33.65	328.16	18.49	
2025-01-17 03:19:33.85	328.11	18.50	
2025-01-17 03:19:34.06	328.05	18.50	
2025-01-17 03:19:34.26	328.00	18.51	
2025-01-17 03:19:34.46	327.95	18.52	
2025-01-17 03:19:34.67	327.89	18.52	
2025-01-17 03:19:34.87	327.84	18.53	
2025-01-17 03:19:35.07	327.78	18.54	
2025-01-17 03:19:35.28	327.73	18.54	
2025-01-17 03:19:35.48	327.67	18.55	
2025-01-17 03:19:35.68	327.62	18.56	
2025-01-17 03:19:35.89	327.56	18.56	
2025-01-17 03:19:36.09	327.51	18.57	
2025-01-17 03:19:36.29	327.45	18.58	
2025-01-17 03:19:36.49	327.40	18.58	
2025-01-17 03:19:36.70	327.34	18.59	
2025-01-17 03:19:36.90	327.29	18.60	
2025-01-17 03:19:37.10	327.24	18.60	
2025-01-17 03:19:37.31	327.18	18.61	
2025-01-17 03:19:37.51	327.12	18.61	
2025-01-17 03:19:37.71	327.07	18.62	
2025-01-17 03:19:37.92	327.01	18.63	
2025-01-17 03:19:38.12	326.96	18.63	
2025-01-17 03:19:38.32	326.91	18.64	
2025-01-17 03:19:38.53	326.85	18.65	
2025-01-17 03:19:38.73	326.79	18.65	
2025-01-17 03:19:38.93	326.74	18.66	
2025-01-17 03:19:39.13	326.69	18.66	
2025-01-17 03:19:39.34	326.63	18.67	
2025-01-17 03:19:39.54	326.57	18.68	
2025-01-17 03:19:39.74	326.52	18.68	
2025-01-17 03:19:39.95	326.46	18.69	
2025-01-17 03:19:40.15	326.41	18.69	
2025-01-17 03:19:40.35	326.35	18.70	
2025-01-17 03:19:40.56	326.30	18.71	
2025-01-17 03:19:40.76	326.24	18.71	
2025-01-17 03:19:40.96	326.19	18.72	
2025-01-17 03:19:41.17	326.13	18.72	
2025-01-17 03:19:41.37	326.08	18.73	
2025-01-17 03:19:41.57	326.02	18.74	
2025-01-17 03:19:41.77	325.97	18.74	
2025-01-17 03:19:41.98	325.91	18.75	
2025-01-17 03:19:42.18	325.86	18.75	
2025-01-17 03:19:42.38	325.80	18.76	
2025-01-17 03:19:42.59	325.74	18.76	
2025-01-17 03:19:42.79	325.69	18.77	
2025-01-17 03:19:42.99	325.63	18.78	
2025-01-17 03:19:43.20	325.58	18.78	
2025-01-17 03:19:43.40	325.52	18.79	
2025-01-17 03:19:43.60	325.47	18.79	
2025-01-17 03:19:43.81	325.41	18.80	
2025-01-17 03:19:44.01	325.35	18.80	
2025-01-17 03:19:44.21	325.30	18.81	
2025-01-17 03:19:44.41	325.24	18.81	
2025-01-17 03:19:44.62	325.19	18.82	
2025-01-17 03:19:44.82	325.13	18.83	
2025-01-17 03:19:45.02	325.08	18.83	
2025-01-17 03:19:45.23	325.02	18.84	
2025-01-17 03:19:45.43	324.96	18.84	
2025-01-17 03:19:45.63	324.91	18.85	
2025-01-17 03:19:45.84	324.85	18.85	
2025-01-17 03:19:46.04	324.80	18.86	
2025-01-17 03:19:46.24	324.74	18.86	
2025-01-17 03:19:46.45	324.68	18.87	
2025-01-17 03:19:46.65	324.63	18.87	
2025-01-17 03:19:46.85	324.57	18.88	
2025-01-17 03:19:47.05	324.52	18.88	
2025-01-17 03:19:47.26	324.46	18.89	
2025-01-17 03:19:47.46	324.40	18.89	
2025-01-17 03:19:47.66	324.35	18.90	
2025-01-17 03:19:47.87	324.29	18.90	
2025-01-17 03:19:48.07	324.24	18.91	
2025-01-17 03:19:48.27	324.18	18.91	
2025-01-17 03:19:48.48	324.12	18.92	
2025-01-17 03:19:48.68	324.07	18.92	
2025-01-17 03:19:48.88	324.01	18.93	
2025-01-17 03:19:49.09	323.95	18.93	
2025-01-17 03:19:49.29	323.90	18.94	
2025-01-17 03:19:49.49	323.84	18.94	
2025-01-17 03:19:49.69	323.79	18.95	
2025-01-17 03:19:49.90	323.73	18.95	
2025-01-17 03:19:50.10	323.67	18.96	
2025-01-17 03:19:50.30	323.62	18.96	
2025-01-17 03:19:50.51	323.56	18.97	
2025-01-17 03:19:50.71	323.51	18.97	
2025-01-17 03:19:50.91	323.45	18.98	
2025-01-17 03:19:51.12	323.39	18.98	
2025-01-17 03:19:51.32	323.34	18.99	
2025-01-17 03:19:51.52	323.28	18.99	
2025-01-17 03:19:51.73	323.22	18.99	
2025-01-17 03:19:51.93	323.17	19.00	
2025-01-17 03:19:52.13	323.11	19.00	
2025-01-17 03:19:52.33	323.06	19.01	
2025-01-17 03:19:52.54	323.00	19.01	
2025-01-17 03:19:52.74	322.94	19.02	
2025-01-17 03:19:52.94	322.89	19.02	
2025-01-17 03:19:53.15	322.83	19.03	
2025-01-17 03:19:53.35	322.77	19.03	
2025-01-17 03:19:53.55	322.72	19.03	
2025-01-17 03:19:53.76	322.66	19.04	
2025-01-17 03:19:53.96	322.60	19.04	
2025-01-17 03:19:54.16	322.55	19.05	
2025-01-17 03:19:54.37	322.49	19.05	
2025-01-17 03:19:54.57	322.43	19.05	
2025-01-17 03:19:54.77	322.38	19.06	
2025-01-17 03:19:54.98	322.32	19.06	
2025-01-17 03:19:55.18	322.26	19.07	
2025-01-17 03:19:55.38	322.20	19.07	
2025-01-17 03:19:55.58	322.15	19.08	
2025-01-17 03:19:55.79	322.09	19.08	
2025-01-17 03:19:55.99	322.03	19.08	
2025-01-17 03:19:56.19	321.98	19.09	
2025-01-17 03:19:56.40	321.92	19.09	
2025-01-17 03:19:56.60	321.86	19.09	
2025-01-17 03:19:56.80	321.81	19.10	
2025-01-17 03:19:57.01	321.75	19.10	
2025-01-17 03:19:57.21	321.69	19.11	
2025-01-17 03:19:57.41	321.64	19.11	
2025-01-17 03:19:57.62	321.58	19.11	
2025-01-17 03:19:57.82	321.52	19.12	
2025-01-17 03:19:58.02	321.47	19.12	
2025-01-17 03:19:58.22	321.41	19.12	
2025-01-17 03:19:58.43	321.35	19.13	
2025-01-17 03:19:58.63	321.29	19.13	
2025-01-17 03:19:58.83	321.24	19.14	
2025-01-17 03:19:59.04	321.18	19.14	
2025-01-17 03:19:59.24	321.12	19.14	
2025-01-17 03:19:59.44	321.07	19.15	
2025-01-17 03:19:59.65	321.01	19.15	
2025-01-17 03:19:59.85	320.95	19.15	
2025-01-17 03:20:00.05	320.90	19.16	
2025-01-17 03:20:00.26	320.84	19.16	
2025-01-17 03:20:00.46	320.78	19.16	
2025-01-17 03:20:00.66	320.72	19.17	
2025-01-17 03:20:00.86	320.67	19.17	
2025-01-17 03:20:01.07	320.61	19.17	
2025-01-17 03:20:01.27	320.55	19.18	
2025-01-17 03:20:01.47	320.50	19.18	
2025-01-17 03:20:01.68	320.44	19.18	
2025-01-17 03:20:01.88	320.38	19.19	
2025-01-17 03:20:02.08	320.32	19.19	
2025-01-17 03:20:02.29	320.27	19.19	
2025-01-17 03:20:02.49	320.21	19.20	
2025-01-17 03:20:02.69	320.15	19.20	
2025-01-17 03:20:02.90	320.09	19.20	
2025-01-17 03:20:03.10	320.04	19.20	
2025-01-17 03:20:03.30	319.98	19.21	
2025-01-17 03:20:03.50	319.92	19.21	
2025-01-17 03:20:03.71	319.86	19.21	
2025-01-17 03:20:03.91	319.81	19.22	
2025-01-17 03:20:04.11	319.75	19.22	
2025-01-17 03:20:04.32	319.69	19.22	
2025-01-17 03:20:04.52	319.64	19.22	
2025-01-17 03:20:04.72	319.58	19.23	
2025-01-17 03:20:04.93	319.52	19.23	
2025-01-17 03:20:05.13	319.46	19.23	
2025-01-17 03:20:05.33	319.41	19.24	
2025-01-17 03:20:05.54	319.35	19.24	
2025-01-17 03:20:05.74	319.29	19.24	
2025-01-17 03:20:05.94	319.23	19.24	
2025-01-17 03:20:06.14	319.18	19.25	
2025-01-17 03:20:06.35	319.12	19.25	
2025-01-17 03:20:06.55	319.06	19.25	
2025-01-17 03:20:06.75	319.01	19.25	
2025-01-17 03:20:06.96	318.95	19.26	
2025-01-17 03:20:07.16	318.89	19.26	
2025-01-17 03:20:07.36	318.83	19.26	
2025-01-17 03:20:07.57	318.77	19.26	
2025-01-17 03:20:07.77	318.72	19.27	
2025-01-17 03:20:07.97	318.66	19.27	
2025-01-17 03:20:08.18	318.60	19.27	
2025-01-17 03:20:08.38	318.54	19.27	
2025-01-17 03:20:08.58	318.49	19.27	
2025-01-17 03:20:08.78	318.43	19.28	
2025-01-17 03:20:08.99	318.37	19.28	
2025-01-17 03:20:09.19	318.31	19.28	
2025-01-17 03:20:09.39	318.26	19.28	
2025-01-17 03:20:09.60	318.20	19.28	
2025-01-17 03:20:09.80	318.14	19.29	
2025-01-17 03:20:10.00	318.08	19.29	
2025-01-17 03:20:10.21	318.02	19.29	
2025-01-17 03:20:10.41	317.97	19.29	
2025-01-17 03:20:10.61	317.91	19.29	
2025-01-17 03:20:10.82	317.85	19.30	
2025-01-17 03:20:11.02	317.79	19.30	
2025-01-17 03:20:11.22	317.74	19.30	
2025-01-17 03:20:11.42	317.68	19.30	
2025-01-17 03:20:11.63	317.62	19.30	
2025-01-17 03:20:11.83	317.56	19.31	
2025-01-17 03:20:12.03	317.51	19.31	
2025-01-17 03:20:12.24	317.45	19.31	
2025-01-17 03:20:12.44	317.39	19.31	
2025-01-17 03:20:12.64	317.33	19.31	
2025-01-17 03:20:12.85	317.27	19.31	
2025-01-17 03:20:13.05	317.22	19.32	
2025-01-17 03:20:13.25	317.16	19.32	
2025-01-17 03:20:13.46	317.10	19.32	
2025-01-17 03:20:13.66	317.04	19.32	
2025-01-17 03:20:13.86	316.99	19.32	
2025-01-17 03:20:14.06	316.93	19.32	
2025-01-17 03:20:14.27	316.87	19.32	
2025-01-17 03:20:14.47	316.81	19.33	
2025-01-17 03:20:14.67	316.76	19.33	
2025-01-17 03:20:14.88	316.70	19.33	
2025-01-17 03:20:15.08	316.64	19.33	
2025-01-17 03:20:15.28	316.58	19.33	
2025-01-17 03:20:15.49	316.52	19.33	
2025-01-17 03:20:15.69	316.47	19.33	
2025-01-17 03:20:15.89	316.41	19.33	
2025-01-17 03:20:16.10	316.35	19.34	
2025-01-17 03:20:16.30	316.29	19.34	
2025-01-17 03:20:16.50	316.24	19.34	
2025-01-17 03:20:16.71	316.18	19.34	
2025-01-17 03:20:16.91	316.12	19.34	
2025-01-17 03:20:17.11	316.06	19.34	
2025-01-17 03:20:17.31	316.00	19.34	
2025-01-17 03:20:17.52	315.94	19.34	
2025-01-17 03:20:17.72	315.89	19.34	
2025-01-17 03:20:17.92	315.83	19.34	
2025-01-17 03:20:18.13	315.77	19.35	
2025-01-17 03:20:18.33	315.71	19.35	
2025-01-17 03:20:18.53	315.66	19.35	
2025-01-17 03:20:18.74	315.60	19.35	
2025-01-17 03:20:18.94	315.54	19.35	
2025-01-17 03:20:19.14	315.48	19.35	
2025-01-17 03:20:19.35	315.42	19.35	
2025-01-17 03:20:19.55	315.37	19.35	
2025-01-17 03:20:19.75	315.31	19.35	
2025-01-17 03:20:19.95	315.25	19.35	
2025-01-17 03:20:20.16	315.19	19.35	
2025-01-17 03:20:20.36	315.14	19.35	
2025-01-17 03:20:20.56	315.08	19.35	
2025-01-17 03:20:20.77	315.02	19.35	
2025-01-17 03:20:20.97	314.96	19.35	
2025-01-17 03:20:21.17	314.90	19.36	
2025-01-17 03:20:21.38	314.84	19.36	
2025-01-17 03:20:21.58	314.79	19.36	
2025-01-17 03:20:21.78	314.73	19.36	
2025-01-17 03:20:21.99	314.67	19.36	
2025-01-17 03:20:22.19	314.61	19.36	
2025-01-17 03:20:22.39	314.56	19.36	
2025-01-17 03:20:22.59	314.50	19.36	
2025-01-17 03:20:22.80	314.44	19.36	
2025-01-17 03:20:23.00	314.38	19.36	
2025-01-17 03:20:23.20	314.33	19.36	
2025-01-17 03:20:23.41	314.27	19.36	
2025-01-17 03:20:23.61	314.21	19.36	
2025-01-17 03:20:23.81	314.15	19.36	
2025-01-17 03:20:24.02	314.09	19.36	
2025-01-17 03:20:24.22	314.03	19.36	
2025-01-17 03:20:24.42	313.98	19.36	
2025-01-17 03:20:24.63	313.92	19.36	
2025-01-17 03:20:24.83	313.86	19.36	
2025-01-17 03:20:25.03	313.80	19.36	
2025-01-17 03:20:25.23	313.75	19.36	
2025-01-17 03:20:25.44	313.69	19.36	
2025-01-17 03:20:25.64	313.63	19.36	
2025-01-17 03:20:25.84	313.57	19.36	
2025-01-17 03:20:26.05	313.51	19.36	
2025-01-17 03:20:26.25	313.46	19.36	
2025-01-17 03:20:26.45	313.40	19.36	
2025-01-17 03:20:26.66	313.34	19.36	
2025-01-17 03:20:26.86	313.28	19.36	
2025-01-17 03:20:27.06	313.22	19.35	
2025-01-17 03:20:27.27	313.16	19.35	
2025-01-17 03:20:27.47	313.11	19.35	
2025-01-17 03:20:27.67	313.05	19.35	
2025-01-17 03:20:27.87	312.99	19.35	
2025-01-17 03:20:28.08	312.93	19.35	
2025-01-17 03:20:28.28	312.88	19.35	
2025-01-17 03:20:28.48	312.82	19.35	
2025-01-17 03:20:28.69	312.76	19.35	
2025-01-17 03:20:28.89	312.70	19.35	
2025-01-17 03:20:29.09	312.65	19.35	
2025-01-17 03:20:29.30	312.59	19.35	
2025-01-17 03:20:29.50	312.53	19.35	
2025-01-17 03:20:29.70	312.47	19.35	
2025-01-17 03:20:29.91	312.41	19.35	
2025-01-17 03:20:30.11	312.35	19.34	
2025-01-17 03:20:30.31	312.30	19.34	
2025-01-17 03:20:30.51	312.24	19.34	
2025-01-17 03:20:30.72	312.18	19.34	
2025-01-17 03:20:30.92	312.12	19.34	
2025-01-17 03:20:31.12	312.07	19.34	
2025-01-17 03:20:31.33	312.01	19.34	
2025-01-17 03:20:31.53	311.95	19.34	
2025-01-17 03:20:31.73	311.89	19.34	
2025-01-17 03:20:31.94	311.83	19.34	
2025-01-17 03:20:32.14	311.78	19.33	
2025-01-17 03:20:32.34	311.72	19.33	
2025-01-17 03:20:32.55	311.66	19.33	
2025-01-17 03:20:32.75	311.60	19.33	
2025-01-17 03:20:32.95	311.55	19.33	
2025-01-17 03:20:33.15	311.49	19.33	
2025-01-17 03:20:33.36	311.43	19.33	
2025-01-17 03:20:33.56	311.37	19.33	
2025-01-17 03:20:33.76	311.31	19.32	
2025-01-17 03:20:33.97	311.25	19.32	
2025-01-17 03:20:34.17	311.20	19.32	
2025-01-17 03:20:34.37	311.14	19.32	
2025-01-17 03:20:34.58	311.08	19.32	
2025-01-17 03:20:34.78	311.02	19.32	
2025-01-17 03:20:34.98	310.97	19.32	
2025-01-17 03:20:35.19	310.91	19.31	
2025-01-17 03:20:35.39	310.85	19.31	
2025-01-17 03:20:35.59	310.79	19.31	
2025-01-17 03:20:35.79	310.74	19.31	
2025-01-17 03:20:36.00	310.68	19.31	
2025-01-17 03:20:36.20	310.62	19.31	
2025-01-17 03:20:36.40	310.56	19.30	
2025-01-17 03:20:36.61	310.50	19.30	
2025-01-17 03:20:36.81	310.45	19.30	
2025-01-17 03:20:37.01	310.39	19.30	
2025-01-17 03:20:37.22	310.33	19.30	
2025-01-17 03:20:37.42	310.27	19.29	
2025-01-17 03:20:37.62	310.22	19.29	
2025-01-17 03:20:37.83	310.16	19.29	
2025-01-17 03:20:38.03	310.10	19.29	
2025-01-17 03:20:38.23	310.04	19.29	
2025-01-17 03:20:38.44	309.98	19.28	
2025-01-17 03:20:38.64	309.93	19.28	
2025-01-17 03:20:38.84	309.87	19.28	
2025-01-17 03:20:39.04	309.81	19.28	
2025-01-17 03:20:39.25	309.75	19.28	
2025-01-17 03:20:39.45	309.70	19.27	
2025-01-17 03:20:39.65	309.64	19.27	
2025-01-17 03:20:39.86	309.58	19.27	
2025-01-17 03:20:40.06	309.52	19.27	
2025-01-17 03:20:40.26	309.47	19.26	
2025-01-17 03:20:40.47	309.41	19.26	
2025-01-17 03:20:40.67	309.35	19.26	
2025-01-17 03:20:40.87	309.29	19.26	
2025-01-17 03:20:41.08	309.24	19.26	
2025-01-17 03:20:41.28	309.18	19.25	
2025-01-17 03:20:41.48	309.12	19.25	
2025-01-17 03:20:41.68	309.07	19.25	
2025-01-17 03:20:41.89	309.01	19.25	
2025-01-17 03:20:42.09	308.95	19.24	
2025-01-17 03:20:42.29	308.89	19.24	
2025-01-17 03:20:42.50	308.83	19.24	
2025-01-17 03:20:42.70	308.78	19.23	
2025-01-17 03:20:42.90	308.72	19.23	
2025-01-17 03:20:43.11	308.66	19.23	
2025-01-17 03:20:43.31	308.60	19.23	
2025-01-17 03:20:43.51	308.55	19.22	
2025-01-17 03:20:43.72	308.49	19.22	
2025-01-17 03:20:43.92	308.43	19.22	
2025-01-17 03:20:44.12	308.38	19.22	
2025-01-17 03:20:44.32	308.32	19.21	
2025-01-17 03:20:44.53	308.26	19.21	
2025-01-17 03:20:44.73	308.20	19.21	
2025-01-17 03:20:44.93	308.15	19.20	
2025-01-17 03:20:45.14	308.09	19.20	
2025-01-17 03:20:45.34	308.03	19.20	
2025-01-17 03:20:45.54	307.97	19.19	
2025-01-17 03:20:45.75	307.91	19.19	
2025-01-17 03:20:45.95	307.86	19.19	
2025-01-17 03:20:46.15	307.80	19.19	
2025-01-17 03:20:46.36	307.74	19.18	
2025-01-17 03:20:46.56	307.69	19.18	
2025-01-17 03:20:46.76	307.63	19.18	
2025-01-17 03:20:46.96	307.57	19.17	
2025-01-17 03:20:47.17	307.51	19.17	
2025-01-17 03:20:47.37	307.46	19.17	
2025-01-17 03:20:47.57	307.40	19.16	
2025-01-17 03:20:47.78	307.34	19.16	
2025-01-17 03:20:47.98	307.29	19.16	
2025-01-17 03:20:48.18	307.23	19.15	
2025-01-17 03:20:48.39	307.17	19.15	
2025-01-17 03:20:48.59	307.11	19.15	
2025-01-17 03:20:48.79	307.06	19.14	
2025-01-17 03:20:49.00	307.00	19.14	
2025-01-17 03:20:49.20	306.94	19.13	
2025-01-17 03:20:49.40	306.89	19.13	
2025-01-17 03:20:49.60	306.83	19.13	
2025-01-17 03:20:49.81	306.77	19.12	
2025-01-17 03:20:50.01	306.72	19.12	
2025-01-17 03:20:50.21	306.66	19.12	
2025-01-17 03:20:50.42	306.60	19.11	
2025-01-17 03:20:50.62	306.54	19.11	
2025-01-17 03:20:50.82	306.49	19.11	
2025-01-17 03:20:51.03	306.43	19.10	
2025-01-17 03:20:51.23	306.37	19.10	
2025-01-17 03:20:51.43	306.32	19.09	
2025-01-17 03:20:51.64	306.26	19.09	
2025-01-17 03:20:51.84	306.20	19.09	
2025-01-17 03:20:52.04	306.15	19.08	
2025-01-17 03:20:52.24	306.09	19.08	
2025-01-17 03:20:52.45	306.03	19.07	
2025-01-17 03:20:52.65	305.98	19.07	
2025-01-17 03:20:52.85	305.92	19.07	
2025-01-17 03:20:53.06	305.86	19.06	
2025-01-17 03:20:53.26	305.81	19.06	
2025-01-17 03:20:53.46	305.75	19.05	
2025-01-17 03:20:53.67	305.69	19.05	
2025-01-17 03:20:53.87	305.63	19.05	
2025-01-17 03:20:54.07	305.58	19.04	
2025-01-17 03:20:54.28	305.52	19.04	
2025-01-17 03:20:54.48	305.46	19.03	
2025-01-17 03:20:54.68	305.41	19.03	
2025-01-17 03:20:54.88	305.35	19.02	
2025-01-17 03:20:55.09	305.29	19.02	
2025-01-17 03:20:55.29	305.24	19.02	
2025-01-17 03:20:55.49	305.18	19.01	
2025-01-17 03:20:55.70	305.12	19.01	
2025-01-17 03:20:55.90	305.07	19.00	
2025-01-17 03:20:56.10	305.01	19.00	
2025-01-17 03:20:56.31	304.95	18.99	
2025-01-17 03:20:56.51	304.90	18.99	
2025-01-17 03:20:56.71	304.84	18.98	
2025-01-17 03:20:56.92	304.78	18.98	
2025-01-17 03:20:57.12	304.73	18.98	
2025-01-17 03:20:57.32	304.67	18.97	
2025-01-17 03:20:57.52	304.62	18.97	
2025-01-17 03:20:57.73	304.56	18.96	
2025-01-17 03:20:57.93	304.50	18.96	
2025-01-17 03:20:58.13	304.45	18.95	
2025-01-17 03:20:58.34	304.39	18.95	
2025-01-17 03:20:58.54	304.33	18.94	
2025-01-17 03:20:58.74	304.28	18.94	
2025-01-17 03:20:58.95	304.22	18.93	
2025-01-17 03:20:59.15	304.17	18.93	
2025-01-17 03:20:59.35	304.11	18.92	
2025-01-17 03:20:59.56	304.05	18.92	
2025-01-17 03:20:59.76	304.00	18.91	
2025-01-17 03:20:59.96	303.94	18.91	
2025-01-17 03:21:00.16	303.89	18.90	
2025-01-17 03:21:00.37	303.83	18.90	
2025-01-17 03:21:00.57	303.77	18.89	
2025-01-17 03:21:00.77	303.72	18.89	
2025-01-17 03:21:00.98	303.66	18.88	
2025-01-17 03:21:01.18	303.60	18.88	
2025-01-17 03:21:01.38	303.55	18.87	
2025-01-17 03:21:01.59	303.49	18.87	
2025-01-17 03:21:01.79	303.44	18.86	
2025-01-17 03:21:01.99	303.38	18.86	
2025-01-17 03:21:02.20	303.32	18.85	
2025-01-17 03:21:02.40	303.27	18.85	
2025-01-17 03:21:02.60	303.21	18.84	
2025-01-17 03:21:02.81	303.15	18.84	
2025-01-17 03:21:03.01	303.10	18.83	
2025-01-17 03:21:03.21	303.04	18.82	
2025-01-17 03:21:03.41	302.99	18.82	
2025-01-17 03:21:03.62	302.93	18.81	
2025-01-17 03:21:03.82	302.88	18.81	
2025-01-17 03:21:04.02	302.82	18.80	
2025-01-17 03:21:04.23	302.76	18.80	
2025-01-17 03:21:04.43	302.71	18.79	
2025-01-17 03:21:04.63	302.65	18.79	
2025-01-17 03:21:04.84	302.60	18.78	
2025-01-17 03:21:05.04	302.54	18.77	
2025-01-17 03:21:05.24	302.49	18.77	
2025-01-17 03:21:05.45	302.43	18.76	
2025-01-17 03:21:05.65	302.38	18.76	
2025-01-17 03:21:05.85	302.32	18.75	
2025-01-17 03:21:06.05	302.27	18.75	
2025-01-17 03:21:06.26	302.21	18.74	
2025-01-17 03:21:06.46	302.15	18.73	
