passes_logs/2025/01/06/X_MFTI_02/X_MFTI_02__20250106_234749_NOAA_20_rec.log

#Pass ID: 20250106_234749_NOAA 20
#Satellite: NOAA 20
#Configuration: NOAA 20
#Start time: 2025-01-06 23:47:43

#Version: 1.5.20200625
#Station: X_MFTI_02
#Location: 37.5186 lon 55.9291 lat
#TLE: 1 43013U 17073A   23362.44808611  .00000160  00000+0  96626-4 0  9996
#TLE: 2 43013  98.7331 297.9536 0000783  57.5916 302.5335 14.19555620316533

#Time	Az	El	Level	Level2	SNR	BER	Gain	Gain2
2025-01-06 23:47:43.31	16.36	67.49	-62.4	-87.6	3.2	15477424	84	65535
2025-01-06 23:47:43.53	16.36	67.59	-62.4	-87.6	3.1	15672012	85	65535
2025-01-06 23:47:43.74	16.35	67.69	-60.7	-85.9	3.4	15672012	82	65535
2025-01-06 23:47:43.95	16.35	67.78	-62.4	-87.6	2.9	15683364	84	65535
2025-01-06 23:47:44.16	16.34	67.88	-62.4	-87.6	2.9	15683364	84	65535
2025-01-06 23:47:44.36	16.33	67.97	-62.4	-87.6	3.1	15688209	84	65535
2025-01-06 23:47:44.56	16.33	68.06	-62.4	-87.6	2.9	15688209	84	65535
2025-01-06 23:47:44.76	16.32	68.15	-62.4	-87.6	2.9	15688209	84	65535
2025-01-06 23:47:44.96	16.32	68.24	-62.4	-87.6	2.9	15691337	84	65534
2025-01-06 23:47:45.18	16.31	68.34	-62.4	-87.6	2.9	15691337	84	65535
2025-01-06 23:47:45.38	16.30	68.43	-61.7	-86.9	3.0	15686630	84	65535
2025-01-06 23:47:45.58	16.30	68.52	-62.4	-87.6	3.0	15686630	84	65535
2025-01-06 23:47:45.80	16.29	68.63	-62.4	-87.6	2.9	15689002	84	65535
2025-01-06 23:47:46.01	16.28	68.72	-62.3	-87.5	3.2	15689002	85	65535
2025-01-06 23:47:46.22	16.28	68.82	-62.4	-87.6	3.2	15684089	85	65535
2025-01-06 23:47:46.42	16.27	68.91	-62.3	-87.5	3.2	15684089	85	65535
2025-01-06 23:47:46.62	16.26	69.00	-62.4	-87.6	3.2	15662887	85	65535
2025-01-06 23:47:46.83	16.26	69.10	-62.4	-87.6	3.2	15662887	85	65535
2025-01-06 23:47:47.05	16.25	69.20	-62.4	-87.6	3.2	15658302	85	65535
2025-01-06 23:47:47.25	16.24	69.29	-62.4	-87.6	3.0	15658302	84	65535
2025-01-06 23:47:47.45	16.24	69.38	-62.4	-87.6	3.1	15694358	84	65535
2025-01-06 23:47:47.65	16.23	69.48	-62.3	-87.5	3.2	15694358	85	65535
2025-01-06 23:47:47.85	16.22	69.57	-62.3	-87.5	3.1	15676101	85	65535
2025-01-06 23:47:48.05	16.22	69.66	-62.4	-87.6	3.2	15676101	85	65535
2025-01-06 23:47:48.26	16.21	69.76	-62.4	-87.6	3.3	15676101	85	65535
2025-01-06 23:47:48.46	16.20	69.85	-62.4	-87.6	3.4	15660377	85	65535
2025-01-06 23:47:48.66	16.20	69.95	-62.4	-87.6	3.3	15660377	85	65535
2025-01-06 23:47:48.86	16.19	70.04	-62.4	-87.6	2.6	15655944	84	65535
2025-01-06 23:47:49.07	16.18	70.14	-62.3	-87.6	3.2	15655944	85	65535
2025-01-06 23:47:49.28	16.17	70.23	-62.4	-87.6	3.2	15670867	85	65535
2025-01-06 23:47:49.49	16.16	70.33	-62.4	-87.6	3.3	15670867	85	65535
2025-01-06 23:47:49.69	16.16	70.43	-62.4	-87.6	3.3	15662498	85	65535
2025-01-06 23:47:49.89	16.15	70.52	-62.4	-87.6	3.3	15662498	85	65535
2025-01-06 23:47:50.09	16.14	70.61	-62.4	-87.6	3.4	15654747	85	65535
2025-01-06 23:47:50.29	16.13	70.71	-62.4	-87.6	3.4	15654747	85	65535
2025-01-06 23:47:50.49	16.13	70.80	-62.2	-87.4	3.1	15664100	82	65535
2025-01-06 23:47:50.70	16.12	70.90	-62.4	-87.6	3.1	15664100	85	65535
2025-01-06 23:47:50.90	16.11	70.99	-62.4	-87.6	3.1	15664100	85	65535
2025-01-06 23:47:51.10	16.10	71.09	-62.4	-87.6	3.1	15690376	85	65535
2025-01-06 23:47:51.30	16.09	71.18	-62.4	-87.6	3.1	15690376	85	65535
2025-01-06 23:47:51.50	16.08	71.28	-62.4	-87.6	3.1	15662673	85	65535
2025-01-06 23:47:51.72	16.07	71.38	-62.2	-87.4	3.4	15662673	85	65535
2025-01-06 23:47:51.92	16.07	71.47	-62.4	-87.6	3.2	15671562	85	65535
2025-01-06 23:47:52.12	16.06	71.57	-61.2	-86.4	3.4	15671562	83	65535
2025-01-06 23:47:52.32	16.05	71.66	-62.3	-87.6	2.9	15672393	84	65535
2025-01-06 23:47:52.53	16.04	71.76	-62.4	-87.6	2.9	15672393	84	65535
2025-01-06 23:47:52.74	16.03	71.86	-62.3	-87.5	2.9	15697334	84	65535
2025-01-06 23:47:52.94	16.02	71.96	-62.4	-87.6	2.9	15697334	84	65535
2025-01-06 23:47:53.14	16.01	72.05	-62.4	-87.6	2.9	15689071	84	65535
2025-01-06 23:47:53.34	16.00	72.15	-62.4	-87.6	2.9	15689071	84	65535
2025-01-06 23:47:53.54	15.99	72.24	-62.4	-87.6	3.0	15696556	84	65535
2025-01-06 23:47:53.74	15.98	72.34	-62.4	-87.6	3.1	15696556	85	65535
2025-01-06 23:47:53.94	15.97	72.43	-62.3	-87.5	2.9	15696556	84	65535
2025-01-06 23:47:54.14	15.96	72.53	-62.3	-87.5	2.9	15687576	84	65535
2025-01-06 23:47:54.34	15.95	72.62	-62.4	-87.6	3.1	15687576	84	65535
2025-01-06 23:47:54.54	15.94	72.72	-62.4	-87.6	3.1	15689788	84	65535
2025-01-06 23:47:54.74	15.93	72.81	-62.4	-87.6	3.3	15689788	84	65535
2025-01-06 23:47:54.95	15.92	72.91	-62.4	-87.6	3.3	15683113	84	65535
2025-01-06 23:47:55.15	15.91	73.01	-62.4	-87.6	3.1	15683113	84	65535
2025-01-06 23:47:55.35	15.90	73.10	-62.4	-87.6	2.9	15687515	84	65535
2025-01-06 23:47:55.55	15.89	73.20	-62.3	-87.5	2.4	15687515	83	65535
2025-01-06 23:47:55.75	15.88	73.30	-62.3	-87.5	2.9	15692947	84	65535
2025-01-06 23:47:55.96	15.87	73.40	-62.4	-87.6	3.1	15692947	84	65535
2025-01-06 23:47:56.18	15.85	73.50	-62.4	-87.6	3.3	15702217	84	65535
2025-01-06 23:47:56.40	15.84	73.61	-62.4	-87.6	3.2	15702217	84	65535
2025-01-06 23:47:56.60	15.83	73.70	-62.4	-87.6	3.0	15687484	84	65535
2025-01-06 23:47:56.80	15.82	73.80	-62.7	-87.9	3.0	15687484	84	65535
2025-01-06 23:47:57.00	15.81	73.90	-62.3	-87.5	3.1	15687484	85	65535
2025-01-06 23:47:57.20	15.80	73.99	-60.7	-85.9	3.4	15679885	82	65535
2025-01-06 23:47:57.40	15.78	74.09	-62.4	-87.6	2.9	15679885	84	65535
2025-01-06 23:47:57.60	15.77	74.19	-62.4	-87.6	2.9	15685882	84	65535
2025-01-06 23:47:57.80	15.76	74.28	-62.4	-87.6	3.0	15685882	84	65535
2025-01-06 23:47:58.02	15.74	74.39	-62.4	-87.6	3.1	15687095	84	65535
2025-01-06 23:47:58.22	15.73	74.49	-62.4	-87.6	3.0	15687095	84	65535
2025-01-06 23:47:58.42	15.72	74.58	-62.4	-87.6	3.1	15688003	85	65535
2025-01-06 23:47:58.62	15.71	74.68	-62.4	-87.6	3.1	15688003	85	65535
2025-01-06 23:47:58.82	15.69	74.78	-62.0	-87.2	3.1	15665626	85	65535
2025-01-06 23:47:59.03	15.68	74.88	-62.4	-87.6	2.9	15665626	84	65535
2025-01-06 23:47:59.24	15.66	74.98	-62.4	-87.6	3.2	15680641	84	65535
2025-01-06 23:47:59.44	15.65	75.08	-62.4	-87.6	3.2	15680641	84	65535
2025-01-06 23:47:59.64	15.63	75.18	-62.4	-87.6	3.1	15692718	84	65535
2025-01-06 23:47:59.84	15.62	75.28	-62.2	-87.4	3.0	15692718	84	65535
2025-01-06 23:48:00.05	15.61	75.38	-62.4	-87.6	2.9	15692718	84	65534
2025-01-06 23:48:00.25	15.59	75.48	-62.4	-87.6	2.9	15685455	84	65535
2025-01-06 23:48:00.46	15.57	75.58	-62.4	-87.6	3.0	15685455	84	65535
2025-01-06 23:48:00.66	15.56	75.68	-62.4	-87.6	3.0	15687637	84	65535
2025-01-06 23:48:00.86	15.54	75.77	-62.4	-87.6	3.1	15687637	84	65535
2025-01-06 23:48:01.07	15.53	75.88	-62.4	-87.6	3.2	15698158	84	65535
2025-01-06 23:48:01.28	15.51	75.98	-62.4	-87.6	3.1	15698158	84	65535
2025-01-06 23:48:01.50	15.49	76.09	-62.3	-87.5	3.0	15679771	84	65535
2025-01-06 23:48:01.70	15.48	76.19	-62.4	-87.6	3.0	15679771	84	65535
2025-01-06 23:48:01.90	15.46	76.28	-62.4	-87.6	3.0	15686416	84	65535
2025-01-06 23:48:02.10	15.44	76.38	-62.4	-87.6	3.0	15686416	84	65535
2025-01-06 23:48:02.32	15.42	76.49	-62.4	-87.6	1.9	15695304	84	65535
2025-01-06 23:48:02.53	15.40	76.59	-62.4	-87.6	3.2	15695304	84	65535
2025-01-06 23:48:02.73	15.39	76.69	-62.2	-87.4	3.1	15693077	84	65535
2025-01-06 23:48:02.93	15.37	76.79	-62.2	-87.4	3.1	15693077	84	65535
2025-01-06 23:48:03.13	15.35	76.89	-62.1	-87.3	3.2	15686866	85	65535
2025-01-06 23:48:03.34	15.33	76.99	-62.2	-87.4	3.1	15686866	85	65535
2025-01-06 23:48:03.54	15.31	77.09	-62.3	-87.5	3.2	15686866	85	65535
2025-01-06 23:48:03.74	15.29	77.19	-62.3	-87.6	3.1	15669883	85	65535
2025-01-06 23:48:03.95	15.27	77.29	-60.8	-86.0	3.4	15669883	82	65535
2025-01-06 23:48:04.15	15.25	77.39	-62.4	-87.6	3.0	15679420	84	65535
2025-01-06 23:48:04.36	15.23	77.50	-62.4	-87.6	3.0	15679420	84	65535
2025-01-06 23:48:04.56	15.21	77.60	-62.1	-87.3	2.9	15690048	84	65535
2025-01-06 23:48:04.76	15.19	77.69	-62.4	-87.6	2.9	15690048	84	65535
2025-01-06 23:48:04.96	15.17	77.79	-62.4	-87.6	3.0	15696449	84	65535
2025-01-06 23:48:05.16	15.14	77.89	-62.1	-87.4	3.0	15696449	84	65535
2025-01-06 23:48:05.36	15.12	77.99	-62.2	-87.4	3.1	15683242	84	65535
2025-01-06 23:48:05.56	15.10	78.09	-62.2	-87.4	3.2	15683242	84	65535
2025-01-06 23:48:05.78	15.07	78.20	-62.4	-87.6	2.9	15702606	84	65535
2025-01-06 23:48:05.98	15.05	78.30	-62.3	-87.5	3.1	15702606	84	65535
2025-01-06 23:48:06.18	15.03	78.40	-62.4	-87.6	3.1	15694450	85	65535
2025-01-06 23:48:06.38	15.00	78.50	-62.4	-87.6	3.1	15694450	85	65535
2025-01-06 23:48:06.60	14.97	78.61	-62.4	-87.6	3.1	15694450	85	65535
2025-01-06 23:48:06.80	14.95	78.71	-62.4	-87.6	3.1	15677146	85	65535
2025-01-06 23:48:07.00	14.92	78.81	-62.4	-87.6	3.1	15677146	85	65535
2025-01-06 23:48:07.20	14.90	78.91	-62.4	-87.6	3.1	15670486	85	65535
2025-01-06 23:48:07.40	14.87	79.01	-62.4	-87.6	2.9	15670486	84	65535
2025-01-06 23:48:07.60	14.84	79.11	-62.4	-87.6	2.9	15686355	84	65535
2025-01-06 23:48:07.80	14.82	79.21	-62.4	-87.6	2.9	15686355	84	65535
2025-01-06 23:48:08.00	14.79	79.31	-62.4	-87.6	2.9	15693672	84	65535
2025-01-06 23:48:08.22	14.76	79.42	-62.4	-87.6	2.9	15693672	84	65535
2025-01-06 23:48:08.42	14.73	79.52	-62.4	-87.6	2.9	15693809	84	65535
2025-01-06 23:48:08.62	14.70	79.62	-62.4	-87.6	2.9	15693809	84	65535
2025-01-06 23:48:08.84	14.66	79.73	-62.4	-87.6	2.9	15688034	84	65535
2025-01-06 23:48:09.04	14.63	79.83	-62.4	-87.6	2.9	15688034	84	65535
2025-01-06 23:48:09.25	14.60	79.94	-62.4	-87.6	2.9	15688034	84	65535
2025-01-06 23:48:09.47	14.56	80.05	-62.4	-87.6	3.1	15690803	85	65535
2025-01-06 23:48:09.67	14.53	80.15	-62.4	-87.6	3.1	15681335	85	65535
2025-01-06 23:48:09.87	14.49	80.25	-62.4	-87.6	3.1	15681335	85	65535
2025-01-06 23:48:10.07	14.46	80.35	-62.4	-87.6	3.1	15681335	85	65535
2025-01-06 23:48:10.29	14.42	80.46	-62.4	-87.6	3.1	15666175	85	65535
2025-01-06 23:48:10.49	14.38	80.56	-62.4	-87.6	3.2	15666175	85	65535
2025-01-06 23:48:10.69	14.34	80.66	-62.4	-87.6	2.2	15669403	84	65535
2025-01-06 23:48:10.91	14.30	80.77	-62.4	-87.6	3.0	15669403	84	65535
2025-01-06 23:48:11.11	14.26	80.87	-62.4	-87.6	3.0	15673820	84	65535
2025-01-06 23:48:11.31	14.22	80.97	-62.4	-87.6	3.0	15673820	84	65535
2025-01-06 23:48:11.52	14.18	81.08	-62.4	-87.6	3.1	15694778	84	65535
2025-01-06 23:48:11.73	14.13	81.18	-62.4	-87.6	3.3	15694778	84	65535
2025-01-06 23:48:11.94	14.09	81.29	-62.4	-87.6	3.1	15679367	84	65535
2025-01-06 23:48:12.14	14.04	81.39	-62.4	-87.6	3.1	15679367	84	65535
2025-01-06 23:48:12.34	14.00	81.49	-60.7	-85.9	3.4	15700065	82	65535
2025-01-06 23:48:12.54	13.95	81.59	-62.4	-87.6	2.9	15700065	84	65535
2025-01-06 23:48:12.74	13.90	81.69	-62.4	-87.6	2.9	15694335	84	65535
2025-01-06 23:48:12.95	13.85	81.80	-62.4	-87.6	2.9	15694335	84	65535
2025-01-06 23:48:13.15	13.80	81.90	-62.4	-87.6	2.9	15694335	84	65535
2025-01-06 23:48:13.35	13.75	82.00	-62.1	-87.3	2.9	15697921	84	65535
2025-01-06 23:48:13.56	13.70	82.11	-62.3	-87.5	2.9	15697921	84	65535
2025-01-06 23:48:13.76	13.64	82.21	-62.4	-87.6	2.9	15698455	84	65535
2025-01-06 23:48:13.96	13.59	82.31	-62.4	-87.6	2.9	15698455	84	65535
2025-01-06 23:48:14.18	13.52	82.42	-62.4	-87.6	2.9	15693130	84	65535
2025-01-06 23:48:14.38	13.46	82.52	-62.4	-87.6	2.9	15693130	84	65535
2025-01-06 23:48:14.60	13.40	82.64	-62.4	-87.6	2.9	15689300	84	65535
2025-01-06 23:48:14.80	13.33	82.74	-62.4	-87.6	2.9	15689300	84	65535
2025-01-06 23:48:15.02	13.26	82.85	-62.4	-87.6	3.2	15698226	84	65535
2025-01-06 23:48:15.23	13.19	82.96	-62.4	-87.6	3.0	15698226	84	65535
2025-01-06 23:48:15.45	13.12	83.07	-62.4	-87.6	3.1	15698669	84	65535
2025-01-06 23:48:15.66	13.04	83.17	-62.4	-87.6	3.0	15698669	84	65535
2025-01-06 23:48:15.86	12.97	83.28	-62.3	-87.6	3.0	15701141	84	65535
2025-01-06 23:48:16.06	12.89	83.38	-62.4	-87.6	3.0	15701141	84	65535
2025-01-06 23:48:16.28	12.81	83.49	-62.4	-87.6	3.1	15674430	84	65535
2025-01-06 23:48:16.48	12.73	83.59	-62.4	-87.6	3.3	15674430	84	65535
2025-01-06 23:48:16.68	12.64	83.69	-62.4	-87.6	3.1	15680328	84	65535
2025-01-06 23:48:16.90	12.55	83.81	-62.4	-87.6	3.2	15680328	84	65535
2025-01-06 23:48:17.10	12.46	83.91	-62.4	-87.6	3.1	15680328	84	65535
2025-01-06 23:48:17.30	12.37	84.01	-62.4	-87.6	3.0	15682357	84	65535
2025-01-06 23:48:17.52	12.26	84.12	-62.4	-87.6	2.9	15682357	84	65535
2025-01-06 23:48:17.72	12.16	84.22	-62.4	-87.6	3.0	15702041	84	65535
2025-01-06 23:48:17.92	12.06	84.32	-62.4	-87.6	3.2	15702041	84	65535
2025-01-06 23:48:18.12	11.95	84.43	-62.4	-87.6	3.1	15688270	84	65535
2025-01-06 23:48:18.33	11.84	84.53	-62.4	-87.6	3.3	15688270	84	65535
2025-01-06 23:48:18.54	11.71	84.64	-62.4	-87.6	3.0	15689941	84	65535
2025-01-06 23:48:18.74	11.59	84.74	-62.4	-87.6	2.9	15689941	84	65535
2025-01-06 23:48:18.94	11.47	84.84	-62.4	-87.6	2.9	15689659	84	65535
2025-01-06 23:48:19.14	11.34	84.95	-62.4	-87.6	2.9	15689659	84	65535
2025-01-06 23:48:19.34	11.20	85.05	-62.4	-87.6	2.9	15705070	84	65535
2025-01-06 23:48:19.54	11.06	85.15	-62.4	-87.6	2.9	15705070	84	65535
2025-01-06 23:48:19.74	10.92	85.25	-62.4	-87.6	3.0	15690544	84	65535
2025-01-06 23:48:19.94	10.76	85.35	-62.4	-87.6	2.9	15690544	84	65535
2025-01-06 23:48:20.14	10.60	85.45	-62.4	-87.6	2.9	15690544	84	65535
2025-01-06 23:48:20.34	10.43	85.56	-62.4	-87.6	3.1	15693649	85	65535
2025-01-06 23:48:20.56	10.24	85.67	-62.4	-87.6	3.2	15693649	85	65535
2025-01-06 23:48:20.76	10.05	85.77	-60.7	-85.9	3.4	15669342	82	65535
2025-01-06 23:48:20.96	9.86	85.87	-62.4	-87.6	3.1	15669342	84	65535
2025-01-06 23:48:21.16	9.65	85.97	-62.4	-87.6	3.3	15676536	84	65535
2025-01-06 23:48:21.36	9.44	86.08	-62.4	-87.6	3.2	15676536	84	65535
2025-01-06 23:48:21.58	9.19	86.19	-62.4	-87.6	3.0	15688621	84	65535
2025-01-06 23:48:21.78	8.95	86.29	-62.3	-87.5	3.0	15688621	84	65535
2025-01-06 23:48:21.98	8.69	86.39	-62.4	-87.6	3.0	15697593	84	65535
2025-01-06 23:48:22.18	8.42	86.49	-62.4	-87.6	3.0	15697593	84	65535
2025-01-06 23:48:22.38	8.14	86.59	-62.1	-87.3	3.0	15702873	84	65535
2025-01-06 23:48:22.59	7.82	86.70	-62.4	-87.6	3.0	15702873	84	65535
2025-01-06 23:48:22.79	7.50	86.80	-62.4	-87.6	3.0	15679710	84	65535
2025-01-06 23:48:22.99	7.15	86.90	-62.4	-87.6	3.0	15679710	84	65535
2025-01-06 23:48:23.19	6.79	87.00	-62.4	-87.6	3.0	15679710	84	65535
2025-01-06 23:48:23.39	6.39	87.10	-62.4	-87.6	3.0	15674957	84	65535
2025-01-06 23:48:23.59	5.97	87.21	-62.4	-87.6	3.0	15674957	84	65535
2025-01-06 23:48:23.79	5.52	87.31	-62.4	-87.6	3.0	15693664	84	65535
2025-01-06 23:48:24.01	4.98	87.42	-62.4	-87.6	3.3	15693664	84	65535
2025-01-06 23:48:24.21	4.45	87.52	-62.4	-87.6	3.2	15687301	84	65535
2025-01-06 23:48:24.42	3.84	87.62	-62.4	-87.6	3.0	15687301	84	65535
2025-01-06 23:48:24.63	3.18	87.73	-62.4	-87.6	2.9	15687881	84	65535
2025-01-06 23:48:24.83	2.48	87.83	-62.4	-87.6	3.0	15687881	84	65535
2025-01-06 23:48:25.03	1.73	87.93	-62.4	-87.6	3.0	15685035	84	65535
2025-01-06 23:48:25.23	0.89	88.02	-62.4	-87.6	3.0	15685035	84	65535
2025-01-06 23:48:25.43	359.97	88.12	-62.4	-87.6	3.0	15684989	84	65535
2025-01-06 23:48:25.63	358.95	88.22	-62.4	-87.6	2.9	15684989	84	65535
2025-01-06 23:48:25.83	357.80	88.32	-62.4	-87.6	1.9	15684989	84	65535
2025-01-06 23:48:26.03	356.52	88.41	-62.4	-87.6	2.9	15698112	84	65535
2025-01-06 23:48:26.23	355.07	88.51	-62.4	-87.6	2.9	15698112	84	65535
2025-01-06 23:48:26.45	353.25	88.61	-62.4	-87.6	2.9	15693962	84	65535
2025-01-06 23:48:26.65	351.34	88.71	-62.4	-87.6	3.0	15693962	84	65535
2025-01-06 23:48:26.85	349.14	88.80	-62.4	-87.6	2.9	15696723	84	65535
2025-01-06 23:48:27.05	346.58	88.89	-62.4	-87.6	2.9	15696723	84	65535
2025-01-06 23:48:27.25	343.58	88.97	-62.4	-87.6	3.2	15698158	84	65535
2025-01-06 23:48:27.45	340.03	89.06	-61.9	-87.1	3.2	15698158	84	65535
2025-01-06 23:48:27.66	335.59	89.14	-62.4	-87.6	3.2	15691879	84	65535
2025-01-06 23:48:27.86	330.51	89.21	-62.3	-87.5	3.0	15691879	84	65535
2025-01-06 23:48:28.06	324.45	89.28	-62.4	-87.6	3.0	15687232	84	65535
2025-01-06 23:48:28.26	317.27	89.34	-62.4	-87.6	2.9	15687232	84	65535
2025-01-06 23:48:28.46	308.92	89.38	-62.4	-87.6	2.9	15687232	84	65535
2025-01-06 23:48:28.66	299.53	89.41	-62.4	-87.6	2.9	15699119	84	65535
2025-01-06 23:48:28.86	289.46	89.42	-62.4	-87.6	2.9	15699119	84	65535
2025-01-06 23:48:29.06	279.31	89.41	-62.4	-87.6	2.9	15691825	84	65535
2025-01-06 23:48:29.26	269.66	89.39	-62.4	-87.6	2.9	15691825	84	65535
2025-01-06 23:48:29.46	260.98	89.35	-62.4	-87.6	2.9	15701644	84	65535
2025-01-06 23:48:29.67	253.10	89.30	-62.4	-87.6	2.9	15701644	84	65535
2025-01-06 23:48:29.87	246.77	89.23	-62.4	-87.6	2.9	15690414	84	65535
2025-01-06 23:48:30.07	241.46	89.16	-62.4	-87.6	3.0	15690414	84	65535
2025-01-06 23:48:30.27	237.02	89.08	-62.2	-87.4	2.9	15689712	84	65535
2025-01-06 23:48:30.47	233.29	89.00	-62.2	-87.4	3.0	15689712	84	65535
2025-01-06 23:48:30.67	230.13	88.91	-62.4	-87.6	3.0	15697944	84	65535
2025-01-06 23:48:30.87	227.45	88.83	-62.4	-87.6	2.0	15697944	84	65535
2025-01-06 23:48:31.07	225.15	88.73	-62.4	-87.6	3.0	15685295	84	65535
2025-01-06 23:48:31.28	223.06	88.64	-62.4	-87.6	3.2	15685295	85	65535
2025-01-06 23:48:31.48	221.34	88.54	-62.3	-87.5	3.2	15685295	85	65535
2025-01-06 23:48:31.68	219.83	88.45	-62.4	-87.6	3.2	15672264	85	65535
2025-01-06 23:48:31.88	218.49	88.35	-62.4	-87.6	3.2	15672264	85	65535
2025-01-06 23:48:32.10	217.19	88.25	-62.4	-87.6	3.4	15665771	85	65535
2025-01-06 23:48:32.30	216.14	88.15	-62.4	-87.6	3.4	15665771	85	65535
2025-01-06 23:48:32.51	215.15	88.04	-61.7	-86.9	3.3	15659942	85	65535
2025-01-06 23:48:32.71	214.29	87.95	-62.3	-87.5	3.0	15659942	84	65535
2025-01-06 23:48:32.91	213.52	87.85	-62.4	-87.6	3.0	15683685	84	65535
2025-01-06 23:48:33.11	212.82	87.75	-62.3	-87.5	3.0	15683685	84	65535
2025-01-06 23:48:33.32	212.14	87.64	-62.4	-87.6	3.1	15692993	84	65535
2025-01-06 23:48:33.52	211.55	87.54	-62.4	-87.6	3.2	15692993	84	65535
2025-01-06 23:48:33.72	211.01	87.44	-62.4	-87.6	3.1	15688865	84	65535
2025-01-06 23:48:33.92	210.51	87.34	-62.4	-87.6	3.1	15688865	84	65535
2025-01-06 23:48:34.12	210.04	87.24	-62.3	-87.5	3.0	15688865	84	65535
2025-01-06 23:48:34.32	209.61	87.14	-62.3	-87.5	2.9	15696563	84	65535
2025-01-06 23:48:34.52	209.21	87.04	-62.4	-87.6	2.9	15696563	84	65535
2025-01-06 23:48:34.74	208.80	86.93	-62.3	-87.5	3.0	15699020	84	65535
2025-01-06 23:48:34.94	208.45	86.83	-62.4	-87.6	3.1	15699020	84	65535
2025-01-06 23:48:35.14	208.12	86.72	-62.4	-87.6	3.1	15691688	84	65535
2025-01-06 23:48:35.34	207.81	86.62	-62.4	-87.6	3.1	15691688	84	65535
2025-01-06 23:48:35.56	207.49	86.51	-62.4	-87.6	3.1	15694297	84	65535
2025-01-06 23:48:35.76	207.22	86.41	-62.4	-87.6	3.0	15694297	84	65535
2025-01-06 23:48:35.96	206.96	86.31	-62.3	-87.6	2.2	15689834	84	65535
2025-01-06 23:48:36.16	206.72	86.21	-62.4	-87.6	2.9	15689834	84	65535
2025-01-06 23:48:36.36	206.49	86.11	-62.4	-87.6	2.9	15695716	84	65535
2025-01-06 23:48:36.56	206.27	86.00	-62.3	-87.5	2.9	15695716	84	65535
2025-01-06 23:48:36.76	206.06	85.90	-62.3	-87.5	2.9	15695716	84	65535
2025-01-06 23:48:36.96	205.86	85.80	-62.3	-87.5	3.0	15688201	84	65535
2025-01-06 23:48:37.18	205.66	85.69	-62.4	-87.6	3.0	15688201	84	65535
2025-01-06 23:48:37.40	205.46	85.58	-62.3	-87.6	3.0	15684677	84	65535
2025-01-06 23:48:37.61	205.28	85.47	-61.9	-87.1	2.9	15684677	82	65535
2025-01-06 23:48:37.81	205.12	85.37	-62.3	-87.5	3.0	15691207	84	65535
2025-01-06 23:48:38.01	204.97	85.27	-62.3	-87.6	3.0	15691207	84	65535
2025-01-06 23:48:38.22	204.81	85.16	-62.3	-87.5	3.2	15691711	84	65535
2025-01-06 23:48:38.42	204.67	85.06	-62.3	-87.5	3.2	15691711	84	65535
2025-01-06 23:48:38.62	204.53	84.95	-62.3	-87.5	3.1	15682647	84	65535
2025-01-06 23:48:38.82	204.40	84.85	-62.3	-87.5	3.0	15682647	84	65535
2025-01-06 23:48:39.02	204.28	84.75	-62.3	-87.5	3.0	15685913	84	65535
2025-01-06 23:48:39.22	204.16	84.65	-60.8	-86.0	3.1	15685913	83	65535
2025-01-06 23:48:39.42	204.04	84.55	-62.3	-87.5	3.0	15702018	84	65535
2025-01-06 23:48:39.62	203.93	84.44	-62.3	-87.5	2.9	15702018	84	65535
2025-01-06 23:48:39.82	203.82	84.34	-62.3	-87.5	3.0	15695289	84	65535
2025-01-06 23:48:40.03	203.71	84.24	-62.3	-87.5	2.9	15695289	84	65535
2025-01-06 23:48:40.23	203.61	84.13	-62.3	-87.5	3.0	15695289	84	65535
2025-01-06 23:48:40.43	203.52	84.03	-62.3	-87.6	2.9	15688278	84	65535
2025-01-06 23:48:40.63	203.42	83.93	-62.3	-87.5	3.0	15688278	84	65535
2025-01-06 23:48:40.83	203.33	83.83	-62.3	-87.5	3.0	15711647	84	65535
2025-01-06 23:48:41.03	203.25	83.73	-62.4	-87.6	3.0	15711647	84	65535
2025-01-06 23:48:41.23	203.16	83.62	-62.3	-87.5	2.9	15685142	84	65535
2025-01-06 23:48:41.45	203.07	83.51	-62.3	-87.5	3.3	15685142	84	65535
2025-01-06 23:48:41.66	202.99	83.41	-62.4	-87.6	3.2	15698585	84	65535
2025-01-06 23:48:41.88	202.91	83.29	-62.4	-87.6	3.0	15698585	84	65535
2025-01-06 23:48:42.08	202.83	83.19	-62.4	-87.6	3.2	15689582	85	65535
2025-01-06 23:48:42.30	202.75	83.08	-62.3	-87.5	3.2	15689582	85	65535
2025-01-06 23:48:42.51	202.68	82.97	-62.4	-87.6	3.2	15662033	85	65535
2025-01-06 23:48:42.71	202.61	82.87	-62.4	-87.6	3.0	15662033	84	65535
2025-01-06 23:48:42.93	202.54	82.76	-62.4	-87.6	3.0	15694046	84	65535
2025-01-06 23:48:43.13	202.48	82.66	-62.4	-87.6	3.0	15694046	84	65535
2025-01-06 23:48:43.33	202.42	82.56	-62.3	-87.5	3.0	15683471	84	65535
2025-01-06 23:48:43.53	202.36	82.46	-62.4	-87.6	2.9	15683471	84	65535
2025-01-06 23:48:43.73	202.30	82.35	-62.3	-87.5	3.0	15683471	84	65535
2025-01-06 23:48:43.93	202.24	82.25	-62.4	-87.6	3.0	15681953	84	65535
2025-01-06 23:48:44.14	202.19	82.15	-62.4	-87.6	3.0	15681953	84	65535
2025-01-06 23:48:44.35	202.13	82.04	-62.4	-87.6	2.4	15691345	84	65535
2025-01-06 23:48:44.57	202.07	81.93	-62.4	-87.6	3.0	15691345	84	65535
2025-01-06 23:48:44.77	202.02	81.83	-62.4	-87.6	3.0	15690895	84	65535
2025-01-06 23:48:44.97	201.97	81.73	-62.4	-87.6	3.0	15690895	84	65535
2025-01-06 23:48:45.17	201.92	81.62	-62.3	-87.5	3.2	15688514	85	65535
2025-01-06 23:48:45.37	201.88	81.52	-62.3	-87.5	3.1	15688514	85	65535
2025-01-06 23:48:45.57	201.83	81.42	-62.1	-87.3	3.2	15672004	85	65535
2025-01-06 23:48:45.77	201.79	81.32	-62.4	-87.6	3.2	15672004	85	65535
2025-01-06 23:48:45.97	201.74	81.22	-60.7	-85.9	3.3	15658683	82	65535
2025-01-06 23:48:46.18	201.70	81.11	-62.4	-87.6	2.9	15658683	84	65535
2025-01-06 23:48:46.38	201.66	81.01	-62.4	-87.6	2.9	15700416	84	65535
2025-01-06 23:48:46.58	201.62	80.91	-62.3	-87.5	2.9	15700416	84	65535
2025-01-06 23:48:46.78	201.58	80.81	-62.4	-87.6	2.9	15700416	84	65535
2025-01-06 23:48:46.98	201.54	80.71	-62.4	-87.6	2.9	15699516	84	65535
2025-01-06 23:48:47.18	201.50	80.61	-62.4	-87.6	3.0	15699516	84	65535
2025-01-06 23:48:47.38	201.46	80.51	-62.4	-87.6	3.0	15697662	84	65535
2025-01-06 23:48:47.58	201.43	80.41	-62.4	-87.6	3.3	15697662	84	65535
2025-01-06 23:48:47.79	201.39	80.30	-62.4	-87.6	3.2	15683311	84	65535
2025-01-06 23:48:48.00	201.35	80.20	-62.4	-87.6	3.1	15683311	84	65535
2025-01-06 23:48:48.20	201.32	80.10	-62.4	-87.6	3.1	15691062	84	65535
2025-01-06 23:48:48.42	201.28	79.98	-62.3	-87.5	3.1	15691062	85	65535
2025-01-06 23:48:48.62	201.25	79.88	-62.4	-87.6	3.1	15678466	85	65535
2025-01-06 23:48:48.82	201.22	79.78	-62.3	-87.5	3.1	15678466	85	65535
2025-01-06 23:48:49.02	201.19	79.68	-62.4	-87.6	3.1	15669036	85	65535
2025-01-06 23:48:49.22	201.15	79.58	-62.4	-87.6	3.2	15669036	85	65535
2025-01-06 23:48:49.42	201.12	79.48	-62.4	-87.6	2.9	15683471	84	65535
2025-01-06 23:48:49.63	201.09	79.38	-62.4	-87.6	2.9	15683471	84	65535
2025-01-06 23:48:49.83	201.07	79.28	-62.4	-87.6	2.9	15683471	84	65535
2025-01-06 23:48:50.03	201.04	79.18	-62.4	-87.6	2.9	15684417	84	65535
2025-01-06 23:48:50.23	201.01	79.08	-62.4	-87.6	2.9	15684417	84	65535
2025-01-06 23:48:50.43	200.98	78.98	-62.4	-87.6	2.9	15701103	84	65535
2025-01-06 23:48:50.63	200.96	78.88	-62.4	-87.6	3.1	15701103	84	65535
2025-01-06 23:48:50.83	200.93	78.78	-62.4	-87.6	3.2	15684165	84	65535
2025-01-06 23:48:51.03	200.90	78.68	-60.7	-85.9	3.4	15684165	82	65535
2025-01-06 23:48:51.23	200.88	78.58	-62.4	-87.6	3.0	15696884	84	65535
2025-01-06 23:48:51.44	200.85	78.47	-62.4	-87.6	3.0	15696884	84	65535
2025-01-06 23:48:51.64	200.83	78.37	-62.4	-87.6	2.9	15693473	84	65535
2025-01-06 23:48:51.84	200.80	78.27	-62.4	-87.6	2.9	15693473	84	65535
2025-01-06 23:48:52.04	200.78	78.17	-62.4	-87.6	2.9	15693473	84	65535
2025-01-06 23:48:52.24	200.76	78.07	-62.3	-87.5	2.9	15691337	84	65535
2025-01-06 23:48:52.44	200.74	77.97	-62.4	-87.6	2.9	15691337	84	65535
2025-01-06 23:48:52.64	200.71	77.88	-62.4	-87.6	2.9	15684379	84	65535
2025-01-06 23:48:52.85	200.69	77.77	-62.4	-87.6	2.9	15684379	84	65535
2025-01-06 23:48:53.05	200.67	77.67	-62.2	-87.4	2.9	15688682	84	65535
2025-01-06 23:48:53.25	200.65	77.57	-62.4	-87.6	2.9	15688682	84	65535
2025-01-06 23:48:53.45	200.63	77.47	-62.4	-87.6	2.9	15689170	84	65535
2025-01-06 23:48:53.65	200.61	77.37	-62.4	-87.6	3.1	15689170	84	65535
2025-01-06 23:48:53.85	200.59	77.27	-62.4	-87.6	3.2	15701972	84	65535
2025-01-06 23:48:54.07	200.56	77.17	-62.4	-87.6	2.9	15701972	84	65535
2025-01-06 23:48:54.27	200.55	77.07	-62.4	-87.6	2.9	15697853	84	65535
2025-01-06 23:48:54.47	200.53	76.97	-62.4	-87.6	2.9	15697853	84	65535
2025-01-06 23:48:54.69	200.51	76.86	-62.4	-87.6	2.9	15695907	84	65535
2025-01-06 23:48:54.89	200.49	76.76	-62.4	-87.6	2.9	15695907	84	65535
2025-01-06 23:48:55.09	200.47	76.66	-62.4	-87.6	2.9	15695907	84	65535
2025-01-06 23:48:55.29	200.45	76.56	-62.4	-87.6	3.1	15709419	84	65535
2025-01-06 23:48:55.49	200.43	76.46	-62.4	-87.6	3.3	15709419	84	65535
2025-01-06 23:48:55.71	200.41	76.36	-62.4	-87.6	3.2	15686576	84	65535
2025-01-06 23:48:55.92	200.40	76.25	-62.4	-87.6	2.9	15686576	84	65535
2025-01-06 23:48:56.13	200.38	76.15	-62.4	-87.6	2.9	15695930	84	65535
2025-01-06 23:48:56.33	200.36	76.05	-62.4	-87.6	2.9	15695930	84	65535
2025-01-06 23:48:56.53	200.35	75.95	-62.4	-87.6	3.0	15702041	84	65535
2025-01-06 23:48:56.73	200.33	75.86	-62.4	-87.6	3.0	15702041	84	65535
2025-01-06 23:48:56.94	200.31	75.75	-62.4	-87.6	3.0	15696632	84	65535
2025-01-06 23:48:57.15	200.30	75.65	-62.4	-87.6	3.0	15696632	84	65535
2025-01-06 23:48:57.35	200.28	75.55	-62.4	-87.6	3.0	15682479	84	65535
2025-01-06 23:48:57.55	200.27	75.45	-62.4	-87.6	3.0	15682479	84	65535
2025-01-06 23:48:57.75	200.25	75.36	-61.0	-86.2	3.1	15686592	83	65535
2025-01-06 23:48:57.95	200.24	75.26	-62.4	-87.6	3.0	15686592	84	65535
2025-01-06 23:48:58.15	200.22	75.16	-62.3	-87.6	3.0	15686592	84	65535
2025-01-06 23:48:58.35	200.21	75.06	-62.4	-87.6	3.1	15686393	84	65535
2025-01-06 23:48:58.55	200.20	74.97	-62.4	-87.6	3.3	15686393	84	65535
2025-01-06 23:48:58.75	200.18	74.87	-62.4	-87.6	3.2	15684387	84	65535
2025-01-06 23:48:58.96	200.17	74.77	-62.0	-87.2	3.1	15684387	84	65535
2025-01-06 23:48:59.16	200.15	74.67	-62.4	-87.6	3.1	15689804	84	65535
2025-01-06 23:48:59.37	200.14	74.57	-62.1	-87.3	3.0	15689804	84	65535
2025-01-06 23:48:59.57	200.13	74.47	-62.4	-87.6	3.0	15692985	84	65535
2025-01-06 23:48:59.77	200.11	74.37	-62.1	-87.3	3.0	15692985	84	65535
2025-01-06 23:48:59.98	200.10	74.27	-62.4	-87.6	2.9	15681076	84	65535
2025-01-06 23:49:00.18	200.09	74.17	-62.4	-87.6	2.9	15681076	84	65535
2025-01-06 23:49:00.38	200.08	74.08	-62.4	-87.6	2.9	15688339	84	65535
2025-01-06 23:49:00.58	200.06	73.98	-62.4	-87.6	2.9	15688339	84	65535
2025-01-06 23:49:00.78	200.05	73.88	-62.4	-87.6	2.9	15688339	84	65535
2025-01-06 23:49:00.98	200.04	73.79	-62.4	-87.6	3.0	15687049	84	65535
2025-01-06 23:49:01.20	200.03	73.68	-62.4	-87.6	2.8	15687049	84	65535
2025-01-06 23:49:01.40	200.02	73.58	-62.4	-87.6	3.0	15694168	84	65535
2025-01-06 23:49:01.60	200.00	73.49	-62.4	-87.6	2.9	15694168	84	65535
2025-01-06 23:49:01.80	199.99	73.39	-62.4	-87.6	2.9	15689933	84	65535
2025-01-06 23:49:02.00	199.98	73.30	-62.4	-87.6	2.9	15689933	84	65535
2025-01-06 23:49:02.20	199.97	73.20	-62.4	-87.6	2.9	15683914	84	65535
2025-01-06 23:49:02.40	199.96	73.10	-62.4	-87.6	2.9	15683914	84	65535
2025-01-06 23:49:02.62	199.95	73.00	-62.4	-87.6	2.9	15681930	84	65535
2025-01-06 23:49:02.82	199.94	72.90	-62.4	-87.6	2.1	15681930	84	65535
2025-01-06 23:49:03.02	199.93	72.81	-62.4	-87.6	2.9	15695899	84	65535
2025-01-06 23:49:03.22	199.92	72.71	-62.4	-87.6	2.9	15695899	84	65535
2025-01-06 23:49:03.43	199.91	72.61	-62.4	-87.6	2.9	15681320	84	65535
2025-01-06 23:49:03.63	199.90	72.51	-62.4	-87.6	2.9	15681320	84	65535
2025-01-06 23:49:03.83	199.89	72.42	-62.4	-87.6	3.0	15681320	84	65535
2025-01-06 23:49:04.03	199.88	72.32	-62.4	-87.6	3.1	15686668	85	65535
2025-01-06 23:49:04.23	199.87	72.23	-62.4	-87.6	3.1	15686668	85	65535
2025-01-06 23:49:04.43	199.86	72.13	-62.3	-87.5	3.2	15682334	85	65535
2025-01-06 23:49:04.63	199.85	72.04	-62.2	-87.4	3.1	15682334	84	65535
2025-01-06 23:49:04.83	199.84	71.94	-62.4	-87.6	3.2	15686569	84	65535
2025-01-06 23:49:05.03	199.83	71.85	-62.4	-87.6	3.2	15686569	84	65535
2025-01-06 23:49:05.23	199.82	71.75	-62.4	-87.6	3.1	15698059	84	65535
2025-01-06 23:49:05.43	199.81	71.66	-62.0	-87.2	3.0	15698059	84	65535
2025-01-06 23:49:05.64	199.80	71.56	-62.4	-87.6	3.1	15687606	84	65535
2025-01-06 23:49:05.84	199.79	71.46	-62.4	-87.6	2.9	15687606	84	65535
2025-01-06 23:49:06.05	199.78	71.36	-62.4	-87.6	3.0	15698730	84	65535
2025-01-06 23:49:06.27	199.77	71.26	-62.4	-87.6	2.9	15698730	84	65535
2025-01-06 23:49:06.47	199.77	71.17	-62.4	-87.6	3.0	15693969	84	65535
2025-01-06 23:49:06.67	199.76	71.07	-62.4	-87.6	3.0	15693969	84	65535
2025-01-06 23:49:06.89	199.75	70.97	-62.4	-87.6	3.0	15693969	84	65535
2025-01-06 23:49:07.09	199.74	70.87	-62.4	-87.6	3.0	15693183	84	65535
2025-01-06 23:49:07.29	199.73	70.78	-62.3	-87.5	3.2	15693183	85	65535
2025-01-06 23:49:07.49	199.72	70.69	-62.4	-87.6	3.2	15681610	85	65535
2025-01-06 23:49:07.69	199.72	70.59	-62.4	-87.6	3.2	15681610	85	65535
2025-01-06 23:49:07.89	199.71	70.50	-62.4	-87.6	2.4	15670585	84	65535
2025-01-06 23:49:08.09	199.70	70.40	-62.4	-87.6	3.2	15670585	84	65535
2025-01-06 23:49:08.31	199.69	70.30	-62.4	-87.6	3.1	15685340	84	65535

#Closed at: 2025-01-06 23:49:08