passes_logs/2025/01/06/X_MFTI_02/X_MFTI_02__20250106_095720_NOAA_20_rec.log

#Pass ID: 20250106_095720_NOAA 20
#Satellite: NOAA 20
#Configuration: NOAA 20
#Start time: 2025-01-06 09:57:15

#Version: 1.5.20200625
#Station: X_MFTI_02
#Location: 37.5186 lon 55.9291 lat
#TLE: 1 43013U 17073A   23362.44808611  .00000160  00000+0  96626-4 0  9996
#TLE: 2 43013  98.7331 297.9536 0000783  57.5916 302.5335 14.19555620316533

#Time	Az	El	Level	Level2	SNR	BER	Gain	Gain2
2025-01-06 09:57:15.54	144.50	68.02	-62.4	-87.6	3.2	15502754	84	65535
2025-01-06 09:57:15.75	144.42	68.11	-62.5	-87.7	3.2	15673065	86	65535
2025-01-06 09:57:15.95	144.35	68.20	-62.5	-87.7	3.0	15673065	85	65535
2025-01-06 09:57:16.16	144.27	68.29	-62.4	-87.6	3.0	15680328	85	65535
2025-01-06 09:57:16.38	144.19	68.38	-62.5	-87.7	3.0	15680328	85	65535
2025-01-06 09:57:16.58	144.11	68.47	-62.5	-87.7	3.0	15682296	85	65535
2025-01-06 09:57:16.78	144.04	68.56	-62.4	-87.6	3.2	15682296	86	65535
2025-01-06 09:57:16.98	143.96	68.65	-62.4	-87.6	2.8	15682296	84	65535
2025-01-06 09:57:17.20	143.87	68.75	-62.5	-87.7	2.8	15666297	84	65535
2025-01-06 09:57:17.40	143.80	68.83	-62.5	-87.7	2.9	15666297	84	65535
2025-01-06 09:57:17.60	143.72	68.92	-62.5	-87.7	2.8	15693183	84	65535
2025-01-06 09:57:17.82	143.63	69.02	-62.5	-87.7	2.8	15693183	84	65535
2025-01-06 09:57:18.02	143.55	69.11	-62.5	-87.7	2.8	15696647	84	65535
2025-01-06 09:57:18.23	143.46	69.20	-62.4	-87.6	2.9	15696647	85	65535
2025-01-06 09:57:18.44	143.38	69.29	-62.4	-87.6	2.9	15701599	85	65535
2025-01-06 09:57:18.65	143.29	69.39	-62.4	-87.6	2.8	15701599	84	65535
2025-01-06 09:57:18.85	143.21	69.47	-62.5	-87.7	2.8	15705497	84	65535
2025-01-06 09:57:19.05	143.12	69.56	-62.5	-87.7	2.8	15705497	84	65535
2025-01-06 09:57:19.25	143.04	69.65	-62.5	-87.7	2.8	15705810	84	65535
2025-01-06 09:57:19.45	142.95	69.74	-62.4	-87.6	2.7	15705810	84	65535
2025-01-06 09:57:19.67	142.86	69.84	-62.5	-87.7	2.8	15704231	84	65535
2025-01-06 09:57:19.87	142.77	69.93	-62.4	-87.6	2.8	15704231	84	65535
2025-01-06 09:57:20.09	142.67	70.02	-62.4	-87.6	2.8	15710029	84	65535
2025-01-06 09:57:20.29	142.58	70.11	-62.4	-87.6	1.9	15710029	84	65535
2025-01-06 09:57:20.49	142.49	70.20	-62.4	-87.6	2.9	15710029	84	65535
2025-01-06 09:57:20.71	142.39	70.30	-62.4	-87.7	2.8	15708633	84	65535
2025-01-06 09:57:20.91	142.30	70.39	-62.4	-87.6	2.8	15708633	84	65535
2025-01-06 09:57:21.12	142.20	70.48	-62.4	-87.6	2.8	15692481	84	65535
2025-01-06 09:57:21.32	142.11	70.57	-62.4	-87.6	2.9	15692481	85	65535
2025-01-06 09:57:21.52	142.01	70.66	-62.4	-87.6	3.0	15689979	85	65535
2025-01-06 09:57:21.73	141.91	70.75	-62.4	-87.6	2.9	15689979	85	65535
2025-01-06 09:57:21.94	141.81	70.84	-62.5	-87.7	2.6	15698631	84	65535
2025-01-06 09:57:22.14	141.71	70.93	-62.5	-87.7	2.8	15698631	84	65535
2025-01-06 09:57:22.36	141.60	71.03	-62.5	-87.7	2.8	15698654	84	65535
2025-01-06 09:57:22.56	141.50	71.12	-62.4	-87.6	2.8	15698654	84	65535
2025-01-06 09:57:22.77	141.40	71.21	-62.5	-87.7	2.8	15695259	84	65535
2025-01-06 09:57:22.99	141.28	71.31	-62.4	-87.6	2.8	15695259	84	65535
2025-01-06 09:57:23.19	141.18	71.40	-62.4	-87.7	2.8	15713104	84	65535
2025-01-06 09:57:23.39	141.08	71.49	-62.5	-87.7	2.8	15713104	84	65535
2025-01-06 09:57:23.59	140.97	71.58	-62.5	-87.7	2.2	15711402	84	65535
2025-01-06 09:57:23.79	140.86	71.67	-62.5	-87.7	2.8	15711402	84	65535
2025-01-06 09:57:23.99	140.76	71.76	-62.5	-87.7	2.8	15703483	84	65535
2025-01-06 09:57:24.21	140.64	71.86	-62.5	-87.7	2.8	15703483	84	65535
2025-01-06 09:57:24.43	140.52	71.95	-62.4	-87.6	2.9	15703483	85	65535
2025-01-06 09:57:24.63	140.40	72.04	-62.4	-87.6	2.9	15698204	85	65535
2025-01-06 09:57:24.83	140.29	72.13	-62.4	-87.6	3.0	15698204	85	65535
2025-01-06 09:57:25.04	140.17	72.23	-62.5	-87.7	2.9	15685623	85	65535
2025-01-06 09:57:25.26	140.05	72.32	-60.6	-85.8	3.4	15685623	82	65535
2025-01-06 09:57:25.46	139.93	72.41	-62.5	-87.7	2.8	15698707	84	65535
2025-01-06 09:57:25.66	139.81	72.50	-62.5	-87.7	2.8	15698707	84	65535
2025-01-06 09:57:25.88	139.68	72.60	-62.4	-87.6	2.8	15707000	84	65535
2025-01-06 09:57:26.09	139.55	72.70	-62.4	-87.6	3.0	15707000	85	65535
2025-01-06 09:57:26.29	139.43	72.78	-62.4	-87.6	3.0	15684883	85	65535
2025-01-06 09:57:26.51	139.30	72.88	-62.4	-87.7	3.0	15684883	85	65535
2025-01-06 09:57:26.71	139.17	72.97	-62.5	-87.7	3.0	15688507	85	65535
2025-01-06 09:57:26.91	139.05	73.06	-61.7	-86.9	3.0	15688507	84	65535
2025-01-06 09:57:27.11	138.92	73.15	-62.4	-87.6	2.8	15696975	84	65535
2025-01-06 09:57:27.31	138.79	73.24	-62.5	-87.7	2.8	15696975	84	65535
2025-01-06 09:57:27.53	138.65	73.34	-62.4	-87.6	2.8	15712562	84	65535
2025-01-06 09:57:27.75	138.50	73.44	-62.4	-87.6	2.9	15712562	84	65535
2025-01-06 09:57:27.96	138.36	73.53	-62.4	-87.6	2.8	15706726	84	65535
2025-01-06 09:57:28.18	138.21	73.63	-62.5	-87.7	2.8	15706726	84	65535
2025-01-06 09:57:28.38	138.08	73.72	-62.4	-87.7	2.8	15689521	84	65535
2025-01-06 09:57:28.58	137.94	73.81	-62.5	-87.7	2.8	15689521	84	65535
2025-01-06 09:57:28.78	137.80	73.89	-62.4	-87.6	2.8	15689521	84	65535
2025-01-06 09:57:28.98	137.66	73.98	-62.4	-87.6	2.8	15686317	84	65535
2025-01-06 09:57:29.18	137.51	74.07	-62.4	-87.6	2.8	15686317	84	65535
2025-01-06 09:57:29.38	137.37	74.16	-62.4	-87.6	2.8	15697868	84	65535
2025-01-06 09:57:29.58	137.22	74.25	-62.4	-87.6	2.8	15697868	84	65535
2025-01-06 09:57:29.78	137.07	74.34	-62.4	-87.6	3.0	15708915	84	65535
2025-01-06 09:57:29.99	136.92	74.43	-62.4	-87.6	3.1	15708915	84	65535
2025-01-06 09:57:30.19	136.76	74.52	-62.4	-87.6	2.9	15700195	84	65535
2025-01-06 09:57:30.40	136.60	74.61	-62.4	-87.6	2.8	15700195	84	65535
2025-01-06 09:57:30.62	136.43	74.71	-62.4	-87.6	2.8	15696067	84	65535
2025-01-06 09:57:30.82	136.27	74.80	-62.4	-87.6	2.8	15696067	84	65535
2025-01-06 09:57:31.03	136.11	74.89	-62.4	-87.6	2.8	15706649	84	65535
2025-01-06 09:57:31.23	135.94	74.98	-62.4	-87.6	3.2	15706649	84	65535
2025-01-06 09:57:31.45	135.76	75.08	-62.4	-87.6	2.8	15691757	84	65535
2025-01-06 09:57:31.65	135.60	75.17	-62.4	-87.6	2.8	15691757	84	65535
2025-01-06 09:57:31.85	135.43	75.26	-62.4	-87.6	2.8	15694702	84	65535
2025-01-06 09:57:32.05	135.26	75.34	-62.4	-87.6	2.8	15694702	84	65535
2025-01-06 09:57:32.25	135.09	75.43	-62.4	-87.6	3.0	15694702	85	65535
2025-01-06 09:57:32.46	134.90	75.52	-62.4	-87.6	3.0	15703819	85	65535
2025-01-06 09:57:32.66	134.73	75.61	-62.4	-87.6	3.0	15703819	85	65535
2025-01-06 09:57:32.86	134.55	75.70	-62.4	-87.6	3.0	15694335	85	65535
2025-01-06 09:57:33.06	134.36	75.79	-62.4	-87.6	3.3	15694335	85	65535
2025-01-06 09:57:33.26	134.18	75.88	-62.4	-87.6	3.3	15683258	85	65535
2025-01-06 09:57:33.48	133.98	75.97	-62.4	-87.6	3.1	15683258	85	65535
2025-01-06 09:57:33.68	133.79	76.06	-60.6	-85.8	3.3	15691101	82	65535
2025-01-06 09:57:33.89	133.59	76.15	-62.4	-87.6	2.8	15691101	84	65535
2025-01-06 09:57:34.09	133.39	76.24	-62.4	-87.6	2.8	15705841	84	65535
2025-01-06 09:57:34.30	133.18	76.33	-62.4	-87.6	2.8	15705841	84	65535
2025-01-06 09:57:34.51	132.98	76.42	-62.4	-87.6	3.1	15693580	84	65535
2025-01-06 09:57:34.71	132.77	76.51	-62.4	-87.6	3.1	15693580	84	65535
2025-01-06 09:57:34.93	132.55	76.61	-62.4	-87.6	2.9	15704193	84	65535
2025-01-06 09:57:35.13	132.34	76.69	-62.4	-87.6	2.8	15704193	84	65535
2025-01-06 09:57:35.34	132.12	76.78	-61.4	-86.6	3.0	15706611	82	65535
2025-01-06 09:57:35.55	131.89	76.87	-62.4	-87.6	2.8	15706611	84	65535
2025-01-06 09:57:35.76	131.67	76.97	-62.4	-87.6	2.9	15706611	84	65535
2025-01-06 09:57:35.96	131.45	77.05	-62.5	-87.7	2.8	15709167	84	65535
2025-01-06 09:57:36.18	131.20	77.15	-62.5	-87.7	2.8	15709167	84	65535
2025-01-06 09:57:36.39	130.96	77.24	-62.4	-87.6	3.1	15695556	84	65535
2025-01-06 09:57:36.61	130.71	77.33	-62.5	-87.7	2.9	15695556	84	65535
2025-01-06 09:57:36.82	130.46	77.42	-62.4	-87.6	2.9	15713661	84	65535
2025-01-06 09:57:37.03	130.22	77.51	-60.8	-86.0	3.0	15713661	83	65535
2025-01-06 09:57:37.24	129.96	77.60	-62.4	-87.6	2.8	15705627	84	65535
2025-01-06 09:57:37.44	129.72	77.69	-62.4	-87.6	2.9	15705627	84	65535
2025-01-06 09:57:37.66	129.45	77.78	-62.4	-87.6	3.1	15701370	84	65535
2025-01-06 09:57:37.87	129.18	77.87	-62.4	-87.6	3.2	15701370	84	65535
2025-01-06 09:57:38.07	128.93	77.95	-62.4	-87.7	2.9	15697296	84	65535
2025-01-06 09:57:38.28	128.66	78.04	-62.4	-87.6	3.0	15697296	84	65535
2025-01-06 09:57:38.48	128.39	78.13	-62.4	-87.6	2.8	15715751	84	65535
2025-01-06 09:57:38.69	128.11	78.21	-60.7	-85.9	3.1	15715751	82	65535
2025-01-06 09:57:38.89	127.84	78.30	-62.4	-87.6	2.9	15701759	84	65535
2025-01-06 09:57:39.09	127.57	78.38	-62.4	-87.6	3.1	15701759	84	65535
2025-01-06 09:57:39.29	127.29	78.46	-62.4	-87.7	3.0	15686225	84	65535
2025-01-06 09:57:39.50	126.99	78.55	-62.4	-87.6	3.1	15686225	84	65535
2025-01-06 09:57:39.70	126.70	78.63	-62.5	-87.7	3.0	15691291	84	65535
2025-01-06 09:57:39.91	126.40	78.72	-62.4	-87.6	2.8	15691291	85	65535
2025-01-06 09:57:40.11	126.10	78.80	-62.4	-87.6	3.0	15691291	85	65535
2025-01-06 09:57:40.32	125.78	78.89	-62.4	-87.6	3.0	15691261	85	65535
2025-01-06 09:57:40.53	125.46	78.98	-62.4	-87.7	2.8	15691261	84	65535
2025-01-06 09:57:40.73	125.15	79.06	-62.4	-87.6	2.8	15697311	84	65535
2025-01-06 09:57:40.95	124.81	79.15	-62.5	-87.7	3.1	15697311	84	65535
2025-01-06 09:57:41.15	124.48	79.23	-62.5	-87.7	2.9	15689979	84	65535
2025-01-06 09:57:41.35	124.16	79.31	-62.5	-87.7	3.0	15689979	84	65535
2025-01-06 09:57:41.56	123.81	79.39	-62.4	-87.6	2.8	15698181	84	65535
2025-01-06 09:57:41.77	123.46	79.48	-62.4	-87.6	2.8	15698181	84	65535
2025-01-06 09:57:41.98	123.10	79.56	-62.4	-87.6	2.8	15709403	84	65535
2025-01-06 09:57:42.18	122.75	79.64	-62.5	-87.7	2.8	15709403	84	65535
2025-01-06 09:57:42.40	122.36	79.73	-62.5	-87.7	3.2	15696708	84	65535
2025-01-06 09:57:42.61	121.99	79.81	-62.5	-87.7	3.0	15696708	84	65535
2025-01-06 09:57:42.81	121.62	79.89	-62.5	-87.7	3.1	15708595	84	65535
2025-01-06 09:57:43.03	121.21	79.97	-62.4	-87.6	2.8	15708595	84	65535
2025-01-06 09:57:43.23	120.84	80.05	-62.4	-87.6	2.8	15700981	84	65535
2025-01-06 09:57:43.45	120.42	80.13	-62.4	-87.6	2.8	15700981	84	65535
2025-01-06 09:57:43.65	120.03	80.21	-62.5	-87.7	2.9	15704917	84	65535
2025-01-06 09:57:43.85	119.63	80.29	-62.5	-87.7	3.0	15704917	84	65535
2025-01-06 09:57:44.06	119.21	80.36	-62.4	-87.6	3.1	15704917	84	65535
2025-01-06 09:57:44.27	118.78	80.44	-62.5	-87.7	3.0	15700881	84	65535
2025-01-06 09:57:44.48	118.34	80.52	-62.5	-87.7	2.8	15700881	84	65535
2025-01-06 09:57:44.68	117.92	80.60	-62.4	-87.6	2.8	15709915	84	65535
2025-01-06 09:57:44.88	117.49	80.67	-62.4	-87.6	2.8	15709915	84	65535
2025-01-06 09:57:45.08	117.05	80.74	-62.4	-87.6	2.8	15702941	84	65535
2025-01-06 09:57:45.28	116.61	80.82	-62.5	-87.7	2.8	15702941	84	65535
2025-01-06 09:57:45.50	116.11	80.89	-62.5	-87.7	3.1	15705383	84	65535
2025-01-06 09:57:45.72	115.61	80.97	-62.5	-87.7	3.1	15705383	84	65535
2025-01-06 09:57:45.93	115.12	81.05	-62.4	-87.7	2.9	15703704	84	65535
2025-01-06 09:57:46.13	114.64	81.12	-62.9	-88.1	2.8	15703704	85	65535
2025-01-06 09:57:46.33	114.16	81.19	-62.4	-87.6	2.9	15698005	85	65535
2025-01-06 09:57:46.53	113.67	81.26	-62.4	-87.6	3.0	15698005	85	65535
2025-01-06 09:57:46.75	113.12	81.33	-62.5	-87.7	3.1	15700927	85	65535
2025-01-06 09:57:46.97	112.56	81.41	-62.5	-87.7	3.3	15700927	85	65535
2025-01-06 09:57:47.17	112.05	81.47	-62.5	-87.7	2.7	15698730	84	65535
2025-01-06 09:57:47.37	111.52	81.54	-62.5	-87.7	2.9	15698730	84	65535
2025-01-06 09:57:47.57	110.99	81.61	-62.5	-87.7	2.8	15698730	84	65535
2025-01-06 09:57:47.77	110.45	81.67	-62.5	-87.7	2.8	15701728	84	65535
2025-01-06 09:57:47.97	109.90	81.73	-62.4	-87.6	2.8	15701728	84	65535
2025-01-06 09:57:48.17	109.34	81.80	-62.4	-87.6	2.8	15697212	84	65535
2025-01-06 09:57:48.39	108.72	81.87	-62.4	-87.6	2.8	15697212	84	65535
2025-01-06 09:57:48.59	108.14	81.93	-62.5	-87.7	2.8	15699768	84	65535
2025-01-06 09:57:48.79	107.56	81.99	-61.7	-86.9	2.8	15699768	84	65535
2025-01-06 09:57:49.00	106.93	82.05	-62.4	-87.6	2.9	15703292	84	65535
2025-01-06 09:57:49.21	106.30	82.11	-62.9	-88.1	2.8	15703292	85	65535
2025-01-06 09:57:49.41	105.68	82.17	-62.4	-87.6	2.9	15701210	85	65535
2025-01-06 09:57:49.61	105.06	82.23	-62.5	-87.7	3.0	15701210	85	65535
2025-01-06 09:57:49.82	104.40	82.29	-62.4	-87.6	3.0	15704223	85	65535
2025-01-06 09:57:50.02	103.75	82.35	-62.4	-87.6	3.0	15704223	85	65535
2025-01-06 09:57:50.22	103.10	82.40	-62.5	-87.7	2.9	15689323	85	65535
2025-01-06 09:57:50.43	102.41	82.46	-62.4	-87.6	2.9	15689323	85	65535
2025-01-06 09:57:50.64	101.70	82.51	-62.4	-87.7	2.8	15689323	84	65535
2025-01-06 09:57:50.84	101.02	82.56	-62.4	-87.6	2.9	15691978	85	65535
2025-01-06 09:57:51.04	100.33	82.61	-62.4	-87.6	2.9	15691978	85	65535
2025-01-06 09:57:51.26	99.56	82.67	-62.4	-87.6	3.0	15683334	85	65535
2025-01-06 09:57:51.46	98.85	82.72	-62.4	-87.6	2.9	15683334	85	65535
2025-01-06 09:57:51.68	98.06	82.77	-62.5	-87.7	3.0	15679336	85	65535
2025-01-06 09:57:51.89	97.29	82.82	-62.4	-87.6	3.2	15679336	85	65535
2025-01-06 09:57:52.09	96.55	82.86	-62.0	-87.2	3.2	15689384	85	65535
2025-01-06 09:57:52.31	95.73	82.91	-62.4	-87.6	2.8	15689384	85	65535
2025-01-06 09:57:52.51	94.97	82.95	-62.4	-87.6	3.0	15700752	85	65535
2025-01-06 09:57:52.71	94.20	82.99	-62.4	-87.6	3.0	15700752	85	65535
2025-01-06 09:57:52.93	93.34	83.03	-62.4	-87.6	2.9	15691703	85	65535
2025-01-06 09:57:53.13	92.56	83.07	-62.5	-87.7	2.9	15691703	85	65535
2025-01-06 09:57:53.34	91.72	83.11	-62.4	-87.6	3.2	15685302	85	65535
2025-01-06 09:57:53.54	90.92	83.15	-62.4	-87.6	3.2	15685302	85	65535
2025-01-06 09:57:53.76	90.02	83.18	-62.4	-87.6	3.0	15686134	85	65535
2025-01-06 09:57:53.98	89.12	83.22	-62.4	-87.6	2.8	15686134	84	65535
2025-01-06 09:57:54.18	88.29	83.25	-62.4	-87.6	2.8	15704254	84	65535
2025-01-06 09:57:54.38	87.45	83.28	-62.4	-87.6	2.8	15704254	84	65535
2025-01-06 09:57:54.58	86.61	83.31	-62.4	-87.6	2.9	15704254	84	65535
2025-01-06 09:57:54.79	85.71	83.34	-62.4	-87.6	3.1	15690170	84	65535
2025-01-06 09:57:55.00	84.81	83.36	-62.4	-87.6	3.0	15689987	84	65535
2025-01-06 09:57:55.21	83.90	83.39	-62.4	-87.6	2.9	15689987	84	65535
2025-01-06 09:57:55.41	83.03	83.41	-62.4	-87.6	2.8	15689987	85	65535
2025-01-06 09:57:55.61	82.15	83.43	-62.4	-87.7	2.8	15704017	84	65535
2025-01-06 09:57:55.81	81.27	83.45	-62.4	-87.6	2.8	15704017	84	65535
2025-01-06 09:57:56.02	80.33	83.47	-62.4	-87.6	2.8	15711654	84	65535
2025-01-06 09:57:56.22	79.44	83.48	-62.4	-87.6	2.8	15711654	84	65535
2025-01-06 09:57:56.42	78.54	83.50	-62.5	-87.7	2.8	15699737	84	65535
2025-01-06 09:57:56.63	77.60	83.51	-62.4	-87.6	2.8	15699737	84	65535
2025-01-06 09:57:56.83	76.69	83.52	-62.4	-87.6	2.8	15688049	84	65535
2025-01-06 09:57:57.03	75.79	83.53	-62.4	-87.6	2.8	15688049	84	65535
2025-01-06 09:57:57.25	74.79	83.54	-62.4	-87.6	2.7	15708969	84	65535
2025-01-06 09:57:57.45	73.87	83.55	-62.3	-87.5	2.8	15708969	84	65535
2025-01-06 09:57:57.65	72.96	83.55	-62.4	-87.6	2.8	15703247	84	65535
2025-01-06 09:57:57.85	72.05	83.55	-62.4	-87.6	2.9	15703247	84	65535
2025-01-06 09:57:58.05	71.13	83.55	-62.4	-87.6	2.8	15706802	84	65535
2025-01-06 09:57:58.27	70.13	83.55	-62.4	-87.6	2.8	15706802	84	65535
2025-01-06 09:57:58.47	69.21	83.55	-62.4	-87.6	2.9	15706802	84	65535
2025-01-06 09:57:58.67	68.30	83.55	-62.3	-87.5	3.0	15706466	85	65535
2025-01-06 09:57:58.87	67.39	83.54	-60.7	-85.9	3.3	15706466	83	65535
2025-01-06 09:57:59.09	66.39	83.53	-62.4	-87.6	2.9	15696128	84	65535
2025-01-06 09:57:59.30	65.43	83.52	-62.3	-87.5	2.9	15696128	84	65535
2025-01-06 09:57:59.51	64.48	83.51	-62.3	-87.5	2.9	15691390	84	65535
2025-01-06 09:57:59.72	63.54	83.50	-62.3	-87.5	2.9	15691390	84	65535
2025-01-06 09:57:59.94	62.55	83.48	-62.4	-87.6	2.9	15702896	84	65535
2025-01-06 09:58:00.14	61.66	83.47	-62.3	-87.5	3.1	15702896	85	65535
2025-01-06 09:58:00.34	60.77	83.45	-62.3	-87.5	3.1	15680564	85	65535
2025-01-06 09:58:00.54	59.89	83.43	-62.1	-87.3	3.1	15680564	85	65535
2025-01-06 09:58:00.74	59.01	83.41	-62.4	-87.6	2.9	15694259	84	65535
2025-01-06 09:58:00.96	58.05	83.39	-62.4	-87.6	2.9	15694259	84	65535
2025-01-06 09:58:01.16	57.19	83.36	-62.4	-87.6	2.9	15694442	84	65535
2025-01-06 09:58:01.37	56.29	83.34	-62.4	-87.6	2.9	15694442	84	65535
2025-01-06 09:58:01.57	55.43	83.31	-62.2	-87.4	2.9	15689132	84	65535
2025-01-06 09:58:01.79	54.50	83.28	-62.2	-87.4	2.9	15689132	84	65535
2025-01-06 09:58:02.01	53.58	83.24	-62.3	-87.5	2.9	15693016	84	65535
2025-01-06 09:58:02.21	52.76	83.21	-60.8	-86.0	3.0	15693016	83	65535
2025-01-06 09:58:02.41	51.94	83.18	-62.4	-87.6	3.1	15693016	84	65535
2025-01-06 09:58:02.62	51.08	83.14	-62.4	-87.6	3.2	15699592	84	65535
2025-01-06 09:58:02.82	50.28	83.11	-62.4	-87.6	3.1	15699592	84	65535
2025-01-06 09:58:03.04	49.40	83.07	-62.4	-87.6	3.0	15695198	84	65535
2025-01-06 09:58:03.26	48.54	83.03	-62.3	-87.5	2.9	15695198	84	65535
2025-01-06 09:58:03.46	47.76	82.99	-62.3	-87.5	2.9	15690238	84	65535
2025-01-06 09:58:03.66	47.00	82.95	-62.4	-87.6	2.9	15690238	84	65535
2025-01-06 09:58:03.86	46.24	82.90	-62.3	-87.5	3.2	15696365	84	65535
2025-01-06 09:58:04.06	45.49	82.86	-62.3	-87.5	3.2	15696365	84	65535
2025-01-06 09:58:04.26	44.75	82.82	-62.3	-87.5	3.2	15690429	84	65535
2025-01-06 09:58:04.47	43.98	82.77	-62.3	-87.5	3.1	15690429	84	65535
2025-01-06 09:58:04.68	43.23	82.72	-62.3	-87.5	3.0	15695777	84	65535
2025-01-06 09:58:04.88	42.52	82.67	-62.3	-87.5	2.9	15695777	84	65535
2025-01-06 09:58:05.08	41.82	82.62	-62.3	-87.5	2.9	15684295	84	65535
2025-01-06 09:58:05.28	41.13	82.57	-62.3	-87.5	2.9	15684295	84	65535
2025-01-06 09:58:05.50	40.38	82.51	-62.3	-87.5	3.1	15680961	84	65535
2025-01-06 09:58:05.70	39.70	82.46	-62.3	-87.5	3.2	15680961	84	65535
2025-01-06 09:58:05.90	39.04	82.41	-62.3	-87.5	3.2	15680961	84	65535
2025-01-06 09:58:06.10	38.39	82.35	-62.3	-87.5	3.1	15687309	84	65535
2025-01-06 09:58:06.31	37.71	82.30	-62.3	-87.5	3.0	15687309	85	65535
2025-01-06 09:58:06.51	37.08	82.24	-62.3	-87.5	3.1	15679100	85	65535
2025-01-06 09:58:06.72	36.43	82.18	-62.2	-87.4	3.1	15679100	85	65535
2025-01-06 09:58:06.93	35.78	82.12	-62.2	-87.4	3.1	15676376	85	65535
2025-01-06 09:58:07.13	35.18	82.06	-62.3	-87.5	3.1	15676376	85	65535
2025-01-06 09:58:07.33	34.58	82.00	-62.2	-87.5	2.1	15667396	84	65535
2025-01-06 09:58:07.53	33.99	81.94	-62.3	-87.5	2.9	15667396	84	65535
2025-01-06 09:58:07.74	33.39	81.87	-62.4	-87.6	3.0	15686996	84	65535
2025-01-06 09:58:07.95	32.79	81.81	-62.2	-87.4	3.1	15686996	85	65535
2025-01-06 09:58:08.15	32.23	81.74	-62.2	-87.4	3.1	15672607	85	65535
2025-01-06 09:58:08.35	31.68	81.68	-62.3	-87.5	3.1	15672607	85	65535
2025-01-06 09:58:08.57	31.09	81.61	-62.3	-87.5	3.1	15670082	85	65535
2025-01-06 09:58:08.78	30.53	81.54	-62.2	-87.4	3.1	15670082	85	65535
2025-01-06 09:58:09.00	29.95	81.47	-62.3	-87.5	2.5	15686218	84	65535
2025-01-06 09:58:09.20	29.44	81.40	-62.4	-87.6	3.2	15686218	84	65535
2025-01-06 09:58:09.40	28.93	81.33	-62.6	-87.8	3.1	15686218	85	65535
2025-01-06 09:58:09.62	28.38	81.26	-62.2	-87.4	3.2	15686546	85	65535
2025-01-06 09:58:09.82	27.89	81.19	-62.3	-87.5	3.2	15686546	85	65535
2025-01-06 09:58:10.03	27.39	81.11	-62.3	-87.5	3.1	15666641	85	65535
2025-01-06 09:58:10.24	26.89	81.04	-62.3	-87.5	3.1	15666641	85	65535
2025-01-06 09:58:10.45	26.40	80.97	-62.3	-87.5	3.5	15670234	85	65535
2025-01-06 09:58:10.67	25.90	80.89	-62.1	-87.3	2.9	15670234	83	65535
2025-01-06 09:58:10.87	25.45	80.82	-62.3	-87.5	3.0	15679565	84	65535
2025-01-06 09:58:11.07	25.00	80.74	-62.3	-87.5	3.1	15679565	85	65535
2025-01-06 09:58:11.27	24.57	80.67	-62.2	-87.4	3.2	15669975	85	65535
2025-01-06 09:58:11.47	24.14	80.60	-62.3	-87.5	3.2	15669975	85	65535
2025-01-06 09:58:11.67	23.71	80.52	-62.2	-87.4	3.2	15655120	85	65535
2025-01-06 09:58:11.87	23.30	80.45	-62.1	-87.3	3.2	15655120	85	65535
2025-01-06 09:58:12.08	22.87	80.37	-62.2	-87.4	3.2	15645416	85	65535
2025-01-06 09:58:12.28	22.47	80.29	-62.2	-87.4	3.3	15645416	85	65535
2025-01-06 09:58:12.48	22.07	80.22	-62.1	-87.3	3.0	15645416	84	65535
2025-01-06 09:58:12.69	21.66	80.14	-62.1	-87.3	3.0	15643386	84	65535
2025-01-06 09:58:12.89	21.28	80.06	-62.1	-87.4	3.0	15643386	84	65535
2025-01-06 09:58:13.10	20.88	79.98	-62.1	-87.4	3.0	15690071	84	65535
2025-01-06 09:58:13.30	20.51	79.90	-62.2	-87.4	3.0	15690071	84	65535
2025-01-06 09:58:13.50	20.14	79.83	-62.2	-87.4	3.0	15671028	84	65535
2025-01-06 09:58:13.70	19.78	79.75	-62.2	-87.4	3.0	15671028	84	65535
2025-01-06 09:58:13.91	19.41	79.66	-62.2	-87.4	2.9	15674827	84	65535
2025-01-06 09:58:14.13	19.03	79.58	-62.2	-87.4	3.1	15674827	85	65535
2025-01-06 09:58:14.33	18.68	79.50	-62.2	-87.4	3.2	15678756	85	65535
2025-01-06 09:58:14.53	18.35	79.42	-62.2	-87.4	3.1	15678756	85	65535
2025-01-06 09:58:14.73	18.02	79.34	-62.2	-87.4	3.4	15672012	85	65535
2025-01-06 09:58:14.93	17.69	79.26	-62.3	-87.5	3.2	15672012	85	65535
2025-01-06 09:58:15.15	17.33	79.17	-62.3	-87.5	3.1	15669036	85	65535
2025-01-06 09:58:15.35	17.02	79.09	-62.3	-87.5	3.1	15669036	85	65535
2025-01-06 09:58:15.57	16.67	79.00	-62.3	-87.5	3.0	15671241	85	65535
2025-01-06 09:58:15.77	16.37	78.92	-62.3	-87.5	2.9	15671241	84	65535
2025-01-06 09:58:15.97	16.06	78.84	-62.3	-87.5	2.9	15671241	84	65535
2025-01-06 09:58:16.19	15.74	78.74	-62.3	-87.5	2.9	15700019	84	65535
2025-01-06 09:58:16.39	15.44	78.66	-62.3	-87.5	3.0	15700019	84	65535
2025-01-06 09:58:16.60	15.14	78.58	-62.3	-87.5	2.9	15696563	84	65535
2025-01-06 09:58:16.80	14.86	78.49	-62.4	-87.6	2.9	15696563	84	65535
2025-01-06 09:58:17.02	14.55	78.40	-62.4	-87.6	2.9	15688232	84	65535
2025-01-06 09:58:17.22	14.27	78.32	-62.4	-87.6	3.4	15688232	84	65535
2025-01-06 09:58:17.42	14.00	78.23	-62.3	-87.6	2.0	15694343	84	65535
2025-01-06 09:58:17.62	13.74	78.15	-62.4	-87.6	2.9	15694343	84	65535
2025-01-06 09:58:17.84	13.45	78.06	-62.4	-87.6	3.1	15712722	84	65535
2025-01-06 09:58:18.05	13.17	77.97	-62.4	-87.6	2.9	15712722	84	65535
2025-01-06 09:58:18.27	12.89	77.88	-62.4	-87.6	2.8	15695343	84	65535
2025-01-06 09:58:18.47	12.64	77.79	-62.4	-87.6	2.8	15695343	84	65535
2025-01-06 09:58:18.67	12.39	77.71	-62.4	-87.6	2.9	15693000	84	65535
2025-01-06 09:58:18.87	12.15	77.62	-62.4	-87.6	2.9	15693000	84	65535
2025-01-06 09:58:19.08	11.89	77.53	-62.3	-87.5	2.8	15686309	82	65535
2025-01-06 09:58:19.28	11.66	77.45	-62.4	-87.6	2.9	15686309	84	65535
2025-01-06 09:58:19.49	11.41	77.36	-62.4	-87.6	2.9	15710968	84	65535
2025-01-06 09:58:19.71	11.16	77.26	-62.4	-87.6	2.9	15710968	84	65535
2025-01-06 09:58:19.91	10.93	77.18	-62.4	-87.6	2.9	15694602	84	65535
2025-01-06 09:58:20.12	10.70	77.09	-62.4	-87.6	2.9	15694602	84	65535
2025-01-06 09:58:20.34	10.45	76.99	-62.4	-87.6	3.0	15694602	85	65535
2025-01-06 09:58:20.54	10.23	76.91	-62.3	-87.5	3.0	15708702	85	65535
2025-01-06 09:58:20.74	10.02	76.82	-62.4	-87.6	2.0	15708702	84	65535
2025-01-06 09:58:20.95	9.80	76.73	-62.4	-87.6	3.0	15687644	84	65535
2025-01-06 09:58:21.16	9.58	76.64	-62.4	-87.6	3.1	15687644	84	65535
2025-01-06 09:58:21.38	9.35	76.54	-62.4	-87.6	3.1	15704444	84	65535
2025-01-06 09:58:21.58	9.15	76.46	-62.4	-87.6	3.1	15704444	84	65535
2025-01-06 09:58:21.78	8.95	76.37	-62.4	-87.6	2.9	15690719	84	65535
2025-01-06 09:58:21.98	8.75	76.28	-62.4	-87.6	2.9	15690719	84	65535
2025-01-06 09:58:22.18	8.56	76.19	-62.4	-87.6	2.9	15695480	84	65535
2025-01-06 09:58:22.38	8.36	76.11	-61.9	-87.1	2.9	15695480	84	65535
2025-01-06 09:58:22.60	8.15	76.01	-62.3	-87.5	3.1	15703498	84	65535
2025-01-06 09:58:22.80	7.97	75.92	-62.4	-87.6	3.2	15703498	84	65535
2025-01-06 09:58:23.00	7.78	75.84	-62.4	-87.6	3.1	15690124	84	65535
2025-01-06 09:58:23.21	7.59	75.74	-62.4	-87.6	2.9	15690124	84	65535
2025-01-06 09:58:23.43	7.39	75.65	-62.3	-87.5	2.9	15694580	85	65535
2025-01-06 09:58:23.63	7.22	75.56	-62.4	-87.6	3.0	15694580	85	65535
2025-01-06 09:58:23.85	7.02	75.46	-62.4	-87.6	3.1	15682693	85	65535
2025-01-06 09:58:24.06	6.84	75.37	-61.2	-86.4	3.3	15682693	84	65535
2025-01-06 09:58:24.26	6.67	75.28	-62.4	-87.6	3.1	15682693	84	65535
2025-01-06 09:58:24.48	6.48	75.18	-62.3	-87.5	3.1	15688446	84	65535
2025-01-06 09:58:24.68	6.32	75.10	-62.3	-87.5	3.0	15688446	84	65535
2025-01-06 09:58:24.88	6.15	75.01	-62.4	-87.6	2.9	15698989	84	65535
2025-01-06 09:58:25.08	5.99	74.92	-62.3	-87.6	3.0	15698989	85	65535
2025-01-06 09:58:25.30	5.82	74.82	-62.3	-87.5	3.0	15688575	85	65535
2025-01-06 09:58:25.50	5.66	74.73	-62.4	-87.6	3.1	15688575	85	65535
2025-01-06 09:58:25.72	5.49	74.64	-62.3	-87.5	3.3	15682250	85	65535
2025-01-06 09:58:25.92	5.33	74.55	-62.3	-87.5	3.1	15682250	84	65535
2025-01-06 09:58:26.12	5.18	74.46	-62.4	-87.6	3.0	15697830	84	65535
2025-01-06 09:58:26.33	5.02	74.37	-62.4	-87.6	3.2	15697830	84	65535
2025-01-06 09:58:26.53	4.87	74.28	-62.3	-87.5	2.9	15691665	84	65535
2025-01-06 09:58:26.73	4.73	74.19	-62.3	-87.5	2.9	15691665	84	65535
2025-01-06 09:58:26.95	4.57	74.09	-62.3	-87.5	2.9	15699737	84	65535
2025-01-06 09:58:27.15	4.42	74.00	-62.3	-87.5	3.1	15699737	84	65535
2025-01-06 09:58:27.35	4.28	73.91	-62.3	-87.5	3.0	15694526	84	65535
2025-01-06 09:58:27.55	4.14	73.82	-62.3	-87.5	3.1	15694526	84	65535
2025-01-06 09:58:27.75	4.00	73.74	-62.3	-87.5	3.1	15694526	84	65535
2025-01-06 09:58:27.97	3.85	73.64	-62.3	-87.5	3.0	15698669	84	65535
2025-01-06 09:58:28.17	3.72	73.55	-62.3	-87.5	2.9	15698669	84	65535
2025-01-06 09:58:28.37	3.58	73.46	-62.3	-87.5	2.9	15693740	84	65535
2025-01-06 09:58:28.59	3.44	73.36	-62.3	-87.5	2.9	15693740	84	65535
2025-01-06 09:58:28.79	3.31	73.27	-62.3	-87.5	2.9	15702621	84	65535
2025-01-06 09:58:28.99	3.18	73.18	-62.4	-87.6	2.9	15702621	84	65535
2025-01-06 09:58:29.21	3.04	73.09	-62.3	-87.5	3.1	15699234	84	65535
2025-01-06 09:58:29.42	2.91	72.99	-62.3	-87.5	3.1	15699234	84	65535
2025-01-06 09:58:29.62	2.78	72.90	-62.3	-87.5	2.9	15694091	84	65535
2025-01-06 09:58:29.82	2.66	72.81	-62.3	-87.5	2.9	15694091	84	65535
2025-01-06 09:58:30.04	2.52	72.72	-62.3	-87.5	2.9	15706367	84	65535
2025-01-06 09:58:30.26	2.39	72.62	-62.3	-87.5	2.9	15706367	84	65535
2025-01-06 09:58:30.46	2.27	72.53	-62.2	-87.4	3.2	15693664	84	65535
2025-01-06 09:58:30.67	2.15	72.44	-62.3	-87.5	3.2	15693664	84	65535
2025-01-06 09:58:30.87	2.03	72.35	-62.3	-87.5	2.9	15695343	84	65535
2025-01-06 09:58:31.09	1.91	72.25	-62.3	-87.5	2.9	15695343	84	65535
2025-01-06 09:58:31.31	1.78	72.15	-62.4	-87.6	2.9	15694030	84	65535
2025-01-06 09:58:31.52	1.66	72.06	-62.3	-87.5	2.9	15694030	84	65535
2025-01-06 09:58:31.74	1.54	71.96	-62.3	-87.5	2.9	15691993	84	65535
2025-01-06 09:58:31.94	1.43	71.87	-62.3	-87.5	3.1	15691993	84	65535
2025-01-06 09:58:32.14	1.32	71.78	-62.3	-87.5	3.1	15691993	84	65535
2025-01-06 09:58:32.34	1.22	71.69	-62.3	-87.5	3.2	15694541	84	65535
2025-01-06 09:58:32.54	1.11	71.60	-62.2	-87.4	2.6	15694541	83	65535
2025-01-06 09:58:32.74	1.00	71.51	-62.3	-87.5	2.9	15692131	84	65535
2025-01-06 09:58:32.94	0.90	71.43	-62.3	-87.5	2.9	15692131	84	65535
2025-01-06 09:58:33.14	0.80	71.34	-62.3	-87.5	2.9	15700225	84	65535
2025-01-06 09:58:33.36	0.68	71.24	-62.3	-87.5	3.1	15700225	84	65535
2025-01-06 09:58:33.56	0.58	71.15	-62.2	-87.4	3.0	15707252	84	65535
2025-01-06 09:58:33.76	0.48	71.06	-62.3	-87.5	3.1	15707252	84	65535
2025-01-06 09:58:33.96	0.38	70.97	-62.3	-87.5	3.0	15704032	84	65535
2025-01-06 09:58:34.16	0.28	70.88	-60.7	-85.9	3.5	15704032	82	65535
2025-01-06 09:58:34.37	0.18	70.79	-62.4	-87.6	2.9	15695785	84	65535
2025-01-06 09:58:34.58	0.08	70.70	-62.4	-87.6	2.9	15695785	84	65535
2025-01-06 09:58:34.78	359.99	70.61	-62.3	-87.5	2.9	15712722	84	65535
2025-01-06 09:58:34.98	359.89	70.52	-62.4	-87.6	2.9	15712722	84	65535
2025-01-06 09:58:35.18	359.80	70.43	-62.3	-87.5	2.9	15712722	84	65535
2025-01-06 09:58:35.39	359.70	70.34	-62.3	-87.5	2.9	15694664	84	65535
2025-01-06 09:58:35.60	359.61	70.24	-62.3	-87.5	3.2	15694664	84	65535

#Closed at: 2025-01-06 09:58:35