passes_logs/2025/01/30/LEX_Murmansk/LEX_Murmansk__20250130_193632_NOAA_18_rec.log

#Pass ID: 20250130_193632_NOAA 18
#Satellite: NOAA 18
#Configuration: NOAA 18
#Start time: 2025-01-30 19:36:27.716700

#LorettStation: 1.0.0 05.05.2024
#Station: LEX_Murmansk
#Location: 33.156738 lon 68.926811 lat
#TLE: 1 28654U 05018A   25030.16946896  .00000398  00000+0  23471-3 0  9997
#TLE: 2 28654  98.8542 111.0717 0014961 137.5822 222.6509 14.13501465 15327

#Time	Az	El	Level	SNR
2025-01-30 19:36:39.997028	175.2	16.3	-92.1	6.0
2025-01-30 19:36:41.159030	175.2	16.4	-91.8	4.6
2025-01-30 19:36:42.315536	175.3	16.5	-92.3	3.4
2025-01-30 19:36:43.468987	175.4	16.7	-92.3	3.0
2025-01-30 19:36:44.627484	175.4	16.8	-92.3	3.8
2025-01-30 19:36:45.785599	175.5	16.9	-92.3	4.8
2025-01-30 19:36:46.944410	175.6	17.1	-92.5	2.8
2025-01-30 19:36:48.091872	175.6	17.2	-92.2	3.5
2025-01-30 19:36:49.249366	175.7	17.3	-92.4	3.9
2025-01-30 19:36:50.403692	175.7	17.4	-92.4	4.8
2025-01-30 19:36:51.555681	175.8	17.6	-92.7	5.5
2025-01-30 19:36:52.712119	175.9	17.7	-92.3	7.3
2025-01-30 19:36:53.872974	175.9	17.8	-92.4	5.3
2025-01-30 19:36:55.026002	176.0	18.0	-92.6	6.5
2025-01-30 19:36:56.170534	176.1	18.1	-92.1	8.6
2025-01-30 19:36:57.324929	176.2	18.2	-92.4	8.0
2025-01-30 19:36:58.486769	176.2	18.4	-92.5	8.0
2025-01-30 19:36:59.644750	176.3	18.5	-92.9	7.7
2025-01-30 19:37:00.795027	176.4	18.6	-92.8	6.0
2025-01-30 19:37:01.943385	176.4	18.8	-92.5	4.8
2025-01-30 19:37:03.091434	176.5	18.9	-92.7	9.6
2025-01-30 19:37:04.241224	176.6	19.0	-92.7	10.1
2025-01-30 19:37:05.417460	176.7	19.2	-92.1	9.0
2025-01-30 19:37:06.565826	176.7	19.3	-92.4	11.4
2025-01-30 19:37:07.713089	176.8	19.5	-92.5	13.0
2025-01-30 19:37:08.863011	176.9	19.6	-92.3	9.7
2025-01-30 19:37:10.018407	177.0	19.7	-92.5	8.8
2025-01-30 19:37:11.161983	177.0	19.9	-92.4	10.3
2025-01-30 19:37:12.325040	177.1	20.0	-92.3	9.3
2025-01-30 19:37:13.483733	177.2	20.2	-92.8	11.7
2025-01-30 19:37:14.641809	177.3	20.3	-92.6	10.8
2025-01-30 19:37:15.792197	177.3	20.5	-92.7	10.7
2025-01-30 19:37:16.945419	177.4	20.6	-92.4	4.5
2025-01-30 19:37:18.100643	177.5	20.8	-92.4	6.1
2025-01-30 19:37:19.255752	177.6	20.9	-92.8	9.0
2025-01-30 19:37:20.417113	177.7	21.1	-92.4	7.0
2025-01-30 19:37:21.579823	177.8	21.2	-92.5	8.8
2025-01-30 19:37:22.737364	177.8	21.4	-92.7	9.3
2025-01-30 19:37:23.888709	177.9	21.5	-92.8	9.7
2025-01-30 19:37:25.044962	178.0	21.7	-91.4	6.7
2025-01-30 19:37:26.199450	178.1	21.8	-91.6	9.1
2025-01-30 19:37:27.348635	178.2	22.0	-91.7	8.6
2025-01-30 19:37:28.508812	178.3	22.1	-92.8	13.5
2025-01-30 19:37:29.670298	178.4	22.3	-92.7	13.4
2025-01-30 19:37:30.834043	178.5	22.4	-92.8	12.8
2025-01-30 19:37:31.994140	178.5	22.6	-92.6	9.5
2025-01-30 19:37:33.147692	178.6	22.8	-92.4	12.8
2025-01-30 19:37:34.302078	178.7	22.9	-92.3	12.9
2025-01-30 19:37:35.462229	178.8	23.1	-92.4	8.1
2025-01-30 19:37:36.627823	178.9	23.2	-92.5	14.0
2025-01-30 19:37:37.787374	179.0	23.4	-92.4	14.1
2025-01-30 19:37:38.942139	179.1	23.6	-92.7	15.5
2025-01-30 19:37:40.097795	179.2	23.7	-92.4	14.7
2025-01-30 19:37:41.256783	179.3	23.9	-92.6	15.0
2025-01-30 19:37:42.406264	179.4	24.1	-92.3	10.4
2025-01-30 19:37:43.563643	179.5	24.2	-92.5	11.0
2025-01-30 19:37:44.714338	179.6	24.4	-92.7	13.4
2025-01-30 19:37:45.869339	179.7	24.6	-92.6	13.6
2025-01-30 19:37:47.020352	179.8	24.7	-92.9	12.7
2025-01-30 19:37:48.169029	179.9	24.9	-92.6	12.0
2025-01-30 19:37:49.323799	180.0	25.1	-92.6	8.9
2025-01-30 19:37:50.478984	180.1	25.2	-92.6	5.1
2025-01-30 19:37:51.642924	180.2	25.4	-92.6	8.2
2025-01-30 19:37:52.796489	180.3	25.6	-93.2	10.3
2025-01-30 19:37:53.959090	180.4	25.8	-93.1	7.1
2025-01-30 19:37:55.115527	180.6	25.9	-92.4	9.9
2025-01-30 19:37:56.275386	180.7	26.1	-92.4	10.7
2025-01-30 19:37:57.422531	180.8	26.3	-92.7	10.2
2025-01-30 19:37:58.590990	180.9	26.5	-92.5	11.1
2025-01-30 19:37:59.745586	181.0	26.7	-92.6	13.8
2025-01-30 19:38:00.891500	181.1	26.8	-92.7	11.2
2025-01-30 19:38:02.047944	181.2	27.0	-92.9	14.7
2025-01-30 19:38:03.202275	181.4	27.2	-92.8	15.1
2025-01-30 19:38:04.355174	181.5	27.4	-92.4	13.2
2025-01-30 19:38:05.509718	181.6	27.6	-92.9	10.5
2025-01-30 19:38:06.664643	181.7	27.8	-92.8	13.1
2025-01-30 19:38:07.822262	181.9	28.0	-92.7	7.6
2025-01-30 19:38:08.978437	182.0	28.2	-92.8	3.3
2025-01-30 19:38:10.137677	182.1	28.3	-92.3	7.7
2025-01-30 19:38:11.295686	182.2	28.5	-92.5	10.8
2025-01-30 19:38:12.452678	182.4	28.7	-92.7	10.2
2025-01-30 19:38:13.604552	182.5	28.9	-93.1	10.7
2025-01-30 19:38:14.760627	182.6	29.1	-92.9	10.2
2025-01-30 19:38:15.922639	182.8	29.3	-92.8	10.2
2025-01-30 19:38:17.075415	182.9	29.5	-92.5	10.1
2025-01-30 19:38:18.230302	183.0	29.7	-92.5	12.7
2025-01-30 19:38:19.381725	183.2	29.9	-92.3	13.7
2025-01-30 19:38:20.543455	183.3	30.1	-92.5	13.4
2025-01-30 19:38:21.694712	183.5	30.3	-92.6	14.5
2025-01-30 19:38:22.853663	183.6	30.5	-92.8	10.8
2025-01-30 19:38:24.011150	183.8	30.7	-91.8	6.8
2025-01-30 19:38:25.166880	183.9	30.9	-92.3	10.3
2025-01-30 19:38:26.324479	184.1	31.2	-92.3	5.8
2025-01-30 19:38:27.473836	184.2	31.4	-92.6	6.0
2025-01-30 19:38:28.623375	184.4	31.6	-92.5	10.3
2025-01-30 19:38:29.779881	184.5	31.8	-92.7	11.3
2025-01-30 19:38:30.940013	184.7	32.0	-92.7	13.6
2025-01-30 19:38:32.097327	184.9	32.2	-92.2	14.7
2025-01-30 19:38:33.248412	185.0	32.4	-91.9	14.1
2025-01-30 19:38:34.403428	185.2	32.6	-92.2	12.6
2025-01-30 19:38:35.557498	185.3	32.9	-92.4	12.0
2025-01-30 19:38:36.708961	185.5	33.1	-92.5	13.4
2025-01-30 19:38:37.863175	185.7	33.3	-92.4	10.4
2025-01-30 19:38:39.021312	185.9	33.5	-92.8	12.6
2025-01-30 19:38:40.174024	186.0	33.8	-91.8	11.9
2025-01-30 19:38:41.329825	186.2	34.0	-92.1	9.2
2025-01-30 19:38:42.481401	186.4	34.2	-92.5	7.9
2025-01-30 19:38:43.643425	186.6	34.4	-92.1	12.2
2025-01-30 19:38:44.802600	186.8	34.7	-92.2	11.9
2025-01-30 19:38:45.963400	187.0	34.9	-92.5	7.1
2025-01-30 19:38:47.115492	187.1	35.1	-92.3	13.1
2025-01-30 19:38:48.268669	187.3	35.4	-92.4	14.5
2025-01-30 19:38:49.421674	187.5	35.6	-92.5	16.3
2025-01-30 19:38:50.574067	187.7	35.8	-92.7	15.5
2025-01-30 19:38:51.730005	187.9	36.1	-92.4	15.3
2025-01-30 19:38:52.884910	188.1	36.3	-92.2	12.6
2025-01-30 19:38:54.043494	188.3	36.5	-92.2	10.4
2025-01-30 19:38:55.197948	188.6	36.8	-92.4	14.4
2025-01-30 19:38:56.350640	188.8	37.0	-92.0	12.1
2025-01-30 19:38:57.508294	189.0	37.3	-92.2	15.1
2025-01-30 19:38:58.661086	189.2	37.5	-92.2	13.7
2025-01-30 19:38:59.815528	189.4	37.8	-92.7	12.0
2025-01-30 19:39:00.967540	189.7	38.0	-92.6	9.1
2025-01-30 19:39:02.120633	189.9	38.3	-92.1	13.1
2025-01-30 19:39:03.270577	190.1	38.5	-92.2	12.6
2025-01-30 19:39:04.415277	190.4	38.8	-92.9	6.2
2025-01-30 19:39:05.567668	190.6	39.0	-92.7	8.3
2025-01-30 19:39:06.729197	190.8	39.3	-92.9	9.5
2025-01-30 19:39:07.876058	191.1	39.5	-92.5	9.7
2025-01-30 19:39:09.032260	191.3	39.8	-92.3	13.5
2025-01-30 19:39:10.190878	191.6	40.1	-92.4	15.3
2025-01-30 19:39:11.342298	191.9	40.3	-92.4	17.2
2025-01-30 19:39:12.492761	192.1	40.6	-92.6	15.4
2025-01-30 19:39:13.644713	192.4	40.8	-92.7	17.6
2025-01-30 19:39:14.774263	192.7	41.1	-92.8	16.8
2025-01-30 19:39:15.895919	192.9	41.3	-92.4	13.2
2025-01-30 19:39:17.015623	193.2	41.6	-92.4	15.1
2025-01-30 19:39:18.136346	193.5	41.9	-92.6	17.0
2025-01-30 19:39:19.256864	193.8	42.1	-92.4	19.3
2025-01-30 19:39:20.379091	194.0	42.4	-92.7	18.7
2025-01-30 19:39:21.499538	194.3	42.7	-92.6	15.6
2025-01-30 19:39:22.620758	194.6	42.9	-92.6	18.4
2025-01-30 19:39:23.741491	194.9	43.2	-93.1	17.6
2025-01-30 19:39:24.864569	195.2	43.4	-92.6	7.8
2025-01-30 19:39:26.002164	195.6	43.7	-92.5	10.9
2025-01-30 19:39:27.148623	195.9	44.0	-92.7	18.8
2025-01-30 19:39:28.289047	196.2	44.3	-92.7	19.5
2025-01-30 19:39:29.445097	196.5	44.5	-88.4	16.1
2025-01-30 19:39:30.587440	196.9	44.8	-89.1	18.1
2025-01-30 19:39:31.742388	197.2	45.1	-88.9	17.6
2025-01-30 19:39:32.885174	197.6	45.4	-88.2	15.0
2025-01-30 19:39:34.042715	197.9	45.7	-87.6	12.1
2025-01-30 19:39:35.191339	198.3	45.9	-91.8	18.7
2025-01-30 19:39:36.339585	198.7	46.2	-92.7	15.8
2025-01-30 19:39:37.495848	199.1	46.5	-92.9	14.0
2025-01-30 19:39:38.645224	199.4	46.8	-93.1	18.4
2025-01-30 19:39:39.802697	199.8	47.1	-92.9	19.7
2025-01-30 19:39:40.949290	200.2	47.4	-92.6	20.7
2025-01-30 19:39:42.102034	200.6	47.6	-92.7	19.1
2025-01-30 19:39:43.252923	201.1	47.9	-92.7	17.0
2025-01-30 19:39:44.406896	201.5	48.2	-93.0	11.1
2025-01-30 19:39:45.556319	201.9	48.5	-92.8	11.2
2025-01-30 19:39:46.711654	202.4	48.8	-92.5	14.9
2025-01-30 19:39:47.870506	202.8	49.1	-92.9	7.1
2025-01-30 19:39:49.020311	203.3	49.3	-93.0	6.4
2025-01-30 19:39:50.167008	203.7	49.6	-92.8	10.1
2025-01-30 19:39:51.321767	204.2	49.9	-93.1	10.9
2025-01-30 19:39:52.473753	204.7	50.2	-92.6	12.7
2025-01-30 19:39:53.628820	205.2	50.5	-92.8	16.3
2025-01-30 19:39:54.783130	205.7	50.8	-92.2	17.0
2025-01-30 19:39:55.942136	206.2	51.1	-92.4	17.8
2025-01-30 19:39:57.098417	206.7	51.3	-92.2	19.4
2025-01-30 19:39:58.246313	207.2	51.6	-92.7	19.3
2025-01-30 19:39:59.407094	207.8	51.9	-92.5	13.7
2025-01-30 19:40:00.552463	208.3	52.2	-92.4	16.5
2025-01-30 19:40:01.705735	208.9	52.5	-92.6	19.9
2025-01-30 19:40:02.858467	209.4	52.7	-92.4	14.3
2025-01-30 19:40:04.019818	210.0	53.0	-92.2	16.3
2025-01-30 19:40:05.172107	210.6	53.3	-92.3	18.2
2025-01-30 19:40:06.326123	211.2	53.6	-92.3	18.7
2025-01-30 19:40:07.476949	211.8	53.8	-91.4	19.6
2025-01-30 19:40:08.627437	212.4	54.1	-92.7	21.0
2025-01-30 19:40:09.787261	213.1	54.4	-92.5	22.3
2025-01-30 19:40:10.934531	213.7	54.6	-92.1	17.5
2025-01-30 19:40:12.087514	214.4	54.9	-92.4	19.6
2025-01-30 19:40:13.247354	215.1	55.2	-92.5	22.9
2025-01-30 19:40:14.392425	215.7	55.4	-92.8	11.7
2025-01-30 19:40:15.551735	216.4	55.7	-92.8	14.2
2025-01-30 19:40:16.706640	217.1	55.9	-92.5	22.0
2025-01-30 19:40:17.863973	217.9	56.2	-93.0	13.7
2025-01-30 19:40:19.020116	218.6	56.4	-92.4	15.0
2025-01-30 19:40:20.181731	219.4	56.7	-92.4	23.8
2025-01-30 19:40:21.335617	220.1	56.9	-92.5	21.6
2025-01-30 19:40:22.492684	220.9	57.1	-92.7	22.4
2025-01-30 19:40:23.652427	221.7	57.4	-92.7	23.3
2025-01-30 19:40:24.809874	222.5	57.6	-92.5	26.4
2025-01-30 19:40:25.968338	223.3	57.8	-92.9	24.7
2025-01-30 19:40:27.119867	224.1	58.0	-92.5	22.8
2025-01-30 19:40:28.269187	225.0	58.3	-92.6	23.3
2025-01-30 19:40:29.427274	225.8	58.5	-92.7	19.9
2025-01-30 19:40:30.577383	226.7	58.7	-93.0	22.9
2025-01-30 19:40:31.730001	227.6	58.9	-92.5	25.0
2025-01-30 19:40:32.885246	228.5	59.1	-92.6	15.7
2025-01-30 19:40:34.046005	229.4	59.2	-92.5	16.5
2025-01-30 19:40:35.198436	230.3	59.4	-92.5	25.4
2025-01-30 19:40:36.347123	231.2	59.6	-91.7	15.3
2025-01-30 19:40:37.494278	232.2	59.8	-92.0	15.1
2025-01-30 19:40:38.643847	233.1	59.9	-91.6	20.8
2025-01-30 19:40:39.801539	234.1	60.1	-91.6	23.9
2025-01-30 19:40:40.958410	235.1	60.2	-92.6	23.2
2025-01-30 19:40:42.113597	236.1	60.4	-92.7	23.0
2025-01-30 19:40:43.263808	237.1	60.5	-92.7	19.1
2025-01-30 19:40:44.419208	238.1	60.6	-92.8	20.7
2025-01-30 19:40:45.571804	239.1	60.7	-92.9	23.1
2025-01-30 19:40:46.724937	240.1	60.8	-92.5	22.9
2025-01-30 19:40:47.885711	241.2	61.0	-92.5	20.0
2025-01-30 19:40:49.041085	242.2	61.0	-92.9	16.9
2025-01-30 19:40:50.187264	243.3	61.1	-92.2	24.0
2025-01-30 19:40:51.339898	244.3	61.2	-92.7	16.9
2025-01-30 19:40:52.497730	245.4	61.3	-92.5	16.0
2025-01-30 19:40:53.647739	246.5	61.3	-92.9	21.2
2025-01-30 19:40:54.808520	247.5	61.4	-92.7	19.3
2025-01-30 19:40:55.969033	248.6	61.4	-92.4	12.7
2025-01-30 19:40:57.128308	249.7	61.5	-92.7	19.8
2025-01-30 19:40:58.287570	250.8	61.5	-92.4	22.0
2025-01-30 19:40:59.439022	251.9	61.5	-92.5	8.2
2025-01-30 19:41:00.593948	253.0	61.5	-92.4	24.0
2025-01-30 19:41:01.745201	254.1	61.5	-92.3	20.1
2025-01-30 19:41:02.872665	255.1	61.5	-92.5	11.4
2025-01-30 19:41:04.027560	256.2	61.5	-92.4	10.8
2025-01-30 19:41:05.177256	257.3	61.4	-92.0	23.5
2025-01-30 19:41:06.334458	258.4	61.4	-92.6	15.7
2025-01-30 19:41:07.486446	259.5	61.4	-92.6	11.9
2025-01-30 19:41:08.647469	260.6	61.3	-92.6	15.9
2025-01-30 19:41:09.802500	261.6	61.2	-92.7	23.0
2025-01-30 19:41:10.964590	262.7	61.2	-92.7	9.6
2025-01-30 19:41:12.118092	263.8	61.1	-92.5	20.5
2025-01-30 19:41:13.271468	264.8	61.0	-93.1	14.7
2025-01-30 19:41:14.421038	265.9	60.9	-92.6	16.7
2025-01-30 19:41:15.568884	266.9	60.8	-92.9	15.8
2025-01-30 19:41:16.723971	267.9	60.7	-93.0	13.7
2025-01-30 19:41:17.886571	268.9	60.6	-93.2	13.3
2025-01-30 19:41:19.040361	269.9	60.4	-92.6	22.2
2025-01-30 19:41:20.198614	270.9	60.3	-92.6	22.7
2025-01-30 19:41:21.349374	271.9	60.2	-93.1	16.6
2025-01-30 19:41:22.497755	272.9	60.0	-92.4	19.9
2025-01-30 19:41:23.645165	273.9	59.9	-92.8	11.9
2025-01-30 19:41:24.792385	274.8	59.7	-92.9	15.9
2025-01-30 19:41:25.949329	275.7	59.5	-92.5	12.9
2025-01-30 19:41:27.106984	276.7	59.4	-92.7	9.1
2025-01-30 19:41:28.261068	277.6	59.2	-92.8	6.7
2025-01-30 19:41:29.414079	278.5	59.0	-92.6	13.0
2025-01-30 19:41:30.561757	279.4	58.8	-92.7	13.4
2025-01-30 19:41:31.722837	280.3	58.6	-92.6	13.6
2025-01-30 19:41:32.872322	281.1	58.4	-92.7	16.2
2025-01-30 19:41:34.027042	282.0	58.2	-92.8	7.4
2025-01-30 19:41:35.177672	282.8	58.0	-92.1	14.0
2025-01-30 19:41:36.333577	283.6	57.7	-92.4	11.3
2025-01-30 19:41:37.484293	284.4	57.5	-92.7	7.6
2025-01-30 19:41:38.619874	285.2	57.3	-92.6	18.8
2025-01-30 19:41:39.773367	286.0	57.1	-92.2	14.7
2025-01-30 19:41:40.925430	286.8	56.8	-91.7	16.0
2025-01-30 19:41:42.080706	287.5	56.6	-91.5	9.5
2025-01-30 19:41:43.238191	288.3	56.3	-91.2	16.2
2025-01-30 19:41:44.398522	289.0	56.1	-91.8	12.5
2025-01-30 19:41:45.555874	289.7	55.8	-92.8	14.9
2025-01-30 19:41:46.710760	290.4	55.6	-92.5	16.8
2025-01-30 19:41:47.863536	291.1	55.3	-92.8	10.4
2025-01-30 19:41:49.020310	291.8	55.1	-92.5	12.2
2025-01-30 19:41:50.169086	292.5	54.8	-92.2	18.5
2025-01-30 19:41:51.321018	293.1	54.6	-92.2	19.0
2025-01-30 19:41:52.472793	293.8	54.3	-92.7	6.7
2025-01-30 19:41:53.625561	294.4	54.0	-92.8	21.1
2025-01-30 19:41:54.761062	295.0	53.7	-92.5	16.5
2025-01-30 19:41:55.882003	295.6	53.5	-92.6	14.7
2025-01-30 19:41:57.003087	296.2	53.2	-92.4	14.7
2025-01-30 19:41:58.123404	296.8	53.0	-92.2	16.1
2025-01-30 19:41:59.244541	297.3	52.7	-92.2	12.6
2025-01-30 19:42:00.366659	297.9	52.4	-92.1	14.9
2025-01-30 19:42:01.486105	298.4	52.1	-92.4	11.6
2025-01-30 19:42:02.607404	298.9	51.9	-92.6	13.8
2025-01-30 19:42:03.727888	299.5	51.6	-92.5	17.9
2025-01-30 19:42:04.852767	300.0	51.3	-92.4	9.8
2025-01-30 19:42:05.985450	300.5	51.0	-92.9	10.9
2025-01-30 19:42:07.140962	301.0	50.8	-92.3	17.7
2025-01-30 19:42:08.290489	301.5	50.5	-92.3	20.4
2025-01-30 19:42:09.445028	302.0	50.2	-92.4	10.6
2025-01-30 19:42:10.597416	302.5	49.9	-93.1	15.9
2025-01-30 19:42:11.757749	302.9	49.6	-92.6	18.1
2025-01-30 19:42:12.907018	303.4	49.3	-92.8	8.6
2025-01-30 19:42:14.060423	303.9	49.0	-93.0	12.6
2025-01-30 19:42:15.210692	304.3	48.8	-92.1	17.5
2025-01-30 19:42:16.372230	304.7	48.5	-92.3	10.8
2025-01-30 19:42:17.527505	305.2	48.2	-92.6	8.3
2025-01-30 19:42:18.675699	305.6	47.9	-92.1	18.9
2025-01-30 19:42:19.798422	306.0	47.6	-92.8	15.0
2025-01-30 19:42:20.947611	306.4	47.3	-92.7	16.5
2025-01-30 19:42:22.087381	306.8	47.1	-92.3	19.5
2025-01-30 19:42:23.231747	307.2	46.8	-92.6	11.7
2025-01-30 19:42:24.387962	307.6	46.5	-92.5	13.2
2025-01-30 19:42:25.529602	308.0	46.2	-92.4	19.2
2025-01-30 19:42:26.681568	308.3	45.9	-92.6	16.2
2025-01-30 19:42:27.839689	308.7	45.7	-92.6	11.9
2025-01-30 19:42:28.981152	309.1	45.4	-93.0	10.3
2025-01-30 19:42:30.128489	309.4	45.1	-93.0	19.0
2025-01-30 19:42:31.278683	309.8	44.8	-92.6	12.5
2025-01-30 19:42:32.433979	310.1	44.5	-92.8	11.8
2025-01-30 19:42:33.584284	310.4	44.3	-92.8	9.4
2025-01-30 19:42:34.742641	310.8	44.0	-92.7	18.3
2025-01-30 19:42:35.898395	311.1	43.7	-92.7	12.1
2025-01-30 19:42:37.053171	311.4	43.4	-92.9	7.7
2025-01-30 19:42:38.211969	311.7	43.2	-92.7	18.6
2025-01-30 19:42:39.363458	312.0	42.9	-92.4	11.5
2025-01-30 19:42:40.516899	312.3	42.6	-92.5	13.4
2025-01-30 19:42:41.670163	312.6	42.3	-92.7	12.2
2025-01-30 19:42:42.828564	312.9	42.1	-92.6	11.4
2025-01-30 19:42:43.973017	313.2	41.8	-92.9	9.6
2025-01-30 19:42:45.132410	313.5	41.5	-92.7	15.0
2025-01-30 19:42:46.276749	313.8	41.3	-92.5	11.3
2025-01-30 19:42:47.429382	314.1	41.0	-92.6	11.4
2025-01-30 19:42:48.586099	314.3	40.8	-92.7	17.8
2025-01-30 19:42:49.740859	314.6	40.5	-92.7	21.1
2025-01-30 19:42:50.901720	314.9	40.2	-93.0	15.0
2025-01-30 19:42:52.054700	315.1	40.0	-92.8	20.3
2025-01-30 19:42:53.208447	315.4	39.7	-93.0	19.3
2025-01-30 19:42:54.354716	315.6	39.5	-92.7	16.2
2025-01-30 19:42:55.511914	315.9	39.2	-92.8	14.3
2025-01-30 19:42:56.670793	316.1	38.9	-93.0	14.6
2025-01-30 19:42:57.827982	316.4	38.7	-92.7	8.7
2025-01-30 19:42:58.979159	316.6	38.4	-93.0	7.7
2025-01-30 19:43:00.133919	316.8	38.2	-92.7	10.9
2025-01-30 19:43:01.288932	317.1	37.9	-92.9	13.2
2025-01-30 19:43:02.440578	317.3	37.7	-93.0	7.7
2025-01-30 19:43:03.591946	317.5	37.4	-92.6	6.7
2025-01-30 19:43:04.751072	317.7	37.2	-92.9	15.5
2025-01-30 19:43:05.906497	317.9	37.0	-92.9	8.4
2025-01-30 19:43:07.069458	318.2	36.7	-92.6	7.9
2025-01-30 19:43:08.221066	318.4	36.5	-92.7	11.9
2025-01-30 19:43:09.386462	318.6	36.2	-92.8	10.7
2025-01-30 19:43:10.548465	318.8	36.0	-92.8	11.6
2025-01-30 19:43:11.699058	319.0	35.8	-92.6	13.5
2025-01-30 19:43:12.853133	319.2	35.5	-92.6	11.8
2025-01-30 19:43:14.013040	319.4	35.3	-92.8	7.3
2025-01-30 19:43:15.163352	319.6	35.0	-92.7	13.9
2025-01-30 19:43:16.316826	319.8	34.8	-92.6	10.9
2025-01-30 19:43:17.473989	320.0	34.6	-91.1	12.0
2025-01-30 19:43:18.628293	320.1	34.4	-91.9	11.4
2025-01-30 19:43:19.782844	320.3	34.1	-92.1	15.5
2025-01-30 19:43:20.936689	320.5	33.9	-92.6	8.0
2025-01-30 19:43:22.084149	320.7	33.7	-92.6	12.7
2025-01-30 19:43:23.239305	320.9	33.5	-92.7	15.8
2025-01-30 19:43:24.394462	321.0	33.2	-92.7	10.2
2025-01-30 19:43:25.557215	321.2	33.0	-93.0	11.4
2025-01-30 19:43:26.711863	321.4	32.8	-92.6	15.2
2025-01-30 19:43:27.870367	321.5	32.6	-92.1	10.2
2025-01-30 19:43:29.014352	321.7	32.4	-93.1	13.3
2025-01-30 19:43:30.169473	321.9	32.1	-92.9	12.0
2025-01-30 19:43:31.318078	322.0	31.9	-92.6	16.1
2025-01-30 19:43:32.479688	322.2	31.7	-92.8	14.1
2025-01-30 19:43:33.638535	322.3	31.5	-93.3	14.0
2025-01-30 19:43:34.785152	322.5	31.3	-92.9	13.5
2025-01-30 19:43:35.937873	322.6	31.1	-92.2	11.6
2025-01-30 19:43:37.088351	322.8	30.9	-92.7	15.1
2025-01-30 19:43:38.241132	322.9	30.7	-92.6	16.8
2025-01-30 19:43:39.395868	323.1	30.5	-92.1	12.3
2025-01-30 19:43:40.548413	323.2	30.3	-92.9	10.0
2025-01-30 19:43:41.701012	323.4	30.1	-92.7	14.6
2025-01-30 19:43:42.852071	323.5	29.9	-93.0	9.6
2025-01-30 19:43:44.001604	323.7	29.7	-91.6	10.8
2025-01-30 19:43:45.148402	323.8	29.5	-91.3	12.0
2025-01-30 19:43:46.296349	323.9	29.3	-91.6	8.9
2025-01-30 19:43:47.452284	324.1	29.1	-91.5	8.4
2025-01-30 19:43:48.612565	324.2	28.9	-92.8	13.7
2025-01-30 19:43:49.761686	324.3	28.7	-92.8	13.4
2025-01-30 19:43:50.910924	324.5	28.5	-92.8	12.3
2025-01-30 19:43:52.070850	324.6	28.3	-92.8	11.0
2025-01-30 19:43:53.221657	324.7	28.1	-92.3	13.4
2025-01-30 19:43:54.383997	324.8	27.9	-92.3	7.4
2025-01-30 19:43:55.531107	325.0	27.7	-92.6	5.3
2025-01-30 19:43:56.680689	325.1	27.5	-92.9	15.0
2025-01-30 19:43:57.839818	325.2	27.3	-93.0	8.0
2025-01-30 19:43:59.004267	325.3	27.2	-92.6	6.8
2025-01-30 19:44:00.148177	325.5	27.0	-92.8	11.4
2025-01-30 19:44:01.307444	325.6	26.8	-92.3	11.5
2025-01-30 19:44:02.471792	325.7	26.6	-92.8	11.3
2025-01-30 19:44:03.628670	325.8	26.4	-92.9	11.2
2025-01-30 19:44:04.789037	325.9	26.3	-92.9	14.8
2025-01-30 19:44:05.945397	326.0	26.1	-92.8	11.8
2025-01-30 19:44:07.096526	326.1	25.9	-92.4	12.3
2025-01-30 19:44:08.247884	326.3	25.7	-92.8	14.3
2025-01-30 19:44:09.392844	326.4	25.5	-93.0	10.2
2025-01-30 19:44:10.552794	326.5	25.4	-93.2	10.2
2025-01-30 19:44:11.715492	326.6	25.2	-92.9	15.3
2025-01-30 19:44:12.869514	326.7	25.0	-92.8	9.2
2025-01-30 19:44:14.027329	326.8	24.9	-92.5	9.8
2025-01-30 19:44:15.176843	326.9	24.7	-92.2	12.8
2025-01-30 19:44:16.331026	327.0	24.5	-92.6	12.1
2025-01-30 19:44:17.484002	327.1	24.3	-92.5	11.3
2025-01-30 19:44:18.638368	327.2	24.2	-92.7	12.6
2025-01-30 19:44:19.793192	327.3	24.0	-92.9	14.9
2025-01-30 19:44:20.950275	327.4	23.8	-93.2	13.6
2025-01-30 19:44:22.105974	327.5	23.7	-93.0	13.1
2025-01-30 19:44:23.264175	327.6	23.5	-92.7	12.8
2025-01-30 19:44:24.419597	327.7	23.4	-92.8	8.2
2025-01-30 19:44:25.582046	327.8	23.2	-92.9	6.8
2025-01-30 19:44:26.741963	327.9	23.0	-93.1	10.8
2025-01-30 19:44:27.891819	328.0	22.9	-92.6	5.9
2025-01-30 19:44:29.051389	328.1	22.7	-92.8	6.3
2025-01-30 19:44:30.207932	328.2	22.6	-93.0	9.5
2025-01-30 19:44:31.362001	328.2	22.4	-92.7	8.0
2025-01-30 19:44:32.517632	328.3	22.2	-92.9	10.3
2025-01-30 19:44:33.668997	328.4	22.1	-92.6	10.3
2025-01-30 19:44:34.825360	328.5	21.9	-92.8	12.1
2025-01-30 19:44:35.973961	328.6	21.8	-92.5	16.9
2025-01-30 19:44:37.128444	328.7	21.6	-92.6	12.9
2025-01-30 19:44:38.282233	328.8	21.5	-92.2	10.7
2025-01-30 19:44:39.437338	328.9	21.3	-92.6	11.9
2025-01-30 19:44:40.592398	328.9	21.2	-92.5	9.3
2025-01-30 19:44:41.747696	329.0	21.0	-92.6	12.4
2025-01-30 19:44:42.905852	329.1	20.9	-92.7	6.3
2025-01-30 19:44:44.059293	329.2	20.7	-92.6	7.9
2025-01-30 19:44:45.222167	329.3	20.6	-92.7	7.5
2025-01-30 19:44:46.375072	329.4	20.4	-92.9	9.1
2025-01-30 19:44:47.528679	329.4	20.3	-93.0	7.0
2025-01-30 19:44:48.681023	329.5	20.1	-91.6	5.8
2025-01-30 19:44:49.840181	329.6	20.0	-92.1	4.8
2025-01-30 19:44:50.994174	329.7	19.9	-91.8	3.7
2025-01-30 19:44:52.143632	329.7	19.7	-92.1	4.2
2025-01-30 19:44:53.291333	329.8	19.6	-92.9	5.7
2025-01-30 19:44:54.444799	329.9	19.4	-93.0	2.9
2025-01-30 19:44:55.599345	330.0	19.3	-93.0	5.0
2025-01-30 19:44:56.758719	330.0	19.2	-93.1	4.9
2025-01-30 19:44:57.912702	330.1	19.0	-92.8	5.2
2025-01-30 19:44:59.057080	330.2	18.9	-93.0	3.2
2025-01-30 19:45:00.201360	330.3	18.7	-93.0	7.2
2025-01-30 19:45:01.324409	330.3	18.6	-92.9	5.9
2025-01-30 19:45:02.444653	330.4	18.5	-93.2	5.0
2025-01-30 19:45:03.565153	330.5	18.3	-93.1	7.0
2025-01-30 19:45:04.685610	330.5	18.2	-92.9	4.4
2025-01-30 19:45:05.807215	330.6	18.1	-93.5	5.5
2025-01-30 19:45:06.927568	330.7	18.0	-93.3	9.2
2025-01-30 19:45:08.048165	330.7	17.8	-93.1	6.0
2025-01-30 19:45:09.168036	330.8	17.7	-92.4	7.4
2025-01-30 19:45:10.289724	330.9	17.6	-92.7	5.9
2025-01-30 19:45:11.409987	330.9	17.4	-92.9	4.9
2025-01-30 19:45:12.578656	331.0	17.3	-92.8	5.2
2025-01-30 19:45:13.730572	331.1	17.2	-93.1	3.1
2025-01-30 19:45:14.884052	331.1	17.1	-93.1	5.5
2025-01-30 19:45:16.029208	331.2	16.9	-92.9	4.0
2025-01-30 19:45:17.179952	331.3	16.8	-93.0	4.0
2025-01-30 19:45:18.337833	331.3	16.7	-92.8	6.7
2025-01-30 19:45:19.487039	331.4	16.6	-93.1	5.9
2025-01-30 19:45:20.640223	331.5	16.4	-93.2	7.3
2025-01-30 19:45:21.800054	331.5	16.3	-92.6	4.6
2025-01-30 19:45:22.962590	331.6	16.2	-93.1	5.9
2025-01-30 19:45:24.119450	331.6	16.1	-93.0	6.0
2025-01-30 19:45:25.281772	331.7	15.9	-93.2	7.3
2025-01-30 19:45:26.429741	331.8	15.8	-92.7	5.3
2025-01-30 19:45:27.577469	331.8	15.7	-93.0	7.3
2025-01-30 19:45:28.736365	331.9	15.6	-92.8	7.5
2025-01-30 19:45:29.890179	332.0	15.4	-93.0	5.0
2025-01-30 19:45:31.058582	332.0	15.3	-92.8	7.5
2025-01-30 19:45:32.209613	332.1	15.2	-92.6	7.7
2025-01-30 19:45:33.360559	332.1	15.1	-92.8	4.9
2025-01-30 19:45:34.521261	332.2	15.0	-93.2	6.0
2025-01-30 19:45:35.679377	332.2	14.8	-93.1	8.0
2025-01-30 19:45:36.831940	332.3	14.7	-93.1	6.3
2025-01-30 19:45:37.986732	332.4	14.6	-92.6	4.7
2025-01-30 19:45:39.137608	332.4	14.5	-93.0	4.3
#Closed at: 2025-01-30 19:36:32.793228