passes_logs/2025/01/30/LEX_Murmansk/LEX_Murmansk__20250130_093628_NOAA_18_rec.log

#Pass ID: 20250130_093628_NOAA 18
#Satellite: NOAA 18
#Configuration: NOAA 18
#Start time: 2025-01-30 09:36:23.785811

#LorettStation: 1.0.0 05.05.2024
#Station: LEX_Murmansk
#Location: 33.156738 lon 68.926811 lat
#TLE: 1 28654U 05018A   25029.10768076  .00000445  00000+0  25948-3 0  9995
#TLE: 2 28654  98.8544 110.0207 0014928 140.4380 219.7885 14.13500636 15173

#Time	Az	El	Level	SNR
2025-01-30 09:36:36.031461	27.2	16.3	-87.9	4.7
2025-01-30 09:36:37.195916	27.3	16.4	-87.8	5.6
2025-01-30 09:36:38.357997	27.3	16.6	-88.0	4.3
2025-01-30 09:36:39.520344	27.3	16.7	-87.9	6.7
2025-01-30 09:36:40.680303	27.4	16.8	-88.0	5.7
2025-01-30 09:36:41.843066	27.4	17.0	-88.0	5.5
2025-01-30 09:36:43.006291	27.5	17.1	-88.5	5.2
2025-01-30 09:36:44.166166	27.5	17.2	-87.9	6.6
2025-01-30 09:36:45.321866	27.6	17.3	-88.1	6.7
2025-01-30 09:36:46.477325	27.6	17.5	-88.2	7.3
2025-01-30 09:36:47.639435	27.6	17.6	-88.5	6.5
2025-01-30 09:36:48.798128	27.7	17.7	-88.0	7.6
2025-01-30 09:36:49.963127	27.7	17.9	-88.1	5.0
2025-01-30 09:36:51.116875	27.8	18.0	-88.2	6.8
2025-01-30 09:36:52.278626	27.8	18.2	-88.0	8.3
2025-01-30 09:36:53.438699	27.9	18.3	-88.2	5.3
2025-01-30 09:36:54.601765	27.9	18.4	-88.1	8.5
2025-01-30 09:36:55.760364	28.0	18.6	-88.1	7.8
2025-01-30 09:36:56.917947	28.0	18.7	-87.8	7.2
2025-01-30 09:36:58.078469	28.1	18.8	-88.0	5.4
2025-01-30 09:36:59.238356	28.1	19.0	-87.9	8.0
2025-01-30 09:37:00.398914	28.1	19.1	-87.8	7.9
2025-01-30 09:37:01.560954	28.2	19.3	-88.0	8.8
2025-01-30 09:37:02.720150	28.2	19.4	-87.9	10.2
2025-01-30 09:37:03.876843	28.3	19.6	-88.1	8.5
2025-01-30 09:37:05.033742	28.3	19.7	-87.9	5.8
2025-01-30 09:37:06.184689	28.4	19.8	-88.0	9.2
2025-01-30 09:37:07.343097	28.4	20.0	-87.2	6.6
2025-01-30 09:37:08.507147	28.5	20.1	-87.6	6.3
2025-01-30 09:37:09.667979	28.5	20.3	-87.9	9.8
2025-01-30 09:37:10.833406	28.6	20.4	-87.8	10.1
2025-01-30 09:37:11.993604	28.7	20.6	-87.7	12.6
2025-01-30 09:37:13.156664	28.7	20.7	-87.8	8.9
2025-01-30 09:37:14.322903	28.8	20.9	-87.7	11.2
2025-01-30 09:37:15.480711	28.8	21.0	-87.6	9.2
2025-01-30 09:37:16.640483	28.9	21.2	-87.8	10.2
2025-01-30 09:37:17.801675	28.9	21.4	-87.8	10.5
2025-01-30 09:37:18.959851	29.0	21.5	-87.6	10.3
2025-01-30 09:37:20.118938	29.0	21.7	-87.4	9.8
2025-01-30 09:37:21.283463	29.1	21.8	-87.3	9.7
2025-01-30 09:37:22.441539	29.1	22.0	-87.4	7.2
2025-01-30 09:37:23.604014	29.2	22.1	-87.3	8.1
2025-01-30 09:37:24.764758	29.3	22.3	-87.3	10.1
2025-01-30 09:37:25.928157	29.3	22.5	-87.3	9.0
2025-01-30 09:37:27.087479	29.4	22.6	-87.3	11.1
2025-01-30 09:37:28.242522	29.4	22.8	-87.7	11.9
2025-01-30 09:37:29.394351	29.5	23.0	-88.1	9.2
2025-01-30 09:37:30.553203	29.6	23.1	-88.6	9.3
2025-01-30 09:37:31.709674	29.6	23.3	-88.5	10.0
2025-01-30 09:37:32.864924	29.7	23.5	-87.6	9.0
2025-01-30 09:37:34.024706	29.7	23.6	-87.3	10.3
2025-01-30 09:37:35.188419	29.8	23.8	-87.3	9.9
2025-01-30 09:37:36.339509	29.9	24.0	-87.2	8.7
2025-01-30 09:37:37.496430	29.9	24.1	-88.2	6.9
2025-01-30 09:37:38.660450	30.0	24.3	-88.3	8.7
2025-01-30 09:37:39.821631	30.1	24.5	-88.2	9.0
2025-01-30 09:37:40.979075	30.1	24.7	-88.4	6.8
2025-01-30 09:37:42.140619	30.2	24.8	-87.9	9.2
2025-01-30 09:37:43.294354	30.3	25.0	-87.8	9.5
2025-01-30 09:37:44.451994	30.3	25.2	-87.8	11.1
2025-01-30 09:37:45.610548	30.4	25.4	-87.9	9.8
2025-01-30 09:37:46.771346	30.5	25.5	-88.2	11.5
2025-01-30 09:37:47.929619	30.5	25.7	-88.1	9.4
2025-01-30 09:37:49.088910	30.6	25.9	-87.6	8.2
2025-01-30 09:37:50.246164	30.7	26.1	-88.0	10.4
2025-01-30 09:37:51.405406	30.8	26.3	-87.8	11.0
2025-01-30 09:37:52.557241	30.8	26.5	-87.8	9.1
2025-01-30 09:37:53.717862	30.9	26.7	-88.1	10.1
2025-01-30 09:37:54.876934	31.0	26.8	-87.6	6.6
2025-01-30 09:37:56.035361	31.1	27.0	-87.7	6.9
2025-01-30 09:37:57.190225	31.1	27.2	-87.7	8.3
2025-01-30 09:37:58.347722	31.2	27.4	-87.9	7.3
2025-01-30 09:37:59.507997	31.3	27.6	-87.7	9.2
2025-01-30 09:38:00.665943	31.4	27.8	-87.7	8.6
2025-01-30 09:38:01.824875	31.5	28.0	-88.0	9.4
2025-01-30 09:38:02.985301	31.5	28.2	-87.5	8.7
2025-01-30 09:38:04.146184	31.6	28.4	-87.7	10.0
2025-01-30 09:38:05.302664	31.7	28.6	-87.7	11.9
2025-01-30 09:38:06.461499	31.8	28.8	-87.7	9.6
2025-01-30 09:38:07.615380	31.9	29.0	-87.9	11.5
2025-01-30 09:38:08.779252	32.0	29.2	-87.6	10.2
2025-01-30 09:38:09.937618	32.0	29.4	-87.5	7.4
2025-01-30 09:38:11.097620	32.1	29.6	-87.7	4.9
2025-01-30 09:38:12.258255	32.2	29.8	-87.7	8.7
2025-01-30 09:38:13.411549	32.3	30.1	-87.6	5.3
2025-01-30 09:38:14.575140	32.4	30.3	-87.6	6.4
2025-01-30 09:38:15.735300	32.5	30.5	-87.8	10.2
2025-01-30 09:38:16.890794	32.6	30.7	-87.6	10.3
2025-01-30 09:38:18.057388	32.7	30.9	-87.8	10.3
2025-01-30 09:38:19.217574	32.8	31.1	-87.6	9.2
2025-01-30 09:38:20.384121	32.9	31.4	-87.7	8.7
2025-01-30 09:38:21.545260	33.0	31.6	-88.2	7.7
2025-01-30 09:38:22.702903	33.1	31.8	-87.9	9.0
2025-01-30 09:38:23.863019	33.2	32.0	-87.8	9.2
2025-01-30 09:38:25.021857	33.3	32.3	-87.9	11.5
2025-01-30 09:38:26.183034	33.4	32.5	-87.8	8.9
2025-01-30 09:38:27.342033	33.5	32.7	-88.2	7.5
2025-01-30 09:38:28.505458	33.6	33.0	-87.4	6.4
2025-01-30 09:38:29.660232	33.7	33.2	-88.0	7.4
2025-01-30 09:38:30.820914	33.8	33.4	-88.0	8.6
2025-01-30 09:38:31.982877	33.9	33.7	-87.9	7.0
2025-01-30 09:38:33.144045	34.1	33.9	-87.7	10.9
2025-01-30 09:38:34.307686	34.2	34.1	-87.8	11.1
2025-01-30 09:38:35.468065	34.3	34.4	-87.8	11.8
2025-01-30 09:38:36.630379	34.4	34.6	-88.1	11.7
2025-01-30 09:38:37.791459	34.5	34.9	-87.9	10.8
2025-01-30 09:38:38.950301	34.6	35.1	-87.8	10.2
2025-01-30 09:38:40.115422	34.8	35.4	-87.5	8.8
2025-01-30 09:38:41.271753	34.9	35.6	-87.8	9.4
2025-01-30 09:38:42.433296	35.0	35.9	-87.6	10.2
2025-01-30 09:38:43.582081	35.2	36.1	-87.9	12.3
2025-01-30 09:38:44.739553	35.3	36.4	-87.8	10.8
2025-01-30 09:38:45.898272	35.4	36.6	-88.0	10.1
2025-01-30 09:38:47.055326	35.6	36.9	-87.8	7.6
2025-01-30 09:38:48.217778	35.7	37.2	-88.0	10.0
2025-01-30 09:38:49.377417	35.8	37.4	-87.7	6.7
2025-01-30 09:38:50.535625	36.0	37.7	-87.8	5.6
2025-01-30 09:38:51.698424	36.1	38.0	-87.6	10.4
2025-01-30 09:38:52.863955	36.3	38.2	-87.7	10.3
2025-01-30 09:38:54.024740	36.4	38.5	-87.6	9.5
2025-01-30 09:38:55.187697	36.6	38.8	-87.8	11.4
2025-01-30 09:38:56.346974	36.7	39.1	-87.5	10.8
2025-01-30 09:38:57.509925	36.9	39.3	-87.8	10.3
2025-01-30 09:38:58.667329	37.0	39.6	-87.9	12.9
2025-01-30 09:38:59.825513	37.2	39.9	-87.8	14.5
2025-01-30 09:39:00.979360	37.4	40.2	-88.0	14.9
2025-01-30 09:39:02.145757	37.5	40.5	-87.8	14.4
2025-01-30 09:39:03.303015	37.7	40.8	-87.6	14.1
2025-01-30 09:39:04.467459	37.9	41.1	-87.8	11.4
2025-01-30 09:39:05.628965	38.1	41.4	-88.1	11.5
2025-01-30 09:39:06.791999	38.2	41.7	-87.9	10.6
2025-01-30 09:39:07.950058	38.4	42.0	-87.8	7.8
2025-01-30 09:39:09.106125	38.6	42.3	-87.5	9.9
2025-01-30 09:39:10.274408	38.8	42.6	-87.9	14.5
2025-01-30 09:39:11.426946	39.0	42.9	-88.2	11.5
2025-01-30 09:39:12.589249	39.2	43.2	-87.4	14.2
2025-01-30 09:39:13.741825	39.4	43.5	-88.1	14.3
2025-01-30 09:39:14.896876	39.6	43.8	-87.8	11.3
2025-01-30 09:39:16.055113	39.8	44.1	-87.8	10.7
2025-01-30 09:39:17.221163	40.0	44.4	-87.7	12.6
2025-01-30 09:39:18.380800	40.2	44.7	-87.9	11.1
2025-01-30 09:39:19.546935	40.4	45.0	-88.0	9.7
2025-01-30 09:39:20.706323	40.7	45.4	-88.0	12.9
2025-01-30 09:39:21.865025	40.9	45.7	-88.2	13.6
2025-01-30 09:39:23.018346	41.1	46.0	-88.1	11.7
2025-01-30 09:39:24.177358	41.4	46.3	-88.1	11.3
2025-01-30 09:39:25.334224	41.6	46.7	-88.0	10.3
2025-01-30 09:39:26.492689	41.9	47.0	-87.8	7.2
2025-01-30 09:39:27.651666	42.1	47.3	-87.9	7.5
2025-01-30 09:39:28.810568	42.4	47.7	-88.0	8.0
2025-01-30 09:39:29.971515	42.6	48.0	-88.4	6.0
2025-01-30 09:39:31.130434	42.9	48.3	-88.2	5.1
2025-01-30 09:39:32.288710	43.2	48.7	-87.9	5.1
2025-01-30 09:39:33.447423	43.5	49.0	-87.9	5.6
2025-01-30 09:39:34.605080	43.8	49.4	-87.8	7.1
2025-01-30 09:39:35.769196	44.1	49.7	-87.9	7.4
2025-01-30 09:39:36.928887	44.4	50.1	-88.0	7.4
2025-01-30 09:39:38.085881	44.7	50.4	-87.9	7.9
2025-01-30 09:39:39.240939	45.0	50.8	-87.9	9.4
2025-01-30 09:39:40.399173	45.3	51.1	-87.6	6.2
2025-01-30 09:39:41.561104	45.6	51.5	-87.9	7.4
2025-01-30 09:39:42.731028	46.0	51.8	-87.8	9.8
2025-01-30 09:39:43.883438	46.3	52.2	-88.2	8.5
2025-01-30 09:39:45.042935	46.7	52.6	-87.7	10.9
2025-01-30 09:39:46.204586	47.0	52.9	-87.6	11.2
2025-01-30 09:39:47.362801	47.4	53.3	-88.0	9.4
2025-01-30 09:39:48.514648	47.8	53.6	-87.6	8.7
2025-01-30 09:39:49.674481	48.2	54.0	-87.8	9.1
2025-01-30 09:39:50.806298	48.6	54.4	-88.1	11.2
2025-01-30 09:39:51.926922	49.0	54.7	-88.0	6.9
2025-01-30 09:39:53.046973	49.4	55.1	-88.2	7.0
2025-01-30 09:39:54.167932	49.8	55.5	-87.9	13.0
2025-01-30 09:39:55.288527	50.2	55.8	-87.9	13.4
2025-01-30 09:39:56.408985	50.7	56.2	-88.0	10.7
2025-01-30 09:39:57.528828	51.1	56.5	-88.1	13.8
2025-01-30 09:39:58.648279	51.6	56.9	-88.2	15.7
2025-01-30 09:39:59.768715	52.1	57.3	-87.7	15.6
2025-01-30 09:40:00.891313	52.6	57.6	-87.5	14.7
2025-01-30 09:40:02.016108	53.1	58.0	-88.2	13.5
2025-01-30 09:40:03.176299	53.6	58.4	-87.8	15.9
2025-01-30 09:40:04.341250	54.2	58.7	-88.0	17.0
2025-01-30 09:40:05.497371	54.7	59.1	-88.1	13.5
2025-01-30 09:40:06.636556	55.3	59.5	-88.1	15.4
2025-01-30 09:40:07.795203	55.9	59.9	-87.8	15.5
2025-01-30 09:40:08.968269	56.5	60.2	-87.8	14.7
2025-01-30 09:40:10.126452	57.1	60.6	-87.5	14.9
2025-01-30 09:40:11.284112	57.8	61.0	-87.9	12.4
2025-01-30 09:40:12.447362	58.5	61.4	-88.0	14.1
2025-01-30 09:40:13.598543	59.2	61.7	-87.7	12.9
2025-01-30 09:40:14.762791	59.9	62.1	-87.7	14.0
2025-01-30 09:40:15.922645	60.6	62.5	-87.9	10.7
2025-01-30 09:40:17.082064	61.4	62.8	-88.0	8.8
2025-01-30 09:40:18.240764	62.1	63.2	-88.1	12.0
2025-01-30 09:40:19.396669	62.9	63.6	-87.8	8.0
2025-01-30 09:40:20.555558	63.8	63.9	-87.8	6.2
2025-01-30 09:40:21.713704	64.6	64.3	-88.0	10.3
2025-01-30 09:40:22.869211	65.5	64.6	-87.7	11.3
2025-01-30 09:40:24.028279	66.4	65.0	-87.7	10.8
2025-01-30 09:40:25.185114	67.4	65.3	-87.6	13.1
2025-01-30 09:40:26.345076	68.3	65.6	-88.0	11.9
2025-01-30 09:40:27.506584	69.3	66.0	-87.8	15.6
2025-01-30 09:40:28.664774	70.3	66.3	-87.8	14.1
2025-01-30 09:40:29.822530	71.4	66.6	-88.1	13.9
2025-01-30 09:40:30.984246	72.5	66.9	-88.0	14.1
2025-01-30 09:40:32.137651	73.6	67.2	-88.1	12.3
2025-01-30 09:40:33.295899	74.8	67.5	-88.3	11.9
2025-01-30 09:40:34.450783	75.9	67.8	-88.1	8.0
2025-01-30 09:40:35.606474	77.2	68.1	-87.9	13.2
2025-01-30 09:40:36.763103	78.4	68.4	-88.2	14.6
2025-01-30 09:40:37.927513	79.7	68.7	-87.9	9.1
2025-01-30 09:40:39.088290	81.0	68.9	-87.9	9.1
2025-01-30 09:40:40.252421	82.4	69.2	-87.9	13.9
2025-01-30 09:40:41.413952	83.8	69.4	-88.0	10.5
2025-01-30 09:40:42.570512	85.2	69.7	-87.8	11.1
2025-01-30 09:40:43.724175	86.7	69.9	-88.2	16.0
2025-01-30 09:40:44.884251	88.2	70.1	-88.2	9.2
2025-01-30 09:40:46.040665	89.7	70.3	-88.3	12.9
2025-01-30 09:40:47.213116	91.3	70.4	-88.1	14.2
2025-01-30 09:40:48.373912	92.9	70.6	-87.7	10.5
2025-01-30 09:40:49.542517	94.5	70.8	-87.4	9.6
2025-01-30 09:40:50.699593	96.2	70.9	-87.2	8.0
2025-01-30 09:40:51.859572	97.9	71.0	-87.4	14.3
2025-01-30 09:40:53.014641	99.5	71.1	-87.4	15.3
2025-01-30 09:40:54.171168	101.3	71.2	-87.5	9.8
2025-01-30 09:40:55.329490	103.0	71.3	-87.1	9.6
2025-01-30 09:40:56.483597	104.7	71.4	-87.3	11.9
2025-01-30 09:40:57.640291	106.5	71.4	-87.4	10.1
2025-01-30 09:40:58.794630	108.2	71.4	-87.2	12.8
2025-01-30 09:40:59.958150	110.0	71.4	-87.1	8.7
2025-01-30 09:41:01.111370	111.7	71.4	-87.1	8.8
2025-01-30 09:41:02.268729	113.5	71.4	-87.1	9.8
2025-01-30 09:41:03.427745	115.2	71.4	-87.2	4.8
2025-01-30 09:41:04.582344	117.0	71.3	-87.3	7.8
2025-01-30 09:41:05.744538	118.7	71.3	-87.0	9.9
2025-01-30 09:41:06.913758	120.5	71.2	-87.2	5.8
2025-01-30 09:41:08.072669	122.2	71.1	-87.1	6.2
2025-01-30 09:41:09.231870	123.8	70.9	-87.2	11.7
2025-01-30 09:41:10.390942	125.5	70.8	-87.3	7.5
2025-01-30 09:41:11.552461	127.1	70.7	-87.4	7.2
2025-01-30 09:41:12.713771	128.7	70.5	-87.3	15.1
2025-01-30 09:41:13.866145	130.3	70.3	-87.2	10.9
2025-01-30 09:41:15.026489	131.8	70.1	-87.4	11.2
2025-01-30 09:41:16.186132	133.4	69.9	-87.2	15.4
2025-01-30 09:41:17.348794	134.8	69.7	-87.1	13.4
2025-01-30 09:41:18.512238	136.3	69.5	-87.1	9.9
2025-01-30 09:41:19.669785	137.7	69.3	-86.8	15.1
2025-01-30 09:41:20.832025	139.1	69.0	-87.2	13.3
2025-01-30 09:41:21.992601	140.4	68.8	-87.2	10.1
2025-01-30 09:41:23.151367	141.7	68.5	-87.1	15.8
2025-01-30 09:41:24.304502	143.0	68.2	-87.1	14.0
2025-01-30 09:41:25.466070	144.2	67.9	-87.1	10.0
2025-01-30 09:41:26.629652	145.4	67.6	-87.4	14.9
2025-01-30 09:41:27.788564	146.6	67.3	-87.5	15.5
2025-01-30 09:41:28.951115	147.8	67.0	-87.2	7.8
2025-01-30 09:41:30.100370	148.8	66.7	-87.2	10.4
2025-01-30 09:41:31.258977	149.9	66.4	-87.5	11.6
2025-01-30 09:41:32.409850	150.9	66.1	-87.5	7.4
2025-01-30 09:41:33.567107	152.0	65.7	-87.9	8.9
2025-01-30 09:41:34.729638	152.9	65.4	-88.1	13.1
2025-01-30 09:41:35.876303	153.9	65.1	-88.4	10.1
2025-01-30 09:41:37.033930	154.8	64.7	-88.3	9.6
2025-01-30 09:41:38.193794	155.7	64.4	-88.3	15.6
2025-01-30 09:41:39.360292	156.6	64.0	-88.3	12.3
2025-01-30 09:41:40.522835	157.4	63.7	-88.6	11.7
2025-01-30 09:41:41.683749	158.2	63.3	-88.2	15.5
2025-01-30 09:41:42.843698	159.0	62.9	-88.7	13.9
2025-01-30 09:41:44.003275	159.8	62.6	-88.6	10.9
2025-01-30 09:41:45.162360	160.5	62.2	-88.3	17.4
2025-01-30 09:41:46.320254	161.2	61.8	-88.5	15.3
2025-01-30 09:41:47.481344	161.9	61.5	-88.8	8.0
2025-01-30 09:41:48.641608	162.6	61.1	-88.9	13.3
2025-01-30 09:41:49.804357	163.3	60.7	-88.6	14.0
2025-01-30 09:41:50.971178	163.9	60.3	-88.6	9.1
2025-01-30 09:41:52.139236	164.6	60.0	-88.7	12.7
2025-01-30 09:41:53.302474	165.2	59.6	-88.9	11.3
2025-01-30 09:41:54.460063	165.7	59.2	-88.5	6.3
2025-01-30 09:41:55.618693	166.3	58.8	-88.7	9.4
2025-01-30 09:41:56.778134	166.9	58.5	-88.6	9.5
2025-01-30 09:41:57.935606	167.4	58.1	-88.2	6.2
2025-01-30 09:41:59.089387	167.9	57.7	-88.5	10.5
2025-01-30 09:42:00.250271	168.4	57.3	-89.0	12.3
2025-01-30 09:42:01.411256	168.9	56.9	-89.0	8.8
2025-01-30 09:42:02.575802	169.4	56.6	-89.0	11.0
2025-01-30 09:42:03.731689	169.9	56.2	-88.6	13.5
2025-01-30 09:42:04.896892	170.4	55.8	-88.5	11.2
2025-01-30 09:42:06.059315	170.8	55.4	-88.7	11.9
2025-01-30 09:42:07.214034	171.2	55.1	-88.8	12.9
2025-01-30 09:42:08.373642	171.7	54.7	-88.8	12.3
2025-01-30 09:42:09.531724	172.1	54.3	-89.0	10.1
2025-01-30 09:42:10.692349	172.5	54.0	-88.9	8.8
2025-01-30 09:42:11.852977	172.9	53.6	-88.9	11.8
2025-01-30 09:42:13.015806	173.3	53.2	-89.0	8.4
2025-01-30 09:42:14.165023	173.6	52.9	-88.8	6.3
2025-01-30 09:42:15.325138	174.0	52.5	-89.1	11.2
2025-01-30 09:42:16.488543	174.3	52.1	-88.9	10.8
2025-01-30 09:42:17.651385	174.7	51.8	-88.5	11.0
2025-01-30 09:42:18.820168	175.0	51.4	-88.2	8.5
2025-01-30 09:42:19.974639	175.4	51.0	-88.1	7.7
2025-01-30 09:42:21.137262	175.7	50.7	-88.1	10.4
2025-01-30 09:42:22.296931	176.0	50.3	-87.6	9.6
2025-01-30 09:42:23.455231	176.3	50.0	-88.1	6.4
2025-01-30 09:42:24.610261	176.6	49.6	-88.1	9.4
2025-01-30 09:42:25.768540	176.9	49.3	-88.0	12.6
2025-01-30 09:42:26.924862	177.2	48.9	-88.0	8.4
2025-01-30 09:42:28.086533	177.5	48.6	-87.7	8.7
2025-01-30 09:42:29.245034	177.8	48.3	-88.0	11.7
2025-01-30 09:42:30.397548	178.0	47.9	-88.0	7.9
2025-01-30 09:42:31.549240	178.3	47.6	-88.0	6.9
2025-01-30 09:42:32.708937	178.6	47.2	-88.1	13.1
2025-01-30 09:42:33.865223	178.8	46.9	-87.9	12.3
2025-01-30 09:42:35.041011	179.1	46.6	-88.0	12.5
2025-01-30 09:42:36.194985	179.3	46.2	-87.8	14.8
2025-01-30 09:42:37.368306	179.5	45.9	-87.8	15.2
2025-01-30 09:42:38.532289	179.8	45.6	-88.5	15.8
2025-01-30 09:42:39.693501	180.0	45.3	-88.6	15.1
2025-01-30 09:42:40.855856	180.2	44.9	-88.8	14.9
2025-01-30 09:42:42.015592	180.5	44.6	-88.7	14.6
2025-01-30 09:42:43.171348	180.7	44.3	-88.5	16.0
2025-01-30 09:42:44.327119	180.9	44.0	-88.6	14.4
2025-01-30 09:42:45.484781	181.1	43.7	-88.8	9.9
2025-01-30 09:42:46.653101	181.3	43.4	-88.6	14.4
2025-01-30 09:42:47.812726	181.5	43.0	-88.6	11.4
2025-01-30 09:42:48.974825	181.7	42.7	-88.8	8.6
2025-01-30 09:42:50.138859	181.9	42.4	-88.9	11.5
2025-01-30 09:42:51.299880	182.1	42.1	-88.8	12.1
2025-01-30 09:42:52.450586	182.3	41.8	-88.7	10.4
2025-01-30 09:42:53.610014	182.4	41.5	-89.2	14.6
2025-01-30 09:42:54.768162	182.6	41.2	-88.7	11.5
2025-01-30 09:42:55.927826	182.8	40.9	-89.0	9.7
2025-01-30 09:42:57.085994	183.0	40.6	-88.9	11.2
2025-01-30 09:42:58.246548	183.1	40.4	-89.1	11.4
2025-01-30 09:42:59.403907	183.3	40.1	-88.7	7.9
2025-01-30 09:43:00.558304	183.5	39.8	-88.7	8.8
2025-01-30 09:43:01.722568	183.6	39.5	-88.8	9.0
2025-01-30 09:43:02.884613	183.8	39.2	-88.9	10.6
2025-01-30 09:43:04.041092	183.9	38.9	-88.7	10.1
2025-01-30 09:43:05.200214	184.1	38.7	-88.7	12.0
2025-01-30 09:43:06.354194	184.2	38.4	-88.8	9.2
2025-01-30 09:43:07.513671	184.4	38.1	-89.0	7.5
2025-01-30 09:43:08.670028	184.5	37.8	-89.0	10.6
2025-01-30 09:43:09.828434	184.7	37.6	-89.0	8.2
2025-01-30 09:43:10.982944	184.8	37.3	-89.2	6.1
2025-01-30 09:43:12.144641	185.0	37.0	-89.0	7.7
2025-01-30 09:43:13.304132	185.1	36.8	-88.9	6.6
2025-01-30 09:43:14.462991	185.2	36.5	-88.9	5.6
2025-01-30 09:43:15.618150	185.4	36.3	-89.1	7.7
2025-01-30 09:43:16.776969	185.5	36.0	-89.2	9.2
2025-01-30 09:43:17.934026	185.6	35.7	-89.0	8.3
2025-01-30 09:43:19.096584	185.8	35.5	-88.9	6.6
2025-01-30 09:43:20.260128	185.9	35.2	-88.7	9.2
2025-01-30 09:43:21.426166	186.0	35.0	-88.8	9.4
2025-01-30 09:43:22.593787	186.1	34.7	-88.6	7.2
2025-01-30 09:43:23.748221	186.3	34.5	-88.7	10.3
2025-01-30 09:43:24.891839	186.4	34.2	-88.7	7.3
2025-01-30 09:43:26.053481	186.5	34.0	-88.6	6.2
2025-01-30 09:43:27.215165	186.6	33.7	-88.2	8.8
2025-01-30 09:43:28.372283	186.7	33.5	-88.7	6.1
2025-01-30 09:43:29.529644	186.8	33.3	-88.4	8.1
2025-01-30 09:43:30.683850	186.9	33.0	-88.6	9.2
2025-01-30 09:43:31.846942	187.0	32.8	-88.4	9.5
2025-01-30 09:43:33.001794	187.2	32.6	-88.5	9.9
2025-01-30 09:43:34.162524	187.3	32.3	-88.3	9.2
2025-01-30 09:43:35.318420	187.4	32.1	-88.3	9.4
2025-01-30 09:43:36.479531	187.5	31.9	-88.4	7.6
2025-01-30 09:43:37.640318	187.6	31.7	-88.8	7.0
2025-01-30 09:43:38.797554	187.7	31.4	-88.4	5.8
2025-01-30 09:43:39.956588	187.8	31.2	-88.7	4.7
2025-01-30 09:43:41.121034	187.9	31.0	-88.7	6.9
2025-01-30 09:43:42.285198	188.0	30.8	-88.3	5.6
2025-01-30 09:43:43.447080	188.1	30.5	-88.7	4.7
2025-01-30 09:43:44.599673	188.1	30.3	-88.9	6.7
2025-01-30 09:43:45.753968	188.2	30.1	-88.6	5.3
2025-01-30 09:43:46.910248	188.3	29.9	-88.8	9.0
2025-01-30 09:43:48.071771	188.4	29.7	-89.0	8.1
2025-01-30 09:43:49.233406	188.5	29.5	-89.0	9.3
2025-01-30 09:43:50.395069	188.6	29.3	-89.1	10.6
2025-01-30 09:43:51.556327	188.7	29.1	-88.8	7.9
2025-01-30 09:43:52.720334	188.8	28.8	-88.8	9.9
2025-01-30 09:43:53.876005	188.9	28.6	-88.9	9.9
2025-01-30 09:43:55.030520	188.9	28.4	-88.9	8.1
2025-01-30 09:43:56.182389	189.0	28.2	-88.9	8.3
2025-01-30 09:43:57.346583	189.1	28.0	-88.8	6.3
2025-01-30 09:43:58.500634	189.2	27.8	-89.0	5.7
2025-01-30 09:43:59.659101	189.3	27.6	-89.3	6.6
2025-01-30 09:44:00.814461	189.4	27.4	-89.4	9.4
2025-01-30 09:44:01.970123	189.4	27.3	-89.4	8.8
2025-01-30 09:44:03.127052	189.5	27.1	-89.2	11.4
2025-01-30 09:44:04.276077	189.6	26.9	-88.1	8.5
2025-01-30 09:44:05.432732	189.7	26.7	-88.1	7.6
2025-01-30 09:44:06.598222	189.7	26.5	-88.5	9.0
2025-01-30 09:44:07.750656	189.8	26.3	-89.1	11.2
2025-01-30 09:44:08.905669	189.9	26.1	-89.4	9.1
2025-01-30 09:44:10.068198	190.0	25.9	-89.3	7.7
2025-01-30 09:44:11.219959	190.0	25.7	-89.1	7.4
2025-01-30 09:44:12.381762	190.1	25.6	-89.3	4.7
2025-01-30 09:44:13.544579	190.2	25.4	-89.2	7.9
2025-01-30 09:44:14.699429	190.2	25.2	-89.2	7.0
2025-01-30 09:44:15.856286	190.3	25.0	-89.3	7.0
2025-01-30 09:44:17.014351	190.4	24.8	-89.2	7.8
2025-01-30 09:44:18.172220	190.4	24.7	-89.0	9.4
2025-01-30 09:44:19.333331	190.5	24.5	-88.8	10.9
2025-01-30 09:44:20.493517	190.6	24.3	-88.9	11.0
2025-01-30 09:44:21.653317	190.6	24.1	-89.2	13.0
2025-01-30 09:44:22.815692	190.7	24.0	-89.2	9.7
2025-01-30 09:44:23.976470	190.8	23.8	-89.5	11.6
2025-01-30 09:44:25.125944	190.8	23.6	-89.3	9.4
2025-01-30 09:44:26.289747	190.9	23.4	-89.1	9.8
2025-01-30 09:44:27.450383	191.0	23.3	-89.5	7.3
2025-01-30 09:44:28.614938	191.0	23.1	-89.0	10.1
2025-01-30 09:44:29.768082	191.1	22.9	-89.1	10.3
2025-01-30 09:44:30.926679	191.1	22.8	-88.9	8.7
2025-01-30 09:44:32.080974	191.2	22.6	-89.1	10.7
2025-01-30 09:44:33.239843	191.3	22.4	-89.0	9.1
2025-01-30 09:44:34.392170	191.3	22.3	-89.3	9.4
2025-01-30 09:44:35.553599	191.4	22.1	-89.3	9.6
2025-01-30 09:44:36.708667	191.4	22.0	-89.3	9.3
2025-01-30 09:44:37.866295	191.5	21.8	-89.0	7.4
2025-01-30 09:44:39.023905	191.5	21.6	-89.3	7.2
2025-01-30 09:44:40.188315	191.6	21.5	-89.4	9.5
2025-01-30 09:44:41.342543	191.7	21.3	-89.0	5.8
2025-01-30 09:44:42.508235	191.7	21.2	-89.3	5.4
2025-01-30 09:44:43.667945	191.8	21.0	-89.3	5.5
2025-01-30 09:44:44.824597	191.8	20.9	-89.5	7.5
2025-01-30 09:44:45.976239	191.9	20.7	-89.2	5.8
2025-01-30 09:44:47.137838	191.9	20.6	-89.5	7.3
2025-01-30 09:44:48.290465	192.0	20.4	-89.5	10.1
2025-01-30 09:44:49.446355	192.0	20.3	-89.1	9.9
2025-01-30 09:44:50.606912	192.1	20.1	-89.0	12.5
2025-01-30 09:44:51.768032	192.1	20.0	-89.0	10.7
2025-01-30 09:44:52.920967	192.2	19.8	-89.0	11.0
2025-01-30 09:44:54.077227	192.2	19.7	-89.3	9.6
2025-01-30 09:44:55.230137	192.3	19.5	-89.7	11.2
2025-01-30 09:44:56.391638	192.3	19.4	-89.2	7.7
2025-01-30 09:44:57.546819	192.4	19.2	-89.5	8.6
2025-01-30 09:44:58.706989	192.4	19.1	-89.4	10.1
2025-01-30 09:45:00.055463	192.5	18.9	-89.3	6.4
2025-01-30 09:45:01.216644	192.5	18.8	-89.3	9.0
2025-01-30 09:45:02.374277	192.6	18.6	-89.2	4.2
2025-01-30 09:45:03.538239	192.6	18.5	-89.2	6.5
2025-01-30 09:45:04.702124	192.7	18.3	-89.2	4.5
2025-01-30 09:45:05.868583	192.7	18.2	-89.4	4.7
2025-01-30 09:45:07.026257	192.8	18.1	-89.3	4.8
2025-01-30 09:45:08.188021	192.8	17.9	-89.0	5.7
2025-01-30 09:45:09.344305	192.8	17.8	-89.1	3.1
2025-01-30 09:45:10.499503	192.9	17.7	-88.8	3.6
2025-01-30 09:45:11.655859	192.9	17.5	-88.6	5.1
2025-01-30 09:45:12.829090	193.0	17.4	-88.4	5.4
2025-01-30 09:45:13.988035	193.0	17.3	-88.7	5.7
2025-01-30 09:45:15.150671	193.1	17.1	-88.2	4.7
2025-01-30 09:45:16.313049	193.1	17.0	-88.6	4.3
2025-01-30 09:45:17.473028	193.2	16.9	-88.1	5.0
2025-01-30 09:45:18.632399	193.2	16.7	-88.0	4.1
2025-01-30 09:45:19.791405	193.2	16.6	-88.4	6.4
2025-01-30 09:45:20.955785	193.3	16.5	-88.8	6.9
2025-01-30 09:45:22.119192	193.3	16.3	-88.7	5.5
2025-01-30 09:45:23.277535	193.4	16.2	-88.5	6.9
2025-01-30 09:45:24.432077	193.4	16.1	-88.0	6.1
2025-01-30 09:45:25.593165	193.4	16.0	-89.3	3.3
2025-01-30 09:45:26.750723	193.5	15.8	-88.3	3.6
2025-01-30 09:45:27.912041	193.5	15.7	-88.6	6.0
2025-01-30 09:45:29.067528	193.6	15.6	-88.4	6.1
2025-01-30 09:45:30.222843	193.6	15.5	-88.2	4.8
2025-01-30 09:45:31.380698	193.6	15.3	-88.3	3.0
2025-01-30 09:45:32.536639	193.7	15.2	-88.2	3.6
2025-01-30 09:45:33.698915	193.7	15.1	-88.4	4.7
2025-01-30 09:45:34.857576	193.7	15.0	-88.7	5.5
2025-01-30 09:45:36.026657	193.8	14.8	-88.9	6.4
2025-01-30 09:45:37.185709	193.8	14.7	-88.6	5.0
2025-01-30 09:45:38.343245	193.9	14.6	-88.4	4.3
2025-01-30 09:45:39.492231	193.9	14.5	-88.3	4.2
#Closed at: 2025-01-30 09:36:28.824388