passes_logs/2025/01/30/LEX_Murmansk/LEX_Murmansk__20250130_175555_NOAA_18_rec.log

#Pass ID: 20250130_175555_NOAA 18
#Satellite: NOAA 18
#Configuration: NOAA 18
#Start time: 2025-01-30 17:55:49.958032

#LorettStation: 1.0.0 05.05.2024
#Station: LEX_Murmansk
#Location: 33.156738 lon 68.926811 lat
#TLE: 1 28654U 05018A   25030.16946896  .00000398  00000+0  23471-3 0  9997
#TLE: 2 28654  98.8542 111.0717 0014961 137.5822 222.6509 14.13501465 15327

#Time	Az	El	Level	SNR
2025-01-30 17:56:02.261277	123.3	16.3	-91.5	9.8
2025-01-30 17:56:03.438238	123.2	16.4	-91.4	5.2
2025-01-30 17:56:04.597161	123.2	16.5	-91.5	8.1
2025-01-30 17:56:05.760723	123.1	16.7	-91.7	9.2
2025-01-30 17:56:06.928326	123.0	16.8	-91.8	11.7
2025-01-30 17:56:08.087425	123.0	16.9	-91.7	10.5
2025-01-30 17:56:09.248128	122.9	17.0	-91.5	8.8
2025-01-30 17:56:10.409410	122.8	17.2	-91.7	8.1
2025-01-30 17:56:11.573668	122.7	17.3	-91.7	7.2
2025-01-30 17:56:12.732654	122.7	17.4	-92.1	9.8
2025-01-30 17:56:13.892039	122.6	17.6	-91.4	11.3
2025-01-30 17:56:15.054137	122.5	17.7	-91.7	10.3
2025-01-30 17:56:16.224159	122.4	17.8	-91.6	11.3
2025-01-30 17:56:17.384674	122.4	18.0	-91.5	5.7
2025-01-30 17:56:18.545110	122.3	18.1	-91.6	4.0
2025-01-30 17:56:19.713188	122.2	18.2	-91.4	11.5
2025-01-30 17:56:20.876922	122.1	18.4	-91.8	10.3
2025-01-30 17:56:22.044320	122.1	18.5	-91.8	13.1
2025-01-30 17:56:23.196838	122.0	18.6	-92.2	15.3
2025-01-30 17:56:24.367156	121.9	18.8	-91.8	14.7
2025-01-30 17:56:25.532975	121.8	18.9	-91.8	13.4
2025-01-30 17:56:26.698224	121.7	19.0	-91.9	16.2
2025-01-30 17:56:27.859445	121.7	19.2	-91.6	14.6
2025-01-30 17:56:29.022777	121.6	19.3	-92.2	17.3
2025-01-30 17:56:30.187919	121.5	19.5	-91.8	14.1
2025-01-30 17:56:31.350583	121.4	19.6	-91.9	11.0
2025-01-30 17:56:32.509516	121.3	19.7	-92.2	8.6
2025-01-30 17:56:33.674417	121.2	19.9	-92.1	13.1
2025-01-30 17:56:34.839304	121.2	20.0	-91.9	7.8
2025-01-30 17:56:36.003729	121.1	20.2	-92.0	7.6
2025-01-30 17:56:37.171993	121.0	20.3	-92.2	11.7
2025-01-30 17:56:38.331411	120.9	20.5	-92.2	15.0
2025-01-30 17:56:39.489588	120.8	20.6	-91.5	14.7
2025-01-30 17:56:40.659069	120.7	20.8	-91.5	14.1
2025-01-30 17:56:41.818366	120.6	20.9	-91.3	14.4
2025-01-30 17:56:42.975529	120.5	21.0	-90.9	10.6
2025-01-30 17:56:44.138895	120.4	21.2	-91.8	12.8
2025-01-30 17:56:45.302673	120.3	21.3	-91.8	13.3
2025-01-30 17:56:46.468306	120.2	21.5	-91.6	11.4
2025-01-30 17:56:47.628325	120.2	21.6	-91.6	11.0
2025-01-30 17:56:48.791866	120.1	21.8	-91.8	10.1
2025-01-30 17:56:49.955200	120.0	22.0	-92.0	5.7
2025-01-30 17:56:51.098886	119.9	22.1	-91.5	9.2
2025-01-30 17:56:52.221937	119.8	22.3	-91.5	11.4
2025-01-30 17:56:53.362850	119.7	22.4	-91.6	9.8
2025-01-30 17:56:54.525528	119.6	22.6	-92.0	12.4
2025-01-30 17:56:55.686895	119.5	22.7	-92.3	16.1
2025-01-30 17:56:56.852356	119.4	22.9	-91.9	15.3
2025-01-30 17:56:58.015515	119.2	23.0	-92.0	11.5
2025-01-30 17:56:59.179815	119.1	23.2	-91.6	13.4
2025-01-30 17:57:00.334811	119.0	23.4	-91.4	13.3
2025-01-30 17:57:01.499801	118.9	23.5	-91.7	11.2
2025-01-30 17:57:02.663874	118.8	23.7	-91.5	12.4
2025-01-30 17:57:03.829814	118.7	23.8	-91.4	10.5
2025-01-30 17:57:04.994501	118.6	24.0	-91.5	8.2
2025-01-30 17:57:06.162008	118.5	24.2	-91.6	7.3
2025-01-30 17:57:07.326829	118.4	24.3	-91.9	5.7
2025-01-30 17:57:08.515674	118.2	24.5	-92.0	3.6
2025-01-30 17:57:09.674290	118.1	24.7	-92.3	7.9
2025-01-30 17:57:10.839172	118.0	24.8	-92.2	9.1
2025-01-30 17:57:12.002042	117.9	25.0	-92.0	9.3
2025-01-30 17:57:13.162675	117.8	25.2	-91.6	9.0
2025-01-30 17:57:14.331399	117.6	25.4	-91.9	5.1
2025-01-30 17:57:15.497368	117.5	25.5	-92.1	6.4
2025-01-30 17:57:16.656964	117.4	25.7	-92.0	3.3
2025-01-30 17:57:17.821208	117.3	25.9	-91.8	3.5
2025-01-30 17:57:18.986176	117.1	26.1	-91.8	6.2
2025-01-30 17:57:20.147181	117.0	26.2	-91.9	9.0
2025-01-30 17:57:21.294854	116.9	26.4	-91.7	10.2
2025-01-30 17:57:22.415378	116.7	26.6	-91.8	7.9
2025-01-30 17:57:23.535841	116.6	26.7	-91.9	5.6
2025-01-30 17:57:24.655598	116.5	26.9	-92.2	8.1
2025-01-30 17:57:25.776437	116.4	27.1	-91.8	7.3
2025-01-30 17:57:26.896171	116.2	27.3	-91.9	4.5
2025-01-30 17:57:28.017255	116.1	27.4	-92.3	5.1
2025-01-30 17:57:29.139235	116.0	27.6	-91.9	3.2
2025-01-30 17:57:30.258595	115.8	27.8	-92.0	5.5
2025-01-30 17:57:31.381015	115.7	28.0	-91.9	4.0
2025-01-30 17:57:32.510554	115.5	28.2	-92.4	5.5
2025-01-30 17:57:33.670282	115.4	28.3	-91.9	8.4
2025-01-30 17:57:34.828957	115.2	28.5	-92.3	9.7
2025-01-30 17:57:35.995965	115.1	28.7	-92.5	7.7
2025-01-30 17:57:37.145867	114.9	28.9	-92.4	11.4
2025-01-30 17:57:38.307129	114.8	29.1	-91.9	10.7
2025-01-30 17:57:39.466495	114.6	29.3	-92.2	10.1
2025-01-30 17:57:40.589650	114.5	29.5	-92.4	10.9
2025-01-30 17:57:41.746745	114.3	29.7	-92.0	11.3
2025-01-30 17:57:42.892279	114.1	29.9	-92.1	7.5
2025-01-30 17:57:44.040624	114.0	30.1	-91.5	7.5
2025-01-30 17:57:45.196846	113.8	30.3	-91.2	14.8
2025-01-30 17:57:46.352451	113.6	30.5	-91.4	15.0
2025-01-30 17:57:47.515854	113.5	30.7	-91.4	16.3
2025-01-30 17:57:48.671988	113.3	30.9	-92.3	16.0
2025-01-30 17:57:49.841759	113.1	31.1	-91.6	13.5
2025-01-30 17:57:51.011733	112.9	31.3	-92.0	13.2
2025-01-30 17:57:52.180308	112.8	31.5	-92.1	19.0
2025-01-30 17:57:53.341226	112.6	31.7	-92.4	15.3
2025-01-30 17:57:54.507954	112.4	31.9	-92.6	17.9
2025-01-30 17:57:55.671471	112.2	32.1	-92.4	18.1
2025-01-30 17:57:56.836815	112.0	32.3	-92.1	17.9
2025-01-30 17:57:57.996969	111.8	32.5	-92.1	14.7
2025-01-30 17:57:59.158676	111.6	32.7	-91.7	16.9
2025-01-30 17:58:00.322340	111.4	33.0	-91.4	12.8
2025-01-30 17:58:01.498151	111.2	33.2	-92.1	6.7
2025-01-30 17:58:02.658933	111.0	33.4	-92.2	13.0
2025-01-30 17:58:03.823497	110.8	33.6	-92.0	11.9
2025-01-30 17:58:04.982864	110.6	33.8	-91.8	12.6
2025-01-30 17:58:06.144237	110.4	34.0	-91.7	17.2
2025-01-30 17:58:07.311650	110.2	34.3	-91.5	18.9
2025-01-30 17:58:08.472900	109.9	34.5	-91.4	17.0
2025-01-30 17:58:09.637064	109.7	34.7	-91.9	20.2
2025-01-30 17:58:10.795359	109.5	34.9	-91.8	21.1
2025-01-30 17:58:11.959087	109.3	35.1	-91.8	16.3
2025-01-30 17:58:13.123236	109.0	35.4	-91.4	21.2
2025-01-30 17:58:14.288899	108.8	35.6	-91.8	19.5
2025-01-30 17:58:15.458622	108.6	35.8	-91.9	17.3
2025-01-30 17:58:16.622165	108.3	36.0	-91.6	12.2
2025-01-30 17:58:17.794645	108.1	36.3	-92.3	11.1
2025-01-30 17:58:18.954772	107.8	36.5	-92.0	6.4
2025-01-30 17:58:20.118538	107.6	36.7	-91.6	8.2
2025-01-30 17:58:21.288168	107.3	37.0	-92.0	8.8
2025-01-30 17:58:22.447114	107.1	37.2	-92.0	7.0
2025-01-30 17:58:23.603997	106.8	37.4	-92.2	13.2
2025-01-30 17:58:24.768158	106.5	37.7	-92.1	16.7
2025-01-30 17:58:25.935082	106.3	37.9	-92.3	15.3
2025-01-30 17:58:27.100016	106.0	38.1	-92.0	14.8
2025-01-30 17:58:28.256571	105.7	38.4	-92.0	16.0
2025-01-30 17:58:29.419965	105.4	38.6	-91.6	13.8
2025-01-30 17:58:30.580449	105.2	38.9	-91.8	11.3
2025-01-30 17:58:31.742471	104.9	39.1	-92.2	11.2
2025-01-30 17:58:32.903482	104.6	39.3	-92.4	10.5
2025-01-30 17:58:34.060067	104.3	39.6	-92.1	10.6
2025-01-30 17:58:35.218279	104.0	39.8	-91.8	10.9
2025-01-30 17:58:36.386181	103.7	40.1	-92.0	13.0
2025-01-30 17:58:37.549012	103.3	40.3	-92.6	9.4
2025-01-30 17:58:38.718245	103.0	40.5	-92.2	8.6
2025-01-30 17:58:39.883142	102.7	40.8	-92.2	5.5
2025-01-30 17:58:41.046228	102.4	41.0	-92.0	4.8
2025-01-30 17:58:42.210502	102.0	41.3	-92.2	8.9
2025-01-30 17:58:43.368118	101.7	41.5	-92.2	9.4
2025-01-30 17:58:44.538012	101.4	41.8	-92.6	6.2
2025-01-30 17:58:45.696869	101.0	42.0	-92.6	15.4
2025-01-30 17:58:46.864238	100.7	42.3	-92.3	14.4
2025-01-30 17:58:48.024261	100.3	42.5	-91.8	14.3
2025-01-30 17:58:49.191095	99.9	42.8	-91.5	17.4
2025-01-30 17:58:50.347605	99.6	43.0	-91.5	16.0
2025-01-30 17:58:51.511105	99.2	43.3	-91.6	14.8
2025-01-30 17:58:52.676411	98.8	43.5	-92.3	20.4
2025-01-30 17:58:53.849473	98.4	43.8	-92.3	16.3
2025-01-30 17:58:55.017317	98.0	44.0	-92.6	12.8
2025-01-30 17:58:56.178545	97.6	44.3	-92.3	17.5
2025-01-30 17:58:57.344210	97.2	44.5	-92.0	15.1
2025-01-30 17:58:58.507022	96.8	44.8	-92.1	16.4
2025-01-30 17:58:59.672479	96.4	45.0	-91.9	15.4
2025-01-30 17:59:00.834226	95.9	45.3	-92.2	12.3
2025-01-30 17:59:02.008417	95.5	45.5	-92.4	9.9
2025-01-30 17:59:03.171033	95.1	45.8	-92.3	14.4
2025-01-30 17:59:04.337547	94.6	46.0	-92.2	9.4
2025-01-30 17:59:05.495938	94.2	46.3	-92.6	7.2
2025-01-30 17:59:06.658670	93.7	46.5	-92.5	12.6
2025-01-30 17:59:07.825573	93.2	46.8	-92.3	9.6
2025-01-30 17:59:08.992011	92.7	47.0	-92.3	8.5
2025-01-30 17:59:10.157693	92.3	47.3	-92.2	15.3
2025-01-30 17:59:11.339221	91.8	47.5	-92.2	15.1
2025-01-30 17:59:12.497798	91.3	47.7	-92.2	16.3
2025-01-30 17:59:13.653583	90.8	48.0	-92.0	12.2
2025-01-30 17:59:14.812637	90.2	48.2	-92.0	13.6
2025-01-30 17:59:15.979761	89.7	48.5	-91.9	13.7
2025-01-30 17:59:17.145120	89.2	48.7	-92.1	10.0
2025-01-30 17:59:18.310204	88.6	48.9	-92.3	10.3
2025-01-30 17:59:19.468030	88.1	49.2	-92.2	7.8
2025-01-30 17:59:20.627043	87.5	49.4	-92.3	11.3
2025-01-30 17:59:21.787841	87.0	49.6	-92.1	9.3
2025-01-30 17:59:22.947133	86.4	49.9	-92.2	8.7
2025-01-30 17:59:24.102968	85.8	50.1	-92.2	12.4
2025-01-30 17:59:25.274841	85.2	50.3	-92.0	11.2
2025-01-30 17:59:26.441303	84.6	50.5	-92.1	12.8
2025-01-30 17:59:27.603152	84.0	50.8	-92.3	13.9
2025-01-30 17:59:28.764481	83.4	51.0	-92.2	15.5
2025-01-30 17:59:29.925736	82.8	51.2	-91.9	14.0
2025-01-30 17:59:31.093053	82.1	51.4	-91.7	13.8
2025-01-30 17:59:32.254893	81.5	51.6	-91.2	14.7
2025-01-30 17:59:33.410651	80.8	51.8	-91.6	7.0
2025-01-30 17:59:34.570602	80.1	52.0	-92.1	5.8
2025-01-30 17:59:35.730327	79.5	52.2	-92.1	14.6
2025-01-30 17:59:36.892645	78.8	52.4	-92.4	9.9
2025-01-30 17:59:38.056284	78.1	52.6	-92.1	5.1
2025-01-30 17:59:39.219274	77.4	52.8	-92.1	10.1
2025-01-30 17:59:40.400952	76.7	53.0	-91.9	10.1
2025-01-30 17:59:41.568868	75.9	53.2	-92.0	14.2
2025-01-30 17:59:42.733357	75.2	53.4	-92.4	14.2
2025-01-30 17:59:43.892287	74.5	53.5	-92.0	17.8
2025-01-30 17:59:45.059913	73.7	53.7	-92.3	16.6
2025-01-30 17:59:46.222677	73.0	53.9	-92.3	18.1
2025-01-30 17:59:47.385178	72.2	54.0	-92.0	14.3
2025-01-30 17:59:48.545232	71.4	54.2	-91.8	15.5
2025-01-30 17:59:49.706782	70.7	54.4	-92.0	19.1
2025-01-30 17:59:50.872547	69.9	54.5	-91.7	12.7
2025-01-30 17:59:52.036765	69.1	54.6	-92.0	10.5
2025-01-30 17:59:53.196182	68.3	54.8	-91.8	13.4
2025-01-30 17:59:54.362209	67.4	54.9	-91.9	11.7
2025-01-30 17:59:55.525825	66.6	55.0	-92.2	10.8
2025-01-30 17:59:56.690241	65.8	55.2	-92.1	20.5
2025-01-30 17:59:57.852116	65.0	55.3	-91.7	15.5
2025-01-30 17:59:59.015344	64.1	55.4	-92.1	16.3
2025-01-30 18:00:00.180366	63.3	55.5	-91.8	18.3
2025-01-30 18:00:01.344893	62.4	55.6	-91.8	15.9
2025-01-30 18:00:02.508410	61.5	55.7	-91.8	16.1
2025-01-30 18:00:03.665873	60.7	55.7	-92.1	16.7
2025-01-30 18:00:04.828778	59.8	55.8	-92.3	19.0
2025-01-30 18:00:05.992998	58.9	55.9	-92.1	17.8
2025-01-30 18:00:07.157637	58.1	56.0	-91.8	17.6
2025-01-30 18:00:08.318517	57.2	56.0	-91.9	17.3
2025-01-30 18:00:09.479285	56.3	56.1	-92.0	16.8
2025-01-30 18:00:10.643905	55.4	56.1	-92.1	17.0
2025-01-30 18:00:11.807878	54.5	56.1	-91.3	16.4
2025-01-30 18:00:12.963031	53.6	56.2	-91.4	12.8
2025-01-30 18:00:14.125415	52.7	56.2	-90.9	15.8
2025-01-30 18:00:15.288965	51.8	56.2	-90.6	17.4
2025-01-30 18:00:16.450310	50.9	56.2	-91.9	10.6
2025-01-30 18:00:17.619169	50.0	56.2	-91.7	15.3
2025-01-30 18:00:18.778538	49.1	56.2	-92.0	14.6
2025-01-30 18:00:19.943233	48.2	56.2	-92.3	8.2
2025-01-30 18:00:21.105874	47.3	56.2	-92.1	12.1
2025-01-30 18:00:22.266485	46.4	56.2	-92.0	17.5
2025-01-30 18:00:23.430453	45.5	56.1	-92.0	8.5
2025-01-30 18:00:24.595383	44.6	56.1	-91.9	13.4
2025-01-30 18:00:25.764215	43.7	56.1	-91.9	14.8
2025-01-30 18:00:26.928415	42.9	56.0	-92.0	11.1
2025-01-30 18:00:28.091088	42.0	56.0	-92.0	12.2
2025-01-30 18:00:29.257228	41.1	55.9	-91.9	11.7
2025-01-30 18:00:30.416754	40.2	55.8	-92.1	8.8
2025-01-30 18:00:31.583377	39.3	55.7	-92.2	11.5
2025-01-30 18:00:32.743861	38.5	55.7	-92.2	19.2
2025-01-30 18:00:33.904239	37.6	55.6	-92.1	9.8
2025-01-30 18:00:35.073239	36.8	55.5	-92.3	9.9
2025-01-30 18:00:36.238472	35.9	55.4	-92.1	9.0
2025-01-30 18:00:37.399302	35.1	55.3	-91.8	8.7
2025-01-30 18:00:38.569093	34.2	55.1	-92.3	9.6
2025-01-30 18:00:39.730797	33.4	55.0	-92.3	18.1
2025-01-30 18:00:40.897461	32.6	54.9	-92.5	14.9
2025-01-30 18:00:42.057389	31.8	54.8	-92.0	15.0
2025-01-30 18:00:43.217258	31.0	54.6	-92.0	19.8
2025-01-30 18:00:44.384928	30.2	54.5	-91.7	15.2
2025-01-30 18:00:45.550553	29.4	54.3	-91.6	9.4
2025-01-30 18:00:46.719161	28.6	54.2	-91.8	14.9
2025-01-30 18:00:47.883687	27.8	54.0	-91.9	14.5
2025-01-30 18:00:49.046170	27.0	53.9	-92.2	16.1
2025-01-30 18:00:50.210844	26.3	53.7	-92.3	17.7
2025-01-30 18:00:51.375431	25.5	53.5	-92.3	13.4
2025-01-30 18:00:52.542513	24.8	53.4	-92.0	9.3
2025-01-30 18:00:53.696114	24.1	53.2	-92.2	15.4
2025-01-30 18:00:54.864146	23.4	53.0	-92.2	14.7
2025-01-30 18:00:56.024866	22.6	52.8	-92.1	14.4
2025-01-30 18:00:57.183426	21.9	52.6	-92.1	18.5
2025-01-30 18:00:58.348416	21.2	52.4	-91.7	12.7
2025-01-30 18:00:59.506419	20.6	52.2	-92.3	6.7
2025-01-30 18:01:00.664718	19.9	52.0	-91.8	10.0
2025-01-30 18:01:01.833415	19.2	51.8	-92.5	8.5
2025-01-30 18:01:02.999817	18.6	51.6	-92.1	5.2
2025-01-30 18:01:04.163504	17.9	51.4	-92.0	13.6
2025-01-30 18:01:05.324781	17.3	51.2	-92.0	12.4
2025-01-30 18:01:06.488839	16.7	51.0	-92.0	8.8
2025-01-30 18:01:07.661450	16.0	50.7	-92.0	8.7
2025-01-30 18:01:08.829817	15.4	50.5	-92.0	13.5
2025-01-30 18:01:09.995494	14.8	50.3	-92.2	9.4
2025-01-30 18:01:11.160257	14.2	50.1	-91.8	10.3
2025-01-30 18:01:12.312319	13.6	49.8	-92.2	14.9
2025-01-30 18:01:13.478652	13.1	49.6	-92.1	11.4
2025-01-30 18:01:14.632642	12.5	49.4	-92.2	13.6
2025-01-30 18:01:15.797087	11.9	49.2	-92.1	20.5
2025-01-30 18:01:16.959742	11.4	48.9	-91.1	11.1
2025-01-30 18:01:18.125472	10.8	48.7	-91.3	18.1
2025-01-30 18:01:19.290552	10.3	48.4	-91.0	19.9
2025-01-30 18:01:20.452253	9.8	48.2	-92.2	10.6
2025-01-30 18:01:21.620492	9.3	48.0	-92.3	16.8
2025-01-30 18:01:22.779993	8.8	47.7	-92.3	16.7
2025-01-30 18:01:23.944608	8.3	47.5	-92.3	12.5
2025-01-30 18:01:25.104705	7.8	47.2	-92.0	14.6
2025-01-30 18:01:26.272941	7.3	47.0	-92.0	20.0
2025-01-30 18:01:27.433935	6.8	46.7	-92.2	12.6
2025-01-30 18:01:28.593880	6.3	46.5	-92.0	17.8
2025-01-30 18:01:29.758073	5.9	46.2	-92.0	22.3
2025-01-30 18:01:30.928056	5.4	46.0	-92.0	11.1
2025-01-30 18:01:32.093109	5.0	45.7	-91.8	15.6
2025-01-30 18:01:33.261754	4.5	45.5	-91.9	19.3
2025-01-30 18:01:34.407246	4.1	45.3	-92.1	15.2
2025-01-30 18:01:35.572291	3.7	45.0	-92.4	18.7
2025-01-30 18:01:36.738868	3.3	44.8	-92.2	22.2
2025-01-30 18:01:37.902740	2.8	44.5	-92.0	22.5
2025-01-30 18:01:39.069541	2.4	44.3	-91.8	16.7
2025-01-30 18:01:40.226868	2.0	44.0	-91.8	18.8
2025-01-30 18:01:41.380415	1.6	43.8	-91.9	21.1
2025-01-30 18:01:42.540440	1.3	43.5	-92.0	20.5
2025-01-30 18:01:43.700403	0.9	43.3	-92.1	20.3
2025-01-30 18:01:44.855606	0.5	43.0	-92.3	19.6
2025-01-30 18:01:46.014207	0.1	42.8	-92.2	18.0
2025-01-30 18:01:47.174277	359.8	42.5	-92.0	19.5
2025-01-30 18:01:48.333580	359.4	42.3	-91.9	16.9
2025-01-30 18:01:49.497617	359.0	42.0	-92.2	15.3
2025-01-30 18:01:50.653048	358.7	41.8	-92.3	19.2
2025-01-30 18:01:51.820496	358.4	41.5	-92.0	19.8
2025-01-30 18:01:52.981065	358.0	41.3	-92.0	11.0
2025-01-30 18:01:54.143604	357.7	41.0	-91.7	16.0
2025-01-30 18:01:55.307694	357.4	40.8	-92.0	18.8
2025-01-30 18:01:56.474383	357.0	40.5	-92.5	9.4
2025-01-30 18:01:57.631926	356.7	40.3	-91.9	16.6
2025-01-30 18:01:58.792653	356.4	40.1	-92.1	16.6
2025-01-30 18:01:59.960696	356.1	39.8	-92.4	9.1
2025-01-30 18:02:01.122825	355.8	39.6	-92.2	9.4
2025-01-30 18:02:02.291198	355.5	39.3	-91.9	16.4
2025-01-30 18:02:03.454831	355.2	39.1	-91.8	12.6
2025-01-30 18:02:04.618592	354.9	38.8	-92.2	17.6
2025-01-30 18:02:05.784776	354.6	38.6	-92.2	18.2
2025-01-30 18:02:06.946062	354.3	38.4	-92.0	18.0
2025-01-30 18:02:08.110736	354.1	38.1	-91.8	16.5
2025-01-30 18:02:09.273668	353.8	37.9	-91.8	16.9
2025-01-30 18:02:10.437562	353.5	37.7	-92.1	15.6
2025-01-30 18:02:11.611623	353.2	37.4	-92.4	15.5
2025-01-30 18:02:12.772162	353.0	37.2	-92.0	15.4
2025-01-30 18:02:13.930877	352.7	37.0	-92.0	8.4
2025-01-30 18:02:15.099287	352.5	36.7	-92.1	7.8
2025-01-30 18:02:16.263673	352.2	36.5	-92.6	12.4
2025-01-30 18:02:17.431197	352.0	36.3	-92.6	7.5
2025-01-30 18:02:18.593844	351.7	36.0	-92.2	10.2
2025-01-30 18:02:19.759095	351.5	35.8	-92.3	11.2
2025-01-30 18:02:20.923499	351.3	35.6	-92.2	8.3
2025-01-30 18:02:22.088015	351.0	35.3	-92.2	9.8
2025-01-30 18:02:23.250685	350.8	35.1	-92.6	15.1
2025-01-30 18:02:24.409577	350.6	34.9	-92.2	13.6
2025-01-30 18:02:25.578617	350.3	34.7	-92.5	15.6
2025-01-30 18:02:26.739593	350.1	34.5	-92.5	12.9
2025-01-30 18:02:27.903763	349.9	34.2	-92.4	13.0
2025-01-30 18:02:29.067796	349.7	34.0	-92.2	9.6
2025-01-30 18:02:30.229594	349.5	33.8	-92.0	14.5
2025-01-30 18:02:31.396633	349.3	33.6	-91.9	13.5
2025-01-30 18:02:32.558178	349.1	33.4	-92.0	10.4
2025-01-30 18:02:33.717168	348.9	33.1	-92.1	10.6
2025-01-30 18:02:34.872329	348.7	32.9	-92.3	7.5
2025-01-30 18:02:36.046549	348.5	32.7	-92.4	7.0
2025-01-30 18:02:37.210228	348.3	32.5	-92.3	10.0
2025-01-30 18:02:38.372752	348.1	32.3	-92.4	7.4
2025-01-30 18:02:39.530568	347.9	32.1	-91.6	8.6
2025-01-30 18:02:40.689332	347.7	31.9	-91.8	17.6
2025-01-30 18:02:41.854799	347.5	31.7	-91.4	10.7
2025-01-30 18:02:43.012824	347.3	31.5	-92.3	13.3
2025-01-30 18:02:44.176277	347.1	31.3	-92.3	10.1
2025-01-30 18:02:45.335922	347.0	31.1	-92.3	15.7
2025-01-30 18:02:46.502327	346.8	30.9	-92.3	13.3
2025-01-30 18:02:47.660998	346.6	30.7	-92.1	12.8
2025-01-30 18:02:48.828454	346.4	30.5	-91.9	16.4
2025-01-30 18:02:49.990201	346.3	30.3	-92.2	14.6
2025-01-30 18:02:51.153803	346.1	30.1	-92.3	16.2
2025-01-30 18:02:52.323074	345.9	29.9	-92.3	15.4
2025-01-30 18:02:53.481683	345.8	29.7	-92.5	12.3
2025-01-30 18:02:54.642989	345.6	29.5	-92.1	12.5
2025-01-30 18:02:55.813958	345.4	29.3	-92.2	12.1
2025-01-30 18:02:56.977303	345.3	29.1	-92.4	10.8
2025-01-30 18:02:58.141027	345.1	28.9	-92.3	13.6
2025-01-30 18:02:59.307414	345.0	28.7	-92.5	10.5
2025-01-30 18:03:00.464297	344.8	28.5	-92.7	13.3
2025-01-30 18:03:01.622613	344.7	28.3	-92.6	11.5
2025-01-30 18:03:02.781599	344.5	28.1	-92.7	11.3
2025-01-30 18:03:03.948536	344.4	27.9	-92.7	6.9
2025-01-30 18:03:05.109085	344.2	27.8	-92.2	9.0
2025-01-30 18:03:06.267794	344.1	27.6	-92.3	6.5
2025-01-30 18:03:07.432503	344.0	27.4	-92.5	9.5
2025-01-30 18:03:08.592984	343.8	27.2	-92.1	13.9
2025-01-30 18:03:09.759449	343.7	27.0	-92.3	14.0
2025-01-30 18:03:10.921682	343.5	26.8	-92.1	6.4
2025-01-30 18:03:12.084564	343.4	26.7	-92.1	11.0
2025-01-30 18:03:13.251704	343.3	26.5	-92.3	15.1
2025-01-30 18:03:14.409147	343.1	26.3	-92.2	5.6
2025-01-30 18:03:15.580682	343.0	26.1	-92.2	6.2
2025-01-30 18:03:16.743916	342.9	25.9	-92.2	6.5
2025-01-30 18:03:17.911550	342.8	25.8	-92.4	7.2
2025-01-30 18:03:19.069465	342.6	25.6	-92.1	8.0
2025-01-30 18:03:20.233201	342.5	25.4	-92.0	6.6
2025-01-30 18:03:21.394632	342.4	25.3	-91.9	12.6
2025-01-30 18:03:22.562852	342.3	25.1	-92.0	10.7
2025-01-30 18:03:23.726934	342.1	24.9	-92.3	13.5
2025-01-30 18:03:24.882660	342.0	24.7	-92.5	6.3
2025-01-30 18:03:26.046927	341.9	24.6	-92.3	5.6
2025-01-30 18:03:27.220556	341.8	24.4	-92.4	6.8
2025-01-30 18:03:28.383924	341.7	24.2	-92.3	6.3
2025-01-30 18:03:29.548434	341.6	24.1	-92.5	3.7
2025-01-30 18:03:30.722582	341.4	23.9	-92.8	11.6
2025-01-30 18:03:31.888283	341.3	23.7	-93.0	5.9
2025-01-30 18:03:33.047155	341.2	23.6	-92.7	4.5
2025-01-30 18:03:34.205003	341.1	23.4	-92.7	5.8
2025-01-30 18:03:35.363838	341.0	23.3	-92.6	15.6
2025-01-30 18:03:36.532106	340.9	23.1	-92.5	14.7
2025-01-30 18:03:37.694053	340.8	22.9	-92.6	11.4
2025-01-30 18:03:38.862276	340.7	22.8	-92.1	8.8
2025-01-30 18:03:40.023198	340.6	22.6	-92.5	5.5
2025-01-30 18:03:41.190607	340.5	22.5	-92.1	13.8
2025-01-30 18:03:42.354083	340.4	22.3	-92.6	8.0
2025-01-30 18:03:43.518738	340.3	22.2	-91.5	7.3
2025-01-30 18:03:44.682613	340.2	22.0	-91.7	12.5
2025-01-30 18:03:45.848388	340.1	21.8	-91.5	7.0
2025-01-30 18:03:47.016087	340.0	21.7	-91.6	8.7
2025-01-30 18:03:48.177732	339.9	21.5	-92.3	19.7
2025-01-30 18:03:49.345181	339.8	21.4	-92.1	12.3
2025-01-30 18:03:50.506529	339.7	21.2	-92.1	10.6
2025-01-30 18:03:51.672282	339.6	21.1	-92.5	11.7
2025-01-30 18:03:52.836911	339.5	20.9	-92.5	11.7
2025-01-30 18:03:54.001740	339.4	20.8	-92.2	15.8
2025-01-30 18:03:55.160365	339.3	20.6	-92.0	16.0
2025-01-30 18:03:56.320527	339.2	20.5	-92.6	11.2
2025-01-30 18:03:57.484541	339.1	20.4	-92.6	12.4
2025-01-30 18:03:58.648664	339.1	20.2	-92.6	10.0
2025-01-30 18:03:59.812376	339.0	20.1	-92.5	7.1
2025-01-30 18:04:00.975103	338.9	19.9	-92.5	7.7
2025-01-30 18:04:02.140301	338.8	19.8	-92.6	7.7
2025-01-30 18:04:03.303883	338.7	19.6	-92.7	4.7
2025-01-30 18:04:04.462409	338.6	19.5	-92.9	8.0
2025-01-30 18:04:05.641477	338.5	19.4	-92.5	6.4
2025-01-30 18:04:06.805456	338.5	19.2	-92.5	6.5
2025-01-30 18:04:07.970483	338.4	19.1	-92.2	10.8
2025-01-30 18:04:09.131508	338.3	18.9	-92.6	9.3
2025-01-30 18:04:10.293035	338.2	18.8	-92.6	12.9
2025-01-30 18:04:11.454309	338.1	18.7	-92.8	5.2
2025-01-30 18:04:12.618067	338.1	18.5	-92.9	5.7
2025-01-30 18:04:13.785848	338.0	18.4	-92.5	6.2
2025-01-30 18:04:14.944229	337.9	18.3	-92.3	5.7
2025-01-30 18:04:16.112728	337.8	18.1	-92.0	6.4
2025-01-30 18:04:17.275188	337.8	18.0	-92.1	8.0
2025-01-30 18:04:18.442558	337.7	17.9	-92.5	8.1
2025-01-30 18:04:19.605859	337.6	17.7	-92.6	8.7
2025-01-30 18:04:20.771076	337.5	17.6	-92.6	8.7
2025-01-30 18:04:21.938884	337.5	17.5	-92.6	6.7
2025-01-30 18:04:23.103081	337.4	17.3	-92.2	7.4
2025-01-30 18:04:24.271735	337.3	17.2	-92.1	5.2
2025-01-30 18:04:25.434639	337.2	17.1	-92.1	2.9
2025-01-30 18:04:26.594785	337.2	16.9	-92.1	6.0
2025-01-30 18:04:27.759211	337.1	16.8	-92.2	5.4
2025-01-30 18:04:28.922031	337.0	16.7	-92.7	4.9
2025-01-30 18:04:30.085569	337.0	16.6	-92.4	4.4
2025-01-30 18:04:31.245686	336.9	16.4	-92.4	9.5
2025-01-30 18:04:32.410088	336.8	16.3	-92.6	10.0
2025-01-30 18:04:33.570805	336.8	16.2	-92.3	9.3
2025-01-30 18:04:34.729541	336.7	16.1	-92.7	10.0
2025-01-30 18:04:35.889944	336.6	15.9	-92.6	5.9
2025-01-30 18:04:37.056111	336.6	15.8	-92.0	5.5
2025-01-30 18:04:38.225416	336.5	15.7	-92.3	4.5
2025-01-30 18:04:39.384155	336.4	15.6	-92.4	6.6
2025-01-30 18:04:40.547258	336.4	15.5	-92.2	6.5
2025-01-30 18:04:41.717893	336.3	15.3	-92.2	10.0
2025-01-30 18:04:42.881487	336.3	15.2	-92.1	3.2
2025-01-30 18:04:44.047172	336.2	15.1	-92.0	2.7
2025-01-30 18:04:45.208342	336.1	15.0	-91.8	8.5
2025-01-30 18:04:46.377214	336.1	14.9	-92.0	4.5
2025-01-30 18:04:47.536843	336.0	14.7	-91.4	6.8
2025-01-30 18:04:48.701440	336.0	14.6	-91.7	4.2
2025-01-30 18:04:49.868930	335.9	14.5	-91.4	5.6
#Closed at: 2025-01-30 17:55:55.055147