passes_logs/2025/01/30/LEX_Murmansk/LEX_Murmansk__20250130_173356_NOAA_19_rec.log

#Pass ID: 20250130_173356_NOAA 19
#Satellite: NOAA 19
#Configuration: NOAA 19
#Start time: 2025-01-30 17:33:51.385617

#LorettStation: 1.0.0 05.05.2024
#Station: LEX_Murmansk
#Location: 33.156738 lon 68.926811 lat
#TLE: 1 33591U 09005A   25030.15472716  .00000350  00000+0  21086-3 0  9995
#TLE: 2 33591  99.0168  94.0324 0013877  16.1977 343.9635 14.13272478823684

#Time	Az	El	Level	SNR
2025-01-30 17:34:03.542586	146.9	16.3	-91.3	3.0
2025-01-30 17:34:04.704246	146.9	16.5	-92.1	3.0
2025-01-30 17:34:05.862977	146.9	16.6	-91.5	1.2
2025-01-30 17:34:07.020770	146.9	16.7	-91.4	1.7
2025-01-30 17:34:08.176517	146.9	16.9	-91.5	3.7
2025-01-30 17:34:09.342073	146.9	17.0	-91.7	2.2
2025-01-30 17:34:10.501800	146.9	17.1	-91.3	4.3
2025-01-30 17:34:11.660434	146.9	17.3	-91.2	6.0
2025-01-30 17:34:12.819671	146.9	17.4	-91.2	4.0
2025-01-30 17:34:13.977387	146.8	17.5	-91.4	5.4
2025-01-30 17:34:15.136402	146.8	17.7	-91.6	5.3
2025-01-30 17:34:16.295596	146.8	17.8	-91.4	4.0
2025-01-30 17:34:17.448997	146.8	17.9	-91.3	9.4
2025-01-30 17:34:18.608435	146.8	18.1	-91.6	6.9
2025-01-30 17:34:19.768711	146.8	18.2	-91.5	9.6
2025-01-30 17:34:20.933564	146.8	18.4	-91.7	5.2
2025-01-30 17:34:22.096578	146.8	18.5	-91.5	4.6
2025-01-30 17:34:23.256960	146.8	18.6	-91.8	0.4
2025-01-30 17:34:24.419979	146.8	18.8	-92.0	1.6
2025-01-30 17:34:25.583220	146.7	18.9	-91.9	3.2
2025-01-30 17:34:26.739726	146.7	19.1	-92.0	8.9
2025-01-30 17:34:27.898365	146.7	19.2	-92.0	7.7
2025-01-30 17:34:29.065060	146.7	19.4	-92.0	13.0
2025-01-30 17:34:30.228705	146.7	19.5	-91.8	5.9
2025-01-30 17:34:31.382504	146.7	19.7	-92.0	6.6
2025-01-30 17:34:32.545377	146.7	19.8	-92.1	9.4
2025-01-30 17:34:33.721396	146.7	20.0	-91.9	9.2
2025-01-30 17:34:34.886888	146.7	20.1	-92.0	11.7
2025-01-30 17:34:36.052859	146.6	20.3	-92.0	6.7
2025-01-30 17:34:37.216222	146.6	20.4	-91.9	3.9
2025-01-30 17:34:38.378245	146.6	20.6	-92.1	2.4
2025-01-30 17:34:39.544553	146.6	20.7	-91.9	3.1
2025-01-30 17:34:40.706280	146.6	20.9	-92.1	2.5
2025-01-30 17:34:41.875307	146.6	21.0	-91.8	6.4
2025-01-30 17:34:43.041361	146.6	21.2	-92.1	10.8
2025-01-30 17:34:44.204258	146.5	21.4	-91.8	9.9
2025-01-30 17:34:45.363657	146.5	21.5	-91.8	9.3
2025-01-30 17:34:46.527564	146.5	21.7	-92.1	9.8
2025-01-30 17:34:47.697685	146.5	21.8	-92.0	4.3
2025-01-30 17:34:48.862060	146.5	22.0	-91.7	8.9
2025-01-30 17:34:50.023432	146.5	22.2	-91.5	11.7
2025-01-30 17:34:51.186836	146.5	22.3	-91.3	8.5
2025-01-30 17:34:52.349838	146.5	22.5	-91.6	3.8
2025-01-30 17:34:53.508179	146.4	22.7	-91.5	5.2
2025-01-30 17:34:54.665673	146.4	22.8	-91.3	4.2
2025-01-30 17:34:55.831662	146.4	23.0	-91.6	2.6
2025-01-30 17:34:56.991098	146.4	23.2	-91.8	5.8
2025-01-30 17:34:58.154218	146.4	23.3	-92.0	6.3
2025-01-30 17:34:59.317127	146.4	23.5	-91.8	11.6
2025-01-30 17:35:00.473933	146.3	23.7	-92.0	11.1
2025-01-30 17:35:01.636807	146.3	23.9	-91.9	9.2
2025-01-30 17:35:02.805803	146.3	24.0	-91.9	5.6
2025-01-30 17:35:03.966581	146.3	24.2	-92.0	9.2
2025-01-30 17:35:05.139041	146.3	24.4	-92.0	10.2
2025-01-30 17:35:06.298571	146.3	24.6	-91.8	10.9
2025-01-30 17:35:07.459903	146.2	24.8	-91.7	9.1
2025-01-30 17:35:08.611051	146.2	24.9	-91.6	6.5
2025-01-30 17:35:09.738246	146.2	25.1	-91.8	3.8
2025-01-30 17:35:10.858376	146.2	25.3	-91.9	2.7
2025-01-30 17:35:11.979752	146.2	25.5	-91.9	5.9
2025-01-30 17:35:13.100356	146.1	25.7	-91.6	4.9
2025-01-30 17:35:14.220760	146.1	25.8	-91.2	8.0
2025-01-30 17:35:15.341440	146.1	26.0	-90.9	9.4
2025-01-30 17:35:16.462921	146.1	26.2	-91.4	10.4
2025-01-30 17:35:17.583075	146.1	26.4	-91.2	8.6
2025-01-30 17:35:18.704005	146.1	26.6	-91.8	6.4
2025-01-30 17:35:19.833722	146.0	26.8	-92.0	4.0
2025-01-30 17:35:20.979058	146.0	27.0	-91.9	8.4
2025-01-30 17:35:22.135726	146.0	27.2	-91.9	8.2
2025-01-30 17:35:23.290527	146.0	27.4	-92.1	7.2
2025-01-30 17:35:24.451054	145.9	27.6	-92.0	6.0
2025-01-30 17:35:25.601099	145.9	27.8	-92.2	5.0
2025-01-30 17:35:26.759985	145.9	28.0	-92.3	2.8
2025-01-30 17:35:27.920967	145.9	28.2	-92.3	1.6
2025-01-30 17:35:29.083281	145.9	28.4	-91.9	1.1
2025-01-30 17:35:30.244614	145.8	28.6	-92.2	3.5
2025-01-30 17:35:31.407060	145.8	28.8	-92.0	4.9
2025-01-30 17:35:32.567243	145.8	29.0	-92.4	6.2
2025-01-30 17:35:33.723260	145.8	29.2	-92.4	4.1
2025-01-30 17:35:34.879768	145.7	29.4	-92.3	3.4
2025-01-30 17:35:36.041341	145.7	29.6	-92.1	6.8
2025-01-30 17:35:37.199511	145.7	29.9	-92.1	4.2
2025-01-30 17:35:38.357515	145.7	30.1	-92.1	6.6
2025-01-30 17:35:39.519708	145.6	30.3	-92.2	9.0
2025-01-30 17:35:40.677719	145.6	30.5	-92.4	6.0
2025-01-30 17:35:41.835774	145.6	30.7	-92.4	5.1
2025-01-30 17:35:43.006983	145.6	31.0	-92.3	2.1
2025-01-30 17:35:44.166788	145.5	31.2	-92.1	1.6
2025-01-30 17:35:45.329443	145.5	31.4	-92.0	0.9
2025-01-30 17:35:46.594152	145.5	31.7	-91.8	1.7
2025-01-30 17:35:47.751535	145.4	31.9	-92.1	0.3
2025-01-30 17:35:48.913861	145.4	32.1	-92.2	3.4
2025-01-30 17:35:50.073781	145.4	32.4	-92.1	5.5
2025-01-30 17:35:51.232894	145.3	32.6	-91.9	4.7
2025-01-30 17:35:52.395639	145.3	32.9	-92.1	5.0
2025-01-30 17:35:53.555638	145.3	33.1	-92.2	5.3
2025-01-30 17:35:54.718942	145.2	33.3	-92.0	7.0
2025-01-30 17:35:55.875499	145.2	33.6	-91.9	8.9
2025-01-30 17:35:57.034142	145.2	33.8	-92.3	7.9
2025-01-30 17:35:58.185316	145.1	34.1	-92.0	7.5
2025-01-30 17:35:59.347810	145.1	34.3	-91.9	5.5
2025-01-30 17:36:00.503514	145.1	34.6	-92.3	5.6
2025-01-30 17:36:01.670530	145.0	34.8	-92.2	3.9
2025-01-30 17:36:02.828117	145.0	35.1	-91.4	2.0
2025-01-30 17:36:03.987474	145.0	35.4	-91.3	5.6
2025-01-30 17:36:05.153187	144.9	35.6	-91.3	6.9
2025-01-30 17:36:06.316988	144.9	35.9	-91.3	14.1
2025-01-30 17:36:07.476607	144.8	36.2	-91.7	17.3
2025-01-30 17:36:08.634417	144.8	36.4	-91.8	16.0
2025-01-30 17:36:09.796834	144.8	36.7	-91.7	10.4
2025-01-30 17:36:10.955484	144.7	37.0	-91.4	11.9
2025-01-30 17:36:12.123543	144.7	37.2	-91.8	13.1
2025-01-30 17:36:13.283629	144.6	37.5	-91.9	14.3
2025-01-30 17:36:14.451630	144.6	37.8	-92.1	16.3
2025-01-30 17:36:15.611754	144.5	38.1	-92.0	11.1
2025-01-30 17:36:16.776711	144.5	38.4	-92.1	6.5
2025-01-30 17:36:17.939549	144.5	38.7	-92.1	3.5
2025-01-30 17:36:19.102330	144.4	38.9	-92.1	4.4
2025-01-30 17:36:20.268304	144.4	39.2	-92.3	1.7
2025-01-30 17:36:21.433947	144.3	39.5	-92.1	7.0
2025-01-30 17:36:22.594750	144.3	39.8	-92.3	9.9
2025-01-30 17:36:23.758712	144.2	40.1	-92.1	13.0
2025-01-30 17:36:24.926812	144.2	40.4	-92.1	17.4
2025-01-30 17:36:26.083213	144.1	40.7	-92.0	17.1
2025-01-30 17:36:27.247448	144.0	41.0	-91.9	12.9
2025-01-30 17:36:28.408257	144.0	41.3	-91.9	13.7
2025-01-30 17:36:29.576905	143.9	41.7	-92.0	13.9
2025-01-30 17:36:30.738957	143.9	42.0	-92.1	10.0
2025-01-30 17:36:31.895761	143.8	42.3	-91.8	16.0
2025-01-30 17:36:33.059669	143.7	42.6	-92.2	19.0
2025-01-30 17:36:34.221110	143.7	42.9	-92.2	16.9
2025-01-30 17:36:35.386930	143.6	43.3	-92.2	11.4
2025-01-30 17:36:36.524357	143.6	43.6	-92.0	8.3
2025-01-30 17:36:37.645700	143.5	43.9	-92.3	3.5
2025-01-30 17:36:38.766700	143.4	44.2	-91.6	2.2
2025-01-30 17:36:39.886174	143.4	44.5	-91.2	3.8
2025-01-30 17:36:41.006496	143.3	44.9	-91.9	6.6
2025-01-30 17:36:42.126249	143.2	45.2	-91.2	11.7
2025-01-30 17:36:43.246628	143.2	45.5	-91.7	13.1
2025-01-30 17:36:44.367189	143.1	45.9	-91.4	17.6
2025-01-30 17:36:45.487864	143.0	46.2	-92.1	20.3
2025-01-30 17:36:46.612592	142.9	46.5	-92.4	17.3
2025-01-30 17:36:47.749947	142.9	46.9	-92.1	8.4
2025-01-30 17:36:48.919033	142.8	47.3	-91.9	9.4
2025-01-30 17:36:50.070945	142.7	47.6	-91.8	8.0
2025-01-30 17:36:51.234837	142.6	48.0	-91.9	5.9
2025-01-30 17:36:52.382656	142.5	48.3	-92.2	6.9
2025-01-30 17:36:53.543443	142.4	48.7	-92.4	8.5
2025-01-30 17:36:54.709404	142.3	49.1	-92.4	9.7
2025-01-30 17:36:55.871784	142.2	49.5	-92.1	6.5
2025-01-30 17:36:57.028460	142.1	49.8	-92.0	4.9
2025-01-30 17:36:58.181410	142.0	50.2	-92.2	2.1
2025-01-30 17:36:59.314746	141.9	50.6	-91.9	1.7
2025-01-30 17:37:00.456053	141.8	51.0	-92.0	2.2
2025-01-30 17:37:01.609581	141.7	51.4	-92.0	4.9
2025-01-30 17:37:02.758269	141.6	51.8	-91.9	5.1
2025-01-30 17:37:03.907192	141.5	52.1	-92.2	9.2
2025-01-30 17:37:05.066723	141.4	52.5	-92.3	14.8
2025-01-30 17:37:06.214846	141.3	52.9	-92.3	15.8
2025-01-30 17:37:07.376267	141.1	53.4	-92.1	12.4
2025-01-30 17:37:08.526783	141.0	53.8	-91.9	8.9
2025-01-30 17:37:09.693817	140.9	54.2	-92.0	6.3
2025-01-30 17:37:10.852315	140.7	54.6	-92.4	10.1
2025-01-30 17:37:12.022368	140.6	55.0	-92.1	13.0
2025-01-30 17:37:13.180473	140.4	55.4	-92.3	10.1
2025-01-30 17:37:14.345461	140.3	55.9	-92.1	10.4
2025-01-30 17:37:15.508163	140.1	56.3	-92.1	12.0
2025-01-30 17:37:16.665724	140.0	56.7	-92.0	12.3
2025-01-30 17:37:17.822900	139.8	57.2	-91.8	11.5
2025-01-30 17:37:18.989984	139.6	57.6	-91.8	9.3
2025-01-30 17:37:20.158143	139.5	58.0	-91.7	2.9
2025-01-30 17:37:21.322691	139.3	58.5	-91.9	3.4
2025-01-30 17:37:22.487011	139.1	58.9	-92.1	5.1
2025-01-30 17:37:23.653481	138.9	59.4	-92.1	4.8
2025-01-30 17:37:24.817365	138.7	59.8	-91.8	1.4
2025-01-30 17:37:25.984879	138.5	60.3	-91.8	8.9
2025-01-30 17:37:27.147665	138.3	60.8	-91.9	10.4
2025-01-30 17:37:28.308850	138.0	61.2	-92.1	16.9
2025-01-30 17:37:29.466976	137.8	61.7	-91.8	15.9
2025-01-30 17:37:30.627932	137.6	62.1	-91.8	14.5
2025-01-30 17:37:31.787555	137.3	62.6	-91.8	13.5
2025-01-30 17:37:32.958966	137.0	63.1	-91.9	13.6
2025-01-30 17:37:34.123561	136.8	63.6	-91.8	11.9
2025-01-30 17:37:35.290344	136.5	64.0	-91.7	6.8
2025-01-30 17:37:36.457155	136.2	64.5	-91.9	6.0
2025-01-30 17:37:37.615318	135.9	65.0	-91.9	7.5
2025-01-30 17:37:38.777789	135.5	65.5	-91.9	7.3
2025-01-30 17:37:39.941447	135.2	66.0	-91.9	14.3
2025-01-30 17:37:41.109239	134.8	66.5	-91.8	16.5
2025-01-30 17:37:42.273371	134.5	67.0	-92.0	15.1
2025-01-30 17:37:43.438608	134.1	67.5	-91.9	14.2
2025-01-30 17:37:44.603461	133.7	68.0	-91.7	14.5
2025-01-30 17:37:45.766672	133.2	68.5	-91.2	9.7
2025-01-30 17:37:46.934661	132.8	69.0	-91.3	11.2
2025-01-30 17:37:48.093984	132.3	69.5	-91.2	10.4
2025-01-30 17:37:49.255998	131.8	70.0	-91.4	3.8
2025-01-30 17:37:50.418644	131.3	70.5	-91.6	6.5
2025-01-30 17:37:51.582189	130.7	71.0	-91.4	6.4
2025-01-30 17:37:52.746461	130.1	71.5	-91.3	4.3
2025-01-30 17:37:53.910866	129.5	72.0	-91.4	8.8
2025-01-30 17:37:55.078693	128.8	72.5	-91.3	10.3
2025-01-30 17:37:56.242529	128.1	73.0	-91.2	9.3
2025-01-30 17:37:57.409297	127.3	73.5	-91.9	15.5
2025-01-30 17:37:58.564787	126.5	74.0	-91.8	18.0
2025-01-30 17:37:59.724365	125.6	74.5	-91.6	19.4
2025-01-30 17:38:00.880546	124.7	75.0	-92.1	20.3
2025-01-30 17:38:02.043001	123.7	75.5	-92.2	18.0
2025-01-30 17:38:03.207686	122.7	76.0	-92.2	17.0
2025-01-30 17:38:04.375854	121.5	76.5	-92.0	17.7
2025-01-30 17:38:05.539236	120.3	77.0	-91.7	16.6
2025-01-30 17:38:06.696283	119.0	77.4	-91.4	8.3
2025-01-30 17:38:07.855323	117.5	77.9	-91.6	10.5
2025-01-30 17:38:09.015084	116.0	78.4	-91.5	11.8
2025-01-30 17:38:10.176554	114.3	78.9	-91.6	8.0
2025-01-30 17:38:11.338341	112.4	79.3	-91.5	7.8
2025-01-30 17:38:12.497428	110.4	79.7	-91.6	11.6
2025-01-30 17:38:13.664386	108.2	80.2	-91.5	9.6
2025-01-30 17:38:14.819809	105.9	80.6	-91.6	10.2
2025-01-30 17:38:15.977690	103.3	81.0	-91.5	14.6
2025-01-30 17:38:17.142768	100.4	81.4	-91.6	16.9
2025-01-30 17:38:18.303832	97.3	81.7	-91.4	19.0
2025-01-30 17:38:19.465823	93.9	82.1	-91.3	19.8
2025-01-30 17:38:20.626257	90.3	82.4	-91.4	19.7
2025-01-30 17:38:21.789712	86.3	82.6	-91.3	20.1
2025-01-30 17:38:22.954387	82.1	82.9	-91.4	22.1
2025-01-30 17:38:24.112025	77.7	83.0	-91.9	21.7
2025-01-30 17:38:25.290279	72.9	83.2	-91.9	21.1
2025-01-30 17:38:26.456209	68.0	83.3	-91.3	20.6
2025-01-30 17:38:27.619758	63.0	83.3	-91.3	18.6
2025-01-30 17:38:28.778466	58.0	83.3	-91.5	17.2
2025-01-30 17:38:29.941872	53.0	83.3	-91.2	17.3
2025-01-30 17:38:31.105572	48.1	83.2	-91.0	16.5
2025-01-30 17:38:32.266798	43.4	83.0	-91.0	14.6
2025-01-30 17:38:33.428919	39.0	82.8	-91.2	14.8
2025-01-30 17:38:34.589946	34.8	82.6	-91.4	13.4
2025-01-30 17:38:35.755752	30.8	82.3	-91.4	9.9
2025-01-30 17:38:36.916973	27.2	82.0	-91.4	12.9
2025-01-30 17:38:38.075233	23.9	81.7	-91.0	10.5
2025-01-30 17:38:39.235380	20.8	81.3	-91.0	8.7
2025-01-30 17:38:40.395621	18.0	81.0	-91.1	10.4
2025-01-30 17:38:41.560945	15.4	80.6	-91.1	8.3
2025-01-30 17:38:42.729776	13.0	80.1	-91.0	5.3
2025-01-30 17:38:43.889702	10.8	79.7	-91.4	8.5
2025-01-30 17:38:45.049289	8.8	79.3	-91.1	7.8
2025-01-30 17:38:46.214404	7.0	78.8	-90.7	5.0
2025-01-30 17:38:47.375435	5.3	78.4	-90.7	7.4
2025-01-30 17:38:48.532158	3.8	77.9	-91.2	7.1
2025-01-30 17:38:49.699643	2.3	77.4	-91.5	5.8
2025-01-30 17:38:50.859732	1.0	76.9	-91.6	7.7
2025-01-30 17:38:52.024328	359.8	76.4	-91.5	7.4
2025-01-30 17:38:53.193570	358.7	75.9	-91.2	3.3
2025-01-30 17:38:54.352919	357.6	75.5	-91.4	4.7
2025-01-30 17:38:55.518515	356.6	75.0	-91.4	4.7
2025-01-30 17:38:56.677589	355.7	74.5	-91.3	4.7
2025-01-30 17:38:57.844620	354.8	74.0	-91.3	3.8
2025-01-30 17:38:59.002477	354.0	73.5	-91.5	5.5
2025-01-30 17:39:00.153432	353.3	73.0	-91.3	4.7
2025-01-30 17:39:01.314166	352.6	72.5	-91.3	4.3
2025-01-30 17:39:02.473087	351.9	72.0	-91.4	8.2
2025-01-30 17:39:03.637285	351.3	71.5	-91.5	4.3
2025-01-30 17:39:04.810923	350.7	70.9	-91.5	4.1
2025-01-30 17:39:05.975067	350.1	70.4	-91.6	7.4
2025-01-30 17:39:07.140485	349.6	69.9	-91.4	5.5
2025-01-30 17:39:08.301216	349.1	69.4	-91.4	4.4
2025-01-30 17:39:09.465834	348.6	68.9	-91.3	6.9
2025-01-30 17:39:10.624651	348.2	68.4	-91.5	8.8
2025-01-30 17:39:11.788848	347.7	68.0	-91.5	3.8
2025-01-30 17:39:12.952150	347.3	67.5	-91.3	8.5
2025-01-30 17:39:14.113727	346.9	67.0	-90.5	11.4
2025-01-30 17:39:15.275815	346.6	66.5	-90.9	6.6
2025-01-30 17:39:16.437272	346.2	66.0	-91.3	6.3
2025-01-30 17:39:17.594254	345.9	65.5	-91.5	7.1
2025-01-30 17:39:18.751776	345.6	65.0	-91.0	7.1
2025-01-30 17:39:19.912403	345.2	64.5	-91.3	9.0
2025-01-30 17:39:21.074414	345.0	64.1	-91.4	12.4
2025-01-30 17:39:22.240221	344.7	63.6	-91.5	11.5
2025-01-30 17:39:23.410741	344.4	63.1	-91.4	14.8
2025-01-30 17:39:24.570096	344.1	62.6	-91.4	12.9
2025-01-30 17:39:25.729391	343.9	62.2	-91.6	13.4
2025-01-30 17:39:26.893255	343.6	61.7	-91.6	15.8
2025-01-30 17:39:28.057339	343.4	61.2	-91.3	13.9
2025-01-30 17:39:29.218898	343.2	60.8	-91.2	15.7
2025-01-30 17:39:30.378157	343.0	60.3	-91.3	15.9
2025-01-30 17:39:31.545421	342.7	59.9	-91.3	14.1
2025-01-30 17:39:32.707065	342.5	59.4	-91.9	14.7
2025-01-30 17:39:33.870157	342.3	59.0	-91.8	11.2
2025-01-30 17:39:35.030749	342.2	58.5	-91.7	14.6
2025-01-30 17:39:36.190384	342.0	58.1	-92.0	13.8
2025-01-30 17:39:37.345550	341.8	57.6	-91.9	15.8
2025-01-30 17:39:38.502881	341.6	57.2	-92.1	9.8
2025-01-30 17:39:39.667775	341.5	56.8	-91.9	7.3
2025-01-30 17:39:40.835236	341.3	56.3	-92.0	12.2
2025-01-30 17:39:41.999567	341.1	55.9	-91.9	10.3
2025-01-30 17:39:43.160769	341.0	55.5	-91.7	7.8
2025-01-30 17:39:44.324787	340.9	55.1	-91.7	5.9
2025-01-30 17:39:45.484430	340.7	54.7	-91.7	5.4
2025-01-30 17:39:46.650996	340.6	54.2	-91.7	6.0
2025-01-30 17:39:47.812466	340.4	53.8	-92.0	4.2
2025-01-30 17:39:48.969173	340.3	53.4	-92.0	6.5
2025-01-30 17:39:50.129858	340.2	53.0	-92.0	7.3
2025-01-30 17:39:51.291875	340.1	52.6	-92.0	5.7
2025-01-30 17:39:52.448666	340.0	52.2	-91.9	6.7
2025-01-30 17:39:53.609383	339.8	51.8	-92.1	10.2
2025-01-30 17:39:54.766632	339.7	51.4	-91.9	8.5
2025-01-30 17:39:55.931912	339.6	51.0	-92.0	9.7
2025-01-30 17:39:57.096315	339.5	50.7	-91.7	13.7
2025-01-30 17:39:58.254151	339.4	50.3	-91.6	11.3
2025-01-30 17:39:59.420466	339.3	49.9	-91.5	13.7
2025-01-30 17:40:00.578583	339.2	49.5	-92.0	11.9
2025-01-30 17:40:01.743883	339.1	49.1	-92.1	9.5
2025-01-30 17:40:02.905593	339.0	48.8	-92.0	15.1
2025-01-30 17:40:04.071820	338.9	48.4	-91.9	13.9
2025-01-30 17:40:05.231331	338.8	48.0	-91.7	9.3
2025-01-30 17:40:06.397330	338.8	47.7	-91.9	8.9
2025-01-30 17:40:07.554397	338.7	47.3	-91.8	10.5
2025-01-30 17:40:08.720091	338.6	47.0	-91.9	11.7
2025-01-30 17:40:09.885370	338.5	46.6	-92.0	7.7
2025-01-30 17:40:11.045561	338.4	46.3	-91.9	6.0
2025-01-30 17:40:12.203128	338.4	45.9	-91.7	6.2
2025-01-30 17:40:13.367397	338.3	45.6	-91.7	9.1
2025-01-30 17:40:14.532422	338.2	45.2	-91.7	10.0
2025-01-30 17:40:15.692306	338.1	44.9	-91.7	6.8
2025-01-30 17:40:16.863142	338.1	44.5	-91.6	13.6
2025-01-30 17:40:18.022640	338.0	44.2	-91.4	16.9
2025-01-30 17:40:19.182301	337.9	43.9	-91.5	17.6
2025-01-30 17:40:20.341905	337.9	43.6	-91.8	15.1
2025-01-30 17:40:21.507438	337.8	43.2	-91.9	12.7
2025-01-30 17:40:22.670105	337.7	42.9	-92.0	13.1
2025-01-30 17:40:23.831894	337.7	42.6	-91.8	16.7
2025-01-30 17:40:24.995200	337.6	42.3	-91.8	18.7
2025-01-30 17:40:26.155955	337.6	42.0	-92.0	16.3
2025-01-30 17:40:27.320191	337.5	41.6	-91.4	12.7
2025-01-30 17:40:28.478408	337.4	41.3	-91.8	11.4
2025-01-30 17:40:29.641338	337.4	41.0	-91.9	10.6
2025-01-30 17:40:30.802459	337.3	40.7	-91.9	5.1
2025-01-30 17:40:31.976390	337.3	40.4	-92.0	8.2
2025-01-30 17:40:33.140795	337.2	40.1	-91.9	6.4
2025-01-30 17:40:34.299082	337.2	39.8	-91.7	4.9
2025-01-30 17:40:35.453640	337.1	39.5	-91.8	11.8
2025-01-30 17:40:36.614211	337.1	39.2	-91.8	11.1
2025-01-30 17:40:37.776367	337.0	39.0	-91.6	13.0
2025-01-30 17:40:38.934756	337.0	38.7	-91.0	11.9
2025-01-30 17:40:40.093211	336.9	38.4	-91.0	11.8
2025-01-30 17:40:41.249881	336.9	38.1	-91.9	10.9
2025-01-30 17:40:42.412641	336.8	37.8	-91.9	12.5
2025-01-30 17:40:43.572506	336.8	37.5	-91.7	8.0
2025-01-30 17:40:44.745752	336.8	37.3	-92.0	10.1
2025-01-30 17:40:45.902911	336.7	37.0	-91.8	8.8
2025-01-30 17:40:47.075983	336.7	36.7	-91.7	9.4
2025-01-30 17:40:48.232875	336.6	36.5	-91.6	4.4
2025-01-30 17:40:49.404185	336.6	36.2	-91.7	6.2
2025-01-30 17:40:50.560260	336.6	35.9	-91.8	6.0
2025-01-30 17:40:51.732223	336.5	35.7	-91.8	4.9
2025-01-30 17:40:52.900846	336.5	35.4	-91.8	6.4
2025-01-30 17:40:54.061304	336.4	35.1	-91.5	10.9
2025-01-30 17:40:55.224331	336.4	34.9	-91.6	11.7
2025-01-30 17:40:56.385550	336.4	34.6	-91.4	12.9
2025-01-30 17:40:57.551554	336.3	34.4	-91.7	8.5
2025-01-30 17:40:58.688150	336.3	34.1	-91.9	14.2
2025-01-30 17:40:59.833295	336.3	33.9	-91.6	11.4
2025-01-30 17:41:00.991463	336.2	33.6	-91.9	2.4
2025-01-30 17:41:02.156863	336.2	33.4	-91.8	7.1
2025-01-30 17:41:03.315542	336.2	33.2	-91.5	4.0
2025-01-30 17:41:04.486394	336.1	32.9	-91.9	4.2
2025-01-30 17:41:05.650248	336.1	32.7	-91.9	2.2
2025-01-30 17:41:06.813684	336.1	32.4	-91.8	5.5
2025-01-30 17:41:07.972415	336.0	32.2	-91.8	4.6
2025-01-30 17:41:09.130349	336.0	32.0	-92.0	2.3
2025-01-30 17:41:10.296394	336.0	31.7	-91.9	4.0
2025-01-30 17:41:11.460977	336.0	31.5	-92.1	10.6
2025-01-30 17:41:12.627483	335.9	31.3	-92.1	12.4
2025-01-30 17:41:13.780247	335.9	31.1	-92.2	11.1
2025-01-30 17:41:14.937223	335.9	30.8	-92.2	5.1
2025-01-30 17:41:16.097007	335.8	30.6	-92.0	12.1
2025-01-30 17:41:17.262358	335.8	30.4	-92.0	7.8
2025-01-30 17:41:18.423076	335.8	30.2	-91.7	6.6
2025-01-30 17:41:19.584896	335.8	30.0	-91.4	1.7
2025-01-30 17:41:20.742166	335.7	29.7	-91.6	1.7
2025-01-30 17:41:21.902060	335.7	29.5	-91.6	3.2
2025-01-30 17:41:23.056620	335.7	29.3	-91.6	5.8
2025-01-30 17:41:24.217676	335.7	29.1	-91.5	6.8
2025-01-30 17:41:25.376233	335.6	28.9	-91.6	5.4
2025-01-30 17:41:26.542053	335.6	28.7	-91.8	7.7
2025-01-30 17:41:27.700946	335.6	28.5	-91.9	7.0
2025-01-30 17:41:28.862860	335.6	28.3	-92.1	11.0
2025-01-30 17:41:30.031691	335.6	28.1	-92.1	1.2
2025-01-30 17:41:31.187715	335.5	27.9	-92.1	7.5
2025-01-30 17:41:32.355826	335.5	27.7	-92.0	5.4
2025-01-30 17:41:33.501221	335.5	27.5	-92.4	3.9
2025-01-30 17:41:34.647629	335.5	27.3	-91.8	4.8
2025-01-30 17:41:35.807749	335.5	27.1	-92.0	3.1
2025-01-30 17:41:36.962853	335.4	26.9	-92.1	4.6
2025-01-30 17:41:38.126499	335.4	26.7	-91.9	4.8
2025-01-30 17:41:39.289573	335.4	26.5	-91.9	2.9
2025-01-30 17:41:40.453932	335.4	26.3	-91.8	9.0
2025-01-30 17:41:41.616634	335.4	26.1	-92.2	4.5
2025-01-30 17:41:42.780484	335.3	25.9	-92.1	10.1
2025-01-30 17:41:43.944813	335.3	25.8	-92.0	13.5
2025-01-30 17:41:45.108548	335.3	25.6	-91.8	6.8
2025-01-30 17:41:46.267410	335.3	25.4	-91.6	12.0
2025-01-30 17:41:47.423338	335.3	25.2	-91.8	9.2
2025-01-30 17:41:48.587509	335.2	25.0	-91.8	7.7
2025-01-30 17:41:49.753416	335.2	24.8	-91.9	2.5
2025-01-30 17:41:50.908367	335.2	24.7	-92.0	4.1
2025-01-30 17:41:52.068360	335.2	24.5	-92.0	6.6
2025-01-30 17:41:53.229563	335.2	24.3	-91.8	2.4
2025-01-30 17:41:54.394619	335.2	24.1	-91.5	3.0
2025-01-30 17:41:55.559311	335.1	24.0	-92.2	8.1
2025-01-30 17:41:56.723422	335.1	23.8	-92.3	5.4
2025-01-30 17:41:57.882448	335.1	23.6	-92.3	2.8
2025-01-30 17:41:59.037928	335.1	23.4	-91.7	7.2
2025-01-30 17:42:00.199110	335.1	23.3	-91.7	8.3
2025-01-30 17:42:01.353938	335.1	23.1	-92.1	2.4
2025-01-30 17:42:02.515283	335.1	22.9	-92.0	3.8
2025-01-30 17:42:03.672856	335.0	22.8	-92.0	2.7
2025-01-30 17:42:04.833137	335.0	22.6	-91.8	1.9
2025-01-30 17:42:05.996770	335.0	22.4	-92.3	3.7
2025-01-30 17:42:07.159120	335.0	22.3	-91.9	1.2
2025-01-30 17:42:08.321893	335.0	22.1	-92.1	1.5
2025-01-30 17:42:09.481481	335.0	22.0	-91.9	6.9
2025-01-30 17:42:10.645998	335.0	21.8	-91.9	7.5
2025-01-30 17:42:11.807541	334.9	21.6	-91.8	9.1
2025-01-30 17:42:12.965297	334.9	21.5	-91.9	8.2
2025-01-30 17:42:14.130353	334.9	21.3	-91.7	5.2
2025-01-30 17:42:15.287638	334.9	21.2	-91.9	3.0
2025-01-30 17:42:16.559119	334.9	21.0	-92.1	1.7
2025-01-30 17:42:17.723249	334.9	20.8	-91.8	3.0
2025-01-30 17:42:18.897702	334.9	20.7	-92.2	3.7
2025-01-30 17:42:20.062514	334.9	20.5	-91.9	3.4
2025-01-30 17:42:21.227104	334.8	20.4	-92.0	4.7
2025-01-30 17:42:22.394365	334.8	20.2	-92.4	6.9
2025-01-30 17:42:23.558642	334.8	20.1	-92.2	4.8
2025-01-30 17:42:24.729283	334.8	19.9	-92.1	3.2
2025-01-30 17:42:25.892347	334.8	19.8	-92.0	3.3
2025-01-30 17:42:27.053703	334.8	19.6	-91.8	1.9
2025-01-30 17:42:28.215127	334.8	19.5	-92.0	1.8
2025-01-30 17:42:29.374988	334.8	19.3	-92.0	2.3
2025-01-30 17:42:30.536775	334.8	19.2	-92.2	1.3
2025-01-30 17:42:31.696876	334.7	19.1	-92.0	2.4
2025-01-30 17:42:32.859137	334.7	18.9	-92.0	4.8
2025-01-30 17:42:34.022021	334.7	18.8	-92.1	2.2
2025-01-30 17:42:35.190495	334.7	18.6	-92.0	4.1
2025-01-30 17:42:36.356371	334.7	18.5	-91.9	3.9
2025-01-30 17:42:37.518532	334.7	18.3	-91.9	3.8
2025-01-30 17:42:38.687786	334.7	18.2	-92.1	2.8
2025-01-30 17:42:39.843813	334.7	18.1	-92.3	2.9
2025-01-30 17:42:41.001790	334.7	17.9	-92.5	2.7
2025-01-30 17:42:42.163225	334.7	17.8	-92.3	3.1
2025-01-30 17:42:43.326332	334.6	17.7	-92.3	2.5
2025-01-30 17:42:44.481918	334.6	17.5	-92.3	1.3
2025-01-30 17:42:45.630549	334.6	17.4	-92.4	1.7
2025-01-30 17:42:46.755652	334.6	17.3	-92.1	0.4
2025-01-30 17:42:47.875400	334.6	17.1	-92.3	1.6
2025-01-30 17:42:48.995316	334.6	17.0	-92.3	2.8
2025-01-30 17:42:50.116022	334.6	16.9	-91.8	3.5
2025-01-30 17:42:51.236259	334.6	16.8	-91.9	0.8
2025-01-30 17:42:52.357572	334.6	16.6	-92.0	4.2
2025-01-30 17:42:53.477314	334.6	16.5	-91.8	0.2
2025-01-30 17:42:54.598179	334.6	16.4	-92.1	3.7
2025-01-30 17:42:55.718141	334.6	16.3	-92.1	3.2
2025-01-30 17:42:56.838882	334.5	16.1	-92.1	2.1
2025-01-30 17:42:57.995168	334.5	16.0	-92.2	1.7
2025-01-30 17:42:59.152166	334.5	15.9	-92.2	2.0
2025-01-30 17:43:00.307656	334.5	15.8	-92.2	0.9
2025-01-30 17:43:01.455985	334.5	15.6	-92.2	2.8
2025-01-30 17:43:02.616248	334.5	15.5	-92.4	0.7
2025-01-30 17:43:03.778441	334.5	15.4	-92.3	1.4
2025-01-30 17:43:04.939505	334.5	15.3	-92.3	1.7
2025-01-30 17:43:06.097444	334.5	15.1	-92.4	2.9
2025-01-30 17:43:07.259260	334.5	15.0	-92.4	2.6
2025-01-30 17:43:08.415584	334.5	14.9	-92.2	3.0
2025-01-30 17:43:09.570752	334.5	14.8	-92.6	3.8
2025-01-30 17:43:10.728693	334.5	14.6	-92.4	1.7
2025-01-30 17:43:11.891429	334.5	14.5	-92.5	1.5
2025-01-30 17:43:13.051324	334.4	14.4	-92.2	3.6
#Closed at: 2025-01-30 17:33:56.329452