passes_logs/2025/01/30/LEX_Murmansk/LEX_Murmansk__20250130_091442_NOAA_19_rec.log

#Pass ID: 20250130_091442_NOAA 19
#Satellite: NOAA 19
#Configuration: NOAA 19
#Start time: 2025-01-30 09:14:37.484735

#LorettStation: 1.0.0 05.05.2024
#Station: LEX_Murmansk
#Location: 33.156738 lon 68.926811 lat
#TLE: 1 33591U 09005A   25029.16356990  .00000402  00000+0  23831-3 0  9997
#TLE: 2 33591  99.0170  93.0339 0013919  18.9524 341.2163 14.13271889823544

#Time	Az	El	Level	SNR
2025-01-30 09:14:49.721101	25.1	16.3	-90.8	3.2
2025-01-30 09:14:50.865972	25.1	16.4	-91.0	2.9
2025-01-30 09:14:52.021430	25.1	16.6	-90.7	2.5
2025-01-30 09:14:53.178011	25.0	16.7	-90.9	3.1
2025-01-30 09:14:54.334761	25.0	16.8	-90.6	2.4
2025-01-30 09:14:55.485651	25.0	17.0	-90.9	2.3
2025-01-30 09:14:56.647651	25.0	17.1	-90.9	3.1
2025-01-30 09:14:57.791779	25.0	17.2	-90.6	1.8
2025-01-30 09:14:58.948387	24.9	17.4	-91.0	3.6
2025-01-30 09:15:00.202068	24.9	17.5	-91.0	1.6
2025-01-30 09:15:01.351609	24.9	17.6	-91.0	3.4
2025-01-30 09:15:02.510454	24.9	17.8	-90.9	2.0
2025-01-30 09:15:03.667283	24.9	17.9	-91.1	3.5
2025-01-30 09:15:04.822997	24.8	18.1	-90.9	5.0
2025-01-30 09:15:05.977708	24.8	18.2	-90.9	5.2
2025-01-30 09:15:07.130792	24.8	18.3	-90.8	5.5
2025-01-30 09:15:08.276349	24.8	18.5	-91.0	3.8
2025-01-30 09:15:09.441956	24.8	18.6	-91.2	5.3
2025-01-30 09:15:10.593685	24.7	18.7	-90.9	5.9
2025-01-30 09:15:11.753079	24.7	18.9	-91.1	6.9
2025-01-30 09:15:12.913367	24.7	19.0	-91.2	7.8
2025-01-30 09:15:14.061265	24.7	19.2	-90.9	4.8
2025-01-30 09:15:15.214696	24.7	19.3	-91.2	1.2
2025-01-30 09:15:16.368373	24.6	19.5	-90.9	2.1
2025-01-30 09:15:17.518304	24.6	19.6	-91.0	1.5
2025-01-30 09:15:18.682615	24.6	19.8	-91.2	3.2
2025-01-30 09:15:19.839008	24.6	19.9	-91.0	4.8
2025-01-30 09:15:20.987517	24.5	20.0	-91.4	8.7
2025-01-30 09:15:22.132920	24.5	20.2	-91.1	7.7
2025-01-30 09:15:23.283575	24.5	20.3	-90.9	7.9
2025-01-30 09:15:24.434009	24.5	20.5	-91.2	5.6
2025-01-30 09:15:25.587516	24.4	20.6	-90.7	7.6
2025-01-30 09:15:26.740616	24.4	20.8	-90.9	7.7
2025-01-30 09:15:27.896427	24.4	21.0	-91.2	9.7
2025-01-30 09:15:29.050545	24.4	21.1	-91.0	7.9
2025-01-30 09:15:30.197655	24.3	21.3	-91.2	6.2
2025-01-30 09:15:31.351373	24.3	21.4	-91.0	2.7
2025-01-30 09:15:32.496439	24.3	21.6	-91.1	3.2
2025-01-30 09:15:33.645232	24.3	21.7	-91.3	5.0
2025-01-30 09:15:34.798774	24.2	21.9	-91.3	4.1
2025-01-30 09:15:35.945637	24.2	22.0	-90.9	7.6
2025-01-30 09:15:37.092707	24.2	22.2	-91.0	9.9
2025-01-30 09:15:38.249784	24.2	22.4	-91.1	9.5
2025-01-30 09:15:39.404139	24.1	22.5	-91.1	9.5
2025-01-30 09:15:40.556363	24.1	22.7	-91.4	8.0
2025-01-30 09:15:41.710187	24.1	22.9	-91.4	5.8
2025-01-30 09:15:42.858700	24.0	23.0	-91.0	7.8
2025-01-30 09:15:44.013847	24.0	23.2	-90.9	11.2
2025-01-30 09:15:45.177436	24.0	23.4	-90.9	10.6
2025-01-30 09:15:46.340215	23.9	23.5	-91.4	7.4
2025-01-30 09:15:47.487836	23.9	23.7	-91.0	4.6
2025-01-30 09:15:48.643579	23.9	23.9	-91.3	3.1
2025-01-30 09:15:49.801672	23.9	24.0	-91.1	3.9
2025-01-30 09:15:50.959359	23.8	24.2	-90.9	3.8
2025-01-30 09:15:52.113245	23.8	24.4	-91.2	6.1
2025-01-30 09:15:53.268376	23.8	24.6	-90.9	12.1
2025-01-30 09:15:54.421979	23.7	24.7	-91.2	12.7
2025-01-30 09:15:55.568882	23.7	24.9	-90.7	11.6
2025-01-30 09:15:56.723632	23.7	25.1	-90.9	6.2
2025-01-30 09:15:57.872478	23.6	25.3	-90.7	6.5
2025-01-30 09:15:59.020212	23.6	25.5	-90.9	9.4
2025-01-30 09:16:00.163420	23.5	25.6	-90.9	9.1
2025-01-30 09:16:01.303397	23.5	25.8	-90.9	9.9
2025-01-30 09:16:02.451298	23.5	26.0	-90.7	7.3
2025-01-30 09:16:03.605935	23.4	26.2	-90.7	4.9
2025-01-30 09:16:04.863394	23.4	26.4	-90.5	2.5
2025-01-30 09:16:06.015417	23.4	26.6	-91.0	2.3
2025-01-30 09:16:07.163891	23.3	26.8	-90.8	4.5
2025-01-30 09:16:08.312091	23.3	27.0	-90.7	3.6
2025-01-30 09:16:09.475787	23.2	27.2	-89.8	6.1
2025-01-30 09:16:10.629150	23.2	27.4	-90.1	5.6
2025-01-30 09:16:11.780880	23.2	27.6	-90.2	5.5
2025-01-30 09:16:12.936356	23.1	27.8	-90.1	3.5
2025-01-30 09:16:14.086225	23.1	27.9	-90.4	4.4
2025-01-30 09:16:15.237471	23.0	28.1	-91.1	6.7
2025-01-30 09:16:16.385142	23.0	28.3	-90.9	7.6
2025-01-30 09:16:17.532807	23.0	28.6	-91.0	8.1
2025-01-30 09:16:18.683386	22.9	28.8	-90.9	8.9
2025-01-30 09:16:19.835732	22.9	29.0	-90.8	5.9
2025-01-30 09:16:20.996438	22.8	29.2	-90.5	3.0
2025-01-30 09:16:22.149349	22.8	29.4	-90.4	4.8
2025-01-30 09:16:23.303673	22.7	29.6	-90.5	1.2
2025-01-30 09:16:24.456007	22.7	29.8	-91.1	3.3
2025-01-30 09:16:25.612893	22.6	30.0	-90.9	5.5
2025-01-30 09:16:26.760937	22.6	30.2	-90.9	7.7
2025-01-30 09:16:27.914338	22.5	30.4	-90.9	8.8
2025-01-30 09:16:29.072959	22.5	30.7	-90.3	8.8
2025-01-30 09:16:30.230005	22.4	30.9	-90.3	3.8
2025-01-30 09:16:31.385519	22.4	31.1	-90.1	5.0
2025-01-30 09:16:32.537246	22.3	31.3	-90.4	6.1
2025-01-30 09:16:33.691357	22.3	31.6	-90.2	6.3
2025-01-30 09:16:34.846153	22.2	31.8	-90.4	8.1
2025-01-30 09:16:35.993666	22.2	32.0	-90.4	5.1
2025-01-30 09:16:37.151828	22.1	32.2	-90.0	4.4
2025-01-30 09:16:38.305907	22.1	32.5	-91.0	2.8
2025-01-30 09:16:39.460077	22.0	32.7	-91.0	2.2
2025-01-30 09:16:40.620665	21.9	32.9	-90.9	3.2
2025-01-30 09:16:41.780049	21.9	33.2	-91.2	4.3
2025-01-30 09:16:42.929941	21.8	33.4	-91.2	8.1
2025-01-30 09:16:44.080801	21.8	33.7	-91.2	10.5
2025-01-30 09:16:45.236091	21.7	33.9	-91.1	10.4
2025-01-30 09:16:46.389564	21.6	34.1	-91.2	9.6
2025-01-30 09:16:47.542388	21.6	34.4	-90.9	7.4
2025-01-30 09:16:48.696174	21.5	34.6	-90.8	6.2
2025-01-30 09:16:49.847509	21.4	34.9	-90.9	5.0
2025-01-30 09:16:50.998693	21.4	35.1	-91.2	11.1
2025-01-30 09:16:52.154221	21.3	35.4	-90.9	10.2
2025-01-30 09:16:53.314461	21.2	35.6	-91.1	8.7
2025-01-30 09:16:54.469631	21.2	35.9	-91.3	6.9
2025-01-30 09:16:55.625680	21.1	36.2	-91.3	5.3
2025-01-30 09:16:56.782354	21.0	36.4	-91.2	2.1
2025-01-30 09:16:57.928171	20.9	36.7	-91.2	5.2
2025-01-30 09:16:59.081721	20.9	36.9	-90.9	4.6
2025-01-30 09:17:00.231560	20.8	37.2	-90.9	7.2
2025-01-30 09:17:01.384606	20.7	37.5	-91.5	12.1
2025-01-30 09:17:02.540752	20.6	37.8	-91.4	13.5
2025-01-30 09:17:03.689992	20.6	38.0	-90.9	12.1
2025-01-30 09:17:04.849937	20.5	38.3	-91.3	9.0
2025-01-30 09:17:05.997828	20.4	38.6	-91.2	9.6
2025-01-30 09:17:07.153191	20.3	38.9	-91.4	10.1
2025-01-30 09:17:08.303184	20.2	39.2	-91.1	9.4
2025-01-30 09:17:09.452898	20.1	39.4	-91.2	15.2
2025-01-30 09:17:10.607634	20.0	39.7	-91.0	16.2
2025-01-30 09:17:11.768767	19.9	40.0	-91.0	12.5
2025-01-30 09:17:12.922774	19.8	40.3	-91.1	9.9
2025-01-30 09:17:14.077143	19.8	40.6	-91.0	7.0
2025-01-30 09:17:15.227929	19.7	40.9	-91.0	3.5
2025-01-30 09:17:16.379635	19.6	41.2	-90.8	1.3
2025-01-30 09:17:17.537058	19.5	41.5	-91.1	8.0
2025-01-30 09:17:18.687282	19.4	41.8	-91.1	9.8
2025-01-30 09:17:19.838479	19.2	42.1	-91.3	13.3
2025-01-30 09:17:20.989278	19.1	42.4	-91.0	16.1
2025-01-30 09:17:22.141092	19.0	42.7	-90.9	16.8
2025-01-30 09:17:23.290244	18.9	43.0	-90.7	15.1
2025-01-30 09:17:24.439374	18.8	43.3	-90.9	13.9
2025-01-30 09:17:25.591253	18.7	43.7	-90.7	12.8
2025-01-30 09:17:26.743031	18.6	44.0	-91.1	9.5
2025-01-30 09:17:27.897553	18.5	44.3	-91.2	14.7
2025-01-30 09:17:29.049336	18.3	44.6	-91.3	16.6
2025-01-30 09:17:30.203232	18.2	45.0	-90.8	13.5
2025-01-30 09:17:31.359756	18.1	45.3	-90.9	10.7
2025-01-30 09:17:32.516083	17.9	45.6	-91.0	10.2
2025-01-30 09:17:33.665338	17.8	46.0	-91.1	7.3
2025-01-30 09:17:34.819356	17.7	46.3	-91.2	3.3
2025-01-30 09:17:35.972802	17.5	46.6	-91.4	5.0
2025-01-30 09:17:37.128385	17.4	47.0	-91.1	7.1
2025-01-30 09:17:38.283290	17.2	47.3	-90.8	5.8
2025-01-30 09:17:39.447706	17.1	47.7	-91.4	8.0
2025-01-30 09:17:40.608102	16.9	48.0	-91.2	14.3
2025-01-30 09:17:41.758900	16.8	48.4	-91.1	14.1
2025-01-30 09:17:42.910806	16.6	48.8	-91.2	16.3
2025-01-30 09:17:44.068215	16.4	49.1	-91.3	15.6
2025-01-30 09:17:45.219496	16.3	49.5	-91.2	8.0
2025-01-30 09:17:46.369353	16.1	49.8	-91.1	6.6
2025-01-30 09:17:47.525321	15.9	50.2	-91.1	9.2
2025-01-30 09:17:48.681560	15.7	50.6	-91.1	8.3
2025-01-30 09:17:49.841939	15.5	51.0	-91.4	6.2
2025-01-30 09:17:50.992513	15.4	51.3	-91.1	13.1
2025-01-30 09:17:52.142045	15.2	51.7	-91.1	10.1
2025-01-30 09:17:53.290284	15.0	52.1	-91.2	9.3
2025-01-30 09:17:54.420159	14.8	52.5	-91.1	7.8
2025-01-30 09:17:55.541175	14.5	52.8	-90.9	5.1
2025-01-30 09:17:56.662166	14.3	53.2	-91.0	4.4
2025-01-30 09:17:57.785400	14.1	53.6	-90.7	2.0
2025-01-30 09:17:58.905405	13.9	54.0	-90.9	3.0
2025-01-30 09:18:00.027448	13.7	54.4	-91.0	4.0
2025-01-30 09:18:01.150446	13.4	54.7	-91.0	3.4
2025-01-30 09:18:02.271448	13.2	55.1	-91.3	1.8
2025-01-30 09:18:03.393449	12.9	55.5	-90.8	4.4
2025-01-30 09:18:04.520035	12.7	55.9	-91.6	6.2
2025-01-30 09:18:05.668172	12.4	56.3	-90.9	12.6
2025-01-30 09:18:06.823673	12.1	56.7	-91.3	8.6
2025-01-30 09:18:07.973767	11.8	57.1	-91.3	10.8
2025-01-30 09:18:09.123569	11.5	57.6	-91.0	7.9
2025-01-30 09:18:10.281366	11.2	58.0	-91.0	3.4
2025-01-30 09:18:11.425153	10.9	58.4	-91.0	3.7
2025-01-30 09:18:12.560901	10.6	58.8	-90.9	2.5
2025-01-30 09:18:13.699976	10.2	59.2	-91.3	10.5
2025-01-30 09:18:14.834160	9.9	59.6	-91.1	12.1
2025-01-30 09:18:15.962832	9.6	60.1	-91.4	18.0
2025-01-30 09:18:17.117862	9.2	60.5	-90.7	14.5
2025-01-30 09:18:18.265718	8.8	60.9	-91.1	12.9
2025-01-30 09:18:19.412229	8.4	61.3	-91.2	11.1
2025-01-30 09:18:20.565626	8.0	61.8	-91.1	9.7
2025-01-30 09:18:21.710012	7.6	62.2	-90.9	4.4
2025-01-30 09:18:22.858799	7.1	62.6	-91.0	2.8
2025-01-30 09:18:24.004777	6.7	63.1	-91.2	6.8
2025-01-30 09:18:25.156866	6.2	63.5	-91.0	4.0
2025-01-30 09:18:26.307855	5.7	63.9	-91.1	4.5
2025-01-30 09:18:27.440437	5.2	64.4	-91.3	9.7
2025-01-30 09:18:28.588993	4.6	64.8	-90.9	14.2
2025-01-30 09:18:29.736004	4.1	65.3	-90.9	16.8
2025-01-30 09:18:30.873692	3.5	65.7	-90.5	19.7
2025-01-30 09:18:32.017568	2.9	66.1	-90.9	19.1
2025-01-30 09:18:33.160301	2.3	66.6	-90.9	17.4
2025-01-30 09:18:34.291308	1.6	67.0	-91.0	14.6
2025-01-30 09:18:35.426500	1.0	67.4	-91.0	11.9
2025-01-30 09:18:36.568439	0.3	67.9	-91.1	11.6
2025-01-30 09:18:37.710327	359.5	68.3	-91.3	6.5
2025-01-30 09:18:38.861185	358.8	68.7	-90.9	5.9
2025-01-30 09:18:40.003164	358.0	69.2	-90.6	9.1
2025-01-30 09:18:41.147285	357.1	69.6	-90.2	10.7
2025-01-30 09:18:42.290268	356.2	70.0	-90.4	9.3
2025-01-30 09:18:43.430687	355.3	70.4	-90.3	14.3
2025-01-30 09:18:44.581310	354.3	70.9	-90.0	17.2
2025-01-30 09:18:45.721000	353.3	71.3	-90.3	15.0
2025-01-30 09:18:46.862436	352.3	71.7	-90.9	10.4
2025-01-30 09:18:47.997587	351.2	72.1	-90.8	8.5
2025-01-30 09:18:49.133806	350.0	72.5	-91.0	8.5
2025-01-30 09:18:50.279072	348.8	72.9	-91.2	9.3
2025-01-30 09:18:51.437523	347.5	73.3	-91.3	5.9
2025-01-30 09:18:52.573436	346.2	73.7	-90.4	6.8
2025-01-30 09:18:53.731047	344.7	74.1	-90.3	11.3
2025-01-30 09:18:54.876508	343.2	74.4	-90.5	9.4
2025-01-30 09:18:56.011860	341.7	74.8	-90.5	7.8
2025-01-30 09:18:57.155653	340.0	75.1	-90.3	8.5
2025-01-30 09:18:58.293823	338.3	75.5	-90.0	9.9
2025-01-30 09:18:59.437709	336.5	75.8	-91.2	5.6
2025-01-30 09:19:00.579631	334.6	76.1	-91.2	6.6
2025-01-30 09:19:01.719118	332.7	76.4	-91.4	12.4
2025-01-30 09:19:02.856178	330.6	76.7	-91.1	13.4
2025-01-30 09:19:03.995685	328.5	76.9	-91.5	9.3
2025-01-30 09:19:05.128402	326.3	77.2	-91.0	12.6
2025-01-30 09:19:06.264159	324.0	77.4	-90.3	17.9
2025-01-30 09:19:07.405509	321.6	77.6	-90.3	13.0
2025-01-30 09:19:08.545521	319.1	77.8	-90.5	15.2
2025-01-30 09:19:09.677737	316.6	77.9	-90.5	18.0
2025-01-30 09:19:10.803873	314.0	78.1	-90.7	20.8
2025-01-30 09:19:11.952230	311.3	78.2	-90.3	20.5
2025-01-30 09:19:13.098929	308.6	78.3	-91.1	21.2
2025-01-30 09:19:14.228857	305.9	78.3	-90.8	21.0
2025-01-30 09:19:15.359155	303.2	78.3	-91.4	21.1
2025-01-30 09:19:16.485023	300.4	78.4	-90.4	21.6
2025-01-30 09:19:17.613947	297.7	78.3	-90.2	20.6
2025-01-30 09:19:18.755007	294.9	78.3	-90.4	21.4
2025-01-30 09:19:19.895711	292.2	78.2	-90.5	19.4
2025-01-30 09:19:21.025130	289.5	78.1	-90.4	16.8
2025-01-30 09:19:22.162625	286.9	78.0	-90.6	20.4
2025-01-30 09:19:23.293693	284.4	77.9	-91.1	22.0
2025-01-30 09:19:24.430715	281.8	77.7	-91.2	18.5
2025-01-30 09:19:25.563370	279.4	77.5	-91.0	15.4
2025-01-30 09:19:26.714527	277.1	77.3	-90.9	22.4
2025-01-30 09:19:27.850492	274.8	77.0	-91.0	21.9
2025-01-30 09:19:28.991370	272.6	76.8	-91.1	14.2
2025-01-30 09:19:30.147065	270.5	76.5	-91.0	17.5
2025-01-30 09:19:31.282272	268.5	76.2	-91.2	22.0
2025-01-30 09:19:32.424252	266.6	75.9	-90.7	14.3
2025-01-30 09:19:33.569588	264.7	75.6	-91.3	13.3
2025-01-30 09:19:34.718771	262.9	75.3	-91.4	19.5
2025-01-30 09:19:35.859289	261.3	74.9	-91.1	18.7
2025-01-30 09:19:37.000758	259.7	74.6	-91.1	12.1
2025-01-30 09:19:38.150579	258.1	74.2	-90.9	16.7
2025-01-30 09:19:39.306364	256.7	73.9	-91.0	21.4
2025-01-30 09:19:40.455027	255.3	73.5	-91.0	14.8
2025-01-30 09:19:41.601122	254.0	73.1	-91.0	14.7
2025-01-30 09:19:42.739158	252.7	72.7	-91.3	22.6
2025-01-30 09:19:43.876737	251.5	72.3	-91.1	22.4
2025-01-30 09:19:45.020294	250.4	71.9	-91.3	14.4
2025-01-30 09:19:46.159946	249.3	71.5	-91.2	19.6
2025-01-30 09:19:47.295767	248.3	71.1	-91.2	21.3
2025-01-30 09:19:48.433987	247.3	70.7	-91.3	14.7
2025-01-30 09:19:49.569095	246.4	70.2	-91.2	11.3
2025-01-30 09:19:50.707115	245.5	69.8	-91.5	19.4
2025-01-30 09:19:51.848182	244.6	69.4	-91.5	18.1
2025-01-30 09:19:52.991962	243.8	69.0	-91.4	11.3
2025-01-30 09:19:54.124810	243.0	68.5	-91.3	14.5
2025-01-30 09:19:55.263288	242.3	68.1	-91.5	17.9
2025-01-30 09:19:56.404741	241.5	67.7	-91.4	12.5
2025-01-30 09:19:57.555318	240.8	67.2	-91.3	9.7
2025-01-30 09:19:58.688649	240.2	66.8	-91.4	18.4
2025-01-30 09:19:59.836813	239.6	66.4	-91.4	16.5
2025-01-30 09:20:00.975226	238.9	65.9	-91.1	10.7
2025-01-30 09:20:02.123120	238.4	65.5	-91.1	11.6
2025-01-30 09:20:03.275470	237.8	65.0	-91.5	18.9
2025-01-30 09:20:04.424839	237.2	64.6	-91.2	10.8
2025-01-30 09:20:05.568159	236.7	64.2	-91.0	9.8
2025-01-30 09:20:06.714177	236.2	63.7	-91.5	20.1
2025-01-30 09:20:07.855129	235.7	63.3	-91.2	19.1
2025-01-30 09:20:09.004307	235.3	62.9	-91.7	10.4
2025-01-30 09:20:10.145802	234.8	62.4	-91.4	11.8
2025-01-30 09:20:11.291667	234.4	62.0	-91.3	18.6
2025-01-30 09:20:12.433086	234.0	61.6	-91.6	12.2
2025-01-30 09:20:13.572822	233.6	61.1	-91.6	9.9
2025-01-30 09:20:14.719269	233.2	60.7	-91.6	20.1
2025-01-30 09:20:15.870583	232.8	60.3	-91.5	16.0
2025-01-30 09:20:17.016654	232.4	59.9	-91.3	11.7
2025-01-30 09:20:18.167705	232.1	59.4	-91.2	17.1
2025-01-30 09:20:19.308184	231.7	59.0	-91.3	19.6
2025-01-30 09:20:20.450940	231.4	58.6	-91.4	16.2
2025-01-30 09:20:21.589870	231.1	58.2	-91.6	16.7
2025-01-30 09:20:22.738898	230.8	57.8	-91.4	20.1
2025-01-30 09:20:23.870276	230.5	57.4	-91.7	20.1
2025-01-30 09:20:24.996547	230.2	57.0	-91.3	20.8
2025-01-30 09:20:26.127390	229.9	56.6	-91.1	21.4
2025-01-30 09:20:27.268740	229.6	56.2	-91.4	22.3
2025-01-30 09:20:28.410523	229.4	55.7	-91.4	22.3
2025-01-30 09:20:29.554559	229.1	55.3	-91.5	20.6
2025-01-30 09:20:30.701643	228.8	55.0	-91.7	20.6
2025-01-30 09:20:31.844304	228.6	54.6	-91.0	19.2
2025-01-30 09:20:32.982971	228.4	54.2	-91.3	16.9
2025-01-30 09:20:34.133336	228.1	53.8	-91.3	16.5
2025-01-30 09:20:35.272028	227.9	53.4	-91.2	18.6
2025-01-30 09:20:36.420553	227.7	53.0	-91.6	14.5
2025-01-30 09:20:37.566191	227.5	52.6	-91.4	10.6
2025-01-30 09:20:38.707750	227.3	52.2	-91.6	17.4
2025-01-30 09:20:39.847848	227.1	51.9	-91.4	16.3
2025-01-30 09:20:40.991713	226.9	51.5	-91.5	8.8
2025-01-30 09:20:42.137374	226.7	51.1	-91.1	10.6
2025-01-30 09:20:43.281535	226.5	50.7	-91.0	15.1
2025-01-30 09:20:44.448751	226.3	50.4	-91.2	8.3
2025-01-30 09:20:45.589779	226.1	50.0	-91.3	9.3
2025-01-30 09:20:46.736390	225.9	49.6	-91.1	17.9
2025-01-30 09:20:47.885424	225.8	49.3	-91.1	15.0
2025-01-30 09:20:49.033322	225.6	48.9	-91.3	11.9
2025-01-30 09:20:50.176280	225.4	48.6	-91.4	16.0
2025-01-30 09:20:51.312868	225.3	48.2	-91.0	15.2
2025-01-30 09:20:52.457615	225.1	47.9	-91.3	13.0
2025-01-30 09:20:53.592059	225.0	47.5	-91.7	10.4
2025-01-30 09:20:54.738607	224.8	47.2	-91.1	9.2
2025-01-30 09:20:55.890620	224.7	46.8	-91.3	10.4
2025-01-30 09:20:57.034703	224.5	46.5	-91.3	8.2
2025-01-30 09:20:58.179662	224.4	46.1	-91.0	7.5
2025-01-30 09:20:59.320727	224.3	45.8	-91.0	5.3
2025-01-30 09:21:00.460679	224.1	45.5	-91.5	1.6
2025-01-30 09:21:01.611318	224.0	45.2	-91.3	3.5
2025-01-30 09:21:02.758347	223.9	44.8	-91.4	5.2
2025-01-30 09:21:03.906849	223.8	44.5	-91.3	4.2
2025-01-30 09:21:05.060134	223.6	44.2	-91.6	4.3
2025-01-30 09:21:06.196735	223.5	43.9	-91.1	6.4
2025-01-30 09:21:07.338528	223.4	43.5	-90.8	8.3
2025-01-30 09:21:08.486253	223.3	43.2	-90.6	6.8
2025-01-30 09:21:09.634189	223.2	42.9	-91.5	7.4
2025-01-30 09:21:10.778074	223.1	42.6	-91.5	9.3
2025-01-30 09:21:11.926767	223.0	42.3	-91.3	6.1
2025-01-30 09:21:13.079354	222.8	42.0	-91.3	5.5
2025-01-30 09:21:14.229212	222.7	41.7	-91.3	8.6
2025-01-30 09:21:15.384641	222.6	41.4	-91.4	9.6
2025-01-30 09:21:16.536983	222.5	41.1	-91.4	10.4
2025-01-30 09:21:17.693017	222.4	40.8	-91.5	10.7
2025-01-30 09:21:18.847534	222.3	40.5	-91.1	10.0
2025-01-30 09:21:20.002372	222.2	40.2	-91.2	7.5
2025-01-30 09:21:21.130921	222.2	39.9	-91.4	5.1
2025-01-30 09:21:22.268508	222.1	39.6	-91.3	12.7
2025-01-30 09:21:23.402597	222.0	39.3	-91.2	7.0
2025-01-30 09:21:24.548586	221.9	39.1	-91.5	7.4
2025-01-30 09:21:25.700587	221.8	38.8	-91.5	13.7
2025-01-30 09:21:26.848162	221.7	38.5	-91.6	14.1
2025-01-30 09:21:27.992788	221.6	38.2	-91.3	10.4
2025-01-30 09:21:29.131608	221.6	38.0	-91.6	13.3
2025-01-30 09:21:30.280724	221.5	37.7	-91.3	15.8
2025-01-30 09:21:31.434166	221.4	37.4	-91.2	14.7
2025-01-30 09:21:32.575330	221.3	37.1	-91.5	17.3
2025-01-30 09:21:33.728389	221.2	36.9	-91.5	15.8
2025-01-30 09:21:34.879760	221.2	36.6	-91.1	16.3
2025-01-30 09:21:36.031308	221.1	36.4	-91.5	15.8
2025-01-30 09:21:37.176424	221.0	36.1	-91.4	15.5
2025-01-30 09:21:38.316349	220.9	35.8	-91.2	15.9
2025-01-30 09:21:39.462745	220.9	35.6	-91.3	11.8
2025-01-30 09:21:40.603360	220.8	35.3	-91.1	10.2
2025-01-30 09:21:41.758512	220.7	35.1	-91.4	17.1
2025-01-30 09:21:42.904413	220.7	34.8	-91.2	11.8
2025-01-30 09:21:44.053017	220.6	34.6	-91.3	10.3
2025-01-30 09:21:45.212589	220.5	34.3	-91.1	16.1
2025-01-30 09:21:46.363482	220.5	34.1	-91.1	16.3
2025-01-30 09:21:47.511636	220.4	33.8	-91.4	16.3
2025-01-30 09:21:48.653541	220.4	33.6	-91.3	15.1
2025-01-30 09:21:49.795263	220.3	33.4	-91.4	15.3
2025-01-30 09:21:50.918189	220.2	33.1	-91.2	8.5
2025-01-30 09:21:52.057253	220.2	32.9	-90.8	9.8
2025-01-30 09:21:53.207899	220.1	32.7	-91.1	12.7
2025-01-30 09:21:54.353933	220.1	32.4	-91.0	12.4
2025-01-30 09:21:55.514485	220.0	32.2	-91.7	8.0
2025-01-30 09:21:56.669975	220.0	32.0	-91.4	11.2
2025-01-30 09:21:57.814784	219.9	31.8	-91.5	11.2
2025-01-30 09:21:58.956416	219.8	31.5	-91.5	7.6
2025-01-30 09:22:00.106209	219.8	31.3	-91.7	8.0
2025-01-30 09:22:01.251235	219.7	31.1	-91.3	10.9
2025-01-30 09:22:02.398220	219.7	30.9	-91.5	12.3
2025-01-30 09:22:03.544367	219.6	30.6	-91.1	9.6
2025-01-30 09:22:04.704520	219.6	30.4	-91.5	10.6
2025-01-30 09:22:05.854788	219.5	30.2	-91.2	6.6
2025-01-30 09:22:06.999779	219.5	30.0	-91.4	3.8
2025-01-30 09:22:08.156390	219.4	29.8	-91.3	4.9
2025-01-30 09:22:09.308427	219.4	29.6	-91.5	6.7
2025-01-30 09:22:10.457947	219.3	29.4	-91.2	5.7
2025-01-30 09:22:11.609391	219.3	29.2	-91.4	6.2
2025-01-30 09:22:12.757311	219.3	29.0	-91.3	6.6
2025-01-30 09:22:13.919582	219.2	28.7	-91.4	5.0
2025-01-30 09:22:15.069616	219.2	28.5	-91.4	4.5
2025-01-30 09:22:16.194773	219.1	28.3	-91.3	3.4
2025-01-30 09:22:17.315281	219.1	28.1	-91.3	3.0
2025-01-30 09:22:18.436284	219.0	28.0	-91.0	2.5
2025-01-30 09:22:19.556296	219.0	27.8	-90.8	3.2
2025-01-30 09:22:20.677294	219.0	27.6	-91.4	1.8
2025-01-30 09:22:21.797359	218.9	27.4	-91.5	1.3
2025-01-30 09:22:22.917366	218.9	27.2	-91.5	1.3
2025-01-30 09:22:24.037371	218.8	27.0	-91.7	3.5
2025-01-30 09:22:25.158373	218.8	26.8	-91.3	2.9
2025-01-30 09:22:26.278940	218.8	26.6	-91.3	2.5
2025-01-30 09:22:27.400286	218.7	26.4	-91.1	2.3
2025-01-30 09:22:28.521609	218.7	26.3	-91.2	4.2
2025-01-30 09:22:29.641618	218.7	26.1	-91.5	4.6
2025-01-30 09:22:30.762620	218.6	25.9	-91.5	5.4
2025-01-30 09:22:31.885618	218.6	25.7	-91.4	6.0
2025-01-30 09:22:33.005624	218.5	25.5	-91.2	7.0
2025-01-30 09:22:34.127196	218.5	25.4	-91.3	4.2
2025-01-30 09:22:35.248645	218.5	25.2	-91.2	6.4
2025-01-30 09:22:36.371838	218.4	25.0	-91.3	8.1
2025-01-30 09:22:37.507083	218.4	24.8	-91.1	4.7
2025-01-30 09:22:38.654030	218.4	24.7	-90.8	4.7
2025-01-30 09:22:39.802171	218.3	24.5	-90.7	7.5
2025-01-30 09:22:40.955592	218.3	24.3	-90.6	4.2
2025-01-30 09:22:42.112966	218.3	24.1	-90.8	4.0
2025-01-30 09:22:43.268188	218.2	24.0	-90.8	8.2
2025-01-30 09:22:44.413453	218.2	23.8	-90.5	6.9
2025-01-30 09:22:45.564782	218.2	23.6	-90.8	7.7
2025-01-30 09:22:46.694154	218.2	23.5	-90.8	8.6
2025-01-30 09:22:47.830316	218.1	23.3	-91.0	8.9
2025-01-30 09:22:48.968369	218.1	23.1	-90.6	7.3
2025-01-30 09:22:50.111035	218.1	23.0	-91.3	7.0
2025-01-30 09:22:51.245713	218.0	22.8	-91.2	10.1
2025-01-30 09:22:52.385290	218.0	22.6	-91.2	6.6
2025-01-30 09:22:53.511964	218.0	22.5	-91.3	4.8
2025-01-30 09:22:54.645854	217.9	22.3	-91.3	7.0
2025-01-30 09:22:55.800651	217.9	22.2	-91.5	8.2
2025-01-30 09:22:56.934495	217.9	22.0	-91.4	7.1
2025-01-30 09:22:58.074876	217.9	21.8	-91.5	7.7
2025-01-30 09:22:59.218739	217.8	21.7	-91.4	9.0
2025-01-30 09:23:00.345987	217.8	21.5	-91.1	9.7
2025-01-30 09:23:01.486764	217.8	21.4	-91.2	10.9
2025-01-30 09:23:02.622837	217.8	21.2	-91.2	11.3
2025-01-30 09:23:03.771834	217.7	21.1	-91.6	10.4
2025-01-30 09:23:04.917694	217.7	20.9	-91.7	7.2
2025-01-30 09:23:06.073172	217.7	20.8	-91.5	8.3
2025-01-30 09:23:07.221325	217.7	20.6	-91.3	8.4
2025-01-30 09:23:08.366570	217.6	20.5	-91.1	8.1
2025-01-30 09:23:09.502058	217.6	20.3	-91.3	6.3
2025-01-30 09:23:10.644334	217.6	20.2	-91.3	7.7
2025-01-30 09:23:11.784887	217.6	20.0	-91.2	9.1
2025-01-30 09:23:12.945357	217.5	19.9	-91.5	7.0
2025-01-30 09:23:14.084769	217.5	19.7	-91.6	9.3
2025-01-30 09:23:15.243924	217.5	19.6	-91.5	9.5
2025-01-30 09:23:16.388563	217.5	19.4	-91.4	8.7
2025-01-30 09:23:17.523943	217.4	19.3	-91.5	7.6
2025-01-30 09:23:18.659134	217.4	19.2	-91.5	7.6
2025-01-30 09:23:19.807106	217.4	19.0	-91.4	8.3
2025-01-30 09:23:20.956245	217.4	18.9	-91.5	5.1
2025-01-30 09:23:22.088498	217.4	18.7	-91.5	5.3
2025-01-30 09:23:23.235166	217.3	18.6	-91.5	7.6
2025-01-30 09:23:24.396257	217.3	18.5	-91.3	5.9
2025-01-30 09:23:25.551128	217.3	18.3	-91.5	6.0
2025-01-30 09:23:26.704462	217.3	18.2	-91.7	8.6
2025-01-30 09:23:27.858308	217.2	18.0	-91.3	9.2
2025-01-30 09:23:29.000363	217.2	17.9	-91.7	9.3
2025-01-30 09:23:30.147103	217.2	17.8	-91.3	6.6
2025-01-30 09:23:31.303927	217.2	17.6	-91.2	6.0
2025-01-30 09:23:32.444931	217.2	17.5	-90.9	5.9
2025-01-30 09:23:33.593757	217.1	17.4	-91.2	4.3
2025-01-30 09:23:34.747300	217.1	17.2	-91.4	3.8
2025-01-30 09:23:35.901467	217.1	17.1	-91.6	5.0
2025-01-30 09:23:37.047079	217.1	17.0	-91.3	5.6
2025-01-30 09:23:38.193981	217.1	16.8	-91.2	6.3
2025-01-30 09:23:39.346559	217.1	16.7	-91.4	7.2
2025-01-30 09:23:40.497451	217.0	16.6	-91.3	5.8
2025-01-30 09:23:41.653929	217.0	16.5	-91.1	4.5
2025-01-30 09:23:42.800483	217.0	16.3	-91.4	5.8
2025-01-30 09:23:43.950502	217.0	16.2	-91.3	5.5
2025-01-30 09:23:45.107923	217.0	16.1	-91.6	5.7
2025-01-30 09:23:46.272196	216.9	16.0	-91.5	4.5
2025-01-30 09:23:47.426316	216.9	15.8	-91.6	2.3
2025-01-30 09:23:48.574016	216.9	15.7	-91.8	3.8
2025-01-30 09:23:49.721414	216.9	15.6	-91.2	3.8
2025-01-30 09:23:50.873652	216.9	15.5	-91.6	4.1
2025-01-30 09:23:52.025071	216.9	15.3	-91.7	4.8
2025-01-30 09:23:53.178784	216.8	15.2	-91.3	4.0
2025-01-30 09:23:54.325959	216.8	15.1	-91.4	5.1
2025-01-30 09:23:55.483822	216.8	15.0	-90.9	3.6
2025-01-30 09:23:56.631844	216.8	14.8	-91.4	4.2
2025-01-30 09:23:57.776733	216.8	14.7	-91.7	3.6
2025-01-30 09:23:58.930642	216.8	14.6	-91.7	2.4
2025-01-30 09:24:00.068552	216.7	14.5	-91.2	4.0
#Closed at: 2025-01-30 09:14:42.538154