passes_logs/2026/01/04/R3.2S_Murmansk/R3.2S_Murmansk__20260104_111540_SUOMI_NPP_rec.log

#Pass ID: 20260104_111540_SUOMI NPP
#Satellite: SUOMI NPP
#Configuration: NPP
#almurnet v.1.7.20251203
#Start time: 2026-01-04 11:15:41

#Version: 2.2.20231116
#Station: R3.2S_Murmansk
#Location: 33.079688 lon 68.888172 lat
#TLE: 1 37849U 11061A   26001.07732418  .00000182  00000+0  10735-3 0  9990
#TLE: 2 37849  98.7795 303.2470 0002580  87.2016 272.9455 14.19520779734739

#Time	Az	El	Level	Level2	SNR	BER	BlckErr	Temp	State	Recorded	gain1	gain2
2026-01-04 11:15:41.74	193.18	2.09	-58.7	-74.8	3.8	1.49e+00	0	26	0	0	82	24450
2026-01-04 11:15:42.73	193.23	2.15	-58.7	-74.7	3.8	1.49e+00	0	26	104	0	82	24272
2026-01-04 11:15:43.72	193.28	2.21	-58.7	-74.7	3.8	1.49e+00	0	26	104	0	82	24270
2026-01-04 11:15:44.71	193.33	2.27	-58.7	-74.7	3.8	1.49e+00	0	27	104	0	82	24397
2026-01-04 11:15:45.71	193.38	2.33	-58.7	-74.8	3.8	1.49e+00	0	26	104	0	82	24435
2026-01-04 11:15:46.71	193.43	2.39	-58.7	-74.8	3.8	1.49e+00	0	27	104	0	82	24424
2026-01-04 11:15:47.71	193.48	2.45	-58.7	-74.8	3.8	1.49e+00	0	26	104	0	82	24426
2026-01-04 11:15:48.70	193.53	2.51	-58.7	-74.8	3.8	1.49e+00	0	26	104	0	82	24512
2026-01-04 11:15:49.69	193.58	2.57	-58.7	-74.8	3.8	1.49e+00	0	26	104	0	82	24512
2026-01-04 11:15:50.68	193.64	2.63	-58.7	-74.8	3.8	1.49e+00	0	27	104	0	82	24524
2026-01-04 11:15:51.68	193.69	2.69	-58.7	-74.7	3.8	1.49e+00	0	26	104	0	82	24405
2026-01-04 11:15:52.67	193.74	2.75	-58.7	-74.8	3.8	1.49e+00	0	27	104	0	82	24481
2026-01-04 11:15:53.66	193.79	2.81	-58.7	-74.7	3.8	1.49e+00	0	26	104	0	82	24378
2026-01-04 11:15:54.65	193.84	2.88	-58.7	-74.7	3.8	1.49e+00	0	27	104	0	82	24308
2026-01-04 11:15:55.65	193.90	2.94	-58.7	-74.7	3.8	1.49e+00	0	27	104	0	82	24287
2026-01-04 11:15:56.64	193.95	3.00	-58.7	-74.7	3.8	1.49e+00	0	27	104	0	82	24170
2026-01-04 11:15:57.64	194.00	3.06	-58.7	-74.7	3.8	1.49e+00	0	27	104	0	82	24138
2026-01-04 11:15:58.64	194.06	3.12	-58.7	-74.6	3.8	1.49e+00	0	27	104	0	82	24028
2026-01-04 11:15:59.64	194.11	3.18	-58.7	-74.6	3.8	1.49e+00	0	27	104	0	82	24129
2026-01-04 11:16:00.63	194.16	3.25	-58.7	-74.6	3.8	1.49e+00	0	27	104	0	82	24042
2026-01-04 11:16:01.62	194.22	3.31	-58.7	-74.7	3.8	1.49e+00	0	27	104	0	82	24154
2026-01-04 11:16:02.62	194.27	3.37	-58.7	-74.6	3.8	1.49e+00	0	27	104	0	82	23942
2026-01-04 11:16:03.61	194.33	3.43	-58.7	-74.6	3.8	1.49e+00	0	27	104	0	82	24067
2026-01-04 11:16:04.61	194.38	3.49	-58.7	-74.5	3.8	1.49e+00	0	27	104	0	82	23707
2026-01-04 11:16:05.60	194.43	3.56	-58.7	-74.4	3.8	1.49e+00	0	27	104	0	82	23565
2026-01-04 11:16:06.59	194.49	3.62	-58.7	-74.4	3.8	1.49e+00	0	27	104	0	82	23444
2026-01-04 11:16:07.58	194.54	3.68	-58.6	-74.1	3.8	1.49e+00	0	27	104	0	80	25541
2026-01-04 11:16:08.58	194.60	3.74	-58.7	-74.5	3.8	1.49e+00	0	27	104	0	82	23616
2026-01-04 11:16:09.57	194.66	3.81	-58.7	-74.5	3.8	1.49e+00	0	27	104	0	82	23736
2026-01-04 11:16:10.56	194.71	3.87	-58.7	-74.7	3.8	1.49e+00	0	27	104	0	82	24150
2026-01-04 11:16:11.56	194.77	3.93	-58.7	-74.7	3.8	1.49e+00	0	27	104	0	82	24315
2026-01-04 11:16:12.55	194.82	4.00	-58.7	-74.8	3.8	1.49e+00	0	27	104	0	82	24474
2026-01-04 11:16:13.54	194.88	4.06	-58.7	-74.7	3.8	1.49e+00	0	27	104	0	82	24332
2026-01-04 11:16:14.54	194.94	4.12	-58.7	-74.5	3.8	1.49e+00	0	27	104	0	82	23783
2026-01-04 11:16:15.54	194.99	4.19	-58.7	-74.2	3.8	1.49e+00	0	27	104	0	82	22931
2026-01-04 11:16:16.54	195.05	4.25	-58.7	-73.8	3.8	1.49e+00	0	27	104	0	82	22004
2026-01-04 11:16:17.53	195.11	4.31	-58.6	-73.6	3.8	1.49e+00	0	27	104	0	82	21268
2026-01-04 11:16:18.52	195.17	4.38	-58.6	-73.3	3.8	1.49e+00	0	27	104	0	82	20655
2026-01-04 11:16:19.51	195.22	4.44	-58.6	-73.3	3.8	1.49e+00	0	27	104	0	82	20565
2026-01-04 11:16:20.50	195.28	4.51	-58.6	-73.3	3.8	1.49e+00	0	27	104	0	82	20682
2026-01-04 11:16:21.49	195.34	4.57	-58.6	-73.5	3.8	1.49e+00	0	27	104	0	82	21093
2026-01-04 11:16:22.49	195.40	4.64	-58.7	-73.8	3.8	1.49e+00	0	27	104	0	82	21766
2026-01-04 11:16:23.48	195.46	4.70	-58.7	-74.0	3.8	1.49e+00	0	27	104	0	82	22476
2026-01-04 11:16:24.48	195.52	4.76	-58.7	-74.2	3.8	1.49e+00	0	27	104	0	82	22963
2026-01-04 11:16:25.47	195.58	4.83	-58.7	-74.3	3.8	1.49e+00	0	27	104	0	82	23144
2026-01-04 11:16:26.47	195.64	4.90	-58.7	-74.1	3.8	1.49e+00	0	27	104	0	82	22734
2026-01-04 11:16:27.46	195.70	4.96	-58.7	-73.9	3.8	1.49e+00	0	27	104	0	82	22200
2026-01-04 11:16:28.46	195.76	5.03	-58.7	-73.7	3.8	1.49e+00	0	27	104	0	82	21532
2026-01-04 11:16:29.46	195.82	5.09	-58.7	-73.4	3.8	1.49e+00	0	27	104	0	82	20953
2026-01-04 11:16:30.45	195.88	5.16	-58.8	-73.4	3.8	1.49e+00	0	27	104	0	82	20897
2026-01-04 11:16:31.44	195.94	5.22	-58.7	-73.9	3.8	1.49e+00	0	27	104	0	82	22123
2026-01-04 11:16:32.44	196.00	5.29	-58.6	-74.1	3.8	1.49e+00	0	27	104	0	82	22612
2026-01-04 11:16:33.42	196.06	5.35	-58.7	-74.6	3.7	1.49e+00	0	27	104	0	82	23913
2026-01-04 11:16:34.40	196.12	5.42	-56.8	-61.6	10.7	4.78e-04	0	27	0	0	80	5996
2026-01-04 11:16:35.40	196.18	5.49	-56.6	-61.0	11.1	3.62e-04	0	27	0	2097152	79	5944
2026-01-04 11:16:36.39	196.25	5.55	-55.9	-59.5	12.1	2.36e-05	0	27	0	4194304	77	5638
2026-01-04 11:16:37.38	196.31	5.62	-55.8	-59.3	12.2	0.00e+00	0	28	0	5242880	77	5516
2026-01-04 11:16:38.37	196.37	5.68	-55.8	-59.4	12.2	1.50e-06	0	27	0	7340032	77	5559
2026-01-04 11:16:39.36	196.43	5.75	-55.7	-59.1	12.3	7.00e-07	0	27	0	9437184	76	5716
2026-01-04 11:16:40.36	196.50	5.82	-55.7	-59.2	12.2	0.00e+00	0	27	0	11534336	76	5777
2026-01-04 11:16:41.35	196.56	5.89	-55.5	-58.8	12.6	0.00e+00	0	27	0	13631488	76	5476
2026-01-04 11:16:42.34	196.62	5.95	-55.5	-58.8	12.5	0.00e+00	0	28	0	14680064	76	5487
2026-01-04 11:16:43.33	196.69	6.02	-55.5	-58.7	12.6	0.00e+00	0	27	0	16777216	76	5451
2026-01-04 11:16:44.32	196.75	6.09	-55.4	-58.6	12.7	0.00e+00	0	28	0	18874368	76	5357
2026-01-04 11:16:45.31	196.82	6.16	-55.4	-58.6	12.6	0.00e+00	0	27	0	20971520	76	5377
2026-01-04 11:16:46.30	196.88	6.22	-55.4	-58.5	12.7	0.00e+00	0	27	0	22020096	76	5334
2026-01-04 11:16:47.30	196.95	6.29	-55.2	-58.3	12.8	0.00e+00	0	28	0	24117248	76	5173
2026-01-04 11:16:48.29	197.01	6.36	-55.1	-58.1	12.9	0.00e+00	0	28	0	26214400	75	5374
2026-01-04 11:16:49.27	197.08	6.43	-55.0	-58.0	12.9	0.00e+00	0	27	0	28311552	75	5302
2026-01-04 11:16:50.27	197.14	6.50	-55.1	-58.2	12.8	7.00e-07	0	28	0	30408704	75	5423
2026-01-04 11:16:51.26	197.21	6.56	-55.1	-58.1	12.9	0.00e+00	0	28	0	31457280	75	5349
2026-01-04 11:16:52.25	197.27	6.63	-55.2	-58.3	12.8	0.00e+00	0	28	0	33554432	75	5496
2026-01-04 11:16:53.24	197.34	6.70	-54.9	-57.8	13.0	0.00e+00	0	28	0	35651584	75	5183
2026-01-04 11:16:54.22	197.41	6.77	-54.9	-57.7	13.1	0.00e+00	0	27	0	37748736	75	5151
2026-01-04 11:16:55.21	197.47	6.84	-55.0	-57.9	13.0	0.00e+00	0	28	0	38797312	75	5249
2026-01-04 11:16:56.20	197.54	6.91	-54.7	-57.4	13.3	0.00e+00	0	28	0	40894464	75	4947
2026-01-04 11:16:57.18	197.61	6.98	-54.8	-57.5	13.2	0.00e+00	0	28	0	42991616	75	5027
2026-01-04 11:16:58.17	197.68	7.05	-54.8	-57.5	13.2	0.00e+00	0	28	0	45088768	75	5041
2026-01-04 11:16:59.16	197.75	7.12	-54.7	-57.3	13.3	0.00e+00	0	28	0	46137344	75	4923
2026-01-04 11:17:00.16	197.82	7.19	-54.7	-57.3	13.3	0.00e+00	0	28	0	48234496	75	4923
2026-01-04 11:17:01.14	197.88	7.25	-54.5	-57.1	13.5	0.00e+00	0	28	0	50331648	75	4782
2026-01-04 11:17:02.12	197.95	7.32	-54.5	-57.0	13.4	0.00e+00	0	28	0	52428800	74	5038
2026-01-04 11:17:03.11	198.02	7.39	-54.5	-57.1	13.4	0.00e+00	0	28	0	54525952	74	5065
2026-01-04 11:17:04.10	198.09	7.46	-54.4	-56.9	13.5	0.00e+00	0	28	0	55574528	74	4983
2026-01-04 11:17:05.10	198.16	7.54	-54.4	-57.0	13.5	0.00e+00	0	28	0	57671680	74	4989
2026-01-04 11:17:06.09	198.23	7.61	-54.3	-56.8	13.6	0.00e+00	0	28	0	59768832	74	4903
2026-01-04 11:17:07.08	198.31	7.68	-54.4	-56.8	13.6	0.00e+00	0	28	0	61865984	74	4916
2026-01-04 11:17:08.07	198.38	7.75	-54.2	-56.5	13.7	0.00e+00	0	28	0	62914560	74	4752
2026-01-04 11:17:09.08	198.45	7.82	-54.1	-56.5	13.7	0.00e+00	0	28	0	65011712	74	4739
2026-01-04 11:17:10.07	198.52	7.89	-54.2	-56.7	13.7	0.00e+00	0	28	0	67108864	74	4827
2026-01-04 11:17:11.06	198.59	7.96	-54.2	-56.6	13.7	0.00e+00	0	28	0	69206016	74	4766
2026-01-04 11:17:12.06	198.67	8.04	-54.2	-56.6	13.7	0.00e+00	0	28	0	71303168	74	4781
2026-01-04 11:17:13.05	198.74	8.11	-54.3	-56.7	13.7	0.00e+00	0	28	0	72351744	74	4834
2026-01-04 11:17:14.04	198.81	8.18	-54.1	-56.5	13.7	0.00e+00	0	28	0	74448896	74	4744
2026-01-04 11:17:15.03	198.89	8.25	-54.3	-56.7	13.6	0.00e+00	0	28	0	76546048	74	4864
2026-01-04 11:17:16.03	198.96	8.33	-54.3	-56.8	13.6	0.00e+00	0	28	0	78643200	74	4883
2026-01-04 11:17:17.01	199.04	8.40	-54.2	-56.6	13.7	0.00e+00	0	28	0	79691776	74	4794
2026-01-04 11:17:18.01	199.11	8.47	-54.2	-56.5	13.7	0.00e+00	0	28	0	81788928	74	4752
2026-01-04 11:17:19.00	199.19	8.54	-54.2	-56.6	13.8	0.00e+00	0	28	0	83886080	74	4760
2026-01-04 11:17:19.99	199.26	8.62	-54.3	-56.8	13.6	0.00e+00	0	28	0	85983232	74	4886
2026-01-04 11:17:20.99	199.34	8.69	-54.2	-56.6	13.7	0.00e+00	0	28	0	88080384	74	4814
2026-01-04 11:17:21.98	199.42	8.76	-54.2	-56.6	13.7	0.00e+00	0	28	0	89128960	74	4789
2026-01-04 11:17:22.98	199.49	8.84	-54.4	-56.8	13.6	0.00e+00	0	28	0	91226112	74	4923
2026-01-04 11:17:23.97	199.57	8.91	-54.3	-56.7	13.7	0.00e+00	0	28	0	93323264	74	4848
2026-01-04 11:17:24.97	199.65	8.99	-54.3	-56.7	13.7	0.00e+00	0	28	0	95420416	74	4844
2026-01-04 11:17:25.96	199.73	9.06	-54.2	-56.6	13.7	0.00e+00	0	28	0	96468992	74	4806
2026-01-04 11:17:26.95	199.80	9.14	-54.2	-56.6	13.7	0.00e+00	0	28	0	98566144	74	4791
2026-01-04 11:17:27.94	199.88	9.21	-54.2	-56.6	13.7	0.00e+00	0	28	0	100663296	74	4805
2026-01-04 11:17:28.93	199.96	9.29	-54.2	-56.6	13.7	0.00e+00	0	28	0	102760448	74	4812
2026-01-04 11:17:29.92	200.04	9.36	-54.2	-56.6	13.8	0.00e+00	0	28	0	103809024	74	4776
2026-01-04 11:17:30.91	200.12	9.44	-54.2	-56.6	13.7	0.00e+00	0	28	0	105906176	74	4773
2026-01-04 11:17:31.91	200.20	9.51	-54.2	-56.5	13.8	0.00e+00	0	28	0	108003328	74	4757
2026-01-04 11:17:32.90	200.28	9.59	-54.4	-56.9	13.6	0.00e+00	0	28	0	110100480	74	4928
2026-01-04 11:17:33.89	200.36	9.66	-54.2	-56.5	13.8	0.00e+00	0	28	0	112197632	74	4759
2026-01-04 11:17:34.88	200.44	9.74	-54.1	-56.4	13.9	0.00e+00	0	28	0	113246208	74	4653
2026-01-04 11:17:35.88	200.53	9.81	-54.2	-56.5	13.8	0.00e+00	0	28	0	115343360	74	4729
2026-01-04 11:17:36.88	200.61	9.89	-54.1	-56.4	13.9	0.00e+00	0	28	0	117440512	74	4687
2026-01-04 11:17:37.88	200.69	9.97	-54.3	-56.7	13.7	0.00e+00	0	28	0	119537664	74	4838
2026-01-04 11:17:38.87	200.77	10.05	-53.9	-56.2	13.9	0.00e+00	0	28	0	120586240	74	4561
2026-01-04 11:17:39.87	200.86	10.12	-53.9	-56.1	14.0	0.00e+00	0	28	0	122683392	74	4545
2026-01-04 11:17:40.86	200.94	10.20	-53.7	-55.9	14.1	0.00e+00	0	28	0	124780544	74	4428
2026-01-04 11:17:41.86	201.03	10.28	-53.8	-56.0	14.0	0.00e+00	0	28	0	126877696	74	4451
2026-01-04 11:17:42.85	201.11	10.35	-53.7	-55.9	14.1	0.00e+00	0	28	0	128974848	74	4408
2026-01-04 11:17:43.84	201.20	10.43	-53.6	-55.8	14.1	0.00e+00	0	28	0	130023424	73	4603
2026-01-04 11:17:44.83	201.28	10.51	-53.6	-55.8	14.1	0.00e+00	0	28	0	132120576	73	4601
2026-01-04 11:17:45.83	201.37	10.59	-53.6	-55.7	14.1	0.00e+00	0	28	0	134217728	73	4560
2026-01-04 11:17:46.82	201.46	10.67	-53.6	-55.7	14.1	0.00e+00	0	28	0	136314880	73	4591
2026-01-04 11:17:47.81	201.54	10.74	-53.6	-55.8	14.1	0.00e+00	0	28	0	137363456	73	4617
2026-01-04 11:17:48.79	201.63	10.82	-53.3	-55.3	14.2	0.00e+00	0	28	0	139460608	73	4385
2026-01-04 11:17:49.77	201.71	10.90	-53.6	-55.7	14.1	0.00e+00	0	28	0	141557760	73	4552
2026-01-04 11:17:50.76	201.80	10.98	-53.4	-55.4	14.2	0.00e+00	0	28	0	143654912	73	4410
2026-01-04 11:17:51.75	201.89	11.06	-53.3	-55.3	14.3	0.00e+00	0	28	0	145752064	73	4367
2026-01-04 11:17:52.74	201.98	11.14	-53.2	-55.2	14.3	0.00e+00	0	28	0	146800640	73	4321
2026-01-04 11:17:53.73	202.07	11.22	-53.2	-55.2	14.3	0.00e+00	0	28	0	148897792	73	4328
2026-01-04 11:17:54.71	202.16	11.30	-53.3	-55.4	14.2	0.00e+00	0	28	0	150994944	72	4652
2026-01-04 11:17:55.71	202.25	11.38	-53.0	-54.9	14.4	0.00e+00	0	28	0	153092096	72	4412
2026-01-04 11:17:56.70	202.34	11.46	-53.0	-54.9	14.3	0.00e+00	0	28	0	154140672	72	4440
2026-01-04 11:17:57.69	202.43	11.54	-53.3	-55.3	14.2	0.00e+00	0	28	0	156237824	72	4633
2026-01-04 11:17:58.69	202.52	11.62	-53.2	-55.2	14.2	0.00e+00	0	28	0	158334976	72	4550
2026-01-04 11:17:59.68	202.62	11.70	-53.2	-55.3	14.2	0.00e+00	0	28	0	160432128	72	4601
2026-01-04 11:18:00.68	202.71	11.78	-53.3	-55.3	14.2	0.00e+00	0	28	0	161480704	72	4628
2026-01-04 11:18:01.67	202.80	11.86	-53.1	-55.1	14.3	0.00e+00	0	28	0	163577856	72	4529
2026-01-04 11:18:02.66	202.90	11.94	-53.3	-55.4	14.2	0.00e+00	0	28	0	165675008	72	4653
2026-01-04 11:18:03.66	202.99	12.02	-53.4	-55.4	14.2	0.00e+00	0	28	0	167772160	72	4666
2026-01-04 11:18:04.65	203.09	12.11	-53.3	-55.3	14.2	0.00e+00	0	28	0	169869312	72	4621
2026-01-04 11:18:05.65	203.18	12.19	-53.1	-55.0	14.3	0.00e+00	0	28	0	170917888	72	4486
2026-01-04 11:18:06.64	203.28	12.27	-53.2	-55.2	14.3	0.00e+00	0	28	0	173015040	72	4573
2026-01-04 11:18:07.63	203.37	12.35	-53.1	-55.1	14.3	0.00e+00	0	28	0	175112192	72	4510
2026-01-04 11:18:08.63	203.47	12.44	-53.2	-55.1	14.3	0.00e+00	0	28	0	177209344	72	4528
2026-01-04 11:18:09.62	203.57	12.52	-53.1	-55.0	14.3	0.00e+00	0	28	0	178257920	72	4468
2026-01-04 11:18:10.61	203.67	12.60	-53.1	-55.0	14.4	0.00e+00	0	28	0	180355072	72	4478
2026-01-04 11:18:11.60	203.77	12.68	-53.1	-55.1	14.3	0.00e+00	0	28	0	182452224	72	4509
2026-01-04 11:18:12.58	203.86	12.77	-53.1	-55.0	14.4	0.00e+00	0	28	0	184549376	72	4478
2026-01-04 11:18:13.57	203.96	12.85	-53.1	-55.0	14.4	0.00e+00	0	28	0	185597952	72	4456
2026-01-04 11:18:14.56	204.06	12.93	-53.1	-55.0	14.4	0.00e+00	0	28	0	187695104	72	4466
2026-01-04 11:18:15.55	204.16	13.02	-53.1	-55.1	14.3	0.00e+00	0	28	0	189792256	72	4499
2026-01-04 11:18:16.55	204.27	13.10	-53.1	-55.1	14.3	0.00e+00	0	28	0	191889408	72	4507
2026-01-04 11:18:17.54	204.37	13.19	-53.1	-55.1	14.3	0.00e+00	0	28	0	193986560	72	4513
2026-01-04 11:18:18.53	204.47	13.27	-53.0	-55.0	14.4	0.00e+00	0	28	0	195035136	72	4443
2026-01-04 11:18:19.52	204.57	13.36	-53.1	-55.0	14.4	0.00e+00	0	28	0	197132288	72	4452
2026-01-04 11:18:20.51	204.68	13.44	-53.0	-54.9	14.4	0.00e+00	0	28	0	199229440	72	4399
2026-01-04 11:18:21.50	204.78	13.53	-53.0	-54.9	14.4	0.00e+00	0	28	0	201326592	72	4422
2026-01-04 11:18:22.50	204.88	13.61	-52.9	-54.7	14.5	0.00e+00	0	28	0	202375168	72	4333
2026-01-04 11:18:23.50	204.99	13.70	-52.9	-54.8	14.5	0.00e+00	0	28	0	204472320	72	4353
2026-01-04 11:18:24.50	205.10	13.79	-52.9	-54.7	14.4	0.00e+00	0	28	0	206569472	72	4316
2026-01-04 11:18:25.49	205.20	13.87	-52.8	-54.6	14.5	0.00e+00	0	28	0	208666624	72	4291
2026-01-04 11:18:26.48	205.31	13.96	-52.8	-54.6	14.5	0.00e+00	0	28	0	210763776	72	4266
2026-01-04 11:18:27.48	205.42	14.05	-52.7	-54.5	14.5	0.00e+00	0	28	0	211812352	71	4491
2026-01-04 11:18:28.47	205.53	14.13	-52.7	-54.5	14.5	0.00e+00	0	28	0	213909504	71	4481
2026-01-04 11:18:29.47	205.64	14.22	-52.8	-54.6	14.5	0.00e+00	0	28	0	216006656	71	4515
2026-01-04 11:18:30.46	205.75	14.31	-52.7	-54.6	14.5	0.00e+00	0	28	0	218103808	71	4508
2026-01-04 11:18:31.45	205.85	14.39	-52.9	-54.7	14.4	0.00e+00	0	28	0	220200960	71	4582
2026-01-04 11:18:32.45	205.97	14.48	-52.8	-54.7	14.4	0.00e+00	0	28	0	221249536	71	4557
2026-01-04 11:18:33.44	206.08	14.57	-52.9	-54.8	14.4	0.00e+00	0	28	0	223346688	71	4640
2026-01-04 11:18:34.44	206.19	14.66	-52.9	-54.8	14.4	0.00e+00	0	28	0	225443840	71	4614
2026-01-04 11:18:35.43	206.30	14.75	-53.1	-55.0	14.3	0.00e+00	0	28	0	227540992	71	4733
2026-01-04 11:18:36.42	206.42	14.84	-53.1	-55.0	14.3	0.00e+00	0	28	0	228589568	71	4739
2026-01-04 11:18:37.41	206.53	14.93	-53.1	-55.0	14.3	0.00e+00	0	28	0	230686720	71	4735
2026-01-04 11:18:38.40	206.64	15.01	-53.2	-55.2	14.2	0.00e+00	0	28	0	232783872	71	4853
2026-01-04 11:18:39.40	206.76	15.10	-53.1	-55.1	14.3	0.00e+00	0	28	0	234881024	71	4786
2026-01-04 11:18:40.39	206.88	15.19	-53.2	-55.2	14.2	0.00e+00	0	28	0	236978176	71	4829
2026-01-04 11:18:41.39	206.99	15.28	-53.1	-55.0	14.3	0.00e+00	0	28	0	238026752	71	4734
2026-01-04 11:18:42.39	207.11	15.37	-53.0	-54.9	14.3	0.00e+00	0	28	0	240123904	71	4693
2026-01-04 11:18:43.37	207.23	15.46	-53.1	-55.0	14.3	0.00e+00	0	28	0	242221056	71	4747
2026-01-04 11:18:44.37	207.35	15.56	-52.9	-54.7	14.4	0.00e+00	0	28	0	244318208	71	4594
2026-01-04 11:18:45.37	207.47	15.65	-52.8	-54.6	14.4	0.00e+00	0	28	0	245366784	71	4531
2026-01-04 11:18:46.35	207.59	15.74	-52.7	-54.5	14.5	0.00e+00	0	28	0	247463936	71	4473
2026-01-04 11:18:47.36	207.71	15.83	-52.7	-54.5	14.5	0.00e+00	0	28	0	249561088	71	4477
2026-01-04 11:18:48.35	207.83	15.92	-52.6	-54.3	14.6	0.00e+00	0	28	0	251658240	71	4371
2026-01-04 11:18:49.34	207.95	16.01	-52.7	-54.5	14.5	0.00e+00	0	28	0	253755392	71	4443
2026-01-04 11:18:50.34	208.08	16.10	-52.9	-54.7	14.4	0.00e+00	0	28	0	254803968	71	4577
2026-01-04 11:18:51.33	208.20	16.20	-52.8	-54.6	14.5	0.00e+00	0	28	0	256901120	71	4503
2026-01-04 11:18:52.33	208.32	16.29	-52.9	-54.8	14.4	0.00e+00	0	28	0	258998272	71	4615
2026-01-04 11:18:53.31	208.45	16.38	-52.9	-54.7	14.4	0.00e+00	0	28	0	261095424	71	4567
2026-01-04 11:18:54.31	208.57	16.47	-53.0	-54.9	14.3	0.00e+00	0	28	0	262144000	71	4668
2026-01-04 11:18:55.30	208.70	16.57	-53.0	-54.8	14.3	0.00e+00	0	28	0	264241152	71	4644
2026-01-04 11:18:56.29	208.83	16.66	-53.1	-55.0	14.3	0.00e+00	0	28	0	266338304	71	4726
2026-01-04 11:18:57.28	208.95	16.75	-53.1	-55.0	14.3	0.00e+00	0	28	0	268435456	71	4735
2026-01-04 11:18:58.27	209.08	16.85	-53.1	-55.0	14.4	0.00e+00	0	28	0	269484032	71	4713
2026-01-04 11:18:59.26	209.21	16.94	-53.2	-55.1	14.3	0.00e+00	0	28	0	271581184	71	4781
2026-01-04 11:19:00.25	209.34	17.03	-53.2	-55.2	14.3	0.00e+00	0	28	0	273678336	71	4817
2026-01-04 11:19:01.24	209.47	17.13	-53.3	-55.3	14.3	0.00e+00	0	28	0	275775488	72	4606
2026-01-04 11:19:02.22	209.60	17.22	-53.4	-55.4	14.2	0.00e+00	0	28	0	276824064	72	4692
2026-01-04 11:19:03.21	209.74	17.32	-53.5	-55.5	14.2	0.00e+00	0	28	0	278921216	72	4727
2026-01-04 11:19:04.21	209.87	17.41	-53.5	-55.6	14.2	0.00e+00	0	28	0	281018368	72	4775
2026-01-04 11:19:05.19	210.00	17.51	-53.6	-55.6	14.1	0.00e+00	0	28	0	283115520	72	4804
2026-01-04 11:19:06.18	210.14	17.60	-53.4	-55.4	14.3	0.00e+00	0	28	0	285212672	72	4689
2026-01-04 11:19:07.17	210.27	17.70	-53.3	-55.2	14.3	0.00e+00	0	28	0	286261248	72	4573
2026-01-04 11:19:08.17	210.41	17.79	-53.5	-55.5	14.2	0.00e+00	0	28	0	288358400	72	4725
2026-01-04 11:19:09.17	210.55	17.89	-53.4	-55.3	14.3	0.00e+00	0	28	0	290455552	72	4629
2026-01-04 11:19:10.16	210.69	17.99	-53.1	-55.0	14.4	0.00e+00	0	28	0	292552704	72	4450
2026-01-04 11:19:11.16	210.83	18.08	-53.1	-55.0	14.4	0.00e+00	0	28	0	293601280	72	4474
2026-01-04 11:19:12.15	210.97	18.18	-53.1	-54.9	14.4	0.00e+00	0	28	0	295698432	72	4431
2026-01-04 11:19:13.14	211.11	18.28	-53.1	-55.0	14.4	0.00e+00	0	28	0	297795584	72	4470
2026-01-04 11:19:14.14	211.25	18.37	-53.2	-55.1	14.3	0.00e+00	0	28	0	299892736	72	4539
2026-01-04 11:19:15.14	211.40	18.47	-53.3	-55.2	14.3	0.00e+00	0	28	0	301989888	72	4586
2026-01-04 11:19:16.14	211.54	18.57	-53.3	-55.2	14.3	0.00e+00	0	28	0	303038464	72	4573
2026-01-04 11:19:17.13	211.69	18.67	-53.3	-55.3	14.3	0.00e+00	0	28	0	305135616	72	4616
2026-01-04 11:19:18.13	211.83	18.77	-53.4	-55.4	14.3	0.00e+00	0	28	0	307232768	72	4679
2026-01-04 11:19:19.13	211.98	18.87	-53.3	-55.2	14.3	0.00e+00	0	28	0	309329920	72	4574
2026-01-04 11:19:20.13	212.13	18.96	-53.4	-55.4	14.2	0.00e+00	0	28	0	310378496	72	4654
2026-01-04 11:19:21.13	212.28	19.06	-53.4	-55.4	14.3	0.00e+00	0	28	0	312475648	72	4653
2026-01-04 11:19:22.12	212.43	19.16	-53.3	-55.3	14.3	0.00e+00	0	28	0	314572800	72	4605
2026-01-04 11:19:23.12	212.58	19.26	-53.3	-55.2	14.3	0.00e+00	0	28	0	316669952	72	4577
2026-01-04 11:19:24.12	212.73	19.36	-53.5	-55.6	14.2	0.00e+00	0	28	0	318767104	72	4769
2026-01-04 11:19:25.11	212.88	19.46	-53.5	-55.5	14.2	0.00e+00	0	28	0	319815680	72	4738
2026-01-04 11:19:26.10	213.04	19.56	-53.4	-55.4	14.3	0.00e+00	0	28	0	321912832	72	4692
2026-01-04 11:19:27.09	213.19	19.66	-53.7	-55.8	14.1	0.00e+00	0	28	0	324009984	72	4875
2026-01-04 11:19:28.08	213.35	19.76	-53.5	-55.5	14.2	0.00e+00	0	28	0	326107136	72	4754
2026-01-04 11:19:29.08	213.50	19.86	-53.6	-55.6	14.2	0.00e+00	0	28	0	327155712	72	4795
2026-01-04 11:19:30.07	213.66	19.96	-53.5	-55.4	14.3	0.00e+00	0	28	0	329252864	72	4692
2026-01-04 11:19:31.07	213.82	20.06	-53.3	-55.2	14.4	0.00e+00	0	28	0	331350016	72	4570
2026-01-04 11:19:32.05	213.98	20.16	-53.3	-55.2	14.3	0.00e+00	0	28	0	333447168	72	4587
2026-01-04 11:19:33.05	214.14	20.27	-53.4	-55.3	14.3	0.00e+00	0	28	0	335544320	72	4633
2026-01-04 11:19:34.04	214.30	20.37	-53.3	-55.2	14.3	0.00e+00	0	28	0	336592896	72	4586
2026-01-04 11:19:35.04	214.46	20.47	-53.1	-54.9	14.5	0.00e+00	0	28	0	338690048	72	4428
2026-01-04 11:19:36.03	214.62	20.57	-53.3	-55.2	14.3	0.00e+00	0	28	0	340787200	72	4586
2026-01-04 11:19:37.03	214.79	20.67	-53.4	-55.3	14.3	0.00e+00	0	28	0	342884352	72	4648
2026-01-04 11:19:38.02	214.95	20.77	-53.5	-55.5	14.2	0.00e+00	0	28	0	344981504	72	4713
2026-01-04 11:19:39.03	215.12	20.88	-53.5	-55.5	14.2	0.00e+00	0	28	0	346030080	72	4751
2026-01-04 11:19:40.02	215.29	20.98	-53.5	-55.5	14.2	0.00e+00	0	28	0	348127232	72	4748
2026-01-04 11:19:41.01	215.46	21.08	-53.4	-55.3	14.3	0.00e+00	0	28	0	350224384	72	4648
2026-01-04 11:19:42.01	215.63	21.19	-53.5	-55.5	14.2	0.00e+00	0	28	0	352321536	72	4721
2026-01-04 11:19:43.00	215.80	21.29	-53.3	-55.3	14.3	0.00e+00	0	28	0	353370112	72	4608
2026-01-04 11:19:44.00	215.97	21.39	-53.1	-55.0	14.4	0.00e+00	0	28	0	355467264	72	4476
2026-01-04 11:19:44.99	216.15	21.50	-53.2	-55.0	14.4	0.00e+00	0	28	0	357564416	72	4485
2026-01-04 11:19:45.98	216.32	21.60	-53.2	-55.0	14.4	0.00e+00	0	28	0	359661568	72	4486
2026-01-04 11:19:46.98	216.50	21.70	-52.8	-54.6	14.6	0.00e+00	0	28	0	361758720	72	4270
2026-01-04 11:19:47.97	216.67	21.81	-52.7	-54.4	14.6	0.00e+00	0	28	0	362807296	71	4420
2026-01-04 11:19:48.96	216.85	21.91	-52.5	-54.2	14.7	0.00e+00	0	28	0	364904448	71	4319
2026-01-04 11:19:49.95	217.03	22.01	-52.6	-54.3	14.6	0.00e+00	0	28	0	367001600	71	4362
2026-01-04 11:19:50.94	217.21	22.12	-52.3	-54.0	14.7	0.00e+00	0	28	0	369098752	71	4211
2026-01-04 11:19:51.94	217.39	22.22	-52.4	-54.1	14.7	0.00e+00	0	28	0	370147328	71	4271
2026-01-04 11:19:52.92	217.57	22.33	-52.7	-54.4	14.6	0.00e+00	0	28	0	372244480	71	4435
2026-01-04 11:19:53.92	217.75	22.43	-52.6	-54.3	14.6	0.00e+00	0	28	0	374341632	71	4375
2026-01-04 11:19:54.91	217.94	22.54	-52.8	-54.6	14.5	0.00e+00	0	28	0	376438784	71	4496
2026-01-04 11:19:55.90	218.12	22.64	-52.7	-54.5	14.5	0.00e+00	0	28	0	378535936	71	4476
2026-01-04 11:19:56.89	218.31	22.75	-52.6	-54.3	14.6	0.00e+00	0	28	0	379584512	71	4375
2026-01-04 11:19:57.88	218.50	22.85	-52.3	-54.0	14.7	0.00e+00	0	28	0	381681664	71	4196
2026-01-04 11:19:58.88	218.69	22.96	-52.1	-53.8	14.7	0.00e+00	0	28	0	383778816	70	4347
2026-01-04 11:19:59.87	218.88	23.06	-51.8	-53.4	14.8	0.00e+00	0	28	0	385875968	70	4167
2026-01-04 11:20:00.86	219.07	23.17	-51.7	-53.3	14.8	0.00e+00	0	28	0	386924544	69	4364
2026-01-04 11:20:01.85	219.26	23.27	-51.5	-53.0	14.9	0.00e+00	0	28	0	389021696	69	4205
2026-01-04 11:20:02.84	219.46	23.38	-51.6	-53.1	14.9	0.00e+00	0	28	0	391118848	69	4260
2026-01-04 11:20:03.84	219.65	23.48	-51.4	-52.9	15.0	0.00e+00	0	28	0	393216000	69	4162
2026-01-04 11:20:04.83	219.85	23.59	-51.6	-53.1	14.9	0.00e+00	0	28	0	394264576	69	4263
2026-01-04 11:20:05.82	220.05	23.69	-51.7	-53.3	14.8	0.00e+00	0	28	0	396361728	69	4343
2026-01-04 11:20:06.82	220.25	23.80	-51.5	-53.0	14.9	0.00e+00	0	28	0	398458880	69	4215
2026-01-04 11:20:07.81	220.45	23.91	-51.6	-53.2	14.8	0.00e+00	0	28	0	400556032	69	4295
2026-01-04 11:20:08.80	220.65	24.01	-51.7	-53.2	14.8	0.00e+00	0	28	0	402653184	69	4323
2026-01-04 11:20:09.79	220.86	24.12	-51.7	-53.2	14.8	0.00e+00	0	28	0	403701760	69	4321
2026-01-04 11:20:10.78	221.06	24.23	-51.7	-53.3	14.8	0.00e+00	0	28	0	405798912	69	4349
2026-01-04 11:20:11.77	221.27	24.33	-51.7	-53.3	14.8	0.00e+00	0	28	0	407896064	69	4368
2026-01-04 11:20:12.75	221.47	24.44	-52.0	-53.6	14.7	0.00e+00	0	28	0	409993216	69	4529
2026-01-04 11:20:13.75	221.68	24.54	-51.9	-53.5	14.7	0.00e+00	0	28	0	411041792	69	4486
2026-01-04 11:20:14.76	221.90	24.65	-51.9	-53.5	14.7	0.00e+00	0	28	0	413138944	69	4442
2026-01-04 11:20:15.75	222.11	24.76	-51.9	-53.5	14.7	0.00e+00	0	28	0	415236096	69	4490
2026-01-04 11:20:16.74	222.32	24.86	-52.1	-53.7	14.7	0.00e+00	0	28	0	417333248	69	4561
2026-01-04 11:20:17.74	222.54	24.97	-51.9	-53.5	14.7	0.00e+00	0	28	0	419430400	69	4473
2026-01-04 11:20:18.73	222.75	25.08	-52.0	-53.6	14.7	0.00e+00	0	28	0	420478976	69	4515
2026-01-04 11:20:19.72	222.97	25.18	-52.1	-53.7	14.6	0.00e+00	0	29	0	422576128	69	4576
2026-01-04 11:20:20.72	223.19	25.29	-52.1	-53.7	14.6	0.00e+00	0	28	0	424673280	69	4571
2026-01-04 11:20:21.70	223.41	25.40	-51.8	-53.3	14.8	0.00e+00	0	28	0	426770432	69	4381
2026-01-04 11:20:22.70	223.63	25.50	-51.8	-53.4	14.7	0.00e+00	0	28	0	427819008	69	4425
2026-01-04 11:20:23.68	223.85	25.61	-51.9	-53.5	14.7	0.00e+00	0	28	0	429916160	69	4459
2026-01-04 11:20:24.67	224.08	25.72	-52.0	-53.6	14.7	0.00e+00	0	28	0	432013312	69	4536
2026-01-04 11:20:25.66	224.30	25.82	-52.1	-53.7	14.6	0.00e+00	0	28	0	434110464	69	4583
2026-01-04 11:20:26.65	224.53	25.93	-52.4	-54.0	14.5	0.00e+00	0	28	0	435159040	69	4748
2026-01-04 11:20:27.64	224.76	26.03	-52.7	-54.4	14.5	0.00e+00	0	28	0	437256192	70	4689
2026-01-04 11:20:28.64	224.99	26.14	-52.7	-54.4	14.5	0.00e+00	0	28	0	439353344	70	4703
2026-01-04 11:20:29.63	225.22	26.25	-52.7	-54.4	14.6	0.00e+00	0	28	0	441450496	71	4415
2026-01-04 11:20:30.63	225.46	26.35	-52.6	-54.3	14.6	0.00e+00	0	28	0	443547648	71	4349
2026-01-04 11:20:31.63	225.70	26.46	-52.5	-54.2	14.7	0.00e+00	0	28	0	444596224	71	4315
2026-01-04 11:20:32.62	225.93	26.57	-52.4	-54.1	14.7	0.00e+00	0	28	0	446693376	71	4274
2026-01-04 11:20:33.61	226.17	26.67	-52.5	-54.2	14.7	0.00e+00	0	28	0	448790528	71	4296
2026-01-04 11:20:34.60	226.41	26.78	-52.2	-53.8	14.7	0.00e+00	0	28	0	450887680	70	4382
2026-01-04 11:20:35.60	226.65	26.88	-52.2	-53.8	14.7	0.00e+00	0	28	0	451936256	70	4387
2026-01-04 11:20:36.59	226.90	26.99	-52.1	-53.7	14.7	0.00e+00	0	28	0	454033408	70	4340
2026-01-04 11:20:37.59	227.14	27.10	-52.1	-53.7	14.7	0.00e+00	0	28	0	456130560	70	4331
2026-01-04 11:20:38.58	227.39	27.20	-52.2	-53.9	14.7	0.00e+00	0	28	0	458227712	70	4392
2026-01-04 11:20:39.58	227.64	27.31	-52.5	-54.2	14.6	0.00e+00	0	28	0	460324864	70	4574
2026-01-04 11:20:40.57	227.89	27.41	-52.5	-54.2	14.5	0.00e+00	0	28	0	461373440	70	4569
2026-01-04 11:20:41.57	228.14	27.52	-52.4	-54.1	14.6	0.00e+00	0	28	0	463470592	70	4536
2026-01-04 11:20:42.57	228.39	27.62	-52.5	-54.2	14.6	0.00e+00	0	28	0	465567744	70	4564
2026-01-04 11:20:43.56	228.65	27.73	-52.4	-54.0	14.6	0.00e+00	0	28	0	467664896	70	4477
2026-01-04 11:20:44.56	228.91	27.83	-52.5	-54.1	14.6	0.00e+00	0	28	0	469762048	70	4545
2026-01-04 11:20:45.56	229.17	27.94	-52.2	-53.8	14.7	0.00e+00	0	28	0	470810624	70	4379
2026-01-04 11:20:46.55	229.42	28.04	-52.3	-54.0	14.7	0.00e+00	0	28	0	472907776	70	4452
2026-01-04 11:20:47.54	229.68	28.14	-52.6	-54.3	14.5	0.00e+00	0	28	0	475004928	70	4628
2026-01-04 11:20:48.53	229.95	28.25	-52.5	-54.2	14.6	0.00e+00	0	28	0	477102080	70	4592
2026-01-04 11:20:49.52	230.21	28.35	-52.7	-54.4	14.5	0.00e+00	0	28	0	478150656	70	4677
2026-01-04 11:20:50.51	230.48	28.45	-52.9	-54.7	14.5	0.00e+00	0	28	0	480247808	71	4569
2026-01-04 11:20:51.50	230.74	28.55	-53.2	-55.0	14.3	0.00e+00	0	28	0	482344960	71	4741
2026-01-04 11:20:52.49	231.01	28.66	-53.5	-55.4	14.2	0.00e+00	0	28	0	484442112	72	4682
2026-01-04 11:20:53.49	231.28	28.76	-53.7	-55.7	14.2	0.00e+00	0	28	0	486539264	72	4868
2026-01-04 11:20:54.49	231.56	28.86	-53.7	-55.6	14.2	0.00e+00	0	28	0	487587840	72	4810
2026-01-04 11:20:55.49	231.84	28.96	-53.8	-55.8	14.2	0.00e+00	0	28	0	489684992	73	4649
2026-01-04 11:20:56.48	232.11	29.06	-53.7	-55.7	14.2	0.00e+00	0	28	0	491782144	73	4593
2026-01-04 11:20:57.48	232.39	29.16	-53.9	-55.9	14.2	0.00e+00	0	28	0	493879296	73	4674
2026-01-04 11:20:58.47	232.67	29.26	-54.1	-56.2	14.1	0.00e+00	0	28	0	494927872	73	4833
2026-01-04 11:20:59.46	232.95	29.36	-54.0	-56.1	14.0	0.00e+00	0	28	0	497025024	73	4804
2026-01-04 11:21:00.45	233.23	29.46	-54.5	-56.8	13.9	0.00e+00	0	28	0	499122176	74	4900
2026-01-04 11:21:01.44	233.52	29.56	-54.9	-57.4	13.7	0.00e+00	0	28	0	501219328	75	4942
2026-01-04 11:21:02.44	233.80	29.66	-55.2	-57.8	13.5	0.00e+00	0	28	0	503316480	75	5166
2026-01-04 11:21:03.43	234.09	29.76	-55.3	-57.9	13.3	0.00e+00	0	28	0	504365056	75	5240
2026-01-04 11:21:04.43	234.38	29.86	-55.7	-58.4	13.2	0.00e+00	0	28	0	506462208	76	5252
2026-01-04 11:21:05.42	234.67	29.96	-55.7	-58.4	13.2	0.00e+00	0	28	0	508559360	76	5257
2026-01-04 11:21:06.42	234.97	30.05	-55.6	-58.3	13.3	0.00e+00	0	28	0	510656512	76	5182
2026-01-04 11:21:07.41	235.26	30.15	-55.2	-57.7	13.5	0.00e+00	0	28	0	511705088	76	4853
2026-01-04 11:21:08.40	235.56	30.24	-55.2	-57.7	13.6	0.00e+00	0	28	0	513802240	76	4869
2026-01-04 11:21:09.40	235.86	30.34	-55.1	-57.5	13.7	0.00e+00	0	28	0	515899392	76	4757
2026-01-04 11:21:10.38	236.16	30.43	-54.9	-57.3	13.8	0.00e+00	0	29	0	517996544	76	4627
2026-01-04 11:21:11.38	236.46	30.53	-55.1	-57.5	13.7	0.00e+00	0	28	0	519045120	76	4738
2026-01-04 11:21:12.37	236.76	30.62	-55.4	-57.9	13.5	0.00e+00	0	28	0	521142272	76	4970
2026-01-04 11:21:13.37	237.07	30.72	-55.4	-57.9	13.5	0.00e+00	0	28	0	523239424	76	4971
2026-01-04 11:21:14.36	237.38	30.81	-55.6	-58.3	13.2	0.00e+00	0	28	0	525336576	76	5190
2026-01-04 11:21:15.36	237.69	30.90	-55.9	-58.8	13.1	0.00e+00	0	28	0	527433728	76	5469
2026-01-04 11:21:16.35	238.00	30.99	-55.7	-58.4	13.2	0.00e+00	0	28	0	528482304	77	4968
2026-01-04 11:21:17.35	238.31	31.08	-56.0	-58.9	13.0	0.00e+00	0	28	0	530579456	77	5231
2026-01-04 11:21:18.34	238.63	31.17	-55.5	-58.2	13.4	0.00e+00	0	28	0	532676608	77	4825
2026-01-04 11:21:19.34	238.94	31.26	-55.5	-58.1	13.4	0.00e+00	0	28	0	534773760	77	4804
2026-01-04 11:21:20.34	239.26	31.35	-55.3	-57.9	13.6	0.00e+00	0	28	0	536870912	77	4656
2026-01-04 11:21:21.33	239.58	31.44	-55.2	-57.6	13.6	0.00e+00	0	28	0	537919488	76	4812
2026-01-04 11:21:22.32	239.90	31.53	-55.4	-57.9	13.5	0.00e+00	0	28	0	540016640	76	4983
2026-01-04 11:21:23.31	240.22	31.61	-55.7	-58.5	13.2	0.00e+00	0	28	0	542113792	76	5302
2026-01-04 11:21:24.30	240.55	31.70	-55.7	-58.5	13.2	0.00e+00	0	28	0	544210944	76	5310
2026-01-04 11:21:25.30	240.87	31.79	-55.6	-58.3	13.4	0.00e+00	0	28	0	545259520	77	4908
2026-01-04 11:21:26.29	241.20	31.87	-55.5	-58.0	13.5	0.00e+00	0	28	0	547356672	77	4744
2026-01-04 11:21:27.28	241.53	31.95	-55.5	-58.1	13.5	0.00e+00	0	28	0	549453824	77	4766
2026-01-04 11:21:28.27	241.86	32.04	-55.0	-57.4	13.8	0.00e+00	0	28	0	551550976	76	4652
2026-01-04 11:21:29.27	242.19	32.12	-55.0	-57.4	13.8	0.00e+00	0	28	0	552599552	76	4658
2026-01-04 11:21:30.26	242.53	32.20	-55.0	-57.3	13.8	0.00e+00	0	28	0	554696704	76	4644
2026-01-04 11:21:31.26	242.86	32.28	-54.7	-57.0	14.0	0.00e+00	0	28	0	556793856	76	4450
2026-01-04 11:21:32.25	243.20	32.36	-54.2	-56.2	14.1	0.00e+00	0	28	0	558891008	74	4595
2026-01-04 11:21:33.24	243.54	32.44	-54.1	-56.1	14.2	0.00e+00	0	28	0	560988160	74	4514
2026-01-04 11:21:34.24	243.88	32.52	-54.7	-57.1	13.7	0.00e+00	0	28	0	562036736	74	5044
2026-01-04 11:21:35.23	244.22	32.59	-55.2	-57.8	13.5	0.00e+00	0	28	0	564133888	75	5184
2026-01-04 11:21:36.22	244.57	32.67	-55.6	-58.3	13.4	0.00e+00	0	28	0	566231040	77	4889
2026-01-04 11:21:37.21	244.91	32.74	-55.9	-58.7	13.2	0.00e+00	0	28	0	568328192	77	5130
2026-01-04 11:21:38.21	245.26	32.82	-55.9	-58.7	13.1	0.00e+00	0	28	0	569376768	77	5119
2026-01-04 11:21:39.21	245.61	32.89	-55.6	-58.3	13.4	0.00e+00	0	28	0	571473920	77	4871
2026-01-04 11:21:40.20	245.96	32.96	-55.2	-57.7	13.7	0.00e+00	0	28	0	573571072	77	4575
2026-01-04 11:21:41.20	246.31	33.03	-54.8	-57.1	13.9	0.00e+00	0	28	0	575668224	76	4527
2026-01-04 11:21:42.19	246.67	33.10	-54.4	-56.6	14.1	0.00e+00	0	28	0	577765376	75	4513
2026-01-04 11:21:43.18	247.02	33.17	-54.5	-56.7	14.0	0.00e+00	0	28	0	578813952	75	4594
2026-01-04 11:21:44.18	247.38	33.24	-55.3	-57.8	13.5	0.00e+00	0	28	0	580911104	75	5198
2026-01-04 11:21:45.17	247.73	33.31	-56.0	-58.9	13.0	0.00e+00	0	28	0	583008256	77	5244
2026-01-04 11:21:46.17	248.10	33.37	-56.2	-59.3	12.9	0.00e+00	0	28	0	585105408	77	5499
2026-01-04 11:21:47.16	248.46	33.44	-56.0	-58.9	13.0	0.00e+00	0	28	0	586153984	77	5238
2026-01-04 11:21:48.15	248.82	33.50	-55.8	-58.6	13.2	0.00e+00	0	28	0	588251136	77	5062
2026-01-04 11:21:49.15	249.18	33.57	-56.1	-59.1	12.9	0.00e+00	0	28	0	590348288	77	5362
2026-01-04 11:21:50.14	249.55	33.63	-56.4	-59.5	12.7	0.00e+00	0	28	0	592445440	78	5334
2026-01-04 11:21:51.14	249.91	33.69	-56.4	-59.6	12.8	0.00e+00	0	28	0	594542592	78	5369
2026-01-04 11:21:52.12	250.28	33.75	-56.3	-59.4	12.8	0.00e+00	0	28	0	595591168	78	5233
2026-01-04 11:21:53.12	250.65	33.80	-56.4	-59.5	12.8	0.00e+00	0	28	0	597688320	78	5284
2026-01-04 11:21:54.11	251.02	33.86	-56.6	-59.9	12.5	0.00e+00	0	28	0	599785472	78	5536
2026-01-04 11:21:55.10	251.39	33.92	-56.8	-60.2	12.3	0.00e+00	0	28	0	601882624	78	5735
2026-01-04 11:21:56.09	251.76	33.97	-57.0	-60.7	12.0	7.00e-07	0	28	0	602931200	79	5769
2026-01-04 11:21:57.08	252.13	34.02	-57.1	-60.7	12.1	1.50e-06	0	28	0	605028352	79	5774
2026-01-04 11:21:58.08	252.51	34.08	-56.9	-60.5	12.2	0.00e+00	0	28	0	607125504	79	5603
2026-01-04 11:21:59.06	252.88	34.12	-56.4	-59.5	12.9	0.00e+00	0	28	0	609222656	79	5038
2026-01-04 11:22:00.06	253.26	34.17	-56.4	-59.4	12.9	0.00e+00	0	28	0	611319808	79	4961
2026-01-04 11:22:01.04	253.63	34.22	-56.3	-59.4	12.9	0.00e+00	0	28	0	612368384	79	4949
2026-01-04 11:22:02.04	254.01	34.27	-56.7	-60.0	12.5	0.00e+00	0	28	0	614465536	79	5320
2026-01-04 11:22:03.03	254.39	34.31	-56.5	-59.8	12.7	0.00e+00	0	28	0	616562688	79	5163
2026-01-04 11:22:04.03	254.77	34.36	-56.0	-58.9	13.1	0.00e+00	0	28	0	618659840	78	4951
2026-01-04 11:22:05.02	255.15	34.40	-55.4	-57.9	13.6	0.00e+00	0	28	0	619708416	77	4659
2026-01-04 11:22:06.02	255.54	34.44	-55.3	-57.8	13.6	0.00e+00	0	28	0	621805568	77	4637
2026-01-04 11:22:07.01	255.92	34.48	-55.4	-57.9	13.6	0.00e+00	0	28	0	623902720	77	4700
2026-01-04 11:22:08.00	256.31	34.52	-56.0	-58.9	13.0	0.00e+00	0	28	0	625999872	77	5238
2026-01-04 11:22:09.00	256.69	34.56	-56.3	-59.4	12.7	0.00e+00	0	28	0	628097024	77	5587
2026-01-04 11:22:09.99	257.08	34.59	-55.7	-58.4	13.3	0.00e+00	0	28	0	629145600	77	4971
2026-01-04 11:22:10.99	257.47	34.63	-55.5	-58.1	13.5	0.00e+00	0	28	0	631242752	77	4766
2026-01-04 11:22:11.98	257.86	34.66	-55.3	-57.7	13.6	0.00e+00	0	28	0	633339904	76	4859
2026-01-04 11:22:12.98	258.25	34.69	-55.3	-57.7	13.6	0.00e+00	0	28	0	635437056	76	4859
2026-01-04 11:22:13.98	258.64	34.73	-55.3	-57.7	13.6	0.00e+00	0	28	0	636485632	76	4862
2026-01-04 11:22:14.97	259.03	34.75	-55.2	-57.6	13.7	0.00e+00	0	28	0	638582784	76	4763
2026-01-04 11:22:15.96	259.42	34.78	-55.2	-57.6	13.7	0.00e+00	0	28	0	640679936	76	4797
2026-01-04 11:22:16.95	259.81	34.81	-55.7	-58.3	13.3	0.00e+00	0	28	0	642777088	76	5211
2026-01-04 11:22:17.95	260.21	34.83	-56.0	-58.9	13.1	0.00e+00	0	28	0	644874240	77	5256
2026-01-04 11:22:18.94	260.60	34.86	-56.3	-59.4	12.8	0.00e+00	0	28	0	645922816	77	5539
2026-01-04 11:22:19.93	260.99	34.88	-56.4	-59.5	12.8	0.00e+00	0	28	0	648019968	78	5333
2026-01-04 11:22:20.92	261.38	34.90	-56.6	-59.9	12.5	0.00e+00	0	28	0	650117120	78	5557
2026-01-04 11:22:21.91	261.78	34.92	-56.8	-60.2	12.4	0.00e+00	0	28	0	652214272	78	5758
2026-01-04 11:22:22.91	262.17	34.93	-57.3	-61.1	11.8	2.20e-06	0	28	0	653262848	79	6044
2026-01-04 11:22:23.90	262.57	34.95	-57.3	-61.3	11.7	6.10e-06	0	28	0	655360000	79	6163
2026-01-04 11:22:24.90	262.96	34.96	-56.7	-60.1	12.5	1.50e-06	0	28	0	657457152	79	5359
2026-01-04 11:22:25.90	263.36	34.98	-56.2	-59.1	13.1	0.00e+00	0	28	0	659554304	79	4814
2026-01-04 11:22:26.90	263.76	34.99	-56.0	-58.8	13.2	0.00e+00	0	28	0	661651456	78	4882
2026-01-04 11:22:27.89	264.16	35.00	-56.0	-58.7	13.2	0.00e+00	0	28	0	662700032	78	4850
2026-01-04 11:22:28.88	264.55	35.00	-56.3	-59.3	12.9	0.00e+00	0	28	0	664797184	78	5174
2026-01-04 11:22:29.88	264.95	35.01	-56.5	-59.7	12.7	0.00e+00	0	28	0	666894336	78	5426
2026-01-04 11:22:30.87	265.35	35.02	-56.8	-60.1	12.4	7.00e-07	0	28	0	668991488	78	5692
2026-01-04 11:22:31.86	265.74	35.02	-57.1	-60.7	12.0	0.00e+00	0	28	0	670040064	79	5772
2026-01-04 11:22:32.86	266.14	35.02	-57.4	-61.4	11.7	0.00e+00	0	28	0	672137216	80	5877
2026-01-04 11:22:33.85	266.54	35.02	-57.9	-62.5	10.9	6.25e-05	0	28	0	674234368	81	6276
2026-01-04 11:22:34.85	266.94	35.02	-58.3	-63.5	10.2	3.68e-04	0	28	0	676331520	81	7110
2026-01-04 11:22:35.85	267.34	35.02	-58.6	-64.4	9.6	1.15e-03	0	28	0	678428672	82	7377
2026-01-04 11:22:36.84	267.73	35.02	-58.4	-63.8	9.9	3.96e-03	0	28	0	679477248	82	6947
2026-01-04 11:22:37.84	268.13	35.01	-58.1	-63.1	10.5	1.28e-03	0	28	0	681574400	82	6357
2026-01-04 11:22:38.83	268.53	35.00	-57.6	-61.7	11.5	1.11e-04	0	28	0	683671552	81	5753
2026-01-04 11:22:39.82	268.92	35.00	-56.9	-60.4	12.4	7.00e-07	0	28	0	685768704	80	5224
2026-01-04 11:22:40.82	269.32	34.99	-56.2	-59.1	13.0	0.00e+00	0	28	0	686817280	78	5096
2026-01-04 11:22:41.81	269.72	34.97	-55.9	-58.7	13.3	0.00e+00	0	28	0	688914432	78	4823
2026-01-04 11:22:42.81	270.12	34.96	-55.9	-58.6	13.3	0.00e+00	0	28	0	691011584	78	4783
2026-01-04 11:22:43.80	270.51	34.95	-56.0	-58.7	13.2	0.00e+00	0	28	0	693108736	78	4844
2026-01-04 11:22:44.79	270.90	34.93	-55.8	-58.5	13.3	0.00e+00	0	28	0	695205888	78	4758
2026-01-04 11:22:45.80	271.30	34.91	-55.8	-58.6	13.3	0.00e+00	0	28	0	696254464	78	4766
2026-01-04 11:22:46.79	271.70	34.90	-56.4	-59.5	12.9	0.00e+00	0	28	0	698351616	78	5296
2026-01-04 11:22:47.78	272.09	34.88	-57.0	-60.6	12.2	0.00e+00	0	28	0	700448768	79	5712
2026-01-04 11:22:48.78	272.49	34.85	-57.4	-61.3	11.7	9.90e-06	0	28	0	702545920	80	5806
2026-01-04 11:22:49.76	272.87	34.83	-57.1	-60.8	12.1	3.80e-06	0	28	0	703594496	80	5521
2026-01-04 11:22:50.76	273.27	34.81	-56.5	-59.6	12.8	0.00e+00	0	28	0	705691648	79	5048
2026-01-04 11:22:51.75	273.66	34.78	-55.8	-58.5	13.4	0.00e+00	0	28	0	707788800	78	4726
2026-01-04 11:22:52.74	274.05	34.75	-55.7	-58.4	13.4	0.00e+00	0	28	0	709885952	77	4943
2026-01-04 11:22:53.73	274.44	34.72	-56.0	-58.9	13.0	0.00e+00	0	28	0	710934528	77	5232
2026-01-04 11:22:54.72	274.82	34.69	-55.9	-58.8	13.2	0.00e+00	0	28	0	713031680	77	5162
2026-01-04 11:22:55.73	275.22	34.66	-55.5	-58.0	13.5	0.00e+00	0	28	0	715128832	77	4744
2026-01-04 11:22:56.72	275.61	34.63	-55.1	-57.5	13.7	0.00e+00	0	28	0	717225984	76	4714
2026-01-04 11:22:57.72	276.00	34.59	-55.5	-58.0	13.5	0.00e+00	0	28	0	719323136	76	4993
2026-01-04 11:22:58.71	276.38	34.56	-56.6	-59.7	12.8	0.00e+00	0	28	0	720371712	78	5455
2026-01-04 11:22:59.70	276.76	34.52	-57.8	-62.2	11.1	9.90e-06	0	28	0	722468864	80	6445
2026-01-04 11:23:00.70	277.15	34.48	-58.0	-62.8	10.7	2.27e-04	0	28	0	724566016	81	6556
2026-01-04 11:23:01.69	277.53	34.44	-57.4	-61.3	11.8	3.73e-05	0	28	0	726663168	81	5492
2026-01-04 11:23:02.68	277.92	34.40	-56.7	-60.0	12.6	3.00e-06	0	28	0	727711744	80	5004
2026-01-04 11:23:03.67	278.30	34.36	-56.7	-59.9	12.7	0.00e+00	0	28	0	729808896	79	5240
2026-01-04 11:23:04.66	278.67	34.31	-56.9	-60.4	12.3	0.00e+00	0	28	0	731906048	79	5538
2026-01-04 11:23:05.65	279.05	34.27	-57.4	-61.4	11.7	7.00e-07	0	28	0	734003200	80	5873
2026-01-04 11:23:06.64	279.43	34.22	-57.8	-62.1	11.2	2.67e-05	0	28	0	736100352	80	6388
2026-01-04 11:23:07.63	279.81	34.17	-57.4	-61.4	11.7	3.80e-06	0	28	0	737148928	80	5869
2026-01-04 11:23:08.62	280.18	34.13	-57.0	-60.5	12.3	1.50e-06	0	29	0	739246080	80	5303
2026-01-04 11:23:09.61	280.56	34.08	-56.7	-59.9	12.6	0.00e+00	0	28	0	741343232	79	5245
2026-01-04 11:23:10.59	280.92	34.02	-57.4	-61.3	11.8	7.00e-07	0	28	0	743440384	79	6143
2026-01-04 11:23:11.59	281.30	33.97	-57.6	-61.6	11.5	1.60e-05	0	28	0	744488960	80	6006
2026-01-04 11:23:12.58	281.67	33.92	-56.8	-60.0	12.6	3.00e-06	0	28	0	746586112	80	5006
2026-01-04 11:23:13.58	282.04	33.86	-55.5	-57.9	13.6	0.00e+00	0	28	0	748683264	77	4704
2026-01-04 11:23:14.58	282.42	33.80	-54.9	-57.2	13.9	0.00e+00	0	28	0	750780416	76	4549
2026-01-04 11:23:15.57	282.78	33.75	-55.2	-57.6	13.7	0.00e+00	0	28	0	752877568	76	4765
2026-01-04 11:23:16.57	283.15	33.69	-55.8	-58.4	13.3	0.00e+00	0	28	0	753926144	76	5259
2026-01-04 11:23:17.57	283.52	33.63	-56.1	-59.0	13.0	0.00e+00	0	28	0	756023296	77	5288
2026-01-04 11:23:18.57	283.88	33.56	-55.7	-58.3	13.4	0.00e+00	0	28	0	758120448	77	4898
2026-01-04 11:23:19.57	284.25	33.50	-55.4	-57.8	13.7	0.00e+00	0	28	0	760217600	77	4642
2026-01-04 11:23:20.56	284.61	33.44	-55.0	-57.2	13.9	0.00e+00	0	28	0	761266176	76	4584
2026-01-04 11:23:21.55	284.97	33.37	-54.9	-57.1	14.0	0.00e+00	0	28	0	763363328	76	4511
2026-01-04 11:23:22.54	285.33	33.31	-54.8	-57.0	14.0	0.00e+00	0	28	0	765460480	76	4492
2026-01-04 11:23:23.54	285.68	33.24	-55.1	-57.5	13.8	0.00e+00	0	28	0	767557632	76	4721
2026-01-04 11:23:24.53	286.04	33.17	-55.2	-57.7	13.6	0.00e+00	0	28	0	769654784	76	4826
2026-01-04 11:23:25.53	286.40	33.10	-55.2	-57.6	13.7	0.00e+00	0	28	0	770703360	76	4777
2026-01-04 11:23:26.52	286.75	33.04	-54.9	-57.2	13.9	0.00e+00	0	28	0	772800512	76	4550
2026-01-04 11:23:27.51	287.10	32.96	-55.1	-57.4	13.8	0.00e+00	0	28	0	774897664	76	4697
2026-01-04 11:23:28.50	287.44	32.89	-55.2	-57.6	13.7	0.00e+00	0	28	0	776994816	76	4793
2026-01-04 11:23:29.49	287.79	32.82	-55.1	-57.5	13.8	0.00e+00	0	28	0	778043392	76	4745
2026-01-04 11:23:30.48	288.14	32.75	-55.1	-57.5	13.8	0.00e+00	0	28	0	780140544	76	4716
2026-01-04 11:23:31.48	288.48	32.67	-54.7	-57.0	14.0	0.00e+00	0	28	0	782237696	76	4448
2026-01-04 11:23:32.47	288.83	32.60	-54.4	-56.6	14.1	0.00e+00	0	28	0	784334848	75	4494
2026-01-04 11:23:33.47	289.17	32.52	-54.3	-56.4	14.2	0.00e+00	0	28	0	786432000	75	4437
2026-01-04 11:23:34.46	289.51	32.44	-54.2	-56.3	14.2	0.00e+00	0	28	0	787480576	74	4622
2026-01-04 11:23:35.46	289.85	32.36	-53.9	-55.8	14.3	0.00e+00	0	28	0	789577728	74	4377
2026-01-04 11:23:36.45	290.18	32.28	-53.1	-54.9	14.5	0.00e+00	0	28	0	791674880	72	4423
2026-01-04 11:23:37.43	290.51	32.20	-53.0	-54.7	14.6	0.00e+00	0	28	0	793772032	72	4335
2026-01-04 11:23:38.42	290.85	32.12	-53.4	-55.2	14.4	0.00e+00	0	28	0	794820608	72	4578
2026-01-04 11:23:39.42	291.18	32.04	-53.5	-55.4	14.3	0.00e+00	0	28	0	796917760	72	4700
2026-01-04 11:23:40.41	291.51	31.96	-53.4	-55.2	14.4	0.00e+00	0	28	0	799014912	72	4591
2026-01-04 11:23:41.40	291.84	31.88	-53.3	-55.1	14.5	0.00e+00	0	28	0	801112064	72	4525
2026-01-04 11:23:42.39	292.16	31.79	-53.0	-54.7	14.6	0.00e+00	0	28	0	803209216	72	4338
2026-01-04 11:23:43.38	292.49	31.71	-52.7	-54.4	14.7	0.00e+00	0	28	0	804257792	72	4173
2026-01-04 11:23:44.38	292.81	31.62	-52.9	-54.6	14.7	0.00e+00	0	28	0	806354944	72	4243
2026-01-04 11:23:45.37	293.13	31.54	-52.9	-54.6	14.7	0.00e+00	0	28	0	808452096	72	4284
2026-01-04 11:23:46.37	293.46	31.45	-52.9	-54.6	14.6	0.00e+00	0	28	0	810549248	72	4257
2026-01-04 11:23:47.36	293.77	31.36	-52.8	-54.4	14.7	0.00e+00	0	28	0	811597824	72	4191
2026-01-04 11:23:48.36	294.09	31.27	-52.8	-54.5	14.6	0.00e+00	0	28	0	813694976	71	4458
2026-01-04 11:23:49.36	294.41	31.18	-52.6	-54.3	14.7	0.00e+00	0	28	0	815792128	71	4356
2026-01-04 11:23:50.36	294.73	31.09	-52.5	-54.1	14.7	0.00e+00	0	28	0	817889280	71	4269
2026-01-04 11:23:51.37	295.04	31.00	-52.8	-54.6	14.6	0.00e+00	0	28	0	819986432	71	4495
2026-01-04 11:23:52.37	295.35	30.91	-52.8	-54.6	14.6	0.00e+00	0	28	0	821035008	71	4508
2026-01-04 11:23:53.35	295.66	30.82	-52.9	-54.6	14.5	0.00e+00	0	28	0	823132160	71	4532
2026-01-04 11:23:54.34	295.96	30.73	-52.8	-54.5	14.6	0.00e+00	0	28	0	825229312	71	4468
2026-01-04 11:23:55.33	296.27	30.63	-52.7	-54.4	14.7	0.00e+00	0	28	0	827326464	71	4414
2026-01-04 11:23:56.33	296.57	30.54	-53.0	-54.7	14.5	0.00e+00	0	28	0	828375040	71	4591
2026-01-04 11:23:57.32	296.87	30.45	-53.1	-55.0	14.4	0.00e+00	0	28	0	830472192	71	4731
2026-01-04 11:23:58.32	297.17	30.35	-53.6	-55.5	14.3	0.00e+00	0	28	0	832569344	72	4725
2026-01-04 11:23:59.32	297.47	30.25	-53.3	-55.2	14.4	0.00e+00	0	28	0	834666496	72	4573
2026-01-04 11:24:00.30	297.77	30.16	-53.1	-54.9	14.5	0.00e+00	0	28	0	836763648	72	4407
2026-01-04 11:24:01.29	298.06	30.06	-52.6	-54.3	14.7	0.00e+00	0	28	0	837812224	71	4362
2026-01-04 11:24:02.29	298.35	29.97	-52.4	-54.0	14.7	0.00e+00	0	28	0	839909376	71	4237
2026-01-04 11:24:03.28	298.64	29.87	-52.7	-54.4	14.6	0.00e+00	0	28	0	842006528	71	4397
2026-01-04 11:24:04.28	298.93	29.77	-53.3	-55.2	14.3	0.00e+00	0	28	0	844103680	71	4833
2026-01-04 11:24:05.27	299.22	29.68	-53.7	-55.7	14.2	0.00e+00	0	28	0	845152256	72	4821
2026-01-04 11:24:06.27	299.51	29.58	-53.8	-55.9	14.2	0.00e+00	0	28	0	847249408	73	4652
2026-01-04 11:24:07.26	299.79	29.48	-53.3	-55.2	14.5	0.00e+00	0	28	0	849346560	73	4308
2026-01-04 11:24:08.25	300.07	29.38	-52.9	-54.7	14.6	0.00e+00	0	28	0	851443712	72	4309
2026-01-04 11:24:09.25	300.36	29.28	-52.6	-54.3	14.7	0.00e+00	0	28	0	853540864	71	4361
2026-01-04 11:24:10.24	300.63	29.18	-52.8	-54.5	14.6	0.00e+00	0	28	0	854589440	71	4467
2026-01-04 11:24:11.23	300.91	29.08	-53.3	-55.1	14.4	0.00e+00	0	28	0	856686592	71	4811
2026-01-04 11:24:12.22	301.18	28.98	-53.6	-55.5	14.3	0.00e+00	0	28	0	858783744	72	4729
2026-01-04 11:24:13.21	301.46	28.88	-53.4	-55.3	14.4	0.00e+00	0	28	0	860880896	72	4636
2026-01-04 11:24:14.21	301.73	28.78	-52.6	-54.2	14.7	0.00e+00	0	28	0	861929472	71	4331
2026-01-04 11:24:15.20	302.00	28.68	-52.0	-53.5	14.8	0.00e+00	0	28	0	864026624	70	4224
2026-01-04 11:24:16.19	302.27	28.58	-51.8	-53.3	14.9	0.00e+00	0	28	0	866123776	70	4143
2026-01-04 11:24:17.19	302.54	28.47	-52.4	-54.0	14.7	0.00e+00	0	28	0	868220928	70	4481
2026-01-04 11:24:18.18	302.80	28.37	-53.4	-55.3	14.3	0.00e+00	0	28	0	869269504	71	4875
2026-01-04 11:24:19.18	303.07	28.27	-53.8	-55.8	14.2	0.00e+00	0	28	0	871366656	72	4876
2026-01-04 11:24:20.17	303.33	28.16	-54.4	-56.5	14.0	0.00e+00	0	28	0	873463808	74	4744
2026-01-04 11:24:21.17	303.59	28.06	-53.8	-55.7	14.4	0.00e+00	0	28	0	875560960	74	4314
2026-01-04 11:24:22.16	303.85	27.96	-53.1	-54.9	14.5	0.00e+00	0	28	0	877658112	72	4409
2026-01-04 11:24:23.15	304.11	27.85	-52.5	-54.1	14.7	0.00e+00	0	28	0	878706688	71	4289
2026-01-04 11:24:24.15	304.36	27.75	-52.5	-54.1	14.8	0.00e+00	0	28	0	880803840	71	4258
2026-01-04 11:24:25.14	304.62	27.65	-53.1	-54.9	14.4	0.00e+00	0	28	0	882900992	71	4674
2026-01-04 11:24:26.14	304.87	27.54	-54.0	-56.0	14.1	0.00e+00	0	28	0	884998144	73	4733
2026-01-04 11:24:27.14	305.12	27.44	-54.8	-57.1	13.8	0.00e+00	0	28	0	887095296	74	5084
2026-01-04 11:24:28.14	305.37	27.33	-54.8	-57.1	13.8	0.00e+00	0	28	0	888143872	75	4812
2026-01-04 11:24:29.14	305.62	27.23	-54.7	-57.0	13.9	0.00e+00	0	28	0	890241024	75	4730
2026-01-04 11:24:30.13	305.87	27.12	-54.4	-56.5	14.1	0.00e+00	0	28	0	892338176	75	4476
2026-01-04 11:24:31.12	306.11	27.02	-53.8	-55.7	14.4	0.00e+00	0	28	0	894435328	74	4332
2026-01-04 11:24:32.11	306.35	26.91	-53.9	-55.9	14.3	0.00e+00	0	28	0	895483904	74	4410
2026-01-04 11:24:33.11	306.59	26.81	-54.4	-56.6	14.0	0.00e+00	0	28	0	897581056	74	4790
2026-01-04 11:24:34.10	306.83	26.70	-54.7	-57.0	13.9	0.00e+00	0	28	0	899678208	74	4990
2026-01-04 11:24:35.09	307.07	26.60	-54.9	-57.2	13.8	0.00e+00	0	28	0	901775360	75	4870
2026-01-04 11:24:36.09	307.31	26.49	-54.7	-57.0	13.9	0.00e+00	0	28	0	903872512	75	4756
2026-01-04 11:24:37.08	307.54	26.39	-54.5	-56.7	14.0	0.00e+00	0	28	0	904921088	75	4557
2026-01-04 11:24:38.08	307.78	26.28	-54.2	-56.2	14.1	0.00e+00	0	28	0	907018240	74	4586
2026-01-04 11:24:39.07	308.01	26.17	-54.3	-56.4	14.1	0.00e+00	0	28	0	909115392	74	4655
2026-01-04 11:24:40.07	308.24	26.07	-54.5	-56.7	13.9	0.00e+00	0	28	0	911212544	74	4843
2026-01-04 11:24:41.06	308.47	25.96	-55.3	-57.8	13.5	0.00e+00	0	28	0	912261120	75	5217
2026-01-04 11:24:42.05	308.70	25.86	-56.2	-59.3	12.9	0.00e+00	0	28	0	914358272	77	5472
2026-01-04 11:24:43.05	308.92	25.75	-56.2	-59.2	12.9	0.00e+00	0	28	0	916455424	77	5457
2026-01-04 11:24:44.04	309.15	25.64	-55.8	-58.6	13.3	0.00e+00	0	28	0	918552576	77	5066
2026-01-04 11:24:45.03	309.37	25.54	-55.0	-57.4	13.8	0.00e+00	0	28	0	919601152	76	4677
2026-01-04 11:24:46.03	309.59	25.43	-54.2	-56.3	14.2	0.00e+00	0	28	0	921698304	75	4357
2026-01-04 11:24:47.02	309.81	25.33	-53.8	-55.8	14.3	0.00e+00	0	28	0	923795456	74	4351
2026-01-04 11:24:48.01	310.03	25.22	-54.0	-56.1	14.2	0.00e+00	0	28	0	925892608	74	4508
2026-01-04 11:24:49.01	310.25	25.11	-54.3	-56.5	14.0	0.00e+00	0	28	0	927989760	74	4736
2026-01-04 11:24:50.00	310.46	25.01	-54.7	-57.0	13.8	0.00e+00	0	28	0	929038336	74	5007
2026-01-04 11:24:50.99	310.68	24.90	-55.0	-57.5	13.6	0.00e+00	0	28	0	931135488	75	5022
2026-01-04 11:24:51.99	310.89	24.79	-54.6	-56.9	13.9	0.00e+00	0	28	0	933232640	75	4684
2026-01-04 11:24:52.98	311.10	24.69	-54.5	-56.8	14.0	0.00e+00	0	28	0	935329792	75	4614
2026-01-04 11:24:53.97	311.31	24.58	-54.0	-56.0	14.2	0.00e+00	0	28	0	936378368	74	4483
2026-01-04 11:24:54.97	311.52	24.48	-53.7	-55.6	14.4	0.00e+00	0	28	0	938475520	74	4290
2026-01-04 11:24:55.96	311.73	24.37	-53.9	-55.9	14.2	0.00e+00	0	28	0	940572672	73	4663
2026-01-04 11:24:56.95	311.93	24.27	-54.2	-56.4	13.9	0.00e+00	0	28	0	942669824	73	4946
2026-01-04 11:24:57.94	312.14	24.16	-54.6	-56.9	13.8	0.00e+00	0	28	0	944766976	74	4983
2026-01-04 11:24:58.94	312.34	24.05	-54.9	-57.4	13.6	0.00e+00	0	28	0	945815552	75	4945
2026-01-04 11:24:59.93	312.54	23.95	-55.0	-57.5	13.6	0.00e+00	0	28	0	947912704	75	4994
2026-01-04 11:25:00.93	312.75	23.84	-54.7	-57.0	13.8	0.00e+00	0	28	0	950009856	75	4720
2026-01-04 11:25:01.92	312.94	23.74	-54.4	-56.6	14.0	0.00e+00	0	28	0	952107008	75	4508
2026-01-04 11:25:02.91	313.14	23.63	-54.0	-56.0	14.2	0.00e+00	0	28	0	953155584	74	4459
2026-01-04 11:25:03.91	313.34	23.53	-53.7	-55.7	14.3	0.00e+00	0	28	0	955252736	73	4558
2026-01-04 11:25:04.90	313.54	23.42	-53.8	-55.8	14.2	0.00e+00	0	28	0	957349888	73	4604
2026-01-04 11:25:05.89	313.73	23.32	-53.9	-55.9	14.2	0.00e+00	0	28	0	959447040	73	4674
2026-01-04 11:25:06.89	313.92	23.21	-53.9	-56.0	14.2	0.00e+00	0	28	0	961544192	73	4712
2026-01-04 11:25:07.89	314.12	23.11	-54.0	-56.0	14.1	0.00e+00	0	28	0	962592768	73	4757
2026-01-04 11:25:08.88	314.31	23.00	-53.8	-55.7	14.2	0.00e+00	0	28	0	964689920	73	4585
2026-01-04 11:25:09.88	314.50	22.90	-53.3	-55.2	14.5	0.00e+00	0	28	0	966787072	73	4304
2026-01-04 11:25:10.88	314.69	22.79	-52.7	-54.4	14.7	0.00e+00	0	28	0	968884224	72	4154
2026-01-04 11:25:11.87	314.87	22.69	-51.9	-53.4	14.9	0.00e+00	0	28	0	969932800	70	4173
2026-01-04 11:25:12.87	315.06	22.58	-51.6	-53.1	14.9	0.00e+00	0	28	0	972029952	69	4245
2026-01-04 11:25:13.85	315.24	22.48	-51.4	-52.8	15.0	0.00e+00	0	28	0	974127104	69	4131
2026-01-04 11:25:14.85	315.42	22.37	-51.7	-53.2	14.9	0.00e+00	0	28	0	976224256	69	4318
2026-01-04 11:25:15.85	315.61	22.27	-52.1	-53.7	14.7	0.00e+00	0	28	0	978321408	69	4575
2026-01-04 11:25:16.86	315.79	22.16	-52.8	-54.6	14.5	0.00e+00	0	28	0	979369984	70	4762
2026-01-04 11:25:17.85	315.97	22.06	-53.1	-55.0	14.3	0.00e+00	0	28	0	981467136	71	4735
2026-01-04 11:25:18.85	316.15	21.96	-53.5	-55.4	14.3	0.00e+00	0	28	0	983564288	72	4674
2026-01-04 11:25:19.85	316.33	21.85	-53.5	-55.4	14.3	0.00e+00	0	28	0	985661440	72	4702
2026-01-04 11:25:20.85	316.51	21.75	-53.3	-55.2	14.4	0.00e+00	0	28	0	987758592	72	4582
2026-01-04 11:25:21.84	316.68	21.65	-53.0	-54.8	14.5	0.00e+00	0	28	0	988807168	72	4346
2026-01-04 11:25:22.84	316.86	21.54	-52.7	-54.4	14.7	0.00e+00	0	28	0	990904320	72	4178
2026-01-04 11:25:23.82	317.03	21.44	-52.6	-54.3	14.6	0.00e+00	0	28	0	993001472	71	4357
2026-01-04 11:25:24.82	317.20	21.34	-52.5	-54.1	14.7	0.00e+00	0	28	0	995098624	71	4272
2026-01-04 11:25:25.81	317.37	21.24	-52.3	-54.0	14.7	0.00e+00	0	28	0	996147200	71	4198
2026-01-04 11:25:26.81	317.54	21.13	-52.4	-54.1	14.7	0.00e+00	0	28	0	998244352	71	4273
2026-01-04 11:25:27.80	317.71	21.03	-52.3	-54.0	14.7	0.00e+00	0	28	0	1000341504	71	4212
2026-01-04 11:25:28.79	317.87	20.93	-52.3	-54.0	14.7	0.00e+00	0	28	0	1002438656	71	4218
2026-01-04 11:25:29.79	318.04	20.83	-52.3	-53.9	14.8	0.00e+00	0	28	0	1004535808	71	4192
2026-01-04 11:25:30.78	318.21	20.73	-52.1	-53.7	14.7	0.00e+00	0	28	0	1005584384	70	4337
2026-01-04 11:25:31.78	318.37	20.62	-52.3	-53.9	14.6	0.00e+00	0	28	0	1007681536	70	4438
2026-01-04 11:25:32.77	318.53	20.52	-52.2	-53.9	14.7	0.00e+00	0	28	0	1009778688	70	4413
2026-01-04 11:25:33.77	318.70	20.42	-52.2	-53.8	14.7	0.00e+00	0	28	0	1011875840	70	4378
2026-01-04 11:25:34.76	318.86	20.32	-52.2	-53.9	14.7	0.00e+00	0	28	0	1012924416	70	4409
2026-01-04 11:25:35.76	319.02	20.22	-52.2	-53.8	14.7	0.00e+00	0	28	0	1015021568	70	4364
2026-01-04 11:25:36.76	319.18	20.12	-52.2	-53.9	14.7	0.00e+00	0	28	0	1017118720	70	4399
2026-01-04 11:25:37.75	319.33	20.02	-52.2	-53.8	14.7	0.00e+00	0	28	0	1019215872	70	4388
2026-01-04 11:25:38.75	319.49	19.92	-52.3	-54.0	14.6	0.00e+00	0	28	0	1021313024	70	4461
2026-01-04 11:25:39.74	319.65	19.82	-52.4	-54.0	14.6	0.00e+00	0	28	0	1022361600	70	4487
2026-01-04 11:25:40.73	319.80	19.72	-52.3	-54.0	14.6	0.00e+00	0	28	0	1024458752	70	4483
2026-01-04 11:25:41.73	319.96	19.62	-52.3	-54.0	14.6	0.00e+00	0	28	0	1026555904	70	4476
2026-01-04 11:25:42.73	320.11	19.52	-52.4	-54.1	14.6	0.00e+00	0	28	0	1028653056	70	4520
2026-01-04 11:25:43.73	320.26	19.42	-52.4	-54.1	14.6	0.00e+00	0	28	0	1029701632	70	4498
2026-01-04 11:25:44.72	320.42	19.32	-52.3	-54.0	14.6	0.00e+00	0	28	0	1031798784	70	4459
2026-01-04 11:25:45.70	320.56	19.22	-52.4	-54.1	14.6	0.00e+00	0	28	0	1033895936	70	4534
2026-01-04 11:25:46.68	320.71	19.13	-52.0	-53.6	14.8	0.00e+00	0	28	0	1035993088	70	4269
2026-01-04 11:25:47.68	320.86	19.03	-51.8	-53.4	14.8	0.00e+00	0	28	0	1037041664	70	4178
2026-01-04 11:25:48.67	321.01	18.93	-51.7	-53.3	14.9	0.00e+00	0	28	0	1039138816	70	4119
2026-01-04 11:25:49.67	321.15	18.83	-51.4	-52.9	14.9	0.00e+00	0	28	0	1041235968	69	4178
2026-01-04 11:25:50.66	321.30	18.73	-51.3	-52.8	14.9	0.00e+00	0	28	0	1043333120	69	4131
2026-01-04 11:25:51.65	321.44	18.64	-51.3	-52.8	14.9	0.00e+00	0	28	0	1045430272	69	4138
2026-01-04 11:25:52.65	321.59	18.54	-51.1	-52.6	14.9	0.00e+00	0	28	0	1046478848	68	4264
2026-01-04 11:25:53.65	321.73	18.44	-51.3	-52.8	14.8	0.00e+00	0	28	0	1048576000	68	4371
2026-01-04 11:25:54.63	321.87	18.35	-51.4	-52.9	14.8	0.00e+00	0	28	0	1050673152	68	4403
2026-01-04 11:25:55.63	322.01	18.25	-51.6	-53.1	14.7	0.00e+00	0	28	0	1052770304	68	4534
2026-01-04 11:25:56.62	322.15	18.15	-51.9	-53.6	14.7	0.00e+00	0	28	0	1053818880	69	4497
2026-01-04 11:25:57.62	322.29	18.06	-52.0	-53.7	14.6	0.00e+00	0	28	0	1055916032	69	4558
2026-01-04 11:25:58.61	322.43	17.96	-52.1	-53.7	14.6	0.00e+00	0	28	0	1058013184	69	4588
2026-01-04 11:25:59.60	322.57	17.87	-52.2	-53.8	14.6	0.00e+00	0	28	0	1060110336	69	4642
2026-01-04 11:26:00.59	322.71	17.77	-52.2	-53.8	14.6	0.00e+00	0	28	0	1062207488	69	4646
2026-01-04 11:26:01.59	322.84	17.68	-52.1	-53.8	14.6	0.00e+00	0	28	0	1063256064	69	4618
2026-01-04 11:26:02.58	322.98	17.58	-52.0	-53.7	14.6	0.00e+00	0	28	0	1065353216	69	4554
2026-01-04 11:26:03.57	323.11	17.49	-52.0	-53.6	14.6	0.00e+00	0	28	0	1067450368	69	4532
2026-01-04 11:26:04.57	323.25	17.39	-52.1	-53.7	14.6	0.00e+00	0	28	0	1069547520	69	4596
2026-01-04 11:26:05.56	323.38	17.30	-52.0	-53.6	14.6	0.00e+00	0	28	0	1070596096	69	4502
2026-01-04 11:26:06.56	323.51	17.20	-52.2	-53.9	14.5	0.00e+00	0	28	0	1072693248	69	4686
2026-01-04 11:26:07.55	323.64	17.11	-52.5	-54.2	14.5	0.00e+00	0	28	0	1074790400	70	4564
2026-01-04 11:26:08.55	323.77	17.02	-52.5	-54.3	14.5	0.00e+00	0	28	0	1076887552	70	4622
2026-01-04 11:26:09.54	323.90	16.92	-52.9	-54.7	14.3	0.00e+00	0	28	0	1078984704	70	4868
2026-01-04 11:26:10.54	324.03	16.83	-53.0	-54.8	14.4	0.00e+00	0	28	0	1080033280	71	4651
2026-01-04 11:26:11.53	324.16	16.74	-53.1	-55.1	14.3	0.00e+00	0	28	0	1082130432	71	4765
2026-01-04 11:26:12.52	324.29	16.64	-53.5	-55.5	14.1	0.00e+00	0	28	0	1084227584	72	4745
2026-01-04 11:26:13.52	324.41	16.55	-53.5	-55.5	14.1	0.00e+00	0	28	0	1086324736	72	4738
2026-01-04 11:26:14.53	324.54	16.46	-53.7	-55.8	14.0	0.00e+00	0	28	0	1087373312	72	4891
2026-01-04 11:26:15.52	324.67	16.36	-53.9	-56.0	14.0	0.00e+00	0	28	0	1089470464	73	4752
2026-01-04 11:26:16.52	324.79	16.27	-53.7	-55.8	14.1	0.00e+00	0	28	0	1091567616	73	4647
2026-01-04 11:26:17.51	324.92	16.18	-53.8	-55.9	14.1	0.00e+00	0	28	0	1093664768	73	4695
2026-01-04 11:26:18.50	325.04	16.09	-53.7	-55.9	14.1	0.00e+00	0	28	0	1095761920	73	4659
2026-01-04 11:26:19.50	325.16	16.00	-53.7	-55.8	14.1	0.00e+00	0	28	0	1096810496	73	4633
2026-01-04 11:26:20.49	325.28	15.91	-53.6	-55.7	14.2	0.00e+00	0	28	0	1098907648	73	4569
2026-01-04 11:26:21.48	325.40	15.82	-53.4	-55.4	14.3	0.00e+00	0	28	0	1101004800	73	4397
2026-01-04 11:26:22.48	325.52	15.73	-53.4	-55.4	14.3	0.00e+00	0	28	0	1103101952	73	4418
2026-01-04 11:26:23.47	325.64	15.64	-53.5	-55.5	14.3	0.00e+00	0	28	0	1104150528	73	4453
2026-01-04 11:26:24.47	325.76	15.55	-53.1	-55.1	14.3	0.00e+00	0	28	0	1106247680	72	4494
2026-01-04 11:26:25.46	325.88	15.46	-53.2	-55.2	14.3	0.00e+00	0	28	0	1108344832	72	4552
2026-01-04 11:26:26.46	326.00	15.37	-53.3	-55.3	14.2	0.00e+00	0	28	0	1110441984	72	4619
2026-01-04 11:26:27.46	326.12	15.28	-53.5	-55.5	14.1	0.00e+00	0	29	0	1112539136	72	4712
2026-01-04 11:26:28.45	326.23	15.19	-53.5	-55.6	14.1	0.00e+00	0	28	0	1113587712	72	4785
2026-01-04 11:26:29.43	326.34	15.10	-53.5	-55.5	14.1	0.00e+00	0	28	0	1115684864	72	4746
2026-01-04 11:26:30.42	326.46	15.01	-53.5	-55.6	14.1	0.00e+00	0	28	0	1117782016	72	4760
2026-01-04 11:26:31.42	326.57	14.92	-53.4	-55.5	14.1	0.00e+00	0	28	0	1119879168	72	4710
2026-01-04 11:26:32.41	326.69	14.83	-53.4	-55.4	14.2	0.00e+00	0	28	0	1120927744	72	4652
2026-01-04 11:26:33.41	326.80	14.74	-53.4	-55.4	14.2	0.00e+00	0	28	0	1123024896	72	4693
2026-01-04 11:26:34.40	326.91	14.66	-53.3	-55.2	14.3	0.00e+00	0	28	0	1125122048	72	4583
2026-01-04 11:26:35.39	327.02	14.57	-53.2	-55.1	14.3	0.00e+00	0	28	0	1127219200	72	4518
2026-01-04 11:26:36.39	327.13	14.48	-52.9	-54.8	14.4	0.00e+00	0	28	0	1129316352	72	4369
2026-01-04 11:26:37.38	327.24	14.40	-52.8	-54.7	14.5	0.00e+00	0	28	0	1130364928	72	4317
2026-01-04 11:26:38.38	327.35	14.31	-52.7	-54.5	14.4	0.00e+00	0	28	0	1132462080	71	4479
2026-01-04 11:26:39.37	327.46	14.22	-52.5	-54.2	14.6	0.00e+00	0	28	0	1134559232	71	4326
2026-01-04 11:26:40.37	327.57	14.13	-52.3	-54.1	14.6	0.00e+00	0	28	0	1136656384	71	4252
2026-01-04 11:26:41.36	327.68	14.05	-52.4	-54.1	14.6	0.00e+00	0	28	0	1137704960	71	4282
2026-01-04 11:26:42.36	327.79	13.96	-52.4	-54.1	14.6	0.00e+00	0	28	0	1139802112	71	4290
2026-01-04 11:26:43.36	327.90	13.87	-52.5	-54.2	14.6	0.00e+00	0	28	0	1141899264	71	4338
2026-01-04 11:26:44.34	328.00	13.79	-52.5	-54.3	14.5	0.00e+00	0	28	0	1143996416	71	4361
2026-01-04 11:26:45.34	328.11	13.70	-52.8	-54.6	14.4	0.00e+00	0	28	0	1146093568	71	4521
2026-01-04 11:26:46.34	328.21	13.62	-52.8	-54.6	14.4	0.00e+00	0	28	0	1147142144	71	4534
2026-01-04 11:26:47.33	328.32	13.53	-52.9	-54.9	14.3	0.00e+00	0	28	0	1149239296	71	4655
2026-01-04 11:26:48.33	328.42	13.45	-53.1	-55.0	14.2	0.00e+00	0	28	0	1151336448	71	4738
2026-01-04 11:26:49.33	328.52	13.36	-53.2	-55.2	14.2	0.00e+00	0	28	0	1153433600	71	4851
2026-01-04 11:26:50.32	328.63	13.28	-53.3	-55.3	14.1	0.00e+00	0	28	0	1155530752	71	4916
2026-01-04 11:26:51.31	328.73	13.20	-53.3	-55.4	14.1	0.00e+00	0	28	0	1156579328	72	4671
2026-01-04 11:26:52.30	328.83	13.11	-53.3	-55.3	14.2	0.00e+00	0	28	0	1158676480	72	4631
2026-01-04 11:26:53.30	328.93	13.03	-53.2	-55.3	14.2	0.00e+00	0	28	0	1160773632	72	4600
2026-01-04 11:26:54.29	329.03	12.94	-53.2	-55.2	14.2	0.00e+00	0	28	0	1162870784	72	4566
2026-01-04 11:26:55.28	329.13	12.86	-53.1	-55.0	14.3	0.00e+00	0	28	0	1163919360	72	4472
2026-01-04 11:26:56.27	329.23	12.78	-53.0	-54.9	14.4	0.00e+00	0	28	0	1166016512	72	4423
2026-01-04 11:26:57.26	329.33	12.70	-52.9	-54.8	14.4	0.00e+00	0	28	0	1168113664	72	4350
2026-01-04 11:26:58.26	329.43	12.61	-52.8	-54.7	14.5	0.00e+00	0	28	0	1170210816	72	4327
2026-01-04 11:26:59.25	329.52	12.53	-52.9	-54.8	14.4	0.00e+00	0	28	0	1172307968	72	4358
2026-01-04 11:27:00.24	329.62	12.45	-52.9	-54.7	14.4	0.00e+00	0	28	0	1173356544	72	4337
2026-01-04 11:27:01.23	329.72	12.37	-52.9	-54.8	14.4	0.00e+00	0	28	0	1175453696	72	4358
2026-01-04 11:27:02.23	329.81	12.28	-52.9	-54.8	14.4	0.00e+00	0	28	0	1177550848	72	4341
2026-01-04 11:27:03.22	329.91	12.20	-52.9	-54.8	14.4	0.00e+00	0	28	0	1179648000	72	4348
2026-01-04 11:27:04.22	330.01	12.12	-53.1	-55.1	14.3	0.00e+00	0	28	0	1180696576	72	4511
2026-01-04 11:27:05.21	330.10	12.04	-53.1	-55.1	14.3	0.00e+00	0	28	0	1182793728	72	4510
