passes_logs/2026/01/04/R3.2S_Murmansk/R3.2S_Murmansk__20260104_093431_SUOMI_NPP_rec.log

#Pass ID: 20260104_093431_SUOMI NPP
#Satellite: SUOMI NPP
#Configuration: NPP
#almurnet v.1.7.20251203
#Start time: 2026-01-04 09:34:32

#Version: 2.2.20231116
#Station: R3.2S_Murmansk
#Location: 33.079688 lon 68.888172 lat
#TLE: 1 37849U 11061A   26001.07732418  .00000182  00000+0  10735-3 0  9990
#TLE: 2 37849  98.7795 303.2470 0002580  87.2016 272.9455 14.19520779734739

#Time	Az	El	Level	Level2	SNR	BER	BlckErr	Temp	State	Recorded	gain1	gain2
2026-01-04 09:34:32.37	151.24	2.07	-58.5	-74.5	3.8	1.49e+00	0	26	0	0	83	22396
2026-01-04 09:34:33.38	151.24	2.14	-58.4	-74.5	3.8	1.49e+00	0	26	104	0	82	23671
2026-01-04 09:34:34.38	151.24	2.20	-58.5	-74.5	3.8	1.49e+00	0	26	104	0	82	23606
2026-01-04 09:34:35.39	151.25	2.27	-58.4	-74.5	3.8	1.49e+00	0	26	104	0	82	23643
2026-01-04 09:34:36.40	151.25	2.33	-58.5	-74.5	3.8	1.49e+00	0	26	104	0	82	23682
2026-01-04 09:34:37.41	151.25	2.40	-58.5	-74.5	3.8	1.49e+00	0	26	104	0	82	23686
2026-01-04 09:34:38.42	151.25	2.47	-58.5	-74.5	3.8	1.49e+00	0	27	104	0	82	23667
2026-01-04 09:34:39.43	151.26	2.53	-58.5	-74.5	3.8	1.49e+00	0	26	104	0	82	23628
2026-01-04 09:34:40.44	151.26	2.60	-58.5	-74.5	3.9	1.49e+00	0	27	104	0	82	23583
2026-01-04 09:34:41.45	151.26	2.66	-58.5	-74.5	3.8	1.49e+00	0	27	104	0	82	23598
2026-01-04 09:34:42.45	151.26	2.73	-58.5	-74.5	3.8	1.49e+00	0	27	104	0	82	23589
2026-01-04 09:34:43.46	151.27	2.80	-58.5	-74.4	3.8	1.49e+00	0	27	104	0	82	23567
2026-01-04 09:34:44.47	151.27	2.86	-58.5	-74.4	3.8	1.49e+00	0	27	104	0	82	23513
2026-01-04 09:34:45.49	151.27	2.93	-58.5	-74.4	3.8	1.49e+00	0	27	104	0	82	23559
2026-01-04 09:34:46.50	151.27	3.00	-58.5	-74.5	3.8	1.49e+00	0	27	104	0	82	23597
2026-01-04 09:34:47.50	151.28	3.06	-58.5	-74.4	3.8	1.49e+00	0	27	104	0	82	23514
2026-01-04 09:34:48.51	151.28	3.13	-58.5	-74.4	3.9	1.49e+00	0	27	104	0	82	23447
2026-01-04 09:34:49.52	151.28	3.20	-58.5	-74.4	3.8	1.49e+00	0	27	104	0	82	23448
2026-01-04 09:34:50.53	151.28	3.27	-58.5	-74.3	3.8	1.49e+00	0	27	104	0	82	23202
2026-01-04 09:34:51.54	151.29	3.34	-58.5	-74.2	3.8	1.49e+00	0	27	104	0	82	22844
2026-01-04 09:34:52.54	151.29	3.40	-58.4	-73.9	3.8	1.49e+00	0	27	104	0	82	22092
2026-01-04 09:34:53.55	151.29	3.47	-58.4	-73.4	3.8	1.49e+00	0	27	104	0	82	20840
2026-01-04 09:34:54.56	151.29	3.54	-58.4	-73.0	3.8	1.49e+00	0	27	104	0	82	19889
2026-01-04 09:34:55.57	151.29	3.61	-58.3	-72.1	3.8	1.49e+00	0	27	104	0	82	17896
2026-01-04 09:34:56.57	151.30	3.68	-58.3	-70.9	4.2	1.45e+00	0	27	0	0	82	15618
2026-01-04 09:34:57.58	151.30	3.75	-58.3	-70.4	4.3	1.34e+00	92	27	0	0	82	14848
2026-01-04 09:34:58.59	151.30	3.81	-58.2	-69.8	4.6	1.07e+00	0	27	0	1048576	82	13761
2026-01-04 09:34:59.60	151.30	3.88	-58.2	-69.0	4.9	7.91e-01	0	27	0	3145728	82	12644
2026-01-04 09:35:00.61	151.31	3.95	-58.1	-68.3	5.2	6.15e-01	0	27	0	5242880	82	11657
2026-01-04 09:35:01.62	151.31	4.02	-58.0	-67.7	5.6	5.93e-01	0	27	0	7340032	82	10897
2026-01-04 09:35:02.63	151.31	4.09	-58.0	-67.5	5.7	3.69e-01	0	27	0	9437184	82	10574
2026-01-04 09:35:03.64	151.31	4.16	-57.8	-66.5	6.3	2.48e-01	0	27	0	10485760	81	10026
2026-01-04 09:35:04.65	151.32	4.23	-57.7	-65.8	6.8	1.44e-01	0	27	0	12582912	81	9260
2026-01-04 09:35:05.66	151.32	4.30	-57.6	-65.0	7.6	8.60e-02	0	27	0	14680064	81	8372
2026-01-04 09:35:06.67	151.32	4.37	-57.4	-64.3	8.1	4.02e-02	0	27	0	16777216	80	8235
2026-01-04 09:35:07.67	151.32	4.44	-57.2	-63.6	8.7	2.11e-02	0	27	0	18874368	80	7627
2026-01-04 09:35:08.68	151.33	4.52	-57.1	-63.1	9.2	1.03e-02	0	27	0	20971520	80	7178
2026-01-04 09:35:09.69	151.33	4.59	-57.0	-62.8	9.4	7.26e-03	0	27	0	22020096	80	6936
2026-01-04 09:35:10.70	151.33	4.66	-56.9	-62.4	9.7	3.18e-03	0	27	0	24117248	80	6624
2026-01-04 09:35:11.71	151.33	4.73	-56.9	-62.4	9.8	2.07e-03	0	27	0	26214400	80	6580
2026-01-04 09:35:12.72	151.33	4.80	-56.7	-62.0	10.1	1.83e-03	0	27	0	28311552	80	6294
2026-01-04 09:35:13.73	151.34	4.87	-56.8	-62.0	10.1	1.60e-03	0	27	0	30408704	80	6327
2026-01-04 09:35:14.74	151.34	4.95	-56.8	-62.3	9.8	2.38e-03	0	27	0	31457280	80	6537
2026-01-04 09:35:15.75	151.34	5.02	-57.0	-62.6	9.5	3.00e-03	0	27	0	33554432	80	6801
2026-01-04 09:35:16.76	151.34	5.09	-57.2	-63.2	9.3	1.69e-03	0	27	0	35651584	80	7245
2026-01-04 09:35:17.76	151.35	5.16	-57.4	-63.8	8.7	1.55e-02	0	27	0	37748736	80	7731
2026-01-04 09:35:18.76	151.35	5.23	-57.9	-67.6	5.9	5.40e-03	0	27	0	39845888	80	11979
2026-01-04 09:35:19.77	151.35	5.31	-58.3	-69.7	4.6	9.71e-01	0	27	0	39845888	81	14406
2026-01-04 09:35:20.77	151.35	5.38	-55.8	-59.6	11.8	2.50e-01	0	27	0	41943040	78	5374
2026-01-04 09:35:21.79	151.36	5.45	-55.6	-59.3	12.0	4.50e-06	0	27	0	42991616	77	5485
2026-01-04 09:35:22.79	151.36	5.53	-55.8	-59.6	11.8	5.30e-06	0	27	0	45088768	77	5691
2026-01-04 09:35:23.79	151.36	5.60	-55.7	-59.5	11.8	7.60e-06	0	27	0	47185920	77	5649
2026-01-04 09:35:24.80	151.36	5.67	-55.7	-59.4	11.9	3.00e-06	0	27	0	49283072	77	5584
2026-01-04 09:35:25.81	151.36	5.75	-55.7	-59.5	11.9	3.00e-06	0	27	0	50331648	77	5613
2026-01-04 09:35:26.82	151.37	5.82	-55.7	-59.4	12.0	2.20e-06	0	27	0	52428800	77	5547
2026-01-04 09:35:27.82	151.37	5.90	-55.7	-59.4	12.0	1.50e-06	0	27	0	54525952	77	5570
2026-01-04 09:35:28.83	151.37	5.97	-55.6	-59.3	12.1	3.00e-06	0	27	0	56623104	77	5494
2026-01-04 09:35:29.84	151.37	6.05	-55.6	-59.3	12.1	1.50e-06	0	27	0	58720256	77	5487
2026-01-04 09:35:30.85	151.38	6.12	-55.6	-59.2	12.1	2.20e-06	0	27	0	59768832	77	5444
2026-01-04 09:35:31.86	151.38	6.20	-55.6	-59.1	12.2	1.50e-06	0	28	0	61865984	77	5377
2026-01-04 09:35:32.86	151.38	6.27	-55.5	-59.0	12.2	1.50e-06	0	27	0	63963136	77	5330
2026-01-04 09:35:33.87	151.38	6.35	-55.6	-59.1	12.2	7.00e-07	0	27	0	66060288	77	5394
2026-01-04 09:35:34.88	151.38	6.43	-55.5	-58.9	12.3	0.00e+00	0	27	0	68157440	77	5260
2026-01-04 09:35:35.89	151.39	6.50	-55.6	-59.1	12.2	0.00e+00	0	27	0	70254592	77	5379
2026-01-04 09:35:36.90	151.39	6.58	-55.6	-59.0	12.3	0.00e+00	0	28	0	71303168	77	5335
2026-01-04 09:35:37.90	151.39	6.66	-55.6	-59.0	12.3	0.00e+00	0	28	0	73400320	77	5321
2026-01-04 09:35:38.91	151.39	6.73	-55.5	-59.0	12.3	7.00e-07	0	28	0	75497472	77	5296
2026-01-04 09:35:39.92	151.40	6.81	-55.6	-59.0	12.3	1.50e-06	0	27	0	77594624	77	5317
2026-01-04 09:35:40.93	151.40	6.89	-55.4	-58.8	12.5	0.00e+00	0	28	0	79691776	77	5164
2026-01-04 09:35:41.94	151.40	6.97	-55.4	-58.7	12.5	0.00e+00	0	28	0	80740352	77	5149
2026-01-04 09:35:42.95	151.40	7.04	-55.5	-58.9	12.4	0.00e+00	0	28	0	82837504	77	5247
2026-01-04 09:35:43.96	151.40	7.12	-55.4	-58.7	12.5	0.00e+00	0	28	0	84934656	77	5137
2026-01-04 09:35:44.96	151.41	7.20	-55.4	-58.8	12.5	7.00e-07	0	28	0	87031808	77	5165
2026-01-04 09:35:45.96	151.41	7.28	-55.5	-58.9	12.4	0.00e+00	0	28	0	89128960	77	5249
2026-01-04 09:35:46.97	151.41	7.36	-55.4	-58.8	12.5	0.00e+00	0	28	0	90177536	77	5166
2026-01-04 09:35:47.98	151.41	7.44	-55.4	-58.7	12.6	0.00e+00	0	28	0	92274688	77	5148
2026-01-04 09:35:48.99	151.41	7.52	-55.5	-58.9	12.5	0.00e+00	0	28	0	94371840	77	5221
2026-01-04 09:35:49.99	151.42	7.60	-55.3	-58.5	12.7	7.00e-07	0	28	0	96468992	77	5037
2026-01-04 09:35:51.00	151.42	7.68	-55.5	-58.8	12.5	0.00e+00	0	27	0	98566144	77	5180
2026-01-04 09:35:52.01	151.42	7.76	-55.5	-58.8	12.5	1.50e-06	0	28	0	99614720	77	5206
2026-01-04 09:35:53.01	151.42	7.84	-55.3	-58.5	12.7	0.00e+00	0	28	0	101711872	77	5034
2026-01-04 09:35:54.02	151.42	7.92	-55.3	-58.5	12.7	0.00e+00	0	28	0	103809024	77	5007
2026-01-04 09:35:55.03	151.43	8.00	-55.2	-58.3	12.9	0.00e+00	0	28	0	105906176	77	4888
2026-01-04 09:35:56.04	151.43	8.08	-55.2	-58.2	12.9	0.00e+00	0	28	0	108003328	77	4869
2026-01-04 09:35:57.05	151.43	8.16	-55.1	-58.0	12.9	0.00e+00	0	28	0	109051904	76	5041
2026-01-04 09:35:58.06	151.43	8.24	-55.1	-58.1	12.9	0.00e+00	0	28	0	111149056	76	5049
2026-01-04 09:35:59.07	151.43	8.33	-55.1	-58.1	12.9	0.00e+00	0	28	0	113246208	76	5081
2026-01-04 09:36:00.08	151.44	8.41	-55.1	-58.0	13.0	0.00e+00	0	28	0	115343360	76	5025
2026-01-04 09:36:01.08	151.44	8.49	-55.0	-57.9	13.0	0.00e+00	0	28	0	117440512	76	4937
2026-01-04 09:36:02.09	151.44	8.57	-55.1	-58.0	13.0	0.00e+00	0	28	0	118489088	76	5009
2026-01-04 09:36:03.09	151.44	8.66	-55.1	-58.0	13.0	0.00e+00	0	28	0	120586240	76	5020
2026-01-04 09:36:04.10	151.44	8.74	-55.1	-58.0	13.0	0.00e+00	0	28	0	122683392	76	5016
2026-01-04 09:36:05.11	151.45	8.82	-55.0	-57.9	13.1	0.00e+00	0	28	0	124780544	76	4968
2026-01-04 09:36:06.12	151.45	8.91	-55.0	-57.8	13.1	0.00e+00	0	28	0	126877696	76	4908
2026-01-04 09:36:07.13	151.45	8.99	-55.0	-57.9	13.0	0.00e+00	0	28	0	127926272	76	4965
2026-01-04 09:36:08.14	151.45	9.08	-54.9	-57.7	13.2	0.00e+00	0	28	0	130023424	76	4852
2026-01-04 09:36:09.14	151.45	9.16	-54.9	-57.7	13.2	0.00e+00	0	28	0	132120576	76	4832
2026-01-04 09:36:10.15	151.46	9.25	-54.9	-57.7	13.2	0.00e+00	0	28	0	134217728	76	4849
2026-01-04 09:36:11.17	151.46	9.33	-55.0	-57.8	13.2	0.00e+00	0	28	0	136314880	76	4891
2026-01-04 09:36:12.18	151.46	9.42	-54.9	-57.7	13.2	0.00e+00	0	28	0	137363456	76	4833
2026-01-04 09:36:13.19	151.46	9.50	-54.9	-57.7	13.2	0.00e+00	0	28	0	139460608	76	4827
2026-01-04 09:36:14.19	151.46	9.59	-54.9	-57.6	13.2	0.00e+00	0	28	0	141557760	76	4803
2026-01-04 09:36:15.20	151.47	9.68	-54.9	-57.8	13.2	0.00e+00	0	28	0	143654912	76	4880
2026-01-04 09:36:16.21	151.47	9.76	-54.9	-57.7	13.2	0.00e+00	0	28	0	145752064	76	4831
2026-01-04 09:36:17.21	151.47	9.85	-54.9	-57.7	13.2	0.00e+00	0	28	0	146800640	76	4852
2026-01-04 09:36:18.22	151.47	9.94	-54.9	-57.6	13.3	0.00e+00	0	28	0	148897792	76	4802
2026-01-04 09:36:19.22	151.47	10.03	-54.8	-57.6	13.3	0.00e+00	0	28	0	150994944	76	4761
2026-01-04 09:36:20.22	151.48	10.11	-54.8	-57.6	13.3	0.00e+00	0	28	0	153092096	76	4771
2026-01-04 09:36:21.23	151.48	10.20	-54.8	-57.4	13.4	0.00e+00	0	28	0	155189248	76	4697
2026-01-04 09:36:22.24	151.48	10.29	-54.8	-57.4	13.4	0.00e+00	0	28	0	156237824	76	4697
2026-01-04 09:36:23.24	151.48	10.38	-54.5	-57.2	13.4	0.00e+00	0	28	0	158334976	75	4816
2026-01-04 09:36:24.25	151.48	10.47	-54.5	-57.1	13.4	0.00e+00	0	28	0	160432128	75	4804
2026-01-04 09:36:25.26	151.48	10.56	-54.5	-57.1	13.5	0.00e+00	0	28	0	162529280	75	4766
2026-01-04 09:36:26.27	151.49	10.65	-54.4	-57.0	13.5	0.00e+00	0	28	0	164626432	75	4730
2026-01-04 09:36:27.27	151.49	10.74	-54.4	-56.9	13.5	0.00e+00	0	28	0	165675008	75	4687
2026-01-04 09:36:28.28	151.49	10.83	-54.4	-56.9	13.6	0.00e+00	0	28	0	167772160	75	4694
2026-01-04 09:36:29.29	151.49	10.92	-54.4	-56.9	13.6	0.00e+00	0	28	0	169869312	75	4704
2026-01-04 09:36:30.29	151.49	11.01	-54.3	-56.8	13.6	0.00e+00	0	28	0	171966464	75	4650
2026-01-04 09:36:31.30	151.49	11.10	-54.3	-56.8	13.6	0.00e+00	0	28	0	174063616	75	4643
2026-01-04 09:36:32.30	151.50	11.19	-54.3	-56.7	13.6	0.00e+00	0	28	0	175112192	74	4845
2026-01-04 09:36:33.31	151.50	11.29	-54.2	-56.7	13.6	0.00e+00	0	28	0	177209344	74	4840
2026-01-04 09:36:34.31	151.50	11.38	-54.2	-56.6	13.6	0.00e+00	0	28	0	179306496	74	4809
2026-01-04 09:36:35.32	151.50	11.47	-54.2	-56.6	13.7	0.00e+00	0	28	0	181403648	74	4796
2026-01-04 09:36:36.33	151.50	11.57	-54.3	-56.7	13.6	0.00e+00	0	28	0	183500800	74	4847
2026-01-04 09:36:37.34	151.51	11.66	-54.0	-56.4	13.8	0.00e+00	0	28	0	184549376	74	4664
2026-01-04 09:36:38.34	151.51	11.75	-54.1	-56.5	13.7	0.00e+00	0	28	0	186646528	74	4707
2026-01-04 09:36:39.35	151.51	11.85	-54.1	-56.5	13.7	0.00e+00	0	28	0	188743680	74	4707
2026-01-04 09:36:40.36	151.51	11.94	-53.9	-56.2	13.9	0.00e+00	0	28	0	190840832	74	4571
2026-01-04 09:36:41.37	151.51	12.04	-53.9	-56.2	13.9	0.00e+00	0	28	0	192937984	74	4586
2026-01-04 09:36:42.37	151.51	12.13	-53.9	-56.2	13.9	0.00e+00	0	28	0	193986560	74	4584
2026-01-04 09:36:43.38	151.51	12.23	-53.9	-56.2	13.9	0.00e+00	0	28	0	196083712	74	4578
2026-01-04 09:36:44.39	151.52	12.33	-53.9	-56.2	13.9	0.00e+00	0	28	0	198180864	74	4550
2026-01-04 09:36:45.40	151.52	12.42	-53.9	-56.2	13.9	0.00e+00	0	28	0	200278016	74	4555
2026-01-04 09:36:46.41	151.52	12.52	-54.0	-56.3	13.8	0.00e+00	0	28	0	202375168	74	4636
2026-01-04 09:36:47.42	151.52	12.62	-53.7	-55.9	14.0	0.00e+00	0	28	0	203423744	74	4427
2026-01-04 09:36:48.43	151.52	12.72	-53.8	-56.0	14.0	0.00e+00	0	28	0	205520896	74	4463
2026-01-04 09:36:49.44	151.52	12.82	-53.8	-56.0	14.0	0.00e+00	0	28	0	207618048	74	4487
2026-01-04 09:36:50.45	151.53	12.92	-53.7	-55.8	14.0	0.00e+00	0	28	0	209715200	73	4637
2026-01-04 09:36:51.46	151.53	13.02	-53.8	-56.1	13.9	0.00e+00	0	28	0	211812352	73	4770
2026-01-04 09:36:52.47	151.53	13.12	-53.7	-55.9	13.9	0.00e+00	0	28	0	212860928	73	4690
2026-01-04 09:36:53.48	151.53	13.22	-53.6	-55.8	14.0	0.00e+00	0	28	0	214958080	73	4629
2026-01-04 09:36:54.48	151.53	13.32	-53.7	-55.9	14.0	0.00e+00	0	28	0	217055232	73	4694
2026-01-04 09:36:55.49	151.53	13.42	-53.8	-56.0	13.9	0.00e+00	0	28	0	219152384	73	4714
2026-01-04 09:36:56.49	151.53	13.52	-53.6	-55.8	14.0	0.00e+00	0	28	0	221249536	73	4602
2026-01-04 09:36:57.50	151.54	13.62	-53.6	-55.8	14.0	0.00e+00	0	28	0	222298112	73	4606
2026-01-04 09:36:58.51	151.54	13.72	-53.6	-55.8	14.0	0.00e+00	0	28	0	224395264	73	4627
2026-01-04 09:36:59.52	151.54	13.82	-53.8	-56.0	14.0	0.00e+00	0	28	0	226492416	73	4712
2026-01-04 09:37:00.52	151.54	13.93	-53.6	-55.7	14.1	0.00e+00	0	28	0	228589568	73	4559
2026-01-04 09:37:01.53	151.54	14.03	-53.6	-55.7	14.1	0.00e+00	0	28	0	230686720	73	4592
2026-01-04 09:37:02.54	151.54	14.13	-53.6	-55.8	14.0	0.00e+00	0	28	0	231735296	73	4622
2026-01-04 09:37:03.55	151.54	14.24	-53.5	-55.7	14.1	0.00e+00	0	28	0	233832448	73	4552
2026-01-04 09:37:04.55	151.55	14.34	-53.5	-55.6	14.1	0.00e+00	0	28	0	235929600	73	4501
2026-01-04 09:37:05.56	151.55	14.45	-53.5	-55.6	14.1	0.00e+00	0	28	0	238026752	73	4497
2026-01-04 09:37:06.57	151.55	14.55	-53.3	-55.3	14.2	0.00e+00	0	28	0	240123904	73	4382
2026-01-04 09:37:07.58	151.55	14.66	-53.4	-55.5	14.2	0.00e+00	0	28	0	241172480	73	4452
2026-01-04 09:37:08.59	151.55	14.77	-53.0	-55.5	14.1	0.00e+00	0	28	0	243269632	72	4714
2026-01-04 09:37:09.59	151.55	14.87	-52.9	-55.4	14.2	0.00e+00	0	28	0	245366784	72	4656
2026-01-04 09:37:10.60	151.55	14.98	-52.9	-55.2	14.2	0.00e+00	0	28	0	247463936	72	4597
2026-01-04 09:37:11.61	151.55	15.09	-52.9	-55.2	14.2	0.00e+00	0	28	0	249561088	72	4597
2026-01-04 09:37:12.61	151.55	15.20	-52.8	-55.2	14.2	0.00e+00	0	28	0	251658240	72	4587
2026-01-04 09:37:13.62	151.56	15.31	-52.8	-55.2	14.2	0.00e+00	0	28	0	252706816	72	4577
2026-01-04 09:37:14.63	151.56	15.42	-52.7	-55.0	14.2	0.00e+00	0	28	0	254803968	71	4746
2026-01-04 09:37:15.63	151.56	15.52	-52.7	-55.1	14.2	0.00e+00	0	28	0	256901120	71	4797
2026-01-04 09:37:16.64	151.56	15.64	-52.7	-55.0	14.2	0.00e+00	0	28	0	258998272	71	4738
2026-01-04 09:37:17.65	151.56	15.75	-52.6	-55.0	14.2	0.00e+00	0	28	0	260046848	71	4732
2026-01-04 09:37:18.65	151.56	15.86	-52.7	-55.0	14.2	0.00e+00	0	28	0	262144000	71	4749
2026-01-04 09:37:19.66	151.56	15.97	-52.6	-54.9	14.3	0.00e+00	0	28	0	264241152	71	4662
2026-01-04 09:37:20.67	151.56	16.08	-52.7	-55.2	14.2	0.00e+00	0	28	0	266338304	71	4816
2026-01-04 09:37:21.68	151.56	16.20	-52.7	-55.1	14.2	0.00e+00	0	28	0	268435456	71	4805
2026-01-04 09:37:22.68	151.57	16.31	-52.4	-54.8	14.3	0.00e+00	0	28	0	269484032	71	4610
2026-01-04 09:37:23.69	151.57	16.42	-52.6	-54.9	14.2	0.00e+00	0	28	0	271581184	71	4696
2026-01-04 09:37:24.70	151.57	16.54	-52.5	-54.9	14.2	0.00e+00	0	28	0	273678336	71	4681
2026-01-04 09:37:25.71	151.57	16.65	-52.6	-55.0	14.2	0.00e+00	0	28	0	275775488	71	4748
2026-01-04 09:37:26.72	151.57	16.77	-52.5	-54.9	14.3	0.00e+00	0	28	0	277872640	71	4678
2026-01-04 09:37:27.72	151.57	16.88	-52.5	-54.8	14.3	0.00e+00	0	28	0	279969792	71	4648
2026-01-04 09:37:28.73	151.57	17.00	-52.6	-55.0	14.2	0.00e+00	0	28	0	281018368	71	4750
2026-01-04 09:37:29.74	151.57	17.12	-52.5	-54.9	14.3	0.00e+00	0	28	0	283115520	71	4679
2026-01-04 09:37:30.75	151.57	17.24	-52.5	-54.9	14.3	0.00e+00	0	28	0	285212672	71	4689
2026-01-04 09:37:31.76	151.57	17.36	-52.6	-55.0	14.2	0.00e+00	0	28	0	287309824	71	4753
2026-01-04 09:37:32.77	151.57	17.48	-52.6	-55.1	14.2	0.00e+00	0	28	0	289406976	71	4760
2026-01-04 09:37:33.77	151.58	17.59	-52.7	-55.1	14.2	0.00e+00	0	28	0	290455552	71	4780
2026-01-04 09:37:34.78	151.58	17.72	-52.4	-54.8	14.3	0.00e+00	0	28	0	292552704	71	4619
2026-01-04 09:37:35.79	151.58	17.84	-52.3	-54.6	14.4	0.00e+00	0	28	0	294649856	71	4495
2026-01-04 09:37:36.80	151.58	17.96	-52.5	-54.8	14.3	0.00e+00	0	28	0	296747008	71	4621
2026-01-04 09:37:37.80	151.58	18.08	-52.4	-54.7	14.4	0.00e+00	0	28	0	298844160	71	4564
2026-01-04 09:37:38.81	151.58	18.20	-52.2	-54.4	14.4	0.00e+00	0	28	0	299892736	70	4672
2026-01-04 09:37:39.81	151.58	18.32	-52.2	-54.4	14.4	0.00e+00	0	28	0	301989888	70	4693
2026-01-04 09:37:40.83	151.58	18.45	-52.1	-54.3	14.4	0.00e+00	0	28	0	304087040	70	4651
2026-01-04 09:37:41.83	151.58	18.57	-52.0	-54.2	14.5	0.00e+00	0	28	0	306184192	70	4574
2026-01-04 09:37:42.84	151.58	18.70	-52.0	-54.2	14.5	0.00e+00	0	28	0	308281344	70	4575
2026-01-04 09:37:43.85	151.58	18.83	-52.0	-54.1	14.5	0.00e+00	0	28	0	309329920	70	4509
2026-01-04 09:37:44.86	151.58	18.95	-51.9	-54.0	14.6	0.00e+00	0	28	0	311427072	70	4468
2026-01-04 09:37:45.87	151.58	19.08	-52.0	-54.1	14.5	0.00e+00	0	28	0	313524224	70	4515
2026-01-04 09:37:46.87	151.58	19.21	-52.0	-54.1	14.5	0.00e+00	0	28	0	315621376	70	4545
2026-01-04 09:37:47.88	151.58	19.34	-51.9	-54.0	14.6	0.00e+00	0	28	0	317718528	70	4485
2026-01-04 09:37:48.89	151.58	19.46	-51.9	-54.0	14.6	0.00e+00	0	28	0	318767104	70	4471
2026-01-04 09:37:49.90	151.58	19.59	-51.9	-54.0	14.5	0.00e+00	0	28	0	320864256	70	4486
2026-01-04 09:37:50.91	151.58	19.73	-52.0	-54.1	14.5	0.00e+00	0	28	0	322961408	70	4539
2026-01-04 09:37:51.91	151.58	19.86	-51.9	-54.1	14.5	0.00e+00	0	28	0	325058560	70	4505
2026-01-04 09:37:52.92	151.59	19.99	-51.9	-54.1	14.5	0.00e+00	0	28	0	327155712	70	4516
2026-01-04 09:37:53.92	151.59	20.12	-52.0	-54.2	14.5	0.00e+00	0	28	0	328204288	70	4593
2026-01-04 09:37:54.93	151.59	20.25	-51.8	-54.0	14.6	0.00e+00	0	28	0	330301440	70	4466
2026-01-04 09:37:55.94	151.59	20.39	-52.0	-54.1	14.5	0.00e+00	0	28	0	332398592	70	4538
2026-01-04 09:37:56.95	151.59	20.52	-51.9	-54.1	14.5	0.00e+00	0	28	0	334495744	70	4516
2026-01-04 09:37:57.96	151.59	20.66	-51.8	-53.9	14.6	0.00e+00	0	28	0	336592896	70	4416
2026-01-04 09:37:58.96	151.59	20.79	-51.7	-53.8	14.5	0.00e+00	0	28	0	337641472	69	4606
2026-01-04 09:37:59.97	151.59	20.93	-51.7	-53.7	14.6	0.00e+00	0	28	0	339738624	69	4598
2026-01-04 09:38:00.98	151.59	21.07	-51.5	-53.6	14.6	0.00e+00	0	28	0	341835776	69	4518
2026-01-04 09:38:01.99	151.59	21.21	-51.7	-53.8	14.6	0.00e+00	0	28	0	343932928	69	4618
2026-01-04 09:38:02.99	151.59	21.34	-51.6	-53.6	14.6	0.00e+00	0	28	0	346030080	69	4545
2026-01-04 09:38:04.00	151.59	21.49	-51.5	-53.6	14.6	0.00e+00	0	28	0	347078656	69	4502
2026-01-04 09:38:05.01	151.59	21.63	-51.6	-53.7	14.6	0.00e+00	0	28	0	349175808	69	4563
2026-01-04 09:38:06.02	151.59	21.77	-51.7	-53.8	14.6	0.00e+00	0	28	0	351272960	69	4620
2026-01-04 09:38:07.02	151.59	21.91	-51.7	-53.8	14.6	0.00e+00	0	28	0	353370112	69	4625
2026-01-04 09:38:08.03	151.59	22.05	-51.6	-53.6	14.6	0.00e+00	0	28	0	355467264	69	4526
2026-01-04 09:38:09.04	151.59	22.20	-51.6	-53.6	14.6	0.00e+00	0	28	0	356515840	69	4540
2026-01-04 09:38:10.04	151.59	22.34	-51.9	-54.1	14.4	0.00e+00	0	28	0	358612992	69	4773
2026-01-04 09:38:11.05	151.58	22.49	-52.0	-54.1	14.5	0.00e+00	0	28	0	360710144	69	4764
2026-01-04 09:38:12.06	151.58	22.63	-51.8	-53.8	14.6	0.00e+00	0	28	0	362807296	69	4638
2026-01-04 09:38:13.07	151.58	22.78	-51.8	-53.8	14.5	0.00e+00	0	28	0	364904448	69	4635
2026-01-04 09:38:14.08	151.58	22.93	-51.8	-53.8	14.6	0.00e+00	0	28	0	365953024	69	4643
2026-01-04 09:38:15.08	151.58	23.08	-51.8	-53.8	14.5	0.00e+00	0	28	0	368050176	69	4633
2026-01-04 09:38:16.09	151.58	23.23	-51.8	-53.8	14.6	0.00e+00	0	28	0	370147328	69	4607
2026-01-04 09:38:17.10	151.58	23.38	-51.7	-53.7	14.6	0.00e+00	0	28	0	372244480	69	4564
2026-01-04 09:38:18.11	151.58	23.53	-52.0	-54.0	14.5	0.00e+00	0	28	0	374341632	69	4711
2026-01-04 09:38:19.11	151.58	23.68	-51.9	-53.9	14.5	0.00e+00	0	28	0	375390208	69	4671
2026-01-04 09:38:20.11	151.58	23.83	-51.9	-53.8	14.6	0.00e+00	0	28	0	377487360	69	4644
2026-01-04 09:38:21.12	151.58	23.99	-51.9	-53.9	14.5	0.00e+00	0	28	0	379584512	69	4658
2026-01-04 09:38:22.13	151.58	24.14	-52.0	-54.0	14.5	0.00e+00	0	28	0	381681664	69	4720
2026-01-04 09:38:23.14	151.58	24.30	-52.1	-54.2	14.4	0.00e+00	0	28	0	383778816	69	4823
2026-01-04 09:38:24.15	151.58	24.46	-52.1	-54.0	14.5	0.00e+00	0	28	0	384827392	69	4751
2026-01-04 09:38:25.15	151.58	24.61	-52.1	-54.1	14.5	0.00e+00	0	28	0	386924544	69	4798
2026-01-04 09:38:26.16	151.58	24.77	-52.4	-54.5	14.4	0.00e+00	0	29	0	389021696	70	4707
2026-01-04 09:38:27.17	151.57	24.93	-52.3	-54.3	14.5	0.00e+00	0	28	0	391118848	70	4650
2026-01-04 09:38:28.18	151.57	25.10	-52.3	-54.3	14.5	0.00e+00	0	28	0	393216000	70	4622
2026-01-04 09:38:29.19	151.57	25.26	-52.5	-54.6	14.4	0.00e+00	0	28	0	394264576	70	4806
2026-01-04 09:38:30.20	151.57	25.42	-52.3	-54.3	14.5	0.00e+00	0	28	0	396361728	70	4626
2026-01-04 09:38:31.21	151.57	25.58	-52.2	-54.3	14.5	0.00e+00	0	28	0	398458880	70	4613
2026-01-04 09:38:32.22	151.57	25.75	-52.1	-54.2	14.5	0.00e+00	0	28	0	400556032	70	4564
2026-01-04 09:38:33.23	151.57	25.92	-52.3	-54.3	14.5	0.00e+00	0	28	0	402653184	70	4638
2026-01-04 09:38:34.24	151.57	26.08	-52.2	-54.3	14.5	0.00e+00	0	28	0	403701760	70	4607
2026-01-04 09:38:35.24	151.57	26.25	-52.3	-54.4	14.4	0.00e+00	0	28	0	405798912	70	4692
2026-01-04 09:38:36.25	151.56	26.42	-52.4	-54.5	14.5	0.00e+00	0	28	0	407896064	70	4727
2026-01-04 09:38:37.25	151.56	26.59	-52.8	-55.1	14.2	0.00e+00	0	28	0	409993216	70	5067
2026-01-04 09:38:38.26	151.56	26.76	-52.9	-55.1	14.2	0.00e+00	0	28	0	412090368	70	5070
2026-01-04 09:38:39.26	151.56	26.93	-53.0	-55.2	14.2	0.00e+00	0	28	0	413138944	71	4869
2026-01-04 09:38:40.27	151.56	27.11	-53.1	-55.4	14.1	0.00e+00	0	28	0	415236096	71	4944
2026-01-04 09:38:41.27	151.56	27.28	-53.3	-55.6	14.1	0.00e+00	0	28	0	417333248	71	5055
2026-01-04 09:38:42.28	151.55	27.45	-53.3	-55.6	14.1	0.00e+00	0	28	0	419430400	71	5052
2026-01-04 09:38:43.29	151.55	27.63	-53.2	-55.4	14.2	0.00e+00	0	28	0	421527552	72	4663
2026-01-04 09:38:44.30	151.55	27.81	-53.3	-55.5	14.2	0.00e+00	0	28	0	422576128	72	4728
2026-01-04 09:38:45.31	151.55	27.99	-53.4	-55.8	14.1	0.00e+00	0	28	0	424673280	72	4872
2026-01-04 09:38:46.31	151.55	28.17	-53.1	-55.2	14.3	0.00e+00	0	28	0	426770432	72	4596
2026-01-04 09:38:47.32	151.55	28.35	-52.8	-54.9	14.3	0.00e+00	0	28	0	428867584	72	4426
2026-01-04 09:38:48.33	151.54	28.53	-53.0	-55.2	14.3	0.00e+00	0	29	0	430964736	72	4585
2026-01-04 09:38:49.34	151.54	28.72	-53.2	-55.4	14.2	0.00e+00	0	28	0	432013312	72	4705
2026-01-04 09:38:50.34	151.54	28.90	-53.3	-55.7	14.1	0.00e+00	0	29	0	434110464	72	4827
2026-01-04 09:38:51.35	151.54	29.09	-53.4	-55.8	14.1	0.00e+00	0	28	0	436207616	72	4880
2026-01-04 09:38:52.36	151.53	29.28	-53.6	-56.1	13.9	0.00e+00	0	28	0	438304768	72	5051
2026-01-04 09:38:53.37	151.53	29.46	-53.7	-56.3	13.9	0.00e+00	0	28	0	440401920	72	5168
2026-01-04 09:38:54.37	151.53	29.65	-53.8	-56.4	13.8	0.00e+00	0	28	0	441450496	72	5224
2026-01-04 09:38:55.38	151.53	29.84	-53.7	-56.2	13.9	0.00e+00	0	28	0	443547648	72	5106
2026-01-04 09:38:56.39	151.52	30.04	-53.6	-56.1	13.9	0.00e+00	0	28	0	445644800	72	5046
2026-01-04 09:38:57.39	151.52	30.23	-53.5	-55.8	14.0	0.00e+00	0	28	0	447741952	72	4906
2026-01-04 09:38:58.40	151.52	30.43	-53.4	-55.6	14.2	0.00e+00	0	28	0	449839104	72	4778
2026-01-04 09:38:59.41	151.52	30.62	-53.5	-55.7	14.1	0.00e+00	0	28	0	450887680	72	4870
2026-01-04 09:39:00.41	151.51	30.82	-53.6	-55.9	14.0	0.00e+00	0	28	0	452984832	72	4982
2026-01-04 09:39:01.42	151.51	31.02	-53.5	-55.7	14.2	0.00e+00	0	28	0	455081984	72	4824
2026-01-04 09:39:02.43	151.51	31.22	-53.9	-56.4	13.8	0.00e+00	0	28	0	457179136	72	5226
2026-01-04 09:39:03.43	151.50	31.42	-54.2	-56.8	13.6	0.00e+00	0	28	0	459276288	73	5181
2026-01-04 09:39:04.44	151.50	31.62	-54.4	-57.0	13.6	0.00e+00	0	28	0	460324864	74	5039
2026-01-04 09:39:05.45	151.50	31.83	-54.8	-57.8	13.3	0.00e+00	0	28	0	462422016	74	5465
2026-01-04 09:39:06.45	151.49	32.03	-54.4	-57.2	13.6	0.00e+00	0	28	0	464519168	75	4833
2026-01-04 09:39:07.46	151.49	32.24	-54.7	-57.7	13.4	0.00e+00	0	28	0	466616320	75	5116
2026-01-04 09:39:08.47	151.49	32.45	-54.6	-57.5	13.5	0.00e+00	0	28	0	468713472	75	5038
2026-01-04 09:39:09.48	151.48	32.66	-54.7	-57.6	13.5	0.00e+00	0	28	0	469762048	75	5049
2026-01-04 09:39:10.49	151.48	32.88	-54.8	-57.8	13.4	0.00e+00	0	28	0	471859200	75	5167
2026-01-04 09:39:11.50	151.47	33.09	-54.8	-57.7	13.4	0.00e+00	0	28	0	473956352	75	5155
2026-01-04 09:39:12.51	151.47	33.30	-54.9	-58.0	13.3	0.00e+00	0	28	0	476053504	75	5294
2026-01-04 09:39:13.52	151.47	33.52	-54.9	-58.0	13.2	0.00e+00	0	28	0	478150656	75	5320
2026-01-04 09:39:14.53	151.46	33.74	-54.6	-57.4	13.5	0.00e+00	0	28	0	480247808	75	4972
2026-01-04 09:39:15.54	151.46	33.96	-54.9	-57.9	13.3	0.00e+00	0	28	0	481296384	75	5224
2026-01-04 09:39:16.55	151.45	34.18	-54.6	-57.4	13.6	0.00e+00	0	28	0	483393536	75	4961
2026-01-04 09:39:17.55	151.45	34.40	-54.2	-56.8	13.8	0.00e+00	0	28	0	485490688	74	4922
2026-01-04 09:39:18.56	151.44	34.63	-53.8	-56.3	14.0	0.00e+00	0	28	0	487587840	74	4604
2026-01-04 09:39:19.57	151.44	34.86	-53.3	-55.6	14.3	0.00e+00	0	28	0	489684992	73	4510
2026-01-04 09:39:20.58	151.43	35.08	-53.0	-55.2	14.3	0.00e+00	0	29	0	490733568	72	4597
2026-01-04 09:39:21.59	151.43	35.31	-52.7	-54.9	14.5	0.00e+00	0	28	0	492830720	72	4411
2026-01-04 09:39:22.60	151.42	35.55	-52.6	-54.8	14.4	0.00e+00	0	28	0	494927872	71	4600
2026-01-04 09:39:23.61	151.42	35.78	-52.3	-54.4	14.6	0.00e+00	0	28	0	497025024	71	4422
2026-01-04 09:39:24.61	151.41	36.01	-52.2	-54.3	14.6	0.00e+00	0	28	0	498073600	71	4342
2026-01-04 09:39:25.62	151.41	36.25	-52.0	-54.0	14.6	0.00e+00	0	28	0	500170752	70	4489
2026-01-04 09:39:26.62	151.40	36.48	-51.9	-53.8	14.7	0.00e+00	0	28	0	502267904	70	4389
2026-01-04 09:39:27.63	151.40	36.72	-51.6	-53.4	14.8	0.00e+00	0	28	0	504365056	69	4420
2026-01-04 09:39:28.64	151.39	36.97	-51.5	-53.4	14.8	0.00e+00	0	28	0	506462208	69	4399
2026-01-04 09:39:29.64	151.38	37.21	-51.5	-53.3	14.8	0.00e+00	0	28	0	508559360	69	4370
2026-01-04 09:39:30.65	151.38	37.45	-51.7	-53.6	14.7	0.00e+00	0	28	0	509607936	69	4495
2026-01-04 09:39:31.66	151.37	37.70	-51.4	-53.3	14.8	0.00e+00	0	28	0	511705088	69	4341
2026-01-04 09:39:32.67	151.36	37.95	-51.5	-53.4	14.7	0.00e+00	0	28	0	513802240	69	4414
2026-01-04 09:39:33.68	151.36	38.20	-51.7	-53.7	14.7	0.00e+00	0	28	0	515899392	69	4578
2026-01-04 09:39:34.69	151.35	38.45	-51.8	-53.7	14.7	0.00e+00	0	28	0	517996544	69	4594
2026-01-04 09:39:35.70	151.34	38.71	-51.8	-53.9	14.6	0.00e+00	0	28	0	519045120	69	4689
2026-01-04 09:39:36.71	151.34	38.97	-51.7	-53.7	14.7	0.00e+00	0	28	0	521142272	69	4571
2026-01-04 09:39:37.72	151.33	39.22	-51.4	-53.4	14.8	0.00e+00	0	28	0	523239424	69	4416
2026-01-04 09:39:38.72	151.32	39.48	-51.2	-53.2	14.9	0.00e+00	0	29	0	525336576	69	4292
2026-01-04 09:39:39.73	151.31	39.75	-51.1	-52.9	14.9	0.00e+00	0	28	0	527433728	68	4428
2026-01-04 09:39:40.74	151.30	40.01	-51.1	-53.0	14.8	0.00e+00	0	28	0	528482304	68	4462
2026-01-04 09:39:41.75	151.30	40.28	-51.0	-52.8	14.9	0.00e+00	0	28	0	530579456	68	4384
2026-01-04 09:39:42.76	151.29	40.55	-50.9	-52.7	14.9	0.00e+00	0	28	0	532676608	68	4323
2026-01-04 09:39:43.77	151.28	40.82	-50.4	-52.1	15.0	0.00e+00	0	28	0	534773760	67	4263
2026-01-04 09:39:44.78	151.27	41.09	-50.7	-52.5	14.9	0.00e+00	0	28	0	536870912	67	4448
2026-01-04 09:39:45.79	151.26	41.36	-50.8	-52.6	14.9	0.00e+00	0	28	0	537919488	67	4507
2026-01-04 09:39:46.80	151.25	41.64	-50.9	-52.7	14.8	0.00e+00	0	28	0	540016640	67	4584
2026-01-04 09:39:47.80	151.24	41.92	-51.4	-53.4	14.6	0.00e+00	0	28	0	542113792	67	4938
2026-01-04 09:39:48.81	151.23	42.20	-51.7	-53.6	14.6	0.00e+00	0	28	0	544210944	68	4801
2026-01-04 09:39:49.82	151.22	42.48	-52.0	-54.1	14.5	0.00e+00	0	28	0	546308096	69	4778
2026-01-04 09:39:50.82	151.21	42.76	-52.1	-54.3	14.5	0.00e+00	0	28	0	547356672	69	4880
2026-01-04 09:39:51.83	151.20	43.05	-52.0	-54.1	14.5	0.00e+00	0	28	0	549453824	69	4787
2026-01-04 09:39:52.84	151.19	43.34	-52.0	-54.2	14.5	0.00e+00	0	28	0	551550976	69	4820
2026-01-04 09:39:53.84	151.18	43.63	-51.8	-53.8	14.6	0.00e+00	0	28	0	553648128	69	4630
2026-01-04 09:39:54.85	151.17	43.92	-51.7	-53.8	14.6	0.00e+00	0	28	0	555745280	69	4603
2026-01-04 09:39:55.85	151.16	44.22	-51.7	-53.7	14.6	0.00e+00	0	28	0	556793856	69	4582
2026-01-04 09:39:56.86	151.15	44.52	-51.9	-54.1	14.5	0.00e+00	0	28	0	558891008	69	4800
2026-01-04 09:39:57.86	151.13	44.81	-52.1	-54.4	14.4	0.00e+00	0	28	0	560988160	69	4954
2026-01-04 09:39:58.87	151.12	45.12	-52.7	-55.2	14.2	0.00e+00	0	28	0	563085312	70	5108
2026-01-04 09:39:59.88	151.11	45.42	-53.3	-56.2	13.8	0.00e+00	0	28	0	565182464	71	5440
2026-01-04 09:40:00.89	151.10	45.73	-53.7	-56.7	13.7	0.00e+00	0	28	0	566231040	72	5456
2026-01-04 09:40:01.90	151.08	46.04	-54.2	-57.6	13.4	0.00e+00	0	28	0	568328192	73	5669
2026-01-04 09:40:02.90	151.07	46.35	-54.4	-58.0	13.2	0.00e+00	0	28	0	570425344	74	5614
2026-01-04 09:40:03.91	151.06	46.67	-54.5	-58.3	13.1	0.00e+00	0	28	0	572522496	74	5834
2026-01-04 09:40:04.92	151.04	46.98	-54.4	-58.2	13.1	0.00e+00	0	28	0	574619648	74	5754
2026-01-04 09:40:05.92	151.03	47.30	-54.2	-57.9	13.2	0.00e+00	0	28	0	575668224	74	5588
2026-01-04 09:40:06.93	151.01	47.62	-54.0	-57.6	13.4	0.00e+00	0	28	0	577765376	74	5394
2026-01-04 09:40:07.93	151.00	47.94	-53.7	-57.1	13.7	0.00e+00	0	28	0	579862528	74	5052
2026-01-04 09:40:08.94	150.98	48.27	-53.6	-56.9	13.5	0.00e+00	0	28	0	581959680	73	5264
2026-01-04 09:40:09.95	150.96	48.60	-53.2	-56.4	13.8	0.00e+00	0	28	0	584056832	72	5254
2026-01-04 09:40:10.95	150.95	48.93	-53.0	-55.9	14.1	0.00e+00	0	28	0	585105408	72	4969
2026-01-04 09:40:11.96	150.93	49.26	-52.5	-55.0	14.3	0.00e+00	0	28	0	587202560	71	4756
2026-01-04 09:40:12.97	150.91	49.60	-52.4	-54.7	14.4	0.00e+00	0	28	0	589299712	71	4579
2026-01-04 09:40:13.97	150.89	49.94	-52.6	-55.0	14.4	0.00e+00	0	29	0	591396864	71	4721
2026-01-04 09:40:14.98	150.88	50.28	-52.4	-54.8	14.4	0.00e+00	0	28	0	593494016	71	4622
2026-01-04 09:40:15.99	150.86	50.62	-51.9	-54.1	14.6	0.00e+00	0	28	0	594542592	70	4535
2026-01-04 09:40:17.00	150.84	50.97	-51.0	-53.0	14.8	0.00e+00	0	28	0	596639744	68	4442
2026-01-04 09:40:18.01	150.82	51.32	-50.3	-52.1	15.0	0.00e+00	0	28	0	598736896	67	4272
2026-01-04 09:40:19.02	150.80	51.67	-50.2	-51.9	15.0	0.00e+00	0	28	0	600834048	67	4165
2026-01-04 09:40:20.03	150.77	52.03	-50.4	-52.1	14.9	0.00e+00	0	28	0	602931200	66	4522
2026-01-04 09:40:21.04	150.75	52.39	-51.1	-53.0	14.7	0.00e+00	0	28	0	603979776	67	4759
2026-01-04 09:40:22.04	150.73	52.74	-51.6	-53.6	14.6	0.00e+00	0	28	0	606076928	68	4814
2026-01-04 09:40:23.05	150.71	53.11	-51.7	-53.6	14.6	0.00e+00	0	28	0	608174080	68	4808
2026-01-04 09:40:24.06	150.68	53.47	-51.2	-53.1	14.8	0.00e+00	0	28	0	610271232	68	4499
2026-01-04 09:40:25.07	150.66	53.84	-51.1	-52.9	14.9	0.00e+00	0	28	0	612368384	68	4439
2026-01-04 09:40:26.07	150.63	54.21	-51.1	-52.9	14.9	0.00e+00	0	28	0	613416960	68	4438
2026-01-04 09:40:27.08	150.61	54.58	-51.1	-52.8	14.9	0.00e+00	0	29	0	615514112	68	4381
2026-01-04 09:40:28.09	150.58	54.96	-50.9	-52.6	15.0	0.00e+00	0	28	0	617611264	68	4286
2026-01-04 09:40:29.10	150.55	55.33	-51.1	-52.7	14.9	0.00e+00	0	28	0	619708416	68	4331
2026-01-04 09:40:30.11	150.52	55.72	-51.2	-52.9	14.8	0.00e+00	0	28	0	621805568	68	4433
2026-01-04 09:40:31.12	150.49	56.10	-51.6	-53.5	14.7	0.00e+00	0	28	0	622854144	68	4712
2026-01-04 09:40:32.12	150.46	56.48	-52.5	-54.5	14.4	0.00e+00	0	28	0	624951296	70	4733
2026-01-04 09:40:33.13	150.43	56.87	-52.8	-54.9	14.3	0.00e+00	0	28	0	627048448	70	4976
2026-01-04 09:40:34.14	150.40	57.27	-52.1	-54.0	14.6	0.00e+00	0	28	0	629145600	70	4474
2026-01-04 09:40:35.15	150.36	57.66	-52.3	-54.3	14.5	0.00e+00	0	28	0	631242752	70	4609
2026-01-04 09:40:36.16	150.33	58.06	-52.5	-54.4	14.5	0.00e+00	0	28	0	632291328	70	4700
2026-01-04 09:40:37.16	150.29	58.45	-53.0	-55.2	14.2	0.00e+00	0	28	0	634388480	71	4855
2026-01-04 09:40:38.17	150.26	58.86	-53.7	-56.4	13.8	0.00e+00	0	28	0	636485632	72	5279
2026-01-04 09:40:39.18	150.22	59.26	-53.5	-56.3	13.8	0.00e+00	0	29	0	638582784	72	5192
2026-01-04 09:40:40.18	150.18	59.67	-52.6	-55.0	14.3	0.00e+00	0	28	0	640679936	71	4716
2026-01-04 09:40:41.19	150.14	60.08	-52.1	-54.2	14.5	0.00e+00	0	28	0	641728512	70	4580
2026-01-04 09:40:42.20	150.10	60.49	-52.3	-54.5	14.4	0.00e+00	0	28	0	643825664	70	4709
2026-01-04 09:40:43.21	150.05	60.91	-52.8	-55.3	14.1	0.00e+00	0	28	0	645922816	70	5171
2026-01-04 09:40:44.22	150.01	61.33	-52.3	-54.6	14.3	0.00e+00	0	28	0	648019968	70	4766
2026-01-04 09:40:45.23	149.96	61.75	-51.8	-53.9	14.6	0.00e+00	0	29	0	650117120	70	4421
2026-01-04 09:40:46.24	149.91	62.17	-51.4	-53.3	14.7	0.00e+00	0	28	0	651165696	69	4382
2026-01-04 09:40:47.25	149.86	62.60	-51.4	-53.3	14.8	0.00e+00	0	28	0	653262848	69	4367
2026-01-04 09:40:48.25	149.81	63.03	-51.0	-52.7	14.9	0.00e+00	0	28	0	655360000	68	4337
2026-01-04 09:40:49.27	149.75	63.46	-50.0	-51.5	15.1	0.00e+00	0	28	0	657457152	66	4226
2026-01-04 09:40:50.28	149.69	63.90	-50.1	-51.6	15.0	0.00e+00	0	28	0	659554304	66	4262
2026-01-04 09:40:51.28	149.63	64.33	-50.7	-52.3	14.8	0.00e+00	0	28	0	661651456	66	4626
2026-01-04 09:40:52.29	149.57	64.77	-51.7	-53.5	14.7	0.00e+00	0	28	0	662700032	68	4744
2026-01-04 09:40:53.30	149.51	65.21	-52.0	-53.8	14.7	0.00e+00	0	29	0	664797184	69	4626
2026-01-04 09:40:54.31	149.44	65.66	-51.8	-53.5	14.7	0.00e+00	0	28	0	666894336	69	4477
2026-01-04 09:40:55.32	149.37	66.11	-52.2	-53.9	14.6	0.00e+00	0	28	0	668991488	69	4688
2026-01-04 09:40:56.32	149.30	66.55	-53.0	-55.0	14.4	0.00e+00	0	28	0	671088640	71	4708
2026-01-04 09:40:57.33	149.22	67.00	-53.3	-55.4	14.3	0.00e+00	0	28	0	672137216	72	4680
2026-01-04 09:40:58.34	149.14	67.46	-53.6	-55.7	14.1	0.00e+00	0	28	0	674234368	72	4840
2026-01-04 09:40:59.35	149.05	67.92	-54.0	-56.3	14.0	0.00e+00	0	28	0	676331520	73	4877
2026-01-04 09:41:00.35	148.97	68.37	-54.7	-57.3	13.6	0.00e+00	0	28	0	678428672	74	5167
2026-01-04 09:41:01.36	148.87	68.83	-55.0	-57.8	13.3	0.00e+00	0	28	0	680525824	75	5185
2026-01-04 09:41:02.37	148.78	69.30	-55.8	-59.1	12.8	0.00e+00	0	28	0	681574400	76	5657
2026-01-04 09:41:03.38	148.67	69.76	-56.8	-61.2	11.5	0.00e+00	0	28	0	683671552	78	6448
2026-01-04 09:41:04.39	148.57	70.23	-56.9	-61.3	11.7	1.29e-05	0	28	0	685768704	79	6158
2026-01-04 09:41:05.39	148.45	70.70	-56.4	-59.8	12.7	0.00e+00	0	28	0	687865856	79	5192
2026-01-04 09:41:06.39	148.33	71.17	-55.3	-58.1	13.5	0.00e+00	0	28	0	689963008	77	4761
2026-01-04 09:41:07.40	148.21	71.64	-55.3	-58.0	13.5	0.00e+00	0	28	0	691011584	76	5019
2026-01-04 09:41:08.41	148.07	72.12	-55.3	-58.2	13.3	0.00e+00	0	28	0	693108736	76	5105
2026-01-04 09:41:09.42	147.93	72.60	-55.5	-58.5	13.2	0.00e+00	0	28	0	695205888	76	5331
2026-01-04 09:41:10.43	147.78	73.08	-55.2	-58.1	13.4	0.00e+00	0	28	0	697303040	76	5094
2026-01-04 09:41:11.44	147.62	73.56	-54.7	-57.3	13.7	0.00e+00	0	28	0	699400192	75	4880
2026-01-04 09:41:12.44	147.45	74.04	-54.3	-56.8	14.0	0.00e+00	0	28	0	700448768	75	4609
2026-01-04 09:41:13.45	147.27	74.53	-54.6	-57.3	13.7	0.00e+00	0	28	0	702545920	75	4884
2026-01-04 09:41:14.46	147.08	75.01	-54.5	-57.2	13.7	0.00e+00	0	28	0	704643072	75	4843
2026-01-04 09:41:15.47	146.87	75.50	-53.9	-56.2	14.0	0.00e+00	0	28	0	706740224	74	4589
2026-01-04 09:41:16.47	146.65	75.99	-54.0	-56.4	14.0	0.00e+00	0	28	0	708837376	74	4686
2026-01-04 09:41:17.48	146.41	76.48	-55.7	-59.1	12.8	0.00e+00	0	28	0	709885952	76	5669
2026-01-04 09:41:18.48	146.15	76.97	-56.4	-60.3	12.2	7.00e-07	0	29	0	711983104	78	5835
2026-01-04 09:41:19.49	145.87	77.47	-56.2	-59.9	12.5	7.00e-07	0	29	0	714080256	78	5587
2026-01-04 09:41:20.49	145.57	77.96	-56.0	-59.8	12.5	0.00e+00	0	29	0	716177408	77	5824
2026-01-04 09:41:21.50	145.23	78.46	-56.4	-60.8	11.9	6.10e-06	0	28	0	718274560	78	6155
2026-01-04 09:41:22.51	144.87	78.96	-56.5	-61.1	11.7	0.00e+00	0	28	0	719323136	78	6374
2026-01-04 09:41:23.52	144.47	79.46	-56.0	-59.9	12.5	0.00e+00	0	29	0	721420288	78	5533
2026-01-04 09:41:24.52	144.04	79.95	-54.7	-57.3	13.8	0.00e+00	0	28	0	723517440	76	4634
2026-01-04 09:41:25.53	143.55	80.45	-53.8	-55.9	14.3	0.00e+00	0	28	0	725614592	74	4398
2026-01-04 09:41:26.53	143.01	80.95	-54.1	-56.5	13.9	0.00e+00	0	28	0	727711744	73	4993
2026-01-04 09:41:27.53	142.42	81.45	-55.5	-58.7	13.1	0.00e+00	0	28	0	728760320	76	5424
2026-01-04 09:41:28.54	141.73	81.95	-54.4	-57.0	13.9	0.00e+00	0	28	0	730857472	75	4722
2026-01-04 09:41:29.55	140.96	82.45	-53.5	-55.6	14.3	0.00e+00	0	28	0	732954624	73	4544
2026-01-04 09:41:30.56	140.07	82.95	-53.2	-55.4	14.3	0.00e+00	0	28	0	735051776	72	4658
2026-01-04 09:41:31.56	139.06	83.45	-52.4	-54.2	14.7	0.00e+00	0	28	0	736100352	71	4302
2026-01-04 09:41:32.57	137.87	83.94	-51.6	-53.2	14.9	0.00e+00	0	28	0	738197504	69	4336
2026-01-04 09:41:33.58	136.46	84.44	-51.7	-53.3	14.8	0.00e+00	0	28	0	740294656	69	4376
2026-01-04 09:41:34.59	134.77	84.93	-51.7	-53.5	14.8	0.00e+00	0	28	0	742391808	69	4447
2026-01-04 09:41:35.59	132.75	85.42	-51.9	-53.6	14.7	0.00e+00	0	28	0	744488960	69	4529
2026-01-04 09:41:36.60	130.22	85.90	-52.2	-54.1	14.5	0.00e+00	0	28	0	746586112	69	4781
2026-01-04 09:41:37.61	127.02	86.37	-51.7	-53.4	14.8	0.00e+00	0	28	0	747634688	69	4433
2026-01-04 09:41:38.61	122.93	86.82	-53.6	-55.9	14.1	0.00e+00	0	28	0	749731840	72	4979
2026-01-04 09:41:39.62	117.45	87.26	-54.3	-56.9	13.8	0.00e+00	0	28	0	751828992	74	4978
2026-01-04 09:41:40.63	109.99	87.66	-54.5	-57.4	13.6	0.00e+00	0	29	0	753926144	74	5233
2026-01-04 09:41:41.63	99.82	88.00	-56.5	-61.2	11.7	7.00e-07	0	28	0	756023296	78	6480
2026-01-04 09:41:42.64	85.93	88.26	-54.5	-57.4	13.6	0.00e+00	0	28	0	757071872	75	4938
2026-01-04 09:41:43.65	68.59	88.39	-54.1	-56.7	13.9	0.00e+00	0	28	0	759169024	73	5151
2026-01-04 09:41:44.66	50.25	88.35	-54.8	-57.8	13.5	0.00e+00	0	28	0	761266176	75	5177
2026-01-04 09:41:45.67	34.20	88.17	-53.4	-55.5	14.4	0.00e+00	0	29	0	763363328	73	4477
2026-01-04 09:41:46.68	21.90	87.87	-52.7	-54.6	14.5	0.00e+00	0	29	0	765460480	70	4796
2026-01-04 09:41:47.69	12.95	87.49	-54.9	-57.6	13.5	0.00e+00	0	28	0	766509056	74	5390
2026-01-04 09:41:48.70	6.43	87.07	-54.2	-56.6	14.0	0.00e+00	0	29	0	768606208	75	4523
2026-01-04 09:41:49.71	1.60	86.63	-53.1	-55.1	14.4	0.00e+00	0	28	0	770703360	72	4517
2026-01-04 09:41:50.72	357.91	86.16	-53.0	-55.0	14.4	0.00e+00	0	28	0	772800512	71	4707
2026-01-04 09:41:51.72	355.06	85.69	-52.7	-54.7	14.6	0.00e+00	0	28	0	774897664	71	4548
2026-01-04 09:41:52.73	352.76	85.21	-52.2	-53.9	14.8	0.00e+00	0	28	0	775946240	70	4419
2026-01-04 09:41:53.74	350.88	84.72	-52.0	-53.7	14.8	0.00e+00	0	28	0	778043392	70	4315
2026-01-04 09:41:54.74	349.34	84.23	-51.7	-53.3	14.9	0.00e+00	0	28	0	780140544	69	4390
2026-01-04 09:41:55.75	348.03	83.73	-51.1	-52.7	15.0	0.00e+00	0	28	0	782237696	68	4292
2026-01-04 09:41:56.76	346.92	83.23	-52.3	-54.1	14.5	0.00e+00	0	28	0	784334848	69	4806
2026-01-04 09:41:57.76	345.97	82.74	-52.7	-54.6	14.5	0.00e+00	0	28	0	785383424	70	4770
2026-01-04 09:41:58.77	345.13	82.24	-53.4	-55.4	14.3	0.00e+00	0	28	0	787480576	71	4951
2026-01-04 09:41:59.77	344.40	81.74	-53.6	-55.8	14.3	0.00e+00	0	28	0	789577728	73	4605
2026-01-04 09:42:00.78	343.76	81.24	-52.8	-54.5	14.6	0.00e+00	0	29	0	791674880	71	4489
2026-01-04 09:42:01.79	343.18	80.74	-53.0	-54.9	14.4	0.00e+00	0	28	0	793772032	71	4669
2026-01-04 09:42:02.80	342.66	80.24	-53.9	-56.0	14.1	0.00e+00	0	28	0	794820608	72	5016
2026-01-04 09:42:03.81	342.20	79.74	-53.4	-55.4	14.3	0.00e+00	0	28	0	796917760	72	4698
2026-01-04 09:42:04.81	341.78	79.24	-54.6	-57.1	13.8	0.00e+00	0	28	0	799014912	74	5084
2026-01-04 09:42:05.82	341.40	78.74	-54.2	-56.5	14.1	0.00e+00	0	28	0	801112064	75	4476
2026-01-04 09:42:06.83	341.05	78.24	-53.1	-55.0	14.5	0.00e+00	0	28	0	803209216	72	4468
2026-01-04 09:42:07.83	340.73	77.75	-53.3	-55.4	14.4	0.00e+00	0	29	0	804257792	72	4656
2026-01-04 09:42:08.84	340.44	77.26	-54.1	-56.5	13.9	0.00e+00	0	28	0	806354944	73	5005
2026-01-04 09:42:09.85	340.17	76.76	-54.3	-56.7	13.9	0.00e+00	0	28	0	808452096	74	4863
2026-01-04 09:42:10.86	339.92	76.27	-54.4	-56.9	13.8	0.00e+00	0	28	0	810549248	74	4931
2026-01-04 09:42:11.87	339.68	75.78	-54.3	-56.9	13.8	0.00e+00	0	28	0	812646400	74	4948
2026-01-04 09:42:12.87	339.47	75.29	-54.0	-56.3	14.1	0.00e+00	0	28	0	813694976	73	4907
2026-01-04 09:42:13.89	339.27	74.80	-52.9	-54.7	14.7	0.00e+00	0	28	0	815792128	72	4317
2026-01-04 09:42:14.89	339.08	74.32	-53.2	-55.1	14.5	0.00e+00	0	28	0	817889280	72	4513
2026-01-04 09:42:15.90	338.90	73.83	-52.7	-54.5	14.7	0.00e+00	0	29	0	819986432	71	4450
2026-01-04 09:42:16.91	338.74	73.35	-52.6	-54.3	14.8	0.00e+00	0	28	0	822083584	71	4350
2026-01-04 09:42:17.92	338.58	72.87	-54.1	-56.3	14.1	0.00e+00	0	28	0	823132160	73	4908
2026-01-04 09:42:18.92	338.44	72.39	-55.3	-58.1	13.4	0.00e+00	0	28	0	825229312	75	5346
2026-01-04 09:42:19.93	338.30	71.92	-55.9	-59.1	13.0	0.00e+00	0	28	0	827326464	77	5342
2026-01-04 09:42:20.94	338.17	71.44	-56.3	-59.7	12.6	0.00e+00	0	28	0	829423616	78	5422
2026-01-04 09:42:21.94	338.05	70.97	-56.4	-60.0	12.5	0.00e+00	0	28	0	831520768	78	5639
2026-01-04 09:42:22.95	337.93	70.50	-56.3	-59.9	12.6	4.50e-06	0	28	0	832569344	79	5274
2026-01-04 09:42:23.96	337.82	70.03	-55.2	-57.9	13.6	0.00e+00	0	28	0	834666496	76	4979
2026-01-04 09:42:24.97	337.71	69.56	-53.7	-55.8	14.4	0.00e+00	0	28	0	836763648	74	4362
2026-01-04 09:42:25.97	337.61	69.10	-52.6	-54.4	14.7	0.00e+00	0	28	0	838860800	71	4413
2026-01-04 09:42:26.98	337.52	68.64	-53.2	-55.1	14.4	0.00e+00	0	29	0	840957952	71	4795
2026-01-04 09:42:27.99	337.43	68.18	-53.3	-55.3	14.3	0.00e+00	0	28	0	842006528	71	4885
2026-01-04 09:42:29.00	337.34	67.72	-52.9	-54.8	14.6	0.00e+00	0	28	0	844103680	72	4358
2026-01-04 09:42:30.01	337.26	67.27	-53.0	-55.0	14.5	0.00e+00	0	28	0	846200832	72	4452
2026-01-04 09:42:31.02	337.18	66.82	-52.7	-54.6	14.7	0.00e+00	0	28	0	848297984	72	4280
2026-01-04 09:42:32.03	337.10	66.37	-52.0	-53.8	14.8	0.00e+00	0	28	0	850395136	70	4343
2026-01-04 09:42:33.03	337.03	65.92	-51.2	-52.8	14.9	0.00e+00	0	28	0	851443712	68	4362
2026-01-04 09:42:34.04	336.96	65.48	-50.4	-51.8	15.1	0.00e+00	0	28	0	853540864	67	4138
2026-01-04 09:42:35.05	336.90	65.03	-50.4	-51.9	15.0	0.00e+00	0	28	0	855638016	66	4434
2026-01-04 09:42:36.06	336.83	64.59	-50.9	-52.4	14.8	0.00e+00	0	28	0	857735168	66	4701
2026-01-04 09:42:37.06	336.77	64.16	-52.3	-54.2	14.5	0.00e+00	0	28	0	859832320	69	4839
2026-01-04 09:42:38.07	336.72	63.72	-52.4	-54.4	14.5	0.00e+00	0	28	0	860880896	70	4671
2026-01-04 09:42:39.08	336.66	63.29	-52.1	-54.1	14.6	0.00e+00	0	28	0	862978048	70	4538
2026-01-04 09:42:40.09	336.61	62.86	-51.2	-53.0	14.9	0.00e+00	0	28	0	865075200	69	4240
2026-01-04 09:42:41.10	336.55	62.43	-50.3	-51.9	15.1	0.00e+00	0	28	0	867172352	67	4154
2026-01-04 09:42:42.10	336.50	62.01	-50.6	-52.1	15.0	0.00e+00	0	28	0	869269504	67	4285
2026-01-04 09:42:43.11	336.46	61.59	-51.7	-53.5	14.7	0.00e+00	0	28	0	871366656	68	4743
2026-01-04 09:42:44.12	336.41	61.17	-53.5	-56.0	14.0	0.00e+00	0	28	0	872415232	72	4992
2026-01-04 09:42:45.13	336.36	60.75	-54.5	-57.4	13.6	0.00e+00	0	28	0	874512384	74	5248
2026-01-04 09:42:46.13	336.32	60.34	-53.2	-55.4	14.4	0.00e+00	0	28	0	876609536	73	4420
2026-01-04 09:42:47.15	336.28	59.93	-51.8	-53.6	14.8	0.00e+00	0	28	0	878706688	70	4270
2026-01-04 09:42:48.15	336.24	59.52	-51.7	-53.5	14.7	0.00e+00	0	29	0	879755264	69	4485
2026-01-04 09:42:49.16	336.20	59.12	-51.5	-53.2	14.8	0.00e+00	0	28	0	881852416	69	4310
2026-01-04 09:42:50.17	336.16	58.71	-50.7	-52.2	15.1	0.00e+00	0	28	0	883949568	68	4080
2026-01-04 09:42:51.18	336.13	58.31	-50.6	-52.1	15.0	0.00e+00	0	29	0	886046720	67	4286
2026-01-04 09:42:52.18	336.09	57.92	-52.2	-54.1	14.6	0.00e+00	0	28	0	888143872	69	4800
2026-01-04 09:42:53.19	336.06	57.52	-52.1	-54.0	14.7	0.00e+00	0	28	0	889192448	70	4465
2026-01-04 09:42:54.20	336.02	57.13	-51.9	-53.8	14.7	0.00e+00	0	28	0	891289600	70	4342
2026-01-04 09:42:55.21	335.99	56.74	-51.4	-53.1	14.9	0.00e+00	0	28	0	893386752	69	4271
2026-01-04 09:42:56.22	335.96	56.35	-51.4	-53.1	14.9	0.00e+00	0	28	0	895483904	69	4254
2026-01-04 09:42:57.22	335.93	55.97	-50.9	-52.6	14.9	0.00e+00	0	28	0	897581056	68	4251
2026-01-04 09:42:58.22	335.90	55.59	-51.0	-52.6	15.0	0.00e+00	0	28	0	899678208	68	4282
2026-01-04 09:42:59.23	335.87	55.21	-52.3	-54.4	14.5	0.00e+00	0	28	0	900726784	69	4938
2026-01-04 09:43:00.23	335.85	54.84	-53.8	-56.6	13.8	0.00e+00	0	28	0	902823936	72	5344
2026-01-04 09:43:01.24	335.82	54.47	-54.3	-57.3	13.6	0.00e+00	0	28	0	904921088	74	5180
2026-01-04 09:43:02.25	335.80	54.09	-54.1	-56.9	13.8	0.00e+00	0	28	0	907018240	74	4929
2026-01-04 09:43:03.25	335.77	53.73	-53.2	-55.7	14.3	0.00e+00	0	29	0	908066816	73	4558
2026-01-04 09:43:04.26	335.75	53.36	-52.9	-55.2	14.4	0.00e+00	0	28	0	910163968	72	4553
2026-01-04 09:43:05.27	335.72	53.00	-53.3	-55.8	14.1	0.00e+00	0	28	0	912261120	72	4904
2026-01-04 09:43:06.27	335.70	52.64	-53.8	-56.6	13.9	0.00e+00	0	28	0	914358272	73	5072
2026-01-04 09:43:07.28	335.68	52.28	-55.0	-58.7	13.1	0.00e+00	0	28	0	916455424	75	5756
2026-01-04 09:43:08.29	335.66	51.93	-55.0	-58.8	13.0	0.00e+00	0	28	0	917504000	75	5803
2026-01-04 09:43:09.30	335.63	51.57	-54.4	-57.5	13.6	0.00e+00	0	28	0	919601152	75	5003
2026-01-04 09:43:10.31	335.61	51.22	-53.0	-55.3	14.3	0.00e+00	0	28	0	921698304	72	4651
2026-01-04 09:43:11.32	335.59	50.88	-52.8	-55.0	14.4	0.00e+00	0	28	0	923795456	71	4728
2026-01-04 09:43:12.32	335.58	50.53	-52.5	-54.5	14.6	0.00e+00	0	28	0	925892608	71	4484
2026-01-04 09:43:13.33	335.56	50.19	-52.7	-54.8	14.4	0.00e+00	0	28	0	927989760	71	4616
2026-01-04 09:43:14.34	335.54	49.85	-51.8	-53.7	14.7	0.00e+00	0	28	0	929038336	70	4295
2026-01-04 09:43:15.34	335.52	49.52	-52.4	-54.5	14.4	0.00e+00	0	28	0	931135488	70	4733
2026-01-04 09:43:16.34	335.50	49.18	-53.9	-56.5	13.8	0.00e+00	0	28	0	933232640	72	5333
2026-01-04 09:43:17.35	335.49	48.85	-55.6	-59.6	12.5	0.00e+00	0	28	0	935329792	76	6011
2026-01-04 09:43:18.36	335.47	48.52	-55.7	-59.7	12.5	0.00e+00	0	28	0	937426944	77	5730
2026-01-04 09:43:19.37	335.45	48.19	-54.0	-56.7	13.8	0.00e+00	0	28	0	938475520	74	4825
2026-01-04 09:43:20.37	335.44	47.87	-52.3	-54.3	14.6	0.00e+00	0	28	0	940572672	71	4354
2026-01-04 09:43:21.38	335.42	47.55	-51.1	-52.7	14.8	0.00e+00	0	28	0	942669824	68	4340
2026-01-04 09:43:22.39	335.41	47.23	-50.4	-51.9	15.1	0.00e+00	0	28	0	944766976	67	4162
2026-01-04 09:43:23.40	335.39	46.91	-51.0	-52.6	14.9	0.00e+00	0	29	0	945815552	67	4500
2026-01-04 09:43:24.41	335.38	46.60	-52.2	-54.0	14.6	0.00e+00	0	28	0	947912704	69	4750
2026-01-04 09:43:25.41	335.37	46.29	-52.6	-54.6	14.5	0.00e+00	0	28	0	950009856	70	4804
2026-01-04 09:43:26.42	335.35	45.97	-53.2	-55.3	14.3	0.00e+00	0	28	0	952107008	71	4920
2026-01-04 09:43:27.42	335.34	45.67	-53.5	-55.8	14.1	0.00e+00	0	28	0	954204160	72	4919
2026-01-04 09:43:28.42	335.33	45.37	-53.9	-56.4	14.0	0.00e+00	0	28	0	956301312	73	4950
2026-01-04 09:43:29.43	335.32	45.06	-53.4	-55.6	14.3	0.00e+00	0	28	0	957349888	73	4512
2026-01-04 09:43:30.43	335.30	44.76	-53.0	-55.1	14.4	0.00e+00	0	28	0	959447040	72	4535
2026-01-04 09:43:31.44	335.29	44.46	-52.4	-54.4	14.6	0.00e+00	0	29	0	961544192	71	4394
2026-01-04 09:43:32.45	335.28	44.17	-52.6	-54.6	14.5	0.00e+00	0	29	0	963641344	71	4540
2026-01-04 09:43:33.46	335.27	43.87	-52.6	-54.5	14.5	0.00e+00	0	28	0	964689920	71	4469
2026-01-04 09:43:34.47	335.26	43.58	-52.9	-55.0	14.3	0.00e+00	0	28	0	966787072	71	4732
2026-01-04 09:43:35.48	335.25	43.29	-52.4	-54.3	14.6	0.00e+00	0	28	0	968884224	71	4360
2026-01-04 09:43:36.49	335.24	43.00	-52.1	-53.9	14.6	0.00e+00	0	29	0	970981376	70	4440
2026-01-04 09:43:37.50	335.23	42.71	-52.1	-54.0	14.6	0.00e+00	0	28	0	973078528	70	4476
2026-01-04 09:43:38.50	335.22	42.43	-52.5	-54.6	14.4	0.00e+00	0	29	0	974127104	70	4783
2026-01-04 09:43:39.51	335.21	42.15	-53.1	-55.4	14.2	0.00e+00	0	29	0	976224256	71	4936
2026-01-04 09:43:40.52	335.20	41.87	-53.3	-55.7	14.0	0.00e+00	0	28	0	978321408	71	5106
2026-01-04 09:43:41.52	335.19	41.60	-53.6	-56.1	13.9	0.00e+00	0	29	0	980418560	72	5090
2026-01-04 09:43:42.52	335.18	41.33	-53.3	-55.8	14.0	0.00e+00	0	28	0	982515712	72	4880
2026-01-04 09:43:43.53	335.17	41.05	-53.0	-55.3	14.3	0.00e+00	0	28	0	984612864	72	4603
2026-01-04 09:43:44.53	335.16	40.78	-52.0	-53.9	14.7	0.00e+00	0	28	0	985661440	70	4414
2026-01-04 09:43:45.54	335.15	40.51	-51.7	-53.5	14.8	0.00e+00	0	28	0	987758592	70	4209
2026-01-04 09:43:46.54	335.15	40.25	-51.8	-53.6	14.7	0.00e+00	0	28	0	989855744	69	4506
2026-01-04 09:43:47.55	335.14	39.98	-52.5	-54.5	14.4	0.00e+00	0	28	0	991952896	70	4740
2026-01-04 09:43:48.56	335.13	39.72	-53.4	-55.9	14.1	0.00e+00	0	28	0	993001472	72	4929
2026-01-04 09:43:49.57	335.12	39.46	-53.8	-56.5	13.7	0.00e+00	0	28	0	995098624	72	5320
2026-01-04 09:43:50.58	335.12	39.20	-53.8	-56.6	13.7	0.00e+00	0	28	0	997195776	73	5069
2026-01-04 09:43:51.59	335.11	38.94	-54.5	-57.8	13.2	0.00e+00	0	28	0	999292928	74	5487
2026-01-04 09:43:52.59	335.10	38.69	-55.1	-59.0	12.6	0.00e+00	0	28	0	1001390080	75	5938
2026-01-04 09:43:53.60	335.10	38.44	-55.4	-59.7	12.2	0.00e+00	0	29	0	1002438656	75	6494
2026-01-04 09:43:54.61	335.09	38.19	-55.8	-60.6	11.7	2.20e-06	0	28	0	1004535808	76	6759
2026-01-04 09:43:55.62	335.08	37.94	-55.7	-60.3	11.8	6.80e-06	0	29	0	1006632960	76	6542
2026-01-04 09:43:56.63	335.08	37.69	-55.4	-59.6	12.2	7.00e-07	0	29	0	1008730112	76	6051
2026-01-04 09:43:57.63	335.07	37.44	-55.5	-60.0	11.8	7.00e-07	0	28	0	1010827264	76	6338
2026-01-04 09:43:58.64	335.06	37.20	-55.0	-58.7	12.8	0.00e+00	0	28	0	1012924416	76	5457
2026-01-04 09:43:59.64	335.06	36.96	-54.0	-56.9	13.6	0.00e+00	0	28	0	1013972992	74	4949
2026-01-04 09:44:00.65	335.05	36.72	-53.4	-56.0	14.0	0.00e+00	0	28	0	1016070144	73	4759
2026-01-04 09:44:01.66	335.05	36.48	-52.8	-55.1	14.3	0.00e+00	0	28	0	1018167296	72	4501
2026-01-04 09:44:02.67	335.04	36.24	-52.5	-54.6	14.4	0.00e+00	0	28	0	1020264448	71	4536
2026-01-04 09:44:03.68	335.04	36.01	-52.6	-54.9	14.3	0.00e+00	0	28	0	1022361600	71	4660
2026-01-04 09:44:04.69	335.03	35.77	-52.9	-55.3	14.2	0.00e+00	0	28	0	1023410176	71	4891
2026-01-04 09:44:05.69	335.03	35.54	-53.6	-56.4	13.8	0.00e+00	0	28	0	1025507328	72	5248
2026-01-04 09:44:06.70	335.02	35.31	-54.4	-57.6	13.4	0.00e+00	0	28	0	1027604480	74	5363
2026-01-04 09:44:07.71	335.02	35.08	-55.8	-60.6	11.7	0.00e+00	0	28	0	1029701632	76	6740
2026-01-04 09:44:08.72	335.01	34.86	-56.5	-62.5	10.5	6.86e-05	0	28	0	1031798784	78	7535
2026-01-04 09:44:09.73	335.01	34.63	-56.9	-63.9	9.4	1.99e-03	0	28	0	1032847360	78	8765
2026-01-04 09:44:10.74	335.00	34.41	-57.3	-65.4	8.2	1.83e-02	0	28	0	1034944512	79	9892
2026-01-04 09:44:11.75	335.00	34.19	-57.2	-64.8	8.8	2.56e-02	0	28	0	1037041664	79	9202
2026-01-04 09:44:12.75	334.99	33.97	-56.9	-63.2	9.7	1.04e-02	0	28	0	1039138816	79	7692
2026-01-04 09:44:13.76	334.99	33.75	-56.5	-62.0	10.7	1.08e-03	0	28	0	1041235968	79	6669
2026-01-04 09:44:14.77	334.99	33.53	-56.0	-60.6	11.8	3.43e-05	0	28	0	1042284544	78	5996
2026-01-04 09:44:15.78	334.98	33.32	-55.0	-58.6	12.9	0.00e+00	0	28	0	1044381696	76	5374
2026-01-04 09:44:16.79	334.98	33.10	-54.8	-58.2	13.2	0.00e+00	0	29	0	1046478848	76	5103
2026-01-04 09:44:17.80	334.97	32.89	-54.2	-57.2	13.6	0.00e+00	0	28	0	1048576000	75	4868
2026-01-04 09:44:18.81	334.97	32.68	-54.0	-56.9	13.7	0.00e+00	0	28	0	1050673152	74	4943
2026-01-04 09:44:19.81	334.97	32.47	-54.0	-56.8	13.8	0.00e+00	0	28	0	1051721728	74	4901
2026-01-04 09:44:20.81	334.96	32.26	-53.7	-56.3	13.9	0.00e+00	0	28	0	1053818880	73	4916
2026-01-04 09:44:21.82	334.96	32.05	-53.7	-56.3	13.9	0.00e+00	0	28	0	1055916032	73	4909
2026-01-04 09:44:22.83	334.96	31.85	-53.6	-56.2	14.0	0.00e+00	0	28	0	1058013184	73	4823
2026-01-04 09:44:23.83	334.96	31.65	-53.7	-56.2	13.9	0.00e+00	0	28	0	1060110336	73	4834
2026-01-04 09:44:24.84	334.95	31.44	-53.8	-56.4	13.8	0.00e+00	0	29	0	1061158912	73	4957
2026-01-04 09:44:25.85	334.95	31.24	-53.7	-56.2	14.0	0.00e+00	0	28	0	1063256064	73	4835
2026-01-04 09:44:26.86	334.95	31.04	-53.7	-56.2	14.0	0.00e+00	0	28	0	1065353216	73	4834
2026-01-04 09:44:27.86	334.94	30.85	-53.7	-56.2	14.0	0.00e+00	0	28	0	1067450368	73	4868
2026-01-04 09:44:28.87	334.94	30.65	-53.7	-56.2	14.0	0.00e+00	0	28	0	1069547520	73	4841
2026-01-04 09:44:29.88	334.94	30.45	-53.7	-56.1	14.0	0.00e+00	0	28	0	1070596096	73	4791
2026-01-04 09:44:30.88	334.94	30.26	-54.0	-56.6	13.8	0.00e+00	0	28	0	1072693248	73	5089
2026-01-04 09:44:31.89	334.93	30.07	-53.9	-56.5	13.8	0.00e+00	0	28	0	1074790400	73	4994
2026-01-04 09:44:32.89	334.93	29.88	-54.2	-57.0	13.6	0.00e+00	0	28	0	1076887552	73	5284
2026-01-04 09:44:33.90	334.93	29.69	-54.4	-57.3	13.4	0.00e+00	0	28	0	1078984704	73	5474
2026-01-04 09:44:34.91	334.93	29.50	-54.5	-57.5	13.3	0.00e+00	0	28	0	1080033280	74	5286
2026-01-04 09:44:35.92	334.92	29.31	-54.7	-57.8	13.2	0.00e+00	0	28	0	1082130432	74	5487
2026-01-04 09:44:36.93	334.92	29.12	-54.8	-58.0	13.1	0.00e+00	0	28	0	1084227584	74	5608
2026-01-04 09:44:37.93	334.92	28.94	-54.8	-57.9	13.2	0.00e+00	0	28	0	1086324736	75	5247
2026-01-04 09:44:38.94	334.92	28.75	-54.8	-58.0	13.2	0.00e+00	0	28	0	1088421888	75	5288
2026-01-04 09:44:39.94	334.92	28.57	-54.6	-57.6	13.4	0.00e+00	0	28	0	1089470464	75	5094
2026-01-04 09:44:40.95	334.92	28.39	-54.1	-56.9	13.7	0.00e+00	0	28	0	1091567616	74	4932
2026-01-04 09:44:41.95	334.91	28.21	-53.5	-55.9	14.0	0.00e+00	0	28	0	1093664768	73	4688
2026-01-04 09:44:42.96	334.91	28.03	-53.2	-55.5	14.2	0.00e+00	0	28	0	1095761920	72	4712
2026-01-04 09:44:43.96	334.91	27.85	-52.7	-54.8	14.4	0.00e+00	0	28	0	1097859072	72	4383
2026-01-04 09:44:44.96	334.91	27.68	-52.5	-54.6	14.5	0.00e+00	0	28	0	1098907648	71	4500
2026-01-04 09:44:45.97	334.91	27.50	-52.0	-53.9	14.6	0.00e+00	0	28	0	1101004800	70	4431
2026-01-04 09:44:46.98	334.91	27.33	-52.1	-54.0	14.6	0.00e+00	0	29	0	1103101952	70	4484
2026-01-04 09:44:47.99	334.91	27.15	-52.2	-54.1	14.6	0.00e+00	0	28	0	1105199104	70	4519
2026-01-04 09:44:49.00	334.90	26.98	-52.3	-54.3	14.5	0.00e+00	0	28	0	1107296256	70	4601
2026-01-04 09:44:50.01	334.90	26.81	-52.5	-54.5	14.4	0.00e+00	0	28	0	1108344832	70	4739
2026-01-04 09:44:51.02	334.90	26.64	-52.5	-54.5	14.4	0.00e+00	0	28	0	1110441984	70	4754
2026-01-04 09:44:52.02	334.90	26.47	-52.8	-54.9	14.3	0.00e+00	0	28	0	1112539136	70	4942
2026-01-04 09:44:53.03	334.90	26.30	-52.8	-54.9	14.3	0.00e+00	0	28	0	1114636288	71	4695
2026-01-04 09:44:54.04	334.90	26.13	-53.0	-55.1	14.2	0.00e+00	0	28	0	1116733440	71	4810
2026-01-04 09:44:55.05	334.90	25.96	-52.9	-55.1	14.3	0.00e+00	0	28	0	1117782016	71	4763
2026-01-04 09:44:56.05	334.90	25.80	-52.9	-55.0	14.3	0.00e+00	0	28	0	1119879168	71	4751
2026-01-04 09:44:57.06	334.90	25.64	-52.6	-54.8	14.3	0.00e+00	0	28	0	1121976320	71	4616
2026-01-04 09:44:58.06	334.90	25.47	-52.5	-54.6	14.5	0.00e+00	0	28	0	1124073472	71	4496
2026-01-04 09:44:59.07	334.89	25.31	-52.7	-54.9	14.4	0.00e+00	0	28	0	1126170624	71	4654
2026-01-04 09:45:00.07	334.89	25.15	-52.4	-54.5	14.5	0.00e+00	0	28	0	1127219200	71	4454
2026-01-04 09:45:01.08	334.89	24.99	-52.5	-54.6	14.5	0.00e+00	0	28	0	1129316352	71	4494
2026-01-04 09:45:02.09	334.89	24.83	-52.4	-54.4	14.5	0.00e+00	0	28	0	1131413504	71	4413
2026-01-04 09:45:03.10	334.89	24.67	-52.3	-54.3	14.6	0.00e+00	0	28	0	1133510656	71	4364
2026-01-04 09:45:04.11	334.89	24.51	-52.3	-54.3	14.6	0.00e+00	0	28	0	1135607808	71	4360
2026-01-04 09:45:05.12	334.89	24.36	-52.0	-53.9	14.6	0.00e+00	0	28	0	1136656384	70	4427
2026-01-04 09:45:06.13	334.89	24.20	-51.9	-53.8	14.7	0.00e+00	0	29	0	1138753536	70	4380
2026-01-04 09:45:07.13	334.89	24.05	-51.9	-53.8	14.7	0.00e+00	0	28	0	1140850688	70	4349
2026-01-04 09:45:08.14	334.89	23.90	-51.8	-53.7	14.7	0.00e+00	0	28	0	1142947840	70	4292
2026-01-04 09:45:09.14	334.89	23.74	-51.7	-53.6	14.7	0.00e+00	0	28	0	1145044992	69	4504
2026-01-04 09:45:10.15	334.89	23.59	-51.6	-53.5	14.7	0.00e+00	0	28	0	1146093568	69	4452
2026-01-04 09:45:11.16	334.89	23.44	-51.7	-53.5	14.7	0.00e+00	0	28	0	1148190720	69	4464
2026-01-04 09:45:12.17	334.89	23.29	-51.5	-53.3	14.7	0.00e+00	0	28	0	1150287872	69	4350
2026-01-04 09:45:13.17	334.89	23.14	-51.7	-53.6	14.7	0.00e+00	0	28	0	1152385024	69	4510
2026-01-04 09:45:14.18	334.89	22.99	-51.6	-53.4	14.7	0.00e+00	0	29	0	1154482176	69	4405
2026-01-04 09:45:15.19	334.89	22.85	-51.6	-53.5	14.7	0.00e+00	0	28	0	1155530752	69	4454
2026-01-04 09:45:16.20	334.89	22.70	-51.6	-53.4	14.7	0.00e+00	0	28	0	1157627904	69	4429
2026-01-04 09:45:17.21	334.89	22.55	-51.4	-53.2	14.8	0.00e+00	0	28	0	1159725056	69	4300
2026-01-04 09:45:18.22	334.89	22.41	-51.5	-53.3	14.8	0.00e+00	0	28	0	1161822208	69	4351
2026-01-04 09:45:19.23	334.89	22.26	-51.5	-53.2	14.8	0.00e+00	0	28	0	1163919360	69	4336
2026-01-04 09:45:20.24	334.89	22.12	-51.0	-52.7	14.8	0.00e+00	0	28	0	1164967936	68	4334
2026-01-04 09:45:21.24	334.89	21.98	-51.0	-52.7	14.8	0.00e+00	0	28	0	1167065088	68	4328
2026-01-04 09:45:22.25	334.89	21.84	-50.9	-52.6	14.9	0.00e+00	0	28	0	1169162240	68	4285
2026-01-04 09:45:23.25	334.89	21.70	-50.9	-52.6	14.9	0.00e+00	0	28	0	1171259392	68	4257
2026-01-04 09:45:24.26	334.89	21.55	-51.1	-52.9	14.8	0.00e+00	0	29	0	1173356544	68	4420
2026-01-04 09:45:25.27	334.89	21.42	-51.2	-53.0	14.7	0.00e+00	0	28	0	1174405120	68	4474
2026-01-04 09:45:26.28	334.89	21.28	-51.3	-53.1	14.7	0.00e+00	0	28	0	1176502272	68	4545
2026-01-04 09:45:27.28	334.89	21.14	-51.6	-53.5	14.6	0.00e+00	0	28	0	1178599424	68	4706
2026-01-04 09:45:28.29	334.89	21.00	-51.7	-53.6	14.5	0.00e+00	0	28	0	1180696576	68	4788
2026-01-04 09:45:29.29	334.89	20.87	-51.9	-53.9	14.4	0.00e+00	0	28	0	1182793728	68	4932
2026-01-04 09:45:30.29	334.89	20.73	-52.1	-54.2	14.4	0.00e+00	0	28	0	1183842304	69	4820
2026-01-04 09:45:31.29	334.89	20.60	-52.3	-54.5	14.3	0.00e+00	0	28	0	1185939456	69	4992
2026-01-04 09:45:32.29	334.90	20.46	-52.5	-54.7	14.3	0.00e+00	0	28	0	1188036608	70	4859
2026-01-04 09:45:33.30	334.90	20.33	-52.6	-54.9	14.2	0.00e+00	0	29	0	1190133760	70	4952
2026-01-04 09:45:34.30	334.90	20.20	-52.7	-55.1	14.1	0.00e+00	0	28	0	1192230912	70	5059
2026-01-04 09:45:35.31	334.90	20.07	-52.9	-55.3	14.0	0.00e+00	0	28	0	1193279488	70	5204
2026-01-04 09:45:36.31	334.90	19.94	-53.1	-55.7	13.9	0.00e+00	0	28	0	1195376640	71	5126
2026-01-04 09:45:37.32	334.90	19.81	-53.2	-55.8	13.9	0.00e+00	0	28	0	1197473792	71	5217
2026-01-04 09:45:38.31	334.90	19.68	-53.2	-55.9	13.8	0.00e+00	0	28	0	1199570944	71	5226
2026-01-04 09:45:39.31	334.90	19.55	-53.2	-55.8	13.9	0.00e+00	0	28	0	1201668096	72	4926
2026-01-04 09:45:40.31	334.90	19.42	-53.2	-55.8	13.9	0.00e+00	0	28	0	1202716672	72	4898
2026-01-04 09:45:41.31	334.90	19.29	-53.4	-56.0	13.8	0.00e+00	0	28	0	1204813824	72	5039
2026-01-04 09:45:42.32	334.90	19.17	-53.1	-55.7	14.0	0.00e+00	0	28	0	1206910976	72	4855
2026-01-04 09:45:43.32	334.90	19.04	-53.1	-55.7	13.9	0.00e+00	0	28	0	1209008128	72	4843
2026-01-04 09:45:44.32	334.90	18.92	-53.2	-55.8	13.9	0.00e+00	0	28	0	1211105280	72	4911
2026-01-04 09:45:45.33	334.91	18.79	-53.1	-55.7	14.0	0.00e+00	0	28	0	1212153856	72	4829
2026-01-04 09:45:46.33	334.91	18.67	-53.0	-55.4	14.1	0.00e+00	0	28	0	1214251008	72	4698
2026-01-04 09:45:47.33	334.91	18.54	-53.0	-55.5	14.0	0.00e+00	0	28	0	1216348160	72	4754
2026-01-04 09:45:48.34	334.91	18.42	-53.0	-55.5	14.1	0.00e+00	0	28	0	1218445312	72	4738
2026-01-04 09:45:49.35	334.91	18.30	-53.1	-55.7	14.0	0.00e+00	0	28	0	1219493888	72	4822
2026-01-04 09:45:50.34	334.91	18.18	-52.9	-55.4	14.1	0.00e+00	0	28	0	1221591040	72	4671
2026-01-04 09:45:51.35	334.91	18.05	-53.0	-55.4	14.1	2.20e-06	0	28	0	1223688192	72	4676
2026-01-04 09:45:52.36	334.91	17.93	-53.0	-55.4	14.1	0.00e+00	0	28	0	1225785344	72	4691
2026-01-04 09:45:53.37	334.91	17.81	-53.1	-55.6	14.0	0.00e+00	0	28	0	1227882496	72	4811
2026-01-04 09:45:54.38	334.92	17.69	-53.0	-55.4	14.1	0.00e+00	0	28	0	1228931072	72	4671
2026-01-04 09:45:55.38	334.92	17.57	-52.9	-55.4	14.1	0.00e+00	0	28	0	1231028224	72	4657
2026-01-04 09:45:56.38	334.92	17.46	-52.9	-55.4	14.1	0.00e+00	0	28	0	1233125376	72	4654
2026-01-04 09:45:57.39	334.92	17.34	-52.9	-55.3	14.1	0.00e+00	0	28	0	1235222528	72	4619
2026-01-04 09:45:58.40	334.92	17.22	-53.0	-55.4	14.0	0.00e+00	0	28	0	1237319680	72	4660
2026-01-04 09:45:59.40	334.92	17.10	-52.8	-55.2	14.2	0.00e+00	0	28	0	1238368256	72	4554
2026-01-04 09:46:00.40	334.92	16.99	-52.7	-55.0	14.2	0.00e+00	0	29	0	1240465408	72	4480
2026-01-04 09:46:01.41	334.93	16.87	-52.8	-55.2	14.2	0.00e+00	0	28	0	1242562560	72	4551
2026-01-04 09:46:02.41	334.93	16.76	-52.9	-55.2	14.2	0.00e+00	0	29	0	1244659712	72	4582
2026-01-04 09:46:03.41	334.93	16.64	-52.9	-55.3	14.1	0.00e+00	0	28	0	1246756864	72	4609
