passes_logs/2026/01/04/R3.2S_Murmansk/R3.2S_Murmansk__20260104_233902_NOAA_20_JPSS-1_rec.log

#Pass ID: 20260104_233902_NOAA 20 (JPSS-1)
#Satellite: NOAA 20 (JPSS-1)
#Configuration: NOAA 20
#almurnet v.1.7.20251203
#Start time: 2026-01-04 23:39:02

#Version: 2.2.20231116
#Station: R3.2S_Murmansk
#Location: 33.079688 lon 68.888172 lat
#TLE: 1 43013U 17073A   26004.47528369  .00000132  00000+0  83671-4 0  9999
#TLE: 2 43013  98.7626 305.5264 0001854  54.5883 305.5466 14.19533142421242

#Time	Az	El	Level	Level2	SNR	BER	BlckErr	Temp	State	Recorded	gain1	gain2
2026-01-04 23:39:02.32	21.24	2.00	-58.4	-74.2	3.8	1.49e+00	0	26	0	0	83	21680
2026-01-04 23:39:03.33	21.27	2.06	-58.4	-73.9	3.8	1.49e+00	0	26	104	0	81	23342
2026-01-04 23:39:04.34	21.31	2.12	-58.4	-73.7	3.8	1.49e+00	0	26	104	0	81	23008
2026-01-04 23:39:05.35	21.34	2.19	-58.4	-73.6	3.8	1.49e+00	0	26	104	0	81	22712
2026-01-04 23:39:06.36	21.37	2.25	-58.4	-73.4	3.8	1.49e+00	0	26	104	0	81	22151
2026-01-04 23:39:07.37	21.41	2.31	-58.4	-73.3	3.8	1.49e+00	0	26	104	0	81	21816
2026-01-04 23:39:08.38	21.44	2.38	-58.4	-73.2	3.8	1.49e+00	0	26	104	0	81	21662
2026-01-04 23:39:09.39	21.47	2.44	-58.4	-73.1	3.8	1.49e+00	0	26	104	0	81	21397
2026-01-04 23:39:10.39	21.51	2.50	-58.4	-73.0	3.8	1.49e+00	0	26	104	0	81	21220
2026-01-04 23:39:11.40	21.54	2.57	-58.4	-73.1	3.8	1.49e+00	0	26	104	0	81	21451
2026-01-04 23:39:12.41	21.57	2.63	-58.4	-73.2	3.8	1.49e+00	0	26	104	0	81	21634
2026-01-04 23:39:13.42	21.61	2.69	-58.4	-73.2	3.8	1.49e+00	0	26	104	0	81	21522
2026-01-04 23:39:14.43	21.64	2.76	-58.4	-72.9	3.8	1.49e+00	0	26	104	0	81	20964
2026-01-04 23:39:15.44	21.68	2.82	-58.3	-72.8	3.8	1.49e+00	0	26	104	0	81	20665
2026-01-04 23:39:16.45	21.71	2.89	-58.3	-72.6	3.8	1.49e+00	0	26	104	0	81	20248
2026-01-04 23:39:17.45	21.75	2.95	-58.3	-72.1	3.9	1.49e+00	0	26	104	0	81	19149
2026-01-04 23:39:18.46	21.78	3.01	-58.3	-71.6	4.0	1.47e+00	0	26	0	0	81	17934
2026-01-04 23:39:19.48	21.82	3.08	-58.2	-70.8	4.2	1.41e+00	0	26	0	0	81	16421
2026-01-04 23:39:20.48	21.85	3.14	-58.2	-70.7	4.2	1.39e+00	0	26	0	0	81	16197
2026-01-04 23:39:21.49	21.88	3.21	-58.2	-70.5	4.3	1.36e+00	0	26	0	0	81	15880
2026-01-04 23:39:22.50	21.92	3.28	-58.2	-70.1	4.5	1.29e+00	43	26	0	1048576	81	15071
2026-01-04 23:39:23.50	21.95	3.34	-58.2	-70.1	4.4	1.20e+00	78	26	0	3145728	81	15188
2026-01-04 23:39:24.51	21.99	3.41	-58.2	-70.1	4.4	1.17e+00	64	26	0	4194304	81	15147
2026-01-04 23:39:25.52	22.03	3.47	-58.2	-70.1	4.4	1.19e+00	49	26	0	6291456	81	15070
2026-01-04 23:39:26.53	22.06	3.54	-58.2	-70.1	4.4	1.29e+00	66	26	0	8388608	81	15176
2026-01-04 23:39:27.54	22.10	3.60	-58.1	-69.6	4.6	9.79e-01	0	26	0	10485760	81	14261
2026-01-04 23:39:28.55	22.13	3.67	-58.1	-68.9	4.9	8.23e-01	0	27	0	11534336	81	13217
2026-01-04 23:39:29.56	22.17	3.74	-58.0	-67.9	5.4	5.41e-01	0	26	0	13631488	81	11743
2026-01-04 23:39:30.57	22.21	3.80	-57.8	-66.5	6.2	3.05e-01	0	26	0	15728640	81	10059
2026-01-04 23:39:31.58	22.24	3.87	-57.7	-65.6	7.0	1.67e-01	0	27	0	17825792	81	9035
2026-01-04 23:39:32.58	22.28	3.93	-57.4	-64.4	8.0	4.33e-02	0	27	0	19922944	81	7894
2026-01-04 23:39:33.59	22.31	4.00	-57.2	-63.5	8.9	1.82e-02	0	27	0	20971520	81	7045
2026-01-04 23:39:34.61	22.35	4.07	-57.0	-62.7	9.4	6.67e-03	0	26	0	23068672	80	6844
2026-01-04 23:39:35.61	22.39	4.14	-56.7	-61.9	10.1	2.63e-03	0	27	0	25165824	80	6229
2026-01-04 23:39:36.62	22.43	4.20	-56.5	-61.3	10.6	4.32e-04	0	27	0	27262976	79	6154
2026-01-04 23:39:37.63	22.46	4.27	-56.2	-60.7	11.1	1.98e-04	0	26	0	29360128	79	5725
2026-01-04 23:39:38.64	22.50	4.34	-56.1	-60.3	11.3	7.62e-05	0	27	0	30408704	78	5809
2026-01-04 23:39:39.64	22.54	4.41	-56.2	-60.6	11.1	5.34e-05	0	27	0	32505856	78	5997
2026-01-04 23:39:40.64	22.57	4.47	-56.1	-60.5	11.2	5.72e-05	0	27	0	34603008	78	5933
2026-01-04 23:39:41.65	22.61	4.54	-56.2	-60.6	11.1	7.32e-05	0	27	0	36700160	78	5994
2026-01-04 23:39:42.66	22.65	4.61	-56.3	-60.9	10.9	1.17e-04	0	27	0	38797312	78	6210
2026-01-04 23:39:43.67	22.69	4.68	-56.5	-61.3	10.5	3.31e-04	0	27	0	40894464	78	6566
2026-01-04 23:39:44.68	22.73	4.75	-56.7	-61.9	10.0	8.51e-04	0	27	0	41943040	78	7032
2026-01-04 23:39:45.69	22.77	4.82	-57.4	-63.0	9.5	2.66e-03	0	26	0	44040192	79	7535
2026-01-04 23:39:46.70	22.80	4.89	-57.1	-63.3	8.9	8.02e-03	0	27	0	46137344	79	7783
2026-01-04 23:39:47.71	22.84	4.96	-57.4	-64.2	8.2	1.82e-02	0	27	0	48234496	79	8622
2026-01-04 23:39:48.72	22.88	5.02	-57.5	-64.8	7.7	3.75e-02	0	27	0	50331648	80	8690
2026-01-04 23:39:49.73	22.92	5.09	-56.4	-60.8	11.0	2.47e-02	0	27	0	51380224	79	5838
2026-01-04 23:39:50.73	22.96	5.16	-56.2	-60.5	11.3	6.56e-05	0	27	0	53477376	79	5626
2026-01-04 23:39:51.74	23.00	5.23	-58.0	-67.6	5.8	3.44e-04	0	27	0	55574528	81	11366
2026-01-04 23:39:52.75	23.04	5.30	-56.3	-60.9	10.7	1.74e-01	0	27	0	57671680	79	5864
2026-01-04 23:39:53.76	23.08	5.37	-58.0	-66.4	7.0	1.75e-05	0	27	0	58720256	81	9936
2026-01-04 23:39:54.77	23.12	5.44	-55.8	-59.5	11.9	8.42e-01	0	27	0	60817408	78	5316
2026-01-04 23:39:55.77	23.16	5.51	-55.4	-58.9	12.3	1.50e-06	0	27	0	62914560	77	5275
2026-01-04 23:39:56.78	23.20	5.58	-55.3	-58.6	12.5	7.00e-07	0	27	0	65011712	77	5085
2026-01-04 23:39:57.79	23.24	5.66	-55.1	-58.3	12.6	0.00e+00	0	27	0	66060288	76	5183
2026-01-04 23:39:58.80	23.28	5.73	-54.9	-57.9	12.9	7.00e-07	0	27	0	68157440	76	4974
2026-01-04 23:39:59.81	23.32	5.80	-54.9	-57.9	13.0	0.00e+00	0	27	0	70254592	76	4936
2026-01-04 23:40:00.82	23.36	5.87	-54.8	-57.8	13.0	0.00e+00	0	27	0	72351744	76	4880
2026-01-04 23:40:01.83	23.40	5.94	-54.6	-57.5	13.0	0.00e+00	0	27	0	74448896	75	5023
2026-01-04 23:40:02.83	23.44	6.01	-54.6	-57.5	13.1	0.00e+00	0	27	0	75497472	75	4991
2026-01-04 23:40:03.84	23.49	6.09	-54.5	-57.3	13.2	0.00e+00	0	27	0	77594624	75	4873
2026-01-04 23:40:04.84	23.53	6.16	-54.5	-57.3	13.2	0.00e+00	0	27	0	79691776	75	4876
2026-01-04 23:40:05.85	23.57	6.23	-54.5	-57.3	13.2	0.00e+00	0	27	0	81788928	75	4882
2026-01-04 23:40:06.86	23.61	6.30	-54.4	-57.2	13.3	0.00e+00	0	27	0	83886080	75	4835
2026-01-04 23:40:07.87	23.65	6.37	-54.4	-57.1	13.3	0.00e+00	0	27	0	84934656	75	4806
2026-01-04 23:40:08.88	23.70	6.45	-54.5	-57.2	13.3	0.00e+00	0	27	0	87031808	75	4861
2026-01-04 23:40:09.89	23.74	6.52	-54.6	-57.4	13.1	0.00e+00	0	27	0	89128960	75	4964
2026-01-04 23:40:10.90	23.78	6.59	-54.5	-57.2	13.2	0.00e+00	0	27	0	91226112	75	4862
2026-01-04 23:40:11.91	23.82	6.67	-54.4	-57.2	13.3	0.00e+00	0	27	0	93323264	75	4844
2026-01-04 23:40:12.92	23.87	6.74	-54.3	-57.0	13.4	0.00e+00	0	27	0	95420416	75	4726
2026-01-04 23:40:13.93	23.91	6.82	-54.3	-57.0	13.4	0.00e+00	0	27	0	96468992	75	4734
2026-01-04 23:40:14.93	23.95	6.89	-54.2	-56.7	13.4	0.00e+00	0	27	0	98566144	74	4866
2026-01-04 23:40:15.94	24.00	6.96	-54.2	-56.8	13.4	0.00e+00	0	27	0	100663296	74	4916
2026-01-04 23:40:16.95	24.04	7.04	-54.2	-56.8	13.4	0.00e+00	0	27	0	102760448	74	4924
2026-01-04 23:40:17.96	24.09	7.11	-54.3	-57.0	13.3	0.00e+00	0	27	0	103809024	74	5008
2026-01-04 23:40:18.97	24.13	7.19	-54.4	-57.0	13.3	0.00e+00	0	27	0	105906176	74	5028
2026-01-04 23:40:19.98	24.18	7.26	-54.3	-56.9	13.4	0.00e+00	0	27	0	108003328	74	4947
2026-01-04 23:40:20.99	24.22	7.34	-54.2	-56.8	13.5	0.00e+00	0	27	0	110100480	74	4880
2026-01-04 23:40:22.00	24.27	7.42	-54.2	-56.8	13.5	0.00e+00	0	27	0	112197632	74	4871
2026-01-04 23:40:23.01	24.31	7.49	-54.2	-56.7	13.5	0.00e+00	0	27	0	113246208	74	4867
2026-01-04 23:40:24.01	24.36	7.57	-54.2	-56.7	13.5	0.00e+00	0	27	0	115343360	74	4843
2026-01-04 23:40:25.03	24.40	7.64	-54.2	-56.7	13.5	0.00e+00	0	27	0	117440512	74	4864
2026-01-04 23:40:26.03	24.45	7.72	-54.1	-56.7	13.5	0.00e+00	0	27	0	119537664	74	4815
2026-01-04 23:40:27.04	24.49	7.80	-54.2	-56.7	13.5	0.00e+00	0	27	0	121634816	74	4869
2026-01-04 23:40:28.05	24.54	7.87	-54.1	-56.6	13.6	0.00e+00	0	27	0	123731968	74	4802
2026-01-04 23:40:29.06	24.59	7.95	-54.1	-56.6	13.6	0.00e+00	0	27	0	124780544	74	4782
2026-01-04 23:40:30.07	24.63	8.03	-54.1	-56.6	13.6	0.00e+00	0	27	0	126877696	74	4807
2026-01-04 23:40:31.08	24.68	8.11	-54.1	-56.6	13.6	0.00e+00	0	27	0	128974848	74	4776
2026-01-04 23:40:32.09	24.73	8.18	-54.2	-56.8	13.5	0.00e+00	0	27	0	131072000	74	4876
2026-01-04 23:40:33.10	24.78	8.26	-54.1	-56.6	13.6	0.00e+00	0	27	0	133169152	74	4809
2026-01-04 23:40:34.11	24.82	8.34	-54.0	-56.5	13.7	0.00e+00	0	27	0	134217728	74	4730
2026-01-04 23:40:35.11	24.87	8.42	-54.0	-56.5	13.7	0.00e+00	0	27	0	136314880	74	4715
2026-01-04 23:40:36.12	24.92	8.50	-54.0	-56.3	13.7	0.00e+00	0	27	0	138412032	74	4649
2026-01-04 23:40:37.13	24.97	8.58	-54.0	-56.4	13.7	0.00e+00	0	27	0	140509184	74	4656
2026-01-04 23:40:38.14	25.02	8.66	-54.0	-56.4	13.7	0.00e+00	0	27	0	142606336	74	4653
2026-01-04 23:40:39.15	25.06	8.74	-53.9	-56.3	13.8	0.00e+00	0	27	0	143654912	74	4604
2026-01-04 23:40:40.16	25.11	8.82	-54.0	-56.4	13.7	0.00e+00	0	27	0	145752064	74	4659
2026-01-04 23:40:41.17	25.16	8.90	-53.9	-56.2	13.8	0.00e+00	0	27	0	147849216	74	4587
2026-01-04 23:40:42.18	25.21	8.98	-53.8	-56.2	13.8	0.00e+00	0	27	0	149946368	74	4558
2026-01-04 23:40:43.18	25.26	9.06	-53.8	-56.1	13.9	0.00e+00	0	27	0	152043520	74	4529
2026-01-04 23:40:44.20	25.31	9.14	-53.8	-56.1	13.9	0.00e+00	0	27	0	153092096	74	4539
2026-01-04 23:40:45.20	25.36	9.22	-53.7	-56.0	13.9	0.00e+00	0	27	0	155189248	74	4483
2026-01-04 23:40:46.21	25.41	9.30	-53.7	-56.0	13.9	0.00e+00	0	27	0	157286400	74	4482
2026-01-04 23:40:47.22	25.46	9.38	-53.7	-56.0	13.9	0.00e+00	0	27	0	159383552	74	4484
2026-01-04 23:40:48.23	25.51	9.46	-53.7	-56.0	14.0	0.00e+00	0	27	0	161480704	74	4459
2026-01-04 23:40:49.24	25.57	9.54	-53.6	-55.8	13.9	0.00e+00	0	27	0	162529280	73	4624
2026-01-04 23:40:50.25	25.62	9.63	-53.6	-55.8	13.9	0.00e+00	0	27	0	164626432	73	4649
2026-01-04 23:40:51.26	25.67	9.71	-53.6	-55.9	13.9	0.00e+00	0	27	0	166723584	73	4655
2026-01-04 23:40:52.27	25.72	9.79	-53.5	-55.7	14.0	0.00e+00	0	27	0	168820736	73	4587
2026-01-04 23:40:53.27	25.77	9.87	-53.6	-55.8	14.0	0.00e+00	0	27	0	170917888	73	4619
2026-01-04 23:40:54.28	25.83	9.96	-53.5	-55.7	14.0	0.00e+00	0	27	0	171966464	73	4561
2026-01-04 23:40:55.28	25.88	10.04	-53.6	-55.8	14.0	0.00e+00	0	27	0	174063616	73	4617
2026-01-04 23:40:56.29	25.93	10.12	-53.5	-55.6	14.0	0.00e+00	0	27	0	176160768	73	4527
2026-01-04 23:40:57.30	25.99	10.21	-53.5	-55.6	14.0	0.00e+00	0	27	0	178257920	73	4542
2026-01-04 23:40:58.30	26.04	10.29	-53.4	-55.6	14.1	0.00e+00	0	27	0	180355072	73	4520
2026-01-04 23:40:59.31	26.09	10.38	-53.5	-55.6	14.0	0.00e+00	0	27	0	181403648	73	4544
2026-01-04 23:41:00.32	26.15	10.46	-53.4	-55.5	14.1	0.00e+00	0	27	0	183500800	73	4477
2026-01-04 23:41:01.33	26.20	10.55	-53.5	-55.6	14.0	0.00e+00	0	27	0	185597952	73	4540
2026-01-04 23:41:02.33	26.26	10.63	-53.5	-55.7	14.0	0.00e+00	0	27	0	187695104	73	4549
2026-01-04 23:41:03.34	26.31	10.72	-53.3	-55.5	14.1	0.00e+00	0	27	0	189792256	73	4457
2026-01-04 23:41:04.35	26.37	10.80	-53.5	-55.7	14.0	0.00e+00	0	27	0	190840832	73	4572
2026-01-04 23:41:05.36	26.42	10.89	-53.4	-55.5	14.2	0.00e+00	0	27	0	192937984	73	4454
2026-01-04 23:41:06.37	26.48	10.97	-53.3	-55.4	14.2	0.00e+00	0	27	0	195035136	73	4420
2026-01-04 23:41:07.38	26.54	11.06	-53.2	-55.3	14.2	0.00e+00	0	27	0	197132288	73	4374
2026-01-04 23:41:08.39	26.59	11.15	-53.2	-55.3	14.2	0.00e+00	0	27	0	199229440	73	4348
2026-01-04 23:41:09.40	26.65	11.24	-53.1	-55.1	14.2	0.00e+00	0	27	0	200278016	72	4512
2026-01-04 23:41:10.41	26.71	11.32	-53.1	-55.1	14.2	0.00e+00	0	27	0	202375168	72	4542
2026-01-04 23:41:11.42	26.77	11.41	-53.1	-55.1	14.2	0.00e+00	0	27	0	204472320	72	4500
2026-01-04 23:41:12.43	26.82	11.50	-52.9	-54.9	14.3	0.00e+00	0	27	0	206569472	72	4433
2026-01-04 23:41:13.44	26.88	11.59	-52.9	-54.9	14.3	0.00e+00	0	27	0	208666624	72	4423
2026-01-04 23:41:14.45	26.94	11.68	-53.0	-55.0	14.3	0.00e+00	0	27	0	209715200	72	4445
2026-01-04 23:41:15.46	27.00	11.77	-52.9	-54.8	14.4	0.00e+00	0	27	0	211812352	72	4380
2026-01-04 23:41:16.46	27.06	11.86	-52.8	-54.7	14.4	0.00e+00	0	27	0	213909504	72	4334
2026-01-04 23:41:17.47	27.12	11.95	-52.8	-54.7	14.4	0.00e+00	0	28	0	216006656	72	4297
2026-01-04 23:41:18.48	27.18	12.04	-52.8	-54.7	14.4	0.00e+00	0	27	0	218103808	72	4311
2026-01-04 23:41:19.49	27.24	12.13	-52.8	-54.7	14.4	0.00e+00	0	28	0	220200960	72	4311
2026-01-04 23:41:20.49	27.30	12.22	-52.7	-54.6	14.5	0.00e+00	0	28	0	221249536	72	4271
2026-01-04 23:41:21.50	27.36	12.31	-52.6	-54.5	14.4	0.00e+00	0	28	0	223346688	71	4448
2026-01-04 23:41:22.51	27.42	12.40	-52.6	-54.5	14.4	0.00e+00	0	27	0	225443840	71	4458
2026-01-04 23:41:23.52	27.48	12.49	-52.5	-54.3	14.5	0.00e+00	0	28	0	227540992	71	4391
2026-01-04 23:41:24.52	27.54	12.58	-52.4	-54.3	14.5	0.00e+00	0	28	0	229638144	71	4348
2026-01-04 23:41:25.53	27.61	12.67	-52.5	-54.3	14.5	0.00e+00	0	28	0	230686720	71	4369
2026-01-04 23:41:26.54	27.67	12.77	-52.4	-54.3	14.5	0.00e+00	0	27	0	232783872	71	4343
2026-01-04 23:41:27.55	27.73	12.86	-52.5	-54.3	14.5	0.00e+00	0	27	0	234881024	71	4356
2026-01-04 23:41:28.55	27.80	12.95	-52.5	-54.3	14.5	0.00e+00	0	28	0	236978176	71	4347
2026-01-04 23:41:29.56	27.86	13.04	-52.4	-54.2	14.5	0.00e+00	0	27	0	238026752	71	4332
2026-01-04 23:41:30.57	27.92	13.14	-52.4	-54.2	14.5	0.00e+00	0	28	0	240123904	71	4294
2026-01-04 23:41:31.58	27.99	13.23	-52.3	-54.0	14.6	0.00e+00	0	27	0	242221056	71	4232
2026-01-04 23:41:32.59	28.05	13.33	-52.4	-54.2	14.6	0.00e+00	0	28	0	244318208	71	4297
2026-01-04 23:41:33.60	28.12	13.42	-52.3	-54.0	14.6	0.00e+00	0	27	0	246415360	71	4232
2026-01-04 23:41:34.61	28.18	13.52	-52.3	-54.0	14.6	0.00e+00	0	27	0	248512512	71	4227
2026-01-04 23:41:35.61	28.25	13.61	-52.3	-54.1	14.6	0.00e+00	0	27	0	249561088	71	4252
2026-01-04 23:41:36.62	28.32	13.71	-52.2	-54.0	14.7	0.00e+00	0	28	0	251658240	71	4204
2026-01-04 23:41:37.63	28.38	13.80	-52.3	-54.1	14.6	0.00e+00	0	28	0	253755392	71	4247
2026-01-04 23:41:38.64	28.45	13.90	-52.2	-53.9	14.7	0.00e+00	0	28	0	255852544	71	4186
2026-01-04 23:41:39.65	28.52	14.00	-52.2	-54.0	14.5	0.00e+00	0	28	0	257949696	70	4454
2026-01-04 23:41:40.65	28.59	14.09	-52.2	-54.0	14.5	0.00e+00	0	28	0	258998272	70	4460
2026-01-04 23:41:41.66	28.66	14.19	-52.2	-53.9	14.6	0.00e+00	0	27	0	261095424	70	4425
2026-01-04 23:41:42.66	28.72	14.29	-52.2	-54.0	14.5	0.00e+00	0	28	0	263192576	70	4446
2026-01-04 23:41:43.68	28.79	14.39	-52.2	-54.0	14.6	0.00e+00	0	28	0	265289728	70	4443
2026-01-04 23:41:44.68	28.86	14.49	-52.3	-54.1	14.5	0.00e+00	0	27	0	267386880	70	4513
2026-01-04 23:41:45.69	28.93	14.59	-52.2	-53.9	14.5	0.00e+00	0	28	0	268435456	70	4439
2026-01-04 23:41:46.70	29.00	14.69	-52.2	-53.9	14.6	0.00e+00	0	28	0	270532608	70	4429
2026-01-04 23:41:47.71	29.08	14.79	-52.2	-53.9	14.5	0.00e+00	0	28	0	272629760	70	4429
2026-01-04 23:41:48.72	29.15	14.89	-52.1	-53.8	14.6	0.00e+00	0	28	0	274726912	70	4389
2026-01-04 23:41:49.73	29.22	14.99	-52.1	-53.8	14.6	0.00e+00	0	28	0	276824064	70	4360
2026-01-04 23:41:50.74	29.29	15.09	-52.1	-53.9	14.6	0.00e+00	0	28	0	277872640	70	4397
2026-01-04 23:41:51.75	29.37	15.19	-52.1	-53.8	14.6	0.00e+00	0	28	0	279969792	70	4391
2026-01-04 23:41:52.76	29.44	15.29	-52.2	-54.0	14.6	0.00e+00	0	28	0	282066944	70	4443
2026-01-04 23:41:53.76	29.51	15.39	-52.2	-53.9	14.6	0.00e+00	0	27	0	284164096	70	4407
2026-01-04 23:41:54.77	29.59	15.49	-52.1	-53.8	14.6	0.00e+00	0	27	0	286261248	70	4387
2026-01-04 23:41:55.78	29.66	15.60	-52.1	-53.9	14.6	0.00e+00	0	27	0	287309824	70	4396
2026-01-04 23:41:56.79	29.74	15.70	-52.1	-53.8	14.6	0.00e+00	0	27	0	289406976	70	4376
2026-01-04 23:41:57.79	29.81	15.80	-52.1	-53.8	14.6	0.00e+00	0	28	0	291504128	70	4381
2026-01-04 23:41:58.80	29.89	15.91	-52.3	-54.0	14.5	0.00e+00	0	28	0	293601280	70	4474
2026-01-04 23:41:59.81	29.97	16.01	-52.1	-53.8	14.6	0.00e+00	0	27	0	295698432	70	4368
2026-01-04 23:42:00.82	30.04	16.12	-52.1	-53.8	14.6	0.00e+00	0	28	0	296747008	70	4352
2026-01-04 23:42:01.82	30.12	16.22	-52.1	-53.8	14.6	0.00e+00	0	28	0	298844160	70	4388
2026-01-04 23:42:02.83	30.20	16.33	-52.1	-53.8	14.6	0.00e+00	0	28	0	300941312	70	4388
2026-01-04 23:42:03.84	30.28	16.43	-52.0	-53.7	14.7	0.00e+00	0	28	0	303038464	70	4316
2026-01-04 23:42:04.85	30.36	16.54	-52.0	-53.7	14.7	0.00e+00	0	27	0	305135616	70	4340
2026-01-04 23:42:05.86	30.44	16.65	-52.1	-53.8	14.7	0.00e+00	0	28	0	306184192	70	4342
2026-01-04 23:42:06.86	30.52	16.75	-52.0	-53.7	14.7	0.00e+00	0	28	0	308281344	70	4326
2026-01-04 23:42:07.87	30.60	16.86	-51.9	-53.5	14.7	0.00e+00	0	28	0	310378496	70	4240
2026-01-04 23:42:08.88	30.68	16.97	-51.8	-53.5	14.8	0.00e+00	0	28	0	312475648	70	4212
2026-01-04 23:42:09.89	30.76	17.08	-51.8	-53.5	14.8	0.00e+00	0	28	0	314572800	70	4207
2026-01-04 23:42:10.90	30.85	17.19	-51.8	-53.4	14.8	0.00e+00	0	28	0	315621376	70	4170
2026-01-04 23:42:11.91	30.93	17.30	-51.8	-53.4	14.8	0.00e+00	0	28	0	317718528	70	4185
2026-01-04 23:42:12.91	31.01	17.41	-51.7	-53.3	14.8	0.00e+00	0	28	0	319815680	70	4132
2026-01-04 23:42:13.92	31.10	17.52	-51.7	-53.3	14.7	0.00e+00	0	28	0	321912832	69	4360
2026-01-04 23:42:14.93	31.18	17.63	-51.6	-53.2	14.7	0.00e+00	0	28	0	324009984	69	4315
2026-01-04 23:42:15.94	31.27	17.74	-51.6	-53.3	14.8	0.00e+00	0	28	0	325058560	69	4345
2026-01-04 23:42:16.94	31.35	17.85	-51.7	-53.3	14.7	0.00e+00	0	28	0	327155712	69	4365
2026-01-04 23:42:17.95	31.44	17.96	-51.7	-53.3	14.7	0.00e+00	0	27	0	329252864	69	4381
2026-01-04 23:42:18.97	31.53	18.08	-51.7	-53.4	14.7	0.00e+00	0	28	0	331350016	69	4396
2026-01-04 23:42:19.98	31.62	18.19	-51.8	-53.4	14.7	0.00e+00	0	28	0	333447168	69	4423
2026-01-04 23:42:20.98	31.70	18.30	-51.9	-53.6	14.6	0.00e+00	0	28	0	334495744	69	4514
2026-01-04 23:42:21.99	31.79	18.42	-51.9	-53.6	14.6	0.00e+00	0	27	0	336592896	69	4512
2026-01-04 23:42:23.00	31.88	18.53	-51.9	-53.6	14.6	0.00e+00	0	28	0	338690048	69	4531
2026-01-04 23:42:24.00	31.97	18.64	-52.1	-53.8	14.5	0.00e+00	0	27	0	340787200	69	4606
2026-01-04 23:42:25.01	32.07	18.76	-52.0	-53.7	14.6	0.00e+00	0	28	0	342884352	69	4579
2026-01-04 23:42:26.01	32.16	18.88	-52.1	-53.8	14.5	0.00e+00	0	28	0	344981504	69	4622
2026-01-04 23:42:27.02	32.25	18.99	-52.1	-53.8	14.5	0.00e+00	0	28	0	346030080	69	4619
2026-01-04 23:42:28.03	32.34	19.11	-52.2	-53.9	14.5	0.00e+00	0	28	0	348127232	69	4674
2026-01-04 23:42:29.03	32.44	19.23	-52.1	-53.8	14.5	0.00e+00	0	28	0	350224384	69	4622
2026-01-04 23:42:30.04	32.53	19.34	-52.1	-53.8	14.5	0.00e+00	0	28	0	352321536	69	4638
2026-01-04 23:42:31.05	32.63	19.46	-52.1	-53.9	14.5	0.00e+00	0	28	0	353370112	69	4658
2026-01-04 23:42:32.06	32.72	19.58	-52.0	-53.7	14.5	0.00e+00	0	27	0	355467264	69	4587
2026-01-04 23:42:33.07	32.82	19.70	-52.1	-53.8	14.5	0.00e+00	0	28	0	357564416	69	4618
2026-01-04 23:42:34.08	32.92	19.82	-52.1	-53.8	14.5	0.00e+00	0	28	0	359661568	69	4629
2026-01-04 23:42:35.08	33.01	19.94	-52.1	-53.8	14.5	0.00e+00	0	27	0	361758720	69	4629
2026-01-04 23:42:36.09	33.11	20.06	-52.1	-53.8	14.6	0.00e+00	0	27	0	362807296	69	4623
2026-01-04 23:42:37.10	33.21	20.18	-52.1	-53.8	14.5	0.00e+00	0	28	0	364904448	69	4643
2026-01-04 23:42:38.11	33.31	20.30	-52.1	-53.9	14.5	0.00e+00	0	28	0	367001600	69	4655
2026-01-04 23:42:39.12	33.41	20.43	-52.1	-53.8	14.5	0.00e+00	0	28	0	369098752	69	4619
2026-01-04 23:42:40.13	33.52	20.55	-52.1	-53.8	14.5	0.00e+00	0	28	0	371195904	69	4640
2026-01-04 23:42:41.14	33.62	20.67	-52.2	-53.9	14.5	0.00e+00	0	28	0	373293056	69	4661
2026-01-04 23:42:42.15	33.72	20.80	-52.1	-53.8	14.5	0.00e+00	0	28	0	374341632	69	4647
2026-01-04 23:42:43.16	33.83	20.92	-52.1	-53.8	14.6	0.00e+00	0	28	0	376438784	69	4606
2026-01-04 23:42:44.16	33.93	21.05	-52.1	-53.8	14.5	0.00e+00	0	28	0	378535936	69	4641
2026-01-04 23:42:45.17	34.04	21.17	-52.2	-53.9	14.5	0.00e+00	0	28	0	380633088	69	4693
2026-01-04 23:42:46.18	34.14	21.30	-52.2	-53.9	14.5	0.00e+00	0	28	0	382730240	69	4670
2026-01-04 23:42:47.20	34.25	21.42	-52.2	-53.9	14.5	0.00e+00	0	27	0	383778816	69	4667
2026-01-04 23:42:48.20	34.36	21.55	-52.1	-53.7	14.6	0.00e+00	0	28	0	385875968	69	4589
2026-01-04 23:42:49.21	34.47	21.68	-52.1	-53.8	14.6	0.00e+00	0	28	0	387973120	69	4631
2026-01-04 23:42:50.22	34.58	21.81	-52.1	-53.8	14.5	0.00e+00	0	27	0	390070272	69	4638
2026-01-04 23:42:51.23	34.69	21.94	-52.2	-53.9	14.5	0.00e+00	0	28	0	392167424	69	4687
2026-01-04 23:42:52.24	34.80	22.07	-52.2	-53.9	14.5	0.00e+00	0	28	0	393216000	69	4705
2026-01-04 23:42:53.25	34.92	22.20	-52.1	-53.8	14.6	0.00e+00	0	28	0	395313152	69	4643
2026-01-04 23:42:54.26	35.03	22.33	-52.1	-53.8	14.6	0.00e+00	0	28	0	397410304	69	4631
2026-01-04 23:42:55.27	35.15	22.46	-52.2	-53.9	14.6	0.00e+00	0	28	0	399507456	69	4661
2026-01-04 23:42:56.27	35.26	22.59	-52.1	-53.8	14.6	0.00e+00	0	28	0	401604608	69	4632
2026-01-04 23:42:57.28	35.38	22.72	-52.0	-53.6	14.6	0.00e+00	0	28	0	402653184	69	4541
2026-01-04 23:42:58.29	35.49	22.85	-52.0	-53.6	14.6	0.00e+00	0	28	0	404750336	69	4528
2026-01-04 23:42:59.30	35.61	22.99	-52.0	-53.7	14.6	0.00e+00	0	28	0	406847488	69	4546
2026-01-04 23:43:00.31	35.73	23.12	-51.9	-53.6	14.7	0.00e+00	0	28	0	408944640	69	4515
2026-01-04 23:43:01.32	35.85	23.25	-52.0	-53.7	14.6	0.00e+00	0	27	0	411041792	69	4554
2026-01-04 23:43:02.33	35.98	23.39	-52.0	-53.7	14.6	0.00e+00	0	28	0	412090368	69	4554
2026-01-04 23:43:03.33	36.10	23.52	-51.9	-53.6	14.7	0.00e+00	0	28	0	414187520	69	4496
2026-01-04 23:43:04.34	36.22	23.66	-51.9	-53.5	14.7	0.00e+00	0	27	0	416284672	69	4462
2026-01-04 23:43:05.35	36.34	23.80	-52.0	-53.6	14.7	0.00e+00	0	28	0	418381824	69	4512
2026-01-04 23:43:06.36	36.47	23.93	-51.9	-53.6	14.7	0.00e+00	0	28	0	420478976	69	4497
2026-01-04 23:43:07.37	36.60	24.07	-52.1	-53.7	14.6	0.00e+00	0	28	0	421527552	69	4583
2026-01-04 23:43:08.38	36.73	24.21	-52.1	-53.8	14.6	0.00e+00	0	28	0	423624704	69	4616
2026-01-04 23:43:09.39	36.85	24.35	-52.1	-53.8	14.6	0.00e+00	0	27	0	425721856	69	4601
2026-01-04 23:43:10.40	36.98	24.49	-52.1	-53.8	14.6	0.00e+00	0	28	0	427819008	69	4636
2026-01-04 23:43:11.41	37.12	24.63	-52.2	-53.9	14.5	0.00e+00	0	28	0	429916160	69	4659
2026-01-04 23:43:12.41	37.25	24.77	-52.4	-54.1	14.5	0.00e+00	0	28	0	430964736	69	4786
2026-01-04 23:43:13.42	37.38	24.91	-52.3	-54.0	14.5	0.00e+00	0	27	0	433061888	69	4756
2026-01-04 23:43:14.43	37.51	25.06	-52.3	-54.1	14.5	0.00e+00	0	28	0	435159040	69	4771
2026-01-04 23:43:15.44	37.65	25.20	-52.3	-54.1	14.5	0.00e+00	0	28	0	437256192	69	4769
2026-01-04 23:43:16.45	37.79	25.34	-52.4	-54.1	14.6	0.00e+00	0	28	0	439353344	70	4509
2026-01-04 23:43:17.46	37.93	25.49	-52.3	-54.1	14.6	0.00e+00	0	28	0	440401920	70	4497
2026-01-04 23:43:18.47	38.07	25.63	-52.4	-54.1	14.5	0.00e+00	0	28	0	442499072	70	4534
2026-01-04 23:43:19.48	38.21	25.78	-52.4	-54.2	14.5	0.00e+00	0	28	0	444596224	70	4561
2026-01-04 23:43:20.49	38.35	25.92	-52.5	-54.3	14.5	0.00e+00	0	28	0	446693376	70	4601
2026-01-04 23:43:21.50	38.49	26.07	-52.6	-54.3	14.5	0.00e+00	0	28	0	448790528	70	4650
2026-01-04 23:43:22.51	38.64	26.22	-52.7	-54.5	14.4	0.00e+00	0	27	0	449839104	70	4722
2026-01-04 23:43:23.52	38.78	26.36	-52.7	-54.5	14.4	0.00e+00	0	28	0	451936256	70	4729
2026-01-04 23:43:24.53	38.93	26.51	-52.9	-54.7	14.3	0.00e+00	0	28	0	454033408	70	4868
2026-01-04 23:43:25.54	39.08	26.66	-52.9	-54.8	14.4	0.00e+00	0	28	0	456130560	71	4616
2026-01-04 23:43:26.55	39.23	26.81	-52.9	-54.7	14.4	0.00e+00	0	27	0	458227712	71	4572
2026-01-04 23:43:27.56	39.38	26.96	-52.9	-54.7	14.4	0.00e+00	0	27	0	459276288	71	4566
2026-01-04 23:43:28.57	39.53	27.11	-52.8	-54.6	14.4	0.00e+00	0	28	0	461373440	71	4534
2026-01-04 23:43:29.58	39.68	27.26	-52.8	-54.7	14.4	0.00e+00	0	27	0	463470592	71	4554
2026-01-04 23:43:30.59	39.84	27.42	-52.8	-54.6	14.5	0.00e+00	0	28	0	465567744	71	4520
2026-01-04 23:43:31.60	40.00	27.57	-52.8	-54.6	14.5	0.00e+00	0	27	0	467664896	71	4523
2026-01-04 23:43:32.61	40.15	27.72	-52.9	-54.7	14.4	0.00e+00	0	28	0	469762048	71	4560
2026-01-04 23:43:33.61	40.31	27.88	-53.0	-54.9	14.4	0.00e+00	0	28	0	470810624	71	4678
2026-01-04 23:43:34.62	40.47	28.03	-53.1	-54.9	14.3	0.00e+00	0	28	0	472907776	71	4700
2026-01-04 23:43:35.63	40.64	28.19	-53.1	-55.0	14.3	0.00e+00	0	28	0	475004928	71	4721
2026-01-04 23:43:36.64	40.80	28.34	-53.2	-55.1	14.3	0.00e+00	0	28	0	477102080	71	4785
2026-01-04 23:43:37.65	40.97	28.50	-53.2	-55.1	14.2	0.00e+00	0	28	0	479199232	71	4805
2026-01-04 23:43:38.66	41.14	28.66	-53.4	-55.3	14.2	0.00e+00	0	28	0	480247808	71	4909
2026-01-04 23:43:39.67	41.30	28.81	-53.6	-55.6	14.2	0.00e+00	0	28	0	482344960	72	4780
2026-01-04 23:43:40.67	41.47	28.97	-53.6	-55.6	14.1	0.00e+00	0	28	0	484442112	72	4811
2026-01-04 23:43:41.68	41.65	29.13	-53.8	-55.9	14.0	0.00e+00	0	27	0	486539264	72	4954
2026-01-04 23:43:42.69	41.82	29.29	-54.0	-56.2	14.0	0.00e+00	0	28	0	488636416	73	4831
2026-01-04 23:43:43.69	41.99	29.45	-54.1	-56.2	13.9	0.00e+00	0	28	0	489684992	73	4868
2026-01-04 23:43:44.70	42.17	29.61	-54.2	-56.4	13.9	0.00e+00	0	28	0	491782144	73	4967
2026-01-04 23:43:45.71	42.35	29.77	-54.3	-56.6	13.8	0.00e+00	0	27	0	493879296	73	5079
2026-01-04 23:43:46.72	42.53	29.94	-54.5	-56.9	13.7	0.00e+00	0	28	0	495976448	74	4933
2026-01-04 23:43:47.73	42.71	30.10	-54.5	-56.8	13.8	0.00e+00	0	28	0	498073600	74	4899
2026-01-04 23:43:48.74	42.90	30.26	-54.6	-57.0	13.7	0.00e+00	0	28	0	499122176	74	4994
2026-01-04 23:43:49.75	43.08	30.43	-54.7	-57.1	13.6	0.00e+00	0	28	0	501219328	74	5079
2026-01-04 23:43:50.76	43.27	30.59	-54.8	-57.2	13.6	0.00e+00	0	28	0	503316480	74	5122
2026-01-04 23:43:51.77	43.46	30.76	-54.8	-57.3	13.5	0.00e+00	0	28	0	505413632	74	5198
2026-01-04 23:43:52.78	43.66	30.92	-55.0	-57.6	13.5	0.00e+00	0	28	0	507510784	75	5060
2026-01-04 23:43:53.79	43.85	31.09	-55.2	-57.8	13.3	0.00e+00	0	28	0	508559360	75	5201
2026-01-04 23:43:54.80	44.05	31.26	-55.1	-57.7	13.4	0.00e+00	0	28	0	510656512	75	5129
2026-01-04 23:43:55.81	44.24	31.43	-55.0	-57.6	13.5	0.00e+00	0	28	0	512753664	75	5052
2026-01-04 23:43:56.82	44.44	31.59	-54.7	-57.1	13.8	0.00e+00	0	28	0	514850816	75	4774
2026-01-04 23:43:57.82	44.64	31.76	-54.7	-57.0	13.8	0.00e+00	0	28	0	516947968	75	4743
2026-01-04 23:43:58.83	44.85	31.93	-54.5	-56.8	13.9	0.00e+00	0	28	0	517996544	75	4602
2026-01-04 23:43:59.84	45.05	32.10	-54.3	-56.5	14.1	0.00e+00	0	28	0	520093696	75	4452
2026-01-04 23:44:00.85	45.26	32.27	-54.2	-56.4	14.1	0.00e+00	0	28	0	522190848	75	4426
2026-01-04 23:44:01.85	45.47	32.44	-54.4	-56.6	14.0	0.00e+00	0	28	0	524288000	75	4519
2026-01-04 23:44:02.86	45.68	32.62	-54.4	-56.7	13.9	0.00e+00	0	28	0	526385152	75	4558
2026-01-04 23:44:03.87	45.90	32.79	-54.1	-56.2	14.1	0.00e+00	0	28	0	527433728	74	4558
2026-01-04 23:44:04.88	46.11	32.96	-53.9	-56.0	14.2	0.00e+00	0	28	0	529530880	74	4483
2026-01-04 23:44:05.89	46.33	33.14	-53.9	-56.0	14.2	0.00e+00	0	28	0	531628032	74	4478
2026-01-04 23:44:06.90	46.56	33.31	-53.7	-55.7	14.3	0.00e+00	0	28	0	533725184	74	4338
2026-01-04 23:44:07.91	46.78	33.48	-53.4	-55.3	14.4	0.00e+00	0	28	0	535822336	73	4388
2026-01-04 23:44:08.92	47.01	33.66	-53.3	-55.1	14.5	0.00e+00	0	28	0	537919488	73	4286
2026-01-04 23:44:09.92	47.23	33.83	-53.1	-54.9	14.5	0.00e+00	0	28	0	538968064	72	4412
2026-01-04 23:44:10.93	47.46	34.01	-52.9	-54.7	14.6	0.00e+00	0	28	0	541065216	72	4337
2026-01-04 23:44:11.94	47.70	34.19	-53.0	-54.7	14.5	0.00e+00	0	28	0	543162368	72	4338
2026-01-04 23:44:12.94	47.93	34.36	-53.0	-54.8	14.5	0.00e+00	0	28	0	545259520	72	4382
2026-01-04 23:44:13.95	48.17	34.54	-52.9	-54.7	14.6	0.00e+00	0	28	0	546308096	72	4335
2026-01-04 23:44:14.96	48.41	34.72	-52.9	-54.6	14.6	0.00e+00	0	28	0	548405248	72	4288
2026-01-04 23:44:15.97	48.66	34.90	-52.6	-54.3	14.6	0.00e+00	0	28	0	550502400	71	4376
2026-01-04 23:44:16.98	48.90	35.08	-52.4	-54.1	14.7	0.00e+00	0	28	0	552599552	71	4265
2026-01-04 23:44:17.99	49.15	35.26	-52.1	-53.7	14.7	0.00e+00	0	28	0	554696704	70	4313
2026-01-04 23:44:19.00	49.40	35.44	-52.0	-53.6	14.8	0.00e+00	0	28	0	555745280	70	4273
2026-01-04 23:44:20.00	49.65	35.62	-52.2	-53.8	14.7	0.00e+00	0	28	0	557842432	70	4374
2026-01-04 23:44:21.01	49.91	35.80	-52.5	-54.2	14.6	0.00e+00	0	28	0	559939584	70	4554
2026-01-04 23:44:22.02	50.17	35.98	-52.8	-54.6	14.4	0.00e+00	0	28	0	562036736	70	4781
2026-01-04 23:44:23.02	50.43	36.16	-52.9	-54.7	14.4	0.00e+00	0	28	0	564133888	70	4848
2026-01-04 23:44:24.03	50.70	36.34	-52.9	-54.7	14.4	0.00e+00	0	28	0	566231040	71	4573
2026-01-04 23:44:25.04	50.97	36.53	-52.8	-54.5	14.5	0.00e+00	0	28	0	567279616	71	4476
2026-01-04 23:44:26.05	51.24	36.71	-52.5	-54.2	14.7	0.00e+00	0	28	0	569376768	71	4295
2026-01-04 23:44:27.06	51.51	36.89	-52.3	-54.0	14.8	0.00e+00	0	28	0	571473920	71	4198
2026-01-04 23:44:28.07	51.79	37.07	-52.2	-53.8	14.8	0.00e+00	0	28	0	573571072	71	4110
2026-01-04 23:44:29.07	52.07	37.26	-52.1	-53.7	14.8	0.00e+00	0	28	0	575668224	70	4322
2026-01-04 23:44:30.08	52.36	37.44	-52.0	-53.6	14.8	0.00e+00	0	28	0	576716800	70	4272
2026-01-04 23:44:31.08	52.64	37.62	-51.9	-53.5	14.9	0.00e+00	0	28	0	578813952	70	4202
2026-01-04 23:44:32.09	52.93	37.81	-51.8	-53.3	14.9	0.00e+00	0	28	0	580911104	70	4126
2026-01-04 23:44:33.10	53.22	37.99	-51.5	-53.1	14.9	0.00e+00	0	28	0	583008256	69	4244
2026-01-04 23:44:34.11	53.52	38.18	-51.5	-53.0	14.9	0.00e+00	0	28	0	584056832	69	4215
2026-01-04 23:44:35.12	53.82	38.36	-51.5	-53.0	14.9	0.00e+00	0	28	0	586153984	69	4241
2026-01-04 23:44:36.13	54.13	38.55	-51.8	-53.3	14.8	0.00e+00	0	28	0	588251136	69	4374
2026-01-04 23:44:37.14	54.43	38.73	-52.1	-53.7	14.6	0.00e+00	0	28	0	590348288	69	4591
2026-01-04 23:44:38.15	54.74	38.92	-52.4	-54.0	14.5	0.00e+00	0	28	0	592445440	69	4750
2026-01-04 23:44:39.16	55.06	39.11	-52.6	-54.3	14.5	0.00e+00	0	28	0	594542592	70	4607
2026-01-04 23:44:40.17	55.38	39.29	-52.5	-54.2	14.5	0.00e+00	0	28	0	595591168	70	4598
2026-01-04 23:44:41.18	55.70	39.48	-52.4	-54.1	14.6	0.00e+00	0	28	0	597688320	70	4507
2026-01-04 23:44:42.19	56.02	39.66	-52.3	-54.0	14.7	0.00e+00	0	28	0	599785472	70	4445
2026-01-04 23:44:43.20	56.35	39.85	-52.1	-53.7	14.8	0.00e+00	0	28	0	601882624	70	4313
2026-01-04 23:44:44.20	56.68	40.03	-52.0	-53.6	14.8	0.00e+00	0	28	0	603979776	70	4259
2026-01-04 23:44:45.22	57.02	40.22	-52.1	-53.7	14.7	0.00e+00	0	28	0	605028352	70	4338
2026-01-04 23:44:46.23	57.36	40.40	-52.5	-54.1	14.4	0.00e+00	0	28	0	607125504	70	4538
2026-01-04 23:44:47.23	57.70	40.59	-52.9	-54.7	14.4	0.00e+00	0	28	0	609222656	70	4817
2026-01-04 23:44:48.24	58.05	40.77	-53.2	-55.0	14.3	0.00e+00	0	28	0	611319808	71	4753
2026-01-04 23:44:49.26	58.40	40.96	-53.1	-54.9	14.4	0.00e+00	0	28	0	613416960	71	4673
2026-01-04 23:44:50.26	58.75	41.14	-53.0	-54.9	14.4	0.00e+00	0	28	0	614465536	71	4657
2026-01-04 23:44:51.27	59.11	41.33	-52.8	-54.6	14.5	0.00e+00	0	28	0	616562688	71	4507
2026-01-04 23:44:52.28	59.48	41.51	-52.7	-54.5	14.6	0.00e+00	0	28	0	618659840	71	4454
2026-01-04 23:44:53.29	59.85	41.69	-52.9	-54.6	14.5	0.00e+00	0	28	0	620756992	71	4530
2026-01-04 23:44:54.30	60.22	41.88	-53.1	-54.9	14.4	0.00e+00	0	28	0	622854144	71	4690
2026-01-04 23:44:55.31	60.59	42.06	-53.3	-55.2	14.3	0.00e+00	0	28	0	623902720	71	4816
2026-01-04 23:44:56.32	60.97	42.24	-53.4	-55.3	14.3	0.00e+00	0	28	0	625999872	72	4644
2026-01-04 23:44:57.33	61.36	42.43	-53.4	-55.3	14.3	0.00e+00	0	28	0	628097024	72	4636
2026-01-04 23:44:58.33	61.74	42.61	-53.1	-54.9	14.5	0.00e+00	0	28	0	630194176	72	4436
2026-01-04 23:44:59.34	62.14	42.79	-52.8	-54.5	14.6	0.00e+00	0	28	0	632291328	72	4239
2026-01-04 23:45:00.35	62.54	42.97	-52.6	-54.4	14.6	0.00e+00	0	28	0	633339904	71	4394
2026-01-04 23:45:01.36	62.94	43.15	-52.6	-54.3	14.7	0.00e+00	0	28	0	635437056	71	4353
2026-01-04 23:45:02.37	63.34	43.33	-52.6	-54.3	14.6	0.00e+00	0	28	0	637534208	71	4380
2026-01-04 23:45:03.38	63.76	43.50	-52.9	-54.6	14.5	0.00e+00	0	28	0	639631360	71	4540
2026-01-04 23:45:04.38	64.17	43.68	-53.3	-55.1	14.3	0.00e+00	0	28	0	641728512	71	4800
2026-01-04 23:45:05.39	64.59	43.86	-53.4	-55.3	14.2	0.00e+00	0	28	0	642777088	71	4878
2026-01-04 23:45:06.40	65.01	44.03	-53.2	-55.0	14.3	0.00e+00	0	28	0	644874240	71	4746
2026-01-04 23:45:07.41	65.44	44.21	-52.9	-54.7	14.5	0.00e+00	0	28	0	646971392	71	4560
2026-01-04 23:45:08.42	65.88	44.38	-52.5	-54.2	14.7	0.00e+00	0	28	0	649068544	71	4322
2026-01-04 23:45:09.42	66.31	44.55	-52.5	-54.1	14.7	0.00e+00	0	28	0	651165696	71	4274
2026-01-04 23:45:10.43	66.75	44.72	-52.6	-54.3	14.6	0.00e+00	0	28	0	652214272	71	4359
2026-01-04 23:45:11.44	67.20	44.89	-52.9	-54.6	14.5	0.00e+00	0	28	0	654311424	71	4524
2026-01-04 23:45:12.45	67.66	45.06	-53.2	-55.0	14.3	0.00e+00	0	28	0	656408576	71	4727
2026-01-04 23:45:13.46	68.11	45.23	-53.1	-54.9	14.4	0.00e+00	0	28	0	658505728	71	4702
2026-01-04 23:45:14.47	68.58	45.40	-52.9	-54.7	14.5	0.00e+00	0	28	0	660602880	71	4587
2026-01-04 23:45:15.48	69.04	45.56	-52.7	-54.4	14.6	0.00e+00	0	28	0	662700032	71	4418
2026-01-04 23:45:16.49	69.52	45.73	-52.5	-54.1	14.7	0.00e+00	0	28	0	663748608	71	4289
2026-01-04 23:45:17.50	69.99	45.89	-52.6	-54.3	14.6	0.00e+00	0	28	0	665845760	71	4360
2026-01-04 23:45:18.50	70.47	46.05	-53.0	-54.8	14.4	0.00e+00	0	28	0	667942912	71	4614
2026-01-04 23:45:19.51	70.96	46.21	-53.4	-55.3	14.2	0.00e+00	0	28	0	670040064	71	4885
2026-01-04 23:45:20.52	71.45	46.37	-53.5	-55.4	14.3	0.00e+00	0	28	0	672137216	72	4691
2026-01-04 23:45:21.53	71.95	46.52	-53.4	-55.3	14.3	0.00e+00	0	28	0	673185792	72	4599
2026-01-04 23:45:22.54	72.45	46.68	-53.3	-55.2	14.4	0.00e+00	0	27	0	675282944	72	4581
2026-01-04 23:45:23.55	72.95	46.83	-53.2	-55.0	14.5	0.00e+00	0	28	0	677380096	72	4460
2026-01-04 23:45:24.56	73.47	46.98	-53.1	-54.9	14.5	0.00e+00	0	28	0	679477248	72	4399
2026-01-04 23:45:25.57	73.98	47.13	-53.0	-54.7	14.6	0.00e+00	0	28	0	681574400	72	4337
2026-01-04 23:45:26.58	74.50	47.28	-53.5	-55.4	14.3	0.00e+00	0	28	0	682622976	72	4656
2026-01-04 23:45:27.59	75.03	47.42	-54.0	-56.0	14.1	0.00e+00	0	28	0	684720128	73	4759
2026-01-04 23:45:28.60	75.56	47.57	-54.1	-56.3	14.0	0.00e+00	0	28	0	686817280	73	4875
2026-01-04 23:45:29.61	76.10	47.71	-53.8	-55.8	14.2	0.00e+00	0	28	0	688914432	73	4622
2026-01-04 23:45:30.61	76.63	47.84	-53.6	-55.5	14.4	0.00e+00	0	28	0	691011584	73	4485
2026-01-04 23:45:31.62	77.18	47.98	-53.5	-55.5	14.4	0.00e+00	0	28	0	692060160	73	4444
2026-01-04 23:45:32.63	77.73	48.11	-53.6	-55.4	14.4	0.00e+00	0	28	0	694157312	73	4441
2026-01-04 23:45:33.64	78.28	48.25	-53.6	-55.5	14.4	0.00e+00	0	28	0	696254464	73	4459
2026-01-04 23:45:34.65	78.84	48.38	-53.8	-55.7	14.3	0.00e+00	0	28	0	698351616	73	4589
2026-01-04 23:45:35.66	79.41	48.50	-53.9	-55.9	14.2	0.00e+00	0	28	0	700448768	73	4693
2026-01-04 23:45:36.67	79.97	48.63	-54.0	-56.1	14.1	0.00e+00	0	28	0	701497344	73	4766
2026-01-04 23:45:37.68	80.55	48.75	-54.2	-56.3	14.0	0.00e+00	0	28	0	703594496	73	4890
2026-01-04 23:45:38.69	81.13	48.87	-54.5	-56.8	13.9	0.00e+00	0	28	0	705691648	74	4900
2026-01-04 23:45:39.70	81.71	48.98	-54.9	-57.2	13.7	0.00e+00	0	28	0	707788800	74	5154
2026-01-04 23:45:40.71	82.29	49.09	-54.6	-56.9	13.9	0.00e+00	0	28	0	709885952	75	4682
2026-01-04 23:45:41.71	82.88	49.20	-54.2	-56.3	14.1	0.00e+00	0	28	0	710934528	74	4619
2026-01-04 23:45:42.72	83.47	49.31	-53.6	-55.5	14.3	0.00e+00	0	28	0	713031680	73	4449
2026-01-04 23:45:43.73	84.07	49.41	-53.7	-55.6	14.3	0.00e+00	0	28	0	715128832	73	4536
2026-01-04 23:45:44.74	84.67	49.52	-54.1	-56.2	14.0	0.00e+00	0	28	0	717225984	73	4848
2026-01-04 23:45:45.75	85.28	49.61	-54.6	-56.9	13.8	0.00e+00	0	28	0	719323136	74	4971
2026-01-04 23:45:46.76	85.89	49.71	-54.7	-57.1	13.7	0.00e+00	0	28	0	720371712	74	5042
2026-01-04 23:45:47.77	86.51	49.80	-54.3	-56.5	14.0	0.00e+00	0	28	0	722468864	74	4732
2026-01-04 23:45:48.78	87.12	49.89	-53.9	-55.9	14.3	0.00e+00	0	28	0	724566016	74	4420
2026-01-04 23:45:49.79	87.75	49.97	-53.8	-55.7	14.4	0.00e+00	0	28	0	726663168	74	4328
2026-01-04 23:45:50.80	88.37	50.06	-53.5	-55.4	14.4	0.00e+00	0	28	0	728760320	73	4423
2026-01-04 23:45:51.81	89.00	50.13	-53.3	-55.2	14.5	0.00e+00	0	28	0	729808896	73	4303
2026-01-04 23:45:52.82	89.63	50.21	-54.1	-56.2	14.1	0.00e+00	0	28	0	731906048	73	4834
2026-01-04 23:45:53.83	90.26	50.28	-54.3	-56.4	14.0	0.00e+00	0	28	0	734003200	73	4982
2026-01-04 23:45:54.84	90.90	50.35	-54.1	-56.2	14.2	0.00e+00	0	28	0	736100352	74	4552
2026-01-04 23:45:55.85	91.54	50.41	-53.5	-55.5	14.4	0.00e+00	0	28	0	738197504	73	4450
2026-01-04 23:45:56.86	92.18	50.47	-53.2	-55.0	14.5	0.00e+00	0	28	0	739246080	72	4465
2026-01-04 23:45:57.87	92.83	50.53	-52.8	-54.5	14.7	0.00e+00	0	28	0	741343232	72	4224
2026-01-04 23:45:58.87	93.47	50.58	-52.6	-54.3	14.7	0.00e+00	0	28	0	743440384	71	4361
2026-01-04 23:45:59.87	94.11	50.63	-52.4	-54.0	14.8	0.00e+00	0	28	0	745537536	71	4209
2026-01-04 23:46:00.88	94.76	50.68	-52.3	-54.0	14.8	0.00e+00	0	28	0	747634688	71	4195
2026-01-04 23:46:01.89	95.42	50.72	-52.5	-54.2	14.7	0.00e+00	0	28	0	748683264	71	4323
2026-01-04 23:46:02.90	96.07	50.76	-52.9	-54.7	14.5	0.00e+00	0	28	0	750780416	71	4585
2026-01-04 23:46:03.91	96.73	50.79	-53.3	-55.1	14.4	0.00e+00	0	28	0	752877568	71	4786
2026-01-04 23:46:04.91	97.38	50.82	-53.1	-54.9	14.4	0.00e+00	0	28	0	754974720	71	4690
2026-01-04 23:46:05.92	98.04	50.85	-52.4	-54.1	14.8	0.00e+00	0	28	0	757071872	71	4256
2026-01-04 23:46:06.93	98.70	50.87	-52.2	-53.8	14.8	0.00e+00	0	28	0	759169024	70	4374
2026-01-04 23:46:07.94	99.36	50.89	-52.1	-53.7	14.8	0.00e+00	0	28	0	760217600	70	4309
2026-01-04 23:46:08.94	100.02	50.90	-52.6	-54.3	14.6	0.00e+00	0	28	0	762314752	70	4605
2026-01-04 23:46:09.95	100.68	50.91	-52.6	-54.3	14.5	0.00e+00	0	28	0	764411904	70	4649
2026-01-04 23:46:10.96	101.35	50.92	-52.8	-54.5	14.5	0.00e+00	0	28	0	766509056	70	4745
2026-01-04 23:46:11.97	102.01	50.92	-53.2	-55.1	14.4	0.00e+00	0	28	0	768606208	71	4777
2026-01-04 23:46:12.98	102.67	50.92	-53.9	-56.0	14.1	0.00e+00	0	28	0	769654784	72	4993
2026-01-04 23:46:13.99	103.34	50.92	-54.0	-56.1	14.1	0.00e+00	0	28	0	771751936	73	4760
2026-01-04 23:46:15.00	104.00	50.91	-53.7	-55.7	14.3	0.00e+00	0	28	0	773849088	73	4587
2026-01-04 23:46:16.00	104.66	50.90	-53.4	-55.2	14.5	0.00e+00	0	28	0	775946240	73	4324
2026-01-04 23:46:17.01	105.32	50.88	-53.4	-55.3	14.5	0.00e+00	0	28	0	776994816	73	4342
2026-01-04 23:46:18.02	105.98	50.86	-53.6	-55.6	14.3	0.00e+00	0	28	0	779091968	73	4505
2026-01-04 23:46:19.03	106.64	50.83	-54.1	-56.2	14.1	0.00e+00	0	28	0	781189120	73	4841
2026-01-04 23:46:20.04	107.30	50.80	-54.0	-56.1	14.1	0.00e+00	0	28	0	783286272	73	4769
2026-01-04 23:46:21.04	107.95	50.77	-53.5	-55.4	14.4	0.00e+00	0	28	0	785383424	73	4417
2026-01-04 23:46:22.05	108.61	50.74	-53.3	-55.2	14.6	0.00e+00	0	28	0	787480576	73	4304
2026-01-04 23:46:23.06	109.26	50.70	-53.6	-55.5	14.3	0.00e+00	0	28	0	788529152	73	4492
2026-01-04 23:46:24.06	109.91	50.65	-54.0	-56.1	14.1	0.00e+00	0	28	0	790626304	73	4801
2026-01-04 23:46:25.07	110.56	50.60	-54.0	-56.1	14.1	0.00e+00	0	28	0	792723456	73	4776
2026-01-04 23:46:26.08	111.21	50.55	-53.3	-55.2	14.5	0.00e+00	0	28	0	794820608	73	4302
2026-01-04 23:46:27.09	111.85	50.50	-52.7	-54.4	14.7	0.00e+00	0	28	0	796917760	72	4164
2026-01-04 23:46:28.10	112.50	50.44	-52.7	-54.4	14.6	0.00e+00	0	28	0	797966336	71	4403
2026-01-04 23:46:29.11	113.14	50.38	-53.4	-55.2	14.3	0.00e+00	0	28	0	800063488	71	4855
2026-01-04 23:46:30.11	113.77	50.31	-53.2	-55.0	14.5	0.00e+00	0	28	0	802160640	72	4479
2026-01-04 23:46:31.12	114.41	50.24	-52.7	-54.4	14.7	0.00e+00	0	28	0	804257792	72	4164
2026-01-04 23:46:32.13	115.04	50.17	-53.1	-55.0	14.4	0.00e+00	0	28	0	806354944	71	4709
2026-01-04 23:46:33.14	115.67	50.09	-54.2	-56.3	14.1	0.00e+00	0	28	0	807403520	73	4872
2026-01-04 23:46:34.14	116.29	50.01	-55.3	-57.9	13.4	0.00e+00	0	28	0	809500672	75	5274
2026-01-04 23:46:35.15	116.92	49.93	-55.4	-58.0	13.4	0.00e+00	0	28	0	811597824	76	5001
2026-01-04 23:46:36.16	117.54	49.84	-54.9	-57.3	13.8	0.00e+00	0	28	0	813694976	76	4627
2026-01-04 23:46:37.17	118.15	49.75	-54.5	-56.7	14.0	0.00e+00	0	28	0	815792128	75	4551
2026-01-04 23:46:38.18	118.77	49.66	-54.9	-57.3	13.7	0.00e+00	0	28	0	816840704	75	4875
2026-01-04 23:46:39.18	119.37	49.56	-55.8	-58.6	13.1	0.00e+00	0	28	0	818937856	76	5391
2026-01-04 23:46:40.19	119.97	49.46	-55.8	-58.6	13.2	0.00e+00	0	28	0	821035008	77	5049
2026-01-04 23:46:41.20	120.57	49.36	-55.4	-57.9	13.6	0.00e+00	0	28	0	823132160	77	4678
2026-01-04 23:46:42.21	121.17	49.25	-55.2	-57.7	13.6	0.00e+00	0	28	0	825229312	76	4835
2026-01-04 23:46:43.21	121.76	49.15	-55.7	-58.4	13.2	0.00e+00	0	28	0	826277888	76	5264
2026-01-04 23:46:44.22	122.35	49.03	-56.4	-59.7	12.7	0.00e+00	0	28	0	828375040	78	5405
2026-01-04 23:46:45.23	122.93	48.92	-56.5	-59.7	12.6	0.00e+00	0	28	0	830472192	78	5410
2026-01-04 23:46:46.24	123.51	48.80	-56.1	-59.0	13.1	0.00e+00	0	28	0	832569344	78	5011
2026-01-04 23:46:47.25	124.09	48.68	-55.9	-58.7	13.3	0.00e+00	0	28	0	834666496	78	4839
2026-01-04 23:46:48.26	124.66	48.56	-55.8	-58.6	13.2	0.00e+00	0	28	0	835715072	77	5054
2026-01-04 23:46:49.27	125.23	48.43	-56.3	-59.3	12.8	0.00e+00	0	28	0	837812224	77	5528
2026-01-04 23:46:50.27	125.79	48.31	-56.3	-59.4	12.7	0.00e+00	0	28	0	839909376	78	5252
2026-01-04 23:46:51.28	126.34	48.18	-55.4	-57.9	13.6	0.00e+00	0	28	0	842006528	77	4677
2026-01-04 23:46:52.29	126.90	48.04	-55.0	-57.4	13.8	0.00e+00	0	28	0	844103680	76	4660
2026-01-04 23:46:53.30	127.44	47.91	-54.5	-56.7	14.0	0.00e+00	0	28	0	845152256	75	4576
2026-01-04 23:46:54.30	127.98	47.77	-55.0	-57.5	13.6	0.00e+00	0	28	0	847249408	75	4997
2026-01-04 23:46:55.31	128.52	47.63	-54.9	-57.2	13.7	0.00e+00	0	28	0	849346560	75	4869
2026-01-04 23:46:56.32	129.06	47.49	-54.4	-56.5	14.1	0.00e+00	0	28	0	851443712	75	4490
2026-01-04 23:46:57.33	129.59	47.35	-54.4	-56.5	14.1	0.00e+00	0	28	0	853540864	75	4466
2026-01-04 23:46:58.34	130.11	47.20	-54.3	-56.4	14.1	0.00e+00	0	28	0	854589440	75	4436
2026-01-04 23:46:59.35	130.63	47.05	-55.0	-57.4	13.7	0.00e+00	0	28	0	856686592	75	4942
2026-01-04 23:47:00.36	131.14	46.90	-55.1	-57.6	13.6	0.00e+00	0	28	0	858783744	75	5048
2026-01-04 23:47:01.37	131.65	46.75	-54.7	-57.0	13.8	0.00e+00	0	28	0	860880896	75	4724
2026-01-04 23:47:02.38	132.16	46.59	-53.8	-55.8	14.3	0.00e+00	0	28	0	862978048	74	4363
2026-01-04 23:47:03.39	132.66	46.44	-54.0	-56.1	14.2	0.00e+00	0	28	0	864026624	74	4528
2026-01-04 23:47:04.40	133.15	46.28	-54.8	-57.2	13.7	0.00e+00	0	28	0	866123776	74	5147
2026-01-04 23:47:05.40	133.64	46.12	-54.8	-57.2	13.7	0.00e+00	0	28	0	868220928	75	4838
2026-01-04 23:47:06.41	134.12	45.96	-54.4	-56.5	14.1	0.00e+00	0	28	0	870318080	75	4493
2026-01-04 23:47:07.42	134.61	45.80	-54.2	-56.3	14.1	0.00e+00	0	28	0	872415232	74	4624
2026-01-04 23:47:08.43	135.08	45.64	-54.4	-56.7	13.9	0.00e+00	0	28	0	873463808	74	4818
2026-01-04 23:47:09.44	135.55	45.47	-54.4	-56.6	13.9	0.00e+00	0	28	0	875560960	74	4783
2026-01-04 23:47:10.45	136.02	45.30	-54.2	-56.4	14.1	0.00e+00	0	28	0	877658112	74	4665
2026-01-04 23:47:11.45	136.47	45.14	-54.4	-56.7	14.0	0.00e+00	0	28	0	879755264	74	4817
2026-01-04 23:47:12.46	136.93	44.97	-54.9	-57.3	13.6	0.00e+00	0	28	0	881852416	74	5196
2026-01-04 23:47:13.47	137.38	44.80	-55.0	-57.4	13.6	0.00e+00	0	28	0	883949568	75	4959
2026-01-04 23:47:14.48	137.83	44.63	-54.0	-56.0	14.2	0.00e+00	0	28	0	884998144	74	4460
2026-01-04 23:47:15.49	138.27	44.45	-53.3	-55.1	14.5	0.00e+00	0	28	0	887095296	73	4289
2026-01-04 23:47:16.50	138.71	44.28	-53.2	-55.0	14.5	0.00e+00	0	28	0	889192448	72	4457
2026-01-04 23:47:17.50	139.14	44.11	-53.3	-55.2	14.4	0.00e+00	0	28	0	891289600	72	4553
2026-01-04 23:47:18.51	139.56	43.93	-53.7	-55.7	14.2	0.00e+00	0	28	0	892338176	72	4849
2026-01-04 23:47:19.52	139.99	43.75	-54.0	-56.0	14.1	0.00e+00	0	28	0	894435328	73	4732
2026-01-04 23:47:20.53	140.41	43.58	-53.7	-55.6	14.3	0.00e+00	0	28	0	896532480	73	4541
2026-01-04 23:47:21.54	140.82	43.40	-53.1	-54.9	14.5	0.00e+00	0	28	0	898629632	72	4432
2026-01-04 23:47:22.55	141.23	43.22	-52.8	-54.6	14.6	0.00e+00	0	28	0	900726784	72	4245
2026-01-04 23:47:23.56	141.63	43.04	-53.2	-55.0	14.4	0.00e+00	0	28	0	901775360	72	4486
2026-01-04 23:47:24.57	142.03	42.86	-53.8	-55.8	14.2	0.00e+00	0	28	0	903872512	72	4875
2026-01-04 23:47:25.58	142.43	42.68	-53.7	-55.7	14.1	0.00e+00	0	28	0	905969664	72	4856
2026-01-04 23:47:26.59	142.82	42.49	-53.3	-55.2	14.4	0.00e+00	0	28	0	908066816	72	4572
2026-01-04 23:47:27.60	143.21	42.31	-53.1	-54.9	14.5	0.00e+00	0	28	0	910163968	72	4420
2026-01-04 23:47:28.61	143.59	42.13	-53.1	-55.0	14.5	0.00e+00	0	28	0	912261120	72	4446
2026-01-04 23:47:29.62	143.97	41.95	-53.6	-55.6	14.2	0.00e+00	0	28	0	913309696	72	4796
2026-01-04 23:47:30.62	144.34	41.76	-54.2	-56.3	14.0	0.00e+00	0	28	0	915406848	73	4908
2026-01-04 23:47:31.63	144.71	41.58	-54.3	-56.5	14.0	0.00e+00	0	28	0	917504000	74	4719
2026-01-04 23:47:32.64	145.08	41.39	-54.4	-56.6	14.0	0.00e+00	0	28	0	919601152	74	4762
2026-01-04 23:47:33.65	145.44	41.21	-54.1	-56.3	14.1	0.00e+00	0	28	0	921698304	74	4599
2026-01-04 23:47:34.66	145.80	41.02	-54.0	-56.0	14.2	0.00e+00	0	28	0	922746880	74	4468
2026-01-04 23:47:35.67	146.15	40.84	-54.1	-56.3	14.1	0.00e+00	0	28	0	924844032	74	4604
2026-01-04 23:47:36.68	146.50	40.65	-54.7	-57.0	13.7	0.00e+00	0	28	0	926941184	74	5019
2026-01-04 23:47:37.68	146.85	40.47	-55.4	-58.0	13.3	0.00e+00	0	28	0	929038336	75	5324
2026-01-04 23:47:38.69	147.19	40.28	-55.9	-58.9	12.9	0.00e+00	0	28	0	931135488	77	5251
2026-01-04 23:47:39.70	147.53	40.10	-56.6	-60.0	12.4	0.00e+00	0	28	0	932184064	78	5603
2026-01-04 23:47:40.71	147.86	39.91	-56.8	-60.4	12.1	1.50e-06	0	28	0	934281216	78	5879
2026-01-04 23:47:41.72	148.19	39.72	-56.5	-59.9	12.4	7.00e-07	0	28	0	936378368	78	5547
2026-01-04 23:47:42.72	148.52	39.54	-55.9	-58.8	13.1	0.00e+00	0	28	0	938475520	78	4909
2026-01-04 23:47:43.73	148.84	39.35	-55.4	-57.9	13.5	0.00e+00	0	28	0	940572672	77	4687
2026-01-04 23:47:44.74	149.16	39.17	-55.4	-57.9	13.5	0.00e+00	0	28	0	941621248	77	4680
2026-01-04 23:47:45.75	149.48	38.98	-56.2	-59.3	12.7	0.00e+00	0	28	0	943718400	77	5497
2026-01-04 23:47:46.75	149.79	38.80	-57.0	-60.7	12.0	0.00e+00	0	28	0	945815552	79	5787
2026-01-04 23:47:47.76	150.10	38.61	-56.5	-59.8	12.5	7.00e-07	0	28	0	947912704	79	5187
2026-01-04 23:47:48.77	150.40	38.42	-55.2	-57.7	13.7	0.00e+00	0	28	0	950009856	77	4553
2026-01-04 23:47:49.78	150.71	38.24	-54.2	-56.3	14.2	0.00e+00	0	28	0	951058432	75	4354
2026-01-04 23:47:50.79	151.01	38.05	-53.9	-55.8	14.3	0.00e+00	0	28	0	953155584	74	4388
2026-01-04 23:47:51.81	151.30	37.86	-54.2	-56.4	14.0	0.00e+00	0	28	0	955252736	74	4657
2026-01-04 23:47:52.81	151.59	37.68	-55.3	-58.0	13.3	0.00e+00	0	28	0	957349888	75	5282
2026-01-04 23:47:53.82	151.88	37.50	-56.6	-60.1	12.3	0.00e+00	0	28	0	959447040	78	5719
2026-01-04 23:47:54.83	152.17	37.31	-57.1	-61.0	11.7	1.50e-06	0	28	0	960495616	79	5975
2026-01-04 23:47:55.84	152.45	37.13	-56.2	-59.3	12.8	2.20e-06	0	28	0	962592768	79	4908
2026-01-04 23:47:56.85	152.73	36.94	-55.3	-57.8	13.6	0.00e+00	0	28	0	964689920	77	4636
2026-01-04 23:47:57.86	153.01	36.76	-54.7	-57.0	13.9	0.00e+00	0	28	0	966787072	76	4483
2026-01-04 23:47:58.87	153.28	36.57	-54.2	-56.3	14.2	0.00e+00	0	28	0	968884224	75	4372
2026-01-04 23:47:59.87	153.55	36.39	-54.7	-57.0	13.8	0.00e+00	0	28	0	969932800	75	4722
2026-01-04 23:48:00.88	153.82	36.21	-55.8	-58.6	13.0	0.00e+00	0	28	0	972029952	76	5396
2026-01-04 23:48:01.89	154.08	36.03	-57.1	-61.1	11.7	0.00e+00	0	28	0	974127104	79	6037
2026-01-04 23:48:02.90	154.35	35.84	-57.3	-61.5	11.4	4.80e-05	0	28	0	976224256	80	5942
2026-01-04 23:48:03.91	154.60	35.66	-55.9	-58.9	13.0	0.00e+00	0	28	0	978321408	78	4927
2026-01-04 23:48:04.91	154.86	35.48	-54.3	-56.5	14.1	0.00e+00	0	28	0	979369984	75	4449
2026-01-04 23:48:05.92	155.11	35.30	-53.5	-55.4	14.4	0.00e+00	0	28	0	981467136	73	4409
2026-01-04 23:48:06.93	155.36	35.12	-53.2	-55.0	14.5	0.00e+00	0	28	0	983564288	72	4450
2026-01-04 23:48:07.94	155.61	34.94	-53.3	-55.2	14.3	0.00e+00	0	28	0	985661440	72	4558
2026-01-04 23:48:08.95	155.86	34.76	-54.2	-56.3	13.9	0.00e+00	0	28	0	987758592	73	4920
2026-01-04 23:48:09.96	156.10	34.58	-55.2	-57.8	13.4	0.00e+00	0	28	0	988807168	75	5175
2026-01-04 23:48:10.97	156.34	34.40	-56.0	-59.1	12.8	0.00e+00	0	28	0	990904320	77	5394
2026-01-04 23:48:11.98	156.58	34.22	-55.8	-58.8	13.1	0.00e+00	0	28	0	993001472	77	5165
2026-01-04 23:48:12.99	156.81	34.05	-54.9	-57.4	13.7	0.00e+00	0	28	0	995098624	76	4665
2026-01-04 23:48:14.00	157.04	33.87	-54.2	-56.4	14.1	0.00e+00	0	28	0	997195776	75	4415
2026-01-04 23:48:15.00	157.27	33.69	-54.1	-56.1	14.2	0.00e+00	0	28	0	998244352	74	4542
2026-01-04 23:48:16.01	157.50	33.52	-53.7	-55.6	14.3	0.00e+00	0	28	0	1000341504	73	4535
2026-01-04 23:48:17.02	157.73	33.34	-53.6	-55.6	14.3	0.00e+00	0	28	0	1002438656	73	4525
2026-01-04 23:48:18.03	157.95	33.16	-54.1	-56.2	14.0	0.00e+00	0	28	0	1004535808	73	4842
2026-01-04 23:48:19.04	158.17	32.99	-54.5	-56.8	13.8	0.00e+00	0	28	0	1006632960	74	4905
2026-01-04 23:48:20.05	158.39	32.82	-55.2	-57.8	13.4	0.00e+00	0	28	0	1008730112	75	5162
2026-01-04 23:48:21.06	158.60	32.64	-55.9	-58.8	12.9	0.00e+00	0	28	0	1009778688	76	5521
2026-01-04 23:48:22.07	158.82	32.47	-55.9	-58.9	12.9	0.00e+00	0	28	0	1011875840	77	5257
2026-01-04 23:48:23.08	159.03	32.30	-55.6	-58.5	13.2	0.00e+00	0	28	0	1013972992	77	5002
2026-01-04 23:48:24.08	159.24	32.13	-55.3	-57.9	13.5	0.00e+00	0	28	0	1016070144	77	4695
2026-01-04 23:48:25.08	159.44	31.96	-54.9	-57.3	13.7	0.00e+00	0	28	0	1018167296	76	4617
2026-01-04 23:48:26.09	159.65	31.79	-54.3	-56.6	14.0	0.00e+00	0	28	0	1019215872	75	4512
2026-01-04 23:48:27.10	159.85	31.62	-54.0	-56.1	14.1	0.00e+00	0	28	0	1021313024	74	4538
2026-01-04 23:48:28.11	160.05	31.45	-54.0	-56.2	14.1	0.00e+00	0	28	0	1023410176	74	4547
2026-01-04 23:48:29.12	160.25	31.28	-54.2	-56.3	14.0	0.00e+00	0	28	0	1025507328	74	4640
2026-01-04 23:48:30.12	160.44	31.11	-54.5	-56.8	13.8	0.00e+00	0	28	0	1027604480	74	4926
2026-01-04 23:48:31.13	160.64	30.94	-55.1	-57.7	13.4	0.00e+00	0	28	0	1028653056	75	5103
2026-01-04 23:48:32.14	160.83	30.78	-55.6	-58.4	13.1	0.00e+00	0	28	0	1030750208	76	5250
2026-01-04 23:48:33.15	161.02	30.61	-56.2	-59.4	12.6	0.00e+00	0	28	0	1032847360	77	5544
2026-01-04 23:48:34.16	161.21	30.44	-56.1	-59.3	12.7	0.00e+00	0	28	0	1034944512	77	5474
2026-01-04 23:48:35.16	161.40	30.28	-55.9	-58.9	12.9	0.00e+00	0	28	0	1037041664	77	5223
2026-01-04 23:48:36.17	161.58	30.11	-55.7	-58.6	13.0	0.00e+00	0	28	0	1038090240	77	5098
2026-01-04 23:48:37.18	161.77	29.95	-55.4	-58.2	13.3	0.00e+00	0	28	0	1040187392	77	4815
2026-01-04 23:48:38.19	161.95	29.79	-55.2	-57.7	13.6	0.00e+00	0	28	0	1042284544	77	4595
2026-01-04 23:48:39.20	162.13	29.62	-54.5	-56.8	13.9	0.00e+00	0	28	0	1044381696	75	4618
2026-01-04 23:48:40.21	162.31	29.46	-54.4	-56.6	14.0	0.00e+00	0	28	0	1046478848	75	4524
2026-01-04 23:48:41.22	162.48	29.30	-54.2	-56.4	14.0	0.00e+00	0	28	0	1047527424	74	4655
2026-01-04 23:48:42.22	162.66	29.14	-54.5	-56.8	13.8	0.00e+00	0	28	0	1049624576	74	4903
2026-01-04 23:48:43.23	162.83	28.98	-54.6	-56.9	13.7	0.00e+00	0	28	0	1051721728	74	4981
2026-01-04 23:48:44.24	163.00	28.82	-54.8	-57.2	13.6	0.00e+00	0	28	0	1053818880	74	5144
2026-01-04 23:48:45.25	163.17	28.66	-54.9	-57.4	13.6	0.00e+00	0	28	0	1055916032	75	4949
2026-01-04 23:48:46.26	163.34	28.50	-54.8	-57.3	13.6	0.00e+00	0	28	0	1056964608	75	4891
2026-01-04 23:48:47.27	163.51	28.35	-54.7	-57.1	13.7	0.00e+00	0	28	0	1059061760	75	4764
2026-01-04 23:48:48.27	163.67	28.19	-54.3	-56.6	14.0	0.00e+00	0	28	0	1061158912	75	4500
2026-01-04 23:48:49.28	163.83	28.03	-54.1	-56.3	14.0	0.00e+00	0	28	0	1063256064	74	4618
2026-01-04 23:48:50.29	164.00	27.88	-53.8	-55.9	14.2	0.00e+00	0	28	0	1065353216	74	4412
2026-01-04 23:48:51.30	164.16	27.72	-53.6	-55.6	14.3	0.00e+00	0	28	0	1066401792	73	4508
2026-01-04 23:48:52.31	164.32	27.57	-53.4	-55.3	14.4	0.00e+00	0	28	0	1068498944	73	4349
2026-01-04 23:48:53.32	164.47	27.41	-53.3	-55.2	14.4	0.00e+00	0	28	0	1070596096	73	4331
2026-01-04 23:48:54.33	164.63	27.26	-53.1	-55.0	14.4	0.00e+00	0	28	0	1072693248	72	4445
2026-01-04 23:48:55.34	164.78	27.11	-53.1	-54.9	14.4	0.00e+00	0	28	0	1074790400	72	4430
2026-01-04 23:48:56.34	164.94	26.96	-53.2	-55.0	14.4	0.00e+00	0	28	0	1075838976	72	4483
2026-01-04 23:48:57.36	165.09	26.81	-53.3	-55.2	14.3	0.00e+00	0	28	0	1077936128	72	4577
2026-01-04 23:48:58.36	165.24	26.66	-53.4	-55.4	14.2	0.00e+00	0	28	0	1080033280	72	4677
2026-01-04 23:48:59.37	165.39	26.51	-53.7	-55.8	14.1	0.00e+00	0	28	0	1082130432	72	4889
2026-01-04 23:49:00.38	165.53	26.36	-53.9	-56.0	14.0	0.00e+00	0	28	0	1084227584	73	4751
2026-01-04 23:49:01.39	165.68	26.21	-54.1	-56.3	13.9	0.00e+00	0	28	0	1085276160	73	4898
2026-01-04 23:49:02.40	165.83	26.06	-54.2	-56.4	13.9	0.00e+00	0	28	0	1087373312	73	4959
2026-01-04 23:49:03.41	165.97	25.91	-54.0	-56.2	14.0	0.00e+00	0	28	0	1089470464	73	4840
2026-01-04 23:49:04.42	166.11	25.77	-54.0	-56.1	14.0	0.00e+00	0	28	0	1091567616	73	4811
2026-01-04 23:49:05.43	166.25	25.62	-53.8	-55.9	14.1	0.00e+00	0	28	0	1093664768	73	4701
2026-01-04 23:49:06.43	166.39	25.48	-53.7	-55.8	14.2	0.00e+00	0	28	0	1094713344	73	4611
2026-01-04 23:49:07.44	166.53	25.33	-53.6	-55.6	14.2	0.00e+00	0	28	0	1096810496	73	4528
2026-01-04 23:49:08.45	166.67	25.19	-53.5	-55.5	14.2	0.00e+00	0	28	0	1098907648	73	4490
2026-01-04 23:49:09.47	166.81	25.04	-53.5	-55.5	14.3	0.00e+00	0	28	0	1101004800	73	4462
2026-01-04 23:49:10.47	166.94	24.90	-53.4	-55.4	14.3	0.00e+00	0	28	0	1103101952	73	4395
2026-01-04 23:49:11.48	167.07	24.76	-53.5	-55.5	14.3	0.00e+00	0	28	0	1105199104	73	4485
2026-01-04 23:49:12.49	167.21	24.61	-53.5	-55.4	14.3	0.00e+00	0	28	0	1106247680	73	4439
2026-01-04 23:49:13.50	167.34	24.47	-53.5	-55.5	14.3	0.00e+00	0	28	0	1108344832	73	4453
2026-01-04 23:49:14.51	167.47	24.33	-53.4	-55.4	14.3	0.00e+00	0	28	0	1110441984	73	4419
2026-01-04 23:49:15.52	167.60	24.19	-53.6	-55.6	14.2	0.00e+00	0	28	0	1112539136	73	4525
2026-01-04 23:49:16.53	167.73	24.05	-53.6	-55.6	14.2	0.00e+00	0	28	0	1114636288	73	4520
2026-01-04 23:49:17.54	167.85	23.91	-53.6	-55.7	14.2	0.00e+00	0	28	0	1115684864	73	4566
2026-01-04 23:49:18.55	167.98	23.78	-53.7	-55.7	14.2	0.00e+00	0	28	0	1117782016	73	4574
2026-01-04 23:49:19.56	168.10	23.64	-53.6	-55.6	14.2	0.00e+00	0	28	0	1119879168	73	4518
2026-01-04 23:49:20.56	168.23	23.50	-53.6	-55.6	14.2	0.00e+00	0	28	0	1121976320	73	4537
2026-01-04 23:49:21.57	168.35	23.37	-53.4	-55.3	14.4	0.00e+00	0	28	0	1124073472	73	4382
2026-01-04 23:49:22.58	168.47	23.23	-53.4	-55.3	14.3	0.00e+00	0	28	0	1125122048	73	4385
2026-01-04 23:49:23.58	168.59	23.10	-53.2	-55.1	14.4	0.00e+00	0	28	0	1127219200	73	4277
2026-01-04 23:49:24.59	168.71	22.96	-53.2	-55.1	14.4	0.00e+00	0	28	0	1129316352	72	4499
2026-01-04 23:49:25.60	168.83	22.83	-53.0	-54.9	14.4	0.00e+00	0	28	0	1131413504	72	4423
2026-01-04 23:49:26.61	168.95	22.69	-53.0	-54.9	14.4	0.00e+00	0	28	0	1133510656	72	4396
2026-01-04 23:49:27.62	169.06	22.56	-53.0	-54.9	14.5	0.00e+00	0	28	0	1134559232	72	4392
2026-01-04 23:49:28.63	169.18	22.43	-52.8	-54.6	14.5	0.00e+00	0	28	0	1136656384	72	4283
2026-01-04 23:49:29.64	169.30	22.30	-52.9	-54.7	14.5	0.00e+00	0	28	0	1138753536	72	4314
2026-01-04 23:49:30.64	169.41	22.17	-53.0	-54.8	14.4	0.00e+00	0	28	0	1140850688	72	4389
2026-01-04 23:49:31.65	169.52	22.03	-53.1	-55.0	14.4	0.00e+00	0	28	0	1142947840	72	4453
2026-01-04 23:49:32.66	169.63	21.90	-53.2	-55.1	14.3	0.00e+00	0	28	0	1143996416	72	4540
2026-01-04 23:49:33.67	169.75	21.77	-53.4	-55.3	14.2	0.00e+00	0	28	0	1146093568	72	4650
2026-01-04 23:49:34.68	169.86	21.65	-53.5	-55.5	14.2	0.00e+00	0	28	0	1148190720	72	4713
2026-01-04 23:49:35.69	169.97	21.52	-53.6	-55.7	14.1	0.00e+00	0	28	0	1150287872	72	4852
2026-01-04 23:49:36.69	170.07	21.39	-53.6	-55.7	14.1	0.00e+00	0	28	0	1152385024	72	4854
2026-01-04 23:49:37.70	170.18	21.26	-53.8	-56.0	14.0	0.00e+00	0	28	0	1153433600	72	4984
2026-01-04 23:49:38.71	170.29	21.14	-53.9	-56.1	13.9	0.00e+00	0	28	0	1155530752	72	5046
2026-01-04 23:49:39.72	170.39	21.01	-53.8	-56.0	13.9	0.00e+00	0	28	0	1157627904	72	5005
2026-01-04 23:49:40.73	170.50	20.88	-53.7	-55.9	14.0	0.00e+00	0	28	0	1159725056	72	4956
2026-01-04 23:49:41.74	170.60	20.76	-53.6	-55.7	14.1	0.00e+00	0	28	0	1161822208	72	4843
2026-01-04 23:49:42.75	170.71	20.63	-53.4	-55.4	14.2	0.00e+00	0	28	0	1162870784	72	4666
2026-01-04 23:49:43.76	170.81	20.51	-53.2	-55.2	14.3	0.00e+00	0	28	0	1164967936	72	4565
2026-01-04 23:49:44.77	170.91	20.39	-53.3	-55.3	14.2	0.00e+00	0	28	0	1167065088	72	4612
2026-01-04 23:49:45.78	171.01	20.26	-53.1	-55.0	14.3	0.00e+00	0	28	0	1169162240	72	4490
2026-01-04 23:49:46.79	171.12	20.14	-52.9	-54.8	14.5	0.00e+00	0	28	0	1171259392	72	4354
2026-01-04 23:49:47.80	171.22	20.02	-52.6	-54.4	14.5	0.00e+00	0	28	0	1172307968	71	4410
2026-01-04 23:49:48.80	171.31	19.90	-52.5	-54.2	14.6	0.00e+00	0	28	0	1174405120	71	4332
2026-01-04 23:49:49.81	171.41	19.78	-52.5	-54.2	14.6	0.00e+00	0	28	0	1176502272	71	4324
2026-01-04 23:49:50.82	171.51	19.66	-52.5	-54.3	14.6	0.00e+00	0	28	0	1178599424	71	4354
2026-01-04 23:49:51.83	171.61	19.54	-52.6	-54.4	14.5	0.00e+00	0	28	0	1180696576	71	4418
2026-01-04 23:49:52.84	171.70	19.42	-52.6	-54.4	14.5	0.00e+00	0	28	0	1181745152	71	4416
2026-01-04 23:49:53.85	171.80	19.30	-52.7	-54.5	14.5	0.00e+00	0	28	0	1183842304	71	4466
2026-01-04 23:49:54.86	171.89	19.18	-52.8	-54.7	14.4	0.00e+00	0	28	0	1185939456	71	4577
2026-01-04 23:49:55.87	171.99	19.06	-52.9	-54.8	14.4	0.00e+00	0	28	0	1188036608	71	4635
2026-01-04 23:49:56.88	172.08	18.94	-53.1	-55.1	14.2	0.00e+00	0	28	0	1190133760	71	4766
2026-01-04 23:49:57.89	172.17	18.83	-53.1	-55.1	14.2	0.00e+00	0	28	0	1191182336	71	4793
2026-01-04 23:49:58.90	172.26	18.71	-53.3	-55.3	14.2	0.00e+00	0	28	0	1193279488	71	4890
2026-01-04 23:49:59.91	172.36	18.59	-53.4	-55.4	14.1	0.00e+00	0	28	0	1195376640	71	4949
2026-01-04 23:50:00.91	172.45	18.48	-53.3	-55.4	14.1	0.00e+00	0	28	0	1197473792	71	4954
2026-01-04 23:50:01.92	172.54	18.36	-53.4	-55.4	14.1	0.00e+00	0	28	0	1199570944	71	4951
2026-01-04 23:50:02.93	172.63	18.25	-53.3	-55.3	14.1	0.00e+00	0	28	0	1201668096	71	4909
2026-01-04 23:50:03.94	172.71	18.13	-53.2	-55.1	14.2	0.00e+00	0	28	0	1202716672	71	4806
2026-01-04 23:50:04.95	172.80	18.02	-52.9	-54.8	14.3	0.00e+00	0	28	0	1204813824	71	4647
2026-01-04 23:50:05.96	172.89	17.91	-52.9	-54.8	14.4	0.00e+00	0	28	0	1206910976	71	4614
2026-01-04 23:50:06.97	172.98	17.79	-52.9	-54.8	14.3	0.00e+00	0	28	0	1209008128	71	4611
2026-01-04 23:50:07.98	173.06	17.68	-52.8	-54.6	14.4	0.00e+00	0	28	0	1211105280	71	4534
2026-01-04 23:50:08.99	173.15	17.57	-52.4	-54.1	14.6	0.00e+00	0	28	0	1212153856	71	4271
2026-01-04 23:50:10.00	173.23	17.46	-52.1	-53.8	14.6	0.00e+00	0	28	0	1214251008	70	4375
2026-01-04 23:50:11.00	173.32	17.35	-52.1	-53.8	14.7	0.00e+00	0	28	0	1216348160	70	4348
2026-01-04 23:50:12.01	173.40	17.24	-51.9	-53.6	14.7	0.00e+00	0	28	0	1218445312	70	4253
2026-01-04 23:50:13.03	173.49	17.13	-51.7	-53.3	14.8	0.00e+00	0	28	0	1220542464	70	4144
2026-01-04 23:50:14.03	173.57	17.02	-51.7	-53.3	14.8	0.00e+00	0	28	0	1221591040	70	4141
2026-01-04 23:50:15.05	173.65	16.91	-51.7	-53.3	14.9	0.00e+00	0	28	0	1223688192	70	4109
2026-01-04 23:50:16.05	173.73	16.80	-51.7	-53.3	14.7	0.00e+00	0	28	0	1225785344	69	4356
2026-01-04 23:50:17.06	173.81	16.69	-51.7	-53.3	14.7	0.00e+00	0	28	0	1227882496	69	4374
2026-01-04 23:50:18.07	173.89	16.58	-51.7	-53.3	14.7	0.00e+00	0	28	0	1229979648	69	4377
2026-01-04 23:50:19.09	173.97	16.47	-51.8	-53.5	14.7	0.00e+00	0	28	0	1231028224	69	4455
2026-01-04 23:50:20.09	174.05	16.37	-51.9	-53.6	14.6	0.00e+00	0	28	0	1233125376	69	4508
2026-01-04 23:50:21.10	174.13	16.26	-52.0	-53.7	14.6	0.00e+00	0	28	0	1235222528	69	4556
2026-01-04 23:50:22.12	174.21	16.15	-52.1	-53.8	14.6	0.00e+00	0	28	0	1237319680	69	4622
2026-01-04 23:50:23.13	174.29	16.05	-52.2	-54.0	14.5	0.00e+00	0	28	0	1239416832	69	4708
2026-01-04 23:50:24.14	174.36	15.94	-52.4	-54.1	14.4	0.00e+00	0	28	0	1240465408	69	4814
2026-01-04 23:50:25.14	174.44	15.84	-52.6	-54.4	14.4	0.00e+00	0	28	0	1242562560	70	4693
2026-01-04 23:50:26.15	174.52	15.73	-52.7	-54.6	14.3	0.00e+00	0	28	0	1244659712	70	4772
2026-01-04 23:50:27.16	174.59	15.63	-52.8	-54.7	14.3	0.00e+00	0	28	0	1246756864	70	4861
2026-01-04 23:50:28.17	174.67	15.52	-53.0	-55.0	14.3	0.00e+00	0	28	0	1248854016	71	4713
2026-01-04 23:50:29.18	174.74	15.42	-53.1	-55.1	14.2	0.00e+00	0	28	0	1249902592	71	4764
2026-01-04 23:50:30.19	174.82	15.32	-53.1	-55.2	14.2	0.00e+00	0	28	0	1251999744	71	4820
2026-01-04 23:50:31.19	174.89	15.22	-53.2	-55.3	14.1	0.00e+00	0	28	0	1254096896	71	4895
2026-01-04 23:50:32.20	174.96	15.11	-53.3	-55.4	14.1	0.00e+00	0	28	0	1256194048	71	4934
2026-01-04 23:50:33.21	175.04	15.01	-53.3	-55.3	14.1	0.00e+00	0	28	0	1258291200	71	4903
2026-01-04 23:50:34.22	175.11	14.91	-53.3	-55.3	14.1	0.00e+00	0	28	0	1259339776	71	4924
2026-01-04 23:50:35.23	175.18	14.81	-53.2	-55.3	14.1	0.00e+00	0	28	0	1261436928	71	4899
2026-01-04 23:50:36.23	175.25	14.71	-53.3	-55.3	14.1	0.00e+00	0	28	0	1263534080	71	4909
2026-01-04 23:50:37.24	175.32	14.61	-53.2	-55.3	14.1	0.00e+00	0	28	0	1265631232	71	4886
2026-01-04 23:50:38.26	175.39	14.51	-53.3	-55.4	14.1	0.00e+00	0	28	0	1267728384	71	4927
