passes_logs/2026/01/04/R3.2S_Murmansk/R3.2S_Murmansk__20260104_095520_NOAA_20_JPSS-1_rec.log

#Pass ID: 20260104_095520_NOAA 20 (JPSS-1)
#Satellite: NOAA 20 (JPSS-1)
#Configuration: NOAA 20
#almurnet v.1.7.20251203
#Start time: 2026-01-04 09:55:20

#Version: 2.2.20231116
#Station: R3.2S_Murmansk
#Location: 33.079688 lon 68.888172 lat
#TLE: 1 43013U 17073A   26003.91140107  .00000139  00000+0  86966-4 0  9994
#TLE: 2 43013  98.7625 304.9685 0001869  55.4713 304.6639 14.19532967421166

#Time	Az	El	Level	Level2	SNR	BER	BlckErr	Temp	State	Recorded	gain1	gain2
2026-01-04 09:55:20.50	161.35	2.00	-58.6	-74.6	3.8	1.49e+00	0	26	0	0	82	23916
2026-01-04 09:55:21.50	161.36	2.07	-58.6	-74.5	3.8	1.49e+00	0	26	104	0	82	23822
2026-01-04 09:55:22.51	161.38	2.13	-58.6	-74.5	3.8	1.49e+00	0	26	104	0	82	23736
2026-01-04 09:55:23.52	161.39	2.20	-58.6	-74.4	3.8	1.49e+00	0	26	104	0	82	23542
2026-01-04 09:55:24.53	161.41	2.26	-58.6	-74.4	3.8	1.49e+00	0	27	104	0	82	23507
2026-01-04 09:55:25.54	161.42	2.33	-58.6	-74.4	3.8	1.49e+00	0	26	104	0	82	23371
2026-01-04 09:55:26.54	161.43	2.39	-58.6	-74.4	3.8	1.49e+00	0	26	104	0	82	23541
2026-01-04 09:55:27.55	161.45	2.46	-58.6	-74.5	3.8	1.49e+00	0	27	104	0	82	23597
2026-01-04 09:55:28.56	161.46	2.52	-58.6	-74.5	3.8	1.49e+00	0	27	104	0	82	23669
2026-01-04 09:55:29.57	161.48	2.59	-58.6	-74.6	3.9	1.49e+00	0	27	104	0	82	23860
2026-01-04 09:55:30.58	161.49	2.65	-58.6	-74.6	3.8	1.49e+00	0	27	104	0	82	23900
2026-01-04 09:55:31.58	161.51	2.72	-58.6	-74.6	3.8	1.49e+00	0	27	104	0	82	24016
2026-01-04 09:55:32.59	161.52	2.79	-58.6	-74.6	3.8	1.49e+00	0	27	104	0	82	24001
2026-01-04 09:55:33.60	161.53	2.85	-58.6	-74.5	3.8	1.49e+00	0	27	104	0	82	23848
2026-01-04 09:55:34.61	161.55	2.92	-58.6	-74.5	3.8	1.49e+00	0	27	104	0	82	23765
2026-01-04 09:55:35.62	161.56	2.99	-58.6	-74.5	3.8	1.49e+00	0	27	104	0	82	23597
2026-01-04 09:55:36.63	161.58	3.05	-58.6	-74.5	3.8	1.49e+00	0	27	104	0	82	23640
2026-01-04 09:55:37.64	161.59	3.12	-58.6	-74.5	3.9	1.49e+00	0	27	104	0	82	23688
2026-01-04 09:55:38.64	161.61	3.19	-58.6	-74.5	3.8	1.49e+00	0	27	104	0	82	23777
2026-01-04 09:55:39.65	161.62	3.25	-58.6	-74.6	3.8	1.49e+00	0	27	104	0	82	23933
2026-01-04 09:55:40.66	161.64	3.32	-58.6	-74.6	3.8	1.49e+00	0	27	104	0	82	23980
2026-01-04 09:55:41.67	161.65	3.39	-58.6	-74.6	3.8	1.49e+00	0	27	104	0	82	23911
2026-01-04 09:55:42.68	161.67	3.46	-58.6	-74.4	3.8	1.49e+00	0	27	104	0	82	23433
2026-01-04 09:55:43.69	161.68	3.52	-58.6	-74.0	3.8	1.49e+00	0	27	104	0	82	22493
2026-01-04 09:55:44.69	161.70	3.59	-58.5	-73.5	3.8	1.49e+00	0	27	104	0	82	21246
2026-01-04 09:55:45.70	161.71	3.66	-58.5	-72.9	3.8	1.49e+00	0	27	104	0	82	19724
2026-01-04 09:55:46.71	161.73	3.73	-58.5	-72.0	4.0	1.49e+00	0	27	104	0	82	17696
2026-01-04 09:55:47.71	161.74	3.80	-58.4	-71.3	4.2	1.48e+00	0	27	0	0	82	16415
2026-01-04 09:55:48.73	161.76	3.87	-58.4	-70.6	4.3	1.36e+00	58	27	0	0	82	15126
2026-01-04 09:55:49.73	161.77	3.94	-58.4	-69.9	4.6	1.08e+00	0	27	0	1048576	82	13929
2026-01-04 09:55:50.74	161.79	4.00	-58.3	-69.4	4.8	8.71e-01	0	27	0	3145728	82	13169
2026-01-04 09:55:51.75	161.81	4.07	-58.3	-69.0	5.0	6.90e-01	0	27	0	5242880	82	12563
2026-01-04 09:55:52.76	161.82	4.14	-58.2	-68.5	5.2	5.58e-01	0	27	0	7340032	82	11900
2026-01-04 09:55:53.77	161.84	4.21	-58.2	-68.1	5.5	4.97e-01	0	27	0	8388608	82	11308
2026-01-04 09:55:54.77	161.85	4.28	-58.1	-67.8	5.6	4.22e-01	0	27	0	10485760	81	11600
2026-01-04 09:55:55.78	161.87	4.35	-58.1	-67.3	5.9	3.52e-01	0	27	0	12582912	81	11015
2026-01-04 09:55:56.79	161.88	4.42	-58.1	-67.2	5.9	2.96e-01	0	27	0	14680064	81	10886
2026-01-04 09:55:57.80	161.90	4.49	-58.0	-67.0	6.1	2.60e-01	0	27	0	16777216	81	10590
2026-01-04 09:55:58.80	161.92	4.56	-58.0	-66.8	6.2	2.27e-01	0	27	0	18874368	81	10296
2026-01-04 09:55:59.81	161.93	4.64	-57.9	-66.4	6.5	1.94e-01	0	27	0	19922944	81	9907
2026-01-04 09:56:00.81	161.95	4.71	-57.9	-66.2	6.7	1.58e-01	0	27	0	22020096	81	9672
2026-01-04 09:56:01.82	161.96	4.78	-57.9	-66.0	6.8	1.50e-01	0	27	0	24117248	81	9415
2026-01-04 09:56:02.83	161.98	4.85	-57.9	-66.0	6.8	1.33e-01	0	28	0	26214400	81	9432
2026-01-04 09:56:03.84	162.00	4.92	-57.9	-66.0	6.9	1.30e-01	0	27	0	27262976	81	9394
2026-01-04 09:56:04.84	162.01	4.99	-57.9	-66.2	6.6	1.58e-01	0	28	0	29360128	81	9685
2026-01-04 09:56:05.84	162.03	5.06	-58.0	-66.4	6.5	1.59e-01	0	27	0	31457280	81	9928
2026-01-04 09:56:06.84	162.04	5.13	-58.6	-74.1	3.8	7.37e-01	0	28	104	32505856	82	22622
2026-01-04 09:56:07.84	162.06	5.21	-56.1	-60.0	11.5	1.49e+00	0	27	104	32505856	78	5649
2026-01-04 09:56:08.84	162.08	5.28	-57.2	-62.6	9.9	4.50e-05	0	27	0	33554432	79	7165
2026-01-04 09:56:09.84	162.09	5.35	-56.8	-61.9	10.3	2.04e-04	0	28	0	35651584	78	7002
2026-01-04 09:56:10.85	162.11	5.42	-55.5	-58.9	12.4	5.51e-03	0	28	0	37748736	77	5268
2026-01-04 09:56:11.85	162.13	5.50	-55.2	-58.5	12.6	0.00e+00	0	28	0	39845888	77	5020
2026-01-04 09:56:12.86	162.14	5.57	-55.1	-58.2	12.8	0.00e+00	0	28	0	40894464	76	5107
2026-01-04 09:56:13.86	162.16	5.64	-55.0	-58.1	12.9	0.00e+00	0	28	0	42991616	76	5047
2026-01-04 09:56:14.87	162.18	5.72	-55.0	-58.1	12.8	0.00e+00	0	28	0	45088768	76	5063
2026-01-04 09:56:15.87	162.19	5.79	-54.8	-57.7	13.1	0.00e+00	0	28	0	47185920	76	4840
2026-01-04 09:56:16.87	162.21	5.86	-54.9	-57.8	13.0	0.00e+00	0	28	0	49283072	76	4903
2026-01-04 09:56:17.88	162.23	5.94	-54.8	-57.7	13.1	0.00e+00	0	28	0	50331648	76	4822
2026-01-04 09:56:18.88	162.25	6.01	-54.6	-57.5	13.2	0.00e+00	0	28	0	52428800	75	5003
2026-01-04 09:56:19.89	162.26	6.09	-54.6	-57.5	13.1	0.00e+00	0	28	0	54525952	75	5018
2026-01-04 09:56:20.90	162.28	6.16	-54.7	-57.5	13.1	0.00e+00	0	28	0	56623104	75	5031
2026-01-04 09:56:21.90	162.30	6.24	-54.6	-57.5	13.1	0.00e+00	0	28	0	58720256	75	5020
2026-01-04 09:56:22.89	162.32	6.31	-54.6	-57.5	13.1	0.00e+00	0	28	0	59768832	75	5007
2026-01-04 09:56:23.90	162.33	6.39	-54.5	-57.3	13.3	0.00e+00	0	28	0	61865984	75	4903
2026-01-04 09:56:24.90	162.35	6.46	-54.5	-57.2	13.3	0.00e+00	0	28	0	63963136	75	4858
2026-01-04 09:56:25.91	162.37	6.54	-54.6	-57.4	13.2	0.00e+00	0	28	0	66060288	75	4946
2026-01-04 09:56:26.91	162.39	6.61	-54.5	-57.2	13.3	0.00e+00	0	28	0	68157440	75	4860
2026-01-04 09:56:27.91	162.40	6.69	-54.5	-57.3	13.3	0.00e+00	0	28	0	69206016	75	4885
2026-01-04 09:56:28.92	162.42	6.77	-54.5	-57.1	13.4	0.00e+00	0	28	0	71303168	75	4812
2026-01-04 09:56:29.92	162.44	6.84	-54.4	-57.0	13.5	0.00e+00	0	28	0	73400320	75	4747
2026-01-04 09:56:30.93	162.46	6.92	-54.5	-57.2	13.3	0.00e+00	0	28	0	75497472	75	4858
2026-01-04 09:56:31.94	162.48	7.00	-54.4	-57.0	13.5	0.00e+00	0	28	0	76546048	75	4722
2026-01-04 09:56:32.94	162.49	7.07	-54.4	-57.0	13.4	0.00e+00	0	28	0	78643200	75	4749
2026-01-04 09:56:33.94	162.51	7.15	-54.4	-57.0	13.5	0.00e+00	0	28	0	80740352	75	4709
2026-01-04 09:56:34.95	162.53	7.23	-54.3	-57.0	13.5	0.00e+00	0	28	0	82837504	75	4708
2026-01-04 09:56:35.95	162.55	7.31	-54.3	-56.9	13.5	0.00e+00	0	28	0	84934656	75	4680
2026-01-04 09:56:36.96	162.57	7.39	-54.3	-56.8	13.6	0.00e+00	0	28	0	87031808	75	4630
2026-01-04 09:56:37.97	162.59	7.46	-54.3	-56.8	13.6	0.00e+00	0	28	0	88080384	75	4650
2026-01-04 09:56:38.97	162.60	7.54	-54.3	-56.8	13.6	0.00e+00	0	28	0	90177536	75	4613
2026-01-04 09:56:39.98	162.62	7.62	-54.2	-56.7	13.7	0.00e+00	0	28	0	92274688	75	4571
2026-01-04 09:56:40.98	162.64	7.70	-54.1	-56.6	13.6	0.00e+00	0	28	0	94371840	74	4794
2026-01-04 09:56:41.98	162.66	7.78	-54.1	-56.6	13.6	0.00e+00	0	28	0	95420416	74	4787
2026-01-04 09:56:42.99	162.68	7.86	-54.1	-56.6	13.6	0.00e+00	0	28	0	97517568	74	4793
2026-01-04 09:56:43.99	162.70	7.94	-54.1	-56.6	13.6	0.00e+00	0	28	0	99614720	74	4785
2026-01-04 09:56:45.00	162.72	8.02	-54.1	-56.6	13.6	0.00e+00	0	28	0	101711872	74	4773
2026-01-04 09:56:46.00	162.74	8.10	-54.0	-56.4	13.8	0.00e+00	0	28	0	103809024	74	4657
2026-01-04 09:56:47.00	162.76	8.18	-54.0	-56.5	13.7	0.00e+00	0	28	0	104857600	74	4706
2026-01-04 09:56:48.00	162.78	8.26	-54.0	-56.4	13.8	0.00e+00	0	28	0	106954752	74	4657
2026-01-04 09:56:49.01	162.80	8.34	-53.9	-56.3	13.8	0.00e+00	0	28	0	109051904	74	4627
2026-01-04 09:56:50.01	162.82	8.43	-54.0	-56.4	13.8	0.00e+00	0	28	0	111149056	74	4660
2026-01-04 09:56:51.02	162.84	8.51	-53.9	-56.2	13.9	0.00e+00	0	28	0	113246208	74	4594
2026-01-04 09:56:52.02	162.85	8.59	-53.9	-56.2	13.9	0.00e+00	0	28	0	114294784	74	4587
2026-01-04 09:56:53.02	162.87	8.67	-53.9	-56.2	13.9	0.00e+00	0	28	0	116391936	74	4565
2026-01-04 09:56:54.03	162.89	8.75	-53.8	-56.1	13.9	0.00e+00	0	28	0	118489088	74	4543
2026-01-04 09:56:55.03	162.91	8.84	-53.8	-56.1	14.0	0.00e+00	0	28	0	120586240	74	4507
2026-01-04 09:56:56.03	162.93	8.92	-53.9	-56.2	13.9	0.00e+00	0	28	0	122683392	74	4568
2026-01-04 09:56:57.04	162.96	9.00	-53.8	-56.1	13.9	0.00e+00	0	28	0	123731968	74	4535
2026-01-04 09:56:58.05	162.98	9.09	-53.8	-56.1	13.9	0.00e+00	0	28	0	125829120	74	4515
2026-01-04 09:56:59.05	163.00	9.17	-53.7	-55.9	14.0	0.00e+00	0	28	0	127926272	74	4429
2026-01-04 09:57:00.05	163.02	9.26	-53.8	-56.0	14.0	0.00e+00	0	28	0	130023424	74	4475
2026-01-04 09:57:01.06	163.04	9.34	-53.6	-55.9	14.0	0.00e+00	0	28	0	132120576	73	4653
2026-01-04 09:57:02.07	163.06	9.43	-53.7	-55.9	14.0	0.00e+00	0	28	0	133169152	73	4669
2026-01-04 09:57:03.07	163.08	9.51	-53.8	-56.1	13.9	0.00e+00	0	28	0	135266304	73	4760
2026-01-04 09:57:04.07	163.10	9.60	-53.6	-55.9	14.0	0.00e+00	0	28	0	137363456	73	4653
2026-01-04 09:57:05.08	163.12	9.68	-53.6	-55.8	14.0	0.00e+00	0	28	0	139460608	73	4617
2026-01-04 09:57:06.08	163.14	9.77	-53.5	-55.7	14.1	0.00e+00	0	28	0	141557760	73	4563
2026-01-04 09:57:07.08	163.16	9.85	-53.6	-55.7	14.1	0.00e+00	0	28	0	142606336	73	4584
2026-01-04 09:57:08.09	163.18	9.94	-53.5	-55.6	14.1	0.00e+00	0	28	0	144703488	73	4531
2026-01-04 09:57:09.09	163.21	10.03	-53.5	-55.6	14.1	0.00e+00	0	28	0	146800640	73	4513
2026-01-04 09:57:10.09	163.23	10.11	-53.5	-55.6	14.1	0.00e+00	0	28	0	148897792	73	4529
2026-01-04 09:57:11.09	163.25	10.20	-53.5	-55.6	14.1	0.00e+00	0	28	0	150994944	73	4510
2026-01-04 09:57:12.09	163.27	10.29	-53.5	-55.7	14.1	0.00e+00	0	28	0	152043520	73	4547
2026-01-04 09:57:13.10	163.29	10.38	-53.5	-55.7	14.1	0.00e+00	0	28	0	154140672	73	4547
2026-01-04 09:57:14.10	163.31	10.47	-53.4	-55.5	14.2	0.00e+00	0	28	0	156237824	73	4467
2026-01-04 09:57:15.11	163.34	10.56	-53.4	-55.5	14.2	0.00e+00	0	28	0	158334976	73	4448
2026-01-04 09:57:16.12	163.36	10.64	-53.4	-55.5	14.2	0.00e+00	0	28	0	160432128	73	4459
2026-01-04 09:57:17.11	163.38	10.73	-53.4	-55.5	14.2	0.00e+00	0	28	0	161480704	73	4442
2026-01-04 09:57:18.12	163.40	10.82	-53.2	-55.3	14.3	0.00e+00	0	28	0	163577856	73	4353
2026-01-04 09:57:19.12	163.43	10.91	-53.3	-55.3	14.2	0.00e+00	0	28	0	165675008	73	4388
2026-01-04 09:57:20.12	163.45	11.00	-53.2	-55.3	14.3	0.00e+00	0	28	0	167772160	73	4351
2026-01-04 09:57:21.12	163.47	11.09	-53.3	-55.4	14.3	0.00e+00	0	28	0	168820736	73	4400
2026-01-04 09:57:22.13	163.49	11.18	-53.3	-55.4	14.3	0.00e+00	0	28	0	170917888	73	4408
2026-01-04 09:57:23.13	163.52	11.28	-53.2	-55.3	14.3	0.00e+00	0	28	0	173015040	73	4344
2026-01-04 09:57:24.13	163.54	11.37	-53.1	-55.1	14.3	0.00e+00	0	28	0	175112192	72	4527
2026-01-04 09:57:25.13	163.56	11.46	-53.1	-55.1	14.3	0.00e+00	0	28	0	177209344	72	4540
2026-01-04 09:57:26.13	163.59	11.55	-53.0	-55.0	14.3	0.00e+00	0	28	0	178257920	72	4485
2026-01-04 09:57:27.14	163.61	11.64	-52.9	-55.0	14.3	0.00e+00	0	28	0	180355072	72	4445
2026-01-04 09:57:28.15	163.64	11.74	-53.1	-55.1	14.3	0.00e+00	0	28	0	182452224	72	4524
2026-01-04 09:57:29.15	163.66	11.83	-53.0	-55.1	14.3	0.00e+00	0	28	0	184549376	72	4498
2026-01-04 09:57:30.16	163.68	11.93	-53.1	-55.1	14.3	0.00e+00	0	28	0	186646528	72	4536
2026-01-04 09:57:31.16	163.71	12.02	-53.0	-55.0	14.4	0.00e+00	0	28	0	187695104	72	4469
2026-01-04 09:57:32.16	163.73	12.11	-53.0	-55.0	14.3	0.00e+00	0	28	0	189792256	72	4478
2026-01-04 09:57:33.16	163.76	12.21	-53.0	-54.9	14.4	0.00e+00	0	28	0	191889408	72	4432
2026-01-04 09:57:34.16	163.78	12.30	-53.0	-55.0	14.4	0.00e+00	0	28	0	193986560	72	4444
2026-01-04 09:57:35.15	163.80	12.40	-53.0	-55.0	14.4	0.00e+00	0	28	0	196083712	72	4446
2026-01-04 09:57:36.16	163.83	12.49	-53.0	-54.9	14.4	0.00e+00	0	28	0	197132288	72	4420
2026-01-04 09:57:37.17	163.85	12.59	-52.9	-54.8	14.4	0.00e+00	0	28	0	199229440	72	4388
2026-01-04 09:57:38.17	163.88	12.69	-52.9	-54.8	14.4	0.00e+00	0	28	0	201326592	72	4364
2026-01-04 09:57:39.18	163.90	12.78	-52.9	-54.8	14.4	0.00e+00	0	28	0	203423744	72	4378
2026-01-04 09:57:40.18	163.93	12.88	-52.9	-54.8	14.5	0.00e+00	0	28	0	205520896	72	4360
2026-01-04 09:57:41.18	163.95	12.98	-53.0	-54.9	14.4	0.00e+00	0	28	0	206569472	72	4401
2026-01-04 09:57:42.19	163.98	13.08	-52.8	-54.6	14.5	0.00e+00	0	28	0	208666624	72	4282
2026-01-04 09:57:43.19	164.01	13.18	-52.7	-54.6	14.5	0.00e+00	0	28	0	210763776	72	4261
2026-01-04 09:57:44.19	164.03	13.28	-52.8	-54.7	14.5	0.00e+00	0	28	0	212860928	72	4305
2026-01-04 09:57:45.20	164.06	13.38	-52.9	-54.8	14.5	0.00e+00	0	28	0	214958080	72	4352
2026-01-04 09:57:46.20	164.08	13.48	-52.8	-54.7	14.5	0.00e+00	0	28	0	216006656	72	4303
2026-01-04 09:57:47.21	164.11	13.58	-52.8	-54.7	14.5	0.00e+00	0	28	0	218103808	72	4313
2026-01-04 09:57:48.21	164.14	13.68	-52.8	-54.7	14.5	0.00e+00	0	28	0	220200960	72	4302
2026-01-04 09:57:49.22	164.16	13.78	-52.7	-54.5	14.6	0.00e+00	0	28	0	222298112	72	4211
2026-01-04 09:57:50.21	164.19	13.88	-52.6	-54.4	14.5	0.00e+00	0	28	0	224395264	71	4441
2026-01-04 09:57:51.22	164.22	13.98	-52.7	-54.5	14.5	0.00e+00	0	28	0	225443840	71	4469
2026-01-04 09:57:52.23	164.24	14.08	-52.7	-54.6	14.5	0.00e+00	0	28	0	227540992	71	4498
2026-01-04 09:57:53.23	164.27	14.19	-52.7	-54.5	14.5	0.00e+00	0	28	0	229638144	71	4453
2026-01-04 09:57:54.23	164.30	14.29	-52.7	-54.5	14.5	0.00e+00	0	28	0	231735296	71	4487
2026-01-04 09:57:55.24	164.33	14.39	-52.7	-54.5	14.5	0.00e+00	0	28	0	232783872	71	4457
2026-01-04 09:57:56.24	164.35	14.50	-52.6	-54.4	14.5	0.00e+00	0	28	0	234881024	71	4416
2026-01-04 09:57:57.25	164.38	14.60	-52.7	-54.5	14.5	0.00e+00	0	28	0	236978176	71	4464
2026-01-04 09:57:58.26	164.41	14.71	-52.5	-54.3	14.6	0.00e+00	0	28	0	239075328	71	4362
2026-01-04 09:57:59.26	164.44	14.81	-52.6	-54.4	14.6	0.00e+00	0	28	0	241172480	71	4394
2026-01-04 09:58:00.26	164.47	14.92	-52.5	-54.3	14.6	0.00e+00	0	28	0	242221056	71	4376
2026-01-04 09:58:01.27	164.50	15.03	-52.6	-54.4	14.5	0.00e+00	0	28	0	244318208	71	4411
2026-01-04 09:58:02.27	164.52	15.13	-52.6	-54.4	14.5	0.00e+00	0	28	0	246415360	71	4413
2026-01-04 09:58:03.27	164.55	15.24	-52.5	-54.3	14.6	0.00e+00	0	28	0	248512512	71	4367
2026-01-04 09:58:04.28	164.58	15.35	-52.5	-54.3	14.6	0.00e+00	0	28	0	250609664	71	4373
2026-01-04 09:58:05.28	164.61	15.46	-52.5	-54.3	14.6	0.00e+00	0	28	0	251658240	71	4343
2026-01-04 09:58:06.28	164.64	15.56	-52.5	-54.3	14.6	0.00e+00	0	28	0	253755392	71	4350
2026-01-04 09:58:07.28	164.67	15.67	-52.5	-54.3	14.6	0.00e+00	0	28	0	255852544	71	4357
2026-01-04 09:58:08.28	164.70	15.78	-52.5	-54.3	14.6	0.00e+00	0	28	0	257949696	71	4358
2026-01-04 09:58:09.29	164.73	15.89	-52.5	-54.3	14.6	0.00e+00	0	28	0	260046848	71	4364
2026-01-04 09:58:10.30	164.76	16.00	-52.5	-54.3	14.6	0.00e+00	0	28	0	261095424	71	4371
2026-01-04 09:58:11.30	164.79	16.11	-52.6	-54.4	14.6	0.00e+00	0	28	0	263192576	71	4406
2026-01-04 09:58:12.30	164.82	16.23	-52.5	-54.3	14.6	0.00e+00	0	28	0	265289728	71	4358
2026-01-04 09:58:13.31	164.85	16.34	-52.6	-54.4	14.5	0.00e+00	0	28	0	267386880	71	4406
2026-01-04 09:58:14.31	164.88	16.45	-52.6	-54.3	14.6	0.00e+00	0	28	0	269484032	71	4387
2026-01-04 09:58:15.31	164.92	16.56	-52.6	-54.4	14.6	0.00e+00	0	28	0	270532608	71	4406
2026-01-04 09:58:16.31	164.95	16.68	-52.7	-54.5	14.5	0.00e+00	0	28	0	272629760	71	4450
2026-01-04 09:58:17.32	164.98	16.79	-52.6	-54.4	14.6	0.00e+00	0	28	0	274726912	71	4411
2026-01-04 09:58:18.32	165.01	16.91	-52.7	-54.5	14.5	0.00e+00	0	28	0	276824064	71	4446
2026-01-04 09:58:19.32	165.04	17.02	-52.7	-54.5	14.5	0.00e+00	0	28	0	278921216	71	4481
2026-01-04 09:58:20.32	165.08	17.14	-52.7	-54.5	14.5	0.00e+00	0	28	0	279969792	71	4457
2026-01-04 09:58:21.33	165.11	17.25	-52.7	-54.5	14.5	0.00e+00	0	28	0	282066944	71	4477
2026-01-04 09:58:22.33	165.14	17.37	-52.7	-54.6	14.5	0.00e+00	0	28	0	284164096	71	4498
2026-01-04 09:58:23.34	165.17	17.49	-52.8	-54.6	14.5	0.00e+00	0	28	0	286261248	71	4516
2026-01-04 09:58:24.35	165.21	17.61	-52.8	-54.7	14.5	0.00e+00	0	28	0	288358400	71	4553
2026-01-04 09:58:25.35	165.24	17.73	-52.8	-54.6	14.5	0.00e+00	0	28	0	289406976	71	4543
2026-01-04 09:58:26.36	165.28	17.85	-52.8	-54.6	14.5	0.00e+00	0	28	0	291504128	71	4532
2026-01-04 09:58:27.36	165.31	17.97	-52.8	-54.7	14.5	0.00e+00	0	28	0	293601280	71	4546
2026-01-04 09:58:28.36	165.34	18.09	-52.8	-54.6	14.5	0.00e+00	0	28	0	295698432	71	4502
2026-01-04 09:58:29.37	165.38	18.21	-52.9	-54.7	14.4	0.00e+00	0	28	0	297795584	71	4570
2026-01-04 09:58:30.37	165.41	18.33	-52.9	-54.7	14.4	0.00e+00	0	28	0	298844160	71	4570
2026-01-04 09:58:31.37	165.45	18.45	-52.9	-54.7	14.4	0.00e+00	0	28	0	300941312	71	4589
2026-01-04 09:58:32.38	165.48	18.57	-52.9	-54.8	14.4	0.00e+00	0	28	0	303038464	71	4628
2026-01-04 09:58:33.38	165.52	18.70	-53.0	-54.9	14.4	0.00e+00	0	28	0	305135616	71	4655
2026-01-04 09:58:34.38	165.55	18.82	-53.0	-54.9	14.4	0.00e+00	0	28	0	306184192	71	4667
2026-01-04 09:58:35.39	165.59	18.94	-53.0	-54.9	14.4	0.00e+00	0	28	0	308281344	71	4694
2026-01-04 09:58:36.39	165.63	19.07	-53.0	-54.9	14.4	0.00e+00	0	28	0	310378496	71	4690
2026-01-04 09:58:37.39	165.66	19.19	-53.2	-55.1	14.3	0.00e+00	0	28	0	312475648	71	4774
2026-01-04 09:58:38.39	165.70	19.32	-53.2	-55.1	14.3	0.00e+00	0	28	0	314572800	71	4800
2026-01-04 09:58:39.39	165.74	19.45	-53.2	-55.2	14.3	0.00e+00	0	28	0	315621376	71	4829
2026-01-04 09:58:40.40	165.77	19.58	-53.3	-55.2	14.2	0.00e+00	0	28	0	317718528	71	4864
2026-01-04 09:58:41.40	165.81	19.70	-53.3	-55.2	14.2	0.00e+00	0	28	0	319815680	71	4851
2026-01-04 09:58:42.40	165.85	19.83	-53.3	-55.3	14.2	0.00e+00	0	28	0	321912832	71	4892
2026-01-04 09:58:43.41	165.89	19.96	-53.4	-55.3	14.3	0.00e+00	0	28	0	324009984	72	4644
2026-01-04 09:58:44.41	165.93	20.09	-53.3	-55.3	14.3	0.00e+00	0	28	0	325058560	72	4602
2026-01-04 09:58:45.41	165.96	20.22	-53.4	-55.3	14.3	0.00e+00	0	28	0	327155712	72	4644
2026-01-04 09:58:46.42	166.00	20.36	-53.5	-55.5	14.2	0.00e+00	0	28	0	329252864	72	4724
2026-01-04 09:58:47.42	166.04	20.49	-53.4	-55.4	14.2	0.00e+00	0	28	0	331350016	72	4692
2026-01-04 09:58:48.42	166.08	20.62	-53.5	-55.5	14.2	0.00e+00	0	28	0	333447168	72	4735
2026-01-04 09:58:49.43	166.12	20.75	-53.5	-55.5	14.2	0.00e+00	0	28	0	334495744	72	4758
2026-01-04 09:58:50.43	166.16	20.89	-53.6	-55.6	14.2	0.00e+00	0	28	0	336592896	72	4778
2026-01-04 09:58:51.44	166.20	21.03	-53.6	-55.7	14.1	0.00e+00	0	28	0	338690048	72	4815
2026-01-04 09:58:52.44	166.25	21.16	-53.7	-55.7	14.1	0.00e+00	0	28	0	340787200	72	4848
2026-01-04 09:58:53.45	166.29	21.30	-53.7	-55.7	14.1	0.00e+00	0	28	0	342884352	72	4866
2026-01-04 09:58:54.46	166.33	21.44	-53.8	-55.8	14.1	0.00e+00	0	28	0	343932928	72	4917
2026-01-04 09:58:55.46	166.37	21.57	-53.7	-55.8	14.1	0.00e+00	0	28	0	346030080	72	4891
2026-01-04 09:58:56.46	166.41	21.71	-53.7	-55.8	14.1	0.00e+00	0	28	0	348127232	72	4874
2026-01-04 09:58:57.46	166.46	21.85	-53.8	-55.9	14.0	0.00e+00	0	29	0	350224384	72	4959
2026-01-04 09:58:58.47	166.50	21.99	-53.7	-55.8	14.1	0.00e+00	0	28	0	352321536	72	4876
2026-01-04 09:58:59.48	166.54	22.13	-53.7	-55.7	14.1	0.00e+00	0	28	0	353370112	72	4857
2026-01-04 09:59:00.49	166.59	22.28	-53.7	-55.8	14.1	0.00e+00	0	28	0	355467264	72	4872
2026-01-04 09:59:01.49	166.63	22.42	-53.6	-55.6	14.1	0.00e+00	0	28	0	357564416	72	4809
2026-01-04 09:59:02.49	166.67	22.56	-53.7	-55.7	14.1	0.00e+00	0	28	0	359661568	72	4868
2026-01-04 09:59:03.50	166.72	22.71	-53.6	-55.6	14.2	0.00e+00	0	28	0	361758720	72	4802
2026-01-04 09:59:04.50	166.77	22.85	-53.6	-55.6	14.2	0.00e+00	0	28	0	362807296	72	4780
2026-01-04 09:59:05.51	166.81	23.00	-53.6	-55.6	14.2	0.00e+00	0	28	0	364904448	72	4784
2026-01-04 09:59:06.51	166.86	23.15	-53.7	-55.7	14.2	0.00e+00	0	28	0	367001600	72	4841
2026-01-04 09:59:07.51	166.90	23.29	-53.6	-55.6	14.2	0.00e+00	0	28	0	369098752	72	4791
2026-01-04 09:59:08.51	166.95	23.44	-53.6	-55.6	14.2	0.00e+00	0	28	0	371195904	72	4772
2026-01-04 09:59:09.52	167.00	23.59	-53.5	-55.5	14.2	0.00e+00	0	28	0	372244480	72	4736
2026-01-04 09:59:10.52	167.04	23.74	-53.5	-55.5	14.2	0.00e+00	0	28	0	374341632	72	4747
2026-01-04 09:59:11.52	167.09	23.89	-53.5	-55.5	14.2	0.00e+00	0	28	0	376438784	72	4737
2026-01-04 09:59:12.52	167.14	24.04	-53.5	-55.5	14.2	0.00e+00	0	28	0	378535936	72	4715
2026-01-04 09:59:13.53	167.19	24.19	-53.4	-55.4	14.3	0.00e+00	0	28	0	379584512	72	4670
2026-01-04 09:59:14.54	167.24	24.35	-53.3	-55.3	14.3	0.00e+00	0	28	0	381681664	72	4602
2026-01-04 09:59:15.54	167.29	24.50	-53.4	-55.4	14.3	0.00e+00	0	28	0	383778816	72	4661
2026-01-04 09:59:16.54	167.34	24.66	-53.5	-55.4	14.3	0.00e+00	0	28	0	385875968	72	4678
2026-01-04 09:59:17.55	167.39	24.81	-53.3	-55.2	14.4	0.00e+00	0	28	0	387973120	72	4557
2026-01-04 09:59:18.56	167.44	24.97	-53.1	-55.0	14.5	0.00e+00	0	28	0	389021696	72	4455
2026-01-04 09:59:19.56	167.49	25.13	-53.1	-55.0	14.4	0.00e+00	0	28	0	391118848	72	4475
2026-01-04 09:59:20.56	167.55	25.29	-53.1	-54.9	14.5	0.00e+00	0	28	0	393216000	72	4417
2026-01-04 09:59:21.56	167.60	25.45	-53.0	-54.8	14.5	0.00e+00	0	28	0	395313152	72	4342
2026-01-04 09:59:22.56	167.65	25.61	-53.0	-54.8	14.5	0.00e+00	0	28	0	397410304	72	4373
2026-01-04 09:59:23.57	167.71	25.77	-53.1	-55.0	14.5	0.00e+00	0	28	0	398458880	72	4451
2026-01-04 09:59:24.57	167.76	25.93	-53.1	-54.9	14.5	0.00e+00	0	28	0	400556032	72	4423
2026-01-04 09:59:25.57	167.81	26.10	-53.0	-54.8	14.5	0.00e+00	0	28	0	402653184	72	4365
2026-01-04 09:59:26.58	167.87	26.26	-53.1	-54.9	14.5	0.00e+00	0	28	0	404750336	72	4405
2026-01-04 09:59:27.58	167.93	26.43	-53.1	-54.9	14.5	0.00e+00	0	28	0	406847488	72	4413
2026-01-04 09:59:28.58	167.98	26.59	-53.1	-54.9	14.5	0.00e+00	0	28	0	407896064	72	4433
2026-01-04 09:59:29.58	168.04	26.76	-53.2	-55.1	14.4	0.00e+00	0	28	0	409993216	72	4537
2026-01-04 09:59:30.59	168.10	26.93	-53.4	-55.3	14.4	0.00e+00	0	28	0	412090368	72	4618
2026-01-04 09:59:31.59	168.15	27.10	-53.5	-55.5	14.3	0.00e+00	0	28	0	414187520	72	4731
2026-01-04 09:59:32.59	168.21	27.27	-53.6	-55.6	14.2	0.00e+00	0	28	0	416284672	72	4801
2026-01-04 09:59:33.59	168.27	27.44	-53.7	-55.7	14.2	0.00e+00	0	28	0	417333248	72	4825
2026-01-04 09:59:34.60	168.33	27.61	-53.8	-55.9	14.1	0.00e+00	0	28	0	419430400	72	4951
2026-01-04 09:59:35.60	168.39	27.79	-54.0	-56.1	14.1	0.00e+00	0	28	0	421527552	73	4761
2026-01-04 09:59:36.60	168.45	27.96	-54.0	-56.1	14.1	0.00e+00	0	28	0	423624704	73	4806
2026-01-04 09:59:37.60	168.51	28.14	-54.2	-56.3	14.0	0.00e+00	0	28	0	425721856	73	4919
2026-01-04 09:59:38.60	168.58	28.31	-54.2	-56.4	14.0	0.00e+00	0	28	0	426770432	73	4941
2026-01-04 09:59:39.60	168.64	28.49	-54.3	-56.5	13.9	0.00e+00	0	28	0	428867584	73	4989
2026-01-04 09:59:40.60	168.70	28.67	-54.4	-56.6	13.8	0.00e+00	0	28	0	430964736	73	5077
2026-01-04 09:59:41.61	168.77	28.85	-54.4	-56.7	13.9	0.00e+00	0	28	0	433061888	74	4830
2026-01-04 09:59:42.61	168.83	29.03	-54.5	-56.8	13.9	0.00e+00	0	28	0	434110464	74	4871
2026-01-04 09:59:43.61	168.90	29.21	-54.6	-56.9	13.8	0.00e+00	0	28	0	436207616	74	4953
2026-01-04 09:59:44.62	168.96	29.40	-54.6	-56.9	13.8	0.00e+00	0	28	0	438304768	74	4932
2026-01-04 09:59:45.63	169.03	29.59	-54.7	-57.0	13.8	0.00e+00	0	28	0	440401920	74	5015
2026-01-04 09:59:46.63	169.10	29.77	-54.7	-57.0	13.8	0.00e+00	0	28	0	442499072	74	4996
2026-01-04 09:59:47.64	169.17	29.96	-54.8	-57.1	13.7	0.00e+00	0	28	0	443547648	74	5080
2026-01-04 09:59:48.65	169.24	30.15	-54.8	-57.2	13.7	0.00e+00	0	28	0	445644800	74	5119
2026-01-04 09:59:49.65	169.31	30.34	-54.9	-57.3	13.6	0.00e+00	0	28	0	447741952	74	5178
2026-01-04 09:59:50.66	169.38	30.53	-54.9	-57.3	13.7	0.00e+00	0	28	0	449839104	75	4921
2026-01-04 09:59:51.66	169.45	30.72	-54.9	-57.3	13.7	0.00e+00	0	28	0	451936256	75	4911
2026-01-04 09:59:52.67	169.52	30.92	-55.0	-57.5	13.6	0.00e+00	0	28	0	452984832	75	5001
2026-01-04 09:59:53.67	169.59	31.11	-55.1	-57.6	13.6	0.00e+00	0	28	0	455081984	75	5056
2026-01-04 09:59:54.67	169.67	31.31	-55.1	-57.6	13.5	0.00e+00	0	29	0	457179136	75	5082
2026-01-04 09:59:55.67	169.74	31.50	-55.1	-57.6	13.5	0.00e+00	0	28	0	459276288	75	5092
2026-01-04 09:59:56.67	169.82	31.70	-55.2	-57.7	13.5	0.00e+00	0	28	0	461373440	75	5133
2026-01-04 09:59:57.67	169.89	31.90	-55.1	-57.6	13.6	0.00e+00	0	28	0	462422016	75	5050
2026-01-04 09:59:58.68	169.97	32.10	-54.9	-57.3	13.7	0.00e+00	0	28	0	464519168	75	4911
2026-01-04 09:59:59.68	170.05	32.30	-54.9	-57.3	13.7	0.00e+00	0	28	0	466616320	75	4895
2026-01-04 10:00:00.68	170.13	32.51	-54.8	-57.2	13.7	0.00e+00	0	28	0	468713472	75	4850
2026-01-04 10:00:01.68	170.21	32.71	-54.7	-57.0	13.8	0.00e+00	0	28	0	470810624	75	4753
2026-01-04 10:00:02.69	170.29	32.92	-54.6	-56.8	13.9	0.00e+00	0	28	0	471859200	75	4640
2026-01-04 10:00:03.69	170.37	33.13	-54.5	-56.7	14.0	0.00e+00	0	28	0	473956352	75	4574
2026-01-04 10:00:04.70	170.46	33.34	-54.5	-56.7	14.0	0.00e+00	0	28	0	476053504	75	4569
2026-01-04 10:00:05.71	170.54	33.55	-54.4	-56.5	14.1	0.00e+00	0	28	0	478150656	75	4491
2026-01-04 10:00:06.70	170.63	33.76	-54.2	-56.3	14.2	0.00e+00	0	28	0	480247808	75	4366
2026-01-04 10:00:07.71	170.71	33.97	-53.9	-55.9	14.3	0.00e+00	0	28	0	481296384	74	4406
2026-01-04 10:00:08.71	170.80	34.19	-53.7	-55.7	14.4	0.00e+00	0	28	0	483393536	74	4303
2026-01-04 10:00:09.71	170.89	34.40	-53.6	-55.5	14.4	0.00e+00	0	28	0	485490688	73	4473
2026-01-04 10:00:10.71	170.98	34.62	-53.6	-55.5	14.4	0.00e+00	0	28	0	487587840	73	4493
2026-01-04 10:00:11.72	171.07	34.84	-53.6	-55.6	14.3	0.00e+00	0	28	0	489684992	73	4508
2026-01-04 10:00:12.73	171.16	35.06	-53.6	-55.5	14.4	0.00e+00	0	28	0	490733568	73	4446
2026-01-04 10:00:13.74	171.26	35.29	-53.5	-55.4	14.4	0.00e+00	0	28	0	492830720	73	4419
2026-01-04 10:00:14.74	171.35	35.51	-53.4	-55.3	14.5	0.00e+00	0	28	0	494927872	73	4378
2026-01-04 10:00:15.74	171.45	35.73	-53.4	-55.2	14.5	0.00e+00	0	28	0	497025024	73	4326
2026-01-04 10:00:16.74	171.54	35.96	-53.4	-55.3	14.5	0.00e+00	0	29	0	499122176	73	4353
2026-01-04 10:00:17.75	171.64	36.19	-53.3	-55.2	14.5	0.00e+00	0	28	0	500170752	73	4307
2026-01-04 10:00:18.76	171.74	36.42	-53.3	-55.1	14.6	0.00e+00	0	28	0	502267904	73	4288
2026-01-04 10:00:19.76	171.84	36.65	-53.1	-54.9	14.5	0.00e+00	0	28	0	504365056	72	4426
2026-01-04 10:00:20.77	171.95	36.88	-53.1	-54.9	14.5	0.00e+00	0	28	0	506462208	72	4434
2026-01-04 10:00:21.78	172.05	37.12	-53.3	-55.1	14.5	0.00e+00	0	28	0	508559360	72	4520
2026-01-04 10:00:22.79	172.16	37.36	-53.3	-55.1	14.4	0.00e+00	0	28	0	509607936	72	4528
2026-01-04 10:00:23.79	172.26	37.59	-53.3	-55.1	14.5	0.00e+00	0	28	0	511705088	72	4510
2026-01-04 10:00:24.79	172.37	37.83	-53.4	-55.2	14.4	0.00e+00	0	28	0	513802240	72	4594
2026-01-04 10:00:25.79	172.48	38.07	-53.6	-55.6	14.3	0.00e+00	0	28	0	515899392	72	4764
2026-01-04 10:00:26.78	172.59	38.31	-53.6	-55.6	14.3	0.00e+00	0	28	0	516947968	72	4766
2026-01-04 10:00:27.79	172.71	38.56	-53.8	-55.8	14.1	0.00e+00	0	29	0	519045120	72	4905
2026-01-04 10:00:28.79	172.82	38.80	-53.8	-55.8	14.2	0.00e+00	0	28	0	521142272	72	4873
2026-01-04 10:00:29.79	172.94	39.05	-53.7	-55.6	14.3	0.00e+00	0	28	0	523239424	72	4793
2026-01-04 10:00:30.79	173.05	39.30	-53.8	-55.7	14.2	0.00e+00	0	28	0	525336576	72	4858
2026-01-04 10:00:31.80	173.18	39.55	-53.8	-55.8	14.2	0.00e+00	0	28	0	526385152	72	4874
2026-01-04 10:00:32.81	173.30	39.80	-53.9	-55.9	14.2	0.00e+00	0	29	0	528482304	72	4940
2026-01-04 10:00:33.81	173.42	40.05	-53.9	-55.9	14.2	0.00e+00	0	28	0	530579456	73	4675
2026-01-04 10:00:34.82	173.55	40.31	-54.0	-56.0	14.2	0.00e+00	0	28	0	532676608	73	4729
2026-01-04 10:00:35.83	173.68	40.57	-54.1	-56.2	14.1	0.00e+00	0	28	0	534773760	73	4837
2026-01-04 10:00:36.83	173.80	40.83	-54.2	-56.3	14.0	0.00e+00	0	28	0	535822336	73	4906
2026-01-04 10:00:37.83	173.94	41.09	-54.1	-56.2	14.1	0.00e+00	0	29	0	537919488	73	4856
2026-01-04 10:00:38.84	174.07	41.35	-54.2	-56.3	14.0	0.00e+00	0	28	0	540016640	73	4897
2026-01-04 10:00:39.83	174.20	41.61	-54.1	-56.1	14.1	0.00e+00	0	28	0	542113792	73	4802
2026-01-04 10:00:40.84	174.34	41.88	-53.8	-55.8	14.3	0.00e+00	0	28	0	544210944	73	4599
2026-01-04 10:00:41.85	174.48	42.15	-53.9	-55.8	14.3	0.00e+00	0	28	0	545259520	73	4643
2026-01-04 10:00:42.85	174.62	42.42	-53.9	-55.8	14.3	0.00e+00	0	28	0	547356672	73	4649
2026-01-04 10:00:43.85	174.77	42.69	-54.1	-56.1	14.1	0.00e+00	0	29	0	549453824	73	4799
2026-01-04 10:00:44.86	174.92	42.96	-54.3	-56.4	14.0	0.00e+00	0	28	0	551550976	73	4949
2026-01-04 10:00:45.86	175.07	43.24	-54.4	-56.5	14.1	0.00e+00	0	28	0	553648128	74	4747
2026-01-04 10:00:46.86	175.22	43.51	-54.6	-56.8	13.9	0.00e+00	0	28	0	554696704	74	4921
2026-01-04 10:00:47.87	175.37	43.79	-54.7	-56.9	13.9	0.00e+00	0	28	0	556793856	74	4973
2026-01-04 10:00:48.87	175.53	44.07	-54.7	-57.0	13.8	0.00e+00	0	29	0	558891008	74	5033
2026-01-04 10:00:49.88	175.69	44.36	-54.7	-57.0	13.8	0.00e+00	0	28	0	560988160	74	5020
2026-01-04 10:00:50.88	175.85	44.64	-54.6	-56.8	13.9	0.00e+00	0	28	0	563085312	74	4896
2026-01-04 10:00:51.89	176.02	44.93	-54.7	-56.9	13.8	0.00e+00	0	28	0	564133888	74	4964
2026-01-04 10:00:52.88	176.19	45.21	-54.9	-57.2	13.8	0.00e+00	0	28	0	566231040	74	5127
2026-01-04 10:00:53.89	176.36	45.50	-54.8	-57.1	13.8	0.00e+00	0	28	0	568328192	74	5098
2026-01-04 10:00:54.89	176.53	45.79	-54.9	-57.3	13.8	0.00e+00	0	28	0	570425344	75	4883
2026-01-04 10:00:55.90	176.71	46.09	-54.8	-57.1	13.9	0.00e+00	0	28	0	572522496	75	4774
2026-01-04 10:00:56.90	176.89	46.38	-54.7	-56.9	14.0	0.00e+00	0	28	0	573571072	75	4656
2026-01-04 10:00:57.90	177.08	46.68	-54.7	-56.9	14.0	0.00e+00	0	28	0	575668224	75	4666
2026-01-04 10:00:58.91	177.26	46.98	-55.0	-57.3	13.8	0.00e+00	0	29	0	577765376	75	4910
2026-01-04 10:00:59.91	177.46	47.27	-55.1	-57.5	13.7	0.00e+00	0	28	0	579862528	75	5006
2026-01-04 10:01:00.91	177.65	47.58	-55.3	-57.9	13.5	0.00e+00	0	28	0	581959680	75	5238
2026-01-04 10:01:01.91	177.85	47.88	-55.1	-57.6	13.6	0.00e+00	0	28	0	583008256	75	5056
2026-01-04 10:01:02.91	178.05	48.18	-55.3	-57.8	13.5	0.00e+00	0	28	0	585105408	75	5174
2026-01-04 10:01:03.90	178.25	48.49	-54.7	-57.0	13.9	0.00e+00	0	28	0	587202560	75	4739
2026-01-04 10:01:04.92	178.47	48.80	-54.4	-56.5	14.2	0.00e+00	0	28	0	589299712	75	4442
2026-01-04 10:01:05.92	178.68	49.11	-54.1	-56.1	14.2	0.00e+00	0	28	0	590348288	74	4531
2026-01-04 10:01:06.92	178.90	49.42	-54.1	-56.1	14.3	0.00e+00	0	28	0	592445440	74	4519
2026-01-04 10:01:07.92	179.12	49.73	-53.6	-55.4	14.5	0.00e+00	0	28	0	594542592	73	4430
2026-01-04 10:01:08.92	179.35	50.05	-53.2	-55.0	14.6	0.00e+00	0	28	0	596639744	73	4217
2026-01-04 10:01:09.93	179.59	50.37	-52.9	-54.6	14.7	0.00e+00	0	29	0	598736896	72	4268
2026-01-04 10:01:10.94	179.82	50.69	-52.9	-54.6	14.7	0.00e+00	0	28	0	599785472	72	4268
2026-01-04 10:01:11.94	180.07	51.01	-52.5	-54.1	14.8	0.00e+00	0	28	0	601882624	71	4252
2026-01-04 10:01:12.95	180.32	51.33	-52.1	-53.6	14.9	0.00e+00	0	28	0	603979776	70	4265
2026-01-04 10:01:13.95	180.57	51.66	-51.7	-53.2	15.0	0.00e+00	0	28	0	606076928	70	4068
2026-01-04 10:01:14.95	180.83	51.98	-51.4	-52.9	15.0	0.00e+00	0	28	0	608174080	69	4148
2026-01-04 10:01:15.96	181.09	52.31	-51.2	-52.6	15.1	0.00e+00	0	28	0	609222656	68	4266
2026-01-04 10:01:16.97	181.36	52.64	-51.0	-52.4	15.1	0.00e+00	0	28	0	611319808	68	4149
2026-01-04 10:01:17.97	181.64	52.97	-51.0	-52.3	15.1	0.00e+00	0	28	0	613416960	68	4136
2026-01-04 10:01:18.97	181.92	53.31	-51.0	-52.3	15.1	0.00e+00	0	28	0	615514112	68	4132
2026-01-04 10:01:19.98	182.21	53.64	-50.9	-52.2	15.1	0.00e+00	0	28	0	617611264	68	4095
2026-01-04 10:01:20.98	182.51	53.98	-50.9	-52.2	15.1	0.00e+00	0	28	0	618659840	68	4091
2026-01-04 10:01:21.98	182.81	54.31	-50.7	-52.1	15.1	0.00e+00	0	28	0	620756992	68	4014
2026-01-04 10:01:22.98	183.12	54.65	-50.3	-51.6	15.2	0.00e+00	0	28	0	622854144	67	4016
2026-01-04 10:01:23.97	183.43	54.98	-50.3	-51.6	15.2	0.00e+00	0	28	0	624951296	67	4048
2026-01-04 10:01:24.98	183.76	55.33	-50.7	-52.0	15.1	0.00e+00	0	28	0	627048448	67	4237
2026-01-04 10:01:25.98	184.09	55.67	-51.2	-52.6	14.9	0.00e+00	0	28	0	628097024	67	4529
2026-01-04 10:01:26.98	184.43	56.01	-51.7	-53.2	14.8	0.00e+00	0	29	0	630194176	68	4550
2026-01-04 10:01:27.99	184.78	56.36	-51.9	-53.4	14.8	0.00e+00	0	29	0	632291328	68	4670
2026-01-04 10:01:28.99	185.13	56.70	-52.0	-53.5	14.8	0.00e+00	0	28	0	634388480	69	4489
2026-01-04 10:01:29.99	185.50	57.05	-52.0	-53.5	14.8	0.00e+00	0	28	0	635437056	69	4471
2026-01-04 10:01:31.00	185.88	57.40	-52.0	-53.5	14.8	0.00e+00	0	28	0	637534208	69	4486
2026-01-04 10:01:31.99	186.26	57.74	-51.9	-53.4	14.8	0.00e+00	0	28	0	639631360	69	4441
2026-01-04 10:01:32.99	186.65	58.09	-51.8	-53.2	14.9	0.00e+00	0	28	0	641728512	69	4336
2026-01-04 10:01:34.00	187.06	58.44	-51.6	-53.1	15.0	0.00e+00	0	28	0	643825664	69	4273
2026-01-04 10:01:35.00	187.47	58.79	-51.4	-52.9	15.1	0.00e+00	0	28	0	644874240	69	4147
2026-01-04 10:01:36.01	187.90	59.14	-51.5	-53.0	15.0	0.00e+00	0	29	0	646971392	69	4202
2026-01-04 10:01:37.01	188.34	59.50	-51.3	-52.7	15.1	0.00e+00	0	28	0	649068544	69	4052
2026-01-04 10:01:38.01	188.79	59.85	-51.0	-52.4	15.1	0.00e+00	0	28	0	651165696	68	4171
2026-01-04 10:01:39.01	189.25	60.20	-50.3	-51.6	15.2	0.00e+00	0	28	0	653262848	67	4042
2026-01-04 10:01:40.01	189.73	60.55	-49.9	-51.1	15.3	0.00e+00	0	28	0	654311424	66	4042
2026-01-04 10:01:41.02	190.22	60.91	-49.8	-51.0	15.3	0.00e+00	0	28	0	656408576	66	3989
2026-01-04 10:01:42.02	190.72	61.26	-49.6	-50.8	15.2	0.00e+00	0	29	0	658505728	65	4120
2026-01-04 10:01:43.02	191.24	61.61	-49.7	-50.9	15.2	0.00e+00	0	28	0	660602880	65	4180
2026-01-04 10:01:44.03	191.77	61.97	-49.8	-51.1	15.1	0.00e+00	0	28	0	662700032	65	4274
2026-01-04 10:01:45.03	192.32	62.32	-49.9	-51.2	15.1	0.00e+00	0	28	0	663748608	65	4338
2026-01-04 10:01:46.03	192.88	62.67	-50.1	-51.4	15.1	0.00e+00	0	28	0	665845760	65	4400
2026-01-04 10:01:47.03	193.46	63.02	-50.0	-51.2	15.1	0.00e+00	0	28	0	667942912	65	4340
2026-01-04 10:01:48.03	194.05	63.37	-50.0	-51.2	15.1	0.00e+00	0	28	0	670040064	65	4334
2026-01-04 10:01:49.03	194.67	63.72	-50.1	-51.4	15.1	0.00e+00	0	28	0	672137216	65	4413
2026-01-04 10:01:50.04	195.30	64.07	-50.5	-51.8	15.1	0.00e+00	0	28	0	673185792	66	4384
2026-01-04 10:01:51.04	195.95	64.42	-51.2	-52.6	14.9	0.00e+00	0	28	0	675282944	67	4507
2026-01-04 10:01:52.04	196.62	64.76	-51.7	-53.2	14.9	0.00e+00	0	28	0	677380096	68	4580
2026-01-04 10:01:53.04	197.32	65.11	-52.0	-53.5	14.8	0.00e+00	0	28	0	679477248	69	4490
2026-01-04 10:01:54.04	198.03	65.45	-52.2	-53.7	14.8	0.00e+00	0	28	0	681574400	69	4572
2026-01-04 10:01:55.04	198.76	65.79	-52.6	-54.3	14.7	0.00e+00	0	28	0	682622976	70	4612
2026-01-04 10:01:56.04	199.52	66.13	-53.1	-54.9	14.5	0.00e+00	0	28	0	684720128	71	4658
2026-01-04 10:01:57.04	200.30	66.46	-53.5	-55.3	14.5	0.00e+00	0	28	0	686817280	72	4642
2026-01-04 10:01:58.04	201.11	66.80	-53.5	-55.3	14.5	0.00e+00	0	28	0	688914432	72	4613
2026-01-04 10:01:59.04	201.94	67.13	-53.4	-55.2	14.5	0.00e+00	0	28	0	689963008	72	4557
2026-01-04 10:02:00.04	202.80	67.45	-53.8	-55.7	14.3	0.00e+00	0	29	0	692060160	72	4817
2026-01-04 10:02:01.04	203.68	67.78	-54.3	-56.3	14.2	0.00e+00	0	28	0	694157312	73	4916
2026-01-04 10:02:02.05	204.60	68.10	-54.4	-56.4	14.1	0.00e+00	0	28	0	696254464	73	4958
2026-01-04 10:02:03.05	205.55	68.41	-54.2	-56.2	14.3	0.00e+00	0	28	0	698351616	74	4560
2026-01-04 10:02:04.05	206.52	68.73	-53.7	-55.6	14.6	0.00e+00	0	28	0	699400192	74	4246
2026-01-04 10:02:05.06	207.53	69.03	-53.7	-55.5	14.5	0.00e+00	0	28	0	701497344	73	4489
2026-01-04 10:02:06.06	208.57	69.33	-53.9	-55.8	14.4	0.00e+00	0	28	0	703594496	73	4636
2026-01-04 10:02:07.06	209.64	69.63	-54.0	-55.9	14.3	0.00e+00	0	28	0	705691648	73	4692
2026-01-04 10:02:08.10	210.78	69.93	-54.1	-56.0	14.3	0.00e+00	0	28	0	707788800	73	4745
2026-01-04 10:02:08.98	211.78	70.18	-54.5	-56.6	14.1	0.00e+00	0	28	0	708837376	74	4787
2026-01-04 10:02:10.13	213.12	70.50	-54.7	-56.9	14.0	0.00e+00	0	28	0	710934528	74	4945
2026-01-04 10:02:10.99	214.16	70.73	-54.3	-56.3	14.2	0.00e+00	0	28	0	713031680	74	4648
2026-01-04 10:02:12.14	215.59	71.03	-53.8	-55.6	14.6	0.00e+00	0	28	0	715128832	74	4276
2026-01-04 10:02:13.00	216.68	71.25	-53.8	-55.7	14.5	0.00e+00	0	28	0	716177408	74	4313
2026-01-04 10:02:14.15	218.19	71.53	-54.3	-56.3	14.3	0.00e+00	0	28	0	718274560	74	4633
2026-01-04 10:02:15.01	219.36	71.74	-54.5	-56.6	14.1	0.00e+00	0	28	0	720371712	74	4795
2026-01-04 10:02:16.16	220.95	72.00	-55.0	-57.3	13.9	0.00e+00	0	28	0	722468864	75	4903
2026-01-04 10:02:17.02	222.18	72.19	-54.7	-56.9	14.1	0.00e+00	0	28	0	723517440	75	4676
2026-01-04 10:02:18.17	223.86	72.43	-53.9	-55.7	14.5	0.00e+00	0	28	0	726663168	74	4336
2026-01-04 10:02:19.02	225.13	72.59	-53.5	-55.3	14.6	0.00e+00	0	28	0	727711744	73	4363
2026-01-04 10:02:20.17	226.89	72.81	-53.6	-55.5	14.5	0.00e+00	0	28	0	729808896	73	4451
2026-01-04 10:02:21.03	228.24	72.96	-54.1	-56.1	14.3	0.00e+00	0	28	0	731906048	73	4784
2026-01-04 10:02:22.18	230.07	73.14	-54.5	-56.6	14.2	0.00e+00	0	28	0	734003200	74	4766
2026-01-04 10:02:23.04	231.47	73.27	-54.5	-56.5	14.2	0.00e+00	0	28	0	735051776	74	4753
2026-01-04 10:02:24.19	233.38	73.43	-53.6	-55.4	14.6	0.00e+00	0	28	0	737148928	73	4430
2026-01-04 10:02:25.05	234.83	73.53	-53.5	-55.3	14.6	0.00e+00	0	28	0	739246080	73	4360
2026-01-04 10:02:26.20	236.80	73.66	-53.5	-55.3	14.6	0.00e+00	0	29	0	741343232	73	4366
2026-01-04 10:02:27.06	238.29	73.74	-53.3	-55.0	14.7	0.00e+00	0	28	0	742391808	73	4197
2026-01-04 10:02:28.20	240.29	73.83	-52.5	-54.1	14.9	0.00e+00	0	29	0	745537536	71	4265
2026-01-04 10:02:29.06	241.81	73.89	-52.9	-54.5	14.7	0.00e+00	0	28	0	746586112	71	4492
2026-01-04 10:02:30.21	243.87	73.95	-53.4	-55.2	14.6	0.00e+00	0	28	0	748683264	72	4583
2026-01-04 10:02:31.07	245.41	73.98	-53.3	-55.1	14.6	0.00e+00	0	28	0	750780416	72	4506
2026-01-04 10:02:32.22	247.48	74.01	-53.0	-54.6	14.7	0.00e+00	0	28	0	752877568	72	4285
2026-01-04 10:02:33.07	249.02	74.01	-53.0	-54.6	14.8	0.00e+00	0	28	0	753926144	72	4272
2026-01-04 10:02:34.22	251.09	74.00	-53.1	-54.8	14.7	0.00e+00	0	28	0	756023296	72	4375
2026-01-04 10:02:35.08	252.64	73.98	-53.4	-55.1	14.6	0.00e+00	0	28	0	758120448	72	4521
2026-01-04 10:02:36.22	254.68	73.94	-54.0	-56.0	14.3	0.00e+00	0	28	0	760217600	73	4710
2026-01-04 10:02:37.09	256.23	73.89	-54.0	-56.0	14.4	0.00e+00	0	28	0	761266176	73	4706
2026-01-04 10:02:38.24	258.27	73.81	-54.0	-55.9	14.4	0.00e+00	0	28	0	763363328	73	4686
2026-01-04 10:02:39.10	259.77	73.74	-54.0	-55.9	14.4	0.00e+00	0	28	0	765460480	73	4665
2026-01-04 10:02:40.25	261.76	73.63	-53.9	-55.7	14.4	0.00e+00	0	28	0	767557632	73	4594
2026-01-04 10:02:41.10	263.22	73.54	-54.5	-56.6	14.2	0.00e+00	0	28	0	769654784	74	4770
2026-01-04 10:02:42.25	265.15	73.39	-55.5	-57.9	13.7	0.00e+00	0	29	0	771751936	76	4972
2026-01-04 10:02:43.11	266.57	73.27	-55.6	-58.0	13.7	0.00e+00	0	28	0	772800512	76	5027
2026-01-04 10:02:44.26	268.44	73.10	-54.9	-57.0	14.2	0.00e+00	0	28	0	774897664	76	4491
2026-01-04 10:02:45.12	269.81	72.96	-54.5	-56.6	14.2	0.00e+00	0	28	0	776994816	75	4519
2026-01-04 10:02:46.26	271.59	72.76	-54.5	-56.5	14.3	0.00e+00	0	29	0	779091968	75	4456
2026-01-04 10:02:47.13	272.92	72.60	-54.4	-56.4	14.4	0.00e+00	0	28	0	780140544	75	4437
2026-01-04 10:02:48.27	274.62	72.37	-55.1	-57.4	13.9	0.00e+00	0	28	0	782237696	75	4962
2026-01-04 10:02:49.13	275.87	72.19	-54.8	-57.0	14.0	0.00e+00	0	28	0	784334848	75	4707
2026-01-04 10:02:50.28	277.50	71.94	-54.4	-56.3	14.3	0.00e+00	0	28	0	786432000	75	4377
2026-01-04 10:02:51.14	278.69	71.74	-53.7	-55.9	14.5	0.00e+00	0	28	0	788529152	74	4416
2026-01-04 10:02:52.29	280.24	71.47	-54.5	-56.5	14.2	0.00e+00	0	28	0	790626304	74	4740
2026-01-04 10:02:53.14	281.35	71.26	-53.8	-55.7	14.5	0.00e+00	0	28	0	791674880	74	4304
2026-01-04 10:02:54.29	282.81	70.97	-54.0	-55.9	14.5	0.00e+00	0	28	0	793772032	74	4395
2026-01-04 10:02:55.15	283.87	70.74	-54.6	-56.7	14.1	0.00e+00	0	28	0	795869184	74	4858
2026-01-04 10:02:56.30	285.25	70.43	-54.8	-57.0	14.0	0.00e+00	0	28	0	797966336	74	4990
2026-01-04 10:02:57.16	286.25	70.19	-54.7	-56.8	14.1	0.00e+00	0	28	0	799014912	74	4884
2026-01-04 10:02:58.32	287.56	69.86	-54.5	-56.5	14.2	0.00e+00	0	28	0	801112064	74	4729
2026-01-04 10:02:59.18	288.50	69.61	-54.5	-56.5	14.2	0.00e+00	0	28	0	803209216	74	4725
2026-01-04 10:03:00.32	289.72	69.28	-55.0	-57.2	14.0	0.00e+00	0	29	0	805306368	75	4842
2026-01-04 10:03:01.18	290.60	69.02	-56.2	-59.0	13.3	0.00e+00	0	28	0	807403520	77	5291
2026-01-04 10:03:02.33	291.75	68.66	-55.8	-58.3	13.7	0.00e+00	0	28	0	809500672	78	4642
2026-01-04 10:03:03.19	292.58	68.40	-54.8	-56.8	14.2	0.00e+00	0	28	0	810549248	76	4384
2026-01-04 10:03:04.34	293.66	68.03	-54.6	-56.6	14.2	0.00e+00	0	28	0	812646400	75	4514
2026-01-04 10:03:05.20	294.44	67.76	-55.8	-58.3	13.5	0.00e+00	0	28	0	814743552	76	5191
2026-01-04 10:03:06.34	295.44	67.39	-55.7	-58.2	13.6	0.00e+00	0	28	0	816840704	77	4853
2026-01-04 10:03:07.20	296.18	67.11	-55.4	-57.7	13.9	0.00e+00	0	28	0	817889280	77	4559
2026-01-04 10:03:08.34	297.12	66.74	-55.0	-57.2	14.1	0.00e+00	0	28	0	819986432	76	4549
2026-01-04 10:03:09.20	297.81	66.45	-55.0	-57.1	14.1	0.00e+00	0	28	0	822083584	76	4513
2026-01-04 10:03:10.34	298.70	66.07	-54.6	-56.6	14.2	0.00e+00	0	28	0	824180736	75	4530
2026-01-04 10:03:11.20	299.34	65.78	-54.0	-56.0	14.4	0.00e+00	0	28	0	825229312	74	4446
2026-01-04 10:03:12.35	300.18	65.39	-53.2	-54.9	14.8	0.00e+00	0	28	0	827326464	73	4166
2026-01-04 10:03:13.21	300.79	65.09	-52.8	-54.3	14.9	0.00e+00	0	28	0	829423616	72	4143
2026-01-04 10:03:14.36	301.58	64.70	-52.1	-53.6	14.9	0.00e+00	0	28	0	831520768	70	4261
2026-01-04 10:03:15.22	302.16	64.40	-52.0	-53.5	15.0	0.00e+00	0	28	0	833617920	70	4197
2026-01-04 10:03:16.37	302.90	64.00	-51.4	-52.8	15.1	0.00e+00	0	28	0	835715072	69	4115
2026-01-04 10:03:17.23	303.44	63.70	-50.8	-52.2	15.2	0.00e+00	0	28	0	836763648	68	4052
2026-01-04 10:03:18.38	304.14	63.30	-50.0	-51.2	15.2	0.00e+00	0	28	0	838860800	66	4074
2026-01-04 10:03:19.24	304.65	63.00	-50.1	-51.4	15.2	0.00e+00	0	28	0	840957952	66	4155
2026-01-04 10:03:20.38	305.31	62.60	-50.1	-51.3	15.2	0.00e+00	0	28	0	843055104	66	4128
2026-01-04 10:03:21.25	305.79	62.30	-49.6	-50.8	15.3	0.00e+00	0	28	0	844103680	65	4121
2026-01-04 10:03:22.40	306.42	61.89	-48.8	-50.0	15.4	0.00e+00	0	28	0	846200832	64	3987
2026-01-04 10:03:23.26	306.87	61.59	-48.5	-49.6	15.4	0.00e+00	0	28	0	848297984	63	4032
2026-01-04 10:03:24.40	307.45	61.19	-49.0	-50.2	15.2	0.00e+00	0	28	0	850395136	63	4327
2026-01-04 10:03:25.27	307.89	60.88	-50.3	-51.6	15.0	0.00e+00	0	28	0	852492288	65	4519
2026-01-04 10:03:26.41	308.44	60.48	-52.2	-53.7	14.8	0.00e+00	0	28	0	854589440	69	4587
2026-01-04 10:03:27.27	308.85	60.18	-52.1	-53.6	14.8	0.00e+00	0	28	0	855638016	69	4522
2026-01-04 10:03:28.42	309.37	59.78	-51.2	-52.6	15.2	0.00e+00	0	28	0	857735168	69	4005
2026-01-04 10:03:29.29	309.76	59.47	-51.4	-52.8	15.0	0.00e+00	0	29	0	859832320	68	4370
2026-01-04 10:03:30.43	310.26	59.07	-52.7	-54.4	14.7	0.00e+00	0	28	0	861929472	70	4664
2026-01-04 10:03:31.30	310.63	58.77	-54.1	-56.0	14.3	0.00e+00	0	28	0	862978048	73	4758
2026-01-04 10:03:32.44	311.10	58.37	-55.0	-57.3	13.9	0.00e+00	0	28	0	865075200	75	4923
2026-01-04 10:03:33.30	311.44	58.07	-54.4	-56.5	14.3	0.00e+00	0	28	0	867172352	75	4444
2026-01-04 10:03:34.45	311.89	57.67	-53.1	-54.8	14.8	0.00e+00	0	28	0	869269504	73	4128
2026-01-04 10:03:35.31	312.22	57.38	-52.7	-54.3	14.9	0.00e+00	0	28	0	871366656	72	4108
2026-01-04 10:03:36.45	312.65	56.98	-52.5	-54.1	14.9	0.00e+00	0	28	0	873463808	71	4245
2026-01-04 10:03:37.32	312.96	56.68	-53.5	-55.2	14.4	0.00e+00	0	28	0	874512384	72	4597
2026-01-04 10:03:38.46	313.37	56.29	-54.1	-56.0	14.3	0.00e+00	0	29	0	876609536	73	4740
2026-01-04 10:03:39.32	313.66	56.00	-52.9	-54.6	14.8	0.00e+00	0	28	0	878706688	72	4268
2026-01-04 10:03:40.46	314.05	55.61	-51.0	-52.3	15.2	0.00e+00	0	28	0	880803840	68	4118
2026-01-04 10:03:41.33	314.33	55.31	-50.1	-51.4	15.3	0.00e+00	0	28	0	881852416	66	4172
2026-01-04 10:03:42.48	314.70	54.92	-49.7	-51.0	15.3	0.00e+00	0	29	0	883949568	66	3966
2026-01-04 10:03:43.34	314.97	54.63	-49.6	-50.8	15.2	0.00e+00	0	28	0	886046720	65	4140
2026-01-04 10:03:44.49	315.33	54.25	-49.8	-51.0	15.2	0.00e+00	0	28	0	888143872	65	4220
2026-01-04 10:03:45.35	315.58	53.96	-50.2	-51.5	15.1	0.00e+00	0	28	0	889192448	65	4485
2026-01-04 10:03:46.50	315.92	53.58	-50.2	-51.5	15.1	0.00e+00	0	28	0	892338176	66	4218
2026-01-04 10:03:47.35	316.17	53.30	-49.7	-50.9	15.3	0.00e+00	0	28	0	893386752	66	3952
2026-01-04 10:03:48.50	316.49	52.92	-49.3	-50.4	15.4	0.00e+00	0	28	0	895483904	65	3958
2026-01-04 10:03:49.36	316.72	52.63	-49.3	-50.5	15.4	0.00e+00	0	28	0	897581056	65	3981
2026-01-04 10:03:50.52	317.03	52.26	-50.0	-51.2	15.1	0.00e+00	0	28	0	899678208	65	4333
2026-01-04 10:03:51.38	317.26	51.98	-50.9	-52.3	15.0	0.00e+00	0	28	0	900726784	66	4614
2026-01-04 10:03:52.52	317.55	51.61	-51.9	-53.4	14.8	0.00e+00	0	28	0	902823936	68	4675
2026-01-04 10:03:53.38	317.77	51.33	-52.4	-54.0	14.7	0.00e+00	0	28	0	904921088	69	4718
2026-01-04 10:03:54.53	318.05	50.96	-53.1	-54.8	14.6	0.00e+00	0	28	0	907018240	71	4612
2026-01-04 10:03:55.39	318.26	50.69	-53.0	-54.7	14.7	0.00e+00	0	28	0	908066816	71	4554
2026-01-04 10:03:56.53	318.53	50.33	-53.0	-54.6	14.7	0.00e+00	0	28	0	910163968	71	4544
2026-01-04 10:03:57.39	318.73	50.06	-53.2	-54.9	14.6	0.00e+00	0	29	0	912261120	71	4672
2026-01-04 10:03:58.53	318.98	49.70	-54.3	-56.3	14.2	0.00e+00	0	28	0	914358272	73	4905
2026-01-04 10:03:59.39	319.17	49.43	-56.4	-59.3	13.0	0.00e+00	0	28	0	916455424	77	5526
2026-01-04 10:04:00.54	319.42	49.07	-58.2	-63.0	10.7	3.80e-06	0	28	0	918552576	81	6693
2026-01-04 10:04:01.41	319.61	48.80	-57.7	-61.7	11.7	1.51e-04	0	28	0	919601152	81	5755
2026-01-04 10:04:02.55	319.85	48.46	-55.6	-58.0	13.7	0.00e+00	0	28	0	921698304	77	4747
2026-01-04 10:04:03.41	320.02	48.19	-54.3	-56.2	14.4	0.00e+00	0	28	0	923795456	75	4323
2026-01-04 10:04:04.56	320.26	47.84	-53.8	-55.6	14.5	0.00e+00	0	28	0	925892608	74	4276
2026-01-04 10:04:05.42	320.43	47.59	-53.6	-55.4	14.6	0.00e+00	0	28	0	926941184	73	4423
2026-01-04 10:04:06.57	320.65	47.24	-54.2	-56.2	14.2	0.00e+00	0	29	0	929038336	73	4820
2026-01-04 10:04:07.42	320.81	46.99	-54.6	-56.7	14.1	0.00e+00	0	28	0	931135488	74	4862
2026-01-04 10:04:08.56	321.02	46.65	-55.5	-57.9	13.7	0.00e+00	0	28	0	933232640	75	5259
2026-01-04 10:04:09.42	321.18	46.40	-55.9	-58.5	13.4	0.00e+00	0	28	0	934281216	76	5308
2026-01-04 10:04:10.57	321.39	46.06	-55.6	-58.2	13.6	0.00e+00	0	28	0	937426944	77	4820
2026-01-04 10:04:11.43	321.54	45.81	-54.7	-56.9	14.2	0.00e+00	0	28	0	938475520	76	4406
2026-01-04 10:04:12.58	321.74	45.48	-54.0	-55.9	14.4	0.00e+00	0	29	0	940572672	74	4407
2026-01-04 10:04:13.44	321.88	45.23	-53.3	-55.1	14.6	0.00e+00	0	28	0	942669824	73	4249
2026-01-04 10:04:14.59	322.08	44.91	-53.2	-54.8	14.7	0.00e+00	0	28	0	944766976	72	4380
2026-01-04 10:04:15.45	322.22	44.66	-52.6	-54.2	14.8	0.00e+00	0	28	0	945815552	71	4308
2026-01-04 10:04:16.59	322.40	44.34	-52.9	-54.6	14.7	0.00e+00	0	28	0	947912704	71	4510
2026-01-04 10:04:17.45	322.54	44.10	-53.4	-55.2	14.5	0.00e+00	0	28	0	950009856	72	4580
2026-01-04 10:04:18.60	322.72	43.78	-53.8	-55.7	14.3	0.00e+00	0	28	0	952107008	72	4817
2026-01-04 10:04:19.46	322.85	43.54	-54.2	-56.2	14.2	0.00e+00	0	28	0	953155584	73	4823
2026-01-04 10:04:20.61	323.03	43.23	-53.6	-55.5	14.5	0.00e+00	0	28	0	956301312	73	4454
2026-01-04 10:04:21.47	323.15	42.99	-53.1	-54.8	14.7	0.00e+00	0	28	0	957349888	72	4373
2026-01-04 10:04:22.62	323.32	42.68	-52.4	-54.0	14.9	0.00e+00	0	28	0	959447040	71	4208
2026-01-04 10:04:23.47	323.44	42.45	-52.3	-53.9	14.9	0.00e+00	0	28	0	961544192	71	4149
2026-01-04 10:04:24.62	323.61	42.15	-51.9	-53.3	15.0	0.00e+00	0	28	0	963641344	70	4124
2026-01-04 10:04:25.48	323.73	41.92	-51.8	-53.2	15.1	0.00e+00	0	28	0	964689920	70	4062
2026-01-04 10:04:26.63	323.88	41.61	-51.5	-52.8	15.1	0.00e+00	0	29	0	966787072	69	4138
2026-01-04 10:04:27.49	324.00	41.39	-52.0	-53.5	14.9	0.00e+00	0	28	0	968884224	69	4453
2026-01-04 10:04:28.63	324.15	41.09	-53.2	-54.9	14.6	0.00e+00	0	28	0	970981376	71	4677
2026-01-04 10:04:29.49	324.26	40.87	-54.2	-56.2	14.2	0.00e+00	0	28	0	972029952	73	4858
2026-01-04 10:04:30.63	324.41	40.58	-55.0	-57.3	13.9	0.00e+00	0	29	0	974127104	75	4902
2026-01-04 10:04:31.49	324.52	40.36	-54.6	-56.7	14.1	0.00e+00	0	28	0	976224256	75	4580
2026-01-04 10:04:32.64	324.66	40.06	-53.8	-55.6	14.6	0.00e+00	0	28	0	978321408	74	4287
2026-01-04 10:04:33.51	324.77	39.85	-53.1	-54.7	14.7	0.00e+00	0	28	0	980418560	72	4339
2026-01-04 10:04:34.66	324.91	39.56	-52.9	-54.5	14.8	0.00e+00	0	28	0	982515712	72	4230
2026-01-04 10:04:35.52	325.01	39.34	-52.7	-54.3	14.8	0.00e+00	0	28	0	983564288	72	4141
2026-01-04 10:04:36.67	325.15	39.06	-52.5	-54.1	14.8	0.00e+00	0	28	0	985661440	71	4268
2026-01-04 10:04:37.53	325.25	38.85	-52.4	-54.0	14.9	0.00e+00	0	28	0	987758592	71	4223
2026-01-04 10:04:38.68	325.38	38.57	-52.9	-54.6	14.7	0.00e+00	0	28	0	989855744	71	4514
2026-01-04 10:04:39.53	325.47	38.36	-53.4	-55.2	14.5	0.00e+00	0	28	0	990904320	72	4592
2026-01-04 10:04:40.68	325.60	38.09	-53.7	-55.6	14.4	0.00e+00	0	28	0	993001472	72	4768
2026-01-04 10:04:41.54	325.69	37.88	-54.1	-56.1	14.3	0.00e+00	0	28	0	995098624	73	4786
2026-01-04 10:04:42.69	325.82	37.61	-54.3	-56.4	14.1	0.00e+00	0	28	0	997195776	73	4974
2026-01-04 10:04:43.55	325.91	37.41	-54.1	-56.2	14.2	0.00e+00	0	28	0	999292928	73	4837
2026-01-04 10:04:44.70	326.03	37.14	-54.0	-55.9	14.3	0.00e+00	0	28	0	1001390080	73	4692
2026-01-04 10:04:45.56	326.12	36.94	-54.0	-56.0	14.3	0.00e+00	0	28	0	1002438656	73	4714
2026-01-04 10:04:46.71	326.24	36.67	-53.5	-55.3	14.5	0.00e+00	0	28	0	1004535808	73	4376
2026-01-04 10:04:47.58	326.32	36.47	-53.2	-54.9	14.7	0.00e+00	0	28	0	1006632960	73	4192
2026-01-04 10:04:48.72	326.44	36.21	-53.1	-54.8	14.7	0.00e+00	0	28	0	1008730112	72	4344
2026-01-04 10:04:49.59	326.52	36.02	-52.7	-54.4	14.8	0.00e+00	0	28	0	1009778688	72	4154
2026-01-04 10:04:50.74	326.63	35.76	-52.6	-54.2	14.8	0.00e+00	0	28	0	1011875840	71	4311
2026-01-04 10:04:51.60	326.72	35.57	-52.8	-54.4	14.7	0.00e+00	0	29	0	1013972992	71	4441
2026-01-04 10:04:52.74	326.82	35.31	-53.0	-54.7	14.6	0.00e+00	0	28	0	1016070144	71	4557
2026-01-04 10:04:53.59	326.90	35.13	-53.0	-54.7	14.6	0.00e+00	0	28	0	1018167296	71	4570
2026-01-04 10:04:54.74	327.01	34.87	-53.2	-54.9	14.5	0.00e+00	0	28	0	1020264448	71	4677
2026-01-04 10:04:55.60	327.09	34.69	-53.3	-55.1	14.5	0.00e+00	0	28	0	1021313024	71	4779
2026-01-04 10:04:56.75	327.19	34.44	-53.5	-55.3	14.5	0.00e+00	0	28	0	1023410176	72	4604
2026-01-04 10:04:57.61	327.26	34.25	-53.7	-55.6	14.3	0.00e+00	0	29	0	1025507328	72	4780
2026-01-04 10:04:58.75	327.36	34.01	-53.9	-55.8	14.2	0.00e+00	0	28	0	1027604480	72	4893
2026-01-04 10:04:59.62	327.44	33.83	-54.0	-56.0	14.3	0.00e+00	0	28	0	1028653056	73	4730
2026-01-04 10:05:00.77	327.54	33.59	-54.2	-56.3	14.1	0.00e+00	0	29	0	1030750208	73	4902
2026-01-04 10:05:01.62	327.61	33.41	-54.3	-56.4	14.1	0.00e+00	0	28	0	1032847360	73	4930
2026-01-04 10:05:02.77	327.70	33.17	-54.2	-56.3	14.1	0.00e+00	0	28	0	1034944512	73	4911
2026-01-04 10:05:03.64	327.78	32.99	-54.2	-56.2	14.2	0.00e+00	0	28	0	1035993088	73	4849
2026-01-04 10:05:04.79	327.87	32.75	-54.2	-56.2	14.1	0.00e+00	0	28	0	1039138816	73	4854
2026-01-04 10:05:05.65	327.94	32.58	-54.1	-56.1	14.2	0.00e+00	0	29	0	1040187392	73	4790
2026-01-04 10:05:06.79	328.03	32.35	-54.0	-56.0	14.2	0.00e+00	0	28	0	1042284544	73	4738
2026-01-04 10:05:07.65	328.10	32.18	-54.1	-56.1	14.2	0.00e+00	0	28	0	1044381696	73	4769
2026-01-04 10:05:08.80	328.18	31.95	-54.1	-56.2	14.2	0.00e+00	0	28	0	1046478848	73	4825
2026-01-04 10:05:09.66	328.25	31.78	-54.1	-56.1	14.1	0.00e+00	0	28	0	1047527424	73	4798
2026-01-04 10:05:10.80	328.34	31.55	-54.1	-56.1	14.1	0.00e+00	0	28	0	1049624576	73	4812
2026-01-04 10:05:11.66	328.40	31.38	-54.1	-56.1	14.2	0.00e+00	0	28	0	1051721728	73	4808
2026-01-04 10:05:12.81	328.49	31.16	-54.0	-56.0	14.2	0.00e+00	0	28	0	1053818880	73	4742
2026-01-04 10:05:13.67	328.55	30.99	-54.0	-56.0	14.2	0.00e+00	0	28	0	1054867456	73	4735
2026-01-04 10:05:14.81	328.63	30.77	-54.0	-56.0	14.2	0.00e+00	0	28	0	1056964608	73	4730
2026-01-04 10:05:15.67	328.69	30.61	-54.0	-56.0	14.2	0.00e+00	0	28	0	1059061760	73	4746
2026-01-04 10:05:16.82	328.77	30.39	-54.0	-55.9	14.2	0.00e+00	0	28	0	1061158912	73	4705
2026-01-04 10:05:17.68	328.83	30.23	-54.0	-55.9	14.2	0.00e+00	0	28	0	1063256064	73	4701
2026-01-04 10:05:18.83	328.91	30.02	-53.9	-55.9	14.3	0.00e+00	0	29	0	1065353216	73	4688
2026-01-04 10:05:19.69	328.97	29.86	-53.9	-55.9	14.3	0.00e+00	0	28	0	1066401792	73	4678
2026-01-04 10:05:20.83	329.05	29.64	-54.0	-56.0	14.2	0.00e+00	0	29	0	1068498944	73	4728
2026-01-04 10:05:21.68	329.11	29.49	-53.9	-55.9	14.3	0.00e+00	0	28	0	1070596096	73	4675
2026-01-04 10:05:22.83	329.18	29.28	-54.0	-56.0	14.2	0.00e+00	0	28	0	1072693248	73	4729
2026-01-04 10:05:23.69	329.24	29.12	-53.9	-55.9	14.3	0.00e+00	0	28	0	1073741824	73	4661
2026-01-04 10:05:24.84	329.31	28.92	-53.8	-55.8	14.3	0.00e+00	0	28	0	1075838976	73	4631
2026-01-04 10:05:25.70	329.37	28.76	-53.7	-55.7	14.3	0.00e+00	0	28	0	1077936128	73	4566
2026-01-04 10:05:26.85	329.44	28.56	-53.6	-55.5	14.5	0.00e+00	0	28	0	1080033280	73	4450
2026-01-04 10:05:27.71	329.50	28.40	-53.3	-55.1	14.6	0.00e+00	0	28	0	1081081856	73	4249
2026-01-04 10:05:28.85	329.57	28.20	-53.1	-54.9	14.6	0.00e+00	0	28	0	1084227584	72	4413
2026-01-04 10:05:29.71	329.62	28.05	-53.1	-54.9	14.6	0.00e+00	0	28	0	1085276160	72	4410
2026-01-04 10:05:30.85	329.69	27.86	-53.0	-54.7	14.7	0.00e+00	0	28	0	1087373312	72	4322
2026-01-04 10:05:31.72	329.74	27.71	-52.8	-54.5	14.8	0.00e+00	0	28	0	1089470464	72	4209
2026-01-04 10:05:32.86	329.81	27.51	-52.8	-54.5	14.8	0.00e+00	0	28	0	1091567616	72	4200
2026-01-04 10:05:33.73	329.86	27.36	-52.4	-54.0	14.8	0.00e+00	0	28	0	1092616192	71	4211
2026-01-04 10:05:34.88	329.93	27.17	-52.0	-53.6	14.9	0.00e+00	0	28	0	1094713344	70	4253
2026-01-04 10:05:35.73	329.98	27.02	-51.9	-53.4	15.0	0.00e+00	0	28	0	1096810496	70	4179
2026-01-04 10:05:36.87	330.04	26.83	-52.0	-53.5	14.9	0.00e+00	0	28	0	1098907648	70	4232
2026-01-04 10:05:37.74	330.09	26.69	-52.1	-53.7	14.8	0.00e+00	0	28	0	1099956224	70	4309
2026-01-04 10:05:38.88	330.16	26.50	-52.2	-53.8	14.8	0.00e+00	0	28	0	1102053376	70	4344
2026-01-04 10:05:39.74	330.20	26.36	-52.3	-53.9	14.8	0.00e+00	0	28	0	1104150528	70	4411
2026-01-04 10:05:40.88	330.27	26.17	-52.5	-54.2	14.7	0.00e+00	0	28	0	1106247680	70	4575
2026-01-04 10:05:41.75	330.32	26.03	-52.6	-54.3	14.6	0.00e+00	0	28	0	1108344832	70	4633
2026-01-04 10:05:42.89	330.38	25.85	-52.7	-54.4	14.6	0.00e+00	0	28	0	1110441984	70	4685
2026-01-04 10:05:43.76	330.42	25.71	-52.8	-54.5	14.5	0.00e+00	0	28	0	1111490560	70	4742
2026-01-04 10:05:44.91	330.48	25.52	-52.8	-54.5	14.5	0.00e+00	0	28	0	1113587712	70	4737
2026-01-04 10:05:45.76	330.53	25.39	-52.8	-54.5	14.6	0.00e+00	0	29	0	1115684864	70	4731
2026-01-04 10:05:46.91	330.59	25.21	-52.7	-54.4	14.6	0.00e+00	0	28	0	1117782016	70	4681
2026-01-04 10:05:47.77	330.63	25.07	-52.5	-54.2	14.7	0.00e+00	0	28	0	1118830592	70	4555
2026-01-04 10:05:48.91	330.69	24.90	-52.6	-54.3	14.6	0.00e+00	0	28	0	1120927744	70	4612
2026-01-04 10:05:49.78	330.74	24.76	-52.3	-53.9	14.7	0.00e+00	0	28	0	1123024896	70	4430
2026-01-04 10:05:50.93	330.79	24.58	-52.2	-53.8	14.8	0.00e+00	0	28	0	1125122048	70	4388
2026-01-04 10:05:51.79	330.84	24.45	-52.0	-53.5	14.9	0.00e+00	0	28	0	1127219200	70	4232
2026-01-04 10:05:52.94	330.89	24.28	-51.7	-53.2	15.0	0.00e+00	0	28	0	1129316352	70	4094
2026-01-04 10:05:53.79	330.94	24.15	-51.8	-53.3	15.0	0.00e+00	0	28	0	1130364928	70	4121
2026-01-04 10:05:54.94	330.99	23.97	-51.7	-53.2	15.0	0.00e+00	0	28	0	1132462080	70	4093
2026-01-04 10:05:55.80	331.03	23.85	-51.5	-53.0	15.0	0.00e+00	0	28	0	1134559232	69	4218
2026-01-04 10:05:56.96	331.09	23.67	-51.3	-52.8	15.1	0.00e+00	0	28	0	1136656384	69	4104
2026-01-04 10:05:57.82	331.13	23.55	-51.3	-52.7	15.1	0.00e+00	0	28	0	1137704960	69	4092
2026-01-04 10:05:58.97	331.18	23.38	-51.3	-52.8	15.0	7.00e-07	0	28	0	1139802112	69	4118
2026-01-04 10:05:59.83	331.22	23.25	-51.4	-52.9	15.0	0.00e+00	0	28	0	1141899264	69	4151
2026-01-04 10:06:00.97	331.28	23.08	-51.4	-52.9	15.0	0.00e+00	0	28	0	1143996416	69	4157
2026-01-04 10:06:01.83	331.32	22.96	-51.4	-52.9	15.0	0.00e+00	0	28	0	1145044992	69	4187
2026-01-04 10:06:02.97	331.37	22.80	-51.5	-53.0	15.0	0.00e+00	0	28	0	1148190720	69	4217
2026-01-04 10:06:03.83	331.41	22.67	-51.6	-53.1	14.9	0.00e+00	0	28	0	1149239296	69	4255
2026-01-04 10:06:04.97	331.46	22.51	-51.6	-53.1	14.9	0.00e+00	0	28	0	1151336448	69	4247
2026-01-04 10:06:05.83	331.50	22.39	-51.6	-53.1	14.9	0.00e+00	0	29	0	1153433600	69	4282
2026-01-04 10:06:06.97	331.55	22.23	-51.7	-53.3	14.9	1.67e-05	0	28	0	1155530752	69	4346
2026-01-04 10:06:07.82	331.58	22.11	-51.7	-53.2	14.9	0.00e+00	0	28	0	1156579328	69	4340
2026-01-04 10:06:08.96	331.63	21.95	-51.7	-53.3	14.8	0.00e+00	0	28	0	1158676480	69	4341
2026-01-04 10:06:09.82	331.67	21.83	-51.8	-53.3	14.8	1.44e-05	0	28	0	1160773632	69	4386
2026-01-04 10:06:10.96	331.72	21.67	-51.8	-53.3	14.8	0.00e+00	0	28	0	1162870784	69	4385
2026-01-04 10:06:11.82	331.75	21.56	-51.8	-53.3	14.8	0.00e+00	0	28	0	1163919360	69	4386
2026-01-04 10:06:12.96	331.80	21.40	-51.8	-53.3	14.8	0.00e+00	0	28	0	1166016512	69	4372
2026-01-04 10:06:13.82	331.84	21.28	-51.8	-53.3	14.9	0.00e+00	0	28	0	1168113664	69	4372
2026-01-04 10:06:14.97	331.88	21.13	-51.7	-53.3	14.9	0.00e+00	0	28	0	1170210816	69	4343
2026-01-04 10:06:15.82	331.92	21.01	-51.6	-53.2	14.9	0.00e+00	0	28	0	1172307968	69	4300
2026-01-04 10:06:16.98	331.97	20.86	-51.7	-53.3	14.9	0.00e+00	0	28	0	1174405120	69	4354
2026-01-04 10:06:17.84	332.00	20.74	-51.7	-53.2	14.9	0.00e+00	0	28	0	1175453696	69	4328
2026-01-04 10:06:18.97	332.05	20.60	-51.6	-53.2	14.9	0.00e+00	0	28	0	1177550848	69	4292
2026-01-04 10:06:19.83	332.08	20.48	-51.6	-53.1	14.9	0.00e+00	0	28	0	1179648000	69	4283
2026-01-04 10:06:20.98	332.13	20.33	-51.6	-53.1	14.9	0.00e+00	0	28	0	1181745152	69	4283
2026-01-04 10:06:21.84	332.16	20.22	-51.6	-53.1	14.9	0.00e+00	0	28	0	1182793728	69	4274
2026-01-04 10:06:22.99	332.20	20.07	-51.6	-53.2	14.9	0.00e+00	0	28	0	1184890880	69	4295
2026-01-04 10:06:23.85	332.24	19.96	-51.7	-53.2	14.9	0.00e+00	0	28	0	1186988032	69	4329
2026-01-04 10:06:25.00	332.28	19.81	-51.6	-53.1	14.9	0.00e+00	0	28	0	1189085184	69	4284
2026-01-04 10:06:25.86	332.31	19.70	-51.7	-53.3	14.9	0.00e+00	0	29	0	1190133760	69	4341
2026-01-04 10:06:26.99	332.36	19.56	-51.8	-53.4	14.8	0.00e+00	0	28	0	1193279488	69	4412
2026-01-04 10:06:27.86	332.39	19.45	-51.9	-53.5	14.8	0.00e+00	0	28	0	1194328064	69	4461
2026-01-04 10:06:29.00	332.43	19.31	-51.8	-53.4	14.8	0.00e+00	0	28	0	1196425216	69	4421
2026-01-04 10:06:29.86	332.46	19.20	-51.9	-53.5	14.8	0.00e+00	0	28	0	1198522368	69	4443
2026-01-04 10:06:31.01	332.50	19.06	-51.9	-53.5	14.8	0.00e+00	0	28	0	1200619520	69	4450
2026-01-04 10:06:31.88	332.54	18.95	-52.0	-53.6	14.7	0.00e+00	0	28	0	1201668096	69	4538
2026-01-04 10:06:33.02	332.58	18.81	-51.9	-53.5	14.8	0.00e+00	0	28	0	1203765248	69	4474
2026-01-04 10:06:33.89	332.61	18.70	-52.1	-53.7	14.7	0.00e+00	0	28	0	1205862400	69	4587
2026-01-04 10:06:35.04	332.65	18.56	-52.1	-53.7	14.7	0.00e+00	0	28	0	1207959552	69	4577
2026-01-04 10:06:35.90	332.68	18.46	-52.2	-53.8	14.7	0.00e+00	0	29	0	1209008128	69	4637
2026-01-04 10:06:37.06	332.72	18.32	-52.2	-53.9	14.6	0.00e+00	0	29	0	1211105280	69	4661
2026-01-04 10:06:37.92	332.75	18.21	-52.3	-53.9	14.6	0.00e+00	0	28	0	1213202432	69	4698
2026-01-04 10:06:39.07	332.79	18.08	-52.3	-54.0	14.6	0.00e+00	0	29	0	1215299584	69	4712
2026-01-04 10:06:39.93	332.82	17.97	-52.4	-54.1	14.6	0.00e+00	0	28	0	1217396736	69	4772
2026-01-04 10:06:41.08	332.86	17.84	-52.4	-54.1	14.6	0.00e+00	0	28	0	1219493888	70	4521
2026-01-04 10:06:41.94	332.89	17.74	-52.4	-54.1	14.6	0.00e+00	0	28	0	1220542464	70	4542
2026-01-04 10:06:43.09	332.93	17.60	-52.5	-54.2	14.6	0.00e+00	0	28	0	1222639616	70	4581
2026-01-04 10:06:43.94	332.95	17.50	-52.6	-54.3	14.6	0.00e+00	0	28	0	1224736768	70	4631
2026-01-04 10:06:45.08	332.99	17.37	-52.6	-54.3	14.5	0.00e+00	0	28	0	1226833920	70	4650
2026-01-04 10:06:45.94	333.02	17.27	-52.6	-54.3	14.5	0.00e+00	0	28	0	1227882496	70	4644
2026-01-04 10:06:47.08	333.06	17.14	-52.6	-54.4	14.5	0.00e+00	0	28	0	1229979648	70	4668
2026-01-04 10:06:47.94	333.09	17.04	-52.7	-54.5	14.5	0.00e+00	0	28	0	1232076800	70	4718
