passes_logs/2026/01/04/R3.2S_Murmansk/R3.2S_Murmansk__20260104_215829_NOAA_20_JPSS-1_rec.log

#Pass ID: 20260104_215829_NOAA 20 (JPSS-1)
#Satellite: NOAA 20 (JPSS-1)
#Configuration: NOAA 20
#almurnet v.1.7.20251203
#Start time: 2026-01-04 21:58:29

#Version: 2.2.20231116
#Station: R3.2S_Murmansk
#Location: 33.079688 lon 68.888172 lat
#TLE: 1 43013U 17073A   26004.47528369  .00000132  00000+0  83671-4 0  9999
#TLE: 2 43013  98.7626 305.5264 0001854  54.5883 305.5466 14.19533142421242

#Time	Az	El	Level	Level2	SNR	BER	BlckErr	Temp	State	Recorded	gain1	gain2
2026-01-04 21:58:29.98	18.54	2.03	-58.4	-74.4	3.8	1.49e+00	0	26	0	0	83	22160
2026-01-04 21:58:30.99	18.62	2.08	-58.4	-74.4	3.8	1.49e+00	0	26	104	0	81	24775
2026-01-04 21:58:32.00	18.70	2.13	-58.4	-74.4	3.8	1.49e+00	0	26	104	0	81	24806
2026-01-04 21:58:33.01	18.78	2.19	-58.4	-74.4	3.8	1.49e+00	0	26	104	0	81	24734
2026-01-04 21:58:34.01	18.86	2.24	-58.4	-74.4	3.8	1.49e+00	0	26	104	0	81	24754
2026-01-04 21:58:35.02	18.94	2.29	-58.4	-74.3	3.8	1.49e+00	0	26	104	0	81	24674
2026-01-04 21:58:36.03	19.02	2.34	-58.4	-74.3	3.8	1.49e+00	0	26	104	0	81	24558
2026-01-04 21:58:37.05	19.11	2.40	-58.4	-74.3	3.8	1.49e+00	0	26	104	0	81	24533
2026-01-04 21:58:38.05	19.19	2.45	-58.4	-74.3	3.8	1.49e+00	0	26	104	0	81	24490
2026-01-04 21:58:39.06	19.27	2.50	-58.4	-74.3	3.8	1.49e+00	0	26	104	0	81	24595
2026-01-04 21:58:40.07	19.36	2.55	-58.4	-74.3	3.8	1.49e+00	0	26	104	0	81	24570
2026-01-04 21:58:41.08	19.44	2.61	-58.4	-74.4	3.8	1.49e+00	0	26	104	0	81	24702
2026-01-04 21:58:42.09	19.52	2.66	-58.4	-74.4	3.8	1.49e+00	0	26	104	0	81	24844
2026-01-04 21:58:43.09	19.61	2.71	-58.4	-74.4	3.8	1.49e+00	0	26	104	0	81	24846
2026-01-04 21:58:44.10	19.69	2.77	-58.4	-74.4	3.8	1.49e+00	0	26	104	0	81	24846
2026-01-04 21:58:45.10	19.78	2.82	-58.4	-74.3	3.9	1.49e+00	0	26	104	0	81	24654
2026-01-04 21:58:46.11	19.86	2.87	-58.4	-74.3	3.8	1.49e+00	0	26	104	0	81	24569
2026-01-04 21:58:47.12	19.95	2.92	-58.4	-74.3	3.8	1.49e+00	0	26	104	0	81	24581
2026-01-04 21:58:48.13	20.03	2.98	-58.4	-74.3	3.8	1.49e+00	0	26	104	0	81	24550
2026-01-04 21:58:49.14	20.12	3.03	-58.4	-74.3	3.8	1.49e+00	0	26	104	0	81	24666
2026-01-04 21:58:50.15	20.20	3.08	-58.4	-74.4	3.8	1.49e+00	0	26	104	0	81	24764
2026-01-04 21:58:51.15	20.29	3.14	-58.4	-74.4	3.8	1.49e+00	0	26	104	0	81	24703
2026-01-04 21:58:52.16	20.38	3.19	-58.4	-74.3	3.8	1.49e+00	0	27	104	0	81	24519
2026-01-04 21:58:53.17	20.46	3.24	-58.4	-74.1	3.8	1.49e+00	0	27	104	0	81	23901
2026-01-04 21:58:54.17	20.55	3.30	-58.4	-73.8	3.8	1.49e+00	0	26	104	0	81	23214
2026-01-04 21:58:55.18	20.64	3.35	-58.4	-73.5	3.8	1.49e+00	0	27	104	0	81	22498
2026-01-04 21:58:56.19	20.72	3.40	-58.4	-73.3	3.8	1.49e+00	0	27	104	0	81	21895
2026-01-04 21:58:57.20	20.81	3.46	-58.4	-73.2	3.8	1.49e+00	0	27	104	0	81	21692
2026-01-04 21:58:58.21	20.90	3.51	-58.4	-73.2	3.8	1.49e+00	0	27	104	0	81	21577
2026-01-04 21:58:59.22	20.99	3.56	-58.3	-73.1	3.8	1.49e+00	0	27	104	0	81	21314
2026-01-04 21:59:00.22	21.08	3.62	-58.3	-72.7	3.8	1.49e+00	0	27	104	0	81	20413
2026-01-04 21:59:01.23	21.17	3.67	-58.3	-72.0	3.8	1.48e+00	0	27	104	0	81	18813
2026-01-04 21:59:02.24	21.26	3.73	-58.3	-71.2	4.1	1.48e+00	0	27	104	0	81	17174
2026-01-04 21:59:03.25	21.35	3.78	-58.2	-70.5	4.3	1.39e+00	0	27	0	0	81	15762
2026-01-04 21:59:04.27	21.44	3.83	-58.2	-69.7	4.6	1.01e+00	0	27	0	1048576	81	14386
2026-01-04 21:59:05.28	21.53	3.89	-58.1	-69.2	4.8	8.57e-01	0	27	0	3145728	81	13672
2026-01-04 21:59:06.28	21.62	3.94	-58.1	-68.9	4.9	7.87e-01	0	27	0	5242880	81	13156
2026-01-04 21:59:07.29	21.71	4.00	-58.1	-68.8	4.9	7.31e-01	0	27	0	6291456	81	13019
2026-01-04 21:59:08.29	21.80	4.05	-58.0	-68.2	5.2	6.44e-01	0	27	0	8388608	81	12225
2026-01-04 21:59:09.30	21.89	4.10	-57.9	-67.3	5.8	4.46e-01	0	27	0	10485760	81	10918
2026-01-04 21:59:10.31	21.99	4.16	-57.6	-65.5	7.1	2.15e-01	0	27	0	12582912	81	8918
2026-01-04 21:59:11.32	22.08	4.21	-57.3	-64.1	8.4	4.23e-02	0	27	0	14680064	81	7563
2026-01-04 21:59:12.33	22.17	4.27	-56.8	-62.1	10.0	6.26e-03	0	27	0	15728640	80	6359
2026-01-04 21:59:13.34	22.26	4.32	-56.3	-60.8	11.0	7.59e-04	0	27	0	17825792	79	5831
2026-01-04 21:59:14.35	22.36	4.38	-55.9	-59.9	11.6	2.89e-05	0	27	0	19922944	78	5530
2026-01-04 21:59:15.36	22.45	4.43	-55.4	-58.9	12.2	0.00e+00	0	27	0	22020096	77	5274
2026-01-04 21:59:16.37	22.55	4.48	-55.1	-58.5	12.4	1.50e-06	0	27	0	24117248	76	5297
2026-01-04 21:59:17.37	22.64	4.54	-55.0	-58.3	12.6	0.00e+00	0	27	0	25165824	76	5195
2026-01-04 21:59:18.39	22.74	4.59	-55.1	-58.5	12.4	0.00e+00	0	27	0	27262976	76	5306
2026-01-04 21:59:19.40	22.83	4.65	-55.5	-59.2	12.0	7.00e-07	0	27	0	29360128	76	5733
2026-01-04 21:59:20.40	22.93	4.70	-56.0	-60.1	11.3	8.30e-06	0	27	0	31457280	77	6051
2026-01-04 21:59:21.41	23.02	4.76	-56.5	-61.4	10.5	1.62e-04	0	27	0	33554432	78	6635
2026-01-04 21:59:22.42	23.12	4.81	-57.0	-62.8	9.4	1.49e-03	0	27	0	34603008	79	7365
2026-01-04 21:59:23.43	23.21	4.87	-57.4	-64.4	8.0	2.28e-02	0	27	0	36700160	79	8790
2026-01-04 21:59:24.44	23.31	4.92	-57.7	-66.0	6.7	9.03e-02	0	27	0	38797312	80	9982
2026-01-04 21:59:25.45	23.41	4.98	-57.9	-67.3	5.8	2.41e-01	0	27	0	40894464	80	11584
2026-01-04 21:59:26.45	23.51	5.03	-57.6	-64.9	7.4	4.21e-01	0	27	0	42991616	81	8347
2026-01-04 21:59:27.46	23.60	5.09	-57.2	-63.7	8.8	3.36e-04	0	27	0	44040192	79	8130
2026-01-04 21:59:28.47	23.70	5.14	-57.9	-67.4	5.8	6.82e-01	0	27	0	46137344	81	11038
2026-01-04 21:59:29.47	23.80	5.20	-58.2	-68.5	5.0	1.40e+00	0	27	104	47185920	82	11917
2026-01-04 21:59:30.48	23.90	5.25	-58.0	-67.5	5.8	2.90e-02	0	27	0	48234496	81	11205
2026-01-04 21:59:31.49	24.00	5.31	-58.0	-67.6	5.5	1.48e+00	0	27	104	49283072	81	11336
2026-01-04 21:59:32.50	24.10	5.36	-56.8	-62.1	10.1	5.43e-03	0	27	0	50331648	80	6381
2026-01-04 21:59:33.51	24.20	5.42	-56.5	-61.3	10.6	5.37e-04	0	27	0	52428800	79	6189
2026-01-04 21:59:34.52	24.30	5.47	-56.5	-61.2	10.7	2.25e-04	0	27	0	54525952	79	6072
2026-01-04 21:59:35.53	24.40	5.53	-56.0	-60.1	11.5	7.85e-05	0	27	0	56623104	78	5711
2026-01-04 21:59:36.53	24.50	5.59	-55.7	-59.5	11.9	6.10e-06	0	27	0	57671680	78	5311
2026-01-04 21:59:37.54	24.60	5.64	-55.4	-58.8	12.4	7.00e-07	0	28	0	59768832	77	5198
2026-01-04 21:59:38.55	24.70	5.70	-55.2	-58.5	12.6	0.00e+00	0	27	0	61865984	76	5292
2026-01-04 21:59:39.56	24.81	5.75	-55.0	-58.1	12.7	0.00e+00	0	27	0	63963136	76	5100
2026-01-04 21:59:40.57	24.91	5.81	-55.1	-58.3	12.6	0.00e+00	0	27	0	65011712	76	5179
2026-01-04 21:59:41.57	25.01	5.86	-55.0	-58.1	12.8	0.00e+00	0	27	0	67108864	76	5088
2026-01-04 21:59:42.59	25.12	5.92	-55.0	-58.1	12.8	0.00e+00	0	27	0	69206016	76	5068
2026-01-04 21:59:43.59	25.22	5.97	-54.9	-57.9	13.0	0.00e+00	0	27	0	71303168	76	4943
2026-01-04 21:59:44.60	25.32	6.03	-55.0	-58.1	12.8	0.00e+00	0	27	0	73400320	76	5053
2026-01-04 21:59:45.61	25.43	6.09	-54.9	-57.9	13.0	0.00e+00	0	27	0	75497472	76	4955
2026-01-04 21:59:46.62	25.53	6.14	-54.8	-57.7	13.1	0.00e+00	0	27	0	76546048	76	4866
2026-01-04 21:59:47.62	25.64	6.20	-54.8	-57.8	13.0	0.00e+00	0	27	0	78643200	76	4925
2026-01-04 21:59:48.63	25.74	6.25	-54.8	-57.7	13.1	0.00e+00	0	28	0	80740352	76	4838
2026-01-04 21:59:49.64	25.85	6.31	-54.8	-57.7	13.1	0.00e+00	0	27	0	82837504	76	4848
2026-01-04 21:59:50.65	25.95	6.37	-54.7	-57.6	13.1	0.00e+00	0	27	0	84934656	76	4799
2026-01-04 21:59:51.66	26.06	6.42	-54.6	-57.5	13.1	0.00e+00	0	28	0	85983232	75	5031
2026-01-04 21:59:52.67	26.17	6.48	-54.6	-57.4	13.1	0.00e+00	0	28	0	88080384	75	4968
2026-01-04 21:59:53.68	26.28	6.54	-54.5	-57.3	13.2	0.00e+00	0	28	0	90177536	75	4924
2026-01-04 21:59:54.69	26.38	6.59	-54.5	-57.3	13.2	0.00e+00	0	27	0	92274688	75	4923
2026-01-04 21:59:55.70	26.49	6.65	-54.4	-57.2	13.3	0.00e+00	0	27	0	94371840	75	4822
2026-01-04 21:59:56.70	26.60	6.70	-54.4	-57.1	13.3	0.00e+00	0	27	0	95420416	75	4814
2026-01-04 21:59:57.71	26.71	6.76	-54.2	-56.8	13.5	0.00e+00	0	28	0	97517568	75	4640
2026-01-04 21:59:58.72	26.82	6.82	-54.2	-56.9	13.5	0.00e+00	0	28	0	99614720	75	4656
2026-01-04 21:59:59.73	26.93	6.87	-54.3	-57.0	13.5	0.00e+00	0	28	0	101711872	75	4727
2026-01-04 22:00:00.74	27.04	6.93	-54.2	-56.8	13.4	0.00e+00	0	28	0	103809024	74	4921
2026-01-04 22:00:01.75	27.15	6.99	-54.3	-56.9	13.4	0.00e+00	0	28	0	104857600	74	4950
2026-01-04 22:00:02.76	27.26	7.04	-54.3	-56.9	13.4	0.00e+00	0	28	0	106954752	74	4942
2026-01-04 22:00:03.77	27.37	7.10	-54.1	-56.7	13.5	0.00e+00	0	28	0	109051904	74	4850
2026-01-04 22:00:04.78	27.49	7.16	-54.2	-56.7	13.5	0.00e+00	0	28	0	111149056	74	4852
2026-01-04 22:00:05.78	27.60	7.21	-54.0	-56.5	13.6	0.00e+00	0	27	0	113246208	74	4716
2026-01-04 22:00:06.78	27.71	7.27	-53.9	-56.3	13.7	0.00e+00	0	28	0	114294784	74	4641
2026-01-04 22:00:07.79	27.82	7.33	-54.0	-56.5	13.7	0.00e+00	0	28	0	116391936	74	4713
2026-01-04 22:00:08.80	27.94	7.38	-54.0	-56.4	13.7	0.00e+00	0	28	0	118489088	74	4672
2026-01-04 22:00:09.80	28.05	7.44	-53.9	-56.4	13.7	0.00e+00	0	28	0	120586240	74	4669
2026-01-04 22:00:10.82	28.17	7.50	-53.9	-56.4	13.7	0.00e+00	0	28	0	122683392	74	4652
2026-01-04 22:00:11.83	28.28	7.55	-53.9	-56.4	13.7	0.00e+00	0	28	0	123731968	74	4667
2026-01-04 22:00:12.84	28.40	7.61	-53.8	-56.2	13.8	0.00e+00	0	27	0	125829120	74	4589
2026-01-04 22:00:13.84	28.51	7.67	-53.8	-56.2	13.8	0.00e+00	0	28	0	127926272	74	4553
2026-01-04 22:00:14.85	28.63	7.72	-53.8	-56.2	13.8	0.00e+00	0	28	0	130023424	74	4567
2026-01-04 22:00:15.86	28.74	7.78	-53.8	-56.1	13.9	0.00e+00	0	28	0	132120576	74	4526
2026-01-04 22:00:16.87	28.86	7.84	-53.7	-56.1	13.9	0.00e+00	0	28	0	133169152	74	4524
2026-01-04 22:00:17.88	28.98	7.90	-53.7	-56.0	13.8	0.00e+00	0	28	0	135266304	73	4752
2026-01-04 22:00:18.89	29.10	7.95	-53.7	-56.0	13.8	0.00e+00	0	28	0	137363456	73	4738
2026-01-04 22:00:19.89	29.21	8.01	-53.7	-56.0	13.8	0.00e+00	0	28	0	139460608	73	4750
2026-01-04 22:00:20.90	29.33	8.07	-53.6	-55.9	13.9	0.00e+00	0	28	0	141557760	73	4677
2026-01-04 22:00:21.91	29.45	8.12	-53.7	-56.1	13.8	0.00e+00	0	28	0	142606336	73	4776
2026-01-04 22:00:22.92	29.57	8.18	-53.6	-55.8	13.9	0.00e+00	0	28	0	144703488	73	4647
2026-01-04 22:00:23.92	29.69	8.24	-53.7	-56.0	13.8	0.00e+00	0	28	0	146800640	73	4726
2026-01-04 22:00:24.94	29.81	8.30	-53.6	-55.8	13.9	0.00e+00	0	28	0	148897792	73	4648
2026-01-04 22:00:25.94	29.93	8.35	-53.7	-56.0	13.8	0.00e+00	0	28	0	150994944	73	4753
2026-01-04 22:00:26.95	30.06	8.41	-53.7	-56.0	13.8	0.00e+00	0	28	0	152043520	73	4741
2026-01-04 22:00:27.96	30.18	8.47	-53.7	-56.0	13.8	0.00e+00	0	28	0	154140672	73	4744
2026-01-04 22:00:28.96	30.30	8.52	-53.8	-56.2	13.8	0.00e+00	0	28	0	156237824	73	4815
2026-01-04 22:00:29.97	30.42	8.58	-53.8	-56.2	13.7	0.00e+00	0	28	0	158334976	73	4846
2026-01-04 22:00:30.98	30.55	8.64	-53.9	-56.3	13.7	0.00e+00	0	28	0	160432128	73	4908
2026-01-04 22:00:31.99	30.67	8.70	-53.9	-56.2	13.7	0.00e+00	0	28	0	161480704	73	4858
2026-01-04 22:00:33.00	30.80	8.75	-54.0	-56.4	13.6	0.00e+00	0	28	0	163577856	73	4951
2026-01-04 22:00:34.01	30.92	8.81	-53.9	-56.3	13.7	0.00e+00	0	28	0	165675008	73	4900
2026-01-04 22:00:35.02	31.05	8.87	-53.9	-56.3	13.7	0.00e+00	0	28	0	167772160	73	4921
2026-01-04 22:00:36.03	31.17	8.93	-53.9	-56.3	13.7	0.00e+00	0	28	0	169869312	73	4893
2026-01-04 22:00:37.04	31.30	8.99	-53.9	-56.3	13.7	0.00e+00	0	28	0	171966464	73	4871
2026-01-04 22:00:38.04	31.42	9.04	-53.8	-56.1	13.8	0.00e+00	0	28	0	173015040	73	4798
2026-01-04 22:00:39.05	31.55	9.10	-53.8	-56.2	13.8	0.00e+00	0	28	0	175112192	73	4831
2026-01-04 22:00:40.05	31.68	9.16	-53.8	-56.1	13.8	0.00e+00	0	28	0	177209344	73	4811
2026-01-04 22:00:41.06	31.81	9.21	-53.6	-55.9	13.9	0.00e+00	0	28	0	179306496	73	4675
2026-01-04 22:00:42.07	31.94	9.27	-53.7	-56.0	13.9	0.00e+00	0	28	0	180355072	73	4730
2026-01-04 22:00:43.08	32.06	9.33	-53.6	-55.9	13.9	0.00e+00	0	28	0	182452224	73	4688
2026-01-04 22:00:44.08	32.19	9.39	-53.6	-55.9	13.9	0.00e+00	0	28	0	184549376	73	4682
2026-01-04 22:00:45.09	32.32	9.44	-53.6	-55.9	13.9	0.00e+00	0	28	0	186646528	73	4678
2026-01-04 22:00:46.09	32.45	9.50	-53.6	-55.9	13.9	0.00e+00	0	28	0	188743680	73	4685
2026-01-04 22:00:47.10	32.58	9.56	-53.6	-55.9	13.9	0.00e+00	0	28	0	189792256	73	4679
2026-01-04 22:00:48.10	32.71	9.62	-53.7	-56.0	13.9	0.00e+00	0	28	0	191889408	73	4725
2026-01-04 22:00:49.11	32.85	9.67	-53.7	-56.0	13.9	0.00e+00	0	28	0	193986560	73	4739
2026-01-04 22:00:50.12	32.98	9.73	-53.7	-55.9	13.9	0.00e+00	0	28	0	196083712	73	4704
2026-01-04 22:00:51.13	33.11	9.79	-53.6	-55.9	13.9	0.00e+00	0	28	0	198180864	73	4690
2026-01-04 22:00:52.13	33.25	9.85	-53.6	-55.9	13.9	0.00e+00	0	28	0	200278016	73	4656
2026-01-04 22:00:53.14	33.38	9.90	-53.7	-55.9	13.9	0.00e+00	0	28	0	201326592	73	4705
2026-01-04 22:00:54.15	33.52	9.96	-53.6	-55.9	13.9	0.00e+00	0	28	0	203423744	73	4668
2026-01-04 22:00:55.15	33.65	10.02	-53.5	-55.8	14.0	0.00e+00	0	28	0	205520896	73	4602
2026-01-04 22:00:56.16	33.78	10.08	-53.6	-55.8	14.0	0.00e+00	0	28	0	207618048	73	4612
2026-01-04 22:00:57.17	33.92	10.13	-53.5	-55.6	14.1	0.00e+00	0	28	0	208666624	73	4532
2026-01-04 22:00:58.18	34.06	10.19	-53.4	-55.6	14.0	0.00e+00	0	28	0	210763776	73	4521
2026-01-04 22:00:59.19	34.20	10.25	-53.5	-55.7	14.0	0.00e+00	0	28	0	212860928	73	4552
2026-01-04 22:01:00.20	34.33	10.31	-53.4	-55.6	14.1	0.00e+00	0	28	0	214958080	73	4495
2026-01-04 22:01:01.20	34.47	10.37	-53.4	-55.6	14.1	0.00e+00	0	28	0	217055232	73	4496
2026-01-04 22:01:02.21	34.61	10.42	-53.4	-55.5	14.2	0.00e+00	0	28	0	218103808	73	4481
2026-01-04 22:01:03.22	34.75	10.48	-53.5	-55.6	14.1	0.00e+00	0	28	0	220200960	73	4524
2026-01-04 22:01:04.23	34.89	10.54	-53.5	-55.6	14.1	0.00e+00	0	28	0	222298112	73	4536
2026-01-04 22:01:05.24	35.03	10.60	-53.5	-55.7	14.1	0.00e+00	0	28	0	224395264	73	4564
2026-01-04 22:01:06.25	35.17	10.65	-53.5	-55.7	14.1	0.00e+00	0	28	0	226492416	73	4584
2026-01-04 22:01:07.25	35.31	10.71	-53.5	-55.6	14.1	0.00e+00	0	28	0	228589568	73	4544
2026-01-04 22:01:08.26	35.45	10.77	-53.5	-55.7	14.0	0.00e+00	0	28	0	229638144	73	4583
2026-01-04 22:01:09.27	35.60	10.83	-53.6	-55.8	14.0	0.00e+00	0	28	0	231735296	73	4606
2026-01-04 22:01:10.28	35.74	10.88	-53.6	-55.8	14.0	0.00e+00	0	28	0	233832448	73	4617
2026-01-04 22:01:11.29	35.88	10.94	-53.5	-55.6	14.1	0.00e+00	0	28	0	235929600	73	4542
2026-01-04 22:01:12.30	36.03	11.00	-53.3	-55.4	14.2	0.00e+00	0	28	0	238026752	73	4439
2026-01-04 22:01:13.31	36.17	11.06	-53.2	-55.3	14.2	0.00e+00	0	28	0	239075328	73	4367
2026-01-04 22:01:14.32	36.32	11.11	-53.3	-55.3	14.2	0.00e+00	0	28	0	241172480	73	4386
2026-01-04 22:01:15.33	36.46	11.17	-53.2	-55.3	14.2	0.00e+00	0	28	0	243269632	73	4366
2026-01-04 22:01:16.34	36.61	11.23	-53.2	-55.2	14.2	0.00e+00	0	28	0	245366784	72	4578
2026-01-04 22:01:17.35	36.76	11.29	-53.1	-55.2	14.2	0.00e+00	0	28	0	247463936	72	4563
2026-01-04 22:01:18.36	36.91	11.34	-53.2	-55.2	14.2	0.00e+00	0	28	0	248512512	72	4568
2026-01-04 22:01:19.37	37.05	11.40	-53.3	-55.4	14.1	0.00e+00	0	28	0	250609664	72	4661
2026-01-04 22:01:20.37	37.20	11.46	-53.1	-55.2	14.2	0.00e+00	0	28	0	252706816	72	4557
2026-01-04 22:01:21.38	37.35	11.51	-53.1	-55.2	14.2	0.00e+00	0	28	0	254803968	72	4565
2026-01-04 22:01:22.39	37.50	11.57	-53.0	-55.0	14.3	0.00e+00	0	28	0	256901120	72	4493
2026-01-04 22:01:23.39	37.65	11.63	-53.0	-55.0	14.3	0.00e+00	0	28	0	257949696	72	4483
2026-01-04 22:01:24.40	37.80	11.69	-52.9	-54.9	14.3	0.00e+00	0	28	0	260046848	72	4430
2026-01-04 22:01:25.41	37.95	11.74	-52.9	-54.8	14.4	0.00e+00	0	28	0	262144000	72	4374
2026-01-04 22:01:26.42	38.10	11.80	-52.8	-54.8	14.4	0.00e+00	0	28	0	264241152	72	4352
2026-01-04 22:01:27.42	38.25	11.86	-52.8	-54.7	14.4	0.00e+00	0	28	0	266338304	72	4308
2026-01-04 22:01:28.43	38.41	11.91	-52.8	-54.7	14.4	0.00e+00	0	28	0	267386880	72	4327
2026-01-04 22:01:29.44	38.56	11.97	-52.8	-54.7	14.4	0.00e+00	0	28	0	269484032	72	4315
2026-01-04 22:01:30.44	38.72	12.03	-52.8	-54.7	14.4	0.00e+00	0	28	0	271581184	72	4334
2026-01-04 22:01:31.45	38.87	12.08	-52.8	-54.7	14.4	0.00e+00	0	28	0	273678336	72	4329
2026-01-04 22:01:32.46	39.03	12.14	-52.7	-54.6	14.4	0.00e+00	0	28	0	275775488	71	4513
2026-01-04 22:01:33.47	39.18	12.20	-52.6	-54.5	14.4	0.00e+00	0	28	0	276824064	71	4447
2026-01-04 22:01:34.47	39.34	12.25	-52.7	-54.6	14.4	0.00e+00	0	28	0	278921216	71	4513
2026-01-04 22:01:35.47	39.49	12.31	-52.6	-54.4	14.4	0.00e+00	0	28	0	281018368	71	4435
2026-01-04 22:01:36.49	39.65	12.37	-52.5	-54.4	14.5	0.00e+00	0	28	0	283115520	71	4411
2026-01-04 22:01:37.50	39.81	12.42	-52.6	-54.5	14.4	0.00e+00	0	28	0	285212672	71	4448
2026-01-04 22:01:38.50	39.97	12.48	-52.5	-54.3	14.5	0.00e+00	0	28	0	286261248	71	4388
2026-01-04 22:01:39.51	40.13	12.53	-52.5	-54.4	14.5	0.00e+00	0	28	0	288358400	71	4414
2026-01-04 22:01:40.52	40.29	12.59	-52.7	-54.5	14.4	0.00e+00	0	28	0	290455552	71	4491
2026-01-04 22:01:41.53	40.45	12.65	-52.6	-54.5	14.4	0.00e+00	0	28	0	292552704	71	4459
2026-01-04 22:01:42.54	40.61	12.70	-52.7	-54.6	14.4	0.00e+00	0	28	0	294649856	71	4521
2026-01-04 22:01:43.55	40.77	12.76	-52.6	-54.5	14.4	0.00e+00	0	28	0	295698432	71	4468
2026-01-04 22:01:44.56	40.94	12.81	-52.5	-54.4	14.5	0.00e+00	0	28	0	297795584	71	4410
2026-01-04 22:01:45.57	41.10	12.87	-52.6	-54.5	14.4	0.00e+00	0	28	0	299892736	71	4478
2026-01-04 22:01:46.57	41.26	12.93	-52.6	-54.4	14.5	0.00e+00	0	28	0	301989888	71	4417
2026-01-04 22:01:47.58	41.43	12.98	-52.4	-54.2	14.6	0.00e+00	0	28	0	304087040	71	4310
2026-01-04 22:01:48.59	41.59	13.04	-52.3	-54.1	14.6	0.00e+00	0	28	0	305135616	71	4277
2026-01-04 22:01:49.60	41.76	13.09	-52.4	-54.2	14.6	0.00e+00	0	28	0	307232768	71	4316
2026-01-04 22:01:50.61	41.92	13.15	-52.3	-54.1	14.6	0.00e+00	0	28	0	309329920	71	4257
2026-01-04 22:01:51.62	42.09	13.20	-52.4	-54.2	14.5	0.00e+00	0	28	0	311427072	71	4313
2026-01-04 22:01:52.63	42.26	13.26	-52.4	-54.2	14.5	0.00e+00	0	28	0	313524224	71	4320
2026-01-04 22:01:53.64	42.42	13.31	-52.5	-54.3	14.5	0.00e+00	0	28	0	314572800	71	4366
2026-01-04 22:01:54.65	42.59	13.37	-52.6	-54.4	14.5	0.00e+00	0	28	0	316669952	71	4440
2026-01-04 22:01:55.66	42.76	13.42	-52.5	-54.3	14.5	0.00e+00	0	28	0	318767104	71	4386
2026-01-04 22:01:56.66	42.93	13.48	-52.6	-54.4	14.4	0.00e+00	0	28	0	320864256	71	4434
2026-01-04 22:01:57.67	43.10	13.53	-52.5	-54.3	14.5	0.00e+00	0	28	0	322961408	71	4378
2026-01-04 22:01:58.68	43.27	13.59	-52.4	-54.3	14.5	0.00e+00	0	28	0	325058560	71	4347
2026-01-04 22:01:59.69	43.44	13.64	-52.4	-54.2	14.6	0.00e+00	0	28	0	326107136	71	4336
2026-01-04 22:02:00.70	43.62	13.70	-52.3	-54.1	14.6	0.00e+00	0	28	0	328204288	71	4273
2026-01-04 22:02:01.71	43.79	13.75	-52.3	-54.1	14.6	0.00e+00	0	28	0	330301440	71	4280
2026-01-04 22:02:02.71	43.96	13.80	-52.4	-54.2	14.6	0.00e+00	0	28	0	332398592	71	4296
2026-01-04 22:02:03.73	44.14	13.86	-52.4	-54.2	14.6	0.00e+00	0	28	0	334495744	71	4321
2026-01-04 22:02:04.73	44.31	13.91	-52.4	-54.2	14.6	0.00e+00	0	28	0	335544320	71	4310
2026-01-04 22:02:05.74	44.49	13.97	-52.5	-54.4	14.5	0.00e+00	0	28	0	337641472	71	4393
2026-01-04 22:02:06.75	44.66	14.02	-52.6	-54.4	14.5	0.00e+00	0	28	0	339738624	71	4407
2026-01-04 22:02:07.76	44.84	14.07	-52.6	-54.4	14.5	0.00e+00	0	28	0	341835776	71	4440
2026-01-04 22:02:08.77	45.02	14.13	-52.5	-54.3	14.5	0.00e+00	0	28	0	342884352	71	4375
2026-01-04 22:02:09.78	45.19	14.18	-52.6	-54.5	14.4	0.00e+00	0	28	0	344981504	71	4467
2026-01-04 22:02:10.79	45.37	14.23	-52.6	-54.4	14.5	0.00e+00	0	28	0	347078656	71	4413
2026-01-04 22:02:11.80	45.55	14.29	-52.7	-54.6	14.4	0.00e+00	0	28	0	349175808	71	4506
2026-01-04 22:02:12.81	45.73	14.34	-52.6	-54.4	14.5	0.00e+00	0	28	0	351272960	71	4430
2026-01-04 22:02:13.82	45.91	14.39	-52.6	-54.5	14.4	0.00e+00	0	28	0	353370112	71	4450
2026-01-04 22:02:14.83	46.09	14.45	-52.7	-54.5	14.5	0.00e+00	0	28	0	354418688	71	4470
2026-01-04 22:02:15.84	46.28	14.50	-52.7	-54.6	14.4	0.00e+00	0	28	0	356515840	71	4533
2026-01-04 22:02:16.85	46.46	14.55	-52.8	-54.7	14.4	0.00e+00	0	28	0	358612992	71	4565
2026-01-04 22:02:17.86	46.64	14.60	-52.9	-54.9	14.3	0.00e+00	0	28	0	360710144	71	4678
2026-01-04 22:02:18.87	46.82	14.65	-53.1	-55.0	14.2	0.00e+00	0	28	0	362807296	71	4754
2026-01-04 22:02:19.88	47.01	14.71	-53.1	-55.2	14.2	0.00e+00	0	28	0	363855872	71	4818
2026-01-04 22:02:20.88	47.19	14.76	-53.3	-55.3	14.1	0.00e+00	0	28	0	365953024	71	4892
2026-01-04 22:02:21.90	47.38	14.81	-53.2	-55.3	14.1	0.00e+00	0	28	0	368050176	71	4871
2026-01-04 22:02:22.91	47.56	14.86	-53.2	-55.2	14.1	0.00e+00	0	28	0	370147328	71	4850
2026-01-04 22:02:23.91	47.75	14.91	-53.2	-55.2	14.1	0.00e+00	0	28	0	372244480	71	4870
2026-01-04 22:02:24.92	47.94	14.96	-53.2	-55.2	14.2	0.00e+00	0	28	0	373293056	71	4851
2026-01-04 22:02:25.93	48.12	15.01	-53.2	-55.3	14.1	0.00e+00	0	28	0	375390208	71	4876
2026-01-04 22:02:26.94	48.31	15.06	-53.3	-55.3	14.1	0.00e+00	0	28	0	377487360	71	4910
2026-01-04 22:02:27.94	48.50	15.11	-53.4	-55.4	14.1	0.00e+00	0	28	0	379584512	71	4971
2026-01-04 22:02:28.95	48.69	15.16	-53.5	-55.6	14.1	0.00e+00	0	28	0	381681664	72	4764
2026-01-04 22:02:29.96	48.88	15.21	-53.6	-55.7	14.1	0.00e+00	0	28	0	382730240	72	4845
2026-01-04 22:02:30.97	49.07	15.26	-53.7	-55.8	14.0	0.00e+00	0	28	0	384827392	72	4915
2026-01-04 22:02:31.98	49.26	15.31	-53.7	-55.9	13.9	0.00e+00	0	28	0	386924544	72	4971
2026-01-04 22:02:32.99	49.46	15.36	-53.8	-56.0	13.9	0.00e+00	0	28	0	389021696	72	5019
2026-01-04 22:02:34.00	49.65	15.41	-53.7	-55.9	13.9	0.00e+00	0	28	0	391118848	72	4983
2026-01-04 22:02:35.01	49.84	15.46	-53.8	-56.0	13.9	0.00e+00	0	28	0	392167424	72	5004
2026-01-04 22:02:36.02	50.04	15.51	-53.7	-55.9	13.9	0.00e+00	0	28	0	394264576	72	4947
2026-01-04 22:02:37.03	50.23	15.56	-53.7	-55.8	14.0	0.00e+00	0	28	0	396361728	72	4919
2026-01-04 22:02:38.04	50.43	15.61	-53.6	-55.7	14.0	0.00e+00	0	28	0	398458880	72	4863
2026-01-04 22:02:39.04	50.62	15.66	-53.7	-55.8	14.0	0.00e+00	0	28	0	400556032	72	4907
2026-01-04 22:02:40.05	50.82	15.70	-53.7	-55.9	13.9	0.00e+00	0	28	0	401604608	72	4932
2026-01-04 22:02:41.06	51.01	15.75	-53.7	-55.9	13.9	0.00e+00	0	28	0	403701760	72	4947
2026-01-04 22:02:42.07	51.21	15.80	-53.8	-56.0	13.9	0.00e+00	0	28	0	405798912	72	5024
2026-01-04 22:02:43.08	51.41	15.85	-53.9	-56.2	13.9	0.00e+00	0	28	0	407896064	73	4831
2026-01-04 22:02:44.09	51.61	15.89	-54.1	-56.5	13.8	0.00e+00	0	28	0	409993216	73	4984
2026-01-04 22:02:45.10	51.81	15.94	-54.3	-56.7	13.7	0.00e+00	0	28	0	411041792	73	5104
2026-01-04 22:02:46.11	52.01	15.99	-54.3	-56.8	13.6	0.00e+00	0	28	0	413138944	73	5174
2026-01-04 22:02:47.11	52.21	16.03	-54.4	-56.8	13.6	0.00e+00	0	28	0	415236096	74	4895
2026-01-04 22:02:48.12	52.41	16.08	-54.4	-56.8	13.7	0.00e+00	0	28	0	417333248	74	4890
2026-01-04 22:02:49.13	52.61	16.13	-54.3	-56.6	13.7	0.00e+00	0	28	0	419430400	74	4802
2026-01-04 22:02:50.14	52.81	16.17	-54.1	-56.4	13.9	0.00e+00	0	28	0	421527552	74	4682
2026-01-04 22:02:51.15	53.02	16.22	-54.0	-56.2	14.0	0.00e+00	0	28	0	422576128	74	4565
2026-01-04 22:02:52.16	53.22	16.26	-54.0	-56.2	14.0	0.00e+00	0	28	0	424673280	74	4572
2026-01-04 22:02:53.17	53.43	16.31	-53.9	-56.2	14.0	0.00e+00	0	28	0	426770432	74	4548
2026-01-04 22:02:54.18	53.63	16.35	-54.0	-56.2	14.0	0.00e+00	0	28	0	428867584	74	4572
2026-01-04 22:02:55.19	53.84	16.40	-54.0	-56.2	14.0	0.00e+00	0	28	0	430964736	74	4569
2026-01-04 22:02:56.20	54.04	16.44	-54.0	-56.3	13.9	0.00e+00	0	28	0	432013312	74	4617
2026-01-04 22:02:57.21	54.25	16.49	-54.0	-56.3	14.0	0.00e+00	0	28	0	434110464	74	4608
2026-01-04 22:02:58.22	54.46	16.53	-53.9	-56.1	14.0	0.00e+00	0	28	0	436207616	74	4508
2026-01-04 22:02:59.23	54.67	16.57	-53.9	-56.1	14.0	0.00e+00	0	28	0	438304768	74	4526
2026-01-04 22:03:00.24	54.87	16.62	-53.9	-56.1	14.0	0.00e+00	0	28	0	440401920	74	4504
2026-01-04 22:03:01.25	55.08	16.66	-53.7	-55.9	14.1	0.00e+00	0	28	0	441450496	73	4656
2026-01-04 22:03:02.26	55.29	16.70	-53.6	-55.8	14.1	0.00e+00	0	28	0	443547648	73	4614
2026-01-04 22:03:03.27	55.50	16.74	-53.6	-55.7	14.2	0.00e+00	0	28	0	445644800	73	4563
2026-01-04 22:03:04.28	55.71	16.78	-53.5	-55.5	14.2	0.00e+00	0	28	0	447741952	73	4475
2026-01-04 22:03:05.29	55.93	16.83	-53.5	-55.6	14.2	0.00e+00	0	28	0	449839104	73	4507
2026-01-04 22:03:06.30	56.14	16.87	-53.3	-55.3	14.3	0.00e+00	0	28	0	450887680	73	4374
2026-01-04 22:03:07.31	56.35	16.91	-53.3	-55.3	14.3	0.00e+00	0	28	0	452984832	73	4386
2026-01-04 22:03:08.31	56.56	16.95	-53.4	-55.4	14.3	0.00e+00	0	28	0	455081984	73	4405
2026-01-04 22:03:09.32	56.78	16.99	-53.2	-55.2	14.3	0.00e+00	0	28	0	457179136	73	4325
2026-01-04 22:03:10.33	56.99	17.03	-53.4	-55.4	14.3	0.00e+00	0	28	0	459276288	73	4430
2026-01-04 22:03:11.34	57.20	17.07	-53.1	-55.0	14.3	0.00e+00	0	28	0	460324864	72	4487
2026-01-04 22:03:12.34	57.42	17.11	-53.1	-55.1	14.3	0.00e+00	0	28	0	462422016	72	4524
2026-01-04 22:03:13.36	57.64	17.15	-52.9	-54.8	14.5	0.00e+00	0	28	0	464519168	72	4346
2026-01-04 22:03:14.37	57.85	17.19	-52.8	-54.7	14.5	0.00e+00	0	28	0	466616320	72	4324
2026-01-04 22:03:15.38	58.07	17.23	-52.8	-54.7	14.5	0.00e+00	0	28	0	468713472	72	4306
2026-01-04 22:03:16.39	58.29	17.26	-52.7	-54.5	14.5	0.00e+00	0	28	0	469762048	71	4476
2026-01-04 22:03:17.39	58.50	17.30	-52.7	-54.5	14.5	0.00e+00	0	28	0	471859200	71	4462
2026-01-04 22:03:18.40	58.72	17.34	-52.7	-54.5	14.4	0.00e+00	0	28	0	473956352	71	4485
2026-01-04 22:03:19.41	58.94	17.38	-52.8	-54.7	14.4	0.00e+00	0	28	0	476053504	71	4585
2026-01-04 22:03:20.42	59.16	17.41	-52.9	-54.7	14.4	0.00e+00	0	28	0	478150656	71	4597
2026-01-04 22:03:21.43	59.38	17.45	-52.9	-54.9	14.3	0.00e+00	0	28	0	479199232	71	4654
2026-01-04 22:03:22.44	59.60	17.49	-53.0	-55.0	14.3	0.00e+00	0	28	0	481296384	71	4708
2026-01-04 22:03:23.45	59.82	17.52	-53.1	-55.1	14.3	0.00e+00	0	28	0	483393536	71	4768
2026-01-04 22:03:24.46	60.05	17.56	-53.1	-55.0	14.3	0.00e+00	0	28	0	485490688	71	4754
2026-01-04 22:03:25.47	60.27	17.59	-53.1	-55.1	14.3	0.00e+00	0	28	0	487587840	71	4782
2026-01-04 22:03:26.48	60.49	17.63	-53.0	-55.0	14.3	0.00e+00	0	28	0	489684992	71	4719
2026-01-04 22:03:27.52	60.72	17.66	-53.0	-54.9	14.4	0.00e+00	0	28	0	490733568	71	4686
2026-01-04 22:03:28.43	60.92	17.69	-53.0	-54.9	14.3	0.00e+00	0	28	0	492830720	71	4676
2026-01-04 22:03:29.45	61.15	17.73	-53.0	-54.9	14.3	0.00e+00	0	28	0	494927872	71	4699
2026-01-04 22:03:30.46	61.37	17.76	-53.2	-55.1	14.2	0.00e+00	0	28	0	497025024	71	4809
2026-01-04 22:03:31.46	61.60	17.79	-53.2	-55.2	14.2	0.00e+00	0	28	0	498073600	71	4832
2026-01-04 22:03:32.47	61.82	17.82	-53.4	-55.4	14.1	0.00e+00	0	28	0	500170752	71	4968
2026-01-04 22:03:33.48	62.05	17.86	-53.3	-55.3	14.1	0.00e+00	0	28	0	502267904	71	4879
2026-01-04 22:03:34.48	62.27	17.89	-53.3	-55.4	14.1	0.00e+00	0	28	0	504365056	71	4951
2026-01-04 22:03:35.49	62.50	17.92	-53.2	-55.2	14.3	0.00e+00	0	28	0	506462208	72	4587
2026-01-04 22:03:36.50	62.73	17.95	-53.2	-55.2	14.3	0.00e+00	0	28	0	507510784	72	4555
2026-01-04 22:03:37.51	62.96	17.98	-53.1	-55.0	14.4	0.00e+00	0	28	0	509607936	72	4478
2026-01-04 22:03:38.52	63.18	18.01	-53.0	-54.9	14.4	0.00e+00	0	28	0	511705088	72	4418
2026-01-04 22:03:39.53	63.41	18.04	-53.0	-55.0	14.4	0.00e+00	0	28	0	513802240	72	4442
2026-01-04 22:03:40.54	63.64	18.07	-53.0	-54.9	14.5	0.00e+00	0	28	0	515899392	72	4416
2026-01-04 22:03:41.55	63.87	18.10	-53.0	-54.9	14.4	0.00e+00	0	28	0	516947968	72	4422
2026-01-04 22:03:42.56	64.10	18.13	-53.1	-55.1	14.3	0.00e+00	0	28	0	519045120	72	4517
2026-01-04 22:03:43.57	64.33	18.15	-53.1	-55.1	14.3	0.00e+00	0	28	0	521142272	72	4520
2026-01-04 22:03:44.58	64.57	18.18	-53.2	-55.2	14.3	0.00e+00	0	28	0	523239424	72	4563
2026-01-04 22:03:45.59	64.80	18.21	-53.3	-55.3	14.2	0.00e+00	0	28	0	525336576	72	4607
2026-01-04 22:03:46.60	65.03	18.24	-53.2	-55.2	14.3	0.00e+00	0	28	0	526385152	72	4590
2026-01-04 22:03:47.61	65.26	18.26	-53.2	-55.2	14.3	0.00e+00	0	28	0	528482304	72	4578
2026-01-04 22:03:48.61	65.49	18.29	-53.2	-55.1	14.3	0.00e+00	0	28	0	530579456	72	4532
2026-01-04 22:03:49.62	65.72	18.31	-53.2	-55.1	14.3	0.00e+00	0	28	0	532676608	72	4529
2026-01-04 22:03:50.63	65.96	18.34	-53.2	-55.1	14.3	0.00e+00	0	28	0	534773760	72	4544
2026-01-04 22:03:51.63	66.19	18.36	-53.1	-55.0	14.3	0.00e+00	0	28	0	535822336	72	4476
2026-01-04 22:03:52.64	66.42	18.39	-53.0	-54.9	14.4	0.00e+00	0	28	0	537919488	72	4439
2026-01-04 22:03:53.65	66.66	18.41	-53.1	-55.0	14.4	0.00e+00	0	28	0	540016640	72	4459
2026-01-04 22:03:54.65	66.89	18.44	-53.1	-55.0	14.4	0.00e+00	0	28	0	542113792	72	4484
2026-01-04 22:03:55.67	67.13	18.46	-53.1	-55.0	14.4	0.00e+00	0	28	0	544210944	72	4459
2026-01-04 22:03:56.67	67.36	18.48	-53.1	-55.0	14.4	0.00e+00	0	28	0	545259520	72	4469
2026-01-04 22:03:57.68	67.60	18.50	-53.1	-55.0	14.4	0.00e+00	0	28	0	547356672	72	4467
2026-01-04 22:03:58.69	67.83	18.52	-53.2	-55.2	14.3	0.00e+00	0	28	0	549453824	72	4559
2026-01-04 22:03:59.70	68.07	18.55	-53.2	-55.1	14.3	0.00e+00	0	28	0	551550976	72	4529
2026-01-04 22:04:00.71	68.31	18.57	-53.2	-55.1	14.3	0.00e+00	0	28	0	553648128	72	4521
2026-01-04 22:04:01.72	68.55	18.59	-53.2	-55.2	14.3	0.00e+00	0	28	0	554696704	72	4574
2026-01-04 22:04:02.73	68.78	18.61	-53.2	-55.1	14.3	0.00e+00	0	28	0	556793856	72	4544
2026-01-04 22:04:03.74	69.02	18.63	-53.1	-55.1	14.3	0.00e+00	0	28	0	558891008	72	4530
2026-01-04 22:04:04.74	69.26	18.64	-53.2	-55.1	14.3	0.00e+00	0	28	0	560988160	72	4543
2026-01-04 22:04:05.76	69.50	18.66	-53.2	-55.1	14.3	0.00e+00	0	28	0	563085312	72	4530
2026-01-04 22:04:06.76	69.73	18.68	-53.2	-55.1	14.3	0.00e+00	0	28	0	564133888	72	4529
2026-01-04 22:04:07.77	69.97	18.70	-53.3	-55.3	14.2	0.00e+00	0	28	0	566231040	72	4608
2026-01-04 22:04:08.78	70.21	18.71	-53.4	-55.4	14.2	0.00e+00	0	28	0	568328192	72	4667
2026-01-04 22:04:09.79	70.45	18.73	-53.4	-55.5	14.1	0.00e+00	0	28	0	570425344	72	4713
2026-01-04 22:04:10.80	70.69	18.75	-53.4	-55.5	14.2	0.00e+00	0	28	0	572522496	72	4712
2026-01-04 22:04:11.80	70.93	18.76	-53.5	-55.6	14.1	0.00e+00	0	28	0	573571072	72	4802
2026-01-04 22:04:12.81	71.17	18.78	-53.5	-55.6	14.1	0.00e+00	0	28	0	575668224	72	4789
2026-01-04 22:04:13.82	71.41	18.79	-53.6	-55.7	14.1	0.00e+00	0	28	0	577765376	72	4819
2026-01-04 22:04:14.83	71.65	18.81	-53.5	-55.6	14.1	0.00e+00	0	28	0	579862528	72	4802
2026-01-04 22:04:15.84	71.89	18.82	-53.6	-55.7	14.1	0.00e+00	0	28	0	581959680	72	4862
2026-01-04 22:04:16.85	72.13	18.83	-53.6	-55.7	14.1	0.00e+00	0	28	0	583008256	72	4857
2026-01-04 22:04:17.85	72.37	18.85	-53.6	-55.7	14.1	0.00e+00	0	28	0	585105408	72	4846
2026-01-04 22:04:18.87	72.62	18.86	-53.4	-55.4	14.2	0.00e+00	0	28	0	587202560	72	4658
2026-01-04 22:04:19.87	72.86	18.87	-53.4	-55.4	14.2	0.00e+00	0	28	0	589299712	72	4661
2026-01-04 22:04:20.87	73.09	18.88	-53.3	-55.2	14.3	0.00e+00	0	28	0	591396864	72	4597
2026-01-04 22:04:21.88	73.34	18.89	-53.4	-55.4	14.2	0.00e+00	0	28	0	592445440	72	4675
2026-01-04 22:04:22.89	73.58	18.90	-53.4	-55.4	14.2	0.00e+00	0	28	0	594542592	72	4679
2026-01-04 22:04:23.90	73.82	18.91	-53.6	-55.7	14.1	0.00e+00	0	28	0	596639744	72	4828
2026-01-04 22:04:24.91	74.06	18.92	-53.7	-55.8	14.1	0.00e+00	0	28	0	598736896	72	4897
2026-01-04 22:04:25.91	74.30	18.93	-53.8	-55.9	14.0	0.00e+00	0	28	0	600834048	72	4981
2026-01-04 22:04:26.93	74.55	18.94	-53.9	-56.1	14.0	0.00e+00	0	28	0	602931200	73	4771
2026-01-04 22:04:27.93	74.79	18.94	-54.0	-56.2	13.9	0.00e+00	0	28	0	603979776	73	4849
2026-01-04 22:04:28.94	75.03	18.95	-53.9	-56.1	14.0	0.00e+00	0	28	0	606076928	73	4789
2026-01-04 22:04:29.94	75.27	18.96	-53.8	-55.9	14.1	0.00e+00	0	28	0	608174080	73	4697
2026-01-04 22:04:30.95	75.52	18.96	-53.5	-55.6	14.2	0.00e+00	0	28	0	610271232	73	4532
2026-01-04 22:04:31.95	75.76	18.97	-53.5	-55.6	14.2	0.00e+00	0	28	0	611319808	73	4496
2026-01-04 22:04:32.95	76.00	18.98	-53.3	-55.3	14.3	0.00e+00	0	28	0	613416960	73	4387
2026-01-04 22:04:33.96	76.24	18.98	-53.4	-55.4	14.3	0.00e+00	0	28	0	615514112	73	4419
2026-01-04 22:04:34.98	76.49	18.98	-53.4	-55.4	14.3	0.00e+00	0	28	0	617611264	73	4398
2026-01-04 22:04:35.99	76.73	18.99	-53.5	-55.6	14.2	0.00e+00	0	28	0	619708416	73	4500
2026-01-04 22:04:36.99	76.97	18.99	-53.6	-55.7	14.2	0.00e+00	0	28	0	620756992	73	4578
2026-01-04 22:04:37.99	77.22	18.99	-53.8	-56.0	14.0	0.00e+00	0	28	0	622854144	73	4729
2026-01-04 22:04:39.00	77.46	19.00	-53.8	-56.0	14.0	0.00e+00	0	28	0	624951296	73	4715
2026-01-04 22:04:40.01	77.70	19.00	-53.9	-56.0	14.0	0.00e+00	0	28	0	627048448	73	4752
2026-01-04 22:04:41.02	77.95	19.00	-53.8	-56.0	14.0	0.00e+00	0	28	0	629145600	73	4741
2026-01-04 22:04:42.03	78.19	19.00	-53.7	-55.8	14.1	0.00e+00	0	28	0	631242752	73	4642
2026-01-04 22:04:43.04	78.44	19.00	-53.6	-55.7	14.1	0.00e+00	0	28	0	632291328	73	4567
2026-01-04 22:04:44.05	78.68	19.00	-53.6	-55.7	14.2	0.00e+00	0	28	0	634388480	73	4563
2026-01-04 22:04:45.06	78.92	19.00	-53.3	-55.3	14.3	0.00e+00	0	28	0	636485632	73	4365
2026-01-04 22:04:46.07	79.17	19.00	-53.3	-55.3	14.3	0.00e+00	0	28	0	638582784	73	4374
2026-01-04 22:04:47.08	79.41	19.00	-53.2	-55.2	14.4	0.00e+00	0	28	0	640679936	73	4303
2026-01-04 22:04:48.09	79.66	18.99	-53.1	-55.1	14.3	0.00e+00	0	28	0	641728512	72	4512
2026-01-04 22:04:49.09	79.90	18.99	-53.1	-55.1	14.3	0.00e+00	0	28	0	643825664	72	4499
2026-01-04 22:04:50.10	80.14	18.99	-53.2	-55.1	14.3	0.00e+00	0	28	0	645922816	72	4545
2026-01-04 22:04:51.11	80.38	18.98	-53.2	-55.2	14.3	0.00e+00	0	28	0	648019968	72	4550
2026-01-04 22:04:52.12	80.63	18.98	-53.2	-55.2	14.3	0.00e+00	0	28	0	650117120	72	4578
2026-01-04 22:04:53.12	80.87	18.97	-53.2	-55.2	14.2	0.00e+00	0	28	0	651165696	72	4579
2026-01-04 22:04:54.13	81.11	18.97	-53.4	-55.4	14.2	0.00e+00	0	28	0	653262848	72	4700
2026-01-04 22:04:55.14	81.36	18.96	-53.5	-55.6	14.1	0.00e+00	0	28	0	655360000	72	4803
2026-01-04 22:04:56.15	81.60	18.96	-53.5	-55.6	14.1	0.00e+00	0	28	0	657457152	72	4793
2026-01-04 22:04:57.15	81.84	18.95	-53.6	-55.8	14.0	0.00e+00	0	28	0	659554304	72	4887
2026-01-04 22:04:58.16	82.08	18.94	-53.7	-55.8	14.0	0.00e+00	0	28	0	660602880	72	4898
2026-01-04 22:04:59.17	82.33	18.93	-53.9	-56.1	13.9	0.00e+00	0	28	0	662700032	72	5043
2026-01-04 22:05:00.18	82.57	18.93	-53.9	-56.0	13.9	0.00e+00	0	28	0	664797184	72	5041
2026-01-04 22:05:01.18	82.81	18.92	-53.8	-55.9	13.9	0.00e+00	0	28	0	666894336	72	4970
2026-01-04 22:05:02.19	83.05	18.91	-53.6	-55.8	14.0	0.00e+00	0	28	0	668991488	72	4882
2026-01-04 22:05:03.20	83.30	18.90	-53.5	-55.6	14.1	0.00e+00	0	28	0	670040064	72	4798
2026-01-04 22:05:04.21	83.54	18.89	-53.3	-55.3	14.2	0.00e+00	0	28	0	672137216	72	4648
2026-01-04 22:05:05.22	83.78	18.88	-53.2	-55.1	14.3	0.00e+00	0	28	0	674234368	72	4521
2026-01-04 22:05:06.22	84.02	18.87	-53.1	-55.1	14.4	0.00e+00	0	28	0	676331520	72	4508
2026-01-04 22:05:07.23	84.26	18.85	-52.9	-54.8	14.4	0.00e+00	0	28	0	678428672	72	4373
2026-01-04 22:05:08.24	84.50	18.84	-52.9	-54.8	14.5	0.00e+00	0	28	0	679477248	72	4342
2026-01-04 22:05:09.25	84.75	18.83	-52.8	-54.6	14.5	0.00e+00	0	28	0	681574400	72	4282
2026-01-04 22:05:10.26	84.99	18.82	-52.8	-54.6	14.5	0.00e+00	0	28	0	683671552	72	4290
2026-01-04 22:05:11.27	85.23	18.80	-52.9	-54.7	14.5	0.00e+00	0	28	0	685768704	72	4322
2026-01-04 22:05:12.28	85.47	18.79	-53.0	-54.9	14.4	0.00e+00	0	28	0	687865856	72	4441
2026-01-04 22:05:13.29	85.71	18.77	-53.2	-55.1	14.3	0.00e+00	0	28	0	688914432	72	4536
2026-01-04 22:05:14.30	85.95	18.76	-53.3	-55.3	14.2	0.00e+00	0	28	0	691011584	72	4648
2026-01-04 22:05:15.31	86.19	18.74	-53.3	-55.4	14.2	0.00e+00	0	28	0	693108736	72	4653
2026-01-04 22:05:16.32	86.43	18.73	-53.4	-55.4	14.2	0.00e+00	0	28	0	695205888	72	4686
2026-01-04 22:05:17.33	86.67	18.71	-53.3	-55.4	14.2	0.00e+00	0	28	0	697303040	72	4659
2026-01-04 22:05:18.33	86.91	18.69	-53.3	-55.3	14.3	0.00e+00	0	28	0	698351616	72	4606
2026-01-04 22:05:19.34	87.15	18.67	-53.1	-55.1	14.4	0.00e+00	0	28	0	700448768	72	4518
2026-01-04 22:05:20.35	87.39	18.66	-53.1	-55.1	14.3	0.00e+00	0	28	0	702545920	72	4520
2026-01-04 22:05:21.36	87.62	18.64	-52.8	-54.6	14.5	0.00e+00	0	28	0	704643072	72	4280
2026-01-04 22:05:22.37	87.86	18.62	-52.7	-54.5	14.5	0.00e+00	0	28	0	706740224	71	4476
2026-01-04 22:05:23.38	88.10	18.60	-52.7	-54.5	14.5	0.00e+00	0	28	0	707788800	71	4462
2026-01-04 22:05:24.39	88.34	18.58	-52.6	-54.4	14.5	0.00e+00	0	28	0	709885952	71	4415
2026-01-04 22:05:25.40	88.58	18.56	-52.3	-54.0	14.7	0.00e+00	0	28	0	711983104	71	4237
2026-01-04 22:05:26.41	88.81	18.54	-52.2	-53.9	14.6	0.00e+00	0	28	0	714080256	70	4396
2026-01-04 22:05:27.42	89.05	18.52	-52.2	-53.9	14.6	0.00e+00	0	28	0	716177408	70	4413
2026-01-04 22:05:28.42	89.28	18.49	-52.2	-53.9	14.6	0.00e+00	0	28	0	717225984	70	4404
2026-01-04 22:05:29.43	89.52	18.47	-52.2	-54.0	14.6	0.00e+00	0	28	0	719323136	70	4454
2026-01-04 22:05:30.44	89.76	18.45	-52.4	-54.1	14.6	0.00e+00	0	28	0	721420288	70	4538
2026-01-04 22:05:31.45	89.99	18.43	-52.5	-54.3	14.5	0.00e+00	0	28	0	723517440	70	4623
2026-01-04 22:05:32.46	90.23	18.40	-52.6	-54.4	14.4	0.00e+00	0	28	0	725614592	70	4671
2026-01-04 22:05:33.47	90.46	18.38	-52.7	-54.5	14.4	0.00e+00	0	28	0	727711744	70	4742
2026-01-04 22:05:34.47	90.69	18.35	-52.7	-54.6	14.4	0.00e+00	0	28	0	728760320	70	4781
2026-01-04 22:05:35.48	90.93	18.33	-52.8	-54.7	14.3	0.00e+00	0	28	0	730857472	70	4831
2026-01-04 22:05:36.50	91.16	18.30	-52.8	-54.6	14.3	0.00e+00	0	28	0	732954624	70	4809
2026-01-04 22:05:37.50	91.40	18.28	-52.7	-54.5	14.4	0.00e+00	0	28	0	735051776	70	4748
2026-01-04 22:05:38.51	91.63	18.25	-52.7	-54.6	14.3	0.00e+00	0	28	0	737148928	70	4799
2026-01-04 22:05:39.52	91.86	18.23	-52.8	-54.6	14.3	0.00e+00	0	28	0	738197504	70	4807
2026-01-04 22:05:40.53	92.09	18.20	-52.7	-54.5	14.4	0.00e+00	0	28	0	740294656	70	4751
2026-01-04 22:05:41.54	92.33	18.17	-52.6	-54.4	14.4	0.00e+00	0	28	0	742391808	70	4687
2026-01-04 22:05:42.55	92.56	18.14	-52.6	-54.4	14.5	0.00e+00	0	28	0	744488960	70	4674
2026-01-04 22:05:43.56	92.79	18.12	-52.5	-54.3	14.5	0.00e+00	0	28	0	746586112	70	4603
2026-01-04 22:05:44.57	93.02	18.09	-52.5	-54.3	14.5	0.00e+00	0	28	0	747634688	70	4604
2026-01-04 22:05:45.58	93.25	18.06	-52.5	-54.2	14.5	0.00e+00	0	28	0	749731840	70	4589
2026-01-04 22:05:46.58	93.48	18.03	-52.1	-53.8	14.7	0.00e+00	0	28	0	751828992	70	4371
2026-01-04 22:05:47.59	93.71	18.00	-51.8	-53.5	14.8	0.00e+00	0	28	0	753926144	70	4213
2026-01-04 22:05:48.60	93.93	17.97	-51.9	-53.6	14.8	0.00e+00	0	28	0	756023296	70	4253
2026-01-04 22:05:49.61	94.16	17.94	-51.9	-53.5	14.8	0.00e+00	0	28	0	757071872	70	4214
2026-01-04 22:05:50.62	94.39	17.91	-52.0	-53.6	14.7	0.00e+00	0	28	0	759169024	70	4282
2026-01-04 22:05:51.63	94.62	17.87	-52.1	-53.7	14.7	0.00e+00	0	28	0	761266176	70	4340
2026-01-04 22:05:52.64	94.84	17.84	-52.0	-53.7	14.7	0.00e+00	0	28	0	763363328	70	4323
2026-01-04 22:05:53.64	95.07	17.81	-52.0	-53.7	14.7	0.00e+00	0	28	0	765460480	70	4309
2026-01-04 22:05:54.65	95.30	17.78	-52.0	-53.6	14.7	0.00e+00	0	28	0	766509056	70	4287
2026-01-04 22:05:55.66	95.52	17.74	-51.9	-53.6	14.8	0.00e+00	0	28	0	768606208	70	4251
2026-01-04 22:05:56.67	95.75	17.71	-51.9	-53.6	14.8	0.00e+00	0	28	0	770703360	70	4254
2026-01-04 22:05:57.68	95.97	17.68	-51.8	-53.4	14.8	0.00e+00	0	28	0	772800512	70	4189
2026-01-04 22:05:58.69	96.19	17.64	-51.8	-53.4	14.9	0.00e+00	0	28	0	774897664	70	4157
2026-01-04 22:05:59.70	96.42	17.61	-51.6	-53.2	14.8	0.00e+00	0	28	0	775946240	69	4320
2026-01-04 22:06:00.70	96.64	17.57	-51.6	-53.2	14.8	0.00e+00	0	28	0	778043392	69	4322
2026-01-04 22:06:01.71	96.86	17.54	-51.5	-53.1	14.8	0.00e+00	0	28	0	780140544	69	4256
2026-01-04 22:06:02.72	97.08	17.50	-51.4	-53.0	14.9	0.00e+00	0	28	0	782237696	69	4210
2026-01-04 22:06:03.73	97.31	17.47	-51.4	-53.0	14.9	0.00e+00	0	28	0	784334848	69	4199
2026-01-04 22:06:04.74	97.53	17.43	-51.5	-53.1	14.8	0.00e+00	0	28	0	785383424	69	4272
2026-01-04 22:06:05.74	97.75	17.39	-51.6	-53.2	14.8	0.00e+00	0	28	0	787480576	69	4293
2026-01-04 22:06:06.75	97.97	17.36	-51.5	-53.1	14.8	0.00e+00	0	28	0	789577728	69	4277
2026-01-04 22:06:07.76	98.19	17.32	-51.7	-53.3	14.8	0.00e+00	0	28	0	791674880	69	4355
2026-01-04 22:06:08.77	98.40	17.28	-51.7	-53.3	14.7	0.00e+00	0	28	0	793772032	69	4386
2026-01-04 22:06:09.78	98.62	17.24	-51.8	-53.4	14.7	0.00e+00	0	28	0	794820608	69	4427
2026-01-04 22:06:10.78	98.84	17.21	-51.7	-53.3	14.7	0.00e+00	0	28	0	796917760	69	4388
2026-01-04 22:06:11.79	99.06	17.17	-51.9	-53.5	14.7	0.00e+00	0	28	0	799014912	69	4473
2026-01-04 22:06:12.80	99.27	17.13	-51.9	-53.6	14.7	0.00e+00	0	28	0	801112064	69	4505
2026-01-04 22:06:13.81	99.49	17.09	-52.0	-53.7	14.6	0.00e+00	0	28	0	803209216	69	4558
2026-01-04 22:06:14.82	99.71	17.05	-52.1	-53.8	14.6	0.00e+00	0	28	0	804257792	69	4626
2026-01-04 22:06:15.83	99.92	17.01	-52.1	-53.8	14.5	0.00e+00	0	28	0	806354944	69	4647
2026-01-04 22:06:16.84	100.14	16.97	-52.1	-53.8	14.6	0.00e+00	0	28	0	808452096	69	4648
2026-01-04 22:06:17.84	100.35	16.93	-52.1	-53.8	14.6	0.00e+00	0	28	0	810549248	69	4622
2026-01-04 22:06:18.85	100.56	16.89	-52.0	-53.7	14.6	0.00e+00	0	28	0	812646400	69	4566
2026-01-04 22:06:19.86	100.77	16.85	-52.0	-53.7	14.6	0.00e+00	0	28	0	813694976	69	4546
2026-01-04 22:06:20.87	100.99	16.80	-52.1	-53.8	14.6	0.00e+00	0	28	0	815792128	69	4648
2026-01-04 22:06:21.88	101.20	16.76	-52.4	-54.1	14.4	0.00e+00	0	28	0	817889280	69	4808
2026-01-04 22:06:22.89	101.41	16.72	-52.6	-54.5	14.4	0.00e+00	0	28	0	819986432	70	4718
2026-01-04 22:06:23.90	101.62	16.68	-52.8	-54.7	14.3	0.00e+00	0	28	0	822083584	70	4836
2026-01-04 22:06:24.91	101.83	16.63	-52.8	-54.7	14.3	0.00e+00	0	28	0	824180736	70	4824
2026-01-04 22:06:25.91	102.04	16.59	-52.8	-54.7	14.3	0.00e+00	0	28	0	825229312	70	4854
2026-01-04 22:06:26.92	102.25	16.55	-52.9	-54.8	14.3	0.00e+00	0	28	0	827326464	71	4638
2026-01-04 22:06:27.92	102.45	16.50	-52.9	-54.8	14.3	0.00e+00	0	28	0	829423616	71	4627
2026-01-04 22:06:28.93	102.66	16.46	-53.0	-54.9	14.3	0.00e+00	0	28	0	831520768	71	4691
2026-01-04 22:06:29.93	102.87	16.42	-53.0	-54.9	14.3	0.00e+00	0	28	0	832569344	71	4696
2026-01-04 22:06:30.93	103.07	16.37	-53.0	-54.9	14.3	0.00e+00	0	28	0	834666496	71	4705
2026-01-04 22:06:31.94	103.28	16.33	-53.0	-55.0	14.3	0.00e+00	0	28	0	836763648	71	4714
2026-01-04 22:06:32.95	103.48	16.28	-53.1	-55.0	14.2	0.00e+00	0	28	0	838860800	71	4749
2026-01-04 22:06:33.96	103.69	16.24	-53.1	-55.0	14.3	0.00e+00	0	28	0	840957952	71	4750
2026-01-04 22:06:34.97	103.89	16.19	-53.1	-55.0	14.3	0.00e+00	0	28	0	842006528	71	4744
2026-01-04 22:06:35.98	104.09	16.15	-53.1	-55.0	14.3	0.00e+00	0	28	0	844103680	71	4744
2026-01-04 22:06:36.99	104.30	16.10	-52.9	-54.7	14.4	0.00e+00	0	28	0	846200832	71	4586
2026-01-04 22:06:38.00	104.50	16.05	-52.8	-54.7	14.4	0.00e+00	0	28	0	848297984	71	4576
2026-01-04 22:06:39.00	104.70	16.01	-52.9	-54.8	14.4	0.00e+00	0	28	0	850395136	71	4612
2026-01-04 22:06:40.01	104.90	15.96	-52.9	-54.8	14.4	0.00e+00	0	28	0	852492288	71	4638
2026-01-04 22:06:41.02	105.10	15.91	-53.0	-55.0	14.3	0.00e+00	0	28	0	853540864	71	4711
2026-01-04 22:06:42.03	105.30	15.87	-53.2	-55.2	14.2	0.00e+00	0	28	0	855638016	71	4855
2026-01-04 22:06:43.04	105.50	15.82	-53.4	-55.4	14.1	0.00e+00	0	28	0	857735168	71	4958
2026-01-04 22:06:44.05	105.70	15.77	-53.5	-55.5	14.1	0.00e+00	0	28	0	859832320	72	4733
2026-01-04 22:06:45.06	105.90	15.72	-53.5	-55.6	14.1	0.00e+00	0	28	0	861929472	72	4800
2026-01-04 22:06:46.07	106.10	15.67	-53.5	-55.6	14.1	0.00e+00	0	28	0	862978048	72	4776
2026-01-04 22:06:47.07	106.29	15.63	-53.4	-55.5	14.1	0.00e+00	0	28	0	865075200	72	4736
2026-01-04 22:06:48.08	106.49	15.58	-53.5	-55.5	14.1	0.00e+00	0	28	0	867172352	72	4751
2026-01-04 22:06:49.09	106.68	15.53	-53.3	-55.4	14.2	0.00e+00	0	28	0	869269504	72	4655
2026-01-04 22:06:50.10	106.88	15.48	-53.3	-55.3	14.3	0.00e+00	0	28	0	870318080	72	4615
2026-01-04 22:06:51.10	107.07	15.43	-53.4	-55.4	14.2	0.00e+00	0	28	0	872415232	72	4678
2026-01-04 22:06:52.11	107.26	15.38	-53.4	-55.5	14.1	0.00e+00	0	28	0	874512384	72	4730
2026-01-04 22:06:53.12	107.46	15.33	-53.5	-55.5	14.1	0.00e+00	0	28	0	876609536	72	4745
2026-01-04 22:06:54.13	107.65	15.28	-53.4	-55.4	14.2	0.00e+00	0	28	0	878706688	72	4674
2026-01-04 22:06:55.13	107.84	15.23	-53.4	-55.4	14.2	0.00e+00	0	28	0	880803840	72	4684
2026-01-04 22:06:56.15	108.03	15.18	-53.4	-55.4	14.2	0.00e+00	0	28	0	881852416	72	4703
2026-01-04 22:06:57.16	108.22	15.13	-53.4	-55.5	14.2	0.00e+00	0	28	0	883949568	72	4734
2026-01-04 22:06:58.16	108.41	15.08	-53.5	-55.5	14.1	0.00e+00	0	28	0	886046720	72	4748
2026-01-04 22:06:59.17	108.60	15.03	-53.4	-55.5	14.1	0.00e+00	0	28	0	888143872	72	4727
2026-01-04 22:07:00.18	108.79	14.98	-53.5	-55.6	14.1	0.00e+00	0	28	0	890241024	72	4761
2026-01-04 22:07:01.19	108.98	14.93	-53.4	-55.4	14.2	0.00e+00	0	28	0	891289600	72	4689
2026-01-04 22:07:02.20	109.17	14.88	-53.3	-55.3	14.2	0.00e+00	0	28	0	893386752	72	4632
2026-01-04 22:07:03.21	109.35	14.83	-53.0	-55.0	14.4	0.00e+00	0	28	0	895483904	72	4443
2026-01-04 22:07:04.21	109.54	14.77	-53.0	-54.9	14.4	0.00e+00	0	28	0	897581056	72	4428
2026-01-04 22:07:05.22	109.72	14.72	-52.8	-54.6	14.5	0.00e+00	0	28	0	899678208	72	4280
2026-01-04 22:07:06.23	109.91	14.67	-52.8	-54.6	14.5	0.00e+00	0	28	0	900726784	72	4272
2026-01-04 22:07:07.23	110.09	14.62	-52.7	-54.5	14.6	0.00e+00	0	28	0	902823936	72	4238
2026-01-04 22:07:08.24	110.28	14.57	-52.6	-54.5	14.5	0.00e+00	0	28	0	904921088	71	4456
2026-01-04 22:07:09.25	110.46	14.51	-52.8	-54.6	14.4	0.00e+00	0	28	0	907018240	71	4536
2026-01-04 22:07:10.26	110.64	14.46	-52.8	-54.7	14.4	0.00e+00	0	28	0	909115392	71	4584
2026-01-04 22:07:11.27	110.82	14.41	-52.8	-54.7	14.4	0.00e+00	0	28	0	910163968	71	4557
2026-01-04 22:07:12.28	111.01	14.35	-52.8	-54.7	14.4	0.00e+00	0	28	0	912261120	71	4590
2026-01-04 22:07:13.29	111.19	14.30	-52.9	-54.8	14.3	0.00e+00	0	28	0	914358272	71	4648
2026-01-04 22:07:14.30	111.37	14.25	-53.1	-55.1	14.2	0.00e+00	0	28	0	916455424	71	4786
2026-01-04 22:07:15.31	111.55	14.19	-53.4	-55.5	14.0	0.00e+00	0	28	0	918552576	71	4992
2026-01-04 22:07:16.31	111.72	14.14	-53.6	-55.7	14.1	0.00e+00	0	28	0	919601152	72	4833
2026-01-04 22:07:17.33	111.90	14.09	-53.7	-55.9	13.9	0.00e+00	0	28	0	921698304	72	4975
2026-01-04 22:07:18.34	112.08	14.03	-53.8	-56.0	13.9	0.00e+00	0	28	0	923795456	72	5022
2026-01-04 22:07:19.34	112.26	13.98	-53.7	-55.9	13.9	0.00e+00	0	28	0	925892608	72	4951
2026-01-04 22:07:20.35	112.43	13.93	-53.7	-55.9	13.9	0.00e+00	0	28	0	927989760	72	4964
2026-01-04 22:07:21.35	112.61	13.87	-53.7	-55.9	13.9	0.00e+00	0	28	0	929038336	72	4961
2026-01-04 22:07:22.36	112.78	13.82	-53.5	-55.6	14.1	0.00e+00	0	28	0	931135488	72	4774
2026-01-04 22:07:23.37	112.96	13.76	-53.3	-55.4	14.2	0.00e+00	0	28	0	933232640	72	4654
2026-01-04 22:07:24.38	113.13	13.71	-53.4	-55.5	14.1	0.00e+00	0	28	0	935329792	72	4724
2026-01-04 22:07:25.39	113.30	13.65	-52.9	-54.9	14.4	0.00e+00	0	28	0	937426944	72	4396
2026-01-04 22:07:26.40	113.48	13.60	-52.8	-54.7	14.5	0.00e+00	0	28	0	938475520	72	4292
2026-01-04 22:07:27.41	113.65	13.54	-52.8	-54.7	14.5	0.00e+00	0	28	0	940572672	72	4336
2026-01-04 22:07:28.42	113.82	13.49	-52.8	-54.7	14.5	0.00e+00	0	28	0	942669824	72	4321
2026-01-04 22:07:29.42	113.99	13.43	-52.8	-54.8	14.4	0.00e+00	0	28	0	944766976	72	4346
2026-01-04 22:07:30.43	114.16	13.38	-52.9	-54.8	14.4	0.00e+00	0	28	0	946864128	72	4382
2026-01-04 22:07:31.44	114.33	13.32	-52.8	-54.7	14.5	0.00e+00	0	28	0	947912704	72	4312
2026-01-04 22:07:32.45	114.50	13.27	-52.7	-54.6	14.5	0.00e+00	0	28	0	950009856	72	4245
2026-01-04 22:07:33.45	114.66	13.21	-52.6	-54.5	14.5	0.00e+00	0	28	0	952107008	71	4448
2026-01-04 22:07:34.46	114.83	13.16	-52.6	-54.4	14.5	0.00e+00	0	28	0	954204160	71	4427
2026-01-04 22:07:35.47	115.00	13.10	-52.6	-54.5	14.5	0.00e+00	0	28	0	956301312	71	4449
2026-01-04 22:07:36.48	115.17	13.05	-52.7	-54.6	14.4	0.00e+00	0	28	0	957349888	71	4515
2026-01-04 22:07:37.49	115.33	12.99	-52.8	-54.7	14.3	0.00e+00	0	28	0	959447040	71	4591
2026-01-04 22:07:38.50	115.50	12.93	-52.9	-54.8	14.3	0.00e+00	0	28	0	961544192	71	4633
2026-01-04 22:07:39.51	115.66	12.88	-53.0	-55.0	14.2	0.00e+00	0	28	0	963641344	71	4741
2026-01-04 22:07:40.52	115.83	12.82	-53.0	-55.0	14.2	0.00e+00	0	28	0	965738496	71	4750
2026-01-04 22:07:41.53	115.99	12.77	-52.8	-54.8	14.3	0.00e+00	0	28	0	966787072	71	4608
2026-01-04 22:07:42.53	116.15	12.71	-52.8	-54.8	14.3	0.00e+00	0	28	0	968884224	71	4607
2026-01-04 22:07:43.54	116.31	12.65	-52.9	-54.8	14.3	0.00e+00	0	28	0	970981376	71	4621
2026-01-04 22:07:44.56	116.48	12.60	-52.7	-54.6	14.4	0.00e+00	0	28	0	973078528	71	4506
2026-01-04 22:07:45.57	116.64	12.54	-52.5	-54.4	14.5	0.00e+00	0	28	0	975175680	71	4402
2026-01-04 22:07:46.57	116.80	12.48	-52.5	-54.4	14.5	0.00e+00	0	28	0	977272832	71	4408
2026-01-04 22:07:47.58	116.96	12.43	-52.6	-54.4	14.5	0.00e+00	0	28	0	978321408	71	4430
2026-01-04 22:07:48.59	117.11	12.37	-52.8	-54.7	14.3	0.00e+00	0	28	0	980418560	71	4564
2026-01-04 22:07:49.60	117.27	12.31	-52.9	-54.8	14.3	0.00e+00	0	28	0	982515712	71	4639
2026-01-04 22:07:50.60	117.43	12.26	-53.0	-55.0	14.2	0.00e+00	0	28	0	984612864	71	4753
2026-01-04 22:07:51.61	117.59	12.20	-53.0	-55.0	14.2	0.00e+00	0	28	0	986710016	71	4758
2026-01-04 22:07:52.62	117.74	12.14	-53.1	-55.2	14.1	0.00e+00	0	28	0	987758592	71	4817
2026-01-04 22:07:53.62	117.90	12.09	-53.0	-55.0	14.2	0.00e+00	0	28	0	989855744	71	4725
2026-01-04 22:07:54.63	118.06	12.03	-53.0	-54.9	14.2	0.00e+00	0	28	0	991952896	71	4703
2026-01-04 22:07:55.64	118.21	11.97	-52.8	-54.7	14.3	0.00e+00	0	28	0	994050048	71	4591
2026-01-04 22:07:56.65	118.37	11.91	-52.6	-54.5	14.4	0.00e+00	0	28	0	995098624	71	4491
2026-01-04 22:07:57.66	118.52	11.86	-52.6	-54.5	14.4	0.00e+00	0	28	0	997195776	71	4473
2026-01-04 22:07:58.67	118.67	11.80	-52.6	-54.5	14.4	0.00e+00	0	28	0	999292928	71	4454
2026-01-04 22:07:59.68	118.83	11.74	-52.7	-54.6	14.4	0.00e+00	0	28	0	1001390080	71	4527
2026-01-04 22:08:00.69	118.98	11.68	-52.8	-54.8	14.3	0.00e+00	0	28	0	1003487232	71	4627
2026-01-04 22:08:01.70	119.13	11.63	-53.0	-55.0	14.2	0.00e+00	0	28	0	1005584384	71	4743
2026-01-04 22:08:02.71	119.28	11.57	-53.1	-55.2	14.1	0.00e+00	0	28	0	1006632960	71	4846
2026-01-04 22:08:03.72	119.43	11.51	-53.2	-55.3	14.1	0.00e+00	0	28	0	1008730112	71	4893
2026-01-04 22:08:04.73	119.58	11.45	-53.2	-55.3	14.1	0.00e+00	0	28	0	1010827264	71	4905
2026-01-04 22:08:05.74	119.73	11.40	-53.1	-55.2	14.1	0.00e+00	0	28	0	1012924416	71	4840
2026-01-04 22:08:06.74	119.88	11.34	-53.1	-55.1	14.2	0.00e+00	0	28	0	1015021568	71	4791
2026-01-04 22:08:07.76	120.03	11.28	-53.0	-55.0	14.2	0.00e+00	0	28	0	1016070144	71	4746
2026-01-04 22:08:08.77	120.18	11.22	-52.9	-55.0	14.2	0.00e+00	0	28	0	1018167296	71	4713
2026-01-04 22:08:09.77	120.32	11.17	-52.9	-54.9	14.2	0.00e+00	0	28	0	1020264448	71	4661
2026-01-04 22:08:10.78	120.47	11.11	-52.9	-54.9	14.2	0.00e+00	0	28	0	1022361600	71	4692
2026-01-04 22:08:11.79	120.61	11.05	-52.9	-54.9	14.2	0.00e+00	0	28	0	1024458752	71	4671
2026-01-04 22:08:12.80	120.76	10.99	-52.9	-54.9	14.2	0.00e+00	0	28	0	1025507328	71	4676
2026-01-04 22:08:13.80	120.90	10.94	-53.1	-55.1	14.1	0.00e+00	0	28	0	1027604480	71	4797
2026-01-04 22:08:14.81	121.05	10.88	-53.2	-55.3	14.0	0.00e+00	0	28	0	1029701632	71	4879
2026-01-04 22:08:15.82	121.19	10.82	-53.2	-55.3	14.0	0.00e+00	0	28	0	1031798784	71	4905
2026-01-04 22:08:16.83	121.34	10.76	-53.3	-55.4	14.0	0.00e+00	0	28	0	1033895936	71	4953
2026-01-04 22:08:17.84	121.48	10.70	-53.2	-55.3	14.0	0.00e+00	0	28	0	1034944512	71	4899
2026-01-04 22:08:18.85	121.62	10.65	-53.2	-55.3	14.0	0.00e+00	0	28	0	1037041664	71	4877
2026-01-04 22:08:19.85	121.76	10.59	-53.2	-55.3	14.0	0.00e+00	0	28	0	1039138816	71	4893
2026-01-04 22:08:20.85	121.90	10.53	-53.1	-55.1	14.1	0.00e+00	0	28	0	1041235968	71	4810
2026-01-04 22:08:21.86	122.04	10.47	-53.0	-55.0	14.2	0.00e+00	0	28	0	1043333120	71	4749
2026-01-04 22:08:22.87	122.18	10.41	-53.0	-55.0	14.2	0.00e+00	0	28	0	1044381696	71	4737
2026-01-04 22:08:23.88	122.32	10.36	-53.0	-55.1	14.1	0.00e+00	0	28	0	1046478848	71	4762
2026-01-04 22:08:24.89	122.46	10.30	-53.1	-55.2	14.1	0.00e+00	0	28	0	1048576000	71	4825
2026-01-04 22:08:25.90	122.60	10.24	-53.2	-55.4	14.0	0.00e+00	0	28	0	1050673152	71	4942
2026-01-04 22:08:26.91	122.74	10.18	-53.4	-55.6	13.9	0.00e+00	0	28	0	1052770304	71	5082
2026-01-04 22:08:27.91	122.87	10.12	-53.5	-55.8	13.9	0.00e+00	0	28	0	1053818880	72	4881
2026-01-04 22:08:28.92	123.01	10.07	-53.6	-55.8	13.8	0.00e+00	0	28	0	1055916032	72	4921
2026-01-04 22:08:29.93	123.15	10.01	-53.5	-55.8	13.8	0.00e+00	0	28	0	1058013184	72	4893
2026-01-04 22:08:30.94	123.28	9.95	-53.5	-55.7	13.9	0.00e+00	0	28	0	1060110336	72	4870
2026-01-04 22:08:31.95	123.42	9.89	-53.5	-55.7	13.9	0.00e+00	0	28	0	1062207488	72	4851
2026-01-04 22:08:32.96	123.55	9.83	-53.4	-55.7	13.9	0.00e+00	0	28	0	1063256064	72	4823
2026-01-04 22:08:33.97	123.69	9.78	-53.3	-55.5	14.0	0.00e+00	0	28	0	1065353216	72	4728
2026-01-04 22:08:34.98	123.82	9.72	-53.3	-55.5	14.0	0.00e+00	0	28	0	1067450368	72	4723
2026-01-04 22:08:35.98	123.95	9.66	-53.4	-55.6	13.9	0.00e+00	0	28	0	1069547520	72	4804
2026-01-04 22:08:36.99	124.09	9.60	-53.4	-55.6	14.0	0.00e+00	0	28	0	1071644672	72	4763
2026-01-04 22:08:38.00	124.22	9.54	-53.4	-55.6	13.9	0.00e+00	0	28	0	1072693248	72	4806
2026-01-04 22:08:39.01	124.35	9.49	-53.5	-55.8	13.8	0.00e+00	0	28	0	1074790400	72	4903
2026-01-04 22:08:40.02	124.48	9.43	-53.6	-55.9	13.8	0.00e+00	0	28	0	1076887552	72	4954
2026-01-04 22:08:41.03	124.61	9.37	-53.7	-56.0	13.7	0.00e+00	0	28	0	1078984704	72	5008
2026-01-04 22:08:42.03	124.74	9.31	-53.7	-56.1	13.7	0.00e+00	0	28	0	1081081856	72	5055
2026-01-04 22:08:43.04	124.87	9.25	-53.7	-56.1	13.7	0.00e+00	0	28	0	1082130432	72	5057
2026-01-04 22:08:44.05	125.00	9.20	-53.7	-56.1	13.7	0.00e+00	0	28	0	1084227584	72	5072
2026-01-04 22:08:45.06	125.13	9.14	-53.7	-56.0	13.7	0.00e+00	0	28	0	1086324736	72	5021
2026-01-04 22:08:46.07	125.26	9.08	-53.7	-56.1	13.7	0.00e+00	0	28	0	1088421888	72	5078
2026-01-04 22:08:47.08	125.39	9.02	-53.6	-55.9	13.8	0.00e+00	0	28	0	1090519040	72	4960
2026-01-04 22:08:48.08	125.51	8.96	-53.5	-55.8	13.8	0.00e+00	0	28	0	1091567616	72	4898
2026-01-04 22:08:49.09	125.64	8.91	-53.6	-55.9	13.8	0.00e+00	0	28	0	1093664768	72	4970
2026-01-04 22:08:50.10	125.76	8.85	-53.6	-55.9	13.8	0.00e+00	0	28	0	1095761920	72	4964
2026-01-04 22:08:51.11	125.89	8.79	-53.6	-56.0	13.7	0.00e+00	0	28	0	1097859072	72	4992
2026-01-04 22:08:52.12	126.02	8.73	-53.8	-56.2	13.6	0.00e+00	0	28	0	1099956224	72	5120
2026-01-04 22:08:53.12	126.14	8.67	-53.8	-56.2	13.6	0.00e+00	0	28	0	1102053376	72	5127
2026-01-04 22:08:54.13	126.26	8.62	-53.9	-56.4	13.5	0.00e+00	0	28	0	1103101952	72	5260
2026-01-04 22:08:55.14	126.39	8.56	-54.0	-56.6	13.5	0.00e+00	0	28	0	1105199104	73	5062
2026-01-04 22:08:56.15	126.51	8.50	-54.0	-56.6	13.5	0.00e+00	0	28	0	1107296256	73	5056
2026-01-04 22:08:57.15	126.63	8.44	-54.1	-56.8	13.4	0.00e+00	0	28	0	1109393408	73	5169
2026-01-04 22:08:58.16	126.76	8.39	-54.2	-56.8	13.4	0.00e+00	0	28	0	1111490560	73	5192
2026-01-04 22:08:59.17	126.88	8.33	-54.2	-56.9	13.3	0.00e+00	0	28	0	1112539136	73	5269
2026-01-04 22:09:00.18	127.00	8.27	-54.2	-56.8	13.4	0.00e+00	0	28	0	1114636288	73	5187
2026-01-04 22:09:01.19	127.12	8.21	-54.1	-56.7	13.4	0.00e+00	0	28	0	1116733440	73	5149
2026-01-04 22:09:02.20	127.24	8.15	-54.0	-56.6	13.5	0.00e+00	0	28	0	1118830592	73	5063
2026-01-04 22:09:03.21	127.36	8.10	-53.9	-56.4	13.6	0.00e+00	0	28	0	1120927744	73	4946
2026-01-04 22:09:04.21	127.48	8.04	-53.8	-56.2	13.7	0.00e+00	0	28	0	1121976320	73	4851
2026-01-04 22:09:05.22	127.60	7.98	-53.8	-56.3	13.6	0.00e+00	0	28	0	1124073472	73	4871
2026-01-04 22:09:06.22	127.72	7.92	-53.7	-56.2	13.6	0.00e+00	0	28	0	1126170624	73	4838
2026-01-04 22:09:07.23	127.84	7.87	-53.8	-56.3	13.6	0.00e+00	0	28	0	1128267776	73	4915
2026-01-04 22:09:08.24	127.95	7.81	-53.9	-56.4	13.5	0.00e+00	0	28	0	1130364928	73	4979
2026-01-04 22:09:09.25	128.07	7.75	-53.9	-56.3	13.6	0.00e+00	0	28	0	1131413504	73	4926
2026-01-04 22:09:10.26	128.19	7.69	-54.0	-56.7	13.4	0.00e+00	0	28	0	1133510656	73	5101
2026-01-04 22:09:11.25	128.30	7.64	-54.1	-56.7	13.4	0.00e+00	0	28	0	1135607808	73	5154
2026-01-04 22:09:12.27	128.42	7.58	-54.1	-56.8	13.3	0.00e+00	0	28	0	1137704960	73	5192
2026-01-04 22:09:13.28	128.54	7.52	-54.1	-56.8	13.4	0.00e+00	0	28	0	1139802112	73	5163
2026-01-04 22:09:14.29	128.65	7.46	-54.0	-56.7	13.4	0.00e+00	0	28	0	1140850688	73	5103
2026-01-04 22:09:15.29	128.77	7.41	-54.1	-56.8	13.3	0.00e+00	0	28	0	1142947840	73	5173
2026-01-04 22:09:16.30	128.88	7.35	-54.0	-56.6	13.4	0.00e+00	0	28	0	1145044992	73	5088
2026-01-04 22:09:17.32	129.00	7.29	-54.0	-56.6	13.4	0.00e+00	0	28	0	1147142144	73	5093
2026-01-04 22:09:18.32	129.11	7.24	-54.0	-56.7	13.4	0.00e+00	0	28	0	1149239296	73	5118
2026-01-04 22:09:19.33	129.22	7.18	-54.0	-56.6	13.4	0.00e+00	0	28	0	1150287872	73	5093
2026-01-04 22:09:20.34	129.33	7.12	-54.1	-56.7	13.3	0.00e+00	0	28	0	1152385024	73	5132
2026-01-04 22:09:21.35	129.45	7.06	-54.3	-57.0	13.2	0.00e+00	0	28	0	1154482176	73	5318
2026-01-04 22:09:22.36	129.56	7.01	-54.3	-57.1	13.1	0.00e+00	0	28	0	1156579328	73	5363
2026-01-04 22:09:23.37	129.67	6.95	-54.4	-57.2	13.1	0.00e+00	0	28	0	1158676480	73	5461
2026-01-04 22:09:24.38	129.78	6.89	-54.6	-57.5	13.0	0.00e+00	0	28	0	1159725056	74	5316
2026-01-04 22:09:25.39	129.89	6.84	-54.6	-57.6	12.9	0.00e+00	0	28	0	1161822208	74	5389
2026-01-04 22:09:26.40	130.00	6.78	-54.6	-57.7	12.8	0.00e+00	0	28	0	1163919360	74	5430
2026-01-04 22:09:27.41	130.11	6.72	-54.6	-57.7	12.8	0.00e+00	0	28	0	1166016512	74	5405
2026-01-04 22:09:28.42	130.22	6.67	-54.6	-57.7	12.9	0.00e+00	0	28	0	1168113664	74	5413
2026-01-04 22:09:29.42	130.33	6.61	-54.6	-57.5	12.9	0.00e+00	0	28	0	1169162240	74	5332
2026-01-04 22:09:30.43	130.44	6.55	-54.5	-57.4	13.0	0.00e+00	0	28	0	1171259392	74	5247
2026-01-04 22:09:31.44	130.55	6.50	-54.5	-57.4	13.0	0.00e+00	0	28	0	1173356544	74	5260
2026-01-04 22:09:32.45	130.65	6.44	-54.4	-57.3	13.0	0.00e+00	0	28	0	1175453696	74	5177
2026-01-04 22:09:33.46	130.76	6.38	-54.3	-57.2	13.1	0.00e+00	0	28	0	1177550848	74	5108
2026-01-04 22:09:34.46	130.87	6.33	-54.4	-57.4	13.0	0.00e+00	0	28	0	1178599424	74	5232
2026-01-04 22:09:35.47	130.98	6.27	-54.4	-57.2	13.1	0.00e+00	0	28	0	1180696576	74	5149
2026-01-04 22:09:36.48	131.08	6.21	-54.4	-57.3	13.0	0.00e+00	0	28	0	1182793728	74	5165
2026-01-04 22:09:37.49	131.19	6.16	-54.4	-57.4	13.0	0.00e+00	0	28	0	1184890880	74	5226
2026-01-04 22:09:38.50	131.29	6.10	-54.5	-57.5	12.9	0.00e+00	0	28	0	1186988032	74	5281
2026-01-04 22:09:39.51	131.40	6.04	-54.5	-57.6	12.8	0.00e+00	0	28	0	1188036608	74	5356
2026-01-04 22:09:40.52	131.50	5.99	-54.6	-57.7	12.8	0.00e+00	0	28	0	1190133760	74	5436
2026-01-04 22:09:41.53	131.61	5.93	-54.7	-57.8	12.7	0.00e+00	0	28	0	1192230912	74	5528
2026-01-04 22:09:42.54	131.71	5.87	-54.7	-58.0	12.6	0.00e+00	0	28	0	1194328064	74	5598
2026-01-04 22:09:43.55	131.81	5.82	-54.9	-58.2	12.4	0.00e+00	0	28	0	1196425216	74	5762
2026-01-04 22:09:44.56	131.92	5.76	-54.9	-58.3	12.4	7.00e-07	0	28	0	1198522368	75	5469
2026-01-04 22:09:45.57	132.02	5.70	-55.0	-58.5	12.3	0.00e+00	0	28	0	1199570944	75	5609
2026-01-04 22:09:46.58	132.12	5.65	-54.9	-58.4	12.4	0.00e+00	0	28	0	1201668096	75	5531
2026-01-04 22:09:47.59	132.22	5.59	-55.1	-58.6	12.2	7.00e-07	0	28	0	1203765248	75	5722
2026-01-04 22:09:48.60	132.33	5.54	-54.9	-58.4	12.3	7.00e-07	0	28	0	1205862400	75	5543
2026-01-04 22:09:49.61	132.43	5.48	-55.0	-58.4	12.3	0.00e+00	0	28	0	1207959552	75	5583
2026-01-04 22:09:50.61	132.53	5.43	-55.1	-58.7	12.1	7.00e-07	0	28	0	1209008128	75	5765
2026-01-04 22:09:51.62	132.63	5.37	-55.1	-58.7	12.1	7.00e-07	0	28	0	1211105280	75	5755
2026-01-04 22:09:52.63	132.73	5.31	-55.1	-58.7	12.1	7.00e-07	0	28	0	1213202432	75	5750
2026-01-04 22:09:53.64	132.83	5.26	-55.1	-58.6	12.1	7.00e-07	0	28	0	1215299584	75	5714
2026-01-04 22:09:54.65	132.93	5.20	-55.1	-58.7	12.1	1.50e-06	0	28	0	1216348160	75	5780
2026-01-04 22:09:55.65	133.03	5.15	-55.1	-58.6	12.1	7.00e-07	0	28	0	1218445312	75	5721
2026-01-04 22:09:56.66	133.12	5.09	-55.0	-58.7	12.1	7.00e-07	0	28	0	1220542464	75	5734
2026-01-04 22:09:57.67	133.22	5.04	-55.0	-58.7	12.1	3.80e-06	0	28	0	1222639616	75	5737
2026-01-04 22:09:58.67	133.32	4.98	-57.2	-64.3	8.4	1.50e-06	0	28	0	1224736768	79	8675
2026-01-04 22:09:59.68	133.42	4.92	-58.7	-74.7	3.8	1.49e+00	0	28	104	1224736768	82	24161
2026-01-04 22:10:00.70	133.52	4.87	-59.1	-75.1	3.8	1.49e+00	0	29	104	1224736768	83	23883
2026-01-04 22:10:01.70	133.61	4.81	-59.3	-75.4	3.8	1.49e+00	0	28	104	1224736768	83	24754
2026-01-04 22:10:02.71	133.71	4.76	-59.8	-75.8	3.8	1.49e+00	0	28	104	1224736768	84	24533
2026-01-04 22:10:03.72	133.81	4.70	-59.9	-75.9	3.8	1.49e+00	0	28	104	1224736768	84	24960
2026-01-04 22:10:04.73	133.90	4.65	-60.0	-76.1	3.8	1.49e+00	0	28	104	1224736768	85	23973
2026-01-04 22:10:05.73	134.00	4.59	-60.1	-76.2	3.8	1.49e+00	0	28	104	1224736768	85	24261
2026-01-04 22:10:06.74	134.09	4.54	-60.2	-76.3	3.8	1.49e+00	0	28	104	1224736768	85	24496
2026-01-04 22:10:07.75	134.19	4.48	-60.3	-76.4	3.8	1.49e+00	0	28	104	1224736768	85	24703
