passes_logs/2026/01/04/R3.2S_Murmansk/R3.2S_Murmansk__20260104_011730_SUOMI_NPP_rec.log

#Pass ID: 20260104_011730_SUOMI NPP
#Satellite: SUOMI NPP
#Configuration: NPP
#almurnet v.1.7.20251203
#Start time: 2026-01-04 01:17:31

#Version: 2.2.20231116
#Station: R3.2S_Murmansk
#Location: 33.079688 lon 68.888172 lat
#TLE: 1 37849U 11061A   26001.07732418  .00000182  00000+0  10735-3 0  9990
#TLE: 2 37849  98.7795 303.2470 0002580  87.2016 272.9455 14.19520779734739

#Time	Az	El	Level	Level2	SNR	BER	BlckErr	Temp	State	Recorded	gain1	gain2
2026-01-04 01:17:31.29	26.75	2.07	-58.5	-74.5	3.8	1.49e+00	0	27	0	0	83	22440
2026-01-04 01:17:32.28	26.74	2.13	-58.5	-74.5	3.8	1.49e+00	0	27	104	0	82	23673
2026-01-04 01:17:33.28	26.73	2.19	-58.5	-74.5	3.8	1.49e+00	0	27	104	0	82	23669
2026-01-04 01:17:34.29	26.72	2.26	-58.5	-74.5	3.8	1.49e+00	0	27	104	0	82	23648
2026-01-04 01:17:35.28	26.71	2.32	-58.5	-74.5	3.8	1.49e+00	0	27	104	0	82	23698
2026-01-04 01:17:36.27	26.70	2.39	-58.5	-74.5	3.8	1.49e+00	0	27	104	0	82	23708
2026-01-04 01:17:37.26	26.69	2.45	-58.5	-74.5	3.8	1.49e+00	0	27	104	0	82	23693
2026-01-04 01:17:38.26	26.68	2.52	-58.5	-74.5	3.8	1.49e+00	0	27	104	0	82	23680
2026-01-04 01:17:39.26	26.67	2.58	-58.5	-74.5	3.8	1.49e+00	0	27	104	0	82	23641
2026-01-04 01:17:40.27	26.66	2.65	-58.5	-74.5	3.8	1.49e+00	0	27	104	0	82	23614
2026-01-04 01:17:41.27	26.65	2.71	-58.5	-74.5	3.8	1.49e+00	0	27	104	0	82	23633
2026-01-04 01:17:42.27	26.64	2.78	-58.5	-74.5	3.8	1.49e+00	0	27	104	0	82	23691
2026-01-04 01:17:43.27	26.63	2.84	-58.5	-74.5	3.8	1.49e+00	0	27	104	0	82	23607
2026-01-04 01:17:44.27	26.61	2.91	-58.5	-74.5	3.8	1.49e+00	0	27	104	0	82	23614
2026-01-04 01:17:45.27	26.60	2.97	-58.5	-74.4	3.8	1.49e+00	0	27	104	0	82	23539
2026-01-04 01:17:46.27	26.59	3.04	-58.5	-74.4	3.8	1.49e+00	0	27	104	0	82	23511
2026-01-04 01:17:47.27	26.58	3.11	-58.4	-74.3	3.8	1.49e+00	0	27	104	0	82	23276
2026-01-04 01:17:48.27	26.57	3.17	-58.4	-74.2	3.8	1.49e+00	0	27	104	0	82	23016
2026-01-04 01:17:49.27	26.56	3.24	-58.4	-74.1	3.8	1.49e+00	0	27	104	0	82	22569
2026-01-04 01:17:50.26	26.55	3.30	-58.4	-73.9	3.8	1.49e+00	0	27	104	0	82	22172
2026-01-04 01:17:51.27	26.54	3.37	-58.4	-73.7	3.8	1.49e+00	0	27	104	0	82	21675
2026-01-04 01:17:52.27	26.53	3.44	-58.4	-73.5	3.8	1.49e+00	0	27	104	0	82	21205
2026-01-04 01:17:53.27	26.51	3.51	-58.4	-73.4	3.8	1.49e+00	0	27	104	0	82	20885
2026-01-04 01:17:54.27	26.50	3.57	-58.4	-73.4	3.8	1.49e+00	0	27	104	0	82	20808
2026-01-04 01:17:55.27	26.49	3.64	-58.4	-73.4	3.8	1.49e+00	0	27	104	0	82	20829
2026-01-04 01:17:56.28	26.48	3.71	-58.4	-73.2	3.8	1.49e+00	0	27	104	0	82	20526
2026-01-04 01:17:57.28	26.47	3.78	-58.4	-73.3	3.8	1.49e+00	0	27	104	0	82	20699
2026-01-04 01:17:58.27	26.46	3.84	-58.4	-73.4	3.8	1.49e+00	0	27	104	0	82	20802
2026-01-04 01:17:59.28	26.44	3.91	-58.4	-73.7	3.8	1.49e+00	0	27	104	0	82	21613
2026-01-04 01:18:00.28	26.43	3.98	-58.4	-74.0	3.8	1.49e+00	0	27	104	0	82	22433
2026-01-04 01:18:01.27	26.42	4.05	-58.4	-74.1	3.8	1.49e+00	0	27	104	0	82	22683
2026-01-04 01:18:02.27	26.41	4.12	-58.4	-74.0	3.8	1.49e+00	0	27	104	0	82	22388
2026-01-04 01:18:03.27	26.40	4.18	-58.4	-73.6	3.8	1.49e+00	0	27	104	0	82	21408
2026-01-04 01:18:04.26	26.38	4.25	-58.4	-72.9	3.8	1.49e+00	0	27	104	0	82	19740
2026-01-04 01:18:05.27	26.37	4.32	-58.3	-72.1	3.9	1.49e+00	0	27	104	0	82	17919
2026-01-04 01:18:06.28	26.36	4.39	-58.3	-71.1	4.2	1.48e+00	0	27	0	0	82	16047
2026-01-04 01:18:07.27	26.35	4.46	-58.2	-70.2	4.4	1.28e+00	62	27	0	0	82	14376
2026-01-04 01:18:08.28	26.33	4.53	-58.1	-68.8	5.0	8.41e-01	0	28	0	2097152	82	12277
2026-01-04 01:18:09.27	26.32	4.60	-58.0	-67.7	5.6	4.46e-01	0	27	0	4194304	82	10894
2026-01-04 01:18:10.27	26.31	4.67	-57.8	-66.6	6.3	2.83e-01	0	28	0	5242880	82	9570
2026-01-04 01:18:11.27	26.30	4.74	-57.7	-66.3	6.5	1.89e-01	0	27	0	7340032	82	9221
2026-01-04 01:18:12.27	26.28	4.81	-57.7	-66.1	6.7	1.52e-01	0	27	0	9437184	82	8992
2026-01-04 01:18:13.27	26.27	4.88	-57.6	-65.8	6.8	1.21e-01	0	28	0	11534336	81	9274
2026-01-04 01:18:14.26	26.26	4.95	-57.5	-65.2	7.4	7.93e-02	0	28	0	13631488	81	8585
2026-01-04 01:18:15.27	26.24	5.02	-57.6	-65.8	7.0	7.86e-02	0	28	0	14680064	81	9177
2026-01-04 01:18:16.27	26.23	5.09	-58.3	-70.4	4.0	1.32e+00	0	28	104	15728640	81	15706
2026-01-04 01:18:17.27	26.22	5.17	-56.1	-60.9	11.0	6.84e-02	0	28	0	16777216	77	6588
2026-01-04 01:18:18.28	26.20	5.24	-58.1	-68.8	4.9	8.51e-01	0	28	0	17825792	81	13052
2026-01-04 01:18:19.28	26.19	5.31	-56.4	-61.0	10.9	1.29e-02	0	28	0	19922944	79	5967
2026-01-04 01:18:20.28	26.18	5.38	-57.3	-64.3	7.9	1.33e-02	0	27	0	22020096	80	8256
2026-01-04 01:18:21.28	26.16	5.45	-55.6	-59.7	11.8	7.60e-06	0	28	0	24117248	77	5755
2026-01-04 01:18:22.28	26.15	5.53	-55.4	-59.3	12.1	1.50e-06	0	28	0	25165824	77	5495
2026-01-04 01:18:23.28	26.13	5.60	-55.2	-58.9	12.3	7.00e-07	0	28	0	27262976	77	5261
2026-01-04 01:18:24.28	26.12	5.67	-54.9	-58.4	12.7	7.00e-07	0	28	0	29360128	76	5227
2026-01-04 01:18:25.28	26.11	5.74	-54.5	-57.7	13.0	0.00e+00	0	28	0	31457280	75	5112
2026-01-04 01:18:26.28	26.09	5.82	-54.4	-57.6	13.0	0.00e+00	0	28	0	33554432	75	5049
2026-01-04 01:18:27.27	26.08	5.89	-54.3	-57.5	13.1	0.00e+00	0	28	0	34603008	75	5006
2026-01-04 01:18:28.27	26.06	5.96	-54.4	-57.5	13.1	0.00e+00	0	28	0	36700160	75	5008
2026-01-04 01:18:29.27	26.05	6.04	-54.2	-57.2	13.2	0.00e+00	0	28	0	38797312	74	5149
2026-01-04 01:18:30.27	26.03	6.11	-54.0	-56.9	13.4	0.00e+00	0	28	0	40894464	74	4973
2026-01-04 01:18:31.27	26.02	6.18	-54.1	-57.0	13.3	0.00e+00	0	28	0	42991616	74	5038
2026-01-04 01:18:32.26	26.01	6.26	-54.1	-57.1	13.2	0.00e+00	0	28	0	44040192	74	5086
2026-01-04 01:18:33.26	25.99	6.33	-54.1	-57.2	13.3	0.00e+00	0	28	0	46137344	74	5101
2026-01-04 01:18:34.26	25.98	6.41	-54.3	-57.3	13.2	0.00e+00	0	28	0	48234496	74	5213
2026-01-04 01:18:35.26	25.96	6.48	-54.0	-56.9	13.4	0.00e+00	0	28	0	50331648	74	4945
2026-01-04 01:18:36.26	25.95	6.56	-53.9	-56.7	13.5	0.00e+00	0	28	0	52428800	74	4866
2026-01-04 01:18:37.25	25.93	6.63	-54.0	-56.9	13.4	0.00e+00	0	28	0	53477376	74	4953
2026-01-04 01:18:38.26	25.92	6.71	-53.8	-56.5	13.6	0.00e+00	0	28	0	55574528	74	4758
2026-01-04 01:18:39.26	25.90	6.78	-53.8	-56.7	13.6	0.00e+00	0	28	0	57671680	74	4822
2026-01-04 01:18:40.26	25.88	6.86	-53.8	-56.6	13.6	0.00e+00	0	28	0	59768832	74	4790
2026-01-04 01:18:41.26	25.87	6.94	-53.7	-56.4	13.7	0.00e+00	0	28	0	60817408	73	4942
2026-01-04 01:18:42.27	25.85	7.01	-53.6	-56.3	13.7	0.00e+00	0	28	0	62914560	73	4913
2026-01-04 01:18:43.27	25.84	7.09	-53.6	-56.2	13.7	0.00e+00	0	28	0	65011712	73	4861
2026-01-04 01:18:44.28	25.82	7.17	-53.6	-56.3	13.7	0.00e+00	0	28	0	67108864	73	4898
2026-01-04 01:18:45.27	25.81	7.24	-53.7	-56.5	13.6	0.00e+00	0	28	0	69206016	73	5006
2026-01-04 01:18:46.27	25.79	7.32	-53.5	-56.2	13.8	0.00e+00	0	28	0	70254592	73	4819
2026-01-04 01:18:47.26	25.77	7.40	-53.5	-56.1	13.8	0.00e+00	0	28	0	72351744	73	4797
2026-01-04 01:18:48.25	25.76	7.47	-53.4	-56.0	13.9	0.00e+00	0	28	0	74448896	73	4714
2026-01-04 01:18:49.25	25.74	7.55	-53.4	-56.0	13.9	0.00e+00	0	28	0	76546048	73	4744
2026-01-04 01:18:50.24	25.72	7.63	-53.4	-56.0	13.9	0.00e+00	0	28	0	78643200	73	4733
2026-01-04 01:18:51.24	25.71	7.71	-53.6	-56.3	13.7	0.00e+00	0	28	0	79691776	73	4883
2026-01-04 01:18:52.23	25.69	7.79	-53.5	-56.1	13.8	0.00e+00	0	28	0	81788928	73	4790
2026-01-04 01:18:53.23	25.67	7.86	-53.5	-56.1	13.8	0.00e+00	0	28	0	83886080	73	4800
2026-01-04 01:18:54.23	25.66	7.94	-53.4	-55.9	13.9	0.00e+00	0	28	0	85983232	73	4687
2026-01-04 01:18:55.23	25.64	8.02	-53.4	-56.0	13.9	0.00e+00	0	28	0	88080384	73	4724
2026-01-04 01:18:56.23	25.62	8.10	-53.4	-55.9	13.9	0.00e+00	0	28	0	89128960	73	4679
2026-01-04 01:18:57.23	25.60	8.18	-53.3	-55.9	14.0	0.00e+00	0	28	0	91226112	73	4657
2026-01-04 01:18:58.22	25.59	8.26	-53.4	-55.9	14.0	0.00e+00	0	28	0	93323264	73	4673
2026-01-04 01:18:59.22	25.57	8.34	-53.4	-55.9	13.9	0.00e+00	0	28	0	95420416	73	4705
2026-01-04 01:19:00.22	25.55	8.42	-53.3	-55.8	14.0	0.00e+00	0	28	0	96468992	73	4627
2026-01-04 01:19:01.21	25.53	8.50	-53.6	-56.2	13.8	0.00e+00	0	28	0	98566144	73	4832
2026-01-04 01:19:02.21	25.52	8.59	-53.3	-55.7	14.0	0.00e+00	0	28	0	100663296	73	4585
2026-01-04 01:19:03.21	25.50	8.67	-53.1	-55.6	14.0	0.00e+00	0	28	0	102760448	72	4761
2026-01-04 01:19:04.21	25.48	8.75	-53.3	-55.7	13.9	0.00e+00	0	28	0	104857600	72	4860
2026-01-04 01:19:05.20	25.46	8.83	-53.2	-55.6	14.0	0.00e+00	0	28	0	105906176	72	4779
2026-01-04 01:19:06.20	25.44	8.91	-53.2	-55.7	14.0	0.00e+00	0	28	0	108003328	72	4840
2026-01-04 01:19:07.20	25.42	8.99	-53.2	-55.7	14.0	0.00e+00	0	28	0	110100480	72	4820
2026-01-04 01:19:08.20	25.41	9.08	-53.2	-55.6	14.0	0.00e+00	0	28	0	112197632	72	4790
2026-01-04 01:19:09.20	25.39	9.16	-53.4	-55.9	13.9	0.00e+00	0	28	0	113246208	72	4951
2026-01-04 01:19:10.20	25.37	9.24	-53.2	-55.6	14.0	0.00e+00	0	28	0	115343360	72	4786
2026-01-04 01:19:11.20	25.35	9.33	-53.2	-55.7	14.0	0.00e+00	0	28	0	117440512	72	4825
2026-01-04 01:19:12.20	25.33	9.41	-53.0	-55.3	14.0	0.00e+00	0	28	0	119537664	72	4645
2026-01-04 01:19:13.19	25.31	9.49	-53.2	-55.5	14.0	0.00e+00	0	28	0	121634816	72	4717
2026-01-04 01:19:14.19	25.29	9.58	-53.2	-55.6	14.0	0.00e+00	0	28	0	122683392	72	4782
2026-01-04 01:19:15.19	25.27	9.66	-53.2	-55.6	14.0	0.00e+00	0	28	0	124780544	72	4792
2026-01-04 01:19:16.19	25.25	9.75	-52.3	-54.4	14.4	0.00e+00	0	28	0	126877696	71	4429
2026-01-04 01:19:17.19	25.23	9.83	-52.7	-54.9	14.0	2.20e-06	0	28	0	128974848	72	4441
2026-01-04 01:19:18.19	25.21	9.92	-53.4	-55.8	14.1	0.00e+00	0	28	0	131072000	72	4921
2026-01-04 01:19:19.19	25.19	10.01	-53.1	-55.4	14.0	0.00e+00	0	28	0	132120576	71	4948
2026-01-04 01:19:20.19	25.17	10.09	-53.0	-55.3	14.0	0.00e+00	0	28	0	134217728	71	4912
2026-01-04 01:19:21.19	25.15	10.18	-53.0	-55.3	14.0	0.00e+00	0	28	0	136314880	71	4909
2026-01-04 01:19:22.18	25.13	10.26	-53.1	-55.4	14.0	0.00e+00	0	28	0	138412032	71	4943
2026-01-04 01:19:23.18	25.11	10.35	-53.0	-55.3	14.1	0.00e+00	0	28	0	139460608	71	4900
2026-01-04 01:19:24.18	25.09	10.44	-53.1	-55.4	14.0	0.00e+00	0	28	0	141557760	71	4946
2026-01-04 01:19:25.18	25.07	10.53	-53.0	-55.3	14.0	0.00e+00	0	28	0	143654912	71	4908
2026-01-04 01:19:26.18	25.05	10.61	-53.0	-55.3	14.1	0.00e+00	0	28	0	145752064	71	4906
2026-01-04 01:19:27.18	25.02	10.70	-53.0	-55.2	14.1	0.00e+00	0	28	0	147849216	71	4865
2026-01-04 01:19:28.18	25.00	10.79	-52.9	-55.2	14.1	0.00e+00	0	28	0	148897792	71	4848
2026-01-04 01:19:29.18	24.98	10.88	-52.8	-55.1	14.2	0.00e+00	0	28	0	150994944	71	4763
2026-01-04 01:19:30.17	24.96	10.97	-52.9	-55.1	14.2	0.00e+00	0	28	0	153092096	71	4809
2026-01-04 01:19:31.17	24.94	11.06	-53.1	-55.3	14.0	0.00e+00	0	28	0	155189248	71	4922
2026-01-04 01:19:32.17	24.91	11.15	-52.9	-55.2	14.1	0.00e+00	0	28	0	156237824	71	4835
2026-01-04 01:19:33.17	24.89	11.24	-53.0	-55.3	14.1	0.00e+00	0	28	0	158334976	71	4898
2026-01-04 01:19:34.16	24.87	11.33	-52.9	-55.1	14.2	0.00e+00	0	28	0	160432128	71	4772
2026-01-04 01:19:35.16	24.85	11.42	-52.8	-55.0	14.2	0.00e+00	0	28	0	162529280	71	4730
2026-01-04 01:19:36.16	24.82	11.51	-52.7	-54.9	14.3	0.00e+00	0	28	0	164626432	71	4662
2026-01-04 01:19:37.16	24.80	11.60	-52.7	-54.8	14.3	0.00e+00	0	28	0	165675008	71	4626
2026-01-04 01:19:38.16	24.78	11.69	-52.8	-54.9	14.2	0.00e+00	0	28	0	167772160	71	4693
2026-01-04 01:19:39.15	24.75	11.79	-52.8	-55.1	14.2	0.00e+00	0	28	0	169869312	71	4762
2026-01-04 01:19:40.15	24.73	11.88	-52.7	-54.8	14.3	0.00e+00	0	28	0	171966464	71	4642
2026-01-04 01:19:41.15	24.71	11.97	-52.7	-54.9	14.3	0.00e+00	0	28	0	174063616	71	4663
2026-01-04 01:19:42.15	24.68	12.06	-52.7	-54.8	14.3	0.00e+00	0	28	0	175112192	71	4634
2026-01-04 01:19:43.15	24.66	12.16	-52.6	-54.7	14.4	0.00e+00	0	28	0	177209344	71	4553
2026-01-04 01:19:44.15	24.64	12.25	-52.5	-54.6	14.4	0.00e+00	0	28	0	179306496	71	4504
2026-01-04 01:19:45.15	24.61	12.35	-52.6	-54.7	14.4	0.00e+00	0	28	0	181403648	71	4553
2026-01-04 01:19:46.15	24.59	12.44	-52.4	-54.4	14.5	0.00e+00	0	28	0	183500800	71	4439
2026-01-04 01:19:47.15	24.56	12.54	-52.4	-54.5	14.5	0.00e+00	0	28	0	184549376	71	4449
2026-01-04 01:19:48.14	24.54	12.63	-52.3	-54.4	14.5	0.00e+00	0	28	0	186646528	71	4408
2026-01-04 01:19:49.14	24.51	12.73	-52.4	-54.4	14.5	0.00e+00	0	28	0	188743680	71	4417
2026-01-04 01:19:50.14	24.49	12.82	-52.3	-54.3	14.5	0.00e+00	0	28	0	190840832	71	4382
2026-01-04 01:19:51.14	24.46	12.92	-52.3	-54.3	14.5	0.00e+00	0	28	0	191889408	71	4386
2026-01-04 01:19:52.14	24.43	13.02	-52.2	-54.2	14.6	0.00e+00	0	28	0	193986560	71	4339
2026-01-04 01:19:53.14	24.41	13.11	-52.2	-54.2	14.6	0.00e+00	0	28	0	196083712	71	4334
2026-01-04 01:19:54.14	24.38	13.21	-52.2	-54.2	14.5	0.00e+00	0	28	0	198180864	70	4576
2026-01-04 01:19:55.13	24.36	13.31	-52.2	-54.2	14.5	0.00e+00	0	28	0	200278016	70	4581
2026-01-04 01:19:56.13	24.33	13.41	-52.1	-54.1	14.5	0.00e+00	0	28	0	201326592	70	4511
2026-01-04 01:19:57.13	24.30	13.51	-52.1	-54.2	14.5	0.00e+00	0	28	0	203423744	70	4548
2026-01-04 01:19:58.12	24.28	13.60	-52.1	-54.1	14.5	0.00e+00	0	28	0	205520896	70	4522
2026-01-04 01:19:59.12	24.25	13.70	-52.1	-54.0	14.6	0.00e+00	0	28	0	207618048	70	4489
2026-01-04 01:20:00.10	24.22	13.80	-52.1	-54.1	14.5	0.00e+00	0	28	0	208666624	70	4511
2026-01-04 01:20:01.10	24.19	13.90	-52.1	-54.1	14.5	0.00e+00	0	28	0	210763776	70	4537
2026-01-04 01:20:02.09	24.17	14.00	-52.1	-54.1	14.6	0.00e+00	0	28	0	212860928	70	4515
2026-01-04 01:20:03.08	24.14	14.10	-52.1	-54.1	14.5	0.00e+00	0	29	0	214958080	70	4510
2026-01-04 01:20:04.08	24.11	14.20	-52.1	-54.1	14.5	0.00e+00	0	28	0	217055232	70	4530
2026-01-04 01:20:05.07	24.08	14.31	-52.0	-54.0	14.6	0.00e+00	0	28	0	218103808	70	4470
2026-01-04 01:20:06.06	24.05	14.41	-52.1	-54.1	14.5	0.00e+00	0	28	0	220200960	70	4497
2026-01-04 01:20:07.06	24.02	14.51	-51.9	-53.8	14.7	0.00e+00	0	28	0	222298112	70	4362
2026-01-04 01:20:08.06	24.00	14.61	-51.8	-53.7	14.6	0.00e+00	0	28	0	224395264	70	4329
2026-01-04 01:20:09.06	23.97	14.72	-51.8	-53.7	14.7	0.00e+00	0	28	0	225443840	70	4296
2026-01-04 01:20:10.06	23.94	14.82	-51.7	-53.6	14.7	0.00e+00	0	28	0	227540992	70	4277
2026-01-04 01:20:11.04	23.91	14.92	-51.6	-53.5	14.6	0.00e+00	0	28	0	229638144	69	4482
2026-01-04 01:20:12.04	23.88	15.03	-51.6	-53.4	14.7	0.00e+00	0	28	0	231735296	69	4431
2026-01-04 01:20:13.04	23.85	15.13	-51.6	-53.4	14.7	0.00e+00	0	28	0	233832448	69	4423
2026-01-04 01:20:14.04	23.82	15.24	-51.5	-53.3	14.7	0.00e+00	0	28	0	234881024	69	4385
2026-01-04 01:20:15.04	23.79	15.35	-51.5	-53.3	14.7	0.00e+00	0	28	0	236978176	69	4375
2026-01-04 01:20:16.04	23.75	15.45	-51.4	-53.2	14.8	0.00e+00	0	28	0	239075328	69	4325
2026-01-04 01:20:17.04	23.72	15.56	-51.4	-53.2	14.8	0.00e+00	0	28	0	241172480	69	4332
2026-01-04 01:20:18.03	23.69	15.67	-51.4	-53.3	14.8	0.00e+00	0	28	0	243269632	69	4350
2026-01-04 01:20:19.03	23.66	15.78	-51.4	-53.2	14.8	0.00e+00	0	28	0	244318208	69	4314
2026-01-04 01:20:20.04	23.63	15.89	-51.3	-53.1	14.8	0.00e+00	0	28	0	246415360	69	4285
2026-01-04 01:20:21.03	23.59	15.99	-51.2	-53.0	14.8	0.00e+00	0	28	0	248512512	69	4231
2026-01-04 01:20:22.03	23.56	16.10	-51.3	-53.0	14.9	0.00e+00	0	28	0	250609664	69	4240
2026-01-04 01:20:23.03	23.53	16.21	-51.3	-53.0	14.9	0.00e+00	0	28	0	252706816	69	4229
2026-01-04 01:20:24.04	23.50	16.33	-51.2	-53.0	14.9	0.00e+00	0	28	0	253755392	69	4209
2026-01-04 01:20:25.04	23.46	16.44	-51.2	-53.0	14.8	0.00e+00	0	28	0	255852544	68	4457
2026-01-04 01:20:26.04	23.43	16.55	-51.3	-53.1	14.7	0.00e+00	0	28	0	257949696	68	4516
2026-01-04 01:20:27.04	23.39	16.66	-51.3	-53.0	14.7	0.00e+00	0	28	0	260046848	68	4492
2026-01-04 01:20:28.04	23.36	16.77	-51.3	-53.0	14.8	0.00e+00	0	28	0	261095424	68	4486
2026-01-04 01:20:29.04	23.33	16.89	-51.3	-53.1	14.8	0.00e+00	0	28	0	263192576	68	4503
2026-01-04 01:20:30.03	23.29	17.00	-51.3	-53.1	14.8	0.00e+00	0	28	0	265289728	68	4503
2026-01-04 01:20:31.03	23.26	17.11	-51.3	-53.1	14.7	0.00e+00	0	28	0	267386880	68	4516
2026-01-04 01:20:32.03	23.22	17.23	-51.3	-53.1	14.8	0.00e+00	0	28	0	269484032	68	4494
2026-01-04 01:20:33.03	23.18	17.34	-51.3	-53.1	14.8	0.00e+00	0	28	0	270532608	68	4509
2026-01-04 01:20:34.03	23.15	17.46	-51.4	-53.2	14.7	0.00e+00	0	28	0	272629760	68	4564
2026-01-04 01:20:35.02	23.11	17.58	-51.5	-53.3	14.7	0.00e+00	0	28	0	274726912	68	4629
2026-01-04 01:20:36.02	23.08	17.69	-51.5	-53.3	14.7	0.00e+00	0	28	0	276824064	68	4647
2026-01-04 01:20:37.02	23.04	17.81	-51.5	-53.3	14.7	0.00e+00	0	28	0	277872640	68	4640
2026-01-04 01:20:38.02	23.00	17.93	-51.4	-53.2	14.7	0.00e+00	0	29	0	279969792	68	4571
2026-01-04 01:20:39.02	22.96	18.05	-51.5	-53.2	14.7	0.00e+00	0	28	0	282066944	68	4593
2026-01-04 01:20:40.02	22.92	18.17	-51.4	-53.2	14.7	0.00e+00	0	29	0	284164096	68	4565
2026-01-04 01:20:41.01	22.89	18.28	-51.4	-53.2	14.7	0.00e+00	0	28	0	286261248	68	4572
2026-01-04 01:20:42.00	22.85	18.40	-51.5	-53.2	14.7	0.00e+00	0	28	0	287309824	68	4591
2026-01-04 01:20:43.00	22.81	18.52	-51.5	-53.3	14.7	0.00e+00	0	28	0	289406976	68	4610
2026-01-04 01:20:44.01	22.77	18.65	-51.3	-53.1	14.8	0.00e+00	0	28	0	291504128	68	4503
2026-01-04 01:20:45.00	22.73	18.77	-51.5	-53.2	14.7	0.00e+00	0	28	0	293601280	68	4588
2026-01-04 01:20:46.01	22.69	18.89	-51.4	-53.2	14.7	0.00e+00	0	28	0	295698432	68	4574
2026-01-04 01:20:47.01	22.65	19.01	-51.4	-53.2	14.8	0.00e+00	0	28	0	296747008	68	4548
2026-01-04 01:20:48.01	22.61	19.14	-51.3	-53.1	14.8	0.00e+00	0	29	0	298844160	68	4500
2026-01-04 01:20:49.00	22.57	19.26	-51.3	-53.0	14.8	0.00e+00	0	29	0	300941312	68	4479
2026-01-04 01:20:50.00	22.53	19.39	-51.4	-53.1	14.8	0.00e+00	0	28	0	303038464	68	4502
2026-01-04 01:20:51.01	22.48	19.51	-51.5	-53.2	14.7	0.00e+00	0	28	0	304087040	68	4573
2026-01-04 01:20:52.00	22.44	19.64	-51.3	-53.0	14.8	0.00e+00	0	28	0	306184192	68	4493
2026-01-04 01:20:53.00	22.40	19.77	-51.3	-53.0	14.8	0.00e+00	0	28	0	308281344	68	4466
2026-01-04 01:20:54.00	22.36	19.89	-51.4	-53.1	14.8	0.00e+00	0	28	0	310378496	68	4527
2026-01-04 01:20:54.99	22.31	20.02	-51.4	-53.1	14.8	0.00e+00	0	28	0	312475648	68	4496
2026-01-04 01:20:55.99	22.27	20.15	-51.3	-52.9	14.8	0.00e+00	0	28	0	313524224	68	4438
2026-01-04 01:20:56.99	22.23	20.28	-51.3	-52.9	14.8	0.00e+00	0	28	0	315621376	68	4440
2026-01-04 01:20:57.99	22.18	20.41	-51.2	-52.9	14.8	0.00e+00	0	28	0	317718528	68	4415
2026-01-04 01:20:58.99	22.14	20.54	-51.3	-52.9	14.8	0.00e+00	0	28	0	319815680	68	4431
2026-01-04 01:21:00.00	22.09	20.67	-51.2	-52.9	14.8	0.00e+00	0	28	0	321912832	68	4421
2026-01-04 01:21:01.00	22.04	20.80	-51.3	-52.9	14.8	0.00e+00	0	28	0	322961408	68	4434
2026-01-04 01:21:01.99	22.00	20.94	-51.2	-52.9	14.9	0.00e+00	0	28	0	325058560	68	4402
2026-01-04 01:21:02.99	21.95	21.07	-51.3	-52.9	14.8	0.00e+00	0	28	0	327155712	68	4422
2026-01-04 01:21:03.99	21.90	21.20	-51.1	-52.7	14.9	0.00e+00	0	28	0	329252864	68	4325
2026-01-04 01:21:04.98	21.86	21.34	-51.1	-52.7	14.9	0.00e+00	0	28	0	331350016	68	4324
2026-01-04 01:21:05.99	21.81	21.47	-51.3	-53.0	14.8	0.00e+00	0	28	0	332398592	68	4450
2026-01-04 01:21:06.99	21.76	21.61	-51.2	-52.8	14.9	0.00e+00	0	29	0	334495744	68	4386
2026-01-04 01:21:07.98	21.71	21.75	-51.1	-52.8	14.9	0.00e+00	0	29	0	336592896	68	4351
2026-01-04 01:21:08.97	21.66	21.88	-51.2	-52.9	14.9	0.00e+00	0	28	0	338690048	68	4401
2026-01-04 01:21:09.97	21.61	22.02	-51.3	-52.9	14.8	0.00e+00	0	29	0	339738624	68	4440
2026-01-04 01:21:10.97	21.56	22.16	-51.3	-52.9	14.8	0.00e+00	0	29	0	341835776	68	4425
2026-01-04 01:21:11.97	21.51	22.30	-51.1	-52.8	14.9	0.00e+00	0	29	0	343932928	68	4355
2026-01-04 01:21:12.98	21.46	22.44	-51.4	-53.1	14.8	0.00e+00	0	28	0	346030080	68	4517
2026-01-04 01:21:13.97	21.41	22.58	-51.5	-53.2	14.7	0.00e+00	0	28	0	348127232	68	4580
2026-01-04 01:21:14.97	21.35	22.72	-51.5	-53.2	14.7	0.00e+00	0	29	0	349175808	68	4581
2026-01-04 01:21:15.97	21.30	22.87	-51.5	-53.3	14.7	0.00e+00	0	29	0	351272960	68	4614
2026-01-04 01:21:16.96	21.25	23.01	-51.5	-53.3	14.7	0.00e+00	0	29	0	353370112	68	4613
2026-01-04 01:21:17.97	21.19	23.15	-51.3	-53.0	14.8	0.00e+00	0	28	0	355467264	68	4489
2026-01-04 01:21:18.97	21.14	23.30	-51.4	-53.1	14.8	0.00e+00	0	29	0	356515840	68	4507
2026-01-04 01:21:19.97	21.08	23.45	-51.2	-52.8	14.9	0.00e+00	0	28	0	358612992	68	4381
2026-01-04 01:21:20.97	21.03	23.59	-51.3	-52.9	14.8	0.00e+00	0	28	0	360710144	68	4437
2026-01-04 01:21:21.97	20.97	23.74	-51.4	-53.0	14.8	0.00e+00	0	29	0	362807296	68	4491
2026-01-04 01:21:22.98	20.91	23.89	-51.3	-53.0	14.9	0.00e+00	0	29	0	364904448	68	4444
2026-01-04 01:21:23.97	20.86	24.04	-51.3	-53.0	14.8	0.00e+00	0	28	0	365953024	68	4475
2026-01-04 01:21:24.98	20.80	24.19	-51.3	-53.0	14.8	0.00e+00	0	28	0	368050176	68	4467
2026-01-04 01:21:25.97	20.74	24.34	-51.4	-53.1	14.8	0.00e+00	0	29	0	370147328	68	4520
2026-01-04 01:21:26.97	20.68	24.49	-51.5	-53.3	14.7	0.00e+00	0	29	0	372244480	68	4600
2026-01-04 01:21:27.96	20.62	24.64	-51.4	-53.1	14.8	0.00e+00	0	29	0	374341632	68	4543
2026-01-04 01:21:28.96	20.56	24.79	-51.8	-53.7	14.6	0.00e+00	0	28	0	375390208	68	4820
2026-01-04 01:21:29.96	20.50	24.95	-52.0	-53.8	14.7	0.00e+00	0	28	0	377487360	69	4645
2026-01-04 01:21:30.95	20.44	25.10	-52.3	-54.2	14.5	0.00e+00	0	29	0	379584512	69	4818
2026-01-04 01:21:31.95	20.38	25.26	-52.4	-54.4	14.4	0.00e+00	0	28	0	381681664	69	4932
2026-01-04 01:21:32.95	20.31	25.42	-52.5	-54.4	14.5	0.00e+00	0	29	0	382730240	70	4703
2026-01-04 01:21:33.94	20.25	25.57	-52.5	-54.4	14.5	0.00e+00	0	29	0	384827392	70	4699
2026-01-04 01:21:34.93	20.19	25.73	-52.5	-54.5	14.5	0.00e+00	0	28	0	386924544	70	4719
2026-01-04 01:21:35.93	20.12	25.89	-52.2	-54.1	14.7	0.00e+00	0	28	0	389021696	70	4495
2026-01-04 01:21:36.93	20.06	26.05	-52.4	-54.4	14.5	0.00e+00	0	28	0	391118848	70	4656
2026-01-04 01:21:37.93	19.99	26.21	-52.4	-54.3	14.6	0.00e+00	0	28	0	392167424	70	4605
2026-01-04 01:21:38.93	19.92	26.37	-52.4	-54.3	14.5	0.00e+00	0	29	0	394264576	70	4602
2026-01-04 01:21:39.93	19.86	26.54	-52.5	-54.4	14.5	0.00e+00	0	29	0	396361728	70	4686
2026-01-04 01:21:40.92	19.79	26.70	-52.5	-54.4	14.5	0.00e+00	0	28	0	398458880	70	4703
2026-01-04 01:21:41.92	19.72	26.86	-52.7	-54.6	14.4	0.00e+00	0	29	0	400556032	70	4799
2026-01-04 01:21:42.93	19.65	27.03	-53.0	-55.1	14.3	0.00e+00	0	28	0	401604608	71	4770
2026-01-04 01:21:43.93	19.58	27.20	-52.9	-54.9	14.4	0.00e+00	0	28	0	403701760	71	4671
2026-01-04 01:21:44.93	19.50	27.37	-53.3	-55.6	14.1	0.00e+00	0	29	0	405798912	71	5051
2026-01-04 01:21:45.93	19.43	27.54	-53.5	-55.8	14.1	0.00e+00	0	28	0	407896064	72	4887
2026-01-04 01:21:46.94	19.36	27.71	-53.6	-56.0	14.2	0.00e+00	0	29	0	409993216	73	4707
2026-01-04 01:21:47.94	19.28	27.88	-53.6	-56.0	14.1	0.00e+00	0	29	0	411041792	73	4714
2026-01-04 01:21:48.93	19.21	28.05	-53.5	-55.8	14.2	0.00e+00	0	29	0	413138944	73	4604
2026-01-04 01:21:49.94	19.13	28.22	-53.2	-55.4	14.3	0.00e+00	0	29	0	415236096	72	4698
2026-01-04 01:21:50.93	19.06	28.40	-53.5	-55.8	14.1	0.00e+00	0	28	0	417333248	72	4909
2026-01-04 01:21:51.93	18.98	28.57	-53.1	-55.2	14.4	0.00e+00	0	29	0	418381824	72	4577
2026-01-04 01:21:52.94	18.90	28.75	-53.3	-55.5	14.3	0.00e+00	0	29	0	420478976	72	4708
2026-01-04 01:21:53.93	18.82	28.93	-53.3	-55.4	14.3	0.00e+00	0	29	0	422576128	72	4697
2026-01-04 01:21:54.93	18.74	29.10	-53.3	-55.5	14.3	0.00e+00	0	28	0	424673280	72	4753
2026-01-04 01:21:55.92	18.66	29.28	-53.4	-55.6	14.2	0.00e+00	0	29	0	426770432	72	4784
2026-01-04 01:21:56.92	18.58	29.46	-53.6	-55.9	14.1	0.00e+00	0	29	0	427819008	72	4972
2026-01-04 01:21:57.91	18.50	29.64	-53.7	-56.0	14.0	0.00e+00	0	29	0	429916160	72	5031
2026-01-04 01:21:58.91	18.41	29.82	-53.8	-56.3	14.0	0.00e+00	0	29	0	432013312	73	4887
2026-01-04 01:21:59.91	18.33	30.01	-53.7	-56.0	14.1	0.00e+00	0	28	0	434110464	73	4739
2026-01-04 01:22:00.90	18.24	30.19	-53.9	-56.4	13.9	0.00e+00	0	29	0	435159040	73	4971
2026-01-04 01:22:01.90	18.15	30.38	-54.1	-56.7	13.8	0.00e+00	0	29	0	437256192	73	5108
2026-01-04 01:22:02.89	18.07	30.56	-54.3	-57.0	13.7	0.00e+00	0	29	0	439353344	73	5288
2026-01-04 01:22:03.89	17.98	30.75	-54.0	-56.5	13.9	0.00e+00	0	29	0	441450496	73	5036
2026-01-04 01:22:04.88	17.89	30.94	-54.1	-56.6	13.9	0.00e+00	0	28	0	443547648	73	5053
2026-01-04 01:22:05.88	17.80	31.13	-54.2	-56.7	13.8	0.00e+00	0	29	0	444596224	73	5122
2026-01-04 01:22:06.87	17.70	31.32	-54.2	-56.7	13.8	0.00e+00	0	29	0	446693376	73	5120
2026-01-04 01:22:07.87	17.61	31.51	-53.9	-56.3	14.0	0.00e+00	0	29	0	448790528	73	4871
2026-01-04 01:22:08.87	17.51	31.71	-54.4	-56.9	13.8	0.00e+00	0	28	0	450887680	74	4935
2026-01-04 01:22:09.86	17.42	31.90	-54.7	-57.4	13.5	0.00e+00	0	28	0	451936256	74	5266
2026-01-04 01:22:10.85	17.32	32.09	-54.6	-57.3	13.6	0.00e+00	0	29	0	454033408	74	5176
2026-01-04 01:22:11.84	17.23	32.29	-54.6	-57.3	13.6	0.00e+00	0	29	0	456130560	74	5184
2026-01-04 01:22:12.84	17.13	32.49	-55.1	-58.0	13.4	0.00e+00	0	29	0	458227712	75	5297
2026-01-04 01:22:13.84	17.02	32.69	-54.7	-57.5	13.6	0.00e+00	0	29	0	460324864	75	4986
2026-01-04 01:22:14.84	16.92	32.89	-54.9	-57.8	13.4	0.00e+00	0	29	0	461373440	75	5217
2026-01-04 01:22:15.84	16.82	33.09	-54.8	-57.7	13.4	0.00e+00	0	29	0	463470592	75	5158
2026-01-04 01:22:16.84	16.71	33.30	-54.8	-57.8	13.4	0.00e+00	0	29	0	465567744	75	5191
2026-01-04 01:22:17.85	16.61	33.50	-54.9	-57.9	13.3	0.00e+00	0	29	0	467664896	75	5270
2026-01-04 01:22:18.85	16.50	33.71	-54.9	-58.0	13.3	0.00e+00	0	29	0	469762048	75	5292
2026-01-04 01:22:19.85	16.39	33.92	-55.2	-58.5	13.0	0.00e+00	0	28	0	470810624	75	5618
2026-01-04 01:22:20.85	16.28	34.13	-55.6	-59.2	12.7	0.00e+00	0	29	0	472907776	76	5742
2026-01-04 01:22:21.85	16.16	34.34	-55.4	-58.9	12.8	0.00e+00	0	29	0	475004928	76	5530
2026-01-04 01:22:22.85	16.05	34.55	-55.6	-59.1	12.8	0.00e+00	0	29	0	477102080	76	5670
2026-01-04 01:22:23.85	15.94	34.76	-55.0	-58.1	13.3	0.00e+00	0	29	0	479199232	76	5074
2026-01-04 01:22:24.86	15.82	34.98	-55.0	-58.0	13.3	0.00e+00	0	29	0	480247808	76	5032
2026-01-04 01:22:25.85	15.70	35.19	-54.7	-57.6	13.5	0.00e+00	0	29	0	482344960	75	5090
2026-01-04 01:22:26.86	15.58	35.41	-54.4	-57.3	13.6	0.00e+00	0	28	0	484442112	74	5165
2026-01-04 01:22:27.86	15.46	35.63	-54.4	-57.2	13.6	0.00e+00	0	29	0	486539264	74	5117
2026-01-04 01:22:28.85	15.33	35.84	-54.4	-57.3	13.6	0.00e+00	0	28	0	487587840	74	5172
2026-01-04 01:22:29.85	15.21	36.07	-54.5	-57.4	13.5	0.00e+00	0	29	0	489684992	74	5259
2026-01-04 01:22:30.85	15.08	36.29	-54.8	-57.9	13.4	0.00e+00	0	28	0	491782144	75	5231
2026-01-04 01:22:31.85	14.95	36.51	-54.7	-57.5	13.5	0.00e+00	0	29	0	493879296	75	5016
2026-01-04 01:22:32.85	14.82	36.74	-55.6	-59.1	12.9	0.00e+00	0	29	0	495976448	76	5674
2026-01-04 01:22:33.85	14.69	36.96	-55.5	-59.0	12.8	0.00e+00	0	29	0	497025024	76	5611
2026-01-04 01:22:34.85	14.56	37.19	-55.1	-58.4	13.1	0.00e+00	0	29	0	499122176	75	5541
2026-01-04 01:22:35.85	14.42	37.42	-54.9	-58.2	13.2	0.00e+00	0	29	0	501219328	75	5408
2026-01-04 01:22:36.85	14.28	37.65	-54.4	-57.3	13.6	0.00e+00	0	28	0	503316480	75	4901
2026-01-04 01:22:37.85	14.14	37.88	-54.4	-57.3	13.6	0.00e+00	0	28	0	505413632	75	4887
2026-01-04 01:22:38.84	14.00	38.11	-54.3	-57.1	13.7	0.00e+00	0	29	0	506462208	74	5059
2026-01-04 01:22:39.84	13.86	38.35	-54.0	-56.7	13.8	0.00e+00	0	29	0	508559360	74	4850
2026-01-04 01:22:40.84	13.71	38.58	-54.2	-56.9	13.7	0.00e+00	0	29	0	510656512	74	4964
2026-01-04 01:22:41.85	13.56	38.82	-54.4	-57.4	13.5	0.00e+00	0	28	0	512753664	74	5219
2026-01-04 01:22:42.85	13.41	39.06	-54.9	-58.1	13.1	0.00e+00	0	28	0	513802240	74	5709
2026-01-04 01:22:43.85	13.25	39.30	-54.9	-58.2	13.2	0.00e+00	0	28	0	515899392	75	5442
2026-01-04 01:22:44.85	13.10	39.55	-55.1	-58.6	13.1	0.00e+00	0	29	0	517996544	75	5689
2026-01-04 01:22:45.85	12.94	39.79	-55.0	-58.4	13.1	0.00e+00	0	29	0	520093696	75	5568
2026-01-04 01:22:46.85	12.78	40.03	-55.0	-58.3	13.1	0.00e+00	0	29	0	522190848	75	5480
2026-01-04 01:22:47.85	12.62	40.28	-55.2	-58.7	12.9	0.00e+00	0	29	0	523239424	75	5778
2026-01-04 01:22:48.85	12.45	40.53	-55.2	-58.6	13.1	0.00e+00	0	29	0	525336576	75	5670
2026-01-04 01:22:49.85	12.28	40.78	-55.0	-58.2	13.3	0.00e+00	0	29	0	527433728	75	5459
2026-01-04 01:22:50.85	12.11	41.03	-54.7	-57.6	13.6	0.00e+00	0	29	0	529530880	75	5042
2026-01-04 01:22:51.85	11.94	41.28	-54.4	-57.2	13.8	0.00e+00	0	29	0	531628032	75	4825
2026-01-04 01:22:52.84	11.76	41.53	-54.0	-56.6	14.0	0.00e+00	0	29	0	532676608	74	4763
2026-01-04 01:22:53.85	11.58	41.79	-53.7	-56.0	14.1	0.00e+00	0	29	0	534773760	73	4752
2026-01-04 01:22:54.84	11.40	42.04	-53.6	-56.1	14.1	0.00e+00	0	29	0	536870912	73	4774
2026-01-04 01:22:55.84	11.21	42.30	-53.8	-56.2	14.1	0.00e+00	0	29	0	538968064	73	4842
2026-01-04 01:22:56.84	11.03	42.56	-53.5	-55.8	14.2	0.00e+00	0	29	0	541065216	73	4638
2026-01-04 01:22:57.83	10.84	42.82	-53.5	-55.9	14.2	0.00e+00	0	29	0	542113792	73	4661
2026-01-04 01:22:58.83	10.64	43.08	-53.5	-56.0	14.1	0.00e+00	0	29	0	544210944	73	4720
2026-01-04 01:22:59.83	10.44	43.34	-53.4	-55.9	14.2	0.00e+00	0	29	0	546308096	73	4688
2026-01-04 01:23:00.84	10.24	43.61	-53.6	-56.1	14.0	0.00e+00	0	28	0	548405248	73	4807
2026-01-04 01:23:01.84	10.04	43.88	-53.5	-56.0	14.1	0.00e+00	0	29	0	549453824	73	4719
2026-01-04 01:23:02.83	9.83	44.14	-53.3	-55.7	14.2	0.00e+00	0	29	0	551550976	73	4591
2026-01-04 01:23:03.83	9.62	44.41	-53.3	-55.7	14.1	0.00e+00	0	29	0	553648128	72	4862
2026-01-04 01:23:04.82	9.40	44.68	-53.0	-55.3	14.3	0.00e+00	0	29	0	555745280	72	4640
2026-01-04 01:23:05.82	9.18	44.95	-52.8	-55.1	14.4	0.00e+00	0	29	0	557842432	72	4540
2026-01-04 01:23:06.81	8.96	45.22	-52.9	-55.4	14.2	0.00e+00	0	28	0	558891008	71	4933
2026-01-04 01:23:07.81	8.74	45.50	-53.0	-55.5	14.2	0.00e+00	0	29	0	560988160	71	5005
2026-01-04 01:23:08.80	8.51	45.77	-53.2	-55.8	14.0	0.00e+00	0	29	0	563085312	72	4913
2026-01-04 01:23:09.81	8.27	46.05	-53.7	-56.5	13.9	0.00e+00	0	28	0	565182464	72	5283
2026-01-04 01:23:10.80	8.03	46.33	-53.5	-56.1	14.0	0.00e+00	0	28	0	566231040	72	5092
2026-01-04 01:23:11.80	7.79	46.61	-53.0	-55.3	14.3	0.00e+00	0	29	0	568328192	72	4638
2026-01-04 01:23:12.80	7.54	46.89	-53.1	-55.5	14.3	0.00e+00	0	29	0	570425344	72	4709
2026-01-04 01:23:13.80	7.29	47.17	-52.8	-55.0	14.5	0.00e+00	0	29	0	572522496	72	4452
2026-01-04 01:23:14.80	7.03	47.46	-53.1	-55.5	14.2	0.00e+00	0	29	0	574619648	71	4987
2026-01-04 01:23:15.80	6.77	47.74	-53.6	-56.1	14.1	0.00e+00	0	29	0	575668224	72	5091
2026-01-04 01:23:16.80	6.50	48.03	-53.8	-56.4	14.0	0.00e+00	0	29	0	577765376	72	5235
2026-01-04 01:23:17.79	6.23	48.31	-54.0	-56.6	13.9	0.00e+00	0	29	0	579862528	73	5065
2026-01-04 01:23:18.80	5.95	48.61	-53.1	-55.3	14.4	0.00e+00	0	29	0	581959680	72	4619
2026-01-04 01:23:19.80	5.67	48.90	-52.5	-54.6	14.6	0.00e+00	0	29	0	584056832	71	4496
2026-01-04 01:23:20.81	5.37	49.19	-52.2	-54.0	14.7	0.00e+00	0	29	0	585105408	70	4493
2026-01-04 01:23:21.80	5.08	49.48	-52.1	-54.1	14.7	0.00e+00	0	29	0	587202560	70	4506
2026-01-04 01:23:22.81	4.78	49.78	-51.9	-53.8	14.8	0.00e+00	0	29	0	589299712	70	4357
2026-01-04 01:23:23.81	4.47	50.07	-51.8	-53.7	14.8	0.00e+00	0	29	0	591396864	70	4311
2026-01-04 01:23:24.80	4.17	50.36	-51.8	-53.8	14.7	0.00e+00	0	29	0	593494016	69	4609
2026-01-04 01:23:25.80	3.85	50.66	-51.1	-52.9	14.9	0.00e+00	0	29	0	594542592	68	4398
2026-01-04 01:23:26.80	3.52	50.96	-51.4	-53.2	14.9	0.00e+00	0	29	0	596639744	68	4574
2026-01-04 01:23:27.80	3.19	51.26	-52.0	-53.9	14.7	0.00e+00	0	29	0	598736896	69	4679
2026-01-04 01:23:28.80	2.85	51.56	-52.3	-54.3	14.6	0.00e+00	0	29	0	600834048	69	4887
2026-01-04 01:23:29.80	2.51	51.86	-52.6	-54.5	14.6	0.00e+00	0	29	0	601882624	70	4755
2026-01-04 01:23:30.80	2.16	52.16	-52.6	-54.5	14.6	0.00e+00	0	29	0	603979776	70	4738
2026-01-04 01:23:31.79	1.80	52.46	-52.2	-54.0	14.7	0.00e+00	0	29	0	606076928	70	4463
2026-01-04 01:23:32.80	1.43	52.76	-51.8	-53.5	14.9	0.00e+00	0	29	0	608174080	70	4207
2026-01-04 01:23:33.79	1.06	53.06	-52.5	-54.4	14.6	0.00e+00	0	29	0	610271232	70	4701
2026-01-04 01:23:34.79	0.68	53.36	-52.8	-54.8	14.4	0.00e+00	0	29	0	611319808	70	4897
2026-01-04 01:23:35.79	0.29	53.67	-53.0	-55.2	14.4	0.00e+00	0	28	0	613416960	71	4835
2026-01-04 01:23:36.79	359.89	53.97	-52.9	-55.1	14.5	0.00e+00	0	28	0	615514112	72	4497
2026-01-04 01:23:37.80	359.48	54.28	-52.5	-54.5	14.6	0.00e+00	0	29	0	617611264	71	4474
2026-01-04 01:23:38.79	359.06	54.58	-51.8	-53.7	14.8	0.00e+00	0	28	0	619708416	70	4314
2026-01-04 01:23:39.79	358.64	54.89	-52.4	-54.5	14.5	0.00e+00	0	29	0	620756992	70	4712
2026-01-04 01:23:40.79	358.20	55.19	-53.3	-55.7	14.2	0.00e+00	0	29	0	622854144	71	5147
2026-01-04 01:23:41.79	357.76	55.50	-53.4	-56.0	14.1	0.00e+00	0	29	0	624951296	72	4986
2026-01-04 01:23:42.79	357.31	55.80	-53.3	-55.8	14.2	0.00e+00	0	29	0	627048448	72	4905
2026-01-04 01:23:43.78	356.85	56.11	-53.1	-55.4	14.3	0.00e+00	0	29	0	628097024	72	4656
2026-01-04 01:23:44.78	356.37	56.41	-53.4	-55.7	14.2	0.00e+00	0	28	0	630194176	72	4860
2026-01-04 01:23:45.78	355.89	56.72	-53.9	-56.4	14.1	0.00e+00	0	29	0	632291328	73	4933
2026-01-04 01:23:46.78	355.39	57.02	-54.9	-57.9	13.4	0.00e+00	0	28	0	634388480	74	5559
2026-01-04 01:23:47.77	354.89	57.32	-54.8	-57.6	13.7	0.00e+00	0	28	0	636485632	75	5084
2026-01-04 01:23:48.78	354.36	57.63	-54.7	-57.6	13.6	0.00e+00	0	28	0	637534208	75	5066
2026-01-04 01:23:49.77	353.84	57.93	-54.6	-57.4	13.7	0.00e+00	0	29	0	639631360	75	4983
2026-01-04 01:23:50.77	353.30	58.23	-54.2	-56.8	14.0	0.00e+00	0	29	0	641728512	75	4640
2026-01-04 01:23:51.77	352.74	58.53	-53.4	-55.6	14.4	0.00e+00	0	29	0	643825664	73	4528
2026-01-04 01:23:52.77	352.17	58.83	-53.3	-55.6	14.3	0.00e+00	0	29	0	644874240	72	4763
2026-01-04 01:23:53.77	351.59	59.13	-53.3	-55.5	14.4	0.00e+00	0	28	0	646971392	72	4710
2026-01-04 01:23:54.77	351.00	59.43	-53.4	-55.7	14.3	0.00e+00	0	29	0	649068544	72	4867
2026-01-04 01:23:55.76	350.40	59.72	-53.7	-56.2	14.2	0.00e+00	0	29	0	651165696	73	4831
2026-01-04 01:23:56.76	349.77	60.02	-53.6	-55.8	14.3	0.00e+00	0	29	0	653262848	73	4650
2026-01-04 01:23:57.76	349.14	60.31	-53.5	-55.8	14.3	0.00e+00	0	29	0	654311424	73	4624
2026-01-04 01:23:58.76	348.48	60.60	-53.1	-55.1	14.5	0.00e+00	0	29	0	656408576	72	4534
2026-01-04 01:23:59.76	347.82	60.89	-52.6	-54.6	14.7	0.00e+00	0	29	0	658505728	71	4496
2026-01-04 01:24:00.77	347.13	61.18	-52.2	-54.0	14.8	0.00e+00	0	28	0	660602880	71	4226
2026-01-04 01:24:01.77	346.43	61.46	-51.8	-53.5	14.9	0.00e+00	0	29	0	662700032	70	4237
2026-01-04 01:24:02.76	345.72	61.74	-51.7	-53.4	15.0	0.00e+00	0	29	0	663748608	70	4175
2026-01-04 01:24:03.75	345.00	62.02	-51.7	-53.5	14.8	0.00e+00	0	29	0	665845760	69	4485
2026-01-04 01:24:04.75	344.25	62.29	-52.1	-54.0	14.7	0.00e+00	0	28	0	667942912	69	4738
2026-01-04 01:24:05.74	343.50	62.56	-52.0	-53.9	14.8	0.00e+00	0	29	0	670040064	70	4408
2026-01-04 01:24:06.74	342.71	62.83	-51.8	-53.7	14.9	0.00e+00	0	28	0	672137216	70	4298
2026-01-04 01:24:07.73	341.92	63.09	-51.6	-53.4	14.9	0.00e+00	0	29	0	673185792	69	4433
2026-01-04 01:24:08.73	341.11	63.36	-51.6	-53.4	14.9	0.00e+00	0	29	0	675282944	69	4421
2026-01-04 01:24:09.73	340.27	63.61	-52.1	-54.1	14.7	0.00e+00	0	29	0	677380096	69	4775
2026-01-04 01:24:10.72	339.42	63.86	-52.1	-54.1	14.7	0.00e+00	0	29	0	679477248	69	4778
2026-01-04 01:24:11.72	338.55	64.11	-51.9	-53.8	14.7	0.00e+00	0	29	0	680525824	69	4628
2026-01-04 01:24:12.72	337.66	64.36	-51.5	-53.4	14.9	0.00e+00	0	29	0	682622976	69	4398
2026-01-04 01:24:13.72	336.75	64.60	-51.7	-53.6	14.9	0.00e+00	0	29	0	684720128	69	4499
2026-01-04 01:24:14.71	335.83	64.83	-51.8	-53.7	14.8	0.00e+00	0	29	0	686817280	69	4553
2026-01-04 01:24:15.71	334.88	65.06	-52.0	-53.9	14.8	0.00e+00	0	29	0	688914432	69	4661
2026-01-04 01:24:16.70	333.92	65.28	-51.6	-53.4	14.9	0.00e+00	0	29	0	689963008	69	4396
2026-01-04 01:24:17.70	332.93	65.50	-51.3	-52.9	15.1	0.00e+00	0	29	0	692060160	69	4192
2026-01-04 01:24:18.69	331.94	65.71	-51.7	-53.4	14.9	0.00e+00	0	29	0	694157312	69	4410
2026-01-04 01:24:19.69	330.91	65.91	-52.0	-53.7	14.7	0.00e+00	0	29	0	696254464	69	4590
2026-01-04 01:24:20.69	329.86	66.11	-52.1	-53.9	14.7	0.00e+00	0	29	0	697303040	69	4669
2026-01-04 01:24:21.68	328.81	66.30	-52.2	-54.0	14.7	0.00e+00	0	29	0	699400192	69	4722
2026-01-04 01:24:22.69	327.71	66.49	-51.9	-53.6	14.8	0.00e+00	0	29	0	701497344	69	4541
2026-01-04 01:24:23.69	326.61	66.67	-52.6	-54.4	14.6	0.00e+00	0	28	0	703594496	70	4704
2026-01-04 01:24:24.69	325.49	66.83	-53.9	-56.3	14.1	0.00e+00	0	28	0	705691648	72	5187
2026-01-04 01:24:25.69	324.35	67.00	-54.6	-57.3	13.8	0.00e+00	0	29	0	706740224	74	5194
2026-01-04 01:24:26.69	323.20	67.15	-54.2	-56.6	14.1	0.00e+00	0	29	0	708837376	74	4769
2026-01-04 01:24:27.68	322.04	67.29	-54.7	-57.3	13.8	0.00e+00	0	28	0	710934528	74	5182
2026-01-04 01:24:28.68	320.85	67.43	-55.9	-59.3	13.1	0.00e+00	0	28	0	713031680	77	5468
2026-01-04 01:24:29.68	319.65	67.56	-56.3	-59.8	12.8	0.00e+00	0	29	0	714080256	78	5509
2026-01-04 01:24:30.68	318.43	67.68	-55.4	-58.2	13.6	0.00e+00	0	28	0	716177408	77	4822
2026-01-04 01:24:31.67	317.21	67.78	-54.4	-56.7	14.1	0.00e+00	0	29	0	718274560	75	4564
2026-01-04 01:24:32.68	315.95	67.88	-54.1	-56.4	14.2	0.00e+00	0	29	0	720371712	74	4661
2026-01-04 01:24:33.67	314.71	67.97	-53.9	-56.0	14.3	0.00e+00	0	29	0	722468864	73	4757
2026-01-04 01:24:34.67	313.44	68.05	-53.6	-55.6	14.5	0.00e+00	0	29	0	723517440	73	4510
2026-01-04 01:24:35.67	312.17	68.12	-53.2	-55.1	14.6	0.00e+00	0	29	0	725614592	72	4507
2026-01-04 01:24:36.67	310.88	68.18	-53.9	-56.0	14.3	0.00e+00	0	29	0	727711744	72	5021
2026-01-04 01:24:37.66	309.61	68.23	-54.5	-56.9	14.0	0.00e+00	0	29	0	729808896	74	4976
2026-01-04 01:24:38.66	308.31	68.27	-54.0	-56.1	14.4	0.00e+00	0	29	0	731906048	74	4514
2026-01-04 01:24:39.66	307.01	68.30	-54.1	-56.4	14.2	0.00e+00	0	29	0	732954624	74	4692
2026-01-04 01:24:40.65	305.72	68.32	-54.2	-56.5	14.2	0.00e+00	0	29	0	735051776	74	4716
2026-01-04 01:24:41.64	304.42	68.33	-54.2	-56.5	14.2	0.00e+00	0	29	0	737148928	74	4719
2026-01-04 01:24:42.64	303.11	68.33	-54.0	-56.3	14.2	0.00e+00	0	29	0	739246080	73	4871
2026-01-04 01:24:43.64	301.81	68.32	-53.8	-55.9	14.3	0.00e+00	0	28	0	740294656	73	4705
2026-01-04 01:24:44.64	300.50	68.30	-53.7	-55.9	14.4	0.00e+00	0	29	0	742391808	73	4656
2026-01-04 01:24:45.64	299.20	68.26	-53.8	-56.0	14.3	0.00e+00	0	29	0	744488960	73	4738
2026-01-04 01:24:46.65	297.89	68.22	-53.8	-56.0	14.3	0.00e+00	0	29	0	746586112	73	4729
2026-01-04 01:24:47.65	296.60	68.17	-53.7	-55.9	14.4	0.00e+00	0	29	0	748683264	73	4666
2026-01-04 01:24:48.65	295.32	68.10	-54.4	-57.0	13.9	0.00e+00	0	29	0	749731840	74	5025
2026-01-04 01:24:49.65	294.05	68.03	-54.3	-56.8	14.0	0.00e+00	0	28	0	751828992	74	4898
2026-01-04 01:24:50.66	292.77	67.95	-54.5	-57.0	14.0	0.00e+00	0	28	0	753926144	74	5007
2026-01-04 01:24:51.66	291.52	67.85	-54.7	-57.3	13.8	0.00e+00	0	28	0	756023296	74	5199
2026-01-04 01:24:52.67	290.27	67.75	-55.8	-59.1	13.1	0.00e+00	0	29	0	758120448	76	5696
2026-01-04 01:24:53.67	289.04	67.64	-56.3	-59.9	12.8	0.00e+00	0	29	0	759169024	77	5899
2026-01-04 01:24:54.67	287.83	67.51	-55.5	-58.5	13.5	0.00e+00	0	29	0	761266176	77	4993
2026-01-04 01:24:55.67	286.63	67.38	-55.4	-58.1	13.7	0.00e+00	0	28	0	763363328	76	5049
2026-01-04 01:24:56.67	285.45	67.24	-55.4	-58.2	13.6	0.00e+00	0	28	0	765460480	76	5112
2026-01-04 01:24:57.67	284.28	67.10	-55.1	-57.8	13.8	0.00e+00	0	28	0	767557632	76	4888
2026-01-04 01:24:58.66	283.14	66.94	-54.8	-57.3	14.0	0.00e+00	0	29	0	768606208	76	4630
2026-01-04 01:24:59.66	282.01	66.78	-54.4	-56.8	14.2	0.00e+00	0	29	0	770703360	75	4602
2026-01-04 01:25:00.65	280.90	66.61	-53.0	-54.8	14.8	0.00e+00	0	29	0	772800512	72	4367
2026-01-04 01:25:01.65	279.81	66.43	-52.7	-54.4	14.8	0.00e+00	0	29	0	774897664	71	4433
2026-01-04 01:25:02.65	278.73	66.24	-53.3	-55.2	14.5	0.00e+00	0	29	0	775946240	71	4834
2026-01-04 01:25:03.64	277.68	66.05	-53.9	-56.1	14.2	0.00e+00	0	29	0	778043392	72	5072
2026-01-04 01:25:04.64	276.64	65.85	-53.4	-55.5	14.4	0.00e+00	0	29	0	780140544	72	4754
2026-01-04 01:25:05.63	275.63	65.64	-52.9	-54.8	14.7	0.00e+00	0	29	0	782237696	72	4373
2026-01-04 01:25:06.62	274.64	65.43	-52.0	-53.8	14.9	0.00e+00	0	29	0	784334848	70	4363
2026-01-04 01:25:07.62	273.65	65.21	-51.0	-52.5	15.1	0.00e+00	0	28	0	785383424	68	4233
2026-01-04 01:25:08.62	272.69	64.99	-51.1	-52.8	15.1	0.00e+00	0	29	0	787480576	68	4362
2026-01-04 01:25:09.61	271.76	64.76	-52.0	-53.9	14.8	0.00e+00	0	29	0	789577728	69	4654
2026-01-04 01:25:10.61	270.83	64.52	-52.3	-54.1	14.8	0.00e+00	0	29	0	791674880	70	4527
2026-01-04 01:25:11.61	269.93	64.28	-51.6	-53.2	15.0	0.00e+00	0	29	0	792723456	69	4327
2026-01-04 01:25:12.60	269.05	64.03	-51.7	-53.3	14.9	0.00e+00	0	29	0	794820608	69	4371
2026-01-04 01:25:13.60	268.18	63.78	-51.7	-53.4	14.9	0.00e+00	0	29	0	796917760	69	4437
2026-01-04 01:25:14.60	267.33	63.53	-52.7	-54.8	14.5	0.00e+00	0	29	0	799014912	70	4875
2026-01-04 01:25:15.60	266.50	63.27	-52.8	-54.9	14.5	0.00e+00	0	29	0	801112064	71	4669
2026-01-04 01:25:16.60	265.69	63.00	-52.3	-54.1	14.7	0.00e+00	0	29	0	802160640	70	4545
2026-01-04 01:25:17.59	264.90	62.74	-52.8	-55.0	14.4	0.00e+00	0	29	0	804257792	70	5004
2026-01-04 01:25:18.60	264.12	62.47	-53.5	-55.9	14.2	0.00e+00	0	29	0	806354944	72	4953
2026-01-04 01:25:19.60	263.36	62.19	-53.4	-55.6	14.4	0.00e+00	0	29	0	808452096	72	4787
2026-01-04 01:25:20.59	262.62	61.92	-53.1	-55.2	14.5	0.00e+00	0	29	0	810549248	72	4555
2026-01-04 01:25:21.59	261.90	61.64	-53.7	-56.1	14.1	0.00e+00	0	29	0	811597824	72	5075
2026-01-04 01:25:22.59	261.19	61.36	-53.8	-56.3	14.0	0.00e+00	0	29	0	813694976	73	4916
2026-01-04 01:25:23.59	260.49	61.07	-53.6	-56.0	14.2	0.00e+00	0	29	0	815792128	73	4748
2026-01-04 01:25:24.59	259.82	60.78	-53.4	-55.7	14.4	0.00e+00	0	28	0	817889280	73	4580
2026-01-04 01:25:25.59	259.16	60.49	-53.2	-55.4	14.4	0.00e+00	0	29	0	819986432	72	4703
2026-01-04 01:25:26.58	258.51	60.20	-54.5	-57.2	13.8	0.00e+00	0	29	0	821035008	74	5158
2026-01-04 01:25:27.58	257.88	59.91	-55.0	-58.1	13.3	0.00e+00	0	29	0	823132160	75	5399
2026-01-04 01:25:28.58	257.26	59.61	-54.3	-56.9	14.0	0.00e+00	0	29	0	825229312	75	4675
2026-01-04 01:25:29.58	256.66	59.32	-53.5	-55.7	14.3	0.00e+00	0	29	0	827326464	73	4580
2026-01-04 01:25:30.58	256.07	59.02	-53.8	-56.0	14.3	0.00e+00	0	29	0	828375040	73	4748
2026-01-04 01:25:31.58	255.49	58.72	-54.0	-56.3	14.2	0.00e+00	0	29	0	830472192	73	4880
2026-01-04 01:25:32.58	254.93	58.42	-54.0	-56.3	14.1	0.00e+00	0	29	0	832569344	73	4919
2026-01-04 01:25:33.58	254.38	58.12	-53.3	-55.5	14.4	0.00e+00	0	29	0	834666496	73	4468
2026-01-04 01:25:34.58	253.84	57.81	-51.8	-53.5	14.9	0.00e+00	0	29	0	836763648	70	4237
2026-01-04 01:25:35.58	253.31	57.51	-51.0	-52.5	15.1	0.00e+00	0	29	0	837812224	68	4233
2026-01-04 01:25:36.57	252.80	57.21	-50.7	-52.2	15.2	0.00e+00	0	29	0	839909376	68	4075
2026-01-04 01:25:37.57	252.30	56.90	-51.1	-52.7	15.0	0.00e+00	0	29	0	842006528	68	4322
2026-01-04 01:25:38.57	251.80	56.60	-51.4	-53.1	14.9	0.00e+00	0	29	0	844103680	68	4510
2026-01-04 01:25:39.57	251.32	56.29	-51.9	-53.7	14.8	0.00e+00	0	29	0	845152256	69	4591
2026-01-04 01:25:40.56	250.85	55.99	-52.2	-54.1	14.6	0.00e+00	0	29	0	847249408	69	4783
2026-01-04 01:25:41.56	250.39	55.68	-52.1	-54.0	14.8	0.00e+00	0	28	0	849346560	70	4457
2026-01-04 01:25:42.56	249.94	55.38	-51.5	-53.1	15.0	0.00e+00	0	29	0	851443712	69	4283
2026-01-04 01:25:43.55	249.50	55.07	-52.0	-53.8	14.7	0.00e+00	0	29	0	853540864	69	4627
2026-01-04 01:25:44.56	249.07	54.77	-52.6	-54.6	14.6	0.00e+00	0	29	0	854589440	70	4777
2026-01-04 01:25:45.56	248.65	54.46	-52.6	-54.5	14.6	0.00e+00	0	29	0	856686592	70	4720
2026-01-04 01:25:46.55	248.24	54.16	-51.9	-53.6	14.9	0.00e+00	0	29	0	858783744	70	4291
2026-01-04 01:25:47.55	247.83	53.85	-52.3	-54.2	14.7	0.00e+00	0	29	0	860880896	70	4564
2026-01-04 01:25:48.55	247.43	53.55	-52.3	-54.2	14.7	0.00e+00	0	29	0	862978048	70	4570
2026-01-04 01:25:49.55	247.05	53.24	-52.1	-53.9	14.8	0.00e+00	0	29	0	864026624	70	4437
2026-01-04 01:25:50.55	246.67	52.94	-52.1	-53.9	14.7	0.00e+00	0	29	0	866123776	69	4690
2026-01-04 01:25:51.54	246.30	52.64	-53.1	-55.4	14.4	0.00e+00	0	29	0	868220928	71	4942
2026-01-04 01:25:52.55	245.93	52.33	-53.3	-55.6	14.3	0.00e+00	0	29	0	870318080	71	5067
2026-01-04 01:25:53.55	245.57	52.03	-53.1	-55.3	14.4	0.00e+00	0	29	0	871366656	72	4651
2026-01-04 01:25:54.56	245.22	51.73	-53.6	-55.8	14.3	0.00e+00	0	29	0	873463808	72	4921
2026-01-04 01:25:55.55	244.88	51.43	-53.5	-55.7	14.3	0.00e+00	0	29	0	875560960	72	4849
2026-01-04 01:25:56.55	244.54	51.13	-53.1	-55.2	14.6	0.00e+00	0	29	0	877658112	72	4551
2026-01-04 01:25:57.54	244.22	50.83	-52.9	-54.8	14.7	0.00e+00	0	29	0	879755264	72	4365
2026-01-04 01:25:58.54	243.89	50.53	-52.9	-54.8	14.7	0.00e+00	0	29	0	880803840	72	4368
2026-01-04 01:25:59.55	243.57	50.23	-52.7	-54.6	14.6	0.00e+00	0	29	0	882900992	71	4533
2026-01-04 01:26:00.54	243.27	49.94	-52.2	-53.9	14.8	0.00e+00	0	29	0	884998144	70	4436
2026-01-04 01:26:01.55	242.96	49.64	-51.3	-52.9	15.1	0.00e+00	0	29	0	887095296	69	4181
2026-01-04 01:26:02.54	242.66	49.35	-51.4	-53.1	14.9	0.00e+00	0	29	0	889192448	68	4501
2026-01-04 01:26:03.54	242.37	49.06	-52.8	-54.8	14.5	0.00e+00	0	29	0	890241024	70	4890
2026-01-04 01:26:04.53	242.09	48.77	-53.4	-55.6	14.3	0.00e+00	0	28	0	892338176	72	4772
2026-01-04 01:26:05.52	241.81	48.48	-52.7	-54.7	14.6	0.00e+00	0	29	0	894435328	72	4340
2026-01-04 01:26:06.52	241.53	48.19	-52.3	-54.2	14.8	0.00e+00	0	28	0	896532480	71	4332
2026-01-04 01:26:07.52	241.26	47.91	-53.2	-55.3	14.4	0.00e+00	0	29	0	897581056	71	4925
2026-01-04 01:26:08.52	240.99	47.62	-54.9	-57.9	13.5	0.00e+00	0	29	0	899678208	74	5543
2026-01-04 01:26:09.51	240.74	47.34	-55.1	-58.1	13.4	0.00e+00	0	29	0	901775360	75	5354
2026-01-04 01:26:10.51	240.48	47.05	-54.7	-57.2	13.9	0.00e+00	0	28	0	903872512	75	4856
2026-01-04 01:26:11.50	240.23	46.77	-54.5	-57.0	14.0	0.00e+00	0	29	0	905969664	75	4711
2026-01-04 01:26:12.50	239.98	46.49	-54.1	-56.4	14.2	0.00e+00	0	29	0	907018240	74	4654
2026-01-04 01:26:13.50	239.74	46.21	-53.6	-55.6	14.4	0.00e+00	0	29	0	909115392	73	4535
2026-01-04 01:26:14.50	239.50	45.93	-52.9	-54.9	14.6	0.00e+00	0	29	0	911212544	72	4394
2026-01-04 01:26:15.50	239.27	45.65	-53.5	-55.6	14.4	0.00e+00	0	29	0	913309696	72	4785
2026-01-04 01:26:16.49	239.04	45.38	-54.1	-56.5	14.0	0.00e+00	0	29	0	915406848	73	5034
2026-01-04 01:26:17.49	238.81	45.10	-53.3	-55.4	14.4	0.00e+00	0	28	0	916455424	73	4427
2026-01-04 01:26:18.48	238.59	44.83	-52.8	-54.8	14.6	0.00e+00	0	29	0	918552576	72	4343
2026-01-04 01:26:19.47	238.38	44.56	-52.3	-54.1	14.8	0.00e+00	0	29	0	920649728	71	4285
2026-01-04 01:26:20.47	238.16	44.29	-52.8	-54.8	14.5	0.00e+00	0	29	0	922746880	71	4630
2026-01-04 01:26:21.47	237.95	44.02	-53.1	-55.2	14.4	0.00e+00	0	29	0	923795456	71	4820
2026-01-04 01:26:22.47	237.74	43.75	-53.5	-55.8	14.3	0.00e+00	0	29	0	925892608	72	4891
2026-01-04 01:26:23.47	237.54	43.49	-53.9	-56.3	14.1	0.00e+00	0	29	0	927989760	73	4918
2026-01-04 01:26:24.47	237.34	43.22	-54.7	-57.7	13.5	0.00e+00	0	29	0	930086912	75	5116
2026-01-04 01:26:25.47	237.14	42.96	-55.6	-59.2	12.8	0.00e+00	0	29	0	932184064	76	5742
2026-01-04 01:26:26.46	236.95	42.70	-56.8	-61.8	11.3	1.50e-06	0	28	0	933232640	78	6883
2026-01-04 01:26:27.46	236.76	42.44	-56.7	-61.4	11.5	3.20e-05	0	29	0	935329792	78	6627
2026-01-04 01:26:28.46	236.57	42.18	-56.1	-60.2	12.2	3.80e-06	0	29	0	937426944	78	5788
2026-01-04 01:26:29.46	236.38	41.92	-55.1	-58.2	13.3	0.00e+00	0	29	0	939524096	76	5120
2026-01-04 01:26:30.46	236.20	41.66	-55.2	-58.4	13.2	0.00e+00	0	29	0	940572672	76	5230
2026-01-04 01:26:31.46	236.02	41.41	-54.8	-57.8	13.5	0.00e+00	0	29	0	942669824	76	4897
2026-01-04 01:26:32.46	235.85	41.15	-54.4	-57.0	13.9	0.00e+00	0	29	0	944766976	75	4758
2026-01-04 01:26:33.46	235.67	40.90	-54.1	-56.7	14.0	0.00e+00	0	29	0	946864128	74	4849
2026-01-04 01:26:34.46	235.50	40.65	-54.4	-57.1	13.8	0.00e+00	0	29	0	948961280	74	5077
2026-01-04 01:26:35.46	235.34	40.40	-54.1	-56.6	14.0	0.00e+00	0	29	0	950009856	74	4799
2026-01-04 01:26:36.46	235.17	40.15	-54.4	-57.1	13.8	0.00e+00	0	29	0	952107008	74	5056
2026-01-04 01:26:37.46	235.01	39.91	-54.5	-57.2	13.8	0.00e+00	0	29	0	954204160	74	5102
2026-01-04 01:26:38.45	234.85	39.66	-55.0	-58.0	13.4	0.00e+00	0	29	0	956301312	75	5336
2026-01-04 01:26:39.45	234.69	39.42	-55.6	-59.0	12.9	0.00e+00	0	29	0	958398464	76	5620
2026-01-04 01:26:40.45	234.54	39.18	-55.6	-59.1	12.8	0.00e+00	0	29	0	959447040	76	5712
2026-01-04 01:26:41.45	234.38	38.94	-55.4	-59.1	12.6	7.00e-07	0	29	0	961544192	76	5667
2026-01-04 01:26:42.44	234.23	38.70	-55.4	-59.3	12.3	0.00e+00	0	29	0	963641344	76	5811
2026-01-04 01:26:43.44	234.08	38.46	-54.9	-58.2	12.9	7.00e-07	0	29	0	965738496	76	5150
2026-01-04 01:26:44.43	233.94	38.23	-55.3	-58.8	12.7	0.00e+00	0	29	0	966787072	76	5493
2026-01-04 01:26:45.44	233.79	37.99	-56.1	-60.2	12.1	0.00e+00	0	29	0	968884224	77	6115
2026-01-04 01:26:46.44	233.65	37.76	-56.4	-60.6	12.1	0.00e+00	0	29	0	970981376	77	6349
2026-01-04 01:26:47.44	233.51	37.53	-56.6	-60.7	12.1	7.00e-07	0	29	0	973078528	78	6129
2026-01-04 01:26:48.44	233.37	37.30	-56.0	-59.4	12.9	0.00e+00	0	29	0	975175680	78	5245
2026-01-04 01:26:49.43	233.24	37.07	-55.2	-58.0	13.6	0.00e+00	0	29	0	976224256	77	4745
2026-01-04 01:26:50.44	233.10	36.84	-53.8	-56.1	14.3	0.00e+00	0	29	0	978321408	74	4495
2026-01-04 01:26:51.44	232.97	36.61	-53.3	-55.3	14.5	0.00e+00	0	29	0	980418560	73	4387
2026-01-04 01:26:52.44	232.84	36.39	-53.3	-55.3	14.5	0.00e+00	0	29	0	982515712	73	4372
2026-01-04 01:26:53.44	232.71	36.16	-53.0	-55.0	14.6	0.00e+00	0	29	0	984612864	72	4482
2026-01-04 01:26:54.44	232.59	35.94	-53.0	-55.0	14.6	0.00e+00	0	28	0	985661440	72	4442
2026-01-04 01:26:55.44	232.46	35.72	-53.2	-55.3	14.4	0.00e+00	0	29	0	987758592	72	4626
2026-01-04 01:26:56.44	232.34	35.50	-53.4	-55.5	14.3	0.00e+00	0	29	0	989855744	72	4752
2026-01-04 01:26:57.44	232.22	35.28	-53.6	-55.9	14.1	0.00e+00	0	29	0	991952896	72	4976
2026-01-04 01:26:58.44	232.10	35.07	-54.2	-56.7	13.9	0.00e+00	0	29	0	994050048	73	5135
2026-01-04 01:26:59.43	231.98	34.85	-54.6	-57.4	13.7	0.00e+00	0	29	0	995098624	74	5230
2026-01-04 01:27:00.43	231.86	34.64	-55.2	-58.2	13.3	0.00e+00	0	29	0	997195776	75	5449
2026-01-04 01:27:01.43	231.75	34.43	-55.1	-57.9	13.5	0.00e+00	0	29	0	999292928	76	4977
2026-01-04 01:27:02.42	231.63	34.22	-55.0	-57.7	13.6	0.00e+00	0	29	0	1001390080	76	4855
2026-01-04 01:27:03.42	231.52	34.01	-54.3	-56.8	14.0	0.00e+00	0	29	0	1002438656	75	4600
2026-01-04 01:27:04.42	231.41	33.80	-54.3	-56.6	14.0	0.00e+00	0	29	0	1004535808	74	4802
2026-01-04 01:27:05.42	231.30	33.59	-54.2	-56.5	14.1	0.00e+00	0	29	0	1006632960	74	4752
2026-01-04 01:27:06.41	231.19	33.38	-54.6	-57.2	13.8	0.00e+00	0	29	0	1008730112	74	5113
2026-01-04 01:27:07.41	231.09	33.18	-54.7	-57.4	13.7	0.00e+00	0	29	0	1010827264	74	5220
2026-01-04 01:27:08.40	230.98	32.98	-54.7	-57.3	13.7	0.00e+00	0	29	0	1011875840	74	5185
2026-01-04 01:27:09.39	230.88	32.78	-55.0	-57.8	13.5	0.00e+00	0	29	0	1013972992	75	5217
2026-01-04 01:27:10.39	230.78	32.57	-54.6	-57.3	13.8	0.00e+00	0	29	0	1016070144	75	4874
2026-01-04 01:27:11.38	230.68	32.38	-54.7	-57.3	13.8	0.00e+00	0	29	0	1018167296	75	4901
2026-01-04 01:27:12.37	230.58	32.18	-54.8	-57.5	13.7	0.00e+00	0	29	0	1019215872	75	5036
2026-01-04 01:27:13.37	230.48	31.98	-55.3	-58.3	13.3	0.00e+00	0	29	0	1021313024	75	5493
2026-01-04 01:27:14.36	230.38	31.79	-55.0	-57.8	13.5	0.00e+00	0	29	0	1023410176	75	5213
2026-01-04 01:27:15.36	230.29	31.59	-55.0	-57.9	13.5	0.00e+00	0	29	0	1025507328	75	5221
2026-01-04 01:27:16.36	230.19	31.40	-54.6	-57.1	13.9	0.00e+00	0	29	0	1027604480	75	4811
2026-01-04 01:27:17.36	230.10	31.20	-54.3	-56.6	14.1	0.00e+00	0	29	0	1028653056	74	4799
2026-01-04 01:27:18.36	230.01	31.01	-54.1	-56.3	14.2	0.00e+00	0	29	0	1030750208	74	4635
2026-01-04 01:27:19.36	229.91	30.82	-53.9	-56.0	14.3	0.00e+00	0	29	0	1032847360	74	4468
2026-01-04 01:27:20.36	229.82	30.63	-54.4	-56.7	14.0	0.00e+00	0	29	0	1034944512	74	4841
2026-01-04 01:27:21.36	229.73	30.44	-54.8	-57.4	13.7	0.00e+00	0	29	0	1035993088	74	5222
2026-01-04 01:27:22.36	229.65	30.26	-55.7	-58.7	13.1	0.00e+00	0	29	0	1038090240	76	5452
2026-01-04 01:27:23.36	229.56	30.07	-56.1	-59.4	12.8	0.00e+00	0	29	0	1040187392	77	5563
2026-01-04 01:27:24.37	229.47	29.88	-56.4	-60.0	12.4	7.00e-07	0	28	0	1042284544	77	5969
2026-01-04 01:27:25.36	229.39	29.70	-56.4	-60.0	12.5	7.00e-07	0	29	0	1044381696	78	5634
2026-01-04 01:27:26.36	229.30	29.52	-56.3	-59.8	12.6	0.00e+00	0	29	0	1045430272	78	5522
2026-01-04 01:27:27.36	229.22	29.34	-55.9	-59.1	13.0	0.00e+00	0	29	0	1047527424	78	5092
2026-01-04 01:27:28.36	229.14	29.16	-55.7	-58.7	13.2	0.00e+00	0	29	0	1049624576	77	5114
2026-01-04 01:27:29.36	229.06	28.98	-55.6	-58.6	13.3	0.00e+00	0	29	0	1051721728	77	5055
2026-01-04 01:27:30.36	228.98	28.80	-55.5	-58.4	13.4	0.00e+00	0	29	0	1053818880	77	4972
2026-01-04 01:27:31.35	228.90	28.62	-55.7	-58.8	13.2	0.00e+00	0	29	0	1054867456	77	5160
2026-01-04 01:27:32.35	228.82	28.45	-56.1	-59.5	12.8	0.00e+00	0	29	0	1056964608	77	5594
2026-01-04 01:27:33.34	228.74	28.27	-55.9	-59.2	12.9	0.00e+00	0	29	0	1059061760	77	5405
2026-01-04 01:27:34.34	228.66	28.10	-56.0	-59.2	12.9	0.00e+00	0	29	0	1061158912	77	5457
2026-01-04 01:27:35.34	228.59	27.93	-55.8	-59.0	13.0	0.00e+00	0	29	0	1063256064	77	5289
2026-01-04 01:27:36.34	228.51	27.75	-55.7	-58.8	13.1	0.00e+00	0	29	0	1064304640	77	5168
2026-01-04 01:27:37.33	228.44	27.58	-55.4	-58.3	13.5	0.00e+00	0	29	0	1066401792	77	4878
2026-01-04 01:27:38.33	228.37	27.41	-55.3	-58.2	13.4	0.00e+00	0	29	0	1068498944	76	5148
2026-01-04 01:27:39.33	228.29	27.24	-55.0	-57.7	13.7	0.00e+00	0	29	0	1070596096	76	4822
2026-01-04 01:27:40.32	228.22	27.08	-54.7	-57.2	13.9	0.00e+00	0	29	0	1071644672	76	4572
2026-01-04 01:27:41.32	228.15	26.91	-54.3	-56.8	14.1	0.00e+00	0	29	0	1073741824	75	4600
2026-01-04 01:27:42.31	228.08	26.75	-54.3	-56.7	14.1	0.00e+00	0	29	0	1075838976	75	4587
2026-01-04 01:27:43.31	228.01	26.58	-54.4	-56.8	14.0	0.00e+00	0	29	0	1077936128	75	4648
2026-01-04 01:27:44.31	227.94	26.42	-54.4	-56.9	14.0	0.00e+00	0	29	0	1080033280	75	4696
2026-01-04 01:27:45.31	227.88	26.25	-54.6	-56.9	14.0	0.00e+00	0	29	0	1081081856	75	4667
2026-01-04 01:27:46.29	227.81	26.09	-54.7	-57.0	14.0	0.00e+00	0	29	0	1083179008	75	4743
2026-01-04 01:27:47.29	227.74	25.93	-54.9	-57.3	13.8	0.00e+00	0	29	0	1085276160	75	4875
2026-01-04 01:27:48.29	227.68	25.77	-55.1	-57.5	13.7	0.00e+00	0	29	0	1087373312	75	5035
2026-01-04 01:27:49.29	227.61	25.61	-55.4	-57.9	13.6	0.00e+00	0	29	0	1088421888	76	4979
2026-01-04 01:27:50.28	227.55	25.45	-55.8	-58.6	13.3	0.00e+00	0	29	0	1090519040	76	5350
2026-01-04 01:27:51.29	227.48	25.29	-55.8	-58.6	13.3	0.00e+00	0	29	0	1092616192	77	5087
2026-01-04 01:27:52.29	227.42	25.14	-55.5	-58.1	13.6	0.00e+00	0	29	0	1094713344	77	4778
2026-01-04 01:27:53.29	227.36	24.98	-55.3	-57.8	13.8	0.00e+00	0	29	0	1096810496	77	4618
2026-01-04 01:27:54.29	227.30	24.83	-54.8	-57.1	14.0	0.00e+00	0	29	0	1097859072	76	4521
2026-01-04 01:27:55.30	227.23	24.67	-54.4	-56.6	14.2	0.00e+00	0	29	0	1099956224	75	4498
2026-01-04 01:27:56.30	227.17	24.52	-54.4	-56.5	14.2	0.00e+00	0	29	0	1102053376	75	4457
2026-01-04 01:27:57.30	227.11	24.36	-53.9	-55.9	14.4	0.00e+00	0	29	0	1104150528	74	4428
2026-01-04 01:27:58.30	227.05	24.21	-53.9	-55.9	14.4	0.00e+00	0	29	0	1106247680	74	4423
2026-01-04 01:27:59.30	226.99	24.06	-54.1	-56.2	14.3	0.00e+00	0	29	0	1107296256	74	4556
2026-01-04 01:28:00.30	226.94	23.91	-54.1	-56.1	14.3	0.00e+00	0	29	0	1109393408	74	4526
2026-01-04 01:28:01.31	226.88	23.76	-54.3	-56.5	14.1	0.00e+00	0	29	0	1111490560	74	4707
2026-01-04 01:28:02.30	226.82	23.61	-54.5	-56.8	14.0	0.00e+00	0	29	0	1113587712	74	4880
2026-01-04 01:28:03.30	226.77	23.47	-54.6	-56.8	13.9	0.00e+00	0	29	0	1114636288	74	4909
2026-01-04 01:28:04.29	226.71	23.32	-54.6	-56.9	13.9	0.00e+00	0	29	0	1116733440	74	4941
2026-01-04 01:28:05.29	226.65	23.17	-55.1	-57.6	13.7	0.00e+00	0	29	0	1118830592	75	5079
2026-01-04 01:28:06.29	226.60	23.03	-55.1	-57.5	13.7	0.00e+00	0	29	0	1120927744	75	5040
2026-01-04 01:28:07.29	226.55	22.88	-54.8	-57.1	13.9	0.00e+00	0	29	0	1123024896	75	4810
2026-01-04 01:28:08.29	226.49	22.74	-54.9	-57.3	13.8	0.00e+00	0	29	0	1124073472	75	4876
2026-01-04 01:28:09.28	226.44	22.60	-54.5	-56.7	14.1	0.00e+00	0	29	0	1126170624	75	4597
2026-01-04 01:28:10.28	226.39	22.46	-54.4	-56.6	14.1	0.00e+00	0	29	0	1128267776	75	4509
2026-01-04 01:28:11.27	226.33	22.32	-54.1	-56.2	14.2	0.00e+00	0	29	0	1130364928	74	4558
2026-01-04 01:28:12.27	226.28	22.18	-54.1	-56.1	14.3	0.00e+00	0	29	0	1131413504	74	4544
2026-01-04 01:28:13.27	226.23	22.04	-53.9	-55.9	14.3	0.00e+00	0	29	0	1133510656	74	4441
2026-01-04 01:28:14.25	226.18	21.90	-53.9	-55.9	14.3	0.00e+00	0	29	0	1135607808	74	4422
2026-01-04 01:28:15.25	226.13	21.76	-53.9	-56.0	14.3	0.00e+00	0	29	0	1137704960	74	4456
2026-01-04 01:28:16.24	226.08	21.62	-54.1	-56.2	14.3	0.00e+00	0	29	0	1139802112	74	4546
2026-01-04 01:28:17.24	226.03	21.49	-54.2	-56.4	14.1	0.00e+00	0	29	0	1140850688	74	4684
2026-01-04 01:28:18.24	225.98	21.35	-54.1	-56.2	14.2	0.00e+00	0	29	0	1142947840	74	4598
2026-01-04 01:28:19.22	225.94	21.22	-54.5	-56.7	14.0	0.00e+00	0	29	0	1145044992	74	4858
2026-01-04 01:28:20.21	225.89	21.08	-54.7	-57.0	13.9	0.00e+00	0	29	0	1147142144	74	5014
2026-01-04 01:28:21.20	225.84	20.95	-54.6	-57.0	13.9	0.00e+00	0	29	0	1148190720	74	5003
2026-01-04 01:28:22.19	225.79	20.82	-54.8	-57.2	13.8	0.00e+00	0	29	0	1150287872	74	5104
2026-01-04 01:28:23.18	225.75	20.69	-55.1	-57.7	13.6	0.00e+00	0	29	0	1152385024	75	5119
2026-01-04 01:28:24.17	225.70	20.56	-54.9	-57.4	13.7	0.00e+00	0	29	0	1154482176	75	4937
2026-01-04 01:28:25.18	225.66	20.42	-54.8	-57.2	13.8	0.00e+00	0	29	0	1156579328	75	4868
2026-01-04 01:28:26.18	225.61	20.29	-54.7	-57.0	13.9	0.00e+00	0	29	0	1157627904	75	4751
2026-01-04 01:28:27.18	225.57	20.16	-54.6	-57.0	13.9	0.00e+00	0	29	0	1159725056	75	4710
2026-01-04 01:28:28.18	225.52	20.03	-54.4	-56.6	14.1	0.00e+00	0	29	0	1161822208	75	4532
2026-01-04 01:28:29.18	225.48	19.90	-54.4	-56.6	14.1	0.00e+00	0	29	0	1163919360	75	4533
2026-01-04 01:28:30.18	225.43	19.78	-54.4	-56.6	14.1	0.00e+00	0	29	0	1164967936	75	4504
2026-01-04 01:28:31.17	225.39	19.65	-54.2	-56.3	14.2	0.00e+00	0	29	0	1167065088	75	4364
2026-01-04 01:28:32.17	225.35	19.52	-54.1	-56.2	14.2	0.00e+00	0	29	0	1169162240	74	4573
2026-01-04 01:28:33.16	225.30	19.40	-54.1	-56.2	14.2	0.00e+00	0	29	0	1171259392	74	4575
2026-01-04 01:28:34.16	225.26	19.27	-54.1	-56.2	14.2	0.00e+00	0	29	0	1173356544	74	4583
2026-01-04 01:28:35.16	225.22	19.15	-54.2	-56.3	14.1	0.00e+00	0	29	0	1174405120	74	4643
2026-01-04 01:28:36.17	225.18	19.02	-53.9	-55.9	14.3	0.00e+00	0	29	0	1176502272	74	4429
2026-01-04 01:28:37.16	225.14	18.90	-54.0	-56.1	14.2	0.00e+00	0	29	0	1178599424	74	4538
2026-01-04 01:28:38.17	225.10	18.77	-53.9	-56.0	14.3	0.00e+00	0	29	0	1180696576	74	4463
2026-01-04 01:28:39.16	225.06	18.65	-53.8	-55.8	14.4	0.00e+00	0	29	0	1182793728	74	4360
2026-01-04 01:28:40.15	225.02	18.53	-53.9	-55.9	14.3	0.00e+00	0	29	0	1183842304	74	4430
2026-01-04 01:28:41.14	224.98	18.41	-53.7	-55.7	14.4	0.00e+00	0	29	0	1185939456	74	4317
2026-01-04 01:28:42.14	224.94	18.29	-53.8	-55.7	14.4	0.00e+00	0	29	0	1188036608	74	4338
2026-01-04 01:28:43.14	224.90	18.17	-53.6	-55.6	14.4	0.00e+00	0	29	0	1190133760	73	4505
2026-01-04 01:28:44.13	224.86	18.05	-53.5	-55.4	14.4	0.00e+00	0	29	0	1192230912	73	4428
2026-01-04 01:28:45.13	224.82	17.93	-53.5	-55.4	14.4	0.00e+00	0	29	0	1193279488	73	4421
2026-01-04 01:28:46.14	224.78	17.81	-53.5	-55.4	14.5	0.00e+00	0	29	0	1195376640	73	4401
2026-01-04 01:28:47.13	224.75	17.70	-53.4	-55.3	14.5	0.00e+00	0	29	0	1197473792	73	4356
2026-01-04 01:28:48.14	224.71	17.58	-53.3	-55.1	14.6	0.00e+00	0	29	0	1199570944	73	4279
2026-01-04 01:28:49.14	224.67	17.46	-53.4	-55.3	14.5	0.00e+00	0	29	0	1200619520	73	4354
2026-01-04 01:28:50.15	224.63	17.34	-53.2	-55.1	14.6	0.00e+00	0	29	0	1202716672	73	4247
2026-01-04 01:28:51.15	224.60	17.23	-53.2	-55.1	14.5	0.00e+00	0	29	0	1204813824	72	4495
2026-01-04 01:28:52.14	224.56	17.11	-53.4	-55.3	14.4	0.00e+00	0	29	0	1206910976	72	4626
2026-01-04 01:28:53.14	224.53	17.00	-53.5	-55.4	14.3	0.00e+00	0	28	0	1209008128	72	4699
2026-01-04 01:28:54.15	224.49	16.88	-53.5	-55.4	14.3	0.00e+00	0	29	0	1210056704	72	4689
2026-01-04 01:28:55.14	224.45	16.77	-53.7	-55.8	14.2	0.00e+00	0	29	0	1212153856	72	4877
2026-01-04 01:28:56.14	224.42	16.65	-53.4	-55.4	14.3	0.00e+00	0	29	0	1214251008	72	4665
2026-01-04 01:28:57.14	224.39	16.54	-53.5	-55.5	14.3	0.00e+00	0	28	0	1216348160	72	4710
2026-01-04 01:28:58.14	224.35	16.43	-53.7	-55.8	14.2	0.00e+00	0	29	0	1218445312	72	4876
2026-01-04 01:28:59.13	224.32	16.32	-53.8	-55.9	14.1	0.00e+00	0	29	0	1219493888	72	4962
2026-01-04 01:29:00.12	224.28	16.21	-53.8	-55.8	14.1	0.00e+00	0	29	0	1221591040	72	4922
2026-01-04 01:29:01.12	224.25	16.10	-54.1	-56.3	14.0	0.00e+00	0	28	0	1223688192	73	4880
