passes_logs/2026/01/04/R3.2S_Murmansk/R3.2S_Murmansk__20260104_081524_NOAA_20_JPSS-1_rec.log

#Pass ID: 20260104_081524_NOAA 20 (JPSS-1)
#Satellite: NOAA 20 (JPSS-1)
#Configuration: NOAA 20
#almurnet v.1.7.20251203
#Start time: 2026-01-04 08:15:25

#Version: 2.2.20231116
#Station: R3.2S_Murmansk
#Location: 33.079688 lon 68.888172 lat
#TLE: 1 43013U 17073A   26003.91140107  .00000139  00000+0  86966-4 0  9994
#TLE: 2 43013  98.7625 304.9685 0001869  55.4713 304.6639 14.19532967421166

#Time	Az	El	Level	Level2	SNR	BER	BlckErr	Temp	State	Recorded	gain1	gain2
2026-01-04 08:15:25.05	122.13	2.05	-60.7	-76.8	3.8	1.49e+00	0	26	0	0	86	24572
2026-01-04 08:15:26.05	122.10	2.11	-60.7	-76.8	3.8	1.49e+00	0	27	104	0	86	24548
2026-01-04 08:15:27.06	122.07	2.17	-60.7	-76.8	3.8	1.49e+00	0	27	104	0	86	24490
2026-01-04 08:15:28.07	122.04	2.24	-60.7	-76.8	3.8	1.49e+00	0	27	104	0	86	24491
2026-01-04 08:15:29.08	122.01	2.30	-60.7	-76.8	3.8	1.49e+00	0	27	104	0	86	24521
2026-01-04 08:15:30.09	121.98	2.37	-60.7	-76.8	3.8	1.49e+00	0	27	104	0	86	24491
2026-01-04 08:15:31.10	121.95	2.43	-60.8	-76.9	3.8	1.49e+00	0	27	104	0	86	24949
2026-01-04 08:15:32.11	121.92	2.50	-60.9	-77.0	3.8	1.49e+00	0	27	104	0	86	25160
2026-01-04 08:15:33.12	121.89	2.56	-60.9	-77.0	3.8	1.49e+00	0	27	104	0	86	25167
2026-01-04 08:15:34.13	121.86	2.62	-60.9	-77.0	3.8	1.49e+00	0	27	104	0	86	25048
2026-01-04 08:15:35.14	121.83	2.69	-60.8	-77.0	3.9	1.49e+00	0	27	104	0	86	25009
2026-01-04 08:15:36.15	121.80	2.75	-60.8	-76.9	3.8	1.49e+00	0	27	104	0	86	24874
2026-01-04 08:15:37.15	121.78	2.82	-60.8	-76.9	3.8	1.49e+00	0	27	104	0	86	24761
2026-01-04 08:15:38.16	121.75	2.88	-60.7	-76.8	3.8	1.49e+00	0	27	104	0	86	24608
2026-01-04 08:15:39.17	121.71	2.95	-60.7	-76.8	3.8	1.49e+00	0	27	104	0	86	24420
2026-01-04 08:15:40.19	121.68	3.02	-60.6	-76.7	3.8	1.49e+00	0	27	104	0	86	24236
2026-01-04 08:15:41.19	121.65	3.08	-60.5	-76.6	3.8	1.49e+00	0	27	104	0	86	24079
2026-01-04 08:15:42.20	121.62	3.15	-60.5	-76.5	3.8	1.49e+00	0	27	104	0	86	23805
2026-01-04 08:15:43.21	121.59	3.21	-60.4	-76.5	3.8	1.49e+00	0	27	104	0	86	23616
2026-01-04 08:15:44.22	121.56	3.28	-60.3	-76.4	3.8	1.49e+00	0	27	104	0	86	23373
2026-01-04 08:15:45.23	121.53	3.35	-60.2	-76.3	3.8	1.49e+00	0	27	104	0	86	23190
2026-01-04 08:15:46.24	121.50	3.41	-60.1	-76.2	3.8	1.49e+00	0	27	104	0	86	22782
2026-01-04 08:15:47.25	121.47	3.48	-60.0	-76.0	3.8	1.49e+00	0	27	104	0	86	22446
2026-01-04 08:15:48.26	121.43	3.55	-59.9	-75.9	3.8	1.49e+00	0	27	104	0	86	22112
2026-01-04 08:15:49.27	121.40	3.61	-59.8	-75.9	3.8	1.49e+00	0	27	104	0	86	22011
2026-01-04 08:15:50.27	121.37	3.68	-59.7	-75.8	3.8	1.49e+00	0	27	104	0	86	21827
2026-01-04 08:15:51.28	121.34	3.75	-59.6	-75.7	3.8	1.49e+00	0	27	104	0	85	22874
2026-01-04 08:15:52.29	121.31	3.81	-59.6	-75.6	3.8	1.49e+00	0	27	104	0	85	22591
2026-01-04 08:15:53.30	121.27	3.88	-59.5	-75.5	3.8	1.49e+00	0	27	104	0	85	22451
2026-01-04 08:15:54.31	121.24	3.95	-59.4	-75.4	3.8	1.49e+00	0	27	104	0	85	22084
2026-01-04 08:15:55.32	121.21	4.02	-59.2	-75.3	3.8	1.49e+00	0	27	104	0	85	21810
2026-01-04 08:15:56.32	121.18	4.08	-59.1	-75.1	3.8	1.49e+00	0	27	104	0	84	22570
2026-01-04 08:15:57.33	121.14	4.15	-58.9	-74.7	3.8	1.49e+00	0	27	104	0	84	21563
2026-01-04 08:15:58.34	121.11	4.22	-57.4	-64.3	8.0	1.49e+00	0	27	104	0	81	7725
2026-01-04 08:15:59.35	121.08	4.29	-57.0	-63.1	9.0	1.36e-02	0	27	0	1048576	80	7200
2026-01-04 08:16:00.36	121.04	4.36	-56.6	-61.9	10.1	2.17e-03	0	27	0	3145728	79	6611
2026-01-04 08:16:01.37	121.01	4.43	-56.1	-60.6	11.0	5.54e-04	0	27	0	5242880	78	6024
2026-01-04 08:16:02.38	120.97	4.50	-55.7	-59.7	11.7	1.67e-05	0	27	0	6291456	78	5450
2026-01-04 08:16:03.38	120.94	4.56	-55.3	-58.9	12.2	1.50e-06	0	27	0	8388608	77	5235
2026-01-04 08:16:04.39	120.91	4.63	-54.9	-58.1	12.7	7.00e-07	0	28	0	10485760	76	5090
2026-01-04 08:16:05.39	120.87	4.70	-54.4	-57.3	13.0	0.00e+00	0	27	0	12582912	75	4926
2026-01-04 08:16:06.40	120.84	4.77	-54.2	-57.0	13.2	0.00e+00	0	27	0	14680064	75	4740
2026-01-04 08:16:07.41	120.80	4.84	-54.2	-57.0	13.2	0.00e+00	0	27	0	15728640	74	4984
2026-01-04 08:16:08.41	120.77	4.91	-54.0	-56.7	13.3	0.00e+00	0	28	0	17825792	74	4850
2026-01-04 08:16:09.42	120.73	4.98	-54.1	-56.8	13.3	0.00e+00	0	28	0	19922944	74	4904
2026-01-04 08:16:10.43	120.70	5.05	-54.1	-56.9	13.2	0.00e+00	0	27	0	22020096	74	4960
2026-01-04 08:16:11.43	120.66	5.12	-54.5	-57.4	13.0	0.00e+00	0	28	0	24117248	74	5233
2026-01-04 08:16:12.44	120.62	5.19	-53.8	-56.4	13.6	1.50e-06	0	27	0	25165824	74	4680
2026-01-04 08:16:13.44	120.59	5.26	-56.0	-60.2	11.3	7.49e-03	0	28	0	27262976	78	5730
2026-01-04 08:16:14.45	120.55	5.33	-54.0	-56.7	13.3	4.04e-05	0	27	0	29360128	74	4836
2026-01-04 08:16:15.46	120.52	5.41	-54.8	-58.0	12.7	3.00e-06	0	27	0	31457280	76	4988
2026-01-04 08:16:16.47	120.48	5.48	-53.9	-56.5	13.5	0.00e+00	0	28	0	33554432	74	4732
2026-01-04 08:16:17.47	120.44	5.55	-53.9	-56.6	13.5	0.00e+00	0	28	0	34603008	74	4761
2026-01-04 08:16:18.48	120.41	5.62	-54.0	-56.7	13.4	0.00e+00	0	28	0	36700160	74	4817
2026-01-04 08:16:19.48	120.37	5.69	-53.9	-56.6	13.5	0.00e+00	0	28	0	38797312	74	4770
2026-01-04 08:16:20.49	120.33	5.76	-54.0	-56.6	13.4	0.00e+00	0	28	0	40894464	74	4806
2026-01-04 08:16:21.50	120.29	5.84	-53.8	-56.4	13.6	0.00e+00	0	28	0	42991616	74	4670
2026-01-04 08:16:22.51	120.26	5.91	-54.0	-56.6	13.5	0.00e+00	0	28	0	44040192	74	4771
2026-01-04 08:16:23.52	120.22	5.98	-53.8	-56.3	13.6	0.00e+00	0	28	0	46137344	74	4640
2026-01-04 08:16:24.52	120.18	6.05	-53.8	-56.3	13.6	0.00e+00	0	28	0	48234496	74	4641
2026-01-04 08:16:25.53	120.14	6.13	-53.9	-56.4	13.6	0.00e+00	0	28	0	50331648	74	4684
2026-01-04 08:16:26.54	120.10	6.20	-53.8	-56.4	13.6	0.00e+00	0	28	0	52428800	74	4656
2026-01-04 08:16:27.54	120.06	6.27	-53.9	-56.5	13.6	0.00e+00	0	28	0	53477376	74	4710
2026-01-04 08:16:28.54	120.03	6.35	-53.9	-56.4	13.6	0.00e+00	0	28	0	55574528	74	4691
2026-01-04 08:16:29.55	119.99	6.42	-53.8	-56.3	13.7	0.00e+00	0	28	0	57671680	74	4643
2026-01-04 08:16:30.56	119.95	6.49	-53.7	-56.1	13.8	0.00e+00	0	28	0	59768832	74	4534
2026-01-04 08:16:31.57	119.91	6.57	-53.8	-56.3	13.7	0.00e+00	0	28	0	61865984	74	4617
2026-01-04 08:16:32.58	119.87	6.64	-53.8	-56.3	13.7	0.00e+00	0	28	0	62914560	74	4609
2026-01-04 08:16:33.58	119.83	6.72	-53.8	-56.2	13.7	0.00e+00	0	28	0	65011712	74	4597
2026-01-04 08:16:34.59	119.79	6.79	-53.7	-56.1	13.8	0.00e+00	0	28	0	67108864	74	4539
2026-01-04 08:16:35.59	119.75	6.87	-53.7	-56.1	13.8	0.00e+00	0	27	0	69206016	74	4545
2026-01-04 08:16:36.60	119.71	6.94	-53.7	-56.1	13.8	0.00e+00	0	28	0	71303168	74	4531
2026-01-04 08:16:37.61	119.67	7.02	-53.7	-56.1	13.8	0.00e+00	0	28	0	72351744	74	4517
2026-01-04 08:16:38.61	119.62	7.09	-53.7	-56.1	13.8	0.00e+00	0	28	0	74448896	74	4530
2026-01-04 08:16:39.62	119.58	7.17	-53.7	-56.1	13.8	0.00e+00	0	28	0	76546048	74	4516
2026-01-04 08:16:40.63	119.54	7.24	-53.8	-56.2	13.8	0.00e+00	0	28	0	78643200	74	4554
2026-01-04 08:16:41.63	119.50	7.32	-53.7	-56.0	13.9	0.00e+00	0	28	0	80740352	74	4488
2026-01-04 08:16:42.64	119.46	7.40	-53.7	-56.1	13.8	0.00e+00	0	28	0	81788928	73	4779
2026-01-04 08:16:43.64	119.42	7.47	-53.7	-56.0	13.8	0.00e+00	0	28	0	83886080	73	4752
2026-01-04 08:16:44.65	119.37	7.55	-53.7	-56.1	13.8	0.00e+00	0	28	0	85983232	73	4785
2026-01-04 08:16:45.65	119.33	7.62	-53.7	-56.1	13.8	0.00e+00	0	28	0	88080384	73	4772
2026-01-04 08:16:46.66	119.29	7.70	-53.6	-55.9	13.9	0.00e+00	0	28	0	90177536	73	4684
2026-01-04 08:16:47.67	119.24	7.78	-53.6	-56.0	13.8	0.00e+00	0	28	0	91226112	73	4715
2026-01-04 08:16:48.68	119.20	7.86	-53.7	-56.1	13.8	0.00e+00	0	28	0	93323264	73	4785
2026-01-04 08:16:49.69	119.16	7.94	-53.6	-55.9	13.9	0.00e+00	0	28	0	95420416	73	4684
2026-01-04 08:16:50.69	119.11	8.01	-53.6	-56.0	13.9	0.00e+00	0	28	0	97517568	73	4714
2026-01-04 08:16:51.70	119.07	8.09	-53.7	-56.1	13.8	0.00e+00	0	28	0	99614720	73	4767
2026-01-04 08:16:52.71	119.02	8.17	-53.7	-56.0	13.8	0.00e+00	0	28	0	100663296	73	4744
2026-01-04 08:16:53.72	118.98	8.25	-53.7	-56.0	13.8	0.00e+00	0	28	0	102760448	73	4759
2026-01-04 08:16:54.73	118.93	8.33	-53.5	-55.8	14.0	0.00e+00	0	28	0	104857600	73	4626
2026-01-04 08:16:55.74	118.89	8.41	-53.6	-55.8	13.9	0.00e+00	0	28	0	106954752	73	4646
2026-01-04 08:16:56.74	118.84	8.49	-53.6	-55.9	13.9	0.00e+00	0	28	0	109051904	73	4653
2026-01-04 08:16:57.75	118.80	8.57	-53.6	-55.9	13.9	0.00e+00	0	28	0	110100480	73	4657
2026-01-04 08:16:58.76	118.75	8.65	-53.5	-55.7	14.0	0.00e+00	0	28	0	112197632	73	4586
2026-01-04 08:16:59.76	118.70	8.73	-53.6	-55.8	14.0	0.00e+00	0	28	0	114294784	73	4626
2026-01-04 08:17:00.77	118.66	8.81	-53.5	-55.8	14.0	0.00e+00	0	28	0	116391936	73	4613
2026-01-04 08:17:01.78	118.61	8.89	-53.5	-55.7	14.0	0.00e+00	0	28	0	118489088	73	4572
2026-01-04 08:17:02.79	118.56	8.97	-53.5	-55.6	14.0	0.00e+00	0	28	0	119537664	73	4544
2026-01-04 08:17:03.79	118.51	9.05	-53.4	-55.6	14.1	0.00e+00	0	28	0	121634816	73	4526
2026-01-04 08:17:04.80	118.47	9.13	-53.5	-55.7	14.1	0.00e+00	0	28	0	123731968	73	4552
2026-01-04 08:17:05.81	118.42	9.21	-53.5	-55.7	14.1	0.00e+00	0	28	0	125829120	73	4548
2026-01-04 08:17:06.82	118.37	9.30	-53.5	-55.6	14.1	0.00e+00	0	28	0	127926272	73	4527
2026-01-04 08:17:07.82	118.32	9.38	-53.4	-55.6	14.1	0.00e+00	0	28	0	128974848	73	4510
2026-01-04 08:17:08.84	118.27	9.46	-53.4	-55.5	14.2	0.00e+00	0	28	0	131072000	73	4459
2026-01-04 08:17:09.84	118.22	9.54	-53.4	-55.5	14.2	0.00e+00	0	28	0	133169152	73	4455
2026-01-04 08:17:10.85	118.17	9.63	-53.3	-55.4	14.2	0.00e+00	0	28	0	135266304	73	4432
2026-01-04 08:17:11.85	118.12	9.71	-53.3	-55.4	14.2	0.00e+00	0	28	0	137363456	73	4400
2026-01-04 08:17:12.87	118.07	9.79	-53.3	-55.4	14.2	0.00e+00	0	28	0	138412032	73	4407
2026-01-04 08:17:13.87	118.02	9.88	-53.3	-55.4	14.2	0.00e+00	0	28	0	140509184	73	4405
2026-01-04 08:17:14.87	117.97	9.96	-53.3	-55.4	14.2	0.00e+00	0	28	0	142606336	73	4428
2026-01-04 08:17:15.88	117.92	10.04	-53.3	-55.4	14.2	0.00e+00	0	28	0	144703488	73	4436
2026-01-04 08:17:16.88	117.87	10.13	-53.3	-55.3	14.2	0.00e+00	0	28	0	146800640	73	4384
2026-01-04 08:17:17.89	117.82	10.21	-53.3	-55.3	14.2	0.00e+00	0	28	0	147849216	73	4376
2026-01-04 08:17:18.90	117.76	10.30	-53.2	-55.3	14.3	0.00e+00	0	28	0	149946368	73	4348
2026-01-04 08:17:19.91	117.71	10.38	-53.3	-55.4	14.2	0.00e+00	0	28	0	152043520	73	4419
2026-01-04 08:17:20.91	117.66	10.47	-53.3	-55.4	14.2	0.00e+00	0	28	0	154140672	73	4409
2026-01-04 08:17:21.92	117.61	10.55	-53.3	-55.3	14.3	0.00e+00	0	28	0	156237824	73	4374
2026-01-04 08:17:22.93	117.55	10.64	-53.2	-55.2	14.2	0.00e+00	0	28	0	157286400	72	4591
2026-01-04 08:17:23.94	117.50	10.73	-53.2	-55.3	14.2	0.00e+00	0	28	0	159383552	72	4602
2026-01-04 08:17:24.95	117.45	10.81	-53.3	-55.3	14.2	0.00e+00	0	28	0	161480704	72	4636
2026-01-04 08:17:25.96	117.39	10.90	-53.2	-55.2	14.2	0.00e+00	0	28	0	163577856	72	4566
2026-01-04 08:17:26.96	117.34	10.99	-53.1	-55.1	14.3	0.00e+00	0	28	0	165675008	72	4535
2026-01-04 08:17:27.97	117.28	11.08	-53.1	-55.1	14.3	0.00e+00	0	28	0	166723584	72	4513
2026-01-04 08:17:28.98	117.23	11.16	-53.2	-55.2	14.2	0.00e+00	0	28	0	168820736	72	4581
2026-01-04 08:17:29.99	117.17	11.25	-53.1	-55.1	14.3	0.00e+00	0	28	0	170917888	72	4523
2026-01-04 08:17:30.99	117.11	11.34	-53.1	-55.1	14.3	0.00e+00	0	28	0	173015040	72	4514
2026-01-04 08:17:32.00	117.06	11.43	-53.1	-55.0	14.3	0.00e+00	0	28	0	175112192	72	4489
2026-01-04 08:17:33.01	117.00	11.52	-53.0	-55.0	14.4	0.00e+00	0	28	0	176160768	72	4445
2026-01-04 08:17:34.02	116.94	11.61	-52.9	-54.9	14.4	0.00e+00	0	28	0	178257920	72	4401
2026-01-04 08:17:35.02	116.89	11.70	-53.0	-54.9	14.4	0.00e+00	0	28	0	180355072	72	4425
2026-01-04 08:17:36.03	116.83	11.79	-52.9	-54.9	14.4	0.00e+00	0	28	0	182452224	72	4402
2026-01-04 08:17:37.04	116.77	11.88	-52.9	-54.8	14.4	0.00e+00	0	28	0	184549376	72	4361
2026-01-04 08:17:38.05	116.71	11.97	-53.0	-54.9	14.4	0.00e+00	0	28	0	185597952	72	4416
2026-01-04 08:17:39.05	116.65	12.06	-52.8	-54.6	14.5	0.00e+00	0	28	0	187695104	72	4283
2026-01-04 08:17:40.06	116.59	12.15	-52.9	-54.8	14.5	0.00e+00	0	28	0	189792256	72	4341
2026-01-04 08:17:41.07	116.53	12.24	-52.9	-54.7	14.5	0.00e+00	0	28	0	191889408	72	4335
2026-01-04 08:17:42.08	116.47	12.33	-52.8	-54.8	14.5	0.00e+00	0	28	0	193986560	72	4341
2026-01-04 08:17:43.09	116.41	12.42	-52.8	-54.6	14.5	0.00e+00	0	28	0	195035136	72	4276
2026-01-04 08:17:44.09	116.35	12.51	-52.8	-54.7	14.5	0.00e+00	0	28	0	197132288	72	4298
2026-01-04 08:17:45.10	116.29	12.61	-52.8	-54.6	14.5	0.00e+00	0	28	0	199229440	72	4266
2026-01-04 08:17:46.11	116.23	12.70	-52.7	-54.6	14.5	0.00e+00	0	28	0	201326592	72	4257
2026-01-04 08:17:47.11	116.16	12.79	-52.7	-54.6	14.5	0.00e+00	0	28	0	203423744	72	4258
2026-01-04 08:17:48.12	116.10	12.89	-52.7	-54.5	14.6	0.00e+00	0	28	0	204472320	72	4240
2026-01-04 08:17:49.13	116.04	12.98	-52.8	-54.7	14.5	0.00e+00	0	28	0	206569472	72	4300
2026-01-04 08:17:50.13	115.97	13.07	-52.6	-54.4	14.5	0.00e+00	0	28	0	208666624	71	4428
2026-01-04 08:17:51.15	115.91	13.17	-52.6	-54.4	14.5	0.00e+00	0	28	0	210763776	71	4414
2026-01-04 08:17:52.15	115.85	13.26	-52.7	-54.6	14.5	0.00e+00	0	28	0	212860928	71	4500
2026-01-04 08:17:53.16	115.78	13.36	-52.6	-54.4	14.5	0.00e+00	0	28	0	213909504	71	4417
2026-01-04 08:17:54.16	115.72	13.45	-52.6	-54.4	14.5	0.00e+00	0	28	0	216006656	71	4430
2026-01-04 08:17:55.17	115.65	13.55	-52.6	-54.4	14.5	0.00e+00	0	28	0	218103808	71	4430
2026-01-04 08:17:56.18	115.58	13.65	-52.6	-54.4	14.5	0.00e+00	0	28	0	220200960	71	4425
2026-01-04 08:17:57.19	115.52	13.74	-52.7	-54.5	14.5	0.00e+00	0	28	0	222298112	71	4460
2026-01-04 08:17:58.19	115.45	13.84	-52.7	-54.5	14.5	0.00e+00	0	28	0	224395264	71	4469
2026-01-04 08:17:59.20	115.38	13.94	-52.5	-54.3	14.6	0.00e+00	0	28	0	225443840	71	4370
2026-01-04 08:18:00.20	115.31	14.03	-52.6	-54.4	14.5	0.00e+00	0	28	0	227540992	71	4419
2026-01-04 08:18:01.21	115.25	14.13	-52.5	-54.3	14.6	0.00e+00	0	28	0	229638144	71	4378
2026-01-04 08:18:02.22	115.18	14.23	-52.6	-54.3	14.6	0.00e+00	0	28	0	231735296	71	4389
2026-01-04 08:18:03.22	115.11	14.33	-52.5	-54.3	14.6	0.00e+00	0	28	0	232783872	71	4359
2026-01-04 08:18:04.23	115.04	14.43	-52.6	-54.4	14.6	0.00e+00	0	28	0	234881024	71	4416
2026-01-04 08:18:05.24	114.97	14.53	-52.5	-54.3	14.6	0.00e+00	0	28	0	236978176	71	4375
2026-01-04 08:18:06.25	114.90	14.63	-52.6	-54.4	14.6	0.00e+00	0	28	0	239075328	71	4394
2026-01-04 08:18:07.26	114.82	14.73	-52.6	-54.4	14.5	0.00e+00	0	28	0	241172480	71	4423
2026-01-04 08:18:08.26	114.75	14.83	-52.6	-54.5	14.5	0.00e+00	0	28	0	242221056	71	4444
2026-01-04 08:18:09.27	114.68	14.93	-52.6	-54.4	14.5	0.00e+00	0	28	0	244318208	71	4409
2026-01-04 08:18:10.27	114.61	15.03	-52.6	-54.4	14.5	0.00e+00	0	28	0	246415360	71	4436
2026-01-04 08:18:11.28	114.53	15.13	-52.5	-54.3	14.6	0.00e+00	0	28	0	248512512	71	4379
2026-01-04 08:18:12.29	114.46	15.23	-52.5	-54.3	14.6	0.00e+00	0	28	0	250609664	71	4380
2026-01-04 08:18:13.30	114.39	15.34	-52.6	-54.4	14.6	0.00e+00	0	28	0	252706816	71	4403
2026-01-04 08:18:14.31	114.31	15.44	-52.5	-54.2	14.6	0.00e+00	0	28	0	253755392	71	4329
2026-01-04 08:18:15.32	114.23	15.54	-52.5	-54.3	14.6	0.00e+00	0	28	0	255852544	71	4361
2026-01-04 08:18:16.33	114.16	15.65	-52.5	-54.3	14.6	0.00e+00	0	28	0	257949696	71	4358
2026-01-04 08:18:17.34	114.08	15.75	-52.6	-54.4	14.6	0.00e+00	0	28	0	260046848	71	4399
2026-01-04 08:18:18.34	114.00	15.85	-52.5	-54.3	14.6	0.00e+00	0	28	0	262144000	71	4354
2026-01-04 08:18:19.35	113.93	15.96	-52.5	-54.3	14.6	0.00e+00	0	28	0	263192576	71	4354
2026-01-04 08:18:20.35	113.85	16.06	-52.5	-54.2	14.7	0.00e+00	0	28	0	265289728	71	4319
2026-01-04 08:18:21.36	113.77	16.17	-52.5	-54.2	14.6	0.00e+00	0	28	0	267386880	71	4326
2026-01-04 08:18:22.37	113.69	16.27	-52.5	-54.2	14.7	0.00e+00	0	28	0	269484032	71	4329
2026-01-04 08:18:23.38	113.61	16.38	-52.5	-54.3	14.6	0.00e+00	0	28	0	271581184	71	4371
2026-01-04 08:18:24.38	113.53	16.49	-52.5	-54.2	14.7	0.00e+00	0	28	0	272629760	71	4318
2026-01-04 08:18:25.39	113.45	16.59	-52.5	-54.3	14.6	0.00e+00	0	28	0	274726912	71	4343
2026-01-04 08:18:26.40	113.37	16.70	-52.4	-54.1	14.7	0.00e+00	0	28	0	276824064	71	4280
2026-01-04 08:18:27.41	113.28	16.81	-52.5	-54.2	14.7	0.00e+00	0	28	0	278921216	71	4312
2026-01-04 08:18:28.42	113.20	16.92	-52.5	-54.2	14.7	0.00e+00	0	28	0	281018368	71	4326
2026-01-04 08:18:29.42	113.12	17.03	-52.4	-54.2	14.7	0.00e+00	0	28	0	282066944	71	4297
2026-01-04 08:18:30.43	113.03	17.13	-52.5	-54.2	14.7	0.00e+00	0	28	0	284164096	71	4320
2026-01-04 08:18:31.44	112.95	17.24	-52.5	-54.2	14.7	0.00e+00	0	28	0	286261248	71	4332
2026-01-04 08:18:32.44	112.86	17.35	-52.4	-54.1	14.7	0.00e+00	0	28	0	288358400	71	4275
2026-01-04 08:18:33.45	112.78	17.46	-52.4	-54.2	14.7	0.00e+00	0	28	0	290455552	71	4302
2026-01-04 08:18:34.45	112.69	17.57	-52.4	-54.2	14.7	0.00e+00	0	28	0	291504128	71	4293
2026-01-04 08:18:35.46	112.60	17.69	-52.5	-54.3	14.6	0.00e+00	0	28	0	293601280	71	4348
2026-01-04 08:18:36.47	112.51	17.80	-52.6	-54.4	14.6	0.00e+00	0	28	0	295698432	71	4413
2026-01-04 08:18:37.48	112.42	17.91	-52.7	-54.5	14.5	0.00e+00	0	28	0	297795584	71	4463
2026-01-04 08:18:38.49	112.33	18.02	-52.6	-54.4	14.6	0.00e+00	0	28	0	299892736	71	4431
2026-01-04 08:18:39.49	112.24	18.13	-52.7	-54.5	14.5	0.00e+00	0	28	0	300941312	71	4491
2026-01-04 08:18:40.50	112.15	18.25	-52.8	-54.6	14.5	0.00e+00	0	28	0	303038464	71	4509
2026-01-04 08:18:41.51	112.06	18.36	-52.8	-54.7	14.5	0.00e+00	0	28	0	305135616	71	4547
2026-01-04 08:18:42.51	111.97	18.48	-52.8	-54.6	14.5	0.00e+00	0	28	0	307232768	71	4543
2026-01-04 08:18:43.52	111.88	18.59	-52.9	-54.8	14.4	0.00e+00	0	28	0	309329920	71	4613
2026-01-04 08:18:44.52	111.78	18.71	-52.9	-54.7	14.5	0.00e+00	0	28	0	310378496	71	4578
2026-01-04 08:18:45.53	111.69	18.82	-53.0	-54.8	14.4	0.00e+00	0	28	0	312475648	71	4629
2026-01-04 08:18:46.54	111.59	18.94	-53.0	-54.8	14.4	0.00e+00	0	28	0	314572800	71	4637
2026-01-04 08:18:47.54	111.50	19.05	-53.0	-54.9	14.4	0.00e+00	0	28	0	316669952	71	4653
2026-01-04 08:18:48.55	111.40	19.17	-53.1	-55.0	14.4	0.00e+00	0	28	0	318767104	71	4715
2026-01-04 08:18:49.55	111.30	19.29	-53.1	-55.0	14.3	0.00e+00	0	28	0	319815680	71	4752
2026-01-04 08:18:50.56	111.20	19.41	-53.1	-55.0	14.3	0.00e+00	0	28	0	321912832	71	4734
2026-01-04 08:18:51.57	111.10	19.52	-53.2	-55.1	14.3	0.00e+00	0	28	0	324009984	71	4767
2026-01-04 08:18:52.58	111.00	19.64	-53.1	-55.0	14.3	0.00e+00	0	28	0	326107136	71	4733
2026-01-04 08:18:53.58	110.90	19.76	-53.2	-55.1	14.3	0.00e+00	0	28	0	328204288	71	4774
2026-01-04 08:18:54.59	110.80	19.88	-53.2	-55.1	14.3	0.00e+00	0	28	0	329252864	71	4783
2026-01-04 08:18:55.60	110.70	20.00	-53.2	-55.2	14.3	0.00e+00	0	28	0	331350016	71	4817
2026-01-04 08:18:56.61	110.60	20.12	-53.3	-55.3	14.2	0.00e+00	0	28	0	333447168	71	4890
2026-01-04 08:18:57.61	110.49	20.24	-53.4	-55.3	14.2	0.00e+00	0	28	0	335544320	71	4908
2026-01-04 08:18:58.62	110.39	20.37	-53.4	-55.4	14.2	0.00e+00	0	28	0	337641472	71	4931
2026-01-04 08:18:59.63	110.28	20.49	-53.4	-55.3	14.3	0.00e+00	0	28	0	338690048	72	4637
2026-01-04 08:19:00.61	110.18	20.61	-53.4	-55.4	14.3	0.00e+00	0	28	0	340787200	72	4686
2026-01-04 08:19:01.62	110.07	20.73	-53.6	-55.6	14.2	0.00e+00	0	28	0	342884352	72	4799
2026-01-04 08:19:02.63	109.96	20.86	-53.5	-55.5	14.2	0.00e+00	0	28	0	344981504	72	4707
2026-01-04 08:19:03.63	109.85	20.98	-53.6	-55.6	14.2	0.00e+00	0	28	0	346030080	72	4776
2026-01-04 08:19:04.63	109.74	21.10	-53.5	-55.4	14.2	0.00e+00	0	29	0	348127232	72	4704
2026-01-04 08:19:05.64	109.63	21.23	-53.5	-55.5	14.3	0.00e+00	0	28	0	350224384	72	4707
2026-01-04 08:19:06.65	109.52	21.35	-53.5	-55.5	14.2	0.00e+00	0	28	0	352321536	72	4733
2026-01-04 08:19:07.66	109.41	21.48	-53.6	-55.6	14.2	0.00e+00	0	28	0	354418688	72	4795
2026-01-04 08:19:08.67	109.29	21.61	-53.5	-55.6	14.2	0.00e+00	0	28	0	356515840	72	4764
2026-01-04 08:19:09.68	109.18	21.74	-53.7	-55.7	14.1	0.00e+00	0	28	0	357564416	72	4852
2026-01-04 08:19:10.68	109.06	21.86	-53.6	-55.6	14.2	0.00e+00	0	28	0	359661568	72	4796
2026-01-04 08:19:11.69	108.94	21.99	-53.6	-55.6	14.2	0.00e+00	0	28	0	361758720	72	4812
2026-01-04 08:19:12.69	108.83	22.12	-53.6	-55.7	14.1	0.00e+00	0	28	0	363855872	72	4827
2026-01-04 08:19:13.70	108.71	22.25	-53.6	-55.6	14.2	0.00e+00	0	28	0	365953024	72	4770
2026-01-04 08:19:14.70	108.59	22.38	-53.5	-55.5	14.3	0.00e+00	0	28	0	367001600	72	4733
2026-01-04 08:19:15.71	108.47	22.51	-53.5	-55.5	14.2	0.00e+00	0	28	0	369098752	72	4740
2026-01-04 08:19:16.72	108.34	22.64	-53.6	-55.7	14.2	0.00e+00	0	28	0	371195904	72	4829
2026-01-04 08:19:17.73	108.22	22.77	-53.6	-55.6	14.2	0.00e+00	0	28	0	373293056	72	4796
2026-01-04 08:19:18.74	108.10	22.90	-53.5	-55.4	14.3	0.00e+00	0	28	0	374341632	72	4692
2026-01-04 08:19:19.75	107.97	23.04	-53.5	-55.4	14.3	0.00e+00	0	28	0	376438784	72	4688
2026-01-04 08:19:20.76	107.84	23.17	-53.5	-55.5	14.3	0.00e+00	0	28	0	378535936	72	4708
2026-01-04 08:19:21.77	107.72	23.30	-53.6	-55.6	14.2	0.00e+00	0	28	0	380633088	72	4762
2026-01-04 08:19:22.77	107.59	23.44	-53.5	-55.5	14.2	0.00e+00	0	28	0	382730240	72	4743
2026-01-04 08:19:23.78	107.46	23.57	-53.6	-55.6	14.2	0.00e+00	0	28	0	384827392	72	4793
2026-01-04 08:19:24.79	107.33	23.71	-53.7	-55.7	14.2	0.00e+00	0	28	0	385875968	72	4842
2026-01-04 08:19:25.80	107.20	23.84	-53.7	-55.8	14.1	0.00e+00	0	28	0	387973120	72	4886
2026-01-04 08:19:26.80	107.06	23.98	-53.6	-55.6	14.2	0.00e+00	0	28	0	390070272	72	4770
2026-01-04 08:19:27.81	106.93	24.12	-53.6	-55.6	14.2	0.00e+00	0	29	0	392167424	72	4807
2026-01-04 08:19:28.81	106.79	24.25	-53.5	-55.4	14.3	0.00e+00	0	29	0	394264576	72	4701
2026-01-04 08:19:29.82	106.66	24.39	-53.3	-55.3	14.4	0.00e+00	0	28	0	395313152	72	4612
2026-01-04 08:19:30.83	106.52	24.53	-53.4	-55.3	14.3	0.00e+00	0	28	0	397410304	72	4617
2026-01-04 08:19:31.84	106.38	24.67	-53.3	-55.3	14.4	0.00e+00	0	28	0	399507456	72	4605
2026-01-04 08:19:32.84	106.24	24.81	-53.4	-55.3	14.3	0.00e+00	0	28	0	401604608	72	4620
2026-01-04 08:19:33.85	106.10	24.95	-53.4	-55.4	14.3	0.00e+00	0	28	0	403701760	72	4660
2026-01-04 08:19:34.86	105.95	25.09	-53.4	-55.4	14.3	0.00e+00	0	28	0	404750336	72	4680
2026-01-04 08:19:35.86	105.81	25.23	-53.5	-55.5	14.3	0.00e+00	0	28	0	406847488	72	4710
2026-01-04 08:19:36.87	105.66	25.37	-53.3	-55.3	14.4	0.00e+00	0	28	0	408944640	72	4602
2026-01-04 08:19:37.88	105.52	25.51	-53.4	-55.4	14.3	0.00e+00	0	29	0	411041792	72	4663
2026-01-04 08:19:38.89	105.37	25.66	-53.5	-55.4	14.3	0.00e+00	0	28	0	413138944	72	4685
2026-01-04 08:19:39.89	105.22	25.80	-53.3	-55.2	14.4	0.00e+00	0	28	0	414187520	72	4581
2026-01-04 08:19:40.90	105.07	25.94	-53.4	-55.3	14.3	0.00e+00	0	28	0	416284672	72	4651
2026-01-04 08:19:41.91	104.92	26.09	-53.5	-55.4	14.3	0.00e+00	0	29	0	418381824	72	4674
2026-01-04 08:19:42.92	104.76	26.23	-53.4	-55.4	14.3	0.00e+00	0	29	0	420478976	72	4668
2026-01-04 08:19:43.92	104.61	26.38	-53.5	-55.5	14.2	0.00e+00	0	28	0	422576128	72	4743
2026-01-04 08:19:44.92	104.45	26.52	-53.5	-55.5	14.3	0.00e+00	0	28	0	423624704	72	4709
2026-01-04 08:19:45.93	104.29	26.67	-53.5	-55.5	14.3	0.00e+00	0	29	0	425721856	72	4738
2026-01-04 08:19:46.94	104.13	26.82	-53.5	-55.5	14.2	0.00e+00	0	29	0	427819008	72	4747
2026-01-04 08:19:47.94	103.97	26.96	-53.5	-55.4	14.3	0.00e+00	0	28	0	429916160	72	4687
2026-01-04 08:19:48.95	103.81	27.11	-53.4	-55.3	14.3	0.00e+00	0	28	0	432013312	72	4612
2026-01-04 08:19:49.96	103.64	27.26	-53.4	-55.3	14.3	0.00e+00	0	29	0	433061888	72	4623
2026-01-04 08:19:50.97	103.48	27.41	-53.4	-55.3	14.3	0.00e+00	0	28	0	435159040	72	4651
2026-01-04 08:19:51.97	103.31	27.56	-53.5	-55.5	14.3	0.00e+00	0	28	0	437256192	72	4722
2026-01-04 08:19:52.98	103.14	27.71	-53.5	-55.5	14.2	0.00e+00	0	28	0	439353344	72	4734
2026-01-04 08:19:53.99	102.97	27.86	-53.5	-55.5	14.3	0.00e+00	0	28	0	441450496	72	4740
2026-01-04 08:19:55.00	102.80	28.01	-53.6	-55.5	14.3	0.00e+00	0	28	0	442499072	72	4757
2026-01-04 08:19:56.00	102.62	28.16	-53.4	-55.4	14.3	0.00e+00	0	29	0	444596224	72	4660
2026-01-04 08:19:57.01	102.45	28.32	-53.5	-55.4	14.3	0.00e+00	0	28	0	446693376	72	4696
2026-01-04 08:19:58.02	102.27	28.47	-53.4	-55.3	14.3	0.00e+00	0	28	0	448790528	72	4638
2026-01-04 08:19:59.02	102.09	28.62	-53.4	-55.3	14.3	0.00e+00	0	28	0	450887680	72	4644
2026-01-04 08:20:00.03	101.91	28.78	-53.4	-55.3	14.4	0.00e+00	0	28	0	451936256	72	4625
2026-01-04 08:20:01.04	101.73	28.93	-53.4	-55.3	14.4	0.00e+00	0	28	0	454033408	72	4644
2026-01-04 08:20:02.05	101.54	29.09	-53.3	-55.2	14.4	0.00e+00	0	28	0	456130560	72	4568
2026-01-04 08:20:03.05	101.36	29.24	-53.4	-55.3	14.4	0.00e+00	0	28	0	458227712	72	4603
2026-01-04 08:20:04.06	101.17	29.40	-53.3	-55.2	14.4	0.00e+00	0	28	0	460324864	72	4574
2026-01-04 08:20:05.07	100.98	29.56	-53.4	-55.3	14.4	0.00e+00	0	28	0	461373440	72	4622
2026-01-04 08:20:06.07	100.79	29.71	-53.5	-55.4	14.3	0.00e+00	0	29	0	463470592	72	4696
2026-01-04 08:20:07.08	100.59	29.87	-53.6	-55.6	14.3	0.00e+00	0	28	0	465567744	72	4761
2026-01-04 08:20:08.09	100.40	30.03	-53.8	-55.8	14.1	0.00e+00	0	28	0	467664896	72	4907
2026-01-04 08:20:09.10	100.20	30.19	-54.0	-56.2	14.1	0.00e+00	0	28	0	469762048	73	4825
2026-01-04 08:20:10.10	100.00	30.35	-54.2	-56.4	14.0	0.00e+00	0	28	0	470810624	73	4968
2026-01-04 08:20:11.11	99.80	30.51	-54.6	-56.9	13.8	0.00e+00	0	28	0	472907776	74	4973
2026-01-04 08:20:12.12	99.59	30.67	-54.6	-56.9	13.8	0.00e+00	0	28	0	475004928	74	4955
2026-01-04 08:20:13.13	99.39	30.83	-54.6	-57.0	13.8	0.00e+00	0	28	0	477102080	74	4986
2026-01-04 08:20:14.13	99.18	30.99	-54.6	-56.9	13.8	0.00e+00	0	28	0	479199232	74	4973
2026-01-04 08:20:15.14	98.97	31.15	-54.6	-57.0	13.8	0.00e+00	0	28	0	480247808	74	5012
2026-01-04 08:20:16.15	98.76	31.31	-54.7	-57.1	13.7	0.00e+00	0	28	0	482344960	74	5072
2026-01-04 08:20:17.15	98.55	31.47	-54.8	-57.3	13.6	0.00e+00	0	29	0	484442112	74	5162
2026-01-04 08:20:18.16	98.33	31.64	-55.0	-57.5	13.6	0.00e+00	0	28	0	486539264	75	4989
2026-01-04 08:20:19.17	98.11	31.80	-54.9	-57.3	13.7	0.00e+00	0	29	0	488636416	75	4890
2026-01-04 08:20:20.18	97.89	31.96	-54.9	-57.4	13.7	0.00e+00	0	28	0	489684992	75	4937
2026-01-04 08:20:21.18	97.67	32.13	-54.9	-57.3	13.7	0.00e+00	0	29	0	491782144	75	4913
2026-01-04 08:20:22.19	97.44	32.29	-54.8	-57.1	13.8	0.00e+00	0	28	0	493879296	75	4805
2026-01-04 08:20:23.20	97.21	32.46	-54.8	-57.2	13.8	0.00e+00	0	29	0	495976448	75	4839
2026-01-04 08:20:24.21	96.98	32.62	-54.9	-57.3	13.7	0.00e+00	0	28	0	498073600	75	4875
2026-01-04 08:20:25.22	96.75	32.79	-54.9	-57.4	13.7	0.00e+00	0	28	0	499122176	75	4953
2026-01-04 08:20:26.22	96.51	32.95	-55.1	-57.6	13.6	0.00e+00	0	28	0	501219328	75	5054
2026-01-04 08:20:27.23	96.28	33.12	-55.2	-57.8	13.4	0.00e+00	0	29	0	503316480	75	5190
2026-01-04 08:20:28.24	96.04	33.29	-55.1	-57.6	13.5	0.00e+00	0	28	0	505413632	75	5057
2026-01-04 08:20:29.24	95.80	33.45	-55.1	-57.7	13.5	0.00e+00	0	28	0	507510784	75	5115
2026-01-04 08:20:30.25	95.55	33.62	-55.3	-58.0	13.4	0.00e+00	0	29	0	508559360	75	5299
2026-01-04 08:20:31.26	95.30	33.79	-55.3	-57.9	13.4	0.00e+00	0	29	0	510656512	75	5270
2026-01-04 08:20:32.27	95.05	33.96	-55.3	-57.9	13.4	0.00e+00	0	28	0	512753664	75	5246
2026-01-04 08:20:33.27	94.80	34.13	-55.2	-57.8	13.4	0.00e+00	0	28	0	514850816	75	5214
2026-01-04 08:20:34.28	94.54	34.29	-55.1	-57.6	13.6	0.00e+00	0	29	0	516947968	75	5052
2026-01-04 08:20:35.29	94.29	34.46	-55.1	-57.6	13.6	0.00e+00	0	29	0	517996544	75	5067
2026-01-04 08:20:36.30	94.02	34.63	-55.0	-57.5	13.6	0.00e+00	0	28	0	520093696	75	4988
2026-01-04 08:20:37.30	93.76	34.80	-55.2	-57.9	13.5	0.00e+00	0	29	0	522190848	75	5223
2026-01-04 08:20:38.31	93.50	34.97	-55.2	-57.7	13.5	0.00e+00	0	29	0	524288000	75	5136
2026-01-04 08:20:39.31	93.23	35.14	-55.0	-57.5	13.6	0.00e+00	0	28	0	526385152	75	5036
2026-01-04 08:20:40.32	92.96	35.31	-55.1	-57.6	13.6	0.00e+00	0	28	0	527433728	75	5071
2026-01-04 08:20:41.33	92.68	35.48	-54.8	-57.2	13.7	0.00e+00	0	28	0	529530880	75	4860
2026-01-04 08:20:42.33	92.41	35.65	-54.7	-57.1	13.8	0.00e+00	0	28	0	531628032	75	4771
2026-01-04 08:20:43.34	92.12	35.82	-54.7	-57.0	13.9	0.00e+00	0	28	0	533725184	75	4721
2026-01-04 08:20:44.35	91.84	35.99	-54.5	-56.8	14.0	0.00e+00	0	28	0	535822336	75	4600
2026-01-04 08:20:45.35	91.56	36.16	-54.5	-56.7	14.0	0.00e+00	0	28	0	536870912	75	4568
2026-01-04 08:20:46.36	91.26	36.33	-54.6	-56.8	14.0	0.00e+00	0	29	0	538968064	75	4640
2026-01-04 08:20:47.36	90.97	36.50	-54.6	-56.8	14.0	0.00e+00	0	28	0	541065216	75	4633
2026-01-04 08:20:48.37	90.68	36.67	-54.6	-56.9	13.9	0.00e+00	0	28	0	543162368	75	4704
2026-01-04 08:20:49.38	90.38	36.84	-54.5	-56.7	14.0	0.00e+00	0	28	0	545259520	75	4594
2026-01-04 08:20:50.39	90.08	37.01	-54.3	-56.5	14.1	0.00e+00	0	29	0	546308096	75	4478
2026-01-04 08:20:51.40	89.77	37.18	-54.1	-56.2	14.2	0.00e+00	0	28	0	548405248	74	4588
2026-01-04 08:20:52.41	89.46	37.35	-54.0	-56.1	14.2	0.00e+00	0	29	0	550502400	74	4500
2026-01-04 08:20:53.42	89.15	37.53	-53.9	-56.0	14.3	0.00e+00	0	28	0	552599552	74	4460
2026-01-04 08:20:54.42	88.83	37.69	-54.0	-56.1	14.2	0.00e+00	0	28	0	554696704	74	4520
2026-01-04 08:20:55.43	88.52	37.87	-53.9	-56.1	14.3	0.00e+00	0	29	0	555745280	74	4521
2026-01-04 08:20:56.43	88.20	38.03	-54.0	-56.2	14.2	0.00e+00	0	28	0	557842432	74	4583
2026-01-04 08:20:57.44	87.87	38.20	-54.1	-56.5	14.0	0.00e+00	0	29	0	559939584	74	4712
2026-01-04 08:20:58.45	87.54	38.37	-54.2	-56.6	14.0	0.00e+00	0	28	0	562036736	74	4779
2026-01-04 08:20:59.45	87.21	38.54	-54.3	-56.6	14.0	0.00e+00	0	28	0	564133888	74	4811
2026-01-04 08:21:00.46	86.87	38.71	-54.5	-56.7	14.0	0.00e+00	0	28	0	565182464	74	4843
2026-01-04 08:21:01.47	86.53	38.88	-54.4	-56.6	14.0	0.00e+00	0	28	0	567279616	74	4813
2026-01-04 08:21:02.48	86.19	39.05	-54.5	-56.7	13.9	0.00e+00	0	29	0	569376768	74	4860
2026-01-04 08:21:03.48	85.85	39.22	-54.6	-56.8	13.9	0.00e+00	0	28	0	571473920	74	4920
2026-01-04 08:21:04.48	85.50	39.38	-54.5	-56.8	14.0	0.00e+00	0	28	0	573571072	74	4871
2026-01-04 08:21:05.49	85.15	39.55	-54.4	-56.6	14.0	0.00e+00	0	28	0	574619648	74	4783
2026-01-04 08:21:06.50	84.79	39.72	-54.4	-56.6	14.0	0.00e+00	0	28	0	576716800	74	4761
2026-01-04 08:21:07.51	84.43	39.88	-54.4	-56.6	14.0	0.00e+00	0	28	0	578813952	74	4803
2026-01-04 08:21:08.51	84.06	40.05	-54.7	-57.0	13.8	0.00e+00	0	28	0	580911104	74	5020
2026-01-04 08:21:09.52	83.70	40.21	-55.1	-57.5	13.6	0.00e+00	0	28	0	583008256	75	5035
2026-01-04 08:21:10.52	83.33	40.38	-55.1	-57.6	13.6	0.00e+00	0	29	0	584056832	75	5091
2026-01-04 08:21:11.52	82.95	40.54	-55.1	-57.6	13.6	0.00e+00	0	29	0	586153984	75	5096
2026-01-04 08:21:12.53	82.57	40.70	-55.0	-57.5	13.6	0.00e+00	0	28	0	588251136	75	5019
2026-01-04 08:21:13.54	82.19	40.87	-55.1	-57.5	13.6	0.00e+00	0	28	0	590348288	75	5041
2026-01-04 08:21:14.54	81.80	41.03	-55.3	-57.9	13.5	0.00e+00	0	28	0	592445440	75	5240
2026-01-04 08:21:15.55	81.41	41.19	-55.5	-58.2	13.4	0.00e+00	0	28	0	593494016	76	5107
2026-01-04 08:21:16.56	81.02	41.35	-55.4	-58.0	13.5	0.00e+00	0	28	0	595591168	76	5005
2026-01-04 08:21:17.57	80.62	41.51	-55.1	-57.5	13.8	0.00e+00	0	29	0	597688320	76	4735
2026-01-04 08:21:18.58	80.21	41.67	-55.0	-57.3	13.9	0.00e+00	0	28	0	599785472	76	4638
2026-01-04 08:21:19.59	79.80	41.83	-54.7	-57.0	14.0	0.00e+00	0	28	0	601882624	76	4465
2026-01-04 08:21:20.59	79.39	41.98	-54.3	-56.5	14.2	0.00e+00	0	28	0	602931200	75	4447
2026-01-04 08:21:21.60	78.98	42.14	-53.7	-55.6	14.5	0.00e+00	0	29	0	605028352	74	4280
2026-01-04 08:21:22.61	78.56	42.29	-53.2	-55.0	14.6	0.00e+00	0	29	0	607125504	73	4220
2026-01-04 08:21:23.61	78.14	42.44	-53.0	-54.8	14.6	0.00e+00	0	29	0	609222656	72	4364
2026-01-04 08:21:24.62	77.71	42.60	-52.9	-54.7	14.7	0.00e+00	0	29	0	611319808	72	4308
2026-01-04 08:21:25.63	77.28	42.75	-52.8	-54.5	14.8	0.00e+00	0	29	0	612368384	72	4230
2026-01-04 08:21:26.64	76.84	42.90	-52.5	-54.2	14.8	0.00e+00	0	29	0	614465536	71	4315
2026-01-04 08:21:27.64	76.40	43.05	-52.6	-54.3	14.8	0.00e+00	0	29	0	616562688	71	4344
2026-01-04 08:21:28.65	75.96	43.19	-52.4	-54.0	14.8	0.00e+00	0	29	0	618659840	71	4235
2026-01-04 08:21:29.66	75.51	43.34	-52.4	-54.0	14.8	0.00e+00	0	29	0	620756992	71	4215
2026-01-04 08:21:30.66	75.06	43.48	-52.5	-54.2	14.8	0.00e+00	0	29	0	621805568	71	4296
2026-01-04 08:21:31.67	74.61	43.63	-52.6	-54.3	14.7	0.00e+00	0	29	0	623902720	71	4355
2026-01-04 08:21:32.68	74.15	43.77	-52.5	-54.1	14.8	0.00e+00	0	29	0	625999872	71	4276
2026-01-04 08:21:33.69	73.68	43.91	-52.4	-54.0	14.9	0.00e+00	0	28	0	628097024	71	4227
2026-01-04 08:21:34.70	73.21	44.05	-52.6	-54.2	14.8	0.00e+00	0	28	0	630194176	71	4325
2026-01-04 08:21:35.70	72.74	44.18	-52.4	-54.1	14.8	0.00e+00	0	28	0	631242752	71	4263
2026-01-04 08:21:36.72	72.26	44.32	-52.2	-53.8	14.9	0.00e+00	0	28	0	633339904	71	4125
2026-01-04 08:21:37.72	71.78	44.45	-52.1	-53.6	14.9	0.00e+00	0	28	0	635437056	70	4283
2026-01-04 08:21:38.73	71.30	44.58	-52.2	-53.8	14.8	0.00e+00	0	28	0	637534208	70	4374
2026-01-04 08:21:39.74	70.81	44.71	-52.6	-54.2	14.6	0.00e+00	0	29	0	639631360	70	4583
2026-01-04 08:21:40.74	70.32	44.84	-53.1	-54.9	14.5	0.00e+00	0	29	0	640679936	71	4699
2026-01-04 08:21:41.75	69.82	44.96	-53.7	-55.6	14.3	0.00e+00	0	28	0	642777088	72	4788
2026-01-04 08:21:42.76	69.32	45.08	-54.0	-56.0	14.2	0.00e+00	0	29	0	644874240	73	4729
2026-01-04 08:21:43.77	68.82	45.21	-54.0	-56.0	14.2	0.00e+00	0	29	0	646971392	73	4733
2026-01-04 08:21:44.77	68.31	45.32	-53.8	-55.8	14.3	0.00e+00	0	28	0	649068544	73	4641
2026-01-04 08:21:45.79	67.80	45.44	-53.9	-55.9	14.3	0.00e+00	0	28	0	650117120	73	4702
2026-01-04 08:21:46.79	67.28	45.56	-53.9	-55.9	14.2	0.00e+00	0	28	0	652214272	73	4700
2026-01-04 08:21:47.80	66.76	45.67	-54.0	-56.1	14.2	0.00e+00	0	28	0	654311424	73	4768
2026-01-04 08:21:48.81	66.24	45.78	-54.2	-56.2	14.1	0.00e+00	0	29	0	656408576	73	4859
2026-01-04 08:21:49.82	65.71	45.89	-54.1	-56.1	14.2	0.00e+00	0	28	0	658505728	73	4814
2026-01-04 08:21:50.83	65.18	45.99	-54.1	-56.2	14.1	0.00e+00	0	28	0	659554304	73	4825
2026-01-04 08:21:51.84	64.65	46.09	-54.4	-56.6	14.0	0.00e+00	0	28	0	661651456	73	5066
2026-01-04 08:21:52.84	64.11	46.19	-54.6	-56.9	13.9	0.00e+00	0	28	0	663748608	74	4949
2026-01-04 08:21:53.85	63.57	46.29	-54.8	-57.1	13.8	0.00e+00	0	28	0	665845760	74	5079
2026-01-04 08:21:54.85	63.03	46.39	-55.0	-57.4	13.7	0.00e+00	0	29	0	667942912	75	4964
2026-01-04 08:21:55.86	62.48	46.48	-55.0	-57.4	13.7	0.00e+00	0	28	0	668991488	75	4937
2026-01-04 08:21:56.86	61.94	46.57	-55.0	-57.4	13.8	0.00e+00	0	28	0	671088640	75	4941
2026-01-04 08:21:57.87	61.38	46.65	-54.9	-57.3	13.8	0.00e+00	0	29	0	673185792	75	4880
2026-01-04 08:21:58.88	60.83	46.74	-55.2	-57.7	13.6	0.00e+00	0	29	0	675282944	75	5108
2026-01-04 08:21:59.88	60.27	46.82	-55.3	-57.8	13.6	0.00e+00	0	28	0	677380096	75	5172
2026-01-04 08:22:00.89	59.71	46.90	-55.3	-57.9	13.5	0.00e+00	0	28	0	678428672	75	5227
2026-01-04 08:22:01.90	59.14	46.97	-55.2	-57.7	13.6	0.00e+00	0	29	0	680525824	75	5131
2026-01-04 08:22:02.90	58.58	47.05	-55.1	-57.6	13.6	0.00e+00	0	28	0	682622976	75	5072
2026-01-04 08:22:03.91	58.01	47.12	-54.9	-57.3	13.8	0.00e+00	0	29	0	684720128	75	4888
2026-01-04 08:22:04.92	57.43	47.18	-54.8	-57.1	13.9	0.00e+00	0	28	0	686817280	75	4803
2026-01-04 08:22:05.93	56.86	47.25	-54.8	-57.1	13.9	0.00e+00	0	28	0	687865856	75	4769
2026-01-04 08:22:06.94	56.28	47.31	-54.8	-57.1	13.9	0.00e+00	0	29	0	689963008	75	4780
2026-01-04 08:22:07.95	55.70	47.36	-54.8	-57.0	14.0	0.00e+00	0	28	0	692060160	75	4725
2026-01-04 08:22:08.95	55.12	47.42	-54.8	-57.0	14.0	0.00e+00	0	28	0	694157312	75	4731
2026-01-04 08:22:09.96	54.54	47.47	-54.9	-57.1	13.9	0.00e+00	0	28	0	696254464	75	4809
2026-01-04 08:22:10.97	53.95	47.52	-55.0	-57.3	13.8	0.00e+00	0	29	0	697303040	75	4900
2026-01-04 08:22:11.98	53.36	47.56	-54.9	-57.2	13.9	0.00e+00	0	28	0	699400192	75	4857
2026-01-04 08:22:12.98	52.78	47.60	-55.0	-57.3	13.8	0.00e+00	0	28	0	701497344	75	4887
2026-01-04 08:22:13.99	52.19	47.64	-55.0	-57.3	13.8	0.00e+00	0	29	0	703594496	75	4903
2026-01-04 08:22:15.00	51.59	47.68	-54.8	-57.0	14.0	0.00e+00	0	28	0	705691648	75	4745
2026-01-04 08:22:16.00	51.01	47.71	-54.8	-57.0	13.9	0.00e+00	0	29	0	707788800	75	4756
2026-01-04 08:22:17.01	50.41	47.74	-54.8	-57.1	13.9	0.00e+00	0	29	0	708837376	75	4777
2026-01-04 08:22:18.02	49.81	47.76	-55.1	-57.5	13.7	0.00e+00	0	28	0	710934528	75	4992
2026-01-04 08:22:19.03	49.22	47.78	-54.8	-57.1	13.9	0.00e+00	0	29	0	713031680	75	4766
2026-01-04 08:22:20.04	48.62	47.80	-54.7	-56.9	14.0	0.00e+00	0	28	0	715128832	75	4681
2026-01-04 08:22:21.05	48.02	47.82	-54.7	-56.9	14.0	0.00e+00	0	29	0	717225984	75	4686
2026-01-04 08:22:22.06	47.42	47.83	-54.7	-56.9	14.0	0.00e+00	0	28	0	718274560	75	4690
2026-01-04 08:22:23.06	46.83	47.83	-54.5	-56.7	14.1	0.00e+00	0	28	0	720371712	75	4548
2026-01-04 08:22:24.06	46.23	47.84	-54.6	-56.8	14.1	0.00e+00	0	29	0	722468864	75	4603
2026-01-04 08:22:25.07	45.63	47.84	-54.7	-56.9	14.1	0.00e+00	0	29	0	724566016	75	4663
2026-01-04 08:22:26.08	45.03	47.84	-54.6	-56.8	14.1	0.00e+00	0	28	0	725614592	75	4637
2026-01-04 08:22:27.08	44.44	47.83	-54.6	-56.8	14.1	0.00e+00	0	28	0	727711744	75	4633
2026-01-04 08:22:28.09	43.84	47.82	-54.8	-57.1	13.9	0.00e+00	0	29	0	729808896	75	4790
2026-01-04 08:22:29.09	43.25	47.81	-55.0	-57.4	13.8	0.00e+00	0	28	0	731906048	75	4948
2026-01-04 08:22:30.10	42.65	47.80	-54.9	-57.1	13.9	0.00e+00	0	29	0	734003200	75	4813
2026-01-04 08:22:31.10	42.06	47.78	-54.6	-56.7	14.1	0.00e+00	0	28	0	736100352	75	4595
2026-01-04 08:22:32.11	41.46	47.75	-54.5	-56.7	14.1	0.00e+00	0	28	0	737148928	75	4553
2026-01-04 08:22:33.12	40.87	47.73	-54.6	-56.8	14.1	0.00e+00	0	29	0	739246080	75	4622
2026-01-04 08:22:34.12	40.28	47.70	-54.8	-57.1	13.9	0.00e+00	0	29	0	741343232	75	4790
2026-01-04 08:22:35.13	39.68	47.67	-55.0	-57.4	13.8	0.00e+00	0	29	0	743440384	75	4957
2026-01-04 08:22:36.14	39.09	47.63	-55.0	-57.3	13.8	0.00e+00	0	29	0	745537536	75	4886
2026-01-04 08:22:37.15	38.50	47.59	-54.9	-57.2	13.9	0.00e+00	0	29	0	746586112	75	4854
2026-01-04 08:22:38.16	37.91	47.55	-54.9	-57.2	13.8	0.00e+00	0	28	0	748683264	75	4862
2026-01-04 08:22:39.17	37.32	47.50	-55.0	-57.4	13.7	0.00e+00	0	29	0	750780416	75	4945
2026-01-04 08:22:40.17	36.74	47.45	-54.7	-57.0	14.0	0.00e+00	0	29	0	752877568	75	4716
2026-01-04 08:22:41.18	36.16	47.40	-54.6	-56.7	14.1	0.00e+00	0	28	0	753926144	75	4575
2026-01-04 08:22:42.19	35.58	47.35	-54.7	-57.0	14.0	0.00e+00	0	28	0	756023296	75	4726
2026-01-04 08:22:43.20	35.00	47.29	-55.0	-57.3	13.8	0.00e+00	0	28	0	758120448	75	4910
2026-01-04 08:22:44.20	34.43	47.23	-55.4	-57.9	13.5	0.00e+00	0	29	0	760217600	75	5239
2026-01-04 08:22:45.21	33.85	47.16	-55.5	-58.0	13.5	0.00e+00	0	29	0	762314752	76	5011
2026-01-04 08:22:46.21	33.29	47.10	-55.4	-57.9	13.6	0.00e+00	0	29	0	764411904	76	4976
2026-01-04 08:22:47.22	32.72	47.02	-55.2	-57.5	13.8	0.00e+00	0	29	0	765460480	76	4745
2026-01-04 08:22:48.23	32.15	46.95	-55.1	-57.5	13.8	0.00e+00	0	29	0	767557632	76	4711
2026-01-04 08:22:49.23	31.59	46.88	-55.2	-57.6	13.8	0.00e+00	0	28	0	769654784	76	4769
2026-01-04 08:22:50.24	31.03	46.80	-55.3	-57.7	13.7	0.00e+00	0	29	0	771751936	76	4841
2026-01-04 08:22:51.25	30.47	46.71	-55.0	-57.3	13.9	0.00e+00	0	28	0	773849088	76	4648
2026-01-04 08:22:52.26	29.91	46.63	-54.9	-57.2	14.0	0.00e+00	0	28	0	774897664	76	4563
2026-01-04 08:22:53.26	29.36	46.54	-55.0	-57.2	13.9	0.00e+00	0	29	0	776994816	76	4595
2026-01-04 08:22:54.27	28.81	46.45	-55.2	-57.7	13.7	0.00e+00	0	29	0	779091968	76	4815
2026-01-04 08:22:55.27	28.27	46.36	-55.1	-57.4	13.9	0.00e+00	0	29	0	781189120	76	4679
2026-01-04 08:22:56.28	27.73	46.26	-54.6	-56.7	14.1	0.00e+00	0	29	0	782237696	75	4591
2026-01-04 08:22:57.29	27.19	46.16	-54.5	-56.7	14.1	0.00e+00	0	29	0	784334848	75	4571
2026-01-04 08:22:58.30	26.65	46.06	-54.5	-56.7	14.1	0.00e+00	0	29	0	786432000	75	4561
2026-01-04 08:22:59.31	26.12	45.96	-54.6	-56.8	14.1	0.00e+00	0	29	0	788529152	75	4610
2026-01-04 08:23:00.31	25.60	45.85	-54.6	-56.7	14.1	0.00e+00	0	29	0	790626304	75	4590
2026-01-04 08:23:01.32	25.07	45.75	-54.6	-56.7	14.1	0.00e+00	0	29	0	792723456	75	4587
2026-01-04 08:23:02.33	24.55	45.64	-54.5	-56.6	14.2	0.00e+00	0	28	0	793772032	75	4533
2026-01-04 08:23:03.34	24.03	45.52	-54.1	-56.2	14.3	0.00e+00	0	29	0	795869184	74	4554
2026-01-04 08:23:04.35	23.52	45.41	-53.9	-55.8	14.4	0.00e+00	0	29	0	797966336	74	4361
2026-01-04 08:23:05.36	23.00	45.29	-53.8	-55.7	14.5	0.00e+00	0	29	0	800063488	74	4322
2026-01-04 08:23:06.37	22.50	45.17	-53.5	-55.3	14.5	0.00e+00	0	29	0	802160640	73	4364
2026-01-04 08:23:07.37	22.00	45.05	-53.4	-55.1	14.6	0.00e+00	0	28	0	803209216	73	4288
2026-01-04 08:23:08.38	21.50	44.93	-53.3	-55.1	14.6	0.00e+00	0	29	0	805306368	73	4282
2026-01-04 08:23:09.39	21.01	44.80	-53.3	-55.0	14.7	0.00e+00	0	28	0	807403520	73	4233
2026-01-04 08:23:10.39	20.52	44.67	-53.1	-54.8	14.6	0.00e+00	0	28	0	809500672	72	4388
2026-01-04 08:23:11.40	20.03	44.54	-52.9	-54.6	14.7	0.00e+00	0	28	0	811597824	72	4246
2026-01-04 08:23:12.41	19.55	44.41	-52.8	-54.5	14.8	0.00e+00	0	28	0	812646400	72	4198
2026-01-04 08:23:13.41	19.07	44.28	-52.8	-54.5	14.7	0.00e+00	0	28	0	814743552	71	4483
2026-01-04 08:23:14.42	18.60	44.14	-53.1	-54.8	14.6	0.00e+00	0	29	0	816840704	71	4637
2026-01-04 08:23:15.42	18.13	44.01	-53.0	-54.7	14.6	0.00e+00	0	29	0	818937856	71	4559
2026-01-04 08:23:16.43	17.66	43.87	-52.8	-54.5	14.7	0.00e+00	0	28	0	821035008	71	4462
2026-01-04 08:23:17.43	17.21	43.73	-52.5	-54.2	14.8	0.00e+00	0	29	0	822083584	71	4300
2026-01-04 08:23:18.44	16.75	43.59	-52.3	-53.9	14.9	0.00e+00	0	29	0	824180736	71	4166
2026-01-04 08:23:19.45	16.29	43.45	-52.3	-53.8	14.9	0.00e+00	0	28	0	826277888	71	4137
2026-01-04 08:23:20.46	15.84	43.30	-52.3	-53.9	14.9	0.00e+00	0	29	0	828375040	71	4153
2026-01-04 08:23:21.47	15.39	43.16	-52.4	-54.0	14.9	0.00e+00	0	29	0	830472192	71	4225
2026-01-04 08:23:22.48	14.95	43.01	-52.4	-54.0	14.9	0.00e+00	0	29	0	831520768	71	4219
2026-01-04 08:23:23.48	14.52	42.86	-52.2	-53.8	15.0	0.00e+00	0	28	0	833617920	71	4107
2026-01-04 08:23:24.49	14.08	42.71	-52.0	-53.5	14.9	0.00e+00	0	28	0	835715072	70	4223
2026-01-04 08:23:25.50	13.65	42.56	-52.1	-53.7	14.9	0.00e+00	0	28	0	837812224	70	4309
2026-01-04 08:23:26.51	13.23	42.41	-52.2	-53.7	14.9	0.00e+00	0	29	0	839909376	70	4326
2026-01-04 08:23:27.52	12.80	42.25	-52.2	-53.7	14.9	0.00e+00	0	28	0	840957952	70	4319
2026-01-04 08:23:28.53	12.38	42.10	-52.1	-53.6	14.9	0.00e+00	0	28	0	843055104	70	4283
2026-01-04 08:23:29.53	11.97	41.94	-52.5	-54.1	14.7	0.00e+00	0	28	0	845152256	70	4530
2026-01-04 08:23:30.54	11.56	41.79	-52.6	-54.3	14.7	0.00e+00	0	29	0	847249408	70	4601
2026-01-04 08:23:31.55	11.16	41.63	-52.6	-54.2	14.7	0.00e+00	0	29	0	849346560	70	4585
2026-01-04 08:23:32.56	10.76	41.47	-52.7	-54.3	14.6	0.00e+00	0	28	0	850395136	70	4645
2026-01-04 08:23:33.56	10.36	41.31	-52.6	-54.3	14.7	0.00e+00	0	28	0	852492288	70	4615
2026-01-04 08:23:34.57	9.97	41.15	-52.5	-54.2	14.7	0.00e+00	0	29	0	854589440	70	4555
2026-01-04 08:23:35.58	9.58	40.99	-52.6	-54.2	14.7	0.00e+00	0	28	0	856686592	70	4582
2026-01-04 08:23:36.59	9.19	40.83	-52.4	-54.1	14.7	0.00e+00	0	28	0	858783744	70	4494
2026-01-04 08:23:37.59	8.81	40.67	-52.6	-54.2	14.7	0.00e+00	0	29	0	859832320	70	4595
2026-01-04 08:23:38.60	8.43	40.50	-52.8	-54.4	14.6	0.00e+00	0	28	0	861929472	70	4694
2026-01-04 08:23:39.60	8.06	40.34	-52.6	-54.2	14.7	0.00e+00	0	28	0	864026624	70	4589
2026-01-04 08:23:40.61	7.69	40.18	-52.5	-54.1	14.7	0.00e+00	0	28	0	866123776	70	4544
2026-01-04 08:23:41.61	7.33	40.01	-52.6	-54.2	14.7	0.00e+00	0	28	0	868220928	70	4576
2026-01-04 08:23:42.62	6.96	39.85	-52.7	-54.3	14.7	0.00e+00	0	28	0	869269504	70	4642
2026-01-04 08:23:43.63	6.60	39.68	-52.7	-54.4	14.7	0.00e+00	0	29	0	871366656	70	4681
2026-01-04 08:23:44.63	6.25	39.52	-52.7	-54.3	14.6	0.00e+00	0	29	0	873463808	70	4639
2026-01-04 08:23:45.64	5.90	39.35	-52.6	-54.2	14.7	0.00e+00	0	29	0	875560960	70	4569
2026-01-04 08:23:46.65	5.55	39.18	-52.6	-54.3	14.6	0.00e+00	0	29	0	877658112	70	4619
2026-01-04 08:23:47.66	5.21	39.01	-52.9	-54.6	14.6	0.00e+00	0	29	0	878706688	70	4764
2026-01-04 08:23:48.67	4.86	38.84	-53.0	-54.8	14.6	0.00e+00	0	28	0	880803840	71	4614
2026-01-04 08:23:49.68	4.53	38.68	-53.1	-54.8	14.6	0.00e+00	0	28	0	882900992	71	4639
2026-01-04 08:23:50.69	4.19	38.51	-53.2	-55.0	14.5	0.00e+00	0	28	0	884998144	71	4714
2026-01-04 08:23:51.70	3.86	38.34	-53.4	-55.2	14.4	0.00e+00	0	29	0	887095296	71	4864
2026-01-04 08:23:52.70	3.54	38.17	-53.5	-55.3	14.5	0.00e+00	0	28	0	888143872	72	4628
2026-01-04 08:23:53.71	3.21	38.00	-53.5	-55.4	14.4	0.00e+00	0	29	0	890241024	72	4677
2026-01-04 08:23:54.72	2.89	37.83	-53.6	-55.5	14.4	0.00e+00	0	28	0	892338176	72	4743
2026-01-04 08:23:55.73	2.57	37.66	-53.7	-55.6	14.3	0.00e+00	0	29	0	894435328	72	4801
2026-01-04 08:23:56.74	2.26	37.49	-54.0	-56.0	14.3	0.00e+00	0	28	0	896532480	73	4709
2026-01-04 08:23:57.75	1.95	37.32	-54.0	-56.0	14.3	0.00e+00	0	29	0	897581056	73	4720
2026-01-04 08:23:58.75	1.64	37.15	-54.0	-56.0	14.2	0.00e+00	0	28	0	899678208	73	4751
2026-01-04 08:23:59.76	1.34	36.98	-54.2	-56.2	14.1	0.00e+00	0	28	0	901775360	73	4860
2026-01-04 08:24:00.77	1.04	36.81	-54.4	-56.5	14.1	0.00e+00	0	29	0	903872512	74	4744
2026-01-04 08:24:01.77	0.74	36.64	-54.7	-56.9	13.9	0.00e+00	0	29	0	905969664	74	4965
2026-01-04 08:24:02.78	0.45	36.47	-54.8	-57.1	13.8	0.00e+00	0	29	0	907018240	74	5097
2026-01-04 08:24:03.79	0.16	36.30	-54.9	-57.2	13.9	0.00e+00	0	29	0	909115392	75	4854
2026-01-04 08:24:04.79	359.87	36.13	-55.2	-57.6	13.7	0.00e+00	0	29	0	911212544	75	5080
2026-01-04 08:24:05.80	359.59	35.96	-55.3	-57.8	13.6	0.00e+00	0	29	0	913309696	75	5214
2026-01-04 08:24:06.81	359.30	35.79	-55.2	-57.7	13.6	0.00e+00	0	29	0	915406848	75	5135
2026-01-04 08:24:07.82	359.02	35.62	-55.3	-57.7	13.6	0.00e+00	0	28	0	916455424	75	5141
2026-01-04 08:24:08.83	358.75	35.45	-55.4	-57.9	13.6	0.00e+00	0	29	0	918552576	75	5226
2026-01-04 08:24:09.83	358.48	35.28	-55.5	-58.1	13.6	0.00e+00	0	29	0	920649728	76	5050
2026-01-04 08:24:10.84	358.20	35.11	-55.7	-58.3	13.4	0.00e+00	0	28	0	922746880	76	5213
2026-01-04 08:24:11.85	357.94	34.94	-55.7	-58.3	13.4	0.00e+00	0	29	0	924844032	76	5180
2026-01-04 08:24:12.85	357.67	34.77	-55.6	-58.2	13.4	0.00e+00	0	28	0	925892608	76	5135
2026-01-04 08:24:13.86	357.41	34.60	-55.7	-58.3	13.4	0.00e+00	0	29	0	927989760	76	5185
2026-01-04 08:24:14.86	357.15	34.44	-55.7	-58.2	13.5	0.00e+00	0	29	0	930086912	76	5157
2026-01-04 08:24:15.87	356.90	34.27	-55.7	-58.4	13.4	0.00e+00	0	29	0	932184064	76	5240
2026-01-04 08:24:16.88	356.64	34.10	-55.9	-58.7	13.3	0.00e+00	0	29	0	934281216	77	5130
2026-01-04 08:24:17.88	356.39	33.93	-55.9	-58.6	13.3	0.00e+00	0	29	0	935329792	77	5063
2026-01-04 08:24:18.89	356.14	33.77	-55.9	-58.6	13.3	0.00e+00	0	29	0	937426944	77	5090
2026-01-04 08:24:19.90	355.90	33.60	-55.8	-58.4	13.4	0.00e+00	0	29	0	939524096	77	4982
2026-01-04 08:24:20.90	355.65	33.43	-55.6	-58.1	13.6	0.00e+00	0	29	0	941621248	77	4782
2026-01-04 08:24:21.91	355.41	33.27	-55.4	-57.8	13.7	0.00e+00	0	28	0	943718400	77	4642
2026-01-04 08:24:22.92	355.17	33.10	-55.4	-57.8	13.8	0.00e+00	0	29	0	944766976	77	4622
2026-01-04 08:24:23.93	354.94	32.93	-55.2	-57.6	13.9	0.00e+00	0	29	0	946864128	77	4525
2026-01-04 08:24:24.93	354.71	32.77	-55.4	-57.8	13.7	0.00e+00	0	29	0	948961280	77	4630
2026-01-04 08:24:25.94	354.47	32.60	-55.2	-57.6	13.9	0.00e+00	0	29	0	951058432	77	4497
2026-01-04 08:24:26.95	354.24	32.44	-55.2	-57.6	13.8	0.00e+00	0	29	0	953155584	76	4780
2026-01-04 08:24:27.95	354.02	32.28	-55.1	-57.5	13.9	0.00e+00	0	29	0	954204160	76	4707
2026-01-04 08:24:28.96	353.79	32.11	-55.0	-57.3	13.9	0.00e+00	0	29	0	956301312	76	4640
2026-01-04 08:24:29.97	353.57	31.95	-55.0	-57.2	13.9	0.00e+00	0	29	0	958398464	76	4598
2026-01-04 08:24:30.97	353.35	31.79	-55.0	-57.3	13.9	0.00e+00	0	29	0	960495616	76	4617
2026-01-04 08:24:31.98	353.14	31.62	-55.1	-57.4	13.9	0.00e+00	0	29	0	962592768	76	4697
2026-01-04 08:24:32.99	352.92	31.46	-55.1	-57.4	13.9	0.00e+00	0	29	0	963641344	76	4705
2026-01-04 08:24:34.00	352.71	31.30	-55.1	-57.5	13.8	0.00e+00	0	29	0	965738496	76	4742
2026-01-04 08:24:35.01	352.50	31.14	-55.2	-57.6	13.8	0.00e+00	0	29	0	967835648	76	4785
2026-01-04 08:24:36.01	352.29	30.98	-55.1	-57.4	13.9	0.00e+00	0	29	0	969932800	76	4685
2026-01-04 08:24:37.02	352.08	30.81	-55.0	-57.3	13.9	0.00e+00	0	29	0	972029952	76	4614
2026-01-04 08:24:38.02	351.88	30.66	-55.1	-57.5	13.8	0.00e+00	0	29	0	973078528	76	4711
2026-01-04 08:24:39.03	351.67	30.50	-55.2	-57.6	13.8	0.00e+00	0	29	0	975175680	76	4794
2026-01-04 08:24:40.04	351.47	30.34	-55.2	-57.6	13.7	0.00e+00	0	29	0	977272832	76	4789
2026-01-04 08:24:41.04	351.28	30.18	-55.1	-57.4	13.9	0.00e+00	0	29	0	979369984	76	4695
2026-01-04 08:24:42.05	351.08	30.02	-55.0	-57.3	13.9	0.00e+00	0	29	0	981467136	76	4602
2026-01-04 08:24:43.06	350.88	29.86	-54.8	-57.0	14.1	0.00e+00	0	29	0	982515712	76	4448
2026-01-04 08:24:44.07	350.69	29.71	-54.5	-56.6	14.1	0.00e+00	0	29	0	984612864	75	4542
2026-01-04 08:24:45.08	350.50	29.55	-54.5	-56.7	14.1	0.00e+00	0	29	0	986710016	75	4551
2026-01-04 08:24:46.08	350.31	29.39	-54.5	-56.7	14.1	0.00e+00	0	29	0	988807168	75	4596
2026-01-04 08:24:47.09	350.12	29.24	-54.4	-56.5	14.2	0.00e+00	0	28	0	990904320	75	4481
2026-01-04 08:24:48.10	349.94	29.08	-54.4	-56.5	14.2	0.00e+00	0	29	0	991952896	75	4454
2026-01-04 08:24:49.10	349.76	28.93	-54.4	-56.5	14.2	0.00e+00	0	29	0	994050048	75	4472
2026-01-04 08:24:50.11	349.57	28.77	-54.5	-56.7	14.1	0.00e+00	0	29	0	996147200	75	4546
2026-01-04 08:24:51.12	349.39	28.62	-54.5	-56.6	14.1	0.00e+00	0	29	0	998244352	75	4534
2026-01-04 08:24:52.12	349.22	28.47	-54.6	-56.9	14.0	0.00e+00	0	28	0	1000341504	75	4662
2026-01-04 08:24:53.13	349.04	28.32	-54.6	-56.8	14.1	0.00e+00	0	29	0	1001390080	75	4626
2026-01-04 08:24:54.14	348.87	28.16	-54.6	-56.8	14.0	0.00e+00	0	29	0	1003487232	75	4629
2026-01-04 08:24:55.15	348.69	28.01	-54.4	-56.5	14.2	0.00e+00	0	29	0	1005584384	75	4454
2026-01-04 08:24:56.15	348.52	27.86	-54.4	-56.5	14.2	0.00e+00	0	29	0	1007681536	75	4462
2026-01-04 08:24:57.16	348.35	27.71	-54.2	-56.3	14.3	0.00e+00	0	28	0	1009778688	75	4356
2026-01-04 08:24:58.17	348.18	27.56	-54.0	-56.1	14.3	0.00e+00	0	29	0	1010827264	74	4498
2026-01-04 08:24:59.18	348.02	27.41	-54.0	-56.0	14.3	0.00e+00	0	29	0	1012924416	74	4463
2026-01-04 08:25:00.18	347.85	27.26	-54.1	-56.1	14.3	0.00e+00	0	29	0	1015021568	74	4515
2026-01-04 08:25:01.18	347.69	27.12	-54.1	-56.2	14.2	0.00e+00	0	28	0	1017118720	74	4554
2026-01-04 08:25:02.19	347.53	26.97	-54.1	-56.2	14.2	0.00e+00	0	29	0	1019215872	74	4553
2026-01-04 08:25:03.20	347.37	26.82	-54.1	-56.1	14.3	0.00e+00	0	29	0	1020264448	74	4532
2026-01-04 08:25:04.20	347.21	26.68	-54.0	-56.1	14.3	0.00e+00	0	29	0	1022361600	74	4496
2026-01-04 08:25:05.21	347.05	26.53	-54.0	-56.1	14.3	0.00e+00	0	29	0	1024458752	74	4516
2026-01-04 08:25:06.22	346.90	26.38	-54.0	-56.0	14.3	0.00e+00	0	29	0	1026555904	74	4483
2026-01-04 08:25:07.22	346.74	26.24	-54.0	-56.0	14.3	0.00e+00	0	28	0	1028653056	74	4481
2026-01-04 08:25:08.23	346.59	26.09	-54.1	-56.2	14.2	0.00e+00	0	29	0	1029701632	74	4562
2026-01-04 08:25:09.23	346.44	25.95	-54.1	-56.2	14.2	0.00e+00	0	29	0	1031798784	74	4586
2026-01-04 08:25:10.24	346.29	25.81	-54.3	-56.4	14.1	0.00e+00	0	29	0	1033895936	74	4673
2026-01-04 08:25:11.25	346.14	25.67	-54.3	-56.5	14.1	0.00e+00	0	29	0	1035993088	74	4710
2026-01-04 08:25:12.26	345.99	25.52	-54.2	-56.3	14.2	0.00e+00	0	29	0	1038090240	74	4626
2026-01-04 08:25:13.27	345.84	25.38	-54.2	-56.4	14.1	0.00e+00	0	29	0	1039138816	74	4662
2026-01-04 08:25:14.28	345.70	25.24	-54.1	-56.2	14.2	0.00e+00	0	29	0	1041235968	74	4576
2026-01-04 08:25:15.28	345.56	25.10	-54.0	-56.1	14.3	0.00e+00	0	29	0	1043333120	74	4494
2026-01-04 08:25:16.29	345.41	24.96	-53.9	-56.0	14.3	0.00e+00	0	29	0	1045430272	74	4444
2026-01-04 08:25:17.30	345.27	24.82	-53.8	-55.8	14.4	0.00e+00	0	29	0	1047527424	74	4355
2026-01-04 08:25:18.30	345.13	24.68	-53.8	-55.8	14.4	0.00e+00	0	29	0	1048576000	74	4378
2026-01-04 08:25:19.31	344.99	24.54	-53.8	-55.7	14.4	0.00e+00	0	29	0	1050673152	74	4328
2026-01-04 08:25:20.32	344.86	24.40	-53.7	-55.6	14.5	0.00e+00	0	29	0	1052770304	74	4278
2026-01-04 08:25:21.33	344.72	24.27	-53.5	-55.4	14.5	0.00e+00	0	29	0	1054867456	73	4398
2026-01-04 08:25:22.33	344.59	24.13	-53.4	-55.2	14.6	0.00e+00	0	29	0	1056964608	73	4317
2026-01-04 08:25:23.34	344.45	24.00	-53.4	-55.3	14.5	0.00e+00	0	29	0	1058013184	73	4352
2026-01-04 08:25:24.34	344.32	23.86	-53.5	-55.4	14.5	0.00e+00	0	29	0	1060110336	73	4395
2026-01-04 08:25:25.35	344.19	23.72	-53.4	-55.3	14.5	0.00e+00	0	29	0	1062207488	73	4378
2026-01-04 08:25:26.36	344.06	23.59	-53.5	-55.4	14.5	0.00e+00	0	29	0	1064304640	73	4423
2026-01-04 08:25:27.37	343.93	23.46	-53.6	-55.5	14.4	0.00e+00	0	29	0	1066401792	73	4462
2026-01-04 08:25:28.37	343.80	23.32	-53.7	-55.6	14.4	0.00e+00	0	29	0	1067450368	73	4516
2026-01-04 08:25:29.38	343.68	23.19	-53.5	-55.4	14.4	0.00e+00	0	29	0	1069547520	73	4439
2026-01-04 08:25:30.39	343.55	23.06	-53.5	-55.4	14.5	0.00e+00	0	29	0	1071644672	73	4429
2026-01-04 08:25:31.40	343.43	22.92	-53.5	-55.4	14.5	0.00e+00	0	29	0	1073741824	73	4404
2026-01-04 08:25:32.40	343.30	22.79	-53.5	-55.4	14.4	0.00e+00	0	29	0	1075838976	73	4434
2026-01-04 08:25:33.41	343.18	22.66	-53.5	-55.3	14.5	0.00e+00	0	29	0	1076887552	73	4389
2026-01-04 08:25:34.42	343.06	22.53	-53.5	-55.4	14.5	0.00e+00	0	29	0	1078984704	73	4418
2026-01-04 08:25:35.43	342.94	22.40	-53.5	-55.4	14.5	0.00e+00	0	29	0	1081081856	73	4419
2026-01-04 08:25:36.44	342.82	22.27	-53.5	-55.4	14.5	0.00e+00	0	29	0	1083179008	73	4428
2026-01-04 08:25:37.44	342.70	22.14	-53.5	-55.4	14.4	0.00e+00	0	29	0	1085276160	73	4392
2026-01-04 08:25:38.45	342.59	22.02	-53.5	-55.4	14.5	0.00e+00	0	29	0	1087373312	73	4394
2026-01-04 08:25:39.46	342.47	21.89	-53.5	-55.3	14.5	0.00e+00	0	29	0	1088421888	73	4387
2026-01-04 08:25:40.47	342.35	21.76	-53.4	-55.3	14.5	0.00e+00	0	29	0	1090519040	73	4347
2026-01-04 08:25:41.47	342.24	21.63	-53.4	-55.3	14.5	0.00e+00	0	29	0	1092616192	73	4381
2026-01-04 08:25:42.48	342.13	21.51	-53.4	-55.2	14.5	0.00e+00	0	29	0	1094713344	73	4322
2026-01-04 08:25:43.48	342.02	21.38	-53.4	-55.3	14.5	0.00e+00	0	29	0	1095761920	73	4352
2026-01-04 08:25:44.49	341.90	21.26	-53.3	-55.2	14.5	0.00e+00	0	29	0	1097859072	73	4323
2026-01-04 08:25:45.50	341.79	21.13	-53.3	-55.2	14.5	0.00e+00	0	29	0	1099956224	73	4306
2026-01-04 08:25:46.50	341.68	21.01	-53.3	-55.2	14.6	0.00e+00	0	29	0	1102053376	73	4308
2026-01-04 08:25:47.51	341.58	20.89	-53.3	-55.1	14.6	0.00e+00	0	29	0	1104150528	73	4278
2026-01-04 08:25:48.51	341.47	20.76	-53.3	-55.1	14.6	0.00e+00	0	29	0	1105199104	73	4289
2026-01-04 08:25:49.52	341.36	20.64	-53.4	-55.2	14.5	0.00e+00	0	29	0	1107296256	73	4336
2026-01-04 08:25:50.53	341.26	20.52	-53.4	-55.2	14.5	0.00e+00	0	29	0	1109393408	73	4340
2026-01-04 08:25:51.54	341.15	20.40	-53.4	-55.2	14.5	0.00e+00	0	29	0	1111490560	73	4336
2026-01-04 08:25:52.54	341.05	20.27	-53.3	-55.2	14.5	0.00e+00	0	29	0	1113587712	73	4322
2026-01-04 08:25:53.55	340.94	20.15	-53.4	-55.3	14.5	0.00e+00	0	28	0	1115684864	73	4356
2026-01-04 08:25:54.56	340.84	20.03	-53.4	-55.3	14.5	0.00e+00	0	29	0	1116733440	73	4380
2026-01-04 08:25:55.56	340.74	19.91	-53.3	-55.2	14.5	0.00e+00	0	29	0	1118830592	73	4311
2026-01-04 08:25:56.57	340.64	19.79	-53.4	-55.3	14.5	0.00e+00	0	29	0	1120927744	73	4357
2026-01-04 08:25:57.58	340.54	19.68	-53.4	-55.3	14.5	0.00e+00	0	29	0	1123024896	73	4372
2026-01-04 08:25:58.59	340.44	19.56	-53.4	-55.4	14.4	0.00e+00	0	29	0	1124073472	73	4404
2026-01-04 08:25:59.60	340.34	19.44	-53.4	-55.3	14.5	0.00e+00	0	29	0	1126170624	73	4341
2026-01-04 08:26:00.61	340.24	19.32	-53.4	-55.2	14.5	0.00e+00	0	29	0	1128267776	73	4339
2026-01-04 08:26:01.61	340.14	19.20	-53.3	-55.2	14.5	0.00e+00	0	29	0	1130364928	73	4328
2026-01-04 08:26:02.62	340.05	19.09	-53.4	-55.3	14.5	0.00e+00	0	29	0	1132462080	73	4375
2026-01-04 08:26:03.63	339.95	18.97	-53.4	-55.3	14.5	0.00e+00	0	29	0	1133510656	73	4369
2026-01-04 08:26:04.63	339.86	18.86	-53.4	-55.3	14.5	0.00e+00	0	29	0	1135607808	73	4369
2026-01-04 08:26:05.64	339.76	18.74	-53.6	-55.6	14.3	0.00e+00	0	29	0	1137704960	73	4503
2026-01-04 08:26:06.65	339.67	18.63	-53.5	-55.5	14.4	0.00e+00	0	29	0	1139802112	73	4470
2026-01-04 08:26:07.66	339.58	18.51	-53.6	-55.5	14.4	0.00e+00	0	29	0	1141899264	73	4470
2026-01-04 08:26:08.67	339.49	18.40	-53.6	-55.6	14.3	0.00e+00	0	29	0	1143996416	73	4517
2026-01-04 08:26:09.68	339.39	18.28	-53.7	-55.7	14.3	0.00e+00	0	29	0	1145044992	73	4576
2026-01-04 08:26:10.68	339.31	18.17	-53.7	-55.6	14.3	0.00e+00	0	29	0	1147142144	73	4540
2026-01-04 08:26:11.69	339.22	18.06	-53.7	-55.7	14.3	0.00e+00	0	29	0	1149239296	73	4552
2026-01-04 08:26:12.70	339.13	17.95	-53.7	-55.8	14.2	0.00e+00	0	29	0	1151336448	73	4608
2026-01-04 08:26:13.71	339.04	17.83	-53.7	-55.7	14.3	0.00e+00	0	29	0	1153433600	73	4570
2026-01-04 08:26:14.72	338.95	17.72	-53.7	-55.7	14.3	0.00e+00	0	29	0	1154482176	73	4594
2026-01-04 08:26:15.73	338.86	17.61	-53.7	-55.7	14.3	0.00e+00	0	28	0	1156579328	73	4591
2026-01-04 08:26:16.73	338.78	17.50	-53.7	-55.7	14.3	0.00e+00	0	29	0	1158676480	73	4551
2026-01-04 08:26:17.73	338.69	17.39	-53.7	-55.7	14.3	0.00e+00	0	29	0	1160773632	73	4580
2026-01-04 08:26:18.74	338.61	17.28	-53.7	-55.7	14.2	0.00e+00	0	29	0	1161822208	73	4592
2026-01-04 08:26:19.75	338.52	17.17	-53.6	-55.6	14.3	0.00e+00	0	29	0	1163919360	73	4510
2026-01-04 08:26:20.76	338.44	17.07	-53.6	-55.7	14.3	0.00e+00	0	29	0	1166016512	73	4546
2026-01-04 08:26:21.77	338.36	16.96	-53.7	-55.7	14.3	0.00e+00	0	29	0	1168113664	73	4560
2026-01-04 08:26:22.78	338.27	16.85	-53.5	-55.5	14.4	0.00e+00	0	29	0	1170210816	73	4474
2026-01-04 08:26:23.78	338.19	16.74	-53.4	-55.4	14.4	0.00e+00	0	29	0	1172307968	73	4413
2026-01-04 08:26:24.80	338.11	16.63	-53.4	-55.4	14.4	0.00e+00	0	29	0	1173356544	73	4418
2026-01-04 08:26:25.80	338.03	16.53	-53.4	-55.3	14.4	0.00e+00	0	29	0	1175453696	73	4383
2026-01-04 08:26:26.81	337.95	16.42	-53.4	-55.3	14.4	0.00e+00	0	29	0	1177550848	73	4388
2026-01-04 08:26:27.82	337.87	16.32	-53.4	-55.3	14.5	0.00e+00	0	29	0	1179648000	73	4375
2026-01-04 08:26:28.83	337.79	16.21	-53.4	-55.3	14.4	0.00e+00	0	29	0	1181745152	73	4390
2026-01-04 08:26:29.83	337.71	16.11	-53.4	-55.3	14.4	0.00e+00	0	28	0	1182793728	73	4380
2026-01-04 08:26:30.84	337.63	16.00	-53.5	-55.5	14.4	0.00e+00	0	29	0	1184890880	73	4443
2026-01-04 08:26:31.84	337.56	15.90	-53.6	-55.5	14.3	0.00e+00	0	28	0	1186988032	73	4490
2026-01-04 08:26:32.85	337.48	15.79	-53.5	-55.5	14.4	0.00e+00	0	29	0	1189085184	73	4449
2026-01-04 08:26:33.86	337.41	15.69	-53.5	-55.5	14.3	0.00e+00	0	28	0	1191182336	73	4481
2026-01-04 08:26:34.87	337.33	15.59	-53.6	-55.6	14.3	0.00e+00	0	28	0	1192230912	73	4545
2026-01-04 08:26:35.88	337.25	15.48	-53.6	-55.7	14.2	0.00e+00	0	29	0	1194328064	73	4560
2026-01-04 08:26:36.89	337.18	15.38	-53.7	-55.8	14.2	0.00e+00	0	29	0	1196425216	73	4620
2026-01-04 08:26:37.89	337.11	15.28	-53.7	-55.8	14.2	3.00e-06	0	29	0	1198522368	73	4602
2026-01-04 08:26:38.90	337.03	15.18	-53.8	-55.9	14.1	0.00e+00	0	29	0	1200619520	73	4689
2026-01-04 08:26:39.91	336.96	15.08	-53.9	-56.0	14.1	0.00e+00	0	28	0	1201668096	73	4750
2026-01-04 08:26:40.91	336.89	14.98	-53.9	-56.1	14.1	0.00e+00	0	29	0	1203765248	73	4766
2026-01-04 08:26:41.92	336.82	14.88	-54.0	-56.1	14.1	7.00e-07	0	29	0	1205862400	73	4800
2026-01-04 08:26:42.93	336.74	14.77	-54.0	-56.2	14.0	0.00e+00	0	29	0	1207959552	73	4856
2026-01-04 08:26:43.94	336.67	14.67	-54.0	-56.2	14.0	0.00e+00	0	29	0	1210056704	73	4828
2026-01-04 08:26:44.94	336.60	14.58	-54.0	-56.3	14.0	0.00e+00	0	29	0	1211105280	73	4873
2026-01-04 08:26:45.95	336.53	14.48	-54.1	-56.3	13.9	0.00e+00	0	29	0	1213202432	73	4919
2026-01-04 08:26:46.96	336.46	14.38	-54.1	-56.3	14.0	0.00e+00	0	29	0	1215299584	73	4893
2026-01-04 08:26:47.96	336.40	14.28	-54.1	-56.3	13.9	0.00e+00	0	29	0	1217396736	73	4919
2026-01-04 08:26:48.97	336.33	14.18	-54.2	-56.5	13.9	0.00e+00	0	29	0	1219493888	73	5007
2026-01-04 08:26:49.98	336.26	14.08	-54.1	-56.4	13.9	0.00e+00	0	29	0	1220542464	73	4948
2026-01-04 08:26:50.99	336.19	13.99	-54.2	-56.5	13.9	0.00e+00	0	29	0	1222639616	73	4999
2026-01-04 08:26:52.00	336.13	13.89	-54.1	-56.4	13.9	0.00e+00	0	29	0	1224736768	73	4945
2026-01-04 08:26:53.01	336.06	13.79	-54.2	-56.4	13.8	0.00e+00	0	29	0	1226833920	73	4966
2026-01-04 08:26:54.02	335.99	13.70	-54.3	-56.6	13.8	0.00e+00	0	29	0	1228931072	73	5046
2026-01-04 08:26:55.03	335.93	13.60	-54.3	-56.7	13.7	0.00e+00	0	29	0	1229979648	73	5114
2026-01-04 08:26:56.04	335.86	13.50	-54.2	-56.5	13.8	0.00e+00	0	29	0	1232076800	73	5037
2026-01-04 08:26:57.04	335.80	13.41	-54.2	-56.5	13.8	0.00e+00	0	29	0	1234173952	73	5036
2026-01-04 08:26:58.05	335.73	13.32	-54.3	-56.7	13.7	0.00e+00	0	29	0	1236271104	73	5123
2026-01-04 08:26:59.06	335.67	13.22	-54.3	-56.7	13.8	0.00e+00	0	29	0	1238368256	73	5113
