passes_logs/2026/01/04/R3.2S_Murmansk/R3.2S_Murmansk__20260104_213741_SUOMI_NPP_rec.log

#Pass ID: 20260104_213741_SUOMI NPP
#Satellite: SUOMI NPP
#Configuration: NPP
#almurnet v.1.7.20251203
#Start time: 2026-01-04 21:37:41

#Version: 2.2.20231116
#Station: R3.2S_Murmansk
#Location: 33.079688 lon 68.888172 lat
#TLE: 1 37849U 11061A   26003.96724563  .00000164  00000+0  98899-4 0  9990
#TLE: 2 37849  98.7800 306.1116 0002573  82.3190 277.8279 14.19522066735141

#Time	Az	El	Level	Level2	SNR	BER	BlckErr	Temp	State	Recorded	gain1	gain2
2026-01-04 21:37:41.94	18.52	2.04	-58.4	-74.4	3.8	1.49e+00	0	26	0	0	83	22228
2026-01-04 21:37:42.94	18.61	2.09	-58.4	-74.4	3.8	1.49e+00	0	26	104	0	81	24859
2026-01-04 21:37:43.95	18.70	2.14	-58.4	-74.4	3.8	1.49e+00	0	26	104	0	81	24798
2026-01-04 21:37:44.96	18.79	2.19	-58.4	-74.4	3.8	1.49e+00	0	26	104	0	81	24800
2026-01-04 21:37:45.97	18.89	2.23	-58.4	-74.3	3.8	1.49e+00	0	26	104	0	81	24628
2026-01-04 21:37:46.98	18.98	2.28	-58.4	-74.4	3.8	1.49e+00	0	26	104	0	81	24764
2026-01-04 21:37:47.99	19.07	2.33	-58.4	-74.3	3.8	1.49e+00	0	26	104	0	81	24549
2026-01-04 21:37:49.00	19.17	2.38	-58.4	-74.3	3.8	1.49e+00	0	26	104	0	81	24570
2026-01-04 21:37:50.01	19.26	2.43	-58.4	-74.3	3.8	1.49e+00	0	26	104	0	81	24641
2026-01-04 21:37:51.02	19.36	2.47	-58.4	-74.4	3.8	1.49e+00	0	26	104	0	81	24712
2026-01-04 21:37:52.03	19.45	2.52	-58.4	-74.4	3.8	1.49e+00	0	26	104	0	81	24794
2026-01-04 21:37:53.03	19.55	2.57	-58.4	-74.4	3.8	1.49e+00	0	27	104	0	81	24910
2026-01-04 21:37:54.05	19.64	2.62	-58.4	-74.4	3.8	1.49e+00	0	27	104	0	81	24825
2026-01-04 21:37:55.05	19.74	2.67	-58.4	-74.4	3.8	1.49e+00	0	27	104	0	81	24857
2026-01-04 21:37:56.06	19.83	2.71	-58.4	-74.4	3.8	1.49e+00	0	27	104	0	81	24862
2026-01-04 21:37:57.07	19.93	2.76	-58.4	-74.4	3.8	1.49e+00	0	27	104	0	81	24852
2026-01-04 21:37:58.08	20.03	2.81	-58.4	-74.4	3.8	1.49e+00	0	27	104	0	81	24803
2026-01-04 21:37:59.09	20.12	2.86	-58.4	-74.4	3.8	1.49e+00	0	27	104	0	81	24755
2026-01-04 21:38:00.10	20.22	2.91	-58.4	-74.3	3.8	1.49e+00	0	27	104	0	81	24597
2026-01-04 21:38:01.11	20.32	2.96	-58.4	-74.3	3.8	1.49e+00	0	27	104	0	81	24570
2026-01-04 21:38:02.12	20.42	3.00	-58.4	-74.3	3.8	1.49e+00	0	27	104	0	81	24517
2026-01-04 21:38:03.13	20.51	3.05	-58.4	-74.3	3.8	1.49e+00	0	27	104	0	81	24677
2026-01-04 21:38:04.14	20.61	3.10	-58.4	-74.4	3.8	1.49e+00	0	27	104	0	81	24738
2026-01-04 21:38:05.15	20.71	3.15	-58.4	-74.4	3.8	1.49e+00	0	27	104	0	81	24775
2026-01-04 21:38:06.16	20.81	3.20	-58.4	-74.4	3.8	1.49e+00	0	27	104	0	82	23408
2026-01-04 21:38:07.17	20.91	3.25	-58.5	-74.3	3.8	1.49e+00	0	27	104	0	82	23252
2026-01-04 21:38:08.17	21.01	3.29	-58.4	-74.3	3.8	1.49e+00	0	27	104	0	82	23189
2026-01-04 21:38:09.18	21.11	3.34	-58.5	-74.3	3.8	1.49e+00	0	27	104	0	82	23171
2026-01-04 21:38:10.19	21.21	3.39	-58.4	-74.4	3.8	1.49e+00	0	27	104	0	82	23337
2026-01-04 21:38:11.20	21.31	3.44	-58.4	-74.4	3.8	1.49e+00	0	27	104	0	82	23443
2026-01-04 21:38:12.21	21.41	3.49	-58.4	-74.5	3.8	1.49e+00	0	27	104	0	82	23591
2026-01-04 21:38:13.22	21.51	3.54	-58.5	-74.4	3.8	1.49e+00	0	27	104	0	82	23449
2026-01-04 21:38:14.22	21.61	3.58	-58.4	-74.2	3.8	1.49e+00	0	27	104	0	82	22869
2026-01-04 21:38:15.23	21.72	3.63	-58.4	-73.9	3.8	1.49e+00	0	27	104	0	82	22207
2026-01-04 21:38:16.24	21.82	3.68	-58.4	-73.7	3.8	1.49e+00	0	27	104	0	82	21684
2026-01-04 21:38:17.24	21.92	3.73	-58.4	-73.6	3.8	1.49e+00	0	27	104	0	82	21316
2026-01-04 21:38:18.25	22.02	3.78	-58.4	-73.6	3.8	1.49e+00	0	27	104	0	82	21451
2026-01-04 21:38:19.26	22.13	3.83	-58.4	-73.7	3.8	1.49e+00	0	27	104	0	82	21753
2026-01-04 21:38:20.27	22.23	3.88	-58.4	-73.6	3.8	1.49e+00	0	27	104	0	82	21486
2026-01-04 21:38:21.28	22.33	3.92	-58.4	-73.1	3.8	1.49e+00	0	27	104	0	82	20265
2026-01-04 21:38:22.29	22.44	3.97	-58.4	-72.4	3.8	1.49e+00	0	27	104	0	82	18568
2026-01-04 21:38:23.30	22.54	4.02	-58.3	-71.4	4.1	1.49e+00	0	27	104	0	82	16689
2026-01-04 21:38:24.31	22.65	4.07	-58.3	-70.9	4.2	1.40e+00	0	27	0	0	82	15664
2026-01-04 21:38:25.32	22.75	4.12	-58.3	-70.3	4.4	1.35e+00	92	27	0	0	82	14545
2026-01-04 21:38:26.33	22.86	4.17	-58.2	-69.9	4.5	1.07e+00	2	27	0	1048576	82	14014
2026-01-04 21:38:27.34	22.96	4.22	-58.2	-69.2	4.8	8.98e-01	0	27	0	3145728	82	12816
2026-01-04 21:38:28.35	23.07	4.26	-58.0	-67.5	5.7	6.29e-01	0	27	0	5242880	82	10559
2026-01-04 21:38:29.36	23.18	4.31	-57.7	-65.5	7.1	1.80e-01	0	27	0	7340032	82	8382
2026-01-04 21:38:30.37	23.28	4.36	-57.2	-63.5	8.8	3.56e-02	0	27	0	9437184	81	7104
2026-01-04 21:38:31.38	23.39	4.41	-56.6	-61.5	10.4	3.96e-03	0	27	0	10485760	79	6340
2026-01-04 21:38:32.39	23.50	4.46	-55.9	-59.9	11.6	2.82e-05	0	28	0	12582912	78	5548
2026-01-04 21:38:33.40	23.61	4.51	-55.0	-58.2	12.6	2.20e-06	0	27	0	14680064	76	5141
2026-01-04 21:38:34.41	23.72	4.56	-54.5	-57.4	13.0	0.00e+00	0	27	0	16777216	75	4976
2026-01-04 21:38:35.41	23.82	4.61	-54.1	-56.8	13.2	0.00e+00	0	27	0	18874368	74	4900
2026-01-04 21:38:36.42	23.93	4.65	-54.0	-56.6	13.4	0.00e+00	0	28	0	20971520	74	4812
2026-01-04 21:38:37.43	24.04	4.70	-54.2	-57.0	13.2	0.00e+00	0	27	0	22020096	74	5028
2026-01-04 21:38:38.44	24.15	4.75	-54.8	-58.0	12.6	0.00e+00	0	27	0	24117248	74	5595
2026-01-04 21:38:39.45	24.26	4.80	-55.4	-59.1	12.0	0.00e+00	0	27	0	26214400	75	6051
2026-01-04 21:38:40.46	24.37	4.85	-56.1	-60.5	11.1	1.06e-05	0	28	0	28311552	77	6303
2026-01-04 21:38:41.46	24.48	4.90	-56.8	-62.2	9.9	2.74e-04	0	28	0	30408704	78	7236
2026-01-04 21:38:42.47	24.59	4.95	-57.3	-63.7	8.6	1.07e-02	0	27	0	31457280	79	8166
2026-01-04 21:38:43.47	24.70	5.00	-57.6	-65.3	7.3	4.39e-02	0	28	0	33554432	80	9249
2026-01-04 21:38:44.48	24.81	5.04	-57.2	-63.4	8.8	1.26e-01	0	28	0	35651584	80	7392
2026-01-04 21:38:45.49	24.93	5.09	-56.9	-62.6	9.7	1.82e-04	0	28	0	37748736	78	7582
2026-01-04 21:38:46.50	25.04	5.14	-57.8	-66.0	6.8	3.71e-01	0	28	0	39845888	80	10058
2026-01-04 21:38:47.51	25.15	5.19	-57.6	-64.7	7.5	1.40e+00	0	28	104	39845888	82	7678
2026-01-04 21:38:48.52	25.27	5.24	-57.8	-66.3	6.7	1.72e-02	0	28	0	40894464	80	10313
2026-01-04 21:38:49.53	25.38	5.29	-57.7	-65.7	6.7	1.24e+00	0	28	0	41943040	81	9087
2026-01-04 21:38:50.54	25.49	5.34	-56.3	-60.7	11.0	1.18e-04	0	28	0	44040192	78	6097
2026-01-04 21:38:51.55	25.61	5.39	-56.4	-60.9	10.9	1.64e-04	0	28	0	46137344	78	6232
2026-01-04 21:38:52.56	25.72	5.43	-56.2	-60.6	11.1	1.35e-04	0	28	0	48234496	78	6032
2026-01-04 21:38:53.57	25.84	5.48	-55.8	-59.6	11.9	2.97e-05	0	28	0	50331648	78	5355
2026-01-04 21:38:54.58	25.95	5.53	-55.4	-58.9	12.3	2.20e-06	0	28	0	51380224	77	5219
2026-01-04 21:38:55.58	26.07	5.58	-55.0	-58.2	12.7	0.00e+00	0	28	0	53477376	76	5137
2026-01-04 21:38:56.59	26.18	5.63	-55.2	-58.5	12.5	0.00e+00	0	28	0	55574528	76	5285
2026-01-04 21:38:57.60	26.30	5.68	-54.8	-57.8	12.9	0.00e+00	0	28	0	57671680	76	4913
2026-01-04 21:38:58.61	26.42	5.73	-54.5	-57.4	13.1	0.00e+00	0	28	0	59768832	75	4954
2026-01-04 21:38:59.62	26.53	5.78	-54.6	-57.6	13.0	0.00e+00	0	28	0	60817408	75	5051
2026-01-04 21:39:00.63	26.65	5.82	-54.4	-57.1	13.2	0.00e+00	0	28	0	62914560	75	4812
2026-01-04 21:39:01.64	26.77	5.87	-54.3	-57.0	13.4	0.00e+00	0	28	0	65011712	75	4717
2026-01-04 21:39:02.64	26.89	5.92	-54.4	-57.2	13.2	0.00e+00	0	28	0	67108864	75	4840
2026-01-04 21:39:03.64	27.00	5.97	-54.4	-57.2	13.2	0.00e+00	0	28	0	69206016	75	4866
2026-01-04 21:39:04.65	27.12	6.02	-54.3	-57.0	13.3	0.00e+00	0	28	0	70254592	75	4717
2026-01-04 21:39:05.66	27.24	6.07	-54.2	-56.9	13.3	0.00e+00	0	28	0	72351744	74	4958
2026-01-04 21:39:06.67	27.36	6.12	-54.2	-56.9	13.3	0.00e+00	0	28	0	74448896	74	4949
2026-01-04 21:39:07.68	27.48	6.17	-54.1	-56.7	13.4	0.00e+00	0	28	0	76546048	74	4820
2026-01-04 21:39:08.69	27.60	6.21	-54.1	-56.7	13.4	0.00e+00	0	28	0	78643200	74	4868
2026-01-04 21:39:09.70	27.73	6.26	-54.2	-56.8	13.4	0.00e+00	0	28	0	79691776	74	4883
2026-01-04 21:39:10.71	27.85	6.31	-54.2	-56.8	13.4	0.00e+00	0	28	0	81788928	74	4918
2026-01-04 21:39:11.72	27.97	6.36	-54.1	-56.7	13.4	0.00e+00	0	28	0	83886080	74	4864
2026-01-04 21:39:12.73	28.09	6.41	-54.3	-57.0	13.2	0.00e+00	0	28	0	85983232	74	5020
2026-01-04 21:39:13.74	28.21	6.46	-54.1	-56.7	13.5	0.00e+00	0	28	0	88080384	74	4820
2026-01-04 21:39:14.74	28.34	6.51	-54.1	-56.7	13.5	0.00e+00	0	28	0	89128960	74	4825
2026-01-04 21:39:15.75	28.46	6.55	-54.2	-56.9	13.3	0.00e+00	0	28	0	91226112	74	4949
2026-01-04 21:39:16.76	28.58	6.60	-54.2	-56.8	13.4	0.00e+00	0	28	0	93323264	74	4908
2026-01-04 21:39:17.76	28.71	6.65	-54.0	-56.5	13.6	0.00e+00	0	28	0	95420416	74	4719
2026-01-04 21:39:18.77	28.83	6.70	-54.1	-56.7	13.5	0.00e+00	0	28	0	97517568	74	4848
2026-01-04 21:39:19.78	28.96	6.75	-54.1	-56.6	13.5	0.00e+00	0	28	0	98566144	74	4775
2026-01-04 21:39:20.79	29.08	6.80	-53.8	-56.3	13.7	0.00e+00	0	28	0	100663296	74	4601
2026-01-04 21:39:21.80	29.21	6.85	-54.0	-56.5	13.6	0.00e+00	0	28	0	102760448	74	4722
2026-01-04 21:39:22.81	29.33	6.89	-53.9	-56.3	13.7	0.00e+00	0	28	0	104857600	74	4627
2026-01-04 21:39:23.82	29.46	6.94	-53.8	-56.2	13.7	0.00e+00	0	28	0	106954752	74	4597
2026-01-04 21:39:24.83	29.59	6.99	-53.8	-56.1	13.8	0.00e+00	0	28	0	108003328	74	4530
2026-01-04 21:39:25.84	29.71	7.04	-53.5	-55.8	13.9	0.00e+00	0	28	0	110100480	73	4606
2026-01-04 21:39:26.84	29.84	7.09	-53.5	-55.8	13.8	0.00e+00	0	28	0	112197632	73	4614
2026-01-04 21:39:27.85	29.97	7.14	-53.4	-55.6	14.0	0.00e+00	0	28	0	114294784	73	4523
2026-01-04 21:39:28.86	30.10	7.18	-53.5	-55.7	13.9	0.00e+00	0	28	0	116391936	73	4580
2026-01-04 21:39:29.87	30.23	7.23	-53.4	-55.7	13.9	0.00e+00	0	28	0	117440512	73	4551
2026-01-04 21:39:30.87	30.35	7.28	-53.4	-55.6	14.0	0.00e+00	0	28	0	119537664	73	4519
2026-01-04 21:39:31.88	30.48	7.33	-53.4	-55.6	14.0	0.00e+00	0	28	0	121634816	73	4513
2026-01-04 21:39:32.89	30.61	7.38	-53.4	-55.6	14.0	0.00e+00	0	28	0	123731968	73	4513
2026-01-04 21:39:33.90	30.75	7.42	-53.4	-55.6	14.0	0.00e+00	0	28	0	125829120	73	4545
2026-01-04 21:39:34.91	30.88	7.47	-53.3	-55.5	14.0	0.00e+00	0	28	0	126877696	73	4452
2026-01-04 21:39:35.92	31.01	7.52	-53.4	-55.6	14.0	0.00e+00	0	28	0	128974848	73	4523
2026-01-04 21:39:36.93	31.14	7.57	-53.2	-55.3	14.1	0.00e+00	0	28	0	131072000	72	4645
2026-01-04 21:39:37.94	31.27	7.62	-53.1	-55.2	14.1	0.00e+00	0	28	0	133169152	72	4571
2026-01-04 21:39:38.95	31.41	7.66	-53.0	-55.1	14.2	0.00e+00	0	28	0	135266304	72	4507
2026-01-04 21:39:39.96	31.54	7.71	-52.9	-55.0	14.2	0.00e+00	0	28	0	137363456	72	4470
2026-01-04 21:39:40.97	31.67	7.76	-52.8	-54.9	14.3	0.00e+00	0	28	0	138412032	72	4403
2026-01-04 21:39:41.98	31.81	7.81	-52.8	-54.8	14.3	0.00e+00	0	28	0	140509184	72	4362
2026-01-04 21:39:42.98	31.94	7.86	-52.8	-54.8	14.3	0.00e+00	0	28	0	142606336	72	4349
2026-01-04 21:39:43.99	32.07	7.90	-52.6	-54.6	14.3	0.00e+00	0	28	0	144703488	71	4503
2026-01-04 21:39:45.00	32.21	7.95	-52.6	-54.6	14.3	0.00e+00	0	28	0	146800640	71	4494
2026-01-04 21:39:46.01	32.35	8.00	-52.7	-54.7	14.2	0.00e+00	0	28	0	147849216	71	4549
2026-01-04 21:39:47.02	32.48	8.05	-52.8	-54.8	14.2	0.00e+00	0	28	0	149946368	71	4639
2026-01-04 21:39:48.03	32.62	8.09	-53.0	-55.1	14.1	0.00e+00	0	28	0	152043520	71	4771
2026-01-04 21:39:49.04	32.76	8.14	-53.0	-55.1	14.1	0.00e+00	0	28	0	154140672	71	4776
2026-01-04 21:39:50.05	32.89	8.19	-53.1	-55.3	14.0	0.00e+00	0	28	0	156237824	71	4880
2026-01-04 21:39:51.05	33.03	8.24	-53.1	-55.2	14.0	0.00e+00	0	28	0	157286400	71	4858
2026-01-04 21:39:52.07	33.17	8.28	-53.1	-55.2	14.0	0.00e+00	0	28	0	159383552	71	4847
2026-01-04 21:39:53.08	33.31	8.33	-53.1	-55.3	14.0	0.00e+00	0	28	0	161480704	71	4871
2026-01-04 21:39:54.09	33.45	8.38	-53.1	-55.2	14.0	0.00e+00	0	28	0	163577856	71	4821
2026-01-04 21:39:55.09	33.59	8.43	-53.0	-55.1	14.0	0.00e+00	0	28	0	165675008	71	4775
2026-01-04 21:39:56.10	33.73	8.47	-53.1	-55.2	14.0	0.00e+00	0	28	0	166723584	71	4847
2026-01-04 21:39:57.11	33.87	8.52	-53.1	-55.2	14.0	0.00e+00	0	28	0	168820736	71	4820
2026-01-04 21:39:58.12	34.01	8.57	-53.0	-55.1	14.1	0.00e+00	0	28	0	170917888	71	4776
2026-01-04 21:39:59.13	34.15	8.61	-53.0	-55.0	14.1	0.00e+00	0	28	0	173015040	71	4730
2026-01-04 21:40:00.14	34.29	8.66	-53.1	-55.2	14.0	0.00e+00	0	28	0	175112192	71	4816
2026-01-04 21:40:01.15	34.43	8.71	-53.0	-55.1	14.1	0.00e+00	0	28	0	176160768	71	4793
2026-01-04 21:40:02.16	34.58	8.76	-53.0	-55.1	14.1	0.00e+00	0	28	0	178257920	71	4800
2026-01-04 21:40:03.17	34.72	8.80	-53.2	-55.3	14.0	0.00e+00	0	28	0	180355072	71	4888
2026-01-04 21:40:04.18	34.86	8.85	-53.2	-55.3	14.0	0.00e+00	0	28	0	182452224	71	4914
2026-01-04 21:40:05.18	35.01	8.90	-53.3	-55.4	13.9	0.00e+00	0	28	0	184549376	71	4959
2026-01-04 21:40:06.19	35.15	8.94	-53.3	-55.5	13.9	0.00e+00	0	28	0	185597952	71	4993
2026-01-04 21:40:07.20	35.29	8.99	-53.3	-55.5	13.9	0.00e+00	0	28	0	187695104	71	5014
2026-01-04 21:40:08.21	35.44	9.04	-53.3	-55.4	13.9	0.00e+00	0	28	0	189792256	71	4965
2026-01-04 21:40:09.22	35.59	9.08	-53.3	-55.5	13.9	0.00e+00	0	28	0	191889408	71	5000
2026-01-04 21:40:10.23	35.73	9.13	-53.2	-55.3	14.0	0.00e+00	0	28	0	193986560	71	4874
2026-01-04 21:40:11.24	35.88	9.17	-53.2	-55.4	13.9	0.00e+00	0	28	0	195035136	71	4942
2026-01-04 21:40:12.25	36.03	9.22	-53.3	-55.5	13.9	0.00e+00	0	28	0	197132288	71	4999
2026-01-04 21:40:13.25	36.17	9.27	-53.2	-55.3	14.0	0.00e+00	0	28	0	199229440	71	4915
2026-01-04 21:40:14.27	36.32	9.31	-53.3	-55.4	14.0	0.00e+00	0	28	0	201326592	71	4947
2026-01-04 21:40:15.28	36.47	9.36	-53.3	-55.4	13.9	0.00e+00	0	28	0	203423744	71	4964
2026-01-04 21:40:16.29	36.62	9.40	-53.3	-55.4	13.9	0.00e+00	0	28	0	204472320	71	4967
2026-01-04 21:40:17.30	36.77	9.45	-53.4	-55.5	14.0	0.00e+00	0	28	0	206569472	72	4753
2026-01-04 21:40:18.30	36.92	9.50	-53.3	-55.4	14.1	0.00e+00	0	28	0	208666624	72	4665
2026-01-04 21:40:19.31	37.07	9.54	-53.2	-55.3	14.1	0.00e+00	0	28	0	210763776	72	4616
2026-01-04 21:40:20.32	37.22	9.59	-53.3	-55.4	14.1	0.00e+00	0	28	0	212860928	72	4692
2026-01-04 21:40:21.33	37.37	9.63	-53.3	-55.4	14.0	0.00e+00	0	28	0	213909504	72	4689
2026-01-04 21:40:22.33	37.52	9.68	-53.0	-55.0	14.2	0.00e+00	0	28	0	216006656	72	4482
2026-01-04 21:40:23.34	37.67	9.72	-53.2	-55.3	14.1	0.00e+00	0	28	0	218103808	72	4604
2026-01-04 21:40:24.35	37.82	9.77	-53.0	-55.1	14.1	0.00e+00	0	28	0	220200960	72	4495
2026-01-04 21:40:25.36	37.98	9.81	-53.1	-55.2	14.1	0.00e+00	0	28	0	222298112	72	4549
2026-01-04 21:40:26.36	38.13	9.86	-53.2	-55.4	14.1	0.00e+00	0	28	0	223346688	72	4653
2026-01-04 21:40:27.37	38.28	9.90	-53.4	-55.5	14.0	0.00e+00	0	28	0	225443840	72	4738
2026-01-04 21:40:28.38	38.44	9.95	-53.4	-55.6	14.0	0.00e+00	0	28	0	227540992	72	4764
2026-01-04 21:40:29.38	38.59	9.99	-53.5	-55.7	13.9	0.00e+00	0	28	0	229638144	72	4851
2026-01-04 21:40:30.39	38.75	10.04	-53.5	-55.8	13.8	0.00e+00	0	28	0	231735296	72	4886
2026-01-04 21:40:31.40	38.90	10.08	-53.5	-55.8	13.8	0.00e+00	0	28	0	233832448	72	4880
2026-01-04 21:40:32.41	39.06	10.12	-53.5	-55.7	13.9	0.00e+00	0	28	0	234881024	72	4854
2026-01-04 21:40:33.41	39.21	10.17	-53.4	-55.5	14.0	0.00e+00	0	28	0	236978176	72	4748
2026-01-04 21:40:34.42	39.37	10.21	-53.2	-55.3	14.1	0.00e+00	0	28	0	239075328	72	4620
2026-01-04 21:40:35.43	39.53	10.26	-53.2	-55.3	14.1	0.00e+00	0	28	0	241172480	72	4607
2026-01-04 21:40:36.43	39.69	10.30	-53.1	-55.2	14.1	0.00e+00	0	28	0	242221056	72	4565
2026-01-04 21:40:37.44	39.84	10.34	-53.4	-55.6	14.0	0.00e+00	0	28	0	244318208	72	4772
2026-01-04 21:40:38.45	40.00	10.39	-53.3	-55.5	14.0	0.00e+00	0	28	0	246415360	72	4712
2026-01-04 21:40:39.46	40.16	10.43	-53.5	-55.7	13.9	0.00e+00	0	28	0	248512512	72	4820
2026-01-04 21:40:40.47	40.32	10.47	-53.6	-55.9	13.8	0.00e+00	0	28	0	250609664	72	4942
2026-01-04 21:40:41.48	40.48	10.52	-53.6	-55.9	13.8	0.00e+00	0	28	0	251658240	72	4929
2026-01-04 21:40:42.48	40.64	10.56	-53.6	-55.8	13.8	0.00e+00	0	28	0	253755392	72	4909
2026-01-04 21:40:43.49	40.80	10.60	-53.8	-56.1	13.7	0.00e+00	0	28	0	255852544	72	5080
2026-01-04 21:40:44.50	40.97	10.65	-53.6	-55.8	13.9	0.00e+00	0	28	0	257949696	72	4902
2026-01-04 21:40:45.51	41.13	10.69	-53.6	-55.9	13.8	0.00e+00	0	28	0	260046848	72	4943
2026-01-04 21:40:46.51	41.29	10.73	-53.7	-56.0	13.8	0.00e+00	0	28	0	262144000	72	5001
2026-01-04 21:40:47.52	41.45	10.78	-53.5	-55.7	13.9	0.00e+00	0	28	0	263192576	72	4855
2026-01-04 21:40:48.53	41.62	10.82	-53.4	-55.5	14.0	0.00e+00	0	28	0	265289728	72	4722
2026-01-04 21:40:49.53	41.78	10.86	-53.5	-55.7	13.9	0.00e+00	0	28	0	267386880	72	4843
2026-01-04 21:40:50.54	41.94	10.90	-53.6	-55.8	13.8	0.00e+00	0	28	0	269484032	72	4916
2026-01-04 21:40:51.55	42.11	10.94	-53.4	-55.6	14.0	0.00e+00	0	28	0	271581184	72	4776
2026-01-04 21:40:52.56	42.27	10.99	-53.5	-55.7	13.9	0.00e+00	0	28	0	272629760	72	4841
2026-01-04 21:40:53.57	42.44	11.03	-53.6	-55.9	13.8	0.00e+00	0	28	0	274726912	72	4937
2026-01-04 21:40:54.58	42.61	11.07	-53.8	-56.0	13.8	0.00e+00	0	28	0	276824064	72	5037
2026-01-04 21:40:55.59	42.77	11.11	-53.8	-56.1	13.8	0.00e+00	0	28	0	278921216	72	5061
2026-01-04 21:40:56.59	42.94	11.15	-53.9	-56.2	13.7	0.00e+00	0	28	0	279969792	72	5132
2026-01-04 21:40:57.60	43.11	11.19	-53.9	-56.3	13.7	0.00e+00	0	28	0	282066944	72	5182
2026-01-04 21:40:58.61	43.27	11.23	-53.9	-56.3	13.7	0.00e+00	0	28	0	284164096	73	4893
2026-01-04 21:40:59.61	43.44	11.28	-54.0	-56.3	13.7	0.00e+00	0	28	0	286261248	73	4924
2026-01-04 21:41:00.61	43.61	11.32	-54.0	-56.4	13.7	0.00e+00	0	28	0	288358400	73	4956
2026-01-04 21:41:01.63	43.78	11.36	-54.1	-56.5	13.6	0.00e+00	0	28	0	290455552	73	5025
2026-01-04 21:41:02.64	43.95	11.40	-54.0	-56.3	13.7	0.00e+00	0	28	0	291504128	73	4905
2026-01-04 21:41:03.65	44.12	11.44	-54.0	-56.3	13.7	0.00e+00	0	28	0	293601280	73	4919
2026-01-04 21:41:04.65	44.29	11.48	-54.0	-56.4	13.7	0.00e+00	0	28	0	295698432	73	4941
2026-01-04 21:41:05.66	44.46	11.52	-54.0	-56.4	13.7	0.00e+00	0	28	0	297795584	73	4970
2026-01-04 21:41:06.67	44.63	11.56	-54.1	-56.5	13.6	0.00e+00	0	28	0	299892736	73	4992
2026-01-04 21:41:07.68	44.81	11.60	-54.1	-56.5	13.6	0.00e+00	0	28	0	300941312	73	4994
2026-01-04 21:41:08.68	44.98	11.64	-54.3	-56.7	13.5	0.00e+00	0	28	0	303038464	73	5158
2026-01-04 21:41:09.69	45.15	11.68	-54.3	-56.9	13.5	0.00e+00	0	28	0	305135616	74	4940
2026-01-04 21:41:10.70	45.32	11.71	-54.5	-57.1	13.4	0.00e+00	0	28	0	307232768	74	5092
2026-01-04 21:41:11.71	45.50	11.75	-54.2	-56.7	13.6	0.00e+00	0	28	0	309329920	74	4860
2026-01-04 21:41:12.72	45.67	11.79	-54.3	-56.8	13.5	0.00e+00	0	28	0	310378496	74	4876
2026-01-04 21:41:13.73	45.85	11.83	-54.2	-56.6	13.7	0.00e+00	0	28	0	312475648	74	4790
2026-01-04 21:41:14.74	46.02	11.87	-54.1	-56.5	13.7	0.00e+00	0	28	0	314572800	74	4727
2026-01-04 21:41:15.75	46.20	11.91	-54.1	-56.6	13.7	0.00e+00	0	28	0	316669952	74	4765
2026-01-04 21:41:16.76	46.37	11.95	-54.0	-56.4	13.8	0.00e+00	0	28	0	318767104	74	4657
2026-01-04 21:41:17.76	46.55	11.98	-54.1	-56.5	13.7	0.00e+00	0	28	0	319815680	74	4733
2026-01-04 21:41:18.77	46.73	12.02	-54.2	-56.6	13.7	0.00e+00	0	28	0	321912832	74	4801
2026-01-04 21:41:19.77	46.90	12.06	-54.2	-56.6	13.6	0.00e+00	0	28	0	324009984	74	4810
2026-01-04 21:41:20.78	47.08	12.10	-54.2	-56.6	13.7	0.00e+00	0	28	0	326107136	74	4784
2026-01-04 21:41:21.79	47.26	12.13	-54.3	-56.7	13.6	0.00e+00	0	28	0	328204288	74	4866
2026-01-04 21:41:22.80	47.44	12.17	-54.3	-56.8	13.6	0.00e+00	0	28	0	329252864	74	4877
2026-01-04 21:41:23.81	47.62	12.21	-54.1	-56.5	13.7	0.00e+00	0	28	0	331350016	74	4716
2026-01-04 21:41:24.82	47.80	12.24	-54.1	-56.5	13.7	0.00e+00	0	28	0	333447168	74	4719
2026-01-04 21:41:25.83	47.98	12.28	-53.9	-56.2	13.8	0.00e+00	0	28	0	335544320	74	4597
2026-01-04 21:41:26.84	48.16	12.32	-54.0	-56.3	13.8	0.00e+00	0	28	0	337641472	74	4646
2026-01-04 21:41:27.85	48.34	12.35	-53.9	-56.2	13.9	0.00e+00	0	28	0	338690048	74	4561
2026-01-04 21:41:28.85	48.52	12.39	-53.9	-56.2	13.9	0.00e+00	0	28	0	340787200	74	4556
2026-01-04 21:41:29.86	48.70	12.42	-54.0	-56.4	13.8	0.00e+00	0	28	0	342884352	74	4682
2026-01-04 21:41:30.87	48.88	12.46	-53.9	-56.2	13.9	0.00e+00	0	28	0	344981504	74	4585
2026-01-04 21:41:31.88	49.07	12.50	-54.1	-56.5	13.7	0.00e+00	0	28	0	347078656	74	4707
2026-01-04 21:41:32.89	49.25	12.53	-54.2	-56.6	13.7	0.00e+00	0	28	0	348127232	74	4769
2026-01-04 21:41:33.90	49.43	12.57	-54.2	-56.7	13.6	0.00e+00	0	28	0	350224384	74	4829
2026-01-04 21:41:34.90	49.62	12.60	-54.2	-56.6	13.7	0.00e+00	0	28	0	352321536	74	4806
2026-01-04 21:41:35.91	49.80	12.63	-54.1	-56.5	13.7	0.00e+00	0	28	0	354418688	74	4745
2026-01-04 21:41:36.91	49.98	12.67	-54.1	-56.5	13.8	0.00e+00	0	28	0	356515840	74	4718
2026-01-04 21:41:37.92	50.17	12.70	-54.1	-56.5	13.7	0.00e+00	0	28	0	357564416	74	4751
2026-01-04 21:41:38.93	50.36	12.74	-54.1	-56.5	13.7	0.00e+00	0	28	0	359661568	74	4723
2026-01-04 21:41:39.94	50.54	12.77	-54.1	-56.4	13.8	0.00e+00	0	28	0	361758720	74	4683
2026-01-04 21:41:40.95	50.73	12.80	-54.1	-56.4	13.8	0.00e+00	0	28	0	363855872	74	4686
2026-01-04 21:41:41.96	50.92	12.84	-54.1	-56.4	13.8	0.00e+00	0	28	0	365953024	74	4677
2026-01-04 21:41:42.97	51.10	12.87	-53.9	-56.1	13.9	0.00e+00	0	28	0	367001600	74	4540
2026-01-04 21:41:43.98	51.29	12.90	-53.7	-55.9	13.9	0.00e+00	0	28	0	369098752	73	4702
2026-01-04 21:41:44.98	51.48	12.93	-53.6	-55.8	14.0	0.00e+00	0	28	0	371195904	73	4639
2026-01-04 21:41:45.99	51.67	12.96	-53.4	-55.6	14.1	0.00e+00	0	28	0	373293056	73	4508
2026-01-04 21:41:46.99	51.85	13.00	-53.5	-55.6	14.1	0.00e+00	0	28	0	375390208	73	4505
2026-01-04 21:41:48.00	52.04	13.03	-53.2	-55.3	14.1	0.00e+00	0	28	0	376438784	72	4616
2026-01-04 21:41:49.01	52.23	13.06	-53.1	-55.1	14.2	0.00e+00	0	28	0	378535936	72	4520
2026-01-04 21:41:50.02	52.42	13.09	-52.8	-54.8	14.4	0.00e+00	0	28	0	380633088	72	4347
2026-01-04 21:41:51.02	52.61	13.12	-52.9	-54.9	14.3	0.00e+00	0	28	0	382730240	72	4411
2026-01-04 21:41:52.03	52.80	13.15	-52.9	-54.9	14.3	0.00e+00	0	28	0	384827392	72	4394
2026-01-04 21:41:53.04	52.99	13.18	-52.9	-54.8	14.3	0.00e+00	0	28	0	385875968	72	4359
2026-01-04 21:41:54.05	53.19	13.21	-52.9	-54.8	14.4	0.00e+00	0	28	0	387973120	72	4365
2026-01-04 21:41:55.06	53.38	13.24	-52.8	-54.8	14.4	0.00e+00	0	28	0	390070272	72	4341
2026-01-04 21:41:56.07	53.57	13.27	-53.1	-55.1	14.2	0.00e+00	0	28	0	392167424	72	4522
2026-01-04 21:41:57.07	53.76	13.30	-53.1	-55.2	14.2	0.00e+00	0	28	0	394264576	72	4562
2026-01-04 21:41:58.08	53.96	13.33	-53.3	-55.3	14.1	0.00e+00	0	28	0	395313152	72	4643
2026-01-04 21:41:59.09	54.15	13.36	-53.2	-55.2	14.2	0.00e+00	0	28	0	397410304	72	4568
2026-01-04 21:42:00.10	54.34	13.39	-53.0	-55.0	14.3	0.00e+00	0	28	0	399507456	72	4447
2026-01-04 21:42:01.11	54.54	13.42	-53.0	-55.0	14.3	0.00e+00	0	28	0	401604608	72	4451
2026-01-04 21:42:02.12	54.73	13.44	-52.7	-54.6	14.5	0.00e+00	0	28	0	403701760	72	4246
2026-01-04 21:42:03.13	54.93	13.47	-52.7	-54.6	14.4	0.00e+00	0	28	0	404750336	72	4280
2026-01-04 21:42:04.13	55.12	13.50	-52.7	-54.6	14.4	0.00e+00	0	28	0	406847488	71	4501
2026-01-04 21:42:05.13	55.31	13.53	-52.9	-54.8	14.3	0.00e+00	0	28	0	408944640	71	4644
2026-01-04 21:42:06.14	55.51	13.55	-53.0	-55.0	14.2	0.00e+00	0	28	0	411041792	71	4752
2026-01-04 21:42:07.15	55.71	13.58	-53.0	-55.0	14.1	0.00e+00	0	28	0	413138944	71	4751
2026-01-04 21:42:08.16	55.90	13.61	-53.3	-55.4	14.1	0.00e+00	0	28	0	415236096	71	4927
2026-01-04 21:42:09.17	56.10	13.63	-53.3	-55.4	14.1	0.00e+00	0	28	0	416284672	72	4682
2026-01-04 21:42:10.18	56.30	13.66	-53.4	-55.5	14.1	0.00e+00	0	28	0	418381824	72	4717
2026-01-04 21:42:11.19	56.50	13.68	-52.9	-54.8	14.4	0.00e+00	0	28	0	420478976	72	4357
2026-01-04 21:42:12.20	56.70	13.71	-52.9	-54.8	14.3	0.00e+00	0	28	0	422576128	72	4388
2026-01-04 21:42:13.21	56.89	13.73	-52.5	-54.4	14.4	0.00e+00	0	28	0	424673280	71	4411
2026-01-04 21:42:14.22	57.09	13.76	-52.7	-54.6	14.3	0.00e+00	0	28	0	425721856	71	4518
2026-01-04 21:42:15.22	57.29	13.78	-53.0	-55.0	14.2	0.00e+00	0	28	0	427819008	71	4718
2026-01-04 21:42:16.23	57.49	13.81	-53.1	-55.2	14.1	0.00e+00	0	28	0	429916160	71	4825
2026-01-04 21:42:17.24	57.69	13.83	-53.5	-55.6	14.0	0.00e+00	0	28	0	432013312	72	4779
2026-01-04 21:42:18.24	57.89	13.85	-53.5	-55.6	14.0	0.00e+00	0	28	0	434110464	72	4812
2026-01-04 21:42:19.26	58.09	13.88	-53.4	-55.5	14.1	0.00e+00	0	28	0	435159040	72	4729
2026-01-04 21:42:20.26	58.29	13.90	-53.3	-55.3	14.1	0.00e+00	0	28	0	437256192	72	4646
2026-01-04 21:42:21.27	58.49	13.92	-53.2	-55.2	14.2	0.00e+00	0	28	0	439353344	72	4578
2026-01-04 21:42:22.28	58.69	13.95	-53.0	-55.0	14.3	0.00e+00	0	28	0	441450496	72	4458
2026-01-04 21:42:23.29	58.89	13.97	-53.2	-55.2	14.2	0.00e+00	0	28	0	443547648	72	4564
2026-01-04 21:42:24.30	59.10	13.99	-53.6	-55.8	13.9	0.00e+00	0	28	0	444596224	72	4885
2026-01-04 21:42:25.31	59.30	14.01	-54.1	-56.5	13.7	0.00e+00	0	28	0	446693376	73	4993
2026-01-04 21:42:26.32	59.50	14.03	-54.6	-57.2	13.4	0.00e+00	0	28	0	448790528	74	5126
2026-01-04 21:42:27.33	59.70	14.05	-54.6	-57.3	13.3	0.00e+00	0	28	0	450887680	74	5189
2026-01-04 21:42:28.34	59.91	14.07	-54.5	-57.0	13.5	0.00e+00	0	28	0	452984832	74	5009
2026-01-04 21:42:29.35	60.11	14.09	-54.1	-56.4	13.8	0.00e+00	0	28	0	454033408	74	4676
2026-01-04 21:42:30.35	60.31	14.11	-53.8	-56.0	14.0	0.00e+00	0	28	0	456130560	74	4477
2026-01-04 21:42:31.36	60.52	14.13	-53.6	-55.8	14.0	0.00e+00	0	28	0	458227712	73	4603
2026-01-04 21:42:32.37	60.72	14.15	-53.4	-55.4	14.2	0.00e+00	0	28	0	460324864	73	4432
2026-01-04 21:42:33.38	60.92	14.17	-53.4	-55.6	14.1	0.00e+00	0	28	0	462422016	73	4499
2026-01-04 21:42:34.39	61.13	14.19	-53.5	-55.6	14.1	0.00e+00	0	28	0	463470592	73	4524
2026-01-04 21:42:35.40	61.33	14.21	-53.6	-55.8	14.0	0.00e+00	0	28	0	465567744	73	4622
2026-01-04 21:42:36.40	61.54	14.23	-53.7	-55.9	13.9	0.00e+00	0	28	0	467664896	73	4704
2026-01-04 21:42:37.41	61.74	14.24	-53.8	-56.1	13.9	0.00e+00	0	28	0	469762048	73	4772
2026-01-04 21:42:38.42	61.95	14.26	-53.6	-55.7	14.0	0.00e+00	0	28	0	471859200	73	4580
2026-01-04 21:42:39.42	62.15	14.28	-53.4	-55.5	14.1	0.00e+00	0	28	0	472907776	73	4472
2026-01-04 21:42:40.43	62.36	14.29	-53.1	-55.2	14.2	0.00e+00	0	28	0	475004928	72	4556
2026-01-04 21:42:41.44	62.56	14.31	-53.0	-55.0	14.3	0.00e+00	0	28	0	477102080	72	4464
2026-01-04 21:42:42.46	62.77	14.33	-53.0	-54.9	14.3	0.00e+00	0	28	0	479199232	72	4427
2026-01-04 21:42:43.46	62.98	14.34	-53.0	-55.0	14.3	0.00e+00	0	28	0	481296384	72	4468
2026-01-04 21:42:44.47	63.18	14.36	-53.1	-55.1	14.2	0.00e+00	0	28	0	482344960	72	4519
2026-01-04 21:42:45.48	63.39	14.37	-53.1	-55.1	14.3	0.00e+00	0	28	0	484442112	72	4501
2026-01-04 21:42:46.49	63.60	14.39	-53.1	-55.0	14.3	0.00e+00	0	28	0	486539264	72	4487
2026-01-04 21:42:47.50	63.81	14.40	-52.9	-54.8	14.4	0.00e+00	0	28	0	488636416	72	4357
2026-01-04 21:42:48.51	64.01	14.42	-52.7	-54.6	14.5	0.00e+00	0	28	0	490733568	72	4275
2026-01-04 21:42:49.51	64.22	14.43	-52.5	-54.3	14.5	0.00e+00	0	28	0	491782144	71	4368
2026-01-04 21:42:50.52	64.43	14.44	-52.5	-54.3	14.5	0.00e+00	0	28	0	493879296	71	4360
2026-01-04 21:42:51.53	64.64	14.46	-52.6	-54.5	14.4	0.00e+00	0	28	0	495976448	71	4480
2026-01-04 21:42:52.54	64.85	14.47	-52.8	-54.7	14.3	0.00e+00	0	28	0	498073600	71	4559
2026-01-04 21:42:53.55	65.05	14.48	-53.1	-55.1	14.2	0.00e+00	0	28	0	500170752	71	4773
2026-01-04 21:42:54.56	65.26	14.49	-53.1	-55.2	14.1	0.00e+00	0	28	0	501219328	71	4834
2026-01-04 21:42:55.57	65.47	14.50	-53.3	-55.3	14.1	0.00e+00	0	28	0	503316480	71	4920
2026-01-04 21:42:56.57	65.68	14.52	-53.0	-55.0	14.2	0.00e+00	0	28	0	505413632	71	4725
2026-01-04 21:42:57.58	65.89	14.53	-52.8	-54.8	14.3	0.00e+00	0	28	0	507510784	71	4606
2026-01-04 21:42:58.59	66.10	14.54	-52.5	-54.4	14.4	0.00e+00	0	28	0	509607936	71	4412
2026-01-04 21:42:59.59	66.31	14.55	-52.4	-54.2	14.5	0.00e+00	0	28	0	511705088	71	4310
2026-01-04 21:43:00.60	66.52	14.56	-52.4	-54.2	14.5	0.00e+00	0	28	0	512753664	71	4330
2026-01-04 21:43:01.61	66.73	14.57	-52.5	-54.4	14.5	0.00e+00	0	28	0	514850816	71	4407
2026-01-04 21:43:02.62	66.94	14.58	-52.7	-54.6	14.4	0.00e+00	0	28	0	516947968	71	4508
2026-01-04 21:43:03.63	67.15	14.58	-52.9	-54.9	14.2	0.00e+00	0	28	0	519045120	71	4683
2026-01-04 21:43:04.64	67.36	14.59	-53.1	-55.1	14.2	0.00e+00	0	28	0	520093696	71	4764
2026-01-04 21:43:05.64	67.57	14.60	-53.1	-55.2	14.1	0.00e+00	0	28	0	522190848	71	4838
2026-01-04 21:43:06.65	67.78	14.61	-53.2	-55.2	14.1	0.00e+00	0	28	0	524288000	71	4864
2026-01-04 21:43:07.66	67.99	14.62	-53.1	-55.1	14.1	0.00e+00	0	28	0	526385152	71	4811
2026-01-04 21:43:08.66	68.20	14.62	-53.1	-55.1	14.2	0.00e+00	0	28	0	528482304	71	4790
2026-01-04 21:43:09.67	68.41	14.63	-53.2	-55.2	14.1	0.00e+00	0	28	0	529530880	71	4854
2026-01-04 21:43:10.68	68.62	14.64	-53.3	-55.3	14.1	0.00e+00	0	28	0	531628032	71	4912
2026-01-04 21:43:11.69	68.83	14.64	-53.1	-55.1	14.1	0.00e+00	0	28	0	533725184	71	4798
2026-01-04 21:43:12.70	69.04	14.65	-53.0	-54.9	14.2	0.00e+00	0	28	0	535822336	71	4696
2026-01-04 21:43:13.71	69.25	14.65	-53.0	-55.0	14.2	0.00e+00	0	28	0	537919488	71	4723
2026-01-04 21:43:14.71	69.46	14.66	-52.9	-54.9	14.2	0.00e+00	0	28	0	540016640	71	4676
2026-01-04 21:43:15.72	69.67	14.66	-53.0	-55.0	14.2	0.00e+00	0	29	0	541065216	71	4712
2026-01-04 21:43:16.73	69.88	14.67	-53.0	-55.0	14.2	0.00e+00	0	28	0	543162368	71	4707
2026-01-04 21:43:17.74	70.09	14.67	-53.2	-55.2	14.0	0.00e+00	0	28	0	545259520	71	4864
2026-01-04 21:43:18.74	70.30	14.67	-53.2	-55.2	14.1	0.00e+00	0	28	0	547356672	71	4861
2026-01-04 21:43:19.75	70.51	14.68	-53.3	-55.4	14.1	0.00e+00	0	28	0	549453824	72	4683
2026-01-04 21:43:20.76	70.73	14.68	-53.4	-55.5	14.1	0.00e+00	0	28	0	550502400	72	4736
2026-01-04 21:43:21.77	70.94	14.68	-53.2	-55.2	14.2	0.00e+00	0	28	0	552599552	72	4592
2026-01-04 21:43:22.78	71.15	14.68	-52.9	-54.8	14.4	0.00e+00	0	28	0	554696704	72	4366
2026-01-04 21:43:23.79	71.36	14.69	-52.8	-54.7	14.4	0.00e+00	0	29	0	556793856	72	4305
2026-01-04 21:43:24.80	71.57	14.69	-52.6	-54.4	14.4	0.00e+00	0	28	0	558891008	71	4433
2026-01-04 21:43:25.81	71.79	14.69	-52.7	-54.6	14.4	0.00e+00	0	28	0	559939584	71	4496
2026-01-04 21:43:26.81	71.99	14.69	-52.8	-54.8	14.3	0.00e+00	0	28	0	562036736	71	4599
2026-01-04 21:43:27.82	72.21	14.69	-52.9	-54.9	14.2	0.00e+00	0	28	0	564133888	71	4681
2026-01-04 21:43:28.83	72.42	14.69	-53.1	-55.1	14.2	0.00e+00	0	28	0	566231040	71	4775
2026-01-04 21:43:29.84	72.63	14.69	-53.0	-55.0	14.2	0.00e+00	0	28	0	568328192	71	4706
2026-01-04 21:43:30.85	72.84	14.69	-52.8	-54.7	14.3	0.00e+00	0	28	0	569376768	71	4593
2026-01-04 21:43:31.86	73.05	14.69	-52.8	-54.8	14.3	0.00e+00	0	28	0	571473920	71	4608
2026-01-04 21:43:32.87	73.27	14.68	-52.6	-54.4	14.4	0.00e+00	0	28	0	573571072	71	4431
2026-01-04 21:43:33.88	73.48	14.68	-52.6	-54.4	14.4	0.00e+00	0	28	0	575668224	71	4438
2026-01-04 21:43:34.88	73.69	14.68	-52.6	-54.5	14.4	0.00e+00	0	28	0	577765376	71	4459
2026-01-04 21:43:35.89	73.90	14.68	-52.7	-54.6	14.3	0.00e+00	0	28	0	578813952	71	4544
2026-01-04 21:43:36.90	74.11	14.67	-52.8	-54.7	14.3	0.00e+00	0	28	0	580911104	71	4592
2026-01-04 21:43:37.91	74.32	14.67	-52.7	-54.7	14.3	0.00e+00	0	28	0	583008256	71	4546
2026-01-04 21:43:38.92	74.53	14.67	-52.6	-54.5	14.4	0.00e+00	0	28	0	585105408	71	4447
2026-01-04 21:43:39.93	74.75	14.66	-52.4	-54.2	14.5	0.00e+00	0	28	0	587202560	71	4312
2026-01-04 21:43:40.94	74.96	14.66	-52.2	-54.0	14.6	0.00e+00	0	28	0	588251136	71	4213
2026-01-04 21:43:41.95	75.17	14.65	-52.0	-53.7	14.6	0.00e+00	0	28	0	590348288	70	4328
2026-01-04 21:43:42.96	75.38	14.65	-52.0	-53.7	14.6	0.00e+00	0	28	0	592445440	70	4327
2026-01-04 21:43:43.97	75.59	14.64	-52.0	-53.7	14.6	0.00e+00	0	28	0	594542592	70	4319
2026-01-04 21:43:44.98	75.80	14.64	-52.1	-53.8	14.6	0.00e+00	0	28	0	596639744	70	4386
2026-01-04 21:43:45.99	76.01	14.63	-52.2	-54.0	14.5	0.00e+00	0	28	0	597688320	70	4460
2026-01-04 21:43:46.99	76.22	14.62	-52.3	-54.1	14.5	0.00e+00	0	28	0	599785472	70	4532
2026-01-04 21:43:48.00	76.43	14.62	-52.5	-54.3	14.4	0.00e+00	0	28	0	601882624	70	4633
2026-01-04 21:43:49.01	76.64	14.61	-52.6	-54.5	14.3	0.00e+00	0	28	0	603979776	70	4727
2026-01-04 21:43:50.02	76.85	14.60	-52.6	-54.5	14.3	0.00e+00	0	28	0	606076928	70	4759
2026-01-04 21:43:51.03	77.06	14.59	-52.6	-54.5	14.3	0.00e+00	0	28	0	607125504	70	4730
2026-01-04 21:43:52.04	77.28	14.58	-52.7	-54.6	14.3	0.00e+00	0	28	0	609222656	70	4806
2026-01-04 21:43:53.05	77.49	14.58	-52.7	-54.6	14.3	0.00e+00	0	28	0	611319808	70	4766
2026-01-04 21:43:54.05	77.69	14.57	-52.6	-54.5	14.3	0.00e+00	0	28	0	613416960	70	4712
2026-01-04 21:43:55.06	77.90	14.56	-52.6	-54.5	14.3	0.00e+00	0	28	0	615514112	70	4721
2026-01-04 21:43:56.07	78.11	14.55	-52.6	-54.4	14.3	0.00e+00	0	28	0	616562688	70	4705
2026-01-04 21:43:57.08	78.32	14.54	-52.7	-54.6	14.3	0.00e+00	0	28	0	618659840	70	4794
2026-01-04 21:43:58.09	78.53	14.53	-52.7	-54.6	14.2	0.00e+00	0	28	0	620756992	70	4813
2026-01-04 21:43:59.10	78.74	14.52	-52.7	-54.6	14.3	0.00e+00	0	28	0	622854144	70	4785
2026-01-04 21:44:00.11	78.95	14.50	-52.8	-54.8	14.2	0.00e+00	0	28	0	624951296	70	4901
2026-01-04 21:44:01.12	79.16	14.49	-52.8	-54.7	14.2	0.00e+00	0	28	0	625999872	70	4836
2026-01-04 21:44:02.13	79.37	14.48	-52.8	-54.8	14.2	0.00e+00	0	28	0	628097024	70	4877
2026-01-04 21:44:03.14	79.58	14.47	-52.9	-54.9	14.2	0.00e+00	0	28	0	630194176	71	4688
2026-01-04 21:44:04.15	79.79	14.46	-53.0	-55.0	14.2	0.00e+00	0	28	0	632291328	71	4718
2026-01-04 21:44:05.16	80.00	14.44	-52.8	-54.7	14.3	0.00e+00	0	28	0	634388480	71	4594
2026-01-04 21:44:06.17	80.21	14.43	-52.8	-54.8	14.3	0.00e+00	0	28	0	636485632	71	4608
2026-01-04 21:44:07.18	80.41	14.42	-52.8	-54.7	14.3	0.00e+00	0	28	0	637534208	71	4578
2026-01-04 21:44:08.18	80.62	14.40	-52.7	-54.6	14.4	0.00e+00	0	28	0	639631360	71	4534
2026-01-04 21:44:09.19	80.83	14.39	-52.7	-54.6	14.4	0.00e+00	0	28	0	641728512	71	4499
2026-01-04 21:44:10.20	81.04	14.37	-52.5	-54.3	14.5	0.00e+00	0	28	0	643825664	71	4366
2026-01-04 21:44:11.21	81.24	14.36	-52.5	-54.3	14.5	0.00e+00	0	28	0	645922816	71	4387
2026-01-04 21:44:12.22	81.45	14.34	-52.4	-54.2	14.5	0.00e+00	0	28	0	646971392	71	4314
2026-01-04 21:44:13.23	81.66	14.33	-52.1	-53.9	14.5	0.00e+00	0	28	0	649068544	70	4396
2026-01-04 21:44:14.24	81.87	14.31	-52.0	-53.7	14.6	0.00e+00	0	28	0	651165696	70	4307
2026-01-04 21:44:15.25	82.07	14.30	-51.8	-53.5	14.7	0.00e+00	0	28	0	653262848	70	4229
2026-01-04 21:44:16.26	82.28	14.28	-51.8	-53.4	14.6	0.00e+00	0	28	0	655360000	69	4418
2026-01-04 21:44:17.27	82.48	14.26	-51.8	-53.4	14.6	0.00e+00	0	28	0	656408576	69	4438
2026-01-04 21:44:18.28	82.69	14.24	-51.8	-53.5	14.6	0.00e+00	0	28	0	658505728	69	4456
2026-01-04 21:44:19.29	82.90	14.23	-51.9	-53.6	14.5	0.00e+00	0	28	0	660602880	69	4539
2026-01-04 21:44:20.29	83.10	14.21	-51.9	-53.6	14.5	0.00e+00	0	28	0	662700032	69	4522
2026-01-04 21:44:21.30	83.31	14.19	-51.9	-53.6	14.6	0.00e+00	0	28	0	664797184	69	4507
2026-01-04 21:44:22.31	83.51	14.17	-51.7	-53.4	14.6	0.00e+00	0	28	0	665845760	69	4412
2026-01-04 21:44:23.32	83.71	14.15	-51.7	-53.4	14.6	0.00e+00	0	28	0	667942912	69	4416
2026-01-04 21:44:24.33	83.92	14.13	-51.6	-53.2	14.7	0.00e+00	0	28	0	670040064	69	4331
2026-01-04 21:44:25.34	84.12	14.11	-51.7	-53.4	14.6	0.00e+00	0	28	0	672137216	69	4399
2026-01-04 21:44:26.35	84.33	14.09	-51.8	-53.4	14.6	0.00e+00	0	28	0	674234368	69	4439
2026-01-04 21:44:27.36	84.53	14.07	-52.0	-53.8	14.5	0.00e+00	0	28	0	675282944	69	4606
2026-01-04 21:44:28.37	84.74	14.05	-52.1	-53.9	14.5	0.00e+00	0	28	0	677380096	69	4685
2026-01-04 21:44:29.37	84.94	14.03	-52.3	-54.1	14.4	0.00e+00	0	28	0	679477248	69	4795
2026-01-04 21:44:30.39	85.14	14.01	-52.4	-54.2	14.3	0.00e+00	0	28	0	681574400	69	4864
2026-01-04 21:44:31.40	85.34	13.99	-52.4	-54.2	14.4	0.00e+00	0	28	0	683671552	70	4561
2026-01-04 21:44:32.40	85.54	13.97	-52.5	-54.3	14.3	0.00e+00	0	28	0	684720128	70	4645
2026-01-04 21:44:33.41	85.75	13.95	-52.5	-54.3	14.4	0.00e+00	0	28	0	686817280	70	4633
2026-01-04 21:44:34.42	85.95	13.92	-52.5	-54.4	14.3	0.00e+00	0	28	0	688914432	70	4672
2026-01-04 21:44:35.43	86.15	13.90	-52.6	-54.4	14.3	0.00e+00	0	28	0	691011584	70	4700
2026-01-04 21:44:36.44	86.35	13.88	-52.4	-54.3	14.4	0.00e+00	0	28	0	693108736	70	4609
2026-01-04 21:44:37.45	86.55	13.85	-52.5	-54.3	14.4	0.00e+00	0	28	0	694157312	70	4636
2026-01-04 21:44:38.46	86.75	13.83	-52.3	-54.1	14.5	0.00e+00	0	28	0	696254464	70	4521
2026-01-04 21:44:39.47	86.95	13.81	-52.2	-54.0	14.5	0.00e+00	0	28	0	698351616	70	4448
2026-01-04 21:44:40.48	87.15	13.78	-52.0	-53.8	14.6	0.00e+00	0	28	0	700448768	70	4353
2026-01-04 21:44:41.49	87.35	13.76	-52.0	-53.8	14.6	0.00e+00	0	28	0	702545920	70	4341
2026-01-04 21:44:42.50	87.55	13.73	-51.9	-53.6	14.6	0.00e+00	0	28	0	704643072	70	4290
2026-01-04 21:44:43.51	87.75	13.71	-51.7	-53.4	14.7	0.00e+00	0	28	0	705691648	70	4170
2026-01-04 21:44:44.52	87.95	13.68	-51.6	-53.3	14.7	0.00e+00	0	28	0	707788800	69	4342
2026-01-04 21:44:45.53	88.15	13.66	-51.4	-53.0	14.8	0.00e+00	0	28	0	709885952	69	4219
2026-01-04 21:44:46.54	88.35	13.63	-51.3	-52.9	14.8	0.00e+00	0	28	0	711983104	69	4149
2026-01-04 21:44:47.55	88.54	13.61	-51.3	-52.9	14.8	0.00e+00	0	28	0	714080256	69	4155
2026-01-04 21:44:48.56	88.74	13.58	-51.4	-53.0	14.8	0.00e+00	0	29	0	715128832	69	4232
2026-01-04 21:44:49.57	88.94	13.55	-51.3	-52.9	14.8	0.00e+00	0	28	0	717225984	69	4171
2026-01-04 21:44:50.58	89.13	13.52	-51.5	-53.2	14.7	0.00e+00	0	28	0	719323136	69	4314
2026-01-04 21:44:51.58	89.33	13.50	-51.6	-53.3	14.6	0.00e+00	0	28	0	721420288	69	4364
2026-01-04 21:44:52.59	89.53	13.47	-51.7	-53.4	14.6	0.00e+00	0	28	0	722468864	69	4403
2026-01-04 21:44:53.60	89.72	13.44	-51.8	-53.5	14.6	0.00e+00	0	28	0	724566016	69	4483
2026-01-04 21:44:54.61	89.92	13.41	-51.6	-53.3	14.7	0.00e+00	0	28	0	726663168	69	4361
2026-01-04 21:44:55.62	90.11	13.39	-51.6	-53.2	14.7	0.00e+00	0	28	0	728760320	69	4322
2026-01-04 21:44:56.63	90.31	13.36	-51.7	-53.4	14.6	0.00e+00	0	28	0	730857472	69	4440
2026-01-04 21:44:57.64	90.50	13.33	-52.0	-53.7	14.5	0.00e+00	0	28	0	732954624	69	4589
2026-01-04 21:44:58.64	90.69	13.30	-52.2	-54.0	14.4	0.00e+00	0	28	0	734003200	69	4725
2026-01-04 21:44:59.65	90.89	13.27	-52.4	-54.3	14.4	0.00e+00	0	28	0	736100352	70	4622
2026-01-04 21:45:00.66	91.08	13.24	-52.2	-54.0	14.5	0.00e+00	0	28	0	738197504	70	4451
2026-01-04 21:45:01.67	91.27	13.21	-52.1	-53.9	14.5	0.00e+00	0	28	0	740294656	70	4410
2026-01-04 21:45:02.68	91.46	13.18	-52.0	-53.7	14.6	0.00e+00	0	28	0	742391808	70	4333
2026-01-04 21:45:03.69	91.66	13.15	-51.8	-53.4	14.7	0.00e+00	0	28	0	743440384	70	4189
2026-01-04 21:45:04.70	91.85	13.12	-51.8	-53.4	14.7	0.00e+00	0	28	0	745537536	70	4188
2026-01-04 21:45:05.70	92.04	13.09	-51.8	-53.5	14.6	0.00e+00	0	28	0	747634688	70	4231
2026-01-04 21:45:06.71	92.23	13.06	-51.8	-53.5	14.7	0.00e+00	0	28	0	749731840	70	4226
2026-01-04 21:45:07.72	92.42	13.02	-52.0	-53.7	14.6	0.00e+00	0	28	0	751828992	70	4313
2026-01-04 21:45:08.73	92.61	12.99	-52.1	-53.8	14.6	0.00e+00	0	28	0	752877568	70	4383
2026-01-04 21:45:09.73	92.79	12.96	-52.0	-53.8	14.6	0.00e+00	0	28	0	754974720	70	4364
2026-01-04 21:45:10.74	92.98	12.93	-52.0	-53.7	14.6	0.00e+00	0	28	0	757071872	70	4330
2026-01-04 21:45:11.75	93.17	12.90	-51.8	-53.5	14.7	0.00e+00	0	28	0	759169024	70	4206
2026-01-04 21:45:12.76	93.36	12.86	-51.8	-53.6	14.7	0.00e+00	0	28	0	761266176	70	4245
2026-01-04 21:45:13.77	93.55	12.83	-51.9	-53.6	14.6	0.00e+00	0	28	0	762314752	70	4259
2026-01-04 21:45:14.78	93.74	12.80	-51.9	-53.7	14.6	0.00e+00	0	28	0	764411904	70	4298
2026-01-04 21:45:15.79	93.92	12.76	-52.1	-53.9	14.5	0.00e+00	0	28	0	766509056	70	4400
2026-01-04 21:45:16.79	94.11	12.73	-52.3	-54.2	14.4	0.00e+00	0	28	0	768606208	70	4568
2026-01-04 21:45:17.81	94.30	12.70	-52.5	-54.4	14.3	0.00e+00	0	28	0	770703360	70	4668
2026-01-04 21:45:18.81	94.48	12.66	-52.6	-54.6	14.2	0.00e+00	0	28	0	771751936	70	4766
2026-01-04 21:45:19.82	94.67	12.63	-52.6	-54.5	14.3	0.00e+00	0	28	0	773849088	70	4732
2026-01-04 21:45:20.83	94.85	12.59	-52.7	-54.6	14.2	0.00e+00	0	28	0	775946240	70	4813
2026-01-04 21:45:21.83	95.03	12.56	-52.6	-54.6	14.2	0.00e+00	0	28	0	778043392	70	4774
2026-01-04 21:45:22.84	95.22	12.52	-52.7	-54.6	14.2	0.00e+00	0	28	0	780140544	70	4803
2026-01-04 21:45:23.85	95.40	12.49	-52.9	-54.8	14.2	0.00e+00	0	28	0	781189120	70	4921
2026-01-04 21:45:24.85	95.58	12.45	-52.7	-54.7	14.2	0.00e+00	0	28	0	783286272	70	4837
2026-01-04 21:45:25.86	95.77	12.42	-52.7	-54.7	14.2	0.00e+00	0	28	0	785383424	70	4842
2026-01-04 21:45:26.87	95.95	12.38	-52.8	-54.8	14.1	0.00e+00	0	28	0	787480576	70	4887
2026-01-04 21:45:27.88	96.13	12.35	-53.0	-55.1	14.1	0.00e+00	0	28	0	789577728	71	4760
2026-01-04 21:45:28.89	96.31	12.31	-53.2	-55.2	14.0	0.00e+00	0	28	0	790626304	71	4857
2026-01-04 21:45:29.90	96.50	12.27	-53.3	-55.4	14.0	0.00e+00	0	28	0	792723456	71	4937
2026-01-04 21:45:30.91	96.68	12.24	-53.3	-55.4	14.0	0.00e+00	0	28	0	794820608	72	4705
2026-01-04 21:45:31.91	96.85	12.20	-53.4	-55.5	14.0	0.00e+00	0	28	0	796917760	72	4754
2026-01-04 21:45:32.92	97.03	12.16	-53.5	-55.7	13.9	0.00e+00	0	28	0	799014912	72	4858
2026-01-04 21:45:33.93	97.21	12.13	-53.5	-55.7	13.9	0.00e+00	0	28	0	800063488	72	4855
2026-01-04 21:45:34.94	97.39	12.09	-53.6	-55.8	13.9	0.00e+00	0	28	0	802160640	72	4907
2026-01-04 21:45:35.95	97.57	12.05	-53.5	-55.6	13.9	0.00e+00	0	28	0	804257792	72	4812
2026-01-04 21:45:36.95	97.75	12.01	-53.6	-55.8	13.9	0.00e+00	0	28	0	806354944	72	4912
2026-01-04 21:45:37.96	97.93	11.98	-53.7	-55.9	13.8	0.00e+00	0	28	0	808452096	72	4963
2026-01-04 21:45:38.97	98.10	11.94	-53.7	-56.0	13.7	0.00e+00	0	28	0	809500672	72	5036
2026-01-04 21:45:39.98	98.28	11.90	-53.9	-56.3	13.7	0.00e+00	0	28	0	811597824	73	4874
2026-01-04 21:45:40.99	98.46	11.86	-53.8	-56.2	13.7	0.00e+00	0	28	0	813694976	73	4830
2026-01-04 21:45:41.99	98.63	11.82	-53.8	-56.1	13.8	0.00e+00	0	28	0	815792128	73	4803
2026-01-04 21:45:43.01	98.81	11.78	-53.5	-55.7	14.0	0.00e+00	0	28	0	817889280	73	4594
2026-01-04 21:45:44.02	98.98	11.74	-53.6	-55.8	14.0	0.00e+00	0	28	0	818937856	73	4617
2026-01-04 21:45:45.02	99.16	11.70	-53.1	-55.2	14.1	0.00e+00	0	28	0	821035008	72	4561
2026-01-04 21:45:46.03	99.33	11.67	-53.1	-55.1	14.1	0.00e+00	0	28	0	823132160	72	4534
2026-01-04 21:45:47.04	99.50	11.63	-53.2	-55.2	14.1	0.00e+00	0	28	0	825229312	72	4597
2026-01-04 21:45:48.05	99.68	11.59	-53.3	-55.4	14.1	0.00e+00	0	28	0	827326464	72	4667
2026-01-04 21:45:49.06	99.85	11.55	-53.4	-55.5	14.0	0.00e+00	0	28	0	829423616	72	4744
2026-01-04 21:45:50.07	100.02	11.51	-53.6	-55.8	13.8	0.00e+00	0	28	0	830472192	72	4917
2026-01-04 21:45:51.08	100.20	11.47	-53.8	-56.1	13.7	0.00e+00	0	28	0	832569344	72	5097
2026-01-04 21:45:52.08	100.37	11.43	-54.1	-56.5	13.6	0.00e+00	0	28	0	834666496	73	4999
2026-01-04 21:45:53.09	100.54	11.38	-54.2	-56.6	13.5	0.00e+00	0	28	0	836763648	73	5090
2026-01-04 21:45:54.10	100.71	11.34	-54.3	-56.8	13.5	0.00e+00	0	28	0	838860800	73	5204
2026-01-04 21:45:55.11	100.88	11.30	-54.4	-57.0	13.4	0.00e+00	0	28	0	839909376	74	5022
2026-01-04 21:45:56.12	101.05	11.26	-54.5	-57.1	13.4	0.00e+00	0	28	0	842006528	74	5056
2026-01-04 21:45:57.12	101.21	11.22	-54.5	-57.1	13.4	0.00e+00	0	28	0	844103680	74	5080
2026-01-04 21:45:58.13	101.38	11.18	-54.6	-57.2	13.3	0.00e+00	0	28	0	846200832	74	5147
2026-01-04 21:45:59.13	101.55	11.14	-54.5	-57.1	13.4	0.00e+00	0	28	0	847249408	74	5047
2026-01-04 21:46:00.15	101.72	11.10	-54.2	-56.7	13.6	0.00e+00	0	28	0	849346560	74	4846
2026-01-04 21:46:01.15	101.88	11.05	-54.0	-56.4	13.7	0.00e+00	0	28	0	851443712	74	4682
2026-01-04 21:46:02.16	102.05	11.01	-54.1	-56.4	13.7	0.00e+00	0	28	0	853540864	74	4700
2026-01-04 21:46:03.17	102.22	10.97	-53.9	-56.2	13.8	0.00e+00	0	28	0	855638016	74	4551
2026-01-04 21:46:04.18	102.38	10.93	-53.6	-55.8	14.0	0.00e+00	0	28	0	857735168	73	4608
2026-01-04 21:46:05.18	102.55	10.89	-53.7	-56.0	13.9	0.00e+00	0	28	0	858783744	73	4712
2026-01-04 21:46:06.19	102.71	10.84	-53.7	-55.9	13.9	0.00e+00	0	28	0	860880896	73	4690
2026-01-04 21:46:07.20	102.88	10.80	-53.8	-56.1	13.8	0.00e+00	0	28	0	862978048	73	4808
2026-01-04 21:46:08.21	103.04	10.76	-54.0	-56.3	13.7	0.00e+00	0	28	0	865075200	73	4925
2026-01-04 21:46:09.22	103.21	10.72	-54.0	-56.4	13.6	0.00e+00	0	28	0	867172352	73	4966
2026-01-04 21:46:10.23	103.37	10.67	-54.1	-56.6	13.6	0.00e+00	0	28	0	868220928	73	5060
2026-01-04 21:46:11.23	103.53	10.63	-54.1	-56.5	13.6	0.00e+00	0	28	0	870318080	73	5025
2026-01-04 21:46:12.24	103.69	10.59	-54.1	-56.5	13.6	0.00e+00	0	28	0	872415232	73	5027
2026-01-04 21:46:13.25	103.85	10.54	-53.7	-56.0	13.8	0.00e+00	0	28	0	874512384	73	4751
2026-01-04 21:46:14.26	104.02	10.50	-53.7	-56.0	13.8	0.00e+00	0	28	0	876609536	73	4739
2026-01-04 21:46:15.27	104.18	10.46	-53.4	-55.6	14.1	0.00e+00	0	28	0	877658112	73	4503
2026-01-04 21:46:16.28	104.34	10.41	-53.4	-55.5	14.1	0.00e+00	0	28	0	879755264	73	4470
2026-01-04 21:46:17.29	104.50	10.37	-53.6	-55.9	13.9	0.00e+00	0	28	0	881852416	73	4657
2026-01-04 21:46:18.29	104.65	10.32	-53.7	-55.9	13.8	0.00e+00	0	28	0	883949568	73	4699
2026-01-04 21:46:19.30	104.81	10.28	-53.8	-56.1	13.8	0.00e+00	0	28	0	886046720	73	4811
2026-01-04 21:46:20.31	104.97	10.24	-53.9	-56.2	13.7	0.00e+00	0	28	0	887095296	73	4865
2026-01-04 21:46:21.32	105.13	10.19	-54.0	-56.4	13.6	0.00e+00	0	28	0	889192448	73	4973
2026-01-04 21:46:22.32	105.29	10.15	-54.3	-56.8	13.4	0.00e+00	0	28	0	891289600	73	5210
2026-01-04 21:46:23.33	105.44	10.10	-54.3	-56.8	13.4	0.00e+00	0	28	0	893386752	73	5206
2026-01-04 21:46:24.34	105.60	10.06	-54.3	-56.8	13.4	0.00e+00	0	28	0	895483904	73	5203
2026-01-04 21:46:25.35	105.76	10.01	-54.2	-56.7	13.5	0.00e+00	0	28	0	896532480	73	5112
2026-01-04 21:46:26.36	105.91	9.97	-54.1	-56.6	13.5	0.00e+00	0	29	0	898629632	73	5067
2026-01-04 21:46:27.37	106.07	9.92	-54.1	-56.6	13.5	0.00e+00	0	28	0	900726784	73	5057
2026-01-04 21:46:28.37	106.22	9.88	-53.9	-56.3	13.7	0.00e+00	0	28	0	902823936	73	4891
2026-01-04 21:46:29.38	106.38	9.83	-53.7	-56.0	13.8	0.00e+00	0	28	0	904921088	73	4710
2026-01-04 21:46:30.39	106.53	9.79	-53.6	-55.8	13.9	0.00e+00	0	28	0	905969664	73	4618
2026-01-04 21:46:31.40	106.68	9.74	-53.5	-55.8	14.0	0.00e+00	0	28	0	908066816	73	4609
2026-01-04 21:46:32.41	106.84	9.70	-53.6	-55.9	13.9	0.00e+00	0	28	0	910163968	73	4681
2026-01-04 21:46:33.42	106.99	9.65	-53.4	-55.6	14.0	0.00e+00	0	28	0	912261120	73	4518
2026-01-04 21:46:34.43	107.14	9.61	-53.5	-55.7	14.0	0.00e+00	0	28	0	914358272	73	4560
2026-01-04 21:46:35.44	107.29	9.56	-53.4	-55.6	14.0	0.00e+00	0	28	0	915406848	73	4532
2026-01-04 21:46:36.44	107.44	9.52	-53.4	-55.6	14.0	0.00e+00	0	28	0	917504000	73	4511
2026-01-04 21:46:37.45	107.59	9.47	-53.4	-55.6	14.0	0.00e+00	0	28	0	919601152	73	4519
2026-01-04 21:46:38.46	107.74	9.42	-53.4	-55.6	14.0	0.00e+00	0	28	0	921698304	73	4494
2026-01-04 21:46:39.47	107.89	9.38	-53.4	-55.6	14.0	0.00e+00	0	28	0	923795456	73	4516
2026-01-04 21:46:40.48	108.04	9.33	-53.4	-55.6	14.0	0.00e+00	0	28	0	924844032	73	4506
2026-01-04 21:46:41.49	108.19	9.28	-53.5	-55.7	14.0	0.00e+00	0	28	0	926941184	73	4558
2026-01-04 21:46:42.50	108.34	9.24	-53.4	-55.6	14.0	0.00e+00	0	29	0	929038336	73	4532
2026-01-04 21:46:43.51	108.49	9.19	-53.5	-55.8	13.9	0.00e+00	0	28	0	931135488	73	4607
2026-01-04 21:46:44.52	108.64	9.15	-53.4	-55.6	14.0	0.00e+00	0	28	0	933232640	73	4541
2026-01-04 21:46:45.53	108.78	9.10	-53.4	-55.5	14.0	0.00e+00	0	28	0	934281216	73	4481
2026-01-04 21:46:46.54	108.93	9.05	-53.5	-55.7	14.0	0.00e+00	0	28	0	936378368	73	4568
2026-01-04 21:46:47.54	109.07	9.01	-53.2	-55.3	14.1	0.00e+00	0	29	0	938475520	73	4389
2026-01-04 21:46:48.55	109.22	8.96	-53.2	-55.3	14.1	0.00e+00	0	28	0	940572672	72	4613
2026-01-04 21:46:49.56	109.37	8.91	-53.2	-55.4	14.0	0.00e+00	0	28	0	942669824	72	4656
2026-01-04 21:46:50.57	109.51	8.86	-53.2	-55.4	14.0	0.00e+00	0	28	0	943718400	72	4654
2026-01-04 21:46:51.58	109.66	8.82	-53.1	-55.2	14.1	0.00e+00	0	28	0	945815552	72	4569
2026-01-04 21:46:52.59	109.80	8.77	-53.3	-55.5	14.0	0.00e+00	0	28	0	947912704	72	4706
2026-01-04 21:46:53.60	109.94	8.72	-53.4	-55.6	13.9	0.00e+00	0	28	0	950009856	72	4774
2026-01-04 21:46:54.61	110.09	8.68	-53.3	-55.5	14.0	0.00e+00	0	28	0	952107008	72	4741
2026-01-04 21:46:55.62	110.23	8.63	-53.5	-55.7	13.9	0.00e+00	0	28	0	953155584	72	4840
2026-01-04 21:46:56.63	110.37	8.58	-53.4	-55.6	13.9	0.00e+00	0	28	0	955252736	72	4804
2026-01-04 21:46:57.64	110.51	8.53	-53.4	-55.6	13.9	0.00e+00	0	28	0	957349888	72	4793
2026-01-04 21:46:58.65	110.65	8.49	-53.5	-55.8	13.8	0.00e+00	0	28	0	959447040	72	4875
2026-01-04 21:46:59.65	110.79	8.44	-53.4	-55.6	13.9	0.00e+00	0	28	0	961544192	72	4778
2026-01-04 21:47:00.66	110.93	8.39	-53.3	-55.5	14.0	0.00e+00	0	28	0	963641344	72	4718
2026-01-04 21:47:01.67	111.07	8.34	-53.1	-55.3	14.1	0.00e+00	0	28	0	964689920	72	4605
2026-01-04 21:47:02.68	111.21	8.30	-53.2	-55.3	14.0	0.00e+00	0	28	0	966787072	72	4622
2026-01-04 21:47:03.69	111.35	8.25	-53.1	-55.2	14.1	0.00e+00	0	28	0	968884224	72	4577
2026-01-04 21:47:04.70	111.49	8.20	-52.9	-55.0	14.2	0.00e+00	0	28	0	970981376	72	4468
2026-01-04 21:47:05.71	111.63	8.15	-53.0	-55.1	14.1	0.00e+00	0	28	0	973078528	72	4532
2026-01-04 21:47:06.72	111.77	8.11	-53.1	-55.2	14.1	0.00e+00	0	28	0	974127104	72	4574
2026-01-04 21:47:07.72	111.90	8.06	-53.1	-55.2	14.1	0.00e+00	0	28	0	976224256	72	4576
2026-01-04 21:47:08.73	112.04	8.01	-53.1	-55.3	14.0	0.00e+00	0	28	0	978321408	72	4608
2026-01-04 21:47:09.74	112.18	7.96	-53.2	-55.4	14.0	0.00e+00	0	28	0	980418560	72	4678
2026-01-04 21:47:10.75	112.31	7.91	-53.3	-55.6	13.9	0.00e+00	0	28	0	982515712	72	4780
2026-01-04 21:47:11.76	112.45	7.87	-53.4	-55.7	13.8	0.00e+00	0	28	0	983564288	72	4815
2026-01-04 21:47:12.77	112.58	7.82	-53.4	-55.7	13.8	0.00e+00	0	28	0	985661440	72	4867
2026-01-04 21:47:13.78	112.72	7.77	-53.5	-55.8	13.8	0.00e+00	0	28	0	987758592	72	4905
2026-01-04 21:47:14.79	112.85	7.72	-53.4	-55.7	13.8	0.00e+00	0	28	0	989855744	72	4842
2026-01-04 21:47:15.80	112.99	7.67	-53.5	-55.8	13.8	0.00e+00	0	28	0	991952896	72	4877
2026-01-04 21:47:16.81	113.12	7.62	-53.4	-55.6	13.8	0.00e+00	0	28	0	993001472	72	4810
2026-01-04 21:47:17.82	113.25	7.58	-53.3	-55.6	13.9	0.00e+00	0	28	0	995098624	72	4765
2026-01-04 21:47:18.83	113.39	7.53	-53.3	-55.5	13.9	0.00e+00	0	28	0	997195776	72	4726
2026-01-04 21:47:19.83	113.52	7.48	-53.4	-55.7	13.8	0.00e+00	0	28	0	999292928	72	4828
2026-01-04 21:47:20.84	113.65	7.43	-53.4	-55.7	13.8	0.00e+00	0	28	0	1001390080	72	4840
2026-01-04 21:47:21.85	113.78	7.38	-53.5	-55.9	13.7	0.00e+00	0	28	0	1002438656	72	4933
2026-01-04 21:47:22.86	113.91	7.33	-53.6	-55.9	13.7	0.00e+00	0	28	0	1004535808	72	4976
2026-01-04 21:47:23.87	114.04	7.29	-53.4	-55.7	13.8	0.00e+00	0	28	0	1006632960	72	4861
2026-01-04 21:47:24.88	114.17	7.24	-53.6	-56.0	13.7	0.00e+00	0	28	0	1008730112	72	4989
2026-01-04 21:47:25.89	114.30	7.19	-53.5	-55.8	13.7	0.00e+00	0	28	0	1010827264	72	4893
2026-01-04 21:47:26.90	114.43	7.14	-53.5	-55.9	13.7	0.00e+00	0	28	0	1011875840	72	4932
2026-01-04 21:47:27.91	114.56	7.09	-53.5	-55.8	13.7	0.00e+00	0	28	0	1013972992	72	4900
2026-01-04 21:47:28.91	114.69	7.04	-53.5	-55.8	13.7	0.00e+00	0	28	0	1016070144	72	4919
2026-01-04 21:47:29.93	114.82	6.99	-53.4	-55.7	13.7	0.00e+00	0	28	0	1018167296	72	4853
2026-01-04 21:47:30.94	114.94	6.94	-53.3	-55.6	13.8	0.00e+00	0	28	0	1020264448	72	4808
2026-01-04 21:47:31.95	115.07	6.90	-53.2	-55.5	13.8	0.00e+00	0	28	0	1021313024	72	4732
2026-01-04 21:47:32.95	115.20	6.85	-53.3	-55.5	13.8	0.00e+00	0	28	0	1023410176	72	4754
2026-01-04 21:47:33.96	115.32	6.80	-53.4	-55.7	13.7	0.00e+00	0	28	0	1025507328	72	4860
2026-01-04 21:47:34.97	115.45	6.75	-53.4	-55.7	13.7	0.00e+00	0	28	0	1027604480	72	4828
2026-01-04 21:47:35.98	115.58	6.70	-53.4	-55.7	13.7	0.00e+00	0	28	0	1029701632	72	4828
2026-01-04 21:47:36.99	115.70	6.65	-53.4	-55.8	13.7	0.00e+00	0	28	0	1030750208	72	4914
2026-01-04 21:47:38.00	115.83	6.60	-53.5	-56.0	13.6	0.00e+00	0	28	0	1032847360	72	5004
2026-01-04 21:47:39.01	115.95	6.55	-53.6	-56.0	13.6	0.00e+00	0	28	0	1034944512	72	5017
2026-01-04 21:47:40.02	116.07	6.50	-53.5	-55.9	13.6	0.00e+00	0	28	0	1037041664	72	4952
2026-01-04 21:47:41.02	116.20	6.46	-53.5	-55.9	13.6	0.00e+00	0	28	0	1039138816	72	4964
2026-01-04 21:47:42.03	116.32	6.41	-53.5	-55.9	13.6	0.00e+00	0	28	0	1040187392	72	4937
2026-01-04 21:47:43.04	116.44	6.36	-53.5	-56.0	13.6	0.00e+00	0	28	0	1042284544	72	4994
2026-01-04 21:47:44.05	116.57	6.31	-53.5	-55.9	13.6	0.00e+00	0	28	0	1044381696	72	4967
2026-01-04 21:47:45.06	116.69	6.26	-53.5	-55.9	13.6	0.00e+00	0	28	0	1046478848	72	4975
2026-01-04 21:47:46.06	116.81	6.21	-53.4	-55.9	13.6	0.00e+00	0	28	0	1048576000	72	4950
2026-01-04 21:47:47.07	116.93	6.16	-53.6	-56.1	13.4	0.00e+00	0	28	0	1049624576	72	5086
2026-01-04 21:47:48.08	117.05	6.11	-53.6	-56.1	13.5	0.00e+00	0	28	0	1051721728	72	5067
2026-01-04 21:47:49.08	117.17	6.06	-53.7	-56.3	13.4	0.00e+00	0	28	0	1053818880	72	5193
2026-01-04 21:47:50.09	117.29	6.02	-53.8	-56.4	13.3	0.00e+00	0	28	0	1055916032	72	5248
2026-01-04 21:47:51.10	117.41	5.97	-53.9	-56.6	13.3	0.00e+00	0	28	0	1058013184	73	5095
2026-01-04 21:47:52.11	117.53	5.92	-54.0	-56.8	13.2	0.00e+00	0	28	0	1060110336	73	5170
2026-01-04 21:47:53.11	117.65	5.87	-54.0	-56.7	13.2	0.00e+00	0	28	0	1061158912	73	5145
2026-01-04 21:47:54.12	117.76	5.82	-54.1	-56.9	13.1	0.00e+00	0	28	0	1063256064	73	5220
2026-01-04 21:47:55.13	117.88	5.77	-54.3	-57.2	12.9	0.00e+00	0	28	0	1065353216	73	5455
2026-01-04 21:47:56.14	118.00	5.72	-54.1	-57.0	13.0	0.00e+00	0	28	0	1067450368	73	5300
2026-01-04 21:47:57.16	118.12	5.67	-54.1	-57.0	13.0	0.00e+00	0	28	0	1069547520	73	5319
2026-01-04 21:47:58.17	118.24	5.62	-53.9	-56.6	13.2	0.00e+00	0	28	0	1070596096	73	5100
2026-01-04 21:47:59.18	118.35	5.57	-54.1	-56.9	13.0	0.00e+00	0	28	0	1072693248	73	5268
2026-01-04 21:48:00.18	118.47	5.52	-54.1	-57.0	13.0	0.00e+00	0	28	0	1074790400	73	5293
2026-01-04 21:48:01.19	118.58	5.47	-54.2	-57.1	12.9	0.00e+00	0	28	0	1076887552	73	5356
2026-01-04 21:48:02.19	118.70	5.43	-54.2	-57.1	12.9	0.00e+00	0	28	0	1078984704	73	5384
2026-01-04 21:48:03.20	118.81	5.38	-54.4	-57.5	12.7	0.00e+00	0	28	0	1080033280	73	5635
2026-01-04 21:48:04.21	118.93	5.33	-54.6	-57.8	12.5	0.00e+00	0	28	0	1082130432	74	5523
2026-01-04 21:48:05.22	119.04	5.28	-54.5	-57.7	12.6	0.00e+00	0	28	0	1084227584	74	5444
2026-01-04 21:48:06.22	119.16	5.23	-54.4	-57.5	12.7	0.00e+00	0	28	0	1086324736	74	5337
2026-01-04 21:48:07.23	119.27	5.18	-54.5	-57.7	12.6	0.00e+00	0	28	0	1088421888	74	5417
2026-01-04 21:48:08.24	119.38	5.13	-54.5	-57.7	12.6	0.00e+00	0	28	0	1089470464	74	5460
2026-01-04 21:48:09.25	119.50	5.08	-54.4	-57.6	12.7	0.00e+00	0	28	0	1091567616	74	5342
2026-01-04 21:48:10.26	119.61	5.03	-54.4	-57.5	12.8	0.00e+00	0	28	0	1093664768	74	5283
2026-01-04 21:48:11.27	119.72	4.98	-58.5	-73.8	3.8	1.09e+00	0	28	104	1094713344	82	21912
2026-01-04 21:48:12.28	119.83	4.93	-58.9	-74.9	3.8	1.49e+00	0	28	104	1094713344	82	24732
2026-01-04 21:48:13.29	119.94	4.88	-59.2	-75.2	3.8	1.49e+00	0	28	104	1094713344	83	24328
2026-01-04 21:48:14.29	120.05	4.84	-59.6	-75.6	3.8	1.49e+00	0	28	104	1094713344	84	23929
2026-01-04 21:48:15.30	120.16	4.79	-59.8	-75.8	3.8	1.49e+00	0	28	104	1094713344	84	24571
2026-01-04 21:48:16.31	120.27	4.74	-60.0	-75.9	3.8	1.49e+00	0	28	104	1094713344	85	23467
2026-01-04 21:48:17.32	120.38	4.69	-60.1	-76.1	3.8	1.49e+00	0	28	104	1094713344	85	23927
2026-01-04 21:48:18.33	120.49	4.64	-60.2	-76.2	3.8	1.49e+00	0	28	104	1094713344	85	24261
2026-01-04 21:48:19.34	120.60	4.59	-60.3	-76.3	3.8	1.49e+00	0	28	104	1094713344	85	24583
2026-01-04 21:48:20.35	120.71	4.54	-60.4	-76.5	3.8	1.49e+00	0	29	104	1094713344	85	24988
2026-01-04 21:48:21.36	120.82	4.49	-60.5	-76.5	3.8	1.49e+00	0	28	104	1094713344	86	23757
2026-01-04 21:48:22.36	120.93	4.44	-60.5	-76.6	3.8	1.49e+00	0	29	104	1094713344	86	23973
2026-01-04 21:48:23.37	121.04	4.39	-60.6	-76.7	3.8	1.49e+00	0	28	104	1094713344	86	24179
2026-01-04 21:48:24.38	121.14	4.34	-60.7	-76.7	3.8	1.49e+00	0	28	104	1094713344	86	24305
2026-01-04 21:48:25.39	121.25	4.30	-60.7	-76.8	3.8	1.49e+00	0	28	104	1094713344	86	24450
2026-01-04 21:48:26.40	121.36	4.25	-60.8	-76.8	3.8	1.49e+00	0	29	104	1094713344	86	24647
2026-01-04 21:48:27.40	121.46	4.20	-60.8	-76.9	3.8	1.49e+00	0	28	104	1094713344	86	24731
2026-01-04 21:48:28.42	121.57	4.15	-60.8	-76.9	3.8	1.49e+00	0	28	104	1094713344	86	24836
2026-01-04 21:48:29.42	121.68	4.10	-60.9	-76.9	3.8	1.49e+00	0	28	104	1094713344	86	24909
2026-01-04 21:48:30.43	121.78	4.05	-60.9	-77.0	3.8	1.49e+00	0	28	104	1094713344	86	25014
2026-01-04 21:48:31.44	121.89	4.00	-60.9	-77.0	3.8	1.49e+00	0	28	104	1094713344	86	25091
2026-01-04 21:48:32.45	121.99	3.95	-61.0	-77.0	3.8	1.49e+00	0	28	104	1094713344	87	23825
2026-01-04 21:48:33.46	122.10	3.90	-61.0	-77.0	3.8	1.49e+00	0	28	104	1094713344	87	23822
2026-01-04 21:48:34.47	122.20	3.85	-61.0	-77.0	3.8	1.49e+00	0	29	104	1094713344	87	23851
2026-01-04 21:48:35.48	122.31	3.80	-61.0	-77.1	3.8	1.49e+00	0	28	104	1094713344	87	23914
2026-01-04 21:48:36.49	122.41	3.76	-61.0	-77.1	3.8	1.49e+00	0	28	104	1094713344	87	23940
2026-01-04 21:48:37.50	122.51	3.71	-61.0	-77.1	3.8	1.49e+00	0	29	104	1094713344	87	24025
2026-01-04 21:48:38.51	122.61	3.66	-61.0	-77.1	3.8	1.49e+00	0	28	104	1094713344	87	24051
2026-01-04 21:48:39.52	122.72	3.61	-61.0	-77.1	3.8	1.49e+00	0	28	104	1094713344	87	23936
2026-01-04 21:48:40.53	122.82	3.56	-61.0	-77.1	3.8	1.49e+00	0	28	104	1094713344	87	23890
2026-01-04 21:48:41.53	122.92	3.51	-61.0	-77.1	3.8	1.49e+00	0	28	104	1094713344	87	23869
2026-01-04 21:48:42.54	123.02	3.46	-61.0	-77.0	3.8	1.49e+00	0	28	104	1094713344	87	23853
2026-01-04 21:48:43.55	123.12	3.41	-61.0	-77.0	3.8	1.49e+00	0	28	104	1094713344	87	23824
2026-01-04 21:48:44.56	123.22	3.36	-60.9	-77.0	3.8	1.49e+00	0	28	104	1094713344	87	23724
2026-01-04 21:48:45.57	123.33	3.32	-60.9	-77.0	3.8	1.49e+00	0	28	104	1094713344	87	23783
2026-01-04 21:48:46.58	123.43	3.27	-60.9	-77.0	3.8	1.49e+00	0	28	104	1094713344	87	23756
2026-01-04 21:48:47.59	123.53	3.22	-60.9	-77.0	3.8	1.49e+00	0	28	104	1094713344	87	23708
2026-01-04 21:48:48.60	123.63	3.17	-60.9	-77.0	3.8	1.49e+00	0	28	104	1094713344	87	23659
2026-01-04 21:48:49.60	123.72	3.12	-60.9	-77.0	3.8	1.49e+00	0	28	104	1094713344	87	23649
2026-01-04 21:48:50.61	123.82	3.07	-60.9	-77.0	3.8	1.49e+00	0	28	104	1094713344	87	23616
2026-01-04 21:48:51.62	123.92	3.02	-60.9	-77.0	3.8	1.49e+00	0	28	104	1094713344	87	23635
2026-01-04 21:48:52.63	124.02	2.97	-60.9	-76.9	3.8	1.49e+00	0	28	104	1094713344	87	23543
2026-01-04 21:48:53.64	124.12	2.93	-60.9	-76.9	3.8	1.49e+00	0	29	104	1094713344	87	23562
2026-01-04 21:48:54.65	124.22	2.88	-60.9	-76.9	3.8	1.49e+00	0	29	104	1094713344	87	23559
2026-01-04 21:48:55.66	124.31	2.83	-60.9	-77.0	3.8	1.49e+00	0	28	104	1094713344	87	23594
2026-01-04 21:48:56.67	124.41	2.78	-60.8	-76.9	3.8	1.49e+00	0	29	104	1094713344	87	23530
2026-01-04 21:48:57.68	124.51	2.73	-60.8	-76.9	3.8	1.49e+00	0	29	104	1094713344	87	23502
2026-01-04 21:48:58.69	124.60	2.68	-60.8	-76.9	3.8	1.49e+00	0	29	104	1094713344	87	23472
2026-01-04 21:48:59.70	124.70	2.63	-60.8	-76.9	3.8	1.49e+00	0	29	104	1094713344	87	23495
2026-01-04 21:49:00.71	124.80	2.58	-60.8	-76.9	3.8	1.49e+00	0	28	104	1094713344	87	23507
2026-01-04 21:49:01.71	124.89	2.54	-60.8	-76.9	3.8	1.49e+00	0	28	104	1094713344	87	23421
2026-01-04 21:49:02.72	124.99	2.49	-60.8	-76.9	3.8	1.49e+00	0	28	104	1094713344	87	23421
2026-01-04 21:49:03.73	125.08	2.44	-60.8	-76.9	3.8	1.49e+00	0	29	104	1094713344	87	23408
2026-01-04 21:49:04.74	125.18	2.39	-60.8	-76.9	3.8	1.49e+00	0	29	104	1094713344	87	23470
2026-01-04 21:49:05.75	125.27	2.34	-60.8	-76.9	3.8	1.49e+00	0	29	104	1094713344	87	23397
2026-01-04 21:49:06.76	125.37	2.29	-60.8	-76.9	3.8	1.49e+00	0	29	104	1094713344	87	23347
2026-01-04 21:49:07.77	125.46	2.25	-60.8	-76.9	3.8	1.49e+00	0	29	104	1094713344	87	23415
2026-01-04 21:49:08.78	125.55	2.20	-60.8	-76.9	3.8	1.49e+00	0	29	104	1094713344	87	23324
2026-01-04 21:49:09.79	125.65	2.15	-60.8	-76.9	3.8	1.49e+00	0	29	104	1094713344	87	23323
2026-01-04 21:49:10.80	125.74	2.10	-60.8	-76.9	3.8	1.49e+00	0	29	104	1094713344	87	23319
2026-01-04 21:49:11.81	125.83	2.05	-60.8	-76.8	3.8	1.49e+00	0	29	104	1094713344	87	23303
2026-01-04 21:49:12.82	125.92	2.00	-60.8	-76.9	3.8	1.49e+00	0	28	104	1094713344	87	23354
2026-01-04 21:49:13.83	126.02	1.96	-60.8	-76.9	3.8	1.49e+00	0	28	104	1094713344	87	23319

#Closed at: 2026-01-04 21:49:14
#Recorded file [1094 MB]: D:/lorett/data/31004_260105_003741.dat