passes_logs/2026/01/04/R3.2S_Murmansk/R3.2S_Murmansk__20260104_001338_AQUA_rec.log

#Pass ID: 20260104_001338_AQUA
#Satellite: AQUA
#Configuration: AQUA
#almurnet v.1.7.20251203
#Start time: 2026-01-04 00:13:40

#Version: 2.2.20231116
#Station: R3.2S_Murmansk
#Location: 33.079688 lon 68.888172 lat
#TLE: 1 27424U 02022A   25365.92641127  .00002078  00000+0  42628-3 0  9999
#TLE: 2 27424  98.4058 327.1196 0001962  94.7781 340.6230 14.61783896258835

#Time	Az	El	Level	Level2	SNR	BER	BlckErr	Temp	State	Recorded	gain1	gain2
2026-01-04 00:13:40.46	21.10	2.09	-58.4	-77.6	3.8	7.45e-01	0	28	0	0	86	31305
2026-01-04 00:13:41.46	21.18	2.15	-58.4	-77.5	3.8	7.48e-01	0	28	104	0	84	34792
2026-01-04 00:13:42.46	21.25	2.21	-58.4	-77.5	3.9	7.46e-01	0	28	104	0	84	34581
2026-01-04 00:13:43.46	21.33	2.27	-58.4	-77.2	3.8	7.45e-01	0	28	104	0	84	33390
2026-01-04 00:13:44.46	21.41	2.32	-58.4	-77.0	3.8	7.46e-01	0	28	104	0	84	32647
2026-01-04 00:13:45.46	21.48	2.38	-58.4	-77.2	3.8	7.46e-01	0	29	104	0	84	33539
2026-01-04 00:13:46.46	21.56	2.44	-58.4	-77.4	3.8	7.46e-01	0	28	104	0	84	34145
2026-01-04 00:13:47.46	21.64	2.50	-58.4	-77.5	3.9	7.46e-01	0	28	104	0	84	34783
2026-01-04 00:13:48.47	21.72	2.56	-58.4	-77.6	3.8	7.48e-01	0	28	104	0	84	35126
2026-01-04 00:13:49.46	21.79	2.61	-58.4	-77.7	3.8	7.43e-01	0	28	104	0	84	35522
2026-01-04 00:13:50.46	21.87	2.67	-58.4	-77.7	3.8	7.45e-01	0	28	104	0	84	35620
2026-01-04 00:13:51.45	21.95	2.73	-58.4	-77.6	3.8	7.47e-01	0	29	104	0	84	35198
2026-01-04 00:13:52.45	22.03	2.79	-58.4	-77.4	3.9	7.43e-01	0	28	104	0	84	34456
2026-01-04 00:13:53.45	22.11	2.85	-58.4	-77.3	3.8	7.45e-01	0	28	104	0	84	33755
2026-01-04 00:13:54.45	22.19	2.91	-58.4	-77.0	3.8	7.45e-01	0	28	104	0	84	32872
2026-01-04 00:13:55.44	22.27	2.97	-58.4	-76.6	3.8	7.45e-01	0	28	104	0	84	31127
2026-01-04 00:13:56.44	22.35	3.03	-58.4	-76.3	3.8	7.48e-01	0	29	104	0	84	30057
2026-01-04 00:13:57.45	22.43	3.08	-58.3	-75.4	3.9	7.44e-01	0	28	104	0	84	27342
2026-01-04 00:13:58.45	22.51	3.14	-58.3	-74.3	3.9	7.42e-01	0	28	104	0	84	24038
2026-01-04 00:13:59.45	22.59	3.20	-58.3	-72.8	4.6	7.17e-01	0	28	104	0	84	20222
2026-01-04 00:14:00.45	22.68	3.26	-58.3	-73.6	3.9	7.41e-01	0	29	104	0	84	22098
2026-01-04 00:14:01.45	22.76	3.32	-58.2	-72.2	4.9	7.13e-01	0	29	0	0	84	18797
2026-01-04 00:14:02.45	22.84	3.38	-58.2	-72.3	4.8	7.15e-01	0	28	0	0	84	19139
2026-01-04 00:14:03.45	22.92	3.44	-58.2	-72.1	5.0	7.11e-01	0	29	0	0	84	18532
2026-01-04 00:14:04.45	23.01	3.50	-58.2	-72.0	5.0	7.10e-01	0	29	0	0	84	18391
2026-01-04 00:14:05.45	23.09	3.56	-58.2	-71.7	5.2	7.05e-01	0	29	0	0	84	17741
2026-01-04 00:14:06.45	23.17	3.62	-58.1	-70.3	6.0	6.83e-01	90	29	0	1048576	84	15187
2026-01-04 00:14:07.45	23.26	3.68	-58.1	-69.5	6.5	6.69e-01	92	28	0	2621440	84	13881
2026-01-04 00:14:08.45	23.34	3.74	-57.8	-67.6	8.1	6.37e-01	0	29	0	4718592	84	11062
2026-01-04 00:14:09.45	23.43	3.80	-57.7	-66.2	9.3	6.19e-01	0	29	0	6291456	84	9488
2026-01-04 00:14:10.45	23.51	3.86	-57.5	-65.3	10.1	6.14e-01	0	29	0	8388608	84	8486
2026-01-04 00:14:11.45	23.60	3.92	-57.6	-65.9	9.6	6.21e-01	0	29	0	9961472	84	9140
2026-01-04 00:14:12.45	23.68	3.99	-57.6	-65.7	9.8	6.17e-01	0	29	0	12058624	84	8911
2026-01-04 00:14:13.45	23.77	4.05	-57.4	-64.8	10.5	6.08e-01	0	29	0	14155776	84	8008
2026-01-04 00:14:14.45	23.86	4.11	-57.0	-63.6	11.3	6.05e-01	0	28	0	15728640	83	7431
2026-01-04 00:14:15.45	23.94	4.17	-56.4	-61.8	12.5	6.05e-01	0	29	0	17825792	82	6351
2026-01-04 00:14:16.44	24.03	4.23	-55.6	-60.0	13.4	6.03e-01	0	29	0	19398656	80	5813
2026-01-04 00:14:17.45	24.12	4.29	-54.6	-57.9	14.3	6.00e-01	0	29	0	21495808	78	5135
2026-01-04 00:14:18.44	24.21	4.35	-53.7	-56.6	14.7	6.04e-01	0	29	0	23068672	76	4930
2026-01-04 00:14:19.44	24.30	4.41	-53.2	-55.8	14.9	6.01e-01	0	29	0	25165824	75	4795
2026-01-04 00:14:20.44	24.38	4.47	-52.5	-55.0	15.1	6.02e-01	0	28	0	27262976	74	4608
2026-01-04 00:14:21.44	24.47	4.54	-52.2	-54.5	15.2	6.00e-01	0	29	0	28835840	73	4638
2026-01-04 00:14:22.44	24.56	4.60	-52.5	-54.9	15.1	6.00e-01	0	29	0	30932992	73	4864
2026-01-04 00:14:23.44	24.65	4.66	-52.8	-55.3	15.0	6.00e-01	0	29	0	32505856	73	5064
2026-01-04 00:14:24.44	24.74	4.72	-53.3	-56.0	14.8	6.02e-01	0	29	0	34603008	74	5199
2026-01-04 00:14:25.43	24.84	4.78	-54.1	-57.3	14.4	6.02e-01	0	29	0	36175872	75	5698
2026-01-04 00:14:26.43	24.93	4.85	-55.0	-58.8	13.9	6.02e-01	0	29	0	38273024	77	6008
2026-01-04 00:14:27.42	25.02	4.91	-55.7	-60.3	13.3	6.02e-01	0	28	0	40370176	79	6353
2026-01-04 00:14:28.42	25.11	4.97	-56.2	-61.4	12.7	6.06e-01	0	29	0	41943040	80	6833
2026-01-04 00:14:29.42	25.20	5.03	-56.6	-62.4	12.0	6.06e-01	0	29	0	44040192	80	7647
2026-01-04 00:14:30.42	25.30	5.10	-56.6	-62.6	11.9	6.04e-01	0	29	0	45613056	81	7423
2026-01-04 00:14:31.41	25.39	5.16	-56.6	-62.4	12.0	6.04e-01	0	29	0	47710208	82	6879
2026-01-04 00:14:32.41	25.48	5.22	-56.3	-62.4	11.5	6.06e-01	0	29	0	49283072	82	6839
2026-01-04 00:14:33.40	25.58	5.28	-55.8	-60.2	13.5	6.01e-01	0	29	0	51380224	79	6346
2026-01-04 00:14:34.40	25.67	5.35	-57.1	-64.3	10.5	6.07e-01	0	29	0	52953088	83	8013
2026-01-04 00:14:35.40	25.76	5.41	-53.7	-56.5	14.8	6.03e-01	0	29	0	55050240	76	4915
2026-01-04 00:14:36.39	25.86	5.47	-52.7	-55.1	15.1	6.02e-01	0	29	0	57147392	74	4671
2026-01-04 00:14:37.39	25.96	5.53	-52.3	-54.4	15.3	6.03e-01	0	29	0	58720256	73	4582
2026-01-04 00:14:38.40	26.05	5.60	-52.2	-54.5	15.2	5.97e-01	0	29	0	60817408	73	4626
2026-01-04 00:14:39.41	26.15	5.66	-52.2	-54.5	15.2	6.02e-01	0	29	0	62914560	73	4608
2026-01-04 00:14:40.40	26.25	5.73	-52.2	-54.4	15.3	6.01e-01	0	29	0	64487424	73	4556
2026-01-04 00:14:41.40	26.34	5.79	-52.1	-54.3	15.3	5.99e-01	0	29	0	66584576	73	4504
2026-01-04 00:14:42.40	26.44	5.85	-52.0	-54.2	15.3	6.02e-01	0	29	0	68157440	73	4458
2026-01-04 00:14:43.39	26.54	5.92	-52.1	-54.3	15.3	6.01e-01	0	29	0	70254592	73	4497
2026-01-04 00:14:44.40	26.64	5.98	-52.1	-54.2	15.3	6.01e-01	0	29	0	71827456	73	4486
2026-01-04 00:14:45.40	26.74	6.05	-52.1	-54.3	15.3	5.99e-01	0	29	0	73924608	73	4536
2026-01-04 00:14:46.39	26.84	6.11	-52.1	-54.3	15.3	6.01e-01	0	29	0	75497472	73	4507
2026-01-04 00:14:47.39	26.94	6.18	-52.3	-54.5	15.3	5.99e-01	0	29	0	77594624	73	4622
2026-01-04 00:14:48.40	27.04	6.24	-52.3	-54.5	15.2	6.04e-01	0	29	0	79691776	73	4613
2026-01-04 00:14:49.40	27.14	6.31	-52.0	-54.2	15.3	6.01e-01	0	29	0	81264640	73	4461
2026-01-04 00:14:50.40	27.25	6.37	-52.0	-54.1	15.4	6.02e-01	0	29	0	83361792	73	4409
2026-01-04 00:14:51.40	27.35	6.44	-52.0	-54.1	15.4	6.01e-01	0	29	0	84934656	73	4440
2026-01-04 00:14:52.40	27.45	6.50	-51.8	-53.9	15.3	6.00e-01	0	29	0	87031808	72	4572
2026-01-04 00:14:53.39	27.55	6.56	-51.8	-53.9	15.3	6.00e-01	0	29	0	88604672	72	4553
2026-01-04 00:14:54.39	27.66	6.63	-51.9	-54.0	15.3	6.00e-01	0	29	0	90701824	72	4647
2026-01-04 00:14:55.39	27.76	6.70	-51.9	-54.0	15.3	6.03e-01	0	29	0	92798976	72	4620
2026-01-04 00:14:56.39	27.87	6.76	-51.8	-53.9	15.3	6.00e-01	0	29	0	94371840	72	4588
2026-01-04 00:14:57.39	27.97	6.83	-51.8	-53.9	15.4	6.00e-01	0	29	0	96468992	72	4577
2026-01-04 00:14:58.39	28.08	6.89	-51.8	-53.9	15.4	6.02e-01	0	29	0	98041856	72	4554
2026-01-04 00:14:59.39	28.18	6.96	-51.7	-53.8	15.4	6.01e-01	0	29	0	100139008	72	4513
2026-01-04 00:15:00.39	28.29	7.02	-51.7	-53.8	15.4	5.99e-01	0	29	0	101711872	72	4508
2026-01-04 00:15:01.38	28.40	7.09	-51.8	-53.9	15.4	5.99e-01	0	29	0	103809024	72	4561
2026-01-04 00:15:02.38	28.50	7.16	-51.7	-53.8	15.4	5.99e-01	0	29	0	105906176	72	4501
2026-01-04 00:15:03.38	28.61	7.22	-51.8	-53.9	15.4	6.01e-01	0	29	0	107479040	72	4579
2026-01-04 00:15:04.38	28.72	7.29	-51.7	-53.7	15.4	6.01e-01	0	29	0	109576192	72	4451
2026-01-04 00:15:05.38	28.83	7.36	-51.8	-53.8	15.4	6.00e-01	0	29	0	111149056	72	4541
2026-01-04 00:15:06.38	28.94	7.42	-51.8	-53.8	15.4	5.98e-01	0	29	0	113246208	72	4515
2026-01-04 00:15:07.37	29.05	7.49	-51.7	-53.8	15.4	6.02e-01	0	29	0	114819072	72	4501
2026-01-04 00:15:08.37	29.16	7.56	-51.7	-53.7	15.4	6.00e-01	0	29	0	116916224	72	4444
2026-01-04 00:15:09.36	29.27	7.62	-51.7	-53.8	15.4	6.01e-01	0	29	0	119013376	72	4499
2026-01-04 00:15:10.36	29.38	7.69	-51.6	-53.6	15.5	6.00e-01	0	29	0	120586240	72	4429
2026-01-04 00:15:11.36	29.49	7.76	-51.6	-53.6	15.4	6.00e-01	0	29	0	122683392	72	4435
2026-01-04 00:15:12.36	29.61	7.82	-51.8	-53.8	15.4	5.99e-01	0	29	0	124256256	72	4542
2026-01-04 00:15:13.35	29.72	7.89	-51.7	-53.7	15.4	6.01e-01	0	29	0	126353408	72	4477
2026-01-04 00:15:14.35	29.83	7.96	-51.8	-53.8	15.4	6.02e-01	0	29	0	127926272	72	4520
2026-01-04 00:15:15.35	29.95	8.03	-51.6	-53.6	15.4	6.02e-01	0	29	0	130023424	72	4424
2026-01-04 00:15:16.35	30.06	8.09	-51.6	-53.6	15.5	6.00e-01	0	29	0	131596288	72	4426
2026-01-04 00:15:17.34	30.18	8.16	-51.7	-53.7	15.4	6.01e-01	0	29	0	133693440	72	4452
2026-01-04 00:15:18.34	30.29	8.23	-51.4	-53.3	15.5	5.99e-01	0	29	0	135790592	72	4274
2026-01-04 00:15:19.34	30.41	8.30	-51.4	-53.3	15.4	6.01e-01	0	29	0	137363456	71	4535
2026-01-04 00:15:20.33	30.53	8.36	-51.4	-53.4	15.4	6.01e-01	0	29	0	139460608	71	4561
2026-01-04 00:15:21.34	30.65	8.43	-51.5	-53.4	15.4	6.02e-01	0	29	0	141033472	71	4582
2026-01-04 00:15:22.33	30.76	8.50	-51.6	-53.5	15.4	6.00e-01	0	29	0	143130624	71	4644
2026-01-04 00:15:23.33	30.88	8.57	-51.5	-53.4	15.4	6.02e-01	0	29	0	145227776	71	4596
2026-01-04 00:15:24.33	31.00	8.64	-51.5	-53.4	15.4	6.04e-01	0	29	0	146800640	71	4589
2026-01-04 00:15:25.33	31.12	8.71	-51.5	-53.4	15.4	5.99e-01	0	29	0	148897792	71	4578
2026-01-04 00:15:26.33	31.24	8.78	-51.4	-53.4	15.4	6.01e-01	0	29	0	150470656	71	4552
2026-01-04 00:15:27.33	31.36	8.85	-51.2	-53.1	15.5	6.01e-01	0	29	0	152567808	71	4423
2026-01-04 00:15:28.33	31.49	8.91	-51.2	-53.0	15.5	6.02e-01	0	29	0	154140672	71	4387
2026-01-04 00:15:29.32	31.61	8.98	-51.2	-53.0	15.5	5.99e-01	0	29	0	156237824	71	4388
2026-01-04 00:15:30.32	31.73	9.05	-51.2	-53.2	15.5	6.02e-01	0	29	0	158334976	71	4445
2026-01-04 00:15:31.31	31.85	9.12	-51.3	-53.2	15.5	6.01e-01	0	29	0	159907840	71	4470
2026-01-04 00:15:32.31	31.98	9.19	-51.3	-53.3	15.4	5.99e-01	0	29	0	162004992	71	4514
2026-01-04 00:15:33.30	32.10	9.26	-51.3	-53.3	15.4	6.04e-01	0	29	0	163577856	71	4497
2026-01-04 00:15:34.30	32.23	9.33	-51.2	-53.2	15.5	6.01e-01	0	29	0	165675008	71	4443
2026-01-04 00:15:35.30	32.35	9.40	-51.2	-53.1	15.5	6.03e-01	0	29	0	167247872	71	4427
2026-01-04 00:15:36.30	32.48	9.47	-51.3	-53.2	15.5	6.01e-01	0	29	0	169345024	71	4443
2026-01-04 00:15:37.30	32.61	9.54	-51.3	-53.2	15.5	5.99e-01	0	29	0	170917888	71	4483
2026-01-04 00:15:38.30	32.74	9.61	-51.5	-53.4	15.4	6.04e-01	0	29	0	173015040	71	4581
2026-01-04 00:15:39.30	32.87	9.68	-51.2	-53.1	15.5	6.02e-01	0	29	0	175112192	71	4433
2026-01-04 00:15:40.30	33.00	9.75	-51.2	-53.1	15.5	6.00e-01	0	29	0	176685056	71	4415
2026-01-04 00:15:41.31	33.13	9.82	-51.2	-53.1	15.5	6.02e-01	0	29	0	178782208	71	4412
2026-01-04 00:15:42.31	33.26	9.89	-51.1	-53.0	15.5	6.02e-01	0	29	0	180355072	71	4370
2026-01-04 00:15:43.31	33.39	9.96	-51.1	-52.9	15.5	6.03e-01	0	29	0	182452224	71	4331
2026-01-04 00:15:44.31	33.52	10.03	-51.1	-53.0	15.5	6.02e-01	0	29	0	184549376	71	4349
2026-01-04 00:15:45.32	33.66	10.11	-51.0	-52.8	15.6	5.99e-01	0	29	0	186122240	71	4291
2026-01-04 00:15:46.32	33.79	10.18	-51.0	-52.8	15.6	6.01e-01	0	29	0	188219392	71	4267
2026-01-04 00:15:47.32	33.92	10.25	-51.0	-52.9	15.6	6.01e-01	0	29	0	189792256	71	4311
2026-01-04 00:15:48.32	34.06	10.32	-51.0	-52.8	15.6	6.00e-01	0	29	0	191889408	71	4273
2026-01-04 00:15:49.32	34.19	10.39	-51.0	-52.9	15.5	6.00e-01	0	29	0	193986560	71	4300
2026-01-04 00:15:50.32	34.33	10.46	-50.9	-52.8	15.6	5.99e-01	0	29	0	195559424	71	4249
2026-01-04 00:15:51.33	34.47	10.53	-50.9	-52.7	15.5	6.02e-01	0	29	0	197656576	70	4486
2026-01-04 00:15:52.33	34.61	10.61	-51.0	-52.8	15.5	6.00e-01	0	29	0	199229440	70	4544
2026-01-04 00:15:53.33	34.75	10.68	-51.0	-52.9	15.5	6.01e-01	0	29	0	201326592	70	4558
2026-01-04 00:15:54.34	34.89	10.75	-51.0	-52.8	15.5	5.99e-01	0	29	0	202899456	70	4543
2026-01-04 00:15:55.34	35.03	10.82	-50.9	-52.7	15.5	5.98e-01	0	29	0	204996608	70	4492
2026-01-04 00:15:56.33	35.17	10.89	-51.0	-52.8	15.5	5.99e-01	0	29	0	207093760	70	4534
2026-01-04 00:15:57.33	35.31	10.97	-51.0	-52.8	15.5	5.98e-01	0	29	0	208666624	70	4544
2026-01-04 00:15:58.33	35.45	11.04	-50.8	-52.6	15.5	6.00e-01	0	29	0	210763776	70	4419
2026-01-04 00:15:59.33	35.59	11.11	-50.8	-52.6	15.6	6.00e-01	0	29	0	212336640	70	4427
2026-01-04 00:16:00.31	35.73	11.18	-50.9	-52.7	15.5	6.02e-01	0	29	0	214433792	70	4447
2026-01-04 00:16:01.27	35.87	11.25	-50.8	-52.6	15.6	5.98e-01	0	29	0	216006656	70	4411
2026-01-04 00:16:02.27	36.02	11.32	-50.9	-52.8	15.5	6.03e-01	0	29	0	218103808	70	4497
2026-01-04 00:16:03.27	36.16	11.40	-50.9	-52.7	15.5	5.98e-01	0	29	0	219676672	70	4445
2026-01-04 00:16:04.27	36.31	11.47	-50.7	-52.5	15.6	6.03e-01	0	29	0	221773824	70	4353
2026-01-04 00:16:05.27	36.45	11.54	-50.6	-52.4	15.6	6.02e-01	0	29	0	223870976	70	4319
2026-01-04 00:16:06.27	36.60	11.61	-50.6	-52.4	15.6	6.02e-01	0	29	0	225443840	70	4302
2026-01-04 00:16:07.27	36.75	11.69	-50.7	-52.4	15.6	6.01e-01	0	29	0	227540992	70	4340
2026-01-04 00:16:08.27	36.90	11.76	-50.6	-52.4	15.6	6.03e-01	0	29	0	229113856	70	4308
2026-01-04 00:16:09.27	37.05	11.83	-50.6	-52.4	15.6	5.99e-01	0	29	0	231211008	70	4299
2026-01-04 00:16:10.27	37.20	11.91	-50.7	-52.5	15.6	6.02e-01	0	29	0	232783872	70	4343
2026-01-04 00:16:11.27	37.35	11.98	-50.7	-52.4	15.6	6.01e-01	0	29	0	234881024	70	4323
2026-01-04 00:16:12.27	37.51	12.05	-50.7	-52.4	15.6	6.01e-01	0	29	0	236978176	70	4331
2026-01-04 00:16:13.26	37.66	12.13	-50.7	-52.4	15.6	6.03e-01	0	29	0	238551040	70	4336
2026-01-04 00:16:14.26	37.81	12.20	-50.7	-52.4	15.6	6.01e-01	0	29	0	240648192	70	4324
2026-01-04 00:16:15.26	37.97	12.27	-50.5	-52.3	15.6	6.01e-01	0	29	0	242221056	70	4244
2026-01-04 00:16:16.26	38.12	12.35	-50.5	-52.2	15.6	6.01e-01	0	29	0	244318208	70	4239
2026-01-04 00:16:17.26	38.28	12.42	-50.4	-52.2	15.6	6.01e-01	0	29	0	245891072	70	4203
2026-01-04 00:16:18.26	38.44	12.49	-50.4	-52.1	15.6	6.01e-01	0	29	0	247988224	70	4184
2026-01-04 00:16:19.26	38.60	12.57	-50.4	-52.1	15.6	6.00e-01	0	29	0	250085376	70	4189
2026-01-04 00:16:20.26	38.75	12.64	-50.3	-52.0	15.6	6.00e-01	0	29	0	251658240	69	4359
2026-01-04 00:16:21.26	38.91	12.72	-50.3	-52.1	15.6	6.03e-01	0	29	0	253755392	69	4397
2026-01-04 00:16:22.25	39.07	12.79	-50.3	-52.0	15.6	5.99e-01	0	29	0	255328256	69	4358
2026-01-04 00:16:23.24	39.23	12.86	-50.3	-52.1	15.6	6.01e-01	0	29	0	257425408	69	4395
2026-01-04 00:16:24.23	39.39	12.94	-50.3	-52.0	15.6	6.01e-01	0	29	0	258998272	69	4381
2026-01-04 00:16:25.23	39.56	13.01	-50.4	-52.1	15.6	5.99e-01	0	29	0	261095424	69	4429
2026-01-04 00:16:26.23	39.72	13.08	-50.4	-52.1	15.6	6.02e-01	0	29	0	262668288	69	4404
2026-01-04 00:16:27.22	39.88	13.16	-50.4	-52.1	15.6	6.04e-01	0	29	0	264765440	69	4435
2026-01-04 00:16:28.22	40.05	13.23	-50.4	-52.1	15.6	6.01e-01	0	29	0	266862592	69	4401
2026-01-04 00:16:29.21	40.22	13.31	-50.5	-52.2	15.6	6.00e-01	0	29	0	268435456	69	4485
2026-01-04 00:16:30.22	40.39	13.38	-50.4	-52.1	15.6	6.00e-01	0	29	0	270532608	69	4425
2026-01-04 00:16:31.22	40.55	13.46	-50.4	-52.1	15.6	6.01e-01	0	29	0	272105472	69	4420
2026-01-04 00:16:32.22	40.72	13.53	-50.3	-52.0	15.6	6.01e-01	0	29	0	274202624	69	4365
2026-01-04 00:16:33.22	40.89	13.60	-50.2	-51.9	15.6	5.99e-01	0	29	0	276299776	69	4322
2026-01-04 00:16:34.22	41.06	13.68	-50.3	-52.0	15.6	6.03e-01	0	29	0	277872640	69	4347
2026-01-04 00:16:35.22	41.24	13.75	-50.1	-51.8	15.6	6.00e-01	0	29	0	279969792	69	4273
2026-01-04 00:16:36.22	41.41	13.83	-50.2	-51.9	15.6	5.99e-01	0	29	0	281542656	69	4315
2026-01-04 00:16:37.22	41.58	13.90	-50.2	-51.9	15.6	6.04e-01	0	29	0	283639808	69	4325
2026-01-04 00:16:38.21	41.76	13.98	-50.3	-51.9	15.6	6.00e-01	0	29	0	285212672	69	4337
2026-01-04 00:16:39.21	41.93	14.05	-50.2	-51.9	15.6	6.02e-01	0	29	0	287309824	69	4303
2026-01-04 00:16:40.21	42.11	14.13	-50.2	-51.9	15.6	6.01e-01	0	29	0	289406976	69	4332
2026-01-04 00:16:41.21	42.29	14.20	-50.3	-51.9	15.6	6.02e-01	0	29	0	290979840	69	4340
2026-01-04 00:16:42.21	42.46	14.28	-50.2	-51.9	15.6	6.01e-01	0	29	0	293076992	69	4325
2026-01-04 00:16:43.21	42.64	14.35	-50.2	-51.9	15.6	6.00e-01	0	29	0	294649856	69	4328
2026-01-04 00:16:44.20	42.82	14.43	-50.2	-51.9	15.6	6.01e-01	0	29	0	296747008	69	4304
2026-01-04 00:16:45.20	43.00	14.50	-50.2	-51.9	15.6	6.01e-01	0	29	0	298319872	69	4333
2026-01-04 00:16:46.21	43.19	14.58	-50.2	-51.8	15.6	6.01e-01	0	29	0	300417024	69	4285
2026-01-04 00:16:47.21	43.37	14.65	-50.2	-51.9	15.6	6.02e-01	0	29	0	302514176	69	4323
2026-01-04 00:16:48.21	43.56	14.73	-50.1	-51.8	15.7	6.01e-01	0	29	0	304087040	69	4274
2026-01-04 00:16:49.20	43.74	14.80	-50.2	-51.8	15.7	6.02e-01	0	29	0	306184192	69	4277
2026-01-04 00:16:50.21	43.93	14.88	-50.1	-51.8	15.7	6.01e-01	0	29	0	307757056	69	4269
2026-01-04 00:16:51.20	44.11	14.95	-50.1	-51.8	15.7	6.01e-01	0	29	0	309854208	69	4272
2026-01-04 00:16:52.20	44.30	15.02	-50.1	-51.7	15.7	6.02e-01	0	29	0	311427072	69	4234
2026-01-04 00:16:53.19	44.49	15.10	-50.1	-51.7	15.7	6.01e-01	0	29	0	313524224	69	4232
2026-01-04 00:16:54.20	44.68	15.17	-50.1	-51.7	15.6	6.01e-01	0	29	0	315097088	69	4239
2026-01-04 00:16:55.20	44.87	15.25	-50.1	-51.7	15.7	6.00e-01	0	29	0	317194240	69	4240
2026-01-04 00:16:56.20	45.06	15.32	-50.1	-51.8	15.6	6.02e-01	0	29	0	319291392	69	4265
2026-01-04 00:16:57.20	45.25	15.40	-50.1	-51.8	15.7	5.99e-01	0	29	0	320864256	69	4259
2026-01-04 00:16:58.20	45.45	15.47	-50.0	-51.6	15.7	6.00e-01	0	29	0	322961408	69	4183
2026-01-04 00:16:59.20	45.64	15.55	-50.0	-51.6	15.7	6.03e-01	0	29	0	324534272	69	4184
2026-01-04 00:17:00.19	45.84	15.62	-50.0	-51.7	15.7	6.03e-01	0	29	0	326631424	69	4198
2026-01-04 00:17:01.19	46.03	15.70	-49.9	-51.6	15.7	6.02e-01	0	29	0	328204288	69	4149
2026-01-04 00:17:02.19	46.23	15.77	-50.0	-51.6	15.7	5.99e-01	0	29	0	330301440	69	4186
2026-01-04 00:17:03.18	46.43	15.84	-50.1	-51.7	15.7	6.00e-01	0	29	0	332398592	69	4216
2026-01-04 00:17:04.18	46.63	15.92	-50.1	-51.8	15.7	6.00e-01	0	29	0	333971456	69	4257
2026-01-04 00:17:05.18	46.83	15.99	-50.1	-51.7	15.6	6.00e-01	0	29	0	336068608	69	4235
2026-01-04 00:17:06.18	47.03	16.07	-49.9	-51.6	15.7	6.01e-01	0	29	0	337641472	69	4159
2026-01-04 00:17:07.18	47.24	16.14	-50.0	-51.7	15.7	6.01e-01	0	29	0	339738624	69	4195
2026-01-04 00:17:08.18	47.44	16.21	-50.1	-51.8	15.6	6.02e-01	0	29	0	341835776	69	4248
2026-01-04 00:17:09.17	47.64	16.29	-50.1	-51.7	15.7	6.03e-01	0	29	0	343408640	69	4223
2026-01-04 00:17:10.17	47.85	16.36	-50.1	-51.7	15.7	5.98e-01	0	29	0	345505792	69	4222
2026-01-04 00:17:11.18	48.06	16.44	-49.9	-51.5	15.7	6.01e-01	0	29	0	347078656	69	4126
2026-01-04 00:17:12.17	48.27	16.51	-49.9	-51.5	15.6	6.00e-01	0	29	0	349175808	68	4377
2026-01-04 00:17:13.17	48.48	16.58	-50.0	-51.6	15.6	6.00e-01	0	29	0	350748672	68	4418
2026-01-04 00:17:14.17	48.69	16.66	-50.0	-51.7	15.6	5.99e-01	0	29	0	352845824	68	4447
2026-01-04 00:17:15.17	48.90	16.73	-49.9	-51.5	15.6	6.01e-01	0	29	0	354942976	68	4372
2026-01-04 00:17:16.17	49.11	16.80	-49.9	-51.5	15.6	6.03e-01	0	29	0	356515840	68	4376
2026-01-04 00:17:17.16	49.32	16.88	-49.9	-51.6	15.6	6.02e-01	0	29	0	358612992	68	4393
2026-01-04 00:17:18.16	49.54	16.95	-50.0	-51.7	15.6	6.01e-01	0	29	0	360185856	68	4462
2026-01-04 00:17:19.15	49.75	17.02	-50.1	-51.7	15.6	6.01e-01	0	29	0	362283008	68	4493
2026-01-04 00:17:20.15	49.97	17.09	-50.0	-51.6	15.6	6.01e-01	0	29	0	363855872	68	4438
2026-01-04 00:17:21.15	50.19	17.17	-49.8	-51.4	15.6	6.01e-01	0	29	0	365953024	68	4336
2026-01-04 00:17:22.15	50.41	17.24	-49.9	-51.5	15.6	6.01e-01	0	29	0	367525888	68	4365
2026-01-04 00:17:23.14	50.62	17.31	-49.9	-51.5	15.6	6.00e-01	0	29	0	369623040	68	4389
2026-01-04 00:17:24.13	50.84	17.38	-50.0	-51.6	15.6	6.01e-01	0	29	0	371720192	68	4414
2026-01-04 00:17:25.13	51.07	17.45	-50.0	-51.6	15.6	5.98e-01	0	29	0	373293056	68	4426
2026-01-04 00:17:26.13	51.29	17.53	-49.9	-51.6	15.6	6.02e-01	0	29	0	375390208	68	4398
2026-01-04 00:17:27.12	51.51	17.60	-50.0	-51.6	15.6	6.02e-01	0	29	0	376963072	68	4433
2026-01-04 00:17:28.11	51.74	17.67	-50.0	-51.6	15.6	6.01e-01	0	29	0	379060224	68	4427
2026-01-04 00:17:29.11	51.96	17.74	-50.0	-51.7	15.6	6.01e-01	0	29	0	380633088	68	4446
2026-01-04 00:17:30.10	52.19	17.81	-49.9	-51.5	15.6	6.02e-01	0	29	0	382730240	68	4384
2026-01-04 00:17:31.10	52.42	17.88	-49.9	-51.5	15.6	6.01e-01	0	29	0	384303104	68	4391
2026-01-04 00:17:32.10	52.65	17.95	-50.0	-51.6	15.6	6.01e-01	0	29	0	386400256	68	4434
2026-01-04 00:17:33.10	52.88	18.02	-50.0	-51.7	15.6	6.03e-01	0	29	0	388497408	68	4443
2026-01-04 00:17:34.09	53.11	18.09	-49.9	-51.5	15.6	5.99e-01	0	29	0	390070272	68	4378
2026-01-04 00:17:35.10	53.34	18.16	-50.0	-51.6	15.6	6.00e-01	0	29	0	392167424	68	4421
2026-01-04 00:17:36.10	53.58	18.23	-50.0	-51.6	15.6	6.02e-01	0	29	0	393740288	68	4429
2026-01-04 00:17:37.10	53.82	18.30	-50.0	-51.7	15.6	5.98e-01	0	29	0	395837440	68	4457
2026-01-04 00:17:38.10	54.05	18.37	-50.1	-51.8	15.6	6.02e-01	0	29	0	397410304	68	4518
2026-01-04 00:17:39.10	54.29	18.44	-50.1	-51.7	15.6	5.99e-01	0	29	0	399507456	68	4465
2026-01-04 00:17:40.10	54.53	18.51	-49.9	-51.6	15.6	6.00e-01	0	29	0	401604608	68	4395
2026-01-04 00:17:41.09	54.77	18.58	-49.9	-51.5	15.6	6.02e-01	0	29	0	403177472	68	4372
2026-01-04 00:17:42.11	55.01	18.65	-50.0	-51.6	15.6	6.00e-01	0	29	0	405274624	68	4420
2026-01-04 00:17:43.10	55.25	18.72	-50.1	-51.7	15.6	5.99e-01	0	29	0	406847488	68	4484
2026-01-04 00:17:44.10	55.50	18.78	-50.2	-51.8	15.5	6.03e-01	0	29	0	408944640	68	4535
2026-01-04 00:17:45.09	55.74	18.85	-50.2	-51.8	15.5	6.01e-01	0	29	0	410517504	68	4535
2026-01-04 00:17:46.10	55.99	18.92	-50.2	-51.8	15.5	5.99e-01	0	29	0	412614656	68	4517
2026-01-04 00:17:47.10	56.24	18.99	-50.2	-51.8	15.5	5.99e-01	0	29	0	414711808	68	4545
2026-01-04 00:17:48.10	56.48	19.05	-50.1	-51.7	15.6	6.01e-01	0	28	0	416284672	68	4467
2026-01-04 00:17:49.09	56.73	19.12	-50.0	-51.6	15.6	6.01e-01	0	29	0	418381824	68	4407
2026-01-04 00:17:50.09	56.98	19.19	-50.1	-51.7	15.6	6.00e-01	0	29	0	419954688	68	4466
2026-01-04 00:17:51.09	57.23	19.25	-50.1	-51.7	15.6	6.02e-01	0	29	0	422051840	68	4490
2026-01-04 00:17:52.09	57.49	19.32	-50.2	-51.8	15.5	6.00e-01	0	29	0	424148992	68	4539
2026-01-04 00:17:53.08	57.74	19.38	-50.3	-51.9	15.5	6.00e-01	0	29	0	425721856	68	4595
2026-01-04 00:17:54.08	57.99	19.45	-50.1	-51.8	15.6	6.00e-01	0	29	0	427819008	68	4510
2026-01-04 00:17:55.08	58.25	19.51	-50.3	-52.0	15.5	6.01e-01	0	29	0	429391872	68	4609
2026-01-04 00:17:56.08	58.51	19.58	-50.2	-51.8	15.5	6.03e-01	0	29	0	431489024	68	4544
2026-01-04 00:17:57.08	58.76	19.64	-50.1	-51.7	15.5	6.01e-01	0	29	0	433061888	68	4454
2026-01-04 00:17:58.08	59.02	19.70	-50.0	-51.7	15.6	6.01e-01	0	29	0	435159040	68	4452
2026-01-04 00:17:59.07	59.28	19.76	-50.1	-51.7	15.6	6.01e-01	0	29	0	437256192	68	4462
2026-01-04 00:18:00.08	59.55	19.83	-50.1	-51.8	15.6	6.04e-01	0	29	0	438829056	68	4507
2026-01-04 00:18:01.07	59.81	19.89	-50.1	-51.8	15.6	6.01e-01	0	29	0	440926208	68	4499
2026-01-04 00:18:02.07	60.07	19.95	-50.2	-51.9	15.5	6.01e-01	0	29	0	442499072	68	4546
2026-01-04 00:18:03.07	60.34	20.01	-50.3	-51.9	15.5	5.99e-01	0	29	0	444596224	68	4593
2026-01-04 00:18:04.07	60.60	20.07	-50.1	-51.7	15.6	6.01e-01	0	29	0	446169088	68	4471
2026-01-04 00:18:05.07	60.87	20.13	-50.1	-51.7	15.6	6.02e-01	0	29	0	448266240	68	4484
2026-01-04 00:18:06.06	61.13	20.19	-50.2	-51.9	15.5	5.99e-01	0	29	0	450363392	68	4570
2026-01-04 00:18:07.06	61.40	20.25	-50.2	-51.8	15.5	6.00e-01	0	29	0	451936256	68	4529
2026-01-04 00:18:08.05	61.67	20.31	-50.2	-51.8	15.6	6.00e-01	0	29	0	454033408	68	4532
2026-01-04 00:18:09.04	61.94	20.37	-50.3	-51.9	15.5	6.00e-01	0	29	0	455606272	68	4598
2026-01-04 00:18:10.04	62.21	20.43	-50.3	-52.0	15.5	6.00e-01	0	29	0	457703424	68	4628
2026-01-04 00:18:11.05	62.49	20.49	-50.1	-51.7	15.6	6.02e-01	0	29	0	459276288	68	4479
2026-01-04 00:18:12.04	62.76	20.54	-50.1	-51.8	15.6	6.02e-01	0	29	0	461373440	68	4499
2026-01-04 00:18:13.05	63.04	20.60	-50.2	-51.9	15.5	6.01e-01	0	29	0	462946304	68	4550
2026-01-04 00:18:14.04	63.31	20.66	-50.3	-52.0	15.3	6.01e-01	0	29	0	465043456	68	4606
2026-01-04 00:18:15.04	63.59	20.71	-50.4	-52.0	15.5	6.02e-01	0	29	0	467140608	68	4647
2026-01-04 00:18:16.05	63.87	20.77	-50.4	-52.0	15.5	6.04e-01	0	29	0	468713472	68	4640
2026-01-04 00:18:17.05	64.15	20.82	-50.5	-52.2	15.5	5.99e-01	0	29	0	470810624	68	4707
2026-01-04 00:18:18.03	64.43	20.88	-50.4	-52.1	15.5	6.03e-01	0	29	0	472383488	68	4680
2026-01-04 00:18:19.04	64.71	20.93	-50.4	-52.1	15.5	6.03e-01	0	29	0	474480640	68	4688
2026-01-04 00:18:20.03	64.99	20.99	-50.4	-52.1	15.5	6.00e-01	0	29	0	476053504	68	4658
2026-01-04 00:18:21.03	65.28	21.04	-50.3	-52.0	15.5	6.02e-01	0	29	0	478150656	68	4624
2026-01-04 00:18:22.03	65.56	21.09	-50.2	-51.9	15.5	6.03e-01	0	29	0	480247808	68	4547
2026-01-04 00:18:23.03	65.85	21.14	-50.2	-51.9	15.5	6.02e-01	0	29	0	481820672	68	4553
2026-01-04 00:18:24.03	66.14	21.19	-50.3	-52.0	15.5	6.01e-01	0	29	0	483917824	68	4612
2026-01-04 00:18:25.03	66.42	21.24	-50.4	-52.0	15.5	6.01e-01	0	29	0	485490688	68	4646
2026-01-04 00:18:26.03	66.71	21.29	-50.3	-52.0	15.5	6.01e-01	0	29	0	487587840	68	4606
2026-01-04 00:18:27.02	67.00	21.34	-50.5	-52.1	15.5	6.02e-01	0	29	0	489160704	68	4703
2026-01-04 00:18:28.02	67.29	21.39	-50.3	-51.9	15.5	5.99e-01	0	29	0	491257856	68	4577
2026-01-04 00:18:29.03	67.59	21.44	-50.1	-51.8	15.6	6.00e-01	0	29	0	493355008	68	4513
2026-01-04 00:18:30.02	67.88	21.49	-50.3	-51.9	15.5	6.02e-01	0	29	0	494927872	68	4593
2026-01-04 00:18:31.02	68.17	21.53	-50.4	-52.0	15.5	6.02e-01	0	29	0	497025024	68	4646
2026-01-04 00:18:32.01	68.46	21.58	-50.2	-51.8	15.6	6.02e-01	0	29	0	498597888	68	4522
2026-01-04 00:18:33.00	68.75	21.62	-50.3	-51.9	15.5	6.00e-01	0	29	0	500695040	68	4569
2026-01-04 00:18:34.00	69.05	21.67	-50.4	-52.1	15.5	6.03e-01	0	28	0	502267904	68	4658
2026-01-04 00:18:34.99	69.35	21.71	-50.4	-52.1	15.5	6.00e-01	0	29	0	504365056	68	4688
2026-01-04 00:18:35.98	69.64	21.76	-50.4	-52.1	15.5	6.00e-01	0	29	0	506462208	68	4678
2026-01-04 00:18:36.98	69.94	21.80	-50.4	-52.1	15.5	5.99e-01	0	29	0	508035072	68	4667
2026-01-04 00:18:37.99	70.24	21.84	-50.3	-52.0	15.5	6.01e-01	0	29	0	510132224	68	4624
2026-01-04 00:18:38.98	70.54	21.88	-50.3	-52.0	15.5	6.01e-01	0	29	0	511705088	68	4607
2026-01-04 00:18:39.98	70.84	21.92	-50.3	-51.9	15.5	6.02e-01	0	29	0	513802240	68	4585
2026-01-04 00:18:40.99	71.15	21.96	-50.4	-52.0	15.5	6.00e-01	0	29	0	515375104	68	4642
2026-01-04 00:18:41.98	71.45	22.00	-50.4	-52.1	15.5	6.01e-01	0	29	0	517472256	68	4672
2026-01-04 00:18:42.97	71.75	22.04	-50.5	-52.2	15.5	6.02e-01	0	29	0	519569408	68	4731
2026-01-04 00:18:43.98	72.06	22.08	-50.4	-52.1	15.5	6.00e-01	0	29	0	521142272	68	4701
2026-01-04 00:18:44.98	72.36	22.12	-50.3	-52.0	15.5	6.03e-01	0	29	0	523239424	68	4626
2026-01-04 00:18:45.97	72.67	22.15	-50.3	-52.0	15.5	6.01e-01	0	29	0	524812288	68	4624
2026-01-04 00:18:46.97	72.97	22.19	-50.4	-52.1	15.5	6.00e-01	0	29	0	526909440	68	4659
2026-01-04 00:18:47.97	73.28	22.22	-50.5	-52.2	15.5	6.02e-01	0	29	0	528482304	68	4740
2026-01-04 00:18:48.96	73.59	22.26	-50.4	-52.1	15.5	5.98e-01	0	29	0	530579456	68	4679
2026-01-04 00:18:49.96	73.89	22.29	-50.5	-52.2	15.5	6.01e-01	0	29	0	532676608	68	4754
2026-01-04 00:18:50.96	74.20	22.32	-50.5	-52.2	15.5	5.99e-01	0	28	0	534249472	68	4746
2026-01-04 00:18:51.96	74.51	22.36	-50.3	-52.0	15.5	6.00e-01	0	29	0	536346624	68	4601
2026-01-04 00:18:52.96	74.83	22.39	-50.3	-52.0	15.5	6.03e-01	0	29	0	537919488	68	4601
2026-01-04 00:18:53.96	75.14	22.42	-50.3	-52.0	15.5	6.02e-01	0	29	0	540016640	68	4607
2026-01-04 00:18:54.96	75.45	22.45	-50.3	-52.0	15.5	6.01e-01	0	29	0	541589504	68	4611
2026-01-04 00:18:55.97	75.77	22.48	-50.4	-52.1	15.5	6.02e-01	0	29	0	543686656	68	4656
2026-01-04 00:18:56.96	76.08	22.51	-50.5	-52.2	15.5	6.03e-01	0	29	0	545783808	68	4744
2026-01-04 00:18:57.97	76.39	22.53	-50.5	-52.2	15.5	6.00e-01	0	29	0	547356672	68	4752
2026-01-04 00:18:58.97	76.71	22.56	-50.4	-52.1	15.5	6.00e-01	0	29	0	549453824	68	4695
2026-01-04 00:18:59.96	77.02	22.58	-50.4	-52.1	15.5	6.00e-01	0	29	0	551026688	68	4677
2026-01-04 00:19:00.97	77.34	22.61	-50.5	-52.2	15.4	6.01e-01	0	29	0	553123840	68	4717
2026-01-04 00:19:01.96	77.65	22.63	-50.2	-51.8	15.6	6.01e-01	0	29	0	554696704	68	4541
2026-01-04 00:19:02.96	77.97	22.66	-50.4	-52.1	15.5	6.00e-01	0	28	0	556793856	68	4657
2026-01-04 00:19:03.96	78.29	22.68	-50.4	-52.1	15.5	6.02e-01	0	29	0	558891008	68	4682
2026-01-04 00:19:04.95	78.60	22.70	-50.3	-52.0	15.5	6.01e-01	0	29	0	560463872	68	4601
2026-01-04 00:19:05.95	78.92	22.72	-50.2	-51.9	15.5	6.01e-01	0	29	0	562561024	68	4570
2026-01-04 00:19:06.95	79.24	22.74	-50.2	-51.9	15.5	6.00e-01	0	29	0	564133888	68	4561
2026-01-04 00:19:07.95	79.56	22.76	-50.4	-52.1	15.5	6.00e-01	0	29	0	566231040	68	4666
2026-01-04 00:19:08.95	79.88	22.78	-50.4	-52.1	15.5	5.98e-01	0	29	0	567803904	68	4688
2026-01-04 00:19:09.94	80.20	22.79	-50.5	-52.2	15.5	6.01e-01	0	29	0	569901056	68	4754
2026-01-04 00:19:10.94	80.52	22.81	-50.5	-52.2	15.5	6.00e-01	0	29	0	571473920	68	4716
2026-01-04 00:19:11.94	80.84	22.83	-50.5	-52.1	15.5	6.02e-01	0	29	0	573571072	68	4696
2026-01-04 00:19:12.94	81.16	22.84	-50.7	-52.5	15.5	6.00e-01	0	29	0	575668224	69	4601
2026-01-04 00:19:13.94	81.48	22.85	-50.5	-52.2	15.6	6.01e-01	0	29	0	577241088	69	4468
2026-01-04 00:19:14.94	81.80	22.87	-50.4	-52.0	15.6	6.00e-01	0	29	0	579338240	69	4389
2026-01-04 00:19:15.94	82.12	22.88	-50.4	-52.1	15.6	5.98e-01	0	29	0	580911104	69	4419
2026-01-04 00:19:16.94	82.44	22.89	-50.5	-52.2	15.5	6.02e-01	0	29	0	583008256	69	4466
2026-01-04 00:19:17.95	82.77	22.90	-50.1	-51.7	15.7	6.01e-01	0	29	0	585105408	69	4238
2026-01-04 00:19:18.95	83.09	22.91	-50.2	-51.8	15.7	6.02e-01	0	29	0	586678272	69	4256
2026-01-04 00:19:19.94	83.41	22.92	-50.5	-52.2	15.6	6.01e-01	0	28	0	588775424	69	4457
2026-01-04 00:19:20.94	83.73	22.93	-50.4	-52.1	15.6	6.01e-01	0	29	0	590348288	69	4409
2026-01-04 00:19:21.94	84.06	22.93	-50.3	-51.9	15.6	6.03e-01	0	29	0	592445440	69	4320
2026-01-04 00:19:22.94	84.38	22.94	-50.3	-52.0	15.6	6.01e-01	0	29	0	594018304	69	4341
2026-01-04 00:19:23.95	84.71	22.94	-50.2	-51.8	15.6	5.99e-01	0	29	0	596115456	69	4281
2026-01-04 00:19:24.94	85.03	22.95	-50.4	-52.0	15.6	6.00e-01	0	29	0	598212608	69	4385
2026-01-04 00:19:25.94	85.35	22.95	-50.4	-52.0	15.6	6.01e-01	0	29	0	599785472	69	4381
2026-01-04 00:19:26.93	85.67	22.95	-50.3	-52.0	15.6	6.01e-01	0	29	0	601882624	69	4344
2026-01-04 00:19:27.93	85.99	22.95	-50.3	-51.9	15.6	5.99e-01	0	29	0	603455488	69	4315
2026-01-04 00:19:28.93	86.32	22.95	-50.3	-52.0	15.6	6.00e-01	0	29	0	605552640	69	4343
2026-01-04 00:19:29.92	86.64	22.95	-50.2	-51.8	15.7	6.03e-01	0	29	0	607125504	69	4275
2026-01-04 00:19:30.92	86.96	22.95	-50.2	-51.9	15.6	6.04e-01	0	29	0	609222656	69	4303
2026-01-04 00:19:31.92	87.29	22.95	-50.3	-52.0	15.6	5.98e-01	0	29	0	611319808	69	4341
2026-01-04 00:19:32.92	87.61	22.95	-50.2	-51.9	15.6	5.98e-01	0	29	0	612892672	69	4308
2026-01-04 00:19:33.92	87.93	22.94	-50.4	-52.1	15.6	6.02e-01	0	29	0	614989824	69	4398
2026-01-04 00:19:34.91	88.25	22.94	-50.3	-51.9	15.7	6.00e-01	0	29	0	616562688	69	4314
2026-01-04 00:19:35.91	88.58	22.93	-50.3	-51.9	15.6	6.01e-01	0	29	0	618659840	69	4311
2026-01-04 00:19:36.91	88.90	22.92	-50.3	-52.0	15.6	6.00e-01	0	29	0	620232704	69	4345
2026-01-04 00:19:37.91	89.22	22.92	-50.2	-51.8	15.7	6.02e-01	0	29	0	622329856	69	4265
2026-01-04 00:19:38.90	89.54	22.91	-50.2	-51.9	15.7	5.98e-01	0	29	0	623902720	69	4295
2026-01-04 00:19:39.90	89.86	22.90	-50.2	-51.8	15.6	5.99e-01	0	29	0	625999872	69	4290
2026-01-04 00:19:40.90	90.19	22.89	-50.2	-51.9	15.6	5.99e-01	0	29	0	628097024	69	4316
2026-01-04 00:19:41.90	90.51	22.88	-50.3	-51.9	15.6	6.02e-01	0	29	0	629669888	69	4321
2026-01-04 00:19:42.90	90.83	22.86	-50.3	-51.9	15.6	6.01e-01	0	29	0	631767040	69	4317
2026-01-04 00:19:43.89	91.15	22.85	-50.3	-51.9	15.7	6.04e-01	0	29	0	633339904	69	4321
2026-01-04 00:19:44.89	91.47	22.84	-50.2	-51.8	15.7	6.01e-01	0	29	0	635437056	69	4285
2026-01-04 00:19:45.88	91.79	22.82	-50.1	-51.7	15.7	6.01e-01	0	29	0	637009920	69	4230
2026-01-04 00:19:46.87	92.11	22.81	-50.2	-51.8	15.6	6.00e-01	0	29	0	639107072	69	4291
2026-01-04 00:19:47.87	92.43	22.79	-50.2	-51.8	15.6	6.00e-01	0	29	0	641204224	69	4290
2026-01-04 00:19:48.87	92.75	22.77	-50.2	-51.8	15.7	6.01e-01	0	29	0	642777088	69	4276
2026-01-04 00:19:49.86	93.06	22.75	-50.2	-51.8	15.7	6.03e-01	0	29	0	644874240	69	4263
2026-01-04 00:19:50.86	93.38	22.74	-50.2	-51.9	15.7	5.99e-01	0	29	0	646447104	69	4303
2026-01-04 00:19:51.86	93.70	22.72	-50.2	-51.9	15.6	6.03e-01	0	29	0	648544256	69	4295
2026-01-04 00:19:52.86	94.02	22.69	-50.2	-51.8	15.7	5.99e-01	0	29	0	650641408	69	4258
2026-01-04 00:19:53.87	94.34	22.67	-50.1	-51.7	15.7	6.02e-01	0	29	0	652214272	69	4224
2026-01-04 00:19:54.86	94.66	22.65	-50.2	-51.8	15.7	5.99e-01	0	29	0	654311424	69	4262
2026-01-04 00:19:55.86	94.97	22.63	-50.3	-51.9	15.6	6.01e-01	0	29	0	655884288	69	4329
2026-01-04 00:19:56.86	95.29	22.60	-50.2	-51.8	15.7	6.00e-01	0	29	0	657981440	69	4268
2026-01-04 00:19:57.85	95.60	22.58	-50.2	-51.8	15.7	6.01e-01	0	29	0	659554304	69	4279
2026-01-04 00:19:58.85	95.92	22.55	-50.2	-51.9	15.7	6.01e-01	0	29	0	661651456	69	4294
2026-01-04 00:19:59.85	96.23	22.53	-50.0	-51.6	15.7	6.00e-01	0	29	0	663224320	69	4189
2026-01-04 00:20:00.84	96.55	22.50	-50.1	-51.7	15.7	6.01e-01	0	29	0	665321472	69	4208
2026-01-04 00:20:01.84	96.86	22.47	-50.1	-51.8	15.7	6.00e-01	0	29	0	667418624	69	4245
2026-01-04 00:20:02.84	97.17	22.44	-50.0	-51.7	15.7	6.02e-01	0	29	0	668991488	69	4199
2026-01-04 00:20:03.84	97.49	22.41	-50.2	-51.8	15.7	6.01e-01	0	29	0	671088640	69	4253
2026-01-04 00:20:04.84	97.80	22.38	-50.2	-51.8	15.7	6.00e-01	0	29	0	672661504	69	4280
2026-01-04 00:20:05.84	98.11	22.35	-50.1	-51.7	15.7	6.01e-01	0	29	0	674758656	69	4242
2026-01-04 00:20:06.84	98.42	22.32	-50.1	-51.7	15.7	6.00e-01	0	29	0	676331520	69	4213
2026-01-04 00:20:07.84	98.73	22.28	-50.1	-51.7	15.7	6.02e-01	0	29	0	678428672	69	4209
2026-01-04 00:20:08.84	99.04	22.25	-50.3	-51.9	15.7	6.00e-01	0	29	0	680525824	69	4320
2026-01-04 00:20:09.83	99.35	22.22	-50.2	-51.8	15.7	6.02e-01	0	29	0	682098688	69	4272
2026-01-04 00:20:10.83	99.65	22.18	-50.1	-51.8	15.7	6.04e-01	0	29	0	684195840	69	4254
2026-01-04 00:20:11.83	99.96	22.14	-50.1	-51.7	15.7	6.00e-01	0	29	0	685768704	69	4232
2026-01-04 00:20:12.83	100.27	22.11	-50.0	-51.6	15.7	6.01e-01	0	29	0	687865856	69	4181
2026-01-04 00:20:13.83	100.57	22.07	-50.1	-51.7	15.7	5.99e-01	0	29	0	689438720	69	4207
2026-01-04 00:20:14.83	100.88	22.03	-50.2	-51.8	15.7	6.02e-01	0	29	0	691535872	69	4264
2026-01-04 00:20:15.83	101.18	21.99	-50.2	-51.8	15.7	5.99e-01	0	29	0	693633024	69	4282
2026-01-04 00:20:16.83	101.49	21.95	-50.1	-51.7	15.7	6.02e-01	0	29	0	695205888	69	4234
2026-01-04 00:20:17.83	101.79	21.91	-50.2	-51.8	15.7	6.02e-01	0	29	0	697303040	69	4282
2026-01-04 00:20:18.83	102.09	21.87	-50.3	-51.9	15.6	6.01e-01	0	29	0	698875904	69	4327
2026-01-04 00:20:19.82	102.39	21.83	-50.2	-51.9	15.7	5.99e-01	0	29	0	700973056	69	4301
2026-01-04 00:20:20.82	102.69	21.79	-50.1	-51.7	15.7	6.01e-01	0	29	0	702545920	69	4228
2026-01-04 00:20:21.82	102.99	21.74	-50.0	-51.6	15.7	6.01e-01	0	29	0	704643072	69	4186
2026-01-04 00:20:22.82	103.29	21.70	-50.0	-51.6	15.7	5.99e-01	0	29	0	706740224	69	4180
2026-01-04 00:20:23.81	103.58	21.66	-50.0	-51.6	15.8	6.01e-01	0	29	0	708313088	69	4150
2026-01-04 00:20:24.81	103.88	21.61	-50.0	-51.6	15.8	5.99e-01	0	29	0	710410240	69	4151
2026-01-04 00:20:25.81	104.18	21.56	-50.2	-51.8	15.7	6.00e-01	0	29	0	711983104	69	4253
2026-01-04 00:20:26.81	104.47	21.52	-50.2	-51.9	15.7	6.02e-01	0	29	0	714080256	69	4299
2026-01-04 00:20:27.80	104.76	21.47	-50.1	-51.7	15.7	6.01e-01	0	29	0	715653120	69	4218
2026-01-04 00:20:28.80	105.06	21.42	-49.9	-51.5	15.7	6.02e-01	0	29	0	717750272	69	4131
2026-01-04 00:20:29.80	105.35	21.37	-49.9	-51.5	15.7	6.00e-01	0	29	0	719323136	69	4128
2026-01-04 00:20:30.80	105.64	21.33	-49.9	-51.5	15.7	5.99e-01	0	29	0	721420288	69	4132
2026-01-04 00:20:31.79	105.93	21.28	-50.0	-51.6	15.8	6.01e-01	0	29	0	723517440	69	4158
2026-01-04 00:20:32.79	106.22	21.23	-50.0	-51.5	15.8	6.02e-01	0	29	0	725090304	69	4142
2026-01-04 00:20:33.79	106.51	21.18	-49.9	-51.5	15.8	6.04e-01	0	29	0	727187456	69	4133
2026-01-04 00:20:34.79	106.79	21.12	-50.0	-51.6	15.8	6.02e-01	0	29	0	728760320	69	4174
2026-01-04 00:20:35.79	107.08	21.07	-50.1	-51.7	15.7	6.01e-01	0	29	0	730857472	69	4234
2026-01-04 00:20:36.79	107.37	21.02	-50.1	-51.7	15.7	6.01e-01	0	29	0	732954624	69	4208
2026-01-04 00:20:37.79	107.65	20.97	-50.0	-51.6	15.7	6.01e-01	0	29	0	734527488	69	4191
2026-01-04 00:20:38.78	107.93	20.91	-50.0	-51.6	15.7	6.01e-01	0	29	0	736624640	69	4165
2026-01-04 00:20:39.78	108.21	20.86	-49.9	-51.5	15.7	6.02e-01	0	29	0	738197504	69	4139
2026-01-04 00:20:40.78	108.50	20.80	-50.0	-51.7	15.7	6.01e-01	0	29	0	740294656	69	4197
2026-01-04 00:20:41.78	108.78	20.75	-49.9	-51.5	15.7	6.01e-01	0	29	0	741867520	69	4141
2026-01-04 00:20:42.78	109.06	20.69	-50.0	-51.7	15.7	6.01e-01	0	29	0	743964672	69	4196
2026-01-04 00:20:43.78	109.33	20.64	-50.0	-51.6	15.7	5.99e-01	0	29	0	746061824	69	4191
2026-01-04 00:20:44.77	109.61	20.58	-50.1	-51.7	15.7	6.02e-01	0	29	0	747634688	69	4231
2026-01-04 00:20:45.77	109.89	20.52	-50.2	-51.8	15.7	6.03e-01	0	29	0	749731840	69	4288
2026-01-04 00:20:46.77	110.16	20.47	-50.0	-51.7	15.7	6.00e-01	0	28	0	751304704	69	4196
2026-01-04 00:20:47.77	110.43	20.41	-49.9	-51.5	15.8	6.01e-01	0	29	0	753401856	69	4106
2026-01-04 00:20:48.77	110.71	20.35	-49.8	-51.4	15.7	6.01e-01	0	29	0	754974720	68	4324
2026-01-04 00:20:49.76	110.98	20.29	-49.9	-51.5	15.7	6.02e-01	0	29	0	757071872	68	4373
2026-01-04 00:20:50.76	111.25	20.23	-49.9	-51.5	15.7	6.03e-01	0	29	0	759169024	68	4359
2026-01-04 00:20:51.77	111.52	20.17	-49.9	-51.5	15.7	5.99e-01	0	29	0	760741888	68	4343
2026-01-04 00:20:52.77	111.79	20.11	-49.9	-51.4	15.7	6.00e-01	0	29	0	762839040	68	4339
2026-01-04 00:20:53.77	112.06	20.05	-49.9	-51.5	15.6	6.03e-01	0	29	0	764411904	68	4381
2026-01-04 00:20:54.77	112.32	19.99	-49.9	-51.6	15.6	6.00e-01	0	29	0	766509056	68	4398
2026-01-04 00:20:55.77	112.59	19.92	-50.0	-51.6	15.6	6.03e-01	0	29	0	768081920	68	4432
2026-01-04 00:20:56.76	112.85	19.86	-49.9	-51.6	15.6	6.01e-01	0	29	0	770179072	68	4392
2026-01-04 00:20:57.76	113.12	19.80	-49.8	-51.4	15.7	6.01e-01	0	29	0	772276224	68	4309
2026-01-04 00:20:58.76	113.38	19.74	-49.8	-51.4	15.7	6.00e-01	0	29	0	773849088	68	4309
2026-01-04 00:20:59.76	113.64	19.67	-49.8	-51.3	15.7	6.01e-01	0	29	0	775946240	68	4291
2026-01-04 00:21:00.75	113.90	19.61	-49.8	-51.4	15.7	6.01e-01	0	29	0	777519104	68	4314
2026-01-04 00:21:01.75	114.15	19.55	-49.9	-51.5	15.6	6.00e-01	0	29	0	779616256	68	4388
2026-01-04 00:21:02.75	114.41	19.48	-49.9	-51.6	15.6	6.01e-01	0	29	0	781189120	68	4392
2026-01-04 00:21:03.75	114.67	19.42	-50.0	-51.6	15.6	6.02e-01	0	29	0	783286272	68	4397
2026-01-04 00:21:04.74	114.92	19.35	-49.9	-51.5	15.6	6.00e-01	0	29	0	784859136	68	4363
2026-01-04 00:21:05.75	115.18	19.28	-49.8	-51.3	15.7	5.99e-01	0	29	0	786956288	68	4289
2026-01-04 00:21:06.75	115.43	19.22	-49.7	-51.3	15.7	6.01e-01	0	29	0	789053440	68	4257
2026-01-04 00:21:07.75	115.68	19.15	-49.8	-51.3	15.7	6.02e-01	0	29	0	790626304	68	4291
2026-01-04 00:21:08.75	115.94	19.09	-49.8	-51.4	15.7	6.02e-01	0	29	0	792723456	68	4299
2026-01-04 00:21:09.75	116.19	19.02	-49.8	-51.4	15.7	6.01e-01	0	29	0	794296320	68	4323
2026-01-04 00:21:10.75	116.43	18.95	-49.8	-51.4	15.7	5.99e-01	0	29	0	796393472	68	4298
2026-01-04 00:21:11.75	116.68	18.88	-49.9	-51.5	15.7	6.00e-01	0	29	0	797966336	68	4342
2026-01-04 00:21:12.75	116.93	18.82	-49.8	-51.4	15.7	6.03e-01	0	29	0	800063488	68	4334
2026-01-04 00:21:13.75	117.17	18.75	-49.8	-51.4	15.7	6.01e-01	0	29	0	802160640	68	4322
2026-01-04 00:21:14.74	117.42	18.68	-49.9	-51.5	15.7	6.00e-01	0	29	0	803733504	68	4342
2026-01-04 00:21:15.74	117.66	18.61	-49.8	-51.5	15.7	6.01e-01	0	29	0	805830656	68	4344
2026-01-04 00:21:16.74	117.90	18.54	-49.9	-51.5	15.7	6.02e-01	0	29	0	807403520	68	4386
2026-01-04 00:21:17.74	118.14	18.47	-49.9	-51.5	15.6	6.01e-01	0	29	0	809500672	68	4384
2026-01-04 00:21:18.75	118.38	18.40	-49.8	-51.4	15.7	6.00e-01	0	29	0	811597824	68	4339
2026-01-04 00:21:19.75	118.62	18.33	-49.8	-51.4	15.7	6.01e-01	0	29	0	813170688	68	4305
2026-01-04 00:21:20.75	118.86	18.26	-49.9	-51.5	15.6	6.02e-01	0	29	0	815267840	68	4361
2026-01-04 00:21:21.75	119.10	18.19	-49.8	-51.4	15.7	5.99e-01	0	29	0	816840704	68	4300
2026-01-04 00:21:22.75	119.33	18.12	-49.8	-51.4	15.7	6.01e-01	0	29	0	818937856	68	4335
2026-01-04 00:21:23.74	119.56	18.05	-49.8	-51.4	15.7	6.00e-01	0	29	0	820510720	68	4295
2026-01-04 00:21:24.74	119.80	17.98	-49.8	-51.4	15.7	6.02e-01	0	29	0	822607872	68	4296
2026-01-04 00:21:25.74	120.03	17.91	-49.7	-51.3	15.7	5.99e-01	0	29	0	824705024	68	4262
2026-01-04 00:21:26.73	120.26	17.84	-49.8	-51.4	15.7	6.00e-01	0	29	0	826277888	68	4299
2026-01-04 00:21:27.74	120.49	17.77	-49.7	-51.3	15.7	6.00e-01	0	29	0	828375040	68	4283
2026-01-04 00:21:28.73	120.72	17.70	-49.8	-51.4	15.7	5.99e-01	0	29	0	829947904	68	4334
2026-01-04 00:21:29.73	120.94	17.62	-49.8	-51.4	15.7	6.01e-01	0	29	0	832045056	68	4320
2026-01-04 00:21:30.73	121.17	17.55	-49.7	-51.3	15.7	6.00e-01	0	29	0	833617920	68	4270
2026-01-04 00:21:31.72	121.39	17.48	-49.7	-51.3	15.7	6.04e-01	0	29	0	835715072	68	4270
2026-01-04 00:21:32.72	121.62	17.41	-49.7	-51.3	15.7	6.03e-01	0	29	0	837812224	68	4270
2026-01-04 00:21:33.72	121.84	17.34	-49.8	-51.4	15.7	6.00e-01	0	29	0	839385088	68	4302
2026-01-04 00:21:34.72	122.06	17.26	-49.8	-51.5	15.6	6.00e-01	0	29	0	841482240	68	4347
2026-01-04 00:21:35.71	122.28	17.19	-49.8	-51.4	15.7	6.05e-01	0	29	0	843055104	68	4305
2026-01-04 00:21:36.71	122.50	17.12	-49.8	-51.4	15.7	6.00e-01	0	29	0	845152256	68	4333
2026-01-04 00:21:37.71	122.72	17.04	-49.9	-51.6	15.6	6.00e-01	0	29	0	846725120	68	4405
2026-01-04 00:21:38.72	122.94	16.97	-49.7	-51.3	15.7	6.00e-01	0	29	0	848822272	68	4273
2026-01-04 00:21:39.71	123.15	16.90	-49.7	-51.3	15.7	6.02e-01	0	29	0	850919424	68	4258
2026-01-04 00:21:40.70	123.36	16.82	-49.8	-51.4	15.7	5.99e-01	0	29	0	852492288	68	4320
2026-01-04 00:21:41.70	123.58	16.75	-49.7	-51.3	15.7	6.01e-01	0	29	0	854589440	68	4278
2026-01-04 00:21:42.70	123.79	16.68	-49.7	-51.3	15.7	6.01e-01	0	29	0	856162304	68	4258
2026-01-04 00:21:43.70	124.00	16.60	-49.8	-51.4	15.7	6.00e-01	0	29	0	858259456	68	4318
2026-01-04 00:21:44.70	124.21	16.53	-49.8	-51.4	15.7	6.00e-01	0	29	0	859832320	68	4308
2026-01-04 00:21:45.70	124.42	16.46	-49.8	-51.4	15.7	5.99e-01	0	29	0	861929472	68	4325
2026-01-04 00:21:46.69	124.63	16.38	-49.8	-51.4	15.6	6.00e-01	0	29	0	863502336	68	4314
2026-01-04 00:21:47.70	124.84	16.31	-49.7	-51.4	15.7	6.00e-01	0	29	0	865599488	68	4298
2026-01-04 00:21:48.70	125.05	16.23	-49.8	-51.4	15.6	6.00e-01	0	29	0	867696640	68	4339
2026-01-04 00:21:49.69	125.25	16.16	-49.8	-51.4	15.6	6.01e-01	0	29	0	869269504	68	4319
2026-01-04 00:21:50.69	125.46	16.08	-49.7	-51.3	15.7	5.99e-01	0	29	0	871366656	68	4274
2026-01-04 00:21:51.69	125.66	16.01	-49.6	-51.2	15.7	6.01e-01	0	29	0	872939520	68	4232
2026-01-04 00:21:52.68	125.86	15.94	-49.6	-51.2	15.7	6.00e-01	0	29	0	875036672	68	4233
2026-01-04 00:21:53.69	126.06	15.86	-49.7	-51.3	15.7	6.03e-01	0	29	0	877133824	68	4285
2026-01-04 00:21:54.68	126.26	15.79	-49.6	-51.2	15.7	6.03e-01	0	29	0	878706688	68	4234
2026-01-04 00:21:55.69	126.46	15.71	-49.7	-51.3	15.7	5.98e-01	0	29	0	880803840	68	4267
2026-01-04 00:21:56.69	126.66	15.63	-49.7	-51.3	15.7	6.04e-01	0	29	0	882376704	68	4291
2026-01-04 00:21:57.69	126.86	15.56	-49.7	-51.3	15.7	6.02e-01	0	29	0	884473856	68	4288
2026-01-04 00:21:58.69	127.06	15.48	-49.7	-51.3	15.7	6.00e-01	0	29	0	886046720	68	4268
2026-01-04 00:21:59.69	127.25	15.41	-49.8	-51.4	15.6	6.01e-01	0	29	0	888143872	68	4303
2026-01-04 00:22:00.69	127.45	15.33	-49.8	-51.4	15.6	6.01e-01	0	29	0	890241024	68	4309
2026-01-04 00:22:01.69	127.64	15.26	-49.7	-51.3	15.7	6.01e-01	0	29	0	891813888	68	4276
2026-01-04 00:22:02.68	127.83	15.18	-49.9	-51.5	15.6	6.03e-01	0	29	0	893911040	68	4367
2026-01-04 00:22:03.68	128.02	15.11	-49.8	-51.4	15.7	6.01e-01	0	29	0	895483904	68	4304
2026-01-04 00:22:04.68	128.21	15.03	-49.8	-51.4	15.6	6.02e-01	0	29	0	897581056	68	4333
2026-01-04 00:22:05.68	128.40	14.96	-49.8	-51.4	15.7	6.01e-01	0	29	0	899153920	68	4306
2026-01-04 00:22:06.68	128.59	14.88	-49.7	-51.4	15.7	5.99e-01	0	29	0	901251072	68	4296
2026-01-04 00:22:07.69	128.78	14.81	-49.8	-51.5	15.7	6.02e-01	0	29	0	903348224	68	4360
2026-01-04 00:22:08.69	128.96	14.73	-49.9	-51.5	15.6	6.03e-01	0	29	0	904921088	68	4363
2026-01-04 00:22:09.69	129.15	14.66	-49.7	-51.3	15.7	6.00e-01	0	29	0	907018240	68	4270
2026-01-04 00:22:10.68	129.33	14.58	-49.7	-51.3	15.7	6.00e-01	0	29	0	908591104	68	4278
2026-01-04 00:22:11.68	129.51	14.51	-49.7	-51.4	15.7	6.00e-01	0	29	0	910688256	68	4299
2026-01-04 00:22:12.68	129.70	14.43	-49.8	-51.4	15.7	6.03e-01	0	29	0	912261120	68	4312
2026-01-04 00:22:13.69	129.88	14.36	-49.8	-51.5	15.6	6.00e-01	0	29	0	914358272	68	4346
2026-01-04 00:22:14.70	130.06	14.28	-49.7	-51.3	15.6	6.00e-01	0	29	0	916455424	68	4258
2026-01-04 00:22:15.70	130.24	14.20	-49.7	-51.3	15.6	6.01e-01	0	29	0	918028288	68	4277
2026-01-04 00:22:16.70	130.42	14.13	-49.7	-51.3	15.7	5.99e-01	0	29	0	920125440	68	4275
2026-01-04 00:22:17.70	130.60	14.05	-49.8	-51.4	15.7	6.01e-01	0	29	0	921698304	68	4329
2026-01-04 00:22:18.69	130.77	13.98	-49.8	-51.4	15.6	6.03e-01	0	29	0	923795456	68	4332
2026-01-04 00:22:19.69	130.95	13.90	-49.9	-51.5	15.6	6.01e-01	0	29	0	925892608	68	4371
2026-01-04 00:22:20.68	131.12	13.83	-49.9	-51.6	15.6	5.99e-01	0	29	0	927465472	68	4404
2026-01-04 00:22:21.68	131.30	13.75	-49.9	-51.6	15.6	6.00e-01	0	29	0	929562624	68	4415
2026-01-04 00:22:22.68	131.47	13.68	-49.9	-51.6	15.6	5.98e-01	0	29	0	931135488	68	4430
2026-01-04 00:22:23.67	131.64	13.60	-49.9	-51.5	15.6	6.01e-01	0	29	0	933232640	68	4371
2026-01-04 00:22:24.68	131.81	13.53	-49.9	-51.5	15.6	6.05e-01	0	29	0	934805504	68	4385
2026-01-04 00:22:25.67	131.98	13.45	-49.8	-51.5	15.6	6.03e-01	0	29	0	936902656	68	4348
2026-01-04 00:22:26.67	132.15	13.38	-49.9	-51.6	15.6	6.01e-01	0	29	0	938999808	68	4420
2026-01-04 00:22:27.67	132.32	13.30	-49.9	-51.6	15.6	6.01e-01	0	29	0	940572672	68	4416
2026-01-04 00:22:28.66	132.49	13.23	-49.9	-51.6	15.6	6.02e-01	0	29	0	942669824	68	4396
2026-01-04 00:22:29.65	132.65	13.16	-49.8	-51.5	15.6	6.03e-01	0	29	0	944242688	68	4355
2026-01-04 00:22:30.65	132.82	13.08	-49.9	-51.5	15.6	6.01e-01	0	29	0	946339840	68	4380
2026-01-04 00:22:31.65	132.98	13.01	-49.9	-51.5	15.6	5.99e-01	0	29	0	947912704	68	4389
2026-01-04 00:22:32.64	133.15	12.93	-49.8	-51.5	15.6	6.02e-01	0	29	0	950009856	68	4362
2026-01-04 00:22:33.63	133.31	12.86	-49.9	-51.6	15.6	6.02e-01	0	29	0	951582720	68	4411
2026-01-04 00:22:34.63	133.47	12.78	-49.9	-51.5	15.6	6.02e-01	0	29	0	953679872	68	4385
2026-01-04 00:22:35.63	133.63	12.71	-49.8	-51.5	15.6	6.02e-01	0	29	0	955777024	68	4363
2026-01-04 00:22:36.63	133.79	12.63	-49.8	-51.5	15.6	6.01e-01	0	29	0	957349888	68	4364
2026-01-04 00:22:37.62	133.95	12.56	-49.9	-51.5	15.6	6.02e-01	0	29	0	959447040	68	4390
2026-01-04 00:22:38.62	134.11	12.49	-49.9	-51.6	15.6	6.03e-01	0	29	0	961019904	68	4409
2026-01-04 00:22:39.61	134.27	12.41	-50.0	-51.7	15.6	5.98e-01	0	29	0	963117056	68	4450
2026-01-04 00:22:40.61	134.42	12.34	-50.1	-51.8	15.5	6.01e-01	0	29	0	964689920	68	4532
2026-01-04 00:22:41.61	134.58	12.26	-50.1	-51.8	15.6	6.04e-01	0	29	0	966787072	68	4497
2026-01-04 00:22:42.61	134.74	12.19	-50.0	-51.7	15.6	5.99e-01	0	29	0	968884224	68	4451
2026-01-04 00:22:43.60	134.89	12.12	-50.0	-51.7	15.6	6.02e-01	0	29	0	970457088	68	4453
2026-01-04 00:22:44.60	135.04	12.04	-50.1	-51.8	15.5	6.02e-01	0	29	0	972554240	68	4527
2026-01-04 00:22:45.61	135.20	11.97	-50.0	-51.7	15.5	6.00e-01	0	29	0	974127104	68	4483
2026-01-04 00:22:46.61	135.35	11.89	-50.1	-51.8	15.6	6.00e-01	0	29	0	976224256	68	4514
2026-01-04 00:22:47.61	135.50	11.82	-50.1	-51.8	15.5	6.00e-01	0	29	0	977797120	68	4545
2026-01-04 00:22:48.60	135.65	11.75	-50.1	-51.9	15.5	6.00e-01	0	29	0	979894272	68	4551
2026-01-04 00:22:49.60	135.80	11.67	-50.1	-51.8	15.6	5.99e-01	0	29	0	981467136	68	4529
2026-01-04 00:22:50.60	135.95	11.60	-50.2	-51.9	15.5	6.02e-01	0	29	0	983564288	68	4572
2026-01-04 00:22:51.60	136.10	11.53	-50.1	-51.9	15.5	6.00e-01	0	29	0	985661440	68	4552
2026-01-04 00:22:52.60	136.25	11.45	-50.1	-51.8	15.5	6.02e-01	0	29	0	987234304	68	4515
2026-01-04 00:22:53.60	136.40	11.38	-50.1	-51.8	15.5	6.01e-01	0	29	0	989331456	68	4541
2026-01-04 00:22:54.59	136.54	11.31	-50.1	-51.9	15.5	6.02e-01	0	29	0	990904320	68	4549
2026-01-04 00:22:55.59	136.69	11.23	-50.1	-51.8	15.5	6.01e-01	0	29	0	993001472	68	4534
2026-01-04 00:22:56.59	136.83	11.16	-50.2	-52.0	15.5	6.02e-01	0	29	0	994574336	68	4600
2026-01-04 00:22:57.58	136.98	11.09	-50.2	-52.0	15.5	6.00e-01	0	29	0	996671488	68	4608
2026-01-04 00:22:58.58	137.12	11.02	-50.2	-51.9	15.5	6.04e-01	0	29	0	998768640	68	4588
2026-01-04 00:22:59.58	137.26	10.94	-50.2	-51.9	15.5	6.01e-01	0	29	0	1000341504	68	4593
2026-01-04 00:23:00.58	137.40	10.87	-50.2	-51.9	15.5	6.00e-01	0	29	0	1002438656	68	4586
2026-01-04 00:23:01.58	137.55	10.80	-50.2	-52.0	15.5	6.01e-01	0	29	0	1004011520	68	4606
2026-01-04 00:23:02.57	137.68	10.73	-50.1	-51.8	15.5	6.01e-01	0	29	0	1006108672	68	4533
2026-01-04 00:23:03.58	137.83	10.65	-50.2	-52.0	15.5	6.01e-01	0	29	0	1007681536	68	4600
2026-01-04 00:23:04.57	137.96	10.58	-50.2	-51.9	15.5	6.02e-01	0	29	0	1009778688	68	4562
2026-01-04 00:23:05.56	138.10	10.51	-50.2	-51.9	15.5	6.02e-01	0	29	0	1011875840	68	4574
2026-01-04 00:23:06.56	138.24	10.44	-50.2	-51.9	15.5	6.01e-01	0	29	0	1013448704	68	4584
2026-01-04 00:23:07.56	138.37	10.37	-50.2	-51.9	15.5	6.02e-01	0	29	0	1015545856	68	4596
2026-01-04 00:23:08.56	138.51	10.29	-50.2	-52.0	15.5	6.01e-01	0	29	0	1017118720	68	4618
2026-01-04 00:23:09.56	138.65	10.22	-50.3	-52.0	15.4	6.01e-01	0	29	0	1019215872	68	4639
2026-01-04 00:23:10.56	138.78	10.15	-50.3	-52.0	15.4	6.00e-01	0	29	0	1021313024	68	4645
2026-01-04 00:23:11.56	138.92	10.08	-50.4	-52.2	15.4	6.02e-01	0	29	0	1022885888	68	4718
2026-01-04 00:23:12.55	139.05	10.01	-50.4	-52.2	15.4	6.01e-01	0	29	0	1024983040	68	4706
2026-01-04 00:23:13.55	139.18	9.94	-50.4	-52.3	15.4	6.02e-01	0	29	0	1026555904	68	4762
2026-01-04 00:23:14.55	139.31	9.87	-50.4	-52.3	15.4	6.02e-01	0	29	0	1028653056	68	4763
2026-01-04 00:23:15.55	139.44	9.79	-50.5	-52.3	15.4	6.00e-01	0	29	0	1030225920	68	4780
2026-01-04 00:23:16.55	139.58	9.72	-50.6	-52.5	15.3	6.01e-01	0	29	0	1032323072	68	4882
2026-01-04 00:23:17.54	139.70	9.65	-50.7	-52.5	15.3	6.01e-01	0	29	0	1033895936	69	4649
2026-01-04 00:23:18.54	139.83	9.58	-50.6	-52.4	15.4	6.00e-01	0	29	0	1035993088	69	4591
2026-01-04 00:23:19.54	139.96	9.51	-50.6	-52.4	15.4	6.02e-01	0	29	0	1038090240	69	4573
2026-01-04 00:23:20.54	140.09	9.44	-50.5	-52.3	15.4	6.00e-01	0	29	0	1039663104	69	4520
2026-01-04 00:23:21.53	140.22	9.37	-50.5	-52.3	15.4	6.03e-01	0	29	0	1041760256	69	4525
2026-01-04 00:23:22.54	140.35	9.30	-50.5	-52.3	15.4	6.01e-01	0	29	0	1043333120	69	4545
2026-01-04 00:23:23.53	140.47	9.23	-50.5	-52.4	15.4	5.99e-01	0	29	0	1045430272	69	4561
2026-01-04 00:23:24.52	140.59	9.16	-50.5	-52.4	15.4	5.99e-01	0	29	0	1047003136	69	4553
2026-01-04 00:23:25.52	140.72	9.09	-50.6	-52.5	15.3	6.00e-01	0	29	0	1049100288	69	4618
2026-01-04 00:23:26.52	140.84	9.02	-50.6	-52.4	15.4	6.00e-01	0	29	0	1051197440	69	4573
2026-01-04 00:23:27.51	140.97	8.95	-50.7	-52.6	15.4	6.01e-01	0	29	0	1052770304	69	4662
2026-01-04 00:23:28.51	141.09	8.88	-50.5	-52.4	15.4	6.03e-01	0	29	0	1054867456	69	4554
2026-01-04 00:23:29.50	141.21	8.81	-50.5	-52.4	15.4	6.00e-01	0	29	0	1056440320	69	4550
2026-01-04 00:23:30.50	141.33	8.74	-50.6	-52.5	15.4	6.02e-01	0	29	0	1058537472	69	4603
2026-01-04 00:23:31.50	141.45	8.67	-50.7	-52.6	15.3	5.99e-01	0	29	0	1060110336	69	4695
2026-01-04 00:23:32.49	141.57	8.61	-50.7	-52.6	15.3	6.02e-01	0	29	0	1062207488	69	4668
2026-01-04 00:23:33.49	141.69	8.54	-50.6	-52.5	15.3	6.03e-01	0	29	0	1063780352	69	4621
2026-01-04 00:23:34.48	141.81	8.47	-50.6	-52.5	15.3	6.00e-01	0	29	0	1065877504	69	4641
2026-01-04 00:23:35.48	141.93	8.40	-50.7	-52.6	15.3	6.00e-01	0	29	0	1067974656	69	4693
2026-01-04 00:23:36.48	142.05	8.33	-50.7	-52.6	15.3	6.00e-01	0	29	0	1069547520	69	4673
2026-01-04 00:23:37.48	142.17	8.26	-50.7	-52.6	15.3	6.02e-01	0	29	0	1071644672	69	4660
2026-01-04 00:23:38.48	142.29	8.19	-50.7	-52.6	15.3	6.01e-01	0	29	0	1073217536	69	4654
2026-01-04 00:23:39.47	142.40	8.12	-50.6	-52.5	15.3	6.00e-01	0	29	0	1075314688	69	4620
2026-01-04 00:23:40.46	142.52	8.06	-50.6	-52.5	15.3	6.03e-01	0	29	0	1076887552	69	4633
2026-01-04 00:23:41.46	142.63	7.99	-50.6	-52.5	15.3	6.01e-01	0	29	0	1078984704	69	4630
2026-01-04 00:23:42.45	142.74	7.92	-50.7	-52.6	15.3	6.01e-01	0	29	0	1080557568	69	4668
2026-01-04 00:23:43.45	142.86	7.85	-50.7	-52.6	15.3	6.02e-01	0	29	0	1082654720	69	4672
2026-01-04 00:23:44.45	142.97	7.78	-50.8	-52.7	15.3	6.00e-01	0	29	0	1084751872	69	4758
2026-01-04 00:23:45.45	143.09	7.72	-50.9	-52.8	15.2	6.01e-01	0	29	0	1086324736	69	4803
2026-01-04 00:23:46.45	143.20	7.65	-51.0	-52.9	15.2	6.02e-01	0	29	0	1088421888	69	4856
2026-01-04 00:23:47.45	143.31	7.58	-50.9	-52.8	15.3	6.01e-01	0	29	0	1089994752	69	4787
2026-01-04 00:23:48.45	143.42	7.51	-50.9	-52.8	15.3	6.01e-01	0	29	0	1092091904	69	4801
2026-01-04 00:23:49.45	143.53	7.45	-51.0	-52.9	15.2	6.03e-01	0	29	0	1093664768	69	4859
2026-01-04 00:23:50.44	143.64	7.38	-51.0	-53.0	15.2	6.00e-01	0	29	0	1095761920	69	4891
2026-01-04 00:23:51.44	143.75	7.31	-51.0	-53.0	15.2	6.01e-01	0	29	0	1097859072	69	4908
2026-01-04 00:23:52.42	143.86	7.25	-51.0	-53.0	15.2	6.04e-01	0	29	0	1099431936	69	4894
2026-01-04 00:23:53.42	143.97	7.18	-51.0	-53.0	15.2	5.98e-01	0	29	0	1101529088	69	4906
2026-01-04 00:23:54.43	144.08	7.11	-51.1	-53.1	15.3	6.02e-01	0	29	0	1103101952	70	4673
2026-01-04 00:23:55.43	144.19	7.05	-51.1	-53.1	15.3	6.00e-01	0	29	0	1105199104	70	4682
2026-01-04 00:23:56.43	144.30	6.98	-51.1	-53.1	15.3	6.03e-01	0	29	0	1106771968	70	4688
2026-01-04 00:23:57.43	144.40	6.91	-51.3	-53.4	15.2	6.01e-01	0	29	0	1108869120	70	4838
2026-01-04 00:23:58.43	144.51	6.85	-51.2	-53.3	15.2	6.00e-01	0	29	0	1110966272	70	4777
2026-01-04 00:23:59.43	144.61	6.78	-51.2	-53.2	15.2	6.01e-01	0	29	0	1112539136	70	4753
2026-01-04 00:24:00.43	144.72	6.71	-51.2	-53.3	15.3	6.02e-01	0	29	0	1114636288	70	4775
2026-01-04 00:24:01.43	144.83	6.65	-51.4	-53.4	15.2	6.00e-01	0	29	0	1116209152	70	4858
2026-01-04 00:24:02.43	144.93	6.58	-51.3	-53.4	15.2	6.01e-01	0	29	0	1118306304	70	4853
2026-01-04 00:24:03.43	145.03	6.52	-51.3	-53.4	15.2	5.99e-01	0	29	0	1120403456	70	4831
2026-01-04 00:24:04.43	145.14	6.45	-51.3	-53.4	15.2	6.01e-01	0	29	0	1121976320	70	4843
2026-01-04 00:24:05.42	145.24	6.38	-51.4	-53.5	15.2	6.02e-01	0	29	0	1124073472	70	4877
2026-01-04 00:24:06.42	145.34	6.32	-51.2	-53.3	15.2	6.02e-01	0	29	0	1125646336	70	4792
2026-01-04 00:24:07.42	145.44	6.25	-51.4	-53.5	15.1	6.01e-01	0	29	0	1127743488	70	4907
2026-01-04 00:24:08.42	145.55	6.19	-51.3	-53.4	15.2	6.01e-01	0	29	0	1129316352	70	4862
2026-01-04 00:24:09.41	145.65	6.12	-51.3	-53.5	15.2	5.99e-01	0	29	0	1131413504	70	4871
2026-01-04 00:24:10.40	145.75	6.06	-51.4	-53.6	15.1	6.02e-01	0	29	0	1132986368	70	4929
2026-01-04 00:24:11.40	145.85	5.99	-51.2	-53.3	15.2	6.03e-01	0	29	0	1135083520	70	4774
2026-01-04 00:24:12.40	145.95	5.93	-51.3	-53.4	15.2	5.99e-01	0	29	0	1137180672	70	4833
2026-01-04 00:24:13.41	146.05	5.86	-51.3	-53.4	15.2	6.03e-01	0	29	0	1138753536	70	4839
2026-01-04 00:24:14.41	146.14	5.80	-51.5	-53.7	15.1	5.97e-01	0	29	0	1140850688	70	5007
2026-01-04 00:24:15.41	146.24	5.74	-51.5	-53.6	15.1	6.03e-01	0	29	0	1142423552	70	4970
2026-01-04 00:24:16.41	146.34	5.67	-51.4	-53.5	15.1	6.01e-01	0	29	0	1144520704	70	4925
2026-01-04 00:24:17.41	146.44	5.61	-51.5	-53.7	15.1	5.97e-01	0	29	0	1146617856	70	4984
2026-01-04 00:24:18.40	146.53	5.54	-51.5	-53.6	15.1	6.01e-01	0	29	0	1148190720	70	4959
2026-01-04 00:24:19.40	146.63	5.48	-51.4	-53.6	15.2	6.00e-01	0	29	0	1150287872	70	4939
2026-01-04 00:24:20.41	146.73	5.41	-51.5	-53.7	15.2	6.02e-01	0	29	0	1151860736	71	4714
2026-01-04 00:24:21.42	146.82	5.35	-51.3	-53.4	15.3	6.02e-01	0	29	0	1153957888	71	4597
2026-01-04 00:24:22.41	146.92	5.29	-51.5	-53.7	15.2	6.00e-01	0	29	0	1155530752	71	4709
2026-01-04 00:24:23.42	147.01	5.22	-51.5	-53.7	15.2	6.00e-01	0	29	0	1157627904	71	4744
2026-01-04 00:24:24.41	147.11	5.16	-51.5	-53.7	15.2	6.01e-01	0	29	0	1159725056	71	4736
2026-01-04 00:24:25.41	147.20	5.10	-51.7	-54.0	15.1	6.00e-01	0	29	0	1161297920	71	4875
2026-01-04 00:24:26.41	147.29	5.03	-52.0	-54.3	15.0	6.02e-01	0	29	0	1163395072	71	5077
2026-01-04 00:24:27.41	147.39	4.97	-58.6	-77.6	3.7	7.43e-01	0	29	104	1164443648	85	32964
2026-01-04 00:24:28.40	147.48	4.91	-59.0	-78.3	3.8	7.42e-01	0	29	104	1164443648	85	35797
2026-01-04 00:24:29.40	147.57	4.85	-59.4	-78.7	3.8	7.44e-01	0	29	104	1164443648	86	35397
2026-01-04 00:24:30.40	147.66	4.78	-59.6	-78.9	3.9	7.45e-01	0	29	104	1164443648	86	36371
2026-01-04 00:24:31.39	147.75	4.72	-59.7	-79.1	3.8	7.49e-01	0	29	104	1164443648	87	35135
2026-01-04 00:24:32.39	147.85	4.66	-59.9	-79.2	3.8	7.47e-01	0	29	104	1164443648	87	35554
2026-01-04 00:24:33.40	147.94	4.59	-60.0	-79.3	3.8	7.46e-01	0	29	104	1164443648	87	36036
2026-01-04 00:24:34.40	148.03	4.53	-60.1	-79.4	3.8	7.45e-01	0	29	104	1164443648	87	36496
2026-01-04 00:24:35.39	148.12	4.47	-60.2	-79.6	3.8	7.44e-01	0	29	104	1164443648	88	34928
2026-01-04 00:24:36.39	148.21	4.41	-60.3	-79.6	3.8	7.47e-01	0	29	104	1164443648	88	35213
2026-01-04 00:24:37.39	148.29	4.35	-60.3	-79.7	3.8	7.43e-01	0	29	104	1164443648	88	35465
2026-01-04 00:24:38.39	148.38	4.28	-60.4	-79.8	3.8	7.41e-01	0	29	104	1164443648	88	35892
2026-01-04 00:24:39.39	148.47	4.22	-60.5	-79.9	3.8	7.46e-01	0	29	104	1164443648	88	36111
2026-01-04 00:24:40.39	148.56	4.16	-60.6	-79.9	3.8	7.49e-01	0	29	104	1164443648	88	36383
2026-01-04 00:24:41.39	148.65	4.10	-60.6	-80.0	3.8	7.44e-01	0	29	104	1164443648	89	34655
2026-01-04 00:24:42.39	148.73	4.04	-60.7	-80.1	3.9	7.49e-01	0	29	104	1164443648	89	35032
2026-01-04 00:24:43.39	148.82	3.98	-60.7	-80.1	3.8	7.44e-01	0	29	104	1164443648	89	35114
2026-01-04 00:24:44.38	148.91	3.92	-60.8	-80.1	3.8	7.48e-01	0	29	104	1164443648	89	35270
2026-01-04 00:24:45.38	148.99	3.85	-60.8	-80.2	3.8	7.49e-01	0	29	104	1164443648	89	35301
2026-01-04 00:24:46.38	149.08	3.79	-60.8	-80.2	3.8	7.48e-01	0	29	104	1164443648	89	35464
2026-01-04 00:24:47.38	149.16	3.73	-60.8	-80.2	3.8	7.46e-01	0	29	104	1164443648	89	35519
2026-01-04 00:24:48.38	149.25	3.67	-60.8	-80.2	3.8	7.47e-01	0	29	104	1164443648	89	35453
2026-01-04 00:24:49.37	149.33	3.61	-60.7	-80.1	3.8	7.51e-01	0	29	104	1164443648	89	35100
2026-01-04 00:24:50.38	149.42	3.55	-60.7	-80.1	3.8	7.44e-01	0	29	104	1164443648	89	34952
2026-01-04 00:24:51.37	149.50	3.49	-60.7	-80.1	3.8	7.45e-01	0	29	104	1164443648	89	34987
2026-01-04 00:24:52.37	149.58	3.43	-60.7	-80.1	3.8	7.46e-01	0	29	104	1164443648	89	35024
2026-01-04 00:24:53.37	149.67	3.37	-60.7	-80.0	3.8	7.46e-01	0	29	104	1164443648	89	34864
2026-01-04 00:24:54.37	149.75	3.31	-60.7	-80.1	3.8	7.48e-01	0	29	104	1164443648	89	34883
2026-01-04 00:24:55.36	149.83	3.25	-60.7	-80.0	3.8	7.46e-01	0	29	104	1164443648	89	34754
2026-01-04 00:24:56.37	149.91	3.19	-60.7	-80.0	3.8	7.47e-01	0	29	104	1164443648	89	34853
2026-01-04 00:24:57.37	149.99	3.13	-60.7	-80.0	3.8	7.46e-01	0	29	104	1164443648	89	34800
2026-01-04 00:24:58.37	150.08	3.07	-60.6	-80.0	3.8	7.48e-01	0	29	104	1164443648	89	34722
2026-01-04 00:24:59.37	150.16	3.01	-60.6	-80.0	3.8	7.45e-01	0	29	104	1164443648	89	34786
2026-01-04 00:25:00.37	150.24	2.95	-60.6	-80.0	3.8	7.45e-01	0	29	104	1164443648	89	34700
2026-01-04 00:25:01.37	150.32	2.89	-60.6	-80.0	3.8	7.48e-01	0	29	104	1164443648	89	34601
2026-01-04 00:25:02.38	150.40	2.83	-60.6	-80.0	3.8	7.50e-01	0	29	104	1164443648	89	34732
2026-01-04 00:25:03.38	150.48	2.77	-60.6	-80.0	3.8	7.49e-01	0	29	104	1164443648	89	34671
2026-01-04 00:25:04.38	150.56	2.71	-60.6	-80.0	3.8	7.47e-01	0	29	104	1164443648	89	34650
2026-01-04 00:25:05.37	150.64	2.65	-60.6	-80.0	3.8	7.47e-01	0	29	104	1164443648	89	34595
2026-01-04 00:25:06.37	150.71	2.59	-60.6	-80.0	3.8	7.44e-01	0	29	104	1164443648	89	34551
2026-01-04 00:25:07.37	150.79	2.53	-60.6	-80.0	3.8	7.46e-01	0	29	104	1164443648	89	34578
2026-01-04 00:25:08.37	150.87	2.48	-60.6	-80.0	3.8	7.47e-01	0	29	104	1164443648	89	34560
2026-01-04 00:25:09.37	150.95	2.42	-60.6	-80.0	3.8	7.48e-01	0	29	104	1164443648	89	34532
