passes_logs/2026/01/04/R3.2S_Murmansk/R3.2S_Murmansk__20260104_195840_TY-42_rec.log

#Pass ID: 20260104_195840_TY-42
#Satellite: TY-42
#Configuration: TY-42_900M
#almurnet v.1.7.20251203
#Start time: 2026-01-04 19:58:41

#Version: 2.2.20231116
#Station: R3.2S_Murmansk
#Location: 33.079688 lon 68.888172 lat
#TLE: 1 64048U 25103A   26004.62913194  .00008006  00000-0  38191-3 0 09999
#TLE: 2 64048 097.4104 080.2420 0001638 091.3072 286.8001 15.19153636 35244

#Time	Az	El	Level	Level2	SNR	BER	BlckErr	Temp	State	Recorded	gain1	gain2
2026-01-04 19:58:41.34	189.97	2.06	-58.2	-61.5	6.1	0.00e+00	0	33	0	0	83	20669
2026-01-04 19:58:42.34	190.03	2.12	-58.4	-61.6	6.2	0.00e+00	0	33	104	0	84	19866
2026-01-04 19:58:43.33	190.09	2.19	-58.4	-61.6	6.2	0.00e+00	0	33	104	0	84	19876
2026-01-04 19:58:44.32	190.15	2.26	-58.4	-61.6	6.1	0.00e+00	0	33	104	0	84	19893
2026-01-04 19:58:45.32	190.21	2.32	-58.4	-61.7	6.2	0.00e+00	0	33	104	0	84	19947
2026-01-04 19:58:46.32	190.27	2.39	-58.4	-61.6	6.2	0.00e+00	0	33	104	0	84	19910
2026-01-04 19:58:47.32	190.33	2.46	-58.4	-61.7	6.1	0.00e+00	0	33	104	0	84	19939
2026-01-04 19:58:48.31	190.40	2.52	-58.4	-61.7	6.2	0.00e+00	0	33	104	0	84	19979
2026-01-04 19:58:49.30	190.46	2.59	-58.4	-61.7	6.2	0.00e+00	0	33	104	0	84	20006
2026-01-04 19:58:50.30	190.52	2.66	-58.4	-61.6	6.2	0.00e+00	0	33	104	0	84	19909
2026-01-04 19:58:51.30	190.58	2.73	-58.4	-61.7	6.1	0.00e+00	0	33	104	0	84	19958
2026-01-04 19:58:52.30	190.65	2.80	-58.4	-61.6	6.2	0.00e+00	0	33	104	0	84	19924
2026-01-04 19:58:53.30	190.71	2.86	-58.4	-61.7	6.2	0.00e+00	0	33	104	0	84	19955
2026-01-04 19:58:54.29	190.77	2.93	-58.4	-61.6	6.1	0.00e+00	0	33	104	0	84	19923
2026-01-04 19:58:55.29	190.84	3.00	-58.4	-61.7	6.1	0.00e+00	0	33	104	0	84	19961
2026-01-04 19:58:56.28	190.90	3.07	-58.4	-61.7	6.2	0.00e+00	0	34	104	0	84	19967
2026-01-04 19:58:57.28	190.97	3.14	-58.4	-61.6	6.2	0.00e+00	0	34	104	0	84	19916
2026-01-04 19:58:58.28	191.04	3.21	-58.4	-61.7	6.2	0.00e+00	0	33	104	0	84	19968
2026-01-04 19:58:59.28	191.10	3.28	-58.4	-61.7	6.2	0.00e+00	0	34	104	0	84	19980
2026-01-04 19:59:00.28	191.17	3.35	-58.4	-61.6	6.2	0.00e+00	0	34	104	0	84	19910
2026-01-04 19:59:01.28	191.23	3.42	-58.4	-61.7	6.2	0.00e+00	0	34	104	0	84	19972
2026-01-04 19:59:02.27	191.30	3.49	-58.4	-61.7	6.2	0.00e+00	0	34	104	0	84	20012
2026-01-04 19:59:03.27	191.37	3.56	-58.4	-61.7	6.2	0.00e+00	0	34	104	0	84	20003
2026-01-04 19:59:04.28	191.44	3.63	-58.4	-61.7	6.2	0.00e+00	0	34	104	0	84	19988
2026-01-04 19:59:05.29	191.51	3.70	-58.4	-61.7	6.2	0.00e+00	0	34	104	0	84	19950
2026-01-04 19:59:06.29	191.58	3.77	-58.4	-61.7	6.2	0.00e+00	0	34	104	0	84	19964
2026-01-04 19:59:07.29	191.65	3.84	-58.4	-61.7	6.2	0.00e+00	0	34	104	0	84	20022
2026-01-04 19:59:08.29	191.71	3.92	-58.4	-61.7	6.2	0.00e+00	0	34	104	0	84	19998
2026-01-04 19:59:09.29	191.79	3.99	-58.4	-61.7	6.1	0.00e+00	0	34	104	0	84	19995
2026-01-04 19:59:10.30	191.86	4.06	-58.5	-61.7	6.2	0.00e+00	0	34	104	0	84	19994
2026-01-04 19:59:11.30	191.93	4.13	-58.5	-61.7	6.2	0.00e+00	0	34	104	0	84	20042
2026-01-04 19:59:12.31	192.00	4.21	-58.5	-61.7	6.2	0.00e+00	0	34	104	0	84	20094
2026-01-04 19:59:13.32	192.07	4.28	-58.5	-61.7	6.2	0.00e+00	0	34	104	0	84	20016
2026-01-04 19:59:14.32	192.14	4.35	-58.5	-61.7	6.2	0.00e+00	0	34	104	0	84	20088
2026-01-04 19:59:15.32	192.22	4.43	-58.5	-61.7	6.2	0.00e+00	0	34	104	0	84	20034
2026-01-04 19:59:16.32	192.29	4.50	-58.5	-61.7	6.2	0.00e+00	0	35	104	0	84	20117
2026-01-04 19:59:17.32	192.36	4.57	-58.5	-61.7	6.1	0.00e+00	0	34	104	0	84	20029
2026-01-04 19:59:18.32	192.44	4.65	-58.5	-61.7	6.2	0.00e+00	0	34	104	0	84	20028
2026-01-04 19:59:19.32	192.51	4.72	-58.5	-61.7	6.2	0.00e+00	0	35	104	0	84	20148
2026-01-04 19:59:20.31	192.59	4.80	-58.5	-61.7	6.1	0.00e+00	0	35	104	0	84	20102
2026-01-04 19:59:21.31	192.66	4.87	-58.5	-61.7	6.2	0.00e+00	0	35	104	0	84	20135
2026-01-04 19:59:22.31	192.74	4.95	-58.5	-61.7	6.2	0.00e+00	0	35	104	0	84	20127
2026-01-04 19:59:23.31	192.81	5.02	-58.5	-61.7	6.2	0.00e+00	0	35	104	0	84	20110
2026-01-04 19:59:24.31	192.89	5.10	-58.5	-61.7	6.2	0.00e+00	0	35	104	0	84	20142
2026-01-04 19:59:25.31	192.97	5.17	-58.5	-61.8	6.2	0.00e+00	0	35	104	0	84	20182
2026-01-04 19:59:26.30	193.04	5.25	-58.5	-61.7	6.2	0.00e+00	0	35	104	0	84	20119
2026-01-04 19:59:27.30	193.12	5.32	-58.6	-61.9	6.2	0.00e+00	0	35	104	0	84	20432
2026-01-04 19:59:28.29	193.20	5.40	-58.6	-61.8	6.2	0.00e+00	0	35	104	0	84	20335
2026-01-04 19:59:29.28	193.28	5.48	-55.1	-56.6	7.0	0.00e+00	0	35	104	0	76	17604
2026-01-04 19:59:30.29	193.36	5.55	-55.1	-56.5	7.0	0.00e+00	0	35	104	0	76	17543
2026-01-04 19:59:31.28	193.44	5.63	-54.1	-55.4	7.5	0.00e+00	0	35	104	0	75	16255
2026-01-04 19:59:32.28	193.52	5.71	-51.6	-52.4	8.6	0.00e+00	0	35	104	0	70	15429
2026-01-04 19:59:33.28	193.60	5.78	-49.5	-50.1	9.8	0.00e+00	5511	37	0	41943040	66	14811
2026-01-04 19:59:34.28	193.68	5.86	-47.6	-48.1	10.6	2.55e-01	28	37	0	159383552	62	14860
2026-01-04 19:59:35.27	193.76	5.94	-46.3	-46.7	11.2	2.55e-01	0	36	0	268435456	59	15032
2026-01-04 19:59:36.27	193.85	6.02	-46.6	-47.0	11.1	1.31e-01	0	37	0	385875968	59	15627
2026-01-04 19:59:37.26	193.93	6.10	-46.3	-46.7	11.3	1.31e-01	0	37	0	494927872	59	15010
2026-01-04 19:59:38.26	194.01	6.18	-45.0	-45.3	11.8	1.31e-01	0	37	0	603979776	57	14318
2026-01-04 19:59:39.26	194.10	6.26	-44.0	-44.3	12.2	6.99e-02	0	37	0	721420288	55	14303
2026-01-04 19:59:40.26	194.18	6.34	-43.4	-43.7	12.4	6.99e-02	0	37	0	830472192	54	14176
2026-01-04 19:59:41.25	194.27	6.41	-43.0	-43.3	12.4	1.80e-02	0	37	0	947912704	53	14377
2026-01-04 19:59:42.24	194.35	6.49	-42.8	-43.1	12.4	1.80e-02	0	37	0	1048576000	52	14895
2026-01-04 19:59:43.23	194.44	6.57	-42.8	-43.1	12.4	1.80e-02	0	37	0	1166016512	52	14834
2026-01-04 19:59:44.22	194.52	6.65	-42.9	-43.2	12.4	1.80e-02	0	37	0	1275068416	52	14968
2026-01-04 19:59:45.21	194.61	6.73	-42.8	-43.2	12.4	1.08e-02	0	37	0	1392508928	52	14963
2026-01-04 19:59:46.21	194.70	6.82	-42.8	-43.1	12.4	1.08e-02	0	37	0	1501560832	52	14840
2026-01-04 19:59:47.19	194.79	6.90	-42.9	-43.2	12.4	1.08e-02	0	37	0	1610612736	52	14972
2026-01-04 19:59:48.19	194.88	6.98	-42.7	-43.0	12.4	1.21e-02	0	37	0	1719664640	52	14619
2026-01-04 19:59:49.18	194.96	7.06	-42.7	-42.9	12.5	1.21e-02	0	37	0	1837105152	52	14597
2026-01-04 19:59:50.18	195.06	7.14	-42.6	-42.9	12.5	1.11e-02	0	37	0	1946157056	52	14578
2026-01-04 19:59:51.17	195.15	7.22	-42.5	-42.8	12.5	1.11e-02	0	38	0	2055208960	52	14417
2026-01-04 19:59:52.16	195.24	7.31	-42.4	-42.7	12.6	1.11e-02	0	38	0	2172649472	52	14213
2026-01-04 19:59:53.15	195.33	7.39	-42.5	-42.8	12.6	9.51e-03	0	38	0	2281701376	52	14351
2026-01-04 19:59:54.15	195.42	7.47	-42.5	-42.8	12.6	9.51e-03	0	38	0	2399141888	52	14293
2026-01-04 19:59:55.14	195.51	7.56	-42.5	-42.8	12.6	8.91e-03	0	38	0	2499805184	52	14341
2026-01-04 19:59:56.13	195.61	7.64	-42.4	-42.6	12.6	8.91e-03	0	38	0	2617245696	52	14110
2026-01-04 19:59:57.12	195.70	7.72	-42.3	-42.6	12.6	8.16e-03	0	38	0	2726297600	51	14887
2026-01-04 19:59:58.12	195.80	7.81	-42.3	-42.6	12.6	8.16e-03	0	38	0	2843738112	51	14825
2026-01-04 19:59:59.11	195.89	7.89	-42.3	-42.6	12.6	8.16e-03	0	38	0	2952790016	51	14855
2026-01-04 20:00:00.12	195.99	7.98	-42.4	-42.6	12.5	7.46e-03	0	38	0	3061841920	51	14939
2026-01-04 20:00:01.11	196.09	8.07	-42.3	-42.5	12.6	7.46e-03	0	38	0	3179282432	51	14755
2026-01-04 20:00:02.10	196.18	8.15	-42.2	-42.5	12.6	7.46e-03	0	38	0	3288334336	51	14725
2026-01-04 20:00:03.10	196.28	8.24	-42.2	-42.5	12.6	7.12e-03	0	38	0	3405774848	51	14737
2026-01-04 20:00:04.10	196.38	8.32	-42.0	-42.3	12.7	7.12e-03	0	38	0	3514826752	51	14323
2026-01-04 20:00:05.10	196.48	8.41	-41.9	-42.2	12.7	5.76e-03	0	38	0	3632267264	51	14254
2026-01-04 20:00:06.09	196.58	8.50	-41.9	-42.2	12.7	5.76e-03	0	38	0	3741319168	51	14233
2026-01-04 20:00:07.10	196.69	8.59	-41.9	-42.2	12.7	5.76e-03	0	38	0	3850371072	51	14242
2026-01-04 20:00:08.10	196.79	8.68	-41.9	-42.2	12.7	5.07e-03	0	38	0	3967811584	51	14245
2026-01-04 20:00:09.09	196.89	8.76	-41.8	-42.1	12.7	5.07e-03	0	38	0	4076863488	50	14880
2026-01-04 20:00:10.09	197.00	8.85	-41.9	-42.1	12.7	5.07e-03	0	38	0	4185915392	50	14946
2026-01-04 20:00:11.09	197.10	8.94	-41.9	-42.1	12.7	4.95e-03	0	38	0	4294967296	50	14933
2026-01-04 20:00:12.09	197.21	9.03	-41.9	-42.2	12.7	4.95e-03	0	38	0	4412407808	50	14951
2026-01-04 20:00:13.09	197.31	9.12	-41.9	-42.2	12.7	4.63e-03	0	39	0	4529848320	50	15095
2026-01-04 20:00:14.10	197.42	9.21	-41.9	-42.2	12.7	4.63e-03	0	39	0	4638900224	50	15061
2026-01-04 20:00:15.09	197.53	9.30	-41.8	-42.1	12.7	4.63e-03	0	38	0	4747952128	50	14872
2026-01-04 20:00:16.08	197.64	9.39	-41.8	-42.0	12.7	4.53e-03	0	38	0	4857004032	50	14769
2026-01-04 20:00:17.08	197.75	9.49	-41.7	-42.0	12.8	4.53e-03	0	38	0	4974444544	50	14618
2026-01-04 20:00:18.08	197.86	9.58	-41.7	-41.9	12.8	3.97e-03	0	39	0	5083496448	50	14555
2026-01-04 20:00:19.08	197.97	9.67	-41.7	-42.0	12.8	3.97e-03	0	39	0	5200936960	50	14608
2026-01-04 20:00:20.08	198.08	9.76	-41.6	-41.9	12.8	3.97e-03	0	39	0	5309988864	50	14444
2026-01-04 20:00:21.07	198.19	9.86	-41.6	-41.9	12.8	3.69e-03	0	39	0	5419040768	50	14585
2026-01-04 20:00:22.06	198.30	9.95	-41.5	-41.7	12.9	3.69e-03	0	39	0	5536481280	50	14248
2026-01-04 20:00:23.05	198.42	10.04	-41.5	-41.8	12.8	3.69e-03	0	39	0	5645533184	50	14307
2026-01-04 20:00:24.05	198.53	10.14	-41.5	-41.8	12.9	3.15e-03	0	39	0	5762973696	50	14392
2026-01-04 20:00:25.04	198.65	10.23	-41.7	-41.9	12.8	3.15e-03	0	39	0	5872025600	50	14593
2026-01-04 20:00:26.03	198.77	10.32	-41.5	-41.8	12.9	3.15e-03	0	39	0	5981077504	50	14280
2026-01-04 20:00:27.03	198.88	10.42	-41.3	-41.5	12.8	3.11e-03	0	39	0	6090129408	49	14765
2026-01-04 20:00:28.02	199.00	10.51	-41.2	-41.5	12.9	3.11e-03	0	39	0	6207569920	49	14618
2026-01-04 20:00:29.02	199.12	10.61	-41.1	-41.4	12.9	3.11e-03	0	39	0	6316621824	49	14535
2026-01-04 20:00:30.02	199.24	10.71	-41.1	-41.4	13.0	2.38e-03	0	39	0	6425673728	49	14483
2026-01-04 20:00:31.01	199.36	10.80	-41.2	-41.4	13.0	2.38e-03	0	39	0	6543114240	49	14576
2026-01-04 20:00:32.01	199.49	10.90	-41.1	-41.3	13.0	2.38e-03	0	39	0	6652166144	49	14426
2026-01-04 20:00:33.00	199.61	11.00	-41.0	-41.2	13.0	1.63e-03	0	39	0	6769606656	49	14241
2026-01-04 20:00:34.00	199.73	11.10	-40.9	-41.2	13.0	1.63e-03	0	39	0	6878658560	49	14212
2026-01-04 20:00:35.00	199.86	11.19	-41.1	-41.3	13.0	1.46e-03	0	39	0	6996099072	49	14429
2026-01-04 20:00:36.00	199.98	11.29	-40.9	-41.2	13.0	1.46e-03	0	39	0	7105150976	49	14165
2026-01-04 20:00:37.00	200.11	11.39	-40.7	-41.0	13.0	1.46e-03	0	39	0	7214202880	48	14706
2026-01-04 20:00:38.00	200.24	11.49	-40.7	-41.0	13.0	1.32e-03	0	39	0	7331643392	48	14742
2026-01-04 20:00:38.99	200.37	11.59	-40.8	-41.0	13.0	1.32e-03	0	39	0	7440695296	48	14741
2026-01-04 20:00:39.99	200.50	11.69	-40.6	-40.9	13.0	1.32e-03	0	39	0	7549747200	48	14490
2026-01-04 20:00:40.98	200.63	11.79	-40.6	-40.9	13.0	1.34e-03	0	39	0	7658799104	48	14470
2026-01-04 20:00:41.98	200.76	11.89	-40.6	-40.9	13.1	1.34e-03	0	40	0	7776239616	48	14525
2026-01-04 20:00:42.98	200.90	12.00	-40.9	-41.1	13.0	1.34e-03	0	39	0	7885291520	48	14932
2026-01-04 20:00:43.98	201.03	12.10	-40.5	-40.8	13.1	1.44e-03	0	40	0	8002732032	48	14275
2026-01-04 20:00:44.98	201.17	12.20	-40.4	-40.7	13.1	1.44e-03	0	40	0	8111783936	48	14214
2026-01-04 20:00:45.97	201.30	12.30	-40.4	-40.7	13.1	1.44e-03	0	40	0	8220835840	48	14143
2026-01-04 20:00:46.98	201.44	12.41	-40.4	-40.7	13.1	3.15e-03	0	40	0	8338276352	48	14187
2026-01-04 20:00:47.97	201.58	12.51	-39.6	-39.9	13.0	3.15e-03	0	39	0	8447328256	46	14561
2026-01-04 20:00:48.95	201.72	12.62	-39.7	-39.9	13.0	3.24e-03	0	40	0	8564768768	46	14598
2026-01-04 20:00:49.95	201.86	12.72	-39.6	-39.9	13.0	3.24e-03	0	40	0	8673820672	46	14472
2026-01-04 20:00:50.95	202.01	12.83	-39.7	-39.9	13.0	3.24e-03	0	40	0	8782872576	46	14587
2026-01-04 20:00:51.94	202.15	12.93	-39.8	-40.0	13.0	2.65e-03	0	40	0	8900313088	46	14743
2026-01-04 20:00:52.94	202.29	13.04	-39.7	-39.9	13.0	2.65e-03	0	40	0	9009364992	46	14548
2026-01-04 20:00:53.94	202.44	13.15	-39.7	-40.0	13.0	2.65e-03	0	40	0	9118416896	46	14608
2026-01-04 20:00:54.93	202.59	13.25	-39.6	-39.9	13.0	2.86e-03	0	40	0	9227468800	46	14475
2026-01-04 20:00:55.93	202.74	13.36	-39.6	-39.9	13.0	2.86e-03	0	40	0	9344909312	46	14546
2026-01-04 20:00:56.93	202.89	13.47	-39.6	-39.9	13.0	2.89e-03	0	40	0	9453961216	46	14543
2026-01-04 20:00:57.93	203.04	13.58	-39.5	-39.8	13.1	2.89e-03	0	40	0	9571401728	46	14308
2026-01-04 20:00:58.93	203.19	13.69	-39.5	-39.8	13.1	2.89e-03	0	40	0	9680453632	46	14383
2026-01-04 20:00:59.93	203.34	13.80	-39.4	-39.7	13.1	2.86e-03	0	40	0	9789505536	46	14157
2026-01-04 20:01:00.93	203.50	13.91	-39.3	-39.5	13.0	2.86e-03	0	40	0	9906946048	45	14729
2026-01-04 20:01:01.93	203.66	14.02	-39.2	-39.5	13.1	2.86e-03	0	40	0	10015997952	45	14693
2026-01-04 20:01:02.92	203.81	14.13	-39.3	-39.5	13.1	2.13e-03	0	40	0	10133438464	45	14724
2026-01-04 20:01:03.90	203.97	14.24	-39.2	-39.4	13.1	2.13e-03	0	40	0	10242490368	45	14577
2026-01-04 20:01:04.91	204.13	14.35	-39.1	-39.4	13.1	2.13e-03	0	40	0	10359930880	45	14461
2026-01-04 20:01:05.91	204.30	14.46	-39.0	-39.3	13.2	1.85e-03	0	40	0	10468982784	45	14373
2026-01-04 20:01:06.90	204.46	14.58	-39.1	-39.3	13.1	1.85e-03	0	40	0	10578034688	45	14419
2026-01-04 20:01:07.90	204.62	14.69	-38.9	-39.2	13.2	1.85e-03	0	40	0	10695475200	45	14161
2026-01-04 20:01:08.89	204.79	14.80	-38.8	-39.1	13.1	1.85e-03	0	40	0	10796138496	44	14900
2026-01-04 20:01:09.89	204.96	14.92	-38.9	-39.2	13.1	1.85e-03	0	40	0	10913579008	44	14948
2026-01-04 20:01:10.88	205.12	15.03	-38.7	-39.0	13.2	1.58e-03	0	40	0	11022630912	44	14689
2026-01-04 20:01:11.88	205.29	15.15	-38.7	-39.0	13.2	1.58e-03	0	40	0	11140071424	44	14619
2026-01-04 20:01:12.88	205.47	15.26	-38.7	-39.0	13.2	1.87e-03	0	40	0	11249123328	44	14726
2026-01-04 20:01:13.87	205.64	15.38	-38.6	-38.9	13.2	1.87e-03	0	40	0	11366563840	44	14476
2026-01-04 20:01:14.87	205.82	15.50	-38.6	-38.8	13.2	1.87e-03	0	40	0	11475615744	44	14410
2026-01-04 20:01:15.86	205.99	15.61	-38.5	-38.8	13.2	1.03e-03	0	40	0	11584667648	44	14308
2026-01-04 20:01:16.86	206.17	15.73	-38.5	-38.8	13.2	1.03e-03	0	40	0	11702108160	44	14371
2026-01-04 20:01:17.85	206.35	15.85	-38.5	-38.8	13.2	1.03e-03	0	40	0	11811160064	44	14385
2026-01-04 20:01:18.84	206.53	15.97	-38.4	-38.7	13.3	1.15e-03	0	40	0	11928600576	44	14167
2026-01-04 20:01:19.85	206.72	16.09	-38.3	-38.6	13.2	1.15e-03	0	40	0	12037652480	43	14828
2026-01-04 20:01:20.84	206.90	16.21	-38.3	-38.5	13.3	1.01e-03	0	40	0	12146704384	43	14766
2026-01-04 20:01:21.82	207.08	16.33	-38.3	-38.5	13.2	1.01e-03	0	40	0	12255756288	43	14765
2026-01-04 20:01:22.81	207.27	16.45	-38.2	-38.4	13.3	9.25e-04	0	40	0	12364808192	43	14592
2026-01-04 20:01:23.82	207.46	16.57	-38.2	-38.4	13.3	9.25e-04	0	40	0	12482248704	43	14573
2026-01-04 20:01:24.82	207.65	16.69	-38.1	-38.4	13.3	9.25e-04	0	40	0	12591300608	43	14508
2026-01-04 20:01:25.81	207.85	16.81	-38.1	-38.4	13.3	9.25e-04	0	40	0	12708741120	43	14476
2026-01-04 20:01:26.81	208.04	16.94	-38.0	-38.3	13.3	1.41e-03	0	40	0	12817793024	43	14324
2026-01-04 20:01:27.80	208.24	17.06	-38.0	-38.2	13.4	1.41e-03	0	40	0	12935233536	43	14250
2026-01-04 20:01:28.79	208.44	17.18	-38.0	-38.3	13.4	1.41e-03	0	40	0	13044285440	43	14277
2026-01-04 20:01:29.79	208.64	17.31	-38.1	-38.4	13.3	1.16e-03	0	40	0	13153337344	43	14464
2026-01-04 20:01:30.77	208.84	17.43	-38.0	-38.2	13.4	1.16e-03	0	40	0	13262389248	43	14203
2026-01-04 20:01:31.77	209.04	17.56	-38.0	-38.2	13.4	1.16e-03	0	40	0	13379829760	43	14231
2026-01-04 20:01:32.76	209.25	17.68	-38.0	-38.2	13.4	6.01e-04	0	40	0	13488881664	43	14236
2026-01-04 20:01:33.75	209.46	17.81	-37.8	-38.0	13.4	6.01e-04	0	40	0	13597933568	42	14742
2026-01-04 20:01:34.74	209.66	17.93	-37.8	-38.0	13.3	6.01e-04	0	40	0	13715374080	42	14767
2026-01-04 20:01:35.75	209.88	18.06	-37.7	-37.9	13.4	5.20e-04	0	40	0	13824425984	42	14589
2026-01-04 20:01:36.74	210.09	18.19	-37.6	-37.9	13.4	5.20e-04	0	40	0	13941866496	42	14545
2026-01-04 20:01:37.74	210.31	18.32	-37.7	-37.9	13.4	5.20e-04	0	40	0	14042529792	42	14582
2026-01-04 20:01:38.74	210.53	18.45	-37.6	-37.8	13.4	5.39e-04	0	40	0	14159970304	42	14428
2026-01-04 20:01:39.73	210.75	18.58	-37.4	-37.6	13.5	5.39e-04	0	40	0	14269022208	42	14086
2026-01-04 20:01:40.73	210.97	18.71	-37.3	-37.6	13.4	5.39e-04	0	40	0	14386462720	41	14813
2026-01-04 20:01:41.73	211.20	18.84	-37.2	-37.5	13.4	4.86e-04	0	40	0	14495514624	41	14660
2026-01-04 20:01:42.73	211.43	18.97	-37.3	-37.5	13.4	4.86e-04	0	41	0	14604566528	41	14726
2026-01-04 20:01:43.72	211.65	19.10	-37.1	-37.4	13.5	2.62e-04	0	41	0	14722007040	41	14544
2026-01-04 20:01:44.72	211.89	19.23	-37.2	-37.4	13.5	2.62e-04	0	41	0	14831058944	41	14559
2026-01-04 20:01:45.71	212.12	19.37	-37.1	-37.3	13.5	2.62e-04	0	41	0	14948499456	41	14391
2026-01-04 20:01:46.71	212.36	19.50	-37.1	-37.4	13.5	3.15e-04	0	40	0	15057551360	41	14466
2026-01-04 20:01:47.70	212.59	19.63	-36.9	-37.1	13.5	3.15e-04	0	40	0	15174991872	41	14082
2026-01-04 20:01:48.70	212.83	19.77	-36.7	-37.0	13.5	5.58e-04	0	41	0	15284043776	40	14704
2026-01-04 20:01:49.69	213.08	19.90	-36.8	-37.1	13.5	5.58e-04	0	41	0	15393095680	40	14805
2026-01-04 20:01:50.69	213.32	20.03	-36.7	-37.0	13.5	5.58e-04	0	41	0	15510536192	40	14685
2026-01-04 20:01:51.69	213.57	20.17	-36.8	-37.1	13.5	2.10e-04	0	40	0	15611199488	40	14812
2026-01-04 20:01:52.68	213.82	20.30	-36.8	-37.1	13.5	2.10e-04	0	41	0	15728640000	40	14787
2026-01-04 20:01:53.67	214.07	20.44	-36.8	-37.1	13.5	2.10e-04	0	41	0	15837691904	40	14837
2026-01-04 20:01:54.67	214.33	20.58	-36.9	-37.2	13.5	2.10e-04	0	41	0	15955132416	40	14968
2026-01-04 20:01:55.67	214.59	20.71	-36.6	-36.9	13.6	2.10e-04	0	41	0	16064184320	40	14442
2026-01-04 20:01:56.66	214.84	20.85	-36.4	-36.7	13.6	1.14e-04	0	41	0	16181624832	40	14227
2026-01-04 20:01:57.66	215.11	20.99	-36.5	-36.8	13.6	1.14e-04	0	41	0	16290676736	40	14329
2026-01-04 20:01:58.66	215.38	21.13	-36.5	-36.7	13.6	1.14e-04	0	41	0	16399728640	40	14207
2026-01-04 20:01:59.66	215.64	21.26	-36.3	-36.6	13.5	2.00e-04	0	41	0	16517169152	39	14881
2026-01-04 20:02:00.65	215.91	21.40	-36.2	-36.4	13.6	2.00e-04	0	41	0	16626221056	39	14551
2026-01-04 20:02:01.64	216.19	21.54	-36.2	-36.4	13.6	1.95e-04	0	41	0	16735272960	39	14544
2026-01-04 20:02:02.64	216.46	21.68	-36.2	-36.5	13.6	1.95e-04	0	41	0	16844324864	39	14643
2026-01-04 20:02:03.64	216.74	21.82	-36.2	-36.4	13.6	1.95e-04	0	41	0	16961765376	39	14533
2026-01-04 20:02:04.64	217.03	21.96	-36.0	-36.3	13.6	8.58e-05	0	41	0	17070817280	39	14318
2026-01-04 20:02:05.63	217.31	22.10	-36.1	-36.4	13.6	8.58e-05	0	41	0	17188257792	39	14474
2026-01-04 20:02:06.62	217.60	22.24	-36.0	-36.2	13.6	8.58e-05	0	41	0	17297309696	39	14274
2026-01-04 20:02:07.61	217.88	22.38	-35.9	-36.1	13.7	1.10e-04	0	41	0	17406361600	39	14078
2026-01-04 20:02:08.61	218.18	22.52	-35.8	-36.1	13.6	1.10e-04	0	41	0	17523802112	38	14788
2026-01-04 20:02:09.61	218.48	22.66	-35.9	-36.1	13.6	1.10e-04	0	41	0	17632854016	38	14928
2026-01-04 20:02:10.60	218.77	22.80	-35.9	-36.2	13.6	1.05e-04	0	41	0	17750294528	38	14987
2026-01-04 20:02:11.60	219.08	22.95	-35.7	-35.9	13.6	1.05e-04	0	41	0	17859346432	38	14563
2026-01-04 20:02:12.60	219.38	23.09	-35.7	-36.0	13.6	1.05e-04	0	41	0	17968398336	38	14634
2026-01-04 20:02:13.59	219.69	23.23	-35.7	-35.9	13.6	7.62e-05	0	41	0	18085838848	38	14536
2026-01-04 20:02:14.60	220.01	23.37	-35.6	-35.9	13.6	7.62e-05	0	41	0	18194890752	38	14465
2026-01-04 20:02:15.60	220.32	23.52	-35.6	-35.9	13.7	7.62e-05	0	41	0	18312331264	38	14483
2026-01-04 20:02:16.60	220.64	23.66	-35.6	-35.9	13.7	7.62e-05	0	41	0	18421383168	38	14496
2026-01-04 20:02:17.60	220.96	23.80	-35.4	-35.7	13.7	1.24e-04	0	41	0	18538823680	38	14192
2026-01-04 20:02:18.59	221.28	23.95	-35.4	-35.7	13.7	1.24e-04	0	41	0	18647875584	38	14113
2026-01-04 20:02:19.60	221.62	24.09	-35.5	-35.8	13.7	6.19e-05	0	41	0	18756927488	38	14362
2026-01-04 20:02:20.59	221.94	24.23	-35.3	-35.5	13.6	6.19e-05	0	41	0	18874368000	37	14742
2026-01-04 20:02:21.59	222.28	24.38	-35.2	-35.5	13.7	6.19e-05	0	41	0	18975031296	37	14702
2026-01-04 20:02:22.60	222.62	24.52	-35.3	-35.5	13.7	6.19e-05	0	41	0	19100860416	37	14752
2026-01-04 20:02:23.60	222.96	24.67	-35.2	-35.4	13.7	7.15e-05	0	41	0	19209912320	37	14605
2026-01-04 20:02:24.59	223.31	24.81	-35.1	-35.3	13.7	7.15e-05	0	41	0	19318964224	37	14407
2026-01-04 20:02:25.60	223.66	24.95	-35.1	-35.4	13.7	7.15e-05	0	41	0	19436404736	37	14470
2026-01-04 20:02:26.59	224.01	25.10	-35.0	-35.2	13.8	3.33e-05	0	41	0	19545456640	37	14236
2026-01-04 20:02:27.59	224.36	25.24	-35.0	-35.3	13.7	3.33e-05	0	41	0	19654508544	37	14307
2026-01-04 20:02:28.59	224.72	25.38	-35.1	-35.3	13.7	3.33e-05	0	41	0	19763560448	37	14402
2026-01-04 20:02:29.59	225.09	25.53	-35.0	-35.2	13.8	3.81e-05	0	41	0	19881000960	37	14253
2026-01-04 20:02:30.59	225.45	25.67	-34.9	-35.2	13.7	3.81e-05	0	41	0	19990052864	37	14179
2026-01-04 20:02:31.59	225.82	25.81	-34.8	-35.0	13.7	5.72e-05	0	41	0	20107493376	36	14747
2026-01-04 20:02:32.58	226.19	25.95	-34.8	-35.1	13.7	5.72e-05	0	41	0	20216545280	36	14840
2026-01-04 20:02:33.58	226.57	26.09	-34.8	-35.1	13.7	5.72e-05	0	41	0	20325597184	36	14791
2026-01-04 20:02:34.57	226.95	26.24	-34.6	-34.8	13.7	2.38e-05	0	41	0	20443037696	36	14437
2026-01-04 20:02:35.57	227.33	26.38	-34.5	-34.8	13.8	2.38e-05	0	41	0	20552089600	36	14373
2026-01-04 20:02:36.56	227.72	26.52	-34.5	-34.8	13.8	2.38e-05	0	41	0	20669530112	36	14367
2026-01-04 20:02:37.55	228.11	26.66	-34.5	-34.7	13.8	2.38e-05	0	41	0	20778582016	36	14248
2026-01-04 20:02:38.55	228.50	26.80	-34.4	-34.7	13.8	2.38e-05	0	41	0	20887633920	36	14195
2026-01-04 20:02:39.55	228.90	26.94	-34.4	-34.7	13.8	2.38e-05	0	41	0	21005074432	36	14178
2026-01-04 20:02:40.55	229.30	27.07	-34.5	-34.8	13.8	2.38e-05	0	40	0	21114126336	36	14363
2026-01-04 20:02:41.55	229.71	27.21	-34.4	-34.6	13.8	2.38e-05	0	41	0	21231566848	36	14089
2026-01-04 20:02:42.54	230.12	27.35	-31.7	-32.0	13.7	2.38e-05	0	41	0	21332230144	30	14624
2026-01-04 20:02:43.55	230.54	27.49	-31.7	-31.9	13.7	2.38e-05	0	41	0	21458059264	30	14596
2026-01-04 20:02:44.54	230.95	27.62	-31.7	-32.0	13.7	2.38e-05	0	41	0	21558722560	30	14622
2026-01-04 20:02:45.54	231.37	27.76	-31.6	-31.8	13.7	7.62e-05	0	41	0	21676163072	30	14376
2026-01-04 20:02:46.54	231.80	27.90	-31.5	-31.8	13.7	7.62e-05	0	41	0	21785214976	30	14405
2026-01-04 20:02:47.53	232.23	28.03	-31.6	-31.9	13.7	7.62e-05	0	41	0	21902655488	30	14496
2026-01-04 20:02:48.53	232.66	28.16	-31.5	-31.7	13.7	1.00e-04	0	41	0	22011707392	30	14274
2026-01-04 20:02:49.53	233.10	28.30	-31.5	-31.8	13.7	1.00e-04	0	41	0	22120759296	30	14323
2026-01-04 20:02:50.52	233.54	28.43	-31.4	-31.7	13.8	1.00e-04	0	41	0	22238199808	30	14131
2026-01-04 20:02:51.52	233.98	28.56	-31.5	-31.7	13.8	1.10e-04	0	41	0	22347251712	30	14270
2026-01-04 20:02:52.52	234.43	28.69	-31.4	-31.7	13.8	1.10e-04	0	41	0	22464692224	30	14189
2026-01-04 20:02:53.50	234.88	28.81	-31.4	-31.7	13.8	1.10e-04	0	41	0	22573744128	30	14157
2026-01-04 20:02:54.49	235.33	28.94	-31.2	-31.5	13.7	7.15e-05	0	41	0	22682796032	29	14691
2026-01-04 20:02:55.49	235.79	29.07	-31.2	-31.5	13.7	7.15e-05	0	41	0	22800236544	29	14701
2026-01-04 20:02:56.49	236.26	29.19	-31.2	-31.5	13.8	7.15e-05	0	41	0	22909288448	29	14627
2026-01-04 20:02:57.49	236.72	29.32	-31.2	-31.5	13.7	5.24e-05	0	41	0	23018340352	29	14721
2026-01-04 20:02:58.49	237.20	29.44	-31.1	-31.4	13.8	5.24e-05	0	41	0	23127392256	29	14490
2026-01-04 20:02:59.48	237.67	29.56	-31.1	-31.4	13.8	5.24e-05	0	41	0	23244832768	29	14569
2026-01-04 20:03:00.47	238.15	29.68	-31.3	-31.6	13.7	9.53e-05	0	41	0	23353884672	29	14779
2026-01-04 20:03:01.46	238.62	29.79	-31.1	-31.4	13.8	9.53e-05	0	41	0	23471325184	29	14486
2026-01-04 20:03:02.46	239.11	29.91	-31.0	-31.3	13.8	6.19e-05	0	41	0	23580377088	29	14369
2026-01-04 20:03:03.46	239.60	30.03	-31.1	-31.4	13.8	6.19e-05	0	41	0	23689428992	29	14455
2026-01-04 20:03:04.45	240.10	30.14	-31.1	-31.3	13.8	6.19e-05	0	41	0	23806869504	29	14424
2026-01-04 20:03:05.45	240.59	30.25	-31.1	-31.3	13.8	3.81e-05	0	41	0	23915921408	29	14378
2026-01-04 20:03:06.44	241.09	30.36	-31.0	-31.3	13.8	3.81e-05	0	41	0	24033361920	29	14371
2026-01-04 20:03:07.44	241.60	30.47	-31.1	-31.3	13.8	3.81e-05	0	41	0	24134025216	29	14382
2026-01-04 20:03:08.44	242.11	30.58	-30.9	-31.2	13.8	5.72e-05	0	41	0	24251465728	29	14181
2026-01-04 20:03:09.43	242.62	30.68	-30.8	-31.1	13.7	5.72e-05	0	41	0	24360517632	28	14916
2026-01-04 20:03:10.43	243.13	30.78	-30.7	-31.0	13.8	5.72e-05	0	41	0	24477958144	28	14678
2026-01-04 20:03:11.42	243.65	30.88	-30.7	-31.0	13.8	4.29e-05	0	41	0	24587010048	28	14764
2026-01-04 20:03:12.41	244.17	30.98	-30.7	-30.9	13.8	4.29e-05	0	41	0	24696061952	28	14599
2026-01-04 20:03:13.42	244.70	31.08	-30.6	-30.9	13.8	4.29e-05	0	41	0	24813502464	28	14470
2026-01-04 20:03:14.42	245.23	31.17	-30.7	-31.0	13.8	1.90e-05	0	41	0	24922554368	28	14623
2026-01-04 20:03:15.41	245.76	31.27	-30.6	-30.9	13.8	1.90e-05	0	41	0	25039994880	28	14529
2026-01-04 20:03:16.41	246.30	31.36	-30.5	-30.8	13.8	2.38e-05	0	41	0	25149046784	28	14373
2026-01-04 20:03:17.29	246.77	31.43	-30.6	-30.8	13.8	2.38e-05	0	41	0	25258098688	28	14407
2026-01-04 20:03:18.44	247.40	31.53	-30.5	-30.7	13.8	2.38e-05	0	41	0	25392316416	28	14268
2026-01-04 20:03:19.29	247.86	31.60	-30.6	-30.9	13.8	2.38e-05	0	41	0	25484591104	28	14461
2026-01-04 20:03:20.43	248.49	31.70	-30.5	-30.8	13.8	3.81e-05	0	41	0	25610420224	28	14373
2026-01-04 20:03:21.28	248.96	31.76	-30.5	-30.8	13.8	3.81e-05	0	41	0	25702694912	28	14353
2026-01-04 20:03:22.42	249.59	31.85	-30.5	-30.8	13.8	5.24e-05	0	41	0	25836912640	28	14381
2026-01-04 20:03:23.27	250.06	31.91	-30.6	-30.9	13.8	5.24e-05	0	41	0	25929187328	28	14445
2026-01-04 20:03:24.41	250.70	31.99	-30.5	-30.8	13.8	5.24e-05	0	41	0	26063405056	28	14343
2026-01-04 20:03:25.27	251.19	32.05	-30.4	-30.7	13.8	6.67e-05	0	41	0	26155679744	28	14160
2026-01-04 20:03:26.41	251.83	32.13	-30.5	-30.8	13.8	6.67e-05	0	41	0	26289897472	28	14310
2026-01-04 20:03:27.27	252.32	32.18	-30.3	-30.6	13.7	3.81e-05	0	41	0	26382172160	27	14905
2026-01-04 20:03:28.41	252.97	32.25	-30.5	-30.7	13.7	3.81e-05	0	41	0	26508001280	27	15070
2026-01-04 20:03:29.26	253.45	32.30	-30.5	-30.7	13.7	3.81e-05	0	41	0	26608664576	27	15067
2026-01-04 20:03:30.40	254.11	32.36	-30.4	-30.7	13.7	3.33e-05	0	41	0	26734493696	27	14952
2026-01-04 20:03:31.25	254.60	32.41	-30.4	-30.6	13.7	3.33e-05	0	41	0	26835156992	27	14946
2026-01-04 20:03:32.39	255.26	32.46	-30.4	-30.7	13.7	3.33e-05	0	41	0	26960986112	27	15022
2026-01-04 20:03:33.25	255.75	32.50	-30.5	-30.7	13.7	4.76e-05	0	41	0	27053260800	27	15063
2026-01-04 20:03:34.38	256.41	32.55	-30.4	-30.6	13.7	4.76e-05	0	41	0	27187478528	27	14900
2026-01-04 20:03:35.24	256.91	32.58	-30.4	-30.6	13.7	4.76e-05	0	41	0	27279753216	27	14924
2026-01-04 20:03:36.38	257.58	32.63	-30.4	-30.6	13.7	3.81e-05	0	41	0	27405582336	27	14917
2026-01-04 20:03:37.24	258.08	32.66	-30.4	-30.7	13.7	3.81e-05	0	41	0	27506245632	27	15008
2026-01-04 20:03:38.37	258.74	32.69	-30.4	-30.6	13.7	2.86e-05	0	41	0	27632074752	27	14931
2026-01-04 20:03:39.23	259.25	32.71	-30.3	-30.6	13.7	2.86e-05	0	41	0	27724349440	27	14817
2026-01-04 20:03:40.37	259.92	32.74	-30.5	-30.7	13.7	2.86e-05	0	41	0	27858567168	27	15070
2026-01-04 20:03:41.23	260.43	32.76	-30.4	-30.7	13.7	2.86e-05	0	41	0	27959230464	27	15014
2026-01-04 20:03:42.37	261.10	32.78	-30.5	-30.8	13.6	2.38e-05	0	41	0	28076670976	27	15163
2026-01-04 20:03:43.22	261.60	32.79	-30.3	-30.6	13.7	2.38e-05	0	41	0	28177334272	27	14860
2026-01-04 20:03:44.37	262.28	32.81	-30.4	-30.7	13.6	9.50e-06	0	41	0	28303163392	27	14963
2026-01-04 20:03:45.22	262.79	32.82	-30.4	-30.7	13.6	9.50e-06	0	41	0	28403826688	27	14969
2026-01-04 20:03:46.37	263.47	32.82	-30.5	-30.8	13.7	9.50e-06	0	41	0	28529655808	27	15130
2026-01-04 20:03:47.22	263.97	32.83	-30.4	-30.7	13.6	9.50e-06	0	41	0	28621930496	27	15059
2026-01-04 20:03:48.37	264.65	32.82	-30.4	-30.7	13.6	9.50e-06	0	41	0	28756148224	27	14949
2026-01-04 20:03:49.22	265.16	32.82	-30.4	-30.7	13.6	9.50e-06	0	41	0	28848422912	27	14999
2026-01-04 20:03:50.36	265.83	32.81	-30.6	-30.8	13.6	4.70e-06	0	41	0	28982640640	27	15258
2026-01-04 20:03:51.21	266.33	32.81	-30.6	-30.9	13.6	4.70e-06	0	41	0	29074915328	27	15314
2026-01-04 20:03:52.36	267.01	32.79	-30.5	-30.8	13.6	4.70e-06	0	41	0	29209133056	27	15134
2026-01-04 20:03:53.21	267.52	32.78	-30.5	-30.8	13.6	1.90e-05	0	41	0	29301407744	27	15178
2026-01-04 20:03:54.35	268.19	32.75	-30.7	-30.9	13.6	1.90e-05	0	41	0	29427236864	27	15414
2026-01-04 20:03:55.21	268.70	32.73	-30.6	-30.9	13.6	1.90e-05	0	41	0	29527900160	27	15339
2026-01-04 20:03:56.34	269.36	32.71	-30.6	-30.8	13.6	5.24e-05	0	41	0	29653729280	27	15259
2026-01-04 20:03:57.20	269.86	32.68	-30.6	-30.9	13.6	5.24e-05	0	41	0	29754392576	27	15367
2026-01-04 20:03:58.33	270.53	32.64	-30.6	-30.8	13.6	5.24e-05	0	41	0	29871833088	27	15265
2026-01-04 20:03:59.18	271.02	32.61	-30.6	-30.9	13.6	4.76e-05	0	41	0	29972496384	27	15315
2026-01-04 20:04:00.32	271.69	32.57	-30.7	-31.0	13.6	4.76e-05	0	41	0	30098325504	27	15483
2026-01-04 20:04:01.17	272.18	32.54	-30.8	-31.1	13.5	4.76e-05	0	41	0	30198988800	27	15666
2026-01-04 20:04:02.31	272.84	32.49	-30.7	-31.0	13.6	1.86e-04	0	41	0	30324817920	27	15537
2026-01-04 20:04:03.17	273.34	32.45	-30.8	-31.1	13.6	1.86e-04	0	41	0	30417092608	27	15657
2026-01-04 20:04:04.29	273.99	32.39	-30.7	-31.0	13.6	1.86e-04	0	41	0	30551310336	27	15484
2026-01-04 20:04:05.16	274.49	32.35	-30.7	-31.0	13.6	1.86e-04	0	41	0	30643585024	27	15503
2026-01-04 20:04:06.30	275.14	32.28	-30.7	-31.0	13.6	2.14e-04	0	41	0	30777802752	27	15537
2026-01-04 20:04:07.15	275.63	32.23	-30.7	-30.9	13.6	2.14e-04	0	41	0	30870077440	27	15402
2026-01-04 20:04:08.28	276.27	32.16	-30.8	-31.1	13.6	2.14e-04	0	41	0	30995906560	27	15722
2026-01-04 20:04:09.13	276.75	32.11	-30.8	-31.0	13.6	1.62e-04	0	41	0	31088181248	27	15615
2026-01-04 20:04:10.28	277.40	32.03	-30.8	-31.0	13.7	1.62e-04	0	41	0	31222398976	27	15637
2026-01-04 20:04:11.13	277.87	31.97	-30.7	-31.0	13.7	1.62e-04	0	41	0	31323062272	27	15584
2026-01-04 20:04:12.27	278.51	31.89	-30.8	-31.1	13.7	9.05e-05	0	41	0	31440502784	27	15675
2026-01-04 20:04:13.12	278.98	31.83	-30.8	-31.0	13.7	9.05e-05	0	41	0	31541166080	27	15605
2026-01-04 20:04:14.26	279.61	31.74	-30.8	-31.1	13.7	9.05e-05	0	41	0	31666995200	27	15740
2026-01-04 20:04:15.12	280.09	31.67	-30.9	-31.1	13.7	3.81e-05	0	41	0	31767658496	27	15827
2026-01-04 20:04:16.26	280.71	31.58	-30.9	-31.1	13.7	3.81e-05	0	41	0	31893487616	27	15803
2026-01-04 20:04:17.12	281.18	31.51	-31.0	-31.2	13.7	3.81e-05	0	41	0	31985762304	27	16010
2026-01-04 20:04:18.26	281.79	31.41	-31.0	-31.2	13.7	4.76e-05	0	41	0	32119980032	27	15964
2026-01-04 20:04:19.11	282.25	31.33	-31.1	-31.4	13.7	4.76e-05	0	41	0	32212254720	27	16251
2026-01-04 20:04:20.25	282.86	31.23	-31.1	-31.3	13.7	4.76e-05	0	41	0	32346472448	28	15290
2026-01-04 20:04:21.10	283.31	31.15	-31.1	-31.3	13.7	3.33e-05	0	41	0	32438747136	28	15227
2026-01-04 20:04:22.24	283.92	31.04	-31.2	-31.4	13.7	3.33e-05	0	41	0	32572964864	28	15448
2026-01-04 20:04:23.10	284.37	30.96	-31.2	-31.4	13.7	3.33e-05	0	41	0	32665239552	28	15471
2026-01-04 20:04:24.23	284.96	30.85	-31.2	-31.4	13.7	3.81e-05	0	41	0	32791068672	28	15445
2026-01-04 20:04:25.08	285.40	30.76	-31.2	-31.5	13.6	3.81e-05	0	41	0	32891731968	28	15480
2026-01-04 20:04:26.22	285.98	30.64	-31.1	-31.4	13.7	3.81e-05	0	41	0	33009172480	28	15390
2026-01-04 20:04:27.08	286.42	30.55	-31.2	-31.4	13.7	1.90e-05	0	41	0	33109835776	28	15457
2026-01-04 20:04:28.22	287.00	30.43	-31.3	-31.6	13.7	1.90e-05	0	41	0	33235664896	28	15722
2026-01-04 20:04:29.07	287.43	30.34	-31.3	-31.6	13.7	1.90e-05	0	41	0	33336328192	28	15709
2026-01-04 20:04:30.21	288.00	30.21	-31.3	-31.6	13.7	3.81e-05	0	41	0	33462157312	28	15771
2026-01-04 20:04:31.06	288.42	30.12	-31.4	-31.7	13.7	3.81e-05	0	41	0	33562820608	28	15898
2026-01-04 20:04:32.20	288.98	29.99	-31.3	-31.6	13.8	3.81e-05	0	41	0	33688649728	28	15707
2026-01-04 20:04:33.06	289.41	29.89	-31.4	-31.7	13.8	3.81e-05	0	41	0	33780924416	28	15835
2026-01-04 20:04:34.19	289.95	29.75	-31.4	-31.6	13.8	3.81e-05	0	41	0	33915142144	28	15779
2026-01-04 20:04:35.04	290.36	29.65	-31.4	-31.7	13.8	1.90e-05	0	41	0	34007416832	28	15857
2026-01-04 20:04:36.19	290.91	29.52	-31.4	-31.7	13.8	1.90e-05	0	41	0	34141634560	28	15840
2026-01-04 20:04:37.04	291.32	29.41	-31.4	-31.7	13.8	1.90e-05	0	41	0	34233909248	28	15957
2026-01-04 20:04:38.18	291.85	29.27	-31.5	-31.8	13.8	1.90e-05	0	41	0	34359738368	28	16115
2026-01-04 20:04:39.03	292.25	29.17	-31.4	-31.7	13.8	1.90e-05	0	41	0	34460401664	28	15976
2026-01-04 20:04:40.17	292.77	29.03	-31.6	-31.8	13.8	1.90e-05	0	41	0	34586230784	28	16194
2026-01-04 20:04:41.03	293.17	28.92	-31.6	-31.8	13.8	3.33e-05	0	41	0	34686894080	29	15263
2026-01-04 20:04:42.17	293.69	28.77	-31.5	-31.8	13.8	3.33e-05	0	41	0	34804334592	29	15250
2026-01-04 20:04:43.03	294.08	28.66	-31.7	-31.9	13.8	3.81e-05	0	41	0	34904997888	29	15445
2026-01-04 20:04:44.17	294.58	28.51	-31.6	-31.9	13.8	3.81e-05	0	41	0	35030827008	29	15385
2026-01-04 20:04:45.01	294.96	28.40	-31.7	-32.0	13.8	3.81e-05	0	41	0	35131490304	29	15577
2026-01-04 20:04:46.15	295.46	28.25	-31.8	-32.1	13.8	4.76e-05	0	41	0	35257319424	29	15686
2026-01-04 20:04:47.01	295.83	28.14	-31.7	-32.0	13.8	4.76e-05	0	41	0	35349594112	29	15589
2026-01-04 20:04:48.15	296.32	27.99	-31.7	-32.0	13.9	4.76e-05	0	41	0	35483811840	29	15591
2026-01-04 20:04:49.00	296.69	27.87	-31.8	-32.1	13.8	4.76e-05	0	41	0	35576086528	29	15664
2026-01-04 20:04:50.14	297.17	27.72	-31.8	-32.1	13.8	1.90e-05	0	41	0	35710304256	29	15713
2026-01-04 20:04:50.99	297.53	27.60	-31.9	-32.2	13.9	1.90e-05	0	41	0	35802578944	29	15872
2026-01-04 20:04:52.14	298.01	27.45	-32.0	-32.3	13.8	1.48e-04	0	41	0	35936796672	29	16038
2026-01-04 20:04:52.99	298.36	27.33	-31.9	-32.2	13.8	1.48e-04	0	41	0	36029071360	29	15888
2026-01-04 20:04:54.13	298.82	27.17	-32.0	-32.3	13.8	1.48e-04	0	41	0	36154900480	29	16080
2026-01-04 20:04:54.98	299.17	27.06	-32.0	-32.3	13.8	7.15e-05	0	41	0	36255563776	29	16057
2026-01-04 20:04:56.12	299.62	26.90	-32.2	-32.4	13.8	7.15e-05	0	41	0	36373004288	30	15459
2026-01-04 20:04:56.97	299.96	26.78	-32.1	-32.4	13.8	1.10e-04	0	41	0	36473667584	30	15429
2026-01-04 20:04:58.11	300.41	26.62	-32.2	-32.5	13.8	1.10e-04	0	41	0	36599496704	30	15523
2026-01-04 20:04:58.97	300.74	26.50	-32.3	-32.5	13.8	1.10e-04	0	41	0	36700160000	30	15642
2026-01-04 20:05:00.10	301.18	26.34	-32.2	-32.5	13.8	3.81e-05	0	41	0	36825989120	30	15507
2026-01-04 20:05:00.95	301.50	26.22	-32.3	-32.6	13.8	3.81e-05	0	41	0	36926652416	30	15722
2026-01-04 20:05:02.09	301.94	26.06	-32.3	-32.6	13.8	3.81e-05	0	41	0	37052481536	30	15733
2026-01-04 20:05:02.95	302.26	25.94	-32.4	-32.6	13.8	6.67e-05	0	41	0	37144756224	30	15811
2026-01-04 20:05:04.09	302.68	25.78	-32.5	-32.8	13.8	6.67e-05	0	41	0	37278973952	30	16081
2026-01-04 20:05:04.95	303.00	25.66	-32.4	-32.7	13.8	7.15e-05	0	41	0	37371248640	30	15983
2026-01-04 20:05:06.08	303.41	25.49	-32.4	-32.7	13.8	7.15e-05	0	41	0	37505466368	30	15987
2026-01-04 20:05:06.94	303.72	25.37	-32.5	-32.8	13.8	7.15e-05	0	41	0	37597741056	30	16073
2026-01-04 20:05:08.07	304.12	25.21	-32.5	-32.8	13.8	8.10e-05	0	41	0	37723570176	30	16089
2026-01-04 20:05:08.92	304.42	25.09	-32.6	-32.9	13.7	8.10e-05	0	41	0	37815844864	30	16271
2026-01-04 20:05:10.06	304.82	24.93	-32.6	-32.9	13.8	8.10e-05	0	41	0	37950062592	31	15382
2026-01-04 20:05:10.91	305.12	24.81	-32.6	-32.9	13.7	8.58e-05	0	41	0	38042337280	31	15418
2026-01-04 20:05:12.05	305.51	24.64	-32.7	-33.0	13.8	8.58e-05	0	41	0	38168166400	31	15530
2026-01-04 20:05:12.91	305.80	24.52	-32.8	-33.1	13.7	8.58e-05	0	41	0	38268829696	31	15692
2026-01-04 20:05:14.05	306.18	24.36	-32.8	-33.1	13.7	8.10e-05	0	41	0	38394658816	31	15664
2026-01-04 20:05:14.90	306.47	24.24	-32.9	-33.2	13.7	8.10e-05	0	41	0	38495322112	31	15836
2026-01-04 20:05:16.03	306.84	24.07	-32.8	-33.1	13.7	8.10e-05	0	41	0	38621151232	31	15782
2026-01-04 20:05:16.89	307.12	23.95	-32.9	-33.2	13.7	4.29e-05	0	41	0	38713425920	31	15850
2026-01-04 20:05:18.03	307.49	23.79	-33.1	-33.4	13.7	4.29e-05	0	41	0	38847643648	31	16255
2026-01-04 20:05:18.89	307.77	23.67	-33.0	-33.3	13.7	4.29e-05	0	41	0	38939918336	31	16034
2026-01-04 20:05:20.03	308.13	23.50	-33.1	-33.3	13.6	1.29e-04	0	41	0	39074136064	31	16190
2026-01-04 20:05:20.90	308.40	23.38	-33.0	-33.3	13.7	1.29e-04	0	41	0	39166410752	31	16158
2026-01-04 20:05:22.04	308.75	23.22	-33.1	-33.4	13.6	1.19e-04	0	41	0	39292239872	31	16283
2026-01-04 20:05:22.89	309.02	23.10	-33.2	-33.5	13.7	1.19e-04	0	41	0	39392903168	32	15588
2026-01-04 20:05:24.04	309.37	22.93	-33.2	-33.5	13.6	1.19e-04	0	41	0	39518732288	32	15574
2026-01-04 20:05:24.89	309.62	22.81	-33.3	-33.6	13.6	1.10e-04	0	41	0	39619395584	32	15667
2026-01-04 20:05:26.03	309.96	22.65	-33.3	-33.6	13.6	1.10e-04	0	41	0	39745224704	32	15776
2026-01-04 20:05:26.89	310.22	22.53	-33.4	-33.6	13.6	1.10e-04	0	41	0	39845888000	32	15816
2026-01-04 20:05:28.02	310.55	22.37	-33.4	-33.7	13.6	1.67e-04	0	41	0	39963328512	32	15868
2026-01-04 20:05:28.88	310.80	22.25	-33.5	-33.8	13.6	1.67e-04	0	41	0	40063991808	32	16043
2026-01-04 20:05:30.02	311.12	22.09	-33.6	-33.8	13.6	1.67e-04	0	41	0	40189820928	32	16170
2026-01-04 20:05:30.87	311.36	21.97	-33.6	-33.9	13.6	2.43e-04	0	41	0	40290484224	32	16218
2026-01-04 20:05:32.01	311.69	21.81	-33.7	-34.0	13.6	2.43e-04	0	41	0	40416313344	33	15480
2026-01-04 20:05:32.87	311.92	21.69	-33.8	-34.1	13.6	2.43e-04	0	41	0	40508588032	33	15678
2026-01-04 20:05:34.01	312.24	21.54	-33.8	-34.1	13.6	2.43e-04	0	41	0	40642805760	33	15822
2026-01-04 20:05:34.86	312.47	21.42	-34.0	-34.3	13.5	2.34e-04	0	41	0	40735080448	33	16043
2026-01-04 20:05:36.01	312.78	21.26	-34.1	-34.4	13.6	2.34e-04	0	41	0	40869298176	34	15311
2026-01-04 20:05:36.86	313.01	21.14	-34.1	-34.4	13.5	2.34e-04	0	41	0	40961572864	34	15397
2026-01-04 20:05:38.00	313.31	20.99	-34.1	-34.3	13.6	3.58e-04	0	41	0	41087401984	34	15266
2026-01-04 20:05:38.86	313.54	20.87	-34.1	-34.3	13.6	3.58e-04	0	41	0	41188065280	34	15273
2026-01-04 20:05:40.00	313.83	20.71	-34.2	-34.5	13.5	3.15e-04	0	41	0	41313894400	34	15562
2026-01-04 20:05:40.86	314.05	20.59	-34.1	-34.4	13.5	3.15e-04	0	41	0	41414557696	34	15417
2026-01-04 20:05:42.00	314.34	20.44	-34.2	-34.4	13.6	3.15e-04	0	41	0	41540386816	34	15433
2026-01-04 20:05:42.86	314.56	20.32	-34.2	-34.4	13.5	3.15e-04	0	41	0	41632661504	34	15473
2026-01-04 20:05:44.00	314.85	20.17	-34.3	-34.6	13.5	4.05e-04	0	41	0	41766879232	34	15698
2026-01-04 20:05:44.86	315.06	20.05	-34.3	-34.6	13.5	4.05e-04	0	41	0	41859153920	34	15742
2026-01-04 20:05:46.00	315.34	19.90	-34.4	-34.7	13.5	3.48e-04	0	41	0	41993371648	34	15977
2026-01-04 20:05:46.85	315.54	19.79	-34.3	-34.6	13.5	3.48e-04	0	41	0	42085646336	34	15749
2026-01-04 20:05:47.99	315.82	19.64	-34.3	-34.6	13.5	3.48e-04	0	41	0	42211475456	34	15748
2026-01-04 20:05:48.84	316.02	19.52	-34.3	-34.6	13.5	5.29e-04	0	41	0	42312138752	34	15732
2026-01-04 20:05:49.98	316.29	19.37	-34.3	-34.6	13.5	5.29e-04	0	41	0	42437967872	34	15788
2026-01-04 20:05:50.84	316.49	19.26	-34.3	-34.6	13.5	1.70e-03	0	41	0	42538631168	34	15728
2026-01-04 20:05:51.97	316.75	19.11	-34.4	-34.6	13.4	1.70e-03	0	41	0	42656071680	34	15786
2026-01-04 20:05:52.83	316.95	19.00	-34.4	-34.7	13.4	1.70e-03	0	41	0	42756734976	34	15933
2026-01-04 20:05:53.96	317.20	18.85	-34.5	-34.7	13.4	2.17e-03	0	41	0	42882564096	34	16010
2026-01-04 20:05:54.82	317.40	18.74	-34.4	-34.7	13.4	2.17e-03	0	41	0	42983227392	34	15991
2026-01-04 20:05:55.95	317.65	18.59	-34.4	-34.7	13.4	2.72e-03	0	41	0	43109056512	34	15904
2026-01-04 20:05:56.81	317.84	18.48	-34.5	-34.8	13.4	2.72e-03	0	41	0	43209719808	34	16115
2026-01-04 20:05:57.94	318.08	18.34	-34.5	-34.8	13.4	3.70e-03	0	41	0	43335548928	34	16066
2026-01-04 20:05:58.80	318.27	18.23	-34.6	-34.9	13.4	3.70e-03	0	41	0	43427823616	34	16233
2026-01-04 20:05:59.94	318.51	18.08	-34.7	-35.0	13.4	3.70e-03	0	41	0	43562041344	35	15474
2026-01-04 20:06:00.79	318.69	17.97	-34.8	-35.0	13.4	3.70e-03	0	41	0	43654316032	35	15643
2026-01-04 20:06:01.92	318.93	17.83	-34.8	-35.1	13.4	4.43e-03	0	41	0	43780145152	35	15701
2026-01-04 20:06:02.77	319.11	17.72	-34.8	-35.1	13.4	4.43e-03	0	42	0	43872419840	35	15753
2026-01-04 20:06:03.90	319.34	17.58	-35.0	-35.3	13.3	4.20e-03	0	41	0	44006637568	35	16045
2026-01-04 20:06:04.76	319.52	17.47	-35.0	-35.3	13.3	4.20e-03	0	42	0	44098912256	35	16069
2026-01-04 20:06:05.89	319.74	17.33	-35.0	-35.3	13.3	4.20e-03	0	42	0	44233129984	35	16035
2026-01-04 20:06:06.75	319.92	17.22	-37.6	-37.9	13.5	4.73e-03	0	41	0	44325404672	41	15318
2026-01-04 20:06:07.88	320.14	17.09	-37.5	-37.8	13.5	4.73e-03	0	42	0	44451233792	41	15190
2026-01-04 20:06:08.74	320.31	16.98	-37.5	-37.7	13.5	4.73e-03	0	41	0	44551897088	41	15101
2026-01-04 20:06:09.88	320.53	16.84	-37.6	-37.9	13.5	2.02e-03	0	42	0	44677726208	41	15337
2026-01-04 20:06:10.73	320.70	16.74	-37.7	-37.9	13.5	2.02e-03	0	41	0	44770000896	41	15440
2026-01-04 20:06:11.87	320.92	16.60	-37.8	-38.0	13.5	1.64e-03	0	41	0	44895830016	41	15590
2026-01-04 20:06:12.73	321.08	16.49	-37.8	-38.0	13.5	1.64e-03	0	41	0	44996493312	41	15618
2026-01-04 20:06:13.86	321.29	16.36	-37.8	-38.1	13.5	1.64e-03	0	42	0	45122322432	41	15673
2026-01-04 20:06:14.72	321.45	16.25	-37.8	-38.1	13.5	1.64e-03	0	41	0	45214597120	41	15742
2026-01-04 20:06:15.86	321.66	16.12	-37.9	-38.2	13.4	2.30e-03	0	42	0	45348814848	41	15911
2026-01-04 20:06:16.71	321.82	16.02	-37.9	-38.2	13.4	2.30e-03	0	41	0	45441089536	41	15834
2026-01-04 20:06:17.85	322.02	15.88	-37.8	-38.1	13.4	2.39e-03	0	41	0	45575307264	41	15780
2026-01-04 20:06:18.71	322.18	15.78	-37.9	-38.2	13.4	2.39e-03	0	41	0	45667581952	41	15871
2026-01-04 20:06:19.85	322.38	15.65	-38.0	-38.3	13.4	2.39e-03	0	42	0	45801799680	41	16111
2026-01-04 20:06:20.71	322.53	15.55	-38.1	-38.3	13.5	2.64e-03	0	42	0	45894074368	41	16136
2026-01-04 20:06:21.84	322.73	15.41	-38.2	-38.4	13.5	2.64e-03	0	41	0	46019903488	42	15414
2026-01-04 20:06:22.70	322.88	15.31	-38.2	-38.5	13.5	2.64e-03	0	42	0	46120566784	42	15585
2026-01-04 20:06:23.84	323.08	15.18	-38.3	-38.5	13.4	2.88e-03	0	41	0	46246395904	42	15627
2026-01-04 20:06:24.69	323.22	15.08	-38.3	-38.6	13.4	2.88e-03	0	42	0	46347059200	42	15753
2026-01-04 20:06:25.83	323.41	14.95	-38.3	-38.6	13.4	2.88e-03	0	41	0	46472888320	42	15762
2026-01-04 20:06:26.69	323.56	14.86	-38.3	-38.6	13.4	2.96e-03	0	41	0	46565163008	42	15753
2026-01-04 20:06:27.83	323.75	14.73	-38.3	-38.5	13.4	2.96e-03	0	42	0	46690992128	42	15640
2026-01-04 20:06:28.68	323.89	14.63	-38.4	-38.6	13.4	2.96e-03	0	41	0	46791655424	42	15815
2026-01-04 20:06:29.82	324.07	14.50	-38.3	-38.6	13.4	3.08e-03	0	42	0	46917484544	42	15722
2026-01-04 20:06:30.68	324.21	14.41	-38.4	-38.7	13.4	3.08e-03	0	42	0	47009759232	42	15857
2026-01-04 20:06:31.82	324.39	14.28	-38.3	-38.6	13.4	3.60e-03	0	41	0	47143976960	42	15726
2026-01-04 20:06:32.68	324.53	14.18	-38.4	-38.6	13.4	3.60e-03	0	41	0	47244640256	42	15796
2026-01-04 20:06:33.82	324.71	14.06	-38.3	-38.6	13.4	3.60e-03	0	42	0	47370469376	42	15755
2026-01-04 20:06:34.69	324.85	13.96	-38.4	-38.7	13.4	3.60e-03	0	42	0	47471132672	42	15840
2026-01-04 20:06:35.82	325.02	13.84	-38.4	-38.7	13.4	3.53e-03	0	42	0	47588573184	42	15900
2026-01-04 20:06:36.67	325.15	13.74	-38.4	-38.7	13.4	3.53e-03	0	42	0	47689236480	42	15892
2026-01-04 20:06:37.81	325.32	13.62	-38.4	-38.7	13.4	3.53e-03	0	42	0	47815065600	42	15873
2026-01-04 20:06:38.67	325.45	13.53	-38.4	-38.7	13.4	3.94e-03	0	42	0	47915728896	42	15945
2026-01-04 20:06:39.81	325.62	13.40	-38.4	-38.7	13.4	3.94e-03	0	42	0	48041558016	42	15909
2026-01-04 20:06:40.67	325.75	13.31	-38.5	-38.8	13.3	3.94e-03	0	41	0	48142221312	42	16106
2026-01-04 20:06:41.81	325.92	13.19	-38.5	-38.8	13.3	4.52e-03	0	42	0	48268050432	42	16059
2026-01-04 20:06:42.67	326.05	13.10	-38.7	-39.0	13.3	4.52e-03	0	42	0	48360325120	43	15501
2026-01-04 20:06:43.81	326.21	12.98	-38.7	-39.0	13.3	4.52e-03	0	42	0	48494542848	43	15563
2026-01-04 20:06:44.67	326.33	12.89	-38.6	-38.9	13.3	5.56e-03	0	42	0	48586817536	43	15391
2026-01-04 20:06:45.81	326.50	12.77	-38.7	-38.9	13.3	5.56e-03	0	42	0	48721035264	43	15438
2026-01-04 20:06:46.66	326.62	12.68	-38.7	-39.0	13.3	5.56e-03	0	42	0	48813309952	43	15580
2026-01-04 20:06:47.80	326.78	12.56	-38.8	-39.0	13.3	6.31e-03	0	42	0	48939139072	43	15652
2026-01-04 20:06:48.65	326.89	12.47	-38.8	-39.1	13.2	6.31e-03	0	41	0	49039802368	43	15740
2026-01-04 20:06:49.78	327.05	12.36	-38.9	-39.2	13.2	7.49e-03	0	42	0	49165631488	43	15971
2026-01-04 20:06:50.63	327.17	12.27	-39.0	-39.3	13.2	7.49e-03	0	42	0	49266294784	43	16050
2026-01-04 20:06:51.77	327.32	12.15	-39.1	-39.4	13.1	8.72e-03	0	42	0	49383735296	43	16211
2026-01-04 20:06:52.62	327.44	12.07	-39.1	-39.4	13.2	8.72e-03	0	42	0	49484398592	43	16259
2026-01-04 20:06:53.76	327.59	11.95	-39.2	-39.5	13.1	8.72e-03	0	42	0	49610227712	44	15478
2026-01-04 20:06:54.62	327.70	11.86	-39.2	-39.5	13.1	8.72e-03	0	42	0	49710891008	44	15520
2026-01-04 20:06:55.75	327.85	11.75	-39.4	-39.7	13.1	9.59e-03	0	42	0	49836720128	44	15850
2026-01-04 20:06:56.60	327.96	11.66	-39.3	-39.6	13.1	9.59e-03	0	42	0	49928994816	44	15745
2026-01-04 20:06:57.74	328.11	11.55	-39.3	-39.6	13.1	1.05e-02	0	42	0	50063212544	44	15806
2026-01-04 20:06:58.59	328.22	11.47	-39.4	-39.6	13.1	1.05e-02	0	42	0	50155487232	44	15813
2026-01-04 20:06:59.73	328.36	11.35	-39.4	-39.7	13.0	1.05e-02	0	42	0	50281316352	44	15862
2026-01-04 20:07:00.57	328.47	11.27	-39.4	-39.7	13.0	1.19e-02	0	42	0	50373591040	44	15893
2026-01-04 20:07:01.71	328.61	11.16	-39.4	-39.7	13.0	1.19e-02	0	42	0	50507808768	44	15923
2026-01-04 20:07:02.55	328.72	11.08	-39.4	-39.7	12.9	1.19e-02	0	42	0	50600083456	44	15902
2026-01-04 20:07:03.68	328.86	10.97	-39.4	-39.7	12.9	1.41e-02	0	42	0	50725912576	44	16001
2026-01-04 20:07:04.53	328.96	10.88	-39.5	-39.8	12.9	1.41e-02	0	42	0	50818187264	44	16128
2026-01-04 20:07:05.67	329.10	10.77	-39.5	-39.8	12.9	1.65e-02	0	42	0	50952404992	44	16156
2026-01-04 20:07:06.53	329.20	10.69	-39.5	-39.8	12.8	1.65e-02	0	42	0	51044679680	44	16109
2026-01-04 20:07:07.66	329.34	10.58	-39.6	-39.9	12.8	1.65e-02	0	42	0	51178897408	45	15455
2026-01-04 20:07:08.51	329.44	10.50	-39.6	-39.9	12.7	1.65e-02	0	42	0	51271172096	45	15403
2026-01-04 20:07:09.65	329.57	10.39	-39.6	-40.0	12.7	2.02e-02	0	42	0	51397001216	45	15478
2026-01-04 20:07:10.50	329.67	10.31	-39.7	-40.0	12.7	2.02e-02	0	42	0	51497664512	45	15492
2026-01-04 20:07:11.64	329.80	10.21	-39.7	-40.0	12.6	2.63e-02	0	42	0	51623493632	45	15620
2026-01-04 20:07:12.49	329.90	10.13	-39.8	-40.1	12.6	2.63e-02	0	42	0	51724156928	45	15668
2026-01-04 20:07:13.63	330.03	10.02	-39.9	-40.2	12.6	2.63e-02	0	42	0	51849986048	45	15929
2026-01-04 20:07:14.49	330.13	9.94	-39.8	-40.1	12.5	3.04e-02	0	42	0	51950649344	45	15752
2026-01-04 20:07:15.62	330.26	9.84	-39.9	-40.2	12.4	3.04e-02	0	42	0	52068089856	45	15999
2026-01-04 20:07:16.48	330.35	9.76	-40.0	-40.3	12.4	3.04e-02	0	42	0	52168753152	45	16089
2026-01-04 20:07:17.62	330.48	9.65	-40.0	-40.3	12.5	3.49e-02	0	42	0	52294582272	45	16054
2026-01-04 20:07:18.47	330.58	9.57	-40.0	-40.3	12.3	3.49e-02	0	42	0	52386856960	45	16202
2026-01-04 20:07:19.61	330.70	9.47	-40.1	-40.4	12.3	3.69e-02	0	42	0	52521074688	46	15425
2026-01-04 20:07:20.46	330.79	9.39	-40.1	-40.4	12.2	3.69e-02	0	42	0	52613349376	46	15348
2026-01-04 20:07:21.60	330.92	9.29	-40.2	-40.5	12.1	3.69e-02	0	42	0	52747567104	46	15525
2026-01-04 20:07:22.45	331.01	9.21	-40.1	-40.5	12.2	3.69e-02	0	42	0	52839841792	46	15488
2026-01-04 20:07:23.59	331.13	9.11	-40.2	-40.5	12.0	4.81e-02	0	42	0	52974059520	46	15550
2026-01-04 20:07:24.45	331.22	9.04	-40.4	-40.7	11.9	4.81e-02	0	42	0	53066334208	46	15981
2026-01-04 20:07:25.58	331.34	8.93	-40.4	-40.7	12.0	4.81e-02	0	42	0	53192163328	46	15894
2026-01-04 20:07:26.43	331.43	8.86	-40.4	-40.7	12.1	5.93e-02	0	42	0	53284438016	46	15923
2026-01-04 20:07:27.57	331.54	8.76	-40.5	-40.8	12.0	5.93e-02	0	42	0	53418655744	46	16116
2026-01-04 20:07:28.42	331.63	8.68	-40.6	-40.9	12.1	5.93e-02	0	42	0	53510930432	46	16269
2026-01-04 20:07:29.56	331.75	8.58	-40.7	-41.0	12.1	5.55e-02	0	42	0	53636759552	47	15512
2026-01-04 20:07:30.41	331.83	8.51	-40.6	-41.0	12.0	5.55e-02	0	42	0	53737422848	47	15493
2026-01-04 20:07:31.56	331.95	8.41	-40.5	-40.8	11.9	6.17e-02	0	42	0	53863251968	47	15284
2026-01-04 20:07:32.42	332.03	8.34	-40.7	-41.0	11.9	6.17e-02	0	42	0	53963915264	47	15527
2026-01-04 20:07:33.56	332.15	8.24	-40.7	-41.0	11.9	7.08e-02	0	42	0	54089744384	47	15507
2026-01-04 20:07:34.41	332.23	8.16	-40.7	-41.0	11.7	7.08e-02	0	42	0	54182019072	47	15591
2026-01-04 20:07:35.55	332.34	8.07	-40.6	-41.0	11.6	7.08e-02	0	42	0	54316236800	47	15495
2026-01-04 20:07:36.41	332.43	7.99	-40.7	-41.0	11.5	7.08e-02	0	42	0	54408511488	47	15511
2026-01-04 20:07:37.55	332.54	7.90	-40.6	-41.0	11.6	9.15e-02	0	42	0	54542729216	47	15496
2026-01-04 20:07:38.41	332.62	7.82	-40.8	-41.1	11.4	9.15e-02	0	42	0	54635003904	47	15801
2026-01-04 20:07:39.54	332.73	7.73	-40.8	-41.1	11.5	9.15e-02	0	42	0	54760833024	47	15760
2026-01-04 20:07:40.40	332.81	7.66	-40.8	-41.2	11.5	1.03e-01	0	42	0	54861496320	47	15848
2026-01-04 20:07:41.53	332.91	7.56	-40.8	-41.2	11.6	1.03e-01	0	42	0	54987325440	47	15898
2026-01-04 20:07:42.39	332.99	7.49	-40.9	-41.2	11.4	1.03e-01	0	42	0	55087988736	47	15925
2026-01-04 20:07:43.52	333.10	7.40	-40.9	-41.2	11.4	1.04e-01	0	42	0	55205429248	47	15992
2026-01-04 20:07:44.38	333.18	7.32	-40.8	-41.2	11.5	1.04e-01	0	42	0	55306092544	47	15836
2026-01-04 20:07:45.52	333.28	7.23	-40.8	-41.1	11.3	1.04e-01	0	42	0	55431921664	47	15821
2026-01-04 20:07:46.38	333.36	7.16	-40.9	-41.3	11.3	1.18e-01	0	42	0	55532584960	47	16036
2026-01-04 20:07:47.52	333.46	7.07	-40.9	-41.3	11.2	1.18e-01	0	42	0	55658414080	47	16068
2026-01-04 20:07:48.37	333.54	7.00	-41.0	-41.4	11.1	1.31e-01	0	42	0	55750688768	47	16313
2026-01-04 20:07:49.51	333.64	6.90	-41.1	-41.4	10.9	1.31e-01	1	42	0	55884906496	47	16372
2026-01-04 20:07:50.37	333.72	6.84	-41.8	-42.2	11.0	1.31e-01	0	42	0	55977181184	49	15931
2026-01-04 20:07:51.52	333.82	6.74	-41.9	-42.3	10.9	1.65e-01	0	42	0	56111398912	49	16151
2026-01-04 20:07:52.37	333.89	6.67	-41.9	-42.3	10.9	1.65e-01	0	42	0	56203673600	49	16054
2026-01-04 20:07:53.51	333.99	6.58	-42.0	-42.3	10.9	1.65e-01	0	42	0	56337891328	49	16142
2026-01-04 20:07:54.37	334.06	6.51	-42.1	-42.5	10.8	1.73e-01	0	42	0	56430166016	49	16410
2026-01-04 20:07:55.50	334.16	6.42	-42.2	-42.5	10.9	1.73e-01	1	42	0	56555995136	50	15622
2026-01-04 20:07:56.35	334.23	6.36	-42.1	-42.5	10.8	1.73e-01	7	42	0	56656658432	50	15606
2026-01-04 20:07:57.50	334.33	6.27	-42.4	-42.7	10.7	1.85e-01	14	43	0	56782487552	50	15981
2026-01-04 20:07:58.35	334.40	6.20	-42.3	-42.7	10.8	1.85e-01	16	43	0	56883150848	50	15846
2026-01-04 20:07:59.49	334.50	6.11	-42.3	-42.7	10.7	1.85e-01	27	42	0	57008979968	50	15866
2026-01-04 20:08:00.34	334.57	6.04	-42.4	-42.8	10.5	1.94e-01	478	43	0	57101254656	50	16117
2026-01-04 20:08:01.48	334.66	5.95	-42.4	-42.7	10.7	1.94e-01	44	43	0	57227083776	50	15984
2026-01-04 20:08:02.33	334.73	5.89	-42.5	-42.9	10.7	1.94e-01	50	43	0	57327747072	50	16266
2026-01-04 20:08:03.47	334.82	5.80	-42.6	-42.9	10.7	2.13e-01	13	43	0	57453576192	50	16365
2026-01-04 20:08:04.33	334.89	5.73	-42.6	-43.0	10.6	2.13e-01	293	43	0	57545850880	51	15542
2026-01-04 20:08:05.46	334.98	5.65	-42.6	-43.0	10.7	2.13e-01	159	43	0	57680068608	51	15597
2026-01-04 20:08:06.32	335.05	5.58	-42.5	-42.9	10.7	2.13e-01	27	43	0	57772343296	51	15370
2026-01-04 20:08:07.44	335.14	5.50	-42.5	-42.9	10.5	2.13e-01	810	43	0	57906561024	51	15404
2026-01-04 20:08:08.28	335.21	5.43	-42.7	-43.1	10.5	2.27e-01	899	43	0	57998835712	51	15669
2026-01-04 20:08:09.42	335.30	5.35	-42.7	-43.1	10.5	2.27e-01	1085	43	0	58124664832	51	15714
2026-01-04 20:08:10.27	335.36	5.28	-42.8	-43.2	10.4	2.27e-01	1824	43	0	58216939520	51	15854
2026-01-04 20:08:11.41	335.45	5.20	-43.0	-43.4	10.3	2.56e-01	3275	44	0	58342768640	51	16244
2026-01-04 20:08:12.27	335.52	5.13	-42.9	-43.3	10.4	2.56e-01	2124	43	0	58443431936	51	16076
2026-01-04 20:08:13.41	335.60	5.05	-42.9	-43.3	10.5	2.56e-01	1426	44	0	58569261056	51	16059
2026-01-04 20:08:14.26	335.67	4.98	-43.1	-43.5	10.1	2.61e-01	4203	44	0	58669924352	52	15607
2026-01-04 20:08:15.39	335.75	4.90	-59.3	-62.5	6.2	0.00e+00	0	42	104	58703478784	84	22056
2026-01-04 20:08:16.25	335.82	4.83	-59.7	-62.9	6.2	0.00e+00	0	42	104	58703478784	85	21732
2026-01-04 20:08:17.39	335.90	4.75	-59.6	-62.3	6.2	0.00e+00	0	42	104	58703478784	85	20196
2026-01-04 20:08:18.26	335.97	4.69	-52.8	-53.7	6.1	0.00e+00	0	42	104	58703478784	72	15888
2026-01-04 20:08:19.40	336.05	4.60	-59.4	-61.7	6.2	0.00e+00	0	42	104	58703478784	86	17805
2026-01-04 20:08:20.26	336.12	4.54	-60.0	-62.6	6.2	0.00e+00	0	42	104	58703478784	86	19865
2026-01-04 20:08:21.39	336.20	4.46	-60.9	-64.1	6.2	0.00e+00	0	42	104	58703478784	87	22222
2026-01-04 20:08:22.25	336.26	4.39	-61.0	-64.1	6.2	0.00e+00	0	42	104	58703478784	87	22336
2026-01-04 20:08:23.39	336.34	4.31	-61.1	-64.3	6.2	0.00e+00	0	42	104	58703478784	87	22799
2026-01-04 20:08:24.25	336.40	4.25	-61.1	-64.3	6.2	0.00e+00	0	42	104	58703478784	87	22855
2026-01-04 20:08:25.39	336.49	4.17	-61.2	-64.4	6.2	0.00e+00	0	42	104	58703478784	88	21784
2026-01-04 20:08:26.25	336.55	4.11	-61.2	-64.4	6.2	0.00e+00	0	42	104	58703478784	88	21739
2026-01-04 20:08:27.39	336.63	4.02	-61.2	-64.4	6.2	0.00e+00	0	42	104	58703478784	88	21816
2026-01-04 20:08:28.24	336.69	3.96	-61.2	-64.4	6.2	0.00e+00	0	41	104	58703478784	88	21779
2026-01-04 20:08:29.39	336.77	3.88	-61.2	-64.5	6.2	0.00e+00	0	41	104	58703478784	88	21903
2026-01-04 20:08:30.25	336.83	3.82	-61.2	-64.4	6.2	0.00e+00	0	42	104	58703478784	88	21850
2026-01-04 20:08:31.39	336.90	3.74	-61.2	-64.5	6.2	0.00e+00	0	42	104	58703478784	88	21937
2026-01-04 20:08:32.25	336.96	3.68	-61.3	-64.5	6.2	0.00e+00	0	41	104	58703478784	88	22020
2026-01-04 20:08:33.39	337.04	3.60	-61.3	-64.5	6.2	0.00e+00	0	41	104	58703478784	88	22027
2026-01-04 20:08:34.24	337.10	3.54	-61.3	-64.5	6.2	0.00e+00	0	41	104	58703478784	88	22066
2026-01-04 20:08:35.39	337.18	3.46	-61.3	-64.6	6.2	0.00e+00	0	41	104	58703478784	88	22115
2026-01-04 20:08:36.24	337.23	3.40	-61.3	-64.5	6.2	0.00e+00	0	41	104	58703478784	88	22107
2026-01-04 20:08:37.39	337.31	3.32	-61.2	-64.5	6.2	0.00e+00	0	41	104	58703478784	88	21954
2026-01-04 20:08:38.24	337.37	3.26	-61.2	-64.5	6.2	0.00e+00	0	41	104	58703478784	88	21889
2026-01-04 20:08:39.38	337.44	3.18	-61.2	-64.4	6.2	0.00e+00	0	41	104	58703478784	88	21785
2026-01-04 20:08:40.24	337.50	3.12	-61.2	-64.4	6.2	0.00e+00	0	41	104	58703478784	88	21816
2026-01-04 20:08:41.39	337.57	3.05	-61.2	-64.4	6.2	0.00e+00	0	41	104	58703478784	88	21773
2026-01-04 20:08:42.24	337.63	2.99	-61.2	-64.4	6.2	0.00e+00	0	41	104	58703478784	88	21706
2026-01-04 20:08:43.38	337.70	2.91	-61.1	-64.4	6.2	0.00e+00	0	41	104	58703478784	88	21701
2026-01-04 20:08:44.24	337.75	2.85	-61.1	-64.4	6.2	0.00e+00	0	41	104	58703478784	88	21651
2026-01-04 20:08:45.39	337.83	2.77	-61.1	-64.3	6.2	0.00e+00	0	41	104	58703478784	88	21566
2026-01-04 20:08:46.24	337.88	2.72	-61.1	-64.4	6.2	0.00e+00	0	41	104	58703478784	88	21695
2026-01-04 20:08:47.38	337.95	2.64	-61.1	-64.4	6.2	0.00e+00	0	41	104	58703478784	88	21612
2026-01-04 20:08:48.24	338.01	2.58	-61.1	-64.3	6.2	0.00e+00	0	41	104	58703478784	88	21565
2026-01-04 20:08:49.38	338.08	2.50	-61.1	-64.3	6.2	0.00e+00	0	41	104	58703478784	88	21541
2026-01-04 20:08:50.24	338.13	2.45	-61.1	-64.3	6.2	0.00e+00	0	41	104	58703478784	88	21540
2026-01-04 20:08:51.40	338.20	2.37	-61.1	-64.3	6.2	0.00e+00	0	41	104	58703478784	88	21529
2026-01-04 20:08:52.26	338.26	2.31	-61.1	-64.3	6.2	0.00e+00	0	41	104	58703478784	88	21474
2026-01-04 20:08:53.40	338.33	2.24	-61.1	-64.3	6.2	0.00e+00	0	41	104	58703478784	88	21427
2026-01-04 20:08:54.26	338.38	2.18	-61.1	-64.3	6.2	0.00e+00	0	41	104	58703478784	88	21453
2026-01-04 20:08:55.40	338.45	2.10	-61.0	-64.3	6.2	0.00e+00	0	41	104	58703478784	88	21401
2026-01-04 20:08:56.26	338.50	2.05	-61.0	-64.3	6.2	0.00e+00	0	41	104	58703478784	88	21369
2026-01-04 20:08:57.39	338.57	1.97	-61.0	-64.3	6.2	0.00e+00	0	41	104	58703478784	88	21363

#Closed at: 2026-01-04 20:08:58
#Recorded file [58703 MB]: D:/lorett/data/31004_260104_225841.dat