passes_logs/2026/01/04/R3.2S_Murmansk/R3.2S_Murmansk__20260104_053838_FENGYUN_3D_rec.log

#Pass ID: 20260104_053838_FENGYUN 3D
#Satellite: FENGYUN 3D
#Configuration: FENGYUN 3D
#almurnet v.1.7.20251203
#Start time: 2026-01-04 05:38:38

#Version: 2.2.20231116
#Station: R3.2S_Murmansk
#Location: 33.079688 lon 68.888172 lat
#TLE: 1 43010U 17072A   26003.51579816  .00000092  00000+0  65324-4 0  9992
#TLE: 2 43010  98.9912 335.1548 0001916 128.4619 231.6729 14.19692074421623

#Time	Az	El	Level	Level2	SNR	BER	BlckErr	Temp	State	Recorded	gain1	gain2
2026-01-04 05:38:38.46	43.60	1.97	-58.4	-71.4	3.8	8.46e-01	0	27	0	0	83	15735
2026-01-04 05:38:39.46	43.55	2.03	-58.3	-71.4	3.8	8.46e-01	0	27	104	0	81	17557
2026-01-04 05:38:40.46	43.49	2.09	-58.3	-71.4	3.8	8.45e-01	0	27	104	0	81	17519
2026-01-04 05:38:41.46	43.44	2.15	-58.3	-71.4	3.8	8.45e-01	0	27	104	0	81	17586
2026-01-04 05:38:42.47	43.39	2.21	-58.3	-71.4	3.8	8.45e-01	0	27	104	0	81	17511
2026-01-04 05:38:43.47	43.33	2.27	-58.3	-71.4	3.8	8.44e-01	0	27	104	0	81	17527
2026-01-04 05:38:44.47	43.28	2.33	-58.4	-71.4	3.8	8.45e-01	0	27	104	0	81	17522
2026-01-04 05:38:45.47	43.22	2.39	-58.3	-71.4	3.8	8.46e-01	0	27	104	0	81	17510
2026-01-04 05:38:46.48	43.17	2.45	-58.3	-71.4	3.8	8.45e-01	0	27	104	0	81	17571
2026-01-04 05:38:47.47	43.11	2.51	-58.3	-71.4	3.8	8.46e-01	0	27	104	0	81	17506
2026-01-04 05:38:48.47	43.05	2.57	-58.3	-71.4	3.8	8.45e-01	0	27	104	0	81	17519
2026-01-04 05:38:49.46	43.00	2.63	-58.3	-71.4	3.8	8.45e-01	0	27	104	0	81	17505
2026-01-04 05:38:50.47	42.94	2.69	-58.3	-71.3	3.8	8.45e-01	0	27	104	0	81	17452
2026-01-04 05:38:51.47	42.89	2.75	-58.3	-71.4	3.8	8.45e-01	0	27	104	0	81	17595
2026-01-04 05:38:52.47	42.83	2.81	-58.3	-71.4	3.8	8.45e-01	0	27	104	0	81	17498
2026-01-04 05:38:53.46	42.77	2.87	-58.3	-71.4	3.8	8.46e-01	0	27	104	0	81	17502
2026-01-04 05:38:54.46	42.72	2.93	-58.3	-71.4	3.8	8.46e-01	0	27	104	0	81	17577
2026-01-04 05:38:55.47	42.66	2.99	-58.4	-71.4	3.8	8.45e-01	0	27	104	0	81	17594
2026-01-04 05:38:56.46	42.60	3.05	-58.3	-71.4	3.8	8.46e-01	0	27	104	0	81	17522
2026-01-04 05:38:57.47	42.54	3.11	-58.3	-71.4	3.8	8.46e-01	0	27	104	0	81	17513
2026-01-04 05:38:58.46	42.48	3.17	-58.3	-71.3	3.8	8.45e-01	0	27	104	0	81	17464
2026-01-04 05:38:59.45	42.43	3.23	-58.3	-71.3	3.8	8.47e-01	0	27	104	0	81	17393
2026-01-04 05:39:00.46	42.37	3.29	-58.3	-71.3	3.8	8.44e-01	0	27	104	0	81	17308
2026-01-04 05:39:01.46	42.31	3.35	-58.3	-71.2	3.8	8.45e-01	0	27	104	0	81	17206
2026-01-04 05:39:02.47	42.25	3.41	-58.3	-71.2	3.8	8.45e-01	0	27	104	0	81	17157
2026-01-04 05:39:03.46	42.19	3.47	-58.3	-71.2	3.8	8.46e-01	0	27	104	0	81	17211
2026-01-04 05:39:04.46	42.13	3.53	-58.3	-71.2	3.8	8.45e-01	0	27	104	0	81	17254
2026-01-04 05:39:05.47	42.07	3.60	-58.3	-71.3	3.8	8.45e-01	0	27	104	0	81	17366
2026-01-04 05:39:06.47	42.01	3.66	-58.3	-71.4	3.8	8.46e-01	0	27	104	0	81	17493
2026-01-04 05:39:07.47	41.95	3.72	-58.3	-71.4	3.8	8.45e-01	0	27	104	0	81	17539
2026-01-04 05:39:08.47	41.89	3.78	-58.3	-71.4	3.8	8.45e-01	0	27	104	0	81	17517
2026-01-04 05:39:09.47	41.83	3.84	-58.3	-71.3	3.8	8.45e-01	0	28	104	0	81	17478
2026-01-04 05:39:10.47	41.76	3.91	-58.3	-71.3	3.8	8.45e-01	0	28	104	0	81	17347
2026-01-04 05:39:11.47	41.70	3.97	-58.3	-71.3	3.8	8.46e-01	0	28	104	0	81	17312
2026-01-04 05:39:12.47	41.64	4.03	-58.3	-71.3	3.8	8.46e-01	0	28	104	0	81	17388
2026-01-04 05:39:13.47	41.58	4.09	-58.3	-71.3	3.8	8.45e-01	0	28	104	0	81	17475
2026-01-04 05:39:14.47	41.52	4.15	-58.3	-71.4	3.8	8.46e-01	0	28	104	0	81	17560
2026-01-04 05:39:15.46	41.45	4.22	-58.3	-71.3	3.8	8.47e-01	0	28	104	0	81	17481
2026-01-04 05:39:16.46	41.39	4.28	-58.3	-71.1	3.8	8.45e-01	0	28	104	0	81	17006
2026-01-04 05:39:17.46	41.33	4.34	-58.3	-70.8	3.8	8.47e-01	0	28	104	0	81	16341
2026-01-04 05:39:18.46	41.26	4.40	-58.2	-70.2	3.8	8.47e-01	0	28	104	0	81	15244
2026-01-04 05:39:19.45	41.20	4.47	-58.2	-69.5	3.8	8.45e-01	0	28	104	0	81	14187
2026-01-04 05:39:20.44	41.14	4.53	-58.1	-68.7	3.9	8.43e-01	0	28	104	0	81	12823
2026-01-04 05:39:21.43	41.07	4.59	-58.0	-67.8	4.2	8.38e-01	0	28	0	0	81	11635
2026-01-04 05:39:22.43	41.01	4.65	-57.9	-66.7	4.5	8.27e-01	0	28	0	0	81	10261
2026-01-04 05:39:23.43	40.94	4.72	-57.7	-65.7	5.0	7.77e-01	0	28	0	0	81	9095
2026-01-04 05:39:24.42	40.88	4.78	-57.5	-64.6	5.6	6.66e-01	0	28	0	1048576	81	7991
2026-01-04 05:39:25.41	40.81	4.84	-57.2	-63.2	6.5	2.35e-01	0	28	0	6291456	81	6861
2026-01-04 05:39:26.41	40.75	4.91	-56.8	-62.1	7.4	1.04e-01	0	28	0	11534336	80	6416
2026-01-04 05:39:27.41	40.68	4.97	-56.4	-61.1	8.3	4.62e-02	0	28	0	17825792	79	6017
2026-01-04 05:39:28.39	40.61	5.03	-56.3	-60.8	8.7	1.61e-02	0	28	0	23068672	79	5792
2026-01-04 05:39:29.39	40.55	5.10	-57.3	-63.4	6.5	1.05e-01	0	28	0	28311552	79	7869
2026-01-04 05:39:30.38	40.48	5.16	-57.1	-62.7	6.9	5.65e-01	0	28	0	31457280	80	6866
2026-01-04 05:39:31.37	40.41	5.22	-54.1	-57.3	11.2	2.75e-03	0	28	0	36700160	75	4894
2026-01-04 05:39:32.37	40.35	5.29	-53.8	-56.3	12.0	0.00e+00	0	28	0	41943040	72	5192
2026-01-04 05:39:33.37	40.28	5.35	-56.7	-61.9	7.5	7.38e-01	0	28	0	46137344	80	6208
2026-01-04 05:39:34.36	40.21	5.42	-51.5	-53.1	13.7	0.00e+00	0	28	0	51380224	69	4284
2026-01-04 05:39:35.36	40.14	5.48	-50.7	-52.2	14.1	0.00e+00	0	28	0	56623104	68	4072
2026-01-04 05:39:36.35	40.07	5.55	-50.5	-52.0	14.1	0.00e+00	0	28	0	61865984	67	4213
2026-01-04 05:39:37.35	40.00	5.61	-50.5	-52.0	14.1	0.00e+00	0	28	0	68157440	67	4208
2026-01-04 05:39:38.34	39.93	5.68	-50.1	-51.6	14.2	0.00e+00	0	28	0	73400320	66	4275
2026-01-04 05:39:39.34	39.86	5.74	-50.2	-51.7	14.2	0.00e+00	0	28	0	79691776	66	4300
2026-01-04 05:39:40.33	39.79	5.81	-50.1	-51.5	14.2	0.00e+00	0	28	0	84934656	66	4226
2026-01-04 05:39:41.34	39.72	5.87	-49.7	-51.1	14.4	0.00e+00	0	28	0	90177536	66	4045
2026-01-04 05:39:42.33	39.65	5.94	-49.8	-51.2	14.3	0.00e+00	0	28	0	96468992	65	4327
2026-01-04 05:39:43.33	39.58	6.00	-49.9	-51.4	14.2	0.00e+00	0	28	0	101711872	65	4393
2026-01-04 05:39:44.32	39.51	6.07	-49.8	-51.2	14.3	0.00e+00	0	28	0	106954752	65	4310
2026-01-04 05:39:45.31	39.44	6.13	-49.8	-51.2	14.3	0.00e+00	0	28	0	113246208	65	4305
2026-01-04 05:39:46.31	39.37	6.20	-49.8	-51.3	14.3	0.00e+00	0	28	0	118489088	65	4355
2026-01-04 05:39:47.31	39.29	6.27	-49.8	-51.2	14.3	0.00e+00	0	28	0	123731968	65	4309
2026-01-04 05:39:48.31	39.22	6.33	-49.7	-51.1	14.3	0.00e+00	0	28	0	130023424	65	4277
2026-01-04 05:39:49.32	39.15	6.40	-49.7	-51.1	14.4	0.00e+00	0	28	0	135266304	65	4267
2026-01-04 05:39:50.31	39.07	6.46	-49.8	-51.2	14.3	0.00e+00	0	28	0	141557760	65	4331
2026-01-04 05:39:51.32	39.00	6.53	-49.7	-51.1	14.4	0.00e+00	0	28	0	146800640	65	4268
2026-01-04 05:39:52.31	38.92	6.60	-49.6	-51.0	14.4	0.00e+00	0	28	0	152043520	65	4211
2026-01-04 05:39:53.31	38.85	6.67	-49.7	-51.2	14.3	0.00e+00	0	28	0	158334976	65	4292
2026-01-04 05:39:54.31	38.77	6.73	-49.7	-51.1	14.4	0.00e+00	0	28	0	163577856	65	4250
2026-01-04 05:39:55.31	38.70	6.80	-49.6	-51.0	14.4	0.00e+00	0	28	0	168820736	65	4208
2026-01-04 05:39:56.30	38.62	6.87	-49.6	-51.0	14.4	0.00e+00	0	28	0	175112192	65	4211
2026-01-04 05:39:57.30	38.55	6.93	-49.4	-50.8	14.5	0.00e+00	0	28	0	180355072	65	4125
2026-01-04 05:39:58.31	38.47	7.00	-49.5	-50.9	14.5	0.00e+00	0	28	0	186646528	65	4160
2026-01-04 05:39:59.31	38.39	7.07	-49.5	-50.8	14.5	0.00e+00	0	28	0	191889408	65	4138
2026-01-04 05:40:00.31	38.31	7.14	-49.6	-51.0	14.5	0.00e+00	0	28	0	197132288	65	4218
2026-01-04 05:40:01.31	38.24	7.21	-49.5	-50.9	14.5	0.00e+00	0	28	0	203423744	65	4174
2026-01-04 05:40:02.31	38.16	7.27	-49.5	-50.9	14.5	0.00e+00	0	28	0	208666624	65	4172
2026-01-04 05:40:03.31	38.08	7.34	-49.5	-50.9	14.5	0.00e+00	0	28	0	213909504	65	4157
2026-01-04 05:40:04.32	38.00	7.41	-49.7	-51.1	14.4	0.00e+00	0	28	0	220200960	65	4262
2026-01-04 05:40:05.32	37.92	7.48	-49.6	-50.9	14.5	0.00e+00	0	28	0	225443840	65	4183
2026-01-04 05:40:06.31	37.84	7.55	-49.5	-50.8	14.5	0.00e+00	0	28	0	230686720	65	4142
2026-01-04 05:40:07.32	37.76	7.62	-49.4	-50.8	14.5	0.00e+00	0	28	0	236978176	65	4126
2026-01-04 05:40:08.32	37.68	7.69	-49.5	-50.9	14.5	0.00e+00	0	28	0	242221056	65	4163
2026-01-04 05:40:09.32	37.60	7.75	-49.6	-50.9	14.5	0.00e+00	0	28	0	248512512	65	4180
2026-01-04 05:40:10.32	37.52	7.82	-49.5	-50.8	14.5	0.00e+00	0	28	0	253755392	65	4139
2026-01-04 05:40:11.32	37.43	7.89	-49.4	-50.8	14.6	0.00e+00	0	28	0	258998272	65	4110
2026-01-04 05:40:12.32	37.35	7.96	-49.5	-50.8	14.6	0.00e+00	0	28	0	265289728	65	4133
2026-01-04 05:40:13.32	37.27	8.03	-49.5	-50.8	14.6	0.00e+00	0	28	0	270532608	65	4140
2026-01-04 05:40:14.32	37.19	8.10	-49.5	-50.8	14.5	0.00e+00	0	28	0	275775488	65	4138
2026-01-04 05:40:15.31	37.10	8.17	-49.4	-50.7	14.6	0.00e+00	0	28	0	282066944	65	4096
2026-01-04 05:40:16.31	37.02	8.24	-49.4	-50.8	14.6	0.00e+00	0	28	0	287309824	65	4117
2026-01-04 05:40:17.31	36.94	8.31	-49.4	-50.8	14.6	0.00e+00	0	28	0	292552704	65	4124
2026-01-04 05:40:18.31	36.85	8.38	-49.3	-50.7	14.6	0.00e+00	0	28	0	298844160	65	4064
2026-01-04 05:40:19.31	36.77	8.45	-49.3	-50.7	14.6	0.00e+00	0	28	0	304087040	65	4069
2026-01-04 05:40:20.31	36.68	8.52	-49.4	-50.7	14.6	0.00e+00	0	28	0	309329920	65	4098
2026-01-04 05:40:21.30	36.59	8.59	-49.5	-50.8	14.6	0.00e+00	0	28	0	315621376	65	4140
2026-01-04 05:40:22.30	36.51	8.66	-49.5	-50.8	14.6	0.00e+00	0	28	0	320864256	65	4133
2026-01-04 05:40:23.31	36.42	8.73	-49.4	-50.8	14.6	0.00e+00	0	28	0	326107136	65	4100
2026-01-04 05:40:24.30	36.33	8.80	-49.4	-50.8	14.6	0.00e+00	0	28	0	332398592	65	4112
2026-01-04 05:40:25.30	36.25	8.87	-49.2	-50.5	14.6	0.00e+00	0	28	0	337641472	64	4208
2026-01-04 05:40:26.30	36.16	8.95	-49.1	-50.4	14.7	0.00e+00	0	28	0	342884352	64	4170
2026-01-04 05:40:27.29	36.07	9.02	-49.1	-50.5	14.6	0.00e+00	0	28	0	349175808	64	4195
2026-01-04 05:40:28.29	35.98	9.09	-49.0	-50.3	14.7	0.00e+00	0	28	0	354418688	64	4122
2026-01-04 05:40:29.29	35.89	9.16	-49.1	-50.4	14.7	0.00e+00	0	28	0	360710144	64	4152
2026-01-04 05:40:30.29	35.80	9.23	-49.1	-50.4	14.7	0.00e+00	0	29	0	365953024	64	4146
2026-01-04 05:40:31.29	35.71	9.30	-48.9	-50.2	14.8	0.00e+00	0	28	0	371195904	64	4077
2026-01-04 05:40:32.29	35.62	9.38	-48.8	-50.1	14.8	0.00e+00	0	28	0	377487360	64	4028
2026-01-04 05:40:33.29	35.53	9.45	-48.8	-50.0	14.8	0.00e+00	0	28	0	382730240	64	4001
2026-01-04 05:40:34.29	35.44	9.52	-48.7	-50.0	14.8	0.00e+00	0	28	0	387973120	64	3986
2026-01-04 05:40:35.28	35.34	9.59	-48.8	-50.1	14.8	0.00e+00	0	28	0	394264576	64	4007
2026-01-04 05:40:36.28	35.25	9.66	-48.8	-50.1	14.8	0.00e+00	0	28	0	399507456	64	4016
2026-01-04 05:40:37.28	35.16	9.74	-48.8	-50.1	14.8	0.00e+00	0	28	0	404750336	64	4013
2026-01-04 05:40:38.27	35.06	9.81	-48.8	-50.0	14.8	0.00e+00	0	28	0	411041792	64	3997
2026-01-04 05:40:39.27	34.97	9.88	-48.8	-50.1	14.8	0.00e+00	0	28	0	416284672	64	4005
2026-01-04 05:40:40.27	34.88	9.96	-48.7	-49.9	14.9	0.00e+00	0	28	0	422576128	64	3958
2026-01-04 05:40:41.27	34.78	10.03	-48.8	-50.1	14.8	0.00e+00	0	28	0	427819008	64	4011
2026-01-04 05:40:42.27	34.68	10.10	-48.7	-49.9	14.9	0.00e+00	0	28	0	433061888	64	3957
2026-01-04 05:40:43.26	34.59	10.17	-48.7	-50.0	14.8	0.00e+00	0	28	0	439353344	63	4199
2026-01-04 05:40:44.26	34.49	10.25	-48.8	-50.1	14.7	0.00e+00	0	28	0	444596224	63	4260
2026-01-04 05:40:45.25	34.40	10.32	-48.7	-50.0	14.8	0.00e+00	0	28	0	449839104	63	4196
2026-01-04 05:40:46.25	34.30	10.40	-48.8	-50.1	14.7	0.00e+00	0	28	0	455081984	63	4251
2026-01-04 05:40:47.24	34.20	10.47	-48.6	-49.9	14.8	0.00e+00	0	28	0	461373440	63	4168
2026-01-04 05:40:48.24	34.10	10.54	-48.6	-49.8	14.8	0.00e+00	0	28	0	466616320	63	4134
2026-01-04 05:40:49.24	34.00	10.62	-48.5	-49.8	14.8	0.00e+00	0	28	0	472907776	63	4116
2026-01-04 05:40:50.24	33.90	10.69	-48.5	-49.7	14.9	0.00e+00	0	28	0	478150656	63	4081
2026-01-04 05:40:51.24	33.80	10.77	-48.5	-49.7	14.9	0.00e+00	0	29	0	483393536	63	4072
2026-01-04 05:40:52.23	33.70	10.84	-48.6	-49.8	14.8	0.00e+00	0	28	0	489684992	63	4127
2026-01-04 05:40:53.22	33.60	10.92	-48.6	-49.9	14.8	0.00e+00	0	29	0	494927872	63	4165
2026-01-04 05:40:54.22	33.50	10.99	-48.5	-49.8	14.9	0.00e+00	0	28	0	500170752	63	4100
2026-01-04 05:40:55.21	33.40	11.06	-48.5	-49.7	14.9	0.00e+00	0	28	0	506462208	63	4079
2026-01-04 05:40:56.20	33.30	11.14	-48.5	-49.7	14.9	0.00e+00	0	29	0	511705088	63	4077
2026-01-04 05:40:57.21	33.19	11.22	-48.4	-49.7	14.9	0.00e+00	0	28	0	516947968	63	4056
2026-01-04 05:40:58.20	33.09	11.29	-48.4	-49.6	14.9	0.00e+00	0	28	0	523239424	63	4033
2026-01-04 05:40:59.19	32.98	11.37	-48.2	-49.4	15.0	0.00e+00	0	28	0	528482304	63	3927
2026-01-04 05:41:00.19	32.88	11.44	-48.2	-49.4	15.0	0.00e+00	0	29	0	533725184	63	3958
2026-01-04 05:41:01.19	32.77	11.52	-48.2	-49.4	15.0	0.00e+00	0	29	0	540016640	63	3948
2026-01-04 05:41:02.18	32.67	11.59	-48.3	-49.5	15.0	0.00e+00	0	29	0	545259520	63	3980
2026-01-04 05:41:03.19	32.56	11.67	-48.3	-49.5	15.0	0.00e+00	0	28	0	550502400	63	4003
2026-01-04 05:41:04.19	32.45	11.75	-48.4	-49.6	14.9	0.00e+00	0	28	0	556793856	63	4018
2026-01-04 05:41:05.20	32.34	11.82	-48.3	-49.5	15.0	0.00e+00	0	28	0	562036736	63	3991
2026-01-04 05:41:06.19	32.23	11.90	-48.2	-49.4	15.0	0.00e+00	0	29	0	567279616	63	3946
2026-01-04 05:41:07.20	32.12	11.98	-48.3	-49.5	15.0	0.00e+00	0	28	0	573571072	63	3978
2026-01-04 05:41:08.20	32.01	12.05	-48.3	-49.5	15.0	0.00e+00	0	29	0	578813952	63	3970
2026-01-04 05:41:09.20	31.90	12.13	-48.3	-49.5	15.0	0.00e+00	0	29	0	585105408	63	3987
2026-01-04 05:41:10.20	31.79	12.21	-48.3	-49.5	15.0	0.00e+00	0	29	0	590348288	63	3993
2026-01-04 05:41:11.20	31.68	12.29	-48.4	-49.6	14.9	0.00e+00	0	29	0	595591168	63	4027
2026-01-04 05:41:12.20	31.57	12.36	-48.3	-49.5	15.0	0.00e+00	0	29	0	601882624	63	3978
2026-01-04 05:41:13.19	31.46	12.44	-48.3	-49.6	15.0	0.00e+00	0	28	0	607125504	63	4007
2026-01-04 05:41:14.19	31.34	12.52	-48.3	-49.5	15.0	0.00e+00	0	28	0	612368384	63	3996
2026-01-04 05:41:15.19	31.23	12.60	-48.3	-49.6	15.0	0.00e+00	0	28	0	618659840	63	4005
2026-01-04 05:41:16.19	31.11	12.67	-48.2	-49.4	15.0	0.00e+00	0	28	0	623902720	63	3926
2026-01-04 05:41:17.18	31.00	12.75	-48.1	-49.3	14.9	0.00e+00	0	28	0	629145600	62	4136
2026-01-04 05:41:18.17	30.88	12.83	-48.1	-49.4	14.9	0.00e+00	0	28	0	635437056	62	4149
2026-01-04 05:41:19.17	30.77	12.91	-48.1	-49.3	14.9	0.00e+00	0	28	0	640679936	62	4123
2026-01-04 05:41:20.17	30.65	12.99	-48.1	-49.3	14.9	0.00e+00	0	29	0	646971392	62	4123
2026-01-04 05:41:21.17	30.53	13.07	-48.1	-49.4	14.9	0.00e+00	0	28	0	652214272	62	4147
2026-01-04 05:41:22.17	30.41	13.14	-48.2	-49.4	14.9	0.00e+00	0	29	0	657457152	62	4176
2026-01-04 05:41:23.17	30.29	13.22	-48.1	-49.3	14.9	0.00e+00	0	29	0	663748608	62	4134
2026-01-04 05:41:24.17	30.17	13.30	-48.1	-49.3	14.9	0.00e+00	0	29	0	668991488	62	4142
2026-01-04 05:41:25.16	30.06	13.38	-48.1	-49.3	14.9	0.00e+00	0	29	0	674234368	62	4112
2026-01-04 05:41:26.16	29.93	13.46	-48.1	-49.3	14.9	0.00e+00	0	29	0	680525824	62	4134
2026-01-04 05:41:27.15	29.81	13.54	-48.0	-49.1	15.0	0.00e+00	0	29	0	685768704	62	4050
2026-01-04 05:41:28.16	29.69	13.62	-47.9	-49.1	15.1	0.00e+00	0	29	0	692060160	62	4009
2026-01-04 05:41:29.16	29.57	13.70	-47.8	-49.0	15.1	0.00e+00	0	29	0	697303040	62	3966
2026-01-04 05:41:30.15	29.44	13.78	-47.8	-49.0	15.1	0.00e+00	0	29	0	702545920	62	3960
2026-01-04 05:41:31.14	29.32	13.86	-47.9	-49.1	15.0	0.00e+00	0	28	0	707788800	62	4009
2026-01-04 05:41:32.13	29.20	13.94	-47.9	-49.1	15.1	0.00e+00	0	29	0	714080256	62	4010
2026-01-04 05:41:33.13	29.07	14.02	-47.8	-49.0	15.1	0.00e+00	0	29	0	719323136	62	3966
2026-01-04 05:41:34.12	28.94	14.10	-47.9	-49.1	15.0	0.00e+00	0	29	0	724566016	62	4007
2026-01-04 05:41:35.12	28.82	14.18	-47.8	-49.0	15.1	0.00e+00	0	29	0	730857472	62	3959
2026-01-04 05:41:36.11	28.69	14.26	-47.7	-48.9	15.1	0.00e+00	0	29	0	736100352	62	3945
2026-01-04 05:41:37.11	28.56	14.34	-47.8	-49.0	15.1	0.00e+00	0	28	0	742391808	62	3985
2026-01-04 05:41:38.10	28.43	14.42	-47.8	-48.9	15.1	0.00e+00	0	29	0	747634688	62	3944
2026-01-04 05:41:39.11	28.30	14.50	-47.7	-48.9	15.1	0.00e+00	0	29	0	752877568	62	3922
2026-01-04 05:41:40.10	28.17	14.58	-47.6	-48.8	15.0	0.00e+00	0	29	0	758120448	61	4108
2026-01-04 05:41:41.10	28.04	14.66	-47.7	-48.8	15.0	0.00e+00	0	29	0	764411904	61	4138
2026-01-04 05:41:42.09	27.91	14.74	-47.5	-48.7	15.1	0.00e+00	0	29	0	769654784	61	4054
2026-01-04 05:41:43.09	27.77	14.82	-47.4	-48.6	15.1	0.00e+00	0	29	0	774897664	61	4037
2026-01-04 05:41:44.09	27.64	14.91	-47.5	-48.7	15.1	0.00e+00	0	29	0	781189120	61	4067
2026-01-04 05:41:45.08	27.51	14.99	-47.4	-48.5	15.1	0.00e+00	0	28	0	786432000	61	3993
2026-01-04 05:41:46.09	27.37	15.07	-47.4	-48.5	15.1	0.00e+00	0	29	0	792723456	61	3991
2026-01-04 05:41:47.08	27.24	15.15	-47.3	-48.4	15.2	0.00e+00	0	29	0	797966336	61	3957
2026-01-04 05:41:48.09	27.10	15.23	-47.3	-48.5	15.2	0.00e+00	0	29	0	803209216	61	3970
2026-01-04 05:41:49.08	26.96	15.31	-47.3	-48.4	15.2	0.00e+00	0	28	0	809500672	61	3930
2026-01-04 05:41:50.08	26.82	15.40	-47.3	-48.4	15.1	0.00e+00	0	29	0	814743552	61	3957
2026-01-04 05:41:51.08	26.68	15.48	-47.4	-48.5	15.1	0.00e+00	0	29	0	819986432	61	3988
2026-01-04 05:41:52.08	26.54	15.56	-47.3	-48.4	15.2	0.00e+00	0	28	0	826277888	61	3932
2026-01-04 05:41:53.08	26.40	15.64	-47.1	-48.2	15.1	0.00e+00	0	29	0	831520768	60	4095
2026-01-04 05:41:54.08	26.26	15.73	-47.2	-48.3	15.1	0.00e+00	0	28	0	836763648	60	4136
2026-01-04 05:41:55.06	26.12	15.81	-47.2	-48.3	15.1	0.00e+00	0	28	0	843055104	60	4145
2026-01-04 05:41:56.06	25.98	15.89	-47.1	-48.2	15.1	0.00e+00	0	29	0	848297984	60	4086
2026-01-04 05:41:57.06	25.83	15.97	-47.1	-48.3	15.1	0.00e+00	0	28	0	854589440	60	4109
2026-01-04 05:41:58.06	25.69	16.06	-47.3	-48.4	15.1	0.00e+00	0	29	0	859832320	60	4167
2026-01-04 05:41:59.06	25.54	16.14	-47.2	-48.3	15.1	0.00e+00	0	28	0	865075200	60	4141
2026-01-04 05:42:00.05	25.40	16.22	-47.1	-48.3	15.1	0.00e+00	0	29	0	870318080	60	4099
2026-01-04 05:42:01.06	25.25	16.31	-47.0	-48.2	15.1	0.00e+00	0	28	0	876609536	60	4058
2026-01-04 05:42:02.06	25.10	16.39	-47.0	-48.1	15.2	0.00e+00	0	29	0	881852416	60	4028
2026-01-04 05:42:03.06	24.95	16.47	-47.0	-48.1	15.2	0.00e+00	0	29	0	888143872	60	4033
2026-01-04 05:42:04.07	24.80	16.56	-46.9	-48.0	15.2	0.00e+00	0	28	0	893386752	60	3990
2026-01-04 05:42:05.07	24.65	16.64	-46.9	-48.0	15.2	0.00e+00	0	29	0	898629632	60	4001
2026-01-04 05:42:06.06	24.50	16.72	-47.0	-48.1	15.2	0.00e+00	0	29	0	904921088	60	4040
2026-01-04 05:42:07.07	24.34	16.81	-47.0	-48.1	15.2	0.00e+00	0	29	0	910163968	60	4037
2026-01-04 05:42:08.07	24.19	16.89	-47.0	-48.1	15.1	0.00e+00	0	28	0	916455424	60	4036
2026-01-04 05:42:09.07	24.03	16.98	-47.0	-48.2	15.2	0.00e+00	0	28	0	921698304	60	4052
2026-01-04 05:42:10.07	23.88	17.06	-46.9	-48.0	15.2	0.00e+00	0	29	0	926941184	60	3989
2026-01-04 05:42:11.07	23.72	17.14	-46.9	-48.0	15.2	0.00e+00	0	28	0	933232640	60	3994
2026-01-04 05:42:12.07	23.57	17.23	-47.0	-48.1	15.2	0.00e+00	0	29	0	938475520	60	4026
2026-01-04 05:42:13.07	23.41	17.31	-46.9	-48.0	15.2	0.00e+00	0	29	0	943718400	60	4001
2026-01-04 05:42:14.06	23.25	17.40	-46.9	-48.0	15.2	0.00e+00	0	29	0	950009856	60	4000
2026-01-04 05:42:15.06	23.09	17.48	-46.9	-48.1	15.2	0.00e+00	0	29	0	955252736	60	4006
2026-01-04 05:42:16.06	22.93	17.57	-46.9	-48.0	15.2	0.00e+00	0	29	0	960495616	60	3978
2026-01-04 05:42:17.06	22.77	17.65	-46.8	-47.9	15.2	0.00e+00	0	29	0	966787072	60	3958
2026-01-04 05:42:18.05	22.61	17.73	-46.8	-47.9	15.2	0.00e+00	0	29	0	972029952	60	3954
2026-01-04 05:42:19.05	22.44	17.82	-46.7	-47.8	15.3	0.00e+00	0	29	0	977272832	60	3904
2026-01-04 05:42:20.05	22.28	17.90	-47.0	-48.1	15.1	0.00e+00	0	29	0	983564288	59	4247
2026-01-04 05:42:21.04	22.12	17.99	-47.0	-48.1	15.1	0.00e+00	0	29	0	988807168	59	4261
2026-01-04 05:42:22.04	21.95	18.07	-47.0	-48.1	15.1	0.00e+00	0	29	0	994050048	59	4265
2026-01-04 05:42:23.04	21.78	18.16	-46.9	-48.1	15.1	0.00e+00	0	29	0	1000341504	59	4246
2026-01-04 05:42:24.03	21.62	18.24	-47.0	-48.1	15.1	0.00e+00	0	29	0	1005584384	59	4271
2026-01-04 05:42:25.03	21.45	18.32	-47.0	-48.1	15.1	0.00e+00	0	29	0	1010827264	59	4269
2026-01-04 05:42:26.03	21.28	18.41	-47.0	-48.1	15.1	0.00e+00	0	29	0	1017118720	59	4291
2026-01-04 05:42:27.03	21.11	18.49	-46.9	-48.1	15.1	0.00e+00	0	29	0	1022361600	59	4252
2026-01-04 05:42:28.03	20.93	18.58	-47.0	-48.2	15.1	0.00e+00	0	29	0	1028653056	59	4307
2026-01-04 05:42:29.03	20.76	18.66	-46.9	-48.0	15.1	0.00e+00	0	29	0	1033895936	59	4219
2026-01-04 05:42:30.02	20.59	18.75	-46.9	-48.0	15.1	0.00e+00	0	29	0	1039138816	59	4222
2026-01-04 05:42:31.02	20.41	18.83	-46.9	-48.0	15.1	0.00e+00	0	29	0	1045430272	59	4228
2026-01-04 05:42:32.01	20.24	18.92	-46.9	-48.0	15.1	0.00e+00	0	29	0	1050673152	59	4235
2026-01-04 05:42:33.01	20.06	19.00	-46.8	-47.9	15.1	0.00e+00	0	29	0	1055916032	59	4185
2026-01-04 05:42:34.01	19.89	19.09	-46.8	-47.9	15.2	0.00e+00	0	29	0	1062207488	59	4153
2026-01-04 05:42:35.01	19.71	19.17	-46.8	-47.9	15.1	0.00e+00	0	29	0	1067450368	59	4175
2026-01-04 05:42:36.00	19.53	19.26	-46.6	-47.7	15.2	0.00e+00	0	29	0	1072693248	59	4064
2026-01-04 05:42:36.99	19.35	19.34	-46.5	-47.6	15.2	0.00e+00	0	28	0	1078984704	59	4035
2026-01-04 05:42:37.99	19.17	19.43	-46.6	-47.7	15.2	0.00e+00	0	29	0	1084227584	59	4057
2026-01-04 05:42:38.99	18.98	19.51	-46.7	-47.8	15.2	0.00e+00	0	28	0	1089470464	59	4132
2026-01-04 05:42:39.98	18.80	19.59	-46.8	-48.0	15.2	0.00e+00	0	28	0	1095761920	59	4194
2026-01-04 05:42:40.99	18.61	19.68	-47.0	-48.1	15.1	0.00e+00	0	28	0	1101004800	59	4274
2026-01-04 05:42:41.98	18.43	19.76	-47.0	-48.2	15.1	0.00e+00	0	29	0	1106247680	59	4296
2026-01-04 05:42:42.98	18.24	19.85	-47.0	-48.2	15.1	0.00e+00	0	29	0	1112539136	59	4298
2026-01-04 05:42:43.97	18.06	19.93	-46.9	-48.0	15.1	0.00e+00	0	29	0	1117782016	59	4240
2026-01-04 05:42:44.98	17.87	20.02	-46.9	-48.0	15.1	0.00e+00	0	29	0	1123024896	59	4239
2026-01-04 05:42:45.98	17.68	20.10	-46.9	-48.0	15.2	0.00e+00	0	29	0	1129316352	59	4210
2026-01-04 05:42:46.98	17.48	20.19	-46.8	-47.9	15.2	0.00e+00	0	29	0	1134559232	59	4166
2026-01-04 05:42:47.98	17.29	20.27	-46.8	-47.9	15.2	0.00e+00	0	29	0	1140850688	59	4178
2026-01-04 05:42:48.97	17.10	20.36	-46.8	-47.9	15.2	0.00e+00	0	28	0	1146093568	59	4156
2026-01-04 05:42:49.98	16.90	20.44	-46.7	-47.8	15.2	0.00e+00	0	29	0	1151336448	59	4144
2026-01-04 05:42:50.97	16.71	20.52	-46.8	-47.9	15.2	0.00e+00	0	29	0	1157627904	59	4151
2026-01-04 05:42:51.98	16.51	20.61	-46.8	-48.0	15.1	0.00e+00	0	28	0	1162870784	59	4197
2026-01-04 05:42:52.97	16.31	20.69	-46.8	-47.9	15.2	0.00e+00	0	29	0	1168113664	59	4183
2026-01-04 05:42:53.97	16.12	20.78	-46.8	-47.9	15.2	0.00e+00	0	29	0	1174405120	59	4158
2026-01-04 05:42:54.97	15.92	20.86	-46.6	-47.7	15.2	0.00e+00	0	29	0	1179648000	59	4094
2026-01-04 05:42:55.97	15.71	20.95	-46.7	-47.8	15.2	0.00e+00	0	29	0	1185939456	59	4101
2026-01-04 05:42:56.97	15.51	21.03	-46.6	-47.7	15.2	0.00e+00	0	28	0	1191182336	59	4077
2026-01-04 05:42:57.97	15.31	21.11	-46.6	-47.7	15.2	0.00e+00	0	29	0	1196425216	59	4088
2026-01-04 05:42:58.97	15.10	21.20	-46.6	-47.7	15.2	0.00e+00	0	29	0	1202716672	59	4066
2026-01-04 05:42:59.97	14.90	21.28	-46.6	-47.6	15.2	0.00e+00	0	29	0	1207959552	59	4050
2026-01-04 05:43:00.96	14.69	21.36	-46.4	-47.5	15.3	0.00e+00	0	28	0	1213202432	59	3965
2026-01-04 05:43:01.96	14.49	21.45	-46.4	-47.5	15.3	0.00e+00	0	29	0	1219493888	59	3969
2026-01-04 05:43:02.96	14.28	21.53	-46.5	-47.5	15.3	0.00e+00	0	28	0	1224736768	59	4002
2026-01-04 05:43:03.96	14.07	21.61	-46.3	-47.4	15.3	0.00e+00	0	29	0	1229979648	59	3945
2026-01-04 05:43:04.95	13.86	21.69	-46.4	-47.5	15.3	0.00e+00	0	29	0	1236271104	59	3959
2026-01-04 05:43:05.95	13.64	21.78	-46.3	-47.4	15.3	0.00e+00	0	29	0	1241513984	59	3938
2026-01-04 05:43:06.95	13.43	21.86	-46.3	-47.4	15.3	0.00e+00	0	29	0	1246756864	59	3930
2026-01-04 05:43:07.95	13.22	21.94	-46.3	-47.4	15.3	0.00e+00	0	29	0	1253048320	59	3944
2026-01-04 05:43:08.94	13.00	22.02	-46.2	-47.3	15.4	0.00e+00	0	29	0	1258291200	59	3869
2026-01-04 05:43:09.93	12.79	22.10	-46.1	-47.2	15.3	0.00e+00	0	29	0	1263534080	58	4052
2026-01-04 05:43:10.93	12.57	22.19	-46.0	-47.1	15.3	0.00e+00	0	29	0	1269825536	58	4020
2026-01-04 05:43:11.92	12.35	22.27	-46.1	-47.2	15.3	0.00e+00	0	29	0	1275068416	58	4065
2026-01-04 05:43:12.92	12.13	22.35	-46.2	-47.3	15.2	0.00e+00	0	29	0	1280311296	58	4099
2026-01-04 05:43:13.92	11.91	22.43	-46.2	-47.3	15.2	0.00e+00	0	29	0	1286602752	58	4121
2026-01-04 05:43:14.92	11.69	22.51	-46.2	-47.3	15.2	0.00e+00	0	28	0	1291845632	58	4131
2026-01-04 05:43:15.92	11.46	22.59	-46.3	-47.3	15.2	0.00e+00	0	29	0	1298137088	58	4127
2026-01-04 05:43:16.91	11.24	22.67	-46.2	-47.3	15.2	0.00e+00	0	29	0	1303379968	58	4133
2026-01-04 05:43:17.91	11.01	22.75	-46.4	-47.5	15.2	0.00e+00	0	29	0	1308622848	58	4207
2026-01-04 05:43:18.91	10.78	22.83	-46.3	-47.4	15.2	0.00e+00	0	29	0	1314914304	58	4187
2026-01-04 05:43:19.91	10.56	22.91	-46.3	-47.4	15.2	0.00e+00	0	29	0	1320157184	58	4174
2026-01-04 05:43:20.92	10.32	22.99	-46.3	-47.4	15.2	0.00e+00	0	29	0	1325400064	58	4181
2026-01-04 05:43:21.92	10.09	23.07	-46.2	-47.3	15.2	0.00e+00	0	29	0	1331691520	58	4133
2026-01-04 05:43:22.92	9.86	23.15	-46.2	-47.3	15.2	0.00e+00	0	29	0	1336934400	58	4121
2026-01-04 05:43:23.92	9.63	23.23	-46.2	-47.3	15.3	0.00e+00	0	29	0	1342177280	58	4099
2026-01-04 05:43:24.92	9.39	23.31	-46.1	-47.2	15.3	0.00e+00	0	29	0	1348468736	58	4054
2026-01-04 05:43:25.92	9.15	23.39	-46.1	-47.2	15.3	0.00e+00	0	29	0	1353711616	58	4076
2026-01-04 05:43:26.91	8.92	23.46	-46.1	-47.2	15.3	0.00e+00	0	29	0	1360003072	58	4054
2026-01-04 05:43:27.91	8.68	23.54	-46.1	-47.1	15.3	0.00e+00	0	29	0	1365245952	58	4051
2026-01-04 05:43:28.91	8.44	23.62	-46.2	-47.3	15.3	0.00e+00	0	29	0	1370488832	58	4100
2026-01-04 05:43:29.92	8.20	23.70	-46.2	-47.3	15.2	0.00e+00	0	29	0	1376780288	58	4104
2026-01-04 05:43:30.91	7.96	23.77	-46.2	-47.3	15.2	0.00e+00	0	29	0	1382023168	58	4113
2026-01-04 05:43:31.91	7.71	23.85	-46.3	-47.3	15.2	0.00e+00	0	29	0	1387266048	58	4136
2026-01-04 05:43:32.90	7.47	23.93	-46.1	-47.1	15.3	0.00e+00	0	29	0	1392508928	58	4046
2026-01-04 05:43:33.89	7.23	24.00	-46.0	-47.1	15.3	0.00e+00	0	29	0	1398800384	58	4023
2026-01-04 05:43:34.89	6.98	24.08	-46.2	-47.2	15.2	0.00e+00	0	29	0	1404043264	58	4094
2026-01-04 05:43:35.89	6.73	24.15	-46.1	-47.2	15.3	0.00e+00	0	29	0	1410334720	58	4085
2026-01-04 05:43:36.89	6.49	24.23	-46.2	-47.3	15.2	0.00e+00	0	29	0	1415577600	58	4137
2026-01-04 05:43:37.89	6.24	24.30	-46.1	-47.2	15.3	0.00e+00	0	29	0	1420820480	58	4073
2026-01-04 05:43:38.89	5.98	24.37	-46.2	-47.3	15.2	0.00e+00	0	29	0	1427111936	58	4099
2026-01-04 05:43:39.89	5.73	24.45	-46.1	-47.1	15.3	0.00e+00	0	29	0	1432354816	58	4043
2026-01-04 05:43:40.89	5.48	24.52	-46.0	-47.0	15.3	0.00e+00	0	29	0	1437597696	58	4002
2026-01-04 05:43:41.88	5.22	24.59	-46.0	-47.1	15.3	0.00e+00	0	29	0	1443889152	58	4014
2026-01-04 05:43:42.89	4.96	24.67	-46.1	-47.2	15.3	0.00e+00	0	29	0	1449132032	58	4076
2026-01-04 05:43:43.89	4.71	24.74	-46.0	-47.1	15.3	0.00e+00	0	29	0	1454374912	58	4017
2026-01-04 05:43:44.88	4.45	24.81	-46.0	-47.1	15.3	0.00e+00	0	29	0	1460666368	58	4015
2026-01-04 05:43:45.88	4.19	24.88	-46.0	-47.0	15.3	0.00e+00	0	29	0	1465909248	58	4002
2026-01-04 05:43:46.87	3.93	24.95	-45.9	-46.9	15.4	0.00e+00	0	29	0	1472200704	58	3942
2026-01-04 05:43:47.87	3.67	25.02	-45.9	-46.9	15.3	0.00e+00	0	29	0	1477443584	58	3953
2026-01-04 05:43:48.86	3.41	25.09	-46.0	-47.1	15.3	0.00e+00	0	29	0	1482686464	58	4010
2026-01-04 05:43:49.87	3.14	25.16	-46.1	-47.1	15.3	0.00e+00	0	29	0	1488977920	58	4045
2026-01-04 05:43:50.87	2.88	25.23	-45.9	-47.0	15.3	0.00e+00	0	29	0	1494220800	58	3977
2026-01-04 05:43:51.87	2.61	25.29	-46.0	-47.0	15.3	0.00e+00	0	29	0	1499463680	58	4002
2026-01-04 05:43:52.87	2.34	25.36	-45.9	-46.9	15.3	0.00e+00	0	29	0	1505755136	58	3958
2026-01-04 05:43:53.88	2.07	25.43	-45.7	-46.8	15.4	0.00e+00	0	29	0	1510998016	58	3887
2026-01-04 05:43:54.87	1.80	25.50	-45.7	-46.8	15.5	0.00e+00	0	29	0	1516240896	58	3870
2026-01-04 05:43:55.87	1.53	25.56	-45.7	-46.7	15.4	0.00e+00	0	29	0	1522532352	58	3865
2026-01-04 05:43:56.87	1.26	25.63	-45.6	-46.7	15.3	0.00e+00	0	29	0	1527775232	57	4065
2026-01-04 05:43:57.87	0.98	25.69	-45.7	-46.8	15.3	0.00e+00	0	29	0	1534066688	57	4104
2026-01-04 05:43:58.87	0.71	25.76	-45.6	-46.7	15.3	0.00e+00	0	29	0	1539309568	57	4068
2026-01-04 05:43:59.87	0.43	25.82	-45.8	-46.8	15.3	0.00e+00	0	29	0	1544552448	57	4135
2026-01-04 05:44:00.86	0.16	25.88	-45.9	-46.9	15.3	0.00e+00	0	29	0	1550843904	57	4186
2026-01-04 05:44:01.86	359.88	25.94	-45.9	-47.0	15.2	0.00e+00	0	29	0	1556086784	57	4218
2026-01-04 05:44:02.86	359.60	26.01	-46.0	-47.0	15.2	0.00e+00	0	29	0	1561329664	57	4235
2026-01-04 05:44:03.86	359.32	26.07	-45.9	-47.0	15.2	0.00e+00	0	29	0	1566572544	57	4213
2026-01-04 05:44:04.85	359.04	26.13	-46.0	-47.0	15.2	0.00e+00	0	29	0	1572864000	57	4226
2026-01-04 05:44:05.85	358.76	26.19	-45.8	-46.9	15.3	0.00e+00	0	29	0	1578106880	57	4158
2026-01-04 05:44:06.84	358.48	26.25	-45.9	-46.9	15.2	0.00e+00	0	29	0	1584398336	57	4173
2026-01-04 05:44:07.84	358.19	26.31	-45.9	-46.9	15.2	0.00e+00	0	29	0	1589641216	57	4187
2026-01-04 05:44:08.83	357.91	26.36	-45.8	-46.8	15.3	0.00e+00	0	29	0	1594884096	57	4139
2026-01-04 05:44:09.83	357.62	26.42	-45.7	-46.7	15.3	0.00e+00	0	29	0	1601175552	57	4080
2026-01-04 05:44:10.82	357.34	26.48	-45.7	-46.7	15.3	0.00e+00	0	29	0	1606418432	57	4084
2026-01-04 05:44:11.81	357.05	26.53	-45.7	-46.8	15.3	0.00e+00	0	29	0	1611661312	57	4114
2026-01-04 05:44:12.81	356.76	26.59	-45.9	-46.9	15.3	0.00e+00	0	29	0	1617952768	57	4178
2026-01-04 05:44:13.81	356.47	26.64	-45.8	-46.8	15.3	0.00e+00	0	29	0	1623195648	57	4127
2026-01-04 05:44:14.81	356.18	26.70	-45.6	-46.6	15.3	0.00e+00	0	29	0	1628438528	57	4040
2026-01-04 05:44:15.82	355.88	26.75	-45.5	-46.5	15.4	0.00e+00	0	29	0	1634729984	57	3967
2026-01-04 05:44:16.81	355.59	26.80	-45.5	-46.5	15.4	0.00e+00	0	29	0	1639972864	57	3990
2026-01-04 05:44:17.81	355.29	26.85	-45.5	-46.5	15.4	0.00e+00	0	29	0	1646264320	57	3979
2026-01-04 05:44:18.80	355.00	26.90	-45.5	-46.6	15.4	0.00e+00	0	29	0	1651507200	57	4008
2026-01-04 05:44:19.80	354.70	26.95	-45.6	-46.7	15.3	0.00e+00	0	29	0	1656750080	57	4068
2026-01-04 05:44:20.80	354.41	27.00	-45.7	-46.7	15.3	0.00e+00	0	29	0	1661992960	57	4097
2026-01-04 05:44:21.80	354.11	27.05	-45.7	-46.7	15.3	0.00e+00	0	29	0	1668284416	57	4092
2026-01-04 05:44:22.80	353.81	27.10	-45.6	-46.6	15.3	0.00e+00	0	29	0	1673527296	57	4047
2026-01-04 05:44:23.79	353.51	27.15	-45.5	-46.6	15.3	0.00e+00	0	29	0	1679818752	57	4013
2026-01-04 05:44:24.79	353.21	27.19	-45.5	-46.6	15.3	0.00e+00	0	29	0	1685061632	57	4010
2026-01-04 05:44:25.78	352.91	27.24	-45.6	-46.7	15.3	0.00e+00	0	29	0	1690304512	57	4056
2026-01-04 05:44:26.78	352.61	27.28	-45.6	-46.7	15.3	0.00e+00	0	29	0	1696595968	57	4058
2026-01-04 05:44:27.77	352.30	27.33	-45.7	-46.8	15.3	0.00e+00	0	29	0	1701838848	57	4109
2026-01-04 05:44:28.77	352.00	27.37	-45.8	-46.8	15.3	0.00e+00	0	29	0	1707081728	57	4140
2026-01-04 05:44:29.76	351.70	27.41	-45.7	-46.7	15.3	0.00e+00	0	29	0	1713373184	57	4092
2026-01-04 05:44:30.76	351.39	27.45	-45.6	-46.6	15.3	0.00e+00	0	29	0	1718616064	57	4037
2026-01-04 05:44:31.75	351.09	27.49	-45.4	-46.4	15.4	0.00e+00	0	29	0	1723858944	57	3941
2026-01-04 05:44:32.75	350.78	27.53	-45.4	-46.5	15.4	0.00e+00	0	29	0	1730150400	57	3962
2026-01-04 05:44:33.74	350.47	27.57	-45.4	-46.4	15.4	0.00e+00	0	29	0	1735393280	57	3948
2026-01-04 05:44:34.74	350.16	27.61	-45.4	-46.4	15.4	0.00e+00	0	29	0	1740636160	57	3932
2026-01-04 05:44:35.73	349.86	27.65	-45.4	-46.5	15.4	0.00e+00	0	29	0	1746927616	57	3963
2026-01-04 05:44:36.73	349.54	27.68	-45.4	-46.4	15.4	0.00e+00	0	29	0	1752170496	57	3949
2026-01-04 05:44:37.72	349.24	27.72	-45.4	-46.5	15.4	0.00e+00	0	29	0	1757413376	57	3963
2026-01-04 05:44:38.71	348.93	27.75	-45.4	-46.4	15.4	0.00e+00	0	29	0	1763704832	57	3948
2026-01-04 05:44:39.70	348.62	27.79	-45.4	-46.4	15.4	0.00e+00	0	29	0	1768947712	57	3942
2026-01-04 05:44:40.70	348.30	27.82	-45.4	-46.4	15.4	0.00e+00	0	29	0	1774190592	57	3935
2026-01-04 05:44:41.70	347.99	27.85	-45.3	-46.3	15.4	0.00e+00	0	28	0	1780482048	57	3894
2026-01-04 05:44:42.70	347.67	27.88	-45.3	-46.4	15.4	0.00e+00	0	29	0	1785724928	57	3921
2026-01-04 05:44:43.69	347.36	27.91	-45.4	-46.4	15.4	0.00e+00	0	29	0	1790967808	57	3955
2026-01-04 05:44:44.69	347.04	27.94	-45.3	-46.4	15.4	0.00e+00	0	29	0	1797259264	57	3919
2026-01-04 05:44:45.69	346.73	27.97	-45.4	-46.4	15.4	0.00e+00	0	28	0	1802502144	57	3946
2026-01-04 05:44:46.69	346.41	28.00	-45.4	-46.5	15.4	0.00e+00	0	29	0	1807745024	57	3972
2026-01-04 05:44:47.69	346.09	28.02	-45.4	-46.4	15.4	0.00e+00	0	29	0	1814036480	57	3932
2026-01-04 05:44:48.69	345.77	28.05	-45.4	-46.4	15.4	0.00e+00	0	29	0	1819279360	57	3939
2026-01-04 05:44:49.69	345.45	28.07	-45.4	-46.4	15.4	0.00e+00	0	29	0	1824522240	57	3938
2026-01-04 05:44:50.68	345.14	28.10	-45.4	-46.4	15.4	0.00e+00	0	29	0	1830813696	57	3952
2026-01-04 05:44:51.69	344.81	28.12	-45.4	-46.4	15.4	0.00e+00	0	29	0	1836056576	57	3929
2026-01-04 05:44:52.69	344.49	28.14	-45.4	-46.4	15.4	0.00e+00	0	29	0	1842348032	57	3930
2026-01-04 05:44:53.69	344.17	28.16	-45.3	-46.3	15.4	0.00e+00	0	29	0	1847590912	57	3895
2026-01-04 05:44:54.69	343.85	28.18	-45.2	-46.2	15.5	0.00e+00	0	29	0	1852833792	57	3866
2026-01-04 05:44:55.69	343.53	28.20	-45.1	-46.2	15.3	0.00e+00	0	29	0	1859125248	56	4069
2026-01-04 05:44:56.70	343.20	28.21	-45.2	-46.2	15.3	0.00e+00	0	29	0	1864368128	56	4075
2026-01-04 05:44:57.69	342.89	28.23	-45.0	-46.1	15.4	0.00e+00	0	29	0	1869611008	56	4009
2026-01-04 05:44:58.68	342.57	28.25	-45.1	-46.1	15.4	0.00e+00	0	29	0	1875902464	56	4021
2026-01-04 05:44:59.68	342.24	28.26	-44.9	-45.9	15.4	0.00e+00	0	29	0	1881145344	56	3958
2026-01-04 05:45:00.68	341.92	28.27	-45.0	-46.0	15.4	0.00e+00	0	29	0	1886388224	56	3971
2026-01-04 05:45:01.68	341.60	28.29	-45.1	-46.1	15.4	0.00e+00	0	29	0	1892679680	56	4026
2026-01-04 05:45:02.68	341.27	28.30	-45.3	-46.3	15.3	0.00e+00	0	29	0	1897922560	56	4115
2026-01-04 05:45:03.69	340.95	28.31	-45.3	-46.3	15.3	0.00e+00	0	29	0	1904214016	56	4137
2026-01-04 05:45:04.68	340.62	28.32	-45.3	-46.3	15.3	0.00e+00	0	29	0	1909456896	56	4143
2026-01-04 05:45:05.67	340.30	28.33	-45.3	-46.3	15.3	0.00e+00	0	29	0	1914699776	56	4119
2026-01-04 05:45:06.67	339.98	28.33	-45.3	-46.4	15.3	0.00e+00	0	29	0	1920991232	56	4148
2026-01-04 05:45:07.67	339.65	28.34	-45.2	-46.2	15.3	0.00e+00	0	29	0	1926234112	56	4092
2026-01-04 05:45:08.67	339.33	28.34	-45.2	-46.2	15.3	0.00e+00	0	29	0	1931476992	56	4096
2026-01-04 05:45:09.67	339.00	28.35	-45.3	-46.3	15.3	0.00e+00	0	29	0	1937768448	56	4121
2026-01-04 05:45:10.67	338.68	28.35	-45.3	-46.3	15.3	0.00e+00	0	29	0	1943011328	56	4145
2026-01-04 05:45:11.67	338.35	28.35	-45.4	-46.4	15.3	0.00e+00	0	29	0	1948254208	56	4193
2026-01-04 05:45:12.67	338.03	28.35	-45.4	-46.5	15.3	0.00e+00	0	29	0	1954545664	56	4212
2026-01-04 05:45:13.67	337.70	28.35	-45.3	-46.4	15.3	0.00e+00	0	29	0	1959788544	56	4158
2026-01-04 05:45:14.67	337.38	28.35	-45.4	-46.4	15.3	0.00e+00	0	29	0	1966080000	56	4174
2026-01-04 05:45:15.67	337.05	28.35	-45.3	-46.3	15.3	0.00e+00	0	29	0	1971322880	56	4134
2026-01-04 05:45:16.66	336.73	28.35	-45.2	-46.3	15.3	0.00e+00	0	29	0	1976565760	56	4104
2026-01-04 05:45:17.66	336.41	28.34	-45.2	-46.2	15.3	0.00e+00	0	29	0	1982857216	56	4081
2026-01-04 05:45:18.66	336.08	28.34	-45.2	-46.3	15.3	0.00e+00	0	29	0	1988100096	56	4100
2026-01-04 05:45:19.66	335.76	28.33	-45.2	-46.2	15.3	0.00e+00	0	29	0	1993342976	56	4075
2026-01-04 05:45:20.65	335.44	28.33	-45.1	-46.2	15.4	0.00e+00	0	28	0	1998585856	56	4052
2026-01-04 05:45:21.65	335.11	28.32	-45.1	-46.2	15.3	0.00e+00	0	29	0	2004877312	56	4060
2026-01-04 05:45:22.65	334.79	28.31	-45.2	-46.2	15.3	0.00e+00	0	29	0	2010120192	56	4085
2026-01-04 05:45:23.65	334.46	28.30	-45.2	-46.2	15.3	0.00e+00	0	29	0	2016411648	56	4061
2026-01-04 05:45:24.65	334.14	28.29	-45.2	-46.2	15.3	0.00e+00	0	29	0	2021654528	56	4068
2026-01-04 05:45:25.65	333.82	28.28	-45.2	-46.2	15.3	0.00e+00	0	29	0	2026897408	56	4080
2026-01-04 05:45:26.65	333.49	28.26	-45.1	-46.2	15.3	0.00e+00	0	29	0	2033188864	56	4053
2026-01-04 05:45:27.65	333.17	28.25	-45.1	-46.1	15.4	0.00e+00	0	29	0	2038431744	56	4050
2026-01-04 05:45:28.65	332.85	28.23	-45.2	-46.2	15.3	0.00e+00	0	29	0	2043674624	56	4094
2026-01-04 05:45:29.65	332.53	28.22	-45.2	-46.2	15.3	0.00e+00	0	29	0	2049966080	56	4091
2026-01-04 05:45:30.64	332.21	28.20	-45.2	-46.2	15.3	0.00e+00	0	29	0	2055208960	56	4069
2026-01-04 05:45:31.64	331.88	28.18	-45.3	-46.3	15.3	0.00e+00	0	29	0	2060451840	56	4133
2026-01-04 05:45:32.63	331.57	28.16	-45.3	-46.3	15.3	0.00e+00	0	29	0	2066743296	56	4133
2026-01-04 05:45:33.63	331.25	28.14	-45.3	-46.3	15.3	0.00e+00	0	29	0	2071986176	56	4124
2026-01-04 05:45:34.62	330.93	28.12	-45.3	-46.3	15.3	0.00e+00	0	29	0	2078277632	56	4145
2026-01-04 05:45:35.62	330.61	28.10	-45.4	-46.4	15.3	0.00e+00	0	29	0	2083520512	56	4167
2026-01-04 05:45:36.61	330.29	28.08	-45.3	-46.4	15.3	0.00e+00	0	29	0	2088763392	56	4169
2026-01-04 05:45:37.61	329.97	28.05	-45.4	-46.4	15.3	0.00e+00	0	29	0	2095054848	56	4182
2026-01-04 05:45:38.61	329.65	28.03	-45.3	-46.3	15.3	0.00e+00	0	29	0	2100297728	56	4118
2026-01-04 05:45:39.61	329.33	28.00	-45.3	-46.3	15.3	0.00e+00	0	29	0	2105540608	56	4126
2026-01-04 05:45:40.60	329.02	27.97	-45.3	-46.3	15.3	0.00e+00	0	29	0	2110783488	56	4118
2026-01-04 05:45:41.60	328.70	27.95	-45.2	-46.2	15.3	0.00e+00	0	29	0	2117074944	56	4072
2026-01-04 05:45:42.59	328.39	27.92	-45.3	-46.3	15.3	0.00e+00	0	29	0	2122317824	56	4132
2026-01-04 05:45:43.59	328.07	27.89	-45.3	-46.3	15.3	0.00e+00	0	29	0	2128609280	56	4119
2026-01-04 05:45:44.59	327.76	27.86	-45.3	-46.3	15.3	0.00e+00	0	29	0	2133852160	56	4128
2026-01-04 05:45:45.59	327.44	27.83	-45.3	-46.3	15.3	0.00e+00	0	29	0	2139095040	56	4130
2026-01-04 05:45:46.59	327.13	27.79	-45.3	-46.3	15.3	0.00e+00	0	29	0	2145386496	56	4129
2026-01-04 05:45:47.59	326.82	27.76	-45.3	-46.3	15.3	0.00e+00	0	29	0	2150629376	56	4117
2026-01-04 05:45:48.59	326.50	27.73	-45.3	-46.3	15.3	0.00e+00	0	29	0	2155872256	56	4116
2026-01-04 05:45:49.58	326.19	27.69	-45.3	-46.3	15.3	0.00e+00	0	29	0	2162163712	56	4104
2026-01-04 05:45:50.58	325.88	27.65	-45.2	-46.2	15.3	0.00e+00	0	29	0	2167406592	56	4094
2026-01-04 05:45:51.58	325.57	27.62	-45.3	-46.4	15.3	0.00e+00	0	29	0	2172649472	56	4147
2026-01-04 05:45:52.58	325.26	27.58	-45.4	-46.4	15.3	0.00e+00	0	29	0	2178940928	56	4188
2026-01-04 05:45:53.58	324.95	27.54	-45.4	-46.4	15.3	0.00e+00	0	29	0	2184183808	56	4180
2026-01-04 05:45:54.58	324.64	27.50	-45.3	-46.4	15.3	0.00e+00	0	29	0	2190475264	56	4148
2026-01-04 05:45:55.58	324.34	27.46	-45.4	-46.4	15.3	0.00e+00	0	29	0	2195718144	56	4187
2026-01-04 05:45:56.58	324.03	27.42	-45.4	-46.4	15.3	0.00e+00	0	29	0	2200961024	56	4171
2026-01-04 05:45:57.59	323.72	27.38	-45.3	-46.3	15.3	0.00e+00	0	29	0	2207252480	56	4122
2026-01-04 05:45:58.58	323.42	27.33	-45.3	-46.4	15.3	0.00e+00	0	29	0	2212495360	56	4161
2026-01-04 05:45:59.58	323.11	27.29	-45.3	-46.3	15.3	0.00e+00	0	29	0	2217738240	56	4112
2026-01-04 05:46:00.58	322.81	27.24	-45.2	-46.2	15.3	0.00e+00	0	29	0	2224029696	56	4083
2026-01-04 05:46:01.59	322.50	27.20	-45.1	-46.1	15.4	0.00e+00	0	29	0	2229272576	56	4050
2026-01-04 05:46:02.59	322.20	27.15	-45.2	-46.3	15.3	0.00e+00	0	29	0	2235564032	56	4099
2026-01-04 05:46:03.59	321.90	27.11	-45.1	-46.1	15.4	0.00e+00	0	29	0	2240806912	56	4050
2026-01-04 05:46:04.58	321.60	27.06	-45.2	-46.2	15.4	0.00e+00	0	29	0	2246049792	56	4070
2026-01-04 05:46:05.58	321.30	27.01	-45.2	-46.2	15.3	0.00e+00	0	29	0	2252341248	56	4094
2026-01-04 05:46:06.58	321.01	26.96	-45.3	-46.3	15.3	0.00e+00	0	29	0	2257584128	56	4118
2026-01-04 05:46:07.58	320.71	26.91	-45.4	-46.4	15.3	0.00e+00	0	29	0	2262827008	56	4166
2026-01-04 05:46:08.58	320.41	26.86	-45.5	-46.5	15.3	0.00e+00	0	29	0	2269118464	56	4240
2026-01-04 05:46:09.58	320.12	26.81	-45.5	-46.5	15.2	0.00e+00	0	29	0	2274361344	56	4227
2026-01-04 05:46:10.57	319.82	26.75	-45.5	-46.6	15.3	0.00e+00	0	29	0	2279604224	56	4249
2026-01-04 05:46:11.57	319.53	26.70	-45.6	-46.6	15.2	0.00e+00	0	29	0	2285895680	56	4283
2026-01-04 05:46:12.57	319.24	26.65	-45.6	-46.6	15.2	0.00e+00	0	29	0	2291138560	56	4274
2026-01-04 05:46:13.57	318.95	26.59	-45.5	-46.5	15.3	0.00e+00	0	29	0	2297430016	56	4242
2026-01-04 05:46:14.57	318.66	26.54	-45.5	-46.6	15.3	0.00e+00	0	29	0	2302672896	56	4254
2026-01-04 05:46:15.57	318.37	26.48	-45.4	-46.5	15.3	0.00e+00	0	29	0	2307915776	56	4200
2026-01-04 05:46:16.56	318.08	26.42	-45.4	-46.4	15.3	0.00e+00	0	28	0	2314207232	56	4177
2026-01-04 05:46:17.57	317.79	26.37	-45.4	-46.4	15.3	0.00e+00	0	29	0	2319450112	56	4161
2026-01-04 05:46:18.57	317.50	26.31	-45.4	-46.4	15.3	0.00e+00	0	29	0	2324692992	56	4171
2026-01-04 05:46:19.57	317.22	26.25	-45.3	-46.4	15.3	0.00e+00	0	29	0	2330984448	56	4149
2026-01-04 05:46:20.57	316.94	26.19	-45.4	-46.5	15.3	0.00e+00	0	29	0	2336227328	56	4201
2026-01-04 05:46:21.57	316.65	26.13	-45.4	-46.5	15.3	0.00e+00	0	29	0	2341470208	56	4198
2026-01-04 05:46:22.56	316.37	26.07	-45.6	-46.6	15.2	0.00e+00	0	29	0	2347761664	56	4259
2026-01-04 05:46:23.57	316.09	26.01	-45.6	-46.7	15.2	0.00e+00	0	29	0	2353004544	56	4298
2026-01-04 05:46:24.56	315.81	25.95	-45.6	-46.6	15.2	0.00e+00	0	29	0	2359296000	56	4273
2026-01-04 05:46:25.56	315.53	25.88	-45.5	-46.6	15.3	0.00e+00	0	29	0	2364538880	56	4253
2026-01-04 05:46:26.56	315.26	25.82	-45.6	-46.6	15.2	0.00e+00	0	29	0	2369781760	56	4270
2026-01-04 05:46:27.55	314.98	25.76	-45.6	-46.6	15.2	0.00e+00	0	29	0	2375024640	56	4277
2026-01-04 05:46:28.55	314.71	25.69	-45.5	-46.5	15.3	0.00e+00	0	29	0	2381316096	56	4239
2026-01-04 05:46:29.54	314.43	25.63	-45.4	-46.4	15.3	0.00e+00	0	29	0	2386558976	56	4170
2026-01-04 05:46:30.54	314.16	25.56	-45.4	-46.5	15.3	0.00e+00	0	29	0	2391801856	56	4197
2026-01-04 05:46:31.53	313.89	25.50	-45.5	-46.6	15.3	0.00e+00	0	29	0	2398093312	56	4250
2026-01-04 05:46:32.53	313.62	25.43	-45.6	-46.7	15.2	0.00e+00	0	29	0	2403336192	56	4311
2026-01-04 05:46:33.52	313.35	25.36	-45.7	-46.7	15.2	0.00e+00	0	29	0	2409627648	56	4339
2026-01-04 05:46:34.52	313.09	25.30	-45.8	-46.9	15.2	0.00e+00	0	29	0	2414870528	56	4415
2026-01-04 05:46:35.51	312.82	25.23	-45.9	-46.9	15.2	0.00e+00	0	29	0	2420113408	56	4419
2026-01-04 05:46:36.51	312.55	25.16	-45.9	-46.9	15.3	0.00e+00	0	29	0	2426404864	57	4175
2026-01-04 05:46:37.51	312.29	25.09	-45.9	-47.0	15.2	0.00e+00	0	29	0	2431647744	57	4200
2026-01-04 05:46:38.51	312.03	25.02	-46.0	-47.1	15.2	0.00e+00	0	29	0	2436890624	57	4262
2026-01-04 05:46:39.51	311.76	24.95	-46.0	-47.0	15.2	0.00e+00	0	29	0	2443182080	57	4233
2026-01-04 05:46:40.51	311.50	24.88	-46.0	-47.0	15.2	0.00e+00	0	29	0	2448424960	57	4240
2026-01-04 05:46:41.50	311.24	24.81	-45.8	-46.9	15.3	0.00e+00	0	29	0	2453667840	57	4147
2026-01-04 05:46:42.50	310.98	24.74	-45.8	-46.9	15.3	0.00e+00	0	29	0	2459959296	57	4160
2026-01-04 05:46:43.49	310.73	24.67	-45.9	-47.0	15.2	0.00e+00	0	29	0	2465202176	57	4202
2026-01-04 05:46:44.48	310.47	24.60	-45.9	-46.9	15.2	0.00e+00	0	29	0	2470445056	57	4193
2026-01-04 05:46:45.48	310.22	24.52	-45.8	-46.8	15.3	0.00e+00	0	29	0	2476736512	57	4145
2026-01-04 05:46:46.48	309.96	24.45	-45.8	-46.8	15.3	0.00e+00	0	29	0	2481979392	57	4142
2026-01-04 05:46:47.46	309.71	24.38	-45.8	-46.8	15.3	0.00e+00	0	29	0	2487222272	57	4143
2026-01-04 05:46:48.45	309.47	24.31	-45.8	-46.9	15.2	0.00e+00	0	29	0	2492465152	57	4166
2026-01-04 05:46:49.45	309.21	24.23	-45.9	-47.0	15.2	0.00e+00	0	29	0	2498756608	57	4197
2026-01-04 05:46:50.45	308.96	24.16	-45.9	-47.0	15.2	0.00e+00	0	29	0	2503999488	57	4198
2026-01-04 05:46:51.45	308.72	24.08	-45.9	-47.0	15.2	0.00e+00	0	29	0	2510290944	57	4218
2026-01-04 05:46:52.46	308.47	24.01	-45.9	-47.0	15.3	0.00e+00	0	29	0	2515533824	57	4202
2026-01-04 05:46:53.46	308.22	23.93	-45.9	-47.0	15.2	0.00e+00	0	29	0	2520776704	57	4201
2026-01-04 05:46:54.45	307.98	23.85	-45.7	-46.8	15.3	0.00e+00	0	29	0	2527068160	57	4110
2026-01-04 05:46:55.45	307.73	23.78	-45.8	-46.8	15.3	0.00e+00	0	29	0	2532311040	57	4144
2026-01-04 05:46:56.46	307.49	23.70	-45.7	-46.7	15.3	0.00e+00	0	29	0	2538602496	57	4078
2026-01-04 05:46:57.45	307.25	23.62	-45.7	-46.7	15.3	0.00e+00	0	29	0	2543845376	57	4093
2026-01-04 05:46:58.45	307.01	23.55	-45.8	-46.8	15.3	0.00e+00	0	29	0	2549088256	57	4122
2026-01-04 05:46:59.45	306.77	23.47	-45.9	-47.0	15.3	0.00e+00	0	29	0	2554331136	57	4207
2026-01-04 05:47:00.46	306.53	23.39	-46.1	-47.2	15.2	0.00e+00	0	29	0	2560622592	57	4331
2026-01-04 05:47:01.46	306.29	23.31	-46.2	-47.3	15.2	0.00e+00	0	29	0	2565865472	57	4358
2026-01-04 05:47:02.45	306.06	23.23	-46.2	-47.3	15.2	0.00e+00	0	29	0	2572156928	57	4350
2026-01-04 05:47:03.45	305.83	23.15	-46.0	-47.0	15.2	0.00e+00	0	29	0	2577399808	57	4221
2026-01-04 05:47:04.45	305.59	23.07	-45.8	-46.9	15.3	0.00e+00	0	29	0	2582642688	57	4153
2026-01-04 05:47:05.45	305.36	23.00	-46.0	-47.0	15.2	0.00e+00	0	29	0	2588934144	57	4241
2026-01-04 05:47:06.45	305.13	22.92	-46.0	-47.1	15.2	0.00e+00	0	29	0	2594177024	57	4264
2026-01-04 05:47:07.44	304.90	22.84	-46.1	-47.2	15.2	0.00e+00	0	29	0	2599419904	57	4294
2026-01-04 05:47:08.44	304.67	22.76	-46.2	-47.3	15.2	0.00e+00	0	29	0	2605711360	57	4356
2026-01-04 05:47:09.44	304.45	22.68	-46.2	-47.3	15.2	0.00e+00	0	29	0	2610954240	57	4361
2026-01-04 05:47:10.44	304.22	22.59	-46.1	-47.2	15.2	0.00e+00	0	29	0	2616197120	57	4292
2026-01-04 05:47:11.44	304.00	22.51	-46.1	-47.1	15.2	0.00e+00	0	29	0	2622488576	57	4289
2026-01-04 05:47:12.44	303.77	22.43	-46.2	-47.3	15.2	0.00e+00	0	29	0	2627731456	57	4347
2026-01-04 05:47:13.44	303.55	22.35	-46.3	-47.4	15.2	0.00e+00	0	29	0	2634022912	57	4393
2026-01-04 05:47:14.43	303.33	22.27	-46.4	-47.5	15.2	0.00e+00	0	29	0	2639265792	58	4229
2026-01-04 05:47:15.43	303.11	22.19	-46.4	-47.4	15.2	0.00e+00	0	29	0	2644508672	58	4175
2026-01-04 05:47:16.42	302.90	22.11	-46.3	-47.4	15.2	0.00e+00	0	29	0	2650800128	58	4170
2026-01-04 05:47:17.43	302.68	22.02	-46.3	-47.3	15.3	0.00e+00	0	29	0	2656043008	58	4136
2026-01-04 05:47:18.42	302.46	21.94	-46.3	-47.4	15.2	0.00e+00	0	29	0	2661285888	58	4172
2026-01-04 05:47:19.42	302.25	21.86	-46.5	-47.6	15.2	0.00e+00	0	29	0	2667577344	58	4267
2026-01-04 05:47:20.42	302.03	21.78	-46.6	-47.7	15.2	0.00e+00	0	29	0	2672820224	58	4311
2026-01-04 05:47:21.42	301.82	21.69	-46.7	-47.8	15.1	0.00e+00	0	29	0	2678063104	58	4352
2026-01-04 05:47:22.42	301.61	21.61	-46.7	-47.8	15.1	0.00e+00	0	29	0	2684354560	58	4371
2026-01-04 05:47:23.42	301.40	21.53	-46.8	-47.8	15.1	0.00e+00	0	29	0	2689597440	58	4391
2026-01-04 05:47:24.42	301.19	21.45	-46.7	-47.8	15.1	0.00e+00	0	29	0	2695888896	58	4353
2026-01-04 05:47:25.42	300.98	21.36	-46.8	-47.9	15.1	0.00e+00	0	29	0	2701131776	58	4398
2026-01-04 05:47:26.42	300.77	21.28	-46.7	-47.8	15.1	0.00e+00	0	29	0	2706374656	58	4378
2026-01-04 05:47:27.41	300.57	21.20	-46.8	-47.9	15.1	0.00e+00	0	29	0	2712666112	58	4398
2026-01-04 05:47:28.41	300.36	21.11	-46.7	-47.8	15.1	0.00e+00	0	29	0	2717908992	58	4343
2026-01-04 05:47:29.41	300.16	21.03	-46.8	-47.9	15.1	0.00e+00	0	29	0	2723151872	58	4403
2026-01-04 05:47:30.41	299.95	20.94	-46.7	-47.8	15.1	0.00e+00	0	29	0	2729443328	58	4346
2026-01-04 05:47:31.40	299.75	20.86	-46.8	-47.9	15.1	0.00e+00	0	29	0	2734686208	58	4399
2026-01-04 05:47:32.40	299.55	20.78	-46.8	-48.0	15.1	0.00e+00	0	29	0	2739929088	58	4447
2026-01-04 05:47:33.40	299.35	20.69	-46.9	-48.0	15.2	0.00e+00	0	29	0	2746220544	59	4230
2026-01-04 05:47:34.39	299.16	20.61	-46.8	-47.9	15.2	0.00e+00	0	29	0	2751463424	59	4173
2026-01-04 05:47:35.40	298.96	20.52	-46.8	-47.9	15.2	0.00e+00	0	29	0	2756706304	59	4187
2026-01-04 05:47:36.38	298.77	20.44	-46.8	-47.9	15.2	0.00e+00	0	29	0	2762997760	59	4166
2026-01-04 05:47:37.38	298.57	20.36	-46.7	-47.7	15.2	0.00e+00	0	29	0	2768240640	59	4094
2026-01-04 05:47:38.38	298.38	20.27	-46.8	-47.8	15.2	0.00e+00	0	29	0	2773483520	59	4142
2026-01-04 05:47:39.38	298.18	20.19	-46.8	-47.9	15.2	0.00e+00	0	29	0	2779774976	59	4180
2026-01-04 05:47:40.38	297.99	20.10	-46.9	-47.9	15.2	0.00e+00	0	29	0	2785017856	59	4192
2026-01-04 05:47:41.37	297.80	20.02	-46.9	-47.9	15.2	0.00e+00	0	29	0	2791309312	59	4191
2026-01-04 05:47:42.37	297.61	19.93	-46.9	-48.0	15.2	0.00e+00	0	29	0	2796552192	59	4201
2026-01-04 05:47:43.36	297.43	19.85	-47.0	-48.1	15.1	0.00e+00	0	29	0	2801795072	59	4280
2026-01-04 05:47:44.36	297.24	19.76	-47.0	-48.1	15.2	0.00e+00	0	29	0	2808086528	59	4251
2026-01-04 05:47:45.36	297.05	19.68	-47.0	-48.1	15.1	0.00e+00	0	29	0	2813329408	59	4271
2026-01-04 05:47:46.37	296.86	19.59	-47.1	-48.2	15.1	0.00e+00	0	28	0	2818572288	59	4301
2026-01-04 05:47:47.36	296.68	19.51	-47.0	-48.0	15.2	0.00e+00	0	29	0	2824863744	59	4241
2026-01-04 05:47:48.36	296.50	19.42	-46.9	-48.0	15.2	0.00e+00	0	29	0	2830106624	59	4231
2026-01-04 05:47:49.36	296.31	19.34	-46.9	-48.0	15.2	0.00e+00	0	29	0	2835349504	59	4201
2026-01-04 05:47:50.36	296.13	19.25	-46.8	-47.9	15.2	0.00e+00	0	29	0	2841640960	59	4153
2026-01-04 05:47:51.35	295.95	19.17	-46.9	-48.0	15.2	0.00e+00	0	29	0	2846883840	59	4198
2026-01-04 05:47:52.35	295.78	19.08	-47.0	-48.1	15.1	0.00e+00	0	29	0	2852126720	59	4258
2026-01-04 05:47:53.35	295.60	19.00	-47.0	-48.1	15.2	0.00e+00	0	29	0	2858418176	59	4245
2026-01-04 05:47:54.36	295.42	18.91	-47.0	-48.1	15.1	0.00e+00	0	29	0	2863661056	59	4278
2026-01-04 05:47:55.35	295.24	18.83	-47.1	-48.2	15.1	0.00e+00	0	29	0	2868903936	59	4319
2026-01-04 05:47:56.35	295.07	18.74	-47.0	-48.1	15.2	0.00e+00	0	29	0	2875195392	59	4267
2026-01-04 05:47:57.35	294.89	18.66	-47.0	-48.1	15.1	0.00e+00	0	29	0	2880438272	59	4273
2026-01-04 05:47:58.35	294.72	18.57	-47.1	-48.2	15.1	0.00e+00	0	29	0	2885681152	59	4328
2026-01-04 05:47:59.35	294.55	18.49	-47.1	-48.2	15.1	0.00e+00	0	29	0	2891972608	59	4327
2026-01-04 05:48:00.35	294.38	18.40	-47.2	-48.3	15.1	0.00e+00	0	29	0	2897215488	59	4346
2026-01-04 05:48:01.35	294.20	18.32	-47.3	-48.4	15.1	0.00e+00	0	29	0	2903506944	59	4428
2026-01-04 05:48:02.35	294.04	18.23	-47.2	-48.3	15.1	0.00e+00	0	29	0	2908749824	59	4381
2026-01-04 05:48:03.35	293.87	18.15	-47.3	-48.4	15.1	0.00e+00	0	29	0	2913992704	59	4404
2026-01-04 05:48:04.35	293.70	18.06	-47.3	-48.5	15.1	0.00e+00	0	29	0	2920284160	59	4448
2026-01-04 05:48:05.35	293.53	17.98	-47.1	-48.2	15.2	0.00e+00	0	29	0	2925527040	60	4095
2026-01-04 05:48:06.36	293.37	17.89	-47.1	-48.2	15.2	0.00e+00	0	29	0	2931818496	60	4081
2026-01-04 05:48:07.36	293.20	17.81	-47.2	-48.3	15.2	0.00e+00	0	29	0	2937061376	60	4107
2026-01-04 05:48:08.35	293.04	17.72	-47.3	-48.4	15.1	0.00e+00	0	29	0	2942304256	60	4190
2026-01-04 05:48:09.35	292.87	17.64	-47.3	-48.4	15.1	0.00e+00	0	29	0	2947547136	60	4179
2026-01-04 05:48:10.35	292.71	17.55	-47.3	-48.4	15.1	0.00e+00	0	29	0	2953838592	60	4174
2026-01-04 05:48:11.35	292.55	17.47	-47.3	-48.4	15.1	0.00e+00	0	29	0	2959081472	60	4163
2026-01-04 05:48:12.34	292.39	17.39	-47.3	-48.5	15.1	0.00e+00	0	29	0	2965372928	60	4195
2026-01-04 05:48:13.34	292.23	17.30	-47.2	-48.4	15.1	0.00e+00	0	29	0	2970615808	60	4151
2026-01-04 05:48:14.35	292.07	17.22	-47.3	-48.5	15.1	0.00e+00	0	29	0	2975858688	60	4196
2026-01-04 05:48:15.35	291.92	17.13	-47.2	-48.3	15.2	0.00e+00	0	29	0	2982150144	60	4129
2026-01-04 05:48:16.35	291.76	17.05	-47.2	-48.3	15.2	0.00e+00	0	29	0	2987393024	60	4104
2026-01-04 05:48:17.35	291.60	16.96	-47.2	-48.3	15.1	0.00e+00	0	29	0	2992635904	60	4136
2026-01-04 05:48:18.35	291.45	16.88	-47.2	-48.3	15.2	0.00e+00	0	29	0	2998927360	60	4127
2026-01-04 05:48:19.35	291.30	16.80	-47.3	-48.4	15.1	0.00e+00	0	29	0	3004170240	60	4155
2026-01-04 05:48:20.34	291.14	16.71	-47.3	-48.4	15.1	0.00e+00	0	29	0	3009413120	60	4170
2026-01-04 05:48:21.34	290.99	16.63	-47.3	-48.5	15.1	0.00e+00	0	29	0	3015704576	60	4195
2026-01-04 05:48:22.34	290.84	16.54	-47.2	-48.3	15.1	0.00e+00	0	29	0	3020947456	60	4145
2026-01-04 05:48:23.34	290.69	16.46	-47.4	-48.5	15.1	0.00e+00	0	29	0	3027238912	60	4209
2026-01-04 05:48:24.34	290.54	16.38	-47.3	-48.5	15.1	0.00e+00	0	29	0	3032481792	60	4199
2026-01-04 05:48:25.34	290.39	16.29	-47.3	-48.5	15.1	0.00e+00	0	29	0	3037724672	60	4197
2026-01-04 05:48:26.34	290.24	16.21	-47.5	-48.6	15.1	0.00e+00	0	29	0	3044016128	60	4258
2026-01-04 05:48:27.34	290.10	16.13	-47.5	-48.6	15.1	0.00e+00	0	29	0	3049259008	60	4286
2026-01-04 05:48:28.33	289.95	16.04	-47.5	-48.6	15.1	0.00e+00	0	29	0	3054501888	60	4282
2026-01-04 05:48:29.34	289.80	15.96	-47.6	-48.7	15.0	0.00e+00	0	29	0	3060793344	60	4333
2026-01-04 05:48:30.33	289.66	15.88	-47.6	-48.7	15.0	0.00e+00	0	29	0	3066036224	60	4313
2026-01-04 05:48:31.33	289.52	15.79	-47.6	-48.7	15.0	0.00e+00	0	29	0	3071279104	60	4332
2026-01-04 05:48:32.34	289.37	15.71	-47.6	-48.7	15.0	0.00e+00	0	29	0	3077570560	60	4324
2026-01-04 05:48:33.33	289.23	15.63	-47.6	-48.7	15.0	0.00e+00	0	29	0	3082813440	60	4336
2026-01-04 05:48:34.32	289.09	15.55	-47.6	-48.7	15.0	0.00e+00	0	29	0	3089104896	60	4320
2026-01-04 05:48:35.32	288.95	15.46	-47.7	-48.8	15.0	0.00e+00	0	29	0	3094347776	60	4388
2026-01-04 05:48:36.32	288.81	15.38	-47.7	-48.8	15.0	0.00e+00	0	29	0	3099590656	60	4389
2026-01-04 05:48:37.32	288.67	15.30	-47.8	-49.0	15.0	0.00e+00	0	29	0	3105882112	60	4455
2026-01-04 05:48:38.32	288.53	15.22	-47.8	-48.9	15.0	0.00e+00	0	28	0	3111124992	60	4413
2026-01-04 05:48:39.31	288.40	15.14	-47.7	-48.8	15.0	0.00e+00	0	29	0	3116367872	60	4385
2026-01-04 05:48:40.30	288.26	15.05	-47.8	-48.9	15.0	0.00e+00	0	29	0	3121610752	60	4430
2026-01-04 05:48:41.30	288.13	14.97	-47.8	-48.9	15.0	0.00e+00	0	29	0	3127902208	60	4433
2026-01-04 05:48:42.29	287.99	14.89	-47.8	-49.0	15.0	0.00e+00	0	29	0	3133145088	60	4456
2026-01-04 05:48:43.29	287.86	14.81	-47.9	-49.1	15.0	0.00e+00	0	29	0	3139436544	61	4261
2026-01-04 05:48:44.30	287.72	14.73	-48.0	-49.1	15.0	0.00e+00	0	29	0	3144679424	61	4288
2026-01-04 05:48:45.29	287.59	14.65	-48.1	-49.3	14.9	0.00e+00	0	29	0	3149922304	61	4362
2026-01-04 05:48:46.29	287.46	14.57	-48.2	-49.4	14.9	0.00e+00	0	29	0	3156213760	61	4421
2026-01-04 05:48:47.29	287.33	14.48	-48.2	-49.4	14.9	0.00e+00	0	29	0	3161456640	61	4394
2026-01-04 05:48:48.28	287.20	14.40	-48.2	-49.4	14.9	0.00e+00	0	29	0	3166699520	61	4394
2026-01-04 05:48:49.28	287.07	14.32	-48.1	-49.3	14.9	0.00e+00	0	29	0	3172990976	61	4352
2026-01-04 05:48:50.27	286.94	14.24	-48.2	-49.3	14.9	0.00e+00	0	29	0	3178233856	61	4382
2026-01-04 05:48:51.27	286.81	14.16	-48.2	-49.4	14.9	0.00e+00	0	29	0	3183476736	61	4395
2026-01-04 05:48:52.27	286.68	14.08	-48.0	-49.2	14.9	0.00e+00	0	29	0	3189768192	61	4296
2026-01-04 05:48:53.27	286.56	14.00	-48.1	-49.2	15.0	0.00e+00	0	29	0	3195011072	61	4326
2026-01-04 05:48:54.27	286.43	13.92	-48.1	-49.2	15.0	0.00e+00	0	29	0	3201302528	61	4319
2026-01-04 05:48:55.27	286.30	13.84	-48.0	-49.1	15.0	0.00e+00	0	29	0	3206545408	61	4283
2026-01-04 05:48:56.26	286.18	13.76	-48.0	-49.2	14.9	0.00e+00	0	29	0	3211788288	61	4303
2026-01-04 05:48:57.25	286.06	13.68	-48.1	-49.3	14.9	0.00e+00	0	29	0	3217031168	61	4363
2026-01-04 05:48:58.24	285.93	13.60	-48.2	-49.3	14.9	0.00e+00	0	29	0	3223322624	61	4382
2026-01-04 05:48:59.24	285.81	13.52	-48.1	-49.3	14.9	0.00e+00	0	29	0	3228565504	61	4350
2026-01-04 05:49:00.24	285.69	13.44	-48.2	-49.3	14.9	0.00e+00	0	29	0	3233808384	61	4387
2026-01-04 05:49:01.24	285.57	13.36	-48.1	-49.3	14.9	0.00e+00	0	29	0	3240099840	61	4351
2026-01-04 05:49:02.24	285.45	13.28	-48.0	-49.2	15.0	0.00e+00	0	29	0	3245342720	61	4303
2026-01-04 05:49:03.24	285.33	13.20	-48.1	-49.3	14.9	0.00e+00	0	29	0	3251634176	61	4352
2026-01-04 05:49:04.24	285.21	13.12	-48.1	-49.3	14.9	0.00e+00	0	29	0	3256877056	61	4355
2026-01-04 05:49:05.24	285.09	13.05	-48.1	-49.3	14.9	0.00e+00	0	29	0	3262119936	61	4360
2026-01-04 05:49:06.24	284.97	12.97	-48.3	-49.4	14.9	0.00e+00	0	29	0	3268411392	61	4438
2026-01-04 05:49:07.23	284.85	12.89	-48.2	-49.4	14.9	0.00e+00	0	29	0	3273654272	61	4402
2026-01-04 05:49:08.23	284.73	12.81	-48.3	-49.5	14.9	0.00e+00	0	29	0	3278897152	61	4456
2026-01-04 05:49:09.22	284.62	12.73	-48.4	-49.6	14.8	0.00e+00	0	29	0	3285188608	61	4508
2026-01-04 05:49:10.23	284.50	12.65	-48.5	-49.7	14.9	0.00e+00	0	29	0	3290431488	62	4336
2026-01-04 05:49:11.23	284.39	12.57	-48.5	-49.8	14.9	0.00e+00	0	29	0	3295674368	62	4341
2026-01-04 05:49:12.23	284.27	12.50	-48.5	-49.6	14.9	0.00e+00	0	29	0	3301965824	62	4290
2026-01-04 05:49:13.23	284.16	12.42	-48.4	-49.6	14.9	0.00e+00	0	29	0	3307208704	62	4291
2026-01-04 05:49:14.23	284.05	12.34	-48.6	-49.7	14.8	0.00e+00	0	29	0	3313500160	62	4340
2026-01-04 05:49:15.23	283.93	12.26	-48.6	-49.8	14.8	0.00e+00	0	29	0	3318743040	62	4342
2026-01-04 05:49:16.24	283.82	12.18	-48.5	-49.7	14.9	0.00e+00	0	29	0	3323985920	62	4326
2026-01-04 05:49:17.23	283.71	12.11	-48.6	-49.8	14.8	0.00e+00	0	29	0	3330277376	62	4375
2026-01-04 05:49:18.22	283.60	12.03	-48.6	-49.8	14.8	0.00e+00	0	29	0	3335520256	62	4371
2026-01-04 05:49:19.22	283.49	11.95	-48.6	-49.8	14.8	0.00e+00	0	29	0	3340763136	62	4384
2026-01-04 05:49:20.23	283.38	11.88	-48.7	-50.0	14.8	0.00e+00	0	29	0	3347054592	62	4452
2026-01-04 05:49:21.23	283.27	11.80	-48.8	-50.0	14.8	0.00e+00	0	29	0	3352297472	62	4468
2026-01-04 05:49:22.23	283.16	11.72	-48.8	-50.0	14.8	0.00e+00	0	29	0	3357540352	62	4487
2026-01-04 05:49:23.23	283.05	11.65	-48.7	-50.0	14.8	0.00e+00	0	29	0	3363831808	62	4446
2026-01-04 05:49:24.23	282.94	11.57	-48.7	-49.9	14.8	0.00e+00	0	29	0	3369074688	62	4429
2026-01-04 05:49:25.23	282.84	11.49	-48.8	-50.1	14.7	0.00e+00	0	29	0	3375366144	62	4504
2026-01-04 05:49:26.22	282.73	11.42	-48.7	-50.0	14.8	0.00e+00	0	29	0	3380609024	62	4444
2026-01-04 05:49:27.22	282.63	11.34	-48.6	-49.8	14.8	0.00e+00	0	29	0	3385851904	62	4385
2026-01-04 05:49:28.21	282.52	11.27	-48.6	-49.8	14.8	0.00e+00	0	29	0	3392143360	62	4382
2026-01-04 05:49:29.22	282.42	11.19	-48.7	-49.9	14.8	0.00e+00	0	29	0	3397386240	62	4413
2026-01-04 05:49:30.22	282.31	11.11	-48.7	-50.0	14.8	0.00e+00	0	29	0	3402629120	62	4446
2026-01-04 05:49:31.22	282.21	11.04	-48.7	-49.9	14.8	0.00e+00	0	29	0	3408920576	62	4439
2026-01-04 05:49:32.23	282.11	10.96	-48.8	-50.0	14.7	0.00e+00	0	28	0	3414163456	62	4481
2026-01-04 05:49:33.22	282.00	10.89	-48.8	-50.1	14.7	0.00e+00	0	29	0	3419406336	62	4501
2026-01-04 05:49:34.22	281.90	10.81	-48.9	-50.1	14.7	0.00e+00	0	29	0	3425697792	62	4545
2026-01-04 05:49:35.22	281.80	10.74	-49.0	-50.2	14.8	0.00e+00	0	29	0	3430940672	63	4306
2026-01-04 05:49:36.21	281.70	10.66	-49.0	-50.3	14.7	0.00e+00	0	29	0	3437232128	63	4362
2026-01-04 05:49:37.20	281.60	10.59	-48.9	-50.1	14.8	0.00e+00	0	29	0	3442475008	63	4291
2026-01-04 05:49:38.20	281.50	10.52	-49.0	-50.2	14.8	0.00e+00	0	29	0	3447717888	63	4338
2026-01-04 05:49:39.20	281.40	10.44	-49.1	-50.3	14.7	0.00e+00	0	29	0	3452960768	63	4379
2026-01-04 05:49:40.19	281.30	10.37	-49.1	-50.4	14.7	0.00e+00	0	29	0	3459252224	63	4398
2026-01-04 05:49:41.19	281.21	10.29	-49.1	-50.4	14.7	0.00e+00	0	29	0	3464495104	63	4401
2026-01-04 05:49:42.18	281.11	10.22	-49.1	-50.4	14.7	0.00e+00	0	29	0	3470786560	63	4417
2026-01-04 05:49:43.17	281.01	10.15	-49.1	-50.4	14.7	0.00e+00	0	29	0	3476029440	63	4422
2026-01-04 05:49:44.17	280.92	10.07	-49.1	-50.4	14.7	0.00e+00	0	29	0	3481272320	63	4421
2026-01-04 05:49:45.16	280.82	10.00	-49.2	-50.4	14.7	0.00e+00	0	29	0	3487563776	63	4424
2026-01-04 05:49:46.16	280.73	9.93	-49.1	-50.3	14.7	0.00e+00	0	29	0	3492806656	63	4378
2026-01-04 05:49:47.15	280.63	9.86	-49.1	-50.3	14.7	0.00e+00	0	29	0	3498049536	63	4389
2026-01-04 05:49:48.15	280.54	9.78	-49.0	-50.2	14.7	0.00e+00	0	29	0	3503292416	63	4333
2026-01-04 05:49:49.14	280.44	9.71	-49.1	-50.4	14.7	0.00e+00	0	29	0	3509583872	63	4412
2026-01-04 05:49:50.13	280.35	9.64	-49.1	-50.4	14.7	0.00e+00	0	29	0	3514826752	63	4427
2026-01-04 05:49:51.13	280.26	9.57	-49.2	-50.5	14.6	0.00e+00	0	29	0	3521118208	63	4468
2026-01-04 05:49:52.12	280.17	9.49	-49.2	-50.5	14.6	0.00e+00	0	29	0	3526361088	63	4482
2026-01-04 05:49:53.11	280.07	9.42	-49.1	-50.4	14.7	0.00e+00	0	29	0	3531603968	63	4398
2026-01-04 05:49:54.11	279.98	9.35	-49.2	-50.5	14.6	0.00e+00	0	29	0	3537895424	63	4476
2026-01-04 05:49:55.11	279.89	9.28	-49.3	-50.6	14.6	0.00e+00	0	29	0	3543138304	63	4533
2026-01-04 05:49:56.11	279.80	9.20	-49.4	-50.7	14.6	0.00e+00	0	29	0	3548381184	63	4573
2026-01-04 05:49:57.11	279.71	9.13	-49.2	-50.5	14.7	0.00e+00	0	29	0	3554672640	64	4220
2026-01-04 05:49:58.11	279.62	9.06	-49.2	-50.5	14.7	0.00e+00	0	29	0	3559915520	64	4209
2026-01-04 05:49:59.11	279.53	8.99	-49.2	-50.5	14.7	0.00e+00	0	29	0	3565158400	64	4218
2026-01-04 05:50:00.10	279.44	8.92	-49.2	-50.5	14.7	0.00e+00	0	29	0	3571449856	64	4240
2026-01-04 05:50:01.10	279.35	8.85	-49.3	-50.6	14.7	0.00e+00	0	29	0	3576692736	64	4260
2026-01-04 05:50:02.10	279.26	8.78	-49.2	-50.5	14.7	0.00e+00	0	29	0	3581935616	64	4233
2026-01-04 05:50:03.10	279.18	8.71	-49.3	-50.6	14.6	0.00e+00	0	29	0	3588227072	64	4289
2026-01-04 05:50:04.09	279.09	8.63	-49.2	-50.4	14.7	0.00e+00	0	29	0	3593469952	64	4190
