passes_logs/2026/01/04/R3.2S_Murmansk/R3.2S_Murmansk__20260104_113138_AQUA_rec.log

#Pass ID: 20260104_113138_AQUA
#Satellite: AQUA
#Configuration: AQUA
#almurnet v.1.7.20251203
#Start time: 2026-01-04 11:31:41

#Version: 2.2.20231116
#Station: R3.2S_Murmansk
#Location: 33.079688 lon 68.888172 lat
#TLE: 1 27424U 02022A   26003.93831471  .00001925  00000+0  39553-3 0  9996
#TLE: 2 27424  98.4067 330.1809 0002002  92.1714 343.8415 14.61796291259276

#Time	Az	El	Level	Level2	SNR	BER	BlckErr	Temp	State	Recorded	gain1	gain2
2026-01-04 11:31:41.19	159.11	2.15	-58.3	-77.7	3.8	7.45e-01	0	27	0	0	85	33348
2026-01-04 11:31:42.18	159.12	2.21	-58.3	-77.5	3.8	7.49e-01	0	27	104	0	84	34813
2026-01-04 11:31:43.18	159.13	2.28	-58.3	-77.6	3.8	7.49e-01	0	27	104	0	84	34903
2026-01-04 11:31:44.17	159.14	2.35	-58.3	-77.5	3.8	7.46e-01	0	27	104	0	84	34766
2026-01-04 11:31:45.16	159.15	2.41	-58.3	-77.6	3.8	7.47e-01	0	27	104	0	84	35026
2026-01-04 11:31:46.16	159.16	2.48	-58.3	-77.6	3.8	7.48e-01	0	27	104	0	84	35058
2026-01-04 11:31:47.15	159.17	2.55	-58.3	-77.6	3.8	7.48e-01	0	27	104	0	84	35279
2026-01-04 11:31:48.14	159.18	2.62	-58.3	-77.7	3.8	7.46e-01	0	27	104	0	84	35452
2026-01-04 11:31:49.15	159.20	2.69	-58.3	-77.7	3.8	7.47e-01	0	27	104	0	84	35360
2026-01-04 11:31:50.14	159.21	2.75	-58.3	-77.6	3.8	7.42e-01	0	27	104	0	84	34936
2026-01-04 11:31:51.13	159.22	2.82	-58.3	-77.4	3.8	7.47e-01	0	27	104	0	84	34261
2026-01-04 11:31:52.13	159.23	2.89	-58.3	-77.1	3.8	7.47e-01	0	27	104	0	84	33276
2026-01-04 11:31:53.12	159.24	2.96	-58.3	-77.0	3.8	7.48e-01	0	28	104	0	84	32606
2026-01-04 11:31:54.12	159.25	3.03	-58.3	-76.8	3.8	7.46e-01	0	27	104	0	84	32115
2026-01-04 11:31:55.12	159.26	3.10	-58.3	-77.0	3.8	7.49e-01	0	27	104	0	84	32850
2026-01-04 11:31:56.11	159.28	3.16	-58.3	-77.3	3.8	7.47e-01	0	27	104	0	84	33751
2026-01-04 11:31:57.10	159.29	3.23	-58.3	-77.3	3.8	7.48e-01	0	27	104	0	84	33955
2026-01-04 11:31:58.09	159.30	3.30	-58.3	-77.1	3.8	7.48e-01	0	28	104	0	84	33288
2026-01-04 11:31:59.08	159.31	3.37	-58.3	-76.5	3.9	7.47e-01	0	28	104	0	84	30939
2026-01-04 11:32:00.08	159.32	3.44	-58.2	-74.6	4.0	7.35e-01	0	27	104	0	84	24859
2026-01-04 11:32:01.07	159.33	3.51	-58.2	-72.5	4.7	7.15e-01	0	27	104	0	84	19432
2026-01-04 11:32:02.07	159.35	3.58	-58.0	-70.0	6.1	6.76e-01	90	28	0	524288	84	14612
2026-01-04 11:32:03.06	159.36	3.65	-57.9	-68.4	7.4	6.52e-01	86	28	0	2621440	84	12096
2026-01-04 11:32:04.06	159.37	3.72	-57.8	-67.5	8.2	6.40e-01	1	28	0	4718592	84	10923
2026-01-04 11:32:05.05	159.38	3.79	-57.6	-66.5	9.1	6.29e-01	0	28	0	6291456	84	9745
2026-01-04 11:32:06.04	159.39	3.86	-57.2	-65.0	10.0	6.20e-01	0	28	0	8388608	83	8757
2026-01-04 11:32:07.04	159.40	3.94	-57.0	-64.2	10.8	6.15e-01	0	28	0	9961472	83	7904
2026-01-04 11:32:08.04	159.42	4.01	-56.9	-63.8	11.1	6.13e-01	0	28	0	12058624	83	7559
2026-01-04 11:32:09.03	159.43	4.08	-56.8	-63.2	11.5	6.10e-01	0	28	0	13631488	82	7498
2026-01-04 11:32:10.02	159.44	4.15	-56.6	-62.6	11.9	6.11e-01	0	28	0	15728640	82	6976
2026-01-04 11:32:11.02	159.45	4.22	-56.6	-62.5	12.0	6.11e-01	0	28	0	17301504	82	6880
2026-01-04 11:32:12.02	159.47	4.30	-56.5	-62.1	12.2	6.06e-01	0	28	0	19398656	82	6634
2026-01-04 11:32:13.01	159.48	4.37	-56.3	-61.8	12.3	6.09e-01	0	28	0	21495808	81	6750
2026-01-04 11:32:14.00	159.49	4.44	-56.3	-61.7	12.4	6.09e-01	0	28	0	23068672	81	6687
2026-01-04 11:32:15.00	159.50	4.51	-56.1	-61.2	12.7	6.07e-01	0	28	0	25165824	81	6338
2026-01-04 11:32:15.95	159.51	4.58	-56.1	-61.3	12.6	6.07e-01	0	28	0	26738688	81	6394
2026-01-04 11:32:16.94	159.53	4.66	-56.1	-61.3	12.6	6.09e-01	0	28	0	28835840	81	6399
2026-01-04 11:32:17.93	159.54	4.73	-56.2	-61.5	12.5	6.08e-01	0	28	0	30408704	81	6534
2026-01-04 11:32:18.93	159.55	4.80	-56.3	-61.7	12.4	6.09e-01	0	28	0	32505856	81	6656
2026-01-04 11:32:19.92	159.56	4.88	-56.3	-61.9	12.3	6.09e-01	0	28	0	34078720	81	6810
2026-01-04 11:32:20.92	159.58	4.95	-56.5	-62.4	12.0	6.08e-01	0	28	0	36175872	81	7209
2026-01-04 11:32:21.91	159.59	5.03	-56.8	-63.3	11.4	6.10e-01	0	28	0	38273024	81	8016
2026-01-04 11:32:22.90	159.60	5.10	-57.2	-65.1	10.0	6.19e-01	0	28	0	39845888	82	9323
2026-01-04 11:32:23.90	159.62	5.18	-56.2	-61.2	12.8	6.08e-01	0	28	0	41943040	81	6313
2026-01-04 11:32:24.88	159.63	5.25	-57.9	-74.4	3.8	7.41e-01	0	28	104	43515904	83	25602
2026-01-04 11:32:25.88	159.64	5.33	-57.9	-70.1	5.9	6.81e-01	92	28	0	43515904	83	15738
2026-01-04 11:32:26.87	159.65	5.40	-52.8	-55.3	14.9	6.08e-01	0	28	0	45088768	74	4767
2026-01-04 11:32:27.87	159.67	5.48	-52.6	-55.1	15.0	6.06e-01	0	28	0	47185920	74	4652
2026-01-04 11:32:28.86	159.68	5.55	-52.5	-54.8	15.1	6.08e-01	0	28	0	48758784	74	4517
2026-01-04 11:32:29.84	159.69	5.63	-52.0	-54.2	15.1	6.07e-01	0	28	0	50855936	73	4485
2026-01-04 11:32:30.84	159.71	5.71	-51.7	-53.8	15.2	6.07e-01	0	28	0	52428800	72	4514
2026-01-04 11:32:31.84	159.72	5.78	-51.5	-53.6	15.3	6.07e-01	0	28	0	54525952	72	4416
2026-01-04 11:32:32.83	159.73	5.86	-51.6	-53.7	15.2	6.04e-01	0	28	0	56623104	72	4463
2026-01-04 11:32:33.83	159.75	5.94	-51.5	-53.6	15.3	6.07e-01	0	28	0	58195968	72	4404
2026-01-04 11:32:34.83	159.76	6.02	-51.5	-53.6	15.3	6.08e-01	0	28	0	60293120	72	4400
2026-01-04 11:32:35.82	159.77	6.10	-51.4	-53.5	15.3	6.06e-01	0	28	0	61865984	72	4351
2026-01-04 11:32:36.81	159.79	6.17	-51.4	-53.5	15.3	6.05e-01	0	28	0	63963136	72	4341
2026-01-04 11:32:37.80	159.80	6.25	-51.3	-53.3	15.2	6.05e-01	0	28	0	65536000	71	4522
2026-01-04 11:32:38.80	159.81	6.33	-51.3	-53.3	15.2	6.06e-01	0	28	0	67633152	71	4529
2026-01-04 11:32:39.79	159.83	6.41	-51.4	-53.4	15.2	6.07e-01	0	28	0	69206016	71	4590
2026-01-04 11:32:40.79	159.84	6.49	-51.3	-53.4	15.2	6.04e-01	0	28	0	71303168	71	4547
2026-01-04 11:32:41.79	159.86	6.57	-51.3	-53.4	15.2	6.07e-01	0	28	0	73400320	71	4559
2026-01-04 11:32:42.78	159.87	6.65	-51.3	-53.4	15.2	6.07e-01	0	28	0	74973184	71	4548
2026-01-04 11:32:43.77	159.88	6.73	-51.2	-53.2	15.3	6.04e-01	0	28	0	77070336	71	4448
2026-01-04 11:32:44.76	159.90	6.81	-51.2	-53.1	15.3	6.05e-01	0	28	0	78643200	71	4435
2026-01-04 11:32:45.76	159.91	6.89	-51.2	-53.2	15.3	6.07e-01	0	28	0	80740352	71	4454
2026-01-04 11:32:46.75	159.93	6.97	-51.3	-53.2	15.3	6.06e-01	0	28	0	82313216	71	4485
2026-01-04 11:32:47.74	159.94	7.05	-51.2	-53.2	15.2	6.07e-01	0	28	0	84410368	71	4480
2026-01-04 11:32:48.73	159.95	7.13	-51.1	-53.1	15.3	6.07e-01	0	28	0	85983232	71	4403
2026-01-04 11:32:49.74	159.97	7.21	-51.1	-53.1	15.3	6.08e-01	0	28	0	88080384	71	4393
2026-01-04 11:32:50.74	159.98	7.30	-51.2	-53.1	15.3	6.06e-01	0	28	0	90177536	71	4420
2026-01-04 11:32:51.73	160.00	7.38	-51.0	-52.9	15.4	6.04e-01	0	28	0	91750400	71	4334
2026-01-04 11:32:52.73	160.01	7.46	-51.1	-53.0	15.3	6.07e-01	0	28	0	93847552	71	4371
2026-01-04 11:32:53.73	160.03	7.55	-51.1	-53.0	15.3	6.07e-01	0	28	0	95420416	71	4379
2026-01-04 11:32:54.71	160.04	7.63	-51.1	-53.0	15.3	6.08e-01	0	28	0	97517568	71	4346
2026-01-04 11:32:55.71	160.06	7.71	-51.0	-52.9	15.4	6.06e-01	0	28	0	99090432	71	4322
2026-01-04 11:32:56.70	160.07	7.80	-51.0	-53.0	15.3	6.06e-01	0	28	0	101187584	71	4344
2026-01-04 11:32:57.70	160.09	7.88	-51.1	-53.0	15.3	6.06e-01	0	28	0	103284736	71	4379
2026-01-04 11:32:58.70	160.10	7.97	-51.1	-53.0	15.3	6.07e-01	0	28	0	104857600	71	4359
2026-01-04 11:32:59.70	160.12	8.05	-51.0	-52.9	15.3	6.08e-01	0	28	0	106954752	71	4331
2026-01-04 11:33:00.69	160.13	8.14	-51.0	-52.9	15.3	6.07e-01	0	28	0	108527616	71	4339
2026-01-04 11:33:01.69	160.15	8.22	-51.0	-52.9	15.3	6.07e-01	0	28	0	110624768	71	4336
2026-01-04 11:33:02.69	160.16	8.31	-51.1	-53.0	15.3	6.08e-01	0	28	0	112197632	71	4367
2026-01-04 11:33:03.68	160.18	8.39	-51.0	-52.9	15.3	6.07e-01	0	28	0	114294784	71	4336
2026-01-04 11:33:04.66	160.19	8.48	-51.1	-53.0	15.3	6.07e-01	0	28	0	115867648	71	4390
2026-01-04 11:33:05.66	160.21	8.57	-51.0	-53.0	15.3	6.05e-01	0	28	0	117964800	71	4344
2026-01-04 11:33:06.64	160.22	8.65	-51.0	-52.9	15.4	6.05e-01	0	28	0	119537664	71	4320
2026-01-04 11:33:07.63	160.24	8.74	-51.0	-52.9	15.4	6.04e-01	0	28	0	121634816	71	4310
2026-01-04 11:33:08.63	160.25	8.83	-51.0	-52.9	15.4	6.06e-01	0	28	0	123731968	71	4310
2026-01-04 11:33:09.62	160.27	8.92	-51.1	-53.0	15.3	6.06e-01	0	28	0	125304832	71	4355
2026-01-04 11:33:10.61	160.29	9.00	-51.0	-52.9	15.4	6.04e-01	0	28	0	127401984	71	4316
2026-01-04 11:33:11.60	160.30	9.09	-51.0	-52.9	15.4	6.06e-01	0	28	0	128974848	71	4312
2026-01-04 11:33:12.59	160.32	9.18	-51.1	-53.0	15.4	6.08e-01	0	28	0	131072000	71	4346
2026-01-04 11:33:13.59	160.33	9.27	-50.9	-52.8	15.4	6.07e-01	0	28	0	132644864	71	4273
2026-01-04 11:33:14.58	160.35	9.36	-51.0	-52.9	15.4	6.07e-01	0	28	0	134742016	71	4298
2026-01-04 11:33:15.57	160.37	9.45	-50.9	-52.7	15.4	6.06e-01	0	28	0	136314880	71	4234
2026-01-04 11:33:16.56	160.38	9.54	-50.9	-52.8	15.4	6.05e-01	0	28	0	138412032	71	4257
2026-01-04 11:33:17.56	160.40	9.63	-50.8	-52.6	15.3	6.06e-01	0	28	0	140509184	70	4436
2026-01-04 11:33:18.56	160.42	9.72	-50.8	-52.6	15.3	6.05e-01	0	28	0	142082048	70	4439
2026-01-04 11:33:19.55	160.43	9.82	-50.7	-52.5	15.4	6.06e-01	0	28	0	144179200	70	4381
2026-01-04 11:33:20.55	160.45	9.91	-50.7	-52.5	15.4	6.06e-01	0	28	0	145752064	70	4357
2026-01-04 11:33:21.54	160.47	10.00	-50.7	-52.5	15.4	6.06e-01	0	28	0	147849216	70	4373
2026-01-04 11:33:22.53	160.48	10.09	-50.7	-52.5	15.4	6.07e-01	0	28	0	149422080	70	4363
2026-01-04 11:33:23.52	160.50	10.19	-50.7	-52.5	15.4	6.05e-01	0	28	0	151519232	70	4359
2026-01-04 11:33:24.52	160.52	10.28	-50.6	-52.4	15.4	6.07e-01	0	28	0	153092096	70	4294
2026-01-04 11:33:25.52	160.54	10.37	-50.5	-52.2	15.5	6.06e-01	0	28	0	155189248	70	4238
2026-01-04 11:33:26.51	160.55	10.47	-50.4	-52.2	15.5	6.07e-01	0	28	0	157286400	70	4209
2026-01-04 11:33:27.50	160.57	10.56	-50.5	-52.3	15.5	6.05e-01	0	28	0	158859264	70	4247
2026-01-04 11:33:28.49	160.59	10.66	-50.5	-52.2	15.5	6.05e-01	0	28	0	160956416	70	4232
2026-01-04 11:33:29.48	160.60	10.75	-50.4	-52.1	15.5	6.07e-01	0	28	0	162529280	70	4173
2026-01-04 11:33:30.48	160.62	10.85	-50.3	-52.1	15.4	6.08e-01	0	28	0	164626432	69	4392
2026-01-04 11:33:31.47	160.64	10.95	-50.3	-52.0	15.4	6.04e-01	0	28	0	166199296	69	4369
2026-01-04 11:33:32.47	160.66	11.04	-50.2	-52.0	15.4	6.05e-01	0	28	0	168296448	69	4342
2026-01-04 11:33:33.47	160.68	11.14	-50.3	-52.0	15.4	6.07e-01	0	28	0	169869312	69	4377
2026-01-04 11:33:34.45	160.69	11.24	-50.2	-52.0	15.4	6.07e-01	0	28	0	171966464	69	4353
2026-01-04 11:33:35.44	160.71	11.34	-50.3	-52.0	15.4	6.06e-01	0	28	0	173539328	69	4358
2026-01-04 11:33:36.45	160.73	11.44	-50.3	-52.0	15.4	6.05e-01	0	28	0	175636480	69	4380
2026-01-04 11:33:37.44	160.75	11.53	-50.2	-51.9	15.4	6.07e-01	0	28	0	177733632	69	4328
2026-01-04 11:33:38.43	160.77	11.63	-50.2	-51.9	15.4	6.09e-01	0	28	0	179306496	69	4327
2026-01-04 11:33:39.42	160.79	11.73	-50.2	-51.9	15.4	6.06e-01	0	28	0	181403648	69	4336
2026-01-04 11:33:40.42	160.81	11.83	-50.2	-51.9	15.4	6.07e-01	0	28	0	182976512	69	4331
2026-01-04 11:33:41.41	160.82	11.93	-50.2	-51.9	15.4	6.05e-01	0	28	0	185073664	69	4340
2026-01-04 11:33:42.40	160.84	12.04	-50.3	-52.0	15.4	6.07e-01	0	28	0	186646528	69	4350
2026-01-04 11:33:43.39	160.86	12.14	-50.2	-51.9	15.4	6.05e-01	0	28	0	188743680	69	4340
2026-01-04 11:33:44.38	160.88	12.24	-50.3	-52.0	15.4	6.06e-01	0	28	0	190316544	69	4358
2026-01-04 11:33:45.37	160.90	12.34	-50.3	-52.0	15.4	6.05e-01	0	28	0	192413696	69	4378
2026-01-04 11:33:46.36	160.92	12.44	-50.3	-52.0	15.4	6.05e-01	0	28	0	194510848	69	4346
2026-01-04 11:33:47.35	160.94	12.55	-50.3	-52.0	15.4	6.07e-01	0	28	0	196083712	69	4360
2026-01-04 11:33:48.34	160.96	12.65	-50.3	-52.1	15.4	6.07e-01	0	28	0	198180864	69	4392
2026-01-04 11:33:49.34	160.98	12.76	-50.3	-52.1	15.4	6.05e-01	0	28	0	199753728	69	4396
2026-01-04 11:33:50.34	161.00	12.86	-50.4	-52.1	15.4	6.05e-01	0	28	0	201850880	69	4438
2026-01-04 11:33:51.33	161.02	12.97	-50.3	-52.1	15.4	6.06e-01	0	28	0	203423744	69	4394
2026-01-04 11:33:52.32	161.04	13.07	-50.3	-52.0	15.4	6.07e-01	0	28	0	205520896	69	4378
2026-01-04 11:33:53.32	161.06	13.18	-50.4	-52.1	15.4	6.05e-01	0	28	0	207093760	69	4418
2026-01-04 11:33:54.31	161.08	13.29	-50.3	-52.0	15.4	6.09e-01	0	28	0	209190912	69	4363
2026-01-04 11:33:55.31	161.10	13.40	-50.3	-52.0	15.4	6.07e-01	0	28	0	211288064	69	4344
2026-01-04 11:33:56.31	161.12	13.51	-50.2	-51.9	15.4	6.05e-01	0	28	0	212860928	69	4330
2026-01-04 11:33:57.30	161.14	13.61	-50.2	-51.9	15.4	6.05e-01	0	28	0	214958080	69	4319
2026-01-04 11:33:58.29	161.16	13.72	-50.2	-51.9	15.4	6.07e-01	0	28	0	216530944	69	4317
2026-01-04 11:33:59.28	161.18	13.83	-50.2	-51.8	15.5	6.07e-01	0	28	0	218628096	69	4282
2026-01-04 11:34:00.27	161.21	13.94	-50.1	-51.8	15.5	6.07e-01	0	28	0	220200960	69	4259
2026-01-04 11:34:01.27	161.23	14.05	-50.1	-51.8	15.5	6.07e-01	0	28	0	222298112	69	4266
2026-01-04 11:34:02.26	161.25	14.17	-50.2	-51.9	15.4	6.07e-01	0	28	0	223870976	69	4306
2026-01-04 11:34:03.25	161.27	14.28	-49.9	-51.6	15.5	6.08e-01	0	28	0	225968128	69	4162
2026-01-04 11:34:04.25	161.29	14.39	-50.0	-51.6	15.5	6.05e-01	0	28	0	228065280	69	4175
2026-01-04 11:34:05.24	161.31	14.50	-49.9	-51.6	15.5	6.07e-01	0	28	0	229638144	69	4161
2026-01-04 11:34:06.23	161.34	14.62	-50.0	-51.7	15.5	6.07e-01	0	28	0	231735296	69	4194
2026-01-04 11:34:07.22	161.36	14.73	-49.8	-51.4	15.4	6.07e-01	0	28	0	233308160	68	4323
2026-01-04 11:34:08.22	161.38	14.85	-49.8	-51.4	15.4	6.10e-01	0	28	0	235405312	68	4338
2026-01-04 11:34:09.22	161.40	14.96	-49.8	-51.4	15.4	6.04e-01	0	28	0	236978176	68	4318
2026-01-04 11:34:10.20	161.43	15.08	-49.8	-51.5	15.4	6.08e-01	0	28	0	239075328	68	4347
2026-01-04 11:34:11.20	161.45	15.20	-49.8	-51.4	15.5	6.05e-01	0	28	0	240648192	68	4307
2026-01-04 11:34:12.20	161.47	15.31	-49.9	-51.5	15.4	6.07e-01	0	28	0	242745344	68	4376
2026-01-04 11:34:13.19	161.50	15.43	-49.8	-51.4	15.4	6.07e-01	0	28	0	244318208	68	4333
2026-01-04 11:34:14.19	161.52	15.55	-49.8	-51.4	15.4	6.05e-01	0	28	0	246415360	68	4337
2026-01-04 11:34:15.18	161.54	15.67	-49.8	-51.5	15.4	6.07e-01	0	28	0	248512512	68	4345
2026-01-04 11:34:16.16	161.57	15.79	-49.9	-51.5	15.4	6.07e-01	0	28	0	250085376	68	4353
2026-01-04 11:34:17.16	161.59	15.91	-49.9	-51.5	15.4	6.05e-01	0	28	0	252182528	68	4391
2026-01-04 11:34:18.16	161.61	16.03	-49.9	-51.6	15.4	6.08e-01	0	28	0	253755392	68	4408
2026-01-04 11:34:19.16	161.64	16.16	-50.0	-51.6	15.4	6.04e-01	0	28	0	255852544	68	4425
2026-01-04 11:34:20.15	161.66	16.28	-49.9	-51.6	15.4	6.06e-01	0	28	0	257425408	68	4395
2026-01-04 11:34:21.15	161.69	16.40	-49.9	-51.5	15.4	6.05e-01	0	28	0	259522560	68	4372
2026-01-04 11:34:22.14	161.71	16.53	-49.9	-51.5	15.4	6.06e-01	0	28	0	261095424	68	4366
2026-01-04 11:34:23.14	161.74	16.65	-49.9	-51.5	15.4	6.06e-01	0	28	0	263192576	68	4360
2026-01-04 11:34:24.14	161.76	16.78	-49.9	-51.5	15.4	6.05e-01	0	28	0	265289728	68	4385
2026-01-04 11:34:25.13	161.79	16.90	-49.8	-51.4	15.5	6.08e-01	0	28	0	266862592	68	4318
2026-01-04 11:34:26.12	161.81	17.03	-49.8	-51.4	15.5	6.06e-01	0	28	0	268959744	68	4303
2026-01-04 11:34:27.11	161.84	17.16	-49.8	-51.4	15.5	6.05e-01	0	28	0	270532608	68	4307
2026-01-04 11:34:28.11	161.87	17.29	-49.7	-51.3	15.5	6.07e-01	0	28	0	272629760	68	4272
2026-01-04 11:34:29.11	161.89	17.42	-49.7	-51.4	15.5	6.06e-01	0	28	0	274202624	68	4292
2026-01-04 11:34:30.09	161.92	17.54	-49.7	-51.3	15.5	6.07e-01	0	28	0	276299776	68	4275
2026-01-04 11:34:31.08	161.94	17.67	-49.7	-51.3	15.5	6.08e-01	0	28	0	277872640	68	4282
2026-01-04 11:34:32.07	161.97	17.81	-49.7	-51.3	15.5	6.06e-01	0	28	0	279969792	68	4288
2026-01-04 11:34:33.07	162.00	17.94	-49.9	-51.5	15.4	6.03e-01	0	28	0	282066944	68	4368
2026-01-04 11:34:34.06	162.03	18.07	-49.8	-51.4	15.5	6.06e-01	0	28	0	283639808	68	4316
2026-01-04 11:34:35.05	162.05	18.20	-49.8	-51.4	15.5	6.08e-01	0	28	0	285736960	68	4318
2026-01-04 11:34:36.05	162.08	18.34	-49.8	-51.5	15.5	6.05e-01	0	28	0	287309824	68	4350
2026-01-04 11:34:37.04	162.11	18.47	-49.8	-51.4	15.5	6.06e-01	0	28	0	289406976	68	4323
2026-01-04 11:34:38.04	162.14	18.61	-49.8	-51.4	15.4	6.07e-01	0	28	0	290979840	68	4333
2026-01-04 11:34:39.04	162.17	18.75	-49.8	-51.4	15.5	6.07e-01	0	28	0	293076992	68	4333
2026-01-04 11:34:40.02	162.19	18.89	-49.9	-51.5	15.4	6.06e-01	0	28	0	294649856	68	4389
2026-01-04 11:34:41.02	162.22	19.03	-49.9	-51.6	15.4	6.05e-01	0	28	0	296747008	68	4395
2026-01-04 11:34:42.02	162.25	19.17	-49.9	-51.5	15.4	6.05e-01	0	28	0	298844160	68	4373
2026-01-04 11:34:43.01	162.28	19.31	-49.9	-51.5	15.4	6.07e-01	0	28	0	300417024	68	4389
2026-01-04 11:34:44.01	162.31	19.45	-49.9	-51.5	15.4	6.07e-01	0	28	0	302514176	68	4363
2026-01-04 11:34:45.00	162.34	19.59	-49.8	-51.5	15.4	6.04e-01	0	28	0	304087040	68	4349
2026-01-04 11:34:45.99	162.37	19.73	-49.9	-51.5	15.4	6.05e-01	0	28	0	306184192	68	4368
2026-01-04 11:34:46.99	162.40	19.88	-49.9	-51.5	15.4	6.06e-01	0	28	0	307757056	68	4374
2026-01-04 11:34:47.98	162.43	20.02	-49.9	-51.6	15.4	6.06e-01	0	28	0	309854208	68	4399
2026-01-04 11:34:48.97	162.46	20.17	-50.0	-51.6	15.4	6.04e-01	0	28	0	311427072	68	4424
2026-01-04 11:34:49.97	162.49	20.31	-50.0	-51.6	15.4	6.05e-01	0	28	0	313524224	68	4420
2026-01-04 11:34:50.95	162.52	20.46	-50.0	-51.6	15.4	6.08e-01	0	28	0	315621376	68	4403
2026-01-04 11:34:51.95	162.56	20.61	-50.0	-51.6	15.4	6.06e-01	0	28	0	317194240	68	4433
2026-01-04 11:34:52.95	162.59	20.76	-50.0	-51.7	15.4	6.05e-01	0	28	0	319291392	68	4447
2026-01-04 11:34:53.94	162.62	20.91	-50.0	-51.7	15.4	6.09e-01	0	28	0	320864256	68	4444
2026-01-04 11:34:54.94	162.65	21.06	-50.1	-51.8	15.4	6.07e-01	0	28	0	322961408	68	4516
2026-01-04 11:34:55.93	162.69	21.21	-50.2	-51.9	15.3	6.06e-01	0	28	0	324534272	68	4548
2026-01-04 11:34:56.93	162.72	21.37	-50.1	-51.8	15.4	6.07e-01	0	28	0	326631424	68	4518
2026-01-04 11:34:57.93	162.75	21.52	-50.2	-51.8	15.3	6.06e-01	0	28	0	328204288	68	4529
2026-01-04 11:34:58.91	162.79	21.68	-50.1	-51.8	15.4	6.07e-01	0	28	0	330301440	68	4517
2026-01-04 11:34:59.90	162.82	21.83	-50.2	-51.9	15.4	6.06e-01	0	28	0	332398592	68	4553
2026-01-04 11:35:00.90	162.86	21.99	-50.1	-51.8	15.4	6.07e-01	0	28	0	333971456	68	4512
2026-01-04 11:35:01.90	162.89	22.15	-50.2	-51.8	15.4	6.06e-01	0	28	0	336068608	68	4542
2026-01-04 11:35:02.90	162.93	22.31	-50.2	-51.8	15.4	6.07e-01	0	28	0	337641472	68	4518
2026-01-04 11:35:03.89	162.96	22.47	-50.2	-51.8	15.3	6.06e-01	0	28	0	339738624	68	4539
2026-01-04 11:35:04.89	163.00	22.64	-50.2	-51.8	15.4	6.06e-01	0	28	0	341311488	68	4527
2026-01-04 11:35:05.89	163.03	22.80	-50.1	-51.8	15.4	6.07e-01	0	28	0	343408640	68	4514
2026-01-04 11:35:06.88	163.07	22.96	-50.2	-51.8	15.3	6.07e-01	0	28	0	344981504	68	4532
2026-01-04 11:35:07.87	163.11	23.13	-50.1	-51.8	15.4	6.04e-01	0	28	0	347078656	68	4498
2026-01-04 11:35:08.87	163.14	23.30	-50.2	-51.9	15.4	6.05e-01	0	28	0	349175808	68	4548
2026-01-04 11:35:09.85	163.18	23.46	-50.2	-51.8	15.4	6.09e-01	0	28	0	350748672	68	4532
2026-01-04 11:35:10.85	163.22	23.63	-50.1	-51.8	15.4	6.08e-01	0	28	0	352845824	68	4511
2026-01-04 11:35:11.84	163.26	23.80	-50.2	-51.9	15.3	6.05e-01	0	28	0	354418688	68	4570
2026-01-04 11:35:12.83	163.30	23.97	-50.2	-51.8	15.4	6.05e-01	0	28	0	356515840	68	4530
2026-01-04 11:35:13.82	163.34	24.14	-50.2	-51.8	15.4	6.09e-01	0	28	0	358088704	68	4543
2026-01-04 11:35:14.81	163.38	24.32	-50.2	-51.9	15.4	6.07e-01	0	28	0	360185856	68	4568
2026-01-04 11:35:15.81	163.42	24.49	-50.3	-51.9	15.3	6.07e-01	0	28	0	361758720	68	4598
2026-01-04 11:35:16.79	163.46	24.67	-50.3	-51.9	15.3	6.06e-01	0	28	0	363855872	68	4591
2026-01-04 11:35:17.78	163.50	24.84	-50.2	-51.9	15.3	6.05e-01	0	28	0	365428736	68	4570
2026-01-04 11:35:18.78	163.54	25.02	-50.3	-51.9	15.3	6.06e-01	0	28	0	367525888	68	4595
2026-01-04 11:35:19.78	163.58	25.20	-50.3	-51.9	15.3	6.07e-01	0	28	0	369623040	68	4596
2026-01-04 11:35:20.77	163.62	25.39	-50.3	-52.0	15.3	6.07e-01	0	28	0	371195904	68	4607
2026-01-04 11:35:21.77	163.67	25.57	-50.3	-52.0	15.3	6.07e-01	0	28	0	373293056	68	4627
2026-01-04 11:35:22.76	163.71	25.75	-50.3	-51.9	15.3	6.04e-01	0	28	0	374865920	68	4588
2026-01-04 11:35:23.75	163.75	25.94	-50.3	-51.9	15.3	6.06e-01	0	28	0	376963072	68	4580
2026-01-04 11:35:24.74	163.80	26.12	-50.2	-51.9	15.4	6.09e-01	0	28	0	378535936	68	4549
2026-01-04 11:35:25.73	163.84	26.31	-50.2	-51.8	15.4	6.05e-01	0	28	0	380633088	68	4540
2026-01-04 11:35:26.72	163.89	26.50	-50.1	-51.7	15.4	6.05e-01	0	28	0	382205952	68	4488
2026-01-04 11:35:27.72	163.93	26.69	-50.1	-51.7	15.4	6.08e-01	0	28	0	384303104	68	4465
2026-01-04 11:35:28.71	163.98	26.88	-50.0	-51.6	15.4	6.07e-01	0	28	0	386400256	68	4396
2026-01-04 11:35:29.70	164.02	27.08	-49.9	-51.4	15.5	6.08e-01	0	28	0	387973120	68	4333
2026-01-04 11:35:30.70	164.07	27.27	-49.8	-51.4	15.4	6.06e-01	0	28	0	390070272	68	4326
2026-01-04 11:35:31.69	164.12	27.47	-49.8	-51.4	15.5	6.07e-01	0	28	0	391643136	68	4304
2026-01-04 11:35:32.69	164.17	27.67	-49.7	-51.2	15.5	6.06e-01	0	28	0	393740288	68	4232
2026-01-04 11:35:33.68	164.22	27.87	-49.7	-51.3	15.5	6.05e-01	0	28	0	395313152	68	4260
2026-01-04 11:35:34.67	164.27	28.07	-49.6	-51.2	15.5	6.07e-01	0	28	0	397410304	68	4207
2026-01-04 11:35:35.67	164.32	28.28	-49.7	-51.3	15.5	6.05e-01	0	28	0	398983168	68	4247
2026-01-04 11:35:36.66	164.37	28.48	-49.6	-51.2	15.5	6.07e-01	0	28	0	401080320	68	4214
2026-01-04 11:35:37.66	164.42	28.69	-49.7	-51.2	15.5	6.07e-01	0	28	0	403177472	68	4233
2026-01-04 11:35:38.65	164.47	28.89	-49.6	-51.2	15.5	6.08e-01	0	28	0	404750336	68	4208
2026-01-04 11:35:39.65	164.52	29.11	-49.6	-51.2	15.5	6.07e-01	0	28	0	406847488	68	4210
2026-01-04 11:35:40.64	164.58	29.32	-49.7	-51.3	15.5	6.07e-01	0	28	0	408420352	68	4243
2026-01-04 11:35:41.63	164.63	29.53	-49.6	-51.2	15.5	6.06e-01	0	28	0	410517504	68	4208
2026-01-04 11:35:42.63	164.69	29.74	-49.6	-51.1	15.5	6.06e-01	0	28	0	412090368	68	4185
2026-01-04 11:35:43.63	164.74	29.96	-49.6	-51.1	15.5	6.05e-01	0	28	0	414187520	68	4186
2026-01-04 11:35:44.62	164.80	30.18	-49.5	-51.1	15.5	6.07e-01	0	28	0	415760384	68	4164
2026-01-04 11:35:45.61	164.85	30.40	-49.6	-51.2	15.5	6.07e-01	0	28	0	417857536	68	4196
2026-01-04 11:35:46.61	164.91	30.62	-49.5	-51.1	15.5	6.07e-01	0	28	0	419954688	68	4168
2026-01-04 11:35:47.61	164.97	30.85	-49.6	-51.2	15.5	6.07e-01	0	28	0	421527552	68	4206
2026-01-04 11:35:48.61	165.03	31.07	-49.7	-51.2	15.5	6.08e-01	0	28	0	423624704	68	4225
2026-01-04 11:35:49.60	165.09	31.30	-49.7	-51.2	15.5	6.08e-01	0	28	0	425197568	68	4239
2026-01-04 11:35:50.60	165.15	31.53	-49.7	-51.3	15.5	6.05e-01	0	28	0	427294720	68	4252
2026-01-04 11:35:51.59	165.21	31.76	-49.7	-51.2	15.5	6.08e-01	0	28	0	428867584	68	4234
2026-01-04 11:35:52.59	165.28	31.99	-49.7	-51.2	15.5	6.05e-01	0	28	0	430964736	68	4225
2026-01-04 11:35:53.58	165.34	32.23	-49.8	-51.3	15.5	6.07e-01	0	28	0	432537600	68	4287
2026-01-04 11:35:54.58	165.40	32.47	-49.8	-51.4	15.5	6.06e-01	0	28	0	434634752	68	4331
2026-01-04 11:35:55.58	165.47	32.71	-49.9	-51.5	15.4	6.08e-01	0	28	0	436731904	68	4385
2026-01-04 11:35:56.56	165.53	32.95	-50.1	-51.7	15.4	6.07e-01	0	28	0	438304768	68	4449
2026-01-04 11:35:57.55	165.60	33.19	-50.1	-51.8	15.4	6.07e-01	0	28	0	440401920	68	4504
2026-01-04 11:35:58.55	165.67	33.43	-50.1	-51.7	15.4	6.06e-01	0	28	0	441974784	68	4472
2026-01-04 11:35:59.55	165.74	33.68	-50.1	-51.8	15.4	6.06e-01	0	28	0	444071936	68	4495
2026-01-04 11:36:00.54	165.81	33.93	-50.3	-51.9	15.3	6.08e-01	0	28	0	445644800	68	4571
2026-01-04 11:36:01.53	165.88	34.18	-50.4	-52.0	15.3	6.07e-01	0	28	0	447741952	68	4636
2026-01-04 11:36:02.52	165.95	34.43	-50.5	-52.2	15.3	6.06e-01	0	28	0	449839104	68	4714
2026-01-04 11:36:03.51	166.03	34.69	-50.5	-52.1	15.3	6.08e-01	0	28	0	451411968	68	4699
2026-01-04 11:36:04.51	166.10	34.95	-50.5	-52.2	15.3	6.05e-01	0	28	0	453509120	68	4727
2026-01-04 11:36:05.51	166.18	35.21	-50.6	-52.3	15.3	6.08e-01	0	28	0	455081984	68	4781
2026-01-04 11:36:06.51	166.25	35.47	-50.8	-52.5	15.3	6.07e-01	0	28	0	457179136	69	4616
2026-01-04 11:36:07.51	166.33	35.74	-50.9	-52.7	15.3	6.06e-01	0	28	0	458752000	69	4723
2026-01-04 11:36:08.51	166.41	36.01	-50.9	-52.6	15.3	6.06e-01	0	28	0	460849152	69	4693
2026-01-04 11:36:09.50	166.49	36.27	-50.9	-52.7	15.3	6.08e-01	0	28	0	462946304	69	4718
2026-01-04 11:36:10.50	166.57	36.55	-51.1	-52.8	15.2	6.07e-01	0	28	0	464519168	69	4803
2026-01-04 11:36:11.49	166.66	36.82	-51.4	-53.2	15.2	6.07e-01	0	28	0	466616320	70	4714
2026-01-04 11:36:12.49	166.74	37.10	-51.5	-53.4	15.2	6.08e-01	0	28	0	468189184	70	4820
2026-01-04 11:36:13.49	166.83	37.38	-51.4	-53.2	15.2	6.06e-01	0	28	0	470286336	70	4741
2026-01-04 11:36:14.48	166.92	37.66	-51.5	-53.4	15.2	6.06e-01	0	28	0	471859200	70	4818
2026-01-04 11:36:15.47	167.01	37.94	-51.6	-53.5	15.2	6.06e-01	0	28	0	473956352	70	4871
2026-01-04 11:36:16.46	167.10	38.22	-51.9	-53.7	15.2	6.06e-01	0	28	0	475529216	71	4758
2026-01-04 11:36:17.45	167.19	38.51	-51.8	-53.7	15.2	6.06e-01	0	28	0	477626368	71	4717
2026-01-04 11:36:18.45	167.28	38.80	-51.7	-53.5	15.3	6.06e-01	0	28	0	479199232	71	4650
2026-01-04 11:36:19.43	167.38	39.09	-51.6	-53.5	15.3	6.06e-01	0	28	0	481296384	71	4611
2026-01-04 11:36:20.42	167.47	39.39	-51.6	-53.4	15.3	6.09e-01	0	28	0	483393536	71	4564
2026-01-04 11:36:21.42	167.57	39.69	-51.6	-53.5	15.3	6.05e-01	0	28	0	484966400	71	4608
2026-01-04 11:36:22.42	167.67	39.99	-51.7	-53.5	15.3	6.06e-01	0	28	0	487063552	71	4649
2026-01-04 11:36:23.41	167.77	40.29	-51.6	-53.4	15.3	6.04e-01	0	28	0	488636416	71	4562
2026-01-04 11:36:24.40	167.88	40.60	-51.4	-53.2	15.3	6.07e-01	0	28	0	490733568	71	4479
2026-01-04 11:36:25.40	167.99	40.91	-51.4	-53.2	15.3	6.05e-01	0	28	0	492306432	71	4482
2026-01-04 11:36:26.39	168.09	41.22	-51.4	-53.1	15.3	6.05e-01	0	28	0	494403584	71	4431
2026-01-04 11:36:27.39	168.20	41.54	-51.0	-52.7	15.5	6.07e-01	0	28	0	495976448	71	4228
2026-01-04 11:36:28.38	168.32	41.85	-50.7	-52.4	15.4	6.07e-01	0	28	0	498073600	70	4300
2026-01-04 11:36:29.38	168.43	42.18	-50.8	-52.5	15.4	6.08e-01	0	28	0	500170752	70	4346
2026-01-04 11:36:30.38	168.55	42.50	-50.7	-52.3	15.5	6.07e-01	0	28	0	501743616	70	4277
2026-01-04 11:36:31.38	168.67	42.83	-50.7	-52.3	15.5	6.06e-01	0	28	0	503840768	70	4271
2026-01-04 11:36:32.37	168.79	43.16	-50.4	-52.1	15.5	6.05e-01	0	28	0	505413632	70	4146
2026-01-04 11:36:33.37	168.92	43.49	-50.3	-51.9	15.5	6.08e-01	0	28	0	507510784	69	4292
2026-01-04 11:36:34.36	169.04	43.82	-50.0	-51.6	15.5	6.08e-01	0	28	0	509083648	69	4162
2026-01-04 11:36:35.36	169.17	44.16	-49.7	-51.3	15.5	6.08e-01	0	28	0	511180800	68	4255
2026-01-04 11:36:36.35	169.30	44.50	-49.9	-51.5	15.4	6.09e-01	0	28	0	513277952	68	4370
2026-01-04 11:36:37.34	169.44	44.84	-49.8	-51.3	15.5	6.07e-01	0	28	0	514850816	68	4290
2026-01-04 11:36:38.34	169.58	45.19	-49.7	-51.3	15.5	6.05e-01	0	28	0	516947968	68	4250
2026-01-04 11:36:39.33	169.72	45.54	-50.0	-51.5	15.4	6.07e-01	0	28	0	518520832	68	4390
2026-01-04 11:36:40.33	169.86	45.90	-50.0	-51.6	15.4	6.06e-01	0	28	0	520617984	68	4394
2026-01-04 11:36:41.32	170.01	46.25	-49.9	-51.5	15.4	6.07e-01	0	28	0	522190848	68	4376
2026-01-04 11:36:42.31	170.16	46.61	-50.1	-51.7	15.4	6.06e-01	0	28	0	524288000	68	4492
2026-01-04 11:36:43.31	170.31	46.97	-50.1	-51.7	15.4	6.06e-01	0	28	0	525860864	68	4462
2026-01-04 11:36:44.31	170.47	47.34	-50.1	-51.7	15.4	6.06e-01	0	28	0	527958016	68	4478
2026-01-04 11:36:45.31	170.64	47.71	-50.3	-52.0	15.3	6.06e-01	0	28	0	530055168	68	4608
2026-01-04 11:36:46.30	170.80	48.08	-50.3	-51.9	15.4	6.05e-01	0	28	0	531628032	68	4591
2026-01-04 11:36:47.30	170.97	48.45	-50.3	-51.9	15.3	6.08e-01	0	28	0	533725184	68	4594
2026-01-04 11:36:48.29	171.14	48.83	-50.2	-51.8	15.4	6.09e-01	0	28	0	535298048	68	4494
2026-01-04 11:36:49.29	171.32	49.21	-49.9	-51.4	15.5	6.06e-01	0	28	0	537395200	68	4327
2026-01-04 11:36:50.29	171.50	49.60	-50.0	-51.6	15.4	6.06e-01	0	28	0	538968064	68	4423
2026-01-04 11:36:51.29	171.69	49.98	-49.8	-51.3	15.5	6.08e-01	0	28	0	541065216	68	4285
2026-01-04 11:36:52.28	171.88	50.37	-49.8	-51.3	15.5	6.05e-01	0	28	0	542638080	68	4278
2026-01-04 11:36:53.27	172.08	50.76	-49.7	-51.2	15.5	6.06e-01	0	28	0	544735232	68	4236
2026-01-04 11:36:54.26	172.28	51.16	-49.6	-51.1	15.5	6.08e-01	0	28	0	546832384	68	4163
2026-01-04 11:36:55.26	172.49	51.56	-49.3	-50.8	15.5	6.06e-01	0	28	0	548405248	67	4271
2026-01-04 11:36:56.25	172.70	51.96	-49.2	-50.7	15.5	6.06e-01	0	28	0	550502400	67	4212
2026-01-04 11:36:57.25	172.92	52.37	-49.1	-50.6	15.5	6.09e-01	0	28	0	552075264	67	4177
2026-01-04 11:36:58.24	173.14	52.77	-49.1	-50.5	15.5	6.07e-01	0	28	0	554172416	67	4144
2026-01-04 11:36:59.23	173.37	53.18	-49.0	-50.5	15.6	6.06e-01	0	28	0	555745280	67	4106
2026-01-04 11:37:00.22	173.61	53.60	-49.0	-50.5	15.6	6.08e-01	0	28	0	557842432	67	4101
2026-01-04 11:37:01.22	173.85	54.02	-49.1	-50.6	15.5	6.09e-01	0	28	0	559415296	67	4169
2026-01-04 11:37:02.20	174.10	54.43	-49.3	-50.8	15.5	6.08e-01	0	28	0	561512448	67	4247
2026-01-04 11:37:03.20	174.36	54.86	-49.5	-51.0	15.5	6.08e-01	0	28	0	563609600	67	4379
2026-01-04 11:37:04.19	174.63	55.28	-49.5	-51.1	15.4	6.07e-01	0	28	0	565182464	67	4401
2026-01-04 11:37:05.18	174.90	55.71	-49.6	-51.2	15.4	6.04e-01	0	28	0	567279616	67	4457
2026-01-04 11:37:06.18	175.18	56.14	-50.0	-51.6	15.3	6.07e-01	0	28	0	568852480	67	4680
2026-01-04 11:37:07.17	175.47	56.58	-50.2	-51.8	15.4	6.02e-01	0	28	0	570949632	68	4494
2026-01-04 11:37:08.17	175.78	57.02	-50.4	-52.0	15.4	6.00e-01	0	28	0	572522496	68	4626
2026-01-04 11:37:09.16	176.09	57.46	-50.5	-52.1	15.4	6.05e-01	0	28	0	574619648	69	4422
2026-01-04 11:37:10.15	176.40	57.90	-50.6	-52.2	15.4	6.03e-01	0	28	0	576192512	69	4491
2026-01-04 11:37:11.15	176.74	58.35	-50.8	-52.5	15.3	6.03e-01	0	28	0	578289664	69	4605
2026-01-04 11:37:12.14	177.08	58.79	-50.9	-52.6	15.3	6.01e-01	0	28	0	579862528	69	4692
2026-01-04 11:37:13.14	177.44	59.25	-51.2	-52.9	15.3	6.02e-01	0	28	0	581959680	70	4561
2026-01-04 11:37:14.14	177.81	59.70	-51.3	-53.1	15.3	6.03e-01	0	28	0	584056832	70	4673
2026-01-04 11:37:15.13	178.18	60.16	-51.4	-53.2	15.3	6.05e-01	0	28	0	585629696	70	4714
2026-01-04 11:37:16.13	178.58	60.62	-51.6	-53.4	15.2	6.04e-01	0	28	0	587726848	70	4832
2026-01-04 11:37:17.13	178.99	61.08	-51.9	-53.8	15.2	6.05e-01	0	28	0	589299712	71	4794
2026-01-04 11:37:18.12	179.41	61.54	-51.7	-53.5	15.3	6.02e-01	0	28	0	591396864	71	4612
2026-01-04 11:37:19.12	179.86	62.01	-52.4	-54.4	15.2	6.01e-01	0	28	0	592969728	72	4830
2026-01-04 11:37:20.12	180.32	62.48	-52.5	-54.4	15.1	6.02e-01	0	28	0	595066880	72	4860
2026-01-04 11:37:21.11	180.79	62.95	-53.2	-55.3	15.0	6.02e-01	0	28	0	597164032	74	4793
2026-01-04 11:37:22.10	181.28	63.42	-53.2	-55.3	15.1	6.03e-01	0	28	0	598736896	74	4777
2026-01-04 11:37:23.10	181.80	63.89	-53.3	-55.5	15.0	6.05e-01	0	28	0	600834048	74	4891
2026-01-04 11:37:24.09	182.33	64.36	-53.9	-56.2	14.9	6.01e-01	0	28	0	602406912	75	5041
2026-01-04 11:37:25.08	182.88	64.83	-53.6	-55.8	15.0	6.03e-01	0	28	0	604504064	75	4784
2026-01-04 11:37:26.07	183.46	65.30	-54.0	-56.4	14.9	6.02e-01	0	28	0	606076928	75	5139
2026-01-04 11:37:27.06	184.07	65.78	-54.2	-56.5	14.9	6.04e-01	0	28	0	608174080	76	4917
2026-01-04 11:37:28.05	184.70	66.25	-54.6	-57.0	14.8	6.02e-01	0	28	0	609746944	76	5217
2026-01-04 11:37:29.05	185.36	66.73	-54.4	-56.9	14.8	6.04e-01	0	28	0	611844096	76	5123
2026-01-04 11:37:30.04	186.05	67.20	-54.6	-57.2	14.8	6.04e-01	0	28	0	613416960	77	5011
2026-01-04 11:37:31.04	186.78	67.68	-54.6	-57.1	14.8	6.03e-01	0	28	0	615514112	77	4965
2026-01-04 11:37:32.03	187.53	68.15	-55.1	-57.9	14.6	6.02e-01	0	28	0	617611264	78	5117
2026-01-04 11:37:33.03	188.33	68.63	-55.0	-57.6	14.7	6.04e-01	0	28	0	619184128	78	4979
2026-01-04 11:37:34.02	189.16	69.10	-54.8	-57.4	14.8	6.01e-01	0	28	0	621281280	78	4852
2026-01-04 11:37:35.02	190.04	69.57	-55.4	-58.4	14.5	6.02e-01	0	28	0	622854144	78	5422
2026-01-04 11:37:36.02	190.96	70.05	-54.5	-56.9	15.0	6.02e-01	0	28	0	624951296	78	4567
2026-01-04 11:37:37.01	191.92	70.51	-55.1	-57.8	14.7	6.04e-01	0	28	0	626524160	78	5088
2026-01-04 11:37:38.01	192.95	70.97	-54.6	-57.0	14.9	6.04e-01	0	28	0	628621312	78	4643
2026-01-04 11:37:39.01	194.02	71.44	-54.3	-56.6	15.0	6.04e-01	0	28	0	630718464	77	4684
2026-01-04 11:37:40.00	195.14	71.89	-53.8	-56.0	15.1	6.01e-01	0	28	0	632291328	76	4636
2026-01-04 11:37:40.99	196.33	72.34	-53.8	-56.0	15.1	6.03e-01	0	28	0	634388480	76	4644
2026-01-04 11:37:41.98	197.57	72.78	-53.5	-55.6	15.2	6.03e-01	0	28	0	635961344	76	4397
2026-01-04 11:37:42.97	198.89	73.21	-53.3	-55.4	15.2	6.01e-01	0	28	0	638058496	75	4590
2026-01-04 11:37:43.97	200.29	73.64	-53.1	-55.1	15.3	6.04e-01	0	28	0	639631360	75	4429
2026-01-04 11:37:44.97	201.77	74.07	-52.8	-54.7	15.3	6.03e-01	0	28	0	641728512	74	4478
2026-01-04 11:37:45.97	203.34	74.48	-52.7	-54.7	15.3	6.04e-01	0	28	0	643301376	74	4480
2026-01-04 11:37:46.96	204.97	74.89	-52.7	-54.6	15.3	6.05e-01	0	28	0	645398528	74	4415
2026-01-04 11:37:47.95	206.70	75.27	-52.8	-54.7	15.3	6.04e-01	0	28	0	647495680	74	4481
2026-01-04 11:37:48.96	208.56	75.66	-52.9	-54.9	15.2	6.03e-01	0	28	0	649068544	74	4565
2026-01-04 11:37:49.95	210.49	76.02	-52.8	-54.7	15.3	6.04e-01	0	28	0	651165696	74	4490
2026-01-04 11:37:50.94	212.52	76.37	-52.9	-54.9	15.2	6.02e-01	0	28	0	652738560	74	4591
2026-01-04 11:37:51.93	214.65	76.70	-52.6	-54.5	15.4	6.04e-01	0	28	0	654835712	74	4352
2026-01-04 11:37:52.93	216.92	77.02	-52.6	-54.6	15.3	6.04e-01	0	28	0	656408576	74	4394
2026-01-04 11:37:53.93	219.31	77.32	-52.2	-54.1	15.3	6.02e-01	0	28	0	658505728	73	4404
2026-01-04 11:37:54.93	221.80	77.59	-52.0	-53.8	15.4	6.05e-01	0	28	0	660078592	73	4279
2026-01-04 11:37:55.92	224.38	77.84	-51.6	-53.4	15.4	6.02e-01	0	28	0	662175744	72	4305
2026-01-04 11:37:56.91	227.06	78.06	-51.5	-53.3	15.4	6.02e-01	0	28	0	664272896	72	4250
2026-01-04 11:37:57.90	229.84	78.26	-51.6	-53.3	15.3	6.02e-01	0	28	0	665845760	71	4531
2026-01-04 11:37:58.90	232.75	78.43	-51.4	-53.1	15.5	6.04e-01	0	28	0	667942912	72	4161
2026-01-04 11:37:59.89	235.70	78.58	-51.3	-53.0	15.4	6.03e-01	0	28	0	669515776	71	4359
2026-01-04 11:38:00.89	238.75	78.69	-51.8	-53.5	15.3	6.02e-01	0	28	0	671612928	71	4639
2026-01-04 11:38:01.88	241.83	78.77	-51.8	-53.6	15.3	6.02e-01	0	28	0	673185792	72	4440
2026-01-04 11:38:02.87	244.94	78.81	-51.5	-53.2	15.5	6.02e-01	0	28	0	675282944	72	4229
2026-01-04 11:38:03.87	248.10	78.83	-52.1	-53.9	15.3	6.04e-01	0	28	0	676855808	72	4580
2026-01-04 11:38:04.87	251.26	78.81	-51.9	-53.7	15.3	6.03e-01	0	28	0	678952960	72	4467
2026-01-04 11:38:05.87	254.40	78.76	-51.3	-53.0	15.4	6.04e-01	0	28	0	681050112	71	4354
2026-01-04 11:38:06.87	257.50	78.68	-51.9	-53.7	15.2	6.01e-01	0	28	0	682622976	71	4723
2026-01-04 11:38:07.86	260.51	78.56	-51.6	-53.4	15.4	6.02e-01	0	28	0	684720128	72	4314
2026-01-04 11:38:08.85	263.46	78.42	-51.5	-53.2	15.5	6.02e-01	0	28	0	686292992	72	4199
2026-01-04 11:38:09.84	266.33	78.25	-51.8	-53.6	15.4	6.02e-01	0	28	0	688390144	72	4428
2026-01-04 11:38:10.83	269.10	78.05	-51.2	-52.8	15.5	6.00e-01	0	28	0	689963008	71	4286
2026-01-04 11:38:11.82	271.77	77.82	-51.9	-53.8	15.2	6.04e-01	0	28	0	692060160	71	4767
2026-01-04 11:38:12.81	274.34	77.57	-51.6	-53.3	15.3	6.03e-01	0	28	0	693633024	71	4511
2026-01-04 11:38:13.80	276.80	77.30	-52.1	-53.9	15.2	6.03e-01	0	28	0	695730176	71	4844
2026-01-04 11:38:14.79	279.15	77.00	-52.3	-54.1	15.2	6.03e-01	0	28	0	697303040	72	4689
2026-01-04 11:38:15.78	281.39	76.69	-52.4	-54.3	15.2	6.04e-01	0	28	0	699400192	72	4772
2026-01-04 11:38:16.77	283.52	76.36	-52.6	-54.5	15.2	6.02e-01	0	28	0	701497344	73	4614
2026-01-04 11:38:17.76	285.55	76.01	-52.9	-54.9	15.1	6.03e-01	0	28	0	703070208	73	4845
2026-01-04 11:38:18.76	287.48	75.64	-53.3	-55.3	15.1	6.04e-01	0	28	0	705167360	74	4806
2026-01-04 11:38:19.75	289.30	75.26	-52.5	-54.4	15.3	6.02e-01	0	28	0	706740224	74	4327
2026-01-04 11:38:20.75	291.04	74.87	-52.8	-54.7	15.3	6.03e-01	0	28	0	708837376	74	4473
2026-01-04 11:38:21.73	292.66	74.47	-52.6	-54.4	15.4	6.02e-01	0	28	0	710410240	74	4323
2026-01-04 11:38:22.72	294.20	74.06	-52.7	-54.6	15.3	6.01e-01	0	28	0	712507392	74	4407
2026-01-04 11:38:23.72	295.68	73.64	-52.6	-54.5	15.3	6.03e-01	0	28	0	714080256	74	4344
2026-01-04 11:38:24.70	297.05	73.21	-52.6	-54.5	15.4	6.04e-01	0	28	0	716177408	74	4341
2026-01-04 11:38:25.69	298.37	72.78	-52.9	-54.9	15.2	6.03e-01	0	28	0	717750272	74	4572
2026-01-04 11:38:26.69	299.63	72.33	-52.9	-54.8	15.3	6.06e-01	0	28	0	719847424	74	4519
2026-01-04 11:38:27.68	300.81	71.89	-53.2	-55.2	15.1	6.03e-01	0	28	0	721944576	74	4734
2026-01-04 11:38:28.67	301.93	71.43	-53.1	-55.1	15.1	6.02e-01	0	28	0	723517440	74	4705
2026-01-04 11:38:29.67	303.00	70.97	-53.5	-55.7	15.0	6.02e-01	0	28	0	725614592	74	5003
2026-01-04 11:38:30.66	304.01	70.51	-53.5	-55.7	15.0	6.02e-01	0	28	0	727187456	74	4994
2026-01-04 11:38:31.66	304.98	70.05	-53.2	-55.2	15.1	6.02e-01	0	28	0	729284608	74	4742
2026-01-04 11:38:32.64	305.89	69.58	-53.4	-55.5	15.0	6.04e-01	0	28	0	730857472	74	4915
2026-01-04 11:38:33.64	306.77	69.11	-53.5	-55.7	15.0	6.04e-01	0	28	0	732954624	74	5000
2026-01-04 11:38:34.63	307.60	68.64	-53.4	-55.5	15.1	6.03e-01	0	28	0	734527488	75	4647
2026-01-04 11:38:35.63	308.39	68.17	-53.3	-55.4	15.2	6.04e-01	0	28	0	736624640	75	4572
2026-01-04 11:38:36.62	309.15	67.70	-53.1	-55.1	15.3	6.02e-01	0	28	0	738721792	75	4405
2026-01-04 11:38:37.61	309.87	67.22	-53.3	-55.4	15.2	6.02e-01	0	28	0	740294656	75	4554
2026-01-04 11:38:38.61	310.56	66.75	-53.1	-55.1	15.2	6.02e-01	0	28	0	742391808	75	4439
2026-01-04 11:38:39.60	311.22	66.27	-52.8	-54.7	15.3	6.03e-01	0	28	0	743964672	74	4487
2026-01-04 11:38:40.60	311.86	65.79	-52.7	-54.6	15.3	6.02e-01	0	28	0	746061824	74	4410
2026-01-04 11:38:41.59	312.46	65.32	-52.8	-54.7	15.3	6.04e-01	0	28	0	747634688	74	4476
2026-01-04 11:38:42.58	313.04	64.85	-52.5	-54.3	15.4	6.00e-01	0	28	0	749731840	74	4278
2026-01-04 11:38:43.57	313.59	64.38	-52.5	-54.3	15.4	6.05e-01	0	28	0	751304704	74	4285
2026-01-04 11:38:44.56	314.13	63.91	-52.0	-53.7	15.4	6.02e-01	0	28	0	753401856	73	4233
2026-01-04 11:38:45.55	314.64	63.44	-51.9	-53.7	15.4	6.02e-01	0	28	0	754974720	73	4220
2026-01-04 11:38:46.54	315.13	62.98	-52.0	-53.8	15.4	6.03e-01	0	28	0	757071872	73	4276
2026-01-04 11:38:47.54	315.61	62.51	-51.9	-53.6	15.5	6.04e-01	0	28	0	759169024	72	4404
2026-01-04 11:38:48.53	316.06	62.04	-51.3	-52.9	15.4	6.03e-01	0	28	0	760741888	71	4319
2026-01-04 11:38:49.53	316.51	61.57	-51.6	-53.3	15.3	6.00e-01	0	28	0	762839040	71	4523
2026-01-04 11:38:50.52	316.93	61.11	-51.2	-52.9	15.4	6.04e-01	0	28	0	764411904	71	4298
2026-01-04 11:38:51.51	317.33	60.66	-51.3	-53.0	15.4	6.02e-01	0	28	0	766509056	71	4359
2026-01-04 11:38:52.50	317.73	60.20	-51.0	-52.6	15.5	6.02e-01	0	28	0	768081920	71	4169
2026-01-04 11:38:53.50	318.11	59.74	-50.7	-52.3	15.5	6.03e-01	0	28	0	770179072	70	4282
2026-01-04 11:38:54.49	318.48	59.29	-50.9	-52.5	15.4	6.04e-01	0	28	0	771751936	70	4373
2026-01-04 11:38:55.48	318.83	58.84	-50.9	-52.6	15.4	6.05e-01	0	28	0	773849088	70	4403
2026-01-04 11:38:56.48	319.17	58.39	-50.8	-52.5	15.4	6.03e-01	0	28	0	775946240	70	4346
2026-01-04 11:38:57.48	319.51	57.95	-50.9	-52.5	15.4	6.04e-01	0	28	0	777519104	70	4358
2026-01-04 11:38:58.47	319.83	57.50	-50.5	-52.1	15.5	6.03e-01	0	28	0	779616256	70	4171
2026-01-04 11:38:59.47	320.14	57.06	-50.5	-52.1	15.5	6.03e-01	0	28	0	781189120	70	4187
2026-01-04 11:39:00.47	320.44	56.62	-50.3	-51.8	15.5	6.02e-01	0	28	0	783286272	69	4273
2026-01-04 11:39:01.45	320.73	56.19	-50.2	-51.7	15.5	6.03e-01	0	28	0	784859136	69	4225
2026-01-04 11:39:02.45	321.02	55.76	-50.1	-51.7	15.5	6.02e-01	0	28	0	786956288	69	4213
2026-01-04 11:39:03.43	321.29	55.34	-49.9	-51.5	15.6	6.03e-01	0	28	0	788529152	69	4099
2026-01-04 11:39:04.43	321.55	54.91	-49.9	-51.4	15.5	6.02e-01	0	28	0	790626304	68	4309
2026-01-04 11:39:05.43	321.82	54.48	-49.9	-51.4	15.5	6.02e-01	0	28	0	792723456	68	4331
2026-01-04 11:39:06.42	322.07	54.07	-49.6	-51.1	15.5	6.02e-01	0	28	0	794296320	68	4147
2026-01-04 11:39:07.41	322.31	53.65	-49.4	-50.9	15.6	6.02e-01	0	28	0	796393472	68	4064
2026-01-04 11:39:08.40	322.54	53.24	-49.9	-51.4	15.5	6.03e-01	0	28	0	797966336	68	4305
2026-01-04 11:39:09.40	322.78	52.83	-49.9	-51.4	15.5	6.02e-01	0	28	0	800063488	68	4315
2026-01-04 11:39:10.39	323.00	52.42	-50.0	-51.5	15.5	6.01e-01	0	28	0	801636352	68	4356
2026-01-04 11:39:11.39	323.22	52.02	-50.2	-51.8	15.4	6.05e-01	0	28	0	803733504	68	4497
2026-01-04 11:39:12.38	323.43	51.62	-50.2	-51.8	15.4	6.02e-01	0	28	0	805306368	68	4516
2026-01-04 11:39:13.37	323.64	51.22	-50.2	-51.7	15.4	6.00e-01	0	28	0	807403520	68	4475
2026-01-04 11:39:14.36	323.84	50.83	-50.1	-51.6	15.4	6.04e-01	0	28	0	809500672	68	4433
2026-01-04 11:39:15.35	324.03	50.44	-50.3	-51.8	15.4	6.05e-01	0	28	0	811073536	68	4540
2026-01-04 11:39:16.34	324.23	50.05	-50.5	-52.2	15.3	6.03e-01	0	28	0	813170688	68	4707
2026-01-04 11:39:17.33	324.41	49.66	-50.5	-52.1	15.3	6.04e-01	0	28	0	814743552	68	4671
2026-01-04 11:39:18.33	324.60	49.28	-50.7	-52.3	15.4	6.03e-01	0	28	0	816840704	69	4530
2026-01-04 11:39:19.32	324.77	48.90	-50.8	-52.4	15.4	6.04e-01	0	28	0	818413568	69	4568
2026-01-04 11:39:20.31	324.95	48.53	-50.5	-52.1	15.4	6.04e-01	0	28	0	820510720	69	4428
2026-01-04 11:39:21.30	325.11	48.16	-50.5	-52.0	15.4	6.02e-01	0	28	0	822083584	69	4377
2026-01-04 11:39:22.29	325.28	47.79	-50.3	-51.9	15.5	6.04e-01	0	28	0	824180736	69	4309
2026-01-04 11:39:23.28	325.44	47.42	-50.4	-52.0	15.4	6.03e-01	0	28	0	825753600	69	4363
2026-01-04 11:39:24.27	325.60	47.06	-50.6	-52.2	15.4	6.02e-01	0	28	0	827850752	69	4485
2026-01-04 11:39:25.25	325.75	46.70	-50.7	-52.3	15.4	6.04e-01	0	28	0	829947904	69	4512
2026-01-04 11:39:26.25	325.90	46.34	-50.7	-52.4	15.4	6.03e-01	0	28	0	831520768	69	4555
2026-01-04 11:39:27.23	326.05	45.99	-50.7	-52.3	15.4	6.03e-01	0	28	0	833617920	69	4542
2026-01-04 11:39:28.23	326.19	45.64	-50.4	-52.0	15.4	6.04e-01	0	28	0	835190784	69	4378
2026-01-04 11:39:29.21	326.33	45.30	-50.5	-52.0	15.4	6.03e-01	0	28	0	837287936	69	4383
2026-01-04 11:39:30.20	326.47	44.95	-50.7	-52.3	15.4	6.04e-01	0	28	0	838860800	69	4519
2026-01-04 11:39:31.19	326.61	44.61	-50.7	-52.3	15.3	6.02e-01	0	28	0	840957952	69	4543
2026-01-04 11:39:32.18	326.74	44.27	-50.5	-52.1	15.4	6.02e-01	0	28	0	842530816	69	4405
2026-01-04 11:39:33.17	326.87	43.94	-50.5	-52.1	15.4	6.02e-01	0	28	0	844627968	69	4410
2026-01-04 11:39:34.17	326.99	43.60	-50.6	-52.2	15.4	6.02e-01	0	28	0	846200832	69	4471
2026-01-04 11:39:35.16	327.12	43.27	-50.8	-52.4	15.3	6.02e-01	0	28	0	848297984	69	4596
2026-01-04 11:39:36.16	327.24	42.94	-50.9	-52.6	15.3	6.02e-01	0	28	0	850395136	69	4664
2026-01-04 11:39:37.15	327.36	42.62	-51.0	-52.7	15.3	6.01e-01	0	28	0	851968000	69	4727
2026-01-04 11:39:38.16	327.48	42.29	-51.2	-52.9	15.3	6.05e-01	0	28	0	854065152	70	4567
2026-01-04 11:39:39.16	327.60	41.97	-51.3	-53.1	15.3	6.05e-01	0	28	0	855638016	70	4660
2026-01-04 11:39:40.15	327.71	41.65	-51.3	-53.0	15.3	6.01e-01	0	28	0	857735168	70	4646
2026-01-04 11:39:41.15	327.82	41.33	-51.3	-53.0	15.3	6.02e-01	0	28	0	859308032	70	4616
2026-01-04 11:39:42.13	327.93	41.03	-51.3	-53.0	15.3	6.01e-01	0	28	0	861405184	70	4613
2026-01-04 11:39:43.13	328.04	40.72	-51.2	-52.9	15.3	6.00e-01	0	28	0	862978048	70	4571
2026-01-04 11:39:44.13	328.14	40.41	-51.4	-53.1	15.3	6.02e-01	0	28	0	865075200	70	4677
2026-01-04 11:39:45.13	328.24	40.10	-51.4	-53.1	15.3	6.01e-01	0	28	0	867172352	70	4698
2026-01-04 11:39:46.13	328.35	39.80	-51.5	-53.2	15.3	6.05e-01	0	28	0	868745216	70	4747
2026-01-04 11:39:47.12	328.44	39.50	-51.5	-53.2	15.3	6.04e-01	0	28	0	870842368	70	4736
2026-01-04 11:39:48.11	328.54	39.21	-51.4	-53.1	15.3	6.04e-01	0	28	0	872415232	70	4700
2026-01-04 11:39:49.11	328.64	38.92	-51.3	-53.0	15.3	6.02e-01	0	28	0	874512384	70	4631
2026-01-04 11:39:50.09	328.73	38.63	-51.3	-53.1	15.3	6.02e-01	0	28	0	876085248	70	4661
2026-01-04 11:39:51.08	328.82	38.34	-51.2	-52.9	15.3	6.03e-01	0	28	0	878182400	70	4594
2026-01-04 11:39:52.07	328.91	38.06	-51.1	-52.8	15.4	6.01e-01	0	28	0	879755264	70	4524
2026-01-04 11:39:53.07	329.00	37.77	-51.1	-52.8	15.3	6.03e-01	0	28	0	881852416	70	4544
2026-01-04 11:39:54.06	329.09	37.49	-51.1	-52.8	15.3	6.04e-01	0	28	0	883949568	70	4538
2026-01-04 11:39:55.05	329.18	37.22	-51.1	-52.8	15.4	6.04e-01	0	28	0	885522432	70	4520
2026-01-04 11:39:56.05	329.26	36.94	-51.1	-52.8	15.4	6.02e-01	0	28	0	887619584	70	4503
2026-01-04 11:39:57.04	329.35	36.67	-50.8	-52.5	15.4	6.04e-01	0	28	0	889192448	70	4361
2026-01-04 11:39:58.03	329.43	36.40	-50.8	-52.4	15.4	6.02e-01	0	28	0	891289600	70	4327
2026-01-04 11:39:59.02	329.51	36.13	-50.5	-52.2	15.5	6.02e-01	0	28	0	892862464	70	4231
2026-01-04 11:40:00.02	329.59	35.86	-50.0	-52.0	15.5	6.03e-01	0	28	0	894959616	69	4342
2026-01-04 11:40:01.01	329.67	35.60	-49.2	-52.1	15.1	6.01e-01	0	28	0	896532480	67	4976
2026-01-04 11:40:02.02	329.74	35.33	-48.2	-51.9	14.9	6.03e-01	0	28	0	898629632	65	5421
2026-01-04 11:40:03.01	329.82	35.07	-49.7	-51.8	15.2	6.04e-01	0	28	0	900726784	67	4798
2026-01-04 11:40:04.00	329.90	34.82	-50.1	-51.6	15.4	6.03e-01	0	28	0	902299648	68	4438
2026-01-04 11:40:04.99	329.97	34.56	-50.0	-51.6	15.4	6.03e-01	0	28	0	904396800	68	4394
2026-01-04 11:40:05.99	330.04	34.31	-49.7	-51.2	15.5	6.02e-01	0	28	0	905969664	68	4221
2026-01-04 11:40:06.98	330.11	34.06	-49.7	-51.2	15.5	6.03e-01	0	28	0	908066816	68	4238
2026-01-04 11:40:07.98	330.18	33.81	-49.7	-51.2	15.5	6.02e-01	0	28	0	909639680	68	4236
2026-01-04 11:40:08.99	330.25	33.56	-49.6	-51.2	15.5	6.01e-01	0	28	0	911736832	68	4214
2026-01-04 11:40:09.98	330.32	33.31	-49.7	-51.2	15.5	6.03e-01	0	28	0	913309696	68	4233
2026-01-04 11:40:10.98	330.39	33.07	-49.6	-51.2	15.5	6.02e-01	0	28	0	915406848	68	4209
2026-01-04 11:40:11.97	330.46	32.83	-49.4	-51.0	15.6	6.03e-01	0	28	0	917504000	68	4108
2026-01-04 11:40:12.96	330.52	32.59	-49.5	-51.0	15.6	6.02e-01	0	28	0	919076864	68	4144
2026-01-04 11:40:13.95	330.59	32.36	-49.5	-51.0	15.6	6.04e-01	0	28	0	921174016	68	4141
2026-01-04 11:40:14.94	330.65	32.12	-49.4	-50.9	15.6	6.04e-01	0	28	0	922746880	68	4088
2026-01-04 11:40:15.94	330.71	31.89	-49.4	-50.9	15.6	6.03e-01	0	28	0	924844032	68	4077
2026-01-04 11:40:16.93	330.78	31.66	-49.3	-50.8	15.5	6.02e-01	0	28	0	926416896	67	4251
2026-01-04 11:40:17.92	330.84	31.43	-49.3	-50.9	15.5	6.01e-01	0	28	0	928514048	67	4293
2026-01-04 11:40:18.91	330.90	31.21	-49.2	-50.7	15.5	6.04e-01	0	28	0	930086912	67	4214
2026-01-04 11:40:19.91	330.96	30.98	-49.1	-50.6	15.5	6.02e-01	0	28	0	932184064	67	4177
2026-01-04 11:40:20.90	331.02	30.76	-49.2	-50.7	15.5	6.02e-01	0	28	0	934281216	67	4202
2026-01-04 11:40:21.89	331.07	30.54	-49.2	-50.7	15.5	6.03e-01	0	28	0	935854080	67	4205
2026-01-04 11:40:22.89	331.13	30.32	-49.3	-50.8	15.5	6.04e-01	0	28	0	937951232	67	4249
2026-01-04 11:40:23.88	331.19	30.10	-49.4	-50.9	15.5	6.03e-01	0	28	0	939524096	67	4299
2026-01-04 11:40:24.87	331.24	29.88	-49.4	-50.9	15.5	6.02e-01	0	28	0	941621248	67	4327
2026-01-04 11:40:25.87	331.30	29.67	-49.5	-51.0	15.5	6.01e-01	0	28	0	943194112	67	4353
2026-01-04 11:40:26.86	331.35	29.46	-49.5	-51.1	15.5	6.04e-01	0	28	0	945291264	67	4400
2026-01-04 11:40:27.85	331.41	29.25	-49.5	-51.1	15.5	6.02e-01	0	28	0	946864128	67	4403
2026-01-04 11:40:28.85	331.46	29.03	-49.6	-51.2	15.4	6.03e-01	0	28	0	948961280	67	4443
2026-01-04 11:40:29.84	331.51	28.83	-49.7	-51.3	15.4	6.04e-01	0	28	0	950534144	67	4495
2026-01-04 11:40:30.84	331.56	28.62	-49.7	-51.2	15.4	6.03e-01	0	28	0	952631296	67	4475
2026-01-04 11:40:31.84	331.62	28.41	-49.8	-51.3	15.4	6.03e-01	0	28	0	954728448	67	4538
2026-01-04 11:40:32.83	331.67	28.21	-49.8	-51.4	15.4	6.04e-01	0	28	0	956301312	67	4553
2026-01-04 11:40:33.83	331.72	28.01	-49.7	-51.2	15.4	6.02e-01	0	28	0	958398464	67	4491
2026-01-04 11:40:34.81	331.76	27.81	-49.7	-51.3	15.4	6.03e-01	0	28	0	959971328	67	4494
2026-01-04 11:40:35.81	331.81	27.61	-49.7	-51.3	15.4	6.04e-01	0	28	0	962068480	67	4510
2026-01-04 11:40:36.80	331.86	27.42	-49.7	-51.2	15.4	6.02e-01	0	28	0	963641344	67	4479
2026-01-04 11:40:37.80	331.91	27.22	-49.7	-51.3	15.4	6.03e-01	0	28	0	965738496	67	4502
2026-01-04 11:40:38.80	331.96	27.02	-49.8	-51.4	15.4	6.03e-01	0	28	0	967311360	67	4568
2026-01-04 11:40:39.79	332.00	26.83	-49.9	-51.5	15.4	6.02e-01	0	28	0	969408512	67	4630
2026-01-04 11:40:40.79	332.05	26.64	-50.0	-51.6	15.3	6.03e-01	0	28	0	971505664	67	4666
2026-01-04 11:40:41.77	332.09	26.45	-50.1	-51.7	15.3	6.01e-01	0	28	0	973078528	67	4720
2026-01-04 11:40:42.76	332.14	26.27	-50.1	-51.7	15.4	6.06e-01	0	28	0	975175680	68	4490
2026-01-04 11:40:43.76	332.18	26.08	-50.2	-51.8	15.4	6.04e-01	0	28	0	976748544	68	4529
2026-01-04 11:40:44.76	332.23	25.89	-50.3	-52.0	15.4	6.04e-01	0	28	0	978845696	68	4605
2026-01-04 11:40:45.74	332.27	25.71	-50.3	-51.9	15.4	6.05e-01	0	28	0	980418560	68	4583
2026-01-04 11:40:46.73	332.31	25.53	-50.3	-51.9	15.4	6.02e-01	0	28	0	982515712	68	4588
2026-01-04 11:40:47.72	332.36	25.35	-50.2	-51.8	15.4	6.04e-01	0	28	0	984088576	68	4510
2026-01-04 11:40:48.72	332.40	25.17	-50.1	-51.7	15.4	6.04e-01	0	28	0	986185728	68	4489
2026-01-04 11:40:49.71	332.44	24.99	-50.2	-51.8	15.4	6.01e-01	0	28	0	988282880	68	4532
2026-01-04 11:40:50.71	332.48	24.81	-50.1	-51.7	15.4	6.03e-01	0	28	0	989855744	68	4485
2026-01-04 11:40:51.70	332.52	24.64	-50.2	-51.8	15.4	6.05e-01	0	28	0	991952896	68	4504
2026-01-04 11:40:52.70	332.56	24.46	-50.2	-51.8	15.4	6.01e-01	0	28	0	993525760	68	4533
2026-01-04 11:40:53.69	332.60	24.29	-50.2	-51.8	15.4	6.03e-01	0	28	0	995622912	68	4521
2026-01-04 11:40:54.68	332.64	24.12	-50.3	-51.9	15.4	6.03e-01	0	28	0	997195776	68	4562
2026-01-04 11:40:55.67	332.68	23.95	-50.4	-52.0	15.4	6.00e-01	0	28	0	999292928	68	4626
2026-01-04 11:40:56.67	332.72	23.77	-50.4	-52.0	15.3	6.05e-01	0	28	0	1000865792	68	4627
2026-01-04 11:40:57.66	332.76	23.61	-50.4	-52.0	15.3	6.02e-01	0	28	0	1002962944	68	4638
2026-01-04 11:40:58.65	332.80	23.44	-50.4	-52.0	15.4	6.04e-01	0	28	0	1004535808	68	4650
2026-01-04 11:40:59.64	332.83	23.27	-50.4	-52.0	15.3	6.02e-01	0	28	0	1006632960	68	4639
2026-01-04 11:41:00.63	332.87	23.11	-50.4	-52.1	15.3	6.03e-01	0	28	0	1008730112	68	4653
2026-01-04 11:41:01.62	332.91	22.95	-50.5	-52.1	15.3	6.03e-01	0	28	0	1010302976	68	4698
2026-01-04 11:41:02.62	332.95	22.78	-50.5	-52.1	15.3	6.01e-01	0	28	0	1012400128	68	4698
2026-01-04 11:41:03.61	332.98	22.62	-50.5	-52.1	15.3	6.06e-01	0	28	0	1013972992	68	4692
2026-01-04 11:41:04.61	333.02	22.46	-50.5	-52.1	15.3	6.03e-01	0	28	0	1016070144	68	4699
2026-01-04 11:41:05.61	333.05	22.30	-50.4	-52.1	15.3	6.01e-01	0	28	0	1017643008	68	4671
2026-01-04 11:41:06.60	333.09	22.14	-50.4	-52.0	15.3	6.02e-01	0	28	0	1019740160	68	4628
2026-01-04 11:41:07.60	333.12	21.98	-50.3	-51.9	15.4	6.01e-01	0	28	0	1021313024	68	4586
2026-01-04 11:41:08.58	333.16	21.83	-50.3	-51.9	15.3	6.04e-01	0	28	0	1023410176	68	4571
2026-01-04 11:41:09.58	333.19	21.67	-50.2	-51.9	15.4	6.03e-01	0	28	0	1025507328	68	4556
2026-01-04 11:41:10.56	333.23	21.52	-50.3	-51.9	15.3	6.03e-01	0	28	0	1027080192	68	4597
2026-01-04 11:41:11.55	333.26	21.37	-50.3	-52.0	15.3	6.05e-01	0	28	0	1029177344	68	4615
2026-01-04 11:41:12.54	333.29	21.21	-50.4	-52.1	15.3	6.03e-01	0	28	0	1030750208	68	4680
2026-01-04 11:41:13.53	333.33	21.06	-50.2	-51.8	15.3	6.04e-01	0	28	0	1032847360	68	4516
2026-01-04 11:41:14.52	333.36	20.91	-50.2	-51.8	15.4	6.02e-01	0	28	0	1034420224	68	4517
2026-01-04 11:41:15.52	333.39	20.76	-50.2	-51.8	15.4	6.02e-01	0	28	0	1036517376	68	4498
2026-01-04 11:41:16.52	333.42	20.61	-50.2	-51.8	15.4	6.02e-01	0	28	0	1038090240	68	4503
2026-01-04 11:41:17.51	333.45	20.47	-50.1	-51.7	15.4	6.02e-01	0	28	0	1040187392	68	4446
2026-01-04 11:41:18.51	333.49	20.32	-50.1	-51.7	15.4	6.03e-01	0	28	0	1042284544	68	4486
2026-01-04 11:41:19.50	333.52	20.17	-50.1	-51.7	15.4	6.04e-01	0	28	0	1043857408	68	4457
2026-01-04 11:41:20.49	333.55	20.03	-50.1	-51.7	15.4	6.03e-01	0	28	0	1045954560	68	4457
2026-01-04 11:41:21.49	333.58	19.88	-50.0	-51.6	15.4	6.03e-01	0	28	0	1047527424	68	4415
2026-01-04 11:41:22.49	333.61	19.74	-50.0	-51.6	15.4	6.04e-01	0	28	0	1049624576	68	4397
2026-01-04 11:41:23.49	333.64	19.60	-50.0	-51.5	15.4	6.02e-01	0	28	0	1051197440	68	4391
2026-01-04 11:41:24.49	333.67	19.46	-49.9	-51.5	15.4	6.02e-01	0	28	0	1053294592	68	4381
2026-01-04 11:41:25.48	333.70	19.32	-49.9	-51.5	15.4	6.04e-01	0	28	0	1054867456	68	4357
2026-01-04 11:41:26.47	333.73	19.18	-50.0	-51.6	15.4	6.01e-01	0	28	0	1056964608	68	4398
2026-01-04 11:41:27.46	333.76	19.04	-49.9	-51.5	15.5	6.05e-01	0	28	0	1059061760	68	4360
2026-01-04 11:41:28.45	333.79	18.90	-49.9	-51.5	15.4	6.03e-01	0	28	0	1060634624	68	4385
2026-01-04 11:41:29.44	333.82	18.76	-49.9	-51.4	15.5	6.02e-01	0	28	0	1062731776	68	4339
2026-01-04 11:41:30.43	333.85	18.63	-49.9	-51.5	15.5	6.03e-01	0	28	0	1064304640	68	4355
2026-01-04 11:41:31.41	333.87	18.50	-49.9	-51.5	15.4	6.01e-01	0	28	0	1066401792	68	4379
2026-01-04 11:41:32.41	333.90	18.36	-49.9	-51.4	15.5	6.03e-01	0	28	0	1067974656	68	4333
2026-01-04 11:41:33.41	333.93	18.23	-49.8	-51.4	15.5	6.02e-01	0	28	0	1070071808	68	4293
2026-01-04 11:41:34.40	333.96	18.09	-49.8	-51.3	15.5	6.01e-01	0	28	0	1071644672	68	4275
2026-01-04 11:41:35.40	333.99	17.96	-49.8	-51.3	15.5	6.04e-01	0	28	0	1073741824	68	4285
2026-01-04 11:41:36.39	334.01	17.83	-49.8	-51.4	15.5	6.04e-01	0	28	0	1075314688	68	4300
2026-01-04 11:41:37.39	334.04	17.70	-49.8	-51.4	15.5	6.01e-01	0	28	0	1077411840	68	4298
2026-01-04 11:41:38.39	334.07	17.57	-49.8	-51.4	15.5	6.05e-01	0	28	0	1079508992	68	4306
2026-01-04 11:41:39.37	334.09	17.44	-49.8	-51.4	15.5	6.05e-01	0	28	0	1081081856	68	4328
2026-01-04 11:41:40.37	334.12	17.31	-49.8	-51.4	15.5	6.04e-01	0	28	0	1083179008	68	4329
2026-01-04 11:41:41.37	334.15	17.18	-49.8	-51.4	15.5	6.05e-01	0	28	0	1084751872	68	4299
2026-01-04 11:41:42.36	334.17	17.06	-49.8	-51.4	15.5	6.03e-01	0	28	0	1086849024	68	4303
2026-01-04 11:41:43.36	334.20	16.93	-49.8	-51.4	15.5	6.03e-01	0	28	0	1088421888	68	4329
2026-01-04 11:41:44.36	334.22	16.80	-49.9	-51.5	15.4	6.03e-01	0	28	0	1090519040	68	4387
2026-01-04 11:41:45.36	334.25	16.68	-49.9	-51.5	15.4	6.03e-01	0	28	0	1092616192	68	4370
2026-01-04 11:41:46.35	334.27	16.55	-49.9	-51.5	15.4	6.04e-01	0	28	0	1094189056	68	4391
2026-01-04 11:41:47.35	334.30	16.43	-50.0	-51.6	15.4	6.01e-01	0	28	0	1096286208	68	4411
2026-01-04 11:41:48.34	334.32	16.31	-50.0	-51.6	15.4	6.04e-01	0	28	0	1097859072	68	4427
2026-01-04 11:41:49.33	334.35	16.19	-49.9	-51.6	15.4	6.05e-01	0	28	0	1099956224	68	4407
2026-01-04 11:41:50.33	334.37	16.06	-50.0	-51.6	15.4	6.03e-01	0	28	0	1101529088	68	4430
2026-01-04 11:41:51.32	334.40	15.94	-49.9	-51.5	15.4	6.03e-01	0	28	0	1103626240	68	4380
2026-01-04 11:41:52.31	334.42	15.82	-50.0	-51.6	15.4	6.04e-01	0	28	0	1105199104	68	4427
2026-01-04 11:41:53.30	334.45	15.71	-50.1	-51.7	15.4	6.03e-01	0	28	0	1107296256	68	4472
2026-01-04 11:41:54.30	334.47	15.59	-50.0	-51.7	15.4	6.02e-01	0	28	0	1108869120	68	4462
2026-01-04 11:41:55.30	334.49	15.47	-50.0	-51.6	15.4	6.05e-01	0	28	0	1110966272	68	4419
2026-01-04 11:41:56.28	334.52	15.35	-50.0	-51.7	15.4	6.03e-01	0	28	0	1113063424	68	4448
2026-01-04 11:41:57.27	334.54	15.24	-50.0	-51.6	15.4	6.04e-01	0	28	0	1114636288	68	4424
2026-01-04 11:41:58.27	334.56	15.12	-50.0	-51.6	15.4	6.01e-01	0	28	0	1116733440	68	4426
2026-01-04 11:41:59.26	334.59	15.00	-49.9	-51.6	15.4	6.03e-01	0	28	0	1118306304	68	4395
2026-01-04 11:42:00.25	334.61	14.89	-50.0	-51.7	15.4	6.05e-01	0	28	0	1120403456	68	4442
2026-01-04 11:42:01.25	334.63	14.77	-49.9	-51.5	15.4	6.02e-01	0	28	0	1121976320	68	4366
2026-01-04 11:42:02.24	334.66	14.66	-49.9	-51.5	15.4	6.03e-01	0	28	0	1124073472	68	4384
2026-01-04 11:42:03.23	334.68	14.55	-49.9	-51.5	15.4	6.05e-01	0	28	0	1125646336	68	4367
2026-01-04 11:42:04.23	334.70	14.43	-49.9	-51.6	15.4	6.03e-01	0	28	0	1127743488	68	4396
2026-01-04 11:42:05.22	334.72	14.32	-50.0	-51.7	15.4	6.03e-01	0	28	0	1129840640	68	4444
2026-01-04 11:42:06.22	334.75	14.21	-50.1	-51.7	15.4	6.03e-01	0	28	0	1131413504	68	4486
2026-01-04 11:42:07.21	334.77	14.10	-50.0	-51.7	15.4	6.03e-01	0	28	0	1133510656	68	4461
2026-01-04 11:42:08.21	334.79	13.99	-50.1	-51.7	15.4	6.04e-01	0	28	0	1135083520	68	4480
2026-01-04 11:42:09.20	334.81	13.88	-50.0	-51.6	15.4	6.00e-01	0	28	0	1137180672	68	4424
2026-01-04 11:42:10.19	334.83	13.77	-50.0	-51.6	15.4	6.01e-01	0	28	0	1138753536	68	4440
2026-01-04 11:42:11.18	334.85	13.66	-49.9	-51.6	15.4	6.03e-01	0	28	0	1140850688	68	4407
2026-01-04 11:42:12.17	334.87	13.55	-49.9	-51.5	15.4	6.01e-01	0	28	0	1142423552	68	4387
2026-01-04 11:42:13.17	334.90	13.45	-49.9	-51.5	15.4	6.05e-01	0	28	0	1144520704	68	4380
2026-01-04 11:42:14.16	334.92	13.34	-49.9	-51.5	15.4	6.03e-01	0	28	0	1146617856	68	4361
2026-01-04 11:42:15.16	334.94	13.23	-49.9	-51.6	15.4	6.02e-01	0	28	0	1148190720	68	4409
2026-01-04 11:42:16.15	334.96	13.13	-50.0	-51.6	15.4	6.04e-01	0	28	0	1150287872	68	4423
2026-01-04 11:42:17.15	334.98	13.02	-49.9	-51.6	15.4	6.04e-01	0	28	0	1151860736	68	4399
2026-01-04 11:42:18.14	335.00	12.91	-49.9	-51.6	15.4	6.02e-01	0	28	0	1153957888	68	4395
2026-01-04 11:42:19.13	335.02	12.81	-50.0	-51.6	15.4	6.01e-01	0	28	0	1155530752	68	4420
2026-01-04 11:42:20.12	335.04	12.71	-49.9	-51.6	15.4	6.02e-01	0	28	0	1157627904	68	4408
2026-01-04 11:42:21.12	335.06	12.60	-50.0	-51.7	15.4	6.04e-01	0	28	0	1159200768	68	4464
2026-01-04 11:42:22.10	335.08	12.50	-50.0	-51.7	15.4	6.03e-01	0	28	0	1161297920	68	4451
2026-01-04 11:42:23.09	335.10	12.40	-50.1	-51.8	15.4	6.04e-01	0	28	0	1162870784	68	4494
2026-01-04 11:42:24.08	335.12	12.30	-50.1	-51.7	15.4	6.03e-01	0	28	0	1164967936	68	4490
2026-01-04 11:42:25.08	335.14	12.19	-50.0	-51.7	15.4	6.02e-01	0	28	0	1167065088	68	4451
2026-01-04 11:42:26.06	335.16	12.09	-50.1	-51.8	15.4	6.01e-01	0	28	0	1168637952	68	4527
2026-01-04 11:42:27.06	335.18	11.99	-50.1	-51.8	15.3	6.03e-01	0	28	0	1170735104	68	4529
2026-01-04 11:42:28.05	335.20	11.89	-50.1	-51.8	15.4	6.03e-01	0	28	0	1172307968	68	4509
2026-01-04 11:42:29.05	335.22	11.79	-50.1	-51.8	15.4	6.02e-01	0	28	0	1174405120	68	4529
2026-01-04 11:42:30.06	335.24	11.69	-50.1	-51.8	15.4	6.04e-01	0	28	0	1175977984	68	4513
2026-01-04 11:42:31.05	335.25	11.59	-50.2	-51.9	15.3	6.04e-01	0	28	0	1178075136	68	4566
2026-01-04 11:42:32.04	335.27	11.49	-50.2	-51.9	15.3	6.04e-01	0	28	0	1179648000	68	4592
2026-01-04 11:42:33.04	335.29	11.40	-50.3	-52.0	15.3	6.02e-01	0	28	0	1181745152	68	4615
2026-01-04 11:42:34.03	335.31	11.30	-50.3	-52.0	15.3	6.03e-01	0	28	0	1183842304	68	4634
2026-01-04 11:42:35.03	335.33	11.20	-50.2	-51.9	15.3	6.04e-01	0	28	0	1185415168	68	4597
2026-01-04 11:42:36.02	335.35	11.10	-50.2	-51.9	15.3	6.01e-01	0	28	0	1187512320	68	4562
2026-01-04 11:42:37.01	335.37	11.01	-50.3	-52.0	15.3	6.02e-01	0	28	0	1189085184	68	4615
2026-01-04 11:42:38.00	335.38	10.91	-50.3	-52.1	15.3	6.05e-01	0	28	0	1191182336	68	4654
2026-01-04 11:42:38.99	335.40	10.82	-50.3	-52.0	15.3	6.02e-01	0	28	0	1192755200	68	4611
2026-01-04 11:42:39.98	335.42	10.72	-50.3	-52.0	15.3	6.02e-01	0	28	0	1194852352	68	4622
2026-01-04 11:42:40.97	335.44	10.63	-50.3	-52.1	15.3	6.03e-01	0	28	0	1196425216	68	4665
2026-01-04 11:42:41.97	335.46	10.53	-50.3	-52.0	15.3	6.03e-01	0	28	0	1198522368	68	4617
2026-01-04 11:42:42.96	335.47	10.44	-50.3	-52.0	15.3	6.03e-01	0	28	0	1200619520	68	4638
2026-01-04 11:42:43.96	335.49	10.35	-50.4	-52.1	15.3	6.02e-01	0	28	0	1202192384	68	4705
2026-01-04 11:42:44.96	335.51	10.25	-50.4	-52.1	15.3	6.04e-01	0	28	0	1204289536	68	4693
2026-01-04 11:42:45.94	335.53	10.16	-50.4	-52.1	15.3	6.01e-01	0	28	0	1205862400	68	4694
2026-01-04 11:42:46.94	335.54	10.07	-50.4	-52.1	15.3	6.03e-01	0	28	0	1207959552	68	4705
2026-01-04 11:42:47.94	335.56	9.97	-50.5	-52.3	15.2	6.03e-01	0	28	0	1209532416	68	4786
2026-01-04 11:42:48.93	335.58	9.88	-50.5	-52.2	15.3	6.03e-01	0	28	0	1211629568	68	4749
2026-01-04 11:42:49.93	335.60	9.79	-50.5	-52.2	15.2	6.06e-01	0	28	0	1213202432	68	4759
2026-01-04 11:42:50.92	335.61	9.70	-50.4	-52.2	15.3	6.04e-01	0	28	0	1215299584	68	4739
2026-01-04 11:42:51.91	335.63	9.61	-50.5	-52.3	15.2	6.03e-01	0	28	0	1217396736	68	4795
2026-01-04 11:42:52.91	335.65	9.52	-50.5	-52.3	15.2	6.03e-01	0	28	0	1218969600	68	4792
2026-01-04 11:42:53.90	335.66	9.43	-50.4	-52.2	15.2	6.04e-01	0	28	0	1221066752	68	4731
2026-01-04 11:42:54.90	335.68	9.34	-50.5	-52.3	15.2	6.04e-01	0	28	0	1222639616	68	4791
2026-01-04 11:42:55.90	335.70	9.25	-50.5	-52.3	15.2	5.99e-01	0	28	0	1224736768	68	4768
2026-01-04 11:42:56.90	335.71	9.16	-50.5	-52.3	15.2	6.02e-01	0	28	0	1226309632	68	4811
2026-01-04 11:42:57.89	335.73	9.07	-50.5	-52.3	15.2	6.05e-01	0	28	0	1228406784	68	4799
2026-01-04 11:42:58.88	335.75	8.99	-50.5	-52.3	15.2	6.03e-01	0	28	0	1229979648	68	4802
2026-01-04 11:42:59.88	335.76	8.90	-50.7	-52.5	15.3	6.04e-01	0	28	0	1232076800	69	4625
2026-01-04 11:43:00.87	335.78	8.81	-50.6	-52.4	15.3	6.03e-01	0	28	0	1234173952	69	4584
2026-01-04 11:43:01.86	335.80	8.72	-50.6	-52.4	15.3	6.04e-01	0	28	0	1235746816	69	4576
