passes_logs/2026/01/04/R3.2S_Murmansk/R3.2S_Murmansk__20260104_231812_SUOMI_NPP_rec.log

#Pass ID: 20260104_231812_SUOMI NPP
#Satellite: SUOMI NPP
#Configuration: NPP
#almurnet v.1.7.20251203
#Start time: 2026-01-04 23:18:14

#Version: 2.2.20231116
#Station: R3.2S_Murmansk
#Location: 33.079688 lon 68.888172 lat
#TLE: 1 37849U 11061A   26003.96724563  .00000164  00000+0  98899-4 0  9990
#TLE: 2 37849  98.7800 306.1116 0002573  82.3190 277.8279 14.19522066735141

#Time	Az	El	Level	Level2	SNR	BER	BlckErr	Temp	State	Recorded	gain1	gain2
2026-01-04 23:18:14.33	20.39	2.11	-58.5	-74.2	3.8	1.49e+00	0	26	0	0	83	21747
2026-01-04 23:18:15.34	20.44	2.18	-58.4	-73.9	3.8	1.49e+00	0	26	104	0	82	22205
2026-01-04 23:18:16.35	20.49	2.24	-58.4	-73.7	3.8	1.49e+00	0	26	104	0	82	21661
2026-01-04 23:18:17.36	20.53	2.30	-58.4	-73.7	3.8	1.49e+00	0	26	104	0	82	21593
2026-01-04 23:18:18.37	20.58	2.36	-58.4	-73.5	3.8	1.49e+00	0	26	104	0	82	21150
2026-01-04 23:18:19.38	20.62	2.42	-58.4	-73.5	3.8	1.49e+00	0	26	104	0	82	21055
2026-01-04 23:18:20.39	20.67	2.48	-58.4	-73.4	3.8	1.49e+00	0	26	104	0	82	20801
2026-01-04 23:18:21.40	20.72	2.54	-58.4	-73.4	3.8	1.49e+00	0	26	104	0	82	20838
2026-01-04 23:18:22.41	20.76	2.61	-58.4	-73.4	3.8	1.49e+00	0	26	104	0	82	20831
2026-01-04 23:18:23.41	20.81	2.67	-58.4	-73.3	3.8	1.49e+00	0	26	104	0	82	20762
2026-01-04 23:18:24.42	20.86	2.73	-58.4	-73.2	3.8	1.49e+00	0	26	104	0	82	20484
2026-01-04 23:18:25.43	20.90	2.79	-58.4	-73.3	3.8	1.49e+00	0	26	104	0	82	20547
2026-01-04 23:18:26.44	20.95	2.86	-58.4	-73.0	3.8	1.49e+00	0	26	104	0	82	19924
2026-01-04 23:18:27.45	21.00	2.92	-58.4	-72.7	3.8	1.49e+00	0	26	104	0	82	19222
2026-01-04 23:18:28.46	21.04	2.98	-58.4	-72.2	4.0	1.49e+00	0	26	104	0	82	18142
2026-01-04 23:18:29.47	21.09	3.04	-58.3	-71.8	3.9	1.48e+00	0	26	104	0	82	17404
2026-01-04 23:18:30.48	21.14	3.11	-58.3	-71.2	4.1	1.46e+00	0	26	0	0	82	16296
2026-01-04 23:18:31.49	21.19	3.17	-58.3	-70.9	4.2	1.40e+00	0	26	0	0	82	15582
2026-01-04 23:18:32.50	21.24	3.23	-58.3	-70.3	4.4	1.34e+00	41	26	0	0	82	14703
2026-01-04 23:18:33.51	21.29	3.30	-58.3	-70.3	4.4	1.28e+00	90	26	0	1048576	82	14658
2026-01-04 23:18:34.51	21.33	3.36	-58.3	-70.2	4.4	1.19e+00	73	26	0	3145728	82	14461
2026-01-04 23:18:35.52	21.38	3.42	-58.3	-70.1	4.4	1.14e+00	55	26	0	4194304	82	14360
2026-01-04 23:18:36.53	21.43	3.49	-58.3	-70.2	4.4	1.23e+00	66	26	0	6291456	82	14476
2026-01-04 23:18:37.54	21.48	3.55	-58.2	-70.0	4.5	1.28e+00	22	26	0	8388608	82	14172
2026-01-04 23:18:38.55	21.53	3.62	-58.2	-69.8	4.5	1.04e+00	0	26	0	9437184	82	13851
2026-01-04 23:18:39.56	21.58	3.68	-58.2	-69.2	4.8	9.03e-01	0	26	0	11534336	82	12885
2026-01-04 23:18:40.57	21.63	3.74	-58.1	-68.1	5.3	6.37e-01	0	26	0	13631488	82	11370
2026-01-04 23:18:41.58	21.68	3.81	-58.0	-67.1	5.9	4.56e-01	0	26	0	15728640	82	10154
2026-01-04 23:18:42.59	21.73	3.87	-57.8	-66.1	6.7	1.95e-01	0	26	0	17825792	82	8996
2026-01-04 23:18:43.59	21.78	3.94	-57.5	-64.8	7.7	9.34e-02	0	26	0	19922944	81	8222
2026-01-04 23:18:44.60	21.83	4.00	-57.4	-64.2	8.2	4.04e-02	0	27	0	20971520	81	7694
2026-01-04 23:18:45.61	21.88	4.07	-57.1	-63.2	9.0	1.22e-02	0	26	0	23068672	80	7242
2026-01-04 23:18:46.62	21.93	4.13	-57.1	-63.0	9.2	6.28e-03	0	26	0	25165824	80	7081
2026-01-04 23:18:47.63	21.98	4.20	-56.9	-62.6	9.6	4.10e-03	0	26	0	27262976	80	6742
2026-01-04 23:18:48.64	22.04	4.26	-56.8	-62.3	9.9	2.27e-03	0	26	0	29360128	80	6498
2026-01-04 23:18:49.64	22.09	4.33	-56.8	-62.2	9.9	1.96e-03	0	27	0	30408704	80	6487
2026-01-04 23:18:50.65	22.14	4.39	-56.9	-62.3	9.8	2.24e-03	0	27	0	32505856	80	6551
2026-01-04 23:18:51.66	22.19	4.46	-57.0	-62.7	9.5	4.02e-03	0	26	0	34603008	80	6826
2026-01-04 23:18:52.67	22.24	4.53	-57.1	-63.3	8.9	8.79e-03	0	27	0	36700160	80	7330
2026-01-04 23:18:53.68	22.30	4.59	-57.3	-63.9	8.5	1.29e-02	0	27	0	37748736	80	7841
2026-01-04 23:18:54.69	22.35	4.66	-57.5	-64.7	7.8	4.20e-02	0	27	0	39845888	80	8586
2026-01-04 23:18:55.69	22.40	4.72	-57.6	-65.5	7.1	7.78e-02	0	27	0	41943040	80	9397
2026-01-04 23:18:56.71	22.45	4.79	-57.8	-66.4	6.4	1.37e-01	0	27	0	44040192	80	10425
2026-01-04 23:18:57.72	22.51	4.86	-57.9	-67.3	5.9	2.56e-01	0	27	0	46137344	81	10913
2026-01-04 23:18:58.72	22.56	4.92	-58.0	-67.9	5.5	3.63e-01	0	26	0	48234496	81	11747
2026-01-04 23:18:59.73	22.62	4.99	-58.1	-68.3	5.2	4.95e-01	0	27	0	49283072	81	12310
2026-01-04 23:19:00.74	22.67	5.06	-56.9	-62.2	9.9	5.75e-01	0	27	0	51380224	80	6434
2026-01-04 23:19:01.75	22.72	5.13	-57.2	-63.2	9.1	2.38e-03	0	27	0	53477376	79	7713
2026-01-04 23:19:02.76	22.78	5.19	-58.3	-70.8	4.3	2.06e-01	70	27	0	55574528	81	16357
2026-01-04 23:19:03.77	22.83	5.26	-57.5	-64.3	7.9	1.36e+00	0	27	0	55574528	81	7789
2026-01-04 23:19:04.78	22.89	5.33	-58.6	-71.9	4.1	1.49e-01	34	27	0	57671680	82	17513
2026-01-04 23:19:05.79	22.94	5.40	-57.2	-63.0	9.2	1.29e+00	0	27	104	57671680	81	6713
2026-01-04 23:19:06.79	23.00	5.47	-57.1	-62.8	9.5	2.86e-03	0	27	0	58720256	80	6903
2026-01-04 23:19:07.79	23.05	5.53	-56.7	-61.7	10.4	1.33e-03	0	27	0	60817408	80	6119
2026-01-04 23:19:08.80	23.11	5.60	-56.4	-60.9	11.0	2.89e-04	0	27	0	62914560	79	5860
2026-01-04 23:19:09.81	23.17	5.67	-56.0	-60.0	11.6	4.27e-05	0	27	0	65011712	78	5641
2026-01-04 23:19:10.82	23.22	5.74	-55.9	-59.7	11.8	1.44e-05	0	27	0	66060288	78	5417
2026-01-04 23:19:11.83	23.28	5.81	-55.6	-59.3	12.1	1.50e-06	0	27	0	68157440	77	5471
2026-01-04 23:19:12.84	23.34	5.88	-55.7	-59.4	12.0	3.00e-06	0	27	0	70254592	77	5548
2026-01-04 23:19:13.84	23.39	5.95	-55.5	-59.0	12.2	3.00e-06	0	27	0	72351744	77	5323
2026-01-04 23:19:14.85	23.45	6.01	-55.8	-59.5	11.9	7.00e-07	0	27	0	74448896	77	5620
2026-01-04 23:19:15.86	23.51	6.08	-55.7	-59.4	12.0	6.80e-06	0	27	0	75497472	77	5567
2026-01-04 23:19:16.86	23.56	6.15	-55.6	-59.1	12.2	0.00e+00	0	27	0	77594624	77	5399
2026-01-04 23:19:17.87	23.62	6.22	-55.6	-59.2	12.1	2.20e-06	0	27	0	79691776	77	5449
2026-01-04 23:19:18.88	23.68	6.29	-55.6	-59.1	12.2	1.50e-06	0	27	0	81788928	77	5373
2026-01-04 23:19:19.89	23.74	6.36	-55.4	-58.8	12.4	0.00e+00	0	27	0	83886080	77	5181
2026-01-04 23:19:20.90	23.80	6.43	-55.4	-58.7	12.4	0.00e+00	0	27	0	84934656	77	5150
2026-01-04 23:19:21.91	23.86	6.50	-55.2	-58.3	12.7	0.00e+00	0	27	0	87031808	77	4920
2026-01-04 23:19:22.92	23.92	6.58	-55.1	-58.2	12.8	0.00e+00	0	27	0	89128960	76	5107
2026-01-04 23:19:23.93	23.98	6.65	-55.1	-58.1	12.8	0.00e+00	0	27	0	91226112	76	5096
2026-01-04 23:19:24.93	24.04	6.72	-54.8	-57.7	13.0	0.00e+00	0	27	0	93323264	76	4862
2026-01-04 23:19:25.94	24.10	6.79	-54.8	-57.7	13.1	0.00e+00	0	27	0	95420416	76	4824
2026-01-04 23:19:26.95	24.16	6.86	-54.9	-57.8	13.0	0.00e+00	0	27	0	96468992	76	4909
2026-01-04 23:19:27.96	24.22	6.93	-54.9	-57.8	13.0	0.00e+00	0	27	0	98566144	76	4903
2026-01-04 23:19:28.96	24.28	7.00	-54.6	-57.3	13.2	0.00e+00	0	27	0	100663296	75	4925
2026-01-04 23:19:29.97	24.34	7.07	-54.5	-57.3	13.2	0.00e+00	0	27	0	102760448	75	4918
2026-01-04 23:19:30.98	24.40	7.15	-54.5	-57.2	13.2	0.00e+00	0	27	0	103809024	75	4862
2026-01-04 23:19:31.99	24.46	7.22	-54.4	-57.1	13.3	0.00e+00	0	27	0	105906176	75	4775
2026-01-04 23:19:32.99	24.53	7.29	-54.5	-57.2	13.3	0.00e+00	0	27	0	108003328	75	4854
2026-01-04 23:19:34.00	24.59	7.36	-54.4	-57.1	13.4	0.00e+00	0	27	0	110100480	75	4774
2026-01-04 23:19:35.01	24.65	7.44	-54.3	-57.0	13.4	0.00e+00	0	27	0	112197632	75	4715
2026-01-04 23:19:36.02	24.71	7.51	-54.3	-56.9	13.5	0.00e+00	0	27	0	113246208	75	4656
2026-01-04 23:19:37.03	24.78	7.58	-54.3	-56.9	13.4	0.00e+00	0	27	0	115343360	74	4943
2026-01-04 23:19:38.04	24.84	7.66	-54.3	-56.9	13.4	0.00e+00	0	27	0	117440512	74	4931
2026-01-04 23:19:39.05	24.91	7.73	-54.1	-56.6	13.5	0.00e+00	0	27	0	119537664	74	4806
2026-01-04 23:19:40.06	24.97	7.80	-54.2	-56.8	13.4	0.00e+00	0	27	0	121634816	74	4882
2026-01-04 23:19:41.06	25.03	7.88	-54.0	-56.4	13.6	0.00e+00	0	27	0	123731968	74	4702
2026-01-04 23:19:42.08	25.10	7.95	-54.0	-56.5	13.6	0.00e+00	0	27	0	124780544	74	4712
2026-01-04 23:19:43.09	25.16	8.03	-54.1	-56.5	13.6	0.00e+00	0	27	0	126877696	74	4748
2026-01-04 23:19:44.10	25.23	8.10	-54.0	-56.5	13.6	0.00e+00	0	27	0	128974848	74	4707
2026-01-04 23:19:45.10	25.29	8.18	-53.9	-56.2	13.7	0.00e+00	0	27	0	131072000	74	4592
2026-01-04 23:19:46.12	25.36	8.25	-53.8	-56.2	13.8	0.00e+00	0	27	0	133169152	74	4572
2026-01-04 23:19:47.13	25.43	8.33	-53.7	-56.0	13.8	0.00e+00	0	27	0	134217728	73	4727
2026-01-04 23:19:48.13	25.49	8.40	-53.7	-56.1	13.7	0.00e+00	0	27	0	136314880	73	4773
2026-01-04 23:19:49.14	25.56	8.48	-53.7	-56.0	13.8	0.00e+00	0	27	0	138412032	73	4740
2026-01-04 23:19:50.15	25.63	8.55	-53.8	-56.2	13.7	0.00e+00	0	27	0	140509184	73	4834
2026-01-04 23:19:51.16	25.70	8.63	-53.8	-56.2	13.7	0.00e+00	0	27	0	142606336	73	4818
2026-01-04 23:19:52.17	25.76	8.70	-53.9	-56.3	13.6	0.00e+00	0	27	0	143654912	73	4881
2026-01-04 23:19:53.18	25.83	8.78	-53.8	-56.1	13.7	0.00e+00	0	27	0	145752064	73	4813
2026-01-04 23:19:54.18	25.90	8.86	-53.7	-55.9	13.8	0.00e+00	0	27	0	147849216	73	4701
2026-01-04 23:19:55.19	25.97	8.93	-53.8	-56.1	13.7	0.00e+00	0	27	0	149946368	73	4786
2026-01-04 23:19:56.20	26.04	9.01	-53.7	-56.0	13.8	0.00e+00	0	27	0	152043520	73	4755
2026-01-04 23:19:57.21	26.11	9.09	-53.8	-56.1	13.7	0.00e+00	0	27	0	153092096	73	4783
2026-01-04 23:19:58.22	26.18	9.16	-53.7	-56.0	13.8	0.00e+00	0	27	0	155189248	73	4748
2026-01-04 23:19:59.23	26.25	9.24	-53.7	-55.9	13.8	0.00e+00	0	27	0	157286400	73	4702
2026-01-04 23:20:00.24	26.32	9.32	-53.6	-55.9	13.8	0.00e+00	0	27	0	159383552	73	4667
2026-01-04 23:20:01.25	26.39	9.40	-53.6	-55.8	13.9	0.00e+00	0	27	0	161480704	73	4644
2026-01-04 23:20:02.26	26.46	9.48	-53.6	-55.9	13.9	0.00e+00	0	27	0	162529280	73	4655
2026-01-04 23:20:03.27	26.54	9.55	-53.6	-55.9	13.9	0.00e+00	0	27	0	164626432	73	4652
2026-01-04 23:20:04.27	26.61	9.63	-53.7	-56.0	13.8	0.00e+00	0	27	0	166723584	73	4708
2026-01-04 23:20:05.28	26.68	9.71	-53.6	-55.9	13.8	0.00e+00	0	27	0	168820736	73	4684
2026-01-04 23:20:06.29	26.75	9.79	-53.5	-55.7	13.9	0.00e+00	0	27	0	170917888	73	4564
2026-01-04 23:20:07.30	26.83	9.87	-53.5	-55.8	13.9	0.00e+00	0	27	0	171966464	73	4599
2026-01-04 23:20:08.31	26.90	9.95	-53.5	-55.7	13.9	0.00e+00	0	27	0	174063616	73	4593
2026-01-04 23:20:09.32	26.97	10.03	-53.6	-55.8	13.9	0.00e+00	0	27	0	176160768	73	4644
2026-01-04 23:20:10.33	27.05	10.11	-53.7	-55.9	13.8	0.00e+00	0	27	0	178257920	73	4698
2026-01-04 23:20:11.34	27.12	10.19	-53.5	-55.7	13.9	0.00e+00	0	27	0	180355072	73	4592
2026-01-04 23:20:12.35	27.20	10.27	-53.5	-55.7	13.9	0.00e+00	0	27	0	181403648	73	4589
2026-01-04 23:20:13.36	27.27	10.35	-53.7	-55.9	13.9	0.00e+00	0	27	0	183500800	73	4695
2026-01-04 23:20:14.37	27.35	10.43	-53.6	-55.9	13.9	0.00e+00	0	27	0	185597952	73	4678
2026-01-04 23:20:15.37	27.42	10.51	-53.6	-55.8	13.9	0.00e+00	0	27	0	187695104	73	4639
2026-01-04 23:20:16.39	27.50	10.59	-53.6	-55.8	13.9	0.00e+00	0	27	0	189792256	73	4632
2026-01-04 23:20:17.39	27.58	10.67	-53.6	-55.8	13.9	0.00e+00	0	27	0	191889408	73	4618
2026-01-04 23:20:18.40	27.66	10.75	-53.6	-55.8	13.9	0.00e+00	0	27	0	192937984	73	4640
2026-01-04 23:20:19.41	27.73	10.84	-53.6	-55.9	13.9	0.00e+00	0	27	0	195035136	73	4667
2026-01-04 23:20:20.42	27.81	10.92	-53.6	-55.8	13.9	0.00e+00	0	27	0	197132288	73	4627
2026-01-04 23:20:21.43	27.89	11.00	-53.5	-55.7	14.0	0.00e+00	0	27	0	199229440	73	4576
2026-01-04 23:20:22.44	27.97	11.08	-53.5	-55.7	14.0	0.00e+00	0	27	0	201326592	73	4587
2026-01-04 23:20:23.45	28.05	11.17	-53.3	-55.4	14.1	0.00e+00	0	27	0	202375168	73	4431
2026-01-04 23:20:24.47	28.13	11.25	-53.3	-55.3	14.2	0.00e+00	0	28	0	204472320	73	4380
2026-01-04 23:20:25.48	28.21	11.33	-53.2	-55.3	14.2	0.00e+00	0	27	0	206569472	73	4347
2026-01-04 23:20:26.48	28.29	11.42	-53.2	-55.3	14.1	0.00e+00	0	28	0	208666624	72	4612
2026-01-04 23:20:27.49	28.37	11.50	-53.2	-55.2	14.1	0.00e+00	0	27	0	210763776	72	4580
2026-01-04 23:20:28.50	28.46	11.58	-53.2	-55.2	14.1	0.00e+00	0	28	0	211812352	72	4572
2026-01-04 23:20:29.51	28.54	11.67	-53.1	-55.1	14.2	0.00e+00	0	28	0	213909504	72	4528
2026-01-04 23:20:30.51	28.62	11.75	-53.0	-55.0	14.2	0.00e+00	0	27	0	216006656	72	4454
2026-01-04 23:20:31.52	28.70	11.84	-52.9	-54.9	14.3	0.00e+00	0	27	0	218103808	72	4394
2026-01-04 23:20:32.53	28.79	11.92	-52.9	-54.9	14.3	0.00e+00	0	28	0	220200960	72	4395
2026-01-04 23:20:33.53	28.87	12.01	-52.9	-54.8	14.3	0.00e+00	0	27	0	221249536	72	4380
2026-01-04 23:20:34.54	28.95	12.09	-52.9	-54.8	14.3	0.00e+00	0	27	0	223346688	72	4383
2026-01-04 23:20:35.55	29.04	12.18	-52.9	-54.8	14.3	0.00e+00	0	28	0	225443840	72	4382
2026-01-04 23:20:36.56	29.12	12.26	-52.9	-54.9	14.3	0.00e+00	0	28	0	227540992	72	4418
2026-01-04 23:20:37.57	29.21	12.35	-52.7	-54.6	14.4	0.00e+00	0	28	0	229638144	72	4281
2026-01-04 23:20:38.58	29.30	12.44	-52.8	-54.7	14.3	0.00e+00	0	28	0	230686720	72	4338
2026-01-04 23:20:39.59	29.38	12.52	-52.9	-54.8	14.3	0.00e+00	0	27	0	232783872	72	4391
2026-01-04 23:20:40.60	29.47	12.61	-52.9	-54.8	14.3	0.00e+00	0	27	0	234881024	72	4365
2026-01-04 23:20:41.61	29.56	12.70	-52.9	-54.8	14.3	0.00e+00	0	27	0	236978176	72	4363
2026-01-04 23:20:42.62	29.65	12.79	-52.9	-54.8	14.3	0.00e+00	0	28	0	239075328	72	4371
2026-01-04 23:20:43.63	29.74	12.87	-52.8	-54.7	14.3	0.00e+00	0	27	0	240123904	72	4332
2026-01-04 23:20:44.64	29.83	12.96	-52.7	-54.6	14.3	0.00e+00	0	27	0	242221056	71	4498
2026-01-04 23:20:45.65	29.92	13.05	-52.5	-54.3	14.4	0.00e+00	0	27	0	244318208	71	4391
2026-01-04 23:20:46.66	30.01	13.14	-52.7	-54.6	14.3	0.00e+00	0	28	0	246415360	71	4533
2026-01-04 23:20:47.67	30.10	13.23	-52.6	-54.5	14.3	0.00e+00	0	28	0	248512512	71	4448
2026-01-04 23:20:48.67	30.19	13.32	-52.5	-54.3	14.4	0.00e+00	0	28	0	249561088	71	4386
2026-01-04 23:20:49.68	30.28	13.40	-52.6	-54.5	14.3	0.00e+00	0	28	0	251658240	71	4460
2026-01-04 23:20:50.69	30.37	13.49	-52.5	-54.4	14.4	0.00e+00	0	28	0	253755392	71	4396
2026-01-04 23:20:51.69	30.46	13.58	-52.6	-54.4	14.4	0.00e+00	0	27	0	255852544	71	4431
2026-01-04 23:20:52.70	30.56	13.67	-52.6	-54.5	14.3	0.00e+00	0	28	0	257949696	71	4489
2026-01-04 23:20:53.71	30.65	13.76	-52.4	-54.2	14.5	0.00e+00	0	28	0	258998272	71	4330
2026-01-04 23:20:54.72	30.75	13.85	-52.5	-54.4	14.4	0.00e+00	0	28	0	261095424	71	4403
2026-01-04 23:20:55.73	30.84	13.95	-52.5	-54.4	14.4	0.00e+00	0	28	0	263192576	71	4410
2026-01-04 23:20:56.74	30.94	14.04	-52.5	-54.4	14.4	0.00e+00	0	27	0	265289728	71	4396
2026-01-04 23:20:57.75	31.03	14.13	-52.6	-54.5	14.4	0.00e+00	0	28	0	267386880	71	4473
2026-01-04 23:20:58.76	31.13	14.22	-52.6	-54.5	14.4	0.00e+00	0	28	0	268435456	71	4457
2026-01-04 23:20:59.77	31.23	14.31	-52.6	-54.5	14.4	0.00e+00	0	27	0	270532608	71	4455
2026-01-04 23:21:00.78	31.32	14.40	-52.7	-54.6	14.3	0.00e+00	0	28	0	272629760	71	4517
2026-01-04 23:21:01.79	31.42	14.50	-52.7	-54.6	14.3	0.00e+00	0	28	0	274726912	71	4525
2026-01-04 23:21:02.79	31.52	14.59	-52.7	-54.6	14.3	0.00e+00	0	27	0	276824064	71	4497
2026-01-04 23:21:03.80	31.62	14.68	-52.9	-54.8	14.2	0.00e+00	0	27	0	277872640	71	4614
2026-01-04 23:21:04.81	31.72	14.78	-52.9	-54.8	14.2	0.00e+00	0	28	0	279969792	71	4618
2026-01-04 23:21:05.82	31.82	14.87	-52.6	-54.5	14.4	0.00e+00	0	28	0	282066944	71	4467
2026-01-04 23:21:06.83	31.92	14.96	-52.8	-54.7	14.3	0.00e+00	0	28	0	284164096	71	4574
2026-01-04 23:21:07.84	32.03	15.06	-52.8	-54.6	14.3	0.00e+00	0	28	0	286261248	71	4545
2026-01-04 23:21:08.85	32.13	15.15	-52.7	-54.5	14.4	0.00e+00	0	28	0	288358400	71	4473
2026-01-04 23:21:09.86	32.23	15.25	-52.8	-54.8	14.3	0.00e+00	0	28	0	289406976	71	4600
2026-01-04 23:21:10.86	32.34	15.34	-52.8	-54.7	14.3	0.00e+00	0	28	0	291504128	71	4556
2026-01-04 23:21:11.88	32.44	15.44	-52.8	-54.7	14.3	0.00e+00	0	28	0	293601280	71	4586
2026-01-04 23:21:12.89	32.55	15.53	-52.8	-54.7	14.3	0.00e+00	0	28	0	295698432	71	4577
2026-01-04 23:21:13.89	32.65	15.63	-53.0	-55.0	14.2	0.00e+00	0	28	0	297795584	71	4717
2026-01-04 23:21:14.89	32.76	15.72	-52.9	-54.9	14.2	0.00e+00	0	28	0	298844160	71	4658
2026-01-04 23:21:15.90	32.86	15.82	-52.9	-54.9	14.2	0.00e+00	0	27	0	300941312	71	4655
2026-01-04 23:21:16.91	32.97	15.92	-53.1	-55.1	14.1	0.00e+00	0	28	0	303038464	71	4799
2026-01-04 23:21:17.91	33.08	16.01	-53.1	-55.1	14.2	0.00e+00	0	28	0	305135616	71	4765
2026-01-04 23:21:18.92	33.19	16.11	-53.1	-55.1	14.1	0.00e+00	0	28	0	306184192	71	4780
2026-01-04 23:21:19.93	33.30	16.21	-53.2	-55.3	14.1	0.00e+00	0	28	0	308281344	71	4888
2026-01-04 23:21:20.94	33.41	16.31	-53.4	-55.4	14.0	0.00e+00	0	28	0	310378496	71	4982
2026-01-04 23:21:21.95	33.52	16.41	-53.3	-55.3	14.1	0.00e+00	0	28	0	312475648	72	4634
2026-01-04 23:21:22.96	33.63	16.50	-53.3	-55.4	14.1	0.00e+00	0	28	0	314572800	72	4669
2026-01-04 23:21:23.96	33.74	16.60	-53.3	-55.4	14.1	0.00e+00	0	28	0	316669952	72	4662
2026-01-04 23:21:24.97	33.86	16.70	-53.3	-55.4	14.1	0.00e+00	0	28	0	317718528	72	4664
2026-01-04 23:21:25.98	33.97	16.80	-53.4	-55.4	14.0	0.00e+00	0	28	0	319815680	72	4703
2026-01-04 23:21:26.99	34.09	16.90	-53.3	-55.3	14.1	0.00e+00	0	28	0	321912832	72	4637
2026-01-04 23:21:28.00	34.20	17.00	-53.3	-55.3	14.2	0.00e+00	0	28	0	324009984	72	4622
2026-01-04 23:21:29.00	34.32	17.10	-53.1	-55.1	14.2	0.00e+00	0	27	0	326107136	72	4520
2026-01-04 23:21:30.01	34.43	17.20	-53.0	-54.9	14.3	0.00e+00	0	28	0	327155712	72	4425
2026-01-04 23:21:31.01	34.55	17.30	-52.8	-54.7	14.4	0.00e+00	0	28	0	329252864	72	4312
2026-01-04 23:21:32.02	34.67	17.40	-52.9	-54.9	14.3	0.00e+00	0	28	0	331350016	72	4398
2026-01-04 23:21:33.03	34.79	17.51	-52.8	-54.6	14.5	0.00e+00	0	28	0	333447168	72	4274
2026-01-04 23:21:34.03	34.91	17.61	-52.8	-54.6	14.3	0.00e+00	0	28	0	335544320	71	4526
2026-01-04 23:21:35.05	35.03	17.71	-52.7	-54.6	14.4	0.00e+00	0	28	0	336592896	71	4520
2026-01-04 23:21:36.05	35.15	17.81	-52.8	-54.7	14.3	0.00e+00	0	28	0	338690048	71	4556
2026-01-04 23:21:37.06	35.27	17.91	-52.8	-54.7	14.3	0.00e+00	0	28	0	340787200	71	4561
2026-01-04 23:21:38.07	35.40	18.02	-52.9	-54.8	14.3	0.00e+00	0	28	0	342884352	71	4637
2026-01-04 23:21:39.08	35.52	18.12	-52.7	-54.5	14.4	0.00e+00	0	28	0	344981504	71	4484
2026-01-04 23:21:40.09	35.65	18.23	-52.9	-54.8	14.3	0.00e+00	0	28	0	346030080	71	4630
2026-01-04 23:21:41.10	35.77	18.33	-53.0	-55.0	14.2	0.00e+00	0	28	0	348127232	71	4717
2026-01-04 23:21:42.11	35.90	18.43	-53.0	-54.9	14.2	0.00e+00	0	28	0	350224384	71	4703
2026-01-04 23:21:43.12	36.03	18.54	-53.1	-55.1	14.1	0.00e+00	0	28	0	352321536	71	4804
2026-01-04 23:21:44.13	36.15	18.64	-53.1	-55.1	14.2	0.00e+00	0	28	0	354418688	71	4792
2026-01-04 23:21:45.13	36.28	18.75	-53.2	-55.2	14.1	0.00e+00	0	28	0	355467264	71	4837
2026-01-04 23:21:46.14	36.41	18.85	-53.2	-55.2	14.1	0.00e+00	0	28	0	357564416	71	4834
2026-01-04 23:21:47.15	36.54	18.96	-53.3	-55.4	14.0	0.00e+00	0	28	0	359661568	71	4958
2026-01-04 23:21:48.16	36.67	19.07	-53.2	-55.2	14.1	0.00e+00	0	28	0	361758720	71	4829
2026-01-04 23:21:49.17	36.81	19.17	-53.1	-55.1	14.2	0.00e+00	0	27	0	363855872	71	4795
2026-01-04 23:21:50.18	36.94	19.28	-53.4	-55.4	14.1	0.00e+00	0	28	0	364904448	72	4689
2026-01-04 23:21:51.19	37.07	19.39	-53.3	-55.3	14.1	0.00e+00	0	28	0	367001600	72	4644
2026-01-04 23:21:52.20	37.21	19.50	-53.3	-55.3	14.2	0.00e+00	0	28	0	369098752	72	4605
2026-01-04 23:21:53.21	37.35	19.60	-53.3	-55.3	14.2	0.00e+00	0	28	0	371195904	72	4612
2026-01-04 23:21:54.22	37.48	19.71	-53.3	-55.2	14.2	0.00e+00	0	28	0	373293056	72	4595
2026-01-04 23:21:55.23	37.62	19.82	-53.2	-55.1	14.2	0.00e+00	0	28	0	374341632	72	4539
2026-01-04 23:21:56.24	37.76	19.93	-53.1	-55.1	14.3	0.00e+00	0	28	0	376438784	72	4505
2026-01-04 23:21:57.25	37.90	20.04	-53.1	-55.1	14.3	0.00e+00	0	28	0	378535936	72	4517
2026-01-04 23:21:58.26	38.04	20.15	-53.1	-55.1	14.3	0.00e+00	0	28	0	380633088	72	4497
2026-01-04 23:21:59.26	38.18	20.26	-53.0	-54.9	14.3	0.00e+00	0	28	0	382730240	72	4399
2026-01-04 23:22:00.27	38.33	20.37	-53.1	-55.0	14.3	0.00e+00	0	28	0	383778816	72	4445
2026-01-04 23:22:01.28	38.47	20.48	-53.0	-54.9	14.3	0.00e+00	0	28	0	385875968	72	4425
2026-01-04 23:22:02.28	38.61	20.59	-53.1	-55.0	14.3	0.00e+00	0	28	0	387973120	72	4470
2026-01-04 23:22:03.29	38.76	20.70	-52.9	-54.8	14.4	0.00e+00	0	28	0	390070272	72	4355
2026-01-04 23:22:04.30	38.91	20.81	-52.8	-54.7	14.4	0.00e+00	0	27	0	392167424	72	4310
2026-01-04 23:22:05.31	39.05	20.92	-53.0	-55.0	14.3	0.00e+00	0	28	0	393216000	72	4449
2026-01-04 23:22:06.32	39.20	21.04	-53.0	-54.9	14.4	0.00e+00	0	28	0	395313152	72	4421
2026-01-04 23:22:07.33	39.35	21.15	-53.1	-55.0	14.3	0.00e+00	0	27	0	397410304	72	4460
2026-01-04 23:22:08.33	39.50	21.26	-53.3	-55.3	14.1	0.00e+00	0	28	0	399507456	72	4637
2026-01-04 23:22:09.34	39.66	21.37	-53.3	-55.2	14.2	0.00e+00	0	28	0	401604608	72	4598
2026-01-04 23:22:10.35	39.81	21.49	-53.4	-55.4	14.1	0.00e+00	0	28	0	402653184	72	4670
2026-01-04 23:22:11.36	39.96	21.60	-53.2	-55.2	14.2	0.00e+00	0	28	0	404750336	72	4572
2026-01-04 23:22:12.36	40.12	21.71	-53.4	-55.4	14.2	0.00e+00	0	28	0	406847488	72	4665
2026-01-04 23:22:13.38	40.28	21.83	-53.2	-55.2	14.2	0.00e+00	0	28	0	408944640	72	4585
2026-01-04 23:22:14.39	40.43	21.94	-53.2	-55.1	14.3	0.00e+00	0	28	0	411041792	72	4531
2026-01-04 23:22:15.40	40.59	22.06	-53.1	-55.0	14.3	0.00e+00	0	28	0	413138944	72	4490
2026-01-04 23:22:16.41	40.75	22.17	-53.0	-54.9	14.4	0.00e+00	0	28	0	414187520	72	4396
2026-01-04 23:22:17.42	40.91	22.29	-52.9	-54.7	14.4	0.00e+00	0	28	0	416284672	72	4325
2026-01-04 23:22:18.43	41.08	22.40	-52.7	-54.5	14.4	0.00e+00	0	27	0	418381824	71	4467
2026-01-04 23:22:19.44	41.24	22.52	-52.7	-54.5	14.4	0.00e+00	0	28	0	420478976	71	4465
2026-01-04 23:22:20.44	41.40	22.64	-52.6	-54.4	14.4	0.00e+00	0	28	0	422576128	71	4416
2026-01-04 23:22:21.45	41.57	22.75	-52.5	-54.3	14.5	0.00e+00	0	28	0	423624704	71	4358
2026-01-04 23:22:22.46	41.74	22.87	-52.7	-54.5	14.4	0.00e+00	0	28	0	425721856	71	4454
2026-01-04 23:22:23.47	41.90	22.99	-52.7	-54.5	14.4	0.00e+00	0	28	0	427819008	71	4479
2026-01-04 23:22:24.47	42.07	23.10	-52.9	-54.8	14.3	0.00e+00	0	28	0	429916160	71	4647
2026-01-04 23:22:25.48	42.24	23.22	-52.9	-54.7	14.3	0.00e+00	0	28	0	432013312	71	4597
2026-01-04 23:22:26.49	42.41	23.34	-53.0	-54.8	14.3	0.00e+00	0	28	0	433061888	71	4651
2026-01-04 23:22:27.50	42.59	23.46	-53.1	-55.0	14.2	0.00e+00	0	28	0	435159040	71	4723
2026-01-04 23:22:28.51	42.76	23.58	-52.8	-54.6	14.4	0.00e+00	0	28	0	437256192	71	4507
2026-01-04 23:22:29.51	42.94	23.70	-52.7	-54.5	14.4	0.00e+00	0	28	0	439353344	71	4492
2026-01-04 23:22:30.52	43.11	23.81	-52.6	-54.3	14.5	0.00e+00	0	28	0	441450496	71	4384
2026-01-04 23:22:31.53	43.29	23.93	-52.5	-54.2	14.5	0.00e+00	0	28	0	442499072	71	4337
2026-01-04 23:22:32.54	43.47	24.05	-52.3	-54.0	14.6	0.00e+00	0	28	0	444596224	71	4236
2026-01-04 23:22:33.54	43.65	24.17	-52.1	-53.8	14.6	0.00e+00	0	28	0	446693376	70	4371
2026-01-04 23:22:34.55	43.84	24.29	-52.3	-54.0	14.6	0.00e+00	0	28	0	448790528	70	4445
2026-01-04 23:22:35.56	44.02	24.41	-52.1	-53.8	14.6	0.00e+00	0	28	0	450887680	70	4363
2026-01-04 23:22:36.57	44.20	24.53	-52.3	-54.0	14.5	0.00e+00	0	28	0	451936256	70	4475
2026-01-04 23:22:37.58	44.39	24.66	-52.3	-54.1	14.5	0.00e+00	0	28	0	454033408	70	4496
2026-01-04 23:22:38.59	44.58	24.78	-52.3	-54.1	14.5	0.00e+00	0	27	0	456130560	70	4500
2026-01-04 23:22:39.60	44.77	24.90	-52.5	-54.2	14.4	0.00e+00	0	27	0	458227712	70	4588
2026-01-04 23:22:40.61	44.96	25.02	-52.9	-54.7	14.2	0.00e+00	0	27	0	460324864	70	4860
2026-01-04 23:22:41.62	45.15	25.14	-53.0	-55.0	14.3	0.00e+00	0	28	0	461373440	71	4706
2026-01-04 23:22:42.63	45.35	25.27	-53.1	-55.1	14.2	0.00e+00	0	28	0	463470592	71	4778
2026-01-04 23:22:43.64	45.54	25.39	-53.1	-55.0	14.2	0.00e+00	0	28	0	465567744	71	4734
2026-01-04 23:22:44.64	45.74	25.51	-53.0	-54.8	14.3	0.00e+00	0	28	0	467664896	71	4650
2026-01-04 23:22:45.64	45.93	25.63	-52.8	-54.6	14.4	0.00e+00	0	28	0	469762048	71	4536
2026-01-04 23:22:46.65	46.13	25.75	-52.8	-54.6	14.4	0.00e+00	0	28	0	470810624	71	4543
2026-01-04 23:22:47.66	46.33	25.88	-52.8	-54.6	14.4	0.00e+00	0	27	0	472907776	71	4502
2026-01-04 23:22:48.67	46.54	26.00	-52.7	-54.5	14.5	0.00e+00	0	28	0	475004928	71	4448
2026-01-04 23:22:49.68	46.74	26.13	-52.8	-54.6	14.4	0.00e+00	0	28	0	477102080	71	4540
2026-01-04 23:22:50.69	46.95	26.25	-52.8	-54.7	14.4	0.00e+00	0	28	0	479199232	71	4555
2026-01-04 23:22:51.69	47.15	26.37	-53.2	-55.2	14.2	0.00e+00	0	28	0	480247808	71	4826
2026-01-04 23:22:52.71	47.36	26.50	-53.2	-55.1	14.2	0.00e+00	0	28	0	482344960	71	4804
2026-01-04 23:22:53.72	47.58	26.62	-53.4	-55.3	14.1	0.00e+00	0	28	0	484442112	71	4919
2026-01-04 23:22:54.72	47.79	26.75	-53.2	-55.1	14.2	0.00e+00	0	28	0	486539264	71	4783
2026-01-04 23:22:55.73	48.00	26.87	-53.2	-55.1	14.2	0.00e+00	0	28	0	488636416	71	4803
2026-01-04 23:22:56.74	48.22	27.00	-53.4	-55.4	14.2	0.00e+00	0	28	0	489684992	72	4658
2026-01-04 23:22:57.75	48.43	27.12	-53.4	-55.4	14.2	0.00e+00	0	28	0	491782144	72	4687
2026-01-04 23:22:58.76	48.65	27.25	-53.4	-55.4	14.2	0.00e+00	0	28	0	493879296	72	4664
2026-01-04 23:22:59.76	48.87	27.37	-53.1	-55.0	14.3	0.00e+00	0	27	0	495976448	72	4488
2026-01-04 23:23:00.77	49.09	27.50	-53.2	-55.1	14.3	0.00e+00	0	28	0	498073600	72	4538
2026-01-04 23:23:01.78	49.32	27.62	-53.2	-55.1	14.3	0.00e+00	0	28	0	499122176	72	4529
2026-01-04 23:23:02.79	49.54	27.75	-53.1	-54.9	14.4	0.00e+00	0	28	0	501219328	72	4440
2026-01-04 23:23:03.80	49.77	27.88	-53.2	-55.2	14.3	0.00e+00	0	28	0	503316480	72	4552
2026-01-04 23:23:04.81	50.00	28.00	-53.1	-55.0	14.4	0.00e+00	0	28	0	505413632	72	4457
2026-01-04 23:23:05.82	50.23	28.13	-52.8	-54.6	14.5	0.00e+00	0	28	0	507510784	72	4281
2026-01-04 23:23:06.83	50.46	28.25	-52.8	-54.5	14.5	0.00e+00	0	28	0	509607936	72	4240
2026-01-04 23:23:07.84	50.70	28.38	-52.5	-54.2	14.6	0.00e+00	0	28	0	510656512	71	4296
2026-01-04 23:23:08.85	50.93	28.51	-52.3	-53.9	14.7	0.00e+00	0	28	0	512753664	71	4189
2026-01-04 23:23:09.86	51.17	28.63	-52.4	-54.1	14.6	0.00e+00	0	28	0	514850816	71	4252
2026-01-04 23:23:10.87	51.41	28.76	-52.5	-54.2	14.6	0.00e+00	0	28	0	516947968	71	4305
2026-01-04 23:23:11.88	51.66	28.89	-52.4	-54.1	14.6	0.00e+00	0	28	0	517996544	71	4279
2026-01-04 23:23:12.89	51.90	29.01	-52.7	-54.5	14.5	0.00e+00	0	28	0	520093696	71	4447
2026-01-04 23:23:13.89	52.14	29.14	-52.8	-54.6	14.4	0.00e+00	0	28	0	522190848	71	4499
2026-01-04 23:23:14.90	52.39	29.27	-52.7	-54.5	14.5	0.00e+00	0	28	0	524288000	71	4482
2026-01-04 23:23:15.91	52.64	29.39	-53.0	-54.9	14.3	0.00e+00	0	28	0	526385152	71	4683
2026-01-04 23:23:16.92	52.89	29.52	-53.2	-55.1	14.2	0.00e+00	0	28	0	527433728	71	4763
2026-01-04 23:23:17.92	53.14	29.65	-53.5	-55.4	14.1	0.00e+00	0	28	0	529530880	72	4692
2026-01-04 23:23:18.93	53.40	29.77	-53.7	-55.8	14.0	0.00e+00	0	28	0	531628032	72	4877
2026-01-04 23:23:19.94	53.66	29.90	-53.9	-56.1	13.9	0.00e+00	0	28	0	533725184	72	5055
2026-01-04 23:23:20.95	53.92	30.03	-54.1	-56.3	13.9	0.00e+00	0	28	0	535822336	73	4892
2026-01-04 23:23:21.96	54.18	30.15	-53.9	-56.1	14.0	0.00e+00	0	28	0	537919488	73	4768
2026-01-04 23:23:22.97	54.44	30.28	-54.0	-56.2	13.9	0.00e+00	0	28	0	538968064	73	4826
2026-01-04 23:23:23.98	54.71	30.40	-54.0	-56.1	14.0	0.00e+00	0	28	0	541065216	73	4787
2026-01-04 23:23:24.99	54.97	30.53	-53.9	-56.0	14.0	0.00e+00	0	28	0	543162368	73	4714
2026-01-04 23:23:26.00	55.24	30.66	-54.0	-56.2	13.9	0.00e+00	0	28	0	545259520	73	4823
2026-01-04 23:23:27.01	55.52	30.78	-54.3	-56.6	13.8	0.00e+00	0	27	0	547356672	73	5066
2026-01-04 23:23:28.02	55.79	30.91	-54.2	-56.4	13.8	0.00e+00	0	28	0	548405248	73	4931
2026-01-04 23:23:29.02	56.06	31.03	-54.7	-57.1	13.6	0.00e+00	0	28	0	550502400	74	5050
2026-01-04 23:23:30.03	56.34	31.16	-54.8	-57.3	13.5	0.00e+00	0	28	0	552599552	74	5204
2026-01-04 23:23:31.04	56.62	31.28	-55.1	-57.7	13.3	0.00e+00	0	28	0	554696704	75	5135
2026-01-04 23:23:32.05	56.90	31.41	-55.5	-58.2	13.2	0.00e+00	0	28	0	556793856	76	5143
2026-01-04 23:23:33.06	57.19	31.53	-55.9	-58.9	12.9	0.00e+00	0	28	0	557842432	77	5261
2026-01-04 23:23:34.07	57.47	31.66	-56.4	-59.7	12.4	0.00e+00	0	28	0	559939584	77	5760
2026-01-04 23:23:35.08	57.76	31.78	-56.3	-59.6	12.5	0.00e+00	0	28	0	562036736	78	5375
2026-01-04 23:23:36.09	58.05	31.91	-56.1	-59.1	12.8	0.00e+00	0	28	0	564133888	78	5085
2026-01-04 23:23:37.10	58.35	32.03	-55.9	-58.8	13.0	0.00e+00	0	28	0	566231040	78	4923
2026-01-04 23:23:38.11	58.64	32.15	-56.0	-59.0	12.9	0.00e+00	0	28	0	567279616	78	5026
2026-01-04 23:23:39.12	58.94	32.28	-55.9	-58.9	12.9	0.00e+00	0	28	0	569376768	77	5221
2026-01-04 23:23:40.13	59.24	32.40	-56.0	-59.0	12.8	0.00e+00	0	28	0	571473920	77	5318
2026-01-04 23:23:41.14	59.54	32.52	-56.0	-59.0	12.8	0.00e+00	0	28	0	573571072	77	5305
2026-01-04 23:23:42.15	59.85	32.65	-56.4	-59.6	12.4	0.00e+00	0	28	0	575668224	77	5695
2026-01-04 23:23:43.16	60.15	32.77	-56.5	-59.9	12.4	7.00e-07	0	28	0	576716800	78	5554
2026-01-04 23:23:44.17	60.46	32.89	-56.7	-60.2	12.1	0.00e+00	0	28	0	578813952	78	5788
2026-01-04 23:23:45.17	60.77	33.01	-56.9	-60.6	12.0	7.00e-07	0	28	0	580911104	78	6045
2026-01-04 23:23:46.18	61.08	33.13	-57.0	-60.8	12.0	7.00e-07	0	28	0	583008256	79	5846
2026-01-04 23:23:47.19	61.40	33.25	-56.5	-59.9	12.5	0.00e+00	0	28	0	585105408	79	5230
2026-01-04 23:23:48.20	61.72	33.37	-56.1	-59.2	12.8	7.00e-07	0	28	0	586153984	78	5135
2026-01-04 23:23:49.21	62.04	33.49	-55.9	-58.9	13.0	0.00e+00	0	28	0	588251136	78	4941
2026-01-04 23:23:50.22	62.36	33.61	-56.4	-59.7	12.5	0.00e+00	0	28	0	590348288	78	5451
2026-01-04 23:23:51.23	62.68	33.73	-56.6	-60.0	12.4	0.00e+00	0	28	0	592445440	78	5650
2026-01-04 23:23:52.23	63.01	33.84	-56.8	-60.4	12.0	0.00e+00	0	28	0	594542592	78	5866
2026-01-04 23:23:53.24	63.34	33.96	-57.0	-60.9	11.8	7.00e-07	0	28	0	595591168	79	5872
2026-01-04 23:23:54.25	63.67	34.07	-57.5	-61.8	11.2	8.30e-06	0	28	0	597688320	80	6168
2026-01-04 23:23:55.26	64.00	34.19	-57.0	-60.9	11.8	1.22e-05	0	28	0	599785472	80	5542
2026-01-04 23:23:56.27	64.34	34.31	-56.9	-60.6	12.0	8.30e-06	0	28	0	601882624	80	5356
2026-01-04 23:23:57.28	64.68	34.42	-56.8	-60.4	12.1	3.00e-06	0	28	0	603979776	80	5266
2026-01-04 23:23:58.28	65.02	34.53	-56.6	-60.0	12.5	0.00e+00	0	28	0	606076928	79	5301
2026-01-04 23:23:59.29	65.36	34.65	-56.4	-59.7	12.5	7.00e-07	0	28	0	607125504	79	5124
2026-01-04 23:24:00.30	65.71	34.76	-56.4	-59.7	12.5	0.00e+00	0	28	0	609222656	79	5126
2026-01-04 23:24:01.31	66.05	34.87	-56.3	-59.5	12.6	0.00e+00	0	28	0	611319808	79	5040
2026-01-04 23:24:02.31	66.40	34.98	-56.5	-59.8	12.4	0.00e+00	0	28	0	613416960	78	5466
2026-01-04 23:24:03.32	66.75	35.09	-56.5	-59.9	12.4	0.00e+00	0	28	0	614465536	78	5538
2026-01-04 23:24:04.33	67.11	35.20	-56.9	-60.6	12.0	7.00e-07	0	28	0	616562688	79	5692
2026-01-04 23:24:05.34	67.47	35.31	-57.1	-61.0	11.7	2.20e-06	0	28	0	618659840	79	5937
2026-01-04 23:24:06.34	67.82	35.41	-56.7	-60.2	12.3	0.00e+00	0	28	0	620756992	79	5419
2026-01-04 23:24:07.35	68.19	35.52	-56.5	-59.9	12.5	0.00e+00	0	28	0	622854144	79	5234
2026-01-04 23:24:08.36	68.55	35.63	-56.1	-59.1	12.9	0.00e+00	0	28	0	623902720	78	5098
2026-01-04 23:24:09.36	68.91	35.73	-55.3	-57.9	13.5	0.00e+00	0	28	0	625999872	77	4675
2026-01-04 23:24:10.37	69.28	35.83	-55.0	-57.4	13.6	0.00e+00	0	28	0	628097024	76	4699
2026-01-04 23:24:11.38	69.66	35.94	-55.1	-57.6	13.5	0.00e+00	0	28	0	630194176	76	4802
2026-01-04 23:24:12.39	70.03	36.04	-55.6	-58.5	13.0	0.00e+00	0	28	0	632291328	76	5280
2026-01-04 23:24:13.40	70.41	36.14	-55.9	-58.8	12.9	0.00e+00	0	28	0	634388480	76	5519
2026-01-04 23:24:14.40	70.78	36.24	-55.1	-57.6	13.6	0.00e+00	0	28	0	635437056	76	4761
2026-01-04 23:24:15.41	71.16	36.34	-54.3	-56.4	14.0	0.00e+00	0	28	0	637534208	75	4424
2026-01-04 23:24:16.41	71.54	36.44	-54.0	-56.1	14.1	0.00e+00	0	28	0	639631360	74	4534
2026-01-04 23:24:17.42	71.93	36.53	-53.7	-55.7	14.3	0.00e+00	0	28	0	641728512	74	4293
2026-01-04 23:24:18.43	72.31	36.63	-53.8	-55.8	14.1	0.00e+00	0	28	0	643825664	73	4640
2026-01-04 23:24:19.44	72.70	36.72	-53.8	-55.9	14.1	0.00e+00	0	28	0	644874240	73	4693
2026-01-04 23:24:20.45	73.10	36.82	-53.9	-55.9	14.0	0.00e+00	0	28	0	646971392	73	4703
2026-01-04 23:24:21.46	73.49	36.91	-54.1	-56.2	14.0	0.00e+00	0	28	0	649068544	73	4835
2026-01-04 23:24:22.47	73.89	37.00	-54.3	-56.5	13.8	0.00e+00	0	28	0	651165696	73	4989
2026-01-04 23:24:23.48	74.29	37.09	-54.3	-56.5	13.9	0.00e+00	0	28	0	652214272	74	4740
2026-01-04 23:24:24.48	74.68	37.17	-54.2	-56.3	14.0	0.00e+00	0	28	0	654311424	74	4634
2026-01-04 23:24:25.49	75.09	37.26	-53.7	-55.7	14.3	0.00e+00	0	28	0	656408576	74	4337
2026-01-04 23:24:26.50	75.49	37.35	-53.4	-55.3	14.3	0.00e+00	0	28	0	658505728	73	4382
2026-01-04 23:24:27.50	75.89	37.43	-53.1	-54.9	14.4	0.00e+00	0	28	0	660602880	72	4394
2026-01-04 23:24:28.51	76.30	37.51	-53.0	-54.8	14.4	0.00e+00	0	28	0	662700032	72	4377
2026-01-04 23:24:29.52	76.71	37.59	-53.4	-55.3	14.3	0.00e+00	0	28	0	663748608	72	4632
2026-01-04 23:24:30.53	77.13	37.67	-54.1	-56.2	14.0	0.00e+00	0	28	0	665845760	73	4838
2026-01-04 23:24:31.54	77.54	37.75	-54.4	-56.7	13.9	0.00e+00	0	28	0	667942912	74	4829
2026-01-04 23:24:32.55	77.96	37.83	-54.1	-56.3	14.0	0.00e+00	0	28	0	670040064	74	4600
2026-01-04 23:24:33.56	78.38	37.91	-53.9	-55.9	14.1	0.00e+00	0	28	0	672137216	74	4433
2026-01-04 23:24:34.57	78.80	37.98	-54.4	-56.6	13.9	0.00e+00	0	28	0	673185792	74	4769
2026-01-04 23:24:35.57	79.22	38.05	-54.6	-57.0	13.7	0.00e+00	0	28	0	675282944	74	4989
2026-01-04 23:24:36.58	79.64	38.12	-54.9	-57.3	13.5	0.00e+00	0	28	0	677380096	74	5206
2026-01-04 23:24:37.59	80.07	38.19	-54.6	-57.0	13.7	0.00e+00	0	28	0	679477248	74	4995
2026-01-04 23:24:38.60	80.50	38.26	-54.2	-56.4	14.0	0.00e+00	0	28	0	681574400	74	4665
2026-01-04 23:24:39.61	80.93	38.32	-54.1	-56.2	14.0	0.00e+00	0	28	0	682622976	74	4572
2026-01-04 23:24:40.62	81.36	38.39	-53.5	-55.5	14.3	0.00e+00	0	28	0	684720128	73	4451
2026-01-04 23:24:41.63	81.79	38.45	-53.5	-55.4	14.4	0.00e+00	0	28	0	686817280	73	4407
2026-01-04 23:24:42.63	82.22	38.51	-53.8	-55.9	14.2	0.00e+00	0	28	0	688914432	73	4658
2026-01-04 23:24:43.65	82.67	38.57	-54.1	-56.3	13.9	0.00e+00	0	28	0	691011584	73	4891
2026-01-04 23:24:44.66	83.10	38.63	-54.2	-56.5	13.9	0.00e+00	0	28	0	692060160	73	4999
2026-01-04 23:24:45.66	83.54	38.68	-54.2	-56.4	13.9	0.00e+00	0	28	0	694157312	73	4966
2026-01-04 23:24:46.67	83.98	38.74	-54.6	-56.9	13.8	0.00e+00	0	28	0	696254464	74	4948
2026-01-04 23:24:47.68	84.42	38.79	-55.0	-57.5	13.5	0.00e+00	0	28	0	698351616	75	5007
2026-01-04 23:24:48.70	84.87	38.84	-55.1	-57.7	13.4	0.00e+00	0	28	0	700448768	75	5134
2026-01-04 23:24:49.70	85.31	38.89	-54.9	-57.4	13.6	0.00e+00	0	28	0	701497344	75	4937
2026-01-04 23:24:50.71	85.76	38.94	-54.3	-56.5	14.0	0.00e+00	0	28	0	703594496	75	4475
2026-01-04 23:24:51.72	86.21	38.98	-53.8	-55.8	14.3	0.00e+00	0	28	0	705691648	74	4355
2026-01-04 23:24:52.73	86.66	39.02	-53.8	-55.9	14.1	0.00e+00	0	28	0	707788800	73	4668
2026-01-04 23:24:53.74	87.11	39.07	-53.9	-56.0	14.1	0.00e+00	0	28	0	709885952	73	4754
2026-01-04 23:24:54.75	87.56	39.10	-53.8	-55.9	14.1	0.00e+00	0	28	0	710934528	73	4685
2026-01-04 23:24:55.76	88.01	39.14	-53.9	-56.0	14.1	0.00e+00	0	28	0	713031680	73	4742
2026-01-04 23:24:56.77	88.47	39.18	-54.1	-56.3	14.0	0.00e+00	0	28	0	715128832	73	4880
2026-01-04 23:24:57.77	88.92	39.21	-54.8	-57.2	13.5	0.00e+00	0	28	0	717225984	74	5141
2026-01-04 23:24:58.78	89.37	39.24	-55.4	-58.0	13.4	0.00e+00	0	28	0	719323136	76	5003
2026-01-04 23:24:59.79	89.83	39.27	-55.5	-58.1	13.3	0.00e+00	0	28	0	720371712	76	5089
2026-01-04 23:25:00.77	90.27	39.30	-55.3	-57.8	13.4	0.00e+00	0	28	0	722468864	76	4903
2026-01-04 23:25:01.77	90.72	39.32	-55.0	-57.4	13.8	0.00e+00	0	28	0	724566016	76	4665
2026-01-04 23:25:02.78	91.18	39.35	-54.9	-57.2	13.8	0.00e+00	0	28	0	726663168	76	4579
2026-01-04 23:25:03.79	91.64	39.37	-54.5	-56.6	13.9	0.00e+00	0	28	0	728760320	75	4544
2026-01-04 23:25:04.80	92.10	39.39	-54.3	-56.5	14.0	0.00e+00	0	28	0	729808896	74	4725
2026-01-04 23:25:05.81	92.56	39.41	-54.1	-56.2	14.0	0.00e+00	0	28	0	731906048	74	4570
2026-01-04 23:25:06.82	93.02	39.42	-54.8	-57.2	13.6	0.00e+00	0	28	0	734003200	74	5125
2026-01-04 23:25:07.83	93.48	39.44	-55.9	-58.8	12.9	0.00e+00	0	28	0	736100352	76	5513
2026-01-04 23:25:08.84	93.94	39.45	-56.6	-60.1	12.2	7.00e-07	0	28	0	738197504	78	5686
2026-01-04 23:25:09.85	94.41	39.46	-56.5	-59.9	12.4	7.00e-07	0	28	0	739246080	78	5543
2026-01-04 23:25:10.85	94.86	39.46	-55.7	-58.4	13.2	0.00e+00	0	28	0	741343232	78	4689
2026-01-04 23:25:11.86	95.33	39.47	-54.9	-57.3	13.7	0.00e+00	0	28	0	743440384	76	4614
2026-01-04 23:25:12.87	95.79	39.47	-54.6	-56.8	13.8	0.00e+00	0	28	0	745537536	75	4647
2026-01-04 23:25:13.88	96.25	39.47	-53.9	-55.9	14.2	0.00e+00	0	28	0	747634688	74	4395
2026-01-04 23:25:14.89	96.71	39.47	-53.4	-55.3	14.4	0.00e+00	0	28	0	748683264	73	4361
2026-01-04 23:25:15.89	97.17	39.47	-52.7	-54.4	14.7	0.00e+00	0	28	0	750780416	72	4156
2026-01-04 23:25:16.90	97.63	39.47	-52.7	-54.4	14.6	0.00e+00	0	28	0	752877568	71	4426
2026-01-04 23:25:17.91	98.10	39.46	-52.9	-54.7	14.4	0.00e+00	0	28	0	754974720	71	4575
2026-01-04 23:25:18.92	98.56	39.45	-53.3	-55.3	14.2	0.00e+00	0	28	0	757071872	71	4872
2026-01-04 23:25:19.93	99.02	39.44	-53.1	-54.9	14.5	0.00e+00	0	28	0	759169024	72	4408
2026-01-04 23:25:20.94	99.48	39.43	-52.6	-54.3	14.7	0.00e+00	0	28	0	760217600	71	4379
2026-01-04 23:25:21.95	99.94	39.41	-52.8	-54.5	14.5	0.00e+00	0	28	0	762314752	71	4490
2026-01-04 23:25:22.96	100.40	39.39	-53.8	-55.8	14.0	0.00e+00	0	28	0	764411904	72	4918
2026-01-04 23:25:23.97	100.86	39.37	-54.4	-56.7	13.8	0.00e+00	0	28	0	766509056	74	4837
2026-01-04 23:25:24.98	101.32	39.35	-54.5	-56.7	13.8	0.00e+00	0	28	0	768606208	74	4866
2026-01-04 23:25:25.99	101.78	39.33	-53.8	-55.8	14.2	0.00e+00	0	28	0	769654784	74	4358
2026-01-04 23:25:26.99	102.23	39.31	-53.5	-55.4	14.3	0.00e+00	0	28	0	771751936	73	4410
2026-01-04 23:25:28.00	102.69	39.28	-53.6	-55.6	14.2	0.00e+00	0	28	0	773849088	73	4512
2026-01-04 23:25:29.01	103.15	39.25	-53.7	-55.7	14.2	0.00e+00	0	28	0	775946240	73	4570
2026-01-04 23:25:30.02	103.60	39.22	-53.8	-55.9	14.1	0.00e+00	0	28	0	776994816	73	4669
2026-01-04 23:25:31.03	104.06	39.18	-54.2	-56.3	13.9	0.00e+00	0	28	0	779091968	73	4912
2026-01-04 23:25:32.04	104.51	39.15	-54.6	-56.9	13.8	0.00e+00	0	28	0	781189120	74	4942
2026-01-04 23:25:33.05	104.97	39.11	-54.5	-56.8	13.8	0.00e+00	0	28	0	783286272	74	4911
2026-01-04 23:25:34.06	105.42	39.07	-54.3	-56.4	14.0	0.00e+00	0	28	0	785383424	74	4705
2026-01-04 23:25:35.06	105.86	39.03	-54.1	-56.3	14.0	0.00e+00	0	28	0	787480576	74	4611
2026-01-04 23:25:36.07	106.31	38.99	-53.6	-55.6	14.2	0.00e+00	0	28	0	788529152	73	4515
2026-01-04 23:25:37.08	106.76	38.95	-53.0	-54.8	14.5	0.00e+00	0	28	0	790626304	72	4379
2026-01-04 23:25:38.09	107.21	38.90	-53.0	-54.8	14.4	0.00e+00	0	28	0	792723456	72	4387
2026-01-04 23:25:39.10	107.66	38.85	-53.3	-55.2	14.3	0.00e+00	0	28	0	794820608	72	4578
2026-01-04 23:25:40.11	108.10	38.80	-53.1	-55.0	14.4	0.00e+00	0	28	0	796917760	72	4442
2026-01-04 23:25:41.12	108.55	38.75	-53.5	-55.5	14.2	0.00e+00	0	28	0	797966336	72	4719
2026-01-04 23:25:42.13	108.99	38.70	-53.7	-55.8	14.0	0.00e+00	0	28	0	800063488	72	4898
2026-01-04 23:25:43.14	109.43	38.64	-53.3	-55.2	14.3	0.00e+00	0	28	0	802160640	72	4590
2026-01-04 23:25:44.15	109.87	38.58	-53.1	-55.0	14.4	0.00e+00	0	28	0	804257792	72	4443
2026-01-04 23:25:45.16	110.30	38.52	-52.4	-54.1	14.6	0.00e+00	0	28	0	806354944	71	4265
2026-01-04 23:25:46.17	110.74	38.46	-52.2	-53.8	14.7	0.00e+00	0	28	0	807403520	70	4384
2026-01-04 23:25:47.17	111.17	38.40	-52.3	-54.0	14.6	0.00e+00	0	28	0	809500672	70	4469
2026-01-04 23:25:48.18	111.60	38.34	-52.6	-54.3	14.5	0.00e+00	0	28	0	811597824	70	4612
2026-01-04 23:25:49.19	112.03	38.27	-52.3	-53.9	14.6	0.00e+00	0	28	0	813694976	70	4436
2026-01-04 23:25:50.20	112.46	38.20	-52.0	-53.6	14.7	0.00e+00	0	28	0	815792128	70	4289
2026-01-04 23:25:51.21	112.89	38.14	-51.7	-53.2	14.8	0.00e+00	0	28	0	816840704	69	4326
2026-01-04 23:25:52.22	113.32	38.06	-52.1	-53.7	14.6	0.00e+00	0	28	0	818937856	69	4581
2026-01-04 23:25:53.23	113.74	37.99	-52.9	-54.7	14.3	0.00e+00	0	28	0	821035008	70	4838
2026-01-04 23:25:54.24	114.16	37.92	-53.3	-55.3	14.2	0.00e+00	0	28	0	823132160	71	4882
2026-01-04 23:25:55.25	114.58	37.84	-53.4	-55.4	14.2	0.00e+00	0	28	0	825229312	72	4679
2026-01-04 23:25:56.26	115.00	37.77	-52.9	-54.8	14.5	0.00e+00	0	28	0	826277888	72	4351
2026-01-04 23:25:57.27	115.42	37.69	-52.8	-54.6	14.5	0.00e+00	0	28	0	828375040	71	4514
2026-01-04 23:25:58.28	115.83	37.61	-52.4	-54.1	14.7	0.00e+00	0	28	0	830472192	71	4246
2026-01-04 23:25:59.28	116.24	37.53	-52.3	-54.0	14.6	0.00e+00	0	28	0	832569344	70	4493
2026-01-04 23:26:00.29	116.65	37.44	-51.9	-53.5	14.8	0.00e+00	0	28	0	834666496	70	4219
2026-01-04 23:26:01.30	117.06	37.36	-50.8	-52.2	15.0	0.00e+00	0	28	0	835715072	68	4066
2026-01-04 23:26:02.31	117.47	37.28	-50.4	-51.8	14.9	0.00e+00	0	28	0	837812224	66	4352
2026-01-04 23:26:03.31	117.87	37.19	-50.7	-52.2	14.8	0.00e+00	0	28	0	839909376	66	4554
2026-01-04 23:26:04.32	118.27	37.10	-52.0	-53.7	14.6	0.00e+00	0	28	0	842006528	69	4549
2026-01-04 23:26:05.33	118.67	37.01	-52.7	-54.5	14.4	0.00e+00	0	28	0	844103680	70	4725
2026-01-04 23:26:06.34	119.06	36.92	-52.4	-54.1	14.6	0.00e+00	0	28	0	845152256	70	4524
2026-01-04 23:26:07.34	119.46	36.83	-51.9	-53.5	14.8	0.00e+00	0	28	0	847249408	70	4203
2026-01-04 23:26:08.35	119.85	36.74	-51.3	-52.8	14.9	0.00e+00	0	28	0	849346560	69	4099
2026-01-04 23:26:09.36	120.24	36.64	-51.0	-52.4	14.9	0.00e+00	0	28	0	851443712	68	4190
2026-01-04 23:26:10.37	120.63	36.55	-50.5	-51.9	15.0	0.00e+00	0	28	0	853540864	67	4157
2026-01-04 23:26:11.38	121.02	36.45	-49.8	-51.1	15.1	0.00e+00	0	28	0	855638016	66	4049
2026-01-04 23:26:12.39	121.40	36.35	-49.7	-51.0	15.0	0.00e+00	0	28	0	856686592	65	4232
2026-01-04 23:26:13.39	121.78	36.25	-49.4	-50.7	15.1	0.00e+00	0	28	0	858783744	65	4067
2026-01-04 23:26:14.40	122.16	36.15	-50.1	-51.5	14.9	0.00e+00	0	28	0	860880896	65	4465
2026-01-04 23:26:15.41	122.54	36.05	-51.0	-52.5	14.8	0.00e+00	0	28	0	862978048	67	4481
2026-01-04 23:26:16.42	122.91	35.95	-51.9	-53.5	14.6	0.00e+00	0	28	0	864026624	68	4721
2026-01-04 23:26:17.42	123.28	35.85	-52.0	-53.6	14.6	0.00e+00	0	28	0	866123776	69	4526
2026-01-04 23:26:18.43	123.65	35.74	-51.5	-53.0	14.8	0.00e+00	0	28	0	868220928	69	4231
2026-01-04 23:26:19.43	124.02	35.64	-51.9	-53.5	14.7	0.00e+00	0	28	0	870318080	69	4451
2026-01-04 23:26:20.44	124.38	35.53	-52.7	-54.5	14.5	0.00e+00	0	28	0	872415232	70	4719
2026-01-04 23:26:21.45	124.75	35.43	-52.9	-54.8	14.4	0.00e+00	0	28	0	873463808	71	4605
2026-01-04 23:26:22.47	125.11	35.32	-53.1	-55.0	14.4	0.00e+00	0	28	0	875560960	72	4454
2026-01-04 23:26:23.47	125.47	35.21	-52.5	-54.2	14.6	0.00e+00	0	28	0	877658112	71	4339
2026-01-04 23:26:24.48	125.82	35.10	-51.5	-53.1	14.8	0.00e+00	0	28	0	879755264	69	4244
2026-01-04 23:26:25.49	126.18	34.99	-51.7	-53.2	14.8	0.00e+00	0	28	0	881852416	69	4322
2026-01-04 23:26:26.50	126.53	34.88	-52.6	-54.3	14.5	0.00e+00	0	28	0	883949568	70	4604
2026-01-04 23:26:27.51	126.88	34.77	-53.5	-55.5	14.2	0.00e+00	0	28	0	884998144	72	4738
2026-01-04 23:26:28.52	127.22	34.66	-54.1	-56.3	14.0	0.00e+00	0	28	0	887095296	73	4903
2026-01-04 23:26:29.53	127.57	34.54	-53.9	-56.0	14.0	0.00e+00	0	28	0	889192448	73	4752
2026-01-04 23:26:30.54	127.91	34.43	-54.0	-56.1	14.0	0.00e+00	0	28	0	891289600	73	4768
2026-01-04 23:26:31.55	128.25	34.31	-54.5	-56.7	13.7	0.00e+00	0	28	0	893386752	74	4869
2026-01-04 23:26:32.55	128.59	34.20	-55.1	-57.7	13.5	0.00e+00	0	28	0	894435328	75	5112
2026-01-04 23:26:33.56	128.92	34.08	-56.2	-59.4	12.7	0.00e+00	0	28	0	896532480	77	5543
2026-01-04 23:26:34.57	129.25	33.97	-56.1	-59.2	12.7	0.00e+00	0	28	0	898629632	77	5424
2026-01-04 23:26:35.58	129.59	33.85	-55.9	-58.8	12.9	0.00e+00	0	28	0	900726784	77	5218
2026-01-04 23:26:36.59	129.91	33.73	-54.8	-57.2	13.7	0.00e+00	0	28	0	902823936	76	4580
2026-01-04 23:26:37.60	130.24	33.61	-54.5	-56.8	13.9	0.00e+00	0	28	0	903872512	75	4600
2026-01-04 23:26:38.61	130.56	33.49	-54.3	-56.5	14.0	0.00e+00	0	28	0	905969664	75	4459
2026-01-04 23:26:39.62	130.89	33.37	-54.7	-57.0	13.8	0.00e+00	0	28	0	908066816	75	4728
2026-01-04 23:26:40.62	131.20	33.25	-55.5	-58.3	13.2	0.00e+00	0	28	0	910163968	76	5167
2026-01-04 23:26:41.63	131.52	33.13	-55.5	-58.1	13.2	0.00e+00	0	28	0	912261120	76	5100
2026-01-04 23:26:42.63	131.83	33.01	-55.2	-57.7	13.5	0.00e+00	0	28	0	913309696	76	4848
2026-01-04 23:26:43.64	132.14	32.89	-55.1	-57.5	13.6	0.00e+00	0	28	0	915406848	76	4735
2026-01-04 23:26:44.65	132.45	32.77	-56.1	-59.1	12.8	0.00e+00	0	28	0	917504000	77	5390
2026-01-04 23:26:45.66	132.76	32.65	-57.1	-61.2	11.6	1.50e-06	0	28	0	919601152	79	6085
2026-01-04 23:26:46.67	133.06	32.53	-58.3	-64.4	9.3	1.36e-03	0	28	0	921698304	81	7873
2026-01-04 23:26:47.68	133.37	32.40	-58.0	-63.4	10.0	7.71e-03	0	28	0	922746880	82	6603
2026-01-04 23:26:48.69	133.67	32.28	-56.6	-60.1	12.3	3.36e-04	0	28	0	924844032	79	5365
2026-01-04 23:26:49.70	133.97	32.16	-55.1	-57.6	13.6	0.00e+00	0	28	0	926941184	76	4807
2026-01-04 23:26:50.71	134.26	32.03	-54.4	-56.7	13.9	0.00e+00	0	28	0	929038336	75	4566
2026-01-04 23:26:51.72	134.56	31.91	-54.8	-57.3	13.6	0.00e+00	0	28	0	931135488	75	4873
2026-01-04 23:26:52.73	134.85	31.78	-55.4	-58.1	13.2	0.00e+00	0	28	0	932184064	75	5367
2026-01-04 23:26:53.73	135.14	31.66	-56.6	-60.1	12.2	0.00e+00	0	28	0	934281216	78	5712
2026-01-04 23:26:54.74	135.42	31.53	-56.2	-59.3	12.7	1.50e-06	0	28	0	936378368	78	5205
2026-01-04 23:26:55.74	135.71	31.41	-55.3	-57.9	13.4	0.00e+00	0	28	0	938475520	77	4670
2026-01-04 23:26:56.75	135.99	31.28	-54.9	-57.3	13.7	0.00e+00	0	28	0	940572672	76	4628
2026-01-04 23:26:57.76	136.27	31.16	-54.5	-56.9	13.8	0.00e+00	0	28	0	941621248	75	4680
2026-01-04 23:26:58.76	136.55	31.03	-55.2	-57.8	13.4	0.00e+00	0	28	0	943718400	75	5192
2026-01-04 23:26:59.77	136.82	30.91	-56.1	-59.2	12.8	0.00e+00	0	28	0	945815552	77	5438
2026-01-04 23:27:00.78	137.10	30.78	-56.3	-59.7	12.4	0.00e+00	0	28	0	947912704	77	5754
2026-01-04 23:27:01.79	137.37	30.65	-56.0	-59.2	12.7	0.00e+00	0	28	0	950009856	77	5419
2026-01-04 23:27:02.79	137.64	30.53	-54.7	-57.1	13.8	0.00e+00	0	28	0	951058432	76	4542
2026-01-04 23:27:03.80	137.91	30.40	-53.1	-55.0	14.3	0.00e+00	0	28	0	953155584	72	4474
2026-01-04 23:27:04.81	138.18	30.27	-52.5	-54.3	14.6	0.00e+00	0	28	0	955252736	71	4344
2026-01-04 23:27:05.82	138.44	30.15	-52.4	-54.1	14.6	0.00e+00	0	28	0	957349888	71	4287
2026-01-04 23:27:06.82	138.70	30.02	-52.9	-54.7	14.3	0.00e+00	0	28	0	959447040	71	4564
2026-01-04 23:27:07.83	138.96	29.89	-54.2	-56.5	13.8	0.00e+00	0	28	0	960495616	73	4993
2026-01-04 23:27:08.84	139.22	29.77	-55.1	-57.7	13.4	0.00e+00	0	28	0	962592768	75	5149
2026-01-04 23:27:09.85	139.48	29.64	-54.8	-57.2	13.6	0.00e+00	0	28	0	964689920	75	4870
2026-01-04 23:27:10.86	139.73	29.51	-54.4	-56.6	13.9	0.00e+00	0	28	0	966787072	75	4537
2026-01-04 23:27:11.87	139.98	29.39	-53.3	-55.1	14.4	0.00e+00	0	28	0	968884224	73	4291
2026-01-04 23:27:12.88	140.23	29.26	-52.8	-54.6	14.5	0.00e+00	0	28	0	969932800	72	4261
2026-01-04 23:27:13.88	140.48	29.13	-53.0	-54.9	14.4	0.00e+00	0	28	0	972029952	72	4424
2026-01-04 23:27:14.89	140.73	29.00	-53.7	-55.8	14.0	0.00e+00	0	28	0	974127104	72	4896
2026-01-04 23:27:15.90	140.97	28.88	-54.1	-56.4	13.8	0.00e+00	0	28	0	976224256	73	4949
2026-01-04 23:27:16.91	141.21	28.75	-53.9	-56.0	14.1	0.00e+00	0	28	0	978321408	73	4735
2026-01-04 23:27:17.91	141.45	28.62	-53.2	-55.1	14.4	0.00e+00	0	28	0	979369984	73	4267
2026-01-04 23:27:18.92	141.69	28.50	-52.5	-54.3	14.6	0.00e+00	0	28	0	981467136	71	4345
2026-01-04 23:27:19.93	141.93	28.37	-51.5	-53.0	14.8	0.00e+00	0	28	0	983564288	69	4223
2026-01-04 23:27:20.94	142.17	28.24	-51.1	-52.6	14.9	0.00e+00	0	28	0	985661440	68	4252
2026-01-04 23:27:21.95	142.40	28.12	-51.2	-52.7	14.8	0.00e+00	0	28	0	987758592	68	4307
2026-01-04 23:27:22.96	142.63	27.99	-51.5	-53.1	14.7	0.00e+00	0	28	0	988807168	68	4523
2026-01-04 23:27:23.97	142.86	27.86	-52.1	-53.8	14.6	0.00e+00	0	28	0	990904320	69	4615
2026-01-04 23:27:24.98	143.09	27.74	-52.5	-54.3	14.4	0.00e+00	0	28	0	993001472	70	4632
2026-01-04 23:27:25.99	143.32	27.61	-52.7	-54.5	14.3	0.00e+00	0	28	0	995098624	70	4744
2026-01-04 23:27:27.00	143.54	27.48	-52.2	-53.9	14.6	0.00e+00	0	28	0	997195776	70	4429
2026-01-04 23:27:28.01	143.76	27.36	-51.2	-52.7	14.9	0.00e+00	0	28	0	998244352	69	4067
2026-01-04 23:27:29.02	143.99	27.23	-50.5	-51.9	15.0	0.00e+00	0	28	0	1000341504	67	4182
2026-01-04 23:27:30.03	144.21	27.10	-50.3	-51.7	15.0	0.00e+00	0	28	0	1002438656	67	4080
2026-01-04 23:27:31.03	144.42	26.98	-50.5	-51.9	15.0	0.00e+00	0	28	0	1004535808	67	4164
2026-01-04 23:27:32.04	144.64	26.85	-50.8	-52.3	14.8	0.00e+00	0	28	0	1006632960	67	4382
2026-01-04 23:27:33.05	144.85	26.73	-51.8	-53.5	14.6	0.00e+00	0	28	0	1008730112	68	4707
2026-01-04 23:27:34.05	145.06	26.60	-52.3	-54.0	14.4	0.00e+00	0	28	0	1009778688	69	4759
2026-01-04 23:27:35.06	145.28	26.48	-52.3	-54.0	14.6	0.00e+00	0	28	0	1011875840	70	4479
2026-01-04 23:27:36.08	145.49	26.35	-51.8	-53.5	14.7	0.00e+00	0	28	0	1013972992	70	4217
2026-01-04 23:27:37.08	145.69	26.23	-51.1	-52.7	14.8	0.00e+00	0	28	0	1016070144	68	4292
2026-01-04 23:27:38.09	145.90	26.10	-50.8	-52.2	15.0	0.00e+00	0	28	0	1018167296	68	4071
2026-01-04 23:27:39.10	146.11	25.98	-50.5	-51.9	14.9	0.00e+00	0	28	0	1019215872	67	4159
2026-01-04 23:27:40.12	146.31	25.85	-50.3	-51.7	15.0	0.00e+00	0	28	0	1021313024	67	4058
2026-01-04 23:27:41.13	146.51	25.73	-50.8	-52.3	14.8	0.00e+00	0	28	0	1023410176	67	4351
2026-01-04 23:27:42.13	146.71	25.61	-51.2	-52.7	14.7	0.00e+00	0	28	0	1025507328	67	4577
2026-01-04 23:27:43.14	146.91	25.48	-51.7	-53.3	14.6	0.00e+00	0	28	0	1027604480	68	4640
2026-01-04 23:27:44.15	147.11	25.36	-51.9	-53.5	14.5	0.00e+00	0	28	0	1028653056	68	4751
2026-01-04 23:27:45.16	147.30	25.24	-51.6	-53.2	14.7	0.00e+00	0	28	0	1030750208	69	4340
2026-01-04 23:27:46.17	147.50	25.11	-51.4	-52.9	14.9	0.00e+00	0	28	0	1032847360	69	4184
2026-01-04 23:27:47.18	147.69	24.99	-50.7	-52.1	15.0	0.00e+00	0	28	0	1034944512	68	4050
2026-01-04 23:27:48.19	147.88	24.87	-50.0	-51.3	15.0	0.00e+00	0	28	0	1037041664	66	4140
2026-01-04 23:27:49.20	148.07	24.74	-49.8	-51.1	15.1	0.00e+00	0	28	0	1038090240	66	4022
2026-01-04 23:27:50.21	148.26	24.62	-49.6	-51.0	15.0	0.00e+00	0	28	0	1040187392	65	4199
2026-01-04 23:27:51.22	148.45	24.50	-49.8	-51.1	15.0	0.00e+00	0	28	0	1042284544	65	4274
2026-01-04 23:27:52.23	148.63	24.38	-50.0	-51.4	14.9	0.00e+00	0	28	0	1044381696	65	4424
2026-01-04 23:27:53.24	148.82	24.26	-50.5	-51.9	14.8	0.00e+00	0	28	0	1046478848	66	4426
2026-01-04 23:27:54.24	149.00	24.14	-50.5	-51.9	14.8	0.00e+00	0	28	0	1047527424	66	4413
2026-01-04 23:27:55.25	149.18	24.02	-50.7	-52.2	14.8	0.00e+00	0	28	0	1049624576	66	4568
2026-01-04 23:27:56.25	149.36	23.90	-50.8	-52.3	14.7	0.00e+00	0	28	0	1051721728	66	4614
2026-01-04 23:27:57.26	149.54	23.78	-50.9	-52.4	14.8	0.00e+00	0	28	0	1053818880	67	4407
2026-01-04 23:27:58.27	149.72	23.66	-50.9	-52.4	14.8	0.00e+00	0	28	0	1055916032	67	4392
2026-01-04 23:27:59.28	149.89	23.54	-50.9	-52.4	14.8	0.00e+00	0	28	0	1056964608	67	4407
2026-01-04 23:28:00.29	150.07	23.42	-51.2	-52.8	14.6	0.00e+00	0	28	0	1059061760	67	4603
2026-01-04 23:28:01.30	150.24	23.30	-51.2	-52.8	14.7	0.00e+00	0	28	0	1061158912	67	4609
2026-01-04 23:28:02.31	150.41	23.18	-51.2	-52.8	14.6	0.00e+00	0	28	0	1063256064	67	4612
2026-01-04 23:28:03.32	150.59	23.06	-51.3	-52.8	14.6	0.00e+00	0	28	0	1065353216	67	4647
2026-01-04 23:28:04.33	150.76	22.94	-51.2	-52.8	14.6	0.00e+00	0	28	0	1066401792	67	4625
2026-01-04 23:28:05.34	150.92	22.83	-51.0	-52.6	14.7	0.00e+00	0	28	0	1068498944	67	4503
2026-01-04 23:28:06.34	151.09	22.71	-50.9	-52.4	14.8	0.00e+00	0	28	0	1070596096	67	4415
2026-01-04 23:28:07.36	151.26	22.59	-51.0	-52.5	14.7	0.00e+00	0	28	0	1072693248	67	4452
2026-01-04 23:28:08.36	151.42	22.47	-50.9	-52.4	14.8	0.00e+00	0	28	0	1074790400	67	4404
2026-01-04 23:28:09.37	151.59	22.36	-51.0	-52.6	14.7	0.00e+00	0	28	0	1075838976	67	4496
2026-01-04 23:28:10.38	151.75	22.24	-51.2	-52.7	14.7	0.00e+00	0	28	0	1077936128	67	4587
2026-01-04 23:28:11.39	151.91	22.13	-51.1	-52.6	14.7	0.00e+00	0	28	0	1080033280	67	4522
2026-01-04 23:28:12.40	152.07	22.01	-51.6	-53.2	14.6	0.00e+00	0	28	0	1082130432	68	4586
2026-01-04 23:28:13.41	152.23	21.89	-51.5	-53.1	14.6	0.00e+00	0	28	0	1084227584	68	4527
2026-01-04 23:28:14.42	152.39	21.78	-51.6	-53.2	14.7	0.00e+00	0	28	0	1085276160	68	4546
2026-01-04 23:28:15.43	152.55	21.66	-51.5	-53.1	14.7	0.00e+00	0	28	0	1087373312	68	4512
2026-01-04 23:28:16.44	152.70	21.55	-51.2	-52.7	14.8	0.00e+00	0	28	0	1089470464	68	4315
2026-01-04 23:28:17.45	152.86	21.43	-51.3	-52.9	14.7	0.00e+00	0	28	0	1091567616	68	4410
2026-01-04 23:28:18.45	153.01	21.32	-51.3	-52.8	14.8	0.00e+00	0	28	0	1093664768	68	4391
2026-01-04 23:28:19.46	153.16	21.21	-51.3	-52.9	14.7	0.00e+00	0	28	0	1094713344	68	4392
2026-01-04 23:28:20.47	153.31	21.09	-51.7	-53.3	14.6	0.00e+00	0	28	0	1096810496	68	4628
2026-01-04 23:28:21.48	153.46	20.98	-51.7	-53.3	14.6	0.00e+00	0	28	0	1098907648	68	4603
2026-01-04 23:28:22.49	153.61	20.87	-52.2	-53.9	14.4	0.00e+00	0	28	0	1101004800	69	4700
2026-01-04 23:28:23.50	153.76	20.76	-52.7	-54.6	14.3	0.00e+00	0	28	0	1103101952	70	4776
2026-01-04 23:28:24.51	153.91	20.64	-52.8	-54.7	14.3	0.00e+00	0	28	0	1105199104	70	4822
2026-01-04 23:28:25.52	154.05	20.53	-53.2	-55.2	14.1	0.00e+00	0	28	0	1106247680	71	4867
2026-01-04 23:28:26.53	154.20	20.42	-53.1	-55.0	14.2	0.00e+00	0	28	0	1108344832	71	4747
2026-01-04 23:28:27.54	154.34	20.31	-53.2	-55.2	14.1	0.00e+00	0	28	0	1110441984	71	4851
2026-01-04 23:28:28.55	154.49	20.20	-53.0	-54.9	14.2	0.00e+00	0	28	0	1112539136	71	4684
2026-01-04 23:28:29.56	154.63	20.09	-52.6	-54.4	14.5	0.00e+00	0	28	0	1114636288	71	4418
2026-01-04 23:28:30.57	154.77	19.98	-52.5	-54.3	14.5	0.00e+00	0	28	0	1115684864	71	4354
2026-01-04 23:28:31.58	154.91	19.87	-52.4	-54.2	14.5	0.00e+00	0	28	0	1117782016	71	4302
2026-01-04 23:28:32.59	155.05	19.76	-52.4	-54.2	14.5	0.00e+00	0	28	0	1119879168	71	4310
2026-01-04 23:28:33.60	155.19	19.65	-52.6	-54.3	14.5	0.00e+00	0	28	0	1121976320	71	4386
2026-01-04 23:28:34.60	155.32	19.54	-52.6	-54.5	14.4	0.00e+00	0	28	0	1124073472	71	4448
2026-01-04 23:28:35.61	155.46	19.43	-52.7	-54.6	14.3	0.00e+00	0	28	0	1125122048	71	4509
2026-01-04 23:28:36.61	155.59	19.33	-52.9	-54.7	14.3	0.00e+00	0	28	0	1127219200	71	4585
2026-01-04 23:28:37.62	155.73	19.22	-53.0	-54.9	14.3	0.00e+00	0	28	0	1129316352	71	4655
2026-01-04 23:28:38.63	155.86	19.11	-53.0	-54.9	14.3	0.00e+00	0	28	0	1131413504	71	4665
2026-01-04 23:28:39.64	155.99	19.00	-53.0	-54.9	14.2	0.00e+00	0	28	0	1133510656	71	4701
2026-01-04 23:28:40.65	156.13	18.90	-52.8	-54.7	14.3	0.00e+00	0	28	0	1134559232	71	4563
2026-01-04 23:28:41.66	156.26	18.79	-52.6	-54.5	14.4	0.00e+00	0	28	0	1136656384	71	4457
2026-01-04 23:28:42.67	156.39	18.68	-52.6	-54.4	14.4	0.00e+00	0	28	0	1138753536	71	4410
2026-01-04 23:28:43.67	156.51	18.58	-52.5	-54.2	14.5	0.00e+00	0	28	0	1140850688	71	4334
2026-01-04 23:28:44.68	156.64	18.47	-52.3	-54.1	14.6	0.00e+00	0	28	0	1142947840	71	4260
2026-01-04 23:28:45.70	156.77	18.37	-52.1	-53.8	14.7	0.00e+00	0	28	0	1143996416	70	4387
2026-01-04 23:28:46.71	156.90	18.26	-52.1	-53.8	14.6	0.00e+00	0	28	0	1146093568	70	4373
2026-01-04 23:28:47.72	157.02	18.16	-52.2	-54.0	14.5	0.00e+00	0	28	0	1148190720	70	4460
2026-01-04 23:28:48.72	157.15	18.05	-52.3	-54.1	14.5	0.00e+00	0	28	0	1150287872	70	4517
2026-01-04 23:28:49.73	157.27	17.95	-52.4	-54.2	14.4	0.00e+00	0	28	0	1152385024	70	4573
2026-01-04 23:28:50.74	157.40	17.84	-52.5	-54.3	14.4	0.00e+00	0	28	0	1153433600	70	4632
2026-01-04 23:28:51.74	157.52	17.74	-52.7	-54.5	14.3	0.00e+00	0	28	0	1155530752	70	4740
2026-01-04 23:28:52.75	157.64	17.64	-52.6	-54.5	14.3	0.00e+00	0	28	0	1157627904	70	4718
2026-01-04 23:28:53.76	157.76	17.54	-52.9	-54.8	14.3	0.00e+00	0	28	0	1159725056	71	4642
2026-01-04 23:28:54.76	157.88	17.43	-52.8	-54.7	14.3	0.00e+00	0	28	0	1161822208	71	4582
2026-01-04 23:28:55.77	158.00	17.33	-52.9	-54.8	14.3	0.00e+00	0	28	0	1162870784	71	4647
2026-01-04 23:28:56.78	158.12	17.23	-52.8	-54.7	14.3	0.00e+00	0	28	0	1164967936	71	4578
2026-01-04 23:28:57.78	158.23	17.13	-52.6	-54.4	14.4	0.00e+00	0	28	0	1167065088	71	4411
2026-01-04 23:28:58.79	158.35	17.03	-52.6	-54.5	14.4	0.00e+00	0	28	0	1169162240	71	4474
2026-01-04 23:28:59.80	158.47	16.93	-52.4	-54.3	14.5	0.00e+00	0	28	0	1171259392	71	4342
2026-01-04 23:29:00.81	158.58	16.83	-52.3	-54.0	14.6	0.00e+00	0	28	0	1172307968	71	4236
2026-01-04 23:29:01.82	158.70	16.72	-52.4	-54.2	14.5	0.00e+00	0	28	0	1174405120	71	4303
2026-01-04 23:29:02.83	158.81	16.62	-52.1	-53.8	14.5	0.00e+00	0	28	0	1176502272	70	4372
2026-01-04 23:29:03.84	158.92	16.52	-52.4	-54.2	14.4	0.00e+00	0	28	0	1178599424	70	4547
2026-01-04 23:29:04.85	159.04	16.43	-52.2	-53.9	14.5	0.00e+00	0	28	0	1180696576	70	4426
2026-01-04 23:29:05.86	159.15	16.33	-52.3	-54.1	14.4	0.00e+00	0	28	0	1181745152	70	4539
2026-01-04 23:29:06.87	159.26	16.23	-52.6	-54.5	14.3	0.00e+00	0	28	0	1183842304	70	4723
2026-01-04 23:29:07.87	159.37	16.13	-52.7	-54.5	14.3	0.00e+00	0	28	0	1185939456	70	4751
2026-01-04 23:29:08.88	159.48	16.03	-52.8	-54.7	14.2	0.00e+00	0	28	0	1188036608	70	4823
2026-01-04 23:29:09.88	159.59	15.93	-53.0	-55.0	14.2	0.00e+00	0	28	0	1190133760	71	4729
2026-01-04 23:29:10.89	159.70	15.84	-53.1	-55.1	14.1	0.00e+00	0	28	0	1191182336	71	4761
2026-01-04 23:29:11.90	159.80	15.74	-53.3	-55.4	14.0	0.00e+00	0	28	0	1193279488	71	4963
2026-01-04 23:29:12.91	159.91	15.64	-53.4	-55.5	14.1	0.00e+00	0	28	0	1195376640	72	4709
2026-01-04 23:29:13.92	160.02	15.54	-53.3	-55.4	14.1	0.00e+00	0	28	0	1197473792	72	4678
2026-01-04 23:29:14.92	160.12	15.45	-53.6	-55.8	13.9	0.00e+00	0	28	0	1199570944	72	4880
2026-01-04 23:29:15.94	160.23	15.35	-53.5	-55.6	14.0	0.00e+00	0	28	0	1201668096	72	4788
2026-01-04 23:29:16.94	160.33	15.26	-53.5	-55.7	14.0	0.00e+00	0	28	0	1202716672	72	4818
2026-01-04 23:29:17.95	160.44	15.16	-53.5	-55.7	13.9	0.00e+00	0	28	0	1204813824	72	4822
2026-01-04 23:29:18.95	160.54	15.07	-53.3	-55.3	14.1	0.00e+00	0	28	0	1206910976	72	4642
2026-01-04 23:29:19.96	160.64	14.97	-53.3	-55.3	14.1	0.00e+00	0	28	0	1209008128	72	4645
2026-01-04 23:29:20.97	160.74	14.88	-53.2	-55.2	14.2	0.00e+00	0	28	0	1210056704	72	4570
2026-01-04 23:29:21.98	160.84	14.78	-53.1	-55.1	14.2	0.00e+00	0	28	0	1212153856	72	4501
2026-01-04 23:29:22.99	160.94	14.69	-53.3	-55.3	14.1	0.00e+00	0	28	0	1214251008	72	4645
2026-01-04 23:29:24.00	161.04	14.59	-53.2	-55.2	14.2	0.00e+00	0	28	0	1216348160	72	4556
2026-01-04 23:29:25.01	161.14	14.50	-53.3	-55.3	14.1	0.00e+00	0	28	0	1218445312	72	4647
2026-01-04 23:29:26.02	161.24	14.41	-53.3	-55.3	14.1	0.00e+00	0	28	0	1219493888	72	4644
2026-01-04 23:29:27.03	161.34	14.31	-53.3	-55.3	14.1	0.00e+00	0	28	0	1221591040	72	4643
2026-01-04 23:29:28.04	161.44	14.22	-53.6	-55.7	13.9	0.00e+00	0	28	0	1223688192	72	4868
2026-01-04 23:29:29.05	161.54	14.13	-53.5	-55.7	13.9	0.00e+00	0	28	0	1225785344	72	4826
2026-01-04 23:29:30.06	161.63	14.04	-53.5	-55.7	13.9	0.00e+00	0	28	0	1227882496	72	4844
2026-01-04 23:29:31.07	161.73	13.94	-53.6	-55.8	13.9	0.00e+00	0	28	0	1229979648	72	4925
2026-01-04 23:29:32.07	161.82	13.85	-53.4	-55.5	14.0	0.00e+00	0	28	0	1231028224	72	4743
2026-01-04 23:29:33.08	161.92	13.76	-53.5	-55.6	14.0	0.00e+00	0	28	0	1233125376	72	4806
2026-01-04 23:29:34.09	162.01	13.67	-53.5	-55.6	13.9	0.00e+00	0	28	0	1235222528	72	4795
2026-01-04 23:29:35.10	162.11	13.58	-53.4	-55.5	14.0	0.00e+00	0	28	0	1237319680	72	4757
2026-01-04 23:29:36.10	162.20	13.49	-53.6	-55.8	13.9	0.00e+00	0	28	0	1239416832	72	4882
2026-01-04 23:29:37.12	162.29	13.40	-53.4	-55.6	14.0	0.00e+00	0	28	0	1240465408	72	4768
2026-01-04 23:29:38.12	162.38	13.31	-53.3	-55.4	14.1	0.00e+00	0	28	0	1242562560	72	4669
2026-01-04 23:29:39.13	162.48	13.22	-53.3	-55.4	14.0	0.00e+00	0	28	0	1244659712	72	4704
2026-01-04 23:29:40.14	162.57	13.13	-52.9	-54.8	14.3	0.00e+00	0	28	0	1246756864	72	4378
2026-01-04 23:29:41.15	162.66	13.04	-52.8	-54.8	14.3	0.00e+00	0	28	0	1248854016	72	4373
2026-01-04 23:29:42.16	162.75	12.95	-52.7	-54.6	14.4	0.00e+00	0	28	0	1249902592	72	4286
2026-01-04 23:29:43.17	162.84	12.86	-52.7	-54.6	14.3	0.00e+00	0	28	0	1251999744	72	4272
2026-01-04 23:29:44.18	162.93	12.78	-52.6	-54.6	14.2	0.00e+00	0	28	0	1254096896	71	4511
2026-01-04 23:29:45.19	163.01	12.69	-52.6	-54.5	14.2	0.00e+00	0	28	0	1256194048	71	4466
2026-01-04 23:29:46.19	163.10	12.60	-52.5	-54.4	14.4	0.00e+00	0	28	0	1258291200	71	4410
2026-01-04 23:29:47.20	163.19	12.51	-52.5	-54.5	14.4	0.00e+00	0	28	0	1259339776	71	4458
2026-01-04 23:29:48.21	163.28	12.42	-52.4	-54.3	14.5	0.00e+00	0	28	0	1261436928	71	4385
2026-01-04 23:29:49.21	163.36	12.34	-52.3	-54.2	14.5	0.00e+00	0	28	0	1263534080	71	4317
2026-01-04 23:29:50.22	163.45	12.25	-52.1	-54.0	14.6	0.00e+00	0	28	0	1265631232	70	4488
