passes_logs/2026/01/04/R3.2S_Murmansk/R3.2S_Murmansk__20260104_015116_AQUA_rec.log

#Pass ID: 20260104_015116_AQUA
#Satellite: AQUA
#Configuration: AQUA
#almurnet v.1.7.20251203
#Start time: 2026-01-04 01:51:18

#Version: 2.2.20231116
#Station: R3.2S_Murmansk
#Location: 33.079688 lon 68.888172 lat
#TLE: 1 27424U 02022A   25365.92641127  .00002078  00000+0  42628-3 0  9999
#TLE: 2 27424  98.4058 327.1196 0001962  94.7781 340.6230 14.61783896258835

#Time	Az	El	Level	Level2	SNR	BER	BlckErr	Temp	State	Recorded	gain1	gain2
2026-01-04 01:51:18.35	22.56	2.10	-58.2	-77.5	3.8	7.49e-01	0	27	0	0	85	32678
2026-01-04 01:51:19.35	22.58	2.17	-58.0	-77.3	3.8	7.48e-01	0	27	104	0	83	35882
2026-01-04 01:51:20.35	22.60	2.23	-58.0	-77.3	3.8	7.44e-01	0	27	104	0	83	35798
2026-01-04 01:51:21.34	22.62	2.30	-58.0	-77.2	3.8	7.47e-01	0	27	104	0	83	35654
2026-01-04 01:51:22.35	22.64	2.37	-58.0	-77.2	3.8	7.46e-01	0	27	104	0	83	35653
2026-01-04 01:51:23.35	22.66	2.43	-58.0	-77.2	3.9	7.45e-01	0	27	104	0	83	35489
2026-01-04 01:51:24.35	22.68	2.50	-58.0	-77.2	3.8	7.47e-01	0	27	104	0	83	35691
2026-01-04 01:51:25.35	22.70	2.57	-58.0	-77.3	3.8	7.46e-01	0	27	104	0	83	35736
2026-01-04 01:51:26.35	22.71	2.63	-58.0	-77.2	3.8	7.49e-01	0	27	104	0	83	35657
2026-01-04 01:51:27.34	22.73	2.70	-58.0	-77.2	3.8	7.46e-01	0	27	104	0	83	35559
2026-01-04 01:51:28.35	22.75	2.77	-58.0	-77.1	3.8	7.47e-01	0	27	104	0	83	35060
2026-01-04 01:51:29.34	22.77	2.84	-58.0	-77.1	3.8	7.47e-01	0	27	104	0	83	34906
2026-01-04 01:51:30.35	22.79	2.91	-58.0	-76.9	3.8	7.44e-01	0	27	104	0	83	34359
2026-01-04 01:51:31.35	22.81	2.97	-57.9	-76.7	3.8	7.49e-01	0	27	104	0	83	33419
2026-01-04 01:51:32.35	22.83	3.04	-57.9	-76.4	3.8	7.46e-01	0	27	104	0	83	32371
2026-01-04 01:51:33.35	22.85	3.11	-57.9	-76.4	3.8	7.47e-01	0	27	104	0	83	32523
2026-01-04 01:51:34.34	22.87	3.18	-57.8	-76.2	3.8	7.44e-01	0	27	104	0	83	31583
2026-01-04 01:51:35.34	22.89	3.25	-57.8	-75.9	3.8	7.46e-01	0	27	104	0	83	30514
2026-01-04 01:51:36.34	22.91	3.32	-57.8	-75.9	3.9	7.43e-01	0	27	104	0	83	30545
2026-01-04 01:51:37.35	22.93	3.39	-57.8	-76.0	3.8	7.47e-01	0	27	104	0	83	30823
2026-01-04 01:51:38.34	22.95	3.45	-57.8	-76.2	3.8	7.46e-01	0	27	104	0	83	31551
2026-01-04 01:51:39.34	22.97	3.52	-57.9	-76.3	3.8	7.47e-01	0	27	104	0	83	32147
2026-01-04 01:51:40.34	22.99	3.59	-57.9	-76.7	3.8	7.50e-01	0	27	104	0	83	33454
2026-01-04 01:51:41.33	23.01	3.66	-57.9	-76.6	3.8	7.49e-01	0	27	104	0	83	33211
2026-01-04 01:51:42.34	23.03	3.73	-57.9	-76.4	3.8	7.47e-01	0	27	104	0	83	32329
2026-01-04 01:51:43.33	23.05	3.80	-57.8	-75.8	3.8	7.45e-01	0	27	104	0	83	30099
2026-01-04 01:51:44.33	23.07	3.87	-57.6	-75.0	3.8	7.45e-01	0	27	104	0	83	27592
2026-01-04 01:51:45.33	23.10	3.94	-57.3	-73.6	3.8	7.44e-01	0	27	104	0	83	23536
2026-01-04 01:51:46.33	23.12	4.02	-57.1	-72.8	3.8	7.49e-01	0	27	104	0	83	21494
2026-01-04 01:51:47.32	23.14	4.09	-57.0	-72.6	3.9	7.48e-01	0	27	104	0	83	20855
2026-01-04 01:51:48.32	23.16	4.16	-56.8	-72.1	3.8	7.43e-01	0	27	104	0	82	20795
2026-01-04 01:51:49.31	23.18	4.23	-56.5	-71.4	3.8	7.48e-01	0	27	104	0	82	19168
2026-01-04 01:51:50.31	23.20	4.30	-56.2	-70.6	3.9	7.45e-01	0	27	104	0	81	18636
2026-01-04 01:51:51.31	23.22	4.37	-56.0	-70.2	3.9	7.45e-01	0	27	104	0	81	17685
2026-01-04 01:51:52.31	23.24	4.44	-56.0	-70.1	3.8	7.46e-01	0	28	104	0	81	17641
2026-01-04 01:51:53.30	23.26	4.52	-56.0	-70.0	3.8	7.45e-01	0	27	104	0	81	17387
2026-01-04 01:51:54.31	23.29	4.59	-55.9	-69.9	3.8	7.47e-01	0	27	104	0	81	17158
2026-01-04 01:51:55.30	23.31	4.66	-55.9	-69.8	3.8	7.49e-01	0	27	104	0	80	18092
2026-01-04 01:51:56.31	23.33	4.73	-56.0	-70.0	3.8	7.47e-01	0	27	104	0	80	18447
2026-01-04 01:51:57.30	23.35	4.81	-56.1	-70.3	3.8	7.45e-01	0	27	104	0	80	18969
2026-01-04 01:51:58.29	23.37	4.88	-56.1	-70.3	3.8	7.45e-01	0	27	104	0	80	19083
2026-01-04 01:51:59.29	23.40	4.95	-56.2	-70.5	3.8	7.48e-01	0	27	104	0	80	19514
2026-01-04 01:52:00.29	23.42	5.03	-56.3	-70.7	3.8	7.46e-01	0	28	104	0	80	19867
2026-01-04 01:52:01.29	23.44	5.10	-55.6	-69.1	3.9	7.43e-01	0	27	104	0	80	16688
2026-01-04 01:52:02.28	23.46	5.18	-55.7	-69.5	3.8	7.48e-01	0	28	104	0	79	18361
2026-01-04 01:52:03.28	23.49	5.25	-57.5	-74.1	3.9	7.46e-01	0	28	104	0	83	24752
2026-01-04 01:52:04.28	23.51	5.32	-54.4	-67.1	3.8	7.42e-01	0	28	104	0	77	15678
2026-01-04 01:52:05.28	23.53	5.40	-57.0	-72.9	3.9	7.45e-01	0	28	104	0	82	22990
2026-01-04 01:52:06.28	23.55	5.48	-54.3	-67.0	3.8	7.47e-01	0	28	104	0	77	15433
2026-01-04 01:52:07.28	23.58	5.55	-53.7	-66.1	3.9	7.46e-01	0	28	104	0	76	14725
2026-01-04 01:52:08.28	23.60	5.63	-52.9	-65.0	3.8	7.46e-01	0	28	104	0	75	13731
2026-01-04 01:52:09.29	23.62	5.70	-55.8	-69.5	3.8	7.47e-01	0	28	104	0	80	17288
2026-01-04 01:52:10.29	23.65	5.78	-55.8	-69.4	3.8	7.48e-01	0	28	104	0	79	18282
2026-01-04 01:52:11.29	23.67	5.86	-57.2	-73.3	3.9	7.45e-01	0	28	104	0	82	23859
2026-01-04 01:52:12.29	23.69	5.93	-53.2	-65.3	3.8	7.47e-01	0	28	104	0	74	15142
2026-01-04 01:52:13.29	23.72	6.01	-57.9	-75.5	3.9	7.47e-01	0	28	104	0	83	29345
2026-01-04 01:52:14.29	23.74	6.09	-52.5	-64.5	3.9	7.44e-01	0	28	104	0	74	13791
2026-01-04 01:52:15.28	23.76	6.16	-52.2	-64.1	3.9	7.47e-01	0	28	104	0	73	13945
2026-01-04 01:52:16.28	23.79	6.24	-51.7	-63.4	3.8	7.44e-01	0	28	104	0	72	13687
2026-01-04 01:52:17.28	23.81	6.32	-53.0	-65.1	3.9	7.44e-01	0	28	104	0	75	14012
2026-01-04 01:52:18.28	23.84	6.40	-55.6	-69.0	3.9	7.44e-01	0	28	104	0	78	18432
2026-01-04 01:52:19.28	23.86	6.48	-57.4	-73.5	3.8	7.46e-01	0	28	104	0	83	23282
2026-01-04 01:52:20.28	23.88	6.56	-53.2	-65.2	3.8	7.47e-01	0	28	104	0	74	15043
2026-01-04 01:52:21.28	23.91	6.64	-57.1	-72.7	3.9	7.45e-01	0	28	104	0	82	22424
2026-01-04 01:52:22.29	23.93	6.72	-52.8	-64.7	3.8	7.44e-01	0	28	104	0	74	14146
2026-01-04 01:52:23.28	23.96	6.79	-52.7	-64.7	3.8	7.47e-01	0	27	104	0	74	14103
2026-01-04 01:52:24.28	23.98	6.87	-52.2	-63.9	3.9	7.45e-01	0	28	104	0	73	13696
2026-01-04 01:52:25.28	24.01	6.95	-56.3	-70.4	3.9	7.44e-01	0	28	104	0	81	18151
2026-01-04 01:52:26.28	24.03	7.03	-55.6	-69.0	3.8	7.45e-01	0	28	104	0	79	17419
2026-01-04 01:52:27.29	24.06	7.12	-57.3	-73.0	3.9	7.43e-01	0	28	104	0	83	21899
2026-01-04 01:52:28.30	24.08	7.20	-53.3	-65.5	3.8	7.46e-01	0	28	104	0	74	15412
2026-01-04 01:52:29.28	24.11	7.28	-57.9	-74.9	3.9	7.44e-01	0	28	104	0	83	27172
2026-01-04 01:52:30.29	24.13	7.36	-52.9	-64.9	3.8	7.46e-01	0	28	104	0	74	14405
2026-01-04 01:52:31.29	24.16	7.44	-53.0	-65.0	3.8	7.42e-01	0	28	104	0	74	14697
2026-01-04 01:52:32.29	24.19	7.52	-52.2	-64.0	3.9	7.48e-01	0	28	104	0	73	13835
2026-01-04 01:52:33.29	24.21	7.61	-52.0	-63.7	3.9	7.45e-01	0	28	104	0	73	13414
2026-01-04 01:52:34.28	24.24	7.69	-55.3	-68.4	3.8	7.46e-01	0	28	104	0	78	17220
2026-01-04 01:52:35.28	24.26	7.77	-57.5	-73.6	3.9	7.45e-01	0	28	104	0	83	23314
2026-01-04 01:52:36.28	24.29	7.86	-52.9	-64.9	3.8	7.47e-01	0	28	104	0	74	14444
2026-01-04 01:52:37.28	24.32	7.94	-57.0	-72.2	3.9	7.41e-01	0	28	104	0	82	21192
2026-01-04 01:52:38.28	24.34	8.02	-52.6	-64.6	3.9	7.47e-01	0	28	104	0	74	13887
2026-01-04 01:52:39.27	24.37	8.11	-52.7	-64.7	3.8	7.45e-01	0	28	104	0	74	14110
2026-01-04 01:52:40.27	24.40	8.19	-53.0	-64.9	3.8	7.48e-01	0	28	104	0	74	14494
2026-01-04 01:52:41.26	24.42	8.27	-57.6	-73.5	3.9	7.45e-01	0	28	104	0	83	23234
2026-01-04 01:52:42.27	24.45	8.36	-55.4	-68.5	3.9	7.45e-01	0	28	104	0	79	16332
2026-01-04 01:52:43.26	24.48	8.45	-57.2	-72.4	3.9	7.43e-01	0	28	104	0	83	20388
2026-01-04 01:52:44.26	24.50	8.53	-52.3	-64.1	3.9	7.44e-01	0	28	104	0	72	14871
2026-01-04 01:52:45.26	24.53	8.62	-58.3	-75.7	3.9	7.43e-01	0	28	104	0	84	28219
2026-01-04 01:52:46.25	24.56	8.70	-51.9	-63.6	3.9	7.48e-01	0	28	104	0	73	13155
2026-01-04 01:52:47.25	24.59	8.79	-51.6	-63.2	3.9	7.42e-01	0	28	104	0	72	13410
2026-01-04 01:52:48.25	24.62	8.88	-51.1	-62.7	3.9	7.42e-01	0	28	104	0	71	13348
2026-01-04 01:52:49.23	24.64	8.96	-53.4	-65.5	3.9	7.44e-01	0	28	104	0	76	13875
2026-01-04 01:52:50.23	24.67	9.05	-55.1	-68.0	3.9	7.44e-01	0	28	104	0	78	16496
2026-01-04 01:52:51.23	24.70	9.14	-57.6	-73.5	3.9	7.42e-01	0	28	104	0	83	23231
2026-01-04 01:52:52.22	24.73	9.23	-52.5	-64.3	3.9	7.47e-01	0	28	104	0	73	14324
2026-01-04 01:52:53.22	24.76	9.32	-57.2	-72.5	3.9	7.43e-01	0	28	104	0	83	20728
2026-01-04 01:52:54.21	24.79	9.40	-52.3	-64.1	3.9	7.45e-01	0	28	104	0	73	13980
2026-01-04 01:52:55.21	24.82	9.49	-52.2	-64.0	3.9	7.47e-01	0	28	104	0	73	13749
2026-01-04 01:52:56.20	24.84	9.58	-51.6	-63.2	3.9	7.45e-01	0	28	104	0	72	13411
2026-01-04 01:52:57.21	24.87	9.67	-56.3	-70.1	3.9	7.44e-01	0	28	104	0	81	17567
2026-01-04 01:52:58.21	24.90	9.76	-55.5	-68.5	3.9	7.46e-01	0	28	104	0	78	17430
2026-01-04 01:52:59.20	24.93	9.85	-57.3	-72.6	3.9	7.44e-01	0	28	104	0	83	20850
2026-01-04 01:53:00.20	24.96	9.95	-51.8	-63.5	3.9	7.44e-01	0	28	104	0	72	13801
2026-01-04 01:53:01.20	24.99	10.04	-58.5	-76.2	3.8	7.45e-01	0	28	104	0	84	29931
2026-01-04 01:53:02.20	25.02	10.13	-51.6	-63.2	3.9	7.44e-01	0	28	104	0	72	13326
2026-01-04 01:53:03.20	25.05	10.22	-51.2	-62.8	3.9	7.43e-01	0	28	104	0	71	13435
2026-01-04 01:53:04.20	25.09	10.32	-51.0	-62.5	3.9	7.46e-01	0	28	104	0	71	12993
2026-01-04 01:53:05.20	25.12	10.41	-53.4	-65.4	3.9	7.45e-01	0	28	104	0	76	13699
2026-01-04 01:53:06.20	25.15	10.50	-55.1	-68.0	3.9	7.45e-01	0	28	104	0	78	16352
2026-01-04 01:53:07.20	25.18	10.60	-57.3	-72.5	3.9	7.47e-01	0	28	104	0	83	20539
2026-01-04 01:53:08.20	25.21	10.69	-52.1	-63.8	3.8	7.43e-01	0	28	104	0	73	13558
2026-01-04 01:53:09.20	25.24	10.79	-58.3	-75.4	3.8	7.47e-01	0	28	104	0	84	27236
2026-01-04 01:53:10.20	25.27	10.88	-51.9	-63.6	3.9	7.41e-01	0	28	104	0	73	13211
2026-01-04 01:53:11.20	25.31	10.98	-51.6	-63.2	3.9	7.45e-01	0	28	104	0	72	13370
2026-01-04 01:53:12.20	25.34	11.07	-50.9	-62.4	3.9	7.46e-01	0	28	104	0	71	12853
2026-01-04 01:53:13.21	25.37	11.17	-52.8	-64.5	3.9	7.46e-01	0	28	104	0	74	13826
2026-01-04 01:53:14.21	25.40	11.27	-54.7	-67.2	3.8	7.48e-01	0	28	104	0	77	15867
2026-01-04 01:53:15.22	25.44	11.37	-57.7	-73.5	3.9	7.44e-01	0	28	104	0	83	23166
2026-01-04 01:53:16.22	25.47	11.46	-51.9	-63.6	3.8	7.46e-01	0	28	104	0	72	13981
2026-01-04 01:53:17.21	25.50	11.56	-57.1	-71.8	3.9	7.44e-01	0	28	104	0	82	20158
2026-01-04 01:53:18.21	25.54	11.66	-51.8	-63.4	3.8	7.44e-01	0	28	104	0	72	13692
2026-01-04 01:53:19.21	25.57	11.76	-51.9	-63.5	3.8	7.44e-01	0	28	104	0	72	13848
2026-01-04 01:53:20.20	25.60	11.86	-51.4	-62.9	3.9	7.44e-01	0	28	104	0	72	12887
2026-01-04 01:53:21.20	25.64	11.96	-55.8	-69.0	3.9	7.46e-01	0	28	104	0	80	16498
2026-01-04 01:53:22.19	25.67	12.06	-55.1	-67.8	3.9	7.44e-01	0	28	104	0	78	16073
2026-01-04 01:53:23.20	25.71	12.16	-57.2	-71.8	3.9	7.45e-01	0	28	104	0	83	19161
2026-01-04 01:53:24.20	25.74	12.26	-51.3	-62.8	3.9	7.44e-01	0	28	104	0	71	13540
2026-01-04 01:53:25.20	25.78	12.36	-58.6	-76.2	3.9	7.47e-01	0	28	104	0	85	28200
2026-01-04 01:53:26.20	25.81	12.46	-51.0	-62.4	3.8	7.48e-01	0	28	104	0	71	12958
2026-01-04 01:53:27.19	25.85	12.57	-50.7	-62.1	3.9	7.44e-01	0	28	104	0	70	13207
2026-01-04 01:53:28.19	25.88	12.67	-50.7	-62.2	3.8	7.47e-01	0	28	104	0	70	13344
2026-01-04 01:53:29.19	25.92	12.77	-57.1	-71.7	3.9	7.46e-01	0	28	104	0	82	19904
2026-01-04 01:53:30.19	25.95	12.88	-55.1	-67.8	3.9	7.45e-01	0	28	104	0	79	15194
2026-01-04 01:53:31.19	25.99	12.98	-57.3	-72.4	3.9	7.46e-01	0	28	104	0	83	20366
2026-01-04 01:53:32.20	26.03	13.09	-51.7	-63.3	3.9	7.44e-01	0	28	104	0	72	13555
2026-01-04 01:53:33.19	26.06	13.19	-58.5	-75.5	3.9	7.43e-01	0	28	104	0	84	27400
2026-01-04 01:53:34.19	26.10	13.30	-51.5	-63.0	3.9	7.43e-01	0	28	104	0	72	13091
2026-01-04 01:53:35.19	26.14	13.41	-51.5	-63.1	3.9	7.46e-01	0	28	104	0	72	13179
2026-01-04 01:53:36.19	26.18	13.51	-51.6	-63.1	3.9	7.45e-01	0	28	104	0	72	13210
2026-01-04 01:53:37.18	26.21	13.62	-57.0	-71.3	3.9	7.46e-01	0	28	104	0	82	19076
2026-01-04 01:53:38.19	26.25	13.73	-54.3	-66.7	3.9	7.47e-01	0	28	104	0	76	15832
2026-01-04 01:53:39.18	26.29	13.84	-57.8	-73.7	3.9	7.44e-01	0	28	104	0	83	23622
2026-01-04 01:53:40.18	26.33	13.95	-51.5	-63.0	3.8	7.46e-01	0	28	104	0	72	13031
2026-01-04 01:53:41.18	26.37	14.05	-57.2	-71.8	3.9	7.48e-01	0	28	104	0	82	20276
2026-01-04 01:53:42.18	26.41	14.17	-51.5	-63.1	3.8	7.43e-01	0	28	104	0	72	13139
2026-01-04 01:53:43.17	26.45	14.28	-51.5	-63.1	3.8	7.46e-01	0	28	104	0	72	13138
2026-01-04 01:53:44.18	26.49	14.39	-51.4	-63.0	3.8	7.45e-01	0	28	104	0	72	13039
2026-01-04 01:53:45.17	26.53	14.50	-56.2	-69.7	3.9	7.46e-01	0	28	104	0	81	16868
2026-01-04 01:53:46.17	26.57	14.61	-54.8	-67.4	3.9	7.43e-01	0	28	104	0	78	15262
2026-01-04 01:53:47.17	26.61	14.72	-57.2	-71.9	3.9	7.45e-01	0	28	104	0	82	20332
2026-01-04 01:53:48.17	26.65	14.84	-51.3	-62.8	3.8	7.47e-01	0	28	104	0	71	13554
2026-01-04 01:53:49.16	26.69	14.95	-58.6	-75.6	3.8	7.43e-01	0	28	104	0	85	26401
2026-01-04 01:53:50.15	26.73	15.06	-51.2	-62.7	3.9	7.43e-01	0	28	104	0	71	13359
2026-01-04 01:53:51.15	26.77	15.18	-50.9	-62.3	3.9	7.43e-01	0	28	104	0	71	12745
2026-01-04 01:53:52.15	26.81	15.30	-50.5	-61.8	3.9	7.43e-01	0	28	104	0	70	12802
2026-01-04 01:53:53.15	26.86	15.41	-53.2	-65.2	3.9	7.43e-01	0	28	104	0	75	14187
2026-01-04 01:53:54.15	26.90	15.53	-54.2	-66.5	3.9	7.45e-01	0	28	104	0	76	15430
2026-01-04 01:53:55.14	26.94	15.65	-57.9	-73.7	3.8	7.47e-01	0	28	104	0	83	23841
2026-01-04 01:53:56.14	26.99	15.77	-50.8	-62.2	3.9	7.44e-01	0	28	104	0	70	13338
2026-01-04 01:53:57.14	27.03	15.88	-57.4	-72.3	3.9	7.44e-01	0	28	104	0	83	20215
2026-01-04 01:53:58.14	27.07	16.00	-50.7	-62.1	3.9	7.46e-01	0	28	104	0	70	13128
2026-01-04 01:53:59.13	27.12	16.12	-50.5	-61.9	3.9	7.47e-01	0	28	104	0	70	12926
2026-01-04 01:54:00.12	27.16	16.24	-50.2	-61.6	3.9	7.45e-01	0	28	104	0	69	13119
2026-01-04 01:54:01.12	27.21	16.37	-56.5	-70.1	3.9	7.46e-01	0	28	104	0	81	17494
2026-01-04 01:54:02.11	27.25	16.49	-54.7	-67.1	3.8	7.44e-01	0	28	104	0	77	15711
2026-01-04 01:54:03.11	27.30	16.61	-57.4	-72.2	3.8	7.45e-01	0	28	104	0	82	21142
2026-01-04 01:54:04.11	27.34	16.73	-51.0	-62.4	3.8	7.50e-01	0	28	104	0	70	13635
2026-01-04 01:54:05.10	27.39	16.86	-58.7	-75.9	3.8	7.45e-01	0	28	104	0	85	27099
2026-01-04 01:54:06.10	27.44	16.98	-50.9	-62.3	3.8	7.45e-01	0	28	104	0	70	13549
2026-01-04 01:54:07.11	27.48	17.11	-50.7	-62.2	3.9	7.43e-01	0	28	104	0	70	13326
2026-01-04 01:54:08.11	27.53	17.24	-50.3	-61.7	3.8	7.47e-01	0	28	104	0	69	13318
2026-01-04 01:54:09.11	27.58	17.36	-53.5	-65.6	3.9	7.43e-01	0	28	104	0	75	14866
2026-01-04 01:54:10.12	27.63	17.49	-53.9	-66.0	3.8	7.43e-01	0	28	104	0	75	15547
2026-01-04 01:54:11.13	27.68	17.62	-58.0	-73.7	3.8	7.45e-01	0	28	104	0	83	23809
2026-01-04 01:54:12.13	27.73	17.75	-50.7	-62.1	3.8	7.45e-01	0	28	104	0	70	13114
2026-01-04 01:54:13.13	27.78	17.88	-57.4	-72.0	3.8	7.45e-01	0	29	104	0	82	20733
2026-01-04 01:54:14.13	27.83	18.01	-50.6	-61.9	3.9	7.44e-01	0	28	104	0	70	12886
2026-01-04 01:54:15.13	27.88	18.14	-50.3	-61.7	3.9	7.49e-01	0	28	104	0	69	13299
2026-01-04 01:54:16.12	27.93	18.27	-50.2	-61.5	3.8	7.43e-01	0	28	104	0	69	13073
2026-01-04 01:54:17.12	27.98	18.41	-56.0	-69.2	3.8	7.42e-01	0	28	104	0	80	16811
2026-01-04 01:54:18.12	28.03	18.54	-53.7	-65.8	3.8	7.46e-01	0	28	104	0	75	15158
2026-01-04 01:54:19.12	28.08	18.68	-58.2	-73.9	3.8	7.42e-01	0	28	104	0	84	22907
2026-01-04 01:54:20.12	28.14	18.81	-50.5	-61.9	3.9	7.42e-01	0	28	104	0	70	12874
2026-01-04 01:54:21.12	28.19	18.95	-57.3	-71.8	3.8	7.43e-01	0	28	104	0	82	20197
2026-01-04 01:54:22.12	28.24	19.09	-50.5	-61.9	3.8	7.45e-01	0	28	104	0	70	12836
2026-01-04 01:54:23.12	28.30	19.22	-50.3	-61.6	3.8	7.49e-01	0	28	104	0	69	13210
2026-01-04 01:54:24.12	28.35	19.36	-50.2	-61.5	3.8	7.47e-01	0	28	104	0	69	12992
2026-01-04 01:54:25.13	28.41	19.50	-56.1	-69.4	3.9	7.45e-01	0	28	104	0	80	17164
2026-01-04 01:54:26.12	28.46	19.64	-53.8	-66.0	3.8	7.45e-01	0	28	104	0	75	15405
2026-01-04 01:54:27.12	28.52	19.78	-58.3	-74.1	3.8	7.45e-01	0	28	104	0	84	23430
2026-01-04 01:54:28.11	28.58	19.92	-50.7	-62.0	3.9	7.43e-01	0	28	104	0	70	13074
2026-01-04 01:54:29.11	28.63	20.07	-57.3	-71.8	3.8	7.45e-01	0	29	104	0	82	20115
2026-01-04 01:54:30.10	28.69	20.21	-50.6	-61.9	3.9	7.43e-01	0	28	104	0	70	12918
2026-01-04 01:54:31.10	28.75	20.35	-50.5	-61.8	3.8	7.45e-01	0	28	104	0	70	12736
2026-01-04 01:54:32.09	28.81	20.50	-50.2	-61.5	3.9	7.44e-01	0	28	104	0	69	13103
2026-01-04 01:54:33.09	28.86	20.65	-56.5	-70.0	3.9	7.45e-01	0	28	104	0	81	17370
2026-01-04 01:54:34.09	28.92	20.79	-54.9	-67.4	3.8	7.45e-01	0	28	104	0	77	16260
2026-01-04 01:54:35.09	28.98	20.94	-57.5	-72.2	3.8	7.48e-01	0	28	104	0	82	21040
2026-01-04 01:54:36.09	29.05	21.09	-50.7	-62.2	3.8	7.46e-01	0	28	104	0	70	13269
2026-01-04 01:54:37.08	29.11	21.24	-58.9	-76.2	3.8	7.46e-01	0	28	104	0	85	28218
2026-01-04 01:54:38.09	29.17	21.39	-50.9	-62.3	3.9	7.47e-01	0	28	104	0	70	13462
2026-01-04 01:54:39.09	29.23	21.54	-51.0	-62.5	3.9	7.45e-01	0	28	104	0	70	13734
2026-01-04 01:54:40.08	29.29	21.70	-50.8	-62.2	3.8	7.49e-01	0	28	104	0	70	13334
2026-01-04 01:54:41.09	29.36	21.85	-54.6	-66.9	3.8	7.44e-01	0	28	104	0	77	15321
2026-01-04 01:54:42.09	29.42	22.01	-53.8	-65.9	3.8	7.45e-01	0	28	104	0	75	15334
2026-01-04 01:54:43.08	29.49	22.16	-58.5	-74.4	3.8	7.48e-01	0	28	104	0	84	24376
2026-01-04 01:54:44.09	29.55	22.32	-51.2	-62.6	3.9	7.48e-01	0	28	104	0	71	13259
2026-01-04 01:54:45.09	29.62	22.48	-57.4	-71.9	3.8	7.41e-01	0	28	104	0	82	20336
2026-01-04 01:54:46.09	29.69	22.64	-51.3	-62.7	3.8	7.46e-01	0	28	104	0	71	13325
2026-01-04 01:54:47.08	29.76	22.80	-51.1	-62.5	3.9	7.47e-01	0	29	104	0	71	13087
2026-01-04 01:54:48.08	29.82	22.96	-50.8	-62.2	3.8	7.44e-01	0	28	104	0	70	13264
2026-01-04 01:54:49.07	29.89	23.12	-56.8	-70.6	3.8	7.45e-01	0	28	104	0	81	18592
2026-01-04 01:54:50.07	29.96	23.28	-55.3	-68.0	3.8	7.45e-01	0	28	104	0	78	16397
2026-01-04 01:54:51.06	30.03	23.45	-57.7	-72.4	3.9	7.47e-01	0	28	104	0	83	20426
2026-01-04 01:54:52.06	30.10	23.61	-52.0	-63.7	3.9	7.45e-01	0	28	104	0	73	13292
2026-01-04 01:54:53.06	30.18	23.78	-58.7	-75.4	3.8	7.43e-01	0	28	104	0	85	25772
2026-01-04 01:54:54.06	30.25	23.95	-51.8	-63.4	3.8	7.48e-01	0	28	104	0	72	13712
2026-01-04 01:54:55.06	30.32	24.12	-51.9	-63.5	3.8	7.44e-01	0	28	104	0	72	13793
2026-01-04 01:54:56.05	30.40	24.28	-51.6	-63.1	3.8	7.46e-01	0	29	104	0	72	13216
2026-01-04 01:54:57.05	30.47	24.46	-53.2	-65.0	3.9	7.46e-01	0	28	104	0	74	14562
2026-01-04 01:54:58.05	30.55	24.63	-53.9	-65.9	3.8	7.45e-01	0	28	104	0	75	15390
2026-01-04 01:54:59.05	30.62	24.80	-58.5	-74.4	3.8	7.47e-01	0	28	104	0	84	24403
2026-01-04 01:55:00.04	30.70	24.97	-51.4	-62.8	3.9	7.43e-01	0	28	104	0	72	12807
2026-01-04 01:55:01.04	30.78	25.15	-57.5	-72.0	3.8	7.46e-01	0	28	104	0	82	20765
2026-01-04 01:55:02.04	30.86	25.33	-51.4	-62.9	3.8	7.50e-01	0	29	104	0	72	12845
2026-01-04 01:55:03.04	30.94	25.51	-51.3	-62.7	3.9	7.45e-01	0	28	104	0	71	13348
2026-01-04 01:55:04.03	31.02	25.69	-50.7	-62.0	3.9	7.43e-01	0	28	104	0	70	13068
2026-01-04 01:55:05.04	31.10	25.87	-57.2	-71.3	3.9	7.45e-01	0	28	104	0	82	19023
2026-01-04 01:55:06.04	31.19	26.05	-55.2	-67.8	3.8	7.46e-01	0	28	104	0	78	16002
2026-01-04 01:55:07.03	31.27	26.23	-57.7	-72.2	3.8	7.43e-01	0	28	104	0	83	20054
2026-01-04 01:55:08.03	31.35	26.42	-52.0	-63.5	3.8	7.47e-01	0	28	104	0	73	13109
2026-01-04 01:55:09.03	31.44	26.60	-58.8	-75.4	3.8	7.43e-01	0	28	104	0	85	25673
2026-01-04 01:55:10.03	31.53	26.79	-51.9	-63.4	3.8	7.46e-01	0	28	104	0	72	13683
2026-01-04 01:55:11.03	31.61	26.98	-52.0	-63.5	3.9	7.48e-01	0	28	104	0	72	13882
2026-01-04 01:55:12.03	31.70	27.17	-51.8	-63.2	3.9	7.49e-01	0	28	104	0	72	13391
2026-01-04 01:55:13.03	31.79	27.36	-57.7	-72.1	3.8	7.46e-01	0	29	104	0	83	19716
2026-01-04 01:55:14.03	31.88	27.56	-53.6	-65.4	3.8	7.46e-01	0	28	104	0	75	14516
2026-01-04 01:55:15.03	31.98	27.75	-58.6	-74.3	3.8	7.48e-01	0	28	104	0	84	23981
2026-01-04 01:55:16.03	32.07	27.95	-50.5	-61.7	3.9	7.43e-01	0	28	104	0	70	12659
2026-01-04 01:55:17.03	32.16	28.15	-57.7	-72.4	3.8	7.45e-01	0	28	104	0	83	20312
2026-01-04 01:55:18.03	32.26	28.34	-50.3	-61.6	3.9	7.45e-01	0	28	104	0	69	13143
2026-01-04 01:55:19.02	32.36	28.54	-50.3	-61.6	3.8	7.45e-01	0	28	104	0	69	13146
2026-01-04 01:55:20.02	32.45	28.75	-50.2	-61.5	3.9	7.46e-01	0	28	104	0	69	12969
2026-01-04 01:55:21.02	32.55	28.95	-56.9	-70.7	3.8	7.47e-01	0	28	104	0	81	18780
2026-01-04 01:55:22.01	32.65	29.15	-53.4	-65.3	3.8	7.45e-01	0	28	104	0	74	15120
2026-01-04 01:55:23.01	32.75	29.36	-58.5	-74.1	3.8	7.45e-01	0	28	104	0	84	23402
2026-01-04 01:55:24.01	32.86	29.57	-50.2	-61.6	3.8	7.42e-01	0	28	104	0	69	13130
2026-01-04 01:55:25.01	32.96	29.78	-57.5	-71.6	3.8	7.47e-01	0	28	104	0	82	19807
2026-01-04 01:55:26.01	33.07	29.99	-50.3	-61.6	3.8	7.43e-01	0	28	104	0	69	13195
2026-01-04 01:55:27.01	33.17	30.20	-50.4	-61.7	3.8	7.45e-01	0	28	104	0	69	13296
2026-01-04 01:55:28.01	33.28	30.41	-50.4	-61.8	3.8	7.45e-01	0	28	104	0	69	13455
2026-01-04 01:55:29.01	33.39	30.63	-57.2	-71.1	3.9	7.47e-01	0	29	104	0	82	18618
2026-01-04 01:55:30.00	33.50	30.85	-54.7	-67.0	3.8	7.43e-01	0	28	104	0	78	14662
2026-01-04 01:55:31.00	33.62	31.06	-57.4	-71.3	3.9	7.45e-01	0	29	104	0	82	19006
2026-01-04 01:55:31.98	33.73	31.28	-51.2	-62.6	3.9	7.46e-01	0	29	104	0	71	13257
2026-01-04 01:55:32.99	33.85	31.51	-58.9	-75.3	3.8	7.42e-01	0	28	104	0	85	25320
2026-01-04 01:55:33.99	33.96	31.73	-51.3	-62.6	3.8	7.46e-01	0	28	104	0	71	13254
2026-01-04 01:55:35.00	34.08	31.96	-51.0	-62.4	3.9	7.48e-01	0	28	104	0	71	12959
2026-01-04 01:55:36.00	34.21	32.19	-50.4	-61.7	3.8	7.47e-01	0	28	104	0	70	12591
2026-01-04 01:55:37.00	34.33	32.42	-56.0	-68.9	3.8	7.45e-01	0	28	104	0	79	17133
2026-01-04 01:55:38.00	34.45	32.65	-53.3	-65.2	3.9	7.45e-01	0	29	104	0	74	14962
2026-01-04 01:55:39.00	34.58	32.88	-58.7	-74.5	3.8	7.44e-01	0	29	104	0	85	23264
2026-01-04 01:55:40.00	34.71	33.12	-50.8	-62.2	3.9	7.47e-01	0	28	104	0	70	13282
2026-01-04 01:55:41.00	34.84	33.35	-57.8	-72.2	3.9	7.44e-01	0	29	104	0	83	19996
2026-01-04 01:55:42.00	34.97	33.59	-50.6	-61.9	3.9	7.46e-01	0	29	104	0	70	12887
2026-01-04 01:55:43.00	35.10	33.83	-50.8	-62.1	3.8	7.44e-01	0	28	104	0	70	13182
2026-01-04 01:55:44.00	35.24	34.07	-51.0	-62.4	3.9	7.46e-01	0	28	104	0	70	13655
2026-01-04 01:55:45.00	35.38	34.32	-57.1	-71.0	3.9	7.46e-01	0	29	104	0	82	18364
2026-01-04 01:55:46.00	35.52	34.56	-53.8	-65.8	3.8	7.45e-01	0	28	104	0	75	15126
2026-01-04 01:55:47.01	35.66	34.81	-58.8	-74.8	3.8	7.46e-01	0	28	104	0	85	23883
2026-01-04 01:55:48.01	35.80	35.06	-51.2	-62.5	3.9	7.44e-01	0	29	104	0	71	13088
2026-01-04 01:55:49.00	35.95	35.31	-57.8	-72.2	3.8	7.42e-01	0	29	104	0	83	20062
2026-01-04 01:55:50.01	36.10	35.57	-51.5	-63.0	3.8	7.48e-01	0	29	104	0	72	12966
2026-01-04 01:55:51.00	36.25	35.82	-51.7	-63.2	3.9	7.48e-01	0	29	104	0	72	13385
2026-01-04 01:55:52.00	36.40	36.08	-51.7	-63.2	3.8	7.48e-01	0	28	104	0	72	13265
2026-01-04 01:55:52.99	36.55	36.34	-59.0	-75.8	3.8	7.43e-01	0	29	104	0	85	26855
2026-01-04 01:55:53.99	36.71	36.60	-53.9	-65.9	3.8	7.47e-01	0	28	104	0	75	15243
2026-01-04 01:55:54.98	36.87	36.86	-59.0	-75.4	3.8	7.47e-01	0	29	104	0	85	25645
2026-01-04 01:55:55.97	37.03	37.12	-52.1	-63.7	3.9	7.45e-01	0	29	104	0	73	13363
2026-01-04 01:55:56.97	37.20	37.39	-58.0	-72.8	3.8	7.47e-01	0	29	104	0	83	21374
2026-01-04 01:55:57.97	37.37	37.66	-52.0	-63.5	3.8	7.47e-01	0	29	104	0	73	13066
2026-01-04 01:55:58.96	37.54	37.93	-52.0	-63.5	3.8	7.44e-01	0	28	104	0	73	13087
2026-01-04 01:55:59.96	37.71	38.20	-52.1	-63.6	3.8	7.40e-01	0	29	104	0	73	13255
2026-01-04 01:56:00.96	37.89	38.48	-58.0	-72.8	3.8	7.44e-01	0	28	104	0	83	21470
2026-01-04 01:56:01.95	38.07	38.75	-54.4	-66.5	3.8	7.44e-01	0	29	104	0	76	15524
2026-01-04 01:56:02.95	38.25	39.03	-59.1	-75.7	3.8	7.45e-01	0	29	104	0	85	26490
2026-01-04 01:56:03.95	38.44	39.31	-52.5	-64.1	3.8	7.46e-01	0	29	104	0	74	13154
2026-01-04 01:56:04.95	38.63	39.60	-57.9	-72.6	3.8	7.46e-01	0	29	104	0	83	20847
2026-01-04 01:56:05.95	38.82	39.89	-51.9	-63.5	3.8	7.47e-01	0	29	104	0	73	13043
2026-01-04 01:56:06.94	39.02	40.17	-51.9	-63.5	3.8	7.48e-01	0	28	104	0	72	13754
2026-01-04 01:56:07.94	39.22	40.46	-51.8	-63.3	3.9	7.45e-01	0	29	104	0	72	13488
2026-01-04 01:56:08.94	39.42	40.75	-58.0	-72.7	3.8	7.46e-01	0	29	104	0	83	21187
2026-01-04 01:56:09.93	39.63	41.05	-53.2	-65.4	3.9	7.47e-01	0	28	104	0	74	15276
2026-01-04 01:56:10.93	39.84	41.34	-58.9	-75.0	3.8	7.48e-01	0	29	104	0	85	24494
2026-01-04 01:56:11.93	40.05	41.64	-51.7	-63.1	3.8	7.48e-01	0	29	104	0	72	13251
2026-01-04 01:56:12.93	40.27	41.94	-57.4	-71.2	3.8	7.48e-01	0	28	104	0	82	18860
2026-01-04 01:56:13.94	40.50	42.25	-50.8	-62.1	3.8	7.43e-01	0	29	104	0	70	13253
2026-01-04 01:56:14.94	40.72	42.56	-50.7	-62.0	3.8	7.46e-01	0	29	104	0	70	13046
2026-01-04 01:56:15.93	40.95	42.86	-50.6	-62.0	3.9	7.46e-01	0	28	104	0	70	13051
2026-01-04 01:56:16.94	41.19	43.18	-56.9	-70.3	3.8	7.48e-01	0	29	104	0	81	18067
2026-01-04 01:56:17.93	41.43	43.48	-51.9	-63.3	3.8	7.41e-01	0	29	104	0	71	14296
2026-01-04 01:56:18.93	41.68	43.80	-58.8	-74.5	3.9	7.46e-01	0	29	104	0	85	23056
2026-01-04 01:56:19.93	41.93	44.12	-50.9	-62.2	3.9	7.44e-01	0	28	104	0	71	12656
2026-01-04 01:56:20.93	42.18	44.43	-56.8	-70.0	3.8	7.42e-01	0	29	104	0	81	17411
2026-01-04 01:56:21.93	42.45	44.76	-50.0	-61.2	3.9	7.48e-01	0	29	104	0	69	12651
2026-01-04 01:56:22.92	42.71	45.08	-50.0	-61.2	3.8	7.47e-01	0	29	104	0	69	12585
2026-01-04 01:56:23.92	42.98	45.40	-50.1	-61.4	3.8	7.46e-01	0	29	104	0	69	12811
2026-01-04 01:56:24.91	43.26	45.72	-57.3	-71.1	3.8	7.44e-01	0	29	104	0	82	18666
2026-01-04 01:56:25.91	43.54	46.05	-51.6	-62.9	3.8	7.46e-01	0	29	104	0	70	14450
2026-01-04 01:56:26.90	43.83	46.38	-58.8	-74.6	3.8	7.46e-01	0	29	104	0	85	23327
2026-01-04 01:56:27.89	44.12	46.71	-50.7	-62.0	3.8	7.46e-01	0	29	104	0	70	13079
2026-01-04 01:56:28.90	44.42	47.05	-56.6	-69.6	3.9	7.49e-01	0	28	104	0	80	17641
2026-01-04 01:56:29.90	44.73	47.39	-49.9	-61.1	3.8	7.46e-01	0	29	104	0	69	12467
2026-01-04 01:56:30.89	45.04	47.72	-50.0	-61.3	3.9	7.42e-01	0	29	104	0	69	12712
2026-01-04 01:56:31.90	45.37	48.07	-50.1	-61.3	3.8	7.47e-01	0	29	104	0	69	12774
2026-01-04 01:56:32.89	45.69	48.41	-56.8	-70.2	3.8	7.44e-01	0	29	104	0	81	17743
2026-01-04 01:56:33.89	46.03	48.75	-51.1	-62.4	3.8	7.45e-01	0	29	104	0	69	14413
2026-01-04 01:56:34.89	46.37	49.10	-58.8	-74.1	3.9	7.47e-01	0	29	104	0	85	22118
2026-01-04 01:56:35.89	46.73	49.45	-51.6	-63.0	3.8	7.45e-01	0	29	104	0	72	13025
2026-01-04 01:56:36.89	47.09	49.80	-56.0	-68.6	3.8	7.48e-01	0	29	104	0	79	16561
2026-01-04 01:56:37.88	47.45	50.15	-50.4	-61.7	3.8	7.44e-01	0	29	104	0	70	12552
2026-01-04 01:56:38.88	47.83	50.50	-50.1	-61.3	3.8	7.44e-01	0	28	104	0	69	12709
2026-01-04 01:56:39.87	48.21	50.85	-50.0	-61.3	3.8	7.47e-01	0	28	104	0	69	12721
2026-01-04 01:56:40.87	48.60	51.21	-56.9	-70.3	3.8	7.49e-01	0	28	104	0	81	17955
2026-01-04 01:56:41.87	49.01	51.57	-50.7	-62.2	3.8	7.45e-01	0	28	104	0	69	14056
2026-01-04 01:56:42.87	49.42	51.92	-58.7	-74.0	3.8	7.47e-01	0	29	104	0	85	21846
2026-01-04 01:56:43.87	49.85	52.28	-51.5	-62.9	3.9	7.44e-01	0	29	104	0	72	12917
2026-01-04 01:56:44.87	50.28	52.65	-55.6	-68.0	3.8	7.45e-01	0	28	104	0	78	16406
2026-01-04 01:56:45.86	50.73	53.01	-49.9	-61.0	3.9	7.44e-01	0	28	104	0	69	12372
2026-01-04 01:56:46.86	51.18	53.37	-50.2	-61.6	3.8	7.44e-01	0	29	104	0	69	13183
2026-01-04 01:56:47.87	51.66	53.74	-49.8	-61.0	3.8	7.46e-01	0	29	104	0	68	12969
2026-01-04 01:56:48.87	52.14	54.10	-55.9	-68.7	3.9	7.47e-01	0	29	104	0	79	16849
2026-01-04 01:56:49.87	52.63	54.47	-50.7	-61.9	3.8	7.47e-01	0	28	104	0	69	13702
2026-01-04 01:56:50.87	53.14	54.84	-58.8	-74.2	3.9	7.46e-01	0	29	104	0	85	22392
2026-01-04 01:56:51.87	53.65	55.20	-52.1	-63.5	3.9	7.47e-01	0	29	104	0	73	13099
2026-01-04 01:56:52.87	54.19	55.57	-55.8	-68.3	3.8	7.45e-01	0	29	104	0	79	16048
2026-01-04 01:56:53.86	54.73	55.93	-50.5	-61.7	3.9	7.47e-01	0	29	104	0	70	12614
2026-01-04 01:56:54.86	55.29	56.30	-50.7	-62.1	3.8	7.47e-01	0	29	104	0	70	13116
2026-01-04 01:56:55.86	55.87	56.67	-50.8	-62.2	3.8	7.47e-01	0	29	104	0	70	13303
2026-01-04 01:56:56.85	56.45	57.03	-58.4	-73.0	3.8	7.47e-01	0	29	104	0	84	20767
2026-01-04 01:56:57.84	57.05	57.40	-51.7	-63.1	3.8	7.46e-01	0	29	104	0	71	13972
2026-01-04 01:56:58.84	57.68	57.76	-59.1	-75.2	3.8	7.50e-01	0	29	104	0	85	25144
2026-01-04 01:56:59.84	58.32	58.13	-54.0	-65.7	3.8	7.46e-01	0	29	104	0	77	13318
2026-01-04 01:57:00.84	58.98	58.49	-56.2	-69.2	3.8	7.46e-01	0	29	104	0	80	16830
2026-01-04 01:57:01.83	59.65	58.85	-52.1	-63.5	3.8	7.44e-01	0	29	104	0	73	13004
2026-01-04 01:57:02.83	60.35	59.21	-52.4	-64.1	3.8	7.44e-01	0	29	104	0	73	13937
2026-01-04 01:57:03.83	61.06	59.57	-52.6	-64.2	3.8	7.47e-01	0	29	104	0	73	14138
2026-01-04 01:57:04.83	61.80	59.93	-59.0	-74.9	3.8	7.48e-01	0	29	104	0	85	24182
2026-01-04 01:57:05.83	62.55	60.29	-52.5	-54.5	15.2	6.02e-01	0	29	0	524288	73	4622
2026-01-04 01:57:06.83	63.33	60.64	-59.4	-68.6	8.9	6.28e-01	0	29	0	2097152	86	11060
2026-01-04 01:57:07.83	64.13	60.99	-55.0	-57.8	14.8	6.04e-01	0	29	0	4194304	79	4767
2026-01-04 01:57:08.82	64.95	61.34	-56.5	-60.1	14.1	6.01e-01	0	29	0	6291456	80	5923
2026-01-04 01:57:09.82	65.79	61.68	-52.7	-54.7	15.4	5.99e-01	0	28	0	7864320	74	4456
2026-01-04 01:57:10.81	66.65	62.02	-52.8	-54.8	15.4	6.01e-01	0	29	0	9961472	74	4496
2026-01-04 01:57:11.81	67.54	62.36	-52.8	-54.9	15.3	6.01e-01	0	29	0	11534336	74	4566
2026-01-04 01:57:12.81	68.46	62.69	-52.8	-54.8	15.3	6.03e-01	0	29	0	13631488	74	4539
2026-01-04 01:57:13.81	69.41	63.02	-53.1	-55.2	15.2	6.03e-01	0	29	0	15728640	74	4717
2026-01-04 01:57:14.81	70.38	63.34	-53.1	-55.1	15.3	6.02e-01	0	29	0	17301504	74	4692
2026-01-04 01:57:15.80	71.36	63.66	-53.6	-55.8	15.0	6.02e-01	0	29	0	19398656	74	5099
2026-01-04 01:57:16.81	72.40	63.97	-53.5	-55.8	15.2	6.01e-01	0	29	0	20971520	75	4760
2026-01-04 01:57:17.80	73.44	64.27	-54.2	-56.6	15.0	5.98e-01	0	29	0	23068672	76	4928
2026-01-04 01:57:18.80	74.52	64.57	-54.2	-56.6	15.0	6.00e-01	0	29	0	24641536	76	4948
2026-01-04 01:57:19.80	75.62	64.87	-54.5	-57.0	14.9	6.01e-01	0	29	0	26738688	76	5177
2026-01-04 01:57:20.80	76.76	65.15	-54.5	-57.0	14.9	6.00e-01	0	28	0	28835840	77	4901
2026-01-04 01:57:21.79	77.91	65.42	-54.8	-57.4	14.8	6.01e-01	0	29	0	30408704	77	5135
2026-01-04 01:57:22.79	79.11	65.69	-54.7	-57.3	14.8	6.01e-01	0	29	0	32505856	77	5084
2026-01-04 01:57:23.79	80.33	65.95	-54.9	-57.5	14.8	6.01e-01	0	29	0	34078720	77	5180
2026-01-04 01:57:24.78	81.57	66.20	-54.6	-57.2	14.9	6.00e-01	0	29	0	36175872	77	5012
2026-01-04 01:57:25.78	82.85	66.44	-54.2	-56.6	15.1	5.99e-01	0	29	0	37748736	77	4665
2026-01-04 01:57:26.78	84.16	66.68	-54.5	-57.0	15.0	6.00e-01	0	29	0	39845888	77	4890
2026-01-04 01:57:27.78	85.50	66.90	-54.3	-56.6	15.1	5.99e-01	0	29	0	41418752	77	4702
2026-01-04 01:57:28.77	86.85	67.10	-54.7	-57.2	14.9	6.01e-01	0	29	0	43515904	77	5015
2026-01-04 01:57:29.78	88.26	67.30	-54.3	-56.8	15.0	6.02e-01	0	29	0	45613056	77	4773
2026-01-04 01:57:30.78	89.67	67.49	-54.3	-56.7	15.1	6.01e-01	0	29	0	47185920	77	4723
2026-01-04 01:57:31.78	91.12	67.66	-54.4	-56.8	15.1	5.99e-01	0	29	0	49283072	77	4779
2026-01-04 01:57:32.78	92.58	67.83	-54.4	-56.8	15.0	6.01e-01	0	29	0	50855936	77	4796
2026-01-04 01:57:33.77	94.06	67.97	-54.4	-56.9	15.0	6.02e-01	0	29	0	52953088	77	4832
2026-01-04 01:57:34.77	95.57	68.11	-54.2	-56.5	15.2	6.01e-01	0	29	0	54525952	77	4627
2026-01-04 01:57:35.77	97.10	68.23	-54.3	-56.7	15.0	6.02e-01	0	29	0	56623104	77	4757
2026-01-04 01:57:36.77	98.64	68.33	-54.0	-56.4	15.2	5.99e-01	0	29	0	58720256	77	4553
2026-01-04 01:57:37.76	100.19	68.43	-54.1	-56.4	15.2	6.02e-01	0	29	0	60293120	77	4580
2026-01-04 01:57:38.76	101.76	68.50	-54.3	-56.7	15.1	6.00e-01	0	29	0	62390272	77	4727
2026-01-04 01:57:39.76	103.35	68.57	-54.0	-56.3	15.2	6.02e-01	0	29	0	63963136	77	4530
2026-01-04 01:57:40.76	104.95	68.61	-54.4	-56.8	15.0	6.00e-01	0	29	0	66060288	77	4804
2026-01-04 01:57:41.76	106.55	68.64	-54.3	-56.7	15.1	6.02e-01	0	28	0	67633152	77	4720
2026-01-04 01:57:42.75	108.14	68.66	-54.0	-56.3	15.2	6.02e-01	0	29	0	69730304	77	4500
2026-01-04 01:57:43.75	109.75	68.66	-53.7	-55.9	15.2	6.01e-01	0	29	0	71827456	76	4566
2026-01-04 01:57:44.75	111.35	68.65	-54.3	-56.7	15.0	6.00e-01	0	28	0	73400320	76	4993
2026-01-04 01:57:45.75	112.96	68.62	-53.6	-55.8	15.2	6.00e-01	0	29	0	75497472	76	4511
2026-01-04 01:57:46.75	114.55	68.58	-53.4	-55.5	15.2	6.04e-01	0	29	0	77070336	75	4627
2026-01-04 01:57:47.74	116.13	68.52	-53.6	-55.9	15.1	6.02e-01	0	28	0	79167488	75	4815
2026-01-04 01:57:48.75	117.72	68.44	-53.5	-55.7	15.2	6.02e-01	0	29	0	81264640	75	4755
2026-01-04 01:57:49.75	119.28	68.35	-53.2	-55.3	15.3	5.99e-01	0	29	0	82837504	75	4495
2026-01-04 01:57:50.76	120.85	68.25	-53.4	-55.6	15.2	6.01e-01	0	29	0	84934656	75	4669
2026-01-04 01:57:51.74	122.35	68.13	-53.3	-55.4	15.3	6.02e-01	0	28	0	86507520	75	4559
2026-01-04 01:57:52.74	123.87	68.00	-53.1	-55.2	15.3	5.98e-01	0	29	0	88604672	75	4458
2026-01-04 01:57:53.74	125.36	67.85	-53.3	-55.4	15.3	5.98e-01	0	28	0	90177536	75	4570
2026-01-04 01:57:54.73	126.82	67.70	-53.5	-55.6	15.2	6.01e-01	0	29	0	92274688	75	4705
2026-01-04 01:57:55.73	128.27	67.52	-53.3	-55.4	15.3	6.01e-01	0	29	0	93847552	75	4573
2026-01-04 01:57:56.73	129.69	67.34	-53.5	-55.7	15.2	5.99e-01	0	29	0	95944704	75	4732
2026-01-04 01:57:57.73	131.09	67.14	-53.3	-55.4	15.3	6.03e-01	0	28	0	98041856	75	4571
2026-01-04 01:57:58.72	132.45	66.94	-53.2	-55.3	15.3	6.01e-01	0	29	0	99614720	75	4534
2026-01-04 01:57:59.72	133.79	66.72	-53.2	-55.3	15.3	5.99e-01	0	28	0	101711872	75	4522
2026-01-04 01:58:00.72	135.11	66.49	-53.1	-55.2	15.3	6.00e-01	0	29	0	103284736	75	4476
2026-01-04 01:58:01.71	136.38	66.25	-53.0	-55.0	15.4	6.03e-01	0	29	0	105381888	75	4378
2026-01-04 01:58:02.71	137.64	66.00	-53.2	-55.3	15.3	6.03e-01	0	29	0	106954752	75	4538
2026-01-04 01:58:03.70	138.86	65.75	-52.6	-54.6	15.4	6.00e-01	0	29	0	109051904	74	4403
2026-01-04 01:58:04.70	140.06	65.48	-52.7	-54.6	15.4	6.00e-01	0	28	0	111149056	74	4433
2026-01-04 01:58:05.70	141.23	65.20	-52.3	-54.2	15.5	6.03e-01	0	29	0	112721920	73	4463
2026-01-04 01:58:06.70	142.37	64.92	-52.5	-54.4	15.4	6.00e-01	0	29	0	114819072	73	4586
2026-01-04 01:58:07.70	143.49	64.63	-52.1	-53.9	15.5	6.01e-01	0	29	0	116391936	73	4310
2026-01-04 01:58:08.69	144.56	64.33	-52.0	-53.9	15.5	5.97e-01	0	28	0	118489088	73	4293
2026-01-04 01:58:09.69	145.62	64.03	-52.0	-53.8	15.5	6.01e-01	0	28	0	120061952	73	4288
2026-01-04 01:58:10.69	146.65	63.71	-52.1	-54.0	15.5	6.02e-01	0	28	0	122159104	73	4344
2026-01-04 01:58:11.70	147.66	63.39	-52.0	-53.8	15.5	6.01e-01	0	29	0	124256256	73	4259
2026-01-04 01:58:12.70	148.64	63.07	-51.7	-53.5	15.5	6.03e-01	0	29	0	125829120	72	4353
2026-01-04 01:58:13.71	149.60	62.74	-52.0	-53.9	15.4	6.03e-01	0	29	0	127926272	72	4564
2026-01-04 01:58:14.70	150.51	62.41	-51.9	-53.7	15.5	6.03e-01	0	28	0	129499136	72	4470
2026-01-04 01:58:15.70	151.41	62.07	-51.9	-53.8	15.4	6.03e-01	0	29	0	131596288	72	4510
2026-01-04 01:58:16.70	152.28	61.73	-51.6	-53.3	15.5	6.01e-01	0	29	0	133169152	72	4289
2026-01-04 01:58:17.70	153.13	61.39	-51.5	-53.2	15.6	6.03e-01	0	29	0	135266304	72	4223
2026-01-04 01:58:18.69	153.95	61.04	-51.8	-53.6	15.5	5.99e-01	0	29	0	137363456	72	4392
2026-01-04 01:58:19.69	154.76	60.69	-51.8	-53.6	15.5	6.01e-01	0	29	0	138936320	72	4394
2026-01-04 01:58:20.68	155.53	60.34	-51.9	-53.8	15.4	6.04e-01	0	29	0	141033472	72	4495
2026-01-04 01:58:21.68	156.29	59.99	-51.4	-53.2	15.6	6.00e-01	0	29	0	142606336	72	4207
2026-01-04 01:58:22.68	157.03	59.63	-51.3	-53.0	15.5	6.00e-01	0	29	0	144703488	71	4342
2026-01-04 01:58:23.68	157.75	59.27	-51.8	-53.6	15.4	6.00e-01	0	28	0	146276352	71	4691
2026-01-04 01:58:24.67	158.45	58.91	-51.5	-53.2	15.5	6.01e-01	0	29	0	148373504	71	4471
2026-01-04 01:58:25.67	159.13	58.54	-51.3	-53.0	15.5	6.00e-01	0	29	0	149946368	71	4378
2026-01-04 01:58:26.67	159.79	58.18	-51.2	-52.8	15.6	6.01e-01	0	29	0	152043520	71	4275
2026-01-04 01:58:27.67	160.44	57.81	-51.3	-53.0	15.5	6.01e-01	0	29	0	154140672	71	4368
2026-01-04 01:58:28.67	161.06	57.45	-51.0	-52.7	15.6	5.99e-01	0	29	0	155713536	71	4201
2026-01-04 01:58:29.67	161.68	57.08	-51.0	-52.7	15.6	6.02e-01	0	28	0	157810688	71	4234
2026-01-04 01:58:30.66	162.27	56.71	-50.5	-52.1	15.7	6.03e-01	0	29	0	159383552	70	4160
2026-01-04 01:58:31.67	162.85	56.34	-50.4	-52.0	15.6	6.01e-01	0	29	0	161480704	70	4117
2026-01-04 01:58:32.67	163.42	55.97	-50.2	-51.8	15.6	6.02e-01	0	28	0	163053568	69	4265
2026-01-04 01:58:33.66	163.96	55.61	-50.4	-52.0	15.6	6.00e-01	0	29	0	165150720	69	4391
2026-01-04 01:58:34.67	164.50	55.24	-50.4	-52.0	15.6	6.00e-01	0	29	0	167247872	69	4353
2026-01-04 01:58:35.66	165.02	54.87	-50.1	-51.7	15.7	6.01e-01	0	29	0	168820736	69	4227
2026-01-04 01:58:36.66	165.52	54.50	-49.9	-51.5	15.7	6.00e-01	0	29	0	170917888	69	4106
2026-01-04 01:58:37.66	166.02	54.14	-49.9	-51.4	15.7	6.01e-01	0	29	0	172490752	69	4093
2026-01-04 01:58:38.66	166.50	53.77	-50.0	-51.6	15.7	6.01e-01	0	28	0	174587904	69	4168
2026-01-04 01:58:39.66	166.97	53.40	-50.1	-51.7	15.7	6.00e-01	0	29	0	176685056	69	4209
2026-01-04 01:58:40.66	167.43	53.04	-50.2	-51.8	15.6	6.02e-01	0	29	0	178257920	69	4248
2026-01-04 01:58:41.66	167.88	52.67	-50.1	-51.7	15.7	6.02e-01	0	29	0	180355072	69	4209
2026-01-04 01:58:42.66	168.32	52.31	-50.2	-51.8	15.6	6.02e-01	0	29	0	181927936	69	4283
2026-01-04 01:58:43.66	168.75	51.95	-50.2	-51.7	15.6	6.04e-01	0	28	0	184025088	69	4226
2026-01-04 01:58:44.66	169.16	51.59	-50.2	-51.7	15.7	6.00e-01	0	29	0	185597952	69	4228
2026-01-04 01:58:45.66	169.57	51.23	-50.3	-51.8	15.6	6.01e-01	0	29	0	187695104	69	4283
2026-01-04 01:58:46.66	169.97	50.87	-50.3	-51.9	15.6	6.01e-01	0	29	0	189792256	69	4310
2026-01-04 01:58:47.66	170.35	50.52	-50.7	-52.4	15.5	5.99e-01	0	28	0	191365120	69	4569
2026-01-04 01:58:48.66	170.73	50.16	-50.9	-52.6	15.4	6.01e-01	0	29	0	193462272	69	4670
2026-01-04 01:58:49.65	171.10	49.81	-50.9	-52.5	15.4	6.01e-01	0	29	0	195035136	69	4644
2026-01-04 01:58:50.65	171.46	49.46	-50.9	-52.5	15.4	6.00e-01	0	29	0	197132288	69	4643
2026-01-04 01:58:51.65	171.81	49.11	-50.9	-52.5	15.5	6.00e-01	0	29	0	198705152	69	4644
2026-01-04 01:58:52.64	172.16	48.77	-50.8	-52.5	15.5	6.01e-01	0	28	0	200802304	69	4614
2026-01-04 01:58:53.64	172.49	48.42	-50.9	-52.6	15.4	6.00e-01	0	29	0	202375168	69	4694
2026-01-04 01:58:54.64	172.82	48.08	-50.9	-52.6	15.4	6.01e-01	0	29	0	204472320	69	4687
2026-01-04 01:58:55.64	173.15	47.73	-51.1	-52.8	15.4	6.03e-01	0	29	0	206569472	69	4813
2026-01-04 01:58:56.63	173.46	47.40	-51.0	-52.7	15.5	6.02e-01	0	29	0	208142336	70	4482
2026-01-04 01:58:57.63	173.77	47.06	-50.9	-52.5	15.5	6.02e-01	0	28	0	210239488	70	4369
2026-01-04 01:58:58.63	174.07	46.72	-50.9	-52.5	15.6	6.01e-01	0	29	0	211812352	70	4373
2026-01-04 01:58:59.62	174.37	46.39	-50.8	-52.5	15.6	6.01e-01	0	29	0	213909504	70	4370
2026-01-04 01:59:00.62	174.66	46.06	-50.9	-52.6	15.5	6.01e-01	0	29	0	215482368	70	4399
2026-01-04 01:59:01.62	174.94	45.73	-50.7	-52.4	15.6	6.00e-01	0	29	0	217579520	70	4299
2026-01-04 01:59:02.62	175.22	45.40	-50.6	-52.2	15.6	5.98e-01	0	28	0	219676672	70	4242
2026-01-04 01:59:03.61	175.49	45.08	-50.7	-52.3	15.6	6.03e-01	0	29	0	221249536	70	4280
2026-01-04 01:59:04.61	175.76	44.75	-50.7	-52.4	15.6	6.01e-01	0	28	0	223346688	70	4300
2026-01-04 01:59:05.61	176.02	44.43	-50.7	-52.4	15.6	6.02e-01	0	29	0	224919552	70	4296
2026-01-04 01:59:06.61	176.27	44.11	-50.7	-52.4	15.6	6.02e-01	0	29	0	227016704	70	4298
2026-01-04 01:59:07.61	176.53	43.79	-50.9	-52.6	15.5	6.02e-01	0	29	0	228589568	70	4400
2026-01-04 01:59:08.60	176.77	43.48	-50.8	-52.4	15.6	6.00e-01	0	28	0	230686720	70	4333
2026-01-04 01:59:09.60	177.01	43.16	-50.7	-52.3	15.6	5.99e-01	0	29	0	232783872	70	4288
2026-01-04 01:59:10.59	177.25	42.86	-50.7	-52.4	15.6	6.00e-01	0	28	0	234356736	70	4296
2026-01-04 01:59:11.60	177.48	42.54	-50.8	-52.4	15.6	6.00e-01	0	29	0	236453888	70	4313
2026-01-04 01:59:12.59	177.71	42.24	-50.8	-52.5	15.5	5.98e-01	0	29	0	238026752	70	4353
2026-01-04 01:59:13.59	177.93	41.93	-50.9	-52.6	15.5	6.05e-01	0	28	0	240123904	70	4392
2026-01-04 01:59:14.59	178.15	41.63	-51.0	-52.7	15.5	6.00e-01	0	29	0	241696768	70	4475
2026-01-04 01:59:15.59	178.37	41.33	-51.0	-52.7	15.5	6.00e-01	0	28	0	243793920	70	4462
2026-01-04 01:59:16.60	178.58	41.03	-51.1	-52.8	15.5	6.01e-01	0	29	0	245891072	70	4494
2026-01-04 01:59:17.60	178.79	40.73	-51.3	-53.0	15.4	6.01e-01	0	29	0	247463936	70	4631
2026-01-04 01:59:18.60	178.99	40.44	-51.4	-53.2	15.4	6.02e-01	0	29	0	249561088	70	4721
2026-01-04 01:59:19.60	179.20	40.15	-51.5	-53.3	15.4	6.00e-01	0	29	0	251133952	70	4781
2026-01-04 01:59:20.60	179.39	39.86	-51.5	-53.3	15.3	6.00e-01	0	29	0	253231104	70	4800
2026-01-04 01:59:21.60	179.59	39.57	-51.6	-53.3	15.4	6.00e-01	0	29	0	255328256	71	4543
2026-01-04 01:59:22.60	179.78	39.28	-51.4	-53.1	15.5	6.03e-01	0	29	0	256901120	71	4432
2026-01-04 01:59:23.59	179.96	39.00	-51.1	-52.8	15.6	5.99e-01	0	29	0	258998272	71	4275
2026-01-04 01:59:24.59	180.15	38.72	-51.2	-52.9	15.6	6.02e-01	0	29	0	260571136	71	4295
2026-01-04 01:59:25.59	180.33	38.44	-51.2	-52.9	15.5	6.03e-01	0	29	0	262668288	71	4313
2026-01-04 01:59:26.59	180.50	38.17	-51.1	-52.8	15.6	6.00e-01	0	28	0	264241152	71	4291
2026-01-04 01:59:27.59	180.68	37.89	-51.0	-52.7	15.6	6.01e-01	0	29	0	266338304	71	4212
2026-01-04 01:59:28.58	180.85	37.62	-51.0	-52.7	15.6	6.02e-01	0	29	0	267911168	71	4241
2026-01-04 01:59:29.58	181.02	37.35	-51.0	-52.7	15.6	6.01e-01	0	29	0	270008320	71	4237
2026-01-04 01:59:30.58	181.18	37.08	-51.0	-52.7	15.6	6.03e-01	0	29	0	272105472	71	4223
2026-01-04 01:59:31.57	181.35	36.82	-51.1	-52.8	15.6	5.98e-01	0	29	0	273678336	71	4248
2026-01-04 01:59:32.58	181.51	36.55	-50.9	-52.6	15.6	6.01e-01	0	29	0	275775488	71	4156
2026-01-04 01:59:33.57	181.67	36.29	-50.9	-52.6	15.6	6.03e-01	0	29	0	277348352	71	4193
2026-01-04 01:59:34.57	181.82	36.03	-50.6	-52.2	15.6	6.00e-01	0	29	0	279445504	70	4213
2026-01-04 01:59:35.57	181.97	35.77	-50.6	-52.2	15.6	6.01e-01	0	29	0	281018368	70	4207
2026-01-04 01:59:36.57	182.13	35.52	-50.3	-51.9	15.6	6.04e-01	0	29	0	283115520	69	4318
2026-01-04 01:59:37.57	182.27	35.26	-50.3	-51.9	15.6	6.01e-01	0	29	0	285212672	69	4305
2026-01-04 01:59:38.57	182.42	35.01	-50.2	-51.8	15.6	6.03e-01	0	28	0	286785536	69	4271
2026-01-04 01:59:39.57	182.57	34.76	-50.3	-51.9	15.6	6.01e-01	0	29	0	288882688	69	4302
2026-01-04 01:59:40.57	182.71	34.51	-50.2	-51.8	15.6	6.00e-01	0	29	0	290455552	69	4248
2026-01-04 01:59:41.57	182.85	34.26	-49.9	-51.5	15.7	6.00e-01	0	29	0	292552704	69	4116
2026-01-04 01:59:42.57	182.98	34.02	-49.8	-51.4	15.6	6.03e-01	0	29	0	294125568	68	4325
2026-01-04 01:59:43.57	183.12	33.77	-49.7	-51.3	15.6	6.02e-01	0	29	0	296222720	68	4265
2026-01-04 01:59:44.57	183.25	33.53	-49.6	-51.2	15.6	6.01e-01	0	29	0	298319872	68	4207
2026-01-04 01:59:45.57	183.39	33.29	-49.5	-51.1	15.6	6.00e-01	0	28	0	299892736	68	4152
2026-01-04 01:59:46.57	183.52	33.06	-49.4	-50.9	15.7	6.01e-01	0	28	0	301989888	68	4098
2026-01-04 01:59:47.57	183.64	32.82	-49.5	-51.1	15.7	6.02e-01	0	29	0	303562752	68	4151
2026-01-04 01:59:48.57	183.77	32.59	-49.5	-51.0	15.7	6.01e-01	0	28	0	305659904	68	4105
2026-01-04 01:59:49.56	183.89	32.36	-49.5	-51.0	15.7	5.99e-01	0	29	0	307757056	68	4142
2026-01-04 01:59:50.55	184.02	32.13	-49.3	-50.9	15.7	6.00e-01	0	29	0	309329920	67	4300
2026-01-04 01:59:51.55	184.14	31.90	-49.3	-50.8	15.6	6.04e-01	0	29	0	311427072	67	4264
2026-01-04 01:59:52.55	184.26	31.67	-49.4	-50.9	15.6	6.00e-01	0	29	0	312999936	67	4310
2026-01-04 01:59:53.54	184.37	31.45	-49.4	-50.9	15.6	6.02e-01	0	29	0	315097088	67	4312
2026-01-04 01:59:54.55	184.49	31.22	-49.2	-50.7	15.6	6.01e-01	0	29	0	316669952	67	4222
2026-01-04 01:59:55.54	184.60	31.00	-49.2	-50.7	15.6	6.01e-01	0	29	0	318767104	67	4236
2026-01-04 01:59:56.54	184.72	30.78	-49.3	-50.8	15.6	6.01e-01	0	28	0	320864256	67	4252
2026-01-04 01:59:57.53	184.83	30.57	-49.2	-50.7	15.7	6.00e-01	0	29	0	322437120	67	4234
2026-01-04 01:59:58.53	184.94	30.35	-49.2	-50.7	15.6	5.99e-01	0	29	0	324534272	67	4234
2026-01-04 01:59:59.52	185.04	30.14	-49.2	-50.7	15.6	6.04e-01	0	29	0	326107136	67	4216
2026-01-04 02:00:00.52	185.15	29.92	-49.3	-50.8	15.6	6.01e-01	0	29	0	328204288	67	4256
2026-01-04 02:00:01.52	185.26	29.71	-49.3	-50.8	15.6	6.01e-01	0	29	0	329777152	67	4274
2026-01-04 02:00:02.53	185.36	29.50	-49.3	-50.8	15.6	6.00e-01	0	28	0	331874304	67	4260
2026-01-04 02:00:03.53	185.47	29.29	-49.3	-50.8	15.6	5.99e-01	0	29	0	333447168	67	4284
2026-01-04 02:00:04.53	185.57	29.08	-49.5	-51.0	15.6	6.04e-01	0	29	0	335544320	67	4366
2026-01-04 02:00:05.54	185.67	28.88	-49.5	-51.0	15.6	6.02e-01	0	29	0	337641472	67	4370
2026-01-04 02:00:06.54	185.77	28.67	-49.6	-51.2	15.5	6.00e-01	0	28	0	339214336	67	4462
2026-01-04 02:00:07.53	185.86	28.47	-49.7	-51.3	15.5	6.01e-01	0	29	0	341311488	67	4520
2026-01-04 02:00:08.53	185.96	28.27	-49.8	-51.4	15.5	5.98e-01	0	29	0	342884352	67	4556
2026-01-04 02:00:09.53	186.06	28.07	-49.8	-51.4	15.5	6.01e-01	0	29	0	344981504	67	4557
2026-01-04 02:00:10.53	186.15	27.87	-49.8	-51.4	15.5	6.00e-01	0	29	0	346554368	67	4584
2026-01-04 02:00:11.53	186.24	27.67	-49.8	-51.4	15.5	5.99e-01	0	29	0	348651520	67	4594
2026-01-04 02:00:12.53	186.34	27.48	-49.8	-51.4	15.5	6.02e-01	0	29	0	350748672	67	4573
2026-01-04 02:00:13.53	186.43	27.28	-49.9	-51.4	15.5	6.03e-01	0	29	0	352321536	67	4594
2026-01-04 02:00:14.52	186.52	27.09	-50.0	-51.6	15.5	5.99e-01	0	29	0	354418688	67	4663
2026-01-04 02:00:15.52	186.61	26.90	-50.0	-51.6	15.5	6.00e-01	0	29	0	355991552	67	4691
2026-01-04 02:00:16.51	186.69	26.72	-50.0	-51.7	15.5	6.02e-01	0	28	0	358088704	67	4718
2026-01-04 02:00:17.50	186.78	26.53	-50.1	-51.7	15.4	6.01e-01	0	29	0	359661568	67	4733
2026-01-04 02:00:18.51	186.87	26.34	-50.2	-51.8	15.5	6.01e-01	0	29	0	361758720	68	4510
2026-01-04 02:00:19.51	186.95	26.15	-50.2	-51.8	15.5	6.03e-01	0	29	0	363855872	68	4529
2026-01-04 02:00:20.50	187.03	25.97	-50.2	-51.8	15.5	6.02e-01	0	29	0	365428736	68	4522
2026-01-04 02:00:21.51	187.12	25.79	-50.2	-51.9	15.5	6.02e-01	0	29	0	367525888	68	4552
2026-01-04 02:00:22.51	187.20	25.60	-50.3	-52.0	15.5	6.03e-01	0	29	0	369098752	68	4599
2026-01-04 02:00:23.50	187.28	25.43	-50.4	-52.0	15.4	6.03e-01	0	29	0	371195904	68	4638
2026-01-04 02:00:24.50	187.36	25.25	-50.5	-52.2	15.4	6.00e-01	0	28	0	372768768	68	4719
2026-01-04 02:00:25.50	187.44	25.07	-50.5	-52.2	15.4	6.01e-01	0	28	0	374865920	68	4708
2026-01-04 02:00:26.49	187.52	24.89	-50.4	-52.0	15.4	6.01e-01	0	28	0	376963072	68	4639
2026-01-04 02:00:27.49	187.59	24.72	-50.3	-52.0	15.4	6.04e-01	0	29	0	378535936	68	4620
2026-01-04 02:00:28.48	187.67	24.54	-50.4	-52.0	15.5	6.02e-01	0	29	0	380633088	68	4639
2026-01-04 02:00:29.48	187.74	24.37	-50.4	-52.0	15.5	6.00e-01	0	28	0	382205952	68	4639
2026-01-04 02:00:30.48	187.82	24.20	-50.3	-51.9	15.5	6.02e-01	0	29	0	384303104	68	4598
2026-01-04 02:00:31.49	187.89	24.03	-50.2	-51.8	15.5	6.02e-01	0	29	0	385875968	68	4522
2026-01-04 02:00:32.49	187.97	23.86	-50.2	-51.8	15.5	6.01e-01	0	29	0	387973120	68	4531
2026-01-04 02:00:33.49	188.04	23.69	-50.2	-51.8	15.5	5.99e-01	0	29	0	389545984	68	4544
2026-01-04 02:00:34.49	188.11	23.52	-50.3	-52.0	15.5	5.99e-01	0	29	0	391643136	68	4599
2026-01-04 02:00:35.48	188.18	23.36	-50.3	-52.0	15.5	6.05e-01	0	29	0	393740288	68	4609
2026-01-04 02:00:36.48	188.25	23.19	-50.3	-52.0	15.5	6.01e-01	0	29	0	395313152	68	4603
2026-01-04 02:00:37.47	188.32	23.03	-50.3	-52.0	15.5	6.01e-01	0	29	0	397410304	68	4600
2026-01-04 02:00:38.47	188.39	22.87	-50.4	-52.1	15.5	6.03e-01	0	29	0	398983168	68	4655
2026-01-04 02:00:39.47	188.46	22.70	-50.3	-52.0	15.5	6.01e-01	0	28	0	401080320	68	4616
2026-01-04 02:00:40.47	188.53	22.54	-50.4	-52.1	15.4	6.01e-01	0	29	0	403177472	68	4653
2026-01-04 02:00:41.48	188.60	22.38	-50.4	-52.1	15.4	5.99e-01	0	29	0	404750336	68	4681
2026-01-04 02:00:42.49	188.66	22.22	-50.3	-52.0	15.5	5.99e-01	0	29	0	406847488	68	4628
2026-01-04 02:00:43.48	188.73	22.06	-50.3	-52.0	15.5	6.01e-01	0	29	0	408420352	68	4624
2026-01-04 02:00:44.48	188.79	21.91	-50.3	-52.0	15.5	6.01e-01	0	29	0	410517504	68	4603
2026-01-04 02:00:45.48	188.86	21.75	-50.3	-52.0	15.5	6.01e-01	0	29	0	412090368	68	4606
2026-01-04 02:00:46.48	188.92	21.60	-50.4	-52.1	15.4	5.99e-01	0	29	0	414187520	68	4670
2026-01-04 02:00:47.48	188.98	21.44	-50.2	-51.9	15.5	5.99e-01	0	29	0	416284672	68	4566
2026-01-04 02:00:48.49	189.05	21.29	-50.2	-51.9	15.5	6.04e-01	0	29	0	417857536	68	4546
2026-01-04 02:00:49.48	189.11	21.14	-50.2	-51.8	15.5	6.02e-01	0	29	0	419954688	68	4529
2026-01-04 02:00:50.49	189.17	20.99	-50.2	-51.9	15.5	6.02e-01	0	29	0	421527552	68	4547
2026-01-04 02:00:51.48	189.23	20.84	-50.2	-51.8	15.5	6.04e-01	0	29	0	423624704	68	4519
2026-01-04 02:00:52.48	189.29	20.69	-50.3	-51.9	15.5	6.00e-01	0	29	0	425197568	68	4581
2026-01-04 02:00:53.47	189.35	20.54	-50.1	-51.8	15.5	6.02e-01	0	29	0	427294720	68	4514
2026-01-04 02:00:54.47	189.41	20.40	-50.1	-51.8	15.5	6.01e-01	0	29	0	429391872	68	4509
2026-01-04 02:00:55.47	189.46	20.25	-50.1	-51.7	15.5	6.01e-01	0	29	0	430964736	68	4479
2026-01-04 02:00:56.47	189.52	20.10	-49.9	-51.6	15.5	6.01e-01	0	29	0	433061888	68	4396
2026-01-04 02:00:57.46	189.58	19.96	-50.0	-51.6	15.5	5.99e-01	0	29	0	434634752	68	4430
2026-01-04 02:00:58.47	189.64	19.82	-50.0	-51.6	15.6	6.02e-01	0	28	0	436731904	68	4421
2026-01-04 02:00:59.47	189.69	19.67	-49.9	-51.6	15.6	6.00e-01	0	28	0	438304768	68	4393
2026-01-04 02:01:00.46	189.75	19.53	-50.0	-51.6	15.5	6.00e-01	0	29	0	440401920	68	4404
2026-01-04 02:01:01.46	189.80	19.39	-49.9	-51.5	15.6	6.03e-01	0	29	0	442499072	68	4341
2026-01-04 02:01:02.45	189.86	19.25	-49.9	-51.5	15.6	6.05e-01	0	29	0	444071936	68	4347
2026-01-04 02:01:03.45	189.91	19.12	-49.8	-51.5	15.6	6.05e-01	0	29	0	446169088	68	4343
2026-01-04 02:01:04.44	189.97	18.98	-50.0	-51.6	15.5	6.02e-01	0	29	0	447741952	68	4413
2026-01-04 02:01:05.43	190.02	18.84	-49.9	-51.5	15.6	5.97e-01	0	28	0	449839104	68	4384
2026-01-04 02:01:06.44	190.07	18.70	-49.9	-51.5	15.6	6.01e-01	0	29	0	451411968	68	4386
2026-01-04 02:01:07.43	190.12	18.57	-49.9	-51.5	15.6	6.03e-01	0	29	0	453509120	68	4346
2026-01-04 02:01:08.42	190.17	18.44	-50.0	-51.6	15.6	6.03e-01	0	28	0	455081984	68	4412
2026-01-04 02:01:09.42	190.23	18.30	-49.9	-51.5	15.6	6.06e-01	0	29	0	457179136	68	4384
2026-01-04 02:01:10.41	190.28	18.17	-49.9	-51.5	15.6	5.99e-01	0	29	0	459276288	68	4369
2026-01-04 02:01:11.40	190.33	18.04	-49.9	-51.5	15.6	6.02e-01	0	29	0	460849152	68	4358
2026-01-04 02:01:12.39	190.38	17.91	-49.9	-51.5	15.6	6.01e-01	0	29	0	462946304	68	4362
2026-01-04 02:01:13.40	190.43	17.77	-49.8	-51.4	15.6	6.00e-01	0	29	0	464519168	68	4320
2026-01-04 02:01:14.40	190.48	17.64	-49.8	-51.4	15.6	6.00e-01	0	29	0	466616320	68	4338
2026-01-04 02:01:15.39	190.52	17.52	-49.8	-51.4	15.6	6.01e-01	0	29	0	468189184	68	4311
2026-01-04 02:01:16.37	190.57	17.39	-49.8	-51.4	15.6	6.02e-01	0	29	0	470286336	68	4336
2026-01-04 02:01:17.37	190.62	17.26	-49.7	-51.3	15.6	6.01e-01	0	29	0	472383488	68	4279
2026-01-04 02:01:18.38	190.67	17.13	-49.8	-51.4	15.6	5.99e-01	0	29	0	473956352	68	4292
2026-01-04 02:01:19.38	190.72	17.00	-49.8	-51.3	15.6	6.01e-01	0	29	0	476053504	68	4286
2026-01-04 02:01:20.37	190.76	16.88	-49.7	-51.3	15.6	6.01e-01	0	29	0	477626368	68	4280
2026-01-04 02:01:21.38	190.81	16.75	-49.8	-51.4	15.6	6.00e-01	0	29	0	479723520	68	4298
2026-01-04 02:01:22.38	190.86	16.63	-49.7	-51.3	15.6	5.99e-01	0	29	0	481820672	68	4271
2026-01-04 02:01:23.38	190.90	16.50	-49.8	-51.4	15.6	6.01e-01	0	29	0	483393536	68	4299
2026-01-04 02:01:24.38	190.95	16.38	-49.7	-51.3	15.6	6.01e-01	0	29	0	485490688	68	4250
2026-01-04 02:01:25.37	190.99	16.26	-49.8	-51.4	15.6	6.01e-01	0	29	0	487063552	68	4307
2026-01-04 02:01:26.37	191.04	16.14	-49.7	-51.3	15.6	6.01e-01	0	28	0	489160704	68	4284
2026-01-04 02:01:27.37	191.08	16.02	-49.7	-51.3	15.6	6.01e-01	0	29	0	490733568	68	4249
2026-01-04 02:01:28.37	191.13	15.89	-49.8	-51.4	15.6	6.03e-01	0	29	0	492830720	68	4298
2026-01-04 02:01:29.37	191.17	15.77	-49.7	-51.2	15.7	6.02e-01	0	29	0	494927872	68	4232
2026-01-04 02:01:30.37	191.21	15.65	-49.8	-51.4	15.6	6.01e-01	0	28	0	496500736	68	4304
2026-01-04 02:01:31.37	191.26	15.54	-49.8	-51.4	15.6	6.01e-01	0	29	0	498597888	68	4333
2026-01-04 02:01:32.37	191.30	15.42	-49.8	-51.4	15.6	6.01e-01	0	29	0	500170752	68	4326
2026-01-04 02:01:33.37	191.34	15.30	-49.8	-51.4	15.6	6.01e-01	0	29	0	502267904	68	4327
2026-01-04 02:01:34.37	191.38	15.18	-49.8	-51.4	15.6	6.01e-01	0	29	0	503840768	68	4334
2026-01-04 02:01:35.37	191.42	15.07	-49.8	-51.5	15.6	6.01e-01	0	29	0	505937920	68	4342
2026-01-04 02:01:36.37	191.47	14.95	-49.9	-51.5	15.6	6.00e-01	0	29	0	508035072	68	4370
2026-01-04 02:01:37.37	191.51	14.84	-49.9	-51.5	15.6	6.00e-01	0	28	0	509607936	68	4368
2026-01-04 02:01:38.37	191.55	14.72	-49.9	-51.5	15.6	6.02e-01	0	29	0	511705088	68	4388
2026-01-04 02:01:39.36	191.59	14.61	-49.9	-51.5	15.5	5.99e-01	0	29	0	513277952	68	4390
2026-01-04 02:01:40.36	191.63	14.49	-50.0	-51.7	15.5	6.00e-01	0	29	0	515375104	68	4451
2026-01-04 02:01:41.36	191.67	14.38	-49.9	-51.6	15.5	6.02e-01	0	29	0	516947968	68	4410
2026-01-04 02:01:42.36	191.71	14.27	-49.9	-51.6	15.5	6.04e-01	0	29	0	519045120	68	4401
2026-01-04 02:01:43.36	191.75	14.16	-50.0	-51.7	15.5	6.02e-01	0	29	0	520617984	68	4449
2026-01-04 02:01:44.36	191.79	14.05	-50.1	-51.8	15.5	6.02e-01	0	29	0	522715136	68	4508
2026-01-04 02:01:45.36	191.82	13.94	-50.0	-51.7	15.5	6.01e-01	0	29	0	524812288	68	4457
2026-01-04 02:01:46.36	191.86	13.83	-50.1	-51.8	15.5	6.01e-01	0	29	0	526385152	68	4499
2026-01-04 02:01:47.36	191.90	13.72	-50.0	-51.6	15.5	6.02e-01	0	29	0	528482304	68	4431
2026-01-04 02:01:48.36	191.94	13.61	-50.0	-51.7	15.5	6.01e-01	0	29	0	530055168	68	4468
2026-01-04 02:01:49.36	191.98	13.50	-50.0	-51.7	15.5	6.01e-01	0	28	0	532152320	68	4476
2026-01-04 02:01:50.36	192.01	13.39	-50.0	-51.7	15.5	6.03e-01	0	29	0	534249472	68	4477
2026-01-04 02:01:51.35	192.05	13.28	-50.0	-51.7	15.5	5.99e-01	0	29	0	535822336	68	4447
2026-01-04 02:01:52.35	192.09	13.18	-50.0	-51.7	15.5	6.03e-01	0	29	0	537919488	68	4449
2026-01-04 02:01:53.35	192.12	13.07	-50.0	-51.7	15.5	6.00e-01	0	29	0	539492352	68	4468
2026-01-04 02:01:54.35	192.16	12.96	-50.2	-51.9	15.4	6.05e-01	0	29	0	541589504	68	4583
2026-01-04 02:01:55.35	192.20	12.86	-50.0	-51.7	15.5	6.00e-01	0	28	0	543162368	68	4473
2026-01-04 02:01:56.34	192.23	12.76	-50.1	-51.8	15.5	6.01e-01	0	28	0	545259520	68	4500
2026-01-04 02:01:57.34	192.27	12.65	-50.1	-51.8	15.5	6.01e-01	0	29	0	547356672	68	4499
2026-01-04 02:01:58.34	192.30	12.55	-49.9	-51.6	15.5	5.98e-01	0	29	0	548929536	68	4416
2026-01-04 02:01:59.34	192.34	12.44	-50.0	-51.7	15.5	6.01e-01	0	29	0	551026688	68	4478
2026-01-04 02:02:00.33	192.37	12.34	-50.1	-51.7	15.5	6.01e-01	0	29	0	552599552	68	4491
2026-01-04 02:02:01.32	192.41	12.24	-49.9	-51.6	15.5	6.00e-01	0	29	0	554696704	68	4421
2026-01-04 02:02:02.31	192.44	12.14	-50.0	-51.7	15.5	6.04e-01	0	29	0	556269568	68	4444
2026-01-04 02:02:03.32	192.48	12.04	-50.1	-51.7	15.5	6.00e-01	0	29	0	558366720	68	4492
2026-01-04 02:02:04.31	192.51	11.94	-50.1	-51.7	15.5	5.98e-01	0	29	0	559939584	68	4490
2026-01-04 02:02:05.31	192.54	11.84	-50.1	-51.7	15.5	6.00e-01	0	29	0	562036736	68	4485
2026-01-04 02:02:06.31	192.58	11.73	-50.1	-51.8	15.5	6.02e-01	0	29	0	564133888	68	4521
2026-01-04 02:02:07.30	192.61	11.64	-50.2	-51.9	15.5	6.01e-01	0	29	0	565706752	68	4574
2026-01-04 02:02:08.30	192.64	11.54	-50.1	-51.8	15.5	6.03e-01	0	28	0	567803904	68	4515
2026-01-04 02:02:09.29	192.68	11.44	-50.1	-51.9	15.5	6.01e-01	0	29	0	569376768	68	4547
2026-01-04 02:02:10.29	192.71	11.34	-50.2	-51.9	15.5	6.00e-01	0	29	0	571473920	68	4560
2026-01-04 02:02:11.29	192.74	11.24	-50.3	-52.0	15.4	6.02e-01	0	29	0	573046784	68	4612
2026-01-04 02:02:12.30	192.77	11.14	-50.3	-52.1	15.4	6.02e-01	0	28	0	575143936	68	4665
2026-01-04 02:02:13.29	192.81	11.05	-50.3	-52.0	15.4	6.01e-01	0	29	0	577241088	68	4638
2026-01-04 02:02:14.30	192.84	10.95	-50.2	-52.0	15.4	6.01e-01	0	29	0	578813952	68	4609
2026-01-04 02:02:15.30	192.87	10.85	-50.2	-52.0	15.4	6.02e-01	0	29	0	580911104	68	4610
2026-01-04 02:02:16.30	192.90	10.76	-50.4	-52.1	15.4	6.05e-01	0	29	0	582483968	68	4692
2026-01-04 02:02:17.28	192.93	10.66	-50.3	-52.1	15.4	5.99e-01	0	29	0	584581120	68	4665
2026-01-04 02:02:18.28	192.96	10.57	-50.3	-52.0	15.4	6.02e-01	0	29	0	586153984	68	4639
2026-01-04 02:02:19.27	192.99	10.47	-50.4	-52.1	15.4	6.00e-01	0	29	0	588251136	68	4703
2026-01-04 02:02:20.28	193.03	10.38	-50.3	-52.1	15.4	5.99e-01	0	29	0	590348288	68	4667
2026-01-04 02:02:21.28	193.06	10.29	-50.4	-52.2	15.4	6.00e-01	0	29	0	591921152	68	4730
2026-01-04 02:02:22.28	193.09	10.19	-50.5	-52.3	15.4	6.00e-01	0	29	0	594018304	68	4786
2026-01-04 02:02:23.28	193.12	10.10	-50.6	-52.4	15.4	6.01e-01	0	29	0	595591168	68	4835
2026-01-04 02:02:24.28	193.15	10.01	-50.5	-52.2	15.4	6.02e-01	0	29	0	597688320	68	4752
2026-01-04 02:02:25.27	193.18	9.91	-50.5	-52.2	15.4	5.98e-01	0	29	0	599261184	68	4750
2026-01-04 02:02:26.28	193.21	9.82	-50.5	-52.3	15.4	6.03e-01	0	28	0	601358336	68	4779
2026-01-04 02:02:27.28	193.24	9.73	-50.5	-52.3	15.4	6.03e-01	0	29	0	603455488	68	4780
2026-01-04 02:02:28.28	193.27	9.64	-50.6	-52.4	15.4	6.01e-01	0	29	0	605028352	69	4584
2026-01-04 02:02:29.28	193.29	9.55	-50.6	-52.4	15.4	6.00e-01	0	29	0	607125504	69	4576
2026-01-04 02:02:30.28	193.32	9.46	-50.6	-52.4	15.4	6.00e-01	0	29	0	608698368	69	4588
2026-01-04 02:02:31.28	193.35	9.37	-50.5	-52.3	15.4	5.99e-01	0	29	0	610795520	69	4526
2026-01-04 02:02:32.28	193.38	9.28	-50.6	-52.4	15.4	6.03e-01	0	29	0	612892672	69	4567
2026-01-04 02:02:33.27	193.41	9.19	-50.6	-52.4	15.4	6.00e-01	0	29	0	614465536	69	4558
2026-01-04 02:02:34.27	193.44	9.10	-50.6	-52.4	15.4	6.00e-01	0	29	0	616562688	69	4565
2026-01-04 02:02:35.27	193.47	9.01	-50.7	-52.5	15.4	6.00e-01	0	29	0	618135552	69	4606
2026-01-04 02:02:36.27	193.49	8.92	-50.7	-52.6	15.4	5.98e-01	0	29	0	620232704	69	4653
2026-01-04 02:02:37.27	193.52	8.83	-50.7	-52.6	15.4	6.03e-01	0	29	0	621805568	69	4657
2026-01-04 02:02:38.27	193.55	8.75	-50.6	-52.5	15.4	6.02e-01	0	29	0	623902720	69	4603
2026-01-04 02:02:39.27	193.58	8.66	-50.7	-52.5	15.4	6.02e-01	0	29	0	625475584	69	4625
2026-01-04 02:02:40.26	193.60	8.57	-50.7	-52.5	15.4	6.03e-01	0	29	0	627572736	69	4646
2026-01-04 02:02:41.26	193.63	8.49	-50.8	-52.6	15.4	6.00e-01	0	29	0	629669888	69	4686
2026-01-04 02:02:42.26	193.66	8.40	-50.7	-52.6	15.4	5.99e-01	0	29	0	631242752	69	4670
2026-01-04 02:02:43.26	193.68	8.31	-50.8	-52.7	15.3	6.02e-01	0	29	0	633339904	69	4713
2026-01-04 02:02:44.26	193.71	8.23	-50.8	-52.6	15.4	6.01e-01	0	29	0	634912768	69	4695
2026-01-04 02:02:45.26	193.74	8.14	-50.8	-52.7	15.4	6.01e-01	0	29	0	637009920	69	4723
2026-01-04 02:02:46.25	193.76	8.06	-50.9	-52.8	15.3	6.01e-01	0	29	0	638582784	69	4782
2026-01-04 02:02:47.25	193.79	7.97	-50.8	-52.6	15.4	6.04e-01	0	29	0	640679936	69	4700
2026-01-04 02:02:48.26	193.82	7.89	-50.9	-52.8	15.3	6.03e-01	0	29	0	642777088	69	4797
2026-01-04 02:02:49.26	193.84	7.80	-50.9	-52.8	15.3	5.99e-01	0	29	0	644349952	69	4791
2026-01-04 02:02:50.25	193.87	7.72	-50.9	-52.8	15.3	6.04e-01	0	29	0	646447104	69	4785
2026-01-04 02:02:51.25	193.89	7.64	-50.9	-52.8	15.3	5.99e-01	0	29	0	648019968	69	4798
2026-01-04 02:02:52.25	193.92	7.55	-50.9	-52.8	15.3	6.02e-01	0	29	0	650117120	69	4778
2026-01-04 02:02:53.24	193.94	7.47	-51.0	-52.9	15.3	6.00e-01	0	29	0	651689984	69	4821
2026-01-04 02:02:54.23	193.97	7.39	-51.0	-52.9	15.3	5.99e-01	0	29	0	653787136	69	4828
2026-01-04 02:02:55.23	194.00	7.31	-51.0	-52.9	15.3	6.03e-01	0	29	0	655884288	69	4865
2026-01-04 02:02:56.23	194.02	7.23	-51.0	-52.9	15.3	6.00e-01	0	29	0	657457152	69	4839
2026-01-04 02:02:57.23	194.05	7.14	-51.0	-53.0	15.3	5.98e-01	0	29	0	659554304	69	4886
2026-01-04 02:02:58.23	194.07	7.06	-51.0	-53.0	15.3	6.02e-01	0	29	0	661127168	69	4883
2026-01-04 02:02:59.22	194.09	6.98	-51.1	-53.0	15.3	5.98e-01	0	29	0	663224320	69	4909
2026-01-04 02:03:00.22	194.12	6.90	-51.1	-53.1	15.3	6.00e-01	0	29	0	664797184	70	4661
2026-01-04 02:03:01.21	194.14	6.82	-51.1	-53.0	15.4	6.03e-01	0	29	0	666894336	70	4629
2026-01-04 02:03:02.21	194.17	6.74	-51.2	-53.1	15.3	6.00e-01	0	29	0	668467200	70	4692
2026-01-04 02:03:03.21	194.19	6.66	-51.2	-53.2	15.3	6.02e-01	0	29	0	670564352	70	4740
2026-01-04 02:03:04.21	194.22	6.58	-51.2	-53.2	15.3	6.01e-01	0	29	0	672661504	70	4714
2026-01-04 02:03:05.21	194.24	6.50	-51.3	-53.3	15.3	6.04e-01	0	29	0	674234368	70	4782
2026-01-04 02:03:06.21	194.26	6.42	-51.3	-53.2	15.3	6.03e-01	0	29	0	676331520	70	4758
2026-01-04 02:03:07.20	194.29	6.34	-51.2	-53.2	15.3	6.00e-01	0	29	0	677904384	70	4722
2026-01-04 02:03:08.20	194.31	6.26	-51.4	-53.4	15.2	6.00e-01	0	29	0	680001536	70	4835
2026-01-04 02:03:09.20	194.33	6.19	-51.5	-53.5	15.2	6.00e-01	0	29	0	681574400	70	4899
2026-01-04 02:03:10.20	194.36	6.11	-51.3	-53.4	15.3	6.00e-01	0	29	0	683671552	70	4829
2026-01-04 02:03:11.20	194.38	6.03	-51.5	-53.5	15.2	6.02e-01	0	29	0	685768704	70	4912
