passes_logs/2026/01/04/R3.2S_Murmansk/R3.2S_Murmansk__20260104_131015_AQUA_rec.log

#Pass ID: 20260104_131015_AQUA
#Satellite: AQUA
#Configuration: AQUA
#almurnet v.1.7.20251203
#Start time: 2026-01-04 13:10:14

#Version: 2.2.20231116
#Station: R3.2S_Murmansk
#Location: 33.079688 lon 68.888172 lat
#TLE: 1 27424U 02022A   26003.93831471  .00001925  00000+0  39553-3 0  9996
#TLE: 2 27424  98.4067 330.1809 0002002  92.1714 343.8415 14.61796291259276

#Time	Az	El	Level	Level2	SNR	BER	BlckErr	Temp	State	Recorded	gain1	gain2
2026-01-04 13:10:14.45	202.47	1.96	-58.7	-77.9	3.8	7.45e-01	0	28	0	0	86	32249
2026-01-04 13:10:15.44	202.54	2.02	-58.7	-77.8	3.8	7.45e-01	0	28	104	0	85	34073
2026-01-04 13:10:16.44	202.61	2.08	-58.7	-77.8	3.8	7.46e-01	0	28	104	0	85	33973
2026-01-04 13:10:17.44	202.68	2.14	-58.6	-77.8	3.8	7.45e-01	0	28	104	0	85	33717
2026-01-04 13:10:18.44	202.75	2.20	-58.6	-77.7	3.8	7.45e-01	0	28	104	0	85	33322
2026-01-04 13:10:19.44	202.81	2.26	-58.6	-77.7	3.8	7.44e-01	0	28	104	0	85	33406
2026-01-04 13:10:20.44	202.88	2.32	-58.6	-77.6	3.8	7.48e-01	0	28	104	0	85	33199
2026-01-04 13:10:21.44	202.95	2.38	-58.7	-77.7	3.8	7.46e-01	0	28	104	0	85	33552
2026-01-04 13:10:22.44	203.02	2.44	-58.6	-77.8	3.8	7.46e-01	0	28	104	0	85	33937
2026-01-04 13:10:23.43	203.09	2.50	-58.6	-77.9	3.8	7.47e-01	0	28	104	0	85	34217
2026-01-04 13:10:24.43	203.16	2.57	-58.6	-77.8	3.8	7.46e-01	0	28	104	0	85	33862
2026-01-04 13:10:25.43	203.23	2.63	-58.6	-77.7	3.8	7.46e-01	0	28	104	0	85	33637
2026-01-04 13:10:26.43	203.30	2.69	-58.6	-77.6	3.8	7.44e-01	0	28	104	0	85	33111
2026-01-04 13:10:27.43	203.38	2.75	-58.6	-77.5	3.8	7.46e-01	0	28	104	0	85	32724
2026-01-04 13:10:28.43	203.45	2.81	-58.7	-77.4	3.8	7.45e-01	0	28	104	0	85	32419
2026-01-04 13:10:29.43	203.52	2.87	-58.6	-77.4	3.8	7.42e-01	0	28	104	0	85	32489
2026-01-04 13:10:30.43	203.59	2.93	-58.6	-77.5	3.8	7.46e-01	0	29	104	0	85	32704
2026-01-04 13:10:31.43	203.66	2.99	-58.6	-77.5	3.8	7.47e-01	0	28	104	0	85	32882
2026-01-04 13:10:32.43	203.74	3.06	-58.6	-77.7	3.8	7.49e-01	0	28	104	0	85	33460
2026-01-04 13:10:33.44	203.81	3.12	-58.6	-77.8	3.8	7.45e-01	0	28	104	0	85	34028
2026-01-04 13:10:34.43	203.88	3.18	-58.7	-77.9	3.8	7.47e-01	0	28	104	0	85	34450
2026-01-04 13:10:35.43	203.96	3.24	-58.6	-78.0	3.8	7.47e-01	0	28	104	0	85	34640
2026-01-04 13:10:36.43	204.03	3.30	-58.6	-77.9	3.8	7.45e-01	0	28	104	0	85	34446
2026-01-04 13:10:37.43	204.11	3.37	-58.6	-77.8	3.8	7.47e-01	0	29	104	0	85	33738
2026-01-04 13:10:38.43	204.18	3.43	-58.6	-77.5	3.9	7.48e-01	0	28	104	0	85	32886
2026-01-04 13:10:39.44	204.26	3.49	-58.6	-77.3	3.8	7.45e-01	0	29	104	0	85	31854
2026-01-04 13:10:40.44	204.33	3.55	-58.6	-77.0	3.8	7.45e-01	0	29	104	0	85	31046
2026-01-04 13:10:41.43	204.41	3.62	-58.6	-77.0	3.8	7.46e-01	0	29	104	0	85	31044
2026-01-04 13:10:42.43	204.48	3.68	-58.6	-77.0	3.8	7.47e-01	0	29	104	0	85	30814
2026-01-04 13:10:43.43	204.56	3.74	-58.6	-77.0	3.8	7.47e-01	0	29	104	0	85	30895
2026-01-04 13:10:44.43	204.64	3.80	-58.6	-77.0	3.9	7.46e-01	0	29	104	0	85	30777
2026-01-04 13:10:45.44	204.72	3.87	-58.6	-76.4	3.9	7.45e-01	0	29	104	0	85	28899
2026-01-04 13:10:46.44	204.79	3.93	-58.6	-76.0	3.8	7.42e-01	0	29	104	0	85	27694
2026-01-04 13:10:47.42	204.87	3.99	-58.6	-75.4	3.9	7.45e-01	0	29	104	0	85	25640
2026-01-04 13:10:48.43	204.95	4.06	-58.6	-75.5	3.8	7.42e-01	0	29	104	0	85	26071
2026-01-04 13:10:49.43	205.03	4.12	-58.6	-75.9	3.9	7.46e-01	0	29	104	0	85	27212
2026-01-04 13:10:50.44	205.11	4.19	-58.6	-76.8	3.8	7.49e-01	0	29	104	0	85	30266
2026-01-04 13:10:51.44	205.19	4.25	-58.6	-77.9	3.8	7.44e-01	0	29	104	0	85	34150
2026-01-04 13:10:52.44	205.27	4.31	-58.6	-77.8	3.8	7.45e-01	0	29	104	0	85	34046
2026-01-04 13:10:53.44	205.35	4.38	-58.6	-76.2	3.9	7.47e-01	0	29	104	0	85	28096
2026-01-04 13:10:54.44	205.43	4.44	-58.5	-74.2	3.9	7.42e-01	0	29	104	0	85	22416
2026-01-04 13:10:55.44	205.51	4.51	-58.4	-71.1	5.6	6.88e-01	92	29	0	0	85	15753
2026-01-04 13:10:56.44	205.59	4.57	-58.3	-69.8	6.5	6.67e-01	92	29	0	1572864	85	13564
2026-01-04 13:10:57.44	205.67	4.64	-58.3	-69.3	7.0	6.59e-01	92	29	0	3670016	85	12716
2026-01-04 13:10:58.44	205.75	4.70	-58.2	-69.0	7.2	6.54e-01	92	29	0	5767168	85	12310
2026-01-04 13:10:59.44	205.83	4.77	-58.3	-69.3	6.9	6.60e-01	92	29	0	7340032	85	12795
2026-01-04 13:11:00.43	205.92	4.83	-58.3	-69.6	6.8	6.64e-01	92	29	0	9437184	85	13146
2026-01-04 13:11:01.43	206.00	4.90	-58.3	-69.4	6.8	6.61e-01	92	29	0	11010048	85	12925
2026-01-04 13:11:02.44	206.08	4.96	-58.2	-68.6	7.5	6.49e-01	79	29	0	13107200	85	11694
2026-01-04 13:11:03.44	206.17	5.03	-57.9	-66.5	9.2	6.24e-01	0	29	0	14680064	85	9267
2026-01-04 13:11:04.43	206.25	5.09	-58.4	-70.2	7.0	6.74e-01	92	29	0	16777216	84	15044
2026-01-04 13:11:05.43	206.34	5.16	-58.5	-74.4	3.8	7.43e-01	0	29	104	16777216	84	24204
2026-01-04 13:11:06.42	206.42	5.23	-56.0	-60.2	13.6	6.08e-01	0	29	0	17825792	79	6337
2026-01-04 13:11:07.43	206.51	5.29	-55.9	-60.1	13.4	6.07e-01	0	29	0	19398656	81	5559
2026-01-04 13:11:08.43	206.59	5.36	-52.9	-55.3	15.3	6.07e-01	0	29	0	21495808	75	4526
2026-01-04 13:11:09.42	206.68	5.42	-52.8	-55.2	15.2	6.05e-01	0	29	0	23068672	74	4743
2026-01-04 13:11:10.42	206.76	5.49	-52.6	-54.9	15.3	6.07e-01	0	29	0	25165824	74	4575
2026-01-04 13:11:11.42	206.85	5.56	-52.4	-54.6	15.4	6.06e-01	0	29	0	26738688	74	4427
2026-01-04 13:11:12.42	206.94	5.62	-52.3	-54.6	15.4	6.06e-01	0	29	0	28835840	73	4674
2026-01-04 13:11:13.41	207.03	5.69	-52.4	-54.6	15.3	6.06e-01	0	30	0	30932992	73	4690
2026-01-04 13:11:14.41	207.11	5.76	-52.3	-54.6	15.3	6.07e-01	0	29	0	32505856	73	4675
2026-01-04 13:11:15.41	207.20	5.82	-52.3	-54.5	15.4	6.08e-01	0	29	0	34603008	73	4643
2026-01-04 13:11:16.41	207.29	5.89	-52.3	-54.5	15.4	6.06e-01	0	30	0	36175872	73	4632
2026-01-04 13:11:17.41	207.38	5.96	-52.2	-54.5	15.4	6.05e-01	0	29	0	38273024	73	4647
2026-01-04 13:11:18.41	207.47	6.03	-52.3	-54.6	15.4	6.05e-01	0	30	0	40370176	73	4691
2026-01-04 13:11:19.40	207.56	6.09	-52.2	-54.5	15.4	6.06e-01	0	29	0	41943040	73	4641
2026-01-04 13:11:20.39	207.65	6.16	-52.0	-54.2	15.5	6.06e-01	0	29	0	44040192	73	4466
2026-01-04 13:11:21.39	207.74	6.23	-52.1	-54.3	15.5	6.05e-01	0	30	0	45613056	73	4501
2026-01-04 13:11:22.39	207.83	6.30	-52.1	-54.3	15.5	6.06e-01	0	29	0	47710208	73	4509
2026-01-04 13:11:23.39	207.93	6.37	-52.0	-54.1	15.5	6.07e-01	0	29	0	49283072	73	4437
2026-01-04 13:11:24.39	208.02	6.43	-52.0	-54.0	15.5	6.08e-01	0	30	0	51380224	73	4389
2026-01-04 13:11:25.39	208.11	6.50	-52.0	-54.1	15.5	6.05e-01	0	29	0	52953088	73	4435
2026-01-04 13:11:26.39	208.21	6.57	-52.0	-54.1	15.5	6.05e-01	0	29	0	55050240	73	4419
2026-01-04 13:11:27.40	208.30	6.64	-52.1	-54.1	15.5	6.06e-01	0	30	0	57147392	73	4440
2026-01-04 13:11:28.39	208.39	6.71	-52.0	-54.1	15.5	6.07e-01	0	29	0	58720256	73	4429
2026-01-04 13:11:29.38	208.49	6.78	-52.1	-54.2	15.5	6.06e-01	0	29	0	60817408	73	4454
2026-01-04 13:11:30.38	208.58	6.85	-52.0	-54.1	15.5	6.06e-01	0	30	0	62390272	73	4414
2026-01-04 13:11:31.37	208.68	6.92	-52.0	-54.1	15.5	6.06e-01	0	30	0	64487424	73	4410
2026-01-04 13:11:32.36	208.77	6.99	-52.0	-54.1	15.5	6.08e-01	0	30	0	66060288	73	4409
2026-01-04 13:11:33.37	208.87	7.06	-51.9	-53.9	15.5	6.06e-01	0	30	0	68157440	72	4572
2026-01-04 13:11:34.36	208.97	7.13	-51.9	-54.0	15.5	6.08e-01	0	30	0	70254592	72	4600
2026-01-04 13:11:35.36	209.07	7.20	-51.8	-53.8	15.6	6.07e-01	0	30	0	71827456	72	4499
2026-01-04 13:11:36.35	209.16	7.27	-51.9	-53.9	15.5	6.06e-01	0	30	0	73924608	72	4598
2026-01-04 13:11:37.34	209.26	7.33	-51.8	-53.9	15.5	6.06e-01	0	30	0	75497472	72	4551
2026-01-04 13:11:38.34	209.36	7.41	-51.8	-53.9	15.6	6.05e-01	0	30	0	77594624	72	4560
2026-01-04 13:11:39.33	209.46	7.48	-51.9	-53.9	15.6	6.06e-01	0	30	0	79167488	72	4562
2026-01-04 13:11:40.32	209.56	7.55	-51.8	-53.8	15.6	6.06e-01	0	30	0	81264640	72	4515
2026-01-04 13:11:41.32	209.66	7.62	-51.8	-53.9	15.6	6.06e-01	0	30	0	82837504	72	4552
2026-01-04 13:11:42.31	209.76	7.69	-51.8	-53.8	15.6	6.05e-01	0	30	0	84934656	72	4529
2026-01-04 13:11:43.30	209.86	7.76	-52.0	-54.0	15.6	6.07e-01	0	30	0	87031808	72	4617
2026-01-04 13:11:44.29	209.96	7.83	-51.9	-53.9	15.6	6.06e-01	0	30	0	88604672	72	4589
2026-01-04 13:11:45.29	210.07	7.90	-51.8	-53.8	15.6	6.05e-01	0	30	0	90701824	72	4541
2026-01-04 13:11:46.28	210.17	7.97	-51.8	-53.8	15.6	6.06e-01	0	30	0	92274688	72	4536
2026-01-04 13:11:47.28	210.27	8.04	-51.7	-53.6	15.6	6.07e-01	0	30	0	94371840	72	4436
2026-01-04 13:11:48.28	210.38	8.11	-51.7	-53.7	15.6	6.07e-01	0	30	0	95944704	72	4442
2026-01-04 13:11:49.27	210.48	8.19	-51.7	-53.7	15.6	6.06e-01	0	30	0	98041856	72	4458
2026-01-04 13:11:50.27	210.59	8.26	-51.8	-53.8	15.6	6.04e-01	0	30	0	99614720	72	4499
2026-01-04 13:11:51.26	210.69	8.33	-51.7	-53.6	15.6	6.06e-01	0	30	0	101711872	72	4435
2026-01-04 13:11:52.26	210.80	8.40	-51.6	-53.5	15.7	6.06e-01	0	30	0	103809024	72	4385
2026-01-04 13:11:53.25	210.90	8.48	-51.6	-53.5	15.7	6.09e-01	0	30	0	105381888	72	4374
2026-01-04 13:11:54.24	211.01	8.55	-51.7	-53.6	15.7	6.08e-01	0	30	0	107479040	72	4435
2026-01-04 13:11:55.24	211.12	8.62	-51.6	-53.6	15.7	6.06e-01	0	30	0	109051904	72	4393
2026-01-04 13:11:56.24	211.23	8.69	-51.5	-53.4	15.7	6.04e-01	0	30	0	111149056	72	4337
2026-01-04 13:11:57.24	211.34	8.77	-51.5	-53.4	15.7	6.07e-01	0	30	0	112721920	72	4326
2026-01-04 13:11:58.24	211.45	8.84	-51.5	-53.3	15.7	6.07e-01	0	30	0	114819072	72	4288
2026-01-04 13:11:59.25	211.56	8.92	-51.4	-53.3	15.8	6.05e-01	0	30	0	116916224	72	4257
2026-01-04 13:12:00.25	211.67	8.99	-51.4	-53.3	15.7	6.08e-01	0	30	0	118489088	72	4277
2026-01-04 13:12:01.24	211.78	9.06	-51.5	-53.4	15.7	6.05e-01	0	30	0	120586240	72	4301
2026-01-04 13:12:02.23	211.89	9.14	-51.5	-53.4	15.7	6.06e-01	0	30	0	122159104	72	4320
2026-01-04 13:12:03.22	212.00	9.21	-51.5	-53.4	15.7	6.06e-01	0	30	0	124256256	72	4331
2026-01-04 13:12:04.22	212.12	9.28	-51.5	-53.4	15.7	6.07e-01	0	30	0	125829120	72	4307
2026-01-04 13:12:05.22	212.23	9.36	-51.4	-53.3	15.8	6.05e-01	0	30	0	127926272	72	4266
2026-01-04 13:12:06.22	212.35	9.43	-51.4	-53.3	15.8	6.06e-01	0	30	0	129499136	72	4253
2026-01-04 13:12:07.22	212.46	9.51	-51.4	-53.3	15.8	6.06e-01	0	30	0	131596288	72	4260
2026-01-04 13:12:08.22	212.58	9.58	-51.5	-53.4	15.7	6.08e-01	0	30	0	133693440	72	4295
2026-01-04 13:12:09.22	212.69	9.66	-51.3	-53.2	15.7	6.07e-01	0	30	0	135266304	71	4465
2026-01-04 13:12:10.22	212.81	9.74	-51.3	-53.2	15.7	6.08e-01	0	30	0	137363456	71	4454
2026-01-04 13:12:11.22	212.93	9.81	-51.3	-53.2	15.7	6.06e-01	0	30	0	138936320	71	4460
2026-01-04 13:12:12.21	213.05	9.89	-51.3	-53.2	15.7	6.05e-01	0	30	0	141033472	71	4467
2026-01-04 13:12:13.21	213.17	9.96	-51.3	-53.2	15.7	6.07e-01	0	30	0	143130624	71	4470
2026-01-04 13:12:14.20	213.29	10.04	-51.3	-53.1	15.7	6.06e-01	0	30	0	144703488	71	4437
2026-01-04 13:12:15.20	213.41	10.11	-51.2	-53.0	15.8	6.07e-01	0	30	0	146800640	71	4374
2026-01-04 13:12:16.19	213.53	10.19	-51.3	-53.1	15.8	6.06e-01	0	30	0	148373504	71	4440
2026-01-04 13:12:17.19	213.65	10.27	-51.3	-53.1	15.8	6.06e-01	0	30	0	150470656	71	4411
2026-01-04 13:12:18.19	213.77	10.34	-51.2	-53.0	15.8	6.07e-01	0	30	0	152043520	71	4390
2026-01-04 13:12:19.18	213.89	10.42	-51.2	-53.0	15.8	6.06e-01	0	30	0	154140672	71	4390
2026-01-04 13:12:20.18	214.02	10.50	-51.1	-52.9	15.8	6.09e-01	0	30	0	155713536	71	4333
2026-01-04 13:12:21.18	214.14	10.57	-51.1	-53.0	15.8	6.07e-01	0	30	0	157810688	71	4348
2026-01-04 13:12:22.18	214.27	10.65	-51.1	-52.9	15.8	6.05e-01	0	30	0	159907840	71	4332
2026-01-04 13:12:23.17	214.39	10.73	-51.1	-53.0	15.8	6.06e-01	0	30	0	161480704	71	4342
2026-01-04 13:12:24.16	214.52	10.80	-51.1	-52.9	15.8	6.07e-01	0	30	0	163577856	71	4334
2026-01-04 13:12:25.16	214.64	10.88	-51.1	-52.9	15.9	6.07e-01	0	30	0	165150720	71	4295
2026-01-04 13:12:26.17	214.77	10.96	-51.1	-52.9	15.8	6.07e-01	0	30	0	167247872	71	4337
2026-01-04 13:12:27.17	214.90	11.04	-51.0	-52.8	15.9	6.07e-01	0	30	0	168820736	71	4283
2026-01-04 13:12:28.17	215.03	11.12	-51.1	-52.9	15.8	6.07e-01	0	30	0	170917888	71	4295
2026-01-04 13:12:29.17	215.16	11.20	-51.1	-52.9	15.8	6.07e-01	0	30	0	173015040	71	4310
2026-01-04 13:12:30.17	215.29	11.28	-51.0	-52.8	15.9	6.06e-01	0	30	0	174587904	71	4260
2026-01-04 13:12:31.17	215.42	11.35	-50.9	-52.7	15.9	6.08e-01	0	30	0	176685056	71	4194
2026-01-04 13:12:32.16	215.55	11.43	-51.0	-52.7	15.9	6.07e-01	0	30	0	178257920	71	4242
2026-01-04 13:12:33.16	215.69	11.51	-50.9	-52.7	15.9	6.09e-01	0	30	0	180355072	71	4204
2026-01-04 13:12:34.15	215.82	11.59	-51.0	-52.7	15.9	6.06e-01	0	30	0	181927936	71	4236
2026-01-04 13:12:35.14	215.95	11.67	-50.9	-52.7	15.9	6.07e-01	0	30	0	184025088	71	4206
2026-01-04 13:12:36.14	216.09	11.75	-51.1	-52.8	15.9	6.04e-01	0	30	0	185597952	71	4274
2026-01-04 13:12:37.14	216.22	11.83	-51.0	-52.8	15.9	6.05e-01	0	30	0	187695104	71	4266
2026-01-04 13:12:38.14	216.36	11.91	-50.9	-52.7	15.9	6.08e-01	0	30	0	189792256	71	4197
2026-01-04 13:12:39.14	216.50	11.99	-50.9	-52.7	15.9	6.06e-01	0	30	0	191365120	71	4214
2026-01-04 13:12:40.13	216.63	12.07	-50.9	-52.7	15.9	6.07e-01	0	30	0	193462272	71	4219
2026-01-04 13:12:41.14	216.77	12.15	-50.9	-52.7	15.9	6.04e-01	0	30	0	195035136	71	4204
2026-01-04 13:12:42.14	216.91	12.23	-50.9	-52.6	15.8	6.07e-01	0	30	0	197132288	70	4419
2026-01-04 13:12:43.13	217.05	12.31	-50.9	-52.7	15.8	6.07e-01	0	30	0	198705152	70	4457
2026-01-04 13:12:44.14	217.20	12.39	-50.9	-52.6	15.8	6.07e-01	0	30	0	200802304	70	4424
2026-01-04 13:12:45.12	217.34	12.47	-50.8	-52.5	15.9	6.07e-01	0	30	0	202899456	70	4391
2026-01-04 13:12:46.12	217.48	12.55	-50.8	-52.5	15.9	6.07e-01	0	30	0	204472320	70	4384
2026-01-04 13:12:47.12	217.62	12.63	-50.8	-52.5	15.9	6.07e-01	0	30	0	206569472	70	4367
2026-01-04 13:12:48.12	217.77	12.71	-50.8	-52.5	15.9	6.08e-01	0	30	0	208142336	70	4357
2026-01-04 13:12:49.11	217.91	12.79	-50.8	-52.5	15.9	6.07e-01	0	30	0	210239488	70	4381
2026-01-04 13:12:50.11	218.06	12.88	-50.7	-52.5	15.9	6.07e-01	0	30	0	211812352	70	4343
2026-01-04 13:12:51.11	218.21	12.96	-50.8	-52.5	15.9	6.07e-01	0	30	0	213909504	70	4381
2026-01-04 13:12:52.11	218.35	13.04	-50.8	-52.5	15.9	6.06e-01	0	30	0	216006656	70	4353
2026-01-04 13:12:53.11	218.50	13.12	-50.8	-52.5	15.9	6.07e-01	0	30	0	217579520	70	4389
2026-01-04 13:12:54.12	218.65	13.21	-50.7	-52.5	15.9	6.06e-01	0	30	0	219676672	70	4351
2026-01-04 13:12:55.12	218.81	13.29	-50.8	-52.5	15.9	6.08e-01	0	30	0	221249536	70	4386
2026-01-04 13:12:56.13	218.96	13.37	-50.8	-52.6	15.9	6.06e-01	0	30	0	223346688	70	4409
2026-01-04 13:12:57.13	219.11	13.45	-50.8	-52.5	15.9	6.05e-01	0	30	0	225443840	70	4347
2026-01-04 13:12:58.14	219.27	13.54	-50.7	-52.4	15.9	6.07e-01	0	30	0	227016704	70	4309
2026-01-04 13:12:59.14	219.42	13.62	-50.8	-52.5	15.9	6.07e-01	0	30	0	229113856	70	4355
2026-01-04 13:13:00.14	219.58	13.70	-50.6	-52.3	15.9	6.06e-01	0	30	0	230686720	70	4288
2026-01-04 13:13:01.15	219.73	13.79	-50.7	-52.4	15.9	6.05e-01	0	30	0	232783872	70	4301
2026-01-04 13:13:02.15	219.89	13.87	-50.7	-52.4	15.9	6.07e-01	0	30	0	234356736	70	4321
2026-01-04 13:13:03.15	220.05	13.95	-50.7	-52.4	15.9	6.06e-01	0	30	0	236453888	70	4303
2026-01-04 13:13:04.14	220.21	14.04	-50.6	-52.3	15.9	6.06e-01	0	30	0	238551040	70	4253
2026-01-04 13:13:05.15	220.37	14.12	-50.7	-52.4	15.9	6.07e-01	0	30	0	240123904	70	4339
2026-01-04 13:13:06.15	220.53	14.21	-50.6	-52.3	15.9	6.06e-01	0	30	0	242221056	70	4245
2026-01-04 13:13:07.15	220.69	14.29	-50.7	-52.4	15.9	6.05e-01	0	30	0	243793920	70	4315
2026-01-04 13:13:08.15	220.85	14.37	-50.6	-52.3	15.9	6.06e-01	0	30	0	245891072	70	4257
2026-01-04 13:13:09.15	221.02	14.46	-50.7	-52.4	15.9	6.06e-01	0	30	0	247988224	70	4296
2026-01-04 13:13:10.14	221.18	14.54	-50.5	-52.1	16.0	6.06e-01	0	31	0	249561088	70	4187
2026-01-04 13:13:11.14	221.34	14.63	-50.4	-52.1	16.0	6.06e-01	0	30	0	251658240	70	4156
2026-01-04 13:13:12.14	221.51	14.71	-50.5	-52.2	16.0	6.08e-01	0	30	0	253231104	70	4197
2026-01-04 13:13:13.14	221.68	14.79	-50.6	-52.2	15.9	6.06e-01	0	30	0	255328256	70	4239
2026-01-04 13:13:14.14	221.85	14.88	-50.5	-52.2	16.0	6.05e-01	0	30	0	256901120	70	4234
2026-01-04 13:13:15.15	222.02	14.97	-50.6	-52.3	15.9	6.07e-01	0	30	0	258998272	70	4258
2026-01-04 13:13:16.15	222.19	15.05	-50.7	-52.4	15.9	6.06e-01	0	31	0	261095424	70	4299
2026-01-04 13:13:17.15	222.36	15.14	-50.6	-52.3	15.9	6.07e-01	0	31	0	262668288	70	4243
2026-01-04 13:13:18.14	222.53	15.22	-50.4	-52.1	16.0	6.07e-01	0	30	0	264765440	70	4166
2026-01-04 13:13:19.15	222.70	15.31	-50.5	-52.2	16.0	6.06e-01	0	30	0	266338304	70	4201
2026-01-04 13:13:20.15	222.88	15.39	-50.3	-52.0	15.9	6.06e-01	0	30	0	268435456	69	4356
2026-01-04 13:13:21.15	223.05	15.48	-50.3	-51.9	15.9	6.06e-01	0	30	0	270532608	69	4319
2026-01-04 13:13:22.16	223.23	15.56	-50.2	-51.9	16.0	6.06e-01	0	30	0	272105472	69	4300
2026-01-04 13:13:23.17	223.41	15.65	-50.2	-51.8	16.0	6.08e-01	0	30	0	274202624	69	4284
2026-01-04 13:13:24.17	223.59	15.74	-50.2	-51.9	16.0	6.08e-01	0	30	0	275775488	69	4303
2026-01-04 13:13:25.18	223.77	15.82	-50.3	-51.9	16.0	6.07e-01	0	31	0	277872640	69	4327
2026-01-04 13:13:26.17	223.95	15.91	-50.3	-52.0	16.0	6.07e-01	0	30	0	279445504	69	4343
2026-01-04 13:13:27.18	224.14	15.99	-50.2	-51.9	16.0	6.05e-01	0	30	0	281542656	69	4301
2026-01-04 13:13:28.18	224.32	16.08	-50.3	-51.9	15.9	6.08e-01	0	30	0	283639808	69	4326
2026-01-04 13:13:29.18	224.50	16.17	-50.3	-51.9	15.9	6.08e-01	0	30	0	285212672	69	4338
2026-01-04 13:13:30.18	224.69	16.25	-50.3	-51.9	15.9	6.08e-01	0	30	0	287309824	69	4334
2026-01-04 13:13:31.18	224.87	16.34	-50.3	-52.0	15.9	6.07e-01	0	31	0	288882688	69	4361
2026-01-04 13:13:32.18	225.06	16.43	-50.3	-51.9	15.9	6.06e-01	0	30	0	290979840	69	4329
2026-01-04 13:13:33.18	225.25	16.51	-50.2	-51.8	16.0	6.07e-01	0	30	0	292552704	69	4270
2026-01-04 13:13:34.19	225.44	16.60	-50.2	-51.8	16.0	6.07e-01	0	30	0	294649856	69	4280
2026-01-04 13:13:35.19	225.63	16.69	-50.1	-51.7	16.0	6.06e-01	0	30	0	296747008	69	4235
2026-01-04 13:13:36.19	225.82	16.77	-50.2	-51.8	16.0	6.07e-01	0	30	0	298319872	69	4254
2026-01-04 13:13:37.18	226.02	16.86	-50.2	-51.8	16.0	6.05e-01	0	31	0	300417024	69	4262
2026-01-04 13:13:38.19	226.21	16.95	-50.1	-51.7	16.0	6.07e-01	0	30	0	301989888	69	4206
2026-01-04 13:13:39.18	226.41	17.03	-50.2	-51.9	16.0	6.07e-01	0	30	0	304087040	69	4300
2026-01-04 13:13:40.17	226.60	17.12	-50.3	-51.9	15.9	6.04e-01	0	30	0	305659904	69	4309
2026-01-04 13:13:41.18	226.80	17.21	-50.3	-52.0	15.9	6.07e-01	0	30	0	307757056	69	4355
2026-01-04 13:13:42.19	227.00	17.29	-50.4	-52.0	15.9	6.04e-01	0	30	0	309854208	69	4387
2026-01-04 13:13:43.19	227.20	17.38	-50.4	-52.1	15.9	6.06e-01	0	30	0	311427072	69	4400
2026-01-04 13:13:44.19	227.40	17.47	-50.3	-52.0	15.9	6.07e-01	0	30	0	313524224	69	4367
2026-01-04 13:13:45.19	227.60	17.55	-50.3	-51.9	15.9	6.07e-01	0	30	0	315097088	69	4339
2026-01-04 13:13:46.19	227.81	17.64	-50.2	-51.8	16.0	6.06e-01	0	31	0	317194240	69	4279
2026-01-04 13:13:47.18	228.01	17.73	-50.2	-51.8	16.0	6.06e-01	0	30	0	319291392	69	4279
2026-01-04 13:13:48.18	228.22	17.81	-50.2	-51.9	16.0	6.07e-01	0	31	0	320864256	69	4301
2026-01-04 13:13:49.18	228.42	17.90	-50.2	-51.8	16.0	6.07e-01	0	30	0	322961408	69	4283
2026-01-04 13:13:50.17	228.63	17.99	-50.3	-51.9	16.0	6.04e-01	0	30	0	324534272	69	4327
2026-01-04 13:13:51.16	228.84	18.07	-50.4	-52.0	15.9	6.07e-01	0	30	0	326631424	69	4391
2026-01-04 13:13:52.17	229.05	18.16	-50.4	-52.0	16.0	6.06e-01	0	30	0	328204288	69	4367
2026-01-04 13:13:53.17	229.26	18.25	-50.4	-52.0	16.0	6.06e-01	0	31	0	330301440	69	4366
2026-01-04 13:13:54.17	229.48	18.33	-50.3	-52.0	16.0	6.04e-01	0	30	0	332398592	69	4356
2026-01-04 13:13:55.17	229.69	18.42	-50.3	-51.9	16.0	6.06e-01	0	30	0	333971456	69	4327
2026-01-04 13:13:56.17	229.91	18.51	-50.3	-51.9	16.0	6.06e-01	0	30	0	336068608	69	4318
2026-01-04 13:13:57.17	230.13	18.59	-50.3	-51.9	16.0	6.07e-01	0	30	0	337641472	69	4332
2026-01-04 13:13:58.17	230.34	18.68	-50.2	-51.8	16.0	6.07e-01	0	31	0	339738624	69	4273
2026-01-04 13:13:59.17	230.56	18.77	-50.2	-51.8	16.0	6.05e-01	0	31	0	341311488	69	4282
2026-01-04 13:14:00.16	230.78	18.85	-50.2	-51.8	16.0	6.06e-01	0	30	0	343408640	69	4264
2026-01-04 13:14:01.17	231.01	18.94	-50.2	-51.9	16.0	6.07e-01	0	31	0	345505792	69	4302
2026-01-04 13:14:02.16	231.23	19.02	-50.3	-51.9	16.0	6.07e-01	0	30	0	347078656	69	4325
2026-01-04 13:14:03.16	231.45	19.11	-50.4	-52.0	16.0	6.07e-01	0	30	0	349175808	69	4365
2026-01-04 13:14:04.16	231.68	19.20	-50.3	-52.0	16.0	6.08e-01	0	30	0	350748672	69	4345
2026-01-04 13:14:05.15	231.91	19.28	-50.2	-51.9	16.0	6.07e-01	0	30	0	352845824	69	4307
2026-01-04 13:14:06.15	232.14	19.37	-50.3	-51.9	16.0	6.08e-01	0	30	0	354418688	69	4334
2026-01-04 13:14:07.15	232.37	19.45	-50.2	-51.8	16.0	6.06e-01	0	30	0	356515840	69	4270
2026-01-04 13:14:08.15	232.60	19.54	-50.3	-51.9	16.0	6.06e-01	0	31	0	358612992	69	4305
2026-01-04 13:14:09.15	232.83	19.63	-50.2	-51.8	16.0	6.05e-01	0	31	0	360185856	69	4273
2026-01-04 13:14:10.15	233.06	19.71	-50.3	-52.0	16.0	6.04e-01	0	30	0	362283008	69	4357
2026-01-04 13:14:11.15	233.30	19.80	-50.4	-52.0	16.0	6.09e-01	0	30	0	363855872	69	4384
2026-01-04 13:14:12.15	233.54	19.88	-50.4	-52.0	16.0	6.05e-01	0	31	0	365953024	69	4374
2026-01-04 13:14:13.14	233.77	19.97	-50.3	-52.0	16.0	6.07e-01	0	30	0	367525888	69	4351
2026-01-04 13:14:14.15	234.02	20.05	-50.3	-51.9	16.0	6.09e-01	0	30	0	369623040	69	4323
2026-01-04 13:14:15.14	234.25	20.14	-50.4	-52.0	16.0	6.08e-01	0	30	0	371195904	69	4387
2026-01-04 13:14:16.14	234.50	20.22	-50.3	-52.0	16.0	6.08e-01	0	31	0	373293056	69	4349
2026-01-04 13:14:17.13	234.74	20.30	-50.3	-51.9	16.0	6.05e-01	0	30	0	375390208	69	4339
2026-01-04 13:14:18.12	234.98	20.39	-50.4	-52.0	16.0	6.07e-01	0	30	0	376963072	69	4366
2026-01-04 13:14:19.13	235.23	20.47	-50.4	-52.0	15.9	6.08e-01	0	30	0	379060224	69	4377
2026-01-04 13:14:20.12	235.48	20.55	-50.3	-52.0	15.9	6.06e-01	0	30	0	380633088	69	4352
2026-01-04 13:14:21.12	235.72	20.64	-50.4	-52.0	15.9	6.06e-01	0	30	0	382730240	69	4387
2026-01-04 13:14:22.11	235.97	20.72	-50.4	-52.0	15.9	6.07e-01	0	30	0	384303104	69	4365
2026-01-04 13:14:23.10	236.22	20.80	-50.4	-52.1	15.9	6.06e-01	0	30	0	386400256	69	4408
2026-01-04 13:14:24.09	236.47	20.88	-50.5	-52.1	15.9	6.05e-01	0	31	0	387973120	69	4413
2026-01-04 13:14:25.09	236.73	20.97	-50.4	-52.1	15.9	6.08e-01	0	30	0	390070272	69	4393
2026-01-04 13:14:26.08	236.98	21.05	-50.3	-52.0	16.0	6.08e-01	0	30	0	392167424	69	4349
2026-01-04 13:14:27.07	237.24	21.13	-50.4	-52.1	16.0	6.06e-01	0	31	0	393740288	69	4393
2026-01-04 13:14:28.07	237.50	21.21	-50.3	-51.9	16.0	6.05e-01	0	31	0	395837440	69	4326
2026-01-04 13:14:29.07	237.76	21.29	-50.3	-52.0	16.0	6.08e-01	0	31	0	397410304	69	4343
2026-01-04 13:14:30.07	238.02	21.38	-50.5	-52.1	15.9	6.06e-01	0	30	0	399507456	69	4427
2026-01-04 13:14:31.07	238.28	21.46	-50.5	-52.1	15.9	6.06e-01	0	31	0	401604608	69	4425
2026-01-04 13:14:32.07	238.55	21.54	-50.5	-52.1	15.9	6.03e-01	0	30	0	403177472	69	4412
2026-01-04 13:14:33.07	238.81	21.62	-50.5	-52.2	15.9	6.04e-01	0	30	0	405274624	69	4453
2026-01-04 13:14:34.07	239.08	21.70	-50.6	-52.2	16.0	6.05e-01	0	31	0	406847488	69	4480
2026-01-04 13:14:35.07	239.35	21.78	-50.5	-52.1	15.9	6.06e-01	0	31	0	408944640	69	4429
2026-01-04 13:14:36.07	239.62	21.86	-50.4	-52.0	16.0	6.05e-01	0	30	0	410517504	69	4384
2026-01-04 13:14:37.07	239.89	21.94	-50.5	-52.2	15.9	6.08e-01	0	30	0	412614656	69	4453
2026-01-04 13:14:38.07	240.17	22.01	-50.6	-52.2	15.9	6.07e-01	0	31	0	414711808	69	4485
2026-01-04 13:14:39.07	240.44	22.09	-50.6	-52.2	15.9	6.07e-01	0	31	0	416284672	69	4470
2026-01-04 13:14:40.07	240.72	22.17	-50.6	-52.2	15.9	6.06e-01	0	30	0	418381824	69	4492
2026-01-04 13:14:41.07	240.99	22.25	-50.6	-52.2	15.9	6.06e-01	0	31	0	419954688	69	4472
2026-01-04 13:14:42.07	241.27	22.33	-50.6	-52.3	15.9	6.06e-01	0	31	0	422051840	69	4526
2026-01-04 13:14:43.07	241.55	22.40	-50.5	-52.1	15.9	6.08e-01	0	30	0	423624704	69	4437
2026-01-04 13:14:44.07	241.83	22.48	-50.5	-52.2	15.9	6.08e-01	0	31	0	425721856	69	4459
2026-01-04 13:14:45.06	242.11	22.55	-50.6	-52.2	15.9	6.06e-01	0	31	0	427819008	69	4487
2026-01-04 13:14:46.06	242.40	22.63	-50.5	-52.2	15.9	6.05e-01	0	30	0	429391872	69	4467
2026-01-04 13:14:47.06	242.69	22.70	-50.7	-52.3	15.9	6.06e-01	0	31	0	431489024	69	4537
2026-01-04 13:14:48.05	242.97	22.78	-50.6	-52.2	15.9	6.06e-01	0	31	0	433061888	69	4485
2026-01-04 13:14:49.05	243.26	22.85	-50.6	-52.2	15.9	6.04e-01	0	31	0	435159040	69	4480
2026-01-04 13:14:50.04	243.55	22.93	-50.6	-52.2	15.9	6.06e-01	0	31	0	436731904	69	4492
2026-01-04 13:14:51.04	243.84	23.00	-50.5	-52.2	15.9	6.07e-01	0	31	0	438829056	69	4445
2026-01-04 13:14:52.04	244.13	23.07	-50.5	-52.2	15.9	6.07e-01	0	31	0	440401920	69	4443
2026-01-04 13:14:53.04	244.42	23.14	-50.6	-52.3	15.9	6.07e-01	0	31	0	442499072	69	4502
2026-01-04 13:14:54.04	244.72	23.21	-50.7	-52.4	15.9	6.06e-01	0	31	0	444596224	69	4568
2026-01-04 13:14:55.03	245.01	23.28	-50.7	-52.4	15.9	6.07e-01	0	31	0	446169088	69	4547
2026-01-04 13:14:56.04	245.32	23.36	-50.7	-52.3	15.9	6.05e-01	0	31	0	448266240	69	4534
2026-01-04 13:14:57.04	245.62	23.43	-50.7	-52.4	15.9	6.06e-01	0	31	0	449839104	69	4546
2026-01-04 13:14:58.03	245.91	23.49	-50.7	-52.3	15.9	6.06e-01	0	31	0	451936256	69	4536
2026-01-04 13:14:59.02	246.21	23.56	-50.6	-52.2	15.9	6.05e-01	0	31	0	453509120	69	4471
2026-01-04 13:15:00.02	246.52	23.63	-50.6	-52.3	15.9	6.07e-01	0	31	0	455606272	69	4516
2026-01-04 13:15:01.02	246.82	23.70	-50.7	-52.3	15.9	6.07e-01	0	31	0	457703424	69	4537
2026-01-04 13:15:02.02	247.13	23.76	-50.7	-52.3	15.9	6.06e-01	0	31	0	459276288	69	4543
2026-01-04 13:15:03.02	247.44	23.83	-50.6	-52.3	15.9	6.08e-01	0	31	0	461373440	69	4500
2026-01-04 13:15:04.01	247.74	23.90	-50.7	-52.4	15.9	6.06e-01	0	31	0	462946304	69	4581
2026-01-04 13:15:05.01	248.05	23.96	-50.7	-52.3	15.9	6.06e-01	0	31	0	465043456	69	4539
2026-01-04 13:15:06.01	248.37	24.02	-50.6	-52.3	15.9	6.08e-01	0	31	0	466616320	69	4510
2026-01-04 13:15:07.01	248.68	24.09	-50.7	-52.4	15.9	6.08e-01	0	31	0	468713472	69	4569
2026-01-04 13:15:08.01	248.99	24.15	-50.7	-52.4	15.9	6.06e-01	0	31	0	470810624	69	4567
2026-01-04 13:15:09.01	249.31	24.21	-50.8	-52.4	15.9	6.07e-01	0	31	0	472383488	69	4592
2026-01-04 13:15:10.01	249.63	24.27	-51.0	-52.7	15.8	6.09e-01	0	31	0	474480640	69	4715
2026-01-04 13:15:11.01	249.95	24.34	-50.9	-52.6	15.9	6.07e-01	0	31	0	476053504	69	4695
2026-01-04 13:15:12.02	250.27	24.40	-50.7	-52.3	15.9	6.07e-01	0	30	0	478150656	69	4537
2026-01-04 13:15:13.01	250.59	24.45	-50.9	-52.5	15.9	6.08e-01	0	31	0	480247808	69	4647
2026-01-04 13:15:14.01	250.91	24.51	-50.8	-52.5	15.9	6.08e-01	0	31	0	481820672	69	4618
2026-01-04 13:15:15.01	251.23	24.57	-50.6	-52.2	16.0	6.05e-01	0	31	0	483917824	69	4454
2026-01-04 13:15:16.02	251.56	24.63	-50.8	-52.5	15.9	6.06e-01	0	30	0	485490688	69	4599
2026-01-04 13:15:17.01	251.88	24.68	-51.1	-52.8	15.8	6.06e-01	0	31	0	487587840	69	4768
2026-01-04 13:15:18.01	252.21	24.74	-50.8	-52.4	15.9	6.07e-01	0	31	0	489160704	69	4596
2026-01-04 13:15:19.01	252.54	24.79	-50.9	-52.6	15.9	6.09e-01	0	31	0	491257856	69	4664
2026-01-04 13:15:20.01	252.86	24.85	-50.9	-52.6	15.9	6.06e-01	0	31	0	493355008	69	4686
2026-01-04 13:15:21.01	253.19	24.90	-50.6	-52.3	15.9	6.07e-01	0	31	0	494927872	69	4504
2026-01-04 13:15:22.01	253.53	24.95	-50.7	-52.4	15.9	6.07e-01	0	30	0	497025024	69	4554
2026-01-04 13:15:23.02	253.86	25.00	-50.8	-52.5	15.9	6.05e-01	0	30	0	498597888	69	4624
2026-01-04 13:15:24.01	254.19	25.05	-50.8	-52.5	15.9	6.06e-01	0	31	0	500695040	69	4624
2026-01-04 13:15:25.01	254.53	25.10	-50.8	-52.4	15.9	6.08e-01	0	31	0	502267904	69	4580
2026-01-04 13:15:26.00	254.86	25.15	-50.8	-52.5	15.9	6.07e-01	0	30	0	504365056	69	4612
2026-01-04 13:15:27.00	255.20	25.20	-50.9	-52.6	15.9	6.08e-01	0	31	0	506462208	69	4654
2026-01-04 13:15:28.01	255.54	25.25	-50.8	-52.4	15.9	6.06e-01	0	31	0	508035072	69	4598
2026-01-04 13:15:29.01	255.88	25.29	-50.9	-52.6	15.9	6.06e-01	0	31	0	510132224	69	4696
2026-01-04 13:15:30.01	256.21	25.34	-50.9	-52.6	15.9	6.05e-01	0	30	0	511705088	69	4660
2026-01-04 13:15:31.01	256.56	25.38	-50.8	-52.5	15.9	6.05e-01	0	31	0	513802240	69	4632
2026-01-04 13:15:32.00	256.89	25.42	-50.8	-52.5	15.9	6.06e-01	0	31	0	515375104	69	4636
2026-01-04 13:15:33.00	257.24	25.47	-50.9	-52.5	15.9	6.07e-01	0	31	0	517472256	69	4645
2026-01-04 13:15:34.00	257.58	25.51	-50.8	-52.5	15.9	6.07e-01	0	31	0	519569408	69	4613
2026-01-04 13:15:35.00	257.92	25.55	-50.9	-52.6	15.9	6.07e-01	0	31	0	521142272	69	4658
2026-01-04 13:15:36.00	258.27	25.59	-50.7	-52.3	15.9	6.08e-01	0	31	0	523239424	69	4542
2026-01-04 13:15:37.00	258.62	25.62	-50.7	-52.3	16.0	6.07e-01	0	31	0	524812288	69	4542
2026-01-04 13:15:37.99	258.96	25.66	-50.7	-52.3	16.0	6.08e-01	0	31	0	526909440	69	4545
2026-01-04 13:15:38.99	259.31	25.70	-50.6	-52.3	16.0	6.09e-01	0	31	0	528482304	69	4515
2026-01-04 13:15:39.99	259.66	25.73	-50.7	-52.4	16.0	6.02e-01	0	31	0	530579456	69	4565
2026-01-04 13:15:40.99	260.00	25.77	-50.7	-52.4	16.0	6.03e-01	0	31	0	532152320	69	4564
2026-01-04 13:15:41.99	260.35	25.80	-50.7	-52.3	16.0	6.03e-01	0	31	0	534249472	69	4527
2026-01-04 13:15:42.97	260.70	25.83	-50.7	-52.4	15.9	6.03e-01	0	31	0	536346624	69	4573
2026-01-04 13:15:43.98	261.05	25.86	-50.8	-52.4	15.9	6.03e-01	0	31	0	537919488	69	4594
2026-01-04 13:15:44.97	261.40	25.89	-50.6	-52.2	16.0	6.05e-01	0	31	0	540016640	69	4467
2026-01-04 13:15:45.96	261.75	25.92	-50.7	-52.4	15.9	6.05e-01	0	31	0	541589504	69	4555
2026-01-04 13:15:46.96	262.11	25.95	-50.6	-52.3	16.0	6.06e-01	0	31	0	543686656	69	4512
2026-01-04 13:15:47.96	262.46	25.97	-50.7	-52.4	15.9	6.04e-01	0	31	0	545783808	69	4551
2026-01-04 13:15:48.95	262.81	26.00	-50.7	-52.3	15.9	6.02e-01	0	31	0	547356672	69	4532
2026-01-04 13:15:49.95	263.17	26.02	-50.7	-52.3	16.0	6.06e-01	0	31	0	548929536	69	4526
2026-01-04 13:15:50.94	263.52	26.05	-50.5	-52.2	15.9	6.04e-01	0	31	0	551026688	69	4453
2026-01-04 13:15:51.93	263.87	26.07	-50.6	-52.2	16.0	6.06e-01	0	31	0	553123840	69	4458
2026-01-04 13:15:52.93	264.23	26.09	-50.7	-52.4	15.9	6.03e-01	0	30	0	554696704	69	4549
2026-01-04 13:15:53.93	264.58	26.11	-50.7	-52.3	16.0	6.03e-01	0	31	0	556793856	69	4509
2026-01-04 13:15:54.93	264.94	26.13	-50.7	-52.3	15.9	6.04e-01	0	31	0	558366720	69	4542
2026-01-04 13:15:55.92	265.30	26.15	-50.7	-52.3	15.9	6.03e-01	0	31	0	560463872	69	4535
2026-01-04 13:15:56.92	265.66	26.16	-50.7	-52.3	16.0	6.03e-01	0	31	0	562561024	69	4532
2026-01-04 13:15:57.92	266.01	26.18	-50.5	-52.1	16.0	6.01e-01	0	31	0	564133888	69	4428
2026-01-04 13:15:58.92	266.37	26.19	-50.5	-52.1	15.9	6.02e-01	0	31	0	566231040	69	4437
2026-01-04 13:15:59.91	266.73	26.21	-50.6	-52.2	16.0	6.03e-01	0	31	0	567803904	69	4476
2026-01-04 13:16:00.91	267.09	26.22	-50.5	-52.1	16.0	6.03e-01	0	31	0	569901056	69	4402
2026-01-04 13:16:01.91	267.45	26.23	-50.5	-52.1	16.0	6.04e-01	0	31	0	571473920	69	4428
2026-01-04 13:16:02.91	267.81	26.24	-50.5	-52.2	16.0	6.05e-01	0	31	0	573571072	69	4450
2026-01-04 13:16:03.91	268.17	26.25	-50.6	-52.2	16.0	6.04e-01	0	31	0	575668224	69	4462
2026-01-04 13:16:04.92	268.53	26.26	-50.6	-52.3	16.0	6.02e-01	0	31	0	577241088	69	4497
2026-01-04 13:16:05.92	268.89	26.26	-50.6	-52.2	16.0	6.04e-01	0	31	0	579338240	69	4492
2026-01-04 13:16:06.92	269.26	26.27	-50.6	-52.3	16.0	6.02e-01	0	31	0	580911104	69	4494
2026-01-04 13:16:07.92	269.62	26.27	-50.6	-52.2	16.0	6.05e-01	0	31	0	583008256	69	4481
2026-01-04 13:16:08.92	269.98	26.28	-50.7	-52.4	15.9	6.03e-01	0	31	0	584581120	69	4554
2026-01-04 13:16:09.91	270.34	26.28	-50.8	-52.5	15.9	5.98e-01	0	31	0	586678272	69	4618
2026-01-04 13:16:10.91	270.70	26.28	-50.7	-52.4	16.0	6.03e-01	0	31	0	588775424	69	4549
2026-01-04 13:16:11.92	271.06	26.28	-50.8	-52.4	15.9	6.01e-01	0	31	0	590348288	69	4590
2026-01-04 13:16:12.91	271.42	26.28	-50.5	-52.2	16.0	6.03e-01	0	31	0	592445440	69	4450
2026-01-04 13:16:13.91	271.78	26.27	-50.7	-52.3	15.9	6.06e-01	0	31	0	594018304	69	4517
2026-01-04 13:16:14.91	272.14	26.27	-50.6	-52.2	16.0	6.00e-01	0	31	0	596115456	69	4468
2026-01-04 13:16:15.92	272.51	26.27	-50.5	-52.2	16.0	6.04e-01	0	31	0	597688320	69	4455
2026-01-04 13:16:16.92	272.87	26.26	-50.5	-52.1	16.0	6.03e-01	0	31	0	599785472	69	4426
2026-01-04 13:16:17.92	273.23	26.25	-50.4	-52.0	16.0	6.05e-01	0	31	0	601882624	69	4358
2026-01-04 13:16:18.92	273.59	26.24	-50.6	-52.2	16.0	6.03e-01	0	31	0	603455488	69	4473
2026-01-04 13:16:19.93	273.95	26.23	-50.6	-52.2	16.0	6.01e-01	0	31	0	605552640	69	4475
2026-01-04 13:16:20.92	274.31	26.22	-50.5	-52.2	16.0	6.04e-01	0	31	0	607125504	69	4445
2026-01-04 13:16:21.92	274.67	26.21	-50.4	-52.0	16.0	6.07e-01	0	31	0	609222656	69	4353
2026-01-04 13:16:22.92	275.03	26.20	-50.5	-52.1	16.0	6.06e-01	0	31	0	611319808	69	4395
2026-01-04 13:16:23.93	275.39	26.18	-50.6	-52.2	16.0	6.05e-01	0	31	0	612892672	69	4458
2026-01-04 13:16:24.94	275.75	26.17	-50.7	-52.3	16.0	6.03e-01	0	31	0	614989824	69	4507
2026-01-04 13:16:25.93	276.11	26.15	-50.5	-52.1	16.0	6.03e-01	0	31	0	616562688	69	4434
2026-01-04 13:16:26.93	276.46	26.13	-50.4	-52.0	16.0	6.03e-01	0	31	0	618659840	69	4373
2026-01-04 13:16:27.93	276.82	26.11	-50.3	-51.9	16.0	6.04e-01	0	31	0	620232704	69	4340
2026-01-04 13:16:28.92	277.17	26.09	-50.4	-52.0	16.0	6.04e-01	0	30	0	622329856	69	4359
2026-01-04 13:16:29.92	277.53	26.07	-50.5	-52.1	16.0	6.02e-01	0	31	0	624427008	69	4412
2026-01-04 13:16:30.92	277.89	26.05	-50.4	-52.0	16.0	6.05e-01	0	31	0	625999872	69	4388
2026-01-04 13:16:31.92	278.24	26.03	-50.4	-52.0	16.0	6.05e-01	0	31	0	628097024	69	4382
2026-01-04 13:16:32.92	278.60	26.00	-50.5	-52.1	16.0	6.03e-01	0	31	0	629669888	69	4423
2026-01-04 13:16:33.92	278.95	25.98	-50.3	-51.9	16.0	6.06e-01	0	31	0	631767040	69	4303
2026-01-04 13:16:34.92	279.31	25.95	-50.5	-52.1	16.0	6.02e-01	0	31	0	633339904	69	4416
2026-01-04 13:16:35.92	279.66	25.92	-50.6	-52.2	16.0	6.03e-01	0	31	0	635437056	69	4457
2026-01-04 13:16:36.92	280.01	25.90	-50.4	-51.9	16.0	6.00e-01	0	31	0	637534208	69	4338
2026-01-04 13:16:37.92	280.36	25.87	-50.3	-51.9	16.1	6.02e-01	0	31	0	639107072	69	4292
2026-01-04 13:16:38.92	280.71	25.83	-50.4	-52.0	16.0	6.04e-01	0	31	0	641204224	69	4358
2026-01-04 13:16:39.91	281.06	25.80	-50.5	-52.1	16.0	6.02e-01	0	31	0	642777088	69	4416
2026-01-04 13:16:40.91	281.41	25.77	-50.5	-52.1	16.0	6.01e-01	0	31	0	644874240	69	4400
2026-01-04 13:16:41.91	281.76	25.74	-50.6	-52.2	16.0	6.01e-01	0	31	0	646447104	69	4451
2026-01-04 13:16:42.91	282.11	25.70	-50.6	-52.2	16.0	6.03e-01	0	31	0	648544256	69	4465
2026-01-04 13:16:43.91	282.45	25.67	-50.4	-52.0	16.0	6.02e-01	0	31	0	650641408	69	4373
2026-01-04 13:16:44.91	282.80	25.63	-50.4	-52.0	16.0	6.03e-01	0	31	0	652214272	69	4352
2026-01-04 13:16:45.91	283.15	25.59	-50.3	-51.9	16.0	6.06e-01	0	31	0	654311424	69	4335
2026-01-04 13:16:46.91	283.49	25.55	-50.5	-52.1	16.0	6.05e-01	0	31	0	655884288	69	4440
2026-01-04 13:16:47.91	283.84	25.51	-50.5	-52.1	16.0	6.06e-01	0	31	0	657981440	69	4405
2026-01-04 13:16:48.90	284.18	25.47	-50.5	-52.1	16.0	6.04e-01	0	31	0	659554304	69	4418
2026-01-04 13:16:49.90	284.52	25.43	-50.5	-52.1	16.0	6.04e-01	0	31	0	661651456	69	4416
2026-01-04 13:16:50.90	284.86	25.39	-50.5	-52.1	16.0	6.03e-01	0	31	0	663224320	69	4436
2026-01-04 13:16:51.89	285.20	25.34	-50.4	-52.0	16.1	6.02e-01	0	31	0	665321472	69	4353
2026-01-04 13:16:52.89	285.53	25.30	-50.4	-52.0	16.1	6.04e-01	0	31	0	667418624	69	4342
2026-01-04 13:16:53.89	285.87	25.25	-50.4	-52.0	16.1	6.02e-01	0	31	0	668991488	69	4376
2026-01-04 13:16:54.89	286.21	25.21	-50.5	-52.1	16.0	6.06e-01	0	31	0	671088640	69	4428
2026-01-04 13:16:55.88	286.54	25.16	-50.5	-52.1	16.0	6.04e-01	0	30	0	672661504	69	4393
2026-01-04 13:16:56.88	286.88	25.11	-50.3	-51.9	16.0	6.03e-01	0	31	0	674758656	69	4313
2026-01-04 13:16:57.88	287.21	25.06	-50.4	-52.0	16.1	6.05e-01	0	31	0	676855808	69	4366
2026-01-04 13:16:58.88	287.54	25.01	-50.4	-52.0	16.0	6.04e-01	0	31	0	678428672	69	4370
2026-01-04 13:16:59.87	287.87	24.96	-50.5	-52.1	16.0	6.03e-01	0	31	0	680525824	69	4407
2026-01-04 13:17:00.88	288.21	24.91	-50.5	-52.1	16.0	6.04e-01	0	31	0	682098688	69	4399
2026-01-04 13:17:01.87	288.53	24.86	-50.5	-52.2	16.0	6.05e-01	0	31	0	684195840	69	4442
2026-01-04 13:17:02.87	288.86	24.80	-50.5	-52.1	16.0	6.02e-01	0	31	0	685768704	69	4399
2026-01-04 13:17:03.87	289.19	24.75	-50.4	-52.0	16.1	6.06e-01	0	31	0	687865856	69	4376
2026-01-04 13:17:04.87	289.52	24.70	-50.5	-52.1	16.0	6.04e-01	0	31	0	689963008	69	4425
2026-01-04 13:17:05.86	289.84	24.64	-50.5	-52.1	16.0	6.03e-01	0	31	0	691535872	69	4416
2026-01-04 13:17:06.85	290.16	24.58	-50.4	-52.0	16.1	6.03e-01	0	31	0	693633024	69	4384
2026-01-04 13:17:07.85	290.48	24.53	-50.4	-52.0	16.0	6.04e-01	0	31	0	695205888	69	4375
2026-01-04 13:17:08.85	290.80	24.47	-50.5	-52.1	16.0	6.05e-01	0	31	0	697303040	69	4403
2026-01-04 13:17:09.85	291.12	24.41	-50.5	-52.1	16.0	6.03e-01	0	31	0	698875904	69	4430
2026-01-04 13:17:10.85	291.44	24.35	-50.5	-52.1	16.0	6.05e-01	0	31	0	700973056	69	4433
2026-01-04 13:17:11.85	291.76	24.29	-50.4	-52.0	16.0	6.03e-01	0	31	0	703070208	69	4378
2026-01-04 13:17:12.85	292.07	24.23	-50.3	-51.9	16.1	6.03e-01	0	31	0	704643072	69	4337
2026-01-04 13:17:13.84	292.39	24.17	-50.3	-51.9	16.0	6.05e-01	0	31	0	706740224	69	4318
2026-01-04 13:17:14.85	292.70	24.10	-50.3	-51.9	16.1	6.02e-01	0	31	0	708313088	69	4317
2026-01-04 13:17:15.85	293.02	24.04	-50.4	-52.0	16.0	6.03e-01	0	31	0	710410240	69	4355
2026-01-04 13:17:16.85	293.33	23.98	-50.5	-52.1	16.0	6.03e-01	0	31	0	711983104	69	4415
2026-01-04 13:17:17.84	293.63	23.91	-50.5	-52.1	16.0	6.03e-01	0	31	0	714080256	69	4421
2026-01-04 13:17:18.84	293.94	23.85	-50.5	-52.1	16.0	6.02e-01	0	31	0	715653120	69	4440
2026-01-04 13:17:19.85	294.25	23.78	-50.5	-52.0	16.0	6.03e-01	0	31	0	717750272	69	4390
2026-01-04 13:17:20.85	294.56	23.71	-50.4	-52.0	16.1	6.02e-01	0	31	0	719847424	69	4349
2026-01-04 13:17:21.85	294.86	23.65	-50.3	-51.9	16.0	6.02e-01	0	31	0	721420288	69	4339
2026-01-04 13:17:22.85	295.17	23.58	-50.3	-51.9	16.0	6.03e-01	0	31	0	723517440	69	4324
2026-01-04 13:17:23.86	295.47	23.51	-50.3	-51.9	16.1	6.04e-01	0	31	0	725090304	69	4319
2026-01-04 13:17:24.86	295.77	23.44	-50.3	-51.9	16.1	6.04e-01	0	31	0	727187456	69	4300
2026-01-04 13:17:25.85	296.07	23.37	-50.4	-52.0	16.0	6.03e-01	0	31	0	729284608	69	4368
2026-01-04 13:17:26.85	296.37	23.30	-50.4	-52.1	16.0	6.03e-01	0	31	0	730857472	69	4392
2026-01-04 13:17:27.85	296.66	23.23	-50.4	-52.0	16.0	6.06e-01	0	31	0	732954624	69	4391
2026-01-04 13:17:28.85	296.96	23.16	-50.4	-52.0	16.0	6.04e-01	0	31	0	734527488	69	4389
2026-01-04 13:17:29.85	297.25	23.09	-50.4	-51.9	16.0	6.04e-01	0	31	0	736624640	69	4339
2026-01-04 13:17:30.84	297.54	23.02	-50.4	-52.0	16.0	6.03e-01	0	31	0	738197504	69	4345
2026-01-04 13:17:31.84	297.83	22.95	-50.3	-51.9	16.0	6.01e-01	0	31	0	740294656	69	4330
2026-01-04 13:17:32.84	298.12	22.87	-50.3	-51.9	16.1	6.02e-01	0	31	0	741867520	69	4327
2026-01-04 13:17:33.84	298.41	22.80	-50.3	-51.9	16.1	6.02e-01	0	31	0	743964672	69	4327
2026-01-04 13:17:34.84	298.70	22.73	-50.4	-51.9	16.1	6.02e-01	0	31	0	746061824	69	4339
2026-01-04 13:17:35.84	298.98	22.65	-50.4	-52.1	16.1	6.04e-01	0	31	0	747634688	69	4392
2026-01-04 13:17:36.83	299.26	22.58	-50.5	-52.2	16.0	6.04e-01	0	31	0	749731840	69	4457
2026-01-04 13:17:37.83	299.54	22.50	-50.5	-52.1	16.0	6.05e-01	0	31	0	751304704	69	4418
2026-01-04 13:17:38.84	299.83	22.42	-50.4	-52.0	16.0	6.05e-01	0	31	0	753401856	69	4377
2026-01-04 13:17:39.84	300.11	22.35	-50.3	-51.8	16.1	6.04e-01	0	31	0	755499008	69	4287
2026-01-04 13:17:40.85	300.39	22.27	-50.2	-51.8	16.1	6.04e-01	0	31	0	757071872	69	4267
2026-01-04 13:17:41.85	300.67	22.19	-50.4	-52.0	16.0	6.05e-01	0	31	0	759169024	69	4354
2026-01-04 13:17:42.86	300.94	22.12	-50.3	-51.9	16.1	6.02e-01	0	31	0	760741888	69	4315
2026-01-04 13:17:43.85	301.22	22.04	-50.2	-51.8	16.1	6.03e-01	0	31	0	762839040	69	4261
2026-01-04 13:17:44.85	301.49	21.96	-50.4	-52.0	16.1	6.03e-01	0	31	0	764936192	69	4345
2026-01-04 13:17:45.84	301.76	21.88	-50.4	-52.0	16.1	6.04e-01	0	31	0	766509056	69	4371
2026-01-04 13:17:46.83	302.02	21.80	-50.3	-51.9	16.1	6.02e-01	0	31	0	768606208	69	4332
2026-01-04 13:17:47.83	302.29	21.72	-50.3	-51.9	16.0	6.03e-01	0	31	0	770179072	69	4339
2026-01-04 13:17:48.83	302.56	21.64	-50.2	-51.8	16.1	6.05e-01	0	31	0	772276224	69	4272
2026-01-04 13:17:49.83	302.82	21.56	-50.3	-51.9	16.1	6.03e-01	0	31	0	773849088	69	4296
2026-01-04 13:17:50.82	303.09	21.49	-50.3	-51.8	16.1	6.03e-01	0	31	0	775946240	69	4290
2026-01-04 13:17:51.83	303.35	21.40	-50.3	-51.9	16.0	6.03e-01	0	31	0	777519104	69	4315
2026-01-04 13:17:52.82	303.61	21.32	-50.4	-52.0	16.0	6.03e-01	0	31	0	779616256	69	4342
2026-01-04 13:17:53.82	303.87	21.24	-50.3	-51.9	16.0	6.04e-01	0	31	0	781713408	69	4304
2026-01-04 13:17:54.82	304.13	21.16	-50.3	-51.9	16.0	6.03e-01	0	31	0	783286272	69	4316
2026-01-04 13:17:55.81	304.38	21.08	-50.3	-51.9	16.1	6.02e-01	0	31	0	785383424	69	4298
2026-01-04 13:17:56.82	304.64	21.00	-50.3	-51.8	16.1	6.03e-01	0	31	0	786956288	69	4276
2026-01-04 13:17:57.82	304.89	20.92	-50.3	-51.8	16.1	6.05e-01	0	31	0	789053440	69	4283
2026-01-04 13:17:58.82	305.15	20.83	-50.2	-51.8	16.1	6.05e-01	0	31	0	790626304	69	4262
2026-01-04 13:17:59.82	305.40	20.75	-50.2	-51.8	16.1	6.04e-01	0	31	0	792723456	69	4276
2026-01-04 13:18:00.82	305.65	20.67	-50.4	-52.0	16.1	6.03e-01	0	31	0	794820608	69	4344
2026-01-04 13:18:01.82	305.90	20.58	-50.3	-51.9	16.1	6.08e-01	0	31	0	796393472	69	4323
2026-01-04 13:18:02.82	306.14	20.50	-50.3	-51.9	16.0	6.05e-01	0	31	0	798490624	69	4305
2026-01-04 13:18:03.82	306.39	20.42	-50.2	-51.8	16.0	6.04e-01	0	31	0	800063488	69	4269
2026-01-04 13:18:04.81	306.63	20.34	-50.3	-51.9	16.1	6.06e-01	0	31	0	802160640	69	4292
2026-01-04 13:18:05.81	306.88	20.25	-50.3	-51.9	16.0	6.03e-01	0	31	0	804257792	69	4322
2026-01-04 13:18:06.81	307.12	20.17	-50.2	-51.7	16.1	6.05e-01	0	31	0	805830656	69	4236
2026-01-04 13:18:07.80	307.36	20.08	-50.1	-51.7	16.1	6.04e-01	0	31	0	807927808	69	4228
2026-01-04 13:18:08.81	307.60	20.00	-50.1	-51.6	16.1	6.07e-01	0	31	0	809500672	69	4173
2026-01-04 13:18:09.81	307.83	19.91	-50.1	-51.7	16.1	6.03e-01	0	31	0	811597824	69	4212
2026-01-04 13:18:10.81	308.07	19.83	-50.2	-51.8	16.1	6.05e-01	0	31	0	813170688	69	4250
2026-01-04 13:18:11.79	308.30	19.75	-50.3	-51.9	16.1	6.05e-01	0	31	0	815267840	69	4296
2026-01-04 13:18:12.80	308.54	19.66	-50.2	-51.8	16.1	6.03e-01	0	31	0	817364992	69	4266
2026-01-04 13:18:13.80	308.77	19.58	-50.3	-51.9	16.1	6.06e-01	0	31	0	818937856	69	4336
2026-01-04 13:18:14.79	309.00	19.49	-50.2	-51.8	16.1	6.01e-01	0	31	0	821035008	69	4274
2026-01-04 13:18:15.80	309.23	19.40	-50.2	-51.8	16.1	6.06e-01	0	31	0	822607872	69	4261
2026-01-04 13:18:16.80	309.46	19.32	-50.1	-51.7	16.1	6.03e-01	0	31	0	824705024	69	4213
2026-01-04 13:18:17.80	309.69	19.23	-50.2	-51.7	16.1	6.04e-01	0	31	0	826277888	69	4239
2026-01-04 13:18:18.81	309.91	19.15	-50.1	-51.7	16.1	6.03e-01	0	31	0	828375040	69	4198
2026-01-04 13:18:19.80	310.14	19.06	-50.2	-51.8	16.1	6.02e-01	0	31	0	830472192	69	4265
2026-01-04 13:18:20.80	310.36	18.98	-50.1	-51.7	16.1	6.02e-01	0	31	0	832045056	69	4205
2026-01-04 13:18:21.80	310.58	18.89	-50.1	-51.7	16.1	6.03e-01	0	31	0	834142208	69	4211
2026-01-04 13:18:22.80	310.80	18.81	-50.1	-51.6	16.1	6.03e-01	0	31	0	835715072	69	4188
2026-01-04 13:18:23.79	311.02	18.72	-50.0	-51.6	16.1	6.05e-01	0	31	0	837812224	69	4171
2026-01-04 13:18:24.79	311.24	18.63	-50.1	-51.7	16.1	6.03e-01	0	31	0	839385088	69	4213
2026-01-04 13:18:25.79	311.45	18.55	-50.1	-51.7	16.1	6.02e-01	0	31	0	841482240	69	4196
2026-01-04 13:18:26.79	311.67	18.46	-50.1	-51.7	16.1	6.02e-01	0	31	0	843055104	69	4204
2026-01-04 13:18:27.79	311.88	18.38	-50.2	-51.7	16.1	6.04e-01	0	31	0	845152256	69	4242
2026-01-04 13:18:28.79	312.10	18.29	-50.1	-51.7	16.1	6.02e-01	0	31	0	847249408	69	4207
2026-01-04 13:18:29.78	312.31	18.20	-50.0	-51.6	16.1	6.03e-01	0	31	0	848822272	69	4160
2026-01-04 13:18:30.78	312.52	18.12	-50.0	-51.5	16.1	6.02e-01	0	31	0	850919424	69	4129
2026-01-04 13:18:31.78	312.72	18.03	-50.0	-51.5	16.1	6.04e-01	0	31	0	852492288	69	4140
2026-01-04 13:18:32.78	312.93	17.95	-49.9	-51.5	16.1	6.03e-01	0	31	0	854589440	69	4103
2026-01-04 13:18:33.78	313.14	17.86	-49.9	-51.5	16.1	6.04e-01	0	31	0	856162304	69	4099
2026-01-04 13:18:34.78	313.35	17.77	-50.0	-51.6	16.1	6.03e-01	0	31	0	858259456	69	4154
2026-01-04 13:18:35.79	313.55	17.69	-50.0	-51.6	16.1	6.01e-01	0	31	0	860356608	69	4176
2026-01-04 13:18:36.79	313.75	17.60	-50.0	-51.6	16.1	6.05e-01	0	31	0	861929472	69	4168
2026-01-04 13:18:37.79	313.96	17.51	-50.1	-51.6	16.1	6.03e-01	0	31	0	864026624	69	4189
2026-01-04 13:18:38.79	314.16	17.43	-50.0	-51.6	16.1	6.03e-01	0	31	0	865599488	69	4177
2026-01-04 13:18:39.79	314.36	17.34	-50.1	-51.7	16.1	6.03e-01	0	31	0	867696640	69	4205
2026-01-04 13:18:40.79	314.56	17.25	-50.0	-51.6	16.1	6.05e-01	0	31	0	869269504	69	4179
2026-01-04 13:18:41.79	314.75	17.17	-50.0	-51.6	16.1	6.04e-01	0	31	0	871366656	69	4168
2026-01-04 13:18:42.79	314.95	17.08	-50.0	-51.6	16.1	6.04e-01	0	31	0	873463808	69	4159
2026-01-04 13:18:43.79	315.14	17.00	-49.9	-51.5	16.1	6.06e-01	0	31	0	875036672	69	4116
2026-01-04 13:18:44.79	315.34	16.91	-50.0	-51.6	16.1	6.04e-01	0	31	0	877133824	69	4159
2026-01-04 13:18:45.80	315.53	16.82	-50.0	-51.6	16.1	6.02e-01	0	31	0	878706688	69	4186
2026-01-04 13:18:46.79	315.72	16.74	-50.0	-51.6	16.1	6.03e-01	0	31	0	880803840	69	4175
2026-01-04 13:18:47.79	315.91	16.65	-50.0	-51.6	16.1	6.03e-01	0	31	0	882900992	69	4182
2026-01-04 13:18:48.79	316.10	16.57	-50.0	-51.6	16.1	6.02e-01	0	31	0	884473856	69	4169
2026-01-04 13:18:49.79	316.29	16.48	-50.1	-51.7	16.1	6.03e-01	0	31	0	886571008	69	4195
2026-01-04 13:18:50.78	316.47	16.39	-49.9	-51.5	16.1	6.04e-01	0	31	0	888143872	69	4124
2026-01-04 13:18:51.78	316.66	16.31	-50.0	-51.6	16.1	6.04e-01	0	31	0	890241024	69	4152
2026-01-04 13:18:52.77	316.84	16.22	-50.0	-51.5	16.1	6.05e-01	0	31	0	891813888	69	4134
2026-01-04 13:18:53.77	317.03	16.14	-49.9	-51.5	16.1	6.03e-01	0	31	0	893911040	69	4114
2026-01-04 13:18:54.76	317.21	16.05	-50.0	-51.5	16.1	6.02e-01	0	31	0	896008192	69	4142
2026-01-04 13:18:55.76	317.39	15.97	-49.9	-51.5	16.1	6.05e-01	0	31	0	897581056	69	4110
2026-01-04 13:18:56.75	317.57	15.88	-50.0	-51.6	16.1	6.03e-01	0	31	0	899678208	69	4158
2026-01-04 13:18:57.74	317.75	15.80	-50.0	-51.5	16.1	6.02e-01	0	30	0	901251072	69	4138
2026-01-04 13:18:58.74	317.92	15.71	-50.0	-51.6	16.1	6.04e-01	0	31	0	903348224	69	4161
2026-01-04 13:18:59.73	318.10	15.63	-50.1	-51.7	16.1	6.03e-01	0	31	0	904921088	69	4201
2026-01-04 13:19:00.72	318.27	15.55	-50.1	-51.7	16.1	6.02e-01	0	31	0	907018240	69	4234
2026-01-04 13:19:01.72	318.45	15.46	-50.1	-51.7	16.1	6.03e-01	0	31	0	908591104	69	4225
2026-01-04 13:19:02.72	318.62	15.38	-50.1	-51.7	16.1	6.02e-01	0	31	0	910688256	69	4228
2026-01-04 13:19:03.72	318.80	15.29	-50.1	-51.7	16.1	6.03e-01	0	31	0	912785408	69	4215
2026-01-04 13:19:04.72	318.97	15.21	-50.1	-51.7	16.1	6.04e-01	0	31	0	914358272	69	4241
2026-01-04 13:19:05.72	319.14	15.12	-50.0	-51.5	16.1	6.05e-01	0	31	0	916455424	69	4140
2026-01-04 13:19:06.72	319.31	15.04	-50.0	-51.6	16.1	6.03e-01	0	31	0	918028288	69	4146
2026-01-04 13:19:07.72	319.48	14.95	-50.0	-51.6	16.1	6.03e-01	0	31	0	920125440	69	4174
2026-01-04 13:19:08.72	319.65	14.87	-50.0	-51.6	16.1	6.03e-01	0	31	0	921698304	69	4161
2026-01-04 13:19:09.71	319.81	14.79	-50.0	-51.6	16.1	6.04e-01	0	31	0	923795456	69	4173
2026-01-04 13:19:10.71	319.98	14.70	-49.9	-51.5	16.1	6.01e-01	0	31	0	925892608	69	4130
2026-01-04 13:19:11.71	320.14	14.62	-49.9	-51.5	16.1	6.05e-01	0	31	0	927465472	69	4131
2026-01-04 13:19:12.72	320.31	14.53	-50.0	-51.6	16.1	6.04e-01	0	31	0	929562624	69	4150
2026-01-04 13:19:13.72	320.47	14.45	-50.1	-51.7	16.1	6.04e-01	0	31	0	931135488	69	4213
2026-01-04 13:19:14.72	320.64	14.37	-50.1	-51.7	16.1	6.04e-01	0	31	0	933232640	69	4212
2026-01-04 13:19:15.72	320.80	14.28	-50.1	-51.7	16.1	6.01e-01	0	31	0	934805504	69	4232
2026-01-04 13:19:16.72	320.96	14.20	-50.0	-51.6	16.1	6.03e-01	0	31	0	936902656	69	4177
2026-01-04 13:19:17.72	321.12	14.12	-50.0	-51.6	16.1	6.04e-01	0	31	0	938999808	69	4186
2026-01-04 13:19:18.71	321.28	14.03	-50.1	-51.6	16.0	6.04e-01	0	31	0	940572672	69	4193
2026-01-04 13:19:19.71	321.43	13.95	-50.1	-51.8	16.0	6.03e-01	0	31	0	942669824	69	4244
2026-01-04 13:19:20.71	321.59	13.87	-50.1	-51.7	16.1	6.03e-01	0	31	0	944242688	69	4221
2026-01-04 13:19:21.71	321.75	13.78	-50.1	-51.8	16.1	6.04e-01	0	31	0	946339840	69	4245
2026-01-04 13:19:22.71	321.90	13.70	-50.1	-51.7	16.1	6.04e-01	0	31	0	948436992	69	4226
2026-01-04 13:19:23.71	322.05	13.62	-50.1	-51.7	16.1	6.02e-01	0	31	0	950009856	69	4233
2026-01-04 13:19:24.71	322.21	13.54	-50.1	-51.7	16.1	6.02e-01	0	31	0	952107008	69	4199
2026-01-04 13:19:25.72	322.36	13.45	-50.1	-51.7	16.1	6.05e-01	0	31	0	953679872	69	4232
2026-01-04 13:19:26.73	322.52	13.37	-50.1	-51.8	16.1	6.02e-01	0	31	0	955777024	69	4245
2026-01-04 13:19:27.72	322.66	13.29	-50.2	-51.8	16.0	6.06e-01	0	31	0	957349888	69	4282
2026-01-04 13:19:28.72	322.81	13.21	-50.2	-51.8	16.1	6.04e-01	0	31	0	959447040	69	4276
2026-01-04 13:19:29.72	322.96	13.13	-50.2	-51.8	16.1	6.03e-01	0	31	0	961544192	69	4283
2026-01-04 13:19:30.71	323.11	13.05	-50.3	-51.9	16.0	6.03e-01	0	31	0	963117056	69	4319
2026-01-04 13:19:31.71	323.26	12.96	-50.2	-51.9	16.0	6.03e-01	0	31	0	965214208	69	4304
2026-01-04 13:19:32.71	323.40	12.88	-50.2	-51.8	16.1	6.04e-01	0	31	0	966787072	69	4287
2026-01-04 13:19:33.71	323.55	12.80	-50.2	-51.8	16.0	6.03e-01	0	31	0	968884224	69	4286
2026-01-04 13:19:34.71	323.69	12.72	-50.2	-51.9	16.0	6.02e-01	0	31	0	970457088	69	4305
2026-01-04 13:19:35.71	323.84	12.64	-50.2	-51.8	16.1	6.02e-01	0	31	0	972554240	69	4288
2026-01-04 13:19:36.71	323.98	12.56	-50.3	-51.9	16.1	6.06e-01	0	31	0	974651392	69	4331
2026-01-04 13:19:37.70	324.12	12.48	-50.4	-52.0	16.0	6.02e-01	0	31	0	976224256	69	4376
2026-01-04 13:19:38.70	324.26	12.40	-50.3	-52.0	16.0	6.06e-01	0	31	0	978321408	69	4361
2026-01-04 13:19:39.69	324.40	12.32	-50.4	-52.0	16.0	6.03e-01	0	31	0	979894272	69	4382
2026-01-04 13:19:40.69	324.54	12.24	-50.5	-52.1	16.0	6.04e-01	0	31	0	981991424	69	4432
2026-01-04 13:19:41.69	324.68	12.16	-50.3	-51.9	16.0	6.04e-01	0	31	0	983564288	69	4334
2026-01-04 13:19:42.69	324.82	12.08	-50.2	-51.9	16.0	6.05e-01	0	31	0	985661440	69	4303
2026-01-04 13:19:43.69	324.96	12.00	-50.2	-51.9	16.0	6.03e-01	0	31	0	987234304	69	4303
2026-01-04 13:19:44.69	325.09	11.92	-50.3	-51.9	16.0	6.05e-01	0	31	0	989331456	69	4310
2026-01-04 13:19:45.69	325.23	11.84	-50.3	-51.9	16.0	6.04e-01	0	31	0	991428608	69	4334
2026-01-04 13:19:46.68	325.36	11.76	-50.2	-51.8	16.0	6.05e-01	0	31	0	993001472	69	4290
2026-01-04 13:19:47.67	325.50	11.69	-50.3	-51.9	16.0	6.04e-01	0	31	0	995098624	69	4337
2026-01-04 13:19:48.66	325.63	11.61	-50.4	-52.0	16.0	6.04e-01	0	31	0	996671488	69	4380
2026-01-04 13:19:49.67	325.76	11.53	-50.3	-52.0	16.0	6.03e-01	0	31	0	998768640	69	4348
2026-01-04 13:19:50.67	325.90	11.45	-50.4	-52.1	16.0	6.04e-01	0	31	0	1000341504	69	4398
2026-01-04 13:19:51.67	326.03	11.37	-50.5	-52.2	16.0	6.05e-01	0	31	0	1002438656	69	4459
2026-01-04 13:19:52.66	326.16	11.29	-50.5	-52.2	15.9	6.03e-01	0	31	0	1004535808	69	4473
2026-01-04 13:19:53.67	326.29	11.22	-50.5	-52.3	16.0	6.04e-01	0	31	0	1006108672	69	4494
2026-01-04 13:19:54.66	326.42	11.14	-50.5	-52.2	16.0	6.04e-01	0	31	0	1008205824	69	4491
2026-01-04 13:19:55.65	326.54	11.06	-50.6	-52.3	15.9	6.03e-01	0	31	0	1009778688	69	4541
2026-01-04 13:19:56.65	326.67	10.98	-50.6	-52.3	15.9	6.04e-01	0	31	0	1011875840	69	4529
2026-01-04 13:19:57.65	326.80	10.91	-50.6	-52.4	15.9	6.05e-01	0	31	0	1013972992	69	4560
2026-01-04 13:19:58.65	326.93	10.83	-50.6	-52.4	15.9	6.03e-01	0	31	0	1015545856	69	4551
2026-01-04 13:19:59.65	327.05	10.75	-50.6	-52.3	15.9	6.03e-01	0	31	0	1017118720	69	4508
2026-01-04 13:20:00.64	327.18	10.68	-50.7	-52.4	15.9	6.04e-01	0	31	0	1019215872	69	4583
2026-01-04 13:20:01.64	327.30	10.60	-50.6	-52.3	15.9	6.04e-01	0	31	0	1021313024	69	4540
2026-01-04 13:20:02.63	327.42	10.52	-50.6	-52.4	15.9	6.00e-01	0	31	0	1022885888	69	4550
2026-01-04 13:20:03.63	327.55	10.45	-50.6	-52.3	15.9	6.05e-01	0	31	0	1024983040	69	4513
2026-01-04 13:20:04.63	327.67	10.37	-50.6	-52.4	15.9	6.02e-01	0	31	0	1026555904	69	4547
2026-01-04 13:20:05.62	327.79	10.30	-50.6	-52.3	15.9	6.02e-01	0	31	0	1028653056	69	4500
2026-01-04 13:20:06.62	327.91	10.22	-50.7	-52.4	15.9	6.03e-01	0	31	0	1030750208	69	4569
2026-01-04 13:20:07.62	328.03	10.14	-50.7	-52.4	15.9	6.05e-01	0	31	0	1032323072	69	4597
2026-01-04 13:20:08.62	328.15	10.07	-50.6	-52.4	15.9	6.03e-01	0	31	0	1034420224	69	4555
2026-01-04 13:20:09.62	328.27	9.99	-50.7	-52.4	15.9	6.05e-01	0	31	0	1035993088	69	4581
2026-01-04 13:20:10.62	328.39	9.92	-50.7	-52.5	15.9	6.02e-01	0	31	0	1038090240	69	4613
2026-01-04 13:20:11.61	328.51	9.84	-50.7	-52.4	15.9	6.02e-01	0	31	0	1039663104	69	4586
2026-01-04 13:20:12.61	328.62	9.77	-50.6	-52.3	15.9	6.04e-01	0	31	0	1041760256	69	4544
2026-01-04 13:20:13.61	328.74	9.69	-50.7	-52.4	15.9	6.03e-01	0	31	0	1043857408	69	4581
2026-01-04 13:20:14.62	328.86	9.62	-50.7	-52.4	15.9	6.03e-01	0	31	0	1045430272	69	4595
2026-01-04 13:20:15.62	328.97	9.54	-50.7	-52.5	15.9	6.03e-01	0	31	0	1047527424	69	4605
2026-01-04 13:20:16.61	329.09	9.47	-50.7	-52.4	15.9	6.03e-01	0	31	0	1049100288	69	4589
2026-01-04 13:20:17.61	329.20	9.39	-50.8	-52.5	15.8	6.04e-01	0	31	0	1051197440	69	4647
2026-01-04 13:20:18.60	329.32	9.32	-50.8	-52.5	15.9	6.02e-01	0	31	0	1052770304	69	4640
2026-01-04 13:20:19.60	329.43	9.25	-50.7	-52.5	15.9	6.03e-01	0	31	0	1054867456	69	4625
2026-01-04 13:20:20.60	329.54	9.17	-50.8	-52.6	15.8	6.04e-01	0	31	0	1056964608	69	4660
2026-01-04 13:20:21.60	329.65	9.10	-50.8	-52.6	15.8	6.03e-01	0	31	0	1058537472	69	4666
2026-01-04 13:20:22.60	329.76	9.03	-50.9	-52.7	15.8	6.00e-01	0	31	0	1060634624	69	4746
2026-01-04 13:20:23.61	329.88	8.95	-50.8	-52.5	15.8	6.02e-01	0	31	0	1062207488	69	4640
2026-01-04 13:20:24.62	329.99	8.88	-50.8	-52.6	15.8	6.06e-01	0	31	0	1064304640	69	4658
2026-01-04 13:20:25.61	330.10	8.81	-50.8	-52.6	15.8	6.02e-01	0	31	0	1065877504	69	4699
2026-01-04 13:20:26.61	330.21	8.73	-50.8	-52.6	15.8	6.03e-01	0	31	0	1067974656	69	4658
2026-01-04 13:20:27.61	330.31	8.66	-50.9	-52.7	15.8	6.04e-01	0	31	0	1070071808	69	4740
2026-01-04 13:20:28.61	330.42	8.59	-51.0	-52.8	15.8	6.03e-01	0	31	0	1071644672	69	4797
2026-01-04 13:20:29.60	330.53	8.52	-51.0	-52.8	15.8	6.07e-01	0	31	0	1073741824	69	4806
2026-01-04 13:20:30.60	330.64	8.44	-51.0	-52.8	15.8	6.02e-01	0	31	0	1075314688	69	4799
2026-01-04 13:20:31.60	330.74	8.37	-51.0	-52.9	15.8	6.03e-01	0	31	0	1077411840	69	4825
2026-01-04 13:20:32.60	330.85	8.30	-51.0	-52.9	15.8	6.04e-01	0	31	0	1078984704	69	4817
2026-01-04 13:20:33.60	330.95	8.23	-51.1	-52.9	15.7	6.04e-01	0	31	0	1081081856	69	4851
2026-01-04 13:20:34.60	331.06	8.16	-51.1	-52.9	15.7	6.04e-01	0	31	0	1083179008	69	4849
2026-01-04 13:20:35.59	331.16	8.08	-51.1	-52.9	15.8	6.03e-01	0	31	0	1084751872	69	4856
2026-01-04 13:20:36.59	331.26	8.01	-51.2	-53.1	15.8	6.03e-01	0	31	0	1086849024	70	4680
2026-01-04 13:20:37.59	331.37	7.94	-51.2	-53.1	15.7	6.06e-01	0	31	0	1088421888	70	4678
2026-01-04 13:20:38.59	331.47	7.87	-51.2	-53.1	15.8	6.01e-01	0	31	0	1090519040	70	4678
2026-01-04 13:20:39.58	331.57	7.80	-51.4	-53.3	15.7	6.04e-01	0	31	0	1092091904	70	4814
2026-01-04 13:20:40.58	331.67	7.73	-51.3	-53.2	15.7	6.03e-01	0	31	0	1094189056	70	4729
2026-01-04 13:20:41.58	331.77	7.66	-51.3	-53.2	15.8	6.05e-01	0	31	0	1095761920	70	4712
2026-01-04 13:20:42.59	331.88	7.59	-51.3	-53.2	15.8	6.04e-01	0	31	0	1097859072	70	4722
2026-01-04 13:20:43.58	331.97	7.52	-51.3	-53.3	15.7	6.03e-01	0	31	0	1099956224	70	4765
2026-01-04 13:20:44.58	332.07	7.45	-51.3	-53.2	15.7	6.04e-01	0	31	0	1101529088	70	4753
2026-01-04 13:20:45.58	332.17	7.38	-51.4	-53.3	15.7	6.03e-01	0	31	0	1103626240	70	4797
2026-01-04 13:20:46.57	332.27	7.31	-51.5	-53.5	15.7	6.01e-01	0	31	0	1105199104	70	4875
2026-01-04 13:20:47.57	332.37	7.24	-51.4	-53.3	15.7	6.03e-01	0	31	0	1107296256	70	4787
2026-01-04 13:20:48.57	332.47	7.17	-51.4	-53.4	15.7	6.04e-01	0	31	0	1109393408	70	4831
2026-01-04 13:20:49.57	332.56	7.10	-51.4	-53.3	15.7	6.05e-01	0	31	0	1110966272	70	4785
2026-01-04 13:20:50.56	332.66	7.03	-51.3	-53.2	15.7	6.03e-01	0	31	0	1113063424	70	4755
2026-01-04 13:20:51.56	332.76	6.96	-51.3	-53.2	15.7	6.01e-01	0	31	0	1114636288	70	4758
2026-01-04 13:20:52.56	332.85	6.89	-51.3	-53.2	15.7	6.04e-01	0	31	0	1116733440	70	4757
2026-01-04 13:20:53.55	332.95	6.83	-51.6	-53.5	15.7	6.04e-01	0	31	0	1118306304	70	4917
2026-01-04 13:20:54.55	333.04	6.76	-51.4	-53.3	15.7	6.04e-01	0	31	0	1120403456	70	4801
2026-01-04 13:20:55.55	333.13	6.69	-51.4	-53.4	15.7	6.01e-01	0	31	0	1122500608	70	4819
2026-01-04 13:20:56.55	333.23	6.62	-51.5	-53.5	15.7	6.02e-01	0	31	0	1124073472	70	4871
2026-01-04 13:20:57.55	333.32	6.55	-51.5	-53.5	15.7	6.01e-01	0	31	0	1126170624	70	4882
2026-01-04 13:20:58.54	333.41	6.48	-51.6	-53.6	15.7	6.04e-01	0	31	0	1127743488	70	4940
2026-01-04 13:20:59.54	333.51	6.42	-51.5	-53.5	15.7	6.04e-01	0	31	0	1129840640	70	4881
2026-01-04 13:21:00.52	333.60	6.35	-51.4	-53.4	15.7	6.02e-01	0	31	0	1131413504	70	4833
2026-01-04 13:21:01.51	333.69	6.28	-51.4	-53.4	15.7	6.01e-01	0	31	0	1133510656	70	4856
2026-01-04 13:21:02.50	333.78	6.22	-51.5	-53.5	15.7	6.04e-01	0	31	0	1135083520	70	4874
2026-01-04 13:21:03.50	333.87	6.15	-51.5	-53.4	15.7	6.06e-01	0	31	0	1137180672	70	4862
2026-01-04 13:21:04.50	333.96	6.08	-51.5	-53.5	15.6	6.04e-01	0	31	0	1139277824	70	4903
2026-01-04 13:21:05.50	334.05	6.01	-51.5	-53.5	15.7	6.01e-01	0	31	0	1140850688	70	4913
2026-01-04 13:21:06.50	334.14	5.95	-51.5	-53.4	15.7	6.05e-01	0	31	0	1142947840	70	4866
2026-01-04 13:21:07.50	334.23	5.88	-51.3	-53.3	15.7	6.02e-01	0	31	0	1144520704	70	4784
2026-01-04 13:21:08.49	334.32	5.81	-51.5	-53.5	15.6	6.03e-01	0	31	0	1146617856	70	4920
2026-01-04 13:21:09.49	334.40	5.75	-51.5	-53.5	15.7	6.03e-01	0	31	0	1148190720	70	4898
2026-01-04 13:21:10.49	334.49	5.68	-51.7	-53.9	15.6	6.04e-01	0	31	0	1150287872	71	4816
2026-01-04 13:21:11.49	334.58	5.62	-51.6	-53.7	15.6	6.03e-01	0	31	0	1151860736	71	4718
2026-01-04 13:21:12.49	334.67	5.55	-51.8	-54.0	15.5	6.06e-01	0	31	0	1153957888	71	4888
2026-01-04 13:21:13.49	334.75	5.48	-51.8	-54.0	15.5	6.01e-01	0	31	0	1156055040	71	4900
2026-01-04 13:21:14.48	334.84	5.42	-51.8	-54.0	15.5	6.04e-01	0	31	0	1157627904	71	4895
2026-01-04 13:21:15.48	334.92	5.35	-51.8	-54.0	15.5	6.05e-01	0	31	0	1159725056	71	4892
2026-01-04 13:21:16.48	335.01	5.29	-51.7	-53.8	15.6	6.02e-01	0	31	0	1161297920	71	4811
2026-01-04 13:21:17.48	335.10	5.22	-51.9	-54.1	15.5	6.04e-01	0	31	0	1163395072	71	4965
2026-01-04 13:21:18.48	335.18	5.16	-51.7	-53.8	15.6	6.03e-01	0	31	0	1164967936	71	4791
2026-01-04 13:21:19.48	335.26	5.09	-51.6	-53.7	15.6	6.03e-01	0	31	0	1167065088	71	4756
2026-01-04 13:21:20.48	335.35	5.03	-52.7	-55.1	15.4	6.02e-01	0	31	0	1169162240	72	5228
2026-01-04 13:21:21.47	335.43	4.96	-59.3	-78.5	3.7	7.47e-01	0	31	104	1170210816	86	34533
2026-01-04 13:21:22.48	335.51	4.90	-59.8	-78.9	3.9	7.48e-01	0	31	104	1170210816	87	34316
2026-01-04 13:21:23.47	335.60	4.83	-60.2	-79.6	3.8	7.48e-01	0	31	104	1170210816	88	34995
2026-01-04 13:21:24.47	335.68	4.77	-60.5	-79.8	3.8	7.47e-01	0	31	104	1170210816	88	35938
2026-01-04 13:21:25.47	335.76	4.70	-60.6	-80.0	3.9	7.46e-01	0	31	104	1170210816	89	34639
2026-01-04 13:21:26.46	335.84	4.64	-60.8	-80.1	3.8	7.47e-01	0	31	104	1170210816	89	35183
2026-01-04 13:21:27.47	335.92	4.57	-60.9	-80.2	3.8	7.44e-01	0	31	104	1170210816	89	35449
2026-01-04 13:21:28.46	336.00	4.51	-61.0	-80.3	3.8	7.49e-01	0	31	104	1170210816	89	35847
2026-01-04 13:21:29.47	336.09	4.45	-60.9	-80.1	3.8	7.50e-01	0	31	104	1170210816	89	34995
2026-01-04 13:21:30.46	336.16	4.38	-61.1	-80.4	3.8	7.44e-01	0	31	104	1170210816	89	36390
2026-01-04 13:21:31.45	336.24	4.32	-61.1	-80.4	3.8	7.49e-01	0	31	104	1170210816	89	36257
2026-01-04 13:21:32.45	336.32	4.26	-61.2	-80.5	3.8	7.45e-01	0	31	104	1170210816	90	34736
2026-01-04 13:21:33.45	336.40	4.19	-61.2	-80.6	3.8	7.46e-01	0	31	104	1170210816	90	34996
2026-01-04 13:21:34.44	336.48	4.13	-61.2	-80.6	3.8	7.47e-01	0	31	104	1170210816	90	35024
2026-01-04 13:21:35.44	336.56	4.07	-61.2	-80.6	3.8	7.47e-01	0	31	104	1170210816	90	35158
2026-01-04 13:21:36.44	336.64	4.00	-61.2	-80.6	3.8	7.45e-01	0	31	104	1170210816	90	35069
2026-01-04 13:21:37.44	336.71	3.94	-61.3	-80.6	3.8	7.47e-01	0	31	104	1170210816	90	35223
2026-01-04 13:21:38.44	336.79	3.88	-61.3	-80.6	3.8	7.48e-01	0	31	104	1170210816	90	35220
2026-01-04 13:21:39.45	336.87	3.82	-61.3	-80.7	3.8	7.46e-01	0	31	104	1170210816	90	35325
2026-01-04 13:21:40.44	336.95	3.75	-61.3	-80.7	3.8	7.43e-01	0	31	104	1170210816	90	35301
