passes_logs/2026/01/04/R3.2S_Murmansk/R3.2S_Murmansk__20260104_004755_NOAA_21_JPSS-2_rec.log

#Pass ID: 20260104_004755_NOAA 21 (JPSS-2)
#Satellite: NOAA 21 (JPSS-2)
#Configuration: NOAA-21
#almurnet v.1.7.20251203
#Start time: 2026-01-04 00:47:57

#Version: 2.2.20231116
#Station: R3.2S_Murmansk
#Location: 33.079688 lon 68.888172 lat
#TLE: 1 54234U 22150A   26003.45311712  .00000198  00000+0  11468-3 0  9993
#TLE: 2 54234  98.7487 304.4932 0001159 347.5017  12.6130 14.19531745163172

#Time	Az	El	Level	Level2	SNR	BER	BlckErr	Temp	State	Recorded	gain1	gain2
2026-01-04 00:47:57.34	24.92	2.11	-58.8	-72.6	3.8	1.49e+00	0	27	0	0	84	17035
2026-01-04 00:47:58.34	24.92	2.17	-58.6	-72.4	3.8	1.49e+00	0	27	104	0	82	18727
2026-01-04 00:47:59.35	24.92	2.23	-58.6	-72.4	3.8	1.49e+00	0	27	104	0	82	18672
2026-01-04 00:48:00.35	24.92	2.30	-58.6	-72.4	3.8	1.49e+00	0	27	104	0	82	18698
2026-01-04 00:48:01.35	24.93	2.36	-58.6	-72.4	3.8	1.49e+00	0	27	104	0	82	18625
2026-01-04 00:48:02.35	24.93	2.43	-58.6	-72.4	3.8	1.49e+00	0	27	104	0	82	18673
2026-01-04 00:48:03.35	24.93	2.49	-58.6	-72.4	3.8	1.49e+00	0	27	104	0	82	18622
2026-01-04 00:48:04.35	24.93	2.56	-58.6	-72.4	3.8	1.49e+00	0	27	104	0	82	18638
2026-01-04 00:48:05.36	24.93	2.62	-58.6	-72.4	3.8	1.49e+00	0	27	104	0	82	18658
2026-01-04 00:48:06.35	24.93	2.69	-58.6	-72.4	3.8	1.49e+00	0	27	104	0	82	18662
2026-01-04 00:48:07.34	24.93	2.75	-58.6	-72.4	3.8	1.49e+00	0	27	104	0	82	18569
2026-01-04 00:48:08.33	24.93	2.82	-58.6	-72.4	3.8	1.49e+00	0	27	104	0	82	18583
2026-01-04 00:48:09.33	24.93	2.88	-58.6	-72.3	3.8	1.49e+00	0	27	104	0	82	18469
2026-01-04 00:48:10.33	24.93	2.95	-58.6	-72.3	3.8	1.49e+00	0	27	104	0	82	18320
2026-01-04 00:48:11.32	24.93	3.02	-58.6	-72.1	3.8	1.49e+00	0	27	104	0	82	18030
2026-01-04 00:48:12.32	24.93	3.08	-58.6	-71.9	3.8	1.49e+00	0	27	104	0	82	17577
2026-01-04 00:48:13.33	24.93	3.15	-58.5	-71.7	3.8	1.49e+00	0	27	104	0	82	17142
2026-01-04 00:48:14.32	24.93	3.21	-58.5	-71.3	3.8	1.49e+00	0	27	104	0	82	16495
2026-01-04 00:48:15.33	24.93	3.28	-58.5	-71.1	3.8	1.49e+00	0	27	104	0	82	15947
2026-01-04 00:48:16.33	24.93	3.35	-58.5	-70.8	3.8	1.49e+00	0	27	104	0	82	15528
2026-01-04 00:48:17.34	24.93	3.42	-58.5	-70.7	3.8	1.49e+00	0	27	104	0	82	15359
2026-01-04 00:48:18.33	24.93	3.48	-58.5	-70.8	3.9	1.49e+00	0	27	104	0	82	15408
2026-01-04 00:48:19.33	24.93	3.55	-58.5	-70.8	3.8	1.49e+00	0	28	104	0	82	15534
2026-01-04 00:48:20.33	24.93	3.62	-58.5	-71.3	3.8	1.49e+00	0	28	104	0	82	16441
2026-01-04 00:48:21.33	24.93	3.69	-58.5	-71.6	3.8	1.49e+00	0	28	104	0	82	16938
2026-01-04 00:48:22.33	24.93	3.75	-58.6	-71.9	3.8	1.49e+00	0	28	104	0	82	17542
2026-01-04 00:48:23.33	24.93	3.82	-58.6	-72.2	3.8	1.49e+00	0	28	104	0	82	18137
2026-01-04 00:48:24.33	24.93	3.89	-58.6	-72.2	3.8	1.49e+00	0	27	104	0	82	18228
2026-01-04 00:48:25.33	24.93	3.96	-58.6	-72.1	3.8	1.49e+00	0	27	104	0	82	18031
2026-01-04 00:48:26.33	24.93	4.03	-58.5	-71.6	3.8	1.49e+00	0	27	104	0	82	16937
2026-01-04 00:48:27.33	24.93	4.10	-58.5	-70.7	3.9	1.49e+00	0	27	104	0	82	15244
2026-01-04 00:48:28.33	24.93	4.16	-58.4	-69.2	4.1	1.48e+00	0	28	104	0	82	12889
2026-01-04 00:48:29.33	24.93	4.23	-58.3	-68.9	3.9	1.44e+00	0	28	104	0	82	12442
2026-01-04 00:48:30.33	24.93	4.30	-58.1	-67.0	4.9	1.18e+00	0	28	104	0	82	10053
2026-01-04 00:48:31.33	24.93	4.37	-58.0	-66.1	5.3	5.44e-01	0	28	0	2097152	82	8993
2026-01-04 00:48:32.33	24.93	4.44	-57.8	-64.9	6.1	2.95e-01	0	28	0	5242880	82	7867
2026-01-04 00:48:33.33	24.93	4.51	-57.6	-64.4	6.4	2.04e-01	0	28	0	8388608	81	7889
2026-01-04 00:48:34.33	24.93	4.58	-57.4	-63.6	7.1	1.22e-01	0	28	0	11534336	81	7122
2026-01-04 00:48:35.33	24.93	4.65	-57.2	-63.0	7.5	7.01e-02	0	28	0	14680064	81	6693
2026-01-04 00:48:36.33	24.93	4.72	-57.1	-62.8	7.7	5.23e-02	0	28	0	17825792	80	6914
2026-01-04 00:48:37.33	24.93	4.79	-57.1	-62.5	8.0	3.50e-02	0	28	0	20971520	80	6687
2026-01-04 00:48:38.33	24.93	4.86	-57.0	-62.3	8.1	3.67e-02	0	28	0	24117248	80	6537
2026-01-04 00:48:39.32	24.93	4.93	-56.9	-62.0	8.4	2.46e-02	0	28	0	27262976	80	6335
2026-01-04 00:48:40.31	24.93	5.00	-56.9	-62.0	8.4	2.24e-02	0	28	0	30408704	80	6282
2026-01-04 00:48:41.31	24.93	5.07	-57.4	-63.5	7.2	3.79e-02	0	28	0	33554432	80	7460
2026-01-04 00:48:42.31	24.93	5.15	-58.5	-69.7	3.9	1.47e+00	0	28	104	34603008	82	13614
2026-01-04 00:48:43.31	24.93	5.22	-57.3	-62.8	7.8	1.32e-01	0	28	0	34603008	81	6569
2026-01-04 00:48:44.31	24.93	5.29	-57.5	-64.1	6.5	4.13e-01	0	28	0	37748736	80	8007
2026-01-04 00:48:45.31	24.93	5.36	-55.2	-58.4	11.3	3.80e-06	0	28	0	40894464	75	5567
2026-01-04 00:48:46.31	24.93	5.43	-57.8	-64.9	6.0	5.84e-01	0	28	0	44040192	81	8367
2026-01-04 00:48:47.31	24.93	5.51	-54.3	-56.9	12.2	7.00e-07	0	28	0	47185920	75	4655
2026-01-04 00:48:48.32	24.93	5.58	-53.8	-56.2	12.6	0.00e+00	0	28	0	50331648	74	4577
2026-01-04 00:48:49.32	24.93	5.65	-53.7	-56.0	12.8	0.00e+00	0	28	0	53477376	74	4467
2026-01-04 00:48:50.32	24.93	5.72	-53.1	-55.1	13.2	0.00e+00	0	28	0	56623104	72	4517
2026-01-04 00:48:51.31	24.93	5.80	-52.4	-54.3	13.6	0.00e+00	0	28	0	59768832	71	4348
2026-01-04 00:48:52.32	24.93	5.87	-52.3	-54.0	13.8	0.00e+00	0	28	0	62914560	71	4240
2026-01-04 00:48:53.31	24.93	5.94	-52.3	-54.2	13.7	0.00e+00	0	28	0	66060288	71	4294
2026-01-04 00:48:54.32	24.92	6.02	-52.1	-53.8	13.8	0.00e+00	0	28	0	69206016	70	4389
2026-01-04 00:48:55.32	24.92	6.09	-52.1	-53.8	13.8	0.00e+00	0	28	0	72351744	70	4376
2026-01-04 00:48:56.32	24.92	6.17	-52.1	-53.8	13.8	0.00e+00	0	28	0	75497472	70	4384
2026-01-04 00:48:57.32	24.92	6.24	-52.1	-53.9	13.8	0.00e+00	0	28	0	78643200	70	4407
2026-01-04 00:48:58.32	24.92	6.32	-52.0	-53.7	13.9	0.00e+00	0	28	0	81788928	70	4327
2026-01-04 00:48:59.32	24.92	6.39	-51.9	-53.6	13.9	0.00e+00	0	28	0	84934656	70	4273
2026-01-04 00:49:00.32	24.92	6.47	-51.9	-53.6	13.9	0.00e+00	0	28	0	88080384	70	4257
2026-01-04 00:49:01.32	24.92	6.54	-52.0	-53.7	13.9	0.00e+00	0	28	0	91226112	70	4323
2026-01-04 00:49:02.33	24.92	6.62	-51.9	-53.6	13.9	0.00e+00	0	28	0	94371840	70	4265
2026-01-04 00:49:03.33	24.92	6.69	-51.9	-53.5	14.0	0.00e+00	0	28	0	97517568	70	4236
2026-01-04 00:49:04.33	24.92	6.77	-51.9	-53.6	14.0	0.00e+00	0	28	0	100663296	70	4262
2026-01-04 00:49:05.33	24.92	6.85	-51.9	-53.6	13.9	0.00e+00	0	28	0	103809024	70	4275
2026-01-04 00:49:06.33	24.92	6.92	-51.9	-53.6	14.0	0.00e+00	0	28	0	106954752	70	4249
2026-01-04 00:49:07.33	24.91	7.00	-52.0	-53.7	13.9	0.00e+00	0	28	0	110100480	70	4310
2026-01-04 00:49:08.32	24.91	7.08	-51.9	-53.6	13.9	0.00e+00	0	28	0	113246208	70	4275
2026-01-04 00:49:09.31	24.91	7.15	-51.9	-53.6	13.9	0.00e+00	0	28	0	116391936	70	4274
2026-01-04 00:49:10.30	24.91	7.23	-52.0	-53.7	13.9	0.00e+00	0	28	0	119537664	70	4313
2026-01-04 00:49:11.30	24.91	7.31	-51.8	-53.4	14.1	0.00e+00	0	28	0	122683392	70	4189
2026-01-04 00:49:12.30	24.91	7.38	-51.7	-53.3	14.1	0.00e+00	0	28	0	125829120	70	4121
2026-01-04 00:49:13.29	24.91	7.46	-51.8	-53.4	14.0	0.00e+00	0	28	0	128974848	69	4424
2026-01-04 00:49:14.30	24.91	7.54	-51.8	-53.4	14.0	0.00e+00	0	28	0	132120576	69	4427
2026-01-04 00:49:15.30	24.91	7.62	-51.6	-53.2	14.1	0.00e+00	0	28	0	135266304	69	4313
2026-01-04 00:49:16.30	24.91	7.70	-51.6	-53.2	14.1	0.00e+00	0	28	0	138412032	69	4332
2026-01-04 00:49:17.30	24.90	7.78	-51.6	-53.2	14.1	0.00e+00	0	28	0	141557760	69	4315
2026-01-04 00:49:18.29	24.90	7.85	-51.6	-53.2	14.1	0.00e+00	0	28	0	144703488	69	4329
2026-01-04 00:49:19.28	24.90	7.93	-51.6	-53.2	14.1	0.00e+00	0	28	0	147849216	69	4303
2026-01-04 00:49:20.28	24.90	8.01	-51.4	-53.0	14.2	0.00e+00	0	28	0	149946368	69	4202
2026-01-04 00:49:21.28	24.90	8.09	-51.5	-53.1	14.2	0.00e+00	0	28	0	153092096	69	4270
2026-01-04 00:49:22.28	24.90	8.17	-51.5	-53.1	14.2	0.00e+00	0	28	0	156237824	69	4264
2026-01-04 00:49:23.28	24.90	8.25	-51.4	-53.0	14.2	0.00e+00	0	28	0	159383552	69	4213
2026-01-04 00:49:24.28	24.89	8.33	-51.5	-53.0	14.2	0.00e+00	0	28	0	162529280	69	4226
2026-01-04 00:49:25.28	24.89	8.42	-51.4	-53.0	14.2	0.00e+00	0	28	0	165675008	69	4202
2026-01-04 00:49:26.27	24.89	8.50	-51.4	-53.0	14.2	0.00e+00	0	28	0	168820736	69	4207
2026-01-04 00:49:27.26	24.89	8.58	-51.3	-52.9	14.3	0.00e+00	0	28	0	171966464	69	4157
2026-01-04 00:49:28.27	24.89	8.66	-51.4	-52.9	14.3	0.00e+00	0	28	0	175112192	69	4169
2026-01-04 00:49:29.27	24.89	8.74	-51.3	-52.8	14.3	0.00e+00	0	28	0	178257920	69	4133
2026-01-04 00:49:30.27	24.89	8.82	-51.4	-52.9	14.3	0.00e+00	0	28	0	181403648	69	4171
2026-01-04 00:49:31.27	24.88	8.91	-51.2	-52.7	14.3	0.00e+00	0	28	0	184549376	69	4097
2026-01-04 00:49:32.28	24.88	8.99	-51.2	-52.7	14.4	0.00e+00	0	28	0	187695104	69	4084
2026-01-04 00:49:33.27	24.88	9.07	-51.2	-52.7	14.4	0.00e+00	0	28	0	190840832	69	4081
2026-01-04 00:49:34.28	24.88	9.16	-51.2	-52.7	14.4	0.00e+00	0	28	0	193986560	69	4056
2026-01-04 00:49:35.27	24.88	9.24	-51.1	-52.6	14.3	0.00e+00	0	28	0	197132288	68	4244
2026-01-04 00:49:36.27	24.87	9.32	-51.1	-52.6	14.3	0.00e+00	0	28	0	200278016	68	4277
2026-01-04 00:49:37.27	24.87	9.41	-51.2	-52.6	14.3	0.00e+00	0	28	0	203423744	68	4290
2026-01-04 00:49:38.27	24.87	9.49	-51.1	-52.5	14.4	0.00e+00	0	28	0	206569472	68	4237
2026-01-04 00:49:39.27	24.87	9.58	-51.0	-52.5	14.4	0.00e+00	0	28	0	209715200	68	4211
2026-01-04 00:49:40.27	24.87	9.66	-51.1	-52.6	14.3	0.00e+00	0	29	0	212860928	68	4280
2026-01-04 00:49:41.27	24.86	9.75	-51.1	-52.6	14.3	0.00e+00	0	28	0	216006656	68	4262
2026-01-04 00:49:42.27	24.86	9.83	-51.0	-52.5	14.4	0.00e+00	0	28	0	219152384	68	4205
2026-01-04 00:49:43.27	24.86	9.92	-51.0	-52.4	14.4	0.00e+00	0	28	0	222298112	68	4175
2026-01-04 00:49:44.26	24.86	10.01	-51.0	-52.4	14.4	0.00e+00	0	28	0	225443840	68	4176
2026-01-04 00:49:45.26	24.86	10.09	-51.0	-52.4	14.4	0.00e+00	0	28	0	228589568	68	4176
2026-01-04 00:49:46.26	24.85	10.18	-50.9	-52.3	14.5	0.00e+00	0	28	0	231735296	68	4144
2026-01-04 00:49:47.26	24.85	10.27	-50.9	-52.4	14.4	0.00e+00	0	28	0	234881024	68	4154
2026-01-04 00:49:48.26	24.85	10.35	-50.8	-52.2	14.5	0.00e+00	0	29	0	238026752	68	4068
2026-01-04 00:49:49.27	24.85	10.44	-50.9	-52.3	14.5	0.00e+00	0	28	0	241172480	68	4142
2026-01-04 00:49:50.27	24.84	10.53	-50.9	-52.3	14.5	0.00e+00	0	28	0	244318208	68	4122
2026-01-04 00:49:51.27	24.84	10.62	-50.8	-52.2	14.5	0.00e+00	0	28	0	247463936	68	4088
2026-01-04 00:49:52.27	24.84	10.71	-50.7	-52.1	14.6	0.00e+00	0	28	0	250609664	68	4023
2026-01-04 00:49:53.28	24.84	10.80	-50.7	-52.2	14.6	0.00e+00	0	28	0	253755392	68	4057
2026-01-04 00:49:54.27	24.83	10.89	-50.7	-52.1	14.6	0.00e+00	0	28	0	256901120	68	4015
2026-01-04 00:49:55.27	24.83	10.98	-50.5	-51.9	14.5	0.00e+00	0	28	0	260046848	67	4178
2026-01-04 00:49:56.27	24.83	11.07	-50.6	-52.0	14.5	0.00e+00	0	28	0	263192576	67	4208
2026-01-04 00:49:57.26	24.83	11.16	-50.4	-51.8	14.6	0.00e+00	0	28	0	266338304	67	4128
2026-01-04 00:49:58.26	24.82	11.25	-50.4	-51.8	14.6	0.00e+00	0	28	0	269484032	67	4103
2026-01-04 00:49:59.26	24.82	11.34	-50.4	-51.7	14.6	0.00e+00	0	28	0	272629760	67	4097
2026-01-04 00:50:00.25	24.82	11.43	-50.3	-51.7	14.6	0.00e+00	0	29	0	275775488	67	4081
2026-01-04 00:50:01.25	24.82	11.52	-50.4	-51.8	14.6	0.00e+00	0	28	0	278921216	67	4101
2026-01-04 00:50:02.25	24.81	11.61	-50.5	-51.9	14.5	0.00e+00	0	28	0	282066944	67	4158
2026-01-04 00:50:03.24	24.81	11.71	-50.3	-51.7	14.6	0.00e+00	0	29	0	285212672	67	4082
2026-01-04 00:50:04.24	24.81	11.80	-50.3	-51.6	14.6	0.00e+00	0	28	0	288358400	67	4036
2026-01-04 00:50:05.23	24.80	11.89	-50.3	-51.7	14.6	0.00e+00	0	28	0	290455552	67	4057
2026-01-04 00:50:06.23	24.80	11.98	-50.3	-51.7	14.6	0.00e+00	0	28	0	293601280	67	4071
2026-01-04 00:50:07.23	24.80	12.08	-50.3	-51.7	14.6	0.00e+00	0	28	0	296747008	67	4053
2026-01-04 00:50:08.23	24.79	12.17	-50.2	-51.5	14.7	0.00e+00	0	28	0	299892736	67	3983
2026-01-04 00:50:09.22	24.79	12.27	-50.1	-51.5	14.6	0.00e+00	0	28	0	303038464	66	4214
2026-01-04 00:50:10.23	24.79	12.36	-50.1	-51.5	14.6	0.00e+00	0	29	0	306184192	66	4205
2026-01-04 00:50:11.22	24.78	12.46	-50.3	-51.6	14.6	0.00e+00	0	29	0	309329920	66	4284
2026-01-04 00:50:12.22	24.78	12.55	-50.2	-51.5	14.6	0.00e+00	0	29	0	312475648	66	4223
2026-01-04 00:50:13.22	24.78	12.65	-50.0	-51.4	14.7	0.00e+00	0	29	0	315621376	66	4157
2026-01-04 00:50:14.22	24.77	12.75	-50.1	-51.4	14.6	0.00e+00	0	29	0	318767104	66	4176
2026-01-04 00:50:15.21	24.77	12.84	-50.0	-51.4	14.7	0.00e+00	0	28	0	321912832	66	4157
2026-01-04 00:50:16.20	24.77	12.94	-50.0	-51.4	14.7	0.00e+00	0	28	0	325058560	66	4148
2026-01-04 00:50:17.20	24.76	13.04	-49.9	-51.3	14.7	0.00e+00	0	29	0	328204288	66	4107
2026-01-04 00:50:18.20	24.76	13.13	-50.0	-51.3	14.7	0.00e+00	0	28	0	331350016	66	4103
2026-01-04 00:50:19.19	24.76	13.23	-49.9	-51.2	14.7	0.00e+00	0	28	0	334495744	66	4086
2026-01-04 00:50:20.20	24.75	13.33	-49.9	-51.2	14.7	0.00e+00	0	28	0	337641472	66	4098
2026-01-04 00:50:21.20	24.75	13.43	-49.8	-51.1	14.8	0.00e+00	0	28	0	340787200	66	4046
2026-01-04 00:50:22.19	24.75	13.53	-49.8	-51.1	14.8	0.00e+00	0	29	0	343932928	66	4047
2026-01-04 00:50:23.20	24.74	13.63	-49.9	-51.2	14.7	0.00e+00	0	28	0	347078656	66	4081
2026-01-04 00:50:24.20	24.74	13.73	-49.8	-51.1	14.8	0.00e+00	0	28	0	350224384	66	4025
2026-01-04 00:50:25.19	24.73	13.83	-49.8	-51.1	14.8	0.00e+00	0	29	0	353370112	66	4017
2026-01-04 00:50:26.19	24.73	13.93	-49.8	-51.1	14.8	0.00e+00	0	29	0	356515840	66	4017
2026-01-04 00:50:27.18	24.72	14.03	-49.9	-51.2	14.7	0.00e+00	0	29	0	359661568	66	4078
2026-01-04 00:50:28.18	24.72	14.14	-49.7	-51.0	14.8	0.00e+00	0	29	0	362807296	66	3990
2026-01-04 00:50:29.17	24.72	14.24	-49.7	-51.0	14.8	0.00e+00	0	29	0	365953024	66	3986
2026-01-04 00:50:30.17	24.71	14.34	-49.7	-51.0	14.8	0.00e+00	0	28	0	369098752	66	3969
2026-01-04 00:50:31.17	24.71	14.44	-49.8	-51.1	14.8	0.00e+00	0	28	0	372244480	66	4005
2026-01-04 00:50:32.17	24.70	14.55	-49.6	-50.9	14.8	0.00e+00	0	29	0	375390208	65	4169
2026-01-04 00:50:33.17	24.70	14.65	-49.7	-51.0	14.7	0.00e+00	0	28	0	378535936	65	4198
2026-01-04 00:50:34.18	24.69	14.76	-49.6	-50.9	14.8	0.00e+00	0	28	0	381681664	65	4160
2026-01-04 00:50:35.17	24.69	14.86	-49.6	-50.9	14.8	0.00e+00	0	29	0	384827392	65	4162
2026-01-04 00:50:36.18	24.68	14.97	-49.6	-50.8	14.8	0.00e+00	0	28	0	387973120	65	4145
2026-01-04 00:50:37.18	24.68	15.08	-49.5	-50.8	14.8	0.00e+00	0	29	0	391118848	65	4103
2026-01-04 00:50:38.18	24.68	15.18	-49.6	-50.8	14.8	0.00e+00	0	29	0	394264576	65	4135
2026-01-04 00:50:39.18	24.67	15.29	-49.6	-50.9	14.8	0.00e+00	0	29	0	397410304	65	4153
2026-01-04 00:50:40.18	24.67	15.40	-49.6	-50.8	14.8	0.00e+00	0	29	0	400556032	65	4137
2026-01-04 00:50:41.18	24.66	15.50	-49.6	-50.8	14.8	0.00e+00	0	29	0	403701760	65	4126
2026-01-04 00:50:42.17	24.66	15.61	-49.6	-50.8	14.8	0.00e+00	0	29	0	406847488	65	4138
2026-01-04 00:50:43.17	24.65	15.72	-49.6	-50.9	14.8	0.00e+00	0	28	0	409993216	65	4146
2026-01-04 00:50:44.17	24.64	15.83	-49.6	-50.8	14.8	0.00e+00	0	29	0	413138944	65	4129
2026-01-04 00:50:45.16	24.64	15.94	-49.6	-50.9	14.8	0.00e+00	0	29	0	416284672	65	4173
2026-01-04 00:50:46.17	24.63	16.05	-49.6	-50.9	14.8	0.00e+00	0	29	0	418381824	65	4153
2026-01-04 00:50:47.17	24.63	16.16	-49.6	-50.8	14.8	0.00e+00	0	28	0	421527552	65	4141
2026-01-04 00:50:48.16	24.62	16.27	-49.6	-50.9	14.8	0.00e+00	0	29	0	424673280	65	4160
2026-01-04 00:50:49.16	24.62	16.39	-49.6	-50.9	14.8	0.00e+00	0	29	0	427819008	65	4168
2026-01-04 00:50:50.16	24.61	16.50	-49.6	-50.9	14.8	0.00e+00	0	29	0	430964736	65	4174
2026-01-04 00:50:51.16	24.61	16.61	-49.7	-50.9	14.8	0.00e+00	0	29	0	434110464	65	4191
2026-01-04 00:50:52.16	24.60	16.72	-49.7	-51.0	14.8	0.00e+00	0	29	0	437256192	65	4207
2026-01-04 00:50:53.16	24.59	16.84	-49.7	-51.0	14.8	0.00e+00	0	29	0	440401920	65	4219
2026-01-04 00:50:54.16	24.59	16.95	-49.8	-51.0	14.7	0.00e+00	0	28	0	443547648	65	4242
2026-01-04 00:50:55.16	24.58	17.07	-49.7	-51.0	14.8	0.00e+00	0	28	0	446693376	65	4194
2026-01-04 00:50:56.16	24.58	17.18	-49.8	-51.1	14.7	0.00e+00	0	29	0	449839104	65	4253
2026-01-04 00:50:57.17	24.57	17.30	-49.8	-51.0	14.7	0.00e+00	0	29	0	452984832	65	4231
2026-01-04 00:50:58.17	24.56	17.42	-49.7	-51.0	14.7	0.00e+00	0	29	0	456130560	65	4226
2026-01-04 00:50:59.17	24.56	17.54	-49.7	-51.0	14.7	0.00e+00	0	29	0	459276288	65	4221
2026-01-04 00:51:00.17	24.55	17.65	-49.8	-51.1	14.7	0.00e+00	0	29	0	462422016	65	4245
2026-01-04 00:51:01.17	24.54	17.77	-49.6	-50.9	14.8	0.00e+00	0	29	0	465567744	65	4159
2026-01-04 00:51:02.17	24.54	17.89	-49.7	-50.9	14.8	0.00e+00	0	29	0	468713472	65	4188
2026-01-04 00:51:03.16	24.53	18.01	-49.7	-51.0	14.8	0.00e+00	0	29	0	471859200	65	4196
2026-01-04 00:51:04.16	24.52	18.13	-49.6	-50.9	14.8	0.00e+00	0	29	0	475004928	65	4159
2026-01-04 00:51:05.16	24.52	18.25	-49.7	-51.0	14.8	0.00e+00	0	29	0	478150656	65	4200
2026-01-04 00:51:06.15	24.51	18.37	-49.7	-50.9	14.8	0.00e+00	0	28	0	481296384	65	4192
2026-01-04 00:51:07.15	24.50	18.49	-49.6	-50.8	14.8	0.00e+00	0	29	0	484442112	65	4143
2026-01-04 00:51:08.15	24.50	18.62	-49.5	-50.8	14.8	0.00e+00	0	29	0	487587840	65	4117
2026-01-04 00:51:09.14	24.49	18.74	-49.6	-50.8	14.8	0.00e+00	0	29	0	490733568	65	4145
2026-01-04 00:51:10.14	24.48	18.86	-49.5	-50.7	14.9	0.00e+00	0	29	0	493879296	65	4081
2026-01-04 00:51:11.14	24.47	18.99	-49.5	-50.8	14.9	0.00e+00	0	29	0	497025024	65	4100
2026-01-04 00:51:12.14	24.47	19.11	-49.5	-50.7	14.9	0.00e+00	0	29	0	500170752	65	4083
2026-01-04 00:51:13.12	24.46	19.24	-49.5	-50.7	14.9	0.00e+00	0	29	0	503316480	65	4088
2026-01-04 00:51:14.12	24.45	19.36	-49.5	-50.7	14.9	0.00e+00	0	29	0	506462208	65	4096
2026-01-04 00:51:15.11	24.44	19.49	-49.5	-50.8	14.8	0.00e+00	0	29	0	509607936	65	4120
2026-01-04 00:51:16.11	24.44	19.62	-49.5	-50.8	14.9	0.00e+00	0	29	0	512753664	65	4099
2026-01-04 00:51:17.10	24.43	19.74	-49.6	-50.9	14.8	0.00e+00	0	29	0	515899392	65	4150
2026-01-04 00:51:18.11	24.42	19.87	-49.5	-50.7	14.9	0.00e+00	0	29	0	519045120	65	4068
2026-01-04 00:51:19.09	24.41	20.00	-49.3	-50.6	14.9	0.00e+00	0	29	0	522190848	65	4018
2026-01-04 00:51:20.09	24.40	20.13	-49.5	-50.7	14.9	0.00e+00	0	28	0	525336576	65	4080
2026-01-04 00:51:21.08	24.40	20.26	-49.3	-50.6	14.9	0.00e+00	0	28	0	528482304	65	4011
2026-01-04 00:51:22.08	24.39	20.39	-49.4	-50.6	14.9	0.00e+00	0	29	0	530579456	65	4034
2026-01-04 00:51:23.08	24.38	20.53	-49.4	-50.6	14.9	0.00e+00	0	29	0	533725184	65	4034
2026-01-04 00:51:24.08	24.37	20.66	-49.3	-50.5	14.9	0.00e+00	0	29	0	536870912	65	3994
2026-01-04 00:51:25.09	24.36	20.79	-49.3	-50.5	15.0	0.00e+00	0	29	0	541065216	65	3981
2026-01-04 00:51:26.09	24.35	20.93	-49.3	-50.5	15.0	0.00e+00	0	29	0	544210944	65	3971
2026-01-04 00:51:27.09	24.34	21.06	-49.1	-50.3	14.9	0.00e+00	0	29	0	547356672	64	4123
2026-01-04 00:51:28.08	24.33	21.20	-49.1	-50.3	14.9	0.00e+00	0	29	0	549453824	64	4109
2026-01-04 00:51:29.08	24.32	21.34	-49.1	-50.3	14.9	0.00e+00	0	29	0	552599552	64	4105
2026-01-04 00:51:30.07	24.31	21.47	-49.0	-50.2	14.9	0.00e+00	0	29	0	555745280	64	4090
2026-01-04 00:51:31.08	24.30	21.61	-48.9	-50.1	15.0	0.00e+00	0	29	0	558891008	64	4025
2026-01-04 00:51:32.08	24.29	21.75	-49.0	-50.1	15.0	0.00e+00	0	29	0	562036736	64	4049
2026-01-04 00:51:33.08	24.29	21.89	-48.8	-49.9	15.0	0.00e+00	0	29	0	565182464	64	3946
2026-01-04 00:51:34.08	24.28	22.03	-48.7	-49.9	15.1	0.00e+00	0	29	0	568328192	64	3925
2026-01-04 00:51:35.08	24.27	22.17	-48.6	-49.7	15.0	0.00e+00	0	29	0	571473920	63	4091
2026-01-04 00:51:36.08	24.25	22.31	-48.6	-49.8	15.0	0.00e+00	0	29	0	574619648	63	4099
2026-01-04 00:51:37.08	24.24	22.46	-48.6	-49.8	15.0	0.00e+00	0	29	0	577765376	63	4128
2026-01-04 00:51:38.09	24.23	22.60	-48.6	-49.8	15.0	0.00e+00	0	29	0	580911104	63	4110
2026-01-04 00:51:39.09	24.22	22.75	-48.7	-49.8	15.0	0.00e+00	0	29	0	584056832	63	4142
2026-01-04 00:51:40.08	24.21	22.89	-48.6	-49.8	15.0	0.00e+00	0	29	0	587202560	63	4124
2026-01-04 00:51:41.08	24.20	23.04	-48.6	-49.8	15.0	0.00e+00	0	29	0	590348288	63	4113
2026-01-04 00:51:42.08	24.19	23.18	-48.4	-49.6	15.1	0.00e+00	0	28	0	593494016	63	4018
2026-01-04 00:51:43.08	24.18	23.33	-48.4	-49.5	15.1	0.00e+00	0	29	0	596639744	63	3985
2026-01-04 00:51:44.08	24.17	23.48	-48.4	-49.5	15.1	0.00e+00	0	28	0	599785472	63	3991
2026-01-04 00:51:45.08	24.16	23.63	-48.3	-49.5	15.1	0.00e+00	0	29	0	602931200	63	3972
2026-01-04 00:51:46.07	24.15	23.78	-48.3	-49.5	15.1	0.00e+00	0	29	0	606076928	63	3963
2026-01-04 00:51:47.07	24.13	23.93	-48.4	-49.6	15.1	0.00e+00	0	29	0	609222656	63	4018
2026-01-04 00:51:48.07	24.12	24.08	-48.5	-49.6	15.1	0.00e+00	0	28	0	612368384	63	4047
2026-01-04 00:51:49.07	24.11	24.24	-48.4	-49.5	15.1	0.00e+00	0	29	0	615514112	63	3980
2026-01-04 00:51:50.07	24.10	24.39	-48.3	-49.4	15.1	0.00e+00	0	29	0	618659840	63	3932
2026-01-04 00:51:51.07	24.08	24.55	-48.4	-49.5	15.1	0.00e+00	0	29	0	621805568	63	3985
2026-01-04 00:51:52.07	24.07	24.70	-48.4	-49.5	15.1	0.00e+00	0	29	0	624951296	63	3977
2026-01-04 00:51:53.06	24.06	24.86	-48.4	-49.6	15.1	0.00e+00	0	29	0	628097024	63	4009
2026-01-04 00:51:54.06	24.05	25.01	-48.5	-49.6	15.1	0.00e+00	0	29	0	631242752	63	4023
2026-01-04 00:51:55.05	24.03	25.17	-48.7	-49.8	15.0	0.00e+00	0	29	0	634388480	63	4120
2026-01-04 00:51:56.06	24.02	25.33	-48.6	-49.7	15.0	0.00e+00	0	29	0	637534208	63	4075
2026-01-04 00:51:57.06	24.01	25.49	-48.6	-49.8	15.0	0.00e+00	0	29	0	640679936	63	4114
2026-01-04 00:51:58.06	23.99	25.66	-48.6	-49.7	15.0	0.00e+00	0	29	0	643825664	63	4080
2026-01-04 00:51:59.06	23.98	25.82	-48.6	-49.8	15.0	0.00e+00	0	29	0	646971392	63	4107
2026-01-04 00:52:00.06	23.97	25.98	-48.8	-49.9	15.0	0.00e+00	0	29	0	650117120	63	4167
2026-01-04 00:52:01.06	23.95	26.15	-48.8	-50.0	14.9	0.00e+00	0	29	0	653262848	63	4201
2026-01-04 00:52:02.06	23.94	26.31	-48.9	-50.1	14.9	0.00e+00	0	29	0	656408576	63	4262
2026-01-04 00:52:03.05	23.92	26.48	-49.1	-50.3	14.9	0.00e+00	0	28	0	659554304	63	4380
2026-01-04 00:52:04.06	23.91	26.65	-49.3	-50.5	14.8	0.00e+00	0	29	0	662700032	63	4463
2026-01-04 00:52:05.05	23.89	26.81	-49.4	-50.6	14.8	0.00e+00	0	29	0	665845760	63	4528
2026-01-04 00:52:06.05	23.88	26.98	-49.4	-50.6	14.9	0.00e+00	0	29	0	668991488	64	4265
2026-01-04 00:52:07.05	23.86	27.15	-49.4	-50.6	14.8	0.00e+00	0	29	0	672137216	64	4291
2026-01-04 00:52:08.05	23.85	27.33	-49.5	-50.8	14.8	0.00e+00	0	29	0	675282944	64	4347
2026-01-04 00:52:09.05	23.83	27.50	-49.7	-50.9	14.8	0.00e+00	0	29	0	678428672	64	4422
2026-01-04 00:52:10.04	23.82	27.67	-49.7	-51.0	14.7	0.00e+00	0	28	0	681574400	64	4446
2026-01-04 00:52:11.05	23.80	27.85	-49.8	-51.0	14.7	0.00e+00	0	29	0	684720128	64	4492
2026-01-04 00:52:12.04	23.78	28.02	-49.8	-51.1	14.7	0.00e+00	0	28	0	687865856	64	4522
2026-01-04 00:52:13.04	23.77	28.20	-49.8	-51.1	14.7	0.00e+00	0	29	0	689963008	64	4497
2026-01-04 00:52:14.03	23.75	28.38	-49.8	-51.1	14.7	0.00e+00	0	29	0	693108736	64	4518
2026-01-04 00:52:15.02	23.73	28.55	-49.8	-51.1	14.7	0.00e+00	0	28	0	696254464	64	4529
2026-01-04 00:52:16.02	23.72	28.73	-49.8	-51.0	14.8	0.00e+00	0	29	0	699400192	65	4238
2026-01-04 00:52:17.02	23.70	28.92	-49.8	-51.0	14.8	0.00e+00	0	29	0	702545920	65	4218
2026-01-04 00:52:18.01	23.68	29.10	-49.7	-51.0	14.8	0.00e+00	0	29	0	705691648	65	4211
2026-01-04 00:52:19.02	23.66	29.28	-49.8	-51.1	14.8	0.00e+00	0	29	0	708837376	65	4254
2026-01-04 00:52:20.01	23.64	29.47	-49.9	-51.2	14.7	0.00e+00	0	29	0	711983104	65	4298
2026-01-04 00:52:21.01	23.63	29.65	-49.7	-51.0	14.8	0.00e+00	0	29	0	715128832	65	4204
2026-01-04 00:52:22.01	23.61	29.84	-49.6	-50.8	14.9	0.00e+00	0	29	0	718274560	65	4131
2026-01-04 00:52:23.01	23.59	30.03	-49.6	-50.8	14.9	0.00e+00	0	29	0	721420288	65	4120
2026-01-04 00:52:24.00	23.57	30.22	-49.5	-50.7	14.9	0.00e+00	0	29	0	724566016	65	4081
2026-01-04 00:52:24.99	23.55	30.41	-49.5	-50.8	14.9	0.00e+00	0	29	0	727711744	65	4109
2026-01-04 00:52:25.99	23.53	30.60	-49.5	-50.8	14.9	0.00e+00	0	29	0	730857472	65	4102
2026-01-04 00:52:26.99	23.51	30.80	-49.5	-50.8	14.9	0.00e+00	0	29	0	734003200	65	4101
2026-01-04 00:52:27.98	23.49	30.99	-49.5	-50.7	14.9	0.00e+00	0	29	0	737148928	65	4069
2026-01-04 00:52:28.98	23.47	31.19	-49.4	-50.6	15.0	0.00e+00	0	29	0	740294656	65	4019
2026-01-04 00:52:29.99	23.45	31.39	-49.4	-50.6	15.0	0.00e+00	0	29	0	743440384	65	4021
2026-01-04 00:52:30.99	23.42	31.59	-49.3	-50.5	15.0	0.00e+00	0	29	0	746586112	65	3973
2026-01-04 00:52:32.00	23.40	31.79	-49.3	-50.6	15.0	0.00e+00	0	28	0	749731840	65	4005
2026-01-04 00:52:32.99	23.38	31.99	-49.3	-50.5	15.0	0.00e+00	0	29	0	752877568	65	4001
2026-01-04 00:52:33.98	23.36	32.19	-49.5	-50.7	14.9	0.00e+00	0	29	0	756023296	65	4089
2026-01-04 00:52:34.98	23.34	32.40	-49.6	-50.9	14.9	0.00e+00	0	29	0	759169024	65	4154
2026-01-04 00:52:35.98	23.31	32.61	-49.7	-50.9	14.9	0.00e+00	0	29	0	762314752	65	4180
2026-01-04 00:52:36.99	23.29	32.82	-49.8	-51.0	14.8	0.00e+00	0	28	0	765460480	65	4228
2026-01-04 00:52:37.99	23.26	33.02	-49.9	-51.1	14.8	0.00e+00	0	29	0	768606208	65	4260
2026-01-04 00:52:38.99	23.24	33.24	-49.9	-51.2	14.8	0.00e+00	0	29	0	771751936	65	4299
2026-01-04 00:52:39.99	23.22	33.45	-50.0	-51.2	14.8	0.00e+00	0	29	0	774897664	65	4322
2026-01-04 00:52:40.98	23.19	33.66	-50.1	-51.3	14.7	0.00e+00	0	29	0	778043392	65	4381
2026-01-04 00:52:41.98	23.17	33.87	-50.3	-51.6	14.6	0.00e+00	0	29	0	781189120	65	4513
2026-01-04 00:52:42.98	23.14	34.09	-50.5	-51.8	14.6	0.00e+00	0	29	0	784334848	66	4346
2026-01-04 00:52:43.97	23.11	34.31	-50.6	-51.9	14.6	0.00e+00	0	29	0	787480576	66	4435
2026-01-04 00:52:44.97	23.09	34.53	-50.8	-52.1	14.5	0.00e+00	0	29	0	790626304	66	4526
2026-01-04 00:52:45.97	23.06	34.75	-50.9	-52.3	14.5	0.00e+00	0	29	0	793772032	66	4607
2026-01-04 00:52:46.97	23.03	34.97	-50.9	-52.3	14.6	0.00e+00	0	29	0	796917760	67	4371
2026-01-04 00:52:47.97	23.01	35.20	-51.2	-52.6	14.4	0.00e+00	0	29	0	799014912	67	4505
2026-01-04 00:52:48.97	22.98	35.42	-51.2	-52.6	14.4	0.00e+00	0	29	0	802160640	67	4504
2026-01-04 00:52:49.97	22.95	35.65	-51.6	-53.0	14.4	0.00e+00	0	28	0	805306368	68	4473
2026-01-04 00:52:50.96	22.92	35.88	-51.7	-53.1	14.3	0.00e+00	0	29	0	808452096	68	4540
2026-01-04 00:52:51.96	22.89	36.11	-51.7	-53.2	14.3	0.00e+00	0	29	0	811597824	68	4563
2026-01-04 00:52:52.97	22.86	36.34	-51.7	-53.2	14.3	0.00e+00	0	29	0	814743552	68	4582
2026-01-04 00:52:53.97	22.83	36.58	-51.6	-53.0	14.4	0.00e+00	0	29	0	817889280	68	4476
2026-01-04 00:52:54.97	22.80	36.81	-51.6	-53.1	14.4	0.00e+00	0	29	0	821035008	68	4504
2026-01-04 00:52:55.97	22.77	37.05	-51.4	-52.8	14.5	0.00e+00	0	29	0	824180736	68	4389
2026-01-04 00:52:56.96	22.74	37.29	-51.4	-52.8	14.5	0.00e+00	0	29	0	827326464	68	4352
2026-01-04 00:52:57.96	22.70	37.53	-51.5	-52.9	14.4	0.00e+00	0	29	0	830472192	68	4437
2026-01-04 00:52:58.96	22.67	37.77	-51.5	-52.9	14.4	0.00e+00	0	29	0	833617920	68	4430
2026-01-04 00:52:59.95	22.64	38.02	-51.7	-53.1	14.4	0.00e+00	0	29	0	836763648	68	4538
2026-01-04 00:53:00.95	22.60	38.26	-51.7	-53.2	14.3	0.00e+00	0	29	0	839909376	68	4551
2026-01-04 00:53:01.95	22.57	38.51	-51.7	-53.1	14.4	0.00e+00	0	29	0	843055104	68	4500
2026-01-04 00:53:02.94	22.53	38.76	-51.7	-53.1	14.4	0.00e+00	0	29	0	846200832	68	4508
2026-01-04 00:53:03.94	22.50	39.01	-51.7	-53.1	14.4	0.00e+00	0	29	0	849346560	68	4512
2026-01-04 00:53:04.95	22.46	39.27	-51.6	-53.0	14.4	0.00e+00	0	28	0	852492288	68	4457
2026-01-04 00:53:05.94	22.42	39.52	-51.6	-53.0	14.4	0.00e+00	0	29	0	855638016	68	4469
2026-01-04 00:53:06.94	22.38	39.78	-51.6	-53.0	14.4	0.00e+00	0	29	0	858783744	68	4457
2026-01-04 00:53:07.93	22.35	40.03	-51.6	-53.1	14.4	0.00e+00	0	29	0	861929472	68	4498
2026-01-04 00:53:08.93	22.31	40.30	-51.6	-53.0	14.4	0.00e+00	0	29	0	865075200	68	4476
2026-01-04 00:53:09.93	22.27	40.56	-51.7	-53.2	14.3	0.00e+00	0	29	0	868220928	68	4563
2026-01-04 00:53:10.93	22.22	40.82	-52.0	-53.5	14.3	0.00e+00	0	29	0	871366656	69	4447
2026-01-04 00:53:11.93	22.18	41.09	-52.2	-53.7	14.2	0.00e+00	0	29	0	874512384	69	4581
2026-01-04 00:53:12.92	22.14	41.36	-52.3	-53.9	14.1	0.00e+00	0	29	0	877658112	69	4660
2026-01-04 00:53:13.91	22.10	41.63	-52.4	-54.0	14.1	0.00e+00	0	29	0	880803840	69	4710
2026-01-04 00:53:14.91	22.05	41.90	-52.3	-53.8	14.1	0.00e+00	0	29	0	883949568	69	4631
2026-01-04 00:53:15.92	22.01	42.18	-52.3	-53.8	14.2	0.00e+00	0	29	0	887095296	69	4620
2026-01-04 00:53:16.92	21.96	42.46	-52.4	-53.9	14.1	0.00e+00	0	29	0	890241024	69	4677
2026-01-04 00:53:17.91	21.92	42.73	-52.4	-53.9	14.2	0.00e+00	0	29	0	893386752	70	4414
2026-01-04 00:53:18.91	21.87	43.01	-52.4	-53.9	14.2	0.00e+00	0	29	0	896532480	70	4405
2026-01-04 00:53:19.90	21.82	43.29	-52.3	-53.9	14.2	0.00e+00	0	29	0	899678208	70	4393
2026-01-04 00:53:20.90	21.77	43.58	-52.4	-54.0	14.2	0.00e+00	0	29	0	902823936	70	4458
2026-01-04 00:53:21.90	21.72	43.87	-52.7	-54.3	14.0	0.00e+00	0	29	0	905969664	70	4603
2026-01-04 00:53:22.89	21.67	44.15	-52.9	-54.6	14.0	0.00e+00	0	29	0	909115392	71	4502
2026-01-04 00:53:23.89	21.62	44.45	-53.0	-54.7	13.9	0.00e+00	0	29	0	912261120	71	4565
2026-01-04 00:53:24.88	21.57	44.74	-52.8	-54.5	14.0	0.00e+00	0	29	0	914358272	71	4457
2026-01-04 00:53:25.88	21.51	45.03	-52.8	-54.5	14.1	0.00e+00	0	29	0	917504000	71	4447
2026-01-04 00:53:26.87	21.46	45.33	-52.7	-54.3	14.1	0.00e+00	0	29	0	920649728	71	4377
2026-01-04 00:53:27.86	21.40	45.63	-52.6	-54.1	14.2	0.00e+00	0	29	0	923795456	71	4286
2026-01-04 00:53:28.87	21.35	45.93	-52.5	-54.0	14.3	0.00e+00	0	29	0	926941184	71	4219
2026-01-04 00:53:29.86	21.29	46.23	-52.2	-53.7	14.4	0.00e+00	0	29	0	930086912	71	4077
2026-01-04 00:53:30.87	21.23	46.54	-52.3	-53.8	14.3	0.00e+00	0	29	0	933232640	70	4346
2026-01-04 00:53:31.87	21.17	46.85	-52.0	-53.5	14.4	0.00e+00	0	29	0	936378368	70	4199
2026-01-04 00:53:32.86	21.10	47.16	-51.7	-53.0	14.5	0.00e+00	0	29	0	939524096	69	4232
2026-01-04 00:53:33.87	21.04	47.48	-51.5	-52.8	14.5	0.00e+00	0	29	0	942669824	69	4124
2026-01-04 00:53:34.86	20.97	47.79	-51.3	-52.6	14.6	0.00e+00	0	29	0	945815552	69	4043
2026-01-04 00:53:35.86	20.91	48.11	-51.0	-52.3	14.6	0.00e+00	0	29	0	948961280	68	4115
2026-01-04 00:53:36.86	20.84	48.43	-50.8	-52.1	14.8	0.00e+00	0	29	0	952107008	68	4013
2026-01-04 00:53:37.86	20.77	48.76	-50.7	-52.0	14.8	0.00e+00	0	29	0	955252736	68	3973
2026-01-04 00:53:38.85	20.70	49.08	-50.6	-51.8	14.7	0.00e+00	0	29	0	958398464	67	4138
2026-01-04 00:53:39.86	20.63	49.41	-50.8	-52.1	14.7	0.00e+00	0	29	0	961544192	67	4263
2026-01-04 00:53:40.85	20.55	49.74	-50.7	-52.0	14.7	0.00e+00	0	29	0	964689920	67	4207
2026-01-04 00:53:41.86	20.48	50.07	-50.9	-52.2	14.6	0.00e+00	0	29	0	967835648	67	4309
2026-01-04 00:53:42.86	20.40	50.41	-51.1	-52.4	14.6	0.00e+00	0	29	0	970981376	67	4411
2026-01-04 00:53:43.85	20.32	50.74	-51.1	-52.5	14.5	0.00e+00	0	29	0	974127104	67	4455
2026-01-04 00:53:44.85	20.24	51.08	-51.1	-52.4	14.5	0.00e+00	0	29	0	977272832	67	4439
2026-01-04 00:53:45.85	20.15	51.42	-51.1	-52.5	14.5	0.00e+00	0	29	0	980418560	67	4449
2026-01-04 00:53:46.85	20.07	51.77	-51.2	-52.6	14.5	0.00e+00	0	29	0	983564288	67	4502
2026-01-04 00:53:47.85	19.98	52.12	-51.3	-52.7	14.4	0.00e+00	0	29	0	986710016	67	4565
2026-01-04 00:53:48.85	19.89	52.47	-50.7	-52.0	14.7	0.00e+00	0	29	0	989855744	67	4202
2026-01-04 00:53:49.84	19.80	52.81	-50.4	-51.7	14.8	0.00e+00	0	29	0	993001472	67	4070
2026-01-04 00:53:50.84	19.70	53.17	-50.4	-51.7	14.8	0.00e+00	0	29	0	996147200	67	4069
2026-01-04 00:53:51.84	19.61	53.53	-50.0	-51.2	14.9	0.00e+00	0	29	0	999292928	66	4092
2026-01-04 00:53:52.85	19.50	53.89	-49.7	-50.9	15.0	0.00e+00	0	29	0	1002438656	66	3931
2026-01-04 00:53:53.85	19.40	54.25	-49.8	-50.9	15.0	0.00e+00	0	29	0	1005584384	66	3956
2026-01-04 00:53:54.85	19.30	54.62	-49.9	-51.1	14.9	0.00e+00	0	29	0	1008730112	66	4005
2026-01-04 00:53:55.86	19.19	54.99	-49.6	-50.8	14.9	0.00e+00	0	29	0	1011875840	65	4131
2026-01-04 00:53:56.86	19.08	55.35	-49.4	-50.5	15.0	0.00e+00	0	29	0	1015021568	65	3997
2026-01-04 00:53:57.86	18.96	55.73	-49.2	-50.4	15.1	0.00e+00	0	29	0	1018167296	65	3920
2026-01-04 00:53:58.86	18.85	56.10	-49.3	-50.5	15.1	0.00e+00	0	29	0	1021313024	65	3962
2026-01-04 00:53:59.86	18.73	56.48	-49.2	-50.3	15.1	0.00e+00	0	29	0	1024458752	65	3910
2026-01-04 00:54:00.86	18.60	56.86	-49.2	-50.4	15.1	0.00e+00	0	29	0	1027604480	65	3918
2026-01-04 00:54:01.86	18.47	57.24	-49.2	-50.4	15.0	0.00e+00	0	29	0	1030750208	64	4154
2026-01-04 00:54:02.87	18.34	57.63	-49.1	-50.3	15.0	0.00e+00	0	29	0	1033895936	64	4109
2026-01-04 00:54:03.87	18.21	58.01	-49.1	-50.2	15.1	0.00e+00	0	29	0	1037041664	64	4088
2026-01-04 00:54:04.87	18.07	58.40	-49.3	-50.5	15.0	0.00e+00	0	29	0	1040187392	64	4197
2026-01-04 00:54:05.86	17.93	58.79	-49.2	-50.3	15.0	0.00e+00	0	29	0	1043333120	64	4142
2026-01-04 00:54:06.87	17.78	59.19	-49.1	-50.3	15.1	0.00e+00	0	29	0	1046478848	64	4103
2026-01-04 00:54:07.87	17.62	59.58	-48.9	-50.0	15.1	0.00e+00	0	29	0	1049624576	64	4003
2026-01-04 00:54:08.87	17.47	59.98	-49.1	-50.2	15.1	0.00e+00	0	29	0	1052770304	64	4068
2026-01-04 00:54:09.87	17.30	60.38	-49.2	-50.3	15.0	0.00e+00	0	29	0	1055916032	64	4127
2026-01-04 00:54:10.87	17.14	60.78	-49.1	-50.3	15.0	0.00e+00	0	29	0	1059061760	64	4102
2026-01-04 00:54:11.86	16.97	61.18	-49.2	-50.3	15.0	0.00e+00	0	29	0	1062207488	64	4135
2026-01-04 00:54:12.86	16.79	61.59	-48.9	-50.1	15.1	0.00e+00	0	29	0	1065353216	64	4014
2026-01-04 00:54:13.86	16.60	62.00	-48.8	-50.0	15.1	0.00e+00	0	29	0	1067450368	64	3962
2026-01-04 00:54:14.85	16.41	62.41	-48.8	-50.0	15.1	0.00e+00	0	29	0	1070596096	64	3960
2026-01-04 00:54:15.85	16.21	62.82	-48.6	-49.8	15.1	0.00e+00	0	29	0	1073741824	63	4100
2026-01-04 00:54:16.85	16.01	63.24	-48.7	-49.8	15.1	0.00e+00	0	29	0	1076887552	63	4117
2026-01-04 00:54:17.84	15.80	63.66	-48.7	-49.8	15.1	0.00e+00	0	29	0	1080033280	63	4108
2026-01-04 00:54:18.84	15.58	64.08	-48.5	-49.6	15.1	0.00e+00	0	29	0	1083179008	63	4040
2026-01-04 00:54:19.84	15.35	64.50	-48.4	-49.4	15.2	0.00e+00	0	29	0	1086324736	63	3957
2026-01-04 00:54:20.84	15.11	64.92	-48.4	-49.4	15.2	0.00e+00	0	29	0	1089470464	63	3949
2026-01-04 00:54:21.83	14.86	65.35	-48.4	-49.5	15.2	0.00e+00	0	29	0	1092616192	63	3995
2026-01-04 00:54:22.83	14.61	65.77	-48.2	-49.3	15.2	0.00e+00	0	29	0	1095761920	63	3879
2026-01-04 00:54:23.82	14.34	66.20	-48.2	-49.3	15.2	0.00e+00	0	29	0	1098907648	62	4105
2026-01-04 00:54:24.82	14.06	66.63	-47.9	-49.0	15.2	0.00e+00	0	29	0	1102053376	62	3966
2026-01-04 00:54:25.81	13.78	67.06	-48.0	-49.0	15.2	0.00e+00	0	29	0	1105199104	62	3986
2026-01-04 00:54:26.81	13.47	67.50	-48.1	-49.1	15.2	0.00e+00	0	29	0	1108344832	62	4049
2026-01-04 00:54:27.81	13.16	67.93	-48.1	-49.1	15.2	0.00e+00	0	29	0	1111490560	62	4030
2026-01-04 00:54:28.80	12.83	68.37	-48.0	-49.1	15.2	0.00e+00	0	29	0	1114636288	62	4016
2026-01-04 00:54:29.81	12.48	68.81	-48.3	-49.3	15.1	0.00e+00	0	29	0	1117782016	62	4143
2026-01-04 00:54:30.80	12.12	69.25	-48.7	-49.8	15.0	0.00e+00	0	29	0	1120927744	62	4366
2026-01-04 00:54:31.80	11.75	69.69	-48.8	-49.9	15.0	0.00e+00	0	29	0	1124073472	62	4429
2026-01-04 00:54:32.80	11.35	70.14	-48.9	-50.1	15.0	0.00e+00	0	29	0	1127219200	63	4250
2026-01-04 00:54:33.79	10.94	70.58	-48.8	-49.9	15.1	0.00e+00	0	29	0	1130364928	63	4154
2026-01-04 00:54:34.79	10.50	71.02	-48.8	-50.0	15.0	0.00e+00	0	29	0	1133510656	63	4194
2026-01-04 00:54:35.79	10.04	71.47	-49.0	-50.1	15.0	0.00e+00	0	29	0	1136656384	63	4259
2026-01-04 00:54:36.79	9.56	71.92	-48.9	-50.1	15.0	0.00e+00	0	29	0	1139802112	63	4257
2026-01-04 00:54:37.79	9.05	72.37	-49.0	-50.1	15.0	0.00e+00	0	29	0	1142947840	63	4289
2026-01-04 00:54:38.79	8.51	72.82	-49.0	-50.2	15.0	0.00e+00	0	29	0	1146093568	63	4322
2026-01-04 00:54:39.79	7.94	73.27	-49.1	-50.3	15.0	0.00e+00	0	29	0	1149239296	63	4351
2026-01-04 00:54:40.79	7.34	73.71	-48.7	-49.9	15.1	0.00e+00	0	29	0	1152385024	63	4149
2026-01-04 00:54:41.80	6.70	74.17	-48.7	-49.8	15.1	0.00e+00	0	29	0	1155530752	63	4100
2026-01-04 00:54:42.80	6.02	74.62	-48.6	-49.6	15.1	0.00e+00	0	29	0	1158676480	63	4047
2026-01-04 00:54:43.80	5.30	75.06	-48.5	-49.6	15.1	0.00e+00	0	29	0	1161822208	63	4042
2026-01-04 00:54:44.79	4.54	75.51	-48.6	-49.7	15.1	0.00e+00	0	29	0	1164967936	63	4074
2026-01-04 00:54:45.79	3.72	75.95	-48.6	-49.7	15.1	0.00e+00	0	29	0	1168113664	63	4086
2026-01-04 00:54:46.79	2.85	76.40	-48.6	-49.7	15.1	0.00e+00	0	29	0	1171259392	63	4064
2026-01-04 00:54:47.78	1.93	76.83	-48.8	-50.0	15.0	0.00e+00	0	29	0	1174405120	63	4200
2026-01-04 00:54:48.78	0.93	77.27	-48.9	-50.1	15.0	0.00e+00	0	29	0	1177550848	63	4257
2026-01-04 00:54:49.78	359.85	77.71	-49.0	-50.1	15.0	0.00e+00	0	29	0	1179648000	63	4289
2026-01-04 00:54:50.77	358.71	78.14	-48.9	-50.0	15.0	0.00e+00	0	29	0	1182793728	63	4210
2026-01-04 00:54:51.76	357.48	78.57	-49.0	-50.1	15.0	0.00e+00	0	29	0	1185939456	63	4259
2026-01-04 00:54:52.76	356.14	78.99	-49.2	-50.4	14.9	0.00e+00	0	29	0	1189085184	63	4407
2026-01-04 00:54:53.76	354.68	79.41	-48.7	-49.7	15.1	0.00e+00	0	29	0	1192230912	63	4093
2026-01-04 00:54:54.75	353.13	79.82	-48.6	-49.7	15.1	0.00e+00	0	29	0	1195376640	63	4053
2026-01-04 00:54:55.75	351.42	80.23	-48.4	-49.5	15.2	0.00e+00	0	29	0	1198522368	63	3966
2026-01-04 00:54:56.76	349.54	80.63	-48.5	-49.6	15.2	0.00e+00	0	29	0	1201668096	63	4026
2026-01-04 00:54:57.75	347.54	81.01	-48.8	-49.8	15.1	0.00e+00	0	29	0	1204813824	63	4144
2026-01-04 00:54:58.75	345.34	81.39	-48.7	-49.8	15.1	0.00e+00	0	29	0	1207959552	63	4137
2026-01-04 00:54:59.75	342.93	81.75	-48.8	-49.9	15.1	0.00e+00	0	29	0	1211105280	63	4157
2026-01-04 00:55:00.74	340.34	82.10	-49.1	-50.2	15.0	0.00e+00	0	29	0	1214251008	63	4320
2026-01-04 00:55:01.74	337.47	82.43	-49.4	-50.6	14.9	0.00e+00	0	29	0	1217396736	64	4276
2026-01-04 00:55:02.74	334.36	82.74	-49.5	-50.7	14.9	0.00e+00	0	29	0	1220542464	64	4313
2026-01-04 00:55:03.75	330.93	83.03	-49.9	-51.1	14.9	0.00e+00	0	29	0	1223688192	65	4286
2026-01-04 00:55:04.74	327.30	83.29	-49.6	-50.8	15.0	0.00e+00	0	29	0	1226833920	65	4135
2026-01-04 00:55:05.74	323.35	83.52	-49.5	-50.7	15.1	0.00e+00	0	29	0	1229979648	65	4060
2026-01-04 00:55:06.75	319.08	83.73	-49.4	-50.5	15.1	0.00e+00	0	29	0	1233125376	65	3991
2026-01-04 00:55:07.75	314.59	83.89	-49.3	-50.4	15.1	0.00e+00	0	29	0	1236271104	65	3928
2026-01-04 00:55:08.75	309.89	84.01	-48.9	-50.0	15.1	0.00e+00	0	29	0	1239416832	64	3999
2026-01-04 00:55:09.74	305.07	84.10	-48.7	-49.8	15.2	0.00e+00	0	29	0	1242562560	64	3884
2026-01-04 00:55:10.74	300.10	84.13	-48.4	-49.4	15.2	0.00e+00	0	29	0	1245708288	63	3947
2026-01-04 00:55:11.75	295.05	84.13	-48.7	-49.8	15.1	0.00e+00	0	29	0	1248854016	63	4120
2026-01-04 00:55:12.75	290.10	84.08	-49.2	-50.4	14.9	0.00e+00	0	29	0	1251999744	63	4403
2026-01-04 00:55:13.75	285.26	83.99	-49.7	-50.9	14.8	0.00e+00	0	29	0	1255145472	64	4431
2026-01-04 00:55:14.75	280.60	83.85	-49.3	-50.5	15.0	0.00e+00	0	29	0	1258291200	64	4195
2026-01-04 00:55:15.76	276.13	83.68	-49.5	-50.7	14.9	0.00e+00	0	29	0	1261436928	64	4332
2026-01-04 00:55:16.75	272.00	83.48	-49.5	-50.6	14.9	0.00e+00	0	29	0	1264582656	64	4272
2026-01-04 00:55:17.75	268.11	83.24	-48.9	-50.0	15.1	0.00e+00	0	29	0	1267728384	64	3997
2026-01-04 00:55:18.75	264.50	82.97	-48.8	-49.9	15.2	0.00e+00	0	29	0	1270874112	64	3917
2026-01-04 00:55:19.75	261.17	82.67	-49.0	-50.1	15.0	0.00e+00	0	29	0	1274019840	63	4287
2026-01-04 00:55:20.74	258.14	82.36	-48.8	-49.9	15.1	0.00e+00	0	29	0	1277165568	63	4181
2026-01-04 00:55:21.74	255.33	82.03	-48.3	-49.3	15.2	0.00e+00	0	29	0	1280311296	63	3890
2026-01-04 00:55:22.73	252.78	81.68	-48.3	-49.3	15.2	0.00e+00	0	29	0	1283457024	63	3897
2026-01-04 00:55:23.73	250.41	81.31	-48.5	-49.6	15.2	0.00e+00	0	29	0	1286602752	63	4028
2026-01-04 00:55:24.72	248.27	80.94	-48.9	-50.0	15.1	0.00e+00	0	29	0	1289748480	63	4205
2026-01-04 00:55:25.72	246.28	80.55	-48.7	-49.8	15.1	0.00e+00	0	29	0	1292894208	63	4127
2026-01-04 00:55:26.70	244.49	80.16	-48.8	-49.9	15.1	0.00e+00	0	29	0	1296039936	63	4189
2026-01-04 00:55:27.70	242.81	79.75	-49.0	-50.1	15.0	0.00e+00	0	29	0	1299185664	63	4260
2026-01-04 00:55:28.69	241.27	79.34	-48.9	-50.1	15.0	0.00e+00	0	29	0	1302331392	63	4249
2026-01-04 00:55:29.69	239.84	78.92	-48.8	-49.9	15.1	0.00e+00	0	29	0	1305477120	63	4192
2026-01-04 00:55:30.69	238.52	78.49	-49.1	-50.2	15.0	0.00e+00	0	29	0	1308622848	63	4322
2026-01-04 00:55:31.68	237.30	78.06	-49.4	-50.6	15.0	0.00e+00	0	29	0	1310720000	64	4245
2026-01-04 00:55:32.69	236.15	77.62	-48.9	-50.0	15.2	0.00e+00	0	29	0	1313865728	64	3969
2026-01-04 00:55:33.69	235.09	77.18	-48.6	-49.7	15.1	0.00e+00	0	29	0	1317011456	63	4060
2026-01-04 00:55:34.68	234.11	76.75	-48.6	-49.6	15.1	0.00e+00	0	29	0	1320157184	63	4039
2026-01-04 00:55:35.68	233.19	76.30	-48.2	-49.2	15.3	0.00e+00	0	29	0	1323302912	63	3862
2026-01-04 00:55:36.67	232.34	75.86	-48.1	-49.2	15.2	0.00e+00	0	29	0	1326448640	62	4063
2026-01-04 00:55:37.67	231.53	75.42	-48.7	-49.8	15.0	0.00e+00	0	29	0	1329594368	62	4352
2026-01-04 00:55:38.67	230.77	74.97	-49.1	-50.3	15.0	0.00e+00	0	29	0	1332740096	63	4349
2026-01-04 00:55:39.67	230.06	74.52	-48.8	-49.9	15.1	0.00e+00	0	29	0	1335885824	63	4156
2026-01-04 00:55:40.67	229.39	74.07	-48.4	-49.4	15.2	0.00e+00	0	29	0	1339031552	63	3933
2026-01-04 00:55:41.67	228.76	73.62	-48.3	-49.3	15.2	0.00e+00	0	29	0	1342177280	63	3887
2026-01-04 00:55:42.67	228.17	73.17	-48.5	-49.6	15.2	0.00e+00	0	29	0	1345323008	63	4009
2026-01-04 00:55:43.67	227.60	72.72	-48.9	-50.0	15.1	0.00e+00	0	29	0	1348468736	63	4216
2026-01-04 00:55:44.67	227.07	72.27	-49.0	-50.1	14.9	0.00e+00	0	29	0	1351614464	63	4285
2026-01-04 00:55:45.66	226.57	71.83	-49.2	-50.4	14.9	0.00e+00	0	29	0	1354760192	63	4407
2026-01-04 00:55:46.66	226.09	71.38	-48.6	-49.7	15.1	0.00e+00	0	29	0	1357905920	63	4054
2026-01-04 00:55:47.65	225.64	70.94	-48.4	-49.5	15.2	0.00e+00	0	29	0	1361051648	63	3976
2026-01-04 00:55:48.64	225.21	70.50	-48.2	-49.2	15.1	0.00e+00	0	29	0	1364197376	62	4089
2026-01-04 00:55:49.64	224.80	70.05	-49.1	-50.3	15.0	0.00e+00	0	29	0	1367343104	63	4357
2026-01-04 00:55:50.64	224.41	69.61	-49.8	-51.0	14.9	0.00e+00	0	29	0	1370488832	64	4479
2026-01-04 00:55:51.64	224.03	69.16	-49.6	-50.8	14.9	0.00e+00	0	29	0	1373634560	64	4354
2026-01-04 00:55:52.64	223.67	68.72	-48.9	-50.0	15.2	0.00e+00	0	29	0	1376780288	64	3978
2026-01-04 00:55:53.64	223.33	68.28	-48.5	-49.5	15.2	0.00e+00	0	29	0	1379926016	63	4003
2026-01-04 00:55:54.64	223.00	67.84	-48.1	-49.1	15.2	0.00e+00	0	29	0	1383071744	62	4030
2026-01-04 00:55:55.63	222.69	67.41	-48.1	-49.2	15.2	0.00e+00	0	29	0	1386217472	62	4057
2026-01-04 00:55:56.63	222.39	66.97	-48.2	-49.3	15.1	0.00e+00	0	29	0	1389363200	62	4104
2026-01-04 00:55:57.63	222.10	66.54	-48.4	-49.4	15.0	0.00e+00	0	29	0	1392508928	62	4189
2026-01-04 00:55:58.63	221.83	66.10	-49.0	-50.2	15.0	0.00e+00	0	29	0	1395654656	63	4294
2026-01-04 00:55:59.63	221.56	65.67	-49.3	-50.5	14.9	0.00e+00	0	29	0	1398800384	63	4445
2026-01-04 00:56:00.62	221.31	65.25	-48.8	-49.9	15.0	0.00e+00	0	29	0	1401946112	63	4173
2026-01-04 00:56:01.62	221.06	64.82	-48.4	-49.4	15.2	0.00e+00	0	29	0	1405091840	63	3947
2026-01-04 00:56:02.62	220.83	64.40	-48.1	-49.1	15.2	0.00e+00	0	29	0	1408237568	62	4044
2026-01-04 00:56:03.61	220.60	63.98	-47.8	-48.8	15.3	0.00e+00	0	29	0	1411383296	62	3889
2026-01-04 00:56:04.61	220.38	63.56	-48.2	-49.2	15.1	0.00e+00	0	29	0	1414529024	61	4321
2026-01-04 00:56:05.62	220.17	63.13	-48.8	-49.8	15.0	0.00e+00	0	29	0	1417674752	62	4391
2026-01-04 00:56:06.62	219.96	62.72	-49.0	-50.1	15.0	0.00e+00	0	29	0	1420820480	63	4286
2026-01-04 00:56:07.61	219.77	62.31	-49.4	-50.5	14.9	0.00e+00	0	29	0	1422917632	64	4230
2026-01-04 00:56:08.61	219.58	61.90	-49.4	-50.5	14.9	0.00e+00	0	29	0	1426063360	64	4211
2026-01-04 00:56:09.61	219.39	61.49	-49.3	-50.4	14.9	0.00e+00	0	29	0	1429209088	64	4191
2026-01-04 00:56:10.61	219.21	61.08	-48.9	-50.0	15.1	0.00e+00	0	29	0	1432354816	64	3967
2026-01-04 00:56:11.61	219.04	60.67	-48.4	-49.5	15.2	0.00e+00	0	29	0	1435500544	63	3967
2026-01-04 00:56:12.60	218.88	60.27	-48.1	-49.2	15.1	0.00e+00	0	29	0	1438646272	62	4070
2026-01-04 00:56:13.60	218.72	59.87	-48.6	-49.7	15.0	0.00e+00	0	29	0	1441792000	62	4302
2026-01-04 00:56:14.60	218.56	59.47	-49.1	-50.3	14.9	0.00e+00	0	29	0	1444937728	63	4348
2026-01-04 00:56:15.59	218.41	59.08	-49.4	-50.5	14.9	0.00e+00	0	29	0	1448083456	64	4223
2026-01-04 00:56:16.58	218.26	58.69	-49.9	-51.1	14.8	0.00e+00	0	29	0	1451229184	64	4502
2026-01-04 00:56:17.58	218.12	58.30	-50.2	-51.4	14.7	0.00e+00	0	29	0	1454374912	65	4425
2026-01-04 00:56:18.57	217.98	57.91	-49.8	-51.0	14.8	0.00e+00	0	28	0	1457520640	65	4214
2026-01-04 00:56:19.57	217.85	57.53	-49.3	-50.4	15.1	0.00e+00	0	29	0	1460666368	65	3934
2026-01-04 00:56:20.57	217.72	57.14	-49.0	-50.1	15.1	0.00e+00	0	29	0	1463812096	64	4025
2026-01-04 00:56:21.55	217.59	56.77	-48.6	-49.7	15.1	0.00e+00	0	29	0	1466957824	63	4073
2026-01-04 00:56:22.56	217.47	56.39	-49.0	-50.1	15.0	0.00e+00	0	29	0	1470103552	63	4247
2026-01-04 00:56:23.55	217.35	56.01	-49.5	-50.6	14.9	0.00e+00	0	29	0	1473249280	64	4291
2026-01-04 00:56:24.54	217.23	55.64	-50.1	-51.3	14.8	0.00e+00	0	29	0	1476395008	65	4376
2026-01-04 00:56:25.54	217.12	55.27	-50.7	-52.0	14.7	0.00e+00	0	29	0	1479540736	66	4460
2026-01-04 00:56:26.53	217.01	54.90	-50.5	-51.7	14.8	0.00e+00	0	29	0	1482686464	66	4312
2026-01-04 00:56:27.52	216.90	54.54	-50.7	-52.0	14.7	0.00e+00	0	29	0	1485832192	66	4459
2026-01-04 00:56:28.52	216.80	54.17	-51.2	-52.5	14.5	0.00e+00	0	29	0	1488977920	67	4492
2026-01-04 00:56:29.52	216.70	53.81	-51.4	-52.8	14.4	0.00e+00	0	29	0	1492123648	67	4630
2026-01-04 00:56:30.52	216.60	53.45	-51.2	-52.5	14.6	0.00e+00	0	29	0	1495269376	68	4240
2026-01-04 00:56:31.51	216.50	53.10	-50.7	-52.0	14.8	0.00e+00	0	29	0	1498415104	68	3960
2026-01-04 00:56:32.50	216.41	52.75	-50.2	-51.4	14.9	0.00e+00	0	29	0	1501560832	67	3945
2026-01-04 00:56:33.50	216.32	52.39	-50.1	-51.3	14.9	0.00e+00	0	29	0	1504706560	66	4107
2026-01-04 00:56:34.49	216.23	52.05	-50.4	-51.6	14.8	0.00e+00	0	29	0	1507852288	66	4288
2026-01-04 00:56:35.50	216.14	51.70	-51.2	-52.5	14.6	0.00e+00	0	29	0	1510998016	67	4466
2026-01-04 00:56:36.49	216.05	51.35	-52.0	-53.5	14.4	0.00e+00	0	29	0	1514143744	69	4447
2026-01-04 00:56:37.49	215.97	51.01	-52.2	-53.6	14.3	0.00e+00	0	29	0	1517289472	69	4533
2026-01-04 00:56:38.49	215.89	50.67	-52.0	-53.4	14.4	0.00e+00	0	29	0	1520435200	69	4428
2026-01-04 00:56:39.49	215.81	50.33	-52.0	-53.4	14.4	0.00e+00	0	29	0	1523580928	69	4434
2026-01-04 00:56:40.49	215.73	50.00	-52.4	-53.9	14.2	0.00e+00	0	29	0	1526726656	69	4681
2026-01-04 00:56:41.49	215.65	49.66	-52.7	-54.3	14.2	0.00e+00	0	29	0	1529872384	70	4621
2026-01-04 00:56:42.49	215.58	49.33	-53.3	-55.0	13.9	0.00e+00	0	29	0	1533018112	71	4708
2026-01-04 00:56:43.48	215.51	49.01	-53.3	-55.0	13.9	0.00e+00	0	29	0	1535115264	71	4747
2026-01-04 00:56:44.48	215.43	48.68	-53.1	-54.8	14.0	0.00e+00	0	29	0	1538260992	71	4637
2026-01-04 00:56:45.48	215.36	48.36	-52.8	-54.3	14.2	0.00e+00	0	29	0	1541406720	71	4376
2026-01-04 00:56:46.49	215.30	48.03	-52.4	-53.8	14.4	0.00e+00	0	29	0	1544552448	71	4139
2026-01-04 00:56:47.49	215.23	47.71	-52.1	-53.6	14.4	0.00e+00	0	29	0	1547698176	70	4244
2026-01-04 00:56:48.49	215.16	47.40	-51.6	-52.9	14.6	0.00e+00	0	29	0	1550843904	69	4193
2026-01-04 00:56:49.50	215.10	47.08	-52.1	-53.6	14.3	0.00e+00	0	29	0	1553989632	69	4509
2026-01-04 00:56:50.50	215.04	46.77	-52.4	-53.9	14.3	0.00e+00	0	29	0	1557135360	70	4419
2026-01-04 00:56:51.50	214.97	46.46	-52.7	-54.3	14.1	0.00e+00	0	29	0	1560281088	70	4633
2026-01-04 00:56:52.50	214.91	46.15	-52.8	-54.4	14.1	0.00e+00	0	29	0	1563426816	70	4652
2026-01-04 00:56:53.49	214.86	45.85	-53.0	-54.6	14.0	0.00e+00	0	29	0	1566572544	71	4522
2026-01-04 00:56:54.49	214.80	45.54	-52.8	-54.4	14.1	0.00e+00	0	29	0	1569718272	71	4407
2026-01-04 00:56:55.50	214.74	45.24	-52.9	-54.4	14.1	0.00e+00	0	29	0	1572864000	71	4436
2026-01-04 00:56:56.49	214.69	44.94	-53.1	-54.8	14.0	0.00e+00	0	29	0	1576009728	71	4601
2026-01-04 00:56:57.49	214.63	44.65	-53.6	-55.3	13.7	0.00e+00	0	29	0	1579155456	72	4644
2026-01-04 00:56:58.49	214.58	44.35	-53.8	-55.7	13.5	0.00e+00	0	29	0	1582301184	72	4842
2026-01-04 00:56:59.49	214.53	44.06	-53.7	-55.6	13.6	0.00e+00	0	29	0	1585446912	72	4760
2026-01-04 00:57:00.48	214.48	43.77	-53.7	-55.5	13.7	0.00e+00	0	29	0	1588592640	72	4738
2026-01-04 00:57:01.48	214.43	43.48	-53.7	-55.4	13.7	0.00e+00	0	29	0	1591738368	72	4696
2026-01-04 00:57:02.47	214.38	43.20	-53.3	-54.9	14.0	0.00e+00	0	29	0	1594884096	72	4427
2026-01-04 00:57:03.47	214.33	42.92	-52.5	-54.0	14.3	0.00e+00	0	29	0	1598029824	71	4224
2026-01-04 00:57:04.48	214.28	42.63	-51.9	-53.3	14.5	0.00e+00	0	29	0	1601175552	70	4120
2026-01-04 00:57:05.47	214.24	42.35	-51.7	-53.0	14.6	0.00e+00	0	29	0	1604321280	69	4233
2026-01-04 00:57:06.47	214.19	42.08	-51.9	-53.3	14.5	0.00e+00	0	29	0	1607467008	69	4360
2026-01-04 00:57:07.47	214.14	41.80	-52.2	-53.7	14.3	0.00e+00	0	29	0	1610612736	69	4572
2026-01-04 00:57:08.47	214.10	41.53	-52.4	-53.9	14.2	0.00e+00	0	29	0	1613758464	69	4669
2026-01-04 00:57:09.46	214.06	41.26	-52.7	-54.3	14.1	0.00e+00	0	29	0	1616904192	70	4599
2026-01-04 00:57:10.47	214.02	40.99	-52.9	-54.5	14.0	0.00e+00	0	29	0	1620049920	70	4717
2026-01-04 00:57:11.47	213.97	40.72	-52.7	-54.2	14.1	0.00e+00	0	29	0	1623195648	70	4584
2026-01-04 00:57:12.47	213.93	40.45	-52.5	-54.1	14.2	0.00e+00	0	29	0	1626341376	70	4520
2026-01-04 00:57:13.46	213.89	40.19	-52.4	-53.9	14.3	0.00e+00	0	29	0	1629487104	70	4398
2026-01-04 00:57:14.46	213.85	39.93	-52.2	-53.7	14.4	0.00e+00	0	29	0	1632632832	70	4293
2026-01-04 00:57:15.45	213.81	39.67	-52.2	-53.6	14.4	0.00e+00	0	29	0	1635778560	70	4280
2026-01-04 00:57:16.44	213.78	39.42	-52.1	-53.6	14.4	0.00e+00	0	29	0	1638924288	70	4262
2026-01-04 00:57:17.44	213.74	39.16	-52.1	-53.6	14.4	0.00e+00	0	29	0	1642070016	70	4265
2026-01-04 00:57:18.43	213.70	38.91	-52.0	-53.4	14.5	0.00e+00	0	29	0	1644167168	70	4152
2026-01-04 00:57:19.42	213.67	38.66	-52.0	-53.4	14.5	0.00e+00	0	29	0	1647312896	70	4183
2026-01-04 00:57:20.41	213.63	38.41	-52.1	-53.6	14.4	0.00e+00	0	29	0	1650458624	70	4255
2026-01-04 00:57:21.40	213.60	38.17	-52.3	-53.8	14.3	0.00e+00	0	29	0	1653604352	70	4377
2026-01-04 00:57:22.41	213.56	37.92	-52.3	-53.8	14.3	0.00e+00	0	29	0	1656750080	70	4374
2026-01-04 00:57:23.41	213.53	37.67	-52.2	-53.7	14.4	0.00e+00	0	29	0	1659895808	70	4302
2026-01-04 00:57:24.41	213.49	37.43	-52.1	-53.6	14.4	0.00e+00	0	29	0	1663041536	70	4255
2026-01-04 00:57:25.40	213.46	37.19	-51.7	-53.1	14.6	0.00e+00	0	29	0	1666187264	70	4025
2026-01-04 00:57:26.39	213.43	36.95	-51.4	-52.7	14.7	0.00e+00	0	29	0	1669332992	69	4095
2026-01-04 00:57:27.39	213.40	36.71	-51.0	-52.3	14.7	0.00e+00	0	29	0	1672478720	68	4107
2026-01-04 00:57:28.39	213.37	36.48	-50.8	-52.0	14.8	0.00e+00	0	29	0	1675624448	68	3989
2026-01-04 00:57:29.39	213.34	36.24	-50.5	-51.7	14.8	0.00e+00	0	29	0	1678770176	67	4091
2026-01-04 00:57:30.38	213.31	36.01	-50.2	-51.4	15.0	0.00e+00	0	29	0	1681915904	67	3938
2026-01-04 00:57:31.38	213.28	35.78	-50.3	-51.5	14.9	0.00e+00	0	29	0	1685061632	67	3984
2026-01-04 00:57:32.38	213.25	35.55	-50.5	-51.7	14.8	0.00e+00	0	29	0	1688207360	67	4083
2026-01-04 00:57:33.38	213.22	35.32	-50.7	-52.0	14.7	0.00e+00	0	29	0	1691353088	67	4229
2026-01-04 00:57:34.38	213.19	35.10	-50.9	-52.2	14.6	0.00e+00	0	29	0	1694498816	67	4321
2026-01-04 00:57:35.39	213.16	34.87	-50.9	-52.2	14.6	0.00e+00	0	29	0	1697644544	67	4324
2026-01-04 00:57:36.39	213.13	34.64	-50.8	-52.1	14.7	0.00e+00	0	29	0	1700790272	67	4283
2026-01-04 00:57:37.39	213.11	34.42	-50.9	-52.2	14.6	0.00e+00	0	29	0	1703936000	67	4303
2026-01-04 00:57:38.38	213.08	34.20	-50.8	-52.1	14.7	0.00e+00	0	29	0	1707081728	67	4265
2026-01-04 00:57:39.38	213.05	33.99	-50.8	-52.1	14.7	0.00e+00	0	29	0	1710227456	67	4248
2026-01-04 00:57:40.38	213.03	33.77	-50.8	-52.1	14.6	0.00e+00	0	29	0	1713373184	67	4284
2026-01-04 00:57:41.38	213.00	33.55	-50.6	-51.9	14.7	0.00e+00	0	29	0	1716518912	67	4161
2026-01-04 00:57:42.38	212.98	33.34	-50.5	-51.8	14.8	0.00e+00	0	29	0	1719664640	67	4119
2026-01-04 00:57:43.38	212.95	33.13	-50.2	-51.4	14.9	0.00e+00	0	29	0	1722810368	67	3951
2026-01-04 00:57:44.39	212.93	32.91	-50.1	-51.3	14.9	0.00e+00	0	29	0	1725956096	66	4110
2026-01-04 00:57:45.39	212.90	32.70	-50.0	-51.2	14.9	0.00e+00	0	29	0	1729101824	66	4065
2026-01-04 00:57:46.39	212.88	32.50	-49.9	-51.1	14.9	0.00e+00	0	29	0	1732247552	66	4048
2026-01-04 00:57:47.38	212.86	32.29	-49.8	-51.0	14.9	0.00e+00	0	29	0	1735393280	66	3999
2026-01-04 00:57:48.38	212.83	32.08	-49.8	-51.0	15.0	0.00e+00	0	29	0	1738539008	66	3994
2026-01-04 00:57:49.38	212.81	31.88	-49.9	-51.1	15.0	0.00e+00	0	29	0	1741684736	66	4021
2026-01-04 00:57:50.38	212.79	31.68	-50.0	-51.3	14.9	0.00e+00	0	29	0	1744830464	66	4104
2026-01-04 00:57:51.38	212.77	31.48	-50.2	-51.5	14.8	0.00e+00	0	29	0	1747976192	66	4211
2026-01-04 00:57:52.38	212.75	31.28	-50.4	-51.7	14.7	0.00e+00	0	29	0	1751121920	66	4321
2026-01-04 00:57:53.38	212.72	31.08	-50.4	-51.8	14.7	0.00e+00	0	29	0	1754267648	66	4346
2026-01-04 00:57:54.38	212.70	30.88	-50.5	-51.9	14.7	0.00e+00	0	29	0	1757413376	66	4392
2026-01-04 00:57:55.37	212.68	30.69	-50.5	-51.8	14.7	0.00e+00	0	29	0	1760559104	66	4378
2026-01-04 00:57:56.37	212.66	30.49	-50.3	-51.6	14.7	0.00e+00	0	29	0	1763704832	66	4257
2026-01-04 00:57:57.36	212.64	30.30	-50.3	-51.6	14.7	0.00e+00	0	29	0	1766850560	66	4274
2026-01-04 00:57:58.35	212.62	30.11	-50.3	-51.6	14.8	0.00e+00	0	29	0	1769996288	66	4263
2026-01-04 00:57:59.36	212.60	29.92	-50.2	-51.5	14.8	0.00e+00	0	29	0	1773142016	66	4213
2026-01-04 00:58:00.35	212.58	29.73	-50.3	-51.6	14.7	0.00e+00	0	29	0	1776287744	66	4251
2026-01-04 00:58:01.34	212.56	29.54	-50.2	-51.5	14.8	0.00e+00	0	29	0	1778384896	66	4225
2026-01-04 00:58:02.34	212.54	29.36	-50.1	-51.4	14.8	0.00e+00	0	29	0	1781530624	66	4167
2026-01-04 00:58:03.34	212.53	29.17	-50.1	-51.4	14.8	0.00e+00	0	29	0	1784676352	66	4169
2026-01-04 00:58:04.34	212.51	28.99	-50.1	-51.4	14.8	0.00e+00	0	29	0	1787822080	66	4175
2026-01-04 00:58:05.34	212.49	28.80	-50.2	-51.4	14.8	0.00e+00	0	29	0	1790967808	66	4179
2026-01-04 00:58:06.34	212.47	28.62	-50.0	-51.3	14.8	0.00e+00	0	29	0	1794113536	66	4111
2026-01-04 00:58:07.34	212.45	28.44	-49.9	-51.1	14.9	0.00e+00	0	29	0	1797259264	66	4044
2026-01-04 00:58:08.34	212.44	28.26	-49.9	-51.1	14.9	0.00e+00	0	29	0	1800404992	66	4028
2026-01-04 00:58:09.34	212.42	28.08	-49.8	-51.1	14.9	0.00e+00	0	29	0	1803550720	66	4008
2026-01-04 00:58:10.34	212.40	27.90	-49.8	-51.0	14.9	0.00e+00	0	29	0	1806696448	66	4001
2026-01-04 00:58:11.33	212.39	27.73	-49.9	-51.1	14.9	0.00e+00	0	29	0	1809842176	66	4043
2026-01-04 00:58:12.34	212.37	27.55	-49.6	-50.8	14.9	0.00e+00	0	29	0	1812987904	65	4143
2026-01-04 00:58:13.33	212.35	27.38	-49.6	-50.8	14.9	0.00e+00	0	29	0	1816133632	65	4104
2026-01-04 00:58:14.33	212.34	27.21	-49.6	-50.8	14.9	0.00e+00	0	29	0	1819279360	65	4107
2026-01-04 00:58:15.33	212.32	27.03	-49.5	-50.7	14.9	0.00e+00	0	29	0	1822425088	65	4058
2026-01-04 00:58:16.33	212.31	26.86	-49.5	-50.7	14.9	0.00e+00	0	29	0	1825570816	65	4074
2026-01-04 00:58:17.32	212.29	26.69	-49.3	-50.4	15.0	0.00e+00	0	29	0	1828716544	65	3941
2026-01-04 00:58:18.32	212.27	26.53	-49.3	-50.4	15.0	0.00e+00	0	29	0	1831862272	65	3949
2026-01-04 00:58:19.31	212.26	26.36	-49.3	-50.4	15.0	0.00e+00	0	29	0	1835008000	65	3954
2026-01-04 00:58:20.31	212.25	26.19	-49.2	-50.4	15.0	0.00e+00	0	29	0	1838153728	65	3938
2026-01-04 00:58:21.30	212.23	26.03	-49.1	-50.3	15.0	0.00e+00	0	29	0	1841299456	64	4110
2026-01-04 00:58:22.31	212.22	25.86	-49.2	-50.3	15.0	0.00e+00	0	29	0	1844445184	64	4144
2026-01-04 00:58:23.30	212.20	25.70	-49.1	-50.3	15.0	0.00e+00	0	29	0	1847590912	64	4134
2026-01-04 00:58:24.30	212.19	25.54	-49.1	-50.3	15.0	0.00e+00	0	29	0	1850736640	64	4129
2026-01-04 00:58:25.30	212.17	25.38	-49.2	-50.3	15.0	0.00e+00	0	29	0	1853882368	64	4137
2026-01-04 00:58:26.30	212.16	25.21	-49.3	-50.5	14.9	0.00e+00	0	29	0	1857028096	64	4207
2026-01-04 00:58:27.29	212.15	25.06	-49.2	-50.4	14.9	0.00e+00	0	29	0	1860173824	64	4159
2026-01-04 00:58:28.28	212.13	24.90	-49.3	-50.4	14.9	0.00e+00	0	29	0	1863319552	64	4184
2026-01-04 00:58:29.28	212.12	24.74	-49.2	-50.4	14.9	0.00e+00	0	29	0	1866465280	64	4173
2026-01-04 00:58:30.28	212.11	24.58	-49.3	-50.4	14.9	0.00e+00	0	29	0	1869611008	64	4186
2026-01-04 00:58:31.27	212.09	24.43	-49.2	-50.4	14.9	0.00e+00	0	29	0	1872756736	64	4150
2026-01-04 00:58:32.27	212.08	24.27	-49.2	-50.4	14.9	0.00e+00	0	29	0	1875902464	64	4171
2026-01-04 00:58:33.26	212.07	24.12	-49.2	-50.4	14.9	0.00e+00	0	29	0	1879048192	64	4184
2026-01-04 00:58:34.25	212.06	23.97	-49.2	-50.4	14.9	0.00e+00	0	29	0	1882193920	64	4176
2026-01-04 00:58:35.25	212.04	23.82	-49.3	-50.5	14.9	0.00e+00	0	29	0	1885339648	64	4204
2026-01-04 00:58:36.25	212.03	23.67	-49.3	-50.5	14.9	0.00e+00	0	29	0	1887436800	64	4200
2026-01-04 00:58:37.25	212.02	23.51	-49.4	-50.6	14.9	0.00e+00	0	29	0	1890582528	64	4266
2026-01-04 00:58:38.25	212.01	23.36	-49.3	-50.5	14.9	0.00e+00	0	29	0	1893728256	64	4218
2026-01-04 00:58:39.25	212.00	23.22	-49.4	-50.6	14.8	0.00e+00	0	29	0	1896873984	64	4284
2026-01-04 00:58:40.25	211.99	23.07	-49.4	-50.6	14.9	0.00e+00	0	29	0	1900019712	64	4274
2026-01-04 00:58:41.24	211.97	22.92	-49.3	-50.5	14.9	0.00e+00	0	29	0	1903165440	64	4229
2026-01-04 00:58:42.25	211.96	22.77	-49.3	-50.4	14.9	0.00e+00	0	29	0	1906311168	64	4193
2026-01-04 00:58:43.24	211.95	22.63	-49.2	-50.4	14.9	0.00e+00	0	29	0	1909456896	64	4157
2026-01-04 00:58:44.24	211.94	22.48	-49.3	-50.5	14.9	0.00e+00	0	29	0	1912602624	64	4194
2026-01-04 00:58:45.24	211.93	22.34	-49.1	-50.3	15.0	0.00e+00	0	29	0	1915748352	64	4109
2026-01-04 00:58:46.24	211.92	22.20	-49.2	-50.3	15.0	0.00e+00	0	29	0	1918894080	64	4136
2026-01-04 00:58:47.25	211.91	22.05	-49.0	-50.2	15.0	0.00e+00	0	29	0	1922039808	64	4052
2026-01-04 00:58:48.25	211.90	21.91	-49.1	-50.2	15.0	0.00e+00	0	29	0	1925185536	64	4098
2026-01-04 00:58:49.24	211.89	21.77	-49.1	-50.2	15.0	0.00e+00	0	29	0	1928331264	64	4091
2026-01-04 00:58:50.23	211.88	21.63	-49.0	-50.1	15.0	0.00e+00	0	29	0	1931476992	64	4039
2026-01-04 00:58:51.22	211.87	21.50	-49.0	-50.2	15.0	0.00e+00	0	29	0	1934622720	64	4053
2026-01-04 00:58:52.22	211.86	21.36	-49.0	-50.1	15.0	0.00e+00	0	29	0	1937768448	64	4047
2026-01-04 00:58:53.22	211.85	21.22	-49.0	-50.2	15.0	0.00e+00	0	29	0	1940914176	64	4060
2026-01-04 00:58:54.22	211.84	21.08	-49.1	-50.3	15.0	0.00e+00	0	29	0	1944059904	64	4104
2026-01-04 00:58:55.22	211.83	20.95	-49.0	-50.2	15.0	0.00e+00	0	29	0	1947205632	64	4056
2026-01-04 00:58:56.22	211.82	20.81	-49.0	-50.2	15.0	0.00e+00	0	29	0	1950351360	64	4058
2026-01-04 00:58:57.23	211.81	20.67	-49.0	-50.2	15.0	0.00e+00	0	29	0	1953497088	64	4056
2026-01-04 00:58:58.23	211.80	20.54	-49.1	-50.3	15.0	0.00e+00	0	29	0	1956642816	64	4110
2026-01-04 00:58:59.22	211.79	20.41	-49.1	-50.3	15.0	0.00e+00	0	29	0	1959788544	64	4118
2026-01-04 00:59:00.22	211.78	20.28	-49.2	-50.4	14.9	0.00e+00	0	29	0	1962934272	64	4151
2026-01-04 00:59:01.22	211.77	20.14	-49.2	-50.4	14.9	0.00e+00	0	29	0	1966080000	64	4148
2026-01-04 00:59:02.21	211.76	20.01	-49.3	-50.5	14.9	0.00e+00	0	29	0	1969225728	64	4199
2026-01-04 00:59:03.21	211.76	19.88	-49.3	-50.5	14.9	0.00e+00	0	29	0	1972371456	64	4236
2026-01-04 00:59:04.21	211.75	19.75	-49.3	-50.5	14.9	0.00e+00	0	29	0	1975517184	64	4214
2026-01-04 00:59:05.20	211.74	19.63	-49.3	-50.5	14.9	0.00e+00	0	29	0	1978662912	64	4234
2026-01-04 00:59:06.20	211.73	19.50	-49.3	-50.5	14.9	0.00e+00	0	29	0	1981808640	64	4241
2026-01-04 00:59:07.21	211.72	19.37	-49.4	-50.6	14.8	0.00e+00	0	29	0	1984954368	64	4286
2026-01-04 00:59:08.20	211.71	19.24	-49.4	-50.6	14.8	0.00e+00	0	29	0	1988100096	64	4270
2026-01-04 00:59:09.20	211.70	19.11	-49.4	-50.6	14.8	0.00e+00	0	29	0	1991245824	64	4291
2026-01-04 00:59:10.20	211.70	18.99	-49.4	-50.6	14.8	0.00e+00	0	29	0	1994391552	64	4285
2026-01-04 00:59:11.20	211.69	18.86	-49.5	-50.7	14.8	0.00e+00	0	29	0	1997537280	64	4331
2026-01-04 00:59:12.20	211.68	18.74	-49.6	-50.8	14.8	0.00e+00	0	29	0	2000683008	64	4353
2026-01-04 00:59:13.21	211.67	18.61	-49.6	-50.8	14.8	0.00e+00	0	29	0	2003828736	64	4364
2026-01-04 00:59:14.21	211.67	18.49	-49.7	-50.9	14.8	0.00e+00	0	29	0	2006974464	64	4415
2026-01-04 00:59:15.21	211.66	18.37	-49.7	-50.9	14.8	0.00e+00	0	29	0	2010120192	64	4434
2026-01-04 00:59:16.21	211.65	18.24	-49.7	-50.9	14.7	0.00e+00	0	29	0	2013265920	64	4431
2026-01-04 00:59:17.21	211.64	18.12	-49.7	-51.0	14.7	0.00e+00	0	29	0	2016411648	64	4460
2026-01-04 00:59:18.20	211.64	18.00	-49.8	-51.1	14.7	0.00e+00	0	29	0	2019557376	64	4497
2026-01-04 00:59:19.20	211.63	17.88	-49.8	-51.1	14.7	0.00e+00	0	29	0	2021654528	64	4517
2026-01-04 00:59:20.20	211.62	17.76	-49.9	-51.2	14.7	0.00e+00	0	29	0	2024800256	64	4554
2026-01-04 00:59:21.19	211.61	17.64	-49.9	-51.2	14.7	0.00e+00	0	29	0	2027945984	64	4548
2026-01-04 00:59:22.20	211.61	17.52	-50.0	-51.3	14.7	0.00e+00	0	29	0	2031091712	65	4356
2026-01-04 00:59:23.19	211.60	17.41	-50.0	-51.3	14.7	0.00e+00	0	29	0	2034237440	65	4354
2026-01-04 00:59:24.20	211.59	17.29	-50.1	-51.4	14.7	0.00e+00	0	29	0	2037383168	65	4398
