passes_logs/2026/01/04/R3.2S_Murmansk/R3.2S_Murmansk__20260104_035845_FENGYUN_3D_rec.log

#Pass ID: 20260104_035845_FENGYUN 3D
#Satellite: FENGYUN 3D
#Configuration: FENGYUN 3D
#almurnet v.1.7.20251203
#Start time: 2026-01-04 03:58:47

#Version: 2.2.20231116
#Station: R3.2S_Murmansk
#Location: 33.079688 lon 68.888172 lat
#TLE: 1 43010U 17072A   26003.51579816  .00000092  00000+0  65324-4 0  9992
#TLE: 2 43010  98.9912 335.1548 0001916 128.4619 231.6729 14.19692074421623

#Time	Az	El	Level	Level2	SNR	BER	BlckErr	Temp	State	Recorded	gain1	gain2
2026-01-04 03:58:47.48	30.89	2.10	-58.5	-71.5	3.8	8.45e-01	0	27	0	0	83	15852
2026-01-04 03:58:48.47	30.86	2.16	-58.5	-71.5	3.8	8.44e-01	0	27	104	0	82	16753
2026-01-04 03:58:49.47	30.83	2.23	-58.5	-71.5	3.8	8.47e-01	0	27	104	0	82	16757
2026-01-04 03:58:50.47	30.81	2.29	-58.5	-71.5	3.8	8.46e-01	0	27	104	0	82	16868
2026-01-04 03:58:51.47	30.78	2.35	-58.5	-71.5	3.8	8.46e-01	0	27	104	0	82	16774
2026-01-04 03:58:52.47	30.76	2.42	-58.5	-71.5	3.8	8.45e-01	0	27	104	0	82	16793
2026-01-04 03:58:53.47	30.73	2.48	-58.4	-71.5	3.8	8.45e-01	0	27	104	0	82	16708
2026-01-04 03:58:54.47	30.70	2.54	-58.4	-71.5	3.8	8.46e-01	0	27	104	0	82	16717
2026-01-04 03:58:55.47	30.68	2.61	-58.4	-71.5	3.8	8.44e-01	0	27	104	0	82	16747
2026-01-04 03:58:56.46	30.65	2.67	-58.4	-71.4	3.8	8.45e-01	0	28	104	0	82	16666
2026-01-04 03:58:57.46	30.62	2.74	-58.5	-71.5	3.8	8.46e-01	0	27	104	0	82	16759
2026-01-04 03:58:58.45	30.60	2.80	-58.4	-71.5	3.9	8.46e-01	0	27	104	0	82	16762
2026-01-04 03:58:59.44	30.57	2.86	-58.4	-71.5	3.8	8.46e-01	0	28	104	0	82	16727
2026-01-04 03:59:00.45	30.54	2.93	-58.4	-71.5	3.8	8.46e-01	0	27	104	0	82	16750
2026-01-04 03:59:01.44	30.51	2.99	-58.4	-71.4	3.8	8.45e-01	0	27	104	0	82	16693
2026-01-04 03:59:02.44	30.49	3.06	-58.4	-71.5	3.8	8.44e-01	0	28	104	0	82	16728
2026-01-04 03:59:03.43	30.46	3.12	-58.4	-71.5	3.8	8.46e-01	0	28	104	0	82	16719
2026-01-04 03:59:04.43	30.43	3.19	-58.5	-71.5	3.8	8.46e-01	0	27	104	0	82	16775
2026-01-04 03:59:05.44	30.40	3.25	-58.5	-71.5	3.8	8.45e-01	0	28	104	0	82	16767
2026-01-04 03:59:06.43	30.37	3.32	-58.4	-71.4	3.8	8.46e-01	0	28	104	0	82	16668
2026-01-04 03:59:07.44	30.34	3.38	-58.4	-71.4	3.8	8.46e-01	0	28	104	0	82	16598
2026-01-04 03:59:08.44	30.32	3.45	-58.4	-71.3	3.8	8.45e-01	0	28	104	0	82	16423
2026-01-04 03:59:09.43	30.29	3.52	-58.4	-71.1	3.8	8.44e-01	0	28	104	0	82	16082
2026-01-04 03:59:10.43	30.26	3.58	-58.4	-70.9	3.8	8.45e-01	0	28	104	0	82	15593
2026-01-04 03:59:11.43	30.23	3.65	-58.4	-70.5	3.8	8.46e-01	0	28	104	0	82	15031
2026-01-04 03:59:12.43	30.20	3.71	-58.3	-70.1	3.8	8.46e-01	0	28	104	0	82	14309
2026-01-04 03:59:13.43	30.17	3.78	-58.3	-69.6	3.8	8.44e-01	0	28	104	0	82	13545
2026-01-04 03:59:14.43	30.14	3.85	-58.3	-69.4	3.8	8.46e-01	0	28	104	0	82	13254
2026-01-04 03:59:15.43	30.11	3.91	-58.3	-69.2	3.8	8.44e-01	0	28	104	0	82	12879
2026-01-04 03:59:16.43	30.08	3.98	-58.3	-69.1	4.0	8.43e-01	0	28	104	0	82	12686
2026-01-04 03:59:17.43	30.05	4.05	-58.2	-69.1	3.9	8.44e-01	0	28	104	0	82	12682
2026-01-04 03:59:18.43	30.02	4.12	-58.3	-69.1	4.0	8.44e-01	0	28	104	0	82	12748
2026-01-04 03:59:19.43	29.99	4.18	-58.3	-69.2	4.0	8.45e-01	0	28	104	0	82	12835
2026-01-04 03:59:20.43	29.96	4.25	-58.3	-69.2	4.0	8.43e-01	0	28	104	0	82	12933
2026-01-04 03:59:21.43	29.93	4.32	-58.3	-69.3	3.8	8.43e-01	0	28	104	0	82	13072
2026-01-04 03:59:22.43	29.90	4.39	-58.3	-69.1	4.0	8.43e-01	0	28	104	0	82	12772
2026-01-04 03:59:23.43	29.87	4.45	-58.2	-68.3	4.1	8.39e-01	0	28	0	0	82	11614
2026-01-04 03:59:24.43	29.84	4.52	-58.0	-67.2	4.4	8.32e-01	0	28	0	0	82	10202
2026-01-04 03:59:25.43	29.81	4.59	-57.9	-66.1	4.8	7.97e-01	0	28	0	0	82	9033
2026-01-04 03:59:26.43	29.77	4.66	-57.5	-64.4	5.8	6.47e-01	0	28	0	1048576	81	7863
2026-01-04 03:59:27.43	29.74	4.73	-57.2	-63.1	6.7	1.90e-01	0	28	0	6291456	81	6782
2026-01-04 03:59:28.42	29.71	4.80	-56.8	-62.0	7.6	8.45e-02	0	28	0	11534336	80	6289
2026-01-04 03:59:29.42	29.68	4.87	-56.5	-61.3	8.2	4.29e-02	0	28	0	17825792	79	6172
2026-01-04 03:59:30.42	29.65	4.94	-56.2	-60.5	8.9	1.69e-02	0	28	0	23068672	79	5633
2026-01-04 03:59:31.43	29.61	5.01	-56.0	-60.0	9.3	9.37e-03	0	28	0	29360128	78	5604
2026-01-04 03:59:32.43	29.58	5.08	-56.4	-60.8	8.7	7.18e-03	0	28	0	34603008	78	6141
2026-01-04 03:59:33.44	29.55	5.15	-57.6	-64.3	6.0	1.75e-01	0	28	0	39845888	80	8262
2026-01-04 03:59:34.43	29.52	5.22	-56.3	-60.5	8.9	2.74e-01	0	28	0	42991616	79	5600
2026-01-04 03:59:35.43	29.48	5.29	-55.3	-58.6	10.3	2.48e-02	0	28	0	48234496	77	5079
2026-01-04 03:59:36.43	29.45	5.36	-55.2	-58.6	10.5	0.00e+00	0	28	0	53477376	75	5665
2026-01-04 03:59:37.43	29.42	5.43	-56.4	-61.0	8.3	5.51e-01	0	28	0	57671680	79	5941
2026-01-04 03:59:38.42	29.38	5.50	-52.0	-53.8	13.4	0.00e+00	0	28	0	62914560	70	4365
2026-01-04 03:59:39.43	29.35	5.57	-50.8	-52.4	14.1	0.00e+00	0	28	0	69206016	68	4150
2026-01-04 03:59:40.43	29.32	5.64	-50.1	-51.5	14.3	0.00e+00	0	28	0	74448896	66	4229
2026-01-04 03:59:41.43	29.28	5.71	-50.0	-51.5	14.3	0.00e+00	0	28	0	80740352	66	4212
2026-01-04 03:59:42.43	29.25	5.78	-49.9	-51.4	14.3	0.00e+00	0	28	0	85983232	66	4155
2026-01-04 03:59:43.43	29.21	5.85	-49.9	-51.3	14.4	0.00e+00	0	28	0	91226112	66	4128
2026-01-04 03:59:44.44	29.18	5.93	-49.9	-51.3	14.4	0.00e+00	0	28	0	97517568	66	4116
2026-01-04 03:59:45.44	29.14	6.00	-50.0	-51.4	14.3	0.00e+00	0	28	0	102760448	66	4169
2026-01-04 03:59:46.43	29.11	6.07	-50.0	-51.4	14.3	0.00e+00	0	28	0	108003328	66	4170
2026-01-04 03:59:47.43	29.07	6.14	-49.8	-51.2	14.4	0.00e+00	0	28	0	114294784	66	4077
2026-01-04 03:59:48.42	29.04	6.21	-49.8	-51.2	14.4	0.00e+00	0	28	0	119537664	66	4071
2026-01-04 03:59:49.42	29.00	6.29	-49.8	-51.2	14.5	0.00e+00	0	28	0	124780544	66	4063
2026-01-04 03:59:50.41	28.97	6.36	-49.8	-51.2	14.4	0.00e+00	0	28	0	131072000	66	4083
2026-01-04 03:59:51.41	28.93	6.43	-49.7	-51.1	14.5	0.00e+00	0	28	0	136314880	66	4029
2026-01-04 03:59:52.40	28.90	6.50	-49.9	-51.3	14.4	0.00e+00	0	28	0	141557760	66	4120
2026-01-04 03:59:53.41	28.86	6.58	-49.6	-51.0	14.5	0.00e+00	0	29	0	147849216	65	4197
2026-01-04 03:59:54.40	28.82	6.65	-49.6	-51.0	14.5	0.00e+00	0	28	0	153092096	65	4194
2026-01-04 03:59:55.40	28.79	6.72	-49.6	-51.0	14.5	0.00e+00	0	28	0	158334976	65	4202
2026-01-04 03:59:56.39	28.75	6.80	-49.6	-51.0	14.5	0.00e+00	0	28	0	164626432	65	4204
2026-01-04 03:59:57.39	28.71	6.87	-49.5	-50.8	14.5	0.00e+00	0	28	0	169869312	65	4145
2026-01-04 03:59:58.39	28.67	6.95	-49.5	-50.8	14.6	0.00e+00	0	28	0	176160768	65	4128
2026-01-04 03:59:59.39	28.64	7.02	-49.4	-50.8	14.6	0.00e+00	0	28	0	181403648	65	4117
2026-01-04 04:00:00.39	28.60	7.10	-49.6	-51.0	14.5	0.00e+00	0	28	0	186646528	65	4204
2026-01-04 04:00:01.38	28.56	7.17	-49.5	-50.8	14.6	0.00e+00	0	28	0	192937984	65	4125
2026-01-04 04:00:02.38	28.52	7.25	-49.3	-50.7	14.6	0.00e+00	0	28	0	198180864	65	4067
2026-01-04 04:00:03.37	28.48	7.32	-49.5	-50.9	14.6	0.00e+00	0	29	0	203423744	65	4154
2026-01-04 04:00:04.37	28.45	7.40	-49.4	-50.8	14.6	0.00e+00	0	28	0	208666624	65	4103
2026-01-04 04:00:05.37	28.41	7.47	-49.4	-50.7	14.6	0.00e+00	0	28	0	214958080	65	4072
2026-01-04 04:00:06.36	28.37	7.55	-49.4	-50.7	14.6	0.00e+00	0	28	0	220200960	65	4098
2026-01-04 04:00:07.36	28.33	7.62	-49.4	-50.7	14.6	0.00e+00	0	29	0	226492416	65	4077
2026-01-04 04:00:08.36	28.29	7.70	-49.3	-50.6	14.7	0.00e+00	0	28	0	231735296	65	4038
2026-01-04 04:00:09.36	28.25	7.78	-49.4	-50.8	14.6	0.00e+00	0	29	0	236978176	65	4102
2026-01-04 04:00:10.36	28.21	7.85	-49.3	-50.6	14.7	0.00e+00	0	28	0	243269632	65	4049
2026-01-04 04:00:11.36	28.17	7.93	-49.1	-50.4	14.7	0.00e+00	0	29	0	248512512	64	4191
2026-01-04 04:00:12.36	28.13	8.01	-49.2	-50.5	14.6	0.00e+00	0	28	0	253755392	64	4219
2026-01-04 04:00:13.35	28.09	8.09	-49.3	-50.6	14.6	0.00e+00	0	29	0	260046848	64	4251
2026-01-04 04:00:14.35	28.05	8.16	-49.2	-50.6	14.6	0.00e+00	0	29	0	265289728	64	4255
2026-01-04 04:00:15.34	28.01	8.24	-49.2	-50.5	14.6	0.00e+00	0	29	0	270532608	64	4223
2026-01-04 04:00:16.34	27.96	8.32	-49.2	-50.5	14.6	0.00e+00	0	29	0	276824064	64	4242
2026-01-04 04:00:17.34	27.92	8.40	-49.3	-50.6	14.6	0.00e+00	0	29	0	282066944	64	4266
2026-01-04 04:00:18.34	27.88	8.48	-49.3	-50.7	14.6	0.00e+00	0	28	0	288358400	64	4301
2026-01-04 04:00:19.34	27.84	8.56	-49.2	-50.5	14.6	0.00e+00	0	29	0	293601280	64	4242
2026-01-04 04:00:20.35	27.79	8.64	-49.3	-50.6	14.6	0.00e+00	0	29	0	298844160	64	4257
2026-01-04 04:00:21.35	27.75	8.72	-49.3	-50.6	14.6	0.00e+00	0	29	0	305135616	64	4279
2026-01-04 04:00:22.35	27.71	8.80	-49.3	-50.6	14.6	0.00e+00	0	29	0	310378496	64	4288
2026-01-04 04:00:23.35	27.67	8.88	-49.3	-50.7	14.6	0.00e+00	0	28	0	315621376	64	4299
2026-01-04 04:00:24.35	27.62	8.96	-49.3	-50.6	14.6	0.00e+00	0	28	0	321912832	64	4286
2026-01-04 04:00:25.34	27.58	9.04	-49.3	-50.7	14.6	0.00e+00	0	29	0	327155712	64	4293
2026-01-04 04:00:26.34	27.53	9.12	-49.3	-50.6	14.6	0.00e+00	0	28	0	332398592	64	4290
2026-01-04 04:00:27.33	27.49	9.20	-49.3	-50.6	14.6	0.00e+00	0	28	0	338690048	64	4278
2026-01-04 04:00:28.33	27.45	9.28	-49.3	-50.6	14.6	0.00e+00	0	29	0	343932928	64	4272
2026-01-04 04:00:29.33	27.40	9.36	-49.4	-50.7	14.6	0.00e+00	0	28	0	350224384	64	4316
2026-01-04 04:00:30.33	27.36	9.44	-49.4	-50.8	14.5	0.00e+00	0	29	0	355467264	64	4348
2026-01-04 04:00:31.33	27.31	9.52	-49.5	-50.8	14.5	0.00e+00	0	29	0	360710144	64	4377
2026-01-04 04:00:32.33	27.26	9.60	-49.3	-50.7	14.6	0.00e+00	0	29	0	367001600	64	4303
2026-01-04 04:00:33.33	27.22	9.69	-49.3	-50.7	14.6	0.00e+00	0	29	0	372244480	64	4307
2026-01-04 04:00:34.33	27.17	9.77	-49.2	-50.5	14.7	0.00e+00	0	29	0	377487360	64	4221
2026-01-04 04:00:35.33	27.13	9.85	-49.2	-50.5	14.7	0.00e+00	0	29	0	383778816	64	4236
2026-01-04 04:00:36.34	27.08	9.94	-49.2	-50.5	14.7	0.00e+00	0	29	0	389021696	64	4223
2026-01-04 04:00:37.34	27.03	10.02	-49.1	-50.4	14.7	0.00e+00	0	28	0	394264576	64	4191
2026-01-04 04:00:38.34	26.98	10.10	-49.2	-50.5	14.7	0.00e+00	0	29	0	400556032	64	4235
2026-01-04 04:00:39.34	26.94	10.19	-49.1	-50.4	14.7	0.00e+00	0	29	0	405798912	64	4170
2026-01-04 04:00:40.35	26.89	10.27	-49.0	-50.3	14.8	0.00e+00	0	28	0	412090368	64	4118
2026-01-04 04:00:41.35	26.84	10.36	-49.1	-50.4	14.7	0.00e+00	0	29	0	417333248	64	4148
2026-01-04 04:00:42.34	26.79	10.44	-49.0	-50.3	14.8	0.00e+00	0	29	0	422576128	64	4111
2026-01-04 04:00:43.34	26.74	10.53	-48.9	-50.2	14.8	0.00e+00	0	29	0	428867584	64	4076
2026-01-04 04:00:44.35	26.69	10.61	-48.9	-50.2	14.8	0.00e+00	0	29	0	434110464	64	4071
2026-01-04 04:00:45.35	26.64	10.70	-48.9	-50.2	14.8	0.00e+00	0	28	0	439353344	64	4075
2026-01-04 04:00:46.36	26.59	10.78	-48.8	-50.1	14.9	0.00e+00	0	29	0	445644800	64	4008
2026-01-04 04:00:47.36	26.54	10.87	-48.7	-50.0	14.9	0.00e+00	0	29	0	450887680	64	3981
2026-01-04 04:00:48.36	26.49	10.96	-48.7	-49.9	14.9	0.00e+00	0	29	0	456130560	63	4180
2026-01-04 04:00:49.35	26.44	11.04	-48.7	-49.9	14.8	0.00e+00	0	28	0	462422016	63	4193
2026-01-04 04:00:50.35	26.39	11.13	-48.6	-49.8	14.9	0.00e+00	0	29	0	467664896	63	4145
2026-01-04 04:00:51.35	26.34	11.22	-48.6	-49.8	14.9	0.00e+00	0	29	0	473956352	63	4119
2026-01-04 04:00:52.34	26.29	11.30	-48.6	-49.9	14.9	0.00e+00	0	29	0	479199232	63	4159
2026-01-04 04:00:53.34	26.23	11.39	-48.6	-49.9	14.8	0.00e+00	0	29	0	484442112	63	4153
2026-01-04 04:00:54.33	26.18	11.48	-48.6	-49.8	14.9	0.00e+00	0	29	0	490733568	63	4137
2026-01-04 04:00:55.33	26.13	11.57	-48.6	-49.8	14.9	0.00e+00	0	29	0	495976448	63	4123
2026-01-04 04:00:56.33	26.08	11.66	-48.5	-49.7	14.9	0.00e+00	0	29	0	501219328	63	4076
2026-01-04 04:00:57.32	26.02	11.74	-48.5	-49.8	14.9	0.00e+00	0	29	0	507510784	63	4108
2026-01-04 04:00:58.32	25.97	11.83	-48.4	-49.6	14.9	0.00e+00	0	29	0	512753664	63	4046
2026-01-04 04:00:59.30	25.92	11.92	-48.3	-49.5	15.0	0.00e+00	0	28	0	517996544	63	4003
2026-01-04 04:01:00.31	25.86	12.01	-48.4	-49.6	15.0	0.00e+00	0	28	0	524288000	63	4012
2026-01-04 04:01:01.30	25.81	12.10	-48.4	-49.6	15.0	0.00e+00	0	29	0	529530880	63	4016
2026-01-04 04:01:02.31	25.75	12.19	-48.3	-49.5	15.0	0.00e+00	0	29	0	534773760	63	3976
2026-01-04 04:01:03.31	25.69	12.28	-48.2	-49.4	15.0	0.00e+00	0	29	0	541065216	63	3949
2026-01-04 04:01:04.30	25.64	12.37	-48.2	-49.4	15.1	0.00e+00	0	29	0	546308096	63	3928
2026-01-04 04:01:05.30	25.58	12.47	-48.2	-49.4	15.0	0.00e+00	0	29	0	551550976	63	3945
2026-01-04 04:01:06.30	25.53	12.56	-48.2	-49.4	14.9	0.00e+00	0	29	0	557842432	62	4159
2026-01-04 04:01:07.30	25.47	12.65	-48.2	-49.4	14.9	0.00e+00	0	29	0	563085312	62	4185
2026-01-04 04:01:08.30	25.41	12.74	-48.1	-49.3	15.0	0.00e+00	0	29	0	569376768	62	4144
2026-01-04 04:01:09.30	25.35	12.84	-48.0	-49.2	15.0	0.00e+00	0	29	0	574619648	62	4079
2026-01-04 04:01:10.30	25.29	12.93	-48.1	-49.3	15.0	0.00e+00	0	29	0	579862528	62	4099
2026-01-04 04:01:11.30	25.24	13.02	-48.1	-49.3	15.0	0.00e+00	0	29	0	586153984	62	4106
2026-01-04 04:01:12.30	25.18	13.12	-48.2	-49.4	15.0	0.00e+00	0	29	0	591396864	62	4152
2026-01-04 04:01:13.30	25.12	13.21	-48.1	-49.3	15.0	0.00e+00	0	29	0	596639744	62	4109
2026-01-04 04:01:14.30	25.06	13.30	-48.1	-49.3	15.0	0.00e+00	0	29	0	602931200	62	4117
2026-01-04 04:01:15.30	25.00	13.40	-48.1	-49.3	15.0	0.00e+00	0	29	0	608174080	62	4122
2026-01-04 04:01:16.30	24.94	13.49	-48.1	-49.3	15.0	0.00e+00	0	29	0	613416960	62	4111
2026-01-04 04:01:17.29	24.88	13.59	-48.1	-49.3	15.0	0.00e+00	0	29	0	619708416	62	4129
2026-01-04 04:01:18.29	24.81	13.68	-48.1	-49.3	15.0	0.00e+00	0	29	0	624951296	62	4106
2026-01-04 04:01:19.28	24.75	13.78	-48.1	-49.3	15.0	0.00e+00	0	29	0	631242752	62	4103
2026-01-04 04:01:20.28	24.69	13.88	-48.1	-49.2	15.0	0.00e+00	0	29	0	636485632	62	4084
2026-01-04 04:01:21.28	24.63	13.97	-48.0	-49.2	15.0	0.00e+00	0	29	0	641728512	62	4082
2026-01-04 04:01:22.28	24.56	14.07	-48.0	-49.2	15.0	0.00e+00	0	29	0	646971392	62	4069
2026-01-04 04:01:23.28	24.50	14.17	-48.0	-49.2	15.0	0.00e+00	0	29	0	653262848	62	4070
2026-01-04 04:01:24.28	24.44	14.26	-48.0	-49.2	15.0	0.00e+00	0	29	0	658505728	62	4079
2026-01-04 04:01:25.26	24.37	14.36	-48.0	-49.2	15.0	0.00e+00	0	29	0	663748608	62	4067
2026-01-04 04:01:26.27	24.31	14.46	-48.0	-49.1	15.1	0.00e+00	0	29	0	670040064	62	4036
2026-01-04 04:01:27.27	24.24	14.56	-47.9	-49.1	15.1	0.00e+00	0	29	0	675282944	62	4011
2026-01-04 04:01:28.26	24.17	14.66	-47.9	-49.1	15.0	0.00e+00	0	29	0	681574400	62	4031
2026-01-04 04:01:29.25	24.11	14.76	-48.0	-49.2	15.0	0.00e+00	0	29	0	686817280	62	4071
2026-01-04 04:01:30.25	24.04	14.86	-47.9	-49.1	15.0	0.00e+00	0	29	0	692060160	62	4037
2026-01-04 04:01:31.22	23.98	14.95	-47.9	-49.0	15.1	0.00e+00	0	29	0	698351616	62	3988
2026-01-04 04:01:32.22	23.91	15.05	-47.7	-48.8	15.2	0.00e+00	0	29	0	703594496	62	3906
2026-01-04 04:01:33.22	23.84	15.15	-47.6	-48.7	15.1	0.00e+00	0	29	0	708837376	61	4091
2026-01-04 04:01:34.22	23.77	15.26	-47.6	-48.7	15.1	0.00e+00	0	29	0	715128832	61	4093
2026-01-04 04:01:35.21	23.70	15.36	-47.6	-48.8	15.0	0.00e+00	0	29	0	720371712	61	4107
2026-01-04 04:01:36.21	23.63	15.46	-47.6	-48.7	15.1	0.00e+00	0	29	0	725614592	61	4071
2026-01-04 04:01:37.21	23.56	15.56	-47.5	-48.6	15.1	0.00e+00	0	29	0	731906048	61	4046
2026-01-04 04:01:38.21	23.49	15.66	-47.4	-48.5	15.1	0.00e+00	0	29	0	737148928	61	3996
2026-01-04 04:01:39.21	23.42	15.77	-47.4	-48.5	15.1	0.00e+00	0	29	0	743440384	61	3988
2026-01-04 04:01:40.21	23.35	15.87	-47.4	-48.5	15.1	0.00e+00	0	29	0	748683264	61	3999
2026-01-04 04:01:41.21	23.28	15.98	-47.4	-48.5	15.2	0.00e+00	0	29	0	753926144	61	3973
2026-01-04 04:01:42.21	23.20	16.08	-47.3	-48.4	15.2	0.00e+00	0	29	0	760217600	61	3955
2026-01-04 04:01:43.21	23.13	16.19	-47.3	-48.4	15.2	0.00e+00	0	29	0	765460480	61	3956
2026-01-04 04:01:44.22	23.05	16.29	-47.3	-48.4	15.2	0.00e+00	0	29	0	770703360	61	3942
2026-01-04 04:01:45.22	22.98	16.40	-47.3	-48.4	15.2	0.00e+00	0	29	0	776994816	61	3956
2026-01-04 04:01:46.22	22.90	16.50	-47.3	-48.4	15.2	0.00e+00	0	29	0	782237696	61	3942
2026-01-04 04:01:47.21	22.83	16.61	-47.2	-48.4	15.2	0.00e+00	0	29	0	787480576	61	3918
2026-01-04 04:01:48.21	22.75	16.72	-47.3	-48.5	15.2	0.00e+00	0	29	0	793772032	61	3959
2026-01-04 04:01:49.21	22.68	16.82	-47.2	-48.3	15.3	0.00e+00	0	29	0	799014912	61	3891
2026-01-04 04:01:50.21	22.60	16.93	-47.2	-48.3	15.1	0.00e+00	0	29	0	805306368	60	4110
2026-01-04 04:01:51.20	22.52	17.04	-47.2	-48.3	15.1	0.00e+00	0	29	0	810549248	60	4120
2026-01-04 04:01:52.21	22.44	17.15	-47.1	-48.2	15.2	0.00e+00	0	29	0	815792128	60	4068
2026-01-04 04:01:53.21	22.36	17.26	-47.0	-48.1	15.2	0.00e+00	0	29	0	822083584	60	4026
2026-01-04 04:01:54.21	22.28	17.37	-47.0	-48.1	15.2	0.00e+00	0	29	0	827326464	60	4017
2026-01-04 04:01:55.20	22.20	17.48	-46.9	-48.0	15.2	0.00e+00	0	29	0	832569344	60	3977
2026-01-04 04:01:56.20	22.12	17.59	-46.8	-47.9	15.3	0.00e+00	0	29	0	837812224	60	3940
2026-01-04 04:01:57.19	22.04	17.70	-46.8	-47.9	15.3	0.00e+00	0	29	0	844103680	60	3922
2026-01-04 04:01:58.18	21.96	17.81	-46.8	-47.9	15.3	0.00e+00	0	29	0	849346560	60	3939
2026-01-04 04:01:59.18	21.88	17.92	-46.7	-47.8	15.3	0.00e+00	0	29	0	855638016	60	3883
2026-01-04 04:02:00.18	21.79	18.03	-46.7	-47.8	15.3	0.00e+00	0	29	0	860880896	60	3899
2026-01-04 04:02:01.18	21.71	18.14	-46.7	-47.8	15.3	0.00e+00	0	29	0	866123776	60	3904
2026-01-04 04:02:02.17	21.62	18.25	-47.0	-48.1	15.1	0.00e+00	0	29	0	872415232	59	4273
2026-01-04 04:02:03.17	21.54	18.37	-47.0	-48.2	15.1	0.00e+00	0	29	0	877658112	59	4295
2026-01-04 04:02:04.16	21.45	18.48	-47.0	-48.1	15.1	0.00e+00	0	29	0	882900992	59	4252
2026-01-04 04:02:05.15	21.37	18.59	-47.1	-48.2	15.1	0.00e+00	0	29	0	888143872	59	4303
2026-01-04 04:02:06.14	21.28	18.71	-46.9	-48.0	15.2	0.00e+00	0	29	0	894435328	59	4218
2026-01-04 04:02:07.13	21.19	18.82	-46.9	-48.1	15.2	0.00e+00	0	29	0	899678208	59	4246
2026-01-04 04:02:08.13	21.10	18.94	-47.0	-48.2	15.1	0.00e+00	0	29	0	905969664	59	4309
2026-01-04 04:02:09.13	21.01	19.05	-47.2	-48.3	15.1	0.00e+00	0	29	0	911212544	59	4363
2026-01-04 04:02:10.14	20.92	19.17	-47.0	-48.1	15.1	0.00e+00	0	29	0	916455424	59	4287
2026-01-04 04:02:11.13	20.83	19.29	-47.0	-48.2	15.1	0.00e+00	0	29	0	922746880	59	4304
2026-01-04 04:02:12.13	20.74	19.41	-47.1	-48.3	15.1	0.00e+00	0	29	0	927989760	59	4341
2026-01-04 04:02:13.13	20.65	19.52	-47.1	-48.2	15.1	0.00e+00	0	29	0	933232640	59	4329
2026-01-04 04:02:14.13	20.55	19.64	-47.1	-48.2	15.1	0.00e+00	0	29	0	939524096	59	4328
2026-01-04 04:02:15.13	20.46	19.76	-47.0	-48.1	15.2	0.00e+00	0	29	0	944766976	59	4247
2026-01-04 04:02:16.13	20.37	19.88	-46.9	-48.0	15.2	0.00e+00	0	29	0	950009856	59	4229
2026-01-04 04:02:17.13	20.27	20.00	-46.9	-48.0	15.2	0.00e+00	0	29	0	956301312	59	4216
2026-01-04 04:02:18.13	20.17	20.12	-46.9	-48.0	15.2	0.00e+00	0	29	0	961544192	59	4220
2026-01-04 04:02:19.13	20.08	20.24	-46.6	-47.7	15.3	0.00e+00	0	29	0	967835648	59	4082
2026-01-04 04:02:20.13	19.98	20.36	-46.6	-47.7	15.3	0.00e+00	0	29	0	973078528	59	4059
2026-01-04 04:02:21.14	19.88	20.49	-46.5	-47.6	15.3	0.00e+00	0	29	0	978321408	59	4036
2026-01-04 04:02:22.13	19.78	20.61	-46.6	-47.6	15.3	0.00e+00	0	29	0	984612864	59	4041
2026-01-04 04:02:23.13	19.68	20.73	-46.6	-47.6	15.3	0.00e+00	0	29	0	989855744	59	4040
2026-01-04 04:02:24.12	19.58	20.85	-46.7	-47.8	15.3	0.00e+00	0	29	0	995098624	59	4101
2026-01-04 04:02:25.12	19.48	20.98	-46.6	-47.7	15.3	0.00e+00	0	29	0	1001390080	59	4060
2026-01-04 04:02:26.12	19.37	21.10	-46.6	-47.7	15.3	0.00e+00	0	29	0	1006632960	59	4085
2026-01-04 04:02:27.12	19.27	21.23	-46.6	-47.7	15.3	0.00e+00	0	29	0	1012924416	59	4085
2026-01-04 04:02:28.12	19.16	21.35	-46.7	-47.7	15.2	0.00e+00	0	29	0	1018167296	59	4092
2026-01-04 04:02:29.12	19.06	21.48	-46.7	-47.8	15.2	0.00e+00	0	29	0	1023410176	59	4108
2026-01-04 04:02:30.12	18.95	21.61	-46.6	-47.7	15.3	0.00e+00	0	29	0	1029701632	59	4094
2026-01-04 04:02:31.12	18.85	21.73	-46.6	-47.7	15.3	0.00e+00	0	29	0	1034944512	59	4086
2026-01-04 04:02:32.11	18.74	21.86	-46.7	-47.8	15.3	0.00e+00	0	29	0	1040187392	59	4105
2026-01-04 04:02:33.10	18.63	21.99	-46.5	-47.6	15.3	0.00e+00	0	29	0	1046478848	59	4020
2026-01-04 04:02:34.10	18.52	22.12	-46.5	-47.6	15.3	0.00e+00	0	29	0	1051721728	59	4039
2026-01-04 04:02:35.09	18.41	22.24	-46.5	-47.6	15.3	0.00e+00	0	29	0	1056964608	59	4011
2026-01-04 04:02:36.10	18.30	22.38	-46.3	-47.3	15.4	0.00e+00	0	29	0	1063256064	59	3906
2026-01-04 04:02:37.10	18.18	22.51	-46.3	-47.3	15.4	0.00e+00	0	29	0	1068498944	59	3895
2026-01-04 04:02:38.10	18.07	22.64	-46.3	-47.3	15.4	0.00e+00	0	29	0	1074790400	59	3888
2026-01-04 04:02:39.09	17.96	22.77	-46.1	-47.2	15.3	0.00e+00	0	29	0	1080033280	58	4064
2026-01-04 04:02:40.10	17.84	22.90	-46.1	-47.1	15.3	0.00e+00	0	29	0	1085276160	58	4044
2026-01-04 04:02:41.09	17.72	23.03	-46.1	-47.2	15.3	0.00e+00	0	29	0	1090519040	58	4064
2026-01-04 04:02:42.09	17.60	23.16	-46.2	-47.2	15.3	0.00e+00	0	29	0	1096810496	58	4096
2026-01-04 04:02:43.09	17.48	23.30	-46.2	-47.2	15.3	0.00e+00	0	29	0	1102053376	58	4097
2026-01-04 04:02:44.09	17.36	23.43	-46.3	-47.3	15.3	0.00e+00	0	29	0	1107296256	58	4144
2026-01-04 04:02:45.09	17.24	23.57	-46.4	-47.4	15.2	0.00e+00	0	29	0	1113587712	58	4193
2026-01-04 04:02:46.08	17.12	23.70	-46.3	-47.4	15.2	0.00e+00	0	29	0	1118830592	58	4161
2026-01-04 04:02:47.08	17.00	23.84	-46.3	-47.4	15.3	0.00e+00	0	29	0	1125122048	58	4165
2026-01-04 04:02:48.08	16.87	23.97	-46.3	-47.3	15.3	0.00e+00	0	29	0	1130364928	58	4143
2026-01-04 04:02:49.07	16.75	24.11	-46.1	-47.2	15.3	0.00e+00	0	29	0	1135607808	58	4059
2026-01-04 04:02:50.08	16.62	24.25	-46.1	-47.2	15.3	0.00e+00	0	29	0	1141899264	58	4072
2026-01-04 04:02:51.09	16.49	24.39	-46.0	-47.1	15.4	0.00e+00	0	29	0	1147142144	58	4026
2026-01-04 04:02:52.09	16.36	24.53	-45.9	-46.9	15.4	0.00e+00	0	29	0	1152385024	58	3943
2026-01-04 04:02:53.08	16.23	24.66	-45.8	-46.9	15.4	0.00e+00	0	29	0	1158676480	58	3925
2026-01-04 04:02:54.09	16.10	24.81	-45.8	-46.8	15.4	0.00e+00	0	29	0	1163919360	58	3894
2026-01-04 04:02:55.08	15.97	24.95	-45.8	-46.9	15.4	0.00e+00	0	29	0	1169162240	58	3923
2026-01-04 04:02:56.08	15.84	25.09	-45.9	-46.9	15.4	0.00e+00	0	29	0	1175453696	58	3948
2026-01-04 04:02:57.08	15.70	25.23	-45.9	-46.9	15.4	0.00e+00	0	29	0	1180696576	58	3949
2026-01-04 04:02:58.08	15.56	25.37	-45.9	-47.0	15.4	0.00e+00	0	29	0	1186988032	58	3960
2026-01-04 04:02:59.08	15.43	25.51	-46.0	-47.0	15.4	0.00e+00	0	29	0	1192230912	58	3988
2026-01-04 04:03:00.08	15.29	25.66	-46.0	-47.1	15.4	0.00e+00	0	29	0	1197473792	58	4022
2026-01-04 04:03:01.09	15.15	25.80	-46.1	-47.1	15.3	0.00e+00	0	29	0	1203765248	58	4033
2026-01-04 04:03:02.08	15.01	25.95	-46.0	-47.0	15.4	0.00e+00	0	29	0	1209008128	58	3997
2026-01-04 04:03:03.08	14.86	26.09	-46.0	-47.0	15.4	0.00e+00	0	29	0	1214251008	58	3984
2026-01-04 04:03:04.08	14.72	26.24	-46.0	-47.1	15.4	0.00e+00	0	29	0	1220542464	58	4011
2026-01-04 04:03:05.07	14.57	26.38	-46.0	-47.1	15.4	0.00e+00	0	29	0	1225785344	58	4029
2026-01-04 04:03:06.06	14.43	26.53	-45.9	-46.9	15.4	0.00e+00	0	29	0	1231028224	58	3949
2026-01-04 04:03:07.06	14.28	26.67	-45.9	-46.9	15.4	0.00e+00	0	29	0	1237319680	58	3943
2026-01-04 04:03:08.05	14.13	26.82	-45.8	-46.8	15.5	0.00e+00	0	29	0	1242562560	58	3901
2026-01-04 04:03:09.05	13.98	26.97	-45.2	-46.6	15.5	0.00e+00	0	29	0	1248854016	57	4018
2026-01-04 04:03:10.05	13.83	27.12	-45.5	-46.5	15.4	0.00e+00	0	29	0	1254096896	57	3989
2026-01-04 04:03:11.04	13.68	27.27	-45.5	-46.6	15.4	0.00e+00	0	29	0	1259339776	57	4011
2026-01-04 04:03:12.04	13.52	27.42	-45.7	-46.7	15.4	0.00e+00	0	29	0	1264582656	57	4070
2026-01-04 04:03:13.04	13.36	27.57	-45.8	-46.8	15.3	0.00e+00	0	29	0	1270874112	57	4141
2026-01-04 04:03:14.02	13.21	27.72	-45.8	-46.9	15.3	0.00e+00	0	29	0	1276116992	57	4173
2026-01-04 04:03:15.02	13.05	27.87	-45.9	-46.9	15.3	0.00e+00	0	29	0	1281359872	57	4190
2026-01-04 04:03:16.03	12.88	28.02	-45.9	-46.9	15.3	0.00e+00	0	29	0	1287651328	57	4186
2026-01-04 04:03:17.03	12.72	28.18	-45.9	-46.9	15.3	0.00e+00	0	29	0	1292894208	57	4175
2026-01-04 04:03:18.03	12.55	28.33	-45.9	-47.0	15.3	0.00e+00	0	29	0	1299185664	57	4197
2026-01-04 04:03:19.03	12.39	28.49	-45.7	-46.8	15.3	0.00e+00	0	29	0	1304428544	57	4116
2026-01-04 04:03:20.03	12.22	28.64	-45.7	-46.8	15.3	0.00e+00	0	29	0	1309671424	57	4104
2026-01-04 04:03:21.03	12.05	28.80	-45.8	-46.8	15.3	0.00e+00	0	29	0	1315962880	57	4126
2026-01-04 04:03:22.02	11.88	28.95	-45.7	-46.7	15.4	0.00e+00	0	29	0	1321205760	57	4072
2026-01-04 04:03:23.02	11.71	29.11	-45.5	-46.5	15.4	0.00e+00	0	29	0	1326448640	57	3988
2026-01-04 04:03:24.02	11.53	29.26	-45.4	-46.4	15.4	0.00e+00	0	29	0	1332740096	57	3957
2026-01-04 04:03:25.02	11.36	29.42	-45.4	-46.4	15.4	0.00e+00	0	29	0	1337982976	57	3941
2026-01-04 04:03:26.02	11.18	29.58	-45.5	-46.6	15.4	0.00e+00	0	29	0	1343225856	57	4007
2026-01-04 04:03:27.02	11.00	29.74	-45.5	-46.6	15.4	0.00e+00	0	29	0	1349517312	57	4012
2026-01-04 04:03:28.02	10.81	29.90	-45.7	-46.7	15.4	0.00e+00	0	29	0	1354760192	57	4092
2026-01-04 04:03:29.02	10.63	30.06	-45.7	-46.7	15.4	0.00e+00	0	29	0	1361051648	57	4097
2026-01-04 04:03:30.02	10.44	30.22	-45.9	-46.9	15.3	0.00e+00	0	29	0	1366294528	57	4181
2026-01-04 04:03:31.02	10.26	30.38	-45.8	-46.8	15.3	0.00e+00	0	29	0	1371537408	57	4139
2026-01-04 04:03:32.02	10.07	30.54	-45.8	-46.9	15.3	0.00e+00	0	29	0	1377828864	57	4153
2026-01-04 04:03:33.02	9.87	30.71	-45.8	-46.8	15.3	0.00e+00	0	29	0	1383071744	57	4123
2026-01-04 04:03:34.01	9.68	30.87	-45.8	-46.9	15.3	0.00e+00	0	29	0	1388314624	57	4149
2026-01-04 04:03:35.00	9.49	31.03	-45.8	-46.8	15.3	0.00e+00	0	29	0	1394606080	57	4132
2026-01-04 04:03:36.01	9.29	31.20	-45.7	-46.7	15.4	0.00e+00	0	29	0	1399848960	57	4091
2026-01-04 04:03:37.00	9.09	31.36	-45.6	-46.6	15.4	0.00e+00	0	29	0	1405091840	57	4040
2026-01-04 04:03:38.00	8.89	31.52	-45.5	-46.5	15.4	0.00e+00	0	29	0	1411383296	57	3982
2026-01-04 04:03:39.00	8.69	31.69	-45.3	-46.4	15.5	0.00e+00	0	29	0	1416626176	57	3919
2026-01-04 04:03:40.00	8.48	31.86	-45.5	-46.5	15.4	0.00e+00	0	29	0	1422917632	57	3966
2026-01-04 04:03:41.00	8.27	32.02	-45.5	-46.6	15.4	0.00e+00	0	29	0	1428160512	57	4007
2026-01-04 04:03:42.00	8.06	32.19	-45.5	-46.5	15.4	0.00e+00	0	29	0	1433403392	57	3987
2026-01-04 04:03:43.00	7.85	32.36	-45.6	-46.6	15.4	0.00e+00	0	29	0	1438646272	57	4021
2026-01-04 04:03:44.00	7.63	32.53	-45.6	-46.6	15.4	0.00e+00	0	29	0	1444937728	57	4028
2026-01-04 04:03:44.99	7.42	32.69	-45.5	-46.6	15.4	0.00e+00	0	29	0	1450180608	57	4016
2026-01-04 04:03:45.99	7.20	32.86	-45.4	-46.4	15.4	0.00e+00	0	29	0	1455423488	57	3955
2026-01-04 04:03:46.99	6.98	33.03	-45.4	-46.4	15.4	0.00e+00	0	29	0	1461714944	57	3945
2026-01-04 04:03:47.99	6.75	33.20	-45.3	-46.3	15.5	0.00e+00	0	29	0	1466957824	57	3888
2026-01-04 04:03:48.98	6.53	33.37	-45.1	-46.1	15.4	0.00e+00	0	29	0	1473249280	56	4017
2026-01-04 04:03:49.99	6.30	33.54	-45.1	-46.1	15.4	0.00e+00	0	29	0	1478492160	56	4026
2026-01-04 04:03:50.99	6.07	33.72	-45.2	-46.3	15.4	0.00e+00	0	29	0	1483735040	56	4103
2026-01-04 04:03:51.98	5.83	33.89	-45.2	-46.2	15.4	0.00e+00	0	29	0	1490026496	56	4097
2026-01-04 04:03:52.99	5.60	34.06	-45.3	-46.3	15.4	0.00e+00	0	29	0	1495269376	56	4113
2026-01-04 04:03:53.98	5.36	34.23	-45.3	-46.3	15.4	0.00e+00	0	29	0	1500512256	56	4132
2026-01-04 04:03:54.99	5.12	34.40	-45.2	-46.2	15.4	0.00e+00	0	29	0	1506803712	56	4085
2026-01-04 04:03:55.99	4.87	34.58	-45.3	-46.3	15.4	0.00e+00	0	29	0	1512046592	56	4108
2026-01-04 04:03:56.99	4.62	34.75	-45.3	-46.4	15.3	0.00e+00	0	29	0	1517289472	56	4154
2026-01-04 04:03:57.98	4.38	34.92	-45.5	-46.6	15.3	0.00e+00	0	29	0	1523580928	56	4260
2026-01-04 04:03:58.98	4.13	35.10	-45.7	-46.8	15.3	0.00e+00	0	29	0	1528823808	56	4356
2026-01-04 04:03:59.98	3.87	35.27	-45.7	-46.8	15.3	0.00e+00	0	29	0	1535115264	56	4369
2026-01-04 04:04:00.98	3.61	35.45	-45.8	-46.8	15.3	0.00e+00	0	29	0	1540358144	56	4391
2026-01-04 04:04:01.98	3.35	35.62	-45.6	-46.7	15.3	0.00e+00	0	29	0	1545601024	56	4310
2026-01-04 04:04:02.98	3.09	35.80	-45.4	-46.5	15.3	0.00e+00	0	29	0	1551892480	56	4209
2026-01-04 04:04:03.97	2.83	35.97	-45.5	-46.6	15.3	0.00e+00	0	29	0	1557135360	56	4256
2026-01-04 04:04:04.97	2.56	36.15	-45.5	-46.6	15.3	0.00e+00	0	29	0	1562378240	56	4260
2026-01-04 04:04:05.96	2.29	36.32	-45.4	-46.4	15.3	0.00e+00	0	29	0	1568669696	56	4171
2026-01-04 04:04:06.96	2.01	36.50	-45.4	-46.4	15.3	0.00e+00	0	29	0	1573912576	56	4188
2026-01-04 04:04:07.96	1.73	36.68	-45.4	-46.4	15.3	0.00e+00	0	29	0	1580204032	56	4179
2026-01-04 04:04:08.96	1.45	36.85	-45.5	-46.6	15.3	0.00e+00	0	29	0	1585446912	56	4260
2026-01-04 04:04:09.95	1.17	37.03	-45.5	-46.6	15.3	0.00e+00	0	29	0	1590689792	56	4257
2026-01-04 04:04:10.95	0.88	37.21	-45.6	-46.7	15.3	0.00e+00	0	29	0	1595932672	56	4296
2026-01-04 04:04:11.95	0.59	37.38	-45.6	-46.6	15.3	0.00e+00	0	29	0	1602224128	56	4264
2026-01-04 04:04:12.95	0.30	37.56	-45.5	-46.6	15.3	0.00e+00	0	29	0	1607467008	56	4253
2026-01-04 04:04:13.95	0.00	37.74	-45.5	-46.5	15.3	0.00e+00	0	29	0	1613758464	56	4212
2026-01-04 04:04:14.96	359.70	37.92	-45.5	-46.5	15.3	0.00e+00	0	29	0	1619001344	56	4240
2026-01-04 04:04:15.96	359.39	38.10	-45.4	-46.5	15.3	0.00e+00	0	29	0	1624244224	56	4217
2026-01-04 04:04:16.96	359.09	38.27	-45.5	-46.6	15.3	0.00e+00	0	29	0	1630535680	56	4245
2026-01-04 04:04:17.96	358.78	38.45	-45.4	-46.4	15.3	0.00e+00	0	29	0	1635778560	56	4163
2026-01-04 04:04:18.96	358.46	38.63	-45.4	-46.4	15.3	0.00e+00	0	29	0	1642070016	56	4192
2026-01-04 04:04:19.96	358.15	38.81	-45.5	-46.5	15.3	0.00e+00	0	29	0	1647312896	56	4227
2026-01-04 04:04:20.96	357.82	38.98	-45.3	-46.4	15.4	0.00e+00	0	29	0	1652555776	56	4159
2026-01-04 04:04:21.96	357.50	39.16	-45.3	-46.4	15.3	0.00e+00	0	29	0	1658847232	56	4156
2026-01-04 04:04:22.96	357.17	39.34	-45.3	-46.4	15.3	0.00e+00	0	29	0	1664090112	56	4153
2026-01-04 04:04:23.96	356.84	39.51	-45.5	-46.5	15.3	0.00e+00	0	29	0	1669332992	56	4229
2026-01-04 04:04:24.96	356.50	39.69	-45.6	-46.7	15.3	0.00e+00	0	29	0	1675624448	56	4296
2026-01-04 04:04:25.96	356.17	39.87	-45.6	-46.6	15.3	0.00e+00	0	29	0	1680867328	56	4277
2026-01-04 04:04:26.96	355.82	40.04	-45.6	-46.6	15.3	0.00e+00	0	29	0	1686110208	56	4284
2026-01-04 04:04:27.96	355.48	40.22	-45.6	-46.7	15.3	0.00e+00	0	29	0	1692401664	56	4294
2026-01-04 04:04:28.97	355.12	40.40	-45.6	-46.7	15.3	0.00e+00	0	29	0	1697644544	56	4296
2026-01-04 04:04:29.96	354.77	40.57	-45.6	-46.7	15.3	0.00e+00	0	29	0	1703936000	56	4296
2026-01-04 04:04:30.95	354.42	40.74	-45.6	-46.6	15.3	0.00e+00	0	29	0	1709178880	56	4274
2026-01-04 04:04:31.95	354.05	40.92	-45.6	-46.6	15.3	0.00e+00	0	29	0	1714421760	56	4268
2026-01-04 04:04:32.96	353.69	41.09	-45.6	-46.7	15.3	0.00e+00	0	29	0	1720713216	56	4293
2026-01-04 04:04:33.96	353.32	41.27	-45.7	-46.7	15.3	0.00e+00	0	29	0	1725956096	56	4340
2026-01-04 04:04:34.95	352.94	41.44	-45.7	-46.8	15.3	0.00e+00	0	29	0	1731198976	56	4350
2026-01-04 04:04:35.95	352.57	41.61	-45.9	-47.0	15.3	0.00e+00	0	29	0	1737490432	56	4442
2026-01-04 04:04:36.95	352.18	41.78	-45.8	-46.8	15.3	0.00e+00	0	29	0	1742733312	56	4389
2026-01-04 04:04:37.95	351.80	41.95	-45.8	-46.8	15.3	0.00e+00	0	29	0	1747976192	56	4380
2026-01-04 04:04:38.95	351.41	42.12	-45.5	-46.6	15.3	0.00e+00	0	29	0	1754267648	56	4244
2026-01-04 04:04:39.95	351.01	42.29	-45.7	-46.7	15.3	0.00e+00	0	29	0	1759510528	56	4310
2026-01-04 04:04:40.94	350.62	42.46	-45.4	-46.4	15.3	0.00e+00	0	29	0	1764753408	56	4175
2026-01-04 04:04:41.94	350.22	42.63	-45.5	-46.6	15.3	0.00e+00	0	29	0	1771044864	56	4256
2026-01-04 04:04:42.94	349.81	42.79	-45.6	-46.6	15.3	0.00e+00	0	29	0	1776287744	56	4282
2026-01-04 04:04:43.95	349.39	42.96	-45.8	-46.8	15.3	0.00e+00	0	29	0	1781530624	56	4371
2026-01-04 04:04:44.94	348.98	43.12	-45.7	-46.7	15.3	0.00e+00	0	29	0	1787822080	56	4324
2026-01-04 04:04:45.94	348.56	43.29	-45.7	-46.7	15.3	0.00e+00	0	29	0	1793064960	56	4330
2026-01-04 04:04:46.94	348.14	43.45	-45.6	-46.7	15.3	0.00e+00	0	29	0	1798307840	56	4307
2026-01-04 04:04:47.94	347.71	43.61	-45.6	-46.6	15.3	0.00e+00	0	29	0	1804599296	56	4288
2026-01-04 04:04:48.94	347.28	43.77	-45.8	-46.9	15.3	0.00e+00	0	29	0	1809842176	56	4405
2026-01-04 04:04:49.94	346.84	43.93	-46.0	-47.0	15.3	0.00e+00	0	29	0	1816133632	57	4239
2026-01-04 04:04:50.94	346.40	44.09	-45.8	-46.9	15.3	0.00e+00	0	29	0	1821376512	57	4153
2026-01-04 04:04:51.94	345.95	44.25	-45.7	-46.7	15.4	0.00e+00	0	29	0	1826619392	57	4081
2026-01-04 04:04:52.94	345.50	44.41	-45.7	-46.7	15.4	0.00e+00	0	29	0	1832910848	57	4083
2026-01-04 04:04:53.95	345.04	44.56	-45.7	-46.7	15.4	0.00e+00	0	29	0	1838153728	57	4073
2026-01-04 04:04:54.95	344.58	44.71	-45.7	-46.7	15.4	0.00e+00	0	29	0	1843396608	57	4098
2026-01-04 04:04:55.95	344.11	44.87	-45.8	-46.8	15.3	0.00e+00	0	29	0	1849688064	57	4141
2026-01-04 04:04:56.95	343.65	45.02	-45.8	-46.8	15.3	0.00e+00	0	29	0	1854930944	57	4144
2026-01-04 04:04:57.95	343.17	45.16	-45.6	-46.6	15.4	0.00e+00	0	29	0	1861222400	57	4024
2026-01-04 04:04:58.95	342.69	45.31	-45.6	-46.6	15.4	0.00e+00	0	29	0	1866465280	57	4042
2026-01-04 04:04:59.95	342.21	45.45	-45.7	-46.7	15.4	0.00e+00	0	29	0	1871708160	57	4098
2026-01-04 04:05:00.95	341.73	45.60	-45.8	-46.9	15.3	0.00e+00	0	29	0	1877999616	57	4154
2026-01-04 04:05:01.95	341.24	45.74	-45.8	-46.8	15.4	0.00e+00	0	29	0	1883242496	57	4138
2026-01-04 04:05:02.95	340.74	45.88	-45.7	-46.7	15.4	0.00e+00	0	29	0	1889533952	57	4081
2026-01-04 04:05:03.95	340.24	46.02	-45.7	-46.7	15.4	0.00e+00	0	29	0	1894776832	57	4088
2026-01-04 04:05:04.95	339.74	46.15	-45.9	-46.9	15.3	0.00e+00	0	29	0	1900019712	57	4188
2026-01-04 04:05:05.94	339.23	46.28	-46.2	-47.2	15.3	0.00e+00	0	29	0	1905262592	57	4334
2026-01-04 04:05:06.93	338.72	46.41	-46.4	-47.5	15.2	0.00e+00	0	29	0	1911554048	57	4447
2026-01-04 04:05:07.93	338.21	46.54	-46.4	-47.5	15.3	0.00e+00	0	29	0	1916796928	58	4228
2026-01-04 04:05:08.93	337.69	46.67	-46.2	-47.3	15.3	0.00e+00	0	29	0	1922039808	58	4109
2026-01-04 04:05:09.93	337.16	46.80	-46.1	-47.2	15.4	0.00e+00	0	29	0	1928331264	58	4053
2026-01-04 04:05:10.93	336.63	46.92	-46.3	-47.3	15.3	0.00e+00	0	29	0	1933574144	58	4144
2026-01-04 04:05:11.92	336.10	47.04	-46.7	-47.8	15.2	0.00e+00	0	29	0	1939865600	58	4382
2026-01-04 04:05:12.91	335.57	47.15	-46.6	-47.7	15.2	0.00e+00	0	29	0	1945108480	58	4316
2026-01-04 04:05:13.90	335.03	47.27	-46.6	-47.6	15.3	0.00e+00	0	29	0	1950351360	58	4269
2026-01-04 04:05:14.91	334.48	47.38	-46.5	-47.6	15.3	0.00e+00	0	29	0	1956642816	58	4258
2026-01-04 04:05:15.90	333.94	47.49	-46.5	-47.6	15.3	0.00e+00	0	29	0	1961885696	58	4270
2026-01-04 04:05:16.91	333.38	47.60	-46.6	-47.6	15.3	0.00e+00	0	29	0	1967128576	58	4281
2026-01-04 04:05:17.91	332.82	47.70	-46.6	-47.6	15.3	0.00e+00	0	29	0	1973420032	58	4278
2026-01-04 04:05:18.91	332.26	47.81	-46.4	-47.5	15.3	0.00e+00	0	29	0	1978662912	58	4216
2026-01-04 04:05:19.91	331.69	47.91	-46.5	-47.6	15.3	0.00e+00	0	29	0	1983905792	58	4250
2026-01-04 04:05:20.92	331.12	48.00	-46.6	-47.6	15.3	0.00e+00	0	29	0	1990197248	58	4291
2026-01-04 04:05:21.92	330.55	48.10	-46.7	-47.8	15.3	0.00e+00	0	29	0	1995440128	58	4348
2026-01-04 04:05:22.93	329.96	48.19	-46.7	-47.8	15.2	0.00e+00	0	29	0	2001731584	58	4366
2026-01-04 04:05:23.93	329.39	48.28	-46.8	-47.9	15.2	0.00e+00	0	29	0	2006974464	58	4394
2026-01-04 04:05:24.93	328.80	48.36	-46.8	-47.8	15.2	0.00e+00	0	29	0	2012217344	58	4378
2026-01-04 04:05:25.93	328.22	48.44	-46.8	-47.8	15.2	0.00e+00	0	29	0	2018508800	58	4383
2026-01-04 04:05:26.93	327.63	48.52	-46.7	-47.8	15.2	0.00e+00	0	29	0	2023751680	58	4365
2026-01-04 04:05:27.93	327.04	48.60	-46.8	-47.8	15.2	0.00e+00	0	29	0	2028994560	58	4382
2026-01-04 04:05:28.92	326.45	48.67	-46.6	-47.7	15.2	0.00e+00	0	29	0	2035286016	58	4301
2026-01-04 04:05:29.92	325.85	48.74	-46.6	-47.6	15.3	0.00e+00	0	29	0	2040528896	58	4280
2026-01-04 04:05:30.92	325.25	48.80	-46.6	-47.7	15.2	0.00e+00	0	29	0	2045771776	58	4307
2026-01-04 04:05:31.93	324.64	48.87	-46.6	-47.7	15.3	0.00e+00	0	29	0	2052063232	58	4312
2026-01-04 04:05:32.93	324.04	48.93	-46.6	-47.7	15.3	0.00e+00	0	29	0	2057306112	58	4301
2026-01-04 04:05:33.93	323.43	48.98	-46.5	-47.6	15.3	0.00e+00	0	29	0	2063597568	58	4251
2026-01-04 04:05:34.93	322.82	49.03	-46.6	-47.6	15.3	0.00e+00	0	29	0	2068840448	58	4289
2026-01-04 04:05:35.93	322.21	49.08	-46.5	-47.6	15.3	0.00e+00	0	29	0	2074083328	58	4261
2026-01-04 04:05:36.92	321.60	49.13	-46.2	-47.3	15.3	0.00e+00	0	29	0	2080374784	58	4109
2026-01-04 04:05:37.92	320.99	49.17	-46.2	-47.3	15.3	0.00e+00	0	29	0	2085617664	58	4110
2026-01-04 04:05:38.92	320.37	49.21	-46.5	-47.6	15.3	0.00e+00	0	29	0	2090860544	58	4266
2026-01-04 04:05:39.92	319.75	49.24	-46.9	-47.9	15.2	0.00e+00	0	29	0	2097152000	58	4437
2026-01-04 04:05:40.92	319.13	49.27	-46.8	-47.9	15.3	0.00e+00	0	29	0	2102394880	59	4169
2026-01-04 04:05:41.92	318.51	49.30	-46.7	-47.8	15.3	0.00e+00	0	29	0	2107637760	59	4112
2026-01-04 04:05:42.91	317.90	49.33	-46.7	-47.8	15.3	0.00e+00	0	29	0	2113929216	59	4111
2026-01-04 04:05:43.91	317.28	49.35	-46.7	-47.8	15.3	0.00e+00	0	29	0	2119172096	59	4108
2026-01-04 04:05:44.91	316.65	49.36	-46.8	-47.8	15.3	0.00e+00	0	29	0	2125463552	59	4140
2026-01-04 04:05:45.92	316.02	49.38	-46.8	-47.9	15.3	0.00e+00	0	29	0	2130706432	59	4162
2026-01-04 04:05:46.92	315.40	49.39	-46.5	-47.6	15.4	0.00e+00	0	29	0	2135949312	59	4016
2026-01-04 04:05:47.92	314.77	49.39	-46.7	-47.7	15.3	0.00e+00	0	29	0	2142240768	59	4079
2026-01-04 04:05:48.92	314.15	49.39	-46.8	-47.9	15.3	0.00e+00	0	29	0	2147483648	59	4158
2026-01-04 04:05:49.91	313.53	49.39	-46.6	-47.7	15.3	0.00e+00	0	29	0	2152726528	59	4074
2026-01-04 04:05:50.91	312.90	49.39	-46.3	-47.4	15.4	0.00e+00	0	29	0	2159017984	59	3926
2026-01-04 04:05:51.91	312.28	49.38	-46.1	-47.2	15.4	0.00e+00	0	29	0	2164260864	58	4058
2026-01-04 04:05:52.91	311.65	49.37	-46.4	-47.5	15.3	0.00e+00	0	29	0	2170552320	58	4208
2026-01-04 04:05:53.91	311.03	49.35	-46.7	-47.7	15.2	0.00e+00	0	29	0	2175795200	58	4324
2026-01-04 04:05:54.92	310.40	49.33	-46.8	-47.8	15.2	0.00e+00	0	29	0	2181038080	58	4375
2026-01-04 04:05:55.92	309.78	49.31	-46.7	-47.8	15.2	0.00e+00	0	29	0	2187329536	58	4357
2026-01-04 04:05:56.92	309.16	49.28	-46.7	-47.7	15.3	0.00e+00	0	29	0	2192572416	58	4338
2026-01-04 04:05:57.91	308.54	49.25	-46.5	-47.6	15.3	0.00e+00	0	29	0	2197815296	58	4251
2026-01-04 04:05:58.91	307.93	49.22	-46.7	-47.7	15.2	0.00e+00	0	29	0	2204106752	58	4337
2026-01-04 04:05:59.91	307.31	49.18	-47.0	-48.1	15.3	0.00e+00	0	29	0	2209349632	59	4253
2026-01-04 04:06:00.91	306.69	49.14	-47.1	-48.2	15.2	0.00e+00	0	29	0	2214592512	59	4323
2026-01-04 04:06:01.90	306.09	49.09	-47.0	-48.1	15.3	0.00e+00	0	29	0	2220883968	59	4262
2026-01-04 04:06:02.90	305.47	49.04	-47.0	-48.1	15.2	0.00e+00	0	29	0	2226126848	59	4273
2026-01-04 04:06:03.89	304.87	48.99	-46.9	-48.0	15.3	0.00e+00	0	29	0	2231369728	59	4194
2026-01-04 04:06:04.89	304.26	48.94	-46.8	-47.9	15.3	0.00e+00	0	29	0	2237661184	59	4156
2026-01-04 04:06:05.88	303.66	48.88	-46.5	-47.6	15.4	0.00e+00	0	29	0	2242904064	59	4025
2026-01-04 04:06:06.88	303.06	48.82	-46.5	-47.5	15.4	0.00e+00	0	29	0	2248146944	59	3989
2026-01-04 04:06:07.88	302.46	48.75	-46.5	-47.6	15.4	0.00e+00	0	29	0	2254438400	59	4009
2026-01-04 04:06:08.88	301.86	48.69	-46.7	-47.7	15.3	0.00e+00	0	29	0	2259681280	59	4078
2026-01-04 04:06:09.88	301.26	48.61	-46.6	-47.6	15.4	0.00e+00	0	29	0	2264924160	59	4039
2026-01-04 04:06:10.87	300.68	48.54	-46.5	-47.5	15.4	0.00e+00	0	29	0	2271215616	59	3976
2026-01-04 04:06:11.87	300.09	48.46	-46.5	-47.5	15.4	0.00e+00	0	29	0	2276458496	59	3976
2026-01-04 04:06:12.86	299.51	48.38	-46.5	-47.6	15.4	0.00e+00	0	29	0	2282749952	59	4019
2026-01-04 04:06:13.86	298.92	48.30	-46.6	-47.7	15.4	0.00e+00	0	29	0	2287992832	59	4057
2026-01-04 04:06:14.85	298.35	48.21	-46.7	-47.7	15.3	0.00e+00	0	29	0	2293235712	59	4093
2026-01-04 04:06:15.85	297.77	48.12	-46.5	-47.6	15.4	0.00e+00	0	29	0	2299527168	59	4008
2026-01-04 04:06:16.84	297.20	48.03	-46.2	-47.2	15.5	0.00e+00	0	29	0	2304770048	59	3867
2026-01-04 04:06:17.84	296.63	47.93	-46.1	-47.1	15.4	0.00e+00	0	29	0	2310012928	58	4014
2026-01-04 04:06:18.84	296.07	47.83	-46.2	-47.2	15.3	0.00e+00	0	29	0	2315255808	58	4083
2026-01-04 04:06:19.84	295.50	47.73	-46.3	-47.3	15.3	0.00e+00	0	29	0	2321547264	58	4137
2026-01-04 04:06:20.84	294.94	47.63	-46.3	-47.4	15.3	0.00e+00	0	29	0	2326790144	58	4160
2026-01-04 04:06:21.83	294.39	47.52	-46.2	-47.2	15.3	0.00e+00	0	29	0	2333081600	58	4088
2026-01-04 04:06:22.83	293.84	47.41	-46.3	-47.3	15.3	0.00e+00	0	29	0	2338324480	58	4139
2026-01-04 04:06:23.83	293.29	47.30	-46.5	-47.5	15.3	0.00e+00	0	29	0	2343567360	58	4234
2026-01-04 04:06:24.84	292.74	47.18	-46.5	-47.6	15.3	0.00e+00	0	29	0	2349858816	58	4274
2026-01-04 04:06:25.83	292.21	47.07	-46.4	-47.5	15.3	0.00e+00	0	29	0	2355101696	58	4206
2026-01-04 04:06:26.83	291.67	46.95	-46.5	-47.5	15.3	0.00e+00	0	29	0	2360344576	58	4229
2026-01-04 04:06:27.83	291.14	46.83	-46.3	-47.3	15.3	0.00e+00	0	29	0	2366636032	58	4132
2026-01-04 04:06:28.83	290.61	46.70	-46.3	-47.3	15.3	0.00e+00	0	29	0	2371878912	58	4122
2026-01-04 04:06:29.83	290.09	46.58	-46.2	-47.2	15.4	0.00e+00	0	29	0	2377121792	58	4079
2026-01-04 04:06:30.83	289.57	46.45	-45.9	-47.0	15.4	0.00e+00	0	29	0	2383413248	58	3963
2026-01-04 04:06:31.83	289.06	46.32	-45.9	-46.9	15.5	0.00e+00	0	29	0	2388656128	58	3939
2026-01-04 04:06:32.84	288.54	46.18	-46.0	-47.0	15.5	0.00e+00	0	29	0	2394947584	58	3969
2026-01-04 04:06:33.83	288.04	46.05	-45.9	-46.9	15.5	0.00e+00	0	29	0	2400190464	58	3939
2026-01-04 04:06:34.83	287.54	45.91	-46.0	-47.1	15.4	0.00e+00	0	29	0	2405433344	58	4018
2026-01-04 04:06:35.83	287.04	45.77	-46.2	-47.2	15.4	0.00e+00	0	29	0	2411724800	58	4094
2026-01-04 04:06:36.83	286.55	45.63	-46.0	-47.1	15.4	0.00e+00	0	29	0	2416967680	58	4007
2026-01-04 04:06:37.83	286.06	45.49	-45.9	-46.9	15.4	0.00e+00	0	29	0	2422210560	58	3955
2026-01-04 04:06:38.83	285.58	45.34	-45.9	-46.9	15.4	0.00e+00	0	29	0	2428502016	58	3953
2026-01-04 04:06:39.83	285.10	45.20	-45.8	-46.9	15.5	0.00e+00	0	29	0	2433744896	58	3914
2026-01-04 04:06:40.83	284.62	45.05	-45.9	-46.9	15.5	0.00e+00	0	29	0	2438987776	58	3951
2026-01-04 04:06:41.83	284.15	44.90	-45.6	-46.6	15.4	0.00e+00	0	29	0	2445279232	57	4044
2026-01-04 04:06:42.83	283.69	44.75	-45.5	-46.5	15.4	0.00e+00	0	29	0	2450522112	57	3976
2026-01-04 04:06:43.83	283.22	44.59	-45.6	-46.6	15.4	0.00e+00	0	29	0	2456813568	57	4022
2026-01-04 04:06:44.83	282.77	44.44	-45.6	-46.7	15.4	0.00e+00	0	29	0	2462056448	57	4061
2026-01-04 04:06:45.83	282.31	44.28	-45.8	-46.8	15.4	0.00e+00	0	29	0	2467299328	57	4119
2026-01-04 04:06:46.83	281.87	44.13	-45.8	-46.8	15.3	0.00e+00	0	29	0	2473590784	57	4126
2026-01-04 04:06:47.83	281.42	43.97	-45.8	-46.8	15.4	0.00e+00	0	29	0	2478833664	57	4117
2026-01-04 04:06:48.82	280.99	43.81	-45.7	-46.8	15.4	0.00e+00	0	29	0	2484076544	57	4102
2026-01-04 04:06:49.82	280.55	43.65	-45.6	-46.6	15.4	0.00e+00	0	29	0	2490368000	57	4044
2026-01-04 04:06:50.81	280.13	43.49	-45.7	-46.7	15.4	0.00e+00	0	29	0	2495610880	57	4069
2026-01-04 04:06:51.81	279.70	43.33	-45.6	-46.7	15.4	0.00e+00	0	29	0	2500853760	57	4063
2026-01-04 04:06:52.80	279.28	43.16	-45.6	-46.6	15.4	0.00e+00	0	29	0	2507145216	57	4028
2026-01-04 04:06:53.80	278.86	43.00	-45.6	-46.6	15.4	0.00e+00	0	29	0	2512388096	57	4026
2026-01-04 04:06:54.80	278.45	42.83	-45.5	-46.5	15.5	0.00e+00	0	29	0	2518679552	57	3976
2026-01-04 04:06:55.80	278.04	42.66	-45.6	-46.7	15.4	0.00e+00	0	29	0	2523922432	57	4058
2026-01-04 04:06:56.80	277.64	42.50	-45.6	-46.6	15.4	0.00e+00	0	29	0	2529165312	57	4031
2026-01-04 04:06:57.80	277.24	42.33	-45.6	-46.6	15.4	0.00e+00	0	29	0	2535456768	57	4042
2026-01-04 04:06:58.80	276.84	42.16	-45.8	-46.8	15.4	0.00e+00	0	29	0	2540699648	57	4115
2026-01-04 04:06:59.80	276.45	41.99	-45.8	-46.8	15.3	0.00e+00	0	29	0	2545942528	57	4128
2026-01-04 04:07:00.80	276.06	41.82	-45.7	-46.7	15.4	0.00e+00	0	29	0	2551185408	57	4093
2026-01-04 04:07:01.79	275.68	41.65	-45.7	-46.7	15.4	0.00e+00	0	29	0	2557476864	57	4070
2026-01-04 04:07:02.78	275.30	41.48	-45.9	-46.9	15.4	0.00e+00	0	29	0	2562719744	57	4182
2026-01-04 04:07:03.78	274.93	41.30	-45.9	-47.0	15.3	0.00e+00	0	29	0	2569011200	57	4207
2026-01-04 04:07:04.78	274.55	41.13	-46.0	-47.0	15.3	0.00e+00	0	29	0	2574254080	57	4233
2026-01-04 04:07:05.77	274.19	40.96	-45.8	-46.9	15.3	0.00e+00	0	29	0	2579496960	57	4156
2026-01-04 04:07:06.77	273.83	40.78	-45.7	-46.7	15.4	0.00e+00	0	29	0	2585788416	57	4088
2026-01-04 04:07:07.76	273.47	40.61	-45.7	-46.7	15.4	0.00e+00	0	29	0	2591031296	57	4089
2026-01-04 04:07:08.76	273.11	40.43	-45.8	-46.9	15.3	0.00e+00	0	29	0	2596274176	57	4161
2026-01-04 04:07:09.76	272.76	40.26	-45.9	-46.9	15.3	0.00e+00	0	29	0	2602565632	57	4187
2026-01-04 04:07:10.76	272.41	40.08	-45.9	-46.9	15.3	0.00e+00	0	29	0	2607808512	57	4193
2026-01-04 04:07:11.76	272.07	39.90	-45.9	-46.9	15.3	0.00e+00	0	29	0	2613051392	57	4172
2026-01-04 04:07:12.76	271.73	39.73	-45.9	-46.9	15.3	0.00e+00	0	29	0	2619342848	57	4168
2026-01-04 04:07:13.77	271.39	39.55	-45.8	-46.8	15.3	0.00e+00	0	29	0	2624585728	57	4140
2026-01-04 04:07:14.77	271.05	39.37	-45.9	-47.0	15.3	0.00e+00	0	29	0	2630877184	57	4204
2026-01-04 04:07:15.76	270.73	39.20	-45.9	-47.0	15.3	0.00e+00	0	29	0	2636120064	57	4199
2026-01-04 04:07:16.77	270.40	39.02	-45.9	-46.9	15.4	0.00e+00	0	29	0	2641362944	57	4170
2026-01-04 04:07:17.76	270.08	38.84	-45.8	-46.9	15.3	0.00e+00	0	29	0	2647654400	57	4161
2026-01-04 04:07:18.75	269.76	38.66	-45.7	-46.7	15.4	0.00e+00	0	29	0	2652897280	57	4087
2026-01-04 04:07:19.75	269.45	38.49	-45.4	-46.4	15.5	0.00e+00	0	29	0	2658140160	57	3950
2026-01-04 04:07:20.76	269.13	38.31	-45.4	-46.4	15.5	0.00e+00	0	29	0	2664431616	57	3953
2026-01-04 04:07:21.76	268.82	38.13	-45.4	-46.4	15.5	0.00e+00	0	29	0	2669674496	57	3915
2026-01-04 04:07:22.76	268.52	37.95	-45.5	-46.5	15.5	0.00e+00	0	29	0	2674917376	57	3972
2026-01-04 04:07:23.76	268.21	37.77	-45.5	-46.5	15.5	0.00e+00	0	29	0	2681208832	57	3983
2026-01-04 04:07:24.77	267.91	37.59	-45.4	-46.5	15.5	0.00e+00	0	29	0	2686451712	57	3966
2026-01-04 04:07:25.77	267.62	37.41	-45.4	-46.4	15.5	0.00e+00	0	29	0	2692743168	57	3937
2026-01-04 04:07:26.77	267.32	37.24	-45.4	-46.4	15.5	0.00e+00	0	29	0	2697986048	57	3956
2026-01-04 04:07:27.77	267.04	37.06	-45.4	-46.4	15.5	0.00e+00	0	29	0	2703228928	57	3934
2026-01-04 04:07:28.77	266.75	36.88	-45.4	-46.4	15.5	0.00e+00	0	29	0	2709520384	57	3939
2026-01-04 04:07:29.77	266.47	36.70	-45.4	-46.4	15.5	0.00e+00	0	29	0	2714763264	57	3932
2026-01-04 04:07:30.78	266.18	36.52	-45.3	-46.3	15.5	0.00e+00	0	29	0	2720006144	57	3888
2026-01-04 04:07:31.77	265.91	36.35	-45.3	-46.4	15.5	0.00e+00	0	29	0	2726297600	57	3918
2026-01-04 04:07:32.77	265.64	36.17	-45.4	-46.4	15.5	0.00e+00	0	29	0	2731540480	57	3947
2026-01-04 04:07:33.77	265.37	36.00	-45.3	-46.3	15.5	0.00e+00	0	29	0	2736783360	57	3910
2026-01-04 04:07:34.78	265.10	35.82	-45.4	-46.5	15.5	0.00e+00	0	29	0	2743074816	57	3969
2026-01-04 04:07:35.78	264.83	35.64	-45.5	-46.5	15.4	0.00e+00	0	29	0	2748317696	57	3991
2026-01-04 04:07:36.77	264.57	35.47	-45.4	-46.5	15.5	0.00e+00	0	29	0	2754609152	57	3968
2026-01-04 04:07:37.77	264.31	35.29	-45.5	-46.5	15.4	0.00e+00	0	29	0	2759852032	57	3999
2026-01-04 04:07:38.77	264.06	35.12	-45.3	-46.3	15.5	0.00e+00	0	29	0	2765094912	57	3910
2026-01-04 04:07:39.76	263.80	34.94	-45.3	-46.3	15.5	0.00e+00	0	29	0	2771386368	57	3886
2026-01-04 04:07:40.76	263.55	34.77	-45.3	-46.4	15.5	0.00e+00	0	29	0	2776629248	57	3915
2026-01-04 04:07:41.76	263.31	34.59	-45.3	-46.3	15.5	0.00e+00	0	29	0	2781872128	57	3884
2026-01-04 04:07:42.76	263.06	34.42	-45.3	-46.3	15.5	0.00e+00	0	29	0	2788163584	57	3892
2026-01-04 04:07:43.76	262.82	34.25	-45.4	-46.4	15.5	0.00e+00	0	29	0	2793406464	57	3916
2026-01-04 04:07:44.75	262.58	34.07	-45.2	-46.2	15.5	0.00e+00	0	29	0	2799697920	57	3866
2026-01-04 04:07:45.76	262.34	33.90	-45.2	-46.2	15.5	0.00e+00	0	29	0	2804940800	57	3860
2026-01-04 04:07:46.76	262.10	33.73	-45.3	-46.3	15.5	0.00e+00	0	29	0	2810183680	57	3893
2026-01-04 04:07:47.75	261.87	33.56	-45.4	-46.4	15.5	0.00e+00	0	29	0	2816475136	57	3924
2026-01-04 04:07:48.75	261.64	33.39	-45.5	-46.6	15.4	0.00e+00	0	29	0	2821718016	57	4013
2026-01-04 04:07:49.75	261.42	33.21	-45.7	-46.7	15.4	0.00e+00	0	29	0	2826960896	57	4068
2026-01-04 04:07:50.75	261.19	33.04	-45.7	-46.8	15.4	0.00e+00	0	29	0	2833252352	57	4102
2026-01-04 04:07:51.76	260.97	32.87	-45.8	-46.9	15.3	0.00e+00	0	29	0	2838495232	57	4161
2026-01-04 04:07:52.75	260.75	32.70	-45.6	-46.7	15.4	0.00e+00	0	29	0	2843738112	57	4060
2026-01-04 04:07:53.74	260.53	32.54	-45.6	-46.6	15.4	0.00e+00	0	29	0	2850029568	57	4038
2026-01-04 04:07:54.73	260.32	32.37	-45.6	-46.6	15.4	0.00e+00	0	29	0	2855272448	57	4022
2026-01-04 04:07:55.73	260.10	32.20	-45.6	-46.7	15.4	0.00e+00	0	29	0	2860515328	57	4054
2026-01-04 04:07:56.72	259.89	32.03	-45.7	-46.7	15.4	0.00e+00	0	29	0	2866806784	57	4075
2026-01-04 04:07:57.72	259.68	31.87	-45.8	-46.8	15.4	0.00e+00	0	29	0	2872049664	57	4144
2026-01-04 04:07:58.72	259.48	31.70	-45.9	-47.0	15.3	0.00e+00	0	29	0	2877292544	57	4211
2026-01-04 04:07:59.72	259.27	31.53	-46.0	-47.0	15.3	0.00e+00	0	29	0	2883584000	57	4227
2026-01-04 04:08:00.73	259.07	31.37	-45.9	-47.0	15.3	0.00e+00	0	29	0	2888826880	57	4204
2026-01-04 04:08:01.72	258.87	31.20	-45.9	-47.0	15.3	0.00e+00	0	29	0	2894069760	57	4198
2026-01-04 04:08:02.72	258.67	31.04	-45.9	-47.0	15.3	0.00e+00	0	29	0	2900361216	57	4201
2026-01-04 04:08:03.71	258.47	30.88	-46.0	-47.1	15.3	0.00e+00	0	29	0	2905604096	57	4260
2026-01-04 04:08:04.71	258.28	30.71	-46.1	-47.1	15.3	0.00e+00	0	29	0	2911895552	57	4284
2026-01-04 04:08:05.70	258.09	30.55	-46.0	-47.1	15.3	0.00e+00	0	29	0	2917138432	57	4249
2026-01-04 04:08:06.69	257.90	30.39	-46.1	-47.1	15.3	0.00e+00	0	29	0	2922381312	57	4273
2026-01-04 04:08:07.69	257.71	30.23	-46.0	-47.1	15.3	0.00e+00	0	29	0	2927624192	57	4250
2026-01-04 04:08:08.69	257.52	30.07	-45.9	-46.9	15.3	0.00e+00	0	29	0	2933915648	57	4166
2026-01-04 04:08:09.68	257.34	29.91	-45.9	-47.0	15.3	0.00e+00	0	29	0	2939158528	57	4197
2026-01-04 04:08:10.68	257.16	29.75	-45.9	-46.9	15.3	0.00e+00	0	29	0	2944401408	57	4181
2026-01-04 04:08:11.68	256.98	29.59	-45.9	-46.9	15.3	0.00e+00	0	29	0	2950692864	57	4176
2026-01-04 04:08:12.68	256.80	29.43	-46.0	-47.1	15.3	0.00e+00	0	29	0	2955935744	57	4249
2026-01-04 04:08:13.68	256.62	29.27	-46.0	-47.0	15.3	0.00e+00	0	29	0	2962227200	57	4233
2026-01-04 04:08:14.67	256.44	29.11	-45.9	-47.0	15.3	0.00e+00	0	29	0	2967470080	57	4204
2026-01-04 04:08:15.67	256.27	28.95	-46.0	-47.1	15.3	0.00e+00	0	29	0	2972712960	57	4254
2026-01-04 04:08:16.67	256.10	28.80	-45.8	-46.9	15.3	0.00e+00	0	29	0	2979004416	57	4148
2026-01-04 04:08:17.67	255.93	28.64	-45.8	-46.8	15.4	0.00e+00	0	29	0	2984247296	57	4125
2026-01-04 04:08:18.68	255.75	28.48	-45.9	-46.9	15.3	0.00e+00	0	29	0	2989490176	57	4167
2026-01-04 04:08:19.68	255.59	28.33	-45.8	-46.9	15.3	0.00e+00	0	29	0	2995781632	57	4165
2026-01-04 04:08:20.69	255.42	28.17	-45.9	-46.9	15.3	0.00e+00	0	29	0	3001024512	57	4193
2026-01-04 04:08:21.69	255.26	28.02	-45.9	-46.9	15.3	0.00e+00	0	29	0	3006267392	57	4187
2026-01-04 04:08:22.68	255.09	27.87	-46.1	-47.1	15.3	0.00e+00	0	29	0	3012558848	57	4268
2026-01-04 04:08:23.68	254.93	27.71	-46.0	-47.1	15.3	0.00e+00	0	29	0	3017801728	57	4250
2026-01-04 04:08:24.68	254.77	27.56	-46.1	-47.2	15.3	0.00e+00	0	29	0	3024093184	57	4305
2026-01-04 04:08:25.68	254.62	27.41	-46.1	-47.1	15.3	0.00e+00	0	29	0	3029336064	57	4287
2026-01-04 04:08:26.68	254.46	27.26	-46.1	-47.2	15.3	0.00e+00	0	29	0	3034578944	57	4296
2026-01-04 04:08:27.67	254.30	27.11	-46.2	-47.3	15.3	0.00e+00	0	29	0	3040870400	57	4356
2026-01-04 04:08:28.67	254.15	26.96	-46.3	-47.3	15.2	0.00e+00	0	29	0	3046113280	57	4385
2026-01-04 04:08:29.67	254.00	26.81	-46.1	-47.2	15.3	0.00e+00	0	29	0	3051356160	57	4312
2026-01-04 04:08:30.68	253.85	26.66	-46.2	-47.2	15.3	0.00e+00	0	29	0	3057647616	57	4321
2026-01-04 04:08:31.67	253.70	26.51	-46.1	-47.2	15.3	0.00e+00	0	29	0	3062890496	57	4306
2026-01-04 04:08:32.68	253.55	26.36	-46.1	-47.1	15.3	0.00e+00	0	29	0	3068133376	57	4290
2026-01-04 04:08:33.68	253.40	26.22	-46.0	-47.0	15.3	0.00e+00	0	29	0	3074424832	57	4218
2026-01-04 04:08:34.67	253.26	26.07	-46.0	-47.1	15.3	0.00e+00	0	29	0	3079667712	57	4249
2026-01-04 04:08:35.67	253.12	25.93	-46.0	-47.1	15.3	0.00e+00	0	29	0	3085959168	57	4244
2026-01-04 04:08:36.67	252.97	25.78	-45.9	-46.9	15.3	0.00e+00	0	29	0	3091202048	57	4179
2026-01-04 04:08:37.67	252.83	25.64	-45.9	-46.9	15.3	0.00e+00	0	29	0	3096444928	57	4187
2026-01-04 04:08:38.67	252.69	25.49	-45.9	-47.0	15.3	0.00e+00	0	29	0	3102736384	57	4199
2026-01-04 04:08:39.67	252.55	25.35	-45.9	-46.9	15.3	0.00e+00	0	29	0	3107979264	57	4185
2026-01-04 04:08:40.67	252.42	25.21	-45.9	-46.9	15.3	0.00e+00	0	29	0	3113222144	57	4187
2026-01-04 04:08:41.66	252.28	25.07	-45.8	-46.9	15.3	0.00e+00	0	29	0	3119513600	57	4149
2026-01-04 04:08:42.66	252.15	24.92	-46.0	-47.0	15.3	0.00e+00	0	29	0	3124756480	57	4220
2026-01-04 04:08:43.66	252.01	24.78	-45.9	-46.9	15.3	0.00e+00	0	29	0	3129999360	57	4190
2026-01-04 04:08:44.66	251.88	24.64	-45.9	-47.0	15.3	0.00e+00	0	29	0	3136290816	57	4202
2026-01-04 04:08:45.66	251.75	24.50	-45.9	-46.9	15.3	0.00e+00	0	29	0	3141533696	57	4190
2026-01-04 04:08:46.66	251.62	24.36	-45.9	-47.0	15.3	0.00e+00	0	29	0	3147825152	57	4208
2026-01-04 04:08:47.66	251.49	24.23	-46.0	-47.1	15.3	0.00e+00	0	29	0	3153068032	57	4248
2026-01-04 04:08:48.66	251.36	24.09	-46.1	-47.1	15.3	0.00e+00	0	29	0	3158310912	57	4286
2026-01-04 04:08:49.66	251.24	23.95	-46.0	-47.1	15.3	0.00e+00	0	29	0	3164602368	57	4254
2026-01-04 04:08:50.66	251.11	23.81	-46.0	-47.1	15.3	0.00e+00	0	29	0	3169845248	57	4253
2026-01-04 04:08:51.66	250.99	23.68	-46.1	-47.1	15.3	0.00e+00	0	29	0	3175088128	57	4276
2026-01-04 04:08:52.66	250.86	23.54	-46.1	-47.1	15.3	0.00e+00	0	29	0	3181379584	57	4289
2026-01-04 04:08:53.66	250.74	23.40	-46.1	-47.2	15.3	0.00e+00	0	29	0	3186622464	57	4308
2026-01-04 04:08:54.66	250.62	23.27	-46.0	-47.1	15.3	0.00e+00	0	29	0	3191865344	57	4261
2026-01-04 04:08:55.66	250.50	23.14	-46.1	-47.1	15.3	0.00e+00	0	29	0	3198156800	57	4290
2026-01-04 04:08:56.66	250.38	23.00	-46.1	-47.1	15.3	0.00e+00	0	29	0	3203399680	57	4276
2026-01-04 04:08:57.66	250.27	22.87	-46.2	-47.2	15.2	0.00e+00	0	29	0	3209691136	57	4322
2026-01-04 04:08:58.65	250.15	22.74	-46.1	-47.2	15.3	0.00e+00	0	29	0	3214934016	57	4306
2026-01-04 04:08:59.66	250.03	22.60	-46.2	-47.3	15.2	0.00e+00	0	29	0	3220176896	57	4349
2026-01-04 04:09:00.65	249.92	22.47	-46.3	-47.4	15.2	0.00e+00	0	29	0	3226468352	57	4401
2026-01-04 04:09:01.65	249.81	22.34	-46.2	-47.3	15.2	0.00e+00	0	29	0	3231711232	57	4377
2026-01-04 04:09:02.64	249.69	22.21	-46.3	-47.4	15.2	0.00e+00	0	29	0	3236954112	57	4405
2026-01-04 04:09:03.64	249.58	22.08	-46.4	-47.4	15.2	0.00e+00	0	29	0	3242196992	57	4439
2026-01-04 04:09:04.64	249.47	21.96	-46.3	-47.4	15.2	0.00e+00	0	29	0	3248488448	57	4431
2026-01-04 04:09:05.63	249.36	21.83	-46.3	-47.4	15.2	0.00e+00	0	29	0	3253731328	57	4432
2026-01-04 04:09:06.63	249.25	21.70	-46.4	-47.4	15.2	0.00e+00	0	29	0	3260022784	57	4438
2026-01-04 04:09:07.63	249.14	21.57	-46.4	-47.5	15.3	0.00e+00	0	29	0	3265265664	58	4226
2026-01-04 04:09:08.62	249.04	21.45	-46.5	-47.6	15.2	0.00e+00	0	29	0	3270508544	58	4274
2026-01-04 04:09:09.62	248.93	21.32	-46.4	-47.5	15.3	0.00e+00	0	29	0	3276800000	58	4205
2026-01-04 04:09:10.62	248.83	21.19	-46.3	-47.4	15.3	0.00e+00	0	29	0	3282042880	58	4170
2026-01-04 04:09:11.62	248.72	21.07	-46.3	-47.4	15.3	0.00e+00	0	29	0	3287285760	58	4177
2026-01-04 04:09:12.62	248.62	20.94	-46.4	-47.4	15.3	0.00e+00	0	29	0	3293577216	58	4185
2026-01-04 04:09:13.62	248.52	20.82	-46.4	-47.4	15.3	0.00e+00	0	29	0	3298820096	58	4175
2026-01-04 04:09:14.62	248.41	20.69	-46.3	-47.4	15.3	0.00e+00	0	29	0	3304062976	58	4149
2026-01-04 04:09:15.62	248.31	20.57	-46.3	-47.4	15.3	0.00e+00	0	29	0	3310354432	58	4163
2026-01-04 04:09:16.62	248.21	20.45	-46.5	-47.5	15.3	0.00e+00	0	29	0	3315597312	58	4231
2026-01-04 04:09:17.62	248.11	20.32	-46.5	-47.6	15.2	0.00e+00	0	29	0	3321888768	58	4255
2026-01-04 04:09:18.61	248.01	20.20	-46.5	-47.6	15.2	0.00e+00	0	29	0	3327131648	58	4256
2026-01-04 04:09:19.61	247.92	20.08	-46.5	-47.6	15.2	0.00e+00	0	29	0	3332374528	58	4265
2026-01-04 04:09:20.60	247.82	19.96	-46.7	-47.8	15.2	0.00e+00	0	29	0	3338665984	58	4369
2026-01-04 04:09:21.60	247.72	19.84	-46.6	-47.7	15.2	0.00e+00	0	29	0	3343908864	58	4319
2026-01-04 04:09:22.61	247.63	19.72	-46.7	-47.8	15.2	0.00e+00	0	29	0	3349151744	58	4349
2026-01-04 04:09:23.60	247.53	19.60	-46.7	-47.8	15.2	0.00e+00	0	29	0	3355443200	58	4383
2026-01-04 04:09:24.60	247.44	19.48	-46.8	-47.9	15.2	0.00e+00	0	29	0	3360686080	58	4408
2026-01-04 04:09:25.60	247.35	19.36	-46.9	-48.0	15.1	0.00e+00	0	29	0	3365928960	58	4458
2026-01-04 04:09:26.60	247.25	19.25	-46.9	-48.1	15.2	0.00e+00	0	29	0	3372220416	59	4243
2026-01-04 04:09:27.60	247.16	19.13	-47.0	-48.1	15.2	0.00e+00	0	29	0	3377463296	59	4288
2026-01-04 04:09:28.60	247.07	19.01	-47.0	-48.2	15.2	0.00e+00	0	29	0	3383754752	59	4295
2026-01-04 04:09:29.61	246.98	18.89	-47.2	-48.3	15.1	0.00e+00	0	29	0	3388997632	59	4390
2026-01-04 04:09:30.61	246.89	18.78	-47.2	-48.4	15.1	0.00e+00	0	29	0	3394240512	59	4400
2026-01-04 04:09:31.60	246.80	18.66	-47.2	-48.4	15.1	0.00e+00	0	29	0	3400531968	59	4401
2026-01-04 04:09:32.61	246.71	18.55	-47.3	-48.5	15.1	0.00e+00	0	29	0	3405774848	59	4450
2026-01-04 04:09:33.61	246.63	18.43	-47.3	-48.4	15.1	0.00e+00	0	29	0	3411017728	59	4422
2026-01-04 04:09:34.61	246.54	18.32	-47.3	-48.5	15.1	0.00e+00	0	29	0	3417309184	59	4445
2026-01-04 04:09:35.61	246.45	18.20	-47.3	-48.5	15.1	0.00e+00	0	29	0	3422552064	59	4442
2026-01-04 04:09:36.61	246.37	18.09	-47.3	-48.5	15.1	0.00e+00	0	29	0	3428843520	59	4454
2026-01-04 04:09:37.61	246.28	17.98	-47.0	-48.1	15.3	0.00e+00	0	29	0	3434086400	60	4016
2026-01-04 04:09:38.61	246.20	17.87	-47.0	-48.1	15.3	0.00e+00	0	29	0	3439329280	60	4028
2026-01-04 04:09:39.61	246.11	17.75	-47.0	-48.1	15.3	0.00e+00	0	29	0	3445620736	60	4014
2026-01-04 04:09:40.61	246.03	17.64	-47.0	-48.1	15.3	0.00e+00	0	29	0	3450863616	60	4023
2026-01-04 04:09:41.60	245.95	17.53	-46.8	-47.9	15.3	0.00e+00	0	29	0	3456106496	60	3940
2026-01-04 04:09:42.60	245.87	17.42	-46.9	-48.0	15.3	0.00e+00	0	29	0	3462397952	60	3960
2026-01-04 04:09:43.60	245.79	17.31	-46.9	-48.0	15.3	0.00e+00	0	29	0	3467640832	60	3960
2026-01-04 04:09:44.61	245.71	17.20	-46.9	-47.9	15.3	0.00e+00	0	29	0	3472883712	60	3947
2026-01-04 04:09:45.61	245.63	17.09	-46.9	-48.0	15.3	0.00e+00	0	29	0	3479175168	60	3973
2026-01-04 04:09:46.61	245.55	16.98	-47.0	-48.0	15.3	0.00e+00	0	29	0	3484418048	60	3993
2026-01-04 04:09:47.61	245.47	16.87	-47.0	-48.1	15.2	0.00e+00	0	29	0	3490709504	60	4021
2026-01-04 04:09:48.61	245.39	16.76	-47.1	-48.2	15.2	0.00e+00	0	29	0	3495952384	60	4067
2026-01-04 04:09:49.61	245.31	16.66	-47.1	-48.1	15.2	0.00e+00	0	29	0	3501195264	60	4051
2026-01-04 04:09:50.62	245.23	16.55	-47.2	-48.3	15.2	0.00e+00	0	29	0	3507486720	60	4099
2026-01-04 04:09:51.62	245.16	16.44	-47.1	-48.2	15.2	0.00e+00	0	29	0	3512729600	60	4088
2026-01-04 04:09:52.63	245.08	16.33	-47.2	-48.3	15.2	0.00e+00	0	29	0	3517972480	60	4102
2026-01-04 04:09:53.63	245.01	16.23	-47.2	-48.3	15.2	0.00e+00	0	29	0	3524263936	60	4136
2026-01-04 04:09:54.63	244.93	16.12	-47.3	-48.4	15.1	0.00e+00	0	29	0	3529506816	60	4147
2026-01-04 04:09:55.63	244.86	16.02	-47.2	-48.3	15.2	0.00e+00	0	29	0	3534749696	60	4125
2026-01-04 04:09:56.63	244.78	15.91	-47.2	-48.3	15.2	0.00e+00	0	29	0	3541041152	60	4116
2026-01-04 04:09:57.63	244.71	15.81	-47.3	-48.4	15.1	0.00e+00	0	29	0	3546284032	60	4156
2026-01-04 04:09:58.62	244.64	15.70	-47.3	-48.4	15.1	0.00e+00	0	29	0	3552575488	60	4188
2026-01-04 04:09:59.62	244.57	15.60	-47.3	-48.4	15.2	0.00e+00	0	29	0	3557818368	60	4156
2026-01-04 04:10:00.62	244.50	15.50	-47.3	-48.4	15.1	0.00e+00	0	29	0	3563061248	60	4192
2026-01-04 04:10:01.62	244.42	15.39	-47.3	-48.4	15.1	0.00e+00	0	29	0	3569352704	60	4189
2026-01-04 04:10:02.62	244.35	15.29	-47.3	-48.4	15.1	0.00e+00	0	29	0	3574595584	60	4177
2026-01-04 04:10:03.63	244.28	15.19	-47.4	-48.5	15.1	0.00e+00	0	29	0	3579838464	60	4231
2026-01-04 04:10:04.62	244.21	15.09	-47.5	-48.6	15.1	0.00e+00	0	29	0	3586129920	60	4258
2026-01-04 04:10:05.62	244.15	14.99	-47.5	-48.6	15.1	0.00e+00	0	29	0	3591372800	60	4280
2026-01-04 04:10:06.60	244.08	14.89	-47.6	-48.7	15.1	0.00e+00	0	29	0	3596615680	60	4316
2026-01-04 04:10:07.60	244.01	14.79	-47.7	-48.8	15.0	0.00e+00	0	29	0	3602907136	60	4377
2026-01-04 04:10:08.60	243.94	14.69	-47.7	-48.9	15.0	0.00e+00	0	29	0	3608150016	60	4413
2026-01-04 04:10:09.60	243.88	14.59	-47.8	-48.9	15.0	0.00e+00	0	29	0	3614441472	60	4433
2026-01-04 04:10:10.59	243.81	14.49	-47.9	-49.1	14.9	0.00e+00	0	29	0	3619684352	60	4511
2026-01-04 04:10:11.59	243.74	14.39	-48.0	-49.1	15.0	0.00e+00	0	29	0	3624927232	61	4288
2026-01-04 04:10:12.58	243.68	14.29	-48.1	-49.3	15.0	0.00e+00	0	29	0	3630170112	61	4382
