passes_logs/2026/01/04/R3.2S_Murmansk/R3.2S_Murmansk__20260104_075454_SUOMI_NPP_rec.log

#Pass ID: 20260104_075454_SUOMI NPP
#Satellite: SUOMI NPP
#Configuration: NPP
#almurnet v.1.7.20251203
#Start time: 2026-01-04 07:54:54

#Version: 2.2.20231116
#Station: R3.2S_Murmansk
#Location: 33.079688 lon 68.888172 lat
#TLE: 1 37849U 11061A   26001.07732418  .00000182  00000+0  10735-3 0  9990
#TLE: 2 37849  98.7795 303.2470 0002580  87.2016 272.9455 14.19520779734739

#Time	Az	El	Level	Level2	SNR	BER	BlckErr	Temp	State	Recorded	gain1	gain2
2026-01-04 07:54:54.86	112.92	2.03	-58.8	-74.8	3.8	1.49e+00	0	26	0	0	84	21954
2026-01-04 07:54:55.87	112.88	2.09	-58.6	-74.6	3.8	1.49e+00	0	27	104	0	82	24021
2026-01-04 07:54:56.88	112.84	2.15	-58.6	-74.6	3.8	1.49e+00	0	26	104	0	82	24053
2026-01-04 07:54:57.89	112.81	2.21	-58.6	-74.6	3.8	1.49e+00	0	26	104	0	82	23942
2026-01-04 07:54:58.90	112.77	2.28	-58.6	-74.5	3.8	1.49e+00	0	27	104	0	82	23850
2026-01-04 07:54:59.90	112.73	2.34	-58.6	-74.6	3.8	1.49e+00	0	27	104	0	82	23891
2026-01-04 07:55:00.91	112.69	2.40	-58.6	-74.6	3.8	1.49e+00	0	27	104	0	82	23905
2026-01-04 07:55:01.91	112.66	2.47	-58.6	-74.5	3.8	1.49e+00	0	27	104	0	82	23844
2026-01-04 07:55:02.92	112.62	2.53	-58.6	-74.6	3.8	1.49e+00	0	27	104	0	82	23897
2026-01-04 07:55:03.93	112.58	2.59	-58.6	-74.6	3.8	1.49e+00	0	27	104	0	82	23917
2026-01-04 07:55:04.94	112.54	2.66	-58.6	-74.6	3.8	1.49e+00	0	27	104	0	82	23930
2026-01-04 07:55:05.95	112.50	2.72	-58.6	-74.6	3.8	1.49e+00	0	27	104	0	82	23879
2026-01-04 07:55:06.96	112.46	2.78	-58.6	-74.5	3.8	1.49e+00	0	27	104	0	82	23663
2026-01-04 07:55:07.97	112.42	2.85	-58.6	-74.5	3.8	1.49e+00	0	27	104	0	82	23604
2026-01-04 07:55:08.98	112.39	2.91	-58.6	-74.5	3.8	1.49e+00	0	27	104	0	82	23626
2026-01-04 07:55:09.99	112.35	2.98	-58.6	-74.4	3.8	1.49e+00	0	27	104	0	82	23544
2026-01-04 07:55:11.00	112.31	3.04	-58.6	-74.5	3.8	1.49e+00	0	27	104	0	82	23696
2026-01-04 07:55:12.01	112.27	3.11	-58.6	-74.5	3.8	1.49e+00	0	27	104	0	82	23664
2026-01-04 07:55:13.01	112.23	3.17	-58.6	-74.5	3.8	1.49e+00	0	27	104	0	82	23646
2026-01-04 07:55:14.02	112.19	3.24	-58.6	-74.5	3.8	1.49e+00	0	27	104	0	82	23756
2026-01-04 07:55:15.02	112.15	3.30	-58.6	-74.6	3.8	1.49e+00	0	27	104	0	82	24032
2026-01-04 07:55:16.03	112.11	3.37	-58.6	-74.6	3.9	1.49e+00	0	27	104	0	82	24030
2026-01-04 07:55:17.04	112.06	3.43	-58.6	-74.5	3.8	1.49e+00	0	27	104	0	82	23846
2026-01-04 07:55:18.05	112.02	3.50	-58.6	-74.5	3.8	1.49e+00	0	27	104	0	82	23766
2026-01-04 07:55:19.06	111.98	3.56	-58.6	-74.5	3.8	1.49e+00	0	27	104	0	82	23642
2026-01-04 07:55:20.07	111.94	3.63	-58.6	-74.4	3.8	1.49e+00	0	27	104	0	82	23508
2026-01-04 07:55:21.08	111.90	3.69	-58.6	-74.4	3.8	1.49e+00	0	27	104	0	82	23548
2026-01-04 07:55:22.09	111.86	3.76	-58.6	-74.6	3.8	1.49e+00	0	27	104	0	82	23897
2026-01-04 07:55:23.10	111.82	3.83	-58.6	-74.6	3.8	1.49e+00	0	27	104	0	82	24067
2026-01-04 07:55:24.11	111.77	3.89	-58.6	-74.6	3.8	1.49e+00	0	27	104	0	82	23984
2026-01-04 07:55:25.12	111.73	3.96	-58.6	-74.3	3.8	1.49e+00	0	27	104	0	82	23204
2026-01-04 07:55:26.12	111.69	4.03	-58.6	-73.7	3.8	1.49e+00	0	27	104	0	82	21674
2026-01-04 07:55:27.14	111.65	4.09	-58.5	-72.7	3.8	1.49e+00	0	27	104	0	82	19304
2026-01-04 07:55:28.15	111.60	4.16	-58.5	-71.7	3.9	1.49e+00	0	27	104	0	82	17242
2026-01-04 07:55:29.15	111.56	4.23	-58.4	-70.5	4.4	1.36e+00	92	27	0	0	82	14992
2026-01-04 07:55:30.16	111.52	4.29	-58.3	-69.4	4.8	9.95e-01	0	27	0	1048576	82	13230
2026-01-04 07:55:31.17	111.47	4.36	-58.2	-68.1	5.4	6.78e-01	0	28	0	3145728	82	11376
2026-01-04 07:55:32.18	111.43	4.43	-58.1	-67.3	6.0	3.53e-01	0	27	0	5242880	82	10378
2026-01-04 07:55:33.19	111.38	4.50	-58.0	-66.5	6.5	2.19e-01	0	28	0	7340032	82	9426
2026-01-04 07:55:34.20	111.34	4.56	-57.8	-65.6	7.2	1.23e-01	0	27	0	9437184	82	8501
2026-01-04 07:55:35.21	111.30	4.63	-57.6	-64.6	8.0	6.12e-02	0	27	0	10485760	81	8052
2026-01-04 07:55:36.21	111.25	4.70	-57.5	-64.0	8.5	2.39e-02	0	28	0	12582912	81	7518
2026-01-04 07:55:37.22	111.21	4.77	-57.1	-62.8	9.5	7.98e-03	0	28	0	14680064	80	6943
2026-01-04 07:55:38.23	111.16	4.84	-56.8	-61.8	10.3	2.17e-03	0	28	0	16777216	80	6198
2026-01-04 07:55:39.24	111.12	4.90	-56.4	-60.8	11.1	2.37e-04	0	27	0	18874368	79	5810
2026-01-04 07:55:40.25	111.07	4.97	-56.1	-60.2	11.5	4.80e-05	0	28	0	19922944	78	5735
2026-01-04 07:55:41.26	111.02	5.04	-55.6	-59.2	12.1	1.29e-05	0	28	0	22020096	77	5436
2026-01-04 07:55:42.27	110.98	5.11	-55.3	-58.7	12.4	1.50e-06	0	28	0	24117248	77	5158
2026-01-04 07:55:43.28	110.93	5.18	-55.1	-58.3	12.7	0.00e+00	0	28	0	26214400	76	5179
2026-01-04 07:55:44.29	110.88	5.25	-54.9	-58.0	12.8	0.00e+00	0	27	0	28311552	76	4991
2026-01-04 07:55:45.30	110.84	5.32	-54.8	-57.8	12.9	0.00e+00	0	27	0	29360128	76	4888
2026-01-04 07:55:46.30	110.79	5.39	-54.9	-58.1	12.8	0.00e+00	0	27	0	31457280	76	5042
2026-01-04 07:55:47.31	110.74	5.46	-55.0	-58.1	12.8	0.00e+00	0	28	0	33554432	76	5069
2026-01-04 07:55:48.32	110.70	5.53	-55.1	-58.3	12.6	0.00e+00	0	28	0	35651584	76	5201
2026-01-04 07:55:49.33	110.65	5.60	-55.5	-59.1	12.1	7.00e-07	0	28	0	37748736	76	5682
2026-01-04 07:55:50.33	110.60	5.67	-56.0	-60.0	11.6	3.80e-06	0	28	0	39845888	77	5973
2026-01-04 07:55:51.34	110.55	5.74	-56.5	-61.0	10.8	2.28e-05	0	28	0	40894464	78	6340
2026-01-04 07:55:52.35	110.50	5.81	-56.8	-62.1	10.1	6.58e-04	0	28	0	42991616	78	7122
2026-01-04 07:55:53.36	110.46	5.88	-57.4	-63.7	8.8	4.56e-03	0	27	0	45088768	79	8134
2026-01-04 07:55:54.36	110.41	5.95	-57.6	-64.9	7.8	2.27e-02	0	28	0	47185920	80	8776
2026-01-04 07:55:55.37	110.36	6.02	-57.9	-66.1	6.7	1.11e-01	0	28	0	49283072	80	10101
2026-01-04 07:55:56.37	110.31	6.09	-58.0	-66.9	6.2	1.78e-01	0	28	0	50331648	81	10420
2026-01-04 07:55:57.39	110.26	6.17	-58.1	-67.3	5.9	2.64e-01	0	28	0	52428800	81	10976
2026-01-04 07:55:58.39	110.21	6.24	-58.0	-67.0	6.1	2.74e-01	0	28	0	54525952	81	10643
2026-01-04 07:55:59.40	110.16	6.31	-58.1	-67.1	6.0	2.79e-01	0	28	0	56623104	81	10769
2026-01-04 07:56:00.41	110.11	6.38	-58.1	-67.4	5.9	2.91e-01	0	28	0	58720256	81	11055
2026-01-04 07:56:01.42	110.06	6.45	-58.1	-67.5	5.8	3.30e-01	0	28	0	59768832	81	11245
2026-01-04 07:56:02.43	110.01	6.53	-58.2	-68.0	5.5	4.02e-01	0	28	0	61865984	81	11897
2026-01-04 07:56:03.43	109.95	6.60	-58.2	-68.7	5.1	5.07e-01	0	28	0	63963136	81	12942
2026-01-04 07:56:04.44	109.90	6.67	-58.3	-69.6	4.7	6.90e-01	0	28	0	66060288	81	14270
2026-01-04 07:56:05.45	109.85	6.74	-58.4	-70.3	4.4	1.03e+00	56	28	0	68157440	81	15462
2026-01-04 07:56:06.46	109.80	6.82	-58.5	-71.2	4.2	1.36e+00	0	28	0	68157440	82	16311
2026-01-04 07:56:07.47	109.75	6.89	-58.5	-72.0	3.9	1.44e+00	0	28	104	68157440	82	17871
2026-01-04 07:56:08.48	109.69	6.97	-58.5	-72.4	3.9	1.48e+00	0	28	104	68157440	82	18720
2026-01-04 07:56:09.49	109.64	7.04	-58.5	-72.7	3.8	1.49e+00	0	28	104	68157440	82	19170
2026-01-04 07:56:10.50	109.59	7.11	-58.6	-72.9	3.8	1.49e+00	0	28	104	68157440	82	19785
2026-01-04 07:56:11.50	109.53	7.19	-58.6	-73.1	3.8	1.49e+00	0	28	104	68157440	82	20219
2026-01-04 07:56:12.51	109.48	7.26	-58.6	-73.3	3.8	1.49e+00	0	28	104	68157440	82	20598
2026-01-04 07:56:13.52	109.42	7.34	-58.6	-73.6	3.8	1.49e+00	0	28	104	68157440	82	21336
2026-01-04 07:56:14.53	109.37	7.41	-58.6	-73.8	3.8	1.49e+00	0	28	104	68157440	82	21956
2026-01-04 07:56:15.54	109.32	7.49	-58.6	-74.2	3.8	1.49e+00	0	28	104	68157440	82	22782
2026-01-04 07:56:16.54	109.26	7.56	-58.6	-74.3	3.8	1.49e+00	0	28	104	68157440	82	23225
2026-01-04 07:56:17.55	109.21	7.64	-58.6	-74.5	3.8	1.49e+00	0	28	104	68157440	82	23594
2026-01-04 07:56:18.56	109.15	7.71	-58.6	-74.4	3.8	1.49e+00	0	28	104	68157440	82	23550
2026-01-04 07:56:19.56	109.09	7.79	-58.6	-74.5	3.8	1.49e+00	0	28	104	68157440	82	23616
2026-01-04 07:56:20.57	109.04	7.86	-58.6	-74.5	3.8	1.49e+00	0	28	104	68157440	82	23610
2026-01-04 07:56:21.58	108.98	7.94	-58.6	-74.4	3.8	1.49e+00	0	28	104	68157440	82	23464
2026-01-04 07:56:22.59	108.92	8.01	-58.6	-74.5	3.8	1.49e+00	0	28	104	68157440	82	23585
2026-01-04 07:56:23.60	108.87	8.09	-58.6	-74.5	3.8	1.49e+00	0	28	104	68157440	82	23605
2026-01-04 07:56:24.61	108.81	8.17	-58.6	-74.4	3.8	1.49e+00	0	28	104	68157440	82	23528
2026-01-04 07:56:25.62	108.75	8.24	-58.6	-74.4	3.8	1.49e+00	0	28	104	68157440	82	23361
2026-01-04 07:56:26.62	108.69	8.32	-58.6	-74.3	3.8	1.49e+00	0	28	104	68157440	82	23285
2026-01-04 07:56:27.63	108.63	8.40	-58.6	-74.2	3.8	1.49e+00	0	28	104	68157440	82	22976
2026-01-04 07:56:28.64	108.58	8.48	-58.6	-74.2	3.8	1.49e+00	0	28	104	68157440	82	22838
2026-01-04 07:56:29.65	108.52	8.55	-58.6	-74.2	3.8	1.49e+00	0	28	104	68157440	82	22879
2026-01-04 07:56:30.65	108.46	8.63	-58.6	-74.2	3.8	1.49e+00	0	28	104	68157440	82	23015
2026-01-04 07:56:31.66	108.40	8.71	-58.6	-74.3	3.8	1.49e+00	0	28	104	68157440	82	23166
2026-01-04 07:56:32.67	108.34	8.79	-58.6	-74.4	3.8	1.49e+00	0	28	104	68157440	82	23392
2026-01-04 07:56:33.68	108.28	8.87	-58.6	-74.4	3.8	1.49e+00	0	28	104	68157440	82	23519
2026-01-04 07:56:34.69	108.22	8.95	-58.6	-74.5	3.8	1.49e+00	0	28	104	68157440	82	23732
2026-01-04 07:56:35.69	108.15	9.02	-58.6	-74.6	3.8	1.49e+00	0	28	104	68157440	82	23870
2026-01-04 07:56:36.70	108.09	9.10	-58.6	-74.6	3.8	1.49e+00	0	28	104	68157440	82	23940
2026-01-04 07:56:37.71	108.03	9.18	-58.6	-74.6	3.8	1.49e+00	0	28	104	68157440	82	24034
2026-01-04 07:56:38.72	107.97	9.26	-58.6	-74.6	3.8	1.49e+00	0	28	104	68157440	82	24059
2026-01-04 07:56:39.73	107.91	9.34	-58.6	-74.6	3.8	1.49e+00	0	28	104	68157440	82	24061
2026-01-04 07:56:40.74	107.84	9.42	-58.6	-74.7	3.8	1.49e+00	0	28	104	68157440	82	24133
2026-01-04 07:56:41.74	107.78	9.50	-58.6	-74.6	3.8	1.49e+00	0	28	104	68157440	82	24123
2026-01-04 07:56:42.75	107.72	9.58	-58.6	-74.6	3.8	1.49e+00	0	28	104	68157440	82	24093
2026-01-04 07:56:43.76	107.65	9.66	-58.6	-74.6	3.8	1.49e+00	0	28	104	68157440	82	24072
2026-01-04 07:56:44.77	107.59	9.74	-58.6	-74.6	3.8	1.49e+00	0	28	104	68157440	82	24065
2026-01-04 07:56:45.77	107.52	9.83	-58.6	-74.6	3.8	1.49e+00	0	28	104	68157440	82	24050
2026-01-04 07:56:46.78	107.46	9.91	-58.6	-74.6	3.8	1.49e+00	0	28	104	68157440	82	23954
2026-01-04 07:56:47.79	107.39	9.99	-58.6	-74.6	3.9	1.49e+00	0	28	104	68157440	82	24026
2026-01-04 07:56:48.80	107.33	10.07	-58.6	-74.6	3.8	1.49e+00	0	28	104	68157440	82	24038
2026-01-04 07:56:49.81	107.26	10.15	-58.6	-74.6	3.8	1.49e+00	0	28	104	68157440	82	24087
2026-01-04 07:56:50.82	107.19	10.24	-58.6	-74.6	3.8	1.49e+00	0	28	104	68157440	82	24130
2026-01-04 07:56:51.83	107.13	10.32	-58.6	-74.6	3.8	1.49e+00	0	28	104	68157440	82	24127
2026-01-04 07:56:52.83	107.06	10.40	-58.6	-74.6	3.8	1.49e+00	0	28	104	68157440	82	24128
2026-01-04 07:56:53.85	106.99	10.48	-58.6	-74.7	3.8	1.49e+00	0	28	104	68157440	82	24135
2026-01-04 07:56:54.86	106.92	10.57	-58.6	-74.7	3.8	1.49e+00	0	28	104	68157440	82	24142
2026-01-04 07:56:55.86	106.85	10.65	-58.6	-74.6	3.8	1.49e+00	0	28	104	68157440	82	24095
2026-01-04 07:56:56.87	106.78	10.73	-58.6	-74.6	3.8	1.49e+00	0	28	104	68157440	82	24095
2026-01-04 07:56:57.88	106.71	10.82	-58.6	-74.7	3.8	1.49e+00	0	28	104	68157440	82	24141
2026-01-04 07:56:58.89	106.64	10.90	-58.6	-74.6	3.8	1.49e+00	0	28	104	68157440	82	24083
2026-01-04 07:56:59.90	106.57	10.99	-58.6	-74.7	3.8	1.49e+00	0	28	104	68157440	82	24159
2026-01-04 07:57:00.91	106.50	11.07	-58.6	-74.7	3.8	1.49e+00	0	28	104	68157440	82	24159
2026-01-04 07:57:01.92	106.43	11.16	-58.7	-74.7	3.8	1.49e+00	0	28	104	68157440	82	24213
2026-01-04 07:57:02.93	106.36	11.24	-58.6	-74.7	3.8	1.49e+00	0	28	104	68157440	82	24153
2026-01-04 07:57:03.94	106.29	11.33	-58.6	-74.6	3.8	1.49e+00	0	28	104	68157440	82	24018
2026-01-04 07:57:04.95	106.21	11.41	-58.6	-74.6	3.8	1.49e+00	0	28	104	68157440	82	24068
2026-01-04 07:57:05.96	106.14	11.50	-58.6	-74.6	3.8	1.49e+00	0	28	104	68157440	82	24067
2026-01-04 07:57:06.97	106.07	11.59	-58.6	-74.6	3.8	1.49e+00	0	29	104	68157440	82	24089
2026-01-04 07:57:07.97	105.99	11.67	-58.6	-74.7	3.8	1.49e+00	0	29	104	68157440	82	24137
2026-01-04 07:57:08.99	105.92	11.76	-58.6	-74.7	3.8	1.49e+00	0	28	104	68157440	82	24180
2026-01-04 07:57:09.99	105.84	11.85	-58.6	-74.7	3.8	1.49e+00	0	28	104	68157440	82	24178
2026-01-04 07:57:11.00	105.77	11.93	-58.6	-74.7	3.8	1.49e+00	0	28	104	68157440	82	24173
2026-01-04 07:57:12.01	105.69	12.02	-58.6	-74.7	3.8	1.49e+00	0	28	104	68157440	82	24152
2026-01-04 07:57:13.02	105.62	12.11	-58.6	-74.6	3.8	1.49e+00	0	29	104	68157440	82	24059
2026-01-04 07:57:14.03	105.54	12.20	-58.6	-74.6	3.8	1.49e+00	0	28	104	68157440	82	24017
2026-01-04 07:57:15.03	105.46	12.29	-58.6	-74.6	3.8	1.49e+00	0	29	104	68157440	82	24084
2026-01-04 07:57:16.04	105.38	12.37	-58.6	-74.6	3.8	1.49e+00	0	28	104	68157440	82	24053
2026-01-04 07:57:17.05	105.31	12.46	-58.6	-74.6	3.8	1.49e+00	0	29	104	68157440	82	24076
2026-01-04 07:57:18.06	105.23	12.55	-58.6	-74.6	3.8	1.49e+00	0	29	104	68157440	82	24084
2026-01-04 07:57:19.06	105.15	12.64	-58.6	-74.6	3.8	1.49e+00	0	28	104	68157440	82	24119
2026-01-04 07:57:20.07	105.07	12.73	-58.6	-74.6	3.8	1.49e+00	0	28	104	68157440	82	24115
2026-01-04 07:57:21.07	104.99	12.82	-58.6	-74.7	3.8	1.49e+00	0	28	104	68157440	82	24213
2026-01-04 07:57:22.08	104.91	12.91	-58.6	-74.6	3.8	1.49e+00	0	29	104	68157440	82	24121
2026-01-04 07:57:23.09	104.83	13.00	-58.6	-74.7	3.8	1.49e+00	0	28	104	68157440	82	24178
2026-01-04 07:57:24.10	104.75	13.09	-58.6	-74.7	3.8	1.49e+00	0	28	104	68157440	82	24161
2026-01-04 07:57:25.11	104.66	13.18	-58.6	-74.7	3.8	1.49e+00	0	29	104	68157440	82	24186
2026-01-04 07:57:26.12	104.58	13.28	-58.6	-74.6	3.8	1.49e+00	0	29	104	68157440	82	24118
2026-01-04 07:57:27.13	104.50	13.37	-58.6	-74.7	3.8	1.49e+00	0	29	104	68157440	82	24172
2026-01-04 07:57:28.14	104.41	13.46	-58.6	-74.7	3.8	1.49e+00	0	29	104	68157440	82	24150
2026-01-04 07:57:29.15	104.33	13.55	-58.6	-74.7	3.8	1.49e+00	0	29	104	68157440	82	24181
2026-01-04 07:57:30.16	104.24	13.64	-58.6	-74.7	3.8	1.49e+00	0	29	104	68157440	82	24149
2026-01-04 07:57:31.16	104.16	13.74	-58.6	-74.7	3.8	1.49e+00	0	29	104	68157440	82	24180
2026-01-04 07:57:32.17	104.07	13.83	-58.6	-74.7	3.8	1.49e+00	0	29	104	68157440	82	24188
2026-01-04 07:57:33.18	103.98	13.92	-58.6	-74.7	3.8	1.49e+00	0	28	104	68157440	82	24213
2026-01-04 07:57:34.19	103.90	14.02	-58.6	-74.6	3.8	1.49e+00	0	29	104	68157440	82	24102
2026-01-04 07:57:35.20	103.81	14.11	-58.6	-74.7	3.8	1.49e+00	0	28	104	68157440	82	24143
2026-01-04 07:57:36.22	103.72	14.21	-58.6	-74.6	3.8	1.49e+00	0	29	104	68157440	82	24124
2026-01-04 07:57:37.22	103.63	14.30	-58.6	-74.6	3.8	1.49e+00	0	29	104	68157440	82	24117
2026-01-04 07:57:38.23	103.54	14.40	-58.6	-74.6	3.8	1.49e+00	0	29	104	68157440	82	24107
2026-01-04 07:57:39.24	103.45	14.49	-58.7	-74.7	3.8	1.49e+00	0	29	104	68157440	82	24204
2026-01-04 07:57:40.25	103.36	14.59	-58.6	-74.7	3.8	1.49e+00	0	29	104	68157440	82	24155
2026-01-04 07:57:41.26	103.27	14.68	-58.6	-74.7	3.8	1.49e+00	0	29	104	68157440	82	24227
2026-01-04 07:57:42.27	103.18	14.78	-58.6	-74.7	3.8	1.49e+00	0	29	104	68157440	82	24192
2026-01-04 07:57:43.28	103.08	14.88	-58.6	-74.7	3.8	1.49e+00	0	29	104	68157440	82	24187
2026-01-04 07:57:44.29	102.99	14.97	-58.6	-74.7	3.8	1.49e+00	0	28	104	68157440	82	24168
2026-01-04 07:57:45.30	102.90	15.07	-58.6	-74.7	3.8	1.49e+00	0	29	104	68157440	82	24152
2026-01-04 07:57:46.30	102.80	15.17	-58.6	-74.7	3.8	1.49e+00	0	29	104	68157440	82	24193
2026-01-04 07:57:47.31	102.71	15.26	-58.6	-74.7	3.8	1.49e+00	0	29	104	68157440	82	24225
2026-01-04 07:57:48.32	102.61	15.36	-58.6	-74.7	3.8	1.49e+00	0	28	104	68157440	82	24193
2026-01-04 07:57:49.33	102.52	15.46	-58.6	-74.7	3.8	1.49e+00	0	29	104	68157440	82	24173
2026-01-04 07:57:50.34	102.42	15.56	-58.6	-74.7	3.8	1.49e+00	0	29	104	68157440	82	24193
2026-01-04 07:57:51.35	102.32	15.66	-58.6	-74.7	3.8	1.49e+00	0	29	104	68157440	82	24135
2026-01-04 07:57:52.36	102.22	15.76	-58.6	-74.7	3.8	1.49e+00	0	29	104	68157440	82	24187
2026-01-04 07:57:53.37	102.12	15.86	-58.6	-74.7	3.8	1.49e+00	0	29	104	68157440	82	24174
2026-01-04 07:57:54.38	102.02	15.96	-58.6	-74.7	3.8	1.49e+00	0	29	104	68157440	82	24196
2026-01-04 07:57:55.39	101.92	16.06	-58.6	-74.7	3.8	1.49e+00	0	29	104	68157440	82	24214
2026-01-04 07:57:56.39	101.82	16.16	-58.6	-74.7	3.8	1.49e+00	0	28	104	68157440	82	24188
2026-01-04 07:57:57.40	101.72	16.26	-58.7	-74.7	3.8	1.49e+00	0	29	104	68157440	82	24159
2026-01-04 07:57:58.41	101.62	16.36	-58.7	-74.7	3.8	1.49e+00	0	29	104	68157440	82	24196
2026-01-04 07:57:59.42	101.51	16.46	-58.6	-74.7	3.8	1.49e+00	0	29	104	68157440	82	24171
2026-01-04 07:58:00.43	101.41	16.56	-58.6	-74.7	3.8	1.49e+00	0	29	104	68157440	82	24226
2026-01-04 07:58:01.44	101.31	16.66	-58.6	-74.7	3.8	1.49e+00	0	29	104	68157440	82	24217
2026-01-04 07:58:02.44	101.20	16.77	-58.6	-74.7	3.8	1.49e+00	0	29	104	68157440	82	24156
2026-01-04 07:58:03.45	101.09	16.87	-58.6	-74.7	3.8	1.49e+00	0	29	104	68157440	82	24214
2026-01-04 07:58:04.46	100.99	16.97	-58.6	-74.7	3.8	1.49e+00	0	29	104	68157440	82	24176
2026-01-04 07:58:05.47	100.88	17.07	-58.6	-74.6	3.8	1.49e+00	0	29	104	68157440	82	24070
2026-01-04 07:58:06.48	100.77	17.18	-58.6	-74.7	3.9	1.49e+00	0	28	104	68157440	82	24169
2026-01-04 07:58:07.48	100.66	17.28	-58.6	-74.6	3.8	1.49e+00	0	29	104	68157440	82	24089
2026-01-04 07:58:08.49	100.55	17.39	-58.6	-74.7	3.8	1.49e+00	0	29	104	68157440	82	24155
2026-01-04 07:58:09.50	100.44	17.49	-58.6	-74.7	3.8	1.49e+00	0	29	104	68157440	82	24133
2026-01-04 07:58:10.51	100.33	17.60	-58.6	-74.7	3.8	1.49e+00	0	29	104	68157440	82	24183
2026-01-04 07:58:11.52	100.22	17.70	-58.6	-74.7	3.8	1.49e+00	0	29	104	68157440	82	24158
2026-01-04 07:58:12.53	100.10	17.81	-58.6	-74.7	3.8	1.49e+00	0	29	104	68157440	82	24204
2026-01-04 07:58:13.54	99.99	17.91	-58.6	-74.7	3.8	1.49e+00	0	29	104	68157440	82	24159
2026-01-04 07:58:14.55	99.87	18.02	-58.6	-74.7	3.8	1.49e+00	0	28	104	68157440	82	24169
2026-01-04 07:58:15.56	99.76	18.13	-58.6	-74.7	3.8	1.49e+00	0	29	104	68157440	82	24175
2026-01-04 07:58:16.56	99.64	18.23	-58.6	-74.7	3.8	1.49e+00	0	29	104	68157440	82	24156
2026-01-04 07:58:17.58	99.53	18.34	-58.6	-74.7	3.8	1.49e+00	0	29	104	68157440	82	24186
2026-01-04 07:58:18.59	99.41	18.45	-58.7	-74.7	3.8	1.49e+00	0	29	104	68157440	82	24282
2026-01-04 07:58:19.60	99.29	18.56	-58.6	-74.7	3.8	1.49e+00	0	29	104	68157440	82	24195
2026-01-04 07:58:20.61	99.17	18.67	-58.6	-74.7	3.8	1.49e+00	0	29	104	68157440	82	24186
2026-01-04 07:58:21.61	99.05	18.77	-58.6	-74.7	3.8	1.49e+00	0	29	104	68157440	82	24179
2026-01-04 07:58:22.62	98.93	18.88	-58.6	-74.7	3.8	1.49e+00	0	29	104	68157440	82	24158
2026-01-04 07:58:23.63	98.80	18.99	-58.6	-74.7	3.8	1.49e+00	0	29	104	68157440	82	24216
2026-01-04 07:58:24.64	98.68	19.10	-58.6	-74.7	3.8	1.49e+00	0	29	104	68157440	82	24177
2026-01-04 07:58:25.65	98.55	19.21	-58.6	-74.7	3.8	1.49e+00	0	29	104	68157440	82	24139
2026-01-04 07:58:26.66	98.43	19.32	-58.6	-74.7	3.8	1.49e+00	0	29	104	68157440	82	24182
2026-01-04 07:58:27.67	98.30	19.44	-58.6	-74.7	3.8	1.49e+00	0	29	104	68157440	82	24172
2026-01-04 07:58:28.68	98.18	19.55	-58.6	-74.6	3.8	1.49e+00	0	29	104	68157440	82	24098
2026-01-04 07:58:29.69	98.05	19.66	-58.6	-74.7	3.8	1.49e+00	0	29	104	68157440	82	24151
2026-01-04 07:58:30.70	97.92	19.77	-58.6	-74.7	3.8	1.49e+00	0	29	104	68157440	82	24165
2026-01-04 07:58:31.70	97.79	19.88	-58.6	-74.7	3.8	1.49e+00	0	29	104	68157440	82	24174
2026-01-04 07:58:32.71	97.66	19.99	-58.6	-74.6	3.8	1.49e+00	0	29	104	68157440	82	24128
2026-01-04 07:58:33.72	97.53	20.11	-58.6	-74.7	3.8	1.49e+00	0	29	104	68157440	82	24218
2026-01-04 07:58:34.73	97.39	20.22	-58.6	-74.6	3.8	1.49e+00	0	29	104	68157440	82	24129
2026-01-04 07:58:35.74	97.26	20.33	-58.6	-74.7	3.8	1.49e+00	0	29	104	68157440	82	24151
2026-01-04 07:58:36.75	97.12	20.45	-58.6	-74.7	3.8	1.49e+00	0	29	104	68157440	82	24191
2026-01-04 07:58:37.76	96.99	20.56	-58.6	-74.7	3.8	1.49e+00	0	29	104	68157440	82	24198
2026-01-04 07:58:38.77	96.85	20.68	-58.6	-74.6	3.8	1.49e+00	0	29	104	68157440	82	24121
2026-01-04 07:58:39.78	96.71	20.79	-58.6	-74.7	3.8	1.49e+00	0	29	104	68157440	82	24190
2026-01-04 07:58:40.79	96.57	20.91	-58.6	-74.7	3.8	1.49e+00	0	29	104	68157440	82	24158
2026-01-04 07:58:41.80	96.43	21.02	-58.6	-74.7	3.8	1.49e+00	0	29	104	68157440	82	24182
2026-01-04 07:58:42.81	96.29	21.14	-58.6	-74.6	3.8	1.49e+00	0	29	104	68157440	82	24130
2026-01-04 07:58:43.82	96.15	21.26	-58.6	-74.7	3.8	1.49e+00	0	29	104	68157440	82	24143
2026-01-04 07:58:44.83	96.00	21.37	-58.6	-74.7	3.8	1.49e+00	0	29	104	68157440	82	24153
2026-01-04 07:58:45.84	95.86	21.49	-58.6	-74.7	3.8	1.49e+00	0	29	104	68157440	82	24220
2026-01-04 07:58:46.84	95.71	21.61	-58.6	-74.7	3.8	1.49e+00	0	29	104	68157440	82	24158
2026-01-04 07:58:47.85	95.57	21.73	-58.6	-74.7	3.8	1.49e+00	0	29	104	68157440	82	24176
2026-01-04 07:58:48.86	95.42	21.84	-58.6	-74.7	3.8	1.49e+00	0	29	104	68157440	82	24169
2026-01-04 07:58:49.87	95.27	21.96	-58.6	-74.7	3.8	1.49e+00	0	29	104	68157440	82	24136
2026-01-04 07:58:50.88	95.12	22.08	-58.6	-74.7	3.8	1.49e+00	0	29	104	68157440	82	24182
2026-01-04 07:58:51.88	94.97	22.20	-58.6	-74.7	3.8	1.49e+00	0	29	104	68157440	82	24198
2026-01-04 07:58:52.89	94.82	22.32	-58.6	-74.7	3.8	1.49e+00	0	29	104	68157440	82	24260
2026-01-04 07:58:53.90	94.66	22.44	-58.6	-74.7	3.8	1.49e+00	0	29	104	68157440	82	24150
2026-01-04 07:58:54.91	94.51	22.56	-58.6	-74.7	3.8	1.49e+00	0	28	104	68157440	82	24164
2026-01-04 07:58:55.92	94.35	22.68	-58.6	-74.7	3.8	1.49e+00	0	29	104	68157440	82	24151
2026-01-04 07:58:56.93	94.19	22.80	-58.6	-74.7	3.8	1.49e+00	0	29	104	68157440	82	24230
2026-01-04 07:58:57.94	94.03	22.92	-58.7	-74.7	3.8	1.49e+00	0	29	104	68157440	82	24182
2026-01-04 07:58:58.95	93.87	23.04	-58.7	-74.7	3.8	1.49e+00	0	29	104	68157440	82	24231
2026-01-04 07:58:59.96	93.71	23.17	-58.7	-74.7	3.8	1.49e+00	0	29	104	68157440	82	24189
2026-01-04 07:59:00.96	93.55	23.29	-58.6	-74.7	3.8	1.49e+00	0	29	104	68157440	82	24204
2026-01-04 07:59:01.97	93.38	23.41	-58.6	-74.7	3.8	1.49e+00	0	29	104	68157440	82	24169
2026-01-04 07:59:02.97	93.22	23.53	-58.6	-74.7	3.8	1.49e+00	0	29	104	68157440	82	24174
2026-01-04 07:59:03.98	93.05	23.65	-58.6	-74.7	3.8	1.49e+00	0	29	104	68157440	82	24144
2026-01-04 07:59:04.99	92.89	23.78	-58.6	-74.6	3.8	1.49e+00	0	29	104	68157440	82	24128
2026-01-04 07:59:06.00	92.72	23.90	-58.6	-74.7	3.8	1.49e+00	0	29	104	68157440	82	24158
2026-01-04 07:59:07.01	92.55	24.03	-58.6	-74.6	3.8	1.49e+00	0	29	104	68157440	82	24128
2026-01-04 07:59:08.02	92.37	24.15	-58.6	-74.7	3.8	1.49e+00	0	29	104	68157440	82	24177
2026-01-04 07:59:09.03	92.20	24.28	-58.6	-74.7	3.8	1.49e+00	0	29	104	68157440	82	24161
2026-01-04 07:59:10.04	92.02	24.40	-58.6	-74.7	3.8	1.49e+00	0	29	104	68157440	82	24179
2026-01-04 07:59:11.05	91.85	24.53	-58.6	-74.7	3.8	1.49e+00	0	29	104	68157440	82	24175
2026-01-04 07:59:12.06	91.67	24.65	-58.6	-74.7	3.8	1.49e+00	0	29	104	68157440	82	24181
2026-01-04 07:59:13.07	91.49	24.78	-58.6	-74.7	3.8	1.49e+00	0	29	104	68157440	82	24178
2026-01-04 07:59:14.08	91.31	24.90	-58.6	-74.6	3.8	1.49e+00	0	29	104	68157440	82	24107
2026-01-04 07:59:15.09	91.13	25.03	-58.6	-74.7	3.8	1.49e+00	0	29	104	68157440	82	24169
2026-01-04 07:59:16.10	90.94	25.16	-58.6	-74.7	3.8	1.49e+00	0	29	104	68157440	82	24243
2026-01-04 07:59:17.11	90.76	25.28	-58.6	-74.7	3.8	1.49e+00	0	29	104	68157440	82	24153
2026-01-04 07:59:18.12	90.57	25.41	-58.6	-74.6	3.8	1.49e+00	0	29	104	68157440	82	24117
2026-01-04 07:59:19.13	90.38	25.54	-58.6	-74.7	3.8	1.49e+00	0	29	104	68157440	82	24180
2026-01-04 07:59:20.14	90.19	25.67	-58.6	-74.7	3.8	1.49e+00	0	29	104	68157440	82	24141
2026-01-04 07:59:21.15	90.00	25.80	-58.6	-74.7	3.8	1.49e+00	0	29	104	68157440	82	24163
2026-01-04 07:59:22.16	89.81	25.92	-58.6	-74.6	3.9	1.49e+00	0	29	104	68157440	82	24127
2026-01-04 07:59:23.16	89.62	26.05	-58.6	-74.7	3.8	1.49e+00	0	29	104	68157440	82	24207
2026-01-04 07:59:24.17	89.42	26.18	-58.6	-74.7	3.8	1.49e+00	0	29	104	68157440	82	24220
2026-01-04 07:59:25.19	89.22	26.31	-58.6	-74.7	3.8	1.49e+00	0	29	104	68157440	82	24152
2026-01-04 07:59:26.19	89.02	26.44	-58.6	-74.7	3.9	1.49e+00	0	29	104	68157440	82	24201
2026-01-04 07:59:27.19	88.82	26.57	-58.6	-74.7	3.8	1.49e+00	0	29	104	68157440	82	24147
2026-01-04 07:59:28.20	88.62	26.70	-58.6	-74.6	3.8	1.49e+00	0	29	104	68157440	82	24130
2026-01-04 07:59:29.21	88.42	26.83	-58.6	-74.7	3.8	1.49e+00	0	29	104	68157440	82	24184
2026-01-04 07:59:30.22	88.21	26.96	-58.6	-74.7	3.8	1.49e+00	0	29	104	68157440	82	24137
2026-01-04 07:59:31.23	88.00	27.09	-58.6	-74.7	3.8	1.49e+00	0	29	104	68157440	82	24158
2026-01-04 07:59:32.23	87.79	27.22	-58.6	-74.7	3.8	1.49e+00	0	29	104	68157440	82	24180
2026-01-04 07:59:33.24	87.58	27.35	-58.6	-74.7	3.8	1.49e+00	0	29	104	68157440	82	24168
2026-01-04 07:59:34.25	87.37	27.48	-58.6	-74.6	3.8	1.49e+00	0	29	104	68157440	82	24127
2026-01-04 07:59:35.26	87.15	27.61	-58.6	-74.7	3.8	1.49e+00	0	29	104	68157440	82	24167
2026-01-04 07:59:36.27	86.94	27.74	-58.6	-74.6	3.8	1.49e+00	0	29	104	68157440	82	24096
2026-01-04 07:59:37.27	86.72	27.87	-58.6	-74.7	3.8	1.49e+00	0	29	104	68157440	82	24165
2026-01-04 07:59:38.29	86.50	28.01	-58.6	-74.6	3.8	1.49e+00	0	29	104	68157440	82	24125
2026-01-04 07:59:39.29	86.28	28.14	-58.6	-74.6	3.8	1.49e+00	0	29	104	68157440	82	24108
2026-01-04 07:59:40.30	86.06	28.27	-58.6	-74.6	3.8	1.49e+00	0	29	104	68157440	82	24049
2026-01-04 07:59:41.32	85.83	28.40	-58.6	-74.7	3.8	1.49e+00	0	29	104	68157440	82	24140
2026-01-04 07:59:42.33	85.60	28.53	-58.6	-74.6	3.8	1.49e+00	0	29	104	68157440	82	24102
2026-01-04 07:59:43.33	85.37	28.67	-58.6	-74.6	3.8	1.49e+00	0	29	104	68157440	82	24098
2026-01-04 07:59:44.34	85.14	28.80	-58.6	-74.6	3.8	1.49e+00	0	29	104	68157440	82	24115
2026-01-04 07:59:45.34	84.91	28.93	-58.6	-74.6	3.8	1.49e+00	0	29	104	68157440	82	24083
2026-01-04 07:59:46.35	84.67	29.06	-58.6	-74.7	3.9	1.49e+00	0	29	104	68157440	82	24168
2026-01-04 07:59:47.36	84.44	29.20	-58.6	-74.6	3.8	1.49e+00	0	29	104	68157440	82	24095
2026-01-04 07:59:48.37	84.20	29.33	-58.6	-74.6	3.8	1.49e+00	0	29	104	68157440	82	24110
2026-01-04 07:59:49.38	83.96	29.46	-58.6	-74.6	3.8	1.49e+00	0	29	104	68157440	82	24127
2026-01-04 07:59:50.39	83.71	29.59	-58.6	-74.7	3.8	1.49e+00	0	29	104	68157440	82	24133
2026-01-04 07:59:51.40	83.47	29.73	-58.6	-74.7	3.8	1.49e+00	0	29	104	68157440	82	24170
2026-01-04 07:59:52.41	83.22	29.86	-58.6	-74.6	3.8	1.49e+00	0	29	104	68157440	82	24060
2026-01-04 07:59:53.42	82.97	29.99	-58.6	-74.6	3.8	1.49e+00	0	29	104	68157440	82	24009
2026-01-04 07:59:54.43	82.72	30.13	-58.6	-74.6	3.8	1.49e+00	0	29	104	68157440	82	24124
2026-01-04 07:59:55.43	82.47	30.26	-58.6	-74.7	3.8	1.49e+00	0	29	104	68157440	82	24158
2026-01-04 07:59:56.44	82.21	30.39	-58.6	-74.7	3.8	1.49e+00	0	29	104	68157440	82	24181
2026-01-04 07:59:57.45	81.95	30.52	-58.6	-74.7	3.8	1.49e+00	0	29	104	68157440	82	24149
2026-01-04 07:59:58.46	81.69	30.66	-58.6	-74.7	3.8	1.49e+00	0	29	104	68157440	82	24216
2026-01-04 07:59:59.47	81.43	30.79	-58.6	-74.7	3.8	1.49e+00	0	29	104	68157440	82	24264
2026-01-04 08:00:00.48	81.17	30.92	-58.6	-74.7	3.8	1.49e+00	0	29	104	68157440	82	24173
2026-01-04 08:00:01.49	80.90	31.06	-58.6	-74.7	3.8	1.49e+00	0	29	104	68157440	82	24187
2026-01-04 08:00:02.49	80.63	31.19	-58.6	-74.7	3.8	1.49e+00	0	29	104	68157440	82	24191
2026-01-04 08:00:03.50	80.36	31.32	-58.6	-74.7	3.8	1.49e+00	0	29	104	68157440	82	24205
2026-01-04 08:00:04.49	80.09	31.45	-58.6	-74.7	3.8	1.49e+00	0	29	104	68157440	82	24216
2026-01-04 08:00:05.50	79.82	31.58	-58.6	-74.7	3.8	1.49e+00	0	29	104	68157440	82	24171
2026-01-04 08:00:06.51	79.54	31.71	-58.6	-74.7	3.8	1.49e+00	0	29	104	68157440	82	24194
2026-01-04 08:00:07.52	79.26	31.84	-58.6	-74.7	3.8	1.49e+00	0	29	104	68157440	82	24151
2026-01-04 08:00:08.53	78.98	31.98	-58.6	-74.6	3.8	1.49e+00	0	29	104	68157440	82	24126
2026-01-04 08:00:09.54	78.69	32.11	-58.6	-74.7	3.8	1.49e+00	0	29	104	68157440	82	24169
2026-01-04 08:00:10.55	78.41	32.24	-58.6	-74.6	3.8	1.49e+00	0	29	104	68157440	82	24106
2026-01-04 08:00:11.56	78.12	32.37	-58.6	-74.7	3.8	1.49e+00	0	29	104	68157440	82	24161
2026-01-04 08:00:12.57	77.82	32.50	-58.6	-74.7	3.8	1.49e+00	0	29	104	68157440	82	24140
2026-01-04 08:00:13.58	77.53	32.63	-58.6	-74.7	3.8	1.49e+00	0	29	104	68157440	82	24191
2026-01-04 08:00:14.59	77.23	32.76	-58.6	-74.6	3.8	1.49e+00	0	29	104	68157440	82	24098
2026-01-04 08:00:15.60	76.93	32.89	-58.6	-74.6	3.8	1.49e+00	0	29	104	68157440	82	24116
2026-01-04 08:00:16.61	76.63	33.02	-58.6	-74.6	3.8	1.49e+00	0	29	104	68157440	82	24086
2026-01-04 08:00:17.62	76.33	33.15	-58.6	-74.7	3.8	1.49e+00	0	29	104	68157440	82	24146
2026-01-04 08:00:18.62	76.03	33.28	-58.6	-74.6	3.8	1.49e+00	0	29	104	68157440	82	24120
2026-01-04 08:00:19.63	75.72	33.40	-58.6	-74.7	3.8	1.49e+00	0	29	104	68157440	82	24147
2026-01-04 08:00:20.64	75.41	33.53	-58.6	-74.7	3.8	1.49e+00	0	29	104	68157440	82	24154
2026-01-04 08:00:21.65	75.09	33.66	-58.6	-74.7	3.8	1.49e+00	0	29	104	68157440	82	24181
2026-01-04 08:00:22.66	74.78	33.79	-58.6	-74.7	3.8	1.49e+00	0	29	104	68157440	82	24158
2026-01-04 08:00:23.67	74.46	33.91	-58.6	-74.7	3.8	1.49e+00	0	29	104	68157440	82	24192
2026-01-04 08:00:24.68	74.14	34.04	-58.6	-74.6	3.8	1.49e+00	0	29	104	68157440	82	24129
2026-01-04 08:00:25.69	73.81	34.16	-58.6	-74.7	3.8	1.49e+00	0	29	104	68157440	82	24188
2026-01-04 08:00:26.70	73.49	34.29	-58.6	-74.7	3.8	1.49e+00	0	29	104	68157440	82	24208
2026-01-04 08:00:27.71	73.16	34.41	-58.6	-74.7	3.8	1.49e+00	0	29	104	68157440	82	24199
2026-01-04 08:00:28.72	72.83	34.54	-58.7	-74.7	3.8	1.49e+00	0	29	104	68157440	82	24195
2026-01-04 08:00:29.72	72.50	34.66	-58.7	-74.7	3.8	1.49e+00	0	29	104	68157440	82	24208
2026-01-04 08:00:30.73	72.16	34.78	-58.6	-74.7	3.8	1.49e+00	0	29	104	68157440	82	24145
2026-01-04 08:00:31.74	71.82	34.90	-58.6	-74.7	3.8	1.49e+00	0	29	104	68157440	82	24172
2026-01-04 08:00:32.74	71.49	35.02	-58.6	-74.7	3.8	1.49e+00	0	29	104	68157440	82	24222
2026-01-04 08:00:33.75	71.14	35.14	-58.6	-74.7	3.8	1.49e+00	0	29	104	68157440	82	24172
2026-01-04 08:00:34.76	70.80	35.26	-58.6	-74.7	3.8	1.49e+00	0	29	104	68157440	82	24132
2026-01-04 08:00:35.77	70.45	35.38	-58.6	-74.7	3.8	1.49e+00	0	29	104	68157440	82	24224
2026-01-04 08:00:36.78	70.09	35.50	-58.6	-74.7	3.8	1.49e+00	0	29	104	68157440	82	24140
2026-01-04 08:00:37.79	69.74	35.62	-58.6	-74.7	3.8	1.49e+00	0	29	104	68157440	82	24184
2026-01-04 08:00:38.80	69.38	35.73	-58.6	-74.7	3.8	1.49e+00	0	29	104	68157440	82	24190
2026-01-04 08:00:39.81	69.03	35.85	-58.6	-74.7	3.8	1.49e+00	0	29	104	68157440	82	24170
2026-01-04 08:00:40.82	68.66	35.96	-58.6	-74.7	3.9	1.49e+00	0	29	104	68157440	82	24213
2026-01-04 08:00:41.83	68.30	36.08	-58.6	-74.7	3.8	1.49e+00	0	29	104	68157440	82	24231
2026-01-04 08:00:42.83	67.94	36.19	-58.6	-74.7	3.8	1.49e+00	0	29	104	68157440	82	24211
2026-01-04 08:00:43.85	67.56	36.30	-58.6	-74.7	3.8	1.49e+00	0	29	104	68157440	82	24226
2026-01-04 08:00:44.86	67.19	36.41	-58.6	-74.7	3.8	1.49e+00	0	29	104	68157440	82	24187
2026-01-04 08:00:45.86	66.82	36.52	-58.6	-74.7	3.8	1.49e+00	0	29	104	68157440	82	24179
2026-01-04 08:00:46.87	66.44	36.63	-58.6	-74.7	3.8	1.49e+00	0	29	104	68157440	82	24133
2026-01-04 08:00:47.88	66.06	36.74	-58.6	-74.7	3.8	1.49e+00	0	29	104	68157440	82	24204
2026-01-04 08:00:48.89	65.68	36.85	-58.6	-74.7	3.8	1.49e+00	0	29	104	68157440	82	24254
2026-01-04 08:00:49.90	65.30	36.95	-58.6	-74.7	3.8	1.49e+00	0	29	104	68157440	82	24163
2026-01-04 08:00:50.91	64.91	37.06	-58.6	-74.7	3.8	1.49e+00	0	29	104	68157440	82	24204
2026-01-04 08:00:51.92	64.52	37.16	-58.6	-74.7	3.8	1.49e+00	0	29	104	68157440	82	24200
2026-01-04 08:00:52.92	64.13	37.26	-58.6	-74.7	3.8	1.49e+00	0	29	104	68157440	82	24149
2026-01-04 08:00:53.94	63.74	37.36	-58.6	-74.7	3.8	1.49e+00	0	29	104	68157440	82	24149
2026-01-04 08:00:54.94	63.34	37.46	-58.6	-74.7	3.8	1.49e+00	0	29	104	68157440	82	24200
2026-01-04 08:00:55.96	62.94	37.56	-58.6	-74.7	3.8	1.49e+00	0	29	104	68157440	82	24242
2026-01-04 08:00:56.96	62.54	37.66	-58.6	-74.7	3.8	1.49e+00	0	29	104	68157440	82	24242
2026-01-04 08:00:57.97	62.14	37.75	-58.6	-74.7	3.8	1.49e+00	0	29	104	68157440	82	24180
2026-01-04 08:00:58.98	61.73	37.85	-58.6	-74.7	3.8	1.49e+00	0	29	104	68157440	82	24175
2026-01-04 08:00:59.99	61.32	37.94	-58.6	-74.6	3.8	1.49e+00	0	29	104	68157440	82	24116
2026-01-04 08:01:01.00	60.91	38.03	-58.6	-74.7	3.8	1.49e+00	0	29	104	68157440	82	24197
2026-01-04 08:01:02.00	60.50	38.12	-58.6	-74.7	3.8	1.49e+00	0	29	104	68157440	82	24161
2026-01-04 08:01:03.01	60.09	38.21	-58.6	-74.7	3.8	1.49e+00	0	29	104	68157440	82	24232
2026-01-04 08:01:04.02	59.67	38.30	-58.6	-74.6	3.8	1.49e+00	0	29	104	68157440	82	24121
2026-01-04 08:01:05.02	59.25	38.38	-58.6	-74.7	3.8	1.49e+00	0	29	104	68157440	82	24137
2026-01-04 08:01:06.03	58.83	38.46	-58.6	-74.7	3.8	1.49e+00	0	29	104	68157440	82	24171
2026-01-04 08:01:07.04	58.41	38.55	-58.6	-74.7	3.8	1.49e+00	0	29	104	68157440	82	24183
2026-01-04 08:01:08.05	57.98	38.63	-58.6	-74.7	3.8	1.49e+00	0	29	104	68157440	82	24186
2026-01-04 08:01:09.06	57.55	38.71	-58.6	-74.6	3.8	1.49e+00	0	29	104	68157440	82	24115
2026-01-04 08:01:10.07	57.12	38.78	-58.6	-74.7	3.8	1.49e+00	0	29	104	68157440	82	24146
2026-01-04 08:01:11.08	56.69	38.86	-58.6	-74.7	3.8	1.49e+00	0	29	104	68157440	82	24181
2026-01-04 08:01:12.09	56.25	38.93	-58.6	-74.7	3.8	1.49e+00	0	29	104	68157440	82	24167
2026-01-04 08:01:13.10	55.82	39.01	-58.6	-74.7	3.8	1.49e+00	0	29	104	68157440	82	24202
2026-01-04 08:01:14.11	55.38	39.08	-58.6	-74.7	3.8	1.49e+00	0	29	104	68157440	82	24195
2026-01-04 08:01:15.12	54.94	39.15	-58.6	-74.7	3.8	1.49e+00	0	29	104	68157440	82	24173
2026-01-04 08:01:16.13	54.50	39.21	-58.6	-74.7	3.8	1.49e+00	0	29	104	68157440	82	24138
2026-01-04 08:01:17.14	54.05	39.28	-58.6	-74.7	3.8	1.49e+00	0	29	104	68157440	82	24205
2026-01-04 08:01:18.14	53.61	39.34	-58.6	-74.7	3.8	1.49e+00	0	29	104	68157440	82	24196
2026-01-04 08:01:19.15	53.16	39.40	-58.6	-74.7	3.8	1.49e+00	0	29	104	68157440	82	24211
2026-01-04 08:01:20.16	52.71	39.46	-58.6	-74.7	3.8	1.49e+00	0	29	104	68157440	82	24229
2026-01-04 08:01:21.17	52.26	39.52	-58.6	-74.7	3.8	1.49e+00	0	29	104	68157440	82	24138
2026-01-04 08:01:22.18	51.81	39.58	-58.6	-74.7	3.8	1.49e+00	0	29	104	68157440	82	24242
2026-01-04 08:01:23.19	51.36	39.63	-58.6	-74.7	3.8	1.49e+00	0	29	104	68157440	82	24199
2026-01-04 08:01:24.20	50.90	39.68	-58.6	-74.7	3.8	1.49e+00	0	29	104	68157440	82	24152
2026-01-04 08:01:25.21	50.44	39.73	-58.7	-74.7	3.8	1.49e+00	0	29	104	68157440	82	24209
2026-01-04 08:01:26.22	49.98	39.78	-58.6	-74.7	3.8	1.49e+00	0	29	104	68157440	82	24199
2026-01-04 08:01:27.22	49.53	39.82	-58.6	-74.7	3.8	1.49e+00	0	29	104	68157440	82	24191
2026-01-04 08:01:28.23	49.07	39.87	-58.7	-74.7	3.8	1.49e+00	0	29	104	68157440	82	24186
2026-01-04 08:01:29.24	48.61	39.91	-58.7	-74.7	3.8	1.49e+00	0	29	104	68157440	82	24204
2026-01-04 08:01:30.25	48.14	39.95	-58.6	-74.7	3.8	1.49e+00	0	29	104	68157440	82	24192
2026-01-04 08:01:31.26	47.68	39.99	-58.6	-74.7	3.8	1.49e+00	0	29	104	68157440	82	24207
2026-01-04 08:01:32.26	47.22	40.02	-58.6	-74.7	3.8	1.49e+00	0	29	104	68157440	82	24195
2026-01-04 08:01:33.27	46.75	40.06	-58.6	-74.7	3.8	1.49e+00	0	29	104	68157440	82	24183
2026-01-04 08:01:34.27	46.29	40.09	-58.6	-74.7	3.8	1.49e+00	0	29	104	68157440	82	24209
2026-01-04 08:01:35.29	45.82	40.12	-58.6	-74.7	3.8	1.49e+00	0	29	104	68157440	82	24229
2026-01-04 08:01:36.30	45.35	40.14	-58.6	-74.6	3.8	1.49e+00	0	29	104	68157440	82	24098
2026-01-04 08:01:37.30	44.88	40.17	-58.6	-74.7	3.8	1.49e+00	0	29	104	68157440	82	24189
2026-01-04 08:01:38.31	44.41	40.19	-58.6	-74.7	3.8	1.49e+00	0	29	104	68157440	82	24184
2026-01-04 08:01:39.32	43.94	40.21	-58.6	-74.7	3.8	1.49e+00	0	29	104	68157440	82	24148
2026-01-04 08:01:40.33	43.47	40.23	-58.6	-74.7	3.8	1.49e+00	0	29	104	68157440	82	24215
2026-01-04 08:01:41.34	43.00	40.24	-58.6	-74.7	3.8	1.49e+00	0	29	104	68157440	82	24157
2026-01-04 08:01:42.34	42.53	40.26	-58.6	-74.7	3.8	1.49e+00	0	29	104	68157440	82	24168
2026-01-04 08:01:43.35	42.06	40.27	-58.6	-74.7	3.8	1.49e+00	0	29	104	68157440	82	24178
2026-01-04 08:01:44.36	41.58	40.28	-58.6	-74.7	3.8	1.49e+00	0	29	104	68157440	82	24163
2026-01-04 08:01:45.37	41.11	40.29	-58.6	-74.7	3.8	1.49e+00	0	29	104	68157440	82	24142
2026-01-04 08:01:46.37	40.64	40.29	-58.6	-74.6	3.8	1.49e+00	0	29	104	68157440	82	24120
2026-01-04 08:01:47.38	40.17	40.29	-58.6	-74.7	3.8	1.49e+00	0	29	104	68157440	82	24159
2026-01-04 08:01:48.39	39.69	40.29	-58.6	-74.7	3.8	1.49e+00	0	29	104	68157440	82	24138
2026-01-04 08:01:49.40	39.22	40.29	-58.6	-74.6	3.8	1.49e+00	0	29	104	68157440	82	24120
2026-01-04 08:01:50.41	38.75	40.29	-58.6	-74.7	3.8	1.49e+00	0	29	104	68157440	82	24139
2026-01-04 08:01:51.41	38.28	40.28	-58.6	-74.7	3.8	1.49e+00	0	29	104	68157440	82	24172
2026-01-04 08:01:52.42	37.80	40.27	-58.6	-74.7	3.8	1.49e+00	0	29	104	68157440	82	24162
2026-01-04 08:01:53.43	37.33	40.26	-58.6	-74.7	3.8	1.49e+00	0	29	104	68157440	82	24165
2026-01-04 08:01:54.43	36.86	40.25	-58.6	-74.7	3.8	1.49e+00	0	29	104	68157440	82	24228
2026-01-04 08:01:55.44	36.39	40.24	-58.6	-74.7	3.8	1.49e+00	0	29	104	68157440	82	24205
2026-01-04 08:01:56.45	35.92	40.22	-58.6	-74.7	3.8	1.49e+00	0	29	104	68157440	82	24214
2026-01-04 08:01:57.46	35.45	40.20	-58.6	-74.7	3.8	1.49e+00	0	29	104	68157440	82	24153
2026-01-04 08:01:58.46	34.98	40.18	-58.6	-74.7	3.8	1.49e+00	0	29	104	68157440	82	24143
2026-01-04 08:01:59.47	34.51	40.15	-58.6	-74.6	3.8	1.49e+00	0	29	104	68157440	82	24124
2026-01-04 08:02:00.48	34.04	40.13	-58.6	-74.6	3.8	1.49e+00	0	29	104	68157440	82	24130
2026-01-04 08:02:01.49	33.57	40.10	-58.6	-74.7	3.8	1.49e+00	0	29	104	68157440	82	24142
2026-01-04 08:02:02.50	33.11	40.07	-58.6	-74.6	3.8	1.49e+00	0	29	104	68157440	82	24116
2026-01-04 08:02:03.51	32.64	40.04	-58.6	-74.6	3.8	1.49e+00	0	29	104	68157440	82	24105
2026-01-04 08:02:04.52	32.17	40.00	-58.6	-74.6	3.8	1.49e+00	0	29	104	68157440	82	24083
2026-01-04 08:02:05.52	31.71	39.97	-58.6	-74.7	3.8	1.49e+00	0	29	104	68157440	82	24148
2026-01-04 08:02:06.50	31.26	39.93	-58.6	-74.7	3.8	1.49e+00	0	29	104	68157440	82	24191
2026-01-04 08:02:07.51	30.80	39.89	-58.6	-74.6	3.8	1.49e+00	0	29	104	68157440	82	24121
2026-01-04 08:02:08.52	30.34	39.85	-58.6	-74.7	3.8	1.49e+00	0	29	104	68157440	82	24160
2026-01-04 08:02:09.53	29.88	39.80	-58.6	-74.7	3.8	1.49e+00	0	29	104	68157440	82	24180
2026-01-04 08:02:10.54	29.42	39.75	-58.6	-74.7	3.8	1.49e+00	0	29	104	68157440	82	24137
2026-01-04 08:02:11.55	28.97	39.70	-58.6	-74.7	3.8	1.49e+00	0	29	104	68157440	82	24148
2026-01-04 08:02:12.56	28.51	39.65	-58.6	-74.7	3.8	1.49e+00	0	29	104	68157440	82	24180
2026-01-04 08:02:13.56	28.06	39.60	-58.6	-74.6	3.8	1.49e+00	0	29	104	68157440	82	24123
2026-01-04 08:02:14.57	27.61	39.55	-58.6	-74.6	3.8	1.49e+00	0	29	104	68157440	82	24118
2026-01-04 08:02:15.58	27.16	39.49	-58.6	-74.6	3.8	1.49e+00	0	29	104	68157440	82	24130
2026-01-04 08:02:16.59	26.71	39.43	-58.6	-74.7	3.8	1.49e+00	0	29	104	68157440	82	24182
2026-01-04 08:02:17.60	26.26	39.37	-58.6	-74.6	3.8	1.49e+00	0	29	104	68157440	82	24073
2026-01-04 08:02:18.61	25.81	39.31	-58.6	-74.7	3.8	1.49e+00	0	29	104	68157440	82	24172
2026-01-04 08:02:19.62	25.37	39.24	-58.6	-74.7	3.8	1.49e+00	0	29	104	68157440	82	24146
2026-01-04 08:02:20.63	24.92	39.18	-58.6	-74.7	3.8	1.49e+00	0	29	104	68157440	82	24131
2026-01-04 08:02:21.64	24.48	39.11	-58.6	-74.7	3.8	1.49e+00	0	29	104	68157440	82	24178
2026-01-04 08:02:22.65	24.04	39.04	-58.6	-74.7	3.8	1.49e+00	0	29	104	68157440	82	24155
2026-01-04 08:02:23.66	23.61	38.97	-58.6	-74.6	3.8	1.49e+00	0	29	104	68157440	82	24116
2026-01-04 08:02:24.67	23.17	38.90	-58.6	-74.7	3.8	1.49e+00	0	29	104	68157440	82	24186
2026-01-04 08:02:25.68	22.74	38.82	-58.6	-74.7	3.8	1.49e+00	0	29	104	68157440	82	24173
2026-01-04 08:02:26.69	22.31	38.74	-58.6	-74.6	3.8	1.49e+00	0	29	104	68157440	82	24110
2026-01-04 08:02:27.69	21.88	38.67	-58.6	-74.7	3.8	1.49e+00	0	29	104	68157440	82	24158
2026-01-04 08:02:28.70	21.45	38.59	-58.6	-74.7	3.8	1.49e+00	0	29	104	68157440	82	24164
2026-01-04 08:02:29.71	21.03	38.50	-58.6	-74.6	3.8	1.49e+00	0	29	104	68157440	82	24112
2026-01-04 08:02:30.72	20.61	38.42	-58.6	-74.7	3.8	1.49e+00	0	29	104	68157440	82	24138
2026-01-04 08:02:31.73	20.19	38.34	-58.6	-74.7	3.8	1.49e+00	0	29	104	68157440	82	24171
2026-01-04 08:02:32.74	19.77	38.25	-58.6	-74.7	3.8	1.49e+00	0	29	104	68157440	82	24165
2026-01-04 08:02:33.74	19.36	38.16	-58.6	-74.7	3.8	1.49e+00	0	29	104	68157440	82	24164
2026-01-04 08:02:34.74	18.95	38.07	-58.6	-74.7	3.8	1.49e+00	0	29	104	68157440	82	24191
2026-01-04 08:02:35.75	18.54	37.98	-58.6	-74.7	3.8	1.49e+00	0	29	104	68157440	82	24162
2026-01-04 08:02:36.76	18.13	37.89	-58.6	-74.7	3.8	1.49e+00	0	29	104	68157440	82	24139
2026-01-04 08:02:37.77	17.72	37.80	-58.6	-74.7	3.8	1.49e+00	0	29	104	68157440	82	24154
2026-01-04 08:02:38.78	17.31	37.70	-58.6	-74.7	3.8	1.49e+00	0	29	104	68157440	82	24167
2026-01-04 08:02:39.79	16.91	37.61	-58.6	-74.7	3.8	1.49e+00	0	29	104	68157440	82	24156
2026-01-04 08:02:40.80	16.51	37.51	-58.6	-74.7	3.8	1.49e+00	0	29	104	68157440	82	24162
2026-01-04 08:02:41.81	16.12	37.41	-58.6	-74.7	3.8	1.49e+00	0	29	104	68157440	82	24131
2026-01-04 08:02:42.82	15.72	37.31	-58.6	-74.7	3.8	1.49e+00	0	29	104	68157440	82	24140
2026-01-04 08:02:43.83	15.33	37.21	-58.6	-74.6	3.8	1.49e+00	0	29	104	68157440	82	24114
2026-01-04 08:02:44.84	14.94	37.11	-58.6	-74.7	3.8	1.49e+00	0	29	104	68157440	82	24159
2026-01-04 08:02:45.85	14.55	37.00	-58.6	-74.6	3.8	1.49e+00	0	29	104	68157440	82	24108
2026-01-04 08:02:46.85	14.17	36.90	-58.6	-74.7	3.8	1.49e+00	0	29	104	68157440	82	24144
2026-01-04 08:02:47.87	13.78	36.79	-58.6	-74.7	3.8	1.49e+00	0	29	104	68157440	82	24199
2026-01-04 08:02:48.87	13.41	36.69	-58.6	-74.7	3.8	1.49e+00	0	29	104	68157440	82	24172
2026-01-04 08:02:49.88	13.03	36.58	-58.6	-74.6	3.8	1.49e+00	0	29	104	68157440	82	24109
2026-01-04 08:02:50.89	12.65	36.47	-58.6	-74.7	3.8	1.49e+00	0	29	104	68157440	82	24148
2026-01-04 08:02:51.90	12.28	36.36	-58.6	-74.6	3.8	1.49e+00	0	29	104	68157440	82	24105
2026-01-04 08:02:52.91	11.91	36.25	-58.6	-74.7	3.8	1.49e+00	0	29	104	68157440	82	24157
2026-01-04 08:02:53.92	11.55	36.14	-58.6	-74.7	3.8	1.49e+00	0	29	104	68157440	82	24138
2026-01-04 08:02:54.93	11.18	36.02	-58.6	-74.6	3.8	1.49e+00	0	29	104	68157440	82	24115
2026-01-04 08:02:55.94	10.82	35.91	-58.6	-74.7	3.8	1.49e+00	0	29	104	68157440	82	24178
2026-01-04 08:02:56.95	10.46	35.79	-58.6	-74.6	3.8	1.49e+00	0	29	104	68157440	82	24127
2026-01-04 08:02:57.96	10.10	35.68	-58.6	-74.6	3.8	1.49e+00	0	29	104	68157440	82	24128
2026-01-04 08:02:58.97	9.75	35.56	-58.6	-74.6	3.8	1.49e+00	0	29	104	68157440	82	24125
2026-01-04 08:02:59.98	9.40	35.44	-58.6	-74.6	3.8	1.49e+00	0	29	104	68157440	82	24123
2026-01-04 08:03:00.99	9.05	35.32	-58.6	-74.6	3.8	1.49e+00	0	29	104	68157440	82	24127
2026-01-04 08:03:02.00	8.70	35.21	-58.6	-74.6	3.8	1.49e+00	0	29	104	68157440	82	24127
2026-01-04 08:03:03.01	8.35	35.09	-58.6	-74.6	3.8	1.49e+00	0	29	104	68157440	82	24077
2026-01-04 08:03:04.01	8.02	34.97	-58.6	-74.6	3.8	1.49e+00	0	29	104	68157440	82	24073
2026-01-04 08:03:05.02	7.68	34.85	-58.6	-74.6	3.8	1.49e+00	0	29	104	68157440	82	24102
2026-01-04 08:03:06.02	7.34	34.72	-58.6	-74.6	3.8	1.49e+00	0	29	104	68157440	82	24076
2026-01-04 08:03:07.02	7.01	34.60	-58.6	-74.7	3.8	1.49e+00	0	29	104	68157440	82	24147
2026-01-04 08:03:08.03	6.68	34.48	-58.6	-74.6	3.8	1.49e+00	0	29	104	68157440	82	24089
2026-01-04 08:03:09.03	6.36	34.36	-58.6	-74.6	3.8	1.49e+00	0	29	104	68157440	82	24118
2026-01-04 08:03:10.04	6.03	34.23	-58.6	-74.7	3.8	1.49e+00	0	29	104	68157440	82	24135
2026-01-04 08:03:11.05	5.70	34.11	-58.6	-74.6	3.8	1.49e+00	0	29	104	68157440	82	24092
2026-01-04 08:03:12.06	5.38	33.98	-58.6	-74.6	3.8	1.49e+00	0	29	104	68157440	82	24118
2026-01-04 08:03:13.07	5.06	33.86	-58.6	-74.7	3.8	1.49e+00	0	29	104	68157440	82	24133
2026-01-04 08:03:14.08	4.75	33.73	-58.6	-74.6	3.8	1.49e+00	0	29	104	68157440	82	24082
2026-01-04 08:03:15.09	4.43	33.60	-58.6	-74.6	3.8	1.49e+00	0	29	104	68157440	82	24089
2026-01-04 08:03:16.10	4.12	33.48	-58.6	-74.7	3.8	1.49e+00	0	29	104	68157440	82	24165
2026-01-04 08:03:17.11	3.81	33.35	-58.6	-74.7	3.8	1.49e+00	0	29	104	68157440	82	24136
2026-01-04 08:03:18.12	3.51	33.22	-58.6	-74.7	3.8	1.49e+00	0	29	104	68157440	82	24178
2026-01-04 08:03:19.12	3.20	33.09	-58.6	-74.7	3.8	1.49e+00	0	29	104	68157440	82	24137
2026-01-04 08:03:20.14	2.90	32.96	-58.6	-74.7	3.8	1.49e+00	0	29	104	68157440	82	24147
2026-01-04 08:03:21.14	2.60	32.84	-58.6	-74.7	3.8	1.49e+00	0	29	104	68157440	82	24157
2026-01-04 08:03:22.15	2.31	32.71	-58.6	-74.7	3.8	1.49e+00	0	29	104	68157440	82	24268
2026-01-04 08:03:23.16	2.01	32.58	-58.6	-74.6	3.8	1.49e+00	0	29	104	68157440	82	24117
2026-01-04 08:03:24.17	1.72	32.45	-58.6	-74.6	3.8	1.49e+00	0	29	104	68157440	82	24126
2026-01-04 08:03:25.19	1.43	32.31	-58.6	-74.7	3.8	1.49e+00	0	29	104	68157440	82	24179
2026-01-04 08:03:26.19	1.14	32.18	-58.6	-74.7	3.8	1.49e+00	0	29	104	68157440	82	24161
2026-01-04 08:03:27.20	0.86	32.05	-58.6	-74.7	3.8	1.49e+00	0	29	104	68157440	82	24147
2026-01-04 08:03:28.21	0.57	31.92	-58.6	-74.7	3.8	1.49e+00	0	29	104	68157440	82	24181
2026-01-04 08:03:29.21	0.30	31.79	-58.6	-74.7	3.8	1.49e+00	0	29	104	68157440	82	24135
2026-01-04 08:03:30.23	0.01	31.66	-58.6	-74.7	3.8	1.49e+00	0	29	104	68157440	82	24152
2026-01-04 08:03:31.24	359.74	31.53	-58.6	-74.6	3.8	1.49e+00	0	29	104	68157440	82	24106
2026-01-04 08:03:32.24	359.47	31.40	-58.6	-74.7	3.8	1.49e+00	0	29	104	68157440	82	24159
2026-01-04 08:03:33.25	359.20	31.27	-58.6	-74.7	3.8	1.49e+00	0	29	104	68157440	82	24197
2026-01-04 08:03:34.26	358.93	31.13	-58.6	-74.7	3.8	1.49e+00	0	29	104	68157440	82	24203
2026-01-04 08:03:35.27	358.66	31.00	-58.6	-74.6	3.8	1.49e+00	0	29	104	68157440	82	24102
2026-01-04 08:03:36.28	358.39	30.87	-58.6	-74.6	3.8	1.49e+00	0	29	104	68157440	82	24117
2026-01-04 08:03:37.28	358.13	30.74	-58.6	-74.6	3.8	1.49e+00	0	29	104	68157440	82	24112
2026-01-04 08:03:38.29	357.87	30.60	-58.6	-74.6	3.8	1.49e+00	0	29	104	68157440	82	24123
2026-01-04 08:03:39.31	357.61	30.47	-58.6	-74.6	3.8	1.49e+00	0	29	104	68157440	82	24101
2026-01-04 08:03:40.32	357.36	30.34	-58.6	-74.7	3.8	1.49e+00	0	29	104	68157440	82	24170
2026-01-04 08:03:41.32	357.10	30.21	-58.6	-74.7	3.8	1.49e+00	0	29	104	68157440	82	24172
2026-01-04 08:03:42.33	356.85	30.07	-58.6	-74.6	3.8	1.49e+00	0	29	104	68157440	82	24117
2026-01-04 08:03:43.34	356.60	29.94	-58.6	-74.6	3.8	1.49e+00	0	29	104	68157440	82	24113
2026-01-04 08:03:44.35	356.35	29.81	-58.6	-74.6	3.8	1.49e+00	0	29	104	68157440	82	24098
2026-01-04 08:03:45.36	356.11	29.68	-58.6	-74.6	3.8	1.49e+00	0	29	104	68157440	82	24124
2026-01-04 08:03:46.37	355.86	29.54	-58.6	-74.6	3.8	1.49e+00	0	29	104	68157440	82	24086
2026-01-04 08:03:47.38	355.62	29.41	-58.6	-74.6	3.8	1.49e+00	0	29	104	68157440	82	24091
2026-01-04 08:03:48.39	355.38	29.28	-58.6	-74.6	3.8	1.49e+00	0	29	104	68157440	82	24126
2026-01-04 08:03:49.39	355.15	29.15	-58.6	-74.6	3.8	1.49e+00	0	29	104	68157440	82	24035
2026-01-04 08:03:50.41	354.91	29.01	-58.6	-74.6	3.8	1.49e+00	0	29	104	68157440	82	24071
2026-01-04 08:03:51.41	354.68	28.88	-58.6	-74.7	3.8	1.49e+00	0	29	104	68157440	82	24199
2026-01-04 08:03:52.42	354.45	28.75	-58.6	-74.6	3.8	1.49e+00	0	29	104	68157440	82	24120
2026-01-04 08:03:53.43	354.22	28.62	-58.6	-74.7	3.8	1.49e+00	0	29	104	68157440	82	24155
2026-01-04 08:03:54.44	353.99	28.49	-58.6	-74.7	3.8	1.49e+00	0	29	104	68157440	82	24151
2026-01-04 08:03:55.45	353.76	28.35	-58.6	-74.7	3.8	1.49e+00	0	29	104	68157440	82	24164
2026-01-04 08:03:56.46	353.54	28.22	-58.6	-74.7	3.8	1.49e+00	0	29	104	68157440	82	24142
2026-01-04 08:03:57.47	353.31	28.09	-58.6	-74.7	3.8	1.49e+00	0	29	104	68157440	82	24162
2026-01-04 08:03:58.48	353.09	27.96	-58.6	-74.6	3.8	1.49e+00	0	29	104	68157440	82	24113
2026-01-04 08:03:59.49	352.88	27.83	-58.6	-74.6	3.8	1.49e+00	0	29	104	68157440	82	24102
2026-01-04 08:04:00.50	352.66	27.70	-58.6	-74.6	3.8	1.49e+00	0	29	104	68157440	82	24111
2026-01-04 08:04:01.51	352.44	27.57	-58.6	-74.7	3.8	1.49e+00	0	29	104	68157440	82	24165
2026-01-04 08:04:02.52	352.23	27.43	-58.6	-74.6	3.8	1.49e+00	0	29	104	68157440	82	24107
2026-01-04 08:04:03.52	352.02	27.30	-58.6	-74.6	3.8	1.49e+00	0	29	104	68157440	82	24100
2026-01-04 08:04:04.53	351.81	27.17	-58.6	-74.6	3.8	1.49e+00	0	29	104	68157440	82	24119
2026-01-04 08:04:05.54	351.60	27.04	-58.6	-74.7	3.8	1.49e+00	0	29	104	68157440	82	24154
2026-01-04 08:04:06.54	351.40	26.92	-58.6	-74.7	3.8	1.49e+00	0	29	104	68157440	82	24230
2026-01-04 08:04:07.55	351.19	26.79	-58.6	-74.7	3.8	1.49e+00	0	29	104	68157440	82	24160
2026-01-04 08:04:08.56	350.99	26.66	-58.6	-74.6	3.8	1.49e+00	0	29	104	68157440	82	24128
2026-01-04 08:04:09.57	350.79	26.53	-58.6	-74.6	3.8	1.49e+00	0	29	104	68157440	82	24052
2026-01-04 08:04:10.58	350.59	26.40	-58.6	-74.6	3.8	1.49e+00	0	29	104	68157440	82	24044
2026-01-04 08:04:11.58	350.39	26.27	-58.6	-74.7	3.8	1.49e+00	0	29	104	68157440	82	24153
2026-01-04 08:04:12.59	350.20	26.14	-58.6	-74.6	3.8	1.49e+00	0	29	104	68157440	82	24111
2026-01-04 08:04:13.60	350.00	26.01	-58.6	-74.7	3.8	1.49e+00	0	29	104	68157440	82	24143
2026-01-04 08:04:14.61	349.81	25.88	-58.6	-74.7	3.8	1.49e+00	0	29	104	68157440	82	24185
2026-01-04 08:04:15.62	349.62	25.76	-58.6	-74.7	3.8	1.49e+00	0	29	104	68157440	82	24143
2026-01-04 08:04:16.63	349.43	25.63	-58.6	-74.7	3.8	1.49e+00	0	29	104	68157440	82	24174
2026-01-04 08:04:17.63	349.24	25.50	-58.6	-74.6	3.8	1.49e+00	0	29	104	68157440	82	24075
2026-01-04 08:04:18.64	349.05	25.37	-58.6	-74.6	3.8	1.49e+00	0	29	104	68157440	82	24102
2026-01-04 08:04:19.65	348.87	25.25	-58.6	-74.6	3.8	1.49e+00	0	29	104	68157440	82	24088
2026-01-04 08:04:20.66	348.68	25.12	-58.6	-74.7	3.8	1.49e+00	0	29	104	68157440	82	24162
2026-01-04 08:04:21.67	348.50	24.99	-58.6	-74.6	3.8	1.49e+00	0	29	104	68157440	82	24098
2026-01-04 08:04:22.68	348.32	24.87	-58.6	-74.7	3.8	1.49e+00	0	29	104	68157440	82	24162
2026-01-04 08:04:23.69	348.14	24.74	-58.6	-74.6	3.8	1.49e+00	0	29	104	68157440	82	24105
2026-01-04 08:04:24.70	347.96	24.62	-58.6	-74.6	3.8	1.49e+00	0	29	104	68157440	82	24054
2026-01-04 08:04:25.71	347.79	24.49	-58.6	-74.6	3.8	1.49e+00	0	29	104	68157440	82	24094
2026-01-04 08:04:26.72	347.61	24.37	-58.6	-74.6	3.8	1.49e+00	0	29	104	68157440	82	24096
2026-01-04 08:04:27.73	347.44	24.24	-58.6	-74.6	3.8	1.49e+00	0	29	104	68157440	82	24098
2026-01-04 08:04:28.74	347.26	24.12	-58.6	-74.6	3.8	1.49e+00	0	29	104	68157440	82	24111
2026-01-04 08:04:29.74	347.10	24.00	-58.6	-74.6	3.8	1.49e+00	0	29	104	68157440	82	24099
2026-01-04 08:04:30.75	346.93	23.87	-58.6	-74.6	3.8	1.49e+00	0	29	104	68157440	82	24106
2026-01-04 08:04:31.76	346.76	23.75	-58.6	-74.6	3.8	1.49e+00	0	29	104	68157440	82	24072
2026-01-04 08:04:32.77	346.59	23.63	-58.6	-74.7	3.8	1.49e+00	0	29	104	68157440	82	24158
2026-01-04 08:04:33.78	346.42	23.50	-58.6	-74.6	3.8	1.49e+00	0	29	104	68157440	82	24091
2026-01-04 08:04:34.78	346.26	23.38	-58.6	-74.6	3.8	1.49e+00	0	29	104	68157440	82	24102
2026-01-04 08:04:35.79	346.10	23.26	-58.6	-74.6	3.8	1.49e+00	0	29	104	68157440	82	24008
2026-01-04 08:04:36.80	345.94	23.14	-58.6	-74.6	3.8	1.49e+00	0	29	104	68157440	82	24110
2026-01-04 08:04:37.81	345.78	23.02	-58.6	-74.6	3.8	1.49e+00	0	29	104	68157440	82	24057
2026-01-04 08:04:38.82	345.62	22.90	-58.6	-74.6	3.8	1.49e+00	0	29	104	68157440	82	24079
2026-01-04 08:04:39.83	345.46	22.77	-58.6	-74.7	3.8	1.49e+00	0	29	104	68157440	82	24157
2026-01-04 08:04:40.83	345.30	22.65	-58.6	-74.6	3.8	1.49e+00	0	29	104	68157440	82	24089
2026-01-04 08:04:41.84	345.15	22.53	-58.6	-74.6	3.8	1.49e+00	0	29	104	68157440	82	24054
2026-01-04 08:04:42.85	344.99	22.41	-58.6	-74.6	3.8	1.49e+00	0	29	104	68157440	82	24053
2026-01-04 08:04:43.86	344.84	22.30	-58.6	-74.7	3.8	1.49e+00	0	29	104	68157440	82	24134
2026-01-04 08:04:44.87	344.69	22.18	-58.6	-74.6	3.8	1.49e+00	0	29	104	68157440	82	24128
2026-01-04 08:04:45.88	344.54	22.06	-58.6	-74.7	3.9	1.49e+00	0	29	104	68157440	82	24142
2026-01-04 08:04:46.89	344.39	21.94	-58.6	-74.7	3.8	1.49e+00	0	29	104	68157440	82	24165
2026-01-04 08:04:47.90	344.24	21.82	-58.6	-74.6	3.8	1.49e+00	0	29	104	68157440	82	24049
2026-01-04 08:04:48.91	344.09	21.70	-58.6	-74.7	3.9	1.49e+00	0	29	104	68157440	82	24154
2026-01-04 08:04:49.92	343.95	21.59	-58.6	-74.6	3.8	1.49e+00	0	29	104	68157440	82	24129
2026-01-04 08:04:50.93	343.80	21.47	-58.6	-74.6	3.8	1.49e+00	0	29	104	68157440	82	24032
2026-01-04 08:04:51.94	343.66	21.35	-58.6	-74.6	3.8	1.49e+00	0	29	104	68157440	82	24039
2026-01-04 08:04:52.95	343.52	21.24	-58.6	-74.6	3.8	1.49e+00	0	29	104	68157440	82	24117
2026-01-04 08:04:53.96	343.38	21.12	-58.6	-74.6	3.8	1.49e+00	0	29	104	68157440	82	24093
2026-01-04 08:04:54.97	343.23	21.00	-58.6	-74.6	3.8	1.49e+00	0	29	104	68157440	82	24064
2026-01-04 08:04:55.98	343.10	20.89	-58.6	-74.6	3.8	1.49e+00	0	29	104	68157440	82	24076
2026-01-04 08:04:56.99	342.96	20.77	-58.6	-74.6	3.8	1.49e+00	0	29	104	68157440	82	24090
2026-01-04 08:04:58.00	342.82	20.66	-58.6	-74.6	3.8	1.49e+00	0	29	104	68157440	82	24107
2026-01-04 08:04:59.01	342.68	20.54	-58.6	-74.7	3.8	1.49e+00	0	29	104	68157440	82	24134
2026-01-04 08:05:00.01	342.55	20.43	-58.6	-74.7	3.8	1.49e+00	0	29	104	68157440	82	24132
2026-01-04 08:05:01.02	342.42	20.32	-58.6	-74.6	3.8	1.49e+00	0	29	104	68157440	82	24086
2026-01-04 08:05:02.03	342.28	20.20	-58.6	-74.7	3.8	1.49e+00	0	29	104	68157440	82	24136
2026-01-04 08:05:03.04	342.15	20.09	-58.6	-74.6	3.8	1.49e+00	0	29	104	68157440	82	24087
2026-01-04 08:05:04.05	342.02	19.98	-58.6	-74.6	3.8	1.49e+00	0	29	104	68157440	82	24062
2026-01-04 08:05:05.05	341.89	19.87	-58.6	-74.6	3.8	1.49e+00	0	29	104	68157440	82	24062
2026-01-04 08:05:06.06	341.76	19.76	-58.6	-74.7	3.8	1.49e+00	0	29	104	68157440	82	24151
2026-01-04 08:05:07.07	341.63	19.64	-58.6	-74.6	3.8	1.49e+00	0	29	104	68157440	82	24107
2026-01-04 08:05:08.07	341.51	19.53	-58.6	-74.6	3.8	1.49e+00	0	29	104	68157440	82	24079
2026-01-04 08:05:09.08	341.38	19.42	-58.6	-74.6	3.8	1.49e+00	0	29	104	68157440	82	24046
2026-01-04 08:05:10.09	341.25	19.31	-58.6	-74.6	3.8	1.49e+00	0	29	104	68157440	82	24056
2026-01-04 08:05:11.10	341.13	19.20	-58.6	-74.6	3.8	1.49e+00	0	29	104	68157440	82	24072
2026-01-04 08:05:12.10	341.01	19.09	-58.6	-74.6	3.8	1.49e+00	0	29	104	68157440	82	24048
2026-01-04 08:05:13.11	340.88	18.98	-58.6	-74.6	3.8	1.49e+00	0	29	104	68157440	82	24017
2026-01-04 08:05:14.12	340.76	18.88	-58.6	-74.6	3.8	1.49e+00	0	29	104	68157440	82	24040
2026-01-04 08:05:15.13	340.64	18.77	-58.6	-74.6	3.8	1.49e+00	0	29	104	68157440	82	24055
2026-01-04 08:05:16.14	340.52	18.66	-58.6	-74.6	3.8	1.49e+00	0	29	104	68157440	82	24101
2026-01-04 08:05:17.15	340.40	18.55	-58.6	-74.6	3.8	1.49e+00	0	29	104	68157440	82	24035
2026-01-04 08:05:18.15	340.29	18.44	-58.6	-74.6	3.8	1.49e+00	0	29	104	68157440	82	24020
2026-01-04 08:05:19.16	340.17	18.34	-58.6	-74.6	3.8	1.49e+00	0	29	104	68157440	82	24006
2026-01-04 08:05:20.17	340.05	18.23	-58.6	-74.6	3.8	1.49e+00	0	29	104	68157440	82	24129
2026-01-04 08:05:21.18	339.94	18.12	-58.6	-74.6	3.8	1.49e+00	0	29	104	68157440	82	24101
2026-01-04 08:05:22.19	339.82	18.02	-58.6	-74.6	3.8	1.49e+00	0	29	104	68157440	82	24056
2026-01-04 08:05:23.19	339.71	17.91	-58.6	-74.6	3.8	1.49e+00	0	29	104	68157440	82	24062
2026-01-04 08:05:24.20	339.59	17.80	-58.6	-74.6	3.8	1.49e+00	0	29	104	68157440	82	24059
2026-01-04 08:05:25.21	339.48	17.70	-58.6	-74.6	3.8	1.49e+00	0	29	104	68157440	82	24042
2026-01-04 08:05:26.22	339.37	17.59	-58.6	-74.6	3.8	1.49e+00	0	29	104	68157440	82	24068
2026-01-04 08:05:27.23	339.26	17.49	-58.6	-74.6	3.8	1.49e+00	0	29	104	68157440	82	24013
2026-01-04 08:05:28.23	339.15	17.39	-58.6	-74.6	3.8	1.49e+00	0	29	104	68157440	82	24064
2026-01-04 08:05:29.24	339.04	17.28	-58.6	-74.6	3.9	1.49e+00	0	29	104	68157440	82	24068
2026-01-04 08:05:30.25	338.93	17.18	-58.6	-74.6	3.8	1.49e+00	0	29	104	68157440	82	24076
2026-01-04 08:05:31.26	338.82	17.07	-58.6	-74.6	3.8	1.49e+00	0	29	104	68157440	82	24072
2026-01-04 08:05:32.27	338.72	16.97	-58.6	-74.6	3.8	1.49e+00	0	29	104	68157440	82	24009
2026-01-04 08:05:33.28	338.61	16.87	-58.6	-74.6	3.8	1.49e+00	0	29	104	68157440	82	24075
2026-01-04 08:05:34.29	338.51	16.77	-58.6	-74.6	3.8	1.49e+00	0	29	104	68157440	82	24089
2026-01-04 08:05:35.29	338.40	16.66	-58.6	-74.6	3.8	1.49e+00	0	29	104	68157440	82	24049
2026-01-04 08:05:36.30	338.30	16.56	-58.6	-74.6	3.8	1.49e+00	0	29	104	68157440	82	24045
2026-01-04 08:05:37.31	338.20	16.46	-58.6	-74.6	3.8	1.49e+00	0	29	104	68157440	82	24042
2026-01-04 08:05:38.32	338.09	16.36	-58.6	-74.6	3.8	1.49e+00	0	29	104	68157440	82	24096
2026-01-04 08:05:39.33	337.99	16.26	-58.6	-74.6	3.8	1.49e+00	0	29	104	68157440	82	24061
2026-01-04 08:05:40.33	337.89	16.16	-58.6	-74.6	3.8	1.49e+00	0	29	104	68157440	82	24039
2026-01-04 08:05:41.34	337.79	16.06	-58.6	-74.6	3.8	1.49e+00	0	29	104	68157440	82	24036
2026-01-04 08:05:42.35	337.69	15.96	-58.6	-74.6	3.8	1.49e+00	0	29	104	68157440	82	24034
2026-01-04 08:05:43.36	337.59	15.86	-58.6	-74.6	3.8	1.49e+00	0	29	104	68157440	82	24052
2026-01-04 08:05:44.37	337.49	15.76	-58.6	-74.6	3.8	1.49e+00	0	29	104	68157440	82	24094
2026-01-04 08:05:45.38	337.40	15.66	-58.6	-74.6	3.8	1.49e+00	0	29	104	68157440	82	24116
2026-01-04 08:05:46.39	337.30	15.56	-58.6	-74.6	3.8	1.49e+00	0	29	104	68157440	82	24036
2026-01-04 08:05:47.40	337.20	15.47	-58.6	-74.6	3.8	1.49e+00	0	29	104	68157440	82	24050
2026-01-04 08:05:48.40	337.11	15.37	-58.6	-74.6	3.8	1.49e+00	0	29	104	68157440	82	24046
2026-01-04 08:05:49.42	337.01	15.27	-58.6	-74.6	3.8	1.49e+00	0	29	104	68157440	82	24029
2026-01-04 08:05:50.42	336.92	15.17	-58.6	-74.6	3.8	1.49e+00	0	29	104	68157440	82	24069
2026-01-04 08:05:51.43	336.82	15.08	-58.6	-74.6	3.8	1.49e+00	0	29	104	68157440	82	24088
2026-01-04 08:05:52.44	336.73	14.98	-58.6	-74.6	3.8	1.49e+00	0	29	104	68157440	82	24057
2026-01-04 08:05:53.45	336.64	14.88	-58.6	-74.6	3.8	1.49e+00	0	29	104	68157440	82	24051
2026-01-04 08:05:54.46	336.55	14.79	-58.6	-74.6	3.8	1.49e+00	0	29	104	68157440	82	24066
2026-01-04 08:05:55.47	336.45	14.69	-58.6	-74.6	3.8	1.49e+00	0	29	104	68157440	82	24110
2026-01-04 08:05:56.49	336.36	14.59	-58.6	-74.6	3.8	1.49e+00	0	29	104	68157440	82	24057
2026-01-04 08:05:57.49	336.27	14.50	-58.6	-74.6	3.8	1.49e+00	0	29	104	68157440	82	24012
2026-01-04 08:05:58.50	336.18	14.41	-58.6	-74.6	3.8	1.49e+00	0	29	104	68157440	82	24027
2026-01-04 08:05:59.51	336.10	14.31	-58.6	-74.6	3.8	1.49e+00	0	29	104	68157440	82	23974
2026-01-04 08:06:00.52	336.01	14.22	-58.6	-74.6	3.8	1.49e+00	0	29	104	68157440	82	23990
2026-01-04 08:06:01.52	335.92	14.12	-58.6	-74.6	3.8	1.49e+00	0	29	104	68157440	82	24048
2026-01-04 08:06:02.53	335.83	14.03	-58.6	-74.6	3.8	1.49e+00	0	29	104	68157440	82	24071
2026-01-04 08:06:03.54	335.75	13.94	-58.6	-74.6	3.8	1.49e+00	0	29	104	68157440	82	24110
2026-01-04 08:06:04.55	335.66	13.84	-58.6	-74.6	3.8	1.49e+00	0	29	104	68157440	82	24005
2026-01-04 08:06:05.56	335.57	13.75	-58.6	-74.6	3.8	1.49e+00	0	29	104	68157440	82	24090
2026-01-04 08:06:06.57	335.49	13.66	-58.6	-74.6	3.8	1.49e+00	0	29	104	68157440	82	24034
2026-01-04 08:06:07.57	335.41	13.57	-58.6	-74.6	3.8	1.49e+00	0	29	104	68157440	82	24046
2026-01-04 08:06:08.58	335.32	13.47	-58.6	-74.6	3.8	1.49e+00	0	29	104	68157440	82	24019
2026-01-04 08:06:09.59	335.24	13.38	-58.6	-74.6	3.8	1.49e+00	0	29	104	68157440	82	24053
2026-01-04 08:06:10.60	335.16	13.29	-58.6	-74.6	3.8	1.49e+00	0	29	104	68157440	82	24036
2026-01-04 08:06:11.61	335.07	13.20	-58.6	-74.6	3.8	1.49e+00	0	29	104	68157440	82	24053
2026-01-04 08:06:12.61	334.99	13.11	-58.6	-74.6	3.8	1.49e+00	0	29	104	68157440	82	24049
2026-01-04 08:06:13.63	334.91	13.02	-58.6	-74.6	3.8	1.49e+00	0	29	104	68157440	82	24016
2026-01-04 08:06:14.63	334.83	12.93	-58.6	-74.6	3.8	1.49e+00	0	29	104	68157440	82	24067
2026-01-04 08:06:15.64	334.75	12.84	-58.6	-74.6	3.8	1.49e+00	0	29	104	68157440	82	24012
2026-01-04 08:06:16.64	334.67	12.75	-58.6	-74.6	3.8	1.49e+00	0	29	104	68157440	82	24033
2026-01-04 08:06:17.65	334.59	12.66	-58.6	-74.6	3.8	1.49e+00	0	29	104	68157440	82	24087
2026-01-04 08:06:18.66	334.51	12.57	-58.6	-74.6	3.8	1.49e+00	0	29	104	68157440	82	23988
2026-01-04 08:06:19.68	334.44	12.48	-58.6	-74.6	3.8	1.49e+00	0	29	104	68157440	82	24008
2026-01-04 08:06:20.68	334.36	12.39	-58.6	-74.6	3.8	1.49e+00	0	29	104	68157440	82	24034
2026-01-04 08:06:21.69	334.28	12.30	-58.6	-74.6	3.8	1.49e+00	0	29	104	68157440	82	23981
2026-01-04 08:06:22.69	334.21	12.22	-58.6	-74.6	3.8	1.49e+00	0	29	104	68157440	82	24016
2026-01-04 08:06:23.70	334.13	12.13	-58.6	-74.6	3.8	1.49e+00	0	29	104	68157440	82	24036
2026-01-04 08:06:24.70	334.05	12.04	-58.6	-74.6	3.8	1.49e+00	0	29	104	68157440	82	23991
