passes_logs/2026/01/04/R3.2S_Murmansk/R3.2S_Murmansk__20260104_043711_SUOMI_NPP_rec.log

#Pass ID: 20260104_043711_SUOMI NPP
#Satellite: SUOMI NPP
#Configuration: NPP
#almurnet v.1.7.20251203
#Start time: 2026-01-04 04:37:11

#Version: 2.2.20231116
#Station: R3.2S_Murmansk
#Location: 33.079688 lon 68.888172 lat
#TLE: 1 37849U 11061A   26001.07732418  .00000182  00000+0  10735-3 0  9990
#TLE: 2 37849  98.7795 303.2470 0002580  87.2016 272.9455 14.19520779734739

#Time	Az	El	Level	Level2	SNR	BER	BlckErr	Temp	State	Recorded	gain1	gain2
2026-01-04 04:37:11.24	53.65	2.01	-58.4	-74.5	3.8	1.49e+00	0	26	0	0	83	22275
2026-01-04 04:37:12.24	53.58	2.07	-58.4	-74.4	3.8	1.49e+00	0	27	104	0	81	24950
2026-01-04 04:37:13.23	53.52	2.12	-58.4	-74.5	3.8	1.49e+00	0	26	104	0	81	24987
2026-01-04 04:37:14.24	53.46	2.18	-58.4	-74.5	3.8	1.49e+00	0	27	104	0	81	25038
2026-01-04 04:37:15.24	53.40	2.24	-58.4	-74.5	3.8	1.49e+00	0	27	104	0	81	24979
2026-01-04 04:37:16.24	53.33	2.30	-58.4	-74.4	3.8	1.49e+00	0	26	104	0	81	24967
2026-01-04 04:37:17.24	53.27	2.35	-58.4	-74.4	3.8	1.49e+00	0	27	104	0	81	24920
2026-01-04 04:37:18.24	53.20	2.41	-58.4	-74.4	3.8	1.49e+00	0	26	104	0	81	24927
2026-01-04 04:37:19.24	53.14	2.47	-58.4	-74.4	3.8	1.49e+00	0	27	104	0	81	24857
2026-01-04 04:37:20.24	53.07	2.53	-58.4	-74.4	3.8	1.49e+00	0	27	104	0	81	24927
2026-01-04 04:37:21.24	53.01	2.58	-58.4	-74.4	3.8	1.49e+00	0	27	104	0	81	24960
2026-01-04 04:37:22.24	52.94	2.64	-58.4	-74.4	3.8	1.49e+00	0	27	104	0	81	24936
2026-01-04 04:37:23.24	52.88	2.70	-58.4	-74.5	3.8	1.49e+00	0	27	104	0	81	25031
2026-01-04 04:37:24.24	52.81	2.76	-58.4	-74.4	3.8	1.49e+00	0	27	104	0	81	24936
2026-01-04 04:37:25.24	52.75	2.81	-58.4	-74.4	3.8	1.49e+00	0	27	104	0	81	24924
2026-01-04 04:37:26.24	52.68	2.87	-58.4	-74.4	3.8	1.49e+00	0	27	104	0	81	24886
2026-01-04 04:37:27.24	52.61	2.93	-58.4	-74.5	3.8	1.49e+00	0	27	104	0	81	25023
2026-01-04 04:37:28.24	52.55	2.99	-58.4	-74.4	3.8	1.49e+00	0	27	104	0	81	24870
2026-01-04 04:37:29.24	52.48	3.05	-58.4	-74.4	3.8	1.49e+00	0	27	104	0	81	24881
2026-01-04 04:37:30.23	52.41	3.10	-58.4	-74.4	3.8	1.49e+00	0	27	104	0	81	24886
2026-01-04 04:37:31.24	52.35	3.16	-58.4	-74.5	3.8	1.49e+00	0	27	104	0	82	23587
2026-01-04 04:37:32.24	52.28	3.22	-58.4	-74.5	3.8	1.49e+00	0	27	104	0	82	23617
2026-01-04 04:37:33.23	52.21	3.28	-58.4	-74.5	3.8	1.49e+00	0	27	104	0	82	23725
2026-01-04 04:37:34.23	52.14	3.34	-58.4	-74.5	3.8	1.49e+00	0	27	104	0	82	23607
2026-01-04 04:37:35.23	52.07	3.40	-58.4	-74.5	3.8	1.49e+00	0	27	104	0	82	23665
2026-01-04 04:37:36.22	52.00	3.46	-58.4	-74.5	3.8	1.49e+00	0	27	104	0	82	23621
2026-01-04 04:37:37.22	51.93	3.52	-58.4	-74.5	3.8	1.49e+00	0	27	104	0	82	23623
2026-01-04 04:37:38.22	51.86	3.57	-58.4	-74.4	3.8	1.49e+00	0	27	104	0	82	23567
2026-01-04 04:37:39.22	51.79	3.63	-58.4	-74.5	3.8	1.49e+00	0	27	104	0	82	23604
2026-01-04 04:37:40.23	51.72	3.69	-58.4	-74.5	3.8	1.49e+00	0	27	104	0	82	23657
2026-01-04 04:37:41.23	51.65	3.75	-58.4	-74.5	3.8	1.49e+00	0	27	104	0	82	23694
2026-01-04 04:37:42.24	51.58	3.81	-58.4	-74.5	3.8	1.49e+00	0	27	104	0	82	23634
2026-01-04 04:37:43.24	51.51	3.87	-58.4	-74.5	3.8	1.49e+00	0	27	104	0	82	23611
2026-01-04 04:37:44.25	51.44	3.93	-58.4	-74.4	3.8	1.49e+00	0	27	104	0	82	23539
2026-01-04 04:37:45.25	51.37	3.99	-58.4	-74.4	3.8	1.49e+00	0	27	104	0	82	23475
2026-01-04 04:37:46.24	51.29	4.05	-58.4	-74.4	3.8	1.49e+00	0	27	104	0	82	23459
2026-01-04 04:37:47.24	51.22	4.11	-58.4	-74.4	3.8	1.49e+00	0	27	104	0	82	23487
2026-01-04 04:37:48.24	51.15	4.17	-58.4	-74.5	3.8	1.49e+00	0	27	104	0	82	23665
2026-01-04 04:37:49.24	51.08	4.23	-58.4	-74.5	3.8	1.49e+00	0	27	104	0	82	23582
2026-01-04 04:37:50.23	51.00	4.29	-58.4	-74.4	3.8	1.49e+00	0	27	104	0	82	23540
2026-01-04 04:37:51.22	50.93	4.35	-58.4	-74.2	3.8	1.49e+00	0	27	104	0	82	22946
2026-01-04 04:37:52.23	50.86	4.41	-58.4	-73.9	3.8	1.49e+00	0	27	104	0	82	22194
2026-01-04 04:37:53.22	50.78	4.47	-58.4	-73.4	3.8	1.49e+00	0	27	104	0	82	21008
2026-01-04 04:37:54.21	50.71	4.53	-58.4	-72.9	3.8	1.49e+00	0	27	104	0	82	19667
2026-01-04 04:37:55.21	50.63	4.59	-58.3	-72.2	3.8	1.49e+00	0	28	104	0	82	18102
2026-01-04 04:37:56.20	50.56	4.65	-58.3	-71.3	4.1	1.47e+00	0	27	104	0	82	16481
2026-01-04 04:37:57.20	50.48	4.71	-58.2	-70.6	4.3	1.42e+00	91	27	0	0	82	15078
2026-01-04 04:37:58.19	50.41	4.77	-58.2	-69.7	4.6	1.06e+00	0	27	0	1048576	82	13695
2026-01-04 04:37:59.19	50.33	4.83	-58.1	-68.7	5.1	7.12e-01	0	28	0	3145728	82	12115
2026-01-04 04:38:00.19	50.26	4.90	-57.9	-67.6	5.6	5.11e-01	0	27	0	5242880	82	10745
2026-01-04 04:38:01.19	50.18	4.96	-57.8	-66.8	6.2	3.43e-01	0	27	0	6291456	82	9811
2026-01-04 04:38:02.19	50.10	5.02	-57.7	-66.3	6.5	1.55e-01	0	28	0	8388608	82	9191
2026-01-04 04:38:03.19	50.02	5.08	-58.4	-70.8	4.2	1.06e+00	0	28	0	9437184	82	15565
2026-01-04 04:38:04.19	49.95	5.14	-58.3	-69.8	4.5	1.28e+00	0	28	0	10485760	82	13874
2026-01-04 04:38:05.19	49.87	5.20	-57.4	-64.9	7.6	7.28e-02	0	28	0	12582912	81	8292
2026-01-04 04:38:06.19	49.79	5.26	-55.6	-59.7	11.8	3.43e-05	0	28	0	14680064	77	5779
2026-01-04 04:38:07.19	49.71	5.33	-58.1	-70.5	4.2	5.10e-01	0	28	0	15728640	81	15876
2026-01-04 04:38:08.19	49.63	5.39	-55.3	-59.2	12.1	5.30e-06	0	27	0	17825792	77	5409
2026-01-04 04:38:09.18	49.55	5.45	-54.9	-58.5	12.5	7.00e-07	0	28	0	19922944	76	5298
2026-01-04 04:38:10.18	49.47	5.51	-54.6	-58.0	12.7	0.00e+00	0	27	0	22020096	75	5339
2026-01-04 04:38:11.18	49.39	5.57	-54.7	-58.1	12.6	0.00e+00	0	28	0	23068672	75	5393
2026-01-04 04:38:12.18	49.31	5.63	-54.6	-58.0	12.7	0.00e+00	0	28	0	25165824	75	5323
2026-01-04 04:38:13.18	49.23	5.70	-54.6	-57.9	12.8	0.00e+00	0	28	0	27262976	75	5266
2026-01-04 04:38:14.17	49.15	5.76	-54.6	-58.0	12.7	0.00e+00	0	28	0	29360128	75	5301
2026-01-04 04:38:15.17	49.07	5.82	-54.7	-58.1	12.7	0.00e+00	0	28	0	31457280	75	5348
2026-01-04 04:38:16.17	48.98	5.88	-54.6	-58.1	12.7	0.00e+00	0	28	0	32505856	75	5351
2026-01-04 04:38:17.17	48.90	5.95	-54.6	-57.9	12.8	0.00e+00	0	28	0	34603008	75	5271
2026-01-04 04:38:18.17	48.82	6.01	-54.4	-57.6	13.0	0.00e+00	0	28	0	36700160	75	5089
2026-01-04 04:38:19.18	48.73	6.07	-54.5	-57.7	13.0	0.00e+00	0	28	0	38797312	75	5104
2026-01-04 04:38:20.17	48.65	6.13	-54.3	-57.4	13.1	0.00e+00	0	28	0	40894464	75	4982
2026-01-04 04:38:21.17	48.57	6.20	-54.2	-57.3	13.2	0.00e+00	0	28	0	41943040	75	4888
2026-01-04 04:38:22.17	48.48	6.26	-54.4	-57.6	13.0	0.00e+00	0	28	0	44040192	75	5084
2026-01-04 04:38:23.17	48.40	6.32	-54.3	-57.4	13.2	0.00e+00	0	28	0	46137344	75	4954
2026-01-04 04:38:24.17	48.31	6.39	-54.3	-57.5	13.1	0.00e+00	0	28	0	48234496	75	4988
2026-01-04 04:38:25.17	48.23	6.45	-54.3	-57.4	13.2	0.00e+00	0	28	0	49283072	75	4951
2026-01-04 04:38:26.17	48.14	6.51	-54.3	-57.3	13.2	0.00e+00	0	28	0	51380224	75	4912
2026-01-04 04:38:27.16	48.06	6.58	-54.3	-57.4	13.2	0.00e+00	0	28	0	53477376	75	4978
2026-01-04 04:38:28.16	47.97	6.64	-54.4	-57.5	13.1	0.00e+00	0	28	0	55574528	75	5019
2026-01-04 04:38:29.16	47.88	6.70	-54.3	-57.4	13.2	0.00e+00	0	28	0	57671680	75	4959
2026-01-04 04:38:30.15	47.79	6.77	-54.4	-57.5	13.1	0.00e+00	0	28	0	58720256	75	4997
2026-01-04 04:38:31.14	47.71	6.83	-54.2	-57.2	13.3	0.00e+00	0	28	0	60817408	75	4846
2026-01-04 04:38:32.14	47.62	6.89	-54.4	-57.5	13.1	0.00e+00	0	28	0	62914560	75	5037
2026-01-04 04:38:33.15	47.53	6.96	-54.2	-57.2	13.2	0.00e+00	0	28	0	65011712	75	4844
2026-01-04 04:38:34.15	47.44	7.02	-54.4	-57.4	13.1	0.00e+00	0	28	0	67108864	74	5277
2026-01-04 04:38:35.15	47.35	7.09	-54.5	-57.6	13.0	0.00e+00	0	28	0	68157440	74	5388
2026-01-04 04:38:36.15	47.26	7.15	-54.5	-57.7	12.9	0.00e+00	0	28	0	70254592	74	5450
2026-01-04 04:38:37.15	47.17	7.22	-54.5	-57.7	12.9	0.00e+00	0	28	0	72351744	74	5457
2026-01-04 04:38:38.14	47.08	7.28	-54.7	-58.1	12.7	0.00e+00	0	28	0	74448896	74	5694
2026-01-04 04:38:39.14	46.99	7.34	-54.7	-58.1	12.7	0.00e+00	0	28	0	75497472	74	5709
2026-01-04 04:38:40.13	46.90	7.41	-54.7	-58.1	12.7	0.00e+00	0	28	0	77594624	74	5684
2026-01-04 04:38:41.13	46.81	7.47	-54.7	-58.1	12.7	0.00e+00	0	28	0	79691776	74	5675
2026-01-04 04:38:42.12	46.71	7.54	-54.7	-58.0	12.7	0.00e+00	0	28	0	81788928	74	5653
2026-01-04 04:38:43.13	46.62	7.60	-54.6	-58.0	12.8	0.00e+00	0	28	0	83886080	74	5614
2026-01-04 04:38:44.13	46.53	7.67	-54.6	-57.9	12.8	0.00e+00	0	28	0	84934656	74	5581
2026-01-04 04:38:45.12	46.43	7.73	-54.6	-57.9	12.8	0.00e+00	0	28	0	87031808	74	5573
2026-01-04 04:38:46.11	46.34	7.80	-54.5	-57.9	12.9	0.00e+00	0	28	0	89128960	74	5538
2026-01-04 04:38:47.10	46.25	7.86	-54.5	-57.8	12.9	0.00e+00	0	28	0	91226112	74	5493
2026-01-04 04:38:48.11	46.15	7.93	-54.5	-57.8	12.9	0.00e+00	0	28	0	93323264	74	5523
2026-01-04 04:38:49.11	46.06	7.99	-54.3	-57.5	13.1	0.00e+00	0	28	0	94371840	74	5314
2026-01-04 04:38:50.11	45.96	8.06	-54.4	-57.6	13.0	0.00e+00	0	28	0	96468992	74	5376
2026-01-04 04:38:51.10	45.86	8.12	-54.4	-57.6	13.0	0.00e+00	0	28	0	98566144	74	5389
2026-01-04 04:38:52.10	45.77	8.19	-54.3	-57.5	13.1	0.00e+00	0	28	0	100663296	74	5284
2026-01-04 04:38:53.09	45.67	8.26	-54.2	-57.3	13.2	0.00e+00	0	28	0	101711872	74	5194
2026-01-04 04:38:54.09	45.57	8.32	-54.1	-57.1	13.3	0.00e+00	0	28	0	103809024	74	5092
2026-01-04 04:38:55.09	45.48	8.39	-54.0	-56.9	13.4	0.00e+00	0	28	0	105906176	74	4979
2026-01-04 04:38:56.08	45.38	8.45	-54.0	-57.0	13.4	0.00e+00	0	28	0	108003328	74	5008
2026-01-04 04:38:57.07	45.28	8.52	-53.9	-56.7	13.5	0.00e+00	0	28	0	110100480	74	4864
2026-01-04 04:38:58.07	45.18	8.59	-53.8	-56.7	13.6	0.00e+00	0	28	0	111149056	74	4820
2026-01-04 04:38:59.07	45.08	8.65	-53.9	-56.8	13.5	0.00e+00	0	28	0	113246208	74	4911
2026-01-04 04:39:00.07	44.98	8.72	-53.7	-56.5	13.7	0.00e+00	0	28	0	115343360	74	4723
2026-01-04 04:39:01.06	44.88	8.78	-53.8	-56.7	13.6	0.00e+00	0	28	0	117440512	74	4833
2026-01-04 04:39:02.06	44.78	8.85	-53.8	-56.6	13.6	0.00e+00	0	28	0	118489088	74	4778
2026-01-04 04:39:03.05	44.68	8.92	-53.9	-56.6	13.6	0.00e+00	0	28	0	120586240	74	4812
2026-01-04 04:39:04.05	44.57	8.98	-53.9	-56.8	13.5	0.00e+00	0	28	0	122683392	74	4876
2026-01-04 04:39:05.04	44.47	9.05	-53.7	-56.5	13.7	0.00e+00	0	28	0	124780544	74	4707
2026-01-04 04:39:06.05	44.37	9.12	-53.7	-56.4	13.7	0.00e+00	0	28	0	126877696	74	4680
2026-01-04 04:39:07.04	44.26	9.18	-53.7	-56.4	13.6	0.00e+00	0	28	0	127926272	73	4973
2026-01-04 04:39:08.04	44.16	9.25	-53.6	-56.3	13.7	0.00e+00	0	28	0	130023424	73	4892
2026-01-04 04:39:09.04	44.05	9.32	-53.7	-56.4	13.7	0.00e+00	0	28	0	132120576	73	4974
2026-01-04 04:39:10.04	43.95	9.39	-53.7	-56.4	13.6	0.00e+00	0	28	0	134217728	73	4942
2026-01-04 04:39:11.03	43.84	9.45	-53.7	-56.5	13.6	0.00e+00	0	28	0	135266304	73	4990
2026-01-04 04:39:12.03	43.74	9.52	-53.9	-56.6	13.5	0.00e+00	0	28	0	137363456	73	5097
2026-01-04 04:39:13.03	43.63	9.59	-53.8	-56.6	13.6	0.00e+00	0	28	0	139460608	73	5048
2026-01-04 04:39:14.03	43.52	9.66	-53.8	-56.5	13.6	0.00e+00	0	28	0	141557760	73	5035
2026-01-04 04:39:15.03	43.41	9.72	-53.8	-56.6	13.6	0.00e+00	0	28	0	143654912	73	5082
2026-01-04 04:39:16.03	43.31	9.79	-53.7	-56.4	13.7	0.00e+00	0	28	0	144703488	73	4951
2026-01-04 04:39:17.04	43.20	9.86	-53.7	-56.4	13.7	0.00e+00	0	28	0	146800640	73	4960
2026-01-04 04:39:18.03	43.09	9.93	-53.8	-56.5	13.6	0.00e+00	0	28	0	148897792	73	5014
2026-01-04 04:39:19.03	42.98	10.00	-53.7	-56.4	13.7	0.00e+00	0	28	0	150994944	73	4944
2026-01-04 04:39:20.03	42.87	10.07	-53.9	-56.6	13.6	0.00e+00	0	28	0	153092096	73	5063
2026-01-04 04:39:21.03	42.76	10.13	-54.0	-56.8	13.5	0.00e+00	0	28	0	154140672	73	5161
2026-01-04 04:39:22.03	42.64	10.20	-54.2	-57.0	13.4	0.00e+00	0	28	0	156237824	73	5337
2026-01-04 04:39:23.02	42.53	10.27	-54.1	-56.9	13.5	0.00e+00	0	28	0	158334976	73	5231
2026-01-04 04:39:24.02	42.42	10.34	-54.0	-56.7	13.5	0.00e+00	0	28	0	160432128	73	5148
2026-01-04 04:39:25.02	42.31	10.41	-54.0	-56.8	13.5	0.00e+00	0	28	0	161480704	73	5162
2026-01-04 04:39:26.03	42.19	10.48	-54.0	-56.8	13.5	0.00e+00	0	28	0	163577856	73	5195
2026-01-04 04:39:27.02	42.08	10.55	-53.8	-56.5	13.7	0.00e+00	0	28	0	165675008	73	4994
2026-01-04 04:39:28.01	41.96	10.61	-54.0	-56.8	13.5	0.00e+00	0	28	0	167772160	73	5199
2026-01-04 04:39:29.01	41.85	10.68	-54.0	-56.7	13.5	0.00e+00	0	28	0	169869312	73	5121
2026-01-04 04:39:29.99	41.74	10.75	-54.0	-56.7	13.6	0.00e+00	0	28	0	170917888	73	5144
2026-01-04 04:39:30.99	41.62	10.82	-54.0	-56.7	13.6	0.00e+00	0	28	0	173015040	73	5133
2026-01-04 04:39:31.99	41.50	10.89	-54.0	-56.8	13.5	0.00e+00	0	28	0	175112192	73	5185
2026-01-04 04:39:32.99	41.38	10.96	-54.1	-57.0	13.5	0.00e+00	0	28	0	177209344	73	5286
2026-01-04 04:39:33.99	41.27	11.03	-54.1	-57.0	13.4	0.00e+00	0	28	0	178257920	73	5302
2026-01-04 04:39:34.98	41.15	11.10	-54.1	-56.8	13.5	0.00e+00	0	28	0	180355072	73	5218
2026-01-04 04:39:35.98	41.03	11.17	-54.1	-57.0	13.4	0.00e+00	0	28	0	182452224	73	5317
2026-01-04 04:39:36.98	40.91	11.24	-54.1	-56.8	13.5	0.00e+00	0	28	0	184549376	73	5204
2026-01-04 04:39:37.98	40.79	11.31	-54.0	-56.8	13.5	0.00e+00	0	28	0	186646528	73	5170
2026-01-04 04:39:38.97	40.67	11.37	-53.8	-56.5	13.7	0.00e+00	0	28	0	187695104	73	4993
2026-01-04 04:39:39.97	40.54	11.44	-53.8	-56.4	13.7	0.00e+00	0	28	0	189792256	73	4972
2026-01-04 04:39:40.98	40.42	11.51	-53.8	-56.4	13.7	0.00e+00	0	28	0	191889408	73	4933
2026-01-04 04:39:41.98	40.30	11.58	-53.9	-56.6	13.6	0.00e+00	0	28	0	193986560	73	5084
2026-01-04 04:39:42.98	40.17	11.65	-53.7	-56.3	13.8	0.00e+00	0	28	0	196083712	73	4880
2026-01-04 04:39:43.98	40.05	11.72	-53.8	-56.4	13.7	0.00e+00	0	28	0	197132288	73	4957
2026-01-04 04:39:44.98	39.93	11.79	-53.6	-56.1	13.9	0.00e+00	0	28	0	199229440	73	4779
2026-01-04 04:39:45.97	39.80	11.86	-53.6	-56.1	13.9	0.00e+00	0	28	0	201326592	73	4804
2026-01-04 04:39:46.97	39.67	11.93	-53.3	-55.8	14.0	0.00e+00	0	28	0	203423744	73	4625
2026-01-04 04:39:47.97	39.55	12.01	-53.1	-55.5	14.0	0.00e+00	0	28	0	205520896	72	4747
2026-01-04 04:39:48.96	39.42	12.07	-53.3	-55.7	14.0	0.00e+00	0	28	0	206569472	72	4849
2026-01-04 04:39:49.96	39.29	12.15	-53.2	-55.7	14.0	0.00e+00	0	28	0	208666624	72	4822
2026-01-04 04:39:50.95	39.17	12.22	-53.2	-55.6	14.0	0.00e+00	0	28	0	210763776	72	4814
2026-01-04 04:39:51.94	39.04	12.29	-53.4	-55.9	13.9	0.00e+00	0	28	0	212860928	72	4940
2026-01-04 04:39:52.94	38.91	12.36	-53.4	-55.9	13.9	0.00e+00	0	28	0	213909504	72	4928
2026-01-04 04:39:53.94	38.78	12.43	-53.4	-55.9	13.9	0.00e+00	0	28	0	216006656	72	4942
2026-01-04 04:39:54.93	38.65	12.50	-53.3	-55.8	14.0	0.00e+00	0	28	0	218103808	72	4899
2026-01-04 04:39:55.93	38.52	12.57	-53.3	-55.7	14.0	0.00e+00	0	28	0	220200960	72	4828
2026-01-04 04:39:56.92	38.39	12.64	-53.3	-55.7	14.1	0.00e+00	0	28	0	222298112	72	4824
2026-01-04 04:39:57.92	38.25	12.71	-53.0	-55.3	14.2	0.00e+00	0	28	0	223346688	72	4644
2026-01-04 04:39:58.92	38.12	12.78	-53.1	-55.4	14.1	0.00e+00	0	28	0	225443840	72	4693
2026-01-04 04:39:59.92	37.98	12.85	-53.1	-55.4	14.1	0.00e+00	0	28	0	227540992	72	4705
2026-01-04 04:40:00.92	37.85	12.92	-53.1	-55.5	14.1	0.00e+00	0	28	0	229638144	72	4746
2026-01-04 04:40:01.92	37.71	12.99	-53.2	-55.6	14.0	0.00e+00	0	28	0	230686720	72	4800
2026-01-04 04:40:02.91	37.58	13.06	-53.2	-55.5	14.1	0.00e+00	0	28	0	232783872	72	4737
2026-01-04 04:40:03.91	37.44	13.13	-53.2	-55.5	14.1	0.00e+00	0	28	0	234881024	72	4724
2026-01-04 04:40:04.91	37.30	13.21	-52.9	-55.1	14.2	0.00e+00	0	28	0	236978176	72	4539
2026-01-04 04:40:05.91	37.16	13.28	-52.8	-55.0	14.3	0.00e+00	0	28	0	239075328	72	4469
2026-01-04 04:40:06.90	37.03	13.35	-52.9	-55.2	14.2	0.00e+00	0	28	0	240123904	72	4547
2026-01-04 04:40:07.90	36.89	13.42	-53.0	-55.3	14.1	0.00e+00	0	28	0	242221056	72	4631
2026-01-04 04:40:08.90	36.75	13.49	-53.0	-55.2	14.2	0.00e+00	0	28	0	244318208	72	4589
2026-01-04 04:40:09.90	36.61	13.56	-53.0	-55.3	14.1	0.00e+00	0	28	0	246415360	72	4634
2026-01-04 04:40:10.91	36.46	13.63	-53.0	-55.4	14.1	0.00e+00	0	28	0	248512512	72	4655
2026-01-04 04:40:11.91	36.32	13.71	-53.0	-55.3	14.2	0.00e+00	0	29	0	249561088	72	4606
2026-01-04 04:40:12.90	36.18	13.78	-52.9	-55.2	14.2	0.00e+00	0	28	0	251658240	72	4589
2026-01-04 04:40:13.90	36.03	13.85	-52.6	-54.8	14.2	0.00e+00	0	28	0	253755392	71	4642
2026-01-04 04:40:14.90	35.89	13.92	-52.7	-55.0	14.2	0.00e+00	0	28	0	255852544	71	4722
2026-01-04 04:40:15.90	35.74	13.99	-52.9	-55.3	14.1	0.00e+00	0	28	0	257949696	71	4876
2026-01-04 04:40:16.90	35.60	14.06	-53.1	-55.5	13.9	0.00e+00	0	28	0	258998272	71	5023
2026-01-04 04:40:17.90	35.45	14.13	-53.3	-55.8	13.8	0.00e+00	0	28	0	261095424	71	5167
2026-01-04 04:40:18.90	35.30	14.21	-53.2	-55.7	13.9	0.00e+00	0	28	0	263192576	71	5126
2026-01-04 04:40:19.90	35.15	14.28	-53.1	-55.6	13.9	0.00e+00	0	28	0	265289728	71	5072
2026-01-04 04:40:20.89	35.01	14.35	-53.1	-55.6	13.9	0.00e+00	0	28	0	266338304	71	5080
2026-01-04 04:40:21.89	34.86	14.42	-53.2	-55.8	13.8	0.00e+00	0	28	0	268435456	71	5166
2026-01-04 04:40:22.88	34.71	14.49	-53.4	-56.0	13.7	0.00e+00	0	28	0	270532608	71	5293
2026-01-04 04:40:23.88	34.56	14.56	-53.5	-56.1	13.7	0.00e+00	0	28	0	272629760	72	5099
2026-01-04 04:40:24.88	34.40	14.64	-53.6	-56.3	13.7	0.00e+00	0	28	0	274726912	72	5184
2026-01-04 04:40:25.87	34.25	14.71	-53.5	-56.2	13.7	0.00e+00	0	28	0	275775488	72	5148
2026-01-04 04:40:26.87	34.10	14.78	-53.5	-56.1	13.8	0.00e+00	0	28	0	277872640	72	5044
2026-01-04 04:40:27.88	33.94	14.85	-53.5	-56.1	13.8	0.00e+00	0	28	0	279969792	72	5061
2026-01-04 04:40:28.88	33.79	14.92	-53.4	-55.9	13.9	0.00e+00	0	28	0	282066944	72	4944
2026-01-04 04:40:29.88	33.63	14.99	-53.4	-56.0	13.8	0.00e+00	0	28	0	283115520	72	4985
2026-01-04 04:40:30.88	33.48	15.07	-53.3	-55.8	13.9	0.00e+00	0	28	0	285212672	72	4909
2026-01-04 04:40:31.87	33.32	15.14	-53.3	-55.8	13.9	0.00e+00	0	28	0	287309824	72	4911
2026-01-04 04:40:32.87	33.16	15.21	-53.3	-55.8	14.0	0.00e+00	0	28	0	289406976	72	4873
2026-01-04 04:40:33.87	33.00	15.28	-53.4	-55.8	13.9	0.00e+00	0	28	0	291504128	72	4925
2026-01-04 04:40:34.86	32.85	15.35	-53.3	-55.8	13.9	0.00e+00	0	28	0	292552704	72	4894
2026-01-04 04:40:35.86	32.68	15.42	-53.2	-55.6	14.0	0.00e+00	0	28	0	294649856	72	4796
2026-01-04 04:40:36.86	32.52	15.50	-53.3	-55.8	13.9	0.00e+00	0	28	0	296747008	72	4879
2026-01-04 04:40:37.86	32.36	15.57	-53.5	-56.0	13.8	0.00e+00	0	28	0	298844160	72	5016
2026-01-04 04:40:38.86	32.20	15.64	-53.4	-55.9	13.8	0.00e+00	0	28	0	300941312	72	4980
2026-01-04 04:40:39.86	32.04	15.71	-53.5	-56.0	13.8	0.00e+00	0	28	0	301989888	72	5031
2026-01-04 04:40:40.84	31.87	15.78	-53.7	-56.4	13.7	0.00e+00	0	28	0	304087040	72	5219
2026-01-04 04:40:41.84	31.71	15.85	-53.7	-56.4	13.6	0.00e+00	0	28	0	306184192	72	5258
2026-01-04 04:40:42.84	31.54	15.92	-53.6	-56.3	13.7	0.00e+00	0	28	0	308281344	72	5166
2026-01-04 04:40:43.84	31.38	16.00	-53.6	-56.3	13.7	0.00e+00	0	28	0	309329920	72	5175
2026-01-04 04:40:44.84	31.21	16.07	-53.7	-56.4	13.6	0.00e+00	0	28	0	311427072	72	5225
2026-01-04 04:40:45.84	31.04	16.14	-53.5	-56.1	13.8	0.00e+00	0	29	0	313524224	72	5054
2026-01-04 04:40:46.84	30.87	16.21	-53.2	-55.6	14.0	0.00e+00	0	28	0	315621376	72	4812
2026-01-04 04:40:47.85	30.70	16.28	-53.1	-55.5	14.1	0.00e+00	0	28	0	317718528	72	4727
2026-01-04 04:40:48.84	30.53	16.35	-53.3	-55.8	13.9	0.00e+00	0	28	0	318767104	72	4887
2026-01-04 04:40:49.84	30.36	16.42	-53.5	-56.1	13.8	0.00e+00	0	28	0	320864256	72	5056
2026-01-04 04:40:50.83	30.19	16.49	-53.5	-56.0	13.8	0.00e+00	0	28	0	322961408	72	5037
2026-01-04 04:40:51.83	30.01	16.57	-53.4	-55.9	13.9	0.00e+00	0	28	0	325058560	72	4975
2026-01-04 04:40:52.83	29.84	16.64	-53.4	-56.0	13.8	0.00e+00	0	28	0	326107136	72	5024
2026-01-04 04:40:53.83	29.66	16.71	-53.1	-55.6	14.0	0.00e+00	0	28	0	328204288	72	4776
2026-01-04 04:40:54.83	29.49	16.78	-53.3	-55.8	13.9	0.00e+00	0	28	0	330301440	72	4896
2026-01-04 04:40:55.82	29.31	16.85	-53.1	-55.6	14.0	0.00e+00	0	28	0	332398592	72	4777
2026-01-04 04:40:56.82	29.14	16.92	-53.4	-56.0	13.9	0.00e+00	0	28	0	334495744	72	4993
2026-01-04 04:40:57.81	28.96	16.99	-53.5	-56.1	13.8	0.00e+00	0	28	0	335544320	72	5063
2026-01-04 04:40:58.81	28.78	17.06	-53.6	-56.2	13.7	0.00e+00	0	28	0	337641472	72	5141
2026-01-04 04:40:59.81	28.60	17.13	-53.5	-56.1	13.8	0.00e+00	0	28	0	339738624	72	5054
2026-01-04 04:41:00.80	28.42	17.20	-53.6	-56.1	13.8	0.00e+00	0	28	0	341835776	72	5089
2026-01-04 04:41:01.80	28.24	17.27	-53.3	-55.8	14.0	0.00e+00	0	28	0	343932928	72	4883
2026-01-04 04:41:02.80	28.06	17.34	-53.3	-55.8	14.0	0.00e+00	0	28	0	344981504	72	4904
2026-01-04 04:41:03.80	27.87	17.41	-53.4	-55.9	13.9	0.00e+00	0	28	0	347078656	72	4973
2026-01-04 04:41:04.80	27.69	17.48	-53.6	-56.3	13.7	0.00e+00	0	28	0	349175808	72	5175
2026-01-04 04:41:05.79	27.50	17.55	-53.8	-56.6	13.6	0.00e+00	0	28	0	351272960	72	5349
2026-01-04 04:41:06.78	27.32	17.62	-54.0	-56.9	13.5	0.00e+00	0	28	0	352321536	73	5243
2026-01-04 04:41:07.78	27.13	17.69	-53.8	-56.5	13.7	0.00e+00	0	28	0	354418688	73	5035
2026-01-04 04:41:08.78	26.95	17.76	-53.5	-56.1	13.9	0.00e+00	0	29	0	356515840	73	4803
2026-01-04 04:41:09.78	26.76	17.83	-53.6	-56.2	13.9	0.00e+00	0	28	0	358612992	73	4833
2026-01-04 04:41:10.78	26.57	17.90	-53.1	-55.5	14.2	0.00e+00	0	28	0	360710144	72	4746
2026-01-04 04:41:11.78	26.38	17.97	-53.3	-55.7	14.0	0.00e+00	0	28	0	361758720	72	4848
2026-01-04 04:41:12.78	26.18	18.03	-53.1	-55.5	14.1	0.00e+00	0	28	0	363855872	72	4749
2026-01-04 04:41:13.77	25.99	18.10	-53.0	-55.2	14.2	0.00e+00	0	28	0	365953024	72	4585
2026-01-04 04:41:14.78	25.80	18.17	-53.0	-55.2	14.2	0.00e+00	0	28	0	368050176	72	4593
2026-01-04 04:41:15.79	25.60	18.24	-52.8	-55.0	14.3	0.00e+00	0	28	0	370147328	72	4458
2026-01-04 04:41:16.78	25.41	18.31	-52.9	-55.2	14.2	0.00e+00	0	28	0	371195904	72	4562
2026-01-04 04:41:17.78	25.21	18.38	-53.0	-55.3	14.2	0.00e+00	0	29	0	373293056	72	4632
2026-01-04 04:41:18.78	25.02	18.45	-53.1	-55.5	14.1	0.00e+00	0	28	0	375390208	72	4750
2026-01-04 04:41:19.77	24.82	18.51	-53.0	-55.4	14.1	0.00e+00	0	29	0	377487360	72	4693
2026-01-04 04:41:20.78	24.62	18.58	-52.9	-55.3	14.2	0.00e+00	0	28	0	378535936	72	4600
2026-01-04 04:41:21.77	24.42	18.65	-52.8	-55.2	14.2	0.00e+00	0	28	0	380633088	72	4546
2026-01-04 04:41:22.77	24.22	18.72	-52.4	-54.7	14.4	0.00e+00	0	28	0	382730240	71	4571
2026-01-04 04:41:23.77	24.02	18.78	-52.3	-54.6	14.4	0.00e+00	0	28	0	384827392	71	4521
2026-01-04 04:41:24.77	23.82	18.85	-52.3	-54.6	14.4	0.00e+00	0	28	0	386924544	71	4500
2026-01-04 04:41:25.77	23.62	18.92	-51.9	-54.0	14.5	0.00e+00	0	28	0	387973120	70	4462
2026-01-04 04:41:26.76	23.42	18.98	-52.0	-54.1	14.5	0.00e+00	0	28	0	390070272	70	4535
2026-01-04 04:41:27.76	23.21	19.05	-51.8	-53.9	14.6	0.00e+00	0	28	0	392167424	70	4392
2026-01-04 04:41:28.76	23.00	19.12	-51.9	-54.0	14.6	0.00e+00	0	29	0	394264576	70	4462
2026-01-04 04:41:29.76	22.80	19.18	-51.9	-54.0	14.6	0.00e+00	0	29	0	396361728	70	4448
2026-01-04 04:41:30.76	22.59	19.25	-51.8	-53.8	14.5	0.00e+00	0	28	0	397410304	70	4355
2026-01-04 04:41:31.76	22.38	19.31	-51.8	-53.9	14.6	0.00e+00	0	28	0	399507456	70	4394
2026-01-04 04:41:32.76	22.17	19.38	-51.8	-53.8	14.6	0.00e+00	0	29	0	401604608	70	4388
2026-01-04 04:41:33.76	21.96	19.44	-52.0	-54.0	14.5	0.00e+00	0	28	0	403701760	70	4486
2026-01-04 04:41:34.75	21.75	19.51	-51.9	-53.9	14.6	0.00e+00	0	28	0	404750336	70	4429
2026-01-04 04:41:35.75	21.54	19.57	-52.1	-54.2	14.5	0.00e+00	0	28	0	406847488	70	4559
2026-01-04 04:41:36.75	21.33	19.64	-51.9	-53.9	14.6	0.00e+00	0	29	0	408944640	70	4417
2026-01-04 04:41:37.75	21.11	19.70	-51.9	-53.9	14.6	0.00e+00	0	28	0	411041792	70	4413
2026-01-04 04:41:38.75	20.90	19.77	-51.8	-53.8	14.6	0.00e+00	0	28	0	413138944	70	4355
2026-01-04 04:41:39.75	20.68	19.83	-51.6	-53.6	14.6	0.00e+00	0	29	0	414187520	69	4511
2026-01-04 04:41:40.75	20.47	19.89	-51.6	-53.6	14.6	0.00e+00	0	29	0	416284672	69	4506
2026-01-04 04:41:41.74	20.25	19.95	-51.8	-53.8	14.5	0.00e+00	0	28	0	418381824	69	4606
2026-01-04 04:41:42.74	20.03	20.02	-51.9	-54.0	14.5	0.00e+00	0	28	0	420478976	69	4715
2026-01-04 04:41:43.74	19.81	20.08	-52.0	-54.1	14.4	0.00e+00	0	29	0	422576128	69	4765
2026-01-04 04:41:44.75	19.59	20.14	-52.0	-54.1	14.4	0.00e+00	0	28	0	423624704	69	4771
2026-01-04 04:41:45.74	19.37	20.20	-52.0	-54.1	14.4	0.00e+00	0	29	0	425721856	69	4768
2026-01-04 04:41:46.74	19.15	20.27	-51.9	-54.0	14.5	0.00e+00	0	28	0	427819008	69	4726
2026-01-04 04:41:47.74	18.93	20.33	-51.8	-53.9	14.5	0.00e+00	0	28	0	429916160	69	4682
2026-01-04 04:41:48.74	18.70	20.39	-51.8	-53.9	14.5	0.00e+00	0	28	0	432013312	69	4689
2026-01-04 04:41:49.74	18.48	20.45	-51.8	-53.9	14.5	0.00e+00	0	28	0	433061888	69	4653
2026-01-04 04:41:50.74	18.25	20.51	-51.7	-53.7	14.6	0.00e+00	0	29	0	435159040	69	4591
2026-01-04 04:41:51.74	18.03	20.57	-51.5	-53.4	14.7	0.00e+00	0	29	0	437256192	69	4405
2026-01-04 04:41:52.74	17.80	20.63	-51.3	-53.2	14.8	0.00e+00	0	28	0	439353344	69	4297
2026-01-04 04:41:53.74	17.57	20.69	-51.1	-52.9	14.8	0.00e+00	0	28	0	440401920	68	4435
2026-01-04 04:41:54.74	17.34	20.75	-51.3	-53.2	14.7	0.00e+00	0	29	0	442499072	68	4570
2026-01-04 04:41:55.74	17.11	20.81	-51.4	-53.2	14.7	0.00e+00	0	29	0	444596224	68	4586
2026-01-04 04:41:56.74	16.88	20.86	-51.5	-53.3	14.6	0.00e+00	0	28	0	446693376	68	4647
2026-01-04 04:41:57.73	16.65	20.92	-51.4	-53.3	14.7	0.00e+00	0	29	0	448790528	68	4611
2026-01-04 04:41:58.73	16.42	20.98	-51.3	-53.1	14.7	0.00e+00	0	28	0	449839104	68	4510
2026-01-04 04:41:59.72	16.19	21.04	-51.2	-53.0	14.8	0.00e+00	0	28	0	451936256	68	4445
2026-01-04 04:42:00.71	15.95	21.09	-51.4	-53.2	14.7	0.00e+00	0	28	0	454033408	68	4596
2026-01-04 04:42:01.71	15.72	21.15	-51.7	-53.6	14.6	0.00e+00	0	29	0	456130560	68	4782
2026-01-04 04:42:02.70	15.49	21.20	-51.4	-53.2	14.7	0.00e+00	0	28	0	457179136	68	4589
2026-01-04 04:42:03.71	15.25	21.26	-51.5	-53.3	14.7	0.00e+00	0	28	0	459276288	68	4613
2026-01-04 04:42:04.70	15.01	21.32	-51.3	-53.1	14.8	0.00e+00	0	28	0	461373440	68	4508
2026-01-04 04:42:05.70	14.77	21.37	-51.1	-52.8	14.8	0.00e+00	0	29	0	463470592	68	4389
2026-01-04 04:42:06.70	14.53	21.42	-51.3	-53.1	14.8	0.00e+00	0	29	0	465567744	68	4502
2026-01-04 04:42:07.70	14.29	21.48	-51.4	-53.2	14.7	0.00e+00	0	29	0	466616320	68	4585
2026-01-04 04:42:08.70	14.05	21.53	-51.3	-53.1	14.8	0.00e+00	0	28	0	468713472	68	4502
2026-01-04 04:42:09.70	13.81	21.59	-51.4	-53.1	14.7	0.00e+00	0	29	0	470810624	68	4541
2026-01-04 04:42:10.69	13.57	21.64	-51.4	-53.2	14.7	0.00e+00	0	28	0	472907776	68	4597
2026-01-04 04:42:11.69	13.32	21.69	-51.1	-52.8	14.8	0.00e+00	0	28	0	475004928	68	4378
2026-01-04 04:42:12.69	13.08	21.74	-51.0	-52.7	14.9	0.00e+00	0	29	0	476053504	68	4323
2026-01-04 04:42:13.69	12.83	21.79	-51.1	-52.8	14.9	0.00e+00	0	28	0	478150656	68	4368
2026-01-04 04:42:14.70	12.58	21.84	-51.3	-53.0	14.8	0.00e+00	0	28	0	480247808	68	4492
2026-01-04 04:42:15.69	12.34	21.89	-51.3	-53.1	14.7	0.00e+00	0	29	0	482344960	68	4495
2026-01-04 04:42:16.69	12.09	21.94	-51.4	-53.1	14.8	0.00e+00	0	28	0	483393536	68	4506
2026-01-04 04:42:17.69	11.84	21.99	-51.2	-52.8	14.8	0.00e+00	0	29	0	485490688	68	4388
2026-01-04 04:42:18.69	11.59	22.04	-51.1	-52.8	14.9	0.00e+00	0	28	0	487587840	68	4345
2026-01-04 04:42:19.69	11.34	22.09	-51.2	-52.9	14.8	0.00e+00	0	29	0	489684992	68	4420
2026-01-04 04:42:20.69	11.09	22.14	-51.3	-53.0	14.8	0.00e+00	0	29	0	491782144	68	4442
2026-01-04 04:42:21.69	10.84	22.19	-51.3	-53.0	14.8	0.00e+00	0	28	0	492830720	68	4482
2026-01-04 04:42:22.69	10.59	22.23	-51.3	-53.0	14.8	0.00e+00	0	29	0	494927872	68	4470
2026-01-04 04:42:23.70	10.33	22.28	-51.5	-53.2	14.7	0.00e+00	0	29	0	497025024	68	4585
2026-01-04 04:42:24.70	10.08	22.33	-51.3	-53.0	14.8	0.00e+00	0	28	0	499122176	68	4473
2026-01-04 04:42:25.71	9.82	22.37	-51.4	-53.2	14.7	0.00e+00	0	28	0	501219328	68	4555
2026-01-04 04:42:26.70	9.57	22.42	-51.5	-53.2	14.7	0.00e+00	0	29	0	502267904	68	4589
2026-01-04 04:42:27.70	9.31	22.46	-51.4	-53.1	14.8	0.00e+00	0	28	0	504365056	68	4521
2026-01-04 04:42:28.71	9.05	22.51	-51.4	-53.1	14.7	0.00e+00	0	29	0	506462208	68	4544
2026-01-04 04:42:29.71	8.79	22.55	-51.4	-53.1	14.7	0.00e+00	0	29	0	508559360	68	4537
2026-01-04 04:42:30.71	8.53	22.59	-51.3	-53.1	14.7	0.00e+00	0	28	0	510656512	68	4517
2026-01-04 04:42:31.71	8.27	22.64	-51.1	-52.8	14.9	0.00e+00	0	28	0	511705088	68	4363
2026-01-04 04:42:32.70	8.02	22.68	-51.2	-52.8	14.9	0.00e+00	0	29	0	513802240	68	4386
2026-01-04 04:42:33.70	7.75	22.72	-51.2	-52.9	14.8	0.00e+00	0	29	0	515899392	68	4413
2026-01-04 04:42:34.69	7.50	22.76	-51.4	-53.0	14.8	0.00e+00	0	28	0	517996544	68	4489
2026-01-04 04:42:35.69	7.23	22.80	-51.0	-52.7	14.9	0.00e+00	0	29	0	519045120	68	4297
2026-01-04 04:42:36.70	6.97	22.84	-51.0	-52.6	14.9	0.00e+00	0	29	0	521142272	68	4255
2026-01-04 04:42:37.70	6.70	22.88	-51.0	-52.6	14.9	0.00e+00	0	28	0	523239424	68	4260
2026-01-04 04:42:38.70	6.44	22.91	-50.9	-52.5	15.0	0.00e+00	0	29	0	525336576	68	4220
2026-01-04 04:42:39.70	6.18	22.95	-51.3	-53.0	14.8	0.00e+00	0	29	0	527433728	68	4468
2026-01-04 04:42:40.71	5.91	22.99	-51.5	-53.2	14.7	0.00e+00	0	28	0	528482304	68	4583
2026-01-04 04:42:41.71	5.64	23.03	-51.7	-53.5	14.6	0.00e+00	0	28	0	530579456	68	4711
2026-01-04 04:42:42.71	5.37	23.06	-51.9	-53.7	14.6	0.00e+00	0	29	0	532676608	69	4572
2026-01-04 04:42:43.70	5.11	23.10	-52.2	-54.1	14.5	0.00e+00	0	28	0	534773760	69	4760
2026-01-04 04:42:44.71	4.84	23.13	-52.3	-54.3	14.5	0.00e+00	0	28	0	536870912	69	4874
2026-01-04 04:42:45.71	4.57	23.16	-52.5	-54.5	14.4	0.00e+00	0	29	0	537919488	70	4750
2026-01-04 04:42:46.71	4.30	23.20	-52.9	-55.1	14.3	0.00e+00	0	29	0	540016640	71	4782
2026-01-04 04:42:47.72	4.03	23.23	-53.2	-55.5	14.2	0.00e+00	0	29	0	542113792	72	4707
2026-01-04 04:42:48.71	3.76	23.26	-53.5	-55.9	14.0	0.00e+00	0	29	0	544210944	72	4969
2026-01-04 04:42:49.71	3.49	23.29	-53.5	-55.9	14.0	0.00e+00	0	28	0	546308096	72	4928
2026-01-04 04:42:50.72	3.22	23.32	-53.2	-55.5	14.1	0.00e+00	0	29	0	547356672	72	4743
2026-01-04 04:42:51.72	2.94	23.35	-52.9	-55.0	14.3	0.00e+00	0	29	0	549453824	72	4488
2026-01-04 04:42:52.71	2.67	23.38	-52.5	-54.5	14.5	0.00e+00	0	29	0	551550976	71	4485
2026-01-04 04:42:53.71	2.40	23.41	-52.5	-54.5	14.5	0.00e+00	0	29	0	553648128	71	4490
2026-01-04 04:42:54.71	2.13	23.44	-52.6	-54.7	14.5	0.00e+00	0	29	0	554696704	71	4571
2026-01-04 04:42:55.71	1.85	23.47	-52.9	-55.1	14.3	0.00e+00	0	29	0	556793856	71	4787
2026-01-04 04:42:56.70	1.58	23.49	-52.7	-54.8	14.4	0.00e+00	0	28	0	558891008	71	4651
2026-01-04 04:42:57.70	1.31	23.52	-52.5	-54.6	14.5	0.00e+00	0	29	0	560988160	71	4500
2026-01-04 04:42:58.68	1.04	23.54	-52.2	-54.2	14.7	0.00e+00	0	29	0	563085312	71	4301
2026-01-04 04:42:59.68	0.76	23.57	-52.2	-54.1	14.6	0.00e+00	0	29	0	564133888	70	4536
2026-01-04 04:43:00.67	0.49	23.59	-52.1	-54.1	14.6	0.00e+00	0	29	0	566231040	70	4504
2026-01-04 04:43:01.67	0.21	23.61	-52.3	-54.4	14.5	0.00e+00	0	29	0	568328192	70	4660
2026-01-04 04:43:02.67	359.94	23.64	-52.6	-54.7	14.3	0.00e+00	0	29	0	570425344	70	4863
2026-01-04 04:43:03.67	359.66	23.66	-52.6	-54.7	14.3	0.00e+00	0	29	0	571473920	70	4848
2026-01-04 04:43:04.67	359.38	23.68	-52.7	-54.9	14.2	0.00e+00	0	29	0	573571072	70	4959
2026-01-04 04:43:05.67	359.10	23.70	-52.5	-54.6	14.3	0.00e+00	0	29	0	575668224	70	4796
2026-01-04 04:43:06.67	358.82	23.72	-52.3	-54.2	14.5	0.00e+00	0	29	0	577765376	70	4597
2026-01-04 04:43:07.67	358.55	23.74	-52.4	-54.5	14.4	0.00e+00	0	29	0	579862528	70	4721
2026-01-04 04:43:08.67	358.27	23.76	-52.9	-55.1	14.2	0.00e+00	0	29	0	580911104	70	5088
2026-01-04 04:43:09.67	357.99	23.77	-53.2	-55.6	14.1	0.00e+00	0	29	0	583008256	71	5046
2026-01-04 04:43:10.67	357.71	23.79	-53.2	-55.6	14.0	0.00e+00	0	29	0	585105408	71	5095
2026-01-04 04:43:11.67	357.43	23.81	-53.2	-55.5	14.0	0.00e+00	0	29	0	587202560	71	5010
2026-01-04 04:43:12.67	357.15	23.82	-53.1	-55.4	14.1	0.00e+00	0	29	0	589299712	71	4961
2026-01-04 04:43:13.68	356.86	23.84	-52.9	-55.3	14.1	0.00e+00	0	29	0	590348288	71	4872
2026-01-04 04:43:14.67	356.59	23.85	-53.0	-55.3	14.2	0.00e+00	0	29	0	592445440	71	4917
2026-01-04 04:43:15.67	356.30	23.86	-53.0	-55.2	14.2	0.00e+00	0	29	0	594542592	71	4852
2026-01-04 04:43:16.67	356.02	23.88	-53.1	-55.3	14.2	0.00e+00	0	28	0	596639744	71	4914
2026-01-04 04:43:17.67	355.74	23.89	-53.4	-55.8	14.0	0.00e+00	0	29	0	597688320	71	5168
2026-01-04 04:43:18.67	355.46	23.90	-53.7	-56.2	13.8	0.00e+00	0	29	0	599785472	72	5159
2026-01-04 04:43:19.67	355.18	23.91	-53.9	-56.6	13.7	0.00e+00	0	29	0	601882624	72	5363
2026-01-04 04:43:20.67	354.90	23.92	-53.7	-56.3	13.7	0.00e+00	0	29	0	603979776	72	5218
2026-01-04 04:43:21.67	354.61	23.93	-53.6	-56.3	13.8	0.00e+00	0	29	0	606076928	72	5172
2026-01-04 04:43:22.67	354.33	23.93	-53.5	-56.1	13.9	0.00e+00	0	29	0	607125504	72	5055
2026-01-04 04:43:23.67	354.05	23.94	-53.5	-56.1	13.9	0.00e+00	0	29	0	609222656	72	5044
2026-01-04 04:43:24.67	353.77	23.95	-53.6	-56.1	13.9	0.00e+00	0	29	0	611319808	72	5088
2026-01-04 04:43:25.67	353.48	23.95	-53.4	-56.0	13.9	0.00e+00	0	29	0	613416960	72	4998
2026-01-04 04:43:26.67	353.20	23.96	-53.2	-55.6	14.1	0.00e+00	0	29	0	615514112	72	4800
2026-01-04 04:43:27.67	352.92	23.96	-53.1	-55.5	14.2	0.00e+00	0	29	0	616562688	72	4718
2026-01-04 04:43:28.66	352.64	23.96	-52.4	-54.5	14.5	0.00e+00	0	29	0	618659840	71	4483
2026-01-04 04:43:29.64	352.36	23.97	-52.2	-54.2	14.5	0.00e+00	0	29	0	620756992	70	4598
2026-01-04 04:43:30.64	352.08	23.97	-52.1	-54.1	14.5	0.00e+00	0	28	0	622854144	70	4516
2026-01-04 04:43:31.63	351.80	23.97	-52.3	-54.4	14.4	0.00e+00	0	28	0	623902720	70	4701
2026-01-04 04:43:32.63	351.51	23.97	-52.6	-54.8	14.3	0.00e+00	0	29	0	625999872	70	4922
2026-01-04 04:43:33.64	351.23	23.97	-52.9	-55.2	14.2	0.00e+00	0	29	0	628097024	71	4869
2026-01-04 04:43:34.64	350.94	23.97	-53.1	-55.6	14.0	0.00e+00	0	29	0	630194176	71	5082
2026-01-04 04:43:35.64	350.66	23.97	-53.2	-55.6	14.0	0.00e+00	0	29	0	632291328	71	5093
2026-01-04 04:43:36.63	350.38	23.96	-52.8	-55.1	14.2	0.00e+00	0	29	0	633339904	71	4766
2026-01-04 04:43:37.62	350.10	23.96	-52.5	-54.7	14.4	0.00e+00	0	29	0	635437056	71	4571
2026-01-04 04:43:38.62	349.82	23.95	-52.3	-54.4	14.5	0.00e+00	0	29	0	637534208	71	4433
2026-01-04 04:43:39.61	349.54	23.95	-52.2	-54.3	14.5	0.00e+00	0	29	0	639631360	70	4617
2026-01-04 04:43:40.60	349.26	23.94	-52.3	-54.4	14.4	0.00e+00	0	29	0	641728512	70	4692
2026-01-04 04:43:41.60	348.97	23.94	-52.3	-54.4	14.5	0.00e+00	0	29	0	642777088	70	4657
2026-01-04 04:43:42.60	348.69	23.93	-52.3	-54.4	14.4	0.00e+00	0	29	0	644874240	70	4697
2026-01-04 04:43:43.60	348.41	23.92	-52.2	-54.2	14.5	0.00e+00	0	29	0	646971392	70	4574
2026-01-04 04:43:44.60	348.13	23.91	-52.3	-54.4	14.4	0.00e+00	0	29	0	649068544	70	4673
2026-01-04 04:43:45.61	347.84	23.90	-52.1	-54.2	14.5	0.00e+00	0	29	0	650117120	70	4546
2026-01-04 04:43:46.60	347.56	23.89	-52.1	-54.1	14.5	0.00e+00	0	29	0	652214272	70	4545
2026-01-04 04:43:47.60	347.28	23.88	-51.9	-53.8	14.7	0.00e+00	0	28	0	654311424	70	4381
2026-01-04 04:43:48.60	347.00	23.87	-51.6	-53.4	14.7	0.00e+00	0	29	0	656408576	69	4430
2026-01-04 04:43:49.60	346.72	23.86	-51.6	-53.4	14.8	0.00e+00	0	29	0	658505728	69	4420
2026-01-04 04:43:50.60	346.44	23.84	-52.0	-53.9	14.6	0.00e+00	0	29	0	659554304	69	4667
2026-01-04 04:43:51.60	346.16	23.83	-52.2	-54.2	14.4	0.00e+00	0	29	0	661651456	69	4835
2026-01-04 04:43:52.58	345.88	23.82	-52.4	-54.5	14.5	0.00e+00	0	29	0	663748608	70	4709
2026-01-04 04:43:53.58	345.60	23.80	-52.4	-54.4	14.5	0.00e+00	0	29	0	665845760	70	4659
2026-01-04 04:43:54.59	345.32	23.78	-52.1	-54.0	14.7	0.00e+00	0	29	0	666894336	70	4469
2026-01-04 04:43:55.59	345.04	23.77	-51.7	-53.5	14.8	0.00e+00	0	29	0	668991488	70	4215
2026-01-04 04:43:56.59	344.76	23.75	-51.7	-53.4	14.8	0.00e+00	0	29	0	671088640	69	4417
2026-01-04 04:43:57.59	344.48	23.73	-51.4	-53.1	14.9	0.00e+00	0	29	0	673185792	69	4252
2026-01-04 04:43:58.58	344.20	23.71	-51.4	-53.1	14.9	0.00e+00	0	29	0	675282944	69	4284
2026-01-04 04:43:59.58	343.93	23.69	-51.4	-53.1	14.9	0.00e+00	0	29	0	676331520	69	4273
2026-01-04 04:44:00.57	343.65	23.67	-51.3	-52.9	14.8	0.00e+00	0	29	0	678428672	68	4427
2026-01-04 04:44:01.57	343.37	23.65	-51.2	-52.8	14.9	0.00e+00	0	29	0	680525824	68	4360
2026-01-04 04:44:02.56	343.10	23.63	-51.0	-52.6	15.0	0.00e+00	0	29	0	682622976	68	4246
2026-01-04 04:44:03.56	342.82	23.61	-51.2	-52.8	14.9	0.00e+00	0	28	0	684720128	68	4367
2026-01-04 04:44:04.56	342.55	23.58	-51.3	-53.0	14.8	0.00e+00	0	29	0	685768704	68	4448
2026-01-04 04:44:05.55	342.27	23.56	-51.2	-52.9	14.9	0.00e+00	0	29	0	687865856	68	4395
2026-01-04 04:44:06.55	342.00	23.53	-51.2	-52.8	14.9	0.00e+00	0	29	0	689963008	68	4350
2026-01-04 04:44:07.54	341.72	23.51	-51.0	-52.5	15.0	0.00e+00	0	29	0	692060160	68	4237
2026-01-04 04:44:08.55	341.45	23.48	-51.0	-52.6	15.0	0.00e+00	0	29	0	694157312	68	4270
2026-01-04 04:44:09.55	341.17	23.45	-51.1	-52.7	14.9	0.00e+00	0	29	0	695205888	68	4321
2026-01-04 04:44:10.55	340.90	23.43	-51.3	-52.9	14.9	0.00e+00	0	28	0	697303040	68	4441
2026-01-04 04:44:11.55	340.63	23.40	-51.4	-53.0	14.8	0.00e+00	0	29	0	699400192	68	4473
2026-01-04 04:44:12.55	340.35	23.37	-51.5	-53.1	14.8	0.00e+00	0	29	0	701497344	68	4536
2026-01-04 04:44:13.54	340.08	23.34	-51.5	-53.2	14.7	0.00e+00	0	29	0	702545920	68	4588
2026-01-04 04:44:14.53	339.81	23.31	-51.8	-53.6	14.6	0.00e+00	0	28	0	704643072	68	4791
2026-01-04 04:44:15.53	339.54	23.28	-51.9	-53.7	14.7	0.00e+00	0	29	0	706740224	69	4564
2026-01-04 04:44:16.54	339.27	23.25	-51.8	-53.5	14.7	0.00e+00	0	29	0	708837376	69	4462
2026-01-04 04:44:17.54	339.00	23.22	-51.7	-53.3	14.8	0.00e+00	0	28	0	710934528	69	4383
2026-01-04 04:44:18.54	338.73	23.18	-51.6	-53.3	14.8	0.00e+00	0	29	0	711983104	69	4350
2026-01-04 04:44:19.54	338.46	23.15	-51.5	-53.1	14.9	0.00e+00	0	28	0	714080256	69	4276
2026-01-04 04:44:20.54	338.19	23.12	-51.5	-53.2	14.8	0.00e+00	0	28	0	716177408	69	4320
2026-01-04 04:44:21.55	337.92	23.08	-52.0	-53.7	14.7	0.00e+00	0	29	0	718274560	69	4579
2026-01-04 04:44:22.55	337.66	23.05	-52.0	-53.8	14.6	0.00e+00	0	28	0	720371712	69	4648
2026-01-04 04:44:23.55	337.39	23.01	-51.9	-53.7	14.6	0.00e+00	0	28	0	721420288	69	4557
2026-01-04 04:44:24.54	337.13	22.97	-51.7	-53.4	14.8	0.00e+00	0	28	0	723517440	69	4423
2026-01-04 04:44:25.54	336.86	22.94	-51.6	-53.3	14.8	0.00e+00	0	29	0	725614592	69	4384
2026-01-04 04:44:26.54	336.60	22.90	-51.5	-53.2	14.9	0.00e+00	0	29	0	727711744	69	4297
2026-01-04 04:44:27.54	336.33	22.86	-51.8	-53.6	14.7	0.00e+00	0	29	0	728760320	69	4502
2026-01-04 04:44:28.54	336.07	22.82	-51.9	-53.7	14.7	0.00e+00	0	29	0	730857472	69	4586
2026-01-04 04:44:29.54	335.81	22.78	-52.2	-54.0	14.6	0.00e+00	0	29	0	732954624	69	4739
2026-01-04 04:44:30.53	335.55	22.74	-52.0	-53.9	14.6	0.00e+00	0	29	0	735051776	69	4673
2026-01-04 04:44:31.53	335.29	22.70	-52.2	-54.1	14.5	0.00e+00	0	29	0	737148928	69	4775
2026-01-04 04:44:32.53	335.03	22.66	-52.3	-54.2	14.6	0.00e+00	0	28	0	738197504	70	4580
2026-01-04 04:44:33.54	334.76	22.62	-52.3	-54.2	14.6	0.00e+00	0	29	0	740294656	70	4563
2026-01-04 04:44:34.54	334.50	22.57	-52.2	-54.1	14.6	0.00e+00	0	29	0	742391808	70	4538
2026-01-04 04:44:35.53	334.25	22.53	-52.5	-54.5	14.5	0.00e+00	0	29	0	744488960	70	4706
2026-01-04 04:44:36.54	333.99	22.49	-52.6	-54.7	14.4	0.00e+00	0	29	0	745537536	70	4824
2026-01-04 04:44:37.53	333.73	22.44	-52.7	-54.8	14.3	0.00e+00	0	29	0	747634688	70	4872
2026-01-04 04:44:38.53	333.48	22.40	-52.8	-55.0	14.3	0.00e+00	0	29	0	749731840	70	5017
2026-01-04 04:44:39.53	333.22	22.35	-52.8	-55.0	14.4	0.00e+00	0	29	0	751828992	71	4708
2026-01-04 04:44:40.53	332.97	22.31	-52.8	-55.0	14.3	0.00e+00	0	29	0	753926144	71	4731
2026-01-04 04:44:41.53	332.71	22.26	-52.7	-54.8	14.4	0.00e+00	0	29	0	754974720	71	4620
2026-01-04 04:44:42.53	332.46	22.22	-52.8	-55.0	14.3	0.00e+00	0	29	0	757071872	71	4711
2026-01-04 04:44:43.52	332.21	22.17	-52.6	-54.7	14.4	0.00e+00	0	29	0	759169024	71	4589
2026-01-04 04:44:44.52	331.96	22.12	-52.8	-55.0	14.3	0.00e+00	0	29	0	761266176	71	4727
2026-01-04 04:44:45.52	331.71	22.07	-52.9	-55.1	14.3	7.60e-06	0	29	0	763363328	71	4775
2026-01-04 04:44:46.52	331.46	22.02	-53.0	-55.3	14.2	0.00e+00	0	29	0	764411904	71	4873
2026-01-04 04:44:47.53	331.20	21.97	-53.3	-55.6	14.0	0.00e+00	0	29	0	766509056	71	5098
2026-01-04 04:44:48.53	330.96	21.92	-53.3	-55.8	14.0	0.00e+00	0	28	0	768606208	71	5164
2026-01-04 04:44:49.53	330.71	21.87	-53.0	-55.3	14.2	0.00e+00	0	29	0	770703360	71	4892
2026-01-04 04:44:50.52	330.46	21.82	-52.8	-55.0	14.3	0.00e+00	0	29	0	772800512	71	4715
2026-01-04 04:44:51.51	330.22	21.77	-52.5	-54.6	14.5	0.00e+00	0	29	0	773849088	71	4510
2026-01-04 04:44:52.51	329.97	21.72	-52.3	-54.3	14.6	0.00e+00	0	29	0	775946240	71	4388
2026-01-04 04:44:53.51	329.73	21.67	-52.3	-54.3	14.6	0.00e+00	0	29	0	778043392	71	4374
2026-01-04 04:44:54.52	329.48	21.62	-52.4	-54.4	14.6	0.00e+00	0	29	0	780140544	71	4392
2026-01-04 04:44:55.52	329.24	21.56	-52.3	-54.3	14.6	0.00e+00	0	29	0	781189120	71	4359
2026-01-04 04:44:56.52	329.00	21.51	-52.3	-54.3	14.6	0.00e+00	0	29	0	783286272	71	4367
2026-01-04 04:44:57.51	328.76	21.46	-52.0	-54.0	14.6	0.00e+00	0	29	0	785383424	70	4455
2026-01-04 04:44:58.50	328.52	21.40	-52.2	-54.2	14.5	0.00e+00	0	29	0	787480576	70	4593
2026-01-04 04:44:59.50	328.28	21.35	-52.3	-54.4	14.5	0.00e+00	0	29	0	789577728	70	4677
2026-01-04 04:45:00.50	328.04	21.29	-52.6	-54.8	14.3	0.00e+00	0	28	0	790626304	70	4872
2026-01-04 04:45:01.49	327.81	21.24	-52.9	-55.1	14.2	0.00e+00	0	29	0	792723456	70	5088
2026-01-04 04:45:02.49	327.57	21.18	-53.1	-55.5	14.1	0.00e+00	0	29	0	794820608	71	5006
2026-01-04 04:45:03.49	327.34	21.13	-53.4	-55.8	14.0	0.00e+00	0	29	0	796917760	71	5195
2026-01-04 04:45:04.48	327.10	21.07	-53.4	-55.8	14.0	0.00e+00	0	29	0	797966336	71	5196
2026-01-04 04:45:05.48	326.87	21.01	-53.3	-55.7	14.0	0.00e+00	0	29	0	800063488	71	5134
2026-01-04 04:45:06.48	326.64	20.96	-53.4	-55.9	13.9	0.00e+00	0	29	0	802160640	71	5238
2026-01-04 04:45:07.47	326.41	20.90	-53.3	-55.7	14.0	0.00e+00	0	29	0	804257792	71	5115
2026-01-04 04:45:08.47	326.17	20.84	-53.3	-55.8	14.0	0.00e+00	0	29	0	806354944	71	5186
2026-01-04 04:45:09.47	325.94	20.78	-53.6	-56.2	13.9	0.00e+00	0	29	0	807403520	72	5115
2026-01-04 04:45:10.47	325.71	20.72	-53.8	-56.6	13.7	0.00e+00	0	28	0	809500672	72	5367
2026-01-04 04:45:11.47	325.48	20.66	-54.2	-57.2	13.5	0.00e+00	0	29	0	811597824	73	5434
2026-01-04 04:45:12.47	325.26	20.60	-54.4	-57.6	13.2	0.00e+00	0	29	0	813694976	73	5697
2026-01-04 04:45:13.47	325.03	20.55	-54.5	-57.8	13.2	0.00e+00	0	29	0	815792128	74	5497
2026-01-04 04:45:14.47	324.80	20.48	-54.1	-57.0	13.6	0.00e+00	0	29	0	816840704	74	5015
2026-01-04 04:45:15.47	324.58	20.42	-53.8	-56.5	13.9	0.00e+00	0	29	0	818937856	74	4746
2026-01-04 04:45:16.48	324.35	20.36	-53.2	-55.7	14.2	0.00e+00	0	29	0	821035008	73	4555
2026-01-04 04:45:17.48	324.13	20.30	-53.1	-55.4	14.2	0.00e+00	0	29	0	823132160	72	4703
2026-01-04 04:45:18.48	323.90	20.24	-52.8	-55.0	14.4	0.00e+00	0	29	0	824180736	72	4490
2026-01-04 04:45:19.47	323.68	20.18	-52.4	-54.5	14.5	0.00e+00	0	29	0	826277888	71	4490
2026-01-04 04:45:20.47	323.46	20.12	-52.5	-54.6	14.5	0.00e+00	0	29	0	828375040	71	4514
2026-01-04 04:45:21.46	323.25	20.06	-52.2	-54.3	14.5	0.00e+00	0	29	0	830472192	70	4623
2026-01-04 04:45:22.46	323.03	19.99	-52.0	-54.0	14.6	0.00e+00	0	29	0	832569344	70	4445
2026-01-04 04:45:23.46	322.81	19.93	-52.1	-54.1	14.5	0.00e+00	0	28	0	833617920	70	4539
2026-01-04 04:45:24.46	322.59	19.87	-52.1	-54.1	14.5	0.00e+00	0	29	0	835715072	70	4525
2026-01-04 04:45:25.46	322.38	19.80	-51.9	-53.8	14.7	0.00e+00	0	28	0	837812224	70	4366
2026-01-04 04:45:26.46	322.16	19.74	-52.0	-53.9	14.6	0.00e+00	0	29	0	839909376	70	4436
2026-01-04 04:45:27.46	321.95	19.68	-51.9	-53.9	14.7	0.00e+00	0	29	0	842006528	70	4399
2026-01-04 04:45:28.46	321.73	19.61	-51.9	-53.7	14.7	0.00e+00	0	29	0	843055104	70	4333
2026-01-04 04:45:29.46	321.52	19.55	-51.7	-53.6	14.8	0.00e+00	0	29	0	845152256	70	4254
2026-01-04 04:45:30.46	321.31	19.48	-51.4	-53.3	14.8	0.00e+00	0	29	0	847249408	69	4343
2026-01-04 04:45:31.46	321.10	19.42	-51.3	-53.1	14.8	0.00e+00	0	29	0	849346560	69	4279
2026-01-04 04:45:32.46	320.89	19.35	-51.2	-53.0	14.9	0.00e+00	0	29	0	851443712	69	4204
2026-01-04 04:45:33.46	320.68	19.29	-51.2	-53.0	14.8	0.00e+00	0	29	0	852492288	68	4449
2026-01-04 04:45:34.47	320.47	19.22	-51.4	-53.2	14.6	0.00e+00	0	29	0	854589440	68	4578
2026-01-04 04:45:35.47	320.26	19.15	-51.7	-53.6	14.6	0.00e+00	0	29	0	856686592	68	4797
2026-01-04 04:45:36.47	320.05	19.09	-52.0	-54.0	14.5	0.00e+00	0	29	0	858783744	69	4729
2026-01-04 04:45:37.47	319.85	19.02	-52.4	-54.6	14.3	0.00e+00	0	29	0	859832320	69	5064
2026-01-04 04:45:38.47	319.64	18.95	-52.7	-54.9	14.2	0.00e+00	0	28	0	861929472	70	4972
2026-01-04 04:45:39.47	319.44	18.89	-52.8	-55.2	14.1	0.00e+00	0	29	0	864026624	70	5114
2026-01-04 04:45:40.48	319.23	18.82	-53.1	-55.5	14.0	0.00e+00	0	29	0	866123776	71	5039
2026-01-04 04:45:41.47	319.03	18.75	-53.3	-55.9	13.9	0.00e+00	0	29	0	868220928	71	5246
2026-01-04 04:45:42.48	318.83	18.69	-53.2	-55.7	14.0	0.00e+00	0	29	0	869269504	71	5142
2026-01-04 04:45:43.48	318.63	18.62	-53.0	-55.5	14.0	0.00e+00	0	29	0	871366656	71	5006
2026-01-04 04:45:44.48	318.43	18.55	-52.9	-55.2	14.2	0.00e+00	0	29	0	873463808	71	4862
2026-01-04 04:45:45.49	318.23	18.48	-52.8	-55.1	14.2	0.00e+00	0	29	0	875560960	71	4786
2026-01-04 04:45:46.49	318.03	18.41	-52.7	-55.0	14.3	0.00e+00	0	29	0	877658112	71	4745
2026-01-04 04:45:47.48	317.84	18.35	-52.7	-54.9	14.3	0.00e+00	0	29	0	878706688	71	4705
2026-01-04 04:45:48.48	317.64	18.28	-52.6	-54.9	14.3	0.00e+00	0	29	0	880803840	71	4656
2026-01-04 04:45:49.48	317.45	18.21	-52.1	-54.2	14.6	0.00e+00	0	29	0	882900992	70	4583
2026-01-04 04:45:50.48	317.26	18.14	-51.9	-53.9	14.6	0.00e+00	0	29	0	884998144	70	4429
2026-01-04 04:45:51.48	317.06	18.07	-51.6	-53.6	14.7	0.00e+00	0	29	0	887095296	69	4508
2026-01-04 04:45:52.48	316.87	18.00	-51.5	-53.4	14.7	0.00e+00	0	29	0	888143872	69	4426
2026-01-04 04:45:53.48	316.68	17.93	-51.5	-53.3	14.8	0.00e+00	0	29	0	890241024	69	4380
2026-01-04 04:45:54.49	316.49	17.86	-51.6	-53.5	14.7	0.00e+00	0	29	0	892338176	69	4443
2026-01-04 04:45:55.49	316.30	17.79	-51.8	-53.7	14.6	0.00e+00	0	29	0	894435328	69	4586
2026-01-04 04:45:56.48	316.11	17.73	-52.1	-54.1	14.5	0.00e+00	0	29	0	895483904	69	4806
2026-01-04 04:45:57.48	315.92	17.66	-52.4	-54.6	14.4	0.00e+00	0	29	0	897581056	70	4788
2026-01-04 04:45:58.47	315.74	17.59	-52.6	-54.8	14.3	0.00e+00	0	29	0	899678208	70	4889
2026-01-04 04:45:59.46	315.56	17.52	-52.5	-54.7	14.3	0.00e+00	0	29	0	901775360	70	4825
2026-01-04 04:46:00.46	315.37	17.45	-52.4	-54.6	14.4	0.00e+00	0	29	0	903872512	70	4789
2026-01-04 04:46:01.46	315.19	17.38	-52.3	-54.4	14.4	0.00e+00	0	29	0	904921088	70	4683
2026-01-04 04:46:02.45	315.00	17.31	-52.2	-54.2	14.5	0.00e+00	0	29	0	907018240	70	4588
2026-01-04 04:46:03.45	314.82	17.24	-52.3	-54.4	14.4	0.00e+00	0	29	0	909115392	70	4700
2026-01-04 04:46:04.45	314.64	17.17	-52.5	-54.6	14.4	0.00e+00	0	29	0	911212544	70	4808
2026-01-04 04:46:05.44	314.46	17.10	-52.6	-54.8	14.3	0.00e+00	0	29	0	913309696	70	4907
2026-01-04 04:46:06.44	314.28	17.03	-52.7	-55.0	14.2	0.00e+00	0	29	0	914358272	70	5010
2026-01-04 04:46:07.44	314.10	16.96	-52.8	-55.0	14.2	0.00e+00	0	28	0	916455424	70	5024
2026-01-04 04:46:08.44	313.92	16.89	-52.7	-55.0	14.2	0.00e+00	0	29	0	918552576	70	4990
2026-01-04 04:46:09.44	313.75	16.82	-52.6	-54.8	14.3	0.00e+00	0	29	0	920649728	70	4908
2026-01-04 04:46:10.44	313.57	16.74	-52.6	-54.7	14.3	0.00e+00	0	29	0	921698304	70	4863
2026-01-04 04:46:11.43	313.40	16.67	-52.6	-54.7	14.3	0.00e+00	0	29	0	923795456	70	4834
2026-01-04 04:46:12.43	313.22	16.60	-52.5	-54.6	14.4	0.00e+00	0	29	0	925892608	70	4762
2026-01-04 04:46:13.43	313.05	16.53	-52.4	-54.4	14.4	0.00e+00	0	29	0	927989760	70	4686
2026-01-04 04:46:14.43	312.88	16.46	-52.1	-54.1	14.6	0.00e+00	0	29	0	930086912	70	4524
2026-01-04 04:46:15.43	312.70	16.39	-52.1	-54.1	14.6	0.00e+00	0	29	0	931135488	70	4497
2026-01-04 04:46:16.43	312.53	16.32	-51.9	-53.8	14.7	0.00e+00	0	29	0	933232640	70	4355
2026-01-04 04:46:17.43	312.36	16.25	-51.9	-53.8	14.7	0.00e+00	0	29	0	935329792	70	4346
2026-01-04 04:46:18.43	312.19	16.18	-51.9	-53.7	14.7	0.00e+00	0	28	0	937426944	70	4328
2026-01-04 04:46:19.43	312.02	16.10	-52.0	-53.9	14.7	0.00e+00	0	28	0	938475520	70	4394
2026-01-04 04:46:20.43	311.85	16.03	-52.2	-54.2	14.5	0.00e+00	0	29	0	940572672	70	4568
2026-01-04 04:46:21.43	311.69	15.96	-52.1	-54.0	14.6	0.00e+00	0	29	0	942669824	70	4485
2026-01-04 04:46:22.43	311.52	15.89	-52.1	-54.0	14.6	0.00e+00	0	29	0	944766976	70	4470
2026-01-04 04:46:23.43	311.35	15.82	-52.1	-54.0	14.6	0.00e+00	0	29	0	946864128	70	4457
2026-01-04 04:46:24.43	311.19	15.75	-51.9	-53.7	14.7	0.00e+00	0	29	0	947912704	70	4340
2026-01-04 04:46:25.44	311.02	15.67	-51.6	-53.3	14.8	0.00e+00	0	29	0	950009856	69	4362
2026-01-04 04:46:26.44	310.86	15.60	-51.3	-53.0	14.9	0.00e+00	0	29	0	952107008	69	4229
2026-01-04 04:46:27.44	310.70	15.53	-51.3	-52.9	15.0	0.00e+00	0	29	0	954204160	69	4183
2026-01-04 04:46:28.43	310.54	15.46	-51.4	-53.0	14.9	0.00e+00	0	29	0	956301312	69	4225
2026-01-04 04:46:29.43	310.38	15.39	-51.5	-53.2	14.8	0.00e+00	0	29	0	957349888	69	4318
2026-01-04 04:46:30.42	310.22	15.32	-51.5	-53.2	14.8	0.00e+00	0	29	0	959447040	69	4309
2026-01-04 04:46:31.42	310.06	15.24	-51.5	-53.2	14.8	0.00e+00	0	28	0	961544192	69	4312
2026-01-04 04:46:32.41	309.90	15.17	-51.5	-53.2	14.8	0.00e+00	0	29	0	963641344	69	4339
2026-01-04 04:46:33.41	309.74	15.10	-51.7	-53.5	14.7	0.00e+00	0	29	0	965738496	69	4462
2026-01-04 04:46:34.40	309.59	15.03	-51.7	-53.5	14.7	0.00e+00	0	29	0	966787072	69	4468
2026-01-04 04:46:35.40	309.43	14.96	-51.9	-53.7	14.7	0.00e+00	0	29	0	968884224	69	4575
2026-01-04 04:46:36.40	309.28	14.89	-51.9	-53.7	14.6	0.00e+00	0	29	0	970981376	69	4565
2026-01-04 04:46:37.39	309.12	14.82	-52.0	-53.8	14.6	0.00e+00	0	29	0	973078528	69	4632
2026-01-04 04:46:38.40	308.97	14.74	-52.0	-53.8	14.6	0.00e+00	0	28	0	974127104	69	4634
2026-01-04 04:46:39.40	308.81	14.67	-52.0	-53.8	14.6	0.00e+00	0	29	0	976224256	69	4639
2026-01-04 04:46:40.40	308.66	14.60	-51.8	-53.5	14.7	0.00e+00	0	29	0	978321408	69	4485
2026-01-04 04:46:41.40	308.51	14.53	-51.7	-53.5	14.7	0.00e+00	0	29	0	980418560	69	4459
2026-01-04 04:46:42.39	308.36	14.46	-51.7	-53.4	14.7	0.00e+00	0	29	0	982515712	69	4431
2026-01-04 04:46:43.39	308.21	14.39	-51.5	-53.1	14.8	0.00e+00	0	29	0	983564288	69	4280
2026-01-04 04:46:44.40	308.06	14.31	-51.4	-53.1	14.9	0.00e+00	0	29	0	985661440	69	4244
2026-01-04 04:46:45.39	307.91	14.24	-51.5	-53.2	14.8	0.00e+00	0	29	0	987758592	69	4323
2026-01-04 04:46:46.40	307.76	14.17	-51.8	-53.6	14.7	0.00e+00	0	29	0	989855744	69	4494
2026-01-04 04:46:47.40	307.61	14.10	-52.0	-53.9	14.6	0.00e+00	0	29	0	991952896	69	4664
2026-01-04 04:46:48.41	307.47	14.03	-52.2	-54.1	14.5	0.00e+00	0	29	0	993001472	69	4803
2026-01-04 04:46:49.41	307.32	13.95	-52.5	-54.5	14.4	0.00e+00	0	29	0	995098624	70	4735
2026-01-04 04:46:50.40	307.18	13.88	-52.5	-54.5	14.4	0.00e+00	0	29	0	997195776	70	4740
2026-01-04 04:46:51.40	307.03	13.81	-52.5	-54.6	14.4	0.00e+00	0	29	0	999292928	70	4763
2026-01-04 04:46:52.40	306.89	13.74	-52.4	-54.4	14.4	0.00e+00	0	29	0	1000341504	70	4688
2026-01-04 04:46:53.40	306.74	13.67	-52.5	-54.5	14.4	0.00e+00	0	29	0	1002438656	70	4731
2026-01-04 04:46:54.39	306.60	13.60	-52.4	-54.4	14.4	0.00e+00	0	29	0	1004535808	70	4673
2026-01-04 04:46:55.39	306.46	13.53	-52.3	-54.2	14.5	0.00e+00	0	29	0	1006632960	70	4572
2026-01-04 04:46:56.39	306.32	13.45	-52.3	-54.3	14.5	0.00e+00	0	29	0	1008730112	70	4620
2026-01-04 04:46:57.38	306.18	13.38	-52.3	-54.2	14.5	0.00e+00	0	29	0	1009778688	70	4564
2026-01-04 04:46:58.39	306.04	13.31	-52.2	-54.1	14.6	0.00e+00	0	29	0	1011875840	70	4502
2026-01-04 04:46:59.38	305.90	13.24	-52.2	-54.0	14.6	0.00e+00	0	29	0	1013972992	70	4488
2026-01-04 04:47:00.38	305.77	13.17	-51.8	-53.6	14.7	0.00e+00	0	29	0	1016070144	70	4258
2026-01-04 04:47:01.39	305.63	13.10	-51.6	-53.3	14.8	0.00e+00	0	29	0	1017118720	69	4391
2026-01-04 04:47:02.38	305.49	13.03	-51.5	-53.2	14.8	0.00e+00	0	29	0	1019215872	69	4338
2026-01-04 04:47:03.39	305.35	12.95	-51.5	-53.2	14.8	0.00e+00	0	29	0	1021313024	69	4306
2026-01-04 04:47:04.38	305.22	12.88	-51.6	-53.3	14.8	0.00e+00	0	29	0	1023410176	69	4368
2026-01-04 04:47:05.38	305.08	12.81	-51.9	-53.7	14.6	0.00e+00	0	29	0	1025507328	69	4590
2026-01-04 04:47:06.38	304.95	12.74	-52.1	-54.0	14.5	0.00e+00	0	29	0	1026555904	69	4718
2026-01-04 04:47:07.37	304.82	12.67	-52.3	-54.3	14.4	0.00e+00	0	29	0	1028653056	69	4890
2026-01-04 04:47:08.36	304.69	12.60	-52.6	-54.7	14.3	0.00e+00	0	29	0	1030750208	70	4823
2026-01-04 04:47:09.37	304.55	12.53	-53.0	-55.1	14.3	0.00e+00	0	29	0	1032847360	71	4782
2026-01-04 04:47:10.36	304.42	12.46	-53.0	-55.2	14.2	0.00e+00	0	29	0	1034944512	71	4836
2026-01-04 04:47:11.36	304.29	12.39	-53.2	-55.4	14.1	0.00e+00	0	29	0	1035993088	71	4931
2026-01-04 04:47:12.36	304.16	12.32	-53.2	-55.5	14.0	0.00e+00	0	29	0	1038090240	71	4999
2026-01-04 04:47:13.36	304.03	12.25	-53.0	-55.2	14.2	0.00e+00	0	29	0	1040187392	71	4828
2026-01-04 04:47:14.36	303.90	12.18	-52.8	-54.8	14.3	0.00e+00	0	29	0	1042284544	71	4627
2026-01-04 04:47:15.36	303.77	12.11	-52.5	-54.5	14.4	0.00e+00	0	28	0	1044381696	71	4456
2026-01-04 04:47:16.36	303.65	12.04	-52.4	-54.3	14.5	0.00e+00	0	29	0	1045430272	71	4372
2026-01-04 04:47:17.37	303.52	11.96	-52.3	-54.2	14.6	0.00e+00	0	29	0	1047527424	71	4323
2026-01-04 04:47:18.36	303.39	11.90	-52.1	-54.0	14.6	0.00e+00	0	29	0	1049624576	70	4454
2026-01-04 04:47:19.36	303.27	11.82	-52.1	-54.0	14.5	0.00e+00	0	28	0	1051721728	70	4488
2026-01-04 04:47:20.36	303.14	11.75	-52.0	-53.9	14.6	0.00e+00	0	29	0	1052770304	70	4415
2026-01-04 04:47:21.36	303.02	11.68	-52.2	-54.2	14.5	0.00e+00	0	29	0	1054867456	70	4556
2026-01-04 04:47:22.36	302.89	11.61	-52.1	-54.1	14.5	0.00e+00	0	29	0	1056964608	70	4524
2026-01-04 04:47:23.36	302.77	11.54	-52.4	-54.3	14.4	0.00e+00	0	29	0	1059061760	70	4625
2026-01-04 04:47:24.36	302.65	11.47	-52.4	-54.4	14.4	0.00e+00	0	29	0	1061158912	70	4682
2026-01-04 04:47:25.36	302.52	11.40	-52.3	-54.2	14.5	0.00e+00	0	29	0	1062207488	70	4578
2026-01-04 04:47:26.36	302.40	11.33	-52.3	-54.3	14.5	0.00e+00	0	29	0	1064304640	70	4605
2026-01-04 04:47:27.36	302.28	11.26	-52.5	-54.4	14.4	0.00e+00	0	29	0	1066401792	70	4691
2026-01-04 04:47:28.35	302.16	11.20	-52.6	-54.6	14.3	0.00e+00	0	29	0	1068498944	70	4794
2026-01-04 04:47:29.34	302.04	11.13	-52.5	-54.5	14.3	0.00e+00	0	29	0	1070596096	70	4739
2026-01-04 04:47:30.35	301.92	11.06	-52.6	-54.7	14.3	0.00e+00	0	29	0	1071644672	70	4826
2026-01-04 04:47:31.35	301.80	10.99	-52.7	-54.8	14.3	0.00e+00	0	29	0	1073741824	70	4872
2026-01-04 04:47:32.35	301.69	10.92	-52.8	-54.9	14.2	0.00e+00	0	29	0	1075838976	70	4982
2026-01-04 04:47:33.35	301.57	10.85	-53.1	-55.3	14.1	0.00e+00	0	29	0	1077936128	71	4882
2026-01-04 04:47:34.35	301.45	10.78	-53.0	-55.3	14.1	0.00e+00	0	29	0	1080033280	71	4875
2026-01-04 04:47:35.36	301.33	10.71	-53.1	-55.4	14.1	0.00e+00	0	29	0	1081081856	71	4939
2026-01-04 04:47:36.35	301.22	10.64	-53.0	-55.2	14.2	0.00e+00	0	29	0	1083179008	71	4818
2026-01-04 04:47:37.34	301.10	10.57	-53.3	-55.7	14.0	0.00e+00	0	29	0	1085276160	71	5107
2026-01-04 04:47:38.35	300.99	10.50	-53.1	-55.3	14.1	0.00e+00	0	29	0	1087373312	71	4898
2026-01-04 04:47:39.36	300.87	10.43	-53.2	-55.4	14.0	0.00e+00	0	29	0	1088421888	71	4965
2026-01-04 04:47:40.36	300.76	10.36	-53.2	-55.5	14.1	0.00e+00	0	29	0	1090519040	71	4991
2026-01-04 04:47:41.36	300.65	10.30	-53.1	-55.4	14.1	0.00e+00	0	29	0	1092616192	71	4933
2026-01-04 04:47:42.36	300.53	10.23	-53.2	-55.5	14.0	0.00e+00	0	29	0	1094713344	71	5032
2026-01-04 04:47:43.36	300.42	10.16	-53.3	-55.7	13.9	0.00e+00	0	29	0	1096810496	71	5137
2026-01-04 04:47:44.36	300.31	10.09	-53.6	-56.1	13.8	0.00e+00	0	29	0	1097859072	72	5087
2026-01-04 04:47:45.36	300.20	10.02	-53.6	-56.1	13.8	0.00e+00	0	29	0	1099956224	72	5052
2026-01-04 04:47:46.36	300.09	9.95	-53.8	-56.4	13.7	0.00e+00	0	29	0	1102053376	72	5243
2026-01-04 04:47:47.36	299.98	9.89	-53.9	-56.5	13.7	0.00e+00	0	29	0	1104150528	73	5001
2026-01-04 04:47:48.36	299.87	9.82	-53.9	-56.5	13.6	0.00e+00	0	29	0	1106247680	73	5039
2026-01-04 04:47:49.37	299.76	9.75	-54.1	-56.8	13.5	0.00e+00	0	29	0	1107296256	73	5178
2026-01-04 04:47:50.37	299.65	9.68	-53.9	-56.5	13.7	0.00e+00	0	29	0	1109393408	73	4994
2026-01-04 04:47:51.38	299.54	9.61	-53.9	-56.5	13.7	0.00e+00	0	29	0	1111490560	73	4984
2026-01-04 04:47:52.38	299.43	9.54	-53.6	-56.0	13.9	0.00e+00	0	29	0	1113587712	73	4757
2026-01-04 04:47:53.38	299.33	9.48	-53.7	-56.1	13.9	0.00e+00	0	29	0	1114636288	73	4780
2026-01-04 04:47:54.38	299.22	9.41	-53.4	-55.8	14.0	0.00e+00	0	29	0	1116733440	73	4606
2026-01-04 04:47:55.38	299.11	9.34	-53.2	-55.4	14.2	0.00e+00	0	29	0	1118830592	73	4440
2026-01-04 04:47:56.38	299.01	9.27	-53.4	-55.7	14.0	0.00e+00	0	28	0	1120927744	73	4574
2026-01-04 04:47:57.38	298.90	9.21	-53.2	-55.5	14.1	0.00e+00	0	29	0	1123024896	72	4715
2026-01-04 04:47:58.37	298.80	9.14	-53.2	-55.4	14.1	0.00e+00	0	29	0	1124073472	72	4697
2026-01-04 04:47:59.37	298.70	9.07	-53.1	-55.3	14.1	0.00e+00	0	29	0	1126170624	72	4632
2026-01-04 04:48:00.38	298.59	9.01	-53.1	-55.3	14.1	0.00e+00	0	29	0	1128267776	72	4599
2026-01-04 04:48:01.38	298.49	8.94	-53.1	-55.2	14.2	0.00e+00	0	29	0	1130364928	72	4597
2026-01-04 04:48:02.38	298.39	8.87	-53.1	-55.3	14.1	0.00e+00	0	28	0	1132462080	72	4630
2026-01-04 04:48:03.38	298.29	8.81	-53.3	-55.6	14.0	0.00e+00	0	29	0	1133510656	72	4764
2026-01-04 04:48:04.38	298.18	8.74	-53.3	-55.5	14.1	0.00e+00	0	29	0	1135607808	72	4733
2026-01-04 04:48:05.37	298.09	8.67	-53.5	-55.9	13.9	0.00e+00	0	29	0	1137704960	72	4955
2026-01-04 04:48:06.37	297.98	8.61	-53.5	-55.9	13.9	0.00e+00	0	29	0	1139802112	72	4935
2026-01-04 04:48:07.36	297.89	8.54	-53.4	-55.7	14.0	0.00e+00	0	29	0	1141899264	72	4846
2026-01-04 04:48:08.36	297.79	8.47	-53.5	-55.9	13.9	0.00e+00	0	29	0	1142947840	72	4968
2026-01-04 04:48:09.35	297.69	8.41	-53.4	-55.7	13.9	0.00e+00	0	29	0	1145044992	72	4859
2026-01-04 04:48:10.35	297.59	8.34	-53.5	-55.9	13.9	0.00e+00	0	29	0	1147142144	72	4934
2026-01-04 04:48:11.35	297.49	8.28	-53.3	-55.6	14.0	0.00e+00	0	29	0	1149239296	72	4779
2026-01-04 04:48:12.35	297.39	8.21	-53.4	-55.6	14.0	0.00e+00	0	29	0	1150287872	72	4814
2026-01-04 04:48:13.35	297.30	8.14	-53.3	-55.6	14.0	0.00e+00	0	29	0	1152385024	72	4766
2026-01-04 04:48:14.35	297.20	8.08	-53.3	-55.5	14.1	0.00e+00	0	29	0	1154482176	72	4733
2026-01-04 04:48:15.35	297.10	8.01	-53.1	-55.3	14.1	0.00e+00	0	29	0	1156579328	72	4634
2026-01-04 04:48:16.35	297.01	7.95	-53.1	-55.2	14.2	0.00e+00	0	29	0	1158676480	72	4590
2026-01-04 04:48:17.34	296.91	7.88	-53.2	-55.5	14.0	0.00e+00	0	29	0	1159725056	72	4723
2026-01-04 04:48:18.35	296.82	7.82	-53.3	-55.5	14.0	0.00e+00	0	29	0	1161822208	72	4750
2026-01-04 04:48:19.35	296.72	7.75	-53.3	-55.6	14.0	0.00e+00	0	29	0	1163919360	72	4764
2026-01-04 04:48:20.35	296.63	7.69	-53.4	-55.7	13.9	0.00e+00	0	29	0	1166016512	72	4835
2026-01-04 04:48:21.36	296.53	7.62	-53.3	-55.6	14.0	0.00e+00	0	29	0	1168113664	72	4778
2026-01-04 04:48:22.35	296.44	7.56	-53.4	-55.7	13.9	0.00e+00	0	29	0	1169162240	72	4859
2026-01-04 04:48:23.35	296.35	7.49	-53.5	-55.9	13.8	0.00e+00	0	29	0	1171259392	72	4971
2026-01-04 04:48:24.35	296.26	7.43	-53.7	-56.2	13.7	0.00e+00	0	29	0	1173356544	72	5155
2026-01-04 04:48:25.35	296.16	7.36	-53.8	-56.3	13.6	0.00e+00	0	29	0	1175453696	72	5208
2026-01-04 04:48:26.35	296.07	7.30	-53.8	-56.4	13.5	0.00e+00	0	29	0	1176502272	72	5270
2026-01-04 04:48:27.35	295.98	7.23	-54.0	-56.7	13.5	0.00e+00	0	29	0	1178599424	73	5134
2026-01-04 04:48:28.35	295.89	7.17	-54.1	-56.8	13.4	0.00e+00	0	28	0	1180696576	73	5210
2026-01-04 04:48:29.35	295.80	7.10	-54.1	-56.9	13.4	0.00e+00	0	29	0	1182793728	73	5238
2026-01-04 04:48:30.36	295.71	7.04	-54.3	-57.1	13.2	0.00e+00	0	29	0	1184890880	73	5389
2026-01-04 04:48:31.35	295.62	6.97	-54.4	-57.3	13.2	0.00e+00	0	29	0	1185939456	74	5206
2026-01-04 04:48:32.35	295.53	6.91	-54.5	-57.5	13.1	0.00e+00	0	29	0	1188036608	74	5287
2026-01-04 04:48:33.35	295.44	6.85	-54.7	-57.8	12.9	0.00e+00	0	29	0	1190133760	74	5493
2026-01-04 04:48:34.35	295.36	6.78	-54.8	-58.0	12.9	0.00e+00	0	29	0	1192230912	74	5600
2026-01-04 04:48:35.35	295.27	6.72	-54.7	-57.9	12.9	0.00e+00	0	29	0	1194328064	74	5562
2026-01-04 04:48:36.35	295.18	6.65	-54.8	-58.1	12.7	0.00e+00	0	29	0	1195376640	74	5671
2026-01-04 04:48:37.36	295.09	6.59	-55.0	-58.3	12.7	0.00e+00	0	29	0	1197473792	75	5489
2026-01-04 04:48:38.36	295.01	6.53	-55.0	-58.3	12.7	0.00e+00	0	29	0	1199570944	75	5480
2026-01-04 04:48:39.36	294.92	6.46	-55.0	-58.4	12.6	0.00e+00	0	29	0	1201668096	75	5579
2026-01-04 04:48:40.36	294.83	6.40	-54.9	-58.3	12.7	0.00e+00	0	29	0	1203765248	75	5468
2026-01-04 04:48:41.36	294.75	6.34	-54.9	-58.1	12.7	0.00e+00	0	29	0	1204813824	75	5401
2026-01-04 04:48:42.36	294.66	6.27	-55.0	-58.4	12.5	0.00e+00	0	29	0	1206910976	75	5579
