passes_logs/2026/01/04/R3.2S_Murmansk/R3.2S_Murmansk__20260104_103933_TY-42_rec.log

#Pass ID: 20260104_103933_TY-42
#Satellite: TY-42
#Configuration: TY-42_900M
#almurnet v.1.7.20251203
#Start time: 2026-01-04 10:39:33

#Version: 2.2.20231116
#Station: R3.2S_Murmansk
#Location: 33.079688 lon 68.888172 lat
#TLE: 1 64048U 25103A   26004.25768519  .00008007  00000-0  38191-3 0 09998
#TLE: 2 64048 097.4105 079.8777 0001642 091.8272 056.1443 15.19158095 35181

#Time	Az	El	Level	Level2	SNR	BER	BlckErr	Temp	State	Recorded	gain1	gain2
2026-01-04 10:39:33.73	22.42	1.99	-58.1	-61.3	6.1	0.00e+00	0	32	0	0	82	21484
2026-01-04 10:39:34.74	22.37	2.06	-58.1	-61.3	6.1	0.00e+00	0	32	104	0	83	20304
2026-01-04 10:39:35.75	22.32	2.13	-58.1	-61.3	6.2	0.00e+00	0	33	104	0	83	20355
2026-01-04 10:39:36.76	22.27	2.19	-58.1	-61.4	6.2	0.00e+00	0	33	104	0	83	20416
2026-01-04 10:39:37.77	22.22	2.26	-58.1	-61.3	6.2	0.00e+00	0	33	104	0	83	20346
2026-01-04 10:39:38.77	22.17	2.33	-58.1	-61.3	6.2	0.00e+00	0	33	104	0	83	20379
2026-01-04 10:39:39.78	22.12	2.40	-58.1	-61.3	6.1	0.00e+00	0	33	104	0	83	20333
2026-01-04 10:39:40.79	22.07	2.47	-58.1	-61.3	6.2	0.00e+00	0	33	104	0	83	20343
2026-01-04 10:39:41.80	22.02	2.54	-58.1	-61.3	6.2	0.00e+00	0	33	104	0	83	20337
2026-01-04 10:39:42.80	21.96	2.61	-58.1	-61.3	6.2	0.00e+00	0	33	104	0	83	20347
2026-01-04 10:39:43.81	21.91	2.67	-58.1	-61.3	6.2	0.00e+00	0	33	104	0	83	20320
2026-01-04 10:39:44.82	21.86	2.74	-58.1	-61.3	6.2	0.00e+00	0	33	104	0	83	20318
2026-01-04 10:39:45.83	21.81	2.81	-58.1	-61.3	6.2	0.00e+00	0	33	104	0	83	20330
2026-01-04 10:39:46.84	21.75	2.88	-58.1	-61.3	6.1	0.00e+00	0	33	104	0	83	20385
2026-01-04 10:39:47.85	21.70	2.95	-58.1	-61.3	6.2	0.00e+00	0	33	104	0	83	20373
2026-01-04 10:39:48.86	21.64	3.03	-58.1	-61.3	6.2	0.00e+00	0	33	104	0	83	20378
2026-01-04 10:39:49.87	21.59	3.10	-58.1	-61.4	6.2	0.00e+00	0	33	104	0	83	20434
2026-01-04 10:39:50.88	21.53	3.17	-58.1	-61.3	6.2	0.00e+00	0	33	104	0	83	20354
2026-01-04 10:39:51.88	21.48	3.24	-58.1	-61.4	6.2	0.00e+00	0	33	104	0	83	20420
2026-01-04 10:39:52.89	21.42	3.31	-58.1	-61.3	6.2	0.00e+00	0	34	104	0	83	20378
2026-01-04 10:39:53.89	21.37	3.38	-58.1	-61.4	6.1	0.00e+00	0	33	104	0	83	20408
2026-01-04 10:39:54.90	21.31	3.45	-58.1	-61.3	6.2	0.00e+00	0	34	104	0	83	20340
2026-01-04 10:39:55.91	21.26	3.52	-58.1	-61.3	6.1	0.00e+00	0	34	104	0	83	20380
2026-01-04 10:39:56.92	21.20	3.60	-58.1	-61.4	6.1	0.00e+00	0	34	104	0	83	20432
2026-01-04 10:39:57.93	21.14	3.67	-58.1	-61.3	6.2	0.00e+00	0	34	104	0	83	20379
2026-01-04 10:39:58.93	21.08	3.74	-58.1	-61.4	6.1	0.00e+00	0	34	104	0	83	20402
2026-01-04 10:39:59.94	21.03	3.81	-58.1	-61.3	6.2	0.00e+00	0	34	104	0	83	20376
2026-01-04 10:40:00.95	20.97	3.89	-58.1	-61.4	6.2	0.00e+00	0	34	104	0	83	20399
2026-01-04 10:40:01.96	20.91	3.96	-58.1	-61.3	6.2	0.00e+00	0	34	104	0	83	20363
2026-01-04 10:40:02.97	20.85	4.03	-58.1	-61.4	6.1	0.00e+00	0	34	104	0	83	20400
2026-01-04 10:40:03.98	20.79	4.11	-58.1	-61.4	6.2	0.00e+00	0	34	104	0	83	20402
2026-01-04 10:40:04.98	20.73	4.18	-58.1	-61.4	6.2	0.00e+00	0	34	104	0	83	20409
2026-01-04 10:40:05.99	20.67	4.25	-58.1	-61.4	6.2	0.00e+00	0	34	104	0	83	20404
2026-01-04 10:40:07.00	20.61	4.33	-58.1	-61.4	6.2	0.00e+00	0	34	104	0	83	20437
2026-01-04 10:40:08.00	20.55	4.40	-58.1	-61.4	6.1	0.00e+00	0	34	104	0	83	20480
2026-01-04 10:40:09.01	20.48	4.48	-58.1	-61.4	6.2	0.00e+00	0	34	104	0	83	20419
2026-01-04 10:40:10.02	20.42	4.55	-58.1	-61.3	6.2	0.00e+00	0	34	104	0	83	20383
2026-01-04 10:40:11.03	20.36	4.63	-58.1	-61.4	6.2	0.00e+00	0	34	104	0	83	20420
2026-01-04 10:40:12.04	20.30	4.70	-58.1	-61.4	6.2	0.00e+00	0	34	104	0	83	20447
2026-01-04 10:40:13.05	20.23	4.78	-58.1	-61.4	6.2	0.00e+00	0	34	104	0	83	20462
2026-01-04 10:40:14.05	20.17	4.86	-58.1	-61.4	6.1	0.00e+00	0	35	104	0	83	20411
2026-01-04 10:40:15.06	20.10	4.93	-58.1	-61.4	6.2	0.00e+00	0	35	104	0	83	20501
2026-01-04 10:40:16.07	20.04	5.01	-58.1	-61.4	6.2	0.00e+00	0	34	104	0	83	20431
2026-01-04 10:40:17.07	19.97	5.09	-58.3	-61.5	6.2	0.00e+00	0	35	104	0	83	20821
2026-01-04 10:40:18.08	19.91	5.16	-58.3	-61.5	6.2	0.00e+00	0	34	104	0	83	20784
2026-01-04 10:40:19.09	19.84	5.24	-58.1	-61.3	6.2	0.00e+00	0	35	104	0	83	20387
2026-01-04 10:40:20.09	19.78	5.32	-58.3	-61.5	6.2	0.00e+00	0	35	104	0	83	20850
2026-01-04 10:40:21.09	19.71	5.40	-58.1	-61.4	6.2	0.00e+00	0	35	104	0	83	20415
2026-01-04 10:40:22.10	19.64	5.47	-58.3	-61.6	6.2	0.00e+00	0	35	104	0	83	20891
2026-01-04 10:40:23.10	19.57	5.55	-58.1	-61.4	6.2	0.00e+00	0	35	104	0	83	20429
2026-01-04 10:40:24.11	19.51	5.63	-58.3	-61.5	6.2	0.00e+00	0	35	104	0	83	20771
2026-01-04 10:40:25.11	19.44	5.71	-58.1	-61.4	6.2	0.00e+00	0	35	104	0	83	20408
2026-01-04 10:40:26.11	19.37	5.79	-58.3	-61.6	6.2	0.00e+00	0	35	104	0	83	20924
2026-01-04 10:40:27.11	19.30	5.87	-58.2	-61.4	6.2	0.00e+00	0	35	104	0	83	20518
2026-01-04 10:40:28.12	19.23	5.95	-58.3	-61.6	6.2	0.00e+00	0	35	104	0	83	20908
2026-01-04 10:40:29.12	19.16	6.03	-58.2	-61.4	6.2	0.00e+00	0	35	104	0	83	20554
2026-01-04 10:40:30.13	19.09	6.11	-58.3	-61.6	6.1	0.00e+00	0	35	104	0	83	21010
2026-01-04 10:40:31.13	19.01	6.19	-58.2	-61.5	6.2	0.00e+00	0	35	104	0	83	20644
2026-01-04 10:40:32.14	18.94	6.27	-58.3	-61.6	6.2	0.00e+00	0	35	104	0	83	20887
2026-01-04 10:40:33.15	18.87	6.35	-58.2	-61.4	6.2	0.00e+00	0	35	104	0	83	20593
2026-01-04 10:40:34.15	18.79	6.43	-58.4	-61.6	6.1	0.00e+00	0	35	104	0	83	21005
2026-01-04 10:40:35.15	18.72	6.51	-58.2	-61.5	6.2	0.00e+00	0	35	104	0	83	20662
2026-01-04 10:40:36.16	18.65	6.60	-58.4	-61.6	6.2	0.00e+00	0	35	104	0	83	21013
2026-01-04 10:40:37.17	18.57	6.68	-58.3	-61.5	6.2	0.00e+00	0	35	104	0	83	20790
2026-01-04 10:40:38.18	18.49	6.76	-58.4	-61.7	6.2	0.00e+00	0	35	104	0	83	21163
2026-01-04 10:40:39.18	18.42	6.84	-58.3	-61.5	6.2	0.00e+00	0	35	104	0	83	20758
2026-01-04 10:40:40.18	18.34	6.93	-58.4	-61.7	6.2	0.00e+00	0	35	104	0	83	21121
2026-01-04 10:40:41.18	18.26	7.01	-58.3	-61.5	6.2	0.00e+00	0	35	104	0	83	20850
2026-01-04 10:40:42.19	18.18	7.10	-58.4	-61.7	6.2	0.00e+00	0	35	104	0	83	21163
2026-01-04 10:40:43.19	18.11	7.18	-58.3	-61.6	6.2	0.00e+00	0	35	104	0	83	20912
2026-01-04 10:40:44.20	18.03	7.26	-58.4	-61.7	6.2	0.00e+00	0	35	104	0	83	21152
2026-01-04 10:40:45.21	17.95	7.35	-58.3	-61.6	6.2	0.00e+00	0	35	104	0	83	20905
2026-01-04 10:40:46.20	17.87	7.43	-58.5	-61.7	6.2	0.00e+00	0	35	104	0	83	21199
2026-01-04 10:40:47.21	17.79	7.52	-58.4	-61.6	6.2	0.00e+00	0	35	104	0	83	21047
2026-01-04 10:40:48.21	17.70	7.60	-58.5	-61.7	6.2	0.00e+00	0	35	104	0	83	21150
2026-01-04 10:40:49.22	17.62	7.69	-58.4	-61.6	6.2	0.00e+00	0	35	104	0	83	21028
2026-01-04 10:40:50.22	17.54	7.78	-58.5	-61.7	6.2	0.00e+00	0	35	104	0	83	21276
2026-01-04 10:40:51.23	17.45	7.87	-58.4	-61.6	6.1	0.00e+00	0	35	104	0	83	21039
2026-01-04 10:40:52.23	17.37	7.95	-58.5	-61.7	6.1	0.00e+00	0	35	104	0	83	21293
2026-01-04 10:40:53.24	17.29	8.04	-58.4	-61.6	6.1	0.00e+00	0	36	104	0	83	21067
2026-01-04 10:40:54.24	17.20	8.13	-58.5	-61.8	6.2	0.00e+00	0	36	104	0	83	21377
2026-01-04 10:40:55.25	17.11	8.22	-58.4	-61.7	6.2	0.00e+00	0	36	104	0	83	21232
2026-01-04 10:40:56.25	17.03	8.30	-58.5	-61.8	6.2	0.00e+00	0	35	104	0	83	21419
2026-01-04 10:40:57.25	16.94	8.39	-58.5	-61.7	6.2	0.00e+00	0	36	104	0	83	21240
2026-01-04 10:40:58.25	16.85	8.48	-58.6	-61.8	6.2	0.00e+00	0	36	104	0	83	21504
2026-01-04 10:40:59.26	16.76	8.57	-58.5	-61.7	6.2	0.00e+00	0	36	104	0	83	21243
2026-01-04 10:41:00.26	16.67	8.66	-58.5	-61.8	6.2	0.00e+00	0	36	104	0	83	21435
2026-01-04 10:41:01.27	16.58	8.75	-58.5	-61.7	6.2	0.00e+00	0	36	104	0	83	21212
2026-01-04 10:41:02.27	16.49	8.84	-49.5	-50.1	9.1	0.00e+00	0	36	104	0	65	15825
2026-01-04 10:41:03.28	16.40	8.94	-55.7	-57.4	6.8	0.00e+00	0	36	104	0	78	17184
2026-01-04 10:41:04.27	16.31	9.03	-55.4	-56.9	7.0	0.00e+00	0	36	104	0	78	16336
2026-01-04 10:41:05.28	16.21	9.12	-45.2	-45.5	11.5	0.00e+00	0	37	0	25165824	57	14761
2026-01-04 10:41:06.28	16.12	9.21	-45.1	-45.5	11.6	0.00e+00	0	37	0	134217728	57	14634
2026-01-04 10:41:07.28	16.03	9.30	-44.5	-44.8	11.8	5.07e-02	0	37	0	251658240	56	14424
2026-01-04 10:41:08.28	15.93	9.40	-43.6	-44.0	12.1	5.07e-02	0	37	0	360710144	54	14629
2026-01-04 10:41:09.30	15.83	9.49	-42.9	-43.2	12.4	5.07e-02	0	37	0	469762048	53	14168
2026-01-04 10:41:10.30	15.74	9.58	-42.4	-42.8	12.5	1.92e-02	0	37	0	587202560	52	14282
2026-01-04 10:41:11.30	15.64	9.68	-42.2	-42.5	12.5	1.92e-02	0	37	0	696254464	51	14760
2026-01-04 10:41:12.31	15.54	9.77	-42.3	-42.6	12.5	1.92e-02	0	37	0	813694976	51	14838
2026-01-04 10:41:13.31	15.44	9.87	-42.3	-42.6	12.5	7.00e-03	0	37	0	922746880	51	14863
2026-01-04 10:41:14.31	15.34	9.96	-42.4	-42.7	12.5	7.00e-03	0	37	0	1031798784	51	15038
2026-01-04 10:41:15.32	15.24	10.06	-42.3	-42.6	12.6	7.00e-03	0	37	0	1149239296	51	14945
2026-01-04 10:41:16.32	15.14	10.16	-42.3	-42.6	12.6	6.43e-03	0	37	0	1258291200	51	14913
2026-01-04 10:41:17.32	15.03	10.25	-42.4	-42.7	12.6	6.43e-03	0	37	0	1375731712	51	14968
2026-01-04 10:41:18.33	14.93	10.35	-42.3	-42.7	12.6	6.43e-03	0	37	0	1493172224	51	14952
2026-01-04 10:41:19.32	14.83	10.45	-42.3	-42.6	12.6	6.04e-03	0	37	0	1593835520	51	14922
2026-01-04 10:41:20.33	14.72	10.54	-42.2	-42.5	12.6	6.04e-03	0	37	0	1719664640	51	14646
2026-01-04 10:41:21.34	14.61	10.64	-42.2	-42.5	12.5	6.70e-03	0	37	0	1828716544	51	14739
2026-01-04 10:41:22.34	14.50	10.74	-42.1	-42.4	12.6	6.70e-03	0	38	0	1937768448	51	14570
2026-01-04 10:41:23.34	14.40	10.84	-42.1	-42.4	12.6	6.70e-03	0	38	0	2055208960	51	14507
2026-01-04 10:41:24.34	14.29	10.94	-42.1	-42.4	12.6	6.83e-03	0	38	0	2164260864	51	14504
2026-01-04 10:41:25.34	14.18	11.04	-42.0	-42.3	12.7	6.83e-03	0	38	0	2281701376	51	14361
2026-01-04 10:41:26.34	14.07	11.14	-41.9	-42.2	12.7	6.83e-03	0	38	0	2390753280	51	14228
2026-01-04 10:41:27.35	13.95	11.24	-41.9	-42.2	12.7	5.31e-03	0	38	0	2499805184	51	14174
2026-01-04 10:41:28.35	13.84	11.34	-41.7	-42.0	12.7	5.31e-03	0	38	0	2617245696	50	14747
2026-01-04 10:41:29.35	13.73	11.45	-41.7	-42.0	12.7	4.71e-03	0	38	0	2726297600	50	14769
2026-01-04 10:41:30.35	13.61	11.55	-41.7	-42.0	12.7	4.71e-03	0	38	0	2843738112	50	14655
2026-01-04 10:41:31.35	13.50	11.65	-41.7	-42.0	12.7	4.71e-03	0	38	0	2952790016	50	14704
2026-01-04 10:41:32.35	13.38	11.75	-41.6	-42.0	12.7	4.47e-03	0	38	0	3061841920	50	14654
2026-01-04 10:41:33.35	13.26	11.86	-41.5	-41.8	12.8	4.47e-03	0	38	0	3179282432	50	14334
2026-01-04 10:41:34.36	13.14	11.96	-41.5	-41.8	12.8	3.95e-03	0	38	0	3288334336	50	14426
2026-01-04 10:41:35.36	13.02	12.07	-41.5	-41.9	12.8	3.95e-03	0	38	0	3405774848	50	14494
2026-01-04 10:41:36.36	12.90	12.17	-41.2	-41.5	12.8	3.95e-03	0	38	0	3514826752	49	14763
2026-01-04 10:41:37.37	12.78	12.28	-41.2	-41.5	12.8	3.36e-03	0	38	0	3632267264	49	14724
2026-01-04 10:41:38.37	12.66	12.38	-41.2	-41.6	12.8	3.36e-03	0	38	0	3741319168	49	14788
2026-01-04 10:41:39.37	12.53	12.49	-41.0	-41.3	12.9	2.40e-03	0	38	0	3858759680	49	14439
2026-01-04 10:41:40.38	12.41	12.60	-41.0	-41.3	12.9	2.40e-03	0	39	0	3967811584	49	14381
2026-01-04 10:41:41.39	12.28	12.71	-41.0	-41.3	12.9	2.40e-03	0	38	0	4085252096	49	14354
2026-01-04 10:41:42.39	12.15	12.81	-41.0	-41.3	12.9	2.40e-03	0	38	0	4194304000	49	14283
2026-01-04 10:41:43.39	12.02	12.92	-40.9	-41.2	12.9	1.95e-03	0	38	0	4311744512	49	14213
2026-01-04 10:41:44.39	11.89	13.03	-40.7	-41.0	12.9	1.95e-03	0	39	0	4420796416	48	14770
2026-01-04 10:41:45.39	11.76	13.14	-40.6	-40.9	12.9	1.61e-03	0	39	0	4538236928	48	14468
2026-01-04 10:41:46.39	11.63	13.25	-40.6	-40.9	12.9	1.61e-03	0	39	0	4647288832	48	14540
2026-01-04 10:41:47.40	11.49	13.36	-40.4	-40.7	13.0	1.61e-03	0	39	0	4756340736	48	14233
2026-01-04 10:41:48.39	11.36	13.47	-39.6	-39.9	12.8	1.61e-03	0	39	0	4873781248	46	14522
2026-01-04 10:41:49.40	11.22	13.59	-39.6	-39.9	12.8	1.50e-03	0	39	0	4982833152	46	14591
2026-01-04 10:41:50.41	11.09	13.70	-39.6	-39.9	12.9	1.50e-03	0	39	0	5100273664	46	14522
2026-01-04 10:41:51.41	10.95	13.81	-39.3	-39.6	12.9	2.15e-03	0	39	0	5209325568	45	14864
2026-01-04 10:41:52.41	10.81	13.92	-39.3	-39.6	12.9	2.15e-03	0	39	0	5318377472	45	14911
2026-01-04 10:41:53.42	10.66	14.04	-39.2	-39.5	12.9	1.58e-03	0	39	0	5435817984	45	14747
2026-01-04 10:41:54.42	10.52	14.15	-39.2	-39.5	12.9	1.58e-03	0	39	0	5544869888	45	14649
2026-01-04 10:41:55.42	10.38	14.27	-39.1	-39.4	12.9	1.58e-03	0	39	0	5662310400	45	14571
2026-01-04 10:41:56.42	10.23	14.38	-39.2	-39.5	12.9	1.20e-03	0	39	0	5771362304	45	14700
2026-01-04 10:41:57.43	10.09	14.50	-39.0	-39.3	13.0	1.20e-03	0	39	0	5888802816	45	14379
2026-01-04 10:41:58.42	9.94	14.61	-38.9	-39.2	13.0	1.20e-03	0	39	0	5997854720	45	14194
2026-01-04 10:41:59.42	9.79	14.73	-38.9	-39.2	13.0	1.02e-03	0	39	0	6106906624	45	14269
2026-01-04 10:42:00.43	9.64	14.85	-38.7	-39.0	13.0	1.02e-03	0	39	0	6224347136	44	14740
2026-01-04 10:42:01.43	9.49	14.97	-38.7	-39.0	13.0	1.02e-03	0	39	0	6341787648	44	14749
2026-01-04 10:42:02.43	9.33	15.09	-38.7	-39.0	13.0	7.10e-04	0	39	0	6450839552	44	14678
2026-01-04 10:42:03.43	9.18	15.21	-38.6	-38.9	13.1	7.10e-04	0	39	0	6568280064	44	14488
2026-01-04 10:42:04.43	9.02	15.33	-38.7	-39.0	13.0	7.34e-04	0	39	0	6677331968	44	14648
2026-01-04 10:42:05.44	8.86	15.45	-38.5	-38.8	13.1	7.34e-04	0	39	0	6786383872	44	14284
2026-01-04 10:42:06.44	8.70	15.57	-38.4	-38.7	13.1	7.34e-04	0	39	0	6903824384	44	14227
2026-01-04 10:42:07.45	8.54	15.69	-38.5	-38.8	13.1	7.34e-04	0	39	0	7012876288	44	14355
2026-01-04 10:42:08.46	8.37	15.81	-38.4	-38.7	13.1	5.48e-04	0	39	0	7130316800	44	14158
2026-01-04 10:42:09.47	8.21	15.94	-38.4	-38.7	13.1	5.48e-04	0	39	0	7239368704	44	14238
2026-01-04 10:42:10.47	8.04	16.06	-38.4	-38.7	13.2	4.00e-04	0	39	0	7348420608	44	14185
2026-01-04 10:42:11.48	7.87	16.19	-38.3	-38.6	13.1	4.00e-04	0	39	0	7474249728	43	14842
2026-01-04 10:42:12.49	7.70	16.31	-38.1	-38.4	13.1	4.00e-04	0	39	0	7583301632	43	14486
2026-01-04 10:42:13.49	7.53	16.44	-38.1	-38.4	13.1	4.00e-04	0	39	0	7692353536	43	14544
2026-01-04 10:42:14.49	7.36	16.56	-38.0	-38.3	13.2	4.58e-04	0	39	0	7809794048	43	14343
2026-01-04 10:42:15.50	7.18	16.69	-37.9	-38.1	13.2	4.58e-04	0	39	0	7918845952	43	14098
2026-01-04 10:42:16.51	7.00	16.82	-37.8	-38.1	13.2	4.58e-04	0	39	0	8036286464	42	14913
2026-01-04 10:42:17.51	6.82	16.94	-37.8	-38.1	13.2	2.67e-04	0	39	0	8145338368	42	14789
2026-01-04 10:42:18.51	6.64	17.07	-37.7	-38.0	13.2	2.67e-04	0	39	0	8254390272	42	14668
2026-01-04 10:42:19.52	6.46	17.20	-37.7	-38.0	13.2	2.67e-04	0	39	0	8371830784	42	14668
2026-01-04 10:42:20.52	6.28	17.33	-37.8	-38.1	13.2	1.91e-04	0	39	0	8480882688	42	14844
2026-01-04 10:42:21.52	6.09	17.46	-37.8	-38.1	13.2	1.91e-04	0	39	0	8598323200	42	14778
2026-01-04 10:42:22.53	5.90	17.59	-37.6	-37.9	13.3	1.91e-04	0	39	0	8715763712	42	14538
2026-01-04 10:42:23.53	5.71	17.72	-37.6	-37.9	13.3	1.81e-04	0	39	0	8824815616	42	14499
2026-01-04 10:42:24.54	5.52	17.86	-37.5	-37.8	13.3	1.81e-04	0	39	0	8942256128	42	14275
2026-01-04 10:42:25.54	5.33	17.99	-37.3	-37.6	13.3	1.81e-04	0	39	0	9051308032	41	14818
2026-01-04 10:42:26.55	5.13	18.12	-37.4	-37.7	13.2	1.72e-04	0	39	0	9160359936	41	14979
2026-01-04 10:42:27.55	4.93	18.26	-37.2	-37.5	13.3	1.72e-04	0	39	0	9277800448	41	14718
2026-01-04 10:42:28.56	4.73	18.39	-37.3	-37.5	13.3	1.72e-04	0	40	0	9386852352	41	14727
2026-01-04 10:42:29.56	4.53	18.53	-37.2	-37.5	13.3	6.67e-05	0	40	0	9504292864	41	14688
2026-01-04 10:42:30.57	4.32	18.66	-37.1	-37.4	13.4	6.67e-05	0	39	0	9613344768	41	14530
2026-01-04 10:42:31.58	4.12	18.80	-37.2	-37.4	13.3	6.67e-05	0	40	0	9730785280	41	14594
2026-01-04 10:42:32.59	3.91	18.94	-37.1	-37.4	13.3	1.05e-04	0	40	0	9848225792	41	14528
2026-01-04 10:42:33.59	3.70	19.07	-37.0	-37.3	13.4	1.05e-04	0	39	0	9957277696	41	14275
2026-01-04 10:42:34.59	3.48	19.21	-37.0	-37.2	13.4	1.05e-04	0	39	0	10066329600	41	14232
2026-01-04 10:42:35.60	3.27	19.35	-36.9	-37.2	13.4	7.15e-05	0	40	0	10183770112	41	14153
2026-01-04 10:42:36.60	3.05	19.49	-36.8	-37.1	13.4	7.15e-05	0	40	0	10292822016	40	14875
2026-01-04 10:42:37.60	2.83	19.63	-36.8	-37.1	13.4	7.15e-05	0	40	0	10410262528	40	14899
2026-01-04 10:42:38.61	2.61	19.77	-36.8	-37.0	13.4	7.15e-05	0	40	0	10519314432	40	14740
2026-01-04 10:42:39.61	2.38	19.91	-36.8	-37.0	13.4	5.72e-05	0	40	0	10628366336	40	14719
2026-01-04 10:42:40.61	2.16	20.05	-36.7	-37.0	13.4	5.72e-05	0	40	0	10745806848	40	14625
2026-01-04 10:42:41.61	1.93	20.19	-36.8	-37.1	13.4	5.24e-05	0	39	0	10854858752	40	14785
2026-01-04 10:42:42.62	1.69	20.34	-36.6	-36.9	13.5	5.24e-05	0	40	0	10972299264	40	14526
2026-01-04 10:42:43.62	1.46	20.48	-36.8	-37.0	13.5	5.24e-05	0	39	0	11081351168	40	14736
2026-01-04 10:42:44.62	1.23	20.62	-36.6	-36.9	13.5	5.72e-05	0	40	0	11198791680	40	14532
2026-01-04 10:42:45.63	0.98	20.77	-36.6	-36.9	13.5	5.72e-05	0	39	0	11316232192	40	14515
2026-01-04 10:42:46.64	0.74	20.91	-36.6	-36.9	13.5	5.72e-05	0	40	0	11425284096	40	14495
2026-01-04 10:42:47.63	0.50	21.06	-36.4	-36.7	13.6	1.43e-05	0	40	0	11534336000	40	14199
2026-01-04 10:42:48.64	0.25	21.20	-36.3	-36.6	13.5	1.43e-05	0	39	0	11651776512	39	14868
2026-01-04 10:42:49.65	360.00	21.35	-36.4	-36.6	13.5	1.43e-05	0	40	0	11760828416	39	14902
2026-01-04 10:42:50.65	359.75	21.50	-36.3	-36.6	13.5	2.38e-05	0	40	0	11878268928	39	14804
2026-01-04 10:42:51.66	359.49	21.65	-36.3	-36.6	13.5	2.38e-05	0	40	0	11987320832	39	14863
2026-01-04 10:42:52.67	359.23	21.79	-36.3	-36.6	13.5	1.43e-05	0	39	0	12096372736	39	14826
2026-01-04 10:42:53.67	358.97	21.94	-36.1	-36.4	13.6	1.43e-05	0	40	0	12213813248	39	14530
2026-01-04 10:42:54.67	358.70	22.09	-36.2	-36.4	13.6	1.43e-05	0	39	0	12322865152	39	14550
2026-01-04 10:42:55.68	358.44	22.24	-36.1	-36.3	13.6	1.90e-05	0	40	0	12440305664	39	14440
2026-01-04 10:42:56.67	358.17	22.39	-36.0	-36.3	13.6	1.90e-05	0	40	0	12557746176	39	14385
2026-01-04 10:42:57.68	357.89	22.54	-36.1	-36.4	13.6	0.00e+00	0	40	0	12666798080	39	14485
2026-01-04 10:42:58.69	357.62	22.69	-36.1	-36.4	13.6	0.00e+00	0	40	0	12784238592	39	14454
2026-01-04 10:42:59.69	357.34	22.84	-36.0	-36.2	13.7	0.00e+00	0	40	0	12893290496	39	14264
2026-01-04 10:43:00.69	357.06	23.00	-36.0	-36.2	13.6	1.43e-05	0	39	0	13002342400	39	14184
2026-01-04 10:43:01.69	356.77	23.15	-35.9	-36.2	13.6	1.43e-05	0	40	0	13119782912	39	14169
2026-01-04 10:43:02.70	356.48	23.30	-35.9	-36.2	13.6	1.43e-05	0	40	0	13228834816	39	14180
2026-01-04 10:43:03.71	356.19	23.45	-35.8	-36.1	13.6	0.00e+00	0	40	0	13346275328	38	14793
2026-01-04 10:43:04.72	355.89	23.61	-35.8	-36.0	13.6	0.00e+00	0	40	0	13455327232	38	14745
2026-01-04 10:43:05.72	355.59	23.76	-35.7	-35.9	13.6	0.00e+00	0	40	0	13564379136	38	14550
2026-01-04 10:43:06.73	355.29	23.92	-35.7	-36.0	13.6	4.70e-06	0	40	0	13690208256	38	14674
2026-01-04 10:43:07.72	354.99	24.07	-35.6	-35.9	13.6	4.70e-06	0	40	0	13799260160	38	14477
2026-01-04 10:43:08.73	354.68	24.23	-35.6	-35.9	13.6	1.90e-05	0	40	0	13908312064	38	14441
2026-01-04 10:43:09.73	354.37	24.38	-35.4	-35.7	13.7	1.90e-05	0	40	0	14025752576	38	14161
2026-01-04 10:43:10.74	354.05	24.54	-35.2	-35.4	13.6	0.00e+00	0	40	0	14134804480	37	14606
2026-01-04 10:43:11.74	353.73	24.69	-35.2	-35.5	13.6	0.00e+00	0	40	0	14252244992	37	14638
2026-01-04 10:43:12.75	353.41	24.85	-35.2	-35.4	13.6	0.00e+00	0	40	0	14361296896	37	14575
2026-01-04 10:43:13.76	353.08	25.00	-35.2	-35.4	13.6	0.00e+00	0	40	0	14470348800	37	14557
2026-01-04 10:43:14.76	352.75	25.16	-35.1	-35.3	13.7	0.00e+00	0	40	0	14587789312	37	14405
2026-01-04 10:43:15.77	352.42	25.32	-35.0	-35.2	13.7	0.00e+00	0	40	0	14696841216	37	14228
2026-01-04 10:43:16.77	352.08	25.47	-34.9	-35.1	13.7	0.00e+00	0	40	0	14814281728	37	14075
2026-01-04 10:43:17.77	351.74	25.63	-34.8	-35.1	13.6	0.00e+00	0	40	0	14923333632	36	14804
2026-01-04 10:43:18.77	351.40	25.79	-34.8	-35.1	13.6	0.00e+00	0	40	0	15032385536	36	14853
2026-01-04 10:43:19.78	351.05	25.94	-34.8	-35.0	13.7	0.00e+00	0	40	0	15158214656	36	14737
2026-01-04 10:43:20.78	350.70	26.10	-34.6	-34.9	13.7	0.00e+00	0	40	0	15267266560	36	14501
2026-01-04 10:43:21.79	350.34	26.26	-34.7	-34.9	13.7	0.00e+00	0	40	0	15376318464	36	14568
2026-01-04 10:43:22.79	349.98	26.41	-34.6	-34.8	13.7	0.00e+00	0	40	0	15493758976	36	14407
2026-01-04 10:43:23.79	349.62	26.57	-34.6	-34.8	13.7	0.00e+00	0	40	0	15602810880	36	14362
2026-01-04 10:43:24.80	349.25	26.73	-34.5	-34.8	13.7	0.00e+00	0	40	0	15720251392	36	14328
2026-01-04 10:43:25.80	348.88	26.88	-34.6	-34.8	13.7	0.00e+00	0	40	0	15829303296	36	14372
2026-01-04 10:43:26.81	348.50	27.04	-34.5	-34.8	13.7	0.00e+00	0	40	0	15938355200	36	14288
2026-01-04 10:43:27.81	348.12	27.20	-31.8	-32.1	13.6	0.00e+00	0	40	0	16055795712	30	14795
2026-01-04 10:43:28.82	347.73	27.35	-31.7	-32.0	13.6	0.00e+00	0	40	0	16164847616	30	14661
2026-01-04 10:43:29.81	347.35	27.51	-31.8	-32.1	13.6	0.00e+00	0	40	0	16282288128	30	14785
2026-01-04 10:43:30.82	346.95	27.66	-31.7	-31.9	13.7	0.00e+00	0	40	0	16391340032	30	14576
2026-01-04 10:43:31.83	346.55	27.82	-31.7	-31.9	13.7	0.00e+00	0	40	0	16508780544	30	14594
2026-01-04 10:43:32.83	346.16	27.97	-31.7	-31.9	13.6	0.00e+00	0	40	0	16626221056	30	14583
2026-01-04 10:43:33.82	345.76	28.12	-31.6	-31.8	13.7	0.00e+00	0	40	0	16726884352	30	14361
2026-01-04 10:43:34.83	345.34	28.28	-31.6	-31.8	13.7	0.00e+00	0	40	0	16844324864	30	14388
2026-01-04 10:43:35.83	344.93	28.43	-31.6	-31.8	13.7	4.70e-06	0	40	0	16961765376	30	14424
2026-01-04 10:43:36.84	344.51	28.58	-31.5	-31.7	13.7	4.70e-06	0	40	0	17070817280	30	14259
2026-01-04 10:43:37.85	344.08	28.74	-31.5	-31.7	13.7	4.70e-06	0	40	0	17188257792	30	14239
2026-01-04 10:43:38.85	343.66	28.89	-31.5	-31.7	13.7	4.70e-06	0	40	0	17297309696	30	14198
2026-01-04 10:43:39.85	343.23	29.04	-31.5	-31.8	13.7	4.70e-06	0	40	0	17406361600	30	14313
2026-01-04 10:43:40.85	342.79	29.19	-31.4	-31.6	13.7	4.70e-06	0	40	0	17523802112	30	14070
2026-01-04 10:43:41.85	342.36	29.33	-31.4	-31.6	13.7	0.00e+00	0	40	0	17632854016	29	14920
2026-01-04 10:43:42.86	341.91	29.48	-31.4	-31.6	13.7	0.00e+00	0	40	0	17750294528	29	14897
2026-01-04 10:43:43.86	341.46	29.63	-31.3	-31.5	13.7	4.70e-06	0	40	0	17859346432	29	14745
2026-01-04 10:43:44.87	341.00	29.78	-31.3	-31.5	13.7	4.70e-06	0	40	0	17968398336	29	14763
2026-01-04 10:43:45.87	340.55	29.92	-31.3	-31.5	13.7	4.70e-06	0	40	0	18085838848	29	14738
2026-01-04 10:43:46.87	340.09	30.07	-31.2	-31.5	13.7	0.00e+00	0	40	0	18194890752	29	14704
2026-01-04 10:43:47.88	339.61	30.21	-31.3	-31.5	13.7	0.00e+00	0	40	0	18312331264	29	14739
2026-01-04 10:43:48.89	339.14	30.35	-31.2	-31.5	13.7	0.00e+00	0	40	0	18429771776	29	14648
2026-01-04 10:43:49.89	338.67	30.49	-31.2	-31.5	13.7	0.00e+00	0	40	0	18538823680	29	14649
2026-01-04 10:43:50.90	338.18	30.63	-31.1	-31.3	13.7	0.00e+00	0	40	0	18656264192	29	14436
2026-01-04 10:43:51.90	337.70	30.77	-31.2	-31.5	13.7	0.00e+00	0	40	0	18765316096	29	14629
2026-01-04 10:43:52.91	337.20	30.91	-31.1	-31.4	13.7	0.00e+00	0	40	0	18874368000	29	14471
2026-01-04 10:43:53.91	336.71	31.04	-31.0	-31.2	13.7	0.00e+00	0	40	0	18991808512	29	14263
2026-01-04 10:43:54.90	336.22	31.17	-31.0	-31.3	13.7	0.00e+00	0	40	0	19100860416	29	14296
2026-01-04 10:43:55.91	335.71	31.31	-31.1	-31.3	13.7	0.00e+00	0	40	0	19218300928	29	14418
2026-01-04 10:43:56.92	335.20	31.44	-31.1	-31.4	13.7	0.00e+00	0	40	0	19327352832	29	14466
2026-01-04 10:43:57.92	334.69	31.56	-30.9	-31.2	13.7	0.00e+00	0	40	0	19436404736	29	14122
2026-01-04 10:43:58.93	334.17	31.69	-30.9	-31.1	13.7	0.00e+00	0	40	0	19562233856	29	14077
2026-01-04 10:43:59.94	333.65	31.82	-30.8	-31.1	13.7	0.00e+00	0	40	0	19671285760	28	14832
2026-01-04 10:44:00.94	333.12	31.94	-30.9	-31.2	13.6	0.00e+00	0	40	0	19780337664	28	14978
2026-01-04 10:44:01.94	332.60	32.06	-30.8	-31.1	13.7	0.00e+00	0	40	0	19897778176	28	14841
2026-01-04 10:44:02.94	332.06	32.18	-30.8	-31.1	13.7	0.00e+00	0	40	0	20006830080	28	14824
2026-01-04 10:44:03.95	331.52	32.30	-30.8	-31.0	13.7	0.00e+00	0	40	0	20124270592	28	14766
2026-01-04 10:44:04.95	330.98	32.41	-30.7	-30.9	13.7	0.00e+00	0	40	0	20233322496	28	14523
2026-01-04 10:44:05.96	330.43	32.52	-30.7	-31.0	13.7	0.00e+00	0	40	0	20342374400	28	14634
2026-01-04 10:44:06.97	329.88	32.63	-30.6	-30.8	13.7	0.00e+00	0	40	0	20459814912	28	14436
2026-01-04 10:44:07.97	329.33	32.74	-30.6	-30.8	13.7	0.00e+00	0	40	0	20577255424	28	14403
2026-01-04 10:44:08.97	328.77	32.85	-30.6	-30.9	13.7	0.00e+00	0	40	0	20686307328	28	14449
2026-01-04 10:44:09.98	328.20	32.95	-30.5	-30.8	13.7	0.00e+00	0	40	0	20803747840	28	14322
2026-01-04 10:44:10.98	327.64	33.05	-30.6	-30.8	13.7	0.00e+00	0	40	0	20912799744	28	14430
2026-01-04 10:44:11.98	327.07	33.15	-30.5	-30.7	13.7	4.70e-06	0	40	0	21030240256	28	14241
2026-01-04 10:44:12.99	326.50	33.24	-30.5	-30.7	13.7	4.70e-06	0	40	0	21139292160	28	14222
2026-01-04 10:44:13.99	325.92	33.33	-30.4	-30.7	13.7	4.70e-06	0	40	0	21248344064	28	14121
2026-01-04 10:44:14.99	325.34	33.42	-30.5	-30.8	13.7	0.00e+00	0	40	0	21365784576	28	14324
2026-01-04 10:44:15.99	324.76	33.51	-30.5	-30.7	13.7	0.00e+00	0	40	0	21474836480	28	14262
2026-01-04 10:44:16.99	324.18	33.59	-30.4	-30.6	13.7	0.00e+00	0	40	0	21592276992	28	14081
2026-01-04 10:44:18.00	323.58	33.67	-30.4	-30.7	13.7	0.00e+00	0	40	0	21701328896	27	14983
2026-01-04 10:44:19.01	322.99	33.75	-30.4	-30.7	13.7	0.00e+00	0	40	0	21810380800	27	14966
2026-01-04 10:44:20.02	322.39	33.82	-30.4	-30.6	13.6	0.00e+00	0	40	0	21927821312	27	14898
2026-01-04 10:44:21.02	321.79	33.90	-30.5	-30.7	13.6	0.00e+00	0	40	0	22036873216	27	15094
2026-01-04 10:44:22.03	321.18	33.96	-30.4	-30.7	13.6	0.00e+00	0	40	0	22154313728	27	15059
2026-01-04 10:44:23.03	320.58	34.03	-30.4	-30.6	13.6	0.00e+00	0	40	0	22271754240	27	14929
2026-01-04 10:44:24.04	319.97	34.09	-30.3	-30.6	13.6	0.00e+00	0	40	0	22380806144	27	14835
2026-01-04 10:44:25.04	319.36	34.15	-30.4	-30.6	13.7	0.00e+00	0	40	0	22498246656	27	14890
2026-01-04 10:44:26.04	318.75	34.20	-30.3	-30.6	13.7	0.00e+00	0	40	0	22607298560	27	14791
2026-01-04 10:44:27.04	318.14	34.25	-30.4	-30.7	13.7	0.00e+00	0	40	0	22716350464	27	14963
2026-01-04 10:44:28.05	317.52	34.30	-30.5	-30.7	13.6	0.00e+00	0	40	0	22833790976	27	15084
2026-01-04 10:44:29.05	316.91	34.35	-30.4	-30.6	13.6	0.00e+00	0	40	0	22942842880	27	14908
2026-01-04 10:44:30.05	316.29	34.39	-30.3	-30.5	13.6	0.00e+00	0	40	0	23060283392	27	14749
2026-01-04 10:44:31.05	315.67	34.42	-30.3	-30.6	13.6	0.00e+00	0	40	0	23169335296	27	14803
2026-01-04 10:44:32.06	315.04	34.46	-30.2	-30.5	13.6	0.00e+00	0	40	0	23278387200	27	14660
2026-01-04 10:44:33.07	314.42	34.49	-30.3	-30.6	13.6	0.00e+00	0	40	0	23395827712	27	14819
2026-01-04 10:44:34.08	313.79	34.51	-30.2	-30.4	13.6	0.00e+00	0	40	0	23513268224	27	14552
2026-01-04 10:44:35.09	313.16	34.54	-30.2	-30.5	13.6	0.00e+00	0	40	0	23622320128	27	14628
2026-01-04 10:44:36.08	312.54	34.56	-30.1	-30.3	13.6	0.00e+00	0	40	0	23739760640	27	14438
2026-01-04 10:44:37.09	311.91	34.57	-30.1	-30.4	13.6	0.00e+00	0	40	0	23848812544	27	14501
2026-01-04 10:44:38.09	311.28	34.58	-30.2	-30.5	13.6	4.70e-06	0	40	0	23966253056	27	14649
2026-01-04 10:44:39.09	310.66	34.59	-30.2	-30.5	13.7	4.70e-06	0	40	0	24075304960	27	14610
2026-01-04 10:44:40.09	310.03	34.60	-30.1	-30.3	13.7	0.00e+00	0	40	0	24184356864	27	14422
2026-01-04 10:44:41.09	309.40	34.60	-30.1	-30.3	13.7	0.00e+00	0	40	0	24301797376	27	14393
2026-01-04 10:44:42.08	308.78	34.59	-30.1	-30.4	13.7	0.00e+00	0	40	0	24410849280	27	14441
2026-01-04 10:44:43.09	308.15	34.59	-30.2	-30.5	13.7	0.00e+00	0	40	0	24528289792	27	14671
2026-01-04 10:44:44.10	307.52	34.58	-30.1	-30.4	13.7	0.00e+00	0	40	0	24637341696	27	14485
2026-01-04 10:44:45.10	306.89	34.56	-30.2	-30.5	13.7	0.00e+00	0	40	0	24746393600	27	14634
2026-01-04 10:44:46.10	306.26	34.54	-30.2	-30.5	13.7	0.00e+00	0	40	0	24863834112	27	14688
2026-01-04 10:44:47.10	305.64	34.52	-30.2	-30.5	13.6	0.00e+00	0	40	0	24972886016	27	14697
2026-01-04 10:44:48.10	305.02	34.50	-30.1	-30.4	13.6	0.00e+00	0	40	0	25090326528	27	14530
2026-01-04 10:44:49.10	304.39	34.47	-30.2	-30.5	13.6	0.00e+00	0	40	0	25199378432	27	14633
2026-01-04 10:44:50.10	303.77	34.44	-30.1	-30.4	13.6	0.00e+00	0	40	0	25316818944	27	14528
2026-01-04 10:44:51.10	303.15	34.40	-30.2	-30.4	13.6	0.00e+00	0	40	0	25425870848	27	14592
2026-01-04 10:44:52.10	302.54	34.36	-30.2	-30.5	13.6	0.00e+00	0	40	0	25534922752	27	14668
2026-01-04 10:44:53.10	301.92	34.32	-30.3	-30.5	13.6	0.00e+00	0	40	0	25652363264	27	14759
2026-01-04 10:44:54.11	301.30	34.27	-30.3	-30.5	13.6	4.70e-06	0	40	0	25761415168	27	14735
2026-01-04 10:44:55.12	300.68	34.22	-30.4	-30.6	13.6	4.70e-06	0	40	0	25878855680	27	14905
2026-01-04 10:44:56.12	300.07	34.17	-30.3	-30.6	13.6	0.00e+00	0	40	0	25987907584	27	14866
2026-01-04 10:44:57.13	299.45	34.11	-30.3	-30.6	13.6	0.00e+00	0	40	0	26105348096	27	14906
2026-01-04 10:44:58.13	298.85	34.05	-30.4	-30.7	13.6	0.00e+00	0	40	0	26214400000	27	14993
2026-01-04 10:44:59.14	298.24	33.99	-30.4	-30.6	13.6	4.70e-06	0	40	0	26331840512	27	14926
2026-01-04 10:45:00.15	297.63	33.92	-30.4	-30.6	13.7	4.70e-06	0	40	0	26440892416	27	14903
2026-01-04 10:45:01.15	297.03	33.85	-30.4	-30.7	13.6	0.00e+00	0	40	0	26558332928	27	14953
2026-01-04 10:45:02.15	296.44	33.78	-30.4	-30.6	13.6	0.00e+00	0	40	0	26667384832	27	14928
2026-01-04 10:45:03.15	295.84	33.70	-30.4	-30.6	13.6	0.00e+00	0	40	0	26784825344	27	14940
2026-01-04 10:45:04.15	295.25	33.62	-30.4	-30.7	13.6	0.00e+00	0	40	0	26893877248	27	15014
2026-01-04 10:45:05.15	294.67	33.54	-30.5	-30.8	13.6	0.00e+00	0	40	0	27002929152	27	15140
2026-01-04 10:45:06.15	294.08	33.45	-30.5	-30.8	13.6	0.00e+00	0	40	0	27120369664	27	15129
2026-01-04 10:45:07.15	293.50	33.36	-30.4	-30.7	13.6	0.00e+00	0	40	0	27229421568	27	15050
2026-01-04 10:45:08.16	292.92	33.27	-30.5	-30.7	13.6	0.00e+00	0	40	0	27346862080	27	15105
2026-01-04 10:45:09.17	292.34	33.18	-30.5	-30.7	13.6	4.70e-06	0	40	0	27455913984	27	15075
2026-01-04 10:45:10.17	291.77	33.08	-30.5	-30.7	13.6	4.70e-06	0	40	0	27564965888	27	15115
2026-01-04 10:45:11.17	291.21	32.98	-30.6	-30.9	13.6	4.70e-06	0	40	0	27682406400	27	15333
2026-01-04 10:45:12.18	290.64	32.88	-30.5	-30.8	13.7	4.70e-06	0	40	0	27799846912	27	15143
2026-01-04 10:45:13.18	290.08	32.78	-30.6	-30.9	13.6	4.70e-06	0	40	0	27908898816	27	15323
2026-01-04 10:45:14.18	289.52	32.67	-30.6	-30.8	13.7	0.00e+00	0	40	0	28026339328	27	15269
2026-01-04 10:45:15.19	288.97	32.56	-30.6	-30.9	13.6	0.00e+00	0	40	0	28135391232	27	15365
2026-01-04 10:45:16.19	288.42	32.45	-30.6	-30.9	13.6	0.00e+00	0	40	0	28252831744	27	15306
2026-01-04 10:45:17.20	287.87	32.33	-30.6	-30.8	13.7	0.00e+00	0	40	0	28361883648	27	15262
2026-01-04 10:45:18.20	287.33	32.22	-30.6	-30.9	13.7	0.00e+00	0	40	0	28470935552	27	15304
2026-01-04 10:45:19.20	286.80	32.10	-30.7	-31.0	13.7	0.00e+00	0	40	0	28588376064	27	15498
2026-01-04 10:45:20.21	286.26	31.98	-30.7	-31.0	13.7	0.00e+00	0	40	0	28697427968	27	15557
2026-01-04 10:45:21.21	285.74	31.86	-30.7	-31.0	13.7	0.00e+00	0	40	0	28814868480	27	15575
2026-01-04 10:45:22.21	285.22	31.73	-30.7	-31.0	13.7	0.00e+00	0	40	0	28923920384	27	15548
2026-01-04 10:45:23.22	284.69	31.61	-30.7	-31.0	13.7	0.00e+00	0	40	0	29032972288	27	15565
2026-01-04 10:45:24.22	284.18	31.48	-30.7	-31.0	13.7	0.00e+00	0	40	0	29150412800	27	15564
2026-01-04 10:45:25.21	283.68	31.35	-30.8	-31.1	13.7	0.00e+00	0	40	0	29259464704	27	15670
2026-01-04 10:45:26.22	283.17	31.22	-30.9	-31.1	13.7	0.00e+00	0	40	0	29376905216	27	15800
2026-01-04 10:45:27.22	282.67	31.09	-30.9	-31.2	13.7	0.00e+00	0	40	0	29485957120	27	15907
2026-01-04 10:45:28.23	282.17	30.95	-30.9	-31.2	13.7	0.00e+00	0	40	0	29603397632	27	15862
2026-01-04 10:45:29.23	281.68	30.81	-30.9	-31.1	13.7	0.00e+00	0	40	0	29720838144	27	15819
2026-01-04 10:45:30.23	281.19	30.68	-31.0	-31.2	13.7	0.00e+00	0	40	0	29829890048	27	15959
2026-01-04 10:45:31.23	280.71	30.54	-30.9	-31.2	13.7	0.00e+00	0	40	0	29938941952	27	15893
2026-01-04 10:45:32.24	280.23	30.40	-31.0	-31.3	13.7	0.00e+00	0	40	0	30056382464	27	16072
2026-01-04 10:45:33.25	279.75	30.25	-31.1	-31.3	13.7	0.00e+00	0	40	0	30165434368	27	16171
2026-01-04 10:45:34.25	279.28	30.11	-31.1	-31.3	13.7	0.00e+00	0	40	0	30282874880	28	15267
2026-01-04 10:45:35.26	278.81	29.97	-31.0	-31.3	13.7	0.00e+00	0	40	0	30391926784	28	15160
2026-01-04 10:45:36.26	278.35	29.82	-31.0	-31.3	13.8	0.00e+00	0	40	0	30500978688	28	15194
2026-01-04 10:45:37.27	277.89	29.67	-31.1	-31.4	13.8	0.00e+00	0	40	0	30618419200	28	15311
2026-01-04 10:45:38.27	277.44	29.53	-31.2	-31.4	13.8	0.00e+00	0	40	0	30727471104	28	15469
2026-01-04 10:45:39.27	276.99	29.38	-31.2	-31.5	13.8	0.00e+00	0	40	0	30844911616	28	15518
2026-01-04 10:45:40.28	276.55	29.23	-31.2	-31.5	13.8	0.00e+00	0	40	0	30962352128	28	15571
2026-01-04 10:45:41.28	276.11	29.08	-31.3	-31.5	13.8	0.00e+00	0	40	0	31071404032	28	15626
2026-01-04 10:45:42.28	275.68	28.93	-31.3	-31.6	13.8	4.70e-06	0	40	0	31188844544	28	15693
2026-01-04 10:45:43.29	275.25	28.78	-31.3	-31.6	13.8	4.70e-06	0	40	0	31297896448	28	15769
2026-01-04 10:45:44.29	274.82	28.63	-31.5	-31.8	13.8	4.70e-06	0	40	0	31406948352	28	16101
2026-01-04 10:45:45.29	274.40	28.47	-31.4	-31.7	13.8	4.70e-06	0	40	0	31524388864	28	15911
2026-01-04 10:45:46.28	273.99	28.32	-31.5	-31.8	13.8	4.70e-06	0	40	0	31633440768	28	16040
2026-01-04 10:45:47.28	273.58	28.17	-31.5	-31.8	13.8	4.70e-06	0	40	0	31750881280	28	16024
2026-01-04 10:45:48.27	273.18	28.02	-31.6	-31.8	13.7	0.00e+00	0	40	0	31851544576	28	16171
2026-01-04 10:45:49.26	272.78	27.87	-31.5	-31.8	13.7	0.00e+00	0	40	0	31968985088	28	16082
2026-01-04 10:45:50.26	272.38	27.71	-31.6	-31.9	13.8	0.00e+00	0	40	0	32078036992	28	16218
2026-01-04 10:45:51.25	271.99	27.56	-31.7	-31.9	13.8	0.00e+00	0	40	0	32195477504	29	15469
2026-01-04 10:45:52.26	271.60	27.40	-31.7	-31.9	13.8	0.00e+00	0	40	0	32304529408	29	15447
2026-01-04 10:45:53.26	271.21	27.24	-31.8	-32.1	13.8	0.00e+00	0	40	0	32413581312	29	15685
2026-01-04 10:45:54.25	270.83	27.09	-31.7	-32.0	13.8	0.00e+00	0	40	0	32531021824	29	15529
2026-01-04 10:45:55.24	270.46	26.94	-31.8	-32.1	13.8	0.00e+00	0	40	0	32640073728	29	15703
2026-01-04 10:45:56.22	270.09	26.78	-31.9	-32.1	13.8	0.00e+00	0	40	0	32757514240	29	15824
2026-01-04 10:45:57.22	269.72	26.63	-31.8	-32.1	13.7	0.00e+00	0	40	0	32858177536	29	15749
2026-01-04 10:45:58.20	269.36	26.47	-31.9	-32.1	13.7	0.00e+00	0	40	0	32975618048	29	15827
2026-01-04 10:45:59.19	269.01	26.32	-32.0	-32.2	13.7	0.00e+00	0	40	0	33084669952	29	15983
2026-01-04 10:46:00.19	268.65	26.16	-32.0	-32.3	13.7	1.43e-05	0	40	0	33202110464	29	16126
2026-01-04 10:46:01.18	268.30	26.01	-32.0	-32.3	13.7	1.43e-05	0	40	0	33311162368	29	16090
2026-01-04 10:46:02.17	267.95	25.85	-32.1	-32.3	13.7	1.43e-05	0	40	0	33420214272	29	16178
2026-01-04 10:46:03.16	267.61	25.70	-32.1	-32.4	13.7	9.50e-06	0	40	0	33529266176	29	16325
2026-01-04 10:46:04.14	267.27	25.54	-32.2	-32.5	13.8	9.50e-06	0	40	0	33646706688	30	15510
2026-01-04 10:46:05.12	266.94	25.39	-32.3	-32.6	13.7	9.50e-06	0	40	0	33747369984	30	15706
2026-01-04 10:46:06.10	266.61	25.23	-32.3	-32.6	13.7	0.00e+00	0	40	0	33864810496	30	15800
2026-01-04 10:46:07.09	266.28	25.08	-32.3	-32.6	13.7	0.00e+00	0	40	0	33973862400	30	15732
2026-01-04 10:46:08.08	265.96	24.93	-32.4	-32.7	13.7	1.43e-05	0	40	0	34091302912	30	15900
2026-01-04 10:46:09.08	265.63	24.77	-32.5	-32.8	13.7	1.43e-05	0	40	0	34200354816	30	16073
2026-01-04 10:46:10.06	265.32	24.62	-32.6	-32.8	13.7	1.43e-05	0	40	0	34309406720	30	16168
2026-01-04 10:46:11.06	265.00	24.46	-32.6	-32.9	13.7	9.50e-06	0	40	0	34418458624	30	16293
2026-01-04 10:46:12.05	264.69	24.31	-32.7	-33.0	13.7	9.50e-06	0	40	0	34535899136	31	15583
2026-01-04 10:46:13.05	264.38	24.15	-32.8	-33.0	13.7	9.50e-06	0	40	0	34644951040	31	15618
2026-01-04 10:46:14.04	264.07	24.00	-32.7	-33.0	13.7	9.50e-06	0	40	0	34754002944	31	15577
2026-01-04 10:46:15.03	263.77	23.85	-32.8	-33.1	13.7	9.50e-06	0	40	0	34871443456	31	15684
2026-01-04 10:46:16.02	263.48	23.69	-32.8	-33.1	13.7	4.70e-06	0	40	0	34980495360	31	15775
2026-01-04 10:46:17.01	263.18	23.54	-32.9	-33.2	13.7	4.70e-06	0	40	0	35089547264	31	15894
2026-01-04 10:46:18.00	262.89	23.39	-33.0	-33.3	13.7	4.70e-06	0	40	0	35198599168	31	16053
2026-01-04 10:46:18.99	262.60	23.24	-33.0	-33.3	13.6	4.70e-06	0	40	0	35316039680	31	16118
2026-01-04 10:46:19.98	262.32	23.09	-33.1	-33.4	13.6	3.33e-05	0	40	0	35425091584	32	15432
2026-01-04 10:46:20.98	262.03	22.94	-33.2	-33.5	13.6	3.33e-05	0	40	0	35542532096	32	15551
2026-01-04 10:46:21.96	261.76	22.79	-33.2	-33.5	13.6	3.33e-05	0	40	0	35643195392	32	15531
2026-01-04 10:46:22.95	261.48	22.64	-33.3	-33.5	13.6	3.33e-05	0	40	0	35760635904	32	15639
2026-01-04 10:46:23.94	261.21	22.49	-33.3	-33.5	13.6	1.90e-05	0	40	0	35869687808	32	15602
2026-01-04 10:46:24.93	260.94	22.34	-33.4	-33.7	13.6	1.90e-05	0	40	0	35987128320	32	15846
2026-01-04 10:46:25.92	260.67	22.19	-33.4	-33.6	13.6	2.38e-05	0	40	0	36087791616	32	15766
2026-01-04 10:46:26.91	260.41	22.04	-33.5	-33.7	13.6	2.38e-05	0	40	0	36205232128	32	16005
2026-01-04 10:46:27.90	260.14	21.89	-33.4	-33.7	13.6	2.38e-05	0	40	0	36314284032	32	15981
2026-01-04 10:46:28.89	259.89	21.75	-33.5	-33.8	13.6	2.38e-05	0	40	0	36431724544	32	16122
2026-01-04 10:46:29.87	259.63	21.60	-33.6	-33.9	13.6	4.29e-05	0	40	0	36532387840	32	16238
2026-01-04 10:46:30.87	259.38	21.45	-33.7	-34.0	13.6	4.29e-05	0	40	0	36649828352	33	15518
2026-01-04 10:46:31.85	259.13	21.31	-33.8	-34.0	13.6	3.81e-05	0	40	0	36758880256	33	15638
2026-01-04 10:46:32.83	258.88	21.17	-33.8	-34.1	13.6	3.81e-05	0	40	0	36867932160	33	15677
2026-01-04 10:46:33.82	258.64	21.02	-33.8	-34.1	13.6	3.81e-05	0	40	0	36976984064	33	15756
2026-01-04 10:46:34.81	258.40	20.88	-33.9	-34.1	13.6	5.72e-05	0	40	0	37094424576	33	15815
2026-01-04 10:46:35.79	258.16	20.74	-33.9	-34.1	13.6	5.72e-05	0	40	0	37203476480	33	15788
2026-01-04 10:46:36.78	257.92	20.59	-33.9	-34.2	13.5	5.72e-05	0	40	0	37312528384	33	15961
2026-01-04 10:46:37.77	257.69	20.45	-34.0	-34.3	13.5	6.67e-05	0	40	0	37421580288	33	16023
2026-01-04 10:46:38.76	257.45	20.31	-34.0	-34.3	13.5	6.67e-05	0	40	0	37539020800	33	16117
2026-01-04 10:46:39.76	257.22	20.17	-34.2	-34.4	13.5	6.67e-05	0	40	0	37648072704	34	15453
2026-01-04 10:46:40.75	256.99	20.03	-34.3	-34.6	13.5	6.67e-05	0	40	0	37757124608	34	15667
2026-01-04 10:46:41.74	256.77	19.89	-34.4	-34.6	13.5	6.67e-05	0	40	0	37874565120	34	15783
2026-01-04 10:46:42.73	256.55	19.75	-34.4	-34.7	13.5	9.53e-05	0	40	0	37983617024	34	15955
2026-01-04 10:46:43.72	256.33	19.61	-34.5	-34.7	13.5	9.53e-05	0	40	0	38092668928	34	15974
2026-01-04 10:46:44.70	256.11	19.47	-34.5	-34.8	13.5	9.53e-05	0	40	0	38201720832	34	16094
2026-01-04 10:46:45.69	255.89	19.33	-34.6	-34.9	13.5	1.24e-04	0	40	0	38319161344	34	16213
2026-01-04 10:46:46.68	255.68	19.19	-34.7	-34.9	13.5	1.24e-04	0	40	0	38428213248	35	15455
2026-01-04 10:46:47.67	255.47	19.06	-34.7	-35.0	13.4	1.72e-04	0	40	0	38537265152	35	15523
2026-01-04 10:46:48.66	255.26	18.92	-34.8	-35.1	13.4	1.72e-04	0	40	0	38646317056	35	15786
2026-01-04 10:46:49.66	255.05	18.78	-34.9	-35.2	13.4	1.72e-04	0	40	0	38763757568	35	15842
2026-01-04 10:46:50.66	254.84	18.65	-34.9	-35.2	13.4	1.62e-04	0	40	0	38872809472	35	15958
2026-01-04 10:46:51.65	254.64	18.51	-35.0	-35.3	13.4	1.62e-04	0	40	0	38990249984	35	16049
2026-01-04 10:46:52.65	254.44	18.38	-35.1	-35.4	13.4	1.62e-04	0	40	0	39099301888	35	16225
2026-01-04 10:46:53.64	254.24	18.25	-37.6	-37.9	13.5	1.62e-04	0	40	0	39208353792	41	15371
2026-01-04 10:46:54.63	254.04	18.11	-37.7	-37.9	13.5	1.95e-04	0	40	0	39325794304	41	15411
2026-01-04 10:46:55.62	253.85	17.98	-37.7	-38.0	13.5	1.95e-04	0	40	0	39434846208	41	15486
2026-01-04 10:46:56.61	253.66	17.85	-37.8	-38.1	13.5	1.95e-04	0	40	0	39543898112	41	15698
2026-01-04 10:46:57.60	253.46	17.72	-37.8	-38.1	13.5	1.95e-04	0	40	0	39652950016	41	15683
2026-01-04 10:46:58.59	253.28	17.59	-37.9	-38.2	13.5	1.38e-04	0	40	0	39770390528	41	15854
2026-01-04 10:46:59.58	253.09	17.46	-38.0	-38.3	13.5	1.38e-04	0	40	0	39879442432	41	16046
2026-01-04 10:47:00.58	252.90	17.33	-38.1	-38.4	13.5	1.33e-04	0	40	0	39996882944	42	15349
2026-01-04 10:47:01.57	252.72	17.20	-38.2	-38.5	13.5	1.33e-04	0	40	0	40097546240	42	15492
2026-01-04 10:47:02.56	252.54	17.07	-38.3	-38.5	13.5	1.33e-04	0	40	0	40214986752	42	15611
2026-01-04 10:47:03.54	252.36	16.95	-38.2	-38.5	13.4	1.33e-04	0	40	0	40324038656	42	15529
2026-01-04 10:47:04.54	252.18	16.82	-38.3	-38.6	13.4	9.53e-05	0	40	0	40441479168	42	15692
2026-01-04 10:47:05.52	252.01	16.69	-38.3	-38.6	13.4	9.53e-05	0	40	0	40542142464	42	15669
2026-01-04 10:47:06.52	251.83	16.57	-38.3	-38.6	13.4	1.14e-04	0	40	0	40659582976	42	15662
2026-01-04 10:47:07.50	251.66	16.44	-38.5	-38.7	13.4	1.14e-04	0	40	0	40768634880	42	15943
2026-01-04 10:47:08.49	251.49	16.32	-38.4	-38.7	13.4	1.14e-04	0	40	0	40886075392	42	15841
2026-01-04 10:47:09.48	251.32	16.19	-38.4	-38.7	13.4	2.91e-04	0	40	0	40995127296	42	15836
2026-01-04 10:47:10.47	251.15	16.07	-38.5	-38.7	13.4	2.91e-04	0	40	0	41104179200	42	16001
2026-01-04 10:47:11.46	250.98	15.95	-38.5	-38.8	13.4	2.67e-04	0	40	0	41213231104	42	16042
2026-01-04 10:47:12.45	250.82	15.83	-38.6	-38.9	13.3	2.67e-04	0	41	0	41330671616	42	16264
2026-01-04 10:47:13.43	250.66	15.71	-38.7	-38.9	13.4	2.67e-04	0	40	0	41439723520	43	15467
2026-01-04 10:47:14.42	250.50	15.58	-38.6	-38.9	13.4	2.67e-04	0	40	0	41548775424	43	15354
2026-01-04 10:47:15.41	250.34	15.46	-38.8	-39.0	13.3	3.05e-04	0	40	0	41657827328	43	15608
2026-01-04 10:47:16.40	250.18	15.34	-38.7	-39.0	13.3	3.05e-04	0	40	0	41775267840	43	15529
2026-01-04 10:47:17.39	250.02	15.23	-38.8	-39.0	13.3	3.34e-04	0	40	0	41884319744	43	15621
2026-01-04 10:47:18.38	249.87	15.11	-38.8	-39.0	13.4	3.34e-04	0	40	0	41993371648	43	15588
2026-01-04 10:47:19.38	249.71	14.99	-38.8	-39.0	13.3	3.34e-04	0	40	0	42110812160	43	15645
2026-01-04 10:47:20.38	249.56	14.87	-38.8	-39.1	13.3	3.34e-04	0	40	0	42219864064	43	15686
2026-01-04 10:47:21.37	249.41	14.75	-38.9	-39.1	13.3	4.86e-04	0	40	0	42328915968	43	15815
2026-01-04 10:47:22.35	249.26	14.64	-38.9	-39.2	13.3	4.86e-04	0	40	0	42437967872	43	15898
2026-01-04 10:47:23.34	249.11	14.52	-38.9	-39.2	13.3	4.86e-04	0	40	0	42555408384	43	15934
2026-01-04 10:47:24.33	248.97	14.40	-38.9	-39.2	13.3	4.34e-04	0	40	0	42664460288	43	15939
2026-01-04 10:47:25.32	248.82	14.29	-39.0	-39.3	13.3	4.34e-04	0	40	0	42773512192	43	16026
2026-01-04 10:47:26.31	248.68	14.18	-39.0	-39.2	13.3	4.34e-04	0	40	0	42882564096	43	15947
2026-01-04 10:47:27.29	248.54	14.06	-39.0	-39.3	13.3	5.29e-04	0	40	0	43000004608	43	16025
2026-01-04 10:47:28.29	248.39	13.95	-39.1	-39.3	13.3	5.29e-04	0	40	0	43109056512	43	16193
2026-01-04 10:47:29.28	248.25	13.84	-39.1	-39.3	13.3	5.29e-04	0	40	0	43226497024	43	16131
2026-01-04 10:47:30.27	248.11	13.72	-39.1	-39.3	13.3	5.77e-04	0	40	0	43327160320	43	16152
2026-01-04 10:47:31.26	247.98	13.61	-39.2	-39.5	13.2	5.77e-04	0	40	0	43444600832	44	15528
2026-01-04 10:47:32.25	247.84	13.50	-39.2	-39.4	13.3	5.77e-04	0	41	0	43553652736	44	15428
2026-01-04 10:47:33.24	247.70	13.39	-39.3	-39.5	13.2	5.58e-04	0	40	0	43662704640	44	15629
2026-01-04 10:47:34.24	247.57	13.28	-39.3	-39.6	13.2	5.58e-04	0	40	0	43780145152	44	15704
2026-01-04 10:47:35.23	247.44	13.17	-39.4	-39.7	13.2	5.58e-04	0	40	0	43889197056	44	15858
2026-01-04 10:47:36.22	247.31	13.06	-39.5	-39.8	13.2	7.39e-04	0	40	0	43998248960	44	16025
2026-01-04 10:47:37.22	247.17	12.95	-39.5	-39.8	13.2	7.39e-04	0	40	0	44107300864	44	16096
2026-01-04 10:47:38.21	247.05	12.84	-39.6	-39.8	13.2	7.39e-04	0	40	0	44224741376	44	16191
2026-01-04 10:47:39.20	246.92	12.73	-39.7	-40.0	13.2	7.39e-04	0	40	0	44333793280	45	15477
2026-01-04 10:47:40.20	246.79	12.63	-39.6	-39.9	13.2	9.39e-04	0	40	0	44451233792	45	15427
2026-01-04 10:47:41.19	246.66	12.52	-39.8	-40.0	13.2	9.39e-04	0	40	0	44560285696	45	15599
2026-01-04 10:47:42.18	246.54	12.41	-39.8	-40.0	13.2	9.39e-04	0	40	0	44677726208	45	15584
2026-01-04 10:47:43.17	246.42	12.31	-39.9	-40.1	13.1	1.00e-03	0	40	0	44778389504	45	15831
2026-01-04 10:47:44.16	246.29	12.20	-40.0	-40.3	13.1	1.00e-03	0	41	0	44895830016	45	16031
2026-01-04 10:47:45.14	246.17	12.10	-39.9	-40.2	13.1	1.00e-03	0	41	0	45004881920	45	15949
2026-01-04 10:47:46.13	246.05	11.99	-40.0	-40.3	13.1	1.26e-03	0	40	0	45113933824	45	16041
2026-01-04 10:47:47.11	245.94	11.89	-40.0	-40.3	13.1	1.26e-03	0	40	0	45222985728	45	16060
2026-01-04 10:47:48.10	245.82	11.79	-40.1	-40.4	13.1	1.26e-03	0	40	0	45340426240	45	16241
2026-01-04 10:47:49.08	245.70	11.69	-40.2	-40.4	13.1	1.37e-03	0	40	0	45449478144	46	15456
2026-01-04 10:47:50.06	245.59	11.59	-40.3	-40.5	13.1	1.37e-03	0	41	0	45558530048	46	15643
2026-01-04 10:47:51.05	245.47	11.48	-40.3	-40.5	13.1	1.76e-03	0	41	0	45667581952	46	15650
2026-01-04 10:47:52.04	245.36	11.38	-40.4	-40.7	13.0	1.76e-03	0	40	0	45785022464	46	15913
2026-01-04 10:47:53.03	245.24	11.28	-40.4	-40.7	13.0	1.76e-03	0	41	0	45894074368	46	15885
2026-01-04 10:47:54.03	245.13	11.18	-40.6	-40.8	13.0	2.31e-03	0	41	0	46003126272	46	16176
2026-01-04 10:47:55.02	245.02	11.08	-40.6	-40.8	13.0	2.31e-03	0	41	0	46112178176	46	16175
2026-01-04 10:47:56.01	244.91	10.98	-40.7	-40.9	13.0	2.31e-03	0	41	0	46229618688	47	15405
2026-01-04 10:47:57.00	244.80	10.88	-40.7	-41.0	13.0	2.53e-03	0	40	0	46338670592	47	15569
2026-01-04 10:47:57.99	244.69	10.78	-40.8	-41.1	13.0	2.53e-03	0	41	0	46447722496	47	15703
2026-01-04 10:47:58.98	244.58	10.68	-40.7	-41.0	13.0	2.82e-03	0	40	0	46565163008	47	15579
2026-01-04 10:47:59.97	244.48	10.59	-40.8	-41.0	13.0	2.82e-03	0	40	0	46674214912	47	15643
2026-01-04 10:48:00.97	244.37	10.49	-40.8	-41.1	12.9	2.82e-03	0	41	0	46783266816	47	15738
2026-01-04 10:48:01.96	244.27	10.39	-41.0	-41.2	12.9	2.82e-03	0	40	0	46892318720	47	15998
2026-01-04 10:48:02.95	244.16	10.29	-40.9	-41.2	12.9	3.10e-03	0	41	0	47009759232	47	15882
2026-01-04 10:48:03.94	244.06	10.20	-41.0	-41.3	12.8	3.10e-03	0	41	0	47118811136	47	16038
2026-01-04 10:48:04.93	243.96	10.10	-41.0	-41.3	12.8	3.55e-03	0	40	0	47236251648	47	16112
2026-01-04 10:48:05.92	243.85	10.01	-41.0	-41.3	12.8	3.55e-03	0	40	0	47336914944	47	16063
2026-01-04 10:48:06.91	243.75	9.91	-41.8	-42.1	12.9	3.55e-03	0	41	0	47454355456	49	15777
2026-01-04 10:48:07.89	243.65	9.82	-41.9	-42.2	12.9	3.55e-03	0	40	0	47563407360	49	15901
2026-01-04 10:48:08.87	243.56	9.72	-42.0	-42.3	12.9	3.25e-03	0	41	0	47672459264	49	16023
2026-01-04 10:48:09.86	243.46	9.63	-42.2	-42.5	12.8	3.25e-03	0	41	0	47781511168	50	15577
2026-01-04 10:48:10.84	243.36	9.54	-42.4	-42.7	12.8	3.77e-03	0	41	0	47898951680	50	15859
2026-01-04 10:48:11.84	243.26	9.44	-42.4	-42.7	12.7	3.77e-03	0	40	0	48008003584	50	15980
2026-01-04 10:48:12.83	243.17	9.35	-42.5	-42.8	12.7	3.77e-03	0	41	0	48125444096	50	16163
2026-01-04 10:48:13.82	243.07	9.26	-42.7	-43.0	12.7	6.51e-03	0	41	0	48226107392	51	15516
2026-01-04 10:48:14.82	242.98	9.17	-42.8	-43.1	12.7	6.51e-03	0	41	0	48343547904	51	15704
2026-01-04 10:48:15.81	242.88	9.08	-42.9	-43.2	12.7	6.51e-03	0	41	0	48452599808	51	15907
2026-01-04 10:48:16.80	242.79	8.98	-43.1	-43.4	12.7	7.04e-03	0	40	0	48570040320	51	16248
2026-01-04 10:48:17.80	242.70	8.89	-43.1	-43.3	12.7	7.04e-03	0	40	0	48679092224	52	15221
2026-01-04 10:48:18.79	242.61	8.80	-43.1	-43.4	12.7	7.04e-03	0	40	0	48788144128	52	15344
2026-01-04 10:48:19.77	242.52	8.71	-43.2	-43.5	12.7	6.69e-03	0	40	0	48897196032	52	15550
2026-01-04 10:48:20.76	242.43	8.62	-43.3	-43.6	12.6	6.69e-03	0	40	0	49006247936	52	15704
2026-01-04 10:48:21.75	242.34	8.53	-43.4	-43.7	12.6	7.13e-03	0	41	0	49123688448	52	15948
2026-01-04 10:48:22.75	242.25	8.44	-43.2	-43.5	12.6	7.13e-03	0	41	0	49232740352	52	15573
2026-01-04 10:48:23.74	242.16	8.36	-43.1	-43.4	12.7	7.13e-03	0	40	0	49350180864	52	15395
2026-01-04 10:48:24.73	242.07	8.27	-43.2	-43.5	12.6	9.30e-03	0	40	0	49459232768	52	15603
2026-01-04 10:48:25.72	241.99	8.18	-43.2	-43.5	12.6	9.30e-03	0	41	0	49568284672	52	15610
2026-01-04 10:48:26.71	241.90	8.09	-43.2	-43.5	12.6	9.30e-03	0	40	0	49677336576	52	15538
2026-01-04 10:48:27.70	241.81	8.01	-43.4	-43.7	12.5	9.30e-03	0	41	0	49794777088	52	15910
2026-01-04 10:48:28.68	241.73	7.92	-43.4	-43.7	12.6	1.00e-02	0	41	0	49903828992	52	15908
2026-01-04 10:48:29.67	241.65	7.83	-43.4	-43.7	12.6	1.00e-02	0	41	0	50012880896	52	15857
2026-01-04 10:48:30.66	241.56	7.75	-43.4	-43.7	12.6	9.52e-03	0	41	0	50121932800	52	15997
2026-01-04 10:48:31.66	241.48	7.66	-43.4	-43.7	12.6	9.52e-03	0	41	0	50239373312	52	15908
2026-01-04 10:48:32.65	241.40	7.58	-43.5	-43.8	12.6	9.52e-03	0	41	0	50348425216	52	16053
2026-01-04 10:48:33.64	241.32	7.49	-43.5	-43.8	12.6	9.52e-03	0	41	0	50457477120	52	16190
2026-01-04 10:48:34.62	241.24	7.41	-43.6	-43.9	12.6	9.51e-03	0	41	0	50566529024	53	15426
2026-01-04 10:48:35.62	241.16	7.32	-43.8	-44.1	12.5	9.51e-03	0	41	0	50683969536	53	15819
2026-01-04 10:48:36.60	241.08	7.24	-43.9	-44.2	12.5	9.51e-03	0	41	0	50793021440	53	15960
2026-01-04 10:48:37.60	241.00	7.15	-58.8	-62.0	6.2	1.19e-02	0	40	104	50893684736	75	35006
2026-01-04 10:48:38.59	240.92	7.07	-58.9	-62.1	6.2	1.19e-02	0	40	104	50893684736	83	22347
2026-01-04 10:48:39.58	240.84	6.99	-58.9	-62.1	6.2	1.19e-02	0	40	104	50893684736	83	22306
2026-01-04 10:48:40.57	240.76	6.90	-58.9	-62.2	6.2	1.19e-02	0	40	104	50893684736	83	22378
2026-01-04 10:48:41.57	240.69	6.82	-58.9	-62.1	6.2	1.19e-02	0	40	104	50893684736	83	22239
2026-01-04 10:48:42.56	240.61	6.74	-58.8	-62.1	6.2	1.19e-02	0	40	104	50893684736	83	22160
2026-01-04 10:48:43.56	240.53	6.66	-58.9	-62.1	6.2	1.19e-02	0	40	104	50893684736	83	22272
2026-01-04 10:48:44.53	240.46	6.58	-58.9	-62.1	6.2	1.19e-02	0	40	104	50893684736	83	22282
2026-01-04 10:48:45.53	240.38	6.49	-58.8	-62.0	6.2	1.19e-02	0	40	104	50893684736	83	22099
2026-01-04 10:48:46.52	240.31	6.41	-58.8	-62.0	6.2	1.19e-02	0	40	104	50893684736	83	21977
2026-01-04 10:48:47.51	240.24	6.33	-58.8	-62.0	6.2	2.70e-03	0	40	104	50893684736	83	22005
2026-01-04 10:48:48.50	240.16	6.25	-58.8	-62.0	6.2	2.70e-03	0	40	104	50893684736	83	22081
2026-01-04 10:48:49.49	240.09	6.17	-58.7	-61.9	6.2	2.70e-03	0	39	104	50893684736	83	21765
2026-01-04 10:48:50.48	240.02	6.09	-58.6	-61.9	6.2	2.70e-03	0	40	104	50893684736	83	21639
2026-01-04 10:48:51.47	239.95	6.01	-58.7	-61.9	6.2	2.70e-03	0	40	104	50893684736	83	21775
2026-01-04 10:48:52.45	239.88	5.93	-58.7	-61.9	6.2	2.70e-03	0	40	104	50893684736	83	21807
2026-01-04 10:48:53.44	239.81	5.85	-58.6	-61.8	6.2	2.70e-03	0	39	104	50893684736	83	21583
2026-01-04 10:48:54.44	239.74	5.77	-58.5	-61.8	6.2	2.70e-03	0	39	104	50893684736	83	21449
2026-01-04 10:48:55.43	239.67	5.70	-58.6	-61.8	6.2	2.70e-03	0	40	104	50893684736	83	21512
2026-01-04 10:48:56.41	239.60	5.62	-58.6	-61.8	6.2	2.70e-03	0	39	104	50893684736	83	21471
2026-01-04 10:48:57.41	239.53	5.54	-58.5	-61.8	6.2	2.70e-03	0	39	104	50893684736	83	21477
2026-01-04 10:48:58.40	239.46	5.46	-58.5	-61.7	6.2	0.00e+00	0	39	104	50893684736	83	21223
2026-01-04 10:48:59.39	239.39	5.39	-58.5	-61.7	6.2	0.00e+00	0	39	104	50893684736	83	21354
2026-01-04 10:49:00.38	239.33	5.31	-58.5	-61.8	6.2	0.00e+00	0	39	104	50893684736	83	21437
2026-01-04 10:49:01.36	239.26	5.23	-58.5	-61.7	6.2	0.00e+00	0	39	104	50893684736	83	21310
2026-01-04 10:49:02.35	239.19	5.16	-58.4	-61.6	6.2	0.00e+00	0	39	104	50893684736	83	21025
2026-01-04 10:49:03.33	239.13	5.08	-58.4	-61.6	6.2	0.00e+00	0	39	104	50893684736	83	21093
2026-01-04 10:49:04.32	239.06	5.00	-58.5	-61.7	6.2	0.00e+00	0	39	104	50893684736	83	21345
2026-01-04 10:49:05.32	239.00	4.93	-59.0	-62.3	6.2	0.00e+00	0	39	104	50893684736	83	22652
2026-01-04 10:49:06.32	238.93	4.85	-59.6	-62.8	6.2	0.00e+00	0	39	104	50893684736	84	22838
2026-01-04 10:49:07.32	238.87	4.78	-59.8	-63.1	6.2	0.00e+00	0	39	104	50893684736	85	22206
2026-01-04 10:49:08.31	238.81	4.70	-60.0	-63.3	6.2	0.00e+00	0	39	104	50893684736	85	22721
2026-01-04 10:49:09.31	238.74	4.62	-60.2	-63.5	6.2	0.00e+00	0	39	104	50893684736	86	21935
2026-01-04 10:49:10.31	238.68	4.55	-60.3	-63.6	6.2	0.00e+00	0	39	104	50893684736	86	22130
2026-01-04 10:49:11.31	238.62	4.47	-60.5	-63.7	6.2	0.00e+00	0	39	104	50893684736	86	22491
2026-01-04 10:49:12.31	238.55	4.40	-60.6	-63.8	6.2	0.00e+00	0	39	104	50893684736	86	22773
2026-01-04 10:49:13.32	238.49	4.32	-60.7	-63.9	6.2	0.00e+00	0	39	104	50893684736	87	21637
2026-01-04 10:49:14.32	238.43	4.25	-60.7	-64.0	6.2	0.00e+00	0	39	104	50893684736	87	21977
2026-01-04 10:49:15.31	238.37	4.18	-60.8	-64.0	6.2	0.00e+00	0	39	104	50893684736	87	22053
2026-01-04 10:49:16.31	238.31	4.10	-60.8	-64.1	6.2	0.00e+00	0	39	104	50893684736	87	22126
2026-01-04 10:49:17.31	238.25	4.03	-60.8	-64.1	6.2	0.00e+00	0	39	104	50893684736	87	22237
2026-01-04 10:49:18.30	238.19	3.96	-60.9	-64.1	6.2	0.00e+00	0	39	104	50893684736	87	22300
2026-01-04 10:49:19.30	238.13	3.88	-60.9	-64.1	6.2	0.00e+00	0	39	104	50893684736	87	22321
2026-01-04 10:49:20.31	238.07	3.81	-60.9	-64.1	6.2	0.00e+00	0	39	104	50893684736	87	22328
2026-01-04 10:49:21.30	238.01	3.74	-60.9	-64.2	6.2	0.00e+00	0	39	104	50893684736	87	22456
2026-01-04 10:49:22.30	237.95	3.67	-60.9	-64.2	6.2	0.00e+00	0	39	104	50893684736	87	22490
2026-01-04 10:49:23.29	237.90	3.59	-61.0	-64.2	6.2	0.00e+00	0	39	104	50893684736	87	22452
2026-01-04 10:49:24.29	237.84	3.52	-61.0	-64.2	6.2	0.00e+00	0	39	104	50893684736	87	22536
2026-01-04 10:49:25.30	237.78	3.45	-61.0	-64.3	6.2	0.00e+00	0	39	104	50893684736	87	22732
2026-01-04 10:49:26.29	237.72	3.38	-61.0	-64.3	6.2	0.00e+00	0	39	104	50893684736	87	22817
2026-01-04 10:49:27.29	237.67	3.31	-61.0	-64.2	6.2	0.00e+00	0	39	104	50893684736	87	22616
2026-01-04 10:49:28.27	237.61	3.24	-61.0	-64.2	6.2	0.00e+00	0	39	104	50893684736	87	22528
2026-01-04 10:49:29.26	237.56	3.17	-61.0	-64.2	6.2	0.00e+00	0	39	104	50893684736	87	22491
2026-01-04 10:49:30.25	237.50	3.10	-60.9	-64.2	6.2	0.00e+00	0	39	104	50893684736	87	22477
2026-01-04 10:49:31.23	237.45	3.03	-60.9	-64.2	6.2	0.00e+00	0	39	104	50893684736	87	22531
2026-01-04 10:49:32.22	237.39	2.96	-60.9	-64.2	6.2	0.00e+00	0	38	104	50893684736	87	22458
2026-01-04 10:49:33.21	237.34	2.89	-60.9	-64.1	6.2	0.00e+00	0	39	104	50893684736	87	22333
2026-01-04 10:49:34.20	237.29	2.82	-60.9	-64.1	6.2	0.00e+00	0	39	104	50893684736	87	22364
2026-01-04 10:49:35.19	237.23	2.75	-60.9	-64.1	6.2	0.00e+00	0	38	104	50893684736	87	22326
2026-01-04 10:49:36.19	237.18	2.68	-60.9	-64.2	6.2	0.00e+00	0	39	104	50893684736	87	22386
2026-01-04 10:49:37.18	237.13	2.62	-60.9	-64.1	6.2	0.00e+00	0	39	104	50893684736	87	22180
2026-01-04 10:49:38.17	237.08	2.55	-60.9	-64.1	6.2	0.00e+00	0	38	104	50893684736	87	22285
2026-01-04 10:49:39.16	237.02	2.48	-60.8	-64.1	6.2	0.00e+00	0	39	104	50893684736	87	22250
2026-01-04 10:49:40.15	236.97	2.41	-60.8	-64.1	6.2	0.00e+00	0	38	104	50893684736	87	22243
2026-01-04 10:49:41.14	236.92	2.34	-60.8	-64.1	6.2	0.00e+00	0	38	104	50893684736	87	22134
2026-01-04 10:49:42.13	236.87	2.28	-60.8	-64.1	6.2	0.00e+00	0	39	104	50893684736	87	22178
2026-01-04 10:49:43.13	236.82	2.21	-60.8	-64.0	6.2	0.00e+00	0	38	104	50893684736	87	22086
2026-01-04 10:49:44.12	236.77	2.14	-60.8	-64.0	6.2	0.00e+00	0	38	104	50893684736	87	22106
2026-01-04 10:49:45.11	236.72	2.07	-60.8	-64.1	6.2	0.00e+00	0	38	104	50893684736	87	22123
2026-01-04 10:49:46.10	236.67	2.01	-60.8	-64.1	6.2	0.00e+00	0	38	104	50893684736	87	22134
2026-01-04 10:49:47.10	236.62	1.94	-60.8	-64.0	6.2	0.00e+00	0	38	104	50893684736	87	22066

#Closed at: 2026-01-04 10:49:47
#Recorded file [50893 MB]: D:/lorett/data/31004_260104_133933.dat