passes_logs/2026/01/04/R3.2S_Murmansk/R3.2S_Murmansk__20260104_135753_FENGYUN_3D_rec.log

#Pass ID: 20260104_135753_FENGYUN 3D
#Satellite: FENGYUN 3D
#Configuration: FENGYUN 3D
#almurnet v.1.7.20251203
#Start time: 2026-01-04 13:57:55

#Version: 2.2.20231116
#Station: R3.2S_Murmansk
#Location: 33.079688 lon 68.888172 lat
#TLE: 1 43010U 17072A   26003.93866112 -.00000029  00000+0  82070-5 0  9995
#TLE: 2 43010  98.9913 335.5841 0001959 128.6134 231.5217 14.19691935421687

#Time	Az	El	Level	Level2	SNR	BER	BlckErr	Temp	State	Recorded	gain1	gain2
2026-01-04 13:57:55.05	213.01	2.09	-59.3	-72.2	3.8	8.45e-01	0	27	0	0	85	15283
2026-01-04 13:57:56.05	213.08	2.15	-59.1	-72.0	3.8	8.46e-01	0	28	104	0	83	16808
2026-01-04 13:57:57.05	213.15	2.20	-59.1	-72.0	3.8	8.45e-01	0	28	104	0	83	16750
2026-01-04 13:57:58.05	213.23	2.26	-59.1	-71.9	3.8	8.45e-01	0	28	104	0	83	16693
2026-01-04 13:57:59.05	213.30	2.31	-59.1	-71.9	3.8	8.45e-01	0	28	104	0	83	16688
2026-01-04 13:58:00.06	213.37	2.37	-59.1	-72.0	3.8	8.45e-01	0	28	104	0	83	16746
2026-01-04 13:58:01.05	213.45	2.42	-59.1	-72.0	3.8	8.45e-01	0	28	104	0	83	16822
2026-01-04 13:58:02.05	213.52	2.48	-59.1	-72.1	3.8	8.46e-01	0	28	104	0	83	16907
2026-01-04 13:58:03.04	213.59	2.53	-59.1	-72.1	3.8	8.45e-01	0	28	104	0	83	16980
2026-01-04 13:58:04.04	213.67	2.59	-59.1	-72.1	3.8	8.45e-01	0	28	104	0	83	16977
2026-01-04 13:58:05.04	213.74	2.64	-59.1	-72.0	3.8	8.45e-01	0	28	104	0	83	16882
2026-01-04 13:58:06.04	213.82	2.70	-59.1	-72.0	3.8	8.43e-01	0	28	104	0	83	16838
2026-01-04 13:58:07.03	213.89	2.76	-59.1	-71.9	3.8	8.46e-01	0	28	104	0	83	16563
2026-01-04 13:58:08.03	213.97	2.81	-59.1	-71.8	3.8	8.45e-01	0	28	104	0	83	16405
2026-01-04 13:58:09.03	214.04	2.87	-59.1	-71.9	3.8	8.46e-01	0	28	104	0	83	16575
2026-01-04 13:58:10.04	214.12	2.92	-59.1	-71.9	3.8	8.45e-01	0	28	104	0	83	16527
2026-01-04 13:58:11.04	214.20	2.98	-59.1	-71.8	3.8	8.45e-01	0	28	104	0	83	16487
2026-01-04 13:58:12.05	214.27	3.04	-59.1	-72.0	3.8	8.46e-01	0	28	104	0	83	16798
2026-01-04 13:58:13.04	214.35	3.09	-59.1	-72.1	3.8	8.44e-01	0	28	104	0	83	16890
2026-01-04 13:58:14.04	214.43	3.15	-59.1	-72.1	3.8	8.46e-01	0	28	104	0	83	17019
2026-01-04 13:58:15.05	214.50	3.20	-59.1	-72.1	3.8	8.45e-01	0	28	104	0	83	17039
2026-01-04 13:58:16.05	214.58	3.26	-59.1	-72.1	3.8	8.45e-01	0	28	104	0	83	16978
2026-01-04 13:58:17.06	214.66	3.32	-59.1	-72.1	3.8	8.45e-01	0	28	104	0	83	16936
2026-01-04 13:58:18.06	214.74	3.37	-59.1	-71.9	3.8	8.47e-01	0	28	104	0	83	16579
2026-01-04 13:58:19.07	214.82	3.43	-59.1	-71.6	3.8	8.45e-01	0	28	104	0	83	16058
2026-01-04 13:58:20.08	214.90	3.49	-59.1	-71.6	3.8	8.44e-01	0	28	104	0	83	16027
2026-01-04 13:58:21.07	214.98	3.54	-59.1	-71.4	3.8	8.46e-01	0	28	104	0	83	15597
2026-01-04 13:58:22.06	215.05	3.60	-59.1	-71.5	3.8	8.46e-01	0	28	104	0	83	15784
2026-01-04 13:58:23.07	215.13	3.66	-59.1	-71.4	3.8	8.45e-01	0	28	104	0	83	15755
2026-01-04 13:58:24.07	215.21	3.72	-59.1	-71.5	3.8	8.45e-01	0	29	104	0	83	15770
2026-01-04 13:58:25.07	215.29	3.77	-59.1	-71.5	3.8	8.45e-01	0	29	104	0	83	15839
2026-01-04 13:58:26.07	215.38	3.83	-59.1	-71.4	3.8	8.45e-01	0	29	104	0	83	15641
2026-01-04 13:58:27.07	215.46	3.89	-59.0	-71.3	3.8	8.47e-01	0	29	104	0	83	15553
2026-01-04 13:58:28.07	215.54	3.94	-59.0	-71.0	3.8	8.45e-01	0	29	104	0	83	14986
2026-01-04 13:58:29.07	215.62	4.00	-59.0	-71.1	3.8	8.45e-01	0	29	104	0	83	15104
2026-01-04 13:58:30.06	215.70	4.06	-59.0	-71.2	3.8	8.46e-01	0	29	104	0	83	15333
2026-01-04 13:58:31.07	215.78	4.12	-59.1	-71.8	3.8	8.45e-01	0	29	104	0	83	16357
2026-01-04 13:58:32.07	215.87	4.17	-59.1	-72.0	3.8	8.47e-01	0	29	104	0	83	16837
2026-01-04 13:58:33.07	215.95	4.23	-59.1	-71.9	3.8	8.45e-01	0	29	104	0	83	16677
2026-01-04 13:58:34.07	216.03	4.29	-59.0	-71.1	3.8	8.46e-01	0	29	104	0	83	15214
2026-01-04 13:58:35.08	216.11	4.35	-58.9	-69.8	3.8	8.44e-01	0	29	104	0	83	13097
2026-01-04 13:58:36.08	216.20	4.41	-58.8	-68.4	4.2	8.39e-01	0	29	0	0	83	11061
2026-01-04 13:58:37.08	216.28	4.46	-58.6	-67.3	4.6	8.16e-01	0	29	0	0	83	9802
2026-01-04 13:58:38.08	216.37	4.52	-58.6	-67.0	4.7	8.03e-01	0	29	0	0	83	9454
2026-01-04 13:58:39.07	216.45	4.58	-58.4	-66.2	5.1	7.56e-01	0	29	0	0	83	8628
2026-01-04 13:58:40.08	216.54	4.64	-58.5	-66.3	5.1	7.45e-01	0	29	0	0	83	8698
2026-01-04 13:58:41.07	216.62	4.70	-58.3	-65.5	5.5	7.44e-01	0	29	0	0	83	7909
2026-01-04 13:58:42.07	216.71	4.75	-57.8	-63.6	6.8	2.11e-01	0	29	0	5242880	82	6800
2026-01-04 13:58:43.07	216.79	4.81	-57.4	-62.4	7.8	9.59e-02	0	29	0	10485760	81	6209
2026-01-04 13:58:44.07	216.88	4.87	-56.5	-60.4	9.6	8.60e-03	0	29	0	16777216	79	5542
2026-01-04 13:58:45.08	216.97	4.93	-55.6	-58.7	10.9	7.93e-04	0	29	0	22020096	77	5115
2026-01-04 13:58:46.07	217.05	4.99	-54.9	-57.6	11.7	2.63e-05	0	29	0	28311552	76	4782
2026-01-04 13:58:47.08	217.14	5.05	-54.1	-56.5	12.3	2.20e-06	0	29	0	33554432	74	4713
2026-01-04 13:58:48.07	217.23	5.11	-54.1	-56.4	12.4	0.00e+00	0	29	0	38797312	74	4689
2026-01-04 13:58:49.07	217.31	5.16	-58.9	-71.1	3.8	8.43e-01	0	29	104	41943040	83	15187
2026-01-04 13:58:50.07	217.40	5.22	-51.1	-52.6	14.2	0.00e+00	0	29	0	42991616	68	4271
2026-01-04 13:58:51.06	217.49	5.28	-54.9	-57.5	11.8	1.10e-06	0	29	0	49283072	75	5010
2026-01-04 13:58:52.07	217.58	5.34	-50.7	-52.2	14.4	0.00e+00	0	29	0	54525952	67	4295
2026-01-04 13:58:53.07	217.67	5.40	-50.2	-51.6	14.6	0.00e+00	0	29	0	59768832	67	4042
2026-01-04 13:58:54.07	217.76	5.46	-50.1	-51.5	14.6	0.00e+00	0	29	0	66060288	66	4224
2026-01-04 13:58:55.06	217.85	5.52	-50.1	-51.5	14.6	0.00e+00	0	29	0	71303168	66	4233
2026-01-04 13:58:56.05	217.94	5.58	-50.2	-51.6	14.5	0.00e+00	0	29	0	77594624	66	4246
2026-01-04 13:58:57.05	218.03	5.64	-50.2	-51.6	14.5	0.00e+00	0	29	0	82837504	66	4256
2026-01-04 13:58:58.05	218.12	5.70	-50.3	-51.7	14.5	0.00e+00	0	29	0	88080384	66	4327
2026-01-04 13:58:59.04	218.21	5.76	-50.0	-51.4	14.6	0.00e+00	0	29	0	93323264	66	4169
2026-01-04 13:59:00.04	218.30	5.82	-50.2	-51.6	14.5	0.00e+00	0	29	0	99614720	66	4289
2026-01-04 13:59:01.04	218.39	5.88	-50.2	-51.7	14.5	0.00e+00	0	29	0	104857600	66	4294
2026-01-04 13:59:02.04	218.48	5.93	-50.3	-51.7	14.5	0.00e+00	0	29	0	110100480	66	4312
2026-01-04 13:59:03.04	218.58	5.99	-50.1	-51.4	14.6	0.00e+00	0	29	0	116391936	66	4179
2026-01-04 13:59:04.04	218.67	6.05	-50.2	-51.5	14.6	0.00e+00	0	29	0	121634816	66	4240
2026-01-04 13:59:05.04	218.76	6.11	-50.2	-51.6	14.5	0.00e+00	0	29	0	127926272	66	4290
2026-01-04 13:59:06.03	218.86	6.17	-50.1	-51.5	14.6	0.00e+00	0	29	0	133169152	66	4198
2026-01-04 13:59:07.03	218.95	6.23	-50.0	-51.4	14.7	0.00e+00	0	29	0	138412032	66	4170
2026-01-04 13:59:08.02	219.05	6.29	-49.9	-51.3	14.7	0.00e+00	0	29	0	144703488	66	4105
2026-01-04 13:59:09.02	219.14	6.35	-50.0	-51.4	14.7	0.00e+00	0	29	0	149946368	66	4147
2026-01-04 13:59:10.02	219.24	6.42	-50.0	-51.4	14.7	0.00e+00	0	29	0	155189248	66	4148
2026-01-04 13:59:11.02	219.33	6.48	-49.9	-51.3	14.7	0.00e+00	0	29	0	161480704	66	4099
2026-01-04 13:59:12.02	219.43	6.54	-49.8	-51.1	14.8	0.00e+00	0	29	0	166723584	66	4038
2026-01-04 13:59:13.03	219.52	6.60	-49.8	-51.1	14.8	0.00e+00	0	30	0	171966464	66	4035
2026-01-04 13:59:14.03	219.62	6.66	-49.8	-51.1	14.8	0.00e+00	0	29	0	178257920	66	4040
2026-01-04 13:59:15.02	219.72	6.72	-49.8	-51.1	14.8	0.00e+00	0	29	0	183500800	66	4033
2026-01-04 13:59:16.03	219.82	6.78	-49.8	-51.2	14.8	0.00e+00	0	29	0	189792256	66	4056
2026-01-04 13:59:17.02	219.91	6.84	-49.8	-51.1	14.8	0.00e+00	0	29	0	195035136	66	4045
2026-01-04 13:59:18.02	220.01	6.90	-49.8	-51.1	14.8	0.00e+00	0	29	0	200278016	66	4040
2026-01-04 13:59:19.02	220.11	6.96	-49.8	-51.2	14.8	0.00e+00	0	29	0	206569472	66	4063
2026-01-04 13:59:20.02	220.21	7.02	-49.7	-51.1	14.8	0.00e+00	0	29	0	211812352	66	4008
2026-01-04 13:59:21.02	220.31	7.09	-49.6	-50.9	14.8	0.00e+00	0	29	0	217055232	65	4190
2026-01-04 13:59:22.02	220.41	7.15	-49.6	-50.9	14.8	0.00e+00	0	29	0	223346688	65	4168
2026-01-04 13:59:23.03	220.51	7.21	-49.6	-50.9	14.8	0.00e+00	0	29	0	228589568	65	4160
2026-01-04 13:59:24.03	220.61	7.27	-49.6	-50.9	14.8	0.00e+00	0	29	0	233832448	65	4170
2026-01-04 13:59:25.03	220.71	7.33	-49.6	-50.9	14.8	0.00e+00	0	30	0	240123904	65	4153
2026-01-04 13:59:26.03	220.81	7.39	-49.6	-50.9	14.8	0.00e+00	0	29	0	245366784	65	4193
2026-01-04 13:59:27.03	220.92	7.46	-49.7	-51.0	14.8	0.00e+00	0	30	0	251658240	65	4220
2026-01-04 13:59:28.03	221.02	7.52	-49.7	-51.0	14.8	0.00e+00	0	29	0	256901120	65	4241
2026-01-04 13:59:29.03	221.12	7.58	-49.7	-51.0	14.8	0.00e+00	0	29	0	262144000	65	4229
2026-01-04 13:59:30.03	221.23	7.64	-49.7	-51.0	14.8	0.00e+00	0	29	0	268435456	65	4206
2026-01-04 13:59:31.02	221.33	7.70	-49.7	-51.1	14.8	0.00e+00	0	30	0	273678336	65	4256
2026-01-04 13:59:32.02	221.43	7.77	-49.8	-51.1	14.8	0.00e+00	0	30	0	278921216	65	4259
2026-01-04 13:59:33.02	221.54	7.83	-49.8	-51.1	14.8	0.00e+00	0	30	0	285212672	65	4267
2026-01-04 13:59:34.01	221.64	7.89	-49.8	-51.1	14.8	0.00e+00	0	30	0	290455552	65	4264
2026-01-04 13:59:35.01	221.75	7.95	-49.7	-51.0	14.8	0.00e+00	0	30	0	295698432	65	4216
2026-01-04 13:59:36.01	221.85	8.01	-49.7	-51.1	14.8	0.00e+00	0	30	0	301989888	65	4243
2026-01-04 13:59:37.00	221.96	8.08	-49.7	-51.0	14.8	0.00e+00	0	30	0	307232768	65	4229
2026-01-04 13:59:38.00	222.06	8.14	-49.6	-50.9	14.8	0.00e+00	0	30	0	313524224	65	4181
2026-01-04 13:59:39.00	222.17	8.20	-49.6	-50.9	14.8	0.00e+00	0	29	0	318767104	65	4176
2026-01-04 13:59:40.01	222.28	8.26	-49.4	-50.7	14.9	0.00e+00	0	29	0	324009984	65	4082
2026-01-04 13:59:41.01	222.39	8.33	-49.4	-50.7	14.9	0.00e+00	0	29	0	330301440	65	4089
2026-01-04 13:59:42.01	222.50	8.39	-49.4	-50.7	14.9	0.00e+00	0	30	0	335544320	65	4064
2026-01-04 13:59:43.01	222.61	8.45	-49.3	-50.6	15.0	0.00e+00	0	29	0	340787200	65	4030
2026-01-04 13:59:44.01	222.71	8.52	-49.3	-50.5	15.0	0.00e+00	0	30	0	347078656	65	3997
2026-01-04 13:59:45.01	222.82	8.58	-49.2	-50.5	15.0	0.00e+00	0	30	0	352321536	65	3973
2026-01-04 13:59:46.02	222.94	8.64	-49.3	-50.5	15.0	0.00e+00	0	30	0	357564416	65	3999
2026-01-04 13:59:47.02	223.05	8.71	-49.3	-50.6	15.0	0.00e+00	0	30	0	363855872	65	4019
2026-01-04 13:59:48.02	223.16	8.77	-49.4	-50.7	14.9	0.00e+00	0	30	0	369098752	65	4085
2026-01-04 13:59:49.02	223.27	8.83	-49.2	-50.5	15.0	0.00e+00	0	30	0	375390208	65	3985
2026-01-04 13:59:50.02	223.38	8.90	-49.4	-50.7	14.9	0.00e+00	0	30	0	380633088	65	4056
2026-01-04 13:59:51.02	223.49	8.96	-49.3	-50.6	15.0	0.00e+00	0	30	0	385875968	65	4038
2026-01-04 13:59:52.02	223.61	9.02	-49.3	-50.6	15.0	0.00e+00	0	30	0	392167424	65	4033
2026-01-04 13:59:53.02	223.72	9.09	-49.3	-50.6	15.0	0.00e+00	0	30	0	397410304	65	4026
2026-01-04 13:59:54.02	223.84	9.15	-49.3	-50.6	14.9	0.00e+00	0	30	0	402653184	65	4041
2026-01-04 13:59:55.02	223.95	9.21	-49.2	-50.4	15.0	0.00e+00	0	30	0	408944640	64	4181
2026-01-04 13:59:56.02	224.07	9.28	-49.0	-50.2	15.0	0.00e+00	0	30	0	414187520	64	4076
2026-01-04 13:59:57.01	224.18	9.34	-48.9	-50.1	15.1	0.00e+00	0	30	0	419430400	64	4050
2026-01-04 13:59:58.01	224.30	9.40	-49.0	-50.2	15.0	0.00e+00	0	30	0	425721856	64	4066
2026-01-04 13:59:59.00	224.41	9.47	-48.9	-50.1	15.1	0.00e+00	0	30	0	430964736	64	4034
2026-01-04 14:00:00.00	224.53	9.53	-49.0	-50.2	15.0	0.00e+00	0	30	0	437256192	64	4082
2026-01-04 14:00:01.00	224.65	9.60	-49.0	-50.2	15.1	0.00e+00	0	30	0	442499072	64	4069
2026-01-04 14:00:02.00	224.76	9.66	-48.9	-50.2	15.1	0.00e+00	0	30	0	447741952	64	4056
2026-01-04 14:00:03.00	224.88	9.72	-48.9	-50.2	15.1	0.00e+00	0	30	0	452984832	64	4053
2026-01-04 14:00:04.00	225.00	9.79	-49.0	-50.2	15.1	0.00e+00	0	30	0	459276288	64	4072
2026-01-04 14:00:04.99	225.12	9.85	-49.0	-50.2	15.1	0.00e+00	0	30	0	464519168	64	4070
2026-01-04 14:00:05.99	225.24	9.92	-49.0	-50.3	15.0	0.00e+00	0	30	0	469762048	64	4109
2026-01-04 14:00:06.99	225.36	9.98	-48.9	-50.2	15.1	0.00e+00	0	30	0	476053504	64	4053
2026-01-04 14:00:07.98	225.48	10.05	-48.8	-50.1	15.1	0.00e+00	0	30	0	481296384	64	4006
2026-01-04 14:00:08.99	225.60	10.11	-48.7	-50.0	15.2	0.00e+00	0	30	0	487587840	64	3959
2026-01-04 14:00:09.99	225.72	10.18	-48.6	-49.8	15.1	0.00e+00	0	30	0	492830720	63	4134
2026-01-04 14:00:10.99	225.85	10.24	-48.6	-49.8	15.1	0.00e+00	0	30	0	498073600	63	4123
2026-01-04 14:00:11.99	225.97	10.30	-48.7	-49.9	15.1	0.00e+00	0	30	0	504365056	63	4148
2026-01-04 14:00:12.99	226.09	10.37	-48.5	-49.7	15.2	0.00e+00	0	30	0	509607936	63	4065
2026-01-04 14:00:13.99	226.22	10.43	-48.5	-49.7	15.2	0.00e+00	0	30	0	514850816	63	4069
2026-01-04 14:00:14.99	226.34	10.50	-48.5	-49.7	15.2	0.00e+00	0	30	0	521142272	63	4078
2026-01-04 14:00:16.00	226.47	10.57	-48.5	-49.7	15.2	0.00e+00	0	30	0	526385152	63	4064
2026-01-04 14:00:17.00	226.59	10.63	-48.6	-49.8	15.2	0.00e+00	0	30	0	532676608	63	4110
2026-01-04 14:00:18.00	226.72	10.70	-48.6	-49.8	15.1	0.00e+00	0	30	0	537919488	63	4144
2026-01-04 14:00:19.00	226.85	10.76	-48.6	-49.8	15.1	0.00e+00	0	30	0	544210944	63	4130
2026-01-04 14:00:20.01	226.98	10.83	-48.7	-49.9	15.1	0.00e+00	0	30	0	549453824	63	4150
2026-01-04 14:00:21.01	227.10	10.89	-48.7	-49.9	15.1	0.00e+00	0	30	0	554696704	63	4177
2026-01-04 14:00:22.01	227.23	10.96	-48.8	-50.0	15.1	0.00e+00	0	30	0	560988160	63	4212
2026-01-04 14:00:23.01	227.36	11.02	-48.7	-49.9	15.1	0.00e+00	0	30	0	566231040	63	4191
2026-01-04 14:00:24.00	227.49	11.09	-48.7	-49.9	15.1	0.00e+00	0	30	0	571473920	63	4173
2026-01-04 14:00:25.00	227.62	11.15	-48.7	-49.9	15.1	0.00e+00	0	30	0	576716800	63	4152
2026-01-04 14:00:25.99	227.75	11.22	-48.7	-49.9	15.1	0.00e+00	0	30	0	583008256	63	4183
2026-01-04 14:00:27.00	227.88	11.28	-48.7	-49.9	15.1	0.00e+00	0	30	0	588251136	63	4161
2026-01-04 14:00:27.99	228.01	11.35	-48.7	-49.9	15.1	0.00e+00	0	30	0	594542592	63	4157
2026-01-04 14:00:28.99	228.14	11.41	-48.7	-49.9	15.1	0.00e+00	0	30	0	599785472	63	4188
2026-01-04 14:00:29.99	228.28	11.48	-48.7	-49.9	15.1	0.00e+00	0	30	0	605028352	63	4170
2026-01-04 14:00:30.99	228.41	11.55	-48.8	-50.0	15.1	0.00e+00	0	30	0	611319808	63	4240
2026-01-04 14:00:31.99	228.54	11.61	-48.7	-50.0	15.1	0.00e+00	0	30	0	616562688	63	4196
2026-01-04 14:00:33.00	228.68	11.68	-48.6	-49.8	15.2	0.00e+00	0	30	0	621805568	63	4116
2026-01-04 14:00:33.99	228.81	11.74	-48.4	-49.6	15.2	0.00e+00	0	30	0	628097024	63	4043
2026-01-04 14:00:35.00	228.95	11.81	-48.4	-49.7	15.2	0.00e+00	0	30	0	633339904	63	4052
2026-01-04 14:00:36.00	229.09	11.87	-48.3	-49.5	15.3	0.00e+00	0	30	0	638582784	63	3968
2026-01-04 14:00:36.99	229.22	11.94	-48.3	-49.4	15.3	0.00e+00	0	30	0	644874240	63	3945
2026-01-04 14:00:38.00	229.36	12.01	-48.4	-49.6	15.2	0.00e+00	0	30	0	650117120	63	4011
2026-01-04 14:00:39.00	229.50	12.07	-48.3	-49.5	15.3	0.00e+00	0	30	0	656408576	63	3976
2026-01-04 14:00:40.00	229.64	12.14	-48.3	-49.5	15.2	0.00e+00	0	30	0	661651456	63	3992
2026-01-04 14:00:41.00	229.78	12.20	-48.3	-49.5	15.3	0.00e+00	0	30	0	667942912	63	3981
2026-01-04 14:00:42.00	229.92	12.27	-48.4	-49.6	15.2	0.00e+00	0	30	0	673185792	63	4028
2026-01-04 14:00:43.01	230.06	12.34	-48.5	-49.7	15.2	0.00e+00	0	30	0	678428672	63	4062
2026-01-04 14:00:44.00	230.20	12.40	-48.4	-49.6	15.2	0.00e+00	0	30	0	684720128	63	4043
2026-01-04 14:00:45.00	230.34	12.47	-48.4	-49.5	15.3	0.00e+00	0	30	0	689963008	63	3998
2026-01-04 14:00:46.00	230.49	12.54	-48.3	-49.5	15.3	0.00e+00	0	30	0	695205888	63	3973
2026-01-04 14:00:47.01	230.63	12.60	-48.4	-49.6	15.2	0.00e+00	0	30	0	701497344	63	4023
2026-01-04 14:00:48.01	230.77	12.67	-48.3	-49.4	15.3	0.00e+00	0	30	0	706740224	63	3944
2026-01-04 14:00:49.01	230.92	12.73	-48.1	-49.3	15.3	0.00e+00	0	30	0	711983104	62	4107
2026-01-04 14:00:50.01	231.06	12.80	-48.0	-49.2	15.3	0.00e+00	0	30	0	718274560	62	4058
2026-01-04 14:00:51.02	231.21	12.87	-48.0	-49.1	15.3	0.00e+00	0	30	0	723517440	62	4025
2026-01-04 14:00:52.02	231.36	12.93	-47.9	-49.1	15.3	0.00e+00	0	30	0	729808896	62	4017
2026-01-04 14:00:53.02	231.50	13.00	-47.8	-49.0	15.4	0.00e+00	0	30	0	735051776	62	3963
2026-01-04 14:00:54.01	231.65	13.07	-47.8	-48.9	15.4	0.00e+00	0	30	0	740294656	62	3952
2026-01-04 14:00:55.01	231.80	13.13	-47.8	-49.0	15.4	0.00e+00	0	30	0	746586112	62	3963
2026-01-04 14:00:56.00	231.94	13.20	-47.8	-48.9	15.4	0.00e+00	0	30	0	751828992	62	3938
2026-01-04 14:00:56.99	232.09	13.26	-47.8	-49.0	15.4	0.00e+00	0	30	0	757071872	62	3970
2026-01-04 14:00:57.99	232.24	13.33	-47.8	-49.0	15.4	0.00e+00	0	30	0	762314752	62	3966
2026-01-04 14:00:58.99	232.39	13.40	-47.9	-49.1	15.3	0.00e+00	0	30	0	768606208	62	4009
2026-01-04 14:00:59.99	232.54	13.46	-47.9	-49.0	15.4	0.00e+00	0	30	0	773849088	62	3993
2026-01-04 14:01:00.99	232.70	13.53	-48.0	-49.1	15.3	0.00e+00	0	30	0	780140544	62	4038
2026-01-04 14:01:01.98	232.85	13.59	-47.9	-49.0	15.4	0.00e+00	0	30	0	785383424	62	3987
2026-01-04 14:01:02.97	233.00	13.66	-47.9	-49.0	15.3	0.00e+00	0	30	0	790626304	62	4002
2026-01-04 14:01:03.97	233.15	13.73	-47.9	-49.0	15.4	0.00e+00	0	30	0	796917760	62	3977
2026-01-04 14:01:04.97	233.31	13.79	-47.9	-49.0	15.4	0.00e+00	0	30	0	802160640	62	4001
2026-01-04 14:01:05.96	233.46	13.86	-47.9	-49.0	15.4	0.00e+00	0	30	0	807403520	62	3990
2026-01-04 14:01:06.96	233.62	13.92	-47.9	-49.1	15.4	0.00e+00	0	30	0	813694976	62	4005
2026-01-04 14:01:07.96	233.77	13.99	-47.9	-49.0	15.3	0.00e+00	0	30	0	818937856	62	4002
2026-01-04 14:01:08.96	233.93	14.06	-47.9	-49.1	15.3	0.00e+00	0	30	0	824180736	62	4008
2026-01-04 14:01:09.96	234.09	14.12	-47.8	-49.0	15.4	0.00e+00	0	30	0	830472192	62	3984
2026-01-04 14:01:10.95	234.25	14.19	-47.9	-49.0	15.4	0.00e+00	0	30	0	835715072	62	4003
2026-01-04 14:01:11.95	234.41	14.25	-47.9	-49.0	15.4	0.00e+00	0	30	0	842006528	62	4001
2026-01-04 14:01:12.95	234.57	14.32	-47.8	-49.0	15.4	0.00e+00	0	30	0	847249408	62	3980
2026-01-04 14:01:13.95	234.73	14.39	-47.9	-49.1	15.3	0.00e+00	0	30	0	852492288	62	4007
2026-01-04 14:01:14.94	234.89	14.45	-47.9	-49.0	15.4	0.00e+00	0	30	0	857735168	62	3984
2026-01-04 14:01:15.95	235.05	14.52	-47.8	-49.0	15.4	0.00e+00	0	30	0	864026624	62	3971
2026-01-04 14:01:16.95	235.21	14.58	-47.9	-49.0	15.4	0.00e+00	0	30	0	869269504	62	3981
2026-01-04 14:01:17.95	235.38	14.65	-47.9	-49.0	15.4	0.00e+00	0	30	0	875560960	62	3986
2026-01-04 14:01:18.95	235.54	14.72	-47.8	-49.0	15.4	0.00e+00	0	30	0	880803840	62	3968
2026-01-04 14:01:19.96	235.71	14.78	-47.7	-48.8	15.5	0.00e+00	0	30	0	886046720	62	3899
2026-01-04 14:01:20.96	235.87	14.85	-47.7	-48.8	15.5	0.00e+00	0	30	0	892338176	62	3911
2026-01-04 14:01:21.96	236.04	14.92	-47.6	-48.7	15.4	0.00e+00	0	30	0	897581056	61	4065
2026-01-04 14:01:22.96	236.21	14.98	-47.5	-48.7	15.4	0.00e+00	0	30	0	903872512	61	4055
2026-01-04 14:01:23.96	236.37	15.05	-47.5	-48.6	15.4	0.00e+00	0	30	0	909115392	61	4034
2026-01-04 14:01:24.96	236.54	15.11	-47.6	-48.7	15.4	0.00e+00	0	30	0	914358272	61	4059
2026-01-04 14:01:25.96	236.71	15.18	-47.5	-48.6	15.4	0.00e+00	0	30	0	920649728	61	4041
2026-01-04 14:01:26.95	236.88	15.24	-47.5	-48.6	15.4	0.00e+00	0	30	0	925892608	61	4043
2026-01-04 14:01:27.95	237.05	15.31	-47.5	-48.6	15.4	0.00e+00	0	30	0	931135488	61	4035
2026-01-04 14:01:28.94	237.22	15.37	-47.5	-48.6	15.4	0.00e+00	0	30	0	936378368	61	4032
2026-01-04 14:01:29.94	237.39	15.44	-47.5	-48.6	15.4	0.00e+00	0	30	0	942669824	61	4025
2026-01-04 14:01:30.93	237.56	15.50	-47.6	-48.7	15.4	0.00e+00	0	30	0	947912704	61	4067
2026-01-04 14:01:31.93	237.74	15.57	-47.5	-48.6	15.4	0.00e+00	0	30	0	954204160	61	4021
2026-01-04 14:01:32.93	237.91	15.63	-47.5	-48.6	15.4	0.00e+00	0	30	0	959447040	61	4029
2026-01-04 14:01:33.92	238.09	15.70	-47.5	-48.6	15.4	0.00e+00	0	30	0	964689920	61	4039
2026-01-04 14:01:34.92	238.26	15.76	-47.5	-48.6	15.4	0.00e+00	0	30	0	970981376	61	4020
2026-01-04 14:01:35.92	238.44	15.83	-47.4	-48.5	15.4	0.00e+00	0	30	0	976224256	61	3970
2026-01-04 14:01:36.90	238.61	15.89	-47.4	-48.5	15.4	0.00e+00	0	30	0	981467136	61	3999
2026-01-04 14:01:37.90	238.79	15.96	-47.3	-48.5	15.5	0.00e+00	0	30	0	987758592	61	3961
2026-01-04 14:01:38.90	238.97	16.02	-47.3	-48.4	15.5	0.00e+00	0	30	0	993001472	61	3941
2026-01-04 14:01:39.90	239.15	16.09	-47.3	-48.4	15.5	0.00e+00	0	30	0	998244352	61	3919
2026-01-04 14:01:40.89	239.33	16.15	-47.3	-48.4	15.5	0.00e+00	0	30	0	1004535808	61	3916
2026-01-04 14:01:41.89	239.51	16.21	-47.2	-48.3	15.5	0.00e+00	0	30	0	1009778688	61	3894
2026-01-04 14:01:42.89	239.69	16.28	-47.3	-48.4	15.5	0.00e+00	0	30	0	1015021568	61	3933
2026-01-04 14:01:43.90	239.87	16.34	-47.4	-48.5	15.5	0.00e+00	0	30	0	1021313024	61	3961
2026-01-04 14:01:44.90	240.06	16.41	-47.4	-48.6	15.4	0.00e+00	0	30	0	1026555904	61	4010
2026-01-04 14:01:45.90	240.24	16.47	-47.5	-48.6	15.4	0.00e+00	0	30	0	1032847360	61	4040
2026-01-04 14:01:46.89	240.42	16.54	-47.4	-48.6	15.4	0.00e+00	0	30	0	1038090240	61	4014
2026-01-04 14:01:47.89	240.61	16.60	-47.4	-48.5	15.4	0.00e+00	0	30	0	1043333120	61	4002
2026-01-04 14:01:48.89	240.79	16.66	-47.2	-48.3	15.5	0.00e+00	0	30	0	1048576000	61	3889
2026-01-04 14:01:49.89	240.98	16.73	-47.0	-48.1	15.4	0.00e+00	0	30	0	1054867456	60	4042
2026-01-04 14:01:50.89	241.17	16.79	-47.1	-48.2	15.4	0.00e+00	0	30	0	1060110336	60	4065
2026-01-04 14:01:51.89	241.36	16.85	-47.2	-48.3	15.4	0.00e+00	0	30	0	1066401792	60	4100
2026-01-04 14:01:52.89	241.55	16.92	-47.1	-48.2	15.4	0.00e+00	0	30	0	1071644672	60	4066
2026-01-04 14:01:53.88	241.74	16.98	-47.1	-48.2	15.4	0.00e+00	0	30	0	1076887552	60	4088
2026-01-04 14:01:54.88	241.93	17.04	-47.0	-48.0	15.5	0.00e+00	0	30	0	1083179008	60	3996
2026-01-04 14:01:55.88	242.12	17.10	-46.9	-48.0	15.5	0.00e+00	0	30	0	1088421888	60	3982
2026-01-04 14:01:56.88	242.31	17.17	-46.9	-47.9	15.5	0.00e+00	0	30	0	1093664768	60	3953
2026-01-04 14:01:57.87	242.50	17.23	-46.9	-48.0	15.5	0.00e+00	0	30	0	1099956224	60	3960
2026-01-04 14:01:58.87	242.70	17.29	-47.0	-48.0	15.5	0.00e+00	0	30	0	1105199104	60	4001
2026-01-04 14:01:59.86	242.89	17.35	-47.0	-48.0	15.5	0.00e+00	0	30	0	1111490560	60	4002
2026-01-04 14:02:00.85	243.08	17.41	-47.0	-48.1	15.5	0.00e+00	0	30	0	1116733440	60	4020
2026-01-04 14:02:01.84	243.28	17.47	-47.1	-48.2	15.4	0.00e+00	0	30	0	1121976320	60	4078
2026-01-04 14:02:02.83	243.47	17.54	-47.1	-48.2	15.5	0.00e+00	0	30	0	1127219200	60	4053
2026-01-04 14:02:03.82	243.67	17.60	-47.1	-48.2	15.5	0.00e+00	0	30	0	1133510656	60	4066
2026-01-04 14:02:04.83	243.87	17.66	-47.1	-48.2	15.4	0.00e+00	0	30	0	1138753536	60	4076
2026-01-04 14:02:05.82	244.07	17.72	-47.2	-48.3	15.4	0.00e+00	0	30	0	1143996416	60	4101
2026-01-04 14:02:06.81	244.26	17.78	-47.1	-48.2	15.4	0.00e+00	0	30	0	1150287872	60	4072
2026-01-04 14:02:07.81	244.47	17.84	-47.2	-48.3	15.4	0.00e+00	0	30	0	1155530752	60	4138
2026-01-04 14:02:08.81	244.67	17.90	-47.2	-48.3	15.4	0.00e+00	0	30	0	1161822208	60	4127
2026-01-04 14:02:09.81	244.87	17.96	-47.1	-48.2	15.5	0.00e+00	0	30	0	1167065088	60	4078
2026-01-04 14:02:10.81	245.07	18.02	-47.0	-48.1	15.5	0.00e+00	0	30	0	1172307968	60	4024
2026-01-04 14:02:11.81	245.28	18.08	-47.0	-48.1	15.5	0.00e+00	0	30	0	1178599424	60	4043
2026-01-04 14:02:12.81	245.48	18.14	-47.0	-48.0	15.5	0.00e+00	0	30	0	1183842304	60	4001
2026-01-04 14:02:13.82	245.69	18.20	-46.7	-47.8	15.6	0.00e+00	0	30	0	1189085184	60	3890
2026-01-04 14:02:14.82	245.90	18.26	-46.7	-47.8	15.6	0.00e+00	0	30	0	1195376640	60	3888
2026-01-04 14:02:15.82	246.10	18.32	-46.8	-47.9	15.6	0.00e+00	0	30	0	1200619520	60	3932
2026-01-04 14:02:16.81	246.31	18.38	-46.8	-47.9	15.6	0.00e+00	0	30	0	1205862400	60	3917
2026-01-04 14:02:17.81	246.52	18.44	-46.8	-47.9	15.5	0.00e+00	0	30	0	1212153856	60	3934
2026-01-04 14:02:18.81	246.73	18.50	-46.8	-47.9	15.5	0.00e+00	0	30	0	1217396736	60	3938
2026-01-04 14:02:19.81	246.94	18.55	-46.8	-47.9	15.5	0.00e+00	0	30	0	1223688192	60	3954
2026-01-04 14:02:20.80	247.15	18.61	-46.8	-47.8	15.6	0.00e+00	0	30	0	1228931072	60	3900
2026-01-04 14:02:21.81	247.36	18.67	-47.0	-48.1	15.4	0.00e+00	0	30	0	1234173952	59	4277
2026-01-04 14:02:22.83	247.58	18.73	-47.0	-48.1	15.4	0.00e+00	0	30	0	1240465408	59	4287
2026-01-04 14:02:23.83	247.79	18.79	-47.2	-48.3	15.4	0.00e+00	0	30	0	1245708288	59	4342
2026-01-04 14:02:24.83	248.01	18.84	-47.0	-48.1	15.4	0.00e+00	0	30	0	1250951168	59	4256
2026-01-04 14:02:25.83	248.22	18.90	-47.0	-48.1	15.4	0.00e+00	0	30	0	1257242624	59	4283
2026-01-04 14:02:26.82	248.44	18.96	-47.0	-48.1	15.4	0.00e+00	0	30	0	1262485504	59	4269
2026-01-04 14:02:27.82	248.65	19.01	-47.1	-48.2	15.4	0.00e+00	0	30	0	1267728384	59	4309
2026-01-04 14:02:28.81	248.87	19.07	-47.3	-48.4	15.3	0.00e+00	0	30	0	1274019840	59	4413
2026-01-04 14:02:29.81	249.09	19.12	-47.2	-48.3	15.4	0.00e+00	0	30	0	1279262720	59	4377
2026-01-04 14:02:30.81	249.30	19.18	-47.2	-48.3	15.4	0.00e+00	0	30	0	1284505600	59	4357
2026-01-04 14:02:31.81	249.52	19.23	-47.2	-48.3	15.4	0.00e+00	0	30	0	1290797056	59	4379
2026-01-04 14:02:32.81	249.74	19.29	-47.1	-48.2	15.4	0.00e+00	0	30	0	1296039936	59	4327
2026-01-04 14:02:33.81	249.97	19.34	-47.0	-48.1	15.4	0.00e+00	0	30	0	1301282816	59	4266
2026-01-04 14:02:34.80	250.19	19.40	-46.9	-48.0	15.4	0.00e+00	0	30	0	1307574272	59	4212
2026-01-04 14:02:35.81	250.41	19.45	-47.0	-48.1	15.4	0.00e+00	0	30	0	1312817152	59	4245
2026-01-04 14:02:36.81	250.63	19.50	-46.9	-48.0	15.4	0.00e+00	0	30	0	1318060032	59	4226
2026-01-04 14:02:37.80	250.86	19.56	-47.0	-48.1	15.4	0.00e+00	0	30	0	1324351488	59	4269
2026-01-04 14:02:38.79	251.08	19.61	-47.0	-48.1	15.4	0.00e+00	0	30	0	1329594368	59	4261
2026-01-04 14:02:39.79	251.30	19.66	-46.9	-48.0	15.4	0.00e+00	0	30	0	1335885824	59	4227
2026-01-04 14:02:40.79	251.53	19.71	-47.0	-48.1	15.4	0.00e+00	0	30	0	1341128704	59	4257
2026-01-04 14:02:41.79	251.76	19.77	-47.0	-48.1	15.4	0.00e+00	0	30	0	1346371584	59	4244
2026-01-04 14:02:42.79	251.99	19.82	-46.9	-48.0	15.4	0.00e+00	0	30	0	1352663040	59	4209
2026-01-04 14:02:43.79	252.22	19.87	-46.9	-48.0	15.4	0.00e+00	0	30	0	1357905920	59	4218
2026-01-04 14:02:44.79	252.44	19.92	-46.9	-48.0	15.4	0.00e+00	0	30	0	1363148800	59	4215
2026-01-04 14:02:45.79	252.68	19.97	-46.7	-47.8	15.5	0.00e+00	0	30	0	1369440256	59	4135
2026-01-04 14:02:46.79	252.91	20.02	-46.7	-47.7	15.5	0.00e+00	0	30	0	1374683136	59	4098
2026-01-04 14:02:47.79	253.14	20.07	-46.6	-47.6	15.6	0.00e+00	0	30	0	1379926016	59	4044
2026-01-04 14:02:48.80	253.37	20.12	-46.5	-47.5	15.6	0.00e+00	0	30	0	1386217472	59	3994
2026-01-04 14:02:49.81	253.61	20.17	-46.5	-47.5	15.6	0.00e+00	0	30	0	1391460352	59	4002
2026-01-04 14:02:50.81	253.84	20.22	-46.5	-47.6	15.6	0.00e+00	0	30	0	1397751808	59	4026
2026-01-04 14:02:51.81	254.08	20.27	-46.6	-47.7	15.5	0.00e+00	0	30	0	1402994688	59	4085
2026-01-04 14:02:52.81	254.31	20.32	-46.7	-47.8	15.5	0.00e+00	0	30	0	1408237568	59	4107
2026-01-04 14:02:53.81	254.55	20.36	-46.8	-47.9	15.5	0.00e+00	0	30	0	1414529024	59	4160
2026-01-04 14:02:54.81	254.79	20.41	-46.6	-47.7	15.5	0.00e+00	0	30	0	1419771904	59	4081
2026-01-04 14:02:55.81	255.02	20.46	-46.6	-47.7	15.5	0.00e+00	0	30	0	1425014784	59	4069
2026-01-04 14:02:56.80	255.26	20.50	-46.7	-47.7	15.5	0.00e+00	0	30	0	1431306240	59	4088
2026-01-04 14:02:57.80	255.50	20.55	-46.6	-47.7	15.5	0.00e+00	0	30	0	1436549120	59	4073
2026-01-04 14:02:58.79	255.73	20.60	-46.5	-47.6	15.6	0.00e+00	0	30	0	1441792000	59	4011
2026-01-04 14:02:59.79	255.98	20.64	-46.4	-47.5	15.6	0.00e+00	0	30	0	1448083456	59	3962
2026-01-04 14:03:00.79	256.22	20.69	-46.4	-47.5	15.6	0.00e+00	0	30	0	1453326336	59	3960
2026-01-04 14:03:01.78	256.46	20.73	-46.5	-47.6	15.6	0.00e+00	0	30	0	1459617792	59	4017
2026-01-04 14:03:02.77	256.70	20.77	-46.7	-47.8	15.5	0.00e+00	0	30	0	1464860672	59	4112
2026-01-04 14:03:03.77	256.94	20.82	-46.8	-47.9	15.5	0.00e+00	0	30	0	1470103552	59	4159
2026-01-04 14:03:04.77	257.18	20.86	-46.8	-47.9	15.5	0.00e+00	0	30	0	1475346432	59	4181
2026-01-04 14:03:05.76	257.42	20.90	-46.8	-47.9	15.5	0.00e+00	0	30	0	1481637888	59	4154
2026-01-04 14:03:06.75	257.67	20.94	-46.7	-47.8	15.5	0.00e+00	0	30	0	1486880768	59	4111
2026-01-04 14:03:07.75	257.91	20.99	-46.8	-47.8	15.5	0.00e+00	0	30	0	1492123648	59	4140
2026-01-04 14:03:08.75	258.16	21.03	-46.7	-47.8	15.5	0.00e+00	0	30	0	1498415104	59	4116
2026-01-04 14:03:09.74	258.40	21.07	-46.6	-47.7	15.5	0.00e+00	0	30	0	1503657984	59	4058
2026-01-04 14:03:10.75	258.65	21.11	-46.7	-47.7	15.5	0.00e+00	0	30	0	1509949440	59	4095
2026-01-04 14:03:11.74	258.90	21.15	-46.6	-47.7	15.5	0.00e+00	0	30	0	1515192320	59	4079
2026-01-04 14:03:12.74	259.15	21.19	-46.6	-47.7	15.6	0.00e+00	0	30	0	1520435200	59	4063
2026-01-04 14:03:13.74	259.40	21.23	-46.7	-47.7	15.5	0.00e+00	0	30	0	1526726656	59	4096
2026-01-04 14:03:14.74	259.65	21.26	-46.7	-47.8	15.5	0.00e+00	0	30	0	1531969536	59	4099
2026-01-04 14:03:15.73	259.89	21.30	-46.7	-47.7	15.5	0.00e+00	0	30	0	1537212416	59	4089
2026-01-04 14:03:16.73	260.15	21.34	-46.7	-47.8	15.5	0.00e+00	0	30	0	1543503872	59	4099
2026-01-04 14:03:17.73	260.40	21.38	-46.6	-47.6	15.6	0.00e+00	0	30	0	1548746752	59	4041
2026-01-04 14:03:18.73	260.65	21.41	-46.5	-47.6	15.6	0.00e+00	0	30	0	1553989632	59	4018
2026-01-04 14:03:19.73	260.90	21.45	-46.6	-47.6	15.5	0.00e+00	0	30	0	1560281088	59	4046
2026-01-04 14:03:20.72	261.15	21.48	-46.5	-47.5	15.6	0.00e+00	0	30	0	1565523968	59	3992
2026-01-04 14:03:21.73	261.41	21.52	-46.5	-47.6	15.6	0.00e+00	0	30	0	1571815424	59	4013
2026-01-04 14:03:22.73	261.66	21.55	-46.4	-47.5	15.6	0.00e+00	0	30	0	1577058304	59	3961
2026-01-04 14:03:23.73	261.92	21.59	-46.5	-47.5	15.6	0.00e+00	0	30	0	1582301184	59	3986
2026-01-04 14:03:24.73	262.18	21.62	-46.4	-47.5	15.6	0.00e+00	0	30	0	1588592640	59	3974
2026-01-04 14:03:25.72	262.43	21.65	-46.4	-47.4	15.6	0.00e+00	0	30	0	1593835520	59	3954
2026-01-04 14:03:26.73	262.69	21.69	-46.5	-47.6	15.6	0.00e+00	0	30	0	1599078400	59	4019
2026-01-04 14:03:27.73	262.95	21.72	-46.6	-47.6	15.6	0.00e+00	0	30	0	1605369856	59	4041
2026-01-04 14:03:28.73	263.20	21.75	-46.5	-47.6	15.6	0.00e+00	0	30	0	1610612736	59	4019
2026-01-04 14:03:29.73	263.46	21.78	-46.5	-47.6	15.5	0.00e+00	0	30	0	1616904192	59	4034
2026-01-04 14:03:30.73	263.72	21.81	-46.6	-47.6	15.5	0.00e+00	0	30	0	1622147072	59	4042
2026-01-04 14:03:31.74	263.98	21.84	-46.6	-47.6	15.6	0.00e+00	0	30	0	1627389952	59	4049
2026-01-04 14:03:32.74	264.24	21.87	-46.6	-47.7	15.5	0.00e+00	0	30	0	1633681408	59	4074
2026-01-04 14:03:33.73	264.50	21.90	-46.6	-47.7	15.5	0.00e+00	0	30	0	1638924288	59	4064
2026-01-04 14:03:34.73	264.76	21.93	-46.6	-47.6	15.5	0.00e+00	0	30	0	1644167168	59	4045
2026-01-04 14:03:35.73	265.02	21.95	-46.6	-47.7	15.5	0.00e+00	0	30	0	1650458624	59	4076
2026-01-04 14:03:36.72	265.28	21.98	-46.7	-47.8	15.5	0.00e+00	0	30	0	1655701504	59	4139
2026-01-04 14:03:37.72	265.54	22.01	-46.7	-47.8	15.5	0.00e+00	0	30	0	1660944384	59	4115
2026-01-04 14:03:38.71	265.80	22.03	-46.7	-47.8	15.5	0.00e+00	0	30	0	1667235840	59	4119
2026-01-04 14:03:39.72	266.07	22.06	-46.6	-47.7	15.5	0.00e+00	0	30	0	1672478720	59	4072
2026-01-04 14:03:40.72	266.33	22.08	-46.6	-47.7	15.5	0.00e+00	0	30	0	1677721600	59	4068
2026-01-04 14:03:41.72	266.59	22.10	-46.6	-47.6	15.6	0.00e+00	0	30	0	1684013056	59	4051
2026-01-04 14:03:42.72	266.86	22.13	-46.4	-47.5	15.6	0.00e+00	0	30	0	1689255936	59	3974
2026-01-04 14:03:43.72	267.12	22.15	-46.5	-47.6	15.6	0.00e+00	0	30	0	1694498816	59	4009
2026-01-04 14:03:44.72	267.39	22.17	-46.6	-47.7	15.6	0.00e+00	0	30	0	1700790272	59	4064
2026-01-04 14:03:45.72	267.65	22.19	-46.6	-47.7	15.5	0.00e+00	0	30	0	1706033152	59	4087
2026-01-04 14:03:46.72	267.92	22.22	-46.5	-47.6	15.6	0.00e+00	0	30	0	1711276032	59	4012
2026-01-04 14:03:47.72	268.18	22.24	-46.6	-47.6	15.6	0.00e+00	0	30	0	1717567488	59	4051
2026-01-04 14:03:48.71	268.45	22.26	-46.4	-47.5	15.6	0.00e+00	0	30	0	1722810368	59	3964
2026-01-04 14:03:49.72	268.72	22.27	-46.3	-47.4	15.7	0.00e+00	0	30	0	1729101824	59	3929
2026-01-04 14:03:50.71	268.98	22.29	-46.4	-47.5	15.6	0.00e+00	0	30	0	1734344704	59	3977
2026-01-04 14:03:51.71	269.25	22.31	-46.5	-47.5	15.6	0.00e+00	0	30	0	1739587584	59	3995
2026-01-04 14:03:52.71	269.51	22.33	-46.4	-47.5	15.6	0.00e+00	0	30	0	1745879040	59	3983
2026-01-04 14:03:53.70	269.78	22.34	-46.4	-47.5	15.6	0.00e+00	0	30	0	1751121920	59	3964
2026-01-04 14:03:54.71	270.05	22.36	-46.5	-47.5	15.6	0.00e+00	0	30	0	1756364800	59	3992
2026-01-04 14:03:55.71	270.32	22.38	-46.2	-47.3	15.7	0.00e+00	0	30	0	1762656256	59	3869
2026-01-04 14:03:56.72	270.59	22.39	-46.1	-47.2	15.6	0.00e+00	0	30	0	1767899136	58	4066
2026-01-04 14:03:57.72	270.86	22.41	-46.3	-47.3	15.5	0.00e+00	0	30	0	1773142016	58	4142
2026-01-04 14:03:58.71	271.12	22.42	-46.4	-47.5	15.5	0.00e+00	0	30	0	1779433472	58	4205
2026-01-04 14:03:59.72	271.40	22.43	-46.5	-47.6	15.5	0.00e+00	0	30	0	1784676352	58	4244
2026-01-04 14:04:00.71	271.66	22.44	-46.6	-47.7	15.5	0.00e+00	0	30	0	1790967808	58	4299
2026-01-04 14:04:01.71	271.93	22.46	-46.6	-47.7	15.5	0.00e+00	0	30	0	1796210688	58	4319
2026-01-04 14:04:02.71	272.20	22.47	-46.5	-47.6	15.5	0.00e+00	0	30	0	1801453568	58	4266
2026-01-04 14:04:03.71	272.47	22.48	-46.5	-47.6	15.5	0.00e+00	0	30	0	1807745024	58	4270
2026-01-04 14:04:04.70	272.74	22.49	-46.5	-47.6	15.5	0.00e+00	0	30	0	1812987904	58	4248
2026-01-04 14:04:05.70	273.01	22.50	-46.3	-47.4	15.5	0.00e+00	0	30	0	1818230784	58	4161
2026-01-04 14:04:06.69	273.28	22.50	-46.4	-47.5	15.5	0.00e+00	0	30	0	1824522240	58	4194
2026-01-04 14:04:07.69	273.55	22.51	-46.5	-47.6	15.5	0.00e+00	0	30	0	1829765120	58	4252
2026-01-04 14:04:08.69	273.82	22.52	-46.5	-47.6	15.5	0.00e+00	0	30	0	1835008000	58	4283
2026-01-04 14:04:09.68	274.09	22.53	-46.5	-47.6	15.5	0.00e+00	0	30	0	1841299456	58	4277
2026-01-04 14:04:10.68	274.36	22.53	-46.5	-47.6	15.5	0.00e+00	0	30	0	1846542336	58	4276
2026-01-04 14:04:11.67	274.63	22.54	-46.4	-47.5	15.5	0.00e+00	0	30	0	1851785216	58	4213
2026-01-04 14:04:12.67	274.90	22.54	-46.5	-47.5	15.5	0.00e+00	0	30	0	1858076672	58	4238
2026-01-04 14:04:13.67	275.17	22.55	-46.4	-47.4	15.5	0.00e+00	0	30	0	1863319552	58	4189
2026-01-04 14:04:14.67	275.44	22.55	-46.4	-47.4	15.5	0.00e+00	0	30	0	1868562432	58	4184
2026-01-04 14:04:15.66	275.71	22.55	-46.5	-47.5	15.5	0.00e+00	0	30	0	1874853888	58	4226
2026-01-04 14:04:16.66	275.98	22.55	-46.4	-47.5	15.5	0.00e+00	0	30	0	1880096768	58	4218
2026-01-04 14:04:17.66	276.25	22.55	-46.4	-47.5	15.5	0.00e+00	0	30	0	1885339648	58	4211
2026-01-04 14:04:18.67	276.52	22.56	-46.5	-47.5	15.5	0.00e+00	0	30	0	1891631104	58	4232
2026-01-04 14:04:19.67	276.79	22.56	-46.5	-47.5	15.5	0.00e+00	0	30	0	1896873984	58	4232
2026-01-04 14:04:20.67	277.07	22.56	-46.5	-47.5	15.5	0.00e+00	0	30	0	1903165440	58	4231
2026-01-04 14:04:21.68	277.34	22.55	-46.4	-47.5	15.5	0.00e+00	0	30	0	1908408320	58	4208
2026-01-04 14:04:22.68	277.61	22.55	-46.5	-47.5	15.5	0.00e+00	0	30	0	1914699776	58	4228
2026-01-04 14:04:23.67	277.88	22.55	-46.4	-47.5	15.5	0.00e+00	0	30	0	1919942656	58	4198
2026-01-04 14:04:24.67	278.15	22.55	-46.4	-47.5	15.5	0.00e+00	0	30	0	1925185536	58	4195
2026-01-04 14:04:25.67	278.42	22.54	-46.4	-47.5	15.5	0.00e+00	0	30	0	1930428416	58	4205
2026-01-04 14:04:26.68	278.69	22.54	-46.5	-47.6	15.5	0.00e+00	0	30	0	1936719872	58	4280
2026-01-04 14:04:27.68	278.97	22.53	-46.5	-47.6	15.5	0.00e+00	0	30	0	1941962752	58	4266
2026-01-04 14:04:28.68	279.24	22.53	-46.5	-47.6	15.5	0.00e+00	0	30	0	1948254208	58	4261
2026-01-04 14:04:29.68	279.51	22.52	-46.6	-47.6	15.5	0.00e+00	0	30	0	1953497088	58	4280
2026-01-04 14:04:30.68	279.78	22.51	-46.5	-47.6	15.5	0.00e+00	0	30	0	1958739968	58	4268
2026-01-04 14:04:31.67	280.04	22.51	-46.6	-47.7	15.5	0.00e+00	0	30	0	1965031424	58	4293
2026-01-04 14:04:32.67	280.32	22.50	-46.7	-47.7	15.5	0.00e+00	0	30	0	1970274304	58	4337
2026-01-04 14:04:33.67	280.59	22.49	-46.5	-47.6	15.5	0.00e+00	0	30	0	1975517184	58	4270
2026-01-04 14:04:34.66	280.85	22.48	-46.5	-47.5	15.5	0.00e+00	0	30	0	1981808640	58	4240
2026-01-04 14:04:35.66	281.12	22.47	-46.5	-47.6	15.5	0.00e+00	0	30	0	1987051520	58	4243
2026-01-04 14:04:36.66	281.39	22.46	-46.6	-47.7	15.5	0.00e+00	0	30	0	1992294400	58	4296
2026-01-04 14:04:37.66	281.66	22.45	-46.7	-47.8	15.4	0.00e+00	0	31	0	1998585856	58	4346
2026-01-04 14:04:38.66	281.93	22.43	-46.7	-47.8	15.4	0.00e+00	0	30	0	2003828736	58	4349
2026-01-04 14:04:39.66	282.20	22.42	-46.7	-47.7	15.4	0.00e+00	0	30	0	2009071616	58	4340
2026-01-04 14:04:40.66	282.47	22.41	-46.6	-47.7	15.4	0.00e+00	0	30	0	2015363072	58	4300
2026-01-04 14:04:41.66	282.74	22.39	-46.6	-47.6	15.5	0.00e+00	0	30	0	2020605952	58	4282
2026-01-04 14:04:42.67	283.01	22.38	-46.5	-47.6	15.5	0.00e+00	0	30	0	2026897408	58	4246
2026-01-04 14:04:43.67	283.28	22.36	-46.6	-47.6	15.5	0.00e+00	0	30	0	2032140288	58	4281
2026-01-04 14:04:44.67	283.54	22.35	-46.5	-47.6	15.5	0.00e+00	0	30	0	2037383168	58	4275
2026-01-04 14:04:45.67	283.81	22.33	-46.5	-47.6	15.5	0.00e+00	0	30	0	2043674624	58	4280
2026-01-04 14:04:46.67	284.08	22.31	-46.6	-47.7	15.5	0.00e+00	0	30	0	2048917504	58	4300
2026-01-04 14:04:47.67	284.34	22.30	-46.6	-47.7	15.5	0.00e+00	0	30	0	2054160384	58	4318
2026-01-04 14:04:48.67	284.61	22.28	-46.7	-47.7	15.5	0.00e+00	0	30	0	2060451840	58	4337
2026-01-04 14:04:49.67	284.88	22.26	-46.6	-47.7	15.5	0.00e+00	0	30	0	2065694720	58	4311
2026-01-04 14:04:50.66	285.14	22.24	-46.7	-47.7	15.5	0.00e+00	0	30	0	2070937600	58	4334
2026-01-04 14:04:51.66	285.41	22.22	-46.6	-47.7	15.5	0.00e+00	0	30	0	2077229056	58	4297
2026-01-04 14:04:52.66	285.67	22.20	-46.6	-47.7	15.5	0.00e+00	0	30	0	2082471936	58	4316
2026-01-04 14:04:53.66	285.94	22.18	-46.8	-47.9	15.4	0.00e+00	0	30	0	2088763392	58	4396
2026-01-04 14:04:54.65	286.20	22.16	-46.7	-47.8	15.4	0.00e+00	0	30	0	2094006272	58	4362
2026-01-04 14:04:55.65	286.46	22.13	-46.7	-47.8	15.4	0.00e+00	0	30	0	2099249152	58	4363
2026-01-04 14:04:56.65	286.73	22.11	-46.7	-47.8	15.4	0.00e+00	0	30	0	2105540608	58	4366
2026-01-04 14:04:57.64	286.99	22.09	-46.7	-47.8	15.4	0.00e+00	0	30	0	2110783488	58	4355
2026-01-04 14:04:58.64	287.25	22.06	-46.7	-47.8	15.4	0.00e+00	0	30	0	2116026368	58	4375
2026-01-04 14:04:59.64	287.51	22.04	-46.8	-47.9	15.4	0.00e+00	0	30	0	2122317824	58	4396
2026-01-04 14:05:00.64	287.77	22.01	-46.8	-47.9	15.4	0.00e+00	0	30	0	2127560704	58	4398
2026-01-04 14:05:01.64	288.04	21.99	-46.8	-47.9	15.4	0.00e+00	0	30	0	2132803584	58	4404
2026-01-04 14:05:02.64	288.30	21.96	-46.9	-48.0	15.4	0.00e+00	0	30	0	2139095040	58	4476
2026-01-04 14:05:03.64	288.56	21.93	-46.9	-48.0	15.5	0.00e+00	0	30	0	2144337920	59	4205
2026-01-04 14:05:04.63	288.82	21.90	-47.0	-48.1	15.4	0.00e+00	0	30	0	2150629376	59	4258
2026-01-04 14:05:05.63	289.08	21.88	-47.0	-48.1	15.4	0.00e+00	0	30	0	2155872256	59	4266
2026-01-04 14:05:06.63	289.33	21.85	-47.0	-48.1	15.4	0.00e+00	0	30	0	2161115136	59	4270
2026-01-04 14:05:07.62	289.59	21.82	-47.0	-48.1	15.4	0.00e+00	0	30	0	2166358016	59	4285
2026-01-04 14:05:08.61	289.85	21.79	-47.0	-48.1	15.4	0.00e+00	0	30	0	2172649472	59	4253
2026-01-04 14:05:09.60	290.10	21.76	-46.9	-47.9	15.5	0.00e+00	0	30	0	2177892352	59	4188
2026-01-04 14:05:10.60	290.36	21.73	-46.9	-47.9	15.5	0.00e+00	0	30	0	2184183808	59	4179
2026-01-04 14:05:11.59	290.61	21.70	-46.8	-47.9	15.5	0.00e+00	0	30	0	2189426688	59	4169
2026-01-04 14:05:12.60	290.87	21.66	-46.8	-47.9	15.5	0.00e+00	0	30	0	2194669568	59	4173
2026-01-04 14:05:13.60	291.13	21.63	-46.9	-47.9	15.5	0.00e+00	0	30	0	2200961024	59	4185
2026-01-04 14:05:14.59	291.38	21.60	-46.8	-47.9	15.5	0.00e+00	0	30	0	2206203904	59	4161
2026-01-04 14:05:15.58	291.63	21.56	-46.9	-47.9	15.5	0.00e+00	0	30	0	2211446784	59	4186
2026-01-04 14:05:16.59	291.89	21.53	-46.9	-48.0	15.5	0.00e+00	0	30	0	2217738240	59	4195
2026-01-04 14:05:17.59	292.14	21.50	-47.0	-48.1	15.5	0.00e+00	0	30	0	2222981120	59	4254
2026-01-04 14:05:18.58	292.40	21.46	-47.0	-48.1	15.4	0.00e+00	0	30	0	2228224000	59	4257
2026-01-04 14:05:19.58	292.65	21.42	-47.0	-48.1	15.5	0.00e+00	0	30	0	2234515456	59	4249
2026-01-04 14:05:20.59	292.90	21.39	-46.9	-47.9	15.5	0.00e+00	0	30	0	2239758336	59	4193
2026-01-04 14:05:21.59	293.15	21.35	-46.8	-47.9	15.5	0.00e+00	0	30	0	2246049792	59	4156
2026-01-04 14:05:22.59	293.40	21.31	-46.9	-48.0	15.5	0.00e+00	0	30	0	2251292672	59	4197
2026-01-04 14:05:23.60	293.66	21.28	-46.8	-47.9	15.5	0.00e+00	0	30	0	2256535552	59	4174
2026-01-04 14:05:24.60	293.91	21.24	-46.9	-48.0	15.5	0.00e+00	0	30	0	2262827008	59	4212
2026-01-04 14:05:25.60	294.16	21.20	-47.0	-48.1	15.5	0.00e+00	0	30	0	2268069888	59	4253
2026-01-04 14:05:26.60	294.40	21.16	-47.0	-48.1	15.5	0.00e+00	0	30	0	2273312768	59	4249
2026-01-04 14:05:27.60	294.65	21.12	-47.0	-48.1	15.4	0.00e+00	0	30	0	2279604224	59	4245
2026-01-04 14:05:28.60	294.90	21.08	-47.0	-48.0	15.4	0.00e+00	0	30	0	2284847104	59	4241
2026-01-04 14:05:29.60	295.15	21.04	-47.1	-48.2	15.4	0.00e+00	0	30	0	2290089984	59	4332
2026-01-04 14:05:30.60	295.39	21.00	-47.2	-48.3	15.4	0.00e+00	0	30	0	2296381440	59	4373
2026-01-04 14:05:31.59	295.63	20.96	-47.3	-48.4	15.4	0.00e+00	0	30	0	2301624320	59	4406
2026-01-04 14:05:32.59	295.88	20.92	-47.4	-48.6	15.3	0.00e+00	0	30	0	2307915776	59	4496
2026-01-04 14:05:33.59	296.12	20.87	-47.0	-48.1	15.5	0.00e+00	0	30	0	2313158656	60	4042
2026-01-04 14:05:34.59	296.37	20.83	-47.0	-48.1	15.5	0.00e+00	0	30	0	2318401536	60	4015
2026-01-04 14:05:35.58	296.61	20.79	-46.9	-47.9	15.6	0.00e+00	0	30	0	2324692992	60	3957
2026-01-04 14:05:36.57	296.85	20.74	-47.0	-48.0	15.5	0.00e+00	0	30	0	2329935872	60	3996
2026-01-04 14:05:37.57	297.09	20.70	-46.9	-47.9	15.6	0.00e+00	0	30	0	2335178752	60	3952
2026-01-04 14:05:38.58	297.33	20.65	-46.8	-47.8	15.6	0.00e+00	0	30	0	2341470208	60	3913
2026-01-04 14:05:39.57	297.57	20.61	-46.8	-47.9	15.6	0.00e+00	0	30	0	2346713088	60	3928
2026-01-04 14:05:40.57	297.81	20.56	-46.9	-47.9	15.6	0.00e+00	0	30	0	2351955968	60	3943
2026-01-04 14:05:41.58	298.05	20.52	-46.8	-47.9	15.6	0.00e+00	0	30	0	2358247424	60	3927
2026-01-04 14:05:42.58	298.29	20.47	-46.8	-47.9	15.6	0.00e+00	0	30	0	2363490304	60	3940
2026-01-04 14:05:43.58	298.52	20.43	-46.9	-48.0	15.6	0.00e+00	0	30	0	2369781760	60	3959
2026-01-04 14:05:44.58	298.76	20.38	-47.0	-48.1	15.5	0.00e+00	0	30	0	2375024640	60	4037
2026-01-04 14:05:45.58	298.99	20.33	-47.0	-48.1	15.5	0.00e+00	0	30	0	2380267520	60	4041
2026-01-04 14:05:46.57	299.23	20.28	-47.0	-48.1	15.5	0.00e+00	0	30	0	2385510400	60	4033
2026-01-04 14:05:47.57	299.46	20.24	-47.0	-48.1	15.5	0.00e+00	0	30	0	2391801856	60	4035
2026-01-04 14:05:48.57	299.69	20.19	-47.0	-48.1	15.5	0.00e+00	0	30	0	2397044736	60	4036
2026-01-04 14:05:49.57	299.93	20.14	-47.0	-48.1	15.5	0.00e+00	0	30	0	2402287616	60	4034
2026-01-04 14:05:50.57	300.16	20.09	-47.0	-48.1	15.5	0.00e+00	0	30	0	2408579072	60	4035
2026-01-04 14:05:51.57	300.39	20.04	-47.0	-48.1	15.5	0.00e+00	0	30	0	2413821952	60	4021
2026-01-04 14:05:52.57	300.62	19.99	-47.1	-48.2	15.5	0.00e+00	0	30	0	2420113408	60	4053
2026-01-04 14:05:53.57	300.85	19.94	-47.0	-48.0	15.5	0.00e+00	0	30	0	2425356288	60	3994
2026-01-04 14:05:54.58	301.08	19.89	-47.0	-48.1	15.5	0.00e+00	0	30	0	2431647744	60	4023
2026-01-04 14:05:55.58	301.31	19.84	-46.9	-48.0	15.6	0.00e+00	0	30	0	2436890624	60	3968
2026-01-04 14:05:56.56	301.53	19.79	-47.0	-48.0	15.6	0.00e+00	0	30	0	2442133504	60	3990
2026-01-04 14:05:57.57	301.76	19.73	-47.0	-48.1	15.5	0.00e+00	0	30	0	2447376384	60	4036
2026-01-04 14:05:58.57	301.99	19.68	-47.0	-48.1	15.5	0.00e+00	0	30	0	2453667840	60	4032
2026-01-04 14:05:59.57	302.21	19.63	-47.0	-48.1	15.5	0.00e+00	0	30	0	2458910720	60	4025
2026-01-04 14:06:00.56	302.44	19.58	-47.1	-48.2	15.5	0.00e+00	0	30	0	2464153600	60	4060
2026-01-04 14:06:01.57	302.66	19.52	-47.2	-48.2	15.5	0.00e+00	0	30	0	2470445056	60	4096
2026-01-04 14:06:02.56	302.88	19.47	-47.1	-48.2	15.5	0.00e+00	0	30	0	2475687936	60	4052
2026-01-04 14:06:03.56	303.11	19.42	-47.0	-48.1	15.5	0.00e+00	0	30	0	2481979392	60	4025
2026-01-04 14:06:04.55	303.33	19.37	-47.1	-48.2	15.5	0.00e+00	0	30	0	2487222272	60	4054
2026-01-04 14:06:05.55	303.55	19.31	-47.0	-48.1	15.5	0.00e+00	0	30	0	2492465152	60	4037
2026-01-04 14:06:06.54	303.76	19.26	-47.1	-48.1	15.5	0.00e+00	0	30	0	2498756608	60	4050
2026-01-04 14:06:07.54	303.98	19.20	-47.2	-48.3	15.4	0.00e+00	0	30	0	2503999488	60	4099
2026-01-04 14:06:08.54	304.20	19.15	-47.2	-48.3	15.4	0.00e+00	0	30	0	2509242368	60	4121
2026-01-04 14:06:09.53	304.42	19.09	-47.2	-48.3	15.4	0.00e+00	0	30	0	2515533824	60	4115
2026-01-04 14:06:10.52	304.63	19.04	-47.2	-48.2	15.5	0.00e+00	0	30	0	2520776704	60	4098
2026-01-04 14:06:11.52	304.85	18.98	-47.0	-48.1	15.5	0.00e+00	0	30	0	2526019584	60	4023
2026-01-04 14:06:12.52	305.06	18.93	-47.0	-48.0	15.5	0.00e+00	0	30	0	2532311040	60	3999
2026-01-04 14:06:13.51	305.28	18.87	-46.9	-48.0	15.6	0.00e+00	0	30	0	2537553920	60	3965
2026-01-04 14:06:14.51	305.49	18.81	-47.0	-48.0	15.5	0.00e+00	0	30	0	2542796800	60	3990
2026-01-04 14:06:15.51	305.70	18.76	-47.0	-48.1	15.5	0.00e+00	0	30	0	2549088256	60	4009
2026-01-04 14:06:16.50	305.91	18.70	-47.2	-48.3	15.4	0.00e+00	0	30	0	2554331136	60	4116
2026-01-04 14:06:17.50	306.13	18.64	-47.3	-48.4	15.4	0.00e+00	0	30	0	2559574016	60	4182
2026-01-04 14:06:18.49	306.33	18.59	-47.4	-48.6	15.4	0.00e+00	0	30	0	2565865472	60	4256
2026-01-04 14:06:19.50	306.55	18.53	-47.6	-48.7	15.3	0.00e+00	0	30	0	2571108352	60	4323
2026-01-04 14:06:20.50	306.76	18.47	-47.5	-48.7	15.3	0.00e+00	0	30	0	2576351232	60	4314
2026-01-04 14:06:21.50	306.96	18.41	-47.6	-48.7	15.3	0.00e+00	0	30	0	2582642688	60	4332
2026-01-04 14:06:22.49	307.17	18.35	-47.5	-48.6	15.3	0.00e+00	0	30	0	2587885568	60	4272
2026-01-04 14:06:23.49	307.38	18.29	-47.5	-48.6	15.3	0.00e+00	0	30	0	2594177024	60	4266
2026-01-04 14:06:24.48	307.58	18.24	-47.3	-48.4	15.4	0.00e+00	0	30	0	2599419904	60	4175
2026-01-04 14:06:25.47	307.78	18.18	-47.3	-48.4	15.4	0.00e+00	0	30	0	2604662784	60	4158
2026-01-04 14:06:26.47	307.99	18.12	-47.3	-48.3	15.4	0.00e+00	0	30	0	2609905664	60	4132
2026-01-04 14:06:27.47	308.19	18.06	-47.2	-48.3	15.4	0.00e+00	0	30	0	2616197120	60	4104
2026-01-04 14:06:28.47	308.39	18.00	-47.3	-48.4	15.4	0.00e+00	0	30	0	2621440000	60	4148
2026-01-04 14:06:29.47	308.60	17.94	-47.3	-48.3	15.4	0.00e+00	0	30	0	2626682880	60	4142
2026-01-04 14:06:30.47	308.80	17.88	-47.3	-48.4	15.4	0.00e+00	0	30	0	2632974336	60	4174
2026-01-04 14:06:31.46	309.00	17.82	-47.3	-48.4	15.4	0.00e+00	0	30	0	2638217216	60	4179
2026-01-04 14:06:32.46	309.20	17.76	-47.3	-48.4	15.4	0.00e+00	0	30	0	2644508672	60	4170
2026-01-04 14:06:33.46	309.40	17.70	-47.3	-48.4	15.4	0.00e+00	0	30	0	2649751552	60	4191
2026-01-04 14:06:34.45	309.59	17.64	-47.3	-48.4	15.4	0.00e+00	0	30	0	2654994432	60	4179
2026-01-04 14:06:35.45	309.79	17.58	-47.4	-48.5	15.4	0.00e+00	0	30	0	2661285888	60	4196
2026-01-04 14:06:36.45	309.99	17.51	-47.5	-48.6	15.4	0.00e+00	0	30	0	2666528768	60	4247
2026-01-04 14:06:37.45	310.18	17.45	-47.5	-48.6	15.4	0.00e+00	0	30	0	2671771648	60	4274
2026-01-04 14:06:38.45	310.38	17.39	-47.6	-48.7	15.3	0.00e+00	0	30	0	2678063104	60	4334
2026-01-04 14:06:39.45	310.57	17.33	-47.6	-48.8	15.3	0.00e+00	0	30	0	2683305984	60	4355
2026-01-04 14:06:40.45	310.77	17.27	-47.8	-48.9	15.3	0.00e+00	0	30	0	2688548864	60	4413
2026-01-04 14:06:41.45	310.96	17.21	-47.8	-48.9	15.3	0.00e+00	0	30	0	2694840320	60	4422
2026-01-04 14:06:42.45	311.15	17.14	-47.8	-48.9	15.2	0.00e+00	0	30	0	2700083200	60	4427
2026-01-04 14:06:43.45	311.34	17.08	-47.7	-48.9	15.3	0.00e+00	0	30	0	2706374656	60	4395
2026-01-04 14:06:44.45	311.53	17.02	-47.8	-49.0	15.2	0.00e+00	0	30	0	2711617536	60	4446
2026-01-04 14:06:45.44	311.72	16.96	-48.0	-49.1	15.3	0.00e+00	0	30	0	2716860416	61	4257
2026-01-04 14:06:46.44	311.91	16.89	-48.0	-49.2	15.3	0.00e+00	0	30	0	2723151872	61	4306
2026-01-04 14:06:47.44	312.10	16.83	-48.1	-49.2	15.2	0.00e+00	0	30	0	2728394752	61	4338
2026-01-04 14:06:48.43	312.28	16.77	-48.1	-49.3	15.2	0.00e+00	0	30	0	2733637632	61	4360
2026-01-04 14:06:49.44	312.47	16.70	-48.1	-49.3	15.2	0.00e+00	0	30	0	2739929088	61	4364
2026-01-04 14:06:50.44	312.66	16.64	-48.2	-49.4	15.2	0.00e+00	0	30	0	2745171968	61	4405
2026-01-04 14:06:51.44	312.84	16.58	-48.0	-49.2	15.3	0.00e+00	0	30	0	2750414848	61	4302
2026-01-04 14:06:52.44	313.03	16.51	-48.1	-49.2	15.2	0.00e+00	0	30	0	2756706304	61	4332
2026-01-04 14:06:53.44	313.21	16.45	-47.9	-49.0	15.3	0.00e+00	0	30	0	2761949184	61	4214
2026-01-04 14:06:54.44	313.39	16.39	-47.8	-49.0	15.3	0.00e+00	0	30	0	2768240640	61	4199
2026-01-04 14:06:55.44	313.58	16.32	-47.8	-49.0	15.3	0.00e+00	0	30	0	2773483520	61	4204
2026-01-04 14:06:56.43	313.76	16.26	-47.8	-48.9	15.3	0.00e+00	0	30	0	2778726400	61	4171
2026-01-04 14:06:57.44	313.94	16.20	-47.8	-49.0	15.3	0.00e+00	0	30	0	2785017856	61	4202
2026-01-04 14:06:58.44	314.12	16.13	-47.8	-48.9	15.3	0.00e+00	0	30	0	2790260736	61	4177
2026-01-04 14:06:59.43	314.30	16.07	-47.8	-48.9	15.3	0.00e+00	0	30	0	2795503616	61	4172
2026-01-04 14:07:00.43	314.47	16.00	-47.8	-49.0	15.3	0.00e+00	0	30	0	2801795072	61	4200
2026-01-04 14:07:01.43	314.65	15.94	-47.7	-48.8	15.4	0.00e+00	0	30	0	2807037952	61	4109
2026-01-04 14:07:02.43	314.83	15.87	-47.7	-48.8	15.4	0.00e+00	0	30	0	2813329408	61	4117
2026-01-04 14:07:03.42	315.00	15.81	-47.7	-48.8	15.3	0.00e+00	0	30	0	2818572288	61	4111
2026-01-04 14:07:04.42	315.18	15.75	-47.8	-48.9	15.3	0.00e+00	0	30	0	2823815168	61	4149
2026-01-04 14:07:05.41	315.35	15.68	-47.7	-48.8	15.4	0.00e+00	0	30	0	2829058048	61	4107
2026-01-04 14:07:06.41	315.53	15.62	-47.7	-48.8	15.3	0.00e+00	0	30	0	2835349504	61	4143
2026-01-04 14:07:07.40	315.70	15.55	-47.8	-48.9	15.3	0.00e+00	0	30	0	2840592384	61	4185
2026-01-04 14:07:08.40	315.87	15.49	-47.9	-49.1	15.3	0.00e+00	0	30	0	2845835264	61	4243
2026-01-04 14:07:09.38	316.04	15.42	-47.9	-49.0	15.3	0.00e+00	0	30	0	2852126720	61	4217
2026-01-04 14:07:10.38	316.21	15.36	-48.0	-49.1	15.2	0.00e+00	0	30	0	2857369600	61	4275
2026-01-04 14:07:11.38	316.38	15.29	-48.0	-49.2	15.2	0.00e+00	0	30	0	2863661056	61	4319
2026-01-04 14:07:12.37	316.55	15.23	-48.1	-49.2	15.2	0.00e+00	0	30	0	2868903936	61	4333
2026-01-04 14:07:13.37	316.72	15.16	-48.1	-49.2	15.2	0.00e+00	0	30	0	2874146816	61	4325
2026-01-04 14:07:14.37	316.89	15.10	-48.2	-49.3	15.2	0.00e+00	0	30	0	2879389696	61	4382
2026-01-04 14:07:15.37	317.05	15.03	-48.1	-49.3	15.2	0.00e+00	0	30	0	2885681152	61	4364
2026-01-04 14:07:16.37	317.22	14.97	-48.1	-49.3	15.2	0.00e+00	0	30	0	2890924032	61	4355
2026-01-04 14:07:17.36	317.39	14.90	-48.1	-49.2	15.2	0.00e+00	0	30	0	2896166912	61	4327
2026-01-04 14:07:18.36	317.55	14.84	-48.1	-49.2	15.2	0.00e+00	0	30	0	2902458368	61	4338
2026-01-04 14:07:19.36	317.72	14.77	-48.1	-49.3	15.2	0.00e+00	0	30	0	2907701248	61	4347
2026-01-04 14:07:20.35	317.88	14.71	-48.2	-49.4	15.2	0.00e+00	0	30	0	2913992704	61	4398
2026-01-04 14:07:21.35	318.04	14.64	-48.3	-49.5	15.1	0.00e+00	0	30	0	2919235584	61	4458
2026-01-04 14:07:22.34	318.20	14.58	-48.3	-49.5	15.1	0.00e+00	0	30	0	2924478464	61	4488
2026-01-04 14:07:23.34	318.36	14.51	-48.5	-49.6	15.1	0.00e+00	0	30	0	2930769920	62	4290
2026-01-04 14:07:24.34	318.53	14.45	-48.3	-49.5	15.2	0.00e+00	0	30	0	2936012800	62	4231
2026-01-04 14:07:25.34	318.69	14.38	-48.3	-49.5	15.2	0.00e+00	0	30	0	2941255680	62	4226
2026-01-04 14:07:26.34	318.85	14.32	-48.3	-49.5	15.2	0.00e+00	0	30	0	2947547136	62	4208
2026-01-04 14:07:27.34	319.00	14.25	-48.4	-49.5	15.2	0.00e+00	0	30	0	2952790016	62	4225
2026-01-04 14:07:28.33	319.16	14.18	-48.2	-49.4	15.2	0.00e+00	0	30	0	2958032896	62	4163
2026-01-04 14:07:29.32	319.32	14.12	-48.3	-49.4	15.2	0.00e+00	0	30	0	2964324352	62	4178
2026-01-04 14:07:30.31	319.47	14.05	-48.2	-49.3	15.2	0.00e+00	0	30	0	2969567232	62	4140
2026-01-04 14:07:31.31	319.63	13.99	-48.3	-49.4	15.2	0.00e+00	0	30	0	2974810112	62	4187
2026-01-04 14:07:32.31	319.79	13.92	-48.4	-49.6	15.2	0.00e+00	0	30	0	2981101568	62	4249
2026-01-04 14:07:33.32	319.94	13.86	-48.3	-49.4	15.2	0.00e+00	0	30	0	2986344448	62	4179
2026-01-04 14:07:34.32	320.10	13.79	-48.3	-49.4	15.2	0.00e+00	0	30	0	2991587328	62	4192
2026-01-04 14:07:35.32	320.25	13.72	-48.2	-49.4	15.2	0.00e+00	0	30	0	2997878784	62	4173
2026-01-04 14:07:36.31	320.40	13.66	-48.2	-49.4	15.2	0.00e+00	0	30	0	3003121664	62	4169
2026-01-04 14:07:37.31	320.56	13.59	-48.3	-49.5	15.2	0.00e+00	0	30	0	3008364544	62	4196
2026-01-04 14:07:38.31	320.71	13.53	-48.2	-49.4	15.2	0.00e+00	0	30	0	3014656000	62	4173
2026-01-04 14:07:39.31	320.86	13.46	-48.2	-49.4	15.2	0.00e+00	0	30	0	3019898880	62	4170
2026-01-04 14:07:40.31	321.01	13.40	-48.3	-49.5	15.2	0.00e+00	0	30	0	3026190336	62	4212
2026-01-04 14:07:41.31	321.16	13.33	-48.3	-49.5	15.2	0.00e+00	0	30	0	3031433216	62	4198
2026-01-04 14:07:42.30	321.31	13.26	-48.3	-49.5	15.2	0.00e+00	0	30	0	3036676096	62	4233
2026-01-04 14:07:43.31	321.46	13.20	-48.3	-49.5	15.2	0.00e+00	0	30	0	3042967552	62	4217
2026-01-04 14:07:44.31	321.61	13.13	-48.3	-49.5	15.2	0.00e+00	0	30	0	3048210432	62	4206
2026-01-04 14:07:45.30	321.75	13.07	-48.3	-49.4	15.2	0.00e+00	0	30	0	3053453312	62	4179
2026-01-04 14:07:46.30	321.90	13.00	-48.3	-49.4	15.2	0.00e+00	0	30	0	3059744768	62	4181
2026-01-04 14:07:47.30	322.04	12.94	-48.3	-49.4	15.2	0.00e+00	0	30	0	3064987648	62	4174
2026-01-04 14:07:48.30	322.19	12.87	-48.2	-49.4	15.2	0.00e+00	0	30	0	3070230528	62	4156
2026-01-04 14:07:49.29	322.33	12.80	-48.3	-49.5	15.2	0.00e+00	0	30	0	3076521984	62	4216
2026-01-04 14:07:50.29	322.48	12.74	-48.4	-49.5	15.1	0.00e+00	0	30	0	3081764864	62	4238
2026-01-04 14:07:51.28	322.62	12.67	-48.5	-49.6	15.1	0.00e+00	0	30	0	3088056320	62	4281
2026-01-04 14:07:52.28	322.76	12.61	-48.5	-49.7	15.1	0.00e+00	0	30	0	3093299200	62	4307
2026-01-04 14:07:53.27	322.90	12.54	-48.6	-49.8	15.1	0.00e+00	0	30	0	3098542080	62	4364
2026-01-04 14:07:54.27	323.05	12.48	-48.6	-49.8	15.1	0.00e+00	0	30	0	3103784960	62	4376
2026-01-04 14:07:55.27	323.19	12.41	-48.6	-49.8	15.1	0.00e+00	0	30	0	3110076416	62	4381
2026-01-04 14:07:56.27	323.33	12.35	-48.6	-49.9	15.0	0.00e+00	0	30	0	3115319296	62	4402
2026-01-04 14:07:57.27	323.47	12.28	-48.6	-49.9	15.0	0.00e+00	0	30	0	3120562176	62	4393
2026-01-04 14:07:58.26	323.61	12.22	-48.6	-49.8	15.1	0.00e+00	0	30	0	3126853632	62	4357
2026-01-04 14:07:59.26	323.74	12.15	-48.7	-49.9	15.1	0.00e+00	0	30	0	3132096512	62	4395
2026-01-04 14:08:00.26	323.88	12.08	-48.6	-49.9	15.1	0.00e+00	0	30	0	3138387968	62	4392
2026-01-04 14:08:01.27	324.02	12.02	-48.5	-49.7	15.1	0.00e+00	0	30	0	3143630848	62	4333
2026-01-04 14:08:02.26	324.16	11.95	-48.6	-49.8	15.1	0.00e+00	0	30	0	3148873728	62	4359
2026-01-04 14:08:03.26	324.29	11.89	-48.6	-49.8	15.1	0.00e+00	0	30	0	3155165184	62	4383
2026-01-04 14:08:04.26	324.43	11.82	-48.6	-49.8	15.1	0.00e+00	0	30	0	3160408064	62	4348
2026-01-04 14:08:05.26	324.56	11.76	-48.6	-49.8	15.1	0.00e+00	0	30	0	3165650944	62	4344
2026-01-04 14:08:06.25	324.70	11.69	-48.7	-49.9	15.0	0.00e+00	0	30	0	3171942400	62	4406
2026-01-04 14:08:07.25	324.83	11.63	-48.7	-49.9	15.0	0.00e+00	0	30	0	3177185280	62	4423
2026-01-04 14:08:08.25	324.97	11.56	-48.7	-49.9	15.0	0.00e+00	0	30	0	3182428160	62	4427
2026-01-04 14:08:09.25	325.10	11.50	-48.8	-50.1	15.0	0.00e+00	0	30	0	3188719616	62	4508
2026-01-04 14:08:10.25	325.23	11.43	-48.9	-50.1	15.0	0.00e+00	0	30	0	3193962496	63	4282
2026-01-04 14:08:11.26	325.36	11.37	-48.9	-50.1	15.0	0.00e+00	0	30	0	3200253952	63	4283
2026-01-04 14:08:12.25	325.49	11.30	-49.0	-50.2	15.0	0.00e+00	0	30	0	3205496832	63	4336
2026-01-04 14:08:13.25	325.62	11.24	-49.0	-50.2	15.0	0.00e+00	0	30	0	3210739712	63	4314
2026-01-04 14:08:14.24	325.75	11.17	-49.0	-50.2	15.0	0.00e+00	0	30	0	3217031168	63	4330
2026-01-04 14:08:15.24	325.88	11.11	-49.0	-50.2	15.0	0.00e+00	0	30	0	3222274048	63	4335
2026-01-04 14:08:16.23	326.01	11.04	-49.0	-50.3	15.0	0.00e+00	0	30	0	3227516928	63	4345
2026-01-04 14:08:17.23	326.14	10.98	-49.0	-50.2	15.0	0.00e+00	0	30	0	3233808384	63	4337
2026-01-04 14:08:18.22	326.27	10.91	-49.0	-50.3	15.0	0.00e+00	0	30	0	3239051264	63	4350
2026-01-04 14:08:19.22	326.39	10.85	-49.0	-50.3	15.0	0.00e+00	0	30	0	3244294144	63	4345
2026-01-04 14:08:20.22	326.52	10.78	-49.0	-50.3	14.9	0.00e+00	0	30	0	3250585600	63	4371
2026-01-04 14:08:21.21	326.65	10.72	-49.1	-50.3	14.9	0.00e+00	0	30	0	3255828480	63	4370
2026-01-04 14:08:22.21	326.77	10.66	-49.1	-50.4	14.9	0.00e+00	0	30	0	3261071360	63	4403
2026-01-04 14:08:23.21	326.90	10.59	-49.2	-50.5	14.9	0.00e+00	0	30	0	3267362816	63	4449
2026-01-04 14:08:24.21	327.02	10.53	-49.1	-50.4	14.9	0.00e+00	0	30	0	3272605696	63	4422
2026-01-04 14:08:25.21	327.15	10.46	-49.1	-50.4	14.9	0.00e+00	0	30	0	3277848576	63	4409
2026-01-04 14:08:26.20	327.27	10.40	-49.2	-50.5	14.9	0.00e+00	0	30	0	3284140032	63	4446
2026-01-04 14:08:27.19	327.39	10.33	-49.2	-50.5	14.9	0.00e+00	0	30	0	3289382912	63	4446
2026-01-04 14:08:28.19	327.51	10.27	-49.3	-50.5	14.9	0.00e+00	0	30	0	3294625792	63	4487
2026-01-04 14:08:29.19	327.64	10.21	-49.3	-50.6	14.8	0.00e+00	0	30	0	3300917248	63	4502
2026-01-04 14:08:30.19	327.76	10.14	-49.2	-50.5	14.9	0.00e+00	0	30	0	3306160128	63	4458
2026-01-04 14:08:31.19	327.88	10.08	-49.2	-50.5	14.9	0.00e+00	0	30	0	3312451584	63	4474
2026-01-04 14:08:32.19	328.00	10.01	-49.3	-50.6	14.8	0.00e+00	0	30	0	3317694464	63	4524
2026-01-04 14:08:33.18	328.12	9.95	-49.3	-50.5	14.8	0.00e+00	0	30	0	3322937344	63	4476
2026-01-04 14:08:34.19	328.24	9.89	-49.2	-50.5	14.9	0.00e+00	0	30	0	3329228800	63	4457
2026-01-04 14:08:35.19	328.36	9.82	-49.3	-50.5	14.8	0.00e+00	0	30	0	3334471680	63	4476
2026-01-04 14:08:36.19	328.48	9.76	-49.3	-50.5	14.8	0.00e+00	0	30	0	3339714560	63	4474
2026-01-04 14:08:37.19	328.59	9.69	-49.0	-50.3	14.9	0.00e+00	0	30	0	3346006016	63	4347
2026-01-04 14:08:38.19	328.71	9.63	-49.1	-50.4	14.9	0.00e+00	0	30	0	3351248896	63	4402
2026-01-04 14:08:39.18	328.83	9.57	-49.1	-50.3	14.9	0.00e+00	0	30	0	3356491776	63	4372
2026-01-04 14:08:40.18	328.95	9.50	-49.1	-50.4	14.9	0.00e+00	0	30	0	3362783232	63	4409
2026-01-04 14:08:41.18	329.06	9.44	-49.1	-50.4	14.9	0.00e+00	0	30	0	3368026112	63	4401
2026-01-04 14:08:42.19	329.18	9.38	-49.2	-50.5	14.8	0.00e+00	0	30	0	3374317568	63	4456
2026-01-04 14:08:43.18	329.29	9.31	-49.3	-50.5	14.8	0.00e+00	0	30	0	3379560448	63	4491
2026-01-04 14:08:44.18	329.41	9.25	-49.3	-50.6	14.8	0.00e+00	0	30	0	3384803328	63	4528
2026-01-04 14:08:45.18	329.52	9.19	-49.3	-50.6	14.8	0.00e+00	0	30	0	3391094784	63	4512
2026-01-04 14:08:46.18	329.64	9.12	-49.2	-50.5	14.8	0.00e+00	0	30	0	3396337664	63	4474
2026-01-04 14:08:47.18	329.75	9.06	-49.3	-50.6	14.8	0.00e+00	0	30	0	3401580544	63	4535
2026-01-04 14:08:48.18	329.86	9.00	-49.3	-50.6	14.8	0.00e+00	0	30	0	3407872000	63	4537
2026-01-04 14:08:49.17	329.97	8.94	-49.4	-50.7	14.8	0.00e+00	0	30	0	3413114880	63	4553
2026-01-04 14:08:50.17	330.08	8.87	-49.5	-50.8	14.8	0.00e+00	0	30	0	3418357760	64	4372
2026-01-04 14:08:51.17	330.20	8.81	-49.5	-50.8	14.8	0.00e+00	0	30	0	3424649216	64	4381
2026-01-04 14:08:52.16	330.31	8.75	-49.4	-50.7	14.8	0.00e+00	0	30	0	3429892096	64	4325
2026-01-04 14:08:53.16	330.42	8.68	-49.4	-50.7	14.8	0.00e+00	0	30	0	3435134976	64	4311
2026-01-04 14:08:54.16	330.53	8.62	-49.4	-50.7	14.8	0.00e+00	0	30	0	3441426432	64	4322
2026-01-04 14:08:55.15	330.64	8.56	-49.3	-50.6	14.8	0.00e+00	0	30	0	3446669312	64	4277
2026-01-04 14:08:56.15	330.74	8.50	-49.3	-50.6	14.9	0.00e+00	0	30	0	3451912192	64	4245
2026-01-04 14:08:57.14	330.85	8.44	-49.3	-50.5	14.9	0.00e+00	0	30	0	3458203648	64	4240
2026-01-04 14:08:58.14	330.96	8.37	-49.2	-50.5	14.9	0.00e+00	0	30	0	3463446528	64	4202
2026-01-04 14:08:59.13	331.07	8.31	-49.3	-50.6	14.9	0.00e+00	0	30	0	3469737984	64	4254
2026-01-04 14:09:00.13	331.18	8.25	-49.2	-50.5	14.9	0.00e+00	0	30	0	3474980864	64	4203
2026-01-04 14:09:01.13	331.28	8.19	-49.2	-50.5	14.9	0.00e+00	0	30	0	3480223744	64	4219
2026-01-04 14:09:02.12	331.39	8.13	-49.2	-50.5	14.9	0.00e+00	0	30	0	3485466624	64	4218
2026-01-04 14:09:03.12	331.49	8.06	-49.2	-50.5	14.9	0.00e+00	0	30	0	3491758080	64	4220
2026-01-04 14:09:04.12	331.60	8.00	-49.3	-50.6	14.8	0.00e+00	0	30	0	3497000960	64	4252
2026-01-04 14:09:05.11	331.70	7.94	-49.2	-50.5	14.9	0.00e+00	0	30	0	3502243840	64	4230
2026-01-04 14:09:06.11	331.81	7.88	-49.4	-50.7	14.8	0.00e+00	0	30	0	3508535296	64	4323
2026-01-04 14:09:07.11	331.91	7.82	-49.5	-50.9	14.8	0.00e+00	0	30	0	3513778176	64	4392
2026-01-04 14:09:08.10	332.02	7.76	-49.5	-50.8	14.7	0.00e+00	0	30	0	3520069632	64	4390
2026-01-04 14:09:09.10	332.12	7.69	-49.6	-51.0	14.7	0.00e+00	0	30	0	3525312512	64	4465
2026-01-04 14:09:10.09	332.22	7.63	-49.6	-51.0	14.7	0.00e+00	0	30	0	3530555392	64	4469
2026-01-04 14:09:11.09	332.32	7.57	-49.7	-51.0	14.7	0.00e+00	0	30	0	3536846848	64	4484
2026-01-04 14:09:12.08	332.43	7.51	-49.7	-51.1	14.6	0.00e+00	0	30	0	3542089728	64	4509
2026-01-04 14:09:13.07	332.53	7.45	-49.8	-51.2	14.6	0.00e+00	0	30	0	3547332608	64	4558
2026-01-04 14:09:14.06	332.63	7.39	-49.8	-51.2	14.6	0.00e+00	0	30	0	3552575488	64	4561
2026-01-04 14:09:15.06	332.73	7.33	-49.8	-51.2	14.6	0.00e+00	0	30	0	3558866944	64	4584
2026-01-04 14:09:16.05	332.83	7.27	-49.9	-51.2	14.6	0.00e+00	0	30	0	3564109824	64	4591
2026-01-04 14:09:17.05	332.93	7.21	-49.9	-51.3	14.6	0.00e+00	0	30	0	3570401280	65	4377
