passes_logs/2026/01/04/R3.2S_Murmansk/R3.2S_Murmansk__20260104_210805_NOAA_21_JPSS-2_rec.log

#Pass ID: 20260104_210805_NOAA 21 (JPSS-2)
#Satellite: NOAA 21 (JPSS-2)
#Configuration: NOAA-21
#almurnet v.1.7.20251203
#Start time: 2026-01-04 21:08:07

#Version: 2.2.20231116
#Station: R3.2S_Murmansk
#Location: 33.079688 lon 68.888172 lat
#TLE: 1 54234U 22150A   26004.43991293  .00000169  00000+0  10108-3 0  9998
#TLE: 2 54234  98.7489 305.4680 0001107 344.3033  15.8108 14.19531967163313

#Time	Az	El	Level	Level2	SNR	BER	BlckErr	Temp	State	Recorded	gain1	gain2
2026-01-04 21:08:07.29	18.61	2.06	-58.3	-72.1	3.8	1.49e+00	0	26	0	0	83	16911
2026-01-04 21:08:08.28	18.71	2.10	-58.3	-72.0	3.8	1.49e+00	0	26	104	0	81	18857
2026-01-04 21:08:09.28	18.81	2.15	-58.3	-72.0	3.8	1.49e+00	0	26	104	0	81	18909
2026-01-04 21:08:10.28	18.91	2.19	-58.3	-72.0	3.8	1.49e+00	0	26	104	0	81	18776
2026-01-04 21:08:11.29	19.02	2.23	-58.3	-71.9	3.8	1.49e+00	0	26	104	0	81	18722
2026-01-04 21:08:12.29	19.12	2.27	-58.3	-71.9	3.8	1.49e+00	0	26	104	0	81	18671
2026-01-04 21:08:13.29	19.22	2.32	-58.3	-71.9	3.8	1.49e+00	0	26	104	0	81	18567
2026-01-04 21:08:14.28	19.33	2.36	-58.3	-71.9	3.8	1.49e+00	0	26	104	0	81	18647
2026-01-04 21:08:15.29	19.43	2.40	-58.3	-71.9	3.8	1.49e+00	0	26	104	0	81	18706
2026-01-04 21:08:16.29	19.53	2.44	-58.3	-71.9	3.8	1.49e+00	0	26	104	0	81	18596
2026-01-04 21:08:17.29	19.64	2.49	-58.3	-72.0	3.8	1.49e+00	0	26	104	0	81	18737
2026-01-04 21:08:18.29	19.74	2.53	-58.3	-72.0	3.8	1.49e+00	0	27	104	0	81	18805
2026-01-04 21:08:19.29	19.85	2.57	-58.3	-72.0	3.8	1.49e+00	0	27	104	0	81	18835
2026-01-04 21:08:20.28	19.95	2.61	-58.3	-72.0	3.8	1.49e+00	0	27	104	0	81	18819
2026-01-04 21:08:21.28	20.06	2.66	-58.3	-72.0	3.8	1.49e+00	0	26	104	0	81	18817
2026-01-04 21:08:22.29	20.17	2.70	-58.3	-72.0	3.8	1.49e+00	0	27	104	0	81	18759
2026-01-04 21:08:23.28	20.27	2.74	-58.3	-72.0	3.8	1.49e+00	0	26	104	0	81	18779
2026-01-04 21:08:24.28	20.38	2.78	-58.3	-71.9	3.8	1.49e+00	0	27	104	0	81	18723
2026-01-04 21:08:25.29	20.48	2.83	-58.3	-72.0	3.8	1.49e+00	0	27	104	0	81	18739
2026-01-04 21:08:26.29	20.59	2.87	-58.3	-72.0	3.8	1.49e+00	0	27	104	0	81	18745
2026-01-04 21:08:27.28	20.70	2.91	-58.3	-72.0	3.8	1.49e+00	0	27	104	0	81	18844
2026-01-04 21:08:28.28	20.80	2.95	-58.3	-72.0	3.8	1.49e+00	0	27	104	0	81	18829
2026-01-04 21:08:29.28	20.91	3.00	-58.3	-72.1	3.8	1.49e+00	0	27	104	0	81	18951
2026-01-04 21:08:30.27	21.02	3.04	-58.3	-72.0	3.8	1.49e+00	0	27	104	0	81	18938
2026-01-04 21:08:31.27	21.13	3.08	-58.3	-72.1	3.8	1.49e+00	0	27	104	0	81	18986
2026-01-04 21:08:32.26	21.24	3.12	-58.3	-72.0	3.8	1.49e+00	0	27	104	0	81	18929
2026-01-04 21:08:33.26	21.34	3.16	-58.3	-72.1	3.8	1.49e+00	0	27	104	0	81	19026
2026-01-04 21:08:34.26	21.45	3.21	-58.3	-72.1	3.8	1.49e+00	0	27	104	0	81	18990
2026-01-04 21:08:35.25	21.56	3.25	-58.3	-72.0	3.8	1.49e+00	0	27	104	0	81	18864
2026-01-04 21:08:36.24	21.67	3.29	-58.3	-72.0	3.8	1.49e+00	0	27	104	0	81	18879
2026-01-04 21:08:37.24	21.78	3.33	-58.3	-72.0	3.8	1.49e+00	0	27	104	0	81	18799
2026-01-04 21:08:38.24	21.89	3.37	-58.3	-71.9	3.8	1.49e+00	0	27	104	0	81	18715
2026-01-04 21:08:39.23	22.00	3.42	-58.3	-71.8	3.8	1.49e+00	0	27	104	0	81	18470
2026-01-04 21:08:40.23	22.11	3.46	-58.3	-72.0	3.8	1.49e+00	0	27	104	0	81	18771
2026-01-04 21:08:41.22	22.22	3.50	-58.3	-72.0	3.8	1.49e+00	0	27	104	0	81	18872
2026-01-04 21:08:42.22	22.33	3.54	-58.3	-72.0	3.8	1.49e+00	0	27	104	0	81	18927
2026-01-04 21:08:43.21	22.45	3.58	-58.3	-72.0	3.8	1.49e+00	0	27	104	0	81	18904
2026-01-04 21:08:44.20	22.56	3.62	-58.3	-72.0	3.8	1.49e+00	0	27	104	0	81	18899
2026-01-04 21:08:45.20	22.67	3.67	-58.3	-71.9	3.8	1.49e+00	0	27	104	0	81	18605
2026-01-04 21:08:46.20	22.78	3.71	-58.3	-72.0	3.8	1.49e+00	0	27	104	0	81	18743
2026-01-04 21:08:47.20	22.90	3.75	-58.3	-71.9	3.8	1.49e+00	0	27	104	0	81	18599
2026-01-04 21:08:48.20	23.01	3.79	-58.3	-72.1	3.8	1.49e+00	0	27	104	0	81	18957
2026-01-04 21:08:49.20	23.12	3.83	-58.3	-72.1	3.8	1.49e+00	0	27	104	0	81	18954
2026-01-04 21:08:50.20	23.24	3.88	-58.3	-71.9	3.8	1.49e+00	0	27	104	0	81	18621
2026-01-04 21:08:51.20	23.35	3.92	-58.3	-71.8	3.9	1.49e+00	0	27	104	0	81	18382
2026-01-04 21:08:52.19	23.47	3.96	-58.2	-71.5	3.8	1.49e+00	0	27	104	0	81	17774
2026-01-04 21:08:53.19	23.58	4.00	-58.2	-71.4	3.8	1.49e+00	0	27	104	0	81	17505
2026-01-04 21:08:54.20	23.70	4.04	-58.2	-71.6	3.8	1.49e+00	0	27	104	0	81	17937
2026-01-04 21:08:55.20	23.81	4.09	-58.3	-71.7	3.8	1.49e+00	0	27	104	0	81	18249
2026-01-04 21:08:56.20	23.93	4.13	-58.3	-71.6	3.8	1.49e+00	0	27	104	0	81	18048
2026-01-04 21:08:57.20	24.04	4.17	-58.3	-71.3	3.8	1.49e+00	0	27	104	0	81	17473
2026-01-04 21:08:58.21	24.16	4.21	-58.2	-70.7	3.8	1.49e+00	0	27	104	0	81	16284
2026-01-04 21:08:59.20	24.28	4.25	-58.1	-69.8	3.9	1.49e+00	0	27	104	0	81	14636
2026-01-04 21:09:00.20	24.40	4.29	-58.0	-68.5	4.2	1.46e+00	0	27	104	0	81	12576
2026-01-04 21:09:01.20	24.51	4.34	-58.0	-68.7	3.9	1.45e+00	0	27	104	0	81	12883
2026-01-04 21:09:02.20	24.63	4.38	-57.9	-67.5	4.5	1.42e+00	2	27	104	0	81	11244
2026-01-04 21:09:03.20	24.75	4.42	-57.7	-66.2	5.1	1.45e+00	2	27	104	0	81	9654
2026-01-04 21:09:04.20	24.87	4.46	-57.4	-64.3	6.3	3.53e-01	0	27	0	2097152	81	7723
2026-01-04 21:09:05.20	24.99	4.50	-56.6	-61.7	8.3	6.00e-02	0	27	0	5242880	79	6491
2026-01-04 21:09:06.20	25.11	4.54	-55.6	-59.4	10.3	2.71e-03	0	28	0	8388608	77	5545
2026-01-04 21:09:07.20	25.23	4.58	-54.4	-57.3	11.7	3.35e-05	0	27	0	11534336	75	4893
2026-01-04 21:09:08.20	25.35	4.63	-53.4	-55.7	12.6	0.00e+00	0	28	0	14680064	73	4559
2026-01-04 21:09:09.20	25.47	4.67	-52.7	-54.8	13.1	0.00e+00	0	27	0	17825792	72	4352
2026-01-04 21:09:10.20	25.59	4.71	-52.5	-54.5	13.2	0.00e+00	0	27	0	20971520	71	4474
2026-01-04 21:09:11.19	25.71	4.75	-52.8	-54.9	13.0	0.00e+00	0	28	0	24117248	71	4664
2026-01-04 21:09:12.20	25.83	4.79	-53.2	-55.5	12.6	0.00e+00	0	28	0	27262976	71	5032
2026-01-04 21:09:13.19	25.95	4.83	-53.8	-56.4	12.1	7.00e-07	0	28	0	30408704	72	5246
2026-01-04 21:09:14.19	26.07	4.87	-54.7	-57.7	11.3	2.21e-05	0	28	0	33554432	74	5446
2026-01-04 21:09:15.19	26.19	4.91	-55.8	-59.7	9.9	4.37e-04	0	27	0	36700160	76	6113
2026-01-04 21:09:16.19	26.32	4.95	-56.4	-61.2	8.7	9.18e-03	0	28	0	38797312	77	6872
2026-01-04 21:09:17.19	26.44	4.99	-57.0	-62.8	7.4	4.83e-02	0	28	0	42991616	79	7314
2026-01-04 21:09:18.20	26.56	5.04	-57.4	-64.4	6.1	2.10e-01	0	28	0	46137344	79	8817
2026-01-04 21:09:19.20	26.69	5.08	-57.4	-64.5	6.1	2.55e-01	0	28	0	49283072	80	8432
2026-01-04 21:09:20.19	26.81	5.12	-57.4	-66.6	4.1	6.47e-01	0	28	104	51380224	80	10741
2026-01-04 21:09:21.19	26.93	5.16	-58.4	-68.9	4.2	1.40e+00	0	28	104	51380224	82	12479
2026-01-04 21:09:22.19	27.06	5.20	-55.9	-59.8	10.0	1.70e-04	0	28	0	53477376	77	5838
2026-01-04 21:09:23.19	27.18	5.24	-58.1	-69.0	4.0	1.49e+00	0	28	104	55574528	81	13315
2026-01-04 21:09:24.19	27.31	5.28	-55.4	-58.8	10.7	4.26e-04	0	28	0	57671680	77	5205
2026-01-04 21:09:25.19	27.43	5.32	-54.4	-57.1	11.9	6.10e-06	0	27	0	60817408	75	4795
2026-01-04 21:09:26.19	27.56	5.36	-53.4	-55.6	12.8	7.00e-07	0	28	0	63963136	73	4523
2026-01-04 21:09:27.19	27.68	5.40	-52.7	-54.7	13.3	0.00e+00	0	28	0	67108864	72	4297
2026-01-04 21:09:28.19	27.81	5.44	-52.5	-54.4	13.4	0.00e+00	0	28	0	70254592	71	4424
2026-01-04 21:09:29.18	27.94	5.48	-52.4	-54.2	13.5	0.00e+00	0	28	0	73400320	71	4340
2026-01-04 21:09:30.18	28.06	5.52	-52.4	-54.3	13.5	0.00e+00	0	28	0	76546048	71	4355
2026-01-04 21:09:31.19	28.19	5.56	-52.3	-54.1	13.6	0.00e+00	0	28	0	79691776	71	4283
2026-01-04 21:09:32.18	28.32	5.60	-52.2	-54.0	13.6	0.00e+00	0	28	0	82837504	70	4454
2026-01-04 21:09:33.18	28.45	5.64	-52.1	-54.0	13.6	0.00e+00	0	28	0	85983232	70	4449
2026-01-04 21:09:34.17	28.57	5.68	-52.1	-53.9	13.6	0.00e+00	0	28	0	89128960	70	4398
2026-01-04 21:09:35.16	28.70	5.72	-52.0	-53.8	13.7	0.00e+00	0	28	0	91226112	70	4345
2026-01-04 21:09:36.17	28.83	5.76	-52.1	-53.9	13.6	0.00e+00	0	28	0	94371840	70	4413
2026-01-04 21:09:37.16	28.96	5.80	-52.0	-53.8	13.7	0.00e+00	0	28	0	97517568	70	4354
2026-01-04 21:09:38.15	29.09	5.84	-51.9	-53.7	13.7	0.00e+00	0	28	0	100663296	70	4294
2026-01-04 21:09:39.15	29.22	5.88	-52.0	-53.7	13.7	0.00e+00	0	28	0	103809024	70	4322
2026-01-04 21:09:40.15	29.35	5.92	-51.9	-53.6	13.8	0.00e+00	0	28	0	106954752	70	4256
2026-01-04 21:09:41.14	29.48	5.96	-51.8	-53.5	13.8	0.00e+00	0	28	0	110100480	70	4236
2026-01-04 21:09:42.14	29.61	6.00	-51.9	-53.6	13.8	0.00e+00	0	28	0	113246208	70	4265
2026-01-04 21:09:43.15	29.74	6.04	-52.0	-53.7	13.7	0.00e+00	0	28	0	116391936	70	4337
2026-01-04 21:09:44.14	29.87	6.08	-52.0	-53.7	13.7	0.00e+00	0	28	0	119537664	70	4322
2026-01-04 21:09:45.14	30.01	6.12	-52.0	-53.7	13.7	0.00e+00	0	28	0	122683392	70	4339
2026-01-04 21:09:46.13	30.14	6.16	-51.9	-53.6	13.8	0.00e+00	0	28	0	125829120	70	4284
2026-01-04 21:09:47.13	30.27	6.20	-52.0	-53.7	13.7	0.00e+00	0	28	0	128974848	70	4339
2026-01-04 21:09:48.13	30.40	6.24	-52.0	-53.7	13.8	0.00e+00	0	28	0	132120576	70	4327
2026-01-04 21:09:49.13	30.54	6.28	-52.0	-53.8	13.7	0.00e+00	0	28	0	135266304	70	4361
2026-01-04 21:09:50.13	30.67	6.32	-52.0	-53.8	13.7	0.00e+00	0	28	0	138412032	70	4369
2026-01-04 21:09:51.12	30.80	6.35	-52.0	-53.7	13.8	0.00e+00	0	28	0	141557760	70	4317
2026-01-04 21:09:52.12	30.94	6.39	-52.0	-53.7	13.7	0.00e+00	0	28	0	144703488	70	4332
2026-01-04 21:09:53.13	31.07	6.43	-51.9	-53.7	13.8	0.00e+00	0	28	0	147849216	70	4302
2026-01-04 21:09:54.14	31.21	6.47	-51.8	-53.5	13.9	0.00e+00	0	28	0	150994944	70	4205
2026-01-04 21:09:55.14	31.35	6.51	-51.8	-53.5	13.9	0.00e+00	0	28	0	154140672	70	4194
2026-01-04 21:09:56.14	31.48	6.55	-51.8	-53.6	13.9	0.00e+00	0	28	0	157286400	70	4249
2026-01-04 21:09:57.14	31.62	6.59	-51.8	-53.4	13.9	0.00e+00	0	28	0	160432128	70	4186
2026-01-04 21:09:58.15	31.76	6.63	-51.7	-53.4	14.0	0.00e+00	0	28	0	163577856	70	4161
2026-01-04 21:09:59.15	31.89	6.66	-51.7	-53.4	13.8	0.00e+00	0	28	0	166723584	69	4411
2026-01-04 21:10:00.15	32.03	6.70	-51.8	-53.5	13.8	0.00e+00	0	28	0	169869312	69	4450
2026-01-04 21:10:01.15	32.17	6.74	-51.7	-53.4	13.8	0.00e+00	0	28	0	173015040	69	4430
2026-01-04 21:10:02.15	32.31	6.78	-51.6	-53.3	13.9	0.00e+00	0	28	0	176160768	69	4365
2026-01-04 21:10:03.15	32.45	6.82	-51.7	-53.4	13.8	0.00e+00	0	28	0	179306496	69	4431
2026-01-04 21:10:04.15	32.58	6.86	-51.9	-53.6	13.8	0.00e+00	0	28	0	182452224	69	4514
2026-01-04 21:10:05.14	32.72	6.89	-51.8	-53.5	13.8	0.00e+00	0	28	0	185597952	69	4469
2026-01-04 21:10:06.14	32.86	6.93	-51.8	-53.5	13.8	0.00e+00	0	28	0	188743680	69	4476
2026-01-04 21:10:07.14	33.00	6.97	-51.8	-53.5	13.8	0.00e+00	0	28	0	191889408	69	4489
2026-01-04 21:10:08.13	33.14	7.01	-51.7	-53.3	13.9	0.00e+00	0	28	0	195035136	69	4386
2026-01-04 21:10:09.14	33.28	7.04	-51.6	-53.2	13.9	0.00e+00	0	28	0	198180864	69	4329
2026-01-04 21:10:10.13	33.42	7.08	-51.6	-53.3	13.9	0.00e+00	0	28	0	201326592	69	4341
2026-01-04 21:10:11.13	33.56	7.12	-51.7	-53.4	13.8	0.00e+00	0	28	0	204472320	69	4426
2026-01-04 21:10:12.14	33.71	7.16	-51.6	-53.2	13.9	0.00e+00	0	28	0	207618048	69	4320
2026-01-04 21:10:13.14	33.85	7.19	-51.5	-53.1	14.0	0.00e+00	0	28	0	210763776	69	4287
2026-01-04 21:10:14.13	33.99	7.23	-51.5	-53.1	14.0	0.00e+00	0	28	0	213909504	69	4256
2026-01-04 21:10:15.13	34.13	7.27	-51.5	-53.1	14.0	0.00e+00	0	28	0	217055232	69	4262
2026-01-04 21:10:16.13	34.27	7.30	-51.5	-53.2	14.0	0.00e+00	0	28	0	220200960	69	4295
2026-01-04 21:10:17.13	34.42	7.34	-51.6	-53.2	13.9	0.00e+00	0	28	0	223346688	69	4323
2026-01-04 21:10:18.13	34.56	7.38	-51.5	-53.1	14.0	0.00e+00	0	28	0	225443840	69	4281
2026-01-04 21:10:19.13	34.71	7.42	-51.6	-53.2	14.0	0.00e+00	0	28	0	228589568	69	4321
2026-01-04 21:10:20.13	34.85	7.45	-51.5	-53.1	14.0	0.00e+00	0	28	0	231735296	69	4278
2026-01-04 21:10:21.13	35.00	7.49	-51.5	-53.1	14.0	0.00e+00	0	28	0	234881024	69	4279
2026-01-04 21:10:22.13	35.14	7.52	-51.3	-52.9	14.1	0.00e+00	0	28	0	238026752	69	4185
2026-01-04 21:10:23.12	35.28	7.56	-51.3	-52.9	14.1	0.00e+00	0	28	0	241172480	69	4174
2026-01-04 21:10:24.12	35.43	7.60	-51.3	-52.9	14.1	0.00e+00	0	28	0	244318208	69	4148
2026-01-04 21:10:25.12	35.58	7.63	-51.3	-52.8	14.1	0.00e+00	0	28	0	247463936	69	4134
2026-01-04 21:10:26.12	35.72	7.67	-51.3	-52.8	14.1	0.00e+00	0	28	0	250609664	69	4131
2026-01-04 21:10:27.12	35.87	7.70	-51.3	-52.8	14.1	0.00e+00	0	28	0	253755392	69	4134
2026-01-04 21:10:28.11	36.02	7.74	-51.3	-52.9	14.1	0.00e+00	0	28	0	256901120	69	4167
2026-01-04 21:10:29.11	36.16	7.78	-51.3	-52.8	14.1	0.00e+00	0	28	0	260046848	69	4133
2026-01-04 21:10:30.11	36.31	7.81	-51.3	-52.8	14.2	0.00e+00	0	28	0	263192576	69	4119
2026-01-04 21:10:31.11	36.46	7.85	-51.3	-52.9	14.1	0.00e+00	0	28	0	266338304	69	4155
2026-01-04 21:10:32.10	36.61	7.88	-51.3	-52.8	14.1	0.00e+00	0	28	0	269484032	68	4368
2026-01-04 21:10:33.10	36.75	7.92	-51.3	-52.8	14.1	0.00e+00	0	28	0	272629760	68	4379
2026-01-04 21:10:34.10	36.90	7.95	-51.3	-52.9	14.0	0.00e+00	0	28	0	275775488	68	4413
2026-01-04 21:10:35.10	37.05	7.99	-51.4	-52.9	14.0	0.00e+00	0	28	0	278921216	68	4429
2026-01-04 21:10:36.10	37.20	8.02	-51.3	-52.8	14.1	0.00e+00	0	28	0	282066944	68	4390
2026-01-04 21:10:37.09	37.35	8.06	-51.3	-52.8	14.1	0.00e+00	0	28	0	285212672	68	4380
2026-01-04 21:10:38.09	37.50	8.09	-51.3	-52.8	14.1	0.00e+00	0	28	0	288358400	68	4371
2026-01-04 21:10:39.09	37.65	8.13	-51.3	-52.9	14.0	0.00e+00	0	28	0	291504128	68	4410
2026-01-04 21:10:40.08	37.80	8.16	-51.2	-52.8	14.1	0.00e+00	0	28	0	294649856	68	4348
2026-01-04 21:10:41.07	37.95	8.19	-51.3	-52.9	14.1	0.00e+00	0	28	0	297795584	68	4399
2026-01-04 21:10:42.07	38.11	8.23	-51.2	-52.8	14.1	0.00e+00	0	28	0	300941312	68	4354
2026-01-04 21:10:43.07	38.26	8.26	-51.2	-52.8	14.1	0.00e+00	0	28	0	304087040	68	4352
2026-01-04 21:10:44.06	38.41	8.29	-51.4	-52.9	14.0	0.00e+00	0	28	0	307232768	68	4430
2026-01-04 21:10:45.06	38.56	8.33	-51.2	-52.8	14.1	0.00e+00	0	28	0	310378496	68	4361
2026-01-04 21:10:46.05	38.71	8.36	-51.3	-52.8	14.1	0.00e+00	0	28	0	313524224	68	4377
2026-01-04 21:10:47.06	38.87	8.40	-51.2	-52.8	14.1	0.00e+00	0	28	0	316669952	68	4364
2026-01-04 21:10:48.06	39.02	8.43	-51.2	-52.7	14.1	0.00e+00	0	28	0	319815680	68	4339
2026-01-04 21:10:49.06	39.18	8.46	-51.2	-52.8	14.1	0.00e+00	0	28	0	322961408	68	4341
2026-01-04 21:10:50.05	39.33	8.49	-51.2	-52.7	14.1	0.00e+00	0	28	0	326107136	68	4328
2026-01-04 21:10:51.05	39.49	8.53	-51.3	-52.9	14.1	0.00e+00	0	28	0	329252864	68	4396
2026-01-04 21:10:52.05	39.64	8.56	-51.2	-52.8	14.1	0.00e+00	0	28	0	332398592	68	4345
2026-01-04 21:10:53.05	39.80	8.59	-51.3	-52.9	14.1	0.00e+00	0	28	0	335544320	68	4410
2026-01-04 21:10:54.06	39.96	8.63	-51.3	-52.9	14.1	0.00e+00	0	28	0	338690048	68	4398
2026-01-04 21:10:55.06	40.11	8.66	-51.3	-52.8	14.1	0.00e+00	0	28	0	341835776	68	4374
2026-01-04 21:10:56.05	40.27	8.69	-51.3	-52.8	14.1	0.00e+00	0	28	0	344981504	68	4372
2026-01-04 21:10:57.05	40.42	8.72	-51.3	-52.9	14.1	0.00e+00	0	28	0	348127232	68	4414
2026-01-04 21:10:58.06	40.58	8.75	-51.1	-52.7	14.2	0.00e+00	0	28	0	351272960	68	4298
2026-01-04 21:10:59.06	40.74	8.79	-51.1	-52.6	14.2	0.00e+00	0	28	0	354418688	68	4284
2026-01-04 21:11:00.06	40.90	8.82	-51.1	-52.6	14.2	0.00e+00	0	28	0	357564416	68	4263
2026-01-04 21:11:01.06	41.06	8.85	-51.1	-52.6	14.2	0.00e+00	0	28	0	359661568	68	4289
2026-01-04 21:11:02.05	41.21	8.88	-51.2	-52.7	14.2	0.00e+00	0	28	0	362807296	68	4334
2026-01-04 21:11:03.05	41.37	8.91	-51.0	-52.6	14.2	0.00e+00	0	28	0	365953024	68	4260
2026-01-04 21:11:04.05	41.53	8.94	-51.1	-52.6	14.2	0.00e+00	0	28	0	369098752	68	4270
2026-01-04 21:11:05.05	41.69	8.97	-51.1	-52.6	14.2	0.00e+00	0	28	0	372244480	68	4287
2026-01-04 21:11:06.05	41.85	9.01	-51.2	-52.7	14.1	0.00e+00	0	28	0	375390208	68	4326
2026-01-04 21:11:07.05	42.01	9.04	-51.2	-52.7	14.1	0.00e+00	0	28	0	378535936	68	4330
2026-01-04 21:11:08.06	42.18	9.07	-51.2	-52.8	14.1	0.00e+00	0	28	0	381681664	68	4355
2026-01-04 21:11:09.04	42.33	9.10	-51.3	-52.9	14.1	0.00e+00	0	28	0	384827392	68	4409
2026-01-04 21:11:10.05	42.50	9.13	-51.4	-53.0	14.0	0.00e+00	0	28	0	387973120	68	4481
2026-01-04 21:11:11.05	42.66	9.16	-51.5	-53.1	14.0	0.00e+00	0	28	0	391118848	68	4535
2026-01-04 21:11:12.05	42.82	9.19	-51.5	-53.1	14.0	0.00e+00	0	28	0	394264576	68	4520
2026-01-04 21:11:13.06	42.98	9.22	-51.4	-52.9	14.1	0.00e+00	0	28	0	397410304	68	4438
2026-01-04 21:11:14.06	43.15	9.25	-51.3	-52.9	14.1	0.00e+00	0	28	0	400556032	68	4410
2026-01-04 21:11:15.06	43.31	9.28	-51.1	-52.7	14.2	0.00e+00	0	28	0	403701760	68	4308
2026-01-04 21:11:16.06	43.47	9.30	-51.0	-52.6	14.2	0.00e+00	0	28	0	406847488	68	4243
2026-01-04 21:11:17.06	43.64	9.33	-51.0	-52.5	14.3	0.00e+00	0	28	0	409993216	68	4194
2026-01-04 21:11:18.06	43.80	9.36	-51.0	-52.5	14.2	0.00e+00	0	28	0	413138944	68	4214
2026-01-04 21:11:19.06	43.97	9.39	-51.0	-52.5	14.2	0.00e+00	0	28	0	416284672	68	4227
2026-01-04 21:11:20.06	44.13	9.42	-51.0	-52.4	14.3	0.00e+00	0	28	0	419430400	68	4191
2026-01-04 21:11:21.06	44.29	9.45	-51.0	-52.5	14.2	0.00e+00	0	28	0	422576128	68	4238
2026-01-04 21:11:22.06	44.46	9.48	-51.0	-52.5	14.3	0.00e+00	0	28	0	425721856	68	4214
2026-01-04 21:11:23.05	44.62	9.50	-51.0	-52.5	14.3	0.00e+00	0	28	0	428867584	68	4221
2026-01-04 21:11:24.05	44.79	9.53	-51.1	-52.6	14.2	0.00e+00	0	28	0	432013312	68	4260
2026-01-04 21:11:25.03	44.95	9.56	-51.1	-52.6	14.2	0.00e+00	0	28	0	435159040	68	4258
2026-01-04 21:11:26.04	45.12	9.59	-51.2	-52.7	14.2	0.00e+00	0	28	0	438304768	68	4302
2026-01-04 21:11:27.04	45.29	9.61	-51.1	-52.6	14.2	0.00e+00	0	28	0	441450496	68	4273
2026-01-04 21:11:28.04	45.45	9.64	-51.1	-52.6	14.2	0.00e+00	0	28	0	444596224	68	4281
2026-01-04 21:11:29.04	45.62	9.67	-51.1	-52.6	14.2	0.00e+00	0	28	0	447741952	68	4276
2026-01-04 21:11:30.04	45.79	9.69	-51.1	-52.6	14.2	0.00e+00	0	28	0	450887680	68	4290
2026-01-04 21:11:31.04	45.96	9.72	-51.2	-52.7	14.2	0.00e+00	0	28	0	454033408	68	4308
2026-01-04 21:11:32.03	46.12	9.75	-51.2	-52.7	14.2	0.00e+00	0	28	0	457179136	68	4308
2026-01-04 21:11:33.03	46.29	9.77	-51.1	-52.6	14.2	0.00e+00	0	28	0	460324864	68	4282
2026-01-04 21:11:34.03	46.46	9.80	-51.1	-52.6	14.3	0.00e+00	0	28	0	463470592	68	4273
2026-01-04 21:11:35.03	46.63	9.83	-51.0	-52.5	14.3	0.00e+00	0	28	0	466616320	68	4218
2026-01-04 21:11:36.03	46.80	9.85	-51.0	-52.5	14.3	0.00e+00	0	28	0	469762048	68	4238
2026-01-04 21:11:37.02	46.97	9.88	-51.0	-52.5	14.3	0.00e+00	0	28	0	472907776	68	4200
2026-01-04 21:11:38.03	47.14	9.90	-51.0	-52.5	14.3	0.00e+00	0	28	0	476053504	68	4222
2026-01-04 21:11:39.02	47.31	9.93	-51.0	-52.5	14.3	0.00e+00	0	28	0	479199232	68	4228
2026-01-04 21:11:40.02	47.48	9.95	-51.0	-52.5	14.3	0.00e+00	0	28	0	482344960	68	4200
2026-01-04 21:11:41.01	47.65	9.98	-51.0	-52.5	14.3	0.00e+00	0	28	0	485490688	68	4227
2026-01-04 21:11:42.02	47.82	10.00	-51.0	-52.5	14.3	0.00e+00	0	28	0	488636416	68	4197
2026-01-04 21:11:43.02	47.99	10.02	-50.9	-52.4	14.3	0.00e+00	0	28	0	491782144	68	4180
2026-01-04 21:11:44.03	48.16	10.05	-51.0	-52.5	14.3	0.00e+00	0	28	0	493879296	68	4219
2026-01-04 21:11:45.03	48.34	10.07	-51.1	-52.6	14.3	0.00e+00	0	28	0	497025024	68	4256
2026-01-04 21:11:46.04	48.51	10.10	-51.0	-52.6	14.3	0.00e+00	0	28	0	501219328	68	4246
2026-01-04 21:11:47.04	48.68	10.12	-51.1	-52.6	14.2	0.00e+00	0	28	0	503316480	68	4260
2026-01-04 21:11:48.03	48.85	10.14	-51.2	-52.7	14.2	0.00e+00	0	28	0	506462208	68	4313
2026-01-04 21:11:49.04	49.03	10.17	-51.2	-52.7	14.2	0.00e+00	0	28	0	509607936	68	4310
2026-01-04 21:11:50.04	49.20	10.19	-51.2	-52.7	14.2	0.00e+00	0	28	0	513802240	68	4324
2026-01-04 21:11:51.04	49.38	10.21	-51.2	-52.7	14.2	0.00e+00	0	28	0	515899392	68	4308
2026-01-04 21:11:52.03	49.55	10.23	-51.1	-52.6	14.2	0.00e+00	0	28	0	519045120	68	4290
2026-01-04 21:11:53.03	49.72	10.26	-51.1	-52.6	14.2	0.00e+00	0	28	0	522190848	68	4282
2026-01-04 21:11:54.03	49.90	10.28	-50.9	-52.4	14.3	0.00e+00	0	28	0	525336576	68	4168
2026-01-04 21:11:55.04	50.07	10.30	-51.0	-52.5	14.3	0.00e+00	0	28	0	528482304	68	4203
2026-01-04 21:11:56.04	50.25	10.32	-50.9	-52.4	14.4	0.00e+00	0	28	0	531628032	68	4153
2026-01-04 21:11:57.04	50.42	10.34	-51.0	-52.4	14.3	0.00e+00	0	28	0	534773760	68	4182
2026-01-04 21:11:58.05	50.60	10.36	-51.0	-52.5	14.3	0.00e+00	0	28	0	537919488	68	4221
2026-01-04 21:11:59.05	50.77	10.39	-51.2	-52.7	14.2	0.00e+00	0	28	0	541065216	68	4330
2026-01-04 21:12:00.05	50.95	10.41	-51.0	-52.6	14.3	0.00e+00	0	28	0	544210944	68	4244
2026-01-04 21:12:01.05	51.13	10.43	-51.1	-52.6	14.2	0.00e+00	0	28	0	547356672	68	4267
2026-01-04 21:12:02.05	51.30	10.45	-51.2	-52.7	14.2	0.00e+00	0	28	0	550502400	68	4307
2026-01-04 21:12:03.05	51.48	10.47	-51.2	-52.7	14.2	0.00e+00	0	28	0	553648128	68	4313
2026-01-04 21:12:04.04	51.65	10.49	-51.2	-52.7	14.2	0.00e+00	0	28	0	556793856	68	4334
2026-01-04 21:12:05.05	51.83	10.51	-51.2	-52.7	14.2	0.00e+00	0	28	0	559939584	68	4323
2026-01-04 21:12:06.05	52.01	10.53	-51.2	-52.7	14.2	0.00e+00	0	28	0	563085312	68	4313
2026-01-04 21:12:07.05	52.19	10.54	-51.1	-52.6	14.3	0.00e+00	0	28	0	566231040	68	4266
2026-01-04 21:12:08.05	52.37	10.56	-51.1	-52.6	14.2	0.00e+00	0	28	0	569376768	68	4248
2026-01-04 21:12:09.05	52.54	10.58	-51.1	-52.6	14.2	0.00e+00	0	28	0	572522496	68	4282
2026-01-04 21:12:10.05	52.72	10.60	-51.1	-52.6	14.3	0.00e+00	0	28	0	575668224	68	4249
2026-01-04 21:12:11.05	52.90	10.62	-51.1	-52.6	14.3	0.00e+00	0	28	0	578813952	68	4280
2026-01-04 21:12:12.05	53.08	10.64	-51.0	-52.5	14.3	0.00e+00	0	28	0	581959680	68	4228
2026-01-04 21:12:13.05	53.26	10.66	-51.2	-52.7	14.2	0.00e+00	0	28	0	585105408	68	4316
2026-01-04 21:12:14.05	53.44	10.67	-51.2	-52.8	14.1	0.00e+00	0	28	0	588251136	68	4370
2026-01-04 21:12:15.05	53.62	10.69	-51.2	-52.7	14.2	0.00e+00	0	28	0	591396864	68	4320
2026-01-04 21:12:16.06	53.80	10.71	-51.1	-52.6	14.2	0.00e+00	0	28	0	594542592	68	4280
2026-01-04 21:12:17.06	53.98	10.72	-50.9	-52.4	14.3	0.00e+00	0	28	0	597688320	68	4174
2026-01-04 21:12:18.05	54.15	10.74	-50.8	-52.2	14.4	0.00e+00	0	28	0	600834048	68	4092
2026-01-04 21:12:19.05	54.33	10.76	-50.8	-52.3	14.4	0.00e+00	0	28	0	603979776	68	4099
2026-01-04 21:12:20.05	54.51	10.77	-50.8	-52.2	14.4	0.00e+00	0	28	0	607125504	68	4082
2026-01-04 21:12:21.05	54.69	10.79	-50.5	-51.9	14.5	0.00e+00	0	28	0	610271232	67	4174
2026-01-04 21:12:22.06	54.88	10.80	-50.5	-51.9	14.4	0.00e+00	0	28	0	613416960	67	4187
2026-01-04 21:12:23.05	55.06	10.82	-50.6	-52.0	14.3	0.00e+00	0	28	0	616562688	67	4214
2026-01-04 21:12:24.05	55.24	10.83	-50.6	-52.1	14.3	0.00e+00	0	28	0	619708416	67	4253
2026-01-04 21:12:25.05	55.42	10.85	-50.6	-52.1	14.3	0.00e+00	0	28	0	622854144	67	4243
2026-01-04 21:12:26.05	55.60	10.86	-50.8	-52.2	14.3	0.00e+00	0	28	0	625999872	67	4340
2026-01-04 21:12:27.05	55.78	10.88	-50.8	-52.2	14.3	0.00e+00	0	28	0	629145600	67	4338
2026-01-04 21:12:28.05	55.96	10.89	-50.8	-52.3	14.2	0.00e+00	0	28	0	632291328	67	4367
2026-01-04 21:12:29.05	56.14	10.91	-50.8	-52.3	14.3	0.00e+00	0	28	0	635437056	67	4354
2026-01-04 21:12:30.05	56.33	10.92	-50.7	-52.2	14.3	0.00e+00	0	28	0	638582784	67	4297
2026-01-04 21:12:31.05	56.51	10.93	-50.9	-52.4	14.2	0.00e+00	0	29	0	641728512	67	4411
2026-01-04 21:12:32.04	56.69	10.95	-50.8	-52.2	14.3	0.00e+00	0	28	0	644874240	67	4335
2026-01-04 21:12:33.04	56.87	10.96	-50.7	-52.1	14.3	0.00e+00	0	28	0	648019968	67	4281
2026-01-04 21:12:34.04	57.05	10.97	-50.8	-52.2	14.3	0.00e+00	0	28	0	651165696	67	4339
2026-01-04 21:12:35.04	57.24	10.99	-50.9	-52.3	14.2	0.00e+00	0	28	0	654311424	67	4386
2026-01-04 21:12:36.03	57.42	11.00	-50.7	-52.2	14.3	0.00e+00	0	28	0	656408576	67	4327
2026-01-04 21:12:37.03	57.60	11.01	-50.8	-52.3	14.3	0.00e+00	0	28	0	659554304	67	4370
2026-01-04 21:12:38.03	57.78	11.02	-50.9	-52.4	14.2	0.00e+00	0	28	0	662700032	67	4402
2026-01-04 21:12:39.03	57.97	11.03	-50.8	-52.3	14.3	0.00e+00	0	28	0	665845760	67	4373
2026-01-04 21:12:40.03	58.15	11.04	-50.8	-52.3	14.2	0.00e+00	0	28	0	668991488	67	4375
2026-01-04 21:12:41.03	58.33	11.05	-50.8	-52.3	14.2	0.00e+00	0	28	0	672137216	67	4380
2026-01-04 21:12:42.03	58.52	11.07	-50.7	-52.2	14.3	0.00e+00	0	28	0	675282944	67	4330
2026-01-04 21:12:43.02	58.70	11.08	-50.6	-52.1	14.4	0.00e+00	0	28	0	678428672	67	4269
2026-01-04 21:12:44.03	58.89	11.09	-50.6	-52.0	14.4	0.00e+00	0	28	0	681574400	67	4218
2026-01-04 21:12:45.03	59.07	11.10	-50.5	-51.9	14.4	0.00e+00	0	28	0	684720128	67	4186
2026-01-04 21:12:46.03	59.26	11.11	-50.5	-51.9	14.4	0.00e+00	0	28	0	687865856	67	4174
2026-01-04 21:12:47.03	59.44	11.11	-50.5	-52.0	14.4	0.00e+00	0	28	0	691011584	67	4194
2026-01-04 21:12:48.03	59.62	11.12	-50.4	-51.8	14.5	0.00e+00	0	28	0	694157312	67	4133
2026-01-04 21:12:49.03	59.81	11.13	-50.3	-51.7	14.5	0.00e+00	0	28	0	697303040	67	4067
2026-01-04 21:12:50.02	59.99	11.14	-50.4	-51.8	14.5	0.00e+00	0	28	0	700448768	67	4122
2026-01-04 21:12:51.02	60.18	11.15	-50.4	-51.8	14.5	0.00e+00	0	28	0	703594496	67	4141
2026-01-04 21:12:52.02	60.36	11.16	-50.4	-51.9	14.4	0.00e+00	0	28	0	706740224	67	4153
2026-01-04 21:12:53.02	60.55	11.17	-50.5	-51.9	14.4	0.00e+00	0	28	0	709885952	67	4177
2026-01-04 21:12:54.02	60.73	11.17	-50.4	-51.8	14.5	0.00e+00	0	28	0	713031680	67	4105
2026-01-04 21:12:55.02	60.92	11.18	-50.3	-51.7	14.5	0.00e+00	0	28	0	716177408	67	4087
2026-01-04 21:12:56.03	61.10	11.19	-50.2	-51.6	14.5	0.00e+00	0	28	0	719323136	67	4024
2026-01-04 21:12:57.03	61.29	11.19	-50.4	-51.8	14.5	0.00e+00	0	28	0	722468864	67	4115
2026-01-04 21:12:58.03	61.47	11.20	-50.3	-51.7	14.5	0.00e+00	0	28	0	725614592	67	4082
2026-01-04 21:12:59.03	61.66	11.21	-50.4	-51.8	14.5	0.00e+00	0	28	0	728760320	67	4127
2026-01-04 21:13:00.04	61.85	11.21	-50.3	-51.7	14.5	0.00e+00	0	28	0	731906048	67	4082
2026-01-04 21:13:01.03	62.03	11.22	-50.3	-51.7	14.5	0.00e+00	0	28	0	735051776	67	4080
2026-01-04 21:13:02.03	62.22	11.22	-50.4	-51.8	14.4	0.00e+00	0	28	0	738197504	67	4135
2026-01-04 21:13:03.02	62.40	11.23	-50.4	-51.8	14.4	0.00e+00	0	28	0	741343232	67	4112
2026-01-04 21:13:04.01	62.59	11.23	-50.4	-51.8	14.5	0.00e+00	0	29	0	744488960	67	4136
2026-01-04 21:13:05.02	62.77	11.24	-50.4	-51.8	14.4	0.00e+00	0	28	0	747634688	67	4139
2026-01-04 21:13:06.01	62.96	11.24	-50.5	-51.9	14.4	0.00e+00	0	28	0	750780416	67	4160
2026-01-04 21:13:07.02	63.15	11.25	-50.4	-51.8	14.5	0.00e+00	0	28	0	753926144	67	4128
2026-01-04 21:13:08.01	63.33	11.25	-50.5	-51.9	14.4	0.00e+00	0	29	0	757071872	67	4184
2026-01-04 21:13:09.01	63.52	11.25	-50.5	-51.9	14.4	0.00e+00	0	28	0	760217600	67	4172
2026-01-04 21:13:10.01	63.70	11.26	-50.5	-51.9	14.4	0.00e+00	0	29	0	763363328	67	4187
2026-01-04 21:13:11.01	63.89	11.26	-50.5	-51.9	14.4	0.00e+00	0	28	0	766509056	67	4174
2026-01-04 21:13:12.01	64.08	11.26	-50.5	-51.9	14.4	0.00e+00	0	29	0	769654784	67	4167
2026-01-04 21:13:13.01	64.26	11.27	-50.5	-51.9	14.4	0.00e+00	0	28	0	772800512	67	4175
2026-01-04 21:13:14.00	64.45	11.27	-50.5	-51.9	14.4	0.00e+00	0	28	0	775946240	67	4160
2026-01-04 21:13:15.00	64.63	11.27	-50.5	-51.9	14.4	0.00e+00	0	28	0	779091968	67	4150
2026-01-04 21:13:16.01	64.82	11.27	-50.4	-51.9	14.4	0.00e+00	0	28	0	782237696	67	4154
2026-01-04 21:13:17.01	65.01	11.27	-50.6	-52.0	14.4	0.00e+00	0	28	0	785383424	67	4220
2026-01-04 21:13:18.00	65.19	11.27	-50.6	-52.0	14.4	0.00e+00	0	28	0	788529152	67	4232
2026-01-04 21:13:19.00	65.38	11.28	-50.6	-52.0	14.4	0.00e+00	0	28	0	791674880	67	4240
2026-01-04 21:13:20.01	65.57	11.28	-50.6	-52.0	14.4	0.00e+00	0	28	0	794820608	67	4229
2026-01-04 21:13:21.00	65.75	11.28	-50.5	-52.0	14.4	0.00e+00	0	29	0	797966336	67	4203
2026-01-04 21:13:22.00	65.94	11.28	-50.4	-51.8	14.5	0.00e+00	0	28	0	801112064	67	4142
2026-01-04 21:13:22.99	66.12	11.28	-50.4	-51.8	14.5	0.00e+00	0	28	0	804257792	67	4131
2026-01-04 21:13:23.99	66.31	11.28	-50.4	-51.8	14.5	0.00e+00	0	28	0	807403520	67	4110
2026-01-04 21:13:24.99	66.50	11.28	-50.4	-51.8	14.4	0.00e+00	0	29	0	809500672	67	4132
2026-01-04 21:13:25.99	66.68	11.27	-50.4	-51.8	14.5	0.00e+00	0	28	0	812646400	67	4112
2026-01-04 21:13:26.98	66.87	11.27	-50.4	-51.8	14.5	0.00e+00	0	29	0	815792128	67	4108
2026-01-04 21:13:27.98	67.05	11.27	-50.4	-51.7	14.5	0.00e+00	0	28	0	818937856	67	4092
2026-01-04 21:13:28.97	67.24	11.27	-50.4	-51.8	14.5	0.00e+00	0	28	0	822083584	67	4138
2026-01-04 21:13:29.97	67.42	11.27	-50.3	-51.7	14.5	0.00e+00	0	29	0	825229312	67	4094
2026-01-04 21:13:30.97	67.61	11.27	-50.4	-51.7	14.5	0.00e+00	0	28	0	828375040	67	4098
2026-01-04 21:13:31.97	67.80	11.26	-50.4	-51.8	14.5	0.00e+00	0	29	0	831520768	67	4121
2026-01-04 21:13:32.97	67.98	11.26	-50.4	-51.8	14.5	0.00e+00	0	29	0	834666496	67	4112
2026-01-04 21:13:33.97	68.17	11.26	-50.4	-51.8	14.5	0.00e+00	0	28	0	837812224	67	4139
2026-01-04 21:13:34.97	68.36	11.25	-50.4	-51.9	14.5	0.00e+00	0	28	0	840957952	67	4147
2026-01-04 21:13:35.97	68.54	11.25	-50.5	-51.9	14.4	0.00e+00	0	28	0	844103680	67	4186
2026-01-04 21:13:36.96	68.73	11.25	-50.5	-52.0	14.4	0.00e+00	0	28	0	847249408	67	4199
2026-01-04 21:13:37.96	68.91	11.24	-50.6	-52.1	14.4	0.00e+00	0	28	0	850395136	67	4245
2026-01-04 21:13:38.95	69.10	11.24	-50.6	-52.0	14.4	0.00e+00	0	28	0	853540864	67	4242
2026-01-04 21:13:39.95	69.28	11.23	-50.6	-52.1	14.4	0.00e+00	0	28	0	856686592	67	4253
2026-01-04 21:13:40.94	69.47	11.23	-50.6	-52.0	14.4	0.00e+00	0	28	0	859832320	67	4231
2026-01-04 21:13:41.94	69.65	11.22	-50.6	-52.0	14.4	0.00e+00	0	28	0	862978048	67	4236
2026-01-04 21:13:42.94	69.84	11.22	-50.5	-52.0	14.4	0.00e+00	0	29	0	866123776	67	4210
2026-01-04 21:13:43.94	70.03	11.21	-50.6	-52.0	14.4	0.00e+00	0	29	0	869269504	67	4229
2026-01-04 21:13:44.94	70.21	11.20	-50.6	-52.0	14.4	0.00e+00	0	28	0	872415232	67	4209
2026-01-04 21:13:45.93	70.40	11.20	-50.5	-52.0	14.4	0.00e+00	0	28	0	875560960	67	4203
2026-01-04 21:13:46.93	70.58	11.19	-50.6	-52.0	14.4	0.00e+00	0	29	0	878706688	67	4209
2026-01-04 21:13:47.93	70.77	11.18	-50.6	-52.0	14.4	0.00e+00	0	29	0	881852416	67	4235
2026-01-04 21:13:48.93	70.95	11.18	-50.5	-51.9	14.4	0.00e+00	0	28	0	884998144	67	4149
2026-01-04 21:13:49.92	71.14	11.17	-50.5	-51.9	14.4	0.00e+00	0	28	0	888143872	67	4179
2026-01-04 21:13:50.92	71.32	11.16	-50.5	-51.9	14.4	0.00e+00	0	29	0	891289600	67	4160
2026-01-04 21:13:51.92	71.51	11.15	-50.6	-52.0	14.4	0.00e+00	0	28	0	894435328	67	4204
2026-01-04 21:13:52.92	71.69	11.15	-50.6	-52.0	14.4	0.00e+00	0	29	0	897581056	67	4229
2026-01-04 21:13:53.92	71.88	11.14	-50.6	-52.1	14.4	0.00e+00	0	29	0	900726784	67	4259
2026-01-04 21:13:54.92	72.06	11.13	-50.6	-52.0	14.4	0.00e+00	0	29	0	903872512	67	4235
2026-01-04 21:13:55.92	72.25	11.12	-50.5	-51.9	14.4	0.00e+00	0	28	0	907018240	67	4175
2026-01-04 21:13:56.92	72.43	11.11	-50.6	-52.0	14.4	0.00e+00	0	28	0	910163968	67	4231
2026-01-04 21:13:57.92	72.62	11.10	-50.3	-51.7	14.5	0.00e+00	0	29	0	913309696	67	4090
2026-01-04 21:13:58.92	72.80	11.09	-50.4	-51.8	14.5	0.00e+00	0	28	0	916455424	67	4140
2026-01-04 21:13:59.92	72.98	11.08	-50.5	-51.9	14.5	0.00e+00	0	29	0	919601152	67	4165
2026-01-04 21:14:00.92	73.17	11.07	-50.5	-51.9	14.4	0.00e+00	0	29	0	921698304	67	4188
2026-01-04 21:14:01.92	73.35	11.06	-50.4	-51.7	14.5	0.00e+00	0	29	0	924844032	67	4096
2026-01-04 21:14:02.92	73.54	11.05	-50.3	-51.7	14.5	0.00e+00	0	28	0	927989760	67	4071
2026-01-04 21:14:03.93	73.72	11.04	-50.4	-51.8	14.5	0.00e+00	0	28	0	931135488	67	4120
2026-01-04 21:14:04.93	73.91	11.03	-50.6	-52.0	14.4	0.00e+00	0	29	0	934281216	67	4215
2026-01-04 21:14:05.93	74.09	11.02	-50.7	-52.1	14.4	0.00e+00	0	28	0	937426944	67	4281
2026-01-04 21:14:06.93	74.27	11.00	-50.6	-52.1	14.4	0.00e+00	0	29	0	940572672	67	4261
2026-01-04 21:14:07.93	74.46	10.99	-50.5	-52.0	14.4	0.00e+00	0	28	0	943718400	67	4210
2026-01-04 21:14:08.93	74.64	10.98	-50.6	-52.0	14.4	0.00e+00	0	29	0	946864128	67	4242
2026-01-04 21:14:09.94	74.82	10.97	-50.6	-52.1	14.4	0.00e+00	0	29	0	950009856	67	4265
2026-01-04 21:14:10.93	75.00	10.96	-50.6	-52.1	14.4	0.00e+00	0	29	0	953155584	67	4250
2026-01-04 21:14:11.94	75.19	10.94	-50.6	-52.0	14.4	0.00e+00	0	29	0	956301312	67	4209
2026-01-04 21:14:12.94	75.37	10.93	-50.5	-51.9	14.4	0.00e+00	0	28	0	959447040	67	4178
2026-01-04 21:14:13.94	75.55	10.91	-50.7	-52.1	14.4	0.00e+00	0	28	0	962592768	67	4286
2026-01-04 21:14:14.94	75.74	10.90	-50.7	-52.2	14.3	0.00e+00	0	28	0	965738496	67	4305
2026-01-04 21:14:15.94	75.92	10.89	-50.6	-52.0	14.4	0.00e+00	0	28	0	968884224	67	4236
2026-01-04 21:14:16.94	76.10	10.87	-50.6	-52.0	14.4	0.00e+00	0	28	0	972029952	67	4214
2026-01-04 21:14:17.93	76.28	10.86	-50.6	-52.0	14.4	0.00e+00	0	29	0	975175680	67	4242
2026-01-04 21:14:18.93	76.46	10.84	-50.7	-52.2	14.3	0.00e+00	0	28	0	978321408	67	4306
2026-01-04 21:14:19.94	76.64	10.83	-50.6	-52.1	14.4	0.00e+00	0	28	0	981467136	67	4247
2026-01-04 21:14:20.93	76.82	10.81	-50.6	-52.0	14.4	0.00e+00	0	28	0	984612864	67	4211
2026-01-04 21:14:21.94	77.01	10.80	-50.5	-51.9	14.4	0.00e+00	0	28	0	987758592	67	4190
2026-01-04 21:14:22.94	77.19	10.78	-50.6	-52.1	14.4	0.00e+00	0	29	0	990904320	67	4249
2026-01-04 21:14:23.94	77.37	10.77	-50.5	-52.0	14.4	0.00e+00	0	28	0	994050048	67	4194
2026-01-04 21:14:24.94	77.55	10.75	-50.6	-52.0	14.4	0.00e+00	0	28	0	997195776	67	4232
2026-01-04 21:14:25.94	77.73	10.73	-50.5	-51.9	14.4	0.00e+00	0	28	0	1000341504	67	4167
2026-01-04 21:14:26.94	77.91	10.72	-50.5	-52.0	14.4	0.00e+00	0	28	0	1003487232	67	4205
2026-01-04 21:14:27.94	78.09	10.70	-50.5	-52.0	14.4	0.00e+00	0	29	0	1006632960	67	4206
2026-01-04 21:14:28.93	78.27	10.68	-50.5	-52.0	14.4	0.00e+00	0	29	0	1009778688	67	4194
2026-01-04 21:14:29.93	78.45	10.66	-50.5	-51.9	14.4	0.00e+00	0	28	0	1012924416	67	4182
2026-01-04 21:14:30.93	78.63	10.65	-50.6	-52.0	14.4	0.00e+00	0	29	0	1016070144	67	4222
2026-01-04 21:14:31.92	78.80	10.63	-50.5	-51.9	14.4	0.00e+00	0	29	0	1019215872	67	4187
2026-01-04 21:14:32.92	78.98	10.61	-50.6	-52.1	14.3	0.00e+00	0	29	0	1022361600	67	4248
2026-01-04 21:14:33.92	79.16	10.59	-50.6	-52.1	14.4	0.00e+00	0	29	0	1025507328	67	4246
2026-01-04 21:14:34.93	79.34	10.57	-50.6	-52.1	14.4	0.00e+00	0	29	0	1028653056	67	4261
2026-01-04 21:14:35.92	79.52	10.56	-50.6	-52.0	14.4	0.00e+00	0	29	0	1031798784	67	4222
2026-01-04 21:14:36.92	79.69	10.54	-50.6	-52.0	14.4	0.00e+00	0	28	0	1034944512	67	4238
2026-01-04 21:14:37.91	79.87	10.52	-50.6	-52.0	14.4	0.00e+00	0	29	0	1038090240	67	4237
2026-01-04 21:14:38.91	80.05	10.50	-50.5	-52.0	14.4	0.00e+00	0	28	0	1041235968	67	4204
2026-01-04 21:14:39.91	80.23	10.48	-50.6	-52.0	14.4	0.00e+00	0	29	0	1044381696	67	4223
2026-01-04 21:14:40.91	80.40	10.46	-50.5	-51.9	14.4	0.00e+00	0	29	0	1047527424	67	4178
2026-01-04 21:14:41.90	80.58	10.44	-50.4	-51.8	14.5	0.00e+00	0	29	0	1050673152	67	4109
2026-01-04 21:14:42.91	80.76	10.42	-50.5	-51.9	14.4	0.00e+00	0	29	0	1053818880	67	4186
2026-01-04 21:14:43.91	80.93	10.40	-50.5	-51.9	14.4	0.00e+00	0	29	0	1056964608	67	4170
2026-01-04 21:14:44.90	81.11	10.38	-50.5	-51.9	14.4	0.00e+00	0	29	0	1060110336	67	4190
2026-01-04 21:14:45.90	81.28	10.36	-50.5	-51.9	14.4	0.00e+00	0	29	0	1063256064	67	4179
2026-01-04 21:14:46.90	81.46	10.33	-50.5	-51.9	14.4	0.00e+00	0	29	0	1066401792	67	4185
2026-01-04 21:14:47.90	81.63	10.31	-50.5	-52.0	14.4	0.00e+00	0	29	0	1069547520	67	4216
2026-01-04 21:14:48.90	81.81	10.29	-50.6	-52.0	14.4	0.00e+00	0	29	0	1072693248	67	4232
2026-01-04 21:14:49.90	81.98	10.27	-50.5	-52.0	14.4	0.00e+00	0	28	0	1075838976	67	4196
2026-01-04 21:14:50.89	82.16	10.25	-50.6	-52.1	14.3	0.00e+00	0	29	0	1077936128	67	4257
2026-01-04 21:14:51.89	82.33	10.22	-50.7	-52.1	14.3	0.00e+00	0	28	0	1081081856	67	4276
2026-01-04 21:14:52.89	82.50	10.20	-50.6	-52.1	14.4	0.00e+00	0	28	0	1084227584	67	4248
2026-01-04 21:14:53.89	82.68	10.18	-50.6	-52.0	14.4	0.00e+00	0	28	0	1087373312	67	4218
2026-01-04 21:14:54.89	82.85	10.16	-50.5	-51.9	14.5	0.00e+00	0	29	0	1090519040	67	4159
2026-01-04 21:14:55.89	83.03	10.13	-50.4	-51.8	14.4	0.00e+00	0	28	0	1093664768	67	4144
2026-01-04 21:14:56.88	83.20	10.11	-50.5	-51.9	14.4	0.00e+00	0	29	0	1096810496	67	4161
2026-01-04 21:14:57.89	83.37	10.09	-50.6	-52.1	14.4	0.00e+00	0	29	0	1099956224	67	4250
2026-01-04 21:14:58.88	83.54	10.06	-50.6	-52.0	14.4	0.00e+00	0	28	0	1103101952	67	4222
2026-01-04 21:14:59.88	83.71	10.04	-50.6	-52.1	14.4	0.00e+00	0	29	0	1106247680	67	4250
2026-01-04 21:15:00.88	83.89	10.01	-50.6	-52.0	14.4	0.00e+00	0	29	0	1109393408	67	4239
2026-01-04 21:15:01.89	84.06	9.99	-50.5	-51.9	14.4	0.00e+00	0	29	0	1112539136	67	4187
2026-01-04 21:15:02.89	84.23	9.96	-50.5	-51.9	14.4	0.00e+00	0	29	0	1115684864	67	4163
2026-01-04 21:15:03.89	84.40	9.94	-50.5	-51.9	14.4	0.00e+00	0	29	0	1118830592	67	4184
2026-01-04 21:15:04.90	84.57	9.91	-50.5	-52.0	14.4	0.00e+00	0	29	0	1121976320	67	4213
2026-01-04 21:15:05.89	84.74	9.89	-50.6	-52.1	14.3	0.00e+00	0	29	0	1125122048	67	4253
2026-01-04 21:15:06.89	84.91	9.86	-50.6	-52.1	14.3	0.00e+00	0	29	0	1128267776	67	4254
2026-01-04 21:15:07.88	85.08	9.84	-50.6	-52.1	14.4	0.00e+00	0	28	0	1131413504	67	4260
2026-01-04 21:15:08.88	85.25	9.81	-50.7	-52.1	14.3	0.00e+00	0	29	0	1134559232	67	4282
2026-01-04 21:15:09.89	85.42	9.79	-50.6	-52.0	14.4	0.00e+00	0	29	0	1137704960	67	4235
2026-01-04 21:15:10.89	85.59	9.76	-50.6	-52.1	14.3	0.00e+00	0	29	0	1140850688	67	4275
2026-01-04 21:15:11.89	85.76	9.73	-50.6	-52.0	14.4	0.00e+00	0	29	0	1143996416	67	4231
2026-01-04 21:15:12.90	85.93	9.71	-50.7	-52.2	14.3	0.00e+00	0	29	0	1147142144	67	4294
2026-01-04 21:15:13.90	86.10	9.68	-50.6	-52.1	14.3	0.00e+00	0	29	0	1150287872	67	4272
2026-01-04 21:15:14.90	86.27	9.65	-50.7	-52.2	14.3	0.00e+00	0	29	0	1153433600	67	4318
2026-01-04 21:15:15.89	86.43	9.63	-50.8	-52.3	14.3	0.00e+00	0	29	0	1156579328	67	4342
2026-01-04 21:15:16.89	86.60	9.60	-50.9	-52.4	14.2	0.00e+00	0	28	0	1159725056	67	4411
2026-01-04 21:15:17.89	86.77	9.57	-50.8	-52.3	14.2	0.00e+00	0	28	0	1162870784	67	4384
2026-01-04 21:15:18.89	86.93	9.54	-50.7	-52.1	14.3	0.00e+00	0	29	0	1166016512	67	4275
2026-01-04 21:15:19.89	87.10	9.52	-50.6	-52.0	14.4	0.00e+00	0	29	0	1169162240	67	4220
2026-01-04 21:15:20.89	87.27	9.49	-50.7	-52.2	14.3	0.00e+00	0	29	0	1172307968	67	4297
2026-01-04 21:15:21.89	87.43	9.46	-50.8	-52.3	14.2	0.00e+00	0	28	0	1175453696	67	4360
2026-01-04 21:15:22.89	87.60	9.43	-50.8	-52.3	14.2	0.00e+00	0	29	0	1178599424	67	4379
2026-01-04 21:15:23.89	87.76	9.40	-50.8	-52.3	14.3	0.00e+00	0	28	0	1181745152	67	4345
2026-01-04 21:15:24.89	87.93	9.37	-50.7	-52.2	14.3	0.00e+00	0	29	0	1184890880	67	4295
2026-01-04 21:15:25.89	88.09	9.35	-50.6	-52.1	14.3	0.00e+00	0	29	0	1188036608	67	4267
2026-01-04 21:15:26.88	88.26	9.32	-50.7	-52.2	14.3	0.00e+00	0	28	0	1191182336	67	4327
2026-01-04 21:15:27.87	88.42	9.29	-50.7	-52.2	14.3	0.00e+00	0	29	0	1194328064	67	4327
2026-01-04 21:15:28.87	88.58	9.26	-50.8	-52.3	14.2	0.00e+00	0	29	0	1197473792	67	4368
2026-01-04 21:15:29.87	88.75	9.23	-50.7	-52.2	14.3	0.00e+00	0	29	0	1200619520	67	4322
2026-01-04 21:15:30.86	88.91	9.20	-50.7	-52.2	14.3	0.00e+00	0	28	0	1203765248	67	4333
2026-01-04 21:15:31.86	89.07	9.17	-50.6	-52.1	14.3	0.00e+00	0	29	0	1206910976	67	4266
2026-01-04 21:15:32.86	89.23	9.14	-50.5	-52.0	14.4	0.00e+00	0	29	0	1210056704	67	4196
2026-01-04 21:15:33.86	89.39	9.11	-50.5	-51.9	14.4	0.00e+00	0	29	0	1212153856	67	4180
2026-01-04 21:15:34.86	89.56	9.08	-50.5	-51.9	14.4	0.00e+00	0	29	0	1215299584	67	4181
2026-01-04 21:15:35.85	89.72	9.05	-50.6	-52.0	14.3	0.00e+00	0	29	0	1218445312	67	4236
2026-01-04 21:15:36.85	89.88	9.02	-50.7	-52.2	14.3	0.00e+00	0	29	0	1221591040	67	4323
2026-01-04 21:15:37.85	90.04	8.99	-50.7	-52.2	14.3	0.00e+00	0	29	0	1224736768	67	4309
2026-01-04 21:15:38.84	90.20	8.96	-50.8	-52.3	14.2	0.00e+00	0	28	0	1227882496	67	4376
2026-01-04 21:15:39.84	90.36	8.93	-50.9	-52.4	14.2	0.00e+00	0	29	0	1231028224	67	4441
2026-01-04 21:15:40.84	90.52	8.89	-50.9	-52.5	14.2	0.00e+00	0	29	0	1234173952	67	4446
2026-01-04 21:15:41.83	90.67	8.86	-50.9	-52.5	14.2	0.00e+00	0	29	0	1237319680	67	4443
2026-01-04 21:15:42.82	90.83	8.83	-51.0	-52.5	14.1	0.00e+00	0	29	0	1240465408	67	4483
2026-01-04 21:15:43.82	90.99	8.80	-50.9	-52.5	14.1	0.00e+00	0	29	0	1243611136	67	4452
2026-01-04 21:15:44.81	91.15	8.77	-50.9	-52.4	14.2	0.00e+00	0	28	0	1246756864	67	4419
2026-01-04 21:15:45.81	91.31	8.74	-50.8	-52.4	14.2	0.00e+00	0	29	0	1249902592	67	4392
2026-01-04 21:15:46.80	91.46	8.70	-51.0	-52.5	14.1	0.00e+00	0	29	0	1253048320	67	4462
2026-01-04 21:15:47.80	91.62	8.67	-51.0	-52.6	14.1	0.00e+00	0	29	0	1256194048	67	4519
2026-01-04 21:15:48.79	91.78	8.64	-50.9	-52.5	14.1	0.00e+00	0	29	0	1259339776	67	4456
2026-01-04 21:15:49.79	91.93	8.61	-50.8	-52.4	14.2	0.00e+00	0	29	0	1262485504	67	4402
2026-01-04 21:15:50.79	92.09	8.57	-50.9	-52.5	14.1	0.00e+00	0	29	0	1265631232	67	4455
2026-01-04 21:15:51.78	92.24	8.54	-50.9	-52.4	14.2	0.00e+00	0	29	0	1268776960	67	4427
2026-01-04 21:15:52.78	92.40	8.51	-50.8	-52.4	14.2	0.00e+00	0	29	0	1271922688	67	4403
2026-01-04 21:15:53.77	92.55	8.48	-51.0	-52.5	14.1	0.00e+00	0	29	0	1275068416	67	4475
2026-01-04 21:15:54.77	92.71	8.44	-51.0	-52.5	14.1	0.00e+00	0	29	0	1278214144	67	4490
2026-01-04 21:15:55.77	92.86	8.41	-51.1	-52.7	14.1	0.00e+00	0	28	0	1281359872	67	4547
2026-01-04 21:15:56.78	93.02	8.37	-51.1	-52.6	14.1	0.00e+00	0	28	0	1284505600	67	4535
2026-01-04 21:15:57.78	93.17	8.34	-51.1	-52.7	14.0	0.00e+00	0	29	0	1287651328	67	4548
2026-01-04 21:15:58.77	93.33	8.31	-51.1	-52.7	14.0	0.00e+00	0	29	0	1290797056	67	4588
2026-01-04 21:15:59.77	93.48	8.27	-51.2	-52.8	14.0	0.00e+00	0	29	0	1293942784	67	4626
2026-01-04 21:16:00.77	93.63	8.24	-51.3	-52.9	13.9	0.00e+00	0	29	0	1297088512	67	4682
2026-01-04 21:16:01.78	93.79	8.20	-51.4	-53.0	13.9	0.00e+00	0	29	0	1300234240	67	4731
2026-01-04 21:16:02.78	93.94	8.17	-51.3	-52.9	13.9	0.00e+00	0	29	0	1303379968	67	4684
2026-01-04 21:16:03.78	94.09	8.14	-51.2	-52.8	13.9	0.00e+00	0	29	0	1306525696	67	4634
2026-01-04 21:16:04.78	94.24	8.10	-51.2	-52.9	13.9	0.00e+00	0	29	0	1309671424	67	4665
2026-01-04 21:16:05.78	94.39	8.07	-51.1	-52.7	14.0	0.00e+00	0	29	0	1312817152	67	4584
2026-01-04 21:16:06.79	94.55	8.03	-51.1	-52.7	14.0	0.00e+00	0	29	0	1315962880	67	4590
2026-01-04 21:16:07.78	94.70	8.00	-51.1	-52.7	14.0	0.00e+00	0	29	0	1319108608	67	4590
2026-01-04 21:16:08.79	94.85	7.96	-51.1	-52.7	14.0	0.00e+00	0	29	0	1322254336	67	4564
2026-01-04 21:16:09.79	95.00	7.93	-51.1	-52.7	14.0	0.00e+00	0	29	0	1325400064	67	4583
2026-01-04 21:16:10.80	95.15	7.89	-51.2	-52.8	14.0	0.00e+00	0	29	0	1328545792	67	4618
2026-01-04 21:16:11.80	95.30	7.85	-51.3	-52.9	13.9	0.00e+00	0	29	0	1331691520	67	4682
2026-01-04 21:16:12.80	95.45	7.82	-51.2	-52.8	14.0	0.00e+00	0	29	0	1334837248	67	4627
2026-01-04 21:16:13.79	95.59	7.78	-51.2	-52.9	13.9	0.00e+00	0	29	0	1337982976	67	4662
2026-01-04 21:16:14.80	95.74	7.75	-51.2	-52.8	13.9	0.00e+00	0	29	0	1341128704	67	4634
2026-01-04 21:16:15.80	95.89	7.71	-51.3	-52.9	13.9	0.00e+00	0	29	0	1344274432	67	4671
2026-01-04 21:16:16.80	96.04	7.68	-51.3	-53.0	13.9	0.00e+00	0	29	0	1346371584	67	4711
2026-01-04 21:16:17.80	96.19	7.64	-51.3	-52.9	13.9	0.00e+00	0	29	0	1349517312	67	4685
2026-01-04 21:16:18.79	96.33	7.60	-51.4	-53.0	13.8	0.00e+00	0	29	0	1352663040	67	4749
2026-01-04 21:16:19.79	96.48	7.57	-51.7	-53.4	13.8	0.00e+00	0	29	0	1355808768	68	4666
2026-01-04 21:16:20.79	96.62	7.53	-51.7	-53.4	13.8	0.00e+00	0	29	0	1358954496	68	4659
2026-01-04 21:16:21.79	96.77	7.49	-51.7	-53.4	13.8	0.00e+00	0	29	0	1362100224	68	4662
2026-01-04 21:16:22.78	96.91	7.46	-51.6	-53.3	13.8	0.00e+00	0	29	0	1365245952	68	4638
2026-01-04 21:16:23.79	97.06	7.42	-51.6	-53.2	13.9	0.00e+00	0	29	0	1368391680	68	4594
2026-01-04 21:16:24.78	97.20	7.38	-51.5	-53.2	13.9	0.00e+00	0	29	0	1371537408	68	4563
2026-01-04 21:16:25.79	97.35	7.35	-51.6	-53.2	13.9	0.00e+00	0	29	0	1374683136	68	4594
2026-01-04 21:16:26.79	97.49	7.31	-51.5	-53.1	13.9	0.00e+00	0	29	0	1377828864	68	4526
2026-01-04 21:16:27.79	97.64	7.27	-51.6	-53.2	13.9	0.00e+00	0	29	0	1380974592	68	4596
2026-01-04 21:16:28.79	97.78	7.24	-51.6	-53.3	13.8	0.00e+00	0	29	0	1384120320	68	4620
2026-01-04 21:16:29.78	97.92	7.20	-51.6	-53.3	13.8	0.00e+00	0	29	0	1387266048	68	4610
2026-01-04 21:16:30.78	98.06	7.16	-51.6	-53.3	13.8	0.00e+00	0	29	0	1390411776	68	4648
2026-01-04 21:16:31.78	98.21	7.12	-51.5	-53.1	13.9	0.00e+00	0	29	0	1393557504	68	4517
2026-01-04 21:16:32.78	98.35	7.09	-51.5	-53.1	13.9	0.00e+00	0	29	0	1396703232	68	4543
2026-01-04 21:16:33.78	98.49	7.05	-51.5	-53.1	13.9	0.00e+00	0	29	0	1399848960	68	4533
2026-01-04 21:16:34.77	98.63	7.01	-51.5	-53.2	13.9	0.00e+00	0	29	0	1402994688	68	4560
2026-01-04 21:16:35.78	98.77	6.97	-51.5	-53.2	13.9	0.00e+00	0	29	0	1406140416	68	4560
2026-01-04 21:16:36.77	98.91	6.93	-51.5	-53.2	13.8	0.00e+00	0	29	0	1409286144	68	4576
2026-01-04 21:16:37.77	99.05	6.90	-51.6	-53.3	13.8	0.00e+00	0	29	0	1412431872	68	4620
2026-01-04 21:16:38.77	99.19	6.86	-51.6	-53.2	13.8	0.00e+00	0	29	0	1415577600	68	4591
2026-01-04 21:16:39.76	99.33	6.82	-51.5	-53.2	13.8	0.00e+00	0	29	0	1418723328	68	4582
2026-01-04 21:16:40.76	99.47	6.78	-51.6	-53.3	13.8	0.00e+00	0	29	0	1421869056	68	4621
2026-01-04 21:16:41.76	99.61	6.74	-51.6	-53.2	13.9	0.00e+00	0	29	0	1425014784	68	4588
2026-01-04 21:16:42.76	99.75	6.70	-51.6	-53.3	13.8	0.00e+00	0	29	0	1428160512	68	4640
2026-01-04 21:16:43.75	99.88	6.67	-51.6	-53.4	13.8	0.00e+00	0	29	0	1431306240	68	4652
2026-01-04 21:16:44.75	100.02	6.63	-51.6	-53.3	13.8	0.00e+00	0	29	0	1434451968	68	4634
2026-01-04 21:16:45.75	100.16	6.59	-51.6	-53.3	13.8	0.00e+00	0	29	0	1437597696	68	4639
2026-01-04 21:16:46.75	100.29	6.55	-51.6	-53.3	13.8	0.00e+00	0	29	0	1440743424	68	4630
2026-01-04 21:16:47.75	100.43	6.51	-51.7	-53.4	13.8	0.00e+00	0	29	0	1443889152	68	4679
2026-01-04 21:16:48.75	100.57	6.47	-51.7	-53.3	13.8	0.00e+00	0	29	0	1447034880	68	4651
2026-01-04 21:16:49.74	100.70	6.43	-51.6	-53.3	13.8	0.00e+00	0	29	0	1450180608	68	4647
2026-01-04 21:16:50.74	100.84	6.39	-51.7	-53.4	13.8	0.00e+00	0	29	0	1453326336	68	4684
2026-01-04 21:16:51.75	100.97	6.35	-51.8	-53.5	13.7	0.00e+00	0	29	0	1456472064	68	4749
2026-01-04 21:16:52.76	101.11	6.32	-51.7	-53.4	13.8	0.00e+00	0	29	0	1459617792	68	4672
2026-01-04 21:16:53.76	101.24	6.28	-51.6	-53.3	13.8	0.00e+00	0	29	0	1462763520	68	4646
2026-01-04 21:16:54.75	101.38	6.24	-51.8	-53.5	13.7	0.00e+00	0	29	0	1465909248	68	4723
2026-01-04 21:16:55.76	101.51	6.20	-51.7	-53.4	13.8	0.00e+00	0	29	0	1469054976	68	4675
2026-01-04 21:16:56.76	101.65	6.16	-51.8	-53.6	13.7	0.00e+00	0	29	0	1472200704	68	4767
2026-01-04 21:16:57.76	101.78	6.12	-51.7	-53.5	13.7	0.00e+00	0	29	0	1475346432	68	4727
2026-01-04 21:16:58.76	101.91	6.08	-51.9	-53.6	13.6	0.00e+00	0	29	0	1478492160	68	4802
2026-01-04 21:16:59.76	102.04	6.04	-51.9	-53.6	13.7	0.00e+00	0	29	0	1480589312	69	4536
2026-01-04 21:17:00.76	102.18	6.00	-51.8	-53.6	13.7	0.00e+00	0	29	0	1483735040	69	4519
2026-01-04 21:17:01.76	102.31	5.96	-51.9	-53.7	13.7	0.00e+00	0	29	0	1486880768	69	4559
2026-01-04 21:17:02.76	102.44	5.92	-52.0	-53.8	13.6	0.00e+00	0	28	0	1490026496	69	4606
2026-01-04 21:17:03.75	102.57	5.88	-52.0	-53.8	13.6	0.00e+00	0	29	0	1493172224	69	4626
2026-01-04 21:17:04.74	102.70	5.84	-51.9	-53.7	13.7	0.00e+00	0	29	0	1496317952	69	4587
2026-01-04 21:17:05.74	102.83	5.80	-52.0	-53.8	13.6	0.00e+00	0	29	0	1499463680	69	4623
2026-01-04 21:17:06.74	102.96	5.76	-52.0	-53.8	13.6	0.00e+00	0	29	0	1502609408	69	4645
2026-01-04 21:17:07.73	103.09	5.72	-52.0	-53.8	13.6	0.00e+00	0	29	0	1505755136	69	4646
2026-01-04 21:17:08.73	103.22	5.68	-52.0	-53.8	13.6	0.00e+00	0	29	0	1508900864	69	4635
2026-01-04 21:17:09.73	103.35	5.64	-52.1	-53.9	13.5	0.00e+00	0	29	0	1512046592	69	4692
2026-01-04 21:17:10.72	103.47	5.60	-52.1	-54.0	13.5	0.00e+00	0	29	0	1515192320	69	4713
2026-01-04 21:17:11.72	103.60	5.56	-52.2	-54.0	13.5	0.00e+00	0	29	0	1518338048	69	4742
2026-01-04 21:17:12.72	103.73	5.52	-52.2	-54.0	13.5	0.00e+00	0	29	0	1521483776	69	4740
2026-01-04 21:17:13.72	103.86	5.48	-52.0	-53.9	13.5	0.00e+00	0	29	0	1524629504	69	4670
2026-01-04 21:17:14.72	103.99	5.44	-52.2	-54.1	13.5	0.00e+00	0	29	0	1527775232	69	4767
2026-01-04 21:17:15.72	104.11	5.39	-52.1	-53.9	13.5	0.00e+00	0	29	0	1530920960	69	4694
2026-01-04 21:17:16.72	104.24	5.35	-52.1	-54.0	13.5	0.00e+00	0	29	0	1534066688	69	4706
2026-01-04 21:17:17.73	104.37	5.31	-52.1	-53.9	13.5	0.00e+00	0	29	0	1537212416	69	4680
2026-01-04 21:17:18.72	104.49	5.27	-52.2	-54.0	13.5	0.00e+00	0	29	0	1540358144	69	4752
2026-01-04 21:17:19.72	104.62	5.23	-52.2	-54.1	13.4	0.00e+00	0	29	0	1543503872	69	4785
2026-01-04 21:17:20.71	104.74	5.19	-52.3	-54.2	13.4	0.00e+00	0	29	0	1546649600	69	4850
2026-01-04 21:17:21.72	104.87	5.15	-52.3	-54.2	13.4	0.00e+00	0	29	0	1549795328	69	4830
2026-01-04 21:17:22.72	104.99	5.11	-52.1	-53.9	13.5	0.00e+00	0	29	0	1552941056	69	4691
2026-01-04 21:17:23.72	105.12	5.07	-52.2	-54.1	13.4	0.00e+00	0	29	0	1556086784	69	4791
2026-01-04 21:17:24.71	105.24	5.03	-52.1	-54.0	13.5	0.00e+00	0	29	0	1559232512	69	4717
2026-01-04 21:17:25.72	105.36	4.98	-56.8	-61.7	9.0	7.73e-04	0	29	0	1562378240	78	6824
2026-01-04 21:17:26.71	105.49	4.94	-59.0	-72.7	3.8	1.49e+00	0	29	104	1562378240	83	18165
2026-01-04 21:17:27.71	105.61	4.90	-59.3	-73.0	3.8	1.49e+00	0	29	104	1562378240	83	18939
2026-01-04 21:17:28.71	105.73	4.86	-59.7	-73.4	3.8	1.49e+00	0	29	104	1562378240	84	18714
2026-01-04 21:17:29.72	105.86	4.82	-59.9	-73.7	3.8	1.49e+00	0	29	104	1562378240	84	19203
2026-01-04 21:17:30.72	105.98	4.78	-60.0	-73.8	3.8	1.49e+00	0	29	104	1562378240	85	18366
2026-01-04 21:17:31.71	106.10	4.74	-60.1	-74.0	3.8	1.49e+00	0	29	104	1562378240	85	18740
2026-01-04 21:17:32.71	106.22	4.70	-60.2	-74.0	3.8	1.49e+00	0	29	104	1562378240	85	18912
2026-01-04 21:17:33.71	106.34	4.65	-60.3	-74.1	3.8	1.49e+00	0	29	104	1562378240	85	19074
2026-01-04 21:17:34.71	106.46	4.61	-60.4	-74.2	3.8	1.49e+00	0	29	104	1562378240	85	19247
2026-01-04 21:17:35.70	106.58	4.57	-60.5	-74.3	3.8	1.49e+00	0	29	104	1562378240	86	18395
2026-01-04 21:17:36.70	106.70	4.53	-60.6	-74.4	3.8	1.49e+00	0	29	104	1562378240	86	18543
2026-01-04 21:17:37.70	106.82	4.49	-60.6	-74.4	3.8	1.49e+00	0	29	104	1562378240	86	18717
2026-01-04 21:17:38.70	106.94	4.45	-60.7	-74.5	3.8	1.49e+00	0	29	104	1562378240	86	18863
2026-01-04 21:17:39.70	107.06	4.40	-60.7	-74.5	3.8	1.49e+00	0	29	104	1562378240	86	18895
2026-01-04 21:17:40.70	107.18	4.36	-60.7	-74.6	3.8	1.49e+00	0	29	104	1562378240	86	19046
2026-01-04 21:17:41.71	107.30	4.32	-60.8	-74.6	3.8	1.49e+00	0	29	104	1562378240	86	19059
2026-01-04 21:17:42.71	107.41	4.28	-60.8	-74.6	3.8	1.49e+00	0	29	104	1562378240	86	19166
2026-01-04 21:17:43.71	107.53	4.24	-60.8	-74.7	3.8	1.49e+00	0	29	104	1562378240	86	19227
2026-01-04 21:17:44.71	107.65	4.19	-60.9	-74.7	3.8	1.49e+00	0	29	104	1562378240	86	19303
2026-01-04 21:17:45.70	107.76	4.15	-60.9	-74.8	3.8	1.49e+00	0	29	104	1562378240	87	18331
2026-01-04 21:17:46.69	107.88	4.11	-61.0	-74.8	3.8	1.49e+00	0	29	104	1562378240	87	18398
2026-01-04 21:17:47.69	108.00	4.07	-61.0	-74.8	3.8	1.49e+00	0	29	104	1562378240	87	18450
2026-01-04 21:17:48.69	108.11	4.03	-61.0	-74.8	3.8	1.49e+00	0	29	104	1562378240	87	18494
2026-01-04 21:17:49.68	108.23	3.99	-61.0	-74.9	3.8	1.49e+00	0	29	104	1562378240	87	18590
2026-01-04 21:17:50.67	108.34	3.94	-61.1	-74.9	3.8	1.49e+00	0	29	104	1562378240	87	18647
2026-01-04 21:17:51.68	108.46	3.90	-61.1	-74.9	3.8	1.49e+00	0	29	104	1562378240	87	18667
2026-01-04 21:17:52.68	108.57	3.86	-61.1	-75.0	3.8	1.49e+00	0	29	104	1562378240	87	18774
2026-01-04 21:17:53.68	108.69	3.82	-61.1	-75.0	3.8	1.49e+00	0	29	104	1562378240	87	18743
2026-01-04 21:17:54.68	108.80	3.77	-61.1	-75.0	3.8	1.49e+00	0	29	104	1562378240	87	18825
2026-01-04 21:17:55.67	108.91	3.73	-61.1	-75.0	3.8	1.49e+00	0	29	104	1562378240	87	18773
2026-01-04 21:17:56.66	109.03	3.69	-61.1	-74.9	3.8	1.49e+00	0	29	104	1562378240	87	18688
2026-01-04 21:17:57.65	109.14	3.65	-61.1	-74.9	3.8	1.49e+00	0	29	104	1562378240	87	18656
2026-01-04 21:17:58.64	109.25	3.61	-61.1	-74.9	3.8	1.49e+00	0	29	104	1562378240	87	18679
2026-01-04 21:17:59.63	109.36	3.56	-61.1	-74.9	3.8	1.49e+00	0	29	104	1562378240	87	18617
2026-01-04 21:18:00.62	109.47	3.52	-61.1	-74.9	3.8	1.49e+00	0	29	104	1562378240	87	18656
2026-01-04 21:18:01.61	109.59	3.48	-61.0	-74.9	3.8	1.49e+00	0	29	104	1562378240	87	18676
2026-01-04 21:18:02.60	109.70	3.44	-61.0	-74.9	3.8	1.49e+00	0	29	104	1562378240	87	18604
2026-01-04 21:18:03.60	109.81	3.40	-61.0	-74.9	3.8	1.49e+00	0	29	104	1562378240	87	18565
2026-01-04 21:18:04.58	109.92	3.35	-61.0	-74.9	3.8	1.49e+00	0	29	104	1562378240	87	18590
2026-01-04 21:18:05.57	110.03	3.31	-61.0	-74.9	3.8	1.49e+00	0	29	104	1562378240	87	18609
2026-01-04 21:18:06.58	110.14	3.27	-61.0	-74.8	3.8	1.49e+00	0	29	104	1562378240	87	18511
2026-01-04 21:18:07.57	110.25	3.23	-61.0	-74.8	3.8	1.49e+00	0	29	104	1562378240	87	18512
2026-01-04 21:18:08.56	110.36	3.19	-61.0	-74.8	3.8	1.49e+00	0	29	104	1562378240	87	18488
2026-01-04 21:18:09.56	110.47	3.14	-61.0	-74.8	3.8	1.49e+00	0	29	104	1562378240	87	18495
2026-01-04 21:18:10.56	110.57	3.10	-61.0	-74.8	3.8	1.49e+00	0	29	104	1562378240	87	18480
2026-01-04 21:18:11.56	110.68	3.06	-61.0	-74.9	3.8	1.49e+00	0	29	104	1562378240	87	18529
2026-01-04 21:18:12.55	110.79	3.02	-61.0	-74.9	3.8	1.49e+00	0	29	104	1562378240	87	18522
2026-01-04 21:18:13.54	110.90	2.97	-61.0	-74.8	3.8	1.49e+00	0	29	104	1562378240	87	18447
2026-01-04 21:18:14.53	111.01	2.93	-61.0	-74.8	3.8	1.49e+00	0	29	104	1562378240	87	18515
2026-01-04 21:18:15.52	111.11	2.89	-61.0	-74.8	3.8	1.49e+00	0	29	104	1562378240	87	18445
2026-01-04 21:18:16.51	111.22	2.85	-61.0	-74.8	3.8	1.49e+00	0	29	104	1562378240	87	18406
2026-01-04 21:18:17.51	111.33	2.80	-60.9	-74.8	3.8	1.49e+00	0	29	104	1562378240	87	18418
2026-01-04 21:18:18.51	111.43	2.76	-60.9	-74.8	3.8	1.49e+00	0	29	104	1562378240	87	18405
2026-01-04 21:18:19.51	111.54	2.72	-60.9	-74.8	3.8	1.49e+00	0	29	104	1562378240	87	18372
2026-01-04 21:18:20.51	111.65	2.68	-60.9	-74.8	3.8	1.49e+00	0	29	104	1562378240	87	18391
2026-01-04 21:18:21.50	111.75	2.63	-60.9	-74.8	3.8	1.49e+00	0	29	104	1562378240	87	18362
2026-01-04 21:18:22.51	111.86	2.59	-60.9	-74.8	3.8	1.49e+00	0	29	104	1562378240	87	18403
2026-01-04 21:18:23.51	111.96	2.55	-60.9	-74.8	3.8	1.49e+00	0	29	104	1562378240	87	18400
2026-01-04 21:18:24.51	112.07	2.50	-60.9	-74.8	3.8	1.49e+00	0	29	104	1562378240	87	18353
2026-01-04 21:18:25.51	112.17	2.46	-60.9	-74.8	3.8	1.49e+00	0	29	104	1562378240	87	18364
2026-01-04 21:18:26.51	112.28	2.42	-60.9	-74.8	3.8	1.49e+00	0	29	104	1562378240	87	18322
2026-01-04 21:18:27.51	112.38	2.38	-60.9	-74.8	3.8	1.49e+00	0	29	104	1562378240	87	18383
2026-01-04 21:18:28.52	112.49	2.33	-60.9	-74.8	3.8	1.49e+00	0	29	104	1562378240	87	18367
2026-01-04 21:18:29.52	112.59	2.29	-60.9	-74.8	3.8	1.49e+00	0	29	104	1562378240	87	18332
2026-01-04 21:18:30.52	112.70	2.25	-60.9	-74.8	3.8	1.49e+00	0	29	104	1562378240	87	18386
2026-01-04 21:18:31.50	112.80	2.21	-60.9	-74.7	3.8	1.49e+00	0	29	104	1562378240	87	18281
2026-01-04 21:18:32.51	112.90	2.16	-60.9	-74.7	3.8	1.49e+00	0	29	104	1562378240	87	18278
2026-01-04 21:18:33.50	113.00	2.12	-60.9	-74.8	3.8	1.49e+00	0	29	104	1562378240	87	18306
2026-01-04 21:18:34.49	113.10	2.08	-60.9	-74.8	3.8	1.49e+00	0	29	104	1562378240	87	18328
2026-01-04 21:18:35.48	113.20	2.03	-60.9	-74.7	3.8	1.49e+00	0	29	104	1562378240	87	18282
2026-01-04 21:18:36.48	113.31	1.99	-60.9	-74.7	3.8	1.49e+00	0	29	104	1562378240	87	18295
2026-01-04 21:18:37.47	113.41	1.95	-60.9	-74.7	3.8	1.49e+00	0	29	104	1562378240	87	18277
2026-01-04 21:18:38.47	113.51	1.91	-60.9	-74.7	3.8	1.49e+00	0	29	104	1562378240	87	18233

#Closed at: 2026-01-04 21:18:39
#Recorded file [1562 MB]: D:/lorett/data/31004_260105_000807.dat