passes_logs/2026/01/04/R3.2S_Murmansk/R3.2S_Murmansk__20260104_025738_SUOMI_NPP_rec.log

#Pass ID: 20260104_025738_SUOMI NPP
#Satellite: SUOMI NPP
#Configuration: NPP
#almurnet v.1.7.20251203
#Start time: 2026-01-04 02:57:39

#Version: 2.2.20231116
#Station: R3.2S_Murmansk
#Location: 33.079688 lon 68.888172 lat
#TLE: 1 37849U 11061A   26001.07732418  .00000182  00000+0  10735-3 0  9990
#TLE: 2 37849  98.7795 303.2470 0002580  87.2016 272.9455 14.19520779734739

#Time	Az	El	Level	Level2	SNR	BER	BlckErr	Temp	State	Recorded	gain1	gain2
2026-01-04 02:57:39.42	36.76	2.06	-58.4	-74.4	3.8	1.49e+00	0	27	0	0	83	22254
2026-01-04 02:57:40.42	36.72	2.12	-58.4	-74.5	3.8	1.49e+00	0	27	104	0	81	24988
2026-01-04 02:57:41.42	36.67	2.18	-58.4	-74.4	3.8	1.49e+00	0	27	104	0	81	24946
2026-01-04 02:57:42.42	36.63	2.24	-58.4	-74.4	3.8	1.49e+00	0	27	104	0	81	24877
2026-01-04 02:57:43.41	36.58	2.30	-58.4	-74.4	3.8	1.49e+00	0	27	104	0	81	24934
2026-01-04 02:57:44.41	36.53	2.36	-58.4	-74.4	3.8	1.49e+00	0	27	104	0	81	24894
2026-01-04 02:57:45.41	36.49	2.42	-58.4	-74.4	3.8	1.49e+00	0	27	104	0	81	24965
2026-01-04 02:57:46.41	36.44	2.48	-58.4	-74.4	3.8	1.49e+00	0	27	104	0	81	24958
2026-01-04 02:57:47.41	36.40	2.55	-58.4	-74.4	3.8	1.49e+00	0	27	104	0	81	24897
2026-01-04 02:57:48.41	36.35	2.61	-58.4	-74.4	3.8	1.49e+00	0	27	104	0	81	24918
2026-01-04 02:57:49.42	36.30	2.67	-58.4	-74.4	3.8	1.49e+00	0	27	104	0	81	24943
2026-01-04 02:57:50.42	36.25	2.73	-58.4	-74.4	3.8	1.49e+00	0	27	104	0	81	24880
2026-01-04 02:57:51.41	36.21	2.79	-58.4	-74.4	3.8	1.49e+00	0	27	104	0	81	24866
2026-01-04 02:57:52.42	36.16	2.85	-58.4	-74.4	3.8	1.49e+00	0	27	104	0	81	24818
2026-01-04 02:57:53.41	36.11	2.92	-58.4	-74.4	3.8	1.49e+00	0	27	104	0	81	24855
2026-01-04 02:57:54.41	36.06	2.98	-58.4	-74.4	3.8	1.49e+00	0	27	104	0	82	23461
2026-01-04 02:57:55.41	36.02	3.04	-58.4	-74.4	3.8	1.49e+00	0	27	104	0	82	23369
2026-01-04 02:57:56.41	35.97	3.10	-58.4	-74.4	3.8	1.49e+00	0	27	104	0	82	23429
2026-01-04 02:57:57.41	35.92	3.16	-58.4	-74.4	3.8	1.49e+00	0	27	104	0	82	23479
2026-01-04 02:57:58.41	35.87	3.23	-58.4	-74.4	3.8	1.49e+00	0	27	104	0	82	23390
2026-01-04 02:57:59.41	35.82	3.29	-58.4	-74.4	3.8	1.49e+00	0	27	104	0	82	23439
2026-01-04 02:58:00.41	35.77	3.35	-58.4	-74.4	3.8	1.49e+00	0	27	104	0	82	23516
2026-01-04 02:58:01.41	35.72	3.42	-58.4	-74.5	3.8	1.49e+00	0	27	104	0	82	23589
2026-01-04 02:58:02.40	35.67	3.48	-58.4	-74.4	3.8	1.49e+00	0	27	104	0	82	23566
2026-01-04 02:58:03.41	35.62	3.54	-58.4	-74.5	3.8	1.49e+00	0	27	104	0	82	23603
2026-01-04 02:58:04.41	35.57	3.60	-58.4	-74.4	3.8	1.49e+00	0	27	104	0	82	23515
2026-01-04 02:58:05.42	35.52	3.67	-58.4	-74.4	3.8	1.49e+00	0	27	104	0	82	23460
2026-01-04 02:58:06.41	35.47	3.73	-58.4	-74.4	3.8	1.49e+00	0	27	104	0	82	23518
2026-01-04 02:58:07.41	35.42	3.80	-58.4	-74.4	3.8	1.49e+00	0	27	104	0	82	23475
2026-01-04 02:58:08.42	35.37	3.86	-58.4	-74.4	3.8	1.49e+00	0	27	104	0	82	23465
2026-01-04 02:58:09.42	35.32	3.92	-58.4	-74.4	3.8	1.49e+00	0	27	104	0	82	23399
2026-01-04 02:58:10.42	35.26	3.99	-58.4	-74.3	3.8	1.49e+00	0	27	104	0	82	23129
2026-01-04 02:58:11.41	35.21	4.05	-58.4	-74.1	3.8	1.49e+00	0	28	104	0	82	22775
2026-01-04 02:58:12.41	35.16	4.12	-58.4	-74.0	3.8	1.49e+00	0	27	104	0	82	22352
2026-01-04 02:58:13.42	35.11	4.18	-58.4	-73.8	3.8	1.49e+00	0	27	104	0	82	21900
2026-01-04 02:58:14.42	35.05	4.25	-58.4	-73.6	3.8	1.49e+00	0	28	104	0	82	21343
2026-01-04 02:58:15.42	35.00	4.31	-58.4	-73.3	3.8	1.49e+00	0	28	104	0	82	20609
2026-01-04 02:58:16.42	34.95	4.37	-58.4	-73.0	3.8	1.49e+00	0	27	104	0	82	19988
2026-01-04 02:58:17.42	34.89	4.44	-58.4	-72.8	3.8	1.49e+00	0	28	104	0	82	19602
2026-01-04 02:58:18.42	34.84	4.50	-58.3	-72.6	3.8	1.49e+00	0	28	104	0	82	19007
2026-01-04 02:58:19.41	34.79	4.57	-58.3	-71.9	3.8	1.48e+00	0	28	104	0	82	17490
2026-01-04 02:58:20.42	34.73	4.64	-58.3	-71.0	4.2	1.45e+00	0	28	0	0	82	15939
2026-01-04 02:58:21.42	34.68	4.70	-58.2	-70.1	4.4	1.37e+00	70	28	0	0	82	14349
2026-01-04 02:58:22.42	34.62	4.77	-58.1	-69.0	4.9	8.13e-01	0	28	0	2097152	82	12548
2026-01-04 02:58:23.41	34.57	4.83	-58.0	-68.0	5.4	5.70e-01	0	28	0	3145728	82	11255
2026-01-04 02:58:24.41	34.51	4.90	-57.9	-67.2	5.9	4.15e-01	0	28	0	5242880	82	10264
2026-01-04 02:58:25.41	34.46	4.96	-57.7	-66.2	6.6	2.56e-01	0	28	0	7340032	82	9132
2026-01-04 02:58:26.42	34.40	5.03	-58.0	-68.0	5.5	1.47e-01	0	28	0	9437184	81	11870
2026-01-04 02:58:27.41	34.35	5.10	-58.4	-71.3	4.1	1.44e+00	0	28	0	9437184	81	17333
2026-01-04 02:58:28.41	34.29	5.16	-58.0	-67.9	5.4	1.42e+00	0	28	0	10485760	81	11716
2026-01-04 02:58:29.41	34.23	5.23	-57.2	-64.1	8.2	1.38e-01	0	28	0	11534336	81	7580
2026-01-04 02:58:30.39	34.18	5.29	-56.8	-62.8	9.6	1.83e-05	0	28	0	13631488	78	7732
2026-01-04 02:58:31.39	34.12	5.36	-57.9	-67.7	5.4	1.17e+00	0	28	0	14680064	81	11485
2026-01-04 02:58:32.39	34.06	5.43	-55.6	-59.7	11.8	8.06e-03	0	28	0	16777216	77	5767
2026-01-04 02:58:33.39	34.00	5.50	-55.3	-59.2	12.1	7.00e-07	0	28	0	18874368	77	5463
2026-01-04 02:58:34.38	33.95	5.56	-55.2	-59.0	12.3	2.20e-06	0	28	0	20971520	77	5304
2026-01-04 02:58:35.38	33.89	5.63	-55.2	-58.9	12.3	7.00e-07	0	28	0	23068672	76	5581
2026-01-04 02:58:36.38	33.83	5.70	-55.1	-58.8	12.3	1.50e-06	0	28	0	24117248	76	5528
2026-01-04 02:58:37.38	33.77	5.76	-55.2	-59.0	12.2	0.00e+00	0	28	0	26214400	76	5632
2026-01-04 02:58:38.39	33.71	5.83	-55.1	-58.8	12.4	7.00e-07	0	28	0	28311552	76	5503
2026-01-04 02:58:39.38	33.65	5.90	-55.2	-58.9	12.3	0.00e+00	0	28	0	30408704	76	5547
2026-01-04 02:58:40.38	33.59	5.97	-55.1	-58.6	12.5	0.00e+00	0	28	0	31457280	76	5394
2026-01-04 02:58:41.37	33.53	6.04	-54.9	-58.3	12.7	0.00e+00	0	28	0	33554432	76	5189
2026-01-04 02:58:42.37	33.47	6.10	-54.7	-57.9	13.0	0.00e+00	0	28	0	35651584	76	4979
2026-01-04 02:58:43.36	33.41	6.17	-54.8	-58.2	12.8	0.00e+00	0	28	0	37748736	76	5118
2026-01-04 02:58:44.36	33.35	6.24	-54.9	-58.3	12.8	0.00e+00	0	28	0	39845888	76	5166
2026-01-04 02:58:45.36	33.29	6.31	-54.7	-58.0	12.9	0.00e+00	0	28	0	40894464	76	5009
2026-01-04 02:58:46.36	33.23	6.38	-54.8	-58.1	12.9	0.00e+00	0	28	0	42991616	76	5046
2026-01-04 02:58:47.36	33.17	6.45	-54.6	-57.8	12.9	0.00e+00	0	28	0	45088768	75	5182
2026-01-04 02:58:48.36	33.10	6.52	-54.6	-57.8	13.0	0.00e+00	0	28	0	47185920	75	5177
2026-01-04 02:58:49.37	33.04	6.59	-54.4	-57.4	13.2	0.00e+00	0	28	0	49283072	75	4976
2026-01-04 02:58:50.37	32.98	6.66	-54.3	-57.3	13.3	0.00e+00	0	28	0	50331648	75	4900
2026-01-04 02:58:51.37	32.92	6.73	-54.6	-57.8	13.0	0.00e+00	0	28	0	52428800	75	5160
2026-01-04 02:58:52.36	32.85	6.80	-54.3	-57.4	13.2	0.00e+00	0	28	0	54525952	75	4951
2026-01-04 02:58:53.36	32.79	6.87	-54.4	-57.4	13.2	0.00e+00	0	28	0	56623104	75	4953
2026-01-04 02:58:54.36	32.72	6.94	-54.3	-57.2	13.3	0.00e+00	0	28	0	57671680	75	4868
2026-01-04 02:58:55.36	32.66	7.01	-54.2	-57.2	13.3	0.00e+00	0	28	0	59768832	75	4824
2026-01-04 02:58:56.36	32.60	7.08	-54.4	-57.4	13.1	0.00e+00	0	28	0	61865984	74	5265
2026-01-04 02:58:57.36	32.53	7.15	-54.3	-57.3	13.2	0.00e+00	0	28	0	63963136	74	5213
2026-01-04 02:58:58.36	32.46	7.22	-54.2	-57.1	13.3	0.00e+00	0	28	0	66060288	74	5046
2026-01-04 02:58:59.37	32.40	7.29	-54.1	-57.0	13.4	0.00e+00	0	28	0	67108864	74	5001
2026-01-04 02:59:00.37	32.33	7.36	-54.1	-56.9	13.4	0.00e+00	0	28	0	69206016	74	4973
2026-01-04 02:59:01.37	32.27	7.43	-54.1	-56.9	13.4	0.00e+00	0	28	0	71303168	74	4962
2026-01-04 02:59:02.36	32.20	7.51	-54.0	-56.7	13.5	0.00e+00	0	28	0	73400320	74	4869
2026-01-04 02:59:03.36	32.13	7.58	-54.0	-56.8	13.5	0.00e+00	0	28	0	75497472	74	4912
2026-01-04 02:59:04.37	32.06	7.65	-54.1	-57.0	13.4	0.00e+00	0	28	0	76546048	74	4991
2026-01-04 02:59:05.37	32.00	7.72	-54.0	-56.8	13.5	0.00e+00	0	28	0	78643200	74	4912
2026-01-04 02:59:06.37	31.93	7.79	-54.0	-56.7	13.6	0.00e+00	0	28	0	80740352	74	4860
2026-01-04 02:59:07.37	31.86	7.87	-54.1	-56.9	13.4	0.00e+00	0	28	0	82837504	74	4958
2026-01-04 02:59:08.37	31.79	7.94	-54.2	-57.0	13.4	0.00e+00	0	28	0	84934656	74	5013
2026-01-04 02:59:09.37	31.72	8.01	-54.1	-57.0	13.4	0.00e+00	0	28	0	85983232	74	4986
2026-01-04 02:59:10.36	31.65	8.08	-54.2	-57.1	13.4	0.00e+00	0	28	0	88080384	74	5067
2026-01-04 02:59:11.36	31.58	8.16	-54.2	-57.0	13.4	0.00e+00	0	28	0	90177536	74	5024
2026-01-04 02:59:12.37	31.51	8.23	-54.2	-57.1	13.4	0.00e+00	0	28	0	92274688	74	5072
2026-01-04 02:59:13.36	31.44	8.30	-54.2	-57.0	13.4	0.00e+00	0	28	0	93323264	74	5013
2026-01-04 02:59:14.36	31.37	8.38	-54.1	-56.9	13.5	0.00e+00	0	28	0	95420416	74	4955
2026-01-04 02:59:15.35	31.30	8.45	-54.1	-57.0	13.5	0.00e+00	0	28	0	97517568	74	4995
2026-01-04 02:59:16.35	31.23	8.52	-54.0	-56.7	13.6	0.00e+00	0	28	0	99614720	74	4833
2026-01-04 02:59:17.35	31.15	8.60	-53.6	-56.2	13.8	0.00e+00	0	28	0	101711872	73	4868
2026-01-04 02:59:18.35	31.08	8.67	-53.9	-56.6	13.6	0.00e+00	0	28	0	102760448	73	5066
2026-01-04 02:59:19.35	31.01	8.75	-53.8	-56.5	13.7	0.00e+00	0	28	0	104857600	73	4989
2026-01-04 02:59:20.35	30.93	8.82	-53.8	-56.5	13.6	0.00e+00	0	28	0	106954752	73	5029
2026-01-04 02:59:21.35	30.86	8.90	-54.0	-56.8	13.5	0.00e+00	0	28	0	109051904	73	5210
2026-01-04 02:59:22.34	30.79	8.97	-53.7	-56.4	13.7	0.00e+00	0	28	0	110100480	73	4981
2026-01-04 02:59:23.34	30.71	9.04	-53.8	-56.6	13.6	0.00e+00	0	28	0	112197632	73	5069
2026-01-04 02:59:24.34	30.64	9.12	-53.8	-56.5	13.6	0.00e+00	0	28	0	114294784	73	5023
2026-01-04 02:59:25.34	30.56	9.20	-53.9	-56.6	13.6	0.00e+00	0	28	0	116391936	73	5099
2026-01-04 02:59:26.34	30.49	9.27	-53.7	-56.4	13.7	0.00e+00	0	28	0	118489088	73	4963
2026-01-04 02:59:27.33	30.41	9.35	-53.7	-56.5	13.6	0.00e+00	0	28	0	119537664	73	5010
2026-01-04 02:59:28.33	30.33	9.42	-53.7	-56.5	13.7	0.00e+00	0	28	0	121634816	73	4999
2026-01-04 02:59:29.33	30.26	9.50	-53.6	-56.3	13.7	0.00e+00	0	28	0	123731968	73	4905
2026-01-04 02:59:30.32	30.18	9.57	-53.3	-55.8	14.0	0.00e+00	0	28	0	125829120	73	4634
2026-01-04 02:59:31.31	30.10	9.65	-53.4	-56.1	13.9	0.00e+00	0	28	0	127926272	73	4767
2026-01-04 02:59:32.31	30.02	9.73	-53.5	-56.1	13.8	0.00e+00	0	28	0	128974848	73	4796
2026-01-04 02:59:33.30	29.95	9.80	-53.3	-55.7	14.1	0.00e+00	0	28	0	131072000	73	4588
2026-01-04 02:59:34.30	29.87	9.88	-53.4	-56.0	13.9	0.00e+00	0	28	0	133169152	73	4743
2026-01-04 02:59:35.30	29.79	9.96	-53.6	-56.2	13.8	0.00e+00	0	28	0	135266304	73	4831
2026-01-04 02:59:36.30	29.71	10.03	-53.5	-56.1	13.9	0.00e+00	0	28	0	136314880	73	4771
2026-01-04 02:59:37.29	29.63	10.11	-53.5	-56.1	13.9	0.00e+00	0	28	0	138412032	73	4774
2026-01-04 02:59:38.29	29.55	10.19	-53.4	-55.9	14.0	0.00e+00	0	28	0	140509184	73	4686
2026-01-04 02:59:39.29	29.46	10.27	-53.5	-56.1	13.9	0.00e+00	0	28	0	142606336	73	4765
2026-01-04 02:59:40.29	29.38	10.34	-53.4	-56.0	13.9	0.00e+00	0	28	0	144703488	73	4736
2026-01-04 02:59:41.29	29.30	10.42	-53.3	-55.8	14.0	0.00e+00	0	28	0	145752064	73	4611
2026-01-04 02:59:42.28	29.22	10.50	-53.3	-55.7	14.0	0.00e+00	0	28	0	147849216	73	4578
2026-01-04 02:59:43.28	29.13	10.58	-53.2	-55.6	14.1	0.00e+00	0	28	0	149946368	73	4494
2026-01-04 02:59:44.28	29.05	10.66	-53.1	-55.4	14.0	0.00e+00	0	28	0	152043520	72	4691
2026-01-04 02:59:45.28	28.97	10.74	-53.0	-55.2	14.2	0.00e+00	0	28	0	154140672	72	4577
2026-01-04 02:59:46.29	28.88	10.82	-53.0	-55.2	14.1	0.00e+00	0	28	0	155189248	72	4597
2026-01-04 02:59:47.29	28.79	10.90	-52.9	-55.2	14.2	0.00e+00	0	28	0	157286400	72	4564
2026-01-04 02:59:48.29	28.71	10.98	-52.9	-55.2	14.2	0.00e+00	0	28	0	159383552	72	4575
2026-01-04 02:59:49.30	28.62	11.06	-53.0	-55.2	14.2	0.00e+00	0	28	0	161480704	72	4596
2026-01-04 02:59:50.30	28.53	11.14	-53.0	-55.2	14.2	0.00e+00	0	28	0	162529280	72	4576
2026-01-04 02:59:51.30	28.45	11.22	-53.1	-55.4	14.1	0.00e+00	0	28	0	164626432	72	4659
2026-01-04 02:59:52.30	28.36	11.30	-53.1	-55.4	14.1	0.00e+00	0	28	0	166723584	72	4670
2026-01-04 02:59:53.31	28.27	11.38	-53.2	-55.6	14.0	0.00e+00	0	28	0	168820736	72	4760
2026-01-04 02:59:54.31	28.18	11.46	-53.2	-55.6	14.0	0.00e+00	0	28	0	170917888	72	4773
2026-01-04 02:59:55.31	28.09	11.54	-53.2	-55.6	14.0	0.00e+00	0	28	0	173015040	72	4779
2026-01-04 02:59:56.32	28.00	11.62	-53.3	-55.7	13.9	0.00e+00	0	28	0	174063616	72	4853
2026-01-04 02:59:57.32	27.91	11.71	-53.3	-55.7	14.0	0.00e+00	0	28	0	176160768	72	4831
2026-01-04 02:59:58.32	27.82	11.79	-53.3	-55.7	14.0	0.00e+00	0	28	0	178257920	72	4817
2026-01-04 02:59:59.31	27.73	11.87	-53.2	-55.5	14.0	0.00e+00	0	28	0	180355072	72	4754
2026-01-04 03:00:00.31	27.64	11.95	-53.3	-55.6	14.0	0.00e+00	0	28	0	181403648	72	4813
2026-01-04 03:00:01.31	27.55	12.03	-53.3	-55.6	14.0	0.00e+00	0	28	0	183500800	72	4775
2026-01-04 03:00:02.32	27.45	12.12	-53.2	-55.5	14.1	0.00e+00	0	28	0	185597952	72	4749
2026-01-04 03:00:03.31	27.36	12.20	-53.4	-55.7	14.0	0.00e+00	0	28	0	187695104	72	4847
2026-01-04 03:00:04.31	27.26	12.28	-53.2	-55.5	14.1	0.00e+00	0	28	0	189792256	72	4733
2026-01-04 03:00:05.32	27.17	12.36	-53.1	-55.4	14.2	0.00e+00	0	28	0	190840832	72	4681
2026-01-04 03:00:06.32	27.07	12.45	-53.2	-55.5	14.1	0.00e+00	0	28	0	192937984	72	4735
2026-01-04 03:00:07.32	26.98	12.53	-53.1	-55.4	14.1	0.00e+00	0	28	0	195035136	72	4668
2026-01-04 03:00:08.32	26.88	12.61	-53.0	-55.2	14.2	0.00e+00	0	28	0	197132288	72	4592
2026-01-04 03:00:09.31	26.79	12.70	-53.2	-55.5	14.1	0.00e+00	0	28	0	199229440	72	4750
2026-01-04 03:00:10.31	26.69	12.78	-53.3	-55.6	14.0	0.00e+00	0	28	0	200278016	72	4782
2026-01-04 03:00:11.31	26.59	12.87	-53.0	-55.3	14.1	0.00e+00	0	28	0	202375168	72	4614
2026-01-04 03:00:12.31	26.49	12.95	-53.2	-55.5	14.1	0.00e+00	0	29	0	204472320	72	4706
2026-01-04 03:00:13.31	26.39	13.04	-53.0	-55.2	14.2	0.00e+00	0	29	0	206569472	72	4593
2026-01-04 03:00:14.31	26.29	13.12	-53.0	-55.2	14.2	0.00e+00	0	28	0	207618048	72	4591
2026-01-04 03:00:15.31	26.19	13.21	-52.9	-55.1	14.3	0.00e+00	0	28	0	209715200	72	4503
2026-01-04 03:00:16.31	26.09	13.29	-52.8	-55.0	14.3	0.00e+00	0	29	0	211812352	72	4464
2026-01-04 03:00:17.31	25.99	13.38	-53.0	-55.2	14.2	0.00e+00	0	28	0	213909504	72	4562
2026-01-04 03:00:18.31	25.89	13.46	-53.1	-55.4	14.1	0.00e+00	0	28	0	216006656	72	4680
2026-01-04 03:00:19.31	25.78	13.55	-53.0	-55.2	14.3	0.00e+00	0	29	0	217055232	72	4584
2026-01-04 03:00:20.31	25.68	13.63	-53.3	-55.6	14.0	0.00e+00	0	29	0	219152384	72	4800
2026-01-04 03:00:21.31	25.58	13.72	-53.1	-55.4	14.1	0.00e+00	0	28	0	221249536	72	4676
2026-01-04 03:00:22.31	25.47	13.81	-53.3	-55.6	14.0	0.00e+00	0	29	0	223346688	72	4808
2026-01-04 03:00:23.30	25.37	13.89	-53.2	-55.5	14.1	0.00e+00	0	28	0	224395264	72	4744
2026-01-04 03:00:24.30	25.26	13.98	-53.2	-55.4	14.2	0.00e+00	0	29	0	226492416	72	4691
2026-01-04 03:00:25.31	25.15	14.07	-53.0	-55.1	14.3	0.00e+00	0	28	0	228589568	72	4539
2026-01-04 03:00:26.30	25.05	14.16	-52.9	-55.0	14.4	0.00e+00	0	28	0	230686720	72	4466
2026-01-04 03:00:27.30	24.94	14.24	-52.8	-54.9	14.4	0.00e+00	0	28	0	232783872	72	4409
2026-01-04 03:00:28.30	24.83	14.33	-52.9	-55.0	14.4	0.00e+00	0	28	0	233832448	72	4452
2026-01-04 03:00:29.28	24.72	14.42	-52.7	-54.6	14.5	0.00e+00	0	28	0	235929600	72	4288
2026-01-04 03:00:30.27	24.62	14.50	-52.6	-54.5	14.5	0.00e+00	0	29	0	238026752	71	4488
2026-01-04 03:00:31.27	24.51	14.59	-52.6	-54.5	14.4	0.00e+00	0	28	0	240123904	71	4490
2026-01-04 03:00:32.27	24.39	14.68	-52.5	-54.4	14.5	0.00e+00	0	28	0	242221056	71	4422
2026-01-04 03:00:33.26	24.28	14.77	-52.6	-54.6	14.5	0.00e+00	0	28	0	243269632	71	4498
2026-01-04 03:00:34.26	24.17	14.86	-52.5	-54.5	14.5	0.00e+00	0	28	0	245366784	71	4447
2026-01-04 03:00:35.25	24.06	14.95	-52.6	-54.5	14.5	0.00e+00	0	28	0	247463936	71	4471
2026-01-04 03:00:36.25	23.94	15.04	-52.5	-54.4	14.5	0.00e+00	0	29	0	249561088	71	4426
2026-01-04 03:00:37.23	23.83	15.12	-52.5	-54.4	14.5	0.00e+00	0	28	0	250609664	71	4431
2026-01-04 03:00:38.23	23.72	15.21	-52.6	-54.5	14.5	0.00e+00	0	29	0	252706816	71	4466
2026-01-04 03:00:39.24	23.60	15.31	-52.4	-54.3	14.6	0.00e+00	0	28	0	254803968	71	4359
2026-01-04 03:00:40.24	23.48	15.40	-52.4	-54.2	14.6	0.00e+00	0	28	0	256901120	71	4334
2026-01-04 03:00:41.25	23.36	15.49	-52.5	-54.4	14.5	0.00e+00	0	28	0	258998272	71	4441
2026-01-04 03:00:42.25	23.25	15.58	-52.4	-54.3	14.6	0.00e+00	0	28	0	260046848	71	4352
2026-01-04 03:00:43.25	23.13	15.67	-52.5	-54.4	14.5	0.00e+00	0	28	0	262144000	71	4403
2026-01-04 03:00:44.24	23.01	15.76	-52.6	-54.5	14.5	0.00e+00	0	28	0	264241152	71	4482
2026-01-04 03:00:45.24	22.89	15.85	-52.6	-54.6	14.5	0.00e+00	0	28	0	266338304	71	4506
2026-01-04 03:00:46.24	22.77	15.94	-52.8	-54.8	14.4	0.00e+00	0	28	0	268435456	71	4617
2026-01-04 03:00:47.25	22.64	16.04	-52.8	-54.8	14.3	0.00e+00	0	28	0	269484032	71	4622
2026-01-04 03:00:48.25	22.52	16.13	-52.7	-54.8	14.4	0.00e+00	0	29	0	271581184	71	4601
2026-01-04 03:00:49.25	22.40	16.22	-52.9	-55.0	14.3	0.00e+00	0	28	0	273678336	71	4727
2026-01-04 03:00:50.25	22.27	16.31	-52.7	-54.8	14.4	0.00e+00	0	28	0	275775488	71	4619
2026-01-04 03:00:51.25	22.15	16.41	-52.7	-54.7	14.4	0.00e+00	0	28	0	276824064	71	4598
2026-01-04 03:00:52.26	22.02	16.50	-52.7	-54.8	14.4	0.00e+00	0	29	0	278921216	71	4601
2026-01-04 03:00:53.26	21.89	16.59	-52.6	-54.7	14.4	0.00e+00	0	28	0	281018368	71	4555
2026-01-04 03:00:54.26	21.76	16.69	-52.6	-54.6	14.4	0.00e+00	0	28	0	283115520	71	4532
2026-01-04 03:00:55.25	21.64	16.78	-52.6	-54.7	14.4	0.00e+00	0	28	0	285212672	71	4569
2026-01-04 03:00:56.26	21.51	16.87	-52.7	-54.7	14.4	0.00e+00	0	29	0	286261248	71	4567
2026-01-04 03:00:57.26	21.38	16.97	-52.8	-54.9	14.3	0.00e+00	0	29	0	288358400	71	4680
2026-01-04 03:00:58.26	21.24	17.06	-52.9	-55.1	14.3	0.00e+00	0	28	0	290455552	71	4762
2026-01-04 03:00:59.26	21.11	17.16	-52.9	-55.1	14.3	0.00e+00	0	28	0	292552704	71	4776
2026-01-04 03:01:00.26	20.98	17.25	-52.8	-54.9	14.3	0.00e+00	0	28	0	294649856	71	4673
2026-01-04 03:01:01.27	20.85	17.35	-52.7	-54.8	14.4	0.00e+00	0	29	0	295698432	71	4602
2026-01-04 03:01:02.27	20.71	17.44	-52.8	-54.8	14.4	0.00e+00	0	29	0	297795584	71	4628
2026-01-04 03:01:03.27	20.58	17.54	-52.8	-54.8	14.4	0.00e+00	0	29	0	299892736	71	4642
2026-01-04 03:01:04.27	20.44	17.63	-52.8	-54.8	14.4	0.00e+00	0	28	0	301989888	71	4638
2026-01-04 03:01:05.28	20.30	17.73	-53.0	-55.1	14.3	0.00e+00	0	29	0	304087040	71	4763
2026-01-04 03:01:06.28	20.16	17.82	-52.7	-54.8	14.4	0.00e+00	0	29	0	305135616	71	4604
2026-01-04 03:01:07.28	20.02	17.92	-53.0	-55.1	14.2	0.00e+00	0	29	0	307232768	71	4807
2026-01-04 03:01:08.29	19.88	18.02	-53.1	-55.3	14.2	0.00e+00	0	28	0	309329920	71	4876
2026-01-04 03:01:09.29	19.74	18.11	-53.1	-55.2	14.2	0.00e+00	0	29	0	311427072	71	4844
2026-01-04 03:01:10.29	19.60	18.21	-53.1	-55.3	14.2	0.00e+00	0	29	0	313524224	71	4874
2026-01-04 03:01:11.29	19.46	18.31	-53.3	-55.5	14.1	0.00e+00	0	29	0	314572800	71	5021
2026-01-04 03:01:12.29	19.32	18.40	-53.3	-55.5	14.2	0.00e+00	0	29	0	316669952	72	4743
2026-01-04 03:01:13.28	19.17	18.50	-53.8	-56.1	14.0	0.00e+00	0	29	0	318767104	73	4765
2026-01-04 03:01:14.28	19.03	18.60	-53.6	-55.9	14.1	0.00e+00	0	29	0	320864256	73	4670
2026-01-04 03:01:15.28	18.88	18.69	-53.6	-55.9	14.1	0.00e+00	0	29	0	321912832	73	4684
2026-01-04 03:01:16.28	18.73	18.79	-53.4	-55.7	14.2	0.00e+00	0	29	0	324009984	73	4549
2026-01-04 03:01:17.22	18.59	18.88	-53.5	-55.7	14.2	0.00e+00	0	29	0	326107136	73	4560
2026-01-04 03:01:18.22	18.44	18.98	-53.5	-55.7	14.2	0.00e+00	0	29	0	328204288	73	4570
2026-01-04 03:01:19.21	18.30	19.08	-53.5	-55.7	14.2	0.00e+00	0	29	0	330301440	73	4585
2026-01-04 03:01:20.20	18.15	19.18	-53.6	-55.9	14.1	0.00e+00	0	29	0	331350016	73	4665
2026-01-04 03:01:21.20	17.99	19.28	-53.5	-55.7	14.2	0.00e+00	0	29	0	333447168	73	4598
2026-01-04 03:01:22.20	17.84	19.37	-53.5	-55.8	14.1	0.00e+00	0	29	0	335544320	73	4610
2026-01-04 03:01:23.20	17.69	19.47	-53.5	-55.7	14.2	0.00e+00	0	29	0	337641472	73	4559
2026-01-04 03:01:24.20	17.53	19.57	-53.2	-55.3	14.3	0.00e+00	0	29	0	338690048	72	4617
2026-01-04 03:01:25.19	17.38	19.67	-53.2	-55.4	14.2	0.00e+00	0	29	0	340787200	72	4678
2026-01-04 03:01:26.19	17.22	19.77	-53.0	-55.0	14.4	0.00e+00	0	29	0	342884352	72	4466
2026-01-04 03:01:27.19	17.06	19.87	-52.7	-54.7	14.5	0.00e+00	0	29	0	344981504	72	4325
2026-01-04 03:01:28.19	16.90	19.97	-52.9	-55.0	14.4	0.00e+00	0	29	0	347078656	72	4458
2026-01-04 03:01:29.18	16.74	20.07	-53.0	-55.1	14.4	0.00e+00	0	29	0	348127232	72	4540
2026-01-04 03:01:30.19	16.58	20.17	-53.2	-55.4	14.2	0.00e+00	0	29	0	350224384	72	4663
2026-01-04 03:01:31.18	16.42	20.27	-53.2	-55.4	14.3	0.00e+00	0	29	0	352321536	72	4669
2026-01-04 03:01:32.18	16.26	20.37	-53.2	-55.4	14.2	0.00e+00	0	29	0	354418688	72	4703
2026-01-04 03:01:33.17	16.09	20.47	-53.3	-55.5	14.1	0.00e+00	0	29	0	356515840	72	4752
2026-01-04 03:01:34.17	15.93	20.57	-53.2	-55.4	14.2	0.00e+00	0	29	0	357564416	72	4674
2026-01-04 03:01:35.16	15.76	20.67	-52.9	-55.0	14.4	0.00e+00	0	29	0	359661568	72	4477
2026-01-04 03:01:36.16	15.59	20.77	-53.2	-55.3	14.3	0.00e+00	0	29	0	361758720	72	4635
2026-01-04 03:01:37.15	15.43	20.87	-53.0	-55.0	14.4	0.00e+00	0	29	0	363855872	72	4490
2026-01-04 03:01:38.15	15.26	20.97	-53.0	-55.1	14.4	0.00e+00	0	29	0	364904448	72	4496
2026-01-04 03:01:39.15	15.09	21.07	-52.9	-54.9	14.5	0.00e+00	0	29	0	367001600	72	4406
2026-01-04 03:01:40.15	14.91	21.18	-53.1	-55.2	14.3	0.00e+00	0	29	0	369098752	72	4577
2026-01-04 03:01:41.15	14.74	21.28	-53.3	-55.4	14.2	0.00e+00	0	29	0	371195904	72	4693
2026-01-04 03:01:42.14	14.57	21.38	-53.1	-55.2	14.3	0.00e+00	0	29	0	373293056	72	4597
2026-01-04 03:01:43.14	14.39	21.48	-53.2	-55.3	14.3	0.00e+00	0	28	0	374341632	72	4612
2026-01-04 03:01:44.15	14.21	21.58	-53.2	-55.3	14.3	0.00e+00	0	29	0	376438784	72	4624
2026-01-04 03:01:45.15	14.03	21.69	-53.1	-55.2	14.3	0.00e+00	0	29	0	378535936	72	4568
2026-01-04 03:01:46.14	13.85	21.79	-53.0	-55.1	14.4	0.00e+00	0	28	0	380633088	72	4512
2026-01-04 03:01:47.13	13.68	21.89	-53.2	-55.3	14.3	0.00e+00	0	29	0	382730240	72	4646
2026-01-04 03:01:48.14	13.49	21.99	-53.1	-55.1	14.4	0.00e+00	0	29	0	383778816	72	4517
2026-01-04 03:01:49.14	13.31	22.09	-53.3	-55.4	14.3	0.00e+00	0	29	0	385875968	72	4676
2026-01-04 03:01:50.14	13.12	22.20	-53.4	-55.5	14.2	0.00e+00	0	29	0	387973120	72	4744
2026-01-04 03:01:51.13	12.94	22.30	-53.5	-55.7	14.1	0.00e+00	0	29	0	390070272	72	4847
2026-01-04 03:01:52.13	12.75	22.40	-53.6	-55.9	14.0	0.00e+00	0	29	0	391118848	72	4965
2026-01-04 03:01:53.12	12.57	22.50	-53.7	-56.1	14.0	0.00e+00	0	29	0	393216000	72	5044
2026-01-04 03:01:54.13	12.38	22.61	-53.5	-55.8	14.0	0.00e+00	0	29	0	395313152	72	4888
2026-01-04 03:01:55.12	12.19	22.71	-53.7	-56.1	14.0	0.00e+00	0	29	0	397410304	73	4796
2026-01-04 03:01:56.12	11.99	22.81	-53.7	-56.1	14.0	0.00e+00	0	29	0	399507456	73	4804
2026-01-04 03:01:57.12	11.80	22.92	-53.7	-56.2	13.9	0.00e+00	0	29	0	400556032	73	4867
2026-01-04 03:01:58.12	11.61	23.02	-53.8	-56.3	13.9	0.00e+00	0	29	0	402653184	73	4873
2026-01-04 03:01:59.13	11.41	23.12	-53.9	-56.4	13.8	0.00e+00	0	29	0	404750336	73	4954
2026-01-04 03:02:00.13	11.21	23.23	-53.8	-56.3	13.9	0.00e+00	0	29	0	406847488	73	4881
2026-01-04 03:02:01.13	11.01	23.33	-53.6	-56.1	14.0	0.00e+00	0	29	0	408944640	73	4771
2026-01-04 03:02:02.12	10.81	23.43	-53.4	-55.7	14.2	0.00e+00	0	29	0	409993216	73	4571
2026-01-04 03:02:03.11	10.61	23.54	-53.4	-55.6	14.3	0.00e+00	0	29	0	412090368	73	4506
2026-01-04 03:02:04.11	10.41	23.64	-53.1	-55.2	14.3	0.00e+00	0	29	0	414187520	72	4577
2026-01-04 03:02:05.11	10.21	23.74	-53.1	-55.2	14.4	0.00e+00	0	29	0	416284672	72	4573
2026-01-04 03:02:06.11	10.00	23.85	-53.2	-55.3	14.3	0.00e+00	0	29	0	417333248	72	4614
2026-01-04 03:02:07.10	9.80	23.95	-53.2	-55.3	14.3	0.00e+00	0	29	0	419430400	72	4630
2026-01-04 03:02:08.10	9.59	24.05	-53.4	-55.6	14.2	0.00e+00	0	29	0	421527552	72	4774
2026-01-04 03:02:09.10	9.38	24.16	-53.4	-55.6	14.2	0.00e+00	0	28	0	423624704	72	4764
2026-01-04 03:02:10.10	9.17	24.26	-53.5	-55.7	14.2	0.00e+00	0	29	0	425721856	72	4823
2026-01-04 03:02:11.10	8.96	24.36	-53.4	-55.5	14.2	0.00e+00	0	29	0	426770432	72	4739
2026-01-04 03:02:12.10	8.74	24.47	-53.3	-55.4	14.3	0.00e+00	0	29	0	428867584	72	4671
2026-01-04 03:02:13.10	8.53	24.57	-53.4	-55.5	14.2	0.00e+00	0	29	0	430964736	72	4742
2026-01-04 03:02:14.10	8.31	24.67	-53.4	-55.6	14.2	0.00e+00	0	29	0	433061888	72	4784
2026-01-04 03:02:15.10	8.09	24.78	-53.5	-55.7	14.1	0.00e+00	0	29	0	434110464	72	4826
2026-01-04 03:02:16.10	7.87	24.88	-53.6	-55.9	14.1	0.00e+00	0	29	0	436207616	72	4933
2026-01-04 03:02:17.10	7.65	24.98	-53.6	-55.8	14.1	0.00e+00	0	29	0	438304768	72	4884
2026-01-04 03:02:18.09	7.43	25.09	-53.6	-55.8	14.1	0.00e+00	0	28	0	440401920	72	4918
2026-01-04 03:02:19.09	7.21	25.19	-53.5	-55.7	14.1	0.00e+00	0	29	0	442499072	72	4842
2026-01-04 03:02:20.09	6.98	25.29	-53.3	-55.4	14.3	0.00e+00	0	29	0	443547648	72	4689
2026-01-04 03:02:21.08	6.76	25.39	-53.2	-55.3	14.3	0.00e+00	0	28	0	445644800	72	4643
2026-01-04 03:02:22.08	6.53	25.50	-53.1	-55.2	14.3	0.00e+00	0	29	0	447741952	72	4598
2026-01-04 03:02:23.08	6.30	25.60	-53.1	-55.3	14.4	0.00e+00	0	29	0	449839104	72	4603
2026-01-04 03:02:24.07	6.07	25.70	-53.2	-55.3	14.3	0.00e+00	0	29	0	451936256	72	4647
2026-01-04 03:02:25.07	5.84	25.80	-53.4	-55.6	14.2	0.00e+00	0	29	0	452984832	72	4802
2026-01-04 03:02:26.07	5.60	25.91	-53.4	-55.6	14.2	0.00e+00	0	29	0	455081984	72	4785
2026-01-04 03:02:27.07	5.37	26.01	-53.3	-55.4	14.3	0.00e+00	0	29	0	457179136	72	4685
2026-01-04 03:02:28.07	5.13	26.11	-53.0	-55.0	14.5	0.00e+00	0	29	0	459276288	72	4463
2026-01-04 03:02:29.06	4.89	26.21	-52.6	-54.5	14.6	0.00e+00	0	29	0	461373440	71	4447
2026-01-04 03:02:30.06	4.65	26.31	-53.0	-54.9	14.4	0.00e+00	0	29	0	462422016	71	4694
2026-01-04 03:02:31.06	4.41	26.42	-53.1	-55.1	14.4	0.00e+00	0	29	0	464519168	71	4800
2026-01-04 03:02:32.06	4.16	26.52	-53.6	-55.8	14.1	0.00e+00	0	28	0	466616320	72	4909
2026-01-04 03:02:33.05	3.92	26.62	-54.1	-56.4	14.0	0.00e+00	0	29	0	468713472	73	4944
2026-01-04 03:02:34.04	3.68	26.72	-54.1	-56.4	14.0	0.00e+00	0	29	0	469762048	73	4976
2026-01-04 03:02:35.04	3.43	26.82	-54.0	-56.3	14.0	0.00e+00	0	29	0	471859200	73	4896
2026-01-04 03:02:36.04	3.18	26.92	-53.4	-55.5	14.3	0.00e+00	0	29	0	473956352	73	4485
2026-01-04 03:02:37.04	2.93	27.02	-53.0	-54.9	14.5	0.00e+00	0	29	0	476053504	72	4420
2026-01-04 03:02:38.04	2.67	27.12	-52.6	-54.4	14.6	0.00e+00	0	29	0	478150656	71	4423
2026-01-04 03:02:39.03	2.42	27.22	-52.4	-54.2	14.7	0.00e+00	0	29	0	479199232	71	4297
2026-01-04 03:02:40.03	2.16	27.32	-52.5	-54.3	14.7	0.00e+00	0	29	0	481296384	71	4367
2026-01-04 03:02:41.03	1.91	27.42	-52.5	-54.4	14.6	0.00e+00	0	29	0	483393536	71	4392
2026-01-04 03:02:42.03	1.65	27.52	-52.5	-54.4	14.6	0.00e+00	0	29	0	485490688	71	4420
2026-01-04 03:02:43.03	1.38	27.61	-52.4	-54.3	14.6	0.00e+00	0	29	0	486539264	71	4376
2026-01-04 03:02:44.02	1.12	27.71	-52.3	-54.2	14.7	0.00e+00	0	29	0	488636416	71	4338
2026-01-04 03:02:45.01	0.86	27.81	-52.4	-54.4	14.5	0.00e+00	0	29	0	490733568	71	4395
2026-01-04 03:02:46.01	0.60	27.91	-52.5	-54.6	14.5	0.00e+00	0	29	0	492830720	71	4522
2026-01-04 03:02:47.01	0.33	28.00	-52.9	-55.1	14.3	0.00e+00	0	29	0	494927872	71	4814
2026-01-04 03:02:48.01	0.06	28.10	-53.1	-55.4	14.2	0.00e+00	0	29	0	495976448	71	4946
2026-01-04 03:02:49.02	359.78	28.20	-53.4	-55.7	14.1	0.00e+00	0	29	0	498073600	71	5106
2026-01-04 03:02:50.02	359.51	28.29	-53.5	-55.7	14.2	0.00e+00	0	29	0	500170752	72	4869
2026-01-04 03:02:51.02	359.24	28.39	-53.4	-55.7	14.1	0.00e+00	0	29	0	502267904	72	4850
2026-01-04 03:02:52.02	358.96	28.48	-53.7	-56.1	14.0	0.00e+00	0	29	0	504365056	72	5068
2026-01-04 03:02:53.03	358.68	28.58	-54.1	-56.8	13.7	0.00e+00	0	29	0	505413632	73	5201
2026-01-04 03:02:54.03	358.40	28.68	-54.3	-57.0	13.6	0.00e+00	0	29	0	507510784	73	5332
2026-01-04 03:02:55.03	358.12	28.77	-54.6	-57.6	13.4	0.00e+00	0	29	0	509607936	74	5362
2026-01-04 03:02:56.04	357.83	28.86	-54.8	-57.8	13.4	0.00e+00	0	29	0	511705088	75	5206
2026-01-04 03:02:57.03	357.55	28.96	-54.6	-57.5	13.5	0.00e+00	0	29	0	512753664	75	5038
2026-01-04 03:02:58.04	357.26	29.05	-54.3	-56.9	13.9	0.00e+00	0	29	0	514850816	75	4687
2026-01-04 03:02:59.04	356.97	29.14	-53.8	-56.3	14.0	0.00e+00	0	29	0	516947968	74	4610
2026-01-04 03:03:00.05	356.68	29.23	-53.6	-55.9	14.2	0.00e+00	0	29	0	519045120	73	4675
2026-01-04 03:03:01.05	356.39	29.33	-53.4	-55.6	14.2	0.00e+00	0	29	0	521142272	73	4535
2026-01-04 03:03:02.03	356.10	29.41	-53.7	-56.1	14.0	0.00e+00	0	29	0	522190848	73	4771
2026-01-04 03:03:03.03	355.81	29.50	-53.8	-56.4	13.9	0.00e+00	0	29	0	524288000	73	4943
2026-01-04 03:03:04.03	355.51	29.59	-54.1	-56.8	13.7	0.00e+00	0	29	0	526385152	73	5181
2026-01-04 03:03:05.03	355.21	29.68	-54.4	-57.4	13.5	0.00e+00	0	29	0	528482304	74	5236
2026-01-04 03:03:06.03	354.91	29.77	-54.6	-57.6	13.4	0.00e+00	0	29	0	530579456	74	5361
2026-01-04 03:03:07.02	354.62	29.86	-54.5	-57.5	13.5	0.00e+00	0	29	0	531628032	74	5295
2026-01-04 03:03:08.02	354.31	29.94	-54.5	-57.4	13.5	0.00e+00	0	29	0	533725184	74	5276
2026-01-04 03:03:09.02	354.01	30.03	-55.1	-58.4	13.1	0.00e+00	0	29	0	535822336	75	5531
2026-01-04 03:03:10.03	353.70	30.12	-55.6	-59.2	12.8	0.00e+00	0	29	0	537919488	76	5724
2026-01-04 03:03:11.02	353.39	30.20	-56.1	-60.1	12.2	0.00e+00	0	29	0	540016640	77	6056
2026-01-04 03:03:12.02	353.09	30.29	-56.2	-60.4	12.1	5.30e-06	0	29	0	541065216	78	5866
2026-01-04 03:03:13.02	352.77	30.37	-55.9	-59.7	12.5	0.00e+00	0	29	0	543162368	78	5459
2026-01-04 03:03:14.02	352.46	30.45	-55.7	-59.3	12.8	0.00e+00	0	29	0	545259520	78	5207
2026-01-04 03:03:15.03	352.14	30.53	-55.3	-58.7	13.0	0.00e+00	0	29	0	547356672	77	5115
2026-01-04 03:03:16.02	351.83	30.62	-55.4	-58.7	12.9	0.00e+00	0	29	0	548405248	76	5459
2026-01-04 03:03:17.03	351.51	30.70	-55.2	-58.4	13.1	0.00e+00	0	29	0	550502400	76	5274
2026-01-04 03:03:18.03	351.19	30.78	-55.2	-58.6	13.1	0.00e+00	0	28	0	552599552	76	5354
2026-01-04 03:03:19.04	350.87	30.86	-55.0	-58.1	13.4	0.00e+00	0	29	0	554696704	76	5048
2026-01-04 03:03:20.03	350.55	30.93	-54.7	-57.6	13.5	0.00e+00	0	29	0	556793856	75	5099
2026-01-04 03:03:21.03	350.22	31.01	-54.4	-57.1	13.8	0.00e+00	0	29	0	557842432	75	4768
2026-01-04 03:03:22.03	349.90	31.09	-54.7	-57.6	13.4	0.00e+00	0	28	0	559939584	75	5099
2026-01-04 03:03:23.02	349.57	31.16	-54.8	-57.9	13.2	0.00e+00	0	29	0	562036736	75	5265
2026-01-04 03:03:24.02	349.25	31.24	-54.8	-58.1	13.2	0.00e+00	0	29	0	564133888	75	5371
2026-01-04 03:03:25.02	348.92	31.31	-55.1	-58.6	12.8	0.00e+00	0	29	0	566231040	75	5718
2026-01-04 03:03:26.02	348.58	31.38	-55.0	-58.4	13.0	0.00e+00	0	29	0	567279616	75	5588
2026-01-04 03:03:27.01	348.25	31.46	-54.7	-58.0	13.2	0.00e+00	0	29	0	569376768	75	5335
2026-01-04 03:03:28.01	347.92	31.53	-54.6	-57.8	13.4	0.00e+00	0	29	0	571473920	75	5187
2026-01-04 03:03:29.01	347.58	31.60	-54.6	-57.8	13.4	0.00e+00	0	29	0	573571072	75	5206
2026-01-04 03:03:29.99	347.25	31.67	-54.7	-57.9	13.2	0.00e+00	0	29	0	574619648	75	5268
2026-01-04 03:03:31.00	346.91	31.73	-54.6	-57.9	13.2	0.00e+00	0	29	0	576716800	75	5240
2026-01-04 03:03:31.99	346.57	31.80	-54.5	-57.7	13.3	0.00e+00	0	29	0	578813952	75	5141
2026-01-04 03:03:32.99	346.23	31.87	-54.5	-57.7	13.4	0.00e+00	0	29	0	580911104	75	5148
2026-01-04 03:03:33.97	345.90	31.93	-54.2	-57.1	13.8	0.00e+00	0	29	0	583008256	75	4780
2026-01-04 03:03:34.97	345.55	32.00	-54.0	-56.6	14.0	0.00e+00	0	29	0	584056832	74	4787
2026-01-04 03:03:35.97	345.21	32.06	-54.1	-56.8	13.9	0.00e+00	0	29	0	586153984	74	4879
2026-01-04 03:03:36.96	344.86	32.12	-54.3	-57.1	13.7	0.00e+00	0	29	0	588251136	74	5071
2026-01-04 03:03:37.96	344.51	32.18	-54.4	-57.2	13.6	0.00e+00	0	29	0	590348288	74	5147
2026-01-04 03:03:38.96	344.16	32.24	-54.4	-57.2	13.7	0.00e+00	0	29	0	592445440	74	5124
2026-01-04 03:03:39.95	343.82	32.30	-54.3	-57.0	13.7	0.00e+00	0	29	0	593494016	74	5008
2026-01-04 03:03:40.94	343.47	32.36	-53.8	-56.2	14.1	0.00e+00	0	29	0	595591168	74	4592
2026-01-04 03:03:41.94	343.11	32.42	-53.9	-56.4	14.0	0.00e+00	0	29	0	597688320	74	4695
2026-01-04 03:03:42.94	342.76	32.47	-54.0	-56.6	14.0	0.00e+00	0	29	0	599785472	74	4800
2026-01-04 03:03:43.94	342.40	32.53	-54.3	-57.1	13.7	0.00e+00	0	29	0	600834048	74	5048
2026-01-04 03:03:44.93	342.05	32.58	-54.5	-57.5	13.5	0.00e+00	0	29	0	602931200	74	5302
2026-01-04 03:03:45.93	341.69	32.63	-54.1	-56.8	13.8	0.00e+00	0	29	0	605028352	74	4914
2026-01-04 03:03:46.93	341.33	32.68	-53.6	-56.1	14.1	0.00e+00	0	29	0	607125504	73	4784
2026-01-04 03:03:47.93	340.97	32.73	-53.3	-55.7	14.3	0.00e+00	0	29	0	609222656	73	4560
2026-01-04 03:03:48.93	340.61	32.78	-53.3	-55.7	14.3	0.00e+00	0	29	0	610271232	73	4585
2026-01-04 03:03:49.94	340.24	32.83	-53.6	-56.0	14.1	0.00e+00	0	29	0	612368384	73	4754
2026-01-04 03:03:50.94	339.88	32.88	-54.1	-56.8	13.8	0.00e+00	0	29	0	614465536	73	5201
2026-01-04 03:03:51.92	339.52	32.92	-54.6	-57.6	13.5	0.00e+00	0	29	0	616562688	74	5355
2026-01-04 03:03:52.92	339.15	32.96	-54.6	-57.6	13.5	0.00e+00	0	29	0	617611264	74	5360
2026-01-04 03:03:53.92	338.78	33.01	-54.3	-57.0	13.7	0.00e+00	0	29	0	619708416	74	5014
2026-01-04 03:03:54.92	338.42	33.05	-53.3	-55.6	14.3	0.00e+00	0	29	0	621805568	73	4516
2026-01-04 03:03:55.92	338.05	33.09	-52.8	-54.9	14.6	0.00e+00	0	29	0	623902720	72	4401
2026-01-04 03:03:56.92	337.68	33.13	-52.4	-54.3	14.7	0.00e+00	0	29	0	625999872	71	4368
2026-01-04 03:03:57.92	337.31	33.16	-52.3	-54.3	14.7	0.00e+00	0	29	0	627048448	71	4361
2026-01-04 03:03:58.91	336.94	33.20	-52.7	-54.7	14.5	0.00e+00	0	29	0	629145600	71	4598
2026-01-04 03:03:59.91	336.57	33.23	-52.7	-54.8	14.5	0.00e+00	0	29	0	631242752	71	4611
2026-01-04 03:04:00.91	336.19	33.27	-52.4	-54.4	14.6	0.00e+00	0	29	0	633339904	71	4422
2026-01-04 03:04:01.91	335.82	33.30	-52.3	-54.2	14.7	0.00e+00	0	29	0	635437056	71	4301
2026-01-04 03:04:02.90	335.45	33.33	-52.5	-54.5	14.5	0.00e+00	0	29	0	636485632	70	4708
2026-01-04 03:04:03.90	335.07	33.36	-53.1	-55.3	14.3	0.00e+00	0	29	0	638582784	71	4887
2026-01-04 03:04:04.90	334.70	33.38	-53.8	-56.3	14.0	0.00e+00	0	29	0	640679936	73	4901
2026-01-04 03:04:05.90	334.32	33.41	-54.6	-57.6	13.5	0.00e+00	0	29	0	642777088	74	5376
2026-01-04 03:04:06.89	333.95	33.44	-54.4	-57.1	13.7	0.00e+00	0	29	0	643825664	74	5095
2026-01-04 03:04:07.89	333.57	33.46	-53.6	-56.0	14.1	0.00e+00	0	29	0	645922816	73	4716
2026-01-04 03:04:08.89	333.19	33.48	-53.6	-55.9	14.2	0.00e+00	0	29	0	648019968	73	4696
2026-01-04 03:04:09.89	332.81	33.50	-53.8	-56.1	14.1	0.00e+00	0	29	0	650117120	73	4803
2026-01-04 03:04:10.88	332.44	33.52	-53.6	-56.0	14.2	0.00e+00	0	29	0	652214272	73	4708
2026-01-04 03:04:11.88	332.06	33.54	-53.6	-55.9	14.2	0.00e+00	0	29	0	653262848	73	4701
2026-01-04 03:04:12.88	331.68	33.56	-53.8	-56.1	14.1	0.00e+00	0	29	0	655360000	73	4778
2026-01-04 03:04:13.87	331.30	33.57	-53.9	-56.2	14.1	0.00e+00	0	29	0	657457152	73	4825
2026-01-04 03:04:14.88	330.91	33.59	-53.8	-56.0	14.2	0.00e+00	0	29	0	659554304	73	4726
2026-01-04 03:04:15.88	330.53	33.60	-53.5	-55.6	14.3	0.00e+00	0	29	0	660602880	73	4538
2026-01-04 03:04:16.87	330.16	33.61	-53.1	-55.0	14.5	0.00e+00	0	29	0	662700032	72	4486
2026-01-04 03:04:17.87	329.77	33.62	-52.9	-54.8	14.6	0.00e+00	0	29	0	664797184	72	4382
2026-01-04 03:04:18.87	329.39	33.63	-53.1	-55.2	14.5	0.00e+00	0	29	0	666894336	72	4550
2026-01-04 03:04:19.87	329.01	33.63	-53.7	-56.0	14.1	0.00e+00	0	29	0	668991488	72	4988
2026-01-04 03:04:20.87	328.63	33.64	-54.1	-56.5	13.9	0.00e+00	0	29	0	670040064	73	5027
2026-01-04 03:04:21.86	328.25	33.64	-54.7	-57.4	13.7	0.00e+00	0	29	0	672137216	74	5226
2026-01-04 03:04:22.86	327.87	33.64	-55.2	-58.3	13.2	0.00e+00	0	29	0	674234368	75	5527
2026-01-04 03:04:23.86	327.48	33.64	-55.5	-58.8	13.0	0.00e+00	0	29	0	676331520	76	5513
2026-01-04 03:04:24.86	327.10	33.64	-55.2	-58.3	13.4	0.00e+00	0	29	0	678428672	76	5168
2026-01-04 03:04:25.86	326.72	33.64	-54.9	-57.7	13.7	0.00e+00	0	29	0	679477248	76	4817
2026-01-04 03:04:26.85	326.34	33.64	-54.7	-57.4	13.8	0.00e+00	0	29	0	681574400	75	4967
2026-01-04 03:04:27.85	325.96	33.63	-54.6	-57.3	13.8	0.00e+00	0	29	0	683671552	75	4894
2026-01-04 03:04:28.83	325.58	33.63	-54.8	-57.8	13.5	0.00e+00	0	29	0	685768704	75	5170
2026-01-04 03:04:29.82	325.21	33.62	-54.8	-57.8	13.5	0.00e+00	0	29	0	686817280	75	5171
2026-01-04 03:04:30.82	324.82	33.61	-54.4	-57.1	13.8	0.00e+00	0	29	0	688914432	75	4806
2026-01-04 03:04:31.82	324.44	33.60	-54.0	-56.5	14.1	0.00e+00	0	29	0	691011584	74	4713
2026-01-04 03:04:32.82	324.06	33.59	-53.8	-56.1	14.2	0.00e+00	0	29	0	693108736	74	4526
2026-01-04 03:04:33.81	323.68	33.57	-53.7	-56.0	14.2	0.00e+00	0	29	0	695205888	73	4744
2026-01-04 03:04:34.81	323.30	33.56	-53.8	-56.2	14.1	0.00e+00	0	29	0	696254464	73	4834
2026-01-04 03:04:35.81	322.92	33.54	-54.0	-56.6	13.9	0.00e+00	0	29	0	698351616	73	5069
2026-01-04 03:04:36.81	322.54	33.52	-54.1	-56.7	13.8	0.00e+00	0	29	0	700448768	73	5128
2026-01-04 03:04:37.80	322.17	33.50	-54.2	-56.9	13.8	0.00e+00	0	29	0	702545920	73	5277
2026-01-04 03:04:38.80	321.79	33.48	-54.2	-56.8	13.8	0.00e+00	0	29	0	703594496	73	5169
2026-01-04 03:04:39.79	321.41	33.46	-54.2	-56.8	13.8	0.00e+00	0	29	0	705691648	73	5174
2026-01-04 03:04:40.79	321.03	33.44	-54.0	-56.4	14.0	0.00e+00	0	29	0	707788800	73	4972
2026-01-04 03:04:41.80	320.65	33.41	-54.0	-56.4	13.9	0.00e+00	0	29	0	709885952	73	4980
2026-01-04 03:04:42.79	320.28	33.39	-54.5	-57.3	13.6	0.00e+00	0	29	0	711983104	74	5206
2026-01-04 03:04:43.79	319.90	33.36	-54.6	-57.5	13.6	0.00e+00	0	29	0	713031680	74	5292
2026-01-04 03:04:44.78	319.53	33.33	-54.6	-57.5	13.7	0.00e+00	0	29	0	715128832	74	5299
2026-01-04 03:04:45.78	319.16	33.30	-54.7	-57.6	13.5	0.00e+00	0	29	0	717225984	74	5352
2026-01-04 03:04:46.77	318.79	33.27	-54.8	-57.7	13.5	0.00e+00	0	29	0	719323136	74	5438
2026-01-04 03:04:47.77	318.41	33.24	-54.9	-57.9	13.4	0.00e+00	0	29	0	721420288	75	5255
2026-01-04 03:04:48.77	318.04	33.20	-54.2	-56.9	13.9	0.00e+00	0	29	0	722468864	75	4676
2026-01-04 03:04:49.76	317.67	33.17	-54.3	-57.0	13.9	0.00e+00	0	29	0	724566016	75	4721
2026-01-04 03:04:50.76	317.30	33.13	-54.2	-56.9	13.9	0.00e+00	0	29	0	726663168	74	4931
2026-01-04 03:04:51.77	316.93	33.09	-54.2	-56.8	13.9	0.00e+00	0	29	0	728760320	74	4875
2026-01-04 03:04:52.76	316.56	33.05	-53.8	-56.2	14.1	0.00e+00	0	29	0	729808896	74	4582
2026-01-04 03:04:53.77	316.19	33.01	-53.7	-56.1	14.1	0.00e+00	0	29	0	731906048	73	4797
2026-01-04 03:04:54.76	315.83	32.97	-53.6	-55.9	14.2	0.00e+00	0	29	0	734003200	73	4700
2026-01-04 03:04:55.77	315.46	32.92	-53.9	-56.4	13.9	0.00e+00	0	29	0	736100352	73	4964
2026-01-04 03:04:56.76	315.09	32.88	-53.9	-56.5	13.9	0.00e+00	0	29	0	738197504	73	5017
2026-01-04 03:04:57.76	314.73	32.83	-54.1	-56.8	13.8	0.00e+00	0	29	0	739246080	73	5166
2026-01-04 03:04:58.76	314.37	32.78	-54.4	-57.3	13.7	0.00e+00	0	29	0	741343232	74	5165
2026-01-04 03:04:59.76	314.00	32.74	-54.3	-57.0	13.8	0.00e+00	0	29	0	743440384	74	5008
2026-01-04 03:05:00.75	313.65	32.69	-54.5	-57.3	13.7	0.00e+00	0	29	0	745537536	74	5192
2026-01-04 03:05:01.75	313.29	32.64	-54.5	-57.3	13.7	0.00e+00	0	29	0	746586112	74	5209
2026-01-04 03:05:02.74	312.93	32.58	-54.5	-57.4	13.6	0.00e+00	0	29	0	748683264	74	5258
2026-01-04 03:05:03.75	312.57	32.53	-54.0	-56.6	14.0	0.00e+00	0	29	0	750780416	74	4795
2026-01-04 03:05:04.75	312.21	32.48	-53.5	-55.9	14.2	0.00e+00	0	29	0	752877568	73	4696
2026-01-04 03:05:05.74	311.86	32.42	-53.3	-55.6	14.3	0.00e+00	0	29	0	754974720	73	4545
2026-01-04 03:05:06.74	311.51	32.36	-53.5	-55.9	14.2	0.00e+00	0	29	0	756023296	73	4685
2026-01-04 03:05:07.74	311.15	32.31	-53.6	-56.1	14.1	0.00e+00	0	29	0	758120448	73	4789
2026-01-04 03:05:08.74	310.80	32.25	-53.7	-56.2	14.1	0.00e+00	0	29	0	760217600	73	4866
2026-01-04 03:05:09.73	310.46	32.19	-53.3	-55.7	14.3	0.00e+00	0	29	0	762314752	73	4562
2026-01-04 03:05:10.73	310.11	32.13	-53.4	-55.8	14.2	0.00e+00	0	29	0	764411904	73	4643
2026-01-04 03:05:11.73	309.76	32.06	-53.3	-55.6	14.3	0.00e+00	0	29	0	765460480	72	4785
2026-01-04 03:05:12.72	309.42	32.00	-53.3	-55.7	14.2	0.00e+00	0	29	0	767557632	72	4848
2026-01-04 03:05:13.73	309.07	31.94	-53.8	-56.4	14.0	0.00e+00	0	29	0	769654784	72	5229
2026-01-04 03:05:14.71	308.73	31.87	-53.8	-56.4	14.0	0.00e+00	0	29	0	771751936	73	4942
2026-01-04 03:05:15.71	308.39	31.81	-54.0	-56.5	14.0	0.00e+00	0	29	0	773849088	73	5014
2026-01-04 03:05:16.71	308.05	31.74	-53.7	-56.1	14.1	0.00e+00	0	29	0	774897664	73	4783
2026-01-04 03:05:17.71	307.71	31.67	-53.8	-56.1	14.1	0.00e+00	0	29	0	776994816	73	4796
2026-01-04 03:05:18.71	307.37	31.60	-53.9	-56.3	14.1	0.00e+00	0	29	0	779091968	73	4897
2026-01-04 03:05:19.71	307.03	31.53	-54.3	-56.9	13.9	0.00e+00	0	29	0	781189120	73	5224
2026-01-04 03:05:20.71	306.70	31.46	-54.4	-57.1	13.7	0.00e+00	0	29	0	782237696	73	5370
2026-01-04 03:05:21.70	306.37	31.39	-54.8	-57.7	13.5	0.00e+00	0	29	0	784334848	74	5410
2026-01-04 03:05:22.70	306.04	31.31	-55.2	-58.3	13.2	0.00e+00	0	29	0	786432000	75	5478
2026-01-04 03:05:23.70	305.71	31.24	-54.9	-57.9	13.4	0.00e+00	0	29	0	788529152	75	5279
2026-01-04 03:05:24.70	305.38	31.16	-54.7	-57.7	13.5	0.00e+00	0	29	0	790626304	75	5128
2026-01-04 03:05:25.69	305.05	31.09	-54.9	-58.1	13.3	0.00e+00	0	29	0	791674880	75	5347
2026-01-04 03:05:26.69	304.73	31.01	-55.1	-58.4	13.2	0.00e+00	0	29	0	793772032	75	5562
2026-01-04 03:05:27.69	304.40	30.94	-55.2	-58.6	13.1	0.00e+00	0	29	0	795869184	75	5685
2026-01-04 03:05:28.69	304.08	30.86	-55.3	-58.6	13.2	0.00e+00	0	29	0	797966336	76	5358
2026-01-04 03:05:29.69	303.76	30.78	-55.1	-58.1	13.5	0.00e+00	0	29	0	799014912	76	5091
2026-01-04 03:05:30.68	303.44	30.70	-54.6	-57.4	13.7	0.00e+00	0	29	0	801112064	75	4940
2026-01-04 03:05:31.67	303.13	30.62	-54.5	-57.2	13.8	0.00e+00	0	29	0	803209216	75	4848
2026-01-04 03:05:32.67	302.81	30.54	-54.2	-56.8	14.0	0.00e+00	0	29	0	805306368	75	4619
2026-01-04 03:05:33.66	302.50	30.46	-54.3	-57.0	13.9	0.00e+00	0	29	0	807403520	75	4710
2026-01-04 03:05:34.65	302.19	30.37	-54.5	-57.2	13.8	0.00e+00	0	29	0	808452096	75	4819
2026-01-04 03:05:35.65	301.88	30.29	-54.5	-57.2	13.8	0.00e+00	0	29	0	810549248	75	4852
2026-01-04 03:05:36.64	301.57	30.21	-54.2	-56.8	13.9	0.00e+00	0	29	0	812646400	74	4906
2026-01-04 03:05:37.64	301.26	30.12	-54.0	-56.4	14.0	0.00e+00	0	29	0	814743552	74	4698
2026-01-04 03:05:38.63	300.96	30.04	-53.7	-56.1	14.1	0.00e+00	0	29	0	815792128	73	4786
2026-01-04 03:05:39.64	300.65	29.95	-53.8	-56.3	14.1	0.00e+00	0	29	0	817889280	73	4871
2026-01-04 03:05:40.64	300.35	29.86	-53.7	-56.0	14.2	0.00e+00	0	29	0	819986432	73	4725
2026-01-04 03:05:41.64	300.04	29.78	-53.1	-55.3	14.4	0.00e+00	0	29	0	822083584	72	4601
2026-01-04 03:05:42.64	299.74	29.69	-52.5	-54.4	14.7	0.00e+00	0	29	0	824180736	71	4430
2026-01-04 03:05:43.64	299.45	29.60	-52.7	-54.7	14.6	0.00e+00	0	29	0	825229312	71	4584
2026-01-04 03:05:44.63	299.15	29.51	-52.9	-55.0	14.5	0.00e+00	0	29	0	827326464	71	4721
2026-01-04 03:05:45.62	298.86	29.42	-53.3	-55.5	14.2	0.00e+00	0	29	0	829423616	71	4995
2026-01-04 03:05:46.62	298.57	29.33	-53.5	-55.9	14.2	0.00e+00	0	29	0	831520768	72	4931
2026-01-04 03:05:47.62	298.27	29.24	-54.2	-56.8	13.9	0.00e+00	0	29	0	833617920	73	5186
2026-01-04 03:05:48.62	297.98	29.15	-54.8	-57.8	13.5	0.00e+00	0	29	0	834666496	74	5474
2026-01-04 03:05:49.62	297.70	29.06	-55.1	-58.2	13.3	0.00e+00	0	29	0	836763648	75	5403
2026-01-04 03:05:50.62	297.41	28.96	-54.6	-57.3	13.7	0.00e+00	0	29	0	838860800	75	4916
2026-01-04 03:05:51.62	297.12	28.87	-54.2	-56.6	14.0	0.00e+00	0	29	0	840957952	74	4806
2026-01-04 03:05:52.62	296.84	28.78	-53.7	-56.0	14.3	0.00e+00	0	29	0	842006528	74	4463
2026-01-04 03:05:53.62	296.56	28.68	-53.7	-56.0	14.2	0.00e+00	0	29	0	844103680	73	4713
2026-01-04 03:05:54.62	296.28	28.59	-54.8	-57.5	13.6	0.00e+00	0	29	0	846200832	74	5327
2026-01-04 03:05:55.63	296.00	28.49	-55.3	-58.4	13.3	0.00e+00	0	29	0	848297984	75	5584
2026-01-04 03:05:56.62	295.72	28.40	-56.2	-59.9	12.5	0.00e+00	0	29	0	850395136	77	5922
2026-01-04 03:05:57.62	295.45	28.30	-56.4	-60.3	12.3	0.00e+00	0	29	0	851443712	77	6137
2026-01-04 03:05:58.62	295.17	28.20	-56.1	-59.6	12.7	0.00e+00	0	29	0	853540864	78	5395
2026-01-04 03:05:59.61	294.90	28.11	-55.4	-58.5	13.4	0.00e+00	0	29	0	855638016	77	4987
2026-01-04 03:06:00.60	294.64	28.01	-55.3	-58.3	13.4	0.00e+00	0	29	0	857735168	77	4899
2026-01-04 03:06:01.59	294.37	27.92	-55.0	-57.8	13.6	0.00e+00	0	29	0	858783744	76	4903
2026-01-04 03:06:02.60	294.10	27.82	-55.0	-57.9	13.6	0.00e+00	0	29	0	860880896	76	4927
2026-01-04 03:06:03.60	293.83	27.72	-54.3	-56.8	14.0	0.00e+00	0	29	0	862978048	75	4616
2026-01-04 03:06:04.59	293.57	27.62	-54.3	-56.7	14.1	0.00e+00	0	29	0	865075200	75	4592
2026-01-04 03:06:05.58	293.31	27.52	-54.5	-57.1	13.9	0.00e+00	0	29	0	867172352	75	4760
2026-01-04 03:06:06.58	293.05	27.42	-54.6	-57.3	13.9	0.00e+00	0	29	0	868220928	75	4871
2026-01-04 03:06:07.58	292.79	27.33	-54.1	-56.5	14.1	0.00e+00	0	29	0	870318080	74	4758
2026-01-04 03:06:08.58	292.54	27.23	-53.7	-55.8	14.4	0.00e+00	0	29	0	872415232	74	4387
2026-01-04 03:06:09.58	292.28	27.13	-53.4	-55.4	14.5	0.00e+00	0	29	0	874512384	73	4433
2026-01-04 03:06:10.58	292.03	27.03	-53.3	-55.2	14.5	0.00e+00	0	29	0	876609536	73	4338
2026-01-04 03:06:11.58	291.77	26.92	-52.6	-54.4	14.7	0.00e+00	0	29	0	877658112	71	4440
2026-01-04 03:06:12.58	291.52	26.82	-52.6	-54.5	14.7	0.00e+00	0	29	0	879755264	71	4444
2026-01-04 03:06:13.57	291.28	26.72	-52.8	-54.7	14.5	0.00e+00	0	29	0	881852416	71	4590
2026-01-04 03:06:14.58	291.03	26.62	-52.7	-54.6	14.6	0.00e+00	0	29	0	883949568	71	4497
2026-01-04 03:06:15.58	290.78	26.52	-52.8	-54.7	14.6	0.00e+00	0	29	0	886046720	71	4585
2026-01-04 03:06:16.58	290.54	26.42	-53.2	-55.2	14.4	0.00e+00	0	29	0	887095296	71	4834
2026-01-04 03:06:17.58	290.29	26.32	-53.4	-55.5	14.3	0.00e+00	0	29	0	889192448	71	4993
2026-01-04 03:06:18.57	290.05	26.22	-53.5	-55.7	14.3	0.00e+00	0	29	0	891289600	72	4857
2026-01-04 03:06:19.57	289.81	26.11	-53.9	-56.1	14.1	0.00e+00	0	29	0	893386752	72	5099
2026-01-04 03:06:20.57	289.58	26.01	-53.6	-55.8	14.3	0.00e+00	0	29	0	894435328	73	4632
2026-01-04 03:06:21.57	289.34	25.91	-53.5	-55.7	14.4	0.00e+00	0	29	0	896532480	73	4548
2026-01-04 03:06:22.57	289.10	25.81	-53.6	-55.7	14.3	0.00e+00	0	29	0	898629632	73	4582
2026-01-04 03:06:23.56	288.87	25.71	-53.3	-55.4	14.5	0.00e+00	0	29	0	900726784	73	4399
2026-01-04 03:06:24.56	288.64	25.60	-53.4	-55.5	14.5	0.00e+00	0	29	0	902823936	73	4462
2026-01-04 03:06:25.55	288.41	25.50	-53.4	-55.5	14.4	0.00e+00	0	29	0	903872512	73	4488
2026-01-04 03:06:26.55	288.18	25.40	-53.4	-55.5	14.4	0.00e+00	0	29	0	905969664	73	4470
2026-01-04 03:06:27.54	287.96	25.30	-53.4	-55.5	14.4	0.00e+00	0	29	0	908066816	73	4478
2026-01-04 03:06:28.54	287.73	25.19	-53.3	-55.4	14.5	0.00e+00	0	29	0	910163968	73	4411
2026-01-04 03:06:29.53	287.51	25.09	-53.0	-54.9	14.6	0.00e+00	0	29	0	911212544	72	4432
2026-01-04 03:06:30.53	287.29	24.99	-52.9	-54.7	14.6	0.00e+00	0	29	0	913309696	72	4338
2026-01-04 03:06:31.53	287.06	24.88	-52.8	-54.6	14.7	0.00e+00	0	29	0	915406848	72	4284
2026-01-04 03:06:32.52	286.85	24.78	-52.4	-54.1	14.8	0.00e+00	0	29	0	917504000	71	4275
2026-01-04 03:06:33.52	286.63	24.68	-52.0	-53.7	14.9	0.00e+00	0	29	0	919601152	70	4296
2026-01-04 03:06:34.51	286.41	24.57	-51.2	-52.7	15.1	0.00e+00	0	29	0	920649728	69	4069
2026-01-04 03:06:35.51	286.20	24.47	-51.3	-52.9	15.0	0.00e+00	0	29	0	922746880	68	4411
2026-01-04 03:06:36.51	285.98	24.37	-51.4	-53.0	14.9	0.00e+00	0	29	0	924844032	68	4455
2026-01-04 03:06:37.50	285.77	24.26	-51.6	-53.3	14.8	0.00e+00	0	29	0	926941184	68	4614
2026-01-04 03:06:38.50	285.56	24.16	-52.0	-53.7	14.8	0.00e+00	0	29	0	927989760	69	4591
2026-01-04 03:06:39.50	285.35	24.06	-52.3	-54.1	14.7	0.00e+00	0	29	0	930086912	69	4787
2026-01-04 03:06:40.49	285.14	23.95	-52.5	-54.3	14.7	0.00e+00	0	29	0	932184064	70	4629
2026-01-04 03:06:41.49	284.93	23.85	-52.2	-54.0	14.7	0.00e+00	0	29	0	934281216	70	4478
2026-01-04 03:06:42.48	284.73	23.75	-51.9	-53.5	14.9	0.00e+00	0	29	0	936378368	70	4238
2026-01-04 03:06:43.48	284.53	23.64	-51.9	-53.6	14.9	0.00e+00	0	29	0	937426944	70	4278
2026-01-04 03:06:44.48	284.32	23.54	-52.0	-53.6	14.9	0.00e+00	0	29	0	939524096	70	4284
2026-01-04 03:06:45.47	284.12	23.44	-51.9	-53.6	14.9	0.00e+00	0	29	0	941621248	70	4270
2026-01-04 03:06:46.47	283.92	23.33	-52.0	-53.7	14.8	0.00e+00	0	29	0	943718400	70	4329
2026-01-04 03:06:47.47	283.72	23.23	-52.4	-54.3	14.7	0.00e+00	0	29	0	945815552	70	4599
2026-01-04 03:06:48.47	283.52	23.13	-52.3	-54.1	14.7	0.00e+00	0	29	0	946864128	70	4517
2026-01-04 03:06:49.46	283.33	23.02	-52.3	-54.1	14.7	0.00e+00	0	29	0	948961280	70	4513
2026-01-04 03:06:50.46	283.13	22.92	-52.4	-54.2	14.7	0.00e+00	0	29	0	951058432	70	4553
2026-01-04 03:06:51.46	282.94	22.82	-52.3	-54.1	14.7	0.00e+00	0	29	0	953155584	70	4508
2026-01-04 03:06:52.46	282.75	22.71	-52.4	-54.2	14.7	0.00e+00	0	29	0	955252736	70	4571
2026-01-04 03:06:53.46	282.56	22.61	-52.5	-54.3	14.6	0.00e+00	0	29	0	956301312	70	4620
2026-01-04 03:06:54.46	282.37	22.51	-52.6	-54.5	14.5	0.00e+00	0	29	0	958398464	70	4731
2026-01-04 03:06:55.47	282.17	22.40	-52.3	-54.1	14.7	0.00e+00	0	29	0	960495616	70	4502
2026-01-04 03:06:56.46	281.99	22.30	-52.1	-53.8	14.8	0.00e+00	0	29	0	962592768	70	4384
2026-01-04 03:06:57.46	281.80	22.20	-51.8	-53.5	14.9	0.00e+00	0	29	0	963641344	70	4222
2026-01-04 03:06:58.46	281.62	22.09	-51.8	-53.4	15.0	0.00e+00	0	29	0	965738496	70	4178
2026-01-04 03:06:59.46	281.43	21.99	-51.9	-53.6	14.9	0.00e+00	0	29	0	967835648	70	4270
2026-01-04 03:07:00.46	281.25	21.89	-51.9	-53.6	14.9	0.00e+00	0	29	0	969932800	70	4268
2026-01-04 03:07:01.45	281.07	21.79	-52.3	-54.1	14.7	0.00e+00	0	29	0	972029952	70	4514
2026-01-04 03:07:02.45	280.89	21.68	-52.3	-54.1	14.7	0.00e+00	0	29	0	973078528	70	4518
2026-01-04 03:07:03.44	280.71	21.58	-52.5	-54.4	14.6	0.00e+00	0	29	0	975175680	70	4663
2026-01-04 03:07:04.44	280.54	21.48	-52.6	-54.5	14.5	0.00e+00	0	29	0	977272832	70	4725
2026-01-04 03:07:05.44	280.36	21.38	-52.5	-54.4	14.6	0.00e+00	0	29	0	979369984	70	4669
2026-01-04 03:07:06.44	280.18	21.28	-52.5	-54.4	14.6	0.00e+00	0	29	0	980418560	70	4670
2026-01-04 03:07:07.43	280.01	21.18	-52.6	-54.4	14.6	0.00e+00	0	29	0	982515712	70	4678
2026-01-04 03:07:08.44	279.84	21.07	-52.6	-54.4	14.6	0.00e+00	0	29	0	984612864	70	4665
2026-01-04 03:07:09.43	279.67	20.97	-52.5	-54.3	14.7	0.00e+00	0	29	0	986710016	70	4616
2026-01-04 03:07:10.44	279.49	20.87	-52.5	-54.3	14.6	0.00e+00	0	29	0	988807168	70	4641
2026-01-04 03:07:11.44	279.32	20.77	-52.5	-54.3	14.6	0.00e+00	0	29	0	989855744	70	4618
2026-01-04 03:07:12.43	279.16	20.67	-52.5	-54.4	14.6	0.00e+00	0	29	0	991952896	70	4661
2026-01-04 03:07:13.44	278.99	20.57	-52.3	-54.1	14.7	0.00e+00	0	29	0	994050048	70	4526
2026-01-04 03:07:14.45	278.82	20.46	-52.6	-54.5	14.6	0.00e+00	0	29	0	996147200	70	4719
2026-01-04 03:07:15.45	278.65	20.36	-52.6	-54.4	14.6	0.00e+00	0	29	0	998244352	70	4703
2026-01-04 03:07:16.45	278.49	20.26	-52.8	-54.7	14.5	0.00e+00	0	29	0	999292928	70	4839
2026-01-04 03:07:17.45	278.33	20.16	-53.0	-55.0	14.5	0.00e+00	0	29	0	1001390080	71	4717
2026-01-04 03:07:18.45	278.16	20.06	-53.5	-55.6	14.3	0.00e+00	0	29	0	1003487232	72	4811
2026-01-04 03:07:19.44	278.01	19.96	-54.0	-56.3	14.1	0.00e+00	0	29	0	1005584384	73	4876
2026-01-04 03:07:20.44	277.85	19.86	-53.9	-56.1	14.2	0.00e+00	0	29	0	1006632960	73	4792
2026-01-04 03:07:21.44	277.69	19.76	-54.0	-56.3	14.1	0.00e+00	0	29	0	1008730112	73	4917
2026-01-04 03:07:22.44	277.53	19.66	-53.7	-55.9	14.2	0.00e+00	0	29	0	1010827264	73	4667
2026-01-04 03:07:23.44	277.37	19.56	-53.6	-55.7	14.3	0.00e+00	0	29	0	1012924416	73	4569
2026-01-04 03:07:24.43	277.22	19.46	-53.3	-55.3	14.5	0.00e+00	0	29	0	1015021568	73	4358
2026-01-04 03:07:25.44	277.06	19.36	-53.2	-55.2	14.4	0.00e+00	0	29	0	1016070144	72	4593
2026-01-04 03:07:26.43	276.91	19.27	-52.8	-54.6	14.7	0.00e+00	0	29	0	1018167296	72	4282
2026-01-04 03:07:27.43	276.76	19.17	-52.7	-54.6	14.7	0.00e+00	0	29	0	1020264448	72	4244
2026-01-04 03:07:28.43	276.61	19.07	-52.8	-54.7	14.6	0.00e+00	0	29	0	1022361600	72	4329
2026-01-04 03:07:29.43	276.45	18.97	-52.9	-54.8	14.6	0.00e+00	0	29	0	1024458752	72	4380
2026-01-04 03:07:30.43	276.30	18.87	-53.3	-55.3	14.4	0.00e+00	0	29	0	1025507328	72	4629
2026-01-04 03:07:31.42	276.16	18.78	-53.3	-55.4	14.3	0.00e+00	0	29	0	1027604480	72	4671
2026-01-04 03:07:32.42	276.01	18.68	-53.4	-55.5	14.3	0.00e+00	0	29	0	1029701632	72	4713
2026-01-04 03:07:33.42	275.86	18.58	-53.2	-55.3	14.4	0.00e+00	0	29	0	1031798784	72	4620
2026-01-04 03:07:34.41	275.72	18.48	-53.3	-55.4	14.3	0.00e+00	0	29	0	1033895936	72	4666
2026-01-04 03:07:35.41	275.57	18.39	-53.1	-55.2	14.4	0.00e+00	0	29	0	1034944512	72	4572
2026-01-04 03:07:36.41	275.43	18.29	-53.0	-55.0	14.5	0.00e+00	0	29	0	1037041664	72	4445
2026-01-04 03:07:37.41	275.29	18.19	-52.8	-54.7	14.6	0.00e+00	0	29	0	1039138816	72	4318
2026-01-04 03:07:38.41	275.14	18.09	-52.7	-54.6	14.6	0.00e+00	0	29	0	1041235968	71	4522
2026-01-04 03:07:39.40	275.01	18.00	-52.5	-54.3	14.7	0.00e+00	0	29	0	1042284544	71	4372
2026-01-04 03:07:40.40	274.86	17.90	-52.4	-54.3	14.7	0.00e+00	0	29	0	1044381696	71	4369
2026-01-04 03:07:41.40	274.73	17.81	-52.6	-54.5	14.6	0.00e+00	0	29	0	1046478848	71	4481
2026-01-04 03:07:42.39	274.59	17.71	-52.6	-54.5	14.6	0.00e+00	0	29	0	1048576000	71	4446
2026-01-04 03:07:43.39	274.45	17.62	-52.5	-54.4	14.7	0.00e+00	0	29	0	1050673152	71	4404
2026-01-04 03:07:44.39	274.31	17.52	-52.7	-54.6	14.6	0.00e+00	0	29	0	1051721728	71	4507
2026-01-04 03:07:45.38	274.18	17.43	-52.8	-54.7	14.5	0.00e+00	0	29	0	1053818880	71	4577
2026-01-04 03:07:46.38	274.04	17.33	-52.8	-54.7	14.5	0.00e+00	0	29	0	1055916032	71	4573
2026-01-04 03:07:47.37	273.91	17.24	-53.0	-55.0	14.4	0.00e+00	0	29	0	1058013184	71	4706
2026-01-04 03:07:48.37	273.78	17.14	-53.0	-55.0	14.4	0.00e+00	0	29	0	1059061760	71	4709
2026-01-04 03:07:49.35	273.65	17.05	-52.6	-54.5	14.6	0.00e+00	0	29	0	1061158912	71	4477
2026-01-04 03:07:50.35	273.52	16.95	-52.9	-54.8	14.5	0.00e+00	0	29	0	1063256064	71	4605
2026-01-04 03:07:51.34	273.39	16.86	-52.8	-54.7	14.5	0.00e+00	0	29	0	1065353216	71	4582
2026-01-04 03:07:52.34	273.26	16.77	-52.6	-54.5	14.6	0.00e+00	0	29	0	1067450368	71	4456
2026-01-04 03:07:53.33	273.13	16.67	-52.5	-54.3	14.7	0.00e+00	0	29	0	1068498944	71	4361
2026-01-04 03:07:54.33	273.00	16.58	-52.3	-54.1	14.8	0.00e+00	0	29	0	1070596096	71	4260
2026-01-04 03:07:55.34	272.87	16.49	-52.3	-54.0	14.8	0.00e+00	0	29	0	1072693248	71	4241
2026-01-04 03:07:56.33	272.75	16.39	-52.3	-54.1	14.8	0.00e+00	0	29	0	1074790400	71	4268
2026-01-04 03:07:57.33	272.62	16.30	-52.6	-54.5	14.6	0.00e+00	0	29	0	1075838976	71	4481
2026-01-04 03:07:58.33	272.50	16.21	-52.6	-54.5	14.6	0.00e+00	0	29	0	1077936128	71	4459
2026-01-04 03:07:59.32	272.37	16.12	-52.9	-54.9	14.4	0.00e+00	0	29	0	1080033280	71	4684
2026-01-04 03:08:00.32	272.25	16.02	-53.4	-55.5	14.3	0.00e+00	0	29	0	1082130432	72	4729
2026-01-04 03:08:01.32	272.13	15.93	-53.8	-56.1	14.0	0.00e+00	0	29	0	1084227584	72	5088
2026-01-04 03:08:02.31	272.01	15.84	-54.2	-56.8	13.8	0.00e+00	0	29	0	1085276160	73	5160
2026-01-04 03:08:03.32	271.89	15.75	-54.6	-57.3	13.6	0.00e+00	0	29	0	1087373312	74	5181
2026-01-04 03:08:04.32	271.76	15.66	-54.6	-57.3	13.6	0.00e+00	0	29	0	1089470464	74	5197
2026-01-04 03:08:05.32	271.65	15.57	-54.4	-56.9	13.8	0.00e+00	0	29	0	1091567616	74	4951
2026-01-04 03:08:06.31	271.53	15.48	-54.1	-56.4	14.0	0.00e+00	0	29	0	1093664768	74	4690
2026-01-04 03:08:07.31	271.41	15.39	-53.8	-56.1	14.2	0.00e+00	0	29	0	1094713344	74	4496
2026-01-04 03:08:08.31	271.29	15.30	-53.7	-55.9	14.2	0.00e+00	0	29	0	1096810496	73	4675
2026-01-04 03:08:09.30	271.18	15.21	-53.2	-55.1	14.6	0.00e+00	0	29	0	1098907648	73	4248
2026-01-04 03:08:10.31	271.06	15.11	-53.0	-54.8	14.6	0.00e+00	0	29	0	1101004800	72	4372
2026-01-04 03:08:11.30	270.94	15.03	-52.6	-54.3	14.7	0.00e+00	0	29	0	1102053376	71	4372
2026-01-04 03:08:12.31	270.83	14.93	-52.5	-54.1	14.7	0.00e+00	0	29	0	1104150528	71	4288
2026-01-04 03:08:13.31	270.72	14.85	-52.6	-54.4	14.7	0.00e+00	0	29	0	1106247680	71	4393
2026-01-04 03:08:14.31	270.60	14.76	-52.7	-54.5	14.6	0.00e+00	0	29	0	1108344832	71	4449
2026-01-04 03:08:15.30	270.49	14.67	-52.9	-54.6	14.5	0.00e+00	0	29	0	1110441984	71	4541
2026-01-04 03:08:16.29	270.38	14.58	-53.1	-55.0	14.4	0.00e+00	0	29	0	1111490560	71	4731
2026-01-04 03:08:17.29	270.27	14.49	-53.4	-55.3	14.3	0.00e+00	0	29	0	1113587712	71	4924
2026-01-04 03:08:18.29	270.16	14.40	-53.8	-55.8	14.1	0.00e+00	0	29	0	1115684864	72	4918
2026-01-04 03:08:19.29	270.05	14.31	-54.1	-56.3	14.0	0.00e+00	0	29	0	1117782016	73	4913
2026-01-04 03:08:20.29	269.94	14.23	-54.3	-56.6	13.9	0.00e+00	0	29	0	1119879168	73	5081
2026-01-04 03:08:21.29	269.83	14.14	-54.5	-56.9	13.8	0.00e+00	0	29	0	1120927744	74	4934
2026-01-04 03:08:22.29	269.72	14.05	-54.5	-56.8	13.8	0.00e+00	0	29	0	1123024896	74	4922
2026-01-04 03:08:23.29	269.62	13.96	-54.5	-56.8	13.8	0.00e+00	0	29	0	1125122048	74	4888
2026-01-04 03:08:24.29	269.51	13.88	-54.5	-56.7	13.9	0.00e+00	0	29	0	1127219200	74	4869
2026-01-04 03:08:25.29	269.40	13.79	-54.5	-56.8	13.9	0.00e+00	0	29	0	1128267776	74	4875
2026-01-04 03:08:26.28	269.30	13.70	-54.3	-56.5	14.0	0.00e+00	0	29	0	1130364928	74	4758
2026-01-04 03:08:27.28	269.20	13.62	-54.4	-56.6	13.9	0.00e+00	0	29	0	1132462080	74	4805
2026-01-04 03:08:28.28	269.09	13.53	-54.3	-56.6	14.0	0.00e+00	0	29	0	1134559232	74	4770
2026-01-04 03:08:29.28	268.99	13.44	-54.2	-56.4	14.0	0.00e+00	0	29	0	1136656384	74	4659
2026-01-04 03:08:30.27	268.89	13.36	-54.2	-56.5	14.0	0.00e+00	0	29	0	1137704960	74	4715
2026-01-04 03:08:31.27	268.78	13.27	-54.2	-56.4	14.0	0.00e+00	0	29	0	1139802112	74	4698
2026-01-04 03:08:32.27	268.68	13.19	-54.3	-56.5	14.0	0.00e+00	0	29	0	1141899264	74	4750
2026-01-04 03:08:33.26	268.58	13.10	-54.2	-56.4	14.0	0.00e+00	0	29	0	1143996416	74	4699
2026-01-04 03:08:34.25	268.48	13.02	-54.2	-56.4	14.0	0.00e+00	0	29	0	1145044992	74	4704
2026-01-04 03:08:35.25	268.38	12.93	-54.2	-56.4	14.0	0.00e+00	0	29	0	1147142144	74	4704
2026-01-04 03:08:36.23	268.29	12.85	-54.4	-56.7	13.9	0.00e+00	0	29	0	1149239296	74	4823
2026-01-04 03:08:37.23	268.19	12.77	-54.3	-56.6	13.9	0.00e+00	0	29	0	1151336448	74	4776
2026-01-04 03:08:38.23	268.09	12.68	-54.3	-56.6	13.9	0.00e+00	0	29	0	1153433600	74	4761
2026-01-04 03:08:39.23	267.99	12.60	-54.4	-56.7	13.9	0.00e+00	0	29	0	1154482176	74	4818
2026-01-04 03:08:40.22	267.90	12.52	-54.3	-56.6	13.9	0.00e+00	0	29	0	1156579328	74	4788
2026-01-04 03:08:41.22	267.80	12.43	-54.5	-56.9	13.8	0.00e+00	0	29	0	1158676480	74	4940
2026-01-04 03:08:42.21	267.71	12.35	-54.5	-56.8	13.8	0.00e+00	0	29	0	1160773632	74	4897
2026-01-04 03:08:43.21	267.61	12.27	-54.5	-56.8	13.8	0.00e+00	0	29	0	1162870784	74	4924
2026-01-04 03:08:44.20	267.52	12.18	-54.4	-56.7	13.8	0.00e+00	0	29	0	1163919360	74	4839
2026-01-04 03:08:45.20	267.42	12.10	-54.4	-56.6	13.9	0.00e+00	0	29	0	1166016512	74	4807
2026-01-04 03:08:46.20	267.33	12.02	-54.2	-56.5	13.9	0.00e+00	0	29	0	1168113664	74	4720
2026-01-04 03:08:47.20	267.24	11.94	-54.1	-56.2	14.1	0.00e+00	0	29	0	1170210816	74	4575
2026-01-04 03:08:48.20	267.14	11.85	-53.9	-56.0	14.2	0.00e+00	0	29	0	1171259392	74	4459
2026-01-04 03:08:49.20	267.05	11.77	-53.7	-55.8	14.3	0.00e+00	0	29	0	1173356544	74	4362
2026-01-04 03:08:50.20	266.96	11.69	-53.5	-55.5	14.3	0.00e+00	0	29	0	1175453696	73	4461
2026-01-04 03:08:51.19	266.87	11.61	-53.4	-55.4	14.4	0.00e+00	0	29	0	1177550848	73	4396
2026-01-04 03:08:52.19	266.78	11.53	-53.2	-55.2	14.5	0.00e+00	0	29	0	1179648000	73	4295
2026-01-04 03:08:53.20	266.69	11.45	-53.1	-55.0	14.4	0.00e+00	0	29	0	1180696576	72	4457
2026-01-04 03:08:54.19	266.60	11.36	-53.2	-55.1	14.4	0.00e+00	0	29	0	1182793728	72	4531
2026-01-04 03:08:55.19	266.51	11.28	-53.2	-55.1	14.4	0.00e+00	0	29	0	1184890880	72	4497
2026-01-04 03:08:56.19	266.42	11.20	-53.1	-55.0	14.4	0.00e+00	0	29	0	1186988032	72	4467
2026-01-04 03:08:57.18	266.34	11.12	-53.3	-55.2	14.3	0.00e+00	0	29	0	1188036608	72	4593
2026-01-04 03:08:58.18	266.25	11.04	-53.3	-55.2	14.3	0.00e+00	0	29	0	1190133760	72	4598
2026-01-04 03:08:59.18	266.16	10.96	-53.6	-55.7	14.1	0.00e+00	0	29	0	1192230912	72	4835
2026-01-04 03:09:00.19	266.07	10.88	-53.8	-55.9	14.0	0.00e+00	0	29	0	1194328064	72	4980
2026-01-04 03:09:01.19	265.99	10.80	-54.0	-56.3	13.8	0.00e+00	0	29	0	1196425216	73	4883
2026-01-04 03:09:02.18	265.90	10.72	-54.2	-56.5	13.8	0.00e+00	0	29	0	1197473792	73	5039
2026-01-04 03:09:03.19	265.82	10.64	-54.5	-56.9	13.7	0.00e+00	0	29	0	1199570944	74	4933
2026-01-04 03:09:04.18	265.74	10.57	-54.7	-57.3	13.5	0.00e+00	0	29	0	1201668096	74	5161
2026-01-04 03:09:05.18	265.65	10.49	-54.9	-57.5	13.4	0.00e+00	0	29	0	1203765248	74	5330
2026-01-04 03:09:06.18	265.57	10.41	-55.1	-57.8	13.3	0.00e+00	0	29	0	1205862400	75	5206
2026-01-04 03:09:07.17	265.49	10.33	-55.2	-58.0	13.2	0.00e+00	0	29	0	1206910976	75	5296
2026-01-04 03:09:08.18	265.40	10.25	-55.2	-58.0	13.2	0.00e+00	0	29	0	1209008128	75	5321
2026-01-04 03:09:09.17	265.32	10.17	-55.2	-58.1	13.2	0.00e+00	0	29	0	1211105280	75	5359
