passes_logs/2026/01/04/R3.2S_Murmansk/R3.2S_Murmansk__20260104_032849_AQUA_rec.log

#Pass ID: 20260104_032849_AQUA
#Satellite: AQUA
#Configuration: AQUA
#almurnet v.1.7.20251203
#Start time: 2026-01-04 03:28:49

#Version: 2.2.20231116
#Station: R3.2S_Murmansk
#Location: 33.079688 lon 68.888172 lat
#TLE: 1 27424U 02022A   25365.92641127  .00002078  00000+0  42628-3 0  9999
#TLE: 2 27424  98.4058 327.1196 0001962  94.7781 340.6230 14.61783896258835

#Time	Az	El	Level	Level2	SNR	BER	BlckErr	Temp	State	Recorded	gain1	gain2
2026-01-04 03:28:49.48	27.71	1.98	-58.1	-77.4	3.8	7.47e-01	0	26	0	0	85	32550
2026-01-04 03:28:50.48	27.67	2.04	-57.9	-77.3	3.8	7.45e-01	0	26	104	0	83	35873
2026-01-04 03:28:51.49	27.64	2.11	-57.9	-77.3	3.8	7.46e-01	0	26	104	0	83	35891
2026-01-04 03:28:52.49	27.61	2.18	-57.9	-77.3	3.8	7.47e-01	0	27	104	0	83	35944
2026-01-04 03:28:53.49	27.58	2.24	-57.9	-77.3	3.8	7.47e-01	0	27	104	0	83	35846
2026-01-04 03:28:54.49	27.54	2.31	-57.9	-77.3	3.8	7.47e-01	0	27	104	0	83	35898
2026-01-04 03:28:55.49	27.51	2.37	-57.9	-77.3	3.8	7.51e-01	0	27	104	0	83	35794
2026-01-04 03:28:56.48	27.48	2.44	-57.9	-77.3	3.8	7.43e-01	0	27	104	0	83	35893
2026-01-04 03:28:57.48	27.45	2.50	-57.9	-77.3	3.8	7.47e-01	0	26	104	0	83	35794
2026-01-04 03:28:58.48	27.41	2.57	-57.9	-77.3	3.8	7.47e-01	0	27	104	0	83	35733
2026-01-04 03:28:59.48	27.38	2.63	-57.9	-77.2	3.9	7.44e-01	0	27	104	0	83	35645
2026-01-04 03:29:00.47	27.35	2.70	-57.9	-77.3	3.8	7.45e-01	0	27	104	0	83	35755
2026-01-04 03:29:01.47	27.31	2.77	-57.9	-77.2	3.8	7.47e-01	0	27	104	0	83	35681
2026-01-04 03:29:02.47	27.28	2.83	-57.9	-77.3	3.8	7.49e-01	0	27	104	0	83	35716
2026-01-04 03:29:03.46	27.25	2.90	-57.9	-77.2	3.8	7.46e-01	0	27	104	0	83	35662
2026-01-04 03:29:04.46	27.21	2.97	-57.9	-77.2	3.8	7.48e-01	0	27	104	0	83	35679
2026-01-04 03:29:05.46	27.18	3.03	-57.9	-77.2	3.8	7.51e-01	0	27	104	0	83	35675
2026-01-04 03:29:06.46	27.14	3.10	-57.9	-77.3	3.8	7.46e-01	0	27	104	0	83	35784
2026-01-04 03:29:07.46	27.11	3.17	-57.9	-77.3	3.8	7.47e-01	0	27	104	0	83	35793
2026-01-04 03:29:08.45	27.07	3.23	-57.9	-77.3	3.8	7.47e-01	0	27	104	0	83	35744
2026-01-04 03:29:09.44	27.04	3.30	-57.9	-77.3	3.8	7.45e-01	0	27	104	0	83	35718
2026-01-04 03:29:10.44	27.00	3.37	-57.9	-77.3	3.8	7.49e-01	0	27	104	0	83	35874
2026-01-04 03:29:11.44	26.97	3.44	-57.9	-77.3	3.8	7.48e-01	0	27	104	0	83	35826
2026-01-04 03:29:12.44	26.93	3.51	-57.9	-77.3	3.8	7.45e-01	0	27	104	0	83	35766
2026-01-04 03:29:13.44	26.89	3.57	-57.9	-77.2	3.8	7.48e-01	0	27	104	0	83	35553
2026-01-04 03:29:14.44	26.86	3.64	-57.9	-77.2	3.8	7.44e-01	0	27	104	0	83	35329
2026-01-04 03:29:15.44	26.82	3.71	-57.9	-77.1	3.8	7.47e-01	0	27	104	0	83	35156
2026-01-04 03:29:16.44	26.79	3.78	-57.9	-77.0	3.8	7.47e-01	0	27	104	0	83	34679
2026-01-04 03:29:17.44	26.75	3.85	-57.8	-76.9	3.8	7.45e-01	0	27	104	0	83	34347
2026-01-04 03:29:18.44	26.71	3.92	-57.8	-76.8	3.8	7.47e-01	0	27	104	0	83	33772
2026-01-04 03:29:19.44	26.67	3.99	-57.8	-76.7	3.8	7.47e-01	0	27	104	0	83	33447
2026-01-04 03:29:20.43	26.64	4.06	-57.8	-76.6	3.8	7.47e-01	0	27	104	0	83	32974
2026-01-04 03:29:21.43	26.60	4.13	-57.8	-76.5	3.8	7.45e-01	0	27	104	0	83	32832
2026-01-04 03:29:22.43	26.56	4.20	-57.8	-76.4	3.8	7.42e-01	0	27	104	0	83	32550
2026-01-04 03:29:23.44	26.52	4.27	-57.8	-76.4	3.8	7.47e-01	0	27	104	0	83	32217
2026-01-04 03:29:24.44	26.48	4.34	-57.8	-76.3	3.8	7.46e-01	0	27	104	0	83	31945
2026-01-04 03:29:25.43	26.45	4.41	-57.7	-76.0	3.8	7.47e-01	0	27	104	0	83	30957
2026-01-04 03:29:26.43	26.41	4.48	-57.6	-75.5	3.8	7.50e-01	0	27	104	0	83	29014
2026-01-04 03:29:27.44	26.37	4.55	-57.5	-74.8	3.8	7.45e-01	0	27	104	0	83	26951
2026-01-04 03:29:28.44	26.33	4.62	-57.3	-74.1	3.8	7.47e-01	0	27	104	0	83	24828
2026-01-04 03:29:29.43	26.29	4.70	-57.1	-73.3	3.8	7.44e-01	0	27	104	0	83	22586
2026-01-04 03:29:30.43	26.25	4.77	-57.0	-72.8	3.8	7.43e-01	0	27	104	0	83	21408
2026-01-04 03:29:31.43	26.21	4.84	-56.7	-71.9	3.8	7.45e-01	0	28	104	0	82	20537
2026-01-04 03:29:32.43	26.17	4.91	-56.5	-71.3	3.8	7.45e-01	0	27	104	0	82	19133
2026-01-04 03:29:33.44	26.13	4.98	-56.2	-70.6	3.8	7.46e-01	0	27	104	0	81	18585
2026-01-04 03:29:34.43	26.09	5.06	-56.8	-71.7	3.8	7.48e-01	0	27	104	0	81	21150
2026-01-04 03:29:35.44	26.05	5.13	-57.3	-73.5	3.9	7.42e-01	0	27	104	0	83	23133
2026-01-04 03:29:36.43	26.01	5.20	-55.7	-69.6	3.9	7.48e-01	0	27	104	0	79	18526
2026-01-04 03:29:37.43	25.96	5.28	-57.0	-72.4	3.9	7.46e-01	0	28	104	0	82	21510
2026-01-04 03:29:38.43	25.92	5.35	-54.7	-67.5	3.9	7.46e-01	0	27	104	0	78	15478
2026-01-04 03:29:39.43	25.88	5.42	-53.9	-66.4	3.9	7.45e-01	0	28	104	0	76	15355
2026-01-04 03:29:40.43	25.84	5.50	-53.3	-65.5	3.8	7.45e-01	0	27	104	0	75	14583
2026-01-04 03:29:41.42	25.80	5.57	-53.2	-65.4	3.8	7.45e-01	0	27	104	0	75	14462
2026-01-04 03:29:42.41	25.75	5.64	-52.3	-64.0	3.9	7.40e-01	0	28	104	0	73	13874
2026-01-04 03:29:43.41	25.71	5.72	-52.0	-63.8	3.8	7.43e-01	0	27	104	0	72	14226
2026-01-04 03:29:44.41	25.67	5.79	-55.2	-68.6	3.9	7.45e-01	0	27	104	0	78	17615
2026-01-04 03:29:45.40	25.62	5.87	-57.0	-72.3	3.9	7.44e-01	0	28	104	0	82	21446
2026-01-04 03:29:46.40	25.58	5.94	-55.3	-68.7	3.9	7.46e-01	0	28	104	0	80	15776
2026-01-04 03:29:47.40	25.54	6.02	-53.7	-66.1	3.9	7.43e-01	0	27	104	0	75	15657
2026-01-04 03:29:48.40	25.49	6.09	-53.0	-65.1	3.9	7.46e-01	0	28	104	0	75	13915
2026-01-04 03:29:49.40	25.45	6.17	-52.8	-64.8	3.8	7.47e-01	0	28	104	0	74	14295
2026-01-04 03:29:50.40	25.40	6.24	-52.1	-63.9	3.9	7.46e-01	0	28	104	0	73	13653
2026-01-04 03:29:51.39	25.36	6.32	-51.9	-63.6	3.9	7.47e-01	0	27	104	0	72	13990
2026-01-04 03:29:52.39	25.31	6.40	-55.1	-68.1	3.8	7.47e-01	0	28	104	0	77	17597
2026-01-04 03:29:53.39	25.27	6.47	-57.0	-72.1	3.9	7.44e-01	0	28	104	0	83	19751
2026-01-04 03:29:54.38	25.22	6.55	-55.2	-68.2	3.9	7.44e-01	0	27	104	0	79	15856
2026-01-04 03:29:55.38	25.17	6.63	-53.5	-65.7	3.9	7.44e-01	0	27	104	0	75	15047
2026-01-04 03:29:56.38	25.13	6.70	-52.9	-64.9	3.9	7.46e-01	0	27	104	0	74	14520
2026-01-04 03:29:57.38	25.08	6.78	-52.9	-64.9	3.9	7.47e-01	0	28	104	0	74	14509
2026-01-04 03:29:58.38	25.03	6.86	-52.4	-64.4	3.8	7.44e-01	0	27	104	0	74	13596
2026-01-04 03:29:59.37	24.99	6.94	-52.4	-64.3	3.9	7.48e-01	0	28	104	0	73	14220
2026-01-04 03:30:00.37	24.94	7.01	-54.8	-67.6	3.9	7.44e-01	0	28	104	0	77	16602
2026-01-04 03:30:01.37	24.89	7.09	-57.1	-72.3	3.9	7.45e-01	0	28	104	0	83	20098
2026-01-04 03:30:02.37	24.84	7.17	-56.0	-69.9	3.9	7.47e-01	0	28	104	0	81	17119
2026-01-04 03:30:03.36	24.79	7.25	-53.4	-65.5	3.9	7.45e-01	0	28	104	0	75	14674
2026-01-04 03:30:04.36	24.74	7.33	-52.6	-64.5	3.9	7.44e-01	0	28	104	0	74	13765
2026-01-04 03:30:05.36	24.70	7.41	-52.3	-64.1	3.9	7.46e-01	0	28	104	0	73	13995
2026-01-04 03:30:06.34	24.65	7.49	-51.8	-63.5	3.9	7.44e-01	0	28	104	0	72	13833
2026-01-04 03:30:07.34	24.60	7.57	-52.6	-64.6	3.9	7.45e-01	0	28	104	0	72	15592
2026-01-04 03:30:08.34	24.55	7.65	-54.7	-67.2	3.8	7.50e-01	0	28	104	0	76	16796
2026-01-04 03:30:09.34	24.50	7.73	-57.1	-72.1	3.9	7.43e-01	0	28	104	0	83	19758
2026-01-04 03:30:10.33	24.45	7.81	-55.9	-69.7	3.9	7.45e-01	0	28	104	0	81	16704
2026-01-04 03:30:11.33	24.39	7.89	-53.1	-65.2	3.9	7.45e-01	0	28	104	0	74	14886
2026-01-04 03:30:12.32	24.34	7.97	-52.5	-64.3	3.9	7.45e-01	0	28	104	0	74	13569
2026-01-04 03:30:13.32	24.29	8.05	-52.0	-63.8	3.9	7.43e-01	0	28	104	0	73	13500
2026-01-04 03:30:14.31	24.24	8.13	-51.4	-63.1	3.9	7.49e-01	0	28	104	0	72	13172
2026-01-04 03:30:15.31	24.19	8.22	-51.8	-63.5	3.9	7.43e-01	0	28	104	0	72	13800
2026-01-04 03:30:16.31	24.13	8.30	-54.0	-66.3	3.8	7.47e-01	0	28	104	0	75	16116
2026-01-04 03:30:17.30	24.08	8.38	-57.2	-72.4	3.9	7.44e-01	0	28	104	0	83	20450
2026-01-04 03:30:18.30	24.03	8.46	-56.8	-71.0	3.9	7.42e-01	0	28	104	0	82	18413
2026-01-04 03:30:19.29	23.97	8.55	-52.9	-64.9	3.9	7.46e-01	0	28	104	0	73	15366
2026-01-04 03:30:20.28	23.92	8.63	-52.1	-63.9	3.9	7.47e-01	0	28	104	0	73	13667
2026-01-04 03:30:21.28	23.86	8.71	-52.1	-63.8	3.9	7.47e-01	0	28	104	0	73	13476
2026-01-04 03:30:22.29	23.81	8.80	-51.7	-63.3	3.8	7.48e-01	0	28	104	0	72	13514
2026-01-04 03:30:23.28	23.75	8.88	-52.6	-64.4	3.9	7.45e-01	0	28	104	0	73	14503
2026-01-04 03:30:24.28	23.70	8.97	-54.1	-66.4	3.8	7.44e-01	0	28	104	0	75	16198
2026-01-04 03:30:25.28	23.64	9.05	-57.2	-72.2	3.9	7.46e-01	0	28	104	0	83	20013
2026-01-04 03:30:26.27	23.59	9.14	-57.5	-72.7	3.9	7.42e-01	0	28	104	0	84	20067
2026-01-04 03:30:27.27	23.53	9.22	-52.8	-64.7	3.9	7.48e-01	0	28	104	0	73	14965
2026-01-04 03:30:28.26	23.47	9.31	-52.0	-63.7	3.8	7.49e-01	0	28	104	0	73	13379
2026-01-04 03:30:29.26	23.41	9.39	-51.7	-63.4	3.8	7.48e-01	0	28	104	0	72	13623
2026-01-04 03:30:30.26	23.36	9.48	-51.2	-62.7	3.9	7.45e-01	0	28	104	0	71	13356
2026-01-04 03:30:31.26	23.30	9.57	-51.6	-63.3	3.9	7.48e-01	0	28	104	0	71	14226
2026-01-04 03:30:32.26	23.24	9.65	-53.5	-65.5	3.9	7.45e-01	0	28	104	0	74	15498
2026-01-04 03:30:33.26	23.18	9.74	-57.4	-72.8	3.9	7.43e-01	0	28	104	0	83	21451
2026-01-04 03:30:34.25	23.12	9.83	-57.7	-73.1	4.0	7.46e-01	0	28	104	0	84	20938
2026-01-04 03:30:35.26	23.06	9.92	-52.6	-64.5	3.9	7.45e-01	0	28	104	0	73	14555
2026-01-04 03:30:36.26	23.00	10.01	-51.8	-63.4	3.9	7.42e-01	0	28	104	0	72	13700
2026-01-04 03:30:37.24	22.94	10.09	-51.5	-63.0	3.9	7.47e-01	0	28	104	0	72	13095
2026-01-04 03:30:38.24	22.88	10.18	-51.1	-62.6	3.9	7.45e-01	0	28	104	0	71	13189
2026-01-04 03:30:39.25	22.81	10.27	-52.2	-63.9	3.9	7.43e-01	0	28	104	0	72	14471
2026-01-04 03:30:40.24	22.75	10.36	-53.6	-65.6	3.9	7.45e-01	0	28	104	0	74	15677
2026-01-04 03:30:41.24	22.69	10.45	-57.4	-72.6	3.9	7.50e-01	0	28	104	0	83	20883
2026-01-04 03:30:42.24	22.63	10.54	-57.6	-72.8	4.0	7.47e-01	0	28	104	0	84	20184
2026-01-04 03:30:43.24	22.56	10.63	-52.4	-64.2	3.9	7.48e-01	0	28	104	0	72	14904
2026-01-04 03:30:44.24	22.50	10.73	-51.9	-63.6	3.9	7.43e-01	0	28	104	0	72	13906
2026-01-04 03:30:45.24	22.43	10.82	-51.3	-62.8	3.9	7.44e-01	0	28	104	0	71	13473
2026-01-04 03:30:46.24	22.37	10.91	-50.7	-62.1	3.9	7.42e-01	0	28	104	0	70	13254
2026-01-04 03:30:47.24	22.30	11.00	-50.7	-62.2	3.9	7.44e-01	0	28	104	0	70	13320
2026-01-04 03:30:48.24	22.24	11.09	-53.3	-65.3	3.8	7.46e-01	0	28	104	0	74	15213
2026-01-04 03:30:49.25	22.17	11.19	-57.3	-72.3	3.9	7.45e-01	0	28	104	0	83	20207
2026-01-04 03:30:50.25	22.10	11.28	-57.8	-73.1	4.0	7.42e-01	0	28	104	0	84	20845
2026-01-04 03:30:51.25	22.03	11.37	-52.1	-63.8	3.9	7.46e-01	0	28	104	0	72	14236
2026-01-04 03:30:52.26	21.97	11.47	-51.5	-63.1	3.9	7.46e-01	0	28	104	0	72	13127
2026-01-04 03:30:53.26	21.90	11.56	-51.3	-62.8	3.8	7.46e-01	0	28	104	0	71	13518
2026-01-04 03:30:54.26	21.83	11.66	-50.7	-62.2	3.9	7.45e-01	0	28	104	0	70	13268
2026-01-04 03:30:55.25	21.76	11.75	-51.0	-62.5	3.8	7.46e-01	0	28	104	0	70	13839
2026-01-04 03:30:56.25	21.69	11.85	-53.1	-65.0	3.9	7.45e-01	0	28	104	0	73	15421
2026-01-04 03:30:57.24	21.62	11.94	-57.3	-72.2	3.9	7.43e-01	0	28	104	0	83	19946
2026-01-04 03:30:58.24	21.55	12.04	-57.7	-72.8	4.0	7.45e-01	0	28	104	0	84	20277
2026-01-04 03:30:59.24	21.48	12.13	-51.8	-63.4	3.8	7.45e-01	0	28	104	0	71	14375
2026-01-04 03:31:00.24	21.40	12.23	-51.3	-62.8	3.8	7.47e-01	0	28	104	0	71	13418
2026-01-04 03:31:01.24	21.33	12.33	-50.7	-62.1	3.9	7.46e-01	0	28	104	0	70	13125
2026-01-04 03:31:02.24	21.26	12.43	-50.2	-61.5	3.9	7.44e-01	0	28	104	0	69	13104
2026-01-04 03:31:03.24	21.19	12.53	-50.3	-61.6	3.9	7.45e-01	0	28	104	0	69	13211
2026-01-04 03:31:04.23	21.11	12.62	-53.2	-65.4	3.8	7.45e-01	0	28	104	0	74	15344
2026-01-04 03:31:05.23	21.04	12.72	-57.2	-71.9	3.9	7.43e-01	0	28	104	0	83	19343
2026-01-04 03:31:06.23	20.96	12.82	-57.8	-72.9	4.0	7.45e-01	0	28	104	0	84	20352
2026-01-04 03:31:07.21	20.89	12.92	-51.6	-63.2	3.9	7.45e-01	0	28	104	0	71	14148
2026-01-04 03:31:08.21	20.81	13.02	-51.1	-62.6	3.9	7.48e-01	0	28	104	0	71	13241
2026-01-04 03:31:09.21	20.73	13.12	-50.8	-62.2	3.9	7.44e-01	0	28	104	0	70	13359
2026-01-04 03:31:10.21	20.65	13.22	-50.3	-61.6	3.9	7.46e-01	0	28	104	0	69	13260
2026-01-04 03:31:11.20	20.58	13.32	-50.7	-62.1	3.9	7.47e-01	0	28	104	0	69	13950
2026-01-04 03:31:12.19	20.50	13.42	-52.8	-64.6	3.8	7.46e-01	0	28	104	0	73	14817
2026-01-04 03:31:13.19	20.42	13.52	-57.4	-72.4	3.9	7.43e-01	0	28	104	0	83	20421
2026-01-04 03:31:14.18	20.34	13.62	-58.4	-74.9	4.0	7.41e-01	0	28	104	0	85	24206
2026-01-04 03:31:15.18	20.26	13.73	-51.6	-63.1	3.9	7.46e-01	0	28	104	0	71	13966
2026-01-04 03:31:16.18	20.18	13.83	-51.0	-62.4	3.9	7.47e-01	0	28	104	0	71	12958
2026-01-04 03:31:17.21	20.09	13.94	-50.5	-61.9	3.9	7.40e-01	0	28	104	0	70	12867
2026-01-04 03:31:18.20	20.01	14.04	-50.1	-61.4	3.8	7.49e-01	0	28	104	0	69	12901
2026-01-04 03:31:19.21	19.93	14.15	-50.4	-61.7	3.9	7.45e-01	0	28	104	0	69	13356
2026-01-04 03:31:20.21	19.84	14.25	-52.8	-64.6	3.8	7.45e-01	0	28	104	0	73	14792
2026-01-04 03:31:21.21	19.76	14.36	-57.5	-72.5	3.9	7.45e-01	0	28	104	0	83	20754
2026-01-04 03:31:22.20	19.67	14.46	-58.7	-76.1	3.9	7.42e-01	0	28	104	0	85	27796
2026-01-04 03:31:23.20	19.59	14.57	-51.4	-62.9	3.9	7.42e-01	0	28	104	0	71	13682
2026-01-04 03:31:24.20	19.50	14.68	-50.9	-62.3	3.9	7.45e-01	0	28	104	0	71	12752
2026-01-04 03:31:25.20	19.41	14.78	-50.7	-62.1	3.9	7.44e-01	0	28	104	0	70	13204
2026-01-04 03:31:26.19	19.33	14.89	-50.2	-61.5	3.9	7.47e-01	0	28	104	0	69	13021
2026-01-04 03:31:27.19	19.24	15.00	-50.7	-62.1	3.8	7.47e-01	0	28	104	0	69	14004
2026-01-04 03:31:28.19	19.15	15.11	-52.8	-64.5	3.8	7.48e-01	0	28	104	0	73	14698
2026-01-04 03:31:29.19	19.06	15.22	-57.6	-72.8	3.9	7.42e-01	0	28	104	0	83	21302
2026-01-04 03:31:30.19	18.97	15.33	-58.7	-75.9	3.9	7.44e-01	0	28	104	0	85	27246
2026-01-04 03:31:31.18	18.87	15.44	-51.3	-62.8	3.9	7.48e-01	0	28	104	0	71	13479
2026-01-04 03:31:32.18	18.78	15.55	-51.0	-62.4	3.9	7.44e-01	0	28	104	0	71	12920
2026-01-04 03:31:33.18	18.69	15.66	-50.7	-62.1	3.8	7.42e-01	0	28	104	0	70	13188
2026-01-04 03:31:34.17	18.60	15.77	-50.2	-61.5	3.9	7.45e-01	0	28	104	0	69	13086
2026-01-04 03:31:35.17	18.50	15.88	-49.9	-61.2	3.8	7.46e-01	0	28	104	0	68	13296
2026-01-04 03:31:36.17	18.40	15.99	-52.7	-64.6	3.9	7.44e-01	0	28	104	0	73	14806
2026-01-04 03:31:37.17	18.31	16.11	-57.6	-72.6	3.9	7.44e-01	0	28	104	0	83	20783
2026-01-04 03:31:38.18	18.21	16.22	-58.7	-76.1	3.9	7.44e-01	0	28	104	0	85	27972
2026-01-04 03:31:39.17	18.11	16.33	-51.1	-62.5	3.9	7.43e-01	0	28	104	0	70	13759
2026-01-04 03:31:40.18	18.01	16.45	-50.8	-62.2	3.9	7.43e-01	0	28	104	0	70	13263
2026-01-04 03:31:41.18	17.91	16.56	-50.4	-61.8	3.9	7.47e-01	0	28	104	0	70	12702
2026-01-04 03:31:42.18	17.81	16.68	-50.0	-61.3	3.9	7.44e-01	0	28	104	0	69	12784
2026-01-04 03:31:43.18	17.71	16.80	-49.7	-61.0	3.8	7.51e-01	0	28	104	0	68	13054
2026-01-04 03:31:44.17	17.61	16.91	-52.5	-64.3	3.9	7.48e-01	0	28	104	0	72	15056
2026-01-04 03:31:45.17	17.51	17.03	-57.6	-72.5	3.9	7.47e-01	0	28	104	0	83	20615
2026-01-04 03:31:46.17	17.40	17.15	-58.9	-76.4	3.9	7.42e-01	0	28	104	0	86	27202
2026-01-04 03:31:47.17	17.30	17.27	-50.9	-62.4	3.8	7.45e-01	0	28	104	0	70	13597
2026-01-04 03:31:48.17	17.19	17.38	-50.7	-62.0	3.8	7.44e-01	0	28	104	0	70	13062
2026-01-04 03:31:49.16	17.08	17.50	-50.4	-61.7	3.8	7.45e-01	0	28	104	0	70	12592
2026-01-04 03:31:50.16	16.98	17.62	-50.0	-61.3	3.9	7.43e-01	0	28	104	0	69	12690
2026-01-04 03:31:51.16	16.87	17.74	-49.9	-61.1	3.8	7.45e-01	0	28	104	0	68	13251
2026-01-04 03:31:52.15	16.76	17.86	-52.5	-64.1	3.8	7.46e-01	0	28	104	0	72	14860
2026-01-04 03:31:53.15	16.65	17.98	-57.8	-72.9	3.8	7.44e-01	0	28	104	0	83	21726
2026-01-04 03:31:54.15	16.54	18.11	-58.9	-76.5	3.9	7.42e-01	0	28	104	0	86	27705
2026-01-04 03:31:55.15	16.42	18.23	-51.0	-62.4	3.8	7.47e-01	0	28	104	0	70	13644
2026-01-04 03:31:56.15	16.31	18.35	-50.6	-61.9	3.8	7.45e-01	0	28	104	0	70	12959
2026-01-04 03:31:57.15	16.20	18.48	-50.6	-61.9	3.8	7.45e-01	0	28	104	0	70	12918
2026-01-04 03:31:58.15	16.08	18.60	-50.2	-61.4	3.8	7.45e-01	0	28	104	0	69	12959
2026-01-04 03:31:59.14	15.97	18.72	-51.1	-62.6	3.9	7.46e-01	0	29	104	0	70	13892
2026-01-04 03:32:00.15	15.85	18.85	-52.5	-64.2	3.8	7.45e-01	0	28	104	0	72	14978
2026-01-04 03:32:01.15	15.73	18.98	-57.8	-73.0	3.8	7.46e-01	0	29	104	0	83	21924
2026-01-04 03:32:02.15	15.61	19.10	-59.2	-77.5	3.8	7.47e-01	0	29	104	0	86	30931
2026-01-04 03:32:03.15	15.49	19.23	-51.0	-62.4	3.8	7.46e-01	0	29	104	0	70	13671
2026-01-04 03:32:04.14	15.37	19.36	-50.6	-62.1	3.8	7.44e-01	0	28	104	0	70	13112
2026-01-04 03:32:05.14	15.24	19.49	-50.3	-61.6	3.9	7.47e-01	0	28	104	0	69	13241
2026-01-04 03:32:06.15	15.12	19.62	-50.3	-61.7	3.8	7.48e-01	0	28	104	0	69	13266
2026-01-04 03:32:07.15	14.99	19.75	-50.2	-61.6	3.8	7.49e-01	0	28	104	0	69	13129
2026-01-04 03:32:08.14	14.87	19.87	-52.7	-64.4	3.9	7.45e-01	0	29	104	0	73	14407
2026-01-04 03:32:09.14	14.74	20.00	-57.9	-73.0	3.8	7.48e-01	0	29	104	0	83	22000
2026-01-04 03:32:10.14	14.61	20.14	-59.2	-77.6	3.8	7.44e-01	0	28	104	0	86	31263
2026-01-04 03:32:11.14	14.48	20.27	-50.9	-62.3	3.9	7.42e-01	0	28	104	0	70	13421
2026-01-04 03:32:12.15	14.35	20.40	-50.7	-62.1	3.8	7.46e-01	0	28	104	0	70	13202
2026-01-04 03:32:13.15	14.21	20.54	-50.8	-62.2	3.8	7.46e-01	0	28	104	0	70	13372
2026-01-04 03:32:14.14	14.08	20.67	-50.8	-62.2	3.9	7.46e-01	0	28	104	0	70	13413
2026-01-04 03:32:15.14	13.95	20.80	-50.3	-61.6	3.9	7.46e-01	0	28	104	0	69	13223
2026-01-04 03:32:16.13	13.81	20.94	-55.0	-67.5	3.9	7.47e-01	0	28	104	0	77	16350
2026-01-04 03:32:17.13	13.67	21.07	-58.8	-75.4	3.8	7.46e-01	0	28	104	0	85	25636
2026-01-04 03:32:18.12	13.54	21.21	-51.3	-62.8	3.9	7.46e-01	0	28	104	0	71	13468
2026-01-04 03:32:19.11	13.40	21.34	-57.8	-72.7	3.8	7.46e-01	0	28	104	0	83	21184
2026-01-04 03:32:20.11	13.25	21.48	-51.5	-63.0	3.9	7.44e-01	0	28	104	0	72	13029
2026-01-04 03:32:21.11	13.11	21.62	-51.2	-62.6	3.8	7.45e-01	0	28	104	0	71	13213
2026-01-04 03:32:22.10	12.97	21.76	-51.0	-62.4	3.9	7.42e-01	0	29	104	0	71	12931
2026-01-04 03:32:23.09	12.82	21.89	-59.0	-76.3	3.8	7.44e-01	0	29	104	0	85	28412
2026-01-04 03:32:24.09	12.68	22.03	-53.0	-64.8	3.8	7.44e-01	0	28	104	0	75	13432
2026-01-04 03:32:25.08	12.53	22.17	-58.3	-73.7	3.8	7.43e-01	0	28	104	0	84	22433
2026-01-04 03:32:26.08	12.38	22.31	-59.4	-78.1	3.8	7.45e-01	0	29	104	0	86	33251
2026-01-04 03:32:27.08	12.23	22.46	-51.0	-62.4	3.8	7.48e-01	0	29	104	0	70	13622
2026-01-04 03:32:28.08	12.08	22.60	-50.8	-62.1	3.8	7.44e-01	0	28	104	0	70	13207
2026-01-04 03:32:29.07	11.92	22.74	-50.6	-62.0	3.9	7.47e-01	0	29	104	0	70	12981
2026-01-04 03:32:30.06	11.77	22.88	-50.5	-61.9	3.9	7.48e-01	0	29	104	0	70	12897
2026-01-04 03:32:31.06	11.61	23.03	-51.7	-63.2	3.8	7.43e-01	0	29	104	0	71	14166
2026-01-04 03:32:32.06	11.45	23.17	-53.1	-64.9	3.9	7.47e-01	0	28	104	0	74	14394
2026-01-04 03:32:33.06	11.29	23.32	-58.3	-73.6	3.9	7.44e-01	0	28	104	0	84	22138
2026-01-04 03:32:34.06	11.13	23.47	-59.4	-78.1	3.8	7.43e-01	0	29	104	0	86	33232
2026-01-04 03:32:35.05	10.96	23.61	-50.9	-62.3	3.9	7.47e-01	0	29	104	0	70	13463
2026-01-04 03:32:36.05	10.80	23.76	-50.8	-62.2	3.8	7.45e-01	0	29	104	0	70	13345
2026-01-04 03:32:37.04	10.63	23.91	-50.7	-62.0	3.9	7.47e-01	0	29	104	0	70	13104
2026-01-04 03:32:38.03	10.47	24.05	-50.5	-61.8	3.8	7.44e-01	0	29	104	0	70	12759
2026-01-04 03:32:39.03	10.30	24.20	-51.0	-62.4	3.9	7.41e-01	0	29	104	0	70	13572
2026-01-04 03:32:40.03	10.12	24.35	-53.3	-65.1	3.8	7.46e-01	0	28	104	0	74	14844
2026-01-04 03:32:41.03	9.95	24.51	-58.5	-74.0	3.8	7.44e-01	0	29	104	0	84	23235
2026-01-04 03:32:42.04	9.77	24.66	-59.5	-78.1	3.8	7.50e-01	0	29	104	0	86	33202
2026-01-04 03:32:43.04	9.59	24.81	-51.4	-62.8	3.9	7.43e-01	0	29	104	0	71	13516
2026-01-04 03:32:44.04	9.41	24.97	-51.2	-62.7	3.9	7.47e-01	0	28	104	0	71	13306
2026-01-04 03:32:45.04	9.23	25.12	-51.0	-62.4	3.9	7.44e-01	0	29	104	0	71	12836
2026-01-04 03:32:46.04	9.05	25.27	-50.7	-62.1	3.9	7.45e-01	0	29	104	0	70	13151
2026-01-04 03:32:47.04	8.86	25.43	-50.7	-62.0	3.9	7.44e-01	0	29	104	0	70	13085
2026-01-04 03:32:48.03	8.68	25.58	-53.1	-64.9	3.9	7.47e-01	0	29	104	0	74	14378
2026-01-04 03:32:49.03	8.49	25.74	-58.4	-73.8	3.8	7.48e-01	0	29	104	0	84	22558
2026-01-04 03:32:50.02	8.30	25.90	-59.5	-78.1	3.8	7.46e-01	0	29	104	0	86	33203
2026-01-04 03:32:51.02	8.10	26.05	-51.0	-62.3	3.8	7.43e-01	0	28	104	0	70	13485
2026-01-04 03:32:52.02	7.91	26.21	-50.8	-62.1	3.8	7.46e-01	0	28	104	0	70	13242
2026-01-04 03:32:53.02	7.71	26.37	-50.6	-61.9	3.9	7.46e-01	0	28	104	0	70	12845
2026-01-04 03:32:54.02	7.51	26.53	-50.3	-61.6	3.9	7.45e-01	0	29	104	0	69	13206
2026-01-04 03:32:55.02	7.31	26.69	-50.4	-61.7	3.8	7.46e-01	0	29	104	0	69	13357
2026-01-04 03:32:56.02	7.11	26.85	-53.1	-64.9	3.9	7.43e-01	0	29	104	0	74	14449
2026-01-04 03:32:57.01	6.90	27.01	-58.5	-73.9	3.8	7.44e-01	0	29	104	0	84	22921
2026-01-04 03:32:58.01	6.69	27.17	-59.5	-78.1	3.8	7.44e-01	0	28	104	0	86	33236
2026-01-04 03:32:59.01	6.48	27.34	-51.0	-62.4	3.8	7.46e-01	0	29	104	0	70	13577
2026-01-04 03:33:00.00	6.27	27.50	-50.8	-62.1	3.8	7.46e-01	0	29	104	0	70	13225
2026-01-04 03:33:01.01	6.06	27.66	-50.8	-62.1	3.9	7.46e-01	0	29	104	0	70	13165
2026-01-04 03:33:02.01	5.84	27.83	-50.5	-61.8	3.8	7.48e-01	0	29	104	0	70	12729
2026-01-04 03:33:03.01	5.62	28.00	-52.4	-64.0	3.8	7.47e-01	0	29	104	0	72	14599
2026-01-04 03:33:04.00	5.40	28.16	-52.8	-64.6	3.8	7.47e-01	0	28	104	0	73	14748
2026-01-04 03:33:05.01	5.17	28.33	-58.4	-73.6	3.9	7.47e-01	0	29	104	0	84	22046
2026-01-04 03:33:06.00	4.95	28.49	-59.6	-78.1	3.8	7.49e-01	0	29	104	0	86	33009
2026-01-04 03:33:07.00	4.72	28.66	-50.6	-61.9	3.8	7.46e-01	0	29	104	0	70	12931
2026-01-04 03:33:08.00	4.48	28.83	-50.4	-61.7	3.8	7.49e-01	0	29	104	0	70	12661
2026-01-04 03:33:09.00	4.25	29.00	-50.4	-61.7	3.8	7.47e-01	0	28	104	0	69	13330
2026-01-04 03:33:09.99	4.01	29.17	-50.3	-61.5	3.9	7.44e-01	0	28	104	0	69	13045
2026-01-04 03:33:10.99	3.77	29.34	-51.0	-62.3	3.9	7.42e-01	0	29	104	0	69	14340
2026-01-04 03:33:11.99	3.53	29.51	-54.5	-66.5	3.9	7.48e-01	0	28	104	0	76	15457
2026-01-04 03:33:12.98	3.29	29.68	-59.2	-76.0	3.9	7.43e-01	0	29	104	0	86	25970
2026-01-04 03:33:13.98	3.04	29.85	-50.2	-61.5	3.9	7.46e-01	0	29	104	0	69	13044
2026-01-04 03:33:14.97	2.79	30.02	-57.9	-72.3	3.9	7.49e-01	0	29	104	0	83	20156
2026-01-04 03:33:15.96	2.54	30.19	-50.0	-61.3	3.9	7.41e-01	0	29	104	0	69	12673
2026-01-04 03:33:16.95	2.29	30.36	-49.7	-60.9	3.8	7.46e-01	0	29	104	0	68	12870
2026-01-04 03:33:17.94	2.03	30.53	-49.5	-60.7	3.8	7.46e-01	0	29	104	0	68	12530
2026-01-04 03:33:18.94	1.77	30.71	-57.7	-72.0	3.8	7.48e-01	0	29	104	0	83	19443
2026-01-04 03:33:19.94	1.50	30.88	-53.0	-64.6	3.8	7.45e-01	0	29	104	0	75	13216
2026-01-04 03:33:20.94	1.23	31.06	-58.4	-73.3	3.8	7.48e-01	0	29	104	0	84	21271
2026-01-04 03:33:21.93	0.97	31.23	-59.7	-78.2	3.8	7.46e-01	0	29	104	0	87	31778
2026-01-04 03:33:22.94	0.69	31.41	-50.2	-61.4	3.8	7.45e-01	0	29	104	0	69	12911
2026-01-04 03:33:23.93	0.41	31.58	-50.0	-61.3	3.8	7.43e-01	0	29	104	0	69	12726
2026-01-04 03:33:24.93	0.13	31.76	-49.9	-61.2	3.8	7.46e-01	0	29	104	0	69	12563
2026-01-04 03:33:25.93	359.85	31.94	-49.8	-61.0	3.9	7.45e-01	0	29	104	0	68	13009
2026-01-04 03:33:26.93	359.56	32.11	-50.5	-61.9	3.8	7.45e-01	0	29	104	0	68	14389
2026-01-04 03:33:27.93	359.27	32.29	-52.8	-64.5	3.8	7.47e-01	0	29	104	0	73	14660
2026-01-04 03:33:28.92	358.98	32.47	-58.5	-73.3	3.8	7.44e-01	0	29	104	0	84	21432
2026-01-04 03:33:29.92	358.68	32.64	-59.7	-78.1	3.8	7.48e-01	0	29	104	0	87	31345
2026-01-04 03:33:30.92	358.38	32.82	-50.6	-61.9	3.8	7.42e-01	0	29	104	0	70	12915
2026-01-04 03:33:31.91	358.08	33.00	-50.5	-61.8	3.8	7.46e-01	0	29	104	0	70	12689
2026-01-04 03:33:32.92	357.77	33.18	-50.2	-61.4	3.9	7.43e-01	0	29	104	0	69	12858
2026-01-04 03:33:33.91	357.46	33.36	-50.0	-61.3	3.9	7.45e-01	0	29	104	0	69	12715
2026-01-04 03:33:34.91	357.15	33.54	-51.2	-62.6	3.8	7.42e-01	0	29	104	0	70	13968
2026-01-04 03:33:35.91	356.83	33.72	-53.4	-65.3	3.8	7.48e-01	0	29	104	0	74	15103
2026-01-04 03:33:36.91	356.51	33.90	-58.7	-74.0	3.8	7.44e-01	0	29	104	0	85	21800
2026-01-04 03:33:37.91	356.18	34.08	-59.8	-78.2	3.8	7.48e-01	0	29	104	0	87	31552
2026-01-04 03:33:38.91	355.86	34.25	-50.8	-62.1	3.8	7.45e-01	0	29	104	0	70	13151
2026-01-04 03:33:39.92	355.52	34.44	-50.9	-62.2	3.8	7.45e-01	0	28	104	0	70	13383
2026-01-04 03:33:40.92	355.18	34.62	-50.8	-62.2	3.8	7.49e-01	0	29	104	0	70	13263
2026-01-04 03:33:41.92	354.84	34.80	-50.7	-62.1	3.9	7.46e-01	0	29	104	0	70	13126
2026-01-04 03:33:42.92	354.50	34.98	-51.3	-62.6	3.8	7.45e-01	0	29	104	0	70	14006
2026-01-04 03:33:43.91	354.15	35.15	-53.7	-65.5	3.8	7.47e-01	0	29	104	0	75	14670
2026-01-04 03:33:44.91	353.80	35.33	-58.9	-74.4	3.8	7.46e-01	0	29	104	0	85	22936
2026-01-04 03:33:45.91	353.44	35.51	-59.9	-78.4	3.8	7.47e-01	0	29	104	0	87	32405
2026-01-04 03:33:46.90	353.09	35.69	-51.5	-62.9	3.9	7.49e-01	0	29	104	0	72	12899
2026-01-04 03:33:47.90	352.72	35.87	-51.5	-62.9	3.8	7.46e-01	0	29	104	0	72	12905
2026-01-04 03:33:48.89	352.36	36.05	-51.3	-62.7	3.8	7.44e-01	0	29	104	0	71	13339
2026-01-04 03:33:49.89	351.98	36.22	-51.0	-62.3	3.8	7.48e-01	0	29	104	0	71	12809
2026-01-04 03:33:50.89	351.61	36.40	-53.1	-64.7	3.8	7.49e-01	0	29	104	0	73	14914
2026-01-04 03:33:51.89	351.22	36.58	-54.4	-66.5	3.8	7.45e-01	0	29	104	0	76	15441
2026-01-04 03:33:52.89	350.84	36.76	-59.1	-74.8	3.8	7.47e-01	0	29	104	0	85	23923
2026-01-04 03:33:53.89	350.45	36.93	-60.0	-78.7	3.8	7.48e-01	0	29	104	0	87	33525
2026-01-04 03:33:54.88	350.06	37.11	-51.9	-63.3	3.8	7.46e-01	0	29	104	0	72	13443
2026-01-04 03:33:55.88	349.66	37.28	-51.8	-63.2	3.8	7.44e-01	0	29	104	0	72	13338
2026-01-04 03:33:56.88	349.25	37.46	-51.6	-62.9	3.8	7.47e-01	0	29	104	0	72	12941
2026-01-04 03:33:57.87	348.85	37.63	-51.5	-62.9	3.8	7.47e-01	0	29	104	0	72	12868
2026-01-04 03:33:58.87	348.44	37.80	-53.0	-64.6	3.8	7.44e-01	0	29	104	0	73	14812
2026-01-04 03:33:59.87	348.02	37.98	-54.8	-66.9	3.8	7.47e-01	0	29	104	0	77	15342
2026-01-04 03:34:00.86	347.60	38.15	-59.3	-75.5	3.8	7.49e-01	0	29	104	0	86	24527
2026-01-04 03:34:01.86	347.18	38.32	-60.0	-78.8	3.8	7.47e-01	0	29	104	0	87	33993
2026-01-04 03:34:02.86	346.75	38.49	-51.8	-63.2	3.8	7.48e-01	0	29	104	0	72	13392
2026-01-04 03:34:03.86	346.31	38.66	-51.7	-63.1	3.9	7.45e-01	0	29	104	0	72	13200
2026-01-04 03:34:04.87	345.87	38.83	-52.1	-63.6	3.8	7.44e-01	0	29	104	0	72	14008
2026-01-04 03:34:05.86	345.43	39.00	-52.0	-63.4	3.8	7.44e-01	0	29	104	0	72	13642
2026-01-04 03:34:06.85	344.98	39.16	-53.3	-65.0	3.8	7.42e-01	0	28	104	0	74	14613
2026-01-04 03:34:07.86	344.52	39.33	-55.4	-67.8	3.8	7.46e-01	0	29	104	0	78	15977
2026-01-04 03:34:08.85	344.07	39.49	-59.8	-77.4	3.8	7.45e-01	0	29	104	0	87	28890
2026-01-04 03:34:09.84	343.61	39.65	-51.8	-63.0	3.8	7.43e-01	0	29	104	0	72	12961
2026-01-04 03:34:10.84	343.14	39.81	-58.5	-73.1	3.8	7.45e-01	0	29	104	0	84	20777
2026-01-04 03:34:11.84	342.67	39.97	-52.2	-63.7	3.8	7.47e-01	0	29	104	0	73	13261
2026-01-04 03:34:12.84	342.19	40.13	-52.0	-63.5	3.8	7.45e-01	0	29	104	0	73	13081
2026-01-04 03:34:13.84	341.71	40.29	-51.8	-63.2	3.8	7.46e-01	0	29	104	0	72	13347
2026-01-04 03:34:14.83	341.23	40.44	-59.1	-74.7	3.8	7.47e-01	0	29	104	0	85	23664
2026-01-04 03:34:15.83	340.73	40.60	-55.3	-67.5	3.9	7.44e-01	0	29	104	0	79	14598
2026-01-04 03:34:16.84	340.23	40.75	-59.4	-75.5	3.8	7.48e-01	0	29	104	0	86	24481
2026-01-04 03:34:17.83	339.74	40.90	-60.1	-79.1	3.8	7.44e-01	0	29	104	0	87	34913
2026-01-04 03:34:18.83	339.23	41.05	-51.7	-63.1	3.8	7.50e-01	0	29	104	0	72	13187
2026-01-04 03:34:19.83	338.72	41.20	-51.6	-63.0	3.8	7.46e-01	0	29	104	0	72	13073
2026-01-04 03:34:20.83	338.20	41.34	-51.7	-63.1	3.9	7.43e-01	0	29	104	0	72	13164
2026-01-04 03:34:21.82	337.69	41.48	-51.5	-62.8	3.8	7.47e-01	0	29	104	0	72	12789
2026-01-04 03:34:22.82	337.16	41.62	-53.9	-65.8	3.8	7.47e-01	0	28	104	0	75	15055
2026-01-04 03:34:23.81	336.63	41.76	-54.7	-66.9	3.9	7.48e-01	0	29	104	0	77	15287
2026-01-04 03:34:24.81	336.10	41.90	-59.3	-67.1	10.5	6.12e-01	0	29	0	1048576	86	9385
2026-01-04 03:34:25.80	335.57	42.03	-60.2	-76.0	4.3	7.38e-01	0	29	104	2621440	88	23170
2026-01-04 03:34:26.80	335.02	42.16	-51.5	-53.1	15.5	6.00e-01	0	29	0	3145728	72	4192
2026-01-04 03:34:27.80	334.47	42.29	-51.3	-53.0	15.6	6.02e-01	0	29	0	5242880	71	4344
2026-01-04 03:34:28.80	333.92	42.42	-51.4	-53.1	15.5	6.03e-01	0	29	0	6815744	71	4438
2026-01-04 03:34:29.79	333.37	42.54	-51.2	-52.9	15.6	6.01e-01	0	29	0	8912896	71	4300
2026-01-04 03:34:30.78	332.81	42.66	-51.1	-52.8	15.6	6.00e-01	0	29	0	10485760	71	4265
2026-01-04 03:34:31.79	332.24	42.78	-51.0	-52.7	15.7	6.02e-01	0	29	0	12582912	71	4206
2026-01-04 03:34:32.79	331.67	42.90	-50.8	-52.5	15.6	6.01e-01	0	29	0	14680064	70	4348
2026-01-04 03:34:33.78	331.10	43.01	-51.3	-53.0	15.5	6.03e-01	0	29	0	16252928	70	4603
2026-01-04 03:34:34.78	330.52	43.12	-51.0	-52.7	15.5	5.97e-01	0	29	0	18350080	70	4469
2026-01-04 03:34:35.77	329.94	43.23	-51.0	-52.7	15.5	6.03e-01	0	29	0	19922944	70	4463
2026-01-04 03:34:36.77	329.36	43.34	-51.0	-52.6	15.5	6.00e-01	0	29	0	22020096	70	4429
2026-01-04 03:34:37.77	328.77	43.44	-50.9	-52.5	15.6	6.02e-01	0	29	0	23592960	70	4389
2026-01-04 03:34:38.77	328.17	43.54	-51.1	-52.7	15.5	6.00e-01	0	29	0	25690112	70	4477
2026-01-04 03:34:39.77	327.57	43.63	-51.2	-52.9	15.5	6.01e-01	0	29	0	27787264	70	4562
2026-01-04 03:34:40.77	326.97	43.73	-50.9	-52.5	15.6	6.01e-01	0	29	0	29360128	70	4366
2026-01-04 03:34:41.77	326.37	43.81	-50.8	-52.4	15.6	5.99e-01	0	29	0	31457280	70	4303
2026-01-04 03:34:42.77	325.76	43.90	-51.0	-52.7	15.6	6.02e-01	0	29	0	33030144	70	4448
2026-01-04 03:34:43.78	325.14	43.98	-51.1	-52.7	15.6	5.99e-01	0	29	0	35127296	70	4493
2026-01-04 03:34:44.77	324.53	44.06	-51.0	-52.6	15.6	6.02e-01	0	29	0	36700160	70	4440
2026-01-04 03:34:45.77	323.91	44.14	-50.9	-52.5	15.6	6.01e-01	0	29	0	38797312	70	4386
2026-01-04 03:34:46.77	323.29	44.21	-50.9	-52.5	15.6	5.99e-01	0	29	0	40894464	70	4377
2026-01-04 03:34:47.77	322.67	44.28	-51.2	-52.9	15.5	6.02e-01	0	29	0	42467328	70	4573
2026-01-04 03:34:48.77	322.04	44.34	-51.3	-53.0	15.5	6.01e-01	0	29	0	44564480	70	4603
2026-01-04 03:34:49.76	321.42	44.40	-50.8	-52.3	15.6	6.02e-01	0	29	0	46137344	70	4285
2026-01-04 03:34:50.76	320.79	44.46	-51.1	-52.7	15.5	6.01e-01	0	29	0	48234496	70	4484
2026-01-04 03:34:51.76	320.15	44.51	-51.0	-52.7	15.5	6.03e-01	0	28	0	49807360	70	4446
2026-01-04 03:34:52.77	319.51	44.56	-50.7	-52.3	15.6	6.00e-01	0	29	0	51904512	70	4278
2026-01-04 03:34:53.77	318.87	44.61	-51.0	-52.6	15.6	6.00e-01	0	29	0	54001664	70	4435
2026-01-04 03:34:54.77	318.23	44.65	-50.9	-52.6	15.6	5.99e-01	0	29	0	55574528	70	4402
2026-01-04 03:34:55.77	317.59	44.69	-50.8	-52.5	15.6	6.03e-01	0	29	0	57671680	70	4347
2026-01-04 03:34:56.77	316.95	44.72	-51.0	-52.6	15.6	5.99e-01	0	29	0	59244544	70	4418
2026-01-04 03:34:57.77	316.31	44.75	-51.1	-52.8	15.5	6.00e-01	0	29	0	61341696	70	4504
2026-01-04 03:34:58.77	315.66	44.78	-50.9	-52.5	15.6	6.02e-01	0	29	0	63438848	70	4370
2026-01-04 03:34:59.78	315.01	44.80	-51.0	-52.6	15.6	6.02e-01	0	29	0	65011712	70	4400
2026-01-04 03:35:00.77	314.37	44.82	-50.9	-52.5	15.6	6.03e-01	0	29	0	67108864	70	4372
2026-01-04 03:35:01.78	313.71	44.83	-51.2	-52.9	15.5	5.98e-01	0	29	0	68681728	70	4546
2026-01-04 03:35:02.78	313.06	44.84	-51.1	-52.8	15.5	5.97e-01	0	29	0	70778880	70	4518
2026-01-04 03:35:03.77	312.42	44.85	-50.9	-52.5	15.6	5.99e-01	0	29	0	72351744	70	4371
2026-01-04 03:35:04.78	311.77	44.85	-51.3	-53.0	15.5	6.04e-01	0	29	0	74448896	70	4622
2026-01-04 03:35:05.78	311.12	44.85	-51.4	-53.0	15.5	6.00e-01	0	29	0	76546048	70	4651
2026-01-04 03:35:06.77	310.48	44.84	-50.8	-52.4	15.6	6.02e-01	0	29	0	78118912	70	4317
2026-01-04 03:35:07.78	309.82	44.83	-51.1	-52.7	15.5	6.00e-01	0	29	0	80216064	70	4480
2026-01-04 03:35:08.77	309.18	44.82	-51.1	-52.7	15.5	6.00e-01	0	29	0	81788928	70	4469
2026-01-04 03:35:09.76	308.54	44.80	-51.5	-53.2	15.4	6.01e-01	0	29	0	83886080	70	4731
2026-01-04 03:35:10.76	307.89	44.78	-51.2	-52.8	15.5	5.99e-01	0	29	0	85458944	70	4534
2026-01-04 03:35:11.76	307.25	44.75	-50.8	-52.4	15.6	6.00e-01	0	29	0	87556096	70	4295
2026-01-04 03:35:12.77	306.60	44.72	-51.2	-52.9	15.5	6.00e-01	0	29	0	89653248	70	4573
2026-01-04 03:35:13.76	305.96	44.69	-50.9	-52.6	15.6	6.01e-01	0	29	0	91226112	70	4393
2026-01-04 03:35:14.76	305.32	44.65	-50.9	-52.5	15.6	6.03e-01	0	29	0	93323264	70	4369
2026-01-04 03:35:15.76	304.68	44.61	-51.1	-52.8	15.5	6.00e-01	0	29	0	94896128	70	4497
2026-01-04 03:35:16.76	304.04	44.57	-50.9	-52.5	15.6	5.99e-01	0	29	0	96993280	70	4343
2026-01-04 03:35:17.75	303.41	44.52	-50.9	-52.4	15.6	6.01e-01	0	29	0	98566144	70	4339
2026-01-04 03:35:18.75	302.78	44.46	-51.1	-52.7	15.6	5.99e-01	0	29	0	100663296	70	4461
2026-01-04 03:35:19.75	302.14	44.41	-50.9	-52.5	15.6	6.00e-01	0	29	0	102236160	70	4357
2026-01-04 03:35:20.75	301.51	44.35	-50.9	-52.5	15.6	6.01e-01	0	29	0	104333312	70	4342
2026-01-04 03:35:21.75	300.89	44.28	-51.1	-52.7	15.6	6.02e-01	0	29	0	106430464	70	4481
2026-01-04 03:35:22.74	300.27	44.21	-51.2	-52.8	15.6	5.99e-01	0	29	0	108003328	70	4533
2026-01-04 03:35:23.73	299.65	44.14	-51.1	-52.8	15.6	5.98e-01	0	29	0	110100480	70	4495
2026-01-04 03:35:24.74	299.03	44.07	-51.0	-52.7	15.6	6.01e-01	0	29	0	111673344	70	4455
2026-01-04 03:35:25.74	298.41	43.99	-51.0	-52.7	15.5	6.02e-01	0	29	0	113770496	70	4454
2026-01-04 03:35:26.74	297.80	43.91	-50.8	-52.4	15.6	6.01e-01	0	29	0	115343360	70	4334
2026-01-04 03:35:27.73	297.20	43.82	-50.6	-52.1	15.7	6.00e-01	0	29	0	117440512	70	4174
2026-01-04 03:35:28.73	296.59	43.73	-50.3	-51.8	15.8	6.01e-01	0	29	0	119537664	69	4265
2026-01-04 03:35:29.72	295.99	43.64	-50.3	-51.7	15.7	6.03e-01	0	29	0	121110528	69	4238
2026-01-04 03:35:30.72	295.39	43.55	-50.7	-52.3	15.5	6.01e-01	0	29	0	123207680	69	4523
2026-01-04 03:35:31.72	294.80	43.45	-50.9	-52.4	15.5	5.97e-01	0	29	0	124780544	69	4594
2026-01-04 03:35:32.72	294.21	43.35	-50.9	-52.5	15.5	6.00e-01	0	29	0	126877696	69	4626
2026-01-04 03:35:33.72	293.62	43.24	-51.1	-52.7	15.5	6.01e-01	0	29	0	128974848	69	4738
2026-01-04 03:35:34.71	293.04	43.13	-50.4	-51.9	15.6	6.00e-01	0	29	0	130547712	69	4340
2026-01-04 03:35:35.72	292.46	43.02	-50.2	-51.7	15.7	6.03e-01	0	29	0	132644864	69	4211
2026-01-04 03:35:36.72	291.88	42.91	-50.0	-51.5	15.7	6.00e-01	0	29	0	134217728	69	4120
2026-01-04 03:35:37.72	291.31	42.79	-50.5	-52.0	15.7	6.00e-01	0	29	0	136314880	70	4137
2026-01-04 03:35:38.73	290.74	42.67	-50.7	-52.2	15.6	5.99e-01	0	29	0	137887744	70	4233
2026-01-04 03:35:39.73	290.17	42.55	-50.7	-52.3	15.6	6.02e-01	0	29	0	139984896	70	4254
2026-01-04 03:35:40.72	289.62	42.43	-51.1	-52.8	15.5	6.00e-01	0	29	0	142082048	70	4535
2026-01-04 03:35:41.71	289.07	42.30	-51.4	-53.2	15.4	5.99e-01	0	29	0	143654912	70	4722
2026-01-04 03:35:42.71	288.52	42.17	-51.3	-53.1	15.5	6.01e-01	0	29	0	145752064	70	4668
2026-01-04 03:35:43.71	287.98	42.04	-50.8	-52.5	15.5	5.98e-01	0	29	0	147324928	69	4624
2026-01-04 03:35:44.71	287.44	41.90	-50.0	-51.5	15.6	5.98e-01	0	29	0	149422080	68	4345
2026-01-04 03:35:45.71	286.90	41.77	-50.1	-51.6	15.7	6.00e-01	0	29	0	150994944	69	4163
2026-01-04 03:35:46.70	286.37	41.63	-50.9	-52.5	15.5	6.02e-01	0	29	0	153092096	71	4124
2026-01-04 03:35:47.70	285.85	41.49	-51.5	-53.3	15.4	6.01e-01	0	29	0	154664960	71	4519
2026-01-04 03:35:48.70	285.32	41.35	-51.8	-53.6	15.3	6.03e-01	0	29	0	156762112	71	4700
2026-01-04 03:35:49.70	284.81	41.20	-50.6	-52.2	15.5	6.01e-01	0	29	0	158859264	69	4463
2026-01-04 03:35:50.69	284.30	41.06	-50.0	-51.5	15.7	5.98e-01	0	29	0	160432128	69	4108
2026-01-04 03:35:51.69	283.79	40.91	-51.3	-53.0	15.4	6.01e-01	0	29	0	162529280	71	4353
2026-01-04 03:35:52.69	283.29	40.76	-52.1	-54.0	15.3	6.02e-01	0	29	0	164102144	71	4924
2026-01-04 03:35:53.69	282.79	40.60	-51.0	-52.6	15.4	6.00e-01	0	29	0	166199296	69	4672
2026-01-04 03:35:54.68	282.30	40.45	-50.5	-52.0	15.7	6.01e-01	0	29	0	167772160	70	4131
2026-01-04 03:35:55.68	281.81	40.29	-51.1	-52.7	15.5	6.01e-01	0	29	0	169869312	71	4231
2026-01-04 03:35:56.68	281.33	40.14	-52.4	-54.4	15.4	6.00e-01	0	29	0	171966464	72	4833
2026-01-04 03:35:57.68	280.85	39.98	-51.3	-53.0	15.5	6.03e-01	0	29	0	173539328	70	4627
2026-01-04 03:35:58.68	280.38	39.82	-51.0	-52.6	15.6	6.01e-01	0	29	0	175636480	71	4168
2026-01-04 03:35:59.68	279.91	39.65	-52.0	-53.9	15.4	5.99e-01	0	29	0	177209344	71	4834
2026-01-04 03:36:00.68	279.44	39.49	-51.7	-53.5	15.5	6.02e-01	0	29	0	179306496	71	4628
2026-01-04 03:36:01.68	278.98	39.33	-51.2	-52.8	15.5	6.01e-01	0	29	0	180879360	71	4276
2026-01-04 03:36:02.68	278.53	39.16	-52.3	-54.2	15.4	5.98e-01	0	29	0	182976512	72	4759
2026-01-04 03:36:03.69	278.07	38.99	-51.5	-53.2	15.5	6.03e-01	0	29	0	185073664	71	4481
2026-01-04 03:36:04.69	277.63	38.82	-51.3	-52.9	15.6	6.02e-01	0	29	0	186646528	71	4315
2026-01-04 03:36:05.68	277.19	38.66	-51.9	-53.7	15.4	6.02e-01	0	29	0	188743680	71	4742
2026-01-04 03:36:06.68	276.75	38.49	-51.6	-53.3	15.5	6.00e-01	0	29	0	190316544	72	4285
2026-01-04 03:36:07.69	276.32	38.31	-52.2	-54.1	15.4	5.99e-01	0	29	0	192413696	72	4699
2026-01-04 03:36:08.69	275.89	38.14	-51.2	-52.9	15.6	6.01e-01	0	29	0	193986560	71	4294
2026-01-04 03:36:09.68	275.47	37.97	-52.1	-53.9	15.3	6.03e-01	0	29	0	196083712	71	4864
2026-01-04 03:36:10.67	275.06	37.80	-51.8	-53.5	15.5	6.02e-01	0	29	0	198180864	71	4620
2026-01-04 03:36:11.67	274.65	37.63	-52.3	-54.2	15.3	6.03e-01	0	29	0	199753728	72	4757
2026-01-04 03:36:12.67	274.24	37.45	-52.7	-54.7	15.2	6.00e-01	0	28	0	201850880	73	4731
2026-01-04 03:36:13.67	273.83	37.28	-52.6	-54.6	15.3	6.01e-01	0	29	0	203423744	73	4689
2026-01-04 03:36:14.67	273.43	37.10	-52.3	-54.1	15.5	6.02e-01	0	29	0	205520896	73	4417
2026-01-04 03:36:15.67	273.04	36.92	-52.8	-54.8	15.3	6.02e-01	0	29	0	207618048	73	4777
2026-01-04 03:36:16.67	272.65	36.75	-52.4	-54.2	15.5	6.01e-01	0	29	0	209190912	73	4476
2026-01-04 03:36:17.68	272.26	36.57	-52.9	-55.0	15.2	6.01e-01	0	28	0	211288064	73	4884
2026-01-04 03:36:18.68	271.87	36.39	-52.9	-54.9	15.3	6.02e-01	0	29	0	212860928	73	4832
2026-01-04 03:36:19.67	271.50	36.21	-53.5	-55.7	15.2	6.00e-01	0	29	0	214958080	74	4987
2026-01-04 03:36:20.67	271.13	36.03	-53.4	-55.5	15.2	5.98e-01	0	29	0	216530944	74	4920
2026-01-04 03:36:21.66	270.76	35.85	-53.2	-55.2	15.3	6.00e-01	0	29	0	218628096	74	4731
2026-01-04 03:36:22.64	270.40	35.68	-53.3	-55.4	15.2	6.00e-01	0	29	0	220200960	74	4833
2026-01-04 03:36:23.64	270.04	35.50	-52.8	-54.7	15.4	6.03e-01	0	29	0	222298112	74	4482
2026-01-04 03:36:24.63	269.69	35.32	-52.6	-54.5	15.5	6.01e-01	0	29	0	224395264	74	4374
2026-01-04 03:36:25.61	269.34	35.15	-51.5	-53.2	15.6	6.02e-01	0	29	0	225968128	72	4198
2026-01-04 03:36:26.61	268.99	34.97	-51.6	-53.3	15.6	6.00e-01	0	29	0	228065280	72	4275
2026-01-04 03:36:27.61	268.64	34.78	-51.6	-53.4	15.6	5.99e-01	0	29	0	229638144	72	4307
2026-01-04 03:36:28.60	268.31	34.61	-51.5	-53.3	15.6	6.02e-01	0	29	0	231735296	72	4247
2026-01-04 03:36:29.59	267.97	34.43	-51.8	-53.6	15.5	6.00e-01	0	29	0	233308160	72	4416
2026-01-04 03:36:30.59	267.64	34.25	-51.4	-53.1	15.6	6.01e-01	0	29	0	235405312	72	4183
2026-01-04 03:36:31.59	267.31	34.07	-51.1	-52.8	15.6	6.01e-01	0	29	0	236978176	71	4250
2026-01-04 03:36:32.58	266.98	33.89	-51.2	-52.9	15.6	6.02e-01	0	29	0	239075328	71	4334
2026-01-04 03:36:33.58	266.66	33.71	-51.1	-52.7	15.7	6.01e-01	0	29	0	241172480	71	4233
2026-01-04 03:36:34.58	266.34	33.53	-51.2	-52.9	15.6	6.01e-01	0	29	0	242745344	71	4312
2026-01-04 03:36:35.57	266.03	33.35	-51.2	-52.9	15.6	5.99e-01	0	29	0	244842496	71	4307
2026-01-04 03:36:36.57	265.72	33.17	-51.2	-52.9	15.6	6.00e-01	0	29	0	246415360	71	4316
2026-01-04 03:36:37.57	265.41	32.99	-51.1	-52.7	15.7	6.01e-01	0	29	0	248512512	71	4231
2026-01-04 03:36:38.56	265.11	32.81	-51.1	-52.7	15.7	5.99e-01	0	29	0	250085376	71	4230
2026-01-04 03:36:39.56	264.81	32.64	-50.9	-52.6	15.7	6.02e-01	0	29	0	252182528	71	4152
2026-01-04 03:36:40.55	264.51	32.46	-50.6	-52.2	15.7	6.00e-01	0	29	0	253755392	70	4197
2026-01-04 03:36:41.55	264.22	32.28	-50.7	-52.3	15.6	6.03e-01	0	29	0	255852544	70	4282
2026-01-04 03:36:42.55	263.92	32.10	-51.0	-52.7	15.5	6.01e-01	0	29	0	257949696	70	4486
2026-01-04 03:36:43.55	263.64	31.92	-50.9	-52.6	15.6	5.98e-01	0	29	0	259522560	70	4419
2026-01-04 03:36:44.55	263.35	31.75	-50.8	-52.5	15.6	6.00e-01	0	29	0	261619712	70	4348
2026-01-04 03:36:45.55	263.07	31.57	-50.7	-52.3	15.6	6.00e-01	0	29	0	263192576	70	4290
2026-01-04 03:36:46.55	262.79	31.39	-51.0	-52.6	15.5	5.99e-01	0	29	0	265289728	70	4435
2026-01-04 03:36:47.55	262.52	31.22	-50.5	-52.1	15.7	6.00e-01	0	29	0	266862592	70	4172
2026-01-04 03:36:48.55	262.24	31.04	-50.3	-51.8	15.7	5.98e-01	0	29	0	268959744	69	4278
2026-01-04 03:36:49.54	261.98	30.87	-50.6	-52.2	15.6	6.01e-01	0	29	0	271056896	69	4476
2026-01-04 03:36:50.54	261.71	30.69	-51.1	-52.8	15.4	6.03e-01	0	29	0	272629760	69	4790
2026-01-04 03:36:51.54	261.45	30.52	-51.1	-52.8	15.4	5.99e-01	0	29	0	274726912	69	4781
2026-01-04 03:36:52.54	261.19	30.34	-51.0	-52.7	15.5	6.01e-01	0	29	0	276299776	69	4724
2026-01-04 03:36:53.54	260.93	30.17	-50.5	-52.1	15.6	6.01e-01	0	29	0	278396928	69	4430
2026-01-04 03:36:54.54	260.68	30.00	-50.5	-52.1	15.6	6.01e-01	0	29	0	279969792	69	4417
2026-01-04 03:36:55.53	260.43	29.83	-50.7	-52.4	15.5	5.99e-01	0	29	0	282066944	69	4562
2026-01-04 03:36:56.53	260.18	29.65	-50.8	-52.4	15.5	6.00e-01	0	29	0	284164096	69	4580
2026-01-04 03:36:57.53	259.93	29.48	-50.6	-52.3	15.6	6.02e-01	0	29	0	285736960	69	4503
2026-01-04 03:36:58.53	259.69	29.31	-50.5	-52.1	15.6	6.01e-01	0	29	0	287834112	69	4417
2026-01-04 03:36:59.53	259.45	29.14	-50.6	-52.2	15.6	6.01e-01	0	29	0	289406976	69	4462
2026-01-04 03:37:00.53	259.21	28.97	-50.4	-52.0	15.6	6.01e-01	0	29	0	291504128	69	4387
2026-01-04 03:37:01.53	258.97	28.80	-50.2	-51.8	15.6	6.00e-01	0	29	0	293076992	69	4267
2026-01-04 03:37:02.54	258.74	28.63	-50.3	-51.9	15.6	6.00e-01	0	29	0	295174144	69	4309
2026-01-04 03:37:03.54	258.51	28.46	-50.6	-52.2	15.6	6.01e-01	0	29	0	297271296	69	4450
2026-01-04 03:37:04.52	258.28	28.30	-50.8	-52.5	15.5	6.01e-01	0	29	0	298844160	69	4635
2026-01-04 03:37:05.52	258.06	28.13	-50.9	-52.6	15.5	6.02e-01	0	29	0	300941312	69	4686
2026-01-04 03:37:06.52	257.84	27.96	-51.0	-52.6	15.5	6.00e-01	0	29	0	302514176	69	4704
2026-01-04 03:37:07.51	257.62	27.80	-50.6	-52.3	15.5	5.98e-01	0	29	0	304611328	69	4502
2026-01-04 03:37:08.51	257.40	27.63	-50.5	-52.1	15.6	6.01e-01	0	29	0	306708480	69	4440
2026-01-04 03:37:09.52	257.18	27.47	-50.8	-52.4	15.5	6.00e-01	0	29	0	308281344	69	4584
2026-01-04 03:37:10.51	256.97	27.31	-50.8	-52.5	15.5	6.01e-01	0	29	0	310378496	69	4628
2026-01-04 03:37:11.51	256.76	27.14	-50.8	-52.5	15.5	5.99e-01	0	29	0	311951360	69	4620
2026-01-04 03:37:12.51	256.55	26.98	-50.8	-52.5	15.5	6.01e-01	0	29	0	314048512	69	4614
2026-01-04 03:37:13.51	256.34	26.82	-50.9	-52.5	15.5	6.03e-01	0	29	0	315621376	69	4645
2026-01-04 03:37:14.52	256.14	26.65	-50.8	-52.4	15.5	5.99e-01	0	29	0	317718528	69	4584
2026-01-04 03:37:15.51	255.94	26.49	-50.8	-52.5	15.5	6.01e-01	0	29	0	319815680	69	4639
2026-01-04 03:37:16.50	255.74	26.34	-51.0	-52.7	15.5	6.01e-01	0	29	0	321388544	69	4752
2026-01-04 03:37:17.50	255.54	26.18	-51.0	-52.7	15.5	6.01e-01	0	29	0	323485696	69	4725
2026-01-04 03:37:18.51	255.34	26.02	-51.0	-52.7	15.5	6.00e-01	0	29	0	325058560	69	4712
2026-01-04 03:37:19.51	255.15	25.86	-50.8	-52.5	15.5	6.03e-01	0	29	0	327155712	69	4611
2026-01-04 03:37:20.50	254.96	25.70	-50.8	-52.4	15.5	5.99e-01	0	29	0	328728576	69	4587
2026-01-04 03:37:21.50	254.77	25.54	-50.7	-52.4	15.5	5.99e-01	0	29	0	330825728	69	4579
2026-01-04 03:37:22.50	254.58	25.39	-50.7	-52.3	15.5	6.02e-01	0	29	0	332922880	69	4525
2026-01-04 03:37:23.50	254.39	25.23	-50.6	-52.3	15.5	6.00e-01	0	29	0	334495744	69	4506
2026-01-04 03:37:24.49	254.21	25.08	-50.7	-52.4	15.5	6.00e-01	0	29	0	336592896	69	4547
2026-01-04 03:37:25.49	254.03	24.92	-50.7	-52.3	15.5	5.99e-01	0	29	0	338165760	69	4545
2026-01-04 03:37:26.49	253.85	24.77	-50.9	-52.6	15.5	6.02e-01	0	29	0	340262912	69	4660
2026-01-04 03:37:27.49	253.67	24.62	-50.9	-52.6	15.5	6.00e-01	0	29	0	341835776	69	4700
2026-01-04 03:37:28.49	253.49	24.47	-50.9	-52.6	15.5	6.05e-01	0	29	0	343932928	69	4662
2026-01-04 03:37:29.48	253.32	24.31	-50.9	-52.6	15.5	6.02e-01	0	29	0	345505792	69	4679
2026-01-04 03:37:30.47	253.15	24.17	-50.9	-52.6	15.5	6.02e-01	0	29	0	347602944	69	4652
2026-01-04 03:37:31.47	252.98	24.02	-50.6	-52.2	15.6	6.00e-01	0	29	0	349700096	69	4456
2026-01-04 03:37:32.47	252.81	23.87	-50.5	-52.2	15.6	6.01e-01	0	29	0	351272960	69	4444
2026-01-04 03:37:33.47	252.64	23.72	-50.7	-52.3	15.5	6.02e-01	0	29	0	353370112	69	4528
2026-01-04 03:37:34.46	252.48	23.57	-50.8	-52.5	15.5	6.01e-01	0	29	0	354942976	69	4616
2026-01-04 03:37:35.46	252.31	23.42	-50.9	-52.6	15.5	6.01e-01	0	29	0	357040128	69	4682
2026-01-04 03:37:36.46	252.15	23.27	-50.9	-52.6	15.5	5.99e-01	0	29	0	358612992	69	4662
2026-01-04 03:37:37.47	251.98	23.13	-50.9	-52.5	15.5	6.02e-01	0	29	0	360710144	69	4642
2026-01-04 03:37:38.46	251.83	22.98	-50.8	-52.5	15.5	6.00e-01	0	29	0	362807296	69	4618
2026-01-04 03:37:39.46	251.67	22.84	-50.6	-52.2	15.5	6.01e-01	0	29	0	364380160	69	4466
2026-01-04 03:37:40.46	251.51	22.69	-50.5	-52.1	15.6	6.01e-01	0	29	0	366477312	69	4433
2026-01-04 03:37:41.46	251.36	22.55	-50.6	-52.2	15.5	6.00e-01	0	29	0	368050176	69	4493
2026-01-04 03:37:42.46	251.20	22.41	-50.7	-52.4	15.5	5.98e-01	0	29	0	370147328	69	4557
2026-01-04 03:37:43.46	251.05	22.26	-50.8	-52.5	15.5	6.03e-01	0	29	0	372244480	69	4602
2026-01-04 03:37:44.46	250.90	22.12	-50.8	-52.4	15.5	6.00e-01	0	29	0	373817344	69	4592
2026-01-04 03:37:45.46	250.75	21.98	-50.7	-52.4	15.5	5.99e-01	0	29	0	375914496	69	4573
2026-01-04 03:37:46.46	250.60	21.84	-50.8	-52.5	15.5	6.02e-01	0	29	0	377487360	69	4606
2026-01-04 03:37:47.46	250.46	21.70	-50.7	-52.4	15.5	6.01e-01	0	29	0	379584512	69	4548
2026-01-04 03:37:48.45	250.31	21.56	-50.8	-52.4	15.5	6.00e-01	0	29	0	381157376	69	4597
2026-01-04 03:37:49.45	250.17	21.42	-50.7	-52.4	15.5	6.02e-01	0	29	0	383254528	69	4575
2026-01-04 03:37:50.45	250.03	21.29	-50.6	-52.3	15.5	6.01e-01	0	29	0	384827392	69	4516
2026-01-04 03:37:51.45	249.89	21.15	-50.7	-52.4	15.5	6.02e-01	0	29	0	386924544	69	4553
2026-01-04 03:37:52.44	249.75	21.01	-50.7	-52.4	15.5	6.03e-01	0	29	0	389021696	69	4586
2026-01-04 03:37:53.44	249.61	20.88	-50.7	-52.4	15.5	5.97e-01	0	29	0	390594560	69	4583
2026-01-04 03:37:54.44	249.47	20.74	-50.7	-52.4	15.5	6.00e-01	0	29	0	392691712	69	4568
2026-01-04 03:37:55.44	249.34	20.61	-50.7	-52.4	15.5	6.02e-01	0	29	0	394264576	69	4556
2026-01-04 03:37:56.44	249.20	20.47	-50.7	-52.3	15.5	6.00e-01	0	29	0	396361728	69	4536
2026-01-04 03:37:57.44	249.07	20.34	-50.6	-52.3	15.5	6.01e-01	0	29	0	397934592	69	4524
2026-01-04 03:37:58.43	248.94	20.21	-50.6	-52.2	15.6	6.00e-01	0	29	0	400031744	69	4471
2026-01-04 03:37:59.43	248.81	20.08	-50.6	-52.2	15.6	6.01e-01	0	29	0	402128896	69	4470
2026-01-04 03:38:00.43	248.68	19.94	-50.5	-52.2	15.5	6.00e-01	0	29	0	403701760	69	4451
2026-01-04 03:38:01.43	248.55	19.81	-50.5	-52.2	15.6	6.00e-01	0	29	0	405798912	69	4447
2026-01-04 03:38:02.43	248.42	19.68	-50.6	-52.2	15.5	6.03e-01	0	29	0	407371776	69	4488
2026-01-04 03:38:03.42	248.30	19.55	-50.7	-52.4	15.5	6.02e-01	0	29	0	409468928	69	4550
2026-01-04 03:38:04.42	248.17	19.42	-50.6	-52.3	15.5	6.02e-01	0	29	0	411041792	69	4512
2026-01-04 03:38:05.41	248.05	19.30	-50.7	-52.4	15.5	6.03e-01	0	29	0	413138944	69	4550
2026-01-04 03:38:06.41	247.93	19.17	-50.6	-52.3	15.5	6.01e-01	0	29	0	415236096	69	4522
2026-01-04 03:38:07.42	247.81	19.04	-50.5	-52.2	15.6	6.02e-01	0	29	0	416808960	69	4458
2026-01-04 03:38:08.41	247.69	18.91	-50.5	-52.1	15.6	6.02e-01	0	29	0	418906112	69	4427
2026-01-04 03:38:09.41	247.57	18.79	-50.5	-52.1	15.6	5.99e-01	0	29	0	420478976	69	4439
2026-01-04 03:38:10.41	247.45	18.66	-50.6	-52.3	15.6	6.00e-01	0	29	0	422576128	69	4499
2026-01-04 03:38:11.41	247.33	18.54	-50.7	-52.4	15.5	6.05e-01	0	29	0	424148992	69	4578
2026-01-04 03:38:12.40	247.22	18.41	-50.8	-52.5	15.5	6.04e-01	0	29	0	426246144	69	4625
2026-01-04 03:38:13.40	247.10	18.29	-50.9	-52.7	15.5	6.03e-01	0	29	0	427819008	69	4717
2026-01-04 03:38:14.40	246.99	18.17	-50.9	-52.6	15.5	6.01e-01	0	29	0	429916160	69	4699
2026-01-04 03:38:15.40	246.88	18.04	-50.8	-52.5	15.5	5.98e-01	0	29	0	432013312	69	4647
2026-01-04 03:38:16.40	246.76	17.92	-50.7	-52.4	15.5	6.05e-01	0	29	0	433586176	69	4563
2026-01-04 03:38:17.39	246.65	17.80	-50.5	-52.2	15.6	6.00e-01	0	29	0	435683328	69	4472
2026-01-04 03:38:18.38	246.54	17.68	-50.5	-52.2	15.6	6.03e-01	0	29	0	437256192	69	4456
2026-01-04 03:38:19.38	246.43	17.56	-50.5	-52.1	15.6	6.03e-01	0	29	0	439353344	69	4420
2026-01-04 03:38:20.38	246.33	17.44	-50.5	-52.1	15.6	6.01e-01	0	29	0	440926208	69	4421
2026-01-04 03:38:21.38	246.22	17.32	-50.5	-52.1	15.6	6.00e-01	0	29	0	443023360	69	4417
2026-01-04 03:38:22.38	246.11	17.20	-50.4	-52.0	15.6	6.01e-01	0	29	0	445120512	69	4369
2026-01-04 03:38:23.38	246.01	17.08	-50.4	-52.1	15.6	6.01e-01	0	29	0	446693376	69	4414
2026-01-04 03:38:24.37	245.90	16.96	-50.5	-52.2	15.6	6.00e-01	0	29	0	448790528	69	4463
2026-01-04 03:38:25.38	245.80	16.85	-50.6	-52.3	15.5	6.01e-01	0	29	0	450363392	69	4537
2026-01-04 03:38:26.37	245.70	16.73	-50.6	-52.3	15.5	6.00e-01	0	29	0	452460544	69	4528
2026-01-04 03:38:27.37	245.59	16.61	-50.6	-52.3	15.5	6.00e-01	0	29	0	454557696	69	4505
2026-01-04 03:38:28.37	245.49	16.50	-50.6	-52.3	15.5	5.99e-01	0	29	0	456130560	69	4518
2026-01-04 03:38:29.37	245.39	16.38	-50.5	-52.2	15.5	6.01e-01	0	29	0	458227712	69	4456
2026-01-04 03:38:30.36	245.29	16.27	-50.6	-52.2	15.5	5.98e-01	0	29	0	459800576	69	4487
2026-01-04 03:38:31.36	245.20	16.15	-50.5	-52.1	15.5	6.00e-01	0	29	0	461897728	69	4439
2026-01-04 03:38:32.35	245.10	16.04	-50.5	-52.1	15.6	5.99e-01	0	29	0	463470592	69	4432
2026-01-04 03:38:33.35	245.00	15.93	-50.4	-52.1	15.6	6.02e-01	0	29	0	465567744	69	4417
2026-01-04 03:38:34.35	244.91	15.81	-50.5	-52.2	15.6	5.99e-01	0	29	0	467140608	69	4450
2026-01-04 03:38:35.35	244.81	15.70	-50.5	-52.2	15.5	6.00e-01	0	29	0	469237760	69	4487
2026-01-04 03:38:36.35	244.72	15.59	-50.6	-52.3	15.5	6.05e-01	0	29	0	471334912	69	4528
2026-01-04 03:38:37.35	244.62	15.48	-50.6	-52.3	15.5	6.01e-01	0	29	0	472907776	69	4545
2026-01-04 03:38:38.35	244.53	15.37	-50.6	-52.3	15.5	6.02e-01	0	29	0	475004928	69	4542
2026-01-04 03:38:39.35	244.44	15.26	-50.8	-52.5	15.5	6.00e-01	0	29	0	476577792	69	4624
2026-01-04 03:38:40.35	244.34	15.15	-50.8	-52.5	15.5	6.03e-01	0	29	0	478674944	69	4624
2026-01-04 03:38:41.35	244.25	15.04	-50.7	-52.5	15.5	6.02e-01	0	29	0	480247808	69	4617
2026-01-04 03:38:42.35	244.16	14.93	-50.8	-52.5	15.5	6.00e-01	0	29	0	482344960	69	4623
2026-01-04 03:38:43.35	244.07	14.82	-50.8	-52.6	15.5	6.01e-01	0	29	0	484442112	69	4660
2026-01-04 03:38:44.35	243.99	14.71	-50.9	-52.6	15.4	6.01e-01	0	29	0	486014976	69	4685
2026-01-04 03:38:45.35	243.90	14.60	-50.6	-52.4	15.5	6.01e-01	0	29	0	488112128	69	4549
2026-01-04 03:38:46.35	243.81	14.50	-50.7	-52.4	15.5	6.01e-01	0	29	0	489684992	69	4584
2026-01-04 03:38:47.34	243.72	14.39	-50.7	-52.4	15.5	6.01e-01	0	29	0	491782144	69	4565
2026-01-04 03:38:48.34	243.64	14.29	-50.7	-52.4	15.5	6.03e-01	0	29	0	493355008	69	4564
2026-01-04 03:38:49.34	243.55	14.18	-50.6	-52.3	15.5	6.02e-01	0	29	0	495452160	69	4504
2026-01-04 03:38:50.34	243.47	14.07	-50.5	-52.2	15.5	6.00e-01	0	29	0	497549312	69	4475
2026-01-04 03:38:51.33	243.39	13.97	-50.5	-52.2	15.6	6.01e-01	0	29	0	499122176	69	4459
2026-01-04 03:38:52.34	243.30	13.86	-50.6	-52.3	15.5	6.03e-01	0	29	0	501219328	69	4503
2026-01-04 03:38:53.34	243.22	13.76	-50.6	-52.3	15.5	6.03e-01	0	29	0	502792192	69	4540
2026-01-04 03:38:54.34	243.14	13.66	-50.6	-52.4	15.5	6.02e-01	0	29	0	504889344	69	4556
2026-01-04 03:38:55.33	243.06	13.55	-50.7	-52.4	15.5	6.01e-01	0	29	0	506462208	69	4556
2026-01-04 03:38:56.33	242.98	13.45	-50.8	-52.5	15.5	6.01e-01	0	29	0	508559360	69	4625
2026-01-04 03:38:57.33	242.90	13.35	-50.8	-52.5	15.5	6.03e-01	0	29	0	510656512	69	4651
2026-01-04 03:38:58.32	242.82	13.25	-50.7	-52.5	15.5	6.01e-01	0	29	0	512229376	69	4614
2026-01-04 03:38:59.32	242.74	13.15	-50.8	-52.6	15.5	6.01e-01	0	29	0	514326528	69	4662
2026-01-04 03:39:00.33	242.66	13.04	-50.9	-52.7	15.4	6.00e-01	0	29	0	515899392	69	4721
2026-01-04 03:39:01.33	242.58	12.94	-50.9	-52.6	15.4	6.00e-01	0	29	0	517996544	69	4692
2026-01-04 03:39:02.33	242.50	12.84	-50.7	-52.5	15.5	6.02e-01	0	29	0	520093696	69	4618
2026-01-04 03:39:03.33	242.43	12.74	-50.8	-52.5	15.4	6.00e-01	0	29	0	521666560	69	4645
2026-01-04 03:39:04.34	242.35	12.64	-50.7	-52.5	15.5	6.03e-01	0	29	0	523763712	69	4610
2026-01-04 03:39:05.33	242.28	12.55	-50.8	-52.5	15.5	5.99e-01	0	29	0	525336576	69	4634
2026-01-04 03:39:06.33	242.20	12.45	-50.7	-52.5	15.5	6.02e-01	0	29	0	527433728	69	4619
2026-01-04 03:39:07.33	242.13	12.35	-50.7	-52.4	15.5	6.00e-01	0	29	0	529006592	69	4561
2026-01-04 03:39:08.33	242.05	12.25	-50.7	-52.4	15.5	5.99e-01	0	29	0	531103744	69	4593
2026-01-04 03:39:09.33	241.98	12.15	-50.7	-52.4	15.5	6.01e-01	0	29	0	533200896	69	4560
2026-01-04 03:39:10.32	241.91	12.06	-50.7	-52.4	15.5	6.00e-01	0	29	0	534773760	69	4576
2026-01-04 03:39:11.32	241.84	11.96	-50.7	-52.4	15.5	5.99e-01	0	29	0	536870912	69	4594
2026-01-04 03:39:12.32	241.76	11.86	-50.7	-52.5	15.4	6.02e-01	0	29	0	538443776	69	4622
2026-01-04 03:39:13.32	241.69	11.77	-50.8	-52.5	15.4	6.01e-01	0	29	0	540540928	69	4636
2026-01-04 03:39:14.32	241.62	11.67	-50.8	-52.5	15.4	6.01e-01	0	29	0	542113792	69	4636
2026-01-04 03:39:15.32	241.55	11.58	-50.8	-52.5	15.5	6.02e-01	0	29	0	544210944	69	4650
2026-01-04 03:39:16.32	241.48	11.48	-50.8	-52.5	15.5	6.02e-01	0	29	0	546308096	69	4631
2026-01-04 03:39:17.31	241.42	11.39	-50.8	-52.5	15.4	6.03e-01	0	29	0	547880960	69	4635
2026-01-04 03:39:18.31	241.35	11.29	-50.9	-52.6	15.4	5.99e-01	0	29	0	549978112	69	4698
2026-01-04 03:39:19.31	241.28	11.20	-50.8	-52.6	15.4	6.00e-01	0	29	0	551550976	69	4675
2026-01-04 03:39:20.31	241.21	11.11	-50.9	-52.7	15.4	6.01e-01	0	29	0	553648128	69	4706
2026-01-04 03:39:21.30	241.14	11.01	-50.9	-52.6	15.4	6.01e-01	0	29	0	555220992	69	4685
2026-01-04 03:39:22.30	241.08	10.92	-50.8	-52.6	15.5	6.02e-01	0	29	0	557318144	69	4657
2026-01-04 03:39:23.30	241.01	10.83	-50.8	-52.6	15.4	6.02e-01	0	29	0	558891008	69	4680
2026-01-04 03:39:24.29	240.95	10.74	-50.9	-52.7	15.4	6.01e-01	0	29	0	560988160	69	4718
2026-01-04 03:39:25.28	240.88	10.65	-50.9	-52.7	15.4	6.02e-01	0	29	0	563085312	69	4726
2026-01-04 03:39:26.28	240.82	10.56	-51.0	-52.8	15.4	6.00e-01	0	29	0	564658176	69	4799
2026-01-04 03:39:27.27	240.75	10.47	-51.0	-52.8	15.4	6.02e-01	0	29	0	566755328	69	4799
2026-01-04 03:39:28.27	240.69	10.38	-51.0	-52.8	15.4	6.00e-01	0	29	0	568328192	69	4805
2026-01-04 03:39:29.27	240.63	10.29	-51.0	-52.8	15.4	6.03e-01	0	29	0	570425344	69	4780
2026-01-04 03:39:30.27	240.56	10.20	-51.1	-52.9	15.4	6.02e-01	0	29	0	571998208	69	4838
2026-01-04 03:39:31.27	240.50	10.11	-51.1	-52.9	15.4	6.03e-01	0	29	0	574095360	69	4867
2026-01-04 03:39:32.27	240.44	10.02	-51.2	-53.1	15.4	6.02e-01	0	29	0	576192512	70	4674
2026-01-04 03:39:33.26	240.38	9.93	-51.2	-53.1	15.4	6.00e-01	0	29	0	577765376	70	4662
2026-01-04 03:39:34.26	240.32	9.84	-51.1	-52.9	15.4	6.00e-01	0	29	0	579862528	70	4595
2026-01-04 03:39:35.27	240.26	9.75	-51.1	-53.0	15.5	6.04e-01	0	29	0	581435392	70	4610
2026-01-04 03:39:36.26	240.20	9.66	-51.2	-53.0	15.4	5.99e-01	0	29	0	583532544	70	4626
2026-01-04 03:39:37.26	240.14	9.58	-51.1	-52.9	15.4	5.98e-01	0	29	0	585105408	70	4579
2026-01-04 03:39:38.26	240.08	9.49	-51.1	-52.9	15.5	5.99e-01	0	29	0	587202560	70	4588
2026-01-04 03:39:39.26	240.02	9.40	-51.2	-53.0	15.4	6.02e-01	0	29	0	589299712	70	4622
2026-01-04 03:39:40.26	239.96	9.31	-51.2	-53.0	15.4	6.01e-01	0	29	0	590872576	70	4624
2026-01-04 03:39:41.25	239.90	9.23	-51.2	-53.1	15.4	6.01e-01	0	29	0	592969728	70	4660
2026-01-04 03:39:42.25	239.84	9.14	-51.3	-53.2	15.4	6.02e-01	0	29	0	594542592	70	4715
2026-01-04 03:39:43.25	239.79	9.06	-51.4	-53.3	15.4	5.99e-01	0	29	0	596639744	70	4772
2026-01-04 03:39:44.26	239.73	8.97	-51.2	-53.1	15.4	6.01e-01	0	29	0	598736896	70	4693
2026-01-04 03:39:45.26	239.67	8.88	-51.3	-53.2	15.4	6.00e-01	0	29	0	600309760	70	4708
2026-01-04 03:39:46.26	239.61	8.80	-51.2	-53.1	15.4	6.02e-01	0	29	0	602406912	70	4662
2026-01-04 03:39:47.26	239.56	8.71	-51.2	-53.1	15.4	6.01e-01	0	29	0	603979776	70	4663
2026-01-04 03:39:48.26	239.50	8.63	-51.3	-53.2	15.4	6.01e-01	0	29	0	606076928	70	4735
2026-01-04 03:39:49.26	239.45	8.55	-51.3	-53.1	15.4	6.03e-01	0	29	0	607649792	70	4705
2026-01-04 03:39:50.25	239.39	8.46	-51.2	-53.1	15.4	5.99e-01	0	29	0	609746944	70	4685
2026-01-04 03:39:51.25	239.34	8.38	-51.4	-53.3	15.4	6.00e-01	0	29	0	611319808	70	4773
2026-01-04 03:39:52.25	239.28	8.30	-51.3	-53.1	15.4	6.02e-01	0	29	0	613416960	70	4700
2026-01-04 03:39:53.25	239.23	8.21	-51.4	-53.3	15.4	6.01e-01	0	29	0	615514112	70	4768
2026-01-04 03:39:54.26	239.18	8.13	-51.3	-53.2	15.4	6.00e-01	0	29	0	617086976	70	4744
2026-01-04 03:39:55.25	239.12	8.05	-51.4	-53.3	15.3	6.02e-01	0	29	0	619184128	70	4774
2026-01-04 03:39:56.25	239.07	7.97	-51.3	-53.2	15.4	6.02e-01	0	29	0	620756992	70	4748
2026-01-04 03:39:57.26	239.02	7.88	-51.4	-53.3	15.3	5.99e-01	0	29	0	622854144	70	4801
2026-01-04 03:39:58.26	238.97	7.80	-51.4	-53.3	15.3	6.00e-01	0	29	0	624951296	70	4795
2026-01-04 03:39:59.26	238.91	7.72	-51.3	-53.2	15.4	6.00e-01	0	29	0	626524160	70	4745
2026-01-04 03:40:00.25	238.86	7.64	-51.4	-53.3	15.3	5.99e-01	0	29	0	628621312	70	4777
2026-01-04 03:40:01.25	238.81	7.56	-51.4	-53.3	15.3	5.97e-01	0	29	0	630194176	70	4798
2026-01-04 03:40:02.25	238.76	7.48	-51.5	-53.4	15.3	5.99e-01	0	29	0	632291328	70	4839
2026-01-04 03:40:03.24	238.71	7.40	-51.6	-53.5	15.3	6.01e-01	0	29	0	633864192	70	4917
2026-01-04 03:40:04.24	238.66	7.32	-51.5	-53.5	15.3	6.02e-01	0	29	0	635961344	70	4902
2026-01-04 03:40:05.24	238.61	7.24	-51.6	-53.6	15.3	6.01e-01	0	29	0	637534208	71	4687
2026-01-04 03:40:06.24	238.56	7.16	-51.6	-53.6	15.3	6.01e-01	0	29	0	639631360	71	4666
2026-01-04 03:40:07.24	238.51	7.08	-51.7	-53.7	15.3	6.00e-01	0	29	0	641728512	71	4740
2026-01-04 03:40:08.23	238.46	7.00	-51.6	-53.6	15.3	6.01e-01	0	29	0	643301376	71	4666
2026-01-04 03:40:09.23	238.41	6.92	-51.5	-53.5	15.4	6.00e-01	0	29	0	645398528	71	4632
2026-01-04 03:40:10.23	238.37	6.84	-51.6	-53.6	15.3	6.00e-01	0	29	0	646971392	71	4691
2026-01-04 03:40:11.22	238.32	6.77	-51.7	-53.7	15.3	6.03e-01	0	29	0	649068544	71	4739
2026-01-04 03:40:12.22	238.27	6.69	-51.6	-53.6	15.3	6.03e-01	0	29	0	650641408	71	4679
2026-01-04 03:40:13.22	238.22	6.61	-51.6	-53.6	15.3	6.01e-01	0	29	0	652738560	71	4688
2026-01-04 03:40:14.22	238.18	6.53	-51.6	-53.6	15.3	6.00e-01	0	29	0	654835712	71	4700
2026-01-04 03:40:15.22	238.13	6.46	-51.7	-53.8	15.3	6.00e-01	0	29	0	656408576	71	4794
2026-01-04 03:40:16.21	238.08	6.38	-51.8	-53.9	15.2	6.02e-01	0	29	0	658505728	71	4861
2026-01-04 03:40:17.21	238.04	6.30	-51.8	-53.9	15.2	5.98e-01	0	29	0	660078592	71	4860
2026-01-04 03:40:18.21	237.99	6.23	-51.9	-54.0	15.2	6.02e-01	0	29	0	662175744	71	4872
2026-01-04 03:40:19.20	237.95	6.15	-52.0	-54.1	15.2	6.03e-01	0	29	0	663748608	71	4943
2026-01-04 03:40:20.20	237.90	6.08	-52.0	-54.2	15.2	6.01e-01	0	29	0	665845760	71	4994
2026-01-04 03:40:21.20	237.85	6.00	-51.9	-54.0	15.2	6.00e-01	0	29	0	667418624	71	4912
2026-01-04 03:40:22.19	237.81	5.92	-52.0	-54.2	15.2	6.01e-01	0	29	0	669515776	71	5010
2026-01-04 03:40:23.19	237.77	5.85	-52.0	-54.1	15.2	6.00e-01	0	29	0	671612928	71	4955
2026-01-04 03:40:24.19	237.72	5.77	-51.9	-54.0	15.2	6.00e-01	0	29	0	673185792	71	4914
2026-01-04 03:40:25.18	237.68	5.70	-51.8	-53.9	15.2	6.00e-01	0	29	0	675282944	71	4848
2026-01-04 03:40:26.17	237.63	5.63	-52.0	-54.1	15.1	6.04e-01	0	29	0	676855808	71	4972
2026-01-04 03:40:27.18	237.59	5.55	-51.9	-54.1	15.2	6.04e-01	0	29	0	678952960	71	4929
2026-01-04 03:40:28.16	237.55	5.48	-52.0	-54.1	15.1	6.01e-01	0	29	0	681050112	71	4982
2026-01-04 03:40:29.15	237.51	5.40	-52.0	-54.2	15.2	6.02e-01	0	29	0	682622976	72	4709
2026-01-04 03:40:30.14	237.46	5.33	-52.0	-54.2	15.2	6.01e-01	0	29	0	684195840	72	4731
2026-01-04 03:40:31.13	237.42	5.26	-52.0	-54.2	15.2	6.01e-01	0	29	0	686292992	72	4714
2026-01-04 03:40:32.13	237.38	5.18	-51.9	-54.1	15.2	5.99e-01	0	29	0	688390144	72	4683
2026-01-04 03:40:33.13	237.34	5.11	-52.0	-54.2	15.2	6.00e-01	0	29	0	689963008	72	4745
2026-01-04 03:40:34.13	237.29	5.04	-52.2	-54.4	15.1	6.02e-01	0	29	0	692060160	72	4848
2026-01-04 03:40:35.13	237.25	4.97	-59.0	-78.2	3.7	7.43e-01	0	29	104	693633024	85	35288
2026-01-04 03:40:36.13	237.21	4.89	-59.5	-78.7	3.8	7.46e-01	0	29	104	693633024	86	35437
2026-01-04 03:40:37.14	237.17	4.82	-59.7	-79.1	3.8	7.48e-01	0	29	104	693633024	87	35009
2026-01-04 03:40:38.13	237.13	4.75	-59.9	-79.3	3.8	7.45e-01	0	29	104	693633024	87	35733
2026-01-04 03:40:39.12	237.09	4.68	-60.0	-79.4	3.8	7.48e-01	0	29	104	693633024	87	36511
2026-01-04 03:40:40.11	237.05	4.61	-60.2	-79.6	3.8	7.48e-01	0	29	104	693633024	88	34895
2026-01-04 03:40:41.11	237.01	4.53	-60.3	-79.6	3.8	7.47e-01	0	29	104	693633024	88	35191
