passes_logs/2026/01/04/R3.2S_Murmansk/R3.2S_Murmansk__20260104_021826_FENGYUN_3D_rec.log

#Pass ID: 20260104_021826_FENGYUN 3D
#Satellite: FENGYUN 3D
#Configuration: FENGYUN 3D
#almurnet v.1.7.20251203
#Start time: 2026-01-04 02:18:27

#Version: 2.2.20231116
#Station: R3.2S_Murmansk
#Location: 33.079688 lon 68.888172 lat
#TLE: 1 43010U 17072A   26003.51579816  .00000092  00000+0  65324-4 0  9992
#TLE: 2 43010  98.9912 335.1548 0001916 128.4619 231.6729 14.19692074421623

#Time	Az	El	Level	Level2	SNR	BER	BlckErr	Temp	State	Recorded	gain1	gain2
2026-01-04 02:18:27.65	23.58	2.09	-58.5	-71.5	3.8	8.46e-01	0	27	0	0	83	15923
2026-01-04 02:18:28.65	23.60	2.15	-58.6	-71.6	3.8	8.44e-01	0	27	104	0	82	16999
2026-01-04 02:18:29.64	23.62	2.21	-58.5	-71.6	3.8	8.46e-01	0	27	104	0	82	16893
2026-01-04 02:18:30.64	23.63	2.28	-58.5	-71.6	3.8	8.45e-01	0	27	104	0	82	16905
2026-01-04 02:18:31.63	23.65	2.34	-58.5	-71.5	3.8	8.46e-01	0	27	104	0	82	16871
2026-01-04 02:18:32.64	23.67	2.40	-58.5	-71.5	3.8	8.46e-01	0	27	104	0	82	16764
2026-01-04 02:18:33.64	23.68	2.47	-58.5	-71.5	3.8	8.45e-01	0	27	104	0	82	16757
2026-01-04 02:18:34.63	23.70	2.53	-58.5	-71.4	3.8	8.46e-01	0	27	104	0	82	16667
2026-01-04 02:18:35.62	23.72	2.60	-58.5	-71.4	3.8	8.46e-01	0	27	104	0	82	16597
2026-01-04 02:18:36.61	23.73	2.66	-58.5	-71.3	3.8	8.45e-01	0	27	104	0	82	16436
2026-01-04 02:18:37.62	23.75	2.73	-58.5	-71.2	3.8	8.46e-01	0	27	104	0	82	16258
2026-01-04 02:18:38.62	23.77	2.79	-58.5	-71.0	3.8	8.46e-01	0	27	104	0	82	15900
2026-01-04 02:18:39.61	23.78	2.86	-58.5	-70.6	3.8	8.45e-01	0	27	104	0	82	15151
2026-01-04 02:18:40.61	23.80	2.92	-58.4	-70.4	3.8	8.45e-01	0	27	104	0	82	14855
2026-01-04 02:18:41.60	23.82	2.99	-58.4	-70.0	3.8	8.45e-01	0	27	104	0	82	14052
2026-01-04 02:18:42.60	23.83	3.05	-58.4	-69.4	3.8	8.44e-01	0	27	104	0	82	13189
2026-01-04 02:18:43.60	23.85	3.12	-58.3	-68.7	4.0	8.42e-01	0	27	104	0	82	12161
2026-01-04 02:18:44.60	23.87	3.18	-58.2	-68.0	4.2	8.39e-01	0	27	0	0	82	11212
2026-01-04 02:18:45.60	23.88	3.25	-58.2	-67.7	4.3	8.33e-01	0	27	0	0	82	10818
2026-01-04 02:18:46.60	23.90	3.32	-58.1	-67.4	4.4	8.27e-01	0	27	0	0	82	10484
2026-01-04 02:18:47.60	23.92	3.38	-58.2	-67.7	4.3	8.30e-01	0	28	0	0	82	10806
2026-01-04 02:18:48.61	23.94	3.45	-58.2	-68.1	4.2	8.36e-01	0	27	0	0	82	11341
2026-01-04 02:18:49.60	23.95	3.52	-58.3	-68.5	4.1	8.39e-01	0	27	0	0	82	11834
2026-01-04 02:18:50.59	23.97	3.58	-58.3	-69.3	3.8	8.46e-01	0	27	104	0	82	13089
2026-01-04 02:18:51.59	23.99	3.65	-58.3	-69.2	4.0	8.43e-01	0	28	104	0	82	12854
2026-01-04 02:18:52.59	24.01	3.72	-58.3	-68.7	4.0	8.43e-01	0	27	0	0	82	12228
2026-01-04 02:18:53.58	24.02	3.78	-58.2	-67.8	4.2	8.39e-01	0	28	0	0	82	11024
2026-01-04 02:18:54.58	24.04	3.85	-58.0	-66.3	4.8	8.07e-01	0	28	0	0	82	9227
2026-01-04 02:18:55.58	24.06	3.92	-57.7	-64.9	5.5	7.24e-01	0	28	0	0	82	7880
2026-01-04 02:18:56.58	24.08	3.99	-57.2	-63.1	6.7	2.25e-01	0	28	0	5242880	81	6771
2026-01-04 02:18:57.58	24.10	4.05	-56.8	-61.8	7.8	8.72e-02	0	28	0	10485760	80	6191
2026-01-04 02:18:58.58	24.11	4.12	-56.5	-61.1	8.5	3.06e-02	0	27	0	16777216	79	5997
2026-01-04 02:18:59.58	24.13	4.19	-56.2	-60.3	9.1	1.14e-02	0	28	0	22020096	79	5504
2026-01-04 02:19:00.58	24.15	4.26	-55.9	-59.7	9.6	7.42e-03	0	28	0	27262976	78	5451
2026-01-04 02:19:01.59	24.17	4.33	-55.6	-59.1	10.1	1.58e-03	0	28	0	33554432	77	5355
2026-01-04 02:19:02.59	24.19	4.40	-55.3	-58.6	10.5	9.53e-04	0	28	0	38797312	77	5046
2026-01-04 02:19:03.59	24.20	4.47	-55.1	-58.3	10.7	4.05e-04	0	28	0	45088768	76	5195
2026-01-04 02:19:04.59	24.22	4.54	-55.1	-58.3	10.7	4.45e-04	0	28	0	50331648	76	5194
2026-01-04 02:19:05.60	24.24	4.61	-55.0	-58.1	10.8	2.47e-04	0	28	0	55574528	76	5080
2026-01-04 02:19:06.59	24.26	4.68	-55.0	-58.0	10.9	2.79e-04	0	28	0	61865984	76	5026
2026-01-04 02:19:07.59	24.28	4.75	-55.1	-58.2	10.8	3.24e-04	0	28	0	67108864	76	5143
2026-01-04 02:19:08.59	24.30	4.82	-55.3	-58.6	10.5	6.64e-04	0	28	0	72351744	76	5360
2026-01-04 02:19:09.58	24.31	4.89	-55.5	-58.9	10.2	9.25e-04	0	28	0	78643200	76	5583
2026-01-04 02:19:10.58	24.33	4.96	-55.6	-59.1	10.0	1.68e-03	0	28	0	83886080	76	5712
2026-01-04 02:19:11.59	24.35	5.03	-55.9	-59.7	9.5	3.69e-03	0	28	0	89128960	76	6123
2026-01-04 02:19:12.59	24.37	5.10	-55.9	-59.7	9.9	1.96e-03	0	28	0	95420416	77	5723
2026-01-04 02:19:13.59	24.39	5.17	-56.0	-59.6	9.8	6.64e-02	0	28	0	100663296	78	5378
2026-01-04 02:19:14.59	24.41	5.24	-56.1	-60.2	9.3	9.26e-05	0	28	0	106954752	77	6114
2026-01-04 02:19:15.59	24.43	5.31	-54.3	-57.0	11.5	8.48e-02	0	28	0	112197632	75	4717
2026-01-04 02:19:16.59	24.45	5.38	-55.9	-59.7	10.0	0.00e+00	0	28	0	117440512	76	6091
2026-01-04 02:19:17.59	24.47	5.45	-54.0	-56.5	11.9	4.19e-01	0	28	0	118489088	74	4712
2026-01-04 02:19:18.58	24.49	5.53	-50.9	-52.5	14.0	0.00e+00	0	28	0	123731968	68	4217
2026-01-04 02:19:19.57	24.51	5.60	-50.3	-51.8	14.2	0.00e+00	0	28	0	130023424	67	4113
2026-01-04 02:19:20.57	24.52	5.67	-50.3	-51.8	14.3	0.00e+00	0	28	0	135266304	67	4099
2026-01-04 02:19:21.56	24.54	5.74	-50.2	-51.6	14.3	0.00e+00	0	28	0	140509184	67	4049
2026-01-04 02:19:22.56	24.56	5.81	-50.3	-51.8	14.2	0.00e+00	0	28	0	146800640	66	4376
2026-01-04 02:19:23.56	24.58	5.89	-50.0	-51.5	14.3	0.00e+00	0	28	0	152043520	66	4209
2026-01-04 02:19:24.55	24.60	5.96	-49.9	-51.4	14.4	0.00e+00	0	28	0	158334976	66	4149
2026-01-04 02:19:25.54	24.62	6.03	-49.8	-51.3	14.4	0.00e+00	0	28	0	163577856	66	4101
2026-01-04 02:19:26.54	24.64	6.10	-50.0	-51.4	14.4	0.00e+00	0	28	0	168820736	66	4177
2026-01-04 02:19:27.53	24.66	6.18	-49.9	-51.3	14.4	0.00e+00	0	28	0	174063616	66	4104
2026-01-04 02:19:28.53	24.68	6.25	-49.8	-51.2	14.5	0.00e+00	0	28	0	180355072	66	4057
2026-01-04 02:19:29.53	24.70	6.33	-49.7	-51.1	14.4	0.00e+00	0	28	0	185597952	65	4257
2026-01-04 02:19:30.53	24.72	6.40	-49.7	-51.1	14.4	0.00e+00	0	28	0	190840832	65	4272
2026-01-04 02:19:31.53	24.74	6.47	-49.5	-50.9	14.5	0.00e+00	0	28	0	197132288	65	4179
2026-01-04 02:19:32.52	24.76	6.55	-49.6	-51.0	14.4	0.00e+00	0	28	0	202375168	65	4208
2026-01-04 02:19:33.52	24.78	6.62	-49.5	-50.9	14.5	0.00e+00	0	28	0	208666624	65	4173
2026-01-04 02:19:34.52	24.80	6.70	-49.6	-50.9	14.5	0.00e+00	0	28	0	213909504	65	4186
2026-01-04 02:19:35.52	24.82	6.77	-49.6	-51.0	14.5	0.00e+00	0	28	0	219152384	65	4212
2026-01-04 02:19:36.52	24.85	6.85	-49.6	-50.9	14.5	0.00e+00	0	28	0	225443840	65	4192
2026-01-04 02:19:37.52	24.87	6.93	-49.5	-50.8	14.5	0.00e+00	0	28	0	230686720	65	4140
2026-01-04 02:19:38.52	24.89	7.00	-49.5	-50.9	14.5	0.00e+00	0	28	0	235929600	65	4168
2026-01-04 02:19:39.52	24.91	7.08	-49.4	-50.8	14.6	0.00e+00	0	28	0	242221056	65	4108
2026-01-04 02:19:40.52	24.93	7.15	-49.4	-50.8	14.6	0.00e+00	0	28	0	247463936	65	4112
2026-01-04 02:19:41.52	24.95	7.23	-49.3	-50.6	14.7	0.00e+00	0	28	0	252706816	65	4035
2026-01-04 02:19:42.53	24.97	7.31	-49.4	-50.7	14.6	0.00e+00	0	28	0	258998272	65	4074
2026-01-04 02:19:43.53	24.99	7.39	-49.4	-50.7	14.6	0.00e+00	0	28	0	264241152	65	4080
2026-01-04 02:19:44.53	25.01	7.46	-49.3	-50.6	14.7	0.00e+00	0	28	0	270532608	65	4038
2026-01-04 02:19:45.54	25.04	7.54	-49.1	-50.5	14.6	0.00e+00	0	28	0	275775488	64	4195
2026-01-04 02:19:46.53	25.06	7.62	-49.3	-50.6	14.6	0.00e+00	0	28	0	281018368	64	4281
2026-01-04 02:19:47.53	25.08	7.70	-49.1	-50.4	14.7	0.00e+00	0	28	0	287309824	64	4159
2026-01-04 02:19:48.53	25.10	7.78	-49.1	-50.4	14.6	0.00e+00	0	28	0	292552704	64	4183
2026-01-04 02:19:49.53	25.12	7.85	-49.2	-50.5	14.6	0.00e+00	0	28	0	297795584	64	4207
2026-01-04 02:19:50.54	25.14	7.93	-49.0	-50.3	14.7	0.00e+00	0	28	0	304087040	64	4132
2026-01-04 02:19:51.53	25.17	8.01	-49.0	-50.3	14.7	0.00e+00	0	28	0	309329920	64	4138
2026-01-04 02:19:52.53	25.19	8.09	-49.1	-50.4	14.7	0.00e+00	0	28	0	314572800	64	4186
2026-01-04 02:19:53.52	25.21	8.17	-49.0	-50.3	14.7	0.00e+00	0	28	0	320864256	64	4141
2026-01-04 02:19:54.53	25.23	8.25	-49.0	-50.2	14.7	0.00e+00	0	28	0	326107136	64	4096
2026-01-04 02:19:55.53	25.26	8.33	-48.9	-50.2	14.8	0.00e+00	0	28	0	332398592	64	4075
2026-01-04 02:19:56.53	25.28	8.41	-48.9	-50.2	14.7	0.00e+00	0	28	0	337641472	64	4078
2026-01-04 02:19:57.52	25.30	8.49	-48.9	-50.2	14.8	0.00e+00	0	28	0	342884352	64	4057
2026-01-04 02:19:58.52	25.32	8.57	-48.8	-50.1	14.8	0.00e+00	0	28	0	349175808	64	4028
2026-01-04 02:19:59.51	25.35	8.65	-48.8	-50.1	14.8	0.00e+00	0	28	0	354418688	64	4026
2026-01-04 02:20:00.51	25.37	8.73	-49.0	-50.3	14.7	0.00e+00	0	28	0	359661568	64	4104
2026-01-04 02:20:01.51	25.39	8.82	-48.7	-50.0	14.7	0.00e+00	0	28	0	365953024	63	4214
2026-01-04 02:20:02.51	25.41	8.90	-48.9	-50.2	14.7	0.00e+00	0	28	0	371195904	63	4306
2026-01-04 02:20:03.52	25.44	8.98	-48.9	-50.2	14.7	0.00e+00	0	28	0	376438784	63	4306
2026-01-04 02:20:04.51	25.46	9.06	-48.8	-50.1	14.7	0.00e+00	0	29	0	382730240	63	4256
2026-01-04 02:20:05.51	25.48	9.15	-48.8	-50.1	14.7	0.00e+00	0	28	0	387973120	63	4257
2026-01-04 02:20:06.51	25.51	9.23	-48.8	-50.0	14.7	0.00e+00	0	28	0	394264576	63	4237
2026-01-04 02:20:07.50	25.53	9.31	-48.9	-50.1	14.7	0.00e+00	0	28	0	399507456	63	4289
2026-01-04 02:20:08.50	25.56	9.39	-48.8	-50.1	14.7	0.00e+00	0	29	0	404750336	63	4281
2026-01-04 02:20:09.50	25.58	9.48	-48.7	-50.0	14.8	0.00e+00	0	29	0	411041792	63	4221
2026-01-04 02:20:10.49	25.60	9.56	-48.7	-50.0	14.8	0.00e+00	0	28	0	416284672	63	4223
2026-01-04 02:20:11.49	25.63	9.65	-48.8	-50.0	14.8	0.00e+00	0	28	0	421527552	63	4241
2026-01-04 02:20:12.49	25.65	9.73	-48.7	-50.0	14.8	0.00e+00	0	28	0	427819008	63	4197
2026-01-04 02:20:13.50	25.68	9.82	-48.7	-49.9	14.8	0.00e+00	0	29	0	433061888	63	4184
2026-01-04 02:20:14.49	25.70	9.90	-48.6	-49.9	14.8	0.00e+00	0	29	0	438304768	63	4156
2026-01-04 02:20:15.48	25.72	9.99	-48.6	-49.8	14.8	0.00e+00	0	28	0	444596224	63	4140
2026-01-04 02:20:16.48	25.75	10.07	-48.6	-49.9	14.8	0.00e+00	0	28	0	449839104	63	4147
2026-01-04 02:20:17.49	25.77	10.16	-48.6	-49.8	14.9	0.00e+00	0	28	0	455081984	63	4125
2026-01-04 02:20:18.49	25.80	10.24	-48.6	-49.8	14.9	0.00e+00	0	28	0	461373440	63	4135
2026-01-04 02:20:19.48	25.82	10.33	-48.5	-49.8	14.9	0.00e+00	0	28	0	466616320	63	4113
2026-01-04 02:20:20.48	25.85	10.42	-48.6	-49.9	14.8	0.00e+00	0	29	0	471859200	63	4147
2026-01-04 02:20:21.48	25.87	10.51	-48.6	-49.8	14.9	0.00e+00	0	28	0	478150656	63	4120
2026-01-04 02:20:22.48	25.90	10.59	-48.6	-49.9	14.8	0.00e+00	0	28	0	483393536	63	4168
2026-01-04 02:20:23.48	25.93	10.68	-48.5	-49.8	14.9	0.00e+00	0	28	0	489684992	63	4115
2026-01-04 02:20:24.48	25.95	10.77	-48.6	-49.9	14.9	0.00e+00	0	28	0	494927872	63	4153
2026-01-04 02:20:25.46	25.98	10.86	-48.6	-49.8	14.9	0.00e+00	0	29	0	500170752	63	4133
2026-01-04 02:20:26.47	26.00	10.95	-48.5	-49.7	14.9	0.00e+00	0	28	0	506462208	63	4096
2026-01-04 02:20:27.46	26.03	11.03	-48.5	-49.7	14.9	0.00e+00	0	28	0	511705088	63	4096
2026-01-04 02:20:28.47	26.06	11.12	-48.5	-49.7	14.9	0.00e+00	0	28	0	516947968	63	4078
2026-01-04 02:20:29.46	26.08	11.21	-48.5	-49.7	14.9	0.00e+00	0	29	0	523239424	63	4084
2026-01-04 02:20:30.46	26.11	11.30	-48.5	-49.8	14.9	0.00e+00	0	28	0	528482304	63	4099
2026-01-04 02:20:31.45	26.13	11.39	-48.5	-49.7	14.9	0.00e+00	0	29	0	533725184	63	4082
2026-01-04 02:20:32.44	26.16	11.48	-48.5	-49.7	14.9	0.00e+00	0	29	0	540016640	63	4074
2026-01-04 02:20:33.44	26.19	11.57	-48.5	-49.7	14.9	0.00e+00	0	29	0	545259520	63	4089
2026-01-04 02:20:34.43	26.21	11.67	-48.5	-49.7	14.9	0.00e+00	0	28	0	550502400	63	4066
2026-01-04 02:20:35.43	26.24	11.76	-48.5	-49.7	14.9	0.00e+00	0	28	0	556793856	63	4075
2026-01-04 02:20:36.43	26.27	11.85	-48.4	-49.6	14.9	0.00e+00	0	28	0	562036736	63	4035
2026-01-04 02:20:37.41	26.30	11.94	-48.4	-49.6	15.0	0.00e+00	0	29	0	567279616	63	4032
2026-01-04 02:20:38.41	26.32	12.03	-48.5	-49.7	14.9	0.00e+00	0	29	0	573571072	63	4070
2026-01-04 02:20:39.41	26.35	12.13	-48.5	-49.7	14.9	0.00e+00	0	29	0	578813952	63	4065
2026-01-04 02:20:40.41	26.38	12.22	-48.4	-49.6	14.9	0.00e+00	0	29	0	584056832	63	4046
2026-01-04 02:20:41.40	26.41	12.31	-48.3	-49.5	15.0	0.00e+00	0	29	0	590348288	63	4004
2026-01-04 02:20:42.40	26.43	12.41	-48.3	-49.6	15.0	0.00e+00	0	29	0	595591168	63	4005
2026-01-04 02:20:43.41	26.46	12.50	-48.3	-49.6	15.0	0.00e+00	0	29	0	601882624	63	4010
2026-01-04 02:20:44.41	26.49	12.60	-48.4	-49.6	15.0	0.00e+00	0	29	0	607125504	63	4013
2026-01-04 02:20:45.41	26.52	12.69	-48.2	-49.4	15.0	0.00e+00	0	29	0	612368384	63	3946
2026-01-04 02:20:46.40	26.55	12.79	-48.1	-49.3	15.0	0.00e+00	0	28	0	618659840	62	4134
2026-01-04 02:20:47.40	26.58	12.88	-48.2	-49.4	14.9	0.00e+00	0	29	0	623902720	62	4147
2026-01-04 02:20:48.40	26.61	12.98	-48.1	-49.3	15.0	0.00e+00	0	28	0	629145600	62	4116
2026-01-04 02:20:49.40	26.64	13.08	-48.2	-49.4	14.9	0.00e+00	0	29	0	635437056	62	4167
2026-01-04 02:20:50.40	26.67	13.17	-48.0	-49.2	15.0	0.00e+00	0	28	0	640679936	62	4081
2026-01-04 02:20:51.40	26.69	13.27	-48.0	-49.2	15.0	0.00e+00	0	29	0	645922816	62	4061
2026-01-04 02:20:52.41	26.73	13.37	-48.0	-49.2	15.0	0.00e+00	0	29	0	652214272	62	4063
2026-01-04 02:20:53.41	26.75	13.47	-48.0	-49.1	15.0	0.00e+00	0	29	0	657457152	62	4041
2026-01-04 02:20:54.40	26.78	13.57	-47.9	-49.1	15.0	0.00e+00	0	29	0	663748608	62	4027
2026-01-04 02:20:55.41	26.82	13.67	-48.0	-49.1	15.0	0.00e+00	0	29	0	668991488	62	4049
2026-01-04 02:20:56.40	26.85	13.77	-48.1	-49.3	15.0	0.00e+00	0	29	0	674234368	62	4106
2026-01-04 02:20:57.40	26.88	13.87	-47.8	-49.0	15.1	0.00e+00	0	29	0	680525824	62	3981
2026-01-04 02:20:58.41	26.91	13.97	-47.9	-49.0	15.1	0.00e+00	0	28	0	685768704	62	4000
2026-01-04 02:20:59.41	26.94	14.07	-47.8	-49.0	15.1	0.00e+00	0	29	0	691011584	62	3990
2026-01-04 02:21:00.40	26.97	14.17	-47.7	-48.9	15.1	0.00e+00	0	28	0	697303040	62	3927
2026-01-04 02:21:01.40	27.00	14.27	-47.8	-49.0	15.1	0.00e+00	0	28	0	702545920	62	3978
2026-01-04 02:21:02.40	27.03	14.37	-47.9	-49.0	15.1	0.00e+00	0	29	0	707788800	62	3989
2026-01-04 02:21:03.40	27.06	14.48	-47.7	-48.9	15.1	0.00e+00	0	29	0	714080256	62	3927
2026-01-04 02:21:04.39	27.10	14.58	-47.7	-48.8	15.1	0.00e+00	0	29	0	719323136	61	4125
2026-01-04 02:21:05.39	27.13	14.68	-47.7	-48.8	15.0	0.00e+00	0	29	0	724566016	61	4136
2026-01-04 02:21:06.40	27.16	14.79	-47.5	-48.7	15.1	0.00e+00	0	29	0	730857472	61	4055
2026-01-04 02:21:07.40	27.19	14.89	-47.4	-48.6	15.2	0.00e+00	0	29	0	736100352	61	4018
2026-01-04 02:21:08.39	27.22	14.99	-47.5	-48.6	15.1	0.00e+00	0	29	0	741343232	61	4031
2026-01-04 02:21:09.39	27.26	15.10	-47.5	-48.7	15.1	0.00e+00	0	28	0	747634688	61	4054
2026-01-04 02:21:10.39	27.29	15.21	-47.3	-48.5	15.2	0.00e+00	0	29	0	752877568	61	3967
2026-01-04 02:21:11.39	27.32	15.31	-47.2	-48.4	15.2	0.00e+00	0	29	0	758120448	61	3922
2026-01-04 02:21:12.38	27.36	15.42	-47.2	-48.3	15.1	0.00e+00	0	29	0	764411904	60	4129
2026-01-04 02:21:13.38	27.39	15.52	-47.1	-48.3	15.1	0.00e+00	0	28	0	769654784	60	4109
2026-01-04 02:21:14.38	27.42	15.63	-47.2	-48.3	15.1	0.00e+00	0	29	0	775946240	60	4136
2026-01-04 02:21:15.38	27.46	15.74	-47.1	-48.2	15.2	0.00e+00	0	29	0	781189120	60	4083
2026-01-04 02:21:16.38	27.49	15.85	-47.0	-48.2	15.2	0.00e+00	0	29	0	786432000	60	4057
2026-01-04 02:21:17.37	27.53	15.96	-47.1	-48.2	15.2	0.00e+00	0	29	0	792723456	60	4059
2026-01-04 02:21:18.38	27.56	16.07	-47.0	-48.1	15.2	0.00e+00	0	29	0	797966336	60	4024
2026-01-04 02:21:19.38	27.60	16.18	-47.0	-48.1	15.2	0.00e+00	0	29	0	803209216	60	4046
2026-01-04 02:21:20.37	27.63	16.29	-47.0	-48.1	15.2	0.00e+00	0	29	0	809500672	60	4035
2026-01-04 02:21:21.37	27.67	16.40	-46.9	-48.0	15.2	0.00e+00	0	29	0	814743552	60	4004
2026-01-04 02:21:22.37	27.70	16.51	-46.9	-48.0	15.2	0.00e+00	0	29	0	819986432	60	3984
2026-01-04 02:21:23.37	27.74	16.62	-46.9	-48.0	15.2	0.00e+00	0	29	0	826277888	60	3976
2026-01-04 02:21:24.38	27.78	16.73	-46.9	-48.0	15.2	0.00e+00	0	29	0	831520768	60	3992
2026-01-04 02:21:25.38	27.81	16.85	-46.9	-48.0	15.2	0.00e+00	0	29	0	837812224	60	3962
2026-01-04 02:21:26.38	27.85	16.96	-46.8	-47.9	15.3	0.00e+00	0	29	0	843055104	60	3932
2026-01-04 02:21:27.38	27.89	17.07	-46.9	-48.0	15.2	0.00e+00	0	29	0	848297984	60	3997
2026-01-04 02:21:28.37	27.92	17.19	-46.8	-47.9	15.3	0.00e+00	0	29	0	854589440	60	3924
2026-01-04 02:21:29.37	27.96	17.30	-46.7	-47.8	15.3	0.00e+00	0	29	0	859832320	60	3908
2026-01-04 02:21:30.36	28.00	17.42	-47.1	-48.2	15.1	0.00e+00	0	29	0	865075200	59	4313
2026-01-04 02:21:31.36	28.04	17.53	-47.0	-48.1	15.1	0.00e+00	0	29	0	871366656	59	4276
2026-01-04 02:21:32.35	28.07	17.65	-47.1	-48.2	15.1	0.00e+00	0	29	0	876609536	59	4320
2026-01-04 02:21:33.35	28.11	17.76	-47.0	-48.2	15.1	0.00e+00	0	29	0	881852416	59	4304
2026-01-04 02:21:34.35	28.15	17.88	-47.2	-48.3	15.1	0.00e+00	0	29	0	888143872	59	4381
2026-01-04 02:21:35.35	28.19	18.00	-47.1	-48.3	15.1	0.00e+00	0	29	0	893386752	59	4343
2026-01-04 02:21:36.35	28.23	18.12	-47.1	-48.2	15.1	0.00e+00	0	29	0	898629632	59	4321
2026-01-04 02:21:37.34	28.27	18.24	-47.2	-48.3	15.1	0.00e+00	0	29	0	904921088	59	4372
2026-01-04 02:21:38.34	28.31	18.36	-47.2	-48.3	15.1	0.00e+00	0	29	0	910163968	59	4388
2026-01-04 02:21:39.33	28.35	18.48	-47.1	-48.2	15.1	0.00e+00	0	29	0	915406848	59	4337
2026-01-04 02:21:40.33	28.39	18.60	-47.0	-48.2	15.1	0.00e+00	0	29	0	921698304	59	4295
2026-01-04 02:21:41.33	28.43	18.72	-47.0	-48.1	15.1	0.00e+00	0	29	0	926941184	59	4261
2026-01-04 02:21:42.32	28.47	18.84	-47.0	-48.1	15.1	0.00e+00	0	29	0	933232640	59	4285
2026-01-04 02:21:43.32	28.51	18.96	-46.9	-48.1	15.1	0.00e+00	0	29	0	938475520	59	4248
2026-01-04 02:21:44.33	28.55	19.09	-46.9	-48.0	15.1	0.00e+00	0	29	0	943718400	59	4206
2026-01-04 02:21:45.33	28.59	19.21	-46.9	-48.0	15.1	0.00e+00	0	29	0	950009856	59	4225
2026-01-04 02:21:46.33	28.64	19.34	-46.8	-47.9	15.2	0.00e+00	0	29	0	955252736	59	4154
2026-01-04 02:21:47.33	28.68	19.46	-46.8	-47.9	15.2	0.00e+00	0	29	0	960495616	59	4168
2026-01-04 02:21:48.32	28.72	19.59	-46.8	-47.9	15.2	0.00e+00	0	29	0	966787072	59	4170
2026-01-04 02:21:49.32	28.76	19.71	-46.7	-47.8	15.2	0.00e+00	0	29	0	972029952	59	4129
2026-01-04 02:21:50.32	28.81	19.84	-46.7	-47.8	15.2	0.00e+00	0	29	0	977272832	59	4132
2026-01-04 02:21:51.32	28.85	19.97	-46.7	-47.8	15.2	0.00e+00	0	29	0	983564288	59	4125
2026-01-04 02:21:52.32	28.89	20.10	-46.7	-47.8	15.2	0.00e+00	0	29	0	988807168	59	4127
2026-01-04 02:21:53.32	28.94	20.23	-46.8	-47.9	15.2	0.00e+00	0	29	0	995098624	59	4148
2026-01-04 02:21:54.32	28.98	20.36	-46.7	-47.8	15.2	0.00e+00	0	29	0	1000341504	59	4123
2026-01-04 02:21:55.32	29.03	20.49	-46.7	-47.8	15.2	0.00e+00	0	29	0	1005584384	59	4127
2026-01-04 02:21:56.33	29.07	20.62	-46.7	-47.8	15.2	0.00e+00	0	29	0	1011875840	59	4109
2026-01-04 02:21:57.32	29.12	20.75	-46.7	-47.8	15.2	0.00e+00	0	29	0	1017118720	59	4138
2026-01-04 02:21:58.32	29.16	20.88	-46.7	-47.8	15.2	0.00e+00	0	29	0	1022361600	59	4110
2026-01-04 02:21:59.32	29.21	21.01	-46.7	-47.8	15.2	0.00e+00	0	29	0	1028653056	59	4126
2026-01-04 02:22:00.33	29.26	21.15	-46.7	-47.8	15.2	0.00e+00	0	29	0	1033895936	59	4126
2026-01-04 02:22:01.33	29.31	21.28	-46.7	-47.8	15.2	0.00e+00	0	29	0	1039138816	59	4129
2026-01-04 02:22:02.34	29.35	21.42	-46.7	-47.8	15.2	0.00e+00	0	29	0	1045430272	59	4123
2026-01-04 02:22:03.35	29.40	21.56	-46.6	-47.7	15.2	0.00e+00	0	29	0	1050673152	59	4087
2026-01-04 02:22:04.35	29.45	21.70	-46.5	-47.6	15.3	0.00e+00	0	29	0	1056964608	59	4022
2026-01-04 02:22:05.36	29.50	21.83	-46.5	-47.6	15.3	0.00e+00	0	29	0	1062207488	59	4018
2026-01-04 02:22:06.36	29.55	21.97	-46.4	-47.5	15.3	0.00e+00	0	29	0	1068498944	59	3983
2026-01-04 02:22:07.35	29.60	22.11	-46.3	-47.4	15.3	0.00e+00	0	29	0	1073741824	59	3942
2026-01-04 02:22:08.35	29.65	22.25	-46.3	-47.3	15.4	0.00e+00	0	29	0	1078984704	59	3909
2026-01-04 02:22:09.35	29.70	22.39	-46.2	-47.3	15.4	0.00e+00	0	29	0	1085276160	59	3869
2026-01-04 02:22:10.35	29.75	22.53	-46.1	-47.2	15.3	0.00e+00	0	29	0	1090519040	58	4084
2026-01-04 02:22:11.35	29.80	22.67	-46.1	-47.1	15.3	0.00e+00	0	29	0	1095761920	58	4047
2026-01-04 02:22:12.35	29.85	22.82	-46.1	-47.2	15.3	0.00e+00	0	29	0	1102053376	58	4071
2026-01-04 02:22:13.35	29.90	22.96	-46.1	-47.2	15.3	0.00e+00	0	29	0	1107296256	58	4062
2026-01-04 02:22:14.35	29.96	23.10	-46.1	-47.1	15.3	0.00e+00	0	29	0	1112539136	58	4037
2026-01-04 02:22:15.36	30.01	23.25	-46.0	-47.0	15.3	0.00e+00	0	29	0	1118830592	58	4003
2026-01-04 02:22:16.36	30.06	23.40	-45.9	-46.9	15.4	0.00e+00	0	29	0	1124073472	58	3939
2026-01-04 02:22:17.36	30.12	23.54	-45.9	-47.0	15.4	0.00e+00	0	29	0	1130364928	58	3971
2026-01-04 02:22:18.37	30.17	23.69	-45.9	-47.0	15.4	0.00e+00	0	29	0	1135607808	58	3978
2026-01-04 02:22:19.37	30.23	23.84	-45.9	-46.9	15.4	0.00e+00	0	29	0	1140850688	58	3957
2026-01-04 02:22:20.37	30.28	23.99	-45.8	-46.9	15.4	0.00e+00	0	29	0	1147142144	58	3923
2026-01-04 02:22:21.37	30.34	24.14	-45.8	-46.9	15.4	0.00e+00	0	29	0	1152385024	58	3933
2026-01-04 02:22:22.37	30.39	24.29	-45.9	-47.0	15.4	0.00e+00	0	29	0	1157627904	58	3965
2026-01-04 02:22:23.37	30.45	24.44	-45.9	-46.9	15.4	0.00e+00	0	29	0	1163919360	58	3948
2026-01-04 02:22:24.37	30.51	24.59	-45.9	-46.9	15.4	0.00e+00	0	29	0	1169162240	58	3939
2026-01-04 02:22:25.36	30.56	24.75	-45.9	-46.9	15.4	0.00e+00	0	29	0	1174405120	58	3955
2026-01-04 02:22:26.36	30.62	24.90	-45.8	-46.8	15.4	0.00e+00	0	29	0	1180696576	58	3904
2026-01-04 02:22:27.36	30.68	25.06	-45.8	-46.8	15.4	0.00e+00	0	29	0	1185939456	58	3913
2026-01-04 02:22:28.36	30.74	25.21	-45.8	-46.9	15.4	0.00e+00	0	29	0	1192230912	58	3915
2026-01-04 02:22:29.36	30.80	25.37	-45.8	-46.8	15.4	0.00e+00	0	29	0	1197473792	58	3897
2026-01-04 02:22:30.35	30.86	25.53	-45.8	-46.9	15.4	0.00e+00	0	29	0	1202716672	58	3922
2026-01-04 02:22:31.35	30.92	25.68	-45.9	-47.0	15.4	0.00e+00	0	29	0	1209008128	58	3961
2026-01-04 02:22:32.35	30.98	25.84	-45.7	-46.8	15.5	0.00e+00	0	29	0	1214251008	58	3873
2026-01-04 02:22:33.34	31.05	26.00	-45.8	-46.8	15.4	0.00e+00	0	29	0	1219493888	58	3907
2026-01-04 02:22:34.35	31.11	26.17	-45.8	-46.8	15.4	0.00e+00	0	29	0	1225785344	58	3909
2026-01-04 02:22:35.35	31.17	26.33	-45.6	-46.7	15.3	0.00e+00	0	29	0	1231028224	57	4057
2026-01-04 02:22:36.35	31.24	26.49	-45.5	-46.5	15.4	0.00e+00	0	29	0	1236271104	57	4000
2026-01-04 02:22:37.35	31.30	26.66	-45.5	-46.5	15.4	0.00e+00	0	29	0	1242562560	57	3988
2026-01-04 02:22:38.34	31.37	26.82	-45.5	-46.5	15.4	0.00e+00	0	29	0	1247805440	57	4001
2026-01-04 02:22:39.34	31.43	26.99	-45.3	-46.3	15.5	0.00e+00	0	29	0	1253048320	57	3889
2026-01-04 02:22:40.33	31.50	27.15	-45.3	-46.3	15.5	0.00e+00	0	29	0	1259339776	57	3912
2026-01-04 02:22:41.34	31.56	27.32	-45.2	-46.3	15.5	0.00e+00	0	29	0	1264582656	57	3873
2026-01-04 02:22:42.33	31.63	27.49	-45.3	-46.3	15.5	0.00e+00	0	29	0	1269825536	57	3888
2026-01-04 02:22:43.33	31.70	27.66	-45.3	-46.3	15.5	0.00e+00	0	29	0	1276116992	57	3911
2026-01-04 02:22:44.33	31.77	27.83	-45.4	-46.4	15.4	0.00e+00	0	29	0	1281359872	57	3931
2026-01-04 02:22:45.33	31.84	28.00	-45.5	-46.5	15.4	0.00e+00	0	29	0	1286602752	57	3979
2026-01-04 02:22:46.32	31.91	28.18	-45.5	-46.5	15.4	0.00e+00	0	29	0	1292894208	57	3985
2026-01-04 02:22:47.32	31.98	28.35	-45.6	-46.6	15.4	0.00e+00	0	29	0	1298137088	57	4051
2026-01-04 02:22:48.32	32.05	28.53	-45.6	-46.7	15.4	0.00e+00	0	29	0	1304428544	57	4057
2026-01-04 02:22:49.31	32.12	28.70	-45.5	-46.6	15.4	0.00e+00	0	29	0	1309671424	57	4047
2026-01-04 02:22:50.31	32.20	28.88	-45.5	-46.7	15.4	0.00e+00	0	29	0	1314914304	57	4065
2026-01-04 02:22:51.31	32.27	29.06	-45.6	-46.8	15.4	0.00e+00	0	29	0	1321205760	57	4104
2026-01-04 02:22:52.31	32.35	29.24	-45.5	-46.7	15.5	0.00e+00	0	29	0	1326448640	57	4090
2026-01-04 02:22:53.31	32.42	29.42	-45.5	-46.7	15.5	0.00e+00	0	29	0	1331691520	57	4060
2026-01-04 02:22:54.31	32.50	29.60	-45.5	-46.6	15.4	0.00e+00	0	29	0	1337982976	57	4046
2026-01-04 02:22:55.31	32.58	29.79	-45.3	-46.4	15.5	0.00e+00	0	29	0	1343225856	57	3926
2026-01-04 02:22:56.32	32.66	29.97	-45.4	-46.4	15.5	0.00e+00	0	29	0	1348468736	57	3946
2026-01-04 02:22:57.32	32.74	30.16	-45.4	-46.4	15.5	0.00e+00	0	29	0	1354760192	57	3933
2026-01-04 02:22:58.32	32.82	30.34	-45.4	-46.4	15.5	0.00e+00	0	29	0	1360003072	57	3953
2026-01-04 02:22:59.32	32.90	30.53	-45.4	-46.5	15.4	0.00e+00	0	29	0	1366294528	57	3968
2026-01-04 02:23:00.31	32.98	30.72	-45.5	-46.6	15.4	0.00e+00	0	29	0	1371537408	57	4010
2026-01-04 02:23:01.32	33.06	30.91	-45.6	-46.6	15.4	0.00e+00	0	29	0	1376780288	57	4035
2026-01-04 02:23:02.31	33.14	31.10	-45.5	-46.5	15.4	0.00e+00	0	29	0	1383071744	57	3994
2026-01-04 02:23:03.32	33.23	31.30	-45.5	-46.5	15.4	0.00e+00	0	29	0	1388314624	57	3975
2026-01-04 02:23:04.31	33.31	31.49	-45.4	-46.4	15.4	0.00e+00	0	29	0	1393557504	57	3951
2026-01-04 02:23:05.31	33.40	31.68	-45.4	-46.4	15.4	0.00e+00	0	29	0	1399848960	57	3951
2026-01-04 02:23:06.32	33.49	31.88	-45.5	-46.6	15.4	0.00e+00	0	29	0	1405091840	57	4008
2026-01-04 02:23:07.32	33.58	32.08	-45.6	-46.7	15.4	0.00e+00	0	29	0	1410334720	57	4059
2026-01-04 02:23:08.32	33.67	32.28	-45.7	-46.8	15.3	0.00e+00	0	29	0	1416626176	57	4101
2026-01-04 02:23:09.32	33.76	32.48	-45.7	-46.7	15.3	0.00e+00	0	29	0	1421869056	57	4082
2026-01-04 02:23:10.32	33.85	32.68	-45.6	-46.7	15.3	0.00e+00	0	29	0	1428160512	57	4070
2026-01-04 02:23:11.32	33.94	32.88	-45.4	-46.5	15.4	0.00e+00	0	29	0	1433403392	57	3961
2026-01-04 02:23:12.32	34.04	33.09	-45.4	-46.4	15.4	0.00e+00	0	29	0	1438646272	57	3954
2026-01-04 02:23:13.33	34.13	33.29	-45.3	-46.3	15.5	0.00e+00	0	29	0	1444937728	57	3878
2026-01-04 02:23:14.32	34.23	33.50	-45.3	-46.3	15.5	0.00e+00	0	29	0	1450180608	57	3896
2026-01-04 02:23:15.32	34.33	33.71	-45.3	-46.3	15.5	0.00e+00	0	29	0	1455423488	57	3888
2026-01-04 02:23:16.32	34.43	33.92	-45.3	-46.3	15.5	0.00e+00	0	29	0	1461714944	57	3885
2026-01-04 02:23:17.33	34.53	34.13	-45.4	-46.5	15.4	0.00e+00	0	29	0	1466957824	57	3972
2026-01-04 02:23:18.34	34.63	34.34	-45.5	-46.5	15.4	0.00e+00	0	29	0	1472200704	57	3990
2026-01-04 02:23:19.33	34.73	34.55	-45.5	-46.6	15.4	0.00e+00	0	29	0	1478492160	57	4028
2026-01-04 02:23:20.34	34.83	34.77	-45.6	-46.6	15.4	0.00e+00	0	29	0	1483735040	57	4034
2026-01-04 02:23:21.34	34.94	34.99	-45.5	-46.5	15.4	0.00e+00	0	29	0	1490026496	57	3981
2026-01-04 02:23:22.34	35.05	35.21	-45.4	-46.4	15.4	0.00e+00	0	29	0	1495269376	57	3935
2026-01-04 02:23:23.34	35.15	35.42	-45.2	-46.3	15.5	0.00e+00	0	29	0	1500512256	57	3869
2026-01-04 02:23:24.34	35.26	35.64	-45.4	-46.4	15.4	0.00e+00	0	29	0	1506803712	57	3952
2026-01-04 02:23:25.34	35.37	35.87	-45.4	-46.4	15.4	0.00e+00	0	29	0	1512046592	57	3954
2026-01-04 02:23:26.34	35.49	36.09	-45.5	-46.6	15.4	0.00e+00	0	29	0	1517289472	57	4005
2026-01-04 02:23:27.33	35.60	36.31	-45.6	-46.7	15.4	0.00e+00	0	29	0	1523580928	57	4060
2026-01-04 02:23:28.33	35.71	36.54	-45.4	-46.4	15.4	0.00e+00	0	29	0	1528823808	57	3954
2026-01-04 02:23:29.33	35.83	36.77	-45.3	-46.4	15.5	0.00e+00	0	29	0	1535115264	57	3918
2026-01-04 02:23:30.32	35.95	36.99	-45.1	-46.1	15.4	0.00e+00	0	29	0	1540358144	56	4038
2026-01-04 02:23:31.32	36.07	37.22	-45.1	-46.1	15.4	0.00e+00	0	29	0	1545601024	56	4018
2026-01-04 02:23:32.32	36.19	37.46	-45.2	-46.2	15.4	0.00e+00	0	29	0	1551892480	56	4074
2026-01-04 02:23:33.31	36.31	37.69	-45.2	-46.2	15.4	0.00e+00	0	29	0	1557135360	56	4077
2026-01-04 02:23:34.31	36.44	37.92	-45.2	-46.2	15.4	0.00e+00	0	29	0	1562378240	56	4084
2026-01-04 02:23:35.30	36.56	38.16	-45.2	-46.3	15.4	0.00e+00	0	29	0	1568669696	56	4100
2026-01-04 02:23:36.29	36.69	38.39	-45.0	-46.0	15.4	0.00e+00	0	29	0	1573912576	56	3978
2026-01-04 02:23:37.28	36.82	38.63	-45.1	-46.1	15.4	0.00e+00	0	29	0	1579155456	56	4009
2026-01-04 02:23:38.27	36.95	38.87	-44.9	-45.9	15.5	0.00e+00	0	29	0	1585446912	56	3926
2026-01-04 02:23:39.28	37.08	39.11	-44.9	-45.9	15.5	0.00e+00	0	29	0	1590689792	56	3917
2026-01-04 02:23:40.27	37.22	39.36	-44.9	-46.0	15.5	0.00e+00	0	29	0	1595932672	56	3959
2026-01-04 02:23:41.27	37.36	39.60	-45.0	-46.0	15.4	0.00e+00	0	29	0	1602224128	56	3998
2026-01-04 02:23:42.27	37.50	39.85	-45.2	-46.2	15.4	0.00e+00	0	29	0	1607467008	56	4079
2026-01-04 02:23:43.26	37.64	40.10	-45.3	-46.3	15.3	0.00e+00	0	29	0	1612709888	56	4121
2026-01-04 02:23:44.27	37.78	40.35	-45.3	-46.4	15.4	0.00e+00	0	29	0	1619001344	56	4149
2026-01-04 02:23:45.26	37.93	40.60	-45.2	-46.2	15.4	0.00e+00	0	29	0	1624244224	56	4082
2026-01-04 02:23:46.26	38.08	40.85	-45.2	-46.2	15.4	0.00e+00	0	29	0	1629487104	56	4084
2026-01-04 02:23:47.26	38.23	41.11	-45.3	-46.3	15.4	0.00e+00	0	29	0	1635778560	56	4137
2026-01-04 02:23:48.27	38.38	41.37	-45.5	-46.5	15.3	0.00e+00	0	29	0	1641021440	56	4226
2026-01-04 02:23:49.27	38.54	41.63	-45.5	-46.6	15.3	0.00e+00	0	29	0	1647312896	56	4244
2026-01-04 02:23:50.27	38.69	41.89	-45.5	-46.6	15.3	0.00e+00	0	29	0	1652555776	56	4247
2026-01-04 02:23:51.27	38.86	42.15	-45.3	-46.4	15.3	0.00e+00	0	29	0	1657798656	56	4162
2026-01-04 02:23:52.27	39.02	42.41	-45.4	-46.5	15.3	0.00e+00	0	29	0	1664090112	56	4201
2026-01-04 02:23:53.27	39.18	42.68	-45.7	-46.7	15.3	0.00e+00	0	29	0	1669332992	56	4337
2026-01-04 02:23:54.26	39.35	42.94	-45.8	-46.8	15.3	0.00e+00	0	29	0	1674575872	56	4368
2026-01-04 02:23:55.27	39.52	43.21	-45.9	-46.9	15.3	0.00e+00	0	29	0	1680867328	56	4421
2026-01-04 02:23:56.26	39.70	43.48	-45.7	-46.7	15.3	0.00e+00	0	29	0	1686110208	56	4326
2026-01-04 02:23:57.27	39.88	43.75	-45.7	-46.7	15.3	0.00e+00	0	29	0	1691353088	56	4327
2026-01-04 02:23:58.26	40.05	44.02	-45.6	-46.6	15.3	0.00e+00	0	29	0	1697644544	56	4281
2026-01-04 02:23:59.26	40.24	44.30	-45.8	-46.8	15.3	0.00e+00	0	29	0	1702887424	56	4387
2026-01-04 02:24:00.26	40.42	44.58	-46.0	-47.0	15.3	0.00e+00	0	29	0	1709178880	57	4237
2026-01-04 02:24:01.25	40.61	44.85	-46.1	-47.2	15.2	0.00e+00	0	29	0	1714421760	57	4303
2026-01-04 02:24:02.24	40.80	45.13	-46.1	-47.2	15.2	0.00e+00	0	29	0	1719664640	57	4301
2026-01-04 02:24:03.22	40.99	45.40	-46.1	-47.2	15.3	0.00e+00	0	29	0	1724907520	57	4293
2026-01-04 02:24:04.22	41.19	45.69	-45.9	-47.0	15.3	0.00e+00	0	29	0	1731198976	57	4225
2026-01-04 02:24:05.23	41.40	45.98	-45.7	-46.7	15.4	0.00e+00	0	29	0	1736441856	57	4094
2026-01-04 02:24:06.22	41.60	46.26	-45.6	-46.6	15.4	0.00e+00	0	29	0	1741684736	57	4035
2026-01-04 02:24:07.22	41.81	46.55	-45.6	-46.6	15.4	0.00e+00	0	29	0	1747976192	57	4019
2026-01-04 02:24:08.22	42.03	46.84	-45.7	-46.7	15.4	0.00e+00	0	29	0	1753219072	57	4067
2026-01-04 02:24:09.21	42.24	47.12	-45.8	-46.8	15.4	0.00e+00	0	29	0	1759510528	57	4121
2026-01-04 02:24:10.22	42.47	47.42	-46.0	-47.0	15.3	0.00e+00	0	29	0	1764753408	57	4230
2026-01-04 02:24:11.22	42.69	47.71	-45.9	-47.0	15.3	0.00e+00	0	29	0	1769996288	57	4206
2026-01-04 02:24:12.22	42.92	48.01	-45.9	-46.9	15.3	0.00e+00	0	29	0	1776287744	57	4174
2026-01-04 02:24:13.22	43.16	48.31	-45.8	-46.8	15.3	0.00e+00	0	29	0	1781530624	57	4124
2026-01-04 02:24:14.23	43.40	48.61	-45.8	-46.8	15.3	0.00e+00	0	29	0	1786773504	57	4116
2026-01-04 02:24:15.23	43.64	48.91	-45.6	-46.6	15.4	0.00e+00	0	29	0	1793064960	57	4037
2026-01-04 02:24:16.23	43.89	49.21	-46.0	-47.0	15.3	0.00e+00	0	29	0	1798307840	57	4231
2026-01-04 02:24:17.23	44.14	49.52	-46.3	-47.3	15.2	0.00e+00	0	29	0	1803550720	57	4378
2026-01-04 02:24:18.23	44.40	49.82	-46.2	-47.3	15.2	0.00e+00	0	29	0	1809842176	57	4342
2026-01-04 02:24:19.23	44.67	50.13	-46.2	-47.2	15.2	0.00e+00	0	29	0	1815085056	57	4332
2026-01-04 02:24:20.23	44.93	50.44	-46.0	-47.1	15.3	0.00e+00	0	29	0	1821376512	57	4261
2026-01-04 02:24:21.23	45.21	50.75	-46.0	-47.0	15.3	0.00e+00	0	29	0	1826619392	57	4218
2026-01-04 02:24:22.22	45.49	51.05	-46.0	-47.1	15.3	0.00e+00	0	29	0	1831862272	57	4262
2026-01-04 02:24:23.22	45.77	51.37	-46.0	-47.1	15.3	0.00e+00	0	29	0	1838153728	57	4270
2026-01-04 02:24:24.22	46.06	51.68	-46.1	-47.1	15.2	0.00e+00	0	29	0	1843396608	57	4290
2026-01-04 02:24:25.22	46.36	51.99	-46.2	-47.2	15.2	0.00e+00	0	29	0	1848639488	57	4331
2026-01-04 02:24:26.22	46.67	52.31	-46.6	-47.7	15.2	0.00e+00	0	29	0	1854930944	58	4297
2026-01-04 02:24:27.22	46.98	52.63	-46.8	-47.9	15.2	0.00e+00	0	29	0	1860173824	58	4419
2026-01-04 02:24:28.22	47.29	52.95	-46.8	-47.9	15.2	0.00e+00	0	29	0	1865416704	58	4402
2026-01-04 02:24:29.22	47.62	53.27	-46.8	-47.9	15.2	0.00e+00	0	29	0	1871708160	58	4407
2026-01-04 02:24:30.22	47.95	53.59	-46.7	-47.8	15.2	0.00e+00	0	29	0	1876951040	58	4390
2026-01-04 02:24:31.21	48.29	53.90	-46.5	-47.6	15.2	0.00e+00	0	29	0	1883242496	58	4272
2026-01-04 02:24:32.21	48.63	54.23	-46.6	-47.6	15.2	0.00e+00	0	29	0	1888485376	58	4279
2026-01-04 02:24:33.20	48.98	54.55	-46.5	-47.6	15.2	0.00e+00	0	29	0	1893728256	58	4254
2026-01-04 02:24:34.19	49.34	54.87	-46.9	-48.0	15.2	0.00e+00	0	29	0	1898971136	58	4463
2026-01-04 02:24:35.19	49.71	55.20	-47.1	-48.2	15.2	0.00e+00	0	29	0	1905262592	59	4311
2026-01-04 02:24:36.19	50.09	55.52	-47.1	-48.2	15.2	0.00e+00	0	29	0	1910505472	59	4308
2026-01-04 02:24:37.19	50.48	55.85	-46.8	-47.9	15.3	0.00e+00	0	29	0	1915748352	59	4146
2026-01-04 02:24:38.18	50.87	56.17	-46.8	-47.8	15.3	0.00e+00	0	29	0	1922039808	59	4133
2026-01-04 02:24:39.18	51.27	56.50	-47.0	-48.1	15.2	0.00e+00	0	29	0	1927282688	59	4269
2026-01-04 02:24:40.18	51.69	56.83	-47.0	-48.1	15.2	0.00e+00	0	29	0	1933574144	59	4252
2026-01-04 02:24:41.18	52.12	57.16	-46.4	-47.5	15.4	0.00e+00	0	29	0	1938817024	59	3960
2026-01-04 02:24:42.18	52.55	57.49	-46.0	-47.0	15.4	0.00e+00	0	29	0	1944059904	58	3977
2026-01-04 02:24:43.18	53.00	57.82	-46.3	-47.3	15.3	0.00e+00	0	29	0	1950351360	58	4129
2026-01-04 02:24:44.18	53.46	58.15	-46.7	-47.8	15.2	0.00e+00	0	29	0	1955594240	58	4381
2026-01-04 02:24:45.18	53.92	58.48	-46.8	-48.0	15.2	0.00e+00	0	29	0	1960837120	58	4445
2026-01-04 02:24:46.17	54.40	58.81	-46.7	-47.8	15.2	0.00e+00	0	29	0	1967128576	58	4356
2026-01-04 02:24:47.17	54.89	59.14	-46.6	-47.7	15.2	0.00e+00	0	29	0	1972371456	58	4310
2026-01-04 02:24:48.17	55.40	59.47	-46.4	-47.5	15.3	0.00e+00	0	29	0	1977614336	58	4213
2026-01-04 02:24:49.17	55.92	59.80	-46.4	-47.4	15.3	0.00e+00	0	29	0	1983905792	58	4178
2026-01-04 02:24:50.18	56.45	60.14	-46.1	-47.1	15.4	0.00e+00	0	29	0	1989148672	58	4018
2026-01-04 02:24:51.18	57.00	60.47	-46.0	-47.0	15.4	0.00e+00	0	29	0	1995440128	58	3992
2026-01-04 02:24:52.18	57.56	60.80	-45.8	-46.8	15.5	0.00e+00	0	29	0	2000683008	58	3910
2026-01-04 02:24:53.17	58.12	61.12	-45.5	-46.5	15.4	0.00e+00	0	29	0	2005925888	57	4003
2026-01-04 02:24:54.17	58.71	61.45	-45.5	-46.5	15.4	0.00e+00	0	29	0	2012217344	57	3978
2026-01-04 02:24:55.17	59.32	61.77	-45.7	-46.7	15.4	0.00e+00	0	29	0	2017460224	57	4083
2026-01-04 02:24:56.17	59.94	62.10	-45.6	-46.6	15.4	0.00e+00	0	29	0	2022703104	57	4050
2026-01-04 02:24:57.16	60.57	62.42	-45.5	-46.5	15.5	0.00e+00	0	29	0	2028994560	57	3975
2026-01-04 02:24:58.16	61.22	62.74	-45.4	-46.4	15.5	0.00e+00	0	29	0	2034237440	57	3947
2026-01-04 02:24:59.16	61.89	63.06	-45.4	-46.4	15.5	0.00e+00	0	29	0	2040528896	57	3954
2026-01-04 02:25:00.16	62.58	63.38	-45.4	-46.4	15.5	0.00e+00	0	29	0	2045771776	57	3921
2026-01-04 02:25:01.17	63.30	63.70	-45.3	-46.3	15.5	0.00e+00	0	29	0	2051014656	57	3878
2026-01-04 02:25:02.16	64.02	64.01	-45.2	-46.2	15.4	0.00e+00	0	29	0	2057306112	56	4064
2026-01-04 02:25:03.17	64.78	64.33	-45.4	-46.4	15.4	0.00e+00	0	29	0	2062548992	56	4192
2026-01-04 02:25:04.17	65.55	64.64	-45.4	-46.5	15.4	0.00e+00	0	29	0	2067791872	56	4218
2026-01-04 02:25:05.16	66.33	64.94	-45.2	-46.2	15.4	0.00e+00	0	29	0	2074083328	56	4086
2026-01-04 02:25:06.16	67.14	65.25	-45.0	-46.0	15.5	0.00e+00	0	29	0	2079326208	56	3975
2026-01-04 02:25:07.16	67.97	65.55	-45.3	-46.3	15.4	0.00e+00	0	29	0	2084569088	56	4130
2026-01-04 02:25:08.15	68.82	65.84	-45.4	-46.4	15.4	0.00e+00	0	29	0	2090860544	56	4188
2026-01-04 02:25:09.15	69.70	66.13	-45.4	-46.4	15.4	0.00e+00	0	29	0	2096103424	56	4160
2026-01-04 02:25:10.16	70.61	66.42	-45.4	-46.4	15.3	0.00e+00	0	29	0	2102394880	56	4177
2026-01-04 02:25:11.16	71.53	66.71	-45.3	-46.4	15.4	0.00e+00	0	29	0	2107637760	56	4154
2026-01-04 02:25:12.16	72.49	66.99	-45.2	-46.2	15.4	0.00e+00	0	29	0	2112880640	56	4072
2026-01-04 02:25:13.16	73.46	67.26	-45.2	-46.2	15.4	0.00e+00	0	29	0	2119172096	56	4062
2026-01-04 02:25:14.15	74.46	67.53	-44.9	-45.9	15.5	0.00e+00	0	29	0	2124414976	56	3923
2026-01-04 02:25:15.15	75.49	67.79	-44.9	-45.9	15.5	0.00e+00	0	29	0	2129657856	56	3933
2026-01-04 02:25:16.15	76.54	68.05	-45.2	-46.2	15.4	0.00e+00	0	29	0	2135949312	56	4064
2026-01-04 02:25:17.14	77.61	68.30	-45.0	-46.0	15.4	0.00e+00	0	29	0	2141192192	56	3994
2026-01-04 02:25:18.14	78.72	68.54	-44.8	-45.7	15.5	0.00e+00	0	29	0	2146435072	56	3864
2026-01-04 02:25:19.13	79.85	68.78	-44.8	-45.8	15.5	0.00e+00	0	29	0	2152726528	56	3901
2026-01-04 02:25:20.13	81.01	69.01	-45.1	-46.1	15.5	0.00e+00	0	29	0	2157969408	56	4017
2026-01-04 02:25:21.13	82.20	69.23	-44.8	-45.8	15.5	0.00e+00	0	29	0	2163212288	56	3905
2026-01-04 02:25:22.13	83.42	69.45	-44.8	-45.8	15.5	0.00e+00	0	29	0	2169503744	56	3913
2026-01-04 02:25:23.13	84.66	69.66	-45.1	-46.2	15.4	0.00e+00	0	29	0	2174746624	56	4052
2026-01-04 02:25:24.14	85.95	69.86	-45.3	-46.4	15.4	0.00e+00	0	29	0	2179989504	56	4156
2026-01-04 02:25:25.14	87.25	70.05	-45.2	-46.3	15.4	0.00e+00	0	29	0	2186280960	56	4102
2026-01-04 02:25:26.13	88.56	70.22	-45.3	-46.3	15.4	0.00e+00	0	29	0	2191523840	56	4110
2026-01-04 02:25:27.13	89.91	70.40	-44.8	-45.7	15.6	0.00e+00	0	29	0	2196766720	56	3864
2026-01-04 02:25:28.12	91.27	70.55	-44.5	-45.5	15.5	0.00e+00	0	29	0	2203058176	55	3984
2026-01-04 02:25:29.12	92.66	70.70	-44.8	-45.8	15.4	0.00e+00	0	29	0	2208301056	55	4104
2026-01-04 02:25:30.12	94.08	70.84	-44.5	-45.5	15.5	0.00e+00	0	29	0	2214592512	55	3977
2026-01-04 02:25:31.12	95.53	70.97	-44.5	-45.5	15.5	0.00e+00	0	29	0	2219835392	55	3997
2026-01-04 02:25:32.12	96.99	71.09	-44.5	-45.5	15.5	0.00e+00	0	29	0	2225078272	55	3983
2026-01-04 02:25:33.11	98.45	71.19	-44.5	-45.5	15.5	0.00e+00	0	29	0	2231369728	55	3974
2026-01-04 02:25:34.10	99.93	71.29	-44.5	-45.5	15.5	0.00e+00	0	29	0	2236612608	55	3998
2026-01-04 02:25:35.09	101.43	71.37	-44.5	-45.5	15.5	0.00e+00	0	29	0	2241855488	55	4001
2026-01-04 02:25:36.08	102.94	71.44	-44.6	-45.6	15.4	0.00e+00	0	29	0	2247098368	55	4045
2026-01-04 02:25:37.08	104.47	71.50	-44.5	-45.5	15.5	0.00e+00	0	29	0	2253389824	55	3963
2026-01-04 02:25:38.08	106.02	71.54	-44.5	-45.5	15.5	0.00e+00	0	29	0	2258632704	55	3973
2026-01-04 02:25:39.08	107.57	71.58	-44.5	-45.5	15.5	0.00e+00	0	29	0	2264924160	55	3987
2026-01-04 02:25:40.07	109.11	71.60	-44.6	-45.6	15.4	0.00e+00	0	29	0	2270167040	55	4044
2026-01-04 02:25:41.07	110.67	71.60	-44.6	-45.6	15.5	0.00e+00	0	29	0	2275409920	55	4016
2026-01-04 02:25:42.07	112.23	71.60	-44.5	-45.5	15.5	0.00e+00	0	29	0	2281701376	55	3962
2026-01-04 02:25:43.06	113.77	71.58	-44.4	-45.4	15.5	0.00e+00	0	29	0	2286944256	55	3927
2026-01-04 02:25:44.06	115.32	71.55	-44.7	-45.7	15.4	0.00e+00	0	29	0	2292187136	55	4065
2026-01-04 02:25:45.05	116.85	71.51	-44.8	-45.8	15.4	0.00e+00	0	29	0	2298478592	55	4111
2026-01-04 02:25:46.05	118.39	71.45	-44.6	-45.6	15.4	0.00e+00	0	29	0	2303721472	55	4025
2026-01-04 02:25:47.04	119.90	71.38	-44.7	-45.7	15.4	0.00e+00	0	29	0	2308964352	55	4079
2026-01-04 02:25:48.03	121.40	71.30	-44.4	-45.3	15.5	0.00e+00	0	29	0	2315255808	55	3911
2026-01-04 02:25:49.03	122.90	71.21	-44.2	-45.2	15.6	0.00e+00	0	29	0	2320498688	55	3833
2026-01-04 02:25:50.03	124.38	71.11	-44.7	-45.7	15.4	0.00e+00	0	29	0	2325741568	55	4057
2026-01-04 02:25:51.03	125.85	70.99	-44.8	-45.8	15.4	0.00e+00	0	29	0	2332033024	55	4129
2026-01-04 02:25:52.03	127.29	70.87	-44.6	-45.6	15.4	0.00e+00	0	29	0	2337275904	55	4037
2026-01-04 02:25:53.02	128.70	70.73	-44.8	-45.9	15.4	0.00e+00	0	29	0	2342518784	55	4160
2026-01-04 02:25:54.02	130.10	70.58	-45.1	-46.2	15.3	0.00e+00	0	29	0	2348810240	55	4294
2026-01-04 02:25:55.02	131.48	70.42	-45.1	-46.1	15.3	0.00e+00	0	29	0	2354053120	55	4257
2026-01-04 02:25:56.03	132.85	70.25	-45.0	-46.0	15.3	0.00e+00	0	29	0	2359296000	55	4211
2026-01-04 02:25:57.02	134.17	70.07	-45.0	-46.0	15.3	0.00e+00	0	29	0	2365587456	55	4234
2026-01-04 02:25:58.03	135.48	69.88	-45.0	-46.0	15.4	0.00e+00	0	29	0	2370830336	55	4206
2026-01-04 02:25:59.03	136.76	69.69	-44.7	-45.7	15.4	0.00e+00	0	29	0	2377121792	55	4091
2026-01-04 02:26:00.04	138.02	69.48	-44.8	-45.9	15.4	0.00e+00	0	29	0	2382364672	55	4154
2026-01-04 02:26:01.04	139.25	69.26	-45.0	-46.0	15.4	0.00e+00	0	29	0	2387607552	55	4211
2026-01-04 02:26:02.04	140.44	69.04	-45.0	-46.0	15.4	0.00e+00	0	29	0	2393899008	55	4222
2026-01-04 02:26:03.05	141.62	68.81	-45.1	-46.2	15.3	0.00e+00	0	29	0	2399141888	55	4299
2026-01-04 02:26:04.06	142.77	68.57	-45.6	-46.6	15.3	0.00e+00	0	29	0	2405433344	56	4289
2026-01-04 02:26:05.06	143.89	68.32	-45.5	-46.5	15.4	0.00e+00	0	29	0	2410676224	56	4231
2026-01-04 02:26:06.06	144.97	68.07	-45.2	-46.2	15.4	0.00e+00	0	29	0	2415919104	56	4098
2026-01-04 02:26:07.06	146.03	67.81	-45.2	-46.2	15.4	0.00e+00	0	29	0	2422210560	56	4095
2026-01-04 02:26:08.07	147.07	67.55	-45.0	-46.0	15.5	0.00e+00	0	29	0	2427453440	56	3988
2026-01-04 02:26:09.06	148.07	67.28	-45.1	-46.1	15.4	0.00e+00	0	29	0	2432696320	56	4028
2026-01-04 02:26:10.07	149.06	67.00	-45.3	-46.3	15.4	0.00e+00	0	29	0	2438987776	56	4114
2026-01-04 02:26:11.07	150.01	66.73	-45.1	-46.1	15.4	0.00e+00	0	29	0	2444230656	56	4039
2026-01-04 02:26:12.06	150.94	66.44	-45.0	-46.0	15.5	0.00e+00	0	29	0	2450522112	56	3983
2026-01-04 02:26:13.06	151.84	66.16	-45.1	-46.2	15.5	0.00e+00	0	29	0	2455764992	56	4060
2026-01-04 02:26:14.05	152.71	65.87	-45.2	-46.3	15.4	0.00e+00	0	29	0	2461007872	56	4100
2026-01-04 02:26:15.06	153.58	65.57	-45.2	-46.2	15.4	0.00e+00	0	29	0	2467299328	56	4065
2026-01-04 02:26:16.06	154.42	65.27	-45.1	-46.1	15.4	0.00e+00	0	29	0	2472542208	56	4049
2026-01-04 02:26:17.05	155.22	64.96	-45.3	-46.3	15.4	0.00e+00	0	29	0	2477785088	56	4122
2026-01-04 02:26:18.05	156.01	64.66	-45.4	-46.5	15.4	0.00e+00	0	29	0	2484076544	56	4199
2026-01-04 02:26:19.05	156.79	64.35	-45.3	-46.4	15.4	0.00e+00	0	29	0	2489319424	56	4164
2026-01-04 02:26:20.06	157.54	64.03	-45.4	-46.4	15.3	0.00e+00	0	29	0	2494562304	56	4184
2026-01-04 02:26:21.05	158.27	63.72	-45.3	-46.4	15.4	0.00e+00	0	29	0	2500853760	56	4160
2026-01-04 02:26:22.05	158.98	63.40	-45.3	-46.4	15.4	0.00e+00	0	29	0	2506096640	56	4146
2026-01-04 02:26:23.05	159.67	63.08	-45.4	-46.5	15.3	0.00e+00	0	29	0	2512388096	56	4198
2026-01-04 02:26:24.04	160.34	62.77	-45.4	-46.4	15.3	0.00e+00	0	29	0	2517630976	56	4179
2026-01-04 02:26:25.04	160.99	62.44	-45.4	-46.4	15.3	0.00e+00	0	29	0	2522873856	56	4168
2026-01-04 02:26:26.04	161.63	62.12	-45.4	-46.4	15.4	0.00e+00	0	29	0	2528116736	56	4183
2026-01-04 02:26:27.05	162.26	61.79	-45.6	-46.6	15.3	0.00e+00	0	29	0	2534408192	56	4285
2026-01-04 02:26:28.05	162.87	61.46	-45.7	-46.8	15.3	0.00e+00	0	29	0	2539651072	56	4347
2026-01-04 02:26:29.05	163.46	61.13	-45.6	-46.7	15.3	0.00e+00	0	29	0	2545942528	56	4301
2026-01-04 02:26:30.05	164.04	60.81	-45.7	-46.8	15.3	0.00e+00	0	29	0	2551185408	56	4349
2026-01-04 02:26:31.05	164.60	60.48	-45.9	-46.9	15.3	0.00e+00	0	29	0	2556428288	56	4437
2026-01-04 02:26:32.04	165.14	60.15	-46.1	-47.2	15.3	0.00e+00	0	29	0	2562719744	57	4304
2026-01-04 02:26:33.04	165.67	59.82	-46.2	-47.3	15.3	0.00e+00	0	29	0	2567962624	57	4357
2026-01-04 02:26:34.03	166.19	59.49	-46.3	-47.3	15.3	0.00e+00	0	29	0	2573205504	57	4383
2026-01-04 02:26:35.03	166.69	59.16	-46.2	-47.2	15.3	0.00e+00	0	29	0	2579496960	57	4323
2026-01-04 02:26:36.02	167.18	58.83	-46.2	-47.3	15.2	0.00e+00	0	29	0	2584739840	57	4347
2026-01-04 02:26:37.01	167.66	58.50	-46.3	-47.4	15.2	0.00e+00	0	29	0	2589982720	57	4413
2026-01-04 02:26:38.01	168.13	58.17	-46.5	-47.6	15.3	0.00e+00	0	29	0	2596274176	58	4247
2026-01-04 02:26:39.00	168.58	57.84	-46.6	-47.7	15.2	0.00e+00	0	29	0	2601517056	58	4311
2026-01-04 02:26:40.00	169.03	57.51	-46.7	-47.8	15.2	0.00e+00	0	29	0	2606759936	58	4356
2026-01-04 02:26:40.99	169.47	57.18	-46.7	-47.8	15.2	0.00e+00	0	29	0	2613051392	58	4352
2026-01-04 02:26:41.98	169.89	56.85	-46.8	-47.9	15.2	0.00e+00	0	29	0	2618294272	58	4417
2026-01-04 02:26:42.98	170.31	56.52	-46.7	-47.8	15.2	0.00e+00	0	29	0	2623537152	58	4357
2026-01-04 02:26:43.98	170.71	56.19	-46.8	-47.9	15.2	0.00e+00	0	29	0	2629828608	58	4399
2026-01-04 02:26:44.97	171.11	55.87	-46.8	-47.9	15.2	0.00e+00	0	29	0	2635071488	58	4425
2026-01-04 02:26:45.97	171.50	55.54	-46.8	-47.9	15.2	0.00e+00	0	29	0	2640314368	58	4402
2026-01-04 02:26:46.97	171.88	55.21	-46.8	-47.9	15.2	0.00e+00	0	29	0	2646605824	58	4413
2026-01-04 02:26:47.98	172.25	54.88	-46.8	-47.9	15.3	0.00e+00	0	29	0	2651848704	59	4159
2026-01-04 02:26:48.98	172.62	54.56	-46.7	-47.8	15.3	0.00e+00	0	29	0	2658140160	59	4129
2026-01-04 02:26:49.98	172.97	54.23	-46.8	-47.8	15.3	0.00e+00	0	29	0	2663383040	59	4143
2026-01-04 02:26:50.98	173.32	53.91	-46.6	-47.6	15.4	0.00e+00	0	29	0	2668625920	59	4025
2026-01-04 02:26:51.97	173.65	53.59	-46.6	-47.7	15.3	0.00e+00	0	29	0	2674917376	59	4071
2026-01-04 02:26:52.97	173.99	53.27	-46.7	-47.8	15.3	0.00e+00	0	29	0	2680160256	59	4108
2026-01-04 02:26:53.95	174.31	52.95	-46.7	-47.8	15.3	0.00e+00	0	29	0	2685403136	59	4124
2026-01-04 02:26:54.96	174.63	52.63	-46.7	-47.8	15.3	0.00e+00	0	29	0	2691694592	59	4121
2026-01-04 02:26:55.96	174.94	52.31	-46.8	-47.9	15.3	0.00e+00	0	29	0	2696937472	59	4154
2026-01-04 02:26:56.96	175.24	51.99	-46.5	-47.6	15.4	0.00e+00	0	29	0	2702180352	59	4011
2026-01-04 02:26:57.96	175.54	51.68	-46.4	-47.4	15.4	0.00e+00	0	29	0	2708471808	59	3945
2026-01-04 02:26:58.95	175.83	51.37	-46.3	-47.3	15.5	0.00e+00	0	29	0	2713714688	59	3909
2026-01-04 02:26:59.95	176.12	51.05	-46.3	-47.3	15.5	0.00e+00	0	29	0	2720006144	59	3901
2026-01-04 02:27:00.95	176.40	50.74	-46.3	-47.3	15.5	0.00e+00	0	29	0	2725249024	59	3895
2026-01-04 02:27:01.95	176.67	50.43	-46.3	-47.4	15.5	0.00e+00	0	29	0	2730491904	59	3916
2026-01-04 02:27:02.95	176.94	50.12	-46.0	-47.1	15.4	0.00e+00	0	29	0	2736783360	58	4014
2026-01-04 02:27:03.95	177.21	49.81	-45.8	-46.8	15.5	0.00e+00	0	29	0	2742026240	58	3878
2026-01-04 02:27:04.94	177.47	49.51	-45.6	-46.6	15.4	0.00e+00	0	29	0	2747269120	57	4045
2026-01-04 02:27:05.94	177.72	49.21	-45.6	-46.6	15.4	0.00e+00	0	29	0	2752512000	57	4018
2026-01-04 02:27:06.95	177.97	48.90	-45.6	-46.6	15.4	0.00e+00	0	29	0	2758803456	57	4051
2026-01-04 02:27:07.95	178.22	48.60	-45.8	-46.8	15.3	0.00e+00	0	29	0	2764046336	57	4142
2026-01-04 02:27:08.95	178.46	48.30	-46.0	-47.0	15.3	0.00e+00	0	29	0	2770337792	57	4231
2026-01-04 02:27:09.95	178.69	48.00	-46.3	-47.3	15.3	0.00e+00	0	29	0	2775580672	57	4383
2026-01-04 02:27:10.95	178.92	47.70	-46.4	-47.5	15.2	0.00e+00	0	29	0	2781872128	57	4451
2026-01-04 02:27:11.95	179.15	47.41	-46.5	-47.5	15.3	0.00e+00	0	29	0	2787115008	58	4236
2026-01-04 02:27:12.95	179.37	47.11	-46.4	-47.5	15.3	0.00e+00	0	29	0	2792357888	58	4194
2026-01-04 02:27:13.95	179.59	46.82	-46.1	-47.1	15.4	0.00e+00	0	29	0	2798649344	58	4036
2026-01-04 02:27:14.95	179.80	46.53	-45.9	-46.9	15.5	0.00e+00	0	29	0	2803892224	58	3918
2026-01-04 02:27:15.95	180.01	46.24	-45.9	-46.9	15.5	0.00e+00	0	29	0	2809135104	58	3927
2026-01-04 02:27:16.95	180.22	45.95	-45.9	-46.9	15.5	0.00e+00	0	29	0	2815426560	58	3952
2026-01-04 02:27:17.95	180.43	45.67	-45.9	-47.0	15.5	0.00e+00	0	29	0	2820669440	58	3961
2026-01-04 02:27:18.95	180.62	45.38	-46.0	-47.1	15.4	0.00e+00	0	29	0	2825912320	58	4026
2026-01-04 02:27:19.96	180.82	45.10	-45.9	-46.9	15.5	0.00e+00	0	29	0	2832203776	58	3949
2026-01-04 02:27:20.96	181.02	44.82	-45.9	-46.9	15.5	0.00e+00	0	29	0	2837446656	58	3942
2026-01-04 02:27:21.96	181.21	44.54	-45.8	-46.9	15.5	0.00e+00	0	29	0	2843738112	58	3920
2026-01-04 02:27:22.97	181.39	44.26	-45.9	-46.9	15.4	0.00e+00	0	29	0	2848980992	58	3945
2026-01-04 02:27:23.97	181.58	43.98	-45.9	-46.9	15.5	0.00e+00	0	29	0	2854223872	58	3936
2026-01-04 02:27:24.97	181.76	43.71	-45.8	-46.8	15.5	0.00e+00	0	29	0	2860515328	58	3913
2026-01-04 02:27:25.97	181.93	43.43	-45.9	-46.9	15.5	0.00e+00	0	29	0	2865758208	58	3937
2026-01-04 02:27:26.96	182.11	43.16	-46.0	-47.1	15.4	0.00e+00	0	29	0	2871001088	58	4013
2026-01-04 02:27:27.96	182.28	42.90	-45.9	-47.0	15.4	0.00e+00	0	29	0	2877292544	58	3974
2026-01-04 02:27:28.95	182.44	42.63	-46.0	-47.1	15.4	0.00e+00	0	29	0	2882535424	58	4024
2026-01-04 02:27:29.96	182.61	42.36	-45.8	-46.8	15.5	0.00e+00	0	29	0	2887778304	58	3904
2026-01-04 02:27:30.96	182.78	42.10	-45.5	-46.5	15.4	0.00e+00	0	29	0	2894069760	57	3995
2026-01-04 02:27:31.96	182.94	41.83	-45.5	-46.5	15.5	0.00e+00	0	29	0	2899312640	57	3983
2026-01-04 02:27:32.95	183.09	41.58	-45.5	-46.5	15.4	0.00e+00	0	29	0	2905604096	57	4003
2026-01-04 02:27:33.95	183.25	41.32	-45.3	-46.3	15.5	0.00e+00	0	29	0	2910846976	57	3907
2026-01-04 02:27:34.95	183.40	41.06	-45.3	-46.3	15.5	0.00e+00	0	29	0	2916089856	57	3896
2026-01-04 02:27:35.95	183.55	40.80	-45.3	-46.3	15.5	0.00e+00	0	29	0	2922381312	57	3881
2026-01-04 02:27:36.96	183.70	40.54	-45.3	-46.3	15.5	0.00e+00	0	29	0	2927624192	57	3898
2026-01-04 02:27:37.95	183.85	40.29	-45.2	-46.2	15.5	0.00e+00	0	29	0	2932867072	57	3843
2026-01-04 02:27:38.95	183.99	40.04	-45.3	-46.3	15.5	0.00e+00	0	29	0	2939158528	57	3875
2026-01-04 02:27:39.95	184.13	39.79	-45.1	-46.1	15.4	0.00e+00	0	29	0	2944401408	56	4008
2026-01-04 02:27:40.95	184.27	39.54	-45.0	-45.9	15.5	0.00e+00	0	29	0	2949644288	56	3955
2026-01-04 02:27:41.95	184.41	39.30	-45.1	-46.1	15.4	0.00e+00	0	29	0	2955935744	56	4026
2026-01-04 02:27:42.95	184.55	39.05	-45.1	-46.1	15.4	0.00e+00	0	29	0	2961178624	56	4036
2026-01-04 02:27:43.94	184.68	38.81	-45.1	-46.1	15.4	0.00e+00	0	29	0	2966421504	56	4049
2026-01-04 02:27:44.95	184.81	38.57	-45.2	-46.2	15.4	0.00e+00	0	29	0	2972712960	56	4064
2026-01-04 02:27:45.94	184.94	38.33	-45.2	-46.3	15.4	0.00e+00	0	29	0	2977955840	56	4105
2026-01-04 02:27:46.94	185.07	38.09	-45.4	-46.5	15.3	0.00e+00	0	29	0	2983198720	56	4198
2026-01-04 02:27:47.93	185.20	37.85	-45.5	-46.6	15.4	0.00e+00	0	29	0	2989490176	56	4257
2026-01-04 02:27:48.93	185.32	37.62	-45.6	-46.6	15.3	0.00e+00	0	29	0	2994733056	56	4286
2026-01-04 02:27:49.92	185.44	37.39	-45.5	-46.6	15.3	0.00e+00	0	29	0	2999975936	56	4266
2026-01-04 02:27:50.92	185.57	37.15	-45.6	-46.6	15.3	0.00e+00	0	29	0	3006267392	56	4291
2026-01-04 02:27:51.92	185.69	36.92	-45.5	-46.5	15.4	0.00e+00	0	29	0	3011510272	56	4219
2026-01-04 02:27:52.92	185.80	36.69	-45.4	-46.4	15.3	0.00e+00	0	29	0	3017801728	56	4187
2026-01-04 02:27:53.92	185.92	36.46	-45.3	-46.4	15.4	0.00e+00	0	29	0	3023044608	56	4149
2026-01-04 02:27:54.91	186.03	36.24	-45.4	-46.5	15.3	0.00e+00	0	29	0	3028287488	56	4199
2026-01-04 02:27:55.91	186.15	36.01	-45.3	-46.3	15.4	0.00e+00	0	29	0	3034578944	56	4116
2026-01-04 02:27:56.92	186.26	35.79	-45.3	-46.3	15.4	0.00e+00	0	29	0	3039821824	56	4122
2026-01-04 02:27:57.92	186.37	35.56	-45.4	-46.5	15.4	0.00e+00	0	29	0	3045064704	56	4197
2026-01-04 02:27:58.92	186.48	35.34	-45.4	-46.4	15.4	0.00e+00	0	29	0	3051356160	56	4163
2026-01-04 02:27:59.92	186.59	35.12	-45.4	-46.4	15.3	0.00e+00	0	29	0	3056599040	56	4169
2026-01-04 02:28:00.93	186.69	34.90	-45.3	-46.3	15.4	0.00e+00	0	29	0	3061841920	56	4121
2026-01-04 02:28:01.93	186.80	34.68	-45.3	-46.3	15.3	0.00e+00	0	29	0	3068133376	56	4145
2026-01-04 02:28:02.93	186.90	34.47	-45.2	-46.2	15.4	0.00e+00	0	29	0	3073376256	56	4091
2026-01-04 02:28:03.93	187.01	34.25	-45.2	-46.2	15.4	0.00e+00	0	29	0	3079667712	56	4080
2026-01-04 02:28:04.94	187.11	34.04	-45.2	-46.3	15.4	0.00e+00	0	29	0	3084910592	56	4101
2026-01-04 02:28:05.93	187.21	33.83	-45.2	-46.2	15.4	0.00e+00	0	29	0	3090153472	56	4067
2026-01-04 02:28:06.93	187.30	33.62	-45.2	-46.3	15.4	0.00e+00	0	29	0	3096444928	56	4100
2026-01-04 02:28:07.92	187.40	33.41	-45.2	-46.2	15.4	0.00e+00	0	29	0	3101687808	56	4087
2026-01-04 02:28:08.92	187.50	33.21	-45.3	-46.3	15.3	0.00e+00	0	29	0	3106930688	56	4136
2026-01-04 02:28:09.92	187.59	33.00	-45.4	-46.4	15.4	0.00e+00	0	29	0	3113222144	56	4164
2026-01-04 02:28:10.92	187.69	32.79	-45.4	-46.5	15.3	0.00e+00	0	29	0	3118465024	56	4198
2026-01-04 02:28:11.92	187.78	32.59	-45.5	-46.5	15.3	0.00e+00	0	29	0	3123707904	56	4213
2026-01-04 02:28:12.92	187.87	32.39	-45.6	-46.6	15.3	0.00e+00	0	29	0	3129999360	56	4283
2026-01-04 02:28:13.91	187.96	32.19	-45.6	-46.7	15.3	0.00e+00	0	29	0	3135242240	56	4301
2026-01-04 02:28:14.91	188.05	31.99	-45.7	-46.8	15.3	0.00e+00	0	29	0	3141533696	56	4348
2026-01-04 02:28:15.91	188.14	31.79	-45.7	-46.7	15.3	0.00e+00	0	29	0	3146776576	56	4324
2026-01-04 02:28:16.91	188.23	31.60	-45.7	-46.7	15.3	0.00e+00	0	29	0	3152019456	56	4325
2026-01-04 02:28:17.90	188.31	31.40	-45.7	-46.7	15.3	0.00e+00	0	29	0	3158310912	56	4323
2026-01-04 02:28:18.91	188.40	31.20	-45.7	-46.7	15.3	0.00e+00	0	29	0	3163553792	56	4322
2026-01-04 02:28:19.91	188.48	31.01	-45.6	-46.7	15.3	0.00e+00	0	29	0	3168796672	56	4304
2026-01-04 02:28:20.91	188.57	30.82	-45.6	-46.7	15.3	0.00e+00	0	29	0	3175088128	56	4297
2026-01-04 02:28:21.92	188.65	30.63	-45.5	-46.5	15.3	0.00e+00	0	29	0	3180331008	56	4242
2026-01-04 02:28:22.91	188.73	30.44	-45.5	-46.5	15.3	0.00e+00	0	29	0	3185573888	56	4232
2026-01-04 02:28:23.91	188.81	30.25	-45.5	-46.5	15.3	0.00e+00	0	29	0	3191865344	56	4240
2026-01-04 02:28:24.91	188.89	30.06	-45.6	-46.6	15.3	0.00e+00	0	29	0	3197108224	56	4280
2026-01-04 02:28:25.91	188.97	29.88	-45.6	-46.6	15.3	0.00e+00	0	29	0	3203399680	56	4271
2026-01-04 02:28:26.91	189.05	29.69	-45.6	-46.6	15.3	0.00e+00	0	29	0	3208642560	56	4267
2026-01-04 02:28:27.91	189.13	29.51	-45.7	-46.7	15.3	0.00e+00	0	29	0	3213885440	56	4333
2026-01-04 02:28:28.91	189.20	29.32	-45.6	-46.7	15.3	0.00e+00	0	29	0	3220176896	56	4308
2026-01-04 02:28:29.90	189.28	29.14	-45.5	-46.6	15.3	0.00e+00	0	29	0	3225419776	56	4256
2026-01-04 02:28:30.89	189.35	28.96	-45.6	-46.6	15.3	0.00e+00	0	29	0	3230662656	56	4273
2026-01-04 02:28:31.89	189.42	28.79	-45.6	-46.6	15.3	0.00e+00	0	29	0	3235905536	56	4284
2026-01-04 02:28:32.89	189.50	28.61	-45.5	-46.6	15.3	0.00e+00	0	29	0	3242196992	56	4257
2026-01-04 02:28:33.89	189.57	28.43	-45.6	-46.6	15.3	0.00e+00	0	29	0	3247439872	56	4269
2026-01-04 02:28:34.89	189.64	28.25	-45.5	-46.6	15.3	0.00e+00	0	29	0	3253731328	56	4245
2026-01-04 02:28:35.89	189.71	28.08	-45.6	-46.6	15.3	0.00e+00	0	29	0	3258974208	56	4270
2026-01-04 02:28:36.88	189.78	27.91	-45.5	-46.5	15.3	0.00e+00	0	29	0	3264217088	56	4223
2026-01-04 02:28:37.88	189.85	27.73	-45.4	-46.5	15.3	0.00e+00	0	29	0	3270508544	56	4196
2026-01-04 02:28:38.87	189.92	27.56	-45.5	-46.6	15.3	0.00e+00	0	29	0	3275751424	56	4246
2026-01-04 02:28:39.87	189.99	27.39	-45.6	-46.6	15.3	0.00e+00	0	29	0	3280994304	56	4283
2026-01-04 02:28:40.87	190.06	27.22	-45.5	-46.6	15.3	0.00e+00	0	29	0	3287285760	56	4243
2026-01-04 02:28:41.86	190.12	27.05	-45.7	-46.7	15.3	0.00e+00	0	29	0	3292528640	56	4326
2026-01-04 02:28:42.85	190.19	26.89	-45.7	-46.7	15.3	0.00e+00	0	29	0	3298820096	56	4316
2026-01-04 02:28:43.85	190.25	26.72	-45.7	-46.7	15.3	0.00e+00	0	29	0	3304062976	56	4322
2026-01-04 02:28:44.85	190.32	26.55	-45.8	-46.8	15.3	0.00e+00	0	29	0	3309305856	56	4378
2026-01-04 02:28:45.84	190.38	26.39	-45.8	-46.8	15.3	0.00e+00	0	29	0	3314548736	56	4386
2026-01-04 02:28:46.84	190.45	26.23	-45.8	-46.9	15.3	0.00e+00	0	29	0	3320840192	56	4407
2026-01-04 02:28:47.83	190.51	26.07	-45.9	-46.9	15.3	0.00e+00	0	29	0	3326083072	56	4429
2026-01-04 02:28:48.82	190.57	25.91	-45.9	-47.0	15.2	0.00e+00	0	29	0	3331325952	56	4461
2026-01-04 02:28:49.82	190.63	25.74	-46.0	-47.1	15.3	0.00e+00	0	29	0	3337617408	57	4244
2026-01-04 02:28:50.82	190.69	25.58	-45.9	-47.0	15.3	0.00e+00	0	29	0	3342860288	57	4210
2026-01-04 02:28:51.82	190.75	25.42	-46.0	-47.1	15.3	0.00e+00	0	29	0	3349151744	57	4272
2026-01-04 02:28:52.82	190.81	25.27	-46.0	-47.1	15.3	0.00e+00	0	29	0	3354394624	57	4254
2026-01-04 02:28:53.81	190.87	25.11	-46.0	-47.1	15.3	0.00e+00	0	29	0	3359637504	57	4269
2026-01-04 02:28:54.82	190.93	24.95	-46.2	-47.2	15.2	0.00e+00	0	29	0	3365928960	57	4330
2026-01-04 02:28:55.81	190.99	24.80	-46.1	-47.1	15.3	0.00e+00	0	29	0	3371171840	57	4282
2026-01-04 02:28:56.82	191.05	24.64	-46.1	-47.2	15.2	0.00e+00	0	29	0	3376414720	57	4300
2026-01-04 02:28:57.82	191.11	24.49	-46.1	-47.1	15.3	0.00e+00	0	29	0	3382706176	57	4274
2026-01-04 02:28:58.82	191.16	24.33	-46.1	-47.1	15.3	0.00e+00	0	29	0	3387949056	57	4288
2026-01-04 02:28:59.83	191.22	24.18	-46.2	-47.2	15.2	0.00e+00	0	29	0	3393191936	57	4338
2026-01-04 02:29:00.82	191.28	24.03	-46.1	-47.2	15.2	0.00e+00	0	29	0	3399483392	57	4315
2026-01-04 02:29:01.82	191.33	23.88	-46.1	-47.2	15.2	0.00e+00	0	29	0	3404726272	57	4320
2026-01-04 02:29:02.82	191.39	23.73	-46.2	-47.2	15.2	0.00e+00	0	29	0	3411017728	57	4332
2026-01-04 02:29:03.81	191.44	23.58	-46.2	-47.3	15.2	0.00e+00	0	29	0	3416260608	57	4345
2026-01-04 02:29:04.81	191.50	23.43	-46.2	-47.3	15.2	0.00e+00	0	29	0	3421503488	57	4374
2026-01-04 02:29:05.81	191.55	23.29	-46.3	-47.4	15.2	0.00e+00	0	29	0	3427794944	57	4399
2026-01-04 02:29:06.80	191.60	23.14	-46.3	-47.3	15.2	0.00e+00	0	29	0	3433037824	57	4388
2026-01-04 02:29:07.80	191.65	23.00	-46.3	-47.4	15.2	0.00e+00	0	29	0	3438280704	57	4406
2026-01-04 02:29:08.79	191.71	22.85	-46.4	-47.5	15.2	0.00e+00	0	29	0	3443523584	57	4448
2026-01-04 02:29:09.79	191.76	22.71	-46.4	-47.5	15.3	0.00e+00	0	29	0	3449815040	58	4206
2026-01-04 02:29:10.78	191.81	22.57	-46.3	-47.4	15.3	0.00e+00	0	29	0	3455057920	58	4175
2026-01-04 02:29:11.78	191.86	22.43	-46.4	-47.5	15.3	0.00e+00	0	29	0	3461349376	58	4194
2026-01-04 02:29:12.78	191.91	22.28	-46.5	-47.6	15.2	0.00e+00	0	29	0	3466592256	58	4254
2026-01-04 02:29:13.78	191.96	22.14	-46.5	-47.6	15.2	0.00e+00	0	29	0	3471835136	58	4252
2026-01-04 02:29:14.76	192.01	22.01	-46.4	-47.5	15.3	0.00e+00	0	29	0	3478126592	58	4196
2026-01-04 02:29:15.77	192.06	21.86	-46.4	-47.4	15.3	0.00e+00	0	29	0	3483369472	58	4192
2026-01-04 02:29:16.76	192.11	21.73	-46.4	-47.5	15.3	0.00e+00	0	29	0	3488612352	58	4226
2026-01-04 02:29:17.76	192.15	21.59	-46.5	-47.6	15.2	0.00e+00	0	29	0	3494903808	58	4282
2026-01-04 02:29:18.76	192.20	21.45	-46.5	-47.5	15.3	0.00e+00	0	29	0	3500146688	58	4235
2026-01-04 02:29:19.76	192.25	21.32	-46.3	-47.4	15.3	0.00e+00	0	29	0	3505389568	58	4179
2026-01-04 02:29:20.75	192.30	21.18	-46.4	-47.4	15.3	0.00e+00	0	29	0	3511681024	58	4193
2026-01-04 02:29:21.75	192.34	21.05	-46.4	-47.4	15.3	0.00e+00	0	29	0	3516923904	58	4186
2026-01-04 02:29:22.75	192.39	20.91	-46.4	-47.5	15.3	0.00e+00	0	29	0	3523215360	58	4194
2026-01-04 02:29:23.75	192.44	20.78	-46.5	-47.6	15.3	0.00e+00	0	29	0	3528458240	58	4256
2026-01-04 02:29:24.75	192.48	20.64	-46.4	-47.5	15.3	0.00e+00	0	29	0	3533701120	58	4206
2026-01-04 02:29:25.76	192.53	20.51	-46.5	-47.6	15.2	0.00e+00	0	29	0	3539992576	58	4251
2026-01-04 02:29:26.76	192.57	20.38	-46.5	-47.6	15.2	0.00e+00	0	29	0	3545235456	58	4271
2026-01-04 02:29:27.75	192.62	20.25	-46.5	-47.6	15.2	0.00e+00	0	29	0	3550478336	58	4281
2026-01-04 02:29:28.75	192.66	20.12	-46.6	-47.6	15.2	0.00e+00	0	29	0	3556769792	58	4291
2026-01-04 02:29:29.76	192.71	19.99	-46.6	-47.7	15.2	0.00e+00	0	29	0	3562012672	58	4292
2026-01-04 02:29:30.75	192.75	19.86	-46.6	-47.7	15.2	0.00e+00	0	29	0	3567255552	58	4300
2026-01-04 02:29:31.75	192.79	19.73	-46.7	-47.8	15.2	0.00e+00	0	29	0	3573547008	58	4361
2026-01-04 02:29:32.75	192.84	19.60	-46.8	-47.9	15.2	0.00e+00	0	29	0	3578789888	58	4408
2026-01-04 02:29:33.75	192.88	19.48	-46.9	-48.0	15.1	0.00e+00	0	29	0	3585081344	58	4458
2026-01-04 02:29:34.75	192.92	19.35	-46.8	-47.9	15.2	0.00e+00	0	29	0	3590324224	58	4417
2026-01-04 02:29:35.74	192.96	19.23	-46.8	-47.9	15.2	0.00e+00	0	29	0	3595567104	58	4424
2026-01-04 02:29:36.74	193.00	19.10	-46.9	-48.0	15.2	0.00e+00	0	29	0	3600809984	58	4455
2026-01-04 02:29:37.75	193.05	18.98	-47.0	-48.1	15.2	0.00e+00	0	29	0	3607101440	59	4273
2026-01-04 02:29:38.74	193.09	18.85	-47.1	-48.2	15.2	0.00e+00	0	29	0	3612344320	59	4299
2026-01-04 02:29:39.73	193.13	18.73	-47.1	-48.2	15.1	0.00e+00	0	29	0	3617587200	59	4328
2026-01-04 02:29:40.73	193.17	18.61	-47.1	-48.2	15.2	0.00e+00	0	29	0	3623878656	59	4299
2026-01-04 02:29:41.72	193.21	18.49	-47.1	-48.2	15.2	0.00e+00	0	29	0	3629121536	59	4303
2026-01-04 02:29:42.72	193.25	18.37	-47.1	-48.2	15.1	0.00e+00	0	29	0	3635412992	59	4320
2026-01-04 02:29:43.71	193.29	18.25	-47.1	-48.3	15.1	0.00e+00	0	29	0	3640655872	59	4343
2026-01-04 02:29:44.71	193.33	18.13	-47.2	-48.3	15.1	0.00e+00	0	29	0	3645898752	59	4364
2026-01-04 02:29:45.71	193.36	18.01	-47.2	-48.4	15.1	0.00e+00	0	29	0	3652190208	59	4400
2026-01-04 02:29:46.71	193.40	17.89	-47.3	-48.4	15.1	0.00e+00	0	29	0	3657433088	59	4408
2026-01-04 02:29:47.70	193.44	17.77	-47.3	-48.4	15.1	0.00e+00	0	29	0	3662675968	59	4438
2026-01-04 02:29:48.69	193.48	17.65	-47.3	-48.5	15.1	0.00e+00	0	29	0	3667918848	59	4444
2026-01-04 02:29:49.69	193.52	17.54	-47.2	-48.3	15.2	0.00e+00	0	29	0	3674210304	60	4109
2026-01-04 02:29:50.69	193.55	17.42	-47.1	-48.2	15.2	0.00e+00	0	29	0	3679453184	60	4083
2026-01-04 02:29:51.68	193.59	17.30	-47.0	-48.1	15.2	0.00e+00	0	29	0	3685744640	60	4016
2026-01-04 02:29:52.67	193.63	17.19	-47.0	-48.1	15.2	0.00e+00	0	29	0	3690987520	60	4022
