passes_logs/2026/01/04/R3.2S_Murmansk/R3.2S_Murmansk__20260104_063628_NOAA_20_JPSS-1_rec.log

#Pass ID: 20260104_063628_NOAA 20 (JPSS-1)
#Satellite: NOAA 20 (JPSS-1)
#Configuration: NOAA 20
#almurnet v.1.7.20251203
#Start time: 2026-01-04 06:36:28

#Version: 2.2.20231116
#Station: R3.2S_Murmansk
#Location: 33.079688 lon 68.888172 lat
#TLE: 1 43013U 17073A   26003.41800368  .00000169  00000+0  10117-3 0  9998
#TLE: 2 43013  98.7624 304.4804 0001884  56.1176 304.0179 14.19532918421092

#Time	Az	El	Level	Level2	SNR	BER	BlckErr	Temp	State	Recorded	gain1	gain2
2026-01-04 06:36:28.28	87.18	2.00	-58.4	-74.5	3.8	1.49e+00	0	26	0	0	83	22319
2026-01-04 06:36:29.28	87.12	2.05	-58.4	-74.4	3.8	1.49e+00	0	27	104	0	81	24793
2026-01-04 06:36:30.28	87.07	2.11	-58.4	-74.4	3.8	1.49e+00	0	26	104	0	81	24833
2026-01-04 06:36:31.28	87.01	2.17	-58.4	-74.4	3.8	1.49e+00	0	27	104	0	81	24852
2026-01-04 06:36:32.28	86.95	2.23	-58.4	-74.4	3.8	1.49e+00	0	27	104	0	81	24790
2026-01-04 06:36:33.28	86.90	2.29	-58.3	-74.4	3.8	1.49e+00	0	27	104	0	81	24764
2026-01-04 06:36:34.29	86.84	2.35	-58.3	-74.4	3.8	1.49e+00	0	27	104	0	81	24733
2026-01-04 06:36:35.28	86.78	2.41	-58.3	-74.4	3.9	1.49e+00	0	26	104	0	81	24701
2026-01-04 06:36:36.28	86.73	2.47	-58.4	-74.4	3.8	1.49e+00	0	27	104	0	81	24778
2026-01-04 06:36:37.28	86.67	2.53	-58.4	-74.4	3.8	1.49e+00	0	27	104	0	81	24777
2026-01-04 06:36:38.28	86.61	2.59	-58.3	-74.4	3.8	1.49e+00	0	27	104	0	81	24773
2026-01-04 06:36:39.28	86.55	2.65	-58.4	-74.4	3.8	1.49e+00	0	27	104	0	81	24736
2026-01-04 06:36:40.29	86.49	2.71	-58.4	-74.4	3.8	1.49e+00	0	27	104	0	81	24762
2026-01-04 06:36:41.28	86.44	2.77	-58.4	-74.4	3.8	1.49e+00	0	27	104	0	81	24784
2026-01-04 06:36:42.27	86.38	2.82	-58.4	-74.4	3.8	1.49e+00	0	27	104	0	81	24761
2026-01-04 06:36:43.27	86.32	2.88	-58.4	-74.4	3.8	1.49e+00	0	27	104	0	81	24742
2026-01-04 06:36:44.27	86.26	2.94	-58.4	-74.4	3.8	1.49e+00	0	27	104	0	81	24759
2026-01-04 06:36:45.27	86.20	3.00	-58.4	-74.4	3.8	1.49e+00	0	27	104	0	81	24820
2026-01-04 06:36:46.26	86.14	3.06	-58.4	-74.4	3.8	1.49e+00	0	27	104	0	81	24797
2026-01-04 06:36:47.27	86.08	3.13	-58.4	-74.4	3.8	1.49e+00	0	27	104	0	81	24838
2026-01-04 06:36:48.26	86.02	3.19	-58.4	-74.4	3.8	1.49e+00	0	27	104	0	81	24802
2026-01-04 06:36:49.25	85.96	3.25	-58.4	-74.4	3.8	1.49e+00	0	27	104	0	81	24732
2026-01-04 06:36:50.25	85.90	3.31	-58.4	-74.4	3.8	1.49e+00	0	27	104	0	81	24785
2026-01-04 06:36:51.25	85.84	3.37	-58.3	-74.3	3.8	1.49e+00	0	27	104	0	81	24644
2026-01-04 06:36:52.25	85.78	3.43	-58.3	-74.4	3.9	1.49e+00	0	27	104	0	81	24705
2026-01-04 06:36:53.24	85.72	3.49	-58.4	-74.4	3.8	1.49e+00	0	27	104	0	81	24785
2026-01-04 06:36:54.23	85.66	3.55	-58.4	-74.4	3.8	1.49e+00	0	27	104	0	81	24806
2026-01-04 06:36:55.23	85.59	3.61	-58.4	-74.4	3.8	1.49e+00	0	27	104	0	81	24802
2026-01-04 06:36:56.22	85.53	3.67	-58.4	-74.4	3.8	1.49e+00	0	27	104	0	81	24744
2026-01-04 06:36:57.21	85.47	3.73	-58.3	-74.4	3.8	1.49e+00	0	27	104	0	81	24717
2026-01-04 06:36:58.21	85.41	3.79	-58.3	-74.3	3.8	1.49e+00	0	27	104	0	81	24588
2026-01-04 06:36:59.22	85.34	3.85	-58.4	-74.3	3.8	1.49e+00	0	27	104	0	81	24517
2026-01-04 06:37:00.21	85.28	3.92	-58.3	-74.2	3.8	1.49e+00	0	27	104	0	81	24289
2026-01-04 06:37:01.20	85.22	3.98	-58.3	-74.2	3.8	1.49e+00	0	27	104	0	81	24250
2026-01-04 06:37:02.21	85.15	4.04	-58.3	-74.2	3.8	1.49e+00	0	27	104	0	81	24302
2026-01-04 06:37:03.20	85.09	4.10	-58.3	-74.3	3.8	1.49e+00	0	27	104	0	81	24517
2026-01-04 06:37:04.19	85.02	4.16	-58.3	-74.3	3.8	1.49e+00	0	27	104	0	81	24654
2026-01-04 06:37:05.19	84.96	4.22	-58.3	-74.4	3.8	1.49e+00	0	27	104	0	81	24749
2026-01-04 06:37:06.19	84.89	4.29	-58.3	-74.3	3.8	1.49e+00	0	27	104	0	81	24537
2026-01-04 06:37:07.19	84.83	4.35	-58.3	-74.1	3.8	1.49e+00	0	27	104	0	81	23893
2026-01-04 06:37:08.19	84.76	4.41	-58.3	-73.7	3.8	1.49e+00	0	27	104	0	81	22961
2026-01-04 06:37:09.19	84.70	4.47	-58.3	-73.1	3.8	1.49e+00	0	27	104	0	81	21382
2026-01-04 06:37:10.18	84.63	4.54	-58.3	-72.4	3.8	1.49e+00	0	27	104	0	81	19683
2026-01-04 06:37:11.18	84.56	4.60	-58.2	-71.6	4.0	1.48e+00	0	27	0	0	81	17968
2026-01-04 06:37:12.18	84.50	4.66	-58.2	-70.8	4.2	1.42e+00	0	27	0	0	81	16435
2026-01-04 06:37:13.18	84.43	4.73	-58.1	-70.0	4.5	1.30e+00	27	28	0	0	81	14900
2026-01-04 06:37:14.18	84.36	4.79	-58.1	-69.2	4.8	9.22e-01	0	28	0	2097152	81	13614
2026-01-04 06:37:15.18	84.29	4.85	-58.0	-68.3	5.2	6.03e-01	0	27	0	4194304	81	12277
2026-01-04 06:37:16.19	84.22	4.92	-57.9	-67.6	5.6	4.53e-01	0	28	0	6291456	81	11382
2026-01-04 06:37:17.19	84.16	4.98	-57.8	-67.1	5.9	3.15e-01	0	28	0	8388608	81	10753
2026-01-04 06:37:18.18	84.09	5.04	-57.8	-66.5	6.2	2.94e-01	0	28	0	9437184	81	10051
2026-01-04 06:37:19.18	84.02	5.11	-57.8	-66.2	6.5	2.53e-01	0	28	0	11534336	81	9711
2026-01-04 06:37:20.18	83.95	5.17	-57.3	-63.4	9.2	1.78e-02	0	28	0	13631488	81	6967
2026-01-04 06:37:21.18	83.88	5.23	-58.2	-71.7	3.9	6.79e-01	0	27	104	14680064	81	18265
2026-01-04 06:37:22.18	83.81	5.30	-58.6	-72.0	3.9	7.47e-01	0	28	104	14680064	82	17858
2026-01-04 06:37:23.18	83.74	5.36	-56.0	-60.1	11.5	6.17e-05	0	28	0	15728640	78	5701
2026-01-04 06:37:24.17	83.67	5.43	-55.9	-60.0	11.6	1.90e-05	0	28	0	16777216	78	5624
2026-01-04 06:37:25.17	83.60	5.49	-55.6	-59.3	12.0	1.06e-05	0	28	0	18874368	77	5521
2026-01-04 06:37:26.17	83.53	5.56	-55.2	-58.6	12.6	0.00e+00	0	27	0	20971520	77	5050
2026-01-04 06:37:27.17	83.45	5.62	-55.1	-58.2	12.7	0.00e+00	0	28	0	23068672	76	5159
2026-01-04 06:37:28.17	83.38	5.68	-55.1	-58.3	12.7	0.00e+00	0	28	0	25165824	76	5188
2026-01-04 06:37:29.17	83.31	5.75	-55.0	-58.1	12.8	0.00e+00	0	28	0	26214400	76	5090
2026-01-04 06:37:30.17	83.24	5.81	-55.0	-58.1	12.8	0.00e+00	0	28	0	28311552	76	5061
2026-01-04 06:37:31.16	83.16	5.88	-54.9	-57.9	13.0	0.00e+00	0	28	0	30408704	76	4938
2026-01-04 06:37:32.16	83.09	5.94	-54.9	-57.9	13.0	0.00e+00	0	28	0	32505856	76	4935
2026-01-04 06:37:33.16	83.02	6.01	-54.8	-57.8	13.0	0.00e+00	0	28	0	34603008	76	4901
2026-01-04 06:37:34.16	82.94	6.08	-54.9	-57.9	12.9	0.00e+00	0	28	0	35651584	76	4967
2026-01-04 06:37:35.16	82.87	6.14	-54.8	-57.8	13.0	0.00e+00	0	28	0	37748736	76	4913
2026-01-04 06:37:36.16	82.79	6.21	-54.8	-57.7	13.1	0.00e+00	0	28	0	39845888	76	4844
2026-01-04 06:37:37.16	82.72	6.27	-54.8	-57.7	13.1	0.00e+00	0	28	0	41943040	76	4847
2026-01-04 06:37:38.15	82.64	6.34	-54.8	-57.7	13.1	0.00e+00	0	28	0	42991616	76	4843
2026-01-04 06:37:39.15	82.57	6.40	-54.8	-57.7	13.1	0.00e+00	0	28	0	45088768	76	4830
2026-01-04 06:37:40.15	82.49	6.47	-54.8	-57.7	13.2	0.00e+00	0	28	0	47185920	76	4822
2026-01-04 06:37:41.16	82.41	6.54	-54.6	-57.4	13.2	0.00e+00	0	28	0	49283072	75	4976
2026-01-04 06:37:42.15	82.34	6.60	-54.6	-57.5	13.1	0.00e+00	0	28	0	51380224	75	5013
2026-01-04 06:37:43.15	82.26	6.67	-54.6	-57.5	13.2	0.00e+00	0	28	0	52428800	75	4991
2026-01-04 06:37:44.16	82.18	6.74	-54.6	-57.4	13.2	0.00e+00	0	28	0	54525952	75	4951
2026-01-04 06:37:45.16	82.10	6.80	-54.6	-57.5	13.2	0.00e+00	0	28	0	56623104	75	4995
2026-01-04 06:37:46.17	82.02	6.87	-54.6	-57.4	13.2	0.00e+00	0	28	0	58720256	75	4961
2026-01-04 06:37:47.17	81.94	6.94	-54.5	-57.4	13.2	0.00e+00	0	28	0	60817408	75	4929
2026-01-04 06:37:48.17	81.86	7.01	-54.5	-57.2	13.3	0.00e+00	0	28	0	61865984	75	4860
2026-01-04 06:37:49.17	81.79	7.07	-54.4	-57.2	13.3	0.00e+00	0	28	0	63963136	75	4855
2026-01-04 06:37:50.18	81.70	7.14	-54.4	-57.2	13.3	0.00e+00	0	28	0	66060288	75	4821
2026-01-04 06:37:51.18	81.62	7.21	-54.4	-57.1	13.3	0.00e+00	0	28	0	68157440	75	4814
2026-01-04 06:37:52.18	81.54	7.28	-54.4	-57.1	13.4	0.00e+00	0	28	0	70254592	75	4808
2026-01-04 06:37:53.19	81.46	7.34	-54.4	-57.1	13.4	0.00e+00	0	28	0	71303168	75	4791
2026-01-04 06:37:54.18	81.38	7.41	-54.4	-57.1	13.4	0.00e+00	0	28	0	73400320	75	4814
2026-01-04 06:37:55.18	81.30	7.48	-54.4	-57.0	13.4	0.00e+00	0	28	0	75497472	75	4754
2026-01-04 06:37:56.17	81.22	7.55	-54.3	-57.0	13.4	0.00e+00	0	28	0	77594624	75	4749
2026-01-04 06:37:57.16	81.13	7.62	-54.4	-57.1	13.4	0.00e+00	0	28	0	78643200	75	4770
2026-01-04 06:37:58.16	81.05	7.68	-54.4	-57.1	13.4	0.00e+00	0	28	0	80740352	75	4764
2026-01-04 06:37:59.16	80.97	7.75	-54.4	-57.1	13.5	0.00e+00	0	28	0	82837504	75	4766
2026-01-04 06:38:00.16	80.88	7.82	-54.2	-56.9	13.5	0.00e+00	0	28	0	84934656	75	4697
2026-01-04 06:38:01.17	80.80	7.89	-54.2	-57.0	13.4	0.00e+00	0	28	0	87031808	74	4987
2026-01-04 06:38:02.17	80.71	7.96	-54.1	-56.9	13.5	0.00e+00	0	28	0	88080384	74	4934
2026-01-04 06:38:03.17	80.63	8.03	-54.2	-56.9	13.5	0.00e+00	0	28	0	90177536	74	4938
2026-01-04 06:38:04.17	80.54	8.10	-54.3	-56.9	13.4	0.00e+00	0	28	0	92274688	74	4975
2026-01-04 06:38:05.18	80.46	8.17	-54.4	-57.0	13.4	0.00e+00	0	28	0	94371840	74	5017
2026-01-04 06:38:06.17	80.37	8.24	-54.5	-57.2	13.3	0.00e+00	0	28	0	96468992	74	5113
2026-01-04 06:38:07.17	80.28	8.31	-54.3	-56.9	13.5	0.00e+00	0	28	0	97517568	74	4942
2026-01-04 06:38:08.18	80.19	8.38	-54.3	-56.9	13.4	0.00e+00	0	28	0	99614720	74	4977
2026-01-04 06:38:09.18	80.11	8.45	-54.4	-57.0	13.4	0.00e+00	0	28	0	101711872	74	5036
2026-01-04 06:38:10.18	80.02	8.52	-54.3	-56.9	13.5	0.00e+00	0	28	0	103809024	74	4954
2026-01-04 06:38:11.18	79.93	8.59	-54.3	-57.0	13.4	0.00e+00	0	28	0	105906176	74	5001
2026-01-04 06:38:12.18	79.84	8.66	-54.3	-56.9	13.5	0.00e+00	0	28	0	106954752	74	4982
2026-01-04 06:38:13.19	79.75	8.73	-54.3	-56.9	13.5	0.00e+00	0	28	0	109051904	74	4979
2026-01-04 06:38:14.19	79.66	8.80	-54.3	-57.0	13.4	0.00e+00	0	28	0	111149056	74	4991
2026-01-04 06:38:15.20	79.57	8.87	-54.2	-56.8	13.5	0.00e+00	0	28	0	113246208	74	4892
2026-01-04 06:38:16.20	79.48	8.94	-54.3	-56.9	13.5	0.00e+00	0	28	0	115343360	74	4931
2026-01-04 06:38:17.19	79.39	9.01	-54.3	-56.8	13.5	0.00e+00	0	28	0	116391936	74	4925
2026-01-04 06:38:18.20	79.29	9.08	-54.4	-57.0	13.4	0.00e+00	0	28	0	118489088	74	5001
2026-01-04 06:38:19.20	79.20	9.15	-54.4	-57.0	13.4	0.00e+00	0	28	0	120586240	74	5026
2026-01-04 06:38:20.21	79.11	9.22	-54.3	-56.9	13.5	0.00e+00	0	28	0	122683392	74	4960
2026-01-04 06:38:21.22	79.01	9.30	-54.3	-56.9	13.5	0.00e+00	0	28	0	123731968	74	4959
2026-01-04 06:38:22.22	78.92	9.37	-54.3	-56.9	13.5	0.00e+00	0	28	0	125829120	74	4977
2026-01-04 06:38:23.23	78.83	9.44	-54.2	-56.8	13.6	0.00e+00	0	28	0	127926272	74	4871
2026-01-04 06:38:24.23	78.73	9.51	-54.3	-56.8	13.6	0.00e+00	0	28	0	130023424	74	4910
2026-01-04 06:38:25.23	78.64	9.58	-54.2	-56.7	13.6	0.00e+00	0	28	0	132120576	74	4854
2026-01-04 06:38:26.23	78.54	9.66	-54.2	-56.7	13.6	0.00e+00	0	28	0	133169152	74	4840
2026-01-04 06:38:27.24	78.44	9.73	-54.2	-56.8	13.6	0.00e+00	0	28	0	135266304	74	4880
2026-01-04 06:38:28.24	78.35	9.80	-54.2	-56.7	13.6	0.00e+00	0	28	0	137363456	74	4857
2026-01-04 06:38:29.24	78.25	9.87	-54.3	-56.8	13.6	0.00e+00	0	28	0	139460608	74	4900
2026-01-04 06:38:30.24	78.15	9.95	-54.3	-56.8	13.5	0.00e+00	0	28	0	141557760	74	4898
2026-01-04 06:38:31.24	78.05	10.02	-54.2	-56.7	13.6	0.00e+00	0	28	0	142606336	74	4827
2026-01-04 06:38:32.25	77.95	10.09	-54.2	-56.7	13.6	0.00e+00	0	28	0	144703488	74	4817
2026-01-04 06:38:33.25	77.85	10.17	-54.2	-56.7	13.6	0.00e+00	0	28	0	146800640	74	4838
2026-01-04 06:38:34.25	77.75	10.24	-54.1	-56.6	13.7	0.00e+00	0	28	0	148897792	74	4776
2026-01-04 06:38:35.25	77.65	10.31	-54.2	-56.6	13.6	0.00e+00	0	28	0	150994944	74	4806
2026-01-04 06:38:36.25	77.55	10.38	-54.2	-56.6	13.7	0.00e+00	0	28	0	152043520	74	4801
2026-01-04 06:38:37.24	77.45	10.46	-54.1	-56.6	13.7	0.00e+00	0	28	0	154140672	74	4794
2026-01-04 06:38:38.25	77.35	10.53	-54.2	-56.6	13.7	0.00e+00	0	28	0	156237824	74	4801
2026-01-04 06:38:39.25	77.25	10.61	-54.2	-56.7	13.6	0.00e+00	0	28	0	158334976	74	4833
2026-01-04 06:38:40.25	77.15	10.68	-54.2	-56.6	13.7	0.00e+00	0	28	0	160432128	74	4801
2026-01-04 06:38:41.25	77.04	10.75	-54.2	-56.6	13.7	0.00e+00	0	28	0	161480704	74	4789
2026-01-04 06:38:42.25	76.94	10.83	-54.2	-56.6	13.7	0.00e+00	0	28	0	163577856	74	4811
2026-01-04 06:38:43.26	76.83	10.90	-54.2	-56.7	13.7	0.00e+00	0	28	0	165675008	74	4819
2026-01-04 06:38:44.26	76.73	10.98	-54.2	-56.6	13.7	0.00e+00	0	28	0	167772160	74	4800
2026-01-04 06:38:45.26	76.62	11.05	-54.2	-56.7	13.6	0.00e+00	0	28	0	168820736	74	4819
2026-01-04 06:38:46.27	76.51	11.13	-54.2	-56.6	13.7	0.00e+00	0	28	0	170917888	74	4791
2026-01-04 06:38:47.26	76.41	11.20	-54.2	-56.7	13.7	0.00e+00	0	28	0	173015040	74	4826
2026-01-04 06:38:48.26	76.30	11.28	-54.1	-56.5	13.7	0.00e+00	0	28	0	175112192	74	4727
2026-01-04 06:38:49.26	76.19	11.35	-54.1	-56.4	13.8	0.00e+00	0	28	0	177209344	74	4705
2026-01-04 06:38:50.26	76.09	11.43	-54.0	-56.4	13.8	0.00e+00	0	28	0	178257920	74	4683
2026-01-04 06:38:51.25	75.98	11.50	-54.0	-56.4	13.8	0.00e+00	0	28	0	180355072	74	4690
2026-01-04 06:38:52.25	75.87	11.58	-54.0	-56.3	13.9	0.00e+00	0	28	0	182452224	74	4611
2026-01-04 06:38:53.25	75.76	11.65	-53.9	-56.3	13.9	0.00e+00	0	28	0	184549376	74	4611
2026-01-04 06:38:54.25	75.65	11.73	-53.9	-56.3	13.9	0.00e+00	0	28	0	186646528	74	4605
2026-01-04 06:38:55.25	75.54	11.80	-53.9	-56.2	13.9	0.00e+00	0	28	0	187695104	74	4570
2026-01-04 06:38:56.25	75.42	11.88	-53.9	-56.2	13.9	0.00e+00	0	28	0	189792256	74	4560
2026-01-04 06:38:57.24	75.31	11.95	-53.9	-56.2	13.9	0.00e+00	0	28	0	191889408	74	4556
2026-01-04 06:38:58.24	75.20	12.03	-54.0	-56.3	13.9	0.00e+00	0	28	0	193986560	74	4607
2026-01-04 06:38:59.23	75.09	12.10	-53.8	-56.1	14.0	0.00e+00	0	28	0	195035136	74	4506
2026-01-04 06:39:00.23	74.97	12.18	-53.9	-56.2	13.9	0.00e+00	0	28	0	197132288	74	4548
2026-01-04 06:39:01.22	74.86	12.26	-53.9	-56.3	13.9	0.00e+00	0	28	0	199229440	74	4602
2026-01-04 06:39:02.22	74.74	12.33	-53.9	-56.1	14.0	0.00e+00	0	28	0	201326592	74	4540
2026-01-04 06:39:03.22	74.63	12.41	-53.9	-56.2	14.0	0.00e+00	0	28	0	203423744	74	4552
2026-01-04 06:39:04.22	74.51	12.49	-53.8	-56.0	14.0	0.00e+00	0	28	0	204472320	74	4486
2026-01-04 06:39:05.22	74.39	12.56	-53.8	-56.1	14.0	0.00e+00	0	28	0	206569472	74	4519
2026-01-04 06:39:06.21	74.28	12.64	-53.9	-56.2	13.9	0.00e+00	0	28	0	208666624	74	4584
2026-01-04 06:39:07.22	74.16	12.72	-53.9	-56.2	13.9	0.00e+00	0	28	0	210763776	74	4569
2026-01-04 06:39:08.22	74.04	12.80	-53.9	-56.3	13.9	0.00e+00	0	28	0	211812352	74	4601
2026-01-04 06:39:09.22	73.92	12.87	-53.8	-56.1	14.0	0.00e+00	0	28	0	213909504	74	4533
2026-01-04 06:39:10.21	73.80	12.95	-53.9	-56.2	14.0	0.00e+00	0	28	0	216006656	74	4575
2026-01-04 06:39:11.21	73.68	13.03	-53.9	-56.2	14.0	0.00e+00	0	28	0	218103808	74	4586
2026-01-04 06:39:12.20	73.56	13.11	-53.9	-56.2	13.9	0.00e+00	0	28	0	220200960	74	4591
2026-01-04 06:39:13.19	73.44	13.18	-53.8	-56.1	14.0	0.00e+00	0	28	0	221249536	74	4496
2026-01-04 06:39:14.18	73.31	13.26	-53.8	-56.0	14.1	0.00e+00	0	28	0	223346688	74	4467
2026-01-04 06:39:15.19	73.19	13.34	-53.8	-56.1	14.0	0.00e+00	0	28	0	225443840	74	4495
2026-01-04 06:39:16.19	73.07	13.42	-53.8	-56.0	14.1	0.00e+00	0	28	0	227540992	74	4464
2026-01-04 06:39:17.19	72.94	13.50	-53.8	-56.0	14.0	0.00e+00	0	28	0	229638144	74	4480
2026-01-04 06:39:18.19	72.81	13.57	-53.6	-55.8	14.0	0.00e+00	0	28	0	230686720	73	4648
2026-01-04 06:39:19.19	72.69	13.65	-53.6	-55.8	14.1	0.00e+00	0	28	0	232783872	73	4621
2026-01-04 06:39:20.19	72.56	13.73	-53.5	-55.7	14.1	0.00e+00	0	28	0	234881024	73	4559
2026-01-04 06:39:21.19	72.43	13.81	-53.5	-55.6	14.2	0.00e+00	0	28	0	236978176	73	4506
2026-01-04 06:39:22.18	72.31	13.89	-53.6	-55.7	14.1	0.00e+00	0	28	0	239075328	73	4569
2026-01-04 06:39:23.18	72.18	13.97	-53.5	-55.6	14.2	0.00e+00	0	28	0	240123904	73	4523
2026-01-04 06:39:24.18	72.05	14.05	-53.4	-55.6	14.2	0.00e+00	0	28	0	242221056	73	4494
2026-01-04 06:39:25.17	71.92	14.13	-53.5	-55.6	14.2	0.00e+00	0	28	0	244318208	73	4524
2026-01-04 06:39:26.17	71.79	14.20	-53.5	-55.6	14.1	0.00e+00	0	28	0	246415360	73	4534
2026-01-04 06:39:27.16	71.65	14.28	-53.5	-55.6	14.1	0.00e+00	0	28	0	247463936	73	4538
2026-01-04 06:39:28.16	71.52	14.36	-53.5	-55.6	14.1	0.00e+00	0	28	0	249561088	73	4545
2026-01-04 06:39:29.16	71.39	14.44	-53.5	-55.6	14.2	0.00e+00	0	28	0	251658240	73	4500
2026-01-04 06:39:30.15	71.26	14.52	-53.4	-55.6	14.2	0.00e+00	0	28	0	253755392	73	4494
2026-01-04 06:39:31.15	71.12	14.60	-53.4	-55.5	14.2	0.00e+00	0	28	0	255852544	73	4445
2026-01-04 06:39:32.14	70.99	14.68	-53.4	-55.5	14.2	0.00e+00	0	29	0	256901120	73	4452
2026-01-04 06:39:33.14	70.85	14.76	-53.4	-55.5	14.2	0.00e+00	0	28	0	258998272	73	4474
2026-01-04 06:39:34.14	70.71	14.84	-53.3	-55.3	14.3	0.00e+00	0	28	0	261095424	73	4384
2026-01-04 06:39:35.13	70.58	14.92	-53.3	-55.3	14.3	0.00e+00	0	28	0	263192576	73	4357
2026-01-04 06:39:36.13	70.44	15.00	-53.3	-55.3	14.3	0.00e+00	0	28	0	264241152	73	4384
2026-01-04 06:39:37.13	70.30	15.08	-53.3	-55.3	14.3	0.00e+00	0	28	0	266338304	73	4388
2026-01-04 06:39:38.12	70.16	15.16	-53.2	-55.2	14.4	0.00e+00	0	28	0	268435456	73	4310
2026-01-04 06:39:39.12	70.02	15.24	-53.1	-55.1	14.3	0.00e+00	0	28	0	270532608	72	4509
2026-01-04 06:39:40.12	69.88	15.32	-53.2	-55.2	14.3	0.00e+00	0	28	0	272629760	72	4555
2026-01-04 06:39:41.12	69.73	15.40	-53.2	-55.3	14.2	0.00e+00	0	28	0	273678336	72	4612
2026-01-04 06:39:42.12	69.59	15.48	-53.1	-55.1	14.3	0.00e+00	0	28	0	275775488	72	4518
2026-01-04 06:39:43.12	69.45	15.57	-53.2	-55.2	14.3	0.00e+00	0	28	0	277872640	72	4574
2026-01-04 06:39:44.12	69.30	15.65	-53.2	-55.2	14.3	0.00e+00	0	28	0	279969792	72	4566
2026-01-04 06:39:45.12	69.15	15.73	-53.3	-55.3	14.2	0.00e+00	0	28	0	281018368	72	4633
2026-01-04 06:39:46.11	69.01	15.81	-53.3	-55.3	14.2	0.00e+00	0	28	0	283115520	72	4637
2026-01-04 06:39:47.11	68.86	15.89	-53.1	-55.2	14.3	0.00e+00	0	28	0	285212672	72	4548
2026-01-04 06:39:48.11	68.71	15.97	-53.2	-55.2	14.3	0.00e+00	0	28	0	287309824	72	4586
2026-01-04 06:39:49.10	68.57	16.05	-53.3	-55.3	14.2	0.00e+00	0	28	0	289406976	72	4647
2026-01-04 06:39:50.10	68.42	16.13	-53.2	-55.2	14.3	0.00e+00	0	28	0	290455552	72	4573
2026-01-04 06:39:51.11	68.26	16.22	-53.2	-55.2	14.3	0.00e+00	0	28	0	292552704	72	4583
2026-01-04 06:39:52.11	68.11	16.30	-53.3	-55.3	14.2	0.00e+00	0	28	0	294649856	72	4609
2026-01-04 06:39:53.11	67.96	16.38	-53.1	-55.1	14.3	0.00e+00	0	28	0	296747008	72	4526
2026-01-04 06:39:54.12	67.81	16.46	-53.1	-55.1	14.3	0.00e+00	0	28	0	298844160	72	4530
2026-01-04 06:39:55.12	67.65	16.54	-53.1	-55.1	14.3	0.00e+00	0	28	0	299892736	72	4518
2026-01-04 06:39:56.11	67.50	16.63	-53.2	-55.1	14.3	0.00e+00	0	28	0	301989888	72	4539
2026-01-04 06:39:57.11	67.34	16.71	-53.2	-55.3	14.3	0.00e+00	0	28	0	304087040	72	4602
2026-01-04 06:39:58.11	67.19	16.79	-53.1	-55.1	14.3	0.00e+00	0	28	0	306184192	72	4527
2026-01-04 06:39:59.11	67.03	16.87	-53.2	-55.2	14.3	0.00e+00	0	28	0	308281344	72	4558
2026-01-04 06:40:00.10	66.87	16.95	-53.2	-55.2	14.3	0.00e+00	0	28	0	309329920	72	4582
2026-01-04 06:40:01.10	66.71	17.03	-53.3	-55.3	14.2	0.00e+00	0	28	0	311427072	72	4618
2026-01-04 06:40:02.10	66.55	17.12	-53.2	-55.3	14.3	0.00e+00	0	28	0	313524224	72	4602
2026-01-04 06:40:03.10	66.39	17.20	-53.2	-55.2	14.3	0.00e+00	0	28	0	315621376	72	4576
2026-01-04 06:40:04.10	66.23	17.28	-53.3	-55.3	14.3	0.00e+00	0	28	0	316669952	72	4604
2026-01-04 06:40:05.09	66.07	17.36	-53.3	-55.3	14.3	0.00e+00	0	28	0	318767104	72	4603
2026-01-04 06:40:06.10	65.90	17.45	-53.3	-55.3	14.2	0.00e+00	0	28	0	320864256	72	4633
2026-01-04 06:40:07.10	65.74	17.53	-53.3	-55.3	14.3	0.00e+00	0	28	0	322961408	72	4600
2026-01-04 06:40:08.10	65.57	17.61	-53.4	-55.4	14.2	0.00e+00	0	28	0	325058560	72	4684
2026-01-04 06:40:09.09	65.41	17.69	-53.3	-55.3	14.2	0.00e+00	0	28	0	326107136	72	4641
2026-01-04 06:40:10.08	65.24	17.78	-53.5	-55.5	14.2	0.00e+00	0	28	0	328204288	72	4748
2026-01-04 06:40:11.09	65.07	17.86	-53.4	-55.5	14.2	0.00e+00	0	28	0	330301440	72	4709
2026-01-04 06:40:12.09	64.90	17.94	-53.4	-55.4	14.2	0.00e+00	0	28	0	332398592	72	4697
2026-01-04 06:40:13.09	64.73	18.02	-53.4	-55.4	14.2	0.00e+00	0	28	0	334495744	72	4693
2026-01-04 06:40:14.09	64.56	18.11	-53.4	-55.4	14.2	0.00e+00	0	28	0	335544320	72	4685
2026-01-04 06:40:15.09	64.39	18.19	-53.4	-55.5	14.2	0.00e+00	0	29	0	337641472	72	4716
2026-01-04 06:40:16.09	64.21	18.27	-53.5	-55.5	14.2	0.00e+00	0	28	0	339738624	72	4750
2026-01-04 06:40:17.08	64.04	18.35	-53.4	-55.4	14.2	0.00e+00	0	28	0	341835776	72	4691
2026-01-04 06:40:18.09	63.87	18.44	-53.4	-55.5	14.2	0.00e+00	0	28	0	342884352	72	4724
2026-01-04 06:40:19.09	63.69	18.52	-53.4	-55.4	14.3	0.00e+00	0	28	0	344981504	72	4663
2026-01-04 06:40:20.09	63.51	18.60	-53.3	-55.3	14.3	0.00e+00	0	28	0	347078656	72	4614
2026-01-04 06:40:21.10	63.33	18.69	-53.3	-55.2	14.3	0.00e+00	0	28	0	349175808	72	4595
2026-01-04 06:40:22.10	63.15	18.77	-53.2	-55.2	14.3	0.00e+00	0	28	0	351272960	72	4552
2026-01-04 06:40:23.11	62.97	18.85	-53.3	-55.3	14.3	0.00e+00	0	28	0	352321536	72	4603
2026-01-04 06:40:24.11	62.79	18.93	-53.3	-55.3	14.3	0.00e+00	0	28	0	354418688	72	4600
2026-01-04 06:40:25.10	62.61	19.02	-53.2	-55.3	14.3	0.00e+00	0	28	0	356515840	72	4599
2026-01-04 06:40:26.10	62.43	19.10	-53.3	-55.2	14.3	0.00e+00	0	28	0	358612992	72	4598
2026-01-04 06:40:27.10	62.24	19.18	-53.3	-55.4	14.2	0.00e+00	0	28	0	360710144	72	4652
2026-01-04 06:40:28.11	62.06	19.26	-53.3	-55.4	14.2	0.00e+00	0	28	0	361758720	72	4654
2026-01-04 06:40:29.10	61.87	19.35	-53.4	-55.4	14.2	0.00e+00	0	28	0	363855872	72	4689
2026-01-04 06:40:30.10	61.69	19.43	-53.4	-55.5	14.2	0.00e+00	0	28	0	365953024	72	4723
2026-01-04 06:40:31.10	61.50	19.51	-53.5	-55.5	14.2	0.00e+00	0	28	0	368050176	72	4739
2026-01-04 06:40:32.10	61.31	19.59	-53.5	-55.5	14.2	0.00e+00	0	28	0	370147328	72	4733
2026-01-04 06:40:33.11	61.12	19.68	-53.4	-55.5	14.2	0.00e+00	0	28	0	371195904	72	4724
2026-01-04 06:40:34.10	60.93	19.76	-53.3	-55.3	14.2	0.00e+00	0	28	0	373293056	72	4644
2026-01-04 06:40:35.10	60.74	19.84	-53.4	-55.4	14.2	0.00e+00	0	28	0	375390208	72	4679
2026-01-04 06:40:36.10	60.54	19.92	-53.3	-55.3	14.3	0.00e+00	0	28	0	377487360	72	4615
2026-01-04 06:40:37.11	60.35	20.00	-53.1	-55.0	14.4	0.00e+00	0	28	0	378535936	72	4470
2026-01-04 06:40:38.11	60.15	20.08	-53.1	-55.0	14.4	0.00e+00	0	28	0	380633088	72	4485
2026-01-04 06:40:39.11	59.96	20.17	-53.0	-54.9	14.5	0.00e+00	0	29	0	382730240	72	4401
2026-01-04 06:40:40.12	59.76	20.25	-52.9	-54.8	14.5	0.00e+00	0	28	0	384827392	72	4368
2026-01-04 06:40:41.12	59.56	20.33	-53.0	-54.8	14.5	0.00e+00	0	28	0	386924544	72	4385
2026-01-04 06:40:42.12	59.36	20.41	-52.8	-54.7	14.5	0.00e+00	0	28	0	387973120	72	4314
2026-01-04 06:40:43.13	59.16	20.49	-52.8	-54.6	14.6	0.00e+00	0	28	0	390070272	72	4290
2026-01-04 06:40:44.13	58.95	20.58	-52.8	-54.7	14.6	0.00e+00	0	28	0	392167424	72	4293
2026-01-04 06:40:45.13	58.75	20.66	-52.8	-54.6	14.6	0.00e+00	0	28	0	394264576	72	4290
2026-01-04 06:40:46.13	58.55	20.74	-52.7	-54.5	14.6	0.00e+00	0	28	0	396361728	72	4219
2026-01-04 06:40:47.13	58.34	20.82	-52.7	-54.5	14.5	0.00e+00	0	28	0	397410304	71	4481
2026-01-04 06:40:48.13	58.14	20.90	-52.6	-54.4	14.5	0.00e+00	0	28	0	399507456	71	4426
2026-01-04 06:40:49.12	57.93	20.98	-52.5	-54.3	14.6	0.00e+00	0	28	0	401604608	71	4362
2026-01-04 06:40:50.12	57.72	21.06	-52.6	-54.5	14.5	0.00e+00	0	28	0	403701760	71	4443
2026-01-04 06:40:51.12	57.51	21.14	-52.4	-54.2	14.7	0.00e+00	0	28	0	404750336	71	4313
2026-01-04 06:40:52.13	57.30	21.22	-52.2	-54.0	14.7	0.00e+00	0	28	0	406847488	71	4200
2026-01-04 06:40:53.13	57.09	21.30	-52.2	-54.0	14.8	0.00e+00	0	28	0	408944640	71	4194
2026-01-04 06:40:54.14	56.88	21.38	-52.2	-53.9	14.8	0.00e+00	0	28	0	411041792	71	4190
2026-01-04 06:40:55.13	56.66	21.46	-52.3	-54.0	14.7	0.00e+00	0	28	0	413138944	71	4220
2026-01-04 06:40:56.13	56.45	21.54	-52.3	-54.0	14.7	0.00e+00	0	28	0	414187520	71	4210
2026-01-04 06:40:57.13	56.23	21.62	-52.3	-54.0	14.7	0.00e+00	0	28	0	416284672	71	4204
2026-01-04 06:40:58.13	56.02	21.70	-52.2	-53.9	14.8	0.00e+00	0	28	0	418381824	71	4183
2026-01-04 06:40:59.12	55.80	21.77	-52.1	-53.8	14.7	0.00e+00	0	28	0	420478976	70	4375
2026-01-04 06:41:00.12	55.58	21.85	-51.8	-53.4	14.9	0.00e+00	0	28	0	422576128	70	4164
2026-01-04 06:41:01.12	55.36	21.93	-51.9	-53.5	14.9	0.00e+00	0	28	0	423624704	70	4216
2026-01-04 06:41:02.12	55.14	22.01	-51.8	-53.4	14.9	0.00e+00	0	28	0	425721856	70	4159
2026-01-04 06:41:03.12	54.92	22.09	-51.6	-53.1	14.9	0.00e+00	0	28	0	427819008	69	4290
2026-01-04 06:41:04.11	54.70	22.17	-51.6	-53.2	14.9	0.00e+00	0	28	0	429916160	69	4293
2026-01-04 06:41:05.12	54.47	22.24	-51.6	-53.2	14.8	0.00e+00	0	28	0	432013312	69	4330
2026-01-04 06:41:06.12	54.24	22.32	-51.7	-53.3	14.8	0.00e+00	0	28	0	433061888	69	4351
2026-01-04 06:41:07.12	54.02	22.40	-51.6	-53.2	14.9	0.00e+00	0	29	0	435159040	69	4313
2026-01-04 06:41:08.12	53.79	22.47	-51.7	-53.3	14.8	0.00e+00	0	28	0	437256192	69	4362
2026-01-04 06:41:09.12	53.56	22.55	-51.8	-53.4	14.8	0.00e+00	0	28	0	439353344	69	4402
2026-01-04 06:41:10.13	53.32	22.63	-51.7	-53.3	14.8	0.00e+00	0	28	0	440401920	69	4391
2026-01-04 06:41:11.13	53.09	22.70	-51.7	-53.4	14.8	0.00e+00	0	28	0	442499072	69	4392
2026-01-04 06:41:12.13	52.86	22.78	-51.7	-53.3	14.8	0.00e+00	0	28	0	444596224	69	4342
2026-01-04 06:41:13.13	52.63	22.86	-51.7	-53.3	14.8	0.00e+00	0	28	0	446693376	69	4348
2026-01-04 06:41:14.13	52.39	22.93	-51.7	-53.3	14.8	0.00e+00	0	28	0	448790528	69	4369
2026-01-04 06:41:15.13	52.15	23.01	-51.7	-53.4	14.8	0.00e+00	0	28	0	449839104	69	4392
2026-01-04 06:41:16.13	51.92	23.08	-51.8	-53.4	14.8	0.00e+00	0	28	0	451936256	69	4405
2026-01-04 06:41:17.13	51.68	23.15	-51.9	-53.5	14.7	0.00e+00	0	28	0	454033408	69	4486
2026-01-04 06:41:18.13	51.44	23.23	-51.8	-53.4	14.8	0.00e+00	0	28	0	456130560	69	4410
2026-01-04 06:41:19.12	51.20	23.30	-51.8	-53.4	14.8	0.00e+00	0	28	0	458227712	69	4431
2026-01-04 06:41:20.12	50.96	23.37	-51.7	-53.4	14.8	0.00e+00	0	28	0	459276288	69	4395
2026-01-04 06:41:21.11	50.72	23.45	-51.8	-53.4	14.8	0.00e+00	0	28	0	461373440	69	4418
2026-01-04 06:41:22.11	50.47	23.52	-51.9	-53.5	14.8	0.00e+00	0	28	0	463470592	69	4456
2026-01-04 06:41:23.11	50.23	23.59	-51.7	-53.3	14.8	0.00e+00	0	28	0	465567744	69	4362
2026-01-04 06:41:24.10	49.98	23.66	-51.6	-53.2	14.8	0.00e+00	0	28	0	467664896	69	4332
2026-01-04 06:41:25.10	49.74	23.73	-51.6	-53.2	14.8	0.00e+00	0	28	0	468713472	69	4335
2026-01-04 06:41:26.09	49.49	23.80	-51.6	-53.2	14.9	0.00e+00	0	28	0	470810624	69	4309
2026-01-04 06:41:27.09	49.24	23.87	-51.7	-53.3	14.8	0.00e+00	0	28	0	472907776	69	4389
2026-01-04 06:41:28.09	48.99	23.94	-51.8	-53.4	14.8	0.00e+00	0	28	0	475004928	69	4432
2026-01-04 06:41:29.08	48.74	24.01	-51.9	-53.5	14.7	0.00e+00	0	28	0	476053504	69	4467
2026-01-04 06:41:30.08	48.49	24.08	-51.9	-53.6	14.7	0.00e+00	0	28	0	478150656	69	4496
2026-01-04 06:41:31.08	48.23	24.15	-51.9	-53.5	14.7	0.00e+00	0	28	0	480247808	69	4492
2026-01-04 06:41:32.08	47.98	24.22	-52.0	-53.6	14.7	0.00e+00	0	28	0	482344960	69	4545
2026-01-04 06:41:33.08	47.72	24.29	-52.0	-53.6	14.7	0.00e+00	0	28	0	484442112	69	4537
2026-01-04 06:41:34.08	47.46	24.35	-52.1	-53.8	14.6	0.00e+00	0	28	0	485490688	69	4642
2026-01-04 06:41:35.08	47.20	24.42	-52.1	-53.8	14.6	0.00e+00	0	28	0	487587840	69	4612
2026-01-04 06:41:36.08	46.94	24.49	-52.1	-53.8	14.6	0.00e+00	0	28	0	489684992	69	4618
2026-01-04 06:41:37.06	46.69	24.55	-52.2	-53.8	14.6	0.00e+00	0	28	0	491782144	69	4643
2026-01-04 06:41:38.06	46.43	24.62	-52.2	-53.9	14.6	0.00e+00	0	28	0	492830720	69	4683
2026-01-04 06:41:39.05	46.16	24.68	-52.0	-53.7	14.7	0.00e+00	0	28	0	494927872	69	4567
2026-01-04 06:41:40.05	45.90	24.75	-51.8	-53.4	14.8	0.00e+00	0	28	0	497025024	69	4404
2026-01-04 06:41:41.05	45.63	24.81	-51.9	-53.6	14.7	0.00e+00	0	28	0	499122176	69	4499
2026-01-04 06:41:42.06	45.37	24.88	-51.8	-53.4	14.8	0.00e+00	0	28	0	501219328	69	4420
2026-01-04 06:41:43.06	45.10	24.94	-51.7	-53.3	14.8	0.00e+00	0	28	0	502267904	69	4380
2026-01-04 06:41:44.05	44.83	25.00	-51.7	-53.3	14.8	0.00e+00	0	28	0	504365056	69	4386
2026-01-04 06:41:45.05	44.56	25.06	-51.8	-53.4	14.8	0.00e+00	0	28	0	506462208	69	4393
2026-01-04 06:41:46.06	44.29	25.12	-51.7	-53.2	14.9	0.00e+00	0	28	0	508559360	69	4340
2026-01-04 06:41:47.05	44.02	25.19	-51.5	-53.1	14.9	0.00e+00	0	28	0	510656512	69	4250
2026-01-04 06:41:48.04	43.75	25.24	-51.6	-53.1	14.9	0.00e+00	0	28	0	511705088	69	4277
2026-01-04 06:41:49.04	43.48	25.30	-51.6	-53.2	14.9	0.00e+00	0	28	0	513802240	69	4301
2026-01-04 06:41:50.04	43.20	25.36	-51.7	-53.3	14.8	0.00e+00	0	28	0	515899392	69	4374
2026-01-04 06:41:51.05	42.92	25.42	-51.7	-53.3	14.8	0.00e+00	0	28	0	517996544	69	4363
2026-01-04 06:41:52.04	42.65	25.48	-51.5	-53.1	14.9	0.00e+00	0	28	0	519045120	69	4263
2026-01-04 06:41:53.04	42.37	25.54	-51.5	-53.0	14.9	0.00e+00	0	28	0	521142272	69	4229
2026-01-04 06:41:54.03	42.09	25.59	-51.5	-53.0	14.9	0.00e+00	0	29	0	523239424	69	4234
2026-01-04 06:41:55.03	41.81	25.65	-51.5	-53.0	14.9	0.00e+00	0	28	0	525336576	69	4241
2026-01-04 06:41:56.01	41.54	25.70	-51.6	-53.1	14.9	0.00e+00	0	28	0	527433728	69	4279
2026-01-04 06:41:57.00	41.26	25.76	-51.5	-53.1	14.9	0.00e+00	0	29	0	528482304	69	4263
2026-01-04 06:41:58.00	40.97	25.81	-51.5	-53.1	14.9	0.00e+00	0	28	0	530579456	69	4259
2026-01-04 06:41:59.00	40.69	25.87	-51.5	-53.1	14.9	0.00e+00	0	28	0	532676608	69	4260
2026-01-04 06:42:00.00	40.41	25.92	-51.7	-53.2	14.9	0.00e+00	0	28	0	534773760	69	4337
2026-01-04 06:42:01.00	40.12	25.97	-51.9	-53.5	14.7	0.00e+00	0	28	0	535822336	69	4472
2026-01-04 06:42:02.00	39.83	26.02	-51.9	-53.5	14.8	0.00e+00	0	28	0	537919488	69	4483
2026-01-04 06:42:03.00	39.55	26.07	-51.8	-53.5	14.8	0.00e+00	0	28	0	540016640	69	4449
2026-01-04 06:42:03.99	39.26	26.12	-51.9	-53.5	14.8	0.00e+00	0	28	0	542113792	69	4449
2026-01-04 06:42:04.98	38.97	26.17	-51.9	-53.5	14.8	0.00e+00	0	29	0	544210944	69	4489
2026-01-04 06:42:05.98	38.68	26.22	-52.1	-53.8	14.6	0.00e+00	0	28	0	545259520	69	4641
2026-01-04 06:42:06.97	38.39	26.27	-52.3	-54.1	14.6	0.00e+00	0	28	0	547356672	69	4774
2026-01-04 06:42:07.96	38.10	26.31	-52.5	-54.2	14.6	0.00e+00	0	28	0	549453824	70	4571
2026-01-04 06:42:08.97	37.81	26.36	-52.5	-54.3	14.6	0.00e+00	0	28	0	551550976	70	4617
2026-01-04 06:42:09.96	37.52	26.41	-52.3	-54.0	14.7	0.00e+00	0	28	0	552599552	70	4484
2026-01-04 06:42:10.95	37.23	26.45	-52.3	-53.9	14.7	0.00e+00	0	29	0	554696704	70	4438
2026-01-04 06:42:11.95	36.93	26.50	-52.6	-54.3	14.6	0.00e+00	0	28	0	556793856	70	4631
2026-01-04 06:42:12.96	36.63	26.54	-52.7	-54.5	14.5	0.00e+00	0	28	0	558891008	70	4733
2026-01-04 06:42:13.95	36.34	26.58	-52.8	-54.7	14.4	0.00e+00	0	28	0	560988160	70	4826
2026-01-04 06:42:14.95	36.04	26.62	-52.8	-54.6	14.4	0.00e+00	0	28	0	562036736	70	4813
2026-01-04 06:42:15.95	35.74	26.66	-52.7	-54.6	14.5	0.00e+00	0	28	0	564133888	70	4761
2026-01-04 06:42:16.95	35.44	26.70	-52.7	-54.5	14.5	0.00e+00	0	28	0	566231040	70	4741
2026-01-04 06:42:17.95	35.14	26.74	-52.7	-54.5	14.5	0.00e+00	0	28	0	568328192	70	4752
2026-01-04 06:42:18.95	34.84	26.78	-52.8	-54.7	14.4	0.00e+00	0	28	0	570425344	70	4821
2026-01-04 06:42:19.95	34.54	26.82	-52.8	-54.6	14.4	0.00e+00	0	28	0	571473920	70	4808
2026-01-04 06:42:20.95	34.23	26.86	-52.9	-54.8	14.4	0.00e+00	0	28	0	573571072	70	4872
2026-01-04 06:42:21.95	33.93	26.89	-52.9	-54.7	14.5	0.00e+00	0	28	0	575668224	71	4560
2026-01-04 06:42:22.94	33.63	26.93	-53.0	-54.8	14.5	0.00e+00	0	28	0	577765376	71	4627
2026-01-04 06:42:23.94	33.33	26.96	-53.1	-54.9	14.4	0.00e+00	0	28	0	579862528	71	4704
2026-01-04 06:42:24.94	33.02	27.00	-53.2	-55.1	14.4	0.00e+00	0	29	0	580911104	71	4769
2026-01-04 06:42:25.94	32.72	27.03	-53.2	-55.1	14.3	0.00e+00	0	29	0	583008256	71	4780
2026-01-04 06:42:26.93	32.41	27.06	-53.2	-55.1	14.3	0.00e+00	0	28	0	585105408	71	4813
2026-01-04 06:42:27.93	32.10	27.09	-53.1	-55.0	14.4	0.00e+00	0	28	0	587202560	71	4729
2026-01-04 06:42:28.93	31.80	27.12	-53.2	-55.1	14.3	0.00e+00	0	28	0	588251136	71	4813
2026-01-04 06:42:29.93	31.49	27.15	-53.3	-55.3	14.3	0.00e+00	0	28	0	590348288	71	4872
2026-01-04 06:42:30.92	31.18	27.18	-53.5	-55.5	14.3	0.00e+00	0	28	0	592445440	72	4711
2026-01-04 06:42:31.93	30.87	27.21	-53.5	-55.4	14.3	0.00e+00	0	28	0	594542592	72	4704
2026-01-04 06:42:32.92	30.56	27.23	-53.4	-55.4	14.3	0.00e+00	0	28	0	596639744	72	4655
2026-01-04 06:42:33.92	30.25	27.26	-53.3	-55.2	14.4	0.00e+00	0	29	0	597688320	72	4546
2026-01-04 06:42:34.91	29.95	27.28	-53.3	-55.3	14.4	0.00e+00	0	29	0	599785472	72	4604
2026-01-04 06:42:35.91	29.63	27.31	-53.5	-55.5	14.3	0.00e+00	0	28	0	601882624	72	4719
2026-01-04 06:42:36.91	29.32	27.33	-53.6	-55.6	14.2	0.00e+00	0	28	0	603979776	72	4811
2026-01-04 06:42:37.90	29.01	27.35	-53.6	-55.6	14.2	0.00e+00	0	28	0	605028352	72	4814
2026-01-04 06:42:38.90	28.70	27.37	-53.6	-55.7	14.2	0.00e+00	0	28	0	607125504	72	4823
2026-01-04 06:42:39.89	28.39	27.39	-53.6	-55.6	14.2	0.00e+00	0	29	0	609222656	72	4814
2026-01-04 06:42:40.89	28.08	27.41	-53.7	-55.8	14.1	0.00e+00	0	28	0	611319808	72	4893
2026-01-04 06:42:41.89	27.76	27.43	-53.7	-55.8	14.1	0.00e+00	0	28	0	613416960	72	4883
2026-01-04 06:42:42.88	27.45	27.45	-53.6	-55.7	14.2	0.00e+00	0	28	0	614465536	72	4821
2026-01-04 06:42:43.88	27.14	27.46	-53.6	-55.6	14.2	0.00e+00	0	28	0	616562688	72	4785
2026-01-04 06:42:44.88	26.82	27.48	-53.5	-55.5	14.2	0.00e+00	0	28	0	618659840	72	4739
2026-01-04 06:42:45.87	26.51	27.49	-53.7	-55.8	14.2	0.00e+00	0	28	0	620756992	72	4891
2026-01-04 06:42:46.88	26.19	27.51	-53.9	-56.0	14.1	0.00e+00	0	28	0	621805568	72	5033
2026-01-04 06:42:47.87	25.88	27.52	-54.0	-56.1	14.1	0.00e+00	0	28	0	623902720	73	4775
2026-01-04 06:42:48.87	25.57	27.53	-54.0	-56.1	14.1	0.00e+00	0	28	0	625999872	73	4802
2026-01-04 06:42:49.87	25.25	27.54	-53.8	-55.9	14.2	0.00e+00	0	28	0	628097024	73	4670
2026-01-04 06:42:50.87	24.93	27.55	-53.7	-55.8	14.2	0.00e+00	0	28	0	630194176	73	4603
2026-01-04 06:42:51.87	24.62	27.56	-53.5	-55.5	14.4	0.00e+00	0	28	0	631242752	73	4453
2026-01-04 06:42:52.86	24.30	27.57	-53.3	-55.2	14.5	0.00e+00	0	28	0	633339904	73	4310
2026-01-04 06:42:53.86	23.99	27.57	-53.3	-55.2	14.5	0.00e+00	0	28	0	635437056	73	4335
2026-01-04 06:42:54.85	23.67	27.58	-53.3	-55.1	14.5	0.00e+00	0	28	0	637534208	73	4291
2026-01-04 06:42:55.84	23.36	27.58	-53.3	-55.2	14.5	0.00e+00	0	28	0	639631360	73	4294
2026-01-04 06:42:56.85	23.04	27.59	-53.1	-55.0	14.5	0.00e+00	0	28	0	640679936	72	4452
2026-01-04 06:42:57.84	22.72	27.59	-53.0	-54.9	14.6	0.00e+00	0	28	0	642777088	72	4392
2026-01-04 06:42:58.84	22.41	27.59	-53.1	-54.9	14.5	0.00e+00	0	28	0	644874240	72	4434
2026-01-04 06:42:59.84	22.09	27.59	-53.1	-54.9	14.5	0.00e+00	0	28	0	646971392	72	4410
2026-01-04 06:43:00.84	21.77	27.59	-53.1	-54.9	14.5	0.00e+00	0	28	0	649068544	72	4416
2026-01-04 06:43:01.83	21.46	27.59	-53.0	-54.8	14.6	0.00e+00	0	28	0	650117120	72	4352
2026-01-04 06:43:02.82	21.15	27.59	-52.9	-54.8	14.6	0.00e+00	0	29	0	652214272	72	4341
2026-01-04 06:43:03.82	20.83	27.59	-53.0	-54.9	14.6	0.00e+00	0	28	0	654311424	72	4397
2026-01-04 06:43:04.81	20.51	27.58	-52.9	-54.7	14.6	0.00e+00	0	28	0	656408576	72	4307
2026-01-04 06:43:05.80	20.20	27.58	-53.0	-54.8	14.6	0.00e+00	0	28	0	657457152	72	4361
2026-01-04 06:43:06.79	19.89	27.57	-52.9	-54.6	14.6	0.00e+00	0	28	0	659554304	72	4284
2026-01-04 06:43:07.79	19.57	27.57	-52.8	-54.5	14.7	0.00e+00	0	28	0	661651456	72	4225
2026-01-04 06:43:08.78	19.26	27.56	-52.9	-54.6	14.6	0.00e+00	0	28	0	663748608	72	4283
2026-01-04 06:43:09.77	18.94	27.55	-53.0	-54.8	14.6	0.00e+00	0	28	0	664797184	72	4347
2026-01-04 06:43:10.77	18.63	27.54	-52.8	-54.5	14.7	0.00e+00	0	28	0	666894336	72	4230
2026-01-04 06:43:11.78	18.31	27.53	-52.7	-54.4	14.7	0.00e+00	0	28	0	668991488	72	4183
2026-01-04 06:43:12.78	17.99	27.52	-52.6	-54.4	14.7	0.00e+00	0	28	0	671088640	71	4401
2026-01-04 06:43:13.78	17.68	27.51	-52.5	-54.3	14.7	0.00e+00	0	28	0	673185792	71	4350
2026-01-04 06:43:14.77	17.37	27.49	-52.7	-54.4	14.6	0.00e+00	0	28	0	674234368	71	4418
2026-01-04 06:43:15.77	17.05	27.48	-52.5	-54.2	14.7	0.00e+00	0	28	0	676331520	71	4329
2026-01-04 06:43:16.77	16.74	27.46	-52.6	-54.3	14.7	0.00e+00	0	28	0	678428672	71	4387
2026-01-04 06:43:17.77	16.42	27.45	-52.6	-54.3	14.7	0.00e+00	0	28	0	680525824	71	4384
2026-01-04 06:43:18.76	16.11	27.43	-52.2	-53.8	14.9	0.00e+00	0	28	0	682622976	71	4136
2026-01-04 06:43:19.77	15.79	27.41	-52.1	-53.7	14.8	0.00e+00	0	28	0	683671552	70	4335
2026-01-04 06:43:20.77	15.48	27.39	-52.1	-53.7	14.8	0.00e+00	0	28	0	685768704	70	4308
2026-01-04 06:43:21.77	15.17	27.37	-52.0	-53.6	14.9	0.00e+00	0	28	0	687865856	70	4277
2026-01-04 06:43:22.78	14.85	27.35	-52.0	-53.6	14.7	0.00e+00	0	28	0	689963008	70	4269
2026-01-04 06:43:23.77	14.54	27.33	-52.0	-53.6	14.8	0.00e+00	0	28	0	691011584	70	4270
2026-01-04 06:43:24.76	14.23	27.31	-52.0	-53.6	14.8	0.00e+00	0	28	0	693108736	70	4265
2026-01-04 06:43:25.77	13.92	27.28	-52.1	-53.7	14.8	0.00e+00	0	28	0	695205888	70	4315
2026-01-04 06:43:26.76	13.61	27.26	-51.9	-53.5	14.9	0.00e+00	0	28	0	697303040	70	4210
2026-01-04 06:43:27.76	13.30	27.23	-51.9	-53.5	14.9	0.00e+00	0	28	0	699400192	70	4203
2026-01-04 06:43:28.76	12.99	27.21	-51.9	-53.5	14.9	0.00e+00	0	28	0	700448768	70	4227
2026-01-04 06:43:29.75	12.69	27.18	-51.9	-53.5	14.9	0.00e+00	0	28	0	702545920	70	4236
2026-01-04 06:43:30.75	12.38	27.15	-52.0	-53.7	14.8	0.00e+00	0	28	0	704643072	70	4298
2026-01-04 06:43:31.75	12.07	27.12	-52.1	-53.8	14.8	0.00e+00	0	28	0	706740224	70	4352
2026-01-04 06:43:32.75	11.76	27.09	-52.2	-53.9	14.8	0.00e+00	0	28	0	708837376	70	4416
2026-01-04 06:43:33.75	11.46	27.06	-52.2	-53.9	14.7	0.00e+00	0	28	0	709885952	70	4412
2026-01-04 06:43:34.75	11.15	27.03	-52.2	-53.8	14.8	0.00e+00	0	28	0	711983104	70	4387
2026-01-04 06:43:35.75	10.84	27.00	-52.1	-53.7	14.8	0.00e+00	0	28	0	714080256	70	4330
2026-01-04 06:43:36.75	10.54	26.96	-52.0	-53.6	14.9	0.00e+00	0	28	0	716177408	70	4252
2026-01-04 06:43:37.76	10.23	26.93	-52.0	-53.6	14.9	0.00e+00	0	28	0	717225984	70	4258
2026-01-04 06:43:38.75	9.93	26.89	-52.1	-53.7	14.8	0.00e+00	0	28	0	719323136	70	4309
2026-01-04 06:43:39.76	9.63	26.86	-52.2	-53.9	14.7	0.00e+00	0	28	0	721420288	70	4403
2026-01-04 06:43:40.76	9.32	26.82	-52.4	-54.1	14.7	0.00e+00	0	29	0	723517440	70	4496
2026-01-04 06:43:41.76	9.02	26.78	-52.4	-54.0	14.7	0.00e+00	0	28	0	725614592	70	4486
2026-01-04 06:43:42.76	8.72	26.74	-52.4	-54.1	14.7	0.00e+00	0	28	0	726663168	70	4516
2026-01-04 06:43:43.77	8.42	26.70	-52.4	-54.1	14.7	0.00e+00	0	29	0	728760320	70	4507
2026-01-04 06:43:44.76	8.12	26.66	-52.5	-54.2	14.6	0.00e+00	0	28	0	730857472	70	4566
2026-01-04 06:43:45.77	7.82	26.62	-52.5	-54.3	14.6	0.00e+00	0	28	0	732954624	70	4606
2026-01-04 06:43:46.76	7.53	26.58	-52.6	-54.4	14.6	0.00e+00	0	28	0	735051776	70	4663
2026-01-04 06:43:47.75	7.23	26.54	-52.7	-54.4	14.6	0.00e+00	0	28	0	736100352	70	4679
2026-01-04 06:43:48.75	6.94	26.49	-52.7	-54.5	14.5	0.00e+00	0	28	0	738197504	70	4736
2026-01-04 06:43:49.75	6.64	26.45	-52.8	-54.6	14.5	0.00e+00	0	28	0	740294656	70	4786
2026-01-04 06:43:50.75	6.35	26.40	-52.9	-54.7	14.5	0.00e+00	0	28	0	742391808	70	4826
2026-01-04 06:43:51.76	6.05	26.36	-53.0	-54.8	14.5	0.00e+00	0	28	0	744488960	71	4626
2026-01-04 06:43:52.76	5.76	26.31	-53.0	-54.8	14.5	0.00e+00	0	28	0	745537536	71	4633
2026-01-04 06:43:53.76	5.46	26.27	-53.0	-54.8	14.5	0.00e+00	0	28	0	747634688	71	4604
2026-01-04 06:43:54.75	5.18	26.22	-53.0	-54.8	14.5	0.00e+00	0	28	0	749731840	71	4606
2026-01-04 06:43:55.75	4.89	26.17	-53.1	-55.0	14.4	0.00e+00	0	28	0	751828992	71	4720
2026-01-04 06:43:56.75	4.60	26.12	-53.2	-55.1	14.4	0.00e+00	0	28	0	752877568	71	4768
2026-01-04 06:43:57.75	4.31	26.07	-53.3	-55.2	14.3	0.00e+00	0	28	0	754974720	71	4827
2026-01-04 06:43:58.75	4.02	26.02	-53.4	-55.3	14.3	0.00e+00	0	28	0	757071872	71	4902
2026-01-04 06:43:59.76	3.73	25.97	-53.4	-55.4	14.3	0.00e+00	0	29	0	759169024	71	4938
2026-01-04 06:44:00.76	3.45	25.91	-53.4	-55.3	14.4	0.00e+00	0	29	0	761266176	72	4615
2026-01-04 06:44:01.75	3.16	25.86	-53.4	-55.3	14.4	0.00e+00	0	28	0	762314752	72	4624
2026-01-04 06:44:02.76	2.88	25.81	-53.5	-55.4	14.3	0.00e+00	0	28	0	764411904	72	4672
2026-01-04 06:44:03.75	2.60	25.75	-53.4	-55.4	14.3	0.00e+00	0	28	0	766509056	72	4667
2026-01-04 06:44:04.75	2.32	25.70	-53.3	-55.2	14.4	0.00e+00	0	28	0	768606208	72	4571
2026-01-04 06:44:05.75	2.04	25.64	-53.3	-55.2	14.4	0.00e+00	0	28	0	770703360	72	4595
2026-01-04 06:44:06.75	1.76	25.59	-53.5	-55.4	14.3	0.00e+00	0	28	0	771751936	72	4681
2026-01-04 06:44:07.75	1.48	25.53	-53.5	-55.5	14.3	0.00e+00	0	28	0	773849088	72	4714
2026-01-04 06:44:08.76	1.20	25.47	-53.5	-55.5	14.3	0.00e+00	0	29	0	775946240	72	4711
2026-01-04 06:44:09.76	0.92	25.42	-53.5	-55.4	14.3	0.00e+00	0	29	0	778043392	72	4689
2026-01-04 06:44:10.76	0.65	25.36	-53.5	-55.4	14.3	0.00e+00	0	28	0	780140544	72	4683
2026-01-04 06:44:11.76	0.37	25.30	-53.4	-55.3	14.4	0.00e+00	0	28	0	781189120	72	4630
2026-01-04 06:44:12.77	0.09	25.24	-53.4	-55.3	14.4	0.00e+00	0	28	0	783286272	72	4635
2026-01-04 06:44:13.75	359.83	25.18	-53.5	-55.4	14.3	0.00e+00	0	28	0	785383424	72	4676
2026-01-04 06:44:14.75	359.56	25.12	-53.5	-55.5	14.3	0.00e+00	0	29	0	787480576	72	4717
2026-01-04 06:44:15.75	359.29	25.06	-53.5	-55.5	14.3	0.00e+00	0	28	0	788529152	72	4726
2026-01-04 06:44:16.76	359.01	24.99	-53.5	-55.4	14.3	0.00e+00	0	28	0	790626304	72	4682
2026-01-04 06:44:17.76	358.75	24.93	-53.5	-55.5	14.3	0.00e+00	0	28	0	792723456	72	4711
2026-01-04 06:44:18.75	358.48	24.87	-53.5	-55.4	14.3	0.00e+00	0	28	0	794820608	72	4678
2026-01-04 06:44:19.75	358.22	24.81	-53.4	-55.3	14.4	0.00e+00	0	29	0	796917760	72	4625
2026-01-04 06:44:20.75	357.95	24.74	-53.3	-55.3	14.4	0.00e+00	0	28	0	797966336	72	4601
2026-01-04 06:44:21.76	357.68	24.68	-53.3	-55.2	14.4	0.00e+00	0	28	0	800063488	72	4585
2026-01-04 06:44:22.76	357.42	24.61	-53.3	-55.2	14.4	0.00e+00	0	28	0	802160640	72	4573
2026-01-04 06:44:23.76	357.16	24.54	-53.2	-55.0	14.5	0.00e+00	0	28	0	804257792	72	4486
2026-01-04 06:44:24.75	356.90	24.48	-53.2	-55.1	14.5	0.00e+00	0	28	0	806354944	72	4522
2026-01-04 06:44:25.75	356.64	24.41	-53.3	-55.2	14.4	0.00e+00	0	28	0	807403520	72	4566
2026-01-04 06:44:26.75	356.38	24.35	-53.3	-55.2	14.4	0.00e+00	0	28	0	809500672	72	4582
2026-01-04 06:44:27.75	356.13	24.28	-53.3	-55.2	14.4	0.00e+00	0	28	0	811597824	72	4588
2026-01-04 06:44:28.76	355.87	24.21	-53.3	-55.2	14.4	0.00e+00	0	28	0	813694976	72	4574
2026-01-04 06:44:29.76	355.61	24.14	-53.3	-55.3	14.4	0.00e+00	0	28	0	814743552	72	4599
2026-01-04 06:44:30.76	355.36	24.07	-53.1	-55.0	14.5	0.00e+00	0	28	0	816840704	72	4481
2026-01-04 06:44:31.76	355.11	24.00	-53.1	-54.9	14.5	0.00e+00	0	28	0	818937856	72	4434
2026-01-04 06:44:32.76	354.85	23.93	-53.0	-54.8	14.6	0.00e+00	0	29	0	821035008	72	4367
2026-01-04 06:44:33.76	354.60	23.86	-52.8	-54.6	14.7	0.00e+00	0	28	0	823132160	72	4268
2026-01-04 06:44:34.75	354.36	23.79	-52.7	-54.5	14.7	0.00e+00	0	28	0	824180736	72	4219
2026-01-04 06:44:35.75	354.11	23.72	-52.7	-54.5	14.6	0.00e+00	0	28	0	826277888	71	4448
2026-01-04 06:44:36.75	353.86	23.65	-52.7	-54.5	14.6	0.00e+00	0	28	0	828375040	71	4467
2026-01-04 06:44:37.75	353.62	23.58	-52.8	-54.6	14.6	0.00e+00	0	28	0	830472192	71	4514
2026-01-04 06:44:38.76	353.37	23.51	-52.6	-54.3	14.7	0.00e+00	0	29	0	832569344	71	4372
2026-01-04 06:44:39.76	353.13	23.43	-52.5	-54.2	14.7	0.00e+00	0	29	0	833617920	71	4315
2026-01-04 06:44:40.76	352.88	23.36	-52.4	-54.1	14.7	0.00e+00	0	28	0	835715072	71	4265
2026-01-04 06:44:41.76	352.64	23.29	-52.3	-54.0	14.8	0.00e+00	0	29	0	837812224	71	4201
2026-01-04 06:44:42.76	352.40	23.22	-52.3	-54.0	14.8	0.00e+00	0	28	0	839909376	71	4202
2026-01-04 06:44:43.75	352.16	23.14	-52.3	-53.9	14.8	0.00e+00	0	28	0	842006528	71	4190
2026-01-04 06:44:44.75	351.93	23.07	-52.3	-53.9	14.8	0.00e+00	0	28	0	843055104	71	4186
2026-01-04 06:44:45.75	351.69	22.99	-52.2	-53.8	14.9	0.00e+00	0	29	0	845152256	71	4129
2026-01-04 06:44:46.75	351.45	22.92	-52.2	-53.9	14.8	0.00e+00	0	28	0	847249408	70	4393
2026-01-04 06:44:47.74	351.22	22.84	-52.2	-53.8	14.8	0.00e+00	0	28	0	849346560	70	4365
2026-01-04 06:44:48.74	350.99	22.77	-52.1	-53.8	14.8	0.00e+00	0	28	0	850395136	70	4342
2026-01-04 06:44:49.74	350.76	22.69	-52.1	-53.7	14.8	0.00e+00	0	29	0	852492288	70	4328
2026-01-04 06:44:50.74	350.53	22.62	-52.0	-53.6	14.8	0.00e+00	0	28	0	854589440	70	4267
2026-01-04 06:44:51.73	350.30	22.54	-52.0	-53.6	14.8	0.00e+00	0	28	0	856686592	70	4268
2026-01-04 06:44:52.73	350.07	22.47	-52.0	-53.6	14.8	0.00e+00	0	28	0	858783744	70	4285
2026-01-04 06:44:53.73	349.84	22.39	-51.9	-53.5	14.9	0.00e+00	0	29	0	859832320	70	4229
2026-01-04 06:44:54.73	349.62	22.31	-52.1	-53.7	14.8	0.00e+00	0	28	0	861929472	70	4301
2026-01-04 06:44:55.73	349.39	22.24	-52.1	-53.8	14.8	0.00e+00	0	28	0	864026624	70	4344
2026-01-04 06:44:56.73	349.17	22.16	-52.1	-53.8	14.8	0.00e+00	0	28	0	866123776	70	4356
2026-01-04 06:44:57.72	348.94	22.08	-52.2	-53.8	14.8	0.00e+00	0	29	0	867172352	70	4382
2026-01-04 06:44:58.71	348.72	22.00	-52.1	-53.8	14.8	0.00e+00	0	29	0	869269504	70	4368
2026-01-04 06:44:59.70	348.51	21.93	-52.1	-53.7	14.8	0.00e+00	0	29	0	871366656	70	4308
2026-01-04 06:45:00.70	348.29	21.85	-52.0	-53.6	14.9	0.00e+00	0	29	0	873463808	70	4265
2026-01-04 06:45:01.69	348.07	21.77	-51.9	-53.5	14.9	0.00e+00	0	28	0	875560960	70	4205
2026-01-04 06:45:02.69	347.85	21.69	-51.8	-53.4	14.9	0.00e+00	0	28	0	876609536	70	4178
2026-01-04 06:45:03.69	347.64	21.61	-51.7	-53.3	15.0	0.00e+00	0	28	0	878706688	70	4111
2026-01-04 06:45:04.68	347.42	21.53	-51.6	-53.2	14.9	0.00e+00	0	28	0	880803840	69	4321
2026-01-04 06:45:05.68	347.21	21.46	-51.6	-53.1	14.9	0.00e+00	0	28	0	882900992	69	4287
2026-01-04 06:45:06.67	347.00	21.38	-51.5	-53.1	14.9	0.00e+00	0	28	0	883949568	69	4257
2026-01-04 06:45:07.66	346.79	21.30	-51.6	-53.1	14.9	0.00e+00	0	28	0	886046720	69	4265
2026-01-04 06:45:08.66	346.58	21.22	-51.4	-52.9	15.0	0.00e+00	0	28	0	888143872	69	4177
2026-01-04 06:45:09.65	346.37	21.14	-51.5	-53.0	15.0	0.00e+00	0	29	0	890241024	69	4211
2026-01-04 06:45:10.65	346.16	21.06	-51.4	-53.0	15.0	0.00e+00	0	28	0	892338176	69	4195
2026-01-04 06:45:11.64	345.95	20.98	-51.3	-52.8	15.0	0.00e+00	0	28	0	893386752	69	4142
2026-01-04 06:45:12.63	345.75	20.90	-51.2	-52.7	15.1	0.00e+00	0	28	0	895483904	69	4074
2026-01-04 06:45:13.63	345.54	20.82	-51.2	-52.7	15.1	0.00e+00	0	29	0	897581056	69	4087
2026-01-04 06:45:14.63	345.34	20.74	-51.2	-52.7	15.1	0.00e+00	0	29	0	899678208	69	4082
2026-01-04 06:45:15.63	345.14	20.66	-51.2	-52.7	15.0	0.00e+00	0	28	0	900726784	68	4300
2026-01-04 06:45:16.62	344.94	20.58	-51.2	-52.7	15.0	0.00e+00	0	28	0	902823936	68	4331
2026-01-04 06:45:17.62	344.74	20.50	-51.1	-52.6	15.0	0.00e+00	0	29	0	904921088	68	4258
2026-01-04 06:45:18.62	344.54	20.42	-50.9	-52.4	15.1	0.00e+00	0	28	0	907018240	68	4161
2026-01-04 06:45:19.62	344.34	20.33	-50.8	-52.3	15.1	0.00e+00	0	28	0	909115392	68	4101
2026-01-04 06:45:20.61	344.14	20.25	-50.9	-52.3	15.1	0.00e+00	0	28	0	910163968	68	4129
2026-01-04 06:45:21.61	343.94	20.17	-50.8	-52.2	15.1	0.00e+00	0	28	0	912261120	68	4063
2026-01-04 06:45:22.61	343.75	20.09	-50.9	-52.3	15.1	0.00e+00	0	28	0	914358272	68	4143
2026-01-04 06:45:23.61	343.55	20.01	-50.9	-52.4	15.1	0.00e+00	0	29	0	916455424	68	4156
2026-01-04 06:45:24.60	343.36	19.93	-50.9	-52.4	15.1	0.00e+00	0	28	0	918552576	68	4147
2026-01-04 06:45:25.61	343.17	19.85	-50.9	-52.4	15.1	0.00e+00	0	28	0	919601152	68	4152
2026-01-04 06:45:26.61	342.98	19.76	-51.1	-52.6	15.0	0.00e+00	0	28	0	921698304	68	4246
2026-01-04 06:45:27.60	342.79	19.68	-50.9	-52.4	15.1	0.00e+00	0	28	0	923795456	68	4153
2026-01-04 06:45:28.60	342.60	19.60	-50.9	-52.3	15.1	0.00e+00	0	28	0	925892608	68	4141
2026-01-04 06:45:29.59	342.41	19.52	-50.8	-52.2	15.1	0.00e+00	0	28	0	926941184	68	4094
2026-01-04 06:45:30.59	342.22	19.44	-50.8	-52.2	15.1	0.00e+00	0	28	0	929038336	68	4079
2026-01-04 06:45:31.59	342.04	19.35	-50.8	-52.2	15.1	0.00e+00	0	28	0	931135488	68	4077
2026-01-04 06:45:32.59	341.85	19.27	-50.9	-52.3	15.1	0.00e+00	0	28	0	933232640	68	4125
2026-01-04 06:45:33.59	341.67	19.19	-50.8	-52.2	15.1	0.00e+00	0	28	0	935329792	68	4086
2026-01-04 06:45:34.59	341.48	19.11	-50.8	-52.3	15.1	0.00e+00	0	29	0	936378368	68	4101
2026-01-04 06:45:35.59	341.30	19.03	-50.9	-52.3	15.1	0.00e+00	0	28	0	938475520	68	4135
2026-01-04 06:45:36.59	341.12	18.94	-50.8	-52.3	15.1	0.00e+00	0	28	0	940572672	68	4110
2026-01-04 06:45:37.58	340.94	18.86	-50.9	-52.4	15.1	0.00e+00	0	28	0	942669824	68	4167
2026-01-04 06:45:38.58	340.76	18.78	-51.0	-52.5	15.1	0.00e+00	0	28	0	943718400	68	4206
2026-01-04 06:45:39.57	340.58	18.70	-51.0	-52.5	15.1	0.00e+00	0	28	0	945815552	68	4196
2026-01-04 06:45:40.58	340.40	18.61	-51.0	-52.5	15.0	0.00e+00	0	28	0	947912704	68	4203
2026-01-04 06:45:41.58	340.23	18.53	-51.0	-52.5	15.0	0.00e+00	0	29	0	950009856	68	4225
2026-01-04 06:45:42.57	340.05	18.45	-51.1	-52.6	15.0	0.00e+00	0	28	0	952107008	68	4254
2026-01-04 06:45:43.57	339.88	18.37	-51.1	-52.6	15.0	0.00e+00	0	28	0	953155584	68	4268
2026-01-04 06:45:44.58	339.70	18.28	-51.3	-52.8	14.9	0.00e+00	0	28	0	955252736	68	4365
2026-01-04 06:45:45.57	339.53	18.20	-51.3	-52.8	14.9	0.00e+00	0	29	0	957349888	68	4371
2026-01-04 06:45:46.56	339.36	18.12	-51.4	-52.9	14.9	0.00e+00	0	28	0	959447040	68	4431
2026-01-04 06:45:47.57	339.19	18.04	-51.4	-52.9	14.9	0.00e+00	0	28	0	961544192	68	4404
2026-01-04 06:45:48.56	339.02	17.96	-51.4	-53.0	14.9	0.00e+00	0	28	0	962592768	68	4456
2026-01-04 06:45:49.56	338.85	17.87	-51.4	-52.9	14.9	0.00e+00	0	28	0	964689920	68	4441
2026-01-04 06:45:50.55	338.69	17.79	-51.4	-53.0	14.9	0.00e+00	0	28	0	966787072	68	4446
2026-01-04 06:45:51.55	338.52	17.71	-51.5	-53.1	14.8	0.00e+00	0	29	0	968884224	68	4494
2026-01-04 06:45:52.55	338.35	17.63	-51.6	-53.2	14.8	0.00e+00	0	28	0	970981376	68	4552
2026-01-04 06:45:53.54	338.19	17.55	-51.7	-53.3	14.7	0.00e+00	0	28	0	972029952	68	4634
2026-01-04 06:45:54.53	338.03	17.46	-51.7	-53.3	14.7	0.00e+00	0	28	0	974127104	68	4642
2026-01-04 06:45:55.52	337.87	17.38	-51.9	-53.5	14.7	0.00e+00	0	28	0	976224256	68	4722
2026-01-04 06:45:56.52	337.70	17.30	-51.9	-53.5	14.7	0.00e+00	0	28	0	978321408	68	4749
2026-01-04 06:45:57.52	337.54	17.22	-52.0	-53.7	14.7	0.00e+00	0	28	0	979369984	69	4553
2026-01-04 06:45:58.51	337.38	17.14	-52.0	-53.7	14.7	0.00e+00	0	28	0	981467136	69	4569
2026-01-04 06:45:59.51	337.22	17.06	-52.1	-53.8	14.7	0.00e+00	0	28	0	983564288	69	4609
2026-01-04 06:46:00.51	337.06	16.97	-52.2	-53.9	14.6	0.00e+00	0	28	0	985661440	69	4660
2026-01-04 06:46:01.50	336.91	16.89	-52.2	-53.9	14.6	0.00e+00	0	28	0	987758592	69	4664
2026-01-04 06:46:02.50	336.75	16.81	-52.3	-54.0	14.6	0.00e+00	0	28	0	988807168	69	4717
2026-01-04 06:46:03.51	336.59	16.73	-52.3	-54.1	14.6	0.00e+00	0	28	0	990904320	69	4765
2026-01-04 06:46:04.50	336.44	16.65	-52.3	-54.1	14.6	0.00e+00	0	28	0	993001472	69	4762
2026-01-04 06:46:05.50	336.28	16.56	-52.2	-53.9	14.6	0.00e+00	0	28	0	995098624	69	4694
2026-01-04 06:46:06.50	336.13	16.48	-52.2	-53.9	14.6	0.00e+00	0	28	0	996147200	69	4701
2026-01-04 06:46:07.49	335.98	16.40	-52.2	-53.9	14.6	0.00e+00	0	28	0	998244352	69	4665
2026-01-04 06:46:08.48	335.83	16.32	-52.2	-53.8	14.6	0.00e+00	0	28	0	1000341504	69	4649
2026-01-04 06:46:09.48	335.68	16.24	-52.1	-53.7	14.7	0.00e+00	0	28	0	1002438656	69	4586
2026-01-04 06:46:10.48	335.53	16.16	-52.1	-53.7	14.7	5.30e-06	0	29	0	1004535808	69	4593
2026-01-04 06:46:11.47	335.38	16.08	-52.1	-53.8	14.6	0.00e+00	0	28	0	1005584384	69	4638
2026-01-04 06:46:12.47	335.23	16.00	-52.2	-53.8	14.6	6.10e-06	0	28	0	1007681536	69	4650
2026-01-04 06:46:13.46	335.08	15.92	-52.2	-53.9	14.6	9.10e-06	0	28	0	1009778688	69	4656
2026-01-04 06:46:14.47	334.93	15.83	-52.3	-54.0	14.6	0.00e+00	0	28	0	1011875840	69	4728
2026-01-04 06:46:15.46	334.79	15.75	-52.4	-54.1	14.5	0.00e+00	0	28	0	1012924416	69	4782
2026-01-04 06:46:16.46	334.64	15.67	-52.4	-54.2	14.5	0.00e+00	0	28	0	1015021568	69	4821
2026-01-04 06:46:17.45	334.50	15.59	-52.4	-54.1	14.5	0.00e+00	0	29	0	1017118720	69	4800
2026-01-04 06:46:18.46	334.36	15.51	-52.3	-54.1	14.5	0.00e+00	0	28	0	1019215872	69	4772
2026-01-04 06:46:19.45	334.21	15.43	-52.4	-54.1	14.5	0.00e+00	0	29	0	1021313024	69	4794
2026-01-04 06:46:20.45	334.07	15.35	-52.4	-54.2	14.6	0.00e+00	0	28	0	1022361600	70	4574
2026-01-04 06:46:21.45	333.93	15.27	-52.5	-54.3	14.5	0.00e+00	0	28	0	1024458752	70	4599
2026-01-04 06:46:22.45	333.79	15.19	-52.5	-54.3	14.5	0.00e+00	0	29	0	1026555904	70	4600
2026-01-04 06:46:23.44	333.65	15.11	-52.6	-54.4	14.5	0.00e+00	0	28	0	1028653056	70	4675
2026-01-04 06:46:24.43	333.51	15.03	-52.6	-54.4	14.5	0.00e+00	0	28	0	1030750208	70	4657
2026-01-04 06:46:25.43	333.37	14.95	-52.6	-54.4	14.5	0.00e+00	0	28	0	1031798784	70	4666
2026-01-04 06:46:26.43	333.24	14.87	-52.7	-54.5	14.5	0.00e+00	0	29	0	1033895936	70	4739
2026-01-04 06:46:27.43	333.10	14.79	-52.7	-54.5	14.4	0.00e+00	0	29	0	1035993088	70	4733
2026-01-04 06:46:28.43	332.96	14.71	-52.7	-54.5	14.5	0.00e+00	0	29	0	1038090240	70	4717
2026-01-04 06:46:29.43	332.83	14.63	-52.8	-54.6	14.4	0.00e+00	0	28	0	1039138816	70	4784
2026-01-04 06:46:30.42	332.70	14.55	-52.7	-54.6	14.4	0.00e+00	0	28	0	1041235968	70	4771
2026-01-04 06:46:31.43	332.56	14.47	-52.8	-54.6	14.4	0.00e+00	0	29	0	1043333120	70	4792
2026-01-04 06:46:32.42	332.43	14.39	-52.8	-54.7	14.4	0.00e+00	0	28	0	1045430272	70	4824
2026-01-04 06:46:33.42	332.30	14.31	-52.9	-54.7	14.3	0.00e+00	0	28	0	1047527424	70	4866
2026-01-04 06:46:34.42	332.16	14.23	-53.0	-54.8	14.4	0.00e+00	0	29	0	1048576000	71	4651
2026-01-04 06:46:35.42	332.03	14.15	-52.9	-54.7	14.4	0.00e+00	0	29	0	1050673152	71	4587
2026-01-04 06:46:36.43	331.90	14.07	-52.8	-54.7	14.5	0.00e+00	0	28	0	1052770304	71	4549
2026-01-04 06:46:37.43	331.77	13.99	-52.8	-54.7	14.5	0.00e+00	0	28	0	1054867456	71	4582
2026-01-04 06:46:38.43	331.64	13.91	-52.8	-54.7	14.4	0.00e+00	0	28	0	1056964608	71	4556
2026-01-04 06:46:39.43	331.51	13.84	-52.9	-54.7	14.4	0.00e+00	0	28	0	1058013184	71	4586
2026-01-04 06:46:40.42	331.39	13.76	-52.9	-54.8	14.4	0.00e+00	0	28	0	1060110336	71	4616
2026-01-04 06:46:41.42	331.26	13.68	-52.9	-54.8	14.4	0.00e+00	0	28	0	1062207488	71	4646
2026-01-04 06:46:42.42	331.13	13.60	-52.9	-54.8	14.4	0.00e+00	0	28	0	1064304640	71	4633
2026-01-04 06:46:43.42	331.01	13.52	-53.0	-54.9	14.4	0.00e+00	0	29	0	1065353216	71	4694
2026-01-04 06:46:44.42	330.88	13.44	-53.0	-55.0	14.3	0.00e+00	0	29	0	1067450368	71	4725
2026-01-04 06:46:45.43	330.76	13.37	-53.1	-55.1	14.3	0.00e+00	0	29	0	1069547520	71	4781
2026-01-04 06:46:46.43	330.64	13.29	-53.1	-55.1	14.3	7.00e-07	0	28	0	1071644672	71	4783
2026-01-04 06:46:47.43	330.51	13.21	-53.2	-55.2	14.2	0.00e+00	0	28	0	1073741824	71	4843
2026-01-04 06:46:48.44	330.39	13.13	-53.2	-55.2	14.2	0.00e+00	0	29	0	1074790400	71	4843
2026-01-04 06:46:49.44	330.27	13.05	-53.3	-55.3	14.2	0.00e+00	0	28	0	1076887552	71	4898
2026-01-04 06:46:50.44	330.15	12.98	-53.4	-55.5	14.1	0.00e+00	0	29	0	1078984704	71	4989
2026-01-04 06:46:51.44	330.03	12.90	-53.4	-55.5	14.1	0.00e+00	0	28	0	1081081856	71	4998
2026-01-04 06:46:52.44	329.91	12.82	-53.5	-55.6	14.1	0.00e+00	0	29	0	1083179008	72	4789
2026-01-04 06:46:53.44	329.79	12.74	-53.6	-55.7	14.1	0.00e+00	0	29	0	1084227584	72	4861
2026-01-04 06:46:54.44	329.67	12.67	-53.7	-55.8	14.0	0.00e+00	0	28	0	1086324736	72	4913
2026-01-04 06:46:55.45	329.55	12.59	-53.7	-55.8	14.0	0.00e+00	0	28	0	1088421888	72	4910
2026-01-04 06:46:56.44	329.44	12.51	-53.7	-55.9	14.0	0.00e+00	0	28	0	1090519040	72	4947
2026-01-04 06:46:57.44	329.32	12.44	-53.7	-55.8	14.0	0.00e+00	0	28	0	1092616192	72	4919
2026-01-04 06:46:58.44	329.20	12.36	-53.7	-55.9	14.0	0.00e+00	0	29	0	1093664768	72	4933
2026-01-04 06:46:59.44	329.09	12.28	-53.7	-55.9	14.0	0.00e+00	0	28	0	1095761920	72	4937
2026-01-04 06:47:00.44	328.97	12.21	-53.6	-55.8	14.0	0.00e+00	0	29	0	1097859072	72	4882
2026-01-04 06:47:01.44	328.86	12.13	-53.5	-55.6	14.1	0.00e+00	0	28	0	1099956224	72	4805
2026-01-04 06:47:02.44	328.75	12.05	-53.6	-55.7	14.0	0.00e+00	0	28	0	1102053376	72	4866
2026-01-04 06:47:03.44	328.63	11.98	-53.5	-55.7	14.1	0.00e+00	0	28	0	1103101952	72	4821
2026-01-04 06:47:04.44	328.52	11.90	-53.6	-55.8	14.0	0.00e+00	0	28	0	1105199104	72	4888
2026-01-04 06:47:05.44	328.41	11.83	-53.7	-55.8	14.0	0.00e+00	0	28	0	1107296256	72	4920
2026-01-04 06:47:06.45	328.30	11.75	-53.6	-55.8	14.0	0.00e+00	0	29	0	1109393408	72	4900
2026-01-04 06:47:07.45	328.19	11.67	-53.7	-55.9	14.0	0.00e+00	0	28	0	1110441984	72	4948
2026-01-04 06:47:08.44	328.08	11.60	-53.7	-55.9	14.0	0.00e+00	0	28	0	1112539136	72	4941
2026-01-04 06:47:09.44	327.97	11.52	-53.8	-56.0	13.9	0.00e+00	0	28	0	1114636288	72	5010
2026-01-04 06:47:10.44	327.86	11.45	-53.7	-56.0	13.9	0.00e+00	0	28	0	1116733440	72	4992
2026-01-04 06:47:11.44	327.75	11.37	-53.8	-56.0	13.9	0.00e+00	0	28	0	1118830592	72	4998
2026-01-04 06:47:12.43	327.65	11.30	-53.9	-56.1	13.8	0.00e+00	0	29	0	1119879168	72	5085
2026-01-04 06:47:13.44	327.54	11.22	-53.9	-56.1	13.9	0.00e+00	0	28	0	1121976320	72	5093
2026-01-04 06:47:14.43	327.44	11.15	-53.8	-56.1	13.9	0.00e+00	0	28	0	1124073472	72	5059
2026-01-04 06:47:15.44	327.33	11.08	-53.8	-56.0	13.9	0.00e+00	0	29	0	1126170624	72	5019
2026-01-04 06:47:16.43	327.22	11.00	-53.7	-55.9	13.9	0.00e+00	0	29	0	1127219200	72	4981
2026-01-04 06:47:17.43	327.12	10.93	-53.7	-55.9	13.9	0.00e+00	0	29	0	1129316352	72	4983
2026-01-04 06:47:18.44	327.01	10.85	-53.7	-55.9	13.9	0.00e+00	0	28	0	1131413504	72	4978
2026-01-04 06:47:19.44	326.91	10.78	-53.7	-55.9	13.9	0.00e+00	0	28	0	1133510656	72	4972
2026-01-04 06:47:20.45	326.81	10.70	-53.7	-55.9	14.0	0.00e+00	0	28	0	1135607808	72	4956
2026-01-04 06:47:21.44	326.71	10.63	-53.8	-56.0	13.9	0.00e+00	0	28	0	1136656384	72	5007
2026-01-04 06:47:22.43	326.60	10.56	-53.8	-56.0	13.9	0.00e+00	0	28	0	1138753536	72	5031
2026-01-04 06:47:23.43	326.50	10.49	-53.7	-55.9	13.9	0.00e+00	0	28	0	1140850688	72	4973
2026-01-04 06:47:24.43	326.40	10.41	-53.8	-56.1	13.9	0.00e+00	0	29	0	1142947840	72	5042
2026-01-04 06:47:25.43	326.30	10.34	-53.8	-56.1	13.8	0.00e+00	0	28	0	1145044992	72	5048
2026-01-04 06:47:26.43	326.20	10.27	-53.8	-56.1	13.8	0.00e+00	0	28	0	1146093568	72	5085
2026-01-04 06:47:27.43	326.10	10.19	-53.9	-56.3	13.8	0.00e+00	0	28	0	1148190720	73	4873
2026-01-04 06:47:28.43	326.00	10.12	-53.9	-56.2	13.9	0.00e+00	0	28	0	1150287872	73	4859
2026-01-04 06:47:29.42	325.91	10.05	-54.0	-56.3	13.8	0.00e+00	0	28	0	1152385024	73	4923
2026-01-04 06:47:30.43	325.81	9.97	-54.1	-56.4	13.7	0.00e+00	0	28	0	1154482176	73	4981
2026-01-04 06:47:31.44	325.71	9.90	-54.0	-56.4	13.8	0.00e+00	0	28	0	1155530752	73	4970
2026-01-04 06:47:32.44	325.61	9.83	-54.1	-56.5	13.7	0.00e+00	0	28	0	1157627904	73	4992
2026-01-04 06:47:33.45	325.52	9.76	-54.2	-56.6	13.7	0.00e+00	0	28	0	1159725056	73	5066
2026-01-04 06:47:34.44	325.42	9.69	-54.1	-56.5	13.7	0.00e+00	0	28	0	1161822208	73	5021
2026-01-04 06:47:35.44	325.33	9.61	-54.2	-56.6	13.7	0.00e+00	0	29	0	1163919360	73	5061
2026-01-04 06:47:36.44	325.23	9.54	-54.2	-56.7	13.5	0.00e+00	0	29	0	1164967936	73	5145
2026-01-04 06:47:37.44	325.14	9.47	-54.3	-56.8	13.5	0.00e+00	0	28	0	1167065088	73	5164
2026-01-04 06:47:38.44	325.04	9.40	-54.3	-56.9	13.5	0.00e+00	0	29	0	1169162240	73	5222
2026-01-04 06:47:39.44	324.95	9.33	-54.4	-56.9	13.5	0.00e+00	0	28	0	1171259392	73	5260
2026-01-04 06:47:40.45	324.85	9.26	-54.5	-57.1	13.5	0.00e+00	0	28	0	1172307968	74	5046
2026-01-04 06:47:41.44	324.76	9.18	-54.5	-57.1	13.5	0.00e+00	0	28	0	1174405120	74	5058
2026-01-04 06:47:42.44	324.67	9.11	-54.5	-57.1	13.5	0.00e+00	0	29	0	1176502272	74	5072
2026-01-04 06:47:43.44	324.58	9.04	-54.5	-57.2	13.4	0.00e+00	0	28	0	1178599424	74	5124
2026-01-04 06:47:44.44	324.49	8.97	-54.5	-57.2	13.4	0.00e+00	0	29	0	1180696576	74	5107
2026-01-04 06:47:45.44	324.40	8.90	-54.5	-57.2	13.4	0.00e+00	0	29	0	1181745152	74	5132
2026-01-04 06:47:46.44	324.31	8.83	-54.6	-57.2	13.4	0.00e+00	0	28	0	1183842304	74	5129
2026-01-04 06:47:47.44	324.22	8.76	-54.6	-57.3	13.4	0.00e+00	0	28	0	1185939456	74	5180
2026-01-04 06:47:48.44	324.13	8.69	-54.5	-57.2	13.4	0.00e+00	0	28	0	1188036608	74	5104
2026-01-04 06:47:49.44	324.04	8.62	-54.5	-57.2	13.4	0.00e+00	0	28	0	1190133760	74	5105
2026-01-04 06:47:50.44	323.95	8.55	-54.5	-57.2	13.4	0.00e+00	0	29	0	1191182336	74	5115
2026-01-04 06:47:51.44	323.86	8.48	-54.3	-56.9	13.5	0.00e+00	0	29	0	1193279488	74	4938
2026-01-04 06:47:52.44	323.78	8.41	-54.4	-56.9	13.5	0.00e+00	0	28	0	1195376640	74	4967
2026-01-04 06:47:53.44	323.69	8.34	-54.3	-56.8	13.6	0.00e+00	0	29	0	1197473792	74	4909
2026-01-04 06:47:54.44	323.60	8.27	-54.3	-56.8	13.6	0.00e+00	0	28	0	1199570944	74	4892
2026-01-04 06:47:55.44	323.52	8.20	-54.3	-56.9	13.5	0.00e+00	0	28	0	1200619520	74	4952
2026-01-04 06:47:56.44	323.43	8.13	-54.3	-56.9	13.5	0.00e+00	0	28	0	1202716672	74	4969
2026-01-04 06:47:57.45	323.34	8.06	-54.4	-57.0	13.5	0.00e+00	0	28	0	1204813824	74	4995
2026-01-04 06:47:58.45	323.26	7.99	-54.4	-57.0	13.5	0.00e+00	0	28	0	1206910976	74	5021
2026-01-04 06:47:59.45	323.17	7.93	-54.4	-57.0	13.5	0.00e+00	0	29	0	1207959552	74	5005
2026-01-04 06:48:00.46	323.09	7.86	-54.4	-57.1	13.4	0.00e+00	0	29	0	1210056704	74	5046
