passes_logs/2026/01/04/R3.2S_Murmansk/R3.2S_Murmansk__20260104_224834_NOAA_21_JPSS-2_rec.log

#Pass ID: 20260104_224834_NOAA 21 (JPSS-2)
#Satellite: NOAA 21 (JPSS-2)
#Configuration: NOAA-21
#almurnet v.1.7.20251203
#Start time: 2026-01-04 22:48:36

#Version: 2.2.20231116
#Station: R3.2S_Murmansk
#Location: 33.079688 lon 68.888172 lat
#TLE: 1 54234U 22150A   26004.43991293  .00000169  00000+0  10108-3 0  9998
#TLE: 2 54234  98.7489 305.4680 0001107 344.3033  15.8108 14.19531967163313

#Time	Az	El	Level	Level2	SNR	BER	BlckErr	Temp	State	Recorded	gain1	gain2
2026-01-04 22:48:36.51	19.53	2.12	-58.4	-72.2	3.8	1.49e+00	0	26	0	0	83	17106
2026-01-04 22:48:37.52	19.59	2.18	-58.4	-72.0	3.8	1.49e+00	0	26	104	0	81	18937
2026-01-04 22:48:38.53	19.64	2.24	-58.4	-72.0	3.8	1.49e+00	0	26	104	0	81	18794
2026-01-04 22:48:39.54	19.70	2.30	-58.4	-71.9	3.8	1.49e+00	0	26	104	0	81	18667
2026-01-04 22:48:40.54	19.76	2.35	-58.4	-71.9	3.8	1.49e+00	0	26	104	0	81	18665
2026-01-04 22:48:41.54	19.82	2.41	-58.4	-71.9	3.8	1.49e+00	0	26	104	0	81	18540
2026-01-04 22:48:42.56	19.87	2.47	-58.3	-71.7	3.8	1.49e+00	0	26	104	0	81	18304
2026-01-04 22:48:43.56	19.93	2.53	-58.4	-71.7	3.8	1.49e+00	0	26	104	0	81	18148
2026-01-04 22:48:44.57	19.99	2.59	-58.3	-71.5	3.8	1.49e+00	0	26	104	0	81	17705
2026-01-04 22:48:45.58	20.05	2.65	-58.3	-71.3	3.8	1.49e+00	0	26	104	0	81	17347
2026-01-04 22:48:46.58	20.11	2.71	-58.3	-71.2	3.8	1.49e+00	0	26	104	0	81	17104
2026-01-04 22:48:47.59	20.17	2.77	-58.3	-70.8	3.8	1.49e+00	0	26	104	0	81	16475
2026-01-04 22:48:48.60	20.23	2.83	-58.3	-70.7	3.8	1.49e+00	0	26	104	0	81	16259
2026-01-04 22:48:49.61	20.29	2.89	-58.3	-70.6	3.9	1.49e+00	0	26	104	0	81	16022
2026-01-04 22:48:50.62	20.35	2.95	-58.3	-70.5	3.8	1.49e+00	0	26	104	0	81	15843
2026-01-04 22:48:51.63	20.41	3.01	-58.3	-70.4	3.8	1.49e+00	0	26	104	0	81	15617
2026-01-04 22:48:52.64	20.47	3.07	-58.3	-70.4	3.8	1.49e+00	0	26	104	0	81	15623
2026-01-04 22:48:53.65	20.53	3.13	-58.2	-70.1	3.9	1.49e+00	0	26	104	0	81	15170
2026-01-04 22:48:54.66	20.59	3.19	-58.2	-69.3	4.1	1.48e+00	0	26	104	0	81	13801
2026-01-04 22:48:55.67	20.65	3.25	-58.1	-69.2	3.9	1.47e+00	0	26	104	0	81	13625
2026-01-04 22:48:56.67	20.71	3.31	-58.0	-67.7	4.5	1.44e+00	9	27	104	0	81	11518
2026-01-04 22:48:57.68	20.77	3.37	-57.9	-67.7	4.0	9.50e-01	2	26	104	0	81	11450
2026-01-04 22:48:58.69	20.84	3.44	-57.8	-66.3	5.1	6.90e-01	0	26	0	1048576	81	9768
2026-01-04 22:48:59.70	20.90	3.50	-57.7	-65.4	5.5	4.37e-01	0	26	0	4194304	81	8848
2026-01-04 22:49:00.70	20.96	3.56	-57.6	-65.1	5.8	3.58e-01	0	26	0	7340032	81	8498
2026-01-04 22:49:01.71	21.02	3.62	-57.6	-64.8	6.0	2.85e-01	0	27	0	10485760	81	8180
2026-01-04 22:49:02.71	21.09	3.68	-57.5	-64.7	6.1	2.64e-01	0	27	0	13631488	81	8103
2026-01-04 22:49:03.72	21.15	3.74	-57.5	-64.6	6.1	2.70e-01	0	27	0	16777216	81	8023
2026-01-04 22:49:04.73	21.21	3.80	-57.4	-64.2	6.4	2.23e-01	0	26	0	19922944	81	7648
2026-01-04 22:49:05.73	21.27	3.86	-57.3	-63.6	6.8	1.51e-01	0	27	0	23068672	81	7175
2026-01-04 22:49:06.74	21.34	3.93	-57.0	-62.6	7.7	6.30e-02	0	27	0	26214400	80	6733
2026-01-04 22:49:07.75	21.40	3.99	-56.5	-61.1	8.9	1.82e-02	0	27	0	29360128	79	6028
2026-01-04 22:49:08.76	21.47	4.05	-56.0	-59.9	9.9	3.76e-03	0	27	0	32505856	78	5579
2026-01-04 22:49:09.77	21.53	4.11	-55.2	-58.4	11.0	3.33e-04	0	27	0	35651584	77	4983
2026-01-04 22:49:10.78	21.60	4.18	-54.5	-57.3	11.7	1.67e-05	0	27	0	38797312	75	4903
2026-01-04 22:49:11.79	21.66	4.24	-53.7	-56.1	12.5	7.00e-07	0	27	0	41943040	74	4537
2026-01-04 22:49:12.79	21.73	4.30	-53.3	-55.6	12.8	0.00e+00	0	27	0	45088768	73	4523
2026-01-04 22:49:13.80	21.79	4.36	-52.9	-55.0	13.1	0.00e+00	0	27	0	48234496	72	4461
2026-01-04 22:49:14.82	21.86	4.43	-52.6	-54.6	13.2	0.00e+00	0	27	0	51380224	71	4533
2026-01-04 22:49:15.82	21.92	4.49	-52.5	-54.4	13.3	0.00e+00	0	27	0	54525952	71	4422
2026-01-04 22:49:16.83	21.99	4.55	-52.5	-54.5	13.2	0.00e+00	0	27	0	57671680	71	4456
2026-01-04 22:49:17.85	22.06	4.62	-52.8	-54.8	13.1	0.00e+00	0	27	0	60817408	71	4650
2026-01-04 22:49:18.86	22.13	4.68	-53.3	-55.7	12.5	0.00e+00	0	27	0	63963136	71	5102
2026-01-04 22:49:19.87	22.19	4.74	-53.8	-56.3	12.2	7.00e-07	0	27	0	67108864	72	5192
2026-01-04 22:49:20.88	22.26	4.81	-54.3	-57.1	11.7	4.50e-06	0	27	0	70254592	73	5387
2026-01-04 22:49:21.88	22.33	4.87	-55.1	-58.3	11.0	2.97e-05	0	27	0	73400320	75	5517
2026-01-04 22:49:22.89	22.40	4.93	-55.7	-59.5	10.1	4.55e-04	0	27	0	76546048	76	5985
2026-01-04 22:49:23.90	22.46	5.00	-56.3	-60.7	9.3	3.96e-03	0	27	0	79691776	77	6429
2026-01-04 22:49:24.91	22.53	5.06	-52.5	-54.5	13.3	0.00e+00	0	27	0	82837504	71	4449
2026-01-04 22:49:25.92	22.60	5.13	-57.1	-63.2	7.1	2.36e-02	0	27	0	85983232	79	7703
2026-01-04 22:49:26.93	22.67	5.19	-57.8	-65.5	5.7	1.16e-01	0	27	0	89128960	80	9445
2026-01-04 22:49:27.94	22.74	5.26	-53.3	-55.4	12.9	1.23e-03	0	27	0	92274688	73	4436
2026-01-04 22:49:28.95	22.81	5.32	-57.7	-65.3	5.7	4.54e-02	0	27	0	95420416	80	9210
2026-01-04 22:49:29.96	22.88	5.39	-53.4	-55.7	12.7	8.93e-04	0	27	0	98566144	73	4558
2026-01-04 22:49:30.97	22.95	5.45	-52.6	-54.5	13.3	0.00e+00	0	27	0	101711872	71	4470
2026-01-04 22:49:31.98	23.02	5.52	-52.1	-53.9	13.6	0.00e+00	0	27	0	104857600	70	4396
2026-01-04 22:49:32.98	23.09	5.58	-52.2	-54.0	13.5	0.00e+00	0	27	0	108003328	70	4469
2026-01-04 22:49:33.99	23.16	5.64	-52.2	-54.0	13.5	0.00e+00	0	27	0	111149056	70	4489
2026-01-04 22:49:34.99	23.23	5.71	-52.1	-53.9	13.5	0.00e+00	0	27	0	114294784	70	4434
2026-01-04 22:49:36.01	23.31	5.78	-52.0	-53.8	13.6	0.00e+00	0	27	0	117440512	70	4370
2026-01-04 22:49:37.01	23.38	5.84	-52.1	-53.9	13.6	0.00e+00	0	27	0	120586240	70	4393
2026-01-04 22:49:38.02	23.45	5.91	-51.9	-53.6	13.7	0.00e+00	0	27	0	123731968	70	4271
2026-01-04 22:49:39.03	23.52	5.97	-51.9	-53.6	13.7	0.00e+00	0	27	0	126877696	70	4264
2026-01-04 22:49:40.04	23.59	6.04	-51.8	-53.5	13.8	0.00e+00	0	27	0	130023424	70	4221
2026-01-04 22:49:41.06	23.67	6.11	-51.9	-53.6	13.7	0.00e+00	0	27	0	133169152	70	4279
2026-01-04 22:49:42.06	23.74	6.17	-51.6	-53.3	13.8	0.00e+00	0	27	0	136314880	69	4350
2026-01-04 22:49:43.07	23.82	6.24	-51.7	-53.4	13.8	0.00e+00	0	27	0	139460608	69	4424
2026-01-04 22:49:44.08	23.89	6.30	-51.6	-53.3	13.8	0.00e+00	0	27	0	142606336	69	4353
2026-01-04 22:49:45.09	23.96	6.37	-51.4	-53.0	14.0	0.00e+00	0	27	0	145752064	69	4213
2026-01-04 22:49:46.10	24.04	6.44	-51.4	-53.1	13.9	0.00e+00	0	27	0	148897792	69	4254
2026-01-04 22:49:47.11	24.11	6.50	-51.3	-52.9	14.0	0.00e+00	0	27	0	152043520	69	4174
2026-01-04 22:49:48.12	24.19	6.57	-51.4	-53.0	14.0	0.00e+00	0	27	0	155189248	69	4207
2026-01-04 22:49:49.13	24.27	6.64	-51.5	-53.1	13.9	0.00e+00	0	27	0	158334976	69	4258
2026-01-04 22:49:50.14	24.34	6.71	-51.4	-53.0	14.0	0.00e+00	0	27	0	161480704	69	4198
2026-01-04 22:49:51.15	24.42	6.77	-51.4	-53.0	14.0	0.00e+00	0	27	0	164626432	69	4207
2026-01-04 22:49:52.16	24.50	6.84	-51.3	-52.9	14.1	0.00e+00	0	27	0	167772160	69	4164
2026-01-04 22:49:53.17	24.57	6.91	-51.4	-53.0	14.0	0.00e+00	0	27	0	170917888	69	4197
2026-01-04 22:49:54.18	24.65	6.98	-51.3	-52.9	14.0	0.00e+00	0	27	0	174063616	69	4180
2026-01-04 22:49:55.18	24.73	7.05	-51.3	-52.9	14.0	0.00e+00	0	27	0	177209344	69	4172
2026-01-04 22:49:56.19	24.81	7.11	-51.5	-53.1	14.0	0.00e+00	0	27	0	180355072	69	4260
2026-01-04 22:49:57.20	24.88	7.18	-51.3	-52.9	14.1	0.00e+00	0	27	0	183500800	69	4150
2026-01-04 22:49:58.21	24.96	7.25	-51.4	-53.0	14.0	0.00e+00	0	27	0	186646528	69	4222
2026-01-04 22:49:59.22	25.04	7.32	-51.4	-53.0	14.0	0.00e+00	0	27	0	189792256	69	4224
2026-01-04 22:50:00.23	25.12	7.39	-51.3	-52.9	14.0	0.00e+00	0	27	0	192937984	69	4187
2026-01-04 22:50:01.24	25.20	7.46	-51.3	-52.9	14.1	0.00e+00	0	27	0	196083712	69	4165
2026-01-04 22:50:02.25	25.28	7.53	-51.3	-52.9	14.0	0.00e+00	0	27	0	199229440	68	4402
2026-01-04 22:50:03.26	25.36	7.59	-51.2	-52.8	14.0	0.00e+00	0	27	0	202375168	68	4342
2026-01-04 22:50:04.27	25.44	7.66	-51.2	-52.8	14.0	0.00e+00	0	28	0	205520896	68	4344
2026-01-04 22:50:05.28	25.53	7.73	-51.2	-52.8	14.0	0.00e+00	0	27	0	208666624	68	4378
2026-01-04 22:50:06.30	25.61	7.80	-51.2	-52.8	14.0	0.00e+00	0	28	0	211812352	68	4368
2026-01-04 22:50:07.31	25.69	7.87	-51.3	-52.9	14.0	0.00e+00	0	27	0	214958080	68	4421
2026-01-04 22:50:08.32	25.77	7.94	-51.2	-52.8	14.0	0.00e+00	0	27	0	218103808	68	4343
2026-01-04 22:50:09.33	25.86	8.01	-51.3	-52.9	14.0	0.00e+00	0	27	0	221249536	68	4407
2026-01-04 22:50:10.34	25.94	8.08	-51.3	-52.8	14.0	0.00e+00	0	27	0	224395264	68	4391
2026-01-04 22:50:11.35	26.02	8.15	-51.3	-52.9	14.0	0.00e+00	0	27	0	227540992	68	4392
2026-01-04 22:50:12.35	26.11	8.22	-51.4	-53.0	13.9	0.00e+00	0	27	0	230686720	68	4451
2026-01-04 22:50:13.36	26.19	8.30	-51.3	-52.9	13.9	0.00e+00	0	27	0	233832448	68	4433
2026-01-04 22:50:14.37	26.27	8.37	-51.2	-52.8	14.1	0.00e+00	0	27	0	236978176	68	4348
2026-01-04 22:50:15.38	26.36	8.44	-51.3	-52.9	14.0	0.00e+00	0	27	0	240123904	68	4404
2026-01-04 22:50:16.39	26.45	8.51	-51.2	-52.8	14.0	0.00e+00	0	27	0	243269632	68	4356
2026-01-04 22:50:17.40	26.53	8.58	-51.2	-52.8	14.1	0.00e+00	0	28	0	247463936	68	4358
2026-01-04 22:50:18.42	26.62	8.65	-51.2	-52.8	14.0	0.00e+00	0	27	0	249561088	68	4351
2026-01-04 22:50:19.43	26.71	8.72	-51.1	-52.7	14.1	0.00e+00	0	27	0	252706816	68	4311
2026-01-04 22:50:20.43	26.79	8.79	-51.1	-52.6	14.1	0.00e+00	0	27	0	255852544	68	4263
2026-01-04 22:50:21.44	26.88	8.87	-51.0	-52.6	14.2	0.00e+00	0	28	0	258998272	68	4250
2026-01-04 22:50:22.46	26.97	8.94	-51.1	-52.7	14.1	0.00e+00	0	28	0	263192576	68	4301
2026-01-04 22:50:23.47	27.06	9.01	-51.1	-52.6	14.1	0.00e+00	0	27	0	266338304	68	4276
2026-01-04 22:50:24.47	27.14	9.08	-51.1	-52.6	14.1	0.00e+00	0	28	0	269484032	68	4272
2026-01-04 22:50:25.48	27.23	9.16	-51.0	-52.5	14.1	0.00e+00	0	28	0	272629760	68	4237
2026-01-04 22:50:26.49	27.32	9.23	-51.1	-52.7	14.2	0.00e+00	0	28	0	274726912	68	4316
2026-01-04 22:50:27.50	27.41	9.30	-51.0	-52.5	14.2	0.00e+00	0	27	0	278921216	68	4206
2026-01-04 22:50:28.51	27.50	9.37	-51.1	-52.6	14.2	0.00e+00	0	27	0	282066944	68	4267
2026-01-04 22:50:29.52	27.59	9.45	-51.0	-52.5	14.2	0.00e+00	0	28	0	285212672	68	4208
2026-01-04 22:50:30.53	27.69	9.52	-51.0	-52.5	14.2	0.00e+00	0	28	0	288358400	68	4197
2026-01-04 22:50:31.54	27.78	9.59	-51.0	-52.5	14.2	0.00e+00	0	28	0	291504128	68	4212
2026-01-04 22:50:32.55	27.87	9.67	-51.0	-52.5	14.2	0.00e+00	0	28	0	294649856	68	4217
2026-01-04 22:50:33.56	27.96	9.74	-51.2	-52.7	14.1	0.00e+00	0	28	0	297795584	68	4313
2026-01-04 22:50:34.56	28.05	9.81	-50.8	-52.3	14.3	0.00e+00	0	27	0	300941312	68	4125
2026-01-04 22:50:35.57	28.15	9.89	-50.9	-52.4	14.2	0.00e+00	0	28	0	304087040	68	4188
2026-01-04 22:50:36.59	28.24	9.96	-50.6	-52.0	14.3	0.00e+00	0	28	0	307232768	67	4239
2026-01-04 22:50:37.59	28.34	10.04	-50.6	-52.1	14.3	0.00e+00	0	28	0	310378496	67	4249
2026-01-04 22:50:38.60	28.43	10.11	-50.6	-52.1	14.3	0.00e+00	0	28	0	313524224	67	4247
2026-01-04 22:50:39.62	28.53	10.19	-50.4	-51.8	14.4	0.00e+00	0	27	0	316669952	67	4139
2026-01-04 22:50:40.63	28.62	10.26	-50.4	-51.9	14.4	0.00e+00	0	28	0	319815680	67	4154
2026-01-04 22:50:41.63	28.72	10.34	-50.4	-51.9	14.3	0.00e+00	0	28	0	322961408	67	4153
2026-01-04 22:50:42.64	28.82	10.41	-50.4	-51.8	14.4	0.00e+00	0	27	0	326107136	67	4115
2026-01-04 22:50:43.65	28.91	10.49	-50.3	-51.7	14.4	0.00e+00	0	28	0	329252864	67	4090
2026-01-04 22:50:44.66	29.01	10.56	-50.2	-51.6	14.5	0.00e+00	0	28	0	332398592	67	4034
2026-01-04 22:50:45.67	29.11	10.64	-50.2	-51.6	14.4	0.00e+00	0	28	0	335544320	66	4260
2026-01-04 22:50:46.68	29.21	10.71	-50.3	-51.6	14.4	0.00e+00	0	28	0	338690048	66	4289
2026-01-04 22:50:47.70	29.31	10.79	-50.2	-51.6	14.4	0.00e+00	0	28	0	341835776	66	4247
2026-01-04 22:50:48.70	29.41	10.87	-50.1	-51.5	14.4	0.00e+00	0	28	0	344981504	66	4213
2026-01-04 22:50:49.71	29.51	10.94	-50.1	-51.4	14.5	0.00e+00	0	27	0	348127232	66	4186
2026-01-04 22:50:50.73	29.61	11.02	-50.0	-51.4	14.5	0.00e+00	0	28	0	351272960	66	4168
2026-01-04 22:50:51.73	29.71	11.09	-50.1	-51.4	14.4	0.00e+00	0	28	0	354418688	66	4176
2026-01-04 22:50:52.74	29.81	11.17	-50.0	-51.4	14.5	0.00e+00	0	28	0	357564416	66	4161
2026-01-04 22:50:53.75	29.91	11.25	-50.1	-51.5	14.4	0.00e+00	0	28	0	360710144	66	4201
2026-01-04 22:50:54.76	30.01	11.33	-50.1	-51.5	14.4	0.00e+00	0	28	0	363855872	66	4224
2026-01-04 22:50:55.77	30.12	11.40	-50.1	-51.4	14.4	0.00e+00	0	28	0	367001600	66	4192
2026-01-04 22:50:56.78	30.22	11.48	-50.0	-51.4	14.5	0.00e+00	0	28	0	370147328	66	4163
2026-01-04 22:50:57.78	30.32	11.56	-50.0	-51.4	14.5	0.00e+00	0	28	0	373293056	66	4148
2026-01-04 22:50:58.79	30.43	11.63	-50.0	-51.3	14.5	0.00e+00	0	28	0	376438784	66	4128
2026-01-04 22:50:59.80	30.53	11.71	-50.0	-51.3	14.5	0.00e+00	0	28	0	379584512	66	4123
2026-01-04 22:51:00.81	30.64	11.79	-50.0	-51.4	14.5	0.00e+00	0	28	0	382730240	66	4160
2026-01-04 22:51:01.82	30.75	11.87	-50.0	-51.3	14.5	0.00e+00	0	28	0	385875968	66	4137
2026-01-04 22:51:02.83	30.85	11.95	-49.9	-51.2	14.5	0.00e+00	0	28	0	389021696	66	4091
2026-01-04 22:51:03.84	30.96	12.03	-49.8	-51.1	14.6	0.00e+00	0	28	0	392167424	66	4040
2026-01-04 22:51:04.85	31.07	12.10	-49.8	-51.1	14.6	0.00e+00	0	28	0	395313152	66	4033
2026-01-04 22:51:05.86	31.18	12.18	-49.8	-51.1	14.6	0.00e+00	0	28	0	398458880	66	4041
2026-01-04 22:51:06.87	31.29	12.26	-49.8	-51.1	14.6	0.00e+00	0	28	0	401604608	66	4038
2026-01-04 22:51:07.88	31.40	12.34	-49.8	-51.1	14.6	0.00e+00	0	28	0	404750336	66	4048
2026-01-04 22:51:08.89	31.51	12.42	-49.9	-51.2	14.5	0.00e+00	0	28	0	407896064	66	4089
2026-01-04 22:51:09.90	31.62	12.50	-49.9	-51.3	14.5	0.00e+00	0	28	0	411041792	66	4101
2026-01-04 22:51:10.91	31.73	12.58	-49.8	-51.2	14.6	0.00e+00	0	28	0	414187520	66	4053
2026-01-04 22:51:11.92	31.84	12.66	-49.8	-51.2	14.6	0.00e+00	0	28	0	417333248	66	4054
2026-01-04 22:51:12.93	31.95	12.74	-49.7	-51.0	14.6	0.00e+00	0	28	0	420478976	66	4000
2026-01-04 22:51:13.94	32.07	12.82	-49.8	-51.1	14.6	0.00e+00	0	28	0	423624704	66	4024
2026-01-04 22:51:14.94	32.18	12.90	-49.8	-51.1	14.6	0.00e+00	0	28	0	426770432	66	4005
2026-01-04 22:51:15.95	32.29	12.98	-49.8	-51.1	14.6	0.00e+00	0	28	0	429916160	66	4005
2026-01-04 22:51:16.96	32.41	13.06	-49.8	-51.1	14.6	0.00e+00	0	28	0	433061888	66	4023
2026-01-04 22:51:17.97	32.52	13.14	-49.7	-51.0	14.5	0.00e+00	0	28	0	436207616	65	4230
2026-01-04 22:51:18.98	32.64	13.22	-49.7	-51.0	14.5	0.00e+00	0	28	0	439353344	65	4207
2026-01-04 22:51:19.99	32.76	13.31	-49.7	-50.9	14.5	0.00e+00	0	28	0	442499072	65	4191
2026-01-04 22:51:21.00	32.87	13.39	-49.7	-51.0	14.5	0.00e+00	0	28	0	445644800	65	4213
2026-01-04 22:51:22.01	32.99	13.47	-49.8	-51.1	14.5	0.00e+00	0	28	0	448790528	65	4248
2026-01-04 22:51:23.02	33.11	13.55	-49.7	-51.0	14.5	0.00e+00	0	28	0	451936256	65	4228
2026-01-04 22:51:24.03	33.23	13.63	-49.7	-51.0	14.6	0.00e+00	0	28	0	455081984	65	4195
2026-01-04 22:51:25.04	33.35	13.71	-49.7	-51.0	14.5	0.00e+00	0	28	0	458227712	65	4212
2026-01-04 22:51:26.05	33.47	13.80	-49.6	-51.0	14.6	0.00e+00	0	28	0	461373440	65	4197
2026-01-04 22:51:27.06	33.59	13.88	-49.8	-51.1	14.5	0.00e+00	0	28	0	464519168	65	4259
2026-01-04 22:51:28.07	33.71	13.96	-49.9	-51.2	14.5	0.00e+00	0	28	0	467664896	65	4327
2026-01-04 22:51:29.08	33.83	14.04	-49.8	-51.2	14.5	0.00e+00	0	28	0	470810624	65	4294
2026-01-04 22:51:30.09	33.96	14.13	-49.9	-51.3	14.4	0.00e+00	0	28	0	473956352	65	4351
2026-01-04 22:51:31.09	34.08	14.21	-49.9	-51.3	14.4	0.00e+00	0	28	0	477102080	65	4342
2026-01-04 22:51:32.10	34.20	14.29	-50.0	-51.4	14.4	0.00e+00	0	28	0	480247808	65	4413
2026-01-04 22:51:33.11	34.33	14.38	-49.9	-51.3	14.4	0.00e+00	0	28	0	483393536	65	4358
2026-01-04 22:51:34.12	34.45	14.46	-50.0	-51.3	14.4	0.00e+00	0	28	0	486539264	65	4357
2026-01-04 22:51:35.13	34.58	14.54	-49.9	-51.3	14.4	0.00e+00	0	28	0	489684992	65	4343
2026-01-04 22:51:36.13	34.71	14.63	-50.1	-51.5	14.4	0.00e+00	0	28	0	492830720	65	4467
2026-01-04 22:51:37.14	34.83	14.71	-50.1	-51.5	14.4	0.00e+00	0	28	0	495976448	65	4456
2026-01-04 22:51:38.15	34.96	14.80	-50.0	-51.3	14.4	0.00e+00	0	28	0	499122176	65	4390
2026-01-04 22:51:39.16	35.09	14.88	-50.1	-51.4	14.4	0.00e+00	0	28	0	502267904	65	4432
2026-01-04 22:51:40.17	35.22	14.96	-50.1	-51.4	14.4	0.00e+00	0	28	0	505413632	65	4429
2026-01-04 22:51:41.18	35.35	15.05	-50.1	-51.4	14.4	0.00e+00	0	28	0	508559360	65	4420
2026-01-04 22:51:42.19	35.48	15.13	-50.0	-51.3	14.4	0.00e+00	0	28	0	511705088	65	4391
2026-01-04 22:51:43.19	35.61	15.22	-50.1	-51.5	14.4	0.00e+00	0	28	0	514850816	65	4453
2026-01-04 22:51:44.20	35.75	15.30	-50.1	-51.5	14.4	0.00e+00	0	28	0	517996544	65	4458
2026-01-04 22:51:45.21	35.88	15.39	-50.2	-51.6	14.3	0.00e+00	0	28	0	521142272	65	4512
2026-01-04 22:51:46.22	36.02	15.47	-50.2	-51.6	14.3	0.00e+00	0	28	0	524288000	65	4497
2026-01-04 22:51:47.23	36.15	15.56	-50.1	-51.5	14.4	0.00e+00	0	28	0	527433728	65	4448
2026-01-04 22:51:48.24	36.29	15.65	-50.1	-51.4	14.4	0.00e+00	0	28	0	530579456	65	4435
2026-01-04 22:51:49.25	36.42	15.73	-50.1	-51.5	14.4	0.00e+00	0	28	0	533725184	65	4473
2026-01-04 22:51:50.26	36.56	15.82	-50.1	-51.4	14.4	0.00e+00	0	28	0	536870912	65	4437
2026-01-04 22:51:51.27	36.70	15.91	-50.1	-51.5	14.4	0.00e+00	0	28	0	540016640	65	4462
2026-01-04 22:51:52.28	36.84	15.99	-50.2	-51.6	14.3	0.00e+00	0	28	0	543162368	65	4503
2026-01-04 22:51:53.29	36.98	16.08	-50.2	-51.6	14.4	0.00e+00	0	28	0	546308096	65	4503
2026-01-04 22:51:54.30	37.12	16.17	-50.2	-51.6	14.3	0.00e+00	0	28	0	549453824	65	4533
2026-01-04 22:51:55.31	37.26	16.25	-50.4	-51.8	14.3	0.00e+00	0	28	0	552599552	65	4602
2026-01-04 22:51:56.32	37.40	16.34	-50.3	-51.7	14.3	0.00e+00	0	28	0	555745280	65	4557
2026-01-04 22:51:57.33	37.54	16.43	-50.2	-51.6	14.4	0.00e+00	0	28	0	558891008	66	4263
2026-01-04 22:51:58.34	37.69	16.51	-50.2	-51.5	14.5	0.00e+00	0	28	0	562036736	66	4229
2026-01-04 22:51:59.35	37.83	16.60	-50.1	-51.4	14.5	0.00e+00	0	28	0	565182464	66	4166
2026-01-04 22:52:00.36	37.97	16.69	-50.0	-51.3	14.5	0.00e+00	0	28	0	568328192	66	4120
2026-01-04 22:52:01.37	38.12	16.78	-49.9	-51.2	14.6	0.00e+00	0	28	0	571473920	66	4085
2026-01-04 22:52:02.38	38.27	16.86	-49.9	-51.2	14.6	0.00e+00	0	28	0	574619648	66	4085
2026-01-04 22:52:03.38	38.41	16.95	-49.8	-51.1	14.6	0.00e+00	0	28	0	577765376	66	4008
2026-01-04 22:52:04.39	38.56	17.04	-49.8	-51.1	14.6	0.00e+00	0	28	0	580911104	66	4007
2026-01-04 22:52:05.40	38.71	17.13	-49.8	-51.1	14.7	0.00e+00	0	28	0	584056832	66	4005
2026-01-04 22:52:06.41	38.86	17.22	-49.8	-51.1	14.6	0.00e+00	0	28	0	587202560	66	4031
2026-01-04 22:52:07.42	39.01	17.31	-49.9	-51.2	14.6	0.00e+00	0	28	0	590348288	66	4061
2026-01-04 22:52:08.43	39.16	17.39	-49.9	-51.2	14.6	0.00e+00	0	28	0	593494016	66	4061
2026-01-04 22:52:09.44	39.32	17.48	-49.8	-51.1	14.6	0.00e+00	0	28	0	596639744	66	4017
2026-01-04 22:52:10.45	39.47	17.57	-49.7	-51.0	14.6	0.00e+00	0	28	0	599785472	66	4003
2026-01-04 22:52:11.46	39.62	17.66	-49.7	-51.0	14.7	0.00e+00	0	28	0	602931200	66	3988
2026-01-04 22:52:12.47	39.78	17.75	-49.7	-51.0	14.5	0.00e+00	0	28	0	606076928	65	4223
2026-01-04 22:52:13.48	39.94	17.84	-49.7	-51.0	14.5	0.00e+00	0	28	0	609222656	65	4215
2026-01-04 22:52:14.49	40.09	17.93	-49.7	-51.0	14.6	0.00e+00	0	28	0	612368384	65	4196
2026-01-04 22:52:15.50	40.25	18.02	-49.4	-50.6	14.7	0.00e+00	0	28	0	615514112	65	4043
2026-01-04 22:52:16.51	40.41	18.11	-49.5	-50.7	14.7	0.00e+00	0	28	0	618659840	65	4094
2026-01-04 22:52:17.52	40.57	18.20	-49.3	-50.6	14.7	0.00e+00	0	28	0	621805568	65	4020
2026-01-04 22:52:18.53	40.73	18.29	-49.5	-50.7	14.7	0.00e+00	0	28	0	624951296	65	4093
2026-01-04 22:52:19.54	40.89	18.38	-49.5	-50.7	14.6	0.00e+00	0	28	0	628097024	65	4095
2026-01-04 22:52:20.55	41.05	18.47	-49.6	-50.8	14.6	0.00e+00	0	28	0	632291328	65	4144
2026-01-04 22:52:21.56	41.22	18.56	-49.8	-51.1	14.5	0.00e+00	0	28	0	635437056	65	4255
2026-01-04 22:52:22.57	41.38	18.65	-49.8	-51.2	14.5	0.00e+00	0	28	0	637534208	65	4295
2026-01-04 22:52:23.58	41.55	18.74	-49.9	-51.2	14.5	0.00e+00	0	28	0	640679936	65	4335
2026-01-04 22:52:24.59	41.71	18.83	-49.9	-51.3	14.5	0.00e+00	0	28	0	643825664	65	4357
2026-01-04 22:52:25.60	41.88	18.92	-49.9	-51.2	14.5	0.00e+00	0	28	0	646971392	65	4323
2026-01-04 22:52:26.61	42.05	19.01	-49.8	-51.1	14.5	0.00e+00	0	28	0	651165696	65	4269
2026-01-04 22:52:27.62	42.22	19.11	-49.8	-51.1	14.5	0.00e+00	0	28	0	654311424	65	4257
2026-01-04 22:52:28.63	42.39	19.20	-49.7	-51.0	14.6	0.00e+00	0	28	0	657457152	65	4209
2026-01-04 22:52:29.64	42.56	19.29	-49.6	-50.8	14.7	0.00e+00	0	28	0	660602880	65	4134
2026-01-04 22:52:30.65	42.73	19.38	-49.7	-51.0	14.6	0.00e+00	0	28	0	662700032	65	4196
2026-01-04 22:52:31.66	42.91	19.47	-49.5	-50.8	14.6	0.00e+00	0	28	0	666894336	65	4128
2026-01-04 22:52:32.67	43.08	19.56	-49.5	-50.8	14.6	0.00e+00	0	28	0	670040064	65	4121
2026-01-04 22:52:33.68	43.26	19.65	-49.5	-50.8	14.7	0.00e+00	0	28	0	673185792	65	4106
2026-01-04 22:52:34.69	43.43	19.75	-49.5	-50.7	14.7	0.00e+00	0	28	0	676331520	65	4085
2026-01-04 22:52:35.70	43.61	19.84	-49.4	-50.7	14.7	0.00e+00	0	28	0	679477248	65	4054
2026-01-04 22:52:36.71	43.79	19.93	-49.3	-50.6	14.7	0.00e+00	0	28	0	682622976	65	4012
2026-01-04 22:52:37.72	43.97	20.02	-49.2	-50.4	14.7	0.00e+00	0	28	0	685768704	64	4184
2026-01-04 22:52:38.73	44.15	20.11	-49.1	-50.3	14.7	0.00e+00	0	28	0	688914432	64	4105
2026-01-04 22:52:39.74	44.33	20.20	-49.0	-50.2	14.8	0.00e+00	0	28	0	692060160	64	4087
2026-01-04 22:52:40.75	44.51	20.30	-48.8	-50.0	14.8	0.00e+00	0	28	0	695205888	64	3998
2026-01-04 22:52:41.76	44.70	20.39	-48.8	-50.0	14.9	0.00e+00	0	28	0	698351616	64	3965
2026-01-04 22:52:42.77	44.88	20.48	-48.7	-49.9	14.8	0.00e+00	0	28	0	701497344	63	4181
2026-01-04 22:52:43.77	45.06	20.57	-48.9	-50.0	14.7	0.00e+00	0	28	0	704643072	63	4240
2026-01-04 22:52:44.78	45.25	20.66	-48.9	-50.1	14.7	0.00e+00	0	28	0	707788800	63	4276
2026-01-04 22:52:45.80	45.44	20.76	-48.9	-50.1	14.7	0.00e+00	0	28	0	710934528	63	4262
2026-01-04 22:52:46.80	45.63	20.85	-49.0	-50.2	14.7	0.00e+00	0	28	0	714080256	63	4307
2026-01-04 22:52:47.81	45.82	20.94	-49.1	-50.3	14.7	0.00e+00	0	28	0	717225984	63	4357
2026-01-04 22:52:48.82	46.01	21.03	-49.1	-50.3	14.7	0.00e+00	0	28	0	720371712	63	4349
2026-01-04 22:52:49.83	46.20	21.13	-49.0	-50.2	14.7	0.00e+00	0	28	0	723517440	63	4311
2026-01-04 22:52:50.84	46.40	21.22	-48.9	-50.1	14.7	0.00e+00	0	28	0	726663168	63	4269
2026-01-04 22:52:51.85	46.59	21.31	-48.7	-49.9	14.7	0.00e+00	0	28	0	729808896	63	4172
2026-01-04 22:52:52.86	46.79	21.40	-48.8	-50.0	14.7	0.00e+00	0	28	0	732954624	63	4202
2026-01-04 22:52:53.87	46.98	21.50	-48.8	-50.0	14.7	0.00e+00	0	28	0	736100352	63	4219
2026-01-04 22:52:54.88	47.18	21.59	-48.8	-50.0	14.7	0.00e+00	0	28	0	739246080	63	4240
2026-01-04 22:52:55.89	47.38	21.68	-48.8	-50.0	14.7	0.00e+00	0	28	0	742391808	63	4222
2026-01-04 22:52:56.90	47.58	21.77	-48.9	-50.1	14.7	0.00e+00	0	28	0	745537536	63	4266
2026-01-04 22:52:57.91	47.78	21.87	-48.9	-50.1	14.7	0.00e+00	0	28	0	748683264	63	4261
2026-01-04 22:52:58.91	47.98	21.96	-48.9	-50.1	14.7	0.00e+00	0	28	0	751828992	63	4289
2026-01-04 22:52:59.93	48.19	22.05	-48.9	-50.1	14.7	0.00e+00	0	28	0	754974720	63	4264
2026-01-04 22:53:00.94	48.39	22.14	-48.8	-50.0	14.7	0.00e+00	0	28	0	758120448	63	4212
2026-01-04 22:53:01.94	48.60	22.23	-48.8	-50.0	14.8	0.00e+00	0	28	0	761266176	63	4201
2026-01-04 22:53:02.96	48.81	22.33	-48.7	-49.9	14.8	0.00e+00	0	28	0	764411904	63	4179
2026-01-04 22:53:03.97	49.02	22.42	-48.5	-49.7	14.8	0.00e+00	0	28	0	767557632	63	4076
2026-01-04 22:53:04.98	49.23	22.51	-48.5	-49.7	14.8	0.00e+00	0	28	0	770703360	63	4081
2026-01-04 22:53:05.98	49.43	22.60	-48.5	-49.6	14.9	0.00e+00	0	28	0	773849088	63	4043
2026-01-04 22:53:06.99	49.65	22.69	-48.8	-49.9	14.8	0.00e+00	0	28	0	776994816	63	4185
2026-01-04 22:53:08.00	49.86	22.79	-48.6	-49.8	14.8	0.00e+00	0	28	0	780140544	63	4100
2026-01-04 22:53:09.01	50.08	22.88	-48.6	-49.7	14.8	0.00e+00	0	28	0	783286272	63	4098
2026-01-04 22:53:10.02	50.29	22.97	-48.7	-49.9	14.8	0.00e+00	0	28	0	786432000	63	4146
2026-01-04 22:53:11.03	50.51	23.06	-48.9	-50.1	14.7	0.00e+00	0	28	0	789577728	63	4290
2026-01-04 22:53:12.04	50.73	23.15	-48.9	-50.1	14.7	0.00e+00	0	28	0	792723456	63	4286
2026-01-04 22:53:13.05	50.95	23.25	-48.9	-50.2	14.7	0.00e+00	0	28	0	795869184	63	4292
2026-01-04 22:53:14.05	51.17	23.34	-49.1	-50.3	14.6	0.00e+00	0	28	0	799014912	63	4359
2026-01-04 22:53:15.06	51.39	23.43	-49.0	-50.2	14.7	0.00e+00	0	28	0	802160640	63	4301
2026-01-04 22:53:16.07	51.61	23.52	-49.1	-50.3	14.7	0.00e+00	0	28	0	805306368	63	4357
2026-01-04 22:53:17.08	51.84	23.61	-48.9	-50.1	14.7	0.00e+00	0	28	0	808452096	63	4284
2026-01-04 22:53:18.09	52.06	23.70	-49.0	-50.2	14.7	0.00e+00	0	28	0	811597824	63	4305
2026-01-04 22:53:19.10	52.29	23.79	-49.0	-50.2	14.7	0.00e+00	0	28	0	814743552	63	4336
2026-01-04 22:53:20.11	52.52	23.88	-49.1	-50.3	14.7	0.00e+00	0	28	0	817889280	63	4348
2026-01-04 22:53:21.12	52.75	23.97	-49.1	-50.3	14.7	0.00e+00	0	28	0	821035008	63	4360
2026-01-04 22:53:22.13	52.98	24.06	-48.9	-50.1	14.7	0.00e+00	0	28	0	824180736	63	4262
2026-01-04 22:53:23.14	53.21	24.15	-49.0	-50.2	14.7	0.00e+00	0	28	0	827326464	63	4297
2026-01-04 22:53:24.15	53.45	24.24	-48.8	-50.0	14.8	0.00e+00	0	28	0	830472192	63	4229
2026-01-04 22:53:25.16	53.68	24.33	-48.8	-50.0	14.8	0.00e+00	0	28	0	833617920	63	4221
2026-01-04 22:53:26.17	53.92	24.42	-48.9	-50.1	14.8	0.00e+00	0	28	0	836763648	63	4269
2026-01-04 22:53:27.18	54.16	24.51	-49.0	-50.2	14.7	0.00e+00	0	28	0	839909376	63	4327
2026-01-04 22:53:28.19	54.40	24.60	-49.0	-50.2	14.7	0.00e+00	0	28	0	843055104	63	4315
2026-01-04 22:53:29.19	54.63	24.69	-49.1	-50.3	14.7	0.00e+00	0	28	0	846200832	63	4388
2026-01-04 22:53:30.20	54.88	24.78	-49.2	-50.5	14.6	0.00e+00	0	28	0	849346560	63	4449
2026-01-04 22:53:31.21	55.12	24.87	-49.3	-50.6	14.6	0.00e+00	0	28	0	852492288	63	4505
2026-01-04 22:53:32.22	55.36	24.96	-49.4	-50.7	14.6	0.00e+00	0	28	0	855638016	64	4298
2026-01-04 22:53:33.23	55.61	25.05	-49.2	-50.5	14.7	0.00e+00	0	28	0	858783744	64	4204
2026-01-04 22:53:34.24	55.86	25.13	-49.3	-50.5	14.7	0.00e+00	0	28	0	861929472	64	4207
2026-01-04 22:53:35.26	56.11	25.22	-49.3	-50.5	14.7	0.00e+00	0	28	0	865075200	64	4223
2026-01-04 22:53:36.26	56.36	25.31	-49.2	-50.4	14.7	0.00e+00	0	28	0	868220928	64	4171
2026-01-04 22:53:37.27	56.61	25.40	-49.2	-50.4	14.7	0.00e+00	0	28	0	871366656	64	4191
2026-01-04 22:53:38.28	56.86	25.48	-49.2	-50.4	14.7	0.00e+00	0	28	0	874512384	64	4174
2026-01-04 22:53:39.29	57.11	25.57	-49.3	-50.5	14.7	0.00e+00	0	28	0	877658112	64	4222
2026-01-04 22:53:40.30	57.37	25.66	-49.2	-50.4	14.7	0.00e+00	0	28	0	880803840	64	4193
2026-01-04 22:53:41.31	57.63	25.74	-49.1	-50.3	14.8	0.00e+00	0	28	0	883949568	64	4132
2026-01-04 22:53:42.32	57.88	25.83	-49.0	-50.2	14.8	0.00e+00	0	28	0	887095296	64	4063
2026-01-04 22:53:43.33	58.14	25.91	-49.0	-50.2	14.8	0.00e+00	0	28	0	890241024	64	4096
2026-01-04 22:53:44.33	58.40	26.00	-49.1	-50.3	14.8	0.00e+00	0	28	0	893386752	64	4104
2026-01-04 22:53:45.34	58.66	26.08	-49.1	-50.3	14.8	0.00e+00	0	28	0	896532480	64	4130
2026-01-04 22:53:46.35	58.93	26.17	-49.2	-50.4	14.7	0.00e+00	0	28	0	899678208	64	4168
2026-01-04 22:53:47.36	59.19	26.25	-49.3	-50.5	14.7	0.00e+00	0	28	0	902823936	64	4241
2026-01-04 22:53:48.37	59.46	26.33	-49.2	-50.4	14.7	0.00e+00	0	28	0	905969664	64	4179
2026-01-04 22:53:49.38	59.73	26.42	-49.1	-50.3	14.7	0.00e+00	0	28	0	909115392	64	4126
2026-01-04 22:53:50.39	60.00	26.50	-49.2	-50.4	14.7	0.00e+00	0	28	0	912261120	64	4160
2026-01-04 22:53:51.40	60.27	26.58	-49.1	-50.3	14.7	0.00e+00	0	28	0	915406848	64	4107
2026-01-04 22:53:52.40	60.54	26.66	-49.1	-50.3	14.7	0.00e+00	0	28	0	918552576	64	4126
2026-01-04 22:53:53.41	60.81	26.74	-49.2	-50.4	14.7	0.00e+00	0	28	0	921698304	64	4182
2026-01-04 22:53:54.42	61.08	26.83	-49.2	-50.4	14.7	0.00e+00	0	28	0	924844032	64	4168
2026-01-04 22:53:55.43	61.36	26.91	-49.1	-50.3	14.8	0.00e+00	0	28	0	927989760	64	4116
2026-01-04 22:53:56.44	61.64	26.99	-49.0	-50.2	14.8	0.00e+00	0	28	0	931135488	64	4055
2026-01-04 22:53:57.46	61.92	27.07	-49.0	-50.2	14.8	0.00e+00	0	28	0	934281216	64	4059
2026-01-04 22:53:58.46	62.20	27.14	-49.1	-50.3	14.7	0.00e+00	0	28	0	937426944	64	4103
2026-01-04 22:53:59.47	62.48	27.22	-49.2	-50.4	14.7	0.00e+00	0	28	0	940572672	64	4154
2026-01-04 22:54:00.48	62.76	27.30	-49.2	-50.4	14.7	0.00e+00	0	28	0	943718400	64	4187
2026-01-04 22:54:01.49	63.04	27.38	-49.1	-50.3	14.7	0.00e+00	0	28	0	946864128	64	4127
2026-01-04 22:54:02.49	63.33	27.46	-49.1	-50.3	14.8	0.00e+00	0	28	0	950009856	64	4137
2026-01-04 22:54:03.50	63.61	27.53	-48.8	-50.0	14.9	0.00e+00	0	28	0	953155584	64	3985
2026-01-04 22:54:04.51	63.90	27.61	-48.7	-49.9	14.9	0.00e+00	0	28	0	956301312	64	3933
2026-01-04 22:54:05.52	64.19	27.68	-48.7	-49.8	14.9	0.00e+00	0	28	0	959447040	64	3909
2026-01-04 22:54:06.53	64.48	27.76	-48.8	-50.0	14.9	0.00e+00	0	28	0	962592768	64	3980
2026-01-04 22:54:07.54	64.77	27.83	-48.8	-50.0	14.9	0.00e+00	0	28	0	965738496	64	3981
2026-01-04 22:54:08.55	65.07	27.91	-49.0	-50.2	14.8	0.00e+00	0	28	0	968884224	64	4079
2026-01-04 22:54:09.56	65.36	27.98	-49.1	-50.3	14.8	0.00e+00	0	28	0	972029952	64	4121
2026-01-04 22:54:10.57	65.66	28.05	-49.2	-50.5	14.7	0.00e+00	0	28	0	975175680	64	4199
2026-01-04 22:54:11.58	65.96	28.13	-49.3	-50.6	14.7	0.00e+00	0	28	0	978321408	64	4260
2026-01-04 22:54:12.59	66.26	28.20	-49.3	-50.5	14.7	0.00e+00	0	28	0	981467136	64	4235
2026-01-04 22:54:13.60	66.56	28.27	-49.3	-50.6	14.7	0.00e+00	0	28	0	984612864	64	4246
2026-01-04 22:54:14.61	66.86	28.34	-49.1	-50.3	14.8	0.00e+00	0	28	0	987758592	64	4125
2026-01-04 22:54:15.62	67.16	28.41	-49.0	-50.2	14.8	0.00e+00	0	28	0	990904320	64	4058
2026-01-04 22:54:16.63	67.46	28.48	-49.0	-50.1	14.8	0.00e+00	0	28	0	994050048	64	4049
2026-01-04 22:54:17.64	67.77	28.54	-49.0	-50.2	14.8	0.00e+00	0	28	0	997195776	64	4077
2026-01-04 22:54:18.65	68.08	28.61	-49.1	-50.3	14.8	0.00e+00	0	28	0	1000341504	64	4115
2026-01-04 22:54:19.66	68.38	28.68	-49.2	-50.4	14.7	0.00e+00	0	28	0	1003487232	64	4193
2026-01-04 22:54:20.67	68.69	28.74	-49.3	-50.6	14.7	0.00e+00	0	28	0	1006632960	64	4255
2026-01-04 22:54:21.68	69.00	28.81	-49.4	-50.6	14.7	0.00e+00	0	28	0	1009778688	64	4265
2026-01-04 22:54:22.69	69.32	28.87	-49.2	-50.5	14.7	0.00e+00	0	28	0	1012924416	64	4196
2026-01-04 22:54:23.70	69.63	28.94	-49.1	-50.3	14.8	0.00e+00	0	28	0	1016070144	64	4145
2026-01-04 22:54:24.71	69.94	29.00	-49.0	-50.2	14.8	0.00e+00	0	28	0	1020264448	64	4082
2026-01-04 22:54:25.72	70.26	29.06	-49.0	-50.2	14.8	0.00e+00	0	28	0	1023410176	64	4068
2026-01-04 22:54:26.73	70.57	29.12	-49.1	-50.3	14.7	0.00e+00	0	28	0	1025507328	64	4132
2026-01-04 22:54:27.74	70.89	29.18	-49.0	-50.2	14.8	0.00e+00	0	28	0	1028653056	64	4060
2026-01-04 22:54:28.74	71.21	29.24	-49.2	-50.3	14.7	0.00e+00	0	28	0	1031798784	64	4144
2026-01-04 22:54:29.75	71.53	29.30	-49.2	-50.4	14.7	0.00e+00	0	28	0	1034944512	64	4170
2026-01-04 22:54:30.76	71.85	29.36	-49.2	-50.4	14.7	0.00e+00	0	28	0	1039138816	64	4160
2026-01-04 22:54:31.77	72.17	29.42	-49.4	-50.6	14.7	0.00e+00	0	28	0	1042284544	64	4264
2026-01-04 22:54:32.78	72.49	29.47	-49.3	-50.5	14.7	0.00e+00	0	28	0	1045430272	64	4219
2026-01-04 22:54:33.79	72.82	29.53	-49.4	-50.6	14.7	0.00e+00	0	28	0	1048576000	64	4256
2026-01-04 22:54:34.80	73.14	29.58	-49.4	-50.6	14.7	0.00e+00	0	28	0	1050673152	64	4277
2026-01-04 22:54:35.81	73.47	29.64	-49.3	-50.5	14.7	0.00e+00	0	28	0	1054867456	64	4205
2026-01-04 22:54:36.81	73.80	29.69	-49.2	-50.4	14.7	0.00e+00	0	28	0	1058013184	64	4189
2026-01-04 22:54:37.82	74.13	29.74	-49.1	-50.3	14.7	0.00e+00	0	28	0	1061158912	64	4118
2026-01-04 22:54:38.83	74.45	29.79	-49.2	-50.4	14.7	0.00e+00	0	28	0	1064304640	64	4174
2026-01-04 22:54:39.84	74.79	29.84	-49.4	-50.6	14.7	0.00e+00	0	28	0	1067450368	64	4290
2026-01-04 22:54:40.85	75.12	29.89	-49.6	-50.8	14.6	0.00e+00	0	28	0	1070596096	64	4377
2026-01-04 22:54:41.86	75.45	29.94	-49.6	-50.9	14.6	0.00e+00	0	28	0	1073741824	64	4408
2026-01-04 22:54:42.87	75.78	29.99	-49.6	-50.8	14.6	0.00e+00	0	28	0	1076887552	64	4384
2026-01-04 22:54:43.88	76.12	30.03	-49.7	-51.0	14.6	0.00e+00	0	28	0	1080033280	64	4445
2026-01-04 22:54:44.89	76.45	30.08	-49.7	-51.0	14.5	0.00e+00	0	28	0	1083179008	64	4473
2026-01-04 22:54:45.90	76.79	30.12	-49.8	-51.1	14.5	0.00e+00	0	28	0	1086324736	64	4520
2026-01-04 22:54:46.90	77.13	30.16	-49.8	-51.1	14.5	0.00e+00	0	28	0	1089470464	64	4533
2026-01-04 22:54:47.91	77.46	30.21	-49.7	-50.9	14.5	0.00e+00	0	28	0	1092616192	64	4426
2026-01-04 22:54:48.92	77.80	30.25	-49.7	-50.9	14.6	0.00e+00	0	28	0	1095761920	64	4434
2026-01-04 22:54:49.93	78.14	30.29	-49.5	-50.8	14.6	0.00e+00	0	28	0	1098907648	64	4347
2026-01-04 22:54:50.94	78.48	30.33	-49.6	-50.8	14.6	0.00e+00	0	28	0	1102053376	64	4364
2026-01-04 22:54:51.95	78.83	30.37	-49.7	-50.9	14.6	0.00e+00	0	28	0	1105199104	64	4417
2026-01-04 22:54:52.96	79.17	30.40	-49.8	-51.0	14.5	0.00e+00	0	28	0	1108344832	64	4491
2026-01-04 22:54:53.97	79.51	30.44	-49.8	-51.1	14.5	0.00e+00	0	28	0	1111490560	64	4512
2026-01-04 22:54:54.98	79.86	30.47	-49.6	-50.9	14.6	0.00e+00	0	28	0	1114636288	64	4399
2026-01-04 22:54:55.99	80.20	30.51	-49.5	-50.7	14.6	0.00e+00	0	28	0	1117782016	64	4335
2026-01-04 22:54:57.00	80.55	30.54	-49.3	-50.5	14.7	0.00e+00	0	28	0	1120927744	64	4236
2026-01-04 22:54:58.01	80.89	30.57	-49.4	-50.7	14.6	0.00e+00	0	28	0	1124073472	64	4297
2026-01-04 22:54:59.02	81.24	30.60	-49.6	-50.8	14.6	0.00e+00	0	28	0	1127219200	64	4361
2026-01-04 22:55:00.02	81.58	30.63	-49.8	-51.1	14.5	0.00e+00	0	28	0	1130364928	64	4529
2026-01-04 22:55:01.03	81.93	30.66	-50.0	-51.3	14.6	0.00e+00	0	28	0	1133510656	65	4355
2026-01-04 22:55:02.04	82.28	30.69	-49.8	-51.1	14.6	0.00e+00	0	28	0	1136656384	65	4264
2026-01-04 22:55:03.05	82.63	30.71	-49.7	-50.9	14.6	0.00e+00	0	28	0	1139802112	65	4191
2026-01-04 22:55:04.06	82.98	30.74	-49.5	-50.8	14.7	0.00e+00	0	28	0	1142947840	65	4101
2026-01-04 22:55:05.07	83.33	30.76	-49.5	-50.8	14.7	0.00e+00	0	28	0	1146093568	65	4116
2026-01-04 22:55:06.08	83.68	30.79	-49.6	-50.9	14.7	0.00e+00	0	28	0	1149239296	65	4147
2026-01-04 22:55:07.09	84.03	30.81	-49.5	-50.7	14.7	0.00e+00	0	28	0	1152385024	65	4076
2026-01-04 22:55:08.10	84.39	30.83	-49.5	-50.8	14.7	0.00e+00	0	28	0	1155530752	65	4109
2026-01-04 22:55:09.11	84.74	30.85	-49.5	-50.7	14.8	0.00e+00	0	28	0	1158676480	65	4076
2026-01-04 22:55:10.12	85.09	30.87	-49.4	-50.6	14.8	0.00e+00	0	28	0	1161822208	65	4012
2026-01-04 22:55:11.13	85.44	30.88	-49.5	-50.8	14.7	0.00e+00	0	28	0	1164967936	65	4102
2026-01-04 22:55:12.14	85.80	30.90	-49.7	-50.9	14.7	0.00e+00	0	28	0	1168113664	65	4181
2026-01-04 22:55:13.15	86.15	30.91	-49.8	-51.1	14.6	0.00e+00	0	28	0	1171259392	65	4268
2026-01-04 22:55:14.16	86.50	30.93	-49.8	-51.1	14.6	0.00e+00	0	28	0	1174405120	65	4281
2026-01-04 22:55:15.17	86.86	30.94	-49.9	-51.2	14.6	0.00e+00	0	28	0	1177550848	65	4314
2026-01-04 22:55:16.18	87.21	30.95	-49.8	-51.1	14.6	0.00e+00	0	28	0	1180696576	65	4265
2026-01-04 22:55:17.18	87.57	30.96	-49.8	-51.1	14.6	0.00e+00	0	28	0	1183842304	65	4270
2026-01-04 22:55:18.19	87.92	30.97	-49.9	-51.2	14.6	0.00e+00	0	28	0	1186988032	65	4311
2026-01-04 22:55:19.20	88.28	30.98	-50.0	-51.3	14.5	0.00e+00	0	28	0	1190133760	65	4362
2026-01-04 22:55:20.22	88.63	30.98	-49.8	-51.1	14.6	0.00e+00	0	28	0	1193279488	65	4268
2026-01-04 22:55:21.23	88.99	30.99	-49.7	-51.0	14.6	0.00e+00	0	28	0	1196425216	65	4219
2026-01-04 22:55:22.24	89.35	30.99	-49.8	-51.1	14.6	0.00e+00	0	28	0	1199570944	65	4246
2026-01-04 22:55:23.25	89.70	31.00	-49.8	-51.1	14.6	0.00e+00	0	28	0	1202716672	65	4264
2026-01-04 22:55:24.26	90.06	31.00	-49.9	-51.1	14.6	0.00e+00	0	28	0	1205862400	65	4269
2026-01-04 22:55:25.27	90.41	31.00	-50.0	-51.2	14.5	0.00e+00	0	28	0	1209008128	65	4338
2026-01-04 22:55:26.27	90.77	31.00	-49.9	-51.2	14.5	0.00e+00	0	28	0	1212153856	65	4332
2026-01-04 22:55:27.28	91.12	31.00	-49.9	-51.2	14.6	0.00e+00	0	28	0	1215299584	65	4308
2026-01-04 22:55:28.29	91.48	30.99	-49.7	-50.9	14.7	0.00e+00	0	28	0	1218445312	65	4190
2026-01-04 22:55:29.29	91.83	30.99	-49.7	-50.9	14.6	0.00e+00	0	28	0	1221591040	65	4183
2026-01-04 22:55:30.30	92.19	30.98	-49.6	-50.8	14.7	0.00e+00	0	28	0	1224736768	65	4139
2026-01-04 22:55:31.31	92.54	30.98	-49.5	-50.7	14.7	0.00e+00	0	28	0	1227882496	65	4092
2026-01-04 22:55:32.32	92.90	30.97	-49.6	-50.9	14.7	0.00e+00	0	28	0	1231028224	65	4156
2026-01-04 22:55:33.33	93.25	30.96	-49.9	-51.1	14.6	0.00e+00	0	28	0	1234173952	65	4274
2026-01-04 22:55:34.34	93.61	30.95	-49.8	-51.1	14.6	0.00e+00	0	28	0	1237319680	65	4252
2026-01-04 22:55:35.35	93.96	30.94	-49.8	-51.1	14.6	0.00e+00	0	28	0	1240465408	65	4260
2026-01-04 22:55:36.36	94.32	30.93	-49.7	-50.9	14.7	0.00e+00	0	28	0	1243611136	65	4180
2026-01-04 22:55:37.36	94.67	30.91	-49.5	-50.7	14.7	0.00e+00	0	28	0	1246756864	65	4065
2026-01-04 22:55:38.37	95.02	30.90	-49.5	-50.7	14.7	0.00e+00	0	28	0	1249902592	65	4080
2026-01-04 22:55:39.38	95.37	30.88	-49.6	-50.9	14.7	0.00e+00	0	28	0	1253048320	65	4159
2026-01-04 22:55:40.39	95.73	30.86	-49.6	-50.9	14.7	0.00e+00	0	28	0	1256194048	65	4152
2026-01-04 22:55:41.40	96.08	30.85	-49.7	-50.9	14.7	0.00e+00	0	28	0	1259339776	65	4183
2026-01-04 22:55:42.41	96.43	30.83	-49.7	-51.0	14.7	0.00e+00	0	28	0	1262485504	65	4198
2026-01-04 22:55:43.41	96.78	30.81	-49.6	-50.8	14.7	0.00e+00	0	28	0	1265631232	65	4141
2026-01-04 22:55:44.42	97.13	30.78	-49.6	-50.8	14.7	0.00e+00	0	28	0	1268776960	65	4130
2026-01-04 22:55:45.43	97.48	30.76	-49.5	-50.8	14.7	0.00e+00	0	28	0	1271922688	65	4108
2026-01-04 22:55:46.44	97.84	30.74	-49.5	-50.7	14.8	0.00e+00	0	28	0	1275068416	65	4086
2026-01-04 22:55:47.45	98.19	30.71	-49.5	-50.7	14.7	0.00e+00	0	28	0	1278214144	65	4067
2026-01-04 22:55:48.46	98.53	30.69	-49.3	-50.5	14.8	0.00e+00	0	28	0	1281359872	65	3972
2026-01-04 22:55:49.47	98.88	30.66	-49.5	-50.8	14.7	0.00e+00	0	28	0	1284505600	65	4100
2026-01-04 22:55:50.48	99.23	30.63	-49.7	-50.9	14.7	0.00e+00	0	28	0	1287651328	65	4182
2026-01-04 22:55:51.49	99.58	30.60	-49.6	-50.9	14.7	0.00e+00	0	28	0	1290797056	65	4163
2026-01-04 22:55:52.50	99.93	30.57	-49.8	-51.0	14.6	0.00e+00	0	28	0	1293942784	65	4229
2026-01-04 22:55:53.51	100.27	30.54	-49.9	-51.2	14.6	0.00e+00	0	28	0	1297088512	65	4295
2026-01-04 22:55:54.52	100.62	30.50	-49.8	-51.1	14.6	0.00e+00	0	28	0	1300234240	65	4247
2026-01-04 22:55:55.53	100.97	30.47	-49.6	-50.8	14.7	0.00e+00	0	28	0	1303379968	65	4112
2026-01-04 22:55:56.54	101.31	30.43	-49.5	-50.7	14.7	0.00e+00	0	28	0	1306525696	65	4078
2026-01-04 22:55:57.55	101.65	30.40	-49.4	-50.6	14.8	0.00e+00	0	28	0	1309671424	65	4036
2026-01-04 22:55:58.56	102.00	30.36	-49.4	-50.6	14.8	0.00e+00	0	28	0	1312817152	65	4041
2026-01-04 22:55:59.57	102.34	30.32	-49.4	-50.6	14.8	0.00e+00	0	28	0	1315962880	65	4035
2026-01-04 22:56:00.57	102.68	30.28	-49.5	-50.7	14.7	0.00e+00	0	28	0	1319108608	65	4083
2026-01-04 22:56:01.58	103.02	30.24	-49.7	-50.9	14.6	0.00e+00	0	28	0	1322254336	65	4192
2026-01-04 22:56:02.59	103.36	30.20	-49.8	-51.0	14.6	0.00e+00	0	28	0	1325400064	65	4236
2026-01-04 22:56:03.60	103.70	30.16	-49.8	-51.1	14.6	0.00e+00	0	28	0	1328545792	65	4262
2026-01-04 22:56:04.61	104.03	30.12	-50.0	-51.3	14.5	0.00e+00	0	28	0	1331691520	65	4342
2026-01-04 22:56:05.62	104.37	30.07	-50.0	-51.3	14.6	0.00e+00	0	28	0	1334837248	65	4352
2026-01-04 22:56:06.63	104.71	30.03	-49.7	-51.0	14.7	0.00e+00	0	28	0	1337982976	65	4218
2026-01-04 22:56:07.64	105.04	29.98	-49.6	-50.9	14.7	0.00e+00	0	28	0	1341128704	65	4159
2026-01-04 22:56:08.65	105.38	29.93	-49.7	-50.9	14.7	0.00e+00	0	28	0	1344274432	65	4175
2026-01-04 22:56:09.66	105.71	29.88	-49.5	-50.7	14.7	0.00e+00	0	28	0	1347420160	65	4092
2026-01-04 22:56:10.67	106.04	29.83	-49.6	-50.8	14.7	0.00e+00	0	28	0	1350565888	65	4134
2026-01-04 22:56:11.68	106.37	29.78	-49.7	-51.0	14.6	0.00e+00	0	28	0	1353711616	65	4202
2026-01-04 22:56:12.69	106.70	29.73	-49.6	-50.8	14.7	0.00e+00	0	28	0	1356857344	65	4125
2026-01-04 22:56:13.70	107.03	29.68	-49.5	-50.8	14.7	0.00e+00	0	28	0	1360003072	65	4101
2026-01-04 22:56:14.71	107.36	29.63	-49.4	-50.6	14.8	0.00e+00	0	28	0	1363148800	65	4025
2026-01-04 22:56:15.72	107.69	29.57	-49.4	-50.6	14.8	0.00e+00	0	28	0	1366294528	65	4040
2026-01-04 22:56:16.73	108.02	29.52	-49.4	-50.6	14.8	0.00e+00	0	28	0	1369440256	65	4046
2026-01-04 22:56:17.74	108.34	29.46	-49.4	-50.6	14.8	0.00e+00	0	28	0	1372585984	65	4018
2026-01-04 22:56:18.75	108.66	29.41	-49.4	-50.6	14.8	0.00e+00	0	28	0	1375731712	65	4045
2026-01-04 22:56:19.76	108.99	29.35	-49.5	-50.7	14.7	0.00e+00	0	28	0	1378877440	65	4074
2026-01-04 22:56:20.78	109.31	29.29	-49.6	-50.8	14.7	0.00e+00	0	28	0	1382023168	65	4137
2026-01-04 22:56:21.79	109.63	29.23	-49.6	-50.8	14.7	0.00e+00	0	28	0	1385168896	65	4126
2026-01-04 22:56:22.79	109.95	29.17	-49.7	-50.9	14.7	0.00e+00	0	28	0	1388314624	65	4183
2026-01-04 22:56:23.80	110.27	29.11	-49.5	-50.7	14.8	0.00e+00	0	28	0	1391460352	65	4070
2026-01-04 22:56:24.81	110.58	29.05	-49.2	-50.4	14.9	0.00e+00	0	28	0	1394606080	65	3925
2026-01-04 22:56:25.82	110.90	28.99	-49.1	-50.3	14.8	0.00e+00	0	28	0	1397751808	64	4113
2026-01-04 22:56:26.83	111.21	28.92	-49.3	-50.5	14.7	0.00e+00	0	28	0	1400897536	64	4201
2026-01-04 22:56:27.84	111.53	28.86	-49.3	-50.6	14.7	0.00e+00	0	28	0	1404043264	64	4245
2026-01-04 22:56:28.85	111.84	28.80	-49.4	-50.7	14.6	0.00e+00	0	28	0	1408237568	64	4300
2026-01-04 22:56:29.86	112.15	28.73	-49.6	-50.9	14.6	0.00e+00	0	28	0	1411383296	64	4400
2026-01-04 22:56:30.87	112.46	28.66	-49.6	-50.8	14.6	0.00e+00	0	28	0	1413480448	64	4364
2026-01-04 22:56:31.87	112.77	28.60	-49.7	-51.0	14.6	0.00e+00	0	28	0	1416626176	64	4443
2026-01-04 22:56:32.88	113.07	28.53	-49.6	-50.8	14.6	0.00e+00	0	28	0	1419771904	64	4386
2026-01-04 22:56:33.89	113.38	28.46	-49.5	-50.8	14.6	0.00e+00	0	28	0	1422917632	64	4354
2026-01-04 22:56:34.90	113.68	28.39	-49.6	-50.8	14.6	0.00e+00	0	28	0	1426063360	64	4380
2026-01-04 22:56:35.91	113.99	28.32	-49.4	-50.6	14.7	0.00e+00	0	28	0	1430257664	64	4288
2026-01-04 22:56:36.92	114.29	28.25	-49.2	-50.5	14.7	0.00e+00	0	28	0	1433403392	64	4200
2026-01-04 22:56:37.92	114.59	28.18	-49.3	-50.6	14.7	0.00e+00	0	28	0	1435500544	64	4251
2026-01-04 22:56:38.93	114.89	28.11	-49.4	-50.7	14.7	0.00e+00	0	28	0	1438646272	64	4293
2026-01-04 22:56:39.94	115.18	28.04	-49.4	-50.7	14.6	0.00e+00	0	28	0	1441792000	64	4306
2026-01-04 22:56:40.95	115.48	27.97	-49.6	-50.8	14.6	0.00e+00	0	28	0	1444937728	64	4381
2026-01-04 22:56:41.96	115.78	27.89	-49.5	-50.8	14.6	0.00e+00	0	28	0	1449132032	64	4358
2026-01-04 22:56:42.97	116.07	27.82	-49.4	-50.7	14.6	0.00e+00	0	28	0	1452277760	64	4301
2026-01-04 22:56:43.98	116.36	27.74	-49.4	-50.7	14.7	0.00e+00	0	28	0	1455423488	64	4307
2026-01-04 22:56:44.99	116.66	27.67	-49.4	-50.6	14.7	0.00e+00	0	28	0	1458569216	64	4257
2026-01-04 22:56:46.00	116.95	27.59	-49.4	-50.6	14.7	0.00e+00	0	28	0	1460666368	64	4270
2026-01-04 22:56:47.01	117.23	27.51	-49.5	-50.7	14.6	0.00e+00	0	28	0	1464860672	64	4328
2026-01-04 22:56:48.02	117.52	27.44	-49.5	-50.8	14.6	0.00e+00	0	28	0	1468006400	64	4341
2026-01-04 22:56:49.03	117.81	27.36	-49.3	-50.5	14.7	0.00e+00	0	28	0	1471152128	64	4223
2026-01-04 22:56:50.04	118.09	27.28	-49.2	-50.5	14.7	0.00e+00	0	28	0	1474297856	64	4194
2026-01-04 22:56:51.04	118.37	27.20	-49.2	-50.5	14.7	0.00e+00	0	28	0	1477443584	64	4200
2026-01-04 22:56:52.06	118.66	27.12	-49.3	-50.5	14.7	0.00e+00	0	28	0	1480589312	64	4204
2026-01-04 22:56:53.07	118.94	27.04	-49.3	-50.5	14.7	0.00e+00	0	28	0	1483735040	64	4201
2026-01-04 22:56:54.07	119.22	26.97	-49.2	-50.4	14.7	0.00e+00	0	28	0	1486880768	64	4158
2026-01-04 22:56:55.09	119.50	26.88	-49.1	-50.3	14.8	0.00e+00	0	28	0	1490026496	64	4114
2026-01-04 22:56:56.09	119.77	26.80	-49.0	-50.2	14.8	0.00e+00	0	28	0	1493172224	64	4067
2026-01-04 22:56:57.10	120.05	26.72	-49.0	-50.2	14.8	0.00e+00	0	28	0	1496317952	64	4088
2026-01-04 22:56:58.11	120.32	26.64	-49.0	-50.2	14.8	0.00e+00	0	28	0	1499463680	64	4058
2026-01-04 22:56:59.12	120.59	26.56	-48.9	-50.1	14.9	0.00e+00	0	28	0	1502609408	64	4021
2026-01-04 22:57:00.13	120.86	26.48	-49.0	-50.2	14.8	0.00e+00	0	28	0	1505755136	64	4060
2026-01-04 22:57:01.14	121.13	26.39	-48.7	-49.9	14.9	0.00e+00	0	28	0	1508900864	64	3915
2026-01-04 22:57:02.15	121.40	26.31	-48.7	-49.8	14.8	0.00e+00	0	28	0	1512046592	63	4130
2026-01-04 22:57:03.16	121.67	26.22	-48.6	-49.8	14.8	0.00e+00	0	28	0	1515192320	63	4103
2026-01-04 22:57:04.17	121.93	26.14	-48.6	-49.8	14.8	0.00e+00	0	28	0	1518338048	63	4101
2026-01-04 22:57:05.18	122.20	26.06	-48.6	-49.8	14.8	0.00e+00	0	28	0	1521483776	63	4107
2026-01-04 22:57:06.19	122.46	25.97	-48.8	-50.0	14.8	0.00e+00	0	28	0	1524629504	63	4209
2026-01-04 22:57:07.19	122.72	25.89	-48.9	-50.1	14.7	0.00e+00	0	28	0	1527775232	63	4259
2026-01-04 22:57:08.20	122.98	25.80	-48.9	-50.1	14.7	0.00e+00	0	28	0	1530920960	63	4281
2026-01-04 22:57:09.21	123.24	25.71	-48.8	-50.0	14.8	0.00e+00	0	28	0	1534066688	63	4218
2026-01-04 22:57:10.21	123.49	25.63	-48.9	-50.1	14.7	0.00e+00	0	28	0	1537212416	63	4269
2026-01-04 22:57:11.22	123.75	25.54	-48.8	-50.0	14.8	0.00e+00	0	28	0	1540358144	63	4226
2026-01-04 22:57:12.23	124.00	25.45	-48.8	-50.0	14.8	0.00e+00	0	28	0	1543503872	63	4217
2026-01-04 22:57:13.24	124.26	25.37	-48.8	-50.0	14.8	0.00e+00	0	28	0	1546649600	63	4231
2026-01-04 22:57:14.25	124.51	25.28	-48.9	-50.1	14.7	0.00e+00	0	28	0	1549795328	63	4278
2026-01-04 22:57:15.26	124.76	25.19	-49.0	-50.2	14.7	0.00e+00	0	28	0	1552941056	63	4310
2026-01-04 22:57:16.26	125.01	25.10	-48.9	-50.1	14.7	0.00e+00	0	28	0	1556086784	63	4287
2026-01-04 22:57:17.27	125.25	25.02	-49.0	-50.3	14.7	0.00e+00	0	28	0	1559232512	63	4350
2026-01-04 22:57:18.28	125.50	24.93	-49.0	-50.2	14.7	0.00e+00	0	28	0	1562378240	63	4333
2026-01-04 22:57:19.29	125.74	24.84	-49.1	-50.4	14.6	0.00e+00	0	28	0	1565523968	63	4394
2026-01-04 22:57:20.30	125.99	24.75	-49.0	-50.2	14.7	0.00e+00	0	28	0	1568669696	63	4337
2026-01-04 22:57:21.31	126.23	24.66	-48.9	-50.1	14.7	0.00e+00	0	28	0	1571815424	63	4263
2026-01-04 22:57:22.32	126.47	24.57	-48.9	-50.1	14.8	0.00e+00	0	28	0	1574961152	63	4252
2026-01-04 22:57:23.33	126.71	24.48	-48.9	-50.1	14.7	0.00e+00	0	28	0	1578106880	63	4259
2026-01-04 22:57:24.34	126.95	24.39	-48.9	-50.1	14.7	0.00e+00	0	28	0	1581252608	63	4247
2026-01-04 22:57:25.35	127.19	24.30	-48.8	-50.0	14.8	0.00e+00	0	28	0	1584398336	63	4209
2026-01-04 22:57:26.35	127.42	24.21	-48.8	-49.9	14.8	0.00e+00	0	28	0	1587544064	63	4192
2026-01-04 22:57:27.36	127.66	24.12	-48.7	-49.9	14.8	0.00e+00	0	28	0	1590689792	63	4162
2026-01-04 22:57:28.38	127.89	24.03	-48.8	-50.0	14.8	0.00e+00	0	28	0	1593835520	63	4235
2026-01-04 22:57:29.38	128.12	23.94	-48.8	-50.0	14.8	0.00e+00	0	28	0	1596981248	63	4198
2026-01-04 22:57:30.40	128.35	23.85	-48.6	-49.8	14.8	0.00e+00	0	28	0	1600126976	63	4130
2026-01-04 22:57:31.40	128.58	23.75	-48.8	-50.0	14.8	0.00e+00	0	28	0	1603272704	63	4211
2026-01-04 22:57:32.41	128.81	23.66	-48.7	-49.9	14.8	0.00e+00	0	28	0	1606418432	63	4176
2026-01-04 22:57:33.42	129.03	23.57	-48.7	-49.9	14.8	0.00e+00	0	28	0	1609564160	63	4158
2026-01-04 22:57:34.43	129.26	23.48	-48.7	-49.9	14.8	0.00e+00	0	28	0	1612709888	63	4176
2026-01-04 22:57:35.44	129.48	23.39	-48.8	-50.0	14.7	0.00e+00	0	28	0	1615855616	63	4206
2026-01-04 22:57:36.45	129.71	23.30	-48.8	-50.0	14.7	0.00e+00	0	28	0	1619001344	63	4203
2026-01-04 22:57:37.46	129.93	23.20	-49.0	-50.2	14.7	0.00e+00	0	28	0	1622147072	63	4314
2026-01-04 22:57:38.47	130.15	23.11	-49.1	-50.3	14.7	0.00e+00	0	28	0	1625292800	63	4356
2026-01-04 22:57:39.48	130.37	23.02	-49.1	-50.4	14.7	0.00e+00	0	28	0	1628438528	63	4401
2026-01-04 22:57:40.49	130.59	22.93	-49.2	-50.4	14.6	0.00e+00	0	28	0	1631584256	63	4421
2026-01-04 22:57:41.50	130.80	22.84	-49.2	-50.5	14.6	0.00e+00	0	28	0	1634729984	63	4463
2026-01-04 22:57:42.51	131.02	22.74	-49.2	-50.5	14.6	0.00e+00	0	28	0	1637875712	63	4449
2026-01-04 22:57:43.52	131.23	22.65	-49.3	-50.6	14.6	0.00e+00	0	28	0	1641021440	63	4506
2026-01-04 22:57:44.53	131.44	22.56	-49.1	-50.4	14.6	0.00e+00	0	28	0	1644167168	63	4398
2026-01-04 22:57:45.54	131.65	22.46	-49.0	-50.3	14.7	0.00e+00	0	28	0	1647312896	63	4350
2026-01-04 22:57:46.55	131.87	22.37	-48.9	-50.1	14.7	0.00e+00	0	28	0	1650458624	63	4290
2026-01-04 22:57:47.56	132.07	22.28	-49.0	-50.2	14.7	0.00e+00	0	28	0	1653604352	63	4324
2026-01-04 22:57:48.57	132.28	22.19	-48.9	-50.1	14.7	0.00e+00	0	28	0	1656750080	63	4256
2026-01-04 22:57:49.58	132.49	22.09	-48.8	-50.0	14.7	0.00e+00	0	28	0	1659895808	63	4234
2026-01-04 22:57:50.59	132.69	22.00	-48.9	-50.1	14.7	0.00e+00	0	28	0	1663041536	63	4258
2026-01-04 22:57:51.60	132.90	21.91	-48.8	-50.0	14.7	0.00e+00	0	28	0	1666187264	63	4234
2026-01-04 22:57:52.60	133.10	21.82	-48.8	-49.9	14.8	0.00e+00	0	28	0	1669332992	63	4183
2026-01-04 22:57:53.62	133.30	21.72	-48.8	-50.0	14.7	0.00e+00	0	28	0	1672478720	63	4212
2026-01-04 22:57:54.63	133.50	21.63	-48.9	-50.1	14.7	0.00e+00	0	28	0	1675624448	63	4269
2026-01-04 22:57:55.64	133.70	21.54	-48.8	-50.0	14.7	0.00e+00	0	28	0	1678770176	63	4212
2026-01-04 22:57:56.65	133.90	21.44	-48.8	-50.0	14.8	0.00e+00	0	28	0	1681915904	63	4202
2026-01-04 22:57:57.65	134.10	21.35	-48.7	-49.9	14.8	0.00e+00	0	28	0	1685061632	63	4176
2026-01-04 22:57:58.66	134.29	21.26	-48.8	-49.9	14.7	0.00e+00	0	28	0	1688207360	63	4186
2026-01-04 22:57:59.67	134.49	21.16	-48.7	-49.9	14.8	0.00e+00	0	28	0	1691353088	63	4163
2026-01-04 22:58:00.68	134.68	21.07	-48.7	-49.8	14.8	0.00e+00	0	28	0	1694498816	63	4140
2026-01-04 22:58:01.68	134.87	20.98	-48.7	-49.9	14.8	0.00e+00	0	28	0	1697644544	63	4159
2026-01-04 22:58:02.70	135.07	20.89	-48.8	-49.9	14.8	0.00e+00	0	28	0	1700790272	63	4185
2026-01-04 22:58:03.71	135.26	20.79	-48.9	-50.1	14.7	0.00e+00	0	28	0	1703936000	63	4245
2026-01-04 22:58:04.72	135.45	20.70	-48.9	-50.0	14.7	0.00e+00	0	28	0	1707081728	63	4240
2026-01-04 22:58:05.73	135.63	20.61	-48.9	-50.1	14.7	0.00e+00	0	28	0	1710227456	63	4282
2026-01-04 22:58:06.74	135.82	20.51	-49.0	-50.2	14.7	0.00e+00	0	28	0	1713373184	63	4318
2026-01-04 22:58:07.75	136.01	20.42	-49.1	-50.4	14.6	0.00e+00	0	28	0	1716518912	63	4402
2026-01-04 22:58:08.76	136.19	20.33	-49.1	-50.4	14.6	0.00e+00	0	28	0	1719664640	63	4393
2026-01-04 22:58:09.77	136.38	20.24	-49.1	-50.3	14.6	0.00e+00	0	28	0	1722810368	63	4385
2026-01-04 22:58:10.78	136.56	20.14	-49.1	-50.4	14.6	0.00e+00	0	28	0	1725956096	63	4406
2026-01-04 22:58:11.79	136.74	20.05	-49.2	-50.5	14.6	0.00e+00	0	28	0	1729101824	63	4444
2026-01-04 22:58:12.80	136.92	19.96	-49.2	-50.4	14.6	0.00e+00	0	28	0	1732247552	63	4434
2026-01-04 22:58:13.81	137.10	19.87	-49.2	-50.4	14.6	0.00e+00	0	28	0	1735393280	63	4438
2026-01-04 22:58:14.82	137.28	19.77	-49.2	-50.5	14.6	0.00e+00	0	28	0	1738539008	63	4446
2026-01-04 22:58:15.83	137.46	19.68	-49.3	-50.5	14.6	0.00e+00	0	28	0	1741684736	63	4487
2026-01-04 22:58:16.84	137.63	19.59	-49.2	-50.4	14.6	0.00e+00	0	28	0	1744830464	63	4420
2026-01-04 22:58:17.85	137.81	19.50	-49.2	-50.4	14.6	0.00e+00	0	28	0	1747976192	63	4428
2026-01-04 22:58:18.85	137.98	19.41	-49.0	-50.2	14.7	0.00e+00	0	28	0	1751121920	63	4327
2026-01-04 22:58:19.86	138.16	19.31	-48.9	-50.1	14.7	0.00e+00	0	28	0	1754267648	63	4274
2026-01-04 22:58:20.87	138.33	19.22	-48.9	-50.1	14.7	0.00e+00	0	28	0	1757413376	63	4277
2026-01-04 22:58:21.88	138.50	19.13	-49.0	-50.3	14.6	0.00e+00	0	28	0	1760559104	63	4352
2026-01-04 22:58:22.89	138.67	19.04	-48.8	-50.0	14.7	0.00e+00	0	28	0	1763704832	63	4238
2026-01-04 22:58:23.90	138.84	18.95	-48.9	-50.1	14.7	0.00e+00	0	28	0	1766850560	63	4287
2026-01-04 22:58:24.91	139.01	18.86	-48.9	-50.1	14.7	0.00e+00	0	28	0	1769996288	63	4247
2026-01-04 22:58:25.92	139.18	18.76	-48.9	-50.1	14.7	0.00e+00	0	28	0	1773142016	63	4251
2026-01-04 22:58:26.93	139.34	18.67	-48.9	-50.2	14.7	0.00e+00	0	28	0	1776287744	63	4297
2026-01-04 22:58:27.94	139.51	18.58	-48.9	-50.1	14.7	0.00e+00	0	28	0	1779433472	63	4269
2026-01-04 22:58:28.95	139.67	18.49	-48.9	-50.1	14.7	0.00e+00	0	28	0	1782579200	63	4280
2026-01-04 22:58:29.95	139.83	18.40	-49.0	-50.2	14.7	0.00e+00	0	28	0	1785724928	63	4325
2026-01-04 22:58:30.96	140.00	18.31	-48.9	-50.1	14.7	0.00e+00	0	28	0	1788870656	63	4260
2026-01-04 22:58:31.97	140.16	18.22	-48.9	-50.2	14.7	0.00e+00	0	28	0	1792016384	63	4297
2026-01-04 22:58:32.98	140.32	18.13	-49.0	-50.2	14.6	0.00e+00	0	28	0	1795162112	63	4321
2026-01-04 22:58:33.99	140.48	18.04	-49.0	-50.2	14.6	0.00e+00	0	28	0	1798307840	63	4329
2026-01-04 22:58:35.00	140.64	17.95	-49.0	-50.2	14.6	0.00e+00	0	28	0	1801453568	63	4322
2026-01-04 22:58:36.01	140.80	17.86	-49.0	-50.2	14.6	0.00e+00	0	28	0	1804599296	63	4326
2026-01-04 22:58:37.02	140.95	17.77	-49.0	-50.2	14.7	0.00e+00	0	28	0	1807745024	63	4300
2026-01-04 22:58:38.03	141.11	17.68	-49.0	-50.3	14.6	0.00e+00	0	28	0	1810890752	63	4355
2026-01-04 22:58:39.03	141.26	17.59	-49.0	-50.2	14.7	0.00e+00	0	28	0	1814036480	63	4340
2026-01-04 22:58:40.04	141.42	17.50	-49.1	-50.3	14.6	0.00e+00	0	28	0	1817182208	63	4368
2026-01-04 22:58:41.05	141.57	17.41	-49.1	-50.3	14.6	0.00e+00	0	28	0	1821376512	63	4377
2026-01-04 22:58:42.06	141.73	17.32	-49.1	-50.3	14.6	0.00e+00	0	28	0	1823473664	63	4362
2026-01-04 22:58:43.07	141.88	17.23	-49.1	-50.4	14.6	0.00e+00	0	28	0	1826619392	63	4414
2026-01-04 22:58:44.08	142.03	17.14	-49.0	-50.3	14.6	0.00e+00	0	28	0	1829765120	63	4351
2026-01-04 22:58:45.09	142.18	17.05	-49.1	-50.4	14.6	0.00e+00	0	28	0	1832910848	63	4401
2026-01-04 22:58:46.10	142.33	16.96	-49.2	-50.4	14.6	0.00e+00	0	28	0	1836056576	63	4432
2026-01-04 22:58:47.11	142.48	16.87	-49.2	-50.4	14.6	0.00e+00	0	28	0	1840250880	63	4426
2026-01-04 22:58:48.12	142.62	16.79	-49.2	-50.5	14.6	0.00e+00	0	28	0	1843396608	63	4443
2026-01-04 22:58:49.13	142.77	16.70	-49.3	-50.5	14.6	0.00e+00	0	28	0	1845493760	63	4485
2026-01-04 22:58:50.14	142.92	16.61	-49.3	-50.6	14.5	0.00e+00	0	28	0	1848639488	63	4510
2026-01-04 22:58:51.15	143.06	16.52	-49.4	-50.7	14.5	0.00e+00	0	28	0	1851785216	63	4572
2026-01-04 22:58:52.16	143.21	16.43	-49.4	-50.7	14.5	0.00e+00	0	28	0	1855979520	64	4328
2026-01-04 22:58:53.16	143.35	16.35	-49.6	-50.9	14.5	0.00e+00	0	28	0	1859125248	64	4418
2026-01-04 22:58:54.17	143.49	16.26	-49.6	-50.9	14.5	0.00e+00	0	28	0	1862270976	64	4392
2026-01-04 22:58:55.19	143.63	16.17	-49.5	-50.8	14.5	0.00e+00	0	28	0	1865416704	64	4367
2026-01-04 22:58:56.19	143.77	16.08	-49.6	-50.9	14.5	0.00e+00	0	28	0	1868562432	64	4433
2026-01-04 22:58:57.20	143.91	16.00	-49.5	-50.8	14.5	0.00e+00	0	28	0	1871708160	64	4376
2026-01-04 22:58:58.22	144.05	15.91	-49.6	-50.8	14.5	0.00e+00	0	28	0	1874853888	64	4391
2026-01-04 22:58:59.22	144.19	15.82	-49.7	-51.1	14.4	0.00e+00	0	28	0	1877999616	64	4504
2026-01-04 22:59:00.23	144.33	15.73	-49.8	-51.1	14.4	0.00e+00	0	28	0	1881145344	64	4534
2026-01-04 22:59:01.24	144.47	15.65	-49.9	-51.3	14.4	0.00e+00	0	28	0	1884291072	65	4356
2026-01-04 22:59:02.25	144.60	15.56	-49.9	-51.2	14.5	0.00e+00	0	28	0	1887436800	65	4336
2026-01-04 22:59:03.25	144.74	15.48	-49.9	-51.2	14.5	0.00e+00	0	28	0	1890582528	65	4335
2026-01-04 22:59:04.26	144.87	15.39	-49.9	-51.2	14.5	0.00e+00	0	28	0	1893728256	65	4330
2026-01-04 22:59:05.27	145.01	15.30	-49.9	-51.2	14.5	0.00e+00	0	28	0	1896873984	65	4329
2026-01-04 22:59:06.28	145.14	15.22	-49.9	-51.2	14.4	0.00e+00	0	28	0	1900019712	65	4339
2026-01-04 22:59:07.29	145.27	15.13	-49.9	-51.2	14.4	0.00e+00	0	28	0	1903165440	65	4317
2026-01-04 22:59:08.30	145.41	15.05	-49.9	-51.3	14.4	0.00e+00	0	28	0	1906311168	65	4344
2026-01-04 22:59:09.31	145.54	14.96	-50.0	-51.3	14.4	0.00e+00	0	28	0	1909456896	65	4382
2026-01-04 22:59:10.32	145.67	14.88	-50.1	-51.5	14.4	0.00e+00	0	28	0	1912602624	65	4444
2026-01-04 22:59:11.33	145.80	14.79	-50.1	-51.5	14.3	0.00e+00	0	28	0	1915748352	65	4474
2026-01-04 22:59:12.34	145.93	14.71	-50.2	-51.6	14.3	0.00e+00	0	28	0	1918894080	65	4508
2026-01-04 22:59:13.35	146.05	14.62	-50.2	-51.6	14.3	0.00e+00	0	28	0	1922039808	65	4529
2026-01-04 22:59:14.36	146.18	14.54	-50.3	-51.7	14.3	0.00e+00	0	28	0	1925185536	65	4552
2026-01-04 22:59:15.38	146.31	14.45	-50.4	-51.8	14.2	0.00e+00	0	28	0	1928331264	65	4605
2026-01-04 22:59:16.38	146.44	14.37	-50.4	-51.8	14.2	0.00e+00	0	28	0	1931476992	65	4608
2026-01-04 22:59:17.39	146.56	14.28	-50.2	-51.6	14.3	0.00e+00	0	28	0	1934622720	65	4504
2026-01-04 22:59:18.41	146.69	14.20	-50.2	-51.6	14.3	0.00e+00	0	28	0	1937768448	65	4536
2026-01-04 22:59:19.41	146.81	14.12	-50.2	-51.6	14.3	0.00e+00	0	28	0	1940914176	65	4515
2026-01-04 22:59:20.43	146.94	14.03	-50.2	-51.6	14.3	0.00e+00	0	28	0	1944059904	65	4515
2026-01-04 22:59:21.44	147.06	13.95	-50.1	-51.5	14.4	0.00e+00	0	28	0	1947205632	65	4456
2026-01-04 22:59:22.45	147.18	13.87	-50.1	-51.5	14.4	0.00e+00	0	28	0	1950351360	65	4472
2026-01-04 22:59:23.46	147.30	13.78	-50.2	-51.5	14.3	0.00e+00	0	28	0	1953497088	65	4487
2026-01-04 22:59:24.47	147.42	13.70	-50.1	-51.5	14.3	0.00e+00	0	28	0	1956642816	65	4480
2026-01-04 22:59:25.48	147.54	13.62	-50.2	-51.6	14.3	0.00e+00	0	28	0	1959788544	65	4504
2026-01-04 22:59:26.48	147.66	13.53	-50.2	-51.6	14.3	0.00e+00	0	28	0	1962934272	65	4538
2026-01-04 22:59:27.49	147.78	13.45	-50.3	-51.7	14.3	0.00e+00	0	28	0	1966080000	65	4551
2026-01-04 22:59:28.50	147.90	13.37	-50.2	-51.6	14.3	0.00e+00	0	28	0	1969225728	65	4534
2026-01-04 22:59:29.51	148.02	13.29	-50.3	-51.7	14.2	0.00e+00	0	28	0	1972371456	65	4598
2026-01-04 22:59:30.52	148.13	13.21	-50.5	-51.9	14.3	0.00e+00	0	28	0	1975517184	66	4413
2026-01-04 22:59:31.54	148.25	13.12	-50.4	-51.8	14.3	0.00e+00	0	28	0	1978662912	66	4385
2026-01-04 22:59:32.54	148.37	13.04	-50.4	-51.8	14.3	0.00e+00	0	28	0	1981808640	66	4375
2026-01-04 22:59:33.55	148.48	12.96	-50.4	-51.8	14.3	0.00e+00	0	28	0	1984954368	66	4372
2026-01-04 22:59:34.56	148.60	12.88	-50.3	-51.7	14.3	0.00e+00	0	28	0	1988100096	66	4325
2026-01-04 22:59:35.57	148.71	12.80	-50.2	-51.6	14.4	0.00e+00	0	28	0	1991245824	66	4259
2026-01-04 22:59:36.58	148.82	12.72	-50.3	-51.7	14.4	0.00e+00	0	28	0	1994391552	66	4309
2026-01-04 22:59:37.59	148.94	12.64	-50.2	-51.6	14.4	0.00e+00	0	28	0	1997537280	66	4259
2026-01-04 22:59:38.60	149.05	12.56	-50.2	-51.6	14.4	0.00e+00	0	28	0	2000683008	66	4252
2026-01-04 22:59:39.61	149.16	12.48	-50.3	-51.7	14.4	0.00e+00	0	28	0	2003828736	66	4302
2026-01-04 22:59:40.62	149.27	12.40	-50.3	-51.7	14.3	0.00e+00	0	28	0	2006974464	66	4314
2026-01-04 22:59:41.63	149.38	12.32	-50.3	-51.7	14.3	0.00e+00	0	28	0	2010120192	66	4338
2026-01-04 22:59:42.64	149.49	12.24	-50.3	-51.7	14.4	0.00e+00	0	28	0	2013265920	66	4293
2026-01-04 22:59:43.65	149.60	12.16	-50.3	-51.7	14.3	0.00e+00	0	28	0	2016411648	66	4316
2026-01-04 22:59:44.66	149.71	12.08	-50.4	-51.8	14.3	0.00e+00	0	28	0	2019557376	66	4362
2026-01-04 22:59:45.67	149.82	12.00	-50.4	-51.8	14.3	0.00e+00	0	28	0	2022703104	66	4352
2026-01-04 22:59:46.68	149.93	11.92	-50.3	-51.7	14.3	0.00e+00	0	28	0	2025848832	66	4308
2026-01-04 22:59:47.68	150.03	11.84	-50.4	-51.8	14.3	0.00e+00	0	28	0	2028994560	66	4369
2026-01-04 22:59:48.68	150.14	11.76	-50.5	-51.9	14.3	0.00e+00	0	28	0	2032140288	66	4404
2026-01-04 22:59:49.70	150.25	11.68	-50.4	-51.8	14.3	0.00e+00	0	28	0	2035286016	66	4368
2026-01-04 22:59:50.70	150.35	11.60	-50.4	-51.9	14.3	0.00e+00	0	28	0	2038431744	66	4404
2026-01-04 22:59:51.71	150.45	11.53	-50.4	-51.8	14.3	0.00e+00	0	28	0	2041577472	66	4373
2026-01-04 22:59:52.72	150.56	11.45	-50.4	-51.9	14.3	0.00e+00	0	28	0	2044723200	66	4401
2026-01-04 22:59:53.73	150.66	11.37	-50.5	-51.9	14.3	0.00e+00	0	28	0	2047868928	66	4418
2026-01-04 22:59:54.74	150.77	11.29	-50.5	-51.9	14.2	0.00e+00	0	28	0	2051014656	66	4438
2026-01-04 22:59:55.75	150.87	11.21	-50.5	-51.9	14.2	0.00e+00	0	28	0	2054160384	66	4418
2026-01-04 22:59:56.76	150.97	11.14	-50.5	-52.0	14.2	0.00e+00	0	28	0	2057306112	66	4453
2026-01-04 22:59:57.76	151.07	11.06	-50.4	-51.9	14.3	0.00e+00	0	28	0	2060451840	66	4405
2026-01-04 22:59:58.77	151.17	10.98	-50.5	-51.9	14.2	0.00e+00	0	28	0	2063597568	66	4435
2026-01-04 22:59:59.78	151.27	10.91	-50.5	-51.9	14.2	0.00e+00	0	28	0	2066743296	66	4426
2026-01-04 23:00:00.79	151.38	10.83	-50.4	-51.9	14.2	0.00e+00	0	28	0	2069889024	66	4406
2026-01-04 23:00:01.80	151.47	10.75	-50.4	-51.8	14.3	0.00e+00	0	28	0	2073034752	66	4381
2026-01-04 23:00:02.81	151.57	10.68	-50.5	-52.0	14.2	0.00e+00	0	28	0	2076180480	66	4442
2026-01-04 23:00:03.82	151.67	10.60	-50.4	-51.9	14.2	0.00e+00	0	28	0	2079326208	66	4407
2026-01-04 23:00:04.83	151.77	10.52	-50.5	-51.9	14.2	0.00e+00	0	28	0	2082471936	66	4421
2026-01-04 23:00:05.84	151.87	10.45	-50.5	-51.9	14.2	0.00e+00	0	28	0	2085617664	66	4430
2026-01-04 23:00:06.85	151.97	10.37	-50.4	-51.8	14.2	0.00e+00	0	28	0	2088763392	66	4391
2026-01-04 23:00:07.86	152.06	10.30	-50.4	-51.8	14.2	0.00e+00	0	28	0	2091909120	66	4384
2026-01-04 23:00:08.86	152.16	10.22	-50.5	-51.9	14.2	0.00e+00	0	28	0	2095054848	66	4414
2026-01-04 23:00:09.88	152.26	10.14	-50.4	-51.9	14.2	0.00e+00	0	28	0	2098200576	66	4407
