passes_logs/2026/01/04/R3.2S_Murmansk/R3.2S_Murmansk__20260104_090500_NOAA_21_JPSS-2_rec.log

#Pass ID: 20260104_090500_NOAA 21 (JPSS-2)
#Satellite: NOAA 21 (JPSS-2)
#Configuration: NOAA-21
#almurnet v.1.7.20251203
#Start time: 2026-01-04 09:05:00

#Version: 2.2.20231116
#Station: R3.2S_Murmansk
#Location: 33.079688 lon 68.888172 lat
#TLE: 1 54234U 22150A   26003.94651505  .00000183  00000+0  10759-3 0  9990
#TLE: 2 54234  98.7488 304.9806 0001136 345.9488  14.1656 14.19531852163244

#Time	Az	El	Level	Level2	SNR	BER	BlckErr	Temp	State	Recorded	gain1	gain2
2026-01-04 09:05:00.45	141.27	1.97	-58.3	-72.1	3.8	1.49e+00	0	26	0	0	82	18066
2026-01-04 09:05:01.45	141.26	2.04	-58.3	-72.1	3.8	1.49e+00	0	27	104	0	81	19053
2026-01-04 09:05:02.46	141.25	2.10	-58.3	-72.1	3.8	1.49e+00	0	27	104	0	81	19037
2026-01-04 09:05:03.47	141.24	2.17	-58.3	-72.1	3.8	1.49e+00	0	27	104	0	81	19038
2026-01-04 09:05:04.48	141.23	2.23	-58.3	-72.1	3.8	1.49e+00	0	27	104	0	81	19082
2026-01-04 09:05:05.49	141.22	2.30	-58.3	-72.1	3.8	1.49e+00	0	27	104	0	81	19055
2026-01-04 09:05:06.50	141.22	2.36	-58.3	-72.1	3.8	1.49e+00	0	27	104	0	81	19095
2026-01-04 09:05:07.50	141.21	2.43	-58.3	-72.1	3.8	1.49e+00	0	27	104	0	81	19093
2026-01-04 09:05:08.51	141.20	2.49	-58.3	-72.1	3.8	1.49e+00	0	27	104	0	81	19049
2026-01-04 09:05:09.52	141.19	2.56	-58.3	-72.1	3.8	1.49e+00	0	27	104	0	81	19043
2026-01-04 09:05:10.53	141.18	2.63	-58.3	-72.1	3.8	1.49e+00	0	27	104	0	81	19050
2026-01-04 09:05:11.54	141.17	2.69	-58.3	-72.1	3.8	1.49e+00	0	27	104	0	81	19025
2026-01-04 09:05:12.55	141.16	2.76	-58.3	-72.1	3.8	1.49e+00	0	27	104	0	81	19024
2026-01-04 09:05:13.55	141.15	2.82	-58.3	-72.1	3.8	1.49e+00	0	27	104	0	81	18973
2026-01-04 09:05:14.56	141.14	2.89	-58.3	-72.0	3.8	1.49e+00	0	27	104	0	81	18879
2026-01-04 09:05:15.57	141.13	2.96	-58.3	-72.0	3.8	1.49e+00	0	27	104	0	81	18820
2026-01-04 09:05:16.57	141.12	3.02	-58.3	-72.0	3.8	1.49e+00	0	27	104	0	81	18758
2026-01-04 09:05:17.58	141.11	3.09	-58.3	-71.9	3.8	1.49e+00	0	27	104	0	81	18525
2026-01-04 09:05:18.59	141.10	3.16	-58.3	-71.7	3.8	1.49e+00	0	27	104	0	81	18295
2026-01-04 09:05:19.60	141.09	3.23	-58.3	-71.6	3.8	1.49e+00	0	27	104	0	81	17936
2026-01-04 09:05:20.61	141.09	3.29	-58.3	-71.4	3.8	1.49e+00	0	27	104	0	81	17541
2026-01-04 09:05:21.62	141.08	3.36	-58.2	-71.1	3.8	1.49e+00	0	27	104	0	81	16983
2026-01-04 09:05:22.63	141.07	3.43	-58.2	-70.4	3.9	1.49e+00	0	27	104	0	81	15750
2026-01-04 09:05:23.63	141.06	3.50	-58.2	-70.1	3.9	1.49e+00	0	27	104	0	81	15180
2026-01-04 09:05:24.64	141.05	3.57	-58.1	-69.3	4.0	1.48e+00	0	27	104	0	81	13763
2026-01-04 09:05:25.66	141.04	3.64	-58.0	-68.1	4.0	1.45e+00	0	27	104	0	81	11992
2026-01-04 09:05:26.66	141.03	3.70	-57.9	-67.2	4.6	1.24e+00	0	27	104	0	81	10803
2026-01-04 09:05:27.67	141.02	3.77	-57.7	-66.2	5.1	7.92e-01	0	27	0	0	81	9607
2026-01-04 09:05:28.68	141.01	3.84	-57.5	-65.1	5.7	3.90e-01	0	27	0	3145728	81	8465
2026-01-04 09:05:29.69	141.00	3.91	-57.2	-63.7	6.7	2.06e-01	0	27	0	6291456	81	7258
2026-01-04 09:05:30.70	140.98	3.98	-56.8	-62.3	7.8	6.05e-02	0	27	0	9437184	80	6535
2026-01-04 09:05:31.71	140.97	4.05	-56.5	-61.4	8.7	1.87e-02	0	27	0	12582912	79	6228
2026-01-04 09:05:32.71	140.96	4.12	-55.9	-59.9	9.9	6.43e-03	0	27	0	15728640	78	5574
2026-01-04 09:05:33.72	140.95	4.19	-55.5	-59.1	10.5	7.73e-04	0	27	0	18874368	77	5377
2026-01-04 09:05:34.73	140.94	4.26	-55.0	-58.2	11.2	8.23e-05	0	27	0	22020096	76	5103
2026-01-04 09:05:35.74	140.93	4.33	-54.6	-57.5	11.5	1.06e-05	0	27	0	25165824	75	5027
2026-01-04 09:05:36.75	140.92	4.40	-54.4	-57.2	11.7	6.10e-06	0	27	0	28311552	75	4859
2026-01-04 09:05:37.75	140.91	4.47	-54.1	-56.8	12.0	3.80e-06	0	27	0	31457280	74	4916
2026-01-04 09:05:38.76	140.90	4.54	-53.9	-56.5	12.2	7.00e-07	0	27	0	34603008	74	4710
2026-01-04 09:05:39.77	140.89	4.61	-53.9	-56.5	12.2	1.50e-06	0	27	0	37748736	74	4733
2026-01-04 09:05:40.78	140.88	4.68	-53.8	-56.3	12.4	0.00e+00	0	27	0	40894464	74	4603
2026-01-04 09:05:41.79	140.87	4.75	-53.9	-56.6	12.1	0.00e+00	0	27	0	44040192	73	5049
2026-01-04 09:05:42.80	140.86	4.83	-53.9	-56.5	12.2	0.00e+00	0	27	0	47185920	73	4996
2026-01-04 09:05:43.81	140.84	4.90	-54.2	-57.0	11.8	6.80e-06	0	27	0	50331648	73	5326
2026-01-04 09:05:44.82	140.83	4.97	-54.5	-57.5	11.5	1.14e-05	0	27	0	53477376	74	5317
2026-01-04 09:05:45.83	140.82	5.04	-54.8	-57.9	11.2	1.52e-05	0	28	0	56623104	74	5570
2026-01-04 09:05:46.84	140.81	5.11	-52.5	-54.4	13.4	0.00e+00	0	27	0	59768832	71	4439
2026-01-04 09:05:47.85	140.80	5.19	-57.8	-65.9	5.4	2.55e-03	0	28	0	62914560	80	9884
2026-01-04 09:05:48.86	140.79	5.26	-53.7	-56.1	12.5	5.56e-05	0	28	0	62914560	74	4533
2026-01-04 09:05:49.87	140.78	5.33	-52.8	-54.9	13.2	0.00e+00	0	27	0	66060288	71	4654
2026-01-04 09:05:50.87	140.76	5.40	-57.5	-65.7	5.4	7.99e-02	0	28	0	69206016	80	9658
2026-01-04 09:05:51.88	140.75	5.48	-52.6	-54.6	13.2	9.02e-02	0	28	0	70254592	71	4495
2026-01-04 09:05:52.88	140.74	5.55	-52.4	-54.4	13.4	0.00e+00	0	28	0	73400320	71	4404
2026-01-04 09:05:53.89	140.73	5.62	-52.5	-54.5	13.4	0.00e+00	0	28	0	76546048	71	4444
2026-01-04 09:05:54.90	140.72	5.70	-52.1	-54.0	13.5	0.00e+00	0	28	0	79691776	70	4446
2026-01-04 09:05:55.91	140.70	5.77	-52.4	-54.4	13.3	0.00e+00	0	28	0	82837504	70	4678
2026-01-04 09:05:56.92	140.69	5.85	-52.3	-54.2	13.5	0.00e+00	0	28	0	85983232	70	4560
2026-01-04 09:05:57.93	140.68	5.92	-52.2	-54.1	13.5	0.00e+00	0	28	0	89128960	70	4524
2026-01-04 09:05:58.94	140.67	6.00	-52.1	-53.9	13.6	0.00e+00	0	28	0	92274688	70	4406
2026-01-04 09:05:59.95	140.66	6.07	-52.2	-54.0	13.6	0.00e+00	0	28	0	95420416	70	4483
2026-01-04 09:06:00.95	140.64	6.15	-52.1	-54.0	13.6	0.00e+00	0	28	0	98566144	70	4444
2026-01-04 09:06:01.96	140.63	6.22	-51.9	-53.7	13.8	0.00e+00	0	28	0	101711872	70	4310
2026-01-04 09:06:02.97	140.62	6.30	-51.9	-53.7	13.8	0.00e+00	0	28	0	104857600	70	4299
2026-01-04 09:06:03.98	140.61	6.37	-51.9	-53.6	13.8	0.00e+00	0	28	0	108003328	70	4265
2026-01-04 09:06:04.99	140.59	6.45	-51.8	-53.6	13.8	0.00e+00	0	28	0	111149056	70	4251
2026-01-04 09:06:06.00	140.58	6.53	-51.8	-53.5	13.8	0.00e+00	0	28	0	114294784	70	4237
2026-01-04 09:06:07.01	140.57	6.60	-51.9	-53.6	13.8	0.00e+00	0	28	0	117440512	70	4257
2026-01-04 09:06:08.01	140.55	6.68	-51.7	-53.4	13.9	0.00e+00	0	28	0	120586240	70	4187
2026-01-04 09:06:09.02	140.54	6.75	-51.9	-53.6	13.8	0.00e+00	0	28	0	123731968	70	4280
2026-01-04 09:06:10.03	140.53	6.83	-52.0	-53.7	13.8	0.00e+00	0	28	0	126877696	70	4314
2026-01-04 09:06:11.04	140.51	6.91	-51.9	-53.7	13.8	0.00e+00	0	28	0	130023424	70	4301
2026-01-04 09:06:12.05	140.50	6.99	-51.8	-53.5	13.9	0.00e+00	0	28	0	133169152	70	4216
2026-01-04 09:06:13.05	140.49	7.06	-51.7	-53.4	14.0	0.00e+00	0	28	0	136314880	70	4158
2026-01-04 09:06:14.06	140.47	7.14	-51.5	-53.2	14.0	0.00e+00	0	28	0	139460608	69	4306
2026-01-04 09:06:15.07	140.46	7.22	-51.7	-53.4	13.9	0.00e+00	0	28	0	142606336	69	4405
2026-01-04 09:06:16.08	140.45	7.30	-51.6	-53.3	13.9	0.00e+00	0	28	0	145752064	69	4379
2026-01-04 09:06:17.09	140.43	7.38	-51.6	-53.3	13.9	0.00e+00	0	28	0	148897792	69	4359
2026-01-04 09:06:18.10	140.42	7.46	-51.6	-53.3	13.9	0.00e+00	0	28	0	152043520	69	4366
2026-01-04 09:06:19.11	140.40	7.54	-51.6	-53.3	13.9	0.00e+00	0	28	0	155189248	69	4368
2026-01-04 09:06:20.11	140.39	7.62	-51.6	-53.2	14.0	0.00e+00	0	28	0	158334976	69	4318
2026-01-04 09:06:21.12	140.38	7.70	-51.5	-53.1	14.0	0.00e+00	0	28	0	161480704	69	4266
2026-01-04 09:06:22.13	140.36	7.78	-51.3	-52.9	14.1	0.00e+00	0	28	0	164626432	69	4183
2026-01-04 09:06:23.13	140.35	7.86	-51.2	-52.8	14.2	0.00e+00	0	28	0	167772160	69	4127
2026-01-04 09:06:24.14	140.33	7.94	-51.3	-52.8	14.2	0.00e+00	0	28	0	170917888	69	4137
2026-01-04 09:06:25.15	140.32	8.02	-51.3	-52.9	14.1	0.00e+00	0	28	0	174063616	69	4148
2026-01-04 09:06:26.15	140.30	8.10	-51.2	-52.7	14.2	0.00e+00	0	28	0	177209344	69	4092
2026-01-04 09:06:27.15	140.29	8.18	-51.2	-52.7	14.1	0.00e+00	0	28	0	180355072	68	4319
2026-01-04 09:06:28.16	140.27	8.26	-51.1	-52.6	14.2	0.00e+00	0	28	0	183500800	68	4279
2026-01-04 09:06:29.17	140.26	8.34	-51.2	-52.7	14.1	0.00e+00	0	28	0	186646528	68	4332
2026-01-04 09:06:30.17	140.24	8.42	-51.1	-52.6	14.2	0.00e+00	0	28	0	189792256	68	4289
2026-01-04 09:06:31.18	140.23	8.50	-51.0	-52.5	14.2	0.00e+00	0	28	0	192937984	68	4239
2026-01-04 09:06:32.19	140.21	8.59	-51.1	-52.6	14.2	0.00e+00	0	28	0	196083712	68	4250
2026-01-04 09:06:33.20	140.20	8.67	-51.0	-52.6	14.2	0.00e+00	0	28	0	199229440	68	4251
2026-01-04 09:06:34.21	140.18	8.75	-51.0	-52.4	14.3	0.00e+00	0	28	0	202375168	68	4186
2026-01-04 09:06:35.22	140.17	8.84	-51.0	-52.5	14.2	0.00e+00	0	28	0	205520896	68	4239
2026-01-04 09:06:36.22	140.15	8.92	-51.0	-52.5	14.2	0.00e+00	0	28	0	208666624	68	4220
2026-01-04 09:06:37.24	140.13	9.01	-51.0	-52.5	14.2	0.00e+00	0	28	0	211812352	68	4214
2026-01-04 09:06:38.24	140.12	9.09	-50.8	-52.2	14.4	0.00e+00	0	28	0	216006656	68	4093
2026-01-04 09:06:39.25	140.10	9.17	-50.8	-52.2	14.4	0.00e+00	0	28	0	218103808	68	4089
2026-01-04 09:06:40.26	140.09	9.26	-50.8	-52.3	14.4	0.00e+00	0	28	0	221249536	68	4102
2026-01-04 09:06:41.26	140.07	9.34	-51.0	-52.5	14.3	0.00e+00	0	28	0	224395264	68	4196
2026-01-04 09:06:42.27	140.05	9.43	-50.8	-52.3	14.3	0.00e+00	0	28	0	227540992	68	4105
2026-01-04 09:06:43.28	140.04	9.51	-50.8	-52.3	14.4	0.00e+00	0	28	0	230686720	68	4106
2026-01-04 09:06:44.29	140.02	9.60	-50.5	-51.9	14.4	0.00e+00	0	28	0	233832448	67	4169
2026-01-04 09:06:45.29	140.00	9.69	-50.5	-51.9	14.3	0.00e+00	0	28	0	238026752	67	4183
2026-01-04 09:06:46.30	139.99	9.77	-50.5	-51.9	14.4	0.00e+00	0	28	0	240123904	67	4183
2026-01-04 09:06:47.31	139.97	9.86	-50.5	-51.9	14.4	0.00e+00	0	28	0	243269632	67	4164
2026-01-04 09:06:48.32	139.95	9.95	-50.5	-52.0	14.4	0.00e+00	0	28	0	246415360	67	4206
2026-01-04 09:06:49.32	139.93	10.03	-50.3	-51.7	14.5	0.00e+00	0	28	0	249561088	67	4088
2026-01-04 09:06:50.33	139.92	10.12	-50.4	-51.8	14.4	0.00e+00	0	28	0	252706816	67	4116
2026-01-04 09:06:51.34	139.90	10.21	-50.4	-51.8	14.4	0.00e+00	0	28	0	255852544	67	4132
2026-01-04 09:06:52.35	139.88	10.30	-50.4	-51.8	14.4	0.00e+00	0	28	0	260046848	67	4143
2026-01-04 09:06:53.36	139.86	10.39	-50.3	-51.7	14.5	0.00e+00	0	28	0	263192576	67	4070
2026-01-04 09:06:54.37	139.85	10.48	-50.2	-51.6	14.5	0.00e+00	0	28	0	265289728	67	4033
2026-01-04 09:06:55.38	139.83	10.57	-50.3	-51.7	14.5	0.00e+00	0	28	0	268435456	67	4056
2026-01-04 09:06:56.38	139.81	10.65	-50.3	-51.7	14.5	0.00e+00	0	28	0	271581184	67	4065
2026-01-04 09:06:57.39	139.79	10.74	-50.3	-51.7	14.5	0.00e+00	0	28	0	275775488	67	4061
2026-01-04 09:06:58.40	139.77	10.83	-50.2	-51.6	14.5	0.00e+00	0	28	0	278921216	67	4031
2026-01-04 09:06:59.41	139.76	10.93	-50.3	-51.7	14.5	0.00e+00	0	28	0	282066944	67	4059
2026-01-04 09:07:00.41	139.74	11.02	-50.2	-51.6	14.5	0.00e+00	0	28	0	285212672	67	4042
2026-01-04 09:07:01.42	139.72	11.11	-50.2	-51.5	14.6	0.00e+00	0	28	0	287309824	67	4002
2026-01-04 09:07:02.43	139.70	11.20	-50.2	-51.5	14.4	0.00e+00	0	28	0	290455552	66	4235
2026-01-04 09:07:03.44	139.68	11.29	-50.1	-51.5	14.5	0.00e+00	0	28	0	293601280	66	4203
2026-01-04 09:07:04.45	139.66	11.38	-50.1	-51.5	14.5	0.00e+00	0	28	0	297795584	66	4194
2026-01-04 09:07:05.46	139.64	11.48	-50.2	-51.5	14.5	0.00e+00	0	28	0	300941312	66	4230
2026-01-04 09:07:06.47	139.62	11.57	-50.0	-51.4	14.5	0.00e+00	0	28	0	304087040	66	4170
2026-01-04 09:07:07.48	139.60	11.66	-50.0	-51.4	14.5	0.00e+00	0	28	0	307232768	66	4155
2026-01-04 09:07:08.48	139.58	11.76	-50.1	-51.4	14.5	0.00e+00	0	28	0	310378496	66	4186
2026-01-04 09:07:09.49	139.56	11.85	-50.0	-51.3	14.5	0.00e+00	0	28	0	312475648	66	4141
2026-01-04 09:07:10.50	139.54	11.94	-50.0	-51.4	14.5	0.00e+00	0	28	0	316669952	66	4151
2026-01-04 09:07:11.51	139.52	12.04	-50.1	-51.4	14.5	0.00e+00	0	28	0	319815680	66	4176
2026-01-04 09:07:12.52	139.50	12.14	-50.0	-51.4	14.5	0.00e+00	0	28	0	322961408	66	4170
2026-01-04 09:07:13.53	139.48	12.23	-50.0	-51.3	14.6	0.00e+00	0	28	0	326107136	66	4122
2026-01-04 09:07:14.54	139.46	12.33	-49.9	-51.3	14.6	0.00e+00	0	28	0	329252864	66	4109
2026-01-04 09:07:15.55	139.44	12.42	-49.9	-51.2	14.6	0.00e+00	0	28	0	332398592	66	4096
2026-01-04 09:07:16.56	139.42	12.52	-49.8	-51.2	14.6	0.00e+00	0	28	0	335544320	66	4063
2026-01-04 09:07:17.56	139.40	12.62	-49.9	-51.3	14.6	0.00e+00	0	28	0	338690048	66	4107
2026-01-04 09:07:18.56	139.37	12.71	-49.9	-51.2	14.6	0.00e+00	0	28	0	341835776	66	4076
2026-01-04 09:07:19.57	139.35	12.81	-49.9	-51.2	14.6	0.00e+00	0	28	0	344981504	66	4096
2026-01-04 09:07:20.58	139.33	12.91	-49.9	-51.2	14.6	0.00e+00	0	28	0	348127232	66	4073
2026-01-04 09:07:21.59	139.31	13.01	-49.9	-51.2	14.6	0.00e+00	0	28	0	351272960	66	4065
2026-01-04 09:07:22.59	139.29	13.11	-49.9	-51.2	14.6	0.00e+00	0	28	0	354418688	66	4098
2026-01-04 09:07:23.60	139.27	13.21	-49.8	-51.1	14.7	0.00e+00	0	28	0	357564416	66	4041
2026-01-04 09:07:24.61	139.24	13.31	-49.8	-51.1	14.6	0.00e+00	0	28	0	360710144	66	4049
2026-01-04 09:07:25.62	139.22	13.41	-49.9	-51.2	14.6	0.00e+00	0	28	0	363855872	66	4083
2026-01-04 09:07:26.63	139.20	13.51	-49.8	-51.1	14.7	0.00e+00	0	28	0	367001600	66	4036
2026-01-04 09:07:27.64	139.17	13.61	-49.8	-51.1	14.7	0.00e+00	0	28	0	370147328	66	4040
2026-01-04 09:07:28.64	139.15	13.71	-49.8	-51.1	14.7	0.00e+00	0	28	0	373293056	66	4030
2026-01-04 09:07:29.65	139.13	13.81	-49.9	-51.2	14.6	0.00e+00	0	28	0	376438784	66	4068
2026-01-04 09:07:30.66	139.10	13.91	-49.8	-51.1	14.7	0.00e+00	0	28	0	379584512	66	4016
2026-01-04 09:07:31.66	139.08	14.01	-49.7	-51.0	14.7	0.00e+00	0	28	0	382730240	66	3977
2026-01-04 09:07:32.67	139.06	14.12	-49.7	-51.0	14.7	0.00e+00	0	28	0	385875968	66	4004
2026-01-04 09:07:33.68	139.03	14.22	-49.8	-51.0	14.7	0.00e+00	0	28	0	389021696	66	4004
2026-01-04 09:07:34.69	139.01	14.33	-49.7	-51.0	14.7	0.00e+00	0	28	0	392167424	66	3976
2026-01-04 09:07:35.70	138.98	14.43	-49.6	-50.9	14.7	0.00e+00	0	28	0	395313152	65	4168
2026-01-04 09:07:36.71	138.96	14.53	-49.7	-51.0	14.6	0.00e+00	0	28	0	398458880	65	4213
2026-01-04 09:07:37.72	138.93	14.64	-49.6	-50.8	14.7	0.00e+00	0	28	0	401604608	65	4144
2026-01-04 09:07:38.72	138.91	14.75	-49.5	-50.8	14.7	0.00e+00	0	28	0	404750336	65	4130
2026-01-04 09:07:39.74	138.88	14.85	-49.6	-50.9	14.7	0.00e+00	0	28	0	407896064	65	4174
2026-01-04 09:07:40.74	138.86	14.96	-49.6	-50.9	14.7	0.00e+00	0	28	0	411041792	65	4160
2026-01-04 09:07:41.75	138.83	15.07	-49.5	-50.7	14.7	0.00e+00	0	28	0	414187520	65	4094
2026-01-04 09:07:42.75	138.81	15.17	-49.6	-50.9	14.7	0.00e+00	0	28	0	417333248	65	4147
2026-01-04 09:07:43.76	138.78	15.28	-49.5	-50.8	14.7	0.00e+00	0	28	0	420478976	65	4119
2026-01-04 09:07:44.77	138.76	15.39	-49.5	-50.8	14.7	0.00e+00	0	28	0	423624704	65	4127
2026-01-04 09:07:45.78	138.73	15.50	-49.6	-50.9	14.7	0.00e+00	0	28	0	426770432	65	4154
2026-01-04 09:07:46.79	138.70	15.61	-49.5	-50.7	14.7	0.00e+00	0	28	0	429916160	65	4084
2026-01-04 09:07:47.80	138.68	15.72	-49.6	-50.8	14.7	0.00e+00	0	28	0	433061888	65	4136
2026-01-04 09:07:48.81	138.65	15.83	-49.5	-50.8	14.7	0.00e+00	0	28	0	436207616	65	4123
2026-01-04 09:07:49.81	138.62	15.94	-49.5	-50.8	14.7	0.00e+00	0	28	0	439353344	65	4129
2026-01-04 09:07:50.83	138.59	16.05	-49.6	-50.8	14.7	0.00e+00	0	28	0	442499072	65	4136
2026-01-04 09:07:51.84	138.56	16.16	-49.5	-50.8	14.7	0.00e+00	0	28	0	445644800	65	4103
2026-01-04 09:07:52.85	138.54	16.28	-49.5	-50.8	14.7	0.00e+00	0	28	0	448790528	65	4109
2026-01-04 09:07:53.84	138.51	16.39	-49.5	-50.8	14.7	0.00e+00	0	28	0	451936256	65	4105
2026-01-04 09:07:54.85	138.48	16.50	-49.5	-50.8	14.7	0.00e+00	0	28	0	455081984	65	4123
2026-01-04 09:07:55.86	138.45	16.62	-49.5	-50.8	14.7	0.00e+00	0	28	0	458227712	65	4126
2026-01-04 09:07:56.87	138.42	16.73	-49.6	-50.8	14.7	0.00e+00	0	28	0	461373440	65	4145
2026-01-04 09:07:57.88	138.39	16.85	-49.5	-50.8	14.7	0.00e+00	0	28	0	464519168	65	4121
2026-01-04 09:07:58.88	138.36	16.96	-49.6	-50.8	14.7	0.00e+00	0	28	0	467664896	65	4136
2026-01-04 09:07:59.89	138.33	17.08	-49.5	-50.8	14.7	0.00e+00	0	28	0	470810624	65	4107
2026-01-04 09:08:00.90	138.30	17.19	-49.6	-50.9	14.7	0.00e+00	0	28	0	473956352	65	4155
2026-01-04 09:08:01.91	138.27	17.31	-49.6	-50.8	14.7	0.00e+00	0	28	0	477102080	65	4135
2026-01-04 09:08:02.91	138.24	17.43	-49.5	-50.8	14.7	0.00e+00	0	28	0	480247808	65	4121
2026-01-04 09:08:03.92	138.21	17.55	-49.6	-50.8	14.7	0.00e+00	0	28	0	483393536	65	4140
2026-01-04 09:08:04.93	138.18	17.67	-49.6	-50.8	14.7	0.00e+00	0	28	0	486539264	65	4134
2026-01-04 09:08:05.94	138.15	17.78	-49.6	-50.8	14.7	0.00e+00	0	28	0	489684992	65	4144
2026-01-04 09:08:06.95	138.12	17.91	-49.6	-50.9	14.7	0.00e+00	0	28	0	492830720	65	4164
2026-01-04 09:08:07.96	138.09	18.03	-49.6	-50.9	14.7	0.00e+00	0	28	0	495976448	65	4177
2026-01-04 09:08:08.97	138.05	18.15	-49.6	-50.9	14.7	0.00e+00	0	28	0	499122176	65	4181
2026-01-04 09:08:09.98	138.02	18.27	-49.7	-51.0	14.6	0.00e+00	0	28	0	502267904	65	4203
2026-01-04 09:08:10.99	137.99	18.39	-49.7	-51.0	14.6	0.00e+00	0	28	0	505413632	65	4234
2026-01-04 09:08:12.00	137.96	18.52	-49.7	-51.0	14.6	0.00e+00	0	28	0	508559360	65	4202
2026-01-04 09:08:13.01	137.92	18.64	-49.7	-51.0	14.6	0.00e+00	0	28	0	511705088	65	4233
2026-01-04 09:08:14.02	137.89	18.76	-49.8	-51.1	14.6	0.00e+00	0	28	0	514850816	65	4244
2026-01-04 09:08:15.03	137.85	18.89	-49.7	-51.0	14.6	0.00e+00	0	28	0	517996544	65	4200
2026-01-04 09:08:16.04	137.82	19.01	-49.7	-50.9	14.7	0.00e+00	0	28	0	521142272	65	4192
2026-01-04 09:08:17.04	137.79	19.14	-49.7	-51.0	14.6	0.00e+00	0	28	0	524288000	65	4210
2026-01-04 09:08:18.05	137.75	19.27	-49.8	-51.1	14.6	0.00e+00	0	28	0	527433728	65	4250
2026-01-04 09:08:19.06	137.72	19.39	-49.6	-50.9	14.7	0.00e+00	0	28	0	530579456	65	4167
2026-01-04 09:08:20.07	137.68	19.52	-49.7	-51.0	14.7	0.00e+00	0	28	0	533725184	65	4197
2026-01-04 09:08:21.07	137.64	19.65	-49.7	-51.0	14.6	0.00e+00	0	28	0	536870912	65	4219
2026-01-04 09:08:22.08	137.61	19.78	-49.5	-50.8	14.7	0.00e+00	0	28	0	540016640	65	4130
2026-01-04 09:08:23.09	137.57	19.91	-49.5	-50.8	14.7	0.00e+00	0	28	0	543162368	65	4119
2026-01-04 09:08:24.09	137.53	20.04	-49.6	-50.8	14.7	0.00e+00	0	28	0	546308096	65	4136
2026-01-04 09:08:25.10	137.50	20.17	-49.5	-50.7	14.8	0.00e+00	0	28	0	549453824	65	4089
2026-01-04 09:08:26.11	137.46	20.30	-49.4	-50.7	14.8	0.00e+00	0	28	0	552599552	65	4074
2026-01-04 09:08:27.12	137.42	20.44	-49.4	-50.6	14.8	0.00e+00	0	28	0	555745280	65	4039
2026-01-04 09:08:28.13	137.38	20.57	-49.4	-50.6	14.8	0.00e+00	0	28	0	558891008	65	4040
2026-01-04 09:08:29.13	137.34	20.70	-49.4	-50.6	14.8	0.00e+00	0	28	0	562036736	65	4032
2026-01-04 09:08:30.14	137.31	20.84	-49.3	-50.5	14.8	0.00e+00	0	28	0	565182464	65	4003
2026-01-04 09:08:31.15	137.27	20.97	-49.3	-50.5	14.8	0.00e+00	0	28	0	568328192	65	3998
2026-01-04 09:08:32.16	137.23	21.11	-49.1	-50.3	14.8	0.00e+00	0	28	0	571473920	64	4112
2026-01-04 09:08:33.17	137.19	21.25	-48.9	-50.1	14.9	0.00e+00	0	28	0	574619648	64	4030
2026-01-04 09:08:34.17	137.15	21.38	-48.9	-50.1	14.9	0.00e+00	0	28	0	577765376	64	4026
2026-01-04 09:08:35.18	137.10	21.52	-48.9	-50.1	14.9	0.00e+00	0	28	0	580911104	64	4037
2026-01-04 09:08:36.19	137.06	21.66	-48.9	-50.1	14.9	0.00e+00	0	28	0	584056832	64	4046
2026-01-04 09:08:37.20	137.02	21.80	-48.8	-49.9	15.0	0.00e+00	0	28	0	587202560	64	3956
2026-01-04 09:08:38.21	136.98	21.94	-48.7	-49.9	15.0	0.00e+00	0	28	0	590348288	64	3931
2026-01-04 09:08:39.22	136.94	22.08	-48.7	-49.8	14.9	0.00e+00	0	28	0	593494016	63	4143
2026-01-04 09:08:40.23	136.89	22.23	-48.6	-49.8	14.9	0.00e+00	0	28	0	596639744	63	4107
2026-01-04 09:08:41.23	136.85	22.37	-48.4	-49.6	15.0	0.00e+00	0	28	0	599785472	63	4027
2026-01-04 09:08:42.23	136.81	22.51	-48.5	-49.6	15.0	0.00e+00	0	28	0	602931200	63	4043
2026-01-04 09:08:43.24	136.76	22.65	-48.3	-49.4	15.0	0.00e+00	0	28	0	606076928	63	3956
2026-01-04 09:08:44.25	136.72	22.80	-48.3	-49.4	15.0	0.00e+00	0	28	0	609222656	63	3958
2026-01-04 09:08:45.25	136.67	22.94	-48.2	-49.4	15.0	0.00e+00	0	28	0	612368384	63	3927
2026-01-04 09:08:46.26	136.63	23.09	-48.4	-49.5	15.0	0.00e+00	0	28	0	615514112	63	3984
2026-01-04 09:08:47.27	136.58	23.24	-48.3	-49.4	15.0	0.00e+00	0	28	0	618659840	63	3941
2026-01-04 09:08:48.28	136.53	23.39	-48.2	-49.4	15.1	0.00e+00	0	28	0	621805568	63	3930
2026-01-04 09:08:49.29	136.49	23.54	-48.3	-49.5	15.0	0.00e+00	0	28	0	624951296	63	3962
2026-01-04 09:08:50.30	136.44	23.69	-48.3	-49.4	15.0	0.00e+00	0	28	0	628097024	63	3942
2026-01-04 09:08:51.31	136.39	23.84	-48.1	-49.2	15.0	0.00e+00	0	28	0	631242752	62	4094
2026-01-04 09:08:52.33	136.34	23.99	-48.1	-49.2	15.0	0.00e+00	0	28	0	634388480	62	4096
2026-01-04 09:08:53.33	136.29	24.14	-48.1	-49.2	15.0	0.00e+00	0	28	0	637534208	62	4096
2026-01-04 09:08:54.34	136.24	24.30	-48.1	-49.2	15.0	0.00e+00	0	28	0	640679936	62	4096
2026-01-04 09:08:55.35	136.19	24.45	-48.2	-49.3	15.0	0.00e+00	0	28	0	643825664	62	4123
2026-01-04 09:08:56.36	136.14	24.61	-48.3	-49.4	14.9	0.00e+00	0	28	0	646971392	62	4187
2026-01-04 09:08:57.37	136.09	24.77	-48.3	-49.4	14.9	0.00e+00	0	28	0	650117120	62	4179
2026-01-04 09:08:58.38	136.04	24.92	-48.4	-49.5	14.9	0.00e+00	0	28	0	653262848	62	4220
2026-01-04 09:08:59.39	135.99	25.08	-48.4	-49.6	14.9	0.00e+00	0	28	0	656408576	62	4253
2026-01-04 09:09:00.40	135.94	25.24	-48.5	-49.7	14.9	0.00e+00	0	28	0	659554304	62	4320
2026-01-04 09:09:01.41	135.88	25.40	-48.5	-49.7	14.8	0.00e+00	0	28	0	662700032	62	4319
2026-01-04 09:09:02.42	135.83	25.56	-48.6	-49.8	14.8	0.00e+00	0	28	0	665845760	62	4358
2026-01-04 09:09:03.42	135.77	25.72	-48.8	-49.9	14.8	0.00e+00	0	28	0	668991488	62	4439
2026-01-04 09:09:04.43	135.72	25.89	-48.9	-50.0	14.8	0.00e+00	0	28	0	672137216	62	4492
2026-01-04 09:09:05.44	135.66	26.05	-48.9	-50.1	14.8	0.00e+00	0	28	0	675282944	63	4276
2026-01-04 09:09:06.45	135.61	26.22	-49.1	-50.3	14.8	0.00e+00	0	28	0	678428672	63	4345
2026-01-04 09:09:07.46	135.55	26.38	-49.0	-50.2	14.8	0.00e+00	0	28	0	681574400	63	4301
2026-01-04 09:09:08.47	135.49	26.55	-49.1	-50.3	14.7	0.00e+00	0	28	0	684720128	63	4382
2026-01-04 09:09:09.48	135.43	26.72	-49.1	-50.3	14.8	0.00e+00	0	28	0	687865856	63	4375
2026-01-04 09:09:10.49	135.37	26.89	-49.2	-50.4	14.7	0.00e+00	0	28	0	691011584	63	4434
2026-01-04 09:09:11.50	135.31	27.06	-49.2	-50.4	14.7	0.00e+00	0	28	0	694157312	63	4441
2026-01-04 09:09:12.50	135.26	27.22	-49.4	-50.6	14.7	0.00e+00	0	28	0	697303040	63	4522
2026-01-04 09:09:13.51	135.19	27.40	-49.4	-50.7	14.7	0.00e+00	0	28	0	700448768	64	4298
2026-01-04 09:09:14.52	135.13	27.57	-49.4	-50.6	14.7	0.00e+00	0	28	0	703594496	64	4276
2026-01-04 09:09:15.54	135.07	27.75	-49.3	-50.5	14.8	0.00e+00	0	28	0	706740224	64	4226
2026-01-04 09:09:16.55	135.01	27.92	-49.5	-50.7	14.7	0.00e+00	0	28	0	709885952	64	4301
2026-01-04 09:09:17.56	134.94	28.10	-49.5	-50.7	14.7	0.00e+00	0	28	0	713031680	64	4301
2026-01-04 09:09:18.57	134.88	28.28	-49.4	-50.7	14.7	0.00e+00	0	28	0	716177408	64	4293
2026-01-04 09:09:19.58	134.81	28.45	-49.4	-50.6	14.7	0.00e+00	0	28	0	719323136	64	4275
2026-01-04 09:09:20.58	134.75	28.63	-49.5	-50.7	14.7	0.00e+00	0	28	0	722468864	64	4330
2026-01-04 09:09:21.59	134.68	28.81	-49.5	-50.7	14.7	0.00e+00	0	28	0	725614592	64	4333
2026-01-04 09:09:22.60	134.61	28.99	-49.5	-50.7	14.7	0.00e+00	0	28	0	728760320	64	4311
2026-01-04 09:09:23.61	134.54	29.18	-49.5	-50.7	14.7	0.00e+00	0	28	0	731906048	64	4337
2026-01-04 09:09:24.61	134.47	29.36	-49.6	-50.9	14.7	0.00e+00	0	28	0	735051776	64	4395
2026-01-04 09:09:25.62	134.40	29.54	-49.7	-51.0	14.6	0.00e+00	0	28	0	738197504	64	4451
2026-01-04 09:09:26.63	134.33	29.73	-49.8	-51.1	14.6	0.00e+00	0	28	0	741343232	64	4506
2026-01-04 09:09:27.63	134.26	29.92	-49.6	-50.9	14.7	0.00e+00	0	28	0	744488960	64	4403
2026-01-04 09:09:28.63	134.19	30.10	-49.6	-50.8	14.7	0.00e+00	0	28	0	747634688	64	4378
2026-01-04 09:09:29.64	134.12	30.29	-49.5	-50.8	14.7	0.00e+00	0	28	0	750780416	64	4361
2026-01-04 09:09:30.64	134.04	30.48	-49.4	-50.6	14.7	0.00e+00	0	28	0	753926144	64	4260
2026-01-04 09:09:31.65	133.97	30.68	-49.3	-50.5	14.8	0.00e+00	0	28	0	757071872	64	4242
2026-01-04 09:09:32.65	133.89	30.87	-49.3	-50.5	14.7	0.00e+00	0	28	0	760217600	64	4235
2026-01-04 09:09:33.66	133.81	31.06	-49.3	-50.5	14.8	0.00e+00	0	28	0	763363328	64	4205
2026-01-04 09:09:34.66	133.74	31.26	-49.3	-50.5	14.8	0.00e+00	0	28	0	766509056	64	4206
2026-01-04 09:09:35.67	133.66	31.45	-49.1	-50.3	14.8	0.00e+00	0	28	0	769654784	64	4132
2026-01-04 09:09:36.68	133.58	31.65	-49.2	-50.3	14.8	0.00e+00	0	28	0	772800512	64	4139
2026-01-04 09:09:37.69	133.50	31.85	-49.2	-50.4	14.8	0.00e+00	0	28	0	775946240	64	4183
2026-01-04 09:09:38.70	133.41	32.05	-49.4	-50.6	14.8	0.00e+00	0	28	0	779091968	64	4250
2026-01-04 09:09:39.71	133.33	32.26	-49.5	-50.7	14.7	0.00e+00	0	28	0	782237696	64	4300
2026-01-04 09:09:40.72	133.24	32.46	-49.6	-50.8	14.7	0.00e+00	0	28	0	785383424	64	4391
2026-01-04 09:09:41.73	133.16	32.67	-49.6	-50.8	14.7	0.00e+00	0	28	0	788529152	64	4365
2026-01-04 09:09:42.73	133.07	32.87	-49.6	-50.9	14.7	0.00e+00	0	28	0	791674880	64	4405
2026-01-04 09:09:43.74	132.99	33.08	-49.7	-51.0	14.6	0.00e+00	0	28	0	794820608	64	4459
2026-01-04 09:09:44.75	132.90	33.29	-49.7	-51.0	14.6	0.00e+00	0	28	0	797966336	64	4469
2026-01-04 09:09:45.76	132.81	33.50	-49.8	-51.1	14.6	0.00e+00	0	28	0	801112064	64	4513
2026-01-04 09:09:46.76	132.71	33.71	-49.9	-51.1	14.6	0.00e+00	0	28	0	804257792	64	4545
2026-01-04 09:09:47.78	132.62	33.92	-49.9	-51.2	14.7	0.00e+00	0	28	0	807403520	65	4315
2026-01-04 09:09:48.79	132.53	34.14	-50.0	-51.3	14.6	0.00e+00	0	28	0	810549248	65	4348
2026-01-04 09:09:49.79	132.43	34.35	-50.0	-51.3	14.6	0.00e+00	0	28	0	813694976	65	4366
2026-01-04 09:09:50.80	132.34	34.57	-50.1	-51.4	14.6	0.00e+00	0	28	0	816840704	65	4409
2026-01-04 09:09:51.81	132.24	34.79	-50.3	-51.6	14.5	0.00e+00	0	28	0	819986432	65	4502
2026-01-04 09:09:52.82	132.14	35.01	-50.2	-51.5	14.5	0.00e+00	0	28	0	823132160	65	4475
2026-01-04 09:09:53.83	132.04	35.23	-50.4	-51.7	14.5	0.00e+00	0	28	0	826277888	65	4562
2026-01-04 09:09:54.84	131.94	35.45	-50.5	-51.8	14.5	0.00e+00	0	28	0	829423616	66	4390
2026-01-04 09:09:55.85	131.83	35.68	-50.8	-52.1	14.4	0.00e+00	0	28	0	832569344	66	4527
2026-01-04 09:09:56.86	131.73	35.90	-50.9	-52.2	14.4	0.00e+00	0	28	0	835715072	66	4585
2026-01-04 09:09:57.86	131.62	36.13	-51.0	-52.4	14.4	0.00e+00	0	28	0	838860800	67	4418
2026-01-04 09:09:58.87	131.51	36.36	-51.2	-52.6	14.4	0.00e+00	0	28	0	842006528	67	4510
2026-01-04 09:09:59.88	131.40	36.59	-51.2	-52.7	14.3	0.00e+00	0	28	0	845152256	67	4552
2026-01-04 09:10:00.89	131.29	36.82	-51.3	-52.8	14.3	0.00e+00	0	28	0	848297984	67	4601
2026-01-04 09:10:01.90	131.18	37.05	-51.6	-53.0	14.3	0.00e+00	0	28	0	851443712	68	4476
2026-01-04 09:10:02.91	131.06	37.29	-51.8	-53.3	14.2	0.00e+00	0	28	0	854589440	68	4605
2026-01-04 09:10:03.92	130.95	37.52	-51.7	-53.2	14.2	0.00e+00	0	28	0	857735168	68	4549
2026-01-04 09:10:04.93	130.83	37.76	-51.8	-53.3	14.2	0.00e+00	0	28	0	860880896	68	4600
2026-01-04 09:10:05.94	130.71	38.00	-51.7	-53.2	14.2	0.00e+00	0	28	0	864026624	68	4588
2026-01-04 09:10:06.95	130.59	38.24	-51.8	-53.3	14.2	0.00e+00	0	29	0	867172352	68	4622
2026-01-04 09:10:07.96	130.46	38.49	-51.9	-53.4	14.2	0.00e+00	0	28	0	870318080	69	4440
2026-01-04 09:10:08.96	130.34	38.73	-51.8	-53.4	14.2	0.00e+00	0	28	0	873463808	69	4394
2026-01-04 09:10:09.97	130.21	38.97	-51.8	-53.4	14.2	0.00e+00	0	28	0	876609536	69	4399
2026-01-04 09:10:10.98	130.08	39.22	-51.8	-53.3	14.3	0.00e+00	0	28	0	879755264	69	4370
2026-01-04 09:10:11.99	129.95	39.47	-51.7	-53.2	14.3	0.00e+00	0	28	0	882900992	69	4301
2026-01-04 09:10:12.99	129.82	39.72	-51.6	-53.1	14.4	0.00e+00	0	28	0	887095296	69	4251
2026-01-04 09:10:14.01	129.68	39.97	-51.5	-52.9	14.4	0.00e+00	0	29	0	889192448	69	4161
2026-01-04 09:10:15.02	129.54	40.23	-51.3	-52.7	14.5	0.00e+00	0	28	0	892338176	69	4086
2026-01-04 09:10:16.03	129.40	40.48	-51.5	-52.9	14.4	0.00e+00	0	28	0	895483904	69	4152
2026-01-04 09:10:17.04	129.26	40.74	-51.4	-52.8	14.4	0.00e+00	0	28	0	898629632	69	4135
2026-01-04 09:10:18.05	129.11	41.00	-51.6	-53.1	14.3	0.00e+00	0	28	0	902823936	69	4266
2026-01-04 09:10:19.06	128.97	41.26	-51.9	-53.4	14.2	0.00e+00	0	28	0	905969664	69	4418
2026-01-04 09:10:20.06	128.82	41.52	-51.9	-53.4	14.1	0.00e+00	0	28	0	909115392	69	4437
2026-01-04 09:10:21.07	128.67	41.79	-52.0	-53.5	14.2	0.00e+00	0	28	0	912261120	69	4468
2026-01-04 09:10:22.07	128.51	42.05	-52.1	-53.6	14.1	0.00e+00	0	28	0	914358272	69	4518
2026-01-04 09:10:23.08	128.35	42.32	-51.9	-53.4	14.2	0.00e+00	0	28	0	917504000	69	4411
2026-01-04 09:10:24.09	128.19	42.59	-51.9	-53.5	14.2	0.00e+00	0	28	0	921698304	69	4444
2026-01-04 09:10:25.10	128.03	42.86	-51.8	-53.2	14.2	0.00e+00	0	28	0	924844032	69	4340
2026-01-04 09:10:26.11	127.87	43.13	-51.6	-53.1	14.4	0.00e+00	0	28	0	927989760	69	4243
2026-01-04 09:10:27.12	127.70	43.40	-51.8	-53.2	14.3	0.00e+00	0	28	0	931135488	69	4334
2026-01-04 09:10:28.13	127.53	43.68	-51.6	-53.0	14.4	0.00e+00	0	28	0	934281216	69	4218
2026-01-04 09:10:29.14	127.35	43.96	-51.8	-53.3	14.3	0.00e+00	0	28	0	936378368	69	4363
2026-01-04 09:10:30.14	127.17	44.23	-52.0	-53.5	14.2	0.00e+00	0	28	0	940572672	69	4476
2026-01-04 09:10:31.15	126.99	44.51	-52.1	-53.6	14.2	0.00e+00	0	28	0	943718400	69	4516
2026-01-04 09:10:32.16	126.81	44.79	-52.2	-53.7	14.1	0.00e+00	0	28	0	946864128	69	4574
2026-01-04 09:10:33.17	126.62	45.08	-52.2	-53.7	14.1	0.00e+00	0	28	0	950009856	69	4582
2026-01-04 09:10:34.17	126.43	45.36	-52.2	-53.7	14.1	0.00e+00	0	28	0	953155584	69	4581
2026-01-04 09:10:35.18	126.24	45.65	-52.4	-54.0	14.0	0.00e+00	0	28	0	956301312	70	4465
2026-01-04 09:10:36.19	126.04	45.94	-52.1	-53.6	14.2	0.00e+00	0	28	0	959447040	70	4264
2026-01-04 09:10:37.20	125.84	46.23	-51.9	-53.4	14.3	0.00e+00	0	29	0	962592768	70	4164
2026-01-04 09:10:38.21	125.63	46.52	-51.6	-53.0	14.4	0.00e+00	0	28	0	965738496	69	4236
2026-01-04 09:10:39.22	125.42	46.82	-51.5	-52.9	14.5	0.00e+00	0	28	0	968884224	69	4148
2026-01-04 09:10:40.22	125.21	47.11	-51.5	-52.8	14.4	0.00e+00	0	28	0	972029952	69	4136
2026-01-04 09:10:41.23	124.99	47.41	-51.6	-53.0	14.4	0.00e+00	0	28	0	975175680	69	4216
2026-01-04 09:10:42.23	124.77	47.70	-51.6	-53.0	14.4	0.00e+00	0	28	0	978321408	69	4222
2026-01-04 09:10:43.24	124.55	48.00	-51.5	-52.9	14.4	0.00e+00	0	28	0	981467136	69	4160
2026-01-04 09:10:44.25	124.32	48.30	-51.3	-52.6	14.5	0.00e+00	0	28	0	984612864	69	4048
2026-01-04 09:10:45.26	124.08	48.61	-51.3	-52.6	14.5	0.00e+00	0	28	0	987758592	69	4033
2026-01-04 09:10:46.27	123.84	48.91	-51.2	-52.5	14.5	0.00e+00	0	28	0	990904320	68	4242
2026-01-04 09:10:47.27	123.60	49.22	-50.9	-52.2	14.6	0.00e+00	0	28	0	994050048	68	4090
2026-01-04 09:10:48.28	123.35	49.53	-50.9	-52.2	14.6	0.00e+00	0	29	0	997195776	68	4072
2026-01-04 09:10:49.29	123.09	49.83	-51.0	-52.4	14.5	0.00e+00	0	28	0	1000341504	68	4147
2026-01-04 09:10:50.30	122.83	50.15	-51.1	-52.5	14.6	0.00e+00	0	28	0	1003487232	68	4194
2026-01-04 09:10:51.30	122.57	50.46	-51.1	-52.5	14.5	0.00e+00	0	28	0	1006632960	68	4203
2026-01-04 09:10:52.31	122.29	50.77	-51.2	-52.5	14.5	0.00e+00	0	29	0	1009778688	68	4231
2026-01-04 09:10:53.32	122.02	51.09	-51.1	-52.5	14.5	0.00e+00	0	28	0	1012924416	68	4201
2026-01-04 09:10:54.33	121.73	51.40	-51.1	-52.4	14.6	0.00e+00	0	28	0	1016070144	68	4163
2026-01-04 09:10:55.34	121.44	51.72	-50.9	-52.2	14.7	0.00e+00	0	28	0	1019215872	68	4056
2026-01-04 09:10:56.35	121.15	52.04	-50.8	-52.1	14.7	0.00e+00	0	28	0	1022361600	68	4025
2026-01-04 09:10:57.36	120.84	52.36	-50.8	-52.1	14.7	0.00e+00	0	28	0	1025507328	68	4043
2026-01-04 09:10:58.36	120.54	52.68	-50.9	-52.2	14.6	0.00e+00	0	28	0	1028653056	68	4075
2026-01-04 09:10:59.38	120.22	53.01	-50.9	-52.2	14.7	0.00e+00	0	28	0	1031798784	68	4084
2026-01-04 09:11:00.38	119.90	53.33	-50.9	-52.2	14.6	0.00e+00	0	28	0	1034944512	68	4096
2026-01-04 09:11:01.39	119.57	53.65	-50.8	-52.1	14.7	0.00e+00	0	28	0	1038090240	68	4040
2026-01-04 09:11:02.40	119.23	53.98	-50.4	-51.6	14.7	0.00e+00	0	28	0	1041235968	67	4039
2026-01-04 09:11:03.41	118.88	54.31	-50.4	-51.6	14.7	0.00e+00	0	29	0	1044381696	67	4037
2026-01-04 09:11:04.42	118.53	54.64	-50.3	-51.6	14.8	0.00e+00	0	29	0	1047527424	67	4023
2026-01-04 09:11:05.43	118.16	54.97	-50.4	-51.7	14.7	0.00e+00	0	28	0	1050673152	67	4067
2026-01-04 09:11:06.44	117.79	55.30	-50.3	-51.6	14.7	0.00e+00	0	28	0	1053818880	67	4044
2026-01-04 09:11:07.45	117.41	55.63	-50.0	-51.3	14.8	0.00e+00	0	28	0	1056964608	66	4102
2026-01-04 09:11:08.46	117.02	55.96	-50.1	-51.4	14.7	0.00e+00	0	28	0	1060110336	66	4163
2026-01-04 09:11:09.47	116.63	56.30	-49.6	-50.8	14.8	0.00e+00	0	28	0	1063256064	65	4106
2026-01-04 09:11:10.47	116.22	56.63	-49.4	-50.6	14.9	0.00e+00	0	28	0	1066401792	65	4018
2026-01-04 09:11:11.48	115.80	56.96	-49.7	-50.9	14.8	0.00e+00	0	28	0	1069547520	65	4173
2026-01-04 09:11:12.49	115.37	57.29	-49.8	-51.1	14.7	0.00e+00	0	28	0	1072693248	65	4251
2026-01-04 09:11:13.50	114.93	57.63	-49.5	-50.7	14.9	0.00e+00	0	28	0	1075838976	65	4077
2026-01-04 09:11:14.51	114.48	57.96	-49.4	-50.6	14.9	0.00e+00	0	28	0	1078984704	65	4029
2026-01-04 09:11:15.51	114.02	58.30	-49.5	-50.7	14.9	0.00e+00	0	28	0	1082130432	65	4087
2026-01-04 09:11:16.52	113.55	58.63	-49.4	-50.6	14.9	0.00e+00	0	28	0	1085276160	65	4008
2026-01-04 09:11:17.53	113.06	58.97	-49.5	-50.6	14.9	0.00e+00	0	28	0	1088421888	65	4047
2026-01-04 09:11:18.55	112.56	59.31	-49.7	-51.0	14.7	0.00e+00	0	28	0	1091567616	65	4215
2026-01-04 09:11:19.55	112.05	59.64	-49.3	-50.5	14.9	0.00e+00	0	28	0	1094713344	65	3989
2026-01-04 09:11:20.56	111.53	59.97	-49.1	-50.3	14.9	0.00e+00	0	28	0	1097859072	64	4102
2026-01-04 09:11:21.57	110.99	60.31	-48.9	-50.0	15.0	0.00e+00	0	28	0	1101004800	64	3991
2026-01-04 09:11:22.58	110.44	60.64	-48.9	-50.1	15.0	0.00e+00	0	29	0	1104150528	64	4021
2026-01-04 09:11:23.59	109.87	60.97	-49.0	-50.2	14.9	0.00e+00	0	28	0	1107296256	64	4079
2026-01-04 09:11:24.60	109.28	61.30	-48.9	-50.1	15.0	0.00e+00	0	28	0	1110441984	64	4021
2026-01-04 09:11:25.60	108.69	61.63	-48.7	-49.8	15.1	0.00e+00	0	28	0	1113587712	64	3888
2026-01-04 09:11:26.61	108.07	61.96	-48.6	-49.7	15.0	0.00e+00	0	28	0	1116733440	63	4073
2026-01-04 09:11:27.62	107.44	62.29	-48.6	-49.8	15.0	0.00e+00	0	28	0	1119879168	63	4115
2026-01-04 09:11:28.63	106.79	62.62	-48.6	-49.8	15.0	0.00e+00	0	28	0	1123024896	63	4104
2026-01-04 09:11:29.63	106.13	62.94	-48.6	-49.8	15.0	0.00e+00	0	28	0	1126170624	63	4101
2026-01-04 09:11:30.64	105.44	63.26	-48.5	-49.6	15.0	0.00e+00	0	28	0	1129316352	63	4048
2026-01-04 09:11:31.65	104.74	63.58	-48.3	-49.4	15.1	0.00e+00	0	28	0	1132462080	63	3932
2026-01-04 09:11:32.66	104.01	63.90	-48.4	-49.5	15.0	0.00e+00	0	28	0	1135607808	63	3987
2026-01-04 09:11:33.67	103.27	64.22	-48.6	-49.7	15.0	0.00e+00	0	28	0	1138753536	63	4061
2026-01-04 09:11:34.67	102.51	64.53	-48.4	-49.5	15.0	0.00e+00	0	28	0	1141899264	63	3999
2026-01-04 09:11:35.68	101.73	64.84	-48.5	-49.6	15.0	0.00e+00	0	28	0	1145044992	63	4040
2026-01-04 09:11:36.69	100.92	65.15	-48.6	-49.7	15.0	0.00e+00	0	28	0	1148190720	63	4093
2026-01-04 09:11:37.70	100.09	65.45	-48.4	-49.5	15.0	0.00e+00	0	28	0	1151336448	63	3978
2026-01-04 09:11:38.71	99.23	65.75	-48.4	-49.5	15.1	0.00e+00	0	28	0	1154482176	63	3976
2026-01-04 09:11:39.71	98.36	66.05	-48.5	-49.7	15.0	0.00e+00	0	29	0	1157627904	63	4062
2026-01-04 09:11:40.71	97.47	66.34	-48.7	-49.9	14.9	0.00e+00	0	29	0	1160773632	63	4146
2026-01-04 09:11:41.72	96.54	66.63	-48.7	-49.9	14.9	0.00e+00	0	28	0	1163919360	63	4151
2026-01-04 09:11:42.72	95.60	66.91	-48.6	-49.7	15.0	0.00e+00	0	28	0	1167065088	63	4065
2026-01-04 09:11:43.73	94.62	67.19	-48.1	-49.2	15.1	0.00e+00	0	29	0	1170210816	62	4069
2026-01-04 09:11:44.74	93.62	67.46	-48.2	-49.2	15.0	0.00e+00	0	28	0	1173356544	62	4092
2026-01-04 09:11:45.75	92.59	67.73	-48.4	-49.6	15.0	0.00e+00	0	29	0	1176502272	62	4243
2026-01-04 09:11:46.75	91.54	67.99	-48.5	-49.6	14.9	0.00e+00	0	28	0	1179648000	62	4267
2026-01-04 09:11:47.76	90.46	68.24	-48.5	-49.6	14.9	0.00e+00	0	28	0	1182793728	62	4283
2026-01-04 09:11:48.77	89.35	68.49	-48.6	-49.7	14.9	0.00e+00	0	28	0	1185939456	62	4334
2026-01-04 09:11:49.78	88.21	68.73	-48.5	-49.6	14.9	0.00e+00	0	29	0	1189085184	62	4277
2026-01-04 09:11:50.79	87.04	68.96	-48.2	-49.3	15.0	0.00e+00	0	28	0	1192230912	62	4130
2026-01-04 09:11:51.80	85.84	69.19	-48.2	-49.3	15.0	0.00e+00	0	29	0	1195376640	62	4140
2026-01-04 09:11:52.80	84.63	69.41	-48.1	-49.2	15.0	0.00e+00	0	29	0	1198522368	62	4092
2026-01-04 09:11:53.82	83.37	69.62	-48.1	-49.1	15.1	0.00e+00	0	28	0	1201668096	62	4045
2026-01-04 09:11:54.83	82.09	69.82	-48.3	-49.4	15.0	0.00e+00	0	28	0	1204813824	62	4156
2026-01-04 09:11:55.84	80.79	70.01	-48.1	-49.2	15.0	0.00e+00	0	29	0	1207959552	62	4079
2026-01-04 09:11:56.84	79.47	70.19	-47.8	-48.9	15.1	0.00e+00	0	29	0	1211105280	62	3923
2026-01-04 09:11:57.85	78.11	70.36	-47.8	-48.9	15.1	0.00e+00	0	29	0	1214251008	62	3929
2026-01-04 09:11:58.86	76.73	70.52	-48.5	-49.6	14.9	0.00e+00	0	29	0	1217396736	62	4281
2026-01-04 09:11:59.87	75.32	70.68	-48.9	-50.1	14.9	0.00e+00	0	28	0	1220542464	63	4259
2026-01-04 09:12:00.88	73.90	70.82	-49.0	-50.2	14.8	0.00e+00	0	28	0	1223688192	63	4330
2026-01-04 09:12:01.89	72.45	70.94	-49.0	-50.2	14.9	0.00e+00	0	29	0	1226833920	63	4329
2026-01-04 09:12:02.90	70.98	71.06	-49.0	-50.1	14.9	0.00e+00	0	29	0	1229979648	63	4283
2026-01-04 09:12:03.91	69.49	71.17	-48.6	-49.7	15.0	0.00e+00	0	28	0	1233125376	63	4071
2026-01-04 09:12:04.92	67.98	71.26	-48.5	-49.6	15.1	0.00e+00	0	29	0	1236271104	63	4005
2026-01-04 09:12:05.93	66.46	71.34	-49.2	-50.4	14.8	0.00e+00	0	28	0	1239416832	63	4425
2026-01-04 09:12:06.93	64.94	71.41	-48.9	-50.0	14.9	0.00e+00	0	28	0	1242562560	63	4221
2026-01-04 09:12:07.94	63.40	71.47	-48.1	-49.1	15.0	0.00e+00	0	29	0	1245708288	62	4037
2026-01-04 09:12:08.95	61.85	71.51	-48.0	-49.0	15.1	0.00e+00	0	29	0	1248854016	62	4002
2026-01-04 09:12:09.96	60.29	71.54	-48.7	-49.9	14.9	0.00e+00	0	29	0	1251999744	62	4394
2026-01-04 09:12:10.96	58.74	71.56	-49.1	-50.3	14.8	0.00e+00	0	29	0	1255145472	63	4372
2026-01-04 09:12:11.96	57.19	71.56	-49.0	-50.1	14.8	0.00e+00	0	28	0	1258291200	63	4273
2026-01-04 09:12:12.97	55.62	71.55	-48.7	-49.9	14.8	0.00e+00	0	29	0	1261436928	63	4160
2026-01-04 09:12:13.98	54.06	71.53	-48.5	-49.6	14.9	0.00e+00	0	29	0	1264582656	63	4036
2026-01-04 09:12:14.99	52.50	71.50	-48.3	-49.4	15.1	0.00e+00	0	29	0	1267728384	63	3914
2026-01-04 09:12:16.00	50.95	71.45	-48.2	-49.2	15.0	0.00e+00	0	29	0	1270874112	62	4091
2026-01-04 09:12:17.01	49.41	71.39	-48.4	-49.5	15.0	0.00e+00	0	29	0	1274019840	62	4202
2026-01-04 09:12:18.02	47.88	71.32	-48.4	-49.5	14.9	0.00e+00	0	28	0	1277165568	62	4231
2026-01-04 09:12:19.03	46.36	71.23	-48.4	-49.5	14.9	0.00e+00	0	29	0	1280311296	62	4199
2026-01-04 09:12:20.04	44.86	71.14	-48.3	-49.4	14.9	0.00e+00	0	29	0	1283457024	62	4160
2026-01-04 09:12:21.04	43.40	71.03	-48.7	-49.8	14.9	0.00e+00	0	28	0	1286602752	62	4385
2026-01-04 09:12:22.06	41.92	70.91	-49.1	-50.3	14.9	0.00e+00	0	28	0	1289748480	63	4343
2026-01-04 09:12:23.07	40.47	70.77	-49.2	-50.3	14.8	0.00e+00	0	29	0	1292894208	63	4389
2026-01-04 09:12:24.07	39.07	70.63	-49.2	-50.4	14.8	0.00e+00	0	29	0	1296039936	63	4408
2026-01-04 09:12:25.08	37.67	70.48	-49.2	-50.3	14.9	0.00e+00	0	29	0	1299185664	64	4138
2026-01-04 09:12:26.09	36.30	70.31	-48.5	-49.6	15.0	0.00e+00	0	28	0	1302331392	63	4047
2026-01-04 09:12:27.09	34.96	70.14	-48.0	-49.0	15.1	0.00e+00	0	29	0	1305477120	62	3989
2026-01-04 09:12:28.10	33.64	69.96	-48.3	-49.4	14.9	0.00e+00	0	29	0	1308622848	62	4170
2026-01-04 09:12:29.11	32.34	69.76	-48.8	-50.0	14.9	0.00e+00	0	28	0	1311768576	63	4197
2026-01-04 09:12:30.12	31.07	69.56	-48.6	-49.7	14.9	0.00e+00	0	28	0	1314914304	63	4067
2026-01-04 09:12:31.12	29.84	69.35	-48.4	-49.5	15.0	0.00e+00	0	28	0	1318060032	63	4004
2026-01-04 09:12:32.13	28.63	69.13	-48.5	-49.6	15.0	0.00e+00	0	28	0	1321205760	63	4033
2026-01-04 09:12:33.14	27.44	68.90	-48.5	-49.6	15.0	0.00e+00	0	28	0	1324351488	63	4012
2026-01-04 09:12:34.15	26.28	68.66	-48.5	-49.6	15.0	0.00e+00	0	28	0	1327497216	63	4015
2026-01-04 09:12:35.15	25.16	68.42	-48.9	-50.0	14.9	0.00e+00	0	29	0	1330642944	63	4242
2026-01-04 09:12:36.16	24.06	68.17	-49.3	-50.5	14.8	0.00e+00	0	28	0	1333788672	63	4474
2026-01-04 09:12:37.17	22.98	67.92	-48.8	-50.0	14.8	0.00e+00	0	28	0	1336934400	63	4205
2026-01-04 09:12:38.18	21.94	67.65	-48.2	-49.3	15.1	0.00e+00	0	28	0	1340080128	63	3892
2026-01-04 09:12:39.19	20.91	67.39	-48.1	-49.2	15.0	0.00e+00	0	28	0	1343225856	62	4067
2026-01-04 09:12:40.20	19.92	67.11	-48.9	-50.0	14.8	0.00e+00	0	29	0	1346371584	62	4465
2026-01-04 09:12:41.20	18.96	66.83	-49.7	-50.9	14.7	0.00e+00	0	28	0	1349517312	64	4415
2026-01-04 09:12:42.20	18.02	66.55	-49.7	-51.0	14.7	0.00e+00	0	29	0	1352663040	64	4447
2026-01-04 09:12:43.21	17.11	66.26	-49.2	-50.3	14.9	0.00e+00	0	29	0	1355808768	64	4142
2026-01-04 09:12:44.21	16.22	65.97	-48.8	-49.9	15.1	0.00e+00	0	28	0	1358954496	64	3932
2026-01-04 09:12:45.23	15.34	65.67	-48.6	-49.6	15.0	0.00e+00	0	28	0	1362100224	63	4046
2026-01-04 09:12:46.23	14.50	65.37	-48.8	-50.0	14.9	0.00e+00	0	28	0	1365245952	63	4201
2026-01-04 09:12:47.24	13.68	65.07	-49.5	-50.7	14.8	0.00e+00	0	29	0	1368391680	64	4307
2026-01-04 09:12:48.25	12.88	64.76	-50.1	-51.3	14.7	0.00e+00	0	28	0	1371537408	65	4384
2026-01-04 09:12:49.27	12.09	64.45	-49.8	-51.0	14.8	0.00e+00	0	29	0	1374683136	65	4213
2026-01-04 09:12:50.27	11.34	64.14	-48.8	-49.9	15.0	0.00e+00	0	28	0	1377828864	64	3931
2026-01-04 09:12:51.28	10.60	63.82	-48.1	-49.2	15.0	0.00e+00	0	28	0	1380974592	62	4069
2026-01-04 09:12:52.29	9.88	63.50	-48.1	-49.1	15.0	0.00e+00	0	29	0	1384120320	62	4050
2026-01-04 09:12:53.30	9.18	63.18	-48.9	-50.0	14.9	0.00e+00	0	28	0	1387266048	62	4460
2026-01-04 09:12:54.31	8.50	62.86	-49.8	-51.0	14.7	0.00e+00	0	28	0	1390411776	64	4492
2026-01-04 09:12:55.32	7.84	62.53	-49.9	-51.2	14.7	0.00e+00	0	29	0	1393557504	65	4292
2026-01-04 09:12:56.33	7.20	62.20	-49.5	-50.7	14.8	0.00e+00	0	29	0	1396703232	65	4079
2026-01-04 09:12:57.34	6.57	61.88	-48.8	-49.9	15.0	0.00e+00	0	28	0	1399848960	64	3953
2026-01-04 09:12:58.35	5.96	61.55	-48.6	-49.6	15.0	0.00e+00	0	29	0	1402994688	63	4044
2026-01-04 09:12:59.36	5.37	61.22	-49.0	-50.1	14.8	0.00e+00	0	29	0	1406140416	63	4268
2026-01-04 09:13:00.37	4.79	60.88	-49.6	-50.7	14.7	0.00e+00	0	29	0	1409286144	64	4329
2026-01-04 09:13:01.38	4.23	60.55	-49.9	-51.2	14.7	0.00e+00	0	28	0	1412431872	65	4296
2026-01-04 09:13:02.39	3.68	60.22	-49.8	-51.0	14.8	0.00e+00	0	28	0	1415577600	65	4215
2026-01-04 09:13:03.39	3.15	59.89	-49.2	-50.4	15.0	0.00e+00	0	28	0	1418723328	65	3920
2026-01-04 09:13:04.40	2.63	59.55	-49.1	-50.2	14.9	0.00e+00	0	28	0	1421869056	64	4073
2026-01-04 09:13:05.41	2.12	59.22	-48.9	-50.0	15.0	0.00e+00	0	29	0	1425014784	64	3969
2026-01-04 09:13:06.42	1.63	58.89	-48.6	-49.6	15.0	0.00e+00	0	29	0	1428160512	63	4039
2026-01-04 09:13:07.42	1.15	58.55	-49.1	-50.3	14.8	0.00e+00	0	29	0	1431306240	63	4351
2026-01-04 09:13:08.44	0.67	58.22	-50.0	-51.2	14.6	0.00e+00	0	29	0	1434451968	65	4320
2026-01-04 09:13:09.44	0.22	57.88	-50.5	-51.8	14.6	0.00e+00	0	29	0	1437597696	66	4381
2026-01-04 09:13:10.45	359.77	57.55	-50.2	-51.4	14.6	0.00e+00	0	28	0	1440743424	66	4180
2026-01-04 09:13:11.46	359.34	57.22	-49.8	-51.0	14.8	0.00e+00	0	29	0	1443889152	66	3965
2026-01-04 09:13:12.47	358.91	56.88	-49.1	-50.2	14.9	0.00e+00	0	28	0	1447034880	64	4091
2026-01-04 09:13:13.47	358.50	56.55	-48.7	-49.8	14.9	0.00e+00	0	29	0	1450180608	63	4128
2026-01-04 09:13:14.48	358.10	56.22	-49.2	-50.3	14.8	0.00e+00	0	28	0	1453326336	63	4367
2026-01-04 09:13:15.48	357.70	55.89	-49.3	-50.4	14.8	0.00e+00	0	28	0	1456472064	63	4433
2026-01-04 09:13:16.49	357.32	55.56	-49.5	-50.6	14.8	0.00e+00	0	29	0	1459617792	64	4270
2026-01-04 09:13:17.51	356.94	55.23	-50.1	-51.3	14.7	0.00e+00	0	29	0	1462763520	65	4388
2026-01-04 09:13:18.51	356.57	54.90	-51.1	-52.4	14.4	0.00e+00	0	29	0	1465909248	67	4424
2026-01-04 09:13:19.52	356.21	54.57	-51.7	-53.2	14.2	0.00e+00	0	28	0	1469054976	68	4561
2026-01-04 09:13:20.53	355.86	54.24	-51.3	-52.7	14.5	0.00e+00	0	29	0	1472200704	68	4309
2026-01-04 09:13:21.54	355.52	53.92	-50.7	-51.9	14.8	0.00e+00	0	29	0	1475346432	68	3957
2026-01-04 09:13:22.54	355.18	53.60	-50.3	-51.6	14.8	0.00e+00	0	28	0	1478492160	67	4026
2026-01-04 09:13:23.55	354.86	53.27	-50.5	-51.8	14.7	0.00e+00	0	28	0	1481637888	67	4134
2026-01-04 09:13:24.56	354.54	52.95	-51.0	-52.3	14.5	0.00e+00	0	29	0	1484783616	67	4380
2026-01-04 09:13:25.57	354.22	52.63	-51.2	-52.6	14.4	0.00e+00	0	29	0	1487929344	67	4517
2026-01-04 09:13:26.57	353.92	52.31	-50.9	-52.2	14.5	0.00e+00	0	28	0	1491075072	67	4307
2026-01-04 09:13:27.58	353.62	51.99	-50.7	-51.9	14.6	0.00e+00	0	29	0	1494220800	67	4193
2026-01-04 09:13:28.59	353.32	51.67	-50.7	-52.0	14.6	0.00e+00	0	28	0	1497366528	67	4196
2026-01-04 09:13:29.60	353.04	51.35	-50.8	-52.1	14.6	0.00e+00	0	29	0	1500512256	67	4277
2026-01-04 09:13:30.60	352.76	51.04	-50.6	-51.9	14.6	0.00e+00	0	28	0	1503657984	67	4168
2026-01-04 09:13:31.61	352.48	50.73	-50.1	-51.3	14.7	0.00e+00	0	28	0	1506803712	66	4129
2026-01-04 09:13:32.62	352.21	50.41	-50.2	-51.4	14.7	0.00e+00	0	28	0	1509949440	66	4171
2026-01-04 09:13:33.63	351.95	50.10	-50.6	-51.9	14.6	0.00e+00	0	28	0	1513095168	66	4398
2026-01-04 09:13:34.64	351.69	49.79	-51.3	-52.6	14.4	0.00e+00	0	28	0	1516240896	67	4516
2026-01-04 09:13:35.65	351.43	49.48	-52.0	-53.5	14.2	0.00e+00	0	29	0	1519386624	69	4466
2026-01-04 09:13:36.66	351.18	49.18	-52.7	-54.3	14.0	0.00e+00	0	28	0	1522532352	70	4608
2026-01-04 09:13:37.67	350.94	48.87	-53.0	-54.7	13.9	0.00e+00	0	28	0	1525678080	71	4588
2026-01-04 09:13:38.68	350.70	48.57	-52.9	-54.5	14.0	0.00e+00	0	28	0	1528823808	71	4475
2026-01-04 09:13:39.69	350.47	48.26	-52.6	-54.2	14.1	0.00e+00	0	29	0	1531969536	71	4304
2026-01-04 09:13:40.69	350.24	47.97	-52.5	-54.1	14.2	0.00e+00	0	29	0	1535115264	71	4249
2026-01-04 09:13:41.69	350.02	47.67	-52.4	-53.9	14.2	0.00e+00	0	29	0	1538260992	71	4177
2026-01-04 09:13:42.70	349.80	47.37	-52.6	-54.2	14.2	0.00e+00	0	28	0	1541406720	71	4300
2026-01-04 09:13:43.71	349.58	47.08	-52.2	-53.7	14.4	0.00e+00	0	28	0	1544552448	71	4065
2026-01-04 09:13:44.71	349.37	46.78	-51.4	-52.8	14.5	0.00e+00	0	28	0	1547698176	69	4123
2026-01-04 09:13:45.72	349.16	46.49	-51.0	-52.3	14.6	0.00e+00	0	28	0	1550843904	68	4099
2026-01-04 09:13:46.72	348.96	46.20	-50.9	-52.2	14.6	0.00e+00	0	28	0	1553989632	68	4088
2026-01-04 09:13:47.73	348.76	45.91	-51.0	-52.3	14.6	0.00e+00	0	29	0	1557135360	68	4118
2026-01-04 09:13:48.74	348.56	45.63	-51.2	-52.5	14.5	0.00e+00	0	28	0	1560281088	68	4201
2026-01-04 09:13:49.75	348.37	45.34	-51.7	-53.1	14.3	0.00e+00	0	28	0	1563426816	68	4529
2026-01-04 09:13:50.75	348.18	45.06	-52.2	-53.7	14.2	0.00e+00	0	28	0	1566572544	69	4581
2026-01-04 09:13:51.76	348.00	44.78	-52.5	-54.1	14.0	0.00e+00	0	28	0	1569718272	70	4518
2026-01-04 09:13:52.77	347.81	44.49	-52.8	-54.4	13.8	0.00e+00	0	29	0	1572864000	70	4665
2026-01-04 09:13:53.78	347.63	44.21	-52.8	-54.5	13.7	0.00e+00	0	29	0	1576009728	70	4711
2026-01-04 09:13:54.79	347.46	43.94	-53.0	-54.6	13.8	0.00e+00	0	29	0	1579155456	71	4524
2026-01-04 09:13:55.80	347.28	43.66	-53.1	-54.7	13.8	0.00e+00	0	29	0	1583349760	71	4589
2026-01-04 09:13:56.81	347.11	43.39	-53.1	-54.8	13.8	0.00e+00	0	28	0	1585446912	71	4618
2026-01-04 09:13:57.82	346.94	43.11	-52.8	-54.4	14.0	0.00e+00	0	28	0	1588592640	71	4397
2026-01-04 09:13:58.83	346.78	42.84	-52.5	-54.0	14.2	0.00e+00	0	29	0	1591738368	71	4214
2026-01-04 09:13:59.84	346.62	42.57	-52.3	-53.8	14.3	0.00e+00	0	28	0	1594884096	71	4136
2026-01-04 09:14:00.84	346.46	42.31	-52.1	-53.5	14.3	0.00e+00	0	29	0	1598029824	70	4236
2026-01-04 09:14:01.84	346.31	42.04	-51.5	-52.9	14.5	0.00e+00	0	29	0	1602224128	69	4173
2026-01-04 09:14:02.85	346.15	41.78	-51.1	-52.4	14.6	0.00e+00	0	29	0	1605369856	68	4183
2026-01-04 09:14:03.86	346.00	41.52	-51.0	-52.3	14.6	0.00e+00	0	29	0	1607467008	68	4108
2026-01-04 09:14:04.86	345.85	41.26	-51.1	-52.5	14.6	0.00e+00	0	29	0	1610612736	68	4201
2026-01-04 09:14:05.87	345.71	41.00	-51.6	-53.0	14.4	0.00e+00	0	29	0	1613758464	68	4442
2026-01-04 09:14:06.88	345.56	40.74	-51.8	-53.2	14.2	0.00e+00	0	29	0	1616904192	68	4597
2026-01-04 09:14:07.89	345.42	40.48	-52.1	-53.6	14.2	0.00e+00	0	29	0	1620049920	69	4507
2026-01-04 09:14:08.90	345.28	40.23	-52.3	-53.9	14.1	0.00e+00	0	28	0	1624244224	69	4669
2026-01-04 09:14:09.91	345.14	39.98	-52.7	-54.4	13.9	0.00e+00	0	28	0	1627389952	70	4668
2026-01-04 09:14:10.91	345.01	39.73	-52.7	-54.4	13.9	0.00e+00	0	28	0	1630535680	70	4664
2026-01-04 09:14:11.92	344.88	39.48	-52.5	-54.2	13.9	0.00e+00	0	28	0	1632632832	70	4554
2026-01-04 09:14:12.93	344.75	39.23	-52.4	-54.0	14.0	0.00e+00	0	29	0	1635778560	70	4464
2026-01-04 09:14:13.94	344.62	38.98	-52.1	-53.6	14.2	0.00e+00	0	29	0	1639972864	70	4280
2026-01-04 09:14:14.95	344.49	38.74	-52.0	-53.5	14.3	0.00e+00	0	28	0	1643118592	70	4195
2026-01-04 09:14:15.96	344.37	38.50	-51.6	-53.0	14.4	0.00e+00	0	29	0	1646264320	69	4206
2026-01-04 09:14:16.97	344.24	38.25	-51.3	-52.7	14.6	0.00e+00	0	29	0	1649410048	69	4052
2026-01-04 09:14:17.98	344.12	38.01	-50.9	-52.2	14.6	0.00e+00	0	29	0	1652555776	68	4078
2026-01-04 09:14:18.99	344.00	37.77	-50.9	-52.2	14.6	0.00e+00	0	29	0	1655701504	68	4078
2026-01-04 09:14:20.01	343.88	37.54	-50.5	-51.7	14.7	0.00e+00	0	29	0	1658847232	67	4094
2026-01-04 09:14:21.01	343.77	37.30	-50.1	-51.4	14.7	0.00e+00	0	29	0	1661992960	66	4155
2026-01-04 09:14:22.02	343.66	37.07	-50.1	-51.3	14.8	0.00e+00	0	29	0	1665138688	66	4115
2026-01-04 09:14:23.03	343.54	36.84	-50.0	-51.2	14.8	0.00e+00	0	29	0	1668284416	66	4082
2026-01-04 09:14:24.04	343.43	36.60	-50.0	-51.3	14.8	0.00e+00	0	29	0	1671430144	66	4105
2026-01-04 09:14:25.05	343.32	36.38	-50.2	-51.4	14.7	0.00e+00	0	29	0	1674575872	66	4185
2026-01-04 09:14:26.06	343.22	36.15	-50.4	-51.6	14.6	0.00e+00	0	28	0	1677721600	66	4288
2026-01-04 09:14:27.07	343.11	35.92	-50.5	-51.8	14.6	0.00e+00	0	28	0	1680867328	66	4351
2026-01-04 09:14:28.07	343.01	35.70	-50.6	-51.9	14.6	0.00e+00	0	29	0	1684013056	66	4409
2026-01-04 09:14:29.08	342.90	35.47	-50.7	-52.0	14.5	0.00e+00	0	29	0	1687158784	66	4476
2026-01-04 09:14:30.09	342.80	35.25	-50.9	-52.2	14.4	0.00e+00	0	29	0	1690304512	66	4582
2026-01-04 09:14:31.09	342.70	35.03	-50.8	-52.2	14.4	0.00e+00	0	29	0	1693450240	66	4550
2026-01-04 09:14:32.10	342.60	34.81	-50.8	-52.2	14.4	0.00e+00	0	28	0	1696595968	66	4578
2026-01-04 09:14:33.11	342.51	34.60	-50.9	-52.2	14.5	0.00e+00	0	28	0	1699741696	67	4334
2026-01-04 09:14:34.12	342.41	34.38	-50.9	-52.3	14.5	0.00e+00	0	29	0	1702887424	67	4349
2026-01-04 09:14:35.12	342.32	34.17	-50.8	-52.1	14.5	0.00e+00	0	29	0	1706033152	67	4275
2026-01-04 09:14:36.13	342.22	33.95	-50.8	-52.1	14.5	0.00e+00	0	28	0	1709178880	67	4280
2026-01-04 09:14:37.14	342.13	33.74	-50.6	-51.9	14.6	0.00e+00	0	28	0	1712324608	67	4188
2026-01-04 09:14:38.15	342.04	33.53	-50.3	-51.6	14.7	0.00e+00	0	28	0	1715470336	67	4041
2026-01-04 09:14:39.16	341.95	33.32	-50.4	-51.6	14.7	0.00e+00	0	29	0	1718616064	67	4045
2026-01-04 09:14:40.17	341.86	33.11	-50.4	-51.6	14.7	0.00e+00	0	29	0	1721761792	67	4048
2026-01-04 09:14:41.17	341.77	32.91	-50.3	-51.6	14.7	0.00e+00	0	29	0	1724907520	67	4038
2026-01-04 09:14:42.17	341.69	32.70	-50.3	-51.5	14.8	0.00e+00	0	29	0	1728053248	67	4001
2026-01-04 09:14:43.18	341.60	32.50	-50.3	-51.5	14.8	0.00e+00	0	29	0	1731198976	67	4002
2026-01-04 09:14:44.18	341.52	32.30	-50.3	-51.6	14.7	0.00e+00	0	29	0	1734344704	67	4020
2026-01-04 09:14:45.19	341.44	32.10	-50.4	-51.7	14.7	0.00e+00	0	29	0	1737490432	67	4061
2026-01-04 09:14:46.20	341.36	31.90	-50.4	-51.7	14.7	0.00e+00	0	29	0	1740636160	67	4069
2026-01-04 09:14:47.21	341.27	31.70	-50.4	-51.7	14.7	0.00e+00	0	28	0	1743781888	67	4070
2026-01-04 09:14:48.22	341.19	31.50	-50.3	-51.6	14.7	0.00e+00	0	29	0	1746927616	67	4029
2026-01-04 09:14:49.22	341.12	31.31	-50.4	-51.7	14.7	0.00e+00	0	29	0	1750073344	67	4060
2026-01-04 09:14:50.23	341.04	31.11	-50.2	-51.4	14.7	0.00e+00	0	29	0	1753219072	66	4175
2026-01-04 09:14:51.24	340.96	30.92	-50.2	-51.4	14.7	0.00e+00	0	29	0	1756364800	66	4183
2026-01-04 09:14:52.25	340.89	30.72	-50.0	-51.2	14.8	0.00e+00	0	28	0	1759510528	66	4071
2026-01-04 09:14:53.26	340.81	30.53	-49.6	-50.8	14.8	0.00e+00	0	29	0	1762656256	65	4103
2026-01-04 09:14:54.27	340.74	30.34	-49.3	-50.4	14.9	0.00e+00	0	29	0	1765801984	65	3944
2026-01-04 09:14:55.28	340.66	30.15	-49.1	-50.2	14.9	0.00e+00	0	29	0	1768947712	64	4094
2026-01-04 09:14:56.28	340.59	29.97	-49.1	-50.2	14.9	0.00e+00	0	28	0	1772093440	64	4096
2026-01-04 09:14:57.29	340.52	29.78	-48.9	-50.1	14.9	0.00e+00	0	29	0	1775239168	64	4008
2026-01-04 09:14:58.30	340.45	29.59	-49.0	-50.2	14.9	0.00e+00	0	28	0	1778384896	64	4059
2026-01-04 09:14:59.31	340.38	29.41	-49.1	-50.3	14.9	0.00e+00	0	29	0	1781530624	64	4113
2026-01-04 09:15:00.32	340.31	29.23	-49.2	-50.3	14.8	0.00e+00	0	29	0	1784676352	64	4133
2026-01-04 09:15:01.32	340.25	29.05	-49.1	-50.2	14.9	0.00e+00	0	29	0	1787822080	64	4097
2026-01-04 09:15:02.33	340.18	28.86	-49.1	-50.2	14.9	0.00e+00	0	29	0	1790967808	64	4092
2026-01-04 09:15:03.34	340.11	28.68	-49.1	-50.2	14.9	0.00e+00	0	29	0	1794113536	64	4093
2026-01-04 09:15:04.35	340.05	28.51	-49.1	-50.3	14.9	0.00e+00	0	28	0	1797259264	64	4107
2026-01-04 09:15:05.36	339.98	28.33	-49.1	-50.2	14.9	0.00e+00	0	28	0	1800404992	64	4098
2026-01-04 09:15:06.37	339.92	28.15	-49.1	-50.3	14.9	0.00e+00	0	28	0	1803550720	64	4113
2026-01-04 09:15:07.37	339.85	27.98	-49.1	-50.3	14.9	0.00e+00	0	28	0	1806696448	64	4099
2026-01-04 09:15:08.38	339.79	27.80	-49.1	-50.2	14.9	0.00e+00	0	28	0	1809842176	64	4080
2026-01-04 09:15:09.39	339.73	27.63	-49.1	-50.2	14.9	0.00e+00	0	29	0	1812987904	64	4096
2026-01-04 09:15:10.40	339.67	27.46	-49.1	-50.2	14.9	0.00e+00	0	29	0	1816133632	64	4089
2026-01-04 09:15:11.41	339.61	27.29	-49.0	-50.2	14.9	0.00e+00	0	29	0	1819279360	64	4064
2026-01-04 09:15:12.41	339.55	27.12	-49.0	-50.1	14.9	0.00e+00	0	29	0	1822425088	64	4037
2026-01-04 09:15:13.42	339.49	26.95	-49.0	-50.1	14.9	0.00e+00	0	29	0	1825570816	64	4043
2026-01-04 09:15:14.43	339.43	26.78	-49.0	-50.2	14.9	0.00e+00	0	28	0	1828716544	64	4057
2026-01-04 09:15:15.44	339.37	26.61	-49.0	-50.1	14.9	0.00e+00	0	28	0	1831862272	64	4048
2026-01-04 09:15:16.44	339.32	26.45	-48.9	-50.0	15.0	0.00e+00	0	28	0	1835008000	64	3999
2026-01-04 09:15:17.45	339.26	26.28	-48.9	-50.1	15.0	0.00e+00	0	29	0	1838153728	64	4009
2026-01-04 09:15:18.46	339.20	26.12	-49.0	-50.1	14.9	0.00e+00	0	28	0	1841299456	64	4043
2026-01-04 09:15:19.47	339.15	25.95	-49.0	-50.1	14.9	0.00e+00	0	28	0	1844445184	64	4041
2026-01-04 09:15:20.48	339.09	25.79	-49.0	-50.2	14.9	0.00e+00	0	28	0	1847590912	64	4054
2026-01-04 09:15:21.49	339.04	25.63	-49.2	-50.3	14.9	0.00e+00	0	28	0	1850736640	64	4136
2026-01-04 09:15:22.49	338.99	25.47	-49.2	-50.4	14.8	0.00e+00	0	28	0	1853882368	64	4157
2026-01-04 09:15:23.50	338.93	25.31	-49.3	-50.5	14.8	0.00e+00	0	28	0	1857028096	64	4198
2026-01-04 09:15:24.51	338.88	25.15	-49.4	-50.6	14.8	0.00e+00	0	29	0	1860173824	64	4256
2026-01-04 09:15:25.52	338.83	24.99	-49.4	-50.6	14.8	0.00e+00	0	29	0	1863319552	64	4275
2026-01-04 09:15:26.53	338.78	24.84	-49.4	-50.6	14.7	0.00e+00	0	28	0	1866465280	64	4282
2026-01-04 09:15:27.53	338.73	24.68	-49.5	-50.7	14.7	0.00e+00	0	29	0	1869611008	64	4312
2026-01-04 09:15:28.54	338.68	24.53	-49.5	-50.7	14.7	0.00e+00	0	29	0	1872756736	64	4335
2026-01-04 09:15:29.55	338.63	24.37	-49.5	-50.8	14.7	0.00e+00	0	29	0	1875902464	64	4348
2026-01-04 09:15:30.56	338.58	24.22	-49.6	-50.8	14.7	0.00e+00	0	29	0	1879048192	64	4384
2026-01-04 09:15:31.57	338.53	24.07	-49.7	-51.0	14.7	0.00e+00	0	29	0	1882193920	64	4443
2026-01-04 09:15:32.58	338.48	23.92	-49.7	-50.9	14.7	0.00e+00	0	28	0	1885339648	64	4426
2026-01-04 09:15:33.59	338.44	23.77	-49.7	-50.9	14.7	0.00e+00	0	29	0	1888485376	64	4439
2026-01-04 09:15:34.60	338.39	23.62	-49.7	-50.9	14.7	0.00e+00	0	28	0	1891631104	64	4438
2026-01-04 09:15:35.60	338.34	23.47	-49.7	-50.9	14.7	0.00e+00	0	29	0	1894776832	64	4422
2026-01-04 09:15:36.61	338.30	23.32	-49.6	-50.9	14.7	0.00e+00	0	29	0	1897922560	64	4392
2026-01-04 09:15:37.62	338.25	23.17	-49.4	-50.7	14.7	0.00e+00	0	29	0	1901068288	64	4299
2026-01-04 09:15:38.63	338.21	23.03	-49.5	-50.7	14.7	0.00e+00	0	29	0	1904214016	64	4326
2026-01-04 09:15:39.63	338.16	22.88	-49.5	-50.7	14.7	0.00e+00	0	29	0	1907359744	64	4314
2026-01-04 09:15:40.64	338.12	22.74	-49.3	-50.6	14.8	0.00e+00	0	29	0	1910505472	64	4243
2026-01-04 09:15:41.65	338.07	22.59	-49.5	-50.7	14.7	0.00e+00	0	28	0	1913651200	64	4305
2026-01-04 09:15:42.66	338.03	22.45	-49.3	-50.5	14.7	0.00e+00	0	28	0	1916796928	64	4233
2026-01-04 09:15:43.67	337.99	22.31	-49.2	-50.4	14.8	0.00e+00	0	28	0	1919942656	64	4164
2026-01-04 09:15:44.68	337.94	22.16	-49.1	-50.3	14.8	0.00e+00	0	29	0	1923088384	64	4127
2026-01-04 09:15:45.68	337.90	22.02	-49.2	-50.3	14.8	0.00e+00	0	29	0	1926234112	64	4140
2026-01-04 09:15:46.69	337.86	21.88	-49.1	-50.3	14.8	0.00e+00	0	28	0	1929379840	64	4115
2026-01-04 09:15:47.70	337.82	21.74	-49.0	-50.2	14.9	0.00e+00	0	28	0	1932525568	64	4062
2026-01-04 09:15:48.70	337.78	21.61	-48.9	-50.1	14.9	0.00e+00	0	29	0	1935671296	64	4014
2026-01-04 09:15:49.71	337.74	21.47	-48.8	-50.0	15.0	0.00e+00	0	29	0	1938817024	64	3981
2026-01-04 09:15:50.72	337.70	21.33	-48.9	-50.1	14.9	0.00e+00	0	28	0	1941962752	64	4015
2026-01-04 09:15:51.73	337.66	21.20	-48.9	-50.1	14.9	0.00e+00	0	29	0	1945108480	64	4027
2026-01-04 09:15:52.73	337.62	21.06	-49.0	-50.1	14.9	0.00e+00	0	29	0	1948254208	64	4036
2026-01-04 09:15:53.74	337.58	20.93	-48.8	-50.0	14.9	0.00e+00	0	29	0	1951399936	64	3979
2026-01-04 09:15:54.75	337.54	20.79	-48.8	-50.0	14.9	0.00e+00	0	29	0	1954545664	64	3973
2026-01-04 09:15:55.76	337.50	20.66	-48.8	-49.9	15.0	0.00e+00	0	29	0	1957691392	64	3935
2026-01-04 09:15:56.77	337.47	20.52	-48.7	-49.9	15.0	0.00e+00	0	29	0	1960837120	64	3932
2026-01-04 09:15:57.77	337.43	20.39	-48.8	-49.9	15.0	0.00e+00	0	28	0	1963982848	64	3943
2026-01-04 09:15:58.78	337.39	20.26	-48.8	-50.0	15.0	0.00e+00	0	29	0	1967128576	64	3960
2026-01-04 09:15:59.79	337.35	20.13	-48.7	-49.9	15.0	0.00e+00	0	28	0	1970274304	64	3923
2026-01-04 09:16:00.79	337.32	20.00	-48.7	-49.8	15.0	0.00e+00	0	28	0	1973420032	64	3909
2026-01-04 09:16:01.80	337.28	19.87	-48.7	-49.8	15.0	0.00e+00	0	29	0	1976565760	64	3906
2026-01-04 09:16:02.81	337.25	19.74	-48.8	-49.9	15.0	0.00e+00	0	29	0	1979711488	64	3945
2026-01-04 09:16:03.82	337.21	19.61	-48.8	-49.9	15.0	0.00e+00	0	29	0	1982857216	64	3940
2026-01-04 09:16:04.83	337.18	19.49	-48.8	-49.9	15.0	0.00e+00	0	29	0	1986002944	64	3948
2026-01-04 09:16:05.83	337.14	19.36	-48.8	-50.0	15.0	0.00e+00	0	29	0	1989148672	64	3960
2026-01-04 09:16:06.84	337.11	19.23	-48.8	-50.0	15.0	0.00e+00	0	28	0	1992294400	64	3962
2026-01-04 09:16:07.85	337.07	19.11	-48.9	-50.1	14.9	0.00e+00	0	29	0	1995440128	64	4014
2026-01-04 09:16:08.86	337.04	18.98	-48.9	-50.0	14.9	0.00e+00	0	28	0	1998585856	64	4002
2026-01-04 09:16:09.87	337.01	18.86	-49.0	-50.1	14.9	0.00e+00	0	29	0	2001731584	64	4047
2026-01-04 09:16:10.88	336.97	18.73	-49.0	-50.1	14.9	0.00e+00	0	29	0	2004877312	64	4040
2026-01-04 09:16:11.88	336.94	18.61	-49.0	-50.2	14.9	0.00e+00	0	29	0	2008023040	64	4063
2026-01-04 09:16:12.89	336.91	18.49	-49.1	-50.2	14.8	0.00e+00	0	29	0	2011168768	64	4095
2026-01-04 09:16:13.90	336.87	18.37	-49.0	-50.2	14.9	0.00e+00	0	29	0	2014314496	64	4081
2026-01-04 09:16:14.91	336.84	18.25	-49.2	-50.4	14.8	0.00e+00	0	29	0	2017460224	64	4158
2026-01-04 09:16:15.92	336.81	18.12	-49.1	-50.3	14.8	0.00e+00	0	29	0	2020605952	64	4104
2026-01-04 09:16:16.92	336.78	18.00	-49.2	-50.4	14.8	0.00e+00	0	29	0	2023751680	64	4147
2026-01-04 09:16:17.93	336.75	17.88	-49.2	-50.4	14.8	0.00e+00	0	29	0	2026897408	64	4149
2026-01-04 09:16:18.94	336.72	17.77	-49.2	-50.4	14.8	0.00e+00	0	29	0	2030043136	64	4191
2026-01-04 09:16:19.95	336.69	17.65	-49.3	-50.6	14.7	0.00e+00	0	29	0	2033188864	64	4249
2026-01-04 09:16:20.96	336.66	17.53	-49.3	-50.5	14.7	0.00e+00	0	28	0	2036334592	64	4228
2026-01-04 09:16:21.97	336.63	17.41	-49.3	-50.5	14.7	0.00e+00	0	29	0	2039480320	64	4236
2026-01-04 09:16:22.98	336.60	17.29	-49.4	-50.6	14.7	0.00e+00	0	29	0	2042626048	64	4264
2026-01-04 09:16:23.99	336.57	17.18	-49.4	-50.6	14.7	0.00e+00	0	29	0	2045771776	64	4264
2026-01-04 09:16:25.00	336.54	17.06	-49.5	-50.7	14.7	0.00e+00	0	28	0	2048917504	64	4309
2026-01-04 09:16:26.01	336.51	16.95	-49.5	-50.7	14.7	0.00e+00	0	29	0	2052063232	64	4335
2026-01-04 09:16:27.01	336.48	16.83	-49.6	-50.9	14.6	0.00e+00	0	29	0	2055208960	64	4406
2026-01-04 09:16:28.02	336.45	16.72	-49.7	-51.0	14.6	0.00e+00	0	29	0	2058354688	64	4453
2026-01-04 09:16:29.03	336.42	16.60	-49.8	-51.0	14.6	0.00e+00	0	28	0	2061500416	64	4486
2026-01-04 09:16:30.04	336.39	16.49	-49.7	-51.0	14.6	0.00e+00	0	29	0	2064646144	64	4469
