passes_logs/2026/01/04/R3.2S_Murmansk/R3.2S_Murmansk__20260104_121553_FENGYUN_3D_rec.log

#Pass ID: 20260104_121553_FENGYUN 3D
#Satellite: FENGYUN 3D
#Configuration: FENGYUN 3D
#almurnet v.1.7.20251203
#Start time: 2026-01-04 12:15:53

#Version: 2.2.20231116
#Station: R3.2S_Murmansk
#Location: 33.079688 lon 68.888172 lat
#TLE: 1 43010U 17072A   26003.93866112 -.00000029  00000+0  82070-5 0  9995
#TLE: 2 43010  98.9913 335.5841 0001959 128.6134 231.5217 14.19691935421687

#Time	Az	El	Level	Level2	SNR	BER	BlckErr	Temp	State	Recorded	gain1	gain2
2026-01-04 12:15:53.83	169.14	2.03	-59.2	-72.1	3.8	8.46e-01	0	28	0	0	84	15946
2026-01-04 12:15:54.83	169.16	2.10	-59.0	-71.9	3.8	8.45e-01	0	28	104	0	83	16541
2026-01-04 12:15:55.83	169.18	2.16	-59.0	-71.9	3.8	8.45e-01	0	28	104	0	83	16560
2026-01-04 12:15:56.83	169.21	2.22	-59.0	-71.8	3.8	8.45e-01	0	29	104	0	83	16355
2026-01-04 12:15:57.82	169.23	2.29	-59.0	-71.7	3.8	8.45e-01	0	29	104	0	83	16250
2026-01-04 12:15:58.82	169.25	2.35	-59.0	-71.5	3.8	8.44e-01	0	29	104	0	83	15837
2026-01-04 12:15:59.82	169.28	2.42	-58.9	-71.5	3.8	8.45e-01	0	29	104	0	83	15761
2026-01-04 12:16:00.82	169.30	2.48	-59.0	-71.5	3.8	8.46e-01	0	29	104	0	83	15805
2026-01-04 12:16:01.81	169.33	2.54	-59.0	-71.5	3.8	8.45e-01	0	29	104	0	83	15838
2026-01-04 12:16:02.81	169.35	2.61	-59.0	-71.6	3.8	8.46e-01	0	29	104	0	83	15983
2026-01-04 12:16:03.81	169.37	2.67	-59.0	-71.8	3.8	8.46e-01	0	29	104	0	83	16427
2026-01-04 12:16:04.80	169.40	2.74	-59.0	-71.9	3.8	8.46e-01	0	29	104	0	83	16521
2026-01-04 12:16:05.80	169.42	2.80	-59.0	-72.0	3.8	8.47e-01	0	29	104	0	83	16706
2026-01-04 12:16:06.79	169.45	2.87	-59.0	-72.0	3.8	8.46e-01	0	29	104	0	83	16746
2026-01-04 12:16:07.79	169.47	2.93	-59.0	-72.0	3.8	8.45e-01	0	29	104	0	83	16704
2026-01-04 12:16:08.79	169.50	3.00	-59.0	-71.9	3.8	8.46e-01	0	29	104	0	83	16658
2026-01-04 12:16:09.79	169.52	3.06	-59.0	-71.8	3.8	8.46e-01	0	29	104	0	83	16471
2026-01-04 12:16:10.79	169.55	3.13	-59.0	-71.7	3.8	8.45e-01	0	29	104	0	83	16240
2026-01-04 12:16:11.79	169.57	3.19	-59.0	-71.7	3.8	8.46e-01	0	29	104	0	83	16165
2026-01-04 12:16:12.78	169.60	3.26	-59.0	-71.7	3.8	8.45e-01	0	29	104	0	83	16251
2026-01-04 12:16:13.78	169.62	3.33	-59.0	-71.9	3.8	8.46e-01	0	29	104	0	83	16572
2026-01-04 12:16:14.77	169.65	3.39	-59.0	-72.0	3.8	8.46e-01	0	29	104	0	83	16732
2026-01-04 12:16:15.76	169.67	3.46	-59.0	-72.0	3.8	8.46e-01	0	29	104	0	83	16819
2026-01-04 12:16:16.76	169.70	3.52	-59.0	-71.8	3.8	8.46e-01	0	29	104	0	83	16407
2026-01-04 12:16:17.75	169.72	3.59	-59.0	-71.3	3.8	8.44e-01	0	29	104	0	83	15451
2026-01-04 12:16:18.76	169.75	3.66	-58.9	-70.3	3.8	8.45e-01	0	29	104	0	83	13770
2026-01-04 12:16:19.75	169.77	3.72	-58.8	-69.1	4.1	8.44e-01	0	29	0	0	83	12002
2026-01-04 12:16:20.74	169.80	3.79	-58.6	-68.1	4.3	8.35e-01	0	29	0	0	83	10748
2026-01-04 12:16:21.74	169.83	3.86	-58.5	-66.9	4.7	8.12e-01	0	29	0	0	83	9363
2026-01-04 12:16:22.74	169.85	3.93	-58.3	-65.9	5.2	7.42e-01	0	30	0	0	83	8367
2026-01-04 12:16:23.74	169.88	3.99	-58.1	-65.3	5.6	6.45e-01	0	29	0	1048576	82	8260
2026-01-04 12:16:24.73	169.91	4.06	-58.0	-64.7	6.0	3.45e-01	0	29	0	6291456	82	7657
2026-01-04 12:16:25.72	169.93	4.13	-57.9	-64.3	6.3	2.62e-01	0	30	0	11534336	82	7302
2026-01-04 12:16:26.71	169.96	4.20	-57.8	-64.1	6.4	2.48e-01	0	29	0	16777216	82	7123
2026-01-04 12:16:27.71	169.98	4.27	-57.7	-63.6	6.8	1.75e-01	0	30	0	23068672	82	6769
2026-01-04 12:16:28.71	170.01	4.33	-57.6	-63.4	7.0	1.59e-01	0	30	0	28311552	81	6967
2026-01-04 12:16:29.71	170.04	4.40	-57.5	-63.1	7.2	1.15e-01	0	30	0	33554432	81	6752
2026-01-04 12:16:30.70	170.07	4.47	-57.5	-62.9	7.3	1.12e-01	0	29	0	39845888	81	6642
2026-01-04 12:16:31.70	170.09	4.54	-57.4	-62.8	7.4	9.65e-02	0	30	0	45088768	81	6546
2026-01-04 12:16:32.70	170.12	4.61	-57.3	-62.6	7.6	7.18e-02	0	30	0	51380224	81	6353
2026-01-04 12:16:33.70	170.15	4.68	-57.2	-62.2	7.9	6.00e-02	0	30	0	56623104	81	6110
2026-01-04 12:16:34.69	170.17	4.75	-57.2	-62.0	8.1	4.15e-02	0	30	0	61865984	80	6323
2026-01-04 12:16:35.70	170.20	4.82	-57.1	-61.8	8.3	3.19e-02	0	30	0	68157440	80	6155
2026-01-04 12:16:36.69	170.23	4.89	-57.0	-61.7	8.4	2.85e-02	0	30	0	73400320	80	6064
2026-01-04 12:16:37.68	170.26	4.96	-57.0	-61.7	8.4	2.81e-02	0	30	0	78643200	80	6077
2026-01-04 12:16:38.68	170.29	5.03	-57.1	-61.8	8.3	3.25e-02	0	30	0	84934656	80	6139
2026-01-04 12:16:39.68	170.31	5.10	-57.1	-61.9	8.3	3.99e-02	0	30	0	90177536	80	6243
2026-01-04 12:16:40.68	170.34	5.17	-59.0	-71.2	3.8	4.92e-01	0	30	104	94371840	83	15356
2026-01-04 12:16:41.67	170.37	5.24	-54.2	-56.6	6.6	8.10e-01	0	30	104	94371840	75	4527
2026-01-04 12:16:42.67	170.40	5.31	-53.2	-55.3	13.1	0.00e+00	0	30	0	97517568	71	4898
2026-01-04 12:16:43.67	170.43	5.38	-51.8	-53.6	13.9	0.00e+00	0	30	0	103809024	69	4522
2026-01-04 12:16:44.67	170.46	5.45	-52.0	-53.8	13.8	0.00e+00	0	30	0	109051904	70	4363
2026-01-04 12:16:45.67	170.48	5.53	-51.3	-53.0	14.2	0.00e+00	0	30	0	115343360	69	4223
2026-01-04 12:16:46.67	170.51	5.60	-51.1	-52.7	14.3	0.00e+00	0	30	0	120586240	68	4315
2026-01-04 12:16:47.67	170.54	5.67	-51.1	-52.8	14.2	0.00e+00	0	30	0	125829120	68	4352
2026-01-04 12:16:48.67	170.57	5.74	-50.8	-52.4	14.4	0.00e+00	0	30	0	132120576	68	4186
2026-01-04 12:16:49.66	170.60	5.81	-50.8	-52.4	14.4	0.00e+00	0	30	0	137363456	68	4173
2026-01-04 12:16:50.66	170.63	5.89	-50.4	-51.9	14.5	0.00e+00	0	30	0	142606336	67	4189
2026-01-04 12:16:51.66	170.66	5.96	-50.1	-51.7	14.6	0.00e+00	0	30	0	148897792	66	4305
2026-01-04 12:16:52.66	170.69	6.03	-50.0	-51.4	14.7	0.00e+00	0	30	0	154140672	66	4186
2026-01-04 12:16:53.66	170.72	6.11	-49.8	-51.3	14.7	0.00e+00	0	30	0	159383552	66	4115
2026-01-04 12:16:54.66	170.75	6.18	-49.9	-51.4	14.7	0.00e+00	0	30	0	165675008	66	4187
2026-01-04 12:16:55.66	170.78	6.25	-49.9	-51.4	14.7	0.00e+00	0	30	0	170917888	66	4156
2026-01-04 12:16:56.66	170.81	6.33	-49.9	-51.4	14.7	0.00e+00	0	30	0	177209344	66	4174
2026-01-04 12:16:57.66	170.84	6.40	-49.9	-51.4	14.7	0.00e+00	0	30	0	182452224	66	4172
2026-01-04 12:16:58.65	170.87	6.47	-49.7	-51.2	14.8	0.00e+00	0	30	0	187695104	66	4065
2026-01-04 12:16:59.65	170.90	6.55	-49.7	-51.2	14.8	0.00e+00	0	30	0	193986560	65	4300
2026-01-04 12:17:00.64	170.93	6.62	-49.7	-51.2	14.8	0.00e+00	0	30	0	199229440	65	4297
2026-01-04 12:17:01.64	170.96	6.70	-49.7	-51.1	14.8	0.00e+00	0	30	0	204472320	65	4274
2026-01-04 12:17:02.64	170.99	6.77	-49.6	-51.0	14.8	0.00e+00	0	30	0	210763776	65	4229
2026-01-04 12:17:03.64	171.02	6.85	-49.7	-51.1	14.8	0.00e+00	0	30	0	216006656	65	4279
2026-01-04 12:17:04.64	171.06	6.92	-49.5	-51.0	14.8	0.00e+00	0	30	0	221249536	65	4206
2026-01-04 12:17:05.63	171.09	7.00	-49.5	-50.9	14.9	0.00e+00	0	30	0	227540992	65	4189
2026-01-04 12:17:06.63	171.12	7.08	-49.6	-51.0	14.8	0.00e+00	0	31	0	232783872	65	4223
2026-01-04 12:17:07.62	171.15	7.15	-49.5	-51.0	14.9	0.00e+00	0	30	0	238026752	65	4195
2026-01-04 12:17:08.62	171.18	7.23	-49.5	-50.9	14.9	0.00e+00	0	30	0	244318208	65	4177
2026-01-04 12:17:09.62	171.21	7.30	-49.6	-51.0	14.9	0.00e+00	0	30	0	249561088	65	4230
2026-01-04 12:17:10.62	171.25	7.38	-49.6	-51.0	14.9	0.00e+00	0	31	0	254803968	65	4234
2026-01-04 12:17:11.62	171.28	7.46	-49.4	-50.8	15.0	0.00e+00	0	30	0	261095424	65	4113
2026-01-04 12:17:12.62	171.31	7.54	-49.3	-50.7	15.0	0.00e+00	0	30	0	266338304	65	4066
2026-01-04 12:17:13.62	171.34	7.61	-49.2	-50.7	15.0	0.00e+00	0	30	0	272629760	65	4056
2026-01-04 12:17:14.61	171.38	7.69	-49.3	-50.7	15.0	0.00e+00	0	31	0	277872640	65	4084
2026-01-04 12:17:15.61	171.41	7.77	-49.3	-50.7	15.0	0.00e+00	0	30	0	283115520	65	4064
2026-01-04 12:17:16.61	171.44	7.85	-49.3	-50.7	15.0	0.00e+00	0	31	0	289406976	65	4055
2026-01-04 12:17:17.61	171.48	7.93	-49.3	-50.7	15.0	0.00e+00	0	30	0	294649856	65	4078
2026-01-04 12:17:18.61	171.51	8.00	-49.4	-50.8	15.0	0.00e+00	0	30	0	299892736	65	4132
2026-01-04 12:17:19.61	171.54	8.08	-49.3	-50.6	15.0	0.00e+00	0	30	0	306184192	65	4050
2026-01-04 12:17:20.61	171.58	8.16	-49.2	-50.6	15.0	0.00e+00	0	30	0	311427072	65	4038
2026-01-04 12:17:21.61	171.61	8.24	-49.2	-50.6	15.1	0.00e+00	0	31	0	316669952	65	4009
2026-01-04 12:17:22.61	171.64	8.32	-49.2	-50.6	15.0	0.00e+00	0	30	0	322961408	64	4243
2026-01-04 12:17:23.60	171.68	8.40	-49.1	-50.5	15.0	0.00e+00	0	31	0	328204288	64	4227
2026-01-04 12:17:24.61	171.71	8.48	-49.2	-50.6	15.0	0.00e+00	0	31	0	334495744	64	4247
2026-01-04 12:17:25.61	171.75	8.56	-49.1	-50.5	15.0	0.00e+00	0	31	0	339738624	64	4210
2026-01-04 12:17:26.61	171.78	8.64	-49.2	-50.6	15.0	0.00e+00	0	31	0	344981504	64	4255
2026-01-04 12:17:27.61	171.82	8.72	-49.1	-50.5	15.0	0.00e+00	0	31	0	351272960	64	4224
2026-01-04 12:17:28.62	171.85	8.81	-49.1	-50.5	15.0	0.00e+00	0	31	0	356515840	64	4208
2026-01-04 12:17:29.62	171.89	8.89	-49.2	-50.6	15.0	0.00e+00	0	31	0	361758720	64	4243
2026-01-04 12:17:30.62	171.92	8.97	-49.2	-50.6	15.0	0.00e+00	0	31	0	368050176	64	4248
2026-01-04 12:17:31.63	171.96	9.05	-49.2	-50.5	15.0	0.00e+00	0	31	0	373293056	64	4241
2026-01-04 12:17:32.64	172.00	9.14	-49.0	-50.4	15.1	0.00e+00	0	31	0	379584512	64	4184
2026-01-04 12:17:33.64	172.03	9.22	-49.2	-50.6	15.0	0.00e+00	0	31	0	384827392	64	4245
2026-01-04 12:17:34.65	172.07	9.30	-49.2	-50.6	15.0	0.00e+00	0	31	0	390070272	64	4271
2026-01-04 12:17:35.66	172.11	9.39	-49.1	-50.5	15.0	0.00e+00	0	31	0	396361728	64	4227
2026-01-04 12:17:36.65	172.14	9.47	-49.1	-50.5	15.1	0.00e+00	0	31	0	401604608	64	4212
2026-01-04 12:17:37.66	172.18	9.55	-49.2	-50.6	15.0	0.00e+00	0	31	0	407896064	64	4285
2026-01-04 12:17:38.67	172.22	9.64	-49.1	-50.5	15.0	0.00e+00	0	31	0	413138944	64	4213
2026-01-04 12:17:39.68	172.25	9.72	-49.2	-50.5	15.0	0.00e+00	0	31	0	419430400	64	4238
2026-01-04 12:17:40.68	172.29	9.81	-49.2	-50.6	15.0	0.00e+00	0	31	0	424673280	64	4246
2026-01-04 12:17:41.68	172.33	9.89	-49.1	-50.5	15.1	0.00e+00	0	31	0	429916160	64	4228
2026-01-04 12:17:42.68	172.37	9.98	-49.2	-50.6	15.1	0.00e+00	0	31	0	436207616	64	4249
2026-01-04 12:17:43.68	172.41	10.06	-49.2	-50.5	15.1	0.00e+00	0	31	0	441450496	64	4238
2026-01-04 12:17:44.68	172.44	10.15	-49.2	-50.6	15.1	0.00e+00	0	30	0	446693376	64	4251
2026-01-04 12:17:45.69	172.48	10.23	-49.2	-50.6	15.1	0.00e+00	0	31	0	452984832	64	4253
2026-01-04 12:17:46.69	172.52	10.32	-49.1	-50.5	15.1	0.00e+00	0	31	0	458227712	64	4227
2026-01-04 12:17:47.69	172.56	10.41	-49.1	-50.5	15.1	0.00e+00	0	31	0	463470592	64	4228
2026-01-04 12:17:48.69	172.60	10.49	-49.1	-50.5	15.1	0.00e+00	0	31	0	469762048	64	4205
2026-01-04 12:17:49.69	172.64	10.58	-49.1	-50.4	15.1	0.00e+00	0	31	0	475004928	64	4193
2026-01-04 12:17:50.69	172.68	10.67	-49.1	-50.5	15.1	0.00e+00	0	31	0	481296384	64	4194
2026-01-04 12:17:51.70	172.72	10.76	-49.0	-50.4	15.1	0.00e+00	0	31	0	486539264	64	4155
2026-01-04 12:17:52.70	172.76	10.84	-49.2	-50.6	15.1	0.00e+00	0	31	0	491782144	64	4244
2026-01-04 12:17:53.70	172.80	10.93	-49.0	-50.4	15.1	0.00e+00	0	31	0	498073600	64	4175
2026-01-04 12:17:54.70	172.84	11.02	-49.1	-50.5	15.1	0.00e+00	0	31	0	503316480	64	4206
2026-01-04 12:17:55.69	172.88	11.11	-49.0	-50.3	15.2	0.00e+00	0	31	0	508559360	64	4137
2026-01-04 12:17:56.70	172.92	11.20	-48.9	-50.2	15.2	0.00e+00	0	31	0	514850816	64	4098
2026-01-04 12:17:57.69	172.96	11.29	-48.9	-50.2	15.2	0.00e+00	0	31	0	520093696	64	4095
2026-01-04 12:17:58.70	173.00	11.38	-48.8	-50.2	15.2	0.00e+00	0	31	0	525336576	64	4081
2026-01-04 12:17:59.70	173.04	11.47	-48.9	-50.2	15.2	0.00e+00	0	31	0	531628032	64	4083
2026-01-04 12:18:00.70	173.09	11.56	-48.9	-50.3	15.2	0.00e+00	0	31	0	536870912	64	4127
2026-01-04 12:18:01.69	173.13	11.65	-48.8	-50.2	15.3	0.00e+00	0	31	0	543162368	64	4053
2026-01-04 12:18:02.70	173.17	11.74	-48.8	-50.1	15.3	0.00e+00	0	31	0	548405248	64	4027
2026-01-04 12:18:03.70	173.21	11.83	-48.7	-50.1	15.3	0.00e+00	0	31	0	553648128	64	4022
2026-01-04 12:18:04.70	173.25	11.92	-48.7	-50.1	15.2	0.00e+00	0	31	0	559939584	63	4244
2026-01-04 12:18:05.70	173.30	12.02	-48.7	-50.0	15.2	0.00e+00	0	31	0	565182464	63	4242
2026-01-04 12:18:06.70	173.34	12.11	-48.7	-50.0	15.3	0.00e+00	0	31	0	570425344	63	4229
2026-01-04 12:18:07.71	173.38	12.20	-48.7	-50.0	15.2	0.00e+00	0	31	0	576716800	63	4236
2026-01-04 12:18:08.71	173.43	12.30	-48.6	-50.0	15.2	0.00e+00	0	31	0	581959680	63	4207
2026-01-04 12:18:09.71	173.47	12.39	-48.7	-50.1	15.2	0.00e+00	0	31	0	587202560	63	4260
2026-01-04 12:18:10.71	173.52	12.48	-48.7	-50.0	15.2	0.00e+00	0	31	0	593494016	63	4222
2026-01-04 12:18:11.71	173.56	12.58	-48.7	-50.1	15.2	0.00e+00	0	31	0	598736896	63	4257
2026-01-04 12:18:12.72	173.61	12.67	-48.8	-50.1	15.2	0.00e+00	0	31	0	605028352	63	4285
2026-01-04 12:18:13.72	173.65	12.77	-48.7	-50.0	15.2	0.00e+00	0	31	0	610271232	63	4233
2026-01-04 12:18:14.72	173.70	12.86	-48.6	-50.0	15.3	0.00e+00	0	31	0	615514112	63	4207
2026-01-04 12:18:15.71	173.74	12.96	-48.7	-50.0	15.2	0.00e+00	0	31	0	621805568	63	4241
2026-01-04 12:18:16.72	173.79	13.05	-48.6	-50.0	15.3	0.00e+00	0	31	0	627048448	63	4205
2026-01-04 12:18:17.71	173.83	13.15	-48.7	-50.1	15.2	0.00e+00	0	31	0	632291328	63	4251
2026-01-04 12:18:18.71	173.88	13.25	-48.6	-49.9	15.3	0.00e+00	0	31	0	638582784	63	4164
2026-01-04 12:18:19.71	173.92	13.34	-48.6	-49.9	15.3	0.00e+00	0	31	0	643825664	63	4166
2026-01-04 12:18:20.71	173.97	13.44	-48.6	-49.9	15.3	0.00e+00	0	31	0	649068544	63	4172
2026-01-04 12:18:21.71	174.02	13.54	-48.5	-49.8	15.3	0.00e+00	0	31	0	655360000	63	4126
2026-01-04 12:18:22.70	174.07	13.64	-48.5	-49.8	15.3	0.00e+00	0	31	0	660602880	63	4135
2026-01-04 12:18:23.71	174.11	13.74	-48.4	-49.7	15.4	0.00e+00	0	31	0	666894336	63	4094
2026-01-04 12:18:24.71	174.16	13.84	-48.5	-49.9	15.3	0.00e+00	0	31	0	672137216	63	4146
2026-01-04 12:18:25.70	174.21	13.93	-48.4	-49.7	15.4	0.00e+00	0	31	0	677380096	63	4079
2026-01-04 12:18:26.71	174.26	14.03	-48.4	-49.7	15.4	0.00e+00	0	31	0	683671552	63	4090
2026-01-04 12:18:27.71	174.31	14.13	-48.4	-49.7	15.4	0.00e+00	0	31	0	688914432	63	4069
2026-01-04 12:18:28.71	174.36	14.23	-48.3	-49.6	15.4	0.00e+00	0	31	0	694157312	63	4033
2026-01-04 12:18:29.70	174.41	14.33	-48.3	-49.6	15.5	0.00e+00	0	31	0	700448768	63	4015
2026-01-04 12:18:30.70	174.46	14.44	-48.2	-49.5	15.5	0.00e+00	0	31	0	705691648	63	3961
2026-01-04 12:18:31.70	174.51	14.54	-48.0	-49.3	15.4	0.00e+00	0	31	0	710934528	62	4135
2026-01-04 12:18:32.69	174.56	14.64	-48.0	-49.3	15.5	0.00e+00	0	31	0	717225984	62	4121
2026-01-04 12:18:33.69	174.61	14.74	-48.1	-49.3	15.4	0.00e+00	0	31	0	722468864	62	4134
2026-01-04 12:18:34.69	174.66	14.84	-47.9	-49.2	15.5	0.00e+00	0	31	0	728760320	62	4077
2026-01-04 12:18:35.69	174.71	14.95	-47.9	-49.2	15.5	0.00e+00	0	31	0	734003200	62	4076
2026-01-04 12:18:36.68	174.76	15.05	-47.8	-49.1	15.5	0.00e+00	0	31	0	739246080	62	4033
2026-01-04 12:18:37.68	174.81	15.16	-47.9	-49.1	15.5	0.00e+00	0	31	0	745537536	62	4032
2026-01-04 12:18:38.68	174.87	15.26	-47.8	-49.0	15.5	0.00e+00	0	31	0	750780416	62	3995
2026-01-04 12:18:39.68	174.92	15.36	-47.7	-49.0	15.6	0.00e+00	0	31	0	756023296	62	3970
2026-01-04 12:18:40.67	174.97	15.47	-47.6	-48.9	15.5	0.00e+00	0	31	0	761266176	61	4163
2026-01-04 12:18:41.67	175.02	15.58	-47.7	-48.9	15.5	0.00e+00	0	31	0	767557632	61	4175
2026-01-04 12:18:42.66	175.08	15.68	-47.6	-48.8	15.6	0.00e+00	0	31	0	772800512	61	4125
2026-01-04 12:18:43.67	175.13	15.79	-47.5	-48.8	15.6	0.00e+00	0	31	0	779091968	61	4104
2026-01-04 12:18:44.68	175.19	15.90	-47.6	-48.8	15.5	0.00e+00	0	31	0	784334848	61	4143
2026-01-04 12:18:45.68	175.24	16.00	-47.5	-48.7	15.6	0.00e+00	0	31	0	790626304	61	4094
2026-01-04 12:18:46.68	175.30	16.11	-47.5	-48.7	15.6	0.00e+00	0	31	0	795869184	61	4091
2026-01-04 12:18:47.68	175.35	16.22	-47.5	-48.7	15.6	0.00e+00	0	31	0	801112064	61	4081
2026-01-04 12:18:48.68	175.41	16.33	-47.5	-48.8	15.6	0.00e+00	0	31	0	807403520	61	4107
2026-01-04 12:18:49.68	175.47	16.44	-47.5	-48.7	15.6	0.00e+00	0	31	0	812646400	61	4082
2026-01-04 12:18:50.67	175.52	16.55	-47.4	-48.6	15.6	0.00e+00	0	31	0	817889280	61	4047
2026-01-04 12:18:51.68	175.58	16.66	-47.3	-48.6	15.6	0.00e+00	0	31	0	824180736	61	4021
2026-01-04 12:18:52.67	175.64	16.77	-47.4	-48.6	15.6	0.00e+00	0	31	0	829423616	61	4042
2026-01-04 12:18:53.66	175.69	16.88	-47.3	-48.5	15.6	0.00e+00	0	31	0	834666496	61	3977
2026-01-04 12:18:54.67	175.75	16.99	-47.3	-48.5	15.6	0.00e+00	0	31	0	840957952	61	3996
2026-01-04 12:18:55.66	175.81	17.11	-47.3	-48.5	15.7	0.00e+00	0	31	0	846200832	61	3970
2026-01-04 12:18:56.66	175.87	17.22	-47.2	-48.4	15.7	0.00e+00	0	31	0	851443712	61	3949
2026-01-04 12:18:57.66	175.93	17.33	-47.2	-48.4	15.7	0.00e+00	0	31	0	857735168	61	3944
2026-01-04 12:18:58.65	175.99	17.45	-47.1	-48.4	15.6	0.00e+00	0	31	0	862978048	60	4150
2026-01-04 12:18:59.65	176.05	17.56	-47.1	-48.3	15.6	0.00e+00	0	31	0	868220928	60	4133
2026-01-04 12:19:00.65	176.11	17.67	-47.1	-48.3	15.6	0.00e+00	0	31	0	874512384	60	4132
2026-01-04 12:19:01.64	176.17	17.79	-47.1	-48.3	15.6	0.00e+00	0	31	0	879755264	60	4133
2026-01-04 12:19:02.64	176.23	17.91	-47.1	-48.3	15.6	0.00e+00	0	31	0	886046720	60	4119
2026-01-04 12:19:03.64	176.30	18.02	-47.1	-48.3	15.6	0.00e+00	0	31	0	891289600	60	4140
2026-01-04 12:19:04.64	176.36	18.14	-47.0	-48.2	15.7	0.00e+00	0	31	0	896532480	60	4063
2026-01-04 12:19:05.63	176.42	18.26	-47.0	-48.2	15.6	0.00e+00	0	31	0	902823936	60	4067
2026-01-04 12:19:06.63	176.48	18.37	-47.0	-48.2	15.7	0.00e+00	0	31	0	908066816	60	4081
2026-01-04 12:19:07.63	176.55	18.49	-46.9	-48.1	15.7	0.00e+00	0	31	0	913309696	60	4027
2026-01-04 12:19:08.63	176.61	18.61	-46.7	-47.9	15.7	0.00e+00	0	31	0	919601152	60	3957
2026-01-04 12:19:09.63	176.68	18.73	-46.8	-48.0	15.8	0.00e+00	0	31	0	924844032	60	3978
2026-01-04 12:19:10.63	176.74	18.85	-46.9	-48.1	15.7	0.00e+00	0	31	0	930086912	60	4016
2026-01-04 12:19:11.63	176.81	18.97	-46.9	-48.1	15.7	0.00e+00	0	31	0	936378368	60	4028
2026-01-04 12:19:12.63	176.88	19.09	-46.8	-48.0	15.7	0.00e+00	0	31	0	941621248	60	3985
2026-01-04 12:19:13.62	176.94	19.21	-46.8	-48.1	15.7	0.00e+00	0	31	0	946864128	60	4007
2026-01-04 12:19:14.62	177.01	19.34	-46.9	-48.1	15.7	0.00e+00	0	31	0	953155584	60	4017
2026-01-04 12:19:15.62	177.08	19.46	-46.9	-48.1	15.7	0.00e+00	0	31	0	958398464	60	4031
2026-01-04 12:19:16.61	177.14	19.58	-46.7	-47.9	15.8	0.00e+00	0	31	0	963641344	60	3950
2026-01-04 12:19:17.61	177.21	19.71	-47.0	-48.2	15.6	0.00e+00	0	31	0	969932800	59	4324
2026-01-04 12:19:18.61	177.28	19.83	-47.0	-48.2	15.6	0.00e+00	0	31	0	975175680	59	4329
2026-01-04 12:19:19.61	177.35	19.96	-47.0	-48.2	15.6	0.00e+00	0	31	0	980418560	59	4323
2026-01-04 12:19:20.61	177.42	20.08	-47.0	-48.2	15.6	0.00e+00	0	31	0	986710016	59	4314
2026-01-04 12:19:21.61	177.49	20.21	-46.9	-48.2	15.6	0.00e+00	0	31	0	991952896	59	4293
2026-01-04 12:19:22.61	177.57	20.34	-46.9	-48.1	15.7	0.00e+00	0	31	0	998244352	59	4263
2026-01-04 12:19:23.61	177.64	20.46	-46.9	-48.2	15.6	0.00e+00	0	31	0	1003487232	59	4307
2026-01-04 12:19:24.61	177.71	20.59	-46.9	-48.1	15.6	0.00e+00	0	31	0	1008730112	59	4291
2026-01-04 12:19:25.60	177.78	20.72	-46.9	-48.1	15.7	0.00e+00	0	31	0	1015021568	59	4269
2026-01-04 12:19:26.60	177.86	20.85	-46.9	-48.1	15.7	0.00e+00	0	31	0	1020264448	59	4275
2026-01-04 12:19:27.59	177.93	20.98	-46.8	-48.0	15.7	0.00e+00	0	31	0	1025507328	59	4241
2026-01-04 12:19:28.59	178.01	21.11	-46.8	-48.0	15.7	0.00e+00	0	31	0	1031798784	59	4240
2026-01-04 12:19:29.59	178.08	21.24	-46.8	-48.0	15.7	0.00e+00	0	31	0	1037041664	59	4234
2026-01-04 12:19:30.58	178.16	21.37	-46.8	-48.0	15.7	0.00e+00	0	31	0	1042284544	59	4222
2026-01-04 12:19:31.58	178.24	21.51	-46.8	-48.0	15.7	0.00e+00	0	31	0	1048576000	59	4217
2026-01-04 12:19:32.58	178.31	21.64	-46.8	-48.1	15.7	0.00e+00	0	31	0	1053818880	59	4247
2026-01-04 12:19:33.57	178.39	21.77	-46.7	-47.9	15.7	0.00e+00	0	31	0	1059061760	59	4180
2026-01-04 12:19:34.57	178.47	21.91	-46.7	-47.9	15.7	0.00e+00	0	31	0	1065353216	59	4169
2026-01-04 12:19:35.58	178.55	22.04	-46.7	-47.9	15.7	0.00e+00	0	31	0	1070596096	59	4177
2026-01-04 12:19:36.57	178.63	22.18	-46.6	-47.8	15.8	0.00e+00	0	31	0	1075838976	59	4131
2026-01-04 12:19:37.58	178.71	22.32	-46.5	-47.8	15.8	0.00e+00	0	31	0	1082130432	59	4101
2026-01-04 12:19:38.58	178.79	22.45	-46.5	-47.7	15.8	0.00e+00	0	31	0	1087373312	59	4089
2026-01-04 12:19:39.58	178.88	22.59	-46.5	-47.7	15.8	0.00e+00	0	31	0	1093664768	59	4063
2026-01-04 12:19:40.58	178.96	22.73	-46.5	-47.7	15.8	0.00e+00	0	31	0	1098907648	59	4087
2026-01-04 12:19:41.58	179.04	22.87	-46.5	-47.7	15.8	0.00e+00	0	31	0	1104150528	59	4071
2026-01-04 12:19:42.57	179.13	23.01	-46.5	-47.7	15.8	0.00e+00	0	31	0	1110441984	59	4084
2026-01-04 12:19:43.57	179.21	23.15	-46.5	-47.7	15.8	0.00e+00	0	31	0	1115684864	59	4088
2026-01-04 12:19:44.58	179.30	23.29	-46.5	-47.7	15.8	0.00e+00	0	31	0	1121976320	59	4086
2026-01-04 12:19:45.57	179.38	23.44	-46.5	-47.7	15.8	0.00e+00	0	31	0	1127219200	59	4098
2026-01-04 12:19:46.58	179.47	23.58	-46.5	-47.8	15.8	0.00e+00	0	31	0	1132462080	59	4114
2026-01-04 12:19:47.58	179.56	23.72	-46.6	-47.8	15.8	0.00e+00	0	31	0	1138753536	59	4140
2026-01-04 12:19:48.58	179.65	23.87	-46.6	-47.8	15.8	0.00e+00	0	31	0	1143996416	59	4116
2026-01-04 12:19:49.58	179.74	24.01	-46.5	-47.7	15.8	0.00e+00	0	31	0	1149239296	59	4085
2026-01-04 12:19:50.58	179.83	24.16	-46.5	-47.7	15.8	0.00e+00	0	31	0	1155530752	59	4085
2026-01-04 12:19:51.58	179.92	24.31	-46.5	-47.7	15.8	0.00e+00	0	31	0	1160773632	59	4070
2026-01-04 12:19:52.58	180.01	24.46	-46.5	-47.7	15.8	0.00e+00	0	31	0	1166016512	59	4057
2026-01-04 12:19:53.57	180.10	24.60	-46.3	-47.5	15.9	0.00e+00	0	31	0	1172307968	59	3980
2026-01-04 12:19:54.58	180.20	24.75	-46.3	-47.5	15.9	0.00e+00	0	31	0	1177550848	59	3984
2026-01-04 12:19:55.58	180.29	24.90	-46.3	-47.5	15.9	0.00e+00	0	31	0	1183842304	59	3986
2026-01-04 12:19:56.58	180.39	25.05	-46.4	-47.6	15.9	0.00e+00	0	31	0	1189085184	59	4016
2026-01-04 12:19:57.58	180.49	25.21	-46.4	-47.6	15.9	0.00e+00	0	31	0	1194328064	59	4031
2026-01-04 12:19:58.58	180.58	25.36	-46.5	-47.7	15.8	0.00e+00	0	31	0	1200619520	59	4071
2026-01-04 12:19:59.58	180.68	25.51	-46.3	-47.5	15.9	0.00e+00	0	31	0	1205862400	59	3978
2026-01-04 12:20:00.58	180.78	25.66	-46.3	-47.5	15.9	0.00e+00	0	31	0	1211105280	59	3990
2026-01-04 12:20:01.58	180.88	25.82	-46.2	-47.4	15.9	0.00e+00	0	31	0	1217396736	59	3925
2026-01-04 12:20:02.58	180.98	25.97	-46.0	-47.2	15.9	0.00e+00	0	31	0	1222639616	58	4057
2026-01-04 12:20:03.57	181.08	26.13	-46.0	-47.2	15.9	0.00e+00	0	31	0	1227882496	58	4074
2026-01-04 12:20:04.58	181.19	26.29	-46.1	-47.2	15.9	0.00e+00	0	31	0	1234173952	58	4096
2026-01-04 12:20:05.58	181.29	26.45	-45.9	-47.0	15.9	0.00e+00	0	31	0	1239416832	58	3986
2026-01-04 12:20:06.58	181.39	26.61	-45.8	-47.0	16.0	0.00e+00	0	31	0	1245708288	58	3969
2026-01-04 12:20:07.59	181.50	26.77	-45.9	-47.1	15.9	0.00e+00	0	31	0	1250951168	58	4017
2026-01-04 12:20:08.58	181.61	26.93	-45.9	-47.1	15.9	0.00e+00	0	31	0	1256194048	58	4015
2026-01-04 12:20:09.59	181.72	27.09	-45.9	-47.1	15.9	0.00e+00	0	31	0	1262485504	58	4030
2026-01-04 12:20:10.59	181.83	27.25	-46.0	-47.2	15.9	0.00e+00	0	31	0	1267728384	58	4063
2026-01-04 12:20:11.59	181.94	27.41	-46.0	-47.1	15.9	0.00e+00	0	31	0	1272971264	58	4050
2026-01-04 12:20:12.60	182.05	27.58	-46.1	-47.3	15.9	0.00e+00	0	31	0	1279262720	58	4108
2026-01-04 12:20:13.60	182.16	27.74	-46.1	-47.3	15.9	0.00e+00	0	31	0	1284505600	58	4106
2026-01-04 12:20:14.60	182.27	27.91	-46.1	-47.3	15.9	0.00e+00	0	31	0	1289748480	58	4107
2026-01-04 12:20:15.60	182.39	28.08	-46.2	-47.4	15.9	0.00e+00	0	31	0	1296039936	58	4152
2026-01-04 12:20:16.60	182.50	28.24	-46.2	-47.4	15.9	0.00e+00	0	31	0	1301282816	58	4174
2026-01-04 12:20:17.60	182.62	28.41	-46.2	-47.4	15.9	0.00e+00	0	31	0	1307574272	58	4148
2026-01-04 12:20:18.59	182.74	28.58	-46.0	-47.2	15.9	0.00e+00	0	31	0	1312817152	58	4072
2026-01-04 12:20:19.59	182.86	28.75	-46.1	-47.3	15.9	0.00e+00	0	31	0	1318060032	58	4104
2026-01-04 12:20:20.59	182.98	28.92	-46.0	-47.2	15.9	0.00e+00	0	31	0	1324351488	58	4080
2026-01-04 12:20:21.59	183.10	29.09	-46.1	-47.3	15.9	0.00e+00	0	31	0	1329594368	58	4107
2026-01-04 12:20:22.59	183.22	29.27	-46.1	-47.3	15.9	0.00e+00	0	31	0	1334837248	58	4130
2026-01-04 12:20:23.58	183.35	29.44	-46.1	-47.3	15.9	0.00e+00	0	31	0	1341128704	58	4141
2026-01-04 12:20:24.58	183.47	29.61	-46.0	-47.2	15.9	0.00e+00	0	31	0	1346371584	58	4067
2026-01-04 12:20:25.58	183.60	29.79	-45.9	-47.1	15.9	0.00e+00	0	31	0	1351614464	58	4039
2026-01-04 12:20:26.58	183.73	29.97	-45.8	-47.0	16.0	0.00e+00	0	31	0	1357905920	58	3962
2026-01-04 12:20:27.58	183.86	30.14	-45.9	-47.1	16.0	0.00e+00	0	31	0	1363148800	58	4025
2026-01-04 12:20:28.59	183.99	30.32	-45.8	-47.0	16.0	0.00e+00	0	31	0	1369440256	58	3977
2026-01-04 12:20:29.59	184.12	30.50	-46.0	-47.1	16.0	0.00e+00	0	31	0	1374683136	58	4049
2026-01-04 12:20:30.59	184.26	30.68	-46.0	-47.2	15.9	0.00e+00	0	31	0	1379926016	58	4078
2026-01-04 12:20:31.59	184.39	30.87	-46.1	-47.3	15.9	0.00e+00	0	31	0	1386217472	58	4101
2026-01-04 12:20:32.59	184.53	31.05	-46.2	-47.3	15.9	0.00e+00	0	31	0	1391460352	58	4100
2026-01-04 12:20:33.59	184.67	31.23	-46.2	-47.2	16.0	0.00e+00	0	31	0	1396703232	58	4077
2026-01-04 12:20:34.59	184.81	31.42	-46.1	-47.2	15.9	0.00e+00	0	31	0	1402994688	58	4076
2026-01-04 12:20:35.59	184.95	31.60	-46.1	-47.1	16.0	0.00e+00	0	31	0	1408237568	58	4028
2026-01-04 12:20:36.58	185.09	31.79	-46.1	-47.1	16.0	0.00e+00	0	31	0	1414529024	58	4047
2026-01-04 12:20:37.58	185.23	31.97	-46.1	-47.1	16.0	0.00e+00	0	31	0	1419771904	58	4039
2026-01-04 12:20:38.57	185.38	32.16	-46.2	-47.2	16.0	0.00e+00	0	31	0	1425014784	58	4094
2026-01-04 12:20:39.57	185.53	32.35	-46.2	-47.3	16.0	0.00e+00	0	31	0	1430257664	58	4127
2026-01-04 12:20:40.57	185.68	32.54	-46.1	-47.2	16.0	0.00e+00	0	31	0	1436549120	58	4075
2026-01-04 12:20:41.56	185.83	32.73	-46.2	-47.2	16.0	0.00e+00	0	31	0	1441792000	58	4086
2026-01-04 12:20:42.56	185.98	32.92	-46.1	-47.2	16.0	0.00e+00	0	31	0	1447034880	58	4065
2026-01-04 12:20:43.56	186.13	33.12	-46.1	-47.1	16.0	0.00e+00	0	31	0	1453326336	58	4041
2026-01-04 12:20:44.56	186.29	33.31	-46.0	-47.0	16.0	0.00e+00	0	31	0	1458569216	58	3989
2026-01-04 12:20:45.56	186.45	33.51	-45.8	-46.9	16.1	0.00e+00	0	31	0	1464860672	58	3919
2026-01-04 12:20:46.56	186.61	33.70	-45.8	-46.8	16.1	0.00e+00	0	31	0	1470103552	58	3895
2026-01-04 12:20:47.56	186.77	33.90	-45.8	-46.9	16.1	0.00e+00	0	31	0	1475346432	58	3914
2026-01-04 12:20:48.57	186.94	34.10	-45.8	-46.8	16.1	0.00e+00	0	31	0	1481637888	58	3913
2026-01-04 12:20:49.56	187.10	34.30	-45.8	-46.8	16.1	0.00e+00	0	31	0	1486880768	58	3913
2026-01-04 12:20:50.56	187.27	34.50	-45.6	-46.6	16.0	0.00e+00	0	31	0	1492123648	57	4041
2026-01-04 12:20:51.56	187.44	34.70	-45.6	-46.7	16.0	0.00e+00	0	31	0	1498415104	57	4054
2026-01-04 12:20:52.56	187.61	34.90	-45.7	-46.8	16.0	0.00e+00	0	31	0	1503657984	57	4110
2026-01-04 12:20:53.55	187.78	35.10	-45.8	-46.9	16.0	0.00e+00	0	31	0	1508900864	57	4159
2026-01-04 12:20:54.55	187.96	35.31	-45.9	-47.0	16.0	0.00e+00	0	31	0	1515192320	57	4196
2026-01-04 12:20:55.55	188.14	35.51	-45.8	-46.9	16.0	0.00e+00	0	31	0	1520435200	57	4157
2026-01-04 12:20:56.54	188.32	35.72	-45.8	-46.9	16.0	0.00e+00	0	31	0	1526726656	57	4160
2026-01-04 12:20:57.54	188.50	35.93	-45.7	-46.8	16.0	0.00e+00	0	31	0	1531969536	57	4110
2026-01-04 12:20:58.54	188.69	36.14	-45.7	-46.8	16.0	0.00e+00	0	31	0	1537212416	57	4107
2026-01-04 12:20:59.54	188.87	36.35	-45.8	-46.8	16.0	0.00e+00	0	31	0	1543503872	57	4134
2026-01-04 12:21:00.51	189.06	36.55	-45.7	-46.7	16.0	0.00e+00	0	31	0	1548746752	57	4073
2026-01-04 12:21:01.51	189.25	36.76	-45.5	-46.6	16.0	0.00e+00	0	31	0	1553989632	57	4015
2026-01-04 12:21:02.50	189.44	36.97	-45.6	-46.6	16.0	0.00e+00	0	31	0	1559232512	57	4029
2026-01-04 12:21:03.50	189.64	37.19	-45.5	-46.6	16.1	0.00e+00	0	31	0	1565523968	57	4011
2026-01-04 12:21:04.50	189.84	37.40	-45.5	-46.6	16.0	0.00e+00	0	31	0	1570766848	57	4009
2026-01-04 12:21:05.50	190.04	37.62	-45.5	-46.5	16.1	0.00e+00	0	31	0	1577058304	57	3979
2026-01-04 12:21:06.49	190.24	37.83	-45.5	-46.5	16.1	0.00e+00	0	31	0	1582301184	57	3998
2026-01-04 12:21:07.49	190.45	38.05	-45.5	-46.5	16.0	0.00e+00	0	31	0	1587544064	57	4003
2026-01-04 12:21:08.49	190.66	38.27	-45.6	-46.7	16.0	0.00e+00	0	31	0	1593835520	57	4054
2026-01-04 12:21:09.49	190.88	38.49	-45.6	-46.6	16.0	0.00e+00	0	31	0	1599078400	57	4051
2026-01-04 12:21:10.48	191.09	38.71	-45.7	-46.8	16.0	0.00e+00	0	31	0	1604321280	57	4102
2026-01-04 12:21:11.48	191.31	38.93	-45.8	-46.8	16.0	0.00e+00	0	31	0	1610612736	57	4140
2026-01-04 12:21:12.48	191.53	39.15	-45.8	-46.8	16.0	0.00e+00	0	31	0	1615855616	57	4128
2026-01-04 12:21:13.47	191.75	39.37	-45.9	-46.9	16.0	0.00e+00	0	31	0	1621098496	57	4161
2026-01-04 12:21:14.47	191.98	39.60	-45.9	-46.9	16.0	0.00e+00	0	31	0	1627389952	57	4178
2026-01-04 12:21:15.47	192.21	39.82	-45.9	-47.0	16.0	0.00e+00	0	31	0	1632632832	57	4211
2026-01-04 12:21:16.47	192.45	40.05	-45.9	-46.9	15.9	0.00e+00	0	31	0	1637875712	57	4191
2026-01-04 12:21:17.48	192.69	40.28	-45.7	-46.7	16.0	0.00e+00	0	31	0	1644167168	57	4088
2026-01-04 12:21:18.48	192.93	40.51	-45.7	-46.8	16.0	0.00e+00	0	31	0	1649410048	57	4102
2026-01-04 12:21:19.48	193.17	40.74	-45.9	-46.9	15.9	0.00e+00	0	31	0	1655701504	57	4186
2026-01-04 12:21:20.47	193.42	40.97	-46.0	-47.0	15.9	0.00e+00	0	31	0	1660944384	57	4227
2026-01-04 12:21:21.47	193.67	41.20	-46.0	-47.1	16.0	0.00e+00	0	31	0	1666187264	57	4253
2026-01-04 12:21:22.48	193.92	41.43	-45.8	-46.9	16.0	0.00e+00	0	31	0	1672478720	57	4153
2026-01-04 12:21:23.48	194.18	41.67	-45.8	-46.9	16.0	0.00e+00	0	31	0	1677721600	57	4169
2026-01-04 12:21:24.47	194.44	41.90	-46.0	-47.0	16.0	0.00e+00	0	31	0	1682964480	57	4219
2026-01-04 12:21:25.47	194.71	42.13	-46.0	-47.0	16.0	0.00e+00	0	31	0	1689255936	57	4236
2026-01-04 12:21:26.46	194.97	42.37	-46.1	-47.1	15.9	0.00e+00	0	31	0	1694498816	57	4271
2026-01-04 12:21:27.46	195.25	42.60	-46.0	-47.0	16.0	0.00e+00	0	31	0	1699741696	57	4223
2026-01-04 12:21:28.45	195.52	42.84	-46.0	-47.1	16.0	0.00e+00	0	31	0	1706033152	57	4249
2026-01-04 12:21:29.44	195.80	43.07	-46.1	-47.1	15.9	0.00e+00	0	31	0	1711276032	57	4287
2026-01-04 12:21:30.44	196.09	43.31	-46.1	-47.1	16.0	0.00e+00	0	31	0	1716518912	57	4262
2026-01-04 12:21:31.44	196.38	43.55	-46.1	-47.1	15.9	0.00e+00	0	31	0	1722810368	57	4269
2026-01-04 12:21:32.43	196.67	43.79	-46.1	-47.2	15.9	0.00e+00	0	31	0	1728053248	57	4316
2026-01-04 12:21:33.44	196.97	44.03	-46.3	-47.4	15.9	0.00e+00	0	31	0	1733296128	57	4416
2026-01-04 12:21:34.43	197.27	44.27	-46.3	-47.3	15.9	0.00e+00	0	31	0	1739587584	57	4389
2026-01-04 12:21:35.41	197.57	44.51	-46.2	-47.3	15.9	0.00e+00	0	31	0	1744830464	57	4358
2026-01-04 12:21:36.41	197.88	44.75	-46.2	-47.2	15.9	0.00e+00	0	31	0	1750073344	57	4340
2026-01-04 12:21:37.41	198.20	44.99	-46.0	-47.1	15.9	0.00e+00	0	31	0	1756364800	57	4245
2026-01-04 12:21:38.40	198.52	45.23	-46.1	-47.2	15.9	0.00e+00	0	31	0	1761607680	57	4306
2026-01-04 12:21:39.40	198.84	45.48	-46.1	-47.1	15.9	0.00e+00	0	31	0	1766850560	57	4284
2026-01-04 12:21:40.40	199.17	45.72	-46.0	-47.1	15.9	0.00e+00	0	31	0	1773142016	57	4251
2026-01-04 12:21:41.40	199.51	45.97	-46.1	-47.1	16.0	0.00e+00	0	31	0	1778384896	57	4283
2026-01-04 12:21:42.40	199.85	46.21	-46.0	-47.0	16.0	0.00e+00	0	31	0	1783627776	57	4223
2026-01-04 12:21:43.40	200.20	46.46	-46.1	-47.1	16.0	0.00e+00	0	31	0	1789919232	57	4283
2026-01-04 12:21:44.40	200.55	46.70	-46.0	-47.1	16.0	0.00e+00	0	31	0	1795162112	57	4243
2026-01-04 12:21:45.41	200.91	46.95	-45.9	-46.9	16.0	0.00e+00	0	31	0	1801453568	57	4178
2026-01-04 12:21:46.41	201.28	47.20	-45.9	-46.9	16.0	0.00e+00	0	31	0	1806696448	57	4180
2026-01-04 12:21:47.41	201.64	47.45	-46.0	-47.0	16.0	0.00e+00	0	31	0	1811939328	57	4221
2026-01-04 12:21:48.41	202.02	47.69	-46.1	-47.2	15.9	0.00e+00	0	31	0	1818230784	57	4305
2026-01-04 12:21:49.41	202.40	47.94	-46.2	-47.3	15.9	0.00e+00	0	31	0	1823473664	57	4350
2026-01-04 12:21:50.41	202.79	48.19	-46.1	-47.1	15.9	0.00e+00	0	31	0	1828716544	57	4291
2026-01-04 12:21:51.40	203.18	48.43	-46.4	-47.5	15.9	0.00e+00	0	31	0	1835008000	57	4459
2026-01-04 12:21:52.40	203.58	48.68	-46.6	-47.7	15.9	0.00e+00	0	31	0	1840250880	58	4302
2026-01-04 12:21:53.39	203.98	48.92	-46.5	-47.6	15.9	0.00e+00	0	31	0	1845493760	58	4244
2026-01-04 12:21:54.40	204.39	49.17	-46.5	-47.5	15.9	0.00e+00	0	31	0	1851785216	58	4231
2026-01-04 12:21:55.40	204.81	49.42	-46.5	-47.6	15.9	0.00e+00	0	31	0	1857028096	58	4271
2026-01-04 12:21:56.40	205.24	49.67	-46.7	-47.8	15.9	0.00e+00	0	31	0	1863319552	58	4356
2026-01-04 12:21:57.40	205.67	49.91	-46.7	-47.8	15.9	0.00e+00	0	31	0	1868562432	58	4345
2026-01-04 12:21:58.41	206.11	50.16	-46.5	-47.6	15.9	0.00e+00	0	31	0	1873805312	58	4254
2026-01-04 12:21:59.40	206.55	50.40	-46.6	-47.6	15.9	0.00e+00	0	31	0	1880096768	58	4290
2026-01-04 12:22:00.40	207.01	50.65	-46.6	-47.7	15.9	0.00e+00	0	31	0	1885339648	58	4318
2026-01-04 12:22:01.39	207.46	50.89	-46.8	-47.8	15.9	0.00e+00	0	31	0	1890582528	58	4391
2026-01-04 12:22:02.40	207.94	51.14	-46.6	-47.6	15.9	0.00e+00	0	31	0	1896873984	58	4280
2026-01-04 12:22:03.40	208.41	51.38	-46.4	-47.4	16.0	0.00e+00	0	31	0	1902116864	58	4167
2026-01-04 12:22:04.39	208.89	51.62	-46.5	-47.6	15.9	0.00e+00	0	31	0	1908408320	58	4250
2026-01-04 12:22:05.39	209.38	51.86	-46.6	-47.7	15.9	0.00e+00	0	31	0	1913651200	58	4315
2026-01-04 12:22:06.39	209.88	52.10	-46.8	-47.9	15.9	0.00e+00	0	31	0	1918894080	58	4401
2026-01-04 12:22:07.39	210.39	52.34	-47.0	-48.1	15.9	0.00e+00	0	31	0	1925185536	59	4274
2026-01-04 12:22:08.39	210.91	52.58	-47.0	-48.1	15.9	0.00e+00	0	31	0	1930428416	59	4245
2026-01-04 12:22:09.39	211.43	52.81	-46.9	-47.9	15.9	0.00e+00	0	31	0	1935671296	59	4189
2026-01-04 12:22:10.39	211.96	53.05	-46.6	-47.7	16.0	0.00e+00	0	31	0	1941962752	59	4059
2026-01-04 12:22:11.39	212.50	53.28	-46.9	-47.9	15.9	0.00e+00	0	31	0	1947205632	59	4191
2026-01-04 12:22:12.39	213.05	53.51	-47.0	-48.1	15.9	0.00e+00	0	31	0	1952448512	59	4280
2026-01-04 12:22:13.39	213.61	53.75	-46.9	-48.0	15.9	0.00e+00	0	31	0	1958739968	59	4194
2026-01-04 12:22:14.39	214.18	53.97	-46.8	-47.9	15.9	0.00e+00	0	31	0	1963982848	59	4150
2026-01-04 12:22:15.39	214.75	54.20	-46.9	-48.0	15.9	0.00e+00	0	31	0	1970274304	59	4208
2026-01-04 12:22:16.40	215.34	54.43	-47.0	-48.1	15.9	0.00e+00	0	31	0	1975517184	59	4273
2026-01-04 12:22:17.40	215.94	54.65	-47.1	-48.2	15.8	0.00e+00	0	31	0	1980760064	59	4296
2026-01-04 12:22:18.40	216.54	54.87	-47.1	-48.1	15.9	0.00e+00	0	31	0	1987051520	59	4287
2026-01-04 12:22:19.38	217.14	55.09	-46.9	-48.0	15.9	0.00e+00	0	31	0	1992294400	59	4197
2026-01-04 12:22:20.37	217.76	55.30	-46.8	-47.8	15.9	0.00e+00	0	31	0	1997537280	59	4137
2026-01-04 12:22:21.37	218.39	55.52	-46.8	-47.8	16.0	0.00e+00	0	31	0	2003828736	59	4134
2026-01-04 12:22:22.37	219.03	55.73	-46.8	-47.8	16.0	0.00e+00	0	31	0	2009071616	59	4128
2026-01-04 12:22:23.38	219.69	55.94	-47.1	-48.1	15.9	0.00e+00	0	31	0	2014314496	59	4275
2026-01-04 12:22:24.38	220.35	56.15	-47.4	-48.5	15.8	0.00e+00	0	31	0	2020605952	59	4467
2026-01-04 12:22:25.37	221.01	56.35	-46.9	-47.9	16.0	0.00e+00	0	31	0	2025848832	60	3948
2026-01-04 12:22:26.37	221.69	56.55	-46.8	-47.8	15.9	0.00e+00	0	31	0	2031091712	59	4126
2026-01-04 12:22:27.37	222.38	56.74	-46.6	-47.6	16.0	0.00e+00	0	31	0	2037383168	59	4042
2026-01-04 12:22:28.37	223.08	56.94	-46.7	-47.7	16.0	0.00e+00	0	31	0	2042626048	59	4090
2026-01-04 12:22:29.38	223.79	57.13	-46.9	-48.0	15.9	0.00e+00	0	31	0	2048917504	59	4220
2026-01-04 12:22:30.37	224.51	57.32	-47.0	-48.0	15.9	0.00e+00	0	31	0	2054160384	59	4235
2026-01-04 12:22:31.37	225.23	57.50	-46.9	-47.9	15.9	0.00e+00	0	31	0	2059403264	59	4190
2026-01-04 12:22:32.37	225.97	57.68	-46.9	-48.0	15.9	0.00e+00	0	31	0	2064646144	59	4204
2026-01-04 12:22:33.36	226.71	57.85	-46.7	-47.7	15.9	0.00e+00	0	31	0	2070937600	59	4087
2026-01-04 12:22:34.36	227.47	58.02	-46.6	-47.6	16.0	0.00e+00	0	31	0	2076180480	59	4027
2026-01-04 12:22:35.36	228.24	58.19	-46.8	-47.8	16.0	0.00e+00	0	31	0	2082471936	59	4144
2026-01-04 12:22:36.36	229.01	58.35	-46.8	-47.9	15.9	0.00e+00	0	31	0	2087714816	59	4151
2026-01-04 12:22:37.36	229.80	58.51	-46.7	-47.8	16.0	0.00e+00	0	31	0	2092957696	59	4116
2026-01-04 12:22:38.36	230.59	58.66	-46.7	-47.8	15.9	0.00e+00	0	31	0	2099249152	59	4103
2026-01-04 12:22:39.37	231.41	58.82	-46.4	-47.4	16.1	0.00e+00	0	31	0	2104492032	59	3941
2026-01-04 12:22:40.36	232.21	58.96	-46.3	-47.3	16.1	0.00e+00	0	31	0	2109734912	59	3900
2026-01-04 12:22:41.37	233.04	59.10	-46.3	-47.4	16.1	0.00e+00	0	31	0	2116026368	59	3930
2026-01-04 12:22:42.37	233.87	59.23	-46.4	-47.4	16.1	0.00e+00	0	31	0	2121269248	59	3945
2026-01-04 12:22:43.37	234.71	59.36	-46.3	-47.4	16.1	0.00e+00	0	31	0	2126512128	59	3919
2026-01-04 12:22:44.37	235.56	59.48	-46.4	-47.4	16.1	0.00e+00	0	31	0	2132803584	59	3948
2026-01-04 12:22:45.37	236.41	59.60	-46.6	-47.7	16.0	0.00e+00	0	31	0	2138046464	59	4062
2026-01-04 12:22:46.37	237.27	59.72	-46.4	-47.5	16.1	0.00e+00	0	31	0	2144337920	59	3973
2026-01-04 12:22:47.37	238.14	59.82	-46.4	-47.4	16.1	0.00e+00	0	31	0	2149580800	59	3932
2026-01-04 12:22:48.37	239.02	59.92	-46.4	-47.4	16.1	0.00e+00	0	31	0	2154823680	59	3932
2026-01-04 12:22:49.37	239.90	60.02	-46.2	-47.2	16.2	0.00e+00	0	31	0	2161115136	59	3858
2026-01-04 12:22:50.37	240.79	60.11	-46.2	-47.2	16.0	0.00e+00	0	31	0	2166358016	58	4087
2026-01-04 12:22:51.37	241.68	60.19	-46.3	-47.3	16.0	0.00e+00	0	31	0	2171600896	58	4131
2026-01-04 12:22:52.37	242.59	60.27	-46.1	-47.1	16.0	0.00e+00	0	31	0	2177892352	58	4049
2026-01-04 12:22:53.37	243.49	60.34	-46.1	-47.1	16.1	0.00e+00	0	31	0	2183135232	58	4027
2026-01-04 12:22:54.37	244.40	60.40	-46.5	-47.5	16.0	0.00e+00	0	31	0	2188378112	58	4222
2026-01-04 12:22:55.38	245.33	60.46	-46.6	-47.7	15.9	0.00e+00	0	31	0	2194669568	58	4324
2026-01-04 12:22:56.38	246.25	60.52	-46.3	-47.3	16.0	0.00e+00	0	31	0	2199912448	58	4136
2026-01-04 12:22:57.39	247.18	60.56	-46.5	-47.5	16.0	0.00e+00	0	31	0	2206203904	58	4226
2026-01-04 12:22:58.39	248.10	60.60	-46.4	-47.4	16.0	0.00e+00	0	31	0	2211446784	58	4186
2026-01-04 12:22:59.39	249.03	60.63	-46.3	-47.3	16.0	0.00e+00	0	31	0	2217738240	58	4110
2026-01-04 12:23:00.38	249.95	60.66	-46.3	-47.4	16.0	0.00e+00	0	31	0	2222981120	58	4152
2026-01-04 12:23:01.37	250.88	60.68	-46.4	-47.4	16.0	0.00e+00	0	31	0	2228224000	58	4187
2026-01-04 12:23:02.37	251.81	60.69	-46.3	-47.3	16.0	0.00e+00	0	31	0	2233466880	58	4135
2026-01-04 12:23:03.36	252.73	60.70	-46.2	-47.2	16.0	0.00e+00	0	31	0	2239758336	58	4081
2026-01-04 12:23:04.35	253.66	60.70	-45.9	-46.9	16.1	0.00e+00	0	31	0	2245001216	58	3950
2026-01-04 12:23:05.35	254.59	60.69	-46.3	-47.3	16.0	0.00e+00	0	31	0	2250244096	58	4135
2026-01-04 12:23:06.36	255.53	60.68	-46.5	-47.6	15.9	0.00e+00	0	31	0	2256535552	58	4259
2026-01-04 12:23:07.35	256.46	60.66	-46.5	-47.5	15.9	0.00e+00	0	31	0	2261778432	58	4219
2026-01-04 12:23:08.36	257.39	60.63	-46.2	-47.2	16.0	0.00e+00	0	31	0	2268069888	58	4090
2026-01-04 12:23:09.36	258.32	60.59	-46.2	-47.2	16.0	0.00e+00	0	31	0	2273312768	58	4097
2026-01-04 12:23:10.35	259.24	60.55	-46.5	-47.6	16.0	0.00e+00	0	31	0	2278555648	58	4246
2026-01-04 12:23:11.35	260.16	60.51	-46.3	-47.4	16.0	0.00e+00	0	31	0	2284847104	58	4151
2026-01-04 12:23:12.34	261.07	60.46	-46.2	-47.2	16.0	0.00e+00	0	31	0	2290089984	58	4093
2026-01-04 12:23:13.34	261.98	60.40	-46.3	-47.3	16.0	0.00e+00	0	31	0	2295332864	58	4144
2026-01-04 12:23:14.34	262.89	60.33	-46.3	-47.3	16.0	0.00e+00	0	31	0	2301624320	58	4141
2026-01-04 12:23:15.34	263.80	60.26	-46.3	-47.3	16.0	0.00e+00	0	31	0	2306867200	58	4136
2026-01-04 12:23:16.34	264.70	60.18	-46.2	-47.2	16.0	0.00e+00	0	31	0	2312110080	58	4069
2026-01-04 12:23:17.34	265.59	60.10	-46.3	-47.4	16.0	0.00e+00	0	31	0	2318401536	58	4151
2026-01-04 12:23:18.34	266.48	60.01	-46.7	-47.8	15.9	0.00e+00	0	31	0	2323644416	58	4361
2026-01-04 12:23:19.35	267.37	59.91	-46.5	-47.6	16.0	0.00e+00	0	31	0	2329935872	58	4254
2026-01-04 12:23:20.35	268.24	59.81	-46.4	-47.5	16.0	0.00e+00	0	31	0	2335178752	58	4205
2026-01-04 12:23:21.34	269.10	59.70	-46.4	-47.5	16.0	0.00e+00	0	31	0	2340421632	58	4195
2026-01-04 12:23:22.34	269.96	59.59	-46.9	-48.0	15.9	0.00e+00	0	31	0	2346713088	58	4451
2026-01-04 12:23:23.33	270.81	59.47	-47.0	-48.1	15.9	0.00e+00	0	31	0	2351955968	59	4278
2026-01-04 12:23:24.33	271.65	59.35	-46.8	-47.8	16.0	0.00e+00	0	31	0	2357198848	59	4145
2026-01-04 12:23:25.33	272.49	59.22	-46.8	-47.9	15.9	0.00e+00	0	31	0	2363490304	59	4155
2026-01-04 12:23:26.33	273.32	59.08	-47.0	-48.1	15.9	0.00e+00	0	31	0	2368733184	59	4274
2026-01-04 12:23:27.33	274.14	58.94	-46.9	-48.0	15.9	0.00e+00	0	31	0	2373976064	59	4198
2026-01-04 12:23:28.32	274.94	58.80	-46.8	-47.8	15.9	0.00e+00	0	31	0	2380267520	59	4144
2026-01-04 12:23:29.31	275.74	58.65	-46.7	-47.7	16.0	0.00e+00	0	31	0	2385510400	59	4089
2026-01-04 12:23:30.31	276.53	58.50	-47.0	-48.1	15.9	0.00e+00	0	31	0	2390753280	59	4268
2026-01-04 12:23:31.30	277.30	58.34	-47.0	-48.1	15.9	0.00e+00	0	31	0	2397044736	59	4285
2026-01-04 12:23:32.29	278.07	58.18	-47.0	-48.0	15.9	0.00e+00	0	31	0	2402287616	59	4241
2026-01-04 12:23:33.29	278.84	58.01	-46.9	-47.9	15.9	0.00e+00	0	31	0	2407530496	59	4170
2026-01-04 12:23:34.27	279.58	57.84	-46.8	-47.9	15.9	0.00e+00	0	31	0	2412773376	59	4153
2026-01-04 12:23:35.27	280.32	57.67	-47.0	-48.1	15.9	0.00e+00	0	31	0	2419064832	59	4254
2026-01-04 12:23:36.27	281.06	57.49	-47.1	-48.2	15.9	0.00e+00	0	31	0	2424307712	59	4309
2026-01-04 12:23:37.27	281.79	57.31	-46.8	-47.8	16.0	0.00e+00	0	31	0	2430599168	59	4137
2026-01-04 12:23:38.27	282.51	57.12	-46.8	-47.8	16.0	0.00e+00	0	31	0	2435842048	59	4124
2026-01-04 12:23:39.26	283.21	56.93	-47.2	-48.3	15.9	0.00e+00	0	31	0	2441084928	59	4342
2026-01-04 12:23:40.26	283.90	56.74	-47.4	-48.5	15.8	0.00e+00	0	31	0	2447376384	59	4477
2026-01-04 12:23:41.25	284.59	56.54	-47.1	-48.2	16.0	0.00e+00	0	31	0	2452619264	60	4056
2026-01-04 12:23:42.26	285.27	56.34	-47.1	-48.1	16.0	0.00e+00	0	31	0	2457862144	60	4050
2026-01-04 12:23:43.25	285.93	56.14	-46.9	-48.0	16.0	0.00e+00	0	31	0	2464153600	60	3959
2026-01-04 12:23:44.26	286.60	55.93	-46.8	-47.9	16.1	0.00e+00	0	31	0	2469396480	60	3931
2026-01-04 12:23:45.27	287.25	55.72	-46.9	-47.9	16.1	0.00e+00	0	31	0	2475687936	60	3958
2026-01-04 12:23:46.27	287.89	55.51	-46.8	-47.8	16.1	0.00e+00	0	31	0	2480930816	60	3905
2026-01-04 12:23:47.27	288.52	55.30	-46.8	-47.9	16.0	0.00e+00	0	31	0	2486173696	60	3922
2026-01-04 12:23:48.27	289.14	55.08	-46.9	-47.9	16.1	0.00e+00	0	31	0	2492465152	60	3952
2026-01-04 12:23:49.27	289.76	54.86	-47.0	-48.0	16.0	0.00e+00	0	31	0	2497708032	60	3986
2026-01-04 12:23:50.27	290.36	54.64	-46.9	-47.9	16.0	0.00e+00	0	31	0	2502950912	60	3934
2026-01-04 12:23:51.27	290.95	54.42	-46.8	-47.8	16.1	0.00e+00	0	31	0	2509242368	60	3908
2026-01-04 12:23:52.27	291.53	54.19	-47.0	-48.0	16.0	0.00e+00	0	31	0	2514485248	60	3980
2026-01-04 12:23:53.26	292.10	53.97	-47.0	-48.1	16.0	0.00e+00	0	31	0	2519728128	60	4009
2026-01-04 12:23:54.26	292.67	53.74	-47.1	-48.1	16.0	0.00e+00	0	31	0	2526019584	60	4035
2026-01-04 12:23:55.26	293.22	53.51	-47.1	-48.1	16.0	0.00e+00	0	31	0	2531262464	60	4029
2026-01-04 12:23:56.26	293.77	53.28	-47.0	-48.0	16.0	0.00e+00	0	31	0	2537553920	60	3998
2026-01-04 12:23:57.26	294.31	53.04	-47.0	-48.1	16.0	0.00e+00	0	31	0	2542796800	60	4013
2026-01-04 12:23:58.26	294.84	52.81	-46.8	-47.8	16.1	0.00e+00	0	31	0	2548039680	60	3898
2026-01-04 12:23:59.26	295.37	52.57	-47.0	-48.1	16.0	0.00e+00	0	31	0	2554331136	60	4024
2026-01-04 12:24:00.26	295.88	52.34	-46.9	-48.0	16.0	0.00e+00	0	31	0	2559574016	60	3980
2026-01-04 12:24:01.26	296.39	52.10	-46.9	-48.0	16.0	0.00e+00	0	31	0	2564816896	60	3983
2026-01-04 12:24:02.27	296.89	51.86	-46.8	-47.8	16.1	0.00e+00	0	31	0	2571108352	60	3893
2026-01-04 12:24:03.27	297.38	51.61	-46.8	-47.8	16.1	0.00e+00	0	31	0	2576351232	60	3883
2026-01-04 12:24:04.27	297.86	51.37	-47.0	-48.0	15.9	0.00e+00	0	31	0	2581594112	59	4218
2026-01-04 12:24:05.27	298.34	51.13	-46.8	-47.9	16.0	0.00e+00	0	31	0	2587885568	59	4148
2026-01-04 12:24:06.27	298.80	50.89	-46.9	-48.0	16.0	0.00e+00	0	31	0	2593128448	59	4200
2026-01-04 12:24:07.27	299.26	50.64	-47.0	-48.0	16.0	0.00e+00	0	31	0	2599419904	59	4236
2026-01-04 12:24:08.27	299.71	50.40	-46.9	-48.0	16.0	0.00e+00	0	31	0	2604662784	59	4213
2026-01-04 12:24:09.27	300.16	50.16	-46.9	-48.0	16.0	0.00e+00	0	31	0	2609905664	59	4203
2026-01-04 12:24:10.27	300.60	49.91	-46.7	-47.8	16.0	0.00e+00	0	31	0	2616197120	59	4106
2026-01-04 12:24:11.27	301.03	49.67	-46.7	-47.8	16.0	0.00e+00	0	31	0	2621440000	59	4104
2026-01-04 12:24:12.26	301.45	49.42	-46.4	-47.5	16.1	0.00e+00	0	31	0	2626682880	59	3963
2026-01-04 12:24:13.26	301.87	49.18	-46.5	-47.5	16.1	0.00e+00	0	31	0	2632974336	59	3972
2026-01-04 12:24:14.26	302.28	48.93	-46.5	-47.6	16.1	0.00e+00	0	31	0	2638217216	59	4009
2026-01-04 12:24:15.27	302.69	48.68	-46.7	-47.8	16.0	0.00e+00	0	31	0	2643460096	59	4117
2026-01-04 12:24:16.26	303.08	48.44	-46.8	-47.8	16.0	0.00e+00	0	31	0	2649751552	59	4143
2026-01-04 12:24:17.27	303.48	48.19	-46.7	-47.7	16.0	0.00e+00	0	31	0	2654994432	59	4088
2026-01-04 12:24:18.26	303.86	47.94	-46.4	-47.4	16.1	0.00e+00	0	31	0	2661285888	59	3916
2026-01-04 12:24:19.26	304.24	47.70	-46.4	-47.4	16.1	0.00e+00	0	31	0	2666528768	59	3932
2026-01-04 12:24:20.25	304.61	47.45	-46.2	-47.3	16.2	0.00e+00	0	31	0	2671771648	59	3872
2026-01-04 12:24:21.25	304.98	47.21	-46.3	-47.3	16.2	0.00e+00	0	31	0	2678063104	59	3887
2026-01-04 12:24:22.25	305.34	46.96	-46.3	-47.3	16.2	0.00e+00	0	31	0	2683305984	59	3882
2026-01-04 12:24:23.25	305.70	46.72	-46.2	-47.3	16.2	0.00e+00	0	31	0	2688548864	59	3883
2026-01-04 12:24:24.25	306.05	46.47	-46.5	-47.5	16.1	0.00e+00	0	31	0	2694840320	59	3985
2026-01-04 12:24:25.25	306.39	46.23	-46.5	-47.6	16.1	0.00e+00	0	31	0	2700083200	59	4016
2026-01-04 12:24:26.24	306.73	45.98	-46.5	-47.6	16.1	0.00e+00	0	31	0	2705326080	59	4012
2026-01-04 12:24:27.23	307.06	45.74	-46.6	-47.6	16.0	0.00e+00	0	31	0	2711617536	59	4044
2026-01-04 12:24:28.23	307.40	45.50	-46.4	-47.4	16.1	0.00e+00	0	31	0	2716860416	59	3942
2026-01-04 12:24:29.23	307.72	45.26	-46.4	-47.5	16.1	0.00e+00	0	31	0	2723151872	59	3971
2026-01-04 12:24:30.23	308.04	45.01	-46.3	-47.4	16.1	0.00e+00	0	31	0	2728394752	59	3932
2026-01-04 12:24:31.23	308.36	44.77	-46.4	-47.5	16.1	0.00e+00	0	31	0	2733637632	59	3970
2026-01-04 12:24:32.22	308.67	44.53	-46.3	-47.3	16.1	0.00e+00	0	31	0	2738880512	59	3909
2026-01-04 12:24:33.22	308.97	44.29	-46.3	-47.3	16.2	0.00e+00	0	31	0	2745171968	59	3877
2026-01-04 12:24:34.22	309.28	44.05	-46.3	-47.4	16.2	0.00e+00	0	31	0	2750414848	59	3915
2026-01-04 12:24:35.22	309.57	43.81	-46.2	-47.2	16.2	0.00e+00	0	31	0	2755657728	59	3865
2026-01-04 12:24:36.22	309.87	43.57	-46.2	-47.2	16.2	0.00e+00	0	31	0	2761949184	59	3868
2026-01-04 12:24:37.22	310.16	43.33	-46.3	-47.3	16.1	0.00e+00	0	31	0	2767192064	59	3911
2026-01-04 12:24:38.21	310.44	43.10	-46.4	-47.5	16.1	0.00e+00	0	31	0	2773483520	59	3966
2026-01-04 12:24:39.20	310.72	42.86	-46.5	-47.5	16.1	0.00e+00	0	31	0	2778726400	59	3975
2026-01-04 12:24:40.21	311.00	42.62	-46.5	-47.5	16.1	0.00e+00	0	31	0	2783969280	59	3981
2026-01-04 12:24:41.20	311.27	42.39	-46.1	-47.1	16.1	0.00e+00	0	31	0	2790260736	58	4012
2026-01-04 12:24:42.20	311.53	42.16	-46.1	-47.1	16.1	0.00e+00	0	31	0	2795503616	58	4018
2026-01-04 12:24:43.20	311.80	41.92	-46.0	-47.0	16.1	0.00e+00	0	31	0	2800746496	58	4004
2026-01-04 12:24:44.20	312.06	41.69	-46.3	-47.3	16.1	0.00e+00	0	31	0	2807037952	58	4113
2026-01-04 12:24:45.20	312.32	41.46	-46.3	-47.4	16.0	0.00e+00	0	31	0	2812280832	58	4151
2026-01-04 12:24:46.19	312.57	41.23	-46.3	-47.4	16.0	0.00e+00	0	31	0	2817523712	58	4155
2026-01-04 12:24:47.19	312.82	41.00	-46.3	-47.3	16.0	0.00e+00	0	31	0	2823815168	58	4126
2026-01-04 12:24:48.19	313.07	40.77	-46.3	-47.3	16.0	0.00e+00	0	31	0	2829058048	58	4133
2026-01-04 12:24:49.19	313.31	40.54	-46.1	-47.1	16.1	0.00e+00	0	31	0	2835349504	58	4040
2026-01-04 12:24:50.19	313.55	40.31	-46.0	-47.0	16.1	0.00e+00	0	31	0	2840592384	58	3981
2026-01-04 12:24:51.19	313.79	40.08	-46.0	-47.0	16.1	0.00e+00	0	31	0	2845835264	58	3983
2026-01-04 12:24:52.18	314.02	39.86	-46.0	-47.1	16.1	0.00e+00	0	31	0	2852126720	58	4007
2026-01-04 12:24:53.18	314.25	39.64	-45.8	-46.8	16.2	0.00e+00	0	31	0	2857369600	58	3913
2026-01-04 12:24:54.18	314.48	39.41	-45.8	-46.8	16.2	0.00e+00	0	31	0	2862612480	58	3906
2026-01-04 12:24:55.19	314.71	39.19	-45.9	-46.9	16.2	0.00e+00	0	31	0	2868903936	58	3936
2026-01-04 12:24:56.18	314.93	38.97	-46.0	-47.0	16.1	0.00e+00	0	31	0	2874146816	58	3972
2026-01-04 12:24:57.18	315.14	38.75	-45.9	-46.9	16.1	0.00e+00	0	31	0	2879389696	58	3956
2026-01-04 12:24:58.18	315.36	38.52	-45.9	-47.0	16.1	0.00e+00	0	31	0	2885681152	58	3959
2026-01-04 12:24:59.17	315.57	38.31	-45.8	-46.8	16.2	0.00e+00	0	31	0	2890924032	58	3906
2026-01-04 12:25:00.17	315.78	38.09	-45.8	-46.8	16.2	0.00e+00	0	31	0	2896166912	58	3883
2026-01-04 12:25:01.17	315.99	37.87	-45.7	-46.7	16.2	0.00e+00	0	31	0	2902458368	58	3856
2026-01-04 12:25:02.16	316.19	37.66	-45.7	-46.7	16.2	0.00e+00	0	31	0	2907701248	58	3848
2026-01-04 12:25:03.16	316.39	37.44	-45.6	-46.6	16.1	0.00e+00	0	31	0	2912944128	57	4048
2026-01-04 12:25:04.16	316.59	37.23	-45.6	-46.6	16.1	0.00e+00	0	31	0	2919235584	57	4042
2026-01-04 12:25:05.16	316.79	37.02	-45.6	-46.6	16.1	0.00e+00	0	31	0	2924478464	57	4049
2026-01-04 12:25:06.17	316.99	36.80	-45.6	-46.6	16.1	0.00e+00	0	31	0	2929721344	57	4009
2026-01-04 12:25:07.16	317.18	36.59	-45.7	-46.7	16.1	0.00e+00	0	31	0	2936012800	57	4055
2026-01-04 12:25:08.16	317.37	36.38	-45.7	-46.7	16.1	0.00e+00	0	31	0	2941255680	57	4092
2026-01-04 12:25:09.16	317.55	36.17	-46.0	-47.0	16.0	0.00e+00	0	31	0	2947547136	57	4213
2026-01-04 12:25:10.16	317.74	35.97	-45.9	-46.9	16.0	0.00e+00	0	31	0	2952790016	57	4189
2026-01-04 12:25:11.15	317.92	35.76	-46.0	-47.1	16.0	0.00e+00	0	31	0	2958032896	57	4247
2026-01-04 12:25:12.16	318.10	35.55	-46.0	-47.1	16.0	0.00e+00	0	31	0	2964324352	57	4261
2026-01-04 12:25:13.16	318.28	35.35	-46.0	-47.0	16.0	0.00e+00	0	31	0	2969567232	57	4234
2026-01-04 12:25:14.17	318.46	35.14	-46.0	-47.0	16.0	0.00e+00	0	31	0	2974810112	57	4234
2026-01-04 12:25:15.16	318.63	34.94	-46.0	-47.0	16.0	0.00e+00	0	31	0	2981101568	57	4242
2026-01-04 12:25:16.16	318.80	34.74	-46.0	-47.0	16.0	0.00e+00	0	31	0	2986344448	57	4227
2026-01-04 12:25:17.17	318.97	34.54	-46.0	-47.0	16.0	0.00e+00	0	31	0	2991587328	57	4231
2026-01-04 12:25:18.17	319.14	34.34	-46.0	-47.0	16.0	0.00e+00	0	31	0	2997878784	57	4237
2026-01-04 12:25:19.17	319.31	34.14	-46.0	-47.0	16.0	0.00e+00	0	31	0	3003121664	57	4218
2026-01-04 12:25:20.18	319.47	33.94	-46.0	-47.0	16.0	0.00e+00	0	31	0	3009413120	57	4219
2026-01-04 12:25:21.17	319.63	33.74	-46.0	-47.1	16.0	0.00e+00	0	31	0	3014656000	57	4244
2026-01-04 12:25:22.17	319.79	33.55	-45.8	-46.8	16.1	0.00e+00	0	31	0	3019898880	57	4127
2026-01-04 12:25:23.17	319.95	33.35	-45.8	-46.8	16.1	0.00e+00	0	31	0	3026190336	57	4127
2026-01-04 12:25:24.17	320.11	33.16	-45.7	-46.7	16.1	0.00e+00	0	31	0	3031433216	57	4089
2026-01-04 12:25:25.17	320.26	32.97	-45.6	-46.6	16.1	0.00e+00	0	31	0	3036676096	57	4051
2026-01-04 12:25:26.16	320.42	32.78	-45.7	-46.7	16.1	0.00e+00	0	31	0	3042967552	57	4056
2026-01-04 12:25:27.17	320.57	32.59	-45.8	-46.8	16.1	0.00e+00	0	31	0	3048210432	57	4124
2026-01-04 12:25:28.17	320.72	32.40	-45.8	-46.8	16.1	0.00e+00	0	31	0	3053453312	57	4110
2026-01-04 12:25:29.16	320.86	32.21	-45.7	-46.7	16.1	0.00e+00	0	31	0	3059744768	57	4079
2026-01-04 12:25:30.16	321.01	32.02	-45.7	-46.7	16.1	0.00e+00	0	31	0	3064987648	57	4096
2026-01-04 12:25:31.16	321.15	31.83	-45.8	-46.8	16.1	0.00e+00	0	31	0	3071279104	57	4132
2026-01-04 12:25:32.16	321.30	31.65	-45.8	-46.8	16.1	0.00e+00	0	31	0	3076521984	57	4142
2026-01-04 12:25:33.15	321.44	31.47	-46.0	-47.0	16.0	0.00e+00	0	31	0	3081764864	57	4211
2026-01-04 12:25:34.15	321.58	31.28	-45.9	-46.9	16.0	0.00e+00	0	31	0	3088056320	57	4187
2026-01-04 12:25:35.15	321.71	31.10	-46.0	-47.0	16.0	0.00e+00	0	31	0	3093299200	57	4227
2026-01-04 12:25:36.14	321.85	30.92	-46.0	-47.0	16.0	0.00e+00	0	31	0	3098542080	57	4234
2026-01-04 12:25:37.14	321.99	30.74	-46.0	-47.1	16.0	0.00e+00	0	31	0	3104833536	57	4256
2026-01-04 12:25:38.13	322.12	30.56	-46.1	-47.1	16.0	0.00e+00	0	31	0	3110076416	57	4284
2026-01-04 12:25:39.13	322.25	30.38	-46.0	-47.1	16.0	0.00e+00	0	31	0	3115319296	57	4248
2026-01-04 12:25:40.13	322.38	30.20	-46.1	-47.2	16.0	0.00e+00	0	31	0	3121610752	57	4302
2026-01-04 12:25:41.12	322.51	30.03	-46.0	-47.1	16.0	0.00e+00	0	31	0	3126853632	57	4253
2026-01-04 12:25:42.12	322.64	29.85	-46.0	-47.0	16.0	0.00e+00	0	31	0	3132096512	57	4231
2026-01-04 12:25:43.12	322.77	29.68	-46.0	-47.0	16.0	0.00e+00	0	31	0	3138387968	57	4234
2026-01-04 12:25:44.13	322.89	29.50	-46.0	-47.0	16.0	0.00e+00	0	31	0	3143630848	57	4232
2026-01-04 12:25:45.13	323.02	29.33	-46.0	-47.0	16.0	0.00e+00	0	31	0	3149922304	57	4222
2026-01-04 12:25:46.12	323.14	29.16	-46.0	-47.0	16.0	0.00e+00	0	31	0	3155165184	57	4233
2026-01-04 12:25:47.12	323.26	28.99	-46.0	-47.0	16.0	0.00e+00	0	31	0	3160408064	57	4216
2026-01-04 12:25:48.12	323.38	28.82	-46.0	-47.1	16.0	0.00e+00	0	31	0	3166699520	57	4256
2026-01-04 12:25:49.12	323.50	28.65	-46.0	-47.0	16.0	0.00e+00	0	31	0	3171942400	57	4208
2026-01-04 12:25:50.12	323.62	28.48	-45.9	-47.0	16.0	0.00e+00	0	31	0	3177185280	57	4194
2026-01-04 12:25:51.12	323.74	28.31	-46.0	-47.0	16.0	0.00e+00	0	31	0	3183476736	57	4210
2026-01-04 12:25:52.11	323.85	28.14	-46.0	-47.0	16.0	0.00e+00	0	31	0	3188719616	57	4223
2026-01-04 12:25:53.10	323.96	27.98	-46.0	-47.0	16.0	0.00e+00	0	31	0	3193962496	57	4205
2026-01-04 12:25:54.10	324.08	27.82	-46.0	-47.0	16.0	0.00e+00	0	31	0	3200253952	57	4215
2026-01-04 12:25:55.10	324.19	27.65	-46.1	-47.1	16.0	0.00e+00	0	31	0	3205496832	57	4280
2026-01-04 12:25:56.11	324.30	27.49	-46.1	-47.1	16.0	0.00e+00	0	31	0	3210739712	57	4280
2026-01-04 12:25:57.11	324.41	27.32	-46.1	-47.1	16.0	0.00e+00	0	31	0	3217031168	57	4291
2026-01-04 12:25:58.11	324.52	27.16	-46.1	-47.2	16.0	0.00e+00	0	31	0	3222274048	57	4292
2026-01-04 12:25:59.11	324.63	27.00	-46.1	-47.2	16.0	0.00e+00	0	31	0	3228565504	57	4292
2026-01-04 12:26:00.11	324.74	26.84	-46.2	-47.3	15.9	0.00e+00	0	31	0	3233808384	57	4341
2026-01-04 12:26:01.10	324.84	26.68	-46.1	-47.2	15.9	0.00e+00	0	31	0	3239051264	57	4308
2026-01-04 12:26:02.10	324.95	26.52	-46.2	-47.2	16.0	0.00e+00	0	31	0	3245342720	57	4327
2026-01-04 12:26:03.10	325.05	26.37	-46.2	-47.3	16.0	0.00e+00	0	31	0	3250585600	57	4341
2026-01-04 12:26:04.10	325.15	26.21	-46.2	-47.2	16.0	0.00e+00	0	31	0	3255828480	57	4334
2026-01-04 12:26:05.10	325.26	26.06	-46.2	-47.2	15.9	0.00e+00	0	31	0	3262119936	57	4329
2026-01-04 12:26:06.10	325.36	25.90	-46.2	-47.3	15.9	0.00e+00	0	31	0	3267362816	57	4349
2026-01-04 12:26:07.10	325.46	25.75	-46.2	-47.3	16.0	0.00e+00	0	31	0	3272605696	57	4351
2026-01-04 12:26:08.10	325.56	25.59	-46.3	-47.3	15.9	0.00e+00	0	31	0	3278897152	57	4387
2026-01-04 12:26:09.10	325.65	25.44	-46.3	-47.4	15.9	0.00e+00	0	31	0	3284140032	57	4396
2026-01-04 12:26:10.09	325.75	25.29	-46.4	-47.4	15.9	0.00e+00	0	31	0	3290431488	57	4417
2026-01-04 12:26:11.09	325.85	25.14	-46.5	-47.6	15.9	0.00e+00	0	31	0	3295674368	58	4252
2026-01-04 12:26:12.09	325.94	24.99	-46.4	-47.5	16.0	0.00e+00	0	31	0	3300917248	58	4214
2026-01-04 12:26:13.08	326.04	24.84	-46.5	-47.5	16.0	0.00e+00	0	31	0	3307208704	58	4240
2026-01-04 12:26:14.08	326.13	24.69	-46.6	-47.6	16.0	0.00e+00	0	31	0	3312451584	58	4273
2026-01-04 12:26:15.08	326.22	24.54	-46.6	-47.6	16.0	0.00e+00	0	31	0	3317694464	58	4282
2026-01-04 12:26:16.08	326.32	24.40	-46.6	-47.6	16.0	0.00e+00	0	31	0	3323985920	58	4282
2026-01-04 12:26:17.09	326.41	24.25	-46.6	-47.7	15.9	0.00e+00	0	31	0	3329228800	58	4304
2026-01-04 12:26:18.08	326.50	24.10	-46.7	-47.7	15.9	0.00e+00	0	31	0	3334471680	58	4333
2026-01-04 12:26:19.08	326.59	23.96	-46.6	-47.7	15.9	0.00e+00	0	31	0	3340763136	58	4318
2026-01-04 12:26:20.08	326.68	23.82	-46.6	-47.7	15.9	0.00e+00	0	31	0	3346006016	58	4318
2026-01-04 12:26:21.08	326.77	23.67	-46.6	-47.7	15.9	0.00e+00	0	31	0	3352297472	58	4327
2026-01-04 12:26:22.08	326.85	23.53	-46.7	-47.7	15.9	0.00e+00	0	31	0	3357540352	58	4339
2026-01-04 12:26:23.08	326.94	23.39	-46.6	-47.7	15.9	0.00e+00	0	31	0	3362783232	58	4310
2026-01-04 12:26:24.08	327.03	23.25	-46.7	-47.8	15.9	0.00e+00	0	31	0	3369074688	58	4346
2026-01-04 12:26:25.07	327.11	23.11	-46.6	-47.7	15.9	0.00e+00	0	31	0	3374317568	58	4299
2026-01-04 12:26:26.07	327.20	22.97	-46.7	-47.8	15.9	0.00e+00	0	31	0	3379560448	58	4351
2026-01-04 12:26:27.07	327.28	22.83	-46.8	-47.9	15.9	0.00e+00	0	31	0	3384803328	58	4404
2026-01-04 12:26:28.06	327.36	22.69	-46.7	-47.8	15.9	0.00e+00	0	31	0	3391094784	58	4365
2026-01-04 12:26:29.06	327.45	22.55	-46.8	-47.9	15.9	0.00e+00	0	31	0	3396337664	58	4427
2026-01-04 12:26:30.06	327.53	22.42	-46.8	-47.9	15.9	0.00e+00	0	31	0	3402629120	58	4428
2026-01-04 12:26:31.06	327.61	22.28	-46.8	-47.9	15.9	0.00e+00	0	31	0	3407872000	58	4417
2026-01-04 12:26:32.06	327.69	22.14	-47.0	-48.0	15.9	0.00e+00	0	31	0	3413114880	59	4240
2026-01-04 12:26:33.06	327.77	22.01	-47.0	-48.1	15.9	0.00e+00	0	31	0	3419406336	59	4260
2026-01-04 12:26:34.05	327.85	21.88	-47.0	-48.1	15.9	0.00e+00	0	31	0	3424649216	59	4287
2026-01-04 12:26:35.05	327.93	21.74	-47.0	-48.1	15.9	0.00e+00	0	31	0	3429892096	59	4276
2026-01-04 12:26:36.06	328.01	21.61	-47.1	-48.2	15.9	0.00e+00	0	31	0	3436183552	59	4312
2026-01-04 12:26:37.05	328.08	21.48	-47.1	-48.2	15.9	0.00e+00	0	31	0	3441426432	59	4333
2026-01-04 12:26:38.04	328.16	21.35	-47.1	-48.2	15.9	0.00e+00	0	31	0	3446669312	59	4302
2026-01-04 12:26:39.04	328.23	21.21	-47.2	-48.3	15.9	0.00e+00	0	31	0	3452960768	59	4344
2026-01-04 12:26:40.04	328.31	21.08	-47.1	-48.2	15.9	0.00e+00	0	31	0	3458203648	59	4323
2026-01-04 12:26:41.04	328.38	20.95	-47.2	-48.3	15.9	0.00e+00	0	31	0	3464495104	59	4347
2026-01-04 12:26:42.03	328.46	20.83	-47.3	-48.4	15.8	0.00e+00	0	31	0	3469737984	59	4411
2026-01-04 12:26:43.03	328.53	20.70	-47.3	-48.4	15.8	0.00e+00	0	31	0	3474980864	59	4431
2026-01-04 12:26:44.03	328.61	20.57	-47.2	-48.3	15.9	0.00e+00	0	31	0	3481272320	59	4369
2026-01-04 12:26:45.03	328.68	20.44	-47.2	-48.3	15.9	0.00e+00	0	31	0	3486515200	59	4380
2026-01-04 12:26:46.03	328.75	20.31	-47.3	-48.4	15.8	0.00e+00	0	31	0	3491758080	59	4407
2026-01-04 12:26:47.02	328.82	20.19	-47.3	-48.4	15.9	0.00e+00	0	31	0	3497000960	59	4438
2026-01-04 12:26:48.02	328.89	20.06	-47.3	-48.4	15.9	0.00e+00	0	31	0	3503292416	59	4441
2026-01-04 12:26:49.02	328.96	19.94	-47.3	-48.4	15.8	0.00e+00	0	31	0	3508535296	59	4437
2026-01-04 12:26:50.02	329.03	19.81	-47.1	-48.2	15.9	0.00e+00	0	31	0	3514826752	60	4087
2026-01-04 12:26:51.01	329.10	19.69	-47.1	-48.2	16.0	0.00e+00	0	31	0	3520069632	60	4055
2026-01-04 12:26:52.01	329.17	19.57	-47.1	-48.1	16.0	0.00e+00	0	31	0	3525312512	60	4041
2026-01-04 12:26:53.01	329.24	19.45	-47.2	-48.2	15.9	0.00e+00	0	31	0	3531603968	60	4097
2026-01-04 12:26:54.01	329.31	19.32	-47.1	-48.2	15.9	0.00e+00	0	31	0	3536846848	60	4082
2026-01-04 12:26:55.00	329.37	19.20	-47.3	-48.4	15.9	0.00e+00	0	31	0	3542089728	60	4163
2026-01-04 12:26:56.00	329.44	19.08	-47.2	-48.3	15.9	0.00e+00	0	31	0	3548381184	60	4131
2026-01-04 12:26:57.00	329.51	18.96	-47.3	-48.4	15.9	0.00e+00	0	31	0	3553624064	60	4165
2026-01-04 12:26:58.00	329.57	18.84	-47.4	-48.5	15.8	0.00e+00	0	31	0	3558866944	60	4195
2026-01-04 12:26:58.99	329.64	18.72	-47.5	-48.6	15.8	0.00e+00	0	31	0	3565158400	60	4249
2026-01-04 12:26:59.99	329.70	18.60	-47.5	-48.5	15.8	0.00e+00	0	31	0	3570401280	60	4240
2026-01-04 12:27:01.00	329.77	18.48	-47.5	-48.6	15.8	0.00e+00	0	31	0	3576692736	60	4260
2026-01-04 12:27:02.00	329.83	18.37	-47.5	-48.6	15.8	0.00e+00	0	31	0	3581935616	60	4279
2026-01-04 12:27:03.00	329.89	18.25	-47.5	-48.6	15.8	0.00e+00	0	31	0	3587178496	60	4286
2026-01-04 12:27:03.99	329.96	18.13	-47.6	-48.7	15.8	0.00e+00	0	31	0	3593469952	60	4308
2026-01-04 12:27:04.99	330.02	18.02	-47.6	-48.7	15.8	0.00e+00	0	31	0	3598712832	60	4309
2026-01-04 12:27:05.99	330.08	17.90	-47.7	-48.8	15.7	0.00e+00	0	31	0	3603955712	60	4352
2026-01-04 12:27:06.98	330.14	17.79	-47.6	-48.7	15.8	0.00e+00	0	31	0	3610247168	60	4329
2026-01-04 12:27:07.98	330.20	17.67	-47.8	-48.9	15.7	0.00e+00	0	31	0	3615490048	60	4404
2026-01-04 12:27:08.98	330.26	17.56	-47.7	-48.9	15.7	0.00e+00	0	31	0	3620732928	60	4407
2026-01-04 12:27:09.98	330.32	17.45	-47.6	-48.8	15.8	0.00e+00	0	31	0	3627024384	60	4351
2026-01-04 12:27:10.97	330.38	17.33	-47.7	-48.9	15.7	0.00e+00	0	31	0	3632267264	60	4396
2026-01-04 12:27:11.97	330.44	17.22	-47.8	-48.9	15.7	0.00e+00	0	31	0	3637510144	60	4437
2026-01-04 12:27:12.97	330.50	17.11	-47.7	-48.9	15.7	0.00e+00	0	31	0	3643801600	60	4397
2026-01-04 12:27:13.97	330.56	17.00	-47.8	-49.0	15.7	0.00e+00	0	31	0	3649044480	60	4451
