passes_logs/2026/01/04/R3.2S_Murmansk/R3.2S_Murmansk__20260104_071752_FENGYUN_3D_rec.log

#Pass ID: 20260104_071752_FENGYUN 3D
#Satellite: FENGYUN 3D
#Configuration: FENGYUN 3D
#almurnet v.1.7.20251203
#Start time: 2026-01-04 07:17:52

#Version: 2.2.20231116
#Station: R3.2S_Murmansk
#Location: 33.079688 lon 68.888172 lat
#TLE: 1 43010U 17072A   26003.93866112 -.00000029  00000+0  82070-5 0  9995
#TLE: 2 43010  98.9913 335.5841 0001959 128.6134 231.5217 14.19691935421687

#Time	Az	El	Level	Level2	SNR	BER	BlckErr	Temp	State	Recorded	gain1	gain2
2026-01-04 07:17:52.74	64.14	2.01	-58.4	-71.4	3.8	8.46e-01	0	26	0	0	83	15678
2026-01-04 07:17:53.74	64.08	2.07	-58.3	-71.4	3.8	8.45e-01	0	26	104	0	81	17529
2026-01-04 07:17:54.75	64.01	2.13	-58.3	-71.4	3.8	8.45e-01	0	27	104	0	81	17537
2026-01-04 07:17:55.77	63.95	2.18	-58.3	-71.4	3.8	8.45e-01	0	26	104	0	81	17521
2026-01-04 07:17:56.78	63.89	2.24	-58.4	-71.4	3.8	8.46e-01	0	26	104	0	81	17574
2026-01-04 07:17:57.78	63.82	2.30	-58.4	-71.4	3.8	8.45e-01	0	26	104	0	81	17593
2026-01-04 07:17:58.79	63.76	2.36	-58.4	-71.4	3.8	8.45e-01	0	26	104	0	81	17617
2026-01-04 07:17:59.80	63.69	2.41	-58.4	-71.4	3.8	8.45e-01	0	27	104	0	81	17599
2026-01-04 07:18:00.81	63.63	2.47	-58.3	-71.4	3.8	8.46e-01	0	27	104	0	81	17566
2026-01-04 07:18:01.82	63.56	2.53	-58.3	-71.4	3.8	8.45e-01	0	27	104	0	81	17575
2026-01-04 07:18:02.82	63.50	2.59	-58.3	-71.4	3.8	8.46e-01	0	27	104	0	81	17511
2026-01-04 07:18:03.83	63.43	2.65	-58.3	-71.4	3.8	8.46e-01	0	27	104	0	81	17496
2026-01-04 07:18:04.84	63.36	2.71	-58.3	-71.3	3.8	8.46e-01	0	27	104	0	81	17448
2026-01-04 07:18:05.85	63.30	2.76	-58.3	-71.3	3.8	8.46e-01	0	27	104	0	81	17431
2026-01-04 07:18:06.86	63.23	2.82	-58.3	-71.4	3.8	8.45e-01	0	27	104	0	81	17488
2026-01-04 07:18:07.87	63.16	2.88	-58.3	-71.3	3.8	8.46e-01	0	27	104	0	81	17432
2026-01-04 07:18:08.88	63.10	2.94	-58.3	-71.4	3.8	8.45e-01	0	27	104	0	81	17488
2026-01-04 07:18:09.89	63.03	3.00	-58.3	-71.3	3.8	8.46e-01	0	27	104	0	81	17446
2026-01-04 07:18:10.90	62.96	3.06	-58.4	-71.4	3.8	8.46e-01	0	27	104	0	81	17512
2026-01-04 07:18:11.90	62.89	3.12	-58.3	-71.3	3.8	8.44e-01	0	27	104	0	81	17433
2026-01-04 07:18:12.91	62.83	3.18	-58.3	-71.3	3.8	8.46e-01	0	27	104	0	81	17451
2026-01-04 07:18:13.92	62.76	3.23	-58.3	-71.3	3.8	8.45e-01	0	27	104	0	81	17481
2026-01-04 07:18:14.93	62.69	3.29	-58.3	-71.4	3.8	8.46e-01	0	27	104	0	81	17493
2026-01-04 07:18:15.94	62.62	3.35	-58.3	-71.4	3.8	8.45e-01	0	27	104	0	81	17541
2026-01-04 07:18:16.95	62.55	3.41	-58.3	-71.4	3.8	8.47e-01	0	27	104	0	81	17499
2026-01-04 07:18:17.96	62.48	3.47	-58.3	-71.3	3.8	8.45e-01	0	27	104	0	81	17429
2026-01-04 07:18:18.97	62.41	3.53	-58.3	-71.3	3.8	8.45e-01	0	27	104	0	81	17370
2026-01-04 07:18:19.98	62.34	3.59	-58.3	-71.3	3.8	8.44e-01	0	27	104	0	81	17306
2026-01-04 07:18:20.99	62.27	3.65	-58.3	-71.3	3.8	8.45e-01	0	27	104	0	81	17312
2026-01-04 07:18:22.00	62.19	3.71	-58.3	-71.3	3.8	8.45e-01	0	27	104	0	81	17347
2026-01-04 07:18:23.01	62.12	3.77	-58.3	-71.3	3.8	8.44e-01	0	27	104	0	81	17475
2026-01-04 07:18:24.02	62.05	3.83	-58.3	-71.4	3.8	8.46e-01	0	27	104	0	81	17532
2026-01-04 07:18:25.03	61.98	3.89	-58.3	-71.3	3.8	8.45e-01	0	27	104	0	81	17441
2026-01-04 07:18:26.04	61.91	3.95	-58.3	-71.3	3.8	8.46e-01	0	27	104	0	81	17319
2026-01-04 07:18:27.05	61.83	4.01	-58.3	-71.2	3.8	8.45e-01	0	27	104	0	81	17095
2026-01-04 07:18:28.06	61.76	4.07	-58.3	-71.0	3.8	8.44e-01	0	27	104	0	81	16881
2026-01-04 07:18:29.06	61.69	4.13	-58.3	-71.1	3.8	8.46e-01	0	27	104	0	81	16895
2026-01-04 07:18:30.07	61.61	4.19	-58.3	-71.1	3.8	8.45e-01	0	27	104	0	81	17070
2026-01-04 07:18:31.08	61.54	4.25	-58.3	-71.3	3.8	8.46e-01	0	28	104	0	81	17328
2026-01-04 07:18:32.09	61.47	4.31	-58.3	-71.4	3.8	8.45e-01	0	27	104	0	81	17546
2026-01-04 07:18:33.10	61.39	4.38	-58.3	-71.3	3.8	8.44e-01	0	27	104	0	81	17402
2026-01-04 07:18:34.11	61.32	4.44	-58.3	-71.0	3.8	8.46e-01	0	27	104	0	81	16887
2026-01-04 07:18:35.13	61.24	4.50	-58.3	-70.4	3.8	8.45e-01	0	27	104	0	81	15713
2026-01-04 07:18:36.13	61.17	4.56	-58.2	-69.4	3.9	8.45e-01	0	28	104	0	81	13938
2026-01-04 07:18:37.14	61.09	4.62	-58.1	-68.3	4.1	8.40e-01	0	27	0	0	81	12293
2026-01-04 07:18:38.15	61.01	4.68	-57.9	-66.9	4.5	8.29e-01	0	28	0	0	81	10445
2026-01-04 07:18:39.16	60.94	4.74	-57.7	-65.7	5.0	7.78e-01	0	28	0	0	81	9071
2026-01-04 07:18:40.16	60.86	4.80	-57.5	-64.5	5.7	6.22e-01	0	28	0	1048576	81	7928
2026-01-04 07:18:41.17	60.78	4.87	-57.1	-63.2	6.5	2.17e-01	0	28	0	6291456	80	7264
2026-01-04 07:18:42.18	60.71	4.93	-56.8	-62.0	7.5	1.01e-01	0	28	0	12582912	80	6304
2026-01-04 07:18:43.18	60.63	4.99	-56.4	-60.9	8.4	4.44e-02	0	28	0	17825792	79	5919
2026-01-04 07:18:44.19	60.55	5.05	-56.0	-60.0	9.2	1.04e-02	0	28	0	24117248	78	5649
2026-01-04 07:18:45.20	60.47	5.11	-56.1	-60.3	9.1	9.21e-03	0	28	0	29360128	78	5813
2026-01-04 07:18:46.21	60.39	5.17	-57.4	-64.0	6.0	6.23e-01	0	28	0	34603008	80	7944
2026-01-04 07:18:47.22	60.31	5.24	-55.4	-58.8	10.2	2.00e-03	0	28	0	39845888	77	5204
2026-01-04 07:18:48.23	60.23	5.30	-52.2	-54.2	13.1	0.00e+00	0	28	0	46137344	69	4822
2026-01-04 07:18:49.24	60.15	5.36	-57.4	-64.2	5.8	6.04e-01	0	28	0	49283072	80	8089
2026-01-04 07:18:50.25	60.07	5.42	-51.4	-53.1	13.7	0.00e+00	0	28	0	55574528	69	4270
2026-01-04 07:18:51.26	59.99	5.49	-50.9	-52.5	13.9	0.00e+00	0	28	0	60817408	68	4212
2026-01-04 07:18:52.26	59.91	5.55	-50.4	-52.0	14.1	0.00e+00	0	28	0	66060288	67	4212
2026-01-04 07:18:53.27	59.83	5.61	-50.5	-52.1	14.0	0.00e+00	0	28	0	72351744	67	4253
2026-01-04 07:18:54.27	59.75	5.67	-50.1	-51.6	14.2	0.00e+00	0	28	0	77594624	66	4262
2026-01-04 07:18:55.28	59.67	5.74	-49.9	-51.4	14.3	0.00e+00	0	28	0	82837504	66	4164
2026-01-04 07:18:56.29	59.58	5.80	-50.0	-51.5	14.2	0.00e+00	0	28	0	89128960	66	4201
2026-01-04 07:18:57.29	59.50	5.86	-49.9	-51.4	14.3	0.00e+00	0	28	0	94371840	66	4154
2026-01-04 07:18:58.30	59.42	5.92	-50.0	-51.5	14.2	0.00e+00	0	28	0	100663296	66	4209
2026-01-04 07:18:59.31	59.33	5.99	-50.0	-51.4	14.3	0.00e+00	0	28	0	105906176	66	4189
2026-01-04 07:19:00.30	59.25	6.05	-50.0	-51.4	14.2	0.00e+00	0	28	0	112197632	66	4189
2026-01-04 07:19:01.30	59.17	6.11	-50.0	-51.4	14.3	0.00e+00	0	28	0	117440512	66	4177
2026-01-04 07:19:02.31	59.08	6.18	-50.0	-51.4	14.2	0.00e+00	0	28	0	122683392	66	4192
2026-01-04 07:19:03.31	59.00	6.24	-49.8	-51.2	14.4	0.00e+00	0	28	0	128974848	66	4075
2026-01-04 07:19:04.32	58.91	6.30	-49.9	-51.4	14.3	0.00e+00	0	28	0	134217728	66	4147
2026-01-04 07:19:05.33	58.83	6.37	-50.0	-51.4	14.3	0.00e+00	0	28	0	139460608	66	4181
2026-01-04 07:19:06.34	58.74	6.43	-49.8	-51.3	14.4	0.00e+00	0	28	0	145752064	66	4102
2026-01-04 07:19:07.35	58.65	6.49	-49.8	-51.3	14.4	0.00e+00	0	28	0	150994944	66	4106
2026-01-04 07:19:08.36	58.57	6.56	-49.8	-51.3	14.4	0.00e+00	0	28	0	157286400	66	4107
2026-01-04 07:19:09.36	58.48	6.62	-49.9	-51.3	14.3	0.00e+00	0	28	0	162529280	66	4128
2026-01-04 07:19:10.37	58.39	6.69	-50.0	-51.4	14.3	0.00e+00	0	28	0	167772160	66	4167
2026-01-04 07:19:11.38	58.30	6.75	-49.9	-51.4	14.3	0.00e+00	0	28	0	174063616	66	4149
2026-01-04 07:19:12.39	58.21	6.82	-49.7	-51.2	14.4	0.00e+00	0	28	0	179306496	66	4059
2026-01-04 07:19:13.40	58.12	6.88	-49.9	-51.4	14.3	0.00e+00	0	28	0	185597952	66	4161
2026-01-04 07:19:14.41	58.03	6.94	-49.9	-51.4	14.3	0.00e+00	0	28	0	190840832	66	4151
2026-01-04 07:19:15.41	57.95	7.01	-49.8	-51.2	14.4	0.00e+00	0	28	0	197132288	66	4091
2026-01-04 07:19:16.42	57.85	7.07	-49.9	-51.3	14.4	0.00e+00	0	28	0	202375168	66	4119
2026-01-04 07:19:17.42	57.76	7.14	-49.9	-51.3	14.4	0.00e+00	0	28	0	207618048	66	4101
2026-01-04 07:19:18.43	57.67	7.20	-49.8	-51.2	14.4	0.00e+00	0	28	0	213909504	66	4073
2026-01-04 07:19:19.44	57.58	7.27	-49.8	-51.2	14.4	0.00e+00	0	28	0	219152384	66	4063
2026-01-04 07:19:20.45	57.49	7.33	-49.8	-51.2	14.4	0.00e+00	0	28	0	225443840	66	4063
2026-01-04 07:19:21.45	57.40	7.40	-49.8	-51.2	14.4	0.00e+00	0	28	0	230686720	66	4079
2026-01-04 07:19:22.46	57.30	7.46	-49.7	-51.1	14.5	0.00e+00	0	28	0	235929600	66	4037
2026-01-04 07:19:23.47	57.21	7.53	-49.6	-51.0	14.4	0.00e+00	0	28	0	242221056	65	4203
2026-01-04 07:19:24.48	57.12	7.60	-49.6	-51.0	14.4	0.00e+00	0	28	0	247463936	65	4230
2026-01-04 07:19:25.49	57.02	7.66	-49.6	-50.9	14.4	0.00e+00	0	28	0	253755392	65	4190
2026-01-04 07:19:26.50	56.93	7.73	-49.5	-50.8	14.5	0.00e+00	0	28	0	258998272	65	4142
2026-01-04 07:19:27.51	56.83	7.79	-49.4	-50.7	14.5	0.00e+00	0	28	0	264241152	65	4087
2026-01-04 07:19:28.52	56.74	7.86	-49.4	-50.7	14.5	0.00e+00	0	28	0	270532608	65	4093
2026-01-04 07:19:29.52	56.64	7.92	-49.3	-50.7	14.6	0.00e+00	0	28	0	275775488	65	4071
2026-01-04 07:19:30.53	56.54	7.99	-49.4	-50.8	14.5	0.00e+00	0	28	0	282066944	65	4111
2026-01-04 07:19:31.54	56.45	8.06	-49.2	-50.6	14.6	0.00e+00	0	28	0	287309824	65	4018
2026-01-04 07:19:32.54	56.35	8.12	-49.2	-50.5	14.6	0.00e+00	0	28	0	293601280	64	4208
2026-01-04 07:19:33.55	56.25	8.19	-49.2	-50.5	14.5	0.00e+00	0	28	0	298844160	64	4227
2026-01-04 07:19:34.56	56.15	8.26	-49.2	-50.6	14.5	0.00e+00	0	28	0	304087040	64	4248
2026-01-04 07:19:35.57	56.06	8.32	-49.1	-50.4	14.6	0.00e+00	0	28	0	310378496	64	4164
2026-01-04 07:19:36.58	55.96	8.39	-49.1	-50.4	14.6	0.00e+00	0	28	0	315621376	64	4170
2026-01-04 07:19:37.59	55.86	8.46	-49.2	-50.5	14.5	0.00e+00	0	28	0	321912832	64	4238
2026-01-04 07:19:38.60	55.76	8.52	-49.1	-50.5	14.5	0.00e+00	0	28	0	327155712	64	4202
2026-01-04 07:19:39.60	55.66	8.59	-49.1	-50.5	14.5	0.00e+00	0	28	0	332398592	64	4207
2026-01-04 07:19:40.61	55.55	8.66	-49.0	-50.3	14.6	0.00e+00	0	28	0	338690048	64	4124
2026-01-04 07:19:41.62	55.45	8.72	-49.1	-50.4	14.6	0.00e+00	0	28	0	343932928	64	4184
2026-01-04 07:19:42.63	55.35	8.79	-49.1	-50.4	14.6	0.00e+00	0	28	0	349175808	64	4176
2026-01-04 07:19:43.63	55.25	8.86	-49.2	-50.5	14.6	0.00e+00	0	28	0	355467264	64	4212
2026-01-04 07:19:44.64	55.15	8.93	-49.2	-50.5	14.6	0.00e+00	0	28	0	360710144	64	4220
2026-01-04 07:19:45.65	55.04	8.99	-49.1	-50.5	14.6	0.00e+00	0	28	0	367001600	64	4195
2026-01-04 07:19:46.66	54.94	9.06	-49.1	-50.4	14.6	0.00e+00	0	28	0	372244480	64	4171
2026-01-04 07:19:47.67	54.83	9.13	-49.2	-50.5	14.6	0.00e+00	0	28	0	378535936	64	4207
2026-01-04 07:19:48.68	54.73	9.20	-49.1	-50.4	14.6	0.00e+00	0	28	0	383778816	64	4152
2026-01-04 07:19:49.69	54.62	9.26	-49.2	-50.5	14.6	0.00e+00	0	28	0	390070272	64	4210
2026-01-04 07:19:50.69	54.52	9.33	-49.2	-50.5	14.6	0.00e+00	0	28	0	395313152	64	4214
2026-01-04 07:19:51.70	54.41	9.40	-49.0	-50.3	14.7	0.00e+00	0	28	0	400556032	64	4123
2026-01-04 07:19:52.71	54.30	9.47	-49.0	-50.3	14.6	0.00e+00	0	28	0	406847488	64	4121
2026-01-04 07:19:53.72	54.20	9.54	-49.0	-50.3	14.6	0.00e+00	0	28	0	412090368	64	4133
2026-01-04 07:19:54.73	54.09	9.60	-49.0	-50.3	14.6	0.00e+00	0	28	0	417333248	64	4135
2026-01-04 07:19:55.74	53.98	9.67	-49.1	-50.4	14.6	0.00e+00	0	28	0	423624704	64	4154
2026-01-04 07:19:56.74	53.87	9.74	-49.1	-50.4	14.6	0.00e+00	0	28	0	428867584	64	4172
2026-01-04 07:19:57.75	53.76	9.81	-49.1	-50.4	14.6	0.00e+00	0	28	0	435159040	64	4166
2026-01-04 07:19:58.76	53.65	9.88	-49.1	-50.4	14.6	0.00e+00	0	28	0	440401920	64	4169
2026-01-04 07:19:59.77	53.54	9.95	-49.0	-50.3	14.7	0.00e+00	0	28	0	445644800	64	4142
2026-01-04 07:20:00.78	53.43	10.02	-49.0	-50.3	14.7	0.00e+00	0	28	0	451936256	64	4130
2026-01-04 07:20:01.78	53.32	10.08	-49.0	-50.3	14.7	0.00e+00	0	28	0	457179136	64	4105
2026-01-04 07:20:02.79	53.20	10.15	-49.0	-50.3	14.7	0.00e+00	0	28	0	463470592	64	4104
2026-01-04 07:20:03.80	53.09	10.22	-48.9	-50.2	14.7	0.00e+00	0	28	0	468713472	64	4067
2026-01-04 07:20:04.81	52.98	10.29	-49.0	-50.3	14.7	0.00e+00	0	28	0	475004928	64	4104
2026-01-04 07:20:05.82	52.86	10.36	-49.0	-50.3	14.7	0.00e+00	0	28	0	480247808	64	4140
2026-01-04 07:20:06.82	52.75	10.43	-48.8	-50.1	14.8	0.00e+00	0	28	0	485490688	64	4023
2026-01-04 07:20:07.83	52.63	10.50	-48.7	-49.9	14.8	0.00e+00	0	28	0	491782144	64	3958
2026-01-04 07:20:08.84	52.52	10.57	-48.7	-49.9	14.7	0.00e+00	0	28	0	497025024	63	4180
2026-01-04 07:20:09.84	52.40	10.64	-48.6	-49.9	14.7	0.00e+00	0	28	0	503316480	63	4174
2026-01-04 07:20:10.85	52.29	10.71	-48.6	-49.9	14.7	0.00e+00	0	28	0	508559360	63	4169
2026-01-04 07:20:11.86	52.17	10.78	-48.6	-49.9	14.8	0.00e+00	0	28	0	513802240	63	4162
2026-01-04 07:20:12.87	52.05	10.85	-48.8	-50.0	14.7	0.00e+00	0	28	0	520093696	63	4240
2026-01-04 07:20:13.88	51.93	10.92	-48.7	-49.9	14.7	0.00e+00	0	28	0	525336576	63	4189
2026-01-04 07:20:14.88	51.81	10.99	-48.6	-49.8	14.8	0.00e+00	0	28	0	530579456	63	4142
2026-01-04 07:20:15.89	51.69	11.06	-48.6	-49.8	14.8	0.00e+00	0	28	0	536870912	63	4133
2026-01-04 07:20:16.91	51.57	11.13	-48.6	-49.8	14.8	0.00e+00	0	28	0	542113792	63	4129
2026-01-04 07:20:17.91	51.45	11.20	-48.5	-49.8	14.8	0.00e+00	0	28	0	548405248	63	4113
2026-01-04 07:20:18.92	51.33	11.27	-48.5	-49.8	14.8	0.00e+00	0	28	0	553648128	63	4101
2026-01-04 07:20:19.93	51.21	11.34	-48.5	-49.7	14.8	0.00e+00	0	28	0	559939584	63	4088
2026-01-04 07:20:20.94	51.08	11.41	-48.6	-49.8	14.8	0.00e+00	0	28	0	565182464	63	4144
2026-01-04 07:20:21.95	50.96	11.48	-48.6	-49.8	14.8	0.00e+00	0	28	0	571473920	63	4120
2026-01-04 07:20:22.96	50.84	11.55	-48.5	-49.8	14.8	0.00e+00	0	28	0	576716800	63	4106
2026-01-04 07:20:23.96	50.71	11.62	-48.4	-49.6	14.9	0.00e+00	0	28	0	581959680	63	4017
2026-01-04 07:20:24.97	50.59	11.69	-48.3	-49.5	14.9	0.00e+00	0	28	0	588251136	63	3990
2026-01-04 07:20:25.98	50.46	11.76	-48.5	-49.7	14.8	0.00e+00	0	28	0	593494016	63	4067
2026-01-04 07:20:26.98	50.34	11.83	-48.4	-49.6	14.9	0.00e+00	0	28	0	598736896	63	4016
2026-01-04 07:20:27.99	50.21	11.90	-48.3	-49.6	14.9	0.00e+00	0	28	0	605028352	63	4015
2026-01-04 07:20:28.99	50.08	11.97	-48.3	-49.6	14.9	0.00e+00	0	28	0	610271232	63	4010
2026-01-04 07:20:30.00	49.95	12.04	-48.3	-49.6	14.9	0.00e+00	0	28	0	616562688	63	4019
2026-01-04 07:20:31.02	49.82	12.12	-48.4	-49.6	14.9	0.00e+00	0	28	0	621805568	63	4020
2026-01-04 07:20:32.02	49.69	12.19	-48.2	-49.4	14.9	0.00e+00	0	28	0	627048448	63	3956
2026-01-04 07:20:33.03	49.56	12.26	-48.3	-49.5	14.9	0.00e+00	0	28	0	633339904	63	3982
2026-01-04 07:20:34.04	49.43	12.33	-48.2	-49.4	15.0	0.00e+00	0	28	0	638582784	63	3952
2026-01-04 07:20:35.05	49.30	12.40	-48.3	-49.5	14.9	0.00e+00	0	28	0	644874240	63	3969
2026-01-04 07:20:36.06	49.17	12.47	-48.3	-49.5	14.9	0.00e+00	0	28	0	650117120	63	3997
2026-01-04 07:20:37.06	49.04	12.54	-48.3	-49.5	14.9	0.00e+00	0	28	0	656408576	63	3985
2026-01-04 07:20:38.07	48.90	12.61	-48.3	-49.6	14.9	0.00e+00	0	28	0	661651456	63	4005
2026-01-04 07:20:39.08	48.77	12.69	-48.2	-49.4	14.9	0.00e+00	0	28	0	666894336	63	3943
2026-01-04 07:20:40.08	48.64	12.76	-48.0	-49.2	14.9	0.00e+00	0	28	0	673185792	62	4094
2026-01-04 07:20:41.09	48.50	12.83	-48.1	-49.3	14.9	0.00e+00	0	28	0	678428672	62	4117
2026-01-04 07:20:42.10	48.36	12.90	-48.1	-49.3	14.9	0.00e+00	0	28	0	684720128	62	4120
2026-01-04 07:20:43.11	48.23	12.97	-48.1	-49.3	14.9	0.00e+00	0	28	0	689963008	62	4108
2026-01-04 07:20:44.12	48.09	13.04	-47.9	-49.1	15.0	0.00e+00	0	28	0	695205888	62	4011
2026-01-04 07:20:45.13	47.95	13.12	-47.8	-49.0	15.0	0.00e+00	0	28	0	701497344	62	3987
2026-01-04 07:20:46.13	47.81	13.19	-47.8	-49.0	15.0	0.00e+00	0	28	0	706740224	62	3981
2026-01-04 07:20:47.14	47.67	13.26	-47.9	-49.0	15.0	0.00e+00	0	28	0	713031680	62	4001
2026-01-04 07:20:48.14	47.53	13.33	-47.8	-49.0	15.0	0.00e+00	0	28	0	718274560	62	3990
2026-01-04 07:20:49.15	47.39	13.40	-47.8	-48.9	15.0	0.00e+00	0	28	0	723517440	62	3951
2026-01-04 07:20:50.16	47.25	13.47	-47.9	-49.1	15.0	0.00e+00	0	28	0	729808896	62	4014
2026-01-04 07:20:51.17	47.11	13.55	-47.8	-48.9	15.0	0.00e+00	0	28	0	735051776	62	3950
2026-01-04 07:20:52.18	46.96	13.62	-47.7	-48.9	15.1	0.00e+00	0	28	0	741343232	62	3936
2026-01-04 07:20:53.19	46.82	13.69	-47.7	-48.8	15.1	0.00e+00	0	28	0	746586112	62	3907
2026-01-04 07:20:54.20	46.68	13.76	-47.6	-48.8	15.0	0.00e+00	0	28	0	752877568	61	4109
2026-01-04 07:20:55.20	46.53	13.83	-47.6	-48.8	15.0	0.00e+00	0	28	0	758120448	61	4100
2026-01-04 07:20:56.21	46.39	13.91	-47.7	-48.8	15.0	0.00e+00	0	28	0	763363328	61	4131
2026-01-04 07:20:57.22	46.24	13.98	-47.8	-48.9	14.9	0.00e+00	0	28	0	769654784	61	4187
2026-01-04 07:20:58.23	46.09	14.05	-47.7	-48.9	14.9	0.00e+00	0	28	0	774897664	61	4149
2026-01-04 07:20:59.24	45.94	14.12	-47.7	-48.9	14.9	0.00e+00	0	28	0	781189120	61	4147
2026-01-04 07:21:00.25	45.79	14.20	-47.6	-48.8	15.0	0.00e+00	0	28	0	786432000	61	4120
2026-01-04 07:21:01.25	45.64	14.27	-47.7	-48.9	14.9	0.00e+00	0	28	0	791674880	61	4167
2026-01-04 07:21:02.26	45.49	14.34	-47.6	-48.8	15.0	0.00e+00	0	28	0	797966336	61	4126
2026-01-04 07:21:03.27	45.34	14.41	-47.6	-48.8	15.0	0.00e+00	0	28	0	803209216	61	4113
2026-01-04 07:21:04.27	45.19	14.48	-47.6	-48.8	15.0	0.00e+00	0	28	0	808452096	61	4129
2026-01-04 07:21:05.28	45.04	14.56	-47.5	-48.7	15.0	0.00e+00	0	28	0	814743552	61	4058
2026-01-04 07:21:06.29	44.89	14.63	-47.5	-48.7	15.0	0.00e+00	0	28	0	819986432	61	4056
2026-01-04 07:21:07.29	44.73	14.70	-47.6	-48.8	15.0	0.00e+00	0	28	0	826277888	61	4107
2026-01-04 07:21:08.30	44.58	14.77	-47.5	-48.6	15.0	0.00e+00	0	28	0	831520768	61	4051
2026-01-04 07:21:09.31	44.42	14.85	-47.3	-48.4	15.1	0.00e+00	0	28	0	837812224	61	3958
2026-01-04 07:21:10.32	44.27	14.92	-47.3	-48.4	15.1	0.00e+00	0	28	0	843055104	61	3937
2026-01-04 07:21:11.33	44.11	14.99	-47.2	-48.3	15.2	0.00e+00	0	28	0	848297984	61	3913
2026-01-04 07:21:12.33	43.95	15.06	-47.3	-48.4	15.1	0.00e+00	0	28	0	854589440	61	3956
2026-01-04 07:21:13.34	43.79	15.14	-47.3	-48.4	15.1	0.00e+00	0	28	0	859832320	61	3926
2026-01-04 07:21:14.35	43.63	15.21	-47.3	-48.4	15.1	0.00e+00	0	28	0	866123776	61	3958
2026-01-04 07:21:15.35	43.47	15.28	-47.5	-48.6	15.1	0.00e+00	0	28	0	871366656	61	4030
2026-01-04 07:21:16.36	43.31	15.35	-47.5	-48.6	15.1	0.00e+00	0	28	0	876609536	61	4033
2026-01-04 07:21:17.37	43.15	15.42	-47.4	-48.5	15.1	0.00e+00	0	28	0	882900992	61	3997
2026-01-04 07:21:18.38	42.99	15.50	-47.3	-48.4	15.1	0.00e+00	0	28	0	888143872	61	3951
2026-01-04 07:21:19.39	42.82	15.57	-47.3	-48.4	15.1	0.00e+00	0	28	0	894435328	61	3948
2026-01-04 07:21:20.40	42.66	15.64	-47.3	-48.4	15.1	0.00e+00	0	28	0	899678208	61	3956
2026-01-04 07:21:21.40	42.49	15.71	-47.3	-48.4	15.1	0.00e+00	0	28	0	904921088	61	3938
2026-01-04 07:21:22.41	42.33	15.79	-47.3	-48.4	15.1	0.00e+00	0	28	0	911212544	61	3941
2026-01-04 07:21:23.42	42.16	15.86	-47.2	-48.3	15.1	0.00e+00	0	28	0	916455424	61	3911
2026-01-04 07:21:24.42	41.99	15.93	-47.2	-48.4	15.2	0.00e+00	0	28	0	922746880	61	3916
2026-01-04 07:21:25.42	41.83	16.00	-47.3	-48.4	15.1	0.00e+00	0	28	0	927989760	61	3947
2026-01-04 07:21:26.43	41.66	16.07	-47.2	-48.3	15.2	0.00e+00	0	28	0	933232640	61	3902
2026-01-04 07:21:27.44	41.49	16.15	-47.1	-48.2	15.1	0.00e+00	0	28	0	939524096	60	4092
2026-01-04 07:21:28.45	41.32	16.22	-47.1	-48.2	15.1	0.00e+00	0	28	0	944766976	60	4081
2026-01-04 07:21:29.45	41.15	16.29	-47.0	-48.2	15.1	0.00e+00	0	28	0	951058432	60	4063
2026-01-04 07:21:30.46	40.97	16.36	-47.1	-48.2	15.1	0.00e+00	0	28	0	956301312	60	4077
2026-01-04 07:21:31.47	40.80	16.43	-47.2	-48.3	15.0	0.00e+00	0	28	0	961544192	60	4137
2026-01-04 07:21:32.47	40.63	16.50	-47.2	-48.4	15.0	0.00e+00	0	29	0	967835648	60	4160
2026-01-04 07:21:33.48	40.45	16.58	-47.3	-48.4	15.0	0.00e+00	0	28	0	973078528	60	4167
2026-01-04 07:21:34.49	40.28	16.65	-47.2	-48.4	15.0	0.00e+00	0	29	0	979369984	60	4158
2026-01-04 07:21:35.50	40.10	16.72	-47.3	-48.4	15.0	0.00e+00	0	28	0	984612864	60	4165
2026-01-04 07:21:36.51	39.92	16.79	-47.2	-48.4	15.0	0.00e+00	0	28	0	989855744	60	4166
2026-01-04 07:21:37.52	39.74	16.86	-47.2	-48.4	15.0	0.00e+00	0	28	0	996147200	60	4152
2026-01-04 07:21:38.52	39.56	16.93	-47.1	-48.2	15.1	0.00e+00	0	28	0	1001390080	60	4063
2026-01-04 07:21:39.53	39.38	17.00	-47.0	-48.2	15.1	0.00e+00	0	28	0	1007681536	60	4062
2026-01-04 07:21:40.53	39.20	17.07	-46.9	-48.0	15.2	0.00e+00	0	28	0	1012924416	60	3981
2026-01-04 07:21:41.54	39.02	17.15	-46.9	-48.0	15.2	0.00e+00	0	28	0	1019215872	60	3992
2026-01-04 07:21:42.55	38.84	17.22	-46.9	-48.0	15.2	0.00e+00	0	28	0	1024458752	60	3966
2026-01-04 07:21:43.56	38.65	17.29	-46.9	-48.0	15.2	0.00e+00	0	28	0	1029701632	60	3970
2026-01-04 07:21:44.57	38.47	17.36	-46.9	-48.0	15.1	0.00e+00	0	28	0	1035993088	60	4001
2026-01-04 07:21:45.58	38.28	17.43	-46.9	-48.0	15.2	0.00e+00	0	28	0	1041235968	60	3991
2026-01-04 07:21:46.59	38.10	17.50	-46.7	-47.8	15.2	0.00e+00	0	28	0	1047527424	60	3904
2026-01-04 07:21:47.60	37.91	17.57	-47.0	-48.1	15.0	0.00e+00	0	28	0	1052770304	59	4289
2026-01-04 07:21:48.60	37.72	17.64	-47.0	-48.2	15.0	0.00e+00	0	28	0	1058013184	59	4304
2026-01-04 07:21:49.61	37.53	17.71	-47.1	-48.2	15.0	0.00e+00	0	28	0	1064304640	59	4320
2026-01-04 07:21:50.62	37.34	17.78	-47.0	-48.2	15.0	0.00e+00	0	28	0	1069547520	59	4297
2026-01-04 07:21:51.63	37.15	17.85	-47.0	-48.1	15.1	0.00e+00	0	28	0	1074790400	59	4265
2026-01-04 07:21:52.64	36.96	17.92	-47.0	-48.1	15.1	0.00e+00	0	28	0	1081081856	59	4273
2026-01-04 07:21:53.65	36.77	17.99	-47.0	-48.1	15.1	0.00e+00	0	28	0	1086324736	59	4279
2026-01-04 07:21:54.66	36.57	18.06	-47.0	-48.1	15.1	0.00e+00	0	28	0	1092616192	59	4259
2026-01-04 07:21:55.66	36.38	18.13	-46.9	-48.1	15.1	0.00e+00	0	28	0	1097859072	59	4249
2026-01-04 07:21:56.67	36.18	18.20	-46.8	-47.9	15.1	0.00e+00	0	28	0	1104150528	59	4183
2026-01-04 07:21:57.67	35.99	18.27	-46.8	-47.9	15.1	0.00e+00	0	28	0	1109393408	59	4161
2026-01-04 07:21:58.68	35.79	18.33	-46.7	-47.8	15.1	0.00e+00	0	28	0	1114636288	59	4140
2026-01-04 07:21:59.69	35.59	18.40	-46.6	-47.7	15.2	0.00e+00	0	28	0	1120927744	59	4091
2026-01-04 07:22:00.70	35.39	18.47	-46.8	-47.9	15.1	0.00e+00	0	28	0	1126170624	59	4155
2026-01-04 07:22:01.71	35.19	18.54	-46.7	-47.8	15.2	0.00e+00	0	29	0	1132462080	59	4104
2026-01-04 07:22:02.72	34.99	18.61	-46.8	-47.9	15.1	0.00e+00	0	28	0	1137704960	59	4157
2026-01-04 07:22:03.73	34.79	18.68	-46.6	-47.7	15.2	0.00e+00	0	29	0	1142947840	59	4093
2026-01-04 07:22:04.73	34.59	18.74	-46.6	-47.7	15.2	0.00e+00	0	29	0	1149239296	59	4084
2026-01-04 07:22:05.73	34.39	18.81	-46.7	-47.8	15.1	0.00e+00	0	28	0	1154482176	59	4118
2026-01-04 07:22:06.74	34.18	18.88	-46.8	-47.9	15.1	0.00e+00	0	28	0	1160773632	59	4154
2026-01-04 07:22:07.76	33.98	18.95	-46.7	-47.8	15.2	0.00e+00	0	28	0	1166016512	59	4115
2026-01-04 07:22:08.76	33.77	19.01	-46.8	-47.9	15.1	0.00e+00	0	28	0	1171259392	59	4157
2026-01-04 07:22:09.76	33.57	19.08	-46.8	-47.9	15.1	0.00e+00	0	29	0	1177550848	59	4163
2026-01-04 07:22:10.77	33.36	19.15	-46.8	-47.9	15.1	0.00e+00	0	28	0	1182793728	59	4169
2026-01-04 07:22:11.78	33.15	19.21	-46.8	-47.9	15.1	0.00e+00	0	28	0	1189085184	59	4190
2026-01-04 07:22:12.79	32.94	19.28	-46.7	-47.8	15.1	0.00e+00	0	29	0	1194328064	59	4125
2026-01-04 07:22:13.80	32.73	19.35	-46.7	-47.9	15.1	0.00e+00	0	28	0	1200619520	59	4151
2026-01-04 07:22:14.81	32.52	19.41	-46.8	-48.0	15.1	0.00e+00	0	28	0	1205862400	59	4202
2026-01-04 07:22:15.82	32.30	19.48	-46.7	-47.8	15.2	0.00e+00	0	28	0	1211105280	59	4129
2026-01-04 07:22:16.83	32.09	19.54	-46.7	-47.8	15.2	0.00e+00	0	28	0	1217396736	59	4119
2026-01-04 07:22:17.83	31.88	19.61	-46.5	-47.6	15.2	0.00e+00	0	28	0	1222639616	59	4045
2026-01-04 07:22:18.84	31.66	19.67	-46.6	-47.7	15.2	0.00e+00	0	28	0	1228931072	59	4077
2026-01-04 07:22:19.85	31.44	19.74	-46.7	-47.8	15.2	0.00e+00	0	29	0	1234173952	59	4110
2026-01-04 07:22:20.86	31.23	19.80	-46.7	-47.8	15.2	0.00e+00	0	28	0	1239416832	59	4129
2026-01-04 07:22:21.86	31.01	19.86	-46.7	-47.8	15.2	0.00e+00	0	28	0	1245708288	59	4116
2026-01-04 07:22:22.87	30.79	19.93	-46.7	-47.8	15.2	0.00e+00	0	29	0	1250951168	59	4131
2026-01-04 07:22:23.88	30.57	19.99	-46.6	-47.7	15.2	0.00e+00	0	29	0	1256194048	59	4086
2026-01-04 07:22:24.89	30.35	20.05	-46.7	-47.7	15.2	0.00e+00	0	28	0	1262485504	59	4096
2026-01-04 07:22:25.89	30.13	20.12	-46.5	-47.6	15.2	0.00e+00	0	29	0	1267728384	59	4035
2026-01-04 07:22:26.90	29.90	20.18	-46.5	-47.6	15.2	0.00e+00	0	29	0	1274019840	59	4037
2026-01-04 07:22:27.91	29.68	20.24	-46.4	-47.5	15.3	0.00e+00	0	29	0	1279262720	59	3992
2026-01-04 07:22:28.92	29.46	20.30	-46.5	-47.6	15.2	0.00e+00	0	29	0	1285554176	59	4030
2026-01-04 07:22:29.92	29.23	20.36	-46.5	-47.6	15.2	0.00e+00	0	29	0	1290797056	59	4031
2026-01-04 07:22:30.93	29.01	20.43	-46.5	-47.6	15.2	0.00e+00	0	29	0	1296039936	59	4046
2026-01-04 07:22:31.94	28.78	20.49	-46.5	-47.6	15.2	0.00e+00	0	29	0	1302331392	59	4042
2026-01-04 07:22:32.95	28.55	20.55	-46.7	-47.8	15.2	0.00e+00	0	29	0	1307574272	59	4116
2026-01-04 07:22:33.95	28.32	20.61	-46.6	-47.7	15.2	0.00e+00	0	29	0	1313865728	59	4080
2026-01-04 07:22:34.96	28.09	20.67	-46.6	-47.7	15.2	0.00e+00	0	28	0	1319108608	59	4077
2026-01-04 07:22:35.97	27.86	20.73	-46.7	-47.8	15.2	0.00e+00	0	28	0	1324351488	59	4104
2026-01-04 07:22:36.98	27.63	20.79	-46.5	-47.6	15.2	0.00e+00	0	28	0	1330642944	59	4016
2026-01-04 07:22:37.98	27.40	20.84	-46.5	-47.6	15.2	0.00e+00	0	29	0	1335885824	59	4041
2026-01-04 07:22:38.99	27.16	20.90	-46.5	-47.6	15.2	0.00e+00	0	28	0	1342177280	59	4017
2026-01-04 07:22:40.00	26.93	20.96	-46.5	-47.6	15.2	0.00e+00	0	28	0	1347420160	59	4012
2026-01-04 07:22:41.01	26.69	21.02	-46.3	-47.4	15.3	0.00e+00	0	29	0	1352663040	59	3932
2026-01-04 07:22:42.01	26.46	21.08	-46.3	-47.3	15.3	0.00e+00	0	29	0	1358954496	59	3913
2026-01-04 07:22:43.02	26.22	21.13	-46.2	-47.3	15.4	0.00e+00	0	28	0	1364197376	59	3877
2026-01-04 07:22:44.03	25.98	21.19	-46.2	-47.3	15.2	0.00e+00	0	28	0	1370488832	58	4113
2026-01-04 07:22:45.04	25.74	21.25	-46.2	-47.2	15.2	0.00e+00	0	29	0	1375731712	58	4090
2026-01-04 07:22:46.05	25.50	21.30	-46.1	-47.2	15.2	0.00e+00	0	28	0	1382023168	58	4069
2026-01-04 07:22:47.06	25.26	21.36	-46.2	-47.3	15.2	0.00e+00	0	29	0	1387266048	58	4114
2026-01-04 07:22:48.07	25.02	21.41	-46.3	-47.4	15.2	0.00e+00	0	29	0	1392508928	58	4150
2026-01-04 07:22:49.08	24.78	21.47	-46.3	-47.4	15.2	0.00e+00	0	29	0	1398800384	58	4178
2026-01-04 07:22:50.08	24.53	21.52	-46.4	-47.5	15.2	0.00e+00	0	29	0	1404043264	58	4199
2026-01-04 07:22:51.09	24.29	21.57	-46.4	-47.4	15.2	0.00e+00	0	28	0	1410334720	58	4185
2026-01-04 07:22:52.10	24.04	21.63	-46.4	-47.5	15.2	0.00e+00	0	29	0	1415577600	58	4214
2026-01-04 07:22:53.11	23.80	21.68	-46.2	-47.3	15.2	0.00e+00	0	29	0	1420820480	58	4103
2026-01-04 07:22:54.12	23.55	21.73	-46.2	-47.3	15.2	0.00e+00	0	29	0	1427111936	58	4105
2026-01-04 07:22:55.13	23.30	21.78	-46.3	-47.4	15.2	0.00e+00	0	28	0	1432354816	58	4187
2026-01-04 07:22:56.14	23.05	21.83	-46.3	-47.4	15.2	0.00e+00	0	28	0	1438646272	58	4174
2026-01-04 07:22:57.15	22.80	21.89	-46.3	-47.4	15.2	0.00e+00	0	29	0	1443889152	58	4172
2026-01-04 07:22:58.15	22.56	21.94	-46.2	-47.3	15.2	0.00e+00	0	29	0	1449132032	58	4137
2026-01-04 07:22:59.16	22.30	21.99	-46.2	-47.2	15.2	0.00e+00	0	29	0	1455423488	58	4093
2026-01-04 07:23:00.18	22.05	22.04	-46.1	-47.2	15.3	0.00e+00	0	29	0	1460666368	58	4088
2026-01-04 07:23:01.18	21.80	22.08	-46.1	-47.2	15.3	0.00e+00	0	29	0	1466957824	58	4054
2026-01-04 07:23:02.19	21.55	22.13	-46.0	-47.0	15.3	0.00e+00	0	28	0	1472200704	58	3992
2026-01-04 07:23:03.20	21.29	22.18	-46.0	-47.1	15.3	0.00e+00	0	29	0	1478492160	58	4012
2026-01-04 07:23:04.21	21.04	22.23	-45.9	-47.0	15.3	0.00e+00	0	28	0	1483735040	58	3979
2026-01-04 07:23:05.21	20.78	22.27	-45.9	-46.9	15.3	0.00e+00	0	28	0	1488977920	58	3948
2026-01-04 07:23:06.21	20.53	22.32	-45.9	-46.9	15.3	0.00e+00	0	28	0	1495269376	58	3957
2026-01-04 07:23:07.23	20.27	22.37	-45.9	-47.0	15.3	0.00e+00	0	29	0	1500512256	58	3961
2026-01-04 07:23:08.24	20.01	22.41	-46.0	-47.1	15.3	0.00e+00	0	28	0	1506803712	58	4024
2026-01-04 07:23:09.25	19.75	22.46	-46.0	-47.1	15.3	0.00e+00	0	29	0	1512046592	58	4037
2026-01-04 07:23:10.26	19.49	22.50	-46.1	-47.1	15.3	0.00e+00	0	29	0	1517289472	58	4051
2026-01-04 07:23:11.27	19.23	22.54	-46.0	-47.0	15.3	0.00e+00	0	29	0	1523580928	58	4003
2026-01-04 07:23:12.27	18.97	22.59	-46.0	-47.1	15.3	0.00e+00	0	29	0	1528823808	58	4014
2026-01-04 07:23:13.28	18.71	22.63	-46.1	-47.2	15.3	0.00e+00	0	28	0	1534066688	58	4052
2026-01-04 07:23:14.29	18.45	22.67	-46.0	-47.0	15.3	0.00e+00	0	28	0	1540358144	58	3997
2026-01-04 07:23:15.30	18.18	22.71	-46.1	-47.1	15.3	0.00e+00	0	28	0	1545601024	58	4048
2026-01-04 07:23:16.31	17.92	22.75	-45.9	-47.0	15.3	0.00e+00	0	29	0	1551892480	58	3977
2026-01-04 07:23:17.31	17.66	22.79	-45.8	-46.8	15.4	0.00e+00	0	28	0	1557135360	58	3897
2026-01-04 07:23:18.33	17.39	22.83	-45.8	-46.9	15.4	0.00e+00	0	28	0	1563426816	58	3919
2026-01-04 07:23:19.33	17.12	22.87	-45.8	-46.9	15.3	0.00e+00	0	29	0	1568669696	58	3927
2026-01-04 07:23:20.34	16.86	22.91	-45.8	-46.8	15.4	0.00e+00	0	28	0	1574961152	58	3896
2026-01-04 07:23:21.35	16.59	22.95	-45.8	-46.8	15.4	0.00e+00	0	28	0	1580204032	58	3907
2026-01-04 07:23:22.35	16.32	22.98	-45.9	-47.0	15.3	0.00e+00	0	28	0	1585446912	58	3980
2026-01-04 07:23:23.36	16.06	23.02	-46.0	-47.1	15.3	0.00e+00	0	28	0	1591738368	58	4007
2026-01-04 07:23:24.37	15.79	23.06	-46.0	-47.1	15.3	0.00e+00	0	29	0	1596981248	58	4033
2026-01-04 07:23:25.38	15.52	23.09	-46.0	-47.1	15.3	0.00e+00	0	28	0	1602224128	58	4023
2026-01-04 07:23:26.39	15.24	23.13	-46.1	-47.2	15.2	0.00e+00	0	28	0	1608515584	58	4071
2026-01-04 07:23:27.39	14.98	23.16	-46.0	-47.1	15.3	0.00e+00	0	29	0	1613758464	58	4023
2026-01-04 07:23:28.40	14.70	23.19	-46.0	-47.1	15.3	0.00e+00	0	29	0	1620049920	58	4034
2026-01-04 07:23:29.41	14.43	23.23	-46.1	-47.2	15.3	0.00e+00	0	29	0	1625292800	58	4057
2026-01-04 07:23:30.42	14.16	23.26	-46.0	-47.0	15.3	0.00e+00	0	28	0	1630535680	58	3989
2026-01-04 07:23:31.42	13.89	23.29	-46.0	-47.0	15.3	0.00e+00	0	29	0	1636827136	58	4001
2026-01-04 07:23:32.43	13.61	23.32	-45.9	-47.0	15.3	0.00e+00	0	29	0	1642070016	58	3973
2026-01-04 07:23:33.44	13.34	23.35	-45.9	-47.0	15.3	0.00e+00	0	28	0	1648361472	58	3959
2026-01-04 07:23:34.44	13.07	23.38	-45.9	-46.9	15.3	0.00e+00	0	28	0	1653604352	58	3949
2026-01-04 07:23:35.45	12.79	23.41	-45.8	-46.9	15.4	0.00e+00	0	29	0	1659895808	58	3920
2026-01-04 07:23:36.46	12.51	23.43	-45.8	-46.9	15.3	0.00e+00	0	29	0	1665138688	58	3930
2026-01-04 07:23:37.46	12.24	23.46	-45.7	-46.8	15.4	0.00e+00	0	28	0	1670381568	58	3888
2026-01-04 07:23:38.47	11.96	23.49	-45.7	-46.7	15.4	0.00e+00	0	28	0	1676673024	58	3859
2026-01-04 07:23:39.48	11.69	23.51	-45.5	-46.6	15.3	0.00e+00	0	28	0	1681915904	57	4013
2026-01-04 07:23:40.49	11.41	23.54	-45.4	-46.5	15.3	0.00e+00	0	29	0	1688207360	57	3978
2026-01-04 07:23:41.49	11.13	23.56	-45.4	-46.5	15.3	0.00e+00	0	28	0	1693450240	57	3961
2026-01-04 07:23:42.50	10.85	23.59	-45.4	-46.4	15.4	0.00e+00	0	29	0	1698693120	57	3928
2026-01-04 07:23:43.51	10.57	23.61	-45.4	-46.4	15.4	0.00e+00	0	29	0	1704984576	57	3933
2026-01-04 07:23:44.52	10.29	23.63	-45.4	-46.5	15.3	0.00e+00	0	29	0	1710227456	57	3966
2026-01-04 07:23:45.52	10.02	23.65	-45.5	-46.6	15.3	0.00e+00	0	29	0	1715470336	57	4028
2026-01-04 07:23:46.53	9.74	23.67	-45.6	-46.6	15.3	0.00e+00	0	29	0	1721761792	57	4029
2026-01-04 07:23:47.54	9.45	23.69	-45.6	-46.7	15.3	0.00e+00	0	29	0	1727004672	57	4058
2026-01-04 07:23:48.55	9.17	23.71	-45.6	-46.7	15.3	0.00e+00	0	29	0	1733296128	57	4070
2026-01-04 07:23:49.56	8.89	23.73	-45.7	-46.8	15.2	0.00e+00	0	29	0	1738539008	57	4126
2026-01-04 07:23:50.57	8.61	23.75	-45.8	-46.9	15.2	0.00e+00	0	29	0	1744830464	57	4154
2026-01-04 07:23:51.57	8.33	23.77	-45.7	-46.7	15.3	0.00e+00	0	29	0	1750073344	57	4094
2026-01-04 07:23:52.58	8.05	23.78	-45.7	-46.7	15.2	0.00e+00	0	29	0	1755316224	57	4092
2026-01-04 07:23:53.59	7.76	23.80	-45.6	-46.7	15.3	0.00e+00	0	28	0	1761607680	57	4070
2026-01-04 07:23:54.60	7.48	23.81	-45.6	-46.6	15.3	0.00e+00	0	29	0	1766850560	57	4039
2026-01-04 07:23:55.61	7.20	23.83	-45.5	-46.6	15.3	0.00e+00	0	29	0	1773142016	57	4023
2026-01-04 07:23:56.61	6.92	23.84	-45.5	-46.5	15.3	0.00e+00	0	28	0	1778384896	57	3975
2026-01-04 07:23:57.62	6.63	23.85	-45.5	-46.5	15.3	0.00e+00	0	29	0	1783627776	57	4001
2026-01-04 07:23:58.63	6.35	23.87	-45.4	-46.5	15.3	0.00e+00	0	28	0	1789919232	57	3977
2026-01-04 07:23:59.63	6.07	23.88	-45.5	-46.5	15.3	0.00e+00	0	28	0	1795162112	57	3992
2026-01-04 07:24:00.64	5.78	23.89	-45.5	-46.5	15.3	0.00e+00	0	29	0	1801453568	57	3998
2026-01-04 07:24:01.66	5.50	23.90	-45.4	-46.4	15.4	0.00e+00	0	29	0	1806696448	57	3932
2026-01-04 07:24:02.67	5.21	23.91	-45.4	-46.5	15.3	0.00e+00	0	28	0	1811939328	57	3973
2026-01-04 07:24:03.67	4.93	23.91	-45.5	-46.5	15.3	0.00e+00	0	29	0	1818230784	57	3989
2026-01-04 07:24:04.68	4.64	23.92	-45.5	-46.5	15.3	0.00e+00	0	29	0	1823473664	57	3992
2026-01-04 07:24:05.69	4.36	23.93	-45.5	-46.5	15.3	0.00e+00	0	29	0	1829765120	57	3978
2026-01-04 07:24:06.70	4.07	23.93	-45.5	-46.5	15.3	0.00e+00	0	29	0	1835008000	57	3999
2026-01-04 07:24:07.71	3.79	23.94	-45.6	-46.7	15.3	0.00e+00	0	28	0	1841299456	57	4067
2026-01-04 07:24:08.72	3.50	23.94	-45.5	-46.6	15.3	0.00e+00	0	29	0	1846542336	57	4006
2026-01-04 07:24:09.73	3.21	23.95	-45.4	-46.4	15.4	0.00e+00	0	28	0	1851785216	57	3929
2026-01-04 07:24:10.74	2.93	23.95	-45.5	-46.5	15.4	0.00e+00	0	28	0	1858076672	57	3993
2026-01-04 07:24:11.75	2.64	23.95	-45.5	-46.5	15.3	0.00e+00	0	29	0	1863319552	57	3996
2026-01-04 07:24:12.76	2.36	23.95	-45.5	-46.6	15.3	0.00e+00	0	28	0	1869611008	57	4012
2026-01-04 07:24:13.77	2.07	23.95	-45.5	-46.5	15.4	0.00e+00	0	28	0	1874853888	57	3977
2026-01-04 07:24:14.78	1.79	23.95	-45.5	-46.5	15.4	0.00e+00	0	28	0	1880096768	57	3984
2026-01-04 07:24:15.79	1.50	23.95	-45.5	-46.6	15.3	0.00e+00	0	29	0	1886388224	57	4009
2026-01-04 07:24:16.80	1.21	23.95	-45.4	-46.5	15.4	0.00e+00	0	29	0	1891631104	57	3975
2026-01-04 07:24:17.81	0.93	23.95	-45.5	-46.6	15.3	0.00e+00	0	28	0	1897922560	57	4006
2026-01-04 07:24:18.82	0.64	23.94	-45.5	-46.5	15.3	0.00e+00	0	28	0	1903165440	57	3982
2026-01-04 07:24:19.83	0.36	23.94	-45.5	-46.5	15.3	0.00e+00	0	29	0	1908408320	57	3988
2026-01-04 07:24:20.83	0.07	23.93	-45.5	-46.5	15.3	0.00e+00	0	29	0	1914699776	57	4004
2026-01-04 07:24:21.84	359.79	23.93	-45.4	-46.4	15.4	0.00e+00	0	28	0	1919942656	57	3947
2026-01-04 07:24:22.85	359.50	23.92	-45.4	-46.5	15.4	0.00e+00	0	29	0	1926234112	57	3960
2026-01-04 07:24:23.86	359.22	23.91	-45.5	-46.6	15.3	0.00e+00	0	29	0	1931476992	57	4024
2026-01-04 07:24:24.87	358.93	23.91	-45.5	-46.6	15.3	0.00e+00	0	28	0	1937768448	57	4012
2026-01-04 07:24:25.88	358.65	23.90	-45.5	-46.5	15.3	0.00e+00	0	29	0	1943011328	57	4001
2026-01-04 07:24:26.89	358.36	23.89	-45.4	-46.5	15.3	0.00e+00	0	28	0	1949302784	57	3974
2026-01-04 07:24:27.90	358.08	23.88	-45.5	-46.5	15.3	0.00e+00	0	28	0	1954545664	57	3995
2026-01-04 07:24:28.90	357.80	23.87	-45.5	-46.5	15.3	0.00e+00	0	28	0	1959788544	57	3980
2026-01-04 07:24:29.90	357.52	23.85	-45.5	-46.5	15.3	0.00e+00	0	29	0	1966080000	57	4001
2026-01-04 07:24:30.91	357.23	23.84	-45.5	-46.5	15.3	0.00e+00	0	28	0	1971322880	57	3982
2026-01-04 07:24:31.92	356.95	23.83	-45.5	-46.5	15.3	0.00e+00	0	28	0	1976565760	57	3985
2026-01-04 07:24:32.92	356.67	23.81	-45.5	-46.5	15.3	0.00e+00	0	28	0	1982857216	57	4001
2026-01-04 07:24:33.93	356.38	23.80	-45.5	-46.5	15.3	0.00e+00	0	28	0	1988100096	57	3999
2026-01-04 07:24:34.94	356.10	23.78	-45.4	-46.5	15.3	0.00e+00	0	29	0	1994391552	57	3978
2026-01-04 07:24:35.94	355.82	23.77	-45.5	-46.6	15.3	0.00e+00	0	29	0	1999634432	57	4018
2026-01-04 07:24:36.95	355.54	23.75	-45.5	-46.6	15.3	0.00e+00	0	29	0	2004877312	57	4005
2026-01-04 07:24:37.96	355.26	23.73	-45.3	-46.4	15.4	0.00e+00	0	28	0	2011168768	57	3926
2026-01-04 07:24:38.97	354.98	23.71	-45.3	-46.3	15.4	0.00e+00	0	28	0	2016411648	57	3902
2026-01-04 07:24:39.97	354.70	23.69	-45.4	-46.5	15.3	0.00e+00	0	29	0	2022703104	57	3974
2026-01-04 07:24:40.98	354.42	23.67	-45.5	-46.6	15.3	0.00e+00	0	28	0	2027945984	57	4017
2026-01-04 07:24:41.98	354.14	23.65	-45.6	-46.6	15.3	0.00e+00	0	29	0	2033188864	57	4025
2026-01-04 07:24:42.98	353.86	23.63	-45.5	-46.6	15.3	0.00e+00	0	29	0	2039480320	57	4023
2026-01-04 07:24:43.99	353.58	23.61	-45.5	-46.5	15.3	0.00e+00	0	28	0	2044723200	57	3989
2026-01-04 07:24:45.00	353.30	23.59	-45.4	-46.4	15.4	0.00e+00	0	29	0	2051014656	57	3952
2026-01-04 07:24:46.00	353.03	23.56	-45.3	-46.3	15.4	0.00e+00	0	29	0	2056257536	57	3901
2026-01-04 07:24:47.00	352.75	23.54	-45.4	-46.4	15.4	0.00e+00	0	29	0	2061500416	57	3953
2026-01-04 07:24:48.00	352.47	23.52	-45.5	-46.6	15.3	0.00e+00	0	29	0	2067791872	57	4010
2026-01-04 07:24:49.01	352.20	23.49	-45.5	-46.6	15.3	0.00e+00	0	29	0	2073034752	57	4006
2026-01-04 07:24:50.02	351.92	23.46	-45.5	-46.6	15.3	0.00e+00	0	28	0	2078277632	57	4019
2026-01-04 07:24:51.03	351.64	23.44	-45.6	-46.6	15.3	0.00e+00	0	29	0	2084569088	57	4034
2026-01-04 07:24:52.03	351.37	23.41	-45.6	-46.6	15.3	0.00e+00	0	29	0	2089811968	57	4025
2026-01-04 07:24:53.04	351.09	23.38	-45.5	-46.5	15.3	0.00e+00	0	28	0	2096103424	57	3991
2026-01-04 07:24:54.05	350.82	23.35	-45.5	-46.6	15.3	0.00e+00	0	29	0	2101346304	57	4013
2026-01-04 07:24:55.07	350.54	23.32	-45.6	-46.7	15.3	0.00e+00	0	29	0	2107637760	57	4052
2026-01-04 07:24:56.08	350.27	23.29	-45.6	-46.7	15.3	0.00e+00	0	28	0	2112880640	57	4055
2026-01-04 07:24:57.08	349.99	23.26	-45.6	-46.6	15.3	0.00e+00	0	29	0	2118123520	57	4050
2026-01-04 07:24:58.09	349.72	23.23	-45.6	-46.6	15.3	0.00e+00	0	28	0	2124414976	57	4043
2026-01-04 07:24:59.10	349.45	23.19	-45.6	-46.6	15.3	0.00e+00	0	29	0	2129657856	57	4032
2026-01-04 07:25:00.11	349.18	23.16	-45.6	-46.7	15.3	0.00e+00	0	29	0	2135949312	57	4058
2026-01-04 07:25:01.11	348.91	23.13	-45.8	-46.8	15.2	0.00e+00	0	28	0	2141192192	57	4127
2026-01-04 07:25:02.12	348.64	23.09	-45.7	-46.7	15.3	0.00e+00	0	29	0	2146435072	57	4089
2026-01-04 07:25:03.13	348.37	23.06	-45.6	-46.7	15.3	0.00e+00	0	29	0	2152726528	57	4057
2026-01-04 07:25:04.14	348.10	23.02	-45.6	-46.7	15.3	0.00e+00	0	29	0	2157969408	57	4060
2026-01-04 07:25:05.15	347.83	22.99	-45.6	-46.6	15.3	0.00e+00	0	28	0	2164260864	57	4027
2026-01-04 07:25:06.16	347.56	22.95	-45.6	-46.6	15.3	0.00e+00	0	28	0	2169503744	57	4022
2026-01-04 07:25:07.16	347.30	22.91	-45.5	-46.5	15.3	0.00e+00	0	29	0	2174746624	57	3997
2026-01-04 07:25:08.17	347.03	22.87	-45.4	-46.4	15.4	0.00e+00	0	29	0	2181038080	57	3955
2026-01-04 07:25:09.18	346.76	22.83	-45.5	-46.6	15.3	0.00e+00	0	29	0	2186280960	57	4010
2026-01-04 07:25:10.19	346.50	22.79	-45.6	-46.6	15.3	0.00e+00	0	28	0	2192572416	57	4048
2026-01-04 07:25:11.20	346.23	22.75	-45.6	-46.7	15.3	0.00e+00	0	28	0	2197815296	57	4064
2026-01-04 07:25:12.20	345.97	22.71	-45.6	-46.7	15.3	0.00e+00	0	29	0	2204106752	57	4071
2026-01-04 07:25:13.21	345.71	22.67	-45.7	-46.7	15.3	0.00e+00	0	28	0	2209349632	57	4079
2026-01-04 07:25:14.22	345.44	22.63	-45.7	-46.7	15.3	0.00e+00	0	29	0	2214592512	57	4088
2026-01-04 07:25:15.23	345.18	22.59	-45.6	-46.6	15.3	0.00e+00	0	29	0	2220883968	57	4047
2026-01-04 07:25:16.24	344.92	22.54	-45.6	-46.7	15.3	0.00e+00	0	29	0	2226126848	57	4052
2026-01-04 07:25:17.24	344.66	22.50	-45.5	-46.6	15.3	0.00e+00	0	29	0	2232418304	57	4013
2026-01-04 07:25:18.25	344.40	22.46	-45.6	-46.6	15.3	0.00e+00	0	29	0	2237661184	57	4041
2026-01-04 07:25:19.26	344.14	22.41	-45.6	-46.6	15.3	0.00e+00	0	29	0	2242904064	57	4030
2026-01-04 07:25:20.27	343.88	22.37	-45.6	-46.7	15.3	0.00e+00	0	28	0	2249195520	57	4064
2026-01-04 07:25:21.28	343.63	22.32	-45.7	-46.8	15.2	0.00e+00	0	29	0	2254438400	57	4104
2026-01-04 07:25:22.28	343.37	22.28	-45.7	-46.7	15.3	0.00e+00	0	29	0	2259681280	57	4092
2026-01-04 07:25:23.29	343.12	22.23	-45.6	-46.7	15.3	0.00e+00	0	28	0	2265972736	57	4054
2026-01-04 07:25:24.30	342.86	22.18	-45.7	-46.7	15.3	0.00e+00	0	28	0	2271215616	57	4094
2026-01-04 07:25:25.31	342.61	22.13	-45.7	-46.7	15.3	0.00e+00	0	29	0	2277507072	57	4084
2026-01-04 07:25:26.32	342.35	22.09	-45.7	-46.7	15.3	0.00e+00	0	29	0	2282749952	57	4094
2026-01-04 07:25:27.33	342.10	22.04	-45.7	-46.7	15.3	0.00e+00	0	29	0	2289041408	57	4077
2026-01-04 07:25:28.33	341.85	21.99	-45.8	-46.8	15.3	0.00e+00	0	29	0	2294284288	57	4124
2026-01-04 07:25:29.34	341.60	21.94	-45.8	-46.9	15.2	0.00e+00	0	29	0	2300575744	57	4163
2026-01-04 07:25:30.34	341.35	21.89	-46.0	-47.1	15.2	0.00e+00	0	29	0	2305818624	57	4253
2026-01-04 07:25:31.35	341.10	21.84	-45.9	-47.0	15.2	0.00e+00	0	28	0	2311061504	57	4225
2026-01-04 07:25:32.36	340.85	21.79	-46.0	-47.0	15.2	0.00e+00	0	29	0	2317352960	57	4238
2026-01-04 07:25:33.37	340.60	21.73	-46.1	-47.2	15.2	0.00e+00	0	29	0	2322595840	57	4303
2026-01-04 07:25:34.38	340.36	21.68	-45.9	-46.9	15.2	0.00e+00	0	29	0	2327838720	57	4190
2026-01-04 07:25:35.39	340.11	21.63	-45.7	-46.8	15.2	0.00e+00	0	29	0	2334130176	57	4109
2026-01-04 07:25:36.40	339.86	21.58	-45.9	-46.9	15.2	0.00e+00	0	29	0	2339373056	57	4187
2026-01-04 07:25:37.41	339.62	21.52	-45.9	-47.0	15.2	0.00e+00	0	29	0	2345664512	57	4208
2026-01-04 07:25:38.41	339.38	21.47	-46.0	-47.0	15.2	0.00e+00	0	29	0	2350907392	57	4233
2026-01-04 07:25:39.42	339.14	21.41	-46.0	-47.0	15.2	0.00e+00	0	29	0	2356150272	57	4237
2026-01-04 07:25:40.43	338.89	21.36	-45.7	-46.8	15.3	0.00e+00	0	28	0	2362441728	57	4123
2026-01-04 07:25:41.44	338.65	21.30	-45.8	-46.9	15.2	0.00e+00	0	29	0	2367684608	57	4147
2026-01-04 07:25:42.45	338.41	21.25	-45.7	-46.8	15.3	0.00e+00	0	28	0	2373976064	57	4118
2026-01-04 07:25:43.45	338.17	21.19	-45.8	-46.8	15.3	0.00e+00	0	28	0	2379218944	57	4133
2026-01-04 07:25:44.46	337.94	21.14	-45.8	-46.9	15.2	0.00e+00	0	28	0	2385510400	57	4152
2026-01-04 07:25:45.47	337.70	21.08	-45.8	-46.8	15.3	0.00e+00	0	29	0	2390753280	57	4121
2026-01-04 07:25:46.47	337.46	21.02	-45.7	-46.8	15.3	0.00e+00	0	29	0	2395996160	57	4120
2026-01-04 07:25:47.48	337.23	20.96	-45.8	-46.8	15.3	0.00e+00	0	29	0	2402287616	57	4123
2026-01-04 07:25:48.49	336.99	20.91	-45.8	-46.9	15.2	0.00e+00	0	28	0	2407530496	57	4161
2026-01-04 07:25:49.50	336.76	20.85	-45.9	-47.0	15.2	0.00e+00	0	29	0	2413821952	57	4225
2026-01-04 07:25:50.51	336.53	20.79	-46.0	-47.1	15.2	0.00e+00	0	29	0	2419064832	57	4285
2026-01-04 07:25:51.52	336.29	20.73	-46.0	-47.1	15.2	0.00e+00	0	29	0	2424307712	57	4252
2026-01-04 07:25:52.53	336.06	20.67	-46.0	-47.1	15.2	0.00e+00	0	29	0	2430599168	57	4275
2026-01-04 07:25:53.53	335.83	20.61	-46.0	-47.0	15.2	0.00e+00	0	28	0	2435842048	57	4234
2026-01-04 07:25:54.54	335.60	20.55	-46.0	-47.1	15.2	0.00e+00	0	29	0	2442133504	57	4261
2026-01-04 07:25:55.55	335.38	20.49	-46.2	-47.3	15.1	0.00e+00	0	29	0	2447376384	57	4362
2026-01-04 07:25:56.56	335.15	20.43	-46.3	-47.4	15.1	0.00e+00	0	29	0	2452619264	57	4430
2026-01-04 07:25:57.57	334.92	20.37	-46.5	-47.6	15.2	0.00e+00	0	29	0	2458910720	58	4249
2026-01-04 07:25:58.58	334.69	20.30	-46.4	-47.4	15.2	0.00e+00	0	28	0	2464153600	58	4193
2026-01-04 07:25:59.59	334.47	20.24	-46.3	-47.4	15.2	0.00e+00	0	29	0	2470445056	58	4177
2026-01-04 07:26:00.60	334.25	20.18	-46.3	-47.4	15.2	0.00e+00	0	29	0	2475687936	58	4168
2026-01-04 07:26:01.61	334.02	20.12	-46.2	-47.3	15.2	0.00e+00	0	29	0	2481979392	58	4121
2026-01-04 07:26:02.62	333.80	20.05	-46.3	-47.4	15.2	0.00e+00	0	29	0	2487222272	58	4148
2026-01-04 07:26:03.62	333.58	19.99	-46.2	-47.3	15.2	0.00e+00	0	29	0	2492465152	58	4120
2026-01-04 07:26:04.63	333.36	19.93	-46.3	-47.4	15.2	0.00e+00	0	28	0	2498756608	58	4161
2026-01-04 07:26:05.64	333.14	19.86	-46.3	-47.4	15.2	0.00e+00	0	29	0	2503999488	58	4179
2026-01-04 07:26:06.65	332.92	19.80	-46.3	-47.4	15.2	0.00e+00	0	29	0	2510290944	58	4179
2026-01-04 07:26:07.66	332.70	19.74	-46.3	-47.4	15.2	0.00e+00	0	29	0	2515533824	58	4173
2026-01-04 07:26:08.67	332.49	19.67	-46.4	-47.5	15.2	0.00e+00	0	28	0	2520776704	58	4201
2026-01-04 07:26:09.67	332.27	19.61	-46.5	-47.6	15.1	0.00e+00	0	28	0	2527068160	58	4252
2026-01-04 07:26:10.68	332.06	19.54	-46.6	-47.7	15.1	0.00e+00	0	29	0	2532311040	58	4294
2026-01-04 07:26:11.69	331.84	19.48	-46.7	-47.8	15.1	0.00e+00	0	29	0	2538602496	58	4345
2026-01-04 07:26:12.70	331.63	19.41	-46.6	-47.8	15.1	0.00e+00	0	29	0	2543845376	58	4345
2026-01-04 07:26:13.71	331.42	19.35	-46.7	-47.8	15.1	0.00e+00	0	29	0	2549088256	58	4374
2026-01-04 07:26:14.72	331.21	19.28	-46.9	-48.0	15.1	0.00e+00	0	29	0	2555379712	58	4452
2026-01-04 07:26:15.73	331.00	19.21	-46.9	-48.0	15.1	0.00e+00	0	29	0	2560622592	59	4222
2026-01-04 07:26:16.74	330.79	19.15	-46.9	-48.0	15.1	0.00e+00	0	29	0	2566914048	59	4219
2026-01-04 07:26:17.75	330.58	19.08	-46.8	-48.0	15.1	0.00e+00	0	29	0	2572156928	59	4195
2026-01-04 07:26:18.76	330.37	19.01	-46.8	-47.9	15.1	0.00e+00	0	29	0	2578448384	59	4184
2026-01-04 07:26:19.76	330.17	18.95	-46.8	-47.9	15.2	0.00e+00	0	29	0	2583691264	59	4152
2026-01-04 07:26:20.77	329.96	18.88	-46.8	-47.9	15.1	0.00e+00	0	29	0	2588934144	59	4172
2026-01-04 07:26:21.78	329.76	18.81	-46.9	-48.0	15.1	0.00e+00	0	29	0	2595225600	59	4225
2026-01-04 07:26:22.79	329.55	18.74	-46.9	-48.0	15.1	0.00e+00	0	29	0	2600468480	59	4221
2026-01-04 07:26:23.80	329.35	18.68	-46.9	-48.0	15.1	0.00e+00	0	29	0	2606759936	59	4200
2026-01-04 07:26:24.81	329.15	18.61	-46.8	-47.9	15.1	0.00e+00	0	29	0	2612002816	59	4188
2026-01-04 07:26:25.82	328.95	18.54	-46.6	-47.7	15.2	0.00e+00	0	29	0	2617245696	59	4080
2026-01-04 07:26:26.83	328.75	18.47	-46.6	-47.7	15.2	0.00e+00	0	29	0	2623537152	59	4080
2026-01-04 07:26:27.84	328.55	18.40	-46.7	-47.8	15.2	0.00e+00	0	29	0	2628780032	59	4101
2026-01-04 07:26:28.84	328.35	18.33	-46.7	-47.8	15.2	0.00e+00	0	29	0	2635071488	59	4113
2026-01-04 07:26:29.84	328.16	18.27	-46.8	-48.0	15.1	0.00e+00	0	29	0	2640314368	59	4200
2026-01-04 07:26:30.85	327.96	18.20	-46.8	-47.9	15.1	0.00e+00	0	29	0	2645557248	59	4178
2026-01-04 07:26:31.86	327.76	18.13	-46.8	-47.8	15.2	0.00e+00	0	29	0	2651848704	59	4144
2026-01-04 07:26:32.87	327.57	18.06	-46.7	-47.8	15.2	0.00e+00	0	29	0	2657091584	59	4111
2026-01-04 07:26:33.88	327.38	17.99	-46.7	-47.8	15.2	0.00e+00	0	28	0	2663383040	59	4129
2026-01-04 07:26:34.89	327.18	17.92	-46.7	-47.8	15.2	0.00e+00	0	28	0	2668625920	59	4129
2026-01-04 07:26:35.90	326.99	17.85	-46.8	-47.9	15.1	0.00e+00	0	29	0	2674917376	59	4179
2026-01-04 07:26:36.91	326.80	17.78	-46.9	-48.0	15.1	0.00e+00	0	29	0	2680160256	59	4232
2026-01-04 07:26:37.91	326.61	17.71	-46.9	-48.0	15.1	0.00e+00	0	29	0	2685403136	59	4238
2026-01-04 07:26:38.92	326.42	17.64	-46.9	-48.0	15.1	0.00e+00	0	29	0	2691694592	59	4216
2026-01-04 07:26:39.93	326.23	17.57	-46.9	-48.0	15.1	0.00e+00	0	28	0	2696937472	59	4211
2026-01-04 07:26:40.93	326.05	17.50	-46.9	-47.9	15.1	0.00e+00	0	29	0	2702180352	59	4188
2026-01-04 07:26:41.94	325.86	17.43	-46.8	-47.9	15.1	0.00e+00	0	29	0	2708471808	59	4181
2026-01-04 07:26:42.95	325.67	17.36	-46.8	-47.9	15.2	0.00e+00	0	29	0	2713714688	59	4150
2026-01-04 07:26:43.96	325.49	17.29	-46.8	-47.9	15.2	2.20e-06	0	28	0	2720006144	59	4151
2026-01-04 07:26:44.96	325.31	17.22	-46.8	-47.9	15.2	0.00e+00	0	29	0	2725249024	59	4165
2026-01-04 07:26:45.97	325.12	17.15	-46.7	-47.8	15.2	0.00e+00	0	29	0	2730491904	59	4127
2026-01-04 07:26:46.98	324.94	17.07	-46.8	-47.9	15.2	0.00e+00	0	28	0	2736783360	59	4160
2026-01-04 07:26:47.99	324.76	17.00	-46.8	-47.9	15.2	0.00e+00	0	28	0	2742026240	59	4153
2026-01-04 07:26:49.00	324.58	16.93	-46.9	-48.0	15.1	0.00e+00	0	29	0	2748317696	59	4208
2026-01-04 07:26:50.01	324.40	16.86	-46.8	-47.9	15.1	0.00e+00	0	29	0	2753560576	59	4188
2026-01-04 07:26:51.02	324.22	16.79	-46.8	-47.9	15.1	0.00e+00	0	29	0	2759852032	59	4180
2026-01-04 07:26:52.03	324.04	16.72	-46.8	-47.9	15.1	0.00e+00	0	29	0	2765094912	59	4155
2026-01-04 07:26:53.04	323.87	16.65	-46.9	-48.0	15.1	0.00e+00	0	29	0	2771386368	59	4211
2026-01-04 07:26:54.05	323.69	16.57	-46.9	-48.0	15.1	0.00e+00	0	29	0	2776629248	59	4219
2026-01-04 07:26:55.06	323.51	16.50	-47.0	-48.1	15.1	0.00e+00	0	29	0	2781872128	59	4250
2026-01-04 07:26:56.06	323.34	16.43	-47.0	-48.2	15.1	0.00e+00	0	29	0	2788163584	59	4301
2026-01-04 07:26:57.07	323.17	16.36	-47.1	-48.2	15.1	0.00e+00	0	29	0	2793406464	59	4327
2026-01-04 07:26:58.08	323.00	16.29	-47.1	-48.2	15.0	0.00e+00	0	29	0	2798649344	59	4337
2026-01-04 07:26:59.09	322.82	16.21	-47.2	-48.4	15.0	0.00e+00	0	29	0	2804940800	59	4405
2026-01-04 07:27:00.10	322.65	16.14	-47.3	-48.4	15.0	0.00e+00	0	29	0	2810183680	59	4440
2026-01-04 07:27:01.11	322.48	16.07	-47.3	-48.5	15.0	0.00e+00	0	29	0	2816475136	59	4451
2026-01-04 07:27:02.12	322.31	16.00	-47.4	-48.5	15.0	0.00e+00	0	29	0	2821718016	59	4469
2026-01-04 07:27:03.13	322.14	15.93	-47.4	-48.5	15.0	0.00e+00	0	28	0	2826960896	59	4478
2026-01-04 07:27:04.13	321.98	15.85	-47.4	-48.5	15.0	0.00e+00	0	29	0	2833252352	59	4482
2026-01-04 07:27:05.14	321.81	15.78	-47.4	-48.5	15.0	0.00e+00	0	29	0	2838495232	59	4491
2026-01-04 07:27:06.15	321.64	15.71	-47.0	-48.1	15.2	0.00e+00	0	29	0	2844786688	60	4030
2026-01-04 07:27:07.15	321.48	15.64	-47.0	-48.1	15.2	0.00e+00	0	29	0	2850029568	60	4027
2026-01-04 07:27:08.16	321.32	15.57	-47.1	-48.2	15.1	0.00e+00	0	29	0	2856321024	60	4067
2026-01-04 07:27:09.17	321.15	15.49	-47.0	-48.1	15.1	0.00e+00	0	29	0	2861563904	60	4035
2026-01-04 07:27:10.18	320.99	15.42	-46.9	-48.0	15.2	0.00e+00	0	29	0	2866806784	60	4001
2026-01-04 07:27:11.19	320.83	15.35	-46.9	-48.0	15.2	0.00e+00	0	29	0	2873098240	60	3988
2026-01-04 07:27:12.20	320.66	15.28	-47.0	-48.0	15.2	0.00e+00	0	29	0	2878341120	60	3998
2026-01-04 07:27:13.21	320.50	15.20	-46.9	-48.0	15.2	0.00e+00	0	29	0	2884632576	60	3974
2026-01-04 07:27:14.21	320.35	15.13	-47.0	-48.1	15.1	0.00e+00	0	29	0	2889875456	60	4030
2026-01-04 07:27:15.22	320.19	15.06	-46.9	-48.0	15.2	0.00e+00	0	29	0	2895118336	60	3986
2026-01-04 07:27:16.23	320.03	14.99	-47.0	-48.1	15.2	0.00e+00	0	29	0	2901409792	60	4022
2026-01-04 07:27:17.24	319.87	14.91	-47.0	-48.2	15.1	0.00e+00	0	29	0	2906652672	60	4054
2026-01-04 07:27:18.25	319.71	14.84	-47.0	-48.1	15.2	0.00e+00	0	29	0	2912944128	60	4043
2026-01-04 07:27:19.26	319.56	14.77	-47.1	-48.2	15.1	0.00e+00	0	29	0	2918187008	60	4084
2026-01-04 07:27:20.27	319.40	14.70	-47.1	-48.2	15.1	0.00e+00	0	29	0	2923429888	60	4071
2026-01-04 07:27:21.28	319.25	14.62	-47.2	-48.3	15.1	0.00e+00	0	29	0	2929721344	60	4112
2026-01-04 07:27:22.29	319.10	14.55	-47.2	-48.3	15.1	0.00e+00	0	29	0	2934964224	60	4138
2026-01-04 07:27:23.29	318.94	14.48	-47.3	-48.4	15.1	0.00e+00	0	29	0	2941255680	60	4159
2026-01-04 07:27:24.30	318.79	14.41	-47.3	-48.4	15.0	0.00e+00	0	29	0	2946498560	60	4171
2026-01-04 07:27:25.30	318.64	14.34	-47.2	-48.4	15.0	0.00e+00	0	29	0	2952790016	60	4165
2026-01-04 07:27:26.31	318.49	14.26	-47.4	-48.5	15.0	0.00e+00	0	29	0	2958032896	60	4223
2026-01-04 07:27:27.32	318.34	14.19	-47.3	-48.4	15.0	0.00e+00	0	29	0	2963275776	60	4191
2026-01-04 07:27:28.33	318.19	14.12	-47.3	-48.4	15.0	0.00e+00	0	29	0	2969567232	60	4192
2026-01-04 07:27:29.33	318.05	14.05	-47.2	-48.4	15.0	0.00e+00	0	29	0	2974810112	60	4149
2026-01-04 07:27:30.34	317.90	13.97	-47.3	-48.5	15.0	0.00e+00	0	29	0	2981101568	60	4197
2026-01-04 07:27:31.35	317.75	13.90	-47.3	-48.5	15.0	0.00e+00	0	29	0	2986344448	60	4206
2026-01-04 07:27:32.36	317.60	13.83	-47.4	-48.5	15.0	0.00e+00	0	29	0	2991587328	60	4235
2026-01-04 07:27:33.36	317.46	13.76	-47.4	-48.5	15.0	0.00e+00	0	29	0	2997878784	60	4212
2026-01-04 07:27:34.37	317.32	13.69	-47.5	-48.6	15.0	0.00e+00	0	29	0	3003121664	60	4282
2026-01-04 07:27:35.37	317.17	13.61	-47.5	-48.6	15.0	0.00e+00	0	29	0	3008364544	60	4271
2026-01-04 07:27:36.38	317.03	13.54	-47.5	-48.6	15.0	0.00e+00	0	29	0	3014656000	60	4267
2026-01-04 07:27:37.39	316.89	13.47	-47.4	-48.5	15.0	0.00e+00	0	29	0	3019898880	60	4224
2026-01-04 07:27:38.40	316.75	13.40	-47.5	-48.6	15.0	0.00e+00	0	29	0	3026190336	60	4271
2026-01-04 07:27:39.40	316.61	13.33	-47.6	-48.7	14.9	0.00e+00	0	29	0	3031433216	60	4327
2026-01-04 07:27:40.41	316.46	13.25	-47.6	-48.8	14.9	0.00e+00	0	29	0	3037724672	60	4346
2026-01-04 07:27:41.42	316.32	13.18	-47.7	-48.8	14.9	0.00e+00	0	29	0	3042967552	60	4391
2026-01-04 07:27:42.43	316.19	13.11	-47.6	-48.8	14.9	0.00e+00	0	29	0	3048210432	60	4373
2026-01-04 07:27:43.44	316.05	13.04	-47.7	-48.9	14.9	0.00e+00	0	29	0	3054501888	60	4414
2026-01-04 07:27:44.44	315.91	12.97	-47.7	-48.9	14.9	0.00e+00	0	29	0	3059744768	60	4424
2026-01-04 07:27:45.45	315.77	12.90	-47.7	-48.9	14.9	0.00e+00	0	29	0	3066036224	60	4411
2026-01-04 07:27:46.45	315.64	12.82	-47.6	-48.8	14.9	0.00e+00	0	29	0	3071279104	60	4343
2026-01-04 07:27:47.46	315.50	12.75	-47.6	-48.8	14.9	0.00e+00	0	29	0	3076521984	60	4348
2026-01-04 07:27:48.47	315.37	12.68	-47.7	-48.9	14.9	0.00e+00	0	29	0	3082813440	60	4404
2026-01-04 07:27:49.48	315.23	12.61	-47.7	-48.8	14.9	0.00e+00	0	29	0	3088056320	60	4385
2026-01-04 07:27:50.48	315.10	12.54	-47.6	-48.8	14.9	0.00e+00	0	29	0	3093299200	60	4360
2026-01-04 07:27:51.49	314.97	12.47	-47.7	-48.9	14.9	0.00e+00	0	29	0	3099590656	60	4406
2026-01-04 07:27:52.50	314.84	12.40	-47.8	-49.0	14.9	0.00e+00	0	29	0	3104833536	60	4458
2026-01-04 07:27:53.51	314.70	12.32	-47.8	-49.0	14.8	0.00e+00	0	29	0	3111124992	60	4461
2026-01-04 07:27:54.52	314.57	12.25	-47.9	-49.1	14.8	0.00e+00	0	29	0	3116367872	60	4529
2026-01-04 07:27:55.52	314.44	12.18	-48.0	-49.1	14.9	0.00e+00	0	29	0	3122659328	61	4288
2026-01-04 07:27:56.53	314.31	12.11	-48.0	-49.1	14.9	0.00e+00	0	29	0	3127902208	61	4290
2026-01-04 07:27:57.54	314.19	12.04	-47.9	-49.1	14.9	0.00e+00	0	29	0	3134193664	61	4282
2026-01-04 07:27:58.55	314.06	11.97	-48.0	-49.2	14.9	0.00e+00	0	29	0	3139436544	61	4292
2026-01-04 07:27:59.56	313.93	11.90	-47.9	-49.1	14.9	0.00e+00	0	29	0	3144679424	61	4264
2026-01-04 07:28:00.56	313.80	11.83	-47.9	-49.1	14.9	0.00e+00	0	29	0	3150970880	61	4281
2026-01-04 07:28:01.57	313.68	11.76	-48.1	-49.3	14.8	0.00e+00	0	29	0	3156213760	61	4349
2026-01-04 07:28:02.58	313.55	11.69	-48.0	-49.2	14.9	0.00e+00	0	29	0	3161456640	61	4306
2026-01-04 07:28:03.59	313.42	11.61	-48.0	-49.2	14.9	0.00e+00	0	29	0	3167748096	61	4297
2026-01-04 07:28:04.60	313.30	11.54	-48.1	-49.2	14.8	0.00e+00	0	29	0	3172990976	61	4340
2026-01-04 07:28:05.60	313.18	11.47	-48.0	-49.2	14.9	0.00e+00	0	28	0	3179282432	61	4298
2026-01-04 07:28:06.61	313.05	11.40	-48.1	-49.3	14.8	0.00e+00	0	29	0	3184525312	61	4355
2026-01-04 07:28:07.62	312.93	11.33	-48.0	-49.2	14.9	0.00e+00	0	29	0	3189768192	61	4311
2026-01-04 07:28:08.63	312.81	11.26	-48.0	-49.2	14.9	0.00e+00	0	29	0	3196059648	61	4294
2026-01-04 07:28:09.64	312.69	11.19	-48.0	-49.2	14.8	0.00e+00	0	29	0	3201302528	61	4331
2026-01-04 07:28:10.64	312.57	11.12	-48.2	-49.4	14.8	0.00e+00	0	29	0	3207593984	61	4399
2026-01-04 07:28:11.65	312.45	11.05	-48.3	-49.5	14.8	0.00e+00	0	29	0	3212836864	61	4472
2026-01-04 07:28:12.66	312.33	10.98	-48.3	-49.5	14.8	0.00e+00	0	29	0	3219128320	61	4482
2026-01-04 07:28:13.67	312.21	10.91	-48.3	-49.5	14.7	0.00e+00	0	29	0	3224371200	61	4476
2026-01-04 07:28:14.67	312.09	10.84	-48.3	-49.5	14.7	0.00e+00	0	29	0	3229614080	61	4493
2026-01-04 07:28:15.68	311.97	10.77	-48.3	-49.6	14.7	0.00e+00	0	29	0	3235905536	61	4508
2026-01-04 07:28:16.69	311.85	10.70	-48.5	-49.7	14.8	0.00e+00	0	29	0	3241148416	62	4311
2026-01-04 07:28:17.70	311.74	10.63	-48.4	-49.7	14.8	0.00e+00	0	28	0	3247439872	62	4305
2026-01-04 07:28:18.71	311.62	10.56	-48.5	-49.7	14.8	0.00e+00	0	29	0	3252682752	62	4321
2026-01-04 07:28:19.72	311.50	10.49	-48.4	-49.7	14.8	0.00e+00	0	29	0	3257925632	62	4311
2026-01-04 07:28:20.73	311.39	10.42	-48.5	-49.7	14.7	0.00e+00	0	29	0	3264217088	62	4322
2026-01-04 07:28:21.74	311.27	10.36	-48.5	-49.7	14.8	0.00e+00	0	28	0	3269459968	62	4320
2026-01-04 07:28:22.75	311.16	10.29	-48.5	-49.8	14.7	0.00e+00	0	29	0	3275751424	62	4342
2026-01-04 07:28:23.76	311.05	10.22	-48.5	-49.7	14.8	0.00e+00	0	29	0	3280994304	62	4328
2026-01-04 07:28:24.76	310.93	10.15	-48.5	-49.7	14.8	0.00e+00	0	29	0	3286237184	62	4327
2026-01-04 07:28:25.77	310.82	10.08	-48.5	-49.7	14.8	0.00e+00	0	29	0	3292528640	62	4332
2026-01-04 07:28:26.78	310.71	10.01	-48.5	-49.8	14.7	0.00e+00	0	29	0	3297771520	62	4344
2026-01-04 07:28:27.79	310.60	9.94	-48.5	-49.7	14.8	0.00e+00	0	29	0	3304062976	62	4314
2026-01-04 07:28:28.80	310.49	9.87	-48.5	-49.7	14.7	0.00e+00	0	29	0	3309305856	62	4332
2026-01-04 07:28:29.80	310.38	9.80	-48.4	-49.6	14.8	0.00e+00	0	29	0	3315597312	62	4255
2026-01-04 07:28:30.81	310.27	9.74	-48.4	-49.7	14.8	0.00e+00	0	28	0	3320840192	62	4297
2026-01-04 07:28:31.82	310.16	9.67	-48.4	-49.6	14.8	0.00e+00	0	29	0	3326083072	62	4291
2026-01-04 07:28:32.83	310.05	9.60	-48.4	-49.6	14.8	0.00e+00	0	29	0	3332374528	62	4290
2026-01-04 07:28:33.84	309.94	9.53	-48.4	-49.7	14.8	0.00e+00	0	29	0	3337617408	62	4300
2026-01-04 07:28:34.84	309.83	9.46	-48.5	-49.7	14.7	0.00e+00	0	29	0	3343908864	62	4328
2026-01-04 07:28:35.85	309.73	9.39	-48.5	-49.8	14.7	0.00e+00	0	29	0	3349151744	62	4360
2026-01-04 07:28:36.86	309.62	9.33	-48.6	-49.8	14.7	0.00e+00	0	29	0	3354394624	62	4388
2026-01-04 07:28:37.87	309.51	9.26	-48.6	-49.9	14.7	0.00e+00	0	29	0	3360686080	62	4414
2026-01-04 07:28:38.88	309.41	9.19	-48.7	-50.0	14.6	0.00e+00	0	29	0	3365928960	62	4465
2026-01-04 07:28:39.89	309.30	9.12	-48.8	-50.0	14.6	0.00e+00	0	29	0	3372220416	62	4487
2026-01-04 07:28:40.90	309.20	9.05	-48.9	-50.2	14.6	0.00e+00	0	29	0	3377463296	62	4551
2026-01-04 07:28:41.91	309.09	8.99	-48.8	-50.1	14.6	0.00e+00	0	29	0	3382706176	62	4503
2026-01-04 07:28:42.92	308.99	8.92	-48.9	-50.2	14.6	0.00e+00	0	29	0	3388997632	62	4556
2026-01-04 07:28:43.92	308.89	8.85	-48.8	-50.1	14.6	0.00e+00	0	29	0	3394240512	62	4508
2026-01-04 07:28:44.93	308.79	8.78	-48.9	-50.2	14.6	0.00e+00	0	28	0	3400531968	62	4548
2026-01-04 07:28:45.94	308.68	8.72	-48.9	-50.1	14.6	0.00e+00	0	29	0	3405774848	62	4533
2026-01-04 07:28:46.95	308.58	8.65	-48.8	-50.1	14.6	0.00e+00	0	29	0	3412066304	62	4535
2026-01-04 07:28:47.95	308.48	8.58	-48.9	-50.1	14.6	0.00e+00	0	29	0	3417309184	62	4528
2026-01-04 07:28:48.96	308.38	8.52	-48.8	-50.1	14.6	0.00e+00	0	29	0	3422552064	62	4514
2026-01-04 07:28:49.97	308.28	8.45	-48.9	-50.2	14.6	0.00e+00	0	29	0	3428843520	62	4573
2026-01-04 07:28:50.98	308.18	8.38	-48.9	-50.2	14.6	0.00e+00	0	29	0	3434086400	62	4560
2026-01-04 07:28:51.99	308.08	8.32	-48.9	-50.2	14.6	0.00e+00	0	29	0	3440377856	63	4315
2026-01-04 07:28:53.00	307.98	8.25	-49.0	-50.3	14.6	0.00e+00	0	29	0	3445620736	63	4373
2026-01-04 07:28:54.01	307.88	8.18	-49.1	-50.4	14.6	0.00e+00	0	29	0	3450863616	63	4406
2026-01-04 07:28:55.02	307.79	8.12	-48.9	-50.2	14.6	0.00e+00	0	29	0	3457155072	63	4323
2026-01-04 07:28:56.03	307.69	8.05	-48.9	-50.2	14.6	0.00e+00	0	29	0	3462397952	63	4328
2026-01-04 07:28:57.03	307.59	7.98	-48.9	-50.2	14.6	0.00e+00	0	29	0	3467640832	63	4338
2026-01-04 07:28:58.04	307.49	7.92	-48.9	-50.2	14.6	0.00e+00	0	29	0	3473932288	63	4340
2026-01-04 07:28:59.05	307.40	7.85	-49.0	-50.3	14.6	0.00e+00	0	29	0	3479175168	63	4351
2026-01-04 07:29:00.06	307.30	7.79	-48.9	-50.2	14.6	0.00e+00	0	29	0	3485466624	63	4338
2026-01-04 07:29:01.06	307.21	7.72	-49.0	-50.3	14.6	0.00e+00	0	29	0	3490709504	63	4368
2026-01-04 07:29:02.07	307.11	7.65	-49.0	-50.4	14.6	0.00e+00	0	29	0	3497000960	63	4396
2026-01-04 07:29:03.08	307.02	7.59	-49.1	-50.5	14.5	0.00e+00	0	29	0	3502243840	63	4443
2026-01-04 07:29:04.09	306.93	7.52	-49.1	-50.4	14.5	0.00e+00	0	29	0	3508535296	63	4439
2026-01-04 07:29:05.10	306.83	7.46	-49.2	-50.5	14.5	0.00e+00	0	29	0	3513778176	63	4486
2026-01-04 07:29:06.11	306.74	7.39	-49.3	-50.6	14.5	0.00e+00	0	29	0	3519021056	63	4534
2026-01-04 07:29:07.12	306.65	7.33	-49.2	-50.5	14.5	0.00e+00	0	29	0	3525312512	63	4483
2026-01-04 07:29:08.12	306.55	7.26	-49.2	-50.5	14.5	0.00e+00	0	29	0	3530555392	63	4474
2026-01-04 07:29:09.13	306.46	7.20	-49.3	-50.6	14.4	0.00e+00	0	29	0	3535798272	63	4542
2026-01-04 07:29:10.14	306.37	7.13	-49.2	-50.5	14.5	0.00e+00	0	29	0	3542089728	63	4493
2026-01-04 07:29:11.14	306.28	7.07	-49.3	-50.7	14.4	0.00e+00	0	29	0	3547332608	63	4569
2026-01-04 07:29:12.15	306.19	7.00	-49.4	-50.8	14.4	0.00e+00	0	29	0	3553624064	63	4610
2026-01-04 07:29:13.16	306.10	6.94	-49.5	-50.8	14.4	0.00e+00	0	29	0	3558866944	64	4391
2026-01-04 07:29:14.17	306.01	6.87	-49.4	-50.8	14.4	0.00e+00	0	29	0	3564109824	64	4362
2026-01-04 07:29:15.17	305.92	6.81	-49.3	-50.7	14.5	0.00e+00	0	28	0	3570401280	64	4300
2026-01-04 07:29:16.18	305.83	6.74	-49.3	-50.7	14.5	0.00e+00	0	29	0	3575644160	64	4299
2026-01-04 07:29:17.19	305.75	6.68	-49.3	-50.7	14.5	0.00e+00	0	29	0	3581935616	64	4312
2026-01-04 07:29:18.20	305.66	6.62	-49.4	-50.8	14.4	0.00e+00	0	29	0	3587178496	64	4350
2026-01-04 07:29:19.20	305.57	6.55	-49.4	-50.7	14.4	0.00e+00	0	29	0	3593469952	64	4333
2026-01-04 07:29:20.21	305.48	6.49	-49.4	-50.8	14.4	0.00e+00	0	29	0	3598712832	64	4344
2026-01-04 07:29:21.22	305.40	6.42	-49.3	-50.7	14.5	0.00e+00	0	29	0	3603955712	64	4302
2026-01-04 07:29:22.23	305.31	6.36	-49.4	-50.8	14.4	0.00e+00	0	29	0	3610247168	64	4360
2026-01-04 07:29:23.24	305.22	6.30	-49.4	-50.8	14.4	0.00e+00	0	29	0	3615490048	64	4383
2026-01-04 07:29:24.24	305.14	6.23	-49.3	-50.7	14.4	0.00e+00	0	29	0	3621781504	64	4313
2026-01-04 07:29:25.25	305.05	6.17	-49.3	-50.7	14.5	0.00e+00	0	29	0	3627024384	64	4311
2026-01-04 07:29:26.26	304.97	6.11	-49.3	-50.7	14.4	0.00e+00	0	29	0	3632267264	64	4304
