passes_logs/2026/01/04/R3.2S_Murmansk/R3.2S_Murmansk__20260104_072540_NOAA_21_JPSS-2_rec.log

#Pass ID: 20260104_072540_NOAA 21 (JPSS-2)
#Satellite: NOAA 21 (JPSS-2)
#Configuration: NOAA-21
#almurnet v.1.7.20251203
#Start time: 2026-01-04 07:30:44

#Version: 2.2.20231116
#Station: R3.2S_Murmansk
#Location: 33.079688 lon 68.888172 lat
#TLE: 1 54234U 22150A   26003.94651505  .00000183  00000+0  10759-3 0  9990
#TLE: 2 54234  98.7488 304.9806 0001136 345.9488  14.1656 14.19531852163244

#Time	Az	El	Level	Level2	SNR	BER	BlckErr	Temp	State	Recorded	gain1	gain2
2026-01-04 07:30:44.18	69.26	28.03	-61.0	-74.1	3.8	8.45e-01	0	28	0	0	87	17000
2026-01-04 07:30:45.18	68.99	28.14	-61.2	-75.1	3.8	1.49e+00	0	28	104	0	87	18984
2026-01-04 07:30:46.18	68.73	28.24	-61.1	-75.0	3.8	1.49e+00	0	29	104	0	87	18891
2026-01-04 07:30:47.19	68.46	28.35	-61.1	-75.0	3.8	1.49e+00	0	29	104	0	87	18818
2026-01-04 07:30:48.20	68.19	28.45	-61.1	-74.9	3.8	1.49e+00	0	29	104	0	87	18619
2026-01-04 07:30:49.21	67.92	28.55	-61.0	-74.9	3.8	1.49e+00	0	29	104	0	87	18535
2026-01-04 07:30:50.22	67.65	28.66	-60.9	-74.8	3.8	1.49e+00	0	29	104	0	87	18327
2026-01-04 07:30:51.23	67.37	28.76	-60.9	-74.7	3.8	1.49e+00	0	29	104	0	87	18118
2026-01-04 07:30:52.23	67.10	28.86	-60.8	-74.7	3.8	1.49e+00	0	29	104	0	87	18108
2026-01-04 07:30:53.24	66.82	28.96	-60.8	-74.6	3.8	1.49e+00	0	29	104	0	87	18028
2026-01-04 07:30:54.24	66.54	29.06	-60.7	-74.6	3.8	1.49e+00	0	29	104	0	87	17917
2026-01-04 07:30:55.25	66.26	29.16	-60.7	-74.5	3.8	1.49e+00	0	29	104	0	87	17803
2026-01-04 07:30:56.26	65.97	29.26	-60.6	-74.5	3.8	1.49e+00	0	29	104	0	87	17689
2026-01-04 07:30:57.27	65.69	29.36	-60.6	-74.4	3.8	1.49e+00	0	29	104	0	87	17606
2026-01-04 07:30:58.27	65.40	29.46	-60.6	-74.4	3.8	1.49e+00	0	29	104	0	87	17549
2026-01-04 07:30:59.28	65.11	29.56	-60.6	-74.3	3.8	1.49e+00	0	29	104	0	87	17445
2026-01-04 07:31:00.29	64.82	29.66	-60.6	-74.4	3.8	1.49e+00	0	29	104	0	87	17494
2026-01-04 07:31:01.30	64.53	29.76	-60.6	-74.3	3.8	1.49e+00	0	29	104	0	87	17479
2026-01-04 07:31:02.30	64.24	29.86	-60.6	-74.4	3.8	1.49e+00	0	29	104	0	87	17487
2026-01-04 07:31:03.31	63.94	29.95	-60.6	-74.4	3.8	1.49e+00	0	29	104	0	87	17607
2026-01-04 07:31:04.32	63.64	30.05	-60.6	-74.4	3.8	1.49e+00	0	29	104	0	87	17576
2026-01-04 07:31:05.33	63.34	30.15	-60.5	-74.4	3.8	1.49e+00	0	28	104	0	87	17509
2026-01-04 07:31:06.34	63.04	30.24	-60.5	-74.3	3.8	1.49e+00	0	29	104	0	87	17334
2026-01-04 07:31:07.35	62.74	30.34	-60.5	-74.3	3.8	1.49e+00	0	29	104	0	87	17380
2026-01-04 07:31:08.36	62.43	30.43	-60.5	-74.3	3.8	1.49e+00	0	29	104	0	87	17457
2026-01-04 07:31:09.37	62.12	30.53	-60.5	-74.3	3.8	1.49e+00	0	29	104	0	87	17436
2026-01-04 07:31:10.38	61.82	30.62	-60.5	-74.3	3.8	1.49e+00	0	29	104	0	87	17408
2026-01-04 07:31:11.39	61.50	30.71	-60.5	-74.3	3.8	1.49e+00	0	29	104	0	87	17322
2026-01-04 07:31:12.40	61.19	30.80	-60.5	-74.3	3.8	1.49e+00	0	29	104	0	87	17388
2026-01-04 07:31:13.41	60.88	30.89	-60.5	-74.4	3.8	1.49e+00	0	29	104	0	87	17518
2026-01-04 07:31:14.42	60.56	30.99	-60.5	-74.3	3.8	1.49e+00	0	29	104	0	87	17481
2026-01-04 07:31:15.43	60.24	31.08	-60.5	-74.3	3.8	1.49e+00	0	29	104	0	87	17391
2026-01-04 07:31:16.44	59.92	31.16	-60.5	-74.2	3.8	1.49e+00	0	29	104	0	87	17188
2026-01-04 07:31:17.45	59.60	31.25	-60.5	-74.2	3.8	1.49e+00	0	29	104	0	87	17251
2026-01-04 07:31:18.46	59.28	31.34	-60.5	-74.3	3.8	1.49e+00	0	29	104	0	87	17407
2026-01-04 07:31:19.47	58.95	31.43	-60.5	-74.3	3.8	1.49e+00	0	29	104	0	87	17373
2026-01-04 07:31:20.48	58.63	31.51	-60.5	-74.3	3.8	1.49e+00	0	29	104	0	87	17328
2026-01-04 07:31:21.48	58.30	31.60	-60.5	-74.1	3.8	1.49e+00	0	29	104	0	87	17014
2026-01-04 07:31:22.49	57.97	31.68	-60.4	-74.1	3.8	1.49e+00	0	29	104	0	87	16977
2026-01-04 07:31:23.50	57.64	31.76	-60.4	-74.1	3.8	1.49e+00	0	29	104	0	87	17077
2026-01-04 07:31:24.51	57.30	31.85	-60.5	-74.2	3.8	1.49e+00	0	29	104	0	87	17120
2026-01-04 07:31:25.52	56.97	31.93	-60.5	-74.3	3.8	1.49e+00	0	29	104	0	87	17344
2026-01-04 07:31:26.53	56.63	32.01	-60.4	-73.8	3.8	1.49e+00	0	29	104	0	87	16429
2026-01-04 07:31:27.54	56.29	32.09	-60.4	-73.8	3.8	1.49e+00	0	29	104	0	87	16336
2026-01-04 07:31:28.55	55.95	32.17	-60.4	-74.2	3.8	1.49e+00	0	29	104	0	87	17268
2026-01-04 07:31:29.56	55.61	32.25	-60.4	-74.1	3.8	1.49e+00	0	29	104	0	87	16896
2026-01-04 07:31:30.56	55.27	32.32	-60.4	-73.6	3.8	1.49e+00	0	29	104	0	87	15977
2026-01-04 07:31:31.57	54.92	32.40	-60.4	-73.6	3.8	1.49e+00	0	29	104	0	87	16031
2026-01-04 07:31:32.58	54.58	32.47	-60.4	-73.5	3.8	1.49e+00	0	29	104	0	87	15901
2026-01-04 07:31:33.59	54.23	32.55	-60.3	-72.2	3.9	1.49e+00	0	29	104	0	87	13705
2026-01-04 07:31:34.59	53.88	32.62	-60.4	-73.8	3.8	1.49e+00	0	29	104	0	87	16443
2026-01-04 07:31:35.61	53.53	32.69	-60.1	-71.0	3.9	1.49e+00	0	29	104	0	86	12544
2026-01-04 07:31:36.61	53.18	32.76	-59.0	-64.7	7.6	1.87e-01	0	29	0	1048576	84	6828
2026-01-04 07:31:37.62	52.82	32.83	-57.2	-60.6	10.8	2.47e-03	0	29	0	4194304	81	5056
2026-01-04 07:31:38.63	52.47	32.90	-58.3	-62.9	9.2	6.80e-06	0	29	0	7340032	81	6597
2026-01-04 07:31:39.64	52.11	32.97	-58.6	-63.8	8.3	1.74e-02	0	29	0	10485760	83	6548
2026-01-04 07:31:40.64	51.75	33.04	-54.0	-55.8	13.5	6.90e-04	0	29	0	13631488	74	4351
2026-01-04 07:31:41.65	51.39	33.10	-51.6	-53.0	14.4	0.00e+00	0	29	0	16777216	68	4475
2026-01-04 07:31:42.59	51.05	33.16	-53.8	-55.6	13.6	0.00e+00	0	29	0	19922944	72	4786
2026-01-04 07:31:43.60	50.69	33.22	-51.9	-53.3	14.4	1.37e-05	0	29	0	23068672	70	4112
2026-01-04 07:31:44.60	50.33	33.29	-50.9	-52.2	14.7	0.00e+00	0	29	0	26214400	68	4088
2026-01-04 07:31:45.61	49.96	33.35	-50.9	-52.2	14.7	0.00e+00	0	29	0	29360128	68	4052
2026-01-04 07:31:46.61	49.60	33.41	-50.7	-52.0	14.7	0.00e+00	0	29	0	32505856	68	3991
2026-01-04 07:31:47.62	49.23	33.46	-50.9	-52.2	14.7	0.00e+00	0	29	0	35651584	68	4081
2026-01-04 07:31:48.63	48.86	33.52	-50.8	-52.1	14.7	0.00e+00	0	29	0	38797312	68	4035
2026-01-04 07:31:49.63	48.49	33.58	-50.8	-52.1	14.7	0.00e+00	0	29	0	41943040	68	4007
2026-01-04 07:31:50.64	48.12	33.63	-50.8	-52.1	14.7	0.00e+00	0	28	0	45088768	68	4025
2026-01-04 07:31:51.65	47.74	33.68	-50.7	-52.0	14.7	0.00e+00	0	28	0	48234496	68	3998
2026-01-04 07:31:52.65	47.37	33.74	-50.4	-51.6	14.8	0.00e+00	0	29	0	51380224	67	4042
2026-01-04 07:31:53.66	47.00	33.79	-50.4	-51.6	14.8	0.00e+00	0	28	0	54525952	67	4047
2026-01-04 07:31:54.67	46.62	33.84	-50.4	-51.7	14.7	0.00e+00	0	29	0	57671680	67	4064
2026-01-04 07:31:55.68	46.24	33.88	-50.4	-51.7	14.7	0.00e+00	0	29	0	60817408	67	4072
2026-01-04 07:31:56.68	45.86	33.93	-50.4	-51.6	14.8	0.00e+00	0	29	0	63963136	67	4044
2026-01-04 07:31:57.69	45.48	33.98	-50.3	-51.5	14.8	0.00e+00	0	29	0	67108864	67	3987
2026-01-04 07:31:58.70	45.10	34.02	-50.4	-51.7	14.7	0.00e+00	0	29	0	70254592	67	4063
2026-01-04 07:31:59.71	44.72	34.06	-50.4	-51.7	14.7	0.00e+00	0	29	0	73400320	67	4062
2026-01-04 07:32:00.72	44.33	34.10	-50.6	-51.9	14.7	0.00e+00	0	29	0	76546048	67	4151
2026-01-04 07:32:01.72	43.95	34.14	-50.7	-52.0	14.6	0.00e+00	0	29	0	79691776	67	4195
2026-01-04 07:32:02.73	43.57	34.18	-50.8	-52.1	14.6	0.00e+00	0	29	0	82837504	67	4282
2026-01-04 07:32:03.74	43.18	34.22	-50.7	-52.0	14.6	0.00e+00	0	29	0	85983232	67	4222
2026-01-04 07:32:04.75	42.79	34.25	-50.7	-52.0	14.6	0.00e+00	0	29	0	89128960	67	4215
2026-01-04 07:32:05.76	42.40	34.29	-50.6	-51.9	14.6	0.00e+00	0	29	0	92274688	67	4191
2026-01-04 07:32:06.76	42.02	34.32	-50.6	-51.9	14.7	0.00e+00	0	28	0	95420416	67	4151
2026-01-04 07:32:07.77	41.63	34.35	-50.7	-52.0	14.6	0.00e+00	0	29	0	98566144	67	4217
2026-01-04 07:32:08.78	41.24	34.38	-50.6	-51.9	14.7	0.00e+00	0	29	0	101711872	67	4171
2026-01-04 07:32:09.79	40.84	34.41	-50.7	-52.0	14.6	0.00e+00	0	29	0	104857600	67	4224
2026-01-04 07:32:10.80	40.45	34.43	-50.6	-51.9	14.7	0.00e+00	0	29	0	108003328	67	4168
2026-01-04 07:32:11.81	40.06	34.46	-50.5	-51.8	14.7	0.00e+00	0	29	0	111149056	67	4114
2026-01-04 07:32:12.81	39.67	34.48	-50.5	-51.8	14.7	0.00e+00	0	28	0	114294784	67	4126
2026-01-04 07:32:13.82	39.28	34.50	-50.5	-51.8	14.7	0.00e+00	0	29	0	117440512	67	4128
2026-01-04 07:32:14.83	38.88	34.52	-50.4	-51.7	14.7	0.00e+00	0	29	0	120586240	67	4077
2026-01-04 07:32:15.84	38.49	34.54	-50.2	-51.4	14.8	0.00e+00	0	29	0	123731968	67	3956
2026-01-04 07:32:16.85	38.09	34.56	-50.2	-51.5	14.7	0.00e+00	0	29	0	126877696	66	4210
2026-01-04 07:32:17.86	37.70	34.58	-50.4	-51.6	14.6	0.00e+00	0	28	0	130023424	66	4286
2026-01-04 07:32:18.86	37.30	34.59	-50.4	-51.7	14.6	0.00e+00	0	29	0	133169152	66	4314
2026-01-04 07:32:19.87	36.91	34.60	-50.6	-51.9	14.6	0.00e+00	0	29	0	136314880	66	4400
2026-01-04 07:32:20.88	36.51	34.61	-50.7	-52.0	14.5	0.00e+00	0	28	0	139460608	66	4462
2026-01-04 07:32:21.89	36.11	34.62	-50.7	-52.0	14.5	0.00e+00	0	29	0	142606336	66	4488
2026-01-04 07:32:22.90	35.72	34.63	-50.6	-51.9	14.6	0.00e+00	0	28	0	145752064	66	4412
2026-01-04 07:32:23.91	35.32	34.64	-50.7	-52.1	14.5	0.00e+00	0	29	0	148897792	66	4515
2026-01-04 07:32:24.91	34.93	34.64	-50.8	-52.1	14.5	0.00e+00	0	29	0	152043520	66	4538
2026-01-04 07:32:25.92	34.53	34.65	-50.4	-51.7	14.6	0.00e+00	0	29	0	155189248	66	4330
2026-01-04 07:32:26.93	34.13	34.65	-50.5	-51.7	14.6	0.00e+00	0	29	0	158334976	66	4333
2026-01-04 07:32:27.93	33.74	34.65	-50.6	-51.9	14.6	0.00e+00	0	29	0	161480704	66	4423
2026-01-04 07:32:28.94	33.34	34.65	-50.4	-51.6	14.6	0.00e+00	0	28	0	164626432	66	4290
2026-01-04 07:32:29.95	32.94	34.64	-50.3	-51.6	14.7	0.00e+00	0	29	0	167772160	66	4267
2026-01-04 07:32:30.96	32.55	34.64	-50.5	-51.8	14.6	0.00e+00	0	29	0	170917888	66	4381
2026-01-04 07:32:31.96	32.15	34.63	-50.5	-51.8	14.6	0.00e+00	0	29	0	174063616	66	4386
2026-01-04 07:32:32.97	31.76	34.63	-50.5	-51.8	14.6	0.00e+00	0	28	0	177209344	66	4383
2026-01-04 07:32:33.98	31.36	34.62	-50.6	-51.9	14.5	0.00e+00	0	29	0	180355072	66	4423
2026-01-04 07:32:34.98	30.97	34.61	-50.7	-52.0	14.5	0.00e+00	0	29	0	183500800	66	4476
2026-01-04 07:32:35.99	30.57	34.59	-50.7	-52.0	14.5	0.00e+00	0	29	0	186646528	66	4466
2026-01-04 07:32:37.00	30.17	34.58	-50.7	-52.0	14.5	0.00e+00	0	29	0	189792256	66	4472
2026-01-04 07:32:38.01	29.78	34.56	-50.7	-52.0	14.5	0.00e+00	0	28	0	192937984	66	4489
2026-01-04 07:32:39.02	29.38	34.55	-50.5	-51.8	14.6	0.00e+00	0	28	0	196083712	66	4391
2026-01-04 07:32:40.03	28.99	34.53	-50.5	-51.8	14.6	0.00e+00	0	29	0	199229440	66	4377
2026-01-04 07:32:41.04	28.59	34.51	-50.6	-51.9	14.5	0.00e+00	0	28	0	202375168	66	4423
2026-01-04 07:32:42.04	28.20	34.49	-50.8	-52.1	14.4	0.00e+00	0	29	0	205520896	66	4540
2026-01-04 07:32:43.05	27.81	34.46	-50.9	-52.2	14.5	0.00e+00	0	28	0	208666624	67	4326
2026-01-04 07:32:44.06	27.42	34.44	-50.6	-51.9	14.6	0.00e+00	0	29	0	211812352	67	4151
2026-01-04 07:32:45.07	27.03	34.41	-50.5	-51.8	14.7	0.00e+00	0	28	0	214958080	67	4125
2026-01-04 07:32:46.07	26.64	34.39	-50.5	-51.8	14.7	0.00e+00	0	29	0	218103808	67	4129
2026-01-04 07:32:47.08	26.25	34.36	-50.4	-51.7	14.7	0.00e+00	0	29	0	221249536	67	4072
2026-01-04 07:32:48.09	25.86	34.33	-50.6	-51.9	14.6	0.00e+00	0	28	0	224395264	67	4177
2026-01-04 07:32:49.09	25.47	34.29	-50.8	-52.2	14.5	0.00e+00	0	28	0	227540992	67	4295
2026-01-04 07:32:50.10	25.08	34.26	-50.9	-52.3	14.5	0.00e+00	0	28	0	230686720	67	4368
2026-01-04 07:32:51.11	24.70	34.23	-50.9	-52.3	14.5	0.00e+00	0	28	0	233832448	67	4380
2026-01-04 07:32:52.11	24.31	34.19	-50.9	-52.3	14.5	0.00e+00	0	29	0	236978176	67	4342
2026-01-04 07:32:53.12	23.93	34.15	-50.7	-52.0	14.6	0.00e+00	0	29	0	240123904	67	4232
2026-01-04 07:32:54.13	23.54	34.11	-50.5	-51.8	14.7	0.00e+00	0	29	0	243269632	67	4124
2026-01-04 07:32:55.14	23.16	34.07	-50.5	-51.8	14.7	0.00e+00	0	29	0	246415360	67	4100
2026-01-04 07:32:56.15	22.78	34.03	-50.4	-51.7	14.7	0.00e+00	0	28	0	249561088	67	4090
2026-01-04 07:32:57.16	22.39	33.99	-50.1	-51.4	14.8	0.00e+00	0	29	0	252706816	66	4163
2026-01-04 07:32:58.16	22.02	33.94	-50.0	-51.3	14.8	0.00e+00	0	28	0	255852544	66	4106
2026-01-04 07:32:59.17	21.64	33.90	-50.2	-51.4	14.7	0.00e+00	0	29	0	258998272	66	4179
2026-01-04 07:33:00.18	21.26	33.85	-50.1	-51.4	14.7	0.00e+00	0	29	0	262144000	66	4165
2026-01-04 07:33:01.19	20.88	33.80	-50.3	-51.6	14.6	0.00e+00	0	28	0	265289728	66	4261
2026-01-04 07:33:02.19	20.51	33.75	-50.2	-51.5	14.7	0.00e+00	0	28	0	268435456	66	4226
2026-01-04 07:33:03.20	20.13	33.70	-50.3	-51.6	14.6	0.00e+00	0	29	0	271581184	66	4273
2026-01-04 07:33:04.21	19.76	33.64	-50.3	-51.6	14.7	0.00e+00	0	28	0	274726912	66	4279
2026-01-04 07:33:05.22	19.39	33.59	-50.3	-51.5	14.7	0.00e+00	0	28	0	277872640	66	4231
2026-01-04 07:33:06.22	19.02	33.54	-50.2	-51.5	14.7	0.00e+00	0	28	0	281018368	66	4215
2026-01-04 07:33:07.23	18.65	33.48	-50.2	-51.5	14.7	0.00e+00	0	28	0	284164096	66	4214
2026-01-04 07:33:08.24	18.28	33.42	-50.4	-51.7	14.6	0.00e+00	0	29	0	287309824	66	4294
2026-01-04 07:33:09.25	17.91	33.36	-50.5	-51.8	14.6	0.00e+00	0	29	0	290455552	66	4360
2026-01-04 07:33:10.26	17.54	33.30	-50.4	-51.6	14.6	0.00e+00	0	28	0	294649856	66	4289
2026-01-04 07:33:11.27	17.18	33.24	-50.1	-51.4	14.7	0.00e+00	0	29	0	296747008	66	4156
2026-01-04 07:33:12.27	16.82	33.18	-50.2	-51.4	14.7	0.00e+00	0	29	0	299892736	66	4182
2026-01-04 07:33:13.28	16.46	33.11	-50.2	-51.5	14.7	0.00e+00	0	29	0	303038464	66	4203
2026-01-04 07:33:14.29	16.10	33.05	-50.3	-51.5	14.7	0.00e+00	0	28	0	306184192	66	4237
2026-01-04 07:33:15.30	15.74	32.98	-50.2	-51.4	14.7	0.00e+00	0	29	0	309329920	66	4178
2026-01-04 07:33:16.30	15.38	32.92	-50.1	-51.3	14.8	0.00e+00	0	29	0	312475648	66	4114
2026-01-04 07:33:17.31	15.03	32.85	-50.1	-51.3	14.7	0.00e+00	0	28	0	316669952	66	4138
2026-01-04 07:33:18.32	14.67	32.78	-50.1	-51.3	14.8	0.00e+00	0	29	0	319815680	66	4138
2026-01-04 07:33:19.33	14.32	32.71	-50.1	-51.3	14.8	0.00e+00	0	29	0	321912832	66	4126
2026-01-04 07:33:20.34	13.97	32.63	-50.0	-51.2	14.8	0.00e+00	0	29	0	325058560	66	4083
2026-01-04 07:33:21.35	13.62	32.56	-49.8	-51.0	14.9	0.00e+00	0	29	0	328204288	66	4000
2026-01-04 07:33:22.36	13.27	32.49	-49.9	-51.1	14.9	0.00e+00	0	29	0	332398592	66	4014
2026-01-04 07:33:23.37	12.92	32.41	-49.9	-51.2	14.8	0.00e+00	0	29	0	335544320	66	4052
2026-01-04 07:33:24.38	12.58	32.34	-49.9	-51.2	14.8	0.00e+00	0	29	0	338690048	66	4060
2026-01-04 07:33:25.38	12.24	32.26	-50.0	-51.2	14.8	0.00e+00	0	28	0	341835776	66	4069
2026-01-04 07:33:26.39	11.90	32.18	-50.0	-51.2	14.8	0.00e+00	0	29	0	343932928	66	4088
2026-01-04 07:33:27.40	11.56	32.10	-49.9	-51.1	14.8	0.00e+00	0	28	0	347078656	66	4029
2026-01-04 07:33:28.41	11.22	32.03	-49.5	-50.7	14.9	0.00e+00	0	29	0	351272960	65	4064
2026-01-04 07:33:29.42	10.88	31.94	-49.5	-50.7	14.9	0.00e+00	0	29	0	354418688	65	4075
2026-01-04 07:33:30.43	10.54	31.86	-49.7	-50.9	14.8	0.00e+00	0	29	0	357564416	65	4158
2026-01-04 07:33:31.44	10.21	31.78	-49.9	-51.2	14.7	0.00e+00	0	28	0	360710144	65	4313
2026-01-04 07:33:32.44	9.88	31.70	-50.1	-51.3	14.7	0.00e+00	0	29	0	363855872	65	4388
2026-01-04 07:33:33.45	9.55	31.61	-50.1	-51.3	14.6	0.00e+00	0	28	0	367001600	65	4378
2026-01-04 07:33:34.46	9.22	31.53	-50.1	-51.3	14.6	0.00e+00	0	29	0	370147328	65	4382
2026-01-04 07:33:35.47	8.90	31.44	-49.9	-51.1	14.7	0.00e+00	0	29	0	373293056	65	4269
2026-01-04 07:33:36.47	8.58	31.36	-49.6	-50.8	14.8	0.00e+00	0	29	0	376438784	65	4128
2026-01-04 07:33:37.49	8.25	31.27	-49.4	-50.6	14.9	0.00e+00	0	29	0	379584512	65	4043
2026-01-04 07:33:38.50	7.93	31.18	-49.4	-50.6	14.9	0.00e+00	0	28	0	382730240	65	4014
2026-01-04 07:33:39.51	7.61	31.09	-49.7	-51.0	14.8	0.00e+00	0	29	0	385875968	65	4199
2026-01-04 07:33:40.51	7.29	31.00	-50.1	-51.3	14.7	0.00e+00	0	29	0	389021696	65	4390
2026-01-04 07:33:41.52	6.98	30.91	-50.2	-51.5	14.6	0.00e+00	0	29	0	392167424	65	4448
2026-01-04 07:33:42.54	6.66	30.82	-49.9	-51.2	14.7	0.00e+00	0	29	0	395313152	65	4319
2026-01-04 07:33:43.54	6.35	30.73	-49.7	-51.0	14.8	0.00e+00	0	29	0	398458880	65	4201
2026-01-04 07:33:44.55	6.04	30.64	-49.6	-50.8	14.8	0.00e+00	0	29	0	401604608	65	4111
2026-01-04 07:33:45.56	5.73	30.55	-49.3	-50.5	14.9	0.00e+00	0	29	0	404750336	65	3978
2026-01-04 07:33:46.57	5.42	30.45	-49.3	-50.4	14.9	0.00e+00	0	29	0	407896064	65	3943
2026-01-04 07:33:47.58	5.12	30.36	-49.4	-50.6	14.9	0.00e+00	0	29	0	411041792	65	4031
2026-01-04 07:33:48.59	4.82	30.26	-49.7	-50.9	14.8	0.00e+00	0	29	0	414187520	65	4180
2026-01-04 07:33:49.60	4.51	30.17	-50.0	-51.3	14.7	0.00e+00	0	29	0	417333248	65	4371
2026-01-04 07:33:50.60	4.22	30.07	-50.2	-51.5	14.6	0.00e+00	0	29	0	420478976	65	4483
2026-01-04 07:33:51.61	3.92	29.98	-50.1	-51.4	14.6	0.00e+00	0	28	0	423624704	65	4416
2026-01-04 07:33:52.63	3.62	29.88	-50.1	-51.3	14.6	0.00e+00	0	29	0	426770432	65	4386
2026-01-04 07:33:53.63	3.33	29.78	-49.7	-50.9	14.8	0.00e+00	0	29	0	429916160	65	4190
2026-01-04 07:33:54.64	3.04	29.68	-49.5	-50.7	14.9	0.00e+00	0	29	0	433061888	65	4058
2026-01-04 07:33:55.65	2.75	29.59	-49.3	-50.4	15.0	0.00e+00	0	28	0	436207616	65	3957
2026-01-04 07:33:56.66	2.46	29.49	-49.3	-50.4	15.0	0.00e+00	0	29	0	439353344	65	3952
2026-01-04 07:33:57.67	2.17	29.39	-49.5	-50.7	14.9	0.00e+00	0	29	0	442499072	65	4093
2026-01-04 07:33:58.68	1.88	29.29	-49.6	-50.9	14.8	0.00e+00	0	28	0	445644800	65	4150
2026-01-04 07:33:59.69	1.60	29.19	-49.7	-51.0	14.8	0.00e+00	0	29	0	448790528	65	4195
2026-01-04 07:34:00.69	1.32	29.09	-49.7	-51.0	14.8	0.00e+00	0	29	0	451936256	65	4201
2026-01-04 07:34:01.70	1.04	28.99	-49.7	-50.9	14.8	0.00e+00	0	29	0	455081984	65	4170
2026-01-04 07:34:02.71	0.76	28.88	-49.7	-50.9	14.8	0.00e+00	0	28	0	458227712	65	4181
2026-01-04 07:34:03.72	0.49	28.78	-49.7	-51.0	14.8	0.00e+00	0	29	0	461373440	65	4207
2026-01-04 07:34:04.73	0.21	28.68	-49.6	-50.8	14.8	0.00e+00	0	29	0	464519168	65	4135
2026-01-04 07:34:05.74	359.94	28.58	-49.6	-50.8	14.8	0.00e+00	0	29	0	467664896	65	4127
2026-01-04 07:34:06.74	359.67	28.48	-49.7	-50.9	14.8	0.00e+00	0	28	0	470810624	65	4156
2026-01-04 07:34:07.75	359.40	28.37	-49.6	-50.8	14.8	0.00e+00	0	29	0	473956352	65	4145
2026-01-04 07:34:08.76	359.13	28.27	-49.5	-50.7	14.9	0.00e+00	0	29	0	477102080	65	4075
2026-01-04 07:34:09.77	358.87	28.16	-49.4	-50.7	14.9	0.00e+00	0	29	0	480247808	65	4053
2026-01-04 07:34:10.78	358.60	28.06	-49.3	-50.5	14.9	0.00e+00	0	29	0	483393536	65	4000
2026-01-04 07:34:11.79	358.34	27.96	-49.1	-50.2	14.9	0.00e+00	0	29	0	486539264	64	4094
2026-01-04 07:34:12.80	358.08	27.85	-49.0	-50.1	15.0	0.00e+00	0	29	0	489684992	64	4025
2026-01-04 07:34:13.81	357.82	27.75	-48.9	-50.1	15.0	0.00e+00	0	28	0	492830720	64	4005
2026-01-04 07:34:14.81	357.56	27.64	-49.0	-50.2	14.9	0.00e+00	0	29	0	495976448	64	4066
2026-01-04 07:34:15.82	357.31	27.54	-49.2	-50.4	14.9	0.00e+00	0	28	0	499122176	64	4162
2026-01-04 07:34:16.83	357.05	27.43	-49.4	-50.5	14.8	0.00e+00	0	29	0	502267904	64	4241
2026-01-04 07:34:17.84	356.80	27.32	-49.4	-50.6	14.8	0.00e+00	0	29	0	505413632	64	4290
2026-01-04 07:34:18.85	356.55	27.22	-49.3	-50.5	14.8	0.00e+00	0	29	0	508559360	64	4237
2026-01-04 07:34:19.86	356.30	27.11	-49.3	-50.5	14.8	0.00e+00	0	28	0	511705088	64	4242
2026-01-04 07:34:20.87	356.06	27.00	-49.2	-50.3	14.9	0.00e+00	0	28	0	514850816	64	4142
2026-01-04 07:34:21.88	355.81	26.90	-49.0	-50.2	14.9	0.00e+00	0	28	0	517996544	64	4067
2026-01-04 07:34:22.89	355.57	26.79	-48.9	-50.0	15.0	0.00e+00	0	29	0	521142272	64	3997
2026-01-04 07:34:23.90	355.32	26.68	-48.9	-50.1	15.0	0.00e+00	0	29	0	524288000	64	4024
2026-01-04 07:34:24.90	355.09	26.58	-49.0	-50.1	14.9	0.00e+00	0	28	0	527433728	64	4032
2026-01-04 07:34:25.91	354.85	26.47	-49.0	-50.2	14.9	0.00e+00	0	28	0	530579456	64	4079
2026-01-04 07:34:26.92	354.61	26.36	-49.2	-50.4	14.9	0.00e+00	0	29	0	533725184	64	4148
2026-01-04 07:34:27.93	354.37	26.25	-49.2	-50.4	14.9	0.00e+00	0	29	0	536870912	64	4178
2026-01-04 07:34:28.94	354.14	26.15	-49.2	-50.4	14.9	0.00e+00	0	28	0	540016640	64	4151
2026-01-04 07:34:29.94	353.91	26.04	-49.1	-50.3	14.9	0.00e+00	0	29	0	543162368	64	4115
2026-01-04 07:34:30.95	353.68	25.93	-49.2	-50.4	14.9	0.00e+00	0	29	0	546308096	64	4163
2026-01-04 07:34:31.96	353.45	25.82	-49.3	-50.5	14.8	0.00e+00	0	28	0	549453824	64	4201
2026-01-04 07:34:32.96	353.22	25.72	-49.1	-50.3	14.9	0.00e+00	0	28	0	552599552	64	4112
2026-01-04 07:34:33.97	353.00	25.61	-49.1	-50.3	14.9	0.00e+00	0	29	0	555745280	64	4107
2026-01-04 07:34:34.98	352.77	25.50	-49.0	-50.2	14.9	0.00e+00	0	29	0	558891008	64	4075
2026-01-04 07:34:35.99	352.55	25.39	-49.1	-50.2	14.9	0.00e+00	0	28	0	562036736	64	4093
2026-01-04 07:34:37.00	352.33	25.28	-48.9	-50.0	15.0	0.00e+00	0	28	0	565182464	64	4004
2026-01-04 07:34:38.01	352.11	25.18	-48.7	-49.9	15.0	0.00e+00	0	29	0	568328192	64	3924
2026-01-04 07:34:39.01	351.89	25.07	-48.8	-49.9	15.0	0.00e+00	0	29	0	571473920	64	3950
2026-01-04 07:34:40.02	351.67	24.96	-48.9	-50.1	15.0	0.00e+00	0	29	0	574619648	64	4007
2026-01-04 07:34:41.04	351.46	24.85	-48.9	-50.0	15.0	0.00e+00	0	28	0	577765376	64	3985
2026-01-04 07:34:42.05	351.24	24.74	-48.9	-50.0	15.0	0.00e+00	0	29	0	580911104	64	3987
2026-01-04 07:34:43.05	351.03	24.64	-48.9	-50.1	14.9	0.00e+00	0	28	0	584056832	64	4014
2026-01-04 07:34:44.06	350.82	24.53	-48.8	-49.9	15.0	0.00e+00	0	29	0	587202560	64	3954
2026-01-04 07:34:45.07	350.61	24.42	-48.8	-49.9	15.0	0.00e+00	0	29	0	590348288	64	3944
2026-01-04 07:34:46.08	350.40	24.31	-48.7	-49.8	14.9	0.00e+00	0	29	0	593494016	63	4123
2026-01-04 07:34:47.09	350.20	24.20	-48.5	-49.6	15.0	0.00e+00	0	28	0	596639744	63	4040
2026-01-04 07:34:48.10	349.99	24.09	-48.5	-49.6	15.0	0.00e+00	0	29	0	599785472	63	4038
2026-01-04 07:34:49.10	349.79	23.99	-48.5	-49.6	15.0	0.00e+00	0	29	0	602931200	63	4017
2026-01-04 07:34:50.11	349.59	23.88	-48.3	-49.4	15.0	0.00e+00	0	28	0	606076928	63	3954
2026-01-04 07:34:51.12	349.39	23.77	-48.1	-49.2	15.0	0.00e+00	0	28	0	609222656	62	4095
2026-01-04 07:34:52.13	349.19	23.66	-48.3	-49.4	14.9	0.00e+00	0	28	0	612368384	62	4176
2026-01-04 07:34:53.14	348.99	23.56	-48.4	-49.5	14.9	0.00e+00	0	29	0	615514112	62	4239
2026-01-04 07:34:54.14	348.79	23.45	-48.7	-49.8	14.9	0.00e+00	0	28	0	618659840	62	4364
2026-01-04 07:34:55.15	348.60	23.34	-48.7	-49.9	14.8	0.00e+00	0	29	0	621805568	62	4398
2026-01-04 07:34:56.16	348.41	23.23	-48.9	-50.1	14.8	0.00e+00	0	28	0	624951296	63	4273
2026-01-04 07:34:57.16	348.21	23.13	-49.0	-50.2	14.8	0.00e+00	0	28	0	628097024	63	4317
2026-01-04 07:34:58.17	348.02	23.02	-49.1	-50.3	14.8	0.00e+00	0	29	0	631242752	63	4351
2026-01-04 07:34:59.18	347.83	22.91	-49.2	-50.3	14.7	0.00e+00	0	29	0	634388480	63	4386
2026-01-04 07:35:00.19	347.64	22.80	-49.1	-50.3	14.7	0.00e+00	0	29	0	637534208	63	4382
2026-01-04 07:35:01.20	347.46	22.70	-49.1	-50.3	14.8	0.00e+00	0	28	0	640679936	63	4345
2026-01-04 07:35:02.20	347.27	22.59	-49.2	-50.4	14.8	0.00e+00	0	29	0	643825664	63	4405
2026-01-04 07:35:03.21	347.09	22.48	-49.1	-50.3	14.8	0.00e+00	0	29	0	646971392	63	4380
2026-01-04 07:35:04.21	346.91	22.38	-49.0	-50.2	14.8	0.00e+00	0	28	0	650117120	63	4333
2026-01-04 07:35:05.22	346.72	22.27	-49.0	-50.2	14.8	0.00e+00	0	29	0	653262848	63	4331
2026-01-04 07:35:06.23	346.54	22.17	-49.1	-50.3	14.8	0.00e+00	0	28	0	656408576	63	4353
2026-01-04 07:35:07.24	346.36	22.06	-49.1	-50.3	14.8	0.00e+00	0	28	0	659554304	63	4389
2026-01-04 07:35:08.25	346.18	21.95	-49.2	-50.4	14.8	0.00e+00	0	28	0	662700032	63	4408
2026-01-04 07:35:09.25	346.01	21.85	-49.2	-50.4	14.8	0.00e+00	0	29	0	665845760	63	4435
2026-01-04 07:35:10.27	345.83	21.74	-49.0	-50.2	14.8	0.00e+00	0	28	0	668991488	63	4330
2026-01-04 07:35:11.27	345.66	21.64	-49.0	-50.1	14.8	0.00e+00	0	29	0	672137216	63	4288
2026-01-04 07:35:12.28	345.48	21.53	-48.9	-50.1	14.8	0.00e+00	0	29	0	675282944	63	4262
2026-01-04 07:35:13.29	345.31	21.43	-48.9	-50.1	14.9	0.00e+00	0	29	0	678428672	63	4255
2026-01-04 07:35:14.30	345.14	21.32	-48.8	-50.0	14.9	0.00e+00	0	28	0	681574400	63	4207
2026-01-04 07:35:15.31	344.97	21.22	-48.9	-50.1	14.9	0.00e+00	0	29	0	684720128	63	4255
2026-01-04 07:35:16.31	344.80	21.11	-49.0	-50.2	14.8	0.00e+00	0	28	0	687865856	63	4321
2026-01-04 07:35:17.32	344.64	21.01	-49.1	-50.3	14.8	0.00e+00	0	29	0	691011584	63	4359
2026-01-04 07:35:18.33	344.47	20.90	-49.2	-50.4	14.8	0.00e+00	0	29	0	694157312	63	4417
2026-01-04 07:35:19.33	344.31	20.80	-49.3	-50.5	14.7	0.00e+00	0	29	0	697303040	63	4482
2026-01-04 07:35:20.34	344.14	20.69	-49.4	-50.6	14.7	0.00e+00	0	29	0	700448768	63	4512
2026-01-04 07:35:21.35	343.98	20.59	-49.4	-50.7	14.8	0.00e+00	0	29	0	703594496	64	4301
2026-01-04 07:35:22.36	343.82	20.49	-49.3	-50.6	14.8	0.00e+00	0	29	0	706740224	64	4246
2026-01-04 07:35:23.37	343.66	20.38	-49.3	-50.6	14.8	0.00e+00	0	29	0	709885952	64	4245
2026-01-04 07:35:24.38	343.50	20.28	-49.4	-50.6	14.8	0.00e+00	0	29	0	713031680	64	4269
2026-01-04 07:35:25.39	343.34	20.18	-49.3	-50.6	14.7	0.00e+00	0	29	0	716177408	64	4253
2026-01-04 07:35:26.40	343.18	20.07	-49.4	-50.6	14.7	0.00e+00	0	29	0	719323136	64	4290
2026-01-04 07:35:27.40	343.02	19.97	-49.2	-50.5	14.8	0.00e+00	0	29	0	722468864	64	4200
2026-01-04 07:35:28.41	342.87	19.87	-49.2	-50.4	14.8	0.00e+00	0	28	0	725614592	64	4192
2026-01-04 07:35:29.42	342.71	19.77	-49.0	-50.2	14.9	0.00e+00	0	29	0	728760320	64	4052
2026-01-04 07:35:30.42	342.56	19.66	-48.9	-50.1	14.9	0.00e+00	0	28	0	731906048	64	4032
2026-01-04 07:35:31.43	342.41	19.56	-49.0	-50.2	14.9	0.00e+00	0	29	0	735051776	64	4052
2026-01-04 07:35:32.44	342.26	19.46	-48.9	-50.0	14.9	0.00e+00	0	29	0	738197504	64	3993
2026-01-04 07:35:33.45	342.11	19.36	-48.9	-50.1	14.9	0.00e+00	0	29	0	741343232	64	4029
2026-01-04 07:35:34.46	341.96	19.26	-48.9	-50.1	14.9	0.00e+00	0	29	0	744488960	64	4036
2026-01-04 07:35:35.47	341.81	19.16	-49.0	-50.2	14.9	0.00e+00	0	29	0	747634688	64	4059
2026-01-04 07:35:36.48	341.66	19.05	-49.1	-50.2	14.9	0.00e+00	0	29	0	750780416	64	4093
2026-01-04 07:35:37.48	341.52	18.95	-49.2	-50.4	14.8	0.00e+00	0	29	0	753926144	64	4166
2026-01-04 07:35:38.49	341.37	18.85	-49.2	-50.4	14.8	0.00e+00	0	29	0	757071872	64	4186
2026-01-04 07:35:39.50	341.23	18.75	-49.2	-50.4	14.8	0.00e+00	0	29	0	760217600	64	4176
2026-01-04 07:35:40.51	341.09	18.65	-49.3	-50.5	14.7	0.00e+00	0	29	0	763363328	64	4225
2026-01-04 07:35:41.51	340.95	18.55	-49.3	-50.5	14.7	0.00e+00	0	29	0	766509056	64	4227
2026-01-04 07:35:42.52	340.80	18.45	-49.2	-50.4	14.8	0.00e+00	0	29	0	769654784	64	4177
2026-01-04 07:35:43.53	340.66	18.35	-49.2	-50.4	14.8	0.00e+00	0	28	0	772800512	64	4180
2026-01-04 07:35:44.54	340.52	18.25	-49.2	-50.4	14.8	0.00e+00	0	29	0	775946240	64	4182
2026-01-04 07:35:45.55	340.39	18.16	-49.2	-50.4	14.8	0.00e+00	0	29	0	779091968	64	4163
2026-01-04 07:35:46.56	340.25	18.06	-49.2	-50.4	14.8	0.00e+00	0	29	0	782237696	64	4158
2026-01-04 07:35:47.57	340.11	17.96	-49.2	-50.4	14.8	0.00e+00	0	29	0	785383424	64	4184
2026-01-04 07:35:48.58	339.98	17.86	-49.2	-50.4	14.8	0.00e+00	0	29	0	788529152	64	4165
2026-01-04 07:35:49.59	339.84	17.76	-49.2	-50.4	14.8	0.00e+00	0	29	0	791674880	64	4185
2026-01-04 07:35:50.59	339.71	17.66	-49.2	-50.4	14.8	0.00e+00	0	29	0	794820608	64	4184
2026-01-04 07:35:51.60	339.57	17.57	-49.4	-50.6	14.7	0.00e+00	0	29	0	797966336	64	4263
2026-01-04 07:35:52.61	339.44	17.47	-49.4	-50.7	14.7	0.00e+00	0	29	0	801112064	64	4300
2026-01-04 07:35:53.62	339.31	17.37	-49.6	-50.8	14.7	0.00e+00	0	28	0	804257792	64	4371
2026-01-04 07:35:54.63	339.18	17.27	-49.7	-51.0	14.6	0.00e+00	0	29	0	807403520	64	4445
2026-01-04 07:35:55.63	339.05	17.18	-49.8	-51.1	14.6	0.00e+00	0	29	0	810549248	64	4507
2026-01-04 07:35:56.64	338.92	17.08	-49.9	-51.2	14.5	0.00e+00	0	29	0	813694976	64	4571
2026-01-04 07:35:57.65	338.79	16.98	-49.9	-51.2	14.6	0.00e+00	0	29	0	816840704	65	4325
2026-01-04 07:35:58.65	338.67	16.89	-49.9	-51.2	14.6	0.00e+00	0	29	0	819986432	65	4302
2026-01-04 07:35:59.67	338.54	16.79	-49.8	-51.1	14.6	0.00e+00	0	29	0	823132160	65	4279
2026-01-04 07:36:00.68	338.42	16.70	-49.9	-51.2	14.6	0.00e+00	0	28	0	826277888	65	4304
2026-01-04 07:36:01.68	338.29	16.60	-49.7	-51.0	14.7	0.00e+00	0	29	0	829423616	65	4200
2026-01-04 07:36:02.69	338.17	16.51	-49.6	-50.9	14.7	0.00e+00	0	29	0	832569344	65	4166
2026-01-04 07:36:03.70	338.05	16.41	-49.6	-50.9	14.7	0.00e+00	0	29	0	835715072	65	4171
2026-01-04 07:36:04.70	337.92	16.32	-49.7	-50.9	14.7	0.00e+00	0	28	0	838860800	65	4193
2026-01-04 07:36:05.71	337.80	16.22	-49.7	-50.9	14.7	0.00e+00	0	29	0	842006528	65	4189
2026-01-04 07:36:06.72	337.68	16.13	-49.7	-50.9	14.7	0.00e+00	0	29	0	845152256	65	4187
2026-01-04 07:36:07.73	337.56	16.03	-49.7	-51.0	14.7	0.00e+00	0	29	0	848297984	65	4210
2026-01-04 07:36:08.74	337.44	15.94	-49.8	-51.1	14.7	0.00e+00	0	29	0	851443712	65	4254
2026-01-04 07:36:09.74	337.33	15.85	-49.8	-51.1	14.6	0.00e+00	0	29	0	854589440	65	4278
2026-01-04 07:36:10.75	337.21	15.75	-49.9	-51.2	14.6	0.00e+00	0	29	0	857735168	65	4297
2026-01-04 07:36:11.75	337.09	15.66	-49.9	-51.2	14.6	0.00e+00	0	29	0	860880896	65	4325
2026-01-04 07:36:12.76	336.98	15.57	-50.0	-51.3	14.6	0.00e+00	0	29	0	864026624	65	4373
2026-01-04 07:36:13.77	336.86	15.48	-50.0	-51.4	14.6	7.60e-06	0	29	0	867172352	65	4401
2026-01-04 07:36:14.78	336.75	15.38	-50.1	-51.4	14.5	0.00e+00	0	29	0	870318080	65	4424
2026-01-04 07:36:15.79	336.63	15.29	-50.1	-51.4	14.5	0.00e+00	0	29	0	873463808	65	4426
2026-01-04 07:36:16.80	336.52	15.20	-50.1	-51.4	14.5	0.00e+00	0	29	0	876609536	65	4429
2026-01-04 07:36:17.81	336.41	15.11	-50.1	-51.4	14.5	0.00e+00	0	29	0	879755264	65	4407
2026-01-04 07:36:18.82	336.29	15.02	-50.1	-51.5	14.5	7.60e-06	0	29	0	882900992	65	4442
2026-01-04 07:36:19.83	336.18	14.92	-50.0	-51.3	14.5	0.00e+00	0	29	0	886046720	65	4385
2026-01-04 07:36:20.83	336.07	14.83	-50.0	-51.4	14.5	0.00e+00	0	29	0	889192448	65	4408
2026-01-04 07:36:21.84	335.96	14.74	-49.9	-51.2	14.6	0.00e+00	0	29	0	892338176	65	4337
2026-01-04 07:36:22.85	335.86	14.65	-49.9	-51.2	14.6	0.00e+00	0	29	0	895483904	65	4340
2026-01-04 07:36:23.86	335.75	14.56	-49.9	-51.2	14.6	0.00e+00	0	29	0	898629632	65	4325
2026-01-04 07:36:24.87	335.64	14.47	-49.9	-51.2	14.6	0.00e+00	0	29	0	901775360	65	4303
2026-01-04 07:36:25.88	335.53	14.38	-49.9	-51.2	14.6	0.00e+00	0	28	0	904921088	65	4327
2026-01-04 07:36:26.88	335.43	14.29	-49.9	-51.2	14.6	0.00e+00	0	29	0	908066816	65	4306
2026-01-04 07:36:27.89	335.32	14.20	-49.8	-51.1	14.6	0.00e+00	0	29	0	911212544	65	4251
2026-01-04 07:36:28.90	335.22	14.11	-49.8	-51.1	14.6	0.00e+00	0	29	0	914358272	65	4243
2026-01-04 07:36:29.90	335.11	14.03	-49.7	-51.0	14.6	0.00e+00	0	29	0	917504000	65	4232
2026-01-04 07:36:30.91	335.01	13.94	-49.8	-51.1	14.6	0.00e+00	0	29	0	920649728	65	4279
2026-01-04 07:36:31.92	334.91	13.85	-49.8	-51.1	14.6	0.00e+00	0	29	0	923795456	65	4263
2026-01-04 07:36:32.93	334.80	13.76	-49.8	-51.1	14.6	0.00e+00	0	28	0	926941184	65	4288
2026-01-04 07:36:33.93	334.70	13.67	-49.8	-51.2	14.6	0.00e+00	0	28	0	930086912	65	4297
2026-01-04 07:36:34.94	334.60	13.58	-49.9	-51.2	14.6	0.00e+00	0	29	0	933232640	65	4302
2026-01-04 07:36:35.95	334.50	13.50	-50.0	-51.3	14.5	0.00e+00	0	29	0	936378368	65	4364
2026-01-04 07:36:36.96	334.40	13.41	-50.0	-51.4	14.5	0.00e+00	0	29	0	940572672	65	4404
2026-01-04 07:36:37.97	334.30	13.32	-50.1	-51.5	14.5	0.00e+00	0	29	0	942669824	65	4445
2026-01-04 07:36:38.98	334.20	13.24	-50.1	-51.5	14.5	0.00e+00	0	29	0	945815552	65	4445
2026-01-04 07:36:39.98	334.11	13.15	-50.2	-51.6	14.4	0.00e+00	0	29	0	948961280	65	4496
2026-01-04 07:36:40.99	334.01	13.06	-50.1	-51.5	14.4	0.00e+00	0	29	0	952107008	65	4468
2026-01-04 07:36:42.00	333.91	12.98	-50.2	-51.6	14.4	0.00e+00	0	29	0	955252736	65	4511
2026-01-04 07:36:43.01	333.81	12.89	-50.2	-51.6	14.4	0.00e+00	0	29	0	959447040	65	4518
2026-01-04 07:36:44.02	333.72	12.80	-50.1	-51.5	14.4	0.00e+00	0	29	0	962592768	65	4457
2026-01-04 07:36:45.03	333.62	12.72	-50.1	-51.4	14.4	0.00e+00	0	28	0	965738496	65	4429
2026-01-04 07:36:46.04	333.53	12.63	-50.1	-51.4	14.5	0.00e+00	0	29	0	967835648	65	4434
2026-01-04 07:36:47.04	333.44	12.55	-49.9	-51.3	14.5	0.00e+00	0	29	0	970981376	65	4352
2026-01-04 07:36:48.05	333.34	12.46	-49.9	-51.2	14.5	0.00e+00	0	29	0	974127104	65	4324
2026-01-04 07:36:49.05	333.25	12.38	-49.9	-51.2	14.5	0.00e+00	0	29	0	977272832	65	4320
2026-01-04 07:36:50.06	333.16	12.29	-49.9	-51.2	14.5	0.00e+00	0	29	0	981467136	65	4326
2026-01-04 07:36:51.06	333.07	12.21	-50.0	-51.3	14.5	0.00e+00	0	29	0	984612864	65	4363
2026-01-04 07:36:52.07	332.98	12.13	-49.9	-51.2	14.5	0.00e+00	0	29	0	987758592	65	4328
2026-01-04 07:36:53.08	332.88	12.04	-49.8	-51.2	14.6	0.00e+00	0	29	0	989855744	65	4293
2026-01-04 07:36:54.09	332.79	11.96	-49.8	-51.1	14.6	0.00e+00	0	29	0	993001472	65	4284
2026-01-04 07:36:55.10	332.70	11.88	-49.9	-51.2	14.6	0.00e+00	0	28	0	996147200	65	4306
2026-01-04 07:36:56.11	332.62	11.79	-49.9	-51.2	14.5	0.00e+00	0	29	0	1000341504	65	4320
2026-01-04 07:36:57.12	332.53	11.71	-50.0	-51.3	14.5	0.00e+00	0	28	0	1003487232	65	4359
2026-01-04 07:36:58.13	332.44	11.63	-50.1	-51.5	14.5	0.00e+00	0	29	0	1006632960	65	4453
2026-01-04 07:36:59.13	332.35	11.54	-50.1	-51.4	14.5	8.30e-06	0	29	0	1009778688	65	4427
2026-01-04 07:37:00.14	332.26	11.46	-50.0	-51.4	14.5	0.00e+00	0	29	0	1012924416	65	4406
2026-01-04 07:37:01.15	332.18	11.38	-50.1	-51.5	14.5	0.00e+00	0	29	0	1015021568	65	4461
2026-01-04 07:37:02.16	332.09	11.30	-50.2	-51.5	14.4	0.00e+00	0	29	0	1019215872	65	4492
2026-01-04 07:37:03.17	332.01	11.22	-50.2	-51.6	14.4	0.00e+00	0	29	0	1022361600	65	4499
2026-01-04 07:37:04.18	331.92	11.13	-50.2	-51.6	14.4	0.00e+00	0	29	0	1025507328	65	4526
2026-01-04 07:37:05.19	331.84	11.05	-50.2	-51.6	14.4	0.00e+00	0	29	0	1028653056	65	4529
2026-01-04 07:37:06.20	331.75	10.97	-50.3	-51.7	14.4	0.00e+00	0	29	0	1031798784	65	4570
2026-01-04 07:37:07.21	331.67	10.89	-50.4	-51.8	14.3	0.00e+00	0	29	0	1034944512	65	4635
2026-01-04 07:37:08.22	331.59	10.81	-50.5	-51.9	14.4	0.00e+00	0	29	0	1038090240	66	4414
2026-01-04 07:37:09.23	331.50	10.73	-50.5	-51.9	14.4	0.00e+00	0	29	0	1041235968	66	4420
2026-01-04 07:37:10.24	331.42	10.65	-50.5	-51.9	14.3	0.00e+00	0	29	0	1044381696	66	4441
2026-01-04 07:37:11.25	331.34	10.57	-50.5	-52.0	14.3	0.00e+00	0	29	0	1047527424	66	4442
2026-01-04 07:37:12.26	331.26	10.49	-50.6	-52.1	14.3	0.00e+00	0	29	0	1050673152	66	4499
2026-01-04 07:37:13.27	331.18	10.41	-50.6	-52.0	14.3	0.00e+00	0	29	0	1053818880	66	4459
2026-01-04 07:37:14.27	331.10	10.33	-50.5	-51.9	14.3	0.00e+00	0	29	0	1056964608	66	4433
2026-01-04 07:37:15.28	331.02	10.25	-50.5	-52.0	14.3	0.00e+00	0	29	0	1060110336	66	4458
2026-01-04 07:37:16.29	330.94	10.17	-50.6	-52.0	14.3	0.00e+00	0	29	0	1063256064	66	4462
2026-01-04 07:37:17.30	330.86	10.09	-50.6	-52.0	14.3	0.00e+00	0	29	0	1066401792	66	4485
2026-01-04 07:37:18.31	330.78	10.01	-50.6	-52.1	14.3	0.00e+00	0	29	0	1069547520	66	4511
2026-01-04 07:37:19.31	330.70	9.93	-50.8	-52.2	14.2	0.00e+00	0	29	0	1072693248	66	4594
2026-01-04 07:37:20.32	330.62	9.86	-50.6	-52.1	14.3	0.00e+00	0	29	0	1075838976	66	4510
2026-01-04 07:37:21.33	330.55	9.78	-50.6	-52.0	14.3	0.00e+00	0	29	0	1078984704	66	4468
2026-01-04 07:37:22.33	330.47	9.70	-50.7	-52.1	14.2	0.00e+00	0	29	0	1082130432	66	4528
2026-01-04 07:37:23.34	330.39	9.62	-50.6	-52.0	14.3	0.00e+00	0	29	0	1085276160	66	4459
2026-01-04 07:37:24.35	330.32	9.55	-50.6	-52.0	14.3	0.00e+00	0	29	0	1088421888	66	4492
2026-01-04 07:37:25.35	330.24	9.47	-50.5	-51.9	14.3	0.00e+00	0	29	0	1091567616	66	4434
2026-01-04 07:37:26.36	330.17	9.39	-50.5	-52.0	14.3	0.00e+00	0	29	0	1094713344	66	4450
2026-01-04 07:37:27.36	330.10	9.31	-50.6	-52.1	14.3	0.00e+00	0	29	0	1097859072	66	4503
2026-01-04 07:37:28.37	330.02	9.24	-50.6	-52.1	14.3	0.00e+00	0	29	0	1101004800	66	4494
2026-01-04 07:37:29.37	329.95	9.16	-50.6	-52.1	14.3	0.00e+00	0	29	0	1104150528	66	4498
2026-01-04 07:37:30.38	329.87	9.09	-50.6	-52.0	14.3	0.00e+00	0	29	0	1107296256	66	4472
2026-01-04 07:37:31.39	329.80	9.01	-50.7	-52.1	14.2	0.00e+00	0	29	0	1110441984	66	4540
2026-01-04 07:37:32.40	329.73	8.93	-50.8	-52.3	14.2	0.00e+00	0	29	0	1113587712	66	4619
2026-01-04 07:37:33.41	329.66	8.86	-50.7	-52.2	14.2	0.00e+00	0	29	0	1116733440	66	4580
2026-01-04 07:37:34.42	329.58	8.78	-50.8	-52.3	14.1	0.00e+00	0	29	0	1119879168	66	4644
2026-01-04 07:37:35.42	329.51	8.71	-50.8	-52.3	14.1	0.00e+00	0	29	0	1123024896	66	4628
2026-01-04 07:37:36.43	329.44	8.63	-50.9	-52.4	14.1	0.00e+00	0	29	0	1126170624	66	4682
2026-01-04 07:37:37.44	329.37	8.56	-50.9	-52.4	14.2	0.00e+00	0	29	0	1129316352	67	4430
2026-01-04 07:37:38.44	329.30	8.48	-50.9	-52.4	14.2	0.00e+00	0	29	0	1132462080	67	4411
2026-01-04 07:37:39.45	329.23	8.41	-51.0	-52.5	14.1	0.00e+00	0	29	0	1135607808	67	4457
2026-01-04 07:37:40.46	329.16	8.33	-50.9	-52.4	14.2	0.00e+00	0	29	0	1138753536	67	4434
2026-01-04 07:37:41.46	329.09	8.26	-50.9	-52.4	14.2	0.00e+00	0	29	0	1141899264	67	4427
2026-01-04 07:37:42.48	329.02	8.18	-50.9	-52.4	14.1	0.00e+00	0	29	0	1145044992	67	4441
2026-01-04 07:37:43.49	328.96	8.11	-50.9	-52.5	14.1	0.00e+00	0	29	0	1148190720	67	4451
2026-01-04 07:37:44.49	328.89	8.03	-51.0	-52.5	14.1	0.00e+00	0	29	0	1151336448	67	4487
2026-01-04 07:37:45.50	328.82	7.96	-51.0	-52.5	14.1	0.00e+00	0	29	0	1154482176	67	4470
2026-01-04 07:37:46.51	328.75	7.89	-51.0	-52.6	14.1	0.00e+00	0	29	0	1157627904	67	4502
2026-01-04 07:37:47.52	328.69	7.81	-51.2	-52.7	14.0	0.00e+00	0	29	0	1160773632	67	4579
2026-01-04 07:37:48.53	328.62	7.74	-51.0	-52.5	14.1	0.00e+00	0	29	0	1163919360	67	4486
2026-01-04 07:37:49.54	328.55	7.67	-51.1	-52.6	14.1	0.00e+00	0	29	0	1167065088	67	4522
2026-01-04 07:37:50.55	328.49	7.59	-51.0	-52.6	14.1	0.00e+00	0	29	0	1170210816	67	4513
2026-01-04 07:37:51.55	328.42	7.52	-51.0	-52.6	14.1	0.00e+00	0	29	0	1173356544	67	4500
2026-01-04 07:37:52.56	328.36	7.45	-51.0	-52.6	14.0	0.00e+00	0	29	0	1176502272	67	4522
2026-01-04 07:37:53.56	328.29	7.38	-51.2	-52.7	14.0	0.00e+00	0	29	0	1179648000	67	4595
2026-01-04 07:37:54.57	328.23	7.31	-51.1	-52.7	14.0	0.00e+00	0	29	0	1182793728	67	4558
2026-01-04 07:37:55.58	328.16	7.23	-51.2	-52.8	13.9	0.00e+00	0	29	0	1185939456	67	4624
2026-01-04 07:37:56.59	328.10	7.16	-51.1	-52.7	14.0	0.00e+00	0	29	0	1189085184	67	4576
2026-01-04 07:37:57.60	328.04	7.09	-51.2	-52.8	14.0	0.00e+00	0	29	0	1192230912	67	4614
2026-01-04 07:37:58.61	327.97	7.02	-51.3	-52.9	13.9	0.00e+00	0	29	0	1195376640	67	4667
2026-01-04 07:37:59.61	327.91	6.95	-51.3	-52.9	13.9	0.00e+00	0	29	0	1198522368	67	4669
2026-01-04 07:38:00.62	327.85	6.88	-51.4	-53.0	13.9	0.00e+00	0	29	0	1201668096	67	4743
2026-01-04 07:38:01.63	327.79	6.80	-51.6	-53.2	13.9	0.00e+00	0	29	0	1204813824	68	4589
2026-01-04 07:38:02.64	327.72	6.73	-51.6	-53.3	13.9	0.00e+00	0	29	0	1207959552	68	4614
2026-01-04 07:38:03.64	327.66	6.66	-51.7	-53.4	13.8	0.00e+00	0	29	0	1211105280	68	4661
2026-01-04 07:38:04.65	327.60	6.59	-51.8	-53.5	13.8	0.00e+00	0	28	0	1214251008	68	4716
2026-01-04 07:38:05.65	327.54	6.52	-51.8	-53.5	13.7	0.00e+00	0	29	0	1217396736	68	4741
2026-01-04 07:38:06.66	327.48	6.45	-51.9	-53.6	13.7	0.00e+00	0	29	0	1220542464	68	4778
2026-01-04 07:38:07.67	327.42	6.38	-52.0	-53.8	13.7	0.00e+00	0	29	0	1223688192	69	4604
2026-01-04 07:38:08.68	327.36	6.31	-51.9	-53.7	13.7	0.00e+00	0	29	0	1226833920	69	4568
2026-01-04 07:38:09.69	327.30	6.24	-52.1	-53.9	13.6	0.00e+00	0	29	0	1229979648	69	4656
2026-01-04 07:38:10.70	327.24	6.17	-52.1	-53.9	13.6	0.00e+00	0	29	0	1233125376	69	4662
2026-01-04 07:38:11.70	327.18	6.10	-52.1	-54.0	13.6	0.00e+00	0	29	0	1236271104	69	4710
2026-01-04 07:38:12.71	327.12	6.03	-52.1	-53.9	13.6	0.00e+00	0	29	0	1239416832	69	4652
2026-01-04 07:38:13.72	327.06	5.97	-52.1	-53.9	13.6	0.00e+00	0	29	0	1242562560	69	4697
2026-01-04 07:38:14.72	327.01	5.90	-52.0	-53.8	13.6	0.00e+00	0	29	0	1245708288	69	4637
2026-01-04 07:38:15.73	326.95	5.83	-52.1	-53.9	13.6	0.00e+00	0	29	0	1248854016	69	4657
2026-01-04 07:38:16.74	326.89	5.76	-52.1	-53.9	13.6	0.00e+00	0	29	0	1251999744	69	4657
2026-01-04 07:38:17.75	326.83	5.69	-52.1	-53.9	13.6	0.00e+00	0	29	0	1255145472	69	4667
2026-01-04 07:38:18.76	326.78	5.62	-52.2	-54.0	13.5	0.00e+00	0	29	0	1258291200	69	4729
2026-01-04 07:38:19.77	326.72	5.55	-52.2	-54.0	13.5	0.00e+00	0	29	0	1261436928	69	4745
2026-01-04 07:38:20.78	326.66	5.49	-52.2	-54.1	13.5	0.00e+00	0	29	0	1264582656	69	4770
2026-01-04 07:38:21.78	326.61	5.42	-52.2	-54.0	13.5	0.00e+00	0	29	0	1267728384	69	4723
2026-01-04 07:38:22.79	326.55	5.35	-52.2	-54.1	13.5	0.00e+00	0	29	0	1270874112	69	4763
2026-01-04 07:38:23.80	326.50	5.28	-52.4	-54.4	13.3	0.00e+00	0	29	0	1274019840	69	4940
2026-01-04 07:38:24.81	326.44	5.21	-52.2	-54.0	13.6	0.00e+00	0	29	0	1277165568	70	4462
2026-01-04 07:38:25.82	326.38	5.15	-52.2	-54.0	13.6	0.00e+00	0	29	0	1280311296	70	4465
2026-01-04 07:38:26.83	326.33	5.08	-52.3	-54.2	13.5	0.00e+00	0	29	0	1283457024	70	4549
2026-01-04 07:38:27.84	326.27	5.01	-52.4	-54.3	13.4	0.00e+00	0	29	0	1286602752	70	4628
2026-01-04 07:38:28.85	326.22	4.95	-58.0	-65.6	5.7	3.12e-03	0	29	0	1289748480	81	9050
2026-01-04 07:38:29.85	326.17	4.88	-59.3	-73.0	3.8	1.49e+00	0	29	104	1289748480	83	18864
2026-01-04 07:38:30.86	326.11	4.81	-59.9	-73.7	3.8	1.49e+00	0	29	104	1289748480	84	19335
2026-01-04 07:38:31.87	326.06	4.75	-60.2	-74.0	3.8	1.49e+00	0	29	104	1289748480	85	18825
2026-01-04 07:38:32.88	326.01	4.68	-60.4	-74.2	3.8	1.49e+00	0	29	104	1289748480	85	19308
2026-01-04 07:38:33.89	325.95	4.61	-60.6	-74.5	3.8	1.49e+00	0	29	104	1289748480	86	18734
2026-01-04 07:38:34.90	325.90	4.55	-60.8	-74.6	3.8	1.49e+00	0	29	104	1289748480	86	19096
2026-01-04 07:38:35.91	325.85	4.48	-60.9	-74.8	3.8	1.49e+00	0	29	104	1289748480	86	19406
2026-01-04 07:38:36.91	325.80	4.42	-61.0	-74.8	3.8	1.49e+00	0	29	104	1289748480	87	18439
2026-01-04 07:38:37.92	325.74	4.35	-61.1	-74.9	3.8	1.49e+00	0	29	104	1289748480	87	18635
2026-01-04 07:38:38.93	325.69	4.28	-61.1	-74.9	3.8	1.49e+00	0	29	104	1289748480	87	18714
2026-01-04 07:38:39.94	325.64	4.22	-61.2	-75.0	3.8	1.49e+00	0	29	104	1289748480	87	18920
2026-01-04 07:38:40.95	325.59	4.15	-61.2	-75.1	3.8	1.49e+00	0	29	104	1289748480	87	19031
2026-01-04 07:38:41.96	325.54	4.09	-61.3	-75.1	3.8	1.49e+00	0	29	104	1289748480	87	19096
2026-01-04 07:38:42.97	325.49	4.02	-61.3	-75.2	3.8	1.49e+00	0	29	104	1289748480	87	19187
2026-01-04 07:38:43.97	325.44	3.96	-61.3	-75.2	3.8	1.49e+00	0	29	104	1289748480	87	19241
2026-01-04 07:38:44.97	325.39	3.89	-61.4	-75.2	3.8	1.49e+00	0	29	104	1289748480	87	19330
2026-01-04 07:38:45.98	325.34	3.83	-61.4	-75.2	3.8	1.49e+00	0	29	104	1289748480	87	19346
2026-01-04 07:38:46.99	325.29	3.76	-61.4	-75.3	3.8	1.49e+00	0	29	104	1289748480	87	19447
2026-01-04 07:38:48.00	325.24	3.70	-61.4	-75.3	3.8	1.49e+00	0	29	104	1289748480	87	19490
2026-01-04 07:38:49.01	325.19	3.64	-61.4	-75.3	3.8	1.49e+00	0	29	104	1289748480	87	19434
2026-01-04 07:38:50.01	325.14	3.57	-61.4	-75.3	3.8	1.49e+00	0	29	104	1289748480	87	19471
2026-01-04 07:38:51.02	325.09	3.51	-61.3	-75.2	3.8	1.49e+00	0	29	104	1289748480	87	19246
2026-01-04 07:38:52.04	325.04	3.44	-61.3	-75.2	3.8	1.49e+00	0	29	104	1289748480	87	19220
2026-01-04 07:38:53.05	324.99	3.38	-61.3	-75.2	3.8	1.49e+00	0	29	104	1289748480	87	19187
2026-01-04 07:38:54.05	324.95	3.32	-61.3	-75.1	3.8	1.49e+00	0	29	104	1289748480	87	19142
2026-01-04 07:38:55.06	324.90	3.25	-61.3	-75.1	3.8	1.49e+00	0	29	104	1289748480	87	19147
2026-01-04 07:38:56.07	324.85	3.19	-61.2	-75.1	3.8	1.49e+00	0	29	104	1289748480	87	19080
2026-01-04 07:38:57.08	324.80	3.13	-61.2	-75.1	3.8	1.49e+00	0	29	104	1289748480	87	19089
2026-01-04 07:38:58.09	324.76	3.06	-61.2	-75.1	3.8	1.49e+00	0	29	104	1289748480	87	18987
2026-01-04 07:38:59.10	324.71	3.00	-61.2	-75.1	3.8	1.49e+00	0	29	104	1289748480	87	18979
2026-01-04 07:39:00.11	324.66	2.94	-61.2	-75.1	3.8	1.49e+00	0	29	104	1289748480	87	18969
2026-01-04 07:39:01.12	324.61	2.87	-61.2	-75.1	3.8	1.49e+00	0	29	104	1289748480	87	18958
2026-01-04 07:39:02.13	324.57	2.81	-61.2	-75.0	3.8	1.49e+00	0	29	104	1289748480	87	18937
2026-01-04 07:39:03.14	324.52	2.75	-61.2	-75.0	3.8	1.49e+00	0	29	104	1289748480	87	18948
2026-01-04 07:39:04.15	324.48	2.69	-61.2	-75.0	3.8	1.49e+00	0	29	104	1289748480	87	18873
2026-01-04 07:39:05.15	324.43	2.62	-61.1	-75.0	3.8	1.49e+00	0	29	104	1289748480	87	18838
2026-01-04 07:39:06.16	324.38	2.56	-61.1	-75.0	3.8	1.49e+00	0	29	104	1289748480	87	18857
2026-01-04 07:39:07.17	324.34	2.50	-61.1	-75.0	3.8	1.49e+00	0	29	104	1289748480	87	18840
2026-01-04 07:39:08.18	324.29	2.44	-61.1	-75.0	3.8	1.49e+00	0	29	104	1289748480	87	18806
2026-01-04 07:39:09.19	324.25	2.38	-61.1	-75.0	3.8	1.49e+00	0	29	104	1289748480	87	18759
2026-01-04 07:39:10.20	324.20	2.31	-61.1	-75.0	3.8	1.49e+00	0	29	104	1289748480	87	18802
2026-01-04 07:39:11.21	324.16	2.25	-61.1	-75.0	3.8	1.49e+00	0	29	104	1289748480	87	18829
2026-01-04 07:39:12.22	324.12	2.19	-61.1	-75.0	3.8	1.49e+00	0	29	104	1289748480	87	18775
2026-01-04 07:39:13.23	324.07	2.13	-61.1	-74.9	3.9	1.49e+00	0	29	104	1289748480	87	18731
2026-01-04 07:39:14.24	324.03	2.07	-61.1	-74.9	3.8	1.49e+00	0	29	104	1289748480	87	18705
2026-01-04 07:39:15.24	323.98	2.01	-61.1	-75.0	3.8	1.49e+00	0	29	104	1289748480	87	18754
2026-01-04 07:39:16.25	323.94	1.95	-61.1	-75.0	3.8	1.49e+00	0	29	104	1289748480	87	18758

#Closed at: 2026-01-04 07:39:16
#Recorded file [1289 MB]: D:/lorett/data/31004_260104_103043.dat