passes_logs/2026/01/04/R3.2S_Murmansk/R3.2S_Murmansk__20260104_061605_SUOMI_NPP_rec.log

#Pass ID: 20260104_061605_SUOMI NPP
#Satellite: SUOMI NPP
#Configuration: NPP
#almurnet v.1.7.20251203
#Start time: 2026-01-04 06:16:07

#Version: 2.2.20231116
#Station: R3.2S_Murmansk
#Location: 33.079688 lon 68.888172 lat
#TLE: 1 37849U 11061A   26001.07732418  .00000182  00000+0  10735-3 0  9990
#TLE: 2 37849  98.7795 303.2470 0002580  87.2016 272.9455 14.19520779734739

#Time	Az	El	Level	Level2	SNR	BER	BlckErr	Temp	State	Recorded	gain1	gain2
2026-01-04 06:16:07.85	79.27	2.14	-58.3	-74.4	3.8	1.49e+00	0	27	0	0	83	22077
2026-01-04 06:16:08.85	79.21	2.20	-58.3	-74.3	3.8	1.49e+00	0	26	104	0	81	24640
2026-01-04 06:16:09.84	79.15	2.25	-58.3	-74.3	3.8	1.49e+00	0	26	104	0	81	24687
2026-01-04 06:16:10.84	79.09	2.31	-58.3	-74.3	3.8	1.49e+00	0	27	104	0	81	24660
2026-01-04 06:16:11.85	79.03	2.37	-58.3	-74.3	3.8	1.49e+00	0	27	104	0	81	24650
2026-01-04 06:16:12.85	78.97	2.43	-58.3	-74.3	3.8	1.49e+00	0	26	104	0	81	24559
2026-01-04 06:16:13.85	78.91	2.49	-58.3	-74.3	3.8	1.49e+00	0	27	104	0	81	24631
2026-01-04 06:16:14.85	78.85	2.55	-58.3	-74.3	3.8	1.49e+00	0	27	104	0	81	24605
2026-01-04 06:16:15.84	78.79	2.60	-58.3	-74.3	3.8	1.49e+00	0	27	104	0	81	24635
2026-01-04 06:16:16.84	78.72	2.66	-58.3	-74.3	3.8	1.49e+00	0	27	104	0	81	24605
2026-01-04 06:16:17.84	78.66	2.72	-58.3	-74.3	3.8	1.49e+00	0	27	104	0	81	24593
2026-01-04 06:16:18.84	78.60	2.78	-58.3	-74.3	3.8	1.49e+00	0	27	104	0	81	24561
2026-01-04 06:16:19.84	78.54	2.84	-58.3	-74.3	3.8	1.49e+00	0	27	104	0	81	24553
2026-01-04 06:16:20.83	78.47	2.90	-58.3	-74.3	3.8	1.49e+00	0	27	104	0	81	24553
2026-01-04 06:16:21.83	78.41	2.96	-58.3	-74.3	3.8	1.49e+00	0	27	104	0	81	24551
2026-01-04 06:16:22.83	78.35	3.02	-58.3	-74.3	3.9	1.49e+00	0	27	104	0	81	24510
2026-01-04 06:16:23.83	78.28	3.08	-58.3	-74.3	3.8	1.49e+00	0	27	104	0	81	24565
2026-01-04 06:16:24.83	78.22	3.13	-58.3	-74.3	3.8	1.49e+00	0	27	104	0	81	24539
2026-01-04 06:16:25.82	78.15	3.19	-58.3	-74.3	3.8	1.49e+00	0	27	104	0	81	24664
2026-01-04 06:16:26.82	78.09	3.25	-58.3	-74.3	3.8	1.49e+00	0	27	104	0	81	24604
2026-01-04 06:16:27.81	78.02	3.31	-58.3	-74.3	3.8	1.49e+00	0	27	104	0	81	24646
2026-01-04 06:16:28.81	77.96	3.37	-58.3	-74.3	3.8	1.49e+00	0	27	104	0	81	24599
2026-01-04 06:16:29.80	77.89	3.43	-58.3	-74.3	3.8	1.49e+00	0	27	104	0	81	24534
2026-01-04 06:16:30.80	77.83	3.49	-58.3	-74.3	3.8	1.49e+00	0	27	104	0	81	24539
2026-01-04 06:16:31.79	77.76	3.55	-58.3	-74.3	3.8	1.49e+00	0	27	104	0	81	24527
2026-01-04 06:16:32.79	77.70	3.61	-58.3	-74.3	3.8	1.49e+00	0	27	104	0	81	24582
2026-01-04 06:16:33.80	77.63	3.67	-58.3	-74.3	3.8	1.49e+00	0	27	104	0	81	24604
2026-01-04 06:16:34.80	77.56	3.73	-58.3	-74.3	3.8	1.49e+00	0	27	104	0	81	24661
2026-01-04 06:16:35.79	77.49	3.79	-58.3	-74.3	3.8	1.49e+00	0	27	104	0	81	24642
2026-01-04 06:16:36.79	77.43	3.85	-58.3	-74.3	3.8	1.49e+00	0	27	104	0	81	24520
2026-01-04 06:16:37.79	77.36	3.91	-58.3	-74.3	3.8	1.49e+00	0	27	104	0	81	24481
2026-01-04 06:16:38.79	77.29	3.97	-58.3	-74.2	3.8	1.49e+00	0	27	104	0	81	24248
2026-01-04 06:16:39.79	77.22	4.03	-58.3	-74.2	3.8	1.49e+00	0	27	104	0	81	24247
2026-01-04 06:16:40.79	77.15	4.09	-58.3	-74.2	3.8	1.49e+00	0	27	104	0	81	24316
2026-01-04 06:16:41.79	77.08	4.16	-58.3	-74.2	3.8	1.49e+00	0	27	104	0	81	24379
2026-01-04 06:16:42.78	77.01	4.22	-58.3	-74.3	3.8	1.49e+00	0	27	104	0	81	24568
2026-01-04 06:16:43.78	76.94	4.28	-58.3	-74.3	3.8	1.49e+00	0	27	104	0	81	24598
2026-01-04 06:16:44.78	76.87	4.34	-58.3	-74.2	3.8	1.49e+00	0	27	104	0	81	24351
2026-01-04 06:16:45.78	76.80	4.40	-58.3	-73.9	3.8	1.49e+00	0	27	104	0	81	23581
2026-01-04 06:16:46.79	76.73	4.46	-58.3	-73.5	3.9	1.49e+00	0	27	104	0	81	22413
2026-01-04 06:16:47.78	76.66	4.52	-58.2	-73.0	3.8	1.49e+00	0	27	104	0	81	21071
2026-01-04 06:16:48.78	76.59	4.58	-58.2	-72.2	3.8	1.49e+00	0	27	104	0	81	19233
2026-01-04 06:16:49.78	76.52	4.65	-58.2	-71.4	4.0	1.47e+00	0	27	104	0	81	17489
2026-01-04 06:16:50.78	76.45	4.71	-58.1	-70.8	4.2	1.43e+00	0	27	0	0	81	16461
2026-01-04 06:16:51.77	76.38	4.77	-58.0	-69.7	4.5	1.20e+00	0	27	0	1048576	81	14394
2026-01-04 06:16:52.78	76.30	4.83	-58.0	-69.2	4.7	8.27e-01	0	27	0	2097152	81	13598
2026-01-04 06:16:53.78	76.23	4.89	-57.9	-68.2	5.2	7.03e-01	0	28	0	4194304	81	12141
2026-01-04 06:16:54.78	76.16	4.96	-57.8	-67.2	5.7	3.97e-01	0	28	0	6291456	81	10881
2026-01-04 06:16:55.78	76.08	5.02	-57.6	-66.5	6.2	2.50e-01	0	28	0	8388608	81	9996
2026-01-04 06:16:56.77	76.01	5.08	-57.9	-67.6	5.7	1.99e-01	0	27	0	10485760	81	11385
2026-01-04 06:16:57.77	75.93	5.14	-57.2	-63.9	8.5	3.84e-01	0	27	0	11534336	81	7405
2026-01-04 06:16:58.77	75.86	5.21	-58.1	-70.0	4.5	1.49e-01	5	27	0	13631488	81	14899
2026-01-04 06:16:59.77	75.78	5.27	-58.4	-70.8	4.3	1.02e+00	48	28	0	13631488	81	16435
2026-01-04 06:17:00.76	75.71	5.33	-55.6	-59.7	11.6	1.21e+00	0	28	0	13631488	77	5783
2026-01-04 06:17:01.77	75.63	5.39	-55.4	-59.4	11.9	6.10e-06	0	28	0	15728640	77	5570
2026-01-04 06:17:02.77	75.56	5.46	-55.3	-59.3	11.9	3.00e-06	0	28	0	17825792	77	5507
2026-01-04 06:17:03.77	75.48	5.52	-55.0	-58.7	12.3	2.20e-06	0	28	0	18874368	76	5459
2026-01-04 06:17:04.76	75.41	5.58	-54.8	-58.4	12.5	0.00e+00	0	28	0	20971520	76	5221
2026-01-04 06:17:05.77	75.33	5.65	-54.5	-58.0	12.7	0.00e+00	0	28	0	23068672	75	5282
2026-01-04 06:17:06.77	75.25	5.71	-54.8	-58.4	12.4	0.00e+00	0	28	0	25165824	75	5551
2026-01-04 06:17:07.77	75.17	5.77	-54.6	-58.0	12.7	0.00e+00	0	28	0	26214400	75	5312
2026-01-04 06:17:08.77	75.09	5.84	-54.6	-58.0	12.6	0.00e+00	0	28	0	28311552	75	5331
2026-01-04 06:17:09.76	75.02	5.90	-54.3	-57.6	12.9	0.00e+00	0	28	0	30408704	75	5064
2026-01-04 06:17:10.77	74.94	5.97	-54.5	-57.9	12.8	0.00e+00	0	28	0	32505856	75	5223
2026-01-04 06:17:11.76	74.86	6.03	-54.4	-57.7	12.9	0.00e+00	0	28	0	34603008	75	5131
2026-01-04 06:17:12.76	74.78	6.09	-54.5	-57.9	12.8	0.00e+00	0	28	0	35651584	75	5236
2026-01-04 06:17:13.76	74.70	6.16	-54.3	-57.6	13.0	0.00e+00	0	28	0	37748736	75	5044
2026-01-04 06:17:14.75	74.62	6.22	-54.5	-57.8	12.8	0.00e+00	0	28	0	39845888	75	5198
2026-01-04 06:17:15.75	74.54	6.29	-54.2	-57.4	13.1	0.00e+00	0	28	0	41943040	75	4966
2026-01-04 06:17:16.75	74.46	6.35	-54.2	-57.4	13.0	0.00e+00	0	28	0	42991616	74	5251
2026-01-04 06:17:17.74	74.38	6.41	-54.1	-57.3	13.1	0.00e+00	0	28	0	45088768	74	5165
2026-01-04 06:17:18.74	74.30	6.48	-54.1	-57.1	13.2	0.00e+00	0	28	0	47185920	74	5086
2026-01-04 06:17:19.73	74.22	6.54	-54.0	-57.0	13.3	0.00e+00	0	28	0	49283072	74	5012
2026-01-04 06:17:20.73	74.13	6.61	-54.0	-57.1	13.2	0.00e+00	0	28	0	51380224	74	5050
2026-01-04 06:17:21.72	74.05	6.67	-54.1	-57.2	13.1	0.00e+00	0	28	0	52428800	74	5124
2026-01-04 06:17:22.72	73.97	6.74	-54.2	-57.3	13.1	0.00e+00	0	28	0	54525952	74	5193
2026-01-04 06:17:23.71	73.89	6.80	-54.1	-57.1	13.2	0.00e+00	0	28	0	56623104	74	5100
2026-01-04 06:17:24.71	73.80	6.87	-54.2	-57.2	13.2	0.00e+00	0	28	0	58720256	74	5145
2026-01-04 06:17:25.70	73.72	6.93	-54.2	-57.2	13.2	0.00e+00	0	28	0	60817408	74	5132
2026-01-04 06:17:26.68	73.63	7.00	-54.1	-57.1	13.2	0.00e+00	0	28	0	61865984	74	5095
2026-01-04 06:17:27.68	73.55	7.06	-54.1	-57.2	13.2	0.00e+00	0	28	0	63963136	74	5103
2026-01-04 06:17:28.68	73.46	7.13	-54.2	-57.3	13.1	0.00e+00	0	28	0	66060288	74	5162
2026-01-04 06:17:29.68	73.38	7.19	-54.0	-57.0	13.3	0.00e+00	0	28	0	68157440	74	4989
2026-01-04 06:17:30.67	73.29	7.26	-54.1	-57.1	13.3	0.00e+00	0	28	0	69206016	74	5042
2026-01-04 06:17:31.67	73.21	7.33	-54.0	-56.8	13.4	0.00e+00	0	28	0	71303168	74	4919
2026-01-04 06:17:32.67	73.12	7.39	-53.9	-56.7	13.5	0.00e+00	0	28	0	73400320	74	4867
2026-01-04 06:17:33.67	73.03	7.46	-53.9	-56.8	13.4	0.00e+00	0	28	0	75497472	74	4895
2026-01-04 06:17:34.66	72.94	7.52	-54.0	-56.9	13.3	0.00e+00	0	28	0	77594624	74	4970
2026-01-04 06:17:35.66	72.85	7.59	-54.0	-56.9	13.4	0.00e+00	0	28	0	78643200	74	4944
2026-01-04 06:17:36.67	72.77	7.66	-54.1	-57.0	13.3	0.00e+00	0	28	0	80740352	74	5021
2026-01-04 06:17:37.66	72.68	7.72	-54.1	-57.0	13.3	0.00e+00	0	28	0	82837504	74	5039
2026-01-04 06:17:38.66	72.59	7.79	-54.3	-57.4	13.0	0.00e+00	0	28	0	84934656	74	5278
2026-01-04 06:17:39.66	72.50	7.86	-54.2	-57.2	13.2	0.00e+00	0	28	0	85983232	74	5103
2026-01-04 06:17:40.67	72.41	7.93	-54.2	-57.3	13.1	0.00e+00	0	28	0	88080384	74	5197
2026-01-04 06:17:41.66	72.32	7.99	-54.2	-57.3	13.2	0.00e+00	0	28	0	90177536	74	5198
2026-01-04 06:17:42.66	72.22	8.06	-54.1	-57.1	13.2	0.00e+00	0	28	0	92274688	74	5097
2026-01-04 06:17:43.66	72.13	8.13	-54.2	-57.2	13.3	0.00e+00	0	28	0	94371840	74	5114
2026-01-04 06:17:44.66	72.04	8.19	-54.3	-57.3	13.1	0.00e+00	0	28	0	95420416	74	5217
2026-01-04 06:17:45.66	71.95	8.26	-54.1	-57.2	13.2	0.00e+00	0	28	0	97517568	74	5130
2026-01-04 06:17:46.66	71.85	8.33	-54.4	-57.7	13.0	0.00e+00	0	28	0	99614720	74	5405
2026-01-04 06:17:47.65	71.76	8.40	-54.4	-57.7	12.9	0.00e+00	0	28	0	101711872	74	5461
2026-01-04 06:17:48.65	71.67	8.46	-54.4	-57.7	13.0	0.00e+00	0	28	0	103809024	74	5409
2026-01-04 06:17:49.65	71.57	8.53	-54.4	-57.7	12.9	0.00e+00	0	28	0	104857600	74	5464
2026-01-04 06:17:50.64	71.48	8.60	-54.2	-57.3	13.2	0.00e+00	0	28	0	106954752	74	5194
2026-01-04 06:17:51.64	71.38	8.67	-54.1	-57.2	13.2	0.00e+00	0	28	0	109051904	74	5144
2026-01-04 06:17:52.64	71.29	8.74	-54.1	-57.1	13.3	0.00e+00	0	28	0	111149056	74	5092
2026-01-04 06:17:53.64	71.19	8.81	-54.0	-57.0	13.4	0.00e+00	0	28	0	112197632	74	5011
2026-01-04 06:17:54.64	71.09	8.87	-53.9	-56.8	13.5	0.00e+00	0	28	0	114294784	74	4877
2026-01-04 06:17:55.64	71.00	8.94	-53.8	-56.7	13.5	0.00e+00	0	28	0	116391936	74	4859
2026-01-04 06:17:56.65	70.90	9.01	-53.8	-56.6	13.6	0.00e+00	0	28	0	118489088	74	4804
2026-01-04 06:17:57.65	70.80	9.08	-53.8	-56.7	13.5	0.00e+00	0	28	0	120586240	74	4868
2026-01-04 06:17:58.65	70.70	9.15	-53.9	-56.9	13.4	0.00e+00	0	28	0	121634816	74	4960
2026-01-04 06:17:59.65	70.60	9.22	-54.0	-57.1	13.3	0.00e+00	0	28	0	123731968	74	5054
2026-01-04 06:18:00.62	70.50	9.29	-53.9	-56.8	13.5	0.00e+00	0	28	0	125829120	74	4894
2026-01-04 06:18:01.60	70.41	9.35	-53.7	-56.5	13.6	0.00e+00	0	28	0	127926272	74	4754
2026-01-04 06:18:02.60	70.31	9.42	-53.8	-56.7	13.5	0.00e+00	0	28	0	130023424	74	4859
2026-01-04 06:18:03.60	70.20	9.49	-53.7	-56.5	13.7	0.00e+00	0	28	0	131072000	74	4728
2026-01-04 06:18:04.59	70.10	9.56	-53.6	-56.3	13.7	0.00e+00	0	28	0	133169152	73	4922
2026-01-04 06:18:05.58	70.00	9.63	-53.7	-56.5	13.5	0.00e+00	0	28	0	135266304	73	5013
2026-01-04 06:18:06.59	69.90	9.70	-53.6	-56.4	13.6	0.00e+00	0	28	0	137363456	73	4952
2026-01-04 06:18:07.60	69.79	9.77	-53.6	-56.4	13.7	0.00e+00	0	28	0	138412032	73	4938
2026-01-04 06:18:08.60	69.69	9.84	-53.8	-56.6	13.5	0.00e+00	0	28	0	140509184	73	5070
2026-01-04 06:18:09.60	69.59	9.91	-53.7	-56.5	13.6	0.00e+00	0	28	0	142606336	73	5032
2026-01-04 06:18:10.60	69.48	9.98	-53.9	-56.8	13.4	0.00e+00	0	28	0	144703488	73	5187
2026-01-04 06:18:11.60	69.38	10.05	-53.7	-56.5	13.6	0.00e+00	0	28	0	146800640	73	5020
2026-01-04 06:18:12.60	69.27	10.12	-53.6	-56.4	13.6	0.00e+00	0	28	0	147849216	73	4946
2026-01-04 06:18:13.60	69.16	10.19	-53.7	-56.4	13.6	0.00e+00	0	28	0	149946368	73	4957
2026-01-04 06:18:14.60	69.06	10.27	-53.7	-56.4	13.6	0.00e+00	0	28	0	152043520	73	4968
2026-01-04 06:18:15.59	68.95	10.34	-53.7	-56.4	13.6	0.00e+00	0	28	0	154140672	73	4957
2026-01-04 06:18:16.59	68.84	10.41	-53.7	-56.5	13.6	0.00e+00	0	28	0	155189248	73	5005
2026-01-04 06:18:17.59	68.74	10.48	-53.5	-56.2	13.8	0.00e+00	0	28	0	157286400	73	4839
2026-01-04 06:18:18.59	68.63	10.55	-53.6	-56.3	13.7	0.00e+00	0	28	0	159383552	73	4887
2026-01-04 06:18:19.58	68.52	10.62	-53.5	-56.2	13.8	0.00e+00	0	28	0	161480704	73	4821
2026-01-04 06:18:20.57	68.41	10.69	-53.6	-56.3	13.7	0.00e+00	0	28	0	163577856	73	4893
2026-01-04 06:18:21.57	68.30	10.76	-53.7	-56.4	13.6	0.00e+00	0	28	0	164626432	73	4976
2026-01-04 06:18:22.57	68.19	10.83	-53.6	-56.3	13.7	0.00e+00	0	28	0	166723584	73	4906
2026-01-04 06:18:23.57	68.08	10.90	-53.8	-56.5	13.6	0.00e+00	0	28	0	168820736	73	5001
2026-01-04 06:18:24.57	67.96	10.98	-53.8	-56.5	13.6	0.00e+00	0	28	0	170917888	73	5027
2026-01-04 06:18:25.57	67.85	11.05	-53.6	-56.3	13.7	0.00e+00	0	28	0	173015040	73	4886
2026-01-04 06:18:26.55	67.74	11.12	-53.7	-56.4	13.7	0.00e+00	0	28	0	174063616	73	4930
2026-01-04 06:18:27.55	67.62	11.19	-53.8	-56.5	13.7	0.00e+00	0	28	0	176160768	73	4985
2026-01-04 06:18:28.55	67.51	11.26	-53.7	-56.3	13.7	0.00e+00	0	28	0	178257920	73	4916
2026-01-04 06:18:29.54	67.40	11.33	-53.6	-56.3	13.7	0.00e+00	0	28	0	180355072	73	4887
2026-01-04 06:18:30.54	67.28	11.41	-53.7	-56.3	13.7	0.00e+00	0	28	0	181403648	73	4910
2026-01-04 06:18:31.53	67.17	11.48	-53.8	-56.5	13.6	0.00e+00	0	28	0	183500800	73	5007
2026-01-04 06:18:32.53	67.05	11.55	-53.8	-56.6	13.6	0.00e+00	0	28	0	185597952	73	5050
2026-01-04 06:18:33.52	66.93	11.62	-53.9	-56.6	13.6	0.00e+00	0	28	0	187695104	73	5097
2026-01-04 06:18:34.52	66.81	11.70	-53.9	-56.7	13.5	0.00e+00	0	28	0	189792256	73	5146
2026-01-04 06:18:35.52	66.70	11.77	-53.9	-56.6	13.5	0.00e+00	0	28	0	190840832	73	5096
2026-01-04 06:18:36.52	66.58	11.84	-54.0	-56.7	13.5	0.00e+00	0	28	0	192937984	73	5155
2026-01-04 06:18:37.52	66.46	11.91	-54.0	-56.9	13.5	0.00e+00	0	28	0	195035136	73	5227
2026-01-04 06:18:38.53	66.33	11.99	-53.8	-56.5	13.6	0.00e+00	0	28	0	197132288	73	5021
2026-01-04 06:18:39.53	66.21	12.06	-53.9	-56.8	13.5	0.00e+00	0	28	0	199229440	73	5171
2026-01-04 06:18:40.52	66.09	12.13	-53.8	-56.5	13.6	0.00e+00	0	28	0	200278016	73	5020
2026-01-04 06:18:41.53	65.97	12.21	-53.7	-56.3	13.7	0.00e+00	0	28	0	202375168	73	4920
2026-01-04 06:18:42.53	65.85	12.28	-53.6	-56.3	13.7	0.00e+00	0	28	0	204472320	73	4895
2026-01-04 06:18:43.53	65.72	12.35	-53.5	-56.1	13.8	0.00e+00	0	28	0	206569472	73	4795
2026-01-04 06:18:44.53	65.60	12.43	-53.5	-56.0	13.9	0.00e+00	0	28	0	207618048	73	4759
2026-01-04 06:18:45.53	65.47	12.50	-53.5	-56.1	13.8	0.00e+00	0	28	0	209715200	73	4763
2026-01-04 06:18:46.52	65.35	12.58	-53.4	-55.9	13.9	0.00e+00	0	28	0	211812352	73	4700
2026-01-04 06:18:47.53	65.22	12.65	-53.5	-56.0	13.9	0.00e+00	0	28	0	213909504	73	4724
2026-01-04 06:18:48.52	65.10	12.72	-53.2	-55.6	14.0	0.00e+00	0	28	0	216006656	72	4796
2026-01-04 06:18:49.52	64.97	12.80	-53.2	-55.6	14.0	0.00e+00	0	28	0	217055232	72	4800
2026-01-04 06:18:50.51	64.84	12.87	-52.9	-55.2	14.2	0.00e+00	0	28	0	219152384	72	4580
2026-01-04 06:18:51.51	64.71	12.94	-52.9	-55.3	14.2	0.00e+00	0	28	0	221249536	72	4606
2026-01-04 06:18:52.51	64.58	13.02	-52.9	-55.2	14.2	0.00e+00	0	28	0	223346688	72	4560
2026-01-04 06:18:53.51	64.45	13.09	-52.8	-55.1	14.2	0.00e+00	0	28	0	225443840	72	4523
2026-01-04 06:18:54.50	64.32	13.17	-52.8	-55.1	14.2	0.00e+00	0	28	0	226492416	72	4538
2026-01-04 06:18:55.51	64.19	13.24	-52.8	-55.1	14.2	0.00e+00	0	28	0	228589568	72	4501
2026-01-04 06:18:56.51	64.06	13.32	-52.9	-55.2	14.2	0.00e+00	0	28	0	230686720	72	4566
2026-01-04 06:18:57.51	63.93	13.39	-52.8	-55.1	14.2	0.00e+00	0	28	0	232783872	72	4529
2026-01-04 06:18:58.51	63.79	13.47	-52.8	-55.1	14.3	0.00e+00	0	28	0	233832448	72	4509
2026-01-04 06:18:59.51	63.66	13.54	-52.8	-55.1	14.3	0.00e+00	0	28	0	235929600	72	4505
2026-01-04 06:19:00.51	63.52	13.62	-52.9	-55.2	14.2	0.00e+00	0	28	0	238026752	72	4593
2026-01-04 06:19:01.51	63.39	13.69	-52.9	-55.3	14.2	0.00e+00	0	28	0	240123904	72	4608
2026-01-04 06:19:02.51	63.25	13.77	-52.9	-55.2	14.2	0.00e+00	0	28	0	242221056	72	4584
2026-01-04 06:19:03.52	63.11	13.84	-53.0	-55.3	14.1	0.00e+00	0	28	0	243269632	72	4641
2026-01-04 06:19:04.52	62.98	13.92	-52.8	-55.1	14.3	0.00e+00	0	28	0	245366784	72	4521
2026-01-04 06:19:05.52	62.84	13.99	-52.8	-55.1	14.3	0.00e+00	0	28	0	247463936	72	4501
2026-01-04 06:19:06.51	62.70	14.07	-52.8	-55.0	14.3	0.00e+00	0	28	0	249561088	72	4471
2026-01-04 06:19:07.51	62.56	14.14	-52.9	-55.2	14.2	0.00e+00	0	28	0	251658240	72	4592
2026-01-04 06:19:08.51	62.42	14.22	-52.8	-55.0	14.3	0.00e+00	0	28	0	252706816	72	4474
2026-01-04 06:19:09.51	62.28	14.29	-52.7	-55.0	14.2	0.00e+00	0	28	0	254803968	71	4710
2026-01-04 06:19:10.52	62.13	14.37	-52.9	-55.1	14.1	0.00e+00	0	28	0	256901120	71	4814
2026-01-04 06:19:11.52	61.99	14.44	-52.7	-54.9	14.2	0.00e+00	0	28	0	258998272	71	4705
2026-01-04 06:19:12.53	61.85	14.52	-52.8	-55.0	14.2	0.00e+00	0	28	0	261095424	71	4756
2026-01-04 06:19:13.52	61.70	14.60	-52.8	-55.1	14.2	0.00e+00	0	28	0	262144000	71	4791
2026-01-04 06:19:14.52	61.56	14.67	-52.6	-54.8	14.3	0.00e+00	0	28	0	264241152	71	4648
2026-01-04 06:19:15.52	61.41	14.75	-52.6	-54.9	14.2	0.00e+00	0	28	0	266338304	71	4680
2026-01-04 06:19:16.51	61.27	14.82	-52.6	-54.9	14.2	0.00e+00	0	28	0	268435456	71	4688
2026-01-04 06:19:17.51	61.12	14.90	-52.6	-54.9	14.2	0.00e+00	0	28	0	269484032	71	4668
2026-01-04 06:19:18.51	60.97	14.97	-52.6	-55.0	14.2	0.00e+00	0	28	0	271581184	71	4725
2026-01-04 06:19:19.51	60.82	15.05	-52.6	-54.9	14.2	0.00e+00	0	28	0	273678336	71	4703
2026-01-04 06:19:20.51	60.67	15.13	-52.6	-55.0	14.2	0.00e+00	0	29	0	275775488	71	4712
2026-01-04 06:19:21.50	60.52	15.20	-52.6	-55.0	14.2	0.00e+00	0	28	0	277872640	71	4708
2026-01-04 06:19:22.49	60.37	15.28	-52.6	-55.0	14.2	0.00e+00	0	28	0	278921216	71	4722
2026-01-04 06:19:23.49	60.22	15.35	-52.8	-55.2	14.1	0.00e+00	0	28	0	281018368	71	4851
2026-01-04 06:19:24.48	60.07	15.43	-53.0	-55.5	14.0	0.00e+00	0	28	0	283115520	71	5025
2026-01-04 06:19:25.49	59.92	15.51	-53.1	-55.8	13.9	0.00e+00	0	28	0	285212672	71	5179
2026-01-04 06:19:26.48	59.76	15.58	-53.2	-55.8	13.9	0.00e+00	0	28	0	286261248	71	5202
2026-01-04 06:19:27.47	59.61	15.66	-53.3	-56.0	13.8	0.00e+00	0	28	0	288358400	71	5312
2026-01-04 06:19:28.47	59.45	15.73	-53.2	-55.9	13.8	0.00e+00	0	28	0	290455552	71	5245
2026-01-04 06:19:29.46	59.30	15.81	-53.2	-55.9	13.8	0.00e+00	0	28	0	292552704	71	5254
2026-01-04 06:19:30.46	59.14	15.88	-53.2	-55.9	13.8	0.00e+00	0	28	0	294649856	71	5238
2026-01-04 06:19:31.46	58.98	15.96	-53.4	-56.1	13.8	0.00e+00	0	28	0	295698432	72	5064
2026-01-04 06:19:32.46	58.82	16.04	-53.3	-56.0	13.9	0.00e+00	0	28	0	297795584	72	4987
2026-01-04 06:19:33.45	58.66	16.11	-53.4	-56.1	13.8	0.00e+00	0	28	0	299892736	72	5062
2026-01-04 06:19:34.44	58.51	16.19	-53.3	-55.9	13.9	0.00e+00	0	28	0	301989888	72	4960
2026-01-04 06:19:35.45	58.34	16.27	-53.3	-56.0	13.9	0.00e+00	0	28	0	304087040	72	4987
2026-01-04 06:19:36.45	58.18	16.34	-53.3	-55.8	13.9	0.00e+00	0	28	0	305135616	72	4908
2026-01-04 06:19:37.44	58.02	16.42	-53.3	-55.9	13.9	0.00e+00	0	28	0	307232768	72	4962
2026-01-04 06:19:38.45	57.85	16.49	-53.3	-55.9	13.9	0.00e+00	0	28	0	309329920	72	4978
2026-01-04 06:19:39.45	57.69	16.57	-53.4	-56.0	13.8	0.00e+00	0	28	0	311427072	72	5031
2026-01-04 06:19:40.45	57.52	16.65	-53.6	-56.3	13.7	0.00e+00	0	28	0	312475648	72	5182
2026-01-04 06:19:41.45	57.35	16.72	-53.3	-55.9	13.9	0.00e+00	0	28	0	314572800	72	4971
2026-01-04 06:19:42.45	57.19	16.80	-53.3	-55.9	13.9	0.00e+00	0	28	0	316669952	72	4944
2026-01-04 06:19:43.45	57.02	16.88	-53.4	-56.0	13.8	0.00e+00	0	28	0	318767104	72	5019
2026-01-04 06:19:44.45	56.85	16.95	-53.3	-55.9	13.9	0.00e+00	0	29	0	320864256	72	4961
2026-01-04 06:19:45.45	56.68	17.03	-53.4	-56.1	13.8	0.00e+00	0	28	0	321912832	72	5065
2026-01-04 06:19:46.45	56.51	17.10	-53.4	-56.1	13.8	0.00e+00	0	29	0	324009984	72	5076
2026-01-04 06:19:47.45	56.34	17.18	-53.1	-55.6	14.0	0.00e+00	0	28	0	326107136	72	4804
2026-01-04 06:19:48.45	56.16	17.26	-53.1	-55.6	14.0	0.00e+00	0	28	0	328204288	72	4790
2026-01-04 06:19:49.45	55.99	17.33	-53.0	-55.4	14.1	0.00e+00	0	28	0	330301440	72	4685
2026-01-04 06:19:50.44	55.82	17.41	-53.0	-55.5	14.1	0.00e+00	0	28	0	331350016	72	4710
2026-01-04 06:19:51.44	55.64	17.48	-53.0	-55.5	14.1	0.00e+00	0	28	0	333447168	72	4722
2026-01-04 06:19:52.44	55.46	17.56	-53.1	-55.6	14.0	0.00e+00	0	28	0	335544320	72	4791
2026-01-04 06:19:53.44	55.29	17.64	-53.1	-55.6	14.0	0.00e+00	0	28	0	337641472	72	4808
2026-01-04 06:19:54.45	55.11	17.71	-53.4	-56.0	13.9	0.00e+00	0	28	0	339738624	72	5025
2026-01-04 06:19:55.45	54.93	17.79	-53.5	-56.2	13.8	0.00e+00	0	28	0	340787200	72	5108
2026-01-04 06:19:56.45	54.75	17.86	-53.4	-56.1	13.9	0.00e+00	0	28	0	342884352	72	5053
2026-01-04 06:19:57.44	54.57	17.94	-53.3	-55.9	13.9	0.00e+00	0	28	0	344981504	72	4956
2026-01-04 06:19:58.44	54.39	18.01	-53.3	-55.9	13.9	0.00e+00	0	28	0	347078656	72	4950
2026-01-04 06:19:59.44	54.20	18.09	-53.1	-55.6	14.1	0.00e+00	0	28	0	348127232	72	4794
2026-01-04 06:20:00.43	54.02	18.17	-53.2	-55.7	14.0	0.00e+00	0	28	0	350224384	72	4864
2026-01-04 06:20:01.43	53.84	18.24	-53.0	-55.5	14.1	0.00e+00	0	28	0	352321536	72	4753
2026-01-04 06:20:02.42	53.65	18.32	-53.2	-55.7	14.0	0.00e+00	0	28	0	354418688	72	4860
2026-01-04 06:20:03.42	53.47	18.39	-53.0	-55.4	14.2	0.00e+00	0	28	0	356515840	72	4679
2026-01-04 06:20:04.42	53.28	18.47	-52.9	-55.3	14.2	0.00e+00	0	28	0	357564416	72	4637
2026-01-04 06:20:05.42	53.09	18.54	-53.0	-55.4	14.2	0.00e+00	0	28	0	359661568	72	4677
2026-01-04 06:20:06.43	52.90	18.62	-53.1	-55.6	14.1	0.00e+00	0	28	0	361758720	72	4789
2026-01-04 06:20:07.43	52.71	18.69	-53.1	-55.6	14.1	0.00e+00	0	28	0	363855872	72	4763
2026-01-04 06:20:08.43	52.52	18.77	-53.2	-55.7	14.0	0.00e+00	0	28	0	364904448	72	4862
2026-01-04 06:20:09.43	52.33	18.84	-53.2	-55.7	14.0	0.00e+00	0	28	0	367001600	72	4839
2026-01-04 06:20:10.43	52.13	18.92	-53.3	-55.8	14.0	0.00e+00	0	28	0	369098752	72	4903
2026-01-04 06:20:11.44	51.94	18.99	-53.1	-55.6	14.1	0.00e+00	0	28	0	371195904	72	4781
2026-01-04 06:20:12.44	51.74	19.06	-53.2	-55.6	14.0	0.00e+00	0	28	0	373293056	72	4763
2026-01-04 06:20:13.44	51.55	19.14	-53.3	-55.7	14.0	0.00e+00	0	28	0	374341632	72	4850
2026-01-04 06:20:14.44	51.35	19.21	-53.1	-55.5	14.1	0.00e+00	0	28	0	376438784	72	4720
2026-01-04 06:20:15.45	51.15	19.29	-52.7	-54.8	14.3	0.00e+00	0	28	0	378535936	72	4385
2026-01-04 06:20:16.45	50.95	19.36	-52.7	-54.9	14.2	0.00e+00	0	28	0	380633088	71	4695
2026-01-04 06:20:17.45	50.75	19.43	-52.7	-54.9	14.2	0.00e+00	0	28	0	382730240	71	4683
2026-01-04 06:20:18.44	50.55	19.51	-52.6	-54.8	14.3	0.00e+00	0	28	0	383778816	71	4631
2026-01-04 06:20:19.44	50.35	19.58	-52.6	-54.8	14.3	0.00e+00	0	28	0	385875968	71	4606
2026-01-04 06:20:20.44	50.15	19.65	-52.6	-54.9	14.3	0.00e+00	0	28	0	387973120	71	4656
2026-01-04 06:20:21.44	49.94	19.73	-52.4	-54.7	14.3	0.00e+00	0	28	0	390070272	71	4558
2026-01-04 06:20:22.43	49.74	19.80	-52.5	-54.7	14.3	0.00e+00	0	28	0	392167424	71	4598
2026-01-04 06:20:23.43	49.53	19.87	-52.2	-54.5	14.4	0.00e+00	0	29	0	393216000	71	4444
2026-01-04 06:20:24.43	49.33	19.94	-52.5	-54.9	14.3	0.00e+00	0	28	0	395313152	71	4656
2026-01-04 06:20:25.42	49.12	20.02	-52.4	-54.7	14.3	0.00e+00	0	28	0	397410304	71	4550
2026-01-04 06:20:26.42	48.91	20.09	-51.8	-54.0	14.5	0.00e+00	0	28	0	399507456	70	4452
2026-01-04 06:20:27.42	48.70	20.16	-51.7	-53.7	14.6	0.00e+00	0	28	0	400556032	69	4588
2026-01-04 06:20:28.42	48.49	20.23	-51.7	-53.7	14.5	0.00e+00	0	28	0	402653184	69	4582
2026-01-04 06:20:29.40	48.28	20.30	-51.7	-53.7	14.5	0.00e+00	0	29	0	404750336	69	4581
2026-01-04 06:20:30.40	48.07	20.37	-51.6	-53.6	14.6	0.00e+00	0	28	0	406847488	69	4522
2026-01-04 06:20:31.39	47.86	20.44	-51.7	-53.7	14.5	0.00e+00	0	28	0	408944640	69	4558
2026-01-04 06:20:32.37	47.65	20.51	-51.4	-53.4	14.7	0.00e+00	0	28	0	409993216	69	4413
2026-01-04 06:20:33.38	47.43	20.58	-51.5	-53.5	14.6	0.00e+00	0	28	0	412090368	69	4449
2026-01-04 06:20:34.38	47.21	20.65	-51.5	-53.5	14.6	0.00e+00	0	28	0	414187520	69	4451
2026-01-04 06:20:35.37	47.00	20.72	-51.5	-53.5	14.6	0.00e+00	0	28	0	416284672	69	4452
2026-01-04 06:20:36.37	46.78	20.79	-51.6	-53.6	14.6	0.00e+00	0	28	0	417333248	69	4527
2026-01-04 06:20:37.37	46.56	20.86	-51.9	-54.0	14.4	0.00e+00	0	28	0	419430400	69	4716
2026-01-04 06:20:38.36	46.34	20.93	-51.7	-53.7	14.5	0.00e+00	0	28	0	421527552	69	4568
2026-01-04 06:20:39.36	46.12	21.00	-51.6	-53.5	14.6	0.00e+00	0	28	0	423624704	69	4491
2026-01-04 06:20:40.36	45.90	21.07	-51.5	-53.4	14.6	0.00e+00	0	28	0	425721856	69	4433
2026-01-04 06:20:41.34	45.68	21.14	-51.6	-53.5	14.6	0.00e+00	0	28	0	426770432	69	4481
2026-01-04 06:20:42.33	45.46	21.20	-51.4	-53.3	14.7	0.00e+00	0	28	0	428867584	69	4391
2026-01-04 06:20:43.34	45.23	21.27	-51.7	-53.7	14.5	0.00e+00	0	29	0	430964736	69	4570
2026-01-04 06:20:44.34	45.00	21.34	-51.8	-53.8	14.5	0.00e+00	0	28	0	433061888	69	4624
2026-01-04 06:20:45.33	44.78	21.41	-51.7	-53.8	14.5	0.00e+00	0	28	0	434110464	69	4599
2026-01-04 06:20:46.33	44.55	21.47	-51.4	-53.3	14.7	0.00e+00	0	28	0	436207616	69	4369
2026-01-04 06:20:47.33	44.32	21.54	-51.4	-53.3	14.7	0.00e+00	0	28	0	438304768	69	4353
2026-01-04 06:20:48.33	44.09	21.61	-51.3	-53.2	14.7	0.00e+00	0	29	0	440401920	69	4308
2026-01-04 06:20:49.33	43.85	21.67	-51.4	-53.3	14.7	0.00e+00	0	28	0	442499072	69	4366
2026-01-04 06:20:50.34	43.62	21.74	-51.5	-53.4	14.7	0.00e+00	0	29	0	443547648	69	4430
2026-01-04 06:20:51.34	43.39	21.81	-51.2	-53.1	14.8	0.00e+00	0	28	0	445644800	69	4273
2026-01-04 06:20:52.34	43.15	21.87	-51.0	-52.8	14.8	0.00e+00	0	28	0	447741952	68	4360
2026-01-04 06:20:53.34	42.92	21.94	-51.0	-52.8	14.8	0.00e+00	0	28	0	449839104	68	4388
2026-01-04 06:20:54.35	42.68	22.00	-51.1	-52.8	14.8	0.00e+00	0	29	0	451936256	68	4383
2026-01-04 06:20:55.35	42.44	22.06	-51.2	-53.0	14.7	0.00e+00	0	28	0	452984832	68	4477
2026-01-04 06:20:56.34	42.20	22.13	-51.0	-52.8	14.8	0.00e+00	0	29	0	455081984	68	4351
2026-01-04 06:20:57.34	41.96	22.19	-50.9	-52.6	14.9	0.00e+00	0	29	0	457179136	68	4277
2026-01-04 06:20:58.33	41.72	22.25	-50.9	-52.6	14.9	0.00e+00	0	29	0	459276288	68	4244
2026-01-04 06:20:59.34	41.48	22.32	-50.9	-52.6	14.9	0.00e+00	0	28	0	460324864	68	4289
2026-01-04 06:21:00.34	41.24	22.38	-51.2	-53.0	14.8	0.00e+00	0	29	0	462422016	68	4443
2026-01-04 06:21:01.33	41.00	22.44	-51.2	-53.0	14.8	0.00e+00	0	28	0	464519168	68	4447
2026-01-04 06:21:02.33	40.75	22.50	-51.5	-53.3	14.6	0.00e+00	0	28	0	466616320	68	4617
2026-01-04 06:21:03.32	40.51	22.56	-51.3	-53.1	14.7	0.00e+00	0	28	0	468713472	68	4529
2026-01-04 06:21:04.31	40.27	22.62	-51.4	-53.2	14.7	0.00e+00	0	28	0	469762048	68	4563
2026-01-04 06:21:05.32	40.02	22.68	-51.1	-52.9	14.8	0.00e+00	0	28	0	471859200	68	4415
2026-01-04 06:21:06.32	39.77	22.74	-51.2	-53.0	14.8	0.00e+00	0	28	0	473956352	68	4461
2026-01-04 06:21:07.32	39.52	22.80	-51.3	-53.0	14.7	0.00e+00	0	28	0	476053504	68	4490
2026-01-04 06:21:08.32	39.27	22.86	-51.2	-53.0	14.7	0.00e+00	0	28	0	478150656	68	4468
2026-01-04 06:21:09.32	39.02	22.92	-51.3	-53.1	14.7	0.00e+00	0	28	0	479199232	68	4513
2026-01-04 06:21:10.31	38.77	22.97	-51.2	-52.9	14.8	0.00e+00	0	28	0	481296384	68	4426
2026-01-04 06:21:11.32	38.51	23.03	-51.1	-52.9	14.8	0.00e+00	0	28	0	483393536	68	4396
2026-01-04 06:21:12.32	38.26	23.09	-51.0	-52.8	14.8	0.00e+00	0	29	0	485490688	68	4346
2026-01-04 06:21:13.32	38.00	23.15	-51.2	-52.9	14.8	0.00e+00	0	28	0	487587840	68	4423
2026-01-04 06:21:14.31	37.75	23.20	-51.3	-53.1	14.7	0.00e+00	0	28	0	488636416	68	4498
2026-01-04 06:21:15.31	37.49	23.26	-51.2	-52.9	14.8	0.00e+00	0	29	0	490733568	68	4420
2026-01-04 06:21:16.31	37.23	23.31	-51.3	-53.0	14.7	0.00e+00	0	28	0	492830720	68	4482
2026-01-04 06:21:17.31	36.98	23.37	-51.1	-52.8	14.8	0.00e+00	0	29	0	494927872	68	4377
2026-01-04 06:21:18.31	36.72	23.42	-51.2	-53.0	14.8	0.00e+00	0	28	0	495976448	68	4448
2026-01-04 06:21:19.30	36.46	23.47	-51.2	-52.9	14.7	0.00e+00	0	28	0	498073600	68	4437
2026-01-04 06:21:20.30	36.20	23.52	-51.3	-53.1	14.7	0.00e+00	0	29	0	500170752	68	4502
2026-01-04 06:21:21.30	35.93	23.58	-51.2	-52.9	14.8	0.00e+00	0	29	0	502267904	68	4407
2026-01-04 06:21:22.30	35.67	23.63	-51.2	-53.0	14.8	0.00e+00	0	28	0	504365056	68	4445
2026-01-04 06:21:23.30	35.41	23.68	-51.2	-52.8	14.8	0.00e+00	0	28	0	505413632	68	4391
2026-01-04 06:21:24.30	35.14	23.73	-51.2	-52.9	14.8	0.00e+00	0	29	0	507510784	68	4397
2026-01-04 06:21:25.29	34.88	23.78	-51.2	-52.9	14.8	0.00e+00	0	29	0	509607936	68	4421
2026-01-04 06:21:26.29	34.61	23.83	-51.3	-53.1	14.7	0.00e+00	0	28	0	511705088	68	4506
2026-01-04 06:21:27.29	34.35	23.88	-51.2	-52.9	14.8	0.00e+00	0	29	0	512753664	68	4398
2026-01-04 06:21:28.29	34.08	23.93	-51.3	-53.0	14.7	0.00e+00	0	28	0	514850816	68	4478
2026-01-04 06:21:29.28	33.81	23.97	-51.3	-53.1	14.7	0.00e+00	0	28	0	516947968	68	4495
2026-01-04 06:21:30.27	33.54	24.02	-51.1	-52.8	14.8	0.00e+00	0	28	0	519045120	68	4354
2026-01-04 06:21:31.27	33.27	24.07	-51.2	-52.9	14.8	0.00e+00	0	28	0	521142272	68	4412
2026-01-04 06:21:32.27	33.00	24.11	-51.1	-52.7	14.8	0.00e+00	0	28	0	522190848	68	4330
2026-01-04 06:21:33.27	32.73	24.16	-51.1	-52.8	14.8	0.00e+00	0	28	0	524288000	68	4367
2026-01-04 06:21:34.26	32.46	24.20	-50.8	-52.4	14.9	0.00e+00	0	28	0	526385152	68	4183
2026-01-04 06:21:35.26	32.19	24.25	-50.5	-52.1	14.9	0.00e+00	0	28	0	528482304	67	4274
2026-01-04 06:21:36.26	31.91	24.29	-50.4	-52.0	15.0	0.00e+00	0	28	0	530579456	67	4199
2026-01-04 06:21:37.25	31.64	24.33	-50.6	-52.1	14.9	0.00e+00	0	29	0	531628032	67	4283
2026-01-04 06:21:38.25	31.36	24.37	-50.9	-52.6	14.8	0.00e+00	0	28	0	533725184	67	4517
2026-01-04 06:21:39.24	31.09	24.41	-51.0	-52.7	14.8	0.00e+00	0	28	0	535822336	67	4556
2026-01-04 06:21:40.23	30.81	24.45	-51.1	-52.8	14.7	0.00e+00	0	28	0	537919488	67	4635
2026-01-04 06:21:41.23	30.54	24.49	-51.3	-53.1	14.6	0.00e+00	0	28	0	538968064	67	4765
2026-01-04 06:21:42.23	30.26	24.53	-51.8	-53.6	14.5	0.00e+00	0	28	0	541065216	68	4794
2026-01-04 06:21:43.22	29.98	24.57	-52.1	-54.0	14.5	0.00e+00	0	28	0	543162368	69	4726
2026-01-04 06:21:44.22	29.70	24.61	-52.6	-54.6	14.3	0.00e+00	0	29	0	545259520	70	4811
2026-01-04 06:21:45.22	29.42	24.65	-52.8	-54.9	14.2	0.00e+00	0	28	0	547356672	70	4960
2026-01-04 06:21:46.22	29.14	24.68	-52.9	-55.0	14.3	0.00e+00	0	28	0	548405248	71	4758
2026-01-04 06:21:47.22	28.85	24.72	-53.2	-55.5	14.0	0.00e+00	0	29	0	550502400	71	5017
2026-01-04 06:21:48.23	28.57	24.76	-53.1	-55.4	14.1	0.00e+00	0	29	0	552599552	71	4956
2026-01-04 06:21:49.22	28.29	24.79	-52.8	-54.9	14.3	0.00e+00	0	28	0	554696704	71	4676
2026-01-04 06:21:50.22	28.00	24.82	-52.3	-54.4	14.5	0.00e+00	0	29	0	556793856	71	4394
2026-01-04 06:21:51.23	27.72	24.86	-52.3	-54.3	14.5	0.00e+00	0	28	0	557842432	71	4354
2026-01-04 06:21:52.23	27.43	24.89	-52.3	-54.3	14.6	0.00e+00	0	28	0	559939584	71	4352
2026-01-04 06:21:53.23	27.14	24.92	-52.5	-54.6	14.4	0.00e+00	0	28	0	562036736	71	4508
2026-01-04 06:21:54.22	26.86	24.95	-52.6	-54.7	14.3	0.00e+00	0	28	0	564133888	71	4591
2026-01-04 06:21:55.21	26.58	24.98	-52.7	-54.9	14.3	0.00e+00	0	28	0	565182464	71	4661
2026-01-04 06:21:56.21	26.29	25.01	-52.7	-54.9	14.3	0.00e+00	0	28	0	567279616	71	4654
2026-01-04 06:21:57.21	26.00	25.04	-52.6	-54.8	14.4	0.00e+00	0	29	0	569376768	71	4601
2026-01-04 06:21:58.22	25.71	25.07	-52.8	-54.9	14.2	0.00e+00	0	28	0	571473920	71	4687
2026-01-04 06:21:59.22	25.42	25.09	-52.7	-54.8	14.3	0.00e+00	0	28	0	573571072	71	4629
2026-01-04 06:22:00.22	25.13	25.12	-52.7	-54.9	14.2	0.00e+00	0	28	0	574619648	71	4695
2026-01-04 06:22:01.22	24.84	25.14	-52.6	-54.8	14.3	0.00e+00	0	29	0	576716800	71	4643
2026-01-04 06:22:02.22	24.55	25.17	-52.6	-54.8	14.3	0.00e+00	0	28	0	578813952	71	4632
2026-01-04 06:22:03.21	24.26	25.19	-52.8	-55.1	14.2	0.00e+00	0	28	0	580911104	71	4781
2026-01-04 06:22:04.22	23.97	25.22	-53.0	-55.4	14.1	0.00e+00	0	29	0	583008256	71	4944
2026-01-04 06:22:05.22	23.68	25.24	-53.2	-55.6	14.0	0.00e+00	0	29	0	584056832	71	5054
2026-01-04 06:22:06.22	23.38	25.26	-53.2	-55.6	14.0	0.00e+00	0	28	0	586153984	71	5062
2026-01-04 06:22:07.22	23.09	25.28	-53.1	-55.4	14.1	0.00e+00	0	29	0	588251136	71	4949
2026-01-04 06:22:08.22	22.80	25.30	-52.8	-55.1	14.2	0.00e+00	0	28	0	590348288	71	4775
2026-01-04 06:22:09.22	22.50	25.32	-52.8	-55.1	14.2	0.00e+00	0	28	0	591396864	71	4769
2026-01-04 06:22:10.21	22.21	25.34	-52.7	-55.0	14.2	0.00e+00	0	28	0	593494016	71	4708
2026-01-04 06:22:11.21	21.92	25.36	-52.6	-54.8	14.3	0.00e+00	0	28	0	595591168	71	4623
2026-01-04 06:22:12.21	21.63	25.37	-52.4	-54.6	14.4	0.00e+00	0	28	0	597688320	71	4495
2026-01-04 06:22:13.20	21.33	25.39	-52.4	-54.5	14.5	0.00e+00	0	29	0	599785472	71	4475
2026-01-04 06:22:14.19	21.04	25.40	-52.5	-54.6	14.4	0.00e+00	0	29	0	600834048	71	4523
2026-01-04 06:22:15.19	20.75	25.42	-52.6	-54.7	14.4	0.00e+00	0	29	0	602931200	71	4577
2026-01-04 06:22:16.19	20.45	25.43	-52.8	-55.0	14.2	0.00e+00	0	28	0	605028352	71	4756
2026-01-04 06:22:17.20	20.15	25.44	-53.0	-55.3	14.1	0.00e+00	0	28	0	607125504	71	4915
2026-01-04 06:22:18.20	19.86	25.45	-53.0	-55.3	14.1	0.00e+00	0	28	0	609222656	71	4921
2026-01-04 06:22:19.20	19.56	25.46	-53.1	-55.6	14.0	0.00e+00	0	28	0	610271232	71	5051
2026-01-04 06:22:20.20	19.26	25.47	-53.2	-55.7	14.0	0.00e+00	0	28	0	612368384	71	5102
2026-01-04 06:22:21.19	18.97	25.48	-53.2	-55.5	14.0	0.00e+00	0	29	0	614465536	71	5033
2026-01-04 06:22:22.19	18.67	25.49	-52.8	-55.1	14.2	0.00e+00	0	28	0	616562688	71	4760
2026-01-04 06:22:23.19	18.38	25.50	-52.9	-55.1	14.2	0.00e+00	0	28	0	617611264	71	4796
2026-01-04 06:22:24.19	18.08	25.51	-52.8	-55.0	14.2	0.00e+00	0	28	0	619708416	71	4716
2026-01-04 06:22:25.19	17.78	25.51	-52.7	-54.9	14.3	0.00e+00	0	28	0	621805568	71	4652
2026-01-04 06:22:26.19	17.48	25.52	-52.6	-54.8	14.3	0.00e+00	0	28	0	623902720	71	4608
2026-01-04 06:22:27.18	17.19	25.52	-52.5	-54.7	14.4	0.00e+00	0	29	0	625999872	71	4555
2026-01-04 06:22:28.19	16.89	25.52	-52.3	-54.3	14.5	0.00e+00	0	28	0	627048448	71	4376
2026-01-04 06:22:29.18	16.60	25.53	-52.5	-54.7	14.4	0.00e+00	0	28	0	629145600	71	4573
2026-01-04 06:22:30.18	16.30	25.53	-52.9	-55.2	14.1	0.00e+00	0	28	0	631242752	71	4865
2026-01-04 06:22:31.17	16.00	25.53	-53.2	-55.7	13.9	0.00e+00	0	29	0	633339904	71	5110
2026-01-04 06:22:32.17	15.71	25.53	-53.1	-55.6	13.9	0.00e+00	0	29	0	635437056	71	5071
2026-01-04 06:22:33.17	15.41	25.53	-53.2	-55.8	13.9	0.00e+00	0	29	0	636485632	71	5167
2026-01-04 06:22:34.16	15.11	25.53	-53.2	-55.7	13.9	0.00e+00	0	29	0	638582784	71	5159
2026-01-04 06:22:35.15	14.82	25.52	-52.9	-55.3	14.1	0.00e+00	0	28	0	640679936	71	4907
2026-01-04 06:22:36.15	14.52	25.52	-52.8	-55.2	14.2	0.00e+00	0	29	0	642777088	71	4821
2026-01-04 06:22:37.15	14.22	25.52	-52.6	-54.9	14.3	0.00e+00	0	28	0	643825664	71	4660
2026-01-04 06:22:38.14	13.93	25.51	-52.4	-54.6	14.4	0.00e+00	0	29	0	645922816	71	4523
2026-01-04 06:22:39.13	13.64	25.51	-52.2	-54.2	14.6	0.00e+00	0	29	0	648019968	71	4327
2026-01-04 06:22:40.13	13.34	25.50	-52.0	-54.0	14.6	0.00e+00	0	28	0	650117120	70	4462
2026-01-04 06:22:41.13	13.04	25.49	-51.8	-53.8	14.7	0.00e+00	0	28	0	652214272	70	4341
2026-01-04 06:22:42.12	12.75	25.48	-51.7	-53.6	14.6	0.00e+00	0	29	0	653262848	69	4499
2026-01-04 06:22:43.12	12.45	25.47	-51.6	-53.5	14.7	0.00e+00	0	28	0	655360000	69	4481
2026-01-04 06:22:44.12	12.16	25.46	-51.7	-53.5	14.7	0.00e+00	0	28	0	657457152	69	4492
2026-01-04 06:22:45.12	11.86	25.45	-51.5	-53.4	14.7	0.00e+00	0	29	0	659554304	69	4395
2026-01-04 06:22:46.12	11.56	25.44	-51.6	-53.5	14.7	0.00e+00	0	29	0	660602880	69	4470
2026-01-04 06:22:47.10	11.27	25.43	-51.7	-53.5	14.6	0.00e+00	0	28	0	662700032	69	4489
2026-01-04 06:22:48.11	10.98	25.41	-51.7	-53.6	14.6	0.00e+00	0	28	0	664797184	69	4514
2026-01-04 06:22:49.11	10.68	25.40	-51.6	-53.5	14.7	0.00e+00	0	29	0	666894336	69	4444
2026-01-04 06:22:50.10	10.39	25.38	-51.6	-53.4	14.7	0.00e+00	0	29	0	668991488	69	4419
2026-01-04 06:22:51.10	10.09	25.37	-51.1	-52.8	14.8	0.00e+00	0	28	0	670040064	68	4362
2026-01-04 06:22:52.11	9.80	25.35	-51.1	-52.7	14.9	0.00e+00	0	29	0	672137216	68	4313
2026-01-04 06:22:53.11	9.50	25.33	-50.9	-52.4	14.9	0.00e+00	0	28	0	674234368	68	4190
2026-01-04 06:22:54.11	9.21	25.32	-50.4	-51.9	15.0	0.00e+00	0	29	0	676331520	67	4193
2026-01-04 06:22:55.10	8.92	25.30	-50.7	-52.3	14.9	0.00e+00	0	29	0	678428672	67	4363
2026-01-04 06:22:56.10	8.63	25.28	-50.6	-52.2	14.9	0.00e+00	0	28	0	679477248	67	4324
2026-01-04 06:22:57.10	8.33	25.26	-50.5	-52.1	15.0	0.00e+00	0	28	0	681574400	67	4261
2026-01-04 06:22:58.10	8.04	25.23	-50.5	-52.0	15.0	0.00e+00	0	28	0	683671552	67	4199
2026-01-04 06:22:59.10	7.75	25.21	-50.5	-52.1	15.0	0.00e+00	0	28	0	685768704	67	4243
2026-01-04 06:23:00.10	7.46	25.19	-50.7	-52.3	14.9	0.00e+00	0	28	0	686817280	67	4379
2026-01-04 06:23:01.10	7.17	25.16	-50.9	-52.6	14.8	0.00e+00	0	29	0	688914432	67	4512
2026-01-04 06:23:02.10	6.88	25.14	-50.9	-52.5	14.8	0.00e+00	0	28	0	691011584	67	4469
2026-01-04 06:23:03.10	6.59	25.11	-50.9	-52.5	14.8	0.00e+00	0	29	0	693108736	67	4486
2026-01-04 06:23:04.10	6.30	25.09	-51.0	-52.6	14.7	0.00e+00	0	28	0	695205888	67	4541
2026-01-04 06:23:05.10	6.01	25.06	-51.1	-52.7	14.7	0.00e+00	0	29	0	696254464	67	4595
2026-01-04 06:23:06.09	5.72	25.03	-51.1	-52.8	14.7	0.00e+00	0	28	0	698351616	67	4622
2026-01-04 06:23:07.09	5.44	25.00	-51.3	-53.0	14.7	0.00e+00	0	29	0	700448768	67	4708
2026-01-04 06:23:08.09	5.15	24.98	-51.3	-53.0	14.7	0.00e+00	0	28	0	702545920	67	4734
2026-01-04 06:23:09.09	4.86	24.94	-51.6	-53.3	14.7	0.00e+00	0	29	0	704643072	68	4641
2026-01-04 06:23:10.09	4.58	24.91	-51.5	-53.2	14.7	0.00e+00	0	29	0	705691648	68	4597
2026-01-04 06:23:11.09	4.29	24.88	-51.7	-53.4	14.7	0.00e+00	0	28	0	707788800	68	4657
2026-01-04 06:23:12.09	4.00	24.85	-51.6	-53.2	14.7	0.00e+00	0	29	0	709885952	68	4598
2026-01-04 06:23:13.09	3.72	24.82	-51.3	-52.9	14.8	0.00e+00	0	28	0	711983104	68	4441
2026-01-04 06:23:14.09	3.44	24.78	-51.4	-53.0	14.8	0.00e+00	0	28	0	713031680	68	4451
2026-01-04 06:23:15.09	3.15	24.75	-51.7	-53.3	14.7	0.00e+00	0	29	0	715128832	68	4635
2026-01-04 06:23:16.09	2.87	24.71	-52.0	-53.8	14.6	0.00e+00	0	28	0	717225984	69	4635
2026-01-04 06:23:17.09	2.59	24.68	-52.6	-54.6	14.4	0.00e+00	0	28	0	719323136	70	4768
2026-01-04 06:23:18.09	2.31	24.64	-52.4	-54.3	14.5	0.00e+00	0	28	0	721420288	70	4617
2026-01-04 06:23:19.09	2.03	24.60	-52.1	-53.9	14.6	0.00e+00	0	29	0	722468864	70	4402
2026-01-04 06:23:20.09	1.75	24.57	-51.7	-53.4	14.7	0.00e+00	0	28	0	724566016	69	4395
2026-01-04 06:23:21.09	1.47	24.53	-51.6	-53.3	14.8	0.00e+00	0	29	0	726663168	69	4355
2026-01-04 06:23:22.09	1.19	24.49	-51.7	-53.4	14.7	0.00e+00	0	28	0	728760320	69	4414
2026-01-04 06:23:23.09	0.91	24.45	-51.8	-53.6	14.7	0.00e+00	0	28	0	730857472	69	4506
2026-01-04 06:23:24.08	0.64	24.41	-52.0	-53.9	14.6	0.00e+00	0	28	0	731906048	69	4653
2026-01-04 06:23:25.08	0.36	24.36	-52.4	-54.3	14.5	0.00e+00	0	28	0	734003200	70	4605
2026-01-04 06:23:26.08	0.08	24.32	-52.4	-54.4	14.5	0.00e+00	0	29	0	736100352	70	4652
2026-01-04 06:23:27.08	359.81	24.28	-52.6	-54.6	14.3	0.00e+00	0	28	0	738197504	70	4809
2026-01-04 06:23:28.08	359.53	24.24	-52.6	-54.7	14.3	0.00e+00	0	29	0	739246080	70	4816
2026-01-04 06:23:29.07	359.26	24.19	-52.7	-54.7	14.3	0.00e+00	0	28	0	741343232	70	4868
2026-01-04 06:23:30.07	358.99	24.15	-52.6	-54.7	14.3	0.00e+00	0	29	0	743440384	70	4828
2026-01-04 06:23:31.06	358.72	24.10	-52.8	-54.9	14.3	0.00e+00	0	28	0	745537536	70	4972
2026-01-04 06:23:32.06	358.45	24.06	-52.9	-55.2	14.2	0.00e+00	0	28	0	747634688	71	4818
2026-01-04 06:23:33.05	358.18	24.01	-53.1	-55.4	14.1	0.00e+00	0	29	0	748683264	71	4937
2026-01-04 06:23:34.04	357.92	23.96	-53.1	-55.4	14.1	0.00e+00	0	28	0	750780416	71	4950
2026-01-04 06:23:35.04	357.65	23.92	-52.9	-55.2	14.2	0.00e+00	0	29	0	752877568	71	4821
2026-01-04 06:23:36.04	357.38	23.87	-52.8	-55.0	14.3	0.00e+00	0	28	0	754974720	71	4715
2026-01-04 06:23:37.04	357.11	23.82	-52.6	-54.7	14.4	0.00e+00	0	28	0	756023296	71	4558
2026-01-04 06:23:38.04	356.85	23.77	-52.5	-54.6	14.5	0.00e+00	0	28	0	758120448	71	4519
2026-01-04 06:23:39.05	356.58	23.72	-52.5	-54.6	14.4	0.00e+00	0	29	0	760217600	71	4538
2026-01-04 06:23:40.05	356.31	23.67	-52.7	-54.8	14.4	0.00e+00	0	28	0	762314752	71	4633
2026-01-04 06:23:41.04	356.05	23.62	-53.0	-55.2	14.2	0.00e+00	0	29	0	764411904	71	4861
2026-01-04 06:23:42.04	355.79	23.57	-53.0	-55.3	14.1	0.00e+00	0	28	0	765460480	71	4922
2026-01-04 06:23:43.04	355.53	23.51	-53.2	-55.6	14.0	0.00e+00	0	28	0	767557632	71	5068
2026-01-04 06:23:44.03	355.27	23.46	-53.2	-55.5	14.0	0.00e+00	0	28	0	769654784	71	5040
2026-01-04 06:23:45.03	355.01	23.41	-53.0	-55.4	14.1	0.00e+00	0	29	0	771751936	71	4933
2026-01-04 06:23:46.02	354.75	23.36	-52.8	-55.1	14.2	0.00e+00	0	29	0	773849088	71	4782
2026-01-04 06:23:47.02	354.50	23.30	-52.7	-54.9	14.3	0.00e+00	0	28	0	774897664	71	4658
2026-01-04 06:23:48.02	354.24	23.25	-52.5	-54.6	14.4	0.00e+00	0	29	0	776994816	71	4531
2026-01-04 06:23:49.02	353.98	23.19	-52.7	-54.9	14.3	0.00e+00	0	28	0	779091968	71	4689
2026-01-04 06:23:50.01	353.73	23.14	-52.5	-54.6	14.4	0.00e+00	0	28	0	781189120	71	4503
2026-01-04 06:23:51.02	353.47	23.08	-52.5	-54.6	14.4	0.00e+00	0	28	0	783286272	71	4519
2026-01-04 06:23:52.02	353.22	23.02	-52.6	-54.8	14.3	0.00e+00	0	29	0	784334848	71	4615
2026-01-04 06:23:53.02	352.97	22.96	-53.1	-55.5	14.0	0.00e+00	0	28	0	786432000	71	5000
2026-01-04 06:23:54.02	352.71	22.91	-54.0	-56.3	13.9	0.00e+00	0	29	0	788529152	72	5212
2026-01-04 06:23:55.02	352.46	22.85	-53.6	-56.3	13.7	0.00e+00	0	28	0	790626304	72	5163
2026-01-04 06:23:56.02	352.21	22.79	-53.5	-56.1	13.8	0.00e+00	0	29	0	791674880	72	5072
2026-01-04 06:23:57.02	351.96	22.73	-53.4	-55.9	13.9	0.00e+00	0	29	0	793772032	72	4962
2026-01-04 06:23:58.02	351.72	22.67	-52.9	-55.2	14.2	0.00e+00	0	29	0	795869184	72	4582
2026-01-04 06:23:59.02	351.47	22.61	-52.8	-55.1	14.3	0.00e+00	0	28	0	797966336	72	4497
2026-01-04 06:24:00.02	351.22	22.55	-52.6	-54.9	14.3	0.00e+00	0	29	0	800063488	71	4669
2026-01-04 06:24:01.02	350.98	22.49	-52.7	-55.0	14.2	0.00e+00	0	29	0	801112064	71	4748
2026-01-04 06:24:02.02	350.73	22.43	-53.0	-55.4	14.1	0.00e+00	0	28	0	803209216	71	4942
2026-01-04 06:24:03.02	350.49	22.37	-53.2	-55.8	13.9	0.00e+00	0	29	0	805306368	71	5165
2026-01-04 06:24:04.02	350.25	22.30	-53.5	-56.1	13.8	0.00e+00	0	29	0	807403520	72	5092
2026-01-04 06:24:05.02	350.01	22.24	-53.3	-56.0	13.9	0.00e+00	0	29	0	809500672	72	4990
2026-01-04 06:24:06.02	349.77	22.18	-53.6	-56.4	13.7	0.00e+00	0	28	0	810549248	72	5242
2026-01-04 06:24:07.02	349.53	22.11	-53.4	-56.0	13.9	0.00e+00	0	29	0	812646400	72	5016
2026-01-04 06:24:08.02	349.29	22.05	-53.0	-55.4	14.2	0.00e+00	0	28	0	814743552	72	4694
2026-01-04 06:24:09.02	349.05	21.99	-52.7	-54.9	14.3	0.00e+00	0	28	0	816840704	71	4696
2026-01-04 06:24:10.03	348.82	21.92	-52.2	-54.3	14.5	0.00e+00	0	29	0	817889280	71	4374
2026-01-04 06:24:11.02	348.58	21.86	-52.4	-54.5	14.5	0.00e+00	0	28	0	819986432	71	4448
2026-01-04 06:24:12.02	348.35	21.79	-52.0	-54.0	14.5	0.00e+00	0	29	0	822083584	70	4483
2026-01-04 06:24:13.02	348.11	21.73	-52.2	-54.2	14.5	0.00e+00	0	28	0	824180736	70	4584
2026-01-04 06:24:14.02	347.88	21.66	-52.4	-54.6	14.3	0.00e+00	0	29	0	826277888	70	4808
2026-01-04 06:24:15.02	347.65	21.60	-52.7	-54.9	14.2	0.00e+00	0	28	0	827326464	70	4981
2026-01-04 06:24:16.02	347.42	21.53	-52.6	-54.9	14.2	0.00e+00	0	29	0	829423616	70	4969
2026-01-04 06:24:17.02	347.19	21.46	-52.6	-54.9	14.2	0.00e+00	0	28	0	831520768	70	4976
2026-01-04 06:24:18.02	346.96	21.40	-52.6	-54.9	14.2	0.00e+00	0	28	0	833617920	70	4934
2026-01-04 06:24:19.02	346.74	21.33	-52.4	-54.6	14.3	0.00e+00	0	28	0	835715072	70	4799
2026-01-04 06:24:20.02	346.51	21.26	-52.2	-54.3	14.4	0.00e+00	0	29	0	836763648	70	4641
2026-01-04 06:24:21.03	346.28	21.19	-52.2	-54.2	14.5	0.00e+00	0	28	0	838860800	70	4596
2026-01-04 06:24:22.03	346.06	21.12	-51.8	-53.7	14.7	0.00e+00	0	28	0	840957952	70	4300
2026-01-04 06:24:23.03	345.84	21.05	-51.3	-53.1	14.8	0.00e+00	0	29	0	843055104	69	4268
2026-01-04 06:24:24.03	345.61	20.99	-51.0	-52.7	14.8	0.00e+00	0	28	0	845152256	68	4327
2026-01-04 06:24:25.03	345.39	20.92	-50.8	-52.5	14.9	0.00e+00	0	29	0	846200832	68	4229
2026-01-04 06:24:26.03	345.17	20.85	-51.0	-52.7	14.9	0.00e+00	0	28	0	848297984	68	4326
2026-01-04 06:24:27.02	344.95	20.78	-51.0	-52.7	14.8	0.00e+00	0	28	0	850395136	68	4334
2026-01-04 06:24:28.02	344.74	20.71	-51.3	-53.2	14.6	0.00e+00	0	28	0	852492288	68	4549
2026-01-04 06:24:29.01	344.52	20.64	-51.4	-53.2	14.6	0.00e+00	0	29	0	853540864	68	4598
2026-01-04 06:24:30.01	344.31	20.57	-51.7	-53.6	14.5	0.00e+00	0	28	0	855638016	68	4813
2026-01-04 06:24:31.02	344.09	20.50	-51.7	-53.7	14.5	0.00e+00	0	29	0	857735168	68	4852
2026-01-04 06:24:32.02	343.87	20.43	-51.9	-54.0	14.4	0.00e+00	0	29	0	859832320	69	4717
2026-01-04 06:24:33.02	343.66	20.36	-51.8	-53.9	14.5	0.00e+00	0	28	0	861929472	69	4652
2026-01-04 06:24:34.02	343.45	20.28	-52.0	-54.1	14.4	0.00e+00	0	28	0	862978048	69	4787
2026-01-04 06:24:35.02	343.24	20.21	-52.1	-54.2	14.4	0.00e+00	0	28	0	865075200	69	4848
2026-01-04 06:24:36.01	343.03	20.14	-52.1	-54.3	14.3	0.00e+00	0	29	0	867172352	69	4893
2026-01-04 06:24:37.01	342.82	20.07	-52.1	-54.2	14.4	0.00e+00	0	28	0	869269504	69	4850
2026-01-04 06:24:38.00	342.61	20.00	-52.0	-54.1	14.4	0.00e+00	0	29	0	871366656	69	4784
2026-01-04 06:24:38.99	342.41	19.93	-52.1	-54.2	14.3	0.00e+00	0	28	0	872415232	69	4859
2026-01-04 06:24:39.98	342.20	19.86	-52.0	-54.2	14.4	0.00e+00	0	28	0	874512384	69	4822
2026-01-04 06:24:40.99	342.00	19.78	-52.0	-54.1	14.4	0.00e+00	0	28	0	876609536	69	4813
2026-01-04 06:24:41.98	341.80	19.71	-51.9	-54.0	14.4	0.00e+00	0	29	0	878706688	69	4739
2026-01-04 06:24:42.98	341.59	19.64	-51.7	-53.8	14.5	0.00e+00	0	28	0	879755264	69	4617
2026-01-04 06:24:43.98	341.39	19.56	-51.4	-53.4	14.7	0.00e+00	0	29	0	881852416	69	4402
2026-01-04 06:24:44.98	341.19	19.49	-51.5	-53.5	14.6	0.00e+00	0	28	0	883949568	69	4469
2026-01-04 06:24:45.98	340.99	19.42	-51.6	-53.6	14.6	0.00e+00	0	29	0	886046720	69	4522
2026-01-04 06:24:46.97	340.79	19.34	-51.9	-53.9	14.5	0.00e+00	0	29	0	888143872	69	4678
2026-01-04 06:24:47.97	340.59	19.27	-52.1	-54.2	14.4	0.00e+00	0	29	0	889192448	69	4833
2026-01-04 06:24:48.97	340.39	19.20	-52.1	-54.2	14.4	0.00e+00	0	29	0	891289600	69	4839
2026-01-04 06:24:49.97	340.20	19.12	-52.0	-54.1	14.4	0.00e+00	0	29	0	893386752	69	4783
2026-01-04 06:24:50.97	340.00	19.05	-51.8	-53.8	14.5	0.00e+00	0	29	0	895483904	69	4612
2026-01-04 06:24:51.97	339.81	18.97	-51.6	-53.5	14.7	0.00e+00	0	28	0	896532480	69	4469
2026-01-04 06:24:52.97	339.61	18.90	-51.4	-53.2	14.8	0.00e+00	0	28	0	898629632	69	4318
2026-01-04 06:24:53.98	339.42	18.83	-51.6	-53.5	14.6	0.00e+00	0	29	0	900726784	69	4464
2026-01-04 06:24:54.98	339.23	18.75	-51.8	-53.8	14.5	0.00e+00	0	29	0	902823936	69	4633
2026-01-04 06:24:55.97	339.04	18.68	-52.1	-54.2	14.4	0.00e+00	0	29	0	904921088	69	4830
2026-01-04 06:24:56.96	338.85	18.60	-52.1	-54.1	14.4	0.00e+00	0	29	0	905969664	69	4796
2026-01-04 06:24:57.96	338.66	18.53	-52.0	-54.0	14.5	0.00e+00	0	28	0	908066816	69	4716
2026-01-04 06:24:58.96	338.47	18.45	-51.7	-53.7	14.6	0.00e+00	0	28	0	910163968	69	4555
2026-01-04 06:24:59.96	338.29	18.38	-51.7	-53.6	14.6	0.00e+00	0	28	0	912261120	69	4505
2026-01-04 06:25:00.97	338.10	18.30	-51.5	-53.3	14.7	0.00e+00	0	28	0	914358272	69	4366
2026-01-04 06:25:01.97	337.91	18.23	-51.4	-53.2	14.7	0.00e+00	0	28	0	915406848	69	4334
2026-01-04 06:25:02.97	337.73	18.15	-51.3	-53.1	14.8	0.00e+00	0	29	0	917504000	69	4275
2026-01-04 06:25:03.97	337.55	18.08	-51.3	-53.0	14.9	0.00e+00	0	29	0	919601152	69	4223
2026-01-04 06:25:04.97	337.37	18.00	-51.3	-53.1	14.8	0.00e+00	0	28	0	921698304	69	4264
2026-01-04 06:25:05.97	337.18	17.92	-51.4	-53.2	14.8	0.00e+00	0	28	0	923795456	69	4328
2026-01-04 06:25:06.97	337.00	17.85	-51.4	-53.2	14.8	0.00e+00	0	29	0	924844032	69	4293
2026-01-04 06:25:07.97	336.82	17.77	-51.5	-53.3	14.7	0.00e+00	0	29	0	926941184	69	4346
2026-01-04 06:25:08.96	336.65	17.70	-51.6	-53.5	14.7	0.00e+00	0	28	0	929038336	69	4460
2026-01-04 06:25:09.96	336.47	17.62	-51.9	-53.9	14.5	0.00e+00	0	28	0	931135488	69	4657
2026-01-04 06:25:10.97	336.29	17.55	-52.0	-54.0	14.5	0.00e+00	0	28	0	932184064	69	4719
2026-01-04 06:25:11.96	336.12	17.47	-51.9	-53.8	14.5	0.00e+00	0	28	0	934281216	69	4623
2026-01-04 06:25:12.96	335.94	17.39	-51.8	-53.6	14.6	0.00e+00	0	29	0	936378368	69	4522
2026-01-04 06:25:13.96	335.77	17.32	-51.6	-53.3	14.7	0.00e+00	0	29	0	938475520	69	4382
2026-01-04 06:25:14.96	335.59	17.24	-51.4	-53.1	14.8	0.00e+00	0	28	0	940572672	69	4267
2026-01-04 06:25:15.97	335.42	17.17	-51.3	-53.0	14.8	0.00e+00	0	29	0	941621248	69	4234
2026-01-04 06:25:16.96	335.25	17.09	-51.3	-53.0	14.9	0.00e+00	0	28	0	943718400	69	4212
2026-01-04 06:25:17.96	335.08	17.01	-51.3	-53.1	14.8	0.00e+00	0	28	0	945815552	69	4247
2026-01-04 06:25:18.96	334.91	16.94	-51.4	-53.1	14.8	0.00e+00	0	29	0	947912704	69	4269
2026-01-04 06:25:19.96	334.74	16.86	-51.4	-53.2	14.8	0.00e+00	0	28	0	950009856	69	4307
2026-01-04 06:25:20.96	334.57	16.79	-51.6	-53.4	14.7	0.00e+00	0	28	0	951058432	69	4413
2026-01-04 06:25:21.96	334.41	16.71	-51.6	-53.4	14.7	0.00e+00	0	29	0	953155584	69	4435
2026-01-04 06:25:22.96	334.24	16.63	-51.6	-53.4	14.7	0.00e+00	0	29	0	955252736	69	4410
2026-01-04 06:25:23.95	334.08	16.56	-51.7	-53.5	14.7	0.00e+00	0	28	0	957349888	69	4476
2026-01-04 06:25:24.95	333.91	16.48	-51.9	-53.7	14.6	0.00e+00	0	29	0	959447040	69	4586
2026-01-04 06:25:25.95	333.75	16.41	-52.0	-53.8	14.5	0.00e+00	0	29	0	960495616	69	4644
2026-01-04 06:25:26.95	333.58	16.33	-51.7	-53.5	14.6	0.00e+00	0	28	0	962592768	69	4477
2026-01-04 06:25:27.94	333.42	16.25	-51.6	-53.4	14.7	0.00e+00	0	28	0	964689920	69	4436
2026-01-04 06:25:28.94	333.26	16.18	-51.2	-52.9	14.9	0.00e+00	0	29	0	966787072	69	4186
2026-01-04 06:25:29.94	333.10	16.10	-51.0	-52.6	14.8	0.00e+00	0	29	0	967835648	68	4274
2026-01-04 06:25:30.94	332.94	16.03	-50.9	-52.5	14.9	0.00e+00	0	28	0	969932800	68	4232
2026-01-04 06:25:31.93	332.79	15.95	-51.0	-52.6	14.9	0.00e+00	0	29	0	972029952	68	4264
2026-01-04 06:25:32.93	332.63	15.87	-50.9	-52.6	14.9	0.00e+00	0	28	0	974127104	68	4258
2026-01-04 06:25:33.93	332.47	15.80	-51.2	-52.9	14.8	0.00e+00	0	29	0	976224256	68	4401
2026-01-04 06:25:34.92	332.32	15.72	-51.6	-53.4	14.6	0.00e+00	0	28	0	977272832	68	4669
2026-01-04 06:25:35.91	332.16	15.65	-51.8	-53.7	14.5	0.00e+00	0	29	0	979369984	68	4842
2026-01-04 06:25:36.91	332.01	15.57	-52.2	-54.1	14.4	0.00e+00	0	29	0	981467136	69	4788
2026-01-04 06:25:37.90	331.86	15.50	-52.2	-54.1	14.4	0.00e+00	0	28	0	983564288	69	4806
2026-01-04 06:25:38.90	331.70	15.42	-52.2	-54.2	14.4	0.00e+00	0	28	0	984612864	69	4818
2026-01-04 06:25:39.89	331.55	15.34	-52.0	-53.9	14.5	0.00e+00	0	29	0	986710016	69	4660
2026-01-04 06:25:40.88	331.40	15.27	-52.1	-54.1	14.4	0.00e+00	0	28	0	988807168	69	4763
2026-01-04 06:25:41.88	331.25	15.19	-51.8	-53.7	14.6	0.00e+00	0	28	0	990904320	69	4567
2026-01-04 06:25:42.88	331.10	15.12	-51.8	-53.6	14.6	0.00e+00	0	29	0	993001472	69	4526
2026-01-04 06:25:43.88	330.95	15.04	-51.7	-53.5	14.6	0.00e+00	0	28	0	994050048	69	4487
2026-01-04 06:25:44.88	330.80	14.97	-51.7	-53.5	14.6	0.00e+00	0	28	0	996147200	69	4451
2026-01-04 06:25:45.88	330.66	14.89	-51.5	-53.2	14.7	0.00e+00	0	29	0	998244352	69	4337
2026-01-04 06:25:46.88	330.51	14.81	-51.3	-53.1	14.8	0.00e+00	0	28	0	1000341504	69	4253
2026-01-04 06:25:47.87	330.36	14.74	-51.4	-53.1	14.8	0.00e+00	0	29	0	1001390080	69	4260
2026-01-04 06:25:48.87	330.22	14.66	-51.4	-53.1	14.8	0.00e+00	0	29	0	1003487232	69	4267
2026-01-04 06:25:49.86	330.08	14.59	-51.4	-53.2	14.8	0.00e+00	0	29	0	1005584384	69	4306
2026-01-04 06:25:50.86	329.93	14.51	-51.7	-53.5	14.6	0.00e+00	0	28	0	1007681536	69	4482
2026-01-04 06:25:51.86	329.79	14.44	-51.9	-53.8	14.5	0.00e+00	0	29	0	1009778688	69	4600
2026-01-04 06:25:52.85	329.65	14.36	-52.1	-54.0	14.4	0.00e+00	0	28	0	1010827264	69	4744
2026-01-04 06:25:53.86	329.50	14.29	-52.4	-54.4	14.3	0.00e+00	0	29	0	1012924416	69	4928
2026-01-04 06:25:54.85	329.37	14.21	-52.8	-54.9	14.2	0.00e+00	0	28	0	1015021568	70	4934
2026-01-04 06:25:55.85	329.23	14.14	-52.7	-54.8	14.2	0.00e+00	0	29	0	1017118720	70	4916
2026-01-04 06:25:56.85	329.09	14.06	-53.0	-55.2	14.2	0.00e+00	0	28	0	1019215872	71	4833
2026-01-04 06:25:57.85	328.95	13.99	-52.8	-55.0	14.2	0.00e+00	0	28	0	1020264448	71	4713
2026-01-04 06:25:58.85	328.81	13.91	-52.7	-54.7	14.3	0.00e+00	0	28	0	1022361600	71	4597
2026-01-04 06:25:59.85	328.67	13.84	-52.6	-54.7	14.3	0.00e+00	0	28	0	1024458752	71	4567
2026-01-04 06:26:00.84	328.54	13.76	-52.2	-54.1	14.6	0.00e+00	0	29	0	1026555904	71	4272
2026-01-04 06:26:01.84	328.40	13.69	-52.0	-53.9	14.6	0.00e+00	0	29	0	1027604480	70	4409
2026-01-04 06:26:02.84	328.27	13.61	-51.7	-53.5	14.7	0.00e+00	0	28	0	1029701632	70	4230
2026-01-04 06:26:03.85	328.13	13.54	-51.8	-53.7	14.7	0.00e+00	0	28	0	1031798784	70	4292
2026-01-04 06:26:04.85	328.00	13.46	-51.6	-53.3	14.7	0.00e+00	0	29	0	1033895936	69	4381
2026-01-04 06:26:05.85	327.86	13.39	-51.7	-53.5	14.6	0.00e+00	0	28	0	1035993088	69	4475
2026-01-04 06:26:06.85	327.73	13.31	-51.9	-53.7	14.6	0.00e+00	0	29	0	1037041664	69	4562
2026-01-04 06:26:07.85	327.60	13.24	-51.7	-53.6	14.6	0.00e+00	0	29	0	1039138816	69	4494
2026-01-04 06:26:08.85	327.47	13.16	-51.9	-53.7	14.5	0.00e+00	0	28	0	1041235968	69	4591
2026-01-04 06:26:09.84	327.34	13.09	-51.9	-53.8	14.5	0.00e+00	0	29	0	1043333120	69	4607
2026-01-04 06:26:10.84	327.21	13.02	-52.0	-53.9	14.5	0.00e+00	0	28	0	1044381696	69	4688
2026-01-04 06:26:11.83	327.08	12.94	-51.9	-53.7	14.6	0.00e+00	0	29	0	1046478848	69	4566
2026-01-04 06:26:12.83	326.95	12.87	-52.0	-53.8	14.5	0.00e+00	0	28	0	1048576000	69	4645
2026-01-04 06:26:13.84	326.82	12.79	-51.8	-53.6	14.5	0.00e+00	0	29	0	1050673152	69	4544
2026-01-04 06:26:14.84	326.70	12.72	-51.8	-53.7	14.5	0.00e+00	0	29	0	1052770304	69	4553
2026-01-04 06:26:15.84	326.57	12.65	-52.0	-53.9	14.5	0.00e+00	0	29	0	1053818880	69	4654
2026-01-04 06:26:16.83	326.45	12.57	-52.0	-53.9	14.4	0.00e+00	0	29	0	1055916032	69	4683
2026-01-04 06:26:17.83	326.32	12.50	-52.2	-54.2	14.4	0.00e+00	0	29	0	1058013184	69	4845
2026-01-04 06:26:18.84	326.19	12.42	-52.2	-54.2	14.4	0.00e+00	0	29	0	1060110336	69	4837
2026-01-04 06:26:19.83	326.07	12.35	-52.4	-54.5	14.3	0.00e+00	0	28	0	1062207488	69	4986
2026-01-04 06:26:20.83	325.95	12.28	-52.4	-54.4	14.4	0.00e+00	0	29	0	1063256064	70	4694
2026-01-04 06:26:21.83	325.83	12.20	-52.5	-54.6	14.3	0.00e+00	0	29	0	1065353216	70	4810
2026-01-04 06:26:22.83	325.70	12.13	-52.6	-54.7	14.2	0.00e+00	0	28	0	1067450368	70	4833
2026-01-04 06:26:23.84	325.58	12.06	-52.5	-54.6	14.3	0.00e+00	0	29	0	1069547520	70	4800
2026-01-04 06:26:24.84	325.46	11.98	-52.7	-54.8	14.2	0.00e+00	0	28	0	1071644672	70	4895
2026-01-04 06:26:25.83	325.34	11.91	-52.7	-54.8	14.2	0.00e+00	0	28	0	1072693248	70	4906
2026-01-04 06:26:26.83	325.22	11.84	-52.9	-55.1	14.0	0.00e+00	0	28	0	1074790400	70	5066
2026-01-04 06:26:27.83	325.10	11.77	-52.9	-55.1	14.0	0.00e+00	0	29	0	1076887552	70	5067
2026-01-04 06:26:28.82	324.99	11.69	-53.0	-55.3	14.0	0.00e+00	0	29	0	1078984704	71	4874
2026-01-04 06:26:29.82	324.87	11.62	-53.1	-55.4	14.0	0.00e+00	0	28	0	1080033280	71	4969
2026-01-04 06:26:30.81	324.75	11.55	-53.2	-55.5	13.9	0.00e+00	0	29	0	1082130432	71	5025
2026-01-04 06:26:31.81	324.64	11.48	-53.4	-55.8	13.8	0.00e+00	0	28	0	1084227584	71	5190
2026-01-04 06:26:32.80	324.52	11.41	-53.2	-55.6	13.9	0.00e+00	0	29	0	1086324736	71	5051
2026-01-04 06:26:33.80	324.41	11.33	-53.1	-55.4	14.0	0.00e+00	0	28	0	1088421888	71	4975
2026-01-04 06:26:34.79	324.29	11.26	-53.0	-55.3	14.0	0.00e+00	0	29	0	1089470464	71	4897
2026-01-04 06:26:35.79	324.18	11.19	-53.1	-55.3	14.0	0.00e+00	0	29	0	1091567616	71	4916
2026-01-04 06:26:36.79	324.06	11.12	-52.9	-55.1	14.1	0.00e+00	0	29	0	1093664768	71	4794
2026-01-04 06:26:37.78	323.95	11.05	-52.8	-54.9	14.2	0.00e+00	0	29	0	1095761920	71	4661
2026-01-04 06:26:38.78	323.84	10.98	-52.6	-54.7	14.3	0.00e+00	0	29	0	1096810496	71	4554
2026-01-04 06:26:39.77	323.73	10.90	-52.5	-54.6	14.4	0.00e+00	0	28	0	1098907648	71	4506
2026-01-04 06:26:40.77	323.62	10.83	-52.5	-54.6	14.4	0.00e+00	0	28	0	1101004800	71	4497
2026-01-04 06:26:41.77	323.51	10.76	-52.6	-54.6	14.3	0.00e+00	0	29	0	1103101952	71	4529
2026-01-04 06:26:42.76	323.40	10.69	-52.8	-54.9	14.2	0.00e+00	0	29	0	1105199104	71	4669
2026-01-04 06:26:43.77	323.29	10.62	-52.8	-54.9	14.2	0.00e+00	0	28	0	1106247680	71	4687
2026-01-04 06:26:44.76	323.18	10.55	-53.0	-55.1	14.1	0.00e+00	0	29	0	1108344832	71	4811
2026-01-04 06:26:45.77	323.07	10.48	-53.1	-55.3	14.0	0.00e+00	0	29	0	1110441984	71	4922
2026-01-04 06:26:46.77	322.96	10.41	-53.3	-55.6	13.9	0.00e+00	0	29	0	1112539136	71	5048
2026-01-04 06:26:47.77	322.85	10.34	-53.4	-55.8	13.8	0.00e+00	0	29	0	1114636288	71	5175
2026-01-04 06:26:48.77	322.75	10.26	-53.5	-55.9	13.8	0.00e+00	0	29	0	1115684864	72	4961
2026-01-04 06:26:49.76	322.64	10.19	-53.5	-56.0	13.8	0.00e+00	0	28	0	1117782016	72	4991
2026-01-04 06:26:50.76	322.54	10.12	-53.4	-55.8	13.9	0.00e+00	0	29	0	1119879168	72	4885
2026-01-04 06:26:51.75	322.43	10.05	-53.5	-55.9	13.8	0.00e+00	0	29	0	1121976320	72	4939
2026-01-04 06:26:52.75	322.33	9.98	-53.4	-55.7	13.9	0.00e+00	0	29	0	1123024896	72	4861
2026-01-04 06:26:53.76	322.22	9.91	-53.2	-55.5	14.0	0.00e+00	0	28	0	1125122048	72	4748
2026-01-04 06:26:54.76	322.12	9.84	-53.1	-55.4	14.1	0.00e+00	0	29	0	1127219200	72	4657
2026-01-04 06:26:55.76	322.01	9.77	-53.0	-55.2	14.1	0.00e+00	0	29	0	1129316352	72	4573
2026-01-04 06:26:56.76	321.91	9.70	-52.9	-55.0	14.2	0.00e+00	0	29	0	1131413504	72	4493
2026-01-04 06:26:57.75	321.81	9.63	-52.9	-55.0	14.2	0.00e+00	0	29	0	1132462080	72	4485
2026-01-04 06:26:58.76	321.71	9.56	-53.0	-55.2	14.2	0.00e+00	0	29	0	1134559232	72	4558
2026-01-04 06:26:59.75	321.61	9.50	-52.9	-55.1	14.2	0.00e+00	0	29	0	1136656384	72	4505
2026-01-04 06:27:00.75	321.51	9.43	-52.9	-55.1	14.1	0.00e+00	0	28	0	1138753536	72	4528
2026-01-04 06:27:01.76	321.40	9.36	-53.0	-55.3	14.1	0.00e+00	0	29	0	1140850688	72	4607
2026-01-04 06:27:02.75	321.31	9.29	-53.1	-55.4	14.1	0.00e+00	0	28	0	1141899264	72	4653
2026-01-04 06:27:03.75	321.21	9.22	-53.2	-55.5	14.0	0.00e+00	0	29	0	1143996416	72	4755
2026-01-04 06:27:04.75	321.11	9.15	-53.4	-55.8	13.8	0.00e+00	0	28	0	1146093568	72	4913
2026-01-04 06:27:05.75	321.01	9.08	-53.5	-55.9	13.8	0.00e+00	0	29	0	1148190720	72	4959
2026-01-04 06:27:06.74	320.91	9.01	-53.8	-56.4	13.6	0.00e+00	0	28	0	1149239296	72	5224
2026-01-04 06:27:07.74	320.81	8.94	-53.9	-56.5	13.5	0.00e+00	0	28	0	1151336448	72	5320
2026-01-04 06:27:08.74	320.72	8.87	-53.7	-56.2	13.6	0.00e+00	0	29	0	1153433600	72	5133
2026-01-04 06:27:09.74	320.62	8.81	-53.9	-56.6	13.5	0.00e+00	0	29	0	1155530752	73	5048
2026-01-04 06:27:10.74	320.53	8.74	-54.1	-56.8	13.4	0.00e+00	0	28	0	1157627904	73	5207
2026-01-04 06:27:11.75	320.43	8.67	-54.1	-56.9	13.4	0.00e+00	0	29	0	1158676480	73	5231
2026-01-04 06:27:12.74	320.33	8.60	-54.2	-57.0	13.3	0.00e+00	0	29	0	1160773632	73	5302
2026-01-04 06:27:13.75	320.24	8.53	-54.1	-56.9	13.3	0.00e+00	0	29	0	1162870784	73	5272
2026-01-04 06:27:14.76	320.14	8.46	-54.1	-56.9	13.3	0.00e+00	0	29	0	1164967936	73	5278
2026-01-04 06:27:15.76	320.05	8.40	-54.2	-57.1	13.2	0.00e+00	0	28	0	1167065088	73	5362
2026-01-04 06:27:16.75	319.96	8.33	-54.3	-57.2	13.2	0.00e+00	0	29	0	1168113664	73	5405
2026-01-04 06:27:17.75	319.86	8.26	-54.2	-57.0	13.3	0.00e+00	0	28	0	1170210816	73	5316
2026-01-04 06:27:18.75	319.77	8.19	-54.2	-57.0	13.2	0.00e+00	0	29	0	1172307968	73	5315
2026-01-04 06:27:19.75	319.68	8.13	-54.2	-57.1	13.3	0.00e+00	0	29	0	1174405120	73	5342
2026-01-04 06:27:20.75	319.59	8.06	-54.1	-56.9	13.3	0.00e+00	0	28	0	1176502272	73	5240
2026-01-04 06:27:21.75	319.50	7.99	-54.2	-57.1	13.2	0.00e+00	0	29	0	1177550848	73	5365
2026-01-04 06:27:22.76	319.41	7.92	-54.2	-57.1	13.2	0.00e+00	0	29	0	1179648000	73	5361
2026-01-04 06:27:23.76	319.32	7.86	-54.1	-56.8	13.3	0.00e+00	0	29	0	1181745152	73	5202
2026-01-04 06:27:24.75	319.23	7.79	-54.2	-57.0	13.2	0.00e+00	0	29	0	1183842304	73	5324
2026-01-04 06:27:25.75	319.14	7.72	-54.2	-57.0	13.2	0.00e+00	0	29	0	1185939456	73	5317
2026-01-04 06:27:26.75	319.05	7.66	-54.1	-56.9	13.3	0.00e+00	0	29	0	1186988032	73	5239
2026-01-04 06:27:27.75	318.96	7.59	-54.2	-57.0	13.2	0.00e+00	0	29	0	1189085184	73	5304
2026-01-04 06:27:28.75	318.87	7.52	-54.4	-57.3	13.1	0.00e+00	0	28	0	1191182336	73	5478
2026-01-04 06:27:29.75	318.79	7.46	-54.3	-57.2	13.1	0.00e+00	0	29	0	1193279488	73	5440
2026-01-04 06:27:30.74	318.70	7.39	-54.5	-57.5	13.0	0.00e+00	0	28	0	1194328064	74	5340
2026-01-04 06:27:31.74	318.61	7.33	-54.5	-57.5	13.1	0.00e+00	0	29	0	1196425216	74	5282
2026-01-04 06:27:32.74	318.53	7.26	-54.5	-57.6	12.9	0.00e+00	0	28	0	1198522368	74	5359
2026-01-04 06:27:33.73	318.44	7.20	-54.7	-57.8	12.9	0.00e+00	0	29	0	1200619520	74	5528
2026-01-04 06:27:34.73	318.35	7.13	-54.8	-58.1	12.7	0.00e+00	0	28	0	1202716672	74	5683
2026-01-04 06:27:35.73	318.27	7.06	-54.9	-58.2	12.6	0.00e+00	0	29	0	1203765248	74	5766
2026-01-04 06:27:36.73	318.18	7.00	-54.9	-58.3	12.6	7.00e-07	0	29	0	1205862400	75	5494
2026-01-04 06:27:37.73	318.10	6.93	-54.9	-58.2	12.7	0.00e+00	0	29	0	1207959552	75	5428
2026-01-04 06:27:38.73	318.02	6.87	-54.8	-58.1	12.8	0.00e+00	0	29	0	1210056704	75	5370
2026-01-04 06:27:39.73	317.93	6.80	-54.8	-58.0	12.8	0.00e+00	0	28	0	1211105280	75	5331
