passes_logs/2026/01/04/R3.2S_Murmansk/R3.2S_Murmansk__20260104_145105_AQUA_rec.log

#Pass ID: 20260104_145105_AQUA
#Satellite: AQUA
#Configuration: AQUA
#almurnet v.1.7.20251203
#Start time: 2026-01-04 14:51:06

#Version: 2.2.20231116
#Station: R3.2S_Murmansk
#Location: 33.079688 lon 68.888172 lat
#TLE: 1 27424U 02022A   26003.93831471  .00001925  00000+0  39553-3 0  9996
#TLE: 2 27424  98.4067 330.1809 0002002  92.1714 343.8415 14.61796291259276

#Time	Az	El	Level	Level2	SNR	BER	BlckErr	Temp	State	Recorded	gain1	gain2
2026-01-04 14:51:06.42	252.83	2.03	-58.6	-78.0	3.8	7.47e-01	0	27	0	0	86	32647
2026-01-04 14:51:07.42	252.95	2.07	-58.6	-77.9	3.8	7.45e-01	0	27	104	0	84	36501
2026-01-04 14:51:08.41	253.08	2.11	-58.6	-77.9	3.8	7.47e-01	0	27	104	0	84	36518
2026-01-04 14:51:09.41	253.20	2.15	-58.6	-78.0	3.8	7.48e-01	0	27	104	0	84	36546
2026-01-04 14:51:10.41	253.32	2.19	-58.6	-77.9	3.8	7.45e-01	0	27	104	0	84	36478
2026-01-04 14:51:11.40	253.44	2.23	-58.6	-77.9	3.8	7.48e-01	0	27	104	0	84	36491
2026-01-04 14:51:12.39	253.57	2.27	-58.6	-77.9	3.8	7.46e-01	0	27	104	0	84	36471
2026-01-04 14:51:13.39	253.69	2.31	-58.6	-77.9	3.8	7.42e-01	0	27	104	0	84	36468
2026-01-04 14:51:14.39	253.82	2.35	-58.6	-78.0	3.8	7.46e-01	0	27	104	0	84	36561
2026-01-04 14:51:15.38	253.94	2.39	-58.6	-77.9	3.8	7.47e-01	0	27	104	0	84	36506
2026-01-04 14:51:16.38	254.06	2.43	-58.6	-77.9	3.8	7.47e-01	0	27	104	0	84	36464
2026-01-04 14:51:17.37	254.19	2.47	-58.6	-78.0	3.8	7.44e-01	0	27	104	0	84	36640
2026-01-04 14:51:18.36	254.31	2.51	-58.6	-78.0	3.8	7.44e-01	0	27	104	0	84	36600
2026-01-04 14:51:19.35	254.44	2.55	-58.6	-78.0	3.8	7.46e-01	0	27	104	0	84	36584
2026-01-04 14:51:20.35	254.57	2.59	-58.6	-77.9	3.8	7.47e-01	0	27	104	0	84	36520
2026-01-04 14:51:21.35	254.69	2.63	-58.6	-77.9	3.8	7.47e-01	0	27	104	0	84	36520
2026-01-04 14:51:22.35	254.82	2.66	-58.6	-77.9	3.8	7.47e-01	0	27	104	0	84	36470
2026-01-04 14:51:23.34	254.95	2.70	-58.6	-77.9	3.9	7.46e-01	0	27	104	0	84	36438
2026-01-04 14:51:24.34	255.07	2.74	-58.6	-77.9	3.8	7.50e-01	0	27	104	0	84	36425
2026-01-04 14:51:25.34	255.20	2.78	-58.6	-77.9	3.8	7.47e-01	0	28	104	0	84	36434
2026-01-04 14:51:26.34	255.33	2.82	-58.6	-77.9	3.8	7.46e-01	0	27	104	0	84	36414
2026-01-04 14:51:27.34	255.46	2.86	-58.6	-77.9	3.8	7.47e-01	0	28	104	0	84	36510
2026-01-04 14:51:28.34	255.59	2.90	-58.6	-78.0	3.8	7.44e-01	0	28	104	0	84	36558
2026-01-04 14:51:29.34	255.72	2.94	-58.6	-78.0	3.8	7.47e-01	0	27	104	0	84	36610
2026-01-04 14:51:30.35	255.85	2.98	-58.6	-78.0	3.8	7.44e-01	0	28	104	0	84	36623
2026-01-04 14:51:31.34	255.98	3.02	-58.6	-78.0	3.8	7.47e-01	0	28	104	0	84	36651
2026-01-04 14:51:32.35	256.11	3.06	-58.6	-78.0	3.8	7.44e-01	0	28	104	0	84	36542
2026-01-04 14:51:33.34	256.24	3.10	-58.6	-77.9	3.8	7.43e-01	0	27	104	0	84	36286
2026-01-04 14:51:34.34	256.38	3.14	-58.6	-77.9	3.8	7.45e-01	0	28	104	0	84	36271
2026-01-04 14:51:35.35	256.51	3.18	-58.6	-77.9	3.8	7.47e-01	0	28	104	0	84	36289
2026-01-04 14:51:36.35	256.64	3.22	-58.6	-77.9	3.8	7.48e-01	0	28	104	0	84	36424
2026-01-04 14:51:37.34	256.77	3.25	-58.6	-78.0	3.8	7.46e-01	0	28	104	0	84	36556
2026-01-04 14:51:38.34	256.91	3.29	-58.6	-78.0	3.8	7.47e-01	0	28	104	0	84	36652
2026-01-04 14:51:39.33	257.04	3.33	-58.6	-78.0	3.8	7.47e-01	0	28	104	0	84	36687
2026-01-04 14:51:40.33	257.17	3.37	-58.6	-78.0	3.8	7.48e-01	0	28	104	0	84	36655
2026-01-04 14:51:41.33	257.31	3.41	-58.6	-77.9	3.8	7.43e-01	0	28	104	0	84	36461
2026-01-04 14:51:42.33	257.44	3.45	-58.6	-77.9	3.8	7.47e-01	0	28	104	0	84	36341
2026-01-04 14:51:43.33	257.58	3.49	-58.6	-77.8	3.8	7.43e-01	0	28	104	0	84	35726
2026-01-04 14:51:44.33	257.71	3.53	-58.6	-77.6	3.8	7.44e-01	0	28	104	0	84	35231
2026-01-04 14:51:45.33	257.85	3.56	-58.6	-77.7	3.8	7.47e-01	0	28	104	0	84	35304
2026-01-04 14:51:46.33	257.99	3.60	-58.6	-77.7	3.8	7.47e-01	0	28	104	0	84	35371
2026-01-04 14:51:47.34	258.12	3.64	-58.6	-77.8	3.8	7.49e-01	0	28	104	0	84	35928
2026-01-04 14:51:48.34	258.26	3.68	-58.6	-77.9	3.8	7.49e-01	0	28	104	0	84	36513
2026-01-04 14:51:49.34	258.40	3.72	-58.6	-78.0	3.8	7.49e-01	0	28	104	0	84	36554
2026-01-04 14:51:50.34	258.54	3.76	-58.6	-78.0	3.8	7.46e-01	0	28	104	0	84	36585
2026-01-04 14:51:51.33	258.67	3.79	-58.6	-78.0	3.8	7.46e-01	0	28	104	0	84	36562
2026-01-04 14:51:52.33	258.81	3.83	-58.6	-77.9	3.8	7.46e-01	0	28	104	0	84	36114
2026-01-04 14:51:53.33	258.95	3.87	-58.6	-77.7	3.8	7.48e-01	0	28	104	0	84	35300
2026-01-04 14:51:54.33	259.09	3.91	-58.6	-77.2	3.8	7.47e-01	0	28	104	0	84	33679
2026-01-04 14:51:55.33	259.23	3.95	-58.6	-77.2	3.9	7.44e-01	0	28	104	0	84	33551
2026-01-04 14:51:56.32	259.37	3.98	-58.6	-77.2	3.8	7.42e-01	0	28	104	0	84	33555
2026-01-04 14:51:57.33	259.51	4.02	-58.6	-77.3	3.8	7.46e-01	0	28	104	0	84	33698
2026-01-04 14:51:58.33	259.65	4.06	-58.6	-77.3	3.8	7.44e-01	0	28	104	0	84	34076
2026-01-04 14:51:59.33	259.79	4.10	-58.6	-77.5	3.8	7.47e-01	0	28	104	0	84	34630
2026-01-04 14:52:00.32	259.93	4.13	-58.6	-77.7	3.8	7.47e-01	0	28	104	0	84	35625
2026-01-04 14:52:01.32	260.07	4.17	-58.6	-77.9	3.8	7.49e-01	0	28	104	0	84	36165
2026-01-04 14:52:02.31	260.22	4.21	-58.6	-77.8	3.8	7.49e-01	0	28	104	0	84	35826
2026-01-04 14:52:03.32	260.36	4.25	-58.6	-77.4	3.8	7.48e-01	0	28	104	0	84	34184
2026-01-04 14:52:04.32	260.50	4.28	-58.6	-77.1	3.8	7.45e-01	0	28	104	0	84	33180
2026-01-04 14:52:05.33	260.65	4.32	-58.6	-76.9	3.8	7.43e-01	0	28	104	0	84	32484
2026-01-04 14:52:06.33	260.79	4.36	-58.6	-77.2	3.9	7.47e-01	0	28	104	0	84	33507
2026-01-04 14:52:07.32	260.93	4.39	-58.6	-77.7	3.9	7.47e-01	0	28	104	0	85	33525
2026-01-04 14:52:08.32	261.08	4.43	-58.6	-78.0	3.8	7.47e-01	0	28	104	0	85	34498
2026-01-04 14:52:09.32	261.22	4.47	-58.6	-77.9	3.8	7.46e-01	0	28	104	0	85	34133
2026-01-04 14:52:10.32	261.37	4.50	-58.6	-77.6	3.8	7.47e-01	0	28	104	0	85	32976
2026-01-04 14:52:11.32	261.52	4.54	-58.6	-77.2	3.8	7.48e-01	0	28	104	0	85	31701
2026-01-04 14:52:12.32	261.66	4.58	-58.6	-77.0	3.9	7.49e-01	0	28	104	0	85	30744
2026-01-04 14:52:13.31	261.81	4.61	-58.6	-77.4	3.8	7.48e-01	0	28	104	0	85	32452
2026-01-04 14:52:14.31	261.95	4.65	-58.6	-77.2	3.8	7.46e-01	0	28	104	0	85	31556
2026-01-04 14:52:15.30	262.10	4.69	-58.6	-76.8	3.9	7.49e-01	0	28	104	0	85	30084
2026-01-04 14:52:16.29	262.25	4.72	-58.6	-76.0	3.9	7.40e-01	0	28	104	0	85	27472
2026-01-04 14:52:17.29	262.39	4.76	-58.6	-75.1	3.9	7.39e-01	0	28	104	0	85	24963
2026-01-04 14:52:18.28	262.54	4.79	-58.6	-75.9	3.9	7.43e-01	0	29	104	0	85	27291
2026-01-04 14:52:19.28	262.69	4.83	-58.6	-77.7	3.8	7.45e-01	0	28	104	0	85	33657
2026-01-04 14:52:20.28	262.84	4.86	-58.6	-76.9	3.8	7.43e-01	0	28	104	0	85	30503
2026-01-04 14:52:21.29	262.99	4.90	-58.4	-71.9	5.1	7.02e-01	0	29	0	0	85	17084
2026-01-04 14:52:22.28	263.14	4.94	-58.3	-69.3	6.9	6.62e-01	92	28	0	1048576	85	12695
2026-01-04 14:52:23.29	263.29	4.97	-58.0	-67.4	8.5	6.34e-01	0	28	0	3145728	85	10235
2026-01-04 14:52:24.28	263.44	5.01	-58.0	-67.1	8.7	6.31e-01	0	29	0	4718592	85	9904
2026-01-04 14:52:25.27	263.59	5.04	-57.8	-65.8	9.9	6.21e-01	0	28	0	6815744	84	9015
2026-01-04 14:52:26.26	263.74	5.08	-58.0	-67.1	8.9	6.32e-01	0	28	0	8388608	84	10494
2026-01-04 14:52:27.27	263.89	5.11	-58.1	-67.9	8.0	6.39e-01	1	29	0	10485760	84	11446
2026-01-04 14:52:28.27	264.05	5.15	-55.5	-59.5	13.8	6.05e-01	0	29	0	12058624	79	5837
2026-01-04 14:52:29.27	264.20	5.18	-58.1	-68.1	6.2	6.48e-01	70	29	104	13107200	84	11797
2026-01-04 14:52:30.27	264.35	5.22	-54.2	-57.1	14.6	6.06e-01	0	29	0	14155776	77	4969
2026-01-04 14:52:31.27	264.50	5.25	-53.8	-56.6	14.9	6.08e-01	0	29	0	16252928	76	4941
2026-01-04 14:52:32.26	264.66	5.28	-53.8	-56.5	14.8	6.06e-01	0	29	0	17825792	76	4925
2026-01-04 14:52:33.25	264.81	5.32	-53.4	-56.0	15.0	6.05e-01	0	28	0	19922944	76	4600
2026-01-04 14:52:34.25	264.96	5.35	-52.8	-55.2	15.1	6.07e-01	0	29	0	22020096	74	4748
2026-01-04 14:52:35.26	265.12	5.39	-52.5	-54.7	15.2	6.08e-01	0	29	0	23592960	74	4492
2026-01-04 14:52:36.26	265.28	5.42	-52.2	-54.4	15.3	6.07e-01	0	28	0	25690112	73	4547
2026-01-04 14:52:37.25	265.43	5.45	-52.0	-54.1	15.3	6.06e-01	0	29	0	27262976	73	4411
2026-01-04 14:52:38.25	265.59	5.49	-52.0	-54.1	15.3	6.06e-01	0	29	0	29360128	73	4437
2026-01-04 14:52:39.26	265.74	5.52	-52.0	-54.1	15.4	6.05e-01	0	29	0	31457280	73	4423
2026-01-04 14:52:40.26	265.90	5.56	-52.0	-54.2	15.3	6.06e-01	0	29	0	33030144	73	4465
2026-01-04 14:52:41.25	266.06	5.59	-52.1	-54.3	15.3	6.06e-01	0	29	0	35127296	73	4523
2026-01-04 14:52:42.25	266.21	5.62	-52.1	-54.3	15.3	6.07e-01	0	29	0	36700160	73	4521
2026-01-04 14:52:43.25	266.37	5.66	-52.0	-54.1	15.3	6.07e-01	0	29	0	38797312	73	4417
2026-01-04 14:52:44.25	266.53	5.69	-52.2	-54.4	15.3	6.06e-01	0	29	0	40370176	73	4548
2026-01-04 14:52:45.25	266.69	5.72	-52.1	-54.3	15.3	6.08e-01	0	29	0	42467328	73	4521
2026-01-04 14:52:46.24	266.85	5.75	-52.1	-54.3	15.3	6.08e-01	0	29	0	44564480	73	4537
2026-01-04 14:52:47.24	267.01	5.79	-52.1	-54.4	15.3	6.07e-01	0	29	0	46137344	73	4546
2026-01-04 14:52:48.24	267.17	5.82	-52.0	-54.2	15.3	6.06e-01	0	29	0	48234496	73	4471
2026-01-04 14:52:49.24	267.33	5.85	-52.1	-54.3	15.3	6.08e-01	0	29	0	49807360	73	4521
2026-01-04 14:52:50.24	267.49	5.88	-52.1	-54.3	15.3	6.06e-01	0	29	0	51904512	73	4507
2026-01-04 14:52:51.24	267.65	5.92	-52.5	-54.8	15.1	6.05e-01	0	29	0	53477376	73	4785
2026-01-04 14:52:52.23	267.81	5.95	-52.9	-55.4	14.9	6.07e-01	0	29	0	55574528	73	5134
2026-01-04 14:52:53.22	267.97	5.98	-53.3	-56.0	14.8	6.07e-01	0	29	0	57147392	74	5213
2026-01-04 14:52:54.22	268.13	6.01	-53.7	-56.6	14.7	6.05e-01	0	29	0	59244544	75	5223
2026-01-04 14:52:55.23	268.29	6.04	-54.0	-57.1	14.5	6.06e-01	0	29	0	61341696	75	5535
2026-01-04 14:52:56.23	268.46	6.07	-54.1	-57.2	14.4	6.07e-01	0	29	0	62914560	75	5612
2026-01-04 14:52:57.22	268.62	6.11	-54.1	-57.2	14.4	6.06e-01	0	29	0	65011712	75	5620
2026-01-04 14:52:58.22	268.78	6.14	-54.3	-57.6	14.3	6.07e-01	0	29	0	66584576	76	5559
2026-01-04 14:52:59.23	268.95	6.17	-54.4	-57.7	14.3	6.07e-01	0	29	0	68681728	76	5649
2026-01-04 14:53:00.22	269.11	6.20	-54.5	-57.8	14.3	6.07e-01	0	29	0	70254592	76	5700
2026-01-04 14:53:01.22	269.27	6.23	-54.6	-58.0	14.2	6.08e-01	0	29	0	72351744	76	5829
2026-01-04 14:53:02.22	269.44	6.26	-54.6	-58.0	14.3	6.06e-01	0	29	0	74448896	77	5482
2026-01-04 14:53:03.22	269.61	6.29	-54.5	-57.7	14.4	6.07e-01	0	29	0	76021760	77	5319
2026-01-04 14:53:04.23	269.77	6.32	-54.3	-57.5	14.5	6.06e-01	0	29	0	78118912	77	5160
2026-01-04 14:53:05.22	269.94	6.35	-54.0	-57.0	14.7	6.08e-01	0	29	0	79691776	77	4882
2026-01-04 14:53:06.22	270.10	6.38	-53.6	-56.3	14.9	6.05e-01	0	29	0	81788928	76	4796
2026-01-04 14:53:07.21	270.27	6.41	-52.9	-55.3	15.2	6.08e-01	0	29	0	83361792	75	4521
2026-01-04 14:53:08.22	270.44	6.44	-52.3	-54.5	15.2	6.08e-01	0	29	0	85458944	73	4618
2026-01-04 14:53:09.21	270.60	6.47	-52.1	-54.2	15.3	6.09e-01	0	29	0	87556096	73	4493
2026-01-04 14:53:10.22	270.77	6.50	-52.0	-54.1	15.4	6.06e-01	0	29	0	89128960	73	4440
2026-01-04 14:53:11.21	270.94	6.53	-52.1	-54.3	15.3	6.06e-01	0	29	0	91226112	73	4501
2026-01-04 14:53:12.21	271.11	6.56	-52.2	-54.4	15.3	6.06e-01	0	29	0	92798976	73	4571
2026-01-04 14:53:13.20	271.28	6.59	-52.2	-54.4	15.3	6.06e-01	0	29	0	94896128	73	4552
2026-01-04 14:53:14.20	271.44	6.61	-52.3	-54.4	15.3	6.07e-01	0	29	0	96993280	73	4586
2026-01-04 14:53:15.19	271.61	6.64	-52.2	-54.3	15.3	6.06e-01	0	29	0	98566144	73	4535
2026-01-04 14:53:16.19	271.78	6.67	-52.1	-54.2	15.4	6.05e-01	0	29	0	100663296	73	4474
2026-01-04 14:53:17.18	271.95	6.70	-52.1	-54.2	15.3	6.05e-01	0	29	0	102236160	73	4488
2026-01-04 14:53:18.18	272.12	6.73	-52.0	-54.1	15.4	6.07e-01	0	29	0	104333312	73	4427
2026-01-04 14:53:19.18	272.29	6.76	-51.9	-54.0	15.4	6.05e-01	0	29	0	105906176	73	4346
2026-01-04 14:53:20.18	272.46	6.78	-51.8	-53.9	15.4	6.07e-01	0	29	0	108003328	72	4560
2026-01-04 14:53:21.18	272.64	6.81	-51.9	-53.9	15.3	6.06e-01	0	29	0	110100480	72	4584
2026-01-04 14:53:22.17	272.81	6.84	-51.9	-54.0	15.4	6.06e-01	0	29	0	111673344	72	4633
2026-01-04 14:53:23.17	272.98	6.87	-52.0	-54.0	15.3	6.07e-01	0	29	0	113770496	72	4646
2026-01-04 14:53:24.17	273.15	6.89	-51.9	-54.0	15.3	6.07e-01	0	29	0	115343360	72	4640
2026-01-04 14:53:25.17	273.32	6.92	-51.8	-53.9	15.3	6.08e-01	0	29	0	117440512	72	4571
2026-01-04 14:53:26.16	273.50	6.95	-51.7	-53.8	15.4	6.06e-01	0	29	0	119013376	72	4500
2026-01-04 14:53:27.16	273.67	6.97	-51.7	-53.7	15.4	6.06e-01	0	29	0	121110528	72	4458
2026-01-04 14:53:28.16	273.84	7.00	-51.7	-53.7	15.4	6.07e-01	0	29	0	122683392	72	4463
2026-01-04 14:53:29.15	274.02	7.02	-51.6	-53.7	15.4	6.06e-01	0	29	0	124780544	72	4461
2026-01-04 14:53:30.16	274.19	7.05	-51.7	-53.7	15.3	6.07e-01	0	29	0	126877696	72	4490
2026-01-04 14:53:31.15	274.37	7.08	-51.5	-53.6	15.3	6.06e-01	0	29	0	128450560	72	4403
2026-01-04 14:53:32.14	274.54	7.10	-51.6	-53.6	15.4	6.08e-01	0	29	0	130547712	72	4416
2026-01-04 14:53:33.14	274.72	7.13	-51.6	-53.6	15.4	6.07e-01	0	29	0	132120576	72	4425
2026-01-04 14:53:34.14	274.89	7.15	-51.7	-53.7	15.4	6.05e-01	0	29	0	134217728	72	4446
2026-01-04 14:53:35.14	275.07	7.18	-51.5	-53.5	15.5	6.05e-01	0	29	0	135790592	72	4344
2026-01-04 14:53:36.14	275.24	7.20	-51.5	-53.5	15.5	6.05e-01	0	29	0	137887744	72	4363
2026-01-04 14:53:37.15	275.42	7.23	-51.6	-53.5	15.5	6.07e-01	0	29	0	139984896	72	4389
2026-01-04 14:53:38.15	275.60	7.25	-51.6	-53.5	15.5	6.06e-01	0	29	0	141557760	72	4384
2026-01-04 14:53:39.15	275.78	7.28	-51.6	-53.6	15.5	6.07e-01	0	29	0	143654912	72	4415
2026-01-04 14:53:40.15	275.96	7.30	-51.6	-53.6	15.4	6.07e-01	0	29	0	145227776	72	4424
2026-01-04 14:53:41.14	276.13	7.32	-51.6	-53.5	15.4	6.07e-01	0	29	0	147324928	72	4387
2026-01-04 14:53:42.14	276.31	7.35	-51.5	-53.4	15.5	6.06e-01	0	29	0	148897792	72	4334
2026-01-04 14:53:43.14	276.49	7.37	-51.5	-53.4	15.5	6.07e-01	0	29	0	150994944	72	4315
2026-01-04 14:53:44.14	276.67	7.39	-51.5	-53.4	15.5	6.07e-01	0	29	0	153092096	72	4328
2026-01-04 14:53:45.15	276.85	7.42	-51.6	-53.6	15.4	6.05e-01	0	29	0	154664960	72	4397
2026-01-04 14:53:46.15	277.03	7.44	-51.6	-53.6	15.4	6.08e-01	0	29	0	156762112	72	4429
2026-01-04 14:53:47.15	277.21	7.46	-51.5	-53.5	15.5	6.05e-01	0	29	0	158334976	72	4366
2026-01-04 14:53:48.14	277.39	7.49	-51.4	-53.3	15.5	6.09e-01	0	29	0	160432128	72	4272
2026-01-04 14:53:49.14	277.57	7.51	-51.5	-53.4	15.5	6.05e-01	0	29	0	162004992	72	4328
2026-01-04 14:53:50.14	277.75	7.53	-51.6	-53.6	15.4	6.08e-01	0	29	0	164102144	72	4402
2026-01-04 14:53:51.14	277.93	7.55	-51.6	-53.5	15.5	6.06e-01	0	29	0	166199296	72	4387
2026-01-04 14:53:52.14	278.11	7.57	-51.5	-53.5	15.5	6.08e-01	0	29	0	167772160	72	4368
2026-01-04 14:53:53.14	278.29	7.59	-51.6	-53.6	15.4	6.06e-01	0	29	0	169869312	72	4406
2026-01-04 14:53:54.14	278.48	7.62	-51.6	-53.5	15.5	6.08e-01	0	29	0	171442176	72	4377
2026-01-04 14:53:55.14	278.66	7.64	-51.5	-53.4	15.5	6.06e-01	0	29	0	173539328	72	4327
2026-01-04 14:53:56.14	278.84	7.66	-51.5	-53.4	15.5	6.07e-01	0	29	0	175636480	72	4327
2026-01-04 14:53:57.14	279.02	7.68	-51.5	-53.5	15.5	6.07e-01	0	29	0	177209344	72	4349
2026-01-04 14:53:58.13	279.20	7.70	-51.6	-53.5	15.5	6.07e-01	0	29	0	179306496	72	4381
2026-01-04 14:53:59.13	279.39	7.72	-51.6	-53.5	15.5	6.05e-01	0	29	0	180879360	72	4370
2026-01-04 14:54:00.13	279.57	7.74	-51.6	-53.6	15.5	6.06e-01	0	29	0	182976512	72	4396
2026-01-04 14:54:01.13	279.76	7.76	-51.6	-53.6	15.5	6.06e-01	0	29	0	184549376	72	4409
2026-01-04 14:54:02.13	279.94	7.78	-51.6	-53.6	15.5	6.09e-01	0	29	0	186646528	72	4411
2026-01-04 14:54:03.13	280.12	7.80	-51.6	-53.5	15.5	6.06e-01	0	29	0	188743680	72	4380
2026-01-04 14:54:04.13	280.31	7.82	-51.5	-53.5	15.5	6.05e-01	0	29	0	190316544	72	4369
2026-01-04 14:54:05.13	280.49	7.83	-51.6	-53.5	15.5	6.08e-01	0	29	0	192413696	72	4391
2026-01-04 14:54:06.13	280.68	7.85	-51.4	-53.3	15.6	6.08e-01	0	29	0	193986560	72	4285
2026-01-04 14:54:07.13	280.86	7.87	-51.5	-53.4	15.5	6.06e-01	0	29	0	196083712	72	4320
2026-01-04 14:54:08.13	281.05	7.89	-51.5	-53.4	15.5	6.08e-01	0	29	0	197656576	72	4336
2026-01-04 14:54:09.13	281.23	7.91	-51.5	-53.4	15.5	6.06e-01	0	29	0	199753728	72	4324
2026-01-04 14:54:10.13	281.42	7.93	-51.6	-53.5	15.5	6.05e-01	0	29	0	201850880	72	4355
2026-01-04 14:54:11.13	281.61	7.94	-51.5	-53.4	15.5	6.06e-01	0	29	0	203423744	72	4330
2026-01-04 14:54:12.12	281.79	7.96	-51.6	-53.6	15.5	6.06e-01	0	29	0	205520896	72	4401
2026-01-04 14:54:13.11	281.98	7.98	-51.5	-53.5	15.5	6.07e-01	0	29	0	207093760	72	4355
2026-01-04 14:54:14.11	282.16	7.99	-51.5	-53.5	15.5	6.03e-01	0	29	0	209190912	72	4345
2026-01-04 14:54:15.11	282.35	8.01	-51.5	-53.5	15.5	6.03e-01	0	29	0	210763776	72	4343
2026-01-04 14:54:16.10	282.54	8.03	-51.5	-53.5	15.5	6.06e-01	0	29	0	212860928	72	4349
2026-01-04 14:54:17.10	282.72	8.04	-51.5	-53.4	15.5	6.02e-01	0	29	0	214433792	72	4318
2026-01-04 14:54:18.09	282.91	8.06	-51.6	-53.5	15.5	6.02e-01	0	29	0	216530944	72	4351
2026-01-04 14:54:19.09	283.10	8.07	-51.6	-53.5	15.5	6.05e-01	0	29	0	218628096	72	4382
2026-01-04 14:54:20.09	283.29	8.09	-51.6	-53.5	15.5	6.03e-01	0	29	0	220200960	72	4382
2026-01-04 14:54:21.09	283.47	8.10	-51.6	-53.5	15.5	6.06e-01	0	29	0	222298112	72	4349
2026-01-04 14:54:22.09	283.66	8.12	-51.6	-53.5	15.5	6.03e-01	0	29	0	223870976	72	4389
2026-01-04 14:54:23.08	283.85	8.13	-51.6	-53.5	15.5	6.05e-01	0	29	0	225968128	72	4364
2026-01-04 14:54:24.08	284.04	8.15	-51.6	-53.5	15.5	6.04e-01	0	29	0	227540992	72	4391
2026-01-04 14:54:25.08	284.23	8.16	-51.6	-53.5	15.5	6.02e-01	0	29	0	229638144	72	4366
2026-01-04 14:54:26.08	284.42	8.17	-51.7	-53.6	15.5	6.04e-01	0	29	0	231735296	72	4423
2026-01-04 14:54:27.08	284.61	8.19	-51.6	-53.6	15.5	6.05e-01	0	29	0	233308160	72	4406
2026-01-04 14:54:28.08	284.80	8.20	-51.7	-53.6	15.4	6.04e-01	0	29	0	235405312	72	4423
2026-01-04 14:54:29.07	284.99	8.21	-51.7	-53.6	15.4	6.04e-01	0	29	0	236978176	72	4422
2026-01-04 14:54:30.07	285.18	8.23	-51.7	-53.6	15.5	6.03e-01	0	29	0	239075328	72	4417
2026-01-04 14:54:31.07	285.37	8.24	-51.7	-53.6	15.5	6.03e-01	0	29	0	240648192	72	4431
2026-01-04 14:54:32.08	285.56	8.25	-51.7	-53.6	15.5	6.02e-01	0	29	0	242745344	72	4412
2026-01-04 14:54:33.07	285.75	8.26	-51.7	-53.6	15.5	6.04e-01	0	29	0	244318208	72	4435
2026-01-04 14:54:34.07	285.94	8.28	-51.7	-53.6	15.5	6.01e-01	0	29	0	246415360	72	4410
2026-01-04 14:54:35.07	286.13	8.29	-51.7	-53.6	15.5	6.04e-01	0	29	0	248512512	72	4408
2026-01-04 14:54:36.06	286.32	8.30	-51.7	-53.6	15.5	6.04e-01	0	29	0	250085376	72	4412
2026-01-04 14:54:37.05	286.51	8.31	-51.7	-53.6	15.5	6.02e-01	0	29	0	252182528	72	4432
2026-01-04 14:54:38.05	286.70	8.32	-51.7	-53.7	15.5	6.04e-01	0	29	0	253755392	72	4447
2026-01-04 14:54:39.05	286.89	8.33	-51.8	-53.7	15.5	6.05e-01	0	29	0	255852544	72	4478
2026-01-04 14:54:40.04	287.08	8.34	-51.8	-53.8	15.5	6.03e-01	0	29	0	257949696	72	4498
2026-01-04 14:54:41.04	287.27	8.35	-51.9	-53.9	15.4	6.04e-01	0	29	0	259522560	72	4561
2026-01-04 14:54:42.04	287.46	8.36	-51.8	-53.7	15.4	6.06e-01	0	29	0	261619712	72	4472
2026-01-04 14:54:43.04	287.66	8.37	-51.7	-53.6	15.4	6.03e-01	0	29	0	263192576	72	4429
2026-01-04 14:54:44.05	287.85	8.38	-51.7	-53.6	15.5	6.04e-01	0	29	0	265289728	72	4436
2026-01-04 14:54:45.05	288.04	8.39	-51.9	-53.8	15.4	6.02e-01	0	29	0	266862592	72	4534
2026-01-04 14:54:46.04	288.23	8.40	-51.9	-53.8	15.4	6.03e-01	0	29	0	268959744	72	4525
2026-01-04 14:54:47.04	288.43	8.41	-51.8	-53.8	15.4	6.03e-01	0	29	0	271056896	72	4504
2026-01-04 14:54:48.04	288.62	8.42	-51.8	-53.8	15.4	6.03e-01	0	29	0	272629760	72	4507
2026-01-04 14:54:49.05	288.81	8.42	-51.9	-53.9	15.4	6.02e-01	0	29	0	274726912	72	4554
2026-01-04 14:54:50.04	289.00	8.43	-51.9	-53.9	15.4	6.03e-01	0	29	0	276299776	72	4578
2026-01-04 14:54:51.04	289.20	8.44	-51.9	-53.9	15.4	6.04e-01	0	29	0	278396928	72	4585
2026-01-04 14:54:52.04	289.39	8.45	-51.8	-53.7	15.5	6.02e-01	0	29	0	279969792	72	4461
2026-01-04 14:54:53.03	289.58	8.45	-51.7	-53.7	15.5	6.02e-01	0	29	0	282066944	72	4451
2026-01-04 14:54:54.03	289.78	8.46	-51.8	-53.7	15.4	6.02e-01	0	29	0	284164096	72	4481
2026-01-04 14:54:55.04	289.97	8.47	-51.8	-53.7	15.5	6.04e-01	0	29	0	285736960	72	4480
2026-01-04 14:54:56.03	290.16	8.47	-51.9	-53.8	15.4	6.05e-01	0	29	0	287834112	72	4524
2026-01-04 14:54:57.03	290.36	8.48	-51.8	-53.7	15.5	6.04e-01	0	29	0	289406976	72	4462
2026-01-04 14:54:58.03	290.55	8.48	-51.7	-53.6	15.5	6.01e-01	0	29	0	291504128	72	4423
2026-01-04 14:54:59.03	290.74	8.49	-51.8	-53.8	15.4	6.07e-01	0	29	0	293076992	72	4505
2026-01-04 14:55:00.03	290.94	8.49	-51.9	-53.8	15.5	6.03e-01	0	29	0	295174144	72	4525
2026-01-04 14:55:01.04	291.13	8.50	-51.8	-53.8	15.5	6.01e-01	0	29	0	297271296	72	4506
2026-01-04 14:55:02.04	291.33	8.50	-51.7	-53.6	15.5	6.04e-01	0	29	0	298844160	72	4429
2026-01-04 14:55:03.03	291.52	8.51	-51.7	-53.6	15.5	6.02e-01	0	29	0	300941312	72	4415
2026-01-04 14:55:04.03	291.71	8.51	-51.8	-53.7	15.5	6.03e-01	0	29	0	302514176	72	4482
2026-01-04 14:55:05.03	291.91	8.52	-51.8	-53.8	15.4	6.03e-01	0	29	0	304611328	72	4521
2026-01-04 14:55:06.02	292.10	8.52	-51.8	-53.8	15.4	6.02e-01	0	29	0	306184192	72	4507
2026-01-04 14:55:07.03	292.30	8.52	-51.8	-53.8	15.4	6.04e-01	0	29	0	308281344	72	4504
2026-01-04 14:55:08.03	292.49	8.53	-51.9	-53.8	15.4	6.01e-01	0	29	0	310378496	72	4532
2026-01-04 14:55:09.03	292.68	8.53	-51.9	-53.8	15.4	6.01e-01	0	29	0	311951360	72	4537
2026-01-04 14:55:10.03	292.88	8.53	-51.9	-53.9	15.4	6.01e-01	0	29	0	314048512	72	4562
2026-01-04 14:55:11.02	293.07	8.53	-51.8	-53.8	15.4	6.06e-01	0	29	0	315621376	72	4516
2026-01-04 14:55:12.02	293.26	8.54	-51.7	-53.7	15.5	6.03e-01	0	29	0	317718528	72	4443
2026-01-04 14:55:13.02	293.46	8.54	-51.7	-53.6	15.5	6.02e-01	0	29	0	319291392	72	4408
2026-01-04 14:55:14.02	293.65	8.54	-51.6	-53.6	15.5	6.02e-01	0	29	0	321388544	72	4393
2026-01-04 14:55:15.02	293.85	8.54	-51.5	-53.4	15.6	6.02e-01	0	29	0	323485696	72	4329
2026-01-04 14:55:16.02	294.04	8.54	-51.6	-53.5	15.5	6.06e-01	0	29	0	325058560	72	4362
2026-01-04 14:55:17.01	294.23	8.54	-51.7	-53.6	15.5	6.06e-01	0	29	0	327155712	72	4407
2026-01-04 14:55:18.01	294.43	8.54	-51.6	-53.5	15.5	6.01e-01	0	29	0	328728576	72	4389
2026-01-04 14:55:19.00	294.62	8.54	-51.6	-53.5	15.5	6.03e-01	0	29	0	330825728	72	4369
2026-01-04 14:55:20.00	294.82	8.54	-51.6	-53.5	15.5	6.07e-01	0	29	0	332398592	72	4358
2026-01-04 14:55:21.00	295.01	8.54	-51.6	-53.5	15.5	6.01e-01	0	29	0	334495744	72	4358
2026-01-04 14:55:21.99	295.20	8.54	-51.6	-53.6	15.5	6.05e-01	0	29	0	336592896	72	4397
2026-01-04 14:55:22.99	295.40	8.54	-51.6	-53.5	15.5	6.01e-01	0	29	0	338165760	72	4372
2026-01-04 14:55:23.99	295.59	8.54	-51.5	-53.4	15.6	6.03e-01	0	29	0	340262912	72	4314
2026-01-04 14:55:24.99	295.79	8.54	-51.5	-53.3	15.6	6.03e-01	0	29	0	341835776	72	4291
2026-01-04 14:55:25.98	295.98	8.53	-51.5	-53.3	15.6	6.02e-01	0	29	0	343932928	72	4291
2026-01-04 14:55:26.98	296.17	8.53	-51.4	-53.3	15.6	6.06e-01	0	29	0	345505792	72	4266
2026-01-04 14:55:27.97	296.37	8.53	-51.5	-53.4	15.6	6.03e-01	0	29	0	347602944	72	4326
2026-01-04 14:55:28.97	296.56	8.53	-51.5	-53.5	15.5	6.06e-01	0	29	0	349175808	72	4354
2026-01-04 14:55:29.96	296.75	8.52	-51.6	-53.5	15.5	6.03e-01	0	29	0	351272960	72	4385
2026-01-04 14:55:30.95	296.94	8.52	-51.5	-53.4	15.6	6.05e-01	0	29	0	353370112	72	4330
2026-01-04 14:55:31.94	297.14	8.52	-51.5	-53.4	15.6	6.03e-01	0	29	0	354942976	72	4308
2026-01-04 14:55:32.93	297.33	8.51	-51.5	-53.4	15.6	6.04e-01	0	29	0	357040128	72	4336
2026-01-04 14:55:33.92	297.52	8.51	-51.4	-53.3	15.6	6.03e-01	0	29	0	358612992	72	4265
2026-01-04 14:55:34.92	297.71	8.51	-51.5	-53.3	15.6	6.03e-01	0	29	0	360710144	72	4287
2026-01-04 14:55:35.92	297.91	8.50	-51.4	-53.3	15.6	6.05e-01	0	29	0	362283008	72	4279
2026-01-04 14:55:36.91	298.10	8.50	-51.5	-53.5	15.5	6.03e-01	0	29	0	364380160	72	4344
2026-01-04 14:55:37.91	298.29	8.49	-51.5	-53.5	15.5	6.01e-01	0	29	0	365953024	72	4342
2026-01-04 14:55:38.92	298.49	8.49	-51.6	-53.5	15.5	6.03e-01	0	29	0	368050176	72	4363
2026-01-04 14:55:39.92	298.68	8.48	-51.6	-53.5	15.5	6.02e-01	0	29	0	370147328	72	4371
2026-01-04 14:55:40.92	298.88	8.47	-51.4	-53.3	15.6	6.05e-01	0	29	0	371720192	72	4274
2026-01-04 14:55:41.91	299.07	8.47	-51.4	-53.3	15.6	6.01e-01	0	29	0	373817344	72	4283
2026-01-04 14:55:42.91	299.26	8.46	-51.4	-53.3	15.6	6.05e-01	0	29	0	375390208	72	4280
2026-01-04 14:55:43.91	299.45	8.46	-51.4	-53.3	15.6	6.03e-01	0	29	0	377487360	72	4267
2026-01-04 14:55:44.91	299.65	8.45	-51.4	-53.3	15.6	6.03e-01	0	29	0	379060224	72	4281
2026-01-04 14:55:45.91	299.84	8.44	-51.5	-53.4	15.6	6.01e-01	0	29	0	381157376	72	4305
2026-01-04 14:55:46.90	300.03	8.43	-51.3	-53.2	15.5	6.05e-01	0	29	0	383254528	71	4461
2026-01-04 14:55:47.89	300.22	8.43	-51.3	-53.2	15.5	6.01e-01	0	29	0	384827392	71	4487
2026-01-04 14:55:48.89	300.41	8.42	-51.4	-53.3	15.5	6.03e-01	0	29	0	386924544	71	4542
2026-01-04 14:55:49.88	300.60	8.41	-51.4	-53.3	15.5	6.03e-01	0	29	0	388497408	71	4506
2026-01-04 14:55:50.88	300.80	8.40	-51.4	-53.3	15.5	6.02e-01	0	29	0	390594560	71	4530
2026-01-04 14:55:51.87	300.99	8.39	-51.4	-53.3	15.5	6.03e-01	0	29	0	392167424	71	4532
2026-01-04 14:55:52.87	301.18	8.38	-51.3	-53.2	15.5	6.02e-01	0	29	0	394264576	71	4464
2026-01-04 14:55:53.86	301.37	8.37	-51.3	-53.2	15.5	6.04e-01	0	29	0	395837440	71	4481
2026-01-04 14:55:54.85	301.56	8.37	-51.4	-53.3	15.5	6.02e-01	0	29	0	397934592	71	4497
2026-01-04 14:55:55.85	301.75	8.36	-51.4	-53.3	15.5	6.03e-01	0	29	0	400031744	71	4509
2026-01-04 14:55:56.84	301.94	8.35	-51.3	-53.2	15.5	6.04e-01	0	29	0	401604608	71	4462
2026-01-04 14:55:57.85	302.13	8.34	-51.3	-53.2	15.5	6.05e-01	0	29	0	403701760	71	4476
2026-01-04 14:55:58.84	302.32	8.33	-51.3	-53.2	15.5	6.03e-01	0	29	0	405274624	71	4487
2026-01-04 14:55:59.83	302.51	8.31	-51.3	-53.2	15.5	6.04e-01	0	29	0	407371776	71	4463
2026-01-04 14:56:00.83	302.70	8.30	-51.3	-53.2	15.5	6.01e-01	0	29	0	408944640	71	4488
2026-01-04 14:56:01.83	302.90	8.29	-51.3	-53.2	15.5	6.03e-01	0	29	0	411041792	71	4487
2026-01-04 14:56:02.82	303.08	8.28	-51.2	-53.1	15.5	6.04e-01	0	29	0	412614656	71	4425
2026-01-04 14:56:03.82	303.28	8.27	-51.2	-53.1	15.5	6.05e-01	0	29	0	414711808	71	4434
2026-01-04 14:56:04.82	303.47	8.26	-51.3	-53.2	15.5	6.03e-01	0	29	0	416808960	71	4453
2026-01-04 14:56:05.82	303.66	8.24	-51.4	-53.3	15.5	6.01e-01	0	29	0	418381824	71	4504
2026-01-04 14:56:06.82	303.85	8.23	-51.4	-53.3	15.5	6.05e-01	0	29	0	420478976	71	4530
2026-01-04 14:56:07.82	304.04	8.22	-51.3	-53.2	15.5	6.03e-01	0	29	0	422051840	71	4490
2026-01-04 14:56:08.82	304.23	8.21	-51.4	-53.3	15.5	6.02e-01	0	29	0	424148992	71	4507
2026-01-04 14:56:09.82	304.41	8.19	-51.5	-53.5	15.5	6.02e-01	0	29	0	425721856	71	4600
2026-01-04 14:56:10.82	304.60	8.18	-51.3	-53.2	15.5	6.06e-01	0	29	0	427819008	71	4490
2026-01-04 14:56:11.82	304.79	8.17	-51.3	-53.2	15.5	6.04e-01	0	29	0	429916160	71	4490
2026-01-04 14:56:12.81	304.98	8.15	-51.3	-53.3	15.5	6.04e-01	0	29	0	431489024	71	4494
2026-01-04 14:56:13.81	305.17	8.14	-51.3	-53.2	15.5	6.03e-01	0	29	0	433586176	71	4454
2026-01-04 14:56:14.81	305.36	8.12	-51.4	-53.3	15.5	6.04e-01	0	29	0	435159040	71	4506
2026-01-04 14:56:15.81	305.55	8.11	-51.4	-53.4	15.5	6.02e-01	0	29	0	437256192	71	4547
2026-01-04 14:56:16.80	305.73	8.09	-51.4	-53.3	15.5	6.00e-01	0	29	0	439353344	71	4523
2026-01-04 14:56:17.80	305.92	8.08	-51.3	-53.3	15.5	6.05e-01	0	29	0	440926208	71	4503
2026-01-04 14:56:18.79	306.11	8.06	-51.4	-53.4	15.5	6.03e-01	0	29	0	443023360	71	4546
2026-01-04 14:56:19.80	306.30	8.05	-51.4	-53.3	15.5	6.02e-01	0	29	0	444596224	71	4509
2026-01-04 14:56:20.80	306.48	8.03	-51.4	-53.3	15.5	6.04e-01	0	29	0	446693376	71	4540
2026-01-04 14:56:21.79	306.67	8.02	-51.3	-53.2	15.5	6.03e-01	0	29	0	448266240	71	4466
2026-01-04 14:56:22.79	306.86	8.00	-51.3	-53.2	15.5	6.04e-01	0	29	0	450363392	71	4455
2026-01-04 14:56:23.79	307.04	7.98	-51.4	-53.3	15.5	6.05e-01	0	29	0	452460544	71	4519
2026-01-04 14:56:24.79	307.23	7.97	-51.3	-53.3	15.5	6.01e-01	0	29	0	454033408	71	4499
2026-01-04 14:56:25.78	307.41	7.95	-51.3	-53.2	15.5	6.02e-01	0	29	0	456130560	71	4465
2026-01-04 14:56:26.77	307.60	7.93	-51.3	-53.3	15.5	6.03e-01	0	29	0	457703424	71	4495
2026-01-04 14:56:27.78	307.78	7.91	-51.3	-53.3	15.5	6.00e-01	0	29	0	459800576	71	4508
2026-01-04 14:56:28.77	307.97	7.90	-51.5	-53.4	15.5	6.05e-01	0	29	0	461373440	71	4575
2026-01-04 14:56:29.77	308.15	7.88	-51.4	-53.4	15.5	6.03e-01	0	29	0	463470592	71	4554
2026-01-04 14:56:30.77	308.34	7.86	-51.5	-53.4	15.4	6.04e-01	0	29	0	465043456	71	4581
2026-01-04 14:56:31.77	308.52	7.84	-51.5	-53.4	15.5	6.03e-01	0	29	0	467140608	71	4597
2026-01-04 14:56:32.76	308.71	7.82	-51.3	-53.3	15.5	6.05e-01	0	29	0	469237760	71	4501
2026-01-04 14:56:33.76	308.89	7.80	-51.3	-53.3	15.5	6.04e-01	0	29	0	470810624	71	4507
2026-01-04 14:56:34.76	309.07	7.79	-51.2	-53.2	15.5	6.03e-01	0	29	0	472907776	71	4446
2026-01-04 14:56:35.76	309.26	7.77	-51.3	-53.2	15.5	6.04e-01	0	29	0	474480640	71	4468
2026-01-04 14:56:36.76	309.44	7.75	-51.3	-53.2	15.5	6.05e-01	0	29	0	476577792	71	4464
2026-01-04 14:56:37.76	309.62	7.73	-51.3	-53.3	15.5	6.05e-01	0	29	0	478150656	71	4500
2026-01-04 14:56:38.76	309.81	7.71	-51.3	-53.3	15.5	6.02e-01	0	29	0	480247808	71	4502
2026-01-04 14:56:39.76	309.99	7.69	-51.4	-53.3	15.5	6.04e-01	0	29	0	482344960	71	4538
2026-01-04 14:56:40.76	310.17	7.67	-51.4	-53.4	15.5	6.03e-01	0	29	0	483917824	71	4546
2026-01-04 14:56:41.76	310.35	7.65	-51.4	-53.4	15.5	6.04e-01	0	29	0	486014976	71	4577
2026-01-04 14:56:42.75	310.53	7.63	-51.5	-53.4	15.4	6.01e-01	0	29	0	487587840	71	4587
2026-01-04 14:56:43.75	310.72	7.60	-51.4	-53.4	15.5	6.03e-01	0	29	0	489684992	71	4553
2026-01-04 14:56:44.75	310.90	7.58	-51.4	-53.3	15.5	6.04e-01	0	29	0	491257856	71	4542
2026-01-04 14:56:45.75	311.08	7.56	-51.4	-53.3	15.5	6.04e-01	0	29	0	493355008	71	4511
2026-01-04 14:56:46.74	311.26	7.54	-51.4	-53.3	15.5	6.03e-01	0	29	0	495452160	71	4539
2026-01-04 14:56:47.74	311.44	7.52	-51.4	-53.3	15.4	6.04e-01	0	29	0	497025024	71	4539
2026-01-04 14:56:48.74	311.62	7.50	-51.3	-53.3	15.5	6.03e-01	0	29	0	499122176	71	4502
2026-01-04 14:56:49.74	311.80	7.47	-51.3	-53.3	15.5	6.03e-01	0	29	0	500695040	71	4496
2026-01-04 14:56:50.74	311.98	7.45	-51.4	-53.3	15.5	6.01e-01	0	29	0	502792192	71	4543
2026-01-04 14:56:51.74	312.16	7.43	-51.5	-53.5	15.4	6.02e-01	0	29	0	504889344	71	4631
2026-01-04 14:56:52.75	312.34	7.41	-51.5	-53.5	15.4	6.03e-01	0	29	0	506462208	71	4636
2026-01-04 14:56:53.75	312.52	7.38	-51.5	-53.5	15.4	6.05e-01	0	29	0	508559360	71	4606
2026-01-04 14:56:54.74	312.69	7.36	-51.4	-53.3	15.5	6.02e-01	0	29	0	510132224	71	4526
2026-01-04 14:56:55.75	312.87	7.34	-51.4	-53.3	15.5	6.05e-01	0	30	0	512229376	71	4531
2026-01-04 14:56:56.75	313.05	7.31	-51.3	-53.2	15.5	6.07e-01	0	29	0	513802240	71	4491
2026-01-04 14:56:57.75	313.23	7.29	-51.4	-53.4	15.5	6.04e-01	0	29	0	515899392	71	4546
2026-01-04 14:56:58.76	313.41	7.26	-51.3	-53.2	15.5	6.03e-01	0	29	0	517996544	71	4490
2026-01-04 14:56:59.76	313.58	7.24	-51.3	-53.2	15.5	6.01e-01	0	29	0	519569408	71	4468
2026-01-04 14:57:00.77	313.76	7.21	-51.4	-53.3	15.5	6.02e-01	0	29	0	521666560	71	4539
2026-01-04 14:57:01.77	313.94	7.19	-51.4	-53.4	15.5	6.02e-01	0	29	0	523239424	71	4561
2026-01-04 14:57:02.78	314.12	7.16	-51.5	-53.5	15.4	6.03e-01	0	29	0	525336576	71	4601
2026-01-04 14:57:03.77	314.29	7.14	-51.5	-53.5	15.4	6.06e-01	0	29	0	526909440	71	4600
2026-01-04 14:57:04.77	314.46	7.11	-51.4	-53.3	15.5	6.03e-01	0	29	0	529006592	71	4533
2026-01-04 14:57:05.78	314.64	7.09	-51.4	-53.4	15.5	6.03e-01	0	29	0	531103744	71	4579
2026-01-04 14:57:06.77	314.81	7.06	-51.4	-53.4	15.5	6.03e-01	0	29	0	532676608	71	4573
2026-01-04 14:57:07.77	314.99	7.04	-51.5	-53.5	15.4	6.03e-01	0	29	0	534773760	71	4608
2026-01-04 14:57:08.77	315.16	7.01	-51.5	-53.5	15.4	6.03e-01	0	29	0	536346624	71	4630
2026-01-04 14:57:09.76	315.33	6.99	-51.5	-53.5	15.4	6.02e-01	0	29	0	538443776	71	4614
2026-01-04 14:57:10.76	315.51	6.96	-51.4	-53.3	15.4	6.05e-01	0	29	0	540016640	71	4541
2026-01-04 14:57:11.75	315.68	6.93	-51.4	-53.3	15.4	6.06e-01	0	29	0	542113792	71	4541
2026-01-04 14:57:12.76	315.85	6.91	-51.4	-53.4	15.4	6.02e-01	0	29	0	544210944	71	4572
2026-01-04 14:57:13.76	316.03	6.88	-51.5	-53.5	15.4	6.05e-01	0	29	0	545783808	71	4639
2026-01-04 14:57:14.75	316.20	6.85	-51.6	-53.6	15.4	6.01e-01	0	29	0	547880960	71	4686
2026-01-04 14:57:15.75	316.37	6.83	-51.5	-53.5	15.4	6.05e-01	0	29	0	549453824	71	4625
2026-01-04 14:57:16.75	316.54	6.80	-51.5	-53.6	15.4	6.04e-01	0	29	0	551550976	71	4668
2026-01-04 14:57:17.75	316.71	6.77	-51.5	-53.6	15.4	6.06e-01	0	29	0	553648128	71	4661
2026-01-04 14:57:18.75	316.88	6.74	-51.5	-53.5	15.5	6.02e-01	0	29	0	555220992	71	4608
2026-01-04 14:57:19.75	317.05	6.72	-51.5	-53.5	15.4	6.03e-01	0	29	0	557318144	71	4641
2026-01-04 14:57:20.73	317.22	6.69	-51.6	-53.6	15.4	6.04e-01	0	29	0	558891008	71	4689
2026-01-04 14:57:21.74	317.39	6.66	-51.4	-53.4	15.4	6.02e-01	0	29	0	560988160	71	4559
2026-01-04 14:57:22.73	317.56	6.63	-51.4	-53.4	15.4	6.04e-01	0	29	0	562561024	71	4585
2026-01-04 14:57:23.73	317.72	6.60	-51.5	-53.6	15.4	6.03e-01	0	29	0	564658176	71	4653
2026-01-04 14:57:24.73	317.89	6.57	-51.4	-53.5	15.4	6.02e-01	0	29	0	566755328	71	4634
2026-01-04 14:57:25.72	318.06	6.55	-51.5	-53.5	15.4	6.03e-01	0	29	0	568328192	71	4631
2026-01-04 14:57:26.71	318.22	6.52	-51.5	-53.6	15.4	6.05e-01	0	29	0	570425344	71	4668
2026-01-04 14:57:27.70	318.39	6.49	-51.2	-53.5	15.4	6.05e-01	0	29	0	571998208	71	4609
2026-01-04 14:57:28.70	318.56	6.46	-50.5	-53.5	15.2	6.04e-01	0	29	0	574095360	70	4898
2026-01-04 14:57:29.69	318.72	6.43	-50.0	-53.7	14.9	6.02e-01	0	29	0	575668224	69	5292
2026-01-04 14:57:30.69	318.89	6.40	-49.2	-53.6	14.6	6.03e-01	0	29	0	577765376	67	5911
2026-01-04 14:57:31.69	319.06	6.37	-47.8	-53.5	14.1	6.04e-01	0	29	0	579338240	64	6943
2026-01-04 14:57:32.68	319.22	6.34	-48.4	-53.5	14.2	6.02e-01	0	29	0	581435392	64	6923
2026-01-04 14:57:33.68	319.38	6.31	-50.0	-53.5	14.8	6.04e-01	0	29	0	583532544	67	5855
2026-01-04 14:57:34.69	319.55	6.28	-51.4	-53.7	15.2	6.03e-01	0	29	0	585105408	70	4995
2026-01-04 14:57:35.68	319.71	6.25	-51.5	-53.6	15.3	6.06e-01	0	29	0	587202560	70	4975
2026-01-04 14:57:36.68	319.88	6.22	-51.6	-53.7	15.3	6.05e-01	0	29	0	588775424	70	5013
2026-01-04 14:57:37.68	320.04	6.19	-51.8	-53.9	15.3	6.01e-01	0	29	0	590872576	71	4829
2026-01-04 14:57:38.68	320.21	6.16	-51.6	-53.6	15.4	6.02e-01	0	29	0	592445440	71	4701
2026-01-04 14:57:39.67	320.37	6.13	-51.6	-53.6	15.4	6.03e-01	0	29	0	594542592	71	4700
2026-01-04 14:57:40.67	320.53	6.10	-51.6	-53.6	15.4	6.03e-01	0	29	0	596639744	71	4698
2026-01-04 14:57:41.68	320.69	6.06	-51.5	-53.6	15.4	6.03e-01	0	29	0	598212608	71	4684
2026-01-04 14:57:42.68	320.86	6.03	-51.6	-53.7	15.3	6.03e-01	0	29	0	600309760	71	4729
2026-01-04 14:57:43.68	321.02	6.00	-51.7	-53.8	15.3	6.01e-01	0	29	0	601882624	71	4774
2026-01-04 14:57:44.68	321.18	5.97	-51.6	-53.7	15.3	6.04e-01	0	29	0	603979776	71	4750
2026-01-04 14:57:45.67	321.34	5.94	-51.7	-53.9	15.3	6.04e-01	0	29	0	605552640	71	4820
2026-01-04 14:57:46.67	321.50	5.91	-51.6	-53.7	15.3	6.05e-01	0	29	0	607649792	71	4709
2026-01-04 14:57:47.67	321.66	5.87	-51.7	-53.7	15.3	6.03e-01	0	30	0	609222656	71	4757
2026-01-04 14:57:48.67	321.82	5.84	-51.6	-53.7	15.3	6.04e-01	0	29	0	611319808	71	4749
2026-01-04 14:57:49.67	321.98	5.81	-51.6	-53.7	15.3	6.03e-01	0	29	0	613416960	71	4745
2026-01-04 14:57:50.67	322.14	5.78	-51.7	-53.9	15.3	6.03e-01	0	29	0	614989824	71	4824
2026-01-04 14:57:51.68	322.30	5.74	-51.6	-53.7	15.3	6.04e-01	0	29	0	617086976	71	4727
2026-01-04 14:57:52.68	322.46	5.71	-51.8	-53.9	15.3	6.04e-01	0	29	0	618659840	71	4842
2026-01-04 14:57:53.68	322.61	5.68	-51.5	-53.5	15.4	6.04e-01	0	29	0	620756992	71	4639
2026-01-04 14:57:54.68	322.77	5.65	-51.5	-53.6	15.4	6.02e-01	0	29	0	622854144	71	4676
2026-01-04 14:57:55.68	322.93	5.61	-51.7	-53.8	15.3	6.03e-01	0	29	0	624427008	71	4780
2026-01-04 14:57:56.67	323.08	5.58	-51.6	-53.7	15.4	6.04e-01	0	29	0	626524160	71	4739
2026-01-04 14:57:57.67	323.24	5.55	-51.6	-53.7	15.3	6.04e-01	0	29	0	628097024	71	4758
2026-01-04 14:57:58.67	323.40	5.51	-51.6	-53.8	15.3	6.03e-01	0	29	0	630194176	71	4760
2026-01-04 14:57:59.67	323.55	5.48	-51.7	-53.8	15.3	6.04e-01	0	29	0	631767040	71	4777
2026-01-04 14:58:00.67	323.71	5.45	-51.9	-54.1	15.2	6.05e-01	0	29	0	633864192	71	4945
2026-01-04 14:58:01.67	323.86	5.41	-51.9	-54.0	15.3	6.04e-01	0	29	0	635437056	71	4923
2026-01-04 14:58:02.66	324.01	5.38	-51.8	-54.0	15.2	6.03e-01	0	29	0	637534208	71	4883
2026-01-04 14:58:03.66	324.17	5.34	-51.8	-54.0	15.2	6.02e-01	0	29	0	639631360	71	4881
2026-01-04 14:58:04.67	324.32	5.31	-51.8	-54.0	15.2	6.05e-01	0	29	0	641204224	71	4904
2026-01-04 14:58:05.67	324.48	5.28	-51.8	-54.0	15.3	6.04e-01	0	30	0	643301376	71	4882
2026-01-04 14:58:06.67	324.63	5.24	-51.8	-54.0	15.2	6.03e-01	0	29	0	644874240	71	4898
2026-01-04 14:58:07.66	324.78	5.21	-51.7	-53.9	15.2	6.06e-01	0	30	0	646971392	71	4849
2026-01-04 14:58:08.66	324.93	5.17	-51.8	-54.0	15.2	6.03e-01	0	29	0	649068544	71	4883
2026-01-04 14:58:09.66	325.09	5.14	-51.7	-53.8	15.3	6.03e-01	0	29	0	650641408	71	4807
2026-01-04 14:58:10.66	325.24	5.10	-51.7	-53.9	15.3	6.05e-01	0	29	0	652738560	71	4820
2026-01-04 14:58:11.66	325.39	5.07	-51.7	-53.9	15.3	6.05e-01	0	30	0	654311424	71	4829
2026-01-04 14:58:12.65	325.54	5.03	-51.6	-53.7	15.3	6.04e-01	0	29	0	656408576	71	4724
2026-01-04 14:58:13.65	325.69	5.00	-53.9	-57.0	14.8	6.04e-01	0	29	0	657981440	75	5481
2026-01-04 14:58:14.66	325.84	4.96	-59.0	-78.1	3.8	7.45e-01	0	29	104	659030016	85	34955
2026-01-04 14:58:15.66	325.99	4.93	-59.5	-78.7	3.9	7.45e-01	0	29	104	659030016	86	35420
2026-01-04 14:58:16.66	326.14	4.89	-59.9	-79.2	3.8	7.45e-01	0	29	104	659030016	87	35599
2026-01-04 14:58:17.66	326.29	4.86	-60.1	-79.5	3.8	7.44e-01	0	29	104	659030016	87	36785
2026-01-04 14:58:18.66	326.44	4.82	-60.4	-79.7	3.8	7.43e-01	0	30	104	659030016	88	35571
2026-01-04 14:58:19.67	326.58	4.79	-60.5	-79.9	3.8	7.46e-01	0	30	104	659030016	88	36282
2026-01-04 14:58:20.67	326.73	4.75	-60.6	-80.0	3.9	7.47e-01	0	29	104	659030016	89	34542
2026-01-04 14:58:21.68	326.88	4.71	-60.7	-80.1	3.8	7.47e-01	0	30	104	659030016	89	35023
2026-01-04 14:58:22.67	327.03	4.68	-60.8	-80.2	3.8	7.43e-01	0	30	104	659030016	89	35318
2026-01-04 14:58:23.67	327.17	4.64	-60.8	-80.2	3.9	7.49e-01	0	29	104	659030016	89	35576
2026-01-04 14:58:24.66	327.32	4.61	-60.9	-80.3	3.8	7.47e-01	0	30	104	659030016	89	35743
2026-01-04 14:58:25.66	327.46	4.57	-60.9	-80.3	3.8	7.42e-01	0	30	104	659030016	89	35823
2026-01-04 14:58:26.66	327.61	4.53	-61.0	-80.3	3.8	7.44e-01	0	30	104	659030016	89	36009
2026-01-04 14:58:27.66	327.75	4.50	-61.0	-80.3	3.8	7.46e-01	0	29	104	659030016	89	36034
2026-01-04 14:58:28.65	327.90	4.46	-61.0	-80.4	3.8	7.47e-01	0	30	104	659030016	89	36222
2026-01-04 14:58:29.66	328.04	4.43	-61.0	-80.4	3.8	7.44e-01	0	30	104	659030016	89	36257
2026-01-04 14:58:30.66	328.19	4.39	-61.0	-80.4	3.8	7.44e-01	0	30	104	659030016	89	36443
2026-01-04 14:58:31.66	328.33	4.35	-61.0	-80.4	3.8	7.47e-01	0	30	104	659030016	89	36328
2026-01-04 14:58:32.66	328.47	4.32	-61.0	-80.4	3.8	7.45e-01	0	30	104	659030016	89	36314
2026-01-04 14:58:33.66	328.62	4.28	-61.0	-80.4	3.8	7.48e-01	0	30	104	659030016	89	36203
2026-01-04 14:58:34.65	328.76	4.24	-61.0	-80.4	3.8	7.46e-01	0	30	104	659030016	89	36117
2026-01-04 14:58:35.66	328.90	4.20	-61.0	-80.4	3.8	7.44e-01	0	30	104	659030016	89	36158
2026-01-04 14:58:36.66	329.04	4.17	-60.9	-80.3	3.9	7.47e-01	0	30	104	659030016	89	35888
2026-01-04 14:58:37.66	329.18	4.13	-60.9	-80.3	3.8	7.46e-01	0	30	104	659030016	89	35789
2026-01-04 14:58:38.66	329.32	4.09	-60.9	-80.3	3.8	7.46e-01	0	30	104	659030016	89	35702
2026-01-04 14:58:39.65	329.46	4.06	-60.9	-80.2	3.8	7.46e-01	0	30	104	659030016	89	35656
2026-01-04 14:58:40.66	329.60	4.02	-60.8	-80.2	3.8	7.43e-01	0	30	104	659030016	89	35576
2026-01-04 14:58:41.66	329.74	3.98	-60.8	-80.2	3.8	7.48e-01	0	30	104	659030016	89	35555
2026-01-04 14:58:42.66	329.88	3.94	-60.8	-80.2	3.8	7.46e-01	0	30	104	659030016	89	35423
2026-01-04 14:58:43.66	330.02	3.91	-60.8	-80.2	3.8	7.43e-01	0	29	104	659030016	89	35315
2026-01-04 14:58:44.66	330.16	3.87	-60.8	-80.2	3.8	7.47e-01	0	30	104	659030016	89	35358
2026-01-04 14:58:45.66	330.30	3.83	-60.8	-80.1	3.8	7.49e-01	0	30	104	659030016	89	35279
2026-01-04 14:58:46.66	330.44	3.79	-60.8	-80.1	3.8	7.43e-01	0	30	104	659030016	89	35282
2026-01-04 14:58:47.66	330.57	3.75	-60.8	-80.2	3.8	7.46e-01	0	30	104	659030016	89	35311
2026-01-04 14:58:48.65	330.71	3.72	-60.8	-80.1	3.8	7.43e-01	0	30	104	659030016	89	35199
2026-01-04 14:58:49.65	330.85	3.68	-60.7	-80.1	3.8	7.46e-01	0	29	104	659030016	89	35147
2026-01-04 14:58:50.65	330.98	3.64	-60.7	-80.1	3.8	7.45e-01	0	29	104	659030016	89	35089
2026-01-04 14:58:51.65	331.12	3.60	-60.7	-80.1	3.8	7.45e-01	0	30	104	659030016	89	35134
2026-01-04 14:58:52.64	331.25	3.57	-60.7	-80.1	3.8	7.47e-01	0	30	104	659030016	89	35138
2026-01-04 14:58:53.64	331.39	3.53	-60.7	-80.1	3.8	7.47e-01	0	30	104	659030016	89	34993
2026-01-04 14:58:54.63	331.52	3.49	-60.7	-80.1	3.8	7.45e-01	0	30	104	659030016	89	34972
2026-01-04 14:58:55.63	331.66	3.45	-60.7	-80.1	3.8	7.49e-01	0	30	104	659030016	89	34956
2026-01-04 14:58:56.63	331.79	3.41	-60.7	-80.1	3.8	7.49e-01	0	30	104	659030016	89	34992
2026-01-04 14:58:57.63	331.92	3.37	-60.7	-80.1	3.8	7.44e-01	0	30	104	659030016	89	34925
2026-01-04 14:58:58.63	332.06	3.34	-60.7	-80.1	3.8	7.48e-01	0	30	104	659030016	89	34908
2026-01-04 14:58:59.63	332.19	3.30	-60.7	-80.1	3.8	7.45e-01	0	30	104	659030016	89	34885
2026-01-04 14:59:00.63	332.32	3.26	-60.7	-80.0	3.8	7.47e-01	0	30	104	659030016	89	34854
2026-01-04 14:59:01.63	332.46	3.22	-60.7	-80.0	3.8	7.47e-01	0	30	104	659030016	89	34828
2026-01-04 14:59:02.64	332.59	3.18	-60.7	-80.0	3.8	7.48e-01	0	30	104	659030016	89	34817
2026-01-04 14:59:03.64	332.72	3.14	-60.6	-80.0	3.8	7.47e-01	0	30	104	659030016	89	34735
2026-01-04 14:59:04.64	332.85	3.10	-60.6	-80.0	3.8	7.48e-01	0	30	104	659030016	89	34709
2026-01-04 14:59:05.64	332.98	3.06	-60.6	-80.0	3.8	7.48e-01	0	30	104	659030016	89	34696
2026-01-04 14:59:06.64	333.11	3.02	-60.6	-80.0	3.8	7.45e-01	0	30	104	659030016	89	34749
2026-01-04 14:59:07.65	333.24	2.99	-60.6	-80.0	3.8	7.44e-01	0	30	104	659030016	89	34636
2026-01-04 14:59:08.65	333.37	2.95	-60.6	-80.0	3.8	7.46e-01	0	30	104	659030016	89	34714
2026-01-04 14:59:09.64	333.50	2.91	-60.6	-80.0	3.8	7.46e-01	0	30	104	659030016	89	34558
2026-01-04 14:59:10.63	333.63	2.87	-60.6	-80.0	3.8	7.45e-01	0	30	104	659030016	89	34701
2026-01-04 14:59:11.63	333.76	2.83	-60.6	-80.0	3.8	7.50e-01	0	30	104	659030016	89	34543
2026-01-04 14:59:12.62	333.88	2.79	-60.6	-80.0	3.8	7.49e-01	0	30	104	659030016	89	34516
2026-01-04 14:59:13.60	334.01	2.75	-60.6	-80.0	3.8	7.44e-01	0	30	104	659030016	89	34529
2026-01-04 14:59:14.60	334.14	2.71	-60.6	-80.0	3.8	7.47e-01	0	30	104	659030016	89	34601
2026-01-04 14:59:15.61	334.27	2.67	-60.6	-80.0	3.8	7.45e-01	0	30	104	659030016	89	34558
2026-01-04 14:59:16.61	334.39	2.63	-60.6	-80.0	3.8	7.45e-01	0	30	104	659030016	89	34498
2026-01-04 14:59:17.61	334.52	2.59	-60.6	-80.0	3.8	7.45e-01	0	30	104	659030016	89	34577
2026-01-04 14:59:18.60	334.64	2.55	-60.6	-80.0	3.8	7.48e-01	0	30	104	659030016	89	34581
2026-01-04 14:59:19.60	334.77	2.52	-60.6	-80.0	3.8	7.45e-01	0	30	104	659030016	89	34494
2026-01-04 14:59:20.59	334.89	2.48	-60.6	-80.0	3.8	7.46e-01	0	30	104	659030016	89	34563
2026-01-04 14:59:21.58	335.02	2.44	-60.6	-80.0	3.8	7.49e-01	0	30	104	659030016	89	34554
2026-01-04 14:59:22.58	335.14	2.40	-60.6	-79.9	3.8	7.49e-01	0	30	104	659030016	89	34470
2026-01-04 14:59:23.58	335.27	2.36	-60.6	-80.0	3.8	7.46e-01	0	30	104	659030016	89	34502
2026-01-04 14:59:24.57	335.39	2.32	-60.6	-80.0	3.8	7.48e-01	0	30	104	659030016	89	34487
2026-01-04 14:59:25.57	335.51	2.28	-60.6	-79.9	3.8	7.47e-01	0	30	104	659030016	89	34434
2026-01-04 14:59:26.57	335.64	2.24	-60.6	-79.9	3.8	7.44e-01	0	30	104	659030016	89	34414
2026-01-04 14:59:27.57	335.76	2.20	-60.6	-79.9	3.8	7.47e-01	0	30	104	659030016	89	34438
2026-01-04 14:59:28.57	335.88	2.16	-60.6	-79.9	3.8	7.46e-01	0	30	104	659030016	89	34345
2026-01-04 14:59:29.56	336.00	2.12	-60.6	-79.9	3.8	7.43e-01	0	30	104	659030016	89	34368
2026-01-04 14:59:30.56	336.13	2.08	-60.5	-79.9	3.8	7.45e-01	0	30	104	659030016	89	34344
2026-01-04 14:59:31.55	336.25	2.04	-60.5	-79.9	3.8	7.43e-01	0	30	104	659030016	89	34433
2026-01-04 14:59:32.55	336.37	2.00	-60.5	-79.9	3.8	7.47e-01	0	30	104	659030016	89	34341
2026-01-04 14:59:33.54	336.49	1.96	-60.5	-79.9	3.8	7.48e-01	0	30	104	659030016	89	34346
2026-01-04 14:59:34.54	336.61	1.92	-60.6	-79.9	3.8	7.45e-01	0	30	104	659030016	89	34331

#Closed at: 2026-01-04 14:59:35
#Recorded file [659 MB]: D:/lorett/data/31004_260104_175106.dat