passes_logs/2026/01/04/R3.2S_Murmansk/R3.2S_Murmansk__20260104_050601_AQUA_rec.log

#Pass ID: 20260104_050601_AQUA
#Satellite: AQUA
#Configuration: AQUA
#almurnet v.1.7.20251203
#Start time: 2026-01-04 05:06:03

#Version: 2.2.20231116
#Station: R3.2S_Murmansk
#Location: 33.079688 lon 68.888172 lat
#TLE: 1 27424U 02022A   25365.92641127  .00002078  00000+0  42628-3 0  9999
#TLE: 2 27424  98.4058 327.1196 0001962  94.7781 340.6230 14.61783896258835

#Time	Az	El	Level	Level2	SNR	BER	BlckErr	Temp	State	Recorded	gain1	gain2
2026-01-04 05:06:03.49	37.77	2.12	-60.2	-79.6	3.8	7.47e-01	0	26	0	0	88	35159
2026-01-04 05:06:04.50	37.70	2.18	-60.5	-79.8	3.8	7.48e-01	0	27	104	0	88	36023
2026-01-04 05:06:05.50	37.63	2.24	-60.5	-79.9	3.8	7.41e-01	0	27	104	0	88	36200
2026-01-04 05:06:06.51	37.56	2.30	-60.5	-79.8	3.8	7.49e-01	0	27	104	0	88	36095
2026-01-04 05:06:07.51	37.49	2.36	-60.5	-79.8	3.8	7.48e-01	0	26	104	0	88	36066
2026-01-04 05:06:08.51	37.43	2.42	-60.5	-79.8	3.8	7.48e-01	0	27	104	0	88	35990
2026-01-04 05:06:09.51	37.36	2.48	-60.5	-79.8	3.8	7.47e-01	0	27	104	0	88	36041
2026-01-04 05:06:10.51	37.29	2.54	-60.4	-79.8	3.8	7.44e-01	0	27	104	0	88	36083
2026-01-04 05:06:11.51	37.22	2.60	-60.4	-79.8	3.8	7.45e-01	0	27	104	0	88	35882
2026-01-04 05:06:12.52	37.15	2.66	-60.4	-79.8	3.8	7.45e-01	0	27	104	0	88	35694
2026-01-04 05:06:13.51	37.08	2.72	-60.3	-79.7	3.8	7.43e-01	0	27	104	0	88	35482
2026-01-04 05:06:14.51	37.00	2.78	-60.3	-79.7	3.8	7.51e-01	0	27	104	0	88	35522
2026-01-04 05:06:15.51	36.93	2.84	-60.3	-79.7	3.8	7.48e-01	0	27	104	0	88	35446
2026-01-04 05:06:16.51	36.86	2.90	-60.3	-79.6	3.8	7.47e-01	0	27	104	0	88	35248
2026-01-04 05:06:17.51	36.79	2.96	-60.2	-79.6	3.8	7.47e-01	0	27	104	0	88	34970
2026-01-04 05:06:18.51	36.72	3.02	-60.1	-79.5	3.8	7.46e-01	0	27	104	0	88	34618
2026-01-04 05:06:19.51	36.64	3.08	-60.0	-79.4	3.8	7.49e-01	0	27	104	0	88	34322
2026-01-04 05:06:20.51	36.57	3.15	-59.9	-79.3	3.8	7.44e-01	0	27	104	0	88	33783
2026-01-04 05:06:21.52	36.50	3.21	-59.7	-79.1	3.8	7.47e-01	0	27	104	0	88	33203
2026-01-04 05:06:22.52	36.42	3.27	-59.5	-78.9	3.8	7.46e-01	0	27	104	0	88	32319
2026-01-04 05:06:23.52	36.35	3.33	-59.2	-78.6	3.8	7.45e-01	0	27	104	0	87	33238
2026-01-04 05:06:24.51	36.28	3.39	-58.8	-78.2	3.8	7.46e-01	0	27	104	0	86	33558
2026-01-04 05:06:25.51	36.20	3.46	-58.3	-77.6	3.8	7.52e-01	0	27	104	0	85	33263
2026-01-04 05:06:26.52	36.13	3.52	-58.2	-77.6	3.8	7.50e-01	0	27	104	0	85	33146
2026-01-04 05:06:27.51	36.05	3.58	-58.2	-77.6	3.8	7.44e-01	0	27	104	0	85	33000
2026-01-04 05:06:28.51	35.97	3.64	-58.2	-77.6	3.8	7.47e-01	0	27	104	0	85	32973
2026-01-04 05:06:29.51	35.90	3.70	-58.2	-77.5	3.8	7.48e-01	0	27	104	0	85	32904
2026-01-04 05:06:30.51	35.82	3.77	-58.2	-77.5	3.8	7.44e-01	0	27	104	0	85	32916
2026-01-04 05:06:31.50	35.74	3.83	-58.2	-77.6	3.8	7.48e-01	0	27	104	0	85	32963
2026-01-04 05:06:32.50	35.67	3.89	-58.2	-77.6	3.8	7.47e-01	0	27	104	0	85	33082
2026-01-04 05:06:33.49	35.59	3.95	-58.2	-77.6	3.8	7.47e-01	0	27	104	0	85	33002
2026-01-04 05:06:34.48	35.51	4.02	-58.2	-77.5	3.8	7.47e-01	0	27	104	0	85	32882
2026-01-04 05:06:35.48	35.43	4.08	-58.2	-77.5	3.8	7.48e-01	0	27	104	0	85	32831
2026-01-04 05:06:36.48	35.36	4.14	-58.2	-77.4	3.8	7.46e-01	0	27	104	0	85	32519
2026-01-04 05:06:37.48	35.28	4.21	-58.2	-77.4	3.8	7.48e-01	0	27	104	0	85	32452
2026-01-04 05:06:38.47	35.20	4.27	-58.2	-77.4	3.8	7.44e-01	0	27	104	0	85	32507
2026-01-04 05:06:39.47	35.12	4.33	-58.2	-77.5	3.8	7.43e-01	0	27	104	0	85	32696
2026-01-04 05:06:40.47	35.04	4.40	-58.2	-77.5	3.8	7.46e-01	0	27	104	0	85	32864
2026-01-04 05:06:41.46	34.96	4.46	-58.2	-77.5	3.8	7.48e-01	0	27	104	0	85	32777
2026-01-04 05:06:42.46	34.87	4.52	-58.1	-77.3	3.8	7.47e-01	0	28	104	0	85	32112
2026-01-04 05:06:43.46	34.79	4.59	-58.1	-76.9	3.8	7.47e-01	0	28	104	0	85	30686
2026-01-04 05:06:44.46	34.71	4.65	-58.0	-76.3	3.8	7.43e-01	0	27	104	0	85	28550
2026-01-04 05:06:45.46	34.63	4.71	-57.9	-75.6	3.8	7.49e-01	0	27	104	0	84	28016
2026-01-04 05:06:46.46	34.55	4.78	-57.7	-74.7	3.8	7.45e-01	0	27	104	0	84	25130
2026-01-04 05:06:47.46	34.46	4.84	-57.5	-74.0	3.8	7.47e-01	0	28	104	0	84	23067
2026-01-04 05:06:48.46	34.38	4.91	-57.0	-72.6	3.8	7.44e-01	0	27	104	0	83	20882
2026-01-04 05:06:49.46	34.29	4.97	-56.7	-71.7	3.9	7.45e-01	0	27	104	0	82	20040
2026-01-04 05:06:50.46	34.21	5.04	-57.0	-72.3	3.8	7.47e-01	0	28	104	0	82	21312
2026-01-04 05:06:51.46	34.12	5.10	-57.7	-75.1	3.9	7.45e-01	0	28	104	0	83	27931
2026-01-04 05:06:52.45	34.04	5.17	-56.5	-71.0	3.8	7.50e-01	0	27	104	0	81	19459
2026-01-04 05:06:53.45	33.95	5.23	-57.2	-73.2	3.9	7.46e-01	0	27	104	0	82	23765
2026-01-04 05:06:54.45	33.87	5.30	-56.9	-72.4	3.9	7.42e-01	0	28	104	0	83	20490
2026-01-04 05:06:55.45	33.78	5.36	-53.5	-65.7	3.8	7.47e-01	0	28	104	0	76	14173
2026-01-04 05:06:56.45	33.69	5.43	-53.2	-65.5	3.8	7.49e-01	0	28	104	0	75	14561
2026-01-04 05:06:57.45	33.60	5.49	-53.0	-65.2	3.8	7.45e-01	0	28	104	0	75	14149
2026-01-04 05:06:58.45	33.52	5.56	-53.3	-65.6	3.8	7.47e-01	0	28	104	0	75	14826
2026-01-04 05:06:59.45	33.43	5.63	-54.8	-67.8	3.9	7.47e-01	0	27	104	0	77	17053
2026-01-04 05:07:00.45	33.34	5.69	-56.2	-70.6	3.8	7.46e-01	0	28	104	0	80	19715
2026-01-04 05:07:01.46	33.25	5.76	-57.0	-72.6	3.9	7.48e-01	0	28	104	0	83	20885
2026-01-04 05:07:02.46	33.16	5.82	-55.5	-68.8	3.8	7.47e-01	0	28	104	0	78	17902
2026-01-04 05:07:03.46	33.07	5.89	-56.3	-70.8	3.9	7.43e-01	0	28	104	0	82	18082
2026-01-04 05:07:04.46	32.98	5.96	-53.2	-65.4	3.8	7.42e-01	0	28	104	0	75	14407
2026-01-04 05:07:05.46	32.89	6.02	-53.0	-65.0	3.9	7.44e-01	0	28	104	0	75	13819
2026-01-04 05:07:06.45	32.79	6.09	-54.3	-67.1	3.8	7.42e-01	0	28	104	0	76	16514
2026-01-04 05:07:07.45	32.70	6.16	-57.0	-72.3	3.9	7.45e-01	0	28	104	0	83	20085
2026-01-04 05:07:08.44	32.61	6.22	-56.3	-70.4	3.8	7.44e-01	0	28	104	0	81	18299
2026-01-04 05:07:09.44	32.52	6.29	-57.2	-73.1	3.9	7.45e-01	0	28	104	0	83	22125
2026-01-04 05:07:10.45	32.42	6.36	-56.9	-72.1	4.0	7.41e-01	0	28	104	0	83	19737
2026-01-04 05:07:11.45	32.33	6.43	-52.8	-64.8	3.8	7.45e-01	0	28	104	0	74	14342
2026-01-04 05:07:12.45	32.23	6.49	-52.7	-64.7	3.8	7.44e-01	0	28	104	0	74	14103
2026-01-04 05:07:13.45	32.14	6.56	-52.2	-64.1	3.8	7.44e-01	0	28	104	0	73	13907
2026-01-04 05:07:14.45	32.04	6.63	-52.3	-64.2	3.8	7.48e-01	0	28	104	0	73	14128
2026-01-04 05:07:15.44	31.95	6.70	-53.6	-65.9	3.9	7.45e-01	0	28	104	0	74	16208
2026-01-04 05:07:16.44	31.85	6.76	-56.1	-69.9	3.8	7.48e-01	0	28	104	0	79	19219
2026-01-04 05:07:17.44	31.75	6.83	-57.0	-72.2	3.9	7.44e-01	0	28	104	0	83	19966
2026-01-04 05:07:18.44	31.65	6.90	-55.1	-68.0	3.9	7.46e-01	0	28	104	0	77	17426
2026-01-04 05:07:19.44	31.56	6.97	-56.0	-70.0	3.9	7.44e-01	0	28	104	0	81	17383
2026-01-04 05:07:20.44	31.46	7.04	-52.9	-65.0	3.8	7.48e-01	0	28	104	0	75	13746
2026-01-04 05:07:21.44	31.36	7.11	-52.6	-64.5	3.9	7.42e-01	0	28	104	0	74	13784
2026-01-04 05:07:22.44	31.26	7.18	-54.1	-66.5	3.8	7.48e-01	0	28	104	0	75	16461
2026-01-04 05:07:23.44	31.16	7.24	-57.2	-72.4	3.9	7.44e-01	0	28	104	0	83	20504
2026-01-04 05:07:24.44	31.06	7.31	-56.3	-70.1	3.8	7.45e-01	0	28	104	0	81	17634
2026-01-04 05:07:25.44	30.95	7.38	-57.2	-72.8	3.9	7.44e-01	0	28	104	0	83	21332
2026-01-04 05:07:26.43	30.85	7.45	-57.1	-72.5	3.9	7.41e-01	0	28	104	0	83	20732
2026-01-04 05:07:27.44	30.75	7.52	-53.0	-65.1	3.8	7.46e-01	0	28	104	0	75	13896
2026-01-04 05:07:28.43	30.65	7.59	-53.0	-64.9	3.8	7.47e-01	0	28	104	0	75	13693
2026-01-04 05:07:29.44	30.54	7.66	-52.8	-64.8	3.9	7.45e-01	0	28	104	0	74	14313
2026-01-04 05:07:30.43	30.44	7.73	-52.8	-64.8	3.8	7.43e-01	0	28	104	0	74	14225
2026-01-04 05:07:31.43	30.33	7.80	-53.6	-65.8	3.8	7.49e-01	0	28	104	0	74	15995
2026-01-04 05:07:32.43	30.23	7.87	-56.0	-69.6	3.9	7.48e-01	0	28	104	0	79	18681
2026-01-04 05:07:33.43	30.12	7.94	-57.0	-72.2	3.9	7.43e-01	0	28	104	0	83	19848
2026-01-04 05:07:34.43	30.02	8.01	-54.1	-66.4	3.8	7.47e-01	0	28	104	0	75	16246
2026-01-04 05:07:35.42	29.91	8.08	-56.2	-70.1	3.9	7.48e-01	0	28	104	0	81	17673
2026-01-04 05:07:36.42	29.80	8.15	-52.1	-63.8	3.8	7.50e-01	0	28	104	0	73	13515
2026-01-04 05:07:37.42	29.69	8.22	-52.0	-63.7	3.8	7.44e-01	0	28	104	0	73	13381
2026-01-04 05:07:38.41	29.59	8.29	-53.7	-65.6	3.8	7.50e-01	0	28	104	0	74	15759
2026-01-04 05:07:39.41	29.48	8.36	-57.4	-72.6	3.9	7.47e-01	0	28	104	0	84	19645
2026-01-04 05:07:40.40	29.37	8.43	-56.1	-69.8	3.9	7.46e-01	0	28	104	0	81	16961
2026-01-04 05:07:41.40	29.26	8.50	-57.4	-73.1	3.9	7.45e-01	0	28	104	0	83	22010
2026-01-04 05:07:42.40	29.14	8.57	-57.0	-71.9	3.9	7.44e-01	0	28	104	0	83	19331
2026-01-04 05:07:43.39	29.03	8.64	-53.7	-65.9	3.8	7.48e-01	0	28	104	0	76	14463
2026-01-04 05:07:44.39	28.92	8.72	-53.7	-65.9	3.8	7.49e-01	0	28	104	0	76	14490
2026-01-04 05:07:45.39	28.81	8.79	-53.6	-65.7	3.9	7.46e-01	0	28	104	0	76	14192
2026-01-04 05:07:46.39	28.69	8.86	-52.6	-64.5	3.8	7.44e-01	0	28	104	0	74	13840
2026-01-04 05:07:47.39	28.58	8.93	-53.1	-65.1	3.8	7.44e-01	0	28	104	0	73	15620
2026-01-04 05:07:48.38	28.47	9.00	-55.4	-68.4	3.9	7.46e-01	0	28	104	0	78	17258
2026-01-04 05:07:49.38	28.35	9.08	-57.3	-72.7	3.9	7.44e-01	0	28	104	0	83	21180
2026-01-04 05:07:50.38	28.23	9.15	-53.8	-66.1	3.8	7.47e-01	0	28	104	0	75	15663
2026-01-04 05:07:51.39	28.12	9.22	-56.1	-69.8	3.9	7.46e-01	0	28	104	0	81	17034
2026-01-04 05:07:52.38	28.00	9.29	-51.9	-63.5	3.8	7.45e-01	0	28	104	0	73	13107
2026-01-04 05:07:53.38	27.88	9.37	-51.6	-63.3	3.8	7.46e-01	0	28	104	0	72	13517
2026-01-04 05:07:54.38	27.76	9.44	-51.9	-63.5	3.8	7.44e-01	0	28	104	0	71	14637
2026-01-04 05:07:55.37	27.64	9.51	-57.0	-71.7	3.9	7.46e-01	0	28	104	0	83	18893
2026-01-04 05:07:56.37	27.52	9.58	-56.0	-69.5	3.8	7.46e-01	0	28	104	0	81	16342
2026-01-04 05:07:57.37	27.40	9.66	-57.4	-73.0	3.9	7.43e-01	0	28	104	0	83	21960
2026-01-04 05:07:58.38	27.28	9.73	-57.6	-73.1	3.9	7.42e-01	0	28	104	0	84	20983
2026-01-04 05:07:59.38	27.16	9.80	-53.5	-65.6	3.8	7.44e-01	0	28	104	0	76	14002
2026-01-04 05:08:00.37	27.04	9.88	-53.5	-65.5	3.8	7.46e-01	0	28	104	0	76	13814
2026-01-04 05:08:01.37	26.91	9.95	-53.0	-64.9	3.8	7.46e-01	0	28	104	0	75	13681
2026-01-04 05:08:02.36	26.79	10.02	-52.3	-64.1	3.8	7.45e-01	0	28	104	0	73	13990
2026-01-04 05:08:03.36	26.66	10.10	-52.8	-64.6	3.8	7.45e-01	0	28	104	0	73	14798
2026-01-04 05:08:04.36	26.54	10.17	-55.3	-68.2	3.8	7.43e-01	0	28	104	0	78	16827
2026-01-04 05:08:05.36	26.41	10.25	-57.3	-72.6	3.9	7.44e-01	0	28	104	0	83	20907
2026-01-04 05:08:06.36	26.28	10.32	-52.9	-64.7	3.8	7.47e-01	0	28	104	0	73	15030
2026-01-04 05:08:07.35	26.16	10.39	-55.8	-69.8	3.9	7.40e-01	0	28	104	0	81	17008
2026-01-04 05:08:08.36	26.03	10.47	-51.2	-62.7	3.9	7.44e-01	0	28	104	0	71	13405
2026-01-04 05:08:09.36	25.90	10.54	-51.0	-62.5	3.8	7.45e-01	0	28	104	0	71	13042
2026-01-04 05:08:10.36	25.77	10.62	-51.3	-62.9	3.8	7.45e-01	0	28	104	0	70	14382
2026-01-04 05:08:11.36	25.64	10.69	-56.8	-70.9	3.9	7.44e-01	0	28	104	0	82	18224
2026-01-04 05:08:12.36	25.51	10.77	-55.8	-68.9	3.9	7.44e-01	0	28	104	0	80	16221
2026-01-04 05:08:13.36	25.37	10.84	-57.4	-72.8	3.9	7.43e-01	0	28	104	0	83	21352
2026-01-04 05:08:14.36	25.24	10.92	-57.6	-73.1	3.9	7.45e-01	0	28	104	0	84	20815
2026-01-04 05:08:15.35	25.11	10.99	-52.7	-64.5	3.9	7.45e-01	0	28	104	0	74	13864
2026-01-04 05:08:16.35	24.97	11.07	-52.7	-64.5	3.8	7.48e-01	0	28	104	0	74	13816
2026-01-04 05:08:17.34	24.84	11.14	-52.6	-64.3	3.9	7.39e-01	0	28	104	0	74	13537
2026-01-04 05:08:18.33	24.70	11.22	-52.3	-64.0	3.8	7.49e-01	0	28	104	0	73	13773
2026-01-04 05:08:19.33	24.57	11.29	-52.4	-64.2	3.8	7.42e-01	0	28	104	0	73	14106
2026-01-04 05:08:20.33	24.43	11.37	-55.1	-67.6	3.8	7.45e-01	0	28	104	0	77	16557
2026-01-04 05:08:21.34	24.29	11.45	-57.4	-72.7	3.9	7.49e-01	0	28	104	0	83	21188
2026-01-04 05:08:22.34	24.15	11.52	-52.5	-64.2	3.8	7.46e-01	0	28	104	0	72	15014
2026-01-04 05:08:23.34	24.01	11.60	-56.1	-69.8	3.9	7.43e-01	0	28	104	0	81	16908
2026-01-04 05:08:24.34	23.87	11.67	-51.5	-63.1	3.8	7.46e-01	0	28	104	0	72	13114
2026-01-04 05:08:25.34	23.73	11.75	-51.3	-62.9	3.8	7.47e-01	0	28	104	0	71	13618
2026-01-04 05:08:26.33	23.59	11.83	-51.3	-62.8	3.8	7.44e-01	0	28	104	0	70	14350
2026-01-04 05:08:27.33	23.44	11.90	-56.8	-71.3	3.9	7.43e-01	0	28	104	0	82	18963
2026-01-04 05:08:28.33	23.30	11.98	-55.9	-69.2	3.9	7.47e-01	0	28	104	0	81	15837
2026-01-04 05:08:29.33	23.15	12.06	-57.4	-72.6	3.9	7.46e-01	0	28	104	0	83	20846
2026-01-04 05:08:30.32	23.01	12.13	-58.2	-74.9	3.9	7.44e-01	0	28	104	0	84	25592
2026-01-04 05:08:31.32	22.86	12.21	-51.7	-63.3	3.8	7.46e-01	0	28	104	0	72	13531
2026-01-04 05:08:32.33	22.71	12.29	-51.6	-63.2	3.9	7.47e-01	0	28	104	0	72	13321
2026-01-04 05:08:33.33	22.57	12.36	-51.6	-63.2	3.9	7.45e-01	0	28	104	0	72	13273
2026-01-04 05:08:34.32	22.42	12.44	-51.0	-62.5	3.9	7.45e-01	0	28	104	0	71	13032
2026-01-04 05:08:35.32	22.27	12.52	-51.4	-62.9	3.8	7.46e-01	0	28	104	0	71	13607
2026-01-04 05:08:36.32	22.12	12.59	-54.7	-67.3	3.8	7.46e-01	0	28	104	0	77	15986
2026-01-04 05:08:37.30	21.97	12.67	-57.8	-73.4	3.9	7.42e-01	0	28	104	0	84	21697
2026-01-04 05:08:38.30	21.82	12.75	-52.1	-63.7	3.9	7.43e-01	0	28	104	0	72	14112
2026-01-04 05:08:39.30	21.66	12.83	-56.3	-69.6	3.9	7.45e-01	0	28	104	0	81	16692
2026-01-04 05:08:40.28	21.51	12.90	-51.3	-62.8	3.9	7.45e-01	0	28	104	0	71	13557
2026-01-04 05:08:41.27	21.36	12.98	-50.8	-62.2	3.9	7.42e-01	0	28	104	0	70	13386
2026-01-04 05:08:42.27	21.20	13.06	-51.4	-62.9	3.8	7.46e-01	0	28	104	0	70	14524
2026-01-04 05:08:43.26	21.05	13.13	-58.7	-76.3	3.8	7.47e-01	0	28	104	0	85	28410
2026-01-04 05:08:44.26	20.89	13.21	-55.9	-69.1	3.9	7.45e-01	0	28	104	0	81	15724
2026-01-04 05:08:45.25	20.73	13.29	-57.7	-73.2	3.8	7.44e-01	0	28	104	0	83	22420
2026-01-04 05:08:46.24	20.57	13.37	-58.2	-74.6	3.9	7.44e-01	0	28	104	0	84	24917
2026-01-04 05:08:47.25	20.41	13.44	-52.2	-63.8	3.9	7.43e-01	0	28	104	0	73	13514
2026-01-04 05:08:48.25	20.25	13.52	-52.2	-63.9	3.8	7.43e-01	0	28	104	0	73	13602
2026-01-04 05:08:49.24	20.09	13.60	-51.6	-63.2	3.9	7.44e-01	0	28	104	0	72	13283
2026-01-04 05:08:50.24	19.92	13.68	-51.1	-62.6	3.8	7.45e-01	0	28	104	0	71	13131
2026-01-04 05:08:51.24	19.76	13.76	-51.4	-62.9	3.9	7.44e-01	0	28	104	0	71	13593
2026-01-04 05:08:52.23	19.60	13.84	-54.0	-66.2	3.9	7.45e-01	0	28	104	0	75	15870
2026-01-04 05:08:53.23	19.43	13.91	-58.2	-74.2	3.9	7.45e-01	0	28	104	0	84	23620
2026-01-04 05:08:54.23	19.26	13.99	-51.0	-62.4	3.9	7.43e-01	0	28	104	0	70	13682
2026-01-04 05:08:55.23	19.09	14.07	-57.0	-71.4	3.9	7.45e-01	0	28	104	0	83	18126
2026-01-04 05:08:56.23	18.93	14.15	-51.0	-62.5	3.9	7.47e-01	0	28	104	0	71	12989
2026-01-04 05:08:57.23	18.76	14.23	-50.7	-62.1	3.9	7.45e-01	0	28	104	0	70	13202
2026-01-04 05:08:58.23	18.58	14.31	-50.4	-61.8	3.9	7.45e-01	0	28	104	0	69	13452
2026-01-04 05:08:59.23	18.41	14.39	-56.2	-69.6	3.9	7.40e-01	0	28	104	0	81	16576
2026-01-04 05:09:00.22	18.24	14.46	-54.1	-66.2	3.8	7.50e-01	0	28	104	0	75	15888
2026-01-04 05:09:01.23	18.06	14.54	-58.2	-74.5	3.9	7.42e-01	0	28	104	0	84	24465
2026-01-04 05:09:02.23	17.89	14.62	-50.9	-62.3	3.8	7.44e-01	0	28	104	0	70	13445
2026-01-04 05:09:03.22	17.71	14.70	-57.0	-71.2	3.9	7.47e-01	0	28	104	0	82	18928
2026-01-04 05:09:04.23	17.54	14.78	-50.9	-62.4	3.9	7.49e-01	0	28	104	0	71	12811
2026-01-04 05:09:05.23	17.36	14.86	-50.6	-62.0	3.9	7.47e-01	0	28	104	0	70	12987
2026-01-04 05:09:06.22	17.18	14.94	-50.7	-62.1	3.9	7.45e-01	0	28	104	0	70	13177
2026-01-04 05:09:07.22	17.00	15.02	-57.3	-72.0	4.0	7.45e-01	0	28	104	0	84	18448
2026-01-04 05:09:08.22	16.82	15.09	-54.0	-66.1	3.9	7.51e-01	0	28	104	0	75	15610
2026-01-04 05:09:09.22	16.64	15.17	-58.3	-74.4	3.9	7.42e-01	0	28	104	0	84	24320
2026-01-04 05:09:10.21	16.45	15.25	-51.2	-62.7	3.8	7.49e-01	0	28	104	0	71	13321
2026-01-04 05:09:11.21	16.27	15.33	-56.8	-70.9	3.9	7.42e-01	0	28	104	0	82	18270
2026-01-04 05:09:12.21	16.08	15.41	-51.2	-62.7	3.8	7.46e-01	0	28	104	0	71	13404
2026-01-04 05:09:13.21	15.90	15.49	-51.0	-62.5	3.9	7.45e-01	0	28	104	0	71	13032
2026-01-04 05:09:14.21	15.71	15.57	-50.6	-62.1	3.8	7.45e-01	0	28	104	0	70	13117
2026-01-04 05:09:15.20	15.52	15.65	-57.4	-72.3	3.9	7.48e-01	0	28	104	0	83	20234
2026-01-04 05:09:16.20	15.33	15.72	-56.1	-69.4	3.8	7.47e-01	0	28	104	0	81	16205
2026-01-04 05:09:17.20	15.14	15.80	-57.7	-73.0	3.9	7.45e-01	0	28	104	0	83	21911
2026-01-04 05:09:18.20	14.95	15.88	-58.5	-75.1	3.9	7.45e-01	0	28	104	0	85	24817
2026-01-04 05:09:19.20	14.76	15.96	-51.8	-63.3	3.8	7.45e-01	0	28	104	0	72	13531
2026-01-04 05:09:20.20	14.56	16.04	-51.9	-63.5	3.9	7.42e-01	0	28	104	0	72	13884
2026-01-04 05:09:21.19	14.37	16.12	-51.8	-63.4	3.8	7.46e-01	0	28	104	0	72	13628
2026-01-04 05:09:22.19	14.17	16.20	-51.1	-62.6	3.9	7.46e-01	0	28	104	0	71	13143
2026-01-04 05:09:23.19	13.98	16.28	-51.3	-62.7	3.8	7.47e-01	0	28	104	0	71	13392
2026-01-04 05:09:24.18	13.78	16.35	-53.7	-65.7	3.8	7.46e-01	0	28	104	0	75	14975
2026-01-04 05:09:25.18	13.58	16.43	-58.4	-75.0	3.9	7.45e-01	0	28	104	0	85	24444
2026-01-04 05:09:26.18	13.38	16.51	-50.8	-62.2	3.8	7.45e-01	0	28	104	0	70	13406
2026-01-04 05:09:27.18	13.18	16.59	-57.0	-71.2	3.9	7.44e-01	0	28	104	0	82	18866
2026-01-04 05:09:28.17	12.97	16.67	-50.9	-62.3	3.8	7.45e-01	0	28	104	0	70	13467
2026-01-04 05:09:29.17	12.77	16.74	-50.6	-62.0	3.8	7.47e-01	0	28	104	0	70	13036
2026-01-04 05:09:30.17	12.56	16.82	-50.2	-61.5	3.8	7.45e-01	0	28	104	0	69	13072
2026-01-04 05:09:31.18	12.36	16.90	-56.0	-69.4	3.9	7.46e-01	0	28	104	0	81	16304
2026-01-04 05:09:32.18	12.15	16.98	-53.6	-65.5	3.9	7.45e-01	0	28	104	0	74	15525
2026-01-04 05:09:33.18	11.94	17.06	-58.4	-74.9	3.9	7.47e-01	0	28	104	0	85	24250
2026-01-04 05:09:34.18	11.73	17.13	-50.7	-62.1	3.8	7.44e-01	0	28	104	0	70	13197
2026-01-04 05:09:35.18	11.52	17.21	-56.9	-71.0	3.9	7.44e-01	0	28	104	0	82	18382
2026-01-04 05:09:36.17	11.31	17.29	-50.9	-62.2	3.8	7.46e-01	0	28	104	0	71	12664
2026-01-04 05:09:37.17	11.09	17.37	-50.3	-61.5	3.8	7.47e-01	0	28	104	0	69	13040
2026-01-04 05:09:38.16	10.88	17.44	-50.4	-61.8	3.9	7.48e-01	0	28	104	0	69	13509
2026-01-04 05:09:39.16	10.67	17.52	-57.6	-72.7	3.9	7.42e-01	0	28	104	0	84	19979
2026-01-04 05:09:40.16	10.45	17.60	-53.7	-65.6	3.9	7.46e-01	0	28	104	0	74	15718
2026-01-04 05:09:41.16	10.23	17.67	-58.3	-75.1	3.9	7.46e-01	0	28	104	0	85	24709
2026-01-04 05:09:42.16	10.01	17.75	-50.8	-62.3	3.9	7.47e-01	0	28	104	0	70	13430
2026-01-04 05:09:43.16	9.79	17.83	-57.0	-71.1	3.9	7.44e-01	0	28	104	0	82	18614
2026-01-04 05:09:44.17	9.57	17.90	-51.1	-62.6	3.8	7.40e-01	0	28	104	0	71	13199
2026-01-04 05:09:45.16	9.34	17.98	-50.7	-62.1	3.9	7.46e-01	0	28	104	0	70	13233
2026-01-04 05:09:46.16	9.12	18.06	-50.3	-61.6	3.8	7.45e-01	0	28	104	0	69	13150
2026-01-04 05:09:47.16	8.89	18.13	-56.2	-69.4	3.9	7.44e-01	0	28	104	0	81	16171
2026-01-04 05:09:48.14	8.67	18.21	-53.6	-65.6	3.8	7.48e-01	0	29	104	0	74	15677
2026-01-04 05:09:49.14	8.44	18.28	-58.5	-75.2	3.9	7.43e-01	0	28	104	0	85	25047
2026-01-04 05:09:50.14	8.22	18.36	-50.8	-62.2	3.9	7.47e-01	0	28	104	0	70	13371
2026-01-04 05:09:51.13	7.99	18.43	-57.2	-71.5	3.9	7.46e-01	0	28	104	0	82	19403
2026-01-04 05:09:52.13	7.76	18.51	-51.2	-62.7	3.8	7.46e-01	0	28	104	0	71	13318
2026-01-04 05:09:53.13	7.52	18.58	-50.8	-62.2	3.8	7.40e-01	0	28	104	0	70	13377
2026-01-04 05:09:54.13	7.29	18.66	-50.9	-62.3	3.9	7.46e-01	0	28	104	0	70	13437
2026-01-04 05:09:55.14	7.05	18.73	-58.3	-74.5	3.9	7.45e-01	0	28	104	0	85	23051
2026-01-04 05:09:56.13	6.82	18.80	-53.5	-65.5	3.8	7.45e-01	0	28	104	0	74	15498
2026-01-04 05:09:57.13	6.58	18.88	-58.6	-75.8	3.8	7.48e-01	0	28	104	0	85	26772
2026-01-04 05:09:58.13	6.34	18.95	-50.9	-62.3	3.9	7.42e-01	0	28	104	0	71	12799
2026-01-04 05:09:59.13	6.10	19.02	-57.1	-71.3	3.8	7.46e-01	0	28	104	0	82	18988
2026-01-04 05:10:00.12	5.86	19.10	-51.1	-62.5	3.9	7.48e-01	0	28	104	0	71	13066
2026-01-04 05:10:01.12	5.62	19.17	-50.6	-62.0	3.9	7.44e-01	0	28	104	0	70	13101
2026-01-04 05:10:02.12	5.37	19.24	-50.3	-61.7	3.9	7.44e-01	0	28	104	0	69	13283
2026-01-04 05:10:03.12	5.13	19.31	-55.7	-68.9	3.9	7.39e-01	0	28	104	0	80	16160
2026-01-04 05:10:04.12	4.88	19.39	-53.6	-65.5	3.8	7.46e-01	0	28	104	0	74	15429
2026-01-04 05:10:05.12	4.63	19.46	-58.6	-75.8	3.9	7.45e-01	0	28	104	0	85	26943
2026-01-04 05:10:06.12	4.39	19.53	-51.0	-62.5	3.9	7.43e-01	0	28	104	0	71	13020
2026-01-04 05:10:07.13	4.13	19.60	-57.1	-71.3	3.9	7.45e-01	0	28	104	0	82	19074
2026-01-04 05:10:08.13	3.88	19.67	-51.2	-62.5	3.9	7.44e-01	0	28	104	0	71	13093
2026-01-04 05:10:09.13	3.63	19.74	-50.6	-62.0	3.9	7.45e-01	0	28	104	0	70	13028
2026-01-04 05:10:10.12	3.38	19.81	-50.3	-61.6	3.9	7.44e-01	0	28	104	0	69	13251
2026-01-04 05:10:11.13	3.12	19.88	-55.9	-69.0	3.9	7.40e-01	0	28	104	0	81	15540
2026-01-04 05:10:12.13	2.86	19.95	-53.6	-65.5	3.9	7.44e-01	0	28	104	0	74	15465
2026-01-04 05:10:13.12	2.61	20.02	-58.7	-75.9	3.9	7.42e-01	0	28	104	0	85	27253
2026-01-04 05:10:14.12	2.35	20.09	-50.9	-62.4	3.9	7.44e-01	0	28	104	0	71	12927
2026-01-04 05:10:15.12	2.09	20.15	-57.1	-71.4	3.8	7.47e-01	0	28	104	0	82	19229
2026-01-04 05:10:16.12	1.83	20.22	-51.5	-63.1	3.8	7.47e-01	0	28	104	0	72	13149
2026-01-04 05:10:17.12	1.57	20.29	-51.7	-63.2	3.9	7.46e-01	0	28	104	0	72	13407
2026-01-04 05:10:18.12	1.30	20.36	-51.2	-62.7	3.9	7.44e-01	0	28	104	0	71	13400
2026-01-04 05:10:19.11	1.04	20.42	-54.3	-66.6	3.9	7.43e-01	0	28	104	0	77	14879
2026-01-04 05:10:20.11	0.78	20.49	-53.5	-65.5	3.8	7.46e-01	0	28	104	0	74	15438
2026-01-04 05:10:21.12	0.51	20.55	-58.5	-76.0	3.9	7.45e-01	0	28	104	0	85	27561
2026-01-04 05:10:22.11	0.24	20.62	-51.1	-62.6	3.8	7.45e-01	0	28	104	0	71	13256
2026-01-04 05:10:23.11	359.97	20.68	-57.2	-71.4	3.8	7.43e-01	0	28	104	0	82	19217
2026-01-04 05:10:24.11	359.70	20.75	-51.5	-63.0	3.9	7.45e-01	0	29	104	0	72	13100
2026-01-04 05:10:25.10	359.43	20.81	-51.3	-62.9	3.8	7.50e-01	0	28	104	0	71	13585
2026-01-04 05:10:26.10	359.16	20.87	-51.2	-62.7	3.9	7.48e-01	0	28	104	0	71	13338
2026-01-04 05:10:27.10	358.88	20.93	-56.9	-70.9	3.9	7.44e-01	0	28	104	0	83	17269
2026-01-04 05:10:28.10	358.61	21.00	-53.5	-65.4	3.9	7.45e-01	0	28	104	0	74	15383
2026-01-04 05:10:29.11	358.33	21.06	-58.8	-76.0	3.9	7.48e-01	0	28	104	0	85	27430
2026-01-04 05:10:30.10	358.05	21.12	-51.3	-62.7	3.9	7.49e-01	0	28	104	0	71	13383
2026-01-04 05:10:31.10	357.77	21.18	-57.1	-71.3	3.9	7.43e-01	0	28	104	0	82	19084
2026-01-04 05:10:32.10	357.49	21.24	-51.4	-62.9	3.8	7.44e-01	0	29	104	0	72	12885
2026-01-04 05:10:33.09	357.21	21.30	-51.1	-62.5	3.9	7.44e-01	0	28	104	0	71	13035
2026-01-04 05:10:34.09	356.93	21.36	-50.9	-62.3	3.9	7.46e-01	0	29	104	0	71	12758
2026-01-04 05:10:35.09	356.65	21.42	-54.1	-66.3	3.9	7.43e-01	0	28	104	0	77	14330
2026-01-04 05:10:36.09	356.36	21.47	-53.5	-65.3	3.9	7.47e-01	0	28	104	0	74	15217
2026-01-04 05:10:37.09	356.08	21.53	-58.8	-76.0	3.9	7.44e-01	0	28	104	0	85	27645
2026-01-04 05:10:38.08	355.79	21.59	-52.0	-63.6	3.8	7.44e-01	0	28	104	0	73	13172
2026-01-04 05:10:39.08	355.50	21.64	-57.3	-71.6	3.8	7.44e-01	0	28	104	0	82	19782
2026-01-04 05:10:40.08	355.21	21.70	-51.9	-63.5	3.9	7.45e-01	0	28	104	0	73	13008
2026-01-04 05:10:41.07	354.93	21.75	-51.6	-63.2	3.8	7.42e-01	0	28	104	0	72	13331
2026-01-04 05:10:42.07	354.63	21.81	-51.2	-62.6	3.9	7.45e-01	0	28	104	0	71	13193
2026-01-04 05:10:43.05	354.35	21.86	-55.3	-68.0	3.9	7.44e-01	0	28	104	0	79	15537
2026-01-04 05:10:44.05	354.05	21.91	-53.5	-65.3	3.8	7.46e-01	0	28	104	0	74	15082
2026-01-04 05:10:45.05	353.76	21.97	-59.0	-76.6	3.8	7.43e-01	0	29	104	0	85	29475
2026-01-04 05:10:46.05	353.46	22.02	-51.7	-63.2	3.8	7.47e-01	0	28	104	0	72	13330
2026-01-04 05:10:47.05	353.17	22.07	-57.4	-71.8	3.8	7.46e-01	0	28	104	0	82	20126
2026-01-04 05:10:48.05	352.87	22.12	-51.6	-63.2	3.9	7.46e-01	0	28	104	0	72	13359
2026-01-04 05:10:49.05	352.57	22.17	-51.3	-62.7	3.8	7.46e-01	0	28	104	0	71	13341
2026-01-04 05:10:50.05	352.27	22.22	-50.9	-62.4	3.9	7.45e-01	0	28	104	0	71	12843
2026-01-04 05:10:51.05	351.97	22.26	-54.7	-67.1	3.8	7.42e-01	0	28	104	0	77	15641
2026-01-04 05:10:52.06	351.67	22.31	-53.7	-65.6	3.9	7.44e-01	0	28	104	0	75	14738
2026-01-04 05:10:53.06	351.36	22.36	-59.0	-76.7	3.8	7.44e-01	0	28	104	0	85	29696
2026-01-04 05:10:54.07	351.06	22.41	-51.5	-63.0	3.8	7.46e-01	0	28	104	0	72	13084
2026-01-04 05:10:55.06	350.75	22.45	-57.4	-71.6	3.8	7.46e-01	0	28	104	0	82	19777
2026-01-04 05:10:56.06	350.45	22.49	-51.7	-63.1	3.9	7.45e-01	0	29	104	0	72	13140
2026-01-04 05:10:57.06	350.14	22.54	-51.3	-62.8	3.8	7.44e-01	0	28	104	0	71	13465
2026-01-04 05:10:58.05	349.84	22.58	-50.9	-62.2	3.8	7.43e-01	0	28	104	0	71	12611
2026-01-04 05:10:59.05	349.53	22.62	-54.9	-67.4	3.9	7.45e-01	0	28	104	0	78	15349
2026-01-04 05:11:00.04	349.22	22.66	-53.6	-65.5	3.9	7.48e-01	0	28	104	0	74	15572
2026-01-04 05:11:01.05	348.91	22.70	-59.1	-76.7	3.8	7.44e-01	0	28	104	0	86	28131
2026-01-04 05:11:02.05	348.60	22.74	-51.7	-63.2	3.8	7.43e-01	0	28	104	0	72	13263
2026-01-04 05:11:03.05	348.29	22.78	-57.4	-71.7	3.8	7.48e-01	0	28	104	0	82	19861
2026-01-04 05:11:04.05	347.98	22.82	-51.7	-63.2	3.9	7.47e-01	0	28	104	0	72	13373
2026-01-04 05:11:05.05	347.66	22.86	-51.5	-62.9	3.8	7.45e-01	0	28	104	0	72	12884
2026-01-04 05:11:06.06	347.34	22.90	-51.1	-62.5	3.9	7.46e-01	0	28	104	0	71	13051
2026-01-04 05:11:07.06	347.03	22.93	-54.9	-67.4	3.9	7.44e-01	0	28	104	0	78	15270
2026-01-04 05:11:08.06	346.71	22.97	-53.7	-65.6	3.9	7.49e-01	0	28	104	0	75	14829
2026-01-04 05:11:09.05	346.40	23.00	-59.1	-76.8	3.8	7.43e-01	0	28	104	0	86	28372
2026-01-04 05:11:10.05	346.08	23.03	-51.7	-63.2	3.9	7.47e-01	0	29	104	0	72	13348
2026-01-04 05:11:11.05	345.77	23.06	-57.4	-71.7	3.8	7.43e-01	0	28	104	0	82	19978
2026-01-04 05:11:12.05	345.45	23.10	-51.9	-63.4	3.9	7.45e-01	0	28	104	0	72	13663
2026-01-04 05:11:13.05	345.13	23.13	-51.3	-62.7	3.9	7.45e-01	0	28	104	0	71	13403
2026-01-04 05:11:14.04	344.81	23.16	-51.1	-62.5	3.9	7.47e-01	0	28	104	0	71	13094
2026-01-04 05:11:15.05	344.49	23.18	-58.4	-73.9	3.8	7.45e-01	0	28	104	0	85	21656
2026-01-04 05:11:16.05	344.17	23.21	-53.7	-65.6	3.8	7.47e-01	0	28	104	0	75	14872
2026-01-04 05:11:17.05	343.85	23.24	-59.1	-76.8	3.8	7.46e-01	0	28	104	0	86	28522
2026-01-04 05:11:18.05	343.52	23.27	-51.7	-63.3	3.9	7.45e-01	0	28	104	0	72	13425
2026-01-04 05:11:19.04	343.20	23.29	-57.4	-71.6	3.8	7.46e-01	0	28	104	0	82	19707
2026-01-04 05:11:20.04	342.88	23.31	-51.8	-63.4	3.8	7.45e-01	0	28	104	0	72	13586
2026-01-04 05:11:21.03	342.56	23.34	-52.0	-63.6	3.9	7.44e-01	0	28	104	0	72	14020
2026-01-04 05:11:22.03	342.24	23.36	-51.4	-62.8	3.9	7.45e-01	0	28	104	0	72	12809
2026-01-04 05:11:23.04	341.91	23.38	-58.7	-74.8	3.8	7.45e-01	0	28	104	0	85	23961
2026-01-04 05:11:24.03	341.59	23.40	-53.7	-65.6	3.9	7.44e-01	0	28	104	0	75	14725
2026-01-04 05:11:25.03	341.26	23.42	-59.3	-77.1	3.8	7.46e-01	0	28	104	0	86	29646
2026-01-04 05:11:26.03	340.93	23.44	-51.9	-63.5	3.9	7.45e-01	0	29	104	0	73	13037
2026-01-04 05:11:27.02	340.61	23.46	-57.6	-72.1	3.8	7.46e-01	0	29	104	0	83	19684
2026-01-04 05:11:28.02	340.28	23.47	-51.9	-63.4	3.9	7.44e-01	0	29	104	0	73	12843
2026-01-04 05:11:29.02	339.96	23.49	-51.4	-62.8	3.8	7.44e-01	0	28	104	0	72	12766
2026-01-04 05:11:30.02	339.63	23.50	-51.3	-62.7	3.8	7.46e-01	0	29	104	0	71	13303
2026-01-04 05:11:31.02	339.30	23.52	-58.0	-73.2	3.8	7.45e-01	0	28	104	0	83	22359
2026-01-04 05:11:32.02	338.97	23.53	-53.8	-65.7	3.8	7.48e-01	0	28	104	0	75	14993
2026-01-04 05:11:33.02	338.64	23.54	-59.3	-77.2	3.8	7.46e-01	0	28	104	0	86	29699
2026-01-04 05:11:34.02	338.32	23.55	-51.9	-63.4	3.8	7.43e-01	0	28	104	0	73	12836
2026-01-04 05:11:35.02	337.99	23.56	-57.6	-72.0	3.8	7.46e-01	0	28	104	0	82	20587
2026-01-04 05:11:36.01	337.66	23.57	-51.9	-63.5	3.9	7.48e-01	0	29	104	0	73	13102
2026-01-04 05:11:37.01	337.33	23.58	-51.5	-62.9	3.9	7.46e-01	0	28	104	0	72	12933
2026-01-04 05:11:38.01	337.00	23.59	-51.4	-63.0	3.9	7.46e-01	0	29	104	0	71	13785
2026-01-04 05:11:39.01	336.67	23.59	-57.9	-72.9	3.8	7.47e-01	0	28	104	0	83	21671
2026-01-04 05:11:40.00	336.35	23.60	-53.8	-65.6	3.8	7.44e-01	0	28	104	0	75	14837
2026-01-04 05:11:40.99	336.02	23.60	-59.3	-77.3	3.8	7.45e-01	0	28	104	0	86	30051
2026-01-04 05:11:41.98	335.69	23.60	-52.2	-63.7	3.9	7.48e-01	0	29	104	0	73	13407
2026-01-04 05:11:42.99	335.36	23.61	-57.7	-72.2	3.9	7.46e-01	0	28	104	0	83	19844
2026-01-04 05:11:43.99	335.03	23.61	-52.0	-63.5	3.9	7.45e-01	0	28	104	0	73	13093
2026-01-04 05:11:44.99	334.70	23.61	-51.9	-63.4	3.8	7.46e-01	0	29	104	0	73	12840
2026-01-04 05:11:45.99	334.37	23.61	-52.0	-63.5	3.8	7.46e-01	0	28	104	0	73	12981
2026-01-04 05:11:46.98	334.04	23.60	-59.1	-76.1	3.9	7.47e-01	0	28	104	0	86	26313
2026-01-04 05:11:47.98	333.71	23.60	-58.2	-73.3	3.8	7.44e-01	0	29	104	0	85	20074
2026-01-04 05:11:48.97	333.38	23.60	-59.0	-75.7	3.8	7.48e-01	0	28	104	0	85	26499
2026-01-04 05:11:49.97	333.05	23.59	-59.3	-77.0	3.8	7.46e-01	0	28	104	0	86	29110
2026-01-04 05:11:50.97	332.73	23.59	-52.6	-64.2	3.8	7.45e-01	0	28	104	0	74	13288
2026-01-04 05:11:51.96	332.40	23.58	-52.5	-64.1	3.8	7.46e-01	0	28	104	0	73	14003
2026-01-04 05:11:52.95	332.07	23.57	-51.8	-63.2	3.8	7.48e-01	0	28	104	0	72	13402
2026-01-04 05:11:53.94	331.75	23.56	-51.8	-63.2	3.8	7.49e-01	0	28	104	0	72	13369
2026-01-04 05:11:54.95	331.41	23.55	-51.6	-63.1	3.8	7.44e-01	0	28	104	0	72	13151
2026-01-04 05:11:55.95	331.09	23.54	-53.9	-65.9	3.8	7.46e-01	0	28	104	0	75	15343
2026-01-04 05:11:56.95	330.76	23.53	-59.4	-77.4	3.8	7.50e-01	0	29	104	0	86	30449
2026-01-04 05:11:57.95	330.43	23.52	-52.2	-63.8	3.9	7.41e-01	0	28	104	0	73	13528
2026-01-04 05:11:58.95	330.10	23.50	-57.8	-72.4	3.8	7.48e-01	0	28	104	0	83	20431
2026-01-04 05:11:59.95	329.77	23.49	-52.1	-63.6	3.8	7.47e-01	0	28	104	0	73	13165
2026-01-04 05:12:00.95	329.45	23.47	-51.7	-63.1	3.9	7.44e-01	0	28	104	0	72	13164
2026-01-04 05:12:01.96	329.12	23.46	-51.3	-62.7	3.9	7.46e-01	0	28	104	0	71	13312
2026-01-04 05:12:02.97	328.79	23.44	-55.9	-68.9	3.8	7.45e-01	0	28	104	0	79	17149
2026-01-04 05:12:03.97	328.46	23.42	-54.2	-66.3	3.8	7.44e-01	0	29	104	0	76	15142
2026-01-04 05:12:04.97	328.13	23.40	-59.4	-77.3	3.8	7.47e-01	0	29	104	0	86	30155
2026-01-04 05:12:05.96	327.81	23.38	-52.1	-63.6	3.8	7.45e-01	0	29	104	0	73	13145
2026-01-04 05:12:06.97	327.48	23.36	-57.9	-72.7	3.8	7.48e-01	0	29	104	0	83	21214
2026-01-04 05:12:07.96	327.16	23.34	-52.2	-63.7	3.8	7.47e-01	0	28	104	0	73	13319
2026-01-04 05:12:08.97	326.83	23.31	-51.9	-63.2	3.9	7.47e-01	0	29	104	0	73	12633
2026-01-04 05:12:09.97	326.51	23.29	-51.9	-63.6	3.8	7.41e-01	0	28	104	0	72	13962
2026-01-04 05:12:10.97	326.19	23.27	-58.9	-75.4	3.8	7.49e-01	0	28	104	0	85	25667
2026-01-04 05:12:11.97	325.87	23.24	-54.2	-66.1	3.8	7.43e-01	0	28	104	0	76	14713
2026-01-04 05:12:12.97	325.54	23.21	-59.4	-77.3	3.8	7.44e-01	0	29	104	0	86	30304
2026-01-04 05:12:13.97	325.22	23.18	-52.1	-63.7	3.8	7.45e-01	0	29	104	0	73	13365
2026-01-04 05:12:14.96	324.91	23.16	-57.9	-72.8	3.8	7.48e-01	0	28	104	0	83	21398
2026-01-04 05:12:15.96	324.59	23.13	-52.2	-63.6	3.9	7.45e-01	0	28	104	0	73	13158
2026-01-04 05:12:16.96	324.27	23.10	-52.1	-63.4	3.9	7.44e-01	0	28	104	0	73	12899
2026-01-04 05:12:17.96	323.95	23.06	-51.9	-63.6	3.8	7.43e-01	0	28	104	0	73	13175
2026-01-04 05:12:18.97	323.63	23.03	-58.7	-74.5	3.8	7.46e-01	0	29	104	0	85	23260
2026-01-04 05:12:19.97	323.31	23.00	-54.3	-66.1	3.8	7.48e-01	0	29	104	0	76	14828
2026-01-04 05:12:20.97	322.99	22.96	-59.4	-77.4	3.8	7.47e-01	0	29	104	0	86	30418
2026-01-04 05:12:21.97	322.68	22.93	-52.0	-63.7	3.8	7.45e-01	0	28	104	0	73	13341
2026-01-04 05:12:22.96	322.36	22.89	-57.9	-72.2	3.8	7.48e-01	0	28	104	0	83	19976
2026-01-04 05:12:23.96	322.05	22.86	-51.9	-63.4	3.9	7.45e-01	0	28	104	0	73	12842
2026-01-04 05:12:24.96	321.74	22.82	-51.9	-64.2	3.9	7.45e-01	0	28	104	0	72	15021
2026-01-04 05:12:25.96	321.42	22.78	-51.7	-62.8	3.8	7.46e-01	0	28	104	0	72	12774
2026-01-04 05:12:26.96	321.11	22.74	-59.3	-76.2	3.8	7.48e-01	0	29	104	0	86	26669
2026-01-04 05:12:27.95	320.80	22.70	-54.5	-67.2	3.8	7.48e-01	0	28	104	0	76	16839
2026-01-04 05:12:28.95	320.49	22.66	-59.4	-77.2	3.8	7.45e-01	0	29	104	0	86	30030
2026-01-04 05:12:29.96	320.18	22.62	-51.8	-62.9	3.9	7.48e-01	0	28	104	0	72	12872
2026-01-04 05:12:30.96	319.87	22.58	-58.0	-73.8	3.8	7.47e-01	0	28	104	0	83	24015
2026-01-04 05:12:31.96	319.56	22.54	-52.0	-63.4	3.9	7.47e-01	0	28	104	0	73	12891
2026-01-04 05:12:32.96	319.26	22.49	-52.3	-63.0	3.8	7.45e-01	0	28	104	0	73	12320
2026-01-04 05:12:33.96	318.95	22.45	-52.1	-63.6	3.9	7.45e-01	0	28	104	0	73	13148
2026-01-04 05:12:34.97	318.64	22.40	-57.2	-71.2	3.8	7.45e-01	0	28	104	0	82	18822
2026-01-04 05:12:35.96	318.34	22.36	-54.5	-67.0	3.8	7.42e-01	0	28	104	0	76	16481
2026-01-04 05:12:36.96	318.04	22.31	-59.4	-77.5	3.8	7.46e-01	0	29	104	0	86	30884
2026-01-04 05:12:37.96	317.74	22.26	-51.6	-62.7	3.8	7.42e-01	0	28	104	0	72	12563
2026-01-04 05:12:38.95	317.44	22.22	-57.9	-72.1	3.8	7.45e-01	0	29	104	0	83	19615
2026-01-04 05:12:39.94	317.14	22.17	-51.7	-63.3	3.9	7.40e-01	0	28	104	0	72	13553
2026-01-04 05:12:40.95	316.84	22.12	-51.8	-63.4	3.9	7.46e-01	0	28	104	0	72	13589
2026-01-04 05:12:41.95	316.54	22.07	-51.5	-54.1	5.4	7.06e-01	0	28	104	0	72	4671
2026-01-04 05:12:42.94	316.25	22.02	-55.6	-58.9	14.2	6.01e-01	0	28	0	0	79	5422
2026-01-04 05:12:43.94	315.95	21.96	-56.7	-60.9	13.4	6.01e-01	0	29	0	2097152	81	6081
2026-01-04 05:12:44.95	315.65	21.91	-59.2	-69.6	7.4	6.46e-01	80	29	0	3670016	86	12388
2026-01-04 05:12:45.95	315.36	21.86	-59.3	-70.3	7.0	6.60e-01	91	28	0	5767168	86	13560
2026-01-04 05:12:46.94	315.07	21.81	-51.2	-53.0	15.4	6.03e-01	0	29	0	7340032	71	4353
2026-01-04 05:12:47.93	314.78	21.75	-51.1	-52.8	15.4	6.04e-01	0	29	0	9437184	70	4507
2026-01-04 05:12:48.92	314.49	21.70	-50.9	-52.7	15.4	6.00e-01	0	28	0	11010048	70	4452
2026-01-04 05:12:49.93	314.20	21.64	-51.7	-53.6	15.3	6.03e-01	0	29	0	13107200	71	4667
2026-01-04 05:12:50.93	313.91	21.59	-50.6	-52.3	15.5	6.03e-01	0	29	0	14680064	70	4265
2026-01-04 05:12:51.93	313.62	21.53	-50.5	-52.2	15.6	6.02e-01	0	29	0	16777216	70	4200
2026-01-04 05:12:52.93	313.34	21.47	-50.4	-52.1	15.5	6.04e-01	0	29	0	18874368	69	4409
2026-01-04 05:12:53.93	313.05	21.41	-50.5	-52.2	15.4	6.05e-01	0	28	0	20447232	69	4453
2026-01-04 05:12:54.93	312.77	21.35	-51.0	-52.8	15.3	6.05e-01	0	29	0	22544384	69	4779
2026-01-04 05:12:55.92	312.49	21.30	-50.6	-52.2	15.4	6.05e-01	0	28	0	24117248	69	4486
2026-01-04 05:12:56.92	312.21	21.24	-50.8	-52.5	15.4	6.03e-01	0	28	0	26214400	69	4607
2026-01-04 05:12:57.91	311.93	21.18	-50.3	-52.0	15.5	6.02e-01	0	29	0	27787264	69	4359
2026-01-04 05:12:58.92	311.65	21.12	-50.7	-52.4	15.4	6.03e-01	0	29	0	29884416	69	4562
2026-01-04 05:12:59.91	311.37	21.06	-50.6	-52.3	15.4	6.03e-01	0	28	0	31981568	69	4531
2026-01-04 05:13:00.91	311.09	20.99	-50.3	-51.9	15.6	6.02e-01	0	29	0	33554432	69	4318
2026-01-04 05:13:01.91	310.82	20.93	-51.1	-52.9	15.3	6.04e-01	0	29	0	35651584	69	4835
2026-01-04 05:13:02.91	310.54	20.87	-50.5	-52.1	15.5	6.02e-01	0	28	0	37224448	69	4416
2026-01-04 05:13:03.91	310.27	20.81	-50.8	-52.6	15.4	6.04e-01	0	29	0	39321600	70	4394
2026-01-04 05:13:04.91	310.00	20.74	-50.5	-52.2	15.5	6.04e-01	0	28	0	40894464	69	4450
2026-01-04 05:13:05.91	309.73	20.68	-50.2	-51.7	15.5	6.04e-01	0	28	0	42991616	69	4242
2026-01-04 05:13:06.92	309.45	20.61	-50.7	-52.4	15.4	6.03e-01	0	28	0	45088768	69	4594
2026-01-04 05:13:07.92	309.18	20.55	-50.5	-52.2	15.5	6.03e-01	0	29	0	46661632	69	4473
2026-01-04 05:13:08.91	308.92	20.48	-50.2	-51.8	15.5	6.03e-01	0	29	0	48758784	69	4266
2026-01-04 05:13:09.91	308.65	20.42	-50.9	-52.7	15.3	6.02e-01	0	28	0	50331648	69	4757
2026-01-04 05:13:10.91	308.39	20.35	-50.0	-51.5	15.6	6.03e-01	0	28	0	52428800	69	4144
2026-01-04 05:13:11.92	308.12	20.28	-51.4	-53.3	15.2	6.01e-01	0	28	0	54525952	70	4799
2026-01-04 05:13:12.91	307.86	20.22	-50.0	-51.6	15.6	6.04e-01	0	29	0	56098816	69	4157
2026-01-04 05:13:13.91	307.60	20.15	-50.8	-52.5	15.4	6.05e-01	0	28	0	58195968	70	4361
2026-01-04 05:13:14.91	307.34	20.08	-50.3	-51.9	15.4	6.02e-01	0	29	0	59768832	68	4560
2026-01-04 05:13:15.90	307.08	20.01	-50.3	-51.9	15.5	6.01e-01	0	28	0	61865984	69	4330
2026-01-04 05:13:16.90	306.82	19.94	-50.8	-52.6	15.3	6.05e-01	0	28	0	63438848	69	4669
2026-01-04 05:13:17.89	306.57	19.87	-50.0	-51.6	15.6	6.04e-01	0	28	0	65536000	69	4174
2026-01-04 05:13:18.89	306.32	19.80	-50.9	-52.7	15.3	6.04e-01	0	28	0	67633152	69	4728
2026-01-04 05:13:19.89	306.06	19.74	-50.2	-51.8	15.6	6.05e-01	0	29	0	69206016	69	4268
2026-01-04 05:13:20.89	305.81	19.66	-51.0	-52.8	15.3	6.05e-01	0	28	0	71303168	69	4766
2026-01-04 05:13:21.89	305.56	19.59	-50.5	-52.1	15.5	6.02e-01	0	28	0	72876032	69	4437
2026-01-04 05:13:22.89	305.31	19.52	-50.7	-52.4	15.4	6.04e-01	0	28	0	74973184	69	4571
2026-01-04 05:13:23.89	305.06	19.45	-50.3	-51.9	15.5	6.02e-01	0	29	0	76546048	69	4337
2026-01-04 05:13:24.90	304.81	19.38	-50.5	-52.2	15.4	6.02e-01	0	29	0	78643200	69	4448
2026-01-04 05:13:25.90	304.56	19.31	-50.3	-51.9	15.5	6.02e-01	0	29	0	80740352	69	4307
2026-01-04 05:13:26.90	304.31	19.24	-50.4	-52.0	15.4	6.05e-01	0	28	0	82313216	69	4382
2026-01-04 05:13:27.89	304.07	19.16	-50.2	-51.8	15.5	6.04e-01	0	28	0	84410368	69	4257
2026-01-04 05:13:28.90	303.83	19.09	-50.5	-52.2	15.4	6.06e-01	0	29	0	85983232	69	4487
2026-01-04 05:13:29.89	303.59	19.02	-50.5	-52.2	15.4	6.02e-01	0	29	0	88080384	69	4448
2026-01-04 05:13:30.90	303.34	18.94	-50.7	-52.4	15.4	6.04e-01	0	29	0	89653248	69	4597
2026-01-04 05:13:31.90	303.10	18.87	-50.8	-52.5	15.4	6.04e-01	0	28	0	91750400	69	4644
2026-01-04 05:13:32.89	302.87	18.80	-50.9	-52.6	15.4	6.04e-01	0	28	0	93847552	69	4670
2026-01-04 05:13:33.89	302.63	18.72	-50.6	-52.3	15.4	6.03e-01	0	28	0	95420416	69	4506
2026-01-04 05:13:34.89	302.40	18.65	-50.5	-52.2	15.4	6.04e-01	0	28	0	97517568	69	4452
2026-01-04 05:13:35.89	302.16	18.57	-50.3	-52.0	15.5	6.07e-01	0	29	0	99090432	69	4344
2026-01-04 05:13:36.88	301.93	18.50	-50.3	-51.9	15.5	6.05e-01	0	29	0	101187584	69	4317
2026-01-04 05:13:37.88	301.70	18.42	-50.4	-52.1	15.5	6.04e-01	0	29	0	103284736	69	4406
2026-01-04 05:13:38.88	301.47	18.35	-50.6	-52.3	15.4	6.05e-01	0	29	0	104857600	69	4503
2026-01-04 05:13:39.88	301.24	18.27	-50.6	-52.2	15.4	6.03e-01	0	28	0	106430464	69	4489
2026-01-04 05:13:40.87	301.01	18.20	-50.9	-52.7	15.3	6.04e-01	0	29	0	108527616	69	4719
2026-01-04 05:13:41.87	300.78	18.12	-50.2	-51.8	15.5	6.04e-01	0	29	0	110624768	69	4258
2026-01-04 05:13:42.87	300.56	18.05	-50.2	-51.8	15.5	6.03e-01	0	29	0	112197632	69	4285
2026-01-04 05:13:43.86	300.34	17.97	-50.8	-52.6	15.3	6.06e-01	0	28	0	114294784	69	4674
2026-01-04 05:13:44.86	300.11	17.90	-50.2	-51.8	15.5	6.04e-01	0	29	0	115867648	69	4263
2026-01-04 05:13:45.86	299.89	17.82	-50.9	-52.6	15.4	6.05e-01	0	28	0	117964800	69	4686
2026-01-04 05:13:46.86	299.67	17.74	-50.7	-52.4	15.4	6.02e-01	0	29	0	120061952	69	4589
2026-01-04 05:13:47.85	299.45	17.67	-50.7	-52.4	15.4	6.03e-01	0	29	0	121634816	69	4557
2026-01-04 05:13:48.85	299.23	17.59	-50.3	-52.0	15.5	6.03e-01	0	28	0	123731968	69	4351
2026-01-04 05:13:49.85	299.02	17.51	-50.3	-52.0	15.5	6.03e-01	0	28	0	125304832	69	4345
2026-01-04 05:13:50.84	298.80	17.43	-50.3	-51.9	15.5	6.02e-01	0	29	0	127401984	69	4327
2026-01-04 05:13:51.83	298.59	17.36	-50.3	-52.0	15.5	6.05e-01	0	28	0	128974848	69	4350
2026-01-04 05:13:52.83	298.37	17.28	-50.3	-52.0	15.5	6.03e-01	0	29	0	131072000	69	4351
2026-01-04 05:13:53.82	298.16	17.20	-50.7	-52.5	15.4	6.03e-01	0	29	0	132644864	69	4614
2026-01-04 05:13:54.83	297.95	17.13	-50.7	-52.4	15.4	6.04e-01	0	28	0	134742016	69	4558
2026-01-04 05:13:55.83	297.74	17.05	-50.2	-51.8	15.5	6.05e-01	0	29	0	136839168	69	4252
2026-01-04 05:13:56.82	297.53	16.97	-50.3	-51.9	15.5	6.01e-01	0	28	0	138412032	69	4301
2026-01-04 05:13:57.81	297.33	16.89	-50.7	-52.4	15.3	6.03e-01	0	29	0	140509184	69	4584
2026-01-04 05:13:58.81	297.12	16.81	-50.3	-52.0	15.5	6.03e-01	0	28	0	142082048	69	4343
2026-01-04 05:13:59.81	296.91	16.74	-50.3	-51.9	15.5	6.03e-01	0	28	0	144179200	69	4321
2026-01-04 05:14:00.80	296.71	16.66	-50.6	-52.3	15.4	6.01e-01	0	29	0	145752064	69	4544
2026-01-04 05:14:01.81	296.50	16.58	-50.5	-52.1	15.4	6.04e-01	0	28	0	147849216	69	4435
2026-01-04 05:14:02.81	296.30	16.50	-50.5	-52.1	15.5	6.05e-01	0	28	0	149946368	69	4436
2026-01-04 05:14:03.82	296.10	16.42	-50.9	-52.6	15.3	6.04e-01	0	29	0	151519232	69	4672
2026-01-04 05:14:04.82	295.90	16.34	-50.7	-52.4	15.3	6.04e-01	0	29	0	153616384	69	4597
2026-01-04 05:14:05.81	295.70	16.26	-50.3	-51.9	15.5	6.02e-01	0	29	0	155189248	69	4329
2026-01-04 05:14:06.81	295.50	16.19	-50.4	-52.0	15.5	6.04e-01	0	28	0	157286400	69	4365
2026-01-04 05:14:07.81	295.31	16.11	-50.5	-52.2	15.4	6.03e-01	0	29	0	158859264	69	4447
2026-01-04 05:14:08.81	295.11	16.03	-50.5	-52.1	15.5	6.03e-01	0	29	0	160956416	69	4437
2026-01-04 05:14:09.81	294.92	15.95	-50.4	-52.0	15.5	6.04e-01	0	28	0	163053568	69	4379
2026-01-04 05:14:10.81	294.72	15.87	-50.5	-52.1	15.5	6.05e-01	0	29	0	164626432	69	4415
2026-01-04 05:14:11.81	294.53	15.79	-50.7	-52.4	15.4	6.03e-01	0	29	0	166723584	69	4569
2026-01-04 05:14:12.81	294.34	15.71	-50.6	-52.3	15.4	6.02e-01	0	29	0	168296448	69	4494
2026-01-04 05:14:13.81	294.15	15.63	-50.4	-52.1	15.4	6.03e-01	0	28	0	170393600	69	4400
2026-01-04 05:14:14.80	293.96	15.56	-50.5	-52.2	15.4	6.02e-01	0	29	0	171966464	69	4481
2026-01-04 05:14:15.81	293.77	15.48	-50.8	-52.6	15.4	6.02e-01	0	28	0	174063616	69	4685
2026-01-04 05:14:16.80	293.59	15.40	-50.6	-52.3	15.4	6.03e-01	0	28	0	176160768	69	4497
2026-01-04 05:14:17.81	293.40	15.32	-50.5	-52.1	15.5	6.03e-01	0	28	0	177733632	69	4421
2026-01-04 05:14:18.80	293.21	15.24	-50.6	-52.3	15.4	6.04e-01	0	29	0	179830784	69	4523
2026-01-04 05:14:19.80	293.03	15.16	-50.6	-52.4	15.4	6.03e-01	0	29	0	181403648	69	4550
2026-01-04 05:14:20.80	292.85	15.08	-50.4	-52.0	15.5	6.04e-01	0	28	0	183500800	69	4362
2026-01-04 05:14:21.80	292.67	15.00	-50.4	-52.0	15.5	6.03e-01	0	29	0	185597952	69	4386
2026-01-04 05:14:22.80	292.49	14.92	-50.7	-52.4	15.4	6.05e-01	0	28	0	187170816	69	4594
2026-01-04 05:14:23.80	292.31	14.84	-51.0	-52.8	15.3	6.02e-01	0	29	0	189267968	69	4791
2026-01-04 05:14:24.80	292.13	14.76	-50.6	-52.3	15.4	6.03e-01	0	28	0	190840832	69	4504
2026-01-04 05:14:25.79	291.95	14.69	-50.3	-51.9	15.5	6.01e-01	0	29	0	192937984	69	4305
2026-01-04 05:14:26.79	291.77	14.61	-50.5	-52.1	15.5	6.03e-01	0	28	0	194510848	69	4414
2026-01-04 05:14:27.79	291.60	14.53	-50.7	-52.4	15.4	6.04e-01	0	28	0	196608000	69	4588
2026-01-04 05:14:28.79	291.42	14.45	-50.7	-52.4	15.4	6.04e-01	0	28	0	198705152	69	4589
2026-01-04 05:14:29.79	291.25	14.37	-50.7	-52.4	15.3	6.03e-01	0	28	0	200278016	69	4590
2026-01-04 05:14:30.80	291.08	14.29	-50.7	-52.4	15.4	6.02e-01	0	29	0	202375168	69	4574
2026-01-04 05:14:31.79	290.91	14.21	-50.6	-52.3	15.4	6.06e-01	0	29	0	203948032	69	4522
2026-01-04 05:14:32.79	290.74	14.13	-51.1	-52.9	15.3	6.04e-01	0	28	0	206045184	69	4833
2026-01-04 05:14:33.79	290.57	14.05	-51.2	-53.0	15.3	6.04e-01	0	28	0	207618048	70	4650
2026-01-04 05:14:34.79	290.40	13.98	-50.9	-52.6	15.4	6.04e-01	0	29	0	209715200	70	4422
2026-01-04 05:14:35.79	290.23	13.90	-50.4	-52.1	15.6	6.03e-01	0	28	0	211812352	70	4156
2026-01-04 05:14:36.79	290.06	13.82	-50.4	-52.0	15.5	6.04e-01	0	29	0	213385216	69	4356
2026-01-04 05:14:37.79	289.90	13.74	-50.6	-52.3	15.4	6.02e-01	0	28	0	215482368	69	4541
2026-01-04 05:14:38.79	289.73	13.66	-51.0	-52.8	15.3	6.03e-01	0	28	0	217055232	69	4779
2026-01-04 05:14:39.79	289.57	13.58	-51.1	-52.9	15.3	6.03e-01	0	28	0	219152384	69	4846
2026-01-04 05:14:40.78	289.41	13.51	-50.8	-52.6	15.3	6.04e-01	0	28	0	220725248	69	4690
2026-01-04 05:14:41.78	289.24	13.43	-50.7	-52.4	15.4	6.02e-01	0	28	0	222822400	69	4574
2026-01-04 05:14:42.77	289.09	13.35	-50.8	-52.5	15.4	6.03e-01	0	28	0	224395264	69	4618
2026-01-04 05:14:43.77	288.93	13.27	-50.7	-52.5	15.4	6.03e-01	0	28	0	226492416	69	4614
2026-01-04 05:14:44.77	288.77	13.19	-51.0	-52.8	15.3	6.06e-01	0	28	0	228589568	69	4787
2026-01-04 05:14:45.77	288.61	13.11	-51.1	-53.0	15.3	6.04e-01	0	28	0	230162432	69	4890
2026-01-04 05:14:46.76	288.45	13.04	-51.1	-52.9	15.4	6.03e-01	0	28	0	232259584	70	4596
2026-01-04 05:14:47.75	288.30	12.96	-51.1	-52.8	15.3	6.02e-01	0	28	0	233832448	70	4542
2026-01-04 05:14:48.76	288.14	12.88	-50.7	-52.4	15.5	6.04e-01	0	28	0	235929600	70	4337
2026-01-04 05:14:49.75	287.99	12.80	-50.6	-52.3	15.5	6.03e-01	0	28	0	237502464	70	4251
2026-01-04 05:14:50.75	287.83	12.73	-50.6	-52.2	15.5	6.02e-01	0	29	0	239599616	70	4237
2026-01-04 05:14:51.75	287.68	12.65	-50.8	-52.5	15.5	6.03e-01	0	28	0	241696768	70	4387
2026-01-04 05:14:52.75	287.53	12.57	-51.1	-52.9	15.4	6.05e-01	0	28	0	243269632	70	4556
2026-01-04 05:14:53.74	287.38	12.50	-51.1	-52.9	15.3	6.02e-01	0	28	0	245366784	70	4584
2026-01-04 05:14:54.73	287.23	12.42	-51.1	-52.9	15.3	6.06e-01	0	28	0	246939648	70	4583
2026-01-04 05:14:55.73	287.08	12.34	-51.1	-52.9	15.4	6.03e-01	0	29	0	249036800	70	4551
2026-01-04 05:14:56.73	286.93	12.26	-51.0	-52.8	15.4	6.04e-01	0	28	0	250609664	70	4536
2026-01-04 05:14:57.73	286.78	12.19	-51.0	-52.7	15.4	6.02e-01	0	28	0	252706816	70	4493
2026-01-04 05:14:58.73	286.64	12.11	-50.9	-52.7	15.4	6.03e-01	0	28	0	254279680	70	4445
2026-01-04 05:14:59.72	286.49	12.03	-50.9	-52.6	15.4	6.02e-01	0	28	0	256376832	70	4417
2026-01-04 05:15:00.71	286.35	11.96	-51.0	-52.8	15.4	6.04e-01	0	28	0	258473984	70	4545
2026-01-04 05:15:01.70	286.20	11.88	-51.1	-53.0	15.3	6.03e-01	0	28	0	260046848	70	4612
2026-01-04 05:15:02.70	286.06	11.80	-51.1	-53.0	15.4	6.02e-01	0	28	0	262144000	70	4610
2026-01-04 05:15:03.70	285.92	11.73	-51.3	-53.1	15.3	6.05e-01	0	28	0	263716864	70	4698
2026-01-04 05:15:04.70	285.78	11.65	-51.1	-52.9	15.3	6.04e-01	0	28	0	265814016	70	4583
2026-01-04 05:15:05.71	285.63	11.57	-51.1	-53.0	15.3	6.06e-01	0	28	0	267386880	70	4603
2026-01-04 05:15:06.71	285.49	11.50	-51.1	-52.9	15.4	6.03e-01	0	28	0	269484032	70	4553
2026-01-04 05:15:07.71	285.35	11.42	-51.1	-52.9	15.4	6.03e-01	0	28	0	271581184	70	4580
2026-01-04 05:15:08.71	285.21	11.35	-51.0	-52.8	15.4	6.04e-01	0	28	0	273154048	70	4509
2026-01-04 05:15:09.71	285.08	11.27	-51.1	-52.8	15.4	6.03e-01	0	28	0	275251200	70	4534
2026-01-04 05:15:10.72	284.94	11.19	-51.1	-52.9	15.4	6.04e-01	0	28	0	276824064	70	4546
2026-01-04 05:15:11.72	284.80	11.12	-51.1	-53.0	15.3	6.04e-01	0	28	0	278921216	70	4600
2026-01-04 05:15:12.72	284.67	11.04	-51.3	-53.1	15.3	6.04e-01	0	28	0	281018368	70	4689
2026-01-04 05:15:13.72	284.53	10.97	-51.3	-53.2	15.3	6.04e-01	0	28	0	282591232	70	4723
2026-01-04 05:15:14.73	284.40	10.89	-51.4	-53.3	15.3	6.03e-01	0	28	0	284688384	70	4764
2026-01-04 05:15:15.73	284.26	10.82	-51.3	-53.3	15.2	6.03e-01	0	28	0	286261248	70	4779
2026-01-04 05:15:16.74	284.13	10.74	-51.3	-53.2	15.2	6.04e-01	0	29	0	288358400	70	4727
2026-01-04 05:15:17.74	284.00	10.66	-51.3	-53.2	15.3	6.04e-01	0	29	0	290455552	70	4706
2026-01-04 05:15:18.74	283.86	10.59	-51.2	-53.1	15.3	6.03e-01	0	28	0	292028416	70	4667
2026-01-04 05:15:19.75	283.73	10.51	-51.2	-53.0	15.3	6.05e-01	0	28	0	294125568	70	4620
2026-01-04 05:15:20.74	283.60	10.44	-51.1	-52.9	15.3	6.02e-01	0	28	0	295698432	70	4588
2026-01-04 05:15:21.75	283.47	10.36	-51.2	-53.1	15.3	6.02e-01	0	29	0	297795584	70	4663
2026-01-04 05:15:22.75	283.35	10.29	-51.3	-53.2	15.3	6.04e-01	0	29	0	299368448	70	4717
2026-01-04 05:15:23.75	283.22	10.22	-51.3	-53.2	15.3	6.02e-01	0	28	0	301465600	70	4740
2026-01-04 05:15:24.75	283.09	10.14	-51.4	-53.3	15.3	6.04e-01	0	28	0	303562752	70	4765
2026-01-04 05:15:25.74	282.97	10.07	-51.5	-53.4	15.2	6.03e-01	0	28	0	305135616	70	4828
2026-01-04 05:15:26.74	282.84	9.99	-51.5	-53.5	15.2	6.04e-01	0	28	0	307232768	70	4876
2026-01-04 05:15:27.74	282.72	9.92	-51.5	-53.4	15.2	6.03e-01	0	28	0	308805632	70	4835
2026-01-04 05:15:28.74	282.59	9.85	-51.3	-53.2	15.3	6.02e-01	0	28	0	310902784	70	4741
2026-01-04 05:15:29.73	282.47	9.77	-51.3	-53.2	15.3	6.03e-01	0	28	0	312475648	70	4714
2026-01-04 05:15:30.73	282.35	9.70	-51.2	-53.1	15.3	6.04e-01	0	29	0	314572800	70	4673
2026-01-04 05:15:31.73	282.23	9.63	-51.3	-53.1	15.3	6.02e-01	0	29	0	316145664	70	4695
2026-01-04 05:15:32.73	282.10	9.55	-51.3	-53.2	15.3	6.04e-01	0	29	0	318242816	70	4744
2026-01-04 05:15:33.73	281.98	9.48	-51.4	-53.4	15.2	6.04e-01	0	28	0	320339968	70	4815
2026-01-04 05:15:34.73	281.86	9.41	-51.4	-53.3	15.2	6.02e-01	0	28	0	321912832	70	4812
2026-01-04 05:15:35.73	281.75	9.33	-51.4	-53.3	15.2	6.05e-01	0	28	0	324009984	70	4813
2026-01-04 05:15:36.73	281.63	9.26	-51.5	-53.4	15.2	6.03e-01	0	28	0	325582848	70	4861
2026-01-04 05:15:37.72	281.51	9.19	-51.4	-53.3	15.2	6.04e-01	0	29	0	327680000	70	4776
2026-01-04 05:15:38.72	281.39	9.12	-51.5	-53.4	15.2	6.04e-01	0	29	0	329777152	70	4847
2026-01-04 05:15:39.72	281.28	9.05	-51.5	-53.4	15.2	6.02e-01	0	28	0	331350016	70	4827
2026-01-04 05:15:40.71	281.16	8.97	-51.6	-53.5	15.2	6.05e-01	0	29	0	333447168	70	4916
2026-01-04 05:15:41.71	281.05	8.90	-51.5	-53.4	15.3	6.04e-01	0	29	0	335020032	71	4569
2026-01-04 05:15:42.70	280.93	8.83	-51.4	-53.3	15.3	6.03e-01	0	28	0	337117184	71	4533
2026-01-04 05:15:43.70	280.82	8.76	-51.5	-53.5	15.3	6.05e-01	0	29	0	338690048	71	4622
2026-01-04 05:15:44.70	280.70	8.69	-51.6	-53.5	15.3	6.05e-01	0	28	0	340787200	71	4634
2026-01-04 05:15:45.69	280.59	8.62	-51.6	-53.5	15.3	6.03e-01	0	28	0	342884352	71	4629
2026-01-04 05:15:46.69	280.48	8.54	-51.6	-53.5	15.3	6.02e-01	0	28	0	344457216	71	4646
2026-01-04 05:15:47.69	280.37	8.47	-51.6	-53.6	15.3	6.03e-01	0	28	0	346554368	71	4663
2026-01-04 05:15:48.68	280.26	8.40	-51.6	-53.6	15.3	6.03e-01	0	28	0	348127232	71	4656
2026-01-04 05:15:49.67	280.15	8.33	-51.6	-53.6	15.3	6.04e-01	0	28	0	350224384	71	4695
2026-01-04 05:15:50.67	280.04	8.26	-51.8	-53.8	15.2	6.04e-01	0	28	0	351797248	71	4770
2026-01-04 05:15:51.67	279.93	8.19	-51.7	-53.7	15.2	6.03e-01	0	28	0	353894400	71	4727
2026-01-04 05:15:52.67	279.82	8.12	-51.7	-53.8	15.2	6.04e-01	0	28	0	355467264	71	4770
2026-01-04 05:15:53.66	279.71	8.05	-51.8	-53.8	15.2	6.05e-01	0	29	0	357564416	71	4806
2026-01-04 05:15:54.66	279.61	7.98	-51.8	-53.9	15.2	6.03e-01	0	28	0	359661568	71	4839
2026-01-04 05:15:55.65	279.50	7.91	-51.8	-53.8	15.2	6.03e-01	0	28	0	361234432	71	4811
2026-01-04 05:15:56.64	279.40	7.84	-51.8	-53.8	15.2	6.06e-01	0	28	0	363331584	71	4783
2026-01-04 05:15:57.64	279.29	7.77	-51.7	-53.7	15.2	6.05e-01	0	28	0	364904448	71	4711
2026-01-04 05:15:58.64	279.18	7.70	-51.7	-53.7	15.2	6.02e-01	0	28	0	367001600	71	4722
2026-01-04 05:15:59.64	279.08	7.63	-51.7	-53.7	15.2	6.05e-01	0	28	0	368574464	71	4738
2026-01-04 05:16:00.63	278.98	7.56	-51.7	-53.7	15.2	6.05e-01	0	28	0	370671616	71	4754
2026-01-04 05:16:01.63	278.87	7.49	-51.8	-53.8	15.2	6.03e-01	0	29	0	372244480	71	4785
2026-01-04 05:16:02.63	278.77	7.42	-51.9	-54.0	15.1	6.03e-01	0	28	0	374341632	71	4899
2026-01-04 05:16:03.62	278.67	7.35	-51.9	-53.9	15.2	6.03e-01	0	28	0	376438784	71	4859
2026-01-04 05:16:04.62	278.57	7.28	-51.9	-54.0	15.1	6.06e-01	0	29	0	378011648	71	4919
2026-01-04 05:16:05.62	278.46	7.21	-51.9	-54.0	15.1	6.02e-01	0	28	0	380108800	71	4871
2026-01-04 05:16:06.62	278.36	7.14	-52.0	-54.1	15.1	6.03e-01	0	29	0	381681664	71	4944
2026-01-04 05:16:07.62	278.26	7.08	-52.1	-54.2	15.1	6.04e-01	0	28	0	383778816	71	5007
2026-01-04 05:16:08.61	278.16	7.01	-52.1	-54.2	15.2	6.04e-01	0	28	0	385351680	72	4725
2026-01-04 05:16:09.62	278.06	6.94	-52.0	-54.1	15.2	6.04e-01	0	28	0	387448832	72	4678
2026-01-04 05:16:10.61	277.97	6.87	-51.8	-53.8	15.3	6.03e-01	0	28	0	389545984	72	4539
2026-01-04 05:16:11.61	277.87	6.80	-51.8	-53.8	15.3	6.05e-01	0	28	0	391118848	72	4540
2026-01-04 05:16:12.61	277.77	6.73	-51.7	-53.8	15.3	6.02e-01	0	28	0	393216000	72	4518
2026-01-04 05:16:13.60	277.67	6.67	-51.9	-54.0	15.2	6.04e-01	0	28	0	394788864	72	4628
2026-01-04 05:16:14.59	277.58	6.60	-51.9	-54.0	15.2	6.02e-01	0	28	0	396886016	72	4612
2026-01-04 05:16:15.59	277.48	6.53	-52.1	-54.2	15.1	6.04e-01	0	29	0	398458880	72	4749
2026-01-04 05:16:16.59	277.39	6.46	-52.1	-54.2	15.1	6.04e-01	0	28	0	400556032	72	4740
2026-01-04 05:16:17.58	277.29	6.40	-52.2	-54.4	15.1	6.05e-01	0	28	0	402653184	72	4828
2026-01-04 05:16:18.58	277.20	6.33	-52.1	-54.3	15.1	6.04e-01	0	28	0	404226048	72	4807
2026-01-04 05:16:19.58	277.10	6.26	-52.3	-54.5	15.0	6.04e-01	0	29	0	406323200	72	4891
2026-01-04 05:16:20.58	277.01	6.19	-52.1	-54.3	15.1	6.02e-01	0	28	0	407896064	72	4784
2026-01-04 05:16:21.58	276.92	6.13	-51.9	-54.0	15.2	6.04e-01	0	29	0	409993216	72	4643
2026-01-04 05:16:22.58	276.82	6.06	-52.1	-54.3	15.1	6.06e-01	0	29	0	411566080	72	4768
2026-01-04 05:16:23.58	276.73	5.99	-52.0	-54.1	15.2	6.02e-01	0	29	0	413663232	72	4683
2026-01-04 05:16:24.59	276.64	5.93	-52.1	-54.3	15.1	6.04e-01	0	28	0	415760384	72	4770
2026-01-04 05:16:25.59	276.55	5.86	-52.0	-54.2	15.2	6.04e-01	0	28	0	417333248	72	4715
2026-01-04 05:16:26.58	276.46	5.79	-52.2	-54.3	15.1	6.04e-01	0	29	0	419430400	72	4811
2026-01-04 05:16:27.57	276.37	5.73	-52.1	-54.3	15.1	6.02e-01	0	28	0	421003264	72	4800
2026-01-04 05:16:28.58	276.28	5.66	-52.3	-54.6	15.0	6.03e-01	0	29	0	423100416	72	4970
2026-01-04 05:16:29.57	276.19	5.60	-52.2	-54.5	15.0	6.03e-01	0	29	0	424673280	72	4902
2026-01-04 05:16:30.57	276.10	5.53	-52.5	-54.9	14.9	6.03e-01	0	28	0	426770432	72	5110
2026-01-04 05:16:31.57	276.01	5.46	-52.5	-54.8	14.9	6.03e-01	0	29	0	428867584	72	5082
2026-01-04 05:16:32.57	275.92	5.40	-52.5	-54.9	14.9	6.02e-01	0	28	0	430440448	72	5141
2026-01-04 05:16:33.57	275.84	5.33	-52.6	-55.1	14.9	6.08e-01	0	28	0	432537600	73	4934
2026-01-04 05:16:34.56	275.75	5.27	-52.5	-54.9	15.0	6.05e-01	0	28	0	434110464	73	4852
2026-01-04 05:16:35.56	275.66	5.20	-52.3	-54.7	15.1	6.02e-01	0	28	0	436207616	73	4706
2026-01-04 05:16:36.56	275.58	5.14	-52.3	-54.7	15.1	6.01e-01	0	28	0	437780480	73	4726
2026-01-04 05:16:37.56	275.49	5.07	-52.3	-54.7	15.0	6.04e-01	0	29	0	439877632	73	4719
2026-01-04 05:16:38.56	275.40	5.01	-53.7	-56.5	14.7	6.04e-01	0	29	0	441974784	74	5496
2026-01-04 05:16:39.56	275.32	4.94	-58.9	-77.8	3.8	7.47e-01	0	29	104	442499072	85	33936
2026-01-04 05:16:40.56	275.23	4.88	-59.2	-78.6	3.8	7.44e-01	0	28	104	442499072	86	34913
2026-01-04 05:16:41.55	275.15	4.81	-59.5	-78.9	3.8	7.49e-01	0	29	104	442499072	86	36192
2026-01-04 05:16:42.54	275.07	4.75	-59.6	-79.0	3.8	7.43e-01	0	29	104	442499072	87	34839
2026-01-04 05:16:43.54	274.98	4.69	-59.8	-79.2	3.8	7.47e-01	0	29	104	442499072	87	35473
2026-01-04 05:16:44.53	274.90	4.62	-59.9	-79.3	3.8	7.47e-01	0	28	104	442499072	87	35913
2026-01-04 05:16:45.53	274.82	4.56	-60.0	-79.4	3.8	7.45e-01	0	29	104	442499072	87	36523
2026-01-04 05:16:46.53	274.74	4.49	-60.2	-79.6	3.8	7.45e-01	0	28	104	442499072	88	35006
2026-01-04 05:16:47.53	274.66	4.43	-60.3	-79.7	3.8	7.45e-01	0	29	104	442499072	88	35430
2026-01-04 05:16:48.52	274.58	4.37	-60.4	-79.8	3.8	7.49e-01	0	29	104	442499072	88	35902
2026-01-04 05:16:49.52	274.49	4.30	-60.5	-79.9	3.8	7.42e-01	0	28	104	442499072	88	36171
2026-01-04 05:16:50.51	274.41	4.24	-60.6	-80.0	3.8	7.45e-01	0	29	104	442499072	88	36597
2026-01-04 05:16:51.49	274.34	4.18	-60.6	-80.0	3.8	7.42e-01	0	29	104	442499072	89	34695
2026-01-04 05:16:52.49	274.26	4.11	-60.7	-80.1	3.8	7.45e-01	0	29	104	442499072	89	34959
2026-01-04 05:16:53.49	274.18	4.05	-60.8	-80.2	3.8	7.48e-01	0	28	104	442499072	89	35383
2026-01-04 05:16:54.48	274.10	3.99	-60.8	-80.2	3.8	7.46e-01	0	28	104	442499072	89	35332
2026-01-04 05:16:55.47	274.02	3.93	-60.9	-80.2	3.8	7.45e-01	0	29	104	442499072	89	35665
2026-01-04 05:16:56.47	273.94	3.86	-60.9	-80.3	3.8	7.47e-01	0	29	104	442499072	89	35869
2026-01-04 05:16:57.47	273.86	3.80	-60.9	-80.3	3.8	7.46e-01	0	29	104	442499072	89	35967
2026-01-04 05:16:58.47	273.79	3.74	-60.9	-80.3	3.8	7.47e-01	0	28	104	442499072	89	35891
2026-01-04 05:16:59.47	273.71	3.67	-60.9	-80.3	3.8	7.47e-01	0	29	104	442499072	89	35865
2026-01-04 05:17:00.46	273.63	3.61	-60.9	-80.3	3.8	7.47e-01	0	29	104	442499072	89	35818
2026-01-04 05:17:01.44	273.56	3.55	-60.9	-80.3	3.8	7.46e-01	0	29	104	442499072	89	35697
2026-01-04 05:17:02.43	273.48	3.49	-60.8	-80.2	3.8	7.45e-01	0	29	104	442499072	89	35504
2026-01-04 05:17:03.42	273.41	3.43	-60.8	-80.2	3.8	7.48e-01	0	29	104	442499072	89	35441
2026-01-04 05:17:04.42	273.33	3.37	-60.8	-80.2	3.8	7.46e-01	0	29	104	442499072	89	35464
2026-01-04 05:17:05.43	273.26	3.30	-60.8	-80.1	3.8	7.45e-01	0	29	104	442499072	89	35260
2026-01-04 05:17:06.43	273.18	3.24	-60.7	-80.1	3.8	7.47e-01	0	29	104	442499072	89	35094
2026-01-04 05:17:07.43	273.11	3.18	-60.7	-80.1	3.8	7.47e-01	0	29	104	442499072	89	35062
2026-01-04 05:17:08.43	273.04	3.12	-60.7	-80.1	3.8	7.50e-01	0	29	104	442499072	89	34975
2026-01-04 05:17:09.43	272.96	3.06	-60.7	-80.1	3.8	7.46e-01	0	29	104	442499072	89	34932
2026-01-04 05:17:10.43	272.89	3.00	-60.7	-80.1	3.8	7.47e-01	0	29	104	442499072	89	34947
2026-01-04 05:17:11.42	272.82	2.94	-60.6	-80.0	3.8	7.49e-01	0	29	104	442499072	89	34796
2026-01-04 05:17:12.41	272.75	2.87	-60.6	-80.0	3.8	7.44e-01	0	29	104	442499072	89	34775
2026-01-04 05:17:13.41	272.67	2.81	-60.6	-80.0	3.8	7.43e-01	0	29	104	442499072	89	34749
2026-01-04 05:17:14.41	272.60	2.75	-60.6	-80.0	3.8	7.48e-01	0	29	104	442499072	89	34688
2026-01-04 05:17:15.40	272.53	2.69	-60.6	-80.0	3.8	7.45e-01	0	29	104	442499072	89	34605
2026-01-04 05:17:16.40	272.46	2.63	-60.6	-80.0	3.8	7.47e-01	0	29	104	442499072	89	34630
2026-01-04 05:17:17.39	272.39	2.57	-60.6	-80.0	3.8	7.47e-01	0	29	104	442499072	89	34611
2026-01-04 05:17:18.40	272.32	2.51	-60.6	-80.0	3.8	7.43e-01	0	29	104	442499072	89	34531
2026-01-04 05:17:19.39	272.25	2.45	-60.6	-80.0	3.8	7.47e-01	0	29	104	442499072	89	34523
2026-01-04 05:17:20.39	272.18	2.39	-60.6	-79.9	3.8	7.47e-01	0	29	104	442499072	89	34413
2026-01-04 05:17:21.38	272.11	2.33	-60.5	-79.9	3.8	7.47e-01	0	29	104	442499072	89	34348
2026-01-04 05:17:22.38	272.04	2.27	-60.5	-79.9	3.8	7.46e-01	0	29	104	442499072	89	34376
2026-01-04 05:17:23.38	271.97	2.21	-60.5	-79.9	3.8	7.46e-01	0	29	104	442499072	89	34415
2026-01-04 05:17:24.38	271.90	2.15	-60.5	-79.9	3.8	7.45e-01	0	29	104	442499072	89	34287
2026-01-04 05:17:25.38	271.84	2.09	-60.5	-79.9	3.8	7.47e-01	0	29	104	442499072	89	34311
2026-01-04 05:17:26.38	271.77	2.03	-60.5	-79.9	3.8	7.44e-01	0	29	104	442499072	89	34281
2026-01-04 05:17:27.37	271.70	1.97	-60.5	-79.9	3.8	7.46e-01	0	29	104	442499072	89	34252
2026-01-04 05:17:28.37	271.63	1.91	-60.5	-79.9	3.8	7.46e-01	0	29	104	442499072	89	34190
2026-01-04 05:17:29.37	271.57	1.85	-60.5	-79.9	3.8	7.45e-01	0	29	104	442499072	89	34161

#Closed at: 2026-01-04 05:17:29
#Recorded file [442 MB]: D:/lorett/data/31004_260104_080603.dat