passes_logs/2026/01/02/R4.6S_Anadyr_2ch/R4.6S_Anadyr_2ch__20260102_013048_2025-108B_rec.log

#Pass ID: 20260102_013048_2025-108B
#Satellite: 2025-108B
#Configuration: 3PB_600M
#almurnet v.1.7.20251203
#Start time: 2026-01-02 01:30:49

#Version: 2.2.20231116
#Station: R4.6S_Anadyr_2ch
#Location: 177.4865 lon 64.73178 lat
#TLE: 1 64088U 25108B   25351.01672131  .00008460  00000+0  43413-3 0  9994
#TLE: 2 64088  97.4940  63.8579 0011684 285.1423  74.8517 15.16717580 31720

#Time	Az	El	Level	Level2	SNR	BER	BlckErr	Temp	State	Recorded	gain1	gain2
2026-01-02 01:30:49.34	17.86	0.04	-38.1	-37.7	12.0	0.00e+00	0	34	0	0	56	16365
2026-01-02 01:30:50.34	17.78	0.10	-51.7	-54.1	3.6	0.00e+00	0	35	104	0	60	85815
2026-01-02 01:30:51.35	17.71	0.16	-51.6	-54.0	3.6	0.00e+00	0	35	104	0	60	84716
2026-01-02 01:30:52.36	17.64	0.21	-51.6	-54.1	3.6	0.00e+00	0	35	104	0	60	85342
2026-01-02 01:30:53.38	17.56	0.27	-51.7	-54.1	3.6	0.00e+00	0	36	104	0	60	86208
2026-01-02 01:30:54.39	17.49	0.33	-51.5	-54.0	3.6	0.00e+00	0	36	104	0	60	84733
2026-01-02 01:30:55.40	17.42	0.39	-51.5	-54.0	3.6	0.00e+00	0	36	104	0	60	84608
2026-01-02 01:30:56.41	17.34	0.45	-51.5	-54.0	3.6	0.00e+00	0	36	104	0	60	84548
2026-01-02 01:30:57.42	17.27	0.51	-51.5	-54.0	3.5	0.00e+00	0	36	104	0	60	84790
2026-01-02 01:30:58.43	17.19	0.56	-51.6	-54.1	3.6	0.00e+00	0	36	104	0	60	85602
2026-01-02 01:30:59.44	17.12	0.62	-51.6	-54.1	3.6	0.00e+00	0	36	104	0	60	85734
2026-01-02 01:31:00.45	17.04	0.68	-51.7	-54.1	3.6	0.00e+00	0	36	104	0	60	85820
2026-01-02 01:31:01.46	16.96	0.74	-51.6	-54.1	3.6	0.00e+00	0	36	104	0	60	85571
2026-01-02 01:31:02.47	16.89	0.80	-51.6	-54.1	3.6	0.00e+00	0	36	104	0	60	85367
2026-01-02 01:31:03.48	16.81	0.86	-51.6	-54.1	3.6	0.00e+00	0	36	104	0	60	85822
2026-01-02 01:31:04.49	16.73	0.92	-51.7	-54.1	3.6	0.00e+00	0	36	104	0	60	85505
2026-01-02 01:31:05.51	16.65	0.98	-51.7	-54.1	3.6	0.00e+00	0	36	104	0	60	85523
2026-01-02 01:31:06.52	16.58	1.04	-51.6	-54.1	3.6	0.00e+00	0	36	104	0	60	85787
2026-01-02 01:31:07.52	16.50	1.10	-51.7	-54.1	3.6	0.00e+00	0	36	104	0	60	86003
2026-01-02 01:31:08.54	16.42	1.16	-51.7	-54.2	3.6	0.00e+00	0	36	104	0	60	86401
2026-01-02 01:31:09.55	16.34	1.22	-51.6	-54.1	3.6	0.00e+00	0	36	104	0	60	85388
2026-01-02 01:31:10.56	16.26	1.28	-51.6	-54.0	3.6	0.00e+00	0	36	104	0	60	84946
2026-01-02 01:31:11.57	16.18	1.34	-51.6	-54.0	3.6	0.00e+00	0	36	104	0	60	84779
2026-01-02 01:31:12.58	16.10	1.40	-51.6	-54.0	3.6	0.00e+00	0	36	104	0	60	85166
2026-01-02 01:31:13.59	16.02	1.46	-51.6	-54.1	3.6	0.00e+00	0	36	104	0	60	85745
2026-01-02 01:31:14.60	15.93	1.52	-51.6	-54.0	3.6	0.00e+00	0	36	104	0	60	85176
2026-01-02 01:31:15.61	15.85	1.58	-51.7	-54.1	3.6	0.00e+00	0	36	104	0	60	85773
2026-01-02 01:31:16.62	15.77	1.64	-51.7	-54.1	3.6	0.00e+00	0	36	104	0	60	85652
2026-01-02 01:31:17.63	15.69	1.70	-51.6	-54.1	3.6	0.00e+00	0	36	104	0	60	85436
2026-01-02 01:31:18.64	15.60	1.76	-51.6	-54.1	3.6	0.00e+00	0	36	104	0	60	85265
2026-01-02 01:31:19.65	15.52	1.82	-51.6	-54.1	3.6	0.00e+00	0	36	104	0	60	85628
2026-01-02 01:31:20.66	15.43	1.88	-51.6	-54.1	3.6	0.00e+00	0	36	104	0	60	85639
2026-01-02 01:31:21.68	15.35	1.94	-51.7	-54.1	3.6	0.00e+00	0	37	104	0	60	85989
2026-01-02 01:31:22.68	15.26	2.00	-51.6	-54.1	3.6	0.00e+00	0	37	104	0	60	85462
2026-01-02 01:31:23.69	15.18	2.07	-51.7	-54.1	3.6	0.00e+00	0	37	104	0	60	85731
2026-01-02 01:31:24.71	15.09	2.13	-51.6	-54.1	3.6	0.00e+00	0	36	104	0	60	85873
2026-01-02 01:31:25.72	15.00	2.19	-51.6	-54.0	3.6	0.00e+00	0	37	104	0	60	84987
2026-01-02 01:31:26.73	14.92	2.25	-51.7	-54.1	3.6	0.00e+00	0	37	104	0	60	86110
2026-01-02 01:31:27.74	14.83	2.31	-51.7	-54.2	3.6	0.00e+00	0	37	104	0	60	86238
2026-01-02 01:31:28.75	14.74	2.38	-51.8	-54.3	3.6	0.00e+00	0	37	104	0	60	87239
2026-01-02 01:31:29.76	14.65	2.44	-51.7	-54.1	3.6	0.00e+00	0	37	104	0	60	86084
2026-01-02 01:31:30.77	14.56	2.50	-51.7	-54.2	3.6	0.00e+00	0	37	104	0	60	86296
2026-01-02 01:31:31.78	14.47	2.56	-51.7	-54.1	3.6	0.00e+00	0	37	104	0	60	85765
2026-01-02 01:31:32.79	14.38	2.62	-51.7	-54.2	3.6	0.00e+00	0	37	104	0	60	86328
2026-01-02 01:31:33.80	14.29	2.69	-51.8	-54.2	3.6	0.00e+00	0	37	104	0	60	87014
2026-01-02 01:31:34.81	14.20	2.75	-51.7	-54.2	3.6	0.00e+00	0	37	104	0	60	86847
2026-01-02 01:31:35.82	14.11	2.81	-51.7	-54.1	3.6	0.00e+00	0	37	104	0	60	85707
2026-01-02 01:31:36.83	14.02	2.88	-51.6	-54.1	3.6	0.00e+00	0	37	104	0	60	85331
2026-01-02 01:31:37.84	13.92	2.94	-51.7	-54.1	3.6	0.00e+00	0	37	104	0	60	86047
2026-01-02 01:31:38.85	13.83	3.00	-51.6	-54.1	3.6	0.00e+00	0	37	104	0	60	85364
2026-01-02 01:31:39.86	13.74	3.07	-51.7	-54.1	3.6	0.00e+00	0	37	104	0	60	85751
2026-01-02 01:31:40.87	13.64	3.13	-51.6	-54.0	3.6	0.00e+00	0	37	104	0	60	85099
2026-01-02 01:31:41.88	13.55	3.19	-51.6	-54.1	3.6	0.00e+00	0	37	104	0	60	85442
2026-01-02 01:31:42.89	13.45	3.26	-51.6	-54.1	3.6	0.00e+00	0	37	104	0	60	85372
2026-01-02 01:31:43.90	13.35	3.32	-51.7	-54.2	3.6	0.00e+00	0	37	104	0	60	86299
2026-01-02 01:31:44.91	13.26	3.38	-51.7	-54.1	3.6	0.00e+00	0	37	104	0	60	86104
2026-01-02 01:31:45.92	13.16	3.45	-51.6	-54.1	3.6	0.00e+00	0	37	104	0	60	85664
2026-01-02 01:31:46.93	13.06	3.51	-51.8	-54.2	3.6	0.00e+00	0	37	104	0	60	86559
2026-01-02 01:31:47.94	12.96	3.58	-51.7	-54.2	3.6	0.00e+00	0	37	104	0	60	86249
2026-01-02 01:31:48.95	12.87	3.64	-51.7	-54.1	3.6	0.00e+00	0	37	104	0	60	85799
2026-01-02 01:31:49.96	12.77	3.71	-51.6	-54.0	3.6	0.00e+00	0	37	104	0	60	85149
2026-01-02 01:31:50.98	12.67	3.77	-51.6	-54.1	3.6	0.00e+00	0	37	104	0	60	85894
2026-01-02 01:31:51.99	12.56	3.84	-51.7	-54.1	3.6	0.00e+00	0	37	104	0	60	85624
2026-01-02 01:31:53.00	12.46	3.90	-51.7	-54.1	3.6	0.00e+00	0	37	104	0	60	85580
2026-01-02 01:31:54.01	12.36	3.97	-51.6	-54.1	3.5	0.00e+00	0	37	104	0	60	85361
2026-01-02 01:31:55.02	12.26	4.03	-51.6	-54.0	3.6	0.00e+00	0	37	104	0	60	85110
2026-01-02 01:31:56.03	12.16	4.10	-51.6	-54.1	3.6	0.00e+00	0	37	104	0	60	85608
2026-01-02 01:31:57.04	12.05	4.16	-51.6	-54.1	3.6	0.00e+00	0	37	104	0	60	85861
2026-01-02 01:31:58.05	11.95	4.23	-51.7	-54.1	3.6	0.00e+00	0	37	104	0	60	86038
2026-01-02 01:31:59.06	11.84	4.29	-51.7	-54.1	3.6	0.00e+00	0	37	104	0	60	85994
2026-01-02 01:32:00.07	11.74	4.36	-51.7	-54.1	3.6	0.00e+00	0	37	104	0	60	86048
2026-01-02 01:32:01.08	11.63	4.43	-51.7	-54.1	3.6	0.00e+00	0	37	104	0	60	85880
2026-01-02 01:32:02.09	11.53	4.49	-51.7	-54.1	3.6	0.00e+00	0	37	104	0	60	85873
2026-01-02 01:32:03.10	11.42	4.56	-51.7	-54.2	3.6	0.00e+00	0	37	104	0	60	86302
2026-01-02 01:32:04.11	11.31	4.63	-51.7	-54.1	3.6	0.00e+00	0	37	104	0	60	85732
2026-01-02 01:32:05.12	11.20	4.69	-51.6	-54.1	3.6	0.00e+00	0	37	104	0	60	85383
2026-01-02 01:32:06.14	11.09	4.76	-51.6	-54.1	3.6	0.00e+00	0	37	104	0	60	85337
2026-01-02 01:32:07.15	10.98	4.83	-51.6	-54.0	3.6	0.00e+00	0	37	104	0	60	84924
2026-01-02 01:32:08.16	10.87	4.89	-51.6	-54.1	3.6	0.00e+00	0	37	104	0	60	85521
2026-01-02 01:32:09.17	10.76	4.96	-51.6	-54.0	3.6	0.00e+00	0	37	104	0	60	85133
2026-01-02 01:32:10.18	10.65	5.03	-51.7	-54.2	3.6	0.00e+00	0	37	104	0	60	86402
2026-01-02 01:32:11.19	10.54	5.10	-51.7	-54.1	3.6	0.00e+00	0	37	104	0	60	86003
2026-01-02 01:32:12.20	10.42	5.16	-51.7	-54.1	3.6	0.00e+00	0	37	104	0	60	85758
2026-01-02 01:32:13.21	10.31	5.23	-51.5	-54.1	3.6	0.00e+00	0	37	104	0	60	85344
2026-01-02 01:32:14.22	10.20	5.30	-51.6	-54.1	3.6	0.00e+00	0	37	104	0	60	85619
2026-01-02 01:32:15.23	10.08	5.37	-51.6	-54.1	3.6	0.00e+00	0	37	104	0	60	85623
2026-01-02 01:32:16.24	9.97	5.44	-51.6	-54.1	3.6	0.00e+00	0	37	104	0	60	85755
2026-01-02 01:32:17.25	9.85	5.50	-51.6	-54.1	3.6	0.00e+00	0	38	104	0	60	85654
2026-01-02 01:32:18.26	9.73	5.57	-51.7	-54.1	3.6	0.00e+00	0	37	104	0	60	85988
2026-01-02 01:32:19.28	9.61	5.64	-51.8	-54.2	3.5	0.00e+00	0	37	104	0	60	86965
2026-01-02 01:32:20.29	9.49	5.71	-51.7	-54.1	3.6	0.00e+00	0	37	104	0	60	85944
2026-01-02 01:32:21.30	9.37	5.78	-51.7	-54.2	3.6	0.00e+00	0	37	104	0	60	86359
2026-01-02 01:32:22.31	9.25	5.85	-51.7	-54.1	3.6	0.00e+00	0	37	104	0	60	85845
2026-01-02 01:32:23.32	9.13	5.92	-51.6	-54.0	3.6	0.00e+00	0	37	104	0	60	84913
2026-01-02 01:32:24.33	9.01	5.99	-51.7	-54.1	3.6	0.00e+00	0	38	104	0	60	86194
2026-01-02 01:32:25.34	8.89	6.06	-51.7	-54.1	3.5	0.00e+00	0	38	104	0	60	85905
2026-01-02 01:32:26.35	8.77	6.12	-51.7	-54.1	3.6	0.00e+00	0	37	104	0	60	86106
2026-01-02 01:32:27.36	8.64	6.19	-51.6	-54.1	3.6	0.00e+00	0	38	104	0	60	85419
2026-01-02 01:32:28.37	8.52	6.26	-51.8	-54.3	3.6	0.00e+00	0	37	104	0	60	87781
2026-01-02 01:32:29.38	8.39	6.33	-51.6	-54.1	3.6	0.00e+00	0	38	104	0	60	86130
2026-01-02 01:32:30.39	8.27	6.40	-51.7	-54.2	3.6	0.00e+00	0	38	104	0	60	86755
2026-01-02 01:32:31.40	8.14	6.47	-51.6	-54.1	3.6	0.00e+00	0	38	104	0	60	85850
2026-01-02 01:32:32.41	8.01	6.54	-51.7	-54.1	3.6	0.00e+00	0	38	104	0	60	85404
2026-01-02 01:32:33.42	7.88	6.61	-51.7	-54.2	3.6	0.00e+00	0	38	104	0	60	86322
2026-01-02 01:32:34.43	7.76	6.69	-51.7	-54.2	3.6	0.00e+00	0	38	104	0	60	86241
2026-01-02 01:32:35.44	7.63	6.76	-51.7	-54.2	3.6	0.00e+00	0	38	104	0	60	86437
2026-01-02 01:32:36.46	7.49	6.83	-51.7	-54.1	3.6	0.00e+00	0	38	104	0	60	86045
2026-01-02 01:32:37.47	7.36	6.90	-51.7	-54.1	3.6	0.00e+00	0	38	104	0	60	85616
2026-01-02 01:32:38.48	7.23	6.97	-51.6	-54.1	3.6	0.00e+00	0	38	104	0	60	85395
2026-01-02 01:32:39.49	7.10	7.04	-51.7	-54.1	3.6	0.00e+00	0	38	104	0	60	85945
2026-01-02 01:32:40.50	6.96	7.11	-51.7	-54.1	3.6	0.00e+00	0	38	104	0	60	85930
2026-01-02 01:32:41.51	6.83	7.18	-51.7	-54.1	3.6	0.00e+00	0	38	104	0	60	85979
2026-01-02 01:32:42.52	6.69	7.26	-51.7	-54.1	3.6	0.00e+00	0	38	104	0	60	86022
2026-01-02 01:32:43.53	6.55	7.33	-51.8	-54.2	3.6	0.00e+00	0	38	104	0	60	87075
2026-01-02 01:32:44.54	6.42	7.40	-51.7	-54.1	3.6	0.00e+00	0	38	104	0	60	86178
2026-01-02 01:32:45.55	6.28	7.47	-51.7	-54.1	3.6	0.00e+00	0	38	104	0	60	85905
2026-01-02 01:32:46.56	6.14	7.54	-51.7	-54.1	3.6	0.00e+00	0	38	104	0	60	85584
2026-01-02 01:32:47.57	6.00	7.62	-51.8	-54.2	3.6	0.00e+00	0	38	104	0	60	86990
2026-01-02 01:32:48.59	5.86	7.69	-51.8	-54.2	3.6	0.00e+00	0	38	104	0	60	87019
2026-01-02 01:32:49.60	5.71	7.76	-51.7	-54.1	3.6	0.00e+00	0	38	104	0	60	86189
2026-01-02 01:32:50.61	5.57	7.83	-51.7	-54.2	3.6	0.00e+00	0	38	104	0	60	86379
2026-01-02 01:32:51.62	5.43	7.91	-51.7	-54.2	3.6	0.00e+00	0	38	104	0	60	86230
2026-01-02 01:32:52.63	5.28	7.98	-51.7	-54.1	3.6	0.00e+00	0	38	104	0	60	85581
2026-01-02 01:32:53.64	5.14	8.05	-51.7	-54.3	3.6	0.00e+00	0	38	104	0	60	87248
2026-01-02 01:32:54.65	4.99	8.13	-51.6	-54.1	3.6	0.00e+00	0	38	104	0	60	85771
2026-01-02 01:32:55.66	4.84	8.20	-51.7	-54.2	3.6	0.00e+00	0	38	104	0	60	86351
2026-01-02 01:32:56.67	4.70	8.27	-51.7	-54.1	3.6	0.00e+00	0	38	104	0	60	85804
2026-01-02 01:32:57.68	4.55	8.35	-51.7	-54.2	3.6	0.00e+00	0	38	104	0	60	86308
2026-01-02 01:32:58.69	4.40	8.42	-51.8	-54.1	3.6	0.00e+00	0	38	104	0	60	86052
2026-01-02 01:32:59.70	4.25	8.49	-51.7	-54.1	3.6	0.00e+00	0	38	104	0	60	85497
2026-01-02 01:33:00.71	4.09	8.57	-51.7	-54.2	3.6	0.00e+00	0	38	104	0	60	86809
2026-01-02 01:33:01.73	3.94	8.64	-51.7	-54.2	3.6	0.00e+00	0	38	104	0	60	86551
2026-01-02 01:33:02.74	3.79	8.72	-51.8	-54.2	3.6	0.00e+00	0	38	104	0	60	86746
2026-01-02 01:33:03.75	3.63	8.79	-51.8	-54.3	3.6	0.00e+00	0	38	104	0	60	87587
2026-01-02 01:33:04.76	3.47	8.86	-51.7	-54.1	3.6	0.00e+00	0	38	104	0	60	86164
2026-01-02 01:33:05.77	3.32	8.94	-51.7	-54.1	3.6	0.00e+00	0	38	104	0	60	85693
2026-01-02 01:33:06.78	3.16	9.01	-51.8	-54.2	3.6	0.00e+00	0	38	104	0	60	86645
2026-01-02 01:33:07.79	3.00	9.09	-51.7	-54.2	3.6	0.00e+00	0	38	104	0	60	86441
2026-01-02 01:33:08.80	2.84	9.16	-51.7	-54.2	3.6	0.00e+00	0	38	104	0	60	86697
2026-01-02 01:33:09.81	2.68	9.24	-51.7	-54.2	3.6	0.00e+00	0	38	104	0	60	86404
2026-01-02 01:33:10.82	2.52	9.31	-51.7	-54.1	3.6	0.00e+00	0	38	104	0	60	85786
2026-01-02 01:33:11.83	2.35	9.39	-51.7	-54.1	3.6	0.00e+00	0	38	104	0	60	86150
2026-01-02 01:33:12.84	2.19	9.46	-51.8	-54.2	3.6	0.00e+00	0	38	104	0	60	86644
2026-01-02 01:33:13.85	2.02	9.54	-51.6	-54.1	3.6	0.00e+00	0	38	104	0	60	85586
2026-01-02 01:33:14.87	1.86	9.61	-51.8	-54.2	3.6	0.00e+00	0	38	104	0	60	86842
2026-01-02 01:33:15.88	1.69	9.69	-51.8	-54.2	3.6	0.00e+00	0	38	104	0	60	86652
2026-01-02 01:33:16.89	1.52	9.77	-51.7	-54.2	3.6	0.00e+00	0	38	104	0	60	86309
2026-01-02 01:33:17.90	1.35	9.84	-51.7	-54.1	3.6	0.00e+00	0	38	104	0	60	85806
2026-01-02 01:33:18.91	1.18	9.92	-51.7	-54.2	3.6	0.00e+00	0	38	104	0	60	86220
2026-01-02 01:33:19.92	1.01	9.99	-51.7	-54.2	3.6	0.00e+00	0	38	104	0	60	86398
2026-01-02 01:33:20.93	0.84	10.07	-51.8	-54.2	3.6	0.00e+00	0	38	104	0	60	87035
2026-01-02 01:33:21.94	0.66	10.14	-51.7	-54.1	3.6	0.00e+00	0	38	104	0	60	86109
2026-01-02 01:33:22.95	0.49	10.22	-51.8	-54.3	3.6	0.00e+00	0	38	104	0	60	87237
2026-01-02 01:33:23.96	0.31	10.30	-51.7	-54.2	3.6	0.00e+00	0	38	104	0	60	86689
2026-01-02 01:33:24.97	0.13	10.37	-51.8	-54.2	3.6	0.00e+00	0	38	104	0	60	86723
2026-01-02 01:33:25.98	359.95	10.45	-51.7	-54.2	3.6	0.00e+00	0	38	104	0	60	86435
2026-01-02 01:33:26.99	359.78	10.53	-51.7	-54.1	3.6	0.00e+00	0	38	104	0	60	85887
2026-01-02 01:33:28.00	359.59	10.60	-51.8	-54.3	3.6	0.00e+00	0	38	104	0	60	87399
2026-01-02 01:33:29.01	359.41	10.68	-51.7	-54.2	3.6	0.00e+00	0	38	104	0	60	87130
2026-01-02 01:33:30.02	359.23	10.76	-51.7	-54.1	3.6	0.00e+00	0	38	104	0	60	85779
2026-01-02 01:33:31.03	359.04	10.83	-51.7	-54.2	3.6	0.00e+00	0	38	104	0	60	86233
2026-01-02 01:33:32.04	358.86	10.91	-51.7	-54.1	3.6	0.00e+00	0	38	104	0	60	86095
2026-01-02 01:33:33.05	358.67	10.99	-51.7	-54.2	3.6	0.00e+00	0	38	104	0	60	86883
2026-01-02 01:33:34.06	358.48	11.06	-51.7	-54.2	3.6	0.00e+00	0	38	104	0	60	86547
2026-01-02 01:33:35.07	358.30	11.14	-51.7	-54.2	3.6	0.00e+00	0	38	104	0	60	86817
2026-01-02 01:33:36.08	358.11	11.22	-51.7	-54.2	3.6	0.00e+00	0	38	104	0	60	86604
2026-01-02 01:33:37.09	357.91	11.29	-51.7	-54.1	3.6	0.00e+00	0	38	104	0	60	85720
2026-01-02 01:33:38.10	357.72	11.37	-51.7	-54.1	3.6	0.00e+00	0	38	104	0	60	85806
2026-01-02 01:33:39.11	357.53	11.45	-51.6	-54.1	3.6	0.00e+00	0	38	104	0	60	85774
2026-01-02 01:33:40.12	357.33	11.53	-51.7	-54.1	3.6	0.00e+00	0	38	104	0	60	85902
2026-01-02 01:33:41.13	357.13	11.60	-51.7	-54.2	3.6	0.00e+00	0	38	104	0	60	86819
2026-01-02 01:33:42.14	356.94	11.68	-51.7	-54.1	3.6	0.00e+00	0	38	104	0	60	86128
2026-01-02 01:33:43.15	356.74	11.76	-51.7	-54.1	3.6	0.00e+00	0	38	104	0	60	85903
2026-01-02 01:33:44.16	356.54	11.83	-51.7	-54.2	3.6	0.00e+00	0	38	104	0	60	86244
2026-01-02 01:33:45.17	356.34	11.91	-51.7	-54.2	3.6	0.00e+00	0	38	104	0	60	86452
2026-01-02 01:33:46.18	356.13	11.99	-51.8	-54.2	3.5	0.00e+00	0	38	104	0	60	86652
2026-01-02 01:33:47.19	355.93	12.07	-51.7	-54.1	3.6	0.00e+00	0	38	104	0	60	85972
2026-01-02 01:33:48.21	355.72	12.14	-51.7	-54.2	3.6	0.00e+00	0	38	104	0	60	86291
2026-01-02 01:33:49.22	355.51	12.22	-51.7	-54.2	3.6	0.00e+00	0	38	104	0	60	86467
2026-01-02 01:33:50.23	355.31	12.30	-51.6	-54.1	3.6	0.00e+00	0	38	104	0	60	85447
2026-01-02 01:33:51.24	355.10	12.38	-51.7	-54.1	3.6	0.00e+00	0	38	104	0	60	86044
2026-01-02 01:33:52.25	354.88	12.45	-51.7	-54.1	3.6	0.00e+00	0	38	104	0	60	85602
2026-01-02 01:33:53.26	354.67	12.53	-51.7	-54.1	3.6	0.00e+00	0	38	104	0	60	85727
2026-01-02 01:33:54.27	354.46	12.61	-51.7	-54.2	3.6	0.00e+00	0	38	104	0	60	86314
2026-01-02 01:33:55.28	354.24	12.69	-51.7	-54.1	3.6	0.00e+00	0	38	104	0	60	86006
2026-01-02 01:33:56.29	354.03	12.76	-51.7	-54.2	3.6	0.00e+00	0	38	104	0	60	86398
2026-01-02 01:33:57.30	353.81	12.84	-51.7	-54.1	3.6	0.00e+00	0	38	104	0	60	85833
2026-01-02 01:33:58.31	353.59	12.92	-51.6	-54.1	3.6	0.00e+00	0	38	104	0	60	85480
2026-01-02 01:33:59.32	353.37	12.99	-51.7	-54.1	3.6	0.00e+00	0	38	104	0	60	85923
2026-01-02 01:34:00.33	353.15	13.07	-51.7	-54.1	3.6	0.00e+00	0	38	104	0	60	85374
2026-01-02 01:34:01.34	352.92	13.15	-51.7	-54.2	3.6	0.00e+00	0	38	104	0	60	86858
2026-01-02 01:34:02.36	352.70	13.23	-51.7	-54.2	3.6	0.00e+00	0	38	104	0	60	86829
2026-01-02 01:34:03.37	352.47	13.30	-51.8	-54.3	3.6	0.00e+00	0	38	104	0	60	87449
2026-01-02 01:34:04.38	352.24	13.38	-51.8	-54.3	3.6	0.00e+00	0	38	104	0	60	87364
2026-01-02 01:34:05.39	352.01	13.46	-51.7	-54.2	3.6	0.00e+00	0	38	104	0	60	86245
2026-01-02 01:34:06.40	351.78	13.53	-51.8	-54.3	3.6	0.00e+00	0	38	104	0	60	87570
2026-01-02 01:34:07.41	351.55	13.61	-51.7	-54.2	3.6	0.00e+00	0	38	104	0	60	86536
2026-01-02 01:34:08.42	351.32	13.68	-51.7	-54.1	3.6	0.00e+00	0	38	104	0	60	85520
2026-01-02 01:34:09.43	351.08	13.76	-51.8	-54.2	3.6	0.00e+00	0	38	104	0	60	86469
2026-01-02 01:34:10.44	350.85	13.84	-51.7	-54.1	3.6	0.00e+00	0	38	104	0	60	86210
2026-01-02 01:34:11.45	350.61	13.91	-51.6	-54.1	3.6	0.00e+00	0	38	104	0	60	85304
2026-01-02 01:34:12.47	350.37	13.99	-51.7	-54.1	3.6	0.00e+00	0	38	104	0	60	85991
2026-01-02 01:34:13.48	350.13	14.07	-51.7	-54.1	3.6	0.00e+00	0	38	104	0	60	86116
2026-01-02 01:34:14.49	349.89	14.14	-51.7	-54.1	3.6	0.00e+00	0	38	104	0	60	85826
2026-01-02 01:34:15.50	349.64	14.22	-51.7	-54.1	3.6	0.00e+00	0	38	104	0	60	85804
2026-01-02 01:34:16.51	349.40	14.29	-51.7	-54.1	3.6	0.00e+00	0	38	104	0	60	85970
2026-01-02 01:34:17.52	349.15	14.37	-51.8	-54.2	3.6	0.00e+00	0	38	104	0	60	87204
2026-01-02 01:34:18.53	348.90	14.44	-51.7	-54.2	3.6	0.00e+00	0	38	104	0	60	86503
2026-01-02 01:34:19.54	348.65	14.52	-51.7	-54.1	3.6	0.00e+00	0	38	104	0	60	85854
2026-01-02 01:34:20.55	348.40	14.59	-51.6	-54.1	3.6	0.00e+00	0	38	104	0	60	85798
2026-01-02 01:34:21.56	348.15	14.67	-51.7	-54.1	3.6	0.00e+00	0	38	104	0	60	85678
2026-01-02 01:34:22.57	347.90	14.74	-51.6	-54.0	3.6	0.00e+00	0	38	104	0	60	85086
2026-01-02 01:34:23.58	347.64	14.81	-51.7	-54.1	3.6	0.00e+00	0	38	104	0	60	85655
2026-01-02 01:34:24.59	347.38	14.89	-51.7	-54.1	3.6	0.00e+00	0	38	104	0	60	85756
2026-01-02 01:34:25.60	347.12	14.96	-51.7	-54.1	3.6	0.00e+00	0	38	104	0	60	85936
2026-01-02 01:34:26.61	346.86	15.03	-51.7	-54.2	3.6	0.00e+00	0	38	104	0	60	86274
2026-01-02 01:34:27.62	346.60	15.11	-51.7	-54.1	3.6	0.00e+00	0	38	104	0	60	86082
2026-01-02 01:34:28.63	346.34	15.18	-51.7	-54.1	3.6	0.00e+00	0	38	104	0	60	85689
2026-01-02 01:34:29.64	346.07	15.25	-51.8	-54.2	3.6	0.00e+00	0	38	104	0	60	86621
2026-01-02 01:34:30.65	345.81	15.33	-51.8	-54.2	3.6	0.00e+00	0	38	104	0	60	86863
2026-01-02 01:34:31.67	345.54	15.40	-51.7	-54.1	3.6	0.00e+00	0	38	104	0	60	86189
2026-01-02 01:34:32.68	345.27	15.47	-51.6	-54.1	3.6	0.00e+00	0	38	104	0	60	85658
2026-01-02 01:34:33.69	345.00	15.54	-51.7	-54.1	3.6	0.00e+00	0	38	104	0	60	85993
2026-01-02 01:34:34.70	344.73	15.61	-51.8	-54.2	3.6	0.00e+00	0	38	104	0	60	87013
2026-01-02 01:34:35.70	344.45	15.68	-51.7	-54.1	3.6	0.00e+00	0	38	104	0	60	86049
2026-01-02 01:34:36.71	344.18	15.75	-51.7	-54.1	3.6	0.00e+00	0	38	104	0	60	85972
2026-01-02 01:34:37.72	343.90	15.82	-51.7	-54.2	3.6	0.00e+00	0	38	104	0	60	86598
2026-01-02 01:34:38.74	343.62	15.89	-51.8	-54.3	3.6	0.00e+00	0	38	104	0	60	87469
2026-01-02 01:34:39.75	343.34	15.96	-51.8	-54.2	3.6	0.00e+00	0	38	104	0	60	87167
2026-01-02 01:34:40.76	343.06	16.03	-51.9	-54.4	3.6	0.00e+00	0	38	104	0	60	88302
2026-01-02 01:34:41.76	342.78	16.10	-51.8	-54.3	3.6	0.00e+00	0	38	104	0	60	87852
2026-01-02 01:34:42.78	342.49	16.17	-51.7	-54.2	3.6	0.00e+00	0	38	104	0	60	86392
2026-01-02 01:34:43.78	342.21	16.24	-51.8	-54.2	3.6	0.00e+00	0	39	104	0	60	87094
2026-01-02 01:34:44.79	341.92	16.30	-51.7	-54.1	3.6	0.00e+00	0	38	104	0	60	86148
2026-01-02 01:34:45.80	341.63	16.37	-51.7	-54.1	3.6	0.00e+00	0	38	104	0	60	85781
2026-01-02 01:34:46.81	341.34	16.44	-51.7	-54.1	3.6	0.00e+00	0	38	104	0	60	86138
2026-01-02 01:34:47.82	341.05	16.50	-51.7	-54.1	3.6	0.00e+00	0	38	104	0	60	85624
2026-01-02 01:34:48.83	340.75	16.57	-51.7	-54.2	3.6	0.00e+00	0	38	104	0	60	86278
2026-01-02 01:34:49.85	340.45	16.64	-51.7	-54.2	3.6	0.00e+00	0	38	104	0	60	86483
2026-01-02 01:34:50.86	340.16	16.70	-51.8	-54.2	3.6	0.00e+00	0	38	104	0	60	86941
2026-01-02 01:34:51.87	339.86	16.77	-51.7	-54.2	3.5	0.00e+00	0	38	104	0	60	86833
2026-01-02 01:34:52.88	339.56	16.83	-51.7	-54.2	3.6	0.00e+00	0	38	104	0	60	86791
2026-01-02 01:34:53.89	339.26	16.89	-51.7	-54.1	3.6	0.00e+00	0	38	104	0	60	85670
2026-01-02 01:34:54.90	338.96	16.96	-51.7	-54.1	3.6	0.00e+00	0	38	104	0	60	85873
2026-01-02 01:34:55.91	338.65	17.02	-51.7	-54.1	3.6	0.00e+00	0	38	104	0	60	86168
2026-01-02 01:34:56.92	338.34	17.08	-51.8	-54.2	3.6	0.00e+00	0	38	104	0	60	86809
2026-01-02 01:34:57.93	338.04	17.14	-51.8	-54.3	3.6	0.00e+00	0	38	104	0	60	87936
2026-01-02 01:34:58.95	337.73	17.20	-51.7	-54.2	3.6	0.00e+00	0	38	104	0	60	86417
2026-01-02 01:34:59.96	337.42	17.26	-51.7	-54.2	3.6	0.00e+00	0	38	104	0	60	86363
2026-01-02 01:35:00.97	337.10	17.32	-51.7	-54.1	3.6	0.00e+00	0	38	104	0	60	85915
2026-01-02 01:35:01.98	336.79	17.38	-51.7	-54.2	3.6	0.00e+00	0	38	104	0	60	86649
2026-01-02 01:35:02.99	336.48	17.44	-51.8	-54.3	3.6	0.00e+00	0	38	104	0	60	87217
2026-01-02 01:35:04.00	336.16	17.50	-51.8	-54.3	3.6	0.00e+00	0	38	104	0	60	87351
2026-01-02 01:35:05.01	335.84	17.55	-51.7	-54.2	3.6	0.00e+00	0	38	104	0	60	86847
2026-01-02 01:35:06.02	335.52	17.61	-51.7	-54.2	3.6	0.00e+00	0	38	104	0	60	86371
2026-01-02 01:35:07.03	335.20	17.67	-51.7	-54.2	3.6	0.00e+00	0	39	104	0	60	86530
2026-01-02 01:35:08.04	334.88	17.72	-51.7	-54.1	3.6	0.00e+00	0	39	104	0	60	86019
2026-01-02 01:35:09.05	334.56	17.78	-51.7	-54.2	3.5	0.00e+00	0	38	104	0	60	86237
2026-01-02 01:35:10.06	334.23	17.83	-51.8	-54.3	3.6	0.00e+00	0	38	104	0	60	87239
2026-01-02 01:35:11.07	333.91	17.88	-51.8	-54.3	3.6	0.00e+00	0	39	104	0	60	87500
2026-01-02 01:35:12.08	333.58	17.94	-51.7	-54.2	3.6	0.00e+00	0	39	104	0	60	86724
2026-01-02 01:35:13.09	333.25	17.99	-51.7	-54.2	3.6	0.00e+00	0	39	104	0	60	86785
2026-01-02 01:35:14.10	332.92	18.04	-51.7	-54.2	3.6	0.00e+00	0	38	104	0	60	86547
2026-01-02 01:35:15.12	332.59	18.09	-51.7	-54.2	3.6	0.00e+00	0	38	104	0	60	86439
2026-01-02 01:35:16.13	332.26	18.14	-51.7	-54.1	3.6	0.00e+00	0	38	104	0	60	86142
2026-01-02 01:35:17.14	331.92	18.19	-51.9	-54.3	3.6	0.00e+00	0	38	104	0	60	87408
2026-01-02 01:35:18.15	331.59	18.23	-51.7	-54.2	3.6	0.00e+00	0	39	104	0	60	86567
2026-01-02 01:35:19.16	331.25	18.28	-51.8	-54.2	3.6	0.00e+00	0	39	104	0	60	87134
2026-01-02 01:35:20.17	330.92	18.33	-51.7	-54.2	3.6	0.00e+00	0	39	104	0	60	86297
2026-01-02 01:35:21.18	330.58	18.37	-51.7	-54.1	3.6	0.00e+00	0	39	104	0	60	86016
2026-01-02 01:35:22.19	330.24	18.42	-51.8	-54.3	3.6	0.00e+00	0	38	104	0	60	87312
2026-01-02 01:35:23.20	329.90	18.46	-51.7	-54.1	3.6	0.00e+00	0	39	104	0	60	85914
2026-01-02 01:35:24.21	329.56	18.51	-51.8	-54.2	3.6	0.00e+00	0	39	104	0	60	86612
2026-01-02 01:35:25.23	329.21	18.55	-51.7	-54.2	3.6	0.00e+00	0	38	104	0	60	86254
2026-01-02 01:35:26.24	328.87	18.59	-51.7	-54.2	3.6	0.00e+00	0	39	104	0	60	86804
2026-01-02 01:35:27.25	328.52	18.63	-51.7	-54.2	3.6	0.00e+00	0	39	104	0	60	86362
2026-01-02 01:35:28.26	328.17	18.67	-51.7	-54.1	3.6	0.00e+00	0	39	104	0	60	86064
2026-01-02 01:35:29.27	327.83	18.71	-51.7	-54.1	3.6	0.00e+00	0	39	104	0	60	86198
2026-01-02 01:35:30.28	327.48	18.75	-51.7	-54.2	3.6	0.00e+00	0	38	104	0	60	86724
2026-01-02 01:35:31.29	327.13	18.78	-51.8	-54.3	3.6	0.00e+00	0	38	104	0	60	87276
2026-01-02 01:35:32.30	326.78	18.82	-51.9	-54.4	3.6	0.00e+00	0	39	104	0	60	88254
2026-01-02 01:35:33.31	326.43	18.85	-51.8	-54.2	3.6	0.00e+00	0	39	104	0	60	86768
2026-01-02 01:35:34.32	326.08	18.89	-51.8	-54.3	3.6	0.00e+00	0	39	104	0	60	87855
2026-01-02 01:35:35.33	325.72	18.92	-51.8	-54.3	3.6	0.00e+00	0	39	104	0	60	87369
2026-01-02 01:35:36.34	325.37	18.95	-51.7	-54.2	3.6	0.00e+00	0	39	104	0	60	86843
2026-01-02 01:35:37.35	325.02	18.98	-51.7	-54.2	3.6	0.00e+00	0	39	104	0	60	86602
2026-01-02 01:35:38.37	324.66	19.01	-51.8	-54.3	3.6	0.00e+00	0	39	104	0	60	87640
2026-01-02 01:35:39.38	324.30	19.04	-51.7	-54.2	3.6	0.00e+00	0	38	104	0	60	86230
2026-01-02 01:35:40.39	323.94	19.07	-51.7	-54.2	3.6	0.00e+00	0	38	104	0	60	86921
2026-01-02 01:35:41.40	323.58	19.10	-51.7	-54.2	3.6	0.00e+00	0	39	104	0	60	86219
2026-01-02 01:35:42.41	323.23	19.12	-51.7	-54.1	3.6	0.00e+00	0	39	104	0	60	85946
2026-01-02 01:35:43.42	322.87	19.15	-51.7	-54.2	3.6	0.00e+00	0	39	104	0	60	86916
2026-01-02 01:35:44.43	322.51	19.17	-51.7	-54.1	3.6	0.00e+00	0	39	104	0	60	85982
2026-01-02 01:35:45.44	322.15	19.20	-51.7	-54.2	3.6	0.00e+00	0	38	104	0	60	86813
2026-01-02 01:35:46.45	321.78	19.22	-51.9	-54.4	3.6	0.00e+00	0	39	104	0	60	88260
2026-01-02 01:35:47.46	321.42	19.24	-51.8	-54.3	3.5	0.00e+00	0	39	104	0	60	87485
2026-01-02 01:35:48.47	321.06	19.26	-51.8	-54.3	3.6	0.00e+00	0	39	104	0	60	87487
2026-01-02 01:35:49.48	320.70	19.28	-51.8	-54.2	3.6	0.00e+00	0	39	104	0	60	87045
2026-01-02 01:35:50.49	320.33	19.30	-51.7	-54.1	3.6	0.00e+00	0	39	104	0	60	85975
2026-01-02 01:35:51.51	319.97	19.31	-51.8	-54.2	3.6	0.00e+00	0	39	104	0	60	86912
2026-01-02 01:35:52.52	319.60	19.33	-51.7	-54.2	3.6	0.00e+00	0	39	104	0	60	86625
2026-01-02 01:35:53.53	319.24	19.34	-51.7	-54.1	3.6	0.00e+00	0	38	104	0	60	86163
2026-01-02 01:35:54.54	318.87	19.36	-51.8	-54.2	3.6	0.00e+00	0	38	104	0	60	86709
2026-01-02 01:35:55.55	318.50	19.37	-51.7	-54.2	3.6	0.00e+00	0	39	104	0	60	86512
2026-01-02 01:35:56.56	318.14	19.38	-51.7	-54.2	3.6	0.00e+00	0	38	104	0	60	86670
2026-01-02 01:35:57.57	317.77	19.39	-51.7	-54.2	3.6	0.00e+00	0	39	104	0	60	86715
2026-01-02 01:35:58.59	317.40	19.40	-51.7	-54.1	3.6	0.00e+00	0	38	104	0	60	86153
2026-01-02 01:35:59.60	317.03	19.41	-51.7	-54.2	3.6	0.00e+00	0	39	104	0	60	86752
2026-01-02 01:36:00.61	316.67	19.42	-51.7	-54.1	3.6	0.00e+00	0	39	104	0	60	85904
2026-01-02 01:36:01.62	316.30	19.42	-51.6	-54.1	3.6	0.00e+00	0	39	104	0	60	85451
2026-01-02 01:36:02.63	315.93	19.43	-51.6	-54.1	3.6	0.00e+00	0	38	104	0	60	86098
2026-01-02 01:36:03.64	315.56	19.43	-51.7	-54.1	3.6	0.00e+00	0	39	104	0	60	86195
2026-01-02 01:36:04.66	315.19	19.43	-51.8	-54.3	3.6	0.00e+00	0	38	104	0	60	87400
2026-01-02 01:36:05.67	314.82	19.44	-51.8	-54.2	3.6	0.00e+00	0	38	104	0	60	87130
2026-01-02 01:36:06.68	314.46	19.44	-51.7	-54.2	3.6	0.00e+00	0	39	104	0	60	86279
2026-01-02 01:36:07.69	314.09	19.44	-51.9	-54.3	3.6	0.00e+00	0	38	104	0	60	87832
2026-01-02 01:36:08.70	313.72	19.43	-51.7	-54.1	3.6	0.00e+00	0	39	104	0	60	85707
2026-01-02 01:36:09.71	313.35	19.43	-51.7	-54.1	3.6	0.00e+00	0	39	104	0	60	85545
2026-01-02 01:36:10.72	312.98	19.43	-51.7	-54.1	3.6	0.00e+00	0	39	104	0	60	86145
2026-01-02 01:36:11.73	312.62	19.42	-51.6	-54.1	3.6	0.00e+00	0	39	104	0	60	85724
2026-01-02 01:36:12.75	312.25	19.42	-51.8	-54.2	3.6	0.00e+00	0	39	104	0	60	86938
2026-01-02 01:36:13.76	311.88	19.41	-51.6	-54.1	3.6	0.00e+00	0	39	104	0	60	85697
2026-01-02 01:36:14.77	311.51	19.40	-51.7	-54.2	3.6	0.00e+00	0	39	104	0	60	86412
2026-01-02 01:36:15.78	311.14	19.39	-51.7	-54.1	3.6	0.00e+00	0	39	104	0	60	85784
2026-01-02 01:36:16.79	310.78	19.38	-51.8	-54.2	3.6	0.00e+00	0	39	104	0	60	87183
2026-01-02 01:36:17.80	310.41	19.37	-51.8	-54.2	3.6	0.00e+00	0	39	104	0	60	86731
2026-01-02 01:36:18.81	310.04	19.36	-51.7	-54.1	3.6	0.00e+00	0	39	104	0	60	86210
2026-01-02 01:36:19.82	309.68	19.34	-51.8	-54.3	3.6	0.00e+00	0	39	104	0	60	87254
2026-01-02 01:36:20.83	309.31	19.33	-51.7	-54.2	3.6	0.00e+00	0	38	104	0	60	86758
2026-01-02 01:36:21.85	308.94	19.31	-51.8	-54.3	3.6	0.00e+00	0	39	104	0	60	87466
2026-01-02 01:36:22.86	308.58	19.29	-51.8	-54.2	3.6	0.00e+00	0	39	104	0	60	86821
2026-01-02 01:36:23.87	308.22	19.28	-51.7	-54.2	3.6	0.00e+00	0	39	104	0	60	86721
2026-01-02 01:36:24.88	307.85	19.26	-51.9	-54.3	3.6	0.00e+00	0	39	104	0	60	88060
2026-01-02 01:36:25.89	307.49	19.24	-51.7	-54.2	3.5	0.00e+00	0	39	104	0	60	86717
2026-01-02 01:36:26.90	307.13	19.21	-51.8	-54.3	3.6	0.00e+00	0	39	104	0	60	87262
2026-01-02 01:36:27.91	306.76	19.19	-51.8	-54.2	3.6	0.00e+00	0	39	104	0	60	86750
2026-01-02 01:36:28.92	306.40	19.17	-51.7	-54.2	3.6	0.00e+00	0	39	104	0	60	86352
2026-01-02 01:36:29.93	306.04	19.14	-51.8	-54.2	3.6	0.00e+00	0	38	104	0	60	86875
2026-01-02 01:36:30.94	305.68	19.12	-51.7	-54.2	3.6	0.00e+00	0	39	104	0	60	86362
2026-01-02 01:36:31.95	305.32	19.09	-51.6	-54.1	3.6	0.00e+00	0	39	104	0	60	85337
2026-01-02 01:36:32.97	304.96	19.07	-51.7	-54.2	3.6	0.00e+00	0	39	104	0	60	86568
2026-01-02 01:36:33.98	304.60	19.04	-51.7	-54.2	3.6	0.00e+00	0	39	104	0	60	86453
2026-01-02 01:36:34.99	304.24	19.01	-51.7	-54.1	3.6	0.00e+00	0	39	104	0	60	86045
2026-01-02 01:36:36.00	303.89	18.98	-51.7	-54.1	3.6	0.00e+00	0	39	104	0	60	85817
2026-01-02 01:36:37.01	303.53	18.95	-51.7	-54.1	3.6	0.00e+00	0	39	104	0	60	85577
2026-01-02 01:36:38.02	303.18	18.91	-51.6	-54.1	3.5	0.00e+00	0	39	104	0	60	85726
2026-01-02 01:36:39.03	302.82	18.88	-51.7	-54.1	3.6	0.00e+00	0	39	104	0	60	85929
2026-01-02 01:36:40.04	302.47	18.85	-51.7	-54.1	3.6	0.00e+00	0	39	104	0	60	85947
2026-01-02 01:36:41.05	302.12	18.81	-51.8	-54.2	3.6	0.00e+00	0	39	104	0	60	87077
2026-01-02 01:36:42.06	301.77	18.77	-51.8	-54.3	3.6	0.00e+00	0	39	104	0	60	87433
2026-01-02 01:36:43.07	301.42	18.74	-51.8	-54.2	3.6	0.00e+00	0	39	104	0	60	86743
2026-01-02 01:36:44.09	301.06	18.70	-51.7	-54.1	3.6	0.00e+00	0	39	104	0	60	85835
2026-01-02 01:36:45.10	300.72	18.66	-51.7	-54.1	3.6	0.00e+00	0	39	104	0	60	85732
2026-01-02 01:36:46.11	300.37	18.62	-51.7	-54.1	3.6	0.00e+00	0	39	104	0	60	86180
2026-01-02 01:36:47.12	300.02	18.58	-51.7	-54.2	3.6	0.00e+00	0	39	104	0	60	86493
2026-01-02 01:36:48.13	299.68	18.54	-51.7	-54.2	3.6	0.00e+00	0	39	104	0	60	86514
2026-01-02 01:36:49.14	299.33	18.49	-51.7	-54.2	3.6	0.00e+00	0	39	104	0	60	86330
2026-01-02 01:36:50.15	298.99	18.45	-51.7	-54.2	3.6	0.00e+00	0	39	104	0	60	86376
2026-01-02 01:36:51.16	298.65	18.41	-51.7	-54.2	3.6	0.00e+00	0	39	104	0	60	86650
2026-01-02 01:36:52.17	298.31	18.36	-51.7	-54.2	3.6	0.00e+00	0	39	104	0	60	86796
2026-01-02 01:36:53.18	297.97	18.32	-51.8	-54.3	3.6	0.00e+00	0	39	104	0	60	87346
2026-01-02 01:36:54.19	297.63	18.27	-51.8	-54.2	3.6	0.00e+00	0	39	104	0	60	86567
2026-01-02 01:36:55.20	297.29	18.22	-51.8	-54.3	3.6	0.00e+00	0	39	104	0	60	87333
2026-01-02 01:36:56.21	296.96	18.17	-51.9	-54.3	3.6	0.00e+00	0	39	104	0	60	88159
2026-01-02 01:36:57.22	296.62	18.12	-51.7	-54.1	3.6	0.00e+00	0	39	104	0	60	85964
2026-01-02 01:36:58.23	296.29	18.07	-51.7	-54.1	3.6	0.00e+00	0	39	104	0	60	86169
2026-01-02 01:36:59.24	295.96	18.02	-51.7	-54.2	3.6	0.00e+00	0	39	104	0	60	86814
2026-01-02 01:37:00.25	295.62	17.97	-51.7	-54.2	3.6	0.00e+00	0	39	104	0	60	86233
2026-01-02 01:37:01.27	295.29	17.92	-51.8	-54.2	3.6	0.00e+00	0	39	104	0	60	86339
2026-01-02 01:37:02.28	294.96	17.87	-51.7	-54.2	3.6	0.00e+00	0	39	104	0	60	86461
2026-01-02 01:37:03.29	294.64	17.81	-51.7	-54.1	3.6	0.00e+00	0	39	104	0	60	86052
2026-01-02 01:37:04.30	294.31	17.76	-51.7	-54.1	3.6	0.00e+00	0	39	104	0	60	86060
2026-01-02 01:37:05.31	293.99	17.70	-51.6	-54.1	3.6	0.00e+00	0	39	104	0	60	85961
2026-01-02 01:37:06.32	293.66	17.65	-51.7	-54.1	3.6	0.00e+00	0	39	104	0	60	86168
2026-01-02 01:37:07.33	293.34	17.59	-51.6	-54.1	3.6	0.00e+00	0	39	104	0	60	85451
2026-01-02 01:37:08.34	293.02	17.54	-51.7	-54.1	3.6	0.00e+00	0	39	104	0	60	85755
2026-01-02 01:37:09.35	292.70	17.48	-51.7	-54.1	3.6	0.00e+00	0	39	104	0	60	86052
2026-01-02 01:37:10.36	292.38	17.42	-51.7	-54.2	3.6	0.00e+00	0	39	104	0	60	86358
2026-01-02 01:37:11.37	292.07	17.36	-51.7	-54.1	3.6	0.00e+00	0	39	104	0	60	85785
2026-01-02 01:37:12.38	291.75	17.30	-51.8	-54.3	3.6	0.00e+00	0	39	104	0	60	87711
2026-01-02 01:37:13.40	291.44	17.24	-51.8	-54.3	3.6	0.00e+00	0	39	104	0	60	87405
2026-01-02 01:37:14.41	291.12	17.18	-51.7	-54.2	3.6	0.00e+00	0	39	104	0	60	86515
2026-01-02 01:37:15.42	290.81	17.12	-51.8	-54.3	3.6	0.00e+00	0	39	104	0	60	87477
2026-01-02 01:37:16.43	290.51	17.06	-51.7	-54.1	3.6	0.00e+00	0	39	104	0	60	85944
2026-01-02 01:37:17.44	290.20	16.99	-51.7	-54.2	3.6	0.00e+00	0	39	104	0	60	86249
2026-01-02 01:37:18.45	289.89	16.93	-51.8	-54.2	3.6	0.00e+00	0	39	104	0	60	87085
2026-01-02 01:37:19.46	289.59	16.87	-51.8	-54.2	3.6	0.00e+00	0	39	104	0	60	86932
2026-01-02 01:37:20.47	289.28	16.80	-51.8	-54.3	3.6	0.00e+00	0	39	104	0	60	87372
2026-01-02 01:37:21.48	288.98	16.74	-51.7	-54.1	3.6	0.00e+00	0	39	104	0	60	86053
2026-01-02 01:37:22.49	288.68	16.67	-51.7	-54.2	3.6	0.00e+00	0	39	104	0	60	86717
2026-01-02 01:37:23.50	288.38	16.61	-51.7	-54.2	3.6	0.00e+00	0	39	104	0	60	86501
2026-01-02 01:37:24.52	288.08	16.54	-51.7	-54.2	3.6	0.00e+00	0	39	104	0	60	86434
2026-01-02 01:37:25.53	287.79	16.48	-51.7	-54.1	3.6	0.00e+00	0	39	104	0	60	86059
2026-01-02 01:37:26.54	287.49	16.41	-51.7	-54.1	3.6	0.00e+00	0	39	104	0	60	86108
2026-01-02 01:37:27.55	287.20	16.34	-51.8	-54.3	3.6	0.00e+00	0	39	104	0	60	87258
2026-01-02 01:37:28.56	286.91	16.27	-51.7	-54.1	3.6	0.00e+00	0	39	104	0	60	85993
2026-01-02 01:37:29.57	286.62	16.21	-51.7	-54.2	3.6	0.00e+00	0	39	104	0	60	86636
2026-01-02 01:37:30.58	286.33	16.14	-51.8	-54.2	3.6	0.00e+00	0	39	104	0	60	87015
2026-01-02 01:37:31.59	286.05	16.07	-51.7	-54.1	3.6	0.00e+00	0	39	104	0	60	85787
2026-01-02 01:37:32.60	285.76	16.00	-51.7	-54.2	3.6	0.00e+00	0	39	104	0	60	86556
2026-01-02 01:37:33.61	285.48	15.93	-51.6	-54.1	3.6	0.00e+00	0	39	104	0	60	85225
2026-01-02 01:37:34.62	285.20	15.86	-51.6	-54.0	3.6	0.00e+00	0	39	104	0	60	85130
2026-01-02 01:37:35.63	284.92	15.79	-51.7	-54.2	3.6	0.00e+00	0	39	104	0	60	86650
2026-01-02 01:37:36.64	284.64	15.72	-51.7	-54.2	3.6	0.00e+00	0	39	104	0	60	86213
2026-01-02 01:37:37.65	284.36	15.65	-51.7	-54.2	3.6	0.00e+00	0	39	104	0	60	86629
2026-01-02 01:37:38.66	284.08	15.58	-51.8	-54.2	3.6	0.00e+00	0	39	104	0	60	86933
2026-01-02 01:37:39.68	283.81	15.50	-51.7	-54.1	3.6	0.00e+00	0	39	104	0	60	85318
2026-01-02 01:37:40.69	283.53	15.43	-51.7	-54.2	3.6	0.00e+00	0	39	104	0	60	86863
2026-01-02 01:37:41.70	283.26	15.36	-51.7	-54.2	3.6	0.00e+00	0	39	104	0	60	86642
2026-01-02 01:37:42.71	282.99	15.29	-51.7	-54.2	3.6	0.00e+00	0	39	104	0	60	86653
2026-01-02 01:37:43.72	282.73	15.21	-51.7	-54.1	3.6	0.00e+00	0	39	104	0	60	86054
2026-01-02 01:37:44.73	282.46	15.14	-51.8	-54.2	3.6	0.00e+00	0	39	104	0	60	86756
2026-01-02 01:37:45.74	282.19	15.07	-51.7	-54.2	3.6	0.00e+00	0	39	104	0	60	86573
2026-01-02 01:37:46.75	281.93	14.99	-51.8	-54.3	3.6	0.00e+00	0	39	104	0	60	87735
2026-01-02 01:37:47.76	281.67	14.92	-51.8	-54.3	3.6	0.00e+00	0	39	104	0	60	87498
2026-01-02 01:37:48.77	281.41	14.84	-51.8	-54.2	3.6	0.00e+00	0	39	104	0	60	87160
2026-01-02 01:37:49.78	281.15	14.77	-51.7	-54.2	3.6	0.00e+00	0	39	104	0	60	86519
2026-01-02 01:37:50.79	280.89	14.69	-51.7	-54.2	3.6	0.00e+00	0	39	104	0	60	86341
2026-01-02 01:37:51.81	280.63	14.62	-51.6	-54.1	3.6	0.00e+00	0	39	104	0	60	85388
2026-01-02 01:37:52.82	280.38	14.54	-51.6	-54.1	3.5	0.00e+00	0	39	104	0	60	85857
2026-01-02 01:37:53.83	280.13	14.47	-51.6	-54.0	3.6	0.00e+00	0	39	104	0	60	85083
2026-01-02 01:37:54.84	279.88	14.39	-51.7	-54.1	3.6	0.00e+00	0	39	104	0	60	85871
2026-01-02 01:37:55.85	279.63	14.32	-51.7	-54.1	3.6	0.00e+00	0	39	104	0	60	85920
2026-01-02 01:37:56.86	279.38	14.24	-51.7	-54.2	3.6	0.00e+00	0	39	104	0	60	86587
2026-01-02 01:37:57.87	279.13	14.17	-51.7	-54.2	3.6	0.00e+00	0	39	104	0	60	86724
2026-01-02 01:37:58.89	278.88	14.09	-51.7	-54.2	3.6	0.00e+00	0	39	104	0	60	86684
2026-01-02 01:37:59.90	278.64	14.01	-51.8	-54.1	3.6	0.00e+00	0	39	104	0	60	86106
2026-01-02 01:38:00.91	278.40	13.94	-51.8	-54.2	3.6	0.00e+00	0	39	104	0	60	86596
2026-01-02 01:38:01.92	278.16	13.86	-51.8	-54.3	3.6	0.00e+00	0	39	104	0	60	87859
2026-01-02 01:38:02.93	277.92	13.78	-51.8	-54.3	3.6	0.00e+00	0	39	104	0	60	87796
2026-01-02 01:38:03.94	277.68	13.71	-51.8	-54.2	3.6	0.00e+00	0	39	104	0	60	86707
2026-01-02 01:38:04.95	277.44	13.63	-51.7	-54.2	3.6	0.00e+00	0	39	104	0	60	86831
2026-01-02 01:38:05.95	277.21	13.55	-51.9	-54.3	3.6	0.00e+00	0	39	104	0	60	88030
2026-01-02 01:38:06.97	276.97	13.47	-51.8	-54.3	3.6	0.00e+00	0	39	104	0	60	87824
2026-01-02 01:38:07.98	276.74	13.40	-51.9	-54.3	3.6	0.00e+00	0	39	104	0	60	87632
2026-01-02 01:38:08.99	276.51	13.32	-51.8	-54.2	3.6	0.00e+00	0	39	104	0	60	86897
2026-01-02 01:38:10.00	276.28	13.24	-51.7	-54.1	3.6	0.00e+00	0	39	104	0	60	86087
2026-01-02 01:38:11.01	276.05	13.16	-51.7	-54.2	3.6	0.00e+00	0	39	104	0	60	86916
2026-01-02 01:38:12.02	275.83	13.09	-51.8	-54.2	3.6	0.00e+00	0	39	104	0	60	86884
2026-01-02 01:38:13.03	275.60	13.01	-51.7	-54.2	3.6	0.00e+00	0	39	104	0	60	86314
2026-01-02 01:38:14.04	275.38	12.93	-51.7	-54.1	3.6	0.00e+00	0	39	104	0	60	85835
2026-01-02 01:38:15.05	275.16	12.85	-51.7	-54.1	3.6	0.00e+00	0	39	104	0	60	86108
2026-01-02 01:38:16.06	274.94	12.78	-51.7	-54.1	3.6	0.00e+00	0	39	104	0	60	85860
2026-01-02 01:38:17.07	274.72	12.70	-51.7	-54.1	3.6	0.00e+00	0	39	104	0	60	85628
2026-01-02 01:38:18.09	274.50	12.62	-51.6	-54.1	3.6	0.00e+00	0	39	104	0	60	86017
2026-01-02 01:38:19.10	274.28	12.54	-51.7	-54.1	3.6	0.00e+00	0	39	104	0	60	86015
2026-01-02 01:38:20.11	274.06	12.46	-51.7	-54.2	3.6	0.00e+00	0	39	104	0	60	86635
2026-01-02 01:38:21.12	273.85	12.39	-51.7	-54.2	3.6	0.00e+00	0	39	104	0	60	86488
2026-01-02 01:38:22.13	273.64	12.31	-51.7	-54.1	3.6	0.00e+00	0	39	104	0	60	86162
2026-01-02 01:38:23.14	273.43	12.23	-51.7	-54.2	3.6	0.00e+00	0	39	104	0	60	86656
2026-01-02 01:38:24.15	273.22	12.15	-51.7	-54.1	3.6	0.00e+00	0	39	104	0	60	86085
2026-01-02 01:38:25.16	273.01	12.07	-51.7	-54.2	3.6	0.00e+00	0	39	104	0	60	86588
2026-01-02 01:38:26.17	272.80	12.00	-51.7	-54.2	3.6	0.00e+00	0	39	104	0	60	86681
2026-01-02 01:38:27.18	272.60	11.92	-51.7	-54.1	3.6	0.00e+00	0	39	104	0	60	85811
2026-01-02 01:38:28.19	272.39	11.84	-51.7	-54.2	3.6	0.00e+00	0	39	104	0	60	86589
2026-01-02 01:38:29.20	272.19	11.76	-51.7	-54.1	3.6	0.00e+00	0	39	104	0	60	85594
2026-01-02 01:38:30.21	271.99	11.68	-51.7	-54.2	3.6	0.00e+00	0	39	104	0	60	86307
2026-01-02 01:38:31.23	271.78	11.61	-51.7	-54.1	3.6	0.00e+00	0	39	104	0	60	86163
2026-01-02 01:38:32.24	271.58	11.53	-51.6	-54.1	3.6	0.00e+00	0	39	104	0	60	85672
2026-01-02 01:38:33.25	271.39	11.45	-51.6	-54.1	3.6	0.00e+00	0	39	104	0	60	85703
2026-01-02 01:38:34.26	271.19	11.37	-51.7	-54.2	3.6	0.00e+00	0	39	104	0	60	86353
2026-01-02 01:38:35.27	270.99	11.29	-51.7	-54.2	3.6	0.00e+00	0	39	104	0	60	86390
2026-01-02 01:38:36.28	270.80	11.22	-51.7	-54.1	3.6	0.00e+00	0	39	104	0	60	85942
2026-01-02 01:38:37.29	270.60	11.14	-51.7	-54.2	3.6	0.00e+00	0	39	104	0	60	86819
2026-01-02 01:38:38.30	270.41	11.06	-51.7	-54.2	3.6	0.00e+00	0	39	104	0	60	86750
2026-01-02 01:38:39.31	270.22	10.98	-51.8	-54.2	3.6	0.00e+00	0	39	104	0	60	86937
2026-01-02 01:38:40.32	270.03	10.91	-51.7	-54.2	3.6	0.00e+00	0	39	104	0	60	86690
2026-01-02 01:38:41.33	269.84	10.83	-51.8	-54.3	3.6	0.00e+00	0	39	104	0	60	87465
2026-01-02 01:38:42.34	269.66	10.75	-51.7	-54.2	3.6	0.00e+00	0	39	104	0	60	86564
2026-01-02 01:38:43.36	269.47	10.67	-51.7	-54.1	3.6	0.00e+00	0	39	104	0	60	86113
2026-01-02 01:38:44.37	269.29	10.59	-51.7	-54.1	3.6	0.00e+00	0	39	104	0	60	85999
2026-01-02 01:38:45.38	269.10	10.52	-51.7	-54.2	3.6	0.00e+00	0	39	104	0	60	86660
2026-01-02 01:38:46.39	268.92	10.44	-51.8	-54.2	3.6	0.00e+00	0	39	104	0	60	86282
2026-01-02 01:38:47.40	268.74	10.36	-51.7	-54.2	3.6	0.00e+00	0	39	104	0	60	87057
2026-01-02 01:38:48.41	268.56	10.29	-51.7	-54.2	3.6	0.00e+00	0	39	104	0	60	86350
2026-01-02 01:38:49.42	268.38	10.21	-51.7	-54.1	3.6	0.00e+00	0	39	104	0	60	85993
2026-01-02 01:38:50.43	268.20	10.13	-51.7	-54.2	3.6	0.00e+00	0	39	104	0	60	86475
2026-01-02 01:38:51.45	268.02	10.05	-51.7	-54.2	3.6	0.00e+00	0	39	104	0	60	86715
2026-01-02 01:38:52.46	267.85	9.98	-51.7	-54.2	3.6	0.00e+00	0	39	104	0	60	86259
2026-01-02 01:38:53.47	267.67	9.90	-51.7	-54.1	3.6	0.00e+00	0	39	104	0	60	86101
2026-01-02 01:38:54.48	267.50	9.82	-51.7	-54.1	3.6	0.00e+00	0	39	104	0	60	86039
2026-01-02 01:38:55.49	267.33	9.75	-51.6	-54.1	3.6	0.00e+00	0	39	104	0	60	85887
2026-01-02 01:38:56.50	267.16	9.67	-51.7	-54.1	3.6	0.00e+00	0	39	104	0	60	85912
2026-01-02 01:38:57.51	266.99	9.60	-51.7	-54.2	3.6	0.00e+00	0	39	104	0	60	86962
2026-01-02 01:38:58.53	266.82	9.52	-51.7	-54.1	3.6	0.00e+00	0	39	104	0	60	85884
2026-01-02 01:38:59.54	266.65	9.44	-51.7	-54.1	3.6	0.00e+00	0	39	104	0	60	85729
2026-01-02 01:39:00.55	266.48	9.37	-51.7	-54.2	3.6	0.00e+00	0	39	104	0	60	86400
2026-01-02 01:39:01.56	266.32	9.29	-51.6	-54.1	3.6	0.00e+00	0	39	104	0	60	85692
2026-01-02 01:39:02.57	266.15	9.22	-51.7	-54.1	3.6	0.00e+00	0	39	104	0	60	86144
2026-01-02 01:39:03.58	265.99	9.14	-51.7	-54.1	3.6	0.00e+00	0	39	104	0	60	85937
2026-01-02 01:39:04.59	265.83	9.06	-51.7	-54.2	3.6	0.00e+00	0	39	104	0	60	86634
2026-01-02 01:39:05.60	265.67	8.99	-51.7	-54.2	3.6	0.00e+00	0	39	104	0	60	86640
2026-01-02 01:39:06.61	265.51	8.91	-51.7	-54.2	3.6	0.00e+00	0	39	104	0	60	86355
2026-01-02 01:39:07.62	265.35	8.84	-51.8	-54.2	3.6	0.00e+00	0	39	104	0	60	86743
2026-01-02 01:39:08.63	265.19	8.76	-51.7	-54.2	3.6	0.00e+00	0	39	104	0	60	86649
2026-01-02 01:39:09.64	265.03	8.69	-51.7	-54.2	3.6	0.00e+00	0	39	104	0	60	86619
2026-01-02 01:39:10.65	264.87	8.61	-51.7	-54.2	3.6	0.00e+00	0	39	104	0	60	86660
2026-01-02 01:39:11.67	264.72	8.54	-51.7	-54.1	3.6	0.00e+00	0	39	104	0	60	86058
2026-01-02 01:39:12.68	264.56	8.46	-51.7	-54.1	3.6	0.00e+00	0	39	104	0	60	86185
2026-01-02 01:39:13.69	264.41	8.39	-51.7	-54.1	3.6	0.00e+00	0	39	104	0	60	85696
2026-01-02 01:39:14.70	264.26	8.31	-51.7	-54.2	3.6	0.00e+00	0	39	104	0	60	86485
2026-01-02 01:39:15.71	264.11	8.24	-51.8	-54.1	3.6	0.00e+00	0	39	104	0	60	86171
2026-01-02 01:39:16.72	263.96	8.17	-51.8	-54.3	3.6	0.00e+00	0	39	104	0	60	87334
2026-01-02 01:39:17.73	263.81	8.09	-51.7	-54.2	3.6	0.00e+00	0	39	104	0	60	86778
2026-01-02 01:39:18.74	263.66	8.02	-51.7	-54.2	3.6	0.00e+00	0	39	104	0	60	86436
2026-01-02 01:39:19.75	263.51	7.94	-51.8	-54.3	3.6	0.00e+00	0	39	104	0	60	87480
2026-01-02 01:39:20.76	263.36	7.87	-51.8	-54.2	3.6	0.00e+00	0	39	104	0	60	87108
2026-01-02 01:39:21.77	263.22	7.80	-51.7	-54.2	3.6	0.00e+00	0	39	104	0	60	86533
2026-01-02 01:39:22.78	263.07	7.72	-51.7	-54.1	3.6	0.00e+00	0	39	104	0	60	86122
2026-01-02 01:39:23.79	262.93	7.65	-51.7	-54.2	3.6	0.00e+00	0	39	104	0	60	86273
2026-01-02 01:39:24.81	262.78	7.58	-51.9	-54.3	3.6	0.00e+00	0	39	104	0	60	88078
2026-01-02 01:39:25.81	262.64	7.50	-51.9	-54.3	3.6	0.00e+00	0	39	104	0	60	87963
2026-01-02 01:39:26.83	262.50	7.43	-51.9	-54.3	3.6	0.00e+00	0	39	104	0	60	87829
2026-01-02 01:39:27.83	262.36	7.36	-51.8	-54.2	3.6	0.00e+00	0	39	104	0	60	86756
2026-01-02 01:39:28.85	262.22	7.29	-51.8	-54.2	3.6	0.00e+00	0	39	104	0	60	86570
2026-01-02 01:39:29.86	262.08	7.21	-51.8	-54.2	3.6	0.00e+00	0	39	104	0	60	86737
2026-01-02 01:39:30.87	261.94	7.14	-51.8	-54.3	3.6	0.00e+00	0	39	104	0	60	87479
2026-01-02 01:39:31.88	261.81	7.07	-51.8	-54.2	3.6	0.00e+00	0	39	104	0	60	87128
2026-01-02 01:39:32.89	261.67	7.00	-51.8	-54.3	3.5	0.00e+00	0	39	104	0	60	87263
2026-01-02 01:39:33.90	261.53	6.92	-51.7	-54.2	3.6	0.00e+00	0	39	104	0	60	86275
2026-01-02 01:39:34.90	261.40	6.85	-51.8	-54.3	3.6	0.00e+00	0	39	104	0	60	87288
2026-01-02 01:39:35.91	261.27	6.78	-51.8	-54.2	3.6	0.00e+00	0	39	104	0	60	87086
2026-01-02 01:39:36.92	261.13	6.71	-51.7	-54.1	3.6	0.00e+00	0	39	104	0	60	85867
2026-01-02 01:39:37.93	261.00	6.64	-51.8	-54.2	3.6	0.00e+00	0	39	104	0	60	86533
2026-01-02 01:39:38.94	260.87	6.57	-51.7	-54.2	3.6	0.00e+00	0	39	104	0	60	86433
2026-01-02 01:39:39.95	260.74	6.50	-51.7	-54.2	3.6	0.00e+00	0	39	104	0	60	86515
2026-01-02 01:39:40.96	260.61	6.43	-51.7	-54.1	3.6	0.00e+00	0	39	104	0	60	86190
2026-01-02 01:39:41.97	260.48	6.35	-51.7	-54.2	3.6	0.00e+00	0	39	104	0	60	86236
2026-01-02 01:39:42.98	260.35	6.28	-51.7	-54.2	3.6	0.00e+00	0	39	104	0	60	86527
2026-01-02 01:39:43.99	260.23	6.21	-51.8	-54.2	3.6	0.00e+00	0	39	104	0	60	87042
2026-01-02 01:39:45.00	260.10	6.14	-51.7	-54.2	3.6	0.00e+00	0	39	104	0	60	86471
2026-01-02 01:39:46.01	259.98	6.07	-51.7	-54.1	3.6	0.00e+00	0	39	104	0	60	85620
2026-01-02 01:39:47.02	259.85	6.00	-51.8	-54.2	3.6	0.00e+00	0	39	104	0	60	87067
2026-01-02 01:39:48.03	259.73	5.93	-51.7	-54.2	3.6	0.00e+00	0	39	104	0	60	86245
2026-01-02 01:39:49.05	259.60	5.86	-51.7	-54.2	3.5	0.00e+00	0	39	104	0	60	86220
2026-01-02 01:39:50.06	259.48	5.79	-51.8	-54.2	3.6	0.00e+00	0	39	104	0	60	86834
2026-01-02 01:39:51.07	259.36	5.72	-51.8	-54.2	3.6	0.00e+00	0	39	104	0	60	86938
2026-01-02 01:39:52.08	259.24	5.65	-51.7	-54.2	3.6	0.00e+00	0	39	104	0	60	86518
2026-01-02 01:39:53.09	259.11	5.58	-51.7	-54.2	3.6	0.00e+00	0	39	104	0	60	86707
2026-01-02 01:39:54.10	259.00	5.52	-51.8	-54.3	3.6	0.00e+00	0	39	104	0	60	87533
2026-01-02 01:39:55.11	258.88	5.45	-51.7	-54.1	3.6	0.00e+00	0	39	104	0	60	86193
2026-01-02 01:39:56.12	258.76	5.38	-51.9	-54.4	3.6	0.00e+00	0	39	104	0	60	88441
2026-01-02 01:39:57.13	258.64	5.31	-51.8	-54.3	3.6	0.00e+00	0	39	104	0	60	87258
2026-01-02 01:39:58.15	258.52	5.24	-51.8	-54.3	3.6	0.00e+00	0	39	104	0	60	87748
2026-01-02 01:39:59.16	258.41	5.17	-51.8	-54.3	3.6	0.00e+00	0	39	104	0	60	87269
2026-01-02 01:40:00.17	258.29	5.10	-51.8	-54.2	3.6	0.00e+00	0	39	104	0	60	86550
2026-01-02 01:40:01.18	258.18	5.03	-51.8	-54.2	3.6	0.00e+00	0	39	104	0	60	86951
2026-01-02 01:40:02.19	258.06	4.97	-51.7	-54.2	3.6	0.00e+00	0	39	104	0	60	86734
2026-01-02 01:40:03.20	257.95	4.90	-51.9	-54.4	3.6	0.00e+00	0	39	104	0	60	88701
2026-01-02 01:40:04.21	257.83	4.83	-51.8	-54.2	3.6	0.00e+00	0	39	104	0	60	87144
2026-01-02 01:40:05.22	257.72	4.76	-51.8	-54.2	3.6	0.00e+00	0	39	104	0	60	87181
2026-01-02 01:40:06.23	257.61	4.70	-51.8	-54.2	3.6	0.00e+00	0	39	104	0	60	87120
2026-01-02 01:40:07.24	257.50	4.63	-51.9	-54.3	3.6	0.00e+00	0	39	104	0	60	88005
2026-01-02 01:40:08.25	257.39	4.56	-51.8	-54.2	3.6	0.00e+00	0	39	104	0	60	86754
2026-01-02 01:40:09.26	257.28	4.49	-51.7	-54.2	3.6	0.00e+00	0	39	104	0	60	86403
2026-01-02 01:40:10.27	257.17	4.43	-51.8	-54.2	3.6	0.00e+00	0	39	104	0	60	86936
2026-01-02 01:40:11.29	257.06	4.36	-51.7	-54.2	3.6	0.00e+00	0	39	104	0	60	86528
2026-01-02 01:40:12.30	256.95	4.29	-51.9	-54.3	3.6	0.00e+00	0	39	104	0	60	87931
2026-01-02 01:40:13.31	256.85	4.23	-51.7	-54.1	3.6	0.00e+00	0	39	104	0	60	85998
2026-01-02 01:40:14.32	256.74	4.16	-51.8	-54.2	3.6	0.00e+00	0	39	104	0	60	86620
2026-01-02 01:40:15.33	256.63	4.09	-51.9	-54.4	3.6	0.00e+00	0	39	104	0	60	88493
2026-01-02 01:40:16.34	256.53	4.03	-51.8	-54.3	3.6	0.00e+00	0	39	104	0	60	87304
2026-01-02 01:40:17.35	256.43	3.96	-51.8	-54.3	3.6	0.00e+00	0	39	104	0	60	87248
2026-01-02 01:40:18.36	256.32	3.90	-51.7	-54.2	3.6	0.00e+00	0	39	104	0	60	86944
2026-01-02 01:40:19.37	256.22	3.83	-51.8	-54.2	3.6	0.00e+00	0	39	104	0	60	86708
2026-01-02 01:40:20.38	256.11	3.76	-51.8	-54.2	3.6	0.00e+00	0	39	104	0	60	87205
2026-01-02 01:40:21.39	256.01	3.70	-51.9	-54.3	3.6	0.00e+00	0	39	104	0	60	87795
2026-01-02 01:40:22.40	255.91	3.63	-51.8	-54.3	3.6	0.00e+00	0	39	104	0	60	87478
2026-01-02 01:40:23.41	255.81	3.57	-51.8	-54.2	3.6	0.00e+00	0	39	104	0	60	86874
2026-01-02 01:40:24.42	255.71	3.50	-51.8	-54.2	3.6	0.00e+00	0	39	104	0	60	86868
2026-01-02 01:40:25.43	255.61	3.44	-51.9	-54.4	3.6	0.00e+00	0	39	104	0	60	88313
2026-01-02 01:40:26.44	255.51	3.37	-52.0	-54.4	3.6	0.00e+00	0	39	104	0	60	88556
2026-01-02 01:40:27.45	255.41	3.31	-52.0	-54.5	3.6	0.00e+00	0	39	104	0	60	89694
2026-01-02 01:40:28.46	255.31	3.24	-51.9	-54.3	3.5	0.00e+00	0	39	104	0	60	87936
2026-01-02 01:40:29.47	255.22	3.18	-51.8	-54.3	3.6	0.00e+00	0	39	104	0	60	87459
2026-01-02 01:40:30.48	255.12	3.12	-51.8	-54.3	3.6	0.00e+00	0	39	104	0	60	87453
2026-01-02 01:40:31.49	255.02	3.05	-51.9	-54.3	3.6	0.00e+00	0	39	104	0	60	88077
2026-01-02 01:40:32.50	254.93	2.99	-51.8	-54.2	3.6	0.00e+00	0	39	104	0	60	87073
2026-01-02 01:40:33.51	254.83	2.92	-51.8	-54.2	3.6	0.00e+00	0	39	104	0	60	86829
2026-01-02 01:40:34.52	254.74	2.86	-51.8	-54.3	3.6	0.00e+00	0	39	104	0	60	87651
2026-01-02 01:40:35.53	254.64	2.80	-51.7	-54.2	3.6	0.00e+00	0	39	104	0	60	86630
2026-01-02 01:40:36.54	254.55	2.73	-51.8	-54.3	3.6	0.00e+00	0	39	104	0	60	87308
2026-01-02 01:40:37.55	254.45	2.67	-51.8	-54.3	3.6	0.00e+00	0	39	104	0	60	87483
2026-01-02 01:40:38.56	254.36	2.61	-51.8	-54.3	3.6	0.00e+00	0	39	104	0	60	87276
2026-01-02 01:40:39.57	254.27	2.54	-51.8	-54.3	3.6	0.00e+00	0	39	104	0	60	87733
2026-01-02 01:40:40.58	254.18	2.48	-51.7	-54.2	3.6	0.00e+00	0	39	104	0	60	86352
2026-01-02 01:40:41.59	254.09	2.42	-51.7	-54.2	3.6	0.00e+00	0	39	104	0	60	86368
2026-01-02 01:40:42.60	253.99	2.35	-51.7	-54.2	3.6	0.00e+00	0	39	104	0	60	86907
2026-01-02 01:40:43.61	253.90	2.29	-51.9	-54.3	3.6	0.00e+00	0	39	104	0	60	87950
2026-01-02 01:40:44.62	253.81	2.23	-51.7	-54.2	3.6	0.00e+00	0	39	104	0	60	86580
2026-01-02 01:40:45.63	253.73	2.17	-51.8	-54.2	3.6	0.00e+00	0	39	104	0	60	86928
2026-01-02 01:40:46.64	253.64	2.10	-51.8	-54.2	3.6	0.00e+00	0	39	104	0	60	86680
2026-01-02 01:40:47.65	253.55	2.04	-51.8	-54.2	3.6	0.00e+00	0	39	104	0	60	87079
2026-01-02 01:40:48.66	253.46	1.98	-51.8	-54.2	3.6	0.00e+00	0	39	104	0	60	86592
2026-01-02 01:40:49.68	253.37	1.92	-51.7	-54.2	3.6	0.00e+00	0	39	104	0	60	86263
2026-01-02 01:40:50.69	253.28	1.86	-51.7	-54.1	3.6	0.00e+00	0	39	104	0	60	85939
2026-01-02 01:40:51.70	253.20	1.79	-51.7	-54.1	3.6	0.00e+00	0	39	104	0	60	85968
2026-01-02 01:40:52.71	253.11	1.73	-51.7	-54.1	3.6	0.00e+00	0	39	104	0	60	86158
2026-01-02 01:40:53.72	253.03	1.67	-51.6	-54.1	3.5	0.00e+00	0	39	104	0	60	85406
2026-01-02 01:40:54.73	252.94	1.61	-51.6	-54.1	3.6	0.00e+00	0	39	104	0	60	85841
2026-01-02 01:40:55.74	252.86	1.55	-51.7	-54.2	3.6	0.00e+00	0	39	104	0	60	86239
2026-01-02 01:40:56.75	252.77	1.49	-51.7	-54.1	3.6	0.00e+00	0	39	104	0	60	86078
2026-01-02 01:40:57.76	252.69	1.43	-51.7	-54.2	3.6	0.00e+00	0	39	104	0	60	86443
2026-01-02 01:40:58.77	252.61	1.37	-51.8	-54.2	3.6	0.00e+00	0	39	104	0	60	86932
2026-01-02 01:40:59.78	252.52	1.30	-51.7	-54.1	3.6	0.00e+00	0	39	104	0	60	86120
2026-01-02 01:41:00.79	252.44	1.24	-51.7	-54.1	3.6	0.00e+00	0	39	104	0	60	85727
2026-01-02 01:41:01.80	252.36	1.18	-51.7	-54.1	3.6	0.00e+00	0	39	104	0	60	86100
2026-01-02 01:41:02.82	252.28	1.12	-51.7	-54.1	3.6	0.00e+00	0	39	104	0	60	85615
2026-01-02 01:41:03.83	252.20	1.06	-51.8	-54.2	3.6	0.00e+00	0	39	104	0	60	87018
2026-01-02 01:41:04.84	252.11	1.00	-51.9	-54.3	3.6	0.00e+00	0	39	104	0	60	87958
2026-01-02 01:41:05.85	252.03	0.94	-51.8	-54.2	3.6	0.00e+00	0	39	104	0	60	86975
2026-01-02 01:41:06.86	251.95	0.88	-51.8	-54.2	3.6	0.00e+00	0	39	104	0	60	86742
2026-01-02 01:41:07.87	251.88	0.82	-51.8	-54.3	3.6	0.00e+00	0	39	104	0	60	87215
2026-01-02 01:41:08.88	251.80	0.76	-51.7	-54.2	3.6	0.00e+00	0	39	104	0	60	86471
2026-01-02 01:41:09.89	251.72	0.70	-51.7	-54.1	3.6	0.00e+00	0	39	104	0	60	86096
2026-01-02 01:41:10.90	251.64	0.64	-51.9	-54.4	3.6	0.00e+00	0	39	104	0	60	88721
2026-01-02 01:41:11.91	251.56	0.58	-51.9	-54.3	3.6	0.00e+00	0	39	104	0	60	88042
2026-01-02 01:41:12.92	251.48	0.52	-51.8	-54.2	3.6	0.00e+00	0	39	104	0	60	86607
2026-01-02 01:41:13.93	251.41	0.47	-51.9	-54.3	3.6	0.00e+00	0	39	104	0	60	88190
2026-01-02 01:41:14.94	251.33	0.41	-51.7	-54.1	3.6	0.00e+00	0	39	104	0	60	85883
2026-01-02 01:41:15.95	251.26	0.35	-51.7	-54.2	3.6	0.00e+00	0	39	104	0	60	86576
2026-01-02 01:41:16.96	251.18	0.29	-51.7	-54.2	3.6	0.00e+00	0	39	104	0	60	86336
2026-01-02 01:41:17.97	251.10	0.23	-51.8	-54.2	3.6	0.00e+00	0	39	104	0	60	87036
2026-01-02 01:41:18.98	251.03	0.17	-51.7	-54.2	3.6	0.00e+00	0	39	104	0	60	86758
2026-01-02 01:41:19.99	250.95	0.11	-51.8	-54.3	3.6	0.00e+00	0	39	104	0	60	87665
2026-01-02 01:41:21.01	250.88	0.05	-51.8	-54.2	3.6	0.00e+00	0	39	104	0	60	86577
2026-01-02 01:41:22.02	250.81	-0.00	-51.8	-54.3	3.6	0.00e+00	0	39	104	0	60	87320
2026-01-02 01:41:23.03	250.73	-0.06	-52.0	-54.5	3.6	0.00e+00	0	39	104	0	60	89298
2026-01-02 01:41:24.03	250.66	-0.12	-51.8	-54.2	3.6	0.00e+00	0	39	104	0	60	86834

#Closed at: 2026-01-02 01:41:24
#Recorded file [0 MB]: D:/lorett/data/35034_260102_043049.dat