passes_logs/2026/01/02/R4.6S_Anadyr_2ch/R4.6S_Anadyr_2ch__20260102_234133_2025-108B_rec.log

#Pass ID: 20260102_234133_2025-108B
#Satellite: 2025-108B
#Configuration: 3PB_600M
#almurnet v.1.7.20251203
#Start time: 2026-01-02 23:41:34

#Version: 2.2.20231116
#Station: R4.6S_Anadyr_2ch
#Location: 177.4865 lon 64.73178 lat
#TLE: 1 64088U 25108B   25351.01672131  .00008460  00000+0  43413-3 0  9994
#TLE: 2 64088  97.4940  63.8579 0011684 285.1423  74.8517 15.16717580 31720

#Time	Az	El	Level	Level2	SNR	BER	BlckErr	Temp	State	Recorded	gain1	gain2
2026-01-02 23:41:34.99	17.80	0.09	-52.5	-53.9	3.4	0.00e+00	0	34	0	0	60	83500
2026-01-02 23:41:35.99	17.80	0.15	-52.9	-55.3	3.6	0.00e+00	0	35	104	0	60	98023
2026-01-02 23:41:37.00	17.80	0.21	-52.9	-55.3	3.6	0.00e+00	0	35	104	0	60	98768
2026-01-02 23:41:38.01	17.81	0.28	-52.8	-55.3	3.6	0.00e+00	0	36	104	0	60	97967
2026-01-02 23:41:39.03	17.81	0.34	-52.9	-55.3	3.6	0.00e+00	0	36	104	0	60	98833
2026-01-02 23:41:40.03	17.82	0.41	-52.9	-55.3	3.6	0.00e+00	0	36	104	0	60	98663
2026-01-02 23:41:41.04	17.82	0.47	-52.9	-55.3	3.5	0.00e+00	0	36	104	0	60	98712
2026-01-02 23:41:42.05	17.82	0.54	-52.9	-55.3	3.6	0.00e+00	0	36	104	0	60	98841
2026-01-02 23:41:43.06	17.83	0.60	-52.8	-55.2	3.6	0.00e+00	0	36	104	0	60	97604
2026-01-02 23:41:44.07	17.83	0.67	-52.8	-55.2	3.6	0.00e+00	0	36	104	0	60	97556
2026-01-02 23:41:45.08	17.83	0.73	-52.8	-55.3	3.6	0.00e+00	0	36	104	0	60	98135
2026-01-02 23:41:46.09	17.84	0.80	-52.8	-55.3	3.6	0.00e+00	0	36	104	0	60	98590
2026-01-02 23:41:47.10	17.84	0.87	-52.9	-55.4	3.6	0.00e+00	0	36	104	0	60	99070
2026-01-02 23:41:48.11	17.84	0.93	-52.8	-55.2	3.6	0.00e+00	0	36	104	0	60	97173
2026-01-02 23:41:49.12	17.85	1.00	-52.7	-55.2	3.6	0.00e+00	0	36	104	0	60	96973
2026-01-02 23:41:50.14	17.85	1.07	-52.8	-55.2	3.6	0.00e+00	0	36	104	0	60	97595
2026-01-02 23:41:51.15	17.85	1.13	-52.7	-55.2	3.6	0.00e+00	0	36	104	0	60	97357
2026-01-02 23:41:52.16	17.86	1.20	-52.8	-55.2	3.6	0.00e+00	0	36	104	0	60	97761
2026-01-02 23:41:53.17	17.86	1.27	-52.8	-55.3	3.6	0.00e+00	0	36	104	0	60	97857
2026-01-02 23:41:54.18	17.86	1.34	-52.8	-55.2	3.6	0.00e+00	0	36	104	0	60	97577
2026-01-02 23:41:55.19	17.87	1.40	-52.8	-55.3	3.5	0.00e+00	0	36	104	0	60	97969
2026-01-02 23:41:56.20	17.87	1.47	-52.8	-55.2	3.6	0.00e+00	0	36	104	0	60	97089
2026-01-02 23:41:57.21	17.87	1.54	-52.8	-55.2	3.6	0.00e+00	0	36	104	0	60	97828
2026-01-02 23:41:58.22	17.88	1.61	-52.8	-55.2	3.6	0.00e+00	0	36	104	0	60	97810
2026-01-02 23:41:59.23	17.88	1.68	-52.8	-55.2	3.6	0.00e+00	0	36	104	0	60	97185
2026-01-02 23:42:00.24	17.88	1.75	-52.8	-55.2	3.6	0.00e+00	0	36	104	0	60	97677
2026-01-02 23:42:01.25	17.89	1.81	-52.8	-55.2	3.6	0.00e+00	0	37	104	0	60	97505
2026-01-02 23:42:02.26	17.89	1.88	-52.8	-55.2	3.6	0.00e+00	0	37	104	0	60	97569
2026-01-02 23:42:03.27	17.89	1.95	-52.8	-55.2	3.6	0.00e+00	0	37	104	0	60	97208
2026-01-02 23:42:04.28	17.90	2.02	-52.8	-55.2	3.6	0.00e+00	0	37	104	0	60	97736
2026-01-02 23:42:05.29	17.90	2.09	-52.8	-55.2	3.6	0.00e+00	0	37	104	0	60	97660
2026-01-02 23:42:06.30	17.90	2.16	-52.8	-55.2	3.6	0.00e+00	0	37	104	0	60	97436
2026-01-02 23:42:07.31	17.91	2.23	-52.8	-55.2	3.6	0.00e+00	0	37	104	0	60	97499
2026-01-02 23:42:08.32	17.91	2.30	-52.8	-55.3	3.6	0.00e+00	0	37	104	0	60	98102
2026-01-02 23:42:09.33	17.91	2.37	-52.8	-55.3	3.6	0.00e+00	0	37	104	0	60	97941
2026-01-02 23:42:10.34	17.92	2.44	-52.8	-55.3	3.6	0.00e+00	0	37	104	0	60	98011
2026-01-02 23:42:11.35	17.92	2.52	-52.9	-55.3	3.6	0.00e+00	0	37	104	0	60	98242
2026-01-02 23:42:12.36	17.92	2.59	-52.9	-55.3	3.6	0.00e+00	0	37	104	0	60	98411
2026-01-02 23:42:13.37	17.92	2.66	-52.8	-55.3	3.6	0.00e+00	0	37	104	0	60	97904
2026-01-02 23:42:14.38	17.93	2.73	-52.9	-55.4	3.6	0.00e+00	0	37	104	0	60	99091
2026-01-02 23:42:15.39	17.93	2.80	-52.8	-55.3	3.6	0.00e+00	0	37	104	0	60	98510
2026-01-02 23:42:16.40	17.93	2.88	-52.8	-55.2	3.6	0.00e+00	0	37	104	0	60	97703
2026-01-02 23:42:17.41	17.94	2.95	-53.0	-55.4	3.6	0.00e+00	0	37	104	0	60	99338
2026-01-02 23:42:18.42	17.94	3.02	-52.9	-55.3	3.6	0.00e+00	0	37	104	0	60	98972
2026-01-02 23:42:19.43	17.94	3.09	-52.8	-55.3	3.6	0.00e+00	0	37	104	0	60	98835
2026-01-02 23:42:20.45	17.95	3.17	-52.8	-55.3	3.6	0.00e+00	0	37	104	0	60	98078
2026-01-02 23:42:21.46	17.95	3.24	-52.8	-55.2	3.6	0.00e+00	0	37	104	0	60	97756
2026-01-02 23:42:22.47	17.95	3.32	-52.9	-55.4	3.6	0.00e+00	0	37	104	0	60	99093
2026-01-02 23:42:23.48	17.96	3.39	-52.9	-55.4	3.6	0.00e+00	0	37	104	0	60	99105
2026-01-02 23:42:24.49	17.96	3.46	-52.9	-55.4	3.6	0.00e+00	0	37	104	0	60	99365
2026-01-02 23:42:25.49	17.96	3.54	-52.9	-55.3	3.6	0.00e+00	0	37	104	0	60	98941
2026-01-02 23:42:26.50	17.97	3.61	-52.9	-55.3	3.6	0.00e+00	0	37	104	0	60	98715
2026-01-02 23:42:27.51	17.97	3.69	-52.8	-55.2	3.5	0.00e+00	0	37	104	0	60	97640
2026-01-02 23:42:28.53	17.97	3.76	-53.0	-55.5	3.6	0.00e+00	0	37	104	0	60	100198
2026-01-02 23:42:29.54	17.98	3.84	-52.8	-55.3	3.6	0.00e+00	0	37	104	0	60	97876
2026-01-02 23:42:30.55	17.98	3.92	-52.8	-55.3	3.6	0.00e+00	0	37	104	0	60	98099
2026-01-02 23:42:31.56	17.98	3.99	-52.7	-55.2	3.6	0.00e+00	0	37	104	0	60	97616
2026-01-02 23:42:32.57	17.98	4.07	-52.8	-55.2	3.6	0.00e+00	0	37	104	0	60	97145
2026-01-02 23:42:33.57	17.99	4.15	-53.0	-55.5	3.6	0.00e+00	0	37	104	0	60	100346
2026-01-02 23:42:34.58	17.99	4.22	-52.9	-55.3	3.6	0.00e+00	0	37	104	0	60	98122
2026-01-02 23:42:35.59	17.99	4.30	-52.8	-55.2	3.6	0.00e+00	0	37	104	0	60	97499
2026-01-02 23:42:36.60	18.00	4.38	-52.9	-55.3	3.6	0.00e+00	0	37	104	0	60	98528
2026-01-02 23:42:37.61	18.00	4.46	-52.9	-55.3	3.6	0.00e+00	0	37	104	0	60	98273
2026-01-02 23:42:38.62	18.00	4.53	-52.9	-55.4	3.6	0.00e+00	0	37	104	0	60	99282
2026-01-02 23:42:39.63	18.01	4.61	-52.9	-55.3	3.6	0.00e+00	0	37	104	0	60	98908
2026-01-02 23:42:40.64	18.01	4.69	-52.9	-55.3	3.6	0.00e+00	0	37	104	0	60	98213
2026-01-02 23:42:41.65	18.01	4.77	-52.8	-55.2	3.6	0.00e+00	0	37	104	0	60	97703
2026-01-02 23:42:42.66	18.01	4.85	-52.8	-55.2	3.6	0.00e+00	0	37	104	0	60	97421
2026-01-02 23:42:43.67	18.02	4.93	-52.8	-55.2	3.6	0.00e+00	0	37	104	0	60	97642
2026-01-02 23:42:44.68	18.02	5.01	-52.8	-55.2	3.6	0.00e+00	0	37	104	0	60	97810
2026-01-02 23:42:45.69	18.02	5.09	-52.8	-55.3	3.6	0.00e+00	0	37	104	0	60	98077
2026-01-02 23:42:46.70	18.03	5.17	-52.8	-55.2	3.6	0.00e+00	0	37	104	0	60	97413
2026-01-02 23:42:47.71	18.03	5.25	-52.8	-55.2	3.6	0.00e+00	0	37	104	0	60	97749
2026-01-02 23:42:48.72	18.03	5.33	-52.9	-55.4	3.6	0.00e+00	0	37	104	0	60	99101
2026-01-02 23:42:49.73	18.04	5.42	-52.8	-55.2	3.6	0.00e+00	0	37	104	0	60	97748
2026-01-02 23:42:50.74	18.04	5.50	-52.9	-55.3	3.5	0.00e+00	0	38	104	0	60	98878
2026-01-02 23:42:51.75	18.04	5.58	-52.9	-55.3	3.6	0.00e+00	0	38	104	0	60	98906
2026-01-02 23:42:52.76	18.04	5.66	-52.9	-55.3	3.6	0.00e+00	0	38	104	0	60	98344
2026-01-02 23:42:53.77	18.05	5.75	-52.9	-55.3	3.6	0.00e+00	0	37	104	0	60	98956
2026-01-02 23:42:54.77	18.05	5.83	-52.9	-55.3	3.6	0.00e+00	0	38	104	0	60	98202
2026-01-02 23:42:55.78	18.05	5.91	-52.9	-55.3	3.6	0.00e+00	0	38	104	0	60	98545
2026-01-02 23:42:56.79	18.06	6.00	-52.9	-55.3	3.6	0.00e+00	0	37	104	0	60	98886
2026-01-02 23:42:57.80	18.06	6.08	-52.9	-55.3	3.6	0.00e+00	0	38	104	0	60	98698
2026-01-02 23:42:58.81	18.06	6.17	-52.9	-55.4	3.6	0.00e+00	0	38	104	0	60	99017
2026-01-02 23:42:59.82	18.06	6.25	-52.8	-55.3	3.6	0.00e+00	0	37	104	0	60	98482
2026-01-02 23:43:00.83	18.07	6.34	-52.8	-55.3	3.6	0.00e+00	0	38	104	0	60	97986
2026-01-02 23:43:01.84	18.07	6.42	-52.9	-55.3	3.6	0.00e+00	0	38	104	0	60	98864
2026-01-02 23:43:02.85	18.07	6.51	-52.8	-55.3	3.6	0.00e+00	0	38	104	0	60	98210
2026-01-02 23:43:03.86	18.07	6.60	-52.9	-55.4	3.6	0.00e+00	0	38	104	0	60	99161
2026-01-02 23:43:04.87	18.08	6.68	-52.8	-55.3	3.6	0.00e+00	0	38	104	0	60	98299
2026-01-02 23:43:05.88	18.08	6.77	-52.8	-55.2	3.5	0.00e+00	0	38	104	0	60	97626
2026-01-02 23:43:06.89	18.08	6.86	-52.8	-55.2	3.6	0.00e+00	0	38	104	0	60	97655
2026-01-02 23:43:07.90	18.09	6.95	-52.8	-55.3	3.6	0.00e+00	0	38	104	0	60	97936
2026-01-02 23:43:08.91	18.09	7.03	-52.9	-55.3	3.5	0.00e+00	0	38	104	0	60	98601
2026-01-02 23:43:09.92	18.09	7.12	-52.8	-55.3	3.6	0.00e+00	0	38	104	0	60	98240
2026-01-02 23:43:10.93	18.09	7.21	-52.8	-55.3	3.6	0.00e+00	0	38	104	0	60	98727
2026-01-02 23:43:11.94	18.10	7.30	-52.8	-55.3	3.6	0.00e+00	0	38	104	0	60	98494
2026-01-02 23:43:12.95	18.10	7.39	-52.8	-55.3	3.6	0.00e+00	0	38	104	0	60	98104
2026-01-02 23:43:13.96	18.10	7.48	-52.8	-55.2	3.6	0.00e+00	0	38	104	0	60	97727
2026-01-02 23:43:14.97	18.10	7.58	-52.7	-55.2	3.6	0.00e+00	0	38	104	0	60	97401
2026-01-02 23:43:15.98	18.11	7.67	-52.8	-55.2	3.6	0.00e+00	0	38	104	0	60	97043
2026-01-02 23:43:16.99	18.11	7.76	-52.8	-55.2	3.6	0.00e+00	0	38	104	0	60	97331
2026-01-02 23:43:18.00	18.11	7.85	-52.8	-55.3	3.6	0.00e+00	0	38	104	0	60	98130
2026-01-02 23:43:19.01	18.11	7.94	-52.8	-55.2	3.6	0.00e+00	0	38	104	0	60	97327
2026-01-02 23:43:20.02	18.12	8.04	-52.6	-55.2	3.6	0.00e+00	0	38	104	0	60	96858
2026-01-02 23:43:21.03	18.12	8.13	-52.6	-55.1	3.6	0.00e+00	0	38	104	0	60	95927
2026-01-02 23:43:22.04	18.12	8.23	-52.5	-54.9	3.6	0.00e+00	0	38	104	0	60	94522
2026-01-02 23:43:23.05	18.12	8.32	-52.4	-54.9	3.6	0.00e+00	0	38	104	0	60	93607
2026-01-02 23:43:24.06	18.13	8.42	-52.3	-54.7	3.6	0.00e+00	0	38	104	0	60	92118
2026-01-02 23:43:25.07	18.13	8.51	-52.0	-54.4	3.6	0.00e+00	0	38	104	0	60	89222
2026-01-02 23:43:26.08	18.13	8.61	-51.5	-54.0	3.5	0.00e+00	0	38	104	0	60	84686
2026-01-02 23:43:27.09	18.13	8.70	-51.2	-53.7	3.6	0.00e+00	0	38	104	0	60	82065
2026-01-02 23:43:28.10	18.14	8.80	-49.9	-52.7	3.6	0.00e+00	0	38	104	0	60	72620
2026-01-02 23:43:29.11	18.14	8.90	-49.5	-52.0	3.6	0.00e+00	0	38	104	0	60	67017
2026-01-02 23:43:30.12	18.14	9.00	-49.5	-52.0	3.6	0.00e+00	0	38	104	0	60	67231
2026-01-02 23:43:31.13	18.14	9.10	-49.5	-52.0	3.6	0.00e+00	0	38	104	0	60	66949
2026-01-02 23:43:32.14	18.15	9.20	-49.5	-52.0	3.6	0.00e+00	0	38	104	0	60	67099
2026-01-02 23:43:33.15	18.15	9.30	-49.5	-52.0	3.6	0.00e+00	0	38	104	0	60	67221
2026-01-02 23:43:34.16	18.15	9.40	-49.4	-51.9	3.6	0.00e+00	0	38	104	0	60	66840
2026-01-02 23:43:35.17	18.15	9.50	-49.4	-51.9	3.6	0.00e+00	0	38	104	0	60	66896
2026-01-02 23:43:36.18	18.16	9.60	-49.4	-51.9	3.6	0.00e+00	0	38	104	0	60	66738
2026-01-02 23:43:37.19	18.16	9.70	-49.5	-52.0	3.6	0.00e+00	0	38	104	0	60	67049
2026-01-02 23:43:38.21	18.16	9.80	-49.4	-52.0	3.6	0.00e+00	0	38	104	0	60	67263
2026-01-02 23:43:39.22	18.16	9.91	-49.5	-52.0	3.6	0.00e+00	0	38	104	0	60	67062
2026-01-02 23:43:40.23	18.17	10.01	-49.5	-52.0	3.6	0.00e+00	0	38	104	0	60	67114
2026-01-02 23:43:41.24	18.17	10.11	-49.5	-52.0	3.6	0.00e+00	0	38	104	0	60	67161
2026-01-02 23:43:42.25	18.17	10.22	-49.4	-52.0	3.6	0.00e+00	0	38	104	0	60	67057
2026-01-02 23:43:43.26	18.17	10.32	-49.4	-51.9	3.6	0.00e+00	0	38	104	0	60	66808
2026-01-02 23:43:44.27	18.17	10.43	-49.4	-51.9	3.6	0.00e+00	0	38	104	0	60	66805
2026-01-02 23:43:45.28	18.18	10.54	-49.4	-52.0	3.6	0.00e+00	0	38	104	0	60	66941
2026-01-02 23:43:46.29	18.18	10.64	-49.4	-52.0	3.6	0.00e+00	0	38	104	0	60	66971
2026-01-02 23:43:47.30	18.18	10.75	-49.5	-52.0	3.6	0.00e+00	0	38	104	0	60	67172
2026-01-02 23:43:48.31	18.18	10.86	-49.4	-52.0	3.6	0.00e+00	0	38	104	0	60	67235
2026-01-02 23:43:49.33	18.18	10.97	-49.5	-52.0	3.6	0.00e+00	0	38	104	0	60	67122
2026-01-02 23:43:50.34	18.19	11.08	-49.4	-51.9	3.6	0.00e+00	0	38	104	0	60	66865
2026-01-02 23:43:51.35	18.19	11.19	-49.5	-51.9	3.6	0.00e+00	0	38	104	0	60	66811
2026-01-02 23:43:52.36	18.19	11.30	-49.5	-51.9	3.6	0.00e+00	0	38	104	0	60	66817
2026-01-02 23:43:53.37	18.19	11.41	-49.5	-51.9	3.6	0.00e+00	0	38	104	0	60	66642
2026-01-02 23:43:54.38	18.19	11.52	-49.4	-52.0	3.6	0.00e+00	0	38	104	0	60	66952
2026-01-02 23:43:55.39	18.20	11.63	-49.5	-52.0	3.6	0.00e+00	0	38	104	0	60	67052
2026-01-02 23:43:56.40	18.20	11.75	-49.4	-52.0	3.6	0.00e+00	0	38	104	0	60	66991
2026-01-02 23:43:57.41	18.20	11.86	-49.4	-51.9	3.5	0.00e+00	0	38	104	0	60	66842
2026-01-02 23:43:58.42	18.20	11.98	-49.4	-52.0	3.6	0.00e+00	0	38	104	0	60	67275
2026-01-02 23:43:59.43	18.20	12.09	-49.3	-51.9	3.6	0.00e+00	0	38	104	0	60	66836
2026-01-02 23:44:00.44	18.21	12.21	-49.2	-51.9	3.6	0.00e+00	0	38	104	0	60	66443
2026-01-02 23:44:01.46	18.21	12.33	-48.5	-50.8	3.6	0.00e+00	0	38	104	0	60	58501
2026-01-02 23:44:02.47	18.21	12.44	-48.8	-51.0	3.6	0.00e+00	0	38	104	0	60	60299
2026-01-02 23:44:03.48	18.21	12.56	-49.4	-52.0	3.6	0.00e+00	0	38	104	0	60	67405
2026-01-02 23:44:04.49	18.21	12.68	-49.4	-51.9	3.6	0.00e+00	0	38	104	0	60	66273
2026-01-02 23:44:05.50	18.22	12.80	-49.4	-51.9	3.6	0.00e+00	0	38	104	0	60	66778
2026-01-02 23:44:06.51	18.22	12.92	-49.4	-52.0	3.6	0.00e+00	0	39	104	0	60	66972
2026-01-02 23:44:07.52	18.22	13.04	-49.4	-51.9	3.6	0.00e+00	0	39	104	0	60	66863
2026-01-02 23:44:08.53	18.22	13.17	-49.4	-52.0	3.6	0.00e+00	0	38	104	0	60	67059
2026-01-02 23:44:09.54	18.22	13.29	-49.4	-52.0	3.6	0.00e+00	0	39	104	0	60	67150
2026-01-02 23:44:10.55	18.22	13.41	-49.3	-51.8	3.6	0.00e+00	0	38	104	0	60	66113
2026-01-02 23:44:11.57	18.23	13.54	-49.5	-51.9	3.6	0.00e+00	0	39	104	0	60	66907
2026-01-02 23:44:12.58	18.23	13.67	-49.4	-51.9	3.6	0.00e+00	0	39	104	0	60	66778
2026-01-02 23:44:13.59	18.23	13.79	-49.4	-51.9	3.6	0.00e+00	0	38	104	0	60	66916
2026-01-02 23:44:14.60	18.23	13.92	-49.2	-51.8	3.6	0.00e+00	0	38	104	0	60	65749
2026-01-02 23:44:15.61	18.23	14.05	-49.0	-51.6	3.6	0.00e+00	0	39	104	0	60	64545
2026-01-02 23:44:16.62	18.23	14.18	-49.2	-51.8	3.6	0.00e+00	0	38	104	0	60	65590
2026-01-02 23:44:17.63	18.23	14.31	-49.4	-51.9	3.6	0.00e+00	0	39	104	0	60	66405
2026-01-02 23:44:18.64	18.24	14.44	-49.5	-51.9	3.6	0.00e+00	0	39	104	0	60	66788
2026-01-02 23:44:19.65	18.24	14.57	-49.6	-51.9	3.5	0.00e+00	0	38	104	0	60	66891
2026-01-02 23:44:20.66	18.24	14.70	-49.6	-52.0	3.6	0.00e+00	0	39	104	0	60	67399
2026-01-02 23:44:21.68	18.24	14.84	-49.6	-52.0	3.6	0.00e+00	0	39	104	0	60	67500
2026-01-02 23:44:22.69	18.24	14.97	-49.6	-52.0	3.6	0.00e+00	0	39	104	0	60	67643
2026-01-02 23:44:23.70	18.24	15.11	-49.6	-52.1	3.6	0.00e+00	0	39	104	0	60	67994
2026-01-02 23:44:24.71	18.24	15.24	-49.6	-52.1	3.6	0.00e+00	0	38	104	0	60	67735
2026-01-02 23:44:25.72	18.24	15.38	-49.1	-51.7	3.6	0.00e+00	0	39	104	0	60	64910
2026-01-02 23:44:26.73	18.25	15.52	-49.6	-52.1	3.6	0.00e+00	0	39	104	0	60	68264
2026-01-02 23:44:27.74	18.25	15.66	-49.6	-52.1	3.6	0.00e+00	0	39	104	0	60	68183
2026-01-02 23:44:28.75	18.25	15.80	-49.8	-52.3	3.5	0.00e+00	0	39	104	0	60	69334
2026-01-02 23:44:29.76	18.25	15.94	-49.9	-52.4	3.6	0.00e+00	0	39	104	0	60	70128
2026-01-02 23:44:30.78	18.25	16.08	-49.9	-52.4	3.6	0.00e+00	0	39	104	0	60	70499
2026-01-02 23:44:31.79	18.25	16.23	-49.9	-52.4	3.6	0.00e+00	0	39	104	0	60	70816
2026-01-02 23:44:32.80	18.25	16.37	-49.8	-52.5	3.6	0.00e+00	0	39	104	0	60	71500
2026-01-02 23:44:33.81	18.25	16.52	-49.7	-52.3	3.6	0.00e+00	0	39	104	0	60	70012
2026-01-02 23:44:34.82	18.25	16.67	-49.6	-51.9	3.6	0.00e+00	0	39	104	0	60	66782
2026-01-02 23:44:35.83	18.25	16.81	-49.2	-51.5	3.6	0.00e+00	0	39	104	0	60	63293
2026-01-02 23:44:36.84	18.26	16.96	-49.6	-52.0	3.6	0.00e+00	0	39	104	0	60	67601
2026-01-02 23:44:37.85	18.26	17.11	-49.2	-51.4	3.6	0.00e+00	0	39	104	0	60	62761
2026-01-02 23:44:38.86	18.26	17.26	-49.1	-51.3	3.6	0.00e+00	0	39	104	0	60	61984
2026-01-02 23:44:39.87	18.26	17.42	-49.2	-51.3	3.6	0.00e+00	0	39	104	0	60	62179
2026-01-02 23:44:40.88	18.26	17.57	-49.1	-51.2	3.6	0.00e+00	0	38	104	0	60	61470
2026-01-02 23:44:41.89	18.26	17.73	-49.0	-51.1	3.6	0.00e+00	0	39	104	0	60	60661
2026-01-02 23:44:42.90	18.26	17.88	-49.0	-51.1	3.6	0.00e+00	0	39	104	0	60	60593
2026-01-02 23:44:43.91	18.26	18.04	-49.0	-51.1	3.6	0.00e+00	0	39	104	0	60	60613
2026-01-02 23:44:44.93	18.26	18.20	-49.0	-51.0	3.6	0.00e+00	0	39	104	0	60	60300
2026-01-02 23:44:45.94	18.26	18.36	-48.9	-50.9	3.6	0.00e+00	0	39	104	0	60	59223
2026-01-02 23:44:46.95	18.26	18.52	-48.7	-50.7	3.6	0.00e+00	0	39	104	0	60	57717
2026-01-02 23:44:47.96	18.26	18.69	-48.7	-50.6	3.6	0.00e+00	0	39	104	0	60	57163
2026-01-02 23:44:48.97	18.26	18.85	-48.6	-50.4	3.6	0.00e+00	0	39	104	0	60	56263
2026-01-02 23:44:49.98	18.26	19.02	-48.4	-50.2	3.6	0.00e+00	0	39	104	0	60	54907
2026-01-02 23:44:50.99	18.26	19.18	-48.5	-50.3	3.6	0.00e+00	0	39	104	0	60	55148
2026-01-02 23:44:52.00	18.26	19.35	-48.5	-50.2	3.6	0.00e+00	0	39	104	0	60	54988
2026-01-02 23:44:53.01	18.26	19.52	-48.5	-50.2	3.6	0.00e+00	0	39	104	0	60	54696
2026-01-02 23:44:54.03	18.26	19.70	-48.3	-49.9	3.7	0.00e+00	0	39	104	0	60	52950
2026-01-02 23:44:55.04	18.26	19.87	-48.1	-49.7	3.7	0.00e+00	0	39	104	0	60	51486
2026-01-02 23:44:56.05	18.26	20.04	-48.1	-49.7	3.7	0.00e+00	0	39	104	0	60	51359
2026-01-02 23:44:57.06	18.26	20.22	-48.0	-49.4	3.7	0.00e+00	0	39	104	0	60	49872
2026-01-02 23:44:58.07	18.26	20.40	-47.8	-49.2	3.8	0.00e+00	0	39	104	0	60	48721
2026-01-02 23:44:59.08	18.26	20.58	-47.7	-49.1	3.8	0.00e+00	0	39	104	0	60	48115
2026-01-02 23:45:00.09	18.26	20.76	-47.7	-48.9	3.8	0.00e+00	0	39	104	0	60	47353
2026-01-02 23:45:01.10	18.26	20.94	-47.4	-48.6	3.8	0.00e+00	0	39	104	0	60	45679
2026-01-02 23:45:02.11	18.26	21.12	-47.3	-48.5	3.9	0.00e+00	0	39	104	0	60	45167
2026-01-02 23:45:03.12	18.26	21.31	-47.2	-48.3	3.9	0.00e+00	0	39	104	0	60	43917
2026-01-02 23:45:04.13	18.26	21.50	-47.3	-48.4	3.9	0.00e+00	0	39	104	0	60	44486
2026-01-02 23:45:05.14	18.26	21.69	-47.3	-48.4	3.9	0.00e+00	0	39	104	0	60	44239
2026-01-02 23:45:06.16	18.26	21.88	-46.9	-47.9	4.0	0.00e+00	0	39	104	0	60	41933
2026-01-02 23:45:07.17	18.26	22.07	-46.7	-47.6	4.1	0.00e+00	0	39	104	0	60	40605
2026-01-02 23:45:08.18	18.26	22.27	-46.5	-47.4	4.2	0.00e+00	0	39	104	0	60	39601
2026-01-02 23:45:09.19	18.26	22.46	-46.5	-47.4	4.2	0.00e+00	0	39	104	0	60	39581
2026-01-02 23:45:10.20	18.26	22.66	-46.3	-47.2	4.2	0.00e+00	0	39	104	0	60	38672
2026-01-02 23:45:11.21	18.25	22.86	-46.3	-47.2	4.2	0.00e+00	0	39	104	0	60	38765
2026-01-02 23:45:12.22	18.25	23.06	-46.1	-46.8	4.3	0.00e+00	0	39	104	0	60	37123
2026-01-02 23:45:13.23	18.25	23.27	-46.0	-46.7	4.4	0.00e+00	0	39	104	0	60	36384
2026-01-02 23:45:14.25	18.25	23.47	-45.9	-46.7	4.4	0.00e+00	0	39	104	0	60	36375
2026-01-02 23:45:15.26	18.25	23.68	-45.8	-46.5	4.5	0.00e+00	0	39	104	0	60	35568
2026-01-02 23:45:16.27	18.25	23.89	-45.6	-46.3	4.5	0.00e+00	0	39	104	0	60	34766
2026-01-02 23:45:17.28	18.25	24.11	-45.6	-46.3	4.5	0.00e+00	0	39	104	0	60	34953
2026-01-02 23:45:18.29	18.25	24.32	-45.5	-46.1	4.6	0.00e+00	0	39	104	0	60	34066
2026-01-02 23:45:19.30	18.24	24.54	-45.4	-46.0	4.6	0.00e+00	0	39	104	0	60	33760
2026-01-02 23:45:20.31	18.24	24.75	-45.5	-46.1	4.6	0.00e+00	0	39	104	0	60	34055
2026-01-02 23:45:21.32	18.24	24.98	-45.3	-45.9	4.7	0.00e+00	0	39	104	0	60	33237
2026-01-02 23:45:22.33	18.24	25.20	-45.2	-45.8	4.7	0.00e+00	0	39	104	0	60	33035
2026-01-02 23:45:23.34	18.24	25.42	-45.2	-45.8	4.7	0.00e+00	0	39	104	0	60	33154
2026-01-02 23:45:24.35	18.23	25.65	-45.1	-45.6	4.7	0.00e+00	0	39	104	0	60	32389
2026-01-02 23:45:25.36	18.23	25.88	-45.0	-45.5	4.8	0.00e+00	0	39	104	0	60	32014
2026-01-02 23:45:26.38	18.23	26.12	-45.1	-45.6	4.7	0.00e+00	0	39	104	0	60	32262
2026-01-02 23:45:27.39	18.23	26.35	-45.0	-45.6	4.8	0.00e+00	0	39	104	0	60	32080
2026-01-02 23:45:28.40	18.23	26.59	-45.0	-45.6	4.8	0.00e+00	0	39	104	0	60	32217
2026-01-02 23:45:29.41	18.22	26.83	-45.0	-45.5	4.8	0.00e+00	0	39	104	0	60	31909
2026-01-02 23:45:30.42	18.22	27.07	-45.0	-45.5	4.8	0.00e+00	0	39	104	0	60	31899
2026-01-02 23:45:31.43	18.22	27.32	-44.9	-45.4	4.8	0.00e+00	0	39	104	0	60	31497
2026-01-02 23:45:32.44	18.21	27.57	-44.9	-45.5	4.8	0.00e+00	0	39	104	0	60	31836
2026-01-02 23:45:33.45	18.21	27.82	-44.9	-45.4	4.8	0.00e+00	0	39	104	0	60	31636
2026-01-02 23:45:34.46	18.21	28.07	-44.9	-45.4	4.8	0.00e+00	0	39	104	0	60	31470
2026-01-02 23:45:35.47	18.20	28.33	-44.9	-45.4	4.8	0.00e+00	0	39	104	0	60	31468
2026-01-02 23:45:36.49	18.20	28.59	-44.9	-45.4	4.8	0.00e+00	0	39	104	0	60	31573
2026-01-02 23:45:37.50	18.20	28.85	-44.9	-45.5	4.8	0.00e+00	0	39	104	0	60	31756
2026-01-02 23:45:38.51	18.19	29.11	-44.8	-45.3	4.8	0.00e+00	0	39	104	0	60	31104
2026-01-02 23:45:39.52	18.19	29.38	-44.9	-45.5	4.8	0.00e+00	0	39	104	0	60	31734
2026-01-02 23:45:40.53	18.19	29.65	-44.9	-45.4	4.8	0.00e+00	0	39	104	0	60	31456
2026-01-02 23:45:41.54	18.18	29.93	-44.8	-45.3	4.9	0.00e+00	0	39	104	0	60	31151
2026-01-02 23:45:42.55	18.18	30.20	-44.9	-45.4	4.8	0.00e+00	0	39	104	0	60	31482
2026-01-02 23:45:43.56	18.17	30.48	-44.9	-45.4	4.9	0.00e+00	0	39	104	0	60	31464
2026-01-02 23:45:44.57	18.17	30.77	-44.8	-45.3	4.8	0.00e+00	0	39	104	0	60	31225
2026-01-02 23:45:45.58	18.16	31.05	-44.9	-45.5	4.8	0.00e+00	0	39	104	0	60	31674
2026-01-02 23:45:46.59	18.16	31.34	-44.8	-45.2	4.9	0.00e+00	0	39	104	0	60	30838
2026-01-02 23:45:47.60	18.15	31.64	-44.9	-45.5	4.8	0.00e+00	0	39	104	0	60	31741
2026-01-02 23:45:48.61	18.15	31.94	-44.8	-45.4	4.9	0.00e+00	0	39	104	0	60	31368
2026-01-02 23:45:49.63	18.14	32.24	-44.9	-45.4	4.9	0.00e+00	0	39	104	0	60	31428
2026-01-02 23:45:50.64	18.14	32.54	-44.9	-45.4	4.9	0.00e+00	0	39	104	0	60	31622
2026-01-02 23:45:51.65	18.13	32.85	-44.6	-45.1	5.0	0.00e+00	0	39	104	0	60	30270
2026-01-02 23:45:52.66	18.13	33.16	-44.7	-45.3	4.9	0.00e+00	0	39	104	0	60	30967
2026-01-02 23:45:53.67	18.12	33.48	-44.8	-45.2	4.9	0.00e+00	0	39	104	0	60	30853
2026-01-02 23:45:54.68	18.11	33.80	-44.5	-45.0	4.9	0.00e+00	0	39	104	0	60	30012
2026-01-02 23:45:55.69	18.11	34.12	-44.7	-45.3	4.9	0.00e+00	0	39	104	0	60	30957
2026-01-02 23:45:56.70	18.10	34.45	-44.6	-45.1	5.0	0.00e+00	0	39	104	0	60	30266
2026-01-02 23:45:57.71	18.09	34.78	-44.4	-44.9	5.0	0.00e+00	0	39	104	0	60	29662
2026-01-02 23:45:58.72	18.08	35.11	-44.5	-45.0	5.0	0.00e+00	0	39	104	0	60	30035
2026-01-02 23:45:59.73	18.08	35.45	-44.3	-44.8	5.0	0.00e+00	0	39	104	0	60	29388
2026-01-02 23:46:00.74	18.07	35.80	-44.4	-44.9	5.0	0.00e+00	0	39	104	0	60	29744
2026-01-02 23:46:01.75	18.06	36.14	-44.4	-44.9	5.0	0.00e+00	0	39	104	0	60	29647
2026-01-02 23:46:02.76	18.05	36.50	-44.1	-44.6	5.1	0.00e+00	0	39	104	0	60	28578
2026-01-02 23:46:03.78	18.04	36.86	-44.3	-44.7	5.0	0.00e+00	0	39	104	0	60	29201
2026-01-02 23:46:04.79	18.03	37.22	-44.3	-44.7	5.1	0.00e+00	0	39	104	0	60	29041
2026-01-02 23:46:05.80	18.02	37.58	-44.1	-44.5	5.1	0.00e+00	0	39	104	0	60	28404
2026-01-02 23:46:06.81	18.01	37.95	-44.3	-44.8	5.0	0.00e+00	0	39	104	0	60	29362
2026-01-02 23:46:07.82	18.00	38.33	-44.0	-44.4	5.1	0.00e+00	0	39	104	0	60	27951
2026-01-02 23:46:08.83	17.99	38.71	-44.1	-44.5	5.1	0.00e+00	0	39	104	0	60	28382
2026-01-02 23:46:09.84	17.98	39.09	-44.1	-44.5	5.1	0.00e+00	0	39	104	0	60	28422
2026-01-02 23:46:10.86	17.97	39.49	-43.8	-44.2	5.2	0.00e+00	0	39	104	0	60	27493
2026-01-02 23:46:11.87	17.96	39.88	-43.9	-44.3	5.1	0.00e+00	0	39	104	0	60	27879
2026-01-02 23:46:12.88	17.95	40.28	-43.9	-44.3	5.1	0.00e+00	0	39	104	0	60	27874
2026-01-02 23:46:13.89	17.94	40.69	-43.7	-44.1	5.2	0.00e+00	0	39	104	0	60	27180
2026-01-02 23:46:14.90	17.92	41.10	-43.8	-44.2	5.2	0.00e+00	0	39	104	0	60	27402
2026-01-02 23:46:15.91	17.91	41.51	-43.8	-44.2	5.1	0.00e+00	0	39	104	0	60	27352
2026-01-02 23:46:16.92	17.90	41.93	-43.7	-44.1	5.2	0.00e+00	0	39	104	0	60	27048
2026-01-02 23:46:17.93	17.88	42.36	-43.5	-43.9	5.2	0.00e+00	0	39	104	0	60	26593
2026-01-02 23:46:18.94	17.87	42.79	-43.5	-43.9	5.2	0.00e+00	0	39	104	0	60	26363
2026-01-02 23:46:19.96	17.85	43.23	-43.5	-43.9	5.2	0.00e+00	0	39	104	0	60	26443
2026-01-02 23:46:20.97	17.84	43.68	-43.7	-44.1	5.2	0.00e+00	0	39	104	0	60	27184
2026-01-02 23:46:21.98	17.82	44.13	-43.5	-43.9	5.2	0.00e+00	0	39	104	0	60	26366
2026-01-02 23:46:22.99	17.80	44.58	-43.6	-44.0	5.2	0.00e+00	0	39	104	0	60	26693
2026-01-02 23:46:24.00	17.79	45.04	-43.6	-44.0	5.2	0.00e+00	0	39	104	0	60	26920
2026-01-02 23:46:25.01	17.77	45.51	-43.5	-43.9	5.2	0.00e+00	0	39	104	0	60	26633
2026-01-02 23:46:26.02	17.75	45.98	-43.4	-43.7	5.2	0.00e+00	0	39	104	0	60	25997
2026-01-02 23:46:27.03	17.73	46.46	-43.4	-43.8	5.3	0.00e+00	0	39	104	0	60	26271
2026-01-02 23:46:28.04	17.71	46.95	-43.3	-43.7	5.3	0.00e+00	0	39	104	0	60	25875
2026-01-02 23:46:29.05	17.69	47.44	-43.4	-43.8	5.2	0.00e+00	0	39	104	0	60	26125
2026-01-02 23:46:30.06	17.67	47.94	-43.3	-43.6	5.2	0.00e+00	0	39	104	0	60	25670
2026-01-02 23:46:31.07	17.64	48.45	-43.2	-43.5	5.3	0.00e+00	0	39	104	0	60	25280
2026-01-02 23:46:32.08	17.62	48.96	-43.6	-43.9	5.2	0.00e+00	0	39	104	0	60	26609
2026-01-02 23:46:33.09	17.59	49.48	-43.0	-43.4	5.3	0.00e+00	0	39	104	0	60	24967
2026-01-02 23:46:34.10	17.57	50.00	-43.1	-43.5	5.2	0.00e+00	0	39	104	0	60	25194
2026-01-02 23:46:35.11	17.54	50.53	-43.1	-43.5	5.3	0.00e+00	0	39	104	0	60	25273
2026-01-02 23:46:36.12	17.51	51.07	-43.1	-43.4	5.3	0.00e+00	0	39	104	0	60	25123
2026-01-02 23:46:37.14	17.48	51.62	-43.2	-43.6	5.2	0.00e+00	0	39	104	0	60	25613
2026-01-02 23:46:38.15	17.45	52.18	-43.1	-43.4	5.3	0.00e+00	0	39	104	0	60	25030
2026-01-02 23:46:39.16	17.42	52.74	-43.0	-43.4	5.3	0.00e+00	0	39	104	0	60	25022
2026-01-02 23:46:40.17	17.39	53.30	-43.3	-43.7	5.2	0.00e+00	0	39	104	0	60	25912
2026-01-02 23:46:41.18	17.35	53.88	-43.1	-43.5	5.2	0.00e+00	0	39	104	0	60	25318
2026-01-02 23:46:42.19	17.32	54.46	-43.5	-43.9	5.2	0.00e+00	0	39	104	0	60	26555
2026-01-02 23:46:43.20	17.28	55.05	-43.2	-43.7	5.2	0.00e+00	0	39	104	0	60	25755
2026-01-02 23:46:44.21	17.24	55.64	-43.2	-43.6	5.2	0.00e+00	0	39	104	0	60	25461
2026-01-02 23:46:45.22	17.20	56.25	-43.4	-43.8	5.2	0.00e+00	0	39	104	0	60	26157
2026-01-02 23:46:46.23	17.15	56.86	-43.3	-43.7	5.2	0.00e+00	0	39	104	0	60	25769
2026-01-02 23:46:47.24	17.11	57.47	-43.4	-43.7	5.2	0.00e+00	0	39	104	0	60	25946
2026-01-02 23:46:48.25	17.06	58.10	-43.7	-44.1	5.2	0.00e+00	0	39	104	0	60	26996
2026-01-02 23:46:49.26	17.01	58.73	-43.6	-44.1	5.2	0.00e+00	0	39	104	0	60	26954
2026-01-02 23:46:50.27	16.95	59.37	-43.8	-44.2	5.2	0.00e+00	0	39	104	0	60	27297
2026-01-02 23:46:51.28	16.89	60.02	-43.7	-44.0	5.1	0.00e+00	0	39	104	0	60	26871
2026-01-02 23:46:52.30	16.83	60.68	-43.8	-44.2	5.1	0.00e+00	0	39	104	0	60	27435
2026-01-02 23:46:53.30	16.77	61.33	-43.8	-44.2	5.1	0.00e+00	0	39	104	0	60	27319
2026-01-02 23:46:54.32	16.70	62.01	-44.0	-44.5	5.0	0.00e+00	0	39	104	0	60	28277
2026-01-02 23:46:55.33	16.63	62.68	-44.1	-44.6	5.1	0.00e+00	0	39	104	0	60	28613
2026-01-02 23:46:56.34	16.56	63.37	-44.2	-44.6	5.0	0.00e+00	0	39	104	0	60	28654
2026-01-02 23:46:57.35	16.47	64.06	-44.2	-44.6	5.0	0.00e+00	0	39	104	0	60	28698
2026-01-02 23:46:58.36	16.39	64.76	-44.2	-44.7	5.1	0.00e+00	0	39	104	0	60	29000
2026-01-02 23:46:59.37	16.30	65.46	-44.5	-45.0	5.0	0.00e+00	0	39	104	0	60	30027
2026-01-02 23:47:00.38	16.20	66.17	-44.7	-45.2	4.9	0.00e+00	0	39	104	0	60	30829
2026-01-02 23:47:01.39	16.09	66.89	-44.4	-44.8	5.0	0.00e+00	0	39	104	0	60	29442
2026-01-02 23:47:02.40	15.98	67.61	-44.8	-45.3	4.9	0.00e+00	0	39	104	0	60	30957
2026-01-02 23:47:03.41	15.86	68.35	-44.9	-45.3	4.9	0.00e+00	0	39	104	0	60	31298
2026-01-02 23:47:04.42	15.73	69.08	-44.8	-45.3	4.9	0.00e+00	0	39	104	0	60	30997
2026-01-02 23:47:05.43	15.58	69.83	-45.2	-45.7	4.8	0.00e+00	0	39	104	0	60	32620
2026-01-02 23:47:06.44	15.43	70.58	-44.8	-45.3	5.0	0.00e+00	0	39	104	0	60	31120
2026-01-02 23:47:07.46	15.26	71.34	-45.3	-45.8	4.8	0.00e+00	0	39	104	0	60	32995
2026-01-02 23:47:08.47	15.08	72.11	-45.6	-46.1	4.8	0.00e+00	0	39	104	0	60	34263
2026-01-02 23:47:09.48	14.88	72.87	-45.1	-45.6	4.9	0.00e+00	0	39	104	0	60	32269
2026-01-02 23:47:10.49	14.65	73.65	-45.5	-46.1	4.8	0.00e+00	0	39	104	0	60	34022
2026-01-02 23:47:11.50	14.41	74.43	-45.2	-45.8	4.9	0.00e+00	0	39	104	0	60	32784
2026-01-02 23:47:12.51	14.13	75.21	-45.0	-45.5	5.0	0.00e+00	0	39	104	0	60	31722
2026-01-02 23:47:13.52	13.83	76.00	-45.1	-45.6	5.0	0.00e+00	0	39	104	0	60	32331
2026-01-02 23:47:14.53	13.48	76.79	-44.9	-45.4	5.0	0.00e+00	0	39	104	0	60	31506
2026-01-02 23:47:15.54	13.09	77.59	-44.8	-45.2	5.0	0.00e+00	0	39	104	0	60	30899
2026-01-02 23:47:16.55	12.65	78.39	-44.6	-45.1	5.0	0.00e+00	0	39	104	0	60	30318
2026-01-02 23:47:17.56	12.13	79.19	-44.3	-44.6	5.1	0.00e+00	0	39	104	0	60	28794
2026-01-02 23:47:18.57	11.53	80.00	-44.2	-44.6	5.1	0.00e+00	0	39	104	0	60	28835
2026-01-02 23:47:19.58	10.82	80.81	-44.3	-44.7	5.1	0.00e+00	0	39	104	0	60	29028
2026-01-02 23:47:20.59	9.97	81.62	-43.9	-44.3	5.2	0.00e+00	0	39	104	0	60	27688
2026-01-02 23:47:21.60	8.94	82.43	-43.7	-44.1	5.2	0.00e+00	0	39	104	0	60	27087
2026-01-02 23:47:22.61	7.65	83.24	-43.9	-44.3	5.2	0.00e+00	0	39	104	0	60	27674
2026-01-02 23:47:23.62	6.01	84.05	-43.4	-43.8	5.3	0.00e+00	0	39	104	0	60	26172
2026-01-02 23:47:24.63	3.84	84.86	-43.3	-43.7	5.3	0.00e+00	0	39	104	0	60	25913
2026-01-02 23:47:25.64	0.87	85.65	-43.2	-43.6	5.3	0.00e+00	0	39	104	0	60	25525
2026-01-02 23:47:26.65	356.58	86.44	-43.0	-43.3	5.4	0.00e+00	0	39	104	0	60	24808
2026-01-02 23:47:27.66	349.92	87.19	-43.1	-43.4	5.3	0.00e+00	0	39	104	0	60	25026
2026-01-02 23:47:28.67	338.70	87.88	-42.7	-43.1	5.4	0.00e+00	0	39	104	0	60	24149
2026-01-02 23:47:29.68	318.50	88.41	-42.6	-42.9	5.4	0.00e+00	0	39	104	0	60	23510
2026-01-02 23:47:30.69	286.62	88.61	-42.7	-43.1	5.4	0.00e+00	0	39	104	0	60	24028
2026-01-02 23:47:31.70	256.26	88.34	-42.5	-42.9	5.4	0.00e+00	0	39	104	0	60	23509
2026-01-02 23:47:32.71	237.93	87.77	-42.5	-42.8	5.4	0.00e+00	0	39	104	0	60	23289
2026-01-02 23:47:33.72	227.69	87.07	-42.6	-43.0	5.4	0.00e+00	0	39	104	0	60	23785
2026-01-02 23:47:34.73	221.53	86.31	-42.6	-42.9	5.3	0.00e+00	0	39	104	0	60	23731
2026-01-02 23:47:35.74	217.51	85.52	-42.9	-43.2	5.3	0.00e+00	0	39	104	0	60	24429
2026-01-02 23:47:36.75	214.70	84.72	-42.9	-43.3	7.4	0.00e+00	0	39	104	0	60	24691
2026-01-02 23:47:37.76	212.64	83.92	-42.8	-43.1	7.4	0.00e+00	0	39	104	0	60	24241
2026-01-02 23:47:38.78	211.05	83.10	-43.3	-42.5	8.6	0.00e+00	0	39	0	0	60	22561
2026-01-02 23:47:39.79	209.81	82.28	-43.3	-42.5	8.6	0.00e+00	0	39	0	0	60	22641
2026-01-02 23:47:40.80	208.81	81.47	-43.4	-42.6	8.5	0.00e+00	0	39	0	0	60	22783
2026-01-02 23:47:41.81	207.99	80.66	-43.5	-42.7	8.5	0.00e+00	0	39	0	0	60	23070
2026-01-02 23:47:42.82	207.30	79.85	-43.5	-42.7	8.5	0.00e+00	0	39	0	0	60	23181
2026-01-02 23:47:43.83	206.72	79.04	-43.5	-42.7	8.5	0.00e+00	0	39	0	0	60	23044
2026-01-02 23:47:44.84	206.22	78.24	-43.5	-42.8	8.5	0.00e+00	0	39	0	0	60	23217
2026-01-02 23:47:45.85	205.78	77.43	-43.8	-43.0	8.4	0.00e+00	0	39	0	0	60	23775
2026-01-02 23:47:46.86	205.40	76.64	-43.8	-43.0	8.3	0.00e+00	0	39	0	0	60	23832
2026-01-02 23:47:47.87	205.06	75.84	-44.0	-43.3	8.2	0.00e+00	0	39	0	0	60	24623
2026-01-02 23:47:48.88	204.76	75.05	-43.9	-43.2	8.3	0.00e+00	0	39	0	0	60	24307
2026-01-02 23:47:49.89	204.49	74.27	-44.2	-43.4	8.2	0.00e+00	0	39	0	0	60	25060
2026-01-02 23:47:50.91	204.25	73.48	-44.1	-43.3	8.2	0.00e+00	0	39	0	0	60	24857
2026-01-02 23:47:51.92	204.03	72.71	-44.0	-43.2	8.4	0.00e+00	0	39	0	0	60	24510
2026-01-02 23:47:52.93	203.83	71.94	-44.1	-43.4	8.4	0.00e+00	0	39	0	0	60	24881
2026-01-02 23:47:53.94	203.65	71.17	-44.0	-43.3	8.5	0.00e+00	0	39	0	0	60	24682
2026-01-02 23:47:54.95	203.49	70.41	-43.9	-43.1	8.6	0.00e+00	0	39	0	0	60	24182
2026-01-02 23:47:55.96	203.34	69.66	-44.0	-43.3	8.5	0.00e+00	0	39	0	0	60	24679
2026-01-02 23:47:56.97	203.20	68.92	-43.7	-42.9	8.6	0.00e+00	0	39	0	0	60	23626
2026-01-02 23:47:57.99	203.06	68.17	-43.8	-43.0	8.6	0.00e+00	0	39	0	0	60	23939
2026-01-02 23:47:59.00	202.94	67.44	-43.5	-42.7	8.8	0.00e+00	0	39	0	0	60	23134
2026-01-02 23:48:00.01	202.83	66.71	-43.0	-42.2	9.0	0.00e+00	0	39	0	0	60	21805
2026-01-02 23:48:01.02	202.73	65.99	-43.0	-42.2	9.1	0.00e+00	0	39	0	0	60	21740
2026-01-02 23:48:02.03	202.63	65.28	-43.1	-42.2	9.0	0.00e+00	0	39	0	0	60	21888
2026-01-02 23:48:03.04	202.54	64.57	-43.1	-42.2	8.8	0.00e+00	0	39	0	0	60	21832
2026-01-02 23:48:04.05	202.46	63.87	-42.9	-42.0	9.0	0.00e+00	0	39	0	0	60	21370
2026-01-02 23:48:05.07	202.37	63.17	-42.8	-42.0	9.0	0.00e+00	0	39	0	0	60	21183
2026-01-02 23:48:06.07	202.30	62.50	-42.8	-41.9	9.0	0.00e+00	0	39	0	0	60	21118
2026-01-02 23:48:07.09	202.23	61.81	-42.6	-41.8	9.1	0.00e+00	0	39	0	0	60	20717
2026-01-02 23:48:08.10	202.16	61.14	-42.8	-42.0	8.9	0.00e+00	0	39	0	0	60	21185
2026-01-02 23:48:09.11	202.10	60.48	-42.5	-41.7	9.2	0.00e+00	0	39	0	0	60	20469
2026-01-02 23:48:10.12	202.04	59.82	-42.5	-41.6	8.9	0.00e+00	0	39	0	0	60	20358
2026-01-02 23:48:11.13	201.98	59.17	-42.7	-41.8	9.1	0.00e+00	0	39	0	0	60	20856
2026-01-02 23:48:12.14	201.93	58.53	-42.5	-41.7	9.1	0.00e+00	0	39	0	0	60	20486
2026-01-02 23:48:13.15	201.88	57.90	-43.1	-42.2	8.8	0.00e+00	0	39	0	0	60	21830
2026-01-02 23:48:14.17	201.83	57.27	-42.9	-42.1	8.9	0.00e+00	0	39	0	0	60	21535
2026-01-02 23:48:15.18	201.78	56.65	-43.3	-42.5	8.7	0.00e+00	0	39	0	0	60	22514
2026-01-02 23:48:16.19	201.74	56.04	-43.9	-43.1	8.3	0.00e+00	0	39	0	0	60	24198
2026-01-02 23:48:17.20	201.70	55.43	-44.1	-43.3	8.2	0.00e+00	0	39	0	0	60	24732
2026-01-02 23:48:18.21	201.66	54.84	-44.5	-43.7	8.0	0.00e+00	0	39	0	0	60	25982
2026-01-02 23:48:19.22	201.62	54.25	-44.6	-43.9	7.9	0.00e+00	0	39	0	0	60	26456
2026-01-02 23:48:20.23	201.58	53.66	-44.9	-44.2	7.7	0.00e+00	0	39	0	0	60	27306
2026-01-02 23:48:21.24	201.55	53.09	-44.6	-43.9	8.0	0.00e+00	0	39	0	0	60	26432
2026-01-02 23:48:22.25	201.52	52.52	-44.9	-44.1	7.9	0.00e+00	0	39	0	0	60	27221
2026-01-02 23:48:23.26	201.48	51.96	-44.7	-43.9	8.2	0.00e+00	0	39	0	0	60	26628
2026-01-02 23:48:24.27	201.45	51.40	-43.8	-43.0	8.8	0.00e+00	0	39	0	0	60	23974
2026-01-02 23:48:25.28	201.42	50.86	-43.8	-43.0	8.6	0.00e+00	0	39	0	0	60	23974
2026-01-02 23:48:26.30	201.40	50.31	-43.3	-42.5	9.1	0.00e+00	0	39	0	0	60	22507
2026-01-02 23:48:27.31	201.37	49.78	-43.1	-42.3	9.2	0.00e+00	0	39	0	0	60	22052
2026-01-02 23:48:28.32	201.34	49.25	-42.6	-41.8	9.5	0.00e+00	0	39	0	0	60	20756
2026-01-02 23:48:29.33	201.32	48.73	-41.8	-41.0	10.0	0.00e+00	0	39	0	0	60	18917
2026-01-02 23:48:30.34	201.30	48.22	-41.7	-40.8	10.2	0.00e+00	0	39	0	0	60	18571
2026-01-02 23:48:31.35	201.27	47.71	-41.3	-40.4	10.4	0.00e+00	0	39	0	0	60	17785
2026-01-02 23:48:32.36	201.25	47.21	-41.0	-40.1	10.3	0.00e+00	0	39	0	0	60	17145
2026-01-02 23:48:33.37	201.23	46.72	-41.1	-40.2	10.3	0.00e+00	0	39	0	0	60	17360
2026-01-02 23:48:34.38	201.21	46.23	-41.2	-40.3	10.0	0.00e+00	0	39	0	0	60	17457
2026-01-02 23:48:35.40	201.19	45.74	-41.1	-40.2	9.9	0.00e+00	0	39	0	0	60	17350
2026-01-02 23:48:36.41	201.17	45.27	-41.4	-40.5	9.8	0.00e+00	0	39	0	0	60	17903
2026-01-02 23:48:37.42	201.15	44.80	-42.0	-41.2	9.6	0.00e+00	0	39	0	0	60	19378
2026-01-02 23:48:38.43	201.13	44.34	-41.9	-41.0	10.1	0.00e+00	0	39	0	0	60	19079
2026-01-02 23:48:39.44	201.12	43.88	-42.2	-41.3	9.8	0.00e+00	0	39	0	0	60	19735
2026-01-02 23:48:40.45	201.10	43.43	-42.5	-41.6	10.0	0.00e+00	0	39	0	0	60	20384
2026-01-02 23:48:41.46	201.08	42.99	-42.5	-41.7	9.8	0.00e+00	0	39	0	0	60	20493
2026-01-02 23:48:42.47	201.07	42.55	-42.2	-41.4	10.1	0.00e+00	0	39	0	0	60	19751
2026-01-02 23:48:43.48	201.05	42.11	-42.1	-41.3	9.9	0.00e+00	0	39	0	0	60	19626
2026-01-02 23:48:44.49	201.04	41.69	-41.9	-41.1	10.0	0.00e+00	0	39	0	0	60	19155
2026-01-02 23:48:45.51	201.03	41.26	-41.6	-40.7	10.4	0.00e+00	0	39	0	0	60	18398
2026-01-02 23:48:46.52	201.01	40.84	-41.5	-40.6	10.4	0.00e+00	0	39	0	0	60	18168
2026-01-02 23:48:47.53	201.00	40.43	-41.2	-40.4	10.5	0.00e+00	0	39	0	0	60	17645
2026-01-02 23:48:48.54	200.99	40.03	-41.3	-40.5	10.5	0.00e+00	0	39	0	0	60	17893
2026-01-02 23:48:49.55	200.98	39.62	-40.9	-40.1	10.7	0.00e+00	0	39	0	0	60	17036
2026-01-02 23:48:50.56	200.96	39.23	-40.4	-39.5	10.8	0.00e+00	0	39	0	0	60	15913
2026-01-02 23:48:51.57	200.95	38.84	-40.4	-39.5	10.8	0.00e+00	0	39	0	0	60	16016
2026-01-02 23:48:52.58	200.94	38.45	-40.5	-39.6	10.7	0.00e+00	0	39	0	0	60	16082
2026-01-02 23:48:53.59	200.93	38.07	-40.4	-39.5	10.7	0.00e+00	0	39	0	0	60	15948
2026-01-02 23:48:54.60	200.92	37.70	-40.6	-39.7	10.9	0.00e+00	0	39	0	0	60	16368
2026-01-02 23:48:55.62	200.91	37.32	-40.6	-39.7	10.8	0.00e+00	0	39	0	0	60	16290
2026-01-02 23:48:56.63	200.90	36.95	-40.8	-39.9	10.7	0.00e+00	0	39	0	0	60	16759
2026-01-02 23:48:57.64	200.89	36.59	-41.0	-40.1	10.4	0.00e+00	0	39	0	0	60	17140
2026-01-02 23:48:58.65	200.88	36.23	-41.0	-40.1	10.0	0.00e+00	0	39	0	0	60	17084
2026-01-02 23:48:59.66	200.87	35.88	-40.8	-39.9	9.9	0.00e+00	0	39	0	0	60	16726
2026-01-02 23:49:00.67	200.87	35.53	-41.0	-40.1	9.8	0.00e+00	0	39	0	0	60	17098
2026-01-02 23:49:01.68	200.86	35.19	-41.6	-40.7	9.6	0.00e+00	0	39	0	0	60	18313
2026-01-02 23:49:02.69	200.85	34.85	-41.4	-40.5	9.8	0.00e+00	0	39	0	0	60	17945
2026-01-02 23:49:03.71	200.84	34.51	-41.6	-40.8	9.6	0.00e+00	0	39	0	0	60	18480
2026-01-02 23:49:04.72	200.84	34.18	-41.6	-40.8	9.7	0.00e+00	0	39	0	0	60	18440
2026-01-02 23:49:05.73	200.83	33.85	-42.0	-41.2	9.5	0.00e+00	0	39	0	0	60	19301
2026-01-02 23:49:06.74	200.82	33.53	-42.3	-41.5	9.3	0.00e+00	0	39	0	0	60	20032
2026-01-02 23:49:07.75	200.81	33.21	-43.1	-42.3	8.9	0.00e+00	0	39	0	0	60	22036
2026-01-02 23:49:08.76	200.81	32.89	-43.5	-42.6	8.8	0.00e+00	0	39	0	0	60	22932
2026-01-02 23:49:09.77	200.80	32.58	-43.9	-43.1	8.5	0.00e+00	0	39	0	0	60	24050
2026-01-02 23:49:10.78	200.80	32.27	-43.9	-43.1	8.5	0.00e+00	0	39	0	0	60	24034
2026-01-02 23:49:11.79	200.79	31.96	-43.0	-42.2	8.9	0.00e+00	0	39	0	0	60	21790
2026-01-02 23:49:12.80	200.78	31.66	-43.2	-42.4	8.8	0.00e+00	0	39	0	0	60	22346
2026-01-02 23:49:13.81	200.78	31.36	-43.1	-42.2	8.9	0.00e+00	0	39	0	0	60	21866
2026-01-02 23:49:14.83	200.77	31.07	-42.5	-41.6	9.3	0.00e+00	0	39	0	0	60	20430
2026-01-02 23:49:15.84	200.77	30.78	-41.8	-40.9	9.7	0.00e+00	0	39	0	0	60	18821
2026-01-02 23:49:16.85	200.76	30.49	-42.2	-41.3	9.4	0.00e+00	0	39	0	0	60	19618
2026-01-02 23:49:17.86	200.76	30.21	-41.7	-40.9	9.6	0.00e+00	0	39	0	0	60	18658
2026-01-02 23:49:18.87	200.75	29.92	-41.7	-40.8	9.7	0.00e+00	0	39	0	0	60	18488
2026-01-02 23:49:19.88	200.75	29.65	-42.2	-41.4	9.8	0.00e+00	0	39	0	0	60	19757
2026-01-02 23:49:20.89	200.74	29.37	-41.8	-40.9	9.7	0.00e+00	0	39	0	0	60	18848
2026-01-02 23:49:21.90	200.74	29.10	-42.1	-41.3	9.8	0.00e+00	0	39	0	0	60	19524
2026-01-02 23:49:22.91	200.74	28.83	-42.0	-41.2	10.1	0.00e+00	0	39	0	0	60	19335
2026-01-02 23:49:23.93	200.73	28.56	-42.2	-41.4	10.0	0.00e+00	0	39	0	0	60	19871
2026-01-02 23:49:24.94	200.73	28.30	-41.7	-40.8	10.3	0.00e+00	0	39	0	0	60	18579
2026-01-02 23:49:25.95	200.72	28.04	-41.9	-41.0	10.2	0.00e+00	0	39	0	0	60	19077
2026-01-02 23:49:26.96	200.72	27.79	-41.9	-41.0	10.2	0.00e+00	0	39	0	0	60	19040
2026-01-02 23:49:27.97	200.72	27.53	-41.5	-40.6	10.5	0.00e+00	0	39	0	0	60	18171
2026-01-02 23:49:28.98	200.71	27.28	-41.1	-40.2	10.8	0.00e+00	0	39	0	0	60	17330
2026-01-02 23:49:29.99	200.71	27.03	-40.4	-39.6	11.1	0.00e+00	0	39	0	0	60	16067
2026-01-02 23:49:31.00	200.71	26.79	-39.9	-39.0	11.5	0.00e+00	0	39	0	0	60	15085
2026-01-02 23:49:32.02	200.71	26.54	-39.5	-38.6	11.8	0.00e+00	0	39	0	0	60	14407
2026-01-02 23:49:33.03	200.70	26.30	-39.5	-38.6	12.0	0.00e+00	0	39	0	0	60	14421
2026-01-02 23:49:34.04	200.70	26.06	-39.3	-38.4	12.1	0.00e+00	0	39	0	0	60	14129
2026-01-02 23:49:35.05	200.70	25.83	-39.3	-38.4	11.7	0.00e+00	0	39	0	0	60	14010
2026-01-02 23:49:36.06	200.69	25.59	-39.4	-38.5	11.5	0.00e+00	0	39	0	0	60	14278
2026-01-02 23:49:37.07	200.69	25.36	-39.3	-38.4	11.7	0.00e+00	0	39	0	0	60	14070
2026-01-02 23:49:38.08	200.69	25.13	-39.3	-38.4	11.9	0.00e+00	0	39	0	0	60	14074
2026-01-02 23:49:39.09	200.69	24.91	-39.1	-38.2	11.7	0.00e+00	0	39	0	0	60	13682
2026-01-02 23:49:40.10	200.68	24.68	-39.5	-38.6	11.5	0.00e+00	0	39	0	0	60	14347
2026-01-02 23:49:41.11	200.68	24.46	-39.8	-38.9	11.3	0.00e+00	0	39	0	0	60	14978
2026-01-02 23:49:42.12	200.68	24.24	-40.9	-40.1	11.1	0.00e+00	0	39	0	0	60	17121
2026-01-02 23:49:43.13	200.68	24.03	-40.9	-40.0	11.4	0.00e+00	0	39	0	0	60	16892
2026-01-02 23:49:44.15	200.68	23.81	-40.2	-39.4	11.7	0.00e+00	0	39	0	0	60	15692
2026-01-02 23:49:45.16	200.68	23.60	-39.5	-38.6	11.3	0.00e+00	0	39	0	0	60	14442
2026-01-02 23:49:46.17	200.67	23.39	-39.5	-38.6	11.2	0.00e+00	0	39	0	0	60	14385
2026-01-02 23:49:47.18	200.67	23.18	-39.2	-38.3	11.2	0.00e+00	0	39	0	0	60	13867
2026-01-02 23:49:48.19	200.67	22.97	-39.2	-38.3	11.2	0.00e+00	0	39	0	0	60	13910
2026-01-02 23:49:49.20	200.67	22.77	-39.7	-38.8	11.7	0.00e+00	0	39	0	0	60	14669
2026-01-02 23:49:50.21	200.67	22.57	-39.4	-38.5	11.9	0.00e+00	0	39	0	0	60	14239
2026-01-02 23:49:51.22	200.67	22.36	-39.1	-38.2	11.9	0.00e+00	0	39	0	0	60	13680
2026-01-02 23:49:52.24	200.66	22.16	-38.4	-37.4	11.8	0.00e+00	0	39	0	0	58	14143
2026-01-02 23:49:53.25	200.66	21.97	-38.5	-37.6	11.7	0.00e+00	0	39	0	0	58	14419
2026-01-02 23:49:54.26	200.66	21.77	-38.6	-37.6	12.0	0.00e+00	0	39	0	0	58	14435
2026-01-02 23:49:55.27	200.66	21.58	-38.6	-37.7	11.8	0.00e+00	0	39	0	0	58	14580
2026-01-02 23:49:56.28	200.66	21.39	-38.8	-37.8	11.5	0.00e+00	0	39	0	0	58	14778
2026-01-02 23:49:57.29	200.66	21.20	-38.8	-37.8	11.1	0.00e+00	0	39	0	0	58	14765
2026-01-02 23:49:58.30	200.66	21.01	-38.8	-37.9	10.8	0.00e+00	0	39	0	0	58	14856
2026-01-02 23:49:59.31	200.66	20.82	-39.3	-38.4	10.7	0.00e+00	0	39	0	0	58	15784
2026-01-02 23:50:00.32	200.66	20.64	-40.3	-39.4	11.1	0.00e+00	0	39	0	0	60	15808
2026-01-02 23:50:01.34	200.66	20.46	-40.3	-39.4	11.3	0.00e+00	0	39	0	0	60	15841
2026-01-02 23:50:02.35	200.66	20.27	-40.4	-39.6	11.5	0.00e+00	0	39	0	0	60	16054
2026-01-02 23:50:03.36	200.66	20.10	-40.7	-39.8	11.3	0.00e+00	0	39	0	0	60	16501
2026-01-02 23:50:04.37	200.65	19.92	-40.6	-39.7	11.0	0.00e+00	0	39	0	0	60	16309
2026-01-02 23:50:05.38	200.65	19.74	-40.7	-39.8	10.5	0.00e+00	0	39	0	0	60	16569
2026-01-02 23:50:06.39	200.65	19.57	-41.5	-40.6	10.3	0.00e+00	0	39	0	0	60	18089
2026-01-02 23:50:07.40	200.65	19.39	-41.6	-40.7	10.4	0.00e+00	0	39	0	0	60	18318
2026-01-02 23:50:08.41	200.65	19.22	-41.5	-40.7	10.4	0.00e+00	0	39	0	0	60	18271
2026-01-02 23:50:09.42	200.65	19.05	-41.7	-40.8	9.9	0.00e+00	0	39	0	0	60	18612
2026-01-02 23:50:10.43	200.65	18.88	-42.0	-41.2	9.6	0.00e+00	0	39	0	0	60	19381
2026-01-02 23:50:11.45	200.65	18.71	-41.9	-41.0	9.6	0.00e+00	0	39	0	0	60	18970
2026-01-02 23:50:12.46	200.65	18.55	-42.4	-41.5	9.5	0.00e+00	0	39	0	0	60	20183
2026-01-02 23:50:13.47	200.65	18.38	-42.8	-42.0	9.7	0.00e+00	0	39	0	0	60	21256
2026-01-02 23:50:14.48	200.65	18.22	-42.7	-41.8	10.1	0.00e+00	0	39	0	0	60	20858
2026-01-02 23:50:15.49	200.65	18.06	-42.0	-41.2	10.6	0.00e+00	0	39	0	0	60	19480
2026-01-02 23:50:16.50	200.65	17.90	-41.2	-40.3	10.9	0.00e+00	0	39	0	0	60	17473
2026-01-02 23:50:17.51	200.65	17.74	-40.8	-39.9	11.0	0.00e+00	0	39	0	0	60	16728
2026-01-02 23:50:18.52	200.65	17.58	-40.5	-39.6	10.9	0.00e+00	0	39	0	0	60	16164
2026-01-02 23:50:19.53	200.65	17.42	-40.6	-39.7	10.9	0.00e+00	0	39	0	0	60	16313
2026-01-02 23:50:20.54	200.65	17.27	-40.3	-39.4	11.0	0.00e+00	0	39	0	0	60	15811
2026-01-02 23:50:21.56	200.65	17.11	-40.3	-39.4	10.8	0.00e+00	0	39	0	0	60	15867
2026-01-02 23:50:22.57	200.65	16.96	-40.2	-39.3	11.2	0.00e+00	0	39	0	0	60	15621
2026-01-02 23:50:23.58	200.65	16.81	-40.5	-39.6	11.2	0.00e+00	0	39	0	0	60	16162
2026-01-02 23:50:24.59	200.65	16.66	-40.1	-39.2	11.5	0.00e+00	0	39	0	0	60	15468
2026-01-02 23:50:25.60	200.65	16.51	-39.4	-38.5	11.3	0.00e+00	0	39	0	0	60	14254
2026-01-02 23:50:26.61	200.65	16.36	-39.3	-38.4	11.4	0.00e+00	0	39	0	0	60	14080
2026-01-02 23:50:27.62	200.65	16.21	-39.6	-38.7	11.3	0.00e+00	0	39	0	0	60	14584
2026-01-02 23:50:28.63	200.66	16.06	-39.8	-38.9	11.3	0.00e+00	0	39	0	0	60	14945
2026-01-02 23:50:29.64	200.66	15.92	-39.8	-38.9	11.3	0.00e+00	0	39	0	0	60	14920
2026-01-02 23:50:30.65	200.66	15.78	-40.2	-39.3	11.5	0.00e+00	0	39	0	0	60	15667
2026-01-02 23:50:31.67	200.66	15.63	-40.2	-39.3	11.4	0.00e+00	0	39	0	0	60	15552
2026-01-02 23:50:32.68	200.66	15.49	-39.9	-39.0	11.6	0.00e+00	0	39	0	0	60	15109
2026-01-02 23:50:33.69	200.66	15.35	-39.9	-39.0	11.1	0.00e+00	0	39	0	0	60	15059
2026-01-02 23:50:34.70	200.66	15.21	-39.8	-38.9	11.1	0.00e+00	0	39	0	0	60	14855
2026-01-02 23:50:35.71	200.66	15.07	-39.8	-38.9	11.2	0.00e+00	0	39	0	0	60	14973
2026-01-02 23:50:36.72	200.66	14.93	-40.4	-39.6	11.3	0.00e+00	0	39	0	0	60	16097
2026-01-02 23:50:37.73	200.66	14.80	-40.4	-39.6	11.5	0.00e+00	0	39	0	0	60	16086
2026-01-02 23:50:38.74	200.66	14.66	-40.2	-39.3	11.6	0.00e+00	0	39	0	0	60	15587
2026-01-02 23:50:39.75	200.66	14.53	-39.7	-38.8	10.8	0.00e+00	0	39	0	0	60	14765
2026-01-02 23:50:40.77	200.66	14.39	-40.1	-39.2	10.7	0.00e+00	0	39	0	0	60	15337
2026-01-02 23:50:41.78	200.66	14.26	-39.7	-38.8	10.9	0.00e+00	0	39	0	0	60	14762
2026-01-02 23:50:42.79	200.67	14.13	-39.6	-38.6	11.0	0.00e+00	0	39	0	0	60	14460
2026-01-02 23:50:43.80	200.67	13.99	-39.6	-38.7	11.6	0.00e+00	0	39	0	0	60	14512
2026-01-02 23:50:44.81	200.67	13.86	-39.7	-38.7	11.8	0.00e+00	0	39	0	0	60	14621
2026-01-02 23:50:45.82	200.67	13.74	-39.6	-38.6	11.4	0.00e+00	0	39	0	0	60	14469
2026-01-02 23:50:46.83	200.67	13.61	-39.4	-38.4	11.5	0.00e+00	0	39	0	0	60	14131
2026-01-02 23:50:47.84	200.67	13.48	-39.5	-38.5	11.4	0.00e+00	0	39	0	0	60	14279
2026-01-02 23:50:48.85	200.67	13.35	-39.8	-38.9	11.2	0.00e+00	0	39	0	0	60	14870
2026-01-02 23:50:49.87	200.67	13.23	-40.0	-39.1	11.5	0.00e+00	0	39	0	0	60	15156
2026-01-02 23:50:50.88	200.67	13.10	-39.9	-39.1	12.0	0.00e+00	0	39	0	0	60	15192
2026-01-02 23:50:51.89	200.67	12.98	-39.9	-39.0	12.2	0.00e+00	0	39	0	0	60	15152
2026-01-02 23:50:52.90	200.68	12.85	-39.6	-38.7	11.8	0.00e+00	0	39	0	0	60	14574
2026-01-02 23:50:53.91	200.68	12.73	-39.9	-39.0	11.6	0.00e+00	0	39	0	0	60	15145
2026-01-02 23:50:54.92	200.68	12.61	-40.2	-39.3	11.3	0.00e+00	0	39	0	0	60	15603
2026-01-02 23:50:55.93	200.68	12.49	-40.6	-39.7	11.2	0.00e+00	0	39	0	0	60	16415
2026-01-02 23:50:56.94	200.68	12.37	-40.8	-39.9	10.7	0.00e+00	0	39	0	0	60	16691
2026-01-02 23:50:57.95	200.68	12.25	-41.3	-40.4	10.8	0.00e+00	0	39	0	0	60	17681
2026-01-02 23:50:58.96	200.68	12.13	-40.8	-39.9	11.3	0.00e+00	0	39	0	0	60	16808
2026-01-02 23:50:59.98	200.68	12.01	-40.6	-39.7	11.3	0.00e+00	0	39	0	0	60	16373
2026-01-02 23:51:00.99	200.69	11.89	-40.5	-39.6	10.6	0.00e+00	0	39	0	0	60	16152
2026-01-02 23:51:02.00	200.69	11.78	-40.5	-39.6	11.0	0.00e+00	0	39	0	0	60	16221
2026-01-02 23:51:03.01	200.69	11.66	-40.6	-39.7	10.1	0.00e+00	0	39	0	0	60	16327
2026-01-02 23:51:04.02	200.69	11.55	-40.8	-39.9	10.0	0.00e+00	0	39	0	0	60	16709
2026-01-02 23:51:05.03	200.69	11.43	-41.1	-40.2	10.4	0.00e+00	0	39	0	0	60	17379
2026-01-02 23:51:06.04	200.69	11.32	-41.0	-40.2	10.6	0.00e+00	0	39	0	0	60	17232
2026-01-02 23:51:07.05	200.69	11.21	-41.1	-40.2	10.0	0.00e+00	0	39	0	0	60	17283
2026-01-02 23:51:08.06	200.70	11.09	-40.9	-40.0	10.2	0.00e+00	0	39	0	0	60	16851
2026-01-02 23:51:09.08	200.70	10.98	-40.6	-39.7	10.6	0.00e+00	0	39	0	0	60	16307
2026-01-02 23:51:10.09	200.70	10.87	-40.6	-39.7	10.5	0.00e+00	0	39	0	0	60	16259
2026-01-02 23:51:11.10	200.70	10.76	-40.7	-39.8	10.2	0.00e+00	0	39	0	0	60	16561
2026-01-02 23:51:12.11	200.70	10.65	-41.1	-40.3	9.8	0.00e+00	0	39	0	0	60	17415
2026-01-02 23:51:13.12	200.70	10.54	-41.5	-40.6	9.9	0.00e+00	0	39	0	0	60	18181
2026-01-02 23:51:14.13	200.70	10.43	-42.3	-41.5	10.1	0.00e+00	0	39	0	0	60	20023
2026-01-02 23:51:15.14	200.71	10.32	-42.0	-41.1	10.8	0.00e+00	0	39	0	0	60	19195
2026-01-02 23:51:16.15	200.71	10.22	-41.2	-40.3	11.0	0.00e+00	0	39	0	0	60	17440
2026-01-02 23:51:17.16	200.71	10.11	-40.7	-39.8	11.2	0.00e+00	0	39	0	0	60	16455
2026-01-02 23:51:18.17	200.71	10.00	-40.4	-39.5	11.2	0.00e+00	0	39	0	0	60	15962
2026-01-02 23:51:19.19	200.71	9.90	-40.4	-39.4	11.1	0.00e+00	0	39	0	0	60	15839
2026-01-02 23:51:20.20	200.71	9.79	-40.2	-39.3	10.7	0.00e+00	0	39	0	0	60	15565
2026-01-02 23:51:21.21	200.72	9.69	-40.6	-39.7	9.6	0.00e+00	0	39	0	0	60	16326
2026-01-02 23:51:22.22	200.72	9.59	-41.0	-40.1	10.5	0.00e+00	0	39	0	0	60	17033
2026-01-02 23:51:23.23	200.72	9.48	-40.9	-40.0	10.3	0.00e+00	0	39	0	0	60	17001
2026-01-02 23:51:24.24	200.72	9.38	-41.2	-40.3	10.2	0.00e+00	0	39	0	0	60	17557
2026-01-02 23:51:25.25	200.72	9.28	-41.1	-40.2	9.9	0.00e+00	0	39	0	0	60	17233
2026-01-02 23:51:26.26	200.72	9.18	-41.5	-40.6	9.7	0.00e+00	0	39	0	0	60	18108
2026-01-02 23:51:27.27	200.73	9.08	-41.8	-41.1	8.7	0.00e+00	0	39	0	0	60	19107
2026-01-02 23:51:28.28	200.73	8.98	-42.4	-41.6	8.5	0.00e+00	0	39	0	0	60	20348
2026-01-02 23:51:29.30	200.73	8.87	-42.8	-42.0	8.3	0.00e+00	0	39	0	0	60	21389
2026-01-02 23:51:30.31	200.73	8.78	-43.4	-42.6	7.7	0.00e+00	0	39	0	0	60	22868
2026-01-02 23:51:31.32	200.73	8.68	-44.0	-43.2	7.2	0.00e+00	0	39	0	0	60	24396
2026-01-02 23:51:32.33	200.73	8.58	-44.3	-43.6	7.7	0.00e+00	0	39	0	0	60	25522
2026-01-02 23:51:33.34	200.74	8.48	-44.1	-43.3	7.4	0.00e+00	0	39	0	0	60	24849
2026-01-02 23:51:34.35	200.74	8.38	-43.5	-42.6	7.3	0.00e+00	0	39	0	0	60	22787
2026-01-02 23:51:35.36	200.74	8.29	-42.9	-42.2	7.8	0.00e+00	0	39	0	0	60	21719
2026-01-02 23:51:36.37	200.74	8.19	-42.6	-41.7	7.7	0.00e+00	0	39	0	0	60	20670
2026-01-02 23:51:37.38	200.74	8.09	-42.2	-41.4	8.4	0.00e+00	0	39	0	0	60	19794
2026-01-02 23:51:38.39	200.75	8.00	-42.2	-41.4	9.6	0.00e+00	0	39	0	0	60	19752
2026-01-02 23:51:39.40	200.75	7.90	-42.2	-41.4	9.7	0.00e+00	0	39	0	0	60	19795
2026-01-02 23:51:40.41	200.75	7.81	-42.0	-41.2	9.7	0.00e+00	0	39	0	0	60	19382
2026-01-02 23:51:41.42	200.75	7.72	-41.8	-40.9	9.9	0.00e+00	0	39	0	0	60	18801
2026-01-02 23:51:42.44	200.75	7.62	-41.6	-40.7	10.6	0.00e+00	0	39	0	0	60	18421
2026-01-02 23:51:43.45	200.76	7.53	-41.8	-40.9	10.2	0.00e+00	0	39	0	0	60	18712
2026-01-02 23:51:44.46	200.76	7.44	-41.3	-40.3	10.1	0.00e+00	0	39	0	0	60	17600
2026-01-02 23:51:45.47	200.76	7.34	-41.3	-40.4	9.8	0.00e+00	0	39	0	0	60	17773
2026-01-02 23:51:46.48	200.76	7.25	-40.7	-39.8	9.7	0.00e+00	0	39	0	0	60	16474
2026-01-02 23:51:47.49	200.76	7.16	-41.2	-40.3	9.8	0.00e+00	0	39	0	0	60	17539
2026-01-02 23:51:48.50	200.77	7.07	-41.5	-40.7	9.5	0.00e+00	0	39	0	0	60	18256
2026-01-02 23:51:49.51	200.77	6.98	-42.4	-41.6	9.6	0.00e+00	0	39	0	0	60	20240
2026-01-02 23:51:50.52	200.77	6.89	-41.4	-40.5	9.9	0.00e+00	0	39	0	0	60	17914
2026-01-02 23:51:51.53	200.77	6.80	-41.2	-40.3	9.9	0.00e+00	0	39	0	0	60	17538
2026-01-02 23:51:52.54	200.77	6.71	-41.3	-40.4	9.8	0.00e+00	0	39	0	0	60	17664
2026-01-02 23:51:53.55	200.78	6.62	-41.2	-40.3	10.0	0.00e+00	0	39	0	0	60	17537
2026-01-02 23:51:54.56	200.78	6.53	-41.5	-40.7	9.8	0.00e+00	0	39	0	0	60	18298
2026-01-02 23:51:55.57	200.78	6.44	-41.3	-40.4	10.9	0.00e+00	0	39	0	0	60	17727
2026-01-02 23:51:56.58	200.78	6.36	-41.8	-40.9	10.5	0.00e+00	0	39	0	0	60	18799
2026-01-02 23:51:57.59	200.78	6.27	-41.8	-41.0	7.9	0.00e+00	0	39	0	0	60	18975
2026-01-02 23:51:58.60	200.79	6.18	-41.9	-41.1	8.3	0.00e+00	0	39	0	0	60	19189
2026-01-02 23:51:59.62	200.79	6.10	-42.0	-41.0	8.1	0.00e+00	0	39	0	0	60	18922
2026-01-02 23:52:00.63	200.79	6.01	-42.0	-41.2	8.1	0.00e+00	0	39	0	0	60	19349
2026-01-02 23:52:01.64	200.79	5.92	-41.9	-41.3	8.1	0.00e+00	0	39	0	0	60	19540
2026-01-02 23:52:02.65	200.79	5.84	-42.0	-41.2	8.7	0.00e+00	0	39	0	0	60	19411
2026-01-02 23:52:03.66	200.80	5.75	-42.1	-41.2	9.4	0.00e+00	0	39	0	0	60	19500
2026-01-02 23:52:04.67	200.80	5.67	-42.0	-41.1	9.1	0.00e+00	0	39	0	0	60	19217
2026-01-02 23:52:05.68	200.80	5.58	-41.9	-41.0	9.3	0.00e+00	0	39	0	0	60	19038
2026-01-02 23:52:06.69	200.80	5.50	-42.1	-41.2	8.7	0.00e+00	0	39	0	0	60	19433
2026-01-02 23:52:07.71	200.80	5.42	-42.6	-41.7	8.1	0.00e+00	0	39	0	0	60	20551
2026-01-02 23:52:08.72	200.81	5.33	-42.4	-41.5	8.0	0.00e+00	0	39	0	0	60	20163
2026-01-02 23:52:09.73	200.81	5.25	-41.9	-41.0	8.3	0.00e+00	0	39	0	0	60	19056
2026-01-02 23:52:10.74	200.81	5.17	-41.9	-40.9	8.4	0.00e+00	0	39	0	0	60	18688
2026-01-02 23:52:11.75	200.81	5.09	-41.7	-40.8	8.3	0.00e+00	0	39	0	0	60	18618
2026-01-02 23:52:12.76	200.82	5.00	-41.6	-40.9	8.1	0.00e+00	0	39	0	0	60	18781
2026-01-02 23:52:13.77	200.82	4.92	-41.6	-40.7	8.2	0.00e+00	0	39	0	0	60	18425
2026-01-02 23:52:14.78	200.82	4.84	-41.6	-40.7	8.0	0.00e+00	0	39	0	0	60	18272
2026-01-02 23:52:15.79	200.82	4.76	-41.1	-40.2	8.3	0.00e+00	0	39	0	0	60	17251
2026-01-02 23:52:16.80	200.82	4.68	-41.4	-40.5	8.4	0.00e+00	0	39	0	0	60	17923
2026-01-02 23:52:17.81	200.83	4.60	-41.1	-40.3	8.5	0.00e+00	0	39	0	0	60	17577
2026-01-02 23:52:18.82	200.83	4.52	-40.8	-40.0	8.8	0.00e+00	0	39	0	0	60	16811
2026-01-02 23:52:19.83	200.83	4.44	-40.6	-39.6	8.7	0.00e+00	0	39	0	0	60	16234
2026-01-02 23:52:20.84	200.83	4.36	-40.5	-39.6	8.5	0.00e+00	0	39	0	0	60	16211
2026-01-02 23:52:21.85	200.84	4.28	-40.6	-39.8	8.5	0.00e+00	0	39	0	0	60	16445
2026-01-02 23:52:22.86	200.84	4.20	-40.8	-40.0	8.8	0.00e+00	0	39	0	0	60	16830
2026-01-02 23:52:23.87	200.84	4.12	-41.5	-40.5	8.4	0.00e+00	0	39	0	0	60	18007
2026-01-02 23:52:24.89	200.84	4.05	-41.2	-40.2	8.5	0.00e+00	0	39	0	0	60	17347
2026-01-02 23:52:25.90	200.85	3.97	-41.2	-40.3	8.4	0.00e+00	0	39	0	0	60	17573
2026-01-02 23:52:26.91	200.85	3.89	-41.4	-40.5	8.3	0.00e+00	0	39	0	0	60	17971
2026-01-02 23:52:27.92	200.85	3.81	-41.7	-40.8	8.4	0.00e+00	0	39	0	0	60	18511
2026-01-02 23:52:28.93	200.85	3.74	-41.7	-40.8	8.2	0.00e+00	0	39	0	0	60	18643
2026-01-02 23:52:29.94	200.85	3.66	-41.6	-40.8	8.1	0.00e+00	0	39	0	0	60	18641
2026-01-02 23:52:30.95	200.86	3.58	-41.7	-40.9	8.6	0.00e+00	0	39	0	0	60	18752
2026-01-02 23:52:31.96	200.86	3.51	-41.9	-41.0	8.3	0.00e+00	0	39	0	0	60	19002
2026-01-02 23:52:32.97	200.86	3.43	-41.9	-41.1	8.3	0.00e+00	0	39	0	0	60	19090
2026-01-02 23:52:33.98	200.86	3.36	-42.0	-41.1	8.3	0.00e+00	0	39	0	0	60	19110
2026-01-02 23:52:34.99	200.87	3.28	-42.1	-41.2	8.5	0.00e+00	0	39	0	0	60	19501
2026-01-02 23:52:36.00	200.87	3.20	-42.0	-41.1	8.4	0.00e+00	0	39	0	0	60	19291
2026-01-02 23:52:37.01	200.87	3.13	-42.0	-41.3	8.1	0.00e+00	0	39	0	0	60	19616
2026-01-02 23:52:38.02	200.87	3.06	-42.1	-41.2	8.5	0.00e+00	0	39	0	0	60	19484
2026-01-02 23:52:39.04	200.88	2.98	-42.1	-41.3	8.4	0.00e+00	0	39	0	0	60	19650
2026-01-02 23:52:40.05	200.88	2.91	-42.3	-41.5	8.3	0.00e+00	0	39	0	0	60	20098
2026-01-02 23:52:41.05	200.88	2.83	-42.3	-41.5	8.0	0.00e+00	0	39	0	0	60	20117
2026-01-02 23:52:42.06	200.88	2.76	-42.9	-42.1	7.8	0.00e+00	0	39	0	0	60	21586
2026-01-02 23:52:43.07	200.88	2.69	-43.4	-42.5	7.7	0.00e+00	0	39	0	0	60	22651
2026-01-02 23:52:44.09	200.89	2.61	-43.7	-43.0	7.7	0.00e+00	0	39	0	0	60	23901
2026-01-02 23:52:45.10	200.89	2.54	-43.9	-43.1	7.2	0.00e+00	0	39	0	0	60	24078
2026-01-02 23:52:46.11	200.89	2.47	-43.6	-42.8	7.8	0.00e+00	0	39	0	0	60	23339
2026-01-02 23:52:47.12	200.89	2.40	-43.4	-42.5	7.8	0.00e+00	0	39	0	0	60	22509
2026-01-02 23:52:48.13	200.90	2.32	-43.2	-42.3	8.0	0.00e+00	0	39	0	0	60	22149
2026-01-02 23:52:49.14	200.90	2.25	-43.3	-42.4	7.9	0.00e+00	0	39	0	0	60	22319
2026-01-02 23:52:50.15	200.90	2.18	-43.2	-42.5	8.1	0.00e+00	0	39	0	0	60	22503
2026-01-02 23:52:51.16	200.90	2.11	-43.4	-42.6	7.8	0.00e+00	0	39	0	0	60	22850
2026-01-02 23:52:52.17	200.91	2.04	-43.2	-42.4	7.5	0.00e+00	0	39	0	0	60	22366
2026-01-02 23:52:53.18	200.91	1.97	-43.6	-42.7	7.6	0.00e+00	0	39	0	0	60	23096
2026-01-02 23:52:54.19	200.91	1.90	-43.4	-42.6	7.6	0.00e+00	0	39	0	0	60	22854
2026-01-02 23:52:55.20	200.91	1.83	-43.3	-42.6	7.4	0.00e+00	0	39	0	0	60	22895
2026-01-02 23:52:56.21	200.92	1.76	-43.6	-42.7	7.6	0.00e+00	0	39	0	0	60	23169
2026-01-02 23:52:57.22	200.92	1.69	-43.3	-42.5	7.4	0.00e+00	0	39	0	0	60	22544
2026-01-02 23:52:58.23	200.92	1.62	-43.2	-42.6	7.5	0.00e+00	0	39	0	0	60	22701
2026-01-02 23:52:59.25	200.92	1.55	-43.3	-42.4	7.6	0.00e+00	0	39	0	0	60	22366
2026-01-02 23:53:00.26	200.93	1.48	-43.3	-42.5	7.4	0.00e+00	0	39	0	0	60	22622
2026-01-02 23:53:01.27	200.93	1.41	-43.0	-42.2	7.4	0.00e+00	0	39	0	0	60	21904
2026-01-02 23:53:02.28	200.93	1.34	-43.1	-42.2	7.6	0.00e+00	0	39	0	0	60	21866
2026-01-02 23:53:03.29	200.93	1.27	-43.1	-42.3	7.5	0.00e+00	0	39	0	0	60	22138
2026-01-02 23:53:04.30	200.94	1.20	-43.1	-42.4	7.6	0.00e+00	0	39	0	0	60	22198
2026-01-02 23:53:05.31	200.94	1.13	-43.2	-42.3	7.7	0.00e+00	0	39	0	0	60	22090
2026-01-02 23:53:06.32	200.94	1.07	-43.2	-42.4	7.5	0.00e+00	0	39	0	0	60	22288
2026-01-02 23:53:07.33	200.94	1.00	-43.3	-42.6	7.5	0.00e+00	0	39	0	0	60	22731
2026-01-02 23:53:08.34	200.95	0.93	-43.3	-42.5	7.6	0.00e+00	0	39	0	0	60	22543
2026-01-02 23:53:09.36	200.95	0.86	-43.4	-42.7	7.7	0.00e+00	0	39	0	0	60	22976
2026-01-02 23:53:10.37	200.95	0.80	-43.3	-42.5	7.8	0.00e+00	0	39	0	0	60	22501
2026-01-02 23:53:11.38	200.95	0.73	-43.3	-42.6	7.5	0.00e+00	0	39	0	0	60	22773
2026-01-02 23:53:12.39	200.96	0.66	-43.3	-42.5	7.5	0.00e+00	0	39	0	0	60	22473
2026-01-02 23:53:13.40	200.96	0.59	-43.3	-42.6	7.4	0.00e+00	0	39	0	0	60	22680
2026-01-02 23:53:14.41	200.96	0.53	-43.4	-42.6	7.5	0.00e+00	0	39	0	0	60	22790
2026-01-02 23:53:15.42	200.96	0.46	-43.8	-43.1	7.3	0.00e+00	0	39	0	0	60	24050
2026-01-02 23:53:16.43	200.97	0.40	-43.6	-42.9	7.3	0.00e+00	0	39	0	0	60	23561
2026-01-02 23:53:17.45	200.97	0.33	-43.9	-43.1	7.4	0.00e+00	0	39	0	0	60	24104
2026-01-02 23:53:18.46	200.97	0.26	-43.7	-42.9	7.4	0.00e+00	0	39	0	0	60	23668
2026-01-02 23:53:19.47	200.97	0.20	-43.9	-43.1	7.4	0.00e+00	0	39	0	0	60	24240
2026-01-02 23:53:20.48	200.98	0.13	-44.0	-43.2	7.4	0.00e+00	0	39	0	0	60	24545
2026-01-02 23:53:21.49	200.98	0.07	-43.9	-43.1	7.3	0.00e+00	0	39	0	0	60	24234
2026-01-02 23:53:22.50	200.98	0.00	-43.9	-43.2	7.4	0.00e+00	0	39	0	0	60	24334
2026-01-02 23:53:23.51	200.98	-0.06	-44.0	-43.2	7.1	0.00e+00	0	39	0	0	60	24394

#Closed at: 2026-01-02 23:53:24
#Recorded file [0 MB]: D:/lorett/data/35034_260103_024134.dat