passes_logs/2026/01/02/R4.6S_Anadyr_2ch/R4.6S_Anadyr_2ch__20260102_220729_2025-108B_rec.log

#Pass ID: 20260102_220729_2025-108B
#Satellite: 2025-108B
#Configuration: 3PB_600M
#almurnet v.1.7.20251203
#Start time: 2026-01-02 22:07:34

#Version: 2.2.20231116
#Station: R4.6S_Anadyr_2ch
#Location: 177.4865 lon 64.73178 lat
#TLE: 1 64088U 25108B   25351.01672131  .00008460  00000+0  43413-3 0  9994
#TLE: 2 64088  97.4940  63.8579 0011684 285.1423  74.8517 15.16717580 31720

#Time	Az	El	Level	Level2	SNR	BER	BlckErr	Temp	State	Recorded	gain1	gain2
2026-01-02 22:07:34.74	21.94	0.27	-51.9	-53.3	3.3	0.00e+00	0	34	0	0	60	78014
2026-01-02 22:07:35.75	22.02	0.33	-51.7	-54.3	3.6	0.00e+00	0	35	104	0	60	87456
2026-01-02 22:07:36.76	22.10	0.38	-51.6	-54.3	3.6	0.00e+00	0	36	104	0	60	87213
2026-01-02 22:07:37.77	22.18	0.44	-51.6	-54.2	3.6	0.00e+00	0	35	104	0	60	86937
2026-01-02 22:07:38.78	22.26	0.50	-51.6	-54.2	3.6	0.00e+00	0	36	104	0	60	87156
2026-01-02 22:07:39.79	22.34	0.56	-51.7	-54.2	3.6	0.00e+00	0	36	104	0	60	87036
2026-01-02 22:07:40.80	22.42	0.61	-51.7	-54.3	3.6	0.00e+00	0	36	104	0	60	87794
2026-01-02 22:07:41.81	22.50	0.67	-51.8	-54.3	3.6	0.00e+00	0	36	104	0	60	87751
2026-01-02 22:07:42.82	22.58	0.73	-51.7	-54.3	3.6	0.00e+00	0	36	104	0	60	87699
2026-01-02 22:07:43.84	22.67	0.79	-51.6	-54.2	3.6	0.00e+00	0	36	104	0	60	87115
2026-01-02 22:07:44.84	22.75	0.84	-51.6	-54.2	3.6	0.00e+00	0	36	104	0	60	86843
2026-01-02 22:07:45.86	22.83	0.90	-51.6	-54.3	3.6	0.00e+00	0	36	104	0	60	87612
2026-01-02 22:07:46.87	22.92	0.96	-51.8	-54.3	3.6	0.00e+00	0	36	104	0	60	87324
2026-01-02 22:07:47.88	23.00	1.02	-51.8	-54.3	3.6	0.00e+00	0	36	104	0	60	87858
2026-01-02 22:07:48.89	23.08	1.08	-51.6	-54.2	3.6	0.00e+00	0	36	104	0	60	86922
2026-01-02 22:07:49.90	23.17	1.14	-51.4	-54.2	3.6	0.00e+00	0	36	104	0	60	86694
2026-01-02 22:07:50.91	23.25	1.19	-51.1	-54.0	3.6	0.00e+00	0	36	104	0	60	84871
2026-01-02 22:07:51.92	23.34	1.25	-51.3	-54.1	3.6	0.00e+00	0	36	104	0	60	85467
2026-01-02 22:07:52.93	23.42	1.31	-51.6	-54.3	3.6	0.00e+00	0	36	104	0	60	87507
2026-01-02 22:07:53.94	23.51	1.37	-51.9	-54.4	3.6	0.00e+00	0	36	104	0	60	88796
2026-01-02 22:07:54.96	23.60	1.43	-51.9	-54.5	3.6	0.00e+00	0	36	104	0	60	89367
2026-01-02 22:07:55.97	23.68	1.49	-51.9	-54.4	3.6	0.00e+00	0	36	104	0	60	88911
2026-01-02 22:07:56.98	23.77	1.55	-51.8	-54.4	3.6	0.00e+00	0	36	104	0	60	88477
2026-01-02 22:07:57.99	23.86	1.61	-51.8	-54.4	3.6	0.00e+00	0	36	104	0	60	88222
2026-01-02 22:07:59.00	23.95	1.67	-51.9	-54.4	3.6	0.00e+00	0	36	104	0	60	88862
2026-01-02 22:08:00.01	24.04	1.73	-51.9	-54.4	3.6	0.00e+00	0	36	104	0	60	89058
2026-01-02 22:08:01.02	24.13	1.79	-51.9	-54.4	3.6	0.00e+00	0	36	104	0	60	88950
2026-01-02 22:08:02.03	24.21	1.85	-51.9	-54.5	3.6	0.00e+00	0	37	104	0	60	89677
2026-01-02 22:08:03.04	24.30	1.91	-51.9	-54.5	3.6	0.00e+00	0	37	104	0	60	89441
2026-01-02 22:08:04.05	24.40	1.97	-51.9	-54.5	3.6	0.00e+00	0	37	104	0	60	89401
2026-01-02 22:08:05.06	24.49	2.03	-51.8	-54.4	3.6	0.00e+00	0	37	104	0	60	88914
2026-01-02 22:08:06.07	24.58	2.09	-51.6	-54.3	3.6	0.00e+00	0	37	104	0	60	87733
2026-01-02 22:08:07.09	24.67	2.15	-51.2	-54.1	3.6	0.00e+00	0	37	104	0	60	85613
2026-01-02 22:08:08.10	24.76	2.21	-51.2	-54.1	3.6	0.00e+00	0	37	104	0	60	85480
2026-01-02 22:08:09.11	24.85	2.27	-51.2	-54.1	3.6	0.00e+00	0	37	104	0	60	85249
2026-01-02 22:08:10.12	24.95	2.33	-51.4	-54.2	3.6	0.00e+00	0	37	104	0	60	87074
2026-01-02 22:08:11.13	25.04	2.39	-51.5	-54.2	3.6	0.00e+00	0	37	104	0	60	86761
2026-01-02 22:08:12.14	25.14	2.45	-51.6	-54.3	3.6	0.00e+00	0	37	104	0	60	87822
2026-01-02 22:08:13.15	25.23	2.51	-51.8	-54.3	3.6	0.00e+00	0	37	104	0	60	88214
2026-01-02 22:08:14.16	25.32	2.58	-51.9	-54.5	3.6	0.00e+00	0	37	104	0	60	89655
2026-01-02 22:08:15.17	25.42	2.64	-52.0	-54.5	3.6	0.00e+00	0	37	104	0	60	90110
2026-01-02 22:08:16.18	25.52	2.70	-52.0	-54.5	3.5	0.00e+00	0	37	104	0	60	89851
2026-01-02 22:08:17.19	25.61	2.76	-51.8	-54.4	3.6	0.00e+00	0	37	104	0	60	89180
2026-01-02 22:08:18.20	25.71	2.82	-51.6	-54.3	3.6	0.00e+00	0	37	104	0	60	87862
2026-01-02 22:08:19.21	25.81	2.88	-51.1	-54.0	3.6	0.00e+00	0	37	104	0	60	84974
2026-01-02 22:08:20.22	25.90	2.95	-50.3	-53.6	3.6	0.00e+00	0	37	104	0	60	80684
2026-01-02 22:08:21.23	26.00	3.01	-50.1	-53.4	3.6	0.00e+00	0	37	104	0	60	78749
2026-01-02 22:08:22.24	26.10	3.07	-50.5	-53.6	3.6	0.00e+00	0	37	104	0	60	81143
2026-01-02 22:08:23.25	26.20	3.13	-51.3	-54.2	3.6	0.00e+00	0	37	104	0	60	86524
2026-01-02 22:08:24.27	26.30	3.20	-51.6	-54.3	3.6	0.00e+00	0	37	104	0	60	88053
2026-01-02 22:08:25.28	26.40	3.26	-51.3	-54.2	3.6	0.00e+00	0	37	104	0	60	86293
2026-01-02 22:08:26.29	26.50	3.32	-51.8	-54.4	3.6	0.00e+00	0	37	104	0	60	89088
2026-01-02 22:08:27.30	26.60	3.38	-52.0	-54.5	3.6	0.00e+00	0	37	104	0	60	90274
2026-01-02 22:08:28.31	26.71	3.45	-52.0	-54.6	3.6	0.00e+00	0	37	104	0	60	90537
2026-01-02 22:08:29.32	26.81	3.51	-51.7	-54.4	3.6	0.00e+00	0	37	104	0	60	88592
2026-01-02 22:08:30.33	26.91	3.57	-51.3	-54.3	3.6	0.00e+00	0	37	104	0	60	87430
2026-01-02 22:08:31.34	27.02	3.64	-51.2	-54.1	3.6	0.00e+00	0	37	104	0	60	86054
2026-01-02 22:08:32.35	27.12	3.70	-51.5	-54.3	3.6	0.00e+00	0	37	104	0	60	88060
2026-01-02 22:08:33.36	27.22	3.76	-52.1	-54.6	3.6	0.00e+00	0	37	104	0	60	90634
2026-01-02 22:08:34.37	27.33	3.83	-51.9	-54.5	3.6	0.00e+00	0	37	104	0	60	89475
2026-01-02 22:08:35.38	27.43	3.89	-51.2	-54.1	3.6	0.00e+00	0	37	104	0	60	85738
2026-01-02 22:08:36.40	27.54	3.96	-51.0	-54.0	3.6	0.00e+00	0	37	104	0	60	85180
2026-01-02 22:08:37.41	27.65	4.02	-51.0	-54.0	3.6	0.00e+00	0	37	104	0	60	84682
2026-01-02 22:08:38.42	27.76	4.08	-50.8	-53.9	3.6	0.00e+00	0	37	104	0	60	84080
2026-01-02 22:08:39.43	27.86	4.15	-50.7	-53.9	3.6	0.00e+00	0	37	104	0	60	83288
2026-01-02 22:08:40.44	27.97	4.21	-51.1	-54.0	3.6	0.00e+00	0	37	104	0	60	85220
2026-01-02 22:08:41.45	28.08	4.28	-51.5	-54.3	3.6	0.00e+00	0	37	104	0	60	87776
2026-01-02 22:08:42.46	28.19	4.34	-51.7	-54.5	3.6	0.00e+00	0	37	104	0	60	89304
2026-01-02 22:08:43.47	28.30	4.41	-51.7	-54.4	3.6	0.00e+00	0	37	104	0	60	89029
2026-01-02 22:08:44.48	28.41	4.47	-51.6	-54.4	3.6	0.00e+00	0	37	104	0	60	88303
2026-01-02 22:08:45.49	28.52	4.54	-51.6	-54.3	3.6	0.00e+00	0	37	104	0	60	87466
2026-01-02 22:08:46.50	28.64	4.60	-51.8	-54.4	3.6	0.00e+00	0	37	104	0	60	89060
2026-01-02 22:08:47.52	28.75	4.67	-52.0	-54.5	3.5	0.00e+00	0	38	104	0	60	89737
2026-01-02 22:08:48.53	28.86	4.73	-51.9	-54.5	3.6	0.00e+00	0	38	104	0	60	89914
2026-01-02 22:08:49.54	28.98	4.80	-51.9	-54.5	3.6	0.00e+00	0	38	104	0	60	90077
2026-01-02 22:08:50.55	29.09	4.87	-52.0	-54.5	3.6	0.00e+00	0	38	104	0	60	90046
2026-01-02 22:08:51.56	29.21	4.93	-52.0	-54.6	3.6	0.00e+00	0	38	104	0	60	91241
2026-01-02 22:08:52.57	29.32	5.00	-52.1	-54.6	3.6	0.00e+00	0	38	104	0	60	91163
2026-01-02 22:08:53.58	29.44	5.06	-52.1	-54.6	3.6	0.00e+00	0	38	104	0	60	91050
2026-01-02 22:08:54.59	29.55	5.13	-52.2	-54.7	3.6	0.00e+00	0	38	104	0	60	91600
2026-01-02 22:08:55.60	29.67	5.20	-52.2	-54.7	3.6	0.00e+00	0	38	104	0	60	91321
2026-01-02 22:08:56.61	29.79	5.26	-52.1	-54.6	3.6	0.00e+00	0	38	104	0	60	90820
2026-01-02 22:08:57.62	29.91	5.33	-51.7	-54.4	3.6	0.00e+00	0	38	104	0	60	88610
2026-01-02 22:08:58.63	30.03	5.40	-51.2	-54.1	3.6	0.00e+00	0	38	104	0	60	86187
2026-01-02 22:08:59.64	30.15	5.47	-51.1	-54.2	3.6	0.00e+00	0	38	104	0	60	86614
2026-01-02 22:09:00.66	30.27	5.53	-51.6	-54.4	3.6	0.00e+00	0	38	104	0	60	89192
2026-01-02 22:09:01.67	30.39	5.60	-51.8	-54.5	3.5	0.00e+00	0	38	104	0	60	90025
2026-01-02 22:09:02.68	30.52	5.67	-51.8	-54.5	3.6	0.00e+00	0	38	104	0	60	89528
2026-01-02 22:09:03.69	30.64	5.74	-51.5	-54.3	3.6	0.00e+00	0	38	104	0	60	87954
2026-01-02 22:09:04.70	30.76	5.80	-51.3	-54.2	3.6	0.00e+00	0	38	104	0	60	86652
2026-01-02 22:09:05.71	30.89	5.87	-50.7	-53.9	3.6	0.00e+00	0	38	104	0	60	84100
2026-01-02 22:09:06.72	31.01	5.94	-49.8	-53.4	3.6	0.00e+00	0	38	104	0	60	79496
2026-01-02 22:09:07.73	31.14	6.01	-49.3	-53.0	3.6	0.00e+00	0	38	104	0	60	75542
2026-01-02 22:09:08.74	31.26	6.08	-49.4	-53.0	3.6	0.00e+00	0	38	104	0	60	75705
2026-01-02 22:09:09.75	31.39	6.14	-49.9	-53.5	3.6	0.00e+00	0	38	104	0	60	79656
2026-01-02 22:09:10.76	31.52	6.21	-50.7	-53.8	3.6	0.00e+00	0	38	104	0	60	82730
2026-01-02 22:09:11.77	31.65	6.28	-51.6	-54.3	3.5	0.00e+00	0	38	104	0	60	88214
2026-01-02 22:09:12.78	31.78	6.35	-51.9	-54.6	3.6	0.00e+00	0	38	104	0	60	90733
2026-01-02 22:09:13.79	31.91	6.42	-51.9	-54.6	3.6	0.00e+00	0	38	104	0	60	90768
2026-01-02 22:09:14.80	32.04	6.49	-51.9	-54.5	3.6	0.00e+00	0	38	104	0	60	89767
2026-01-02 22:09:15.81	32.17	6.56	-52.0	-54.5	3.6	0.00e+00	0	38	104	0	60	90117
2026-01-02 22:09:16.82	32.30	6.63	-52.2	-54.7	3.6	0.00e+00	0	38	104	0	60	91990
2026-01-02 22:09:17.83	32.43	6.70	-52.3	-54.7	3.6	0.00e+00	0	38	104	0	60	92179
2026-01-02 22:09:18.84	32.57	6.77	-52.3	-54.8	3.6	0.00e+00	0	38	104	0	60	92644
2026-01-02 22:09:19.85	32.70	6.84	-52.3	-54.7	3.6	0.00e+00	0	38	104	0	60	92263
2026-01-02 22:09:20.86	32.84	6.91	-52.0	-54.6	3.6	0.00e+00	0	38	104	0	60	90452
2026-01-02 22:09:21.87	32.97	6.98	-51.7	-54.4	3.6	0.00e+00	0	38	104	0	60	88896
2026-01-02 22:09:22.88	33.11	7.05	-51.4	-54.4	3.6	0.00e+00	0	38	104	0	60	89024
2026-01-02 22:09:23.89	33.25	7.12	-51.2	-54.1	3.6	0.00e+00	0	38	104	0	60	86032
2026-01-02 22:09:24.90	33.39	7.19	-51.2	-54.1	3.6	0.00e+00	0	38	104	0	60	85767
2026-01-02 22:09:25.91	33.53	7.26	-51.8	-54.5	3.6	0.00e+00	0	38	104	0	60	90208
2026-01-02 22:09:26.93	33.67	7.33	-52.1	-54.7	3.6	0.00e+00	0	38	104	0	60	91905
2026-01-02 22:09:27.94	33.81	7.40	-52.3	-54.8	3.6	0.00e+00	0	38	104	0	60	92886
2026-01-02 22:09:28.95	33.95	7.47	-52.2	-54.7	3.6	0.00e+00	0	38	104	0	60	92117
2026-01-02 22:09:29.96	34.09	7.54	-52.0	-54.6	3.6	0.00e+00	0	38	104	0	60	91243
2026-01-02 22:09:30.97	34.24	7.61	-51.5	-54.3	3.6	0.00e+00	0	38	104	0	60	88010
2026-01-02 22:09:31.98	34.38	7.69	-51.4	-54.3	3.6	0.00e+00	0	38	104	0	60	87805
2026-01-02 22:09:32.99	34.52	7.76	-51.8	-54.5	3.6	0.00e+00	0	38	104	0	60	89451
2026-01-02 22:09:34.00	34.67	7.83	-52.0	-54.6	3.6	0.00e+00	0	38	104	0	60	91283
2026-01-02 22:09:35.01	34.82	7.90	-52.1	-54.7	3.6	0.00e+00	0	38	104	0	60	91718
2026-01-02 22:09:36.02	34.96	7.97	-52.1	-54.7	3.6	0.00e+00	0	38	104	0	60	91403
2026-01-02 22:09:37.03	35.11	8.04	-52.1	-54.6	3.6	0.00e+00	0	38	104	0	60	91006
2026-01-02 22:09:38.04	35.26	8.12	-51.2	-54.2	3.6	0.00e+00	0	38	104	0	60	86383
2026-01-02 22:09:39.05	35.41	8.19	-50.4	-53.6	3.6	0.00e+00	0	38	104	0	60	81373
2026-01-02 22:09:40.06	35.56	8.26	-50.0	-53.4	3.6	0.00e+00	0	38	104	0	60	79503
2026-01-02 22:09:41.08	35.72	8.33	-50.6	-53.9	3.6	0.00e+00	0	38	104	0	60	83350
2026-01-02 22:09:42.09	35.87	8.41	-50.2	-53.7	3.6	0.00e+00	0	38	104	0	60	81863
2026-01-02 22:09:43.10	36.02	8.48	-49.4	-53.0	3.6	0.00e+00	0	38	104	0	60	75302
2026-01-02 22:09:44.11	36.18	8.55	-49.5	-53.2	3.6	0.00e+00	0	38	104	0	60	77361
2026-01-02 22:09:45.12	36.33	8.63	-50.6	-53.8	3.6	0.00e+00	0	38	104	0	60	83065
2026-01-02 22:09:46.13	36.49	8.70	-51.9	-54.6	3.6	0.00e+00	0	38	104	0	60	90581
2026-01-02 22:09:47.14	36.65	8.77	-52.3	-54.8	3.6	0.00e+00	0	38	104	0	60	92568
2026-01-02 22:09:48.15	36.81	8.85	-52.2	-54.8	3.6	0.00e+00	0	38	104	0	60	92672
2026-01-02 22:09:49.16	36.97	8.92	-52.1	-54.7	3.6	0.00e+00	0	38	104	0	60	91848
2026-01-02 22:09:50.17	37.13	8.99	-52.0	-54.6	3.6	0.00e+00	0	38	104	0	60	91299
2026-01-02 22:09:51.18	37.29	9.07	-51.8	-54.5	3.5	0.00e+00	0	38	104	0	60	89991
2026-01-02 22:09:52.19	37.45	9.14	-51.7	-54.5	3.6	0.00e+00	0	38	104	0	60	89652
2026-01-02 22:09:53.20	37.61	9.22	-51.8	-54.6	3.6	0.00e+00	0	38	104	0	60	90740
2026-01-02 22:09:54.21	37.78	9.29	-52.2	-54.7	3.6	0.00e+00	0	38	104	0	60	92240
2026-01-02 22:09:55.22	37.94	9.36	-52.4	-54.9	3.6	0.00e+00	0	38	104	0	60	93483
2026-01-02 22:09:56.23	38.11	9.44	-52.1	-54.7	3.6	0.00e+00	0	38	104	0	60	92282
2026-01-02 22:09:57.24	38.28	9.51	-52.0	-54.7	3.5	0.00e+00	0	38	104	0	60	91321
2026-01-02 22:09:58.25	38.45	9.59	-52.2	-54.7	3.6	0.00e+00	0	38	104	0	60	92014
2026-01-02 22:09:59.26	38.62	9.66	-52.2	-54.8	3.6	0.00e+00	0	38	104	0	60	92498
2026-01-02 22:10:00.28	38.79	9.74	-52.2	-54.7	3.6	0.00e+00	0	38	104	0	60	92182
2026-01-02 22:10:01.29	38.96	9.81	-52.1	-54.7	3.6	0.00e+00	0	38	104	0	60	92206
2026-01-02 22:10:02.30	39.13	9.89	-52.0	-54.6	3.6	0.00e+00	0	38	104	0	60	90762
2026-01-02 22:10:03.30	39.30	9.96	-51.8	-54.6	3.6	0.00e+00	0	38	104	0	60	90323
2026-01-02 22:10:04.31	39.48	10.04	-52.1	-54.7	3.6	0.00e+00	0	38	104	0	60	91430
2026-01-02 22:10:05.32	39.65	10.11	-52.2	-54.8	3.6	0.00e+00	0	38	104	0	60	92579
2026-01-02 22:10:06.33	39.83	10.19	-52.2	-54.7	3.6	0.00e+00	0	38	104	0	60	91854
2026-01-02 22:10:07.34	40.01	10.26	-52.3	-54.8	3.6	0.00e+00	0	38	104	0	60	93140
2026-01-02 22:10:08.35	40.19	10.34	-52.2	-54.7	3.6	0.00e+00	0	38	104	0	60	91811
2026-01-02 22:10:09.36	40.37	10.42	-51.2	-54.1	3.6	0.00e+00	0	38	104	0	60	85906
2026-01-02 22:10:10.37	40.55	10.49	-50.0	-53.6	3.6	0.00e+00	0	38	104	0	60	80714
2026-01-02 22:10:11.38	40.73	10.57	-49.7	-53.3	3.6	0.00e+00	0	38	104	0	60	77931
2026-01-02 22:10:12.39	40.91	10.64	-49.4	-53.1	3.6	0.00e+00	0	38	104	0	60	76532
2026-01-02 22:10:13.40	41.10	10.72	-49.6	-53.1	3.6	0.00e+00	0	38	104	0	60	76637
2026-01-02 22:10:14.41	41.28	10.80	-50.7	-53.9	3.6	0.00e+00	0	38	104	0	60	84186
2026-01-02 22:10:15.42	41.47	10.87	-52.1	-54.8	3.6	0.00e+00	0	38	104	0	60	92393
2026-01-02 22:10:16.43	41.66	10.95	-52.4	-54.8	3.6	0.00e+00	0	38	104	0	60	93207
2026-01-02 22:10:17.44	41.85	11.02	-52.2	-54.7	3.6	0.00e+00	0	38	104	0	60	91931
2026-01-02 22:10:18.45	42.04	11.10	-51.8	-54.5	3.6	0.00e+00	0	38	104	0	60	90144
2026-01-02 22:10:19.47	42.23	11.18	-51.7	-54.5	3.6	0.00e+00	0	38	104	0	60	89677
2026-01-02 22:10:20.48	42.42	11.25	-52.2	-54.7	3.6	0.00e+00	0	38	104	0	60	92282
2026-01-02 22:10:21.49	42.62	11.33	-52.2	-54.7	3.6	0.00e+00	0	38	104	0	60	92169
2026-01-02 22:10:22.50	42.81	11.41	-52.2	-54.8	3.6	0.00e+00	0	38	104	0	60	92656
2026-01-02 22:10:23.51	43.01	11.48	-52.2	-54.8	3.5	0.00e+00	0	38	104	0	60	92758
2026-01-02 22:10:24.52	43.21	11.56	-52.4	-54.8	3.6	0.00e+00	0	38	104	0	60	93289
2026-01-02 22:10:25.53	43.41	11.64	-52.4	-54.9	3.6	0.00e+00	0	38	104	0	60	93482
2026-01-02 22:10:26.54	43.61	11.71	-52.1	-54.7	3.6	0.00e+00	0	38	104	0	60	91894
2026-01-02 22:10:27.55	43.81	11.79	-52.1	-54.7	3.6	0.00e+00	0	38	104	0	60	91672
2026-01-02 22:10:28.56	44.01	11.87	-52.2	-54.8	3.6	0.00e+00	0	38	104	0	60	92640
2026-01-02 22:10:29.57	44.21	11.95	-52.0	-54.7	3.6	0.00e+00	0	38	104	0	60	91525
2026-01-02 22:10:30.58	44.42	12.02	-51.9	-54.5	3.6	0.00e+00	0	38	104	0	60	90080
2026-01-02 22:10:31.59	44.62	12.10	-52.2	-54.8	3.6	0.00e+00	0	38	104	0	60	92405
2026-01-02 22:10:32.61	44.83	12.18	-52.1	-54.7	3.6	0.00e+00	0	38	104	0	60	91635
2026-01-02 22:10:33.62	45.04	12.25	-51.5	-54.4	3.6	0.00e+00	0	38	104	0	60	88474
2026-01-02 22:10:34.63	45.25	12.33	-51.4	-54.3	3.6	0.00e+00	0	38	104	0	60	87811
2026-01-02 22:10:35.64	45.46	12.41	-52.1	-54.7	3.6	0.00e+00	0	38	104	0	60	91672
2026-01-02 22:10:36.65	45.68	12.49	-51.3	-54.3	3.6	0.00e+00	0	38	104	0	60	87658
2026-01-02 22:10:37.66	45.89	12.56	-49.9	-53.6	3.6	0.00e+00	0	38	104	0	60	80744
2026-01-02 22:10:38.67	46.10	12.64	-50.2	-53.5	3.6	0.00e+00	0	38	104	0	60	80052
2026-01-02 22:10:39.68	46.32	12.72	-51.2	-54.2	3.6	0.00e+00	0	38	104	0	60	86878
2026-01-02 22:10:40.69	46.54	12.79	-50.5	-53.9	3.6	0.00e+00	0	38	104	0	60	83306
2026-01-02 22:10:41.70	46.76	12.87	-50.3	-53.6	3.6	0.00e+00	0	38	104	0	60	81059
2026-01-02 22:10:42.71	46.98	12.95	-51.8	-54.6	3.6	0.00e+00	0	38	104	0	60	90645
2026-01-02 22:10:43.73	47.20	13.03	-52.0	-54.6	3.6	0.00e+00	0	38	104	0	60	91298
2026-01-02 22:10:44.74	47.43	13.10	-51.6	-54.4	3.6	0.00e+00	0	38	104	0	60	89227
2026-01-02 22:10:45.75	47.65	13.18	-52.2	-54.8	3.6	0.00e+00	0	38	104	0	60	93147
2026-01-02 22:10:46.76	47.88	13.26	-52.2	-54.8	3.6	0.00e+00	0	38	104	0	60	92912
2026-01-02 22:10:47.77	48.10	13.33	-52.4	-54.9	3.6	0.00e+00	0	38	104	0	60	93512
2026-01-02 22:10:48.78	48.33	13.41	-52.2	-54.8	3.6	0.00e+00	0	38	104	0	60	92755
2026-01-02 22:10:49.79	48.56	13.49	-51.8	-54.6	3.6	0.00e+00	0	38	104	0	60	90755
2026-01-02 22:10:50.80	48.79	13.56	-52.1	-54.7	3.6	0.00e+00	0	38	104	0	60	92068
2026-01-02 22:10:51.81	49.03	13.64	-52.1	-54.7	3.6	0.00e+00	0	38	104	0	60	92202
2026-01-02 22:10:52.82	49.26	13.72	-52.0	-54.7	3.6	0.00e+00	0	38	104	0	60	91901
2026-01-02 22:10:53.83	49.50	13.79	-52.3	-54.8	3.6	0.00e+00	0	38	104	0	60	92799
2026-01-02 22:10:54.85	49.74	13.87	-52.4	-54.9	3.6	0.00e+00	0	38	104	0	60	93615
2026-01-02 22:10:55.86	49.97	13.95	-52.1	-54.7	3.6	0.00e+00	0	38	104	0	60	92034
2026-01-02 22:10:56.87	50.21	14.02	-52.0	-54.7	3.6	0.00e+00	0	38	104	0	60	91604
2026-01-02 22:10:57.88	50.46	14.10	-52.0	-54.7	3.6	0.00e+00	0	39	104	0	60	91845
2026-01-02 22:10:58.89	50.70	14.18	-52.2	-54.7	3.6	0.00e+00	0	38	104	0	60	92068
2026-01-02 22:10:59.90	50.94	14.25	-52.4	-54.9	3.6	0.00e+00	0	39	104	0	60	93540
2026-01-02 22:11:00.91	51.19	14.33	-52.2	-54.7	3.6	0.00e+00	0	38	104	0	60	92323
2026-01-02 22:11:01.92	51.44	14.40	-51.9	-54.6	3.6	0.00e+00	0	38	104	0	60	90765
2026-01-02 22:11:02.93	51.68	14.48	-51.9	-54.6	3.6	0.00e+00	0	38	104	0	60	91089
2026-01-02 22:11:03.94	51.93	14.55	-52.2	-54.8	3.6	0.00e+00	0	38	104	0	60	92796
2026-01-02 22:11:04.95	52.19	14.63	-52.4	-54.8	3.6	0.00e+00	0	38	104	0	60	93375
2026-01-02 22:11:05.96	52.44	14.70	-52.4	-54.9	3.5	0.00e+00	0	38	104	0	60	93816
2026-01-02 22:11:06.97	52.69	14.78	-52.4	-54.9	3.6	0.00e+00	0	38	104	0	60	93991
2026-01-02 22:11:07.98	52.95	14.85	-52.4	-54.8	3.6	0.00e+00	0	38	104	0	60	93383
2026-01-02 22:11:08.99	53.21	14.93	-52.3	-54.8	3.6	0.00e+00	0	38	104	0	60	92889
2026-01-02 22:11:10.00	53.47	15.00	-52.1	-54.7	3.5	0.00e+00	0	38	104	0	60	92187
2026-01-02 22:11:11.01	53.73	15.08	-52.0	-54.7	3.6	0.00e+00	0	38	104	0	60	91755
2026-01-02 22:11:12.02	53.99	15.15	-51.9	-54.7	3.6	0.00e+00	0	38	104	0	60	91330
2026-01-02 22:11:13.03	54.25	15.22	-52.0	-54.7	3.6	0.00e+00	0	38	104	0	60	91536
2026-01-02 22:11:14.05	54.52	15.30	-52.1	-54.7	3.6	0.00e+00	0	39	104	0	60	91908
2026-01-02 22:11:15.06	54.79	15.37	-52.3	-54.9	3.6	0.00e+00	0	38	104	0	60	93470
2026-01-02 22:11:16.07	55.06	15.44	-52.4	-54.8	3.6	0.00e+00	0	38	104	0	60	93132
2026-01-02 22:11:17.08	55.32	15.52	-52.4	-54.9	3.6	0.00e+00	0	38	104	0	60	93475
2026-01-02 22:11:18.09	55.60	15.59	-52.4	-54.9	3.6	0.00e+00	0	38	104	0	60	93970
2026-01-02 22:11:19.10	55.87	15.66	-52.4	-54.9	3.6	0.00e+00	0	38	104	0	60	93789
2026-01-02 22:11:20.11	56.14	15.73	-52.4	-54.8	3.6	0.00e+00	0	38	104	0	60	93354
2026-01-02 22:11:21.12	56.42	15.81	-52.4	-54.8	3.6	0.00e+00	0	38	104	0	60	93359
2026-01-02 22:11:22.13	56.70	15.88	-52.3	-54.8	3.6	0.00e+00	0	38	104	0	60	92844
2026-01-02 22:11:23.14	56.97	15.95	-52.2	-54.8	3.6	0.00e+00	0	39	104	0	60	92401
2026-01-02 22:11:24.15	57.25	16.02	-52.2	-54.8	3.6	0.00e+00	0	38	104	0	60	92620
2026-01-02 22:11:25.16	57.54	16.09	-52.3	-54.8	3.6	0.00e+00	0	38	104	0	60	92775
2026-01-02 22:11:26.17	57.82	16.16	-52.3	-54.8	3.6	0.00e+00	0	39	104	0	60	92948
2026-01-02 22:11:27.18	58.10	16.23	-52.2	-54.7	3.6	0.00e+00	0	39	104	0	60	92369
2026-01-02 22:11:28.19	58.39	16.30	-52.1	-54.7	3.6	0.00e+00	0	38	104	0	60	92247
2026-01-02 22:11:29.20	58.68	16.37	-52.1	-54.7	3.6	0.00e+00	0	39	104	0	60	91863
2026-01-02 22:11:30.21	58.97	16.44	-52.2	-54.7	3.6	0.00e+00	0	38	104	0	60	92096
2026-01-02 22:11:31.22	59.26	16.51	-52.2	-54.8	3.6	0.00e+00	0	39	104	0	60	92637
2026-01-02 22:11:32.23	59.55	16.57	-52.2	-54.8	3.6	0.00e+00	0	39	104	0	60	92496
2026-01-02 22:11:33.25	59.85	16.64	-52.2	-54.8	3.6	0.00e+00	0	39	104	0	60	92504
2026-01-02 22:11:34.26	60.14	16.71	-52.2	-54.7	3.6	0.00e+00	0	38	104	0	60	92163
2026-01-02 22:11:35.27	60.44	16.78	-52.3	-54.8	3.6	0.00e+00	0	39	104	0	60	93065
2026-01-02 22:11:36.28	60.74	16.84	-52.4	-54.8	3.6	0.00e+00	0	39	104	0	60	93369
2026-01-02 22:11:37.29	61.04	16.91	-52.3	-54.9	3.6	0.00e+00	0	39	104	0	60	93475
2026-01-02 22:11:38.30	61.34	16.97	-52.3	-54.8	3.6	0.00e+00	0	39	104	0	60	92668
2026-01-02 22:11:39.31	61.64	17.04	-52.4	-54.8	3.6	0.00e+00	0	38	104	0	60	93342
2026-01-02 22:11:40.32	61.95	17.10	-52.4	-54.9	3.6	0.00e+00	0	39	104	0	60	93642
2026-01-02 22:11:41.33	62.26	17.17	-52.4	-54.8	3.6	0.00e+00	0	39	104	0	60	93006
2026-01-02 22:11:42.34	62.56	17.23	-52.4	-54.9	3.6	0.00e+00	0	39	104	0	60	93699
2026-01-02 22:11:43.35	62.87	17.29	-52.4	-54.9	3.6	0.00e+00	0	39	104	0	60	93709
2026-01-02 22:11:44.36	63.18	17.36	-52.4	-54.9	3.6	0.00e+00	0	39	104	0	60	93939
2026-01-02 22:11:45.37	63.49	17.42	-52.4	-54.9	3.6	0.00e+00	0	39	104	0	60	93896
2026-01-02 22:11:46.38	63.81	17.48	-52.4	-54.9	3.6	0.00e+00	0	39	104	0	60	93845
2026-01-02 22:11:47.39	64.12	17.54	-52.3	-54.8	3.6	0.00e+00	0	39	104	0	60	92826
2026-01-02 22:11:48.40	64.44	17.60	-43.3	-43.6	5.3	0.00e+00	0	38	104	0	60	25561
2026-01-02 22:11:49.42	64.76	17.66	-43.5	-43.9	5.3	0.00e+00	0	39	104	0	60	26482
2026-01-02 22:11:50.43	65.08	17.72	-43.7	-44.1	5.2	0.00e+00	0	39	104	0	60	26958
2026-01-02 22:11:51.44	65.40	17.78	-44.0	-44.5	5.2	0.00e+00	0	38	104	0	60	28243
2026-01-02 22:11:52.45	65.72	17.84	-43.8	-44.2	5.2	0.00e+00	0	39	104	0	60	27574
2026-01-02 22:11:53.46	66.05	17.89	-44.0	-44.4	5.2	0.00e+00	0	38	104	0	60	27922
2026-01-02 22:11:54.47	66.37	17.95	-44.2	-44.5	5.1	0.00e+00	0	38	104	0	60	28526
2026-01-02 22:11:55.48	66.70	18.01	-44.4	-44.8	5.1	0.00e+00	0	39	104	0	60	29430
2026-01-02 22:11:56.49	67.02	18.06	-44.6	-45.0	5.1	0.00e+00	0	38	104	0	60	30206
2026-01-02 22:11:57.50	67.35	18.12	-44.9	-45.3	5.0	0.00e+00	0	39	104	0	60	30990
2026-01-02 22:11:58.51	67.68	18.17	-44.7	-45.2	5.0	0.00e+00	0	38	104	0	60	30736
2026-01-02 22:11:59.52	68.02	18.22	-44.6	-45.0	5.0	0.00e+00	0	39	104	0	60	30167
2026-01-02 22:12:00.54	68.35	18.28	-44.6	-45.1	5.0	0.00e+00	0	39	104	0	60	30403
2026-01-02 22:12:01.55	68.69	18.33	-44.6	-45.1	5.0	0.00e+00	0	39	104	0	60	30488
2026-01-02 22:12:02.56	69.02	18.38	-44.6	-45.0	5.0	0.00e+00	0	39	104	0	60	30154
2026-01-02 22:12:03.57	69.36	18.43	-44.7	-45.2	4.9	0.00e+00	0	39	104	0	60	30849
2026-01-02 22:12:04.58	69.70	18.48	-44.7	-45.2	5.0	0.00e+00	0	39	104	0	60	30812
2026-01-02 22:12:05.59	70.04	18.53	-44.8	-45.2	5.0	0.00e+00	0	39	104	0	60	30795
2026-01-02 22:12:06.60	70.38	18.58	-44.7	-45.2	5.0	0.00e+00	0	39	104	0	60	30853
2026-01-02 22:12:07.61	70.72	18.62	-44.7	-45.3	5.0	0.00e+00	0	39	104	0	60	31025
2026-01-02 22:12:08.62	71.06	18.67	-44.7	-45.2	5.0	0.00e+00	0	39	104	0	60	30763
2026-01-02 22:12:09.63	71.41	18.72	-44.6	-45.1	5.0	0.00e+00	0	39	104	0	60	30267
2026-01-02 22:12:10.64	71.75	18.76	-44.4	-44.9	5.1	0.00e+00	0	39	104	0	60	29628
2026-01-02 22:12:11.65	72.10	18.81	-44.2	-44.5	5.2	0.00e+00	0	38	104	0	60	28424
2026-01-02 22:12:12.66	72.45	18.85	-44.0	-44.4	5.2	0.00e+00	0	39	104	0	60	28083
2026-01-02 22:12:13.67	72.80	18.89	-43.8	-44.2	5.1	0.00e+00	0	39	104	0	60	27564
2026-01-02 22:12:14.68	73.15	18.93	-43.7	-44.1	5.2	0.00e+00	0	39	104	0	60	27069
2026-01-02 22:12:15.69	73.50	18.97	-43.7	-44.2	5.1	0.00e+00	0	39	104	0	60	27284
2026-01-02 22:12:16.71	73.85	19.01	-43.6	-44.0	5.1	0.00e+00	0	39	104	0	60	26863
2026-01-02 22:12:17.72	74.21	19.05	-43.5	-43.9	5.2	0.00e+00	0	39	104	0	60	26551
2026-01-02 22:12:18.72	74.56	19.09	-43.5	-44.0	5.3	0.00e+00	0	39	104	0	60	26746
2026-01-02 22:12:19.73	74.91	19.13	-43.6	-43.9	5.2	0.00e+00	0	39	104	0	60	26476
2026-01-02 22:12:20.74	75.27	19.17	-43.5	-43.9	5.1	0.00e+00	0	39	104	0	60	26400
2026-01-02 22:12:21.76	75.63	19.20	-43.4	-43.9	5.1	0.00e+00	0	39	104	0	60	26533
2026-01-02 22:12:22.77	75.99	19.24	-43.3	-43.7	5.1	0.00e+00	0	39	104	0	60	25798
2026-01-02 22:12:23.78	76.35	19.27	-43.4	-43.8	5.2	0.00e+00	0	39	104	0	60	26298
2026-01-02 22:12:24.79	76.71	19.30	-43.3	-43.6	5.2	0.00e+00	0	39	104	0	60	25447
2026-01-02 22:12:25.80	77.07	19.33	-43.2	-43.5	5.3	0.00e+00	0	39	104	0	60	25420
2026-01-02 22:12:26.81	77.43	19.36	-42.8	-43.1	5.2	0.00e+00	0	39	104	0	60	24225
2026-01-02 22:12:27.82	77.79	19.39	-42.7	-43.1	5.3	0.00e+00	0	39	104	0	60	24021
2026-01-02 22:12:28.83	78.16	19.42	-42.6	-42.9	5.3	0.00e+00	0	39	104	0	60	23568
2026-01-02 22:12:29.84	78.52	19.45	-42.4	-42.6	5.4	0.00e+00	0	39	104	0	60	22833
2026-01-02 22:12:30.85	78.89	19.48	-42.2	-42.6	5.4	0.00e+00	0	39	104	0	60	22753
2026-01-02 22:12:31.86	79.25	19.50	-42.1	-42.4	5.5	0.00e+00	0	39	104	0	60	22206
2026-01-02 22:12:32.87	79.62	19.53	-42.1	-42.3	5.4	0.00e+00	0	39	104	0	60	22135
2026-01-02 22:12:33.88	79.99	19.55	-42.1	-42.4	5.4	0.00e+00	0	39	104	0	60	22200
2026-01-02 22:12:34.90	80.36	19.57	-42.1	-42.3	5.4	0.00e+00	0	38	104	0	60	22158
2026-01-02 22:12:35.91	80.73	19.59	-42.1	-42.4	5.5	0.00e+00	0	38	104	0	60	22289
2026-01-02 22:12:36.92	81.09	19.62	-42.1	-42.4	5.5	0.00e+00	0	38	104	0	60	22177
2026-01-02 22:12:37.93	81.46	19.63	-42.0	-42.3	5.5	0.00e+00	0	39	104	0	60	22044
2026-01-02 22:12:38.94	81.83	19.65	-41.9	-42.3	5.5	0.00e+00	0	39	104	0	60	21950
2026-01-02 22:12:39.95	82.20	19.67	-41.8	-42.2	5.6	0.00e+00	0	39	104	0	60	21742
2026-01-02 22:12:40.96	82.58	19.69	-41.6	-41.8	5.6	0.00e+00	0	39	104	0	60	20832
2026-01-02 22:12:41.97	82.95	19.70	-41.5	-41.7	5.5	0.00e+00	0	39	104	0	60	20592
2026-01-02 22:12:42.98	83.32	19.72	-41.3	-41.7	5.6	0.00e+00	0	38	104	0	60	20622
2026-01-02 22:12:43.99	83.69	19.73	-41.3	-41.6	5.6	0.00e+00	0	39	104	0	60	20439
2026-01-02 22:12:45.00	84.06	19.74	-41.5	-41.7	5.5	0.00e+00	0	38	104	0	60	20645
2026-01-02 22:12:46.02	84.44	19.75	-41.3	-41.7	5.5	0.00e+00	0	39	104	0	60	20468
2026-01-02 22:12:47.03	84.81	19.76	-41.3	-41.6	5.6	0.00e+00	0	39	104	0	60	20385
2026-01-02 22:12:48.04	85.19	19.77	-41.4	-41.6	5.6	0.00e+00	0	39	104	0	60	20382
2026-01-02 22:12:49.05	85.56	19.78	-41.3	-41.6	5.6	0.00e+00	0	39	104	0	60	20277
2026-01-02 22:12:50.06	85.94	19.79	-41.4	-41.7	5.6	0.00e+00	0	39	104	0	60	20529
2026-01-02 22:12:51.07	86.31	19.79	-41.4	-41.7	5.5	0.00e+00	0	39	104	0	60	20547
2026-01-02 22:12:52.08	86.68	19.80	-41.4	-41.7	5.5	0.00e+00	0	39	104	0	60	20571
2026-01-02 22:12:53.09	87.06	19.80	-41.5	-41.8	5.5	0.00e+00	0	39	104	0	60	20691
2026-01-02 22:12:54.11	87.44	19.80	-41.7	-42.0	5.4	0.00e+00	0	39	104	0	60	21216
2026-01-02 22:12:55.12	87.81	19.80	-42.1	-42.5	5.5	0.00e+00	0	39	104	0	60	22542
2026-01-02 22:12:56.13	88.19	19.80	-42.1	-42.4	5.4	0.00e+00	0	39	104	0	60	22410
2026-01-02 22:12:57.14	88.56	19.80	-41.8	-42.2	5.5	0.00e+00	0	39	104	0	60	21738
2026-01-02 22:12:58.15	88.94	19.80	-41.6	-41.8	5.5	0.00e+00	0	39	104	0	60	20774
2026-01-02 22:12:59.16	89.31	19.80	-41.6	-41.9	5.6	0.00e+00	0	39	104	0	60	20975
2026-01-02 22:13:00.17	89.69	19.79	-41.5	-41.9	5.6	0.00e+00	0	39	104	0	60	21036
2026-01-02 22:13:01.18	90.06	19.79	-41.6	-41.9	5.6	0.00e+00	0	39	104	0	60	21077
2026-01-02 22:13:02.19	90.43	19.78	-41.6	-41.9	5.6	0.00e+00	0	39	104	0	60	20940
2026-01-02 22:13:03.20	90.81	19.77	-41.6	-41.8	5.6	0.00e+00	0	39	104	0	60	20919
2026-01-02 22:13:04.22	91.19	19.76	-41.5	-41.8	5.5	0.00e+00	0	39	104	0	60	20860
2026-01-02 22:13:05.23	91.56	19.75	-41.5	-41.9	5.5	0.00e+00	0	39	104	0	60	21034
2026-01-02 22:13:06.24	91.93	19.74	-41.5	-41.8	5.6	0.00e+00	0	39	104	0	60	20712
2026-01-02 22:13:07.25	92.31	19.73	-41.6	-41.9	5.6	0.00e+00	0	39	104	0	60	20985
2026-01-02 22:13:08.26	92.68	19.72	-41.8	-42.2	5.6	0.00e+00	0	39	104	0	60	21821
2026-01-02 22:13:09.27	93.05	19.70	-41.4	-41.7	5.6	0.00e+00	0	39	104	0	60	20652
2026-01-02 22:13:10.28	93.42	19.69	-41.5	-41.7	5.5	0.00e+00	0	39	104	0	60	20670
2026-01-02 22:13:11.30	93.80	19.67	-41.5	-41.7	5.6	0.00e+00	0	39	104	0	60	20541
2026-01-02 22:13:12.31	94.17	19.65	-41.5	-41.8	5.7	0.00e+00	0	39	104	0	60	20828
2026-01-02 22:13:13.32	94.54	19.63	-41.4	-41.8	5.6	0.00e+00	0	39	104	0	60	20736
2026-01-02 22:13:14.33	94.91	19.61	-41.4	-41.7	5.6	0.00e+00	0	39	104	0	60	20448
2026-01-02 22:13:15.34	95.28	19.59	-41.3	-41.6	5.6	0.00e+00	0	39	104	0	60	20347
2026-01-02 22:13:16.35	95.65	19.57	-41.2	-41.5	5.6	0.00e+00	0	39	104	0	60	20159
2026-01-02 22:13:17.36	96.02	19.55	-41.2	-41.6	5.6	0.00e+00	0	39	104	0	60	20237
2026-01-02 22:13:18.37	96.39	19.52	-41.3	-41.5	5.6	0.00e+00	0	39	104	0	60	20110
2026-01-02 22:13:19.38	96.75	19.50	-41.1	-41.4	5.7	0.00e+00	0	39	104	0	60	19759
2026-01-02 22:13:20.39	97.12	19.47	-41.1	-41.3	5.6	0.00e+00	0	39	104	0	60	19606
2026-01-02 22:13:21.40	97.49	19.45	-41.1	-41.5	5.6	0.00e+00	0	39	104	0	60	20001
2026-01-02 22:13:22.41	97.85	19.42	-41.3	-41.7	5.6	0.00e+00	0	39	104	0	60	20451
2026-01-02 22:13:23.42	98.22	19.39	-41.2	-41.5	5.7	0.00e+00	0	39	104	0	60	20006
2026-01-02 22:13:24.43	98.58	19.36	-40.9	-41.2	5.6	0.00e+00	0	39	104	0	60	19454
2026-01-02 22:13:25.44	98.94	19.33	-41.0	-41.3	5.6	0.00e+00	0	39	104	0	60	19576
2026-01-02 22:13:26.45	99.31	19.30	-40.9	-41.1	5.6	0.00e+00	0	39	104	0	60	19294
2026-01-02 22:13:27.46	99.67	19.27	-41.1	-41.4	5.5	0.00e+00	0	39	104	0	60	19874
2026-01-02 22:13:28.47	100.03	19.23	-41.1	-41.4	5.4	0.00e+00	0	39	104	0	60	19754
2026-01-02 22:13:29.49	100.39	19.20	-41.2	-41.6	5.5	0.00e+00	0	39	104	0	60	20278
2026-01-02 22:13:30.50	100.75	19.16	-41.4	-41.6	5.5	0.00e+00	0	39	104	0	60	20377
2026-01-02 22:13:31.51	101.11	19.12	-41.4	-41.7	5.5	0.00e+00	0	39	104	0	60	20542
2026-01-02 22:13:32.52	101.47	19.09	-41.5	-41.8	5.5	0.00e+00	0	39	104	0	60	20813
2026-01-02 22:13:33.53	101.82	19.05	-41.5	-41.8	5.4	0.00e+00	0	39	104	0	60	20861
2026-01-02 22:13:34.54	102.18	19.01	-41.6	-41.9	5.4	0.00e+00	0	39	104	0	60	20978
2026-01-02 22:13:35.55	102.53	18.97	-41.6	-42.0	5.3	0.00e+00	0	39	104	0	60	21217
2026-01-02 22:13:36.56	102.88	18.93	-41.9	-42.2	5.4	0.00e+00	0	39	104	0	60	21877
2026-01-02 22:13:37.58	103.24	18.88	-41.8	-42.2	5.4	0.00e+00	0	39	104	0	60	21758
2026-01-02 22:13:38.59	103.59	18.84	-41.8	-42.1	5.5	0.00e+00	0	39	104	0	60	21514
2026-01-02 22:13:39.60	103.94	18.80	-41.9	-42.2	5.5	0.00e+00	0	39	104	0	60	21695
2026-01-02 22:13:40.61	104.29	18.75	-41.9	-42.2	5.5	0.00e+00	0	39	104	0	60	21708
2026-01-02 22:13:41.62	104.64	18.71	-42.0	-42.3	5.5	0.00e+00	0	39	104	0	60	21928
2026-01-02 22:13:42.63	104.98	18.66	-42.1	-42.4	5.5	0.00e+00	0	39	104	0	60	22185
2026-01-02 22:13:43.64	105.33	18.61	-42.2	-42.6	5.4	0.00e+00	0	39	104	0	60	22827
2026-01-02 22:13:44.65	105.67	18.57	-42.4	-42.7	5.4	0.00e+00	0	39	104	0	60	23132
2026-01-02 22:13:45.66	106.01	18.52	-42.2	-42.5	5.4	0.00e+00	0	39	104	0	60	22580
2026-01-02 22:13:46.67	106.35	18.47	-42.3	-42.7	5.5	0.00e+00	0	39	104	0	60	23044
2026-01-02 22:13:47.68	106.70	18.42	-42.5	-42.8	5.4	0.00e+00	0	39	104	0	60	23288
2026-01-02 22:13:48.69	107.03	18.37	-42.6	-43.0	5.4	0.00e+00	0	39	104	0	60	23882
2026-01-02 22:13:49.71	107.38	18.32	-42.7	-43.0	5.4	0.00e+00	0	39	104	0	60	23864
2026-01-02 22:13:50.72	107.71	18.26	-42.9	-43.3	5.4	0.00e+00	0	39	104	0	60	24841
2026-01-02 22:13:51.73	108.05	18.21	-43.0	-43.4	5.3	0.00e+00	0	39	104	0	60	24929
2026-01-02 22:13:52.74	108.38	18.16	-43.1	-43.5	5.3	0.00e+00	0	39	104	0	60	25309
2026-01-02 22:13:53.75	108.71	18.10	-43.3	-43.7	5.3	0.00e+00	0	39	104	0	60	25831
2026-01-02 22:13:54.76	109.04	18.05	-43.4	-43.8	5.3	0.00e+00	0	39	104	0	60	26110
2026-01-02 22:13:55.77	109.37	17.99	-43.5	-43.9	5.2	0.00e+00	0	39	104	0	60	26544
2026-01-02 22:13:56.78	109.70	17.93	-43.6	-43.9	5.2	0.00e+00	0	39	104	0	60	26533
2026-01-02 22:13:57.79	110.03	17.88	-43.7	-44.1	5.2	0.00e+00	0	39	104	0	60	27222
2026-01-02 22:13:58.80	110.35	17.82	-43.7	-44.1	5.2	0.00e+00	0	39	104	0	60	27261
2026-01-02 22:13:59.81	110.68	17.76	-43.7	-44.1	5.2	0.00e+00	0	39	104	0	60	27249
2026-01-02 22:14:00.82	111.00	17.70	-43.7	-44.2	5.2	0.00e+00	0	39	104	0	60	27456
2026-01-02 22:14:01.83	111.32	17.64	-43.9	-44.3	5.1	0.00e+00	0	39	104	0	60	27746
2026-01-02 22:14:02.84	111.64	17.58	-43.8	-44.3	5.1	0.00e+00	0	39	104	0	60	27687
2026-01-02 22:14:03.86	111.97	17.52	-43.8	-44.2	5.1	0.00e+00	0	39	104	0	60	27557
2026-01-02 22:14:04.87	112.28	17.46	-43.8	-44.3	5.1	0.00e+00	0	39	104	0	60	27885
2026-01-02 22:14:05.88	112.60	17.40	-44.0	-44.5	5.1	0.00e+00	0	39	104	0	60	28314
2026-01-02 22:14:06.89	112.91	17.33	-44.1	-44.5	5.0	0.00e+00	0	39	104	0	60	28398
2026-01-02 22:14:07.90	113.23	17.27	-44.0	-44.4	5.1	0.00e+00	0	39	104	0	60	28098
2026-01-02 22:14:08.91	113.54	17.21	-44.0	-44.4	5.1	0.00e+00	0	39	104	0	60	28153
2026-01-02 22:14:09.92	113.85	17.14	-44.0	-44.5	5.1	0.00e+00	0	39	104	0	60	28482
2026-01-02 22:14:10.93	114.15	17.08	-44.0	-44.5	5.1	0.00e+00	0	39	104	0	60	28355
2026-01-02 22:14:11.94	114.46	17.01	-44.0	-44.5	5.1	0.00e+00	0	39	104	0	60	28415
2026-01-02 22:14:12.95	114.77	16.95	-43.9	-44.3	5.2	0.00e+00	0	39	104	0	60	27885
2026-01-02 22:14:13.96	115.07	16.88	-43.9	-44.4	5.1	0.00e+00	0	39	104	0	60	27995
2026-01-02 22:14:14.97	115.37	16.81	-43.8	-44.3	5.1	0.00e+00	0	39	104	0	60	27589
2026-01-02 22:14:15.98	115.67	16.75	-43.8	-44.3	5.1	0.00e+00	0	39	104	0	60	27674
2026-01-02 22:14:16.99	115.97	16.68	-43.8	-44.1	5.1	0.00e+00	0	39	104	0	60	27236
2026-01-02 22:14:18.00	116.27	16.61	-43.7	-44.1	5.1	0.00e+00	0	39	104	0	60	27138
2026-01-02 22:14:19.02	116.57	16.54	-43.7	-44.1	5.2	0.00e+00	0	39	104	0	60	26961
2026-01-02 22:14:20.03	116.87	16.47	-43.7	-44.1	5.1	0.00e+00	0	39	104	0	60	27163
2026-01-02 22:14:21.04	117.16	16.40	-43.5	-43.9	5.1	0.00e+00	0	39	104	0	60	26461
2026-01-02 22:14:22.05	117.45	16.33	-43.8	-44.2	5.2	0.00e+00	0	39	104	0	60	27332
2026-01-02 22:14:23.06	117.74	16.26	-43.7	-44.1	5.2	0.00e+00	0	39	104	0	60	27083
2026-01-02 22:14:24.07	118.03	16.19	-43.7	-44.1	5.2	0.00e+00	0	39	104	0	60	27106
2026-01-02 22:14:25.08	118.32	16.12	-43.8	-44.3	5.1	0.00e+00	0	39	104	0	60	27590
2026-01-02 22:14:26.09	118.60	16.05	-44.0	-44.4	5.1	0.00e+00	0	39	104	0	60	27976
2026-01-02 22:14:27.10	118.89	15.98	-44.1	-44.5	5.1	0.00e+00	0	39	104	0	60	28541
2026-01-02 22:14:28.11	119.17	15.91	-44.2	-44.6	5.1	0.00e+00	0	39	104	0	60	28819
2026-01-02 22:14:29.12	119.45	15.84	-44.1	-44.5	5.1	0.00e+00	0	39	104	0	60	28340
2026-01-02 22:14:30.13	119.73	15.76	-44.1	-44.5	5.1	0.00e+00	0	39	104	0	60	28539
2026-01-02 22:14:31.14	120.01	15.69	-44.0	-44.5	5.1	0.00e+00	0	39	104	0	60	28308
2026-01-02 22:14:32.16	120.29	15.62	-44.1	-44.5	5.1	0.00e+00	0	39	104	0	60	28253
2026-01-02 22:14:33.17	120.56	15.54	-44.1	-44.5	5.1	0.00e+00	0	39	104	0	60	28476
2026-01-02 22:14:34.18	120.83	15.47	-44.1	-44.6	5.0	0.00e+00	0	39	104	0	60	28779
2026-01-02 22:14:35.19	121.11	15.40	-44.2	-44.6	5.1	0.00e+00	0	39	104	0	60	28793
2026-01-02 22:14:36.20	121.38	15.32	-44.2	-44.6	5.0	0.00e+00	0	39	104	0	60	28852
2026-01-02 22:14:37.21	121.65	15.25	-44.1	-44.6	5.0	0.00e+00	0	39	104	0	60	28644
2026-01-02 22:14:38.22	121.91	15.17	-44.3	-44.9	5.0	0.00e+00	0	39	104	0	60	29565
2026-01-02 22:14:39.23	122.18	15.10	-44.2	-44.7	5.1	0.00e+00	0	39	104	0	60	28983
2026-01-02 22:14:40.24	122.44	15.03	-44.3	-44.7	5.0	0.00e+00	0	39	104	0	60	29035
2026-01-02 22:14:41.25	122.71	14.95	-44.6	-45.1	5.0	0.00e+00	0	39	104	0	60	30250
2026-01-02 22:14:42.27	122.97	14.87	-44.8	-45.2	4.8	0.00e+00	0	39	104	0	60	30926
2026-01-02 22:14:43.28	123.23	14.80	-44.6	-45.1	5.0	0.00e+00	0	39	104	0	60	30521
2026-01-02 22:14:44.29	123.49	14.72	-44.5	-45.0	5.0	0.00e+00	0	39	104	0	60	30075
2026-01-02 22:14:45.30	123.74	14.65	-44.5	-45.0	5.0	0.00e+00	0	39	104	0	60	29965
2026-01-02 22:14:46.31	124.00	14.57	-44.6	-45.0	4.9	0.00e+00	0	39	104	0	60	30150
2026-01-02 22:14:47.32	124.25	14.49	-44.7	-45.2	4.9	0.00e+00	0	39	104	0	60	30831
2026-01-02 22:14:48.33	124.51	14.42	-44.6	-45.1	4.9	0.00e+00	0	39	104	0	60	30316
2026-01-02 22:14:49.34	124.76	14.34	-44.6	-45.1	4.9	0.00e+00	0	39	104	0	60	30410
2026-01-02 22:14:50.36	125.01	14.26	-44.7	-45.2	4.8	0.00e+00	0	39	104	0	60	30806
2026-01-02 22:14:51.37	125.26	14.19	-44.6	-45.1	4.9	0.00e+00	0	39	104	0	60	30401
2026-01-02 22:14:52.38	125.50	14.11	-44.6	-45.1	4.9	0.00e+00	0	39	104	0	60	30415
2026-01-02 22:14:53.39	125.75	14.03	-44.5	-45.0	4.9	0.00e+00	0	39	104	0	60	30027
2026-01-02 22:14:54.40	125.99	13.96	-44.6	-45.1	4.9	0.00e+00	0	39	104	0	60	30311
2026-01-02 22:14:55.41	126.23	13.88	-44.5	-45.1	4.9	0.00e+00	0	39	104	0	60	30261
2026-01-02 22:14:56.42	126.47	13.80	-44.5	-45.0	4.9	0.00e+00	0	39	104	0	60	29988
2026-01-02 22:14:57.43	126.71	13.72	-44.3	-44.8	4.9	0.00e+00	0	39	104	0	60	29481
2026-01-02 22:14:58.44	126.95	13.65	-44.6	-45.1	5.0	0.00e+00	0	39	104	0	60	30252
2026-01-02 22:14:59.45	127.19	13.57	-44.4	-44.8	5.0	0.00e+00	0	39	104	0	60	29317
2026-01-02 22:15:00.47	127.42	13.49	-44.2	-44.6	5.0	0.00e+00	0	39	104	0	60	28714
2026-01-02 22:15:01.48	127.66	13.41	-44.0	-44.5	5.0	0.00e+00	0	39	104	0	60	28224
2026-01-02 22:15:02.49	127.89	13.34	-44.0	-44.5	5.0	0.00e+00	0	39	104	0	60	28389
2026-01-02 22:15:03.50	128.12	13.26	-44.0	-44.4	5.0	0.00e+00	0	39	104	0	60	28147
2026-01-02 22:15:04.51	128.35	13.18	-44.0	-44.4	5.0	0.00e+00	0	39	104	0	60	28150
2026-01-02 22:15:05.52	128.58	13.10	-44.0	-44.5	5.0	0.00e+00	0	39	104	0	60	28401
2026-01-02 22:15:06.53	128.80	13.02	-43.8	-44.3	5.0	0.00e+00	0	39	104	0	60	27634
2026-01-02 22:15:07.54	129.03	12.95	-44.0	-44.4	5.0	0.00e+00	0	39	104	0	60	28156
2026-01-02 22:15:08.55	129.25	12.87	-44.0	-44.4	5.0	0.00e+00	0	39	104	0	60	27983
2026-01-02 22:15:09.56	129.47	12.79	-44.0	-44.5	5.0	0.00e+00	0	39	104	0	60	28250
2026-01-02 22:15:10.57	129.70	12.71	-44.1	-44.6	5.0	0.00e+00	0	39	104	0	60	28733
2026-01-02 22:15:11.58	129.91	12.63	-44.1	-44.6	4.9	0.00e+00	0	39	104	0	60	28617
2026-01-02 22:15:12.60	130.14	12.55	-44.1	-44.6	5.0	0.00e+00	0	39	104	0	60	28638
2026-01-02 22:15:13.61	130.35	12.48	-44.4	-44.9	4.9	0.00e+00	0	39	104	0	60	29611
2026-01-02 22:15:14.62	130.57	12.40	-44.4	-44.8	4.9	0.00e+00	0	39	104	0	60	29465
2026-01-02 22:15:15.63	130.78	12.32	-44.5	-45.0	4.9	0.00e+00	0	39	104	0	60	30116
2026-01-02 22:15:16.64	131.00	12.24	-44.6	-45.1	4.9	0.00e+00	0	39	104	0	60	30401
2026-01-02 22:15:17.65	131.21	12.16	-44.5	-44.9	4.9	0.00e+00	0	39	104	0	60	29813
2026-01-02 22:15:18.66	131.42	12.08	-44.6	-45.0	4.9	0.00e+00	0	39	104	0	60	30131
2026-01-02 22:15:19.67	131.63	12.01	-44.7	-45.3	4.9	0.00e+00	0	39	104	0	60	31010
2026-01-02 22:15:20.68	131.83	11.93	-44.8	-45.3	4.9	0.00e+00	0	39	104	0	60	31104
2026-01-02 22:15:21.69	132.04	11.85	-44.7	-45.2	4.9	0.00e+00	0	39	104	0	60	30879
2026-01-02 22:15:22.70	132.25	11.77	-44.9	-45.4	4.9	0.00e+00	0	39	104	0	60	31513
2026-01-02 22:15:23.71	132.45	11.69	-44.9	-45.5	4.9	0.00e+00	0	39	104	0	60	31779
2026-01-02 22:15:24.73	132.65	11.62	-44.9	-45.5	4.9	0.00e+00	0	39	104	0	60	31666
2026-01-02 22:15:25.74	132.86	11.54	-45.0	-45.6	4.8	0.00e+00	0	39	104	0	60	32241
2026-01-02 22:15:26.75	133.06	11.46	-45.0	-45.5	4.8	0.00e+00	0	39	104	0	60	31965
2026-01-02 22:15:27.76	133.26	11.38	-45.1	-45.6	4.9	0.00e+00	0	39	104	0	60	32095
2026-01-02 22:15:28.77	133.45	11.30	-45.1	-45.7	4.9	0.00e+00	0	39	104	0	60	32643
2026-01-02 22:15:29.78	133.65	11.23	-45.1	-45.7	4.8	0.00e+00	0	39	104	0	60	32587
2026-01-02 22:15:30.79	133.85	11.15	-45.1	-45.6	4.8	0.00e+00	0	39	104	0	60	32381
2026-01-02 22:15:31.80	134.04	11.07	-44.9	-45.5	4.9	0.00e+00	0	39	104	0	60	31795
2026-01-02 22:15:32.81	134.23	10.99	-44.9	-45.5	4.9	0.00e+00	0	39	104	0	60	31832
2026-01-02 22:15:33.83	134.43	10.92	-44.9	-45.4	4.9	0.00e+00	0	39	104	0	60	31525
2026-01-02 22:15:34.84	134.62	10.84	-44.9	-45.4	4.9	0.00e+00	0	39	104	0	60	31399
2026-01-02 22:15:35.85	134.81	10.76	-44.9	-45.5	4.9	0.00e+00	0	39	104	0	60	31664
2026-01-02 22:15:36.86	134.99	10.68	-44.8	-45.4	4.9	0.00e+00	0	39	104	0	60	31334
2026-01-02 22:15:37.87	135.18	10.61	-44.8	-45.4	4.9	0.00e+00	0	39	104	0	60	31490
2026-01-02 22:15:38.88	135.37	10.53	-44.8	-45.3	4.9	0.00e+00	0	39	104	0	60	31210
2026-01-02 22:15:39.89	135.55	10.45	-44.9	-45.4	4.9	0.00e+00	0	39	104	0	60	31435
2026-01-02 22:15:40.91	135.74	10.37	-45.0	-45.5	4.8	0.00e+00	0	39	104	0	60	32005
2026-01-02 22:15:41.92	135.92	10.30	-44.8	-45.4	4.9	0.00e+00	0	39	104	0	60	31346
2026-01-02 22:15:42.93	136.10	10.22	-44.9	-45.4	4.9	0.00e+00	0	39	104	0	60	31506
2026-01-02 22:15:43.94	136.28	10.14	-44.9	-45.4	4.9	0.00e+00	0	39	104	0	60	31428
2026-01-02 22:15:44.95	136.46	10.07	-44.8	-45.4	4.9	0.00e+00	0	39	104	0	60	31348
2026-01-02 22:15:45.96	136.64	9.99	-44.8	-45.3	4.9	0.00e+00	0	39	104	0	60	31123
2026-01-02 22:15:46.97	136.82	9.91	-44.8	-45.3	4.9	0.00e+00	0	39	104	0	60	31052
2026-01-02 22:15:47.98	136.99	9.84	-44.8	-45.3	4.8	0.00e+00	0	39	104	0	60	31247
2026-01-02 22:15:48.99	137.17	9.76	-44.9	-45.5	4.9	0.00e+00	0	39	104	0	60	31693
2026-01-02 22:15:50.00	137.34	9.69	-44.8	-45.3	4.9	0.00e+00	0	39	104	0	60	31129
2026-01-02 22:15:51.01	137.51	9.61	-45.1	-45.6	4.8	0.00e+00	0	39	104	0	60	32273
2026-01-02 22:15:52.02	137.68	9.53	-45.0	-45.5	4.9	0.00e+00	0	39	104	0	60	31706
2026-01-02 22:15:53.03	137.86	9.46	-45.0	-45.4	4.8	0.00e+00	0	39	104	0	60	31549
2026-01-02 22:15:54.04	138.03	9.38	-45.0	-45.6	4.8	0.00e+00	0	39	104	0	60	32118
2026-01-02 22:15:55.06	138.20	9.31	-45.0	-45.4	4.8	0.00e+00	0	39	104	0	60	31654
2026-01-02 22:15:56.07	138.36	9.23	-45.1	-45.6	4.8	0.00e+00	0	39	104	0	60	32053
2026-01-02 22:15:57.08	138.53	9.16	-45.1	-45.6	4.8	0.00e+00	0	39	104	0	60	32229
2026-01-02 22:15:58.09	138.69	9.08	-45.0	-45.5	4.8	0.00e+00	0	39	104	0	60	31984
2026-01-02 22:15:59.10	138.86	9.01	-45.1	-45.7	4.8	0.00e+00	0	39	104	0	60	32771
2026-01-02 22:16:00.11	139.02	8.93	-45.1	-45.7	4.8	0.00e+00	0	39	104	0	60	32549
2026-01-02 22:16:01.12	139.19	8.86	-45.0	-45.6	4.8	0.00e+00	0	39	104	0	60	32098
2026-01-02 22:16:02.13	139.35	8.78	-45.0	-45.5	4.8	0.00e+00	0	39	104	0	60	31991
2026-01-02 22:16:03.14	139.51	8.71	-44.9	-45.5	4.8	0.00e+00	0	39	104	0	60	31753
2026-01-02 22:16:04.15	139.67	8.63	-45.0	-45.5	4.8	0.00e+00	0	39	104	0	60	31846
2026-01-02 22:16:05.16	139.83	8.56	-45.0	-45.6	4.8	0.00e+00	0	39	104	0	60	32211
2026-01-02 22:16:06.17	139.98	8.48	-45.2	-45.8	4.8	0.00e+00	0	39	104	0	60	32986
2026-01-02 22:16:07.18	140.14	8.41	-45.1	-45.7	4.8	0.00e+00	0	39	104	0	60	32596
2026-01-02 22:16:08.19	140.30	8.34	-45.3	-45.9	4.7	0.00e+00	0	39	104	0	60	33372
2026-01-02 22:16:09.20	140.45	8.26	-45.3	-45.8	4.8	0.00e+00	0	39	104	0	60	32887
2026-01-02 22:16:10.21	140.60	8.19	-45.2	-45.8	4.8	0.00e+00	0	39	104	0	60	32972
2026-01-02 22:16:11.22	140.76	8.12	-45.2	-45.7	4.8	0.00e+00	0	39	104	0	60	32757
2026-01-02 22:16:12.23	140.91	8.04	-45.3	-45.8	4.8	0.00e+00	0	39	104	0	60	33021
2026-01-02 22:16:13.24	141.06	7.97	-45.4	-45.9	4.8	0.00e+00	0	39	104	0	60	33413
2026-01-02 22:16:14.25	141.21	7.90	-45.3	-45.8	4.8	0.00e+00	0	39	104	0	60	33133
2026-01-02 22:16:15.26	141.36	7.82	-45.3	-45.9	4.8	0.00e+00	0	39	104	0	60	33257
2026-01-02 22:16:16.27	141.51	7.75	-45.2	-45.7	4.8	0.00e+00	0	39	104	0	60	32423
2026-01-02 22:16:17.28	141.66	7.68	-45.2	-45.7	4.8	0.00e+00	0	39	104	0	60	32746
2026-01-02 22:16:18.29	141.80	7.60	-45.4	-46.0	4.7	0.00e+00	0	39	104	0	60	33613
2026-01-02 22:16:19.31	141.95	7.53	-45.4	-46.0	4.7	0.00e+00	0	39	104	0	60	33871
2026-01-02 22:16:20.32	142.10	7.46	-45.3	-45.8	4.7	0.00e+00	0	39	104	0	60	32995
2026-01-02 22:16:21.33	142.24	7.39	-45.1	-45.6	4.8	0.00e+00	0	39	104	0	60	32260
2026-01-02 22:16:22.34	142.38	7.31	-45.2	-45.7	4.7	0.00e+00	0	39	104	0	60	32587
2026-01-02 22:16:23.35	142.53	7.24	-45.1	-45.7	4.8	0.00e+00	0	39	104	0	60	32533
2026-01-02 22:16:24.36	142.67	7.17	-45.1	-45.7	4.7	0.00e+00	0	39	104	0	60	32590
2026-01-02 22:16:25.37	142.81	7.10	-45.3	-45.8	4.7	0.00e+00	0	39	104	0	60	33091
2026-01-02 22:16:26.38	142.95	7.03	-45.2	-45.8	4.8	0.00e+00	0	39	104	0	60	32905
2026-01-02 22:16:27.39	143.09	6.96	-45.3	-45.8	4.7	0.00e+00	0	39	104	0	60	33061
2026-01-02 22:16:28.40	143.23	6.88	-45.4	-45.9	4.7	0.00e+00	0	39	104	0	60	33526
2026-01-02 22:16:29.42	143.36	6.81	-45.3	-45.8	4.7	0.00e+00	0	39	104	0	60	33132
2026-01-02 22:16:30.42	143.50	6.74	-45.5	-46.0	4.7	0.00e+00	0	39	104	0	60	33833
2026-01-02 22:16:31.44	143.64	6.67	-45.6	-46.2	4.7	0.00e+00	0	39	104	0	60	34513
2026-01-02 22:16:32.45	143.77	6.60	-45.7	-46.3	4.6	0.00e+00	0	39	104	0	60	35013
2026-01-02 22:16:33.46	143.91	6.53	-45.8	-46.5	4.6	0.00e+00	0	39	104	0	60	35570
2026-01-02 22:16:34.47	144.04	6.46	-45.7	-46.4	4.6	0.00e+00	0	39	104	0	60	35128
2026-01-02 22:16:35.48	144.17	6.39	-45.7	-46.4	4.6	0.00e+00	0	39	104	0	60	35270
2026-01-02 22:16:36.49	144.31	6.32	-45.7	-46.3	4.6	0.00e+00	0	39	104	0	60	35028
2026-01-02 22:16:37.50	144.44	6.25	-45.8	-46.4	4.5	0.00e+00	0	39	104	0	60	35341
2026-01-02 22:16:38.51	144.57	6.18	-45.8	-46.5	4.5	0.00e+00	0	39	104	0	60	35802
2026-01-02 22:16:39.52	144.70	6.11	-45.9	-46.6	4.5	0.00e+00	0	39	104	0	60	36047
2026-01-02 22:16:40.53	144.83	6.04	-45.8	-46.4	4.6	0.00e+00	0	39	104	0	60	35214
2026-01-02 22:16:41.54	144.96	5.97	-45.8	-46.4	4.6	0.00e+00	0	39	104	0	60	35194
2026-01-02 22:16:42.55	145.08	5.90	-45.9	-46.6	4.5	0.00e+00	0	39	104	0	60	36176
2026-01-02 22:16:43.56	145.21	5.83	-46.0	-46.6	4.5	0.00e+00	0	39	104	0	60	36301
2026-01-02 22:16:44.57	145.34	5.76	-46.0	-46.7	4.5	0.00e+00	0	39	104	0	60	36721
2026-01-02 22:16:45.58	145.46	5.69	-46.2	-46.9	4.4	0.00e+00	0	39	104	0	60	37530
2026-01-02 22:16:46.60	145.59	5.62	-46.2	-46.9	4.3	0.00e+00	0	39	104	0	60	37620
2026-01-02 22:16:47.61	145.71	5.56	-46.3	-47.1	4.3	0.00e+00	0	39	104	0	60	38367
2026-01-02 22:16:48.62	145.84	5.49	-46.3	-47.2	4.2	0.00e+00	0	39	104	0	60	38613
2026-01-02 22:16:49.63	145.96	5.42	-46.5	-47.4	4.1	0.00e+00	0	39	104	0	60	39667
2026-01-02 22:16:50.64	146.08	5.35	-46.8	-47.8	4.0	0.00e+00	0	39	104	0	60	41653
2026-01-02 22:16:51.65	146.20	5.28	-46.9	-47.9	4.0	0.00e+00	0	39	104	0	60	42005
2026-01-02 22:16:52.66	146.32	5.22	-47.2	-48.3	3.9	0.00e+00	0	39	104	0	60	43988
2026-01-02 22:16:53.67	146.44	5.15	-47.5	-48.7	3.8	0.00e+00	0	39	104	0	60	46148
2026-01-02 22:16:54.68	146.56	5.08	-47.5	-49.0	3.8	0.00e+00	0	39	104	0	60	47437
2026-01-02 22:16:55.69	146.68	5.01	-47.5	-49.0	3.7	0.00e+00	0	39	104	0	60	47485
2026-01-02 22:16:56.70	146.80	4.94	-47.6	-49.2	3.6	0.00e+00	0	39	104	0	60	48816
2026-01-02 22:16:57.71	146.92	4.88	-47.7	-49.4	3.6	0.00e+00	0	39	104	0	60	49905
2026-01-02 22:16:58.72	147.03	4.81	-47.9	-49.7	3.6	0.00e+00	0	39	104	0	60	51636
2026-01-02 22:16:59.73	147.15	4.74	-47.9	-49.9	3.6	0.00e+00	0	39	104	0	60	52555
2026-01-02 22:17:00.74	147.26	4.68	-48.0	-50.0	3.5	0.00e+00	0	39	104	0	60	53726
2026-01-02 22:17:01.75	147.38	4.61	-48.1	-50.2	3.6	0.00e+00	0	39	104	0	60	54479
2026-01-02 22:17:02.76	147.49	4.54	-48.1	-50.3	3.6	0.00e+00	0	39	104	0	60	55376
2026-01-02 22:17:03.77	147.61	4.48	-48.1	-50.4	3.6	0.00e+00	0	39	104	0	60	55671
2026-01-02 22:17:04.78	147.72	4.41	-48.1	-50.4	3.6	0.00e+00	0	39	104	0	60	55971
2026-01-02 22:17:05.79	147.83	4.35	-48.0	-50.4	3.6	0.00e+00	0	39	104	0	60	56076
2026-01-02 22:17:06.80	147.94	4.28	-48.1	-50.4	3.6	0.00e+00	0	39	104	0	60	56230
2026-01-02 22:17:07.81	148.05	4.21	-48.0	-50.4	3.6	0.00e+00	0	39	104	0	60	56135
2026-01-02 22:17:08.82	148.16	4.15	-48.0	-50.4	3.6	0.00e+00	0	39	104	0	60	56113
2026-01-02 22:17:09.83	148.27	4.08	-47.9	-50.4	3.6	0.00e+00	0	39	104	0	60	55856
2026-01-02 22:17:10.85	148.39	4.02	-47.9	-50.4	3.6	0.00e+00	0	39	104	0	60	56036
2026-01-02 22:17:11.85	148.49	3.95	-47.9	-50.4	3.6	0.00e+00	0	39	104	0	60	55740
2026-01-02 22:17:12.87	148.60	3.89	-47.8	-50.4	3.6	0.00e+00	0	39	104	0	60	55671
2026-01-02 22:17:13.88	148.71	3.82	-47.9	-50.4	3.6	0.00e+00	0	39	104	0	60	55759
2026-01-02 22:17:14.89	148.82	3.76	-47.8	-50.3	3.6	0.00e+00	0	39	104	0	60	55379
2026-01-02 22:17:15.90	148.92	3.69	-47.9	-50.4	3.6	0.00e+00	0	39	104	0	60	55734
2026-01-02 22:17:16.91	149.03	3.63	-47.8	-50.3	3.6	0.00e+00	0	39	104	0	60	55167
2026-01-02 22:17:17.92	149.13	3.56	-47.8	-50.2	3.6	0.00e+00	0	39	104	0	60	54906
2026-01-02 22:17:18.93	149.24	3.50	-47.8	-50.3	3.6	0.00e+00	0	39	104	0	60	55340
2026-01-02 22:17:19.94	149.34	3.43	-47.8	-50.3	3.6	0.00e+00	0	39	104	0	60	55483
2026-01-02 22:17:20.95	149.45	3.37	-47.8	-50.3	3.6	0.00e+00	0	39	104	0	60	55132
2026-01-02 22:17:21.96	149.55	3.31	-47.8	-50.2	3.6	0.00e+00	0	39	104	0	60	54989
2026-01-02 22:17:22.97	149.65	3.24	-47.8	-50.3	3.6	0.00e+00	0	39	104	0	60	55195
2026-01-02 22:17:23.98	149.75	3.18	-47.8	-50.2	3.6	0.00e+00	0	39	104	0	60	54924
2026-01-02 22:17:25.00	149.86	3.11	-47.8	-50.3	3.6	0.00e+00	0	39	104	0	60	55510
2026-01-02 22:17:26.01	149.96	3.05	-47.8	-50.3	3.6	0.00e+00	0	39	104	0	60	55088
2026-01-02 22:17:27.02	150.06	2.99	-47.8	-50.3	3.6	0.00e+00	0	39	104	0	60	55174
2026-01-02 22:17:28.03	150.16	2.92	-47.7	-50.2	3.5	0.00e+00	0	39	104	0	60	54932
2026-01-02 22:17:29.04	150.26	2.86	-47.8	-50.2	3.6	0.00e+00	0	39	104	0	60	54933
2026-01-02 22:17:30.05	150.36	2.80	-47.8	-50.2	3.6	0.00e+00	0	39	104	0	60	55006
2026-01-02 22:17:31.06	150.46	2.73	-47.8	-50.2	3.6	0.00e+00	0	39	104	0	60	54655
2026-01-02 22:17:32.07	150.55	2.67	-47.8	-50.2	3.6	0.00e+00	0	39	104	0	60	54894
2026-01-02 22:17:33.08	150.65	2.61	-47.8	-50.2	3.6	0.00e+00	0	39	104	0	60	54873
2026-01-02 22:17:34.09	150.75	2.55	-51.2	-53.6	3.6	0.00e+00	0	39	104	0	60	81383
2026-01-02 22:17:35.11	150.85	2.48	-51.8	-54.3	3.6	0.00e+00	0	39	104	0	60	87694
2026-01-02 22:17:36.11	150.94	2.42	-52.0	-54.6	3.6	0.00e+00	0	39	104	0	60	90305
2026-01-02 22:17:37.13	151.04	2.36	-52.3	-54.8	3.6	0.00e+00	0	39	104	0	60	92528
2026-01-02 22:17:38.14	151.13	2.30	-52.4	-55.0	3.6	0.00e+00	0	39	104	0	60	94546
2026-01-02 22:17:39.15	151.23	2.24	-52.4	-54.9	3.6	0.00e+00	0	39	104	0	60	93984
2026-01-02 22:17:40.16	151.32	2.17	-52.5	-55.0	3.6	0.00e+00	0	39	104	0	60	95396
2026-01-02 22:17:41.17	151.41	2.11	-52.5	-55.0	3.6	0.00e+00	0	39	104	0	60	94965
2026-01-02 22:17:42.18	151.51	2.05	-52.4	-54.9	3.6	0.00e+00	0	39	104	0	60	94467
2026-01-02 22:17:43.19	151.60	1.99	-52.4	-55.0	3.6	0.00e+00	0	39	104	0	60	95318
2026-01-02 22:17:44.20	151.69	1.93	-52.5	-55.0	3.6	0.00e+00	0	39	104	0	60	94656
2026-01-02 22:17:45.21	151.78	1.87	-52.4	-54.9	3.6	0.00e+00	0	39	104	0	60	94070
2026-01-02 22:17:46.22	151.87	1.81	-52.4	-54.9	3.6	0.00e+00	0	39	104	0	60	94345
2026-01-02 22:17:47.23	151.96	1.75	-52.5	-55.0	3.6	0.00e+00	0	39	104	0	60	94728
2026-01-02 22:17:48.25	152.06	1.68	-52.3	-54.8	3.6	0.00e+00	0	39	104	0	60	93147
2026-01-02 22:17:49.26	152.15	1.62	-52.5	-55.0	3.6	0.00e+00	0	39	104	0	60	94688
2026-01-02 22:17:50.27	152.24	1.56	-52.6	-55.0	3.6	0.00e+00	0	39	104	0	60	94717
2026-01-02 22:17:51.28	152.32	1.50	-52.5	-55.0	3.6	0.00e+00	0	39	104	0	60	95141
2026-01-02 22:17:52.29	152.41	1.44	-52.5	-55.0	3.6	0.00e+00	0	39	104	0	60	94898
2026-01-02 22:17:53.30	152.50	1.38	-52.5	-55.0	3.6	0.00e+00	0	39	104	0	60	94735
2026-01-02 22:17:54.31	152.59	1.32	-52.5	-54.9	3.6	0.00e+00	0	39	104	0	60	94519
2026-01-02 22:17:55.32	152.68	1.26	-52.5	-55.0	3.6	0.00e+00	0	39	104	0	60	94623
2026-01-02 22:17:56.33	152.76	1.20	-52.5	-54.9	3.6	0.00e+00	0	39	104	0	60	94419
2026-01-02 22:17:57.34	152.85	1.14	-52.5	-54.9	3.6	0.00e+00	0	39	104	0	60	94363
2026-01-02 22:17:58.35	152.94	1.08	-52.5	-55.0	3.6	0.00e+00	0	39	104	0	60	94612
2026-01-02 22:17:59.36	153.02	1.02	-52.5	-55.0	3.6	0.00e+00	0	39	104	0	60	94537
2026-01-02 22:18:00.37	153.11	0.97	-52.5	-55.0	3.6	0.00e+00	0	39	104	0	60	95110
2026-01-02 22:18:01.38	153.19	0.91	-52.5	-55.0	3.6	0.00e+00	0	39	104	0	60	94818
2026-01-02 22:18:02.40	153.28	0.85	-52.5	-55.0	3.6	0.00e+00	0	39	104	0	60	94600
2026-01-02 22:18:03.40	153.36	0.79	-52.5	-55.0	3.6	0.00e+00	0	39	104	0	60	94739
2026-01-02 22:18:04.42	153.44	0.73	-52.5	-55.0	3.6	0.00e+00	0	39	104	0	60	94660
2026-01-02 22:18:05.42	153.53	0.67	-52.5	-55.0	3.6	0.00e+00	0	39	104	0	60	94649
2026-01-02 22:18:06.43	153.61	0.61	-52.5	-55.0	3.6	0.00e+00	0	39	104	0	60	94874
2026-01-02 22:18:07.44	153.69	0.55	-52.5	-55.0	3.6	0.00e+00	0	39	104	0	60	94974
2026-01-02 22:18:08.46	153.77	0.49	-52.5	-55.0	3.6	0.00e+00	0	39	104	0	60	94548
2026-01-02 22:18:09.46	153.85	0.44	-52.5	-55.0	3.6	0.00e+00	0	39	104	0	60	94594
2026-01-02 22:18:10.47	153.94	0.38	-52.5	-55.0	3.5	0.00e+00	0	39	104	0	60	94654
2026-01-02 22:18:11.48	154.02	0.32	-52.5	-54.9	3.6	0.00e+00	0	39	104	0	60	94250
2026-01-02 22:18:12.49	154.10	0.26	-52.5	-55.0	3.6	0.00e+00	0	39	104	0	60	94799
2026-01-02 22:18:13.50	154.18	0.20	-52.5	-54.9	3.6	0.00e+00	0	39	104	0	60	94375
2026-01-02 22:18:14.51	154.26	0.15	-52.5	-55.0	3.6	0.00e+00	0	39	104	0	60	94804
2026-01-02 22:18:15.52	154.34	0.09	-52.5	-55.0	3.6	0.00e+00	0	39	104	0	60	94607
2026-01-02 22:18:16.53	154.42	0.03	-52.5	-54.9	3.6	0.00e+00	0	39	104	0	60	94519
2026-01-02 22:18:17.55	154.49	-0.03	-52.5	-54.9	3.6	0.00e+00	0	39	104	0	60	94411

#Closed at: 2026-01-02 22:18:18
#Recorded file [0 MB]: D:/lorett/data/35034_260103_010734.dat