passes_logs/2026/01/02/R4.6S_Anadyr_2ch/R4.6S_Anadyr_2ch__20260102_104848_2025-108B_rec.log

#Pass ID: 20260102_104848_2025-108B
#Satellite: 2025-108B
#Configuration: 3PB_600M
#almurnet v.1.7.20251203
#Start time: 2026-01-02 10:48:52

#Version: 2.2.20231116
#Station: R4.6S_Anadyr_2ch
#Location: 177.4865 lon 64.73178 lat
#TLE: 1 64088U 25108B   25351.01672131  .00008460  00000+0  43413-3 0  9994
#TLE: 2 64088  97.4940  63.8579 0011684 285.1423  74.8517 15.16717580 31720

#Time	Az	El	Level	Level2	SNR	BER	BlckErr	Temp	State	Recorded	gain1	gain2
2026-01-02 10:48:52.03	196.90	0.21	-51.9	-52.9	3.3	0.00e+00	0	36	0	0	60	74914
2026-01-02 10:48:53.04	196.96	0.27	-51.9	-54.4	3.6	0.00e+00	0	36	104	0	60	88794
2026-01-02 10:48:54.05	197.03	0.33	-51.9	-54.4	3.6	0.00e+00	0	36	104	0	60	88294
2026-01-02 10:48:55.06	197.09	0.39	-51.9	-54.5	3.6	0.00e+00	0	36	104	0	60	89266
2026-01-02 10:48:56.07	197.16	0.45	-51.9	-54.3	3.5	0.00e+00	0	36	104	0	60	88113
2026-01-02 10:48:57.08	197.23	0.51	-51.9	-54.4	3.6	0.00e+00	0	36	104	0	60	88233
2026-01-02 10:48:58.09	197.29	0.57	-51.9	-54.4	3.6	0.00e+00	0	36	104	0	60	88703
2026-01-02 10:48:59.10	197.36	0.63	-52.0	-54.4	3.6	0.00e+00	0	36	104	0	60	89032
2026-01-02 10:49:00.11	197.43	0.69	-52.0	-54.4	3.6	0.00e+00	0	36	104	0	60	88639
2026-01-02 10:49:01.12	197.50	0.75	-52.0	-54.4	3.6	0.00e+00	0	36	104	0	60	88752
2026-01-02 10:49:02.13	197.57	0.82	-52.0	-54.4	3.6	0.00e+00	0	36	104	0	60	88584
2026-01-02 10:49:03.14	197.63	0.88	-51.9	-54.4	3.6	0.00e+00	0	36	104	0	60	88597
2026-01-02 10:49:04.15	197.70	0.94	-51.9	-54.4	3.6	0.00e+00	0	36	104	0	60	88807
2026-01-02 10:49:05.16	197.77	1.00	-51.9	-54.4	3.6	0.00e+00	0	36	104	0	60	88617
2026-01-02 10:49:06.17	197.84	1.06	-51.9	-54.4	3.6	0.00e+00	0	36	104	0	60	88750
2026-01-02 10:49:07.18	197.91	1.13	-51.9	-54.4	3.6	0.00e+00	0	36	104	0	60	88830
2026-01-02 10:49:08.19	197.98	1.19	-51.9	-54.4	3.6	0.00e+00	0	36	104	0	60	88551
2026-01-02 10:49:09.21	198.05	1.25	-51.9	-54.4	3.6	0.00e+00	0	36	104	0	60	88836
2026-01-02 10:49:10.22	198.12	1.31	-52.0	-54.4	3.6	0.00e+00	0	36	104	0	60	88974
2026-01-02 10:49:11.23	198.20	1.38	-52.0	-54.4	3.6	0.00e+00	0	36	104	0	60	88588
2026-01-02 10:49:12.24	198.27	1.44	-51.9	-54.4	3.6	0.00e+00	0	36	104	0	60	88641
2026-01-02 10:49:13.25	198.34	1.50	-52.0	-54.4	3.6	0.00e+00	0	36	104	0	60	89047
2026-01-02 10:49:14.26	198.41	1.56	-52.0	-54.4	3.6	0.00e+00	0	36	104	0	60	88346
2026-01-02 10:49:15.27	198.48	1.63	-52.0	-54.4	3.6	0.00e+00	0	36	104	0	60	89059
2026-01-02 10:49:16.28	198.56	1.69	-52.0	-54.4	3.6	0.00e+00	0	36	104	0	60	89177
2026-01-02 10:49:17.29	198.63	1.75	-52.0	-54.4	3.5	0.00e+00	0	36	104	0	60	88530
2026-01-02 10:49:18.31	198.71	1.82	-52.0	-54.4	3.5	0.00e+00	0	36	104	0	60	89024
2026-01-02 10:49:19.32	198.78	1.88	-52.0	-54.4	3.6	0.00e+00	0	36	104	0	60	88699
2026-01-02 10:49:20.33	198.86	1.95	-52.0	-54.5	3.6	0.00e+00	0	36	104	0	60	89388
2026-01-02 10:49:21.34	198.93	2.01	-52.0	-54.4	3.6	0.00e+00	0	36	104	0	60	88506
2026-01-02 10:49:22.35	199.01	2.07	-52.0	-54.4	3.6	0.00e+00	0	36	104	0	60	89204
2026-01-02 10:49:23.36	199.08	2.14	-52.0	-54.4	3.6	0.00e+00	0	36	104	0	60	88908
2026-01-02 10:49:24.37	199.16	2.20	-52.0	-54.4	3.6	0.00e+00	0	36	104	0	60	89024
2026-01-02 10:49:25.38	199.23	2.27	-52.0	-54.4	3.6	0.00e+00	0	36	104	0	60	89045
2026-01-02 10:49:26.39	199.31	2.33	-52.0	-54.4	3.6	0.00e+00	0	37	104	0	60	88865
2026-01-02 10:49:27.40	199.39	2.40	-52.0	-54.4	3.6	0.00e+00	0	37	104	0	60	88471
2026-01-02 10:49:28.41	199.47	2.46	-52.0	-54.4	3.6	0.00e+00	0	37	104	0	60	88822
2026-01-02 10:49:29.42	199.55	2.53	-52.0	-54.3	3.6	0.00e+00	0	36	104	0	60	88145
2026-01-02 10:49:30.43	199.62	2.59	-52.0	-54.4	3.6	0.00e+00	0	37	104	0	60	88857
2026-01-02 10:49:31.44	199.70	2.66	-52.0	-54.5	3.6	0.00e+00	0	37	104	0	60	89357
2026-01-02 10:49:32.45	199.78	2.73	-52.0	-54.4	3.6	0.00e+00	0	37	104	0	60	89167
2026-01-02 10:49:33.46	199.86	2.79	-52.0	-54.4	3.5	0.00e+00	0	37	104	0	60	89233
2026-01-02 10:49:34.47	199.94	2.86	-52.0	-54.5	3.6	0.00e+00	0	37	104	0	60	89349
2026-01-02 10:49:35.49	200.02	2.93	-52.0	-54.4	3.6	0.00e+00	0	37	104	0	60	88787
2026-01-02 10:49:36.50	200.11	2.99	-52.0	-54.4	3.6	0.00e+00	0	37	104	0	60	88809
2026-01-02 10:49:37.51	200.19	3.06	-52.0	-54.4	3.6	0.00e+00	0	37	104	0	60	89207
2026-01-02 10:49:38.52	200.27	3.13	-52.0	-54.4	3.6	0.00e+00	0	37	104	0	60	88894
2026-01-02 10:49:39.53	200.35	3.19	-51.9	-54.4	3.6	0.00e+00	0	37	104	0	60	88964
2026-01-02 10:49:40.54	200.44	3.26	-51.9	-54.4	3.6	0.00e+00	0	37	104	0	60	88739
2026-01-02 10:49:41.55	200.52	3.33	-52.0	-54.4	3.6	0.00e+00	0	37	104	0	60	88740
2026-01-02 10:49:42.56	200.60	3.39	-52.0	-54.4	3.6	0.00e+00	0	37	104	0	60	89153
2026-01-02 10:49:43.57	200.69	3.46	-52.0	-54.4	3.6	0.00e+00	0	37	104	0	60	88914
2026-01-02 10:49:44.59	200.77	3.53	-51.9	-54.4	3.6	0.00e+00	0	37	104	0	60	88714
2026-01-02 10:49:45.60	200.86	3.60	-51.9	-54.4	3.6	0.00e+00	0	37	104	0	60	88820
2026-01-02 10:49:46.61	200.94	3.67	-51.9	-54.4	3.6	0.00e+00	0	37	104	0	60	88822
2026-01-02 10:49:47.62	201.03	3.74	-51.9	-54.4	3.6	0.00e+00	0	37	104	0	60	88427
2026-01-02 10:49:48.63	201.12	3.80	-52.0	-54.4	3.6	0.00e+00	0	37	104	0	60	88908
2026-01-02 10:49:49.64	201.21	3.87	-52.0	-54.4	3.6	0.00e+00	0	37	104	0	60	89003
2026-01-02 10:49:50.65	201.29	3.94	-52.0	-54.4	3.6	0.00e+00	0	37	104	0	60	88842
2026-01-02 10:49:51.66	201.38	4.01	-52.0	-54.4	3.5	0.00e+00	0	37	104	0	60	89222
2026-01-02 10:49:52.67	201.47	4.08	-51.9	-54.4	3.6	0.00e+00	0	37	104	0	60	88437
2026-01-02 10:49:53.68	201.56	4.15	-51.9	-54.4	3.6	0.00e+00	0	37	104	0	60	88738
2026-01-02 10:49:54.70	201.65	4.22	-51.9	-54.4	3.6	0.00e+00	0	37	104	0	60	88667
2026-01-02 10:49:55.70	201.74	4.29	-51.9	-54.3	3.6	0.00e+00	0	37	104	0	60	88120
2026-01-02 10:49:56.71	201.83	4.36	-51.9	-54.4	3.6	0.00e+00	0	37	104	0	60	88443
2026-01-02 10:49:57.73	201.92	4.43	-51.9	-54.4	3.6	0.00e+00	0	37	104	0	60	88594
2026-01-02 10:49:58.74	202.01	4.50	-51.9	-54.4	3.6	0.00e+00	0	37	104	0	60	88464
2026-01-02 10:49:59.75	202.11	4.57	-51.9	-54.4	3.6	0.00e+00	0	37	104	0	60	88889
2026-01-02 10:50:00.76	202.20	4.64	-51.9	-54.3	3.6	0.00e+00	0	37	104	0	60	88212
2026-01-02 10:50:01.77	202.29	4.71	-51.9	-54.4	3.6	0.00e+00	0	37	104	0	60	89230
2026-01-02 10:50:02.78	202.39	4.78	-51.9	-54.4	3.6	0.00e+00	0	37	104	0	60	88907
2026-01-02 10:50:03.79	202.48	4.86	-51.9	-54.4	3.6	0.00e+00	0	37	104	0	60	88652
2026-01-02 10:50:04.80	202.58	4.93	-51.9	-54.4	3.6	0.00e+00	0	37	104	0	60	88765
2026-01-02 10:50:05.81	202.67	5.00	-51.9	-54.4	3.6	0.00e+00	0	37	104	0	60	88476
2026-01-02 10:50:06.82	202.77	5.07	-51.9	-54.4	3.6	0.00e+00	0	37	104	0	60	88641
2026-01-02 10:50:07.83	202.87	5.14	-51.9	-54.4	3.6	0.00e+00	0	37	104	0	60	88764
2026-01-02 10:50:08.84	202.96	5.22	-51.9	-54.3	3.6	0.00e+00	0	38	104	0	60	88135
2026-01-02 10:50:09.85	203.06	5.29	-51.9	-54.4	3.6	0.00e+00	0	37	104	0	60	88710
2026-01-02 10:50:10.86	203.16	5.36	-51.9	-54.3	3.6	0.00e+00	0	37	104	0	60	88043
2026-01-02 10:50:11.88	203.26	5.44	-51.9	-54.4	3.6	0.00e+00	0	38	104	0	60	88371
2026-01-02 10:50:12.89	203.36	5.51	-51.9	-54.4	3.6	0.00e+00	0	38	104	0	60	89130
2026-01-02 10:50:13.90	203.46	5.58	-51.9	-54.4	3.6	0.00e+00	0	38	104	0	60	88401
2026-01-02 10:50:14.91	203.56	5.66	-51.9	-54.4	3.6	0.00e+00	0	38	104	0	60	88494
2026-01-02 10:50:15.92	203.66	5.73	-51.9	-54.4	3.6	0.00e+00	0	38	104	0	60	88977
2026-01-02 10:50:16.93	203.77	5.80	-51.9	-54.4	3.6	0.00e+00	0	38	104	0	60	88422
2026-01-02 10:50:17.94	203.87	5.88	-51.9	-54.4	3.6	0.00e+00	0	38	104	0	60	88721
2026-01-02 10:50:18.95	203.97	5.95	-51.9	-54.4	3.6	0.00e+00	0	38	104	0	60	88796
2026-01-02 10:50:19.96	204.08	6.03	-51.9	-54.4	3.6	0.00e+00	0	38	104	0	60	88694
2026-01-02 10:50:20.97	204.18	6.10	-51.9	-54.4	3.6	0.00e+00	0	38	104	0	60	88581
2026-01-02 10:50:21.99	204.29	6.18	-51.9	-54.4	3.6	0.00e+00	0	38	104	0	60	88298
2026-01-02 10:50:23.00	204.39	6.25	-51.9	-54.4	3.5	0.00e+00	0	38	104	0	60	88504
2026-01-02 10:50:24.01	204.50	6.33	-51.9	-54.3	3.6	0.00e+00	0	38	104	0	60	88193
2026-01-02 10:50:25.02	204.61	6.40	-51.9	-54.4	3.6	0.00e+00	0	38	104	0	60	88250
2026-01-02 10:50:26.03	204.71	6.48	-51.9	-54.4	3.6	0.00e+00	0	38	104	0	60	88521
2026-01-02 10:50:27.04	204.82	6.56	-51.9	-54.4	3.6	0.00e+00	0	38	104	0	60	88489
2026-01-02 10:50:28.05	204.93	6.63	-51.9	-54.4	3.6	0.00e+00	0	38	104	0	60	88714
2026-01-02 10:50:29.06	205.04	6.71	-51.9	-54.4	3.6	0.00e+00	0	38	104	0	60	88466
2026-01-02 10:50:30.07	205.15	6.79	-51.9	-54.4	3.6	0.00e+00	0	38	104	0	60	88394
2026-01-02 10:50:31.08	205.26	6.86	-51.9	-54.4	3.6	0.00e+00	0	38	104	0	60	88690
2026-01-02 10:50:32.09	205.38	6.94	-51.9	-54.4	3.6	0.00e+00	0	38	104	0	60	88654
2026-01-02 10:50:33.10	205.49	7.02	-51.9	-54.4	3.6	0.00e+00	0	38	104	0	60	88714
2026-01-02 10:50:34.11	205.60	7.10	-51.9	-54.4	3.6	0.00e+00	0	38	104	0	60	88565
2026-01-02 10:50:35.12	205.72	7.17	-51.9	-54.4	3.6	0.00e+00	0	38	104	0	60	89107
2026-01-02 10:50:36.13	205.83	7.25	-51.9	-54.4	3.6	0.00e+00	0	38	104	0	60	88797
2026-01-02 10:50:37.14	205.95	7.33	-51.9	-54.4	3.6	0.00e+00	0	38	104	0	60	88849
2026-01-02 10:50:38.16	206.07	7.41	-52.0	-54.4	3.6	0.00e+00	0	38	104	0	60	88576
2026-01-02 10:50:39.17	206.18	7.49	-52.0	-54.4	3.5	0.00e+00	0	38	104	0	60	88680
2026-01-02 10:50:40.18	206.30	7.57	-52.0	-54.5	3.6	0.00e+00	0	38	104	0	60	89410
2026-01-02 10:50:41.19	206.42	7.65	-52.0	-54.4	3.6	0.00e+00	0	38	104	0	60	89196
2026-01-02 10:50:42.20	206.54	7.73	-52.0	-54.4	3.6	0.00e+00	0	38	104	0	60	89116
2026-01-02 10:50:43.21	206.66	7.81	-52.0	-54.4	3.6	0.00e+00	0	38	104	0	60	88920
2026-01-02 10:50:44.22	206.78	7.89	-52.0	-54.5	3.6	0.00e+00	0	38	104	0	60	89259
2026-01-02 10:50:45.23	206.90	7.97	-52.0	-54.5	3.6	0.00e+00	0	38	104	0	60	89314
2026-01-02 10:50:46.24	207.02	8.05	-52.0	-54.4	3.6	0.00e+00	0	38	104	0	60	89150
2026-01-02 10:50:47.25	207.15	8.13	-52.0	-54.5	3.6	0.00e+00	0	38	104	0	60	89369
2026-01-02 10:50:48.26	207.27	8.21	-52.0	-54.4	3.6	0.00e+00	0	38	104	0	60	88834
2026-01-02 10:50:49.27	207.40	8.29	-52.0	-54.4	3.6	0.00e+00	0	38	104	0	60	89220
2026-01-02 10:50:50.28	207.52	8.37	-52.0	-54.4	3.6	0.00e+00	0	38	104	0	60	88952
2026-01-02 10:50:51.29	207.65	8.45	-52.0	-54.4	3.6	0.00e+00	0	38	104	0	60	88951
2026-01-02 10:50:52.30	207.78	8.54	-52.0	-54.4	3.6	0.00e+00	0	38	104	0	60	88633
2026-01-02 10:50:53.31	207.90	8.62	-52.0	-54.4	3.6	0.00e+00	0	38	104	0	60	89174
2026-01-02 10:50:54.32	208.03	8.70	-52.0	-54.4	3.6	0.00e+00	0	38	104	0	60	89016
2026-01-02 10:50:55.33	208.16	8.78	-52.0	-54.5	3.6	0.00e+00	0	38	104	0	60	89348
2026-01-02 10:50:56.34	208.30	8.87	-52.0	-54.4	3.6	0.00e+00	0	38	104	0	60	88827
2026-01-02 10:50:57.35	208.43	8.95	-52.0	-54.4	3.6	0.00e+00	0	38	104	0	60	88885
2026-01-02 10:50:58.37	208.56	9.03	-52.0	-54.4	3.6	0.00e+00	0	38	104	0	60	88944
2026-01-02 10:50:59.38	208.69	9.12	-52.0	-54.5	3.6	0.00e+00	0	38	104	0	60	89269
2026-01-02 10:51:00.39	208.83	9.20	-52.0	-54.4	3.6	0.00e+00	0	38	104	0	60	88851
2026-01-02 10:51:01.40	208.96	9.29	-52.0	-54.4	3.6	0.00e+00	0	38	104	0	60	88735
2026-01-02 10:51:02.41	209.10	9.37	-52.0	-54.4	3.6	0.00e+00	0	38	104	0	60	88995
2026-01-02 10:51:03.42	209.24	9.45	-52.0	-54.4	3.6	0.00e+00	0	38	104	0	60	88810
2026-01-02 10:51:04.43	209.38	9.54	-52.0	-54.4	3.6	0.00e+00	0	38	104	0	60	88748
2026-01-02 10:51:05.44	209.52	9.63	-52.0	-54.4	3.6	0.00e+00	0	38	104	0	60	88989
2026-01-02 10:51:06.45	209.66	9.71	-52.0	-54.4	3.6	0.00e+00	0	38	104	0	60	88943
2026-01-02 10:51:07.46	209.80	9.80	-52.0	-54.4	3.6	0.00e+00	0	38	104	0	60	89056
2026-01-02 10:51:08.47	209.94	9.88	-52.0	-54.4	3.6	0.00e+00	0	38	104	0	60	88658
2026-01-02 10:51:09.49	210.08	9.97	-52.0	-54.4	3.6	0.00e+00	0	38	104	0	60	89016
2026-01-02 10:51:10.50	210.23	10.06	-52.0	-54.4	3.6	0.00e+00	0	38	104	0	60	89051
2026-01-02 10:51:11.51	210.37	10.14	-52.0	-54.4	3.5	0.00e+00	0	38	104	0	60	89227
2026-01-02 10:51:12.52	210.52	10.23	-51.9	-54.4	3.6	0.00e+00	0	38	104	0	60	88375
2026-01-02 10:51:13.53	210.67	10.32	-52.0	-54.4	3.6	0.00e+00	0	38	104	0	60	88867
2026-01-02 10:51:14.54	210.81	10.40	-51.9	-54.5	3.6	0.00e+00	0	38	104	0	60	89250
2026-01-02 10:51:15.55	210.96	10.49	-52.0	-54.5	3.6	0.00e+00	0	38	104	0	60	89250
2026-01-02 10:51:16.56	211.11	10.58	-51.9	-54.4	3.6	0.00e+00	0	38	104	0	60	88860
2026-01-02 10:51:17.57	211.26	10.67	-52.0	-54.4	3.6	0.00e+00	0	38	104	0	60	88708
2026-01-02 10:51:18.58	211.42	10.76	-52.0	-54.4	3.6	0.00e+00	0	38	104	0	60	89131
2026-01-02 10:51:19.59	211.57	10.85	-52.0	-54.4	3.6	0.00e+00	0	38	104	0	60	89200
2026-01-02 10:51:20.61	211.73	10.94	-52.0	-54.4	3.6	0.00e+00	0	38	104	0	60	89012
2026-01-02 10:51:21.62	211.88	11.03	-52.0	-54.4	3.6	0.00e+00	0	38	104	0	60	88532
2026-01-02 10:51:22.63	212.04	11.11	-52.0	-54.4	3.6	0.00e+00	0	38	104	0	60	89129
2026-01-02 10:51:23.64	212.20	11.20	-52.0	-54.4	3.6	0.00e+00	0	38	104	0	60	88613
2026-01-02 10:51:24.65	212.35	11.29	-52.0	-54.4	3.6	0.00e+00	0	38	104	0	60	89172
2026-01-02 10:51:25.66	212.52	11.39	-52.0	-54.4	3.6	0.00e+00	0	38	104	0	60	88990
2026-01-02 10:51:26.67	212.68	11.48	-52.0	-54.4	3.6	0.00e+00	0	38	104	0	60	89069
2026-01-02 10:51:27.68	212.84	11.57	-52.0	-54.4	3.6	0.00e+00	0	38	104	0	60	88430
2026-01-02 10:51:28.69	213.00	11.66	-52.0	-54.5	3.6	0.00e+00	0	38	104	0	60	89343
2026-01-02 10:51:29.70	213.17	11.75	-52.0	-54.4	3.6	0.00e+00	0	38	104	0	60	88883
2026-01-02 10:51:30.71	213.33	11.84	-52.0	-54.4	3.6	0.00e+00	0	38	104	0	60	88831
2026-01-02 10:51:31.72	213.50	11.93	-52.0	-54.4	3.6	0.00e+00	0	38	104	0	60	88858
2026-01-02 10:51:32.74	213.67	12.03	-52.0	-54.4	3.6	0.00e+00	0	38	104	0	60	88981
2026-01-02 10:51:33.75	213.84	12.12	-52.0	-54.4	3.6	0.00e+00	0	38	104	0	60	88492
2026-01-02 10:51:34.76	214.01	12.21	-52.0	-54.4	3.6	0.00e+00	0	38	104	0	60	89126
2026-01-02 10:51:35.77	214.18	12.30	-52.0	-54.5	3.6	0.00e+00	0	38	104	0	60	89442
2026-01-02 10:51:36.78	214.36	12.40	-52.0	-54.4	3.6	0.00e+00	0	38	104	0	60	88814
2026-01-02 10:51:37.79	214.53	12.49	-52.0	-54.4	3.6	0.00e+00	0	38	104	0	60	88709
2026-01-02 10:51:38.80	214.71	12.58	-52.0	-54.4	3.6	0.00e+00	0	38	104	0	60	89002
2026-01-02 10:51:39.81	214.88	12.68	-52.0	-54.4	3.6	0.00e+00	0	38	104	0	60	88783
2026-01-02 10:51:40.82	215.06	12.77	-52.0	-54.4	3.6	0.00e+00	0	38	104	0	60	88931
2026-01-02 10:51:41.83	215.24	12.87	-52.0	-54.4	3.6	0.00e+00	0	38	104	0	60	88991
2026-01-02 10:51:42.84	215.42	12.96	-52.0	-54.4	3.6	0.00e+00	0	38	104	0	60	88673
2026-01-02 10:51:43.85	215.61	13.06	-52.0	-54.4	3.6	0.00e+00	0	38	104	0	60	88726
2026-01-02 10:51:44.86	215.79	13.15	-52.0	-54.4	3.6	0.00e+00	0	38	104	0	60	88944
2026-01-02 10:51:45.87	215.97	13.25	-52.0	-54.4	3.6	0.00e+00	0	38	104	0	60	88898
2026-01-02 10:51:46.88	216.16	13.34	-52.0	-54.4	3.6	0.00e+00	0	38	104	0	60	88997
2026-01-02 10:51:47.90	216.35	13.44	-52.0	-54.4	3.6	0.00e+00	0	38	104	0	60	88872
2026-01-02 10:51:48.90	216.54	13.53	-52.0	-54.4	3.6	0.00e+00	0	38	104	0	60	88682
2026-01-02 10:51:49.92	216.73	13.63	-52.0	-54.4	3.6	0.00e+00	0	38	104	0	60	88459
2026-01-02 10:51:50.93	216.92	13.73	-52.0	-54.4	3.6	0.00e+00	0	38	104	0	60	88756
2026-01-02 10:51:51.94	217.12	13.82	-52.0	-54.4	3.6	0.00e+00	0	38	104	0	60	88916
2026-01-02 10:51:52.95	217.31	13.92	-52.0	-54.4	3.6	0.00e+00	0	38	104	0	60	88458
2026-01-02 10:51:53.96	217.51	14.02	-52.0	-54.4	3.6	0.00e+00	0	38	104	0	60	88431
2026-01-02 10:51:54.97	217.71	14.12	-52.0	-54.4	3.6	0.00e+00	0	38	104	0	60	88561
2026-01-02 10:51:55.98	217.91	14.21	-52.0	-54.4	3.6	0.00e+00	0	38	104	0	60	88473
2026-01-02 10:51:56.99	218.11	14.31	-52.0	-54.4	3.6	0.00e+00	0	38	104	0	60	88860
2026-01-02 10:51:58.00	218.31	14.41	-52.0	-54.4	3.6	0.00e+00	0	38	104	0	60	88610
2026-01-02 10:51:59.01	218.51	14.51	-52.0	-54.4	3.6	0.00e+00	0	38	104	0	60	88627
2026-01-02 10:52:00.02	218.72	14.61	-51.9	-54.4	3.6	0.00e+00	0	38	104	0	60	88875
2026-01-02 10:52:01.03	218.93	14.71	-52.0	-54.4	3.6	0.00e+00	0	39	104	0	60	88780
2026-01-02 10:52:02.04	219.14	14.80	-52.0	-54.4	3.6	0.00e+00	0	38	104	0	60	88934
2026-01-02 10:52:03.05	219.35	14.90	-52.0	-54.4	3.6	0.00e+00	0	39	104	0	60	88840
2026-01-02 10:52:04.06	219.56	15.00	-52.0	-54.4	3.6	0.00e+00	0	39	104	0	60	89222
2026-01-02 10:52:05.08	219.78	15.10	-52.0	-54.4	3.6	0.00e+00	0	38	104	0	60	88988
2026-01-02 10:52:06.09	219.99	15.20	-52.0	-54.4	3.6	0.00e+00	0	39	104	0	60	88887
2026-01-02 10:52:07.10	220.21	15.30	-52.0	-54.4	3.5	0.00e+00	0	38	104	0	60	89081
2026-01-02 10:52:08.11	220.43	15.40	-52.0	-54.4	3.6	0.00e+00	0	38	104	0	60	88889
2026-01-02 10:52:09.12	220.65	15.50	-52.0	-54.4	3.6	0.00e+00	0	38	104	0	60	88828
2026-01-02 10:52:10.13	220.87	15.60	-52.0	-54.4	3.6	0.00e+00	0	39	104	0	60	89009
2026-01-02 10:52:11.14	221.09	15.70	-52.0	-54.4	3.6	0.00e+00	0	38	104	0	60	88955
2026-01-02 10:52:12.15	221.32	15.80	-52.0	-54.4	3.6	0.00e+00	0	38	104	0	60	88849
2026-01-02 10:52:13.16	221.54	15.91	-51.9	-54.4	3.6	0.00e+00	0	39	104	0	60	89074
2026-01-02 10:52:14.17	221.77	16.01	-52.0	-54.4	3.6	0.00e+00	0	38	104	0	60	88977
2026-01-02 10:52:15.19	222.01	16.11	-52.0	-54.4	3.6	0.00e+00	0	39	104	0	60	88948
2026-01-02 10:52:16.20	222.24	16.21	-52.0	-54.4	3.6	0.00e+00	0	39	104	0	60	88746
2026-01-02 10:52:17.21	222.47	16.31	-52.0	-54.4	3.5	0.00e+00	0	39	104	0	60	89086
2026-01-02 10:52:18.22	222.71	16.41	-52.0	-54.4	3.6	0.00e+00	0	39	104	0	60	88721
2026-01-02 10:52:19.23	222.95	16.51	-52.0	-54.4	3.6	0.00e+00	0	39	104	0	60	88932
2026-01-02 10:52:20.24	223.19	16.62	-52.0	-54.4	3.6	0.00e+00	0	39	104	0	60	89083
2026-01-02 10:52:21.25	223.43	16.72	-52.0	-54.4	3.6	0.00e+00	0	39	104	0	60	88798
2026-01-02 10:52:22.26	223.67	16.82	-52.0	-54.4	3.5	0.00e+00	0	39	104	0	60	88649
2026-01-02 10:52:23.27	223.92	16.92	-52.0	-54.4	3.6	0.00e+00	0	39	104	0	60	89012
2026-01-02 10:52:24.28	224.16	17.02	-52.0	-54.4	3.6	0.00e+00	0	39	104	0	60	88464
2026-01-02 10:52:25.29	224.41	17.13	-52.0	-54.4	3.6	0.00e+00	0	39	104	0	60	88890
2026-01-02 10:52:26.30	224.66	17.23	-52.0	-54.4	3.6	0.00e+00	0	38	104	0	60	88826
2026-01-02 10:52:27.31	224.92	17.33	-52.0	-54.5	3.6	0.00e+00	0	39	104	0	60	89430
2026-01-02 10:52:28.33	225.17	17.43	-52.0	-54.4	3.6	0.00e+00	0	39	104	0	60	88882
2026-01-02 10:52:29.34	225.43	17.54	-52.0	-54.4	3.6	0.00e+00	0	39	104	0	60	88833
2026-01-02 10:52:30.35	225.69	17.64	-52.0	-54.4	3.6	0.00e+00	0	39	104	0	60	88841
2026-01-02 10:52:31.36	225.95	17.74	-52.0	-54.5	3.6	0.00e+00	0	39	104	0	60	89258
2026-01-02 10:52:32.37	226.21	17.84	-52.0	-54.4	3.6	0.00e+00	0	39	104	0	60	89108
2026-01-02 10:52:33.38	226.48	17.95	-52.0	-54.4	3.6	0.00e+00	0	39	104	0	60	89079
2026-01-02 10:52:34.39	226.74	18.05	-51.9	-54.4	3.6	0.00e+00	0	39	104	0	60	88779
2026-01-02 10:52:35.40	227.01	18.15	-52.0	-54.4	3.6	0.00e+00	0	39	104	0	60	88865
2026-01-02 10:52:36.41	227.28	18.25	-52.0	-54.4	3.6	0.00e+00	0	39	104	0	60	88812
2026-01-02 10:52:37.42	227.56	18.36	-52.0	-54.4	3.6	0.00e+00	0	39	104	0	60	88828
2026-01-02 10:52:38.43	227.83	18.46	-52.0	-54.4	3.6	0.00e+00	0	39	104	0	60	88699
2026-01-02 10:52:39.44	228.11	18.56	-52.0	-54.4	3.6	0.00e+00	0	39	104	0	60	88849
2026-01-02 10:52:40.45	228.39	18.66	-52.0	-54.4	3.6	0.00e+00	0	39	104	0	60	88624
2026-01-02 10:52:41.46	228.67	18.76	-52.0	-54.4	3.6	0.00e+00	0	39	104	0	60	89032
2026-01-02 10:52:42.47	228.95	18.87	-52.0	-54.4	3.6	0.00e+00	0	39	104	0	60	88459
2026-01-02 10:52:43.48	229.24	18.97	-52.0	-54.4	3.6	0.00e+00	0	39	104	0	60	88971
2026-01-02 10:52:44.49	229.52	19.07	-52.0	-54.4	3.6	0.00e+00	0	39	104	0	60	89068
2026-01-02 10:52:45.50	229.81	19.17	-52.0	-54.4	3.6	0.00e+00	0	39	104	0	60	88761
2026-01-02 10:52:46.51	230.10	19.27	-52.0	-54.4	3.6	0.00e+00	0	39	104	0	60	88670
2026-01-02 10:52:47.52	230.40	19.37	-51.9	-54.4	3.6	0.00e+00	0	39	104	0	60	88880
2026-01-02 10:52:48.53	230.69	19.48	-52.0	-54.4	3.6	0.00e+00	0	39	104	0	60	88676
2026-01-02 10:52:49.54	230.99	19.58	-52.0	-54.4	3.6	0.00e+00	0	39	104	0	60	88879
2026-01-02 10:52:50.55	231.29	19.68	-52.0	-54.4	3.6	0.00e+00	0	39	104	0	60	88829
2026-01-02 10:52:51.56	231.60	19.78	-52.0	-54.4	3.6	0.00e+00	0	39	104	0	60	88551
2026-01-02 10:52:52.57	231.90	19.88	-52.0	-54.4	3.6	0.00e+00	0	39	104	0	60	88996
2026-01-02 10:52:53.59	232.21	19.98	-52.0	-54.4	3.6	0.00e+00	0	39	104	0	60	88804
2026-01-02 10:52:54.60	232.52	20.08	-52.0	-54.4	3.6	0.00e+00	0	39	104	0	60	88696
2026-01-02 10:52:55.61	232.83	20.18	-52.0	-54.4	3.6	0.00e+00	0	39	104	0	60	89066
2026-01-02 10:52:56.62	233.14	20.28	-52.0	-54.4	3.6	0.00e+00	0	39	104	0	60	88908
2026-01-02 10:52:57.63	233.46	20.38	-52.0	-54.4	3.6	0.00e+00	0	39	104	0	60	88864
2026-01-02 10:52:58.64	233.78	20.48	-51.9	-54.4	3.6	0.00e+00	0	39	104	0	60	88792
2026-01-02 10:52:59.65	234.10	20.58	-52.0	-54.4	3.6	0.00e+00	0	39	104	0	60	88363
2026-01-02 10:53:00.66	234.42	20.67	-52.0	-54.4	3.6	0.00e+00	0	39	104	0	60	89147
2026-01-02 10:53:01.67	234.75	20.77	-52.0	-54.4	3.6	0.00e+00	0	39	104	0	60	88565
2026-01-02 10:53:02.68	235.08	20.87	-52.0	-54.4	3.6	0.00e+00	0	39	104	0	60	88846
2026-01-02 10:53:03.69	235.41	20.97	-52.0	-54.4	3.6	0.00e+00	0	39	104	0	60	89032
2026-01-02 10:53:04.71	235.74	21.06	-52.0	-54.4	3.6	0.00e+00	0	39	104	0	60	88358
2026-01-02 10:53:05.72	236.07	21.16	-52.0	-54.4	3.6	0.00e+00	0	39	104	0	60	88836
2026-01-02 10:53:06.73	236.41	21.26	-52.0	-54.4	3.6	0.00e+00	0	39	104	0	60	88824
2026-01-02 10:53:07.74	236.75	21.35	-52.0	-54.4	3.5	0.00e+00	0	39	104	0	60	88903
2026-01-02 10:53:08.75	237.09	21.45	-51.9	-54.4	3.6	0.00e+00	0	39	104	0	60	88416
2026-01-02 10:53:09.76	237.44	21.54	-52.0	-54.4	3.6	0.00e+00	0	39	104	0	60	88758
2026-01-02 10:53:10.77	237.78	21.63	-52.0	-54.4	3.6	0.00e+00	0	39	104	0	60	88805
2026-01-02 10:53:11.78	238.13	21.73	-52.0	-54.4	3.5	0.00e+00	0	39	104	0	60	89114
2026-01-02 10:53:12.79	238.48	21.82	-52.0	-54.5	3.6	0.00e+00	0	39	104	0	60	89346
2026-01-02 10:53:13.81	238.84	21.91	-52.0	-54.4	3.6	0.00e+00	0	39	104	0	60	88809
2026-01-02 10:53:14.82	239.19	22.00	-51.9	-54.4	3.6	0.00e+00	0	39	104	0	60	88655
2026-01-02 10:53:15.83	239.55	22.09	-52.0	-54.4	3.6	0.00e+00	0	39	104	0	60	89233
2026-01-02 10:53:16.84	239.91	22.18	-52.0	-54.4	3.6	0.00e+00	0	39	104	0	60	88764
2026-01-02 10:53:17.85	240.27	22.27	-51.9	-54.4	3.6	0.00e+00	0	39	104	0	60	89065
2026-01-02 10:53:18.86	240.63	22.36	-52.0	-54.4	3.6	0.00e+00	0	39	104	0	60	89136
2026-01-02 10:53:19.87	241.00	22.45	-52.0	-54.4	3.6	0.00e+00	0	39	104	0	60	88742
2026-01-02 10:53:20.88	241.37	22.54	-51.9	-54.4	3.6	0.00e+00	0	39	104	0	60	88487
2026-01-02 10:53:21.89	241.74	22.62	-52.0	-54.4	3.6	0.00e+00	0	39	104	0	60	88756
2026-01-02 10:53:22.90	242.11	22.71	-51.9	-54.4	3.6	0.00e+00	0	39	104	0	60	88416
2026-01-02 10:53:23.91	242.49	22.79	-51.9	-54.4	3.6	0.00e+00	0	39	104	0	60	88779
2026-01-02 10:53:24.92	242.87	22.88	-52.0	-54.4	3.6	0.00e+00	0	39	104	0	60	88687
2026-01-02 10:53:25.94	243.25	22.96	-51.9	-54.4	3.6	0.00e+00	0	38	104	0	60	88455
2026-01-02 10:53:26.95	243.63	23.04	-51.9	-54.4	3.6	0.00e+00	0	39	104	0	60	88840
2026-01-02 10:53:27.96	244.02	23.13	-51.9	-54.4	3.6	0.00e+00	0	39	104	0	60	88732
2026-01-02 10:53:28.97	244.40	23.21	-51.9	-54.4	3.6	0.00e+00	0	39	104	0	60	88817
2026-01-02 10:53:29.98	244.79	23.29	-51.9	-54.4	3.6	0.00e+00	0	39	104	0	60	88951
2026-01-02 10:53:30.99	245.18	23.36	-51.9	-54.4	3.6	0.00e+00	0	39	104	0	60	88664
2026-01-02 10:53:32.00	245.57	23.44	-51.9	-54.4	3.6	0.00e+00	0	39	104	0	60	88800
2026-01-02 10:53:33.01	245.97	23.52	-51.9	-54.4	3.6	0.00e+00	0	39	104	0	60	88420
2026-01-02 10:53:34.02	246.37	23.59	-51.9	-54.4	3.6	0.00e+00	0	38	104	0	60	88709
2026-01-02 10:53:35.03	246.77	23.67	-51.9	-54.4	3.6	0.00e+00	0	39	104	0	60	88576
2026-01-02 10:53:36.04	247.17	23.74	-51.9	-54.4	3.6	0.00e+00	0	38	104	0	60	88748
2026-01-02 10:53:37.08	247.58	23.82	-51.9	-54.4	3.6	0.00e+00	0	38	104	0	60	88478
2026-01-02 10:53:38.00	247.95	23.88	-51.9	-54.4	3.6	0.00e+00	0	39	104	0	60	88628
2026-01-02 10:53:39.01	248.36	23.95	-51.9	-54.4	3.6	0.00e+00	0	39	104	0	60	88440
2026-01-02 10:53:40.03	248.77	24.02	-51.9	-54.3	3.6	0.00e+00	0	39	104	0	60	88150
2026-01-02 10:53:41.04	249.18	24.09	-51.9	-54.4	3.6	0.00e+00	0	39	104	0	60	88535
2026-01-02 10:53:42.05	249.60	24.16	-51.9	-54.4	3.6	0.00e+00	0	38	104	0	60	88758
2026-01-02 10:53:43.06	250.01	24.22	-52.0	-54.4	3.6	0.00e+00	0	38	104	0	60	89152
2026-01-02 10:53:44.07	250.43	24.29	-51.9	-54.4	3.6	0.00e+00	0	39	104	0	60	88445
2026-01-02 10:53:45.08	250.85	24.35	-51.9	-54.4	3.6	0.00e+00	0	39	104	0	60	88672
2026-01-02 10:53:46.09	251.27	24.41	-51.9	-54.4	3.6	0.00e+00	0	39	104	0	60	88522
2026-01-02 10:53:47.10	251.69	24.47	-51.9	-54.4	3.6	0.00e+00	0	39	104	0	60	88459
2026-01-02 10:53:48.11	252.11	24.53	-51.9	-54.4	3.6	0.00e+00	0	39	104	0	60	88366
2026-01-02 10:53:49.12	252.54	24.59	-51.9	-54.4	3.6	0.00e+00	0	39	104	0	60	88704
2026-01-02 10:53:50.13	252.97	24.64	-51.9	-54.4	3.6	0.00e+00	0	39	104	0	60	88446
2026-01-02 10:53:51.15	253.40	24.70	-51.9	-54.3	3.6	0.00e+00	0	39	104	0	60	88142
2026-01-02 10:53:52.16	253.83	24.75	-51.9	-54.4	3.6	0.00e+00	0	39	104	0	60	88744
2026-01-02 10:53:53.17	254.26	24.80	-51.9	-54.4	3.6	0.00e+00	0	38	104	0	60	88608
2026-01-02 10:53:54.18	254.70	24.85	-51.9	-54.4	3.6	0.00e+00	0	39	104	0	60	88479
2026-01-02 10:53:55.19	255.13	24.90	-51.9	-54.4	3.6	0.00e+00	0	38	104	0	60	88610
2026-01-02 10:53:56.20	255.57	24.95	-51.9	-54.4	3.6	0.00e+00	0	38	104	0	60	88513
2026-01-02 10:53:57.21	256.00	25.00	-51.9	-54.4	3.6	0.00e+00	0	38	104	0	60	88382
2026-01-02 10:53:58.22	256.44	25.04	-51.9	-54.4	3.6	0.00e+00	0	38	104	0	60	89022
2026-01-02 10:53:59.24	256.89	25.08	-51.9	-54.4	3.6	0.00e+00	0	38	104	0	60	88716
2026-01-02 10:54:00.25	257.33	25.12	-51.9	-54.4	3.6	0.00e+00	0	39	104	0	60	88338
2026-01-02 10:54:01.26	257.77	25.16	-51.9	-54.3	3.6	0.00e+00	0	38	104	0	60	88148
2026-01-02 10:54:02.27	258.22	25.20	-51.9	-54.4	3.6	0.00e+00	0	38	104	0	60	89157
2026-01-02 10:54:03.28	258.66	25.24	-51.9	-54.4	3.6	0.00e+00	0	39	104	0	60	88696
2026-01-02 10:54:04.29	259.11	25.27	-51.9	-54.4	3.6	0.00e+00	0	38	104	0	60	88405
2026-01-02 10:54:05.30	259.56	25.31	-51.9	-54.4	3.6	0.00e+00	0	39	104	0	60	88619
2026-01-02 10:54:06.32	260.01	25.34	-51.9	-54.4	3.6	0.00e+00	0	38	104	0	60	88501
2026-01-02 10:54:07.33	260.46	25.37	-51.9	-54.4	3.5	0.00e+00	0	38	104	0	60	88263
2026-01-02 10:54:08.34	260.91	25.40	-51.9	-54.4	3.6	0.00e+00	0	38	104	0	60	88362
2026-01-02 10:54:09.35	261.36	25.42	-51.9	-54.4	3.6	0.00e+00	0	39	104	0	60	88698
2026-01-02 10:54:10.36	261.81	25.45	-51.9	-54.3	3.6	0.00e+00	0	39	104	0	60	88051
2026-01-02 10:54:11.37	262.26	25.47	-51.9	-54.4	3.6	0.00e+00	0	39	104	0	60	88858
2026-01-02 10:54:12.38	262.72	25.49	-51.9	-54.3	3.5	0.00e+00	0	38	104	0	60	88181
2026-01-02 10:54:13.39	263.17	25.51	-51.9	-54.4	3.6	0.00e+00	0	39	104	0	60	88712
2026-01-02 10:54:14.40	263.63	25.53	-51.9	-54.4	3.6	0.00e+00	0	38	104	0	60	88867
2026-01-02 10:54:15.41	264.08	25.55	-51.9	-54.4	3.6	0.00e+00	0	39	104	0	60	88383
2026-01-02 10:54:16.42	264.54	25.56	-51.9	-54.3	3.6	0.00e+00	0	39	104	0	60	88094
2026-01-02 10:54:17.43	264.99	25.57	-51.9	-54.4	3.6	0.00e+00	0	39	104	0	60	88787
2026-01-02 10:54:18.44	265.45	25.58	-51.9	-54.4	3.6	0.00e+00	0	38	104	0	60	88231
2026-01-02 10:54:19.45	265.90	25.59	-51.9	-54.3	3.6	0.00e+00	0	38	104	0	60	88186
2026-01-02 10:54:20.46	266.36	25.60	-51.9	-54.4	3.6	0.00e+00	0	38	104	0	60	88220
2026-01-02 10:54:21.47	266.82	25.61	-51.9	-54.4	3.6	0.00e+00	0	38	104	0	60	88570
2026-01-02 10:54:22.48	267.28	25.61	-51.9	-54.4	3.6	0.00e+00	0	39	104	0	60	88645
2026-01-02 10:54:23.50	267.74	25.61	-51.9	-54.4	3.6	0.00e+00	0	39	104	0	60	88821
2026-01-02 10:54:24.51	268.19	25.61	-51.9	-54.4	3.6	0.00e+00	0	38	104	0	60	88821
2026-01-02 10:54:25.52	268.65	25.61	-51.9	-54.3	3.6	0.00e+00	0	38	104	0	60	87988
2026-01-02 10:54:26.53	269.11	25.61	-51.9	-54.4	3.6	0.00e+00	0	39	104	0	60	88652
2026-01-02 10:54:27.54	269.56	25.60	-51.9	-54.4	3.6	0.00e+00	0	39	104	0	60	88353
2026-01-02 10:54:28.55	270.02	25.60	-51.9	-54.4	3.6	0.00e+00	0	39	104	0	60	88726
2026-01-02 10:54:29.56	270.48	25.59	-51.9	-54.4	3.6	0.00e+00	0	39	104	0	60	88259
2026-01-02 10:54:30.57	270.93	25.58	-51.9	-54.4	3.6	0.00e+00	0	39	104	0	60	88610
2026-01-02 10:54:31.58	271.39	25.57	-51.9	-54.4	3.5	0.00e+00	0	39	104	0	60	88373
2026-01-02 10:54:32.59	271.85	25.55	-51.9	-54.4	3.6	0.00e+00	0	39	104	0	60	88515
2026-01-02 10:54:33.61	272.30	25.54	-51.9	-54.4	3.6	0.00e+00	0	39	104	0	60	88435
2026-01-02 10:54:34.62	272.76	25.52	-51.9	-54.4	3.6	0.00e+00	0	38	104	0	60	88441
2026-01-02 10:54:35.63	273.21	25.50	-51.9	-54.4	3.6	0.00e+00	0	39	104	0	60	88384
2026-01-02 10:54:36.64	273.67	25.48	-51.9	-54.3	3.6	0.00e+00	0	38	104	0	60	88210
2026-01-02 10:54:37.65	274.12	25.46	-51.9	-54.4	3.6	0.00e+00	0	38	104	0	60	88811
2026-01-02 10:54:38.66	274.57	25.43	-51.9	-54.4	3.6	0.00e+00	0	38	104	0	60	88665
2026-01-02 10:54:39.67	275.02	25.41	-52.0	-54.4	3.6	0.00e+00	0	38	104	0	60	88979
2026-01-02 10:54:40.68	275.47	25.38	-52.0	-54.5	3.6	0.00e+00	0	38	104	0	60	89302
2026-01-02 10:54:41.69	275.92	25.35	-52.0	-54.4	3.6	0.00e+00	0	38	104	0	60	89020
2026-01-02 10:54:42.70	276.37	25.32	-52.0	-54.4	3.6	0.00e+00	0	38	104	0	60	89044
2026-01-02 10:54:43.71	276.81	25.28	-51.9	-54.4	3.6	0.00e+00	0	38	104	0	60	88617
2026-01-02 10:54:44.72	277.26	25.25	-52.0	-54.4	3.6	0.00e+00	0	39	104	0	60	89003
2026-01-02 10:54:45.74	277.71	25.21	-51.9	-54.4	3.6	0.00e+00	0	39	104	0	60	88679
2026-01-02 10:54:46.75	278.15	25.18	-51.9	-54.4	3.6	0.00e+00	0	39	104	0	60	88706
2026-01-02 10:54:47.76	278.60	25.14	-51.9	-54.4	3.6	0.00e+00	0	39	104	0	60	88597
2026-01-02 10:54:48.77	279.04	25.10	-51.9	-54.4	3.6	0.00e+00	0	38	104	0	60	89091
2026-01-02 10:54:49.78	279.48	25.05	-51.9	-54.4	3.6	0.00e+00	0	38	104	0	60	88460
2026-01-02 10:54:50.79	279.92	25.01	-51.9	-54.3	3.6	0.00e+00	0	38	104	0	60	88084
2026-01-02 10:54:51.80	280.35	24.97	-51.9	-54.4	3.6	0.00e+00	0	39	104	0	60	88509
2026-01-02 10:54:52.81	280.79	24.92	-51.9	-54.4	3.6	0.00e+00	0	38	104	0	60	88537
2026-01-02 10:54:53.83	281.23	24.87	-51.9	-54.4	3.6	0.00e+00	0	39	104	0	60	88469
2026-01-02 10:54:54.84	281.66	24.82	-51.9	-54.4	3.6	0.00e+00	0	39	104	0	60	88728
2026-01-02 10:54:55.85	282.09	24.77	-51.9	-54.4	3.6	0.00e+00	0	39	104	0	60	88997
2026-01-02 10:54:56.86	282.52	24.72	-51.9	-54.3	3.6	0.00e+00	0	39	104	0	60	88064
2026-01-02 10:54:57.87	282.95	24.66	-51.9	-54.4	3.6	0.00e+00	0	39	104	0	60	88561
2026-01-02 10:54:58.88	283.38	24.61	-51.9	-54.4	3.6	0.00e+00	0	39	104	0	60	88442
2026-01-02 10:54:59.89	283.81	24.55	-51.9	-54.4	3.6	0.00e+00	0	38	104	0	60	88593
2026-01-02 10:55:00.90	284.23	24.49	-51.9	-54.4	3.6	0.00e+00	0	38	104	0	60	89057
2026-01-02 10:55:01.91	284.65	24.43	-51.9	-54.3	3.6	0.00e+00	0	39	104	0	60	88018
2026-01-02 10:55:02.93	285.07	24.37	-51.9	-54.3	3.6	0.00e+00	0	39	104	0	60	87975
2026-01-02 10:55:03.94	285.49	24.31	-51.9	-54.4	3.6	0.00e+00	0	39	104	0	60	88672
2026-01-02 10:55:04.95	285.91	24.24	-51.9	-54.4	3.6	0.00e+00	0	39	104	0	60	88854
2026-01-02 10:55:05.96	286.32	24.18	-51.9	-54.4	3.5	0.00e+00	0	38	104	0	60	88490
2026-01-02 10:55:06.97	286.74	24.11	-51.9	-54.4	3.6	0.00e+00	0	38	104	0	60	88287
2026-01-02 10:55:07.98	287.15	24.05	-51.9	-54.4	3.6	0.00e+00	0	39	104	0	60	88257
2026-01-02 10:55:08.99	287.56	23.98	-51.9	-54.3	3.6	0.00e+00	0	39	104	0	60	88198
2026-01-02 10:55:10.00	287.96	23.91	-51.9	-54.3	3.6	0.00e+00	0	39	104	0	60	87919
2026-01-02 10:55:11.01	288.37	23.84	-51.9	-54.4	3.6	0.00e+00	0	39	104	0	60	88237
2026-01-02 10:55:12.03	288.77	23.76	-51.9	-54.3	3.6	0.00e+00	0	39	104	0	60	87974
2026-01-02 10:55:13.04	289.17	23.69	-51.9	-54.4	3.6	0.00e+00	0	39	104	0	60	88275
2026-01-02 10:55:14.05	289.57	23.62	-51.9	-54.4	3.6	0.00e+00	0	39	104	0	60	88450
2026-01-02 10:55:15.06	289.97	23.54	-51.9	-54.4	3.6	0.00e+00	0	38	104	0	60	89014
2026-01-02 10:55:16.07	290.36	23.47	-51.9	-54.4	3.6	0.00e+00	0	39	104	0	60	89042
2026-01-02 10:55:17.08	290.76	23.39	-51.9	-54.3	3.6	0.00e+00	0	39	104	0	60	88210
2026-01-02 10:55:18.09	291.15	23.31	-51.9	-54.4	3.5	0.00e+00	0	38	104	0	60	88631
2026-01-02 10:55:19.10	291.53	23.23	-51.9	-54.4	3.6	0.00e+00	0	39	104	0	60	88335
2026-01-02 10:55:20.11	291.92	23.15	-51.9	-54.4	3.6	0.00e+00	0	39	104	0	60	88507
2026-01-02 10:55:21.12	292.30	23.07	-51.9	-54.4	3.6	0.00e+00	0	39	104	0	60	88585
2026-01-02 10:55:22.14	292.69	22.99	-52.0	-54.4	3.6	0.00e+00	0	39	104	0	60	88721
2026-01-02 10:55:23.15	293.07	22.91	-52.0	-54.4	3.6	0.00e+00	0	39	104	0	60	88985
2026-01-02 10:55:24.16	293.45	22.82	-52.0	-54.4	3.6	0.00e+00	0	39	104	0	60	89025
2026-01-02 10:55:25.17	293.82	22.74	-51.9	-54.4	3.6	0.00e+00	0	38	104	0	60	88612
2026-01-02 10:55:26.18	294.19	22.65	-52.0	-54.4	3.6	0.00e+00	0	38	104	0	60	88876
2026-01-02 10:55:27.19	294.56	22.57	-51.9	-54.4	3.6	0.00e+00	0	39	104	0	60	88756
2026-01-02 10:55:28.20	294.93	22.48	-51.9	-54.4	3.6	0.00e+00	0	39	104	0	60	88986
2026-01-02 10:55:29.21	295.30	22.39	-51.9	-54.4	3.6	0.00e+00	0	39	104	0	60	88318
2026-01-02 10:55:30.22	295.66	22.31	-51.9	-54.3	3.6	0.00e+00	0	39	104	0	60	88167
2026-01-02 10:55:31.23	296.02	22.22	-51.9	-54.4	3.6	0.00e+00	0	38	104	0	60	88427
2026-01-02 10:55:32.25	296.39	22.13	-51.9	-54.4	3.6	0.00e+00	0	38	104	0	60	88359
2026-01-02 10:55:33.26	296.74	22.04	-51.9	-54.4	3.6	0.00e+00	0	39	104	0	60	88316
2026-01-02 10:55:34.27	297.10	21.95	-51.9	-54.4	3.6	0.00e+00	0	39	104	0	60	88362
2026-01-02 10:55:35.28	297.45	21.85	-51.9	-54.4	3.6	0.00e+00	0	39	104	0	60	88332
2026-01-02 10:55:36.29	297.80	21.76	-52.0	-54.4	3.6	0.00e+00	0	39	104	0	60	88870
2026-01-02 10:55:37.30	298.15	21.67	-52.0	-54.4	3.6	0.00e+00	0	39	104	0	60	89166
2026-01-02 10:55:38.31	298.49	21.58	-51.9	-54.4	3.6	0.00e+00	0	38	104	0	60	88882
2026-01-02 10:55:39.32	298.83	21.48	-51.9	-54.4	3.6	0.00e+00	0	39	104	0	60	88619
2026-01-02 10:55:40.34	299.18	21.39	-52.0	-54.5	3.6	0.00e+00	0	39	104	0	60	89543
2026-01-02 10:55:41.35	299.52	21.29	-51.9	-54.4	3.6	0.00e+00	0	39	104	0	60	88895
2026-01-02 10:55:42.36	299.85	21.20	-51.9	-54.4	3.6	0.00e+00	0	39	104	0	60	88436
2026-01-02 10:55:43.37	300.19	21.10	-51.9	-54.4	3.6	0.00e+00	0	39	104	0	60	88859
2026-01-02 10:55:44.38	300.52	21.01	-51.9	-54.4	3.6	0.00e+00	0	38	104	0	60	88591
2026-01-02 10:55:45.39	300.85	20.91	-51.9	-54.3	3.6	0.00e+00	0	38	104	0	60	88218
2026-01-02 10:55:46.40	301.17	20.82	-51.9	-54.3	3.6	0.00e+00	0	39	104	0	60	88111
2026-01-02 10:55:47.41	301.50	20.72	-51.9	-54.3	3.6	0.00e+00	0	39	104	0	60	88173
2026-01-02 10:55:48.43	301.82	20.62	-51.9	-54.4	3.6	0.00e+00	0	39	104	0	60	88561
2026-01-02 10:55:49.44	302.14	20.52	-51.9	-54.3	3.6	0.00e+00	0	39	104	0	60	87997
2026-01-02 10:55:50.45	302.46	20.42	-51.9	-54.4	3.6	0.00e+00	0	39	104	0	60	88247
2026-01-02 10:55:51.46	302.78	20.33	-51.9	-54.4	3.6	0.00e+00	0	39	104	0	60	88612
2026-01-02 10:55:52.47	303.09	20.23	-51.9	-54.3	3.6	0.00e+00	0	39	104	0	60	88162
2026-01-02 10:55:53.48	303.40	20.13	-51.9	-54.4	3.6	0.00e+00	0	39	104	0	60	88805
2026-01-02 10:55:54.49	303.71	20.03	-51.9	-54.4	3.6	0.00e+00	0	38	104	0	60	88771
2026-01-02 10:55:55.51	304.02	19.93	-51.9	-54.4	3.6	0.00e+00	0	38	104	0	60	88752
2026-01-02 10:55:56.52	304.32	19.83	-51.9	-54.4	3.6	0.00e+00	0	39	104	0	60	88267
2026-01-02 10:55:57.53	304.63	19.73	-51.9	-54.3	3.6	0.00e+00	0	39	104	0	60	87931
2026-01-02 10:55:58.54	304.93	19.63	-51.9	-54.4	3.6	0.00e+00	0	39	104	0	60	88369
2026-01-02 10:55:59.55	305.22	19.53	-51.9	-54.3	3.6	0.00e+00	0	39	104	0	60	87909
2026-01-02 10:56:00.56	305.52	19.43	-51.9	-54.4	3.6	0.00e+00	0	39	104	0	60	88669
2026-01-02 10:56:01.57	305.81	19.33	-51.9	-54.4	3.6	0.00e+00	0	39	104	0	60	88279
2026-01-02 10:56:02.58	306.10	19.22	-51.9	-54.4	3.6	0.00e+00	0	39	104	0	60	88342
2026-01-02 10:56:03.59	306.39	19.12	-51.9	-54.3	3.5	0.00e+00	0	39	104	0	60	87932
2026-01-02 10:56:04.60	306.68	19.02	-51.9	-54.3	3.6	0.00e+00	0	39	104	0	60	88065
2026-01-02 10:56:05.62	306.97	18.92	-51.9	-54.4	3.6	0.00e+00	0	39	104	0	60	88696
2026-01-02 10:56:06.63	307.25	18.82	-51.9	-54.4	3.6	0.00e+00	0	39	104	0	60	88444
2026-01-02 10:56:07.64	307.53	18.72	-51.9	-54.4	3.6	0.00e+00	0	39	104	0	60	88508
2026-01-02 10:56:08.65	307.81	18.62	-51.9	-54.3	3.6	0.00e+00	0	39	104	0	60	87972
2026-01-02 10:56:09.66	308.08	18.51	-51.9	-54.3	3.6	0.00e+00	0	39	104	0	60	88149
2026-01-02 10:56:10.67	308.36	18.41	-51.9	-54.4	3.6	0.00e+00	0	39	104	0	60	88385
2026-01-02 10:56:11.69	308.63	18.31	-51.9	-54.4	3.6	0.00e+00	0	39	104	0	60	88244
2026-01-02 10:56:12.70	308.90	18.21	-51.9	-54.4	3.6	0.00e+00	0	39	104	0	60	88278
2026-01-02 10:56:13.71	309.17	18.11	-51.9	-54.3	3.6	0.00e+00	0	39	104	0	60	88120
2026-01-02 10:56:14.72	309.44	18.00	-51.9	-54.4	3.6	0.00e+00	0	39	104	0	60	88423
2026-01-02 10:56:15.73	309.70	17.90	-52.0	-54.4	3.6	0.00e+00	0	39	104	0	60	88850
2026-01-02 10:56:16.74	309.96	17.80	-51.9	-54.4	3.6	0.00e+00	0	39	104	0	60	88646
2026-01-02 10:56:17.75	310.22	17.70	-51.9	-54.4	3.6	0.00e+00	0	38	104	0	60	88259
2026-01-02 10:56:18.76	310.48	17.60	-51.9	-54.4	3.6	0.00e+00	0	38	104	0	60	88506
2026-01-02 10:56:19.77	310.74	17.50	-51.9	-54.4	3.6	0.00e+00	0	39	104	0	60	88656
2026-01-02 10:56:20.78	310.99	17.39	-51.9	-54.4	3.6	0.00e+00	0	38	104	0	60	88319
2026-01-02 10:56:21.80	311.25	17.29	-51.9	-54.4	3.6	0.00e+00	0	39	104	0	60	88772
2026-01-02 10:56:22.81	311.50	17.19	-51.9	-54.4	3.6	0.00e+00	0	39	104	0	60	88296
2026-01-02 10:56:23.82	311.75	17.09	-51.9	-54.4	3.6	0.00e+00	0	39	104	0	60	88724
2026-01-02 10:56:24.83	311.99	16.99	-51.9	-54.4	3.6	0.00e+00	0	39	104	0	60	88336
2026-01-02 10:56:25.84	312.24	16.89	-51.9	-54.4	3.6	0.00e+00	0	38	104	0	60	88333
2026-01-02 10:56:26.85	312.48	16.78	-51.9	-54.3	3.6	0.00e+00	0	39	104	0	60	87817
2026-01-02 10:56:27.86	312.72	16.68	-51.9	-54.4	3.6	0.00e+00	0	39	104	0	60	88312
2026-01-02 10:56:28.88	312.96	16.58	-51.9	-54.4	3.6	0.00e+00	0	38	104	0	60	88485
2026-01-02 10:56:29.89	313.20	16.48	-51.9	-54.4	3.6	0.00e+00	0	38	104	0	60	88570
2026-01-02 10:56:30.90	313.44	16.38	-51.9	-54.4	3.6	0.00e+00	0	39	104	0	60	88559
2026-01-02 10:56:31.91	313.67	16.28	-51.9	-54.4	3.6	0.00e+00	0	39	104	0	60	88534
2026-01-02 10:56:32.92	313.90	16.18	-51.9	-54.4	3.6	0.00e+00	0	39	104	0	60	88502
2026-01-02 10:56:33.93	314.13	16.08	-51.9	-54.3	3.6	0.00e+00	0	39	104	0	60	88123
2026-01-02 10:56:34.94	314.36	15.98	-51.9	-54.3	3.6	0.00e+00	0	39	104	0	60	88181
2026-01-02 10:56:35.95	314.59	15.88	-51.9	-54.3	3.6	0.00e+00	0	39	104	0	60	88139
2026-01-02 10:56:36.96	314.81	15.78	-51.9	-54.4	3.6	0.00e+00	0	39	104	0	60	88670
2026-01-02 10:56:37.97	315.04	15.68	-51.9	-54.4	3.6	0.00e+00	0	39	104	0	60	88663
2026-01-02 10:56:38.98	315.26	15.58	-51.9	-54.3	3.6	0.00e+00	0	39	104	0	60	87965
2026-01-02 10:56:40.00	315.48	15.48	-51.9	-54.4	3.6	0.00e+00	0	39	104	0	60	88291
2026-01-02 10:56:41.01	315.70	15.38	-51.9	-54.4	3.6	0.00e+00	0	39	104	0	60	88508
2026-01-02 10:56:42.02	315.92	15.28	-51.9	-54.4	3.6	0.00e+00	0	39	104	0	60	88428
2026-01-02 10:56:43.03	316.13	15.18	-51.9	-54.4	3.6	0.00e+00	0	39	104	0	60	88466
2026-01-02 10:56:44.04	316.35	15.08	-51.9	-54.4	3.6	0.00e+00	0	39	104	0	60	88407
2026-01-02 10:56:45.05	316.56	14.98	-51.9	-54.3	3.6	0.00e+00	0	39	104	0	60	88076
2026-01-02 10:56:46.06	316.77	14.88	-51.9	-54.3	3.6	0.00e+00	0	39	104	0	60	88219
2026-01-02 10:56:47.07	316.98	14.78	-51.9	-54.4	3.6	0.00e+00	0	39	104	0	60	88242
2026-01-02 10:56:48.08	317.18	14.69	-51.9	-54.4	3.6	0.00e+00	0	39	104	0	60	88434
2026-01-02 10:56:49.10	317.39	14.59	-51.9	-54.3	3.6	0.00e+00	0	39	104	0	60	88064
2026-01-02 10:56:50.11	317.59	14.49	-51.9	-54.4	3.6	0.00e+00	0	39	104	0	60	88319
2026-01-02 10:56:51.12	317.80	14.39	-51.9	-54.4	3.6	0.00e+00	0	39	104	0	60	88429
2026-01-02 10:56:52.13	318.00	14.29	-51.9	-54.4	3.6	0.00e+00	0	39	104	0	60	88483
2026-01-02 10:56:53.14	318.20	14.20	-51.9	-54.4	3.6	0.00e+00	0	39	104	0	60	88388
2026-01-02 10:56:54.15	318.40	14.10	-51.9	-54.4	3.6	0.00e+00	0	39	104	0	60	88796
2026-01-02 10:56:55.16	318.59	14.00	-51.9	-54.4	3.6	0.00e+00	0	39	104	0	60	88684
2026-01-02 10:56:56.17	318.79	13.91	-51.9	-54.3	3.6	0.00e+00	0	39	104	0	60	88094
2026-01-02 10:56:57.18	318.98	13.81	-51.9	-54.4	3.6	0.00e+00	0	39	104	0	60	88518
2026-01-02 10:56:58.19	319.17	13.72	-51.9	-54.3	3.6	0.00e+00	0	39	104	0	60	88130
2026-01-02 10:56:59.20	319.36	13.62	-51.9	-54.4	3.6	0.00e+00	0	39	104	0	60	88559
2026-01-02 10:57:00.20	319.55	13.53	-51.9	-54.4	3.6	0.00e+00	0	39	104	0	60	88643
2026-01-02 10:57:01.21	319.74	13.43	-51.9	-54.4	3.6	0.00e+00	0	39	104	0	60	88749
2026-01-02 10:57:02.22	319.92	13.33	-51.9	-54.4	3.5	0.00e+00	0	39	104	0	60	88629
2026-01-02 10:57:03.23	320.11	13.24	-51.9	-54.4	3.6	0.00e+00	0	39	104	0	60	88569
2026-01-02 10:57:04.24	320.29	13.15	-51.9	-54.4	3.6	0.00e+00	0	39	104	0	60	88716
2026-01-02 10:57:05.25	320.48	13.05	-51.9	-54.3	3.6	0.00e+00	0	39	104	0	60	87984
2026-01-02 10:57:06.26	320.66	12.96	-51.9	-54.4	3.5	0.00e+00	0	39	104	0	60	89028
2026-01-02 10:57:07.27	320.84	12.86	-51.9	-54.4	3.6	0.00e+00	0	39	104	0	60	88499
2026-01-02 10:57:08.28	321.02	12.77	-51.9	-54.4	3.6	0.00e+00	0	39	104	0	60	88488
2026-01-02 10:57:09.29	321.19	12.68	-51.9	-54.4	3.6	0.00e+00	0	39	104	0	60	88647
2026-01-02 10:57:10.30	321.37	12.58	-51.9	-54.4	3.6	0.00e+00	0	39	104	0	60	88695
2026-01-02 10:57:11.31	321.54	12.49	-51.9	-54.4	3.6	0.00e+00	0	39	104	0	60	88584
2026-01-02 10:57:12.33	321.72	12.40	-51.9	-54.4	3.6	0.00e+00	0	39	104	0	60	88464
2026-01-02 10:57:13.34	321.89	12.30	-51.9	-54.3	3.6	0.00e+00	0	39	104	0	60	88070
2026-01-02 10:57:14.35	322.06	12.21	-51.9	-54.4	3.6	0.00e+00	0	39	104	0	60	88668
2026-01-02 10:57:15.36	322.23	12.12	-51.9	-54.4	3.6	0.00e+00	0	39	104	0	60	88251
2026-01-02 10:57:16.37	322.40	12.03	-51.9	-54.4	3.6	0.00e+00	0	39	104	0	60	88591
2026-01-02 10:57:17.38	322.57	11.94	-51.9	-54.4	3.6	0.00e+00	0	39	104	0	60	88607
2026-01-02 10:57:18.39	322.73	11.85	-51.9	-54.3	3.6	0.00e+00	0	39	104	0	60	88124
2026-01-02 10:57:19.40	322.90	11.75	-51.9	-54.4	3.6	0.00e+00	0	39	104	0	60	88294
2026-01-02 10:57:20.41	323.06	11.66	-51.9	-54.4	3.6	0.00e+00	0	39	104	0	60	88327
2026-01-02 10:57:21.42	323.22	11.57	-51.9	-54.3	3.6	0.00e+00	0	39	104	0	60	88119
2026-01-02 10:57:22.44	323.39	11.48	-51.9	-54.4	3.6	0.00e+00	0	39	104	0	60	88368
2026-01-02 10:57:23.44	323.54	11.39	-51.9	-54.4	3.6	0.00e+00	0	39	104	0	60	88227
2026-01-02 10:57:24.46	323.71	11.30	-51.9	-54.4	3.6	0.00e+00	0	39	104	0	60	88627
2026-01-02 10:57:25.47	323.86	11.21	-51.9	-54.4	3.6	0.00e+00	0	39	104	0	60	88614
2026-01-02 10:57:26.48	324.02	11.12	-51.9	-54.4	3.6	0.00e+00	0	39	104	0	60	88401
2026-01-02 10:57:27.49	324.18	11.04	-51.9	-54.4	3.6	0.00e+00	0	39	104	0	60	88527
2026-01-02 10:57:28.50	324.33	10.95	-51.9	-54.4	3.6	0.00e+00	0	39	104	0	60	88428
2026-01-02 10:57:29.51	324.48	10.86	-51.9	-54.4	3.6	0.00e+00	0	39	104	0	60	88332
2026-01-02 10:57:30.52	324.64	10.77	-51.9	-54.3	3.6	0.00e+00	0	39	104	0	60	87947
2026-01-02 10:57:31.53	324.79	10.68	-51.9	-54.4	3.6	0.00e+00	0	39	104	0	60	88265
2026-01-02 10:57:32.54	324.94	10.60	-51.9	-54.3	3.6	0.00e+00	0	39	104	0	60	88055
2026-01-02 10:57:33.55	325.09	10.51	-51.9	-54.4	3.6	0.00e+00	0	39	104	0	60	88811
2026-01-02 10:57:34.56	325.23	10.42	-51.9	-54.4	3.6	0.00e+00	0	39	104	0	60	88550
2026-01-02 10:57:35.57	325.38	10.33	-51.9	-54.4	3.6	0.00e+00	0	39	104	0	60	88466
2026-01-02 10:57:36.58	325.53	10.25	-51.9	-54.4	3.6	0.00e+00	0	39	104	0	60	88527
2026-01-02 10:57:37.60	325.67	10.16	-51.9	-54.3	3.6	0.00e+00	0	39	104	0	60	88127
2026-01-02 10:57:38.60	325.82	10.08	-51.9	-54.4	3.6	0.00e+00	0	39	104	0	60	88578
2026-01-02 10:57:39.62	325.96	9.99	-51.9	-54.3	3.6	0.00e+00	0	39	104	0	60	87963
2026-01-02 10:57:40.63	326.10	9.90	-51.9	-54.3	3.6	0.00e+00	0	39	104	0	60	88167
2026-01-02 10:57:41.64	326.25	9.82	-51.9	-54.3	3.6	0.00e+00	0	39	104	0	60	88153
2026-01-02 10:57:42.65	326.39	9.73	-51.9	-54.4	3.6	0.00e+00	0	39	104	0	60	88453
2026-01-02 10:57:43.66	326.53	9.65	-51.9	-54.4	3.6	0.00e+00	0	39	104	0	60	88537
2026-01-02 10:57:44.67	326.66	9.56	-51.9	-54.3	3.6	0.00e+00	0	39	104	0	60	88017
2026-01-02 10:57:45.68	326.80	9.48	-51.9	-54.3	3.6	0.00e+00	0	39	104	0	60	87737
2026-01-02 10:57:46.69	326.94	9.40	-51.9	-54.4	3.5	0.00e+00	0	39	104	0	60	88336
2026-01-02 10:57:47.70	327.07	9.31	-51.9	-54.4	3.6	0.00e+00	0	39	104	0	60	88370
2026-01-02 10:57:48.72	327.21	9.23	-51.9	-54.3	3.6	0.00e+00	0	39	104	0	60	87984
2026-01-02 10:57:49.73	327.34	9.14	-51.9	-54.3	3.6	0.00e+00	0	39	104	0	60	87854
2026-01-02 10:57:50.74	327.48	9.06	-51.9	-54.3	3.6	0.00e+00	0	39	104	0	60	87807
2026-01-02 10:57:51.75	327.61	8.98	-51.9	-54.4	3.6	0.00e+00	0	39	104	0	60	88287
2026-01-02 10:57:52.76	327.74	8.90	-51.9	-54.4	3.5	0.00e+00	0	39	104	0	60	88296
2026-01-02 10:57:53.77	327.87	8.81	-51.9	-54.4	3.6	0.00e+00	0	39	104	0	60	88238
2026-01-02 10:57:54.78	328.00	8.73	-51.9	-54.4	3.6	0.00e+00	0	39	104	0	60	88286
2026-01-02 10:57:55.79	328.13	8.65	-51.9	-54.4	3.6	0.00e+00	0	39	104	0	60	88236
2026-01-02 10:57:56.80	328.26	8.57	-51.9	-54.4	3.6	0.00e+00	0	39	104	0	60	88699
2026-01-02 10:57:57.81	328.38	8.49	-51.9	-54.4	3.6	0.00e+00	0	39	104	0	60	88451
2026-01-02 10:57:58.82	328.51	8.41	-51.9	-54.4	3.6	0.00e+00	0	39	104	0	60	88614
2026-01-02 10:57:59.83	328.63	8.32	-51.9	-54.3	3.5	0.00e+00	0	39	104	0	60	88040
2026-01-02 10:58:00.84	328.76	8.24	-51.9	-54.4	3.5	0.00e+00	0	39	104	0	60	88329
2026-01-02 10:58:01.85	328.88	8.16	-51.9	-54.4	3.6	0.00e+00	0	39	104	0	60	88269
2026-01-02 10:58:02.86	329.00	8.08	-51.9	-54.3	3.6	0.00e+00	0	39	104	0	60	87938
2026-01-02 10:58:03.88	329.13	8.00	-51.9	-54.3	3.6	0.00e+00	0	39	104	0	60	87990
2026-01-02 10:58:04.89	329.25	7.92	-51.9	-54.3	3.6	0.00e+00	0	39	104	0	60	87883
2026-01-02 10:58:05.90	329.37	7.84	-51.9	-54.4	3.6	0.00e+00	0	39	104	0	60	88535
2026-01-02 10:58:06.91	329.49	7.76	-51.9	-54.4	3.6	0.00e+00	0	39	104	0	60	88602
2026-01-02 10:58:07.92	329.61	7.69	-51.9	-54.4	3.6	0.00e+00	0	39	104	0	60	88528
2026-01-02 10:58:08.93	329.73	7.61	-51.9	-54.3	3.6	0.00e+00	0	39	104	0	60	87913
2026-01-02 10:58:09.94	329.84	7.53	-51.9	-54.3	3.6	0.00e+00	0	39	104	0	60	88179
2026-01-02 10:58:10.95	329.96	7.45	-51.9	-54.4	3.6	0.00e+00	0	39	104	0	60	88561
2026-01-02 10:58:11.96	330.08	7.37	-51.9	-54.3	3.6	0.00e+00	0	39	104	0	60	87954
2026-01-02 10:58:12.97	330.19	7.29	-51.9	-54.4	3.6	0.00e+00	0	39	104	0	60	88397
2026-01-02 10:58:13.98	330.31	7.22	-51.9	-54.3	3.5	0.00e+00	0	39	104	0	60	88206
2026-01-02 10:58:14.99	330.42	7.14	-51.9	-54.4	3.6	0.00e+00	0	39	104	0	60	88427
2026-01-02 10:58:16.00	330.53	7.06	-51.9	-54.3	3.6	0.00e+00	0	39	104	0	60	87996
2026-01-02 10:58:17.01	330.65	6.99	-51.9	-54.4	3.6	0.00e+00	0	39	104	0	60	88292
2026-01-02 10:58:18.03	330.76	6.91	-51.9	-54.3	3.6	0.00e+00	0	39	104	0	60	88156
2026-01-02 10:58:19.04	330.87	6.83	-51.9	-54.4	3.6	0.00e+00	0	39	104	0	60	88542
2026-01-02 10:58:20.05	330.98	6.75	-51.9	-54.4	3.6	0.00e+00	0	39	104	0	60	88322
2026-01-02 10:58:21.06	331.09	6.68	-51.9	-54.3	3.6	0.00e+00	0	39	104	0	60	88090
2026-01-02 10:58:22.07	331.20	6.60	-51.9	-54.4	3.6	0.00e+00	0	39	104	0	60	88867
2026-01-02 10:58:23.08	331.31	6.53	-51.9	-54.4	3.6	0.00e+00	0	39	104	0	60	88676
2026-01-02 10:58:24.09	331.42	6.45	-51.9	-54.3	3.6	0.00e+00	0	39	104	0	60	87976
2026-01-02 10:58:25.10	331.52	6.38	-51.9	-54.4	3.6	0.00e+00	0	39	104	0	60	88562
2026-01-02 10:58:26.11	331.63	6.30	-51.9	-54.4	3.6	0.00e+00	0	39	104	0	60	88801
2026-01-02 10:58:27.12	331.73	6.23	-51.9	-54.3	3.6	0.00e+00	0	39	104	0	60	88110
2026-01-02 10:58:28.13	331.84	6.15	-51.9	-54.4	3.6	0.00e+00	0	39	104	0	60	88725
2026-01-02 10:58:29.14	331.94	6.08	-51.9	-54.4	3.6	0.00e+00	0	39	104	0	60	88490
2026-01-02 10:58:30.15	332.05	6.00	-51.9	-54.3	3.6	0.00e+00	0	39	104	0	60	88185
2026-01-02 10:58:31.16	332.15	5.93	-51.9	-54.4	3.6	0.00e+00	0	39	104	0	60	88250
2026-01-02 10:58:32.17	332.25	5.86	-51.9	-54.3	3.6	0.00e+00	0	39	104	0	60	88157
2026-01-02 10:58:33.18	332.36	5.78	-51.9	-54.4	3.6	0.00e+00	0	39	104	0	60	88286
2026-01-02 10:58:34.19	332.46	5.71	-51.9	-54.4	3.6	0.00e+00	0	39	104	0	60	88246
2026-01-02 10:58:35.20	332.56	5.64	-51.9	-54.4	3.6	0.00e+00	0	39	104	0	60	88224
2026-01-02 10:58:36.21	332.66	5.56	-51.9	-54.4	3.6	0.00e+00	0	39	104	0	60	88465
2026-01-02 10:58:37.22	332.76	5.49	-51.9	-54.4	3.6	0.00e+00	0	39	104	0	60	88552
2026-01-02 10:58:38.23	332.86	5.42	-51.9	-54.3	3.6	0.00e+00	0	39	104	0	60	88128
2026-01-02 10:58:39.24	332.96	5.35	-51.9	-54.3	3.6	0.00e+00	0	39	104	0	60	88112
2026-01-02 10:58:40.25	333.05	5.27	-51.9	-54.4	3.6	0.00e+00	0	39	104	0	60	88441
2026-01-02 10:58:41.26	333.15	5.20	-51.9	-54.4	3.5	0.00e+00	0	39	104	0	60	88480
2026-01-02 10:58:42.27	333.25	5.13	-51.9	-54.4	3.6	0.00e+00	0	39	104	0	60	88311
2026-01-02 10:58:43.28	333.34	5.06	-51.9	-54.4	3.6	0.00e+00	0	39	104	0	60	88494
2026-01-02 10:58:44.29	333.44	4.99	-51.9	-54.4	3.6	0.00e+00	0	39	104	0	60	88535
2026-01-02 10:58:45.30	333.53	4.92	-51.9	-54.4	3.6	0.00e+00	0	39	104	0	60	88570
2026-01-02 10:58:46.31	333.63	4.85	-51.9	-54.4	3.6	0.00e+00	0	39	104	0	60	88605
2026-01-02 10:58:47.32	333.72	4.78	-51.9	-54.4	3.6	0.00e+00	0	39	104	0	60	88281
2026-01-02 10:58:48.33	333.82	4.71	-51.9	-54.4	3.6	0.00e+00	0	39	104	0	60	88342
2026-01-02 10:58:49.35	333.91	4.63	-51.9	-54.4	3.6	0.00e+00	0	39	104	0	60	88259
2026-01-02 10:58:50.36	334.00	4.56	-51.9	-54.3	3.6	0.00e+00	0	39	104	0	60	88201
2026-01-02 10:58:51.37	334.09	4.49	-51.9	-54.4	3.6	0.00e+00	0	39	104	0	60	88668
2026-01-02 10:58:52.38	334.19	4.42	-51.9	-54.4	3.6	0.00e+00	0	39	104	0	60	88328
2026-01-02 10:58:53.39	334.28	4.35	-51.9	-54.4	3.6	0.00e+00	0	39	104	0	60	88569
2026-01-02 10:58:54.40	334.37	4.29	-51.9	-54.4	3.6	0.00e+00	0	39	104	0	60	88492
2026-01-02 10:58:55.41	334.46	4.22	-52.0	-54.4	3.6	0.00e+00	0	39	104	0	60	88820
2026-01-02 10:58:56.42	334.55	4.15	-51.9	-54.4	3.6	0.00e+00	0	39	104	0	60	89031
2026-01-02 10:58:57.44	334.64	4.08	-51.9	-54.3	3.6	0.00e+00	0	39	104	0	60	87980
2026-01-02 10:58:58.45	334.72	4.01	-51.9	-54.3	3.6	0.00e+00	0	39	104	0	60	88016
2026-01-02 10:58:59.46	334.81	3.94	-51.9	-54.4	3.6	0.00e+00	0	39	104	0	60	88831
2026-01-02 10:59:00.46	334.90	3.87	-51.9	-54.3	3.6	0.00e+00	0	39	104	0	60	88069
2026-01-02 10:59:01.47	334.99	3.80	-51.9	-54.4	3.6	0.00e+00	0	39	104	0	60	88432
2026-01-02 10:59:02.48	335.07	3.74	-51.9	-54.4	3.5	0.00e+00	0	39	104	0	60	88591
2026-01-02 10:59:03.50	335.16	3.67	-51.9	-54.4	3.6	0.00e+00	0	39	104	0	60	88383
2026-01-02 10:59:04.51	335.24	3.60	-51.9	-54.4	3.6	0.00e+00	0	39	104	0	60	88294
2026-01-02 10:59:05.52	335.33	3.53	-51.9	-54.4	3.6	0.00e+00	0	39	104	0	60	88888
2026-01-02 10:59:06.53	335.41	3.47	-51.9	-54.4	3.6	0.00e+00	0	39	104	0	60	88522
2026-01-02 10:59:07.54	335.50	3.40	-51.9	-54.3	3.6	0.00e+00	0	39	104	0	60	88128
2026-01-02 10:59:08.55	335.58	3.33	-51.9	-54.4	3.6	0.00e+00	0	39	104	0	60	88514
2026-01-02 10:59:09.56	335.67	3.27	-51.9	-54.4	3.6	0.00e+00	0	39	104	0	60	88551
2026-01-02 10:59:10.57	335.75	3.20	-51.9	-54.4	3.6	0.00e+00	0	39	104	0	60	88467
2026-01-02 10:59:11.58	335.83	3.13	-51.9	-54.3	3.6	0.00e+00	0	39	104	0	60	88169
2026-01-02 10:59:12.59	335.91	3.07	-51.9	-54.3	3.6	0.00e+00	0	39	104	0	60	87897
2026-01-02 10:59:13.60	335.99	3.00	-51.9	-54.4	3.6	0.00e+00	0	39	104	0	60	88234
2026-01-02 10:59:14.61	336.08	2.93	-51.9	-54.4	3.6	0.00e+00	0	39	104	0	60	88402
2026-01-02 10:59:15.62	336.16	2.87	-51.9	-54.4	3.6	0.00e+00	0	39	104	0	60	88246
2026-01-02 10:59:16.63	336.24	2.80	-51.9	-54.3	3.6	0.00e+00	0	39	104	0	60	88034
2026-01-02 10:59:17.64	336.32	2.74	-51.9	-54.3	3.6	0.00e+00	0	39	104	0	60	87966
2026-01-02 10:59:18.65	336.40	2.67	-51.9	-54.4	3.6	0.00e+00	0	39	104	0	60	88370
2026-01-02 10:59:19.66	336.47	2.61	-51.9	-54.4	3.6	0.00e+00	0	39	104	0	60	88268
2026-01-02 10:59:20.67	336.55	2.54	-51.9	-54.4	3.6	0.00e+00	0	39	104	0	60	88429
2026-01-02 10:59:21.68	336.63	2.48	-51.9	-54.3	3.6	0.00e+00	0	39	104	0	60	88131
2026-01-02 10:59:22.69	336.71	2.41	-51.9	-54.4	3.6	0.00e+00	0	39	104	0	60	88611
2026-01-02 10:59:23.70	336.79	2.35	-51.9	-54.4	3.6	0.00e+00	0	39	104	0	60	88471
2026-01-02 10:59:24.72	336.86	2.28	-51.9	-54.4	3.6	0.00e+00	0	39	104	0	60	88674
2026-01-02 10:59:25.73	336.94	2.22	-51.9	-54.4	3.6	0.00e+00	0	39	104	0	60	88649
2026-01-02 10:59:26.74	337.02	2.16	-52.0	-54.4	3.6	0.00e+00	0	39	104	0	60	88499
2026-01-02 10:59:27.75	337.09	2.09	-51.9	-54.4	3.6	0.00e+00	0	39	104	0	60	88774
2026-01-02 10:59:28.76	337.17	2.03	-51.9	-54.4	3.5	0.00e+00	0	39	104	0	60	88771
2026-01-02 10:59:29.76	337.24	1.96	-51.9	-54.3	3.6	0.00e+00	0	39	104	0	60	88171
2026-01-02 10:59:30.78	337.32	1.90	-51.9	-54.3	3.6	0.00e+00	0	39	104	0	60	88125
2026-01-02 10:59:31.79	337.39	1.84	-51.9	-54.4	3.6	0.00e+00	0	39	104	0	60	88307
2026-01-02 10:59:32.80	337.47	1.77	-51.9	-54.4	3.6	0.00e+00	0	39	104	0	60	88454
2026-01-02 10:59:33.81	337.54	1.71	-51.9	-54.4	3.6	0.00e+00	0	39	104	0	60	88292
2026-01-02 10:59:34.82	337.61	1.65	-51.9	-54.4	3.6	0.00e+00	0	39	104	0	60	88418
2026-01-02 10:59:35.83	337.69	1.59	-51.9	-54.4	3.6	0.00e+00	0	39	104	0	60	88323
2026-01-02 10:59:36.84	337.76	1.52	-51.9	-54.4	3.6	0.00e+00	0	39	104	0	60	88408
2026-01-02 10:59:37.85	337.83	1.46	-51.9	-54.3	3.6	0.00e+00	0	39	104	0	60	87988
2026-01-02 10:59:38.86	337.90	1.40	-51.9	-54.4	3.6	0.00e+00	0	39	104	0	60	88298
2026-01-02 10:59:39.87	337.97	1.34	-51.9	-54.4	3.6	0.00e+00	0	39	104	0	60	88568
2026-01-02 10:59:40.88	338.04	1.27	-51.9	-54.3	3.6	0.00e+00	0	39	104	0	60	88086
2026-01-02 10:59:41.89	338.11	1.21	-51.9	-54.4	3.6	0.00e+00	0	39	104	0	60	88580
2026-01-02 10:59:42.90	338.18	1.15	-51.9	-54.4	3.6	0.00e+00	0	39	104	0	60	88687
2026-01-02 10:59:43.91	338.25	1.09	-51.9	-54.4	3.6	0.00e+00	0	39	104	0	60	88667
2026-01-02 10:59:44.92	338.32	1.03	-51.9	-54.4	3.6	0.00e+00	0	39	104	0	60	88493
2026-01-02 10:59:45.93	338.39	0.97	-51.9	-54.4	3.6	0.00e+00	0	39	104	0	60	88532
2026-01-02 10:59:46.94	338.46	0.91	-51.9	-54.4	3.6	0.00e+00	0	39	104	0	60	88947
2026-01-02 10:59:47.95	338.53	0.84	-51.9	-54.3	3.6	0.00e+00	0	39	104	0	60	88123
2026-01-02 10:59:48.97	338.60	0.78	-51.9	-54.4	3.6	0.00e+00	0	39	104	0	60	88288
2026-01-02 10:59:49.98	338.67	0.72	-51.9	-54.3	3.5	0.00e+00	0	39	104	0	60	87969
2026-01-02 10:59:50.99	338.74	0.66	-51.9	-54.4	3.6	0.00e+00	0	39	104	0	60	88606
2026-01-02 10:59:52.00	338.80	0.60	-51.9	-54.4	3.6	0.00e+00	0	39	104	0	60	88434
2026-01-02 10:59:53.01	338.87	0.54	-51.9	-54.4	3.6	0.00e+00	0	39	104	0	60	88826
2026-01-02 10:59:54.02	338.94	0.48	-51.9	-54.4	3.5	0.00e+00	0	39	104	0	60	88322
2026-01-02 10:59:55.03	339.00	0.42	-51.9	-54.4	3.6	0.00e+00	0	39	104	0	60	88264
2026-01-02 10:59:56.04	339.07	0.36	-51.9	-54.4	3.6	0.00e+00	0	39	104	0	60	88542
2026-01-02 10:59:57.05	339.14	0.30	-51.9	-54.4	3.6	0.00e+00	0	39	104	0	60	88289
2026-01-02 10:59:58.06	339.20	0.24	-51.9	-54.3	3.6	0.00e+00	0	39	104	0	60	87902
2026-01-02 10:59:59.08	339.27	0.18	-51.9	-54.4	3.6	0.00e+00	0	39	104	0	60	88574
2026-01-02 11:00:00.09	339.33	0.12	-51.9	-54.4	3.6	0.00e+00	0	39	104	0	60	88328
2026-01-02 11:00:01.10	339.40	0.06	-51.9	-54.3	3.6	0.00e+00	0	39	104	0	60	87956
2026-01-02 11:00:02.11	339.46	0.00	-51.9	-54.3	3.6	0.00e+00	0	39	104	0	60	88166

#Closed at: 2026-01-02 11:00:02
#Recorded file [0 MB]: D:/lorett/data/35034_260102_134852.dat