passes_logs/2026/01/02/R4.6S_Anadyr_2ch/R4.6S_Anadyr_2ch__20260102_074112_2025-108B_rec.log

#Pass ID: 20260102_074112_2025-108B
#Satellite: 2025-108B
#Configuration: 3PB_600M
#almurnet v.1.7.20251203
#Start time: 2026-01-02 07:41:14

#Version: 2.2.20231116
#Station: R4.6S_Anadyr_2ch
#Location: 177.4865 lon 64.73178 lat
#TLE: 1 64088U 25108B   25351.01672131  .00008460  00000+0  43413-3 0  9994
#TLE: 2 64088  97.4940  63.8579 0011684 285.1423  74.8517 15.16717580 31720

#Time	Az	El	Level	Level2	SNR	BER	BlckErr	Temp	State	Recorded	gain1	gain2
2026-01-02 07:41:14.90	108.45	0.15	-51.6	-52.9	3.4	0.00e+00	0	34	0	0	60	74495
2026-01-02 07:41:15.90	108.38	0.21	-51.7	-54.2	3.6	0.00e+00	0	35	104	0	60	86405
2026-01-02 07:41:16.92	108.30	0.26	-51.8	-54.2	3.6	0.00e+00	0	35	104	0	60	86770
2026-01-02 07:41:17.93	108.22	0.32	-51.7	-54.2	3.6	0.00e+00	0	35	104	0	60	86898
2026-01-02 07:41:18.94	108.15	0.38	-51.7	-54.1	3.6	0.00e+00	0	35	104	0	60	86210
2026-01-02 07:41:19.95	108.07	0.44	-51.7	-54.3	3.5	0.00e+00	0	35	104	0	60	87342
2026-01-02 07:41:20.96	108.00	0.50	-51.8	-54.3	3.6	0.00e+00	0	35	104	0	60	87329
2026-01-02 07:41:21.97	107.92	0.56	-51.8	-54.3	3.6	0.00e+00	0	35	104	0	60	87663
2026-01-02 07:41:22.98	107.84	0.62	-51.8	-54.3	3.6	0.00e+00	0	36	104	0	60	87430
2026-01-02 07:41:23.99	107.76	0.68	-51.8	-54.2	3.6	0.00e+00	0	36	104	0	60	86966
2026-01-02 07:41:25.00	107.68	0.73	-51.7	-54.2	3.6	0.00e+00	0	36	104	0	60	87100
2026-01-02 07:41:26.01	107.61	0.79	-51.8	-54.2	3.6	0.00e+00	0	36	104	0	60	86775
2026-01-02 07:41:27.02	107.53	0.85	-51.8	-54.3	3.6	0.00e+00	0	36	104	0	60	87403
2026-01-02 07:41:28.03	107.45	0.91	-51.8	-54.3	3.6	0.00e+00	0	36	104	0	60	87396
2026-01-02 07:41:29.04	107.37	0.97	-51.8	-54.3	3.6	0.00e+00	0	36	104	0	60	87420
2026-01-02 07:41:30.05	107.29	1.03	-51.8	-54.3	3.6	0.00e+00	0	36	104	0	60	87341
2026-01-02 07:41:31.06	107.21	1.09	-51.8	-54.3	3.6	0.00e+00	0	36	104	0	60	88039
2026-01-02 07:41:32.07	107.12	1.15	-51.8	-54.3	3.6	0.00e+00	0	36	104	0	60	87385
2026-01-02 07:41:33.08	107.04	1.21	-51.8	-54.3	3.6	0.00e+00	0	36	104	0	60	87538
2026-01-02 07:41:34.09	106.96	1.27	-51.8	-54.3	3.6	0.00e+00	0	36	104	0	60	87509
2026-01-02 07:41:35.10	106.88	1.33	-51.9	-54.4	3.6	0.00e+00	0	36	104	0	60	88344
2026-01-02 07:41:36.11	106.80	1.39	-51.8	-54.3	3.6	0.00e+00	0	36	104	0	60	87463
2026-01-02 07:41:37.12	106.71	1.45	-51.8	-54.3	3.6	0.00e+00	0	36	104	0	60	87653
2026-01-02 07:41:38.13	106.63	1.51	-51.8	-54.3	3.6	0.00e+00	0	36	104	0	60	87678
2026-01-02 07:41:39.14	106.54	1.57	-51.8	-54.3	3.6	0.00e+00	0	36	104	0	60	87635
2026-01-02 07:41:40.16	106.46	1.64	-51.9	-54.3	3.6	0.00e+00	0	36	104	0	60	88033
2026-01-02 07:41:41.17	106.37	1.70	-51.8	-54.3	3.6	0.00e+00	0	36	104	0	60	87472
2026-01-02 07:41:42.18	106.29	1.76	-51.8	-54.3	3.6	0.00e+00	0	36	104	0	60	87324
2026-01-02 07:41:43.18	106.20	1.82	-51.8	-54.3	3.6	0.00e+00	0	36	104	0	60	87705
2026-01-02 07:41:44.20	106.12	1.88	-51.9	-54.4	3.6	0.00e+00	0	36	104	0	60	88776
2026-01-02 07:41:45.21	106.03	1.94	-51.9	-54.3	3.6	0.00e+00	0	36	104	0	60	88217
2026-01-02 07:41:46.22	105.94	2.00	-51.8	-54.3	3.6	0.00e+00	0	36	104	0	60	87389
2026-01-02 07:41:47.23	105.85	2.06	-51.8	-54.3	3.6	0.00e+00	0	36	104	0	60	87468
2026-01-02 07:41:48.24	105.76	2.13	-51.9	-54.4	3.6	0.00e+00	0	36	104	0	60	88400
2026-01-02 07:41:49.25	105.68	2.19	-51.8	-54.3	3.6	0.00e+00	0	36	104	0	60	87473
2026-01-02 07:41:50.26	105.59	2.25	-51.8	-54.2	3.6	0.00e+00	0	36	104	0	60	87164
2026-01-02 07:41:51.27	105.50	2.31	-51.8	-54.3	3.6	0.00e+00	0	36	104	0	60	87581
2026-01-02 07:41:52.28	105.41	2.37	-51.9	-54.4	3.6	0.00e+00	0	36	104	0	60	88279
2026-01-02 07:41:53.29	105.31	2.44	-51.9	-54.3	3.6	0.00e+00	0	36	104	0	60	87761
2026-01-02 07:41:54.30	105.22	2.50	-51.8	-54.2	3.6	0.00e+00	0	36	104	0	60	87148
2026-01-02 07:41:55.31	105.13	2.56	-51.9	-54.3	3.6	0.00e+00	0	36	104	0	60	87808
2026-01-02 07:41:56.32	105.04	2.62	-51.8	-54.3	3.6	0.00e+00	0	36	104	0	60	87463
2026-01-02 07:41:57.33	104.95	2.69	-51.8	-54.3	3.6	0.00e+00	0	36	104	0	60	87648
2026-01-02 07:41:58.34	104.85	2.75	-51.9	-54.4	3.6	0.00e+00	0	36	104	0	60	88451
2026-01-02 07:41:59.35	104.76	2.81	-51.8	-54.3	3.6	0.00e+00	0	36	104	0	60	87377
2026-01-02 07:42:00.36	104.66	2.88	-51.9	-54.4	3.6	0.00e+00	0	36	104	0	60	88942
2026-01-02 07:42:01.37	104.57	2.94	-51.8	-54.3	3.6	0.00e+00	0	36	104	0	60	87470
2026-01-02 07:42:02.38	104.47	3.00	-51.8	-54.3	3.6	0.00e+00	0	37	104	0	60	87441
2026-01-02 07:42:03.39	104.38	3.07	-51.9	-54.4	3.6	0.00e+00	0	37	104	0	60	88472
2026-01-02 07:42:04.40	104.28	3.13	-51.9	-54.4	3.6	0.00e+00	0	36	104	0	60	88474
2026-01-02 07:42:05.41	104.18	3.19	-51.9	-54.3	3.6	0.00e+00	0	37	104	0	60	88009
2026-01-02 07:42:06.42	104.09	3.26	-51.9	-54.4	3.6	0.00e+00	0	37	104	0	60	88346
2026-01-02 07:42:07.44	103.99	3.32	-51.9	-54.3	3.6	0.00e+00	0	37	104	0	60	88060
2026-01-02 07:42:08.45	103.89	3.39	-51.8	-54.3	3.6	0.00e+00	0	37	104	0	60	87735
2026-01-02 07:42:09.46	103.79	3.45	-51.8	-54.2	3.6	0.00e+00	0	37	104	0	60	86956
2026-01-02 07:42:10.47	103.69	3.52	-51.8	-54.2	3.6	0.00e+00	0	37	104	0	60	87043
2026-01-02 07:42:11.48	103.59	3.58	-51.8	-54.3	3.5	0.00e+00	0	37	104	0	60	87432
2026-01-02 07:42:12.49	103.49	3.64	-51.8	-54.2	3.6	0.00e+00	0	37	104	0	60	86940
2026-01-02 07:42:13.50	103.39	3.71	-51.8	-54.3	3.6	0.00e+00	0	37	104	0	60	87313
2026-01-02 07:42:14.51	103.28	3.77	-51.8	-54.3	3.5	0.00e+00	0	37	104	0	60	87580
2026-01-02 07:42:15.52	103.18	3.84	-51.8	-54.2	3.6	0.00e+00	0	37	104	0	60	87037
2026-01-02 07:42:16.53	103.08	3.90	-51.8	-54.3	3.6	0.00e+00	0	37	104	0	60	87309
2026-01-02 07:42:17.54	102.97	3.97	-51.8	-54.3	3.6	0.00e+00	0	37	104	0	60	87930
2026-01-02 07:42:18.55	102.87	4.04	-51.8	-54.3	3.6	0.00e+00	0	37	104	0	60	87602
2026-01-02 07:42:19.56	102.76	4.10	-51.9	-54.3	3.6	0.00e+00	0	37	104	0	60	87729
2026-01-02 07:42:20.57	102.66	4.17	-51.9	-54.3	3.6	0.00e+00	0	37	104	0	60	88197
2026-01-02 07:42:21.58	102.55	4.23	-51.9	-54.3	3.6	0.00e+00	0	37	104	0	60	88129
2026-01-02 07:42:22.59	102.44	4.30	-51.8	-54.3	3.6	0.00e+00	0	37	104	0	60	87375
2026-01-02 07:42:23.60	102.34	4.36	-51.8	-54.3	3.6	0.00e+00	0	37	104	0	60	87529
2026-01-02 07:42:24.61	102.23	4.43	-51.8	-54.2	3.6	0.00e+00	0	37	104	0	60	86644
2026-01-02 07:42:25.62	102.12	4.50	-51.7	-54.2	3.6	0.00e+00	0	37	104	0	60	86826
2026-01-02 07:42:26.63	102.01	4.56	-51.7	-54.2	3.6	0.00e+00	0	37	104	0	60	86683
2026-01-02 07:42:27.64	101.90	4.63	-51.8	-54.3	3.6	0.00e+00	0	37	104	0	60	87334
2026-01-02 07:42:28.65	101.79	4.70	-51.8	-54.3	3.5	0.00e+00	0	37	104	0	60	87262
2026-01-02 07:42:29.66	101.68	4.76	-51.8	-54.2	3.6	0.00e+00	0	37	104	0	60	86709
2026-01-02 07:42:30.67	101.57	4.83	-51.8	-54.3	3.6	0.00e+00	0	37	104	0	60	87499
2026-01-02 07:42:31.68	101.45	4.90	-51.8	-54.2	3.6	0.00e+00	0	37	104	0	60	86930
2026-01-02 07:42:32.69	101.34	4.96	-51.7	-54.2	3.6	0.00e+00	0	37	104	0	60	86784
2026-01-02 07:42:33.70	101.23	5.03	-51.7	-54.2	3.6	0.00e+00	0	37	104	0	60	86745
2026-01-02 07:42:34.71	101.11	5.10	-51.7	-54.2	3.6	0.00e+00	0	37	104	0	60	86693
2026-01-02 07:42:35.72	101.00	5.17	-51.8	-54.2	3.6	0.00e+00	0	37	104	0	60	86870
2026-01-02 07:42:36.73	100.88	5.24	-51.7	-54.2	3.6	0.00e+00	0	37	104	0	60	86733
2026-01-02 07:42:37.74	100.76	5.30	-51.8	-54.2	3.6	0.00e+00	0	37	104	0	60	86859
2026-01-02 07:42:38.76	100.64	5.37	-51.8	-54.3	3.6	0.00e+00	0	37	104	0	60	87822
2026-01-02 07:42:39.76	100.53	5.44	-51.8	-54.3	3.6	0.00e+00	0	37	104	0	60	87829
2026-01-02 07:42:40.78	100.41	5.51	-51.8	-54.3	3.6	0.00e+00	0	37	104	0	60	87461
2026-01-02 07:42:41.79	100.29	5.58	-51.8	-54.3	3.6	0.00e+00	0	37	104	0	60	87495
2026-01-02 07:42:42.80	100.17	5.65	-51.9	-54.3	3.6	0.00e+00	0	37	104	0	60	87900
2026-01-02 07:42:43.81	100.05	5.71	-51.8	-54.3	3.6	0.00e+00	0	37	104	0	60	87695
2026-01-02 07:42:44.82	99.93	5.78	-51.8	-54.3	3.6	0.00e+00	0	37	104	0	60	87318
2026-01-02 07:42:45.83	99.80	5.85	-51.8	-54.3	3.6	0.00e+00	0	37	104	0	60	87777
2026-01-02 07:42:46.84	99.68	5.92	-51.9	-54.3	3.6	0.00e+00	0	37	104	0	60	87957
2026-01-02 07:42:47.85	99.56	5.99	-51.9	-54.4	3.6	0.00e+00	0	37	104	0	60	89001
2026-01-02 07:42:48.86	99.43	6.06	-51.9	-54.4	3.6	0.00e+00	0	37	104	0	60	88318
2026-01-02 07:42:49.87	99.31	6.13	-51.8	-54.3	3.6	0.00e+00	0	37	104	0	60	87252
2026-01-02 07:42:50.88	99.18	6.20	-51.9	-54.4	3.6	0.00e+00	0	37	104	0	60	88310
2026-01-02 07:42:51.89	99.05	6.27	-51.8	-54.3	3.6	0.00e+00	0	37	104	0	60	87422
2026-01-02 07:42:52.90	98.92	6.34	-51.9	-54.4	3.6	0.00e+00	0	37	104	0	60	88736
2026-01-02 07:42:53.91	98.80	6.41	-51.9	-54.4	3.6	0.00e+00	0	37	104	0	60	88240
2026-01-02 07:42:54.92	98.67	6.48	-51.9	-54.4	3.6	0.00e+00	0	37	104	0	60	88715
2026-01-02 07:42:55.93	98.54	6.55	-51.8	-54.3	3.6	0.00e+00	0	37	104	0	60	87559
2026-01-02 07:42:56.94	98.41	6.62	-51.8	-54.3	3.6	0.00e+00	0	37	104	0	60	87368
2026-01-02 07:42:57.95	98.27	6.69	-51.8	-54.3	3.6	0.00e+00	0	37	104	0	60	88055
2026-01-02 07:42:58.96	98.14	6.76	-51.9	-54.3	3.6	0.00e+00	0	37	104	0	60	87469
2026-01-02 07:42:59.97	98.01	6.83	-51.8	-54.2	3.6	0.00e+00	0	37	104	0	60	87101
2026-01-02 07:43:00.98	97.87	6.90	-51.8	-54.3	3.6	0.00e+00	0	37	104	0	60	88122
2026-01-02 07:43:01.99	97.74	6.97	-51.8	-54.3	3.6	0.00e+00	0	37	104	0	60	87371
2026-01-02 07:43:03.00	97.60	7.05	-51.9	-54.3	3.6	0.00e+00	0	37	104	0	60	88066
2026-01-02 07:43:04.01	97.47	7.12	-51.9	-54.4	3.6	0.00e+00	0	37	104	0	60	88340
2026-01-02 07:43:05.02	97.33	7.19	-51.8	-54.3	3.6	0.00e+00	0	37	104	0	60	87624
2026-01-02 07:43:06.03	97.19	7.26	-51.8	-54.3	3.6	0.00e+00	0	37	104	0	60	87852
2026-01-02 07:43:07.04	97.05	7.33	-51.8	-54.3	3.6	0.00e+00	0	37	104	0	60	87651
2026-01-02 07:43:08.05	96.91	7.40	-51.9	-54.3	3.6	0.00e+00	0	37	104	0	60	88198
2026-01-02 07:43:09.06	96.77	7.48	-51.8	-54.3	3.6	0.00e+00	0	37	104	0	60	87329
2026-01-02 07:43:10.07	96.63	7.55	-51.9	-54.4	3.6	0.00e+00	0	37	104	0	60	88291
2026-01-02 07:43:11.08	96.49	7.62	-51.9	-54.4	3.6	0.00e+00	0	37	104	0	60	88674
2026-01-02 07:43:12.10	96.34	7.69	-51.8	-54.3	3.6	0.00e+00	0	37	104	0	60	87699
2026-01-02 07:43:13.11	96.20	7.77	-51.8	-54.3	3.6	0.00e+00	0	37	104	0	60	87714
2026-01-02 07:43:14.12	96.05	7.84	-51.8	-54.3	3.6	0.00e+00	0	37	104	0	60	88071
2026-01-02 07:43:15.13	95.91	7.91	-51.9	-54.3	3.6	0.00e+00	0	37	104	0	60	87809
2026-01-02 07:43:16.14	95.76	7.98	-51.8	-54.2	3.6	0.00e+00	0	37	104	0	60	86767
2026-01-02 07:43:17.15	95.61	8.06	-51.9	-54.4	3.6	0.00e+00	0	37	104	0	60	88527
2026-01-02 07:43:18.16	95.46	8.13	-51.9	-54.3	3.6	0.00e+00	0	37	104	0	60	87946
2026-01-02 07:43:19.17	95.31	8.20	-51.9	-54.4	3.6	0.00e+00	0	37	104	0	60	88777
2026-01-02 07:43:20.18	95.16	8.28	-51.8	-54.3	3.6	0.00e+00	0	37	104	0	60	87966
2026-01-02 07:43:21.19	95.01	8.35	-51.8	-54.3	3.6	0.00e+00	0	37	104	0	60	87390
2026-01-02 07:43:22.21	94.86	8.42	-51.8	-54.3	3.6	0.00e+00	0	38	104	0	60	87573
2026-01-02 07:43:23.22	94.70	8.50	-51.8	-54.2	3.6	0.00e+00	0	37	104	0	60	86888
2026-01-02 07:43:24.23	94.55	8.57	-51.8	-54.2	3.6	0.00e+00	0	38	104	0	60	86738
2026-01-02 07:43:25.24	94.39	8.65	-51.8	-54.3	3.6	0.00e+00	0	37	104	0	60	87495
2026-01-02 07:43:26.25	94.24	8.72	-51.8	-54.3	3.6	0.00e+00	0	38	104	0	60	87779
2026-01-02 07:43:27.26	94.08	8.79	-51.9	-54.3	3.6	0.00e+00	0	38	104	0	60	87501
2026-01-02 07:43:28.27	93.92	8.87	-51.8	-54.3	3.6	0.00e+00	0	37	104	0	60	87742
2026-01-02 07:43:29.28	93.76	8.94	-51.8	-54.3	3.6	0.00e+00	0	37	104	0	60	87974
2026-01-02 07:43:30.29	93.60	9.02	-51.9	-54.4	3.6	0.00e+00	0	38	104	0	60	88240
2026-01-02 07:43:31.30	93.44	9.09	-51.9	-54.4	3.6	0.00e+00	0	38	104	0	60	88467
2026-01-02 07:43:32.31	93.28	9.17	-51.8	-54.3	3.6	0.00e+00	0	38	104	0	60	87779
2026-01-02 07:43:33.33	93.11	9.24	-51.8	-54.3	3.6	0.00e+00	0	38	104	0	60	87215
2026-01-02 07:43:34.34	92.95	9.32	-51.8	-54.3	3.6	0.00e+00	0	38	104	0	60	87620
2026-01-02 07:43:35.35	92.78	9.39	-51.8	-54.3	3.5	0.00e+00	0	38	104	0	60	87387
2026-01-02 07:43:36.36	92.61	9.47	-51.9	-54.3	3.6	0.00e+00	0	38	104	0	60	88101
2026-01-02 07:43:37.37	92.45	9.54	-51.9	-54.4	3.6	0.00e+00	0	38	104	0	60	88284
2026-01-02 07:43:38.38	92.28	9.62	-51.9	-54.3	3.6	0.00e+00	0	38	104	0	60	87966
2026-01-02 07:43:39.39	92.11	9.69	-51.9	-54.4	3.6	0.00e+00	0	38	104	0	60	88882
2026-01-02 07:43:40.40	91.94	9.77	-51.9	-54.4	3.6	0.00e+00	0	38	104	0	60	88240
2026-01-02 07:43:41.41	91.76	9.84	-51.9	-54.4	3.6	0.00e+00	0	38	104	0	60	88706
2026-01-02 07:43:42.42	91.59	9.92	-51.8	-54.3	3.6	0.00e+00	0	38	104	0	60	87562
2026-01-02 07:43:43.43	91.42	9.99	-51.9	-54.3	3.6	0.00e+00	0	38	104	0	60	87540
2026-01-02 07:43:44.44	91.24	10.07	-51.9	-54.3	3.6	0.00e+00	0	38	104	0	60	87706
2026-01-02 07:43:45.46	91.06	10.15	-51.9	-54.4	3.6	0.00e+00	0	38	104	0	60	88322
2026-01-02 07:43:46.46	90.89	10.22	-51.9	-54.3	3.6	0.00e+00	0	38	104	0	60	88019
2026-01-02 07:43:47.48	90.71	10.30	-51.8	-54.3	3.6	0.00e+00	0	38	104	0	60	87602
2026-01-02 07:43:48.49	90.53	10.37	-51.9	-54.3	3.6	0.00e+00	0	38	104	0	60	87948
2026-01-02 07:43:49.50	90.35	10.45	-51.8	-54.3	3.6	0.00e+00	0	38	104	0	60	87380
2026-01-02 07:43:50.51	90.16	10.53	-51.9	-54.4	3.6	0.00e+00	0	38	104	0	60	89052
2026-01-02 07:43:51.52	89.98	10.60	-51.9	-54.4	3.6	0.00e+00	0	38	104	0	60	88428
2026-01-02 07:43:52.53	89.80	10.68	-51.9	-54.4	3.6	0.00e+00	0	38	104	0	60	88750
2026-01-02 07:43:53.54	89.61	10.75	-52.0	-54.5	3.6	0.00e+00	0	38	104	0	60	89405
2026-01-02 07:43:54.55	89.42	10.83	-51.9	-54.3	3.6	0.00e+00	0	38	104	0	60	88043
2026-01-02 07:43:55.56	89.24	10.91	-51.9	-54.4	3.6	0.00e+00	0	38	104	0	60	88558
2026-01-02 07:43:56.57	89.05	10.98	-51.8	-54.2	3.6	0.00e+00	0	38	104	0	60	87024
2026-01-02 07:43:57.58	88.86	11.06	-51.8	-54.3	3.6	0.00e+00	0	38	104	0	60	87735
2026-01-02 07:43:58.59	88.66	11.14	-51.8	-54.3	3.6	0.00e+00	0	38	104	0	60	87815
2026-01-02 07:43:59.60	88.47	11.21	-51.9	-54.4	3.6	0.00e+00	0	38	104	0	60	88382
2026-01-02 07:44:00.61	88.28	11.29	-51.9	-54.3	3.6	0.00e+00	0	38	104	0	60	88020
2026-01-02 07:44:01.62	88.08	11.37	-51.9	-54.4	3.6	0.00e+00	0	38	104	0	60	88797
2026-01-02 07:44:02.63	87.89	11.44	-51.9	-54.4	3.6	0.00e+00	0	38	104	0	60	88647
2026-01-02 07:44:03.65	87.69	11.52	-51.9	-54.4	3.6	0.00e+00	0	38	104	0	60	88499
2026-01-02 07:44:04.66	87.49	11.60	-51.9	-54.3	3.6	0.00e+00	0	38	104	0	60	88200
2026-01-02 07:44:05.67	87.29	11.67	-51.9	-54.4	3.6	0.00e+00	0	38	104	0	60	88826
2026-01-02 07:44:06.68	87.09	11.75	-51.8	-54.3	3.6	0.00e+00	0	38	104	0	60	87453
2026-01-02 07:44:07.69	86.88	11.83	-51.9	-54.3	3.6	0.00e+00	0	38	104	0	60	88075
2026-01-02 07:44:08.70	86.68	11.90	-51.8	-54.3	3.6	0.00e+00	0	38	104	0	60	87918
2026-01-02 07:44:09.71	86.47	11.98	-51.8	-54.3	3.5	0.00e+00	0	38	104	0	60	87960
2026-01-02 07:44:10.72	86.27	12.06	-51.8	-54.3	3.6	0.00e+00	0	38	104	0	60	87731
2026-01-02 07:44:11.73	86.06	12.13	-51.9	-54.4	3.6	0.00e+00	0	38	104	0	60	88361
2026-01-02 07:44:12.74	85.85	12.21	-51.9	-54.4	3.6	0.00e+00	0	38	104	0	60	88454
2026-01-02 07:44:13.75	85.64	12.29	-51.9	-54.4	3.6	0.00e+00	0	38	104	0	60	88730
2026-01-02 07:44:14.77	85.42	12.36	-51.9	-54.4	3.6	0.00e+00	0	38	104	0	60	88356
2026-01-02 07:44:15.78	85.21	12.44	-51.8	-54.3	3.5	0.00e+00	0	38	104	0	60	87301
2026-01-02 07:44:16.79	85.00	12.52	-51.9	-54.4	3.6	0.00e+00	0	38	104	0	60	88352
2026-01-02 07:44:17.80	84.78	12.59	-51.9	-54.4	3.6	0.00e+00	0	38	104	0	60	88348
2026-01-02 07:44:18.81	84.56	12.67	-51.9	-54.3	3.6	0.00e+00	0	38	104	0	60	87807
2026-01-02 07:44:19.82	84.34	12.75	-51.9	-54.3	3.6	0.00e+00	0	38	104	0	60	87846
2026-01-02 07:44:20.83	84.12	12.82	-51.8	-54.3	3.6	0.00e+00	0	38	104	0	60	87325
2026-01-02 07:44:21.85	83.90	12.90	-51.8	-54.3	3.5	0.00e+00	0	38	104	0	60	88067
2026-01-02 07:44:22.86	83.68	12.98	-51.8	-54.3	3.6	0.00e+00	0	38	104	0	60	87856
2026-01-02 07:44:23.87	83.45	13.05	-51.8	-54.2	3.6	0.00e+00	0	38	104	0	60	86798
2026-01-02 07:44:24.88	83.23	13.13	-51.8	-54.2	3.6	0.00e+00	0	38	104	0	60	86703
2026-01-02 07:44:25.89	83.00	13.21	-51.8	-54.3	3.6	0.00e+00	0	38	104	0	60	87527
2026-01-02 07:44:26.90	82.77	13.28	-51.8	-54.3	3.6	0.00e+00	0	38	104	0	60	87516
2026-01-02 07:44:27.91	82.54	13.36	-51.8	-54.3	3.6	0.00e+00	0	38	104	0	60	87733
2026-01-02 07:44:28.92	82.31	13.43	-51.8	-54.2	3.6	0.00e+00	0	38	104	0	60	86985
2026-01-02 07:44:29.93	82.08	13.51	-51.8	-54.3	3.6	0.00e+00	0	38	104	0	60	87561
2026-01-02 07:44:30.94	81.85	13.59	-51.8	-54.3	3.6	0.00e+00	0	38	104	0	60	87632
2026-01-02 07:44:31.95	81.61	13.66	-51.8	-54.3	3.6	0.00e+00	0	38	104	0	60	87558
2026-01-02 07:44:32.97	81.37	13.74	-51.9	-54.4	3.6	0.00e+00	0	38	104	0	60	88284
2026-01-02 07:44:33.98	81.13	13.81	-51.9	-54.4	3.6	0.00e+00	0	38	104	0	60	89103
2026-01-02 07:44:34.99	80.89	13.89	-51.9	-54.3	3.6	0.00e+00	0	38	104	0	60	88114
2026-01-02 07:44:36.00	80.65	13.96	-51.9	-54.4	3.6	0.00e+00	0	38	104	0	60	88788
2026-01-02 07:44:37.01	80.41	14.04	-51.9	-54.3	3.6	0.00e+00	0	38	104	0	60	87660
2026-01-02 07:44:38.02	80.16	14.11	-51.8	-54.3	3.6	0.00e+00	0	38	104	0	60	87768
2026-01-02 07:44:39.03	79.92	14.19	-51.9	-54.3	3.6	0.00e+00	0	38	104	0	60	88018
2026-01-02 07:44:40.04	79.67	14.26	-51.9	-54.4	3.6	0.00e+00	0	38	104	0	60	88733
2026-01-02 07:44:41.05	79.42	14.33	-51.9	-54.3	3.6	0.00e+00	0	38	104	0	60	88073
2026-01-02 07:44:42.06	79.17	14.41	-51.9	-54.4	3.6	0.00e+00	0	38	104	0	60	88520
2026-01-02 07:44:43.07	78.92	14.48	-51.9	-54.4	3.6	0.00e+00	0	38	104	0	60	88398
2026-01-02 07:44:44.08	78.67	14.56	-51.9	-54.4	3.6	0.00e+00	0	38	104	0	60	88506
2026-01-02 07:44:45.09	78.42	14.63	-51.9	-54.4	3.6	0.00e+00	0	38	104	0	60	88328
2026-01-02 07:44:46.10	78.16	14.70	-51.9	-54.4	3.6	0.00e+00	0	38	104	0	60	89140
2026-01-02 07:44:47.12	77.90	14.78	-51.9	-54.4	3.6	0.00e+00	0	38	104	0	60	88357
2026-01-02 07:44:48.13	77.64	14.85	-51.9	-54.4	3.6	0.00e+00	0	38	104	0	60	88466
2026-01-02 07:44:49.14	77.38	14.92	-51.9	-54.3	3.6	0.00e+00	0	38	104	0	60	88205
2026-01-02 07:44:50.15	77.12	14.99	-51.8	-54.3	3.6	0.00e+00	0	38	104	0	60	87897
2026-01-02 07:44:51.16	76.86	15.06	-51.9	-54.4	3.6	0.00e+00	0	38	104	0	60	88611
2026-01-02 07:44:52.17	76.59	15.14	-51.9	-54.4	3.6	0.00e+00	0	38	104	0	60	88791
2026-01-02 07:44:53.18	76.32	15.21	-52.0	-54.4	3.6	0.00e+00	0	38	104	0	60	88830
2026-01-02 07:44:54.19	76.06	15.28	-51.9	-54.4	3.6	0.00e+00	0	38	104	0	60	88345
2026-01-02 07:44:55.20	75.79	15.35	-51.8	-54.3	3.6	0.00e+00	0	38	104	0	60	87908
2026-01-02 07:44:56.21	75.52	15.42	-51.8	-54.3	3.6	0.00e+00	0	38	104	0	60	87289
2026-01-02 07:44:57.22	75.24	15.49	-51.8	-54.3	3.6	0.00e+00	0	38	104	0	60	87573
2026-01-02 07:44:58.24	74.97	15.56	-51.8	-54.3	3.6	0.00e+00	0	38	104	0	60	87686
2026-01-02 07:44:59.25	74.69	15.63	-51.8	-54.3	3.6	0.00e+00	0	38	104	0	60	87382
2026-01-02 07:45:00.26	74.42	15.70	-51.8	-54.2	3.6	0.00e+00	0	38	104	0	60	86665
2026-01-02 07:45:01.27	74.14	15.77	-51.8	-54.3	3.6	0.00e+00	0	38	104	0	60	87476
2026-01-02 07:45:02.28	73.86	15.84	-51.8	-54.3	3.6	0.00e+00	0	38	104	0	60	87664
2026-01-02 07:45:03.29	73.58	15.90	-51.8	-54.3	3.6	0.00e+00	0	38	104	0	60	87950
2026-01-02 07:45:04.30	73.29	15.97	-51.8	-54.3	3.6	0.00e+00	0	38	104	0	60	87618
2026-01-02 07:45:05.31	73.01	16.04	-51.8	-54.3	3.6	0.00e+00	0	38	104	0	60	87582
2026-01-02 07:45:06.32	72.72	16.11	-51.8	-54.3	3.6	0.00e+00	0	38	104	0	60	87483
2026-01-02 07:45:07.33	72.44	16.17	-51.8	-54.3	3.6	0.00e+00	0	38	104	0	60	87407
2026-01-02 07:45:08.35	72.15	16.24	-51.8	-54.3	3.6	0.00e+00	0	38	104	0	60	87344
2026-01-02 07:45:09.36	71.86	16.30	-51.9	-54.3	3.6	0.00e+00	0	38	104	0	60	87727
2026-01-02 07:45:10.37	71.56	16.37	-51.8	-54.3	3.6	0.00e+00	0	38	104	0	60	87590
2026-01-02 07:45:11.38	71.27	16.43	-51.8	-54.3	3.6	0.00e+00	0	38	104	0	60	88215
2026-01-02 07:45:12.39	70.98	16.50	-51.8	-54.3	3.6	0.00e+00	0	38	104	0	60	88017
2026-01-02 07:45:13.40	70.68	16.56	-51.8	-54.3	3.6	0.00e+00	0	38	104	0	60	87608
2026-01-02 07:45:14.41	70.38	16.63	-51.8	-54.3	3.6	0.00e+00	0	38	104	0	60	87503
2026-01-02 07:45:15.42	70.08	16.69	-51.8	-54.3	3.6	0.00e+00	0	38	104	0	60	87301
2026-01-02 07:45:16.43	69.78	16.75	-51.8	-54.2	3.6	0.00e+00	0	38	104	0	60	86998
2026-01-02 07:45:17.44	69.48	16.81	-51.7	-54.2	3.6	0.00e+00	0	38	104	0	60	87147
2026-01-02 07:45:18.46	69.18	16.87	-51.7	-54.2	3.6	0.00e+00	0	38	104	0	60	86935
2026-01-02 07:45:19.47	68.87	16.94	-51.7	-54.2	3.6	0.00e+00	0	38	104	0	60	86591
2026-01-02 07:45:20.48	68.57	17.00	-51.7	-54.1	3.5	0.00e+00	0	38	104	0	60	86205
2026-01-02 07:45:21.49	68.26	17.05	-51.7	-54.2	3.6	0.00e+00	0	38	104	0	60	86655
2026-01-02 07:45:22.50	67.95	17.11	-51.7	-54.1	3.6	0.00e+00	0	38	104	0	60	86197
2026-01-02 07:45:23.51	67.64	17.17	-51.8	-54.3	3.6	0.00e+00	0	38	104	0	60	87490
2026-01-02 07:45:24.52	67.33	17.23	-51.7	-54.2	3.6	0.00e+00	0	38	104	0	60	86867
2026-01-02 07:45:25.53	67.01	17.29	-51.7	-54.2	3.6	0.00e+00	0	38	104	0	60	86450
2026-01-02 07:45:26.54	66.70	17.34	-51.7	-54.2	3.6	0.00e+00	0	38	104	0	60	86444
2026-01-02 07:45:27.55	66.38	17.40	-51.7	-54.2	3.6	0.00e+00	0	38	104	0	60	86652
2026-01-02 07:45:28.56	66.07	17.46	-51.7	-54.2	3.6	0.00e+00	0	38	104	0	60	86759
2026-01-02 07:45:29.57	65.75	17.51	-51.8	-54.2	3.6	0.00e+00	0	38	104	0	60	86836
2026-01-02 07:45:30.58	65.43	17.56	-51.8	-54.3	3.5	0.00e+00	0	38	104	0	60	88012
2026-01-02 07:45:31.59	65.11	17.62	-51.8	-54.3	3.6	0.00e+00	0	38	104	0	60	87529
2026-01-02 07:45:32.60	64.79	17.67	-51.8	-54.3	3.6	0.00e+00	0	38	104	0	60	87415
2026-01-02 07:45:33.62	64.46	17.72	-51.8	-54.3	3.6	0.00e+00	0	38	104	0	60	87812
2026-01-02 07:45:34.63	64.13	17.77	-51.8	-54.3	3.6	0.00e+00	0	38	104	0	60	87429
2026-01-02 07:45:35.64	63.81	17.82	-51.8	-54.3	3.6	0.00e+00	0	38	104	0	60	87808
2026-01-02 07:45:36.65	63.48	17.87	-51.8	-54.3	3.6	0.00e+00	0	38	104	0	60	87351
2026-01-02 07:45:37.66	63.15	17.92	-51.8	-54.3	3.6	0.00e+00	0	38	104	0	60	87215
2026-01-02 07:45:38.67	62.82	17.97	-51.8	-54.3	3.6	0.00e+00	0	38	104	0	60	87543
2026-01-02 07:45:39.68	62.49	18.02	-51.8	-54.3	3.6	0.00e+00	0	38	104	0	60	87757
2026-01-02 07:45:40.69	62.16	18.07	-51.9	-54.3	3.6	0.00e+00	0	38	104	0	60	87777
2026-01-02 07:45:41.70	61.82	18.11	-51.8	-54.3	3.6	0.00e+00	0	38	104	0	60	87632
2026-01-02 07:45:42.71	61.49	18.16	-51.8	-54.2	3.6	0.00e+00	0	38	104	0	60	87105
2026-01-02 07:45:43.72	61.15	18.20	-51.8	-54.3	3.6	0.00e+00	0	38	104	0	60	87406
2026-01-02 07:45:44.73	60.82	18.25	-51.8	-54.3	3.5	0.00e+00	0	38	104	0	60	87396
2026-01-02 07:45:45.74	60.48	18.29	-51.8	-54.3	3.6	0.00e+00	0	38	104	0	60	88005
2026-01-02 07:45:46.75	60.14	18.33	-51.9	-54.4	3.6	0.00e+00	0	38	104	0	60	88412
2026-01-02 07:45:47.77	59.80	18.37	-51.8	-54.3	3.6	0.00e+00	0	38	104	0	60	87955
2026-01-02 07:45:48.78	59.46	18.41	-51.8	-54.3	3.6	0.00e+00	0	38	104	0	60	87225
2026-01-02 07:45:49.79	59.11	18.45	-51.8	-54.3	3.6	0.00e+00	0	38	104	0	60	87612
2026-01-02 07:45:50.80	58.77	18.49	-51.8	-54.3	3.6	0.00e+00	0	38	104	0	60	87524
2026-01-02 07:45:51.81	58.43	18.53	-51.8	-54.2	3.6	0.00e+00	0	38	104	0	60	86996
2026-01-02 07:45:52.82	58.08	18.56	-51.8	-54.2	3.6	0.00e+00	0	38	104	0	60	87143
2026-01-02 07:45:53.83	57.74	18.60	-51.8	-54.3	3.6	0.00e+00	0	38	104	0	60	87987
2026-01-02 07:45:54.84	57.39	18.64	-51.8	-54.3	3.6	0.00e+00	0	38	104	0	60	87971
2026-01-02 07:45:55.85	57.04	18.67	-51.8	-54.2	3.6	0.00e+00	0	38	104	0	60	87105
2026-01-02 07:45:56.87	56.69	18.70	-51.9	-54.3	3.6	0.00e+00	0	38	104	0	60	87918
2026-01-02 07:45:57.88	56.34	18.73	-51.8	-54.2	3.6	0.00e+00	0	38	104	0	60	87151
2026-01-02 07:45:58.89	55.99	18.77	-51.8	-54.3	3.6	0.00e+00	0	38	104	0	60	87568
2026-01-02 07:45:59.90	55.64	18.80	-51.8	-54.3	3.6	0.00e+00	0	38	104	0	60	87587
2026-01-02 07:46:00.91	55.28	18.83	-51.8	-54.3	3.6	0.00e+00	0	38	104	0	60	87424
2026-01-02 07:46:01.92	54.93	18.85	-51.8	-54.2	3.6	0.00e+00	0	38	104	0	60	86986
2026-01-02 07:46:02.93	54.58	18.88	-51.8	-54.2	3.6	0.00e+00	0	38	104	0	60	86495
2026-01-02 07:46:03.94	54.22	18.91	-51.8	-54.2	3.6	0.00e+00	0	38	104	0	60	87017
2026-01-02 07:46:04.95	53.87	18.93	-51.7	-54.2	3.6	0.00e+00	0	38	104	0	60	86699
2026-01-02 07:46:05.97	53.51	18.96	-51.8	-54.2	3.6	0.00e+00	0	38	104	0	60	87191
2026-01-02 07:46:06.98	53.15	18.98	-51.8	-54.3	3.6	0.00e+00	0	38	104	0	60	87220
2026-01-02 07:46:07.99	52.80	19.00	-51.8	-54.3	3.6	0.00e+00	0	38	104	0	60	87993
2026-01-02 07:46:09.00	52.44	19.03	-51.8	-54.3	3.6	0.00e+00	0	38	104	0	60	87580
2026-01-02 07:46:10.01	52.08	19.05	-51.8	-54.2	3.6	0.00e+00	0	38	104	0	60	87111
2026-01-02 07:46:11.02	51.72	19.07	-51.7	-54.2	3.6	0.00e+00	0	38	104	0	60	86880
2026-01-02 07:46:12.03	51.36	19.08	-51.7	-54.2	3.6	0.00e+00	0	38	104	0	60	86775
2026-01-02 07:46:13.04	51.00	19.10	-51.8	-54.3	3.6	0.00e+00	0	38	104	0	60	87244
2026-01-02 07:46:14.05	50.64	19.12	-51.8	-54.2	3.6	0.00e+00	0	38	104	0	60	87167
2026-01-02 07:46:15.07	50.28	19.13	-51.8	-54.2	3.6	0.00e+00	0	38	104	0	60	87054
2026-01-02 07:46:16.08	49.92	19.15	-51.8	-54.2	3.6	0.00e+00	0	38	104	0	60	86855
2026-01-02 07:46:17.09	49.56	19.16	-51.8	-54.3	3.6	0.00e+00	0	38	104	0	60	87314
2026-01-02 07:46:18.10	49.20	19.17	-51.8	-54.3	3.6	0.00e+00	0	38	104	0	60	87421
2026-01-02 07:46:19.11	48.84	19.18	-51.8	-54.2	3.6	0.00e+00	0	38	104	0	60	87187
2026-01-02 07:46:20.12	48.47	19.19	-51.8	-54.3	3.6	0.00e+00	0	38	104	0	60	87256
2026-01-02 07:46:21.13	48.11	19.20	-51.8	-54.2	3.6	0.00e+00	0	38	104	0	60	86972
2026-01-02 07:46:22.14	47.75	19.21	-51.8	-54.2	3.6	0.00e+00	0	38	104	0	60	86934
2026-01-02 07:46:23.15	47.39	19.22	-51.8	-54.2	3.6	0.00e+00	0	38	104	0	60	87112
2026-01-02 07:46:24.16	47.02	19.22	-51.8	-54.3	3.6	0.00e+00	0	38	104	0	60	87332
2026-01-02 07:46:25.18	46.66	19.23	-51.7	-54.2	3.6	0.00e+00	0	38	104	0	60	86855
2026-01-02 07:46:26.18	46.30	19.23	-51.7	-54.2	3.6	0.00e+00	0	38	104	0	60	86743
2026-01-02 07:46:27.20	45.93	19.23	-51.7	-54.2	3.6	0.00e+00	0	38	104	0	60	86486
2026-01-02 07:46:28.21	45.57	19.23	-51.7	-54.2	3.6	0.00e+00	0	39	104	0	60	86680
2026-01-02 07:46:29.22	45.20	19.23	-51.7	-54.2	3.6	0.00e+00	0	38	104	0	60	87062
2026-01-02 07:46:30.23	44.84	19.23	-51.7	-54.2	3.6	0.00e+00	0	38	104	0	60	86858
2026-01-02 07:46:31.24	44.48	19.23	-51.8	-54.2	3.6	0.00e+00	0	38	104	0	60	87056
2026-01-02 07:46:32.25	44.11	19.23	-51.7	-54.2	3.6	0.00e+00	0	38	104	0	60	86767
2026-01-02 07:46:33.26	43.75	19.22	-51.8	-54.2	3.6	0.00e+00	0	38	104	0	60	86970
2026-01-02 07:46:34.27	43.39	19.22	-51.8	-54.3	3.6	0.00e+00	0	39	104	0	60	87442
2026-01-02 07:46:35.28	43.03	19.21	-51.7	-54.2	3.6	0.00e+00	0	38	104	0	60	86737
2026-01-02 07:46:36.29	42.66	19.21	-51.7	-54.2	3.6	0.00e+00	0	38	104	0	60	86551
2026-01-02 07:46:37.30	42.30	19.20	-51.8	-54.2	3.6	0.00e+00	0	38	104	0	60	86825
2026-01-02 07:46:38.31	41.94	19.19	-51.7	-54.3	3.6	0.00e+00	0	38	104	0	60	87286
2026-01-02 07:46:39.32	41.58	19.18	-51.8	-54.3	3.6	0.00e+00	0	38	104	0	60	87264
2026-01-02 07:46:40.33	41.22	19.17	-51.8	-54.2	3.6	0.00e+00	0	38	104	0	60	86808
2026-01-02 07:46:41.34	40.85	19.15	-51.8	-54.3	3.6	0.00e+00	0	38	104	0	60	87329
2026-01-02 07:46:42.35	40.49	19.14	-51.8	-54.2	3.6	0.00e+00	0	38	104	0	60	86741
2026-01-02 07:46:43.36	40.13	19.13	-51.8	-54.3	3.6	0.00e+00	0	38	104	0	60	87255
2026-01-02 07:46:44.37	39.77	19.11	-51.8	-54.3	3.6	0.00e+00	0	38	104	0	60	87216
2026-01-02 07:46:45.38	39.41	19.09	-51.8	-54.3	3.6	0.00e+00	0	38	104	0	60	87427
2026-01-02 07:46:46.39	39.05	19.08	-51.8	-54.2	3.6	0.00e+00	0	38	104	0	60	86931
2026-01-02 07:46:47.41	38.69	19.06	-51.8	-54.3	3.6	0.00e+00	0	38	104	0	60	87426
2026-01-02 07:46:48.42	38.33	19.04	-51.8	-54.3	3.6	0.00e+00	0	38	104	0	60	87443
2026-01-02 07:46:49.43	37.98	19.02	-51.8	-54.3	3.6	0.00e+00	0	38	104	0	60	87277
2026-01-02 07:46:50.44	37.62	19.00	-51.8	-54.3	3.6	0.00e+00	0	39	104	0	60	87404
2026-01-02 07:46:51.45	37.26	18.97	-51.8	-54.3	3.6	0.00e+00	0	38	104	0	60	87671
2026-01-02 07:46:52.46	36.91	18.95	-51.8	-54.3	3.6	0.00e+00	0	38	104	0	60	87575
2026-01-02 07:46:53.47	36.55	18.92	-51.8	-54.3	3.6	0.00e+00	0	38	104	0	60	87513
2026-01-02 07:46:54.48	36.20	18.90	-51.8	-54.2	3.6	0.00e+00	0	38	104	0	60	87136
2026-01-02 07:46:55.49	35.84	18.87	-51.8	-54.3	3.6	0.00e+00	0	38	104	0	60	87537
2026-01-02 07:46:56.50	35.49	18.84	-51.8	-54.3	3.6	0.00e+00	0	38	104	0	60	87998
2026-01-02 07:46:57.52	35.14	18.81	-51.8	-54.2	3.6	0.00e+00	0	39	104	0	60	87067
2026-01-02 07:46:58.53	34.78	18.78	-51.8	-54.3	3.6	0.00e+00	0	38	104	0	60	87281
2026-01-02 07:46:59.54	34.43	18.75	-51.9	-54.3	3.6	0.00e+00	0	38	104	0	60	88184
2026-01-02 07:47:00.55	34.08	18.72	-51.9	-54.4	3.6	0.00e+00	0	38	104	0	60	88273
2026-01-02 07:47:01.56	33.74	18.69	-51.9	-54.3	3.6	0.00e+00	0	38	104	0	60	87976
2026-01-02 07:47:02.57	33.39	18.66	-51.9	-54.3	3.6	0.00e+00	0	38	104	0	60	87566
2026-01-02 07:47:03.58	33.04	18.62	-51.9	-54.3	3.6	0.00e+00	0	38	104	0	60	87826
2026-01-02 07:47:04.59	32.69	18.59	-51.8	-54.3	3.6	0.00e+00	0	39	104	0	60	87933
2026-01-02 07:47:05.60	32.35	18.55	-51.9	-54.3	3.6	0.00e+00	0	38	104	0	60	87847
2026-01-02 07:47:06.61	32.00	18.51	-51.8	-54.3	3.6	0.00e+00	0	39	104	0	60	87862
2026-01-02 07:47:07.62	31.66	18.48	-51.9	-54.3	3.6	0.00e+00	0	39	104	0	60	88180
2026-01-02 07:47:08.63	31.32	18.44	-51.9	-54.3	3.6	0.00e+00	0	38	104	0	60	87888
2026-01-02 07:47:09.64	30.98	18.40	-51.8	-54.3	3.6	0.00e+00	0	38	104	0	60	87214
2026-01-02 07:47:10.65	30.64	18.36	-51.8	-54.3	3.6	0.00e+00	0	39	104	0	60	87411
2026-01-02 07:47:11.66	30.30	18.31	-51.8	-54.3	3.6	0.00e+00	0	39	104	0	60	87907
2026-01-02 07:47:12.67	29.96	18.27	-51.8	-54.3	3.5	0.00e+00	0	39	104	0	60	87214
2026-01-02 07:47:13.69	29.62	18.23	-51.8	-54.3	3.6	0.00e+00	0	38	104	0	60	87715
2026-01-02 07:47:14.70	29.28	18.18	-51.9	-54.4	3.6	0.00e+00	0	38	104	0	60	88364
2026-01-02 07:47:15.71	28.95	18.14	-51.8	-54.3	3.6	0.00e+00	0	38	104	0	60	87941
2026-01-02 07:47:16.72	28.61	18.09	-51.9	-54.4	3.6	0.00e+00	0	38	104	0	60	88424
2026-01-02 07:47:17.73	28.28	18.05	-51.9	-54.3	3.6	0.00e+00	0	38	104	0	60	88022
2026-01-02 07:47:18.74	27.95	18.00	-51.8	-54.3	3.6	0.00e+00	0	38	104	0	60	87748
2026-01-02 07:47:19.75	27.62	17.95	-51.8	-54.3	3.6	0.00e+00	0	38	104	0	60	87245
2026-01-02 07:47:20.76	27.29	17.90	-51.8	-54.2	3.6	0.00e+00	0	39	104	0	60	87014
2026-01-02 07:47:21.77	26.96	17.86	-51.8	-54.3	3.6	0.00e+00	0	38	104	0	60	87708
2026-01-02 07:47:22.78	26.64	17.81	-51.9	-54.3	3.6	0.00e+00	0	38	104	0	60	87933
2026-01-02 07:47:23.79	26.31	17.75	-51.8	-54.3	3.6	0.00e+00	0	38	104	0	60	87758
2026-01-02 07:47:24.80	25.99	17.70	-51.8	-54.3	3.6	0.00e+00	0	38	104	0	60	87390
2026-01-02 07:47:25.81	25.67	17.65	-51.9	-54.4	3.6	0.00e+00	0	39	104	0	60	88598
2026-01-02 07:47:26.82	25.34	17.60	-51.8	-54.3	3.6	0.00e+00	0	38	104	0	60	87921
2026-01-02 07:47:27.83	25.02	17.54	-51.8	-54.3	3.6	0.00e+00	0	39	104	0	60	87512
2026-01-02 07:47:28.84	24.71	17.49	-51.9	-54.3	3.6	0.00e+00	0	38	104	0	60	87887
2026-01-02 07:47:29.85	24.39	17.44	-51.9	-54.3	3.6	0.00e+00	0	38	104	0	60	87539
2026-01-02 07:47:30.87	24.07	17.38	-51.9	-54.4	3.5	0.00e+00	0	38	104	0	60	88457
2026-01-02 07:47:31.88	23.76	17.32	-51.8	-54.3	3.6	0.00e+00	0	38	104	0	60	87889
2026-01-02 07:47:32.89	23.44	17.27	-51.8	-54.3	3.6	0.00e+00	0	38	104	0	60	87551
2026-01-02 07:47:33.90	23.13	17.21	-51.8	-54.3	3.6	0.00e+00	0	38	104	0	60	87937
2026-01-02 07:47:34.91	22.82	17.15	-51.8	-54.3	3.6	0.00e+00	0	38	104	0	60	87876
2026-01-02 07:47:35.92	22.51	17.09	-51.9	-54.4	3.6	0.00e+00	0	39	104	0	60	88358
2026-01-02 07:47:36.93	22.20	17.03	-51.9	-54.4	3.6	0.00e+00	0	38	104	0	60	88640
2026-01-02 07:47:37.94	21.90	16.97	-51.8	-54.3	3.6	0.00e+00	0	39	104	0	60	88107
2026-01-02 07:47:38.95	21.59	16.91	-51.8	-54.3	3.6	0.00e+00	0	39	104	0	60	87412
2026-01-02 07:47:39.96	21.29	16.85	-51.8	-54.3	3.6	0.00e+00	0	39	104	0	60	87504
2026-01-02 07:47:40.97	20.99	16.79	-51.8	-54.2	3.6	0.00e+00	0	39	104	0	60	87147
2026-01-02 07:47:41.98	20.69	16.73	-51.8	-54.3	3.6	0.00e+00	0	39	104	0	60	88006
2026-01-02 07:47:42.99	20.39	16.67	-51.8	-54.3	3.6	0.00e+00	0	39	104	0	60	87565
2026-01-02 07:47:44.01	20.09	16.60	-51.9	-54.3	3.6	0.00e+00	0	39	104	0	60	87913
2026-01-02 07:47:45.02	19.79	16.54	-51.9	-54.4	3.6	0.00e+00	0	39	104	0	60	88467
2026-01-02 07:47:46.03	19.49	16.48	-51.8	-54.3	3.6	0.00e+00	0	39	104	0	60	87354
2026-01-02 07:47:47.03	19.20	16.41	-51.8	-54.2	3.5	0.00e+00	0	39	104	0	60	87149
2026-01-02 07:47:48.05	18.91	16.35	-51.8	-54.3	3.6	0.00e+00	0	39	104	0	60	87478
2026-01-02 07:47:49.06	18.62	16.28	-51.8	-54.3	3.6	0.00e+00	0	39	104	0	60	87599
2026-01-02 07:47:50.07	18.33	16.22	-51.9	-54.4	3.6	0.00e+00	0	39	104	0	60	88697
2026-01-02 07:47:51.08	18.04	16.15	-51.8	-54.3	3.6	0.00e+00	0	39	104	0	60	88042
2026-01-02 07:47:52.09	17.76	16.08	-51.8	-54.3	3.6	0.00e+00	0	39	104	0	60	88059
2026-01-02 07:47:53.10	17.47	16.02	-51.9	-54.4	3.6	0.00e+00	0	39	104	0	60	88593
2026-01-02 07:47:54.11	17.19	15.95	-51.9	-54.3	3.6	0.00e+00	0	39	104	0	60	87819
2026-01-02 07:47:55.12	16.91	15.88	-51.8	-54.3	3.6	0.00e+00	0	39	104	0	60	87321
2026-01-02 07:47:56.13	16.63	15.81	-51.8	-54.2	3.6	0.00e+00	0	39	104	0	60	86875
2026-01-02 07:47:57.14	16.35	15.75	-51.8	-54.2	3.6	0.00e+00	0	39	104	0	60	86477
2026-01-02 07:47:58.15	16.07	15.68	-51.8	-54.3	3.6	0.00e+00	0	38	104	0	60	87483
2026-01-02 07:47:59.16	15.80	15.61	-51.8	-54.2	3.6	0.00e+00	0	38	104	0	60	86618
2026-01-02 07:48:00.17	15.52	15.54	-51.8	-54.3	3.6	0.00e+00	0	38	104	0	60	87358
2026-01-02 07:48:01.19	15.25	15.47	-51.8	-54.2	3.6	0.00e+00	0	38	104	0	60	87019
2026-01-02 07:48:02.20	14.98	15.40	-51.8	-54.3	3.6	0.00e+00	0	38	104	0	60	87261
2026-01-02 07:48:03.21	14.71	15.33	-51.8	-54.3	3.6	0.00e+00	0	38	104	0	60	87394
2026-01-02 07:48:04.22	14.44	15.26	-51.8	-54.3	3.6	0.00e+00	0	38	104	0	60	87446
2026-01-02 07:48:05.23	14.17	15.19	-51.7	-54.2	3.6	0.00e+00	0	39	104	0	60	87029
2026-01-02 07:48:06.24	13.91	15.11	-51.8	-54.2	3.6	0.00e+00	0	39	104	0	60	86859
2026-01-02 07:48:07.25	13.65	15.04	-51.8	-54.3	3.6	0.00e+00	0	39	104	0	60	87655
2026-01-02 07:48:08.26	13.38	14.97	-51.9	-54.3	3.6	0.00e+00	0	38	104	0	60	87974
2026-01-02 07:48:09.27	13.12	14.90	-51.9	-54.4	3.6	0.00e+00	0	39	104	0	60	88223
2026-01-02 07:48:10.28	12.86	14.83	-51.8	-54.3	3.6	0.00e+00	0	38	104	0	60	87410
2026-01-02 07:48:11.30	12.60	14.75	-51.9	-54.3	3.6	0.00e+00	0	39	104	0	60	87774
2026-01-02 07:48:12.31	12.35	14.68	-51.8	-54.3	3.6	0.00e+00	0	38	104	0	60	87705
2026-01-02 07:48:13.32	12.09	14.61	-51.8	-54.2	3.6	0.00e+00	0	39	104	0	60	86839
2026-01-02 07:48:14.33	11.84	14.53	-51.8	-54.3	3.6	0.00e+00	0	39	104	0	60	87926
2026-01-02 07:48:15.34	11.59	14.46	-51.8	-54.2	3.6	0.00e+00	0	39	104	0	60	86990
2026-01-02 07:48:16.35	11.34	14.39	-51.8	-54.3	3.6	0.00e+00	0	39	104	0	60	87661
2026-01-02 07:48:17.36	11.09	14.31	-51.8	-54.3	3.6	0.00e+00	0	39	104	0	60	87783
2026-01-02 07:48:18.37	10.84	14.24	-51.8	-54.3	3.6	0.00e+00	0	38	104	0	60	87355
2026-01-02 07:48:19.38	10.60	14.17	-51.8	-54.3	3.6	0.00e+00	0	39	104	0	60	87639
2026-01-02 07:48:20.39	10.35	14.09	-51.8	-54.3	3.6	0.00e+00	0	39	104	0	60	88047
2026-01-02 07:48:21.40	10.11	14.02	-51.8	-54.3	3.6	0.00e+00	0	39	104	0	60	88012
2026-01-02 07:48:22.41	9.87	13.94	-51.8	-54.3	3.6	0.00e+00	0	39	104	0	60	87481
2026-01-02 07:48:23.42	9.63	13.87	-51.8	-54.3	3.6	0.00e+00	0	39	104	0	60	87342
2026-01-02 07:48:24.44	9.39	13.79	-51.8	-54.3	3.6	0.00e+00	0	39	104	0	60	87711
2026-01-02 07:48:25.44	9.15	13.72	-51.8	-54.3	3.6	0.00e+00	0	39	104	0	60	87709
2026-01-02 07:48:26.46	8.92	13.64	-51.8	-54.3	3.6	0.00e+00	0	39	104	0	60	88069
2026-01-02 07:48:27.47	8.68	13.57	-51.8	-54.2	3.6	0.00e+00	0	39	104	0	60	86738
2026-01-02 07:48:28.48	8.45	13.49	-51.8	-54.3	3.6	0.00e+00	0	39	104	0	60	87855
2026-01-02 07:48:29.49	8.22	13.42	-51.8	-54.3	3.6	0.00e+00	0	39	104	0	60	87611
2026-01-02 07:48:30.50	7.99	13.34	-51.8	-54.2	3.6	0.00e+00	0	38	104	0	60	87170
2026-01-02 07:48:31.51	7.76	13.26	-51.8	-54.2	3.6	0.00e+00	0	39	104	0	60	87132
2026-01-02 07:48:32.52	7.53	13.19	-51.8	-54.3	3.6	0.00e+00	0	39	104	0	60	87696
2026-01-02 07:48:33.53	7.31	13.11	-51.8	-54.3	3.6	0.00e+00	0	39	104	0	60	87512
2026-01-02 07:48:34.54	7.08	13.04	-51.8	-54.3	3.6	0.00e+00	0	39	104	0	60	87559
2026-01-02 07:48:35.55	6.86	12.96	-51.8	-54.3	3.6	0.00e+00	0	38	104	0	60	87558
2026-01-02 07:48:36.56	6.64	12.88	-51.8	-54.3	3.6	0.00e+00	0	38	104	0	60	87426
2026-01-02 07:48:37.57	6.42	12.81	-51.8	-54.3	3.6	0.00e+00	0	39	104	0	60	87754
2026-01-02 07:48:38.58	6.20	12.73	-51.8	-54.3	3.6	0.00e+00	0	39	104	0	60	87527
2026-01-02 07:48:39.59	5.98	12.65	-51.8	-54.3	3.6	0.00e+00	0	39	104	0	60	87469
2026-01-02 07:48:40.60	5.76	12.58	-51.8	-54.3	3.5	0.00e+00	0	39	104	0	60	87740
2026-01-02 07:48:41.61	5.55	12.50	-51.8	-54.3	3.6	0.00e+00	0	39	104	0	60	87714
2026-01-02 07:48:42.62	5.34	12.43	-51.8	-54.3	3.6	0.00e+00	0	39	104	0	60	87686
2026-01-02 07:48:43.64	5.12	12.35	-51.8	-54.3	3.6	0.00e+00	0	39	104	0	60	87593
2026-01-02 07:48:44.65	4.91	12.27	-51.8	-54.2	3.6	0.00e+00	0	39	104	0	60	87177
2026-01-02 07:48:45.66	4.70	12.20	-51.9	-54.4	3.6	0.00e+00	0	39	104	0	60	88590
2026-01-02 07:48:46.67	4.49	12.12	-51.8	-54.3	3.6	0.00e+00	0	39	104	0	60	87869
2026-01-02 07:48:47.68	4.29	12.04	-51.9	-54.3	3.6	0.00e+00	0	39	104	0	60	87777
2026-01-02 07:48:48.69	4.08	11.97	-51.9	-54.3	3.6	0.00e+00	0	38	104	0	60	88090
2026-01-02 07:48:49.70	3.88	11.89	-51.9	-54.3	3.6	0.00e+00	0	39	104	0	60	87823
2026-01-02 07:48:50.71	3.67	11.81	-51.8	-54.3	3.6	0.00e+00	0	39	104	0	60	87819
2026-01-02 07:48:51.72	3.47	11.74	-51.8	-54.3	3.6	0.00e+00	0	39	104	0	60	87532
2026-01-02 07:48:52.74	3.27	11.66	-51.9	-54.3	3.6	0.00e+00	0	38	104	0	60	87840
2026-01-02 07:48:53.75	3.07	11.58	-51.9	-54.3	3.6	0.00e+00	0	39	104	0	60	88211
2026-01-02 07:48:54.76	2.87	11.51	-51.8	-54.3	3.6	0.00e+00	0	39	104	0	60	87887
2026-01-02 07:48:55.77	2.68	11.43	-51.8	-54.3	3.6	0.00e+00	0	39	104	0	60	88011
2026-01-02 07:48:56.78	2.48	11.35	-51.8	-54.3	3.6	0.00e+00	0	39	104	0	60	87530
2026-01-02 07:48:57.79	2.29	11.28	-51.8	-54.3	3.6	0.00e+00	0	39	104	0	60	87441
2026-01-02 07:48:58.80	2.09	11.20	-51.8	-54.3	3.6	0.00e+00	0	39	104	0	60	87538
2026-01-02 07:48:59.81	1.90	11.12	-51.9	-54.3	3.6	0.00e+00	0	39	104	0	60	88214
2026-01-02 07:49:00.82	1.71	11.05	-51.8	-54.3	3.6	0.00e+00	0	39	104	0	60	87414
2026-01-02 07:49:01.83	1.52	10.97	-51.8	-54.3	3.6	0.00e+00	0	39	104	0	60	87995
2026-01-02 07:49:02.84	1.33	10.89	-51.8	-54.3	3.6	0.00e+00	0	39	104	0	60	87772
2026-01-02 07:49:03.85	1.15	10.82	-51.8	-54.3	3.6	0.00e+00	0	39	104	0	60	87887
2026-01-02 07:49:04.86	0.96	10.74	-51.8	-54.3	3.6	0.00e+00	0	39	104	0	60	87902
2026-01-02 07:49:05.87	0.78	10.67	-51.8	-54.3	3.6	0.00e+00	0	39	104	0	60	87319
2026-01-02 07:49:06.88	0.59	10.59	-51.9	-54.3	3.6	0.00e+00	0	39	104	0	60	87851
2026-01-02 07:49:07.89	0.41	10.51	-51.8	-54.3	3.6	0.00e+00	0	39	104	0	60	87693
2026-01-02 07:49:08.90	0.23	10.44	-51.8	-54.3	3.6	0.00e+00	0	39	104	0	60	87924
2026-01-02 07:49:09.92	0.05	10.36	-51.9	-54.4	3.6	0.00e+00	0	39	104	0	60	88626
2026-01-02 07:49:10.93	359.87	10.29	-51.9	-54.4	3.6	0.00e+00	0	39	104	0	60	88353
2026-01-02 07:49:11.94	359.69	10.21	-51.8	-54.3	3.6	0.00e+00	0	39	104	0	60	87650
2026-01-02 07:49:12.95	359.52	10.13	-51.9	-54.4	3.6	0.00e+00	0	39	104	0	60	88489
2026-01-02 07:49:13.96	359.34	10.06	-51.9	-54.3	3.6	0.00e+00	0	39	104	0	60	88166
2026-01-02 07:49:14.97	359.17	9.98	-51.9	-54.3	3.6	0.00e+00	0	39	104	0	60	87713
2026-01-02 07:49:15.98	358.99	9.91	-51.8	-54.3	3.6	0.00e+00	0	39	104	0	60	87735
2026-01-02 07:49:16.99	358.82	9.83	-51.9	-54.4	3.6	0.00e+00	0	39	104	0	60	88393
2026-01-02 07:49:18.00	358.65	9.76	-51.9	-54.4	3.6	0.00e+00	0	39	104	0	60	88541
2026-01-02 07:49:19.01	358.48	9.68	-51.9	-54.4	3.6	0.00e+00	0	39	104	0	60	88233
2026-01-02 07:49:20.03	358.31	9.61	-51.9	-54.3	3.6	0.00e+00	0	39	104	0	60	88071
2026-01-02 07:49:21.04	358.14	9.53	-51.9	-54.4	3.6	0.00e+00	0	39	104	0	60	88569
2026-01-02 07:49:22.05	357.98	9.46	-51.8	-54.4	3.6	0.00e+00	0	39	104	0	60	88232
2026-01-02 07:49:23.06	357.81	9.38	-51.8	-54.3	3.6	0.00e+00	0	39	104	0	60	87295
2026-01-02 07:49:24.07	357.65	9.31	-51.8	-54.4	3.6	0.00e+00	0	39	104	0	60	88330
2026-01-02 07:49:25.08	357.48	9.23	-51.8	-54.2	3.6	0.00e+00	0	39	104	0	60	87187
2026-01-02 07:49:26.09	357.32	9.16	-51.8	-54.2	3.6	0.00e+00	0	39	104	0	60	86820
2026-01-02 07:49:27.10	357.16	9.08	-51.8	-54.3	3.6	0.00e+00	0	39	104	0	60	87609
2026-01-02 07:49:28.11	357.00	9.01	-51.8	-54.3	3.6	0.00e+00	0	39	104	0	60	87930
2026-01-02 07:49:29.12	356.84	8.94	-51.8	-54.3	3.6	0.00e+00	0	39	104	0	60	87298
2026-01-02 07:49:30.13	356.68	8.86	-51.8	-54.2	3.6	0.00e+00	0	39	104	0	60	87087
2026-01-02 07:49:31.14	356.52	8.79	-51.7	-54.2	3.6	0.00e+00	0	39	104	0	60	86822
2026-01-02 07:49:32.15	356.37	8.71	-51.7	-54.2	3.6	0.00e+00	0	39	104	0	60	86927
2026-01-02 07:49:33.16	356.21	8.64	-51.7	-54.2	3.6	0.00e+00	0	39	104	0	60	86773
2026-01-02 07:49:34.18	356.05	8.57	-51.8	-54.3	3.6	0.00e+00	0	39	104	0	60	87251
2026-01-02 07:49:35.18	355.90	8.49	-51.8	-54.2	3.6	0.00e+00	0	39	104	0	60	86985
2026-01-02 07:49:36.19	355.75	8.42	-51.9	-54.3	3.6	0.00e+00	0	39	104	0	60	88070
2026-01-02 07:49:37.20	355.60	8.35	-51.8	-54.3	3.5	0.00e+00	0	39	104	0	60	87546
2026-01-02 07:49:38.21	355.45	8.27	-51.9	-54.4	3.6	0.00e+00	0	39	104	0	60	88841
2026-01-02 07:49:39.22	355.30	8.20	-52.0	-54.4	3.6	0.00e+00	0	39	104	0	60	88740
2026-01-02 07:49:40.23	355.15	8.13	-51.9	-54.4	3.6	0.00e+00	0	39	104	0	60	88848
2026-01-02 07:49:41.24	355.00	8.05	-51.9	-54.3	3.6	0.00e+00	0	39	104	0	60	87853
2026-01-02 07:49:42.26	354.85	7.98	-52.0	-54.5	3.6	0.00e+00	0	39	104	0	60	89608
2026-01-02 07:49:43.27	354.71	7.91	-52.0	-54.5	3.6	0.00e+00	0	39	104	0	60	89482
2026-01-02 07:49:44.28	354.56	7.83	-51.9	-54.5	3.6	0.00e+00	0	39	104	0	60	89251
2026-01-02 07:49:45.29	354.42	7.76	-51.9	-54.4	3.6	0.00e+00	0	39	104	0	60	88689
2026-01-02 07:49:46.30	354.27	7.69	-51.9	-54.4	3.6	0.00e+00	0	39	104	0	60	88363
2026-01-02 07:49:47.31	354.13	7.62	-51.9	-54.3	3.6	0.00e+00	0	39	104	0	60	87999
2026-01-02 07:49:48.32	353.99	7.55	-51.9	-54.4	3.6	0.00e+00	0	39	104	0	60	88448
2026-01-02 07:49:49.33	353.85	7.47	-51.9	-54.4	3.6	0.00e+00	0	39	104	0	60	88820
2026-01-02 07:49:50.34	353.71	7.40	-52.0	-54.4	3.6	0.00e+00	0	39	104	0	60	88899
2026-01-02 07:49:51.35	353.57	7.33	-51.9	-54.4	3.6	0.00e+00	0	39	104	0	60	88476
2026-01-02 07:49:52.36	353.43	7.26	-52.0	-54.4	3.6	0.00e+00	0	39	104	0	60	88811
2026-01-02 07:49:53.37	353.30	7.19	-51.9	-54.4	3.6	0.00e+00	0	39	104	0	60	88880
2026-01-02 07:49:54.38	353.16	7.12	-51.9	-54.4	3.6	0.00e+00	0	39	104	0	60	88521
2026-01-02 07:49:55.39	353.02	7.04	-52.0	-54.5	3.6	0.00e+00	0	39	104	0	60	89638
2026-01-02 07:49:56.40	352.89	6.97	-51.9	-54.4	3.6	0.00e+00	0	39	104	0	60	88799
2026-01-02 07:49:57.41	352.75	6.90	-51.9	-54.3	3.6	0.00e+00	0	39	104	0	60	87955
2026-01-02 07:49:58.42	352.62	6.83	-51.8	-54.3	3.6	0.00e+00	0	39	104	0	60	87920
2026-01-02 07:49:59.43	352.49	6.76	-51.8	-54.3	3.6	0.00e+00	0	39	104	0	60	87681
2026-01-02 07:50:00.44	352.36	6.69	-51.8	-54.3	3.6	0.00e+00	0	39	104	0	60	87313
2026-01-02 07:50:01.45	352.23	6.62	-51.8	-54.3	3.6	0.00e+00	0	39	104	0	60	87497
2026-01-02 07:50:02.46	352.10	6.55	-51.8	-54.2	3.6	0.00e+00	0	39	104	0	60	87154
2026-01-02 07:50:03.48	351.97	6.48	-51.7	-54.2	3.6	0.00e+00	0	39	104	0	60	86997
2026-01-02 07:50:04.48	351.84	6.41	-51.7	-54.2	3.6	0.00e+00	0	39	104	0	60	86852
2026-01-02 07:50:05.50	351.71	6.34	-51.8	-54.2	3.6	0.00e+00	0	39	104	0	60	86585
2026-01-02 07:50:06.51	351.58	6.27	-51.8	-54.3	3.6	0.00e+00	0	39	104	0	60	87365
2026-01-02 07:50:07.52	351.46	6.20	-51.8	-54.2	3.6	0.00e+00	0	39	104	0	60	87165
2026-01-02 07:50:08.53	351.33	6.13	-51.8	-54.2	3.6	0.00e+00	0	39	104	0	60	87136
2026-01-02 07:50:09.54	351.21	6.06	-51.8	-54.2	3.6	0.00e+00	0	39	104	0	60	87059
2026-01-02 07:50:10.55	351.09	5.99	-51.7	-54.2	3.6	0.00e+00	0	39	104	0	60	86870
2026-01-02 07:50:11.56	350.96	5.92	-51.7	-54.2	3.6	0.00e+00	0	39	104	0	60	86721
2026-01-02 07:50:12.57	350.84	5.85	-51.7	-54.2	3.6	0.00e+00	0	38	104	0	60	86944
2026-01-02 07:50:13.58	350.72	5.79	-51.7	-54.3	3.6	0.00e+00	0	39	104	0	60	87512
2026-01-02 07:50:14.59	350.60	5.72	-51.8	-54.3	3.6	0.00e+00	0	39	104	0	60	87414
2026-01-02 07:50:15.61	350.48	5.65	-51.7	-54.2	3.6	0.00e+00	0	39	104	0	60	86336
2026-01-02 07:50:16.62	350.36	5.58	-51.8	-54.3	3.6	0.00e+00	0	39	104	0	60	87211
2026-01-02 07:50:17.63	350.24	5.51	-51.8	-54.3	3.6	0.00e+00	0	39	104	0	60	87373
2026-01-02 07:50:18.64	350.12	5.44	-51.8	-54.2	3.6	0.00e+00	0	39	104	0	60	87128
2026-01-02 07:50:19.65	350.00	5.37	-51.8	-54.3	3.6	0.00e+00	0	39	104	0	60	87711
2026-01-02 07:50:20.66	349.89	5.31	-51.8	-54.3	3.6	0.00e+00	0	39	104	0	60	87926
2026-01-02 07:50:21.67	349.77	5.24	-51.8	-54.3	3.6	0.00e+00	0	39	104	0	60	87687
2026-01-02 07:50:22.68	349.66	5.17	-51.8	-54.2	3.6	0.00e+00	0	39	104	0	60	87197
2026-01-02 07:50:23.69	349.54	5.10	-51.8	-54.3	3.6	0.00e+00	0	39	104	0	60	87429
2026-01-02 07:50:24.70	349.43	5.04	-51.8	-54.3	3.6	0.00e+00	0	39	104	0	60	87677
2026-01-02 07:50:25.71	349.32	4.97	-51.9	-54.3	3.6	0.00e+00	0	39	104	0	60	87962
2026-01-02 07:50:26.72	349.20	4.90	-51.8	-54.2	3.6	0.00e+00	0	39	104	0	60	87194
2026-01-02 07:50:27.73	349.09	4.84	-51.8	-54.3	3.6	0.00e+00	0	39	104	0	60	87360
2026-01-02 07:50:28.74	348.98	4.77	-51.9	-54.3	3.6	0.00e+00	0	39	104	0	60	87969
2026-01-02 07:50:29.75	348.87	4.70	-51.9	-54.4	3.6	0.00e+00	0	39	104	0	60	88522
2026-01-02 07:50:30.76	348.76	4.63	-52.0	-54.4	3.6	0.00e+00	0	39	104	0	60	89021
2026-01-02 07:50:31.77	348.65	4.57	-51.9	-54.4	3.6	0.00e+00	0	39	104	0	60	88387
2026-01-02 07:50:32.78	348.54	4.50	-51.9	-54.3	3.6	0.00e+00	0	39	104	0	60	87926
2026-01-02 07:50:33.79	348.43	4.44	-52.0	-54.4	3.6	0.00e+00	0	39	104	0	60	88958
2026-01-02 07:50:34.80	348.33	4.37	-52.0	-54.4	3.6	0.00e+00	0	39	104	0	60	88815
2026-01-02 07:50:35.81	348.22	4.30	-51.8	-54.3	3.6	0.00e+00	0	39	104	0	60	87656
2026-01-02 07:50:36.82	348.11	4.24	-51.8	-54.3	3.6	0.00e+00	0	39	104	0	60	87428
2026-01-02 07:50:37.83	348.01	4.17	-51.8	-54.2	3.6	0.00e+00	0	39	104	0	60	87042
2026-01-02 07:50:38.85	347.90	4.11	-51.7	-54.2	3.6	0.00e+00	0	39	104	0	60	86878
2026-01-02 07:50:39.86	347.80	4.04	-51.8	-54.2	3.6	0.00e+00	0	39	104	0	60	86922
2026-01-02 07:50:40.87	347.69	3.98	-51.8	-54.2	3.6	0.00e+00	0	39	104	0	60	87198
2026-01-02 07:50:41.88	347.59	3.91	-51.8	-54.2	3.6	0.00e+00	0	39	104	0	60	87186
2026-01-02 07:50:42.89	347.49	3.85	-51.8	-54.3	3.5	0.00e+00	0	39	104	0	60	87344
2026-01-02 07:50:43.90	347.39	3.78	-51.8	-54.3	3.6	0.00e+00	0	39	104	0	60	87875
2026-01-02 07:50:44.91	347.29	3.72	-51.8	-54.3	3.6	0.00e+00	0	39	104	0	60	87387
2026-01-02 07:50:45.92	347.19	3.65	-51.9	-54.4	3.6	0.00e+00	0	39	104	0	60	88450
2026-01-02 07:50:46.93	347.09	3.59	-51.9	-54.3	3.6	0.00e+00	0	39	104	0	60	88093
2026-01-02 07:50:47.94	346.99	3.52	-51.9	-54.3	3.6	0.00e+00	0	39	104	0	60	88179
2026-01-02 07:50:48.95	346.89	3.46	-51.8	-54.2	3.6	0.00e+00	0	39	104	0	60	87097
2026-01-02 07:50:49.96	346.79	3.39	-51.8	-54.3	3.6	0.00e+00	0	39	104	0	60	87703
2026-01-02 07:50:50.97	346.69	3.33	-51.8	-54.3	3.6	0.00e+00	0	39	104	0	60	87794
2026-01-02 07:50:51.99	346.59	3.27	-51.8	-54.3	3.6	0.00e+00	0	39	104	0	60	87737
2026-01-02 07:50:53.00	346.50	3.20	-51.8	-54.3	3.6	0.00e+00	0	39	104	0	60	87456
2026-01-02 07:50:54.01	346.40	3.14	-51.9	-54.4	3.6	0.00e+00	0	39	104	0	60	88226
2026-01-02 07:50:55.02	346.30	3.07	-51.8	-54.3	3.6	0.00e+00	0	39	104	0	60	87432
2026-01-02 07:50:56.03	346.21	3.01	-51.9	-54.4	3.6	0.00e+00	0	39	104	0	60	88262
2026-01-02 07:50:57.04	346.11	2.95	-51.9	-54.3	3.6	0.00e+00	0	39	104	0	60	87684
2026-01-02 07:50:58.05	346.02	2.88	-51.8	-54.3	3.6	0.00e+00	0	39	104	0	60	87331
2026-01-02 07:50:59.07	345.93	2.82	-51.9	-54.3	3.6	0.00e+00	0	39	104	0	60	87659
2026-01-02 07:51:00.08	345.83	2.76	-51.9	-54.4	3.6	0.00e+00	0	39	104	0	60	88514
2026-01-02 07:51:01.09	345.74	2.70	-51.9	-54.4	3.6	0.00e+00	0	39	104	0	60	88425
2026-01-02 07:51:02.10	345.65	2.63	-51.9	-54.4	3.6	0.00e+00	0	39	104	0	60	88305
2026-01-02 07:51:03.11	345.56	2.57	-51.9	-54.4	3.6	0.00e+00	0	39	104	0	60	88311
2026-01-02 07:51:04.12	345.46	2.51	-51.8	-54.3	3.6	0.00e+00	0	39	104	0	60	87675
2026-01-02 07:51:05.13	345.37	2.45	-51.8	-54.3	3.6	0.00e+00	0	39	104	0	60	87226
2026-01-02 07:51:06.14	345.28	2.38	-51.8	-54.3	3.6	0.00e+00	0	39	104	0	60	87675
2026-01-02 07:51:07.15	345.19	2.32	-51.8	-54.3	3.6	0.00e+00	0	39	104	0	60	87577
2026-01-02 07:51:08.17	345.11	2.26	-51.9	-54.3	3.6	0.00e+00	0	39	104	0	60	87722
2026-01-02 07:51:09.18	345.02	2.20	-51.8	-54.3	3.6	0.00e+00	0	39	104	0	60	87566
2026-01-02 07:51:10.19	344.93	2.13	-51.8	-54.3	3.6	0.00e+00	0	39	104	0	60	88048
2026-01-02 07:51:11.20	344.84	2.07	-51.9	-54.3	3.6	0.00e+00	0	39	104	0	60	88054
2026-01-02 07:51:12.21	344.75	2.01	-51.9	-54.4	3.6	0.00e+00	0	39	104	0	60	88624
2026-01-02 07:51:13.22	344.67	1.95	-51.9	-54.3	3.6	0.00e+00	0	39	104	0	60	88014
2026-01-02 07:51:14.23	344.58	1.89	-51.9	-54.3	3.6	0.00e+00	0	39	104	0	60	87868
2026-01-02 07:51:15.24	344.50	1.83	-51.9	-54.3	3.6	0.00e+00	0	39	104	0	60	88069
2026-01-02 07:51:16.26	344.41	1.77	-51.9	-54.3	3.6	0.00e+00	0	39	104	0	60	87918
2026-01-02 07:51:17.27	344.32	1.71	-51.9	-54.3	3.6	0.00e+00	0	39	104	0	60	88113
2026-01-02 07:51:18.28	344.24	1.64	-51.9	-54.4	3.6	0.00e+00	0	39	104	0	60	88746
2026-01-02 07:51:19.29	344.16	1.58	-51.9	-54.4	3.6	0.00e+00	0	39	104	0	60	88725
2026-01-02 07:51:20.30	344.07	1.52	-51.9	-54.4	3.6	0.00e+00	0	39	104	0	60	88919
2026-01-02 07:51:21.31	343.99	1.46	-52.0	-54.5	3.6	0.00e+00	0	39	104	0	60	89385
2026-01-02 07:51:22.32	343.91	1.40	-51.9	-54.3	3.6	0.00e+00	0	39	104	0	60	88006
2026-01-02 07:51:23.33	343.83	1.34	-51.8	-54.3	3.6	0.00e+00	0	39	104	0	60	87900
2026-01-02 07:51:24.34	343.74	1.28	-51.8	-54.3	3.6	0.00e+00	0	39	104	0	60	87444
2026-01-02 07:51:25.35	343.66	1.22	-51.8	-54.3	3.6	0.00e+00	0	39	104	0	60	87953
2026-01-02 07:51:26.36	343.58	1.16	-51.8	-54.3	3.6	0.00e+00	0	39	104	0	60	87367
2026-01-02 07:51:27.37	343.50	1.10	-51.8	-54.2	3.6	0.00e+00	0	39	104	0	60	86920
2026-01-02 07:51:28.38	343.42	1.04	-51.8	-54.2	3.6	0.00e+00	0	39	104	0	60	87192
2026-01-02 07:51:29.39	343.34	0.98	-51.8	-54.3	3.6	0.00e+00	0	39	104	0	60	87558
2026-01-02 07:51:30.41	343.26	0.92	-51.8	-54.3	3.6	0.00e+00	0	39	104	0	60	87562
2026-01-02 07:51:31.42	343.18	0.86	-51.8	-54.3	3.6	0.00e+00	0	39	104	0	60	87652
2026-01-02 07:51:32.43	343.11	0.81	-51.8	-54.3	3.6	0.00e+00	0	39	104	0	60	87834
2026-01-02 07:51:33.44	343.03	0.75	-51.9	-54.3	3.6	0.00e+00	0	39	104	0	60	88074
2026-01-02 07:51:34.45	342.95	0.69	-51.8	-54.3	3.6	0.00e+00	0	39	104	0	60	87904
2026-01-02 07:51:35.46	342.87	0.63	-51.9	-54.4	3.5	0.00e+00	0	39	104	0	60	88410
2026-01-02 07:51:36.47	342.80	0.57	-51.8	-54.3	3.6	0.00e+00	0	39	104	0	60	87875
2026-01-02 07:51:37.48	342.72	0.51	-51.8	-54.3	3.6	0.00e+00	0	39	104	0	60	87705
2026-01-02 07:51:38.49	342.64	0.45	-51.8	-54.3	3.6	0.00e+00	0	39	104	0	60	87288
2026-01-02 07:51:39.50	342.57	0.39	-51.9	-54.4	3.6	0.00e+00	0	39	104	0	60	88522
2026-01-02 07:51:40.51	342.49	0.34	-51.9	-54.4	3.6	0.00e+00	0	39	104	0	60	88264
2026-01-02 07:51:41.52	342.42	0.28	-51.9	-54.3	3.6	0.00e+00	0	39	104	0	60	88177
2026-01-02 07:51:42.53	342.35	0.22	-51.8	-54.3	3.6	0.00e+00	0	39	104	0	60	87818
2026-01-02 07:51:43.55	342.27	0.16	-51.8	-54.2	3.6	0.00e+00	0	39	104	0	60	87004
2026-01-02 07:51:44.56	342.20	0.10	-51.8	-54.2	3.6	0.00e+00	0	39	104	0	60	87175
2026-01-02 07:51:45.57	342.12	0.04	-51.8	-54.3	3.6	0.00e+00	0	39	104	0	60	87363

#Closed at: 2026-01-02 07:51:46
#Recorded file [0 MB]: D:/lorett/data/35034_260102_104114.dat