passes_logs/2026/01/02/R4.6S_Anadyr_2ch/R4.6S_Anadyr_2ch__20260102_060926_2025-108B_rec.log

#Pass ID: 20260102_060926_2025-108B
#Satellite: 2025-108B
#Configuration: 3PB_600M
#almurnet v.1.7.20251203
#Start time: 2026-01-02 06:09:29

#Version: 2.2.20231116
#Station: R4.6S_Anadyr_2ch
#Location: 177.4865 lon 64.73178 lat
#TLE: 1 64088U 25108B   25351.01672131  .00008460  00000+0  43413-3 0  9994
#TLE: 2 64088  97.4940  63.8579 0011684 285.1423  74.8517 15.16717580 31720

#Time	Az	El	Level	Level2	SNR	BER	BlckErr	Temp	State	Recorded	gain1	gain2
2026-01-02 06:09:29.44	68.79	0.13	-51.9	-53.3	3.4	0.00e+00	0	32	0	0	60	78574
2026-01-02 06:09:30.45	68.68	0.18	-51.9	-54.3	3.6	0.00e+00	0	34	104	0	60	87886
2026-01-02 06:09:31.46	68.56	0.22	-51.8	-54.2	3.6	0.00e+00	0	34	104	0	60	86600
2026-01-02 06:09:32.47	68.44	0.27	-51.9	-54.4	3.6	0.00e+00	0	34	104	0	60	88321
2026-01-02 06:09:33.48	68.32	0.31	-51.8	-54.3	3.5	0.00e+00	0	34	104	0	60	87845
2026-01-02 06:09:34.49	68.20	0.36	-51.8	-54.3	3.6	0.00e+00	0	34	104	0	60	87585
2026-01-02 06:09:35.50	68.08	0.41	-51.9	-54.4	3.6	0.00e+00	0	34	104	0	60	88936
2026-01-02 06:09:36.51	67.96	0.45	-52.1	-54.5	3.6	0.00e+00	0	34	104	0	60	90119
2026-01-02 06:09:37.53	67.84	0.50	-52.1	-54.5	3.6	0.00e+00	0	34	104	0	60	90068
2026-01-02 06:09:38.54	67.72	0.55	-51.9	-54.3	3.6	0.00e+00	0	34	104	0	60	88157
2026-01-02 06:09:39.55	67.60	0.59	-52.0	-54.4	3.6	0.00e+00	0	34	104	0	60	89137
2026-01-02 06:09:40.56	67.48	0.64	-51.9	-54.3	3.6	0.00e+00	0	34	104	0	60	88050
2026-01-02 06:09:41.57	67.35	0.68	-52.1	-54.5	3.6	0.00e+00	0	34	104	0	60	89701
2026-01-02 06:09:42.58	67.23	0.73	-52.0	-54.4	3.6	0.00e+00	0	34	104	0	60	89239
2026-01-02 06:09:43.59	67.11	0.78	-52.1	-54.6	3.6	0.00e+00	0	35	104	0	60	90426
2026-01-02 06:09:44.60	66.98	0.82	-51.8	-54.3	3.6	0.00e+00	0	35	104	0	60	87722
2026-01-02 06:09:45.61	66.86	0.87	-52.1	-54.5	3.6	0.00e+00	0	35	104	0	60	90105
2026-01-02 06:09:46.62	66.73	0.91	-51.9	-54.3	3.6	0.00e+00	0	35	104	0	60	88063
2026-01-02 06:09:47.63	66.61	0.96	-51.8	-54.2	3.6	0.00e+00	0	35	104	0	60	86700
2026-01-02 06:09:48.64	66.48	1.01	-51.8	-54.3	3.6	0.00e+00	0	35	104	0	60	87456
2026-01-02 06:09:49.65	66.35	1.05	-51.7	-54.2	3.6	0.00e+00	0	35	104	0	60	86651
2026-01-02 06:09:50.66	66.23	1.10	-51.7	-54.2	3.6	0.00e+00	0	35	104	0	60	86309
2026-01-02 06:09:51.67	66.10	1.14	-51.7	-54.2	3.6	0.00e+00	0	35	104	0	60	86331
2026-01-02 06:09:52.68	65.97	1.19	-51.7	-54.1	3.6	0.00e+00	0	35	104	0	60	85842
2026-01-02 06:09:53.69	65.84	1.24	-51.8	-54.3	3.6	0.00e+00	0	35	104	0	60	87311
2026-01-02 06:09:54.70	65.71	1.28	-51.8	-54.2	3.5	0.00e+00	0	35	104	0	60	86976
2026-01-02 06:09:55.71	65.58	1.33	-51.7	-54.2	3.6	0.00e+00	0	35	104	0	60	86535
2026-01-02 06:09:56.73	65.45	1.37	-51.8	-54.3	3.6	0.00e+00	0	35	104	0	60	87782
2026-01-02 06:09:57.74	65.32	1.42	-51.8	-54.2	3.6	0.00e+00	0	35	104	0	60	86614
2026-01-02 06:09:58.75	65.19	1.47	-51.9	-54.3	3.6	0.00e+00	0	35	104	0	60	87579
2026-01-02 06:09:59.76	65.06	1.51	-51.8	-54.3	3.6	0.00e+00	0	35	104	0	60	87934
2026-01-02 06:10:00.77	64.93	1.56	-51.8	-54.3	3.6	0.00e+00	0	35	104	0	60	87580
2026-01-02 06:10:01.78	64.79	1.60	-51.8	-54.3	3.6	0.00e+00	0	35	104	0	60	87896
2026-01-02 06:10:02.79	64.66	1.65	-51.8	-54.2	3.6	0.00e+00	0	35	104	0	60	87099
2026-01-02 06:10:03.80	64.53	1.69	-51.7	-54.2	3.6	0.00e+00	0	35	104	0	60	86340
2026-01-02 06:10:04.81	64.39	1.74	-51.7	-54.2	3.6	0.00e+00	0	35	104	0	60	86568
2026-01-02 06:10:05.82	64.26	1.79	-51.7	-54.2	3.6	0.00e+00	0	35	104	0	60	86415
2026-01-02 06:10:06.83	64.12	1.83	-51.8	-54.2	3.6	0.00e+00	0	35	104	0	60	87101
2026-01-02 06:10:07.85	63.99	1.88	-51.8	-54.2	3.6	0.00e+00	0	35	104	0	60	86863
2026-01-02 06:10:08.86	63.85	1.92	-51.8	-54.2	3.6	0.00e+00	0	35	104	0	60	87151
2026-01-02 06:10:09.87	63.71	1.97	-51.8	-54.3	3.6	0.00e+00	0	35	104	0	60	87243
2026-01-02 06:10:10.88	63.57	2.01	-52.0	-54.4	3.6	0.00e+00	0	35	104	0	60	88889
2026-01-02 06:10:11.89	63.44	2.06	-51.9	-54.4	3.6	0.00e+00	0	35	104	0	60	88476
2026-01-02 06:10:12.90	63.30	2.11	-51.7	-54.2	3.5	0.00e+00	0	35	104	0	60	86335
2026-01-02 06:10:13.91	63.16	2.15	-51.9	-54.3	3.6	0.00e+00	0	35	104	0	60	87894
2026-01-02 06:10:14.92	63.02	2.20	-51.8	-54.3	3.6	0.00e+00	0	35	104	0	60	87592
2026-01-02 06:10:15.93	62.88	2.24	-51.9	-54.3	3.6	0.00e+00	0	35	104	0	60	88105
2026-01-02 06:10:16.94	62.74	2.29	-51.8	-54.2	3.6	0.00e+00	0	35	104	0	60	86748
2026-01-02 06:10:17.95	62.60	2.33	-51.7	-54.2	3.6	0.00e+00	0	35	104	0	60	86321
2026-01-02 06:10:18.96	62.45	2.38	-51.9	-54.4	3.6	0.00e+00	0	35	104	0	60	88501
2026-01-02 06:10:19.97	62.31	2.42	-51.8	-54.2	3.5	0.00e+00	0	35	104	0	60	87194
2026-01-02 06:10:20.98	62.17	2.47	-52.1	-54.5	3.6	0.00e+00	0	35	104	0	60	90171
2026-01-02 06:10:21.99	62.03	2.51	-51.9	-54.4	3.6	0.00e+00	0	35	104	0	60	89038
2026-01-02 06:10:23.01	61.88	2.56	-52.0	-54.4	3.6	0.00e+00	0	35	104	0	60	88983
2026-01-02 06:10:24.02	61.73	2.60	-51.9	-54.4	3.6	0.00e+00	0	36	104	0	60	88916
2026-01-02 06:10:25.03	61.59	2.65	-51.9	-54.3	3.6	0.00e+00	0	36	104	0	60	88219
2026-01-02 06:10:26.04	61.44	2.69	-52.0	-54.4	3.6	0.00e+00	0	36	104	0	60	89197
2026-01-02 06:10:27.05	61.30	2.74	-51.9	-54.4	3.6	0.00e+00	0	36	104	0	60	88368
2026-01-02 06:10:28.06	61.15	2.78	-52.2	-54.7	3.6	0.00e+00	0	36	104	0	60	91479
2026-01-02 06:10:29.07	61.00	2.83	-52.2	-54.7	3.6	0.00e+00	0	36	104	0	60	91509
2026-01-02 06:10:30.08	60.85	2.87	-52.0	-54.4	3.6	0.00e+00	0	36	104	0	60	89099
2026-01-02 06:10:31.09	60.71	2.92	-51.9	-54.4	3.6	0.00e+00	0	36	104	0	60	88302
2026-01-02 06:10:32.10	60.56	2.96	-52.1	-54.6	3.6	0.00e+00	0	35	104	0	60	90327
2026-01-02 06:10:33.12	60.41	3.01	-52.0	-54.5	3.6	0.00e+00	0	36	104	0	60	89340
2026-01-02 06:10:34.13	60.25	3.05	-52.0	-54.4	3.6	0.00e+00	0	36	104	0	60	89202
2026-01-02 06:10:35.14	60.10	3.09	-51.9	-54.3	3.6	0.00e+00	0	36	104	0	60	88129
2026-01-02 06:10:36.15	59.95	3.14	-51.9	-54.4	3.6	0.00e+00	0	36	104	0	60	88640
2026-01-02 06:10:37.16	59.80	3.18	-51.7	-54.2	3.6	0.00e+00	0	36	104	0	60	86707
2026-01-02 06:10:38.17	59.65	3.23	-51.8	-54.3	3.6	0.00e+00	0	36	104	0	60	87486
2026-01-02 06:10:39.18	59.49	3.27	-51.8	-54.3	3.6	0.00e+00	0	36	104	0	60	87234
2026-01-02 06:10:40.19	59.34	3.32	-51.8	-54.3	3.6	0.00e+00	0	36	104	0	60	87855
2026-01-02 06:10:41.20	59.18	3.36	-51.9	-54.3	3.6	0.00e+00	0	36	104	0	60	87345
2026-01-02 06:10:42.21	59.03	3.40	-52.0	-54.4	3.6	0.00e+00	0	36	104	0	60	89149
2026-01-02 06:10:43.23	58.87	3.45	-51.9	-54.4	3.6	0.00e+00	0	36	104	0	60	88856
2026-01-02 06:10:44.24	58.72	3.49	-52.0	-54.4	3.6	0.00e+00	0	36	104	0	60	89216
2026-01-02 06:10:45.25	58.56	3.53	-51.9	-54.4	3.6	0.00e+00	0	36	104	0	60	88463
2026-01-02 06:10:46.26	58.40	3.58	-51.8	-54.2	3.6	0.00e+00	0	36	104	0	60	86995
2026-01-02 06:10:47.27	58.24	3.62	-51.7	-54.1	3.6	0.00e+00	0	36	104	0	60	86192
2026-01-02 06:10:48.28	58.08	3.67	-51.7	-54.2	3.6	0.00e+00	0	36	104	0	60	86527
2026-01-02 06:10:49.29	57.93	3.71	-51.8	-54.3	3.6	0.00e+00	0	36	104	0	60	87384
2026-01-02 06:10:50.30	57.77	3.75	-52.0	-54.4	3.6	0.00e+00	0	36	104	0	60	89065
2026-01-02 06:10:51.31	57.61	3.80	-51.8	-54.2	3.6	0.00e+00	0	36	104	0	60	87027
2026-01-02 06:10:52.32	57.44	3.84	-51.7	-54.2	3.6	0.00e+00	0	36	104	0	60	86538
2026-01-02 06:10:53.33	57.28	3.88	-51.9	-54.3	3.6	0.00e+00	0	36	104	0	60	87993
2026-01-02 06:10:54.34	57.12	3.92	-51.7	-54.2	3.6	0.00e+00	0	36	104	0	60	87000
2026-01-02 06:10:55.36	56.96	3.97	-51.8	-54.3	3.6	0.00e+00	0	36	104	0	60	87253
2026-01-02 06:10:56.37	56.79	4.01	-51.9	-54.3	3.6	0.00e+00	0	36	104	0	60	88167
2026-01-02 06:10:57.38	56.63	4.05	-51.8	-54.2	3.6	0.00e+00	0	36	104	0	60	86271
2026-01-02 06:10:58.39	56.46	4.10	-51.7	-54.2	3.6	0.00e+00	0	36	104	0	60	86643
2026-01-02 06:10:59.40	56.30	4.14	-51.8	-54.2	3.6	0.00e+00	0	36	104	0	60	86823
2026-01-02 06:11:00.41	56.13	4.18	-51.7	-54.2	3.6	0.00e+00	0	36	104	0	60	86377
2026-01-02 06:11:01.42	55.96	4.22	-51.8	-54.3	3.6	0.00e+00	0	36	104	0	60	87527
2026-01-02 06:11:02.43	55.80	4.26	-52.0	-54.4	3.6	0.00e+00	0	36	104	0	60	88667
2026-01-02 06:11:03.44	55.63	4.31	-51.9	-54.3	3.6	0.00e+00	0	36	104	0	60	87741
2026-01-02 06:11:04.45	55.46	4.35	-51.9	-54.4	3.6	0.00e+00	0	36	104	0	60	88579
2026-01-02 06:11:05.46	55.29	4.39	-52.0	-54.4	3.6	0.00e+00	0	36	104	0	60	89159
2026-01-02 06:11:06.47	55.12	4.43	-52.0	-54.4	3.6	0.00e+00	0	36	104	0	60	88817
2026-01-02 06:11:07.48	54.95	4.47	-52.0	-54.5	3.6	0.00e+00	0	36	104	0	60	90039
2026-01-02 06:11:08.49	54.78	4.51	-52.2	-54.6	3.6	0.00e+00	0	36	104	0	60	91177
2026-01-02 06:11:09.50	54.61	4.56	-51.9	-54.4	3.6	0.00e+00	0	36	104	0	60	88399
2026-01-02 06:11:10.52	54.44	4.60	-51.9	-54.3	3.6	0.00e+00	0	36	104	0	60	88064
2026-01-02 06:11:11.52	54.27	4.64	-51.9	-54.3	3.6	0.00e+00	0	36	104	0	60	87640
2026-01-02 06:11:12.54	54.09	4.68	-51.9	-54.3	3.6	0.00e+00	0	36	104	0	60	87979
2026-01-02 06:11:13.55	53.92	4.72	-51.8	-54.2	3.6	0.00e+00	0	36	104	0	60	86676
2026-01-02 06:11:14.56	53.74	4.76	-51.7	-54.2	3.6	0.00e+00	0	36	104	0	60	86803
2026-01-02 06:11:15.57	53.57	4.80	-51.6	-54.1	3.6	0.00e+00	0	36	104	0	60	85627
2026-01-02 06:11:16.58	53.39	4.84	-51.6	-54.1	3.6	0.00e+00	0	36	104	0	60	85278
2026-01-02 06:11:17.59	53.21	4.88	-51.6	-54.1	3.6	0.00e+00	0	36	104	0	60	85306
2026-01-02 06:11:18.60	53.04	4.92	-51.6	-54.1	3.6	0.00e+00	0	36	104	0	60	85767
2026-01-02 06:11:19.61	52.86	4.96	-51.7	-54.1	3.6	0.00e+00	0	37	104	0	60	85543
2026-01-02 06:11:20.62	52.68	5.00	-51.8	-54.3	3.6	0.00e+00	0	37	104	0	60	87268
2026-01-02 06:11:21.63	52.50	5.04	-51.7	-54.2	3.6	0.00e+00	0	36	104	0	60	86620
2026-01-02 06:11:22.65	52.32	5.08	-51.7	-54.2	3.6	0.00e+00	0	37	104	0	60	86788
2026-01-02 06:11:23.66	52.14	5.12	-51.8	-54.3	3.6	0.00e+00	0	36	104	0	60	87635
2026-01-02 06:11:24.67	51.96	5.16	-51.8	-54.2	3.6	0.00e+00	0	36	104	0	60	86799
2026-01-02 06:11:25.68	51.78	5.20	-51.8	-54.3	3.6	0.00e+00	0	37	104	0	60	87342
2026-01-02 06:11:26.69	51.60	5.24	-51.8	-54.2	3.6	0.00e+00	0	36	104	0	60	87028
2026-01-02 06:11:27.70	51.42	5.28	-51.8	-54.3	3.6	0.00e+00	0	36	104	0	60	87756
2026-01-02 06:11:28.71	51.23	5.32	-51.7	-54.2	3.6	0.00e+00	0	37	104	0	60	86528
2026-01-02 06:11:29.72	51.05	5.36	-51.7	-54.1	3.6	0.00e+00	0	37	104	0	60	86102
2026-01-02 06:11:30.73	50.86	5.40	-51.8	-54.3	3.6	0.00e+00	0	37	104	0	60	87717
2026-01-02 06:11:31.74	50.68	5.43	-51.9	-54.3	3.6	0.00e+00	0	37	104	0	60	88014
2026-01-02 06:11:32.75	50.49	5.47	-52.0	-54.5	3.6	0.00e+00	0	37	104	0	60	89753
2026-01-02 06:11:33.77	50.31	5.51	-51.9	-54.4	3.6	0.00e+00	0	37	104	0	60	88292
2026-01-02 06:11:34.78	50.12	5.55	-51.8	-54.3	3.6	0.00e+00	0	37	104	0	60	87791
2026-01-02 06:11:35.79	49.93	5.59	-51.8	-54.3	3.6	0.00e+00	0	37	104	0	60	87436
2026-01-02 06:11:36.80	49.74	5.62	-51.9	-54.4	3.6	0.00e+00	0	37	104	0	60	88686
2026-01-02 06:11:37.81	49.55	5.66	-51.9	-54.3	3.6	0.00e+00	0	37	104	0	60	87782
2026-01-02 06:11:38.82	49.37	5.70	-52.0	-54.4	3.6	0.00e+00	0	37	104	0	60	89076
2026-01-02 06:11:39.83	49.18	5.73	-51.9	-54.4	3.6	0.00e+00	0	37	104	0	60	88989
2026-01-02 06:11:40.84	48.99	5.77	-51.9	-54.4	3.6	0.00e+00	0	37	104	0	60	88325
2026-01-02 06:11:41.85	48.79	5.81	-51.9	-54.3	3.6	0.00e+00	0	37	104	0	60	87813
2026-01-02 06:11:42.86	48.60	5.84	-51.8	-54.3	3.6	0.00e+00	0	37	104	0	60	87494
2026-01-02 06:11:43.87	48.41	5.88	-51.8	-54.3	3.6	0.00e+00	0	37	104	0	60	87705
2026-01-02 06:11:44.89	48.22	5.92	-51.9	-54.4	3.6	0.00e+00	0	37	104	0	60	88310
2026-01-02 06:11:45.90	48.02	5.95	-51.9	-54.4	3.6	0.00e+00	0	37	104	0	60	88317
2026-01-02 06:11:46.91	47.83	5.99	-52.1	-54.5	3.6	0.00e+00	0	37	104	0	60	89811
2026-01-02 06:11:47.92	47.63	6.02	-52.0	-54.5	3.6	0.00e+00	0	37	104	0	60	89509
2026-01-02 06:11:48.93	47.44	6.06	-51.9	-54.4	3.6	0.00e+00	0	37	104	0	60	88400
2026-01-02 06:11:49.94	47.24	6.09	-51.8	-54.2	3.6	0.00e+00	0	37	104	0	60	87096
2026-01-02 06:11:50.95	47.05	6.13	-51.9	-54.4	3.6	0.00e+00	0	37	104	0	60	88619
2026-01-02 06:11:51.96	46.85	6.16	-51.9	-54.4	3.6	0.00e+00	0	37	104	0	60	88910
2026-01-02 06:11:52.97	46.65	6.20	-51.8	-54.3	3.6	0.00e+00	0	37	104	0	60	87252
2026-01-02 06:11:53.99	46.45	6.23	-51.8	-54.2	3.6	0.00e+00	0	37	104	0	60	86670
2026-01-02 06:11:55.00	46.25	6.27	-51.8	-54.3	3.6	0.00e+00	0	37	104	0	60	87260
2026-01-02 06:11:56.01	46.05	6.30	-51.8	-54.3	3.6	0.00e+00	0	37	104	0	60	87451
2026-01-02 06:11:57.02	45.85	6.33	-51.9	-54.4	3.6	0.00e+00	0	37	104	0	60	88784
2026-01-02 06:11:58.03	45.65	6.37	-51.9	-54.3	3.6	0.00e+00	0	37	104	0	60	88141
2026-01-02 06:11:59.04	45.45	6.40	-51.8	-54.2	3.6	0.00e+00	0	37	104	0	60	87199
2026-01-02 06:12:00.05	45.25	6.43	-51.7	-54.2	3.6	0.00e+00	0	37	104	0	60	86604
2026-01-02 06:12:01.06	45.05	6.46	-51.8	-54.2	3.6	0.00e+00	0	37	104	0	60	86907
2026-01-02 06:12:02.07	44.85	6.50	-51.7	-54.1	3.6	0.00e+00	0	37	104	0	60	85907
2026-01-02 06:12:03.08	44.64	6.53	-51.9	-54.3	3.6	0.00e+00	0	37	104	0	60	87793
2026-01-02 06:12:04.09	44.44	6.56	-51.8	-54.3	3.6	0.00e+00	0	37	104	0	60	87599
2026-01-02 06:12:05.10	44.23	6.59	-51.8	-54.2	3.6	0.00e+00	0	37	104	0	60	86834
2026-01-02 06:12:06.12	44.03	6.62	-51.7	-54.2	3.6	0.00e+00	0	37	104	0	60	86431
2026-01-02 06:12:07.13	43.82	6.66	-51.8	-54.3	3.6	0.00e+00	0	37	104	0	60	87660
2026-01-02 06:12:08.14	43.62	6.69	-51.8	-54.3	3.6	0.00e+00	0	37	104	0	60	87414
2026-01-02 06:12:09.15	43.41	6.72	-51.8	-54.2	3.6	0.00e+00	0	37	104	0	60	87182
2026-01-02 06:12:10.16	43.20	6.75	-51.7	-54.2	3.5	0.00e+00	0	37	104	0	60	86712
2026-01-02 06:12:11.17	42.99	6.78	-51.9	-54.3	3.6	0.00e+00	0	37	104	0	60	87567
2026-01-02 06:12:12.18	42.79	6.81	-51.9	-54.4	3.6	0.00e+00	0	37	104	0	60	88913
2026-01-02 06:12:13.19	42.58	6.84	-51.8	-54.3	3.6	0.00e+00	0	37	104	0	60	87477
2026-01-02 06:12:14.20	42.37	6.87	-51.8	-54.4	3.6	0.00e+00	0	37	104	0	60	88310
2026-01-02 06:12:15.21	42.16	6.90	-51.8	-54.3	3.6	0.00e+00	0	37	104	0	60	87477
2026-01-02 06:12:16.22	41.95	6.93	-51.7	-54.2	3.6	0.00e+00	0	37	104	0	60	86489
2026-01-02 06:12:17.23	41.74	6.95	-51.7	-54.2	3.6	0.00e+00	0	37	104	0	60	86226
2026-01-02 06:12:18.25	41.52	6.98	-51.7	-54.1	3.6	0.00e+00	0	37	104	0	60	86018
2026-01-02 06:12:19.26	41.31	7.01	-51.7	-54.2	3.6	0.00e+00	0	37	104	0	60	86945
2026-01-02 06:12:20.27	41.10	7.04	-51.8	-54.3	3.6	0.00e+00	0	37	104	0	60	87944
2026-01-02 06:12:21.28	40.89	7.07	-51.8	-54.3	3.6	0.00e+00	0	37	104	0	60	87555
2026-01-02 06:12:22.29	40.67	7.09	-51.8	-54.2	3.6	0.00e+00	0	37	104	0	60	87124
2026-01-02 06:12:23.30	40.46	7.12	-51.7	-54.2	3.6	0.00e+00	0	37	104	0	60	86911
2026-01-02 06:12:24.31	40.25	7.15	-51.7	-54.1	3.6	0.00e+00	0	37	104	0	60	85934
2026-01-02 06:12:25.32	40.03	7.17	-51.7	-54.2	3.6	0.00e+00	0	37	104	0	60	86278
2026-01-02 06:12:26.33	39.82	7.20	-51.7	-54.1	3.6	0.00e+00	0	37	104	0	60	86077
2026-01-02 06:12:27.34	39.60	7.23	-51.6	-54.1	3.6	0.00e+00	0	37	104	0	60	85510
2026-01-02 06:12:28.35	39.38	7.25	-51.7	-54.2	3.6	0.00e+00	0	37	104	0	60	86234
2026-01-02 06:12:29.37	39.16	7.28	-51.7	-54.1	3.6	0.00e+00	0	37	104	0	60	86165
2026-01-02 06:12:30.38	38.95	7.30	-51.7	-54.1	3.6	0.00e+00	0	37	104	0	60	86087
2026-01-02 06:12:31.39	38.73	7.33	-51.7	-54.1	3.6	0.00e+00	0	37	104	0	60	85927
2026-01-02 06:12:32.40	38.51	7.35	-51.7	-54.2	3.6	0.00e+00	0	37	104	0	60	86967
2026-01-02 06:12:33.41	38.29	7.38	-51.8	-54.2	3.6	0.00e+00	0	37	104	0	60	86618
2026-01-02 06:12:34.42	38.07	7.40	-51.7	-54.2	3.6	0.00e+00	0	37	104	0	60	87106
2026-01-02 06:12:35.43	37.85	7.42	-51.8	-54.3	3.6	0.00e+00	0	37	104	0	60	87443
2026-01-02 06:12:36.44	37.63	7.45	-51.8	-54.2	3.6	0.00e+00	0	37	104	0	60	87194
2026-01-02 06:12:37.45	37.41	7.47	-51.9	-54.4	3.6	0.00e+00	0	37	104	0	60	88463
2026-01-02 06:12:38.46	37.19	7.49	-52.1	-54.5	3.6	0.00e+00	0	37	104	0	60	90053
2026-01-02 06:12:39.47	36.97	7.51	-51.9	-54.4	3.6	0.00e+00	0	37	104	0	60	88587
2026-01-02 06:12:40.49	36.75	7.54	-51.9	-54.3	3.6	0.00e+00	0	37	104	0	60	87870
2026-01-02 06:12:41.50	36.53	7.56	-52.0	-54.4	3.6	0.00e+00	0	37	104	0	60	89207
2026-01-02 06:12:42.51	36.30	7.58	-51.8	-54.3	3.6	0.00e+00	0	37	104	0	60	87723
2026-01-02 06:12:43.52	36.08	7.60	-51.9	-54.4	3.6	0.00e+00	0	37	104	0	60	89208
2026-01-02 06:12:44.53	35.86	7.62	-52.0	-54.4	3.6	0.00e+00	0	37	104	0	60	88765
2026-01-02 06:12:45.54	35.63	7.64	-51.9	-54.4	3.6	0.00e+00	0	37	104	0	60	88228
2026-01-02 06:12:46.55	35.41	7.66	-52.0	-54.5	3.6	0.00e+00	0	37	104	0	60	89967
2026-01-02 06:12:47.56	35.19	7.68	-51.8	-54.3	3.6	0.00e+00	0	37	104	0	60	87583
2026-01-02 06:12:48.57	34.96	7.70	-51.8	-54.2	3.6	0.00e+00	0	37	104	0	60	87025
2026-01-02 06:12:49.58	34.74	7.72	-51.7	-54.2	3.6	0.00e+00	0	37	104	0	60	86430
2026-01-02 06:12:50.59	34.51	7.74	-51.8	-54.2	3.6	0.00e+00	0	37	104	0	60	86933
2026-01-02 06:12:51.60	34.28	7.76	-52.2	-54.6	3.6	0.00e+00	0	37	104	0	60	91256
2026-01-02 06:12:52.62	34.06	7.77	-52.0	-54.4	3.6	0.00e+00	0	37	104	0	60	88954
2026-01-02 06:12:53.63	33.83	7.79	-51.8	-54.3	3.6	0.00e+00	0	37	104	0	60	87625
2026-01-02 06:12:54.64	33.60	7.81	-51.9	-54.5	3.6	0.00e+00	0	37	104	0	60	89358
2026-01-02 06:12:55.65	33.38	7.83	-52.3	-54.7	3.6	0.00e+00	0	37	104	0	60	91952
2026-01-02 06:12:56.66	33.15	7.84	-52.0	-54.4	3.6	0.00e+00	0	37	104	0	60	88677
2026-01-02 06:12:57.67	32.92	7.86	-52.0	-54.5	3.6	0.00e+00	0	37	104	0	60	89678
2026-01-02 06:12:58.68	32.69	7.87	-51.9	-54.4	3.6	0.00e+00	0	37	104	0	60	88737
2026-01-02 06:12:59.69	32.46	7.89	-51.9	-54.5	3.6	0.00e+00	0	37	104	0	60	89465
2026-01-02 06:13:00.70	32.24	7.90	-51.8	-54.3	3.6	0.00e+00	0	37	104	0	60	87259
2026-01-02 06:13:01.71	32.01	7.92	-51.9	-54.3	3.6	0.00e+00	0	37	104	0	60	87953
2026-01-02 06:13:02.72	31.78	7.93	-51.9	-54.4	3.6	0.00e+00	0	37	104	0	60	88271
2026-01-02 06:13:03.73	31.55	7.95	-51.8	-54.3	3.6	0.00e+00	0	37	104	0	60	87558
2026-01-02 06:13:04.75	31.32	7.96	-51.7	-54.2	3.6	0.00e+00	0	37	104	0	60	86519
2026-01-02 06:13:05.76	31.09	7.98	-51.7	-54.2	3.6	0.00e+00	0	37	104	0	60	86352
2026-01-02 06:13:06.77	30.85	7.99	-51.7	-54.2	3.6	0.00e+00	0	37	104	0	60	86548
2026-01-02 06:13:07.78	30.62	8.00	-51.8	-54.3	3.6	0.00e+00	0	37	104	0	60	87368
2026-01-02 06:13:08.79	30.39	8.01	-51.7	-54.2	3.6	0.00e+00	0	37	104	0	60	87013
2026-01-02 06:13:09.80	30.16	8.03	-51.7	-54.2	3.6	0.00e+00	0	37	104	0	60	86466
2026-01-02 06:13:10.81	29.93	8.04	-51.7	-54.2	3.6	0.00e+00	0	37	104	0	60	86977
2026-01-02 06:13:11.82	29.70	8.05	-51.7	-54.2	3.6	0.00e+00	0	37	104	0	60	86553
2026-01-02 06:13:12.83	29.47	8.06	-51.7	-54.2	3.6	0.00e+00	0	37	104	0	60	86393
2026-01-02 06:13:13.84	29.24	8.07	-51.7	-54.1	3.6	0.00e+00	0	37	104	0	60	86189
2026-01-02 06:13:14.85	29.00	8.08	-51.7	-54.1	3.6	0.00e+00	0	37	104	0	60	85939
2026-01-02 06:13:15.87	28.77	8.09	-51.8	-54.3	3.6	0.00e+00	0	37	104	0	60	87431
2026-01-02 06:13:16.88	28.54	8.10	-51.8	-54.3	3.6	0.00e+00	0	37	104	0	60	87592
2026-01-02 06:13:17.89	28.30	8.11	-51.8	-54.3	3.6	0.00e+00	0	37	104	0	60	87696
2026-01-02 06:13:18.90	28.07	8.12	-52.0	-54.4	3.6	0.00e+00	0	37	104	0	60	89122
2026-01-02 06:13:19.91	27.84	8.12	-51.8	-54.3	3.6	0.00e+00	0	37	104	0	60	87263
2026-01-02 06:13:20.92	27.60	8.13	-51.7	-54.2	3.6	0.00e+00	0	37	104	0	60	86672
2026-01-02 06:13:21.93	27.37	8.14	-51.7	-54.2	3.6	0.00e+00	0	37	104	0	60	86238
2026-01-02 06:13:22.94	27.14	8.15	-51.9	-54.4	3.6	0.00e+00	0	37	104	0	60	88855
2026-01-02 06:13:23.96	26.90	8.15	-51.7	-54.2	3.6	0.00e+00	0	37	104	0	60	86462
2026-01-02 06:13:24.97	26.67	8.16	-52.0	-54.4	3.6	0.00e+00	0	37	104	0	60	89179
2026-01-02 06:13:25.98	26.43	8.17	-51.9	-54.3	3.6	0.00e+00	0	37	104	0	60	87976
2026-01-02 06:13:26.99	26.20	8.17	-51.9	-54.4	3.6	0.00e+00	0	37	104	0	60	88524
2026-01-02 06:13:28.00	25.97	8.18	-52.1	-54.6	3.6	0.00e+00	0	37	104	0	60	90537
2026-01-02 06:13:29.01	25.73	8.18	-52.0	-54.5	3.6	0.00e+00	0	37	104	0	60	90111
2026-01-02 06:13:30.02	25.50	8.18	-52.0	-54.5	3.6	0.00e+00	0	37	104	0	60	89910
2026-01-02 06:13:31.03	25.26	8.19	-51.8	-54.3	3.5	0.00e+00	0	37	104	0	60	87235
2026-01-02 06:13:32.04	25.03	8.19	-52.0	-54.4	3.6	0.00e+00	0	37	104	0	60	89047
2026-01-02 06:13:33.06	24.79	8.20	-51.9	-54.4	3.6	0.00e+00	0	37	104	0	60	88519
2026-01-02 06:13:34.07	24.56	8.20	-52.0	-54.5	3.6	0.00e+00	0	37	104	0	60	89396
2026-01-02 06:13:35.08	24.32	8.20	-51.8	-54.3	3.6	0.00e+00	0	37	104	0	60	87429
2026-01-02 06:13:36.09	24.09	8.20	-51.8	-54.2	3.6	0.00e+00	0	37	104	0	60	87173
2026-01-02 06:13:37.10	23.85	8.20	-51.8	-54.2	3.6	0.00e+00	0	37	104	0	60	86684
2026-01-02 06:13:38.11	23.62	8.21	-51.7	-54.2	3.6	0.00e+00	0	37	104	0	60	86500
2026-01-02 06:13:39.12	23.38	8.21	-51.8	-54.2	3.6	0.00e+00	0	37	104	0	60	87094
2026-01-02 06:13:40.13	23.15	8.21	-51.7	-54.2	3.6	0.00e+00	0	37	104	0	60	86617
2026-01-02 06:13:41.14	22.91	8.21	-51.8	-54.3	3.6	0.00e+00	0	37	104	0	60	87644
2026-01-02 06:13:42.15	22.68	8.21	-51.7	-54.2	3.6	0.00e+00	0	37	104	0	60	86591
2026-01-02 06:13:43.16	22.44	8.21	-51.8	-54.2	3.6	0.00e+00	0	37	104	0	60	86585
2026-01-02 06:13:44.18	22.21	8.21	-51.8	-54.3	3.6	0.00e+00	0	37	104	0	60	87631
2026-01-02 06:13:45.19	21.97	8.20	-51.8	-54.3	3.6	0.00e+00	0	37	104	0	60	87501
2026-01-02 06:13:46.20	21.74	8.20	-51.9	-54.3	3.6	0.00e+00	0	37	104	0	60	88123
2026-01-02 06:13:47.21	21.50	8.20	-51.7	-54.2	3.6	0.00e+00	0	37	104	0	60	86231
2026-01-02 06:13:48.22	21.27	8.20	-51.7	-54.2	3.6	0.00e+00	0	37	104	0	60	86533
2026-01-02 06:13:49.23	21.03	8.19	-52.0	-54.5	3.6	0.00e+00	0	37	104	0	60	89365
2026-01-02 06:13:50.24	20.80	8.19	-51.9	-54.4	3.6	0.00e+00	0	37	104	0	60	88538
2026-01-02 06:13:51.25	20.56	8.19	-51.8	-54.3	3.6	0.00e+00	0	37	104	0	60	87263
2026-01-02 06:13:52.26	20.33	8.18	-51.7	-54.2	3.6	0.00e+00	0	37	104	0	60	86464
2026-01-02 06:13:53.27	20.10	8.18	-51.9	-54.3	3.6	0.00e+00	0	37	104	0	60	87975
2026-01-02 06:13:54.28	19.86	8.17	-51.8	-54.2	3.6	0.00e+00	0	37	104	0	60	87139
2026-01-02 06:13:55.29	19.63	8.17	-51.9	-54.3	3.6	0.00e+00	0	37	104	0	60	87724
2026-01-02 06:13:56.30	19.39	8.16	-51.8	-54.3	3.6	0.00e+00	0	37	104	0	60	87322
2026-01-02 06:13:57.31	19.16	8.16	-51.8	-54.3	3.6	0.00e+00	0	37	104	0	60	88021
2026-01-02 06:13:58.32	18.93	8.15	-51.8	-54.3	3.6	0.00e+00	0	37	104	0	60	87475
2026-01-02 06:13:59.33	18.69	8.14	-51.9	-54.4	3.6	0.00e+00	0	38	104	0	60	88594
2026-01-02 06:14:00.34	18.46	8.14	-51.9	-54.4	3.6	0.00e+00	0	37	104	0	60	88656
2026-01-02 06:14:01.35	18.23	8.13	-51.8	-54.3	3.6	0.00e+00	0	37	104	0	60	87541
2026-01-02 06:14:02.36	17.99	8.12	-51.8	-54.2	3.6	0.00e+00	0	38	104	0	60	87118
2026-01-02 06:14:03.38	17.76	8.11	-51.8	-54.2	3.6	0.00e+00	0	37	104	0	60	87047
2026-01-02 06:14:04.38	17.53	8.10	-51.8	-54.3	3.6	0.00e+00	0	37	104	0	60	87357
2026-01-02 06:14:05.40	17.29	8.09	-51.7	-54.2	3.6	0.00e+00	0	37	104	0	60	86853
2026-01-02 06:14:06.40	17.06	8.08	-51.7	-54.1	3.6	0.00e+00	0	38	104	0	60	86185
2026-01-02 06:14:07.42	16.83	8.07	-51.8	-54.2	3.6	0.00e+00	0	38	104	0	60	87090
2026-01-02 06:14:08.43	16.60	8.06	-51.7	-54.2	3.6	0.00e+00	0	37	104	0	60	86236
2026-01-02 06:14:09.44	16.36	8.05	-51.7	-54.2	3.6	0.00e+00	0	37	104	0	60	86377
2026-01-02 06:14:10.45	16.13	8.04	-51.8	-54.2	3.6	0.00e+00	0	37	104	0	60	86974
2026-01-02 06:14:11.46	15.90	8.03	-51.7	-54.2	3.6	0.00e+00	0	37	104	0	60	86633
2026-01-02 06:14:12.47	15.67	8.02	-51.8	-54.3	3.6	0.00e+00	0	37	104	0	60	87788
2026-01-02 06:14:13.48	15.44	8.01	-51.7	-54.2	3.6	0.00e+00	0	37	104	0	60	86260
2026-01-02 06:14:14.49	15.21	7.99	-51.7	-54.2	3.6	0.00e+00	0	37	104	0	60	86831
2026-01-02 06:14:15.50	14.98	7.98	-51.7	-54.1	3.6	0.00e+00	0	37	104	0	60	85823
2026-01-02 06:14:16.51	14.75	7.97	-51.7	-54.1	3.6	0.00e+00	0	37	104	0	60	85834
2026-01-02 06:14:17.52	14.52	7.96	-51.6	-54.1	3.6	0.00e+00	0	37	104	0	60	86012
2026-01-02 06:14:18.53	14.29	7.94	-51.6	-54.1	3.6	0.00e+00	0	37	104	0	60	86064
2026-01-02 06:14:19.54	14.06	7.93	-51.6	-54.0	3.6	0.00e+00	0	37	104	0	60	85218
2026-01-02 06:14:20.55	13.83	7.91	-51.6	-54.1	3.6	0.00e+00	0	37	104	0	60	85592
2026-01-02 06:14:21.57	13.60	7.90	-51.6	-54.1	3.6	0.00e+00	0	37	104	0	60	85312
2026-01-02 06:14:22.58	13.37	7.88	-51.6	-54.1	3.6	0.00e+00	0	37	104	0	60	85301
2026-01-02 06:14:23.59	13.14	7.87	-51.6	-54.0	3.6	0.00e+00	0	37	104	0	60	84963
2026-01-02 06:14:24.60	12.91	7.85	-51.5	-54.0	3.6	0.00e+00	0	37	104	0	60	84941
2026-01-02 06:14:25.61	12.68	7.83	-51.6	-54.0	3.6	0.00e+00	0	37	104	0	60	85133
2026-01-02 06:14:26.62	12.46	7.82	-51.6	-54.0	3.6	0.00e+00	0	38	104	0	60	85147
2026-01-02 06:14:27.63	12.23	7.80	-51.6	-54.1	3.6	0.00e+00	0	38	104	0	60	85389
2026-01-02 06:14:28.64	12.00	7.78	-51.6	-54.1	3.6	0.00e+00	0	37	104	0	60	85318
2026-01-02 06:14:29.65	11.78	7.76	-51.6	-54.1	3.6	0.00e+00	0	38	104	0	60	86086
2026-01-02 06:14:30.66	11.55	7.75	-51.6	-54.1	3.6	0.00e+00	0	37	104	0	60	85705
2026-01-02 06:14:31.67	11.33	7.73	-51.6	-54.1	3.6	0.00e+00	0	37	104	0	60	85313
2026-01-02 06:14:32.68	11.10	7.71	-51.6	-54.1	3.6	0.00e+00	0	37	104	0	60	85576
2026-01-02 06:14:33.70	10.87	7.69	-51.6	-54.1	3.6	0.00e+00	0	37	104	0	60	85785
2026-01-02 06:14:34.71	10.65	7.67	-51.6	-54.1	3.6	0.00e+00	0	38	104	0	60	85559
2026-01-02 06:14:35.72	10.42	7.65	-51.6	-54.1	3.6	0.00e+00	0	38	104	0	60	85412
2026-01-02 06:14:36.73	10.20	7.63	-51.6	-54.1	3.6	0.00e+00	0	37	104	0	60	85411
2026-01-02 06:14:37.74	9.98	7.61	-51.6	-54.1	3.6	0.00e+00	0	37	104	0	60	85737
2026-01-02 06:14:38.75	9.75	7.59	-51.6	-54.0	3.6	0.00e+00	0	37	104	0	60	85089
2026-01-02 06:14:39.76	9.53	7.57	-51.6	-54.1	3.5	0.00e+00	0	38	104	0	60	85842
2026-01-02 06:14:40.77	9.31	7.55	-51.7	-54.2	3.6	0.00e+00	0	37	104	0	60	86350
2026-01-02 06:14:41.78	9.09	7.52	-51.7	-54.2	3.6	0.00e+00	0	37	104	0	60	86251
2026-01-02 06:14:42.80	8.86	7.50	-51.7	-54.1	3.6	0.00e+00	0	37	104	0	60	85657
2026-01-02 06:14:43.81	8.64	7.48	-51.7	-54.2	3.6	0.00e+00	0	38	104	0	60	86478
2026-01-02 06:14:44.82	8.42	7.46	-51.7	-54.1	3.6	0.00e+00	0	37	104	0	60	86193
2026-01-02 06:14:45.83	8.20	7.43	-51.7	-54.1	3.6	0.00e+00	0	38	104	0	60	86148
2026-01-02 06:14:46.84	7.98	7.41	-51.7	-54.2	3.6	0.00e+00	0	37	104	0	60	86814
2026-01-02 06:14:47.85	7.76	7.39	-51.8	-54.2	3.6	0.00e+00	0	38	104	0	60	86795
2026-01-02 06:14:48.86	7.54	7.36	-51.8	-54.2	3.5	0.00e+00	0	37	104	0	60	86980
2026-01-02 06:14:49.87	7.33	7.34	-51.8	-54.2	3.6	0.00e+00	0	37	104	0	60	86912
2026-01-02 06:14:50.88	7.11	7.31	-51.7	-54.2	3.6	0.00e+00	0	37	104	0	60	86223
2026-01-02 06:14:51.89	6.89	7.29	-51.7	-54.2	3.6	0.00e+00	0	37	104	0	60	86411
2026-01-02 06:14:52.90	6.67	7.26	-51.7	-54.2	3.6	0.00e+00	0	38	104	0	60	86313
2026-01-02 06:14:53.91	6.46	7.24	-51.7	-54.2	3.6	0.00e+00	0	38	104	0	60	86348
2026-01-02 06:14:54.93	6.24	7.21	-51.7	-54.1	3.6	0.00e+00	0	37	104	0	60	85558
2026-01-02 06:14:55.94	6.02	7.19	-51.7	-54.1	3.6	0.00e+00	0	38	104	0	60	86202
2026-01-02 06:14:56.95	5.81	7.16	-51.6	-54.1	3.6	0.00e+00	0	37	104	0	60	85430
2026-01-02 06:14:57.96	5.59	7.13	-51.6	-54.1	3.6	0.00e+00	0	38	104	0	60	85237
2026-01-02 06:14:58.97	5.38	7.11	-51.6	-54.1	3.6	0.00e+00	0	38	104	0	60	85287
2026-01-02 06:14:59.98	5.17	7.08	-51.6	-54.1	3.6	0.00e+00	0	38	104	0	60	85281
2026-01-02 06:15:00.99	4.95	7.05	-51.6	-54.1	3.6	0.00e+00	0	38	104	0	60	85391
2026-01-02 06:15:02.00	4.74	7.03	-51.6	-54.1	3.6	0.00e+00	0	37	104	0	60	85318
2026-01-02 06:15:03.01	4.53	7.00	-51.6	-54.0	3.6	0.00e+00	0	38	104	0	60	84819
2026-01-02 06:15:04.02	4.32	6.97	-51.6	-54.1	3.6	0.00e+00	0	38	104	0	60	85323
2026-01-02 06:15:05.03	4.11	6.94	-51.6	-54.1	3.6	0.00e+00	0	38	104	0	60	85437
2026-01-02 06:15:06.05	3.89	6.91	-51.6	-54.1	3.6	0.00e+00	0	38	104	0	60	85496
2026-01-02 06:15:07.05	3.69	6.88	-51.6	-54.1	3.6	0.00e+00	0	37	104	0	60	85839
2026-01-02 06:15:08.06	3.48	6.85	-51.6	-54.1	3.6	0.00e+00	0	37	104	0	60	85236
2026-01-02 06:15:09.08	3.27	6.82	-51.6	-54.1	3.6	0.00e+00	0	37	104	0	60	85419
2026-01-02 06:15:10.09	3.06	6.79	-51.6	-54.0	3.6	0.00e+00	0	37	104	0	60	84821
2026-01-02 06:15:11.10	2.85	6.76	-51.6	-54.1	3.6	0.00e+00	0	37	104	0	60	85296
2026-01-02 06:15:12.11	2.64	6.73	-51.6	-54.1	3.6	0.00e+00	0	38	104	0	60	85684
2026-01-02 06:15:13.12	2.43	6.70	-51.6	-54.1	3.6	0.00e+00	0	37	104	0	60	85260
2026-01-02 06:15:14.13	2.23	6.67	-51.6	-54.0	3.6	0.00e+00	0	37	104	0	60	84975
2026-01-02 06:15:15.14	2.02	6.64	-51.6	-54.0	3.6	0.00e+00	0	37	104	0	60	85054
2026-01-02 06:15:16.15	1.82	6.61	-51.6	-54.0	3.6	0.00e+00	0	37	104	0	60	84988
2026-01-02 06:15:17.16	1.61	6.58	-51.6	-54.0	3.6	0.00e+00	0	37	104	0	60	84944
2026-01-02 06:15:18.17	1.41	6.55	-51.6	-54.1	3.6	0.00e+00	0	37	104	0	60	85754
2026-01-02 06:15:19.18	1.21	6.51	-51.6	-54.0	3.6	0.00e+00	0	38	104	0	60	85093
2026-01-02 06:15:20.19	1.00	6.48	-51.6	-54.1	3.6	0.00e+00	0	38	104	0	60	85391
2026-01-02 06:15:21.20	0.80	6.45	-51.6	-54.0	3.6	0.00e+00	0	38	104	0	60	84857
2026-01-02 06:15:22.21	0.60	6.42	-51.6	-54.0	3.6	0.00e+00	0	38	104	0	60	85133
2026-01-02 06:15:23.23	0.39	6.38	-51.5	-54.0	3.6	0.00e+00	0	38	104	0	60	84750
2026-01-02 06:15:24.24	0.19	6.35	-51.6	-54.1	3.6	0.00e+00	0	38	104	0	60	85680
2026-01-02 06:15:25.25	359.99	6.32	-51.6	-54.0	3.6	0.00e+00	0	37	104	0	60	85083
2026-01-02 06:15:26.26	359.79	6.28	-51.6	-54.1	3.6	0.00e+00	0	38	104	0	60	85262
2026-01-02 06:15:27.27	359.60	6.25	-51.6	-54.1	3.6	0.00e+00	0	38	104	0	60	85412
2026-01-02 06:15:28.28	359.40	6.21	-51.6	-54.1	3.6	0.00e+00	0	38	104	0	60	85441
2026-01-02 06:15:29.29	359.20	6.18	-51.6	-54.0	3.6	0.00e+00	0	38	104	0	60	85111
2026-01-02 06:15:30.30	359.00	6.15	-51.6	-54.0	3.6	0.00e+00	0	38	104	0	60	84793
2026-01-02 06:15:31.31	358.81	6.11	-51.6	-54.0	3.6	0.00e+00	0	38	104	0	60	85053
2026-01-02 06:15:32.33	358.61	6.08	-51.6	-54.1	3.5	0.00e+00	0	38	104	0	60	85433
2026-01-02 06:15:33.34	358.41	6.04	-51.6	-54.0	3.6	0.00e+00	0	37	104	0	60	85072
2026-01-02 06:15:34.35	358.22	6.00	-51.6	-54.1	3.6	0.00e+00	0	37	104	0	60	85486
2026-01-02 06:15:35.36	358.02	5.97	-51.6	-54.1	3.6	0.00e+00	0	38	104	0	60	85349
2026-01-02 06:15:36.37	357.83	5.93	-51.6	-54.0	3.6	0.00e+00	0	38	104	0	60	85139
2026-01-02 06:15:37.38	357.64	5.90	-51.6	-54.1	3.6	0.00e+00	0	38	104	0	60	85333
2026-01-02 06:15:38.39	357.44	5.86	-51.6	-54.1	3.6	0.00e+00	0	38	104	0	60	85398
2026-01-02 06:15:39.40	357.25	5.83	-51.6	-54.1	3.6	0.00e+00	0	38	104	0	60	85621
2026-01-02 06:15:40.41	357.06	5.79	-51.6	-54.0	3.6	0.00e+00	0	38	104	0	60	85075
2026-01-02 06:15:41.42	356.87	5.75	-51.6	-54.0	3.6	0.00e+00	0	38	104	0	60	84916
2026-01-02 06:15:42.43	356.68	5.72	-51.6	-54.1	3.6	0.00e+00	0	37	104	0	60	85370
2026-01-02 06:15:43.44	356.49	5.68	-51.6	-54.0	3.6	0.00e+00	0	37	104	0	60	85038
2026-01-02 06:15:44.46	356.30	5.64	-51.6	-54.0	3.6	0.00e+00	0	37	104	0	60	85024
2026-01-02 06:15:45.47	356.11	5.60	-51.6	-54.0	3.6	0.00e+00	0	38	104	0	60	84976
2026-01-02 06:15:46.48	355.92	5.57	-51.6	-54.1	3.6	0.00e+00	0	38	104	0	60	85334
2026-01-02 06:15:47.49	355.74	5.53	-51.6	-54.0	3.6	0.00e+00	0	38	104	0	60	85027
2026-01-02 06:15:48.50	355.55	5.49	-51.6	-54.0	3.6	0.00e+00	0	38	104	0	60	85180
2026-01-02 06:15:49.51	355.36	5.45	-51.6	-54.1	3.6	0.00e+00	0	37	104	0	60	85444
2026-01-02 06:15:50.52	355.18	5.41	-51.6	-54.1	3.6	0.00e+00	0	37	104	0	60	85427
2026-01-02 06:15:51.53	354.99	5.38	-51.6	-54.1	3.6	0.00e+00	0	37	104	0	60	85948
2026-01-02 06:15:52.54	354.81	5.34	-51.6	-54.1	3.6	0.00e+00	0	37	104	0	60	85289
2026-01-02 06:15:53.55	354.63	5.30	-51.6	-54.1	3.6	0.00e+00	0	37	104	0	60	85391
2026-01-02 06:15:54.56	354.44	5.26	-51.6	-54.1	3.6	0.00e+00	0	38	104	0	60	85557
2026-01-02 06:15:55.57	354.26	5.22	-51.6	-54.1	3.6	0.00e+00	0	38	104	0	60	85346
2026-01-02 06:15:56.58	354.08	5.18	-51.6	-54.1	3.6	0.00e+00	0	38	104	0	60	85381
2026-01-02 06:15:57.59	353.90	5.14	-51.6	-54.1	3.6	0.00e+00	0	37	104	0	60	85947
2026-01-02 06:15:58.60	353.72	5.10	-51.6	-54.1	3.6	0.00e+00	0	37	104	0	60	85253
2026-01-02 06:15:59.61	353.54	5.06	-51.6	-54.1	3.6	0.00e+00	0	38	104	0	60	85655
2026-01-02 06:16:00.62	353.36	5.02	-51.6	-54.1	3.6	0.00e+00	0	38	104	0	60	85336
2026-01-02 06:16:01.64	353.18	4.98	-51.6	-54.1	3.6	0.00e+00	0	38	104	0	60	85919
2026-01-02 06:16:02.65	353.00	4.94	-51.6	-54.1	3.6	0.00e+00	0	38	104	0	60	85647
2026-01-02 06:16:03.66	352.82	4.90	-51.6	-54.1	3.6	0.00e+00	0	38	104	0	60	85759
2026-01-02 06:16:04.67	352.65	4.86	-51.6	-54.1	3.6	0.00e+00	0	38	104	0	60	85655
2026-01-02 06:16:05.68	352.47	4.82	-51.6	-54.1	3.6	0.00e+00	0	38	104	0	60	85283
2026-01-02 06:16:06.69	352.30	4.78	-51.6	-54.1	3.6	0.00e+00	0	38	104	0	60	85474
2026-01-02 06:16:07.70	352.12	4.74	-51.6	-54.1	3.6	0.00e+00	0	38	104	0	60	85702
2026-01-02 06:16:08.71	351.95	4.70	-51.6	-54.0	3.6	0.00e+00	0	38	104	0	60	85080
2026-01-02 06:16:09.72	351.77	4.66	-51.6	-54.1	3.6	0.00e+00	0	38	104	0	60	85260
2026-01-02 06:16:10.73	351.60	4.62	-51.6	-54.0	3.6	0.00e+00	0	38	104	0	60	84900
2026-01-02 06:16:11.74	351.43	4.58	-51.6	-54.1	3.6	0.00e+00	0	38	104	0	60	85750
2026-01-02 06:16:12.75	351.26	4.53	-51.6	-54.1	3.6	0.00e+00	0	38	104	0	60	85633
2026-01-02 06:16:13.76	351.09	4.49	-51.7	-54.1	3.6	0.00e+00	0	37	104	0	60	86165
2026-01-02 06:16:14.78	350.91	4.45	-51.6	-54.1	3.6	0.00e+00	0	37	104	0	60	85564
2026-01-02 06:16:15.79	350.74	4.41	-51.7	-54.2	3.6	0.00e+00	0	37	104	0	60	86450
2026-01-02 06:16:16.80	350.58	4.37	-51.6	-54.1	3.6	0.00e+00	0	38	104	0	60	85987
2026-01-02 06:16:17.81	350.41	4.33	-51.6	-54.1	3.6	0.00e+00	0	38	104	0	60	85865
2026-01-02 06:16:18.82	350.24	4.28	-51.6	-54.1	3.6	0.00e+00	0	38	104	0	60	85387
2026-01-02 06:16:19.83	350.07	4.24	-51.6	-54.1	3.6	0.00e+00	0	38	104	0	60	85275
2026-01-02 06:16:20.84	349.90	4.20	-51.6	-54.1	3.6	0.00e+00	0	38	104	0	60	85812
2026-01-02 06:16:21.85	349.74	4.16	-51.6	-54.1	3.6	0.00e+00	0	38	104	0	60	85316
2026-01-02 06:16:22.86	349.57	4.12	-51.6	-54.1	3.6	0.00e+00	0	38	104	0	60	85418
2026-01-02 06:16:23.87	349.41	4.07	-51.6	-54.1	3.6	0.00e+00	0	38	104	0	60	85502
2026-01-02 06:16:24.88	349.24	4.03	-51.6	-54.1	3.6	0.00e+00	0	38	104	0	60	85334
2026-01-02 06:16:25.90	349.08	3.99	-51.6	-54.0	3.6	0.00e+00	0	38	104	0	60	84996
2026-01-02 06:16:26.91	348.91	3.94	-51.7	-54.1	3.6	0.00e+00	0	38	104	0	60	85940
2026-01-02 06:16:27.92	348.75	3.90	-51.6	-54.1	3.6	0.00e+00	0	38	104	0	60	85706
2026-01-02 06:16:28.93	348.59	3.86	-51.6	-54.1	3.6	0.00e+00	0	38	104	0	60	85937
2026-01-02 06:16:29.94	348.43	3.82	-51.6	-54.1	3.6	0.00e+00	0	38	104	0	60	85620
2026-01-02 06:16:30.95	348.27	3.77	-51.6	-54.1	3.6	0.00e+00	0	38	104	0	60	85756
2026-01-02 06:16:31.96	348.11	3.73	-51.7	-54.1	3.5	0.00e+00	0	37	104	0	60	85775
2026-01-02 06:16:32.97	347.95	3.69	-51.6	-54.1	3.6	0.00e+00	0	38	104	0	60	85652
2026-01-02 06:16:33.98	347.79	3.64	-51.6	-54.1	3.6	0.00e+00	0	38	104	0	60	85728
2026-01-02 06:16:34.99	347.63	3.60	-51.7	-54.2	3.6	0.00e+00	0	38	104	0	60	86292
2026-01-02 06:16:36.00	347.47	3.55	-51.7	-54.2	3.6	0.00e+00	0	38	104	0	60	86598
2026-01-02 06:16:37.02	347.31	3.51	-51.7	-54.1	3.6	0.00e+00	0	37	104	0	60	86059
2026-01-02 06:16:38.03	347.16	3.47	-51.7	-54.2	3.6	0.00e+00	0	38	104	0	60	86479
2026-01-02 06:16:39.04	347.00	3.42	-51.8	-54.2	3.6	0.00e+00	0	38	104	0	60	87072
2026-01-02 06:16:40.05	346.85	3.38	-51.7	-54.2	3.6	0.00e+00	0	38	104	0	60	86923
2026-01-02 06:16:41.06	346.69	3.34	-51.7	-54.2	3.6	0.00e+00	0	38	104	0	60	86296
2026-01-02 06:16:42.07	346.54	3.29	-51.6	-54.1	3.6	0.00e+00	0	38	104	0	60	85458
2026-01-02 06:16:43.08	346.38	3.25	-51.8	-54.2	3.6	0.00e+00	0	38	104	0	60	86995
2026-01-02 06:16:44.09	346.23	3.20	-51.8	-54.2	3.6	0.00e+00	0	37	104	0	60	87033
2026-01-02 06:16:45.10	346.08	3.16	-51.8	-54.3	3.6	0.00e+00	0	38	104	0	60	87300
2026-01-02 06:16:46.11	345.93	3.11	-51.8	-54.2	3.6	0.00e+00	0	38	104	0	60	86949
2026-01-02 06:16:47.13	345.77	3.07	-51.8	-54.3	3.6	0.00e+00	0	38	104	0	60	87595
2026-01-02 06:16:48.14	345.62	3.03	-51.8	-54.3	3.6	0.00e+00	0	38	104	0	60	87472
2026-01-02 06:16:49.15	345.47	2.98	-51.8	-54.2	3.6	0.00e+00	0	38	104	0	60	86725
2026-01-02 06:16:50.16	345.32	2.94	-51.8	-54.2	3.6	0.00e+00	0	38	104	0	60	87126
2026-01-02 06:16:51.17	345.18	2.89	-51.8	-54.3	3.6	0.00e+00	0	38	104	0	60	87320
2026-01-02 06:16:52.18	345.03	2.85	-51.7	-54.2	3.6	0.00e+00	0	38	104	0	60	86425
2026-01-02 06:16:53.19	344.88	2.80	-51.7	-54.2	3.6	0.00e+00	0	38	104	0	60	86558
2026-01-02 06:16:54.20	344.73	2.76	-51.7	-54.2	3.6	0.00e+00	0	38	104	0	60	86236
2026-01-02 06:16:55.21	344.59	2.71	-51.6	-54.1	3.6	0.00e+00	0	38	104	0	60	85793
2026-01-02 06:16:56.22	344.44	2.67	-51.6	-54.1	3.6	0.00e+00	0	38	104	0	60	85435
2026-01-02 06:16:57.23	344.29	2.62	-51.7	-54.2	3.6	0.00e+00	0	38	104	0	60	86938
2026-01-02 06:16:58.24	344.15	2.58	-51.8	-54.3	3.6	0.00e+00	0	38	104	0	60	87607
2026-01-02 06:16:59.25	344.00	2.53	-51.8	-54.3	3.6	0.00e+00	0	38	104	0	60	87915
2026-01-02 06:17:00.26	343.86	2.49	-51.7	-54.2	3.6	0.00e+00	0	38	104	0	60	86457
2026-01-02 06:17:01.27	343.72	2.44	-51.7	-54.2	3.6	0.00e+00	0	38	104	0	60	86509
2026-01-02 06:17:02.28	343.57	2.40	-51.7	-54.2	3.6	0.00e+00	0	38	104	0	60	86736
2026-01-02 06:17:03.29	343.43	2.35	-51.6	-54.1	3.6	0.00e+00	0	38	104	0	60	85316
2026-01-02 06:17:04.30	343.29	2.31	-51.7	-54.1	3.6	0.00e+00	0	38	104	0	60	86073
2026-01-02 06:17:05.32	343.15	2.26	-51.8	-54.2	3.6	0.00e+00	0	38	104	0	60	86977
2026-01-02 06:17:06.33	343.01	2.22	-51.8	-54.3	3.6	0.00e+00	0	38	104	0	60	87471
2026-01-02 06:17:07.34	342.87	2.17	-51.8	-54.3	3.6	0.00e+00	0	38	104	0	60	87292
2026-01-02 06:17:08.35	342.73	2.13	-51.7	-54.2	3.6	0.00e+00	0	38	104	0	60	86308
2026-01-02 06:17:09.36	342.59	2.08	-51.7	-54.2	3.6	0.00e+00	0	38	104	0	60	86525
2026-01-02 06:17:10.37	342.45	2.03	-51.8	-54.3	3.6	0.00e+00	0	38	104	0	60	87903
2026-01-02 06:17:11.38	342.31	1.99	-51.7	-54.2	3.6	0.00e+00	0	38	104	0	60	86686
2026-01-02 06:17:12.39	342.18	1.94	-51.8	-54.2	3.6	0.00e+00	0	38	104	0	60	87003
2026-01-02 06:17:13.40	342.04	1.90	-51.7	-54.1	3.6	0.00e+00	0	38	104	0	60	86088
2026-01-02 06:17:14.41	341.90	1.85	-51.7	-54.2	3.6	0.00e+00	0	38	104	0	60	86532
2026-01-02 06:17:15.43	341.77	1.81	-51.6	-54.1	3.6	0.00e+00	0	38	104	0	60	85536
2026-01-02 06:17:16.44	341.63	1.76	-51.7	-54.2	3.6	0.00e+00	0	38	104	0	60	86800
2026-01-02 06:17:17.45	341.50	1.71	-51.7	-54.2	3.6	0.00e+00	0	38	104	0	60	86419
2026-01-02 06:17:18.46	341.36	1.67	-51.7	-54.2	3.6	0.00e+00	0	38	104	0	60	86271
2026-01-02 06:17:19.47	341.23	1.62	-51.7	-54.1	3.6	0.00e+00	0	38	104	0	60	86030
2026-01-02 06:17:20.48	341.10	1.58	-51.7	-54.1	3.6	0.00e+00	0	38	104	0	60	86152
2026-01-02 06:17:21.49	340.97	1.53	-51.7	-54.1	3.6	0.00e+00	0	38	104	0	60	86185
2026-01-02 06:17:22.50	340.83	1.49	-51.6	-54.1	3.6	0.00e+00	0	38	104	0	60	85233
2026-01-02 06:17:23.51	340.70	1.44	-51.7	-54.1	3.6	0.00e+00	0	38	104	0	60	85842
2026-01-02 06:17:24.52	340.57	1.39	-51.6	-54.1	3.6	0.00e+00	0	38	104	0	60	85700
2026-01-02 06:17:25.53	340.44	1.35	-51.6	-54.1	3.6	0.00e+00	0	38	104	0	60	85233
2026-01-02 06:17:26.54	340.31	1.30	-51.8	-54.3	3.6	0.00e+00	0	38	104	0	60	87385
2026-01-02 06:17:27.55	340.18	1.26	-51.7	-54.1	3.6	0.00e+00	0	38	104	0	60	85868
2026-01-02 06:17:28.56	340.05	1.21	-51.7	-54.2	3.6	0.00e+00	0	37	104	0	60	86583
2026-01-02 06:17:29.57	339.93	1.16	-51.7	-54.1	3.6	0.00e+00	0	38	104	0	60	85843
2026-01-02 06:17:30.58	339.80	1.12	-51.7	-54.1	3.6	0.00e+00	0	38	104	0	60	86192
2026-01-02 06:17:31.60	339.67	1.07	-51.7	-54.2	3.6	0.00e+00	0	38	104	0	60	86875
2026-01-02 06:17:32.61	339.54	1.03	-51.8	-54.2	3.6	0.00e+00	0	38	104	0	60	86761
2026-01-02 06:17:33.62	339.42	0.98	-51.7	-54.2	3.6	0.00e+00	0	38	104	0	60	86440
2026-01-02 06:17:34.63	339.29	0.93	-51.7	-54.2	3.6	0.00e+00	0	38	104	0	60	86444
2026-01-02 06:17:35.64	339.17	0.89	-51.6	-54.1	3.6	0.00e+00	0	38	104	0	60	85613
2026-01-02 06:17:36.65	339.04	0.84	-51.6	-54.1	3.6	0.00e+00	0	37	104	0	60	85860
2026-01-02 06:17:37.66	338.92	0.80	-51.7	-54.2	3.6	0.00e+00	0	38	104	0	60	86615
2026-01-02 06:17:38.67	338.79	0.75	-51.7	-54.1	3.6	0.00e+00	0	38	104	0	60	85801
2026-01-02 06:17:39.68	338.67	0.70	-51.6	-54.1	3.6	0.00e+00	0	38	104	0	60	86089
2026-01-02 06:17:40.69	338.55	0.66	-51.7	-54.1	3.6	0.00e+00	0	37	104	0	60	85728
2026-01-02 06:17:41.70	338.43	0.61	-51.7	-54.2	3.6	0.00e+00	0	38	104	0	60	86284
2026-01-02 06:17:42.72	338.30	0.56	-51.7	-54.2	3.6	0.00e+00	0	38	104	0	60	86279
2026-01-02 06:17:43.73	338.18	0.52	-51.7	-54.2	3.6	0.00e+00	0	38	104	0	60	86499
2026-01-02 06:17:44.74	338.06	0.47	-51.7	-54.2	3.6	0.00e+00	0	38	104	0	60	86391
2026-01-02 06:17:45.75	337.94	0.43	-51.7	-54.1	3.6	0.00e+00	0	38	104	0	60	85821
2026-01-02 06:17:46.76	337.82	0.38	-51.6	-54.1	3.6	0.00e+00	0	38	104	0	60	85862
2026-01-02 06:17:47.77	337.70	0.33	-51.6	-54.1	3.6	0.00e+00	0	38	104	0	60	85725
2026-01-02 06:17:48.78	337.58	0.29	-51.6	-54.1	3.6	0.00e+00	0	38	104	0	60	85934
2026-01-02 06:17:49.79	337.47	0.24	-51.7	-54.1	3.6	0.00e+00	0	38	104	0	60	85563
2026-01-02 06:17:50.80	337.35	0.19	-51.7	-54.2	3.6	0.00e+00	0	38	104	0	60	86237
2026-01-02 06:17:51.81	337.23	0.15	-51.7	-54.1	3.6	0.00e+00	0	38	104	0	60	86058
2026-01-02 06:17:52.82	337.11	0.10	-51.6	-54.1	3.6	0.00e+00	0	38	104	0	60	85830
2026-01-02 06:17:53.83	337.00	0.06	-51.6	-54.1	3.6	0.00e+00	0	38	104	0	60	85486
2026-01-02 06:17:54.84	336.88	0.01	-51.7	-54.1	3.6	0.00e+00	0	38	104	0	60	85804
2026-01-02 06:17:55.86	336.76	-0.04	-51.6	-54.1	3.6	0.00e+00	0	38	104	0	60	85246
2026-01-02 06:17:56.87	336.65	-0.08	-51.6	-54.1	3.6	0.00e+00	0	38	104	0	60	85458

#Closed at: 2026-01-02 06:17:57
#Recorded file [0 MB]: D:/lorett/data/35034_260102_090929.dat