passes_logs/2026/01/02/R4.6S_Anadyr_2ch/R4.6S_Anadyr_2ch__20260102_091406_2025-108B_rec.log

#Pass ID: 20260102_091406_2025-108B
#Satellite: 2025-108B
#Configuration: 3PB_600M
#almurnet v.1.7.20251203
#Start time: 2026-01-02 09:14:08

#Version: 2.2.20231116
#Station: R4.6S_Anadyr_2ch
#Location: 177.4865 lon 64.73178 lat
#TLE: 1 64088U 25108B   25351.01672131  .00008460  00000+0  43413-3 0  9994
#TLE: 2 64088  97.4940  63.8579 0011684 285.1423  74.8517 15.16717580 31720

#Time	Az	El	Level	Level2	SNR	BER	BlckErr	Temp	State	Recorded	gain1	gain2
2026-01-02 09:14:08.06	151.19	0.11	-51.8	-53.2	3.3	0.00e+00	0	34	0	0	60	77194
2026-01-02 09:14:09.07	151.18	0.18	-51.8	-54.3	3.6	0.00e+00	0	35	104	0	60	87715
2026-01-02 09:14:10.08	151.17	0.24	-51.8	-54.3	3.6	0.00e+00	0	35	104	0	60	87529
2026-01-02 09:14:11.10	151.16	0.31	-51.8	-54.2	3.6	0.00e+00	0	35	104	0	60	87171
2026-01-02 09:14:12.10	151.15	0.37	-51.8	-54.2	3.6	0.00e+00	0	35	104	0	60	86899
2026-01-02 09:14:13.11	151.14	0.44	-51.8	-54.3	3.6	0.00e+00	0	35	104	0	60	87657
2026-01-02 09:14:14.12	151.13	0.51	-51.8	-54.3	3.6	0.00e+00	0	35	104	0	60	87349
2026-01-02 09:14:15.13	151.12	0.57	-51.8	-54.3	3.6	0.00e+00	0	35	104	0	60	87566
2026-01-02 09:14:16.14	151.11	0.64	-51.8	-54.2	3.6	0.00e+00	0	36	104	0	60	86754
2026-01-02 09:14:17.15	151.10	0.70	-51.8	-54.3	3.6	0.00e+00	0	36	104	0	60	87323
2026-01-02 09:14:18.16	151.09	0.77	-51.8	-54.3	3.6	0.00e+00	0	36	104	0	60	87652
2026-01-02 09:14:19.17	151.08	0.84	-51.8	-54.3	3.6	0.00e+00	0	36	104	0	60	87250
2026-01-02 09:14:20.18	151.07	0.90	-51.8	-54.3	3.6	0.00e+00	0	36	104	0	60	87602
2026-01-02 09:14:21.19	151.05	0.97	-51.8	-54.3	3.6	0.00e+00	0	36	104	0	60	87651
2026-01-02 09:14:22.20	151.04	1.04	-51.8	-54.3	3.6	0.00e+00	0	36	104	0	60	87441
2026-01-02 09:14:23.21	151.03	1.11	-51.8	-54.3	3.6	0.00e+00	0	36	104	0	60	87210
2026-01-02 09:14:24.22	151.02	1.17	-51.8	-54.3	3.6	0.00e+00	0	36	104	0	60	87465
2026-01-02 09:14:25.23	151.01	1.24	-51.8	-54.3	3.6	0.00e+00	0	36	104	0	60	87228
2026-01-02 09:14:26.24	151.00	1.31	-51.8	-54.3	3.6	0.00e+00	0	36	104	0	60	87492
2026-01-02 09:14:27.25	150.98	1.38	-51.8	-54.3	3.6	0.00e+00	0	36	104	0	60	87378
2026-01-02 09:14:28.26	150.97	1.45	-51.8	-54.3	3.6	0.00e+00	0	36	104	0	60	87597
2026-01-02 09:14:29.27	150.96	1.51	-51.8	-54.3	3.6	0.00e+00	0	36	104	0	60	87707
2026-01-02 09:14:30.28	150.95	1.58	-51.8	-54.2	3.6	0.00e+00	0	36	104	0	60	87160
2026-01-02 09:14:31.30	150.94	1.65	-51.8	-54.3	3.6	0.00e+00	0	36	104	0	60	87754
2026-01-02 09:14:32.31	150.92	1.72	-51.9	-54.3	3.6	0.00e+00	0	36	104	0	60	88042
2026-01-02 09:14:33.32	150.91	1.79	-51.8	-54.2	3.6	0.00e+00	0	36	104	0	60	87073
2026-01-02 09:14:34.33	150.90	1.86	-51.8	-54.3	3.6	0.00e+00	0	36	104	0	60	87473
2026-01-02 09:14:35.34	150.89	1.93	-51.8	-54.3	3.6	0.00e+00	0	36	104	0	60	87847
2026-01-02 09:14:36.35	150.87	2.00	-51.9	-54.3	3.6	0.00e+00	0	36	104	0	60	87806
2026-01-02 09:14:37.36	150.86	2.07	-51.8	-54.3	3.6	0.00e+00	0	36	104	0	60	87480
2026-01-02 09:14:38.37	150.85	2.14	-51.8	-54.3	3.6	0.00e+00	0	36	104	0	60	87439
2026-01-02 09:14:39.38	150.84	2.21	-51.8	-54.3	3.6	0.00e+00	0	36	104	0	60	87384
2026-01-02 09:14:40.39	150.82	2.28	-51.8	-54.3	3.6	0.00e+00	0	36	104	0	60	87729
2026-01-02 09:14:41.40	150.81	2.36	-51.8	-54.3	3.6	0.00e+00	0	36	104	0	60	87806
2026-01-02 09:14:42.41	150.80	2.43	-51.8	-54.3	3.6	0.00e+00	0	36	104	0	60	87928
2026-01-02 09:14:43.42	150.78	2.50	-51.8	-54.3	3.6	0.00e+00	0	36	104	0	60	87875
2026-01-02 09:14:44.43	150.77	2.57	-51.8	-54.3	3.6	0.00e+00	0	37	104	0	60	87521
2026-01-02 09:14:45.44	150.76	2.64	-51.8	-54.3	3.6	0.00e+00	0	36	104	0	60	87385
2026-01-02 09:14:46.45	150.74	2.72	-51.9	-54.3	3.6	0.00e+00	0	37	104	0	60	87793
2026-01-02 09:14:47.46	150.73	2.79	-51.8	-54.3	3.6	0.00e+00	0	37	104	0	60	88145
2026-01-02 09:14:48.47	150.72	2.86	-51.9	-54.3	3.6	0.00e+00	0	37	104	0	60	87826
2026-01-02 09:14:49.48	150.70	2.93	-51.9	-54.3	3.6	0.00e+00	0	37	104	0	60	88012
2026-01-02 09:14:50.49	150.69	3.01	-51.9	-54.3	3.6	0.00e+00	0	36	104	0	60	87833
2026-01-02 09:14:51.50	150.67	3.08	-51.9	-54.3	3.6	0.00e+00	0	37	104	0	60	87958
2026-01-02 09:14:52.51	150.66	3.16	-51.9	-54.3	3.6	0.00e+00	0	37	104	0	60	87926
2026-01-02 09:14:53.52	150.64	3.23	-51.9	-54.3	3.6	0.00e+00	0	37	104	0	60	88208
2026-01-02 09:14:54.53	150.63	3.30	-51.9	-54.3	3.6	0.00e+00	0	37	104	0	60	88011
2026-01-02 09:14:55.54	150.62	3.38	-51.9	-54.3	3.6	0.00e+00	0	37	104	0	60	87784
2026-01-02 09:14:56.54	150.60	3.45	-51.9	-54.3	3.6	0.00e+00	0	37	104	0	60	88046
2026-01-02 09:14:57.56	150.59	3.53	-51.9	-54.4	3.6	0.00e+00	0	37	104	0	60	88262
2026-01-02 09:14:58.57	150.57	3.60	-51.9	-54.4	3.6	0.00e+00	0	37	104	0	60	88360
2026-01-02 09:14:59.58	150.56	3.68	-51.9	-54.3	3.5	0.00e+00	0	37	104	0	60	88149
2026-01-02 09:15:00.58	150.54	3.76	-51.9	-54.3	3.6	0.00e+00	0	37	104	0	60	87603
2026-01-02 09:15:01.59	150.53	3.83	-51.9	-54.3	3.6	0.00e+00	0	37	104	0	60	87796
2026-01-02 09:15:02.60	150.51	3.91	-51.9	-54.4	3.6	0.00e+00	0	37	104	0	60	88336
2026-01-02 09:15:03.61	150.49	3.99	-51.9	-54.3	3.6	0.00e+00	0	37	104	0	60	87978
2026-01-02 09:15:04.62	150.48	4.06	-51.8	-54.3	3.6	0.00e+00	0	37	104	0	60	87507
2026-01-02 09:15:05.63	150.46	4.14	-51.9	-54.3	3.6	0.00e+00	0	37	104	0	60	88094
2026-01-02 09:15:06.64	150.45	4.22	-51.9	-54.3	3.6	0.00e+00	0	37	104	0	60	87749
2026-01-02 09:15:07.65	150.43	4.30	-51.9	-54.4	3.6	0.00e+00	0	37	104	0	60	88379
2026-01-02 09:15:08.66	150.42	4.37	-51.9	-54.3	3.6	0.00e+00	0	37	104	0	60	87705
2026-01-02 09:15:09.67	150.40	4.45	-51.9	-54.3	3.6	0.00e+00	0	37	104	0	60	87467
2026-01-02 09:15:10.68	150.38	4.53	-51.9	-54.3	3.6	0.00e+00	0	37	104	0	60	87904
2026-01-02 09:15:11.69	150.37	4.61	-51.9	-54.3	3.6	0.00e+00	0	37	104	0	60	87931
2026-01-02 09:15:12.70	150.35	4.69	-51.9	-54.3	3.6	0.00e+00	0	37	104	0	60	87969
2026-01-02 09:15:13.71	150.33	4.77	-51.9	-54.3	3.6	0.00e+00	0	37	104	0	60	88127
2026-01-02 09:15:14.72	150.32	4.85	-51.8	-54.3	3.6	0.00e+00	0	37	104	0	60	87628
2026-01-02 09:15:15.73	150.30	4.93	-51.8	-54.3	3.6	0.00e+00	0	37	104	0	60	87924
2026-01-02 09:15:16.74	150.28	5.01	-51.9	-54.3	3.6	0.00e+00	0	37	104	0	60	88177
2026-01-02 09:15:17.75	150.26	5.09	-51.9	-54.3	3.6	0.00e+00	0	37	104	0	60	88084
2026-01-02 09:15:18.76	150.25	5.17	-51.9	-54.3	3.6	0.00e+00	0	37	104	0	60	87555
2026-01-02 09:15:19.77	150.23	5.25	-51.9	-54.3	3.6	0.00e+00	0	37	104	0	60	87907
2026-01-02 09:15:20.78	150.21	5.34	-51.9	-54.3	3.6	0.00e+00	0	37	104	0	60	87531
2026-01-02 09:15:21.79	150.19	5.42	-51.9	-54.3	3.6	0.00e+00	0	37	104	0	60	87878
2026-01-02 09:15:22.80	150.18	5.50	-51.9	-54.3	3.6	0.00e+00	0	37	104	0	60	87907
2026-01-02 09:15:23.81	150.16	5.58	-51.9	-54.3	3.5	0.00e+00	0	37	104	0	60	87586
2026-01-02 09:15:24.82	150.14	5.67	-51.9	-54.3	3.6	0.00e+00	0	37	104	0	60	87577
2026-01-02 09:15:25.83	150.12	5.75	-51.9	-54.3	3.6	0.00e+00	0	37	104	0	60	87972
2026-01-02 09:15:26.84	150.10	5.84	-51.9	-54.3	3.6	0.00e+00	0	37	104	0	60	87924
2026-01-02 09:15:27.85	150.08	5.92	-51.9	-54.4	3.6	0.00e+00	0	37	104	0	60	88244
2026-01-02 09:15:28.86	150.06	6.01	-51.9	-54.3	3.6	0.00e+00	0	37	104	0	60	87888
2026-01-02 09:15:29.87	150.05	6.09	-51.9	-54.3	3.6	0.00e+00	0	37	104	0	60	87788
2026-01-02 09:15:30.88	150.03	6.18	-51.9	-54.3	3.6	0.00e+00	0	37	104	0	60	87561
2026-01-02 09:15:31.89	150.01	6.26	-51.9	-54.3	3.6	0.00e+00	0	37	104	0	60	87670
2026-01-02 09:15:32.90	149.99	6.35	-51.9	-54.3	3.6	0.00e+00	0	37	104	0	60	88108
2026-01-02 09:15:33.91	149.97	6.43	-51.9	-54.2	3.6	0.00e+00	0	37	104	0	60	87179
2026-01-02 09:15:34.92	149.95	6.52	-51.9	-54.4	3.6	0.00e+00	0	37	104	0	60	88322
2026-01-02 09:15:35.93	149.93	6.61	-51.9	-54.3	3.6	0.00e+00	0	37	104	0	60	88132
2026-01-02 09:15:36.94	149.91	6.70	-51.9	-54.3	3.6	0.00e+00	0	37	104	0	60	88059
2026-01-02 09:15:37.95	149.89	6.78	-51.9	-54.3	3.6	0.00e+00	0	37	104	0	60	87933
2026-01-02 09:15:38.96	149.87	6.87	-51.8	-54.3	3.6	0.00e+00	0	37	104	0	60	87601
2026-01-02 09:15:39.97	149.84	6.96	-51.8	-54.3	3.6	0.00e+00	0	37	104	0	60	87778
2026-01-02 09:15:40.98	149.82	7.05	-51.8	-54.3	3.6	0.00e+00	0	37	104	0	60	88033
2026-01-02 09:15:41.99	149.80	7.14	-51.9	-54.3	3.6	0.00e+00	0	37	104	0	60	88050
2026-01-02 09:15:43.00	149.78	7.23	-51.9	-54.3	3.6	0.00e+00	0	37	104	0	60	87981
2026-01-02 09:15:44.01	149.76	7.32	-51.9	-54.3	3.6	0.00e+00	0	38	104	0	60	88076
2026-01-02 09:15:45.02	149.74	7.41	-51.9	-54.3	3.6	0.00e+00	0	37	104	0	60	88106
2026-01-02 09:15:46.03	149.72	7.50	-51.9	-54.4	3.6	0.00e+00	0	38	104	0	60	88570
2026-01-02 09:15:47.04	149.69	7.60	-51.9	-54.3	3.6	0.00e+00	0	37	104	0	60	87855
2026-01-02 09:15:48.05	149.67	7.69	-51.9	-54.3	3.6	0.00e+00	0	38	104	0	60	87895
2026-01-02 09:15:49.06	149.65	7.78	-51.9	-54.3	3.6	0.00e+00	0	37	104	0	60	87913
2026-01-02 09:15:50.07	149.63	7.87	-51.8	-54.3	3.6	0.00e+00	0	37	104	0	60	87562
2026-01-02 09:15:51.08	149.60	7.97	-51.9	-54.3	3.6	0.00e+00	0	37	104	0	60	88006
2026-01-02 09:15:52.09	149.58	8.06	-51.9	-54.3	3.6	0.00e+00	0	38	104	0	60	87855
2026-01-02 09:15:53.10	149.56	8.16	-51.9	-54.4	3.6	0.00e+00	0	38	104	0	60	88259
2026-01-02 09:15:54.11	149.53	8.25	-51.8	-54.3	3.6	0.00e+00	0	38	104	0	60	87896
2026-01-02 09:15:55.13	149.51	8.35	-51.9	-54.3	3.6	0.00e+00	0	37	104	0	60	87604
2026-01-02 09:15:56.14	149.48	8.44	-51.9	-54.3	3.6	0.00e+00	0	38	104	0	60	87845
2026-01-02 09:15:57.15	149.46	8.54	-51.9	-54.3	3.5	0.00e+00	0	38	104	0	60	87691
2026-01-02 09:15:58.16	149.44	8.64	-51.9	-54.3	3.6	0.00e+00	0	38	104	0	60	87849
2026-01-02 09:15:59.17	149.41	8.73	-51.9	-54.3	3.6	0.00e+00	0	38	104	0	60	88096
2026-01-02 09:16:00.18	149.39	8.83	-51.9	-54.3	3.6	0.00e+00	0	38	104	0	60	88169
2026-01-02 09:16:01.19	149.36	8.93	-51.9	-54.3	3.6	0.00e+00	0	38	104	0	60	87874
2026-01-02 09:16:02.20	149.34	9.03	-51.9	-54.3	3.6	0.00e+00	0	38	104	0	60	87371
2026-01-02 09:16:03.21	149.31	9.13	-51.9	-54.3	3.6	0.00e+00	0	38	104	0	60	88039
2026-01-02 09:16:04.22	149.28	9.23	-51.9	-54.3	3.6	0.00e+00	0	38	104	0	60	88072
2026-01-02 09:16:05.23	149.26	9.33	-51.8	-54.3	3.5	0.00e+00	0	38	104	0	60	87808
2026-01-02 09:16:06.24	149.23	9.43	-51.9	-54.3	3.6	0.00e+00	0	38	104	0	60	87520
2026-01-02 09:16:07.25	149.21	9.53	-51.9	-54.3	3.6	0.00e+00	0	38	104	0	60	87591
2026-01-02 09:16:08.26	149.18	9.63	-51.8	-54.3	3.6	0.00e+00	0	38	104	0	60	87641
2026-01-02 09:16:09.27	149.15	9.73	-51.9	-54.3	3.5	0.00e+00	0	38	104	0	60	87515
2026-01-02 09:16:10.28	149.12	9.84	-51.9	-54.4	3.6	0.00e+00	0	38	104	0	60	88335
2026-01-02 09:16:11.29	149.10	9.94	-51.9	-54.3	3.6	0.00e+00	0	38	104	0	60	88126
2026-01-02 09:16:12.30	149.07	10.04	-51.9	-54.3	3.6	0.00e+00	0	38	104	0	60	87965
2026-01-02 09:16:13.31	149.04	10.15	-51.9	-54.3	3.6	0.00e+00	0	38	104	0	60	87574
2026-01-02 09:16:14.32	149.01	10.25	-51.9	-54.4	3.6	0.00e+00	0	38	104	0	60	88631
2026-01-02 09:16:15.33	148.98	10.36	-51.9	-54.3	3.6	0.00e+00	0	38	104	0	60	87882
2026-01-02 09:16:16.34	148.95	10.47	-51.9	-54.3	3.6	0.00e+00	0	38	104	0	60	88050
2026-01-02 09:16:17.35	148.92	10.57	-51.9	-54.3	3.6	0.00e+00	0	38	104	0	60	88217
2026-01-02 09:16:18.36	148.90	10.68	-51.9	-54.3	3.6	0.00e+00	0	38	104	0	60	87959
2026-01-02 09:16:19.38	148.87	10.79	-51.9	-54.3	3.6	0.00e+00	0	38	104	0	60	88188
2026-01-02 09:16:20.39	148.84	10.90	-51.9	-54.3	3.6	0.00e+00	0	38	104	0	60	88207
2026-01-02 09:16:21.40	148.80	11.01	-51.9	-54.4	3.6	0.00e+00	0	38	104	0	60	88573
2026-01-02 09:16:22.41	148.77	11.12	-51.9	-54.4	3.6	0.00e+00	0	38	104	0	60	88706
2026-01-02 09:16:23.42	148.74	11.23	-51.9	-54.4	3.6	0.00e+00	0	38	104	0	60	88513
2026-01-02 09:16:24.43	148.71	11.34	-51.9	-54.3	3.6	0.00e+00	0	38	104	0	60	88180
2026-01-02 09:16:25.44	148.68	11.45	-51.9	-54.4	3.6	0.00e+00	0	38	104	0	60	88359
2026-01-02 09:16:26.45	148.65	11.56	-51.9	-54.3	3.6	0.00e+00	0	38	104	0	60	88184
2026-01-02 09:16:27.46	148.62	11.68	-51.9	-54.3	3.6	0.00e+00	0	38	104	0	60	88100
2026-01-02 09:16:28.47	148.58	11.79	-51.9	-54.3	3.6	0.00e+00	0	38	104	0	60	87800
2026-01-02 09:16:29.48	148.55	11.91	-51.9	-54.3	3.6	0.00e+00	0	38	104	0	60	87970
2026-01-02 09:16:30.49	148.52	12.02	-51.9	-54.4	3.6	0.00e+00	0	38	104	0	60	88289
2026-01-02 09:16:31.50	148.48	12.14	-51.9	-54.3	3.6	0.00e+00	0	38	104	0	60	88186
2026-01-02 09:16:32.51	148.45	12.25	-51.9	-54.4	3.6	0.00e+00	0	38	104	0	60	88418
2026-01-02 09:16:33.52	148.41	12.37	-51.9	-54.3	3.6	0.00e+00	0	38	104	0	60	87990
2026-01-02 09:16:34.53	148.38	12.49	-51.9	-54.3	3.6	0.00e+00	0	38	104	0	60	87957
2026-01-02 09:16:35.54	148.34	12.61	-51.9	-54.3	3.6	0.00e+00	0	38	104	0	60	87664
2026-01-02 09:16:36.55	148.31	12.73	-51.9	-54.3	3.5	0.00e+00	0	38	104	0	60	87670
2026-01-02 09:16:37.56	148.27	12.85	-51.9	-54.4	3.6	0.00e+00	0	38	104	0	60	88477
2026-01-02 09:16:38.57	148.24	12.97	-51.9	-54.3	3.6	0.00e+00	0	38	104	0	60	88051
2026-01-02 09:16:39.58	148.20	13.09	-51.9	-54.3	3.6	0.00e+00	0	38	104	0	60	87948
2026-01-02 09:16:40.59	148.16	13.21	-51.9	-54.3	3.6	0.00e+00	0	38	104	0	60	87915
2026-01-02 09:16:41.60	148.13	13.34	-51.9	-54.4	3.6	0.00e+00	0	38	104	0	60	88467
2026-01-02 09:16:42.61	148.09	13.46	-51.9	-54.4	3.6	0.00e+00	0	38	104	0	60	88512
2026-01-02 09:16:43.62	148.05	13.59	-51.9	-54.3	3.6	0.00e+00	0	38	104	0	60	87789
2026-01-02 09:16:44.63	148.01	13.71	-51.9	-54.4	3.6	0.00e+00	0	38	104	0	60	88298
2026-01-02 09:16:45.64	147.97	13.84	-51.9	-54.4	3.6	0.00e+00	0	38	104	0	60	88391
2026-01-02 09:16:46.65	147.93	13.97	-51.9	-54.3	3.6	0.00e+00	0	38	104	0	60	87817
2026-01-02 09:16:47.66	147.89	14.10	-51.9	-54.3	3.6	0.00e+00	0	38	104	0	60	88079
2026-01-02 09:16:48.67	147.85	14.23	-51.9	-54.3	3.6	0.00e+00	0	38	104	0	60	88155
2026-01-02 09:16:49.68	147.81	14.36	-51.9	-54.3	3.6	0.00e+00	0	38	104	0	60	88086
2026-01-02 09:16:50.69	147.77	14.49	-51.9	-54.4	3.6	0.00e+00	0	38	104	0	60	88291
2026-01-02 09:16:51.70	147.73	14.62	-51.9	-54.4	3.5	0.00e+00	0	38	104	0	60	88390
2026-01-02 09:16:52.72	147.69	14.75	-51.9	-54.4	3.6	0.00e+00	0	38	104	0	60	88531
2026-01-02 09:16:53.72	147.64	14.88	-51.9	-54.4	3.6	0.00e+00	0	38	104	0	60	88536
2026-01-02 09:16:54.74	147.60	15.02	-51.9	-54.3	3.6	0.00e+00	0	38	104	0	60	87909
2026-01-02 09:16:55.75	147.56	15.16	-51.9	-54.3	3.6	0.00e+00	0	38	104	0	60	87658
2026-01-02 09:16:56.75	147.51	15.29	-51.9	-54.3	3.6	0.00e+00	0	38	104	0	60	87910
2026-01-02 09:16:57.77	147.47	15.43	-51.9	-54.3	3.6	0.00e+00	0	38	104	0	60	87968
2026-01-02 09:16:58.78	147.42	15.57	-51.9	-54.3	3.6	0.00e+00	0	38	104	0	60	87536
2026-01-02 09:16:59.78	147.38	15.71	-51.9	-54.3	3.6	0.00e+00	0	38	104	0	60	87785
2026-01-02 09:17:00.79	147.33	15.85	-51.9	-54.3	3.6	0.00e+00	0	38	104	0	60	87757
2026-01-02 09:17:01.80	147.28	15.99	-51.9	-54.3	3.6	0.00e+00	0	38	104	0	60	87524
2026-01-02 09:17:02.81	147.24	16.13	-51.9	-54.3	3.6	0.00e+00	0	38	104	0	60	87848
2026-01-02 09:17:03.82	147.19	16.28	-51.9	-54.3	3.6	0.00e+00	0	38	104	0	60	88041
2026-01-02 09:17:04.83	147.14	16.42	-51.9	-54.3	3.6	0.00e+00	0	38	104	0	60	87807
2026-01-02 09:17:05.84	147.09	16.57	-51.9	-54.3	3.6	0.00e+00	0	38	104	0	60	87975
2026-01-02 09:17:06.85	147.04	16.71	-51.9	-54.3	3.6	0.00e+00	0	38	104	0	60	88025
2026-01-02 09:17:07.86	146.99	16.86	-51.9	-54.3	3.6	0.00e+00	0	38	104	0	60	87846
2026-01-02 09:17:08.87	146.94	17.01	-51.9	-54.3	3.6	0.00e+00	0	38	104	0	60	87763
2026-01-02 09:17:09.88	146.89	17.16	-51.9	-54.4	3.6	0.00e+00	0	38	104	0	60	88460
2026-01-02 09:17:10.89	146.84	17.31	-51.9	-54.3	3.6	0.00e+00	0	38	104	0	60	87640
2026-01-02 09:17:11.90	146.79	17.46	-51.9	-54.4	3.6	0.00e+00	0	38	104	0	60	88669
2026-01-02 09:17:12.91	146.73	17.62	-51.9	-54.4	3.6	0.00e+00	0	38	104	0	60	88268
2026-01-02 09:17:13.92	146.68	17.77	-51.9	-54.3	3.6	0.00e+00	0	38	104	0	60	88053
2026-01-02 09:17:14.93	146.62	17.93	-51.9	-54.3	3.6	0.00e+00	0	38	104	0	60	88087
2026-01-02 09:17:15.95	146.57	18.09	-51.9	-54.4	3.6	0.00e+00	0	38	104	0	60	88437
2026-01-02 09:17:16.96	146.51	18.24	-51.9	-54.3	3.6	0.00e+00	0	38	104	0	60	87786
2026-01-02 09:17:17.97	146.45	18.40	-51.9	-54.3	3.6	0.00e+00	0	38	104	0	60	88125
2026-01-02 09:17:18.98	146.40	18.56	-51.9	-54.4	3.6	0.00e+00	0	38	104	0	60	88749
2026-01-02 09:17:19.99	146.34	18.73	-51.9	-54.4	3.6	0.00e+00	0	38	104	0	60	88332
2026-01-02 09:17:21.00	146.28	18.89	-51.9	-54.4	3.6	0.00e+00	0	38	104	0	60	88439
2026-01-02 09:17:22.01	146.22	19.06	-51.9	-54.4	3.6	0.00e+00	0	38	104	0	60	88715
2026-01-02 09:17:23.02	146.16	19.22	-51.9	-54.3	3.6	0.00e+00	0	38	104	0	60	88137
2026-01-02 09:17:24.03	146.10	19.39	-51.9	-54.3	3.6	0.00e+00	0	38	104	0	60	87846
2026-01-02 09:17:25.04	146.04	19.56	-51.9	-54.4	3.6	0.00e+00	0	38	104	0	60	88279
2026-01-02 09:17:26.05	145.97	19.73	-51.9	-54.4	3.6	0.00e+00	0	38	104	0	60	88329
2026-01-02 09:17:27.06	145.91	19.90	-51.9	-54.3	3.6	0.00e+00	0	38	104	0	60	88013
2026-01-02 09:17:28.07	145.84	20.07	-51.9	-54.3	3.6	0.00e+00	0	38	104	0	60	88216
2026-01-02 09:17:29.08	145.78	20.25	-51.9	-54.3	3.6	0.00e+00	0	38	104	0	60	88056
2026-01-02 09:17:30.09	145.71	20.42	-51.9	-54.3	3.6	0.00e+00	0	38	104	0	60	88034
2026-01-02 09:17:31.10	145.64	20.60	-51.9	-54.3	3.6	0.00e+00	0	38	104	0	60	87585
2026-01-02 09:17:32.11	145.58	20.78	-51.9	-54.4	3.6	0.00e+00	0	38	104	0	60	88303
2026-01-02 09:17:33.12	145.51	20.96	-51.9	-54.4	3.6	0.00e+00	0	38	104	0	60	88481
2026-01-02 09:17:34.14	145.44	21.15	-51.9	-54.3	3.6	0.00e+00	0	38	104	0	60	87997
2026-01-02 09:17:35.15	145.36	21.33	-51.9	-54.4	3.6	0.00e+00	0	38	104	0	60	88647
2026-01-02 09:17:36.16	145.29	21.51	-51.9	-54.3	3.6	0.00e+00	0	38	104	0	60	88109
2026-01-02 09:17:37.17	145.22	21.70	-51.9	-54.3	3.6	0.00e+00	0	38	104	0	60	88119
2026-01-02 09:17:38.18	145.14	21.89	-51.9	-54.3	3.6	0.00e+00	0	38	104	0	60	87999
2026-01-02 09:17:39.19	145.07	22.08	-51.9	-54.3	3.6	0.00e+00	0	38	104	0	60	87847
2026-01-02 09:17:40.20	144.99	22.27	-51.9	-54.4	3.6	0.00e+00	0	38	104	0	60	88267
2026-01-02 09:17:41.21	144.91	22.47	-51.9	-54.4	3.6	0.00e+00	0	38	104	0	60	88288
2026-01-02 09:17:42.22	144.84	22.66	-51.9	-54.3	3.6	0.00e+00	0	39	104	0	60	88089
2026-01-02 09:17:43.23	144.76	22.86	-51.9	-54.3	3.6	0.00e+00	0	38	104	0	60	88079
2026-01-02 09:17:44.24	144.67	23.06	-51.9	-54.3	3.6	0.00e+00	0	38	104	0	60	88147
2026-01-02 09:17:45.25	144.59	23.26	-51.9	-54.4	3.6	0.00e+00	0	38	104	0	60	88504
2026-01-02 09:17:46.26	144.51	23.46	-51.9	-54.3	3.6	0.00e+00	0	38	104	0	60	88140
2026-01-02 09:17:47.27	144.42	23.67	-51.9	-54.3	3.6	0.00e+00	0	38	104	0	60	88175
2026-01-02 09:17:48.28	144.34	23.87	-51.9	-54.4	3.6	0.00e+00	0	38	104	0	60	88762
2026-01-02 09:17:49.29	144.25	24.08	-51.9	-54.4	3.6	0.00e+00	0	39	104	0	60	88450
2026-01-02 09:17:50.30	144.16	24.29	-51.9	-54.4	3.6	0.00e+00	0	38	104	0	60	88551
2026-01-02 09:17:51.31	144.07	24.51	-51.9	-54.4	3.6	0.00e+00	0	38	104	0	60	88579
2026-01-02 09:17:52.32	143.98	24.72	-51.9	-54.4	3.6	0.00e+00	0	39	104	0	60	88819
2026-01-02 09:17:53.33	143.89	24.94	-51.9	-54.3	3.6	0.00e+00	0	39	104	0	60	88081
2026-01-02 09:17:54.34	143.79	25.16	-52.0	-54.4	3.6	0.00e+00	0	38	104	0	60	89102
2026-01-02 09:17:55.35	143.70	25.38	-51.9	-54.4	3.6	0.00e+00	0	39	104	0	60	88334
2026-01-02 09:17:56.36	143.60	25.60	-51.9	-54.3	3.6	0.00e+00	0	39	104	0	60	88205
2026-01-02 09:17:57.37	143.50	25.82	-51.9	-54.3	3.6	0.00e+00	0	39	104	0	60	88156
2026-01-02 09:17:58.38	143.40	26.05	-51.9	-54.4	3.6	0.00e+00	0	39	104	0	60	88264
2026-01-02 09:17:59.39	143.30	26.28	-51.9	-54.4	3.6	0.00e+00	0	38	104	0	60	88289
2026-01-02 09:18:00.40	143.19	26.51	-51.9	-54.4	3.6	0.00e+00	0	38	104	0	60	88863
2026-01-02 09:18:01.41	143.09	26.75	-51.9	-54.4	3.6	0.00e+00	0	39	104	0	60	88651
2026-01-02 09:18:02.42	142.98	26.98	-51.9	-54.4	3.6	0.00e+00	0	39	104	0	60	88412
2026-01-02 09:18:03.43	142.87	27.22	-51.9	-54.4	3.6	0.00e+00	0	39	104	0	60	88509
2026-01-02 09:18:04.45	142.76	27.46	-51.9	-54.3	3.6	0.00e+00	0	38	104	0	60	87890
2026-01-02 09:18:05.46	142.65	27.71	-51.9	-54.3	3.6	0.00e+00	0	38	104	0	60	88129
2026-01-02 09:18:06.47	142.53	27.95	-51.9	-54.3	3.6	0.00e+00	0	38	104	0	60	87986
2026-01-02 09:18:07.48	142.41	28.20	-51.9	-54.3	3.6	0.00e+00	0	39	104	0	60	88184
2026-01-02 09:18:08.49	142.30	28.45	-51.9	-54.3	3.6	0.00e+00	0	38	104	0	60	88088
2026-01-02 09:18:09.50	142.17	28.71	-51.9	-54.3	3.6	0.00e+00	0	38	104	0	60	88002
2026-01-02 09:18:10.51	142.05	28.96	-51.9	-54.3	3.6	0.00e+00	0	38	104	0	60	87708
2026-01-02 09:18:11.52	141.93	29.22	-51.9	-54.3	3.6	0.00e+00	0	38	104	0	60	87961
2026-01-02 09:18:12.53	141.80	29.48	-51.9	-54.3	3.6	0.00e+00	0	39	104	0	60	88206
2026-01-02 09:18:13.54	141.67	29.75	-51.9	-54.3	3.5	0.00e+00	0	39	104	0	60	87947
2026-01-02 09:18:14.56	141.53	30.02	-51.9	-54.3	3.6	0.00e+00	0	39	104	0	60	88019
2026-01-02 09:18:15.57	141.40	30.29	-51.9	-54.3	3.6	0.00e+00	0	38	104	0	60	87799
2026-01-02 09:18:16.58	141.26	30.56	-51.9	-54.3	3.6	0.00e+00	0	38	104	0	60	87906
2026-01-02 09:18:17.59	141.12	30.83	-51.9	-54.4	3.6	0.00e+00	0	38	104	0	60	88511
2026-01-02 09:18:18.60	140.98	31.11	-51.9	-54.4	3.6	0.00e+00	0	38	104	0	60	88283
2026-01-02 09:18:19.61	140.83	31.39	-51.9	-54.3	3.6	0.00e+00	0	38	104	0	60	87846
2026-01-02 09:18:20.62	140.68	31.68	-51.9	-54.4	3.6	0.00e+00	0	38	104	0	60	88357
2026-01-02 09:18:21.63	140.53	31.96	-51.9	-54.4	3.6	0.00e+00	0	39	104	0	60	88416
2026-01-02 09:18:22.64	140.38	32.26	-51.9	-54.3	3.6	0.00e+00	0	38	104	0	60	88219
2026-01-02 09:18:23.65	140.22	32.55	-51.9	-54.3	3.6	0.00e+00	0	39	104	0	60	88092
2026-01-02 09:18:24.66	140.06	32.84	-51.9	-54.4	3.6	0.00e+00	0	39	104	0	60	88641
2026-01-02 09:18:25.67	139.90	33.14	-51.9	-54.3	3.6	0.00e+00	0	38	104	0	60	87850
2026-01-02 09:18:26.68	139.73	33.45	-51.9	-54.3	3.6	0.00e+00	0	39	104	0	60	87967
2026-01-02 09:18:27.70	139.56	33.76	-51.9	-54.4	3.6	0.00e+00	0	38	104	0	60	88337
2026-01-02 09:18:28.71	139.39	34.06	-51.9	-54.3	3.6	0.00e+00	0	39	104	0	60	88070
2026-01-02 09:18:29.72	139.21	34.38	-51.9	-54.3	3.6	0.00e+00	0	39	104	0	60	88038
2026-01-02 09:18:30.73	139.03	34.69	-51.9	-54.4	3.6	0.00e+00	0	39	104	0	60	88259
2026-01-02 09:18:31.74	138.84	35.01	-51.9	-54.3	3.6	0.00e+00	0	39	104	0	60	88092
2026-01-02 09:18:32.75	138.65	35.33	-51.9	-54.3	3.6	0.00e+00	0	39	104	0	60	88050
2026-01-02 09:18:33.76	138.46	35.66	-51.9	-54.3	3.6	0.00e+00	0	39	104	0	60	88065
2026-01-02 09:18:34.77	138.26	35.99	-51.9	-54.3	3.6	0.00e+00	0	39	104	0	60	87986
2026-01-02 09:18:35.78	138.06	36.32	-51.9	-54.3	3.6	0.00e+00	0	39	104	0	60	88192
2026-01-02 09:18:36.80	137.86	36.66	-51.9	-54.4	3.6	0.00e+00	0	38	104	0	60	88509
2026-01-02 09:18:37.81	137.64	37.00	-51.9	-54.4	3.6	0.00e+00	0	39	104	0	60	88243
2026-01-02 09:18:38.82	137.43	37.35	-51.9	-54.3	3.6	0.00e+00	0	39	104	0	60	87690
2026-01-02 09:18:39.83	137.21	37.69	-51.9	-54.3	3.6	0.00e+00	0	39	104	0	60	88181
2026-01-02 09:18:40.84	136.98	38.04	-51.9	-54.4	3.6	0.00e+00	0	39	104	0	60	88806
2026-01-02 09:18:41.85	136.75	38.40	-51.9	-54.3	3.6	0.00e+00	0	39	104	0	60	88194
2026-01-02 09:18:42.86	136.52	38.76	-52.0	-54.4	3.6	0.00e+00	0	39	104	0	60	88813
2026-01-02 09:18:43.87	136.28	39.12	-51.9	-54.4	3.6	0.00e+00	0	39	104	0	60	89104
2026-01-02 09:18:44.88	136.03	39.48	-51.9	-54.3	3.6	0.00e+00	0	39	104	0	60	88179
2026-01-02 09:18:45.89	135.78	39.85	-51.9	-54.4	3.6	0.00e+00	0	39	104	0	60	88242
2026-01-02 09:18:46.91	135.51	40.23	-51.9	-54.4	3.6	0.00e+00	0	39	104	0	60	88392
2026-01-02 09:18:47.92	135.25	40.61	-51.9	-54.4	3.6	0.00e+00	0	39	104	0	60	88755
2026-01-02 09:18:48.93	134.97	40.99	-51.9	-54.3	3.6	0.00e+00	0	39	104	0	60	87693
2026-01-02 09:18:49.94	134.70	41.37	-51.9	-54.4	3.6	0.00e+00	0	39	104	0	60	88722
2026-01-02 09:18:50.95	134.41	41.76	-51.9	-54.4	3.6	0.00e+00	0	39	104	0	60	88416
2026-01-02 09:18:51.96	134.11	42.16	-51.9	-54.4	3.6	0.00e+00	0	39	104	0	60	88246
2026-01-02 09:18:52.97	133.81	42.55	-51.9	-54.4	3.6	0.00e+00	0	39	104	0	60	88527
2026-01-02 09:18:53.98	133.50	42.95	-51.9	-54.3	3.6	0.00e+00	0	39	104	0	60	88138
2026-01-02 09:18:54.99	133.19	43.36	-51.9	-54.3	3.6	0.00e+00	0	39	104	0	60	88025
2026-01-02 09:18:56.00	132.86	43.76	-51.9	-54.3	3.6	0.00e+00	0	39	104	0	60	87915
2026-01-02 09:18:57.01	132.52	44.18	-51.9	-54.4	3.6	0.00e+00	0	39	104	0	60	88278
2026-01-02 09:18:58.03	132.18	44.60	-51.9	-54.4	3.6	0.00e+00	0	39	104	0	60	88243
2026-01-02 09:18:59.04	131.82	45.02	-51.9	-54.3	3.6	0.00e+00	0	39	104	0	60	87824
2026-01-02 09:19:00.05	131.46	45.44	-51.9	-54.4	3.6	0.00e+00	0	39	104	0	60	88751
2026-01-02 09:19:01.06	131.08	45.87	-51.9	-54.4	3.6	0.00e+00	0	39	104	0	60	88422
2026-01-02 09:19:02.07	130.70	46.30	-51.9	-54.3	3.6	0.00e+00	0	39	104	0	60	87857
2026-01-02 09:19:03.08	130.30	46.73	-51.9	-54.4	3.6	0.00e+00	0	39	104	0	60	88278
2026-01-02 09:19:04.09	129.90	47.17	-51.9	-54.3	3.6	0.00e+00	0	39	104	0	60	88011
2026-01-02 09:19:05.10	129.48	47.61	-51.9	-54.3	3.6	0.00e+00	0	39	104	0	60	87511
2026-01-02 09:19:06.11	129.04	48.05	-51.9	-54.4	3.6	0.00e+00	0	39	104	0	60	88319
2026-01-02 09:19:07.12	128.60	48.50	-51.9	-54.3	3.6	0.00e+00	0	39	104	0	60	87771
2026-01-02 09:19:08.13	128.14	48.95	-51.8	-54.4	3.6	0.00e+00	0	39	104	0	60	88221
2026-01-02 09:19:09.14	127.67	49.40	-51.8	-54.3	3.6	0.00e+00	0	39	104	0	60	87709
2026-01-02 09:19:10.15	127.18	49.86	-51.9	-54.3	3.6	0.00e+00	0	39	104	0	60	87701
2026-01-02 09:19:11.16	126.68	50.32	-51.9	-54.3	3.6	0.00e+00	0	39	104	0	60	87756
2026-01-02 09:19:12.17	126.16	50.78	-51.9	-54.3	3.6	0.00e+00	0	39	104	0	60	87686
2026-01-02 09:19:13.18	125.62	51.25	-51.9	-54.3	3.6	0.00e+00	0	39	104	0	60	87831
2026-01-02 09:19:14.19	125.07	51.71	-51.9	-54.3	3.6	0.00e+00	0	39	104	0	60	87588
2026-01-02 09:19:15.20	124.50	52.18	-51.9	-54.3	3.6	0.00e+00	0	39	104	0	60	88025
2026-01-02 09:19:16.21	123.91	52.65	-51.9	-54.3	3.6	0.00e+00	0	39	104	0	60	87921
2026-01-02 09:19:17.22	123.30	53.13	-51.9	-54.4	3.6	0.00e+00	0	39	104	0	60	88339
2026-01-02 09:19:18.23	122.67	53.60	-51.9	-54.4	3.6	0.00e+00	0	39	104	0	60	88531
2026-01-02 09:19:19.25	122.01	54.08	-51.9	-54.3	3.6	0.00e+00	0	39	104	0	60	87930
2026-01-02 09:19:20.26	121.34	54.56	-51.9	-54.4	3.6	0.00e+00	0	39	104	0	60	88228
2026-01-02 09:19:21.27	120.64	55.04	-51.9	-54.4	3.6	0.00e+00	0	39	104	0	60	88289
2026-01-02 09:19:22.28	119.92	55.51	-51.9	-54.4	3.6	0.00e+00	0	39	104	0	60	88234
2026-01-02 09:19:23.29	119.17	55.99	-51.9	-54.3	3.6	0.00e+00	0	39	104	0	60	87888
2026-01-02 09:19:24.30	118.39	56.47	-51.9	-54.3	3.6	0.00e+00	0	39	104	0	60	88215
2026-01-02 09:19:25.31	117.59	56.95	-51.9	-54.4	3.6	0.00e+00	0	39	104	0	60	88688
2026-01-02 09:19:26.32	116.76	57.42	-51.9	-54.4	3.6	0.00e+00	0	39	104	0	60	88339
2026-01-02 09:19:27.33	115.90	57.90	-51.9	-54.3	3.6	0.00e+00	0	39	104	0	60	88190
2026-01-02 09:19:28.34	115.01	58.37	-51.9	-54.3	3.6	0.00e+00	0	39	104	0	60	88018
2026-01-02 09:19:29.36	114.07	58.84	-51.9	-54.3	3.6	0.00e+00	0	39	104	0	60	88149
2026-01-02 09:19:30.37	113.11	59.31	-51.9	-54.4	3.6	0.00e+00	0	39	104	0	60	88609
2026-01-02 09:19:31.38	112.12	59.77	-51.9	-54.3	3.6	0.00e+00	0	39	104	0	60	88000
2026-01-02 09:19:32.39	111.09	60.23	-51.9	-54.3	3.6	0.00e+00	0	39	104	0	60	87907
2026-01-02 09:19:33.40	110.02	60.68	-51.9	-54.3	3.6	0.00e+00	0	39	104	0	60	87670
2026-01-02 09:19:34.41	108.91	61.13	-51.9	-54.4	3.6	0.00e+00	0	39	104	0	60	88342
2026-01-02 09:19:35.42	107.76	61.57	-51.9	-54.3	3.6	0.00e+00	0	39	104	0	60	88028
2026-01-02 09:19:36.43	106.57	62.00	-51.9	-54.3	3.6	0.00e+00	0	39	104	0	60	87951
2026-01-02 09:19:37.44	105.34	62.43	-51.9	-54.3	3.6	0.00e+00	0	39	104	0	60	87485
2026-01-02 09:19:38.46	104.05	62.85	-51.9	-54.3	3.6	0.00e+00	0	39	104	0	60	87338
2026-01-02 09:19:39.47	102.73	63.26	-51.9	-54.3	3.6	0.00e+00	0	39	104	0	60	88038
2026-01-02 09:19:40.48	101.36	63.65	-51.9	-54.3	3.6	0.00e+00	0	39	104	0	60	87959
2026-01-02 09:19:41.49	99.94	64.04	-51.9	-54.3	3.6	0.00e+00	0	39	104	0	60	87996
2026-01-02 09:19:42.50	98.48	64.41	-51.9	-54.4	3.6	0.00e+00	0	39	104	0	60	88268
2026-01-02 09:19:43.51	96.97	64.77	-51.9	-54.3	3.6	0.00e+00	0	39	104	0	60	88074
2026-01-02 09:19:44.52	95.41	65.11	-51.9	-54.4	3.6	0.00e+00	0	39	104	0	60	88427
2026-01-02 09:19:45.54	93.78	65.45	-51.9	-54.3	3.6	0.00e+00	0	39	104	0	60	88035
2026-01-02 09:19:46.55	92.13	65.76	-51.9	-54.4	3.6	0.00e+00	0	39	104	0	60	88593
2026-01-02 09:19:47.56	90.42	66.05	-51.9	-54.4	3.6	0.00e+00	0	39	104	0	60	88375
2026-01-02 09:19:48.57	88.67	66.33	-51.9	-54.4	3.6	0.00e+00	0	39	104	0	60	88324
2026-01-02 09:19:49.58	86.88	66.59	-51.9	-54.3	3.6	0.00e+00	0	39	104	0	60	88017
2026-01-02 09:19:50.59	85.05	66.82	-51.9	-54.3	3.6	0.00e+00	0	39	104	0	60	87989
2026-01-02 09:19:51.60	83.17	67.04	-51.9	-54.3	3.6	0.00e+00	0	39	104	0	60	88144
2026-01-02 09:19:52.61	81.26	67.23	-51.9	-54.4	3.6	0.00e+00	0	39	104	0	60	88768
2026-01-02 09:19:53.62	79.31	67.40	-51.9	-54.4	3.6	0.00e+00	0	39	104	0	60	88523
2026-01-02 09:19:54.63	77.34	67.54	-51.9	-54.4	3.6	0.00e+00	0	39	104	0	60	88551
2026-01-02 09:19:55.64	75.34	67.67	-51.9	-54.3	3.6	0.00e+00	0	39	104	0	60	88002
2026-01-02 09:19:56.65	73.31	67.76	-51.9	-54.4	3.5	0.00e+00	0	39	104	0	60	88443
2026-01-02 09:19:57.66	71.27	67.83	-51.9	-54.3	3.6	0.00e+00	0	39	104	0	60	87981
2026-01-02 09:19:58.67	69.22	67.88	-51.9	-54.4	3.6	0.00e+00	0	39	104	0	60	88763
2026-01-02 09:19:59.68	67.17	67.89	-51.9	-54.4	3.6	0.00e+00	0	39	104	0	60	88868
2026-01-02 09:20:00.70	65.09	67.89	-51.9	-54.4	3.6	0.00e+00	0	39	104	0	60	88311
2026-01-02 09:20:01.70	63.05	67.85	-51.9	-54.4	3.6	0.00e+00	0	39	104	0	60	88360
2026-01-02 09:20:02.72	60.99	67.79	-51.9	-54.4	3.6	0.00e+00	0	39	104	0	60	88373
2026-01-02 09:20:03.73	58.96	67.71	-51.9	-54.4	3.6	0.00e+00	0	39	104	0	60	88391
2026-01-02 09:20:04.74	56.95	67.59	-51.9	-54.4	3.6	0.00e+00	0	39	104	0	60	88327
2026-01-02 09:20:05.75	54.96	67.46	-51.9	-54.3	3.6	0.00e+00	0	39	104	0	60	87784
2026-01-02 09:20:06.76	53.01	67.30	-51.9	-54.3	3.6	0.00e+00	0	39	104	0	60	87835
2026-01-02 09:20:07.77	51.08	67.11	-51.9	-54.3	3.6	0.00e+00	0	39	104	0	60	88195
2026-01-02 09:20:08.78	49.19	66.91	-51.9	-54.3	3.6	0.00e+00	0	39	104	0	60	88057
2026-01-02 09:20:09.79	47.34	66.68	-51.9	-54.3	3.6	0.00e+00	0	39	104	0	60	88165
2026-01-02 09:20:10.80	45.54	66.43	-51.9	-54.4	3.6	0.00e+00	0	39	104	0	60	88260
2026-01-02 09:20:11.81	43.77	66.16	-51.9	-54.3	3.6	0.00e+00	0	39	104	0	60	87903
2026-01-02 09:20:12.82	42.05	65.88	-51.9	-54.4	3.6	0.00e+00	0	39	104	0	60	88335
2026-01-02 09:20:13.83	40.38	65.57	-51.9	-54.4	3.6	0.00e+00	0	39	104	0	60	88602
2026-01-02 09:20:14.84	38.75	65.25	-51.9	-54.4	3.6	0.00e+00	0	39	104	0	60	88339
2026-01-02 09:20:15.86	37.16	64.91	-51.9	-54.3	3.6	0.00e+00	0	39	104	0	60	87795
2026-01-02 09:20:16.87	35.63	64.55	-51.9	-54.3	3.6	0.00e+00	0	39	104	0	60	87980
2026-01-02 09:20:17.88	34.15	64.19	-51.9	-54.4	3.6	0.00e+00	0	39	104	0	60	88436
2026-01-02 09:20:18.89	32.71	63.81	-51.9	-54.4	3.6	0.00e+00	0	39	104	0	60	88387
2026-01-02 09:20:19.90	31.33	63.42	-51.9	-54.4	3.6	0.00e+00	0	39	104	0	60	88420
2026-01-02 09:20:20.91	29.99	63.01	-51.9	-54.4	3.6	0.00e+00	0	39	104	0	60	88270
2026-01-02 09:20:21.92	28.69	62.60	-51.9	-54.4	3.6	0.00e+00	0	39	104	0	60	89081
2026-01-02 09:20:22.93	27.44	62.18	-52.0	-54.4	3.6	0.00e+00	0	39	104	0	60	88971
2026-01-02 09:20:23.94	26.24	61.75	-51.9	-54.3	3.6	0.00e+00	0	39	104	0	60	88218
2026-01-02 09:20:24.96	25.06	61.31	-51.9	-54.3	3.6	0.00e+00	0	39	104	0	60	88102
2026-01-02 09:20:25.97	23.94	60.86	-51.9	-54.4	3.6	0.00e+00	0	39	104	0	60	88356
2026-01-02 09:20:26.98	22.86	60.41	-51.9	-54.4	3.6	0.00e+00	0	39	104	0	60	88405
2026-01-02 09:20:27.99	21.81	59.96	-51.9	-54.4	3.6	0.00e+00	0	39	104	0	60	88257
2026-01-02 09:20:29.00	20.81	59.50	-51.9	-54.3	3.6	0.00e+00	0	39	104	0	60	88172
2026-01-02 09:20:30.01	19.83	59.04	-51.9	-54.3	3.6	0.00e+00	0	39	104	0	60	87668
2026-01-02 09:20:31.02	18.90	58.57	-51.9	-54.4	3.6	0.00e+00	0	39	104	0	60	88557
2026-01-02 09:20:32.03	17.99	58.10	-51.9	-54.4	3.6	0.00e+00	0	39	104	0	60	88264
2026-01-02 09:20:33.04	17.12	57.63	-51.9	-54.3	3.6	0.00e+00	0	39	104	0	60	87741
2026-01-02 09:20:34.06	16.27	57.15	-51.9	-54.4	3.6	0.00e+00	0	39	104	0	60	88584
2026-01-02 09:20:35.07	15.46	56.67	-51.9	-54.4	3.6	0.00e+00	0	39	104	0	60	88318
2026-01-02 09:20:36.08	14.67	56.20	-51.9	-54.4	3.6	0.00e+00	0	39	104	0	60	88467
2026-01-02 09:20:37.09	13.92	55.72	-51.9	-54.3	3.6	0.00e+00	0	39	104	0	60	87890
2026-01-02 09:20:38.10	13.18	55.24	-51.9	-54.3	3.6	0.00e+00	0	39	104	0	60	87857
2026-01-02 09:20:39.11	12.48	54.77	-51.9	-54.4	3.6	0.00e+00	0	39	104	0	60	88301
2026-01-02 09:20:40.12	11.80	54.29	-51.9	-54.3	3.6	0.00e+00	0	39	104	0	60	88173
2026-01-02 09:20:41.13	11.14	53.82	-51.9	-54.4	3.6	0.00e+00	0	39	104	0	60	88358
2026-01-02 09:20:42.14	10.50	53.34	-51.9	-54.4	3.6	0.00e+00	0	39	104	0	60	88237
2026-01-02 09:20:43.15	9.88	52.87	-52.0	-54.4	3.6	0.00e+00	0	39	104	0	60	88698
2026-01-02 09:20:44.16	9.28	52.40	-51.9	-54.4	3.6	0.00e+00	0	39	104	0	60	88611
2026-01-02 09:20:45.17	8.70	51.93	-51.9	-54.4	3.6	0.00e+00	0	39	104	0	60	88871
2026-01-02 09:20:46.19	8.14	51.46	-51.9	-54.3	3.6	0.00e+00	0	39	104	0	60	88207
2026-01-02 09:20:47.20	7.60	50.99	-51.9	-54.4	3.6	0.00e+00	0	39	104	0	60	88763
2026-01-02 09:20:48.21	7.07	50.53	-51.9	-54.4	3.6	0.00e+00	0	39	104	0	60	88780
2026-01-02 09:20:49.22	6.56	50.07	-51.9	-54.3	3.6	0.00e+00	0	39	104	0	60	88150
2026-01-02 09:20:50.23	6.07	49.62	-51.9	-54.4	3.6	0.00e+00	0	39	104	0	60	88910
2026-01-02 09:20:51.24	5.59	49.16	-51.9	-54.4	3.6	0.00e+00	0	39	104	0	60	88303
2026-01-02 09:20:52.25	5.13	48.71	-51.9	-54.3	3.6	0.00e+00	0	39	104	0	60	87772
2026-01-02 09:20:53.26	4.68	48.26	-51.9	-54.3	3.6	0.00e+00	0	39	104	0	60	88210
2026-01-02 09:20:54.27	4.24	47.82	-51.9	-54.4	3.6	0.00e+00	0	39	104	0	60	88700
2026-01-02 09:20:55.29	3.81	47.37	-51.9	-54.4	3.6	0.00e+00	0	39	104	0	60	88385
2026-01-02 09:20:56.30	3.40	46.94	-51.9	-54.3	3.6	0.00e+00	0	39	104	0	60	88033
2026-01-02 09:20:57.31	3.00	46.50	-51.9	-54.3	3.6	0.00e+00	0	39	104	0	60	87538
2026-01-02 09:20:58.32	2.61	46.07	-51.9	-54.4	3.6	0.00e+00	0	39	104	0	60	88317
2026-01-02 09:20:59.33	2.24	45.64	-51.9	-54.4	3.5	0.00e+00	0	39	104	0	60	88560
2026-01-02 09:21:00.34	1.87	45.22	-51.9	-54.4	3.6	0.00e+00	0	39	104	0	60	88663
2026-01-02 09:21:01.35	1.51	44.80	-51.9	-54.3	3.6	0.00e+00	0	39	104	0	60	88107
2026-01-02 09:21:02.36	1.16	44.39	-51.9	-54.3	3.6	0.00e+00	0	39	104	0	60	88159
2026-01-02 09:21:03.37	0.83	43.97	-51.9	-54.4	3.5	0.00e+00	0	39	104	0	60	88520
2026-01-02 09:21:04.38	0.50	43.56	-51.9	-54.4	3.6	0.00e+00	0	39	104	0	60	88251
2026-01-02 09:21:05.39	0.18	43.16	-51.9	-54.3	3.6	0.00e+00	0	39	104	0	60	88044
2026-01-02 09:21:06.40	359.86	42.76	-51.9	-54.4	3.6	0.00e+00	0	39	104	0	60	88262
2026-01-02 09:21:07.41	359.56	42.36	-51.9	-54.4	3.6	0.00e+00	0	39	104	0	60	88733
2026-01-02 09:21:08.42	359.26	41.97	-51.9	-54.4	3.6	0.00e+00	0	39	104	0	60	88489
2026-01-02 09:21:09.44	358.97	41.58	-51.9	-54.4	3.6	0.00e+00	0	39	104	0	60	88854
2026-01-02 09:21:10.45	358.69	41.19	-51.9	-54.4	3.5	0.00e+00	0	39	104	0	60	88479
2026-01-02 09:21:11.46	358.41	40.81	-51.9	-54.4	3.6	0.00e+00	0	39	104	0	60	88628
2026-01-02 09:21:12.47	358.15	40.43	-51.9	-54.4	3.6	0.00e+00	0	39	104	0	60	88642
2026-01-02 09:21:13.48	357.89	40.06	-51.9	-54.3	3.6	0.00e+00	0	39	104	0	60	88105
2026-01-02 09:21:14.49	357.63	39.69	-51.9	-54.3	3.6	0.00e+00	0	39	104	0	60	88122
2026-01-02 09:21:15.50	357.38	39.32	-51.9	-54.4	3.6	0.00e+00	0	39	104	0	60	88506
2026-01-02 09:21:16.51	357.14	38.96	-51.9	-54.3	3.5	0.00e+00	0	39	104	0	60	88014
2026-01-02 09:21:17.53	356.90	38.60	-51.9	-54.4	3.6	0.00e+00	0	39	104	0	60	88373
2026-01-02 09:21:18.54	356.66	38.24	-51.9	-54.3	3.6	0.00e+00	0	39	104	0	60	87824
2026-01-02 09:21:19.55	356.44	37.89	-51.9	-54.4	3.6	0.00e+00	0	39	104	0	60	88564
2026-01-02 09:21:20.56	356.22	37.54	-51.9	-54.3	3.6	0.00e+00	0	39	104	0	60	87558
2026-01-02 09:21:21.57	356.00	37.20	-51.9	-54.4	3.6	0.00e+00	0	39	104	0	60	88532
2026-01-02 09:21:22.58	355.79	36.86	-51.9	-54.4	3.6	0.00e+00	0	39	104	0	60	88461
2026-01-02 09:21:23.59	355.58	36.52	-51.9	-54.3	3.6	0.00e+00	0	39	104	0	60	87879
2026-01-02 09:21:24.60	355.38	36.19	-51.9	-54.3	3.6	0.00e+00	0	39	104	0	60	87848
2026-01-02 09:21:25.61	355.18	35.86	-51.9	-54.4	3.6	0.00e+00	0	39	104	0	60	88367
2026-01-02 09:21:26.62	354.98	35.53	-51.9	-54.3	3.6	0.00e+00	0	39	104	0	60	88209
2026-01-02 09:21:27.64	354.79	35.20	-51.9	-54.3	3.6	0.00e+00	0	39	104	0	60	88017
2026-01-02 09:21:28.65	354.61	34.89	-51.9	-54.2	3.6	0.00e+00	0	39	104	0	60	86550
2026-01-02 09:21:29.66	354.42	34.57	-51.9	-54.4	3.6	0.00e+00	0	39	104	0	60	88400
2026-01-02 09:21:30.67	354.25	34.26	-52.0	-54.4	3.6	0.00e+00	0	39	104	0	60	89072
2026-01-02 09:21:31.68	354.07	33.95	-52.0	-54.4	3.6	0.00e+00	0	39	104	0	60	88653
2026-01-02 09:21:32.69	353.90	33.64	-51.9	-54.4	3.6	0.00e+00	0	39	104	0	60	88531
2026-01-02 09:21:33.70	353.73	33.34	-51.9	-54.3	3.6	0.00e+00	0	39	104	0	60	88182
2026-01-02 09:21:34.71	353.57	33.04	-51.9	-54.4	3.6	0.00e+00	0	39	104	0	60	88633
2026-01-02 09:21:35.72	353.41	32.74	-51.9	-54.3	3.6	0.00e+00	0	39	104	0	60	88033
2026-01-02 09:21:36.73	353.25	32.45	-51.9	-54.4	3.6	0.00e+00	0	39	104	0	60	88458
2026-01-02 09:21:37.74	353.09	32.16	-51.9	-54.4	3.6	0.00e+00	0	39	104	0	60	88431
2026-01-02 09:21:38.75	352.94	31.87	-51.9	-54.4	3.6	0.00e+00	0	39	104	0	60	88517
2026-01-02 09:21:39.77	352.79	31.58	-51.9	-54.4	3.6	0.00e+00	0	39	104	0	60	88561
2026-01-02 09:21:40.78	352.65	31.30	-51.9	-54.3	3.6	0.00e+00	0	39	104	0	60	88200
2026-01-02 09:21:41.79	352.50	31.02	-51.9	-54.4	3.6	0.00e+00	0	39	104	0	60	88356
2026-01-02 09:21:42.79	352.36	30.75	-51.9	-54.4	3.6	0.00e+00	0	39	104	0	60	88629
2026-01-02 09:21:43.81	352.22	30.47	-51.9	-54.4	3.6	0.00e+00	0	39	104	0	60	88249
2026-01-02 09:21:44.82	352.09	30.20	-51.9	-54.4	3.6	0.00e+00	0	39	104	0	60	89178
2026-01-02 09:21:45.83	351.95	29.93	-51.9	-54.4	3.6	0.00e+00	0	39	104	0	60	88266
2026-01-02 09:21:46.84	351.82	29.67	-51.9	-54.4	3.6	0.00e+00	0	39	104	0	60	88505
2026-01-02 09:21:47.85	351.70	29.41	-51.9	-54.4	3.6	0.00e+00	0	39	104	0	60	88663
2026-01-02 09:21:48.85	351.57	29.15	-51.9	-54.3	3.6	0.00e+00	0	39	104	0	60	88192
2026-01-02 09:21:49.87	351.45	28.89	-51.9	-54.4	3.6	0.00e+00	0	39	104	0	60	88999
2026-01-02 09:21:50.88	351.32	28.64	-51.9	-54.4	3.6	0.00e+00	0	39	104	0	60	88243
2026-01-02 09:21:51.89	351.20	28.39	-52.0	-54.4	3.6	0.00e+00	0	39	104	0	60	88663
2026-01-02 09:21:52.90	351.09	28.14	-51.9	-54.4	3.5	0.00e+00	0	39	104	0	60	88404
2026-01-02 09:21:53.90	350.97	27.89	-51.9	-54.4	3.6	0.00e+00	0	39	104	0	60	88549
2026-01-02 09:21:54.91	350.86	27.65	-51.9	-54.4	3.6	0.00e+00	0	39	104	0	60	88978
2026-01-02 09:21:55.92	350.75	27.41	-51.9	-54.4	3.6	0.00e+00	0	39	104	0	60	88729
2026-01-02 09:21:56.93	350.64	27.17	-52.0	-54.4	3.6	0.00e+00	0	39	104	0	60	89088
2026-01-02 09:21:57.94	350.53	26.93	-51.9	-54.4	3.6	0.00e+00	0	39	104	0	60	88498
2026-01-02 09:21:58.96	350.42	26.70	-51.9	-54.4	3.6	0.00e+00	0	39	104	0	60	88330
2026-01-02 09:21:59.97	350.32	26.46	-52.0	-54.5	3.6	0.00e+00	0	39	104	0	60	89899
2026-01-02 09:22:00.98	350.22	26.23	-52.0	-54.4	3.6	0.00e+00	0	39	104	0	60	88965
2026-01-02 09:22:01.99	350.11	26.01	-51.9	-54.3	3.6	0.00e+00	0	39	104	0	60	87817
2026-01-02 09:22:03.00	350.02	25.78	-51.9	-54.4	3.5	0.00e+00	0	39	104	0	60	88502
2026-01-02 09:22:04.01	349.92	25.56	-51.9	-54.3	3.6	0.00e+00	0	39	104	0	60	88174
2026-01-02 09:22:05.02	349.82	25.34	-51.9	-54.4	3.6	0.00e+00	0	39	104	0	60	88363
2026-01-02 09:22:06.03	349.73	25.12	-51.9	-54.4	3.6	0.00e+00	0	39	104	0	60	88672
2026-01-02 09:22:07.04	349.63	24.90	-51.9	-54.4	3.6	0.00e+00	0	39	104	0	60	88749
2026-01-02 09:22:08.05	349.54	24.69	-52.0	-54.4	3.6	0.00e+00	0	39	104	0	60	88635
2026-01-02 09:22:09.07	349.45	24.47	-51.9	-54.4	3.6	0.00e+00	0	39	104	0	60	88794
2026-01-02 09:22:10.07	349.36	24.26	-51.9	-54.4	3.6	0.00e+00	0	39	104	0	60	88436
2026-01-02 09:22:11.08	349.28	24.05	-51.9	-54.4	3.6	0.00e+00	0	39	104	0	60	88285
2026-01-02 09:22:12.09	349.19	23.85	-52.0	-54.4	3.6	0.00e+00	0	39	104	0	60	89091
2026-01-02 09:22:13.10	349.10	23.64	-51.9	-54.4	3.6	0.00e+00	0	39	104	0	60	88392
2026-01-02 09:22:14.11	349.02	23.44	-51.9	-54.4	3.6	0.00e+00	0	39	104	0	60	88595
2026-01-02 09:22:15.12	348.94	23.24	-51.9	-54.4	3.6	0.00e+00	0	39	104	0	60	88367
2026-01-02 09:22:16.13	348.86	23.04	-51.9	-54.4	3.6	0.00e+00	0	39	104	0	60	88639
2026-01-02 09:22:17.14	348.78	22.84	-52.0	-54.4	3.6	0.00e+00	0	39	104	0	60	88973
2026-01-02 09:22:18.15	348.70	22.64	-52.0	-54.4	3.6	0.00e+00	0	39	104	0	60	88941
2026-01-02 09:22:19.16	348.62	22.45	-51.9	-54.3	3.6	0.00e+00	0	39	104	0	60	88200
2026-01-02 09:22:20.17	348.54	22.26	-52.0	-54.5	3.6	0.00e+00	0	39	104	0	60	89311
2026-01-02 09:22:21.18	348.47	22.07	-51.9	-54.4	3.6	0.00e+00	0	39	104	0	60	88649
2026-01-02 09:22:22.19	348.39	21.88	-52.0	-54.5	3.6	0.00e+00	0	39	104	0	60	89272
2026-01-02 09:22:23.20	348.32	21.69	-51.9	-54.4	3.6	0.00e+00	0	39	104	0	60	88575
2026-01-02 09:22:24.21	348.25	21.50	-51.9	-54.4	3.6	0.00e+00	0	39	104	0	60	88654
2026-01-02 09:22:25.22	348.18	21.32	-51.9	-54.4	3.6	0.00e+00	0	39	104	0	60	88394
2026-01-02 09:22:26.23	348.11	21.14	-52.0	-54.5	3.6	0.00e+00	0	39	104	0	60	89278
2026-01-02 09:22:27.24	348.04	20.96	-52.0	-54.5	3.6	0.00e+00	0	39	104	0	60	89418
2026-01-02 09:22:28.25	347.97	20.78	-52.0	-54.4	3.6	0.00e+00	0	39	104	0	60	88875
2026-01-02 09:22:29.26	347.90	20.60	-52.0	-54.4	3.6	0.00e+00	0	39	104	0	60	88807
2026-01-02 09:22:30.27	347.84	20.42	-52.0	-54.5	3.6	0.00e+00	0	39	104	0	60	89318
2026-01-02 09:22:31.28	347.77	20.25	-52.0	-54.4	3.6	0.00e+00	0	39	104	0	60	89010
2026-01-02 09:22:32.29	347.70	20.07	-51.9	-54.4	3.6	0.00e+00	0	39	104	0	60	88513
2026-01-02 09:22:33.30	347.64	19.90	-52.0	-54.4	3.5	0.00e+00	0	39	104	0	60	88415
2026-01-02 09:22:34.32	347.58	19.73	-52.0	-54.4	3.6	0.00e+00	0	39	104	0	60	88887
2026-01-02 09:22:35.33	347.52	19.56	-51.9	-54.4	3.6	0.00e+00	0	39	104	0	60	88849
2026-01-02 09:22:36.34	347.45	19.39	-52.0	-54.5	3.6	0.00e+00	0	39	104	0	60	89319
2026-01-02 09:22:37.34	347.39	19.23	-52.0	-54.4	3.6	0.00e+00	0	39	104	0	60	88615
2026-01-02 09:22:38.36	347.33	19.06	-51.9	-54.4	3.6	0.00e+00	0	39	104	0	60	88959
2026-01-02 09:22:39.37	347.27	18.90	-51.9	-54.4	3.6	0.00e+00	0	39	104	0	60	88704
2026-01-02 09:22:40.37	347.22	18.74	-52.0	-54.4	3.6	0.00e+00	0	39	104	0	60	88965
2026-01-02 09:22:41.38	347.16	18.58	-51.9	-54.4	3.6	0.00e+00	0	39	104	0	60	88813
2026-01-02 09:22:42.39	347.10	18.42	-51.9	-54.4	3.6	0.00e+00	0	39	104	0	60	88505
2026-01-02 09:22:43.41	347.05	18.26	-51.9	-54.3	3.6	0.00e+00	0	39	104	0	60	87994
2026-01-02 09:22:44.42	346.99	18.10	-51.9	-54.4	3.6	0.00e+00	0	39	104	0	60	88770
2026-01-02 09:22:45.43	346.94	17.94	-51.9	-54.4	3.6	0.00e+00	0	39	104	0	60	88431
2026-01-02 09:22:46.44	346.88	17.79	-51.9	-54.4	3.6	0.00e+00	0	39	104	0	60	88861
2026-01-02 09:22:47.45	346.83	17.63	-51.9	-54.4	3.6	0.00e+00	0	39	104	0	60	88753
2026-01-02 09:22:48.46	346.78	17.48	-51.9	-54.3	3.6	0.00e+00	0	39	104	0	60	88204
2026-01-02 09:22:49.47	346.72	17.33	-51.9	-54.4	3.6	0.00e+00	0	39	104	0	60	88388
2026-01-02 09:22:50.48	346.67	17.18	-51.9	-54.3	3.6	0.00e+00	0	39	104	0	60	87873
2026-01-02 09:22:51.49	346.62	17.03	-51.9	-54.4	3.6	0.00e+00	0	39	104	0	60	88259
2026-01-02 09:22:52.50	346.57	16.88	-51.9	-54.4	3.6	0.00e+00	0	39	104	0	60	88228
2026-01-02 09:22:53.51	346.52	16.74	-51.9	-54.4	3.6	0.00e+00	0	39	104	0	60	88301
2026-01-02 09:22:54.52	346.47	16.59	-51.9	-54.3	3.6	0.00e+00	0	39	104	0	60	87943
2026-01-02 09:22:55.53	346.43	16.45	-51.9	-54.4	3.6	0.00e+00	0	39	104	0	60	88279
2026-01-02 09:22:56.54	346.38	16.30	-51.9	-54.3	3.6	0.00e+00	0	39	104	0	60	87909
2026-01-02 09:22:57.55	346.33	16.16	-51.9	-54.3	3.6	0.00e+00	0	39	104	0	60	88052
2026-01-02 09:22:58.56	346.28	16.02	-51.9	-54.4	3.5	0.00e+00	0	39	104	0	60	88272
2026-01-02 09:22:59.57	346.24	15.88	-51.9	-54.4	3.6	0.00e+00	0	39	104	0	60	88508
2026-01-02 09:23:00.58	346.19	15.74	-51.9	-54.4	3.6	0.00e+00	0	39	104	0	60	88490
2026-01-02 09:23:01.59	346.15	15.60	-51.9	-54.4	3.6	0.00e+00	0	39	104	0	60	88551
2026-01-02 09:23:02.60	346.10	15.46	-51.9	-54.4	3.6	0.00e+00	0	39	104	0	60	88331
2026-01-02 09:23:03.60	346.06	15.33	-51.9	-54.4	3.6	0.00e+00	0	39	104	0	60	88496
2026-01-02 09:23:04.61	346.02	15.19	-51.9	-54.4	3.6	0.00e+00	0	39	104	0	60	88611
2026-01-02 09:23:05.62	345.97	15.05	-51.9	-54.3	3.6	0.00e+00	0	39	104	0	60	87970
2026-01-02 09:23:06.63	345.93	14.92	-51.9	-54.4	3.6	0.00e+00	0	39	104	0	60	88481
2026-01-02 09:23:07.65	345.89	14.79	-51.9	-54.4	3.6	0.00e+00	0	39	104	0	60	88356
2026-01-02 09:23:08.65	345.85	14.66	-51.9	-54.4	3.6	0.00e+00	0	39	104	0	60	88530
2026-01-02 09:23:09.66	345.81	14.52	-51.9	-54.3	3.6	0.00e+00	0	39	104	0	60	88082
2026-01-02 09:23:10.67	345.77	14.39	-51.9	-54.3	3.6	0.00e+00	0	39	104	0	60	88038
2026-01-02 09:23:11.68	345.73	14.26	-51.9	-54.3	3.6	0.00e+00	0	39	104	0	60	88068
2026-01-02 09:23:12.69	345.69	14.14	-51.9	-54.4	3.6	0.00e+00	0	39	104	0	60	88396
2026-01-02 09:23:13.70	345.65	14.01	-51.9	-54.4	3.6	0.00e+00	0	39	104	0	60	88426
2026-01-02 09:23:14.71	345.61	13.88	-51.9	-54.4	3.6	0.00e+00	0	39	104	0	60	88442
2026-01-02 09:23:15.72	345.57	13.76	-51.9	-54.4	3.6	0.00e+00	0	39	104	0	60	88444
2026-01-02 09:23:16.73	345.53	13.63	-51.9	-54.4	3.6	0.00e+00	0	39	104	0	60	88544
2026-01-02 09:23:17.74	345.50	13.51	-51.9	-54.4	3.6	0.00e+00	0	39	104	0	60	88643
2026-01-02 09:23:18.75	345.46	13.38	-51.9	-54.4	3.6	0.00e+00	0	39	104	0	60	88514
2026-01-02 09:23:19.76	345.42	13.26	-51.9	-54.4	3.6	0.00e+00	0	39	104	0	60	88656
2026-01-02 09:23:20.77	345.39	13.14	-51.9	-54.4	3.6	0.00e+00	0	39	104	0	60	88814
2026-01-02 09:23:21.78	345.35	13.02	-51.9	-54.4	3.6	0.00e+00	0	39	104	0	60	88441
2026-01-02 09:23:22.79	345.31	12.90	-51.9	-54.4	3.6	0.00e+00	0	39	104	0	60	88368
2026-01-02 09:23:23.80	345.28	12.78	-51.9	-54.3	3.6	0.00e+00	0	39	104	0	60	88143
2026-01-02 09:23:24.81	345.24	12.66	-51.9	-54.3	3.6	0.00e+00	0	39	104	0	60	88061
2026-01-02 09:23:25.82	345.21	12.54	-51.9	-54.3	3.6	0.00e+00	0	39	104	0	60	88063
2026-01-02 09:23:26.83	345.18	12.42	-51.9	-54.4	3.6	0.00e+00	0	39	104	0	60	88387
2026-01-02 09:23:27.84	345.14	12.30	-51.9	-54.3	3.6	0.00e+00	0	39	104	0	60	88092
2026-01-02 09:23:28.85	345.11	12.19	-51.9	-54.4	3.6	0.00e+00	0	39	104	0	60	88809
2026-01-02 09:23:29.86	345.08	12.07	-51.9	-54.4	3.6	0.00e+00	0	39	104	0	60	88611
2026-01-02 09:23:30.87	345.04	11.96	-51.9	-54.3	3.6	0.00e+00	0	39	104	0	60	88199
2026-01-02 09:23:31.88	345.01	11.84	-51.9	-54.4	3.6	0.00e+00	0	39	104	0	60	88506
2026-01-02 09:23:32.89	344.98	11.73	-51.9	-54.4	3.6	0.00e+00	0	39	104	0	60	88533
2026-01-02 09:23:33.90	344.95	11.62	-51.9	-54.3	3.6	0.00e+00	0	39	104	0	60	87476
2026-01-02 09:23:34.91	344.92	11.51	-51.9	-54.4	3.6	0.00e+00	0	39	104	0	60	88407
2026-01-02 09:23:35.89	344.89	11.40	-51.9	-54.4	3.6	0.00e+00	0	39	104	0	60	88405
2026-01-02 09:23:36.90	344.86	11.29	-51.9	-54.3	3.6	0.00e+00	0	39	104	0	60	88013
2026-01-02 09:23:37.91	344.83	11.18	-51.9	-54.4	3.6	0.00e+00	0	39	104	0	60	88269
2026-01-02 09:23:38.93	344.80	11.07	-51.9	-54.4	3.6	0.00e+00	0	39	104	0	60	88543
2026-01-02 09:23:39.93	344.77	10.96	-51.9	-54.4	3.6	0.00e+00	0	39	104	0	60	88706
2026-01-02 09:23:40.95	344.74	10.85	-51.9	-54.4	3.6	0.00e+00	0	39	104	0	60	88722
2026-01-02 09:23:41.96	344.71	10.74	-51.9	-54.4	3.6	0.00e+00	0	39	104	0	60	88310
2026-01-02 09:23:42.97	344.68	10.63	-51.9	-54.4	3.6	0.00e+00	0	39	104	0	60	88959
2026-01-02 09:23:43.98	344.65	10.53	-51.9	-54.4	3.6	0.00e+00	0	39	104	0	60	88426
2026-01-02 09:23:44.99	344.62	10.42	-51.9	-54.4	3.6	0.00e+00	0	39	104	0	60	88448
2026-01-02 09:23:46.00	344.59	10.32	-51.9	-54.3	3.6	0.00e+00	0	39	104	0	60	88127
2026-01-02 09:23:47.01	344.57	10.21	-52.0	-54.4	3.6	0.00e+00	0	39	104	0	60	88393
2026-01-02 09:23:48.02	344.54	10.11	-51.9	-54.4	3.6	0.00e+00	0	39	104	0	60	88340
2026-01-02 09:23:49.03	344.51	10.00	-52.0	-54.4	3.6	0.00e+00	0	39	104	0	60	88697
2026-01-02 09:23:50.04	344.48	9.90	-51.9	-54.4	3.6	0.00e+00	0	39	104	0	60	88755
2026-01-02 09:23:51.05	344.46	9.80	-51.9	-54.4	3.6	0.00e+00	0	39	104	0	60	88702
2026-01-02 09:23:52.06	344.43	9.70	-52.0	-54.4	3.6	0.00e+00	0	39	104	0	60	88634
2026-01-02 09:23:53.07	344.41	9.59	-51.9	-54.4	3.6	0.00e+00	0	39	104	0	60	88772
2026-01-02 09:23:54.07	344.38	9.49	-51.9	-54.4	3.6	0.00e+00	0	39	104	0	60	88307
2026-01-02 09:23:55.08	344.35	9.39	-51.9	-54.4	3.6	0.00e+00	0	39	104	0	60	88888
2026-01-02 09:23:56.09	344.33	9.29	-51.9	-54.4	3.6	0.00e+00	0	39	104	0	60	88627
2026-01-02 09:23:57.10	344.30	9.19	-51.9	-54.3	3.6	0.00e+00	0	39	104	0	60	88214
2026-01-02 09:23:58.11	344.28	9.10	-51.9	-54.4	3.6	0.00e+00	0	39	104	0	60	88679
2026-01-02 09:23:59.12	344.25	9.00	-51.9	-54.4	3.6	0.00e+00	0	39	104	0	60	88963
2026-01-02 09:24:00.13	344.23	8.90	-51.9	-54.4	3.6	0.00e+00	0	39	104	0	60	88923
2026-01-02 09:24:01.15	344.21	8.80	-52.0	-54.4	3.6	0.00e+00	0	39	104	0	60	88990
2026-01-02 09:24:02.16	344.18	8.70	-52.0	-54.5	3.6	0.00e+00	0	39	104	0	60	89929
2026-01-02 09:24:03.17	344.16	8.61	-52.0	-54.4	3.6	0.00e+00	0	39	104	0	60	89235
2026-01-02 09:24:04.18	344.13	8.51	-52.0	-54.4	3.6	0.00e+00	0	39	104	0	60	88819
2026-01-02 09:24:05.19	344.11	8.42	-51.9	-54.4	3.6	0.00e+00	0	39	104	0	60	88280
2026-01-02 09:24:06.20	344.09	8.32	-51.9	-54.4	3.6	0.00e+00	0	39	104	0	60	88694
2026-01-02 09:24:07.21	344.06	8.23	-51.9	-54.4	3.6	0.00e+00	0	39	104	0	60	88290
2026-01-02 09:24:08.22	344.04	8.13	-51.9	-54.4	3.6	0.00e+00	0	39	104	0	60	88563
2026-01-02 09:24:09.23	344.02	8.04	-52.0	-54.4	3.6	0.00e+00	0	39	104	0	60	88957
2026-01-02 09:24:10.24	344.00	7.95	-51.9	-54.4	3.6	0.00e+00	0	39	104	0	60	88485
2026-01-02 09:24:11.25	343.98	7.85	-52.0	-54.4	3.6	0.00e+00	0	39	104	0	60	89157
2026-01-02 09:24:12.26	343.95	7.76	-52.0	-54.4	3.5	0.00e+00	0	39	104	0	60	89205
2026-01-02 09:24:13.27	343.93	7.67	-52.0	-54.4	3.6	0.00e+00	0	39	104	0	60	88932
2026-01-02 09:24:14.28	343.91	7.58	-52.0	-54.4	3.6	0.00e+00	0	39	104	0	60	88466
2026-01-02 09:24:15.29	343.89	7.49	-52.0	-54.4	3.6	0.00e+00	0	39	104	0	60	88413
2026-01-02 09:24:16.30	343.87	7.40	-52.0	-54.4	3.6	0.00e+00	0	39	104	0	60	88804
2026-01-02 09:24:17.31	343.85	7.31	-52.0	-54.4	3.6	0.00e+00	0	39	104	0	60	88595
2026-01-02 09:24:18.32	343.83	7.22	-52.0	-54.4	3.6	0.00e+00	0	39	104	0	60	89184
2026-01-02 09:24:19.33	343.81	7.13	-52.0	-54.5	3.6	0.00e+00	0	39	104	0	60	89762
2026-01-02 09:24:20.34	343.79	7.04	-51.9	-54.4	3.6	0.00e+00	0	39	104	0	60	88552
2026-01-02 09:24:21.35	343.77	6.95	-51.9	-54.3	3.6	0.00e+00	0	39	104	0	60	88057
2026-01-02 09:24:22.36	343.75	6.86	-52.0	-54.5	3.6	0.00e+00	0	39	104	0	60	89454
2026-01-02 09:24:23.37	343.73	6.77	-51.9	-54.4	3.6	0.00e+00	0	39	104	0	60	88292
2026-01-02 09:24:24.38	343.71	6.69	-51.9	-54.4	3.5	0.00e+00	0	39	104	0	60	88631
2026-01-02 09:24:25.39	343.69	6.60	-51.9	-54.4	3.6	0.00e+00	0	39	104	0	60	88789
2026-01-02 09:24:26.40	343.67	6.51	-52.0	-54.4	3.6	0.00e+00	0	39	104	0	60	88978
2026-01-02 09:24:27.42	343.65	6.43	-51.9	-54.4	3.6	0.00e+00	0	39	104	0	60	88691
2026-01-02 09:24:28.42	343.63	6.34	-52.0	-54.4	3.6	0.00e+00	0	39	104	0	60	88928
2026-01-02 09:24:29.43	343.61	6.25	-51.9	-54.4	3.6	0.00e+00	0	39	104	0	60	88499
2026-01-02 09:24:30.45	343.59	6.17	-51.9	-54.4	3.6	0.00e+00	0	39	104	0	60	88440
2026-01-02 09:24:31.45	343.57	6.08	-51.9	-54.4	3.6	0.00e+00	0	39	104	0	60	88689
2026-01-02 09:24:32.47	343.56	6.00	-52.0	-54.4	3.6	0.00e+00	0	39	104	0	60	88299
2026-01-02 09:24:33.48	343.54	5.92	-52.0	-54.4	3.6	0.00e+00	0	39	104	0	60	89057
2026-01-02 09:24:34.49	343.52	5.83	-52.0	-54.4	3.5	0.00e+00	0	39	104	0	60	88469
2026-01-02 09:24:35.50	343.50	5.75	-52.0	-54.4	3.6	0.00e+00	0	39	104	0	60	88869
2026-01-02 09:24:36.51	343.48	5.67	-52.0	-54.5	3.6	0.00e+00	0	39	104	0	60	89857
2026-01-02 09:24:37.52	343.47	5.58	-52.0	-54.4	3.6	0.00e+00	0	39	104	0	60	88735
2026-01-02 09:24:38.53	343.45	5.50	-52.0	-54.5	3.6	0.00e+00	0	39	104	0	60	89677
2026-01-02 09:24:39.54	343.43	5.42	-52.0	-54.5	3.6	0.00e+00	0	39	104	0	60	89253
2026-01-02 09:24:40.55	343.42	5.34	-51.9	-54.4	3.6	0.00e+00	0	39	104	0	60	88550
2026-01-02 09:24:41.56	343.40	5.25	-52.0	-54.4	3.6	0.00e+00	0	39	104	0	60	88850
2026-01-02 09:24:42.57	343.38	5.17	-52.0	-54.5	3.6	0.00e+00	0	39	104	0	60	89241
2026-01-02 09:24:43.58	343.37	5.09	-52.0	-54.4	3.6	0.00e+00	0	39	104	0	60	88845
2026-01-02 09:24:44.59	343.35	5.01	-51.9	-54.4	3.6	0.00e+00	0	39	104	0	60	88564
2026-01-02 09:24:45.60	343.33	4.93	-51.9	-54.3	3.6	0.00e+00	0	39	104	0	60	88201
2026-01-02 09:24:46.61	343.32	4.85	-51.9	-54.4	3.6	0.00e+00	0	39	104	0	60	88911
2026-01-02 09:24:47.62	343.30	4.77	-51.9	-54.4	3.6	0.00e+00	0	39	104	0	60	88698
2026-01-02 09:24:48.63	343.29	4.69	-52.0	-54.4	3.6	0.00e+00	0	39	104	0	60	88921
2026-01-02 09:24:49.64	343.27	4.61	-52.0	-54.4	3.6	0.00e+00	0	39	104	0	60	89068
2026-01-02 09:24:50.65	343.25	4.54	-51.9	-54.4	3.6	0.00e+00	0	39	104	0	60	88366
2026-01-02 09:24:51.65	343.24	4.46	-51.9	-54.4	3.6	0.00e+00	0	39	104	0	60	88858
2026-01-02 09:24:52.66	343.22	4.38	-52.0	-54.4	3.6	0.00e+00	0	39	104	0	60	88327
2026-01-02 09:24:53.68	343.21	4.30	-52.0	-54.4	3.6	0.00e+00	0	39	104	0	60	88838
2026-01-02 09:24:54.69	343.19	4.22	-51.9	-54.3	3.6	0.00e+00	0	39	104	0	60	88080
2026-01-02 09:24:55.70	343.18	4.15	-51.9	-54.4	3.6	0.00e+00	0	39	104	0	60	88603
2026-01-02 09:24:56.71	343.16	4.07	-52.0	-54.5	3.6	0.00e+00	0	39	104	0	60	89357
2026-01-02 09:24:57.72	343.15	3.99	-52.0	-54.4	3.6	0.00e+00	0	39	104	0	60	88923
2026-01-02 09:24:58.73	343.13	3.92	-52.0	-54.4	3.6	0.00e+00	0	39	104	0	60	88931
2026-01-02 09:24:59.74	343.12	3.84	-51.9	-54.4	3.6	0.00e+00	0	39	104	0	60	88604
2026-01-02 09:25:00.75	343.11	3.77	-52.0	-54.4	3.6	0.00e+00	0	39	104	0	60	89078
2026-01-02 09:25:01.76	343.09	3.69	-51.9	-54.4	3.6	0.00e+00	0	39	104	0	60	88243
2026-01-02 09:25:02.77	343.08	3.62	-52.0	-54.4	3.6	0.00e+00	0	39	104	0	60	88767
2026-01-02 09:25:03.78	343.06	3.54	-52.0	-54.4	3.6	0.00e+00	0	39	104	0	60	88960
2026-01-02 09:25:04.79	343.05	3.47	-51.9	-54.4	3.6	0.00e+00	0	39	104	0	60	88564
2026-01-02 09:25:05.80	343.04	3.39	-51.9	-54.4	3.6	0.00e+00	0	39	104	0	60	88701
2026-01-02 09:25:06.81	343.02	3.32	-51.9	-54.4	3.6	0.00e+00	0	39	104	0	60	88987
2026-01-02 09:25:07.81	343.01	3.24	-51.9	-54.4	3.6	0.00e+00	0	39	104	0	60	88619
2026-01-02 09:25:08.82	342.99	3.17	-51.9	-54.4	3.6	0.00e+00	0	39	104	0	60	88486
2026-01-02 09:25:09.83	342.98	3.10	-51.9	-54.4	3.6	0.00e+00	0	39	104	0	60	88413
2026-01-02 09:25:10.84	342.97	3.02	-51.9	-54.4	3.6	0.00e+00	0	39	104	0	60	88419
2026-01-02 09:25:11.85	342.96	2.95	-51.9	-54.4	3.6	0.00e+00	0	39	104	0	60	88519
2026-01-02 09:25:12.86	342.94	2.88	-51.9	-54.4	3.6	0.00e+00	0	39	104	0	60	88839
2026-01-02 09:25:13.87	342.93	2.81	-51.9	-54.3	3.6	0.00e+00	0	39	104	0	60	87827
2026-01-02 09:25:14.89	342.92	2.73	-51.9	-54.4	3.6	0.00e+00	0	39	104	0	60	88517
2026-01-02 09:25:15.90	342.90	2.66	-51.9	-54.3	3.6	0.00e+00	0	39	104	0	60	87964
2026-01-02 09:25:16.91	342.89	2.59	-51.9	-54.3	3.6	0.00e+00	0	39	104	0	60	88219
2026-01-02 09:25:17.92	342.88	2.52	-51.9	-54.3	3.6	0.00e+00	0	39	104	0	60	87579
2026-01-02 09:25:18.93	342.87	2.45	-51.9	-54.3	3.6	0.00e+00	0	39	104	0	60	88137
2026-01-02 09:25:19.94	342.85	2.37	-51.9	-54.4	3.6	0.00e+00	0	39	104	0	60	88347
2026-01-02 09:25:20.95	342.84	2.30	-51.9	-54.4	3.6	0.00e+00	0	39	104	0	60	88607
2026-01-02 09:25:21.96	342.83	2.23	-51.9	-54.3	3.6	0.00e+00	0	39	104	0	60	88044
2026-01-02 09:25:22.97	342.82	2.16	-51.9	-54.3	3.6	0.00e+00	0	39	104	0	60	87847
2026-01-02 09:25:23.98	342.81	2.09	-51.9	-54.3	3.6	0.00e+00	0	39	104	0	60	87995
2026-01-02 09:25:24.99	342.79	2.02	-51.9	-54.3	3.6	0.00e+00	0	39	104	0	60	88017
2026-01-02 09:25:26.00	342.78	1.95	-51.9	-54.3	3.6	0.00e+00	0	39	104	0	60	88208
2026-01-02 09:25:27.01	342.77	1.88	-51.9	-54.3	3.6	0.00e+00	0	39	104	0	60	88078
2026-01-02 09:25:28.03	342.76	1.81	-51.9	-54.4	3.6	0.00e+00	0	39	104	0	60	88733
2026-01-02 09:25:29.04	342.75	1.74	-51.9	-54.3	3.6	0.00e+00	0	39	104	0	60	88160
2026-01-02 09:25:30.05	342.74	1.68	-51.9	-54.4	3.6	0.00e+00	0	39	104	0	60	88351
2026-01-02 09:25:31.06	342.73	1.61	-51.9	-54.3	3.6	0.00e+00	0	39	104	0	60	88026
2026-01-02 09:25:32.07	342.71	1.54	-51.9	-54.4	3.6	0.00e+00	0	39	104	0	60	88251
2026-01-02 09:25:33.08	342.70	1.47	-51.9	-54.4	3.6	0.00e+00	0	39	104	0	60	88305
2026-01-02 09:25:34.09	342.69	1.40	-51.9	-54.3	3.6	0.00e+00	0	39	104	0	60	88082
2026-01-02 09:25:35.10	342.68	1.33	-51.9	-54.3	3.6	0.00e+00	0	39	104	0	60	87610
2026-01-02 09:25:36.11	342.67	1.27	-51.9	-54.3	3.6	0.00e+00	0	39	104	0	60	88198
2026-01-02 09:25:37.12	342.66	1.20	-51.9	-54.3	3.6	0.00e+00	0	39	104	0	60	88084
2026-01-02 09:25:38.14	342.65	1.13	-51.9	-54.4	3.6	0.00e+00	0	39	104	0	60	88392
2026-01-02 09:25:39.15	342.64	1.06	-51.9	-54.3	3.6	0.00e+00	0	39	104	0	60	88039
2026-01-02 09:25:40.16	342.63	1.00	-51.9	-54.4	3.6	0.00e+00	0	39	104	0	60	88377
2026-01-02 09:25:41.17	342.62	0.93	-51.9	-54.4	3.6	0.00e+00	0	39	104	0	60	88257
2026-01-02 09:25:42.18	342.61	0.86	-51.9	-54.4	3.6	0.00e+00	0	39	104	0	60	88613
2026-01-02 09:25:43.19	342.60	0.80	-51.9	-54.3	3.6	0.00e+00	0	39	104	0	60	87955
2026-01-02 09:25:44.20	342.59	0.73	-51.9	-54.4	3.6	0.00e+00	0	39	104	0	60	88648
2026-01-02 09:25:45.21	342.58	0.67	-51.9	-54.4	3.6	0.00e+00	0	39	104	0	60	88698
2026-01-02 09:25:46.22	342.57	0.60	-51.9	-54.4	3.6	0.00e+00	0	39	104	0	60	88569
2026-01-02 09:25:47.23	342.56	0.53	-51.9	-54.3	3.6	0.00e+00	0	39	104	0	60	87917
2026-01-02 09:25:48.24	342.55	0.47	-51.9	-54.4	3.6	0.00e+00	0	39	104	0	60	88352
2026-01-02 09:25:49.25	342.54	0.40	-52.0	-54.4	3.6	0.00e+00	0	39	104	0	60	88865
2026-01-02 09:25:50.26	342.53	0.34	-51.9	-54.4	3.6	0.00e+00	0	39	104	0	60	88256
2026-01-02 09:25:51.27	342.52	0.27	-51.9	-54.4	3.6	0.00e+00	0	39	104	0	60	88594
2026-01-02 09:25:52.28	342.51	0.21	-51.9	-54.3	3.6	0.00e+00	0	39	104	0	60	88162
2026-01-02 09:25:53.29	342.50	0.15	-51.9	-54.4	3.6	0.00e+00	0	39	104	0	60	88613
2026-01-02 09:25:54.31	342.49	0.08	-51.9	-54.4	3.5	0.00e+00	0	39	104	0	60	88273
2026-01-02 09:25:55.32	342.48	0.02	-52.0	-54.4	3.6	0.00e+00	0	39	104	0	60	88690
2026-01-02 09:25:56.33	342.47	-0.05	-52.0	-54.4	3.6	0.00e+00	0	39	104	0	60	88641
2026-01-02 09:25:57.34	342.46	-0.11	-51.9	-54.4	3.6	0.00e+00	0	39	104	0	60	88262

#Closed at: 2026-01-02 09:25:57
#Recorded file [0 MB]: D:/lorett/data/35034_260102_121408.dat