passes_logs/2026/01/11/R2M6_AANII_01/R2M6_AANII_01__20260111_011043_NOAA_20_JPSS-1_rec.log

#Pass ID: 20260111_011043_NOAA 20 (JPSS-1)
#Satellite: NOAA 20 (JPSS-1)
#Configuration: NOAA 20
#almurnet v.1.7.20240730
#Start time: 2026-01-11 01:10:43

#Version: 2.2.20231116
#Station: R2M6_AANII_01
#Location: 30.233357 lon 59.946436 lat
#TLE: 1 43013U 17073A   26009.69119415  .00000109  00000+0  72598-4 0  9996
#TLE: 2 43013  98.7631 310.6868 0001678  46.7442 313.3874 14.19534878421981

#Time	Az	El	Level	Level2	SNR	BER	BlckErr	Temp	State	Recorded	gain1	gain2
2026-01-11 01:10:43.41	14.31	6.96	-31.6	-38.3	4.9	1.30e+00	0	39	0	0	23	7746
2026-01-11 01:10:44.42	14.27	7.03	-32.0	-40.0	4.6	1.36e+00	0	39	104	0	23	9144
2026-01-11 01:10:45.43	14.23	7.11	-31.9	-39.6	6.4	2.85e-01	0	39	0	0	23	8737
2026-01-11 01:10:46.43	14.19	7.18	-31.9	-39.3	6.7	1.76e-01	0	39	0	1048576	23	8487
2026-01-11 01:10:47.44	14.14	7.26	-31.9	-39.4	6.6	2.31e-01	0	39	0	3145728	23	8520
2026-01-11 01:10:48.44	14.10	7.34	-31.8	-38.5	7.3	1.65e-01	0	39	0	5242880	23	7845
2026-01-11 01:10:49.44	14.06	7.41	-31.6	-37.8	7.8	1.09e-01	0	39	0	7340032	23	7366
2026-01-11 01:10:50.45	14.02	7.49	-31.5	-37.4	8.2	6.22e-02	0	39	0	9437184	23	7068
2026-01-11 01:10:51.46	13.98	7.56	-31.4	-37.0	8.6	4.59e-02	0	40	0	10485760	23	6812
2026-01-11 01:10:52.47	13.94	7.64	-31.4	-36.9	8.6	4.47e-02	0	40	0	12582912	23	6758
2026-01-11 01:10:53.47	13.89	7.72	-31.6	-37.5	8.2	3.82e-02	0	40	0	14680064	23	7129
2026-01-11 01:10:54.48	13.85	7.79	-31.7	-38.0	7.8	8.37e-02	0	40	0	16777216	23	7418
2026-01-11 01:10:55.48	13.81	7.87	-31.4	-36.8	8.7	5.43e-02	0	40	0	18874368	23	6711
2026-01-11 01:10:56.49	13.77	7.95	-31.3	-36.7	9.3	2.40e-02	0	40	0	19922944	22	6727
2026-01-11 01:10:57.49	13.72	8.03	-31.0	-35.8	9.9	9.83e-03	0	40	0	22020096	22	6244
2026-01-11 01:10:58.50	13.68	8.10	-30.8	-35.4	10.7	4.94e-03	0	40	0	24117248	21	6111
2026-01-11 01:10:59.50	13.63	8.18	-30.5	-34.4	11.4	4.98e-03	0	40	0	26214400	21	5649
2026-01-11 01:11:00.51	13.59	8.26	-30.2	-34.1	11.9	4.92e-04	0	40	0	28311552	20	5639
2026-01-11 01:11:01.51	13.55	8.34	-30.1	-33.7	12.3	5.24e-04	0	40	0	29360128	20	5438
2026-01-11 01:11:02.51	13.50	8.42	-29.9	-33.2	12.6	1.19e-04	0	40	0	31457280	20	5254
2026-01-11 01:11:03.52	13.46	8.50	-29.9	-33.5	12.8	5.11e-05	0	40	0	33554432	19	5466
2026-01-11 01:11:04.52	13.41	8.57	-29.9	-33.7	12.7	6.02e-05	0	40	0	35651584	19	5533
2026-01-11 01:11:05.53	13.37	8.65	-29.9	-33.1	12.7	7.62e-05	0	40	0	37748736	20	5209
2026-01-11 01:11:06.53	13.32	8.73	-30.0	-33.7	12.8	5.64e-05	0	40	0	38797312	19	5542
2026-01-11 01:11:07.54	13.27	8.81	-30.0	-33.8	12.7	5.34e-05	0	40	0	40894464	19	5567
2026-01-11 01:11:08.55	13.23	8.89	-30.0	-33.4	12.6	1.06e-04	0	40	0	42991616	20	5303
2026-01-11 01:11:09.55	13.18	8.97	-30.0	-33.3	12.6	4.91e-04	0	40	0	45088768	20	5269
2026-01-11 01:11:10.56	13.13	9.05	-29.9	-33.0	12.8	5.41e-05	0	40	0	46137344	20	5175
2026-01-11 01:11:11.56	13.09	9.13	-30.0	-33.7	12.8	5.34e-05	0	40	0	48234496	19	5525
2026-01-11 01:11:12.57	13.04	9.22	-29.9	-33.5	12.9	4.22e-04	0	40	0	50331648	19	5443
2026-01-11 01:11:13.57	12.99	9.30	-29.9	-33.5	12.0	4.57e-05	0	40	0	52428800	19	5438
2026-01-11 01:11:14.58	12.94	9.38	-29.9	-33.6	11.6	4.11e-05	0	40	0	54525952	19	5478
2026-01-11 01:11:15.59	12.90	9.46	-29.9	-33.5	12.7	3.66e-05	0	40	0	56623104	19	5432
2026-01-11 01:11:16.59	12.85	9.54	-30.0	-33.6	12.8	5.49e-05	0	40	0	57671680	19	5504
2026-01-11 01:11:17.60	12.80	9.63	-30.0	-33.3	12.6	6.48e-05	0	40	0	59768832	20	5293
2026-01-11 01:11:18.60	12.75	9.71	-30.0	-33.4	12.6	1.27e-04	0	40	0	61865984	20	5293
2026-01-11 01:11:19.61	12.70	9.79	-30.0	-33.3	12.7	3.58e-04	0	40	0	63963136	20	5281
2026-01-11 01:11:20.61	12.65	9.87	-30.0	-33.5	12.6	9.76e-05	0	40	0	65011712	20	5335
2026-01-11 01:11:21.62	12.60	9.96	-30.0	-33.4	12.6	6.79e-05	0	40	0	67108864	20	5291
2026-01-11 01:11:22.62	12.55	10.04	-30.0	-33.2	12.7	1.22e-04	0	40	0	69206016	20	5241
2026-01-11 01:11:23.62	12.50	10.12	-29.9	-33.6	13.0	2.55e-03	0	40	0	71303168	19	5482
2026-01-11 01:11:24.63	12.45	10.21	-30.0	-33.6	12.9	3.66e-05	0	40	0	73400320	19	5485
2026-01-11 01:11:25.63	12.40	10.29	-30.1	-33.5	12.6	5.95e-05	0	40	0	74448896	20	5334
2026-01-11 01:11:26.63	12.35	10.38	-30.0	-33.4	12.7	3.02e-03	0	40	0	76546048	20	5301
2026-01-11 01:11:27.64	12.29	10.46	-30.0	-33.6	12.9	5.79e-05	0	41	0	78643200	19	5470
2026-01-11 01:11:28.64	12.24	10.54	-30.0	-33.6	12.9	4.42e-05	0	40	0	80740352	19	5486
2026-01-11 01:11:29.65	12.19	10.63	-29.9	-33.0	12.9	4.65e-05	0	40	0	82837504	20	5161
2026-01-11 01:11:30.65	12.14	10.72	-29.9	-33.5	13.0	3.68e-04	0	40	0	83886080	19	5442
2026-01-11 01:11:31.66	12.08	10.80	-29.9	-33.4	13.1	3.50e-05	0	41	0	85983232	19	5411
2026-01-11 01:11:32.66	12.03	10.89	-30.0	-33.1	12.6	3.28e-05	0	41	0	88080384	20	5187
2026-01-11 01:11:33.66	11.98	10.97	-30.1	-33.5	12.3	4.48e-04	0	40	0	90177536	20	5333
2026-01-11 01:11:34.67	11.92	11.06	-30.1	-33.5	12.6	2.67e-03	0	40	0	92274688	20	5322
2026-01-11 01:11:35.67	11.87	11.15	-29.9	-33.0	13.0	5.95e-05	0	41	0	93323264	20	5141
2026-01-11 01:11:36.67	11.81	11.23	-29.9	-33.4	13.2	7.24e-04	0	41	0	95420416	19	5372
2026-01-11 01:11:37.68	11.76	11.32	-29.9	-33.3	13.2	2.79e-03	0	41	0	97517568	19	5343
2026-01-11 01:11:38.69	11.70	11.41	-29.9	-33.4	13.2	1.90e-05	0	41	0	99614720	19	5376
2026-01-11 01:11:39.69	11.64	11.50	-29.9	-33.4	13.2	6.67e-04	0	41	0	101711872	19	5386
2026-01-11 01:11:40.69	11.59	11.59	-30.0	-33.5	13.1	2.73e-03	0	41	0	102760448	19	5442
2026-01-11 01:11:41.70	11.53	11.68	-29.9	-33.4	13.2	2.51e-03	0	40	0	104857600	19	5397
2026-01-11 01:11:42.70	11.47	11.76	-29.9	-33.5	13.1	2.67e-05	0	41	0	106954752	19	5425
2026-01-11 01:11:43.71	11.42	11.85	-29.9	-33.0	13.0	2.63e-03	0	41	0	109051904	20	5143
2026-01-11 01:11:44.72	11.36	11.94	-30.1	-33.5	12.7	2.96e-03	0	41	0	111149056	20	5341
2026-01-11 01:11:45.72	11.30	12.03	-30.0	-33.1	13.0	4.52e-04	0	41	0	112197632	20	5182
2026-01-11 01:11:46.72	11.24	12.12	-30.0	-33.4	12.8	2.87e-03	0	41	0	114294784	20	5272
2026-01-11 01:11:47.72	11.18	12.21	-30.0	-33.3	12.9	3.06e-03	0	41	0	116391936	20	5247
2026-01-11 01:11:48.73	11.12	12.30	-30.1	-33.5	12.8	4.59e-04	0	41	0	118489088	20	5310
2026-01-11 01:11:49.73	11.06	12.39	-30.0	-33.3	12.9	2.76e-03	0	41	0	120586240	20	5247
2026-01-11 01:11:50.74	11.00	12.49	-29.9	-32.8	13.2	2.73e-03	0	41	0	121634816	20	5067
2026-01-11 01:11:51.75	10.94	12.58	-29.9	-33.4	13.3	3.99e-04	0	40	0	123731968	19	5370
2026-01-11 01:11:52.76	10.88	12.67	-29.9	-33.5	13.2	2.49e-03	0	41	0	125829120	19	5403
2026-01-11 01:11:53.76	10.82	12.76	-30.0	-33.1	13.1	2.93e-03	0	41	0	127926272	20	5168
2026-01-11 01:11:54.77	10.76	12.86	-30.2	-33.7	12.7	5.41e-04	0	41	0	130023424	20	5381
2026-01-11 01:11:55.78	10.70	12.95	-30.1	-33.4	12.9	2.85e-03	0	41	0	131072000	20	5278
2026-01-11 01:11:56.79	10.63	13.04	-29.9	-32.8	13.2	2.61e-04	0	41	0	133169152	20	5063
2026-01-11 01:11:57.79	10.57	13.14	-29.8	-33.1	13.5	4.94e-04	0	41	0	135266304	19	5256
2026-01-11 01:11:58.80	10.51	13.23	-29.8	-33.1	13.5	2.66e-03	0	41	0	137363456	19	5263
2026-01-11 01:11:59.80	10.44	13.32	-29.9	-33.4	13.3	2.14e-04	0	41	0	139460608	19	5359
2026-01-11 01:12:00.81	10.38	13.42	-29.9	-33.2	13.4	4.52e-04	0	41	0	140509184	19	5286
2026-01-11 01:12:01.81	10.31	13.51	-29.9	-33.2	13.4	2.48e-03	0	41	0	142606336	19	5308
2026-01-11 01:12:02.81	10.25	13.61	-30.0	-33.0	13.1	2.64e-03	0	41	0	144703488	20	5125
2026-01-11 01:12:03.81	10.18	13.70	-30.1	-33.4	12.9	2.46e-04	0	41	0	146800640	20	5289
2026-01-11 01:12:04.81	10.12	13.80	-30.0	-33.2	13.1	2.73e-03	0	41	0	148897792	20	5173
2026-01-11 01:12:05.82	10.05	13.90	-30.1	-33.5	12.9	2.91e-03	0	41	0	149946368	20	5289
2026-01-11 01:12:06.83	9.98	13.99	-29.9	-33.0	13.2	2.79e-04	0	41	0	152043520	20	5100
2026-01-11 01:12:07.83	9.91	14.09	-29.9	-33.2	13.5	1.44e-05	0	41	0	154140672	19	5299
2026-01-11 01:12:08.83	9.85	14.19	-30.0	-33.5	13.3	2.68e-03	0	41	0	156237824	19	5393
2026-01-11 01:12:09.84	9.78	14.28	-29.8	-32.6	13.5	9.10e-06	0	41	0	158334976	20	4959
2026-01-11 01:12:10.85	9.71	14.38	-29.7	-32.8	13.8	8.30e-06	0	41	0	159383552	19	5119
2026-01-11 01:12:11.86	9.64	14.48	-29.8	-33.0	13.7	2.82e-03	0	41	0	161480704	19	5188
2026-01-11 01:12:12.86	9.57	14.58	-30.0	-33.4	13.4	3.45e-04	0	41	0	163577856	19	5376
2026-01-11 01:12:13.87	9.50	14.68	-29.9	-33.2	13.5	1.06e-05	0	41	0	165675008	19	5271
2026-01-11 01:12:14.87	9.43	14.78	-29.7	-32.6	13.9	1.69e-04	0	41	0	167772160	19	5070
2026-01-11 01:12:15.88	9.36	14.88	-29.6	-32.4	14.0	4.04e-04	0	41	0	168820736	19	4990
2026-01-11 01:12:16.88	9.28	14.98	-29.6	-32.4	14.0	6.80e-06	0	41	0	170917888	19	4997
2026-01-11 01:12:17.89	9.21	15.08	-29.6	-32.4	14.1	2.11e-04	0	41	0	173015040	19	4989
2026-01-11 01:12:18.89	9.14	15.18	-29.7	-32.6	14.0	1.98e-04	0	41	0	175112192	19	5052
2026-01-11 01:12:19.90	9.07	15.28	-29.6	-32.4	14.1	1.50e-06	0	41	0	176160768	19	4982
2026-01-11 01:12:20.90	8.99	15.38	-29.5	-32.3	14.2	2.04e-04	0	41	0	178257920	19	4935
2026-01-11 01:12:21.90	8.92	15.48	-29.6	-32.5	14.1	1.95e-04	0	41	0	180355072	19	4996
2026-01-11 01:12:22.91	8.84	15.59	-29.5	-32.3	14.2	2.57e-03	0	41	0	182452224	19	4929
2026-01-11 01:12:23.91	8.77	15.69	-29.6	-32.4	14.1	7.00e-07	0	41	0	184549376	19	4987
2026-01-11 01:12:24.92	8.69	15.79	-29.6	-32.3	14.2	1.04e-04	0	41	0	186646528	19	4950
2026-01-11 01:12:25.92	8.61	15.90	-29.6	-32.4	14.1	7.00e-07	0	41	0	187695104	19	4973
2026-01-11 01:12:26.93	8.54	16.00	-29.7	-32.6	14.0	7.00e-07	0	41	0	189792256	19	5065
2026-01-11 01:12:27.93	8.46	16.10	-29.6	-32.4	14.1	8.54e-05	0	41	0	191889408	19	4986
2026-01-11 01:12:28.93	8.38	16.21	-29.7	-32.6	14.0	3.80e-06	0	41	0	193986560	19	5061
2026-01-11 01:12:29.93	8.30	16.31	-29.9	-33.2	13.6	3.00e-06	0	41	0	195035136	19	5274
2026-01-11 01:12:30.94	8.22	16.42	-29.7	-32.7	14.0	1.50e-06	0	41	0	197132288	19	5070
2026-01-11 01:12:31.95	8.14	16.52	-29.7	-32.8	13.9	3.00e-06	0	41	0	199229440	19	5098
2026-01-11 01:12:32.95	8.06	16.63	-29.7	-32.7	13.9	1.56e-04	0	41	0	201326592	19	5091
2026-01-11 01:12:33.95	7.98	16.74	-29.8	-32.9	13.8	6.10e-06	0	41	0	203423744	19	5158
2026-01-11 01:12:34.96	7.90	16.84	-29.7	-32.7	13.9	3.00e-06	0	41	0	204472320	19	5097
2026-01-11 01:12:35.97	7.82	16.95	-29.7	-32.8	13.9	1.69e-04	0	41	0	206569472	19	5117
2026-01-11 01:12:36.98	7.73	17.06	-29.8	-32.9	13.8	2.20e-06	0	41	0	208666624	19	5138
2026-01-11 01:12:37.98	7.65	17.17	-29.8	-32.9	13.8	3.80e-06	0	41	0	210763776	19	5149
2026-01-11 01:12:38.99	7.56	17.28	-30.0	-33.3	13.5	4.80e-05	0	41	0	212860928	19	5322
2026-01-11 01:12:40.00	7.48	17.39	-29.8	-32.9	13.9	4.50e-06	0	41	0	213909504	19	5141
2026-01-11 01:12:41.00	7.39	17.50	-28.8	-31.9	13.6	1.50e-06	0	41	0	216006656	19	5092
2026-01-11 01:12:42.00	7.31	17.61	-29.6	-32.5	14.1	3.00e-06	0	41	0	218103808	19	5001
2026-01-11 01:12:43.01	7.22	17.72	-29.7	-32.6	13.0	4.65e-05	0	41	0	220200960	19	5031
2026-01-11 01:12:44.01	7.13	17.83	-29.8	-32.8	12.6	7.00e-07	0	41	0	222298112	19	5129
2026-01-11 01:12:45.02	7.04	17.94	-29.7	-32.7	14.0	6.10e-06	0	41	0	223346688	19	5069
2026-01-11 01:12:46.02	6.95	18.05	-29.8	-32.9	13.9	1.50e-06	0	41	0	225443840	19	5126
2026-01-11 01:12:47.02	6.87	18.16	-29.9	-33.3	13.6	2.48e-03	0	41	0	227540992	19	5288
2026-01-11 01:12:48.04	6.77	18.28	-29.7	-32.8	14.0	7.00e-07	0	41	0	229638144	19	5091
2026-01-11 01:12:49.04	6.68	18.39	-29.8	-32.8	13.9	1.50e-06	0	41	0	231735296	19	5118
2026-01-11 01:12:50.05	6.59	18.50	-29.8	-33.0	13.8	2.49e-03	0	41	0	232783872	19	5190
2026-01-11 01:12:51.05	6.50	18.62	-29.7	-32.7	14.0	0.00e+00	0	41	0	234881024	19	5078
2026-01-11 01:12:52.06	6.40	18.73	-29.7	-32.7	14.0	7.00e-07	0	41	0	236978176	19	5077
2026-01-11 01:12:53.07	6.31	18.85	-29.8	-32.8	14.0	2.25e-03	0	41	0	239075328	19	5113
2026-01-11 01:12:54.07	6.22	18.96	-29.9	-33.1	13.8	1.43e-04	0	41	0	241172480	19	5214
2026-01-11 01:12:55.08	6.12	19.08	-29.9	-33.1	13.8	6.10e-06	0	41	0	242221056	19	5206
2026-01-11 01:12:56.08	6.02	19.19	-29.9	-33.3	13.6	2.20e-06	0	41	0	244318208	19	5293
2026-01-11 01:12:57.09	5.93	19.31	-29.9	-33.1	13.8	1.98e-04	0	41	0	246415360	19	5227
2026-01-11 01:12:58.10	5.83	19.43	-29.9	-33.2	13.8	3.00e-06	0	41	0	248512512	19	5261
2026-01-11 01:12:59.10	5.73	19.54	-29.9	-33.3	13.7	4.50e-06	0	41	0	250609664	19	5283
2026-01-11 01:13:00.11	5.63	19.66	-30.0	-33.3	13.7	2.23e-04	0	41	0	251658240	19	5309
2026-01-11 01:13:01.12	5.53	19.78	-29.9	-32.8	13.6	2.64e-03	0	41	0	253755392	20	5017
2026-01-11 01:13:02.12	5.43	19.90	-30.1	-33.2	13.3	9.90e-06	0	42	0	255852544	20	5141
2026-01-11 01:13:03.13	5.33	20.02	-30.2	-33.6	13.1	3.77e-04	0	41	0	257949696	20	5302
2026-01-11 01:13:04.14	5.22	20.14	-30.1	-33.3	13.3	2.43e-03	0	41	0	260046848	20	5200
2026-01-11 01:13:05.14	5.12	20.26	-30.3	-33.7	13.0	2.67e-03	0	41	0	261095424	20	5339
2026-01-11 01:13:06.15	5.02	20.38	-30.4	-34.2	12.7	4.95e-05	0	41	0	263192576	20	5533
2026-01-11 01:13:07.16	4.91	20.50	-30.3	-33.7	13.1	2.78e-03	0	42	0	265289728	20	5344
2026-01-11 01:13:08.16	4.80	20.62	-30.2	-33.5	13.1	2.66e-03	0	41	0	267386880	20	5277
2026-01-11 01:13:09.16	4.70	20.75	-30.2	-33.5	13.2	2.74e-05	0	41	0	269484032	20	5265
2026-01-11 01:13:10.17	4.59	20.87	-30.3	-33.8	13.0	2.60e-03	0	42	0	270532608	20	5382
2026-01-11 01:13:11.18	4.48	20.99	-30.4	-34.0	12.9	2.52e-03	0	42	0	272629760	20	5466
2026-01-11 01:13:12.18	4.37	21.12	-30.3	-33.9	13.0	1.97e-04	0	41	0	274726912	20	5409
2026-01-11 01:13:13.19	4.26	21.24	-30.4	-34.1	12.8	2.58e-03	0	41	0	276824064	20	5505
2026-01-11 01:13:14.20	4.15	21.37	-30.3	-33.8	13.0	2.80e-03	0	41	0	278921216	20	5383
2026-01-11 01:13:15.20	4.04	21.49	-30.2	-33.5	13.3	1.81e-04	0	41	0	279969792	20	5247
2026-01-11 01:13:16.21	3.92	21.62	-30.2	-33.6	13.2	2.71e-03	0	41	0	282066944	20	5277
2026-01-11 01:13:17.22	3.81	21.74	-30.2	-33.6	13.2	2.74e-03	0	41	0	284164096	20	5300
2026-01-11 01:13:18.22	3.69	21.87	-30.3	-33.6	13.2	2.04e-04	0	42	0	286261248	20	5296
2026-01-11 01:13:19.23	3.58	22.00	-30.2	-33.6	13.2	2.72e-03	0	42	0	288358400	20	5279
2026-01-11 01:13:20.24	3.46	22.13	-30.2	-33.6	13.2	2.43e-03	0	41	0	289406976	20	5282
2026-01-11 01:13:21.24	3.34	22.25	-30.3	-33.7	13.2	1.96e-04	0	41	0	291504128	20	5330
2026-01-11 01:13:22.25	3.22	22.38	-30.3	-33.8	13.1	2.42e-03	0	42	0	293601280	20	5377
2026-01-11 01:13:23.26	3.10	22.51	-30.4	-34.0	13.0	3.35e-05	0	41	0	295698432	20	5438
2026-01-11 01:13:24.26	2.98	22.64	-30.4	-34.1	12.8	2.01e-04	0	41	0	297795584	20	5512
2026-01-11 01:13:25.27	2.86	22.77	-30.4	-34.0	12.9	2.86e-03	0	42	0	298844160	20	5464
2026-01-11 01:13:26.28	2.73	22.91	-30.5	-34.2	12.7	2.71e-03	0	41	0	300941312	20	5556
2026-01-11 01:13:27.29	2.61	23.04	-30.5	-34.2	12.8	5.79e-05	0	42	0	303038464	20	5543
2026-01-11 01:13:28.29	2.48	23.17	-30.5	-33.9	12.7	2.88e-03	0	42	0	305135616	21	5305
2026-01-11 01:13:29.30	2.36	23.30	-30.6	-34.1	12.5	2.69e-03	0	42	0	307232768	21	5375
2026-01-11 01:13:30.30	2.23	23.44	-30.5	-33.9	12.7	6.94e-05	0	42	0	308281344	21	5284
2026-01-11 01:13:31.30	2.10	23.57	-30.6	-34.2	12.5	2.88e-03	0	42	0	310378496	21	5406
2026-01-11 01:13:32.30	1.97	23.70	-30.7	-34.4	12.3	3.02e-03	0	42	0	312475648	21	5516
2026-01-11 01:13:33.31	1.84	23.84	-30.6	-34.1	12.6	1.08e-04	0	42	0	314572800	21	5368
2026-01-11 01:13:34.32	1.71	23.97	-30.5	-33.9	12.7	6.79e-05	0	42	0	316669952	21	5286
2026-01-11 01:13:35.33	1.57	24.11	-30.6	-34.0	12.6	2.81e-03	0	42	0	317718528	21	5353
2026-01-11 01:13:36.33	1.44	24.24	-30.7	-34.2	12.5	2.63e-04	0	42	0	319815680	21	5439
2026-01-11 01:13:37.34	1.30	24.38	-30.7	-34.5	12.3	2.01e-04	0	41	0	321912832	21	5537
2026-01-11 01:13:38.35	1.16	24.52	-30.7	-34.3	12.4	2.72e-03	0	41	0	324009984	21	5480
2026-01-11 01:13:39.35	1.03	24.66	-30.7	-34.2	12.5	2.75e-04	0	42	0	326107136	21	5444
2026-01-11 01:13:40.36	0.89	24.80	-30.7	-34.5	12.3	1.33e-04	0	42	0	327155712	21	5548
2026-01-11 01:13:41.36	0.75	24.93	-30.8	-34.6	12.2	2.39e-04	0	42	0	329252864	21	5609
2026-01-11 01:13:42.37	0.60	25.07	-30.7	-34.5	12.3	2.99e-04	0	42	0	331350016	21	5534
2026-01-11 01:13:43.38	0.46	25.21	-30.8	-34.5	12.3	1.85e-04	0	42	0	333447168	21	5543
2026-01-11 01:13:44.38	0.31	25.35	-30.6	-34.0	12.7	1.25e-04	0	41	0	335544320	21	5325
2026-01-11 01:13:45.39	0.17	25.50	-30.6	-33.9	12.7	6.56e-05	0	42	0	336592896	21	5314
2026-01-11 01:13:46.39	0.02	25.64	-30.6	-34.0	12.6	8.31e-05	0	42	0	338690048	21	5339
2026-01-11 01:13:47.40	359.87	25.78	-30.7	-34.2	12.5	8.62e-05	0	41	0	340787200	21	5433
2026-01-11 01:13:48.40	359.72	25.92	-30.7	-34.4	12.4	1.46e-04	0	42	0	342884352	21	5501
2026-01-11 01:13:49.40	359.57	26.06	-30.7	-34.4	12.4	2.48e-03	0	41	0	344981504	21	5504
2026-01-11 01:13:50.41	359.42	26.21	-30.6	-34.1	12.7	9.76e-05	0	41	0	346030080	21	5367
2026-01-11 01:13:51.42	359.26	26.35	-30.6	-34.0	12.7	7.85e-05	0	41	0	348127232	21	5344
2026-01-11 01:13:52.42	359.11	26.50	-30.6	-33.9	12.8	6.79e-05	0	42	0	350224384	21	5291
2026-01-11 01:13:53.43	358.95	26.64	-30.6	-34.1	12.6	1.01e-04	0	42	0	352321536	21	5379
2026-01-11 01:13:54.43	358.79	26.79	-30.6	-34.0	12.8	7.93e-05	0	42	0	354418688	21	5310
2026-01-11 01:13:55.43	358.63	26.94	-30.6	-34.0	12.7	6.02e-05	0	42	0	355467264	21	5319
2026-01-11 01:13:56.44	358.47	27.08	-30.6	-34.1	12.7	8.39e-05	0	42	0	357564416	21	5383
2026-01-11 01:13:57.45	358.31	27.23	-30.7	-34.2	12.5	1.17e-04	0	42	0	359661568	21	5428
2026-01-11 01:13:58.45	358.14	27.38	-30.6	-34.1	12.7	7.47e-05	0	42	0	361758720	21	5377
2026-01-11 01:13:59.46	357.97	27.53	-30.7	-34.2	12.6	9.99e-05	0	42	0	363855872	21	5416
2026-01-11 01:14:00.47	357.80	27.68	-30.6	-34.0	12.7	9.68e-05	0	42	0	364904448	21	5322
2026-01-11 01:14:01.48	357.63	27.83	-30.7	-34.2	12.6	9.00e-05	0	42	0	367001600	21	5383
2026-01-11 01:14:02.49	357.46	27.98	-30.7	-34.2	12.7	7.78e-05	0	42	0	369098752	21	5394
2026-01-11 01:14:03.49	357.29	28.13	-30.6	-33.9	12.8	6.17e-05	0	42	0	371195904	21	5290
2026-01-11 01:14:04.50	357.11	28.28	-30.5	-33.7	13.0	3.81e-05	0	42	0	373293056	21	5198
2026-01-11 01:14:05.50	356.94	28.43	-30.4	-33.5	13.2	2.89e-05	0	42	0	374341632	21	5123
2026-01-11 01:14:06.51	356.76	28.59	-30.4	-34.0	13.1	2.67e-05	0	42	0	376438784	20	5426
2026-01-11 01:14:07.51	356.58	28.74	-30.4	-33.8	13.1	1.14e-05	0	42	0	378535936	20	5333
2026-01-11 01:14:08.52	356.40	28.89	-30.4	-33.9	13.2	2.28e-05	0	41	0	380633088	20	5384
2026-01-11 01:14:09.53	356.21	29.05	-30.4	-33.9	13.1	3.58e-05	0	42	0	382730240	20	5388
2026-01-11 01:14:10.53	356.03	29.20	-30.3	-33.5	13.5	1.37e-05	0	42	0	383778816	20	5232
2026-01-11 01:14:11.54	355.84	29.36	-30.4	-33.9	13.1	1.22e-05	0	42	0	385875968	20	5397
2026-01-11 01:14:12.54	355.66	29.51	-30.6	-33.9	12.9	3.66e-05	0	42	0	387973120	21	5279
2026-01-11 01:14:13.55	355.46	29.67	-30.7	-34.3	12.6	1.04e-04	0	42	0	390070272	21	5432
2026-01-11 01:14:14.56	355.27	29.82	-30.8	-34.6	12.4	1.04e-04	0	42	0	392167424	21	5581
2026-01-11 01:14:15.57	355.07	29.98	-30.9	-34.9	12.2	2.08e-04	0	42	0	393216000	21	5668
2026-01-11 01:14:16.57	354.88	30.14	-30.9	-34.8	12.3	1.87e-03	0	41	0	395313152	21	5648
2026-01-11 01:14:17.58	354.68	30.30	-30.9	-34.9	12.2	2.39e-04	0	42	0	397410304	21	5676
2026-01-11 01:14:18.58	354.48	30.45	-30.8	-34.7	12.4	1.93e-04	0	42	0	399507456	21	5593
2026-01-11 01:14:19.59	354.28	30.61	-30.9	-34.9	12.2	1.43e-04	0	42	0	401604608	21	5676
2026-01-11 01:14:20.59	354.07	30.77	-31.0	-34.6	12.1	4.82e-04	0	42	0	402653184	22	5441
2026-01-11 01:14:21.60	353.87	30.93	-31.0	-35.0	12.2	2.92e-04	0	42	0	404750336	21	5726
2026-01-11 01:14:22.61	353.66	31.09	-31.0	-34.7	12.1	2.04e-04	0	42	0	406847488	22	5471
2026-01-11 01:14:23.61	353.45	31.25	-31.1	-34.9	11.9	6.12e-04	0	42	0	408944640	22	5586
2026-01-11 01:14:24.62	353.23	31.42	-31.1	-34.8	12.0	3.78e-04	0	42	0	411041792	22	5518
2026-01-11 01:14:25.62	353.02	31.58	-31.2	-35.3	11.7	4.09e-04	0	41	0	412090368	22	5728
2026-01-11 01:14:26.63	352.80	31.74	-31.2	-35.1	11.8	9.06e-04	0	42	0	414187520	22	5656
2026-01-11 01:14:27.64	352.58	31.90	-31.1	-34.8	11.9	2.02e-03	0	42	0	416284672	22	5545
2026-01-11 01:14:28.64	352.36	32.06	-31.1	-35.0	11.8	3.42e-04	0	42	0	418381824	22	5627
2026-01-11 01:14:29.65	352.14	32.23	-31.2	-35.0	11.8	4.92e-04	0	42	0	420478976	22	5623
2026-01-11 01:14:30.65	351.91	32.39	-31.1	-35.0	11.9	1.67e-03	0	42	0	421527552	22	5588
2026-01-11 01:14:31.66	351.68	32.56	-31.2	-35.0	11.8	1.96e-03	0	42	0	423624704	22	5628
2026-01-11 01:14:32.66	351.45	32.72	-31.1	-34.9	12.0	4.15e-04	0	42	0	425721856	22	5550
2026-01-11 01:14:33.67	351.22	32.89	-31.2	-35.1	11.8	2.39e-03	0	42	0	427819008	22	5649
2026-01-11 01:14:34.67	350.98	33.05	-31.2	-35.2	11.7	2.90e-03	0	42	0	429916160	22	5707
2026-01-11 01:14:35.68	350.74	33.22	-31.2	-35.2	11.7	6.23e-04	0	42	0	430964736	22	5710
2026-01-11 01:14:36.68	350.50	33.38	-31.2	-35.2	11.8	3.11e-03	0	42	0	433061888	22	5693
2026-01-11 01:14:37.69	350.26	33.55	-31.2	-35.2	11.7	3.07e-03	0	42	0	435159040	22	5689
2026-01-11 01:14:38.69	350.02	33.71	-31.2	-35.0	11.9	6.23e-04	0	42	0	437256192	22	5610
2026-01-11 01:14:39.70	349.77	33.88	-31.2	-35.0	11.9	3.96e-04	0	42	0	438304768	22	5610
2026-01-11 01:14:40.70	349.52	34.05	-31.3	-35.3	11.7	2.88e-03	0	42	0	440401920	22	5740
2026-01-11 01:14:41.71	349.26	34.21	-31.2	-35.1	11.8	9.58e-04	0	42	0	442499072	22	5642
2026-01-11 01:14:42.71	349.01	34.38	-31.0	-34.7	12.2	3.81e-04	0	42	0	444596224	22	5455
2026-01-11 01:14:43.72	348.75	34.55	-31.1	-35.0	11.9	2.74e-03	0	42	0	446693376	22	5596
2026-01-11 01:14:44.72	348.49	34.72	-31.1	-34.7	12.1	4.87e-04	0	42	0	448790528	22	5490
2026-01-11 01:14:45.73	348.22	34.89	-31.1	-34.8	12.0	1.68e-03	0	42	0	449839104	22	5515
2026-01-11 01:14:46.74	347.95	35.05	-31.1	-34.8	12.0	1.50e-03	0	42	0	451936256	22	5520
2026-01-11 01:14:47.74	347.69	35.22	-31.1	-34.9	12.0	3.08e-04	0	42	0	454033408	22	5542
2026-01-11 01:14:48.75	347.41	35.39	-31.1	-34.7	12.1	1.05e-03	0	42	0	456130560	22	5487
2026-01-11 01:14:49.75	347.14	35.56	-31.0	-34.5	12.2	4.71e-04	0	42	0	457179136	22	5389
2026-01-11 01:14:50.76	346.86	35.73	-31.1	-34.8	12.0	2.34e-04	0	42	0	459276288	22	5540
2026-01-11 01:14:51.77	346.58	35.90	-31.0	-34.6	12.2	1.34e-03	0	42	0	461373440	22	5440
2026-01-11 01:14:52.78	346.29	36.07	-31.2	-35.0	12.0	1.36e-03	0	42	0	463470592	22	5580
2026-01-11 01:14:53.79	346.00	36.24	-31.2	-35.2	11.7	5.18e-04	0	42	0	465567744	22	5706
2026-01-11 01:14:54.79	345.71	36.41	-31.2	-35.0	11.9	1.14e-03	0	42	0	466616320	22	5584
2026-01-11 01:14:55.80	345.42	36.58	-31.1	-34.8	12.1	1.49e-03	0	42	0	468713472	22	5505
2026-01-11 01:14:56.80	345.12	36.75	-31.1	-34.8	12.1	2.46e-04	0	42	0	470810624	22	5516
2026-01-11 01:14:57.81	344.82	36.92	-31.1	-34.8	12.1	2.10e-03	0	42	0	472907776	22	5520
2026-01-11 01:14:58.82	344.52	37.09	-31.1	-34.7	12.1	2.39e-03	0	42	0	475004928	22	5473
2026-01-11 01:14:59.82	344.21	37.26	-31.1	-34.8	12.1	2.44e-04	0	42	0	477102080	22	5500
2026-01-11 01:15:00.82	343.91	37.42	-31.2	-35.1	11.9	2.68e-03	0	42	0	478150656	22	5651
2026-01-11 01:15:01.82	343.59	37.59	-31.1	-34.9	12.0	2.92e-03	0	42	0	480247808	22	5544
2026-01-11 01:15:02.82	343.28	37.76	-31.0	-34.6	12.2	2.64e-04	0	42	0	482344960	22	5424
2026-01-11 01:15:03.83	342.96	37.93	-31.0	-34.6	12.2	2.33e-04	0	42	0	484442112	22	5407
2026-01-11 01:15:04.83	342.64	38.10	-31.1	-34.7	12.2	2.77e-03	0	42	0	485490688	22	5473
2026-01-11 01:15:05.83	342.31	38.26	-31.0	-34.6	12.2	3.73e-04	0	42	0	487587840	22	5443
2026-01-11 01:15:06.84	341.98	38.43	-31.0	-34.6	12.3	2.15e-04	0	42	0	489684992	22	5419
2026-01-11 01:15:07.85	341.65	38.60	-31.2	-35.0	12.0	4.42e-04	0	42	0	491782144	22	5591
2026-01-11 01:15:08.86	341.31	38.77	-31.0	-34.6	12.2	5.22e-04	0	42	0	493879296	22	5418
2026-01-11 01:15:09.86	340.97	38.94	-30.9	-34.2	12.5	1.69e-04	0	42	0	494927872	22	5265
2026-01-11 01:15:10.87	340.63	39.11	-30.9	-34.6	12.5	2.74e-04	0	42	0	497025024	21	5554
2026-01-11 01:15:11.87	340.28	39.27	-30.9	-34.8	12.4	3.49e-04	0	42	0	499122176	21	5639
2026-01-11 01:15:12.88	339.93	39.44	-30.9	-34.6	12.5	2.48e-03	0	42	0	501219328	21	5538
2026-01-11 01:15:13.88	339.58	39.60	-31.1	-34.7	12.2	1.56e-04	0	42	0	503316480	22	5456
2026-01-11 01:15:14.89	339.22	39.77	-31.2	-35.2	11.8	4.60e-04	0	42	0	504365056	22	5679
2026-01-11 01:15:15.90	338.86	39.93	-31.4	-35.7	11.5	2.80e-03	0	42	0	506462208	22	5919
2026-01-11 01:15:16.90	338.49	40.10	-31.4	-35.7	11.5	9.12e-04	0	42	0	508559360	22	5927
2026-01-11 01:15:17.91	338.12	40.26	-31.3	-35.4	11.7	6.17e-04	0	42	0	510656512	22	5748
2026-01-11 01:15:18.92	337.75	40.43	-31.2	-35.2	11.8	5.73e-04	0	42	0	512753664	22	5668
2026-01-11 01:15:19.92	337.37	40.59	-31.3	-35.3	11.7	4.56e-04	0	42	0	513802240	22	5741
2026-01-11 01:15:20.93	336.99	40.75	-31.5	-35.5	11.2	8.40e-04	0	42	0	515899392	23	5713
2026-01-11 01:15:21.93	336.61	40.91	-31.7	-36.3	10.8	1.95e-03	0	42	0	517996544	23	6080
2026-01-11 01:15:22.94	336.22	41.07	-31.8	-36.4	10.6	5.92e-03	0	42	0	520093696	23	6142
2026-01-11 01:15:23.95	335.83	41.23	-31.9	-36.9	10.2	4.96e-03	0	42	0	522190848	23	6395
2026-01-11 01:15:24.96	335.43	41.39	-31.8	-36.7	10.4	6.49e-03	0	42	0	523239424	23	6279
2026-01-11 01:15:25.96	335.03	41.55	-31.8	-36.5	10.5	5.72e-03	0	42	0	525336576	23	6182
2026-01-11 01:15:26.97	334.63	41.71	-31.8	-36.4	10.6	3.84e-03	0	42	0	527433728	23	6142
2026-01-11 01:15:27.97	334.22	41.86	-32.0	-37.1	10.1	5.06e-03	0	42	0	529530880	23	6505
2026-01-11 01:15:28.98	333.81	42.02	-31.8	-36.4	10.6	5.61e-03	0	42	0	531628032	23	6143
2026-01-11 01:15:29.98	333.39	42.17	-31.6	-35.7	11.1	2.02e-03	0	42	0	532676608	23	5808
2026-01-11 01:15:30.99	332.97	42.32	-31.5	-35.6	11.2	1.32e-03	0	42	0	534773760	23	5731
2026-01-11 01:15:32.00	332.55	42.47	-31.3	-34.8	11.7	9.63e-04	0	42	0	536870912	23	5391
2026-01-11 01:15:33.00	332.12	42.62	-31.1	-34.3	12.1	4.37e-04	0	42	0	538968064	23	5186
2026-01-11 01:15:34.00	331.69	42.77	-30.9	-34.1	12.7	9.53e-05	0	42	0	541065216	22	5215
2026-01-11 01:15:35.01	331.25	42.92	-30.9	-34.0	12.7	9.38e-05	0	42	0	542113792	22	5174
2026-01-11 01:15:36.02	330.81	43.07	-30.5	-33.7	13.0	5.87e-05	0	42	0	544210944	21	5159
2026-01-11 01:15:37.02	330.37	43.21	-30.5	-33.9	13.3	1.67e-05	0	42	0	546308096	20	5374
2026-01-11 01:15:38.03	329.92	43.36	-30.4	-33.7	13.5	9.90e-06	0	42	0	548405248	20	5287
2026-01-11 01:15:39.03	329.47	43.50	-30.0	-33.1	14.2	5.30e-06	0	42	0	550502400	19	5175
2026-01-11 01:15:40.04	329.01	43.64	-29.8	-32.6	14.6	1.70e-03	0	42	0	551550976	19	4971
2026-01-11 01:15:41.04	328.56	43.78	-29.8	-32.5	14.7	0.00e+00	0	42	0	553648128	19	4936
2026-01-11 01:15:42.04	328.09	43.92	-29.9	-33.0	14.4	7.00e-07	0	42	0	555745280	19	5105
2026-01-11 01:15:43.04	327.63	44.05	-29.9	-32.9	14.4	0.00e+00	0	42	0	557842432	19	5087
2026-01-11 01:15:44.05	327.15	44.19	-30.1	-32.9	14.1	0.00e+00	0	42	0	559939584	20	4970
2026-01-11 01:15:45.05	326.68	44.32	-30.4	-33.7	13.6	3.00e-06	0	42	0	560988160	20	5265
2026-01-11 01:15:46.06	326.20	44.45	-30.1	-32.9	14.0	6.10e-06	0	42	0	563085312	20	4981
2026-01-11 01:15:47.06	325.72	44.58	-29.9	-32.5	14.3	0.00e+00	0	42	0	565182464	20	4853
2026-01-11 01:15:48.07	325.23	44.71	-29.8	-32.6	14.6	2.20e-06	0	42	0	567279616	19	4978
2026-01-11 01:15:49.08	324.73	44.83	-29.5	-31.9	15.0	0.00e+00	0	42	0	569376768	19	4751
2026-01-11 01:15:50.08	324.24	44.96	-29.3	-32.0	15.3	6.33e-05	0	42	0	570425344	18	4877
2026-01-11 01:15:51.08	323.74	45.08	-29.5	-32.3	15.1	7.70e-05	0	42	0	572522496	18	4990
2026-01-11 01:15:52.09	323.24	45.20	-29.8	-32.6	14.7	0.00e+00	0	42	0	574619648	19	4967
2026-01-11 01:15:53.09	322.73	45.31	-30.2	-33.3	13.8	4.73e-05	0	42	0	576716800	20	5123
2026-01-11 01:15:54.10	322.22	45.43	-30.6	-33.8	13.2	1.68e-03	0	42	0	578813952	21	5221
2026-01-11 01:15:55.10	321.71	45.54	-30.7	-34.2	12.9	4.80e-05	0	42	0	579862528	21	5379
2026-01-11 01:15:56.11	321.19	45.65	-30.7	-34.3	12.8	5.11e-05	0	42	0	581959680	21	5396
2026-01-11 01:15:57.11	320.67	45.76	-30.8	-34.3	12.8	2.03e-03	0	42	0	584056832	21	5415
2026-01-11 01:15:58.12	320.14	45.86	-30.7	-34.1	13.0	2.09e-03	0	42	0	586153984	21	5316
2026-01-11 01:15:59.12	319.61	45.97	-30.6	-33.9	13.1	5.11e-05	0	42	0	588251136	21	5230
2026-01-11 01:16:00.13	319.08	46.07	-30.7	-34.1	12.9	1.79e-03	0	42	0	589299712	21	5324
2026-01-11 01:16:01.13	318.54	46.17	-30.5	-33.5	13.4	1.38e-03	0	42	0	591396864	21	5104
2026-01-11 01:16:02.14	318.00	46.26	-30.5	-33.5	13.3	1.60e-05	0	42	0	593494016	21	5105
2026-01-11 01:16:03.14	317.46	46.36	-30.7	-34.1	13.0	3.35e-05	0	42	0	595591168	21	5320
2026-01-11 01:16:04.15	316.91	46.45	-30.9	-34.7	12.6	8.77e-05	0	42	0	596639744	21	5548
2026-01-11 01:16:05.16	316.36	46.53	-31.0	-34.5	12.4	1.76e-04	0	42	0	598736896	22	5358
2026-01-11 01:16:06.16	315.81	46.62	-31.0	-34.6	12.4	1.38e-04	0	42	0	600834048	22	5393
2026-01-11 01:16:07.17	315.25	46.70	-31.1	-34.8	12.2	7.39e-04	0	42	0	602931200	22	5514
2026-01-11 01:16:08.18	314.69	46.78	-31.4	-35.6	11.7	5.27e-04	0	42	0	605028352	22	5833
2026-01-11 01:16:09.18	314.14	46.86	-31.6	-35.7	11.1	2.72e-03	0	42	0	607125504	23	5819
2026-01-11 01:16:10.19	313.57	46.93	-31.5	-35.6	11.3	3.01e-03	0	42	0	608174080	23	5764
2026-01-11 01:16:11.19	313.01	47.00	-31.4	-35.2	11.6	1.01e-03	0	42	0	610271232	23	5566
2026-01-11 01:16:12.20	312.44	47.07	-31.5	-35.5	11.3	2.91e-03	0	42	0	612368384	23	5710
2026-01-11 01:16:13.20	311.87	47.14	-31.6	-35.9	11.0	3.84e-03	0	42	0	614465536	23	5890
2026-01-11 01:16:14.21	311.29	47.20	-31.7	-36.0	11.0	2.09e-03	0	42	0	615514112	23	5929
2026-01-11 01:16:15.21	310.72	47.26	-31.5	-35.6	11.3	4.27e-03	0	42	0	617611264	23	5725
2026-01-11 01:16:16.21	310.14	47.31	-31.4	-35.5	11.7	3.02e-03	0	42	0	619708416	22	5787
2026-01-11 01:16:17.22	309.56	47.36	-31.1	-34.8	12.2	6.54e-04	0	42	0	621805568	22	5497
2026-01-11 01:16:18.22	308.98	47.41	-31.2	-34.9	12.0	1.05e-03	0	42	0	623902720	22	5543
2026-01-11 01:16:19.23	308.40	47.46	-31.4	-35.6	11.7	1.46e-03	0	42	0	624951296	22	5849
2026-01-11 01:16:20.24	307.81	47.50	-31.4	-35.6	11.7	5.84e-04	0	42	0	627048448	22	5840
2026-01-11 01:16:21.24	307.22	47.54	-31.5	-35.9	11.5	2.29e-03	0	42	0	629145600	22	6008
2026-01-11 01:16:22.24	306.64	47.58	-31.6	-35.7	11.2	2.82e-03	0	42	0	631242752	23	5788
2026-01-11 01:16:23.25	306.05	47.61	-31.8	-36.6	10.5	3.67e-03	0	42	0	633339904	23	6208
2026-01-11 01:16:24.26	305.45	47.64	-32.0	-36.7	10.1	6.63e-03	0	42	0	634388480	24	6161
2026-01-11 01:16:25.26	304.86	47.67	-31.8	-36.1	10.5	5.62e-03	0	42	0	636485632	24	5863
2026-01-11 01:16:26.26	304.27	47.69	-31.8	-36.0	10.6	4.01e-03	0	42	0	638582784	24	5836
2026-01-11 01:16:27.26	303.68	47.71	-31.7	-35.7	10.8	2.88e-03	0	42	0	640679936	24	5681
2026-01-11 01:16:28.27	303.09	47.73	-31.7	-35.7	10.9	3.26e-03	0	42	0	642777088	24	5662
2026-01-11 01:16:29.27	302.49	47.74	-31.8	-35.9	10.7	2.38e-03	0	42	0	643825664	24	5756
2026-01-11 01:16:30.28	301.90	47.75	-32.0	-36.5	10.2	6.57e-03	0	42	0	645922816	24	6069
2026-01-11 01:16:31.29	301.30	47.76	-31.7	-35.7	10.8	3.05e-03	0	42	0	648019968	24	5701
2026-01-11 01:16:32.28	300.71	47.76	-31.5	-34.8	11.5	1.71e-03	0	42	0	650117120	24	5298
2026-01-11 01:16:33.29	300.11	47.76	-31.2	-34.6	11.9	4.42e-04	0	42	0	652214272	23	5295
2026-01-11 01:16:34.29	299.52	47.76	-31.2	-34.4	12.1	2.76e-04	0	42	0	653262848	23	5218
2026-01-11 01:16:35.30	298.92	47.75	-31.3	-34.7	11.9	2.88e-04	0	42	0	655360000	23	5346
2026-01-11 01:16:36.30	298.33	47.74	-31.5	-35.3	11.5	5.27e-04	0	42	0	657457152	23	5609
2026-01-11 01:16:37.31	297.73	47.73	-31.5	-35.5	11.3	1.01e-03	0	42	0	659554304	23	5718
2026-01-11 01:16:38.32	297.13	47.71	-31.5	-35.4	11.4	9.25e-04	0	42	0	661651456	23	5646
2026-01-11 01:16:39.32	296.54	47.69	-31.4	-35.2	11.5	9.41e-04	0	42	0	662700032	23	5553
2026-01-11 01:16:40.33	295.95	47.67	-31.5	-35.6	11.3	9.50e-04	0	42	0	664797184	23	5759
2026-01-11 01:16:41.34	295.35	47.64	-31.6	-35.8	11.0	1.93e-03	0	42	0	666894336	23	5834
2026-01-11 01:16:42.34	294.76	47.61	-31.6	-35.8	11.1	2.40e-03	0	42	0	668991488	23	5868
2026-01-11 01:16:43.35	294.17	47.57	-31.5	-35.6	11.1	1.87e-03	0	42	0	671088640	23	5758
2026-01-11 01:16:44.35	293.59	47.54	-31.2	-34.6	11.9	5.69e-04	0	42	0	672137216	23	5332
2026-01-11 01:16:45.36	293.00	47.50	-31.0	-34.4	12.4	2.10e-04	0	42	0	674234368	22	5333
2026-01-11 01:16:46.36	292.41	47.45	-30.9	-34.3	12.5	4.52e-04	0	42	0	676331520	22	5287
2026-01-11 01:16:47.37	291.83	47.41	-31.2	-34.9	12.0	1.83e-04	0	42	0	678428672	22	5546
2026-01-11 01:16:48.37	291.25	47.36	-31.3	-35.4	11.8	4.43e-04	0	42	0	680525824	22	5750
2026-01-11 01:16:49.38	290.67	47.30	-31.3	-35.5	11.6	6.74e-04	0	42	0	681574400	22	5817
2026-01-11 01:16:50.38	290.09	47.25	-31.4	-35.8	11.5	7.01e-04	0	42	0	683671552	22	5950
2026-01-11 01:16:51.39	289.51	47.19	-31.6	-35.8	11.0	1.22e-03	0	42	0	685768704	23	5849
2026-01-11 01:16:52.39	288.94	47.13	-31.6	-35.9	11.0	2.71e-03	0	42	0	687865856	23	5871
2026-01-11 01:16:53.40	288.37	47.06	-31.3	-34.8	11.8	5.52e-04	0	42	0	689963008	23	5393
2026-01-11 01:16:54.40	287.80	46.99	-31.1	-34.8	12.2	4.09e-04	0	42	0	691011584	22	5489
2026-01-11 01:16:55.41	287.23	46.92	-31.2	-35.2	11.9	3.19e-04	0	42	0	693108736	22	5680
2026-01-11 01:16:56.42	286.67	46.85	-31.3	-35.4	11.7	5.80e-04	0	42	0	695205888	22	5778
2026-01-11 01:16:57.42	286.11	46.77	-31.6	-35.7	11.2	8.87e-04	0	42	0	697303040	23	5813
2026-01-11 01:16:58.43	285.55	46.69	-31.7	-36.2	10.8	2.39e-03	0	42	0	699400192	23	6037
2026-01-11 01:16:59.43	284.99	46.61	-31.8	-36.6	10.5	2.86e-03	0	42	0	700448768	23	6221
2026-01-11 01:17:00.43	284.44	46.52	-31.7	-36.3	10.7	3.72e-03	0	42	0	702545920	23	6081
2026-01-11 01:17:01.44	283.89	46.43	-31.6	-35.7	11.1	2.08e-03	0	42	0	704643072	23	5795
2026-01-11 01:17:02.44	283.35	46.34	-31.5	-35.4	11.3	1.63e-03	0	42	0	706740224	23	5672
2026-01-11 01:17:03.45	282.80	46.25	-31.2	-34.6	11.9	4.20e-04	0	42	0	708837376	23	5313
2026-01-11 01:17:04.45	282.27	46.15	-31.1	-34.8	12.1	2.58e-04	0	42	0	709885952	22	5488
2026-01-11 01:17:05.46	281.73	46.05	-31.1	-34.8	12.1	2.82e-04	0	42	0	711983104	22	5502
2026-01-11 01:17:06.46	281.20	45.95	-30.2	-34.2	11.7	2.70e-04	0	42	0	714080256	22	5713
2026-01-11 01:17:07.47	280.67	45.85	-31.4	-35.2	11.4	1.02e-03	0	42	0	716177408	23	5589
2026-01-11 01:17:08.47	280.14	45.74	-31.3	-35.4	11.7	8.44e-04	0	42	0	718274560	22	5758
2026-01-11 01:17:09.48	279.62	45.64	-31.3	-35.3	11.8	5.33e-04	0	42	0	719323136	22	5730
2026-01-11 01:17:10.48	279.10	45.52	-31.3	-35.4	11.7	5.72e-04	0	42	0	721420288	22	5794
2026-01-11 01:17:11.49	278.58	45.41	-31.3	-35.3	11.7	7.53e-04	0	42	0	723517440	22	5750
2026-01-11 01:17:12.49	278.08	45.30	-31.0	-34.6	12.3	3.65e-04	0	42	0	725614592	22	5447
2026-01-11 01:17:13.50	277.57	45.18	-30.8	-33.8	12.8	1.22e-04	0	42	0	726663168	22	5111
2026-01-11 01:17:14.51	277.06	45.06	-30.6	-33.9	13.0	3.81e-05	0	42	0	728760320	21	5239
2026-01-11 01:17:15.52	276.56	44.94	-30.4	-33.8	13.4	1.75e-05	0	42	0	730857472	20	5321
2026-01-11 01:17:16.52	276.06	44.81	-30.3	-33.5	13.6	1.44e-05	0	42	0	732954624	20	5216
2026-01-11 01:17:17.53	275.57	44.69	-30.3	-33.7	13.5	5.23e-04	0	42	0	735051776	20	5282
2026-01-11 01:17:18.53	275.08	44.56	-30.4	-33.8	13.3	1.44e-05	0	42	0	737148928	20	5328
2026-01-11 01:17:19.54	274.60	44.43	-30.4	-33.9	13.3	1.37e-05	0	42	0	738197504	20	5355
2026-01-11 01:17:20.54	274.12	44.30	-30.4	-33.8	13.4	2.68e-04	0	42	0	740294656	20	5337
2026-01-11 01:17:21.55	273.64	44.16	-30.4	-33.9	13.3	1.83e-05	0	42	0	742391808	20	5384
2026-01-11 01:17:22.56	273.16	44.03	-30.2	-32.9	13.7	1.67e-05	0	42	0	744488960	21	4872
2026-01-11 01:17:23.56	272.70	43.89	-29.7	-32.5	14.6	1.53e-03	0	42	0	745537536	19	4949
2026-01-11 01:17:24.56	272.24	43.75	-29.1	-31.5	15.5	1.72e-03	0	42	0	747634688	18	4728
2026-01-11 01:17:25.57	271.77	43.61	-28.9	-30.9	15.9	0.00e+00	0	42	0	749731840	18	4529
2026-01-11 01:17:26.58	271.32	43.47	-28.9	-31.5	15.8	2.19e-03	0	42	0	751828992	17	4837
2026-01-11 01:17:27.59	270.86	43.33	-29.3	-32.0	15.2	2.31e-03	0	42	0	753926144	18	4899
2026-01-11 01:17:28.58	270.42	43.19	-29.5	-31.9	14.9	0.00e+00	0	42	0	754974720	19	4759
2026-01-11 01:17:29.59	269.97	43.04	-29.6	-32.2	14.8	0.00e+00	0	42	0	757071872	19	4848
2026-01-11 01:17:30.60	269.53	42.89	-29.3	-31.9	15.3	2.18e-03	0	42	0	759169024	18	4847
2026-01-11 01:17:31.61	269.09	42.74	-29.0	-31.2	15.7	0.00e+00	0	42	0	761266176	18	4627
2026-01-11 01:17:32.61	268.66	42.59	-28.7	-31.0	16.0	0.00e+00	0	42	0	763363328	17	4693
2026-01-11 01:17:33.62	268.23	42.44	-28.7	-30.9	16.1	2.10e-03	0	42	0	765460480	17	4661
2026-01-11 01:17:34.62	267.81	42.29	-28.8	-31.1	16.0	1.50e-06	0	42	0	766509056	17	4711
2026-01-11 01:17:35.63	267.39	42.14	-29.0	-31.6	15.7	1.86e-03	0	42	0	768606208	17	4862
2026-01-11 01:17:36.63	266.98	41.98	-29.2	-31.6	15.5	1.99e-03	0	42	0	770703360	18	4754
2026-01-11 01:17:37.64	266.56	41.83	-29.4	-32.2	15.1	1.77e-04	0	42	0	772800512	18	4953
2026-01-11 01:17:38.65	266.15	41.67	-29.3	-31.8	15.2	2.18e-03	0	42	0	773849088	18	4831
2026-01-11 01:17:39.65	265.75	41.51	-29.2	-31.6	15.4	2.01e-03	0	42	0	775946240	18	4767
2026-01-11 01:17:40.65	265.35	41.36	-28.8	-31.2	15.9	3.70e-04	0	42	0	778043392	17	4754
2026-01-11 01:17:41.65	264.96	41.20	-28.8	-31.1	16.0	1.99e-03	0	42	0	780140544	17	4714
2026-01-11 01:17:42.66	264.56	41.04	-28.9	-31.5	15.8	2.29e-03	0	42	0	782237696	17	4827
2026-01-11 01:17:43.67	264.17	40.87	-29.2	-31.6	15.4	3.74e-04	0	42	0	783286272	18	4779
2026-01-11 01:17:44.67	263.79	40.71	-29.2	-31.7	15.3	2.45e-03	0	42	0	785383424	18	4798
2026-01-11 01:17:45.68	263.41	40.55	-29.4	-32.1	15.1	2.77e-03	0	42	0	787480576	18	4935
2026-01-11 01:17:46.68	263.03	40.39	-29.4	-32.3	15.1	4.23e-04	0	42	0	789577728	18	4980
2026-01-11 01:17:47.68	262.66	40.23	-29.5	-31.9	14.9	2.33e-03	0	42	0	791674880	19	4750
2026-01-11 01:17:48.69	262.29	40.06	-29.5	-31.8	14.9	2.48e-03	0	42	0	792723456	19	4730
2026-01-11 01:17:49.70	261.92	39.90	-29.6	-32.2	14.7	8.62e-05	0	42	0	794820608	19	4844
2026-01-11 01:17:50.70	261.56	39.73	-29.6	-32.1	14.8	0.00e+00	0	42	0	796917760	19	4828
2026-01-11 01:17:51.71	261.20	39.56	-29.6	-32.2	14.7	2.62e-03	0	42	0	799014912	19	4843
2026-01-11 01:17:52.71	260.85	39.40	-29.6	-32.3	14.7	5.48e-04	0	42	0	801112064	19	4881
2026-01-11 01:17:53.72	260.50	39.23	-29.7	-32.3	14.6	0.00e+00	0	42	0	802160640	19	4903
2026-01-11 01:17:54.73	260.15	39.06	-29.7	-32.6	14.4	2.84e-03	0	42	0	804257792	19	4984
2026-01-11 01:17:55.73	259.81	38.90	-29.8	-32.7	14.4	1.37e-03	0	42	0	806354944	19	5027
2026-01-11 01:17:56.74	259.47	38.73	-29.9	-33.0	14.2	1.50e-06	0	42	0	808452096	19	5143
2026-01-11 01:17:57.74	259.13	38.56	-29.8	-32.6	14.4	5.36e-04	0	42	0	810549248	19	5009
2026-01-11 01:17:58.74	258.80	38.39	-29.6	-32.1	14.8	2.74e-04	0	42	0	811597824	19	4826
2026-01-11 01:17:59.75	258.47	38.22	-29.5	-31.9	14.9	1.78e-03	0	42	0	813694976	19	4742
2026-01-11 01:18:00.75	258.14	38.05	-29.4	-32.1	15.0	0.00e+00	0	42	0	815792128	18	4931
2026-01-11 01:18:01.76	257.82	37.88	-29.4	-31.7	15.0	0.00e+00	0	42	0	817889280	19	4700
2026-01-11 01:18:02.77	257.50	37.71	-29.6	-32.3	14.7	2.35e-03	0	42	0	819986432	19	4887
2026-01-11 01:18:03.77	257.18	37.55	-29.7	-32.5	14.5	1.50e-06	0	42	0	821035008	19	4963
2026-01-11 01:18:04.78	256.87	37.38	-29.9	-32.9	14.2	7.00e-07	0	42	0	823132160	19	5098
2026-01-11 01:18:05.79	256.56	37.20	-29.9	-33.0	14.2	2.37e-03	0	42	0	825229312	19	5131
2026-01-11 01:18:06.79	256.25	37.04	-30.0	-32.8	13.9	5.30e-06	0	42	0	827326464	20	4984
2026-01-11 01:18:07.80	255.95	36.86	-30.4	-33.8	13.3	1.22e-05	0	42	0	829423616	20	5344
2026-01-11 01:18:08.81	255.65	36.69	-30.3	-33.6	13.4	9.90e-06	0	42	0	830472192	20	5260
2026-01-11 01:18:09.81	255.35	36.52	-30.4	-33.8	13.3	2.48e-03	0	42	0	832569344	20	5357
2026-01-11 01:18:10.82	255.06	36.35	-30.6	-33.8	12.9	3.96e-05	0	42	0	834666496	21	5249
2026-01-11 01:18:11.82	254.77	36.19	-30.9	-34.7	12.4	8.01e-05	0	42	0	836763648	21	5611
2026-01-11 01:18:12.83	254.48	36.01	-30.8	-34.6	12.4	2.90e-03	0	42	0	838860800	21	5569
2026-01-11 01:18:13.83	254.19	35.85	-30.8	-34.5	12.5	1.09e-04	0	42	0	839909376	21	5515
2026-01-11 01:18:14.83	253.91	35.68	-31.0	-35.0	12.1	2.00e-04	0	42	0	842006528	21	5727
2026-01-11 01:18:15.84	253.63	35.51	-31.2	-35.1	11.7	4.96e-04	0	42	0	844103680	22	5650
2026-01-11 01:18:16.83	253.36	35.34	-31.5	-36.0	11.0	1.27e-03	0	42	0	846200832	22	6104
2026-01-11 01:18:17.84	253.09	35.17	-31.5	-35.5	11.0	2.33e-03	0	42	0	848297984	23	5768
2026-01-11 01:18:18.85	252.82	35.00	-31.2	-35.3	11.5	1.37e-03	0	42	0	849346560	22	5754
2026-01-11 01:18:19.85	252.55	34.83	-31.2	-35.1	11.7	6.87e-04	0	42	0	851443712	22	5682
2026-01-11 01:18:20.86	252.28	34.66	-31.3	-35.5	11.5	8.03e-04	0	42	0	853540864	22	5851
2026-01-11 01:18:21.85	252.03	34.50	-31.4	-35.8	11.2	1.14e-03	0	42	0	855638016	22	6001
2026-01-11 01:18:22.86	251.77	34.33	-31.5	-35.8	10.8	1.71e-03	0	42	0	857735168	23	5904
2026-01-11 01:18:23.86	251.51	34.16	-31.7	-36.4	10.4	4.04e-03	0	42	0	858783744	23	6170
2026-01-11 01:18:24.87	251.26	33.99	-31.7	-36.5	10.3	5.11e-03	0	42	0	860880896	23	6257
2026-01-11 01:18:25.87	251.01	33.82	-31.8	-36.9	10.1	5.70e-03	0	42	0	862978048	23	6437
2026-01-11 01:18:26.88	250.76	33.66	-31.8	-37.0	9.9	7.42e-03	0	42	0	865075200	23	6493
2026-01-11 01:18:27.88	250.51	33.49	-31.8	-36.7	10.2	6.54e-03	0	42	0	867172352	23	6321
2026-01-11 01:18:28.89	250.27	33.32	-31.8	-36.9	10.0	6.75e-03	0	42	0	868220928	23	6430
2026-01-11 01:18:29.90	250.02	33.16	-31.7	-36.5	10.3	7.13e-03	0	42	0	870318080	23	6255
2026-01-11 01:18:30.90	249.79	32.99	-31.8	-36.6	10.2	4.91e-03	0	42	0	872415232	23	6297
2026-01-11 01:18:31.91	249.55	32.82	-31.8	-36.7	10.2	5.91e-03	0	42	0	874512384	23	6316
2026-01-11 01:18:32.92	249.31	32.66	-31.9	-37.1	9.7	6.68e-03	0	42	0	876609536	23	6547
2026-01-11 01:18:33.93	249.08	32.49	-31.7	-36.5	10.2	6.51e-03	0	42	0	877658112	23	6260
2026-01-11 01:18:34.93	248.85	32.33	-31.7	-36.3	9.8	3.92e-03	0	42	0	879755264	23	6141
2026-01-11 01:18:35.94	248.63	32.16	-31.5	-35.8	10.5	3.21e-03	0	42	0	881852416	23	5879
2026-01-11 01:18:36.94	248.40	32.00	-31.4	-36.0	11.0	2.14e-03	0	42	0	883949568	22	6073
2026-01-11 01:18:37.94	248.18	31.84	-31.4	-35.9	11.0	1.78e-03	0	42	0	886046720	22	6055
2026-01-11 01:18:38.95	247.96	31.67	-31.3	-35.7	11.2	1.18e-03	0	42	0	887095296	22	5956
2026-01-11 01:18:39.95	247.74	31.51	-31.3	-35.7	11.2	1.22e-03	0	42	0	889192448	22	5964
2026-01-11 01:18:40.95	247.53	31.35	-31.4	-35.8	11.2	1.18e-03	0	42	0	891289600	22	5983
2026-01-11 01:18:41.96	247.32	31.19	-31.3	-35.7	11.2	1.29e-03	0	42	0	893386752	22	5951
2026-01-11 01:18:42.96	247.11	31.03	-31.3	-35.5	11.3	1.07e-03	0	42	0	895483904	22	5881
2026-01-11 01:18:43.96	246.90	30.87	-31.2	-35.3	11.5	3.90e-03	0	42	0	896532480	22	5781
2026-01-11 01:18:44.97	246.69	30.71	-31.1	-34.9	11.8	4.74e-04	0	42	0	898629632	22	5606
2026-01-11 01:18:45.97	246.49	30.55	-31.1	-35.1	11.7	5.70e-04	0	42	0	900726784	22	5681
2026-01-11 01:18:46.98	246.28	30.39	-30.8	-34.7	12.2	3.69e-03	0	42	0	902823936	21	5626
2026-01-11 01:18:47.99	246.08	30.23	-30.8	-34.7	12.2	4.15e-03	0	42	0	903872512	21	5610
2026-01-11 01:18:48.99	245.88	30.07	-30.9	-34.9	12.1	2.10e-04	0	42	0	905969664	21	5704
2026-01-11 01:18:50.00	245.68	29.91	-30.9	-35.0	12.0	3.04e-04	0	42	0	908066816	21	5749
2026-01-11 01:18:51.00	245.49	29.76	-31.1	-35.0	11.7	3.88e-03	0	42	0	910163968	22	5660
2026-01-11 01:18:52.01	245.30	29.60	-31.4	-36.0	11.0	1.21e-03	0	42	0	912261120	22	6103
2026-01-11 01:18:53.00	245.11	29.44	-31.3	-35.5	11.3	1.39e-03	0	42	0	913309696	22	5888
2026-01-11 01:18:54.01	244.92	29.29	-31.3	-35.6	11.2	4.08e-03	0	42	0	915406848	22	5937
2026-01-11 01:18:55.01	244.73	29.13	-31.4	-35.9	11.0	1.62e-03	0	42	0	917504000	22	6058
2026-01-11 01:18:56.02	244.54	28.98	-31.3	-35.6	11.3	1.28e-03	0	42	0	919601152	22	5897
2026-01-11 01:18:57.02	244.36	28.82	-31.2	-35.4	11.4	2.05e-03	0	42	0	921698304	22	5806
2026-01-11 01:18:58.03	244.18	28.67	-31.1	-35.1	11.6	7.40e-04	0	42	0	922746880	22	5692
2026-01-11 01:18:59.04	244.00	28.51	-31.1	-35.0	11.7	6.26e-04	0	42	0	924844032	22	5657
2026-01-11 01:19:00.03	243.82	28.36	-31.2	-35.2	11.5	5.94e-04	0	42	0	926941184	22	5741
2026-01-11 01:19:01.04	243.64	28.21	-31.0	-34.8	11.8	6.84e-04	0	42	0	929038336	22	5542
2026-01-11 01:19:02.05	243.47	28.06	-30.8	-34.7	12.2	1.92e-03	0	42	0	931135488	21	5629
2026-01-11 01:19:03.06	243.29	27.91	-31.0	-34.8	11.8	3.62e-04	0	42	0	932184064	22	5566
2026-01-11 01:19:04.06	243.12	27.76	-31.2	-35.5	11.3	1.25e-03	0	42	0	934281216	22	5860
2026-01-11 01:19:05.06	242.95	27.61	-31.1	-35.1	11.6	2.51e-03	0	42	0	936378368	22	5699
2026-01-11 01:19:06.07	242.78	27.46	-31.0	-34.6	11.9	2.10e-03	0	42	0	938475520	22	5493
2026-01-11 01:19:07.07	242.62	27.31	-30.9	-34.6	11.9	4.71e-04	0	42	0	940572672	22	5477
2026-01-11 01:19:08.07	242.45	27.16	-30.9	-34.9	12.0	1.34e-03	0	42	0	941621248	21	5740
2026-01-11 01:19:09.07	242.29	27.01	-30.9	-35.0	11.9	7.69e-04	0	42	0	943718400	21	5781
2026-01-11 01:19:10.08	242.13	26.86	-30.9	-35.1	11.9	4.46e-04	0	42	0	945815552	21	5810
2026-01-11 01:19:11.08	241.97	26.72	-30.9	-34.9	12.0	3.44e-04	0	42	0	947912704	21	5735
2026-01-11 01:19:12.08	241.81	26.57	-30.8	-34.6	12.2	5.65e-04	0	42	0	950009856	21	5596
2026-01-11 01:19:13.09	241.65	26.43	-30.6	-34.2	12.5	1.64e-04	0	42	0	951058432	21	5433
2026-01-11 01:19:14.10	241.49	26.28	-30.6	-34.1	12.6	1.12e-04	0	42	0	953155584	21	5366
2026-01-11 01:19:15.10	241.34	26.14	-30.5	-33.7	12.8	8.00e-04	0	42	0	955252736	21	5226
2026-01-11 01:19:16.11	241.18	25.99	-30.5	-34.2	12.8	5.95e-05	0	42	0	957349888	20	5553
2026-01-11 01:19:17.12	241.03	25.85	-30.8	-34.7	12.2	1.09e-04	0	42	0	959447040	21	5622
2026-01-11 01:19:18.12	240.88	25.70	-31.1	-35.0	11.6	2.92e-03	0	42	0	960495616	22	5657
2026-01-11 01:19:19.13	240.73	25.56	-30.7	-34.2	12.5	7.88e-04	0	42	0	962592768	21	5425
2026-01-11 01:19:20.14	240.58	25.42	-30.5	-33.7	12.8	2.09e-03	0	42	0	964689920	21	5234
2026-01-11 01:19:21.15	240.43	25.28	-30.4	-33.9	13.0	2.48e-03	0	42	0	966787072	20	5406
2026-01-11 01:19:22.15	240.29	25.13	-30.3	-33.9	13.0	3.87e-04	0	42	0	968884224	20	5399
2026-01-11 01:19:23.14	240.15	25.00	-30.3	-33.7	13.1	2.17e-03	0	42	0	969932800	20	5343
2026-01-11 01:19:24.15	240.00	24.86	-30.2	-33.6	13.2	5.72e-05	0	42	0	972029952	20	5287
2026-01-11 01:19:25.15	239.86	24.72	-30.4	-34.1	12.9	2.17e-04	0	42	0	974127104	20	5501
2026-01-11 01:19:26.16	239.72	24.58	-30.4	-34.0	12.9	1.70e-03	0	42	0	976224256	20	5450
2026-01-11 01:19:27.17	239.58	24.44	-30.5	-34.0	12.6	8.77e-05	0	42	0	978321408	21	5340
2026-01-11 01:19:28.17	239.44	24.30	-30.7	-34.4	12.3	1.98e-04	0	42	0	979369984	21	5504
2026-01-11 01:19:29.18	239.31	24.16	-30.5	-33.9	12.6	8.63e-04	0	42	0	981467136	21	5316
2026-01-11 01:19:30.18	239.17	24.03	-30.7	-34.4	12.3	8.38e-04	0	42	0	983564288	21	5496
2026-01-11 01:19:31.19	239.04	23.89	-30.6	-34.0	12.5	3.33e-04	0	42	0	985661440	21	5371
2026-01-11 01:19:32.20	238.90	23.75	-30.4	-34.1	12.9	6.67e-04	0	42	0	987758592	20	5482
2026-01-11 01:19:33.21	238.77	23.62	-30.5	-34.3	12.7	1.40e-03	0	42	0	988807168	20	5580
2026-01-11 01:19:34.22	238.64	23.48	-30.4	-33.9	12.9	1.11e-04	0	42	0	990904320	20	5437
2026-01-11 01:19:35.22	238.51	23.35	-30.3	-33.8	13.0	4.80e-05	0	42	0	993001472	20	5398
2026-01-11 01:19:36.23	238.38	23.22	-30.3	-33.7	13.1	2.37e-03	0	42	0	995098624	20	5326
2026-01-11 01:19:37.23	238.26	23.08	-30.2	-33.6	13.1	2.97e-05	0	42	0	997195776	20	5289
2026-01-11 01:19:38.24	238.13	22.95	-30.1	-33.1	13.4	1.98e-05	0	42	0	998244352	20	5115
2026-01-11 01:19:39.25	238.00	22.82	-30.0	-32.8	13.6	3.50e-03	0	42	0	1000341504	20	5012
2026-01-11 01:19:40.25	237.88	22.69	-29.9	-32.8	13.7	1.60e-03	0	42	0	1002438656	20	4984
2026-01-11 01:19:41.25	237.76	22.56	-30.0	-32.9	13.5	1.44e-05	0	42	0	1004535808	20	5048
2026-01-11 01:19:42.26	237.64	22.43	-29.9	-32.6	13.7	1.66e-03	0	42	0	1005584384	20	4949
2026-01-11 01:19:43.27	237.51	22.30	-30.0	-33.4	13.7	2.03e-03	0	42	0	1007681536	19	5315
2026-01-11 01:19:44.27	237.39	22.17	-30.0	-33.0	13.5	2.67e-05	0	42	0	1009778688	20	5074
2026-01-11 01:19:45.28	237.28	22.04	-30.0	-33.0	13.4	1.80e-03	0	42	0	1011875840	20	5097
2026-01-11 01:19:46.28	237.16	21.91	-30.1	-33.1	13.4	1.56e-03	0	42	0	1013972992	20	5131
2026-01-11 01:19:47.29	237.04	21.78	-30.1	-33.2	13.3	2.36e-05	0	42	0	1016070144	20	5169
2026-01-11 01:19:48.29	236.93	21.66	-30.0	-33.1	13.4	1.52e-05	0	42	0	1017118720	20	5104
2026-01-11 01:19:49.29	236.81	21.53	-30.0	-33.1	13.4	1.25e-03	0	42	0	1019215872	20	5131
2026-01-11 01:19:50.30	236.70	21.40	-30.1	-33.2	13.3	2.09e-04	0	42	0	1021313024	20	5142
2026-01-11 01:19:51.30	236.58	21.28	-30.0	-33.0	13.4	1.37e-05	0	42	0	1023410176	20	5088
2026-01-11 01:19:52.30	236.47	21.15	-30.1	-33.1	13.4	1.44e-05	0	42	0	1024458752	20	5130
2026-01-11 01:19:53.30	236.36	21.03	-30.1	-33.3	13.2	2.13e-05	0	42	0	1026555904	20	5194
2026-01-11 01:19:54.31	236.25	20.91	-30.1	-33.3	13.3	1.98e-05	0	42	0	1028653056	20	5187
2026-01-11 01:19:55.32	236.14	20.78	-30.2	-33.5	13.1	3.73e-05	0	42	0	1030750208	20	5272
2026-01-11 01:19:56.32	236.03	20.66	-30.0	-33.1	13.3	2.74e-05	0	42	0	1032847360	20	5126
2026-01-11 01:19:57.33	235.93	20.54	-30.2	-33.4	13.1	2.28e-05	0	42	0	1033895936	20	5241
2026-01-11 01:19:58.34	235.82	20.41	-30.1	-33.4	13.2	2.51e-05	0	42	0	1035993088	20	5228
2026-01-11 01:19:59.34	235.71	20.29	-30.1	-33.3	13.2	2.13e-05	0	42	0	1038090240	20	5195
2026-01-11 01:20:00.35	235.61	20.17	-30.1	-33.3	13.2	5.54e-04	0	42	0	1040187392	20	5205
2026-01-11 01:20:01.36	235.50	20.05	-30.2	-33.4	13.1	2.36e-05	0	42	0	1042284544	20	5257
2026-01-11 01:20:02.37	235.40	19.93	-30.1	-33.4	13.1	2.74e-05	0	42	0	1044381696	20	5228
2026-01-11 01:20:03.37	235.30	19.81	-30.2	-33.5	13.1	2.67e-05	0	42	0	1045430272	20	5285
2026-01-11 01:20:04.37	235.20	19.69	-30.2	-33.6	13.0	3.43e-05	0	42	0	1047527424	20	5317
2026-01-11 01:20:05.38	235.09	19.57	-30.2	-33.6	13.0	5.79e-05	0	42	0	1049624576	20	5318
2026-01-11 01:20:06.39	234.99	19.45	-30.1	-33.2	13.2	1.60e-05	0	42	0	1051721728	20	5183
2026-01-11 01:20:07.39	234.89	19.33	-29.5	-32.8	13.0	3.89e-05	0	42	0	1052770304	20	5295
2026-01-11 01:20:08.39	234.80	19.22	-29.0	-32.4	12.9	3.73e-05	0	42	0	1054867456	20	5303
2026-01-11 01:20:09.40	234.70	19.10	-30.1	-33.4	12.7	3.58e-05	0	42	0	1056964608	20	5248
2026-01-11 01:20:10.41	234.60	18.98	-30.2	-33.7	12.0	3.81e-05	0	42	0	1059061760	20	5400
2026-01-11 01:20:11.42	234.50	18.87	-30.3	-33.9	12.7	7.85e-05	0	42	0	1061158912	20	5458
2026-01-11 01:20:12.42	234.41	18.75	-30.2	-33.7	12.8	6.25e-05	0	42	0	1062207488	20	5384
2026-01-11 01:20:13.43	234.31	18.63	-30.2	-33.8	12.8	6.25e-05	0	42	0	1064304640	20	5407
2026-01-11 01:20:14.43	234.22	18.52	-30.4	-34.1	12.6	2.94e-03	0	42	0	1066401792	20	5536
2026-01-11 01:20:15.44	234.13	18.41	-30.3	-34.0	12.6	9.46e-05	0	42	0	1068498944	20	5491
2026-01-11 01:20:16.44	234.03	18.29	-30.2	-33.7	12.8	6.71e-05	0	42	0	1070596096	20	5392
2026-01-11 01:20:17.45	233.94	18.18	-30.2	-33.7	12.9	2.74e-03	0	42	0	1071644672	20	5371
2026-01-11 01:20:18.46	233.85	18.07	-30.2	-33.5	12.9	5.03e-05	0	42	0	1073741824	20	5309
2026-01-11 01:20:19.45	233.76	17.95	-30.2	-33.8	12.8	5.18e-05	0	42	0	1075838976	20	5405
2026-01-11 01:20:20.46	233.67	17.84	-30.2	-33.8	12.8	8.77e-05	0	42	0	1077936128	20	5402
2026-01-11 01:20:21.46	233.58	17.73	-30.1	-33.5	12.9	2.29e-04	0	42	0	1080033280	20	5301
2026-01-11 01:20:22.47	233.49	17.62	-30.1	-33.3	13.0	3.66e-05	0	42	0	1081081856	20	5233
2026-01-11 01:20:23.48	233.41	17.51	-30.1	-33.4	12.9	4.19e-05	0	42	0	1083179008	20	5271
2026-01-11 01:20:24.48	233.32	17.40	-30.1	-33.4	13.0	3.66e-05	0	42	0	1085276160	20	5272
2026-01-11 01:20:25.49	233.23	17.29	-30.2	-33.5	12.9	3.58e-05	0	42	0	1087373312	20	5321
2026-01-11 01:20:26.49	233.15	17.18	-30.2	-33.6	12.9	4.73e-05	0	42	0	1089470464	20	5332
2026-01-11 01:20:27.50	233.06	17.07	-30.2	-33.6	12.8	5.56e-05	0	42	0	1090519040	20	5354
2026-01-11 01:20:28.51	232.98	16.96	-30.2	-33.7	12.7	1.94e-03	0	42	0	1092616192	20	5374
2026-01-11 01:20:29.52	232.89	16.85	-30.2	-33.7	12.7	7.93e-05	0	42	0	1094713344	20	5391
2026-01-11 01:20:30.52	232.81	16.74	-30.3	-34.0	12.6	9.53e-05	0	42	0	1096810496	20	5507
2026-01-11 01:20:31.53	232.73	16.64	-30.3	-34.0	12.5	2.49e-03	0	42	0	1098907648	20	5515
2026-01-11 01:20:32.53	232.64	16.53	-30.3	-34.1	12.4	2.71e-03	0	42	0	1099956224	20	5580
2026-01-11 01:20:33.54	232.56	16.42	-30.3	-34.1	12.4	1.45e-04	0	42	0	1102053376	20	5562
2026-01-11 01:20:34.54	232.48	16.32	-30.3	-34.1	12.4	2.83e-03	0	42	0	1104150528	20	5578
2026-01-11 01:20:35.55	232.40	16.21	-30.3	-34.1	12.4	2.90e-03	0	42	0	1106247680	20	5569
2026-01-11 01:20:36.56	232.32	16.11	-30.3	-34.2	12.4	1.59e-04	0	42	0	1108344832	20	5583
2026-01-11 01:20:37.56	232.24	16.00	-30.4	-34.4	12.2	2.79e-03	0	42	0	1109393408	20	5671
2026-01-11 01:20:38.56	232.16	15.90	-30.4	-34.2	12.3	2.67e-03	0	42	0	1111490560	20	5616
2026-01-11 01:20:39.57	232.09	15.79	-30.4	-34.5	12.1	2.03e-04	0	42	0	1113587712	20	5723
2026-01-11 01:20:40.58	232.01	15.69	-30.4	-33.9	12.2	2.90e-03	0	42	0	1115684864	21	5355
2026-01-11 01:20:41.59	231.93	15.58	-30.3	-34.1	12.4	3.07e-03	0	42	0	1117782016	20	5572
2026-01-11 01:20:42.59	231.86	15.48	-30.3	-34.0	12.4	1.73e-04	0	42	0	1118830592	20	5521
2026-01-11 01:20:43.59	231.78	15.38	-30.4	-34.3	12.2	2.93e-03	0	42	0	1120927744	20	5662
2026-01-11 01:20:44.59	231.70	15.28	-30.5	-34.2	11.9	3.18e-03	0	42	0	1123024896	21	5520
2026-01-11 01:20:45.60	231.63	15.18	-30.7	-34.7	11.6	6.20e-04	0	42	0	1125122048	21	5713
2026-01-11 01:20:46.61	231.56	15.07	-30.7	-34.8	11.5	3.65e-03	0	42	0	1127219200	21	5792
2026-01-11 01:20:47.61	231.48	14.97	-30.8	-35.0	11.4	3.71e-03	0	42	0	1128267776	21	5870
2026-01-11 01:20:48.61	231.41	14.87	-30.8	-35.0	11.3	1.27e-03	0	42	0	1130364928	21	5862
2026-01-11 01:20:49.62	231.34	14.77	-30.7	-34.9	11.4	3.72e-03	0	42	0	1132462080	21	5800
2026-01-11 01:20:50.62	231.26	14.67	-30.6	-34.6	11.6	7.90e-04	0	42	0	1134559232	21	5700
2026-01-11 01:20:51.63	231.19	14.57	-30.7	-34.8	11.4	8.94e-04	0	42	0	1136656384	21	5792
2026-01-11 01:20:52.63	231.12	14.47	-30.7	-34.8	11.5	3.70e-03	0	42	0	1137704960	21	5777
2026-01-11 01:20:53.64	231.05	14.37	-30.9	-35.5	11.0	4.06e-03	0	42	0	1139802112	21	6123
2026-01-11 01:20:54.65	230.98	14.27	-30.7	-34.9	11.3	1.67e-03	0	42	0	1141899264	21	5825
2026-01-11 01:20:55.66	230.91	14.18	-30.6	-34.4	11.7	3.55e-03	0	42	0	1143996416	21	5604
2026-01-11 01:20:56.66	230.84	14.08	-30.5	-34.1	11.9	3.01e-03	0	42	0	1146093568	21	5480
2026-01-11 01:20:57.67	230.77	13.98	-30.3	-33.7	12.2	2.31e-04	0	42	0	1147142144	21	5310
2026-01-11 01:20:58.67	230.70	13.88	-30.3	-34.2	12.2	2.75e-03	0	42	0	1149239296	20	5647
2026-01-11 01:20:59.67	230.64	13.79	-30.3	-34.3	12.1	3.07e-03	0	42	0	1151336448	20	5644
2026-01-11 01:21:00.68	230.57	13.69	-30.2	-33.9	12.4	1.60e-04	0	42	0	1153433600	20	5520
2026-01-11 01:21:01.68	230.50	13.59	-30.3	-34.0	12.3	1.62e-04	0	42	0	1155530752	20	5548
2026-01-11 01:21:02.68	230.44	13.50	-30.3	-34.1	12.2	2.99e-03	0	42	0	1156579328	20	5573
2026-01-11 01:21:03.69	230.37	13.40	-30.3	-34.3	12.1	5.10e-04	0	42	0	1158676480	20	5674
2026-01-11 01:21:04.69	230.30	13.31	-30.3	-34.3	12.0	3.58e-04	0	42	0	1160773632	20	5696
2026-01-11 01:21:05.69	230.24	13.21	-30.3	-34.1	12.2	2.83e-03	0	42	0	1162870784	20	5591
2026-01-11 01:21:06.70	230.17	13.12	-30.3	-34.2	12.1	5.70e-04	0	42	0	1163919360	20	5649
2026-01-11 01:21:07.71	230.11	13.02	-30.4	-34.6	11.8	3.78e-04	0	42	0	1166016512	20	5824
2026-01-11 01:21:08.72	230.05	12.93	-30.4	-34.6	11.8	4.74e-04	0	42	0	1168113664	20	5840
2026-01-11 01:21:09.72	229.98	12.84	-30.5	-34.4	11.6	1.08e-03	0	42	0	1170210816	21	5630
2026-01-11 01:21:10.73	229.92	12.74	-30.6	-34.6	11.4	8.57e-04	0	42	0	1172307968	21	5727
2026-01-11 01:21:11.73	229.86	12.65	-30.6	-34.6	11.4	9.02e-04	0	42	0	1174405120	21	5731
2026-01-11 01:21:12.74	229.79	12.56	-30.7	-34.9	11.3	1.09e-03	0	42	0	1175453696	21	5847
2026-01-11 01:21:13.75	229.73	12.47	-30.7	-35.0	11.1	4.19e-03	0	42	0	1177550848	21	5923
2026-01-11 01:21:14.75	229.67	12.37	-30.7	-35.0	11.1	1.51e-03	0	42	0	1179648000	21	5895
2026-01-11 01:21:15.76	229.61	12.28	-30.8	-35.2	11.0	1.78e-03	0	42	0	1181745152	21	5987
2026-01-11 01:21:16.77	229.55	12.19	-30.9	-35.6	10.7	5.15e-03	0	42	0	1183842304	21	6170
2026-01-11 01:21:17.78	229.49	12.10	-30.8	-35.2	11.0	1.89e-03	0	42	0	1184890880	21	6015
2026-01-11 01:21:18.78	229.43	12.01	-30.9	-35.7	10.7	2.81e-03	0	42	0	1186988032	21	6224
2026-01-11 01:21:19.78	229.37	11.92	-30.9	-35.5	10.8	3.49e-03	0	42	0	1189085184	21	6140
2026-01-11 01:21:20.79	229.31	11.83	-30.7	-35.1	11.0	1.86e-03	0	42	0	1191182336	21	5942
2026-01-11 01:21:21.79	229.25	11.74	-30.8	-35.1	11.0	1.90e-03	0	42	0	1192230912	21	5965
2026-01-11 01:21:22.79	229.19	11.65	-30.8	-35.3	10.9	1.90e-03	0	42	0	1194328064	21	6026
2026-01-11 01:21:23.79	229.14	11.56	-30.7	-35.0	11.1	1.97e-03	0	42	0	1196425216	21	5908
2026-01-11 01:21:24.80	229.08	11.47	-30.7	-35.2	11.0	1.76e-03	0	42	0	1198522368	21	5983
2026-01-11 01:21:25.80	229.02	11.38	-30.7	-34.9	11.1	1.89e-03	0	42	0	1200619520	21	5867
2026-01-11 01:21:26.81	228.96	11.29	-30.6	-34.8	11.2	1.80e-03	0	42	0	1202716672	21	5837
2026-01-11 01:21:27.82	228.91	11.21	-30.6	-34.8	11.2	1.22e-03	0	42	0	1203765248	21	5824
2026-01-11 01:21:28.82	228.85	11.12	-30.8	-35.3	10.8	2.04e-03	0	42	0	1205862400	21	6083
2026-01-11 01:21:29.83	228.80	11.03	-30.8	-35.2	10.9	2.46e-03	0	42	0	1207959552	21	6013
2026-01-11 01:21:30.83	228.74	10.94	-30.8	-35.2	10.9	2.30e-03	0	42	0	1210056704	21	6033
2026-01-11 01:21:31.84	228.69	10.86	-30.9	-35.7	10.4	3.24e-03	0	42	0	1211105280	21	6276
2026-01-11 01:21:32.84	228.63	10.77	-30.8	-35.5	10.6	3.69e-03	0	42	0	1213202432	21	6172
2026-01-11 01:21:33.84	228.58	10.69	-30.8	-35.3	10.8	2.74e-03	0	42	0	1215299584	21	6051
2026-01-11 01:21:34.84	228.52	10.60	-29.8	-34.2	11.0	2.16e-03	0	42	0	1217396736	21	5976
2026-01-11 01:21:35.85	228.47	10.51	-30.7	-35.2	10.8	2.24e-03	0	42	0	1219493888	21	6020
2026-01-11 01:21:36.86	228.41	10.43	-30.8	-35.4	10.4	2.71e-03	0	42	0	1220542464	21	6111
2026-01-11 01:21:37.86	228.36	10.34	-30.7	-35.2	10.4	2.44e-03	0	42	0	1222639616	21	6017
2026-01-11 01:21:38.87	228.31	10.26	-30.7	-35.2	10.9	2.25e-03	0	42	0	1224736768	21	6013
2026-01-11 01:21:39.87	228.26	10.17	-30.7	-35.2	10.9	2.13e-03	0	42	0	1226833920	21	6025
2026-01-11 01:21:40.87	228.20	10.09	-30.8	-35.3	10.7	5.02e-03	0	42	0	1228931072	21	6084
2026-01-11 01:21:41.88	228.15	10.00	-30.7	-35.2	10.8	2.03e-03	0	42	0	1229979648	21	6050
2026-01-11 01:21:42.88	228.10	9.92	-30.8	-35.4	10.6	3.74e-03	0	42	0	1232076800	21	6139
2026-01-11 01:21:43.89	228.05	9.84	-30.8	-35.5	10.5	3.08e-03	0	42	0	1234173952	21	6206
2026-01-11 01:21:44.90	228.00	9.75	-30.7	-35.2	10.8	3.01e-03	0	42	0	1236271104	21	6040
2026-01-11 01:21:45.91	227.95	9.67	-30.8	-35.6	10.4	3.87e-03	0	42	0	1238368256	21	6244
2026-01-11 01:21:46.91	227.90	9.59	-30.8	-35.4	10.7	4.27e-03	0	42	0	1239416832	21	6123
2026-01-11 01:21:47.92	227.85	9.50	-30.8	-35.4	10.6	3.54e-03	0	42	0	1241513984	21	6130
2026-01-11 01:21:48.92	227.80	9.42	-30.7	-35.3	10.6	4.25e-03	0	42	0	1243611136	21	6108
2026-01-11 01:21:49.92	227.75	9.34	-30.7	-35.2	10.7	3.80e-03	0	42	0	1245708288	21	6049
2026-01-11 01:21:50.92	227.70	9.26	-30.8	-35.6	10.4	4.00e-03	0	42	0	1247805440	21	6257
2026-01-11 01:21:51.92	227.65	9.18	-30.8	-35.6	10.4	6.17e-03	0	42	0	1248854016	21	6276
2026-01-11 01:21:52.93	227.60	9.10	-30.8	-35.5	10.5	4.97e-03	0	42	0	1250951168	21	6207
2026-01-11 01:21:53.93	227.55	9.02	-30.8	-35.6	10.4	5.16e-03	0	42	0	1253048320	21	6241
2026-01-11 01:21:54.93	227.51	8.93	-30.9	-36.0	10.1	7.89e-03	0	42	0	1255145472	21	6461
2026-01-11 01:21:55.94	227.46	8.85	-30.9	-35.9	10.1	8.63e-03	0	42	0	1257242624	21	6425
2026-01-11 01:21:56.94	227.41	8.77	-30.9	-36.0	10.0	6.42e-03	0	42	0	1258291200	21	6490
2026-01-11 01:21:57.95	227.36	8.69	-31.0	-36.3	9.7	1.09e-02	0	42	0	1260388352	21	6673
2026-01-11 01:21:58.95	227.32	8.61	-30.9	-35.7	9.9	1.25e-02	0	42	0	1262485504	22	6204
2026-01-11 01:21:59.95	227.27	8.53	-30.9	-35.4	10.1	1.09e-02	0	42	0	1264582656	22	6041
2026-01-11 01:22:00.96	227.22	8.45	-30.9	-36.0	10.0	6.18e-03	0	42	0	1265631232	21	6476
2026-01-11 01:22:01.96	227.18	8.38	-30.8	-35.8	10.1	1.14e-02	0	42	0	1267728384	21	6389
2026-01-11 01:22:02.97	227.13	8.30	-31.0	-36.0	9.6	9.32e-03	0	42	0	1269825536	22	6368
2026-01-11 01:22:03.97	227.09	8.22	-30.9	-36.0	9.9	1.21e-02	0	42	0	1271922688	21	6494
2026-01-11 01:22:04.97	227.04	8.14	-30.8	-35.6	10.2	8.15e-03	0	42	0	1274019840	21	6299
2026-01-11 01:22:05.98	227.00	8.06	-30.8	-35.8	10.0	6.27e-03	0	42	0	1276116992	21	6414
2026-01-11 01:22:06.98	226.95	7.98	-30.8	-35.9	10.0	8.17e-03	0	42	0	1277165568	21	6440
2026-01-11 01:22:07.98	226.91	7.91	-30.9	-36.1	9.8	1.07e-02	0	42	0	1279262720	21	6541
2026-01-11 01:22:08.99	226.86	7.83	-31.1	-36.3	9.2	1.77e-02	0	42	0	1281359872	22	6567
2026-01-11 01:22:10.00	226.82	7.75	-30.9	-35.6	9.8	1.53e-02	0	42	0	1283457024	22	6190
2026-01-11 01:22:11.00	226.78	7.67	-31.0	-36.1	9.4	1.08e-02	0	42	0	1284505600	22	6445
2026-01-11 01:22:12.00	226.73	7.60	-31.0	-36.1	9.4	1.61e-02	0	42	0	1286602752	22	6437
2026-01-11 01:22:13.01	226.69	7.52	-31.0	-36.0	9.5	1.79e-02	0	42	0	1288699904	22	6401
