passes_logs/2026/01/11/R2M6_AANII_01/R2M6_AANII_01__20260111_225107_SUOMI_NPP_rec.log

#Pass ID: 20260111_225107_SUOMI NPP
#Satellite: SUOMI NPP
#Configuration: NPP
#almurnet v.1.7.20240730
#Start time: 2026-01-11 22:51:09

#Version: 2.2.20231116
#Station: R2M6_AANII_01
#Location: 30.233357 lon 59.946436 lat
#TLE: 1 37849U 11061A   26011.29776829  .00000112  00000+0  74065-4 0  9999
#TLE: 2 37849  98.7807 313.3784 0002522  70.0451 290.0996 14.19524507736187

#Time	Az	El	Level	Level2	SNR	BER	BlckErr	Temp	State	Recorded	gain1	gain2
2026-01-11 22:51:09.19	29.71	7.10	-31.8	-37.8	4.6	1.28e+00	0	39	0	0	23	7194
2026-01-11 22:51:10.21	29.80	7.16	-32.0	-38.7	4.4	1.40e+00	0	39	104	0	24	7762
2026-01-11 22:51:11.22	29.90	7.23	-32.1	-39.1	5.2	5.74e-01	0	39	0	0	24	8069
2026-01-11 22:51:12.22	29.99	7.29	-32.0	-38.0	5.9	3.98e-01	0	39	0	1048576	24	7250
2026-01-11 22:51:13.22	30.08	7.35	-31.7	-37.0	7.0	2.90e-01	0	39	0	3145728	23	6607
2026-01-11 22:51:14.23	30.18	7.42	-31.7	-36.9	7.1	1.05e-01	0	39	0	5242880	23	6511
2026-01-11 22:51:15.24	30.27	7.48	-31.4	-35.6	8.1	1.09e-01	0	39	0	7340032	23	5812
2026-01-11 22:51:16.24	30.37	7.55	-31.2	-35.2	8.9	4.47e-02	0	40	0	9437184	22	5677
2026-01-11 22:51:17.25	30.46	7.61	-31.0	-34.6	9.2	1.98e-02	0	39	0	10485760	22	5422
2026-01-11 22:51:18.25	30.56	7.68	-30.9	-34.0	9.8	1.07e-02	0	40	0	12582912	22	5151
2026-01-11 22:51:19.26	30.66	7.74	-30.9	-34.5	9.7	8.19e-03	0	40	0	14680064	21	5451
2026-01-11 22:51:20.27	30.75	7.81	-30.7	-33.8	10.2	1.02e-02	0	40	0	16777216	21	5168
2026-01-11 22:51:21.27	30.85	7.87	-30.7	-33.8	10.3	5.77e-03	0	40	0	18874368	21	5143
2026-01-11 22:51:22.29	30.95	7.94	-30.5	-33.1	10.8	3.19e-03	0	40	0	19922944	21	4856
2026-01-11 22:51:23.28	31.04	8.00	-30.3	-32.4	11.3	1.93e-03	0	40	0	22020096	21	4600
2026-01-11 22:51:24.28	31.14	8.06	-30.3	-32.6	11.3	8.86e-04	0	40	0	24117248	21	4649
2026-01-11 22:51:25.29	31.24	8.13	-30.2	-32.7	11.6	1.60e-03	0	40	0	26214400	20	4769
2026-01-11 22:51:26.30	31.34	8.20	-30.2	-32.7	11.6	8.32e-04	0	40	0	28311552	20	4775
2026-01-11 22:51:27.30	31.44	8.26	-30.1	-32.3	11.8	6.38e-04	0	40	0	29360128	20	4639
2026-01-11 22:51:28.31	31.54	8.33	-30.0	-32.1	12.1	1.16e-03	0	40	0	31457280	20	4575
2026-01-11 22:51:29.31	31.64	8.39	-30.1	-32.2	12.0	2.52e-04	0	40	0	33554432	20	4607
2026-01-11 22:51:30.32	31.74	8.46	-30.1	-32.3	11.9	3.95e-04	0	40	0	35651584	20	4624
2026-01-11 22:51:31.33	31.84	8.52	-30.1	-32.4	11.8	8.06e-04	0	40	0	37748736	20	4657
2026-01-11 22:51:32.34	31.95	8.59	-30.2	-32.4	11.8	3.83e-04	0	40	0	38797312	20	4680
2026-01-11 22:51:33.34	32.05	8.66	-30.3	-33.0	11.4	7.70e-04	0	40	0	40894464	20	4876
2026-01-11 22:51:34.34	32.15	8.72	-30.1	-32.3	11.9	8.19e-04	0	40	0	42991616	20	4628
2026-01-11 22:51:35.35	32.25	8.79	-30.2	-32.6	11.7	5.44e-04	0	40	0	45088768	20	4736
2026-01-11 22:51:36.36	32.36	8.86	-30.2	-32.4	11.8	4.87e-04	0	40	0	47185920	20	4661
2026-01-11 22:51:37.36	32.46	8.92	-30.4	-33.0	11.4	5.56e-04	0	40	0	48234496	20	4886
2026-01-11 22:51:38.36	32.57	8.99	-30.3	-32.7	11.6	8.54e-04	0	40	0	50331648	20	4784
2026-01-11 22:51:39.37	32.67	9.06	-30.5	-33.3	11.3	7.57e-04	0	40	0	52428800	20	5004
2026-01-11 22:51:40.37	32.78	9.12	-30.4	-32.7	11.4	1.45e-03	0	40	0	54525952	21	4657
2026-01-11 22:51:41.38	32.88	9.19	-30.3	-32.3	11.6	8.66e-04	0	40	0	56623104	21	4535
2026-01-11 22:51:42.39	32.99	9.26	-30.3	-32.3	11.7	5.54e-04	0	40	0	57671680	21	4512
2026-01-11 22:51:43.39	33.10	9.32	-30.3	-32.9	11.3	8.67e-04	0	40	0	59768832	20	4831
2026-01-11 22:51:44.39	33.20	9.39	-30.2	-32.4	11.9	6.95e-04	0	40	0	61865984	20	4638
2026-01-11 22:51:45.40	33.31	9.46	-30.3	-32.7	11.6	5.59e-04	0	40	0	63963136	20	4779
2026-01-11 22:51:46.41	33.42	9.52	-30.4	-32.9	11.5	5.45e-04	0	40	0	66060288	20	4844
2026-01-11 22:51:47.42	33.53	9.59	-30.3	-32.9	11.6	7.62e-04	0	40	0	67108864	20	4838
2026-01-11 22:51:48.42	33.64	9.66	-30.3	-32.7	11.8	4.91e-04	0	40	0	69206016	20	4735
2026-01-11 22:51:49.42	33.75	9.73	-30.2	-32.4	12.0	3.69e-04	0	40	0	71303168	20	4629
2026-01-11 22:51:50.43	33.86	9.79	-30.2	-32.4	12.0	4.47e-04	0	40	0	73400320	20	4639
2026-01-11 22:51:51.43	33.97	9.86	-30.3	-32.7	11.8	4.18e-04	0	40	0	74448896	20	4753
2026-01-11 22:51:52.43	34.08	9.93	-30.4	-32.9	11.6	9.60e-04	0	41	0	76546048	20	4839
2026-01-11 22:51:53.43	34.19	10.00	-30.4	-33.1	11.6	6.70e-04	0	41	0	78643200	20	4894
2026-01-11 22:51:54.44	34.30	10.07	-30.5	-32.8	11.3	7.30e-04	0	41	0	80740352	21	4696
2026-01-11 22:51:55.44	34.42	10.13	-30.4	-32.9	11.1	2.21e-03	0	41	0	82837504	21	4830
2026-01-11 22:51:56.46	34.53	10.20	-30.5	-33.0	11.3	1.20e-03	0	41	0	84934656	21	4768
2026-01-11 22:51:57.46	34.64	10.27	-30.5	-32.8	11.3	9.00e-04	0	41	0	85983232	21	4702
2026-01-11 22:51:58.47	34.76	10.34	-30.5	-32.7	11.4	9.81e-04	0	41	0	88080384	21	4677
2026-01-11 22:51:59.47	34.87	10.41	-30.5	-32.8	11.4	7.80e-04	0	41	0	90177536	21	4713
2026-01-11 22:52:00.48	34.99	10.48	-30.5	-32.8	11.4	1.02e-03	0	41	0	92274688	21	4695
2026-01-11 22:52:01.48	35.10	10.55	-30.5	-33.0	11.2	1.89e-03	0	41	0	93323264	21	4759
2026-01-11 22:52:02.48	35.22	10.61	-30.4	-32.4	11.6	7.54e-04	0	41	0	95420416	21	4569
2026-01-11 22:52:03.48	35.33	10.68	-30.1	-31.7	12.1	2.54e-04	0	41	0	97517568	21	4318
2026-01-11 22:52:04.49	35.45	10.75	-30.1	-32.0	12.3	2.11e-04	0	41	0	99614720	20	4509
2026-01-11 22:52:05.50	35.57	10.82	-30.1	-32.0	12.3	2.00e-04	0	41	0	101711872	20	4509
2026-01-11 22:52:06.50	35.69	10.89	-30.0	-31.8	12.5	3.34e-04	0	41	0	102760448	20	4434
2026-01-11 22:52:07.51	35.81	10.96	-29.9	-31.6	12.6	1.42e-04	0	41	0	104857600	20	4357
2026-01-11 22:52:08.51	35.93	11.03	-29.8	-31.2	12.9	8.23e-05	0	41	0	106954752	20	4245
2026-01-11 22:52:09.52	36.05	11.10	-29.8	-31.3	12.8	2.01e-04	0	41	0	109051904	20	4268
2026-01-11 22:52:10.52	36.17	11.17	-29.9	-31.6	12.7	1.42e-04	0	41	0	111149056	20	4369
2026-01-11 22:52:11.53	36.29	11.24	-29.9	-31.4	12.8	9.23e-05	0	41	0	112197632	20	4294
2026-01-11 22:52:12.54	36.41	11.31	-29.8	-31.3	12.9	1.50e-04	0	41	0	114294784	20	4257
2026-01-11 22:52:13.54	36.53	11.38	-29.8	-31.1	13.0	1.40e-04	0	41	0	116391936	20	4218
2026-01-11 22:52:14.55	36.66	11.45	-29.7	-30.9	13.1	2.59e-05	0	41	0	118489088	20	4129
2026-01-11 22:52:15.55	36.78	11.52	-29.9	-31.4	12.8	1.21e-04	0	41	0	120586240	20	4285
2026-01-11 22:52:16.56	36.90	11.59	-29.8	-31.1	13.0	1.14e-04	0	41	0	121634816	20	4206
2026-01-11 22:52:17.57	37.03	11.66	-29.6	-30.7	13.3	1.75e-05	0	41	0	123731968	20	4085
2026-01-11 22:52:18.57	37.15	11.73	-29.7	-30.9	13.2	3.12e-05	0	41	0	125829120	20	4131
2026-01-11 22:52:19.58	37.28	11.80	-29.7	-30.9	13.2	3.81e-05	0	41	0	127926272	20	4122
2026-01-11 22:52:20.59	37.41	11.87	-29.6	-30.6	13.4	1.67e-05	0	41	0	130023424	20	4039
2026-01-11 22:52:21.59	37.53	11.94	-29.5	-30.4	13.4	1.67e-05	0	41	0	131072000	20	3997
2026-01-11 22:52:22.60	37.66	12.01	-29.6	-30.7	13.3	1.90e-05	0	41	0	133169152	20	4075
2026-01-11 22:52:23.60	37.79	12.08	-29.6	-30.6	13.4	1.75e-05	0	41	0	135266304	20	4040
2026-01-11 22:52:24.60	37.92	12.15	-29.6	-30.6	13.4	1.14e-05	0	41	0	137363456	20	4054
2026-01-11 22:52:25.61	38.05	12.22	-29.7	-30.8	13.2	4.50e-05	0	41	0	139460608	20	4106
2026-01-11 22:52:26.62	38.18	12.29	-29.6	-30.7	13.3	1.75e-05	0	41	0	140509184	20	4068
2026-01-11 22:52:27.62	38.31	12.37	-29.9	-31.8	13.0	2.39e-04	0	41	0	142606336	19	4514
2026-01-11 22:52:28.63	38.44	12.44	-29.8	-31.2	13.0	5.79e-05	0	41	0	144703488	20	4218
2026-01-11 22:52:29.64	38.57	12.51	-29.7	-30.8	13.3	2.21e-05	0	41	0	146800640	20	4088
2026-01-11 22:52:30.65	38.70	12.58	-29.7	-30.9	13.2	1.34e-04	0	41	0	148897792	20	4143
2026-01-11 22:52:31.65	38.84	12.65	-29.8	-31.6	13.1	1.52e-04	0	41	0	149946368	19	4414
2026-01-11 22:52:32.65	38.97	12.72	-29.9	-31.8	13.0	2.59e-05	0	41	0	152043520	19	4501
2026-01-11 22:52:33.66	39.10	12.79	-30.0	-32.1	12.9	1.52e-04	0	41	0	154140672	19	4584
2026-01-11 22:52:34.66	39.24	12.86	-29.9	-31.5	12.8	2.66e-04	0	41	0	156237824	20	4330
2026-01-11 22:52:35.67	39.37	12.94	-30.1	-31.9	12.6	8.31e-05	0	41	0	158334976	20	4443
2026-01-11 22:52:36.67	39.51	13.01	-30.0	-31.7	12.7	2.79e-04	0	41	0	159383552	20	4397
2026-01-11 22:52:37.68	39.65	13.08	-30.2	-32.2	12.4	1.90e-04	0	41	0	161480704	20	4565
2026-01-11 22:52:38.69	39.78	13.15	-30.1	-31.9	12.5	1.69e-04	0	41	0	163577856	20	4450
2026-01-11 22:52:39.69	39.92	13.22	-30.2	-32.2	12.4	1.67e-04	0	41	0	165675008	20	4557
2026-01-11 22:52:40.70	40.06	13.30	-30.1	-32.1	12.5	3.77e-04	0	41	0	167772160	20	4505
2026-01-11 22:52:41.70	40.20	13.37	-29.9	-31.4	13.0	1.07e-04	0	41	0	168820736	20	4287
2026-01-11 22:52:42.71	40.34	13.44	-29.8	-31.1	13.2	1.45e-04	0	41	0	170917888	20	4176
2026-01-11 22:52:43.72	40.48	13.51	-29.8	-31.0	13.2	1.01e-04	0	41	0	173015040	20	4151
2026-01-11 22:52:44.72	40.62	13.58	-29.8	-31.0	13.3	2.13e-05	0	41	0	175112192	20	4151
2026-01-11 22:52:45.72	40.76	13.66	-29.6	-30.5	13.6	1.14e-05	0	41	0	177209344	20	3990
2026-01-11 22:52:46.73	40.90	13.73	-29.6	-30.5	13.5	6.94e-05	0	41	0	178257920	20	4016
2026-01-11 22:52:47.73	41.05	13.80	-29.5	-30.3	13.8	5.30e-06	0	41	0	180355072	20	3942
2026-01-11 22:52:48.74	41.19	13.87	-29.3	-29.8	14.0	6.80e-06	0	41	0	182452224	20	3805
2026-01-11 22:52:49.75	41.34	13.95	-29.5	-30.7	13.9	2.20e-06	0	41	0	184549376	19	4145
2026-01-11 22:52:50.76	41.48	14.02	-29.3	-30.2	14.2	2.20e-06	0	41	0	186646528	19	3991
2026-01-11 22:52:51.76	41.63	14.09	-29.3	-30.3	14.1	1.67e-05	0	41	0	187695104	19	4023
2026-01-11 22:52:52.77	41.78	14.16	-29.3	-30.3	14.1	1.50e-06	0	41	0	189792256	19	4018
2026-01-11 22:52:53.77	41.92	14.24	-29.4	-30.5	14.0	7.00e-07	0	41	0	191889408	19	4075
2026-01-11 22:52:54.78	42.07	14.31	-29.3	-30.3	14.1	7.00e-07	0	41	0	193986560	19	4012
2026-01-11 22:52:55.78	42.22	14.38	-29.5	-30.7	14.0	1.50e-06	0	41	0	196083712	19	4122
2026-01-11 22:52:56.79	42.37	14.45	-29.4	-30.5	14.0	3.00e-06	0	41	0	197132288	19	4078
2026-01-11 22:52:57.78	42.52	14.53	-29.4	-30.4	14.1	2.20e-06	0	41	0	199229440	19	4050
2026-01-11 22:52:58.79	42.67	14.60	-29.4	-30.4	14.1	2.20e-06	0	41	0	201326592	19	4055
2026-01-11 22:52:59.80	42.82	14.67	-29.4	-30.5	14.0	2.20e-06	0	41	0	203423744	19	4087
2026-01-11 22:53:00.80	42.97	14.75	-29.5	-30.7	13.9	3.00e-06	0	41	0	205520896	19	4144
2026-01-11 22:53:01.81	43.13	14.82	-29.3	-30.2	14.3	1.13e-04	0	41	0	206569472	19	3992
2026-01-11 22:53:02.81	43.28	14.89	-29.5	-30.6	14.1	1.50e-06	0	41	0	208666624	19	4091
2026-01-11 22:53:03.82	43.43	14.96	-29.4	-30.4	14.1	0.00e+00	0	41	0	210763776	19	4058
2026-01-11 22:53:04.82	43.59	15.04	-29.5	-30.6	14.0	3.50e-04	0	41	0	212860928	19	4107
2026-01-11 22:53:05.83	43.75	15.11	-29.5	-30.7	13.9	2.20e-06	0	41	0	214958080	19	4144
2026-01-11 22:53:06.84	43.90	15.18	-29.6	-31.0	13.7	2.20e-06	0	41	0	216006656	19	4218
2026-01-11 22:53:07.85	44.06	15.26	-29.8	-31.5	13.5	1.29e-05	0	41	0	218103808	19	4366
2026-01-11 22:53:08.85	44.22	15.33	-29.7	-31.2	13.6	9.10e-06	0	41	0	220200960	19	4275
2026-01-11 22:53:09.85	44.38	15.40	-29.8	-31.6	13.4	8.30e-06	0	41	0	222298112	19	4390
2026-01-11 22:53:10.85	44.54	15.48	-29.8	-31.4	13.5	1.06e-05	0	41	0	224395264	19	4353
2026-01-11 22:53:11.86	44.70	15.55	-29.9	-31.6	13.4	1.60e-05	0	41	0	225443840	19	4422
2026-01-11 22:53:12.86	44.86	15.62	-30.0	-31.9	13.1	1.83e-05	0	41	0	227540992	19	4519
2026-01-11 22:53:13.87	45.02	15.70	-29.9	-31.3	13.2	2.28e-05	0	41	0	229638144	20	4213
2026-01-11 22:53:14.87	45.18	15.77	-29.9	-31.2	13.3	2.44e-05	0	41	0	231735296	20	4211
2026-01-11 22:53:15.88	45.35	15.84	-29.9	-31.4	13.2	1.90e-05	0	41	0	232783872	20	4255
2026-01-11 22:53:16.88	45.51	15.92	-29.9	-31.3	13.2	1.90e-05	0	41	0	234881024	20	4229
2026-01-11 22:53:17.89	45.68	15.99	-29.8	-30.9	13.4	1.06e-05	0	41	0	236978176	20	4119
2026-01-11 22:53:18.90	45.84	16.06	-29.9	-31.3	13.2	1.90e-05	0	41	0	239075328	20	4240
2026-01-11 22:53:19.91	46.01	16.14	-29.8	-31.0	13.4	2.05e-05	0	41	0	241172480	20	4140
2026-01-11 22:53:20.91	46.18	16.21	-30.1	-31.8	12.9	1.90e-05	0	41	0	243269632	20	4372
2026-01-11 22:53:21.92	46.35	16.28	-29.9	-31.2	13.3	4.11e-05	0	42	0	244318208	20	4195
2026-01-11 22:53:22.92	46.52	16.36	-29.7	-31.2	13.7	5.30e-06	0	41	0	246415360	19	4259
2026-01-11 22:53:23.93	46.69	16.43	-29.7	-31.1	13.7	3.80e-06	0	42	0	248512512	19	4254
2026-01-11 22:53:24.94	46.86	16.50	-30.0	-31.9	13.2	9.90e-06	0	41	0	250609664	19	4508
2026-01-11 22:53:25.94	47.03	16.58	-29.6	-30.5	13.7	1.37e-05	0	41	0	252706816	20	3988
2026-01-11 22:53:26.95	47.20	16.65	-29.3	-30.2	14.3	2.20e-06	0	41	0	253755392	19	3981
2026-01-11 22:53:27.96	47.38	16.72	-29.2	-30.4	14.5	7.00e-07	0	41	0	255852544	18	4135
2026-01-11 22:53:28.97	47.55	16.80	-29.1	-30.0	14.8	0.00e+00	0	41	0	257949696	18	4024
2026-01-11 22:53:29.97	47.72	16.87	-29.0	-29.9	14.8	7.00e-07	0	41	0	260046848	18	3993
2026-01-11 22:53:30.98	47.90	16.94	-29.1	-30.1	14.8	0.00e+00	0	42	0	261095424	18	4043
2026-01-11 22:53:31.99	48.08	17.02	-29.0	-29.9	14.9	0.00e+00	0	41	0	263192576	18	3987
2026-01-11 22:53:33.00	48.26	17.09	-29.0	-29.8	14.9	0.00e+00	0	42	0	265289728	18	3957
2026-01-11 22:53:34.00	48.43	17.16	-29.0	-29.8	14.9	0.00e+00	0	42	0	267386880	18	3958
2026-01-11 22:53:35.00	48.61	17.23	-29.0	-29.9	14.9	0.00e+00	0	42	0	269484032	18	3985
2026-01-11 22:53:36.00	48.79	17.31	-29.0	-29.8	14.9	1.50e-06	0	41	0	271581184	18	3971
2026-01-11 22:53:37.00	48.97	17.38	-29.3	-30.6	14.5	7.00e-07	0	42	0	272629760	18	4181
2026-01-11 22:53:38.01	49.15	17.45	-29.2	-30.3	14.6	7.00e-07	0	42	0	274726912	18	4094
2026-01-11 22:53:39.02	49.34	17.53	-29.4	-30.8	14.3	1.37e-05	0	42	0	276824064	18	4253
2026-01-11 22:53:40.02	49.52	17.60	-29.3	-30.7	14.5	3.80e-06	0	41	0	278921216	18	4199
2026-01-11 22:53:41.03	49.70	17.67	-29.4	-30.8	14.3	0.00e+00	0	41	0	279969792	18	4250
2026-01-11 22:53:42.03	49.89	17.74	-29.2	-30.3	14.7	1.50e-06	0	41	0	282066944	18	4108
2026-01-11 22:53:43.04	50.07	17.82	-29.1	-30.0	14.8	7.00e-07	0	42	0	284164096	18	4014
2026-01-11 22:53:44.05	50.26	17.89	-29.3	-30.6	14.5	7.00e-07	0	41	0	286261248	18	4177
2026-01-11 22:53:45.06	50.45	17.96	-29.1	-30.1	14.8	0.00e+00	0	42	0	288358400	18	4039
2026-01-11 22:53:46.06	50.64	18.03	-29.1	-30.0	14.8	1.30e-04	0	42	0	289406976	18	4018
2026-01-11 22:53:47.06	50.83	18.10	-29.0	-29.8	15.0	0.00e+00	0	42	0	291504128	18	3953
2026-01-11 22:53:48.07	51.02	18.18	-29.2	-30.4	14.6	0.00e+00	0	42	0	293601280	18	4120
2026-01-11 22:53:49.07	51.21	18.25	-29.2	-30.5	14.5	5.74e-04	0	42	0	295698432	18	4147
2026-01-11 22:53:50.08	51.40	18.32	-29.4	-30.8	14.3	0.00e+00	0	41	0	297795584	18	4244
2026-01-11 22:53:51.09	51.59	18.39	-29.4	-30.8	14.3	5.29e-04	0	42	0	299892736	18	4240
2026-01-11 22:53:52.10	51.79	18.46	-29.2	-30.4	14.6	4.42e-04	0	41	0	300941312	18	4116
2026-01-11 22:53:53.10	51.98	18.54	-29.2	-30.5	14.6	7.00e-07	0	41	0	303038464	18	4143
2026-01-11 22:53:54.10	52.18	18.61	-29.2	-30.4	14.6	7.32e-04	0	42	0	305135616	18	4124
2026-01-11 22:53:55.10	52.37	18.68	-29.4	-30.9	14.3	1.50e-06	0	41	0	307232768	18	4269
2026-01-11 22:53:56.11	52.57	18.75	-29.3	-30.6	14.5	0.00e+00	0	42	0	308281344	18	4189
2026-01-11 22:53:57.11	52.77	18.82	-29.4	-31.0	14.2	1.31e-03	0	42	0	310378496	18	4293
2026-01-11 22:53:58.13	52.97	18.89	-29.4	-30.9	14.3	1.03e-03	0	42	0	312475648	18	4253
2026-01-11 22:53:59.14	53.17	18.96	-29.5	-31.1	14.2	0.00e+00	0	42	0	314572800	18	4314
2026-01-11 22:54:00.14	53.37	19.03	-29.3	-30.0	14.6	1.52e-05	0	42	0	316669952	19	3904
2026-01-11 22:54:01.14	53.57	19.10	-29.2	-29.8	14.7	1.50e-06	0	42	0	317718528	19	3858
2026-01-11 22:54:02.15	53.78	19.17	-29.2	-29.8	14.7	1.50e-06	0	42	0	319815680	19	3847
2026-01-11 22:54:03.15	53.98	19.24	-29.2	-29.8	14.7	0.00e+00	0	42	0	321912832	19	3868
2026-01-11 22:54:04.16	54.19	19.31	-29.6	-30.8	14.1	2.20e-06	0	42	0	324009984	19	4138
2026-01-11 22:54:05.17	54.39	19.38	-29.6	-30.8	14.1	3.80e-06	0	42	0	326107136	19	4138
2026-01-11 22:54:06.17	54.60	19.45	-29.7	-31.2	13.8	5.79e-05	0	42	0	327155712	19	4264
2026-01-11 22:54:07.18	54.81	19.52	-29.9	-31.7	13.5	8.69e-05	0	42	0	329252864	19	4426
2026-01-11 22:54:08.19	55.02	19.59	-30.1	-31.7	13.2	1.83e-05	0	42	0	331350016	20	4337
2026-01-11 22:54:09.19	55.22	19.66	-30.3	-32.3	12.7	5.03e-05	0	42	0	333447168	20	4531
2026-01-11 22:54:10.20	55.43	19.73	-30.2	-32.0	12.9	3.73e-05	0	41	0	335544320	20	4434
2026-01-11 22:54:11.20	55.64	19.80	-30.2	-32.1	12.9	5.95e-05	0	42	0	336592896	20	4445
2026-01-11 22:54:12.21	55.86	19.87	-29.9	-31.2	13.5	2.67e-05	0	42	0	338690048	20	4174
2026-01-11 22:54:13.21	56.07	19.94	-29.9	-31.0	13.6	1.06e-05	0	41	0	340787200	20	4127
2026-01-11 22:54:14.22	56.28	20.01	-29.7	-30.6	13.8	6.10e-06	0	42	0	342884352	20	4003
2026-01-11 22:54:15.23	56.50	20.07	-29.7	-30.8	13.8	1.14e-05	0	42	0	344981504	20	4043
2026-01-11 22:54:16.23	56.72	20.14	-29.9	-31.1	13.6	1.06e-05	0	42	0	346030080	20	4136
2026-01-11 22:54:17.24	56.93	20.21	-30.0	-31.4	13.3	9.10e-06	0	42	0	348127232	20	4238
2026-01-11 22:54:18.24	57.15	20.28	-30.0	-31.5	13.3	1.97e-04	0	42	0	350224384	20	4257
2026-01-11 22:54:19.25	57.37	20.34	-30.1	-31.6	13.2	2.51e-05	0	42	0	352321536	20	4304
2026-01-11 22:54:20.25	57.59	20.41	-29.7	-30.6	13.8	6.10e-06	0	41	0	354418688	20	4003
2026-01-11 22:54:21.25	57.81	20.48	-29.5	-30.4	14.3	4.79e-04	0	42	0	355467264	19	4037
2026-01-11 22:54:22.25	58.03	20.54	-29.6	-30.7	14.2	0.00e+00	0	41	0	357564416	19	4118
2026-01-11 22:54:23.26	58.25	20.61	-29.5	-30.7	14.2	7.00e-07	0	42	0	359661568	19	4110
2026-01-11 22:54:24.27	58.48	20.68	-30.0	-31.3	13.4	2.20e-06	0	42	0	361758720	20	4204
2026-01-11 22:54:25.27	58.70	20.74	-30.1	-31.8	13.1	2.85e-04	0	41	0	363855872	20	4376
2026-01-11 22:54:26.28	58.93	20.81	-30.3	-32.3	12.8	7.01e-05	0	42	0	364904448	20	4522
2026-01-11 22:54:27.28	59.15	20.87	-30.4	-32.6	12.6	1.01e-04	0	41	0	367001600	20	4626
2026-01-11 22:54:28.28	59.38	20.94	-30.3	-32.2	12.8	1.15e-04	0	42	0	369098752	20	4501
2026-01-11 22:54:29.28	59.60	21.00	-30.1	-31.7	13.2	2.97e-05	0	42	0	371195904	20	4327
2026-01-11 22:54:30.29	59.83	21.07	-29.7	-30.7	13.8	1.06e-05	0	42	0	373293056	20	4021
2026-01-11 22:54:31.30	60.06	21.13	-29.7	-30.5	14.0	3.00e-06	0	42	0	374341632	20	3977
2026-01-11 22:54:32.30	60.29	21.19	-29.8	-30.9	13.7	2.20e-06	0	42	0	376438784	20	4080
2026-01-11 22:54:33.31	60.53	21.26	-29.7	-30.6	14.0	1.50e-06	0	42	0	378535936	20	3987
2026-01-11 22:54:34.32	60.76	21.32	-29.6	-30.4	14.1	1.50e-06	0	42	0	380633088	20	3931
2026-01-11 22:54:35.33	61.00	21.38	-29.6	-30.4	14.0	0.00e+00	0	42	0	382730240	20	3931
2026-01-11 22:54:36.34	61.23	21.45	-29.6	-30.4	14.1	1.50e-06	0	42	0	383778816	20	3930
2026-01-11 22:54:37.34	61.47	21.51	-29.4	-29.8	14.4	0.00e+00	0	42	0	385875968	20	3772
2026-01-11 22:54:38.35	61.70	21.57	-29.4	-30.2	14.5	0.00e+00	0	42	0	387973120	19	3975
2026-01-11 22:54:39.36	61.94	21.63	-29.5	-30.5	14.4	1.50e-06	0	42	0	390070272	19	4047
2026-01-11 22:54:40.36	62.18	21.69	-29.6	-30.8	14.2	1.50e-06	0	42	0	392167424	19	4142
2026-01-11 22:54:41.36	62.42	21.75	-29.8	-31.2	13.9	4.50e-06	0	42	0	393216000	19	4250
2026-01-11 22:54:42.36	62.66	21.82	-29.8	-31.4	13.7	4.50e-06	0	42	0	395313152	19	4308
2026-01-11 22:54:43.37	62.90	21.88	-29.8	-31.4	13.7	6.10e-06	0	42	0	397410304	19	4327
2026-01-11 22:54:44.37	63.14	21.93	-29.4	-30.3	14.5	1.50e-06	0	42	0	399507456	19	3988
2026-01-11 22:54:45.37	63.38	21.99	-29.1	-29.5	14.9	7.00e-07	0	42	0	401604608	19	3789
2026-01-11 22:54:46.38	63.63	22.05	-28.9	-29.6	15.2	0.00e+00	0	42	0	402653184	18	3877
2026-01-11 22:54:47.38	63.87	22.11	-29.0	-29.7	15.1	0.00e+00	0	42	0	404750336	18	3926
2026-01-11 22:54:48.38	64.11	22.17	-29.0	-29.7	15.2	0.00e+00	0	42	0	406847488	18	3914
2026-01-11 22:54:49.39	64.36	22.23	-29.1	-30.2	14.9	0.00e+00	0	42	0	408944640	18	4042
2026-01-11 22:54:50.39	64.61	22.28	-29.2	-30.2	14.8	0.00e+00	0	42	0	411041792	18	4051
2026-01-11 22:54:51.40	64.86	22.34	-29.4	-30.9	14.5	0.00e+00	0	42	0	412090368	18	4252
2026-01-11 22:54:52.40	65.10	22.40	-29.7	-31.0	14.1	0.00e+00	0	42	0	414187520	19	4185
2026-01-11 22:54:53.41	65.36	22.45	-29.9	-31.6	13.6	3.00e-06	0	42	0	416284672	19	4386
2026-01-11 22:54:54.42	65.61	22.51	-30.0	-31.4	13.4	9.10e-06	0	42	0	418381824	20	4231
2026-01-11 22:54:55.42	65.86	22.57	-30.2	-31.8	13.2	2.13e-05	0	42	0	419430400	20	4357
2026-01-11 22:54:56.43	66.11	22.62	-30.3	-32.2	12.9	3.20e-05	0	42	0	421527552	20	4476
2026-01-11 22:54:57.44	66.37	22.68	-30.0	-31.4	13.4	1.60e-05	0	42	0	423624704	20	4228
2026-01-11 22:54:58.44	66.62	22.73	-29.8	-30.9	13.8	8.30e-06	0	42	0	425721856	20	4068
2026-01-11 22:54:59.45	66.88	22.78	-29.6	-30.8	14.2	6.90e-04	0	42	0	427819008	19	4143
2026-01-11 22:55:00.45	67.13	22.84	-29.7	-30.9	14.0	4.50e-06	0	42	0	429916160	19	4173
2026-01-11 22:55:01.45	67.39	22.89	-29.7	-31.0	14.1	4.50e-06	0	42	0	430964736	19	4185
2026-01-11 22:55:02.45	67.64	22.94	-29.9	-31.7	13.7	4.19e-05	0	42	0	433061888	19	4410
2026-01-11 22:55:03.46	67.90	22.99	-30.2	-32.0	13.1	3.05e-05	0	42	0	435159040	20	4419
2026-01-11 22:55:04.46	68.16	23.04	-30.4	-32.4	12.8	2.82e-05	0	42	0	437256192	20	4553
2026-01-11 22:55:05.46	68.42	23.09	-30.4	-32.5	12.8	4.73e-05	0	42	0	438304768	20	4591
2026-01-11 22:55:06.47	68.69	23.14	-30.4	-32.0	12.7	1.70e-04	0	42	0	440401920	21	4318
2026-01-11 22:55:07.48	68.95	23.19	-30.3	-31.6	13.0	5.72e-05	0	42	0	442499072	21	4209
2026-01-11 22:55:08.48	69.21	23.24	-30.4	-32.0	12.8	5.64e-05	0	42	0	444596224	21	4309
2026-01-11 22:55:09.49	69.48	23.29	-30.6	-32.4	12.5	2.99e-04	0	42	0	446693376	21	4468
2026-01-11 22:55:10.50	69.74	23.34	-30.5	-32.1	12.6	6.86e-05	0	42	0	447741952	21	4370
2026-01-11 22:55:11.51	70.01	23.39	-30.5	-32.2	12.6	8.01e-05	0	42	0	449839104	21	4387
2026-01-11 22:55:12.52	70.28	23.43	-30.4	-32.0	12.8	1.11e-04	0	42	0	451936256	21	4319
2026-01-11 22:55:13.52	70.54	23.48	-30.2	-31.4	13.2	3.66e-05	0	42	0	454033408	21	4125
2026-01-11 22:55:14.53	70.81	23.53	-30.2	-31.3	13.2	3.89e-05	0	42	0	456130560	21	4114
2026-01-11 22:55:15.53	71.08	23.57	-30.3	-31.7	12.9	1.52e-05	0	42	0	457179136	21	4215
2026-01-11 22:55:16.54	71.35	23.62	-30.7	-33.0	12.1	1.42e-04	0	42	0	459276288	21	4647
2026-01-11 22:55:17.55	71.62	23.66	-31.3	-34.3	10.9	6.15e-04	0	42	0	461373440	22	5053
2026-01-11 22:55:18.56	71.89	23.71	-31.8	-35.2	9.8	5.30e-03	0	42	0	463470592	23	5355
2026-01-11 22:55:19.56	72.16	23.75	-31.9	-35.5	9.6	9.21e-03	0	42	0	465567744	23	5500
2026-01-11 22:55:20.57	72.43	23.79	-31.6	-34.6	10.2	1.16e-02	0	42	0	466616320	23	5099
2026-01-11 22:55:21.57	72.71	23.83	-31.3	-33.5	11.0	3.72e-03	0	42	0	468713472	23	4667
2026-01-11 22:55:22.58	72.98	23.87	-31.0	-32.7	11.6	7.07e-04	0	42	0	470810624	23	4373
2026-01-11 22:55:23.58	73.25	23.91	-30.7	-32.3	12.3	2.53e-04	0	42	0	472907776	22	4312
2026-01-11 22:55:24.59	73.53	23.95	-30.8	-32.5	12.1	4.17e-04	0	42	0	475004928	22	4403
2026-01-11 22:55:25.60	73.81	23.99	-30.9	-32.8	11.9	2.49e-04	0	42	0	476053504	22	4484
2026-01-11 22:55:26.60	74.08	24.03	-30.9	-32.8	11.9	4.85e-04	0	42	0	478150656	22	4514
2026-01-11 22:55:27.61	74.36	24.07	-30.9	-32.9	11.9	4.94e-04	0	42	0	480247808	22	4522
2026-01-11 22:55:28.61	74.64	24.11	-30.9	-32.8	11.9	2.94e-04	0	42	0	482344960	22	4496
2026-01-11 22:55:29.61	74.91	24.14	-30.9	-32.8	11.9	2.93e-04	0	42	0	484442112	22	4496
2026-01-11 22:55:30.62	75.20	24.18	-30.9	-32.8	11.9	5.98e-04	0	42	0	485490688	22	4508
2026-01-11 22:55:31.63	75.48	24.22	-30.8	-32.7	11.9	3.46e-04	0	42	0	487587840	22	4480
2026-01-11 22:55:32.64	75.76	24.25	-30.9	-32.8	11.8	4.41e-04	0	42	0	489684992	22	4502
2026-01-11 22:55:33.63	76.04	24.29	-30.9	-33.0	11.7	9.67e-04	0	42	0	491782144	22	4585
2026-01-11 22:55:34.64	76.32	24.32	-31.1	-33.5	11.4	6.31e-04	0	42	0	493879296	22	4738
2026-01-11 22:55:35.65	76.60	24.35	-31.2	-33.8	11.2	1.35e-03	0	42	0	494927872	22	4870
2026-01-11 22:55:36.66	76.89	24.39	-31.4	-34.4	10.8	2.39e-03	0	42	0	497025024	22	5098
2026-01-11 22:55:37.66	77.17	24.42	-31.5	-34.1	10.6	3.47e-03	0	42	0	499122176	23	4902
2026-01-11 22:55:38.66	77.45	24.45	-31.3	-34.0	11.0	3.51e-03	0	42	0	501219328	22	4946
2026-01-11 22:55:39.67	77.74	24.48	-31.3	-34.1	11.0	2.39e-03	0	42	0	503316480	22	4989
2026-01-11 22:55:40.67	78.02	24.51	-31.3	-34.1	11.0	1.88e-03	0	42	0	504365056	22	4991
2026-01-11 22:55:41.67	78.30	24.54	-31.3	-34.2	10.9	3.73e-03	0	42	0	506462208	22	5011
2026-01-11 22:55:42.68	78.59	24.56	-30.9	-32.8	11.8	5.80e-04	0	42	0	508559360	22	4494
2026-01-11 22:55:43.68	78.88	24.59	-30.3	-31.1	13.0	1.67e-04	0	42	0	510656512	22	3966
2026-01-11 22:55:44.68	79.16	24.62	-29.9	-30.5	13.7	1.75e-05	0	42	0	512753664	21	3878
2026-01-11 22:55:45.69	79.45	24.64	-29.6	-30.4	14.1	7.00e-07	0	42	0	513802240	20	3921
2026-01-11 22:55:46.69	79.74	24.67	-29.6	-30.2	14.2	3.00e-06	0	42	0	515899392	20	3876
2026-01-11 22:55:47.70	80.03	24.69	-29.9	-31.1	13.7	4.50e-06	0	42	0	517996544	20	4117
2026-01-11 22:55:48.71	80.32	24.72	-30.2	-31.9	13.2	1.29e-05	0	42	0	520093696	20	4371
2026-01-11 22:55:49.71	80.60	24.74	-30.6	-32.5	12.4	4.73e-05	0	42	0	522190848	21	4495
2026-01-11 22:55:50.71	80.89	24.76	-30.7	-32.8	12.2	3.46e-04	0	42	0	523239424	21	4574
2026-01-11 22:55:51.71	81.18	24.78	-30.7	-32.8	12.2	1.27e-04	0	42	0	525336576	21	4586
2026-01-11 22:55:52.72	81.47	24.81	-30.6	-32.5	12.4	2.00e-04	0	42	0	527433728	21	4499
2026-01-11 22:55:53.73	81.77	24.83	-30.7	-32.7	12.3	1.98e-04	0	42	0	529530880	21	4566
2026-01-11 22:55:54.74	82.06	24.84	-30.6	-32.7	12.3	3.51e-04	0	42	0	531628032	21	4555
2026-01-11 22:55:55.74	82.35	24.86	-30.8	-33.1	12.0	2.28e-04	0	42	0	532676608	21	4702
2026-01-11 22:55:56.74	82.64	24.88	-31.0	-33.1	11.7	6.41e-04	0	42	0	534773760	22	4622
2026-01-11 22:55:57.75	82.93	24.90	-31.2	-33.9	11.1	1.06e-03	0	42	0	536870912	22	4919
2026-01-11 22:55:58.76	83.23	24.91	-31.0	-33.3	11.5	1.74e-03	0	42	0	538968064	22	4666
2026-01-11 22:55:59.76	83.52	24.93	-30.9	-32.9	11.8	4.65e-04	0	42	0	541065216	22	4523
2026-01-11 22:56:00.77	83.81	24.95	-30.8	-32.6	12.1	2.90e-04	0	42	0	542113792	22	4419
2026-01-11 22:56:01.78	84.11	24.96	-30.8	-32.6	12.1	2.60e-04	0	42	0	544210944	22	4419
2026-01-11 22:56:02.78	84.40	24.97	-30.7	-32.3	12.2	3.17e-04	0	42	0	546308096	22	4335
2026-01-11 22:56:03.79	84.69	24.98	-30.5	-31.7	12.6	1.65e-04	0	42	0	548405248	22	4151
2026-01-11 22:56:04.79	84.99	25.00	-30.0	-31.0	13.5	3.05e-05	0	42	0	550502400	21	4006
2026-01-11 22:56:05.80	85.28	25.01	-29.4	-29.8	14.5	7.00e-07	0	42	0	551550976	20	3759
2026-01-11 22:56:06.80	85.58	25.02	-29.1	-29.5	15.1	0.00e+00	0	42	0	553648128	19	3757
2026-01-11 22:56:07.81	85.87	25.03	-29.0	-29.3	15.2	0.00e+00	0	42	0	555745280	19	3712
2026-01-11 22:56:08.82	86.17	25.04	-29.3	-29.9	14.8	0.00e+00	0	42	0	557842432	19	3890
2026-01-11 22:56:09.83	86.46	25.04	-29.3	-30.1	14.6	1.50e-06	0	42	0	559939584	19	3926
2026-01-11 22:56:10.84	86.76	25.05	-29.6	-30.7	14.3	0.00e+00	0	42	0	560988160	19	4115
2026-01-11 22:56:11.84	87.06	25.06	-29.7	-31.1	14.1	2.20e-06	0	42	0	563085312	19	4208
2026-01-11 22:56:12.84	87.35	25.06	-29.7	-30.9	14.2	7.00e-07	0	42	0	565182464	19	4158
2026-01-11 22:56:13.85	87.65	25.07	-29.6	-30.7	14.3	0.00e+00	0	42	0	567279616	19	4089
2026-01-11 22:56:14.86	87.94	25.07	-29.5	-30.6	14.5	0.00e+00	0	42	0	569376768	19	4061
2026-01-11 22:56:15.86	88.24	25.07	-29.7	-31.1	14.1	7.00e-07	0	42	0	570425344	19	4205
2026-01-11 22:56:16.87	88.53	25.08	-29.5	-30.6	14.4	0.00e+00	0	42	0	572522496	19	4073
2026-01-11 22:56:17.87	88.83	25.08	-29.6	-30.7	14.3	0.00e+00	0	42	0	574619648	19	4106
2026-01-11 22:56:18.88	89.13	25.08	-29.9	-31.5	13.8	7.00e-07	0	42	0	576716800	19	4351
2026-01-11 22:56:19.88	89.42	25.08	-29.8	-30.7	14.0	4.50e-06	0	42	0	578813952	20	4024
2026-01-11 22:56:20.88	89.71	25.08	-30.1	-31.7	13.3	8.30e-06	0	42	0	579862528	20	4307
2026-01-11 22:56:21.89	90.01	25.08	-30.1	-31.8	13.3	1.52e-05	0	42	0	581959680	20	4346
2026-01-11 22:56:22.90	90.31	25.07	-30.2	-31.9	13.2	3.58e-05	0	42	0	584056832	20	4372
2026-01-11 22:56:23.91	90.61	25.07	-30.5	-32.3	12.5	4.34e-05	0	42	0	586153984	21	4433
2026-01-11 22:56:24.91	90.90	25.07	-30.8	-33.1	12.0	1.17e-04	0	42	0	588251136	21	4699
2026-01-11 22:56:25.91	91.19	25.06	-30.5	-32.3	12.6	1.87e-04	0	42	0	589299712	21	4419
2026-01-11 22:56:26.91	91.49	25.06	-30.1	-31.1	13.3	3.81e-05	0	42	0	591396864	21	4054
2026-01-11 22:56:27.91	91.78	25.05	-29.9	-30.6	13.7	7.60e-06	0	42	0	593494016	21	3899
2026-01-11 22:56:28.92	92.08	25.04	-29.8	-30.7	14.0	9.10e-06	0	42	0	595591168	20	4025
2026-01-11 22:56:29.92	92.37	25.03	-29.7	-30.7	14.0	4.50e-06	0	42	0	596639744	20	4005
2026-01-11 22:56:30.92	92.67	25.03	-29.8	-30.9	13.8	7.00e-07	0	42	0	598736896	20	4074
2026-01-11 22:56:31.92	92.96	25.02	-29.5	-30.1	14.3	3.00e-06	0	42	0	600834048	20	3836
2026-01-11 22:56:32.93	93.26	25.01	-29.4	-29.9	14.5	8.30e-06	0	42	0	602931200	20	3792
2026-01-11 22:56:33.93	93.55	24.99	-29.5	-29.9	14.4	7.00e-07	0	42	0	605028352	20	3808
2026-01-11 22:56:34.94	93.84	24.98	-29.8	-30.8	13.8	0.00e+00	0	42	0	606076928	20	4061
2026-01-11 22:56:35.94	94.14	24.97	-29.8	-30.7	13.8	6.80e-06	0	42	0	608174080	20	4025
2026-01-11 22:56:36.94	94.43	24.96	-29.7	-30.5	14.0	4.50e-06	0	42	0	610271232	20	3968
2026-01-11 22:56:37.95	94.72	24.94	-29.7	-30.7	13.9	3.00e-06	0	42	0	612368384	20	4013
2026-01-11 22:56:38.95	95.02	24.93	-29.5	-29.9	14.4	2.20e-06	0	42	0	614465536	20	3800
2026-01-11 22:56:39.96	95.31	24.91	-29.3	-29.6	14.6	0.00e+00	0	42	0	615514112	20	3733
2026-01-11 22:56:40.97	95.61	24.89	-29.4	-29.7	14.5	1.50e-06	0	42	0	617611264	20	3746
2026-01-11 22:56:41.97	95.90	24.88	-29.4	-29.7	14.5	0.00e+00	0	42	0	619708416	20	3737
2026-01-11 22:56:42.98	96.19	24.86	-29.2	-29.8	14.8	0.00e+00	0	42	0	621805568	19	3865
2026-01-11 22:56:43.99	96.48	24.84	-29.1	-29.5	15.0	3.80e-06	0	42	0	623902720	19	3781
2026-01-11 22:56:44.99	96.77	24.82	-29.2	-29.7	14.9	3.80e-06	0	42	0	624951296	19	3820
2026-01-11 22:56:46.00	97.07	24.80	-29.0	-29.2	15.2	0.00e+00	0	42	0	627048448	19	3686
2026-01-11 22:56:47.00	97.35	24.78	-28.9	-28.9	15.3	0.00e+00	0	42	0	629145600	19	3625
2026-01-11 22:56:48.01	97.65	24.76	-28.7	-29.1	15.6	0.00e+00	0	42	0	631242752	18	3752
2026-01-11 22:56:49.02	97.94	24.74	-28.7	-29.1	15.6	0.00e+00	0	42	0	633339904	18	3746
2026-01-11 22:56:50.03	98.23	24.71	-28.8	-29.2	15.4	0.00e+00	0	42	0	634388480	18	3794
2026-01-11 22:56:51.04	98.52	24.69	-29.0	-29.7	15.2	0.00e+00	0	42	0	636485632	18	3911
2026-01-11 22:56:52.04	98.81	24.66	-29.2	-30.3	14.9	0.00e+00	0	42	0	638582784	18	4087
2026-01-11 22:56:53.04	99.09	24.64	-29.3	-30.4	14.8	0.00e+00	0	42	0	640679936	18	4108
2026-01-11 22:56:54.05	99.38	24.61	-29.1	-30.1	15.0	0.00e+00	0	42	0	642777088	18	4013
2026-01-11 22:56:55.05	99.67	24.58	-29.0	-29.8	15.2	0.00e+00	0	42	0	643825664	18	3935
2026-01-11 22:56:56.06	99.96	24.56	-29.2	-30.2	14.9	1.50e-06	0	42	0	645922816	18	4048
2026-01-11 22:56:57.07	100.24	24.53	-29.0	-29.7	15.2	0.00e+00	0	42	0	648019968	18	3928
2026-01-11 22:56:58.07	100.53	24.50	-28.9	-29.6	15.2	0.00e+00	0	42	0	650117120	18	3893
2026-01-11 22:56:59.08	100.82	24.47	-29.0	-29.8	15.2	0.00e+00	0	42	0	652214272	18	3938
2026-01-11 22:57:00.08	101.10	24.44	-28.8	-29.3	15.4	0.00e+00	0	42	0	653262848	18	3818
2026-01-11 22:57:01.09	101.38	24.41	-28.7	-29.0	15.6	0.00e+00	0	42	0	655360000	18	3723
2026-01-11 22:57:02.09	101.67	24.38	-28.8	-29.4	15.4	6.80e-06	0	42	0	657457152	18	3830
2026-01-11 22:57:03.10	101.95	24.34	-29.1	-29.9	15.1	0.00e+00	0	42	0	659554304	18	3979
2026-01-11 22:57:04.11	102.24	24.31	-29.1	-30.0	15.0	0.00e+00	0	42	0	661651456	18	3992
2026-01-11 22:57:05.11	102.52	24.28	-29.1	-30.0	15.0	0.00e+00	0	42	0	662700032	18	3991
2026-01-11 22:57:06.12	102.80	24.24	-29.0	-29.8	15.2	0.00e+00	0	42	0	664797184	18	3945
2026-01-11 22:57:07.12	103.08	24.21	-29.0	-29.9	15.1	0.00e+00	0	42	0	666894336	18	3968
2026-01-11 22:57:08.13	103.36	24.17	-28.9	-29.5	15.3	6.25e-05	0	42	0	668991488	18	3861
2026-01-11 22:57:09.14	103.64	24.13	-29.1	-30.1	15.0	7.00e-07	0	42	0	671088640	18	4015
2026-01-11 22:57:10.14	103.92	24.10	-28.6	-28.9	15.7	0.00e+00	0	42	0	672137216	18	3717
2026-01-11 22:57:11.14	104.20	24.06	-28.8	-29.3	15.4	2.97e-04	0	42	0	674234368	18	3819
2026-01-11 22:57:12.15	104.47	24.02	-28.5	-29.1	15.8	2.96e-04	0	42	0	676331520	17	3847
2026-01-11 22:57:13.16	104.75	23.98	-28.7	-29.5	15.6	0.00e+00	0	42	0	678428672	17	3947
2026-01-11 22:57:14.16	105.03	23.94	-28.8	-29.9	15.3	3.80e-06	0	42	0	680525824	17	4062
2026-01-11 22:57:15.17	105.30	23.90	-28.6	-29.4	15.6	8.39e-05	0	42	0	681574400	17	3928
2026-01-11 22:57:16.17	105.58	23.86	-28.5	-29.0	15.8	0.00e+00	0	42	0	683671552	17	3842
2026-01-11 22:57:17.18	105.85	23.82	-28.6	-29.2	15.7	0.00e+00	0	42	0	685768704	17	3885
2026-01-11 22:57:18.18	106.13	23.78	-28.1	-28.7	16.3	4.17e-04	0	42	0	687865856	16	3843
2026-01-11 22:57:19.19	106.40	23.73	-27.9	-28.3	16.5	0.00e+00	0	42	0	689963008	16	3735
2026-01-11 22:57:20.19	106.67	23.69	-28.0	-28.4	16.4	0.00e+00	0	42	0	691011584	16	3783
2026-01-11 22:57:21.20	106.94	23.65	-28.1	-28.6	16.3	0.00e+00	0	42	0	693108736	16	3833
2026-01-11 22:57:22.21	107.21	23.60	-28.1	-28.5	16.3	0.00e+00	0	42	0	695205888	16	3809
2026-01-11 22:57:23.22	107.49	23.56	-27.8	-28.0	16.7	0.00e+00	0	42	0	697303040	16	3665
2026-01-11 22:57:24.23	107.76	23.51	-27.6	-27.5	16.9	0.00e+00	0	42	0	699400192	16	3560
2026-01-11 22:57:25.23	108.02	23.47	-27.4	-27.0	17.2	0.00e+00	0	42	0	700448768	16	3436
2026-01-11 22:57:26.24	108.29	23.42	-27.5	-27.2	17.1	0.00e+00	0	42	0	702545920	16	3476
2026-01-11 22:57:27.24	108.56	23.37	-27.5	-27.2	17.1	0.00e+00	0	42	0	704643072	16	3487
2026-01-11 22:57:28.24	108.82	23.32	-27.5	-27.3	17.0	0.00e+00	0	42	0	706740224	16	3517
2026-01-11 22:57:29.25	109.09	23.27	-27.9	-28.2	16.5	0.00e+00	0	42	0	708837376	16	3733
2026-01-11 22:57:30.26	109.35	23.23	-28.3	-29.1	16.0	0.00e+00	0	42	0	709885952	16	3957
2026-01-11 22:57:31.27	109.62	23.18	-28.4	-29.4	15.8	0.00e+00	0	42	0	711983104	16	4040
2026-01-11 22:57:32.27	109.88	23.13	-28.5	-29.0	15.7	0.00e+00	0	42	0	714080256	17	3843
2026-01-11 22:57:33.28	110.14	23.08	-28.4	-29.0	15.7	0.00e+00	0	42	0	716177408	17	3823
2026-01-11 22:57:34.29	110.41	23.02	-28.2	-28.4	16.1	0.00e+00	0	42	0	718274560	17	3671
2026-01-11 22:57:35.30	110.67	22.97	-28.1	-28.4	16.0	0.00e+00	0	42	0	719323136	17	3724
2026-01-11 22:57:36.30	110.93	22.92	-28.0	-28.0	16.4	0.00e+00	0	42	0	721420288	17	3580
2026-01-11 22:57:37.31	111.18	22.87	-28.2	-28.4	16.0	0.00e+00	0	42	0	723517440	17	3686
2026-01-11 22:57:38.32	111.44	22.81	-28.3	-28.6	16.0	0.00e+00	0	42	0	725614592	17	3726
2026-01-11 22:57:39.32	111.70	22.76	-28.4	-28.8	15.9	0.00e+00	0	42	0	727711744	17	3793
2026-01-11 22:57:40.32	111.95	22.71	-28.2	-28.3	16.1	0.00e+00	0	42	0	728760320	17	3671
2026-01-11 22:57:41.33	112.21	22.65	-28.1	-28.2	16.2	0.00e+00	0	42	0	730857472	17	3636
2026-01-11 22:57:42.33	112.46	22.60	-28.1	-28.3	16.2	0.00e+00	0	42	0	732954624	17	3649
2026-01-11 22:57:43.34	112.72	22.54	-28.4	-29.0	15.8	0.00e+00	0	42	0	735051776	17	3835
2026-01-11 22:57:44.35	112.97	22.49	-28.7	-29.6	15.4	0.00e+00	0	42	0	737148928	17	3988
2026-01-11 22:57:45.35	113.22	22.43	-28.8	-29.7	15.4	0.00e+00	0	42	0	738197504	17	4033
2026-01-11 22:57:46.36	113.47	22.37	-29.2	-30.3	14.6	3.00e-06	0	42	0	740294656	18	4094
2026-01-11 22:57:47.37	113.72	22.32	-28.9	-29.5	15.2	0.00e+00	0	42	0	742391808	18	3871
2026-01-11 22:57:48.37	113.97	22.26	-28.8	-29.4	15.3	0.00e+00	0	42	0	744488960	18	3849
2026-01-11 22:57:49.38	114.22	22.20	-29.1	-30.1	14.8	1.50e-04	0	42	0	746586112	18	4028
2026-01-11 22:57:50.39	114.47	22.14	-29.1	-30.1	14.8	7.00e-07	0	42	0	747634688	18	4032
2026-01-11 22:57:51.40	114.72	22.08	-29.2	-30.3	14.7	0.00e+00	0	42	0	749731840	18	4111
2026-01-11 22:57:52.40	114.96	22.03	-29.3	-30.7	14.5	4.37e-04	0	42	0	751828992	18	4218
2026-01-11 22:57:53.41	115.21	21.97	-29.5	-31.1	14.2	3.66e-04	0	42	0	753926144	18	4323
2026-01-11 22:57:54.41	115.45	21.91	-29.6	-30.8	14.0	7.00e-07	0	42	0	756023296	19	4164
2026-01-11 22:57:55.42	115.69	21.85	-29.4	-30.5	14.3	2.20e-06	0	42	0	757071872	19	4050
2026-01-11 22:57:56.42	115.93	21.79	-29.3	-30.1	14.5	4.65e-05	0	42	0	759169024	19	3958
2026-01-11 22:57:57.43	116.18	21.72	-29.5	-30.6	14.2	0.00e+00	0	42	0	761266176	19	4103
2026-01-11 22:57:58.44	116.42	21.66	-29.5	-30.7	14.1	7.00e-07	0	42	0	763363328	19	4132
2026-01-11 22:57:59.44	116.65	21.60	-29.1	-29.6	14.6	7.00e-07	0	42	0	765460480	19	3823
2026-01-11 22:58:00.45	116.89	21.54	-29.2	-29.8	14.6	1.50e-06	0	42	0	766509056	19	3863
2026-01-11 22:58:01.46	117.13	21.48	-29.4	-30.4	14.2	7.00e-07	0	42	0	768606208	19	4048
2026-01-11 22:58:02.46	117.37	21.41	-29.9	-31.7	13.4	6.10e-06	0	42	0	770703360	19	4453
2026-01-11 22:58:03.47	117.60	21.35	-30.3	-32.4	12.6	6.94e-05	0	42	0	772800512	20	4594
2026-01-11 22:58:04.47	117.83	21.29	-30.0	-31.7	13.0	4.80e-05	0	42	0	774897664	20	4339
2026-01-11 22:58:05.48	118.07	21.22	-29.9	-31.2	13.3	2.74e-05	0	42	0	775946240	20	4186
2026-01-11 22:58:06.49	118.30	21.16	-29.6	-30.5	13.8	9.10e-06	0	42	0	778043392	20	3975
2026-01-11 22:58:07.49	118.53	21.09	-29.4	-30.3	14.3	2.12e-04	0	42	0	780140544	19	4021
2026-01-11 22:58:08.50	118.76	21.03	-29.1	-29.6	14.7	1.50e-06	0	42	0	782237696	19	3811
2026-01-11 22:58:09.50	118.99	20.97	-28.8	-29.0	15.1	0.00e+00	0	42	0	784334848	19	3651
2026-01-11 22:58:10.51	119.22	20.90	-29.2	-30.4	14.6	2.91e-04	0	42	0	785383424	18	4121
2026-01-11 22:58:11.51	119.45	20.83	-29.4	-30.5	14.2	3.19e-04	0	42	0	787480576	19	4054
2026-01-11 22:58:12.52	119.68	20.77	-29.3	-30.2	14.4	0.00e+00	0	42	0	789577728	19	3982
2026-01-11 22:58:13.52	119.90	20.70	-29.6	-31.0	13.9	2.04e-04	0	42	0	791674880	19	4217
2026-01-11 22:58:14.53	120.13	20.64	-29.9	-31.6	13.5	1.77e-04	0	42	0	793772032	19	4412
2026-01-11 22:58:15.53	120.35	20.57	-29.8	-31.4	13.6	6.80e-06	0	42	0	794820608	19	4340
2026-01-11 22:58:16.54	120.57	20.50	-29.7	-31.2	13.8	9.10e-06	0	42	0	796917760	19	4277
2026-01-11 22:58:17.54	120.79	20.44	-29.8	-31.4	13.6	5.30e-06	0	42	0	799014912	19	4341
2026-01-11 22:58:18.54	121.01	20.37	-29.7	-31.3	13.6	6.80e-06	0	42	0	801112064	19	4309
2026-01-11 22:58:19.54	121.23	20.30	-29.7	-31.0	13.8	7.60e-06	0	42	0	803209216	19	4225
2026-01-11 22:58:20.55	121.45	20.23	-29.8	-31.4	13.6	9.90e-06	0	42	0	804257792	19	4340
2026-01-11 22:58:21.56	121.67	20.17	-29.7	-31.2	13.7	1.06e-05	0	42	0	806354944	19	4267
2026-01-11 22:58:22.56	121.89	20.10	-29.6	-30.8	14.0	2.20e-06	0	42	0	808452096	19	4150
2026-01-11 22:58:23.57	122.11	20.03	-29.4	-30.5	14.2	2.59e-05	0	42	0	810549248	19	4053
2026-01-11 22:58:24.57	122.32	19.96	-29.2	-29.8	14.6	7.00e-07	0	42	0	811597824	19	3876
2026-01-11 22:58:25.58	122.54	19.89	-29.4	-30.3	14.3	2.51e-05	0	42	0	813694976	19	4001
2026-01-11 22:58:26.58	122.75	19.82	-29.4	-30.3	14.3	7.00e-07	0	42	0	815792128	19	4012
2026-01-11 22:58:27.59	122.96	19.75	-29.6	-30.8	14.0	0.00e+00	0	42	0	817889280	19	4161
2026-01-11 22:58:28.60	123.17	19.68	-29.8	-31.4	13.6	3.80e-06	0	42	0	819986432	19	4343
2026-01-11 22:58:29.61	123.39	19.61	-29.9	-31.9	13.3	1.37e-05	0	42	0	822083584	19	4501
2026-01-11 22:58:30.61	123.60	19.54	-30.0	-31.4	13.1	2.97e-05	0	42	0	823132160	20	4268
2026-01-11 22:58:31.62	123.81	19.47	-29.9	-31.2	13.3	3.35e-05	0	42	0	825229312	20	4197
2026-01-11 22:58:32.63	124.01	19.40	-29.8	-31.1	13.4	1.06e-05	0	42	0	827326464	20	4166
2026-01-11 22:58:33.63	124.22	19.33	-29.8	-31.0	13.4	1.37e-05	0	42	0	829423616	20	4134
2026-01-11 22:58:34.64	124.43	19.26	-29.7	-30.8	13.5	8.23e-05	0	42	0	831520768	20	4076
2026-01-11 22:58:35.65	124.63	19.19	-29.6	-30.6	13.6	6.10e-06	0	42	0	832569344	20	4009
2026-01-11 22:58:36.66	124.84	19.12	-29.7	-30.7	13.5	6.10e-06	0	42	0	834666496	20	4065
2026-01-11 22:58:37.66	125.04	19.05	-30.1	-31.8	12.9	2.67e-05	0	42	0	836763648	20	4380
2026-01-11 22:58:38.66	125.24	18.98	-30.4	-32.7	12.2	1.77e-04	0	42	0	838860800	20	4704
2026-01-11 22:58:39.67	125.44	18.91	-30.6	-33.0	11.7	3.20e-04	0	42	0	839909376	21	4718
2026-01-11 22:58:40.67	125.64	18.84	-30.5	-32.8	11.8	6.81e-04	0	42	0	842006528	21	4640
2026-01-11 22:58:41.68	125.84	18.76	-30.1	-31.3	12.8	1.94e-04	0	42	0	844103680	21	4157
2026-01-11 22:58:42.69	126.04	18.69	-29.7	-30.8	13.5	1.44e-05	0	42	0	846200832	20	4093
2026-01-11 22:58:43.70	126.24	18.62	-29.3	-29.7	14.2	3.00e-06	0	42	0	848297984	20	3770
2026-01-11 22:58:44.70	126.44	18.55	-29.1	-29.7	14.6	1.50e-06	0	42	0	850395136	19	3865
2026-01-11 22:58:45.71	126.64	18.48	-29.3	-30.3	14.2	1.50e-06	0	42	0	851443712	19	4003
2026-01-11 22:58:46.71	126.83	18.41	-29.5	-30.6	14.0	2.74e-05	0	42	0	853540864	19	4113
2026-01-11 22:58:47.72	127.02	18.33	-29.7	-31.1	13.7	9.10e-06	0	42	0	855638016	19	4249
2026-01-11 22:58:48.72	127.22	18.26	-29.8	-31.4	13.5	4.50e-06	0	42	0	857735168	19	4341
2026-01-11 22:58:49.72	127.41	18.19	-29.6	-31.0	13.7	3.80e-06	0	42	0	858783744	19	4236
2026-01-11 22:58:50.73	127.60	18.12	-29.4	-30.5	14.0	4.50e-06	0	42	0	860880896	19	4093
2026-01-11 22:58:51.74	127.79	18.04	-29.4	-30.4	14.0	3.00e-06	0	42	0	862978048	19	4066
2026-01-11 22:58:52.74	127.98	17.97	-29.4	-30.5	14.0	2.20e-06	0	42	0	865075200	19	4084
2026-01-11 22:58:53.74	128.17	17.90	-29.3	-30.3	14.2	1.50e-06	0	42	0	867172352	19	4014
2026-01-11 22:58:54.75	128.36	17.82	-29.3	-30.2	14.2	0.00e+00	0	42	0	868220928	19	3995
2026-01-11 22:58:55.75	128.54	17.75	-29.5	-30.6	13.9	6.10e-06	0	42	0	870318080	19	4121
2026-01-11 22:58:56.75	128.73	17.68	-29.7	-31.3	13.5	3.80e-06	0	42	0	872415232	19	4309
2026-01-11 22:58:57.76	128.92	17.61	-29.8	-31.4	13.4	1.44e-05	0	42	0	874512384	19	4359
2026-01-11 22:58:58.76	129.10	17.53	-29.9	-31.7	13.2	2.97e-05	0	42	0	876609536	19	4450
2026-01-11 22:58:59.77	129.28	17.46	-29.6	-31.0	13.7	1.29e-05	0	42	0	877658112	19	4233
2026-01-11 22:59:00.78	129.47	17.39	-29.5	-30.6	14.0	3.00e-06	0	42	0	879755264	19	4113
2026-01-11 22:59:01.78	129.65	17.31	-29.4	-30.5	14.0	0.00e+00	0	42	0	881852416	19	4072
2026-01-11 22:59:02.78	129.83	17.24	-29.3	-30.6	14.3	2.20e-06	0	42	0	883949568	18	4195
2026-01-11 22:59:03.79	130.01	17.17	-29.2	-30.5	14.3	0.00e+00	0	42	0	886046720	18	4159
2026-01-11 22:59:04.79	130.19	17.09	-29.3	-30.6	14.3	7.00e-07	0	42	0	887095296	18	4199
2026-01-11 22:59:05.80	130.37	17.02	-29.8	-31.5	13.3	9.90e-06	0	42	0	889192448	19	4399
2026-01-11 22:59:06.80	130.54	16.95	-29.9	-31.7	13.2	2.13e-05	0	42	0	891289600	19	4452
2026-01-11 22:59:07.81	130.72	16.87	-30.3	-32.4	12.4	7.32e-05	0	42	0	893386752	20	4598
2026-01-11 22:59:08.81	130.90	16.80	-30.0	-31.6	12.8	1.09e-04	0	42	0	895483904	20	4350
2026-01-11 22:59:09.82	131.07	16.72	-29.8	-31.1	13.2	2.89e-05	0	42	0	896532480	20	4182
2026-01-11 22:59:10.83	131.25	16.65	-29.5	-30.4	13.6	1.06e-05	0	42	0	898629632	20	3987
2026-01-11 22:59:11.83	131.42	16.58	-29.5	-30.2	13.7	2.20e-06	0	42	0	900726784	20	3927
2026-01-11 22:59:12.84	131.59	16.50	-29.5	-30.4	13.6	7.60e-06	0	42	0	902823936	20	3970
2026-01-11 22:59:13.84	131.76	16.43	-29.4	-30.0	13.8	4.50e-06	0	42	0	904921088	20	3874
2026-01-11 22:59:14.85	131.94	16.36	-29.3	-29.8	13.9	6.80e-06	0	42	0	905969664	20	3819
2026-01-11 22:59:15.85	132.11	16.28	-29.5	-30.7	13.8	1.96e-04	0	42	0	908066816	19	4138
2026-01-11 22:59:16.86	132.28	16.21	-29.5	-30.7	13.8	3.35e-04	0	42	0	910163968	19	4150
2026-01-11 22:59:17.87	132.44	16.13	-29.7	-31.4	13.3	9.10e-06	0	42	0	912261120	19	4361
2026-01-11 22:59:18.88	132.61	16.06	-29.6	-31.1	13.5	1.67e-05	0	42	0	914358272	19	4263
2026-01-11 22:59:19.88	132.78	15.99	-29.4	-30.5	13.9	2.11e-04	0	42	0	915406848	19	4102
2026-01-11 22:59:20.89	132.95	15.91	-29.1	-29.7	14.3	7.00e-07	0	42	0	917504000	19	3880
2026-01-11 22:59:21.90	133.11	15.84	-29.0	-29.5	14.5	7.00e-07	0	42	0	919601152	19	3813
2026-01-11 22:59:22.90	133.28	15.76	-29.0	-29.6	14.4	4.11e-05	0	42	0	921698304	19	3847
2026-01-11 22:59:23.91	133.44	15.69	-29.3	-30.2	14.0	1.50e-06	0	42	0	923795456	19	3998
2026-01-11 22:59:24.92	133.60	15.62	-29.3	-30.4	13.9	2.20e-06	0	42	0	924844032	19	4056
2026-01-11 22:59:25.92	133.77	15.54	-29.6	-31.2	13.3	5.11e-05	0	42	0	926941184	19	4308
2026-01-11 22:59:26.93	133.93	15.47	-29.9	-32.0	12.8	5.34e-05	0	42	0	929038336	19	4589
2026-01-11 22:59:27.93	134.09	15.39	-30.0	-32.0	12.3	2.26e-04	0	42	0	931135488	20	4532
2026-01-11 22:59:28.94	134.25	15.32	-30.3	-32.8	11.7	3.07e-04	0	42	0	933232640	20	4821
2026-01-11 22:59:29.94	134.41	15.25	-30.2	-32.6	11.8	3.64e-04	0	42	0	934281216	20	4736
2026-01-11 22:59:30.94	134.56	15.17	-30.0	-32.1	12.2	6.93e-04	0	42	0	936378368	20	4573
2026-01-11 22:59:31.95	134.72	15.10	-29.9	-31.8	12.4	2.10e-04	0	42	0	938475520	20	4449
2026-01-11 22:59:32.96	134.88	15.03	-29.8	-31.5	12.6	7.32e-05	0	42	0	940572672	20	4366
2026-01-11 22:59:33.96	135.04	14.95	-29.9	-31.5	12.6	3.94e-04	0	42	0	942669824	20	4370
2026-01-11 22:59:34.97	135.19	14.88	-30.0	-31.8	12.4	2.24e-04	0	42	0	943718400	20	4444
2026-01-11 22:59:35.97	135.35	14.80	-29.8	-31.2	12.9	6.25e-05	0	42	0	945815552	20	4234
2026-01-11 22:59:36.98	135.50	14.73	-29.7	-31.1	13.0	6.86e-05	0	42	0	947912704	20	4208
2026-01-11 22:59:37.98	135.65	14.66	-29.6	-30.8	13.2	1.98e-05	0	42	0	950009856	20	4109
2026-01-11 22:59:38.99	135.81	14.58	-29.7	-31.0	13.0	1.90e-05	0	42	0	952107008	20	4163
2026-01-11 22:59:39.99	135.96	14.51	-29.4	-30.2	13.4	2.51e-05	0	42	0	953155584	20	3953
2026-01-11 22:59:41.00	136.11	14.44	-29.3	-30.3	13.8	4.88e-05	0	42	0	955252736	19	4036
2026-01-11 22:59:42.00	136.26	14.36	-29.3	-30.3	13.8	2.20e-06	0	42	0	957349888	19	4060
2026-01-11 22:59:43.01	136.41	14.29	-29.0	-29.7	14.2	1.62e-04	0	42	0	959447040	19	3884
2026-01-11 22:59:44.01	136.56	14.22	-28.9	-30.0	14.3	1.44e-04	0	42	0	961544192	18	4055
2026-01-11 22:59:45.02	136.70	14.14	-29.0	-30.1	14.2	0.00e+00	0	42	0	962592768	18	4077
2026-01-11 22:59:46.03	136.85	14.07	-29.1	-30.3	14.1	4.50e-06	0	42	0	964689920	18	4159
2026-01-11 22:59:47.03	137.00	14.00	-29.2	-30.7	13.8	2.28e-05	0	42	0	966787072	18	4268
2026-01-11 22:59:48.04	137.15	13.92	-29.4	-31.2	13.5	9.10e-06	0	42	0	968884224	18	4421
2026-01-11 22:59:49.05	137.29	13.85	-29.5	-30.9	13.4	9.90e-06	0	42	0	970981376	19	4236
2026-01-11 22:59:50.05	137.44	13.78	-29.6	-31.2	13.2	6.48e-05	0	42	0	972029952	19	4325
2026-01-11 22:59:51.06	137.58	13.70	-29.9	-32.0	12.6	7.01e-05	0	42	0	974127104	19	4613
2026-01-11 22:59:52.06	137.72	13.63	-29.9	-32.1	12.5	2.27e-04	0	42	0	976224256	19	4648
2026-01-11 22:59:53.07	137.87	13.56	-30.0	-32.0	12.1	2.04e-04	0	42	0	978321408	20	4535
2026-01-11 22:59:54.07	138.01	13.49	-30.1	-32.2	12.0	2.94e-04	0	42	0	980418560	20	4598
2026-01-11 22:59:55.08	138.15	13.41	-30.0	-31.9	12.2	3.83e-04	0	42	0	981467136	20	4485
2026-01-11 22:59:56.09	138.29	13.34	-30.1	-32.3	11.9	2.85e-04	0	42	0	983564288	20	4637
2026-01-11 22:59:57.10	138.43	13.27	-30.0	-31.9	12.2	2.32e-04	0	42	0	985661440	20	4499
2026-01-11 22:59:58.10	138.57	13.19	-29.7	-31.3	12.6	1.42e-04	0	42	0	987758592	20	4285
2026-01-11 22:59:59.10	138.71	13.12	-29.8	-31.5	12.5	1.31e-04	0	42	0	989855744	20	4370
2026-01-11 23:00:00.11	138.85	13.05	-29.7	-31.1	12.7	1.03e-04	0	42	0	990904320	20	4231
2026-01-11 23:00:01.11	138.98	12.98	-29.7	-31.1	12.7	5.87e-05	0	42	0	993001472	20	4241
2026-01-11 23:00:02.11	139.12	12.91	-29.8	-31.3	12.5	7.17e-05	0	42	0	995098624	20	4314
2026-01-11 23:00:03.12	139.25	12.83	-29.7	-31.1	12.7	7.78e-05	0	42	0	997195776	20	4225
2026-01-11 23:00:04.13	139.39	12.76	-29.6	-30.8	12.9	4.95e-05	0	42	0	998244352	20	4152
2026-01-11 23:00:05.14	139.53	12.69	-29.6	-30.8	12.9	2.17e-04	0	42	0	1000341504	20	4146
2026-01-11 23:00:06.14	139.66	12.62	-29.5	-30.5	13.0	2.51e-05	0	42	0	1002438656	20	4059
2026-01-11 23:00:07.15	139.79	12.54	-29.6	-31.4	12.9	4.27e-05	0	42	0	1004535808	19	4407
2026-01-11 23:00:08.15	139.92	12.47	-29.4	-30.8	13.3	3.20e-05	0	42	0	1006632960	19	4238
2026-01-11 23:00:09.15	140.06	12.40	-29.4	-30.9	13.2	2.21e-05	0	42	0	1008730112	19	4246
2026-01-11 23:00:10.15	140.19	12.33	-29.5	-31.0	13.1	4.04e-05	0	42	0	1009778688	19	4296
2026-01-11 23:00:11.16	140.32	12.26	-29.4	-30.8	13.2	2.74e-05	0	42	0	1011875840	19	4242
2026-01-11 23:00:12.17	140.45	12.19	-29.5	-31.1	13.0	3.28e-05	0	42	0	1013972992	19	4331
2026-01-11 23:00:13.18	140.58	12.11	-29.6	-31.4	12.8	4.88e-05	0	42	0	1016070144	19	4420
2026-01-11 23:00:14.17	140.71	12.04	-29.5	-31.0	13.0	3.28e-05	0	42	0	1017118720	19	4309
2026-01-11 23:00:15.19	140.84	11.97	-29.6	-31.4	12.7	5.11e-05	0	42	0	1019215872	19	4434
2026-01-11 23:00:16.19	140.96	11.90	-29.6	-31.5	12.6	7.78e-05	0	42	0	1021313024	19	4469
2026-01-11 23:00:17.20	141.09	11.83	-29.9	-32.4	12.1	1.23e-04	0	42	0	1023410176	19	4759
2026-01-11 23:00:18.21	141.22	11.76	-30.1	-32.4	11.6	4.49e-04	0	42	0	1025507328	20	4703
2026-01-11 23:00:19.21	141.34	11.69	-30.0	-32.1	11.8	4.48e-04	0	42	0	1026555904	20	4602
2026-01-11 23:00:20.22	141.47	11.62	-30.2	-32.8	11.3	7.77e-04	0	42	0	1028653056	20	4841
2026-01-11 23:00:21.22	141.60	11.54	-30.3	-33.3	10.9	2.15e-03	0	42	0	1030750208	20	5087
2026-01-11 23:00:22.23	141.72	11.47	-30.3	-33.1	11.0	1.73e-03	0	42	0	1032847360	20	4981
2026-01-11 23:00:23.23	141.84	11.40	-30.3	-33.4	10.8	2.48e-03	0	42	0	1034944512	20	5096
2026-01-11 23:00:24.24	141.97	11.33	-29.9	-33.1	10.7	3.92e-03	0	42	0	1037041664	20	5198
2026-01-11 23:00:25.24	142.09	11.26	-30.4	-33.7	10.4	3.39e-03	0	42	0	1038090240	20	5260
2026-01-11 23:00:26.24	142.21	11.19	-30.3	-33.4	10.7	3.34e-03	0	42	0	1040187392	20	5130
2026-01-11 23:00:27.25	142.33	11.12	-30.3	-33.3	10.3	2.33e-03	0	42	0	1042284544	20	5087
2026-01-11 23:00:28.26	142.45	11.05	-30.4	-33.6	10.2	3.32e-03	0	42	0	1044381696	20	5205
2026-01-11 23:00:29.26	142.57	10.98	-30.2	-33.0	11.0	2.62e-03	0	42	0	1045430272	20	4962
2026-01-11 23:00:30.26	142.69	10.91	-30.1	-32.6	11.2	1.14e-03	0	42	0	1047527424	20	4795
2026-01-11 23:00:31.27	142.81	10.84	-30.1	-32.6	11.2	1.31e-03	0	42	0	1049624576	20	4825
2026-01-11 23:00:32.27	142.93	10.77	-29.8	-31.7	11.8	8.40e-04	0	42	0	1051721728	20	4498
2026-01-11 23:00:33.26	143.05	10.70	-30.0	-32.7	11.6	6.15e-04	0	42	0	1053818880	19	4933
2026-01-11 23:00:34.27	143.17	10.63	-29.9	-32.1	11.6	8.84e-04	0	42	0	1054867456	20	4605
2026-01-11 23:00:35.28	143.28	10.56	-29.8	-31.8	11.8	6.43e-04	0	42	0	1056964608	20	4524
2026-01-11 23:00:36.27	143.40	10.49	-29.9	-32.6	11.7	1.54e-03	0	42	0	1059061760	19	4868
2026-01-11 23:00:37.28	143.51	10.42	-29.9	-32.4	11.8	6.75e-04	0	42	0	1061158912	19	4801
2026-01-11 23:00:38.29	143.63	10.36	-29.8	-32.3	11.9	3.78e-04	0	42	0	1063256064	19	4780
2026-01-11 23:00:39.29	143.74	10.29	-29.8	-32.3	11.8	1.75e-03	0	42	0	1064304640	19	4788
2026-01-11 23:00:40.30	143.86	10.22	-29.7	-31.9	12.1	3.38e-04	0	42	0	1066401792	19	4628
2026-01-11 23:00:41.31	143.97	10.15	-29.8	-32.3	11.8	3.49e-04	0	42	0	1068498944	19	4794
2026-01-11 23:00:42.32	144.09	10.08	-29.8	-32.4	11.7	6.00e-04	0	42	0	1070596096	19	4839
2026-01-11 23:00:43.32	144.20	10.01	-29.7	-32.0	11.9	2.16e-03	0	42	0	1072693248	19	4697
2026-01-11 23:00:44.32	144.31	9.94	-29.7	-31.8	12.1	2.51e-04	0	42	0	1073741824	19	4621
2026-01-11 23:00:45.33	144.42	9.87	-29.7	-31.9	12.0	2.94e-04	0	42	0	1075838976	19	4642
2026-01-11 23:00:46.33	144.54	9.80	-29.8	-32.3	11.8	2.19e-03	0	42	0	1077936128	19	4778
2026-01-11 23:00:47.34	144.65	9.74	-30.0	-32.7	11.5	8.82e-04	0	42	0	1080033280	19	4929
2026-01-11 23:00:48.35	144.76	9.67	-29.8	-32.1	11.9	6.09e-04	0	42	0	1082130432	19	4703
2026-01-11 23:00:49.36	144.87	9.60	-29.9	-32.5	11.6	2.56e-03	0	42	0	1083179008	19	4866
2026-01-11 23:00:50.37	144.98	9.53	-30.0	-32.3	11.3	1.05e-03	0	42	0	1085276160	20	4715
2026-01-11 23:00:51.38	145.09	9.46	-30.0	-32.3	11.3	1.05e-03	0	42	0	1087373312	20	4729
2026-01-11 23:00:52.39	145.20	9.39	-30.1	-32.8	10.9	4.23e-03	0	42	0	1089470464	20	4920
2026-01-11 23:00:53.40	145.30	9.32	-30.1	-32.8	10.9	2.04e-03	0	42	0	1091567616	20	4923
2026-01-11 23:00:54.40	145.41	9.26	-30.2	-33.2	10.6	4.19e-03	0	42	0	1092616192	20	5078
2026-01-11 23:00:55.41	145.52	9.19	-30.3	-33.7	10.2	4.40e-03	0	42	0	1094713344	20	5315
2026-01-11 23:00:56.42	145.63	9.12	-30.1	-32.9	10.8	3.37e-03	0	42	0	1096810496	20	4993
2026-01-11 23:00:57.42	145.73	9.05	-30.2	-33.2	10.6	5.24e-03	0	42	0	1098907648	20	5076
2026-01-11 23:00:58.43	145.84	8.99	-30.0	-32.7	11.0	4.81e-03	0	42	0	1101004800	20	4885
2026-01-11 23:00:59.44	145.94	8.92	-29.9	-32.4	11.2	1.54e-03	0	42	0	1102053376	20	4781
2026-01-11 23:01:00.44	146.05	8.85	-29.9	-32.4	11.2	3.62e-03	0	42	0	1104150528	20	4791
2026-01-11 23:01:01.45	146.15	8.78	-29.8	-32.5	11.6	3.12e-03	0	42	0	1106247680	19	4879
2026-01-11 23:01:02.46	146.26	8.72	-29.8	-32.5	11.6	7.43e-04	0	42	0	1108344832	19	4910
2026-01-11 23:01:03.47	146.36	8.65	-29.9	-32.7	11.5	2.83e-03	0	42	0	1110441984	19	4963
2026-01-11 23:01:04.47	146.46	8.58	-29.8	-32.3	11.7	2.84e-03	0	42	0	1111490560	19	4800
2026-01-11 23:01:05.48	146.56	8.52	-30.0	-32.9	11.3	1.05e-03	0	42	0	1113587712	19	5050
2026-01-11 23:01:06.48	146.67	8.45	-30.0	-32.6	11.0	4.22e-03	0	42	0	1115684864	20	4867
2026-01-11 23:01:07.48	146.77	8.38	-30.0	-32.8	10.9	4.25e-03	0	42	0	1117782016	20	4926
2026-01-11 23:01:08.48	146.87	8.32	-30.2	-33.2	10.6	3.23e-03	0	42	0	1119879168	20	5119
2026-01-11 23:01:09.49	146.97	8.25	-30.0	-32.9	10.8	3.81e-03	0	42	0	1120927744	20	4989
2026-01-11 23:01:10.49	147.07	8.19	-30.2	-33.5	10.3	6.11e-03	0	42	0	1123024896	20	5259
2026-01-11 23:01:11.50	147.17	8.12	-30.3	-33.9	10.0	7.60e-03	0	42	0	1125122048	20	5458
2026-01-11 23:01:12.50	147.27	8.05	-30.2	-33.6	10.2	6.05e-03	0	42	0	1127219200	20	5324
2026-01-11 23:01:13.52	147.37	7.99	-30.4	-34.4	9.5	1.47e-02	0	42	0	1129316352	20	5725
2026-01-11 23:01:14.51	147.46	7.92	-30.4	-34.6	9.4	1.50e-02	0	42	0	1130364928	20	5799
2026-01-11 23:01:15.52	147.56	7.86	-30.4	-34.5	9.4	2.13e-02	0	42	0	1132462080	20	5782
2026-01-11 23:01:16.53	147.66	7.79	-30.5	-34.5	9.0	2.40e-02	0	42	0	1134559232	21	5700
2026-01-11 23:01:17.53	147.76	7.73	-30.5	-34.5	9.0	2.81e-02	0	42	0	1136656384	21	5706
2026-01-11 23:01:18.53	147.85	7.66	-30.7	-35.2	8.5	3.79e-02	0	42	0	1138753536	21	6055
2026-01-11 23:01:19.54	147.95	7.59	-30.7	-35.1	8.5	4.07e-02	0	42	0	1139802112	21	5987
2026-01-11 23:01:20.54	148.04	7.53	-30.4	-34.0	9.4	2.38e-02	0	42	0	1141899264	21	5451
2026-01-11 23:01:21.55	148.14	7.46	-30.6	-34.5	9.0	2.23e-02	0	42	0	1143996416	21	5674
2026-01-11 23:01:22.55	148.23	7.40	-30.5	-34.4	9.1	2.41e-02	0	42	0	1146093568	21	5602
2026-01-11 23:01:23.55	148.33	7.34	-30.4	-34.2	9.7	1.20e-02	0	42	0	1148190720	20	5575
2026-01-11 23:01:24.56	148.42	7.27	-30.4	-34.3	9.5	1.78e-02	0	42	0	1149239296	20	5667
2026-01-11 23:01:25.56	148.52	7.21	-30.1	-33.4	10.2	1.43e-02	0	42	0	1151336448	20	5243
2026-01-11 23:01:26.57	148.61	7.14	-30.1	-33.7	10.0	5.71e-03	0	42	0	1153433600	20	5397
2026-01-11 23:01:27.57	148.70	7.08	-32.1	-44.7	3.9	2.27e-01	0	42	104	1154482176	24	15299
2026-01-11 23:01:28.58	148.80	7.01	-32.8	-45.5	3.8	1.49e+00	0	42	104	1154482176	25	15425
2026-01-11 23:01:29.58	148.89	6.95	-33.3	-46.0	3.8	1.49e+00	0	42	104	1154482176	26	15386
2026-01-11 23:01:30.59	148.98	6.88	-33.6	-45.9	3.8	1.49e+00	0	42	104	1154482176	27	14922

#Closed at: 2026-01-11 23:01:31
#Recorded file [1154 MB]: D:/data/31010_260112_015111.dat