passes_logs/2026/01/11/R2M6_AANII_01/R2M6_AANII_01__20260111_150822_FENGYUN_3E_rec.log

#Pass ID: 20260111_150822_FENGYUN 3E
#Satellite: FENGYUN 3E
#Configuration: FENGYUN 3E
#almurnet v.1.7.20240730
#Start time: 2026-01-11 15:08:22

#Version: 2.2.20231116
#Station: R2M6_AANII_01
#Location: 30.233357 lon 59.946436 lat
#TLE: 1 49008U 21062A   26010.98903141  .00000148  00000+0  90257-4 0  9995
#TLE: 2 49008  98.7490  16.1644 0001865 146.3673 213.7622 14.19884943234274

#Time	Az	El	Level	Level2	SNR	BER	BlckErr	Temp	State	Recorded	gain1	gain2
2026-01-11 15:08:22.93	177.08	7.02	-27.2	-29.2	5.6	7.62e-01	0	40	0	0	14	4512
2026-01-11 15:08:23.93	177.11	7.09	-29.2	-32.0	5.2	7.81e-01	0	40	104	0	18	4974
2026-01-11 15:08:24.94	177.15	7.17	-28.9	-31.1	9.5	1.51e-02	0	40	0	0	18	4653
2026-01-11 15:08:25.95	177.18	7.24	-29.1	-31.6	9.2	1.73e-02	0	40	0	7340032	18	4807
2026-01-11 15:08:26.95	177.22	7.32	-28.8	-30.9	9.7	1.47e-02	0	40	0	14680064	18	4577
2026-01-11 15:08:27.96	177.25	7.40	-28.1	-29.6	10.8	2.99e-03	0	40	0	20971520	17	4281
2026-01-11 15:08:28.97	177.29	7.48	-27.6	-28.9	11.5	1.90e-03	0	40	0	28311552	16	4184
2026-01-11 15:08:29.98	177.33	7.55	-27.2	-28.5	11.9	5.22e-04	0	40	0	36700160	15	4199
2026-01-11 15:08:30.98	177.36	7.63	-26.6	-27.6	12.6	1.21e-04	0	40	0	42991616	14	4064
2026-01-11 15:08:31.98	177.40	7.71	-26.3	-27.4	13.0	3.43e-05	0	40	0	50331648	13	4121
2026-01-11 15:08:32.99	177.44	7.79	-26.1	-27.2	13.2	1.37e-05	0	40	0	57671680	13	4052
2026-01-11 15:08:34.00	177.47	7.87	-25.8	-27.0	13.6	2.74e-05	0	40	0	65011712	12	4102
2026-01-11 15:08:35.00	177.51	7.95	-25.9	-27.1	13.6	4.50e-06	0	40	0	72351744	12	4131
2026-01-11 15:08:36.01	177.55	8.03	-25.8	-27.0	13.6	9.10e-06	0	40	0	79691776	12	4103
2026-01-11 15:08:37.01	177.59	8.10	-25.7	-26.7	13.8	8.00e-06	0	40	0	87031808	12	4015
2026-01-11 15:08:38.02	177.62	8.18	-25.8	-26.9	13.7	1.14e-05	0	40	0	94371840	12	4083
2026-01-11 15:08:39.03	177.66	8.26	-25.8	-26.9	13.7	4.50e-06	0	40	0	101711872	12	4087
2026-01-11 15:08:40.04	177.70	8.34	-25.7	-26.7	13.8	9.10e-06	0	40	0	109051904	12	4028
2026-01-11 15:08:41.04	177.74	8.42	-25.8	-27.0	13.7	6.80e-06	0	40	0	116391936	12	4099
2026-01-11 15:08:42.05	177.78	8.51	-25.8	-26.9	13.7	6.80e-06	0	40	0	123731968	12	4078
2026-01-11 15:08:43.06	177.81	8.59	-25.8	-26.8	13.8	3.40e-06	0	40	0	130023424	12	4068
2026-01-11 15:08:44.06	177.85	8.67	-26.0	-27.3	13.5	8.00e-06	0	40	0	137363456	12	4188
2026-01-11 15:08:45.07	177.89	8.75	-25.8	-26.8	13.8	1.14e-05	0	40	0	144703488	12	4048
2026-01-11 15:08:46.07	177.93	8.83	-25.7	-26.7	13.8	4.50e-06	0	40	0	152043520	12	4041
2026-01-11 15:08:47.07	177.97	8.91	-25.8	-26.8	13.8	2.20e-06	0	40	0	159383552	12	4067
2026-01-11 15:08:48.07	178.01	8.99	-25.6	-26.5	14.0	6.80e-06	0	40	0	166723584	12	3987
2026-01-11 15:08:49.08	178.05	9.08	-25.8	-26.9	13.8	1.02e-05	0	40	0	174063616	12	4084
2026-01-11 15:08:50.08	178.09	9.16	-25.6	-26.5	14.0	2.20e-06	0	40	0	181403648	12	3972
2026-01-11 15:08:51.09	178.13	9.24	-25.4	-26.1	14.3	1.10e-06	0	40	0	188743680	12	3872
2026-01-11 15:08:52.10	178.17	9.32	-25.6	-26.4	14.1	2.20e-06	0	41	0	196083712	12	3947
2026-01-11 15:08:53.10	178.21	9.41	-25.5	-26.1	14.2	0.00e+00	0	41	0	203423744	12	3880
2026-01-11 15:08:54.11	178.25	9.49	-25.5	-26.2	14.2	4.50e-06	0	41	0	209715200	12	3914
2026-01-11 15:08:55.12	178.29	9.57	-25.4	-26.1	14.2	2.20e-06	0	41	0	217055232	12	3872
2026-01-11 15:08:56.13	178.34	9.66	-25.5	-26.3	14.2	1.10e-06	0	41	0	224395264	12	3922
2026-01-11 15:08:57.13	178.38	9.74	-25.6	-26.5	14.0	2.20e-06	0	41	0	231735296	12	3975
2026-01-11 15:08:58.13	178.42	9.83	-25.7	-26.6	14.0	5.70e-06	0	41	0	239075328	12	4005
2026-01-11 15:08:59.14	178.46	9.91	-25.5	-26.2	14.3	1.10e-06	0	41	0	246415360	12	3895
2026-01-11 15:09:00.15	178.50	10.00	-25.4	-26.0	14.4	2.20e-06	0	41	0	253755392	12	3847
2026-01-11 15:09:01.15	178.54	10.08	-25.4	-26.0	14.3	0.00e+00	0	41	0	261095424	12	3864
2026-01-11 15:09:02.15	178.59	10.17	-25.5	-26.6	14.4	0.00e+00	0	41	0	268435456	11	4104
2026-01-11 15:09:03.16	178.63	10.26	-25.4	-26.4	14.5	1.10e-06	0	41	0	275775488	11	4056
2026-01-11 15:09:04.16	178.67	10.34	-25.4	-26.4	14.5	0.00e+00	0	41	0	283115520	11	4053
2026-01-11 15:09:05.17	178.72	10.43	-25.2	-25.9	14.8	1.10e-06	0	41	0	290455552	11	3931
2026-01-11 15:09:06.18	178.76	10.52	-25.3	-26.2	14.6	0.00e+00	0	41	0	297795584	11	3987
2026-01-11 15:09:07.19	178.80	10.60	-25.2	-26.0	14.7	3.40e-06	0	41	0	305135616	11	3960
2026-01-11 15:09:08.20	178.85	10.69	-25.2	-25.9	14.8	0.00e+00	0	41	0	312475648	11	3930
2026-01-11 15:09:09.20	178.89	10.78	-25.2	-26.0	14.7	0.00e+00	0	41	0	318767104	11	3955
2026-01-11 15:09:10.21	178.94	10.87	-25.2	-26.0	14.8	2.20e-06	0	41	0	326107136	11	3936
2026-01-11 15:09:11.21	178.98	10.96	-25.1	-25.8	14.9	0.00e+00	0	41	0	333447168	11	3887
2026-01-11 15:09:12.22	179.03	11.05	-25.3	-26.2	14.7	0.00e+00	0	41	0	340787200	11	3990
2026-01-11 15:09:13.22	179.07	11.13	-25.1	-25.7	15.0	4.50e-06	0	41	0	348127232	11	3861
2026-01-11 15:09:14.23	179.12	11.22	-25.0	-25.4	15.1	0.00e+00	0	41	0	355467264	11	3803
2026-01-11 15:09:15.24	179.16	11.31	-25.0	-25.6	15.0	0.00e+00	0	41	0	362807296	11	3834
2026-01-11 15:09:16.25	179.21	11.40	-25.1	-25.8	14.9	0.00e+00	0	41	0	370147328	11	3898
2026-01-11 15:09:17.25	179.26	11.49	-25.1	-25.7	15.0	0.00e+00	0	41	0	377487360	11	3858
2026-01-11 15:09:18.26	179.30	11.59	-25.1	-25.8	14.9	0.00e+00	0	41	0	384827392	11	3879
2026-01-11 15:09:19.27	179.35	11.68	-25.1	-25.7	14.9	9.10e-06	0	41	0	392167424	11	3868
2026-01-11 15:09:20.28	179.40	11.77	-25.0	-25.5	15.1	0.00e+00	0	41	0	398458880	11	3823
2026-01-11 15:09:21.28	179.45	11.86	-25.0	-25.5	15.1	0.00e+00	0	41	0	406847488	11	3823
2026-01-11 15:09:22.29	179.49	11.95	-25.0	-25.5	15.1	1.14e-05	0	41	0	414187520	11	3808
2026-01-11 15:09:23.29	179.54	12.04	-25.0	-25.5	15.1	0.00e+00	0	41	0	420478976	11	3825
2026-01-11 15:09:24.30	179.59	12.14	-24.8	-25.6	15.3	0.00e+00	0	41	0	427819008	10	3936
2026-01-11 15:09:25.30	179.64	12.23	-24.7	-25.3	15.4	6.80e-06	0	41	0	435159040	10	3870
2026-01-11 15:09:26.30	179.69	12.32	-24.6	-25.1	15.5	0.00e+00	0	41	0	442499072	10	3835
2026-01-11 15:09:27.31	179.74	12.42	-24.5	-25.0	15.6	0.00e+00	0	41	0	449839104	10	3804
2026-01-11 15:09:28.31	179.79	12.51	-24.5	-25.0	15.6	0.00e+00	0	41	0	457179136	10	3802
2026-01-11 15:09:29.32	179.84	12.60	-24.5	-24.9	15.7	0.00e+00	0	41	0	464519168	10	3769
2026-01-11 15:09:30.33	179.89	12.70	-24.4	-24.8	15.7	0.00e+00	0	41	0	471859200	10	3765
2026-01-11 15:09:31.34	179.94	12.80	-24.4	-25.1	15.8	0.00e+00	0	41	0	479199232	9	3940
2026-01-11 15:09:32.34	179.99	12.89	-24.3	-25.1	15.8	0.00e+00	0	41	0	486539264	9	3919
2026-01-11 15:09:33.34	180.04	12.99	-24.3	-25.1	15.8	0.00e+00	0	41	0	493879296	9	3932
2026-01-11 15:09:34.35	180.09	13.08	-24.2	-24.9	15.9	0.00e+00	0	41	0	501219328	9	3881
2026-01-11 15:09:35.35	180.14	13.18	-24.2	-24.9	15.9	0.00e+00	0	41	0	507510784	9	3882
2026-01-11 15:09:36.36	180.19	13.28	-24.4	-25.3	15.7	0.00e+00	0	41	0	514850816	9	3987
2026-01-11 15:09:37.37	180.24	13.37	-24.5	-25.5	15.6	0.00e+00	0	41	0	522190848	9	4036
2026-01-11 15:09:38.38	180.30	13.47	-24.2	-24.9	15.9	0.00e+00	0	41	0	529530880	9	3885
2026-01-11 15:09:39.37	180.35	13.57	-24.2	-24.8	15.9	0.00e+00	0	41	0	536870912	9	3863
2026-01-11 15:09:40.38	180.40	13.67	-24.2	-24.8	15.9	0.00e+00	0	41	0	544210944	9	3869
2026-01-11 15:09:41.38	180.46	13.76	-24.4	-25.2	15.6	0.00e+00	0	42	0	551550976	9	3976
2026-01-11 15:09:42.39	180.51	13.86	-24.2	-24.9	15.9	0.00e+00	0	42	0	558891008	9	3891
2026-01-11 15:09:43.39	180.56	13.96	-24.2	-24.9	15.9	0.00e+00	0	41	0	566231040	9	3885
2026-01-11 15:09:44.40	180.62	14.06	-24.2	-24.8	16.0	0.00e+00	0	41	0	573571072	9	3869
2026-01-11 15:09:45.41	180.67	14.16	-24.2	-24.9	15.9	0.00e+00	0	42	0	580911104	9	3888
2026-01-11 15:09:46.42	180.73	14.27	-24.2	-24.8	16.0	0.00e+00	0	41	0	588251136	9	3866
2026-01-11 15:09:47.42	180.78	14.37	-24.2	-24.8	16.0	0.00e+00	0	42	0	594542592	9	3870
2026-01-11 15:09:48.42	180.84	14.47	-24.3	-25.1	15.8	0.00e+00	0	42	0	601882624	9	3951
2026-01-11 15:09:49.43	180.90	14.57	-24.1	-24.8	15.9	0.00e+00	0	41	0	610271232	9	3871
2026-01-11 15:09:50.44	180.95	14.67	-24.3	-25.1	15.8	0.00e+00	0	42	0	616562688	9	3961
2026-01-11 15:09:51.45	181.01	14.78	-24.1	-24.7	16.0	0.00e+00	0	42	0	623902720	9	3860
2026-01-11 15:09:52.45	181.07	14.88	-24.2	-24.8	16.0	0.00e+00	0	42	0	631242752	9	3883
2026-01-11 15:09:53.46	181.13	14.98	-24.1	-24.7	16.0	0.00e+00	0	42	0	638582784	9	3860
2026-01-11 15:09:54.47	181.19	15.09	-24.2	-24.9	15.9	0.00e+00	0	42	0	645922816	9	3912
2026-01-11 15:09:55.47	181.24	15.19	-24.3	-25.2	15.7	0.00e+00	0	42	0	653262848	9	3992
2026-01-11 15:09:56.48	181.30	15.30	-24.6	-25.7	15.4	0.00e+00	0	42	0	660602880	9	4113
2026-01-11 15:09:57.49	181.36	15.40	-24.2	-25.0	15.8	0.00e+00	0	42	0	667942912	9	3917
2026-01-11 15:09:58.50	181.42	15.51	-24.1	-24.7	16.0	0.00e+00	0	42	0	675282944	9	3847
2026-01-11 15:09:59.50	181.48	15.61	-24.1	-24.7	16.0	0.00e+00	0	42	0	682622976	9	3857
2026-01-11 15:10:00.48	181.54	15.72	-24.2	-24.8	16.0	0.00e+00	0	42	0	689963008	9	3876
2026-01-11 15:10:01.49	181.60	15.82	-24.2	-24.8	16.0	0.00e+00	0	42	0	696254464	9	3889
2026-01-11 15:10:02.49	181.66	15.93	-24.2	-24.9	16.0	0.00e+00	0	42	0	703594496	9	3895
2026-01-11 15:10:03.50	181.73	16.04	-24.1	-24.8	16.0	0.00e+00	0	42	0	710934528	9	3881
2026-01-11 15:10:04.51	181.79	16.15	-24.1	-24.6	16.1	0.00e+00	0	42	0	718274560	9	3842
2026-01-11 15:10:05.52	181.85	16.26	-23.8	-24.6	16.3	0.00e+00	0	42	0	725614592	8	3939
2026-01-11 15:10:06.52	181.91	16.37	-23.7	-24.4	16.5	0.00e+00	0	42	0	732954624	8	3876
2026-01-11 15:10:07.53	181.98	16.48	-23.8	-24.5	16.4	0.00e+00	0	42	0	740294656	8	3906
2026-01-11 15:10:08.54	182.04	16.59	-23.8	-24.5	16.4	0.00e+00	0	42	0	747634688	8	3908
2026-01-11 15:10:09.54	182.11	16.70	-23.7	-24.2	16.5	0.00e+00	0	42	0	754974720	8	3840
2026-01-11 15:10:10.55	182.17	16.81	-23.7	-24.4	16.5	0.00e+00	0	42	0	762314752	8	3883
2026-01-11 15:10:11.55	182.24	16.92	-23.7	-24.3	16.6	0.00e+00	0	42	0	769654784	8	3855
2026-01-11 15:10:12.56	182.30	17.03	-23.6	-24.2	16.6	4.50e-06	0	42	0	776994816	8	3838
2026-01-11 15:10:13.56	182.37	17.14	-23.6	-24.1	16.6	0.00e+00	0	42	0	783286272	8	3823
2026-01-11 15:10:14.57	182.43	17.26	-23.7	-24.3	16.5	0.00e+00	0	42	0	790626304	8	3861
2026-01-11 15:10:15.57	182.50	17.37	-23.7	-24.2	16.6	8.00e-06	0	42	0	797966336	8	3844
2026-01-11 15:10:16.57	182.57	17.48	-23.9	-24.9	16.3	0.00e+00	0	42	0	805306368	8	3998
2026-01-11 15:10:17.57	182.64	17.60	-23.7	-24.3	16.6	0.00e+00	0	42	0	812646400	8	3867
2026-01-11 15:10:18.57	182.70	17.71	-23.6	-24.2	16.6	0.00e+00	0	42	0	819986432	8	3844
2026-01-11 15:10:19.57	182.77	17.83	-23.5	-23.9	16.7	0.00e+00	0	42	0	827326464	8	3775
2026-01-11 15:10:20.58	182.84	17.94	-23.4	-24.1	16.8	0.00e+00	0	42	0	834666496	7	3929
2026-01-11 15:10:21.58	182.91	18.06	-23.5	-24.4	16.7	0.00e+00	0	42	0	842006528	7	4002
2026-01-11 15:10:22.58	182.98	18.18	-23.4	-24.1	16.9	0.00e+00	0	42	0	849346560	7	3930
2026-01-11 15:10:23.59	183.05	18.29	-23.4	-24.2	16.8	0.00e+00	0	42	0	856686592	7	3959
2026-01-11 15:10:24.59	183.13	18.41	-23.3	-23.9	17.0	0.00e+00	0	42	0	862978048	7	3876
2026-01-11 15:10:25.60	183.20	18.53	-23.3	-24.0	17.0	0.00e+00	0	42	0	870318080	7	3887
2026-01-11 15:10:26.60	183.27	18.65	-23.3	-24.0	17.0	0.00e+00	0	42	0	877658112	7	3895
2026-01-11 15:10:27.61	183.34	18.77	-23.2	-23.9	17.0	1.10e-06	0	42	0	884998144	7	3864
2026-01-11 15:10:28.62	183.42	18.89	-23.3	-24.0	16.9	0.00e+00	0	42	0	892338176	7	3901
2026-01-11 15:10:29.63	183.49	19.01	-23.4	-24.1	16.9	0.00e+00	0	42	0	899678208	7	3929
2026-01-11 15:10:30.64	183.57	19.13	-23.3	-23.9	17.0	2.20e-06	0	42	0	907018240	7	3882
2026-01-11 15:10:31.65	183.64	19.25	-23.3	-23.9	17.0	0.00e+00	0	42	0	914358272	7	3870
2026-01-11 15:10:32.65	183.72	19.38	-23.2	-23.9	17.1	0.00e+00	0	42	0	921698304	7	3864
2026-01-11 15:10:33.65	183.80	19.50	-23.2	-23.8	17.1	0.00e+00	0	42	0	929038336	7	3851
2026-01-11 15:10:34.66	183.87	19.62	-23.3	-23.9	17.0	0.00e+00	0	42	0	936378368	7	3882
2026-01-11 15:10:35.65	183.95	19.75	-23.3	-23.9	17.1	0.00e+00	0	42	0	943718400	7	3872
2026-01-11 15:10:36.66	184.03	19.87	-23.3	-24.0	17.0	0.00e+00	0	42	0	950009856	7	3899
2026-01-11 15:10:37.67	184.11	20.00	-23.3	-23.8	17.1	0.00e+00	0	42	0	957349888	7	3848
2026-01-11 15:10:38.67	184.19	20.12	-23.3	-23.9	17.2	0.00e+00	0	42	0	964689920	7	3850
2026-01-11 15:10:39.68	184.27	20.25	-23.5	-24.3	16.9	0.00e+00	0	42	0	972029952	7	3952
2026-01-11 15:10:40.69	184.35	20.38	-23.2	-23.8	17.2	0.00e+00	0	42	0	979369984	7	3845
2026-01-11 15:10:41.69	184.43	20.50	-23.2	-23.8	17.2	0.00e+00	0	42	0	986710016	7	3831
2026-01-11 15:10:42.69	184.51	20.63	-23.3	-23.9	17.2	0.00e+00	0	42	0	994050048	7	3853
2026-01-11 15:10:43.70	184.60	20.76	-23.3	-23.9	17.2	0.00e+00	0	42	0	1001390080	7	3863
2026-01-11 15:10:44.70	184.68	20.89	-23.2	-23.7	17.2	0.00e+00	0	42	0	1008730112	7	3814
2026-01-11 15:10:45.70	184.76	21.02	-23.2	-23.8	17.2	0.00e+00	0	42	0	1016070144	7	3831
2026-01-11 15:10:46.71	184.85	21.15	-23.2	-23.7	17.2	0.00e+00	0	42	0	1023410176	7	3825
2026-01-11 15:10:47.72	184.93	21.28	-23.3	-23.9	17.2	0.00e+00	0	42	0	1030750208	7	3862
2026-01-11 15:10:48.72	185.02	21.41	-23.2	-23.7	17.3	0.00e+00	0	42	0	1037041664	7	3806
2026-01-11 15:10:49.73	185.11	21.54	-23.1	-24.0	17.3	0.00e+00	0	42	0	1045430272	6	3994
2026-01-11 15:10:50.74	185.20	21.68	-23.1	-23.9	17.4	0.00e+00	0	42	0	1052770304	6	3971
2026-01-11 15:10:51.74	185.28	21.81	-23.0	-23.9	17.4	0.00e+00	0	42	0	1059061760	6	3954
2026-01-11 15:10:52.75	185.37	21.95	-23.2	-24.2	17.2	0.00e+00	0	42	0	1066401792	6	4037
2026-01-11 15:10:53.76	185.46	22.08	-23.0	-23.9	17.4	0.00e+00	0	42	0	1073741824	6	3966
2026-01-11 15:10:54.76	185.55	22.22	-22.9	-23.5	17.7	0.00e+00	0	42	0	1081081856	6	3861
2026-01-11 15:10:55.76	185.65	22.35	-23.0	-23.8	17.4	0.00e+00	0	42	0	1088421888	6	3956
2026-01-11 15:10:56.77	185.74	22.49	-23.1	-24.1	17.3	0.00e+00	0	42	0	1095761920	6	4016
2026-01-11 15:10:57.78	185.83	22.63	-23.1	-24.1	17.3	0.00e+00	0	42	0	1103101952	6	4015
2026-01-11 15:10:58.78	185.92	22.77	-23.1	-24.1	17.3	0.00e+00	0	42	0	1110441984	6	4006
2026-01-11 15:10:59.79	186.02	22.91	-22.9	-23.6	17.6	0.00e+00	0	42	0	1117782016	6	3896
2026-01-11 15:11:00.80	186.12	23.05	-23.0	-23.8	17.5	0.00e+00	0	42	0	1125122048	6	3951
2026-01-11 15:11:01.80	186.21	23.19	-22.9	-23.6	17.5	0.00e+00	0	42	0	1132462080	6	3907
2026-01-11 15:11:02.80	186.31	23.33	-23.1	-23.9	17.4	0.00e+00	0	42	0	1138753536	6	3980
2026-01-11 15:11:03.80	186.41	23.47	-23.0	-23.7	17.5	0.00e+00	0	42	0	1146093568	6	3931
2026-01-11 15:11:04.81	186.50	23.61	-23.0	-23.9	17.3	0.00e+00	0	42	0	1153433600	6	3972
2026-01-11 15:11:05.82	186.60	23.75	-23.0	-23.8	17.4	0.00e+00	0	42	0	1160773632	6	3956
2026-01-11 15:11:06.83	186.71	23.90	-23.1	-24.2	17.2	0.00e+00	0	42	0	1168113664	6	4042
2026-01-11 15:11:07.84	186.81	24.04	-23.1	-24.1	17.3	0.00e+00	0	42	0	1175453696	6	4030
2026-01-11 15:11:08.84	186.91	24.19	-23.2	-24.4	17.2	0.00e+00	0	42	0	1182793728	6	4100
2026-01-11 15:11:09.84	187.01	24.33	-23.1	-24.1	17.2	0.00e+00	0	42	0	1190133760	6	4044
2026-01-11 15:11:10.84	187.12	24.48	-23.1	-24.0	17.3	0.00e+00	0	42	0	1197473792	6	4023
2026-01-11 15:11:11.85	187.22	24.63	-23.1	-24.2	17.2	0.00e+00	0	42	0	1204813824	6	4067
2026-01-11 15:11:12.86	187.33	24.78	-23.0	-23.9	17.4	0.00e+00	0	42	0	1212153856	6	3992
2026-01-11 15:11:13.87	187.44	24.93	-23.1	-24.1	17.2	0.00e+00	0	42	0	1219493888	6	4049
2026-01-11 15:11:14.87	187.54	25.08	-23.0	-23.8	17.4	0.00e+00	0	42	0	1225785344	6	3969
2026-01-11 15:11:15.88	187.65	25.23	-22.6	-23.2	17.7	0.00e+00	0	42	0	1234173952	6	3817
2026-01-11 15:11:16.88	187.76	25.38	-22.8	-23.4	17.6	0.00e+00	0	42	0	1241513984	6	3876
2026-01-11 15:11:17.89	187.87	25.53	-22.7	-23.3	17.6	0.00e+00	0	42	0	1247805440	6	3863
2026-01-11 15:11:18.90	187.99	25.68	-22.8	-23.5	17.5	0.00e+00	0	42	0	1255145472	6	3902
2026-01-11 15:11:19.90	188.10	25.84	-22.6	-23.1	17.8	0.00e+00	0	42	0	1262485504	6	3801
2026-01-11 15:11:20.91	188.21	25.99	-22.7	-23.9	17.6	0.00e+00	0	42	0	1269825536	5	4114
2026-01-11 15:11:21.92	188.33	26.15	-22.6	-23.7	17.7	0.00e+00	0	42	0	1277165568	5	4046
2026-01-11 15:11:22.93	188.45	26.30	-22.7	-23.8	17.7	0.00e+00	0	42	0	1284505600	5	4073
2026-01-11 15:11:23.94	188.56	26.46	-22.5	-23.4	17.9	0.00e+00	0	42	0	1291845632	5	3967
2026-01-11 15:11:24.94	188.68	26.62	-22.4	-23.2	18.0	0.00e+00	0	42	0	1299185664	5	3929
2026-01-11 15:11:25.94	188.80	26.77	-22.3	-22.8	18.2	0.00e+00	0	42	0	1306525696	5	3832
2026-01-11 15:11:26.95	188.92	26.93	-22.4	-23.0	18.1	0.00e+00	0	42	0	1313865728	5	3881
2026-01-11 15:11:27.95	189.04	27.09	-22.3	-22.9	18.2	0.00e+00	0	42	0	1321205760	5	3839
2026-01-11 15:11:28.96	189.17	27.25	-22.2	-22.7	18.3	0.00e+00	0	42	0	1328545792	5	3800
2026-01-11 15:11:29.97	189.29	27.42	-22.3	-22.8	18.2	0.00e+00	0	42	0	1334837248	5	3817
2026-01-11 15:11:30.98	189.42	27.58	-22.5	-23.2	18.1	0.00e+00	0	42	0	1343225856	5	3911
2026-01-11 15:11:31.99	189.55	27.74	-22.3	-22.7	18.4	0.00e+00	0	42	0	1350565888	5	3792
2026-01-11 15:11:32.99	189.68	27.91	-22.2	-22.5	18.4	0.00e+00	0	42	0	1356857344	5	3747
2026-01-11 15:11:34.00	189.81	28.07	-22.2	-22.5	18.4	0.00e+00	0	42	0	1364197376	5	3751
2026-01-11 15:11:35.00	189.94	28.24	-22.1	-22.4	18.5	0.00e+00	0	42	0	1371537408	5	3720
2026-01-11 15:11:36.01	190.07	28.40	-22.2	-22.7	18.4	1.10e-06	0	42	0	1378877440	5	3780
2026-01-11 15:11:37.02	190.20	28.57	-22.2	-22.7	18.3	0.00e+00	0	42	0	1386217472	5	3797
2026-01-11 15:11:38.02	190.34	28.74	-22.3	-22.7	18.4	0.00e+00	0	42	0	1393557504	5	3801
2026-01-11 15:11:39.02	190.47	28.91	-22.1	-22.5	18.5	0.00e+00	0	42	0	1400897536	5	3740
2026-01-11 15:11:40.03	190.61	29.08	-22.1	-22.5	18.4	0.00e+00	0	42	0	1408237568	5	3744
2026-01-11 15:11:41.04	190.75	29.25	-22.0	-22.2	18.6	0.00e+00	0	42	0	1415577600	5	3681
2026-01-11 15:11:42.05	190.89	29.42	-22.2	-23.2	18.3	0.00e+00	0	42	0	1422917632	4	4021
2026-01-11 15:11:43.04	191.03	29.59	-22.4	-23.6	18.2	0.00e+00	0	42	0	1430257664	4	4110
2026-01-11 15:11:44.05	191.18	29.77	-22.1	-23.0	18.4	0.00e+00	0	42	0	1436549120	4	3983
2026-01-11 15:11:45.06	191.32	29.94	-22.0	-22.7	18.5	0.00e+00	0	42	0	1443889152	4	3914
2026-01-11 15:11:46.07	191.47	30.12	-22.0	-22.8	18.5	0.00e+00	0	42	0	1451229184	4	3943
2026-01-11 15:11:47.07	191.62	30.29	-22.0	-22.7	18.5	0.00e+00	0	42	0	1458569216	4	3912
2026-01-11 15:11:48.07	191.76	30.47	-22.2	-23.1	18.3	0.00e+00	0	42	0	1465909248	4	4021
2026-01-11 15:11:49.07	191.91	30.64	-22.1	-22.9	18.4	0.00e+00	0	42	0	1473249280	4	3971
2026-01-11 15:11:50.08	192.07	30.82	-22.2	-23.2	18.2	0.00e+00	0	42	0	1480589312	4	4054
2026-01-11 15:11:51.08	192.22	31.00	-22.3	-23.5	18.1	0.00e+00	0	42	0	1487929344	4	4133
2026-01-11 15:11:52.09	192.38	31.18	-22.4	-23.2	18.0	0.00e+00	0	42	0	1495269376	5	3949
2026-01-11 15:11:53.09	192.54	31.36	-22.2	-22.9	18.1	0.00e+00	0	42	0	1502609408	5	3873
2026-01-11 15:11:54.09	192.69	31.54	-22.4	-23.2	17.9	0.00e+00	0	42	0	1509949440	5	3947
2026-01-11 15:11:55.10	192.86	31.73	-22.5	-23.4	17.8	0.00e+00	0	42	0	1517289472	5	4008
2026-01-11 15:11:56.10	193.02	31.91	-22.3	-23.0	18.0	0.00e+00	0	42	0	1523580928	5	3898
2026-01-11 15:11:57.11	193.18	32.10	-22.3	-22.9	18.0	0.00e+00	0	42	0	1530920960	5	3890
2026-01-11 15:11:58.11	193.35	32.28	-22.4	-23.2	17.9	0.00e+00	0	42	0	1538260992	5	3953
2026-01-11 15:11:59.11	193.52	32.47	-22.3	-23.0	18.0	0.00e+00	0	42	0	1545601024	5	3911
2026-01-11 15:12:00.11	193.69	32.65	-22.3	-23.0	18.0	0.00e+00	0	42	0	1552941056	5	3917
2026-01-11 15:12:01.11	193.86	32.84	-22.5	-23.4	17.8	0.00e+00	0	42	0	1560281088	5	4012
2026-01-11 15:12:02.11	194.03	33.03	-22.5	-23.3	17.9	0.00e+00	0	42	0	1567621120	5	3983
2026-01-11 15:12:03.12	194.21	33.22	-22.6	-23.6	17.8	0.00e+00	0	42	0	1574961152	5	4040
2026-01-11 15:12:04.13	194.39	33.41	-22.8	-23.9	17.7	0.00e+00	0	42	0	1581252608	5	4112
2026-01-11 15:12:05.13	194.57	33.60	-22.5	-23.4	17.9	0.00e+00	0	42	0	1589641216	5	3994
2026-01-11 15:12:06.14	194.75	33.79	-22.6	-23.5	17.9	0.00e+00	0	42	0	1596981248	5	4013
2026-01-11 15:12:07.15	194.94	33.99	-22.4	-23.1	18.1	0.00e+00	0	42	0	1603272704	5	3890
2026-01-11 15:12:08.16	195.13	34.18	-22.9	-23.6	17.5	0.00e+00	0	43	0	1610612736	6	3922
2026-01-11 15:12:09.16	195.31	34.38	-22.7	-23.2	17.9	0.00e+00	0	42	0	1617952768	6	3803
2026-01-11 15:12:10.16	195.51	34.57	-22.8	-23.3	17.9	0.00e+00	0	42	0	1625292800	6	3831
2026-01-11 15:12:11.17	195.70	34.77	-22.2	-22.5	18.5	0.00e+00	0	42	0	1632632832	5	3740
2026-01-11 15:12:12.18	195.90	34.97	-22.2	-22.5	18.5	0.00e+00	0	42	0	1639972864	5	3724
2026-01-11 15:12:13.18	196.09	35.17	-22.3	-22.8	18.3	0.00e+00	0	42	0	1647312896	5	3812
2026-01-11 15:12:14.19	196.30	35.37	-22.4	-23.0	18.2	0.00e+00	0	42	0	1654652928	5	3853
2026-01-11 15:12:15.20	196.50	35.57	-22.2	-22.7	18.4	0.00e+00	0	42	0	1661992960	5	3796
2026-01-11 15:12:16.20	196.70	35.77	-22.4	-23.1	18.2	0.00e+00	0	42	0	1669332992	5	3889
2026-01-11 15:12:17.21	196.91	35.98	-22.5	-23.3	18.0	0.00e+00	0	42	0	1676673024	5	3951
2026-01-11 15:12:18.22	197.12	36.18	-22.5	-23.3	18.1	0.00e+00	0	42	0	1684013056	5	3961
2026-01-11 15:12:19.22	197.34	36.38	-22.4	-23.2	18.1	0.00e+00	0	42	0	1690304512	5	3928
2026-01-11 15:12:20.22	197.55	36.59	-22.6	-23.5	18.0	0.00e+00	0	42	0	1697644544	5	4008
2026-01-11 15:12:21.23	197.77	36.80	-22.2	-22.6	18.4	0.00e+00	0	42	0	1706033152	5	3793
2026-01-11 15:12:22.24	197.99	37.00	-22.4	-23.1	18.2	0.00e+00	0	42	0	1712324608	5	3905
2026-01-11 15:12:23.24	198.22	37.21	-22.6	-23.4	18.1	0.00e+00	0	42	0	1719664640	5	3968
2026-01-11 15:12:24.24	198.44	37.42	-22.5	-23.4	18.1	0.00e+00	0	42	0	1727004672	5	3969
2026-01-11 15:12:25.25	198.67	37.63	-22.9	-24.1	17.8	0.00e+00	0	42	0	1734344704	5	4143
2026-01-11 15:12:26.26	198.91	37.84	-23.2	-24.4	17.4	0.00e+00	0	42	0	1741684736	6	4094
2026-01-11 15:12:27.26	199.14	38.05	-23.0	-23.8	17.6	0.00e+00	0	42	0	1749024768	6	3972
2026-01-11 15:12:28.26	199.38	38.26	-22.7	-23.2	17.9	0.00e+00	0	42	0	1756364800	6	3818
2026-01-11 15:12:29.27	199.62	38.47	-23.2	-24.4	17.2	0.00e+00	0	42	0	1763704832	6	4140
2026-01-11 15:12:30.27	199.86	38.68	-23.4	-24.1	18.2	0.00e+00	0	43	0	1771044864	6	3897
2026-01-11 15:12:31.27	200.11	38.90	-23.7	-24.2	17.9	0.00e+00	0	42	0	1777336320	7	3813
2026-01-11 15:12:32.28	200.36	39.11	-23.6	-23.9	18.1	0.00e+00	0	42	0	1785724928	7	3732
2026-01-11 15:12:33.29	200.62	39.33	-23.5	-23.7	18.2	0.00e+00	0	42	0	1792016384	7	3700
2026-01-11 15:12:34.29	200.88	39.54	-23.5	-23.7	18.2	0.00e+00	0	42	0	1799356416	7	3692
2026-01-11 15:12:35.30	201.14	39.76	-23.3	-23.4	18.3	0.00e+00	0	42	0	1806696448	7	3631
2026-01-11 15:12:36.31	201.40	39.98	-23.3	-23.2	18.4	0.00e+00	0	42	0	1814036480	7	3593
2026-01-11 15:12:37.31	201.67	40.20	-23.2	-23.1	18.5	0.00e+00	0	42	0	1821376512	7	3561
2026-01-11 15:12:38.31	201.94	40.42	-23.1	-22.8	18.6	1.10e-06	0	43	0	1828716544	7	3506
2026-01-11 15:12:39.32	202.22	40.64	-23.0	-23.3	18.7	0.00e+00	0	42	0	1836056576	6	3699
2026-01-11 15:12:40.32	202.50	40.86	-22.9	-22.9	18.9	0.00e+00	0	43	0	1843396608	6	3616
2026-01-11 15:12:41.32	202.78	41.08	-23.1	-23.4	18.6	0.00e+00	0	42	0	1850736640	6	3738
2026-01-11 15:12:42.32	203.06	41.30	-23.3	-23.7	18.4	0.00e+00	0	42	0	1857028096	6	3806
2026-01-11 15:12:43.33	203.35	41.52	-23.5	-23.7	18.2	0.00e+00	0	42	0	1865416704	7	3697
2026-01-11 15:12:44.33	203.65	41.74	-23.6	-23.9	18.1	0.00e+00	0	42	0	1872756736	7	3727
2026-01-11 15:12:45.34	203.95	41.96	-23.8	-24.3	17.9	0.00e+00	0	42	0	1879048192	7	3842
2026-01-11 15:12:46.34	204.25	42.19	-23.6	-23.9	18.2	0.00e+00	0	42	0	1886388224	7	3730
2026-01-11 15:12:47.36	204.56	42.41	-23.6	-24.0	18.0	0.00e+00	0	42	0	1893728256	7	3767
2026-01-11 15:12:48.36	204.87	42.64	-23.6	-23.9	18.1	0.00e+00	0	42	0	1901068288	7	3739
2026-01-11 15:12:49.36	205.18	42.86	-23.5	-23.8	18.2	0.00e+00	0	42	0	1908408320	7	3714
2026-01-11 15:12:50.37	205.50	43.09	-23.4	-24.0	18.3	0.00e+00	0	42	0	1915748352	6	3870
2026-01-11 15:12:51.37	205.83	43.31	-23.4	-23.6	18.3	0.00e+00	0	42	0	1923088384	7	3663
2026-01-11 15:12:52.37	206.15	43.54	-23.3	-23.3	18.5	0.00e+00	0	42	0	1930428416	7	3604
2026-01-11 15:12:53.38	206.49	43.76	-23.5	-23.8	18.2	0.00e+00	0	42	0	1937768448	7	3710
2026-01-11 15:12:54.38	206.82	43.99	-23.4	-23.6	18.3	0.00e+00	0	42	0	1945108480	7	3663
2026-01-11 15:12:55.39	207.17	44.22	-23.6	-24.1	18.1	0.00e+00	0	42	0	1952448512	7	3776
2026-01-11 15:12:56.39	207.51	44.44	-23.8	-24.4	17.8	0.00e+00	0	42	0	1959788544	7	3861
2026-01-11 15:12:57.40	207.87	44.67	-24.3	-25.0	17.3	0.00e+00	0	42	0	1966080000	8	3877
2026-01-11 15:12:58.41	208.23	44.90	-24.5	-24.8	17.2	0.00e+00	0	42	0	1973420032	9	3734
2026-01-11 15:12:59.41	208.59	45.12	-24.4	-24.6	17.3	0.00e+00	0	42	0	1980760064	9	3697
2026-01-11 15:13:00.41	208.95	45.35	-23.8	-23.8	18.0	0.00e+00	0	42	0	1988100096	8	3614
2026-01-11 15:13:01.42	209.33	45.58	-23.8	-23.9	17.9	0.00e+00	0	42	0	1995440128	8	3643
2026-01-11 15:13:02.42	209.71	45.80	-23.9	-24.1	17.8	0.00e+00	0	42	0	2002780160	8	3683
2026-01-11 15:13:03.43	210.09	46.03	-23.9	-24.1	17.8	0.00e+00	0	42	0	2010120192	8	3671
2026-01-11 15:13:04.44	210.48	46.26	-24.0	-24.4	17.6	0.00e+00	0	42	0	2017460224	8	3743
2026-01-11 15:13:05.45	210.88	46.49	-23.9	-24.0	17.9	0.00e+00	0	42	0	2024800256	8	3653
2026-01-11 15:13:06.45	211.28	46.71	-24.3	-24.9	17.5	0.00e+00	0	42	0	2032140288	8	3854
2026-01-11 15:13:07.46	211.69	46.94	-24.3	-25.0	17.4	0.00e+00	0	42	0	2039480320	8	3885
2026-01-11 15:13:08.47	212.10	47.17	-24.3	-24.8	17.5	0.00e+00	0	42	0	2045771776	8	3850
2026-01-11 15:13:09.48	212.52	47.39	-24.3	-24.9	17.4	0.00e+00	0	42	0	2054160384	8	3856
2026-01-11 15:13:10.48	212.94	47.62	-24.5	-25.3	17.3	0.00e+00	0	42	0	2061500416	8	3950
2026-01-11 15:13:11.49	213.37	47.84	-24.5	-24.9	17.1	0.00e+00	0	43	0	2067791872	9	3763
2026-01-11 15:13:12.50	213.81	48.07	-24.8	-25.4	16.9	0.00e+00	0	43	0	2075131904	9	3877
2026-01-11 15:13:13.51	214.26	48.29	-24.3	-24.3	17.5	0.00e+00	0	42	0	2082471936	9	3626
2026-01-11 15:13:14.51	214.70	48.51	-24.2	-24.1	17.6	0.00e+00	0	42	0	2089811968	9	3579
2026-01-11 15:13:15.51	215.16	48.73	-24.1	-24.5	17.6	0.00e+00	0	42	0	2097152000	8	3759
2026-01-11 15:13:16.52	215.62	48.96	-24.2	-24.7	17.5	0.00e+00	0	42	0	2104492032	8	3806
2026-01-11 15:13:17.53	216.09	49.18	-24.2	-24.8	17.5	0.00e+00	0	42	0	2111832064	8	3836
2026-01-11 15:13:18.54	216.57	49.40	-24.3	-25.0	17.4	0.00e+00	0	42	0	2119172096	8	3888
2026-01-11 15:13:19.54	217.05	49.62	-24.4	-25.2	17.3	0.00e+00	0	42	0	2126512128	8	3944
2026-01-11 15:13:20.55	217.54	49.83	-24.6	-25.1	17.1	0.00e+00	0	42	0	2133852160	9	3806
2026-01-11 15:13:21.55	218.03	50.05	-24.7	-25.3	17.0	0.00e+00	0	42	0	2141192192	9	3849
2026-01-11 15:13:22.56	218.54	50.26	-24.3	-24.5	17.3	0.00e+00	0	42	0	2148532224	9	3660
2026-01-11 15:13:23.57	219.05	50.48	-24.2	-24.1	17.6	0.00e+00	0	42	0	2154823680	9	3581
2026-01-11 15:13:24.58	219.57	50.69	-24.3	-24.5	17.4	0.00e+00	0	42	0	2163212288	9	3657
2026-01-11 15:13:25.58	220.09	50.90	-24.7	-25.3	17.0	0.00e+00	0	42	0	2170552320	9	3851
2026-01-11 15:13:26.59	220.63	51.11	-24.7	-25.4	17.0	0.00e+00	0	42	0	2176843776	9	3865
2026-01-11 15:13:27.59	221.16	51.32	-24.9	-25.6	16.8	0.00e+00	0	42	0	2184183808	9	3923
2026-01-11 15:13:28.60	221.71	51.52	-24.8	-25.5	16.8	0.00e+00	0	42	0	2191523840	9	3903
2026-01-11 15:13:29.60	222.26	51.73	-24.7	-25.3	17.0	0.00e+00	0	42	0	2198863872	9	3839
2026-01-11 15:13:30.60	222.82	51.93	-24.4	-24.7	17.3	0.00e+00	0	42	0	2206203904	9	3706
2026-01-11 15:13:31.60	223.39	52.13	-24.6	-25.0	17.1	0.00e+00	0	42	0	2213543936	9	3785
2026-01-11 15:13:32.61	223.97	52.32	-24.6	-25.1	17.1	0.00e+00	0	42	0	2220883968	9	3793
2026-01-11 15:13:33.62	224.55	52.52	-24.6	-25.1	17.1	0.00e+00	0	42	0	2228224000	9	3798
2026-01-11 15:13:34.62	225.14	52.71	-24.7	-25.3	16.9	0.00e+00	0	42	0	2235564032	9	3861
2026-01-11 15:13:35.62	225.74	52.90	-24.7	-25.3	17.0	0.00e+00	0	42	0	2241855488	9	3859
2026-01-11 15:13:36.63	226.35	53.09	-24.6	-25.1	17.1	0.00e+00	0	43	0	2250244096	9	3799
2026-01-11 15:13:37.63	226.96	53.28	-24.7	-25.3	17.0	0.00e+00	0	42	0	2257584128	9	3837
2026-01-11 15:13:38.64	227.59	53.46	-24.6	-24.9	17.2	0.00e+00	0	42	0	2263875584	9	3749
2026-01-11 15:13:39.65	228.22	53.64	-24.6	-25.0	17.2	0.00e+00	0	42	0	2271215616	9	3769
2026-01-11 15:13:40.65	228.86	53.82	-24.5	-24.9	17.2	0.00e+00	0	42	0	2278555648	9	3757
2026-01-11 15:13:41.66	229.51	53.99	-24.7	-25.3	17.0	0.00e+00	0	42	0	2285895680	9	3855
2026-01-11 15:13:42.67	230.16	54.17	-24.6	-25.1	17.1	0.00e+00	0	42	0	2293235712	9	3811
2026-01-11 15:13:43.67	230.82	54.33	-24.5	-24.9	17.2	0.00e+00	0	42	0	2300575744	9	3761
2026-01-11 15:13:44.68	231.49	54.50	-24.3	-24.4	17.5	0.00e+00	0	42	0	2307915776	9	3644
2026-01-11 15:13:45.68	232.17	54.66	-24.6	-25.0	17.2	0.00e+00	0	42	0	2315255808	9	3787
2026-01-11 15:13:46.69	232.86	54.82	-24.3	-24.4	17.5	0.00e+00	0	42	0	2322595840	9	3644
2026-01-11 15:13:47.70	233.55	54.97	-24.1	-24.0	17.8	0.00e+00	0	42	0	2329935872	9	3553
2026-01-11 15:13:48.70	234.25	55.12	-24.1	-24.4	17.8	0.00e+00	0	42	0	2337275904	8	3746
2026-01-11 15:13:49.71	234.96	55.27	-24.3	-25.0	17.5	0.00e+00	0	42	0	2343567360	8	3880
2026-01-11 15:13:50.72	235.67	55.42	-24.5	-24.9	17.2	0.00e+00	0	42	0	2350907392	9	3742
2026-01-11 15:13:51.72	236.39	55.55	-24.5	-24.7	17.3	0.00e+00	0	42	0	2358247424	9	3715
2026-01-11 15:13:52.71	237.11	55.69	-24.3	-24.4	17.5	0.00e+00	0	42	0	2365587456	9	3654
2026-01-11 15:13:53.72	237.85	55.82	-24.2	-24.1	17.7	0.00e+00	0	42	0	2372927488	9	3568
2026-01-11 15:13:54.73	238.59	55.95	-24.4	-24.5	17.5	0.00e+00	0	42	0	2380267520	9	3658
2026-01-11 15:13:55.73	239.34	56.07	-24.5	-24.8	17.3	0.00e+00	0	42	0	2387607552	9	3732
2026-01-11 15:13:56.74	240.10	56.19	-24.9	-25.6	16.9	0.00e+00	0	42	0	2394947584	9	3923
2026-01-11 15:13:57.75	240.86	56.30	-24.9	-25.7	16.8	0.00e+00	0	42	0	2402287616	9	3934
2026-01-11 15:13:58.76	241.63	56.41	-24.7	-25.2	17.0	0.00e+00	0	42	0	2409627648	9	3828
2026-01-11 15:13:59.77	242.41	56.51	-24.6	-25.0	17.2	0.00e+00	0	42	0	2416967680	9	3769
2026-01-11 15:14:00.77	243.18	56.61	-24.4	-24.6	17.4	0.00e+00	0	42	0	2424307712	9	3691
2026-01-11 15:14:01.78	243.97	56.71	-24.3	-24.4	17.5	0.00e+00	0	42	0	2431647744	9	3631
2026-01-11 15:14:02.79	244.76	56.80	-24.3	-24.5	17.5	0.00e+00	0	42	0	2438987776	9	3656
2026-01-11 15:14:03.79	245.55	56.88	-24.4	-24.7	17.2	0.00e+00	0	42	0	2446327808	9	3706
2026-01-11 15:14:04.79	246.35	56.96	-24.7	-25.3	17.0	0.00e+00	0	42	0	2452619264	9	3844
2026-01-11 15:14:05.80	247.15	57.03	-24.3	-24.4	17.5	0.00e+00	0	42	0	2459959296	9	3643
2026-01-11 15:14:06.80	247.96	57.10	-24.0	-23.8	17.9	0.00e+00	0	42	0	2467299328	9	3502
2026-01-11 15:14:07.81	248.77	57.16	-24.1	-24.0	17.7	0.00e+00	0	42	0	2474639360	9	3554
2026-01-11 15:14:08.81	249.58	57.22	-24.1	-24.1	17.7	0.00e+00	0	42	0	2481979392	9	3569
2026-01-11 15:14:09.82	250.41	57.27	-24.0	-23.8	17.8	0.00e+00	0	42	0	2489319424	9	3509
2026-01-11 15:14:10.83	251.23	57.32	-24.3	-24.4	17.5	0.00e+00	0	42	0	2496659456	9	3637
2026-01-11 15:14:11.83	252.05	57.36	-24.4	-24.6	17.4	0.00e+00	0	42	0	2503999488	9	3684
2026-01-11 15:14:12.84	252.88	57.40	-24.8	-25.4	17.0	0.00e+00	0	42	0	2511339520	9	3866
2026-01-11 15:14:13.84	253.70	57.43	-24.7	-25.3	17.1	0.00e+00	0	42	0	2518679552	9	3841
2026-01-11 15:14:14.85	254.54	57.45	-24.6	-25.0	17.2	0.00e+00	0	42	0	2526019584	9	3778
2026-01-11 15:14:15.85	255.36	57.47	-24.7	-25.2	17.2	0.00e+00	0	42	0	2533359616	9	3824
2026-01-11 15:14:16.86	256.20	57.49	-24.8	-25.5	17.0	0.00e+00	0	42	0	2539651072	9	3905
2026-01-11 15:14:17.86	257.03	57.49	-24.9	-25.6	16.9	0.00e+00	0	42	0	2546991104	9	3924
2026-01-11 15:14:18.87	257.86	57.50	-24.6	-25.0	17.2	0.00e+00	0	42	0	2554331136	9	3780
2026-01-11 15:14:19.87	258.69	57.49	-24.5	-24.7	17.3	0.00e+00	0	42	0	2561671168	9	3718
2026-01-11 15:14:20.88	259.53	57.48	-24.4	-24.7	17.3	0.00e+00	0	42	0	2569011200	9	3710
2026-01-11 15:14:21.88	260.36	57.47	-24.5	-24.8	17.3	0.00e+00	0	42	0	2576351232	9	3723
2026-01-11 15:14:22.89	261.19	57.45	-24.5	-24.8	17.3	0.00e+00	0	42	0	2583691264	9	3724
2026-01-11 15:14:23.89	262.02	57.42	-24.8	-25.5	17.0	0.00e+00	0	42	0	2591031296	9	3894
2026-01-11 15:14:24.90	262.85	57.39	-24.9	-25.6	17.0	0.00e+00	0	42	0	2598371328	9	3920
2026-01-11 15:14:25.91	263.68	57.35	-25.2	-25.9	16.5	0.00e+00	0	42	0	2605711360	10	3892
2026-01-11 15:14:26.91	264.49	57.31	-25.0	-25.4	16.8	0.00e+00	0	42	0	2613051392	10	3770
2026-01-11 15:14:27.92	265.32	57.26	-24.9	-25.1	16.9	0.00e+00	0	42	0	2619342848	10	3694
2026-01-11 15:14:28.94	266.15	57.21	-25.0	-25.4	16.8	0.00e+00	0	42	0	2627731456	10	3771
2026-01-11 15:14:29.94	266.96	57.15	-25.0	-25.4	16.8	0.00e+00	0	42	0	2635071488	10	3761
2026-01-11 15:14:30.95	267.77	57.08	-25.5	-26.5	16.2	0.00e+00	0	42	0	2641362944	10	4020
2026-01-11 15:14:31.95	268.57	57.02	-25.3	-25.5	16.5	0.00e+00	0	42	0	2648702976	11	3687
2026-01-11 15:14:32.96	269.38	56.94	-24.9	-25.2	16.8	0.00e+00	0	43	0	2656043008	10	3727
2026-01-11 15:14:33.96	270.17	56.86	-24.6	-24.5	17.2	0.00e+00	0	42	0	2663383040	10	3572
2026-01-11 15:14:34.96	270.96	56.78	-24.2	-24.2	17.6	0.00e+00	0	42	0	2670723072	9	3591
2026-01-11 15:14:35.97	271.75	56.68	-24.1	-24.0	17.7	0.00e+00	0	42	0	2678063104	9	3550
2026-01-11 15:14:36.98	272.53	56.59	-24.6	-24.9	17.2	0.00e+00	0	42	0	2685403136	9	3758
2026-01-11 15:14:37.98	273.31	56.49	-24.5	-24.9	17.2	0.00e+00	0	42	0	2692743168	9	3765
2026-01-11 15:14:38.99	274.08	56.38	-24.7	-25.2	17.1	0.00e+00	0	42	0	2700083200	9	3829
2026-01-11 15:14:40.00	274.85	56.27	-24.5	-24.9	17.3	0.00e+00	0	42	0	2707423232	9	3748
2026-01-11 15:14:41.00	275.61	56.16	-24.3	-24.4	17.5	0.00e+00	0	42	0	2714763264	9	3637
2026-01-11 15:14:42.01	276.36	56.04	-24.4	-24.7	17.4	0.00e+00	0	42	0	2722103296	9	3698
2026-01-11 15:14:43.02	277.11	55.92	-24.7	-25.2	17.1	0.00e+00	0	42	0	2728394752	9	3812
2026-01-11 15:14:44.02	277.85	55.79	-24.6	-25.0	17.2	0.00e+00	0	42	0	2735734784	9	3773
2026-01-11 15:14:45.03	278.58	55.66	-24.5	-24.7	17.4	0.00e+00	0	43	0	2744123392	9	3708
2026-01-11 15:14:46.04	279.31	55.52	-24.6	-25.1	17.1	0.00e+00	0	42	0	2750414848	9	3805
2026-01-11 15:14:47.04	280.03	55.38	-24.7	-25.2	17.0	0.00e+00	0	42	0	2757754880	9	3833
2026-01-11 15:14:48.05	280.74	55.24	-24.7	-25.2	17.1	0.00e+00	0	42	0	2765094912	9	3820
2026-01-11 15:14:49.06	281.45	55.09	-24.7	-25.3	17.0	0.00e+00	0	42	0	2772434944	9	3845
2026-01-11 15:14:50.06	282.14	54.94	-24.3	-24.4	17.5	0.00e+00	0	42	0	2779774976	9	3649
2026-01-11 15:14:51.07	282.83	54.78	-24.1	-24.0	17.7	0.00e+00	0	42	0	2787115008	9	3542
2026-01-11 15:14:52.08	283.52	54.62	-24.3	-24.3	17.5	0.00e+00	0	42	0	2794455040	9	3629
2026-01-11 15:14:53.09	284.20	54.46	-24.4	-24.6	17.3	0.00e+00	0	42	0	2801795072	9	3678
2026-01-11 15:14:54.09	284.86	54.30	-24.7	-25.2	16.9	0.00e+00	0	42	0	2809135104	9	3830
2026-01-11 15:14:55.10	285.52	54.13	-24.8	-25.4	17.0	0.00e+00	0	42	0	2816475136	9	3884
2026-01-11 15:14:56.10	286.17	53.96	-24.9	-25.7	16.8	0.00e+00	0	42	0	2823815168	9	3955
2026-01-11 15:14:57.10	286.81	53.78	-24.5	-24.8	17.3	0.00e+00	0	42	0	2830106624	9	3722
2026-01-11 15:14:58.11	287.45	53.60	-24.4	-24.6	17.4	0.00e+00	0	42	0	2837446656	9	3688
2026-01-11 15:14:59.11	288.07	53.42	-24.6	-25.0	17.2	0.00e+00	0	42	0	2844786688	9	3790
2026-01-11 15:15:00.11	288.69	53.24	-24.7	-25.3	17.0	0.00e+00	0	42	0	2852126720	9	3853
2026-01-11 15:15:01.12	289.30	53.06	-24.8	-25.5	16.9	0.00e+00	0	42	0	2859466752	9	3889
2026-01-11 15:15:02.12	289.90	52.87	-25.0	-25.8	16.7	0.00e+00	0	42	0	2866806784	9	3969
2026-01-11 15:15:03.13	290.50	52.68	-24.5	-24.7	17.3	0.00e+00	0	42	0	2874146816	9	3717
2026-01-11 15:15:04.13	291.09	52.48	-24.3	-24.3	17.5	0.00e+00	0	42	0	2881486848	9	3623
2026-01-11 15:15:05.14	291.67	52.29	-24.4	-24.7	17.4	0.00e+00	0	42	0	2888826880	9	3704
2026-01-11 15:15:06.14	292.25	52.09	-24.5	-24.7	17.3	0.00e+00	0	42	0	2896166912	9	3716
2026-01-11 15:15:07.14	292.81	51.89	-24.5	-24.9	17.1	0.00e+00	0	42	0	2903506944	9	3749
2026-01-11 15:15:08.15	293.37	51.69	-24.6	-25.1	17.1	0.00e+00	0	42	0	2910846976	9	3801
2026-01-11 15:15:09.16	293.92	51.49	-24.9	-25.6	16.8	0.00e+00	0	42	0	2917138432	9	3927
2026-01-11 15:15:10.16	294.46	51.28	-25.1	-25.5	16.7	0.00e+00	0	42	0	2924478464	10	3784
2026-01-11 15:15:11.17	295.00	51.07	-24.7	-24.7	17.1	0.00e+00	0	42	0	2931818496	10	3611
2026-01-11 15:15:12.17	295.53	50.87	-24.3	-24.5	17.4	0.00e+00	0	42	0	2939158528	9	3655
2026-01-11 15:15:13.18	296.05	50.65	-24.4	-24.6	17.4	0.00e+00	0	42	0	2946498560	9	3679
2026-01-11 15:15:14.19	296.57	50.44	-24.8	-25.4	16.9	0.00e+00	0	42	0	2953838592	9	3870
2026-01-11 15:15:15.19	297.08	50.23	-24.9	-25.6	16.8	0.00e+00	0	42	0	2961178624	9	3935
2026-01-11 15:15:16.20	297.58	50.01	-24.7	-25.2	17.0	0.00e+00	0	42	0	2968518656	9	3821
2026-01-11 15:15:17.20	298.07	49.80	-24.4	-24.7	17.3	0.00e+00	0	42	0	2975858688	9	3710
2026-01-11 15:15:18.21	298.56	49.58	-24.5	-24.8	17.2	0.00e+00	0	42	0	2983198720	9	3737
2026-01-11 15:15:19.21	299.04	49.37	-24.9	-25.7	16.8	0.00e+00	0	42	0	2990538752	9	3949
2026-01-11 15:15:20.22	299.51	49.15	-24.8	-25.4	16.9	0.00e+00	0	42	0	2996830208	9	3873
2026-01-11 15:15:21.22	299.97	48.93	-24.9	-25.8	16.8	0.00e+00	0	42	0	3004170240	9	3958
2026-01-11 15:15:22.23	300.44	48.71	-24.4	-24.6	17.3	0.00e+00	0	42	0	3012558848	9	3682
2026-01-11 15:15:23.24	300.89	48.48	-24.2	-24.1	17.5	0.00e+00	0	42	0	3018850304	9	3581
2026-01-11 15:15:24.24	301.34	48.26	-24.2	-24.3	17.4	0.00e+00	0	43	0	3026190336	9	3612
2026-01-11 15:15:25.24	301.77	48.04	-24.7	-25.2	17.0	0.00e+00	0	42	0	3033530368	9	3814
2026-01-11 15:15:26.25	302.21	47.82	-24.2	-24.1	17.6	0.00e+00	0	42	0	3040870400	9	3580
2026-01-11 15:15:27.25	302.64	47.59	-24.1	-23.9	17.7	0.00e+00	0	42	0	3048210432	9	3534
2026-01-11 15:15:28.25	303.06	47.37	-24.0	-23.8	17.7	0.00e+00	0	42	0	3055550464	9	3514
2026-01-11 15:15:29.26	303.47	47.15	-24.2	-24.2	17.6	0.00e+00	0	42	0	3062890496	9	3596
2026-01-11 15:15:30.26	303.88	46.92	-24.3	-24.3	17.5	0.00e+00	0	42	0	3070230528	9	3627
2026-01-11 15:15:31.26	304.29	46.70	-24.6	-25.0	17.1	0.00e+00	0	42	0	3077570560	9	3781
2026-01-11 15:15:32.27	304.69	46.47	-24.2	-24.2	17.6	0.00e+00	0	42	0	3083862016	9	3590
2026-01-11 15:15:33.27	305.08	46.25	-23.6	-23.4	18.2	0.00e+00	0	43	0	3091202048	8	3531
2026-01-11 15:15:34.28	305.47	46.02	-23.4	-23.0	18.4	0.00e+00	0	42	0	3099590656	8	3429
2026-01-11 15:15:35.28	305.85	45.79	-23.2	-23.2	18.5	0.00e+00	0	42	0	3105882112	7	3568
2026-01-11 15:15:36.29	306.22	45.57	-23.1	-22.9	18.7	0.00e+00	0	42	0	3113222144	7	3504
2026-01-11 15:15:37.29	306.59	45.34	-23.0	-22.8	18.8	0.00e+00	0	42	0	3120562176	7	3484
2026-01-11 15:15:38.30	306.96	45.11	-23.0	-22.6	18.8	0.00e+00	0	42	0	3127902208	7	3452
2026-01-11 15:15:39.31	307.32	44.89	-22.7	-22.5	19.1	0.00e+00	0	42	0	3135242240	6	3540
2026-01-11 15:15:40.32	307.68	44.66	-22.6	-22.3	19.2	0.00e+00	0	42	0	3142582272	6	3487
2026-01-11 15:15:41.32	308.03	44.44	-22.7	-22.5	19.1	0.00e+00	0	43	0	3149922304	6	3533
2026-01-11 15:15:42.33	308.38	44.21	-23.1	-23.4	18.7	0.00e+00	0	42	0	3157262336	6	3716
2026-01-11 15:15:43.34	308.72	43.98	-23.3	-23.7	18.5	0.00e+00	0	42	0	3164602368	6	3806
2026-01-11 15:15:44.35	309.06	43.76	-23.5	-24.1	18.2	0.00e+00	0	42	0	3171942400	6	3899
2026-01-11 15:15:45.35	309.39	43.53	-23.5	-24.2	18.3	0.00e+00	0	42	0	3179282432	6	3915
2026-01-11 15:15:46.35	309.72	43.31	-23.4	-24.1	18.3	0.00e+00	0	42	0	3186622464	6	3876
2026-01-11 15:15:47.36	310.04	43.08	-23.4	-24.0	18.4	0.00e+00	0	42	0	3192913920	6	3859
2026-01-11 15:15:48.37	310.36	42.86	-23.4	-24.0	18.3	0.00e+00	0	42	0	3200253952	6	3855
2026-01-11 15:15:49.38	310.68	42.63	-23.5	-23.8	18.2	0.00e+00	0	42	0	3207593984	7	3711
2026-01-11 15:15:50.38	310.98	42.41	-23.1	-23.0	18.6	0.00e+00	0	42	0	3214934016	7	3532
2026-01-11 15:15:51.38	311.29	42.19	-23.1	-22.8	18.7	0.00e+00	0	42	0	3222274048	7	3495
2026-01-11 15:15:52.38	311.59	41.97	-23.2	-23.0	18.6	0.00e+00	0	42	0	3229614080	7	3539
2026-01-11 15:15:53.39	311.89	41.74	-23.2	-23.0	18.6	0.00e+00	0	42	0	3236954112	7	3541
2026-01-11 15:15:54.39	312.18	41.52	-23.2	-23.1	18.3	0.00e+00	0	42	0	3244294144	7	3564
2026-01-11 15:15:55.39	312.47	41.30	-23.3	-23.3	18.5	0.00e+00	0	42	0	3251634176	7	3598
2026-01-11 15:15:56.40	312.75	41.08	-23.4	-23.5	18.4	0.00e+00	0	42	0	3258974208	7	3642
2026-01-11 15:15:57.41	313.04	40.86	-23.4	-23.6	18.2	0.00e+00	0	42	0	3266314240	7	3662
2026-01-11 15:15:58.41	313.31	40.64	-23.3	-23.2	18.5	0.00e+00	0	42	0	3272605696	7	3584
2026-01-11 15:15:59.42	313.59	40.43	-23.2	-23.0	18.6	0.00e+00	0	42	0	3279945728	7	3544
2026-01-11 15:16:00.43	313.86	40.21	-23.3	-23.2	18.5	0.00e+00	0	42	0	3288334336	7	3591
2026-01-11 15:16:01.44	314.13	39.99	-23.2	-23.1	18.5	0.00e+00	0	42	0	3294625792	7	3553
2026-01-11 15:16:02.45	314.39	39.77	-23.1	-23.0	18.6	0.00e+00	0	42	0	3301965824	7	3542
2026-01-11 15:16:03.45	314.65	39.56	-23.2	-23.1	18.5	0.00e+00	0	42	0	3309305856	7	3562
2026-01-11 15:16:04.46	314.91	39.34	-23.1	-22.8	18.6	0.00e+00	0	42	0	3316645888	7	3505
2026-01-11 15:16:05.46	315.16	39.13	-23.1	-22.9	18.6	0.00e+00	0	42	0	3323985920	7	3518
2026-01-11 15:16:06.46	315.41	38.91	-23.2	-23.0	18.6	0.00e+00	0	42	0	3331325952	7	3538
2026-01-11 15:16:07.47	315.66	38.70	-23.1	-22.9	18.6	0.00e+00	0	42	0	3338665984	7	3526
2026-01-11 15:16:08.48	315.91	38.49	-23.1	-22.9	18.6	0.00e+00	0	42	0	3346006016	7	3515
2026-01-11 15:16:09.48	316.14	38.28	-23.3	-23.3	18.4	0.00e+00	0	42	0	3353346048	7	3599
2026-01-11 15:16:10.49	316.38	38.07	-23.3	-23.4	18.4	0.00e+00	0	43	0	3360686080	7	3617
2026-01-11 15:16:11.50	316.62	37.85	-23.3	-23.3	18.4	0.00e+00	0	42	0	3368026112	7	3605
2026-01-11 15:16:12.51	316.85	37.64	-23.2	-23.2	18.4	0.00e+00	0	42	0	3375366144	7	3587
2026-01-11 15:16:13.52	317.08	37.44	-23.3	-23.4	18.4	0.00e+00	0	43	0	3381657600	7	3617
2026-01-11 15:16:14.52	317.31	37.23	-23.2	-23.2	18.4	0.00e+00	0	43	0	3388997632	7	3576
2026-01-11 15:16:15.53	317.53	37.02	-23.0	-22.7	18.7	0.00e+00	0	42	0	3397386240	7	3473
2026-01-11 15:16:16.54	317.75	36.82	-23.0	-22.7	18.7	0.00e+00	0	43	0	3403677696	7	3474
2026-01-11 15:16:17.54	317.97	36.61	-23.0	-22.6	18.8	0.00e+00	0	43	0	3411017728	7	3446
2026-01-11 15:16:18.55	318.19	36.41	-22.9	-22.5	18.8	0.00e+00	0	42	0	3418357760	7	3441
2026-01-11 15:16:19.56	318.40	36.20	-23.1	-22.9	18.7	0.00e+00	0	42	0	3425697792	7	3505
2026-01-11 15:16:20.56	318.61	36.00	-23.1	-22.8	18.7	0.00e+00	0	42	0	3433037824	7	3491
2026-01-11 15:16:21.57	318.82	35.80	-22.7	-22.6	19.0	0.00e+00	0	42	0	3440377856	6	3557
2026-01-11 15:16:22.58	319.02	35.60	-22.5	-22.2	19.1	0.00e+00	0	42	0	3447717888	6	3471
2026-01-11 15:16:23.59	319.23	35.40	-22.5	-22.2	19.1	0.00e+00	0	42	0	3455057920	6	3474
2026-01-11 15:16:24.59	319.43	35.20	-22.5	-22.2	19.2	0.00e+00	0	42	0	3462397952	6	3472
2026-01-11 15:16:25.60	319.62	35.00	-22.5	-22.2	19.1	0.00e+00	0	42	0	3469737984	6	3480
2026-01-11 15:16:26.61	319.82	34.80	-22.5	-22.1	19.2	0.00e+00	0	43	0	3477078016	6	3461
2026-01-11 15:16:27.62	320.01	34.61	-22.5	-22.3	19.1	0.00e+00	0	42	0	3483369472	6	3484
2026-01-11 15:16:28.63	320.21	34.41	-22.8	-22.8	18.9	0.00e+00	0	42	0	3491758080	6	3599
2026-01-11 15:16:29.63	320.39	34.22	-22.8	-22.9	18.8	0.00e+00	0	43	0	3499098112	6	3613
2026-01-11 15:16:30.63	320.58	34.02	-22.8	-22.8	18.8	0.00e+00	0	42	0	3505389568	6	3607
2026-01-11 15:16:31.64	320.76	33.83	-23.0	-23.1	18.7	0.00e+00	0	42	0	3512729600	6	3672
2026-01-11 15:16:32.65	320.95	33.64	-23.2	-23.6	18.4	0.00e+00	0	43	0	3520069632	6	3780
2026-01-11 15:16:33.65	321.13	33.45	-23.3	-23.9	18.3	0.00e+00	0	42	0	3527409664	6	3840
2026-01-11 15:16:34.66	321.30	33.26	-23.3	-23.9	18.3	0.00e+00	0	42	0	3534749696	6	3846
2026-01-11 15:16:35.67	321.48	33.07	-23.3	-23.9	18.2	0.00e+00	0	42	0	3542089728	6	3844
2026-01-11 15:16:36.68	321.66	32.88	-23.4	-23.9	18.3	0.00e+00	0	43	0	3549429760	6	3851
2026-01-11 15:16:37.68	321.83	32.69	-23.3	-23.9	18.3	0.00e+00	0	42	0	3556769792	6	3836
2026-01-11 15:16:38.69	322.00	32.50	-23.2	-23.6	18.5	0.00e+00	0	42	0	3564109824	6	3770
2026-01-11 15:16:39.70	322.17	32.32	-23.1	-23.4	18.5	0.00e+00	0	42	0	3571449856	6	3726
2026-01-11 15:16:40.71	322.33	32.13	-23.0	-23.2	18.7	0.00e+00	0	42	0	3578789888	6	3686
2026-01-11 15:16:41.71	322.50	31.95	-22.9	-23.0	18.8	0.00e+00	0	42	0	3586129920	6	3637
2026-01-11 15:16:42.72	322.66	31.77	-22.8	-22.9	18.8	0.00e+00	0	42	0	3592421376	6	3605
2026-01-11 15:16:43.73	322.82	31.58	-22.9	-23.0	18.7	0.00e+00	0	42	0	3600809984	6	3625
2026-01-11 15:16:44.74	322.98	31.40	-22.9	-22.9	18.8	0.00e+00	0	42	0	3608150016	6	3607
2026-01-11 15:16:45.75	323.14	31.22	-23.1	-23.3	18.6	0.00e+00	0	42	0	3614441472	6	3708
2026-01-11 15:16:46.75	323.30	31.04	-23.0	-23.1	18.7	0.00e+00	0	42	0	3621781504	6	3665
2026-01-11 15:16:47.76	323.45	30.86	-22.8	-22.7	18.9	0.00e+00	0	42	0	3629121536	6	3572
2026-01-11 15:16:48.76	323.60	30.69	-22.8	-22.7	18.9	0.00e+00	0	42	0	3636461568	6	3571
2026-01-11 15:16:49.77	323.76	30.51	-22.8	-22.8	18.8	0.00e+00	0	42	0	3643801600	6	3607
2026-01-11 15:16:50.77	323.90	30.34	-23.0	-23.2	18.6	0.00e+00	0	42	0	3651141632	6	3688
2026-01-11 15:16:51.77	324.05	30.16	-23.2	-23.7	18.3	0.00e+00	0	42	0	3658481664	6	3794
2026-01-11 15:16:52.78	324.20	29.99	-23.3	-23.8	18.3	0.00e+00	0	42	0	3665821696	6	3814
2026-01-11 15:16:53.79	324.34	29.81	-23.4	-24.0	18.2	0.00e+00	0	42	0	3673161728	6	3858
2026-01-11 15:16:54.79	324.49	29.64	-23.3	-23.9	18.3	0.00e+00	0	42	0	3680501760	6	3846
2026-01-11 15:16:55.80	324.63	29.47	-23.5	-24.3	18.1	0.00e+00	0	42	0	3687841792	6	3930
2026-01-11 15:16:56.81	324.77	29.30	-23.6	-23.9	18.0	0.00e+00	0	43	0	3695181824	7	3732
2026-01-11 15:16:57.82	324.91	29.13	-23.9	-24.6	17.6	0.00e+00	0	43	0	3701473280	7	3894
2026-01-11 15:16:58.82	325.05	28.96	-23.7	-24.2	17.9	0.00e+00	0	42	0	3708813312	7	3811
2026-01-11 15:16:59.83	325.18	28.79	-23.4	-23.6	18.2	0.00e+00	0	42	0	3717201920	7	3681
2026-01-11 15:17:00.84	325.32	28.62	-23.4	-23.5	18.3	0.00e+00	0	42	0	3723493376	7	3644
2026-01-11 15:17:01.84	325.45	28.46	-23.4	-23.5	18.2	0.00e+00	0	42	0	3730833408	7	3650
2026-01-11 15:17:02.85	325.58	28.29	-23.4	-23.5	18.2	0.00e+00	0	42	0	3738173440	7	3657
2026-01-11 15:17:03.85	325.71	28.13	-23.4	-23.5	18.2	0.00e+00	0	42	0	3745513472	7	3657
2026-01-11 15:17:04.85	325.84	27.97	-23.5	-23.8	17.9	0.00e+00	0	43	0	3752853504	7	3725
2026-01-11 15:17:05.86	325.97	27.80	-23.4	-23.5	18.2	0.00e+00	0	43	0	3760193536	7	3643
2026-01-11 15:17:06.86	326.10	27.64	-23.3	-23.3	18.3	0.00e+00	0	43	0	3767533568	7	3617
2026-01-11 15:17:07.87	326.22	27.48	-23.3	-23.4	18.3	0.00e+00	0	42	0	3774873600	7	3626
2026-01-11 15:17:08.87	326.35	27.32	-23.3	-23.3	18.3	0.00e+00	0	43	0	3781165056	7	3618
2026-01-11 15:17:09.88	326.47	27.16	-23.3	-23.3	18.3	0.00e+00	0	42	0	3789553664	7	3610
2026-01-11 15:17:10.89	326.59	27.00	-23.2	-23.2	18.4	0.00e+00	0	43	0	3796893696	7	3572
2026-01-11 15:17:11.89	326.71	26.84	-23.3	-23.4	18.2	0.00e+00	0	43	0	3803185152	7	3625
2026-01-11 15:17:12.90	326.83	26.68	-23.1	-23.0	18.4	0.00e+00	0	42	0	3810525184	7	3546
2026-01-11 15:17:13.90	326.95	26.53	-23.2	-23.0	18.4	0.00e+00	0	43	0	3817865216	7	3550
2026-01-11 15:17:14.91	327.07	26.37	-23.2	-23.1	18.3	0.00e+00	0	43	0	3825205248	7	3569
2026-01-11 15:17:15.91	327.18	26.22	-23.1	-22.9	18.5	0.00e+00	0	42	0	3832545280	7	3517
2026-01-11 15:17:16.92	327.30	26.06	-23.0	-22.8	18.5	0.00e+00	0	42	0	3839885312	7	3494
2026-01-11 15:17:17.93	327.42	25.91	-23.2	-23.0	18.4	0.00e+00	0	43	0	3847225344	7	3546
2026-01-11 15:17:18.93	327.53	25.76	-23.1	-22.8	18.5	0.00e+00	0	43	0	3854565376	7	3497
2026-01-11 15:17:19.93	327.64	25.61	-23.1	-23.0	18.4	0.00e+00	0	43	0	3861905408	7	3541
2026-01-11 15:17:20.94	327.75	25.45	-23.1	-22.9	18.5	0.00e+00	0	42	0	3869245440	7	3515
2026-01-11 15:17:21.94	327.86	25.30	-23.1	-23.0	18.4	0.00e+00	0	42	0	3876585472	7	3533
2026-01-11 15:17:22.95	327.97	25.15	-23.1	-22.9	18.4	0.00e+00	0	42	0	3883925504	7	3518
2026-01-11 15:17:23.96	328.08	25.00	-23.2	-23.2	18.3	0.00e+00	0	42	0	3890216960	7	3580
2026-01-11 15:17:24.97	328.19	24.86	-23.1	-23.0	18.4	0.00e+00	0	42	0	3897556992	7	3539
2026-01-11 15:17:25.97	328.29	24.71	-23.2	-23.0	18.4	0.00e+00	0	43	0	3904897024	7	3544
2026-01-11 15:17:26.98	328.40	24.56	-23.3	-23.4	18.2	0.00e+00	0	42	0	3912237056	7	3624
2026-01-11 15:17:27.99	328.50	24.41	-23.2	-23.2	18.3	0.00e+00	0	42	0	3919577088	7	3581
2026-01-11 15:17:28.99	328.61	24.27	-23.2	-23.2	18.3	0.00e+00	0	42	0	3926917120	7	3579
2026-01-11 15:17:30.00	328.71	24.13	-23.4	-23.6	18.1	0.00e+00	0	42	0	3934257152	7	3664
2026-01-11 15:17:31.00	328.81	23.98	-23.4	-23.5	18.1	0.00e+00	0	43	0	3941597184	7	3655
2026-01-11 15:17:32.01	328.91	23.84	-23.3	-23.3	18.2	0.00e+00	0	42	0	3948937216	7	3609
2026-01-11 15:17:33.02	329.01	23.70	-23.5	-23.7	18.1	0.00e+00	0	42	0	3956277248	7	3685
2026-01-11 15:17:34.03	329.11	23.55	-23.5	-23.7	18.0	0.00e+00	0	43	0	3963617280	7	3694
2026-01-11 15:17:35.03	329.21	23.41	-23.6	-24.0	17.8	0.00e+00	0	42	0	3970957312	7	3762
2026-01-11 15:17:36.04	329.31	23.27	-23.5	-23.9	17.9	0.00e+00	0	42	0	3978297344	7	3729
2026-01-11 15:17:37.04	329.40	23.13	-23.6	-24.0	17.8	0.00e+00	0	42	0	3985637376	7	3765
2026-01-11 15:17:38.05	329.50	22.99	-23.7	-24.3	17.6	0.00e+00	0	42	0	3991928832	7	3824
2026-01-11 15:17:39.06	329.59	22.85	-24.0	-24.8	17.4	0.00e+00	0	43	0	3999268864	7	3946
2026-01-11 15:17:40.06	329.69	22.72	-23.8	-24.4	17.6	0.00e+00	0	42	0	4006608896	7	3850
2026-01-11 15:17:41.06	329.78	22.58	-23.7	-24.2	17.7	0.00e+00	0	42	0	4013948928	7	3815
2026-01-11 15:17:42.07	329.87	22.44	-23.8	-24.4	17.7	0.00e+00	0	42	0	4021288960	7	3852
2026-01-11 15:17:43.07	329.96	22.31	-23.8	-24.4	17.6	0.00e+00	0	42	0	4028628992	7	3866
2026-01-11 15:17:44.07	330.05	22.18	-23.8	-24.4	17.6	0.00e+00	0	43	0	4035969024	7	3871
2026-01-11 15:17:45.08	330.14	22.04	-23.9	-24.7	17.4	0.00e+00	0	42	0	4043309056	7	3922
2026-01-11 15:17:46.09	330.23	21.91	-23.8	-24.3	17.6	0.00e+00	0	42	0	4050649088	7	3842
2026-01-11 15:17:47.10	330.32	21.77	-23.7	-24.3	17.7	0.00e+00	0	42	0	4057989120	7	3820
2026-01-11 15:17:48.10	330.41	21.64	-23.8	-24.3	17.7	0.00e+00	0	42	0	4065329152	7	3833
2026-01-11 15:17:49.11	330.50	21.51	-23.7	-24.2	17.7	0.00e+00	0	42	0	4072669184	7	3812
2026-01-11 15:17:50.11	330.58	21.38	-23.6	-24.1	17.8	0.00e+00	0	42	0	4078960640	7	3773
2026-01-11 15:17:51.12	330.67	21.25	-23.9	-24.6	17.5	0.00e+00	0	42	0	4086300672	7	3892
2026-01-11 15:17:52.12	330.76	21.12	-23.8	-24.3	17.6	0.00e+00	0	42	0	4093640704	7	3836
2026-01-11 15:17:53.12	330.84	20.99	-23.6	-24.1	17.8	0.00e+00	0	42	0	4100980736	7	3774
2026-01-11 15:17:54.13	330.92	20.86	-23.7	-24.2	17.7	0.00e+00	0	43	0	4108320768	7	3810
2026-01-11 15:17:55.15	331.01	20.73	-24.1	-24.9	17.3	0.00e+00	0	42	0	4115660800	7	3976
2026-01-11 15:17:56.15	331.09	20.60	-23.9	-24.6	17.5	0.00e+00	0	42	0	4123000832	7	3913
2026-01-11 15:17:57.16	331.17	20.48	-24.2	-24.8	17.1	0.00e+00	0	42	0	4130340864	8	3842
2026-01-11 15:17:58.16	331.25	20.35	-24.6	-25.5	16.8	0.00e+00	0	42	0	4137680896	8	4006
2026-01-11 15:17:59.16	331.33	20.23	-24.2	-24.8	17.1	0.00e+00	0	42	0	4145020928	8	3842
2026-01-11 15:18:00.17	331.41	20.10	-24.0	-24.3	17.4	0.00e+00	0	42	0	4152360960	8	3735
2026-01-11 15:18:01.18	331.49	19.97	-24.0	-24.3	17.4	0.00e+00	0	42	0	4159700992	8	3736
2026-01-11 15:18:02.19	331.57	19.85	-24.1	-24.4	17.3	0.00e+00	0	43	0	4167041024	8	3764
2026-01-11 15:18:03.20	331.65	19.73	-24.1	-24.5	17.3	0.00e+00	0	42	0	4174381056	8	3775
2026-01-11 15:18:04.20	331.73	19.60	-24.2	-24.8	17.1	0.00e+00	0	42	0	4180672512	8	3841
2026-01-11 15:18:05.21	331.81	19.48	-24.1	-24.6	17.2	0.00e+00	0	42	0	4188012544	8	3797
2026-01-11 15:18:06.22	331.88	19.36	-24.2	-24.7	17.2	0.00e+00	0	42	0	4195352576	8	3818
2026-01-11 15:18:07.22	331.96	19.24	-24.2	-24.8	17.1	0.00e+00	0	42	0	4202692608	8	3838
2026-01-11 15:18:08.23	332.03	19.12	-24.4	-25.1	16.9	0.00e+00	0	42	0	4210032640	8	3928
2026-01-11 15:18:09.23	332.11	19.00	-24.3	-24.9	17.0	0.00e+00	0	43	0	4217372672	8	3869
2026-01-11 15:18:10.24	332.18	18.88	-24.4	-25.3	16.8	0.00e+00	0	43	0	4224712704	8	3957
2026-01-11 15:18:11.24	332.26	18.76	-24.4	-25.1	16.9	0.00e+00	0	42	0	4232052736	8	3914
2026-01-11 15:18:12.25	332.33	18.64	-24.4	-25.1	16.9	0.00e+00	0	43	0	4239392768	8	3915
2026-01-11 15:18:13.26	332.40	18.52	-24.5	-25.4	16.8	0.00e+00	0	42	0	4246732800	8	3982
2026-01-11 15:18:14.27	332.48	18.40	-24.5	-25.4	16.8	0.00e+00	0	42	0	4254072832	8	3994
2026-01-11 15:18:15.28	332.55	18.29	-24.6	-25.0	16.7	0.00e+00	0	42	0	4261412864	9	3777
2026-01-11 15:18:16.29	332.62	18.17	-24.7	-25.3	16.5	0.00e+00	0	43	0	4268752896	9	3858
2026-01-11 15:18:17.30	332.69	18.05	-24.9	-25.8	16.3	0.00e+00	0	42	0	4276092928	9	3972
2026-01-11 15:18:18.30	332.76	17.94	-24.7	-25.3	16.5	0.00e+00	0	42	0	4283432960	9	3861
2026-01-11 15:18:19.31	332.83	17.82	-24.5	-24.9	16.8	0.00e+00	0	42	0	4289724416	9	3757
2026-01-11 15:18:20.32	332.90	17.71	-24.4	-24.7	16.8	0.00e+00	0	42	0	4297064448	9	3732
2026-01-11 15:18:21.32	332.97	17.59	-24.5	-24.8	16.8	0.00e+00	0	43	0	4304404480	9	3742
2026-01-11 15:18:22.33	333.04	17.48	-24.4	-24.7	16.8	0.00e+00	0	42	0	4311744512	9	3723
2026-01-11 15:18:23.33	333.10	17.37	-24.6	-25.1	16.6	0.00e+00	0	42	0	4319084544	9	3804
2026-01-11 15:18:24.34	333.17	17.26	-24.6	-25.2	16.6	0.00e+00	0	42	0	4326424576	9	3827
2026-01-11 15:18:25.34	333.24	17.14	-24.5	-24.9	16.7	0.00e+00	0	42	0	4333764608	9	3756
2026-01-11 15:18:26.35	333.30	17.03	-24.6	-25.1	16.6	0.00e+00	0	42	0	4341104640	9	3818
2026-01-11 15:18:27.35	333.37	16.92	-24.6	-25.1	16.6	0.00e+00	0	42	0	4348444672	9	3801
2026-01-11 15:18:28.36	333.43	16.81	-24.5	-24.8	16.7	0.00e+00	0	43	0	4355784704	9	3749
2026-01-11 15:18:29.36	333.50	16.70	-24.6	-25.0	16.6	0.00e+00	0	42	0	4363124736	9	3787
2026-01-11 15:18:30.37	333.56	16.59	-24.6	-25.0	16.6	0.00e+00	0	42	0	4370464768	9	3795
2026-01-11 15:18:31.38	333.63	16.48	-24.5	-24.9	16.7	0.00e+00	0	42	0	4377804800	9	3761
2026-01-11 15:18:32.39	333.69	16.37	-24.5	-25.0	16.6	0.00e+00	0	43	0	4385144832	9	3788
2026-01-11 15:18:33.39	333.75	16.26	-24.6	-25.2	16.5	0.00e+00	0	42	0	4392484864	9	3835
2026-01-11 15:18:34.40	333.82	16.16	-24.7	-25.3	16.5	0.00e+00	0	42	0	4398776320	9	3853
2026-01-11 15:18:35.40	333.88	16.05	-24.7	-25.2	16.5	0.00e+00	0	42	0	4406116352	9	3850
2026-01-11 15:18:36.41	333.94	15.94	-24.8	-25.6	16.3	0.00e+00	0	43	0	4413456384	9	3936
2026-01-11 15:18:37.41	334.00	15.84	-24.9	-25.7	16.3	0.00e+00	0	42	0	4420796416	9	3951
2026-01-11 15:18:38.42	334.06	15.73	-24.8	-25.5	16.4	0.00e+00	0	42	0	4428136448	9	3907
2026-01-11 15:18:39.42	334.12	15.63	-24.9	-25.7	16.2	0.00e+00	0	42	0	4435476480	9	3953
2026-01-11 15:18:40.43	334.18	15.52	-24.9	-25.8	16.2	0.00e+00	0	42	0	4442816512	9	3974
2026-01-11 15:18:41.42	334.24	15.42	-25.0	-25.9	16.1	0.00e+00	0	43	0	4450156544	9	4015
2026-01-11 15:18:42.43	334.30	15.31	-25.0	-26.0	16.1	0.00e+00	0	42	0	4457496576	9	4033
2026-01-11 15:18:43.44	334.36	15.21	-25.0	-26.0	16.1	0.00e+00	0	42	0	4464836608	9	4030
2026-01-11 15:18:44.44	334.42	15.10	-25.0	-25.9	16.1	0.00e+00	0	42	0	4472176640	9	4004
2026-01-11 15:18:45.45	334.48	15.00	-25.0	-26.0	16.1	0.00e+00	0	42	0	4478468096	9	4029
2026-01-11 15:18:46.46	334.54	14.90	-25.0	-26.0	16.0	0.00e+00	0	43	0	4485808128	9	4043
2026-01-11 15:18:47.46	334.59	14.80	-25.0	-26.0	16.0	0.00e+00	0	42	0	4493148160	9	4023
2026-01-11 15:18:48.47	334.65	14.69	-25.1	-25.8	15.9	0.00e+00	0	42	0	4500488192	10	3874
2026-01-11 15:18:49.48	334.71	14.59	-25.2	-25.9	15.8	0.00e+00	0	42	0	4507828224	10	3905
2026-01-11 15:18:50.48	334.77	14.49	-25.3	-26.1	15.7	0.00e+00	0	42	0	4515168256	10	3953
2026-01-11 15:18:51.49	334.82	14.39	-25.3	-26.1	15.7	0.00e+00	0	42	0	4522508288	10	3937
2026-01-11 15:18:52.49	334.88	14.29	-25.4	-26.2	15.6	0.00e+00	0	42	0	4529848320	10	3986
2026-01-11 15:18:53.50	334.93	14.19	-25.4	-26.3	15.5	0.00e+00	0	42	0	4537188352	10	3992
2026-01-11 15:18:54.50	334.99	14.09	-25.4	-26.3	15.5	0.00e+00	0	42	0	4544528384	10	4006
2026-01-11 15:18:55.51	335.04	13.99	-25.5	-26.5	15.5	0.00e+00	0	42	0	4551868416	10	4045
2026-01-11 15:18:56.52	335.10	13.89	-25.5	-26.0	15.5	0.00e+00	0	42	0	4559208448	11	3822
2026-01-11 15:18:57.52	335.15	13.80	-25.4	-25.9	15.5	0.00e+00	0	42	0	4565499904	11	3790
2026-01-11 15:18:58.53	335.21	13.70	-25.3	-25.6	15.6	0.00e+00	0	42	0	4572839936	11	3741
2026-01-11 15:18:59.53	335.26	13.60	-25.4	-25.8	15.5	0.00e+00	0	42	0	4581228544	11	3792
2026-01-11 15:19:00.54	335.31	13.50	-25.4	-25.8	15.5	0.00e+00	0	42	0	4587520000	11	3780
2026-01-11 15:19:01.54	335.37	13.41	-25.4	-25.8	15.5	0.00e+00	0	42	0	4594860032	11	3783
2026-01-11 15:19:02.55	335.42	13.31	-25.5	-26.1	15.4	0.00e+00	0	42	0	4602200064	11	3838
2026-01-11 15:19:03.56	335.47	13.21	-25.5	-26.1	15.3	0.00e+00	0	42	0	4609540096	11	3858
2026-01-11 15:19:04.57	335.52	13.12	-25.4	-26.0	15.5	0.00e+00	0	42	0	4616880128	11	3819
2026-01-11 15:19:05.58	335.57	13.02	-25.3	-25.7	15.6	0.00e+00	0	42	0	4624220160	11	3754
2026-01-11 15:19:06.58	335.63	12.93	-25.5	-26.0	15.4	0.00e+00	0	42	0	4631560192	11	3838
2026-01-11 15:19:07.59	335.68	12.83	-25.4	-25.8	15.5	0.00e+00	0	43	0	4638900224	11	3787
2026-01-11 15:19:08.60	335.73	12.74	-25.5	-26.0	15.4	0.00e+00	0	42	0	4646240256	11	3813
2026-01-11 15:19:09.60	335.78	12.64	-25.6	-26.2	15.3	0.00e+00	0	42	0	4653580288	11	3882
2026-01-11 15:19:10.60	335.83	12.55	-25.5	-26.2	15.3	0.00e+00	0	42	0	4660920320	11	3871
2026-01-11 15:19:11.61	335.88	12.46	-25.5	-26.0	15.4	0.00e+00	0	42	0	4667211776	11	3821
2026-01-11 15:19:12.62	335.93	12.36	-25.6	-26.4	15.2	0.00e+00	0	42	0	4674551808	11	3917
2026-01-11 15:19:13.63	335.98	12.27	-25.7	-26.4	15.1	0.00e+00	0	43	0	4681891840	11	3933
2026-01-11 15:19:14.62	336.03	12.18	-25.6	-26.3	15.2	0.00e+00	0	42	0	4689231872	11	3894
2026-01-11 15:19:15.63	336.07	12.09	-25.6	-26.2	15.2	0.00e+00	0	42	0	4696571904	11	3884
2026-01-11 15:19:16.63	336.12	12.00	-25.7	-26.4	15.1	0.00e+00	0	42	0	4703911936	11	3927
2026-01-11 15:19:17.64	336.17	11.91	-25.7	-26.5	15.1	0.00e+00	0	42	0	4711251968	11	3935
2026-01-11 15:19:18.64	336.22	11.81	-25.7	-26.6	15.0	0.00e+00	0	43	0	4718592000	11	3963
2026-01-11 15:19:19.65	336.27	11.72	-25.8	-26.6	15.0	0.00e+00	0	43	0	4725932032	11	3981
2026-01-11 15:19:20.65	336.31	11.63	-25.8	-26.8	14.9	0.00e+00	0	42	0	4733272064	11	4014
2026-01-11 15:19:21.66	336.36	11.54	-25.8	-26.7	15.0	0.00e+00	0	42	0	4740612096	11	4005
2026-01-11 15:19:22.66	336.41	11.45	-25.9	-26.9	14.8	0.00e+00	0	42	0	4747952128	11	4059
2026-01-11 15:19:23.66	336.45	11.37	-25.9	-27.0	14.8	1.10e-06	0	42	0	4754243584	11	4066
2026-01-11 15:19:24.67	336.50	11.28	-25.8	-26.7	14.9	0.00e+00	0	42	0	4761583616	11	3997
2026-01-11 15:19:25.67	336.55	11.19	-25.7	-26.6	15.0	0.00e+00	0	43	0	4768923648	11	3971
2026-01-11 15:19:26.68	336.59	11.10	-25.8	-26.8	14.9	0.00e+00	0	43	0	4776263680	11	4020
2026-01-11 15:19:27.67	336.64	11.01	-25.8	-26.8	14.9	0.00e+00	0	42	0	4783603712	11	4019
2026-01-11 15:19:28.68	336.68	10.92	-25.9	-26.9	14.8	1.10e-06	0	42	0	4790943744	11	4063
2026-01-11 15:19:29.68	336.73	10.84	-26.0	-27.1	14.7	0.00e+00	0	42	0	4798283776	11	4101
2026-01-11 15:19:30.68	336.77	10.75	-26.0	-27.1	14.7	0.00e+00	0	42	0	4805623808	11	4103
2026-01-11 15:19:31.68	336.82	10.66	-26.0	-27.1	14.7	0.00e+00	0	42	0	4812963840	11	4107
2026-01-11 15:19:32.69	336.86	10.58	-25.9	-26.6	14.6	0.00e+00	0	42	0	4820303872	12	3869
2026-01-11 15:19:33.70	336.91	10.49	-26.0	-26.7	14.6	0.00e+00	0	42	0	4827643904	12	3888
2026-01-11 15:19:34.69	336.95	10.41	-26.2	-27.1	14.4	0.00e+00	0	42	0	4834983936	12	3988
2026-01-11 15:19:35.70	336.99	10.32	-26.0	-26.7	14.6	0.00e+00	0	43	0	4841275392	12	3897
2026-01-11 15:19:36.70	337.04	10.23	-26.2	-27.3	14.2	2.20e-06	0	42	0	4848615424	12	4042
2026-01-11 15:19:37.71	337.08	10.15	-26.3	-27.4	14.1	3.40e-06	0	43	0	4855955456	12	4077
2026-01-11 15:19:38.71	337.12	10.06	-26.3	-27.4	14.1	3.40e-06	0	43	0	4863295488	12	4070
2026-01-11 15:19:39.71	337.16	9.98	-26.4	-27.5	14.1	2.20e-06	0	42	0	4870635520	12	4112
2026-01-11 15:19:40.72	337.21	9.90	-26.4	-27.6	14.0	2.20e-06	0	42	0	4877975552	12	4129
2026-01-11 15:19:41.72	337.25	9.81	-26.6	-27.6	13.7	2.20e-06	0	42	0	4885315584	13	4036
2026-01-11 15:19:42.72	337.29	9.73	-26.5	-27.4	13.8	9.10e-06	0	43	0	4892655616	13	3972
2026-01-11 15:19:43.72	337.33	9.65	-26.9	-28.2	13.4	1.14e-05	0	43	0	4898947072	13	4188
2026-01-11 15:19:44.73	337.38	9.56	-26.7	-27.7	13.6	1.02e-05	0	42	0	4907335680	13	4048
2026-01-11 15:19:45.74	337.42	9.48	-26.8	-27.9	13.5	9.10e-06	0	42	0	4914675712	13	4095
2026-01-11 15:19:46.74	337.46	9.40	-26.7	-27.8	13.6	6.80e-06	0	42	0	4920967168	13	4073
2026-01-11 15:19:47.75	337.50	9.31	-26.6	-27.6	13.7	1.14e-05	0	42	0	4928307200	13	4023
2026-01-11 15:19:48.76	337.54	9.23	-26.9	-28.3	13.3	1.02e-05	0	42	0	4935647232	13	4227
2026-01-11 15:19:49.76	337.58	9.15	-26.8	-27.9	13.5	1.48e-05	0	43	0	4942987264	13	4120
2026-01-11 15:19:50.76	337.62	9.07	-26.7	-27.9	13.5	1.14e-05	0	42	0	4950327296	13	4106
