passes_logs/2026/01/11/R2M6_AANII_01/R2M6_AANII_01__20260111_083417_NOAA_21_JPSS-2_rec.log

#Pass ID: 20260111_083417_NOAA 21 (JPSS-2)
#Satellite: NOAA 21 (JPSS-2)
#Configuration: NOAA 21
#almurnet v.1.7.20240730
#Start time: 2026-01-11 08:34:17

#Version: 2.2.20231116
#Station: R2M6_AANII_01
#Location: 30.233357 lon 59.946436 lat
#TLE: 1 54234U 22150A   26009.79679979  .00000100  00000+0  68070-4 0  9993
#TLE: 2 54234  98.7494 310.7596 0000833 322.2782  37.8335 14.19533646164071

#Time	Az	El	Level	Level2	SNR	BER	BlckErr	Temp	State	Recorded	gain1	gain2
2026-01-11 08:34:17.79	106.18	6.99	-30.8	-35.4	4.5	1.42e+00	0	39	0	0	23	6085
2026-01-11 08:34:18.80	106.10	7.05	-30.9	-36.2	4.5	1.42e+00	0	39	104	0	22	6644
2026-01-11 08:34:19.81	106.01	7.12	-30.7	-34.6	8.3	5.81e-02	0	39	0	0	22	5645
2026-01-11 08:34:20.81	105.93	7.19	-30.9	-35.5	7.6	8.69e-02	0	39	0	3145728	22	6078
2026-01-11 08:34:21.82	105.84	7.25	-30.7	-34.7	8.2	6.24e-02	0	39	0	6291456	22	5710
2026-01-11 08:34:22.82	105.76	7.32	-30.7	-34.6	8.3	4.83e-02	0	39	0	9437184	22	5645
2026-01-11 08:34:23.83	105.67	7.39	-30.6	-34.4	8.4	4.85e-02	0	39	0	12582912	22	5559
2026-01-11 08:34:24.84	105.58	7.46	-30.8	-34.9	8.1	5.29e-02	0	40	0	15728640	22	5796
2026-01-11 08:34:25.85	105.50	7.52	-30.7	-34.5	8.5	4.72e-02	0	40	0	18874368	22	5578
2026-01-11 08:34:26.85	105.41	7.59	-30.3	-33.3	9.3	2.30e-02	0	40	0	22020096	22	5092
2026-01-11 08:34:27.86	105.32	7.66	-29.8	-32.3	10.3	6.88e-03	0	40	0	25165824	21	4800
2026-01-11 08:34:28.87	105.23	7.73	-29.5	-32.1	10.8	3.03e-03	0	40	0	28311552	20	4846
2026-01-11 08:34:29.88	105.14	7.80	-29.3	-31.8	11.4	1.34e-03	0	40	0	31457280	19	4829
2026-01-11 08:34:30.88	105.05	7.86	-29.1	-31.2	11.9	5.42e-04	0	40	0	34603008	19	4616
2026-01-11 08:34:31.88	104.96	7.93	-28.7	-30.9	12.4	1.71e-04	0	40	0	37748736	18	4610
2026-01-11 08:34:32.88	104.88	8.00	-28.7	-30.9	12.5	1.18e-04	0	40	0	40894464	18	4608
2026-01-11 08:34:33.89	104.78	8.07	-28.6	-30.4	12.8	7.09e-05	0	40	0	44040192	18	4458
2026-01-11 08:34:34.90	104.69	8.14	-28.7	-30.8	12.5	9.99e-05	0	40	0	47185920	18	4587
2026-01-11 08:34:35.91	104.60	8.21	-28.5	-30.3	12.8	7.09e-05	0	40	0	50331648	18	4424
2026-01-11 08:34:36.91	104.51	8.27	-28.5	-30.3	12.8	6.48e-05	0	40	0	53477376	18	4437
2026-01-11 08:34:37.92	104.42	8.34	-28.4	-30.1	12.9	4.04e-05	0	40	0	56623104	18	4356
2026-01-11 08:34:38.93	104.32	8.41	-28.3	-30.2	13.2	2.21e-05	0	40	0	59768832	17	4505
2026-01-11 08:34:39.94	104.23	8.48	-28.4	-30.6	12.9	4.95e-05	0	40	0	62914560	17	4632
2026-01-11 08:34:40.95	104.14	8.55	-28.4	-30.5	13.0	4.80e-05	0	40	0	66060288	17	4578
2026-01-11 08:34:41.95	104.04	8.62	-28.2	-30.1	13.3	2.28e-05	0	40	0	69206016	17	4453
2026-01-11 08:34:42.96	103.95	8.69	-28.3	-30.3	13.2	2.59e-05	0	40	0	72351744	17	4526
2026-01-11 08:34:43.97	103.85	8.76	-28.3	-30.2	13.2	2.13e-05	0	40	0	75497472	17	4489
2026-01-11 08:34:44.98	103.76	8.83	-28.3	-30.3	13.1	2.36e-05	0	40	0	78643200	17	4536
2026-01-11 08:34:45.98	103.66	8.90	-28.1	-29.9	13.4	1.67e-05	0	40	0	81788928	17	4392
2026-01-11 08:34:46.98	103.56	8.97	-28.4	-30.5	13.0	3.58e-05	0	40	0	84934656	17	4601
2026-01-11 08:34:47.99	103.47	9.04	-28.2	-29.9	13.4	1.22e-05	0	40	0	88080384	17	4401
2026-01-11 08:34:49.00	103.37	9.11	-28.1	-29.9	13.4	9.90e-06	0	40	0	91226112	17	4389
2026-01-11 08:34:50.01	103.27	9.18	-28.2	-29.9	13.4	1.06e-05	0	40	0	94371840	17	4405
2026-01-11 08:34:51.01	103.17	9.25	-28.5	-30.8	12.9	2.67e-05	0	40	0	97517568	17	4668
2026-01-11 08:34:52.01	103.07	9.32	-28.5	-30.7	12.9	4.57e-05	0	40	0	100663296	17	4656
2026-01-11 08:34:53.02	102.97	9.39	-28.4	-30.5	13.0	2.82e-05	0	40	0	103809024	17	4594
2026-01-11 08:34:54.03	102.87	9.46	-28.5	-30.8	12.9	5.18e-05	0	40	0	106954752	17	4691
2026-01-11 08:34:55.03	102.77	9.53	-28.5	-30.7	12.9	2.74e-05	0	40	0	110100480	17	4640
2026-01-11 08:34:56.04	102.67	9.60	-28.3	-30.4	13.1	2.28e-05	0	40	0	113246208	17	4538
2026-01-11 08:34:57.04	102.57	9.67	-28.5	-30.7	12.9	3.58e-05	0	40	0	116391936	17	4648
2026-01-11 08:34:58.05	102.47	9.75	-28.3	-30.2	13.2	2.21e-05	0	40	0	119537664	17	4498
2026-01-11 08:34:59.06	102.37	9.82	-28.6	-31.1	12.7	4.80e-05	0	40	0	122683392	17	4775
2026-01-11 08:35:00.07	102.26	9.89	-28.3	-30.2	13.2	2.67e-05	0	40	0	125829120	17	4504
2026-01-11 08:35:01.07	102.16	9.96	-27.9	-29.4	13.8	6.80e-06	0	41	0	128974848	17	4247
2026-01-11 08:35:02.08	102.06	10.03	-27.9	-29.2	13.9	5.30e-06	0	40	0	132120576	17	4183
2026-01-11 08:35:03.08	101.95	10.10	-27.7	-29.3	14.2	1.50e-06	0	40	0	135266304	16	4338
2026-01-11 08:35:04.09	101.85	10.18	-27.7	-29.4	14.1	7.00e-07	0	41	0	138412032	16	4346
2026-01-11 08:35:05.10	101.74	10.25	-27.9	-29.7	13.9	3.80e-06	0	41	0	141557760	16	4443
2026-01-11 08:35:06.11	101.63	10.32	-27.8	-29.4	14.1	3.80e-06	0	41	0	144703488	16	4348
2026-01-11 08:35:07.11	101.53	10.39	-27.6	-29.1	14.3	1.50e-06	0	41	0	147849216	16	4277
2026-01-11 08:35:08.12	101.42	10.46	-27.5	-28.8	14.5	7.00e-07	0	41	0	150994944	16	4194
2026-01-11 08:35:09.13	101.31	10.54	-27.7	-29.2	14.3	7.00e-07	0	41	0	154140672	16	4283
2026-01-11 08:35:10.14	101.20	10.61	-27.6	-29.1	14.3	7.00e-07	0	41	0	157286400	16	4252
2026-01-11 08:35:11.14	101.09	10.68	-27.7	-29.4	14.2	1.50e-06	0	41	0	160432128	16	4344
2026-01-11 08:35:12.15	100.98	10.76	-27.7	-29.2	14.3	5.30e-06	0	41	0	163577856	16	4284
2026-01-11 08:35:13.16	100.87	10.83	-27.7	-29.4	14.2	1.50e-06	0	41	0	166723584	16	4347
2026-01-11 08:35:14.17	100.76	10.90	-27.7	-29.2	14.3	1.50e-06	0	41	0	169869312	16	4302
2026-01-11 08:35:15.18	100.65	10.98	-27.7	-29.2	14.2	7.60e-06	0	41	0	173015040	16	4302
2026-01-11 08:35:16.19	100.54	11.05	-27.7	-29.2	14.2	0.00e+00	0	41	0	176160768	16	4304
2026-01-11 08:35:17.19	100.43	11.12	-27.7	-29.2	14.2	7.00e-07	0	41	0	179306496	16	4307
2026-01-11 08:35:18.20	100.31	11.20	-27.8	-29.5	14.1	6.10e-06	0	41	0	182452224	16	4387
2026-01-11 08:35:19.20	100.20	11.27	-27.9	-29.7	14.0	2.20e-06	0	41	0	185597952	16	4428
2026-01-11 08:35:20.21	100.09	11.34	-27.7	-29.3	14.2	1.50e-06	0	41	0	188743680	16	4333
2026-01-11 08:35:21.22	99.97	11.42	-27.8	-29.6	14.0	3.80e-06	0	41	0	191889408	16	4397
2026-01-11 08:35:22.22	99.86	11.49	-27.8	-29.6	14.1	7.00e-07	0	41	0	195035136	16	4404
2026-01-11 08:35:23.22	99.74	11.56	-27.8	-29.4	14.2	1.50e-06	0	41	0	198180864	16	4347
2026-01-11 08:35:24.23	99.63	11.64	-27.9	-29.8	13.9	7.00e-07	0	41	0	201326592	16	4474
2026-01-11 08:35:25.23	99.51	11.71	-27.7	-29.3	14.2	1.50e-06	0	41	0	204472320	16	4309
2026-01-11 08:35:26.24	99.39	11.79	-27.6	-29.0	14.4	7.00e-07	0	41	0	207618048	16	4234
2026-01-11 08:35:27.24	99.27	11.86	-27.6	-29.0	14.4	0.00e+00	0	41	0	210763776	16	4230
2026-01-11 08:35:28.25	99.15	11.94	-27.6	-29.1	14.4	3.00e-06	0	41	0	213909504	16	4258
2026-01-11 08:35:29.26	99.03	12.01	-27.7	-29.1	14.4	0.00e+00	0	41	0	217055232	16	4276
2026-01-11 08:35:30.27	98.91	12.09	-27.7	-29.2	14.3	7.00e-07	0	41	0	220200960	16	4288
2026-01-11 08:35:31.27	98.79	12.16	-27.5	-28.7	14.7	0.00e+00	0	41	0	223346688	16	4152
2026-01-11 08:35:32.28	98.67	12.24	-27.5	-28.8	14.6	7.00e-07	0	41	0	226492416	16	4178
2026-01-11 08:35:33.29	98.55	12.31	-27.6	-29.0	14.5	0.00e+00	0	41	0	229638144	16	4227
2026-01-11 08:35:34.30	98.43	12.39	-27.5	-28.8	14.6	0.00e+00	0	41	0	232783872	16	4176
2026-01-11 08:35:35.31	98.30	12.46	-27.5	-28.8	14.6	7.00e-07	0	41	0	235929600	16	4174
2026-01-11 08:35:36.31	98.18	12.54	-27.5	-28.8	14.6	2.20e-06	0	41	0	239075328	16	4183
2026-01-11 08:35:37.31	98.06	12.61	-27.5	-28.7	14.6	0.00e+00	0	41	0	242221056	16	4154
2026-01-11 08:35:38.32	97.93	12.69	-27.4	-28.6	14.8	0.00e+00	0	41	0	245366784	16	4101
2026-01-11 08:35:39.33	97.80	12.76	-27.4	-28.5	14.9	0.00e+00	0	41	0	248512512	16	4093
2026-01-11 08:35:40.34	97.68	12.84	-27.5	-28.6	14.8	7.00e-07	0	41	0	251658240	16	4124
2026-01-11 08:35:41.35	97.55	12.92	-27.4	-28.6	14.8	0.00e+00	0	41	0	254803968	16	4122
2026-01-11 08:35:42.35	97.42	12.99	-27.6	-29.0	14.5	0.00e+00	0	41	0	257949696	16	4228
2026-01-11 08:35:43.36	97.29	13.07	-27.7	-29.2	14.4	1.50e-06	0	41	0	261095424	16	4279
2026-01-11 08:35:44.37	97.16	13.14	-27.9	-29.8	14.1	3.80e-06	0	41	0	264241152	16	4449
2026-01-11 08:35:45.37	97.04	13.22	-27.7	-29.2	14.4	7.00e-07	0	41	0	267386880	16	4294
2026-01-11 08:35:46.38	96.90	13.30	-27.7	-29.2	14.5	0.00e+00	0	41	0	270532608	16	4284
2026-01-11 08:35:47.39	96.77	13.37	-27.9	-29.7	14.2	7.00e-07	0	41	0	273678336	16	4414
2026-01-11 08:35:48.39	96.64	13.45	-27.9	-29.7	14.2	3.00e-06	0	41	0	276824064	16	4419
2026-01-11 08:35:49.39	96.51	13.53	-27.6	-29.0	14.6	7.00e-07	0	41	0	279969792	16	4220
2026-01-11 08:35:50.40	96.38	13.60	-27.7	-29.3	14.4	7.00e-07	0	41	0	283115520	16	4307
2026-01-11 08:35:51.40	96.24	13.68	-27.4	-28.6	14.8	7.00e-07	0	41	0	286261248	16	4104
2026-01-11 08:35:52.41	96.11	13.76	-27.4	-28.4	15.0	0.00e+00	0	41	0	289406976	16	4067
2026-01-11 08:35:53.42	95.97	13.83	-27.4	-28.6	14.9	0.00e+00	0	41	0	292552704	16	4103
2026-01-11 08:35:54.42	95.84	13.91	-27.4	-28.5	14.9	0.00e+00	0	41	0	295698432	16	4095
2026-01-11 08:35:55.43	95.70	13.99	-27.5	-28.8	14.8	0.00e+00	0	41	0	298844160	16	4174
2026-01-11 08:35:56.44	95.56	14.07	-27.6	-28.8	14.8	7.00e-07	0	41	0	301989888	16	4171
2026-01-11 08:35:57.44	95.42	14.14	-27.4	-28.5	15.0	0.00e+00	0	41	0	305135616	16	4071
2026-01-11 08:35:58.44	95.29	14.22	-27.5	-28.7	14.9	0.00e+00	0	41	0	308281344	16	4133
2026-01-11 08:35:59.43	95.15	14.30	-27.5	-28.6	14.9	7.00e-07	0	41	0	310378496	16	4116
2026-01-11 08:36:00.44	95.01	14.37	-27.4	-28.5	15.0	7.00e-07	0	41	0	313524224	16	4068
2026-01-11 08:36:01.44	94.87	14.45	-27.5	-28.8	14.8	7.00e-07	0	41	0	316669952	16	4152
2026-01-11 08:36:02.45	94.72	14.53	-27.6	-29.0	14.7	7.00e-07	0	41	0	320864256	16	4221
2026-01-11 08:36:03.46	94.58	14.61	-27.5	-28.7	14.9	0.00e+00	0	41	0	324009984	16	4145
2026-01-11 08:36:04.47	94.44	14.68	-27.4	-28.6	15.0	0.00e+00	0	41	0	327155712	16	4106
2026-01-11 08:36:05.48	94.29	14.76	-27.6	-29.0	14.8	0.00e+00	0	41	0	330301440	16	4209
2026-01-11 08:36:06.47	94.15	14.84	-27.6	-28.9	14.8	0.00e+00	0	41	0	332398592	16	4195
2026-01-11 08:36:07.48	94.00	14.92	-27.5	-28.6	15.0	1.50e-06	0	41	0	335544320	16	4106
2026-01-11 08:36:08.48	93.86	14.99	-27.4	-28.6	15.0	0.00e+00	0	41	0	338690048	16	4096
2026-01-11 08:36:09.49	93.71	15.07	-27.5	-28.7	15.0	0.00e+00	0	41	0	341835776	16	4122
2026-01-11 08:36:10.50	93.56	15.15	-27.5	-28.7	15.0	0.00e+00	0	41	0	346030080	16	4126
2026-01-11 08:36:11.50	93.41	15.23	-27.6	-28.9	14.8	7.00e-07	0	41	0	349175808	16	4198
2026-01-11 08:36:12.51	93.26	15.31	-27.7	-29.2	14.7	0.00e+00	0	41	0	352321536	16	4273
2026-01-11 08:36:13.51	93.11	15.39	-27.8	-29.3	14.6	7.00e-07	0	41	0	355467264	16	4310
2026-01-11 08:36:14.52	92.96	15.46	-27.8	-29.4	14.6	1.50e-06	0	41	0	357564416	16	4320
2026-01-11 08:36:15.52	92.81	15.54	-27.8	-29.4	14.6	0.00e+00	0	41	0	360710144	16	4311
2026-01-11 08:36:16.53	92.66	15.62	-27.8	-29.4	14.6	7.00e-07	0	41	0	363855872	16	4330
2026-01-11 08:36:17.53	92.50	15.70	-27.7	-29.2	14.7	0.00e+00	0	41	0	367001600	16	4254
2026-01-11 08:36:18.54	92.35	15.78	-27.9	-29.6	14.5	7.00e-07	0	41	0	370147328	16	4375
2026-01-11 08:36:19.55	92.19	15.86	-28.1	-30.0	14.3	7.00e-07	0	41	0	374341632	16	4490
2026-01-11 08:36:20.56	92.04	15.94	-28.0	-29.9	14.3	7.00e-07	0	41	0	377487360	16	4480
2026-01-11 08:36:21.56	91.88	16.01	-28.0	-30.0	14.3	1.50e-06	0	41	0	379584512	16	4485
2026-01-11 08:36:22.57	91.72	16.09	-27.9	-29.6	14.5	0.00e+00	0	41	0	382730240	16	4397
2026-01-11 08:36:23.57	91.56	16.17	-27.9	-29.5	14.5	0.00e+00	0	41	0	385875968	16	4360
2026-01-11 08:36:24.58	91.40	16.25	-27.9	-29.6	14.6	7.00e-07	0	42	0	389021696	16	4365
2026-01-11 08:36:25.59	91.24	16.33	-27.9	-29.6	14.5	7.00e-07	0	42	0	392167424	16	4377
2026-01-11 08:36:26.60	91.08	16.41	-27.9	-29.6	14.6	1.50e-06	0	41	0	396361728	16	4373
2026-01-11 08:36:27.61	90.92	16.49	-27.9	-29.6	14.5	0.00e+00	0	41	0	399507456	16	4373
2026-01-11 08:36:28.62	90.75	16.57	-27.8	-29.4	14.7	7.00e-07	0	41	0	402653184	16	4316
2026-01-11 08:36:29.62	90.59	16.65	-27.9	-29.5	14.6	0.00e+00	0	41	0	404750336	16	4348
2026-01-11 08:36:30.63	90.43	16.72	-27.8	-29.4	14.6	0.00e+00	0	41	0	407896064	16	4324
2026-01-11 08:36:31.63	90.26	16.80	-27.8	-29.3	14.7	0.00e+00	0	42	0	411041792	16	4305
2026-01-11 08:36:32.64	90.09	16.88	-27.8	-29.2	14.7	7.00e-07	0	41	0	414187520	16	4278
2026-01-11 08:36:33.65	89.93	16.96	-27.8	-29.4	14.7	7.00e-07	0	41	0	418381824	16	4313
2026-01-11 08:36:34.65	89.76	17.04	-27.7	-29.1	14.9	0.00e+00	0	41	0	421527552	16	4232
2026-01-11 08:36:35.67	89.59	17.12	-27.7	-29.2	14.8	0.00e+00	0	41	0	424673280	16	4249
2026-01-11 08:36:36.67	89.42	17.20	-27.7	-29.2	14.8	0.00e+00	0	42	0	427819008	16	4251
2026-01-11 08:36:37.67	89.25	17.28	-27.5	-28.6	15.1	0.00e+00	0	42	0	429916160	16	4102
2026-01-11 08:36:38.68	89.08	17.36	-27.4	-28.5	15.2	0.00e+00	0	42	0	433061888	16	4077
2026-01-11 08:36:39.69	88.90	17.43	-27.5	-28.5	15.2	0.00e+00	0	42	0	436207616	16	4081
2026-01-11 08:36:40.69	88.73	17.51	-27.6	-29.0	15.0	0.00e+00	0	42	0	439353344	16	4205
2026-01-11 08:36:41.70	88.56	17.59	-27.7	-29.2	14.8	0.00e+00	0	41	0	443547648	16	4265
2026-01-11 08:36:42.70	88.38	17.67	-27.7	-29.2	14.8	0.00e+00	0	42	0	446693376	16	4251
2026-01-11 08:36:43.70	88.21	17.75	-27.4	-28.4	15.2	0.00e+00	0	42	0	449839104	16	4050
2026-01-11 08:36:44.71	88.03	17.83	-27.4	-28.4	15.3	0.00e+00	0	42	0	451936256	16	4043
2026-01-11 08:36:45.72	87.85	17.91	-27.4	-28.4	15.3	0.00e+00	0	42	0	455081984	16	4046
2026-01-11 08:36:46.72	87.67	17.98	-27.4	-28.4	15.2	0.00e+00	0	41	0	458227712	16	4039
2026-01-11 08:36:47.72	87.49	18.06	-27.6	-28.9	15.0	0.00e+00	0	42	0	461373440	16	4184
2026-01-11 08:36:48.73	87.31	18.14	-27.5	-28.7	15.1	7.00e-07	0	41	0	464519168	16	4117
2026-01-11 08:36:49.74	87.13	18.22	-27.1	-28.3	15.4	0.00e+00	0	42	0	467664896	15	4129
2026-01-11 08:36:50.74	86.94	18.30	-27.0	-28.0	15.6	0.00e+00	0	41	0	471859200	15	4048
2026-01-11 08:36:51.75	86.76	18.38	-27.0	-28.0	15.6	0.00e+00	0	42	0	475004928	15	4044
2026-01-11 08:36:52.76	86.57	18.46	-27.1	-28.2	15.5	0.00e+00	0	42	0	477102080	15	4095
2026-01-11 08:36:53.76	86.39	18.53	-27.1	-28.3	15.4	0.00e+00	0	41	0	480247808	15	4133
2026-01-11 08:36:54.77	86.20	18.61	-27.1	-28.4	15.4	0.00e+00	0	42	0	483393536	15	4149
2026-01-11 08:36:55.78	86.01	18.69	-27.2	-28.5	15.4	0.00e+00	0	41	0	486539264	15	4180
2026-01-11 08:36:56.78	85.83	18.77	-27.3	-28.7	15.3	0.00e+00	0	41	0	489684992	15	4236
2026-01-11 08:36:57.79	85.64	18.85	-27.2	-28.5	15.3	0.00e+00	0	42	0	493879296	15	4193
2026-01-11 08:36:58.80	85.44	18.92	-27.4	-28.9	15.1	0.00e+00	0	42	0	497025024	15	4297
2026-01-11 08:36:59.80	85.25	19.00	-27.3	-28.8	15.2	0.00e+00	0	42	0	499122176	15	4258
2026-01-11 08:37:00.81	85.06	19.08	-27.3	-28.7	15.2	0.00e+00	0	42	0	502267904	15	4245
2026-01-11 08:37:01.82	84.87	19.16	-27.4	-28.9	15.1	0.00e+00	0	42	0	505413632	15	4299
2026-01-11 08:37:02.81	84.67	19.23	-27.2	-28.5	15.3	0.00e+00	0	42	0	508559360	15	4178
2026-01-11 08:37:03.82	84.48	19.31	-27.0	-28.1	15.6	0.00e+00	0	42	0	511705088	15	4084
2026-01-11 08:37:04.83	84.28	19.39	-27.0	-28.0	15.7	0.00e+00	0	42	0	514850816	15	4036
2026-01-11 08:37:05.84	84.08	19.47	-27.0	-28.1	15.6	0.00e+00	0	42	0	517996544	15	4080
2026-01-11 08:37:06.84	83.88	19.54	-27.0	-28.1	15.6	0.00e+00	0	42	0	521142272	15	4070
2026-01-11 08:37:07.84	83.69	19.62	-26.9	-27.7	15.8	0.00e+00	0	42	0	524288000	15	3978
2026-01-11 08:37:08.85	83.48	19.70	-26.9	-27.8	15.8	0.00e+00	0	42	0	527433728	15	4005
2026-01-11 08:37:09.85	83.28	19.77	-26.8	-27.7	15.9	0.00e+00	0	42	0	530579456	15	3961
2026-01-11 08:37:10.86	83.08	19.85	-26.8	-28.1	15.9	0.00e+00	0	42	0	533725184	14	4185
2026-01-11 08:37:11.87	82.88	19.93	-26.7	-27.8	16.1	0.00e+00	0	42	0	536870912	14	4095
2026-01-11 08:37:12.88	82.67	20.00	-26.6	-27.7	16.1	0.00e+00	0	42	0	540016640	14	4078
2026-01-11 08:37:13.88	82.47	20.08	-26.7	-27.9	16.0	0.00e+00	0	42	0	543162368	14	4114
2026-01-11 08:37:14.89	82.26	20.16	-26.8	-28.0	16.0	0.00e+00	0	42	0	546308096	14	4148
2026-01-11 08:37:15.90	82.05	20.23	-26.7	-27.8	16.1	0.00e+00	0	42	0	549453824	14	4100
2026-01-11 08:37:16.91	81.84	20.31	-26.7	-27.8	16.1	1.50e-06	0	42	0	552599552	14	4085
2026-01-11 08:37:17.91	81.63	20.38	-26.7	-27.9	16.0	0.00e+00	0	42	0	555745280	14	4130
2026-01-11 08:37:18.91	81.42	20.46	-26.7	-27.8	16.1	0.00e+00	0	42	0	558891008	14	4085
2026-01-11 08:37:19.91	81.21	20.53	-26.6	-27.6	16.2	0.00e+00	0	42	0	562036736	14	4053
2026-01-11 08:37:20.92	81.00	20.61	-26.8	-28.0	16.0	0.00e+00	0	42	0	565182464	14	4155
2026-01-11 08:37:21.92	80.78	20.68	-26.8	-28.2	15.9	0.00e+00	0	42	0	568328192	14	4198
2026-01-11 08:37:22.93	80.57	20.76	-26.8	-28.1	15.9	3.80e-06	0	42	0	571473920	14	4173
2026-01-11 08:37:23.93	80.35	20.83	-26.8	-28.0	16.0	0.00e+00	0	42	0	574619648	14	4161
2026-01-11 08:37:24.94	80.13	20.90	-26.8	-28.2	15.9	0.00e+00	0	42	0	577765376	14	4199
2026-01-11 08:37:25.94	79.92	20.98	-26.8	-28.1	16.0	2.20e-06	0	42	0	580911104	14	4171
2026-01-11 08:37:26.95	79.70	21.05	-26.8	-28.0	16.0	0.00e+00	0	42	0	584056832	14	4139
2026-01-11 08:37:27.96	79.48	21.12	-26.8	-28.2	15.9	0.00e+00	0	42	0	587202560	14	4194
2026-01-11 08:37:28.97	79.25	21.20	-26.7	-27.8	16.1	3.80e-06	0	42	0	590348288	14	4081
2026-01-11 08:37:29.97	79.03	21.27	-26.6	-27.7	16.2	0.00e+00	0	42	0	593494016	14	4066
2026-01-11 08:37:30.97	78.81	21.34	-26.7	-27.7	16.2	0.00e+00	0	42	0	596639744	14	4078
2026-01-11 08:37:31.99	78.58	21.42	-26.8	-28.2	15.9	5.30e-06	0	42	0	599785472	14	4191
2026-01-11 08:37:32.99	78.36	21.49	-26.8	-28.0	16.0	0.00e+00	0	42	0	602931200	14	4144
2026-01-11 08:37:33.99	78.13	21.56	-27.0	-28.5	15.8	0.00e+00	0	42	0	606076928	14	4273
2026-01-11 08:37:35.00	77.90	21.63	-27.0	-28.5	15.8	0.00e+00	0	42	0	609222656	14	4276
2026-01-11 08:37:36.01	77.67	21.70	-26.9	-28.2	15.9	0.00e+00	0	42	0	612368384	14	4200
2026-01-11 08:37:37.02	77.44	21.77	-26.8	-28.0	16.0	0.00e+00	0	42	0	615514112	14	4160
2026-01-11 08:37:38.02	77.21	21.84	-26.9	-28.4	15.9	3.00e-06	0	42	0	618659840	14	4240
2026-01-11 08:37:39.03	76.98	21.91	-27.0	-28.6	15.7	0.00e+00	0	42	0	621805568	14	4310
2026-01-11 08:37:40.04	76.75	21.98	-27.1	-28.7	15.7	0.00e+00	0	42	0	624951296	14	4341
2026-01-11 08:37:41.04	76.51	22.05	-27.4	-29.3	15.3	0.00e+00	0	42	0	628097024	14	4521
2026-01-11 08:37:42.05	76.28	22.12	-27.1	-28.8	15.6	0.00e+00	0	42	0	631242752	14	4360
2026-01-11 08:37:43.05	76.04	22.19	-26.9	-28.3	15.9	0.00e+00	0	42	0	634388480	14	4223
2026-01-11 08:37:44.06	75.80	22.26	-26.8	-28.1	16.0	0.00e+00	0	42	0	637534208	14	4174
2026-01-11 08:37:45.06	75.57	22.33	-27.0	-28.5	15.8	0.00e+00	0	42	0	640679936	14	4265
2026-01-11 08:37:46.07	75.33	22.40	-26.9	-28.3	15.9	0.00e+00	0	42	0	643825664	14	4230
2026-01-11 08:37:47.08	75.09	22.47	-26.9	-28.3	15.9	0.00e+00	0	42	0	646971392	14	4240
2026-01-11 08:37:48.08	74.85	22.53	-26.8	-28.2	16.0	0.00e+00	0	42	0	650117120	14	4186
2026-01-11 08:37:49.09	74.60	22.60	-26.9	-28.3	15.9	0.00e+00	0	42	0	653262848	14	4227
2026-01-11 08:37:50.09	74.36	22.67	-26.8	-28.0	16.1	0.00e+00	0	42	0	656408576	14	4143
2026-01-11 08:37:51.10	74.11	22.73	-26.7	-27.9	16.1	0.00e+00	0	42	0	659554304	14	4114
2026-01-11 08:37:52.11	73.87	22.80	-26.7	-27.9	16.1	0.00e+00	0	42	0	662700032	14	4117
2026-01-11 08:37:53.11	73.62	22.86	-26.6	-27.6	16.3	0.00e+00	0	42	0	665845760	14	4049
2026-01-11 08:37:54.12	73.37	22.93	-26.6	-27.6	16.3	0.00e+00	0	42	0	668991488	14	4047
2026-01-11 08:37:55.13	73.12	22.99	-26.7	-27.9	16.1	0.00e+00	0	42	0	672137216	14	4106
2026-01-11 08:37:56.14	72.87	23.06	-27.0	-28.5	15.8	0.00e+00	0	42	0	675282944	14	4274
2026-01-11 08:37:57.14	72.62	23.12	-26.8	-28.0	16.1	0.00e+00	0	42	0	678428672	14	4144
2026-01-11 08:37:58.15	72.37	23.18	-26.7	-27.7	16.2	0.00e+00	0	42	0	681574400	14	4067
2026-01-11 08:37:59.16	72.12	23.25	-26.7	-27.7	16.2	0.00e+00	0	42	0	684720128	14	4067
2026-01-11 08:38:00.16	71.86	23.31	-26.6	-27.5	16.4	0.00e+00	0	42	0	687865856	14	4014
2026-01-11 08:38:01.18	71.61	23.37	-26.5	-27.4	16.4	0.00e+00	0	42	0	691011584	14	3991
2026-01-11 08:38:02.18	71.35	23.43	-26.6	-27.5	16.4	0.00e+00	0	42	0	694157312	14	4019
2026-01-11 08:38:03.19	71.09	23.49	-26.6	-27.6	16.3	0.00e+00	0	42	0	697303040	14	4038
2026-01-11 08:38:04.20	70.83	23.55	-26.8	-28.0	16.1	0.00e+00	0	42	0	700448768	14	4149
2026-01-11 08:38:05.21	70.57	23.61	-26.9	-28.3	15.9	0.00e+00	0	42	0	703594496	14	4224
2026-01-11 08:38:06.22	70.31	23.67	-27.0	-28.6	15.8	0.00e+00	0	42	0	706740224	14	4301
2026-01-11 08:38:07.22	70.05	23.73	-27.2	-28.9	15.6	0.00e+00	0	42	0	709885952	14	4395
2026-01-11 08:38:08.22	69.79	23.79	-27.2	-28.9	15.6	0.00e+00	0	42	0	713031680	14	4380
2026-01-11 08:38:09.23	69.53	23.85	-27.1	-28.7	15.7	0.00e+00	0	42	0	716177408	14	4323
2026-01-11 08:38:10.24	69.26	23.91	-27.1	-28.7	15.8	0.00e+00	0	42	0	719323136	14	4322
2026-01-11 08:38:11.25	69.00	23.96	-27.1	-28.7	15.7	0.00e+00	0	42	0	722468864	14	4347
2026-01-11 08:38:12.26	68.73	24.02	-26.8	-28.1	16.1	0.00e+00	0	42	0	725614592	14	4167
2026-01-11 08:38:13.27	68.46	24.08	-27.0	-28.4	15.9	0.00e+00	0	42	0	728760320	14	4264
2026-01-11 08:38:14.28	68.20	24.13	-26.7	-27.8	16.2	0.00e+00	0	42	0	731906048	14	4099
2026-01-11 08:38:15.28	67.93	24.19	-26.7	-27.7	16.3	0.00e+00	0	42	0	735051776	14	4063
2026-01-11 08:38:16.29	67.66	24.24	-26.7	-27.8	16.3	0.00e+00	0	42	0	738197504	14	4084
2026-01-11 08:38:17.30	67.39	24.29	-26.7	-27.8	16.3	0.00e+00	0	42	0	741343232	14	4088
2026-01-11 08:38:18.31	67.11	24.35	-26.8	-28.1	16.1	0.00e+00	0	42	0	744488960	14	4162
2026-01-11 08:38:19.31	66.84	24.40	-26.8	-28.1	16.0	0.00e+00	0	42	0	747634688	14	4173
2026-01-11 08:38:20.32	66.57	24.45	-26.8	-27.9	16.2	0.00e+00	0	42	0	750780416	14	4124
2026-01-11 08:38:21.33	66.29	24.50	-27.0	-28.4	15.9	0.00e+00	0	42	0	753926144	14	4248
2026-01-11 08:38:22.33	66.02	24.55	-27.1	-28.8	15.7	0.00e+00	0	42	0	757071872	14	4357
2026-01-11 08:38:23.34	65.74	24.60	-26.9	-28.2	16.1	0.00e+00	0	42	0	760217600	14	4189
2026-01-11 08:38:24.34	65.47	24.65	-26.8	-28.0	16.1	0.00e+00	0	42	0	763363328	14	4144
2026-01-11 08:38:25.35	65.19	24.70	-26.8	-28.0	16.1	7.00e-07	0	42	0	766509056	14	4142
2026-01-11 08:38:26.35	64.91	24.75	-26.9	-28.3	16.0	0.00e+00	0	42	0	769654784	14	4215
2026-01-11 08:38:27.36	64.63	24.79	-26.9	-28.3	16.0	0.00e+00	0	42	0	772800512	14	4209
2026-01-11 08:38:28.36	64.35	24.84	-26.8	-28.1	16.1	2.20e-06	0	42	0	775946240	14	4157
2026-01-11 08:38:29.37	64.07	24.89	-26.8	-28.1	16.1	0.00e+00	0	42	0	779091968	14	4166
2026-01-11 08:38:30.37	63.79	24.93	-26.8	-28.0	16.1	0.00e+00	0	42	0	782237696	14	4153
2026-01-11 08:38:31.38	63.51	24.98	-26.7	-27.9	16.2	7.00e-07	0	42	0	785383424	14	4108
2026-01-11 08:38:32.39	63.22	25.02	-26.7	-27.9	16.2	0.00e+00	0	42	0	788529152	14	4108
2026-01-11 08:38:33.39	62.94	25.06	-26.6	-27.7	16.3	0.00e+00	0	42	0	791674880	14	4052
2026-01-11 08:38:34.40	62.65	25.11	-26.5	-27.4	16.5	0.00e+00	0	42	0	794820608	14	3981
2026-01-11 08:38:35.40	62.37	25.15	-26.5	-27.3	16.5	0.00e+00	0	42	0	797966336	14	3956
2026-01-11 08:38:36.41	62.08	25.19	-26.6	-27.6	16.4	0.00e+00	0	42	0	801112064	14	4030
2026-01-11 08:38:37.42	61.79	25.23	-26.7	-27.8	16.2	0.00e+00	0	42	0	804257792	14	4096
2026-01-11 08:38:38.41	61.51	25.27	-26.5	-27.4	16.5	0.00e+00	0	42	0	807403520	14	3983
2026-01-11 08:38:39.42	61.22	25.31	-26.4	-27.2	16.6	0.00e+00	0	42	0	810549248	14	3930
2026-01-11 08:38:40.42	60.93	25.35	-26.5	-27.3	16.5	0.00e+00	0	42	0	813694976	14	3952
2026-01-11 08:38:41.42	60.65	25.38	-26.6	-27.5	16.4	0.00e+00	0	42	0	816840704	14	4017
2026-01-11 08:38:42.43	60.35	25.42	-26.6	-27.5	16.4	0.00e+00	0	42	0	819986432	14	4003
2026-01-11 08:38:43.43	60.06	25.45	-26.7	-27.8	16.3	0.00e+00	0	42	0	823132160	14	4086
2026-01-11 08:38:44.44	59.77	25.49	-26.8	-28.1	16.1	0.00e+00	0	42	0	826277888	14	4164
2026-01-11 08:38:45.44	59.48	25.52	-26.9	-28.3	16.0	0.00e+00	0	42	0	829423616	14	4207
2026-01-11 08:38:46.45	59.19	25.56	-26.8	-28.1	16.1	0.00e+00	0	42	0	832569344	14	4157
2026-01-11 08:38:47.46	58.89	25.59	-26.7	-27.8	16.3	0.00e+00	0	42	0	835715072	14	4082
2026-01-11 08:38:48.47	58.60	25.62	-26.7	-27.8	16.3	0.00e+00	0	42	0	838860800	14	4087
2026-01-11 08:38:49.48	58.30	25.65	-26.7	-27.7	16.3	0.00e+00	0	42	0	842006528	14	4056
2026-01-11 08:38:50.49	58.00	25.68	-26.6	-27.5	16.4	0.00e+00	0	42	0	845152256	14	4012
2026-01-11 08:38:51.50	57.71	25.71	-26.6	-27.6	16.4	0.00e+00	0	42	0	848297984	14	4038
2026-01-11 08:38:52.50	57.41	25.74	-26.6	-27.7	16.4	0.00e+00	0	42	0	851443712	14	4055
2026-01-11 08:38:53.51	57.11	25.77	-26.6	-27.6	16.4	0.00e+00	0	42	0	854589440	14	4032
2026-01-11 08:38:54.51	56.82	25.80	-26.6	-27.5	16.5	0.00e+00	0	42	0	857735168	14	4011
2026-01-11 08:38:55.52	56.52	25.82	-26.6	-27.5	16.4	0.00e+00	0	42	0	860880896	14	4018
2026-01-11 08:38:56.52	56.22	25.85	-26.6	-27.5	16.5	0.00e+00	0	42	0	864026624	14	4014
2026-01-11 08:38:57.53	55.92	25.87	-26.7	-27.9	16.2	0.00e+00	0	42	0	867172352	14	4116
2026-01-11 08:38:58.53	55.62	25.90	-26.7	-27.9	16.2	0.00e+00	0	42	0	870318080	14	4117
2026-01-11 08:38:59.54	55.32	25.92	-26.8	-28.0	16.2	0.00e+00	0	42	0	873463808	14	4140
2026-01-11 08:39:00.55	55.02	25.94	-26.7	-27.9	16.2	0.00e+00	0	42	0	876609536	14	4124
2026-01-11 08:39:01.56	54.72	25.96	-26.9	-28.2	16.0	0.00e+00	0	42	0	879755264	14	4197
2026-01-11 08:39:02.57	54.41	25.98	-27.0	-28.5	15.9	0.00e+00	0	42	0	882900992	14	4286
2026-01-11 08:39:03.57	54.11	26.00	-27.0	-28.5	15.9	0.00e+00	0	42	0	886046720	14	4279
2026-01-11 08:39:04.58	53.81	26.02	-26.9	-28.3	16.1	0.00e+00	0	42	0	889192448	14	4211
2026-01-11 08:39:05.58	53.51	26.04	-27.0	-28.5	15.9	0.00e+00	0	42	0	892338176	14	4280
2026-01-11 08:39:06.59	53.21	26.06	-27.0	-28.5	15.9	0.00e+00	0	42	0	895483904	14	4270
2026-01-11 08:39:07.60	52.90	26.07	-26.7	-27.9	16.3	0.00e+00	0	42	0	898629632	14	4115
2026-01-11 08:39:08.59	52.60	26.09	-26.7	-27.7	16.4	0.00e+00	0	42	0	901775360	14	4063
2026-01-11 08:39:09.60	52.30	26.10	-26.7	-27.7	16.3	0.00e+00	0	42	0	904921088	14	4067
2026-01-11 08:39:10.61	51.99	26.12	-26.8	-28.1	16.1	0.00e+00	0	42	0	908066816	14	4170
2026-01-11 08:39:11.61	51.69	26.13	-27.0	-28.4	16.0	0.00e+00	0	42	0	911212544	14	4249
2026-01-11 08:39:12.62	51.39	26.14	-27.2	-28.9	15.7	0.00e+00	0	42	0	914358272	14	4388
2026-01-11 08:39:13.63	51.08	26.15	-27.3	-29.1	15.6	0.00e+00	0	42	0	917504000	14	4448
2026-01-11 08:39:14.64	50.77	26.16	-27.3	-29.3	15.4	0.00e+00	0	42	0	920649728	14	4495
2026-01-11 08:39:15.65	50.47	26.17	-27.3	-29.2	15.5	0.00e+00	0	42	0	923795456	14	4465
2026-01-11 08:39:16.65	50.16	26.18	-27.3	-29.3	15.5	0.00e+00	0	42	0	926941184	14	4493
2026-01-11 08:39:17.66	49.86	26.19	-27.2	-28.5	15.6	0.00e+00	0	42	0	930086912	15	4169
2026-01-11 08:39:18.66	49.55	26.19	-27.0	-27.9	15.9	7.00e-07	0	42	0	933232640	15	4003
2026-01-11 08:39:19.67	49.25	26.20	-26.8	-27.5	16.2	0.00e+00	0	42	0	936378368	15	3917
2026-01-11 08:39:20.67	48.94	26.20	-26.8	-28.1	16.1	0.00e+00	0	42	0	939524096	14	4172
2026-01-11 08:39:21.67	48.64	26.21	-26.8	-28.1	16.1	0.00e+00	0	42	0	942669824	14	4174
2026-01-11 08:39:22.68	48.33	26.21	-26.9	-28.4	16.0	0.00e+00	0	42	0	945815552	14	4243
2026-01-11 08:39:23.68	48.03	26.21	-27.0	-28.5	15.9	0.00e+00	0	42	0	948961280	14	4282
2026-01-11 08:39:24.69	47.72	26.21	-27.2	-28.9	15.7	0.00e+00	0	42	0	952107008	14	4384
2026-01-11 08:39:25.69	47.42	26.21	-27.1	-28.8	15.7	0.00e+00	0	42	0	955252736	14	4351
2026-01-11 08:39:26.69	47.11	26.21	-26.9	-28.2	16.0	0.00e+00	0	42	0	958398464	14	4203
2026-01-11 08:39:27.70	46.81	26.21	-26.9	-28.2	16.1	0.00e+00	0	42	0	961544192	14	4180
2026-01-11 08:39:28.71	46.50	26.21	-26.7	-27.8	16.3	0.00e+00	0	42	0	964689920	14	4094
2026-01-11 08:39:29.70	46.20	26.20	-26.7	-27.8	16.3	0.00e+00	0	42	0	967835648	14	4078
2026-01-11 08:39:30.71	45.89	26.20	-26.6	-27.7	16.4	0.00e+00	0	42	0	970981376	14	4063
2026-01-11 08:39:31.71	45.59	26.19	-26.6	-27.5	16.4	0.00e+00	0	42	0	974127104	14	4012
2026-01-11 08:39:32.72	45.28	26.19	-26.7	-27.8	16.3	0.00e+00	0	42	0	977272832	14	4097
2026-01-11 08:39:33.72	44.98	26.18	-26.7	-27.7	16.3	0.00e+00	0	42	0	980418560	14	4062
2026-01-11 08:39:34.73	44.67	26.17	-26.5	-27.4	16.5	0.00e+00	0	42	0	983564288	14	3976
2026-01-11 08:39:35.73	44.37	26.16	-26.5	-27.3	16.5	0.00e+00	0	42	0	986710016	14	3956
2026-01-11 08:39:36.74	44.06	26.15	-26.6	-27.6	16.4	0.00e+00	0	42	0	989855744	14	4039
2026-01-11 08:39:37.75	43.76	26.14	-26.7	-27.8	16.3	0.00e+00	0	42	0	993001472	14	4079
2026-01-11 08:39:38.74	43.46	26.13	-26.7	-27.9	16.3	0.00e+00	0	42	0	996147200	14	4104
2026-01-11 08:39:39.75	43.15	26.12	-26.8	-28.1	16.1	0.00e+00	0	42	0	999292928	14	4165
2026-01-11 08:39:40.75	42.85	26.11	-26.8	-28.1	16.1	0.00e+00	0	42	0	1002438656	14	4158
2026-01-11 08:39:41.76	42.55	26.09	-26.9	-28.4	16.0	0.00e+00	0	42	0	1005584384	14	4236
2026-01-11 08:39:42.76	42.25	26.08	-26.9	-28.2	16.0	0.00e+00	0	42	0	1008730112	14	4194
2026-01-11 08:39:43.77	41.94	26.06	-26.8	-28.1	16.1	0.00e+00	0	42	0	1011875840	14	4164
2026-01-11 08:39:44.77	41.64	26.04	-26.9	-28.2	16.1	0.00e+00	0	42	0	1015021568	14	4186
2026-01-11 08:39:45.78	41.34	26.03	-27.0	-28.4	15.9	0.00e+00	0	42	0	1018167296	14	4244
2026-01-11 08:39:46.77	41.04	26.01	-27.0	-28.4	15.9	0.00e+00	0	42	0	1021313024	14	4257
2026-01-11 08:39:47.78	40.74	25.99	-27.1	-28.6	15.8	0.00e+00	0	42	0	1024458752	14	4300
2026-01-11 08:39:48.79	40.44	25.97	-27.0	-28.5	15.8	0.00e+00	0	42	0	1027604480	14	4282
2026-01-11 08:39:49.79	40.14	25.95	-26.9	-28.2	16.1	0.00e+00	0	42	0	1030750208	14	4192
2026-01-11 08:39:50.79	39.84	25.93	-26.9	-28.3	16.0	0.00e+00	0	42	0	1033895936	14	4216
2026-01-11 08:39:51.80	39.54	25.90	-26.8	-28.1	16.1	0.00e+00	0	42	0	1037041664	14	4174
2026-01-11 08:39:52.81	39.24	25.88	-26.8	-28.1	16.1	0.00e+00	0	42	0	1040187392	14	4168
2026-01-11 08:39:53.81	38.94	25.86	-27.0	-28.6	15.8	0.00e+00	0	42	0	1043333120	14	4297
2026-01-11 08:39:54.81	38.64	25.83	-27.0	-28.5	15.9	0.00e+00	0	42	0	1046478848	14	4274
2026-01-11 08:39:55.82	38.34	25.80	-26.7	-27.8	16.2	0.00e+00	0	42	0	1049624576	14	4087
2026-01-11 08:39:56.83	38.04	25.78	-26.6	-27.7	16.3	0.00e+00	0	42	0	1052770304	14	4052
2026-01-11 08:39:57.83	37.75	25.75	-26.7	-27.8	16.3	0.00e+00	0	42	0	1055916032	14	4083
2026-01-11 08:39:58.84	37.45	25.72	-26.7	-27.9	16.2	0.00e+00	0	42	0	1059061760	14	4106
2026-01-11 08:39:59.85	37.15	25.69	-26.7	-27.9	16.2	0.00e+00	0	42	0	1062207488	14	4118
2026-01-11 08:40:00.86	36.86	25.66	-26.8	-27.9	16.2	0.00e+00	0	42	0	1065353216	14	4126
2026-01-11 08:40:01.87	36.56	25.63	-26.8	-28.1	16.1	0.00e+00	0	42	0	1068498944	14	4158
2026-01-11 08:40:02.87	36.27	25.60	-26.7	-27.9	16.2	0.00e+00	0	42	0	1071644672	14	4119
2026-01-11 08:40:03.88	35.97	25.57	-26.7	-27.8	16.2	0.00e+00	0	42	0	1074790400	14	4094
2026-01-11 08:40:04.89	35.68	25.53	-26.8	-28.1	16.1	0.00e+00	0	42	0	1077936128	14	4171
2026-01-11 08:40:05.90	35.39	25.50	-26.7	-27.8	16.2	0.00e+00	0	42	0	1081081856	14	4082
2026-01-11 08:40:06.91	35.09	25.46	-26.8	-28.0	16.2	0.00e+00	0	42	0	1084227584	14	4134
2026-01-11 08:40:07.91	34.81	25.43	-26.6	-27.5	16.4	0.00e+00	0	42	0	1087373312	14	4018
2026-01-11 08:40:08.92	34.51	25.39	-26.6	-27.6	16.3	0.00e+00	0	42	0	1090519040	14	4048
2026-01-11 08:40:09.93	34.22	25.36	-26.5	-27.4	16.4	0.00e+00	0	42	0	1093664768	14	3997
2026-01-11 08:40:10.94	33.93	25.32	-26.5	-27.4	16.4	0.00e+00	0	42	0	1096810496	14	3996
2026-01-11 08:40:11.94	33.65	25.28	-26.4	-27.2	16.5	0.00e+00	0	42	0	1099956224	14	3942
2026-01-11 08:40:12.94	33.36	25.24	-26.3	-26.9	16.7	0.00e+00	0	42	0	1103101952	14	3863
2026-01-11 08:40:13.95	33.07	25.20	-26.4	-27.1	16.6	0.00e+00	0	42	0	1106247680	14	3909
2026-01-11 08:40:14.96	32.79	25.16	-26.4	-27.1	16.5	0.00e+00	0	42	0	1109393408	14	3920
2026-01-11 08:40:15.97	32.50	25.12	-26.6	-27.7	16.2	0.00e+00	0	42	0	1112539136	14	4061
2026-01-11 08:40:16.97	32.22	25.08	-26.6	-27.6	16.3	0.00e+00	0	42	0	1115684864	14	4037
2026-01-11 08:40:17.98	31.93	25.03	-26.6	-27.6	16.3	0.00e+00	0	42	0	1118830592	14	4051
2026-01-11 08:40:18.99	31.65	24.99	-26.6	-27.6	16.3	0.00e+00	0	42	0	1121976320	14	4050
2026-01-11 08:40:20.00	31.36	24.94	-26.6	-27.5	16.4	0.00e+00	0	42	0	1125122048	14	4011
2026-01-11 08:40:21.01	31.08	24.90	-26.7	-27.7	16.2	0.00e+00	0	42	0	1128267776	14	4074
2026-01-11 08:40:22.01	30.80	24.85	-26.4	-27.1	16.6	0.00e+00	0	42	0	1131413504	14	3916
2026-01-11 08:40:23.01	30.52	24.81	-26.3	-27.0	16.6	0.00e+00	0	42	0	1134559232	14	3879
2026-01-11 08:40:24.02	30.24	24.76	-26.4	-27.2	16.5	0.00e+00	0	42	0	1137704960	14	3942
2026-01-11 08:40:25.02	29.97	24.71	-26.3	-26.9	16.7	0.00e+00	0	42	0	1140850688	14	3858
2026-01-11 08:40:26.03	29.69	24.66	-26.4	-27.7	16.4	0.00e+00	0	42	0	1143996416	13	4174
2026-01-11 08:40:27.03	29.42	24.62	-26.5	-27.8	16.4	0.00e+00	0	42	0	1147142144	13	4203
2026-01-11 08:40:28.04	29.14	24.57	-26.7	-28.3	16.1	0.00e+00	0	42	0	1150287872	13	4340
2026-01-11 08:40:29.05	28.86	24.52	-26.7	-28.4	16.1	0.00e+00	0	42	0	1153433600	13	4358
2026-01-11 08:40:30.06	28.59	24.46	-26.8	-28.6	16.0	0.00e+00	0	42	0	1156579328	13	4425
2026-01-11 08:40:31.07	28.32	24.41	-26.7	-28.3	16.1	0.00e+00	0	42	0	1159725056	13	4335
2026-01-11 08:40:32.08	28.04	24.36	-26.7	-28.2	16.2	0.00e+00	0	42	0	1162870784	13	4317
2026-01-11 08:40:33.08	27.77	24.31	-26.8	-28.6	16.0	0.00e+00	0	42	0	1166016512	13	4427
2026-01-11 08:40:34.09	27.50	24.26	-26.8	-28.5	16.0	0.00e+00	0	42	0	1169162240	13	4389
2026-01-11 08:40:35.09	27.23	24.20	-26.8	-28.6	16.0	0.00e+00	0	42	0	1172307968	13	4433
2026-01-11 08:40:36.10	26.97	24.15	-26.7	-28.5	16.1	0.00e+00	0	42	0	1175453696	13	4382
2026-01-11 08:40:37.10	26.70	24.09	-26.7	-28.4	16.1	0.00e+00	0	42	0	1178599424	13	4370
2026-01-11 08:40:38.10	26.44	24.04	-26.7	-28.3	16.1	0.00e+00	0	42	0	1181745152	13	4335
2026-01-11 08:40:39.11	26.17	23.98	-26.7	-28.2	16.2	0.00e+00	0	42	0	1184890880	13	4323
2026-01-11 08:40:40.12	25.90	23.92	-26.6	-28.0	16.3	0.00e+00	0	42	0	1188036608	13	4263
2026-01-11 08:40:41.13	25.64	23.87	-26.6	-28.2	16.2	0.00e+00	0	42	0	1191182336	13	4308
2026-01-11 08:40:42.14	25.38	23.81	-26.9	-28.7	15.9	0.00e+00	0	42	0	1194328064	13	4444
2026-01-11 08:40:43.14	25.12	23.75	-26.8	-28.5	16.0	0.00e+00	0	42	0	1197473792	13	4395
2026-01-11 08:40:44.15	24.85	23.69	-26.8	-28.6	15.9	0.00e+00	0	42	0	1200619520	13	4436
2026-01-11 08:40:45.15	24.60	23.63	-27.0	-28.6	15.7	0.00e+00	0	42	0	1203765248	14	4307
2026-01-11 08:40:46.17	24.33	23.57	-27.0	-28.6	15.7	0.00e+00	0	42	0	1206910976	14	4302
2026-01-11 08:40:47.17	24.08	23.51	-26.8	-28.2	15.9	0.00e+00	0	42	0	1210056704	14	4189
2026-01-11 08:40:48.17	23.82	23.45	-26.9	-28.4	15.8	0.00e+00	0	42	0	1213202432	14	4250
2026-01-11 08:40:49.18	23.57	23.39	-26.5	-27.3	16.3	0.00e+00	0	42	0	1216348160	14	3971
2026-01-11 08:40:50.19	23.31	23.33	-26.3	-27.0	16.5	0.00e+00	0	42	0	1219493888	14	3890
2026-01-11 08:40:51.20	23.06	23.27	-26.3	-27.4	16.6	0.00e+00	0	42	0	1222639616	13	4091
2026-01-11 08:40:52.21	22.80	23.21	-26.2	-27.3	16.6	0.00e+00	0	42	0	1225785344	13	4071
2026-01-11 08:40:53.21	22.55	23.14	-26.5	-27.9	16.3	0.00e+00	0	42	0	1228931072	13	4226
2026-01-11 08:40:54.23	22.30	23.08	-26.6	-28.1	16.2	0.00e+00	0	42	0	1232076800	13	4278
2026-01-11 08:40:55.23	22.05	23.02	-26.9	-28.7	15.9	0.00e+00	0	42	0	1235222528	13	4458
2026-01-11 08:40:56.23	21.81	22.95	-26.9	-28.8	15.8	0.00e+00	0	42	0	1238368256	13	4489
2026-01-11 08:40:57.24	21.56	22.89	-27.2	-28.9	15.5	0.00e+00	0	42	0	1241513984	14	4391
2026-01-11 08:40:58.25	21.31	22.82	-27.4	-29.3	15.2	0.00e+00	0	42	0	1244659712	14	4523
2026-01-11 08:40:59.25	21.07	22.76	-27.1	-28.8	15.5	0.00e+00	0	42	0	1247805440	14	4372
2026-01-11 08:41:00.26	20.82	22.69	-27.1	-28.7	15.6	0.00e+00	0	42	0	1250951168	14	4332
2026-01-11 08:41:01.27	20.58	22.62	-26.9	-28.4	15.8	0.00e+00	0	42	0	1254096896	14	4253
2026-01-11 08:41:02.27	20.34	22.56	-26.9	-28.2	15.8	0.00e+00	0	42	0	1257242624	14	4209
2026-01-11 08:41:03.27	20.10	22.49	-26.7	-27.8	16.1	0.00e+00	0	42	0	1260388352	14	4104
2026-01-11 08:41:04.28	19.86	22.42	-26.6	-27.7	16.2	0.00e+00	0	42	0	1263534080	14	4055
2026-01-11 08:41:05.28	19.62	22.36	-26.6	-27.7	16.2	0.00e+00	0	42	0	1266679808	14	4063
2026-01-11 08:41:06.28	19.38	22.29	-26.6	-27.7	16.2	0.00e+00	0	42	0	1269825536	14	4062
2026-01-11 08:41:07.30	19.14	22.22	-26.7	-27.9	16.0	0.00e+00	0	42	0	1272971264	14	4113
2026-01-11 08:41:08.30	18.91	22.15	-26.9	-28.3	15.8	0.00e+00	0	42	0	1276116992	14	4232
2026-01-11 08:41:09.30	18.68	22.08	-26.6	-27.6	16.2	0.00e+00	0	42	0	1279262720	14	4042
2026-01-11 08:41:10.31	18.44	22.01	-26.4	-27.2	16.4	0.00e+00	0	42	0	1282408448	14	3939
2026-01-11 08:41:11.32	18.21	21.94	-26.2	-27.2	16.6	0.00e+00	0	42	0	1285554176	13	4056
2026-01-11 08:41:12.32	17.98	21.87	-26.1	-27.1	16.7	0.00e+00	0	42	0	1288699904	13	4022
2026-01-11 08:41:13.33	17.75	21.80	-26.3	-27.3	16.6	0.00e+00	0	42	0	1291845632	13	4083
2026-01-11 08:41:14.33	17.52	21.73	-26.5	-27.8	16.3	0.00e+00	0	42	0	1294991360	13	4207
2026-01-11 08:41:15.34	17.29	21.66	-26.7	-28.3	16.0	0.00e+00	0	42	0	1298137088	13	4336
2026-01-11 08:41:16.34	17.06	21.59	-26.7	-28.4	16.0	0.00e+00	0	42	0	1301282816	13	4378
2026-01-11 08:41:17.35	16.84	21.52	-26.8	-28.5	16.0	0.00e+00	0	42	0	1304428544	13	4390
2026-01-11 08:41:18.36	16.61	21.45	-26.6	-28.2	16.1	0.00e+00	0	42	0	1307574272	13	4315
2026-01-11 08:41:19.36	16.39	21.38	-26.7	-28.4	16.0	0.00e+00	0	42	0	1310720000	13	4353
2026-01-11 08:41:20.37	16.17	21.30	-26.6	-28.2	16.1	0.00e+00	0	42	0	1313865728	13	4306
2026-01-11 08:41:21.38	15.94	21.23	-26.4	-27.8	16.3	0.00e+00	0	42	0	1317011456	13	4199
2026-01-11 08:41:22.39	15.72	21.16	-26.6	-28.1	16.2	0.00e+00	0	42	0	1320157184	13	4285
2026-01-11 08:41:23.39	15.50	21.08	-26.6	-28.2	16.1	7.00e-07	0	42	0	1323302912	13	4302
2026-01-11 08:41:24.40	15.28	21.01	-26.5	-27.8	16.3	0.00e+00	0	42	0	1326448640	13	4207
2026-01-11 08:41:25.40	15.07	20.94	-26.4	-27.8	16.3	0.00e+00	0	42	0	1329594368	13	4199
2026-01-11 08:41:26.41	14.85	20.86	-26.6	-28.0	16.2	0.00e+00	0	42	0	1332740096	13	4272
2026-01-11 08:41:27.42	14.63	20.79	-26.7	-28.4	16.0	0.00e+00	0	42	0	1335885824	13	4370
2026-01-11 08:41:28.43	14.42	20.72	-26.8	-28.6	15.9	0.00e+00	0	42	0	1339031552	13	4424
2026-01-11 08:41:29.43	14.21	20.64	-26.8	-28.6	15.9	0.00e+00	0	42	0	1342177280	13	4426
2026-01-11 08:41:30.44	13.99	20.57	-27.0	-29.0	15.7	0.00e+00	0	42	0	1345323008	13	4531
2026-01-11 08:41:31.45	13.78	20.49	-27.0	-28.5	15.7	0.00e+00	0	42	0	1348468736	14	4281
2026-01-11 08:41:32.46	13.57	20.42	-26.8	-28.1	15.9	0.00e+00	0	42	0	1351614464	14	4188
2026-01-11 08:41:33.47	13.36	20.34	-26.8	-28.1	15.9	0.00e+00	0	42	0	1354760192	14	4174
2026-01-11 08:41:34.48	13.15	20.27	-26.8	-28.1	15.9	0.00e+00	0	42	0	1357905920	14	4183
2026-01-11 08:41:35.48	12.94	20.19	-27.0	-28.5	15.7	0.00e+00	0	42	0	1361051648	14	4273
2026-01-11 08:41:36.49	12.74	20.12	-27.0	-28.5	15.6	0.00e+00	0	42	0	1364197376	14	4282
2026-01-11 08:41:37.50	12.53	20.04	-26.9	-28.4	15.7	0.00e+00	0	42	0	1367343104	14	4259
2026-01-11 08:41:38.50	12.33	19.96	-26.9	-28.2	15.8	0.00e+00	0	42	0	1370488832	14	4213
2026-01-11 08:41:39.51	12.12	19.89	-26.9	-28.2	15.8	0.00e+00	0	42	0	1373634560	14	4208
2026-01-11 08:41:40.52	11.92	19.81	-27.0	-28.6	15.6	0.00e+00	0	42	0	1376780288	14	4310
2026-01-11 08:41:41.52	11.72	19.73	-27.0	-28.4	15.7	0.00e+00	0	42	0	1379926016	14	4264
2026-01-11 08:41:42.52	11.52	19.66	-26.8	-28.0	15.9	0.00e+00	0	42	0	1383071744	14	4154
2026-01-11 08:41:43.52	11.32	19.58	-26.9	-28.3	15.7	0.00e+00	0	42	0	1386217472	14	4224
2026-01-11 08:41:44.53	11.13	19.51	-26.9	-28.4	15.7	0.00e+00	0	42	0	1389363200	14	4260
2026-01-11 08:41:45.54	10.93	19.43	-26.9	-28.2	15.8	0.00e+00	0	42	0	1392508928	14	4217
2026-01-11 08:41:46.55	10.73	19.35	-27.0	-28.5	15.6	0.00e+00	0	42	0	1395654656	14	4296
2026-01-11 08:41:47.55	10.54	19.27	-27.1	-28.8	15.4	0.00e+00	0	42	0	1398800384	14	4383
2026-01-11 08:41:48.56	10.34	19.20	-27.4	-29.4	15.1	0.00e+00	0	42	0	1401946112	14	4533
2026-01-11 08:41:49.57	10.15	19.12	-27.5	-29.1	15.0	0.00e+00	0	42	0	1405091840	15	4354
2026-01-11 08:41:50.58	9.96	19.04	-27.3	-28.8	15.1	0.00e+00	0	42	0	1408237568	15	4272
2026-01-11 08:41:51.58	9.77	18.96	-27.3	-28.7	15.2	0.00e+00	0	42	0	1411383296	15	4234
2026-01-11 08:41:52.59	9.58	18.89	-27.4	-28.9	15.1	0.00e+00	0	42	0	1414529024	15	4284
2026-01-11 08:41:53.60	9.39	18.81	-27.3	-28.8	15.1	0.00e+00	0	42	0	1417674752	15	4267
2026-01-11 08:41:54.60	9.20	18.73	-27.4	-29.0	15.1	7.00e-07	0	42	0	1420820480	15	4311
2026-01-11 08:41:55.60	9.01	18.65	-27.6	-29.4	14.8	0.00e+00	0	42	0	1423966208	15	4426
2026-01-11 08:41:56.61	8.83	18.58	-27.6	-29.5	14.8	1.50e-06	0	42	0	1427111936	15	4463
2026-01-11 08:41:57.61	8.64	18.50	-27.4	-29.0	15.0	0.00e+00	0	42	0	1430257664	15	4335
2026-01-11 08:41:58.62	8.46	18.42	-27.3	-28.7	15.2	0.00e+00	0	42	0	1433403392	15	4248
2026-01-11 08:41:59.62	8.27	18.34	-27.4	-28.9	15.1	0.00e+00	0	42	0	1436549120	15	4311
2026-01-11 08:42:00.63	8.09	18.26	-27.4	-29.0	15.0	0.00e+00	0	42	0	1439694848	15	4333
2026-01-11 08:42:01.63	7.91	18.19	-27.5	-29.3	14.9	0.00e+00	0	42	0	1442840576	15	4395
2026-01-11 08:42:02.63	7.73	18.11	-27.5	-29.2	14.9	0.00e+00	0	42	0	1445986304	15	4389
2026-01-11 08:42:03.64	7.55	18.03	-27.3	-28.7	15.1	0.00e+00	0	42	0	1449132032	15	4243
2026-01-11 08:42:04.65	7.37	17.95	-27.3	-28.7	15.2	0.00e+00	0	42	0	1452277760	15	4231
2026-01-11 08:42:05.66	7.19	17.87	-27.2	-28.5	15.3	0.00e+00	0	42	0	1455423488	15	4179
2026-01-11 08:42:06.66	7.02	17.80	-27.2	-28.5	15.3	0.00e+00	0	42	0	1458569216	15	4197
2026-01-11 08:42:07.67	6.84	17.72	-27.2	-28.5	15.3	0.00e+00	0	42	0	1461714944	15	4179
2026-01-11 08:42:08.68	6.67	17.64	-27.1	-28.3	15.4	7.00e-07	0	42	0	1464860672	15	4118
2026-01-11 08:42:09.68	6.49	17.56	-27.1	-28.2	15.5	0.00e+00	0	42	0	1468006400	15	4098
2026-01-11 08:42:10.68	6.32	17.48	-27.3	-28.7	15.1	0.00e+00	0	42	0	1471152128	15	4239
2026-01-11 08:42:11.69	6.15	17.40	-27.0	-28.0	15.6	0.00e+00	0	42	0	1474297856	15	4038
2026-01-11 08:42:12.69	5.98	17.32	-26.8	-27.6	15.8	0.00e+00	0	42	0	1477443584	15	3941
2026-01-11 08:42:13.70	5.81	17.25	-26.7	-28.0	15.8	0.00e+00	0	42	0	1480589312	14	4147
2026-01-11 08:42:14.71	5.64	17.17	-26.7	-27.9	15.8	0.00e+00	0	42	0	1483735040	14	4131
2026-01-11 08:42:15.72	5.47	17.09	-26.7	-27.9	15.9	0.00e+00	0	42	0	1486880768	14	4128
2026-01-11 08:42:16.73	5.30	17.01	-26.8	-28.2	15.7	0.00e+00	0	42	0	1490026496	14	4194
2026-01-11 08:42:17.73	5.14	16.93	-26.9	-28.4	15.6	0.00e+00	0	42	0	1493172224	14	4252
2026-01-11 08:42:18.74	4.97	16.85	-26.9	-28.3	15.6	0.00e+00	0	42	0	1496317952	14	4241
2026-01-11 08:42:19.74	4.81	16.77	-26.9	-28.4	15.6	0.00e+00	0	42	0	1499463680	14	4254
2026-01-11 08:42:20.75	4.64	16.70	-27.0	-28.6	15.5	0.00e+00	0	42	0	1502609408	14	4316
2026-01-11 08:42:21.75	4.48	16.62	-27.0	-28.6	15.4	0.00e+00	0	42	0	1505755136	14	4331
2026-01-11 08:42:22.75	4.32	16.54	-27.0	-28.7	15.4	0.00e+00	0	42	0	1508900864	14	4336
2026-01-11 08:42:23.76	4.16	16.46	-27.0	-28.6	15.4	0.00e+00	0	42	0	1512046592	14	4322
2026-01-11 08:42:24.77	4.00	16.38	-27.1	-28.8	15.3	0.00e+00	0	42	0	1515192320	14	4363
2026-01-11 08:42:25.77	3.84	16.30	-27.1	-28.7	15.4	0.00e+00	0	42	0	1518338048	14	4354
2026-01-11 08:42:26.78	3.68	16.23	-27.1	-28.8	15.3	0.00e+00	0	42	0	1521483776	14	4387
2026-01-11 08:42:27.78	3.52	16.15	-27.1	-28.7	15.4	7.00e-07	0	42	0	1524629504	14	4339
2026-01-11 08:42:28.79	3.36	16.07	-27.1	-28.9	15.3	0.00e+00	0	42	0	1527775232	14	4397
2026-01-11 08:42:29.79	3.21	15.99	-27.1	-28.8	15.3	7.00e-07	0	42	0	1530920960	14	4382
2026-01-11 08:42:30.81	3.05	15.91	-27.2	-29.0	15.2	0.00e+00	0	42	0	1534066688	14	4422
2026-01-11 08:42:31.81	2.90	15.83	-27.3	-29.4	15.0	0.00e+00	0	42	0	1537212416	14	4537
2026-01-11 08:42:32.81	2.74	15.76	-27.5	-29.6	14.8	0.00e+00	0	42	0	1540358144	14	4616
2026-01-11 08:42:33.82	2.59	15.68	-27.5	-29.3	14.8	0.00e+00	0	42	0	1543503872	15	4405
2026-01-11 08:42:34.83	2.44	15.60	-27.7	-29.7	14.5	1.50e-06	0	42	0	1546649600	15	4547
2026-01-11 08:42:35.83	2.29	15.52	-27.6	-29.5	14.6	0.00e+00	0	42	0	1549795328	15	4461
2026-01-11 08:42:36.84	2.13	15.44	-27.5	-29.1	14.8	0.00e+00	0	42	0	1552941056	15	4359
2026-01-11 08:42:37.85	1.98	15.36	-27.3	-28.7	15.0	0.00e+00	0	42	0	1556086784	15	4244
2026-01-11 08:42:38.86	1.83	15.29	-27.2	-28.5	15.1	0.00e+00	0	42	0	1559232512	15	4194
2026-01-11 08:42:39.86	1.69	15.21	-27.3	-28.7	15.0	0.00e+00	0	42	0	1562378240	15	4238
2026-01-11 08:42:40.87	1.54	15.13	-27.1	-28.2	15.3	0.00e+00	0	42	0	1565523968	15	4114
2026-01-11 08:42:41.88	1.39	15.05	-27.1	-28.4	15.2	7.00e-07	0	42	0	1568669696	15	4153
2026-01-11 08:42:42.88	1.25	14.98	-27.1	-28.2	15.3	0.00e+00	0	42	0	1571815424	15	4112
2026-01-11 08:42:43.88	1.10	14.90	-27.1	-28.3	15.2	0.00e+00	0	42	0	1574961152	15	4143
2026-01-11 08:42:44.89	0.96	14.82	-27.2	-28.6	15.1	0.00e+00	0	42	0	1578106880	15	4219
2026-01-11 08:42:45.90	0.81	14.74	-27.2	-28.5	15.1	0.00e+00	0	42	0	1581252608	15	4192
2026-01-11 08:42:46.90	0.67	14.67	-27.5	-29.1	14.8	7.00e-07	0	42	0	1584398336	15	4363
2026-01-11 08:42:47.91	0.53	14.59	-27.6	-29.4	14.6	0.00e+00	0	42	0	1587544064	15	4447
2026-01-11 08:42:48.91	0.39	14.51	-27.7	-29.7	14.4	7.00e-07	0	42	0	1590689792	15	4544
2026-01-11 08:42:49.91	0.25	14.43	-27.6	-29.5	14.6	0.00e+00	0	42	0	1593835520	15	4465
2026-01-11 08:42:50.92	0.11	14.36	-27.8	-30.0	14.2	0.00e+00	0	42	0	1596981248	15	4641
2026-01-11 08:42:51.93	359.97	14.28	-27.8	-30.0	14.2	7.00e-07	0	42	0	1600126976	15	4637
2026-01-11 08:42:52.93	359.83	14.20	-27.7	-29.6	14.4	0.00e+00	0	42	0	1603272704	15	4520
2026-01-11 08:42:53.93	359.70	14.13	-27.8	-30.0	14.2	1.50e-06	0	42	0	1606418432	15	4634
2026-01-11 08:42:54.94	359.56	14.05	-27.7	-29.7	14.4	0.00e+00	0	42	0	1609564160	15	4521
2026-01-11 08:42:55.94	359.42	13.97	-27.4	-29.1	14.7	0.00e+00	0	42	0	1612709888	15	4363
2026-01-11 08:42:56.95	359.29	13.90	-27.4	-29.0	14.8	0.00e+00	0	42	0	1615855616	15	4346
2026-01-11 08:42:57.96	359.15	13.82	-27.5	-29.2	14.7	0.00e+00	0	42	0	1619001344	15	4394
2026-01-11 08:42:58.96	359.02	13.74	-27.4	-29.0	14.8	7.00e-07	0	42	0	1622147072	15	4322
2026-01-11 08:42:59.97	358.89	13.67	-27.4	-29.0	14.8	0.00e+00	0	42	0	1625292800	15	4331
2026-01-11 08:43:00.98	358.75	13.59	-27.4	-29.1	14.7	7.00e-07	0	42	0	1628438528	15	4360
2026-01-11 08:43:01.99	358.62	13.51	-27.6	-29.4	14.6	7.00e-07	0	42	0	1631584256	15	4444
2026-01-11 08:43:02.99	358.49	13.44	-27.6	-29.5	14.5	0.00e+00	0	42	0	1634729984	15	4470
2026-01-11 08:43:03.99	358.36	13.36	-27.7	-29.8	14.3	0.00e+00	0	42	0	1637875712	15	4574
2026-01-11 08:43:04.99	358.23	13.29	-27.7	-29.8	14.3	0.00e+00	0	42	0	1641021440	15	4556
2026-01-11 08:43:06.00	358.10	13.21	-27.7	-29.8	14.3	0.00e+00	0	42	0	1644167168	15	4587
2026-01-11 08:43:07.01	357.97	13.13	-28.3	-30.5	13.8	1.50e-06	0	42	0	1647312896	16	4662
2026-01-11 08:43:08.01	357.85	13.06	-27.9	-29.7	14.2	7.00e-07	0	42	0	1650458624	16	4430
2026-01-11 08:43:09.02	357.72	12.98	-28.2	-30.4	13.8	1.50e-06	0	42	0	1653604352	16	4619
2026-01-11 08:43:10.02	357.59	12.91	-28.0	-29.9	14.1	7.00e-07	0	42	0	1656750080	16	4483
2026-01-11 08:43:11.03	357.47	12.83	-27.9	-29.7	14.2	4.50e-06	0	42	0	1659895808	16	4421
2026-01-11 08:43:12.04	357.34	12.75	-27.9	-29.6	14.3	7.00e-07	0	42	0	1663041536	16	4377
2026-01-11 08:43:13.05	357.22	12.68	-27.9	-29.6	14.3	1.50e-06	0	42	0	1666187264	16	4382
2026-01-11 08:43:14.05	357.09	12.60	-28.1	-30.2	13.9	3.80e-06	0	42	0	1669332992	16	4563
2026-01-11 08:43:15.06	356.97	12.53	-27.8	-29.5	14.3	1.50e-06	0	42	0	1672478720	16	4355
2026-01-11 08:43:16.07	356.85	12.45	-27.8	-29.4	14.4	7.00e-07	0	42	0	1675624448	16	4327
2026-01-11 08:43:17.07	356.73	12.38	-28.0	-29.9	14.1	7.00e-07	0	42	0	1678770176	16	4478
2026-01-11 08:43:18.07	356.61	12.30	-27.8	-29.5	14.3	7.00e-07	0	42	0	1681915904	16	4363
2026-01-11 08:43:19.08	356.48	12.23	-27.6	-29.0	14.6	0.00e+00	0	42	0	1685061632	16	4214
2026-01-11 08:43:20.08	356.37	12.16	-27.5	-28.8	14.7	0.00e+00	0	42	0	1688207360	16	4156
2026-01-11 08:43:21.09	356.25	12.08	-27.8	-29.5	14.3	0.00e+00	0	42	0	1691353088	16	4367
2026-01-11 08:43:22.10	356.13	12.01	-28.1	-30.2	13.9	3.00e-06	0	42	0	1694498816	16	4573
2026-01-11 08:43:23.10	356.01	11.93	-28.0	-29.9	14.0	3.00e-06	0	42	0	1697644544	16	4496
2026-01-11 08:43:24.11	355.89	11.86	-28.0	-29.9	14.1	3.80e-06	0	42	0	1700790272	16	4468
2026-01-11 08:43:25.12	355.77	11.78	-28.1	-30.2	13.9	3.80e-06	0	42	0	1703936000	16	4564
2026-01-11 08:43:26.12	355.66	11.71	-28.2	-30.5	13.7	3.00e-06	0	42	0	1707081728	16	4663
2026-01-11 08:43:27.13	355.54	11.64	-28.3	-30.6	13.6	4.50e-06	0	42	0	1710227456	16	4706
2026-01-11 08:43:28.14	355.43	11.56	-28.3	-30.7	13.5	1.06e-05	0	42	0	1713373184	16	4735
2026-01-11 08:43:29.15	355.31	11.49	-28.1	-30.2	13.8	6.80e-06	0	42	0	1716518912	16	4591
2026-01-11 08:43:30.15	355.20	11.41	-28.0	-29.9	14.0	7.00e-07	0	42	0	1719664640	16	4500
2026-01-11 08:43:31.16	355.09	11.34	-28.0	-30.0	13.9	3.00e-06	0	42	0	1722810368	16	4523
2026-01-11 08:43:32.17	354.97	11.27	-27.8	-29.4	14.3	1.50e-06	0	42	0	1725956096	16	4326
2026-01-11 08:43:33.17	354.86	11.19	-27.8	-29.4	14.2	0.00e+00	0	42	0	1729101824	16	4348
2026-01-11 08:43:34.18	354.75	11.12	-27.8	-29.5	14.2	3.80e-06	0	42	0	1732247552	16	4382
2026-01-11 08:43:35.19	354.64	11.05	-27.7	-29.1	14.4	1.50e-06	0	42	0	1735393280	16	4256
2026-01-11 08:43:36.20	354.53	10.97	-27.7	-29.3	14.3	0.00e+00	0	42	0	1738539008	16	4308
2026-01-11 08:43:37.20	354.42	10.90	-27.5	-28.9	14.6	7.00e-07	0	42	0	1741684736	16	4185
2026-01-11 08:43:38.21	354.31	10.83	-27.6	-29.0	14.5	0.00e+00	0	42	0	1744830464	16	4217
2026-01-11 08:43:39.22	354.20	10.76	-27.6	-29.1	14.5	7.00e-07	0	42	0	1747976192	16	4245
2026-01-11 08:43:40.23	354.09	10.68	-27.7	-29.2	14.3	7.00e-07	0	42	0	1751121920	16	4295
2026-01-11 08:43:41.23	353.98	10.61	-27.8	-29.5	14.2	3.00e-06	0	42	0	1754267648	16	4381
2026-01-11 08:43:42.23	353.88	10.54	-28.0	-30.0	13.9	5.30e-06	0	42	0	1757413376	16	4516
2026-01-11 08:43:43.23	353.77	10.47	-28.1	-30.2	13.8	5.30e-06	0	42	0	1760559104	16	4570
2026-01-11 08:43:44.24	353.66	10.40	-28.2	-30.5	13.6	6.80e-06	0	42	0	1763704832	16	4677
2026-01-11 08:43:45.25	353.56	10.32	-28.5	-30.8	13.1	3.96e-05	0	42	0	1766850560	17	4655
2026-01-11 08:43:46.26	353.45	10.25	-28.2	-29.9	13.6	8.30e-06	0	42	0	1769996288	17	4398
2026-01-11 08:43:47.26	353.35	10.18	-28.4	-30.5	13.3	1.52e-05	0	42	0	1773142016	17	4556
2026-01-11 08:43:48.27	353.25	10.11	-28.5	-30.5	13.3	1.75e-05	0	42	0	1776287744	17	4579
2026-01-11 08:43:49.27	353.14	10.04	-28.5	-30.6	13.2	1.98e-05	0	42	0	1779433472	17	4593
2026-01-11 08:43:50.27	353.04	9.97	-28.6	-30.8	13.1	3.05e-05	0	42	0	1782579200	17	4663
2026-01-11 08:43:51.28	352.94	9.90	-28.4	-30.5	13.2	2.21e-05	0	42	0	1785724928	17	4560
2026-01-11 08:43:52.29	352.84	9.82	-28.6	-30.9	13.0	4.11e-05	0	42	0	1788870656	17	4703
2026-01-11 08:43:53.29	352.74	9.75	-28.4	-30.5	13.2	3.12e-05	0	42	0	1792016384	17	4573
2026-01-11 08:43:54.30	352.63	9.68	-28.4	-30.5	13.2	2.05e-05	0	42	0	1795162112	17	4577
2026-01-11 08:43:55.31	352.53	9.61	-28.7	-31.1	12.8	5.41e-05	0	42	0	1798307840	17	4765
2026-01-11 08:43:56.31	352.43	9.54	-28.6	-30.9	13.0	2.89e-05	0	42	0	1801453568	17	4690
2026-01-11 08:43:57.32	352.34	9.47	-28.6	-30.9	12.9	3.89e-05	0	42	0	1804599296	17	4712
2026-01-11 08:43:58.33	352.24	9.40	-28.3	-30.2	13.4	2.51e-05	0	42	0	1807745024	17	4472
2026-01-11 08:43:59.34	352.14	9.33	-28.2	-30.0	13.5	8.30e-06	0	42	0	1810890752	17	4403
2026-01-11 08:44:00.35	352.04	9.26	-28.2	-29.9	13.5	8.30e-06	0	42	0	1814036480	17	4402
2026-01-11 08:44:01.35	351.94	9.19	-28.3	-30.2	13.4	1.90e-05	0	42	0	1817182208	17	4467
2026-01-11 08:44:02.36	351.85	9.12	-28.3	-30.2	13.4	1.06e-05	0	42	0	1820327936	17	4477
2026-01-11 08:44:03.36	351.75	9.05	-28.4	-30.4	13.3	1.44e-05	0	42	0	1823473664	17	4532
2026-01-11 08:44:04.37	351.65	8.98	-28.5	-30.8	13.0	3.35e-05	0	42	0	1826619392	17	4650
2026-01-11 08:44:05.38	351.56	8.91	-28.5	-30.7	13.1	3.28e-05	0	42	0	1829765120	17	4624
2026-01-11 08:44:06.39	351.46	8.84	-28.4	-30.6	13.1	2.67e-05	0	42	0	1832910848	17	4592
2026-01-11 08:44:07.39	351.37	8.77	-28.6	-30.9	12.9	4.80e-05	0	42	0	1836056576	17	4711
2026-01-11 08:44:08.40	351.27	8.70	-28.5	-30.8	13.0	3.81e-05	0	42	0	1839202304	17	4662
2026-01-11 08:44:09.41	351.18	8.63	-28.7	-31.3	12.7	8.16e-05	0	42	0	1842348032	17	4819
2026-01-11 08:44:10.42	351.09	8.56	-28.7	-31.3	12.6	8.85e-05	0	42	0	1845493760	17	4845
2026-01-11 08:44:11.43	350.99	8.49	-28.8	-31.5	12.5	9.23e-05	0	42	0	1848639488	17	4901
2026-01-11 08:44:12.43	350.90	8.42	-28.9	-31.7	12.4	1.59e-04	0	42	0	1851785216	17	4981
2026-01-11 08:44:13.44	350.81	8.36	-28.8	-31.6	12.5	1.18e-04	0	42	0	1854930944	17	4928
2026-01-11 08:44:14.45	350.72	8.29	-28.8	-31.0	12.5	1.35e-04	0	42	0	1858076672	18	4624
2026-01-11 08:44:15.45	350.63	8.22	-28.8	-31.0	12.5	9.61e-05	0	42	0	1861222400	18	4634
2026-01-11 08:44:16.45	350.54	8.15	-28.9	-31.2	12.4	1.30e-04	0	42	0	1864368128	18	4707
2026-01-11 08:44:17.46	350.45	8.08	-29.0	-31.5	12.2	2.24e-04	0	42	0	1867513856	18	4787
2026-01-11 08:44:18.47	350.36	8.01	-29.0	-31.4	12.2	2.82e-04	0	42	0	1870659584	18	4777
2026-01-11 08:44:19.48	350.27	7.95	-29.0	-31.6	12.1	2.01e-04	0	42	0	1873805312	18	4819
2026-01-11 08:44:20.48	350.18	7.88	-28.9	-31.3	12.3	4.13e-04	0	42	0	1876951040	18	4718
2026-01-11 08:44:21.48	350.09	7.81	-28.9	-31.3	12.2	2.05e-04	0	42	0	1880096768	18	4735
2026-01-11 08:44:22.49	350.01	7.74	-28.9	-31.2	12.3	2.00e-04	0	42	0	1883242496	18	4685
2026-01-11 08:44:23.50	349.92	7.68	-28.8	-30.9	12.5	1.56e-04	0	42	0	1886388224	18	4613
2026-01-11 08:44:24.50	349.83	7.61	-28.9	-31.3	12.2	2.32e-04	0	42	0	1889533952	18	4751
2026-01-11 08:44:25.50	349.75	7.54	-28.7	-30.8	12.5	1.38e-04	0	42	0	1892679680	18	4569
2026-01-11 08:44:26.51	349.66	7.47	-28.8	-31.1	12.3	1.55e-04	0	42	0	1895825408	18	4674
2026-01-11 08:44:27.51	349.58	7.41	-28.6	-30.6	12.7	1.85e-04	0	42	0	1898971136	18	4504
2026-01-11 08:44:28.52	349.49	7.34	-29.0	-31.4	12.1	1.14e-04	0	42	0	1902116864	18	4775
2026-01-11 08:44:29.52	349.41	7.27	-28.7	-30.9	12.4	1.40e-04	0	42	0	1905262592	18	4591
2026-01-11 08:44:30.54	349.32	7.21	-28.7	-30.9	12.5	1.52e-04	0	42	0	1908408320	18	4596
2026-01-11 08:44:31.54	349.24	7.14	-29.0	-31.5	12.1	1.93e-04	0	42	0	1911554048	18	4798
2026-01-11 08:44:32.55	349.15	7.07	-32.7	-43.0	3.9	3.81e-01	0	42	104	1914699776	25	11803
2026-01-11 08:44:33.56	349.07	7.01	-33.2	-45.0	3.8	1.49e+00	0	42	104	1914699776	26	14042

#Closed at: 2026-01-11 08:44:34
#Recorded file [1914 MB]: D:/data/31010_260111_113419.dat