passes_logs/2026/01/11/R2M6_AANII_01/R2M6_AANII_01__20260111_002018_NOAA_21_JPSS-2_rec.log

#Pass ID: 20260111_002018_NOAA 21 (JPSS-2)
#Satellite: NOAA 21 (JPSS-2)
#Configuration: NOAA 21
#almurnet v.1.7.20240730
#Start time: 2026-01-11 00:20:18

#Version: 2.2.20231116
#Station: R2M6_AANII_01
#Location: 30.233357 lon 59.946436 lat
#TLE: 1 54234U 22150A   26009.79679979  .00000100  00000+0  68070-4 0  9993
#TLE: 2 54234  98.7494 310.7596 0000833 322.2782  37.8335 14.19533646164071

#Time	Az	El	Level	Level2	SNR	BER	BlckErr	Temp	State	Recorded	gain1	gain2
2026-01-11 00:20:18.89	18.10	7.01	-30.9	-36.7	4.5	1.42e+00	0	39	0	0	21	7020
2026-01-11 00:20:19.90	18.11	7.09	-31.6	-38.2	4.3	1.44e+00	0	39	104	0	23	7752
2026-01-11 00:20:20.90	18.11	7.17	-31.4	-37.0	6.7	2.35e-01	0	39	0	0	22	6921
2026-01-11 00:20:21.90	18.11	7.25	-31.5	-37.2	6.2	2.57e-01	0	39	0	3145728	23	6920
2026-01-11 00:20:22.91	18.12	7.33	-31.3	-36.7	7.0	2.01e-01	0	39	0	6291456	22	6703
2026-01-11 00:20:23.91	18.12	7.40	-31.1	-35.8	7.6	1.06e-01	0	40	0	9437184	22	6208
2026-01-11 00:20:24.91	18.13	7.48	-31.2	-36.5	7.1	1.25e-01	0	40	0	12582912	22	6583
2026-01-11 00:20:25.92	18.13	7.56	-31.4	-36.9	6.9	1.61e-01	0	40	0	15728640	22	6786
2026-01-11 00:20:26.92	18.13	7.64	-31.3	-36.8	6.9	1.70e-01	0	40	0	18874368	22	6758
2026-01-11 00:20:27.93	18.14	7.72	-31.2	-36.2	7.3	1.31e-01	0	40	0	22020096	22	6409
2026-01-11 00:20:28.93	18.14	7.80	-31.1	-35.9	7.6	1.04e-01	0	40	0	24117248	22	6244
2026-01-11 00:20:29.93	18.14	7.88	-31.0	-35.7	7.8	8.70e-02	0	40	0	27262976	22	6133
2026-01-11 00:20:30.94	18.15	7.96	-31.0	-35.5	7.8	7.46e-02	0	40	0	30408704	22	6054
2026-01-11 00:20:31.95	18.15	8.04	-31.3	-36.6	7.1	1.16e-01	0	40	0	34603008	22	6623
2026-01-11 00:20:32.96	18.16	8.12	-31.0	-35.6	7.8	9.15e-02	0	40	0	37748736	22	6094
2026-01-11 00:20:33.96	18.16	8.20	-30.6	-34.6	8.8	4.28e-02	0	40	0	40894464	21	5728
2026-01-11 00:20:34.97	18.16	8.28	-30.2	-33.8	9.8	1.73e-02	0	40	0	44040192	20	5483
2026-01-11 00:20:35.98	18.17	8.36	-29.9	-33.4	10.6	5.23e-03	0	40	0	47185920	19	5389
2026-01-11 00:20:36.99	18.17	8.44	-29.5	-32.2	11.3	5.54e-03	0	40	0	49283072	19	4944
2026-01-11 00:20:37.99	18.18	8.52	-29.0	-31.6	12.1	4.72e-03	0	40	0	52428800	18	4836
2026-01-11 00:20:39.00	18.18	8.61	-28.8	-31.6	12.4	9.73e-04	0	40	0	56623104	17	4940
2026-01-11 00:20:40.00	18.18	8.69	-29.0	-31.5	12.2	5.02e-03	0	40	0	59768832	18	4796
2026-01-11 00:20:41.00	18.19	8.77	-28.9	-31.7	12.3	4.28e-03	0	40	0	62914560	17	4982
2026-01-11 00:20:42.00	18.19	8.85	-28.8	-31.5	12.5	5.41e-04	0	40	0	66060288	17	4899
2026-01-11 00:20:43.01	18.20	8.94	-28.8	-31.4	12.6	4.67e-03	0	40	0	69206016	17	4862
2026-01-11 00:20:44.02	18.20	9.02	-28.7	-31.1	12.8	3.78e-03	0	40	0	71303168	17	4771
2026-01-11 00:20:45.02	18.20	9.10	-28.7	-31.2	12.7	8.45e-04	0	40	0	74448896	17	4805
2026-01-11 00:20:46.03	18.21	9.19	-28.6	-31.0	12.8	4.30e-03	0	40	0	77594624	17	4749
2026-01-11 00:20:47.03	18.21	9.27	-28.6	-30.9	12.9	5.87e-05	0	40	0	80740352	17	4706
2026-01-11 00:20:48.04	18.21	9.36	-28.9	-31.7	12.4	1.21e-04	0	40	0	83886080	17	4965
2026-01-11 00:20:49.04	18.22	9.44	-28.5	-30.8	12.9	4.83e-03	0	40	0	87031808	17	4680
2026-01-11 00:20:50.05	18.22	9.53	-28.3	-30.7	13.4	4.11e-03	0	40	0	91226112	16	4733
2026-01-11 00:20:51.06	18.23	9.61	-28.1	-30.2	13.7	8.28e-04	0	40	0	94371840	16	4590
2026-01-11 00:20:52.06	18.23	9.70	-27.8	-30.1	13.9	2.20e-06	0	40	0	96468992	15	4674
2026-01-11 00:20:53.07	18.23	9.78	-27.9	-30.2	13.8	7.00e-07	0	40	0	99614720	15	4708
2026-01-11 00:20:54.08	18.24	9.87	-27.9	-30.2	13.8	4.50e-06	0	41	0	102760448	15	4711
2026-01-11 00:20:55.08	18.24	9.96	-27.8	-30.0	13.9	4.18e-03	0	40	0	105906176	15	4660
2026-01-11 00:20:56.09	18.25	10.04	-27.7	-29.8	14.0	4.11e-03	0	40	0	109051904	15	4594
2026-01-11 00:20:57.10	18.25	10.13	-27.9	-30.2	13.8	7.00e-07	0	40	0	113246208	15	4712
2026-01-11 00:20:58.11	18.25	10.22	-27.8	-30.0	13.9	3.80e-06	0	40	0	116391936	15	4661
2026-01-11 00:20:59.11	18.26	10.31	-27.7	-29.8	14.0	1.50e-06	0	40	0	118489088	15	4589
2026-01-11 00:21:00.12	18.26	10.40	-27.8	-29.9	14.0	3.00e-06	0	40	0	121634816	15	4626
2026-01-11 00:21:01.12	18.26	10.48	-27.7	-29.8	14.1	6.66e-04	0	40	0	124780544	15	4590
2026-01-11 00:21:02.12	18.27	10.57	-27.9	-30.2	13.9	5.30e-06	0	40	0	127926272	15	4692
2026-01-11 00:21:03.13	18.27	10.66	-27.6	-29.6	14.2	3.00e-06	0	40	0	131072000	15	4509
2026-01-11 00:21:04.13	18.28	10.75	-27.6	-29.5	14.3	0.00e+00	0	41	0	134217728	15	4491
2026-01-11 00:21:05.13	18.28	10.84	-27.7	-29.7	14.2	7.00e-07	0	41	0	137363456	15	4538
2026-01-11 00:21:06.14	18.28	10.93	-27.6	-29.6	14.2	7.00e-07	0	41	0	140509184	15	4532
2026-01-11 00:21:07.14	18.29	11.02	-27.7	-29.7	14.2	7.00e-07	0	41	0	143654912	15	4539
2026-01-11 00:21:08.15	18.29	11.11	-27.8	-29.9	14.1	7.00e-07	0	41	0	146800640	15	4622
2026-01-11 00:21:09.16	18.30	11.20	-27.6	-29.6	14.3	7.00e-07	0	41	0	149946368	15	4532
2026-01-11 00:21:10.17	18.30	11.30	-27.7	-29.8	14.2	3.00e-06	0	41	0	153092096	15	4568
2026-01-11 00:21:11.18	18.30	11.39	-27.7	-29.7	14.2	1.50e-06	0	41	0	156237824	15	4564
2026-01-11 00:21:12.19	18.31	11.48	-27.8	-29.9	14.1	1.50e-06	0	41	0	159383552	15	4619
2026-01-11 00:21:13.19	18.31	11.57	-27.8	-30.1	14.0	2.20e-06	0	41	0	162529280	15	4665
2026-01-11 00:21:14.19	18.31	11.66	-27.8	-30.1	14.0	2.20e-06	0	41	0	165675008	15	4666
2026-01-11 00:21:15.19	18.32	11.76	-27.8	-29.9	14.1	1.50e-06	0	41	0	168820736	15	4606
2026-01-11 00:21:16.19	18.32	11.85	-27.7	-29.8	14.2	7.00e-07	0	41	0	171966464	15	4584
2026-01-11 00:21:17.19	18.33	11.94	-27.7	-29.9	14.1	2.20e-06	0	41	0	175112192	15	4600
2026-01-11 00:21:18.20	18.33	12.04	-27.8	-30.1	14.0	3.00e-06	0	41	0	178257920	15	4658
2026-01-11 00:21:19.20	18.33	12.13	-27.7	-29.8	14.2	7.00e-07	0	41	0	181403648	15	4575
2026-01-11 00:21:20.20	18.34	12.23	-27.7	-29.8	14.2	7.00e-07	0	41	0	184549376	15	4567
2026-01-11 00:21:21.20	18.34	12.32	-27.8	-29.9	14.1	1.50e-06	0	41	0	187695104	15	4619
2026-01-11 00:21:22.21	18.34	12.42	-27.7	-29.8	14.2	0.00e+00	0	41	0	190840832	15	4590
2026-01-11 00:21:23.22	18.35	12.51	-27.8	-29.9	14.1	1.50e-06	0	41	0	193986560	15	4614
2026-01-11 00:21:24.23	18.35	12.61	-27.9	-30.3	13.9	1.50e-06	0	41	0	197132288	15	4748
2026-01-11 00:21:25.22	18.36	12.71	-27.8	-30.0	14.1	6.80e-06	0	41	0	200278016	15	4644
2026-01-11 00:21:26.23	18.36	12.80	-28.0	-30.4	13.9	3.80e-06	0	41	0	203423744	15	4748
2026-01-11 00:21:27.23	18.36	12.90	-28.2	-30.4	13.8	6.10e-06	0	41	0	206569472	16	4650
2026-01-11 00:21:28.24	18.37	13.00	-28.0	-30.0	14.0	1.50e-06	0	41	0	209715200	16	4512
2026-01-11 00:21:29.25	18.37	13.10	-27.9	-30.3	13.9	3.80e-06	0	41	0	212860928	15	4744
2026-01-11 00:21:30.26	18.37	13.20	-28.1	-30.2	13.9	1.50e-06	0	41	0	216006656	16	4580
2026-01-11 00:21:31.26	18.38	13.30	-27.9	-30.3	14.0	3.80e-06	0	41	0	219152384	15	4748
2026-01-11 00:21:32.27	18.38	13.40	-28.0	-30.3	14.0	3.00e-06	0	41	0	222298112	15	4738
2026-01-11 00:21:33.28	18.39	13.50	-28.2	-30.4	13.8	5.30e-06	0	41	0	225443840	16	4627
2026-01-11 00:21:34.28	18.39	13.60	-28.0	-29.9	14.1	1.50e-06	0	41	0	228589568	16	4490
2026-01-11 00:21:35.29	18.39	13.70	-27.9	-30.2	14.1	1.50e-06	0	41	0	231735296	15	4688
2026-01-11 00:21:36.29	18.40	13.80	-27.8	-30.0	14.1	7.00e-07	0	41	0	234881024	15	4644
2026-01-11 00:21:37.30	18.40	13.90	-27.6	-29.4	14.5	7.00e-07	0	41	0	238026752	15	4448
2026-01-11 00:21:38.30	18.40	14.00	-27.4	-29.1	14.7	0.00e+00	0	41	0	241172480	15	4365
2026-01-11 00:21:39.31	18.41	14.11	-27.3	-29.4	14.9	0.00e+00	0	41	0	244318208	14	4558
2026-01-11 00:21:40.31	18.41	14.21	-26.6	-28.8	14.6	0.00e+00	0	41	0	247463936	14	4628
2026-01-11 00:21:41.32	18.42	14.31	-27.5	-29.2	14.5	7.00e-07	0	41	0	250609664	15	4395
2026-01-11 00:21:42.32	18.42	14.42	-27.4	-29.5	12.8	0.00e+00	0	41	0	253755392	14	4597
2026-01-11 00:21:43.33	18.42	14.52	-27.4	-29.5	14.3	0.00e+00	0	41	0	256901120	14	4599
2026-01-11 00:21:44.33	18.43	14.63	-27.4	-29.5	14.8	0.00e+00	0	41	0	260046848	14	4582
2026-01-11 00:21:45.34	18.43	14.73	-27.3	-29.4	14.9	0.00e+00	0	41	0	263192576	14	4561
2026-01-11 00:21:46.34	18.43	14.84	-27.4	-29.6	14.8	0.00e+00	0	41	0	266338304	14	4613
2026-01-11 00:21:47.35	18.44	14.94	-27.4	-29.6	14.7	0.00e+00	0	41	0	269484032	14	4613
2026-01-11 00:21:48.36	18.44	15.05	-27.6	-29.6	14.5	3.59e-03	0	41	0	272629760	15	4510
2026-01-11 00:21:49.37	18.44	15.16	-27.7	-29.8	14.4	3.99e-03	0	41	0	275775488	15	4552
2026-01-11 00:21:50.38	18.45	15.27	-27.5	-29.3	14.7	0.00e+00	0	41	0	278921216	15	4415
2026-01-11 00:21:51.38	18.45	15.37	-27.5	-29.3	14.7	7.00e-07	0	41	0	282066944	15	4409
2026-01-11 00:21:52.39	18.46	15.48	-27.5	-29.7	14.7	2.26e-03	0	41	0	285212672	14	4639
2026-01-11 00:21:53.39	18.46	15.59	-27.5	-29.2	14.7	8.12e-04	0	41	0	288358400	15	4379
2026-01-11 00:21:54.39	18.46	15.70	-27.5	-29.7	14.8	4.47e-03	0	41	0	291504128	14	4638
2026-01-11 00:21:55.40	18.47	15.81	-27.5	-29.2	14.7	3.58e-03	0	41	0	294649856	15	4380
2026-01-11 00:21:56.40	18.47	15.92	-27.6	-29.5	14.6	7.00e-07	0	41	0	297795584	15	4466
2026-01-11 00:21:57.40	18.47	16.03	-27.6	-29.6	14.5	3.58e-03	0	41	0	300941312	15	4493
2026-01-11 00:21:58.40	18.48	16.14	-27.5	-29.2	14.8	4.06e-03	0	41	0	304087040	15	4374
2026-01-11 00:21:59.41	18.48	16.25	-27.3	-29.3	15.0	7.75e-04	0	41	0	307232768	14	4515
2026-01-11 00:22:00.42	18.48	16.37	-27.3	-29.2	15.1	4.59e-03	0	41	0	310378496	14	4504
2026-01-11 00:22:01.42	18.49	16.48	-27.4	-29.4	14.9	3.97e-03	0	41	0	313524224	14	4565
2026-01-11 00:22:02.43	18.49	16.59	-27.4	-29.4	14.9	2.32e-04	0	41	0	316669952	14	4569
2026-01-11 00:22:03.44	18.50	16.71	-27.4	-29.4	14.9	4.43e-03	0	41	0	319815680	14	4562
2026-01-11 00:22:04.45	18.50	16.82	-27.4	-29.4	14.9	3.70e-03	0	41	0	322961408	14	4564
2026-01-11 00:22:05.45	18.50	16.94	-27.5	-29.2	14.8	7.55e-04	0	41	0	326107136	15	4390
2026-01-11 00:22:06.46	18.51	17.06	-27.3	-29.4	15.0	4.17e-03	0	41	0	329252864	14	4538
2026-01-11 00:22:07.47	18.51	17.17	-27.3	-29.3	15.0	0.00e+00	0	41	0	332398592	14	4524
2026-01-11 00:22:08.48	18.51	17.29	-27.5	-29.2	14.8	6.67e-04	0	41	0	335544320	15	4384
2026-01-11 00:22:09.48	18.52	17.41	-27.6	-29.5	14.7	4.52e-03	0	41	0	338690048	15	4463
2026-01-11 00:22:10.49	18.52	17.52	-27.6	-29.5	14.7	3.88e-03	0	41	0	341835776	15	4464
2026-01-11 00:22:11.49	18.52	17.64	-27.6	-29.4	14.7	6.09e-04	0	41	0	344981504	15	4428
2026-01-11 00:22:12.50	18.53	17.76	-27.6	-29.5	14.7	4.61e-04	0	41	0	348127232	15	4463
2026-01-11 00:22:13.51	18.53	17.88	-27.7	-29.7	14.6	0.00e+00	0	41	0	351272960	15	4519
2026-01-11 00:22:14.51	18.53	18.00	-27.7	-29.7	14.5	6.02e-04	0	42	0	354418688	15	4523
2026-01-11 00:22:15.52	18.54	18.12	-27.8	-29.8	14.5	4.04e-03	0	41	0	357564416	15	4555
2026-01-11 00:22:16.52	18.54	18.25	-27.8	-30.0	14.4	4.08e-03	0	41	0	360710144	15	4610
2026-01-11 00:22:17.53	18.55	18.37	-27.9	-30.0	14.4	3.67e-04	0	42	0	363855872	15	4628
2026-01-11 00:22:18.53	18.55	18.49	-27.9	-30.1	14.3	7.00e-07	0	41	0	367001600	15	4652
2026-01-11 00:22:19.54	18.55	18.61	-27.7	-29.7	14.6	0.00e+00	0	41	0	370147328	15	4514
2026-01-11 00:22:20.55	18.56	18.74	-27.5	-29.2	14.9	1.50e-06	0	41	0	373293056	15	4379
2026-01-11 00:22:21.56	18.56	18.86	-27.3	-29.2	15.1	4.24e-04	0	41	0	376438784	14	4495
2026-01-11 00:22:22.56	18.56	18.99	-27.3	-29.3	15.1	0.00e+00	0	41	0	379584512	14	4522
2026-01-11 00:22:23.57	18.57	19.11	-27.4	-29.4	15.1	0.00e+00	0	41	0	382730240	14	4541
2026-01-11 00:22:24.57	18.57	19.24	-27.3	-29.3	15.1	0.00e+00	0	42	0	385875968	14	4521
2026-01-11 00:22:25.57	18.57	19.37	-27.4	-29.4	15.1	0.00e+00	0	42	0	389021696	14	4540
2026-01-11 00:22:26.58	18.58	19.50	-27.4	-29.6	15.0	4.97e-04	0	41	0	392167424	14	4590
2026-01-11 00:22:27.59	18.58	19.62	-27.7	-29.6	14.7	0.00e+00	0	41	0	395313152	15	4494
2026-01-11 00:22:28.59	18.58	19.75	-27.6	-29.4	14.8	0.00e+00	0	41	0	398458880	15	4435
2026-01-11 00:22:29.60	18.59	19.88	-27.3	-29.3	15.1	0.00e+00	0	42	0	401604608	14	4514
2026-01-11 00:22:30.61	18.59	20.02	-27.3	-29.2	15.2	0.00e+00	0	42	0	404750336	14	4480
2026-01-11 00:22:31.61	18.59	20.15	-27.4	-29.4	15.1	0.00e+00	0	41	0	407896064	14	4542
2026-01-11 00:22:32.62	18.60	20.28	-27.4	-29.4	15.1	0.00e+00	0	41	0	411041792	14	4558
2026-01-11 00:22:33.62	18.60	20.41	-27.3	-29.3	15.1	0.00e+00	0	42	0	414187520	14	4524
2026-01-11 00:22:34.63	18.60	20.54	-27.1	-28.8	15.4	0.00e+00	0	41	0	417333248	14	4370
2026-01-11 00:22:35.63	18.61	20.68	-27.2	-28.9	15.4	0.00e+00	0	41	0	420478976	14	4410
2026-01-11 00:22:36.64	18.61	20.81	-27.1	-28.8	15.4	0.00e+00	0	42	0	423624704	14	4358
2026-01-11 00:22:37.64	18.62	20.95	-27.2	-29.1	15.3	0.00e+00	0	42	0	426770432	14	4445
2026-01-11 00:22:38.65	18.62	21.08	-27.1	-28.7	15.5	0.00e+00	0	41	0	429916160	14	4351
2026-01-11 00:22:39.65	18.62	21.22	-26.8	-28.1	15.8	0.00e+00	0	41	0	433061888	14	4169
2026-01-11 00:22:40.66	18.63	21.36	-26.6	-28.2	16.0	0.00e+00	0	41	0	436207616	13	4310
2026-01-11 00:22:41.67	18.63	21.50	-26.7	-28.3	15.9	0.00e+00	0	42	0	439353344	13	4350
2026-01-11 00:22:42.67	18.63	21.64	-26.8	-28.5	15.9	0.00e+00	0	42	0	442499072	13	4407
2026-01-11 00:22:43.68	18.64	21.78	-26.8	-28.7	15.8	0.00e+00	0	42	0	445644800	13	4448
2026-01-11 00:22:44.69	18.64	21.92	-26.7	-28.4	15.9	0.00e+00	0	41	0	448790528	13	4367
2026-01-11 00:22:45.70	18.64	22.06	-26.6	-28.2	16.0	0.00e+00	0	42	0	451936256	13	4324
2026-01-11 00:22:46.70	18.65	22.20	-26.6	-28.1	16.1	0.00e+00	0	41	0	455081984	13	4288
2026-01-11 00:22:47.71	18.65	22.35	-26.6	-28.2	16.1	0.00e+00	0	42	0	458227712	13	4309
2026-01-11 00:22:48.72	18.65	22.49	-26.8	-28.5	15.9	0.00e+00	0	41	0	461373440	13	4405
2026-01-11 00:22:49.72	18.66	22.64	-26.7	-28.4	15.9	0.00e+00	0	42	0	464519168	13	4366
2026-01-11 00:22:50.72	18.66	22.78	-26.5	-28.0	16.2	0.00e+00	0	42	0	467664896	13	4256
2026-01-11 00:22:51.73	18.66	22.93	-26.5	-28.0	16.2	0.00e+00	0	42	0	470810624	13	4262
2026-01-11 00:22:52.74	18.67	23.08	-26.5	-27.9	16.2	0.00e+00	0	42	0	473956352	13	4239
2026-01-11 00:22:53.75	18.67	23.23	-26.5	-27.9	16.2	0.00e+00	0	41	0	477102080	13	4245
2026-01-11 00:22:54.75	18.67	23.37	-26.5	-27.8	16.3	0.00e+00	0	42	0	480247808	13	4215
2026-01-11 00:22:55.75	18.68	23.52	-26.4	-28.3	16.3	0.00e+00	0	42	0	483393536	12	4449
2026-01-11 00:22:56.76	18.68	23.67	-26.4	-28.2	16.4	0.00e+00	0	42	0	486539264	12	4420
2026-01-11 00:22:57.76	18.68	23.82	-26.6	-28.1	16.1	0.00e+00	0	42	0	489684992	13	4299
2026-01-11 00:22:58.77	18.69	23.98	-26.8	-28.6	15.9	0.00e+00	0	42	0	492830720	13	4418
2026-01-11 00:22:59.77	18.69	24.13	-26.8	-28.5	15.9	0.00e+00	0	42	0	495976448	13	4401
2026-01-11 00:23:00.78	18.69	24.29	-26.5	-27.9	16.2	0.00e+00	0	41	0	499122176	13	4238
2026-01-11 00:23:01.79	18.70	24.44	-26.3	-27.6	16.5	0.00e+00	0	41	0	502267904	13	4143
2026-01-11 00:23:02.79	18.70	24.60	-26.5	-27.8	16.3	0.00e+00	0	41	0	505413632	13	4208
2026-01-11 00:23:03.80	18.70	24.76	-26.5	-28.0	16.2	3.78e-03	0	41	0	508559360	13	4247
2026-01-11 00:23:04.80	18.71	24.91	-26.8	-28.5	16.0	0.00e+00	0	42	0	511705088	13	4387
2026-01-11 00:23:05.81	18.71	25.07	-26.7	-28.4	16.0	0.00e+00	0	42	0	514850816	13	4377
2026-01-11 00:23:06.82	18.71	25.23	-26.7	-28.4	16.0	0.00e+00	0	42	0	517996544	13	4358
2026-01-11 00:23:07.82	18.72	25.39	-26.8	-28.7	15.9	0.00e+00	0	42	0	521142272	13	4439
2026-01-11 00:23:08.83	18.72	25.56	-26.8	-28.5	15.7	3.39e-03	0	42	0	524288000	13	4393
2026-01-11 00:23:09.84	18.72	25.72	-27.0	-29.0	15.7	0.00e+00	0	42	0	527433728	13	4523
2026-01-11 00:23:10.84	18.72	25.88	-27.0	-28.5	15.5	0.00e+00	0	42	0	530579456	14	4284
2026-01-11 00:23:11.85	18.73	26.05	-26.8	-28.6	15.9	0.00e+00	0	42	0	533725184	13	4418
2026-01-11 00:23:12.85	18.73	26.21	-27.0	-28.9	15.8	0.00e+00	0	42	0	536870912	13	4517
2026-01-11 00:23:13.86	18.73	26.38	-27.0	-28.6	15.7	7.00e-07	0	42	0	540016640	14	4294
2026-01-11 00:23:14.86	18.74	26.55	-26.9	-28.3	15.9	3.98e-03	0	41	0	543162368	14	4218
2026-01-11 00:23:15.87	18.74	26.72	-26.9	-28.7	15.9	3.37e-03	0	42	0	546308096	13	4437
2026-01-11 00:23:16.87	18.74	26.89	-26.8	-28.7	15.9	0.00e+00	0	42	0	549453824	13	4434
2026-01-11 00:23:17.88	18.75	27.06	-26.9	-28.8	15.8	0.00e+00	0	42	0	552599552	13	4476
2026-01-11 00:23:18.89	18.75	27.23	-26.9	-28.8	15.8	3.76e-03	0	42	0	555745280	13	4485
2026-01-11 00:23:19.89	18.75	27.41	-27.1	-28.6	15.7	3.35e-05	0	42	0	558891008	14	4311
2026-01-11 00:23:20.90	18.76	27.58	-27.2	-29.0	15.5	3.83e-03	0	42	0	562036736	14	4407
2026-01-11 00:23:21.90	18.76	27.76	-27.2	-28.9	15.5	3.81e-03	0	42	0	565182464	14	4390
2026-01-11 00:23:22.91	18.76	27.94	-27.3	-29.3	15.4	0.00e+00	0	42	0	568328192	14	4493
2026-01-11 00:23:23.91	18.77	28.11	-27.2	-29.0	15.5	3.82e-03	0	42	0	571473920	14	4425
2026-01-11 00:23:24.92	18.77	28.29	-27.2	-29.0	15.5	3.40e-03	0	42	0	574619648	14	4413
2026-01-11 00:23:25.92	18.77	28.47	-27.4	-29.3	15.3	1.41e-04	0	42	0	577765376	14	4506
2026-01-11 00:23:26.93	18.77	28.65	-27.4	-29.4	15.3	3.51e-03	0	42	0	580911104	14	4521
2026-01-11 00:23:27.93	18.78	28.84	-27.4	-29.5	15.3	3.61e-03	0	42	0	584056832	14	4552
2026-01-11 00:23:28.94	18.78	29.02	-27.7	-29.5	15.0	6.33e-05	0	42	0	587202560	15	4439
2026-01-11 00:23:29.94	18.78	29.21	-27.7	-29.7	14.9	3.49e-03	0	42	0	590348288	15	4497
2026-01-11 00:23:30.95	18.79	29.39	-27.9	-30.0	14.7	3.50e-03	0	42	0	593494016	15	4584
2026-01-11 00:23:31.95	18.79	29.58	-28.3	-30.4	14.3	6.40e-05	0	42	0	596639744	16	4596
2026-01-11 00:23:32.96	18.79	29.77	-27.8	-29.8	14.8	5.11e-05	0	42	0	599785472	15	4521
2026-01-11 00:23:33.97	18.80	29.96	-27.6	-29.4	15.0	0.00e+00	0	42	0	602931200	15	4404
2026-01-11 00:23:34.97	18.80	30.15	-27.5	-29.1	15.2	3.80e-06	0	42	0	606076928	15	4340
2026-01-11 00:23:35.98	18.80	30.34	-27.5	-29.0	15.2	2.97e-03	0	42	0	609222656	15	4317
2026-01-11 00:23:36.99	18.80	30.54	-27.5	-29.2	15.2	3.23e-03	0	42	0	612368384	15	4370
2026-01-11 00:23:38.00	18.81	30.74	-27.4	-28.9	15.3	1.22e-05	0	42	0	615514112	15	4266
2026-01-11 00:23:39.00	18.81	30.93	-27.2	-29.0	15.6	0.00e+00	0	42	0	618659840	14	4424
2026-01-11 00:23:40.01	18.81	31.13	-27.3	-29.1	15.5	0.00e+00	0	42	0	621805568	14	4436
2026-01-11 00:23:41.01	18.82	31.33	-27.0	-28.6	15.8	1.44e-05	0	42	0	624951296	14	4295
2026-01-11 00:23:42.01	18.82	31.53	-26.9	-28.3	16.0	3.42e-03	0	42	0	628097024	14	4216
2026-01-11 00:23:43.02	18.82	31.73	-26.9	-28.8	15.9	0.00e+00	0	42	0	631242752	13	4474
2026-01-11 00:23:44.03	18.82	31.94	-26.9	-28.7	16.0	0.00e+00	0	42	0	634388480	13	4439
2026-01-11 00:23:45.04	18.83	32.14	-26.8	-28.6	16.1	0.00e+00	0	42	0	637534208	13	4405
2026-01-11 00:23:46.04	18.83	32.35	-27.0	-28.9	15.9	0.00e+00	0	42	0	640679936	13	4497
2026-01-11 00:23:47.05	18.83	32.56	-27.0	-29.0	15.8	0.00e+00	0	42	0	643825664	13	4512
2026-01-11 00:23:48.05	18.84	32.76	-27.2	-28.8	15.7	0.00e+00	0	42	0	646971392	14	4370
2026-01-11 00:23:49.06	18.84	32.98	-27.3	-29.2	15.5	0.00e+00	0	42	0	650117120	14	4476
2026-01-11 00:23:50.06	18.84	33.19	-27.3	-29.1	15.5	0.00e+00	0	42	0	653262848	14	4453
2026-01-11 00:23:51.07	18.84	33.40	-27.6	-29.3	15.1	0.00e+00	0	42	0	656408576	15	4378
2026-01-11 00:23:52.08	18.85	33.62	-27.7	-29.6	15.0	0.00e+00	0	42	0	659554304	15	4468
2026-01-11 00:23:53.09	18.85	33.84	-27.6	-29.4	15.1	2.21e-05	0	42	0	662700032	15	4427
2026-01-11 00:23:54.09	18.85	34.05	-27.8	-29.8	14.9	0.00e+00	0	42	0	665845760	15	4541
2026-01-11 00:23:55.10	18.85	34.27	-27.8	-29.8	14.9	0.00e+00	0	42	0	668991488	15	4536
2026-01-11 00:23:56.10	18.86	34.49	-27.9	-29.9	14.8	0.00e+00	0	42	0	672137216	15	4564
2026-01-11 00:23:57.10	18.86	34.72	-27.8	-29.9	14.8	0.00e+00	0	42	0	675282944	15	4546
2026-01-11 00:23:58.11	18.86	34.94	-28.3	-30.3	14.5	0.00e+00	0	42	0	678428672	16	4561
2026-01-11 00:23:59.11	18.87	35.17	-28.2	-30.1	14.6	1.50e-06	0	42	0	681574400	16	4496
2026-01-11 00:24:00.11	18.87	35.39	-28.4	-30.6	14.3	0.00e+00	0	42	0	684720128	16	4653
2026-01-11 00:24:01.11	18.87	35.62	-28.2	-30.2	14.5	0.00e+00	0	42	0	687865856	16	4533
2026-01-11 00:24:02.11	18.87	35.85	-28.2	-30.2	14.6	0.00e+00	0	42	0	691011584	16	4514
2026-01-11 00:24:03.12	18.88	36.09	-28.3	-30.3	14.5	0.00e+00	0	42	0	694157312	16	4551
2026-01-11 00:24:04.12	18.88	36.32	-28.4	-30.6	14.3	0.00e+00	0	42	0	697303040	16	4656
2026-01-11 00:24:05.13	18.88	36.56	-28.5	-30.3	14.2	2.20e-06	0	42	0	700448768	17	4449
2026-01-11 00:24:06.13	18.88	36.79	-28.6	-30.7	14.0	3.80e-06	0	42	0	703594496	17	4574
2026-01-11 00:24:07.13	18.89	37.03	-28.8	-31.2	13.7	4.50e-06	0	42	0	706740224	17	4713
2026-01-11 00:24:08.14	18.89	37.27	-28.9	-31.4	13.5	1.22e-05	0	42	0	709885952	17	4801
2026-01-11 00:24:09.14	18.89	37.52	-29.0	-31.1	13.5	9.90e-06	0	42	0	713031680	18	4566
2026-01-11 00:24:10.14	18.89	37.76	-29.0	-31.1	13.5	1.75e-05	0	42	0	716177408	18	4593
2026-01-11 00:24:11.15	18.89	38.01	-29.2	-31.5	13.2	1.75e-05	0	42	0	719323136	18	4701
2026-01-11 00:24:12.15	18.90	38.26	-29.0	-31.0	13.5	1.37e-05	0	42	0	722468864	18	4551
2026-01-11 00:24:13.16	18.90	38.51	-28.9	-31.3	13.6	3.80e-06	0	42	0	725614592	17	4744
2026-01-11 00:24:14.16	18.90	38.76	-28.9	-31.4	13.6	7.60e-06	0	42	0	728760320	17	4775
2026-01-11 00:24:15.17	18.90	39.02	-29.1	-31.3	13.4	1.83e-05	0	42	0	731906048	18	4639
2026-01-11 00:24:16.17	18.91	39.27	-29.1	-31.4	13.3	2.36e-05	0	42	0	735051776	18	4676
2026-01-11 00:24:17.17	18.91	39.53	-28.8	-30.6	13.8	1.06e-05	0	42	0	738197504	18	4408
2026-01-11 00:24:18.18	18.91	39.79	-28.7	-30.9	13.9	1.50e-06	0	42	0	741343232	17	4630
2026-01-11 00:24:19.18	18.91	40.05	-28.6	-30.6	14.1	7.00e-07	0	42	0	744488960	17	4520
2026-01-11 00:24:20.19	18.91	40.31	-28.5	-30.3	14.3	0.00e+00	0	42	0	747634688	17	4433
2026-01-11 00:24:21.20	18.92	40.58	-28.4	-30.2	14.3	1.50e-06	0	42	0	750780416	17	4405
2026-01-11 00:24:22.21	18.92	40.85	-28.5	-30.5	14.1	2.20e-06	0	42	0	753926144	17	4493
2026-01-11 00:24:23.22	18.92	41.12	-28.4	-30.1	14.3	7.00e-07	0	42	0	757071872	17	4384
2026-01-11 00:24:24.22	18.92	41.39	-28.3	-30.3	14.5	7.00e-07	0	42	0	760217600	16	4560
2026-01-11 00:24:25.22	18.92	41.67	-28.5	-30.4	14.3	4.50e-06	0	42	0	763363328	17	4462
2026-01-11 00:24:26.23	18.93	41.94	-28.5	-30.5	14.1	2.20e-06	0	42	0	766509056	17	4485
2026-01-11 00:24:27.24	18.93	42.22	-28.9	-31.2	13.7	0.00e+00	0	42	0	769654784	17	4728
2026-01-11 00:24:28.25	18.93	42.51	-29.2	-31.5	13.3	1.22e-05	0	42	0	772800512	18	4687
2026-01-11 00:24:29.25	18.93	42.79	-29.4	-32.1	12.9	4.42e-05	0	42	0	775946240	18	4898
2026-01-11 00:24:30.26	18.93	43.07	-29.2	-31.8	12.3	1.82e-04	0	42	0	779091968	19	4891
2026-01-11 00:24:31.27	18.94	43.36	-29.8	-32.6	12.3	1.74e-04	0	42	0	782237696	19	4949
2026-01-11 00:24:32.27	18.94	43.65	-30.0	-33.1	11.4	3.17e-04	0	42	0	785383424	19	5151
2026-01-11 00:24:33.28	18.94	43.94	-29.8	-32.4	11.9	1.62e-04	0	42	0	788529152	19	4910
2026-01-11 00:24:34.29	18.94	44.24	-29.6	-32.1	12.6	1.10e-04	0	42	0	791674880	19	4778
2026-01-11 00:24:35.30	18.94	44.53	-29.6	-32.0	12.7	2.27e-03	0	42	0	794820608	19	4743
2026-01-11 00:24:36.30	18.94	44.83	-29.5	-32.2	12.8	7.24e-05	0	42	0	797966336	18	4947
2026-01-11 00:24:37.31	18.95	45.13	-29.3	-31.2	13.2	3.05e-05	0	42	0	801112064	19	4504
2026-01-11 00:24:38.31	18.95	45.43	-29.2	-31.1	13.2	2.89e-05	0	42	0	804257792	19	4472
2026-01-11 00:24:39.32	18.95	45.74	-29.4	-32.1	12.9	1.77e-03	0	42	0	807403520	18	4880
2026-01-11 00:24:40.32	18.95	46.04	-29.6	-32.0	12.7	9.15e-05	0	42	0	810549248	19	4734
2026-01-11 00:24:41.32	18.95	46.35	-29.4	-31.6	12.8	4.80e-05	0	42	0	813694976	19	4609
2026-01-11 00:24:42.33	18.95	46.67	-29.4	-32.1	12.9	5.18e-05	0	42	0	816840704	18	4895
2026-01-11 00:24:43.33	18.95	46.98	-29.6	-32.0	12.6	9.68e-05	0	42	0	819986432	19	4759
2026-01-11 00:24:44.34	18.95	47.30	-29.4	-31.6	12.8	1.28e-03	0	42	0	823132160	19	4634
2026-01-11 00:24:45.34	18.96	47.61	-29.3	-31.7	13.1	1.58e-03	0	42	0	826277888	18	4758
2026-01-11 00:24:46.35	18.96	47.94	-29.1	-31.4	13.3	2.44e-05	0	42	0	829423616	18	4679
2026-01-11 00:24:47.36	18.96	48.26	-28.8	-31.1	13.8	1.63e-03	0	42	0	832569344	17	4689
2026-01-11 00:24:48.36	18.96	48.59	-28.6	-30.7	14.1	2.20e-06	0	42	0	835715072	17	4556
2026-01-11 00:24:49.37	18.96	48.92	-28.6	-30.5	14.2	2.20e-06	0	42	0	838860800	17	4494
2026-01-11 00:24:50.38	18.96	49.25	-28.4	-30.6	14.4	8.60e-04	0	42	0	842006528	16	4652
2026-01-11 00:24:51.38	18.96	49.58	-28.3	-30.3	14.5	7.51e-04	0	42	0	845152256	16	4556
2026-01-11 00:24:52.39	18.96	49.92	-28.4	-30.6	14.4	0.00e+00	0	42	0	848297984	16	4621
2026-01-11 00:24:53.40	18.96	50.26	-28.5	-30.2	14.3	8.01e-04	0	42	0	851443712	17	4414
2026-01-11 00:24:54.40	18.96	50.60	-28.1	-30.0	14.8	8.43e-04	0	42	0	854589440	16	4452
2026-01-11 00:24:55.41	18.96	50.95	-28.0	-29.7	14.9	0.00e+00	0	42	0	857735168	16	4371
2026-01-11 00:24:56.42	18.96	51.29	-27.9	-29.4	15.0	6.61e-04	0	42	0	860880896	16	4298
2026-01-11 00:24:57.42	18.96	51.64	-27.8	-29.7	15.0	7.00e-04	0	42	0	864026624	15	4492
2026-01-11 00:24:58.43	18.96	51.99	-28.2	-30.1	14.8	0.00e+00	0	42	0	867172352	16	4475
2026-01-11 00:24:59.44	18.96	52.35	-28.0	-29.8	14.9	0.00e+00	0	42	0	870318080	16	4387
2026-01-11 00:25:00.45	18.96	52.71	-27.8	-29.7	15.0	0.00e+00	0	42	0	873463808	15	4502
2026-01-11 00:25:01.45	18.96	53.07	-27.7	-29.6	15.1	0.00e+00	0	42	0	876609536	15	4478
2026-01-11 00:25:02.44	18.96	53.42	-27.9	-29.9	14.9	4.48e-04	0	42	0	879755264	15	4566
2026-01-11 00:25:03.45	18.96	53.79	-28.1	-30.0	14.8	4.57e-04	0	42	0	882900992	16	4463
2026-01-11 00:25:04.46	18.96	54.16	-28.1	-29.8	14.8	7.00e-07	0	42	0	886046720	16	4418
2026-01-11 00:25:05.47	18.96	54.53	-28.1	-29.9	14.8	0.00e+00	0	42	0	889192448	16	4440
2026-01-11 00:25:06.47	18.96	54.90	-28.1	-30.0	14.7	4.52e-04	0	42	0	892338176	16	4459
2026-01-11 00:25:07.48	18.96	55.28	-27.6	-28.9	15.3	0.00e+00	0	42	0	895483904	16	4161
2026-01-11 00:25:08.49	18.96	55.66	-27.4	-28.3	15.7	2.49e-04	0	42	0	898629632	16	3997
2026-01-11 00:25:09.49	18.96	56.04	-27.0	-28.0	16.0	0.00e+00	0	42	0	901775360	15	4030
2026-01-11 00:25:10.50	18.96	56.42	-27.1	-28.3	15.8	0.00e+00	0	42	0	904921088	15	4105
2026-01-11 00:25:11.51	18.96	56.81	-27.2	-28.3	15.8	0.00e+00	0	42	0	908066816	15	4111
2026-01-11 00:25:12.51	18.96	57.20	-27.2	-28.4	15.8	0.00e+00	0	42	0	911212544	15	4136
2026-01-11 00:25:13.52	18.96	57.59	-27.4	-28.9	15.5	0.00e+00	0	42	0	914358272	15	4281
2026-01-11 00:25:14.53	18.95	57.99	-27.5	-29.2	15.3	0.00e+00	0	42	0	917504000	15	4353
2026-01-11 00:25:15.53	18.95	58.38	-27.6	-29.4	15.2	0.00e+00	0	42	0	920649728	15	4408
2026-01-11 00:25:16.54	18.95	58.78	-27.3	-28.6	15.6	0.00e+00	0	42	0	923795456	15	4194
2026-01-11 00:25:17.54	18.95	59.18	-27.1	-28.1	15.9	0.00e+00	0	42	0	926941184	15	4051
2026-01-11 00:25:18.55	18.95	59.59	-27.2	-28.4	15.8	0.00e+00	0	42	0	930086912	15	4121
2026-01-11 00:25:19.55	18.94	59.99	-27.1	-28.1	15.9	0.00e+00	0	42	0	933232640	15	4069
2026-01-11 00:25:20.56	18.94	60.41	-26.8	-27.6	16.2	0.00e+00	0	42	0	936378368	15	3921
2026-01-11 00:25:21.57	18.94	60.82	-26.6	-27.5	16.5	0.00e+00	0	42	0	939524096	14	4015
2026-01-11 00:25:22.57	18.93	61.23	-26.6	-27.5	16.6	0.00e+00	0	42	0	942669824	14	3998
2026-01-11 00:25:23.58	18.93	61.65	-26.5	-27.4	16.6	0.00e+00	0	42	0	945815552	14	3991
2026-01-11 00:25:24.58	18.93	62.07	-26.5	-27.3	16.6	0.00e+00	0	42	0	948961280	14	3950
2026-01-11 00:25:25.59	18.92	62.50	-26.1	-27.0	17.0	0.00e+00	0	42	0	952107008	13	3986
2026-01-11 00:25:26.60	18.92	62.93	-26.1	-27.0	17.0	7.00e-07	0	42	0	955252736	13	3995
2026-01-11 00:25:27.60	18.91	63.35	-26.2	-27.1	16.9	0.00e+00	0	42	0	958398464	13	4022
2026-01-11 00:25:28.60	18.91	63.78	-26.3	-27.4	16.8	0.00e+00	0	42	0	961544192	13	4090
2026-01-11 00:25:29.60	18.90	64.21	-26.4	-27.7	16.6	0.00e+00	0	42	0	964689920	13	4176
2026-01-11 00:25:30.61	18.90	64.65	-26.4	-27.7	16.7	0.00e+00	0	42	0	967835648	13	4166
2026-01-11 00:25:31.61	18.89	65.09	-26.4	-27.6	16.7	0.00e+00	0	42	0	970981376	13	4135
2026-01-11 00:25:32.61	18.89	65.53	-25.8	-26.8	17.4	2.20e-06	0	42	0	974127104	12	4035
2026-01-11 00:25:33.61	18.88	65.97	-25.7	-27.0	17.6	0.00e+00	0	42	0	977272832	11	4195
2026-01-11 00:25:34.62	18.87	66.42	-25.8	-27.3	17.5	0.00e+00	0	42	0	980418560	11	4268
2026-01-11 00:25:35.63	18.87	66.87	-25.9	-27.6	17.3	0.00e+00	0	42	0	983564288	11	4353
2026-01-11 00:25:36.63	18.86	67.32	-26.0	-27.3	17.1	0.00e+00	0	42	0	986710016	12	4174
2026-01-11 00:25:37.64	18.85	67.77	-26.0	-27.2	17.2	0.00e+00	0	42	0	989855744	12	4137
2026-01-11 00:25:38.64	18.84	68.23	-26.2	-27.8	16.9	0.00e+00	0	42	0	993001472	12	4300
2026-01-11 00:25:39.65	18.83	68.69	-26.1	-27.5	17.0	0.00e+00	0	42	0	996147200	12	4212
2026-01-11 00:25:40.66	18.82	69.15	-25.9	-27.0	17.3	0.00e+00	0	42	0	999292928	12	4085
2026-01-11 00:25:41.67	18.81	69.62	-25.6	-26.9	17.6	0.00e+00	0	42	0	1002438656	11	4177
2026-01-11 00:25:42.67	18.80	70.08	-25.4	-26.4	17.9	0.00e+00	0	42	0	1005584384	11	4043
2026-01-11 00:25:43.68	18.79	70.55	-25.3	-26.2	18.0	0.00e+00	0	42	0	1008730112	11	3986
2026-01-11 00:25:44.69	18.77	71.02	-25.4	-26.5	17.8	0.00e+00	0	42	0	1011875840	11	4077
2026-01-11 00:25:45.70	18.76	71.50	-25.5	-26.6	17.8	0.00e+00	0	42	0	1015021568	11	4093
2026-01-11 00:25:46.70	18.74	71.97	-25.4	-26.4	17.9	0.00e+00	0	42	0	1018167296	11	4037
2026-01-11 00:25:47.71	18.73	72.45	-25.5	-26.7	17.7	0.00e+00	0	42	0	1021313024	11	4125
2026-01-11 00:25:48.71	18.71	72.92	-25.6	-26.9	17.6	0.00e+00	0	42	0	1024458752	11	4165
2026-01-11 00:25:49.72	18.69	73.41	-25.7	-27.2	17.5	0.00e+00	0	42	0	1027604480	11	4240
2026-01-11 00:25:50.73	18.67	73.89	-26.0	-27.2	17.2	0.00e+00	0	42	0	1030750208	12	4149
2026-01-11 00:25:51.74	18.65	74.38	-26.0	-27.2	17.1	0.00e+00	0	42	0	1033895936	12	4156
2026-01-11 00:25:52.75	18.62	74.87	-25.8	-27.2	15.7	0.00e+00	0	42	0	1037041664	11	4242
2026-01-11 00:25:53.75	18.60	75.35	-26.0	-27.6	14.8	0.00e+00	0	42	0	1040187392	11	4369
2026-01-11 00:25:54.76	18.57	75.85	-26.6	-28.0	16.5	0.00e+00	0	42	0	1043333120	13	4245
2026-01-11 00:25:55.76	18.54	76.34	-26.6	-28.1	16.4	2.35e-03	0	42	0	1046478848	13	4275
2026-01-11 00:25:56.77	18.51	76.83	-26.6	-28.1	16.4	0.00e+00	0	42	0	1049624576	13	4271
2026-01-11 00:25:57.78	18.47	77.33	-26.3	-27.4	16.8	0.00e+00	0	42	0	1052770304	13	4081
2026-01-11 00:25:58.79	18.43	77.83	-26.6	-28.0	16.5	0.00e+00	0	42	0	1055916032	13	4231
2026-01-11 00:25:59.80	18.39	78.33	-26.8	-28.6	16.2	0.00e+00	0	42	0	1059061760	13	4394
2026-01-11 00:26:00.80	18.34	78.83	-27.1	-28.6	16.0	0.00e+00	0	42	0	1062207488	14	4278
2026-01-11 00:26:01.81	18.29	79.33	-27.5	-29.1	15.3	1.55e-03	0	42	0	1065353216	15	4338
2026-01-11 00:26:02.82	18.24	79.84	-27.4	-28.9	15.5	0.00e+00	0	42	0	1068498944	15	4265
2026-01-11 00:26:03.83	18.17	80.34	-27.0	-27.9	16.1	0.00e+00	0	42	0	1071644672	15	4005
2026-01-11 00:26:04.83	18.10	80.84	-26.5	-27.9	16.6	0.00e+00	0	42	0	1074790400	13	4236
2026-01-11 00:26:05.83	18.02	81.35	-27.0	-28.9	16.0	5.97e-04	0	42	0	1077936128	13	4508
2026-01-11 00:26:06.84	17.93	81.86	-27.0	-28.5	16.0	0.00e+00	0	42	0	1081081856	14	4276
2026-01-11 00:26:07.84	17.83	82.36	-26.8	-28.1	16.3	0.00e+00	0	42	0	1084227584	14	4160
2026-01-11 00:26:08.85	17.71	82.88	-26.5	-27.3	16.6	0.00e+00	0	42	0	1087373312	14	3960
2026-01-11 00:26:09.86	17.57	83.39	-26.8	-28.0	16.3	0.00e+00	0	42	0	1090519040	14	4136
2026-01-11 00:26:10.86	17.41	83.90	-27.3	-29.1	15.7	4.91e-04	0	42	0	1093664768	14	4448
2026-01-11 00:26:11.87	17.22	84.41	-27.6	-29.3	15.4	5.69e-04	0	42	0	1096810496	15	4377
2026-01-11 00:26:12.87	16.99	84.92	-27.8	-29.9	15.0	0.00e+00	0	42	0	1099956224	15	4554
2026-01-11 00:26:13.87	16.70	85.43	-28.5	-30.4	14.3	8.12e-04	0	42	0	1103101952	17	4481
2026-01-11 00:26:14.88	16.34	85.95	-28.5	-30.4	14.3	8.79e-04	0	42	0	1106247680	17	4471
2026-01-11 00:26:15.88	15.88	86.46	-28.4	-30.2	14.4	1.50e-06	0	42	0	1109393408	17	4401
2026-01-11 00:26:16.89	15.26	86.98	-28.7	-30.9	14.0	5.83e-04	0	42	0	1111490560	17	4623
2026-01-11 00:26:17.90	14.37	87.50	-28.4	-30.2	14.4	3.15e-04	0	42	0	1115684864	17	4398
2026-01-11 00:26:18.90	13.04	88.01	-28.1	-29.4	14.9	7.00e-07	0	42	0	1118830592	17	4161
2026-01-11 00:26:19.91	10.75	88.52	-28.2	-29.5	14.9	6.80e-06	0	42	0	1121976320	17	4208
2026-01-11 00:26:20.92	6.03	89.03	-28.4	-30.6	14.6	5.88e-04	0	42	0	1125122048	16	4613
2026-01-11 00:26:21.92	351.56	89.52	-28.2	-29.7	14.7	7.00e-07	0	42	0	1128267776	17	4244
2026-01-11 00:26:22.93	266.91	89.75	-28.5	-30.7	14.6	7.75e-04	0	42	0	1131413504	16	4656
2026-01-11 00:26:23.94	219.79	89.35	-31.5	-35.6	9.5	3.41e-03	0	42	0	1133510656	22	5773
2026-01-11 00:26:24.94	210.91	88.85	-31.7	-35.5	8.7	6.02e-02	0	42	0	1137704960	24	5538
2026-01-11 00:26:25.95	207.40	88.34	-29.9	-31.7	12.2	7.99e-04	0	42	0	1140850688	21	4459
2026-01-11 00:26:26.95	205.56	87.83	-27.4	-28.2	15.8	0.00e+00	0	42	0	1143996416	16	3965
2026-01-11 00:26:27.96	204.41	87.31	-27.3	-28.6	15.7	0.00e+00	0	42	0	1147142144	15	4196
2026-01-11 00:26:28.96	203.64	86.80	-27.3	-29.1	15.7	2.20e-06	0	42	0	1150287872	14	4421
2026-01-11 00:26:29.97	203.08	86.28	-27.2	-28.9	15.7	0.00e+00	0	42	0	1153433600	14	4390
2026-01-11 00:26:30.98	202.66	85.76	-27.2	-28.9	15.7	0.00e+00	0	42	0	1156579328	14	4369
2026-01-11 00:26:31.99	202.33	85.25	-26.8	-28.5	16.3	0.00e+00	0	42	0	1158676480	13	4377
2026-01-11 00:26:32.99	202.07	84.74	-26.8	-28.6	16.2	1.93e-03	0	42	0	1161822208	13	4406
2026-01-11 00:26:34.00	201.85	84.22	-27.3	-29.1	15.7	0.00e+00	0	42	0	1166016512	14	4428
2026-01-11 00:26:35.01	201.67	83.70	-27.0	-28.5	16.0	0.00e+00	0	42	0	1169162240	14	4260
2026-01-11 00:26:36.01	201.52	83.20	-27.0	-28.3	16.1	0.00e+00	0	42	0	1172307968	14	4227
2026-01-11 00:26:37.02	201.39	82.68	-27.1	-28.6	15.9	0.00e+00	0	42	0	1175453696	14	4291
2026-01-11 00:26:38.02	201.27	82.18	-27.7	-29.6	15.1	0.00e+00	0	42	0	1178599424	15	4472
2026-01-11 00:26:39.03	201.18	81.66	-27.6	-29.3	15.3	0.00e+00	0	42	0	1180696576	15	4373
2026-01-11 00:26:40.04	201.09	81.15	-27.7	-29.5	15.1	0.00e+00	0	42	0	1183842304	15	4450
2026-01-11 00:26:41.05	201.01	80.65	-28.3	-30.3	14.5	0.00e+00	0	42	0	1188036608	16	4567
2026-01-11 00:26:42.06	200.94	80.14	-27.7	-29.0	15.3	0.00e+00	0	42	0	1191182336	16	4191
2026-01-11 00:26:43.06	200.88	79.64	-27.3	-28.2	15.7	0.00e+00	0	42	0	1194328064	16	3956
2026-01-11 00:26:44.07	200.83	79.13	-27.4	-28.9	15.5	0.00e+00	0	42	0	1197473792	15	4257
2026-01-11 00:26:45.08	200.78	78.63	-27.6	-29.2	15.3	0.00e+00	0	42	0	1200619520	15	4366
2026-01-11 00:26:46.08	200.73	78.13	-27.1	-28.2	15.9	0.00e+00	0	42	0	1203765248	15	4081
2026-01-11 00:26:47.09	200.69	77.63	-26.7	-27.8	16.3	0.00e+00	0	42	0	1205862400	14	4100
2026-01-11 00:26:48.10	200.66	77.13	-26.5	-28.0	16.5	0.00e+00	0	42	0	1210056704	13	4251
2026-01-11 00:26:49.09	200.62	76.64	-26.7	-28.3	16.2	0.00e+00	0	42	0	1213202432	13	4336
2026-01-11 00:26:50.10	200.59	76.14	-26.2	-27.1	16.8	0.00e+00	0	42	0	1216348160	13	4020
2026-01-11 00:26:51.10	200.56	75.66	-25.3	-25.8	17.8	0.00e+00	0	42	0	1219493888	12	3793
2026-01-11 00:26:52.11	200.53	75.16	-24.8	-25.2	18.5	0.00e+00	0	42	0	1222639616	11	3756
2026-01-11 00:26:53.11	200.51	74.68	-24.8	-25.6	18.5	0.00e+00	0	42	0	1225785344	10	3947
2026-01-11 00:26:54.12	200.49	74.19	-25.2	-26.4	18.1	0.00e+00	0	42	0	1227882496	10	4156
2026-01-11 00:26:55.12	200.47	73.71	-25.4	-26.9	17.8	0.00e+00	0	42	0	1231028224	10	4291
2026-01-11 00:26:56.13	200.45	73.22	-25.4	-26.8	17.9	0.00e+00	0	42	0	1234173952	10	4272
2026-01-11 00:26:57.13	200.43	72.74	-25.4	-26.5	17.7	0.00e+00	0	42	0	1237319680	11	4076
2026-01-11 00:26:58.13	200.41	72.27	-25.5	-26.8	17.7	0.00e+00	0	42	0	1240465408	11	4140
2026-01-11 00:26:59.14	200.39	71.79	-25.7	-27.0	17.5	0.00e+00	0	42	0	1243611136	11	4206
2026-01-11 00:27:00.14	200.38	71.31	-26.5	-27.9	16.5	0.00e+00	0	42	0	1246756864	13	4236
2026-01-11 00:27:01.15	200.36	70.84	-27.3	-29.3	15.6	0.00e+00	0	42	0	1250951168	14	4495
2026-01-11 00:27:02.16	200.35	70.37	-27.6	-29.4	15.1	0.00e+00	0	42	0	1253048320	15	4432
2026-01-11 00:27:03.16	200.34	69.90	-27.1	-28.3	15.7	0.00e+00	0	42	0	1256194048	15	4108
2026-01-11 00:27:04.16	200.33	69.44	-26.6	-27.6	16.4	0.00e+00	0	42	0	1259339776	14	4035
2026-01-11 00:27:05.17	200.32	68.97	-26.6	-28.1	16.4	0.00e+00	0	42	0	1262485504	13	4274
2026-01-11 00:27:06.18	200.31	68.51	-26.2	-27.3	16.9	0.00e+00	0	42	0	1265631232	13	4050
2026-01-11 00:27:07.18	200.30	68.05	-26.0	-26.7	17.2	0.00e+00	0	42	0	1268776960	13	3909
2026-01-11 00:27:08.19	200.29	67.59	-26.6	-28.1	16.5	0.00e+00	0	42	0	1271922688	13	4260
2026-01-11 00:27:09.19	200.28	67.14	-27.2	-28.9	15.7	0.00e+00	0	42	0	1275068416	14	4381
2026-01-11 00:27:10.20	200.27	66.69	-27.2	-28.9	15.6	2.20e-06	0	42	0	1278214144	14	4377
2026-01-11 00:27:11.21	200.26	66.24	-27.1	-28.6	15.7	0.00e+00	0	42	0	1281359872	14	4317
2026-01-11 00:27:12.21	200.26	65.79	-26.2	-27.1	16.8	0.00e+00	0	42	0	1284505600	13	4018
2026-01-11 00:27:13.22	200.25	65.35	-25.4	-26.0	17.7	0.00e+00	0	42	0	1287651328	12	3834
2026-01-11 00:27:14.22	200.24	64.91	-24.9	-25.3	18.4	0.00e+00	0	42	0	1290797056	11	3782
2026-01-11 00:27:15.23	200.24	64.47	-24.9	-25.9	18.4	0.00e+00	0	42	0	1293942784	10	4021
2026-01-11 00:27:16.24	200.23	64.03	-25.8	-27.3	15.2	0.00e+00	0	42	0	1297088512	11	4279
2026-01-11 00:27:17.25	200.23	63.59	-26.7	-28.2	16.3	0.00e+00	0	42	0	1300234240	13	4314
2026-01-11 00:27:18.25	200.22	63.16	-27.1	-28.8	15.6	0.00e+00	0	42	0	1303379968	14	4359
2026-01-11 00:27:19.25	200.22	62.74	-26.7	-28.3	15.9	0.00e+00	0	42	0	1306525696	13	4330
2026-01-11 00:27:20.26	200.21	62.31	-26.3	-27.5	16.3	0.00e+00	0	42	0	1309671424	13	4114
2026-01-11 00:27:21.27	200.21	61.88	-26.5	-27.8	16.4	0.00e+00	0	42	0	1312817152	13	4211
2026-01-11 00:27:22.27	200.21	61.46	-26.0	-27.2	17.0	0.00e+00	0	42	0	1315962880	12	4131
2026-01-11 00:27:23.28	200.20	61.04	-25.9	-27.4	17.3	0.00e+00	0	42	0	1319108608	11	4301
2026-01-11 00:27:24.28	200.20	60.63	-25.9	-27.0	17.2	0.00e+00	0	42	0	1322254336	12	4088
2026-01-11 00:27:25.28	200.20	60.22	-26.2	-27.8	16.8	1.99e-03	0	42	0	1325400064	12	4291
2026-01-11 00:27:26.29	200.19	59.81	-26.9	-28.8	16.1	2.55e-03	0	42	0	1328545792	13	4458
2026-01-11 00:27:27.29	200.19	59.40	-27.5	-29.1	15.3	0.00e+00	0	42	0	1331691520	15	4342
2026-01-11 00:27:28.29	200.19	59.00	-27.6	-29.3	15.0	3.00e-06	0	42	0	1334837248	15	4406
2026-01-11 00:27:29.30	200.19	58.59	-26.8	-28.0	16.0	0.00e+00	0	42	0	1337982976	14	4129
2026-01-11 00:27:30.31	200.18	58.19	-25.9	-26.5	17.1	0.00e+00	0	42	0	1341128704	13	3876
2026-01-11 00:27:31.31	200.18	57.80	-25.6	-26.8	17.6	2.88e-03	0	42	0	1344274432	11	4148
2026-01-11 00:27:32.32	200.18	57.40	-26.1	-27.5	16.9	2.86e-03	0	42	0	1347420160	12	4227
2026-01-11 00:27:33.32	200.18	57.01	-26.9	-28.7	15.9	0.00e+00	0	42	0	1350565888	13	4445
2026-01-11 00:27:34.33	200.18	56.62	-27.3	-29.1	15.4	3.00e-06	0	42	0	1353711616	14	4456
2026-01-11 00:27:35.34	200.18	56.23	-27.7	-29.6	15.0	2.56e-03	0	42	0	1356857344	15	4465
2026-01-11 00:27:36.34	200.17	55.85	-28.4	-30.7	14.2	0.00e+00	0	42	0	1360003072	16	4703
2026-01-11 00:27:37.35	200.17	55.47	-28.7	-31.0	13.8	2.36e-03	0	42	0	1363148800	17	4659
2026-01-11 00:27:38.35	200.17	55.09	-29.0	-31.6	13.5	2.28e-03	0	42	0	1366294528	17	4866
2026-01-11 00:27:39.36	200.17	54.71	-28.6	-30.6	14.0	4.50e-06	0	42	0	1369440256	17	4540
2026-01-11 00:27:40.36	200.17	54.34	-27.6	-28.7	15.4	0.00e+00	0	42	0	1372585984	16	4111
2026-01-11 00:27:41.36	200.17	53.98	-26.8	-28.1	16.1	2.38e-03	0	42	0	1375731712	14	4150
2026-01-11 00:27:42.37	200.17	53.61	-26.8	-28.1	16.1	0.00e+00	0	42	0	1378877440	14	4157
2026-01-11 00:27:43.37	200.17	53.24	-27.2	-28.9	15.7	2.45e-03	0	42	0	1382023168	14	4385
2026-01-11 00:27:44.38	200.17	52.88	-27.4	-29.3	15.4	0.00e+00	0	42	0	1385168896	14	4506
2026-01-11 00:27:45.38	200.17	52.52	-27.8	-29.8	14.8	1.50e-06	0	42	0	1388314624	15	4541
2026-01-11 00:27:46.38	200.17	52.17	-28.4	-30.8	14.2	2.80e-03	0	42	0	1391460352	16	4704
2026-01-11 00:27:47.39	200.17	51.81	-28.6	-30.5	14.1	2.88e-03	0	42	0	1394606080	17	4519
2026-01-11 00:27:48.40	200.17	51.46	-28.6	-30.6	14.0	0.00e+00	0	42	0	1397751808	17	4535
2026-01-11 00:27:49.41	200.17	51.11	-28.6	-30.6	14.0	2.20e-06	0	42	0	1400897536	17	4534
2026-01-11 00:27:50.42	200.17	50.76	-29.2	-31.7	13.1	1.75e-05	0	42	0	1404043264	18	4767
2026-01-11 00:27:51.42	200.17	50.41	-29.5	-31.9	12.6	7.55e-05	0	42	0	1407188992	19	4735
2026-01-11 00:27:52.43	200.17	50.07	-29.5	-31.7	12.7	2.71e-03	0	42	0	1410334720	19	4679
2026-01-11 00:27:53.43	200.17	49.73	-29.1	-31.3	13.2	2.47e-03	0	42	0	1413480448	18	4643
2026-01-11 00:27:54.44	200.17	49.40	-28.8	-30.6	13.6	5.41e-05	0	42	0	1416626176	18	4421
2026-01-11 00:27:55.45	200.17	49.06	-28.4	-30.2	14.2	9.90e-06	0	42	0	1419771904	17	4405
2026-01-11 00:27:56.45	200.17	48.73	-28.4	-30.0	14.4	7.00e-07	0	42	0	1422917632	17	4356
2026-01-11 00:27:57.46	200.17	48.40	-28.7	-30.7	13.9	3.58e-05	0	42	0	1426063360	17	4568
2026-01-11 00:27:58.47	200.17	48.07	-29.0	-31.5	13.5	9.10e-06	0	42	0	1429209088	17	4832
2026-01-11 00:27:59.47	200.17	47.75	-29.7	-32.2	12.5	5.79e-05	0	42	0	1432354816	19	4837
2026-01-11 00:28:00.48	200.17	47.43	-30.0	-32.7	11.8	4.71e-04	0	42	0	1435500544	20	4924
2026-01-11 00:28:01.48	200.18	47.11	-29.8	-32.2	12.1	5.01e-04	0	42	0	1438646272	20	4724
2026-01-11 00:28:02.49	200.18	46.79	-29.7	-32.4	12.3	1.86e-04	0	42	0	1441792000	19	4901
2026-01-11 00:28:03.50	200.18	46.47	-29.5	-31.7	12.7	1.01e-04	0	42	0	1444937728	19	4659
2026-01-11 00:28:04.51	200.18	46.16	-29.1	-31.3	13.3	2.59e-05	0	42	0	1448083456	18	4647
2026-01-11 00:28:05.51	200.18	45.85	-29.1	-31.2	13.4	1.60e-05	0	42	0	1451229184	18	4618
2026-01-11 00:28:06.52	200.18	45.54	-29.4	-32.1	12.8	6.17e-05	0	42	0	1454374912	18	4893
2026-01-11 00:28:07.52	200.18	45.24	-29.5	-31.9	12.7	7.62e-05	0	42	0	1457520640	19	4711
2026-01-11 00:28:08.53	200.18	44.94	-29.8	-32.5	12.2	1.91e-04	0	42	0	1460666368	19	4933
2026-01-11 00:28:09.54	200.18	44.63	-29.8	-32.6	12.0	3.59e-04	0	42	0	1463812096	19	4982
2026-01-11 00:28:10.55	200.19	44.33	-29.4	-31.6	12.7	1.01e-04	0	42	0	1466957824	19	4637
2026-01-11 00:28:11.56	200.19	44.04	-29.0	-30.5	13.4	2.36e-05	0	42	0	1470103552	19	4297
2026-01-11 00:28:12.57	200.19	43.74	-28.7	-30.4	13.7	4.95e-05	0	42	0	1473249280	18	4379
2026-01-11 00:28:13.57	200.19	43.45	-28.6	-30.1	14.0	2.20e-06	0	42	0	1476395008	18	4273
2026-01-11 00:28:14.58	200.19	43.16	-28.4	-29.7	14.2	1.50e-06	0	42	0	1479540736	18	4164
2026-01-11 00:28:15.59	200.19	42.87	-28.7	-30.4	13.7	2.20e-06	0	42	0	1482686464	18	4368
2026-01-11 00:28:16.59	200.19	42.59	-29.1	-31.3	13.1	2.44e-05	0	42	0	1485832192	18	4657
2026-01-11 00:28:17.60	200.19	42.30	-29.2	-31.6	13.0	3.58e-05	0	42	0	1488977920	18	4735
2026-01-11 00:28:18.60	200.20	42.03	-29.2	-31.6	12.9	3.58e-05	0	42	0	1492123648	18	4760
2026-01-11 00:28:19.61	200.20	41.75	-29.2	-31.7	12.9	4.88e-05	0	42	0	1495269376	18	4776
2026-01-11 00:28:20.61	200.20	41.47	-29.4	-32.0	12.8	4.95e-05	0	42	0	1498415104	18	4895
2026-01-11 00:28:21.62	200.20	41.19	-29.4	-32.1	12.8	7.62e-05	0	42	0	1501560832	18	4913
2026-01-11 00:28:22.63	200.20	40.92	-29.3	-31.9	12.9	6.25e-05	0	42	0	1504706560	18	4852
2026-01-11 00:28:23.64	200.20	40.65	-29.2	-31.6	13.0	3.20e-05	0	42	0	1507852288	18	4752
2026-01-11 00:28:24.64	200.21	40.38	-29.3	-31.8	12.9	4.19e-05	0	42	0	1510998016	18	4820
2026-01-11 00:28:25.64	200.21	40.12	-29.3	-31.9	12.9	5.56e-05	0	42	0	1514143744	18	4855
2026-01-11 00:28:26.65	200.21	39.85	-29.3	-31.9	12.9	3.89e-05	0	42	0	1517289472	18	4828
2026-01-11 00:28:27.66	200.21	39.59	-29.3	-31.7	12.9	4.11e-05	0	42	0	1520435200	18	4789
2026-01-11 00:28:28.67	200.21	39.33	-29.4	-32.0	12.8	5.34e-05	0	42	0	1523580928	18	4892
2026-01-11 00:28:29.68	200.22	39.07	-29.3	-31.9	12.8	5.11e-05	0	42	0	1526726656	18	4849
2026-01-11 00:28:30.69	200.22	38.81	-29.1	-31.5	13.1	3.73e-05	0	42	0	1529872384	18	4710
2026-01-11 00:28:31.70	200.22	38.55	-29.0	-31.2	13.3	2.74e-05	0	42	0	1533018112	18	4631
2026-01-11 00:28:32.70	200.22	38.30	-29.0	-31.2	13.3	1.83e-05	0	42	0	1536163840	18	4611
2026-01-11 00:28:33.71	200.22	38.05	-28.7	-30.8	12.8	1.52e-05	0	42	0	1539309568	17	4597
2026-01-11 00:28:34.71	200.23	37.80	-28.2	-30.2	14.3	7.00e-07	0	42	0	1542455296	16	4538
2026-01-11 00:28:35.71	200.23	37.56	-28.0	-29.8	14.7	7.00e-07	0	42	0	1545601024	16	4398
2026-01-11 00:28:36.71	200.23	37.31	-27.7	-29.6	14.9	0.00e+00	0	42	0	1548746752	15	4459
2026-01-11 00:28:37.72	200.23	37.07	-27.9	-30.1	14.6	1.50e-06	0	42	0	1551892480	15	4608
2026-01-11 00:28:38.72	200.23	36.83	-28.2	-30.3	14.4	1.50e-06	0	42	0	1555038208	16	4557
2026-01-11 00:28:39.73	200.24	36.59	-28.4	-30.7	14.2	7.00e-07	0	42	0	1558183936	16	4674
2026-01-11 00:28:40.73	200.24	36.35	-28.6	-30.7	13.8	7.85e-05	0	42	0	1561329664	17	4586
2026-01-11 00:28:41.74	200.24	36.11	-28.5	-30.5	14.0	3.00e-06	0	42	0	1564475392	17	4507
2026-01-11 00:28:42.74	200.24	35.88	-28.2	-30.2	14.4	1.50e-06	0	42	0	1567621120	16	4519
2026-01-11 00:28:43.74	200.24	35.65	-28.0	-29.8	14.6	1.50e-06	0	42	0	1570766848	16	4425
2026-01-11 00:28:44.75	200.25	35.41	-28.2	-30.2	14.4	1.50e-06	0	42	0	1573912576	16	4524
2026-01-11 00:28:45.76	200.25	35.18	-28.2	-30.1	14.5	2.43e-03	0	42	0	1577058304	16	4499
2026-01-11 00:28:46.77	200.25	34.96	-28.0	-29.7	14.7	2.50e-03	0	42	0	1580204032	16	4388
2026-01-11 00:28:47.78	200.25	34.73	-28.0	-29.6	14.7	0.00e+00	0	42	0	1583349760	16	4359
2026-01-11 00:28:48.78	200.25	34.50	-28.1	-29.9	14.5	0.00e+00	0	42	0	1586495488	16	4446
2026-01-11 00:28:49.79	200.26	34.28	-27.8	-29.7	14.7	0.00e+00	0	42	0	1589641216	15	4514
2026-01-11 00:28:50.80	200.26	34.06	-27.5	-29.2	15.0	0.00e+00	0	42	0	1592786944	15	4355
2026-01-11 00:28:51.80	200.26	33.84	-27.5	-29.2	15.0	1.28e-03	0	42	0	1595932672	15	4377
2026-01-11 00:28:52.81	200.26	33.62	-27.6	-29.4	14.9	7.20e-04	0	42	0	1599078400	15	4410
2026-01-11 00:28:53.82	200.27	33.40	-27.7	-29.6	14.8	2.36e-05	0	42	0	1602224128	15	4470
2026-01-11 00:28:54.82	200.27	33.19	-27.6	-29.5	14.9	2.25e-04	0	42	0	1605369856	15	4449
2026-01-11 00:28:55.84	200.27	32.97	-27.7	-29.5	14.9	2.03e-04	0	42	0	1608515584	15	4463
2026-01-11 00:28:56.84	200.27	32.76	-27.5	-29.2	15.0	2.89e-05	0	42	0	1611661312	15	4380
2026-01-11 00:28:57.85	200.28	32.55	-27.5	-29.3	15.0	3.17e-04	0	42	0	1614807040	15	4382
2026-01-11 00:28:58.85	200.28	32.34	-27.4	-28.9	15.2	5.16e-04	0	42	0	1617952768	15	4281
2026-01-11 00:28:59.86	200.28	32.13	-27.5	-29.1	15.1	0.00e+00	0	42	0	1621098496	15	4335
2026-01-11 00:29:00.87	200.28	31.92	-27.3	-29.2	15.3	2.43e-04	0	42	0	1624244224	14	4489
2026-01-11 00:29:01.87	200.28	31.72	-27.5	-29.6	15.1	2.24e-03	0	42	0	1627389952	14	4598
2026-01-11 00:29:02.88	200.29	31.51	-27.4	-28.9	15.3	0.00e+00	0	42	0	1630535680	15	4278
2026-01-11 00:29:03.89	200.29	31.31	-27.3	-29.1	15.4	3.01e-03	0	42	0	1633681408	14	4462
2026-01-11 00:29:04.89	200.29	31.11	-27.3	-29.2	15.3	0.00e+00	0	42	0	1636827136	14	4484
2026-01-11 00:29:05.90	200.29	30.91	-27.3	-29.3	15.3	3.03e-04	0	42	0	1639972864	14	4499
2026-01-11 00:29:06.90	200.30	30.71	-27.5	-29.3	15.0	3.37e-04	0	42	0	1643118592	15	4397
2026-01-11 00:29:07.90	200.30	30.52	-27.7	-29.7	14.8	3.96e-03	0	42	0	1646264320	15	4525
2026-01-11 00:29:08.91	200.30	30.32	-27.7	-29.6	14.9	7.00e-07	0	42	0	1649410048	15	4476
2026-01-11 00:29:09.91	200.30	30.13	-27.5	-29.1	15.1	0.00e+00	0	42	0	1652555776	15	4351
2026-01-11 00:29:10.92	200.31	29.93	-27.3	-29.3	15.3	0.00e+00	0	42	0	1655701504	14	4505
2026-01-11 00:29:11.93	200.31	29.74	-27.4	-29.3	15.3	5.42e-04	0	42	0	1658847232	14	4518
2026-01-11 00:29:12.94	200.31	29.55	-27.5	-29.7	15.0	5.98e-04	0	42	0	1661992960	14	4622
2026-01-11 00:29:13.94	200.31	29.36	-27.6	-29.3	15.0	3.61e-03	0	42	0	1665138688	15	4402
2026-01-11 00:29:14.95	200.32	29.17	-27.6	-29.4	15.0	6.26e-04	0	42	0	1668284416	15	4428
2026-01-11 00:29:15.95	200.32	28.99	-27.5	-29.6	15.1	6.83e-04	0	42	0	1671430144	14	4602
2026-01-11 00:29:16.96	200.32	28.80	-27.4	-29.3	15.3	0.00e+00	0	42	0	1674575872	14	4527
2026-01-11 00:29:17.96	200.32	28.62	-27.4	-29.4	15.2	7.20e-04	0	42	0	1677721600	14	4537
2026-01-11 00:29:18.97	200.33	28.44	-27.1	-28.8	15.5	7.25e-04	0	42	0	1680867328	14	4362
2026-01-11 00:29:19.97	200.33	28.26	-27.1	-28.8	15.5	0.00e+00	0	42	0	1684013056	14	4364
2026-01-11 00:29:20.98	200.33	28.07	-27.1	-28.7	15.6	8.24e-04	0	42	0	1687158784	14	4336
2026-01-11 00:29:21.98	200.33	27.90	-26.9	-28.8	15.8	7.24e-04	0	42	0	1690304512	13	4478
2026-01-11 00:29:22.99	200.34	27.72	-26.8	-28.6	15.9	0.00e+00	0	42	0	1693450240	13	4420
2026-01-11 00:29:23.99	200.34	27.54	-26.8	-28.6	15.9	9.16e-04	0	42	0	1696595968	13	4417
2026-01-11 00:29:24.99	200.34	27.37	-26.6	-28.1	16.1	0.00e+00	0	42	0	1699741696	13	4292
2026-01-11 00:29:25.99	200.35	27.19	-26.4	-27.8	16.3	0.00e+00	0	42	0	1702887424	13	4192
2026-01-11 00:29:27.00	200.35	27.02	-26.4	-27.8	16.3	7.83e-04	0	42	0	1706033152	13	4199
2026-01-11 00:29:28.01	200.35	26.84	-26.6	-28.2	16.0	8.13e-04	0	42	0	1709178880	13	4316
2026-01-11 00:29:29.02	200.35	26.67	-26.5	-27.9	16.2	0.00e+00	0	42	0	1712324608	13	4222
2026-01-11 00:29:30.02	200.36	26.50	-26.4	-28.2	16.3	4.50e-06	0	42	0	1715470336	12	4432
2026-01-11 00:29:31.03	200.36	26.33	-26.5	-28.3	16.2	0.00e+00	0	42	0	1718616064	12	4470
2026-01-11 00:29:32.03	200.36	26.17	-26.7	-28.3	15.9	0.00e+00	0	42	0	1721761792	13	4353
2026-01-11 00:29:33.04	200.36	26.00	-26.5	-28.0	16.1	1.07e-03	0	42	0	1724907520	13	4256
2026-01-11 00:29:34.04	200.37	25.83	-26.4	-28.3	16.2	8.89e-04	0	42	0	1728053248	12	4452
2026-01-11 00:29:35.05	200.37	25.67	-26.4	-28.3	16.2	0.00e+00	0	42	0	1731198976	12	4456
2026-01-11 00:29:36.05	200.37	25.50	-26.6	-28.2	16.0	1.37e-05	0	42	0	1734344704	13	4323
2026-01-11 00:29:37.06	200.37	25.34	-26.8	-28.5	15.8	0.00e+00	0	42	0	1737490432	13	4391
2026-01-11 00:29:38.07	200.38	25.18	-26.7	-28.4	15.9	0.00e+00	0	42	0	1740636160	13	4358
2026-01-11 00:29:39.07	200.38	25.02	-27.0	-29.0	15.5	1.37e-05	0	42	0	1743781888	13	4537
2026-01-11 00:29:40.05	200.38	24.86	-26.7	-28.3	16.0	0.00e+00	0	42	0	1746927616	13	4331
2026-01-11 00:29:41.05	200.39	24.70	-26.4	-27.8	16.3	0.00e+00	0	42	0	1750073344	13	4195
2026-01-11 00:29:42.05	200.39	24.54	-26.4	-28.2	16.3	0.00e+00	0	42	0	1753219072	12	4412
2026-01-11 00:29:43.06	200.39	24.39	-26.4	-28.2	16.3	0.00e+00	0	42	0	1756364800	12	4431
2026-01-11 00:29:44.06	200.39	24.23	-26.6	-28.1	16.1	0.00e+00	0	42	0	1759510528	13	4285
2026-01-11 00:29:45.06	200.40	24.08	-26.5	-27.8	16.2	1.22e-05	0	42	0	1762656256	13	4211
2026-01-11 00:29:46.07	200.40	23.92	-26.3	-27.9	16.4	0.00e+00	0	42	0	1765801984	12	4350
2026-01-11 00:29:47.07	200.40	23.77	-26.4	-28.2	16.3	0.00e+00	0	42	0	1768947712	12	4425
2026-01-11 00:29:48.07	200.40	23.62	-26.4	-28.2	16.3	0.00e+00	0	42	0	1772093440	12	4420
2026-01-11 00:29:49.08	200.41	23.46	-26.5	-28.3	16.2	0.00e+00	0	42	0	1775239168	12	4460
2026-01-11 00:29:50.09	200.41	23.31	-26.6	-28.2	16.0	0.00e+00	0	42	0	1778384896	13	4301
2026-01-11 00:29:51.10	200.41	23.16	-26.9	-28.8	15.7	0.00e+00	0	42	0	1781530624	13	4483
2026-01-11 00:29:52.11	200.42	23.01	-26.7	-28.3	15.9	0.00e+00	0	42	0	1784676352	13	4339
2026-01-11 00:29:53.11	200.42	22.86	-26.6	-28.1	16.1	0.00e+00	0	42	0	1787822080	13	4280
2026-01-11 00:29:54.11	200.42	22.72	-26.5	-28.0	16.1	0.00e+00	0	42	0	1790967808	13	4261
2026-01-11 00:29:55.12	200.42	22.57	-26.6	-28.1	16.1	0.00e+00	0	42	0	1794113536	13	4276
2026-01-11 00:29:56.12	200.43	22.42	-26.6	-28.1	16.0	0.00e+00	0	42	0	1797259264	13	4290
2026-01-11 00:29:57.13	200.43	22.28	-26.7	-28.3	16.0	0.00e+00	0	42	0	1800404992	13	4340
2026-01-11 00:29:58.14	200.43	22.13	-26.5	-28.0	16.1	0.00e+00	0	42	0	1803550720	13	4268
2026-01-11 00:29:59.14	200.43	21.99	-26.6	-28.1	16.1	0.00e+00	0	42	0	1806696448	13	4282
2026-01-11 00:30:00.15	200.44	21.85	-26.6	-28.1	16.0	0.00e+00	0	42	0	1809842176	13	4291
2026-01-11 00:30:01.15	200.44	21.71	-26.7	-28.3	15.9	3.86e-03	0	42	0	1812987904	13	4340
2026-01-11 00:30:02.16	200.44	21.57	-26.7	-28.4	15.8	0.00e+00	0	42	0	1816133632	13	4388
2026-01-11 00:30:03.16	200.45	21.43	-26.7	-28.5	15.8	0.00e+00	0	42	0	1819279360	13	4404
2026-01-11 00:30:04.16	200.45	21.29	-26.9	-28.8	15.6	0.00e+00	0	42	0	1822425088	13	4500
2026-01-11 00:30:05.16	200.45	21.15	-26.9	-28.8	15.6	0.00e+00	0	42	0	1825570816	13	4481
2026-01-11 00:30:06.16	200.45	21.01	-27.1	-28.8	15.4	3.56e-03	0	42	0	1828716544	14	4382
2026-01-11 00:30:07.17	200.46	20.88	-27.3	-29.3	15.1	3.46e-03	0	42	0	1831862272	14	4530
2026-01-11 00:30:08.18	200.46	20.74	-27.1	-28.8	15.4	0.00e+00	0	42	0	1835008000	14	4366
2026-01-11 00:30:09.19	200.46	20.60	-26.9	-28.4	15.5	0.00e+00	0	42	0	1838153728	14	4280
2026-01-11 00:30:10.20	200.47	20.47	-26.9	-28.8	15.6	0.00e+00	0	42	0	1841299456	13	4483
2026-01-11 00:30:11.20	200.47	20.33	-26.9	-28.9	15.5	3.04e-04	0	42	0	1844445184	13	4531
2026-01-11 00:30:12.21	200.47	20.20	-26.9	-28.9	15.5	3.73e-03	0	42	0	1847590912	13	4530
2026-01-11 00:30:13.22	200.47	20.07	-26.9	-28.9	15.6	3.65e-03	0	42	0	1850736640	13	4527
2026-01-11 00:30:14.22	200.48	19.93	-26.9	-29.0	15.5	0.00e+00	0	42	0	1853882368	13	4536
2026-01-11 00:30:15.23	200.48	19.80	-27.0	-29.0	15.5	3.63e-03	0	42	0	1857028096	13	4556
2026-01-11 00:30:16.24	200.48	19.67	-27.0	-29.0	15.5	3.41e-03	0	42	0	1860173824	13	4563
2026-01-11 00:30:17.24	200.49	19.54	-27.0	-28.6	15.4	1.98e-04	0	42	0	1863319552	14	4336
2026-01-11 00:30:18.25	200.49	19.41	-27.2	-29.1	15.1	3.43e-03	0	42	0	1866465280	14	4471
2026-01-11 00:30:19.25	200.49	19.28	-27.4	-29.5	14.9	3.65e-03	0	42	0	1869611008	14	4577
2026-01-11 00:30:20.26	200.49	19.16	-27.2	-28.9	15.2	2.04e-04	0	42	0	1872756736	14	4415
2026-01-11 00:30:21.26	200.50	19.03	-27.0	-28.7	15.4	3.57e-03	0	42	0	1875902464	14	4344
2026-01-11 00:30:22.27	200.50	18.90	-26.9	-28.4	15.5	3.61e-03	0	42	0	1879048192	14	4280
2026-01-11 00:30:23.27	200.50	18.78	-27.0	-28.5	15.5	2.01e-04	0	42	0	1882193920	14	4298
2026-01-11 00:30:24.27	200.50	18.65	-26.9	-28.9	15.4	3.52e-03	0	42	0	1885339648	13	4537
2026-01-11 00:30:25.28	200.51	18.53	-26.9	-28.9	15.5	0.00e+00	0	42	0	1888485376	13	4517
2026-01-11 00:30:26.29	200.51	18.40	-26.9	-28.9	15.3	1.37e-05	0	42	0	1891631104	13	4535
2026-01-11 00:30:27.29	200.51	18.28	-27.1	-28.8	15.1	3.15e-03	0	42	0	1894776832	14	4368
2026-01-11 00:30:28.29	200.52	18.16	-27.1	-28.9	15.2	3.12e-03	0	42	0	1897922560	14	4409
2026-01-11 00:30:29.29	200.52	18.03	-27.1	-28.8	15.2	2.53e-04	0	42	0	1901068288	14	4390
2026-01-11 00:30:30.29	200.52	17.91	-27.2	-29.1	15.1	0.00e+00	0	42	0	1904214016	14	4466
2026-01-11 00:30:31.30	200.52	17.79	-27.3	-29.2	15.0	0.00e+00	0	42	0	1907359744	14	4496
2026-01-11 00:30:32.31	200.53	17.67	-27.4	-29.4	14.9	2.04e-04	0	42	0	1910505472	14	4566
2026-01-11 00:30:33.32	200.53	17.55	-27.3	-29.4	14.9	3.31e-03	0	42	0	1913651200	14	4545
2026-01-11 00:30:34.33	200.53	17.43	-27.4	-29.5	14.8	0.00e+00	0	42	0	1916796928	14	4586
2026-01-11 00:30:35.33	200.54	17.31	-27.5	-29.3	14.7	9.10e-06	0	42	0	1919942656	15	4411
2026-01-11 00:30:36.34	200.54	17.19	-27.5	-29.2	14.7	7.00e-07	0	42	0	1923088384	15	4385
2026-01-11 00:30:37.35	200.54	17.08	-27.6	-29.4	14.6	7.00e-07	0	42	0	1926234112	15	4435
2026-01-11 00:30:38.35	200.55	16.96	-27.5	-29.3	14.6	1.50e-06	0	42	0	1929379840	15	4424
2026-01-11 00:30:39.36	200.55	16.84	-27.6	-29.5	14.6	0.00e+00	0	42	0	1932525568	15	4463
2026-01-11 00:30:40.37	200.55	16.73	-27.5	-29.3	14.7	7.00e-07	0	42	0	1935671296	15	4403
2026-01-11 00:30:41.38	200.55	16.61	-27.4	-29.1	14.7	1.37e-05	0	42	0	1938817024	15	4358
2026-01-11 00:30:42.38	200.56	16.50	-27.4	-29.6	14.8	0.00e+00	0	42	0	1941962752	14	4618
2026-01-11 00:30:43.39	200.56	16.38	-27.5	-29.2	14.6	0.00e+00	0	42	0	1945108480	15	4403
2026-01-11 00:30:44.39	200.56	16.27	-27.5	-29.3	14.7	0.00e+00	0	42	0	1948254208	15	4409
2026-01-11 00:30:45.40	200.57	16.15	-27.5	-29.3	14.6	0.00e+00	0	42	0	1951399936	15	4408
2026-01-11 00:30:46.40	200.57	16.04	-27.6	-29.4	14.6	7.00e-07	0	42	0	1954545664	15	4454
2026-01-11 00:30:47.41	200.57	15.93	-27.6	-29.4	14.6	0.00e+00	0	42	0	1957691392	15	4435
2026-01-11 00:30:48.42	200.57	15.82	-27.5	-29.4	14.6	0.00e+00	0	42	0	1960837120	15	4442
2026-01-11 00:30:49.43	200.58	15.71	-27.6	-29.5	14.5	7.00e-07	0	42	0	1963982848	15	4484
2026-01-11 00:30:50.43	200.58	15.60	-27.6	-29.5	14.5	8.30e-06	0	42	0	1967128576	15	4486
2026-01-11 00:30:51.43	200.58	15.49	-27.6	-29.6	14.4	1.50e-06	0	42	0	1970274304	15	4513
2026-01-11 00:30:52.43	200.59	15.38	-27.7	-29.8	14.3	7.00e-07	0	42	0	1973420032	15	4567
2026-01-11 00:30:53.44	200.59	15.27	-27.7	-29.7	14.3	2.20e-06	0	42	0	1976565760	15	4543
2026-01-11 00:30:54.45	200.59	15.16	-27.7	-29.8	14.3	7.00e-07	0	42	0	1979711488	15	4575
2026-01-11 00:30:55.45	200.59	15.05	-27.7	-29.7	14.3	7.00e-07	0	42	0	1982857216	15	4545
2026-01-11 00:30:56.46	200.60	14.94	-27.7	-29.7	14.3	0.00e+00	0	42	0	1986002944	15	4533
2026-01-11 00:30:57.47	200.60	14.83	-27.8	-29.9	14.3	2.20e-06	0	42	0	1989148672	15	4592
2026-01-11 00:30:58.47	200.60	14.73	-27.8	-29.9	14.2	0.00e+00	0	42	0	1992294400	15	4613
2026-01-11 00:30:59.48	200.61	14.62	-27.8	-29.9	14.2	1.50e-06	0	42	0	1995440128	15	4597
2026-01-11 00:31:00.49	200.61	14.52	-27.8	-29.9	14.2	1.50e-06	0	42	0	1998585856	15	4614
2026-01-11 00:31:01.50	200.61	14.41	-27.8	-29.9	14.2	2.20e-06	0	42	0	2001731584	15	4605
2026-01-11 00:31:02.50	200.61	14.30	-27.8	-29.9	14.2	0.00e+00	0	42	0	2004877312	15	4599
2026-01-11 00:31:03.51	200.62	14.20	-27.7	-29.9	14.2	1.50e-06	0	42	0	2008023040	15	4606
2026-01-11 00:31:04.51	200.62	14.10	-27.8	-30.1	14.1	2.20e-06	0	42	0	2011168768	15	4660
2026-01-11 00:31:05.52	200.62	13.99	-27.9	-30.2	13.9	3.80e-06	0	42	0	2014314496	15	4717
2026-01-11 00:31:06.52	200.63	13.89	-27.9	-30.3	13.9	6.80e-06	0	42	0	2017460224	15	4737
2026-01-11 00:31:07.52	200.63	13.79	-27.9	-30.3	13.9	4.50e-06	0	42	0	2020605952	15	4719
2026-01-11 00:31:08.53	200.63	13.68	-28.0	-30.4	13.8	4.50e-06	0	42	0	2023751680	15	4775
2026-01-11 00:31:09.53	200.63	13.58	-28.2	-30.5	13.7	3.80e-06	0	42	0	2026897408	16	4661
2026-01-11 00:31:10.53	200.64	13.48	-28.3	-30.7	13.5	1.22e-05	0	42	0	2030043136	16	4748
2026-01-11 00:31:11.54	200.64	13.38	-28.3	-30.6	13.6	6.10e-06	0	42	0	2033188864	16	4711
2026-01-11 00:31:12.54	200.64	13.28	-28.5	-31.1	13.3	1.29e-05	0	42	0	2036334592	16	4848
2026-01-11 00:31:13.55	200.65	13.18	-28.4	-30.5	13.3	2.21e-05	0	42	0	2039480320	17	4558
2026-01-11 00:31:14.56	200.65	13.08	-28.2	-30.0	13.6	6.80e-06	0	42	0	2042626048	17	4409
2026-01-11 00:31:15.56	200.65	12.98	-28.2	-30.5	13.6	7.60e-06	0	42	0	2045771776	16	4660
2026-01-11 00:31:16.56	200.66	12.88	-28.2	-30.3	13.7	7.60e-06	0	42	0	2048917504	16	4613
2026-01-11 00:31:17.57	200.66	12.78	-28.1	-30.2	13.8	5.30e-06	0	42	0	2052063232	16	4580
2026-01-11 00:31:18.57	200.66	12.69	-28.0	-30.0	13.9	2.20e-06	0	42	0	2055208960	16	4517
2026-01-11 00:31:19.58	200.66	12.59	-28.1	-30.2	13.7	3.00e-06	0	42	0	2058354688	16	4587
2026-01-11 00:31:20.58	200.67	12.49	-28.1	-30.1	13.8	3.00e-06	0	42	0	2061500416	16	4539
2026-01-11 00:31:21.58	200.67	12.40	-28.0	-30.4	13.7	3.85e-03	0	42	0	2064646144	15	4782
2026-01-11 00:31:22.59	200.67	12.30	-27.9	-30.3	13.8	4.50e-06	0	42	0	2067791872	15	4730
2026-01-11 00:31:23.60	200.68	12.20	-27.9	-30.3	13.8	2.20e-06	0	42	0	2070937600	15	4737
2026-01-11 00:31:24.61	200.68	12.11	-28.2	-30.3	13.7	5.30e-06	0	42	0	2074083328	16	4623
2026-01-11 00:31:25.61	200.68	12.01	-28.2	-30.4	13.6	2.53e-04	0	42	0	2077229056	16	4636
2026-01-11 00:31:26.62	200.68	11.91	-28.3	-30.6	13.5	3.79e-03	0	42	0	2080374784	16	4717
2026-01-11 00:31:27.62	200.69	11.82	-28.2	-30.5	13.6	1.29e-05	0	42	0	2083520512	16	4669
2026-01-11 00:31:28.63	200.69	11.73	-28.2	-30.5	13.6	9.10e-06	0	42	0	2086666240	16	4667
2026-01-11 00:31:29.63	200.69	11.63	-28.2	-30.4	13.6	6.80e-06	0	42	0	2089811968	16	4653
2026-01-11 00:31:30.64	200.70	11.54	-28.2	-30.5	13.5	3.96e-03	0	42	0	2092957696	16	4696
2026-01-11 00:31:31.64	200.70	11.45	-28.2	-30.5	13.5	2.83e-04	0	42	0	2096103424	16	4691
2026-01-11 00:31:32.65	200.70	11.35	-28.3	-30.8	13.3	4.03e-03	0	42	0	2099249152	16	4776
2026-01-11 00:31:33.66	200.71	11.26	-28.4	-30.8	13.3	2.74e-05	0	42	0	2102394880	16	4792
2026-01-11 00:31:34.66	200.71	11.17	-28.2	-30.5	13.5	9.10e-06	0	42	0	2105540608	16	4673
2026-01-11 00:31:35.67	200.71	11.08	-27.9	-30.4	13.7	3.73e-03	0	42	0	2108686336	15	4758
2026-01-11 00:31:36.67	200.71	10.98	-28.2	-30.4	13.6	3.52e-03	0	42	0	2111832064	16	4634
2026-01-11 00:31:37.68	200.72	10.89	-28.3	-30.7	13.4	2.32e-04	0	42	0	2114977792	16	4742
2026-01-11 00:31:38.68	200.72	10.80	-28.3	-30.8	13.3	3.40e-03	0	42	0	2118123520	16	4763
2026-01-11 00:31:39.69	200.72	10.71	-28.3	-30.8	13.3	3.98e-03	0	42	0	2121269248	16	4779
2026-01-11 00:31:40.70	200.73	10.62	-28.5	-30.8	13.0	1.83e-04	0	42	0	2124414976	17	4662
2026-01-11 00:31:41.70	200.73	10.53	-28.7	-31.3	12.6	3.95e-03	0	42	0	2127560704	17	4839
2026-01-11 00:31:42.70	200.73	10.44	-28.7	-31.2	12.7	3.86e-03	0	42	0	2130706432	17	4799
2026-01-11 00:31:43.71	200.73	10.35	-28.5	-30.7	13.0	2.49e-04	0	42	0	2133852160	17	4631
2026-01-11 00:31:44.72	200.74	10.26	-28.4	-31.0	13.1	2.44e-05	0	42	0	2136997888	16	4852
2026-01-11 00:31:45.73	200.74	10.17	-28.4	-31.0	13.1	3.42e-03	0	42	0	2140143616	16	4849
2026-01-11 00:31:46.73	200.74	10.09	-28.6	-30.9	12.9	2.13e-04	0	42	0	2142240768	17	4702
