passes_logs/2026/01/11/R2M6_AANII_01/R2M6_AANII_01__20260111_012855_AQUA_rec.log

#Pass ID: 20260111_012855_AQUA
#Satellite: AQUA
#Configuration: AQUA
#almurnet v.1.7.20240730
#Start time: 2026-01-11 01:28:56

#Version: 2.2.20231116
#Station: R2M6_AANII_01
#Location: 30.233357 lon 59.946436 lat
#TLE: 1 27424U 02022A   26009.89520876  .00001045  00000+0  21914-3 0  9996
#TLE: 2 27424  98.4076 336.2372 0002032  84.5955   1.0356 14.61811442260144

#Time	Az	El	Level	Level2	SNR	BER	BlckErr	Temp	State	Recorded	gain1	gain2
2026-01-11 01:28:56.49	21.73	7.05	-30.1	-36.6	5.1	7.10e-01	0	40	0	0	22	7650
2026-01-11 01:28:57.50	21.77	7.14	-31.2	-37.7	5.0	7.10e-01	0	40	104	0	23	7638
2026-01-11 01:28:58.50	21.81	7.21	-31.1	-36.9	14.1	6.02e-01	0	39	0	0	23	6949
2026-01-11 01:28:59.51	21.85	7.30	-31.2	-37.1	13.9	6.00e-01	0	40	0	1572864	23	7123
2026-01-11 01:29:00.51	21.89	7.38	-31.3	-37.5	13.6	6.02e-01	0	39	0	3670016	23	7334
2026-01-11 01:29:01.51	21.94	7.46	-31.3	-37.3	13.8	6.02e-01	0	40	0	5242880	23	7227
2026-01-11 01:29:02.52	21.98	7.54	-31.2	-37.1	13.9	6.02e-01	0	40	0	7340032	23	7126
2026-01-11 01:29:03.52	22.02	7.62	-31.0	-36.7	14.6	6.02e-01	0	40	0	9437184	22	6957
2026-01-11 01:29:04.53	22.06	7.70	-30.9	-36.4	14.8	6.03e-01	0	40	0	11010048	22	6785
2026-01-11 01:29:05.54	22.10	7.78	-30.7	-35.7	15.4	6.04e-01	0	40	0	13107200	22	6397
2026-01-11 01:29:06.55	22.15	7.87	-30.6	-35.3	15.7	6.05e-01	0	40	0	14680064	22	6171
2026-01-11 01:29:07.55	22.19	7.95	-30.5	-35.4	15.9	6.01e-01	0	40	0	16777216	21	6360
2026-01-11 01:29:08.56	22.23	8.03	-30.4	-35.3	16.1	6.02e-01	0	40	0	18874368	21	6269
2026-01-11 01:29:09.57	22.28	8.12	-30.6	-35.4	15.7	6.04e-01	0	40	0	20447232	22	6226
2026-01-11 01:29:10.57	22.32	8.20	-30.6	-35.1	15.8	6.03e-01	0	40	0	22544384	22	6066
2026-01-11 01:29:11.58	22.36	8.28	-30.4	-34.9	16.4	6.02e-01	0	40	0	24117248	21	6079
2026-01-11 01:29:12.59	22.41	8.37	-30.1	-34.0	16.9	6.02e-01	0	40	0	26214400	21	5666
2026-01-11 01:29:13.59	22.45	8.45	-29.9	-34.0	17.3	6.00e-01	0	40	0	28311552	20	5762
2026-01-11 01:29:14.60	22.50	8.54	-29.8	-33.7	17.5	6.02e-01	0	40	0	29884416	20	5652
2026-01-11 01:29:15.60	22.54	8.62	-29.8	-33.7	17.6	6.05e-01	0	40	0	31981568	20	5616
2026-01-11 01:29:16.60	22.59	8.71	-29.7	-33.3	17.8	6.00e-01	0	40	0	33554432	20	5484
2026-01-11 01:29:17.61	22.63	8.80	-29.8	-33.5	17.7	6.02e-01	0	40	0	35651584	20	5563
2026-01-11 01:29:18.61	22.68	8.88	-29.9	-33.8	17.5	6.01e-01	0	40	0	37748736	20	5685
2026-01-11 01:29:19.62	22.73	8.97	-29.9	-33.8	17.6	6.03e-01	0	40	0	39321600	20	5670
2026-01-11 01:29:20.63	22.77	9.05	-29.9	-33.8	17.6	6.03e-01	0	40	0	41418752	20	5674
2026-01-11 01:29:21.63	22.82	9.14	-29.7	-33.4	17.8	6.03e-01	0	40	0	42991616	20	5504
2026-01-11 01:29:22.64	22.87	9.23	-29.5	-32.8	18.1	6.01e-01	0	40	0	45088768	20	5275
2026-01-11 01:29:23.65	22.91	9.32	-29.5	-32.9	18.2	6.03e-01	0	40	0	47185920	20	5285
2026-01-11 01:29:24.65	22.96	9.41	-29.5	-32.8	18.2	6.04e-01	0	40	0	48758784	20	5250
2026-01-11 01:29:25.65	23.01	9.49	-29.5	-32.9	18.1	6.04e-01	0	40	0	50855936	20	5284
2026-01-11 01:29:26.66	23.05	9.58	-29.5	-32.8	18.2	6.03e-01	0	40	0	52428800	20	5262
2026-01-11 01:29:27.66	23.10	9.67	-29.5	-33.2	18.4	6.03e-01	0	40	0	54525952	19	5527
2026-01-11 01:29:28.67	23.15	9.76	-29.5	-33.3	18.3	6.03e-01	0	40	0	56623104	19	5557
2026-01-11 01:29:29.67	23.20	9.85	-29.5	-33.1	18.4	6.01e-01	0	40	0	58195968	19	5471
2026-01-11 01:29:30.67	23.25	9.94	-29.5	-33.2	18.4	6.01e-01	0	41	0	60293120	19	5507
2026-01-11 01:29:31.68	23.30	10.03	-29.5	-33.1	18.4	6.02e-01	0	40	0	61865984	19	5452
2026-01-11 01:29:32.69	23.35	10.12	-29.4	-33.0	18.5	6.03e-01	0	41	0	63963136	19	5416
2026-01-11 01:29:33.69	23.40	10.21	-29.4	-33.0	18.5	6.01e-01	0	41	0	65536000	19	5417
2026-01-11 01:29:34.70	23.45	10.31	-29.4	-32.8	18.7	6.01e-01	0	41	0	67633152	19	5327
2026-01-11 01:29:35.70	23.50	10.40	-29.4	-33.0	18.6	5.99e-01	0	40	0	69730304	19	5405
2026-01-11 01:29:36.71	23.55	10.49	-29.3	-32.7	18.7	6.03e-01	0	41	0	71303168	19	5306
2026-01-11 01:29:37.72	23.60	10.58	-29.4	-32.8	18.7	6.01e-01	0	41	0	73400320	19	5337
2026-01-11 01:29:38.72	23.65	10.67	-29.3	-32.7	18.7	6.01e-01	0	41	0	74973184	19	5304
2026-01-11 01:29:39.73	23.71	10.77	-29.3	-32.6	18.8	5.99e-01	0	41	0	77070336	19	5274
2026-01-11 01:29:40.73	23.76	10.86	-29.4	-32.9	18.6	6.02e-01	0	41	0	79167488	19	5371
2026-01-11 01:29:41.74	23.81	10.96	-29.4	-32.8	18.8	6.02e-01	0	41	0	80740352	19	5320
2026-01-11 01:29:42.74	23.86	11.05	-29.3	-32.6	18.6	6.01e-01	0	41	0	82837504	19	5278
2026-01-11 01:29:43.75	23.92	11.15	-29.4	-32.9	18.6	6.04e-01	0	41	0	84934656	19	5392
2026-01-11 01:29:44.76	23.97	11.24	-29.3	-32.6	18.8	6.03e-01	0	41	0	86507520	19	5254
2026-01-11 01:29:45.75	24.02	11.34	-29.3	-32.6	18.7	6.01e-01	0	41	0	88604672	19	5241
2026-01-11 01:29:46.75	24.08	11.43	-29.4	-32.8	18.0	6.03e-01	0	41	0	90177536	19	5330
2026-01-11 01:29:47.76	24.13	11.53	-29.3	-32.6	18.9	6.02e-01	0	41	0	92274688	19	5254
2026-01-11 01:29:48.77	24.19	11.63	-29.3	-32.5	17.8	6.03e-01	0	41	0	93847552	19	5228
2026-01-11 01:29:49.78	24.24	11.72	-29.3	-32.6	18.8	6.03e-01	0	41	0	95944704	19	5260
2026-01-11 01:29:50.78	24.30	11.82	-29.3	-32.7	18.9	6.01e-01	0	41	0	98041856	19	5273
2026-01-11 01:29:51.79	24.35	11.92	-29.3	-32.5	19.0	6.01e-01	0	41	0	99614720	19	5200
2026-01-11 01:29:52.80	24.41	12.02	-29.3	-32.6	18.9	6.02e-01	0	41	0	101711872	19	5257
2026-01-11 01:29:53.81	24.47	12.12	-29.3	-32.5	19.0	6.02e-01	0	41	0	103284736	19	5205
2026-01-11 01:29:54.81	24.52	12.22	-29.3	-32.5	19.0	6.03e-01	0	41	0	105381888	19	5208
2026-01-11 01:29:55.81	24.58	12.32	-29.3	-32.6	18.9	6.00e-01	0	41	0	107479040	19	5263
2026-01-11 01:29:56.82	24.64	12.42	-29.5	-33.0	18.7	6.02e-01	0	41	0	109051904	19	5388
2026-01-11 01:29:57.83	24.70	12.52	-29.4	-32.7	18.9	6.03e-01	0	41	0	111149056	19	5301
2026-01-11 01:29:58.84	24.76	12.62	-29.3	-32.7	18.9	6.00e-01	0	41	0	112721920	19	5268
2026-01-11 01:29:59.85	24.82	12.72	-29.3	-32.6	19.0	6.04e-01	0	41	0	114819072	19	5237
2026-01-11 01:30:00.85	24.88	12.83	-29.4	-32.8	18.8	6.01e-01	0	41	0	116916224	19	5335
2026-01-11 01:30:01.87	24.94	12.93	-29.3	-32.7	18.9	6.02e-01	0	41	0	118489088	19	5266
2026-01-11 01:30:02.87	25.00	13.03	-29.4	-32.9	18.8	6.02e-01	0	41	0	120586240	19	5358
2026-01-11 01:30:03.87	25.06	13.14	-29.3	-32.5	19.0	5.99e-01	0	41	0	122159104	19	5201
2026-01-11 01:30:04.88	25.12	13.24	-29.3	-32.4	19.1	6.03e-01	0	41	0	124256256	19	5165
2026-01-11 01:30:05.89	25.18	13.34	-29.2	-32.3	19.2	6.02e-01	0	41	0	126353408	19	5118
2026-01-11 01:30:06.89	25.24	13.45	-29.2	-32.3	19.2	6.03e-01	0	41	0	127926272	19	5143
2026-01-11 01:30:07.90	25.31	13.55	-29.2	-32.2	19.3	6.03e-01	0	41	0	130023424	19	5088
2026-01-11 01:30:08.91	25.37	13.66	-29.2	-32.1	19.3	6.01e-01	0	41	0	131596288	19	5058
2026-01-11 01:30:09.91	25.43	13.77	-29.3	-32.4	19.2	6.00e-01	0	41	0	133693440	19	5159
2026-01-11 01:30:10.92	25.50	13.87	-29.3	-32.6	19.1	6.03e-01	0	41	0	135790592	19	5223
2026-01-11 01:30:11.92	25.56	13.98	-29.3	-32.5	19.1	6.01e-01	0	41	0	137363456	19	5190
2026-01-11 01:30:12.93	25.63	14.09	-29.2	-32.3	19.2	6.03e-01	0	41	0	139460608	19	5138
2026-01-11 01:30:13.94	25.69	14.20	-29.4	-33.1	18.7	6.00e-01	0	41	0	141033472	18	5531
2026-01-11 01:30:14.95	25.76	14.31	-29.3	-32.4	18.9	6.02e-01	0	41	0	143130624	19	5159
2026-01-11 01:30:15.95	25.82	14.42	-29.2	-32.1	19.4	6.01e-01	0	41	0	145227776	19	5054
2026-01-11 01:30:16.95	25.89	14.53	-29.1	-32.0	19.4	6.01e-01	0	41	0	146800640	19	5031
2026-01-11 01:30:17.96	25.96	14.64	-29.2	-32.1	19.4	6.04e-01	0	41	0	148897792	19	5050
2026-01-11 01:30:18.97	26.03	14.75	-29.4	-32.6	19.1	6.05e-01	0	41	0	150470656	19	5249
2026-01-11 01:30:19.98	26.09	14.86	-29.2	-32.2	19.4	6.01e-01	0	41	0	152567808	19	5088
2026-01-11 01:30:20.99	26.16	14.97	-29.1	-32.0	19.4	6.03e-01	0	41	0	154664960	19	5028
2026-01-11 01:30:22.00	26.23	15.09	-29.1	-31.8	19.5	6.02e-01	0	41	0	156237824	19	4954
2026-01-11 01:30:23.00	26.30	15.20	-29.1	-32.0	19.5	6.01e-01	0	41	0	158334976	19	5017
2026-01-11 01:30:24.01	26.37	15.31	-29.0	-32.3	19.6	6.00e-01	0	41	0	159907840	18	5230
2026-01-11 01:30:25.01	26.44	15.43	-29.1	-32.0	19.5	6.03e-01	0	41	0	162004992	19	4998
2026-01-11 01:30:26.02	26.52	15.54	-29.0	-32.3	19.6	6.03e-01	0	41	0	164102144	18	5225
2026-01-11 01:30:27.03	26.59	15.66	-29.0	-32.1	19.7	6.03e-01	0	41	0	165675008	18	5143
2026-01-11 01:30:28.03	26.66	15.77	-29.0	-32.2	19.7	6.02e-01	0	41	0	167772160	18	5184
2026-01-11 01:30:29.03	26.73	15.89	-28.9	-31.9	19.8	6.01e-01	0	41	0	169345024	18	5082
2026-01-11 01:30:30.04	26.81	16.01	-28.9	-31.9	19.8	6.01e-01	0	42	0	171442176	18	5091
2026-01-11 01:30:31.04	26.88	16.12	-29.0	-32.0	19.8	6.02e-01	0	41	0	173539328	18	5129
2026-01-11 01:30:32.05	26.96	16.24	-29.0	-32.2	19.6	6.02e-01	0	41	0	175112192	18	5207
2026-01-11 01:30:33.05	27.03	16.36	-29.0	-32.0	19.8	6.00e-01	0	41	0	177209344	18	5119
2026-01-11 01:30:34.06	27.11	16.48	-29.0	-32.0	19.7	6.03e-01	0	41	0	178782208	18	5125
2026-01-11 01:30:35.07	27.19	16.60	-29.0	-32.2	19.6	6.05e-01	0	41	0	180879360	18	5196
2026-01-11 01:30:36.08	27.26	16.72	-29.0	-32.1	19.7	6.01e-01	0	41	0	182976512	18	5135
2026-01-11 01:30:37.08	27.34	16.84	-28.9	-31.9	19.8	6.01e-01	0	42	0	184549376	18	5095
2026-01-11 01:30:38.08	27.42	16.97	-29.0	-32.2	19.7	6.06e-01	0	41	0	186646528	18	5178
2026-01-11 01:30:39.09	27.50	17.09	-29.0	-32.0	19.7	6.02e-01	0	41	0	188219392	18	5127
2026-01-11 01:30:40.10	27.58	17.21	-29.2	-32.1	19.4	6.01e-01	0	41	0	190316544	19	5042
2026-01-11 01:30:41.10	27.66	17.34	-29.4	-32.7	19.1	6.02e-01	0	41	0	192413696	19	5245
2026-01-11 01:30:42.11	27.74	17.46	-29.2	-32.1	19.4	6.02e-01	0	42	0	193986560	19	5050
2026-01-11 01:30:43.11	27.82	17.59	-29.0	-31.7	19.7	6.00e-01	0	41	0	196083712	19	4887
2026-01-11 01:30:44.11	27.90	17.71	-28.9	-31.8	20.0	6.00e-01	0	41	0	197656576	18	5028
2026-01-11 01:30:45.12	27.99	17.84	-28.9	-32.0	19.9	6.02e-01	0	42	0	199753728	18	5103
2026-01-11 01:30:46.13	28.07	17.97	-28.9	-31.8	20.0	6.01e-01	0	41	0	201326592	18	5035
2026-01-11 01:30:47.13	28.16	18.09	-28.9	-31.8	19.9	6.00e-01	0	41	0	203423744	18	5047
2026-01-11 01:30:48.13	28.24	18.22	-28.9	-31.9	20.0	6.01e-01	0	41	0	205520896	18	5058
2026-01-11 01:30:49.14	28.33	18.35	-29.0	-32.0	19.9	6.01e-01	0	41	0	207093760	18	5111
2026-01-11 01:30:50.14	28.41	18.48	-28.9	-31.9	19.9	6.02e-01	0	41	0	209190912	18	5087
2026-01-11 01:30:51.14	28.50	18.61	-28.9	-31.8	20.0	6.01e-01	0	41	0	211288064	18	5049
2026-01-11 01:30:52.15	28.59	18.74	-29.0	-32.2	19.8	6.02e-01	0	42	0	212860928	18	5183
2026-01-11 01:30:53.15	28.68	18.87	-29.2	-32.1	19.5	6.00e-01	0	41	0	214958080	19	5021
2026-01-11 01:30:54.16	28.77	19.01	-29.3	-32.3	19.4	6.02e-01	0	41	0	216530944	19	5101
2026-01-11 01:30:55.17	28.86	19.14	-29.0	-31.6	19.8	6.00e-01	0	41	0	218628096	19	4873
2026-01-11 01:30:56.17	28.95	19.27	-29.0	-32.0	19.9	6.02e-01	0	42	0	220200960	18	5106
2026-01-11 01:30:57.18	29.04	19.41	-29.0	-32.1	19.8	6.02e-01	0	41	0	222298112	18	5141
2026-01-11 01:30:58.18	29.14	19.54	-28.9	-31.8	20.0	6.01e-01	0	41	0	224395264	18	5054
2026-01-11 01:30:59.19	29.23	19.68	-29.0	-32.2	19.8	6.00e-01	0	41	0	225968128	18	5167
2026-01-11 01:31:00.19	29.33	19.82	-28.9	-31.9	20.0	6.03e-01	0	41	0	228065280	18	5063
2026-01-11 01:31:01.20	29.42	19.96	-28.8	-31.6	20.2	6.01e-01	0	41	0	229638144	18	4973
2026-01-11 01:31:02.20	29.52	20.10	-28.8	-31.7	20.1	5.99e-01	0	42	0	231735296	18	4987
2026-01-11 01:31:03.21	29.62	20.24	-29.0	-32.0	19.9	6.03e-01	0	41	0	233832448	18	5102
2026-01-11 01:31:04.21	29.71	20.38	-29.1	-32.2	19.8	6.01e-01	0	42	0	235405312	18	5179
2026-01-11 01:31:05.22	29.81	20.52	-29.1	-31.9	19.7	5.99e-01	0	41	0	237502464	19	4965
2026-01-11 01:31:06.22	29.91	20.66	-29.2	-32.2	19.5	6.02e-01	0	42	0	239075328	19	5086
2026-01-11 01:31:07.23	30.02	20.80	-29.1	-31.8	19.7	5.99e-01	0	42	0	241172480	19	4911
2026-01-11 01:31:08.24	30.12	20.95	-29.0	-32.1	19.9	6.02e-01	0	42	0	243269632	18	5149
2026-01-11 01:31:09.25	30.22	21.09	-29.0	-32.1	19.9	6.02e-01	0	42	0	244842496	18	5145
2026-01-11 01:31:10.26	30.33	21.24	-29.3	-32.2	19.5	5.99e-01	0	41	0	246939648	19	5059
2026-01-11 01:31:11.26	30.43	21.38	-29.5	-32.7	19.2	6.04e-01	0	42	0	248512512	19	5249
2026-01-11 01:31:12.27	30.54	21.53	-29.3	-32.3	19.5	6.03e-01	0	42	0	250609664	19	5099
2026-01-11 01:31:13.28	30.65	21.68	-29.5	-32.8	19.2	6.02e-01	0	42	0	252706816	19	5252
2026-01-11 01:31:14.28	30.75	21.83	-29.4	-32.5	19.4	6.03e-01	0	42	0	254279680	19	5159
2026-01-11 01:31:15.28	30.86	21.97	-29.2	-32.2	19.6	6.01e-01	0	42	0	256376832	19	5034
2026-01-11 01:31:16.28	30.97	22.12	-29.3	-32.2	19.6	6.02e-01	0	41	0	257949696	19	5064
2026-01-11 01:31:17.29	31.08	22.28	-29.3	-32.4	19.5	6.00e-01	0	42	0	260046848	19	5115
2026-01-11 01:31:18.30	31.20	22.43	-29.5	-32.8	19.3	6.03e-01	0	42	0	262144000	19	5259
2026-01-11 01:31:19.30	31.31	22.58	-29.7	-32.8	18.9	6.00e-01	0	42	0	263716864	20	5155
2026-01-11 01:31:20.31	31.42	22.73	-29.8	-33.0	18.7	6.01e-01	0	42	0	265814016	20	5251
2026-01-11 01:31:21.32	31.54	22.89	-29.5	-32.5	19.1	6.02e-01	0	42	0	267386880	20	5048
2026-01-11 01:31:22.32	31.66	23.05	-29.4	-32.7	19.4	6.00e-01	0	42	0	269484032	19	5213
2026-01-11 01:31:23.33	31.78	23.20	-29.3	-32.4	19.5	6.03e-01	0	42	0	271581184	19	5110
2026-01-11 01:31:24.33	31.89	23.36	-29.5	-32.9	19.2	6.02e-01	0	42	0	273154048	19	5295
2026-01-11 01:31:25.34	32.02	23.52	-29.7	-32.9	18.9	6.04e-01	0	42	0	275251200	20	5196
2026-01-11 01:31:26.35	32.14	23.68	-29.8	-33.0	18.7	6.01e-01	0	42	0	276824064	20	5250
2026-01-11 01:31:27.35	32.26	23.84	-29.5	-32.3	19.2	6.02e-01	0	42	0	278921216	20	4994
2026-01-11 01:31:28.36	32.39	24.00	-29.4	-32.6	19.4	6.02e-01	0	41	0	281018368	19	5172
2026-01-11 01:31:29.36	32.51	24.16	-29.4	-32.5	19.5	6.02e-01	0	42	0	282591232	19	5138
2026-01-11 01:31:30.37	32.64	24.33	-29.4	-32.6	19.4	6.01e-01	0	41	0	284688384	19	5206
2026-01-11 01:31:31.38	32.77	24.49	-29.4	-32.5	19.5	6.02e-01	0	42	0	286261248	19	5155
2026-01-11 01:31:32.38	32.90	24.65	-29.4	-32.5	19.4	6.00e-01	0	42	0	288358400	19	5169
2026-01-11 01:31:33.39	33.03	24.82	-29.3	-32.2	19.6	6.01e-01	0	42	0	290455552	19	5046
2026-01-11 01:31:34.40	33.16	24.99	-29.2	-32.0	19.2	6.00e-01	0	42	0	292028416	19	4977
2026-01-11 01:31:35.40	33.29	25.16	-29.2	-32.0	19.3	6.02e-01	0	42	0	294125568	19	4981
2026-01-11 01:31:36.41	33.43	25.33	-29.2	-32.0	19.8	6.02e-01	0	42	0	295698432	19	4958
2026-01-11 01:31:37.42	33.57	25.50	-29.3	-32.4	19.4	6.02e-01	0	42	0	297795584	19	5102
2026-01-11 01:31:38.42	33.71	25.67	-29.4	-32.5	19.1	6.02e-01	0	42	0	299892736	19	5156
2026-01-11 01:31:39.43	33.85	25.84	-29.2	-32.1	19.8	6.03e-01	0	42	0	301465600	19	4988
2026-01-11 01:31:40.44	33.99	26.02	-29.0	-31.6	19.9	6.02e-01	0	42	0	303562752	19	4825
2026-01-11 01:31:41.44	34.13	26.19	-29.0	-31.9	20.2	6.01e-01	0	42	0	305135616	18	5058
2026-01-11 01:31:42.45	34.28	26.37	-28.9	-31.8	20.3	6.01e-01	0	42	0	307232768	18	4994
2026-01-11 01:31:43.46	34.42	26.54	-29.0	-31.9	20.2	6.01e-01	0	42	0	309329920	18	5062
2026-01-11 01:31:44.46	34.57	26.72	-29.2	-32.0	19.9	6.04e-01	0	42	0	310902784	19	4962
2026-01-11 01:31:45.46	34.72	26.90	-29.2	-31.9	19.9	6.03e-01	0	42	0	312999936	19	4923
2026-01-11 01:31:46.47	34.87	27.08	-28.9	-31.8	20.2	6.01e-01	0	42	0	314572800	18	5009
2026-01-11 01:31:47.47	35.02	27.26	-28.8	-31.5	20.4	6.02e-01	0	42	0	316669952	18	4898
2026-01-11 01:31:48.48	35.18	27.44	-28.8	-31.4	20.5	6.00e-01	0	42	0	318242816	18	4877
2026-01-11 01:31:49.49	35.34	27.62	-28.9	-31.8	20.2	6.01e-01	0	42	0	320339968	18	5018
2026-01-11 01:31:50.49	35.49	27.81	-29.0	-31.9	20.3	6.01e-01	0	42	0	322437120	18	5044
2026-01-11 01:31:51.50	35.66	27.99	-29.1	-31.7	20.0	6.01e-01	0	42	0	324009984	19	4868
2026-01-11 01:31:52.51	35.82	28.18	-29.0	-31.4	20.2	6.02e-01	0	42	0	326107136	19	4770
2026-01-11 01:31:53.52	35.98	28.37	-28.9	-31.7	20.3	6.02e-01	0	42	0	328204288	18	4970
2026-01-11 01:31:54.53	36.15	28.56	-28.8	-31.5	20.5	6.03e-01	0	42	0	329777152	18	4894
2026-01-11 01:31:55.53	36.32	28.75	-28.8	-31.5	20.5	6.03e-01	0	42	0	331874304	18	4889
2026-01-11 01:31:56.54	36.49	28.94	-29.0	-31.8	20.3	6.04e-01	0	42	0	333447168	18	5020
2026-01-11 01:31:57.55	36.66	29.13	-29.1	-32.2	20.1	6.02e-01	0	42	0	335544320	18	5140
2026-01-11 01:31:58.55	36.83	29.32	-29.3	-32.2	19.8	6.01e-01	0	42	0	337641472	19	5028
2026-01-11 01:31:59.56	37.01	29.52	-29.2	-32.0	19.9	6.02e-01	0	42	0	339214336	19	4959
2026-01-11 01:32:00.57	37.19	29.72	-29.0	-31.6	20.2	6.04e-01	0	42	0	341311488	19	4810
2026-01-11 01:32:01.57	37.37	29.91	-28.9	-31.6	20.4	6.03e-01	0	42	0	342884352	18	4926
2026-01-11 01:32:02.57	37.55	30.11	-28.8	-31.5	20.5	6.03e-01	0	42	0	344981504	18	4913
2026-01-11 01:32:03.58	37.74	30.31	-28.8	-31.5	20.6	6.00e-01	0	42	0	346554368	18	4889
2026-01-11 01:32:04.59	37.93	30.51	-28.9	-31.6	20.5	6.00e-01	0	42	0	348651520	18	4938
2026-01-11 01:32:05.60	38.12	30.71	-28.9	-31.7	20.4	6.04e-01	0	42	0	350748672	18	4969
2026-01-11 01:32:06.61	38.31	30.92	-28.9	-31.7	20.5	6.01e-01	0	42	0	352321536	18	4957
2026-01-11 01:32:07.61	38.51	31.12	-29.0	-31.9	20.3	6.04e-01	0	42	0	354418688	18	5047
2026-01-11 01:32:08.62	38.70	31.33	-29.0	-31.5	20.2	6.04e-01	0	42	0	356515840	19	4784
2026-01-11 01:32:09.62	38.90	31.53	-28.9	-31.1	20.4	6.02e-01	0	42	0	358088704	19	4661
2026-01-11 01:32:10.63	39.11	31.74	-28.9	-31.0	20.5	6.00e-01	0	42	0	360185856	19	4637
2026-01-11 01:32:11.63	39.31	31.95	-28.9	-31.3	20.4	6.02e-01	0	42	0	361758720	19	4704
2026-01-11 01:32:12.64	39.52	32.16	-29.1	-31.7	20.2	6.02e-01	0	42	0	363855872	19	4864
2026-01-11 01:32:13.64	39.73	32.37	-29.1	-31.8	20.2	6.03e-01	0	42	0	365953024	19	4868
2026-01-11 01:32:14.65	39.94	32.58	-28.9	-31.3	20.5	6.01e-01	0	42	0	367525888	19	4705
2026-01-11 01:32:15.66	40.16	32.79	-28.9	-31.6	20.5	6.01e-01	0	42	0	369623040	18	4943
2026-01-11 01:32:16.66	40.38	33.01	-29.1	-31.8	20.2	6.01e-01	0	42	0	371195904	19	4875
2026-01-11 01:32:17.66	40.60	33.22	-29.2	-31.8	20.1	6.01e-01	0	42	0	373293056	19	4882
2026-01-11 01:32:18.67	40.83	33.44	-29.2	-31.8	20.2	6.03e-01	0	42	0	374865920	19	4880
2026-01-11 01:32:19.68	41.06	33.66	-29.2	-31.9	20.1	6.03e-01	0	42	0	376963072	19	4919
2026-01-11 01:32:20.68	41.29	33.88	-29.5	-32.6	19.7	6.00e-01	0	42	0	379060224	19	5171
2026-01-11 01:32:21.69	41.52	34.10	-29.4	-32.5	19.7	6.03e-01	0	42	0	380633088	19	5144
2026-01-11 01:32:22.70	41.76	34.32	-29.3	-32.1	19.9	6.01e-01	0	42	0	382730240	19	4996
2026-01-11 01:32:23.70	42.00	34.54	-29.4	-32.3	19.9	6.03e-01	0	42	0	384827392	19	5039
2026-01-11 01:32:24.71	42.24	34.77	-29.4	-32.3	19.8	6.04e-01	0	42	0	386400256	19	5063
2026-01-11 01:32:25.71	42.49	34.99	-29.5	-32.7	19.6	6.03e-01	0	42	0	388497408	19	5213
2026-01-11 01:32:26.72	42.74	35.22	-29.5	-32.3	19.5	6.01e-01	0	42	0	390070272	20	4951
2026-01-11 01:32:27.72	43.00	35.45	-29.5	-32.3	19.5	6.01e-01	0	42	0	392167424	20	4935
2026-01-11 01:32:28.73	43.26	35.68	-29.6	-32.3	19.5	6.00e-01	0	42	0	393740288	20	4958
2026-01-11 01:32:29.74	43.52	35.91	-29.7	-32.6	19.3	6.04e-01	0	42	0	395837440	20	5070
2026-01-11 01:32:30.74	43.78	36.14	-29.6	-32.4	19.5	6.01e-01	0	42	0	397934592	20	4974
2026-01-11 01:32:31.75	44.06	36.37	-29.7	-32.6	19.3	6.02e-01	0	42	0	399507456	20	5063
2026-01-11 01:32:32.76	44.33	36.60	-29.7	-32.7	19.3	6.02e-01	0	42	0	401604608	20	5080
2026-01-11 01:32:33.76	44.61	36.84	-29.8	-32.9	19.2	6.01e-01	0	42	0	403177472	20	5158
2026-01-11 01:32:34.76	44.89	37.07	-29.8	-32.8	19.2	6.02e-01	0	42	0	405274624	20	5137
2026-01-11 01:32:35.77	45.17	37.31	-29.8	-32.9	19.2	6.01e-01	0	42	0	407371776	20	5154
2026-01-11 01:32:36.77	45.46	37.55	-29.8	-33.0	19.2	6.02e-01	0	42	0	408944640	20	5186
2026-01-11 01:32:37.77	45.75	37.78	-29.7	-32.7	19.4	6.00e-01	0	42	0	411041792	20	5070
2026-01-11 01:32:38.78	46.05	38.02	-29.8	-32.9	19.2	6.01e-01	0	42	0	412614656	20	5174
2026-01-11 01:32:39.79	46.36	38.26	-29.8	-32.9	19.2	6.02e-01	0	42	0	414711808	20	5147
2026-01-11 01:32:40.79	46.66	38.50	-29.6	-32.4	19.5	6.04e-01	0	42	0	416808960	20	4981
2026-01-11 01:32:41.79	46.98	38.74	-29.9	-33.4	18.9	6.00e-01	0	42	0	418381824	20	5328
2026-01-11 01:32:42.79	47.29	38.99	-29.9	-33.4	18.9	6.00e-01	0	42	0	420478976	20	5338
2026-01-11 01:32:43.80	47.61	39.23	-29.8	-33.0	19.2	6.01e-01	0	42	0	422051840	20	5177
2026-01-11 01:32:44.80	47.94	39.47	-30.0	-33.4	19.0	6.01e-01	0	42	0	424148992	20	5344
2026-01-11 01:32:45.81	48.27	39.72	-29.9	-33.2	19.0	6.05e-01	0	42	0	426246144	20	5276
2026-01-11 01:32:46.82	48.61	39.97	-29.8	-32.9	19.2	6.02e-01	0	42	0	427819008	20	5159
2026-01-11 01:32:47.82	48.95	40.21	-30.0	-33.4	18.9	6.01e-01	0	42	0	429916160	20	5334
2026-01-11 01:32:48.83	49.30	40.46	-29.7	-32.7	19.3	6.02e-01	0	42	0	431489024	20	5085
2026-01-11 01:32:49.83	49.65	40.71	-29.6	-32.4	19.5	6.05e-01	0	42	0	433586176	20	4988
2026-01-11 01:32:50.84	50.01	40.96	-29.7	-32.7	19.4	6.01e-01	0	42	0	435683328	20	5086
2026-01-11 01:32:51.84	50.37	41.21	-29.7	-32.6	19.4	6.00e-01	0	42	0	437256192	20	5038
2026-01-11 01:32:52.85	50.74	41.46	-29.8	-33.0	19.2	6.03e-01	0	42	0	439353344	20	5199
2026-01-11 01:32:53.86	51.12	41.71	-29.6	-32.5	19.5	6.02e-01	0	42	0	440926208	20	5010
2026-01-11 01:32:54.86	51.50	41.96	-29.2	-31.9	20.3	6.01e-01	0	42	0	443023360	19	4887
2026-01-11 01:32:55.86	51.88	42.21	-29.0	-31.3	20.5	6.02e-01	0	42	0	445120512	19	4708
2026-01-11 01:32:56.86	52.28	42.46	-28.9	-31.2	20.6	6.02e-01	0	42	0	446693376	19	4674
2026-01-11 01:32:57.87	52.68	42.72	-29.0	-31.3	20.5	6.03e-01	0	42	0	448790528	19	4715
2026-01-11 01:32:58.87	53.08	42.97	-29.1	-31.6	20.4	6.01e-01	0	42	0	450363392	19	4791
2026-01-11 01:32:59.88	53.50	43.22	-28.9	-31.1	20.7	6.03e-01	0	42	0	452460544	19	4645
2026-01-11 01:33:00.89	53.92	43.48	-29.1	-31.5	20.5	5.99e-01	0	42	0	454557696	19	4761
2026-01-11 01:33:01.89	54.34	43.73	-28.9	-31.0	20.8	6.01e-01	0	42	0	456130560	19	4606
2026-01-11 01:33:02.90	54.77	43.98	-28.7	-31.1	21.0	6.01e-01	0	42	0	458227712	18	4763
2026-01-11 01:33:03.91	55.22	44.24	-28.7	-31.0	21.0	6.01e-01	0	42	0	459800576	18	4716
2026-01-11 01:33:04.91	55.66	44.49	-28.9	-31.7	20.6	6.03e-01	0	42	0	461897728	18	4949
2026-01-11 01:33:05.91	56.11	44.74	-28.8	-31.4	20.8	6.04e-01	0	42	0	463470592	18	4844
2026-01-11 01:33:06.92	56.57	45.00	-28.8	-31.5	20.8	5.99e-01	0	42	0	465567744	18	4861
2026-01-11 01:33:07.93	57.05	45.25	-28.7	-31.1	21.0	6.01e-01	0	42	0	467664896	18	4741
2026-01-11 01:33:08.93	57.52	45.50	-28.6	-31.0	21.1	6.02e-01	0	42	0	469237760	18	4701
2026-01-11 01:33:09.94	58.01	45.75	-28.6	-30.8	21.2	6.03e-01	0	42	0	471334912	18	4635
2026-01-11 01:33:10.95	58.50	46.00	-28.9	-31.5	20.8	5.99e-01	0	42	0	473432064	18	4872
2026-01-11 01:33:11.96	59.00	46.26	-28.7	-31.2	20.9	6.01e-01	0	42	0	475004928	18	4780
2026-01-11 01:33:12.96	59.51	46.50	-29.0	-31.8	20.7	6.02e-01	0	42	0	477102080	18	4968
2026-01-11 01:33:13.97	60.02	46.75	-28.9	-31.5	20.8	6.02e-01	0	42	0	478674944	18	4893
2026-01-11 01:33:14.97	60.55	47.00	-28.7	-31.0	21.1	6.01e-01	0	42	0	480772096	18	4715
2026-01-11 01:33:15.98	61.08	47.25	-28.7	-31.0	21.0	6.01e-01	0	42	0	482344960	18	4720
2026-01-11 01:33:16.99	61.63	47.49	-28.7	-31.0	21.0	6.00e-01	0	42	0	484442112	18	4722
2026-01-11 01:33:17.99	62.17	47.74	-28.8	-31.3	20.9	6.03e-01	0	42	0	486539264	18	4805
2026-01-11 01:33:18.99	62.73	47.98	-28.6	-30.9	21.2	6.03e-01	0	42	0	488112128	18	4672
2026-01-11 01:33:19.99	63.29	48.22	-28.7	-31.2	21.0	6.01e-01	0	42	0	490209280	18	4771
2026-01-11 01:33:20.99	63.86	48.46	-28.7	-31.0	21.1	6.02e-01	0	42	0	491782144	18	4721
2026-01-11 01:33:22.00	64.45	48.70	-28.5	-30.6	21.2	6.02e-01	0	42	0	493879296	18	4592
2026-01-11 01:33:23.01	65.05	48.93	-28.8	-31.3	20.9	6.01e-01	0	42	0	495976448	18	4805
2026-01-11 01:33:24.02	65.66	49.17	-28.7	-31.1	21.1	6.00e-01	0	42	0	497549312	18	4735
2026-01-11 01:33:25.03	66.27	49.40	-28.7	-31.0	21.1	6.04e-01	0	42	0	499646464	18	4713
2026-01-11 01:33:26.03	66.89	49.63	-28.9	-31.7	20.7	6.02e-01	0	42	0	501219328	18	4929
2026-01-11 01:33:27.04	67.53	49.86	-28.7	-31.1	21.0	6.00e-01	0	42	0	503316480	18	4743
2026-01-11 01:33:28.04	68.16	50.09	-28.8	-31.4	20.9	6.03e-01	0	42	0	505413632	18	4846
2026-01-11 01:33:29.04	68.81	50.31	-28.8	-31.3	21.0	6.03e-01	0	42	0	506986496	18	4800
2026-01-11 01:33:30.05	69.47	50.53	-29.0	-31.9	20.6	6.02e-01	0	42	0	509083648	18	5006
2026-01-11 01:33:31.06	70.15	50.75	-29.0	-31.9	20.6	6.03e-01	0	42	0	510656512	18	4997
2026-01-11 01:33:32.07	70.83	50.96	-29.1	-31.6	20.5	6.03e-01	0	42	0	512753664	19	4798
2026-01-11 01:33:33.07	71.52	51.17	-29.4	-32.3	20.0	6.03e-01	0	42	0	514850816	19	5019
2026-01-11 01:33:34.07	72.21	51.38	-29.1	-31.6	20.5	6.00e-01	0	42	0	516423680	19	4778
2026-01-11 01:33:35.07	72.92	51.58	-29.4	-32.3	20.1	6.03e-01	0	42	0	518520832	19	5011
2026-01-11 01:33:36.07	73.63	51.78	-29.1	-31.6	20.6	6.01e-01	0	42	0	520093696	19	4771
2026-01-11 01:33:37.07	74.36	51.97	-29.2	-31.9	20.3	5.99e-01	0	42	0	522190848	19	4887
2026-01-11 01:33:38.08	75.10	52.17	-29.5	-32.5	20.0	6.03e-01	0	42	0	523763712	19	5090
2026-01-11 01:33:39.09	75.85	52.36	-29.4	-32.3	20.1	6.01e-01	0	42	0	525860864	19	5019
2026-01-11 01:33:40.09	76.60	52.54	-29.3	-32.1	20.2	6.01e-01	0	42	0	527958016	19	4959
2026-01-11 01:33:41.09	77.37	52.72	-29.6	-32.8	19.8	6.05e-01	0	42	0	529530880	19	5192
2026-01-11 01:33:42.10	78.15	52.90	-29.6	-32.4	19.6	6.02e-01	0	42	0	531628032	20	4969
2026-01-11 01:33:43.10	78.93	53.07	-29.7	-32.7	19.4	6.03e-01	0	42	0	533725184	20	5059
2026-01-11 01:33:44.11	79.73	53.23	-29.7	-32.7	19.5	6.03e-01	0	42	0	535298048	20	5047
2026-01-11 01:33:45.12	80.53	53.40	-29.6	-32.3	19.7	6.01e-01	0	42	0	537395200	20	4911
2026-01-11 01:33:46.12	81.34	53.55	-29.4	-31.9	20.0	6.01e-01	0	42	0	538968064	20	4787
2026-01-11 01:33:47.13	82.17	53.70	-29.3	-31.6	20.1	6.02e-01	0	42	0	541065216	20	4683
2026-01-11 01:33:48.13	82.99	53.85	-29.6	-32.3	19.7	6.02e-01	0	42	0	542638080	20	4940
2026-01-11 01:33:49.14	83.84	53.99	-29.5	-32.1	19.9	6.02e-01	0	42	0	544735232	20	4859
2026-01-11 01:33:50.15	84.69	54.12	-29.7	-32.5	19.6	6.04e-01	0	42	0	546832384	20	4991
2026-01-11 01:33:51.16	85.54	54.25	-29.5	-32.1	19.8	6.04e-01	0	42	0	548405248	20	4869
2026-01-11 01:33:52.16	86.40	54.37	-29.4	-31.8	20.1	6.01e-01	0	42	0	550502400	20	4737
2026-01-11 01:33:53.17	87.27	54.49	-29.1	-31.1	20.4	6.04e-01	0	42	0	552075264	20	4536
2026-01-11 01:33:54.17	88.14	54.60	-29.5	-32.2	19.9	6.01e-01	0	42	0	554172416	20	4872
2026-01-11 01:33:55.18	89.03	54.70	-29.4	-31.8	20.0	6.03e-01	0	42	0	556269568	20	4762
2026-01-11 01:33:56.18	89.91	54.80	-29.5	-32.0	19.9	6.01e-01	0	42	0	557842432	20	4826
2026-01-11 01:33:57.19	90.81	54.89	-29.6	-32.4	19.8	6.01e-01	0	42	0	559939584	20	4947
2026-01-11 01:33:58.19	91.71	54.97	-30.0	-33.2	19.2	6.02e-01	0	42	0	561512448	20	5256
2026-01-11 01:33:59.19	92.61	55.05	-29.7	-32.7	19.6	6.02e-01	0	42	0	563609600	20	5043
2026-01-11 01:34:00.19	93.51	55.12	-29.6	-32.3	19.7	6.01e-01	0	42	0	565706752	20	4926
2026-01-11 01:34:01.20	94.43	55.18	-29.9	-33.1	19.3	6.02e-01	0	42	0	567279616	20	5191
2026-01-11 01:34:02.20	95.34	55.24	-29.7	-32.7	19.5	6.04e-01	0	42	0	569376768	20	5045
2026-01-11 01:34:03.20	96.26	55.29	-29.6	-32.3	19.8	6.02e-01	0	42	0	570949632	20	4927
2026-01-11 01:34:04.21	97.19	55.33	-29.8	-32.9	19.5	6.02e-01	0	42	0	573046784	20	5129
2026-01-11 01:34:05.22	98.12	55.36	-29.9	-33.1	19.2	6.01e-01	0	42	0	575143936	20	5196
2026-01-11 01:34:06.23	99.05	55.39	-29.7	-32.5	19.7	6.01e-01	0	42	0	576716800	20	4999
2026-01-11 01:34:07.23	99.98	55.41	-29.9	-33.1	19.4	6.03e-01	0	42	0	578813952	20	5185
2026-01-11 01:34:08.23	100.91	55.42	-30.2	-33.4	18.8	6.03e-01	0	42	0	580386816	21	5224
2026-01-11 01:34:09.24	101.84	55.43	-29.8	-32.4	19.4	6.01e-01	0	42	0	582483968	21	4830
2026-01-11 01:34:10.25	102.78	55.43	-30.0	-33.0	19.1	6.02e-01	0	42	0	584581120	21	5039
2026-01-11 01:34:11.26	103.72	55.42	-30.2	-33.4	18.8	6.01e-01	0	42	0	586153984	21	5206
2026-01-11 01:34:12.26	104.64	55.40	-29.7	-32.7	19.6	6.02e-01	0	42	0	588251136	20	5046
2026-01-11 01:34:13.27	105.58	55.38	-29.9	-33.1	19.3	6.04e-01	0	42	0	589824000	20	5221
2026-01-11 01:34:14.28	106.51	55.34	-30.0	-33.4	19.1	6.00e-01	0	42	0	591921152	20	5313
2026-01-11 01:34:15.29	107.44	55.31	-29.5	-32.2	19.9	6.01e-01	0	42	0	593494016	20	4867
2026-01-11 01:34:16.29	108.36	55.26	-30.0	-33.4	19.1	5.99e-01	0	42	0	595591168	20	5342
2026-01-11 01:34:17.29	109.27	55.21	-29.8	-32.4	19.4	6.00e-01	0	42	0	597688320	21	4843
2026-01-11 01:34:18.29	110.19	55.15	-29.5	-31.6	19.9	6.01e-01	0	42	0	599261184	21	4582
2026-01-11 01:34:19.30	111.10	55.08	-29.9	-32.7	19.3	6.01e-01	0	42	0	601358336	21	4947
2026-01-11 01:34:20.30	112.00	55.01	-30.0	-32.8	19.2	6.01e-01	0	42	0	603455488	21	4982
2026-01-11 01:34:21.31	112.91	54.93	-29.6	-31.9	19.7	6.01e-01	0	42	0	605028352	21	4664
2026-01-11 01:34:22.31	113.81	54.84	-30.0	-32.8	19.2	6.00e-01	0	42	0	607125504	21	4967
2026-01-11 01:34:23.32	114.70	54.75	-29.8	-32.4	19.4	6.03e-01	0	42	0	608698368	21	4849
2026-01-11 01:34:24.33	115.59	54.65	-29.8	-32.4	19.4	6.03e-01	0	42	0	610795520	21	4850
2026-01-11 01:34:25.33	116.47	54.54	-29.7	-32.1	19.7	6.03e-01	0	42	0	612368384	21	4745
2026-01-11 01:34:26.34	117.34	54.43	-29.8	-32.2	19.6	6.03e-01	0	42	0	614465536	21	4764
2026-01-11 01:34:27.34	118.20	54.31	-30.1	-33.2	19.0	6.00e-01	0	42	0	616562688	21	5115
2026-01-11 01:34:28.35	119.07	54.18	-29.7	-32.1	19.6	6.02e-01	0	42	0	618135552	21	4740
2026-01-11 01:34:29.35	119.91	54.05	-30.0	-32.8	19.2	5.99e-01	0	42	0	620232704	21	4993
2026-01-11 01:34:30.36	120.76	53.91	-30.5	-34.2	18.3	6.03e-01	0	42	0	621805568	21	5529
2026-01-11 01:34:31.37	121.60	53.77	-30.0	-32.8	19.2	6.04e-01	0	42	0	623902720	21	4985
2026-01-11 01:34:32.37	122.42	53.62	-29.7	-32.1	19.7	6.00e-01	0	42	0	625999872	21	4731
2026-01-11 01:34:33.37	123.23	53.47	-29.8	-32.7	19.6	6.02e-01	0	42	0	627572736	20	5064
2026-01-11 01:34:34.38	124.05	53.31	-29.6	-32.4	19.7	6.04e-01	0	42	0	629669888	20	4965
2026-01-11 01:34:35.39	124.85	53.14	-29.9	-33.0	19.4	6.01e-01	0	42	0	631242752	20	5161
2026-01-11 01:34:36.39	125.64	52.97	-29.9	-33.1	19.2	6.02e-01	0	41	0	633339904	20	5212
2026-01-11 01:34:37.40	126.42	52.80	-29.6	-32.2	19.8	6.01e-01	0	42	0	635437056	20	4888
2026-01-11 01:34:38.40	127.19	52.62	-29.7	-32.5	19.6	6.02e-01	0	42	0	637009920	20	4997
2026-01-11 01:34:39.41	127.96	52.44	-29.6	-32.2	19.9	6.01e-01	0	42	0	639107072	20	4884
2026-01-11 01:34:40.41	128.71	52.25	-29.7	-32.7	19.6	6.01e-01	0	42	0	640679936	20	5067
2026-01-11 01:34:41.42	129.46	52.06	-29.6	-32.3	19.7	6.03e-01	0	42	0	642777088	20	4920
2026-01-11 01:34:42.42	130.19	51.87	-29.8	-32.8	19.6	6.05e-01	0	42	0	644874240	20	5080
2026-01-11 01:34:43.42	130.91	51.67	-29.8	-32.7	19.5	6.04e-01	0	42	0	646447104	20	5079
2026-01-11 01:34:44.43	131.62	51.46	-29.7	-32.7	19.5	6.00e-01	0	42	0	648544256	20	5059
2026-01-11 01:34:45.44	132.33	51.26	-29.9	-33.3	19.1	6.03e-01	0	42	0	650117120	20	5302
2026-01-11 01:34:46.44	133.02	51.05	-29.8	-32.8	19.5	6.02e-01	0	42	0	652214272	20	5106
2026-01-11 01:34:47.45	133.71	50.83	-29.9	-33.2	19.2	6.03e-01	0	42	0	654311424	20	5235
2026-01-11 01:34:48.44	134.38	50.62	-29.9	-33.1	19.2	6.01e-01	0	42	0	655884288	20	5216
2026-01-11 01:34:49.45	135.05	50.40	-30.1	-33.2	18.9	6.01e-01	0	42	0	657981440	21	5142
2026-01-11 01:34:50.46	135.71	50.18	-30.1	-33.2	18.9	6.03e-01	0	42	0	659554304	21	5123
2026-01-11 01:34:51.47	136.36	49.95	-30.1	-33.2	18.9	6.02e-01	0	42	0	661651456	21	5139
2026-01-11 01:34:52.47	136.99	49.72	-30.1	-33.3	18.9	6.01e-01	0	42	0	663748608	21	5151
2026-01-11 01:34:53.48	137.62	49.49	-30.0	-32.9	19.1	5.99e-01	0	42	0	665321472	21	5010
2026-01-11 01:34:54.48	138.24	49.26	-30.3	-33.7	18.7	6.01e-01	0	42	0	667418624	21	5330
2026-01-11 01:34:55.49	138.85	49.03	-30.4	-33.9	18.4	6.03e-01	0	42	0	668991488	21	5412
2026-01-11 01:34:56.49	139.45	48.79	-30.0	-32.8	19.1	6.04e-01	0	42	0	671088640	21	4986
2026-01-11 01:34:57.50	140.04	48.55	-30.2	-33.5	18.7	6.03e-01	0	42	0	673185792	21	5251
2026-01-11 01:34:58.50	140.62	48.31	-30.2	-33.5	18.7	6.01e-01	0	42	0	674758656	21	5235
2026-01-11 01:34:59.51	141.19	48.07	-30.2	-33.5	18.8	6.01e-01	0	42	0	676855808	21	5255
2026-01-11 01:35:00.52	141.76	47.83	-30.3	-33.7	18.5	6.02e-01	0	42	0	678428672	21	5336
2026-01-11 01:35:01.53	142.32	47.58	-30.2	-33.4	18.7	6.02e-01	0	42	0	680525824	21	5228
2026-01-11 01:35:02.53	142.86	47.34	-30.4	-34.1	18.4	6.04e-01	0	42	0	682098688	21	5463
2026-01-11 01:35:03.54	143.40	47.09	-30.5	-33.7	18.3	6.04e-01	0	42	0	684195840	22	5217
2026-01-11 01:35:04.54	143.93	46.84	-30.2	-32.8	18.8	6.03e-01	0	42	0	686292992	22	4887
2026-01-11 01:35:05.55	144.45	46.59	-30.0	-32.8	19.1	6.02e-01	0	42	0	687865856	21	4991
2026-01-11 01:35:06.56	144.96	46.34	-30.0	-33.5	19.1	6.02e-01	0	42	0	689963008	20	5343
2026-01-11 01:35:07.57	145.47	46.09	-30.1	-33.2	18.8	5.98e-01	0	42	0	692060160	21	5131
2026-01-11 01:35:08.57	145.96	45.84	-29.4	-32.2	19.2	6.03e-01	0	42	0	693633024	20	4975
2026-01-11 01:35:09.58	146.45	45.58	-30.1	-33.7	18.9	6.02e-01	0	42	0	695730176	20	5426
2026-01-11 01:35:10.59	146.94	45.33	-30.1	-33.3	18.6	6.02e-01	0	42	0	697303040	21	5164
2026-01-11 01:35:11.59	147.41	45.08	-30.0	-33.4	19.0	6.02e-01	0	42	0	699400192	20	5328
2026-01-11 01:35:12.60	147.88	44.82	-30.0	-33.3	19.1	6.01e-01	0	42	0	701497344	20	5301
2026-01-11 01:35:13.60	148.33	44.57	-30.2	-33.6	18.6	6.02e-01	0	42	0	703070208	21	5285
2026-01-11 01:35:14.61	148.78	44.31	-30.1	-33.2	18.8	6.01e-01	0	42	0	705167360	21	5127
2026-01-11 01:35:15.61	149.22	44.06	-30.2	-33.3	18.8	6.01e-01	0	42	0	706740224	21	5191
2026-01-11 01:35:16.63	149.67	43.80	-30.2	-33.4	18.7	6.02e-01	0	42	0	708837376	21	5220
2026-01-11 01:35:17.63	150.09	43.55	-29.9	-32.7	19.2	6.02e-01	0	42	0	710410240	21	4954
2026-01-11 01:35:18.63	150.52	43.30	-29.8	-32.4	19.4	6.01e-01	0	42	0	712507392	21	4858
2026-01-11 01:35:19.64	150.93	43.04	-30.1	-33.2	18.8	6.03e-01	0	42	0	714604544	21	5139
2026-01-11 01:35:20.65	151.34	42.79	-30.1	-33.3	18.8	6.00e-01	0	42	0	716177408	21	5172
2026-01-11 01:35:21.65	151.75	42.53	-29.8	-32.4	19.3	6.01e-01	0	42	0	718274560	21	4869
2026-01-11 01:35:22.66	152.14	42.28	-29.7	-32.7	19.5	6.02e-01	0	42	0	720371712	20	5057
2026-01-11 01:35:23.67	152.54	42.03	-29.9	-33.1	19.2	6.01e-01	0	42	0	721944576	20	5220
2026-01-11 01:35:24.67	152.92	41.77	-29.9	-33.3	19.1	6.00e-01	0	42	0	724041728	20	5293
2026-01-11 01:35:25.68	153.30	41.52	-29.8	-32.8	19.5	6.01e-01	0	42	0	725614592	20	5092
2026-01-11 01:35:26.69	153.67	41.27	-29.6	-32.4	19.6	6.02e-01	0	42	0	727711744	20	4963
2026-01-11 01:35:27.69	154.04	41.02	-29.9	-33.2	19.2	6.03e-01	0	42	0	729808896	20	5250
2026-01-11 01:35:28.69	154.40	40.77	-30.4	-33.9	18.4	6.01e-01	0	42	0	731381760	21	5426
2026-01-11 01:35:29.70	154.75	40.52	-30.2	-33.6	18.6	6.01e-01	0	42	0	733478912	21	5287
2026-01-11 01:35:30.71	155.11	40.27	-29.9	-32.7	19.2	6.01e-01	0	42	0	735051776	21	4955
2026-01-11 01:35:31.72	155.45	40.02	-30.0	-32.9	19.1	6.01e-01	0	42	0	737148928	21	5016
2026-01-11 01:35:32.72	155.79	39.77	-30.1	-33.2	18.9	6.03e-01	0	42	0	738721792	21	5138
2026-01-11 01:35:33.72	156.12	39.53	-30.1	-33.1	18.9	6.03e-01	0	42	0	740818944	21	5088
2026-01-11 01:35:34.73	156.45	39.28	-29.9	-32.7	19.1	5.99e-01	0	42	0	742916096	21	4960
2026-01-11 01:35:35.74	156.78	39.03	-30.0	-32.9	19.0	6.01e-01	0	42	0	744488960	21	5042
2026-01-11 01:35:36.74	157.10	38.79	-30.0	-32.9	19.0	6.04e-01	0	42	0	746586112	21	5034
2026-01-11 01:35:37.75	157.41	38.54	-29.9	-32.6	19.2	6.02e-01	0	42	0	748683264	21	4925
2026-01-11 01:35:38.75	157.72	38.30	-29.9	-33.3	19.1	6.02e-01	0	42	0	750256128	20	5283
2026-01-11 01:35:39.76	158.03	38.06	-30.1	-33.6	18.9	6.01e-01	0	42	0	752353280	20	5420
2026-01-11 01:35:40.76	158.33	37.82	-30.0	-33.5	18.9	6.04e-01	0	42	0	753926144	20	5376
2026-01-11 01:35:41.77	158.63	37.58	-30.0	-33.5	18.9	6.02e-01	0	42	0	756023296	20	5383
2026-01-11 01:35:42.78	158.92	37.34	-30.2	-33.6	18.5	6.03e-01	0	42	0	757596160	21	5293
2026-01-11 01:35:43.78	159.20	37.10	-30.4	-34.1	18.2	6.03e-01	0	42	0	759693312	21	5502
2026-01-11 01:35:44.79	159.49	36.86	-30.2	-33.5	18.6	6.00e-01	0	42	0	761790464	21	5252
2026-01-11 01:35:45.80	159.77	36.63	-29.9	-32.7	19.1	5.99e-01	0	42	0	763363328	21	4953
2026-01-11 01:35:46.80	160.04	36.39	-29.6	-32.3	19.6	6.03e-01	0	42	0	765460480	20	4945
2026-01-11 01:35:47.81	160.32	36.16	-29.6	-32.8	19.8	6.01e-01	0	42	0	767033344	19	5209
2026-01-11 01:35:48.82	160.59	35.93	-29.5	-32.6	19.8	6.03e-01	0	42	0	769130496	19	5135
2026-01-11 01:35:49.82	160.85	35.70	-29.6	-32.8	19.7	6.03e-01	0	42	0	771227648	19	5204
2026-01-11 01:35:50.83	161.11	35.46	-29.5	-32.5	19.9	6.05e-01	0	42	0	772800512	19	5107
2026-01-11 01:35:51.84	161.37	35.23	-29.5	-32.5	19.9	6.03e-01	0	42	0	774897664	19	5109
2026-01-11 01:35:52.84	161.62	35.01	-29.6	-32.8	19.7	6.01e-01	0	42	0	776994816	19	5209
2026-01-11 01:35:53.85	161.87	34.78	-29.3	-32.2	20.0	6.01e-01	0	42	0	778567680	19	5013
2026-01-11 01:35:54.86	162.12	34.55	-29.2	-31.7	20.3	5.99e-01	0	42	0	780664832	19	4841
2026-01-11 01:35:55.87	162.36	34.33	-29.1	-32.0	20.4	6.00e-01	0	42	0	782237696	18	5060
2026-01-11 01:35:56.87	162.60	34.11	-29.0	-31.8	20.5	6.02e-01	0	42	0	784334848	18	5000
2026-01-11 01:35:57.88	162.83	33.88	-29.2	-31.8	20.3	6.01e-01	0	42	0	785907712	19	4861
2026-01-11 01:35:58.89	163.07	33.66	-29.4	-32.5	19.9	6.03e-01	0	42	0	788004864	19	5109
2026-01-11 01:35:59.89	163.30	33.44	-29.1	-31.6	20.3	6.03e-01	0	42	0	790102016	19	4809
2026-01-11 01:36:00.89	163.52	33.22	-28.8	-31.4	20.8	6.02e-01	0	42	0	791674880	18	4859
2026-01-11 01:36:01.90	163.75	33.01	-28.7	-31.2	20.9	6.00e-01	0	42	0	793772032	18	4797
2026-01-11 01:36:02.91	163.97	32.79	-28.7	-31.0	21.0	6.03e-01	0	42	0	795344896	18	4734
2026-01-11 01:36:03.91	164.18	32.57	-28.6	-31.0	21.0	6.01e-01	0	42	0	797442048	18	4719
2026-01-11 01:36:04.91	164.40	32.36	-28.9	-31.6	20.6	6.03e-01	0	42	0	799539200	18	4929
2026-01-11 01:36:05.92	164.61	32.15	-28.7	-31.2	20.8	6.02e-01	0	42	0	801112064	18	4780
2026-01-11 01:36:06.93	164.82	31.94	-28.7	-31.1	20.9	6.02e-01	0	42	0	803209216	18	4749
2026-01-11 01:36:07.93	165.03	31.73	-28.7	-31.2	20.8	6.03e-01	0	42	0	804782080	18	4812
2026-01-11 01:36:08.94	165.23	31.52	-28.7	-31.2	20.8	6.01e-01	0	42	0	806879232	18	4786
2026-01-11 01:36:09.94	165.43	31.31	-28.8	-31.4	20.7	6.01e-01	0	42	0	808976384	18	4874
2026-01-11 01:36:10.95	165.63	31.10	-29.0	-32.0	20.4	6.02e-01	0	42	0	810549248	18	5067
2026-01-11 01:36:11.96	165.83	30.90	-28.9	-31.7	20.5	6.01e-01	0	42	0	812646400	18	4972
2026-01-11 01:36:12.96	166.02	30.69	-28.8	-31.3	20.7	6.02e-01	0	42	0	814219264	18	4845
2026-01-11 01:36:13.97	166.21	30.49	-28.6	-30.9	21.0	6.02e-01	0	42	0	816316416	18	4693
2026-01-11 01:36:14.97	166.40	30.29	-28.4	-31.1	21.2	6.01e-01	0	42	0	818413568	17	4870
2026-01-11 01:36:15.98	166.59	30.09	-28.5	-31.3	21.1	6.01e-01	0	42	0	819986432	17	4945
2026-01-11 01:36:16.99	166.77	29.89	-28.6	-31.3	21.0	6.01e-01	0	42	0	822083584	17	4959
2026-01-11 01:36:17.99	166.95	29.69	-28.7	-31.1	20.8	6.01e-01	0	42	0	823656448	18	4751
2026-01-11 01:36:18.99	167.13	29.50	-28.9	-31.6	20.5	6.04e-01	0	42	0	825753600	18	4942
2026-01-11 01:36:20.00	167.31	29.30	-28.8	-31.5	20.6	6.02e-01	0	42	0	827850752	18	4889
2026-01-11 01:36:21.01	167.48	29.10	-28.8	-31.5	20.6	6.00e-01	0	42	0	829423616	18	4901
2026-01-11 01:36:22.01	167.66	28.91	-28.9	-31.6	20.6	6.03e-01	0	42	0	831520768	18	4930
2026-01-11 01:36:23.02	167.83	28.72	-29.0	-31.9	20.4	6.02e-01	0	42	0	833093632	18	5022
2026-01-11 01:36:24.02	167.99	28.53	-29.0	-32.0	20.3	6.04e-01	0	42	0	835190784	18	5057
2026-01-11 01:36:25.03	168.16	28.34	-28.9	-31.8	20.4	6.04e-01	0	42	0	836763648	18	4994
2026-01-11 01:36:26.04	168.33	28.15	-29.0	-31.9	19.4	6.06e-01	0	42	0	838860800	18	5012
2026-01-11 01:36:27.04	168.49	27.96	-28.9	-31.7	20.4	6.01e-01	0	42	0	840957952	18	4947
2026-01-11 01:36:28.05	168.65	27.77	-29.0	-31.9	18.8	6.02e-01	0	42	0	842530816	18	5014
2026-01-11 01:36:29.06	168.81	27.59	-29.1	-31.7	18.7	6.01e-01	0	42	0	844627968	19	4836
2026-01-11 01:36:30.06	168.97	27.40	-29.0	-31.4	20.3	6.04e-01	0	42	0	846725120	19	4739
2026-01-11 01:36:31.07	169.12	27.22	-28.9	-31.7	19.4	6.03e-01	0	42	0	848297984	18	4958
2026-01-11 01:36:32.08	169.28	27.04	-29.0	-31.9	18.8	6.02e-01	0	42	0	850395136	18	5043
2026-01-11 01:36:33.08	169.43	26.86	-29.0	-31.8	20.4	6.01e-01	0	42	0	851968000	18	5011
2026-01-11 01:36:34.09	169.58	26.67	-29.2	-31.8	20.1	6.02e-01	0	42	0	854065152	19	4899
2026-01-11 01:36:35.09	169.73	26.50	-29.3	-32.3	19.8	6.03e-01	0	42	0	856162304	19	5041
2026-01-11 01:36:36.10	169.88	26.32	-29.2	-32.0	20.0	6.01e-01	0	42	0	857735168	19	4951
2026-01-11 01:36:37.10	170.02	26.14	-29.1	-31.8	20.1	6.02e-01	0	42	0	859832320	19	4868
2026-01-11 01:36:38.11	170.16	25.97	-29.1	-31.7	20.2	6.01e-01	0	42	0	861405184	19	4865
2026-01-11 01:36:39.12	170.31	25.79	-29.2	-31.9	20.1	6.02e-01	0	42	0	863502336	19	4926
2026-01-11 01:36:40.13	170.45	25.62	-29.3	-32.2	19.8	6.05e-01	0	42	0	865075200	19	5034
2026-01-11 01:36:41.13	170.59	25.44	-29.4	-32.3	19.7	6.05e-01	0	42	0	867172352	19	5073
2026-01-11 01:36:42.14	170.72	25.27	-29.3	-32.3	19.8	6.03e-01	0	42	0	869269504	19	5060
2026-01-11 01:36:43.14	170.86	25.10	-29.4	-32.4	19.8	6.04e-01	0	42	0	870842368	19	5102
2026-01-11 01:36:44.15	170.99	24.93	-29.5	-32.7	19.6	6.05e-01	0	42	0	872939520	19	5204
2026-01-11 01:36:45.16	171.13	24.76	-29.4	-32.6	19.7	6.02e-01	0	42	0	875036672	19	5159
2026-01-11 01:36:46.16	171.26	24.60	-29.5	-32.7	19.5	5.99e-01	0	42	0	876609536	19	5212
2026-01-11 01:36:47.17	171.39	24.43	-29.6	-32.9	19.4	6.03e-01	0	42	0	878706688	19	5297
2026-01-11 01:36:48.17	171.52	24.27	-29.5	-32.8	19.5	6.03e-01	0	42	0	880279552	19	5258
2026-01-11 01:36:49.18	171.64	24.10	-29.6	-32.6	19.2	6.06e-01	0	42	0	882376704	20	5085
2026-01-11 01:36:50.19	171.77	23.94	-29.7	-32.9	19.0	6.01e-01	0	42	0	883949568	20	5196
2026-01-11 01:36:51.19	171.90	23.78	-29.6	-32.9	19.4	6.01e-01	0	42	0	886046720	19	5277
2026-01-11 01:36:52.20	172.02	23.61	-29.4	-32.3	19.7	6.02e-01	0	42	0	888143872	19	5076
2026-01-11 01:36:53.21	172.14	23.45	-29.5	-32.6	19.6	6.00e-01	0	42	0	889716736	19	5169
2026-01-11 01:36:54.22	172.26	23.29	-29.4	-32.6	19.6	6.01e-01	0	42	0	891813888	19	5166
2026-01-11 01:36:55.21	172.38	23.14	-29.5	-32.7	19.4	6.02e-01	0	42	0	893386752	19	5224
2026-01-11 01:36:56.22	172.50	22.98	-29.5	-32.2	19.4	6.00e-01	0	42	0	895483904	20	4944
2026-01-11 01:36:57.23	172.62	22.82	-29.5	-32.6	19.5	6.03e-01	0	42	0	897581056	19	5183
2026-01-11 01:36:58.24	172.73	22.66	-29.5	-32.7	19.4	6.00e-01	0	42	0	899153920	19	5216
2026-01-11 01:36:59.24	172.85	22.51	-29.5	-32.6	19.5	6.01e-01	0	42	0	901251072	19	5181
2026-01-11 01:37:00.24	172.96	22.36	-29.5	-32.3	19.3	6.02e-01	0	42	0	903348224	20	4958
2026-01-11 01:37:01.25	173.07	22.20	-29.3	-31.8	19.7	6.01e-01	0	42	0	904921088	20	4775
2026-01-11 01:37:02.26	173.19	22.05	-29.2	-32.0	19.9	6.04e-01	0	42	0	907018240	19	4951
2026-01-11 01:37:03.27	173.30	21.90	-29.2	-32.0	19.9	6.00e-01	0	42	0	908591104	19	4977
2026-01-11 01:37:04.28	173.41	21.75	-29.3	-32.2	19.8	6.02e-01	0	42	0	910688256	19	5031
2026-01-11 01:37:05.28	173.51	21.60	-29.1	-31.9	19.9	6.01e-01	0	42	0	912261120	19	4982
2026-01-11 01:37:06.29	173.62	21.45	-29.2	-32.3	19.8	6.04e-01	0	42	0	914358272	18	5164
2026-01-11 01:37:07.30	173.73	21.30	-29.3	-32.1	19.8	6.02e-01	0	42	0	916455424	19	5014
2026-01-11 01:37:08.30	173.83	21.15	-29.2	-32.1	19.7	6.02e-01	0	42	0	918028288	19	4994
2026-01-11 01:37:09.31	173.94	21.01	-29.3	-32.2	19.7	6.02e-01	0	42	0	920125440	19	5051
2026-01-11 01:37:10.31	174.04	20.86	-29.4	-32.4	19.6	6.03e-01	0	42	0	921698304	19	5085
2026-01-11 01:37:11.32	174.14	20.72	-29.2	-32.0	19.9	6.01e-01	0	42	0	923795456	19	4965
2026-01-11 01:37:12.33	174.25	20.57	-29.3	-32.2	19.8	6.04e-01	0	42	0	925892608	19	5028
2026-01-11 01:37:13.33	174.34	20.43	-29.3	-32.3	19.7	5.98e-01	0	42	0	927465472	19	5066
2026-01-11 01:37:14.34	174.44	20.29	-29.4	-32.5	19.6	6.02e-01	0	42	0	929562624	19	5141
2026-01-11 01:37:15.35	174.54	20.15	-29.4	-32.6	19.5	6.02e-01	0	42	0	931659776	19	5203
2026-01-11 01:37:16.36	174.64	20.01	-29.5	-32.7	19.4	6.02e-01	0	42	0	933232640	19	5213
2026-01-11 01:37:17.37	174.74	19.87	-29.4	-32.5	19.6	6.04e-01	0	42	0	935329792	19	5132
2026-01-11 01:37:18.37	174.83	19.73	-29.4	-32.6	19.5	6.00e-01	0	42	0	936902656	19	5201
2026-01-11 01:37:19.38	174.93	19.59	-29.4	-32.6	19.4	6.04e-01	0	42	0	938999808	19	5181
2026-01-11 01:37:20.39	175.02	19.45	-29.3	-32.3	19.6	6.00e-01	0	42	0	940572672	19	5091
2026-01-11 01:37:21.39	175.12	19.31	-29.3	-32.2	19.7	6.00e-01	0	42	0	942669824	19	5052
2026-01-11 01:37:22.40	175.21	19.18	-29.2	-32.1	19.7	6.02e-01	0	42	0	944766976	19	5018
2026-01-11 01:37:23.40	175.30	19.04	-29.4	-32.5	19.5	6.01e-01	0	42	0	946339840	19	5170
2026-01-11 01:37:24.41	175.39	18.91	-29.4	-32.1	19.3	5.99e-01	0	42	0	948436992	20	4923
2026-01-11 01:37:25.42	175.48	18.77	-29.2	-31.6	19.5	6.04e-01	0	42	0	950009856	20	4742
2026-01-11 01:37:26.43	175.57	18.64	-29.2	-32.0	19.7	6.03e-01	0	42	0	952107008	19	4995
2026-01-11 01:37:27.43	175.66	18.51	-29.2	-32.2	19.6	6.03e-01	0	42	0	954204160	19	5074
2026-01-11 01:37:28.43	175.74	18.38	-29.3	-32.4	19.5	6.04e-01	0	42	0	955777024	19	5132
2026-01-11 01:37:29.43	175.83	18.25	-29.3	-32.4	19.5	6.00e-01	0	42	0	957874176	19	5132
2026-01-11 01:37:30.44	175.92	18.12	-29.2	-32.1	19.7	6.05e-01	0	42	0	959447040	19	5032
2026-01-11 01:37:31.44	176.00	17.99	-29.3	-32.3	19.5	6.00e-01	0	42	0	961544192	19	5110
2026-01-11 01:37:32.45	176.09	17.86	-29.2	-32.2	19.6	6.02e-01	0	42	0	963641344	19	5055
2026-01-11 01:37:33.45	176.17	17.73	-29.1	-32.0	19.7	6.01e-01	0	42	0	965214208	19	4977
2026-01-11 01:37:34.46	176.25	17.61	-29.1	-31.8	19.8	6.00e-01	0	42	0	967311360	19	4929
2026-01-11 01:37:35.46	176.34	17.48	-29.0	-32.2	19.9	6.04e-01	0	42	0	968884224	18	5200
2026-01-11 01:37:36.47	176.42	17.35	-29.0	-32.1	19.9	6.04e-01	0	42	0	970981376	18	5147
2026-01-11 01:37:37.48	176.50	17.23	-28.9	-31.9	20.1	6.02e-01	0	42	0	973078528	18	5062
2026-01-11 01:37:38.48	176.58	17.10	-28.9	-31.9	20.0	6.03e-01	0	42	0	974651392	18	5084
2026-01-11 01:37:39.49	176.66	16.98	-28.9	-31.8	20.1	6.03e-01	0	42	0	976748544	18	5042
2026-01-11 01:37:40.49	176.74	16.86	-28.9	-31.8	20.1	6.02e-01	0	42	0	978321408	18	5030
2026-01-11 01:37:41.49	176.82	16.73	-28.9	-31.8	20.1	6.03e-01	0	42	0	980418560	18	5042
2026-01-11 01:37:42.50	176.89	16.61	-29.0	-32.0	19.9	6.01e-01	0	42	0	982515712	18	5125
2026-01-11 01:37:43.51	176.97	16.49	-29.0	-32.1	19.9	6.02e-01	0	42	0	984088576	18	5146
2026-01-11 01:37:44.51	177.05	16.37	-29.0	-32.0	20.0	6.02e-01	0	42	0	986185728	18	5116
2026-01-11 01:37:45.52	177.12	16.25	-28.9	-32.0	20.0	6.00e-01	0	42	0	987758592	18	5100
2026-01-11 01:37:46.53	177.20	16.13	-29.0	-32.2	19.9	6.03e-01	0	42	0	989855744	18	5167
2026-01-11 01:37:47.53	177.27	16.01	-29.2	-32.1	19.6	6.00e-01	0	42	0	991952896	19	5023
2026-01-11 01:37:48.54	177.35	15.89	-29.2	-32.1	19.3	6.04e-01	0	42	0	993525760	19	5020
2026-01-11 01:37:49.55	177.42	15.77	-29.1	-31.8	19.5	6.03e-01	0	42	0	995622912	19	4938
2026-01-11 01:37:50.55	177.49	15.66	-29.3	-32.3	19.4	6.00e-01	0	42	0	997195776	19	5109
2026-01-11 01:37:51.56	177.57	15.54	-29.3	-32.4	19.2	6.02e-01	0	42	0	999292928	19	5135
2026-01-11 01:37:52.57	177.64	15.42	-29.1	-32.0	19.3	6.04e-01	0	42	0	1001390080	19	4992
2026-01-11 01:37:53.57	177.71	15.31	-29.2	-32.2	19.5	6.01e-01	0	42	0	1002962944	19	5063
2026-01-11 01:37:54.58	177.78	15.19	-29.2	-32.0	19.5	6.00e-01	0	42	0	1005060096	19	5002
2026-01-11 01:37:55.58	177.85	15.08	-29.1	-31.9	19.7	6.02e-01	0	42	0	1006632960	19	4962
2026-01-11 01:37:56.58	177.92	14.97	-29.0	-31.7	19.8	6.03e-01	0	42	0	1008730112	19	4878
2026-01-11 01:37:57.59	177.99	14.85	-29.0	-32.1	19.9	6.01e-01	0	42	0	1010827264	18	5135
2026-01-11 01:37:58.60	178.06	14.74	-29.0	-32.1	19.9	6.00e-01	0	42	0	1012400128	18	5150
2026-01-11 01:37:59.61	178.12	14.63	-29.1	-32.3	19.7	6.01e-01	0	42	0	1014497280	18	5223
2026-01-11 01:38:00.62	178.19	14.51	-29.3	-32.3	19.5	6.00e-01	0	42	0	1016070144	19	5109
2026-01-11 01:38:01.62	178.26	14.40	-29.2	-32.2	19.5	6.02e-01	0	42	0	1018167296	19	5059
2026-01-11 01:38:02.63	178.33	14.29	-29.1	-31.9	19.6	6.02e-01	0	42	0	1020264448	19	4973
2026-01-11 01:38:03.64	178.39	14.18	-29.2	-32.2	19.5	6.02e-01	0	42	0	1021837312	19	5057
2026-01-11 01:38:04.64	178.46	14.07	-29.2	-32.2	19.5	6.05e-01	0	42	0	1023934464	19	5074
2026-01-11 01:38:05.64	178.52	13.96	-29.3	-32.4	19.4	6.03e-01	0	42	0	1025507328	19	5134
2026-01-11 01:38:06.65	178.59	13.86	-29.3	-32.4	19.4	6.03e-01	0	42	0	1027604480	19	5123
2026-01-11 01:38:07.66	178.65	13.75	-29.2	-32.0	19.6	6.03e-01	0	42	0	1029701632	19	4991
2026-01-11 01:38:08.67	178.71	13.64	-29.3	-32.3	19.4	6.02e-01	0	42	0	1031274496	19	5087
2026-01-11 01:38:09.67	178.78	13.53	-29.2	-32.1	19.5	6.01e-01	0	42	0	1033371648	19	5011
2026-01-11 01:38:10.67	178.84	13.43	-29.2	-32.1	19.5	6.01e-01	0	42	0	1034944512	19	5035
2026-01-11 01:38:11.68	178.90	13.32	-29.2	-32.1	19.5	6.01e-01	0	42	0	1037041664	19	5013
2026-01-11 01:38:12.69	178.96	13.21	-29.2	-32.2	19.4	6.01e-01	0	42	0	1038614528	19	5074
2026-01-11 01:38:13.69	179.02	13.11	-29.2	-32.2	19.4	6.02e-01	0	42	0	1040711680	19	5074
2026-01-11 01:38:14.70	179.08	13.00	-29.2	-32.1	19.4	6.02e-01	0	42	0	1042808832	19	5027
2026-01-11 01:38:15.70	179.14	12.90	-29.1	-32.0	19.5	6.02e-01	0	42	0	1044381696	19	5049
2026-01-11 01:38:16.71	179.21	12.80	-29.3	-32.3	19.3	6.04e-01	0	42	0	1046478848	19	5120
2026-01-11 01:38:17.71	179.26	12.69	-29.3	-32.3	19.3	6.01e-01	0	42	0	1048576000	19	5103
2026-01-11 01:38:18.72	179.32	12.59	-29.3	-32.4	19.3	6.00e-01	0	42	0	1050148864	19	5136
2026-01-11 01:38:19.73	179.38	12.49	-29.3	-32.3	19.3	6.00e-01	0	42	0	1052246016	19	5123
2026-01-11 01:38:20.73	179.44	12.39	-29.3	-32.3	19.3	6.01e-01	0	42	0	1053818880	19	5100
2026-01-11 01:38:21.73	179.50	12.29	-29.3	-32.5	19.2	6.03e-01	0	42	0	1055916032	19	5166
2026-01-11 01:38:22.74	179.56	12.19	-29.2	-32.1	19.4	5.98e-01	0	42	0	1057488896	19	5055
2026-01-11 01:38:23.74	179.61	12.09	-29.3	-32.3	19.3	6.01e-01	0	42	0	1059586048	19	5108
2026-01-11 01:38:24.75	179.67	11.98	-29.3	-32.4	19.2	6.02e-01	0	42	0	1061683200	19	5154
2026-01-11 01:38:25.75	179.73	11.89	-29.2	-32.2	19.3	6.01e-01	0	42	0	1063256064	19	5087
2026-01-11 01:38:26.76	179.78	11.79	-29.3	-32.5	19.2	6.02e-01	0	42	0	1065353216	19	5175
2026-01-11 01:38:27.77	179.84	11.69	-29.3	-32.4	19.2	6.04e-01	0	42	0	1066926080	19	5169
2026-01-11 01:38:28.77	179.89	11.59	-29.3	-32.8	19.2	6.01e-01	0	42	0	1069023232	18	5388
2026-01-11 01:38:29.77	179.95	11.49	-29.4	-32.8	18.8	6.01e-01	0	42	0	1071120384	19	5321
2026-01-11 01:38:30.78	180.00	11.39	-29.3	-32.5	19.1	6.00e-01	0	42	0	1072693248	19	5184
2026-01-11 01:38:31.78	180.05	11.30	-29.3	-32.5	18.7	6.02e-01	0	42	0	1074790400	19	5199
2026-01-11 01:38:32.78	180.11	11.20	-29.4	-32.6	18.8	6.01e-01	0	42	0	1076363264	19	5236
2026-01-11 01:38:33.78	180.16	11.11	-29.5	-32.9	18.9	6.04e-01	0	42	0	1078460416	19	5356
2026-01-11 01:38:34.79	180.21	11.01	-29.4	-32.8	18.9	6.00e-01	0	42	0	1080557568	19	5325
2026-01-11 01:38:35.79	180.27	10.91	-29.6	-33.2	18.7	6.01e-01	0	42	0	1082130432	19	5456
2026-01-11 01:38:36.79	180.32	10.82	-29.4	-32.2	18.9	6.02e-01	0	42	0	1084227584	20	4979
2026-01-11 01:38:37.80	180.37	10.72	-29.3	-32.5	19.1	6.02e-01	0	42	0	1085800448	19	5191
2026-01-11 01:38:38.80	180.42	10.63	-29.3	-32.6	19.0	6.04e-01	0	42	0	1087897600	19	5222
2026-01-11 01:38:39.81	180.47	10.54	-29.5	-33.1	18.7	6.03e-01	0	42	0	1089994752	19	5442
2026-01-11 01:38:40.81	180.52	10.44	-29.5	-32.9	18.8	5.98e-01	0	42	0	1091567616	19	5356
2026-01-11 01:38:41.82	180.58	10.35	-29.4	-32.7	18.9	6.03e-01	0	42	0	1093664768	19	5281
2026-01-11 01:38:42.83	180.63	10.26	-29.5	-33.1	18.7	6.03e-01	0	42	0	1095237632	19	5423
2026-01-11 01:38:43.84	180.68	10.16	-29.4	-32.7	18.9	6.00e-01	0	42	0	1097334784	19	5274
2026-01-11 01:38:44.84	180.73	10.07	-29.4	-32.8	18.8	6.00e-01	0	42	0	1099431936	19	5328
2026-01-11 01:38:45.84	180.77	9.98	-29.5	-33.1	18.7	6.02e-01	0	42	0	1101004800	19	5421
2026-01-11 01:38:46.84	180.82	9.89	-29.4	-32.8	18.8	6.05e-01	0	42	0	1103101952	19	5311
2026-01-11 01:38:47.85	180.87	9.80	-29.4	-32.8	18.8	6.02e-01	0	42	0	1104674816	19	5327
2026-01-11 01:38:48.85	180.92	9.71	-29.5	-33.1	18.6	6.01e-01	0	42	0	1106771968	19	5440
2026-01-11 01:38:49.86	180.97	9.62	-29.4	-32.9	18.8	6.02e-01	0	42	0	1108869120	19	5341
2026-01-11 01:38:50.87	181.02	9.53	-29.4	-32.8	18.8	6.02e-01	0	42	0	1110441984	19	5319
2026-01-11 01:38:51.88	181.06	9.44	-29.4	-32.8	18.8	6.02e-01	0	42	0	1112539136	19	5334
2026-01-11 01:38:52.88	181.11	9.35	-29.4	-32.8	18.7	6.02e-01	0	42	0	1114112000	19	5332
2026-01-11 01:38:53.89	181.16	9.26	-29.4	-32.9	18.7	6.02e-01	0	42	0	1116209152	19	5362
2026-01-11 01:38:54.90	181.21	9.17	-29.5	-33.2	18.6	6.02e-01	0	42	0	1118306304	19	5466
2026-01-11 01:38:55.90	181.25	9.08	-29.5	-33.0	18.7	6.02e-01	0	42	0	1119879168	19	5400
2026-01-11 01:38:56.91	181.30	8.99	-29.5	-33.1	18.6	6.00e-01	0	42	0	1121976320	19	5458
2026-01-11 01:38:57.91	181.34	8.91	-29.6	-32.8	18.4	6.02e-01	0	42	0	1123549184	20	5224
2026-01-11 01:38:58.92	181.39	8.82	-29.9	-33.8	17.8	6.01e-01	0	42	0	1125646336	20	5623
2026-01-11 01:38:59.92	181.43	8.73	-29.7	-33.2	18.1	6.02e-01	0	42	0	1127219200	20	5379
2026-01-11 01:39:00.92	181.48	8.65	-29.8	-33.5	17.9	6.01e-01	0	42	0	1129316352	20	5505
2026-01-11 01:39:01.93	181.52	8.56	-29.9	-33.7	17.8	6.03e-01	0	42	0	1131413504	20	5581
2026-01-11 01:39:02.93	181.57	8.47	-29.7	-33.3	18.0	6.02e-01	0	42	0	1132986368	20	5413
2026-01-11 01:39:03.94	181.61	8.39	-29.8	-33.4	17.9	6.02e-01	0	42	0	1135083520	20	5474
2026-01-11 01:39:04.94	181.66	8.30	-29.9	-33.7	17.8	6.03e-01	0	42	0	1137180672	20	5606
2026-01-11 01:39:05.94	181.70	8.22	-29.9	-33.8	17.7	6.02e-01	0	42	0	1138753536	20	5652
2026-01-11 01:39:06.95	181.74	8.13	-30.0	-34.2	17.4	6.02e-01	0	42	0	1140850688	20	5806
2026-01-11 01:39:07.95	181.79	8.05	-30.0	-34.1	17.4	6.00e-01	0	42	0	1142423552	20	5800
2026-01-11 01:39:08.96	181.83	7.97	-29.8	-33.7	17.7	6.02e-01	0	42	0	1144520704	20	5612
2026-01-11 01:39:09.97	181.87	7.88	-29.8	-33.6	17.7	6.01e-01	0	42	0	1146093568	20	5588
2026-01-11 01:39:10.97	181.91	7.80	-29.8	-33.6	17.7	6.02e-01	0	42	0	1148190720	20	5585
2026-01-11 01:39:11.97	181.96	7.72	-29.9	-33.8	17.6	6.02e-01	0	42	0	1150287872	20	5675
2026-01-11 01:39:12.98	182.00	7.63	-29.9	-33.9	17.5	6.01e-01	0	42	0	1151860736	20	5720
2026-01-11 01:39:13.98	182.04	7.55	-30.0	-33.7	17.3	6.01e-01	0	42	0	1153957888	21	5526
2026-01-11 01:39:14.99	182.08	7.47	-30.3	-34.5	16.8	6.01e-01	0	42	0	1155530752	21	5858
2026-01-11 01:39:16.00	182.12	7.39	-30.0	-34.1	16.9	6.03e-01	0	42	0	1157627904	20	5781
2026-01-11 01:39:17.00	182.16	7.30	-30.0	-34.5	17.1	6.06e-01	0	42	0	1159725056	19	6060
2026-01-11 01:39:18.01	182.21	7.22	-30.0	-34.3	17.3	6.00e-01	0	42	0	1161297920	20	5876
2026-01-11 01:39:19.02	182.25	7.14	-30.3	-34.6	15.9	6.08e-01	0	42	0	1163395072	21	5935
2026-01-11 01:39:20.03	182.29	7.06	-33.1	-52.6	3.8	7.46e-01	0	42	104	1163919360	27	33835
2026-01-11 01:39:21.03	182.33	6.98	-33.1	-52.5	3.8	7.46e-01	0	42	104	1163919360	27	33604

#Closed at: 2026-01-11 01:39:21
#Recorded file [1163 MB]: D:/data/31010_260111_042858.dat