passes_logs/2026/01/11/R2M6_AANII_01/R2M6_AANII_01__20260111_004957_SUOMI_NPP_rec.log

#Pass ID: 20260111_004957_SUOMI NPP
#Satellite: SUOMI NPP
#Configuration: NPP
#almurnet v.1.7.20240730
#Start time: 2026-01-11 00:49:57

#Version: 2.2.20231116
#Station: R2M6_AANII_01
#Location: 30.233357 lon 59.946436 lat
#TLE: 1 37849U 11061A   26009.81756760  .00000113  00000+0  74747-4 0  9994
#TLE: 2 37849  98.7806 311.9110 0002525  72.5604 287.5848 14.19524046735974

#Time	Az	El	Level	Level2	SNR	BER	BlckErr	Temp	State	Recorded	gain1	gain2
2026-01-11 00:49:57.29	16.15	6.96	-31.9	-38.2	4.6	1.37e+00	0	39	0	0	23	7419
2026-01-11 00:49:58.29	16.13	7.04	-32.1	-39.3	4.3	1.43e+00	0	39	104	0	24	8226
2026-01-11 00:49:59.29	16.11	7.12	-32.1	-38.9	5.4	5.80e-01	0	40	0	0	24	7864
2026-01-11 00:50:00.30	16.10	7.19	-32.1	-38.4	5.8	3.95e-01	0	40	0	1048576	24	7436
2026-01-11 00:50:01.31	16.08	7.27	-32.1	-38.8	5.5	4.80e-01	0	40	0	3145728	24	7743
2026-01-11 00:50:02.30	16.06	7.35	-32.1	-38.2	6.0	4.08e-01	0	40	0	5242880	24	7275
2026-01-11 00:50:03.31	16.04	7.43	-32.0	-37.7	6.3	3.44e-01	0	40	0	7340032	24	6970
2026-01-11 00:50:04.32	16.02	7.51	-32.0	-38.0	6.5	2.16e-01	0	40	0	9437184	23	7216
2026-01-11 00:50:05.32	16.00	7.58	-32.0	-37.7	6.3	2.70e-01	0	40	0	10485760	24	6948
2026-01-11 00:50:06.33	15.98	7.66	-31.9	-36.8	7.0	2.23e-01	0	40	0	12582912	24	6356
2026-01-11 00:50:07.34	15.96	7.74	-31.8	-36.8	7.4	1.11e-01	0	40	0	14680064	23	6406
2026-01-11 00:50:08.33	15.94	7.82	-31.5	-35.8	8.1	8.12e-02	0	40	0	16777216	23	5889
2026-01-11 00:50:09.34	15.92	7.90	-31.0	-34.7	8.7	4.88e-02	0	40	0	18874368	23	5536
2026-01-11 00:50:10.34	15.90	7.98	-30.3	-34.1	9.2	2.09e-02	0	40	0	19922944	22	5569
2026-01-11 00:50:11.35	15.88	8.06	-31.0	-34.8	9.5	1.42e-02	0	40	0	22020096	21	5562
2026-01-11 00:50:12.35	15.86	8.14	-30.9	-34.4	9.4	8.56e-03	0	40	0	24117248	21	5365
2026-01-11 00:50:13.35	15.84	8.22	-30.9	-34.3	9.6	8.93e-03	0	40	0	26214400	21	5328
2026-01-11 00:50:14.36	15.82	8.30	-30.8	-34.0	10.3	6.49e-03	0	40	0	28311552	21	5214
2026-01-11 00:50:15.36	15.80	8.38	-30.6	-33.3	10.5	3.15e-03	0	40	0	29360128	21	4912
2026-01-11 00:50:16.37	15.78	8.46	-30.5	-33.3	11.2	1.79e-03	0	40	0	31457280	20	4993
2026-01-11 00:50:17.37	15.76	8.54	-29.5	-31.9	11.7	7.14e-04	0	40	0	33554432	20	4773
2026-01-11 00:50:18.39	15.74	8.62	-30.3	-32.8	11.7	6.59e-04	0	40	0	35651584	20	4806
2026-01-11 00:50:19.39	15.72	8.71	-30.2	-32.6	11.8	6.29e-04	0	40	0	37748736	20	4710
2026-01-11 00:50:20.39	15.70	8.79	-30.3	-32.7	11.7	1.15e-03	0	40	0	38797312	20	4767
2026-01-11 00:50:21.40	15.67	8.87	-30.4	-32.9	11.6	6.11e-04	0	40	0	40894464	20	4825
2026-01-11 00:50:22.39	15.65	8.95	-30.3	-32.6	11.8	4.86e-04	0	40	0	42991616	20	4726
2026-01-11 00:50:23.40	15.63	9.03	-30.4	-33.0	11.6	1.34e-03	0	40	0	45088768	20	4862
2026-01-11 00:50:24.41	15.61	9.12	-30.4	-33.2	11.4	3.99e-03	0	40	0	46137344	20	4930
2026-01-11 00:50:25.41	15.59	9.20	-30.4	-33.1	11.5	7.60e-04	0	40	0	48234496	20	4894
2026-01-11 00:50:26.41	15.56	9.28	-30.5	-33.2	11.5	7.45e-04	0	40	0	50331648	20	4944
2026-01-11 00:50:27.42	15.54	9.37	-30.5	-32.8	11.4	4.36e-03	0	40	0	52428800	21	4697
2026-01-11 00:50:28.42	15.52	9.45	-30.4	-33.2	11.5	8.86e-04	0	40	0	54525952	20	4918
2026-01-11 00:50:29.42	15.50	9.54	-30.4	-32.9	11.6	6.62e-04	0	40	0	55574528	20	4829
2026-01-11 00:50:30.43	15.47	9.62	-30.4	-32.9	11.6	3.66e-03	0	40	0	57671680	20	4834
2026-01-11 00:50:31.43	15.45	9.71	-30.5	-32.9	11.3	3.87e-03	0	41	0	59768832	21	4712
2026-01-11 00:50:32.44	15.43	9.79	-30.6	-33.0	11.2	1.55e-03	0	40	0	61865984	21	4775
2026-01-11 00:50:33.44	15.40	9.88	-30.4	-32.9	11.7	3.34e-03	0	40	0	63963136	20	4830
2026-01-11 00:50:34.45	15.38	9.96	-30.4	-33.1	11.5	4.28e-03	0	40	0	65011712	20	4889
2026-01-11 00:50:35.45	15.36	10.05	-30.5	-32.9	11.4	1.36e-03	0	40	0	67108864	21	4729
2026-01-11 00:50:36.45	15.33	10.14	-30.6	-33.1	11.2	1.48e-03	0	41	0	69206016	21	4816
2026-01-11 00:50:37.46	15.31	10.22	-30.4	-33.0	11.7	4.40e-03	0	41	0	71303168	20	4842
2026-01-11 00:50:38.46	15.29	10.31	-30.4	-32.9	11.7	1.21e-03	0	40	0	73400320	20	4817
2026-01-11 00:50:39.47	15.26	10.40	-30.5	-32.8	11.5	6.19e-04	0	40	0	74448896	21	4688
2026-01-11 00:50:40.47	15.24	10.49	-30.8	-33.6	10.9	4.87e-03	0	41	0	76546048	21	4986
2026-01-11 00:50:41.47	15.21	10.57	-30.8	-33.5	10.9	3.29e-03	0	40	0	78643200	21	4963
2026-01-11 00:50:42.48	15.19	10.66	-30.7	-33.5	11.0	4.86e-03	0	41	0	80740352	21	4952
2026-01-11 00:50:43.49	15.16	10.75	-30.9	-33.9	10.7	6.09e-03	0	41	0	82837504	21	5121
2026-01-11 00:50:44.50	15.14	10.84	-31.0	-34.2	10.5	3.39e-03	0	41	0	83886080	21	5220
2026-01-11 00:50:45.50	15.11	10.93	-30.9	-33.9	10.7	6.31e-03	0	41	0	85983232	21	5097
2026-01-11 00:50:46.51	15.09	11.02	-30.8	-33.6	10.9	2.67e-03	0	41	0	88080384	21	4963
2026-01-11 00:50:47.51	15.06	11.11	-30.8	-33.7	11.0	2.98e-03	0	41	0	90177536	21	5019
2026-01-11 00:50:48.52	15.03	11.20	-30.8	-33.5	11.0	5.38e-03	0	41	0	92274688	21	4959
2026-01-11 00:50:49.53	15.01	11.29	-30.8	-33.6	10.9	5.33e-03	0	41	0	93323264	21	5001
2026-01-11 00:50:50.54	14.98	11.38	-31.0	-33.7	10.5	5.58e-03	0	41	0	95420416	22	4912
2026-01-11 00:50:51.54	14.96	11.47	-30.7	-33.2	11.2	5.04e-03	0	41	0	97517568	21	4818
2026-01-11 00:50:52.55	14.93	11.57	-30.4	-32.9	11.8	4.37e-03	0	41	0	99614720	20	4796
2026-01-11 00:50:53.55	14.90	11.66	-30.1	-32.2	12.3	6.45e-04	0	41	0	101711872	20	4541
2026-01-11 00:50:54.56	14.88	11.75	-29.9	-31.6	12.7	2.98e-03	0	41	0	102760448	20	4345
2026-01-11 00:50:55.57	14.85	11.84	-29.9	-31.9	12.9	3.17e-03	0	41	0	104857600	19	4543
2026-01-11 00:50:56.57	14.82	11.94	-29.9	-31.8	13.1	8.21e-04	0	41	0	106954752	19	4476
2026-01-11 00:50:57.57	14.79	12.03	-29.9	-31.9	13.0	2.77e-03	0	41	0	109051904	19	4529
2026-01-11 00:50:58.58	14.76	12.12	-29.8	-31.6	13.1	2.99e-03	0	41	0	111149056	19	4440
2026-01-11 00:50:59.58	14.74	12.22	-29.7	-31.4	13.3	8.35e-04	0	41	0	112197632	19	4356
2026-01-11 00:51:00.58	14.71	12.31	-29.7	-31.2	13.4	1.75e-05	0	41	0	114294784	19	4306
2026-01-11 00:51:01.59	14.68	12.41	-29.6	-31.1	13.5	3.16e-03	0	41	0	116391936	19	4268
2026-01-11 00:51:02.59	14.65	12.50	-29.7	-31.3	13.3	8.27e-04	0	41	0	118489088	19	4345
2026-01-11 00:51:03.60	14.62	12.60	-29.7	-31.3	13.4	1.67e-05	0	41	0	120586240	19	4314
2026-01-11 00:51:04.60	14.59	12.69	-29.7	-31.4	13.4	3.84e-04	0	41	0	121634816	19	4343
2026-01-11 00:51:05.61	14.56	12.79	-29.7	-31.4	13.3	7.50e-04	0	41	0	123731968	19	4345
2026-01-11 00:51:06.61	14.53	12.88	-29.5	-30.8	13.7	2.66e-03	0	41	0	125829120	19	4160
2026-01-11 00:51:07.62	14.50	12.98	-29.4	-30.6	13.8	2.20e-06	0	41	0	127926272	19	4104
2026-01-11 00:51:08.62	14.48	13.08	-29.4	-31.1	13.9	7.76e-04	0	41	0	130023424	18	4363
2026-01-11 00:51:09.63	14.44	13.18	-29.4	-31.1	13.9	2.34e-03	0	41	0	131072000	18	4354
2026-01-11 00:51:10.63	14.41	13.27	-29.4	-31.0	13.9	3.80e-06	0	41	0	133169152	18	4333
2026-01-11 00:51:11.64	14.38	13.37	-29.4	-30.9	14.0	2.20e-06	0	41	0	135266304	18	4296
2026-01-11 00:51:12.64	14.35	13.47	-29.4	-31.0	14.0	2.60e-03	0	41	0	137363456	18	4332
2026-01-11 00:51:13.64	14.32	13.57	-29.4	-31.0	13.9	3.00e-06	0	41	0	139460608	18	4336
2026-01-11 00:51:14.65	14.29	13.67	-29.3	-30.6	14.2	5.30e-06	0	41	0	140509184	18	4204
2026-01-11 00:51:15.66	14.26	13.77	-29.3	-30.8	14.1	2.20e-06	0	41	0	142606336	18	4256
2026-01-11 00:51:16.67	14.23	13.87	-29.4	-30.9	14.0	2.67e-03	0	41	0	144703488	18	4302
2026-01-11 00:51:17.67	14.19	13.97	-29.4	-30.8	14.1	1.50e-06	0	41	0	146800640	18	4277
2026-01-11 00:51:18.68	14.16	14.07	-29.4	-31.0	14.0	3.80e-06	0	41	0	147849216	18	4327
2026-01-11 00:51:19.68	14.13	14.18	-29.5	-31.1	13.9	3.02e-03	0	41	0	149946368	18	4348
2026-01-11 00:51:20.68	14.10	14.28	-29.4	-30.9	14.1	2.20e-06	0	41	0	152043520	18	4294
2026-01-11 00:51:21.69	14.06	14.38	-29.3	-30.6	14.2	0.00e+00	0	41	0	154140672	18	4208
2026-01-11 00:51:22.70	14.03	14.48	-29.2	-30.5	14.3	3.00e-06	0	41	0	156237824	18	4168
2026-01-11 00:51:23.70	14.00	14.59	-29.2	-30.5	14.3	1.50e-06	0	41	0	158334976	18	4180
2026-01-11 00:51:24.71	13.96	14.69	-29.2	-30.4	14.4	0.00e+00	0	41	0	159383552	18	4140
2026-01-11 00:51:25.71	13.93	14.80	-29.2	-30.5	14.4	7.00e-07	0	41	0	161480704	18	4158
2026-01-11 00:51:26.72	13.89	14.90	-29.2	-30.3	14.5	3.29e-04	0	41	0	163577856	18	4110
2026-01-11 00:51:27.73	13.86	15.01	-29.2	-30.5	14.3	0.00e+00	0	41	0	165675008	18	4179
2026-01-11 00:51:28.74	13.82	15.11	-29.3	-30.5	14.4	3.00e-06	0	41	0	167772160	18	4180
2026-01-11 00:51:29.74	13.79	15.22	-29.2	-30.5	14.4	0.00e+00	0	41	0	168820736	18	4155
2026-01-11 00:51:30.75	13.75	15.32	-29.2	-30.5	14.4	0.00e+00	0	41	0	170917888	18	4160
2026-01-11 00:51:31.75	13.72	15.43	-29.5	-30.7	14.0	1.50e-06	0	41	0	173015040	19	4128
2026-01-11 00:51:32.76	13.68	15.54	-29.4	-30.5	14.1	3.00e-06	0	41	0	175112192	19	4072
2026-01-11 00:51:33.77	13.64	15.65	-29.4	-31.0	14.1	2.20e-06	0	41	0	176160768	18	4309
2026-01-11 00:51:34.78	13.61	15.76	-29.6	-31.1	13.7	2.20e-06	0	41	0	178257920	19	4242
2026-01-11 00:51:35.78	13.57	15.87	-30.0	-31.9	13.2	1.14e-05	0	41	0	180355072	19	4509
2026-01-11 00:51:36.78	13.53	15.97	-29.8	-31.2	13.3	2.89e-05	0	41	0	182452224	20	4187
2026-01-11 00:51:37.78	13.50	16.08	-29.8	-31.4	13.5	9.10e-06	0	41	0	184549376	19	4347
2026-01-11 00:51:38.79	13.46	16.19	-29.8	-31.4	11.9	8.30e-06	0	41	0	186646528	19	4353
2026-01-11 00:51:39.79	13.42	16.30	-29.7	-31.3	12.6	1.06e-05	0	41	0	187695104	19	4299
2026-01-11 00:51:40.79	13.38	16.41	-29.7	-31.2	13.6	4.50e-06	0	41	0	189792256	19	4284
2026-01-11 00:51:41.80	13.34	16.53	-29.6	-31.0	13.7	3.80e-06	0	41	0	191889408	19	4211
2026-01-11 00:51:42.81	13.30	16.64	-29.7	-31.2	13.6	7.60e-06	0	41	0	193986560	19	4288
2026-01-11 00:51:43.81	13.26	16.75	-29.4	-30.8	14.2	2.55e-04	0	41	0	195035136	18	4260
2026-01-11 00:51:44.81	13.23	16.86	-29.3	-30.7	14.3	1.50e-06	0	41	0	197132288	18	4228
2026-01-11 00:51:45.82	13.18	16.98	-29.5	-30.8	13.8	0.00e+00	0	41	0	199229440	19	4155
2026-01-11 00:51:46.83	13.14	17.09	-29.5	-30.7	13.8	6.10e-06	0	41	0	201326592	19	4118
2026-01-11 00:51:47.83	13.10	17.21	-29.3	-30.6	14.4	1.77e-03	0	41	0	203423744	18	4195
2026-01-11 00:51:48.84	13.06	17.32	-29.2	-30.4	14.5	7.00e-07	0	42	0	204472320	18	4128
2026-01-11 00:51:49.85	13.02	17.44	-29.0	-29.9	14.8	0.00e+00	0	41	0	206569472	18	3985
2026-01-11 00:51:50.85	12.98	17.56	-29.1	-30.1	14.7	2.49e-03	0	41	0	208666624	18	4040
2026-01-11 00:51:51.86	12.94	17.67	-29.1	-30.0	14.8	1.50e-06	0	41	0	210763776	18	4021
2026-01-11 00:51:52.87	12.89	17.79	-29.1	-30.0	14.8	7.00e-07	0	41	0	212860928	18	4021
2026-01-11 00:51:53.88	12.85	17.91	-29.2	-30.2	14.7	2.29e-03	0	41	0	213909504	18	4078
2026-01-11 00:51:54.88	12.81	18.03	-29.2	-30.3	14.6	2.54e-03	0	41	0	216006656	18	4086
2026-01-11 00:51:55.88	12.76	18.15	-29.2	-30.2	14.6	0.00e+00	0	42	0	218103808	18	4083
2026-01-11 00:51:56.88	12.72	18.27	-29.3	-30.7	14.3	0.00e+00	0	41	0	220200960	18	4215
2026-01-11 00:51:57.88	12.68	18.39	-29.1	-30.2	14.7	2.88e-03	0	42	0	222298112	18	4056
2026-01-11 00:51:58.89	12.63	18.51	-29.2	-30.4	14.5	0.00e+00	0	42	0	223346688	18	4122
2026-01-11 00:51:59.89	12.59	18.63	-29.1	-30.1	14.8	7.00e-07	0	41	0	225443840	18	4035
2026-01-11 00:52:00.90	12.54	18.75	-29.0	-29.9	14.9	2.60e-03	0	41	0	227540992	18	3978
2026-01-11 00:52:01.90	12.49	18.87	-29.1	-30.0	14.8	5.98e-04	0	41	0	229638144	18	4024
2026-01-11 00:52:02.91	12.45	19.00	-29.1	-30.2	14.7	0.00e+00	0	41	0	231735296	18	4068
2026-01-11 00:52:03.91	12.40	19.12	-29.0	-30.3	14.9	2.90e-03	0	41	0	232783872	17	4199
2026-01-11 00:52:04.92	12.35	19.25	-29.2	-30.3	14.6	6.17e-04	0	42	0	234881024	18	4085
2026-01-11 00:52:05.92	12.31	19.37	-29.2	-30.2	14.7	2.43e-03	0	42	0	236978176	18	4078
2026-01-11 00:52:06.93	12.26	19.50	-29.4	-30.7	14.4	7.00e-07	0	41	0	239075328	18	4224
2026-01-11 00:52:07.93	12.21	19.62	-29.2	-30.3	14.6	6.18e-04	0	41	0	241172480	18	4089
2026-01-11 00:52:08.94	12.16	19.75	-28.9	-29.7	15.0	2.38e-03	0	41	0	242221056	18	3915
2026-01-11 00:52:09.94	12.11	19.88	-28.9	-30.0	15.2	0.00e+00	0	41	0	244318208	17	4102
2026-01-11 00:52:10.95	12.06	20.00	-29.0	-29.9	14.9	4.72e-04	0	41	0	246415360	18	3975
2026-01-11 00:52:11.96	12.01	20.13	-28.9	-30.0	15.1	2.16e-03	0	42	0	248512512	17	4096
2026-01-11 00:52:12.97	11.96	20.26	-29.0	-29.8	14.9	2.44e-03	0	42	0	250609664	18	3963
2026-01-11 00:52:13.98	11.91	20.39	-28.8	-29.8	15.3	3.79e-04	0	41	0	251658240	17	4043
2026-01-11 00:52:14.99	11.86	20.53	-28.7	-29.7	15.3	2.37e-03	0	41	0	253755392	17	4018
2026-01-11 00:52:16.00	11.80	20.66	-28.8	-29.8	15.3	2.48e-03	0	42	0	255852544	17	4053
2026-01-11 00:52:17.00	11.75	20.79	-28.7	-29.6	15.4	1.91e-04	0	42	0	257949696	17	3985
2026-01-11 00:52:18.01	11.70	20.92	-28.9	-30.0	15.1	2.28e-03	0	42	0	260046848	17	4109
2026-01-11 00:52:19.01	11.65	21.06	-28.7	-29.5	15.4	2.32e-03	0	42	0	261095424	17	3974
2026-01-11 00:52:20.01	11.59	21.19	-28.6	-29.3	15.6	3.72e-04	0	42	0	263192576	17	3896
2026-01-11 00:52:21.01	11.54	21.32	-28.7	-29.5	15.5	2.12e-03	0	42	0	265289728	17	3954
2026-01-11 00:52:22.01	11.48	21.46	-28.6	-29.3	15.6	2.57e-03	0	42	0	267386880	17	3918
2026-01-11 00:52:23.02	11.43	21.59	-28.7	-29.6	15.4	3.80e-04	0	42	0	269484032	17	4002
2026-01-11 00:52:24.03	11.37	21.73	-28.7	-29.6	15.4	0.00e+00	0	42	0	270532608	17	3975
2026-01-11 00:52:25.04	11.31	21.87	-28.8	-29.8	15.3	2.42e-03	0	42	0	272629760	17	4032
2026-01-11 00:52:26.04	11.26	22.01	-29.1	-30.1	14.9	3.29e-04	0	41	0	274726912	18	4027
2026-01-11 00:52:27.04	11.20	22.15	-28.9	-29.5	15.2	0.00e+00	0	42	0	276824064	18	3864
2026-01-11 00:52:28.05	11.14	22.29	-28.8	-29.9	15.3	1.60e-04	0	42	0	278921216	17	4061
2026-01-11 00:52:29.05	11.08	22.43	-28.9	-30.0	15.2	1.23e-04	0	41	0	279969792	17	4105
2026-01-11 00:52:30.06	11.02	22.57	-28.9	-29.7	15.1	2.08e-03	0	41	0	282066944	18	3905
2026-01-11 00:52:31.06	10.96	22.71	-28.9	-30.0	15.2	0.00e+00	0	41	0	284164096	17	4100
2026-01-11 00:52:32.07	10.90	22.85	-28.9	-30.0	15.2	8.69e-05	0	41	0	286261248	17	4105
2026-01-11 00:52:33.08	10.84	23.00	-28.9	-30.0	15.2	2.25e-03	0	41	0	288358400	17	4092
2026-01-11 00:52:34.08	10.78	23.14	-29.1	-29.9	15.0	0.00e+00	0	42	0	289406976	18	3975
2026-01-11 00:52:35.09	10.72	23.29	-28.7	-29.0	15.5	9.61e-05	0	42	0	291504128	18	3742
2026-01-11 00:52:36.10	10.65	23.43	-28.8	-29.7	15.4	2.19e-03	0	42	0	293601280	17	4015
2026-01-11 00:52:37.10	10.59	23.58	-28.7	-29.6	15.4	0.00e+00	0	42	0	295698432	17	3975
2026-01-11 00:52:38.11	10.52	23.73	-28.6	-29.3	15.6	0.00e+00	0	42	0	297795584	17	3908
2026-01-11 00:52:39.11	10.46	23.87	-28.8	-29.8	15.4	5.30e-06	0	42	0	298844160	17	4041
2026-01-11 00:52:40.11	10.39	24.02	-28.8	-29.9	15.2	2.50e-03	0	42	0	300941312	17	4075
2026-01-11 00:52:41.12	10.33	24.17	-29.0	-29.9	15.0	0.00e+00	0	41	0	303038464	18	3961
2026-01-11 00:52:42.13	10.26	24.32	-29.4	-30.7	14.6	0.00e+00	0	42	0	305135616	18	4197
2026-01-11 00:52:43.14	10.19	24.48	-29.3	-30.5	14.7	2.48e-03	0	42	0	307232768	18	4142
2026-01-11 00:52:44.14	10.12	24.63	-29.5	-30.7	14.3	7.00e-07	0	42	0	308281344	19	4090
2026-01-11 00:52:45.15	10.05	24.78	-29.8	-31.4	13.9	3.80e-06	0	42	0	310378496	19	4306
2026-01-11 00:52:46.15	9.99	24.94	-29.8	-31.4	13.8	1.52e-04	0	42	0	312475648	19	4310
2026-01-11 00:52:47.16	9.91	25.09	-29.9	-31.1	13.6	6.80e-06	0	42	0	314572800	20	4156
2026-01-11 00:52:48.16	9.84	25.25	-30.1	-31.8	13.2	2.21e-05	0	42	0	316669952	20	4348
2026-01-11 00:52:49.17	9.77	25.40	-30.0	-31.3	13.5	2.28e-05	0	42	0	317718528	20	4205
2026-01-11 00:52:50.18	9.70	25.56	-30.0	-31.5	13.3	1.43e-04	0	42	0	319815680	20	4269
2026-01-11 00:52:51.18	9.63	25.72	-30.1	-31.8	13.2	2.51e-05	0	42	0	321912832	20	4359
2026-01-11 00:52:52.19	9.55	25.88	-29.9	-31.2	13.5	2.21e-05	0	42	0	324009984	20	4160
2026-01-11 00:52:53.19	9.48	26.04	-30.0	-31.5	13.3	1.57e-04	0	41	0	326107136	20	4271
2026-01-11 00:52:54.20	9.40	26.20	-30.0	-31.5	13.4	7.60e-06	0	42	0	327155712	20	4248
2026-01-11 00:52:55.20	9.32	26.36	-30.2	-31.8	13.2	1.83e-05	0	42	0	329252864	20	4363
2026-01-11 00:52:56.21	9.25	26.53	-30.2	-31.9	13.1	2.74e-05	0	42	0	331350016	20	4376
2026-01-11 00:52:57.22	9.17	26.69	-30.2	-32.1	13.0	4.27e-05	0	42	0	333447168	20	4443
2026-01-11 00:52:58.22	9.09	26.85	-30.4	-32.1	12.7	6.63e-05	0	42	0	334495744	21	4352
2026-01-11 00:52:59.23	9.01	27.02	-30.5	-32.4	12.5	9.76e-05	0	42	0	336592896	21	4455
2026-01-11 00:53:00.23	8.93	27.19	-30.6	-32.6	12.3	1.32e-04	0	42	0	338690048	21	4516
2026-01-11 00:53:01.23	8.85	27.35	-30.9	-33.4	12.0	2.10e-04	0	42	0	340787200	21	4804
2026-01-11 00:53:02.24	8.76	27.52	-30.8	-33.2	11.9	2.82e-04	0	42	0	342884352	21	4746
2026-01-11 00:53:03.23	8.68	27.69	-30.7	-32.8	12.2	2.55e-04	0	42	0	343932928	21	4592
2026-01-11 00:53:04.24	8.60	27.86	-30.7	-32.7	12.2	2.27e-04	0	42	0	346030080	21	4572
2026-01-11 00:53:05.25	8.51	28.03	-30.6	-33.1	12.0	1.75e-04	0	42	0	348127232	20	4784
2026-01-11 00:53:06.25	8.42	28.20	-30.6	-32.6	11.7	1.55e-04	0	42	0	350224384	21	4502
2026-01-11 00:53:07.26	8.34	28.38	-30.7	-32.9	12.1	2.77e-04	0	42	0	352321536	21	4622
2026-01-11 00:53:08.26	8.25	28.55	-30.4	-32.6	11.9	1.24e-04	0	42	0	353370112	20	4593
2026-01-11 00:53:09.27	8.16	28.73	-30.4	-32.6	12.5	5.72e-05	0	42	0	355467264	20	4591
2026-01-11 00:53:10.27	8.07	28.90	-30.6	-32.6	12.4	6.02e-05	0	42	0	357564416	21	4510
2026-01-11 00:53:11.28	7.98	29.08	-30.8	-33.2	11.9	2.96e-04	0	42	0	359661568	21	4730
2026-01-11 00:53:12.29	7.88	29.26	-30.8	-33.1	12.0	4.06e-04	0	42	0	361758720	21	4692
2026-01-11 00:53:13.30	7.79	29.44	-30.9	-32.9	11.8	3.61e-04	0	42	0	362807296	22	4525
2026-01-11 00:53:14.30	7.69	29.62	-31.0	-33.7	11.7	2.28e-03	0	42	0	364904448	21	4891
2026-01-11 00:53:15.31	7.60	29.81	-31.1	-33.6	11.4	1.12e-03	0	42	0	367001600	22	4773
2026-01-11 00:53:16.31	7.50	29.99	-31.2	-33.7	11.4	1.57e-03	0	42	0	369098752	22	4800
2026-01-11 00:53:17.31	7.40	30.17	-31.2	-33.8	11.2	3.43e-03	0	42	0	371195904	22	4858
2026-01-11 00:53:18.32	7.30	30.36	-31.1	-33.6	11.4	9.02e-04	0	42	0	372244480	22	4775
2026-01-11 00:53:19.32	7.20	30.54	-31.1	-33.5	11.5	8.12e-04	0	42	0	374341632	22	4744
2026-01-11 00:53:20.32	7.10	30.73	-31.0	-33.1	11.7	6.81e-04	0	42	0	376438784	22	4599
2026-01-11 00:53:21.33	7.00	30.92	-30.9	-33.5	11.8	2.56e-03	0	42	0	378535936	21	4833
2026-01-11 00:53:22.33	6.90	31.11	-31.1	-33.4	11.6	3.67e-04	0	42	0	380633088	22	4695
2026-01-11 00:53:23.34	6.79	31.30	-30.8	-33.1	12.0	8.95e-04	0	42	0	381681664	21	4694
2026-01-11 00:53:24.34	6.68	31.49	-31.1	-33.4	11.6	3.19e-03	0	42	0	383778816	22	4680
2026-01-11 00:53:25.35	6.57	31.68	-31.5	-34.2	10.7	1.19e-03	0	42	0	385875968	23	4905
2026-01-11 00:53:26.36	6.46	31.88	-31.5	-34.2	10.6	1.83e-03	0	42	0	387973120	23	4910
2026-01-11 00:53:27.36	6.35	32.07	-31.6	-34.5	10.4	5.71e-03	0	42	0	390070272	23	5040
2026-01-11 00:53:28.37	6.24	32.27	-31.7	-34.7	10.3	8.47e-03	0	42	0	391118848	23	5109
2026-01-11 00:53:29.38	6.13	32.47	-31.7	-34.8	10.3	4.22e-03	0	42	0	393216000	23	5139
2026-01-11 00:53:30.38	6.01	32.67	-31.8	-35.2	10.0	3.81e-03	0	42	0	395313152	23	5337
2026-01-11 00:53:31.39	5.90	32.87	-31.5	-34.0	10.7	4.38e-03	0	42	0	397410304	23	4843
2026-01-11 00:53:32.39	5.78	33.07	-31.5	-34.2	10.6	6.41e-03	0	42	0	399507456	23	4908
2026-01-11 00:53:33.40	5.66	33.27	-31.7	-34.7	10.2	4.46e-03	0	42	0	400556032	23	5107
2026-01-11 00:53:34.41	5.54	33.48	-31.6	-34.4	10.6	4.24e-03	0	42	0	402653184	23	4963
2026-01-11 00:53:35.41	5.41	33.68	-31.7	-34.7	10.3	9.21e-03	0	42	0	404750336	23	5096
2026-01-11 00:53:36.42	5.29	33.89	-31.7	-34.5	10.1	1.66e-02	0	42	0	406847488	24	4944
2026-01-11 00:53:37.42	5.16	34.09	-32.0	-35.4	9.4	1.63e-02	0	42	0	408944640	24	5324
2026-01-11 00:53:38.43	5.04	34.30	-32.3	-36.5	8.5	3.05e-02	0	42	0	409993216	24	5866
2026-01-11 00:53:39.43	4.91	34.51	-32.0	-35.4	9.4	2.60e-02	0	42	0	412090368	24	5309
2026-01-11 00:53:40.43	4.78	34.72	-32.2	-36.3	8.7	2.23e-02	0	42	0	414187520	24	5726
2026-01-11 00:53:41.44	4.64	34.93	-32.3	-36.2	8.3	6.16e-02	0	42	0	416284672	25	5597
2026-01-11 00:53:42.45	4.51	35.15	-31.9	-35.1	9.7	1.86e-02	0	42	0	418381824	24	5193
2026-01-11 00:53:43.46	4.37	35.36	-32.2	-36.2	9.0	1.45e-02	0	42	0	419430400	24	5722
2026-01-11 00:53:44.47	4.23	35.58	-32.4	-36.3	8.3	7.02e-02	0	42	0	421527552	25	5680
2026-01-11 00:53:45.47	4.09	35.80	-32.5	-37.4	7.9	5.48e-02	0	42	0	423624704	24	6334
2026-01-11 00:53:46.47	3.95	36.02	-32.7	-38.1	7.0	7.23e-02	0	42	0	425721856	25	6644
2026-01-11 00:53:47.48	3.81	36.24	-32.8	-38.2	6.7	1.43e-01	0	42	0	427819008	25	6746
2026-01-11 00:53:48.49	3.66	36.46	-32.8	-38.2	6.8	1.63e-01	0	42	0	428867584	25	6735
2026-01-11 00:53:49.49	3.51	36.68	-32.8	-38.3	6.8	2.02e-01	0	42	0	430964736	25	6778
2026-01-11 00:53:50.49	3.36	36.90	-32.6	-37.4	7.5	1.04e-01	0	42	0	433061888	25	6260
2026-01-11 00:53:51.50	3.21	37.13	-32.5	-36.7	7.9	9.48e-02	0	42	0	435159040	25	5864
2026-01-11 00:53:52.50	3.06	37.35	-32.3	-36.2	8.4	7.03e-02	0	42	0	437256192	25	5621
2026-01-11 00:53:53.51	2.90	37.58	-32.4	-36.6	8.1	6.06e-02	0	42	0	438304768	25	5818
2026-01-11 00:53:54.51	2.74	37.81	-32.2	-35.7	8.8	6.76e-02	0	42	0	440401920	25	5368
2026-01-11 00:53:55.51	2.58	38.04	-31.8	-34.2	10.0	1.77e-02	0	42	0	442499072	25	4731
2026-01-11 00:53:56.52	2.42	38.27	-31.6	-34.3	10.6	8.53e-03	0	42	0	444596224	23	4930
2026-01-11 00:53:57.52	2.25	38.51	-31.5	-34.2	10.8	1.33e-03	0	42	0	446693376	23	4888
2026-01-11 00:53:58.52	2.08	38.74	-31.8	-35.0	10.2	5.92e-03	0	42	0	447741952	23	5221
2026-01-11 00:53:59.53	1.91	38.98	-31.8	-35.0	10.2	1.27e-02	0	42	0	449839104	23	5239
2026-01-11 00:54:00.53	1.74	39.21	-32.0	-35.8	9.6	9.30e-03	0	42	0	451936256	23	5572
2026-01-11 00:54:01.54	1.56	39.45	-32.1	-35.6	9.3	1.71e-02	0	42	0	454033408	24	5428
2026-01-11 00:54:02.54	1.38	39.69	-32.0	-35.4	9.4	2.21e-02	0	42	0	456130560	24	5299
2026-01-11 00:54:03.55	1.20	39.93	-32.3	-36.4	8.7	3.37e-02	0	42	0	457179136	24	5768
2026-01-11 00:54:04.56	1.02	40.18	-32.2	-36.3	8.8	3.70e-02	0	42	0	459276288	24	5748
2026-01-11 00:54:05.56	0.83	40.42	-32.0	-35.5	9.4	1.36e-02	0	42	0	461373440	24	5379
2026-01-11 00:54:06.56	0.64	40.66	-31.7	-34.9	10.3	1.16e-02	0	42	0	463470592	23	5167
2026-01-11 00:54:07.56	0.45	40.91	-31.6	-34.5	10.7	2.57e-03	0	42	0	465567744	23	5009
2026-01-11 00:54:08.57	0.25	41.16	-31.2	-33.6	11.6	1.08e-03	0	42	0	466616320	22	4767
2026-01-11 00:54:09.58	0.05	41.41	-31.1	-33.4	11.7	2.90e-03	0	42	0	468713472	22	4686
2026-01-11 00:54:10.59	359.85	41.66	-30.8	-32.5	12.3	2.66e-04	0	42	0	470810624	22	4382
2026-01-11 00:54:11.59	359.64	41.91	-31.1	-33.3	11.8	3.16e-04	0	42	0	472907776	22	4623
2026-01-11 00:54:12.60	359.43	42.16	-30.9	-32.8	12.1	4.25e-04	0	42	0	475004928	22	4473
2026-01-11 00:54:13.61	359.22	42.42	-30.8	-32.5	12.4	5.24e-04	0	42	0	476053504	22	4364
2026-01-11 00:54:14.61	359.01	42.67	-30.5	-32.2	12.8	1.43e-04	0	42	0	478150656	21	4353
2026-01-11 00:54:15.62	358.79	42.93	-30.5	-32.0	12.9	4.50e-05	0	42	0	480247808	21	4303
2026-01-11 00:54:16.63	358.56	43.19	-30.4	-32.4	13.0	1.98e-05	0	42	0	482344960	20	4504
2026-01-11 00:54:17.63	358.34	43.45	-30.1	-31.5	13.7	1.60e-05	0	42	0	483393536	20	4233
2026-01-11 00:54:18.64	358.10	43.71	-30.3	-31.9	13.3	2.20e-06	0	42	0	485490688	20	4336
2026-01-11 00:54:19.65	357.87	43.97	-30.3	-32.0	13.3	9.90e-06	0	42	0	487587840	20	4370
2026-01-11 00:54:20.66	357.63	44.24	-29.8	-30.6	14.2	3.00e-06	0	42	0	489684992	20	3957
2026-01-11 00:54:21.66	357.39	44.50	-29.7	-30.4	14.4	2.20e-06	0	42	0	491782144	20	3899
2026-01-11 00:54:22.67	357.14	44.77	-29.6	-30.1	14.5	7.00e-07	0	42	0	493879296	20	3819
2026-01-11 00:54:23.68	356.89	45.03	-29.9	-31.4	14.1	0.00e+00	0	42	0	494927872	19	4275
2026-01-11 00:54:24.68	356.64	45.30	-29.7	-30.3	14.5	7.00e-07	0	42	0	497025024	20	3883
2026-01-11 00:54:25.69	356.38	45.57	-29.7	-30.5	14.4	0.00e+00	0	42	0	499122176	20	3923
2026-01-11 00:54:26.70	356.11	45.84	-30.0	-31.3	13.8	3.00e-06	0	42	0	501219328	20	4160
2026-01-11 00:54:27.70	355.84	46.11	-30.3	-31.9	13.5	5.30e-06	0	42	0	503316480	20	4347
2026-01-11 00:54:28.71	355.57	46.39	-30.2	-31.7	13.6	1.52e-05	0	42	0	504365056	20	4304
2026-01-11 00:54:29.71	355.29	46.66	-30.0	-31.1	14.0	4.50e-06	0	42	0	506462208	20	4105
2026-01-11 00:54:30.72	355.01	46.93	-29.5	-30.0	14.6	0.00e+00	0	42	0	508559360	20	3808
2026-01-11 00:54:31.72	354.72	47.21	-29.8	-31.3	13.7	7.00e-07	0	42	0	510656512	19	4237
2026-01-11 00:54:32.73	354.43	47.49	-30.0	-31.3	12.9	2.20e-06	0	42	0	511705088	20	4159
2026-01-11 00:54:33.73	354.13	47.76	-30.2	-31.7	13.5	6.80e-06	0	42	0	513802240	20	4279
2026-01-11 00:54:34.74	353.83	48.04	-30.0	-31.3	13.8	3.80e-06	0	42	0	515899392	20	4163
2026-01-11 00:54:35.75	353.51	48.32	-30.0	-31.5	14.1	1.14e-05	0	42	0	517996544	19	4323
2026-01-11 00:54:36.76	353.20	48.60	-29.6	-30.7	14.6	1.50e-06	0	42	0	520093696	19	4064
2026-01-11 00:54:37.76	352.88	48.88	-29.7	-30.9	14.4	1.77e-03	0	42	0	522190848	19	4135
2026-01-11 00:54:38.77	352.55	49.17	-29.7	-30.8	14.5	2.20e-06	0	42	0	523239424	19	4095
2026-01-11 00:54:39.78	352.21	49.45	-29.7	-30.7	14.5	7.00e-07	0	42	0	525336576	19	4083
2026-01-11 00:54:40.78	351.88	49.73	-29.5	-30.3	14.9	1.79e-03	0	42	0	527433728	19	3953
2026-01-11 00:54:41.78	351.53	50.01	-29.1	-30.0	15.4	7.00e-07	0	42	0	529530880	18	3967
2026-01-11 00:54:42.79	351.18	50.30	-29.0	-29.5	15.6	0.00e+00	0	42	0	531628032	18	3837
2026-01-11 00:54:43.79	350.82	50.58	-29.1	-29.9	15.4	1.96e-03	0	42	0	532676608	18	3930
2026-01-11 00:54:44.80	350.45	50.87	-29.2	-30.2	15.2	2.34e-03	0	42	0	534773760	18	4019
2026-01-11 00:54:45.81	350.08	51.16	-29.2	-30.1	15.3	0.00e+00	0	42	0	536870912	18	3989
2026-01-11 00:54:46.81	349.70	51.44	-29.2	-30.1	15.1	0.00e+00	0	42	0	538968064	18	4005
2026-01-11 00:54:47.81	349.31	51.73	-29.5	-30.8	14.8	2.23e-03	0	42	0	540016640	18	4197
2026-01-11 00:54:48.82	348.91	52.02	-29.1	-29.4	15.3	6.33e-05	0	42	0	542113792	19	3729
2026-01-11 00:54:49.83	348.51	52.31	-29.4	-30.7	15.0	0.00e+00	0	42	0	544210944	18	4162
2026-01-11 00:54:50.83	348.10	52.59	-29.8	-31.2	14.4	1.20e-03	0	42	0	546308096	19	4228
2026-01-11 00:54:51.83	347.68	52.88	-30.4	-32.1	13.4	2.20e-06	0	42	0	548405248	20	4426
2026-01-11 00:54:52.83	347.26	53.17	-30.6	-32.3	12.8	3.89e-05	0	42	0	549453824	21	4398
2026-01-11 00:54:53.84	346.82	53.46	-31.0	-32.9	12.2	2.13e-03	0	42	0	551550976	22	4509
2026-01-11 00:54:54.85	346.37	53.75	-30.6	-31.7	13.0	6.40e-05	0	42	0	553648128	22	4095
2026-01-11 00:54:55.85	345.92	54.03	-30.3	-31.4	13.5	2.08e-03	0	42	0	555745280	21	4093
2026-01-11 00:54:56.86	345.45	54.32	-30.3	-31.8	13.6	2.36e-05	0	42	0	557842432	20	4326
2026-01-11 00:54:57.86	344.98	54.61	-30.3	-31.9	13.5	9.10e-06	0	42	0	558891008	20	4339
2026-01-11 00:54:58.87	344.49	54.89	-30.2	-31.8	13.6	2.27e-03	0	42	0	560988160	20	4298
2026-01-11 00:54:59.88	344.00	55.18	-30.1	-31.5	13.8	2.10e-03	0	42	0	563085312	20	4226
2026-01-11 00:55:00.88	343.50	55.47	-30.4	-32.3	13.2	5.34e-05	0	42	0	565182464	20	4461
2026-01-11 00:55:01.89	342.98	55.75	-30.4	-32.3	13.4	1.84e-03	0	42	0	567279616	20	4471
2026-01-11 00:55:02.89	342.46	56.04	-30.5	-32.0	13.1	2.09e-03	0	42	0	568328192	21	4284
2026-01-11 00:55:03.90	341.92	56.32	-30.7	-32.5	12.8	4.27e-05	0	42	0	570425344	21	4445
2026-01-11 00:55:04.90	341.38	56.60	-30.5	-32.0	13.1	2.32e-03	0	42	0	572522496	21	4268
2026-01-11 00:55:05.91	340.82	56.88	-30.5	-32.0	13.1	2.18e-03	0	42	0	574619648	21	4296
2026-01-11 00:55:06.92	340.25	57.16	-31.1	-33.3	11.9	2.01e-04	0	42	0	576716800	22	4629
2026-01-11 00:55:07.93	339.66	57.44	-31.0	-33.0	12.1	2.33e-03	0	42	0	577765376	22	4524
2026-01-11 00:55:08.93	339.07	57.72	-31.6	-34.4	11.0	2.48e-03	0	42	0	579862528	23	4929
2026-01-11 00:55:09.93	338.47	57.99	-31.0	-32.3	12.2	6.93e-04	0	42	0	581959680	23	4207
2026-01-11 00:55:10.94	337.85	58.27	-30.2	-31.1	13.8	1.48e-03	0	42	0	584056832	21	4004
2026-01-11 00:55:11.94	337.22	58.54	-29.8	-30.6	14.4	1.36e-03	0	42	0	586153984	20	3942
2026-01-11 00:55:12.94	336.58	58.80	-29.4	-29.6	15.0	0.00e+00	0	42	0	587202560	20	3688
2026-01-11 00:55:13.95	335.92	59.07	-29.8	-31.2	14.4	3.00e-06	0	42	0	589299712	19	4202
2026-01-11 00:55:14.96	335.25	59.34	-30.0	-31.2	14.0	2.62e-04	0	42	0	591396864	20	4130
2026-01-11 00:55:15.97	334.56	59.60	-30.1	-31.5	13.7	3.80e-06	0	42	0	593494016	20	4226
2026-01-11 00:55:16.97	333.87	59.86	-29.7	-30.4	14.5	9.76e-05	0	42	0	595591168	20	3897
2026-01-11 00:55:17.98	333.15	60.12	-29.4	-30.0	15.1	0.00e+00	0	42	0	596639744	19	3874
2026-01-11 00:55:18.98	332.43	60.37	-29.3	-29.8	15.2	0.00e+00	0	42	0	598736896	19	3833
2026-01-11 00:55:19.99	331.68	60.62	-29.3	-30.3	15.2	4.99e-04	0	42	0	600834048	18	4047
2026-01-11 00:55:20.99	330.93	60.87	-29.4	-30.6	15.0	0.00e+00	0	42	0	602931200	18	4141
2026-01-11 00:55:22.00	330.16	61.11	-29.4	-30.1	15.0	0.00e+00	0	42	0	605028352	19	3909
2026-01-11 00:55:23.01	329.37	61.35	-29.2	-30.0	15.4	1.31e-03	0	42	0	606076928	18	3966
2026-01-11 00:55:24.01	328.57	61.59	-29.0	-29.5	15.6	0.00e+00	0	42	0	608174080	18	3843
2026-01-11 00:55:25.02	327.75	61.82	-29.3	-30.4	15.1	0.00e+00	0	42	0	610271232	18	4094
2026-01-11 00:55:26.02	326.92	62.04	-29.4	-30.5	15.0	1.34e-03	0	42	0	612368384	18	4112
2026-01-11 00:55:27.02	326.08	62.27	-29.2	-29.7	15.3	1.27e-03	0	42	0	614465536	19	3800
2026-01-11 00:55:28.02	325.22	62.48	-29.0	-29.2	15.6	0.00e+00	0	42	0	615514112	19	3669
2026-01-11 00:55:29.03	324.33	62.70	-28.9	-29.4	15.7	7.00e-07	0	42	0	617611264	18	3802
2026-01-11 00:55:30.04	323.44	62.91	-29.2	-30.0	15.4	4.12e-04	0	42	0	619708416	18	3976
2026-01-11 00:55:31.04	322.53	63.11	-29.5	-30.4	14.9	0.00e+00	0	42	0	621805568	19	3974
2026-01-11 00:55:32.05	321.60	63.30	-29.4	-30.1	15.0	4.50e-06	0	42	0	623902720	19	3916
2026-01-11 00:55:33.04	320.67	63.49	-29.4	-30.2	15.1	2.85e-04	0	42	0	624951296	19	3922
2026-01-11 00:55:34.05	319.71	63.68	-29.0	-29.2	15.6	0.00e+00	0	42	0	627048448	19	3676
2026-01-11 00:55:35.06	318.74	63.86	-29.3	-30.5	15.1	0.00e+00	0	42	0	629145600	18	4100
2026-01-11 00:55:36.07	317.75	64.03	-29.4	-30.6	15.1	0.00e+00	0	42	0	631242752	18	4132
2026-01-11 00:55:37.07	316.75	64.20	-29.5	-30.5	14.7	0.00e+00	0	42	0	633339904	19	4018
2026-01-11 00:55:38.08	315.73	64.36	-29.1	-30.0	15.4	0.00e+00	0	42	0	634388480	18	3971
2026-01-11 00:55:39.09	314.70	64.51	-29.1	-30.0	15.3	0.00e+00	0	42	0	636485632	18	3969
2026-01-11 00:55:40.10	313.65	64.66	-29.2	-30.2	15.4	0.00e+00	0	42	0	638582784	18	4023
2026-01-11 00:55:41.10	312.60	64.79	-28.7	-28.9	16.1	0.00e+00	0	42	0	640679936	18	3675
2026-01-11 00:55:42.11	311.53	64.92	-28.0	-27.7	17.0	0.00e+00	0	42	0	642777088	17	3481
2026-01-11 00:55:43.11	310.45	65.04	-28.0	-27.7	17.0	0.00e+00	0	42	0	643825664	17	3487
2026-01-11 00:55:44.12	309.36	65.16	-28.5	-28.9	16.3	0.00e+00	0	42	0	645922816	17	3775
2026-01-11 00:55:45.13	308.25	65.27	-29.0	-30.2	15.6	0.00e+00	0	42	0	648019968	17	4109
2026-01-11 00:55:46.13	307.14	65.36	-29.6	-30.7	14.7	0.00e+00	0	42	0	650117120	19	4070
2026-01-11 00:55:47.14	306.01	65.45	-29.3	-29.9	15.3	0.00e+00	0	42	0	652214272	19	3840
2026-01-11 00:55:48.15	304.88	65.53	-29.3	-30.4	15.2	0.00e+00	0	42	0	653262848	18	4083
2026-01-11 00:55:49.15	303.74	65.61	-29.8	-30.7	14.3	7.00e-07	0	42	0	655360000	20	3996
2026-01-11 00:55:50.16	302.59	65.67	-29.2	-29.6	15.3	0.00e+00	0	42	0	657457152	19	3783
2026-01-11 00:55:51.17	301.44	65.73	-28.9	-29.3	15.8	0.00e+00	0	42	0	659554304	18	3792
2026-01-11 00:55:52.17	300.28	65.77	-29.1	-29.8	15.5	0.00e+00	0	42	0	661651456	18	3912
2026-01-11 00:55:53.18	299.12	65.81	-28.7	-28.8	16.1	0.00e+00	0	42	0	662700032	18	3665
2026-01-11 00:55:54.18	297.96	65.84	-28.4	-28.7	16.6	0.00e+00	0	42	0	664797184	17	3723
2026-01-11 00:55:55.19	296.78	65.85	-28.0	-28.3	16.9	0.00e+00	0	42	0	666894336	16	3709
2026-01-11 00:55:56.20	295.61	65.86	-27.8	-27.7	17.2	0.00e+00	0	42	0	668991488	16	3583
2026-01-11 00:55:57.20	294.44	65.86	-27.6	-27.3	17.5	0.00e+00	0	42	0	671088640	16	3477
2026-01-11 00:55:58.21	293.27	65.85	-27.9	-28.6	16.9	0.00e+00	0	42	0	672137216	15	3906
2026-01-11 00:55:59.22	292.09	65.84	-28.7	-29.5	15.9	0.00e+00	0	42	0	674234368	17	3937
2026-01-11 00:56:00.23	290.92	65.81	-28.8	-29.6	15.8	0.00e+00	0	42	0	676331520	17	3961
2026-01-11 00:56:01.23	289.77	65.77	-29.3	-30.4	15.2	5.72e-05	0	42	0	678428672	18	4075
2026-01-11 00:56:02.24	288.60	65.73	-28.9	-29.8	15.9	0.00e+00	0	42	0	680525824	17	4025
2026-01-11 00:56:03.23	287.47	65.67	-28.0	-27.9	16.8	0.00e+00	0	42	0	681574400	17	3527
2026-01-11 00:56:04.24	286.32	65.61	-27.5	-27.7	17.4	1.53e-03	0	42	0	683671552	15	3680
2026-01-11 00:56:05.25	285.17	65.54	-27.8	-28.4	17.0	0.00e+00	0	42	0	685768704	15	3855
2026-01-11 00:56:06.25	284.04	65.46	-28.4	-29.2	16.5	0.00e+00	0	42	0	687865856	16	3936
2026-01-11 00:56:07.26	282.91	65.37	-28.4	-28.8	16.4	2.25e-03	0	42	0	689963008	17	3746
2026-01-11 00:56:08.27	281.80	65.27	-28.5	-28.9	16.3	2.13e-03	0	42	0	691011584	17	3785
2026-01-11 00:56:09.27	280.70	65.17	-28.7	-29.4	16.0	0.00e+00	0	42	0	693108736	17	3904
2026-01-11 00:56:10.28	279.60	65.05	-28.8	-29.1	15.9	0.00e+00	0	42	0	695205888	18	3727
2026-01-11 00:56:11.28	278.52	64.93	-28.8	-29.7	15.8	2.27e-03	0	42	0	697303040	17	3996
2026-01-11 00:56:12.29	277.45	64.80	-29.0	-29.7	15.6	0.00e+00	0	42	0	699400192	18	3897
2026-01-11 00:56:13.30	276.39	64.66	-29.0	-30.0	15.7	0.00e+00	0	42	0	700448768	17	4077
2026-01-11 00:56:14.30	275.35	64.52	-28.5	-28.9	16.2	2.30e-03	0	42	0	702545920	17	3778
2026-01-11 00:56:15.31	274.31	64.37	-28.2	-28.3	16.6	0.00e+00	0	42	0	704643072	17	3630
2026-01-11 00:56:16.32	273.29	64.21	-28.5	-29.0	16.3	0.00e+00	0	42	0	706740224	17	3795
2026-01-11 00:56:17.32	272.29	64.04	-28.0	-28.4	16.9	2.43e-03	0	42	0	708837376	16	3739
2026-01-11 00:56:18.33	271.30	63.87	-27.5	-27.7	17.3	1.02e-04	0	42	0	709885952	15	3671
2026-01-11 00:56:19.33	270.33	63.69	-27.9	-28.5	17.0	1.94e-03	0	42	0	711983104	15	3861
2026-01-11 00:56:20.34	269.37	63.51	-27.1	-26.8	17.9	2.16e-03	0	42	0	714080256	15	3462
2026-01-11 00:56:21.35	268.42	63.31	-26.4	-25.6	18.7	1.43e-04	0	42	0	716177408	14	3294
2026-01-11 00:56:22.35	267.50	63.12	-27.1	-27.2	17.9	1.85e-03	0	42	0	718274560	14	3642
2026-01-11 00:56:23.36	266.58	62.92	-28.1	-28.4	16.8	0.00e+00	0	42	0	719323136	16	3740
2026-01-11 00:56:24.36	265.69	62.71	-27.8	-27.9	17.1	0.00e+00	0	42	0	721420288	16	3614
2026-01-11 00:56:25.36	264.82	62.50	-27.5	-27.7	17.3	2.28e-03	0	42	0	723517440	15	3685
2026-01-11 00:56:26.37	263.95	62.28	-28.5	-29.4	16.4	2.16e-03	0	42	0	725614592	16	3997
2026-01-11 00:56:27.37	263.10	62.06	-29.1	-29.9	15.4	6.62e-04	0	42	0	726663168	18	3949
2026-01-11 00:56:28.37	262.27	61.83	-30.1	-31.5	13.8	2.27e-03	0	42	0	728760320	20	4229
2026-01-11 00:56:29.38	261.45	61.60	-30.6	-32.3	12.9	2.12e-03	0	42	0	730857472	21	4404
2026-01-11 00:56:30.39	260.64	61.36	-30.6	-32.4	12.9	2.49e-04	0	42	0	732954624	21	4402
2026-01-11 00:56:31.39	259.86	61.12	-30.1	-31.4	14.0	1.99e-03	0	42	0	735051776	20	4191
2026-01-11 00:56:32.40	259.08	60.88	-29.6	-30.5	14.8	2.34e-03	0	42	0	737148928	19	4009
2026-01-11 00:56:33.40	258.33	60.63	-29.5	-30.4	14.7	0.00e+00	0	42	0	738197504	19	4000
2026-01-11 00:56:34.41	257.58	60.38	-30.2	-31.7	13.7	2.02e-03	0	42	0	740294656	20	4273
2026-01-11 00:56:35.41	256.85	60.13	-30.5	-32.0	13.2	1.90e-03	0	42	0	742391808	21	4275
2026-01-11 00:56:36.42	256.14	59.87	-31.1	-33.1	12.1	1.44e-04	0	42	0	744488960	22	4560
2026-01-11 00:56:37.43	255.43	59.61	-31.6	-34.3	10.9	9.80e-04	0	42	0	745537536	23	4897
2026-01-11 00:56:38.43	254.75	59.35	-31.1	-33.2	11.9	2.91e-03	0	42	0	747634688	22	4572
2026-01-11 00:56:39.44	254.07	59.08	-30.5	-31.5	13.1	2.25e-04	0	42	0	749731840	22	4057
2026-01-11 00:56:40.45	253.41	58.81	-29.9	-31.0	14.0	4.50e-06	0	42	0	751828992	20	4067
2026-01-11 00:56:41.45	252.77	58.54	-29.6	-30.7	14.6	6.30e-04	0	42	0	753926144	19	4079
2026-01-11 00:56:42.46	252.13	58.27	-30.0	-31.2	14.0	1.51e-04	0	42	0	754974720	20	4123
2026-01-11 00:56:43.46	251.52	58.00	-30.4	-32.3	13.3	2.42e-03	0	42	0	757071872	20	4462
2026-01-11 00:56:44.47	250.91	57.72	-31.0	-33.0	12.1	3.73e-04	0	42	0	759169024	22	4544
2026-01-11 00:56:45.48	250.31	57.44	-30.4	-31.4	13.2	3.45e-04	0	42	0	761266176	22	4002
2026-01-11 00:56:46.48	249.73	57.17	-30.4	-31.8	13.2	8.44e-04	0	42	0	763363328	21	4214
2026-01-11 00:56:47.49	249.16	56.88	-31.0	-33.1	11.9	4.88e-04	0	42	0	765460480	22	4560
2026-01-11 00:56:48.49	248.60	56.60	-31.6	-34.5	10.6	2.65e-03	0	42	0	766509056	23	5028
2026-01-11 00:56:49.50	248.05	56.32	-31.4	-33.8	11.1	5.37e-03	0	42	0	768606208	23	4744
2026-01-11 00:56:50.51	247.51	56.03	-31.2	-33.7	11.6	1.13e-03	0	42	0	770703360	22	4793
2026-01-11 00:56:51.52	246.98	55.75	-30.6	-31.8	12.9	2.33e-04	0	42	0	772800512	22	4138
2026-01-11 00:56:52.52	246.47	55.46	-30.1	-31.0	13.7	1.98e-05	0	42	0	773849088	21	3988
2026-01-11 00:56:53.52	245.97	55.18	-30.7	-32.6	12.8	2.92e-03	0	42	0	775946240	21	4489
2026-01-11 00:56:54.53	245.47	54.89	-31.4	-34.5	11.0	1.79e-03	0	42	0	778043392	22	5094
2026-01-11 00:56:55.53	244.99	54.60	-31.2	-33.8	11.6	1.50e-03	0	42	0	780140544	22	4854
2026-01-11 00:56:56.53	244.52	54.32	-30.2	-31.2	13.5	2.85e-03	0	42	0	782237696	21	4050
2026-01-11 00:56:57.53	244.06	54.03	-29.9	-30.6	14.0	1.50e-06	0	42	0	783286272	21	3868
2026-01-11 00:56:58.53	243.60	53.74	-29.6	-30.1	14.4	3.80e-06	0	42	0	785383424	20	3840
2026-01-11 00:56:59.53	243.16	53.46	-29.9	-31.4	14.1	0.00e+00	0	42	0	787480576	19	4272
2026-01-11 00:57:00.54	242.72	53.17	-30.0	-31.2	13.8	3.80e-06	0	42	0	789577728	20	4148
2026-01-11 00:57:01.55	242.28	52.88	-29.9	-31.1	13.8	2.20e-06	0	42	0	791674880	20	4124
2026-01-11 00:57:02.56	241.86	52.59	-30.0	-31.4	13.8	5.30e-06	0	42	0	792723456	20	4191
2026-01-11 00:57:03.57	241.45	52.30	-30.1	-31.6	13.6	7.60e-06	0	42	0	794820608	20	4256
2026-01-11 00:57:04.56	241.05	52.01	-29.9	-31.0	14.0	6.80e-06	0	42	0	796917760	20	4074
2026-01-11 00:57:05.57	240.65	51.72	-30.2	-31.9	13.4	5.30e-06	0	42	0	799014912	20	4348
2026-01-11 00:57:06.57	240.26	51.44	-30.0	-31.2	13.9	7.00e-07	0	42	0	801112064	20	4131
2026-01-11 00:57:07.58	239.88	51.15	-29.4	-30.2	14.8	1.50e-06	0	42	0	802160640	19	3936
2026-01-11 00:57:08.59	239.50	50.86	-28.7	-28.8	15.9	7.00e-07	0	42	0	804257792	18	3667
2026-01-11 00:57:09.59	239.14	50.57	-29.1	-29.9	15.3	0.00e+00	0	42	0	806354944	18	3951
2026-01-11 00:57:10.59	238.78	50.29	-29.3	-30.4	15.1	0.00e+00	0	42	0	808452096	18	4092
2026-01-11 00:57:11.60	238.42	50.00	-29.4	-30.3	14.8	0.00e+00	0	42	0	810549248	19	3958
2026-01-11 00:57:12.60	238.08	49.72	-29.8	-31.3	14.2	0.00e+00	0	42	0	811597824	19	4245
2026-01-11 00:57:13.61	237.73	49.43	-30.4	-32.4	13.0	3.80e-06	0	42	0	813694976	20	4510
2026-01-11 00:57:14.61	237.40	49.15	-30.8	-33.0	12.3	8.46e-05	0	42	0	815792128	21	4632
2026-01-11 00:57:15.62	237.07	48.87	-31.0	-33.0	12.0	3.11e-04	0	42	0	817889280	22	4542
2026-01-11 00:57:16.63	236.75	48.58	-31.5	-34.5	11.0	4.81e-04	0	42	0	819986432	22	5094
2026-01-11 00:57:17.64	236.43	48.30	-31.7	-34.6	10.4	3.88e-03	0	42	0	821035008	23	5060
2026-01-11 00:57:18.65	236.12	48.02	-30.4	-32.0	12.3	3.91e-04	0	42	0	823132160	21	4289
2026-01-11 00:57:19.65	235.81	47.74	-30.0	-31.4	13.2	1.75e-05	0	42	0	825229312	20	4200
2026-01-11 00:57:20.66	235.51	47.46	-30.4	-31.9	13.0	3.43e-05	0	42	0	827326464	21	4277
2026-01-11 00:57:21.67	235.22	47.18	-30.7	-32.6	12.5	1.20e-04	0	42	0	829423616	21	4522
2026-01-11 00:57:22.66	234.93	46.91	-29.9	-31.1	13.8	3.12e-05	0	42	0	830472192	20	4109
2026-01-11 00:57:23.67	234.65	46.63	-29.5	-30.0	14.6	0.00e+00	0	42	0	832569344	20	3803
2026-01-11 00:57:24.66	234.37	46.36	-29.8	-31.4	14.1	2.20e-06	0	42	0	834666496	19	4288
2026-01-11 00:57:25.67	234.10	46.09	-30.5	-32.1	12.8	1.67e-05	0	42	0	836763648	21	4336
2026-01-11 00:57:26.68	233.83	45.82	-31.0	-33.3	11.7	1.73e-04	0	42	0	838860800	22	4659
2026-01-11 00:57:27.68	233.56	45.55	-31.4	-34.3	11.0	3.44e-03	0	42	0	839909376	22	5041
2026-01-11 00:57:28.69	233.30	45.27	-31.3	-34.1	11.1	1.80e-03	0	42	0	842006528	22	4959
2026-01-11 00:57:29.69	233.05	45.01	-31.3	-34.1	11.2	1.02e-03	0	42	0	844103680	22	4947
2026-01-11 00:57:30.70	232.80	44.74	-31.2	-33.9	11.3	3.28e-03	0	42	0	846200832	22	4894
2026-01-11 00:57:31.71	232.55	44.47	-31.3	-34.0	11.2	3.17e-03	0	42	0	848297984	22	4919
2026-01-11 00:57:32.71	232.31	44.21	-31.3	-34.0	11.1	1.50e-03	0	42	0	849346560	22	4929
2026-01-11 00:57:33.72	232.07	43.94	-31.6	-34.6	10.4	9.25e-04	0	42	0	851443712	23	5073
2026-01-11 00:57:34.72	231.83	43.68	-31.5	-34.3	10.6	5.84e-03	0	42	0	853540864	23	4963
2026-01-11 00:57:35.72	231.60	43.42	-31.3	-33.5	11.2	1.58e-03	0	42	0	855638016	23	4634
2026-01-11 00:57:36.72	231.38	43.16	-31.1	-33.4	11.6	7.09e-04	0	42	0	856686592	22	4705
2026-01-11 00:57:37.72	231.15	42.90	-30.9	-33.4	11.9	2.36e-03	0	42	0	858783744	21	4794
2026-01-11 00:57:38.74	230.93	42.64	-31.0	-33.3	11.5	5.55e-04	0	42	0	860880896	22	4648
2026-01-11 00:57:39.74	230.72	42.39	-31.4	-34.3	10.9	5.54e-04	0	42	0	862978048	22	5045
2026-01-11 00:57:40.75	230.50	42.13	-31.5	-34.3	10.5	5.72e-03	0	42	0	865075200	23	4958
2026-01-11 00:57:41.75	230.29	41.88	-31.5	-34.6	10.8	1.91e-03	0	42	0	867172352	22	5179
2026-01-11 00:57:42.76	230.08	41.62	-32.1	-35.7	9.1	9.67e-03	0	42	0	868220928	24	5483
2026-01-11 00:57:43.76	229.88	41.37	-32.0	-35.7	9.1	3.48e-02	0	42	0	870318080	24	5470
2026-01-11 00:57:44.76	229.68	41.12	-32.4	-37.2	8.0	5.50e-02	0	42	0	872415232	24	6232
2026-01-11 00:57:45.76	229.49	40.88	-32.5	-37.1	7.6	7.65e-02	0	42	0	874512384	25	6115
2026-01-11 00:57:46.77	229.29	40.63	-32.8	-38.8	6.5	1.10e-01	0	42	0	875560960	25	7140
2026-01-11 00:57:47.77	229.10	40.38	-32.7	-37.8	7.2	1.52e-01	0	42	0	877658112	25	6531
2026-01-11 00:57:48.77	228.92	40.14	-32.6	-37.3	7.5	1.50e-01	0	42	0	879755264	25	6234
2026-01-11 00:57:49.77	228.73	39.90	-32.3	-36.6	8.4	5.97e-02	0	42	0	881852416	24	5935
2026-01-11 00:57:50.78	228.55	39.66	-32.3	-36.5	8.5	4.43e-02	0	42	0	883949568	24	5887
2026-01-11 00:57:51.78	228.37	39.42	-32.2	-36.3	8.7	3.69e-02	0	42	0	884998144	24	5768
2026-01-11 00:57:52.79	228.19	39.18	-32.2	-36.2	8.7	3.33e-02	0	42	0	887095296	24	5740
2026-01-11 00:57:53.79	228.02	38.94	-32.3	-36.8	8.3	2.85e-02	0	42	0	889192448	24	6010
2026-01-11 00:57:54.80	227.85	38.70	-32.3	-36.8	8.3	5.29e-02	0	42	0	891289600	24	6022
2026-01-11 00:57:55.80	227.68	38.47	-32.2	-36.5	8.5	4.31e-02	0	42	0	893386752	24	5867
2026-01-11 00:57:56.80	227.51	38.23	-32.3	-36.6	8.5	4.38e-02	0	42	0	894435328	24	5917
2026-01-11 00:57:57.81	227.35	38.00	-32.5	-37.0	7.7	1.04e-01	0	42	0	896532480	25	6066
2026-01-11 00:57:58.82	227.18	37.77	-32.6	-37.8	7.1	1.15e-01	0	42	0	898629632	25	6559
2026-01-11 00:57:59.83	227.02	37.54	-32.7	-38.0	6.9	1.92e-01	0	42	0	900726784	25	6673
2026-01-11 00:58:00.84	226.86	37.31	-32.8	-38.5	6.6	2.09e-01	0	42	0	902823936	25	6954
2026-01-11 00:58:01.84	226.71	37.08	-32.9	-39.4	6.0	2.76e-01	0	42	0	903872512	25	7568
2026-01-11 00:58:02.85	226.56	36.85	-32.7	-38.1	6.9	2.00e-01	0	42	0	905969664	25	6684
2026-01-11 00:58:03.85	226.41	36.63	-32.5	-37.3	7.4	1.51e-01	0	42	0	908066816	25	6249
2026-01-11 00:58:04.86	226.26	36.41	-32.4	-36.5	7.9	1.12e-01	0	42	0	910163968	25	5811
2026-01-11 00:58:05.87	226.11	36.18	-32.3	-36.2	8.3	6.35e-02	0	42	0	912261120	25	5644
2026-01-11 00:58:06.87	225.97	35.96	-32.0	-35.4	9.3	2.98e-02	0	42	0	913309696	24	5353
2026-01-11 00:58:07.88	225.82	35.74	-31.7	-35.1	9.8	1.05e-02	0	42	0	915406848	23	5317
2026-01-11 00:58:08.89	225.68	35.52	-31.3	-33.5	11.0	4.53e-03	0	42	0	917504000	23	4659
2026-01-11 00:58:09.89	225.54	35.31	-31.3	-34.2	10.9	3.95e-03	0	42	0	919601152	22	5014
2026-01-11 00:58:10.90	225.40	35.09	-31.3	-34.2	10.9	2.80e-03	0	42	0	921698304	22	4999
2026-01-11 00:58:11.90	225.27	34.88	-31.1	-33.7	11.3	2.56e-03	0	42	0	922746880	22	4806
2026-01-11 00:58:12.91	225.14	34.66	-30.7	-32.3	12.0	2.92e-03	0	42	0	924844032	22	4314
2026-01-11 00:58:13.92	225.00	34.45	-30.5	-32.3	12.6	2.12e-03	0	42	0	926941184	21	4430
2026-01-11 00:58:14.92	224.87	34.24	-30.2	-31.4	13.2	2.89e-05	0	42	0	929038336	21	4121
2026-01-11 00:58:15.93	224.75	34.03	-29.9	-31.1	13.7	1.59e-03	0	42	0	931135488	20	4128
2026-01-11 00:58:16.94	224.62	33.82	-30.4	-32.5	12.8	1.43e-03	0	42	0	932184064	20	4560
2026-01-11 00:58:17.95	224.49	33.61	-30.4	-32.5	12.8	5.03e-05	0	42	0	934281216	20	4556
2026-01-11 00:58:18.95	224.37	33.41	-30.9	-33.5	11.8	1.65e-04	0	42	0	936378368	21	4838
2026-01-11 00:58:19.96	224.25	33.20	-31.2	-33.7	11.2	2.40e-03	0	42	0	938475520	22	4837
2026-01-11 00:58:20.97	224.13	33.00	-31.6	-34.7	10.1	3.01e-03	0	42	0	940572672	23	5132
2026-01-11 00:58:21.97	224.01	32.80	-31.3	-33.5	11.1	3.00e-03	0	42	0	941621248	23	4645
2026-01-11 00:58:22.98	223.89	32.60	-31.1	-33.5	11.5	1.13e-03	0	42	0	943718400	22	4730
2026-01-11 00:58:23.98	223.78	32.40	-31.2	-34.0	11.2	1.49e-03	0	42	0	945815552	22	4923
2026-01-11 00:58:24.99	223.66	32.20	-31.8	-35.3	9.9	4.60e-03	0	42	0	947912704	23	5370
2026-01-11 00:58:26.00	223.55	32.00	-31.8	-35.4	9.6	9.58e-03	0	42	0	950009856	23	5420
2026-01-11 00:58:27.00	223.44	31.81	-32.0	-35.7	9.1	1.97e-02	0	42	0	951058432	24	5509
2026-01-11 00:58:28.01	223.33	31.61	-31.6	-34.3	10.1	1.17e-02	0	42	0	953155584	24	4874
2026-01-11 00:58:29.01	223.22	31.42	-31.1	-33.1	11.3	2.05e-03	0	42	0	955252736	23	4539
2026-01-11 00:58:30.01	223.11	31.23	-30.2	-31.5	13.0	4.52e-04	0	42	0	957349888	21	4163
2026-01-11 00:58:31.02	223.00	31.03	-29.8	-30.8	13.9	9.90e-06	0	42	0	959447040	20	4044
2026-01-11 00:58:32.02	222.90	30.84	-29.7	-31.0	14.1	2.20e-06	0	42	0	960495616	19	4181
2026-01-11 00:58:33.03	222.80	30.65	-29.7	-31.0	14.1	2.01e-04	0	42	0	962592768	19	4190
2026-01-11 00:58:34.03	222.69	30.47	-30.3	-32.1	13.0	7.60e-06	0	42	0	964689920	20	4452
2026-01-11 00:58:35.03	222.59	30.28	-30.2	-31.9	13.1	2.59e-05	0	42	0	966787072	20	4399
2026-01-11 00:58:36.04	222.49	30.09	-30.5	-32.4	12.5	6.79e-05	0	42	0	968884224	21	4455
2026-01-11 00:58:37.05	222.39	29.91	-30.4	-31.9	12.9	5.34e-05	0	42	0	969932800	21	4290
2026-01-11 00:58:38.05	222.30	29.73	-30.3	-32.1	13.0	2.51e-05	0	42	0	972029952	20	4454
2026-01-11 00:58:39.05	222.20	29.54	-30.2	-31.9	13.1	3.50e-05	0	42	0	974127104	20	4401
2026-01-11 00:58:40.06	222.10	29.36	-30.6	-32.5	12.5	4.27e-05	0	42	0	976224256	21	4482
2026-01-11 00:58:41.06	222.01	29.18	-30.8	-33.2	11.9	3.23e-04	0	42	0	978321408	21	4759
2026-01-11 00:58:42.06	221.92	29.00	-31.1	-33.6	11.3	9.22e-04	0	42	0	979369984	22	4787
2026-01-11 00:58:43.07	221.83	28.82	-31.5	-34.8	10.4	1.91e-03	0	42	0	981467136	22	5287
2026-01-11 00:58:44.08	221.73	28.65	-31.9	-35.8	9.3	7.92e-03	0	42	0	983564288	23	5658
2026-01-11 00:58:45.09	221.64	28.47	-32.0	-35.7	8.8	1.84e-02	0	42	0	985661440	24	5538
2026-01-11 00:58:46.09	221.55	28.30	-31.9	-36.0	8.9	2.05e-02	0	42	0	987758592	23	5740
2026-01-11 00:58:47.09	221.47	28.12	-31.8	-35.5	9.4	1.82e-02	0	42	0	988807168	23	5496
2026-01-11 00:58:48.10	221.38	27.95	-31.4	-34.5	10.2	6.38e-03	0	42	0	990904320	22	5172
2026-01-11 00:58:49.10	221.29	27.78	-31.2	-34.0	10.9	2.43e-03	0	42	0	993001472	22	4966
2026-01-11 00:58:50.11	221.21	27.60	-31.0	-33.4	11.3	1.72e-03	0	42	0	995098624	22	4734
2026-01-11 00:58:51.11	221.12	27.44	-30.8	-33.3	11.8	2.07e-03	0	42	0	997195776	21	4781
2026-01-11 00:58:52.12	221.04	27.27	-30.8	-33.3	11.8	4.50e-04	0	42	0	998244352	21	4794
2026-01-11 00:58:53.13	220.96	27.10	-30.8	-33.2	11.9	3.18e-04	0	42	0	1000341504	21	4734
2026-01-11 00:58:54.14	220.88	26.93	-30.4	-31.9	12.7	5.50e-04	0	42	0	1002438656	21	4308
2026-01-11 00:58:55.14	220.80	26.76	-30.2	-32.0	13.0	3.81e-05	0	42	0	1004535808	20	4431
2026-01-11 00:58:56.15	220.72	26.60	-30.1	-31.8	13.1	4.65e-05	0	42	0	1006632960	20	4371
2026-01-11 00:58:57.15	220.64	26.43	-29.8	-31.0	13.7	1.44e-05	0	42	0	1007681536	20	4110
2026-01-11 00:58:58.16	220.56	26.27	-29.6	-30.4	14.0	3.62e-04	0	42	0	1009778688	20	3954
2026-01-11 00:58:59.17	220.48	26.11	-29.7	-30.8	13.8	7.60e-06	0	42	0	1011875840	20	4047
2026-01-11 00:59:00.17	220.40	25.94	-29.9	-31.3	13.4	8.30e-06	0	42	0	1013972992	20	4207
2026-01-11 00:59:01.18	220.33	25.78	-29.9	-31.7	13.6	2.00e-03	0	42	0	1015021568	19	4430
2026-01-11 00:59:02.18	220.25	25.62	-30.0	-31.4	13.4	1.90e-05	0	42	0	1017118720	20	4242
2026-01-11 00:59:03.19	220.18	25.46	-30.2	-32.2	12.9	1.44e-05	0	42	0	1019215872	20	4487
2026-01-11 00:59:04.20	220.11	25.31	-30.3	-32.3	12.7	2.77e-03	0	42	0	1021313024	20	4533
2026-01-11 00:59:05.21	220.03	25.15	-30.4	-32.5	12.4	7.40e-05	0	42	0	1023410176	20	4601
2026-01-11 00:59:06.21	219.96	24.99	-30.2	-32.2	13.0	1.12e-04	0	42	0	1025507328	20	4498
2026-01-11 00:59:07.21	219.89	24.84	-30.6	-32.6	12.2	1.02e-04	0	42	0	1026555904	21	4556
2026-01-11 00:59:08.22	219.82	24.68	-30.6	-32.6	12.1	2.72e-04	0	42	0	1028653056	21	4561
2026-01-11 00:59:09.23	219.75	24.53	-30.2	-32.1	12.9	2.65e-03	0	42	0	1030750208	20	4467
2026-01-11 00:59:10.24	219.68	24.37	-30.3	-32.4	12.7	5.56e-05	0	42	0	1032847360	20	4567
2026-01-11 00:59:11.24	219.61	24.22	-30.4	-32.5	12.7	7.03e-04	0	42	0	1034944512	20	4614
2026-01-11 00:59:12.25	219.55	24.07	-30.3	-32.5	12.7	2.53e-03	0	42	0	1035993088	20	4600
2026-01-11 00:59:13.25	219.48	23.92	-30.4	-32.8	12.4	2.90e-03	0	42	0	1038090240	20	4707
2026-01-11 00:59:14.26	219.41	23.77	-30.8	-33.3	11.7	1.48e-03	0	42	0	1040187392	21	4802
2026-01-11 00:59:15.27	219.35	23.62	-30.8	-33.2	11.7	3.59e-03	0	42	0	1042284544	21	4788
2026-01-11 00:59:16.27	219.28	23.48	-31.1	-33.9	10.9	3.87e-03	0	42	0	1043333120	22	4933
2026-01-11 00:59:17.28	219.22	23.33	-31.4	-34.7	10.4	2.21e-03	0	42	0	1045430272	22	5264
2026-01-11 00:59:18.28	219.15	23.18	-31.4	-34.8	10.2	9.60e-03	0	42	0	1047527424	22	5298
2026-01-11 00:59:19.29	219.09	23.04	-31.4	-34.6	10.4	7.78e-03	0	42	0	1049624576	22	5235
2026-01-11 00:59:20.30	219.03	22.89	-31.3	-34.5	10.5	6.56e-03	0	42	0	1051721728	22	5171
2026-01-11 00:59:21.30	218.97	22.75	-31.1	-33.8	11.0	4.91e-03	0	42	0	1053818880	22	4890
2026-01-11 00:59:22.31	218.90	22.60	-31.0	-33.4	11.3	5.09e-03	0	42	0	1054867456	22	4741
2026-01-11 00:59:23.31	218.84	22.46	-30.8	-33.3	11.7	1.43e-03	0	42	0	1056964608	21	4798
2026-01-11 00:59:24.32	218.78	22.32	-30.6	-32.8	11.9	3.09e-03	0	42	0	1059061760	21	4638
2026-01-11 00:59:25.32	218.72	22.18	-30.4	-32.5	12.5	3.10e-03	0	42	0	1061158912	20	4622
2026-01-11 00:59:26.31	218.67	22.04	-30.1	-31.9	12.9	4.19e-04	0	42	0	1062207488	20	4416
2026-01-11 00:59:27.32	218.61	21.90	-29.9	-31.3	13.3	2.35e-03	0	42	0	1064304640	20	4217
2026-01-11 00:59:28.33	218.55	21.76	-30.0	-31.9	13.4	2.59e-03	0	42	0	1066401792	19	4498
2026-01-11 00:59:29.33	218.49	21.62	-30.0	-31.5	13.1	8.57e-04	0	42	0	1068498944	20	4287
2026-01-11 00:59:30.34	218.44	21.49	-29.8	-31.3	13.7	2.10e-03	0	42	0	1070596096	19	4320
2026-01-11 00:59:31.34	218.38	21.35	-29.9	-31.8	13.4	6.32e-04	0	42	0	1071644672	19	4449
2026-01-11 00:59:32.35	218.32	21.21	-30.0	-31.7	13.1	8.73e-04	0	42	0	1073741824	20	4337
2026-01-11 00:59:33.36	218.27	21.08	-29.9	-31.8	13.4	1.59e-03	0	42	0	1075838976	19	4460
2026-01-11 00:59:34.36	218.21	20.94	-29.8	-31.4	13.6	5.91e-04	0	42	0	1077936128	19	4336
2026-01-11 00:59:35.37	218.16	20.81	-29.8	-31.3	13.6	8.63e-04	0	42	0	1080033280	19	4321
2026-01-11 00:59:36.37	218.11	20.68	-29.8	-31.4	13.6	1.75e-05	0	42	0	1081081856	19	4329
2026-01-11 00:59:37.38	218.05	20.54	-29.8	-31.5	13.5	3.80e-06	0	42	0	1083179008	19	4365
2026-01-11 00:59:38.39	218.00	20.41	-29.8	-31.5	13.5	5.33e-04	0	42	0	1085276160	19	4372
2026-01-11 00:59:39.39	217.95	20.28	-29.9	-31.7	13.4	1.14e-05	0	42	0	1087373312	19	4446
2026-01-11 00:59:40.38	217.90	20.15	-29.9	-31.3	13.3	5.46e-04	0	42	0	1089470464	20	4223
2026-01-11 00:59:41.38	217.84	20.02	-30.0	-31.6	13.0	5.82e-04	0	42	0	1090519040	20	4331
2026-01-11 00:59:42.39	217.79	19.89	-30.0	-31.5	13.1	4.42e-05	0	42	0	1092616192	20	4302
2026-01-11 00:59:43.39	217.74	19.77	-30.1	-31.8	12.8	6.78e-04	0	42	0	1094713344	20	4400
2026-01-11 00:59:44.40	217.69	19.64	-30.2	-32.3	12.6	6.63e-04	0	42	0	1096810496	20	4551
2026-01-11 00:59:45.41	217.64	19.51	-30.2	-32.2	12.6	1.11e-04	0	42	0	1098907648	20	4514
2026-01-11 00:59:46.42	217.59	19.38	-30.2	-32.2	12.6	9.19e-04	0	42	0	1099956224	20	4512
2026-01-11 00:59:47.42	217.54	19.26	-30.3	-32.6	12.4	7.23e-04	0	42	0	1102053376	20	4648
2026-01-11 00:59:48.43	217.50	19.13	-30.3	-32.4	12.5	1.25e-04	0	42	0	1104150528	20	4604
2026-01-11 00:59:49.43	217.45	19.01	-30.3	-32.3	12.5	5.80e-04	0	42	0	1106247680	20	4569
2026-01-11 00:59:50.43	217.40	18.88	-30.4	-32.8	12.2	5.60e-04	0	42	0	1108344832	20	4731
2026-01-11 00:59:51.44	217.35	18.76	-30.3	-32.4	12.5	1.52e-04	0	42	0	1109393408	20	4585
2026-01-11 00:59:52.45	217.31	18.64	-30.2	-32.2	12.6	4.81e-04	0	42	0	1111490560	20	4533
2026-01-11 00:59:53.46	217.26	18.51	-30.5	-33.0	12.0	5.89e-04	0	42	0	1113587712	20	4820
2026-01-11 00:59:54.46	217.22	18.39	-30.5	-32.6	11.9	3.47e-04	0	42	0	1115684864	21	4589
2026-01-11 00:59:55.46	217.17	18.27	-30.4	-32.7	12.2	5.93e-04	0	42	0	1117782016	20	4700
2026-01-11 00:59:56.47	217.12	18.15	-30.6	-32.9	11.8	8.22e-04	0	42	0	1118830592	21	4676
2026-01-11 00:59:57.47	217.08	18.03	-30.6	-32.9	11.8	1.68e-03	0	42	0	1120927744	21	4678
2026-01-11 00:59:58.48	217.04	17.91	-30.8	-33.3	11.4	7.39e-04	0	42	0	1123024896	21	4850
2026-01-11 00:59:59.48	216.99	17.79	-30.8	-33.4	11.2	1.76e-03	0	42	0	1125122048	21	4861
2026-01-11 01:00:00.48	216.95	17.67	-31.0	-33.7	10.8	1.83e-03	0	42	0	1127219200	22	4896
2026-01-11 01:00:01.49	216.90	17.56	-31.2	-34.3	10.4	3.95e-03	0	42	0	1128267776	22	5143
2026-01-11 01:00:02.49	216.86	17.44	-31.2	-34.4	10.2	5.27e-03	0	42	0	1130364928	22	5202
2026-01-11 01:00:03.49	216.82	17.32	-31.3	-34.5	10.1	5.11e-03	0	42	0	1132462080	22	5240
2026-01-11 01:00:04.50	216.78	17.21	-31.3	-34.6	10.2	6.70e-03	0	42	0	1134559232	22	5261
2026-01-11 01:00:05.50	216.74	17.09	-31.1	-34.1	10.4	6.42e-03	0	42	0	1136656384	22	5080
2026-01-11 01:00:06.50	216.69	16.98	-31.0	-33.7	10.7	4.28e-03	0	42	0	1137704960	22	4905
2026-01-11 01:00:07.50	216.65	16.86	-31.0	-33.7	10.9	2.95e-03	0	42	0	1139802112	22	4900
2026-01-11 01:00:08.51	216.61	16.75	-30.9	-33.4	11.0	2.21e-03	0	42	0	1141899264	22	4785
2026-01-11 01:00:09.51	216.57	16.63	-30.7	-32.8	11.4	1.13e-03	0	42	0	1143996416	22	4549
2026-01-11 01:00:10.52	216.53	16.52	-30.6	-32.8	11.7	1.27e-03	0	42	0	1145044992	21	4667
2026-01-11 01:00:11.53	216.49	16.41	-30.7	-33.1	11.4	8.49e-04	0	42	0	1147142144	21	4772
2026-01-11 01:00:12.53	216.45	16.30	-30.5	-33.0	11.5	1.04e-03	0	42	0	1149239296	21	4794
2026-01-11 01:00:13.54	216.41	16.18	-30.9	-33.7	11.0	1.31e-03	0	42	0	1151336448	21	5015
2026-01-11 01:00:14.55	216.37	16.07	-30.7	-33.2	11.1	1.44e-03	0	42	0	1153433600	21	4819
2026-01-11 01:00:15.55	216.34	15.96	-30.6	-32.9	11.2	6.18e-04	0	42	0	1155530752	21	4707
2026-01-11 01:00:16.56	216.30	15.85	-30.5	-32.7	11.6	6.73e-04	0	42	0	1156579328	21	4640
2026-01-11 01:00:17.56	216.26	15.74	-30.6	-33.1	11.4	6.25e-04	0	42	0	1158676480	21	4767
2026-01-11 01:00:18.56	216.22	15.63	-30.7	-33.1	11.3	1.15e-03	0	42	0	1160773632	21	4782
2026-01-11 01:00:19.57	216.18	15.52	-30.4	-32.4	11.9	5.42e-04	0	42	0	1162870784	21	4527
2026-01-11 01:00:20.58	216.15	15.42	-30.3	-32.6	12.1	2.49e-04	0	42	0	1164967936	20	4677
2026-01-11 01:00:21.58	216.11	15.31	-30.5	-33.1	11.7	1.60e-03	0	42	0	1166016512	20	4875
2026-01-11 01:00:22.59	216.07	15.20	-30.7	-33.3	11.3	6.39e-04	0	42	0	1168113664	21	4847
2026-01-11 01:00:23.60	216.04	15.09	-30.6	-33.1	11.4	1.80e-03	0	42	0	1170210816	21	4769
2026-01-11 01:00:24.60	216.00	14.99	-30.4	-33.0	11.8	1.85e-03	0	42	0	1172307968	20	4822
2026-01-11 01:00:25.60	215.96	14.88	-30.6	-32.9	11.5	6.60e-04	0	42	0	1173356544	21	4703
2026-01-11 01:00:26.60	215.93	14.78	-30.5	-32.8	11.5	1.37e-03	0	42	0	1175453696	21	4670
2026-01-11 01:00:27.61	215.89	14.67	-30.5	-33.1	11.7	5.79e-04	0	42	0	1177550848	20	4893
2026-01-11 01:00:28.61	215.86	14.57	-30.7	-33.4	11.1	9.07e-04	0	42	0	1179648000	21	4918
2026-01-11 01:00:29.62	215.82	14.46	-30.7	-33.3	11.2	1.94e-03	0	42	0	1181745152	21	4870
2026-01-11 01:00:30.63	215.79	14.36	-30.8	-33.8	10.8	1.62e-03	0	42	0	1183842304	21	5052
2026-01-11 01:00:31.64	215.76	14.26	-30.9	-34.0	10.7	3.38e-03	0	42	0	1184890880	21	5144
2026-01-11 01:00:32.65	215.72	14.15	-30.9	-34.2	10.5	4.69e-03	0	42	0	1186988032	21	5212
2026-01-11 01:00:33.65	215.69	14.05	-31.0	-33.9	10.4	3.71e-03	0	42	0	1189085184	22	5012
2026-01-11 01:00:34.65	215.66	13.95	-31.0	-33.7	10.5	5.07e-03	0	42	0	1191182336	22	4943
2026-01-11 01:00:35.66	215.62	13.85	-31.2	-34.6	9.9	7.98e-03	0	42	0	1192230912	22	5294
2026-01-11 01:00:36.66	215.59	13.75	-31.1	-34.1	10.1	8.79e-03	0	42	0	1194328064	22	5107
2026-01-11 01:00:37.67	215.56	13.64	-30.8	-33.3	10.8	4.09e-03	0	42	0	1196425216	22	4777
2026-01-11 01:00:38.68	215.52	13.54	-30.6	-33.2	11.2	3.62e-03	0	42	0	1198522368	21	4832
2026-01-11 01:00:39.68	215.49	13.44	-30.5	-32.8	11.5	3.00e-03	0	42	0	1200619520	21	4677
2026-01-11 01:00:40.68	215.46	13.35	-30.4	-32.5	11.6	4.90e-04	0	42	0	1201668096	21	4575
2026-01-11 01:00:41.68	215.43	13.25	-30.4	-33.0	11.7	2.47e-03	0	42	0	1203765248	20	4835
2026-01-11 01:00:42.69	215.40	13.15	-30.3	-32.6	12.0	2.58e-03	0	42	0	1205862400	20	4695
2026-01-11 01:00:43.69	215.37	13.05	-30.2	-32.3	12.2	2.96e-04	0	42	0	1207959552	20	4595
2026-01-11 01:00:44.69	215.33	12.95	-30.2	-32.4	12.1	2.18e-03	0	42	0	1210056704	20	4637
2026-01-11 01:00:45.70	215.30	12.85	-30.2	-32.2	12.2	2.07e-03	0	42	0	1211105280	20	4575
2026-01-11 01:00:46.70	215.27	12.76	-30.1	-32.1	12.3	1.97e-04	0	42	0	1213202432	20	4544
2026-01-11 01:00:47.70	215.24	12.66	-30.1	-32.2	12.2	1.65e-04	0	42	0	1215299584	20	4565
2026-01-11 01:00:48.71	215.21	12.56	-30.1	-32.1	12.3	1.76e-03	0	42	0	1217396736	20	4518
2026-01-11 01:00:49.72	215.18	12.47	-29.9	-31.6	12.6	9.76e-05	0	42	0	1219493888	20	4376
2026-01-11 01:00:50.72	215.15	12.37	-30.1	-32.1	12.2	1.62e-03	0	42	0	1220542464	20	4553
2026-01-11 01:00:51.72	215.12	12.28	-30.2	-32.4	12.0	1.62e-03	0	42	0	1222639616	20	4644
2026-01-11 01:00:52.73	215.09	12.18	-30.2	-32.3	12.1	3.15e-04	0	42	0	1224736768	20	4608
2026-01-11 01:00:53.74	215.07	12.09	-30.3	-32.7	11.8	1.55e-03	0	42	0	1226833920	20	4771
2026-01-11 01:00:54.74	215.04	11.99	-30.1	-32.3	12.1	1.44e-03	0	42	0	1228931072	20	4595
2026-01-11 01:00:55.75	215.01	11.90	-30.2	-32.3	12.1	2.67e-04	0	42	0	1229979648	20	4605
2026-01-11 01:00:56.75	214.98	11.80	-30.3	-32.6	11.9	1.30e-03	0	42	0	1232076800	20	4733
2026-01-11 01:00:57.76	214.95	11.71	-30.2	-32.5	11.9	1.50e-03	0	42	0	1234173952	20	4665
2026-01-11 01:00:58.76	214.92	11.62	-30.3	-32.9	11.6	5.75e-04	0	42	0	1236271104	20	4815
2026-01-11 01:00:59.77	214.89	11.53	-30.3	-32.9	11.6	1.47e-03	0	42	0	1238368256	20	4844
2026-01-11 01:01:00.78	214.87	11.43	-30.3	-32.9	11.6	1.34e-03	0	42	0	1239416832	20	4827
2026-01-11 01:01:01.79	214.84	11.34	-30.3	-32.9	11.6	7.05e-04	0	42	0	1241513984	20	4843
2026-01-11 01:01:02.80	214.81	11.25	-30.3	-32.9	11.6	9.79e-04	0	42	0	1243611136	20	4825
2026-01-11 01:01:03.80	214.79	11.16	-30.5	-32.8	11.3	1.41e-03	0	42	0	1245708288	21	4699
2026-01-11 01:01:04.81	214.76	11.07	-30.6	-33.4	10.9	2.34e-03	0	42	0	1247805440	21	4921
2026-01-11 01:01:05.82	214.73	10.98	-30.6	-33.3	10.9	3.32e-03	0	42	0	1248854016	21	4884
2026-01-11 01:01:06.82	214.70	10.89	-30.7	-33.5	10.8	3.39e-03	0	42	0	1250951168	21	4999
2026-01-11 01:01:07.83	214.68	10.80	-30.6	-33.2	10.9	2.13e-03	0	42	0	1253048320	21	4868
2026-01-11 01:01:08.84	214.65	10.71	-30.8	-34.1	10.2	4.25e-03	0	42	0	1255145472	21	5222
2026-01-11 01:01:09.85	214.63	10.62	-30.8	-34.0	10.3	5.32e-03	0	42	0	1257242624	21	5198
2026-01-11 01:01:10.85	214.60	10.53	-30.7	-33.8	10.6	4.16e-03	0	42	0	1258291200	21	5094
2026-01-11 01:01:11.85	214.57	10.44	-30.8	-33.9	10.4	4.55e-03	0	42	0	1260388352	21	5151
2026-01-11 01:01:12.86	214.55	10.35	-30.8	-34.0	10.3	6.34e-03	0	42	0	1262485504	21	5196
2026-01-11 01:01:13.87	214.52	10.26	-30.8	-34.0	10.3	5.45e-03	0	42	0	1264582656	21	5190
2026-01-11 01:01:14.87	214.50	10.18	-30.8	-34.0	10.4	4.75e-03	0	42	0	1266679808	21	5198
2026-01-11 01:01:15.87	214.47	10.09	-31.0	-34.2	9.8	7.12e-03	0	42	0	1267728384	22	5216
2026-01-11 01:01:16.88	214.45	10.00	-31.1	-34.4	9.5	1.21e-02	0	42	0	1269825536	22	5286
2026-01-11 01:01:17.88	214.42	9.91	-31.0	-34.1	9.9	1.03e-02	0	42	0	1271922688	22	5143
2026-01-11 01:01:18.89	214.40	9.83	-30.9	-34.3	10.1	7.00e-03	0	42	0	1274019840	21	5354
2026-01-11 01:01:19.89	214.37	9.74	-31.0	-34.3	9.7	9.12e-03	0	42	0	1276116992	22	5264
2026-01-11 01:01:20.90	214.35	9.66	-31.2	-34.8	9.4	1.31e-02	0	42	0	1277165568	22	5454
2026-01-11 01:01:21.90	214.33	9.57	-31.0	-34.0	9.9	1.08e-02	0	42	0	1279262720	22	5127
2026-01-11 01:01:22.91	214.30	9.48	-30.9	-33.8	10.1	7.36e-03	0	42	0	1281359872	22	5039
2026-01-11 01:01:23.92	214.28	9.40	-30.8	-34.1	10.2	7.52e-03	0	42	0	1283457024	21	5236
2026-01-11 01:01:24.92	214.26	9.31	-30.8	-33.9	10.3	5.91e-03	0	42	0	1285554176	21	5169
2026-01-11 01:01:25.93	214.23	9.23	-31.0	-34.3	9.7	7.93e-03	0	42	0	1286602752	22	5248
2026-01-11 01:01:26.93	214.21	9.15	-31.0	-34.1	9.8	1.21e-02	0	42	0	1288699904	22	5164
2026-01-11 01:01:27.93	214.19	9.06	-30.7	-33.8	10.4	5.32e-03	0	42	0	1290797056	21	5126
2026-01-11 01:01:28.94	214.16	8.98	-30.8	-33.9	10.3	4.18e-03	0	42	0	1292894208	21	5171
