passes_logs/2026/01/11/R2M6_AANII_01/R2M6_AANII_01__20260111_051541_FENGYUN_3E_rec.log

#Pass ID: 20260111_051541_FENGYUN 3E
#Satellite: FENGYUN 3E
#Configuration: FENGYUN 3E
#almurnet v.1.7.20240730
#Start time: 2026-01-11 05:18:53

#Version: 2.2.20231116
#Station: R2M6_AANII_01
#Location: 30.233357 lon 59.946436 lat
#TLE: 1 49008U 21062A   26010.00248113 -.00000186  00000+0 -66867-4 0  9993
#TLE: 2 49008  98.7487  15.1892 0001787 147.8079 212.3207 14.19883469234134

#Time	Az	El	Level	Level2	SNR	BER	BlckErr	Temp	State	Recorded	gain1	gain2
2026-01-11 05:18:53.18	2.66	28.00	-33.3	-44.7	3.8	8.47e-01	0	42	0	0	26	13353
2026-01-11 05:18:54.17	2.52	28.16	-33.9	-43.6	3.8	8.46e-01	0	42	104	0	27	11016
2026-01-11 05:18:55.16	2.39	28.32	-33.9	-43.7	3.8	8.45e-01	0	42	104	0	27	11123
2026-01-11 05:18:56.17	2.25	28.48	-33.9	-43.7	3.8	8.46e-01	0	42	104	0	27	11106
2026-01-11 05:18:57.17	2.12	28.65	-34.0	-43.8	3.8	8.46e-01	0	42	104	0	27	11205
2026-01-11 05:18:58.18	1.98	28.82	-33.9	-43.7	3.8	8.47e-01	0	42	104	0	27	11129
2026-01-11 05:18:59.19	1.83	28.98	-34.0	-43.8	3.8	8.45e-01	0	42	104	0	27	11180
2026-01-11 05:19:00.19	1.69	29.15	-34.0	-43.8	3.8	8.45e-01	0	42	104	0	27	11202
2026-01-11 05:19:01.19	1.55	29.32	-34.0	-43.9	3.8	8.47e-01	0	42	104	0	27	11243
2026-01-11 05:19:02.19	1.40	29.49	-34.0	-43.8	3.8	8.45e-01	0	42	104	0	27	11223
2026-01-11 05:19:03.20	1.26	29.66	-34.0	-43.9	3.8	8.46e-01	0	42	104	0	27	11251
2026-01-11 05:19:04.20	1.11	29.83	-34.0	-43.8	3.8	8.45e-01	0	42	104	0	27	11190
2026-01-11 05:19:05.20	0.96	30.00	-34.0	-43.8	3.8	8.47e-01	0	42	104	0	27	11207
2026-01-11 05:19:06.20	0.81	30.17	-33.9	-43.7	3.8	8.46e-01	0	42	104	0	27	11146
2026-01-11 05:19:07.20	0.65	30.34	-33.9	-43.8	3.8	8.46e-01	0	42	104	0	27	11169
2026-01-11 05:19:08.20	0.50	30.51	-33.9	-43.8	3.8	8.46e-01	0	42	104	0	27	11157
2026-01-11 05:19:09.20	0.34	30.69	-33.9	-43.8	3.8	8.46e-01	0	42	104	0	27	11153
2026-01-11 05:19:10.20	0.18	30.86	-34.0	-43.9	3.8	8.46e-01	0	42	104	0	27	11255
2026-01-11 05:19:11.20	0.02	31.04	-33.9	-43.8	3.8	8.46e-01	0	42	104	0	27	11187
2026-01-11 05:19:12.20	359.86	31.21	-34.0	-43.8	3.8	8.45e-01	0	42	104	0	27	11201
2026-01-11 05:19:13.21	359.70	31.39	-34.0	-43.8	3.8	8.46e-01	0	42	104	0	27	11152
2026-01-11 05:19:14.20	359.53	31.57	-34.0	-43.8	3.8	8.44e-01	0	42	104	0	27	11200
2026-01-11 05:19:15.21	359.37	31.75	-34.0	-43.8	3.8	8.46e-01	0	42	104	0	27	11207
2026-01-11 05:19:16.21	359.20	31.93	-34.0	-43.8	3.8	8.45e-01	0	42	104	0	27	11183
2026-01-11 05:19:17.21	359.02	32.11	-34.0	-43.8	3.8	8.46e-01	0	42	104	0	27	11173
2026-01-11 05:19:18.21	358.85	32.29	-33.9	-43.8	3.8	8.47e-01	0	42	104	0	27	11156
2026-01-11 05:19:19.22	358.68	32.48	-33.9	-43.7	3.8	8.47e-01	0	42	104	0	27	11131
2026-01-11 05:19:20.23	358.50	32.66	-33.9	-43.7	3.8	8.46e-01	0	42	104	0	27	11090
2026-01-11 05:19:21.24	358.32	32.85	-33.8	-43.4	3.8	8.47e-01	0	42	104	0	27	10764
2026-01-11 05:19:22.24	358.13	33.03	-33.8	-43.5	3.8	8.46e-01	0	42	104	0	27	10903
2026-01-11 05:19:23.25	357.95	33.22	-33.6	-42.0	3.8	8.46e-01	0	42	104	0	27	9430
2026-01-11 05:19:24.25	357.76	33.40	-33.7	-42.3	3.8	8.45e-01	0	42	104	0	27	9743
2026-01-11 05:19:25.25	357.58	33.59	-33.7	-42.7	3.8	8.45e-01	0	42	104	0	27	10157
2026-01-11 05:19:26.25	357.39	33.78	-33.7	-43.0	3.8	8.46e-01	0	42	104	0	27	10477
2026-01-11 05:19:27.25	357.19	33.97	-33.8	-43.1	3.8	8.46e-01	0	42	104	0	27	10605
2026-01-11 05:19:28.26	357.00	34.16	-33.8	-43.3	3.8	8.46e-01	0	42	104	0	27	10713
2026-01-11 05:19:29.26	356.80	34.35	-33.7	-43.1	3.8	8.46e-01	0	42	104	0	27	10525
2026-01-11 05:19:30.27	356.60	34.54	-33.7	-42.6	3.8	8.47e-01	0	42	104	0	27	10037
2026-01-11 05:19:31.28	356.40	34.73	-33.6	-42.0	3.8	8.45e-01	0	42	104	0	27	9396
2026-01-11 05:19:32.28	356.19	34.92	-33.6	-41.7	3.8	8.45e-01	0	42	104	0	27	9144
2026-01-11 05:19:33.28	355.99	35.12	-33.5	-41.8	3.8	8.45e-01	0	42	104	0	26	9313
2026-01-11 05:19:34.28	355.78	35.31	-33.3	-40.4	3.9	8.44e-01	0	42	104	0	26	8142
2026-01-11 05:19:35.28	355.57	35.51	-33.0	-38.6	4.5	8.28e-01	0	42	104	0	26	6892
2026-01-11 05:19:36.27	355.35	35.70	-32.6	-37.4	5.2	7.72e-01	0	42	0	0	25	6282
2026-01-11 05:19:37.27	355.14	35.90	-32.5	-36.9	5.5	7.17e-01	0	42	0	0	25	5995
2026-01-11 05:19:38.27	354.92	36.09	-32.5	-37.2	5.3	7.14e-01	0	42	0	0	25	6167
2026-01-11 05:19:39.27	354.70	36.29	-32.8	-38.3	4.8	7.86e-01	0	42	0	0	25	6820
2026-01-11 05:19:40.27	354.47	36.49	-33.4	-40.9	4.0	8.39e-01	0	42	0	0	26	8583
2026-01-11 05:19:41.27	354.24	36.69	-33.8	-43.3	3.8	8.46e-01	0	42	104	0	27	10828
2026-01-11 05:19:42.28	354.01	36.89	-32.6	-37.1	4.3	8.40e-01	0	42	104	0	26	6031
2026-01-11 05:19:43.28	353.78	37.09	-30.1	-31.5	9.9	6.41e-01	0	42	104	0	21	4230
2026-01-11 05:19:44.28	353.54	37.29	-28.1	-29.1	11.6	1.05e-04	0	42	0	2097152	16	4067
2026-01-11 05:19:45.29	353.30	37.49	-26.8	-27.8	14.0	0.00e+00	0	42	0	9437184	13	4051
2026-01-11 05:19:46.28	353.06	37.69	-27.0	-28.3	14.2	1.10e-06	0	42	0	16777216	13	4164
2026-01-11 05:19:47.28	352.81	37.90	-27.8	-29.0	13.2	2.17e-05	0	42	0	24117248	15	4152
2026-01-11 05:19:48.27	352.57	38.10	-28.0	-28.9	13.2	4.57e-05	0	42	0	30408704	16	4009
2026-01-11 05:19:49.28	352.31	38.30	-27.5	-28.4	13.6	8.00e-06	0	42	0	38797312	15	3986
2026-01-11 05:19:50.28	352.06	38.51	-27.7	-28.8	13.3	1.71e-05	0	42	0	46137344	15	4098
2026-01-11 05:19:51.28	351.80	38.71	-27.3	-28.5	13.8	1.29e-03	0	42	0	52428800	14	4114
2026-01-11 05:19:52.28	351.54	38.92	-27.3	-28.5	13.8	1.10e-06	0	42	0	59768832	14	4111
2026-01-11 05:19:53.28	351.27	39.13	-27.2	-28.2	14.0	1.57e-03	0	42	0	67108864	14	4033
2026-01-11 05:19:54.28	351.01	39.33	-26.3	-27.1	15.1	0.00e+00	0	42	0	74448896	12	3971
2026-01-11 05:19:55.28	350.73	39.54	-25.4	-25.7	16.2	0.00e+00	0	42	0	81788928	11	3728
2026-01-11 05:19:56.28	350.46	39.75	-24.8	-25.6	16.8	1.31e-03	0	42	0	89128960	9	3911
2026-01-11 05:19:57.28	350.18	39.96	-24.2	-24.6	17.5	0.00e+00	0	42	0	95420416	8	3800
2026-01-11 05:19:58.27	349.90	40.16	-24.0	-24.2	17.8	0.00e+00	0	42	0	102760448	8	3696
2026-01-11 05:19:59.27	349.61	40.37	-23.7	-24.2	18.0	0.00e+00	0	42	0	110100480	7	3808
2026-01-11 05:20:00.27	349.32	40.58	-23.9	-24.5	17.8	0.00e+00	0	42	0	117440512	7	3878
2026-01-11 05:20:01.27	349.03	40.79	-24.2	-24.7	17.5	9.49e-05	0	42	0	124780544	8	3804
2026-01-11 05:20:02.27	348.73	41.00	-24.1	-24.4	17.6	0.00e+00	0	42	0	132120576	8	3755
2026-01-11 05:20:03.27	348.43	41.21	-24.2	-24.7	17.5	0.00e+00	0	42	0	139460608	8	3803
2026-01-11 05:20:04.27	348.12	41.43	-24.1	-24.6	17.6	0.00e+00	0	42	0	146800640	8	3790
2026-01-11 05:20:05.27	347.81	41.64	-24.0	-24.3	17.7	0.00e+00	0	42	0	153092096	8	3733
2026-01-11 05:20:06.28	347.50	41.85	-23.9	-24.5	17.9	7.22e-04	0	42	0	161480704	7	3865
2026-01-11 05:20:07.29	347.18	42.06	-23.7	-24.1	18.0	0.00e+00	0	42	0	168820736	7	3774
2026-01-11 05:20:08.28	346.86	42.27	-23.3	-23.3	18.5	8.98e-04	0	42	0	175112192	7	3591
2026-01-11 05:20:09.28	346.53	42.49	-23.6	-23.9	18.2	9.31e-04	0	42	0	182452224	7	3727
2026-01-11 05:20:10.28	346.20	42.70	-23.6	-23.8	18.2	0.00e+00	0	42	0	189792256	7	3719
2026-01-11 05:20:11.28	345.86	42.91	-23.1	-23.5	18.6	9.60e-04	0	42	0	197132288	6	3749
2026-01-11 05:20:12.29	345.52	43.13	-22.9	-22.9	18.9	9.29e-04	0	42	0	204472320	6	3611
2026-01-11 05:20:13.28	345.18	43.34	-22.5	-22.2	19.2	0.00e+00	0	42	0	211812352	6	3470
2026-01-11 05:20:14.28	344.83	43.55	-22.9	-22.9	18.9	1.07e-03	0	42	0	218103808	6	3626
2026-01-11 05:20:15.28	344.48	43.76	-23.0	-23.3	18.7	0.00e+00	0	42	0	226492416	6	3699
2026-01-11 05:20:16.28	344.12	43.98	-23.2	-23.6	18.5	0.00e+00	0	42	0	233832448	6	3766
2026-01-11 05:20:17.28	343.75	44.19	-23.3	-23.7	18.5	1.42e-03	0	42	0	240123904	6	3799
2026-01-11 05:20:18.28	343.38	44.40	-23.3	-23.3	18.5	1.38e-03	0	42	0	247463936	7	3608
2026-01-11 05:20:19.28	343.01	44.61	-23.7	-24.2	18.0	0.00e+00	0	42	0	254803968	7	3811
2026-01-11 05:20:20.29	342.63	44.83	-24.0	-24.8	17.7	1.34e-03	0	42	0	262144000	7	3948
2026-01-11 05:20:21.29	342.24	45.04	-24.2	-24.7	17.5	1.18e-03	0	42	0	269484032	8	3811
2026-01-11 05:20:22.29	341.85	45.25	-23.9	-24.1	17.8	0.00e+00	0	42	0	276824064	8	3669
2026-01-11 05:20:23.28	341.46	45.46	-23.7	-24.2	18.0	1.14e-03	0	42	0	284164096	7	3810
2026-01-11 05:20:24.28	341.06	45.67	-23.7	-24.1	18.1	1.03e-03	0	42	0	290455552	7	3774
2026-01-11 05:20:25.27	340.66	45.88	-23.4	-23.6	18.3	0.00e+00	0	42	0	297795584	7	3668
2026-01-11 05:20:26.28	340.25	46.09	-23.3	-23.7	18.5	9.26e-04	0	42	0	305135616	6	3804
2026-01-11 05:20:27.28	339.83	46.30	-23.2	-23.6	18.5	8.39e-04	0	42	0	312475648	6	3778
2026-01-11 05:20:28.28	339.41	46.50	-23.4	-24.0	18.4	0.00e+00	0	42	0	319815680	6	3850
2026-01-11 05:20:29.28	338.98	46.71	-23.4	-23.4	18.4	9.01e-04	0	42	0	327155712	7	3631
2026-01-11 05:20:30.29	338.55	46.92	-23.8	-24.4	17.9	0.00e+00	0	42	0	334495744	7	3849
2026-01-11 05:20:31.29	338.11	47.13	-24.5	-25.3	17.2	0.00e+00	0	42	0	341835776	8	3956
2026-01-11 05:20:32.29	337.66	47.33	-24.8	-25.5	16.8	7.61e-04	0	42	0	349175808	9	3913
2026-01-11 05:20:33.29	337.21	47.54	-25.1	-25.7	16.5	0.00e+00	0	42	0	356515840	10	3842
2026-01-11 05:20:34.28	336.76	47.74	-24.7	-24.8	17.0	0.00e+00	0	42	0	362807296	10	3644
2026-01-11 05:20:35.28	336.30	47.94	-24.6	-25.2	17.0	0.00e+00	0	42	0	370147328	9	3815
2026-01-11 05:20:36.28	335.83	48.14	-24.6	-25.0	17.1	8.22e-04	0	42	0	377487360	9	3765
2026-01-11 05:20:37.28	335.35	48.34	-24.1	-24.0	17.7	0.00e+00	0	42	0	384827392	9	3552
2026-01-11 05:20:38.29	334.87	48.54	-24.1	-24.5	17.6	0.00e+00	0	42	0	392167424	8	3778
2026-01-11 05:20:39.28	334.39	48.74	-24.0	-24.3	17.7	8.03e-04	0	42	0	399507456	8	3723
2026-01-11 05:20:40.29	333.89	48.94	-24.2	-24.8	17.5	0.00e+00	0	42	0	406847488	8	3831
2026-01-11 05:20:41.30	333.38	49.13	-24.3	-24.9	17.4	0.00e+00	0	42	0	414187520	8	3869
2026-01-11 05:20:42.30	332.87	49.32	-24.1	-24.5	17.7	9.03e-04	0	42	0	421527552	8	3763
2026-01-11 05:20:43.30	332.36	49.52	-23.8	-23.9	17.9	0.00e+00	0	42	0	427819008	8	3643
2026-01-11 05:20:44.31	331.84	49.71	-23.9	-24.6	17.8	8.88e-04	0	42	0	435159040	7	3888
2026-01-11 05:20:45.31	331.31	49.89	-24.1	-24.6	17.6	0.00e+00	0	42	0	442499072	8	3783
2026-01-11 05:20:46.32	330.77	50.08	-24.3	-24.9	17.4	0.00e+00	0	42	0	449839104	8	3857
2026-01-11 05:20:47.31	330.24	50.27	-24.7	-25.3	17.0	8.71e-04	0	42	0	457179136	9	3841
2026-01-11 05:20:48.31	329.69	50.45	-24.8	-25.4	16.9	0.00e+00	0	42	0	464519168	9	3883
2026-01-11 05:20:49.30	329.15	50.63	-25.0	-25.8	16.6	0.00e+00	0	42	0	471859200	9	3968
2026-01-11 05:20:50.30	328.59	50.80	-24.8	-25.4	16.9	0.00e+00	0	42	0	479199232	9	3867
2026-01-11 05:20:51.30	328.02	50.98	-24.6	-25.0	17.1	0.00e+00	0	42	0	486539264	9	3776
2026-01-11 05:20:52.29	327.45	51.15	-24.4	-24.7	17.3	0.00e+00	0	42	0	492830720	9	3700
2026-01-11 05:20:53.29	326.88	51.32	-24.4	-24.5	17.4	0.00e+00	0	42	0	500170752	9	3675
2026-01-11 05:20:54.29	326.29	51.49	-23.9	-24.1	17.8	0.00e+00	0	42	0	507510784	8	3674
2026-01-11 05:20:55.29	325.70	51.66	-24.0	-24.2	17.7	0.00e+00	0	42	0	514850816	8	3695
2026-01-11 05:20:56.29	325.10	51.82	-23.9	-24.1	17.8	0.00e+00	0	42	0	522190848	8	3673
2026-01-11 05:20:57.30	324.49	51.98	-24.3	-24.8	17.5	0.00e+00	0	42	0	529530880	8	3844
2026-01-11 05:20:58.30	323.87	52.14	-24.3	-24.9	17.4	0.00e+00	0	42	0	536870912	8	3856
2026-01-11 05:20:59.30	323.26	52.29	-24.1	-24.5	17.5	0.00e+00	0	42	0	544210944	8	3755
2026-01-11 05:21:00.30	322.63	52.44	-23.8	-23.9	17.9	0.00e+00	0	42	0	550502400	8	3633
2026-01-11 05:21:01.31	321.99	52.59	-23.5	-23.2	18.2	0.00e+00	0	42	0	557842432	8	3486
2026-01-11 05:21:02.30	321.36	52.74	-23.4	-23.4	18.4	0.00e+00	0	42	0	565182464	7	3622
2026-01-11 05:21:03.31	320.71	52.88	-23.5	-23.8	18.3	0.00e+00	0	42	0	572522496	7	3708
2026-01-11 05:21:04.31	320.06	53.02	-23.7	-24.1	18.1	0.00e+00	0	42	0	579862528	7	3787
2026-01-11 05:21:05.31	319.40	53.16	-23.9	-24.5	17.8	0.00e+00	0	42	0	587202560	7	3855
2026-01-11 05:21:06.31	318.74	53.29	-23.9	-24.0	17.8	0.00e+00	0	42	0	594542592	8	3660
2026-01-11 05:21:07.31	318.07	53.41	-23.9	-24.0	17.9	0.00e+00	0	42	0	601882624	8	3648
2026-01-11 05:21:08.30	317.40	53.54	-23.7	-23.7	18.1	0.00e+00	0	42	0	609222656	8	3579
2026-01-11 05:21:09.31	316.72	53.66	-23.7	-24.2	18.0	0.00e+00	0	42	0	615514112	7	3805
2026-01-11 05:21:10.30	316.04	53.78	-23.5	-23.8	18.2	0.00e+00	0	42	0	622854144	7	3708
2026-01-11 05:21:11.30	315.34	53.89	-23.5	-23.7	18.3	0.00e+00	0	42	0	630194176	7	3676
2026-01-11 05:21:12.30	314.65	54.00	-23.6	-24.0	18.1	0.00e+00	0	42	0	637534208	7	3746
2026-01-11 05:21:13.30	313.95	54.10	-23.4	-23.6	18.3	0.00e+00	0	42	0	644874240	7	3664
2026-01-11 05:21:14.30	313.24	54.20	-23.6	-24.0	18.1	0.00e+00	0	42	0	652214272	7	3765
2026-01-11 05:21:15.31	312.52	54.30	-24.1	-24.9	17.6	0.00e+00	0	42	0	659554304	7	3976
2026-01-11 05:21:16.31	311.80	54.39	-24.4	-25.0	17.3	0.00e+00	0	42	0	666894336	8	3892
2026-01-11 05:21:17.31	311.08	54.48	-24.6	-25.5	17.2	0.00e+00	0	42	0	673185792	8	3993
2026-01-11 05:21:18.31	310.36	54.56	-24.4	-25.2	17.2	0.00e+00	0	42	0	680525824	8	3915
2026-01-11 05:21:19.31	309.63	54.64	-24.3	-24.8	17.4	0.00e+00	0	42	0	687865856	8	3844
2026-01-11 05:21:20.31	308.89	54.71	-24.0	-24.3	17.7	0.00e+00	0	42	0	695205888	8	3729
2026-01-11 05:21:21.32	308.15	54.78	-24.3	-24.9	17.4	0.00e+00	0	42	0	702545920	8	3872
2026-01-11 05:21:22.31	307.41	54.85	-24.4	-24.7	17.3	0.00e+00	0	42	0	709885952	9	3706
2026-01-11 05:21:23.31	306.67	54.91	-24.5	-25.4	17.2	1.10e-06	0	42	0	717225984	8	3969
2026-01-11 05:21:24.31	305.92	54.96	-24.5	-25.3	17.2	1.37e-05	0	42	0	724566016	8	3956
2026-01-11 05:21:25.31	305.17	55.01	-24.7	-25.2	17.0	0.00e+00	0	42	0	731906048	9	3828
2026-01-11 05:21:26.32	304.41	55.06	-24.2	-24.2	17.5	0.00e+00	0	42	0	738197504	9	3605
2026-01-11 05:21:27.32	303.65	55.10	-23.8	-23.8	18.0	0.00e+00	0	42	0	745537536	8	3612
2026-01-11 05:21:28.32	302.90	55.14	-23.8	-23.7	18.0	0.00e+00	0	42	0	752877568	8	3597
2026-01-11 05:21:29.32	302.14	55.17	-23.9	-24.0	17.9	0.00e+00	0	42	0	760217600	8	3666
2026-01-11 05:21:30.33	301.37	55.19	-24.3	-24.8	17.3	0.00e+00	0	42	0	767557632	8	3854
2026-01-11 05:21:31.33	300.61	55.21	-24.6	-25.0	17.1	0.00e+00	0	42	0	774897664	9	3788
2026-01-11 05:21:32.33	299.85	55.23	-24.8	-25.5	16.9	0.00e+00	0	42	0	782237696	9	3888
2026-01-11 05:21:33.33	299.08	55.24	-24.7	-25.3	16.9	1.37e-05	0	42	0	789577728	9	3861
2026-01-11 05:21:34.33	298.32	55.24	-24.6	-25.0	17.1	0.00e+00	0	42	0	796917760	9	3788
2026-01-11 05:21:35.33	297.55	55.24	-24.6	-25.1	17.1	0.00e+00	0	42	0	804257792	9	3802
2026-01-11 05:21:36.33	296.79	55.24	-24.2	-24.2	17.5	0.00e+00	0	42	0	811597824	9	3608
2026-01-11 05:21:37.33	296.03	55.23	-24.2	-24.1	17.6	0.00e+00	0	42	0	818937856	9	3587
2026-01-11 05:21:38.33	295.26	55.22	-24.5	-25.3	17.2	2.15e-04	0	42	0	825229312	8	3953
2026-01-11 05:21:39.33	294.50	55.20	-24.8	-25.4	16.9	0.00e+00	0	42	0	832569344	9	3868
2026-01-11 05:21:40.34	293.73	55.17	-24.4	-24.6	17.3	0.00e+00	0	42	0	839909376	9	3692
2026-01-11 05:21:41.33	292.98	55.14	-24.0	-24.3	17.7	0.00e+00	0	42	0	847249408	8	3714
2026-01-11 05:21:42.33	292.22	55.11	-23.7	-23.6	18.0	0.00e+00	0	43	0	854589440	8	3571
2026-01-11 05:21:43.33	291.47	55.07	-23.7	-23.6	18.1	0.00e+00	0	42	0	861929472	8	3574
2026-01-11 05:21:44.33	290.71	55.02	-23.9	-24.6	17.8	0.00e+00	0	42	0	869269504	7	3889
2026-01-11 05:21:45.34	289.95	54.97	-24.0	-24.8	17.7	0.00e+00	0	42	0	876609536	7	3935
2026-01-11 05:21:46.34	289.21	54.92	-24.2	-24.7	17.5	0.00e+00	0	42	0	882900992	8	3816
2026-01-11 05:21:47.35	288.45	54.86	-24.4	-25.2	17.2	0.00e+00	0	42	0	890241024	8	3927
2026-01-11 05:21:48.35	287.71	54.79	-24.2	-24.6	17.5	0.00e+00	0	42	0	897581056	8	3788
2026-01-11 05:21:49.35	286.97	54.73	-24.1	-24.5	17.6	0.00e+00	0	42	0	904921088	8	3765
2026-01-11 05:21:50.35	286.24	54.65	-24.1	-24.4	17.6	0.00e+00	0	42	0	912261120	8	3742
2026-01-11 05:21:51.35	285.51	54.57	-24.2	-24.6	17.5	0.00e+00	0	42	0	919601152	8	3793
2026-01-11 05:21:52.34	284.79	54.49	-24.2	-24.7	17.5	0.00e+00	0	42	0	926941184	8	3804
2026-01-11 05:21:53.35	284.05	54.41	-24.3	-24.9	17.3	0.00e+00	0	42	0	934281216	8	3854
2026-01-11 05:21:54.35	283.34	54.31	-24.3	-25.0	17.3	0.00e+00	0	42	0	941621248	8	3874
2026-01-11 05:21:55.35	282.62	54.22	-24.2	-24.7	17.4	0.00e+00	0	42	0	947912704	8	3826
2026-01-11 05:21:56.36	281.91	54.12	-24.2	-24.6	17.5	0.00e+00	0	42	0	955252736	8	3803
2026-01-11 05:21:57.36	281.20	54.01	-24.0	-24.3	17.7	0.00e+00	0	42	0	962592768	8	3733
2026-01-11 05:21:58.36	280.50	53.91	-24.1	-24.5	17.6	0.00e+00	0	42	0	969932800	8	3764
2026-01-11 05:21:59.36	279.81	53.79	-24.4	-25.1	17.2	0.00e+00	0	42	0	977272832	8	3912
2026-01-11 05:22:00.36	279.12	53.68	-24.6	-25.0	17.0	0.00e+00	0	42	0	984612864	9	3779
2026-01-11 05:22:01.37	278.43	53.56	-24.2	-24.2	17.4	0.00e+00	0	42	0	991952896	9	3604
2026-01-11 05:22:02.37	277.76	53.43	-23.8	-23.8	18.0	0.00e+00	0	42	0	999292928	8	3601
2026-01-11 05:22:03.37	277.09	53.30	-23.8	-24.4	17.8	0.00e+00	0	42	0	1006632960	7	3865
2026-01-11 05:22:04.37	276.42	53.17	-24.0	-24.8	17.6	0.00e+00	0	42	0	1012924416	7	3944
2026-01-11 05:22:05.37	275.76	53.04	-24.2	-24.7	17.5	0.00e+00	0	42	0	1020264448	8	3817
2026-01-11 05:22:06.38	275.10	52.90	-24.6	-25.2	17.0	0.00e+00	0	42	0	1028653056	9	3822
2026-01-11 05:22:07.39	274.45	52.75	-24.8	-25.5	16.8	0.00e+00	0	42	0	1034944512	9	3901
2026-01-11 05:22:08.39	273.81	52.61	-24.8	-25.6	16.7	0.00e+00	0	42	0	1042284544	9	3914
2026-01-11 05:22:09.39	273.18	52.46	-24.8	-25.5	16.8	0.00e+00	0	42	0	1049624576	9	3906
2026-01-11 05:22:10.38	272.56	52.31	-24.7	-25.3	16.8	1.22e-03	0	42	0	1056964608	9	3855
2026-01-11 05:22:11.38	271.94	52.16	-24.9	-25.7	16.5	0.00e+00	0	42	0	1064304640	9	3951
2026-01-11 05:22:12.38	271.32	52.00	-25.0	-26.0	16.5	0.00e+00	0	42	0	1071644672	9	4018
2026-01-11 05:22:13.38	270.71	51.84	-25.1	-25.7	16.4	1.46e-03	0	42	0	1078984704	10	3852
2026-01-11 05:22:14.38	270.11	51.68	-24.7	-25.4	16.9	0.00e+00	0	42	0	1085276160	9	3872
2026-01-11 05:22:15.38	269.52	51.51	-24.4	-24.6	17.2	0.00e+00	0	42	0	1092616192	9	3686
2026-01-11 05:22:16.38	268.93	51.34	-24.1	-24.6	17.5	0.00e+00	0	42	0	1099956224	8	3788
2026-01-11 05:22:17.38	268.35	51.17	-24.0	-24.3	17.6	1.10e-06	0	42	0	1107296256	8	3727
2026-01-11 05:22:18.39	267.77	51.00	-24.2	-24.7	17.4	0.00e+00	0	42	0	1114636288	8	3822
2026-01-11 05:22:19.39	267.20	50.82	-24.3	-24.9	17.3	0.00e+00	0	42	0	1121976320	8	3866
2026-01-11 05:22:20.39	266.64	50.64	-24.2	-24.7	17.4	3.33e-04	0	42	0	1129316352	8	3824
2026-01-11 05:22:21.40	266.08	50.46	-24.3	-24.9	17.3	0.00e+00	0	42	0	1136656384	8	3859
2026-01-11 05:22:22.40	265.53	50.28	-24.1	-24.4	17.5	0.00e+00	0	42	0	1143996416	8	3755
2026-01-11 05:22:23.41	264.99	50.09	-24.0	-24.2	17.7	3.48e-04	0	42	0	1151336448	8	3693
2026-01-11 05:22:24.40	264.46	49.91	-23.9	-24.5	17.8	0.00e+00	0	42	0	1157627904	7	3880
2026-01-11 05:22:25.42	263.92	49.71	-23.9	-24.5	17.7	7.20e-04	0	42	0	1164967936	7	3871
2026-01-11 05:22:26.41	263.40	49.53	-23.8	-24.4	17.8	8.20e-04	0	42	0	1172307968	7	3838
2026-01-11 05:22:27.41	262.89	49.33	-23.5	-23.7	18.1	0.00e+00	0	42	0	1179648000	7	3697
2026-01-11 05:22:28.42	262.37	49.14	-23.7	-24.2	17.9	8.78e-04	0	42	0	1186988032	7	3811
2026-01-11 05:22:29.41	261.88	48.95	-24.0	-24.9	17.6	1.35e-03	0	42	0	1194328064	7	3966
2026-01-11 05:22:30.41	261.38	48.75	-23.7	-24.2	17.9	0.00e+00	0	42	0	1201668096	7	3800
2026-01-11 05:22:31.41	260.89	48.55	-23.4	-23.6	18.2	1.37e-03	0	42	0	1209008128	7	3669
2026-01-11 05:22:32.40	260.41	48.35	-23.2	-23.7	18.4	1.29e-03	0	42	0	1216348160	6	3786
2026-01-11 05:22:33.41	259.93	48.15	-23.4	-24.0	18.2	0.00e+00	0	42	0	1222639616	6	3859
2026-01-11 05:22:34.41	259.46	47.95	-23.7	-24.1	17.9	1.24e-03	0	42	0	1229979648	7	3782
2026-01-11 05:22:35.40	259.00	47.75	-23.7	-24.2	17.9	1.28e-03	0	42	0	1237319680	7	3811
2026-01-11 05:22:36.41	258.54	47.54	-23.7	-24.2	17.8	0.00e+00	0	42	0	1244659712	7	3814
2026-01-11 05:22:37.40	258.09	47.34	-23.7	-24.2	17.9	1.00e-03	0	42	0	1251999744	7	3818
2026-01-11 05:22:38.40	257.64	47.14	-23.6	-24.0	18.0	1.33e-03	0	42	0	1259339776	7	3765
2026-01-11 05:22:39.39	257.21	46.93	-23.4	-23.6	18.2	0.00e+00	0	42	0	1266679808	7	3670
2026-01-11 05:22:40.40	256.77	46.72	-23.5	-23.7	18.2	1.02e-03	0	42	0	1274019840	7	3696
2026-01-11 05:22:41.41	256.33	46.51	-23.4	-23.5	18.2	1.20e-03	0	42	0	1280311296	7	3639
2026-01-11 05:22:42.41	255.91	46.30	-23.0	-22.7	18.6	0.00e+00	0	42	0	1287651328	7	3476
2026-01-11 05:22:43.42	255.49	46.09	-22.9	-23.0	18.7	1.19e-03	0	42	0	1294991360	6	3651
2026-01-11 05:22:44.43	255.07	45.88	-23.1	-23.4	18.5	0.00e+00	0	42	0	1302331392	6	3718
2026-01-11 05:22:45.43	254.66	45.67	-23.4	-24.1	18.1	0.00e+00	0	42	0	1309671424	6	3896
2026-01-11 05:22:46.43	254.26	45.46	-23.5	-23.7	18.1	1.17e-03	0	42	0	1317011456	7	3689
2026-01-11 05:22:47.44	253.86	45.24	-23.2	-23.6	18.4	0.00e+00	0	42	0	1324351488	6	3763
2026-01-11 05:22:48.44	253.47	45.03	-22.9	-23.0	18.7	0.00e+00	0	42	0	1331691520	6	3638
2026-01-11 05:22:49.45	253.08	44.82	-22.8	-22.8	18.8	0.00e+00	0	42	0	1339031552	6	3604
2026-01-11 05:22:50.46	252.70	44.60	-22.9	-23.1	18.7	0.00e+00	0	42	0	1346371584	6	3650
2026-01-11 05:22:51.47	252.32	44.39	-23.0	-23.1	18.6	0.00e+00	0	42	0	1353711616	6	3672
2026-01-11 05:22:52.48	251.95	44.17	-22.9	-22.9	18.7	0.00e+00	0	42	0	1361051648	6	3628
2026-01-11 05:22:53.48	251.58	43.96	-22.9	-23.1	18.7	5.37e-05	0	42	0	1368391680	6	3656
2026-01-11 05:22:54.49	251.22	43.74	-23.1	-23.4	18.5	0.00e+00	0	42	0	1375731712	6	3728
2026-01-11 05:22:55.49	250.86	43.53	-23.2	-23.7	17.6	0.00e+00	0	42	0	1383071744	6	3812
2026-01-11 05:22:56.50	250.51	43.31	-23.3	-23.8	18.3	0.00e+00	0	42	0	1389363200	6	3829
2026-01-11 05:22:57.50	250.16	43.10	-23.2	-23.7	18.3	0.00e+00	0	42	0	1396703232	6	3799
2026-01-11 05:22:58.52	249.82	42.88	-23.1	-23.4	18.5	0.00e+00	0	42	0	1404043264	6	3734
2026-01-11 05:22:59.52	249.48	42.67	-23.1	-23.5	18.5	0.00e+00	0	42	0	1411383296	6	3750
2026-01-11 05:23:00.53	249.14	42.45	-23.2	-23.6	18.3	0.00e+00	0	42	0	1418723328	6	3787
2026-01-11 05:23:01.53	248.82	42.24	-23.0	-23.2	18.6	0.00e+00	0	42	0	1426063360	6	3694
2026-01-11 05:23:02.54	248.49	42.02	-22.7	-23.2	18.8	0.00e+00	0	42	0	1433403392	5	3779
2026-01-11 05:23:03.53	248.17	41.81	-22.7	-23.0	18.9	0.00e+00	0	42	0	1440743424	5	3736
2026-01-11 05:23:04.54	247.86	41.60	-22.7	-23.0	18.9	0.00e+00	0	42	0	1448083456	5	3742
2026-01-11 05:23:05.55	247.54	41.38	-22.7	-23.1	18.9	0.00e+00	0	42	0	1455423488	5	3761
2026-01-11 05:23:06.56	247.23	41.17	-22.8	-23.3	18.8	0.00e+00	0	42	0	1462763520	5	3808
2026-01-11 05:23:07.56	246.93	40.96	-22.8	-23.3	18.8	0.00e+00	0	42	0	1469054976	5	3814
2026-01-11 05:23:08.56	246.63	40.75	-22.8	-23.3	18.7	0.00e+00	0	42	0	1476395008	5	3820
2026-01-11 05:23:09.57	246.33	40.53	-22.9	-23.5	18.7	0.00e+00	0	42	0	1483735040	5	3853
2026-01-11 05:23:10.56	246.05	40.33	-22.7	-23.1	18.9	2.20e-06	0	42	0	1491075072	5	3758
2026-01-11 05:23:11.56	245.76	40.12	-22.5	-22.7	19.0	0.00e+00	0	42	0	1498415104	5	3675
2026-01-11 05:23:12.57	245.47	39.90	-22.8	-23.2	18.8	0.00e+00	0	42	0	1505755136	5	3781
2026-01-11 05:23:13.58	245.19	39.69	-23.0	-23.7	18.6	1.10e-06	0	42	0	1513095168	5	3890
2026-01-11 05:23:14.59	244.91	39.48	-23.2	-23.6	18.4	0.00e+00	0	42	0	1520435200	6	3768
2026-01-11 05:23:15.60	244.64	39.27	-23.3	-23.7	18.3	0.00e+00	0	42	0	1527775232	6	3809
2026-01-11 05:23:16.61	244.36	39.06	-23.2	-23.6	18.3	0.00e+00	0	42	0	1535115264	6	3770
2026-01-11 05:23:17.61	244.10	38.85	-23.0	-23.2	18.6	0.00e+00	0	42	0	1542455296	6	3686
2026-01-11 05:23:18.61	243.84	38.65	-23.0	-23.7	18.5	0.00e+00	0	42	0	1549795328	5	3913
2026-01-11 05:23:19.62	243.58	38.44	-22.9	-23.6	18.6	0.00e+00	0	42	0	1556086784	5	3876
2026-01-11 05:23:20.63	243.32	38.23	-23.0	-23.7	18.5	0.00e+00	0	42	0	1563426816	5	3906
2026-01-11 05:23:21.64	243.06	38.02	-23.2	-23.7	18.3	0.00e+00	0	42	0	1571815424	6	3795
2026-01-11 05:23:22.64	242.81	37.82	-23.4	-24.0	18.1	0.00e+00	0	42	0	1578106880	6	3869
2026-01-11 05:23:23.64	242.57	37.62	-23.1	-23.5	18.4	0.00e+00	0	42	0	1585446912	6	3749
2026-01-11 05:23:24.65	242.32	37.41	-22.8	-22.7	18.8	0.00e+00	0	42	0	1592786944	6	3576
2026-01-11 05:23:25.66	242.08	37.21	-22.6	-22.5	18.9	0.00e+00	0	42	0	1600126976	6	3524
2026-01-11 05:23:26.67	241.84	37.00	-22.7	-22.6	18.6	0.00e+00	0	42	0	1607467008	6	3567
2026-01-11 05:23:27.68	241.61	36.80	-23.0	-23.2	18.5	0.00e+00	0	42	0	1614807040	6	3683
2026-01-11 05:23:28.69	241.37	36.60	-23.2	-23.6	18.3	0.00e+00	0	42	0	1622147072	6	3771
2026-01-11 05:23:29.70	241.14	36.40	-23.0	-23.3	18.5	0.00e+00	0	42	0	1629487104	6	3699
2026-01-11 05:23:30.71	240.91	36.20	-23.0	-23.2	18.5	0.00e+00	0	42	0	1636827136	6	3674
2026-01-11 05:23:31.71	240.69	36.00	-22.9	-23.0	18.6	0.00e+00	0	42	0	1644167168	6	3650
2026-01-11 05:23:32.72	240.47	35.80	-22.8	-22.8	18.7	0.00e+00	0	42	0	1651507200	6	3590
2026-01-11 05:23:33.72	240.25	35.60	-22.7	-22.5	18.9	0.00e+00	0	42	0	1657798656	6	3543
2026-01-11 05:23:34.73	240.04	35.40	-22.7	-23.0	18.8	0.00e+00	0	42	0	1666187264	5	3756
2026-01-11 05:23:35.73	239.83	35.21	-22.7	-23.0	18.8	0.00e+00	0	42	0	1673527296	5	3759
2026-01-11 05:23:36.74	239.61	35.01	-22.6	-22.8	18.8	0.00e+00	0	42	0	1679818752	5	3696
2026-01-11 05:23:37.74	239.41	34.82	-22.4	-22.5	19.0	0.00e+00	0	42	0	1687158784	5	3640
2026-01-11 05:23:38.75	239.20	34.62	-22.4	-22.4	19.1	0.00e+00	0	42	0	1694498816	5	3616
2026-01-11 05:23:39.76	239.00	34.43	-22.2	-22.0	19.3	0.00e+00	0	42	0	1701838848	5	3535
2026-01-11 05:23:40.77	238.80	34.24	-22.2	-22.1	19.3	0.00e+00	0	42	0	1709178880	5	3547
2026-01-11 05:23:41.77	238.60	34.04	-22.4	-22.5	19.1	0.00e+00	0	43	0	1716518912	5	3636
2026-01-11 05:23:42.77	238.40	33.85	-22.5	-22.8	19.0	0.00e+00	0	42	0	1723858944	5	3691
2026-01-11 05:23:43.77	238.21	33.67	-22.6	-22.8	18.9	0.00e+00	0	42	0	1731198976	5	3707
2026-01-11 05:23:44.78	238.02	33.48	-22.8	-23.2	18.7	0.00e+00	0	42	0	1738539008	5	3796
2026-01-11 05:23:45.79	237.83	33.29	-22.8	-23.4	18.6	0.00e+00	0	42	0	1745879040	5	3825
2026-01-11 05:23:46.79	237.64	33.10	-22.8	-23.3	18.6	0.00e+00	0	42	0	1753219072	5	3824
2026-01-11 05:23:47.80	237.46	32.91	-22.9	-23.4	18.6	0.00e+00	0	42	0	1760559104	5	3847
2026-01-11 05:23:48.80	237.28	32.73	-22.8	-23.4	18.6	0.00e+00	0	42	0	1766850560	5	3829
2026-01-11 05:23:49.81	237.10	32.54	-23.3	-23.8	18.2	2.28e-04	0	42	0	1774190592	6	3828
2026-01-11 05:23:50.82	236.92	32.36	-23.1	-23.5	18.3	0.00e+00	0	42	0	1781530624	6	3748
2026-01-11 05:23:51.83	236.74	32.17	-22.9	-23.0	18.6	0.00e+00	0	42	0	1788870656	6	3633
2026-01-11 05:23:52.82	236.57	31.99	-22.7	-23.1	18.6	7.78e-04	0	42	0	1796210688	5	3770
2026-01-11 05:23:53.83	236.40	31.81	-22.9	-23.4	18.6	0.00e+00	0	42	0	1803550720	5	3842
2026-01-11 05:23:54.83	236.23	31.63	-22.8	-23.4	18.7	7.56e-04	0	42	0	1810890752	5	3834
2026-01-11 05:23:55.84	236.06	31.45	-22.9	-23.5	18.5	6.74e-04	0	42	0	1818230784	5	3849
2026-01-11 05:23:56.84	235.89	31.27	-22.9	-23.6	18.5	0.00e+00	0	42	0	1825570816	5	3882
2026-01-11 05:23:57.85	235.73	31.09	-22.9	-23.4	18.6	3.10e-04	0	42	0	1832910848	5	3844
2026-01-11 05:23:58.85	235.56	30.91	-22.9	-23.4	18.6	0.00e+00	0	42	0	1840250880	5	3844
2026-01-11 05:23:59.86	235.40	30.73	-23.0	-23.7	18.4	0.00e+00	0	42	0	1847590912	5	3913
2026-01-11 05:24:00.87	235.24	30.56	-22.9	-23.4	18.6	2.94e-04	0	42	0	1853882368	5	3845
2026-01-11 05:24:01.88	235.08	30.38	-22.9	-23.4	18.6	2.52e-04	0	42	0	1862270976	5	3834
2026-01-11 05:24:02.88	234.93	30.21	-22.9	-23.5	18.5	0.00e+00	0	42	0	1869611008	5	3871
2026-01-11 05:24:03.89	234.77	30.03	-23.0	-23.6	18.5	0.00e+00	0	42	0	1875902464	5	3893
2026-01-11 05:24:04.90	234.62	29.86	-23.1	-23.9	18.3	2.82e-04	0	42	0	1883242496	5	3951
2026-01-11 05:24:05.90	234.47	29.69	-23.1	-23.5	18.3	0.00e+00	0	42	0	1890582528	6	3754
2026-01-11 05:24:06.91	234.32	29.52	-23.1	-23.5	18.3	2.61e-04	0	42	0	1897922560	6	3760
2026-01-11 05:24:07.91	234.18	29.35	-23.1	-23.4	18.3	1.25e-04	0	42	0	1905262592	6	3722
2026-01-11 05:24:08.92	234.03	29.18	-23.2	-23.5	18.2	0.00e+00	0	42	0	1912602624	6	3761
2026-01-11 05:24:09.92	233.89	29.01	-22.9	-23.0	18.5	2.77e-04	0	42	0	1919942656	6	3647
2026-01-11 05:24:10.93	233.74	28.84	-23.0	-23.3	18.4	0.00e+00	0	42	0	1927282688	6	3716
2026-01-11 05:24:11.94	233.60	28.67	-22.9	-23.1	18.5	0.00e+00	0	42	0	1934622720	6	3655
2026-01-11 05:24:12.95	233.46	28.50	-22.9	-23.0	18.5	0.00e+00	0	42	0	1941962752	6	3652
2026-01-11 05:24:13.96	233.32	28.34	-23.1	-23.4	18.3	0.00e+00	0	42	0	1949302784	6	3734
2026-01-11 05:24:14.97	233.18	28.17	-23.2	-23.6	18.2	0.00e+00	0	42	0	1955594240	6	3774
2026-01-11 05:24:15.98	233.05	28.01	-23.4	-24.1	18.0	2.20e-06	0	42	0	1962934272	6	3884
2026-01-11 05:24:16.98	232.91	27.84	-23.4	-24.1	18.0	0.00e+00	0	42	0	1971322880	6	3905
2026-01-11 05:24:17.99	232.78	27.68	-23.5	-24.3	17.8	0.00e+00	0	42	0	1977614336	6	3952
2026-01-11 05:24:19.00	232.65	27.52	-23.6	-24.5	17.7	1.10e-06	0	42	0	1984954368	6	3988
2026-01-11 05:24:20.01	232.52	27.36	-23.8	-24.3	17.6	0.00e+00	0	42	0	1992294400	7	3845
2026-01-11 05:24:21.01	232.39	27.20	-24.4	-25.3	16.9	0.00e+00	0	42	0	1999634432	8	3954
2026-01-11 05:24:22.02	232.26	27.04	-23.9	-24.1	17.5	5.70e-06	0	42	0	2006974464	8	3686
2026-01-11 05:24:23.02	232.14	26.88	-23.8	-24.0	17.5	0.00e+00	0	42	0	2014314496	8	3657
2026-01-11 05:24:24.03	232.01	26.72	-23.3	-23.4	18.0	0.00e+00	0	42	0	2021654528	7	3633
2026-01-11 05:24:25.04	231.89	26.56	-23.3	-23.4	18.0	0.00e+00	0	42	0	2028994560	7	3643
2026-01-11 05:24:26.04	231.76	26.41	-23.4	-24.0	18.0	0.00e+00	0	42	0	2036334592	6	3877
2026-01-11 05:24:27.05	231.64	26.25	-23.3	-23.8	18.0	0.00e+00	0	42	0	2043674624	6	3827
2026-01-11 05:24:28.06	231.52	26.10	-23.3	-23.9	18.0	0.00e+00	0	42	0	2051014656	6	3847
2026-01-11 05:24:29.07	231.40	25.94	-23.4	-24.0	18.0	0.00e+00	0	42	0	2058354688	6	3874
2026-01-11 05:24:30.07	231.29	25.79	-23.4	-24.0	18.0	0.00e+00	0	42	0	2064646144	6	3862
2026-01-11 05:24:31.07	231.17	25.64	-23.3	-23.9	18.0	0.00e+00	0	42	0	2071986176	6	3853
2026-01-11 05:24:32.08	231.06	25.48	-23.3	-23.8	18.0	0.00e+00	0	42	0	2079326208	6	3821
2026-01-11 05:24:33.09	230.94	25.33	-23.3	-23.8	18.0	0.00e+00	0	42	0	2086666240	6	3838
2026-01-11 05:24:34.09	230.83	25.18	-23.3	-24.0	18.0	0.00e+00	0	42	0	2094006272	6	3863
2026-01-11 05:24:35.10	230.72	25.03	-23.2	-23.7	18.1	0.00e+00	0	42	0	2101346304	6	3804
2026-01-11 05:24:36.10	230.61	24.88	-23.4	-24.1	17.9	0.00e+00	0	42	0	2108686336	6	3882
2026-01-11 05:24:37.11	230.50	24.74	-23.4	-24.0	17.9	0.00e+00	0	42	0	2116026368	6	3873
2026-01-11 05:24:38.11	230.39	24.59	-23.4	-24.0	17.9	0.00e+00	0	42	0	2123366400	6	3877
2026-01-11 05:24:39.12	230.28	24.44	-23.6	-23.9	17.7	0.00e+00	0	42	0	2130706432	7	3752
2026-01-11 05:24:40.12	230.17	24.30	-23.5	-23.7	17.8	0.00e+00	0	42	0	2138046464	7	3697
2026-01-11 05:24:41.12	230.07	24.15	-23.7	-24.3	17.5	3.48e-04	0	42	0	2144337920	7	3826
2026-01-11 05:24:42.13	229.96	24.01	-23.4	-23.5	17.9	0.00e+00	0	42	0	2151677952	7	3661
2026-01-11 05:24:43.13	229.86	23.86	-23.2	-23.6	18.1	0.00e+00	0	42	0	2159017984	6	3773
2026-01-11 05:24:44.13	229.76	23.72	-23.3	-23.8	18.0	3.34e-04	0	42	0	2166358016	6	3830
2026-01-11 05:24:45.14	229.65	23.58	-23.2	-23.7	18.0	0.00e+00	0	42	0	2173698048	6	3795
2026-01-11 05:24:46.15	229.55	23.43	-23.1	-23.4	18.2	1.93e-04	0	42	0	2181038080	6	3742
2026-01-11 05:24:47.16	229.45	23.29	-23.1	-23.5	18.2	0.00e+00	0	42	0	2188378112	6	3765
2026-01-11 05:24:48.16	229.35	23.15	-23.0	-23.3	18.2	0.00e+00	0	42	0	2195718144	6	3721
2026-01-11 05:24:49.17	229.26	23.01	-22.9	-23.6	18.3	1.46e-04	0	42	0	2203058176	5	3889
2026-01-11 05:24:50.18	229.16	22.87	-23.0	-23.7	18.3	1.36e-04	0	42	0	2210398208	5	3919
2026-01-11 05:24:51.18	229.06	22.73	-22.9	-23.5	18.4	0.00e+00	0	42	0	2217738240	5	3861
2026-01-11 05:24:52.19	228.97	22.60	-22.9	-23.6	18.4	0.00e+00	0	42	0	2225078272	5	3876
2026-01-11 05:24:53.20	228.87	22.46	-23.0	-23.7	18.3	0.00e+00	0	42	0	2232418304	5	3909
2026-01-11 05:24:54.20	228.78	22.32	-23.1	-23.9	18.2	0.00e+00	0	42	0	2239758336	5	3966
2026-01-11 05:24:55.21	228.69	22.19	-23.2	-23.8	18.0	0.00e+00	0	42	0	2247098368	6	3817
2026-01-11 05:24:56.22	228.59	22.05	-23.4	-24.2	17.8	0.00e+00	0	42	0	2253389824	6	3919
2026-01-11 05:24:57.22	228.50	21.92	-23.4	-24.1	17.8	0.00e+00	0	42	0	2260729856	6	3893
2026-01-11 05:24:58.23	228.41	21.78	-23.6	-24.1	17.5	0.00e+00	0	42	0	2269118464	7	3784
2026-01-11 05:24:59.23	228.32	21.65	-22.5	-22.9	17.5	0.00e+00	0	42	0	2275409920	7	3771
2026-01-11 05:25:00.24	228.23	21.52	-23.6	-24.0	12.2	0.00e+00	0	42	0	2282749952	7	3776
2026-01-11 05:25:01.25	228.14	21.38	-23.7	-24.3	16.0	0.00e+00	0	42	0	2290089984	7	3833
2026-01-11 05:25:02.26	228.06	21.25	-23.7	-24.3	17.5	0.00e+00	0	42	0	2297430016	7	3839
2026-01-11 05:25:03.26	227.97	21.12	-24.0	-24.4	17.2	0.00e+00	0	42	0	2304770048	8	3758
2026-01-11 05:25:04.27	227.88	20.99	-23.8	-24.5	17.4	1.91e-03	0	42	0	2312110080	7	3874
2026-01-11 05:25:05.28	227.80	20.86	-23.8	-24.4	17.4	0.00e+00	0	42	0	2319450112	7	3855
2026-01-11 05:25:06.28	227.72	20.73	-23.9	-24.7	17.2	1.90e-03	0	42	0	2326790144	7	3940
2026-01-11 05:25:07.29	227.63	20.60	-23.8	-24.5	17.3	0.00e+00	0	42	0	2334130176	7	3891
2026-01-11 05:25:08.30	227.55	20.47	-23.9	-24.6	17.3	0.00e+00	0	42	0	2341470208	7	3921
2026-01-11 05:25:09.30	227.47	20.35	-23.9	-24.7	17.2	1.68e-03	0	42	0	2348810240	7	3936
2026-01-11 05:25:10.31	227.39	20.22	-24.2	-24.7	16.9	0.00e+00	0	42	0	2356150272	8	3834
2026-01-11 05:25:11.32	227.30	20.09	-24.0	-24.3	17.2	0.00e+00	0	42	0	2362441728	8	3742
2026-01-11 05:25:12.32	227.22	19.97	-23.9	-24.2	17.2	1.78e-03	0	42	0	2369781760	8	3707
2026-01-11 05:25:13.33	227.14	19.84	-24.0	-24.4	17.1	0.00e+00	0	42	0	2377121792	8	3756
2026-01-11 05:25:14.34	227.07	19.72	-24.1	-24.5	17.1	0.00e+00	0	42	0	2384461824	8	3780
2026-01-11 05:25:15.34	226.99	19.59	-23.9	-24.7	17.2	0.00e+00	0	42	0	2391801856	7	3926
2026-01-11 05:25:16.35	226.91	19.47	-24.1	-24.6	17.0	1.54e-03	0	42	0	2399141888	8	3799
2026-01-11 05:25:17.36	226.83	19.35	-24.0	-24.3	17.2	0.00e+00	0	42	0	2406481920	8	3728
2026-01-11 05:25:18.37	226.76	19.22	-23.9	-24.1	17.3	1.50e-03	0	42	0	2413821952	8	3696
2026-01-11 05:25:19.37	226.68	19.10	-23.9	-24.1	17.2	1.67e-03	0	42	0	2421161984	8	3684
2026-01-11 05:25:20.38	226.61	18.98	-23.9	-24.1	17.2	0.00e+00	0	42	0	2428502016	8	3698
2026-01-11 05:25:21.39	226.53	18.86	-23.8	-24.4	17.3	1.46e-03	0	42	0	2435842048	7	3858
2026-01-11 05:25:22.40	226.46	18.74	-23.9	-24.5	17.3	0.00e+00	0	42	0	2443182080	7	3890
2026-01-11 05:25:23.40	226.39	18.62	-23.8	-24.4	17.3	5.95e-05	0	42	0	2450522112	7	3873
2026-01-11 05:25:24.41	226.31	18.50	-23.8	-24.4	17.3	1.28e-03	0	42	0	2457862144	7	3857
2026-01-11 05:25:25.42	226.24	18.38	-23.8	-24.5	17.3	0.00e+00	0	42	0	2464153600	7	3883
2026-01-11 05:25:26.42	226.17	18.26	-23.9	-24.6	17.2	8.69e-05	0	42	0	2471493632	7	3919
2026-01-11 05:25:27.43	226.10	18.14	-23.9	-24.6	17.2	0.00e+00	0	42	0	2479882240	7	3921
2026-01-11 05:25:28.44	226.03	18.03	-23.9	-24.6	17.2	1.33e-03	0	42	0	2486173696	7	3908
2026-01-11 05:25:29.44	225.96	17.91	-23.9	-24.7	17.2	0.00e+00	0	42	0	2493513728	7	3930
2026-01-11 05:25:30.45	225.89	17.79	-24.0	-24.9	17.0	0.00e+00	0	42	0	2500853760	7	3988
2026-01-11 05:25:31.46	225.82	17.68	-24.0	-24.9	17.0	1.32e-03	0	42	0	2508193792	7	3976
2026-01-11 05:25:32.47	225.75	17.56	-23.9	-24.6	17.2	0.00e+00	0	42	0	2515533824	7	3921
2026-01-11 05:25:33.47	225.69	17.45	-24.0	-24.9	17.0	0.00e+00	0	42	0	2522873856	7	3973
2026-01-11 05:25:34.47	225.62	17.34	-24.0	-24.9	17.0	0.00e+00	0	42	0	2530213888	7	3969
2026-01-11 05:25:35.48	225.55	17.22	-24.1	-25.0	16.9	0.00e+00	0	42	0	2537553920	7	4015
2026-01-11 05:25:36.49	225.49	17.11	-24.1	-24.6	16.9	0.00e+00	0	42	0	2544893952	8	3798
2026-01-11 05:25:37.49	225.42	17.00	-24.1	-24.7	16.9	0.00e+00	0	43	0	2552233984	8	3819
2026-01-11 05:25:38.50	225.36	16.88	-24.1	-24.5	17.0	0.00e+00	0	42	0	2559574016	8	3782
2026-01-11 05:25:39.50	225.29	16.77	-24.1	-24.6	16.9	0.00e+00	0	42	0	2566914048	8	3797
2026-01-11 05:25:40.51	225.23	16.66	-24.1	-24.6	16.9	0.00e+00	0	42	0	2573205504	8	3810
2026-01-11 05:25:41.51	225.16	16.55	-24.2	-24.7	16.9	0.00e+00	0	42	0	2580545536	8	3821
2026-01-11 05:25:42.51	225.10	16.44	-24.2	-24.9	16.7	0.00e+00	0	42	0	2587885568	8	3866
2026-01-11 05:25:43.52	225.04	16.33	-24.2	-24.9	16.8	0.00e+00	0	42	0	2595225600	8	3866
2026-01-11 05:25:44.53	224.98	16.22	-24.3	-25.0	16.7	0.00e+00	0	42	0	2602565632	8	3899
2026-01-11 05:25:45.54	224.92	16.11	-24.4	-25.2	16.6	0.00e+00	0	42	0	2609905664	8	3946
2026-01-11 05:25:46.54	224.85	16.00	-24.3	-25.0	16.6	0.00e+00	0	42	0	2617245696	8	3902
2026-01-11 05:25:47.55	224.79	15.90	-24.4	-25.3	16.5	0.00e+00	0	42	0	2624585728	8	3970
2026-01-11 05:25:48.55	224.73	15.79	-24.4	-25.3	16.5	0.00e+00	0	43	0	2631925760	8	3974
2026-01-11 05:25:49.56	224.67	15.68	-24.5	-25.3	16.5	0.00e+00	0	42	0	2639265792	8	3983
2026-01-11 05:25:50.57	224.61	15.57	-24.4	-25.3	16.5	0.00e+00	0	43	0	2646605824	8	3964
2026-01-11 05:25:51.57	224.56	15.47	-24.4	-25.2	16.5	0.00e+00	0	42	0	2652897280	8	3952
2026-01-11 05:25:52.57	224.50	15.36	-24.6	-25.6	16.3	0.00e+00	0	42	0	2660237312	8	4059
2026-01-11 05:25:53.57	224.44	15.26	-24.7	-25.4	16.1	0.00e+00	0	42	0	2667577344	9	3905
2026-01-11 05:25:54.57	224.38	15.16	-24.8	-25.5	16.1	0.00e+00	0	42	0	2674917376	9	3931
2026-01-11 05:25:55.57	224.33	15.05	-24.7	-25.4	16.1	0.00e+00	0	42	0	2682257408	9	3899
2026-01-11 05:25:56.58	224.27	14.95	-24.9	-25.8	15.9	0.00e+00	0	42	0	2689597440	9	3990
2026-01-11 05:25:57.58	224.21	14.84	-24.9	-25.7	16.0	0.00e+00	0	42	0	2696937472	9	3970
2026-01-11 05:25:58.59	224.16	14.74	-24.9	-25.8	15.9	0.00e+00	0	42	0	2704277504	9	3984
2026-01-11 05:25:59.59	224.10	14.64	-24.9	-25.9	15.8	0.00e+00	0	43	0	2711617536	9	4021
2026-01-11 05:26:00.60	224.05	14.53	-24.9	-25.8	15.9	0.00e+00	0	42	0	2718957568	9	4000
2026-01-11 05:26:01.61	223.99	14.43	-24.8	-25.6	16.0	0.00e+00	0	42	0	2726297600	9	3952
2026-01-11 05:26:02.60	223.94	14.33	-24.7	-25.4	16.0	0.00e+00	0	42	0	2733637632	9	3889
2026-01-11 05:26:03.61	223.89	14.23	-24.9	-25.9	15.8	0.00e+00	0	42	0	2739929088	9	4023
2026-01-11 05:26:04.61	223.83	14.13	-24.9	-25.7	15.9	0.00e+00	0	42	0	2747269120	9	3973
2026-01-11 05:26:05.62	223.78	14.03	-25.2	-25.9	15.6	0.00e+00	0	42	0	2754609152	10	3911
2026-01-11 05:26:06.62	223.73	13.93	-25.3	-26.2	15.4	0.00e+00	0	42	0	2761949184	10	3976
2026-01-11 05:26:07.63	223.67	13.83	-25.6	-26.3	15.0	0.00e+00	0	42	0	2769289216	11	3907
2026-01-11 05:26:08.64	223.62	13.73	-25.8	-26.9	14.7	0.00e+00	0	42	0	2776629248	11	4048
2026-01-11 05:26:09.65	223.57	13.63	-25.9	-26.9	14.7	0.00e+00	0	42	0	2783969280	11	4061
2026-01-11 05:26:10.64	223.52	13.53	-26.0	-27.1	14.6	0.00e+00	0	42	0	2791309312	11	4119
2026-01-11 05:26:11.65	223.47	13.44	-25.7	-26.5	14.9	0.00e+00	0	43	0	2798649344	11	3963
2026-01-11 05:26:12.65	223.42	13.34	-25.8	-26.7	14.8	0.00e+00	0	42	0	2805989376	11	3996
2026-01-11 05:26:13.65	223.37	13.24	-25.9	-26.9	14.7	0.00e+00	0	42	0	2813329408	11	4047
2026-01-11 05:26:14.65	223.32	13.14	-26.2	-27.1	14.2	1.10e-06	0	42	0	2819620864	12	4004
2026-01-11 05:26:15.66	223.27	13.05	-26.0	-26.7	14.4	1.10e-06	0	42	0	2826960896	12	3912
2026-01-11 05:26:16.66	223.22	12.95	-25.7	-26.5	14.8	2.22e-04	0	42	0	2834300928	11	3966
2026-01-11 05:26:17.67	223.17	12.86	-25.5	-26.1	15.1	0.00e+00	0	42	0	2841640960	11	3854
2026-01-11 05:26:18.67	223.12	12.76	-25.4	-25.9	15.2	0.00e+00	0	42	0	2848980992	11	3824
2026-01-11 05:26:19.68	223.07	12.66	-25.3	-26.2	15.3	1.59e-04	0	42	0	2856321024	10	3993
2026-01-11 05:26:20.69	223.03	12.57	-25.5	-26.7	15.1	0.00e+00	0	42	0	2863661056	10	4104
2026-01-11 05:26:21.70	222.98	12.47	-25.5	-26.5	15.1	1.50e-04	0	42	0	2871001088	10	4067
2026-01-11 05:26:22.70	222.93	12.38	-25.6	-26.7	15.0	0.00e+00	0	42	0	2878341120	10	4120
2026-01-11 05:26:23.71	222.88	12.29	-25.7	-26.5	14.9	0.00e+00	0	42	0	2885681152	11	3944
2026-01-11 05:26:24.71	222.84	12.19	-25.4	-26.0	15.1	6.29e-05	0	42	0	2893021184	11	3829
2026-01-11 05:26:25.72	222.79	12.10	-25.8	-26.7	14.7	0.00e+00	0	43	0	2900361216	11	4021
2026-01-11 05:26:26.72	222.75	12.01	-25.9	-26.9	14.6	0.00e+00	0	42	0	2906652672	11	4066
2026-01-11 05:26:27.73	222.70	11.91	-25.8	-26.8	14.6	7.66e-05	0	42	0	2915041280	11	4035
2026-01-11 05:26:28.74	222.65	11.82	-25.8	-26.9	14.6	9.26e-05	0	42	0	2922381312	11	4068
2026-01-11 05:26:29.75	222.61	11.73	-25.8	-26.9	14.6	0.00e+00	0	42	0	2928672768	11	4055
2026-01-11 05:26:30.75	222.57	11.64	-25.9	-27.0	14.5	1.57e-03	0	42	0	2936012800	11	4099
2026-01-11 05:26:31.76	222.52	11.55	-25.9	-27.0	14.5	9.10e-06	0	42	0	2943352832	11	4087
2026-01-11 05:26:32.76	222.48	11.46	-25.9	-27.0	14.5	0.00e+00	0	42	0	2950692864	11	4094
2026-01-11 05:26:33.77	222.43	11.37	-26.0	-27.2	14.4	5.37e-05	0	42	0	2958032896	11	4140
2026-01-11 05:26:34.78	222.39	11.27	-25.8	-26.8	14.6	2.63e-05	0	42	0	2965372928	11	4046
2026-01-11 05:26:35.79	222.35	11.18	-26.1	-27.0	14.1	1.62e-03	0	42	0	2972712960	12	3990
2026-01-11 05:26:36.80	222.30	11.09	-26.0	-27.2	14.4	8.01e-05	0	42	0	2980052992	11	4134
2026-01-11 05:26:37.80	222.26	11.01	-26.1	-27.4	14.3	0.00e+00	0	42	0	2987393024	11	4194
2026-01-11 05:26:38.81	222.22	10.92	-26.0	-27.2	14.3	1.13e-03	0	43	0	2994733056	11	4150
2026-01-11 05:26:39.82	222.17	10.83	-25.9	-27.0	14.5	1.58e-03	0	42	0	3002073088	11	4081
2026-01-11 05:26:40.82	222.13	10.74	-25.9	-27.1	14.4	1.10e-06	0	42	0	3009413120	11	4111
2026-01-11 05:26:41.82	222.09	10.65	-25.8	-26.9	14.6	0.00e+00	0	42	0	3015704576	11	4047
2026-01-11 05:26:42.83	222.05	10.56	-26.0	-27.2	14.3	1.50e-03	0	42	0	3023044608	11	4133
2026-01-11 05:26:43.83	222.01	10.48	-26.1	-27.4	14.2	1.59e-04	0	42	0	3031433216	11	4186
2026-01-11 05:26:44.83	221.97	10.39	-25.9	-27.0	14.5	1.47e-03	0	43	0	3037724672	11	4096
2026-01-11 05:26:45.84	221.93	10.30	-26.0	-27.3	14.3	1.34e-03	0	42	0	3045064704	11	4168
2026-01-11 05:26:46.85	221.89	10.22	-25.9	-26.5	14.4	0.00e+00	0	42	0	3052404736	12	3856
2026-01-11 05:26:47.85	221.85	10.13	-25.9	-26.9	14.5	1.20e-03	0	42	0	3059744768	11	4064
2026-01-11 05:26:48.85	221.81	10.04	-26.2	-27.1	14.0	1.36e-03	0	42	0	3067084800	12	4018
2026-01-11 05:26:49.86	221.77	9.96	-25.8	-26.2	14.5	1.10e-06	0	42	0	3074424832	12	3789
2026-01-11 05:26:50.87	221.73	9.87	-26.1	-27.0	14.1	1.22e-03	0	42	0	3081764864	12	3979
2026-01-11 05:26:51.88	221.69	9.79	-26.0	-26.8	14.2	0.00e+00	0	42	0	3089104896	12	3940
2026-01-11 05:26:52.88	221.65	9.70	-26.0	-26.7	14.2	1.10e-06	0	42	0	3096444928	12	3919
2026-01-11 05:26:53.89	221.61	9.62	-26.2	-27.1	14.0	2.20e-06	0	42	0	3103784960	12	4017
2026-01-11 05:26:54.89	221.57	9.53	-26.1	-27.0	14.0	1.04e-03	0	42	0	3111124992	12	3981
2026-01-11 05:26:55.90	221.54	9.45	-26.0	-26.8	14.1	5.70e-06	0	42	0	3117416448	12	3952
2026-01-11 05:26:56.91	221.50	9.36	-26.1	-27.4	14.2	2.20e-06	0	42	0	3124756480	11	4188
2026-01-11 05:26:57.91	221.46	9.28	-26.3	-27.5	13.7	1.17e-03	0	42	0	3132096512	12	4131
2026-01-11 05:26:58.92	221.42	9.20	-26.3	-27.4	13.8	3.40e-06	0	42	0	3139436544	12	4086
2026-01-11 05:26:59.92	221.39	9.11	-26.2	-27.2	13.9	3.40e-06	0	42	0	3146776576	12	4042
2026-01-11 05:27:00.93	221.35	9.03	-26.1	-27.0	14.0	0.00e+00	0	42	0	3154116608	12	4004
2026-01-11 05:27:01.94	221.31	8.95	-26.3	-27.4	13.8	1.25e-05	0	42	0	3161456640	12	4105
2026-01-11 05:27:02.95	221.27	8.87	-26.2	-27.3	13.8	1.10e-06	0	42	0	3168796672	12	4068
2026-01-11 05:27:03.96	221.24	8.78	-26.4	-27.6	13.6	1.37e-05	0	42	0	3176136704	12	4155
2026-01-11 05:27:04.97	221.20	8.70	-26.4	-27.6	13.6	4.50e-06	0	43	0	3183476736	12	4164
2026-01-11 05:27:05.97	221.17	8.62	-26.5	-27.9	13.4	8.00e-06	0	42	0	3190816768	12	4242
2026-01-11 05:27:06.98	221.13	8.54	-26.5	-28.0	13.4	8.00e-06	0	42	0	3198156800	12	4267
2026-01-11 05:27:07.98	221.10	8.46	-26.4	-27.8	13.5	6.80e-06	0	42	0	3204448256	12	4195
2026-01-11 05:27:08.98	221.06	8.38	-26.7	-27.8	13.2	9.10e-06	0	42	0	3212836864	13	4104
2026-01-11 05:27:09.98	221.03	8.30	-26.6	-27.7	13.2	2.40e-05	0	42	0	3220176896	13	4072
2026-01-11 05:27:10.99	220.99	8.22	-26.5	-27.5	13.4	1.48e-05	0	42	0	3226468352	13	4014
2026-01-11 05:27:11.99	220.96	8.14	-26.5	-27.4	13.4	1.25e-05	0	42	0	3233808384	13	3993
2026-01-11 05:27:13.00	220.92	8.06	-26.7	-27.8	13.2	1.71e-05	0	42	0	3241148416	13	4116
2026-01-11 05:27:14.01	220.89	7.98	-26.8	-28.1	13.0	4.00e-05	0	42	0	3248488448	13	4177
2026-01-11 05:27:15.01	220.85	7.90	-26.4	-27.3	13.4	1.25e-05	0	42	0	3255828480	13	3986
2026-01-11 05:27:16.02	220.82	7.82	-26.7	-27.9	13.1	2.28e-05	0	42	0	3263168512	13	4143
2026-01-11 05:27:17.02	220.79	7.74	-26.4	-27.1	13.5	1.25e-05	0	42	0	3270508544	13	3937
2026-01-11 05:27:18.03	220.75	7.66	-26.6	-27.7	13.2	1.14e-05	0	42	0	3277848576	13	4080
2026-01-11 05:27:19.03	220.72	7.58	-26.6	-27.7	13.2	2.05e-05	0	42	0	3285188608	13	4076
2026-01-11 05:27:20.04	220.69	7.51	-26.6	-27.6	13.2	1.37e-05	0	42	0	3292528640	13	4063
2026-01-11 05:27:21.04	220.65	7.43	-26.6	-27.7	13.1	1.83e-05	0	42	0	3299868672	13	4082
2026-01-11 05:27:22.04	220.62	7.35	-26.7	-27.9	13.0	2.63e-05	0	42	0	3306160128	13	4126
2026-01-11 05:27:23.05	220.59	7.27	-26.7	-27.8	13.1	2.28e-05	0	42	0	3313500160	13	4119
2026-01-11 05:27:24.06	220.56	7.20	-26.6	-27.8	13.1	2.51e-05	0	42	0	3320840192	13	4096
2026-01-11 05:27:25.06	220.52	7.12	-26.6	-27.8	13.1	3.89e-05	0	42	0	3328180224	13	4106
2026-01-11 05:27:26.07	220.49	7.04	-32.7	-41.8	3.8	8.47e-01	0	42	104	3331325952	25	10332
2026-01-11 05:27:27.07	220.46	6.97	-33.1	-43.1	3.8	8.46e-01	0	42	104	3331325952	25	11364
2026-01-11 05:27:28.08	220.43	6.89	-33.4	-43.1	3.8	8.45e-01	0	42	104	3331325952	26	11089

#Closed at: 2026-01-11 05:27:28
#Recorded file [3331 MB]: D:/data/31010_260111_081943.dat