passes_logs/2026/01/11/R2M6_AANII_01/R2M6_AANII_01__20260111_023036_SUOMI_NPP_rec.log

#Pass ID: 20260111_023036_SUOMI NPP
#Satellite: SUOMI NPP
#Configuration: NPP
#almurnet v.1.7.20240730
#Start time: 2026-01-11 02:30:36

#Version: 2.2.20231116
#Station: R2M6_AANII_01
#Location: 30.233357 lon 59.946436 lat
#TLE: 1 37849U 11061A   26009.81756760  .00000113  00000+0  74747-4 0  9994
#TLE: 2 37849  98.7806 311.9110 0002525  72.5604 287.5848 14.19524046735974

#Time	Az	El	Level	Level2	SNR	BER	BlckErr	Temp	State	Recorded	gain1	gain2
2026-01-11 02:30:36.15	9.90	6.98	-32.4	-41.6	3.9	1.48e+00	0	39	0	0	24	10445
2026-01-11 02:30:37.15	9.81	7.04	-32.2	-40.0	4.1	1.42e+00	0	39	104	0	24	8843
2026-01-11 02:30:38.15	9.71	7.10	-32.2	-39.6	4.7	7.92e-01	0	39	104	0	24	8463
2026-01-11 02:30:39.16	9.61	7.17	-32.1	-39.4	4.3	1.41e+00	0	39	104	0	24	8308
2026-01-11 02:30:40.16	9.51	7.23	-32.2	-39.3	5.1	6.68e-01	0	40	0	0	24	8206
2026-01-11 02:30:41.17	9.41	7.29	-32.1	-39.2	5.3	6.09e-01	0	39	0	2097152	24	8110
2026-01-11 02:30:42.17	9.31	7.35	-32.2	-39.3	5.1	5.97e-01	0	40	0	3145728	24	8218
2026-01-11 02:30:43.17	9.21	7.41	-32.2	-39.4	5.1	6.06e-01	0	40	0	5242880	24	8270
2026-01-11 02:30:44.18	9.11	7.48	-32.2	-39.8	4.9	6.88e-01	0	40	0	7340032	24	8613
2026-01-11 02:30:45.18	9.01	7.54	-32.1	-39.1	5.3	6.43e-01	0	40	0	9437184	24	7996
2026-01-11 02:30:46.19	8.91	7.60	-32.0	-38.1	5.9	3.76e-01	0	40	0	10485760	24	7259
2026-01-11 02:30:47.19	8.81	7.66	-31.8	-37.4	6.8	2.41e-01	0	40	0	12582912	23	6839
2026-01-11 02:30:48.20	8.71	7.73	-31.5	-36.0	7.8	1.36e-01	0	40	0	14680064	23	6055
2026-01-11 02:30:49.21	8.60	7.79	-31.3	-35.6	8.5	5.05e-02	0	40	0	16777216	22	5885
2026-01-11 02:30:50.21	8.50	7.85	-31.1	-34.6	9.5	2.31e-02	0	40	0	18874368	22	5404
2026-01-11 02:30:51.22	8.40	7.91	-30.9	-34.4	9.8	1.34e-02	0	40	0	20971520	21	5418
2026-01-11 02:30:52.23	8.29	7.98	-30.8	-34.1	10.1	7.99e-03	0	40	0	22020096	21	5290
2026-01-11 02:30:53.23	8.19	8.04	-30.9	-34.5	9.7	1.02e-02	0	40	0	24117248	21	5469
2026-01-11 02:30:54.23	8.08	8.10	-30.9	-34.6	9.8	1.46e-02	0	40	0	26214400	21	5473
2026-01-11 02:30:55.24	7.98	8.17	-31.0	-34.4	9.5	1.15e-02	0	40	0	28311552	22	5316
2026-01-11 02:30:56.24	7.87	8.23	-31.0	-34.3	9.6	1.47e-02	0	40	0	29360128	22	5280
2026-01-11 02:30:57.25	7.76	8.29	-31.0	-34.5	9.5	1.40e-02	0	40	0	31457280	22	5345
2026-01-11 02:30:58.26	7.66	8.36	-31.1	-34.8	9.3	1.61e-02	0	40	0	33554432	22	5508
2026-01-11 02:30:59.25	7.55	8.42	-31.0	-34.5	9.5	1.57e-02	0	40	0	35651584	22	5328
2026-01-11 02:31:00.25	7.44	8.48	-30.8	-34.2	10.1	1.01e-02	0	40	0	37748736	21	5297
2026-01-11 02:31:01.26	7.33	8.54	-30.7	-33.7	10.5	8.84e-03	0	40	0	38797312	21	5110
2026-01-11 02:31:02.27	7.22	8.61	-30.8	-34.0	10.2	6.10e-03	0	40	0	40894464	21	5223
2026-01-11 02:31:03.27	7.12	8.67	-30.7	-33.7	10.5	6.58e-03	0	40	0	42991616	21	5098
2026-01-11 02:31:04.27	7.01	8.73	-30.7	-33.6	10.6	7.70e-03	0	40	0	45088768	21	5048
2026-01-11 02:31:05.28	6.89	8.80	-30.8	-34.2	10.2	4.88e-03	0	40	0	47185920	21	5281
2026-01-11 02:31:06.29	6.78	8.86	-30.9	-34.6	9.8	9.79e-03	0	40	0	48234496	21	5460
2026-01-11 02:31:07.30	6.67	8.93	-31.0	-34.7	9.7	1.09e-02	0	40	0	50331648	21	5538
2026-01-11 02:31:08.30	6.56	8.99	-31.0	-34.1	9.9	1.02e-02	0	40	0	52428800	22	5152
2026-01-11 02:31:09.30	6.45	9.05	-31.0	-34.2	9.8	1.33e-02	0	40	0	54525952	22	5215
2026-01-11 02:31:10.31	6.33	9.12	-31.0	-34.3	9.8	1.28e-02	0	40	0	56623104	22	5250
2026-01-11 02:31:11.32	6.22	9.18	-31.1	-34.5	9.6	1.29e-02	0	40	0	57671680	22	5350
2026-01-11 02:31:12.32	6.11	9.24	-31.2	-34.8	9.4	1.96e-02	0	40	0	59768832	22	5448
2026-01-11 02:31:13.33	5.99	9.31	-31.0	-34.4	9.7	1.34e-02	0	40	0	61865984	22	5270
2026-01-11 02:31:14.33	5.88	9.37	-31.2	-34.8	9.4	1.41e-02	0	40	0	63963136	22	5485
2026-01-11 02:31:15.33	5.76	9.44	-30.9	-34.4	10.0	1.15e-02	0	41	0	66060288	21	5394
2026-01-11 02:31:16.33	5.65	9.50	-31.2	-34.7	9.5	1.03e-02	0	40	0	67108864	22	5397
2026-01-11 02:31:17.33	5.53	9.56	-31.1	-34.5	9.6	2.20e-02	0	40	0	69206016	22	5345
2026-01-11 02:31:18.34	5.41	9.63	-31.0	-34.0	10.0	1.48e-02	0	41	0	71303168	22	5094
2026-01-11 02:31:19.34	5.30	9.69	-30.7	-33.7	10.6	8.38e-03	0	41	0	73400320	21	5063
2026-01-11 02:31:20.35	5.18	9.76	-30.8	-33.8	10.6	3.43e-03	0	41	0	75497472	21	5116
2026-01-11 02:31:21.35	5.06	9.82	-30.8	-34.1	10.3	7.64e-03	0	41	0	76546048	21	5265
2026-01-11 02:31:22.35	4.94	9.89	-31.0	-34.5	10.0	8.28e-03	0	41	0	78643200	21	5419
2026-01-11 02:31:23.36	4.82	9.95	-30.8	-34.1	10.3	4.80e-03	0	41	0	80740352	21	5264
2026-01-11 02:31:24.36	4.70	10.01	-30.7	-33.5	10.7	7.53e-03	0	41	0	82837504	21	4998
2026-01-11 02:31:25.36	4.58	10.08	-30.7	-33.6	10.7	6.26e-03	0	41	0	84934656	21	5019
2026-01-11 02:31:26.36	4.46	10.14	-30.7	-33.6	10.6	3.89e-03	0	41	0	85983232	21	5037
2026-01-11 02:31:27.37	4.34	10.21	-30.7	-33.7	10.7	3.66e-03	0	41	0	88080384	21	5062
2026-01-11 02:31:28.38	4.21	10.27	-30.7	-33.5	10.7	7.24e-03	0	41	0	90177536	21	4998
2026-01-11 02:31:29.37	4.09	10.34	-30.7	-33.5	10.8	3.42e-03	0	41	0	92274688	21	4987
2026-01-11 02:31:30.37	3.97	10.40	-30.7	-33.7	10.7	2.17e-03	0	41	0	94371840	21	5055
2026-01-11 02:31:31.38	3.84	10.47	-30.7	-33.5	10.9	2.01e-03	0	41	0	95420416	21	4967
2026-01-11 02:31:32.39	3.72	10.53	-30.7	-33.5	10.8	2.40e-03	0	41	0	97517568	21	4978
2026-01-11 02:31:33.40	3.59	10.60	-30.7	-33.5	10.8	2.94e-03	0	41	0	99614720	21	4989
2026-01-11 02:31:34.40	3.47	10.66	-30.7	-33.5	10.8	3.01e-03	0	41	0	101711872	21	4971
2026-01-11 02:31:35.41	3.34	10.73	-30.7	-33.7	10.7	2.54e-03	0	41	0	103809024	21	5074
2026-01-11 02:31:36.42	3.21	10.79	-30.7	-33.7	10.7	3.65e-03	0	41	0	104857600	21	5073
2026-01-11 02:31:37.43	3.08	10.86	-30.7	-33.4	10.9	2.14e-03	0	41	0	106954752	21	4958
2026-01-11 02:31:38.43	2.95	10.92	-30.8	-33.8	10.6	2.83e-03	0	41	0	109051904	21	5127
2026-01-11 02:31:39.44	2.83	10.99	-30.7	-33.5	10.9	1.87e-03	0	41	0	111149056	21	4966
2026-01-11 02:31:40.45	2.70	11.05	-30.5	-32.9	11.3	1.63e-03	0	41	0	113246208	21	4749
2026-01-11 02:31:41.45	2.57	11.12	-30.5	-32.9	11.4	9.54e-04	0	41	0	114294784	21	4727
2026-01-11 02:31:42.46	2.43	11.18	-30.4	-32.6	11.6	2.63e-03	0	41	0	116391936	21	4620
2026-01-11 02:31:43.46	2.30	11.25	-30.3	-32.8	11.7	6.61e-04	0	41	0	118489088	20	4812
2026-01-11 02:31:44.47	2.17	11.31	-30.4	-33.1	11.5	7.51e-04	0	41	0	120586240	20	4917
2026-01-11 02:31:45.48	2.04	11.38	-30.3	-32.8	11.7	6.38e-04	0	41	0	122683392	20	4808
2026-01-11 02:31:46.49	1.90	11.44	-30.3	-32.9	11.6	5.77e-04	0	41	0	123731968	20	4816
2026-01-11 02:31:47.49	1.77	11.51	-30.3	-32.7	11.8	6.29e-04	0	41	0	125829120	20	4760
2026-01-11 02:31:48.50	1.64	11.58	-30.4	-33.2	11.5	6.99e-04	0	41	0	127926272	20	4933
2026-01-11 02:31:49.50	1.50	11.64	-30.4	-32.5	11.6	9.04e-04	0	41	0	130023424	21	4607
2026-01-11 02:31:50.51	1.37	11.71	-30.4	-32.5	11.6	7.26e-04	0	41	0	132120576	21	4585
2026-01-11 02:31:51.51	1.23	11.77	-30.3	-32.8	11.7	5.51e-04	0	41	0	133169152	20	4815
2026-01-11 02:31:52.52	1.09	11.84	-30.3	-32.7	11.8	7.79e-04	0	41	0	135266304	20	4758
2026-01-11 02:31:53.52	0.96	11.90	-30.3	-32.7	11.8	4.74e-04	0	41	0	137363456	20	4751
2026-01-11 02:31:54.52	0.82	11.97	-30.3	-32.8	11.8	4.69e-04	0	41	0	139460608	20	4783
2026-01-11 02:31:55.52	0.68	12.03	-30.3	-32.8	11.7	7.11e-04	0	41	0	141557760	20	4802
2026-01-11 02:31:56.53	0.54	12.10	-29.6	-32.3	11.6	6.76e-04	0	41	0	142606336	20	4873
2026-01-11 02:31:57.54	0.40	12.16	-30.3	-33.3	11.1	5.66e-04	0	41	0	144703488	19	5067
2026-01-11 02:31:58.54	0.26	12.23	-30.3	-32.7	11.7	6.42e-04	0	41	0	146800640	20	4779
2026-01-11 02:31:59.55	0.12	12.29	-30.4	-33.0	10.5	3.82e-03	0	41	0	148897792	20	4878
2026-01-11 02:32:00.55	359.98	12.36	-30.4	-33.1	11.6	7.71e-04	0	41	0	150994944	20	4902
2026-01-11 02:32:01.56	359.83	12.42	-30.5	-33.3	11.4	9.63e-04	0	41	0	152043520	20	4992
2026-01-11 02:32:02.56	359.69	12.49	-30.3	-32.9	11.6	1.22e-03	0	41	0	154140672	20	4841
2026-01-11 02:32:03.56	359.55	12.55	-30.4	-33.0	11.6	7.53e-04	0	41	0	156237824	20	4901
2026-01-11 02:32:04.57	359.40	12.62	-30.2	-32.5	12.0	4.73e-04	0	41	0	158334976	20	4702
2026-01-11 02:32:05.58	359.26	12.69	-30.3	-32.7	11.8	5.55e-04	0	41	0	159383552	20	4783
2026-01-11 02:32:06.58	359.11	12.75	-30.3	-32.8	11.8	3.32e-03	0	41	0	161480704	20	4788
2026-01-11 02:32:07.59	358.96	12.82	-30.3	-32.8	11.9	5.50e-04	0	41	0	163577856	20	4809
2026-01-11 02:32:08.60	358.82	12.88	-30.3	-32.9	11.7	3.20e-04	0	41	0	165675008	20	4837
2026-01-11 02:32:09.60	358.67	12.95	-30.3	-32.9	11.7	3.27e-03	0	41	0	167772160	20	4835
2026-01-11 02:32:10.61	358.52	13.01	-30.3	-32.7	11.9	9.29e-04	0	41	0	169869312	20	4763
2026-01-11 02:32:11.61	358.37	13.08	-30.5	-33.3	11.4	9.12e-04	0	41	0	170917888	20	4989
2026-01-11 02:32:12.62	358.22	13.14	-30.3	-32.9	11.7	7.91e-04	0	41	0	173015040	20	4847
2026-01-11 02:32:13.62	358.07	13.21	-30.4	-32.9	11.7	7.63e-04	0	41	0	175112192	20	4851
2026-01-11 02:32:14.63	357.92	13.27	-30.5	-32.9	11.4	8.56e-04	0	42	0	177209344	21	4748
2026-01-11 02:32:15.63	357.77	13.34	-30.7	-33.6	10.9	1.09e-03	0	41	0	178257920	21	5017
2026-01-11 02:32:16.64	357.62	13.41	-30.6	-33.3	11.2	1.79e-03	0	41	0	180355072	21	4874
2026-01-11 02:32:17.65	357.46	13.47	-30.8	-33.8	10.7	4.81e-03	0	41	0	182452224	21	5096
2026-01-11 02:32:18.65	357.31	13.54	-30.7	-33.4	11.0	2.74e-03	0	41	0	184549376	21	4945
2026-01-11 02:32:19.66	357.15	13.60	-30.6	-33.3	11.2	2.17e-03	0	41	0	186646528	21	4870
2026-01-11 02:32:20.66	357.00	13.67	-30.8	-33.8	10.8	5.32e-03	0	41	0	187695104	21	5071
2026-01-11 02:32:21.66	356.84	13.73	-30.9	-34.2	10.5	5.77e-03	0	41	0	189792256	21	5239
2026-01-11 02:32:22.67	356.69	13.80	-31.0	-33.9	10.3	5.38e-03	0	41	0	191889408	22	5030
2026-01-11 02:32:23.67	356.53	13.86	-30.9	-34.1	10.5	5.72e-03	0	41	0	193986560	21	5210
2026-01-11 02:32:24.67	356.37	13.92	-30.8	-34.0	10.6	5.32e-03	0	41	0	196083712	21	5152
2026-01-11 02:32:25.68	356.21	13.99	-31.1	-34.2	10.2	4.00e-03	0	41	0	197132288	22	5143
2026-01-11 02:32:26.68	356.05	14.05	-30.8	-33.8	10.8	7.59e-03	0	42	0	199229440	21	5096
2026-01-11 02:32:27.69	355.89	14.12	-30.6	-33.1	11.2	4.15e-03	0	41	0	201326592	21	4813
2026-01-11 02:32:28.70	355.73	14.18	-29.6	-32.0	11.3	1.42e-03	0	41	0	203423744	21	4767
2026-01-11 02:32:29.70	355.57	14.25	-30.7	-33.5	11.0	3.59e-03	0	41	0	205520896	21	4954
2026-01-11 02:32:30.71	355.41	14.31	-30.7	-33.5	11.0	3.83e-03	0	41	0	206569472	21	4965
2026-01-11 02:32:31.71	355.24	14.38	-30.7	-33.7	10.9	2.12e-03	0	41	0	208666624	21	5033
2026-01-11 02:32:32.72	355.08	14.44	-30.8	-34.0	10.7	2.12e-03	0	42	0	210763776	21	5161
2026-01-11 02:32:33.73	354.91	14.51	-30.9	-34.1	10.6	5.43e-03	0	41	0	212860928	21	5196
2026-01-11 02:32:34.74	354.75	14.57	-30.8	-33.9	10.8	3.66e-03	0	41	0	214958080	21	5121
2026-01-11 02:32:35.74	354.58	14.64	-30.9	-34.1	10.7	5.30e-03	0	42	0	216006656	21	5182
2026-01-11 02:32:36.74	354.42	14.70	-31.0	-34.2	10.5	6.24e-03	0	42	0	218103808	21	5262
2026-01-11 02:32:37.75	354.25	14.76	-31.1	-34.2	10.2	4.97e-03	0	41	0	220200960	22	5161
2026-01-11 02:32:38.76	354.08	14.83	-31.0	-33.8	10.5	7.14e-03	0	41	0	222298112	22	4996
2026-01-11 02:32:39.76	353.91	14.89	-30.8	-33.7	10.9	2.89e-03	0	42	0	224395264	21	5043
2026-01-11 02:32:40.76	353.74	14.96	-30.8	-33.8	10.9	2.10e-03	0	41	0	225443840	21	5054
2026-01-11 02:32:41.77	353.57	15.02	-30.9	-34.0	10.7	4.05e-03	0	41	0	227540992	21	5164
2026-01-11 02:32:42.77	353.40	15.08	-30.8	-33.8	10.8	4.90e-03	0	42	0	229638144	21	5070
2026-01-11 02:32:43.77	353.23	15.15	-30.8	-33.9	10.7	3.40e-03	0	42	0	231735296	21	5135
2026-01-11 02:32:44.78	353.06	15.21	-30.9	-34.1	10.6	4.65e-03	0	42	0	233832448	21	5210
2026-01-11 02:32:45.78	352.88	15.27	-30.7	-33.3	11.2	3.43e-03	0	41	0	234881024	21	4883
2026-01-11 02:32:46.79	352.71	15.34	-30.5	-32.7	11.6	1.35e-03	0	42	0	236978176	21	4670
2026-01-11 02:32:47.80	352.53	15.40	-30.5	-32.7	11.7	2.23e-03	0	42	0	239075328	21	4636
2026-01-11 02:32:48.80	352.36	15.46	-30.7	-33.2	11.3	2.01e-03	0	42	0	241172480	21	4854
2026-01-11 02:32:49.81	352.18	15.53	-30.6	-33.0	11.5	1.35e-03	0	41	0	243269632	21	4763
2026-01-11 02:32:50.82	352.00	15.59	-30.9	-34.2	10.6	1.79e-03	0	41	0	244318208	21	5239
2026-01-11 02:32:51.82	351.82	15.65	-30.9	-33.9	10.7	4.48e-03	0	42	0	246415360	21	5140
2026-01-11 02:32:52.83	351.64	15.72	-30.8	-33.9	10.7	2.96e-03	0	42	0	248512512	21	5135
2026-01-11 02:32:53.83	351.47	15.78	-31.0	-34.4	10.4	3.65e-03	0	42	0	250609664	21	5310
2026-01-11 02:32:54.84	351.28	15.84	-30.9	-33.7	10.6	6.15e-03	0	42	0	252706816	22	4955
2026-01-11 02:32:55.84	351.10	15.90	-30.8	-33.7	11.0	2.16e-03	0	42	0	253755392	21	5050
2026-01-11 02:32:56.85	350.92	15.96	-30.7	-33.5	11.1	1.43e-03	0	42	0	255852544	21	4956
2026-01-11 02:32:57.86	350.74	16.03	-30.5	-33.0	11.5	1.47e-03	0	42	0	257949696	21	4752
2026-01-11 02:32:58.86	350.56	16.09	-30.6	-33.0	11.5	1.18e-03	0	42	0	260046848	21	4752
2026-01-11 02:32:59.87	350.37	16.15	-30.5	-32.7	11.7	4.74e-04	0	42	0	262144000	21	4640
2026-01-11 02:33:00.88	350.19	16.21	-30.6	-33.2	11.3	8.57e-04	0	42	0	263192576	21	4836
2026-01-11 02:33:01.88	350.00	16.27	-30.5	-32.6	11.7	1.41e-03	0	42	0	265289728	21	4633
2026-01-11 02:33:02.89	349.81	16.33	-30.4	-32.5	11.8	5.48e-04	0	42	0	267386880	21	4601
2026-01-11 02:33:03.89	349.63	16.40	-30.4	-33.2	11.7	7.34e-04	0	42	0	269484032	20	4922
2026-01-11 02:33:04.90	349.44	16.46	-30.3	-32.7	12.0	6.32e-04	0	42	0	271581184	20	4741
2026-01-11 02:33:05.90	349.25	16.52	-30.3	-32.7	12.0	2.54e-03	0	42	0	272629760	20	4730
2026-01-11 02:33:06.90	349.06	16.58	-30.5	-33.3	11.7	6.12e-04	0	42	0	274726912	20	4954
2026-01-11 02:33:07.91	348.87	16.64	-30.1	-31.6	12.4	4.79e-04	0	42	0	276824064	21	4273
2026-01-11 02:33:08.91	348.68	16.70	-29.9	-31.5	12.9	6.94e-05	0	42	0	278921216	20	4353
2026-01-11 02:33:09.92	348.49	16.76	-29.9	-32.1	12.9	4.73e-05	0	42	0	281018368	19	4613
2026-01-11 02:33:10.92	348.30	16.82	-29.9	-32.1	12.8	2.84e-04	0	42	0	282066944	19	4635
2026-01-11 02:33:11.93	348.10	16.88	-30.0	-31.9	12.6	8.85e-05	0	42	0	284164096	20	4486
2026-01-11 02:33:12.94	347.91	16.94	-30.0	-31.9	12.6	8.54e-05	0	42	0	286261248	20	4480
2026-01-11 02:33:13.94	347.71	17.00	-30.0	-32.0	12.5	2.78e-04	0	42	0	288358400	20	4506
2026-01-11 02:33:14.95	347.51	17.06	-29.8	-31.4	12.9	7.40e-05	0	42	0	290455552	20	4316
2026-01-11 02:33:15.95	347.32	17.11	-29.7	-31.0	13.2	1.57e-04	0	42	0	291504128	20	4186
2026-01-11 02:33:16.96	347.12	17.17	-29.6	-31.3	13.4	9.90e-06	0	42	0	293601280	19	4349
2026-01-11 02:33:17.97	346.92	17.23	-29.5	-31.0	13.6	6.80e-06	0	42	0	295698432	19	4253
2026-01-11 02:33:18.97	346.72	17.29	-29.8	-31.7	13.2	1.41e-04	0	42	0	297795584	19	4472
2026-01-11 02:33:19.97	346.52	17.35	-29.6	-31.2	13.5	1.06e-05	0	42	0	299892736	19	4334
2026-01-11 02:33:20.98	346.32	17.41	-28.6	-30.2	13.5	2.21e-05	0	42	0	300941312	19	4331
2026-01-11 02:33:21.98	346.12	17.46	-29.6	-31.1	13.6	5.41e-05	0	42	0	303038464	19	4289
2026-01-11 02:33:22.99	345.92	17.52	-29.5	-31.3	13.0	2.17e-03	0	42	0	305135616	18	4454
2026-01-11 02:33:24.00	345.72	17.58	-29.4	-31.2	13.8	3.80e-06	0	42	0	307232768	18	4424
2026-01-11 02:33:25.00	345.51	17.64	-29.6	-31.2	13.5	3.28e-05	0	42	0	309329920	19	4325
2026-01-11 02:33:26.00	345.31	17.69	-29.3	-30.9	14.1	4.50e-05	0	41	0	310378496	18	4299
2026-01-11 02:33:27.01	345.10	17.75	-29.3	-30.9	14.0	2.20e-06	0	42	0	312475648	18	4322
2026-01-11 02:33:28.01	344.90	17.80	-29.2	-30.5	14.3	1.50e-06	0	42	0	314572800	18	4200
2026-01-11 02:33:29.02	344.69	17.86	-29.2	-30.7	14.1	3.80e-06	0	42	0	316669952	18	4249
2026-01-11 02:33:30.02	344.48	17.92	-29.3	-30.8	14.1	2.41e-03	0	42	0	317718528	18	4282
2026-01-11 02:33:31.03	344.28	17.97	-29.4	-31.1	13.9	7.00e-07	0	42	0	319815680	18	4378
2026-01-11 02:33:32.04	344.07	18.03	-29.4	-31.2	13.8	6.10e-06	0	42	0	321912832	18	4414
2026-01-11 02:33:33.04	343.86	18.08	-29.6	-31.0	13.6	2.24e-03	0	42	0	324009984	19	4259
2026-01-11 02:33:34.05	343.64	18.14	-29.9	-31.8	13.1	1.90e-05	0	42	0	326107136	19	4520
2026-01-11 02:33:35.06	343.43	18.19	-29.5	-31.0	13.7	1.44e-05	0	42	0	328204288	19	4239
2026-01-11 02:33:36.07	343.22	18.24	-29.3	-30.7	14.2	6.10e-06	0	41	0	329252864	18	4247
2026-01-11 02:33:37.07	343.01	18.30	-29.3	-30.8	14.1	2.20e-06	0	42	0	331350016	18	4299
2026-01-11 02:33:38.08	342.79	18.35	-29.3	-30.9	13.9	2.20e-06	0	42	0	333447168	18	4327
2026-01-11 02:33:39.08	342.58	18.40	-29.5	-31.3	13.8	2.20e-06	0	42	0	335544320	18	4428
2026-01-11 02:33:40.09	342.36	18.46	-29.6	-31.2	13.5	2.89e-05	0	42	0	336592896	19	4317
2026-01-11 02:33:41.09	342.15	18.51	-29.7	-31.4	13.4	2.73e-03	0	42	0	338690048	19	4379
2026-01-11 02:33:42.10	341.93	18.56	-29.7	-31.5	13.4	8.30e-06	0	42	0	340787200	19	4399
2026-01-11 02:33:43.10	341.71	18.61	-29.7	-31.4	13.4	9.10e-06	0	42	0	342884352	19	4370
2026-01-11 02:33:44.11	341.49	18.67	-29.5	-30.9	13.7	2.53e-03	0	42	0	344981504	19	4233
2026-01-11 02:33:45.12	341.27	18.72	-29.5	-30.9	13.8	4.50e-06	0	42	0	346030080	19	4224
2026-01-11 02:33:46.12	341.06	18.77	-29.7	-31.3	13.5	3.00e-06	0	42	0	348127232	19	4324
2026-01-11 02:33:47.12	340.84	18.82	-29.5	-30.9	13.8	2.84e-03	0	42	0	350224384	19	4207
2026-01-11 02:33:48.12	340.62	18.87	-29.5	-31.0	13.8	2.92e-03	0	42	0	352321536	19	4234
2026-01-11 02:33:49.12	340.40	18.92	-29.7	-31.4	13.5	6.10e-06	0	42	0	354418688	19	4374
2026-01-11 02:33:50.13	340.17	18.97	-29.9	-31.8	13.2	2.71e-03	0	42	0	355467264	19	4513
2026-01-11 02:33:51.14	339.95	19.02	-29.6	-31.2	13.6	2.61e-03	0	42	0	357564416	19	4295
2026-01-11 02:33:52.15	339.72	19.07	-29.4	-31.1	14.0	1.48e-04	0	42	0	359661568	18	4376
2026-01-11 02:33:53.15	339.50	19.11	-29.2	-30.5	14.4	2.51e-03	0	42	0	361758720	18	4175
2026-01-11 02:33:54.16	339.27	19.16	-29.1	-30.2	14.5	2.75e-03	0	42	0	363855872	18	4094
2026-01-11 02:33:55.17	339.04	19.21	-29.0	-29.9	14.7	1.59e-04	0	42	0	364904448	18	4021
2026-01-11 02:33:56.17	338.82	19.26	-29.1	-30.3	14.5	7.00e-07	0	42	0	367001600	18	4123
2026-01-11 02:33:57.18	338.59	19.30	-29.0	-29.9	14.7	2.73e-03	0	42	0	369098752	18	3998
2026-01-11 02:33:58.18	338.36	19.35	-28.8	-29.5	15.0	1.52e-04	0	42	0	371195904	18	3889
2026-01-11 02:33:59.18	338.13	19.40	-28.6	-29.5	15.3	2.60e-03	0	42	0	373293056	17	3993
2026-01-11 02:34:00.18	337.91	19.44	-28.6	-29.6	15.2	2.69e-03	0	42	0	374341632	17	4010
2026-01-11 02:34:01.18	337.68	19.49	-28.5	-29.3	15.4	1.29e-04	0	42	0	376438784	17	3930
2026-01-11 02:34:02.19	337.44	19.53	-28.6	-29.4	15.4	2.41e-03	0	42	0	378535936	17	3966
2026-01-11 02:34:03.20	337.21	19.58	-28.6	-29.5	15.3	2.88e-03	0	42	0	380633088	17	3981
2026-01-11 02:34:04.20	336.98	19.62	-28.7	-29.7	15.2	4.95e-05	0	42	0	382730240	17	4035
2026-01-11 02:34:05.21	336.74	19.66	-28.8	-30.1	14.9	2.69e-03	0	42	0	383778816	17	4156
2026-01-11 02:34:06.21	336.51	19.71	-29.1	-30.1	14.7	0.00e+00	0	42	0	385875968	18	4056
2026-01-11 02:34:07.22	336.28	19.75	-29.1	-30.3	14.6	2.13e-05	0	42	0	387973120	18	4107
2026-01-11 02:34:08.23	336.04	19.79	-29.3	-30.8	14.3	2.63e-03	0	42	0	390070272	18	4250
2026-01-11 02:34:09.23	335.81	19.83	-29.0	-30.0	14.7	2.40e-03	0	42	0	392167424	18	4038
2026-01-11 02:34:10.24	335.57	19.88	-28.9	-29.7	14.9	2.23e-04	0	42	0	393216000	18	3939
2026-01-11 02:34:11.25	335.33	19.92	-28.9	-30.2	14.9	2.21e-03	0	42	0	395313152	17	4185
2026-01-11 02:34:12.26	335.09	19.96	-28.8	-30.0	15.0	2.51e-03	0	42	0	397410304	17	4129
2026-01-11 02:34:13.26	334.85	20.00	-29.1	-30.3	14.6	5.35e-04	0	42	0	399507456	18	4102
2026-01-11 02:34:14.27	334.61	20.04	-29.3	-30.7	14.3	2.60e-03	0	42	0	401604608	18	4215
2026-01-11 02:34:15.28	334.37	20.08	-29.2	-30.4	14.6	2.60e-03	0	42	0	402653184	18	4127
2026-01-11 02:34:16.28	334.13	20.12	-29.3	-30.7	14.4	3.67e-04	0	42	0	404750336	18	4222
2026-01-11 02:34:17.28	333.89	20.15	-29.3	-30.6	14.4	7.00e-07	0	42	0	406847488	18	4190
2026-01-11 02:34:18.29	333.65	20.19	-29.1	-30.1	14.6	2.53e-03	0	42	0	408944640	18	4050
2026-01-11 02:34:19.30	333.41	20.23	-28.5	-28.8	15.5	0.00e+00	0	42	0	411041792	18	3704
2026-01-11 02:34:20.30	333.16	20.27	-28.4	-29.0	15.6	0.00e+00	0	42	0	412090368	17	3860
2026-01-11 02:34:21.31	332.92	20.30	-28.4	-29.5	15.6	3.55e-04	0	42	0	414187520	16	4076
2026-01-11 02:34:22.32	332.67	20.34	-28.3	-29.2	15.8	0.00e+00	0	42	0	416284672	16	4005
2026-01-11 02:34:23.32	332.43	20.37	-28.5	-29.6	15.6	0.00e+00	0	42	0	418381824	16	4109
2026-01-11 02:34:24.32	332.19	20.41	-28.7	-29.7	15.2	5.64e-04	0	42	0	420478976	17	4039
2026-01-11 02:34:25.33	331.94	20.44	-28.8	-29.8	15.2	6.52e-04	0	42	0	421527552	17	4058
2026-01-11 02:34:26.34	331.69	20.48	-28.5	-29.2	15.5	0.00e+00	0	42	0	423624704	17	3901
2026-01-11 02:34:27.34	331.45	20.51	-28.5	-29.2	15.5	5.09e-04	0	42	0	425721856	17	3893
2026-01-11 02:34:28.35	331.20	20.54	-28.4	-29.3	15.8	5.26e-04	0	42	0	427819008	16	4025
2026-01-11 02:34:29.36	330.95	20.58	-28.4	-29.3	15.8	2.14e-03	0	42	0	429916160	16	4029
2026-01-11 02:34:30.36	330.70	20.61	-28.4	-29.4	15.7	6.05e-04	0	42	0	430964736	16	4036
2026-01-11 02:34:31.37	330.45	20.64	-28.6	-29.3	15.5	5.97e-04	0	42	0	433061888	17	3932
2026-01-11 02:34:32.38	330.20	20.67	-28.8	-30.0	15.1	2.41e-03	0	42	0	435159040	17	4105
2026-01-11 02:34:33.38	329.95	20.70	-29.0	-30.0	14.8	1.07e-03	0	42	0	437256192	18	4024
2026-01-11 02:34:34.39	329.70	20.73	-29.4	-31.0	14.1	1.13e-03	0	42	0	439353344	18	4318
2026-01-11 02:34:35.39	329.45	20.76	-29.5	-30.6	14.1	7.00e-07	0	42	0	440401920	19	4118
2026-01-11 02:34:36.39	329.20	20.79	-29.6	-31.1	13.8	4.50e-06	0	42	0	442499072	19	4252
2026-01-11 02:34:37.40	328.95	20.82	-29.6	-30.9	13.9	6.03e-04	0	42	0	444596224	19	4198
2026-01-11 02:34:38.40	328.70	20.84	-29.6	-31.1	13.8	4.50e-06	0	42	0	446693376	19	4253
2026-01-11 02:34:39.41	328.44	20.87	-29.6	-30.9	13.9	3.60e-04	0	42	0	448790528	19	4200
2026-01-11 02:34:40.42	328.19	20.90	-29.7	-31.3	13.7	3.67e-04	0	42	0	449839104	19	4311
2026-01-11 02:34:41.42	327.94	20.92	-29.9	-31.8	13.4	1.52e-05	0	42	0	451936256	19	4466
2026-01-11 02:34:42.42	327.68	20.95	-30.1	-31.8	12.9	4.16e-04	0	42	0	454033408	20	4398
2026-01-11 02:34:43.43	327.43	20.97	-30.0	-31.8	12.9	4.42e-05	0	42	0	456130560	20	4403
2026-01-11 02:34:44.44	327.17	21.00	-30.2	-32.2	12.6	9.23e-05	0	42	0	458227712	20	4537
2026-01-11 02:34:45.44	326.92	21.02	-30.1	-32.1	12.7	6.67e-04	0	42	0	459276288	20	4501
2026-01-11 02:34:46.45	326.66	21.04	-30.0	-31.8	12.9	4.57e-05	0	42	0	461373440	20	4397
2026-01-11 02:34:47.45	326.41	21.06	-29.9	-31.4	13.1	3.35e-05	0	42	0	463470592	20	4271
2026-01-11 02:34:48.45	326.15	21.09	-29.3	-30.9	13.1	3.17e-04	0	42	0	465567744	20	4359
2026-01-11 02:34:49.47	325.89	21.11	-30.0	-32.0	12.4	2.40e-04	0	42	0	467664896	19	4535
2026-01-11 02:34:50.47	325.63	21.13	-29.7	-31.2	12.9	1.14e-05	0	42	0	468713472	19	4285
2026-01-11 02:34:51.48	325.37	21.15	-29.7	-31.3	13.5	2.37e-04	0	42	0	470810624	19	4328
2026-01-11 02:34:52.48	325.12	21.17	-30.0	-32.0	13.0	2.65e-04	0	42	0	472907776	19	4560
2026-01-11 02:34:53.49	324.86	21.19	-30.2	-32.3	12.4	9.91e-05	0	42	0	475004928	20	4565
2026-01-11 02:34:54.50	324.60	21.20	-30.4	-32.9	12.1	1.69e-04	0	42	0	477102080	20	4805
2026-01-11 02:34:55.50	324.34	21.22	-30.5	-32.7	12.1	3.94e-04	0	42	0	478150656	21	4626
2026-01-11 02:34:56.51	324.08	21.24	-30.2	-32.2	12.6	2.51e-03	0	42	0	480247808	20	4557
2026-01-11 02:34:57.52	323.82	21.25	-29.9	-31.9	13.2	3.58e-05	0	42	0	482344960	19	4511
2026-01-11 02:34:58.52	323.56	21.27	-29.7	-31.2	13.7	8.30e-06	0	42	0	484442112	19	4284
2026-01-11 02:34:59.53	323.30	21.29	-29.5	-31.2	14.0	1.50e-06	0	42	0	486539264	18	4381
2026-01-11 02:35:00.54	323.04	21.30	-29.7	-31.2	13.7	2.14e-04	0	42	0	487587840	19	4282
2026-01-11 02:35:01.54	322.78	21.31	-29.9	-31.7	13.4	1.44e-05	0	42	0	489684992	19	4435
2026-01-11 02:35:02.54	322.52	21.33	-30.0	-31.7	13.0	1.67e-05	0	42	0	491782144	20	4355
2026-01-11 02:35:03.55	322.26	21.34	-30.1	-31.9	12.7	2.98e-04	0	42	0	493879296	20	4444
2026-01-11 02:35:04.56	322.00	21.35	-30.1	-31.8	12.8	5.64e-05	0	42	0	495976448	20	4407
2026-01-11 02:35:05.56	321.74	21.36	-30.0	-31.8	12.9	6.94e-05	0	42	0	497025024	20	4400
2026-01-11 02:35:06.57	321.47	21.37	-29.9	-31.5	13.1	6.10e-04	0	42	0	499122176	20	4292
2026-01-11 02:35:07.58	321.21	21.38	-29.8	-31.6	13.4	2.40e-03	0	42	0	501219328	19	4427
2026-01-11 02:35:08.58	320.95	21.39	-29.8	-31.5	13.5	1.60e-05	0	42	0	503316480	19	4385
2026-01-11 02:35:09.59	320.69	21.40	-29.9	-31.8	13.2	1.83e-05	0	42	0	504365056	19	4504
2026-01-11 02:35:10.60	320.42	21.41	-29.8	-31.7	13.3	1.63e-03	0	42	0	506462208	19	4470
2026-01-11 02:35:11.60	320.16	21.42	-29.8	-31.7	13.4	1.67e-05	0	42	0	508559360	19	4452
2026-01-11 02:35:12.61	319.90	21.42	-29.9	-32.0	13.1	3.12e-05	0	42	0	510656512	19	4571
2026-01-11 02:35:13.62	319.63	21.43	-30.0	-31.9	12.7	2.17e-03	0	42	0	512753664	20	4449
2026-01-11 02:35:14.62	319.37	21.44	-30.2	-32.2	12.5	2.58e-03	0	42	0	514850816	20	4553
2026-01-11 02:35:15.63	319.11	21.44	-30.5	-33.1	12.0	2.33e-04	0	42	0	515899392	20	4869
2026-01-11 02:35:16.63	318.85	21.45	-30.6	-33.1	11.6	3.10e-03	0	42	0	517996544	21	4801
2026-01-11 02:35:17.64	318.58	21.45	-30.8	-33.5	11.3	3.18e-03	0	42	0	520093696	21	4936
2026-01-11 02:35:18.65	318.32	21.45	-30.6	-33.1	11.6	2.11e-03	0	42	0	522190848	21	4779
2026-01-11 02:35:19.65	318.06	21.45	-30.4	-32.8	12.1	2.87e-03	0	42	0	524288000	20	4745
2026-01-11 02:35:20.66	317.79	21.46	-30.1	-32.1	12.5	2.29e-03	0	42	0	525336576	20	4531
2026-01-11 02:35:21.66	317.53	21.46	-30.0	-31.7	12.9	5.70e-04	0	42	0	527433728	20	4395
2026-01-11 02:35:22.67	317.27	21.46	-30.0	-31.6	12.9	3.73e-05	0	42	0	529530880	20	4360
2026-01-11 02:35:23.68	317.00	21.46	-30.0	-31.7	12.9	2.48e-03	0	42	0	531628032	20	4377
2026-01-11 02:35:24.68	316.74	21.46	-29.9	-31.8	13.2	4.53e-04	0	42	0	532676608	19	4510
2026-01-11 02:35:25.69	316.48	21.46	-29.6	-31.2	13.6	2.49e-03	0	42	0	534773760	19	4300
2026-01-11 02:35:26.70	316.21	21.45	-29.9	-31.9	13.2	4.45e-03	0	42	0	536870912	19	4527
2026-01-11 02:35:27.70	315.95	21.45	-29.8	-31.6	13.4	6.26e-04	0	42	0	538968064	19	4434
2026-01-11 02:35:28.71	315.69	21.45	-29.8	-31.8	13.3	2.67e-03	0	42	0	541065216	19	4492
2026-01-11 02:35:29.71	315.42	21.44	-29.8	-31.6	13.3	1.99e-03	0	42	0	543162368	19	4434
2026-01-11 02:35:30.72	315.16	21.44	-29.9	-31.8	13.2	5.27e-04	0	42	0	544210944	19	4493
2026-01-11 02:35:31.72	314.90	21.43	-29.9	-31.9	13.1	2.57e-03	0	42	0	546308096	19	4533
2026-01-11 02:35:32.73	314.64	21.43	-30.0	-31.8	12.9	2.85e-03	0	42	0	548405248	20	4391
2026-01-11 02:35:33.73	314.37	21.42	-30.0	-31.8	12.8	2.17e-03	0	42	0	550502400	20	4423
2026-01-11 02:35:34.74	314.11	21.41	-29.9	-31.9	13.1	2.89e-03	0	42	0	551550976	19	4542
2026-01-11 02:35:35.75	313.85	21.41	-29.9	-31.5	13.0	2.84e-03	0	42	0	553648128	20	4323
2026-01-11 02:35:36.75	313.59	21.40	-30.2	-32.3	12.5	8.51e-04	0	42	0	555745280	20	4580
2026-01-11 02:35:37.76	313.32	21.39	-30.1	-31.9	12.8	3.00e-03	0	42	0	557842432	20	4449
2026-01-11 02:35:38.77	313.06	21.38	-30.1	-31.8	12.9	2.77e-03	0	42	0	559939584	20	4400
2026-01-11 02:35:39.77	312.80	21.37	-30.3	-32.4	12.6	1.48e-03	0	42	0	560988160	20	4587
2026-01-11 02:35:40.78	312.54	21.36	-30.1	-32.0	12.8	1.14e-04	0	42	0	563085312	20	4460
2026-01-11 02:35:41.78	312.28	21.35	-30.0	-31.8	12.9	2.73e-03	0	42	0	565182464	20	4387
2026-01-11 02:35:42.79	312.01	21.33	-29.9	-31.8	13.3	1.18e-04	0	42	0	567279616	19	4480
2026-01-11 02:35:43.79	311.75	21.32	-29.9	-31.9	13.3	1.37e-05	0	42	0	569376768	19	4506
2026-01-11 02:35:44.80	311.49	21.31	-29.9	-31.8	13.3	3.04e-03	0	42	0	570425344	19	4470
2026-01-11 02:35:45.81	311.23	21.29	-29.8	-31.4	13.5	6.86e-05	0	42	0	572522496	19	4356
2026-01-11 02:35:46.82	310.97	21.28	-29.6	-30.9	13.9	6.80e-06	0	42	0	574619648	19	4195
2026-01-11 02:35:47.82	310.71	21.26	-29.5	-30.8	13.9	6.80e-06	0	42	0	576716800	19	4177
2026-01-11 02:35:48.83	310.45	21.25	-29.3	-30.2	14.3	1.29e-05	0	42	0	578813952	19	3995
2026-01-11 02:35:49.83	310.19	21.23	-29.3	-30.6	14.4	0.00e+00	0	42	0	579862528	18	4198
2026-01-11 02:35:50.84	309.93	21.21	-29.1	-30.1	14.7	2.40e-04	0	42	0	581959680	18	4038
2026-01-11 02:35:51.85	309.67	21.19	-29.2	-30.5	14.5	2.69e-04	0	42	0	584056832	18	4153
2026-01-11 02:35:52.86	309.41	21.18	-29.0	-29.9	14.9	7.00e-07	0	42	0	586153984	18	3990
2026-01-11 02:35:53.87	309.15	21.16	-28.7	-29.7	15.2	1.56e-04	0	42	0	588251136	17	4036
2026-01-11 02:35:54.88	308.89	21.14	-28.9	-30.2	14.9	9.91e-05	0	42	0	589299712	17	4165
2026-01-11 02:35:55.88	308.64	21.12	-29.1	-30.1	14.7	2.16e-03	0	42	0	591396864	18	4066
2026-01-11 02:35:56.89	308.38	21.10	-29.4	-31.0	14.2	1.87e-04	0	42	0	593494016	18	4314
2026-01-11 02:35:57.89	308.12	21.07	-29.5	-30.7	14.0	2.14e-04	0	42	0	595591168	19	4151
2026-01-11 02:35:58.89	307.87	21.05	-29.4	-30.5	14.1	3.00e-06	0	42	0	597688320	19	4082
2026-01-11 02:35:59.89	307.61	21.03	-29.6	-30.9	13.9	3.80e-06	0	42	0	598736896	19	4188
2026-01-11 02:36:00.90	307.35	21.01	-29.4	-30.6	14.1	2.20e-06	0	42	0	600834048	19	4091
2026-01-11 02:36:01.90	307.10	20.98	-29.3	-30.7	14.3	1.50e-06	0	42	0	602931200	18	4227
2026-01-11 02:36:02.91	306.84	20.96	-29.4	-30.9	14.2	7.00e-07	0	42	0	605028352	18	4294
2026-01-11 02:36:03.92	306.59	20.93	-29.5	-30.8	14.0	2.29e-04	0	42	0	607125504	19	4163
2026-01-11 02:36:04.92	306.33	20.91	-29.2	-29.9	14.5	1.50e-06	0	42	0	608174080	19	3905
2026-01-11 02:36:05.92	306.08	20.88	-29.1	-30.2	14.6	1.50e-06	0	42	0	610271232	18	4095
2026-01-11 02:36:06.93	305.83	20.86	-29.4	-30.8	14.3	0.00e+00	0	42	0	612368384	18	4266
2026-01-11 02:36:07.94	305.57	20.83	-29.6	-30.9	13.9	3.80e-06	0	42	0	614465536	19	4179
2026-01-11 02:36:08.94	305.32	20.80	-29.7	-31.2	13.7	2.20e-06	0	42	0	616562688	19	4270
2026-01-11 02:36:09.95	305.07	20.77	-29.5	-30.7	13.4	1.50e-06	0	42	0	617611264	19	4139
2026-01-11 02:36:10.95	304.82	20.74	-29.9	-31.6	13.0	3.00e-06	0	42	0	619708416	19	4419
2026-01-11 02:36:11.96	304.57	20.71	-29.4	-30.4	14.0	7.60e-06	0	42	0	621805568	19	4051
2026-01-11 02:36:12.96	304.32	20.68	-28.7	-29.7	15.1	0.00e+00	0	42	0	623902720	17	4042
2026-01-11 02:36:13.97	304.07	20.65	-28.7	-29.6	15.2	0.00e+00	0	42	0	625999872	17	4003
2026-01-11 02:36:14.97	303.82	20.62	-28.9	-30.2	14.9	2.97e-05	0	42	0	627048448	17	4167
2026-01-11 02:36:15.98	303.57	20.59	-28.6	-29.4	15.4	1.98e-05	0	42	0	629145600	17	3965
2026-01-11 02:36:16.98	303.32	20.56	-28.7	-29.8	15.2	0.00e+00	0	42	0	631242752	17	4054
2026-01-11 02:36:17.98	303.07	20.53	-28.8	-29.9	15.1	0.00e+00	0	42	0	633339904	17	4098
2026-01-11 02:36:18.99	302.82	20.49	-29.0	-30.4	14.8	7.00e-07	0	42	0	635437056	17	4236
2026-01-11 02:36:20.00	302.58	20.46	-29.1	-30.2	14.6	1.91e-04	0	42	0	636485632	18	4089
2026-01-11 02:36:21.01	302.33	20.43	-29.7	-31.3	13.5	3.00e-06	0	42	0	638582784	19	4332
2026-01-11 02:36:22.01	302.08	20.39	-29.8	-31.5	13.4	1.22e-05	0	42	0	640679936	19	4386
2026-01-11 02:36:23.02	301.84	20.36	-29.7	-31.4	13.5	2.08e-03	0	42	0	642777088	19	4362
2026-01-11 02:36:24.02	301.59	20.32	-30.0	-32.1	13.1	2.36e-05	0	42	0	644874240	19	4577
2026-01-11 02:36:25.02	301.35	20.28	-29.7	-31.4	13.5	2.44e-05	0	42	0	645922816	19	4357
2026-01-11 02:36:26.03	301.11	20.25	-29.6	-31.0	13.7	1.14e-05	0	42	0	648019968	19	4248
2026-01-11 02:36:27.03	300.86	20.21	-29.5	-30.8	14.0	9.72e-04	0	42	0	650117120	19	4177
2026-01-11 02:36:28.04	300.62	20.17	-30.0	-31.9	13.2	4.50e-06	0	42	0	652214272	19	4522
2026-01-11 02:36:29.04	300.38	20.13	-29.7	-31.4	13.6	1.75e-05	0	42	0	654311424	19	4354
2026-01-11 02:36:30.04	300.14	20.10	-29.7	-31.2	13.6	1.29e-03	0	42	0	655360000	19	4308
2026-01-11 02:36:31.05	299.90	20.06	-29.8	-31.7	13.3	2.85e-03	0	42	0	657457152	19	4452
2026-01-11 02:36:32.05	299.66	20.02	-30.1	-31.9	12.7	4.65e-05	0	42	0	659554304	20	4433
2026-01-11 02:36:33.06	299.42	19.98	-29.9	-31.8	13.2	5.93e-04	0	42	0	661651456	19	4476
2026-01-11 02:36:34.06	299.18	19.94	-30.0	-31.6	12.9	2.45e-03	0	42	0	663748608	20	4332
2026-01-11 02:36:35.07	298.94	19.90	-30.1	-32.0	12.7	5.64e-05	0	42	0	664797184	20	4457
2026-01-11 02:36:36.08	298.70	19.85	-30.1	-32.0	12.6	6.33e-05	0	42	0	666894336	20	4477
2026-01-11 02:36:37.08	298.47	19.81	-30.2	-32.3	12.5	3.07e-03	0	42	0	668991488	20	4562
2026-01-11 02:36:38.09	298.23	19.77	-30.2	-32.3	12.4	3.31e-03	0	42	0	671088640	20	4576
2026-01-11 02:36:39.10	297.99	19.73	-30.2	-32.4	12.4	1.37e-04	0	42	0	673185792	20	4604
2026-01-11 02:36:40.10	297.76	19.68	-30.4	-32.7	12.2	3.66e-03	0	42	0	674234368	20	4734
2026-01-11 02:36:41.10	297.53	19.64	-29.9	-31.5	12.9	3.25e-03	0	42	0	676331520	20	4321
2026-01-11 02:36:42.11	297.29	19.60	-29.7	-31.3	13.5	5.48e-04	0	42	0	678428672	19	4322
2026-01-11 02:36:43.11	297.06	19.55	-29.4	-30.6	13.9	2.74e-03	0	42	0	680525824	19	4125
2026-01-11 02:36:44.12	296.83	19.51	-29.4	-31.1	13.9	3.02e-03	0	42	0	682622976	18	4377
2026-01-11 02:36:45.13	296.60	19.46	-29.6	-31.1	13.6	5.21e-04	0	42	0	683671552	19	4283
2026-01-11 02:36:46.14	296.36	19.42	-29.7	-31.4	13.4	7.60e-06	0	42	0	685768704	19	4377
2026-01-11 02:36:47.14	296.13	19.37	-29.9	-31.9	13.1	3.23e-03	0	42	0	687865856	19	4515
2026-01-11 02:36:48.14	295.91	19.32	-29.9	-31.3	13.0	3.11e-04	0	42	0	689963008	20	4270
2026-01-11 02:36:49.15	295.68	19.28	-30.0	-31.7	12.8	3.28e-03	0	42	0	692060160	20	4389
2026-01-11 02:36:50.16	295.45	19.23	-30.0	-31.8	12.7	3.17e-03	0	42	0	693108736	20	4419
2026-01-11 02:36:51.16	295.22	19.18	-29.8	-31.6	13.2	4.66e-04	0	42	0	695205888	19	4435
2026-01-11 02:36:52.17	294.99	19.13	-29.9	-31.8	13.1	2.88e-03	0	42	0	697303040	19	4500
2026-01-11 02:36:53.16	294.77	19.09	-29.9	-32.0	13.0	4.60e-04	0	42	0	699400192	19	4547
2026-01-11 02:36:54.17	294.55	19.04	-29.7	-31.3	13.4	2.23e-04	0	42	0	701497344	19	4341
2026-01-11 02:36:55.18	294.32	18.99	-29.4	-30.9	14.0	3.22e-03	0	42	0	702545920	18	4309
2026-01-11 02:36:56.18	294.10	18.94	-29.1	-30.2	14.4	3.12e-03	0	42	0	704643072	18	4108
2026-01-11 02:36:57.18	293.88	18.89	-29.0	-30.1	14.5	6.79e-04	0	42	0	706740224	18	4080
2026-01-11 02:36:58.17	293.66	18.84	-29.1	-30.2	14.4	3.00e-03	0	42	0	708837376	18	4091
2026-01-11 02:36:59.18	293.43	18.79	-29.1	-30.2	14.4	2.83e-03	0	42	0	709885952	18	4106
2026-01-11 02:37:00.17	293.22	18.74	-29.0	-30.0	14.5	3.00e-06	0	42	0	711983104	18	4044
2026-01-11 02:37:01.18	293.00	18.69	-29.1	-30.2	14.4	2.63e-03	0	42	0	714080256	18	4104
2026-01-11 02:37:02.18	292.78	18.64	-29.2	-30.6	14.2	2.93e-03	0	42	0	716177408	18	4216
2026-01-11 02:37:03.19	292.56	18.59	-29.5	-30.8	13.7	4.50e-06	0	42	0	718274560	19	4188
2026-01-11 02:37:04.19	292.34	18.53	-29.7	-31.4	13.4	2.52e-03	0	42	0	719323136	19	4387
2026-01-11 02:37:05.20	292.12	18.48	-30.1	-32.1	12.4	3.00e-03	0	42	0	721420288	20	4539
2026-01-11 02:37:06.21	291.91	18.43	-30.2	-32.4	12.2	1.81e-04	0	42	0	723517440	20	4646
2026-01-11 02:37:07.22	291.69	18.37	-30.5	-32.8	11.6	5.26e-04	0	42	0	725614592	21	4681
2026-01-11 02:37:08.22	291.48	18.32	-30.4	-33.0	11.8	3.30e-03	0	42	0	727711744	20	4851
2026-01-11 02:37:09.23	291.26	18.27	-30.2	-32.4	12.2	3.21e-04	0	42	0	728760320	20	4655
2026-01-11 02:37:10.24	291.05	18.21	-30.2	-32.4	12.3	2.00e-04	0	42	0	730857472	20	4633
2026-01-11 02:37:11.25	290.83	18.16	-30.3	-32.7	12.0	6.64e-04	0	42	0	732954624	20	4760
2026-01-11 02:37:12.25	290.62	18.10	-30.6	-33.2	11.3	1.58e-03	0	42	0	735051776	21	4833
2026-01-11 02:37:13.26	290.41	18.05	-30.7	-33.4	11.2	1.56e-03	0	42	0	737148928	21	4896
2026-01-11 02:37:14.26	290.20	17.99	-31.1	-34.2	10.2	2.78e-03	0	42	0	738197504	22	5165
2026-01-11 02:37:15.26	289.99	17.94	-31.3	-34.8	9.8	9.40e-03	0	42	0	740294656	22	5418
2026-01-11 02:37:16.27	289.78	17.88	-31.3	-34.9	9.7	1.28e-02	0	42	0	742391808	22	5456
2026-01-11 02:37:17.27	289.58	17.83	-31.3	-35.0	9.5	1.54e-02	0	42	0	744488960	22	5504
2026-01-11 02:37:18.27	289.37	17.77	-31.3	-35.0	9.6	1.11e-02	0	42	0	746586112	22	5514
2026-01-11 02:37:19.27	289.17	17.72	-31.2	-34.7	9.9	1.44e-02	0	42	0	747634688	22	5360
2026-01-11 02:37:20.28	288.96	17.66	-30.6	-33.3	11.2	2.73e-03	0	42	0	749731840	21	4876
2026-01-11 02:37:21.28	288.76	17.60	-30.3	-32.3	11.9	8.90e-04	0	42	0	751828992	21	4509
2026-01-11 02:37:22.29	288.55	17.54	-30.0	-31.9	12.6	2.17e-03	0	42	0	753926144	20	4457
2026-01-11 02:37:23.30	288.35	17.49	-29.6	-31.1	13.4	1.11e-04	0	42	0	756023296	19	4299
2026-01-11 02:37:24.30	288.15	17.43	-29.4	-31.2	13.7	9.00e-05	0	42	0	757071872	18	4424
2026-01-11 02:37:25.31	287.94	17.37	-29.5	-30.8	13.5	6.10e-06	0	42	0	759169024	19	4212
2026-01-11 02:37:26.32	287.74	17.31	-29.6	-31.2	13.3	2.78e-03	0	42	0	761266176	19	4322
2026-01-11 02:37:27.33	287.54	17.25	-29.8	-31.8	13.0	1.10e-04	0	42	0	763363328	19	4517
2026-01-11 02:37:28.33	287.34	17.20	-29.4	-30.7	13.7	2.05e-05	0	42	0	765460480	19	4168
2026-01-11 02:37:29.34	287.14	17.14	-29.7	-31.5	13.1	1.22e-05	0	42	0	766509056	19	4434
2026-01-11 02:37:30.34	286.95	17.08	-29.9	-31.5	12.8	8.54e-05	0	42	0	768606208	20	4342
2026-01-11 02:37:31.35	286.75	17.02	-30.0	-31.8	12.6	6.71e-05	0	42	0	770703360	20	4429
2026-01-11 02:37:32.35	286.55	16.96	-30.2	-32.4	12.2	1.30e-04	0	42	0	772800512	20	4634
2026-01-11 02:37:33.35	286.36	16.90	-30.0	-32.0	12.4	1.09e-04	0	42	0	774897664	20	4508
2026-01-11 02:37:34.35	286.16	16.84	-30.0	-32.0	12.3	1.57e-04	0	42	0	775946240	20	4509
2026-01-11 02:37:35.35	285.97	16.78	-29.7	-31.1	12.9	8.08e-05	0	42	0	778043392	20	4236
2026-01-11 02:37:36.36	285.78	16.72	-29.6	-31.4	13.1	4.19e-05	0	42	0	780140544	19	4384
2026-01-11 02:37:37.36	285.59	16.66	-29.3	-30.4	13.8	9.10e-06	0	42	0	782237696	19	4105
2026-01-11 02:37:38.37	285.39	16.60	-29.3	-30.9	13.8	6.80e-06	0	42	0	784334848	18	4338
2026-01-11 02:37:39.37	285.20	16.54	-29.4	-31.2	13.7	5.30e-06	0	42	0	785383424	18	4431
2026-01-11 02:37:40.38	285.01	16.48	-29.4	-31.3	13.6	6.10e-06	0	42	0	787480576	18	4445
2026-01-11 02:37:41.39	284.82	16.42	-29.9	-31.9	12.8	4.73e-05	0	42	0	789577728	19	4574
2026-01-11 02:37:42.40	284.63	16.36	-30.3	-32.7	11.9	1.33e-04	0	42	0	791674880	20	4761
2026-01-11 02:37:43.40	284.45	16.30	-30.7	-33.5	10.1	1.87e-03	0	42	0	793772032	21	4993
2026-01-11 02:37:44.41	284.26	16.23	-30.7	-33.7	10.6	1.80e-03	0	42	0	794820608	21	5092
2026-01-11 02:37:45.41	284.07	16.17	-31.0	-34.5	9.6	6.33e-03	0	42	0	796917760	21	5427
2026-01-11 02:37:46.42	283.89	16.11	-30.7	-33.6	10.3	4.65e-03	0	42	0	799014912	21	5034
2026-01-11 02:37:47.42	283.70	16.05	-30.6	-33.2	11.1	2.30e-03	0	42	0	801112064	21	4882
2026-01-11 02:37:48.43	283.52	15.99	-30.4	-33.2	11.5	1.79e-03	0	42	0	803209216	20	4945
2026-01-11 02:37:49.44	283.34	15.92	-30.4	-33.1	11.6	7.15e-04	0	42	0	804257792	20	4912
2026-01-11 02:37:50.44	283.15	15.86	-30.2	-32.6	11.9	4.03e-04	0	42	0	806354944	20	4733
2026-01-11 02:37:51.45	282.97	15.80	-30.2	-32.6	12.0	3.14e-04	0	42	0	808452096	20	4752
2026-01-11 02:37:52.46	282.79	15.74	-30.2	-32.5	11.9	4.45e-04	0	42	0	810549248	20	4703
2026-01-11 02:37:53.46	282.61	15.67	-29.9	-31.8	12.4	1.55e-04	0	42	0	812646400	20	4458
2026-01-11 02:37:54.47	282.43	15.61	-30.0	-32.0	12.2	1.55e-04	0	42	0	813694976	20	4545
2026-01-11 02:37:55.48	282.25	15.55	-30.1	-32.2	12.1	1.91e-04	0	42	0	815792128	20	4623
2026-01-11 02:37:56.48	282.08	15.49	-30.0	-31.9	12.3	2.05e-03	0	42	0	817889280	20	4512
2026-01-11 02:37:57.50	281.90	15.42	-29.9	-32.2	12.6	2.59e-03	0	42	0	819986432	19	4679
2026-01-11 02:37:58.50	281.72	15.36	-30.0	-32.2	12.6	1.82e-04	0	42	0	822083584	19	4683
2026-01-11 02:37:59.50	281.55	15.29	-29.9	-31.5	12.6	1.21e-03	0	42	0	823132160	20	4359
2026-01-11 02:38:00.51	281.37	15.23	-30.1	-32.3	12.1	2.73e-03	0	42	0	825229312	20	4612
2026-01-11 02:38:01.51	281.20	15.17	-30.1	-32.3	12.1	2.92e-04	0	42	0	827326464	20	4628
2026-01-11 02:38:02.52	281.02	15.10	-30.2	-32.7	11.8	2.75e-04	0	42	0	829423616	20	4754
2026-01-11 02:38:03.52	280.85	15.04	-30.3	-33.0	11.6	3.47e-03	0	42	0	831520768	20	4874
2026-01-11 02:38:04.53	280.68	14.98	-30.3	-32.9	11.6	3.88e-03	0	42	0	832569344	20	4864
2026-01-11 02:38:05.54	280.51	14.91	-30.4	-33.4	11.3	9.37e-04	0	42	0	834666496	20	5034
2026-01-11 02:38:06.55	280.34	14.85	-30.4	-33.2	11.4	4.42e-03	0	42	0	836763648	20	4973
2026-01-11 02:38:07.56	280.17	14.78	-30.4	-33.0	11.5	4.31e-03	0	42	0	838860800	20	4899
2026-01-11 02:38:08.56	280.00	14.72	-30.1	-32.4	12.1	7.41e-04	0	42	0	840957952	20	4650
2026-01-11 02:38:09.57	279.83	14.65	-29.9	-31.7	12.5	1.65e-04	0	42	0	842006528	20	4412
2026-01-11 02:38:10.58	279.66	14.59	-29.9	-32.0	12.7	2.62e-03	0	42	0	844103680	19	4604
2026-01-11 02:38:11.58	279.50	14.53	-29.9	-32.0	12.7	1.91e-04	0	42	0	846200832	19	4600
2026-01-11 02:38:12.58	279.33	14.46	-29.7	-31.6	13.0	4.80e-05	0	42	0	848297984	19	4460
2026-01-11 02:38:13.59	279.17	14.40	-29.7	-31.6	13.0	3.03e-03	0	42	0	850395136	19	4454
2026-01-11 02:38:14.58	279.00	14.33	-29.8	-32.0	12.7	4.32e-04	0	42	0	851443712	19	4599
2026-01-11 02:38:15.58	278.84	14.27	-29.8	-32.0	12.6	3.23e-03	0	42	0	853540864	19	4602
2026-01-11 02:38:16.59	278.68	14.20	-30.0	-32.4	12.4	3.10e-03	0	42	0	855638016	19	4758
2026-01-11 02:38:17.59	278.52	14.14	-30.0	-32.1	12.2	8.90e-04	0	42	0	857735168	20	4570
2026-01-11 02:38:18.59	278.36	14.07	-30.1	-32.2	12.2	2.97e-03	0	42	0	858783744	20	4579
2026-01-11 02:38:19.60	278.19	14.01	-30.1	-32.2	12.2	1.98e-04	0	42	0	860880896	20	4592
2026-01-11 02:38:20.61	278.03	13.94	-30.0	-32.0	12.3	4.39e-04	0	42	0	862978048	20	4522
2026-01-11 02:38:21.62	277.87	13.88	-30.0	-31.9	12.3	2.43e-03	0	42	0	865075200	20	4485
2026-01-11 02:38:22.62	277.72	13.81	-29.9	-32.0	12.7	2.88e-03	0	42	0	867172352	19	4610
2026-01-11 02:38:23.62	277.56	13.75	-29.8	-31.7	12.8	8.18e-04	0	42	0	868220928	19	4509
2026-01-11 02:38:24.63	277.40	13.68	-29.7	-31.6	12.9	3.32e-03	0	42	0	870318080	19	4463
2026-01-11 02:38:25.64	277.24	13.62	-29.6	-31.4	13.1	3.54e-03	0	42	0	872415232	19	4407
2026-01-11 02:38:26.65	277.09	13.55	-29.6	-31.3	13.2	7.76e-04	0	42	0	874512384	19	4365
2026-01-11 02:38:27.65	276.93	13.49	-29.7	-31.7	12.9	3.64e-03	0	42	0	876609536	19	4492
2026-01-11 02:38:28.66	276.78	13.42	-29.7	-31.5	13.0	3.27e-03	0	42	0	878706688	19	4447
2026-01-11 02:38:29.66	276.63	13.36	-29.6	-31.3	13.2	1.47e-03	0	42	0	879755264	19	4366
2026-01-11 02:38:30.66	276.47	13.29	-29.8	-31.7	12.9	2.79e-03	0	42	0	881852416	19	4483
2026-01-11 02:38:31.66	276.32	13.23	-29.5	-31.0	13.4	3.04e-03	0	42	0	883949568	19	4261
2026-01-11 02:38:32.67	276.17	13.16	-29.2	-30.7	13.8	4.84e-04	0	42	0	886046720	18	4271
2026-01-11 02:38:33.68	276.02	13.09	-29.1	-30.3	14.1	7.00e-07	0	42	0	887095296	18	4133
2026-01-11 02:38:34.68	275.87	13.03	-29.1	-30.3	14.1	2.37e-03	0	42	0	889192448	18	4142
2026-01-11 02:38:35.69	275.72	12.96	-29.0	-30.2	14.2	3.80e-06	0	42	0	891289600	18	4114
2026-01-11 02:38:36.70	275.57	12.90	-29.5	-30.9	13.4	2.20e-06	0	42	0	893386752	19	4234
2026-01-11 02:38:37.70	275.42	12.83	-29.4	-31.1	13.6	2.59e-03	0	42	0	895483904	18	4386
2026-01-11 02:38:38.71	275.27	12.77	-29.5	-31.3	13.5	6.17e-05	0	42	0	896532480	18	4472
2026-01-11 02:38:39.72	275.12	12.70	-29.4	-30.8	13.5	2.40e-03	0	42	0	898629632	19	4191
2026-01-11 02:38:40.72	274.98	12.63	-29.7	-31.4	13.1	2.24e-03	0	42	0	900726784	19	4410
2026-01-11 02:38:41.72	274.83	12.57	-29.9	-32.0	12.7	2.44e-03	0	42	0	902823936	19	4583
2026-01-11 02:38:42.73	274.69	12.50	-30.0	-31.9	12.3	2.68e-03	0	42	0	904921088	20	4480
2026-01-11 02:38:43.73	274.54	12.44	-30.2	-32.4	12.0	2.03e-03	0	42	0	905969664	20	4674
2026-01-11 02:38:44.74	274.40	12.37	-30.3	-32.9	11.6	2.19e-03	0	42	0	908066816	20	4846
2026-01-11 02:38:45.74	274.26	12.31	-30.3	-32.9	11.6	2.14e-03	0	42	0	910163968	20	4848
2026-01-11 02:38:46.75	274.12	12.24	-30.7	-33.4	10.9	2.16e-03	0	42	0	912261120	21	4952
2026-01-11 02:38:47.75	273.97	12.18	-30.4	-32.7	11.3	2.33e-03	0	42	0	914358272	21	4696
2026-01-11 02:38:48.76	273.83	12.11	-30.3	-32.7	11.7	8.58e-04	0	42	0	915406848	20	4773
2026-01-11 02:38:49.76	273.69	12.05	-30.3	-32.8	11.7	3.30e-03	0	42	0	917504000	20	4809
2026-01-11 02:38:50.77	273.55	11.98	-30.5	-33.0	11.2	9.67e-04	0	42	0	919601152	21	4773
2026-01-11 02:38:51.78	273.41	11.91	-30.8	-33.8	10.6	1.77e-03	0	42	0	921698304	21	5101
2026-01-11 02:38:52.78	273.27	11.85	-30.6	-33.3	10.9	8.04e-03	0	42	0	923795456	21	4888
2026-01-11 02:38:53.79	273.14	11.78	-30.4	-32.7	11.4	2.42e-03	0	42	0	924844032	21	4685
2026-01-11 02:38:54.80	273.00	11.72	-30.4	-33.0	11.6	7.87e-04	0	42	0	926941184	20	4883
2026-01-11 02:38:55.80	272.86	11.65	-30.5	-32.8	11.3	1.31e-03	0	42	0	929038336	21	4712
2026-01-11 02:38:56.81	272.73	11.59	-30.5	-33.0	11.2	1.22e-03	0	42	0	931135488	21	4770
2026-01-11 02:38:57.82	272.59	11.52	-30.5	-32.8	11.3	1.11e-03	0	42	0	933232640	21	4710
2026-01-11 02:38:58.82	272.46	11.45	-30.6	-33.1	11.0	1.35e-03	0	42	0	934281216	21	4838
2026-01-11 02:38:59.83	272.32	11.39	-30.7	-33.5	10.8	2.48e-03	0	42	0	936378368	21	4993
2026-01-11 02:39:00.82	272.19	11.32	-30.6	-33.2	10.9	2.36e-03	0	42	0	938475520	21	4860
2026-01-11 02:39:01.83	272.06	11.26	-30.3	-32.8	11.6	2.14e-03	0	42	0	940572672	20	4816
2026-01-11 02:39:02.83	271.92	11.19	-30.2	-32.6	11.7	2.34e-03	0	42	0	942669824	20	4752
2026-01-11 02:39:03.84	271.79	11.13	-30.0	-31.8	12.3	3.64e-04	0	42	0	943718400	20	4456
2026-01-11 02:39:04.84	271.66	11.06	-30.0	-32.1	12.0	2.25e-03	0	42	0	945815552	20	4559
2026-01-11 02:39:05.85	271.53	11.00	-30.2	-32.6	11.7	2.18e-03	0	42	0	947912704	20	4751
2026-01-11 02:39:06.86	271.40	10.93	-30.2	-32.5	11.8	3.52e-04	0	42	0	950009856	20	4689
2026-01-11 02:39:07.86	271.27	10.87	-30.1	-32.4	11.8	2.61e-03	0	42	0	952107008	20	4678
2026-01-11 02:39:08.87	271.14	10.80	-30.2	-32.7	11.7	2.87e-03	0	42	0	953155584	20	4783
2026-01-11 02:39:09.87	271.01	10.74	-30.3	-32.9	11.5	6.56e-04	0	42	0	955252736	20	4857
2026-01-11 02:39:10.88	270.88	10.67	-30.2	-32.6	11.7	6.43e-04	0	42	0	957349888	20	4734
2026-01-11 02:39:11.89	270.76	10.61	-30.0	-32.0	12.0	2.23e-03	0	42	0	959447040	20	4538
2026-01-11 02:39:12.89	270.63	10.54	-28.8	-30.3	12.7	2.28e-04	0	42	0	961544192	20	4267
2026-01-11 02:39:13.90	270.50	10.48	-29.6	-31.1	13.1	6.48e-05	0	42	0	962592768	19	4324
2026-01-11 02:39:14.91	270.38	10.41	-29.4	-31.3	13.3	8.50e-04	0	42	0	964689920	18	4486
2026-01-11 02:39:15.92	270.25	10.34	-29.5	-31.1	13.1	1.52e-05	0	42	0	966787072	19	4307
2026-01-11 02:39:16.92	270.13	10.28	-29.3	-31.0	13.5	6.47e-04	0	42	0	968884224	18	4363
2026-01-11 02:39:17.93	270.00	10.21	-29.1	-30.5	13.9	8.30e-06	0	42	0	970981376	18	4218
2026-01-11 02:39:18.93	269.88	10.15	-29.0	-30.2	13.9	7.60e-06	0	42	0	972029952	18	4138
2026-01-11 02:39:19.94	269.76	10.09	-29.1	-30.4	13.9	3.20e-04	0	42	0	974127104	18	4200
2026-01-11 02:39:20.95	269.64	10.02	-29.4	-31.1	13.4	1.22e-05	0	42	0	976224256	18	4418
2026-01-11 02:39:21.96	269.51	9.96	-29.5	-31.4	13.2	1.52e-05	0	42	0	978321408	18	4512
2026-01-11 02:39:22.96	269.39	9.89	-29.5	-31.1	13.1	3.36e-04	0	42	0	980418560	19	4315
2026-01-11 02:39:23.97	269.27	9.83	-29.7	-31.7	12.7	2.70e-03	0	42	0	981467136	19	4517
2026-01-11 02:39:24.97	269.15	9.76	-29.9	-32.0	12.4	1.57e-04	0	42	0	983564288	19	4628
2026-01-11 02:39:25.98	269.03	9.70	-29.9	-31.7	12.3	6.40e-04	0	42	0	985661440	20	4451
2026-01-11 02:39:26.98	268.92	9.63	-30.0	-32.0	12.0	3.72e-03	0	42	0	987758592	20	4539
2026-01-11 02:39:28.00	268.80	9.57	-30.0	-32.1	12.0	3.76e-03	0	42	0	989855744	20	4564
2026-01-11 02:39:29.00	268.68	9.50	-29.9	-32.2	12.2	2.36e-04	0	42	0	990904320	19	4702
2026-01-11 02:39:30.00	268.56	9.44	-29.9	-32.3	12.2	4.43e-03	0	42	0	993001472	19	4719
2026-01-11 02:39:31.01	268.45	9.37	-30.0	-32.0	12.0	4.60e-03	0	42	0	995098624	20	4547
2026-01-11 02:39:32.01	268.33	9.31	-30.1	-32.2	11.8	5.03e-04	0	42	0	997195776	20	4626
2026-01-11 02:39:33.02	268.21	9.25	-29.9	-32.3	12.1	3.26e-04	0	42	0	999292928	19	4748
2026-01-11 02:39:34.03	268.10	9.18	-30.0	-32.0	11.9	4.59e-03	0	42	0	1000341504	20	4543
2026-01-11 02:39:35.04	267.98	9.12	-30.1	-32.3	11.8	2.72e-03	0	42	0	1002438656	20	4641
2026-01-11 02:39:36.04	267.87	9.05	-30.2	-32.8	11.4	5.70e-04	0	42	0	1004535808	20	4838
2026-01-11 02:39:37.05	267.76	8.99	-30.1	-32.3	11.7	4.72e-03	0	42	0	1006632960	20	4680
2026-01-11 02:39:38.05	267.64	8.93	-30.0	-32.3	11.7	2.23e-03	0	42	0	1008730112	20	4649
2026-01-11 02:39:39.06	267.53	8.86	-30.0	-32.2	11.8	3.64e-03	0	42	0	1009778688	20	4623
2026-01-11 02:39:40.06	267.42	8.80	-30.1	-32.4	11.6	3.96e-03	0	42	0	1011875840	20	4695
2026-01-11 02:39:41.07	267.31	8.73	-29.9	-31.7	12.1	1.55e-03	0	42	0	1013972992	20	4446
2026-01-11 02:39:42.07	267.20	8.67	-29.9	-31.9	12.0	3.42e-03	0	42	0	1016070144	20	4508
2026-01-11 02:39:43.08	267.08	8.61	-30.0	-32.4	12.1	2.46e-04	0	42	0	1018167296	19	4763
2026-01-11 02:39:44.08	266.98	8.54	-30.0	-32.1	11.9	8.14e-04	0	42	0	1019215872	20	4567
2026-01-11 02:39:45.09	266.87	8.48	-30.2	-32.7	11.4	4.19e-03	0	42	0	1021313024	20	4805
2026-01-11 02:39:46.10	266.76	8.42	-30.1	-32.4	11.4	4.05e-03	0	42	0	1023410176	20	4682
2026-01-11 02:39:47.10	266.65	8.35	-30.3	-32.9	11.3	1.71e-03	0	42	0	1025507328	20	4864
2026-01-11 02:39:48.11	266.54	8.29	-30.2	-32.8	11.3	4.34e-03	0	42	0	1027604480	20	4849
2026-01-11 02:39:49.11	266.43	8.23	-30.3	-33.1	11.1	4.38e-03	0	42	0	1028653056	20	4951
2026-01-11 02:39:50.11	266.33	8.16	-30.3	-32.9	11.3	5.29e-03	0	42	0	1030750208	20	4880
2026-01-11 02:39:51.12	266.22	8.10	-30.3	-33.0	11.2	4.96e-03	0	42	0	1032847360	20	4932
2026-01-11 02:39:52.13	266.11	8.04	-30.3	-33.2	11.0	5.19e-03	0	42	0	1034944512	20	4993
2026-01-11 02:39:53.14	266.01	7.97	-30.4	-33.3	11.0	3.37e-03	0	42	0	1037041664	20	5033
2026-01-11 02:39:54.15	265.90	7.91	-30.5	-33.3	10.6	5.94e-03	0	42	0	1038090240	21	4966
2026-01-11 02:39:55.15	265.79	7.85	-30.7	-33.9	10.1	8.81e-03	0	42	0	1040187392	21	5184
2026-01-11 02:39:56.16	265.69	7.79	-30.7	-34.1	9.9	7.99e-03	0	42	0	1042284544	21	5282
2026-01-11 02:39:57.17	265.59	7.72	-30.5	-33.2	10.6	4.28e-03	0	42	0	1044381696	21	4902
2026-01-11 02:39:58.17	265.48	7.66	-30.5	-33.7	10.6	5.54e-03	0	42	0	1046478848	20	5222
2026-01-11 02:39:59.18	265.38	7.60	-30.5	-33.4	10.4	4.00e-03	0	42	0	1047527424	21	4993
2026-01-11 02:40:00.18	265.28	7.53	-30.6	-33.7	10.2	5.19e-03	0	42	0	1049624576	21	5125
2026-01-11 02:40:01.19	265.17	7.47	-30.7	-34.0	10.0	1.15e-02	0	42	0	1051721728	21	5269
2026-01-11 02:40:02.19	265.07	7.41	-30.7	-34.0	9.9	8.36e-03	0	42	0	1053818880	21	5274
2026-01-11 02:40:03.20	264.97	7.35	-30.8	-34.2	9.8	1.10e-02	0	42	0	1054867456	21	5360
2026-01-11 02:40:04.20	264.87	7.29	-31.0	-34.7	9.1	2.14e-02	0	42	0	1056964608	22	5510
2026-01-11 02:40:05.20	264.77	7.22	-31.0	-35.0	9.1	2.16e-02	0	42	0	1059061760	21	5731
2026-01-11 02:40:06.20	264.67	7.16	-31.3	-35.7	8.2	4.05e-02	0	42	0	1061158912	22	5990
2026-01-11 02:40:07.21	264.57	7.10	-30.8	-33.9	9.7	3.10e-02	0	42	0	1063256064	22	5123
2026-01-11 02:40:08.21	264.47	7.04	-32.9	-45.5	3.8	1.49e+00	0	42	104	1063256064	25	15353
2026-01-11 02:40:09.22	264.38	6.98	-33.1	-45.5	3.8	1.49e+00	0	42	104	1063256064	26	14981
2026-01-11 02:40:10.23	264.28	6.91	-33.4	-46.1	3.8	1.49e+00	0	42	104	1063256064	26	15476

#Closed at: 2026-01-11 02:40:10
#Recorded file [1063 MB]: D:/data/31010_260111_053039.dat