passes_logs/2026/01/11/R2M6_AANII_01/R2M6_AANII_01__20260111_025125_NOAA_20_JPSS-1_rec.log

#Pass ID: 20260111_025125_NOAA 20 (JPSS-1)
#Satellite: NOAA 20 (JPSS-1)
#Configuration: NOAA 20
#almurnet v.1.7.20240730
#Start time: 2026-01-11 02:51:25

#Version: 2.2.20231116
#Station: R2M6_AANII_01
#Location: 30.233357 lon 59.946436 lat
#TLE: 1 43013U 17073A   26009.69119415  .00000109  00000+0  72598-4 0  9996
#TLE: 2 43013  98.7631 310.6868 0001678  46.7442 313.3874 14.19534878421981

#Time	Az	El	Level	Level2	SNR	BER	BlckErr	Temp	State	Recorded	gain1	gain2
2026-01-11 02:51:25.34	8.66	6.98	-32.5	-44.5	3.8	1.49e+00	0	39	0	0	25	14186
2026-01-11 02:51:26.35	8.54	7.04	-32.4	-43.0	4.0	1.46e+00	0	39	104	0	24	12211
2026-01-11 02:51:27.36	8.43	7.09	-32.4	-42.8	4.5	1.15e+00	0	40	0	0	24	11951
2026-01-11 02:51:28.36	8.32	7.15	-32.4	-42.7	4.5	1.05e+00	0	39	0	1048576	24	11830
2026-01-11 02:51:29.37	8.20	7.20	-32.4	-42.5	4.6	9.98e-01	0	39	0	3145728	24	11565
2026-01-11 02:51:30.38	8.09	7.26	-32.4	-42.6	4.6	9.93e-01	0	39	0	5242880	24	11676
2026-01-11 02:51:31.38	7.97	7.31	-31.2	-41.5	4.6	9.48e-01	0	40	0	7340032	23	11835
2026-01-11 02:51:32.39	7.85	7.37	-32.4	-42.4	4.6	9.54e-01	0	40	0	9437184	24	11359
2026-01-11 02:51:33.39	7.74	7.43	-32.4	-42.2	4.7	8.93e-01	0	40	0	10485760	24	11164
2026-01-11 02:51:34.40	7.62	7.48	-32.3	-41.3	5.2	7.82e-01	0	40	0	12582912	24	10144
2026-01-11 02:51:35.40	7.50	7.54	-32.1	-40.2	5.8	4.55e-01	0	40	0	14680064	24	9158
2026-01-11 02:51:36.41	7.39	7.59	-32.0	-39.1	6.5	2.99e-01	0	40	0	16777216	24	8187
2026-01-11 02:51:37.42	7.27	7.65	-31.8	-38.8	7.2	1.90e-01	0	40	0	18874368	23	8008
2026-01-11 02:51:38.43	7.15	7.70	-31.6	-37.9	7.9	9.61e-02	0	40	0	19922944	23	7363
2026-01-11 02:51:39.43	7.03	7.76	-31.5	-37.3	8.3	6.26e-02	0	40	0	22020096	23	7002
2026-01-11 02:51:40.44	6.91	7.81	-31.4	-37.1	8.9	3.58e-02	0	40	0	24117248	22	6984
2026-01-11 02:51:41.44	6.79	7.87	-31.3	-36.9	9.0	2.41e-02	0	40	0	26214400	22	6859
2026-01-11 02:51:42.45	6.67	7.92	-31.4	-37.3	8.7	3.20e-02	0	40	0	28311552	22	7117
2026-01-11 02:51:43.45	6.55	7.98	-31.4	-37.4	8.6	4.34e-02	0	40	0	29360128	22	7171
2026-01-11 02:51:44.46	6.43	8.04	-31.4	-37.1	8.9	3.29e-02	0	40	0	31457280	22	6977
2026-01-11 02:51:45.47	6.30	8.09	-31.2	-36.6	9.2	2.19e-02	0	40	0	33554432	22	6710
2026-01-11 02:51:46.48	6.18	8.15	-31.3	-36.9	9.1	2.15e-02	0	40	0	35651584	22	6828
2026-01-11 02:51:47.48	6.06	8.20	-31.2	-36.6	9.3	1.78e-02	0	40	0	37748736	22	6667
2026-01-11 02:51:48.49	5.93	8.26	-31.2	-36.4	9.4	1.46e-02	0	40	0	38797312	22	6578
2026-01-11 02:51:49.49	5.81	8.31	-31.2	-36.5	9.4	2.27e-02	0	40	0	40894464	22	6612
2026-01-11 02:51:50.49	5.69	8.37	-31.3	-36.7	9.2	1.67e-02	0	40	0	42991616	22	6743
2026-01-11 02:51:51.50	5.56	8.42	-31.3	-36.7	9.2	2.28e-02	0	40	0	45088768	22	6709
2026-01-11 02:51:52.50	5.44	8.48	-30.9	-35.5	10.2	1.29e-02	0	40	0	47185920	22	6063
2026-01-11 02:51:53.50	5.31	8.53	-30.8	-35.6	10.4	5.06e-03	0	40	0	48234496	21	6235
2026-01-11 02:51:54.51	5.19	8.59	-30.7	-35.2	10.8	3.79e-03	0	40	0	50331648	21	6017
2026-01-11 02:51:55.51	5.06	8.64	-30.9	-35.7	10.4	6.64e-03	0	40	0	52428800	21	6271
2026-01-11 02:51:56.52	4.93	8.70	-30.9	-35.8	10.3	9.94e-03	0	41	0	54525952	21	6352
2026-01-11 02:51:57.53	4.80	8.75	-30.8	-35.5	10.6	3.81e-03	0	41	0	56623104	21	6201
2026-01-11 02:51:58.53	4.67	8.81	-30.8	-35.6	10.5	6.51e-03	0	40	0	57671680	21	6205
2026-01-11 02:51:59.53	4.55	8.86	-30.8	-35.4	10.6	6.88e-03	0	41	0	59768832	21	6130
2026-01-11 02:52:00.54	4.42	8.92	-30.9	-35.7	10.5	5.70e-03	0	41	0	61865984	21	6254
2026-01-11 02:52:01.55	4.29	8.98	-30.9	-35.7	10.5	6.88e-03	0	40	0	63963136	21	6262
2026-01-11 02:52:02.56	4.16	9.03	-31.1	-35.9	9.9	9.09e-03	0	41	0	66060288	22	6278
2026-01-11 02:52:03.56	4.03	9.09	-31.0	-35.6	10.2	5.51e-03	0	41	0	67108864	22	6093
2026-01-11 02:52:04.57	3.89	9.14	-30.8	-35.5	10.6	5.39e-03	0	40	0	69206016	21	6180
2026-01-11 02:52:05.57	3.76	9.20	-30.8	-35.6	10.5	6.80e-03	0	41	0	71303168	21	6217
2026-01-11 02:52:06.58	3.63	9.25	-30.9	-35.7	10.5	3.66e-03	0	41	0	73400320	21	6245
2026-01-11 02:52:07.58	3.50	9.31	-30.9	-35.9	10.3	7.39e-03	0	41	0	74448896	21	6384
2026-01-11 02:52:08.58	3.36	9.36	-30.9	-35.8	10.4	8.52e-03	0	41	0	76546048	21	6294
2026-01-11 02:52:09.59	3.23	9.42	-30.9	-35.8	10.4	4.44e-03	0	41	0	78643200	21	6337
2026-01-11 02:52:10.59	3.10	9.47	-31.0	-35.6	10.3	8.57e-03	0	41	0	80740352	22	6091
2026-01-11 02:52:11.59	2.96	9.53	-31.0	-35.6	10.3	5.55e-03	0	41	0	82837504	22	6083
2026-01-11 02:52:12.60	2.83	9.58	-31.0	-35.7	10.2	6.50e-03	0	41	0	84934656	22	6151
2026-01-11 02:52:13.60	2.69	9.64	-31.0	-35.6	10.3	8.95e-03	0	41	0	85983232	22	6088
2026-01-11 02:52:14.61	2.55	9.69	-31.1	-35.9	10.1	9.19e-03	0	41	0	88080384	22	6228
2026-01-11 02:52:15.62	2.41	9.75	-31.2	-36.1	9.9	7.90e-03	0	41	0	90177536	22	6346
2026-01-11 02:52:16.63	2.28	9.80	-31.2	-36.1	9.9	1.37e-02	0	41	0	92274688	22	6343
2026-01-11 02:52:17.63	2.14	9.86	-31.1	-35.7	10.2	1.06e-02	0	41	0	93323264	22	6164
2026-01-11 02:52:18.64	2.00	9.91	-31.0	-35.6	10.3	4.51e-03	0	41	0	95420416	22	6067
2026-01-11 02:52:19.64	1.86	9.96	-31.1	-35.7	10.3	8.58e-03	0	41	0	97517568	22	6133
2026-01-11 02:52:20.65	1.72	10.02	-31.1	-35.7	10.3	8.66e-03	0	41	0	99614720	22	6129
2026-01-11 02:52:21.66	1.58	10.07	-31.1	-35.8	10.2	5.77e-03	0	41	0	101711872	22	6198
2026-01-11 02:52:22.67	1.44	10.13	-31.1	-35.8	10.2	6.56e-03	0	41	0	102760448	22	6185
2026-01-11 02:52:23.67	1.30	10.18	-31.0	-35.3	10.6	8.37e-03	0	41	0	104857600	22	5939
2026-01-11 02:52:24.67	1.16	10.24	-30.7	-35.1	11.0	3.37e-03	0	41	0	106954752	21	5939
2026-01-11 02:52:25.68	1.01	10.29	-30.8	-35.1	11.0	1.79e-03	0	41	0	109051904	21	5968
2026-01-11 02:52:26.69	0.87	10.35	-30.8	-35.4	10.8	4.87e-03	0	41	0	111149056	21	6099
2026-01-11 02:52:27.69	0.73	10.40	-30.8	-35.3	11.0	2.92e-03	0	41	0	112197632	21	6029
2026-01-11 02:52:28.69	0.58	10.45	-30.7	-35.1	11.1	1.78e-03	0	41	0	114294784	21	5930
2026-01-11 02:52:29.70	0.44	10.51	-30.7	-35.1	11.1	1.45e-03	0	41	0	116391936	21	5936
2026-01-11 02:52:30.71	0.29	10.56	-30.7	-35.1	11.1	1.67e-03	0	41	0	118489088	21	5941
2026-01-11 02:52:31.72	0.15	10.62	-30.8	-35.2	11.0	1.82e-03	0	41	0	120586240	21	6009
2026-01-11 02:52:32.72	0.00	10.67	-30.8	-35.2	11.0	2.05e-03	0	41	0	121634816	21	5985
2026-01-11 02:52:33.72	359.85	10.72	-30.8	-35.3	10.9	2.22e-03	0	41	0	123731968	21	6064
2026-01-11 02:52:34.72	359.71	10.78	-30.9	-35.5	10.8	5.43e-03	0	41	0	125829120	21	6126
2026-01-11 02:52:35.73	359.56	10.83	-30.8	-35.4	10.9	2.47e-03	0	41	0	127926272	21	6070
2026-01-11 02:52:36.73	359.41	10.89	-31.0	-35.8	10.6	2.82e-03	0	41	0	130023424	21	6262
2026-01-11 02:52:37.74	359.26	10.94	-30.9	-35.7	10.6	5.80e-03	0	41	0	131072000	21	6254
2026-01-11 02:52:38.74	359.11	10.99	-30.9	-35.7	10.7	3.10e-03	0	41	0	133169152	21	6226
2026-01-11 02:52:39.75	358.96	11.05	-30.8	-35.4	10.8	3.13e-03	0	41	0	135266304	21	6103
2026-01-11 02:52:40.75	358.81	11.10	-30.7	-34.9	11.2	1.86e-03	0	41	0	137363456	21	5860
2026-01-11 02:52:41.76	358.66	11.15	-30.8	-35.4	10.9	2.07e-03	0	41	0	139460608	21	6077
2026-01-11 02:52:42.77	358.51	11.21	-30.9	-35.5	10.8	2.98e-03	0	41	0	140509184	21	6133
2026-01-11 02:52:43.77	358.36	11.26	-30.8	-35.3	11.0	1.83e-03	0	41	0	142606336	21	6016
2026-01-11 02:52:44.78	358.20	11.31	-30.8	-35.4	11.0	4.77e-03	0	41	0	144703488	21	6061
2026-01-11 02:52:45.78	358.05	11.37	-30.8	-35.3	11.0	2.30e-03	0	41	0	146800640	21	6039
2026-01-11 02:52:46.79	357.90	11.42	-31.0	-35.5	10.5	2.69e-03	0	41	0	148897792	22	6004
2026-01-11 02:52:47.80	357.74	11.47	-31.0	-35.2	10.7	4.03e-03	0	41	0	149946368	22	5894
2026-01-11 02:52:48.80	357.59	11.52	-30.9	-35.4	10.9	2.43e-03	0	41	0	152043520	21	6091
2026-01-11 02:52:49.80	357.43	11.58	-30.9	-35.6	10.8	2.51e-03	0	41	0	154140672	21	6189
2026-01-11 02:52:50.80	357.27	11.63	-30.9	-35.7	10.7	2.90e-03	0	41	0	156237824	21	6248
2026-01-11 02:52:51.81	357.12	11.68	-30.9	-35.6	10.7	2.84e-03	0	41	0	158334976	21	6181
2026-01-11 02:52:52.82	356.96	11.73	-31.1	-35.6	10.5	3.35e-03	0	41	0	159383552	22	6046
2026-01-11 02:52:53.82	356.80	11.79	-31.1	-35.7	10.4	4.54e-03	0	41	0	161480704	22	6090
2026-01-11 02:52:54.83	356.64	11.84	-31.1	-35.7	10.4	4.78e-03	0	41	0	163577856	22	6084
2026-01-11 02:52:55.83	356.48	11.89	-31.0	-35.5	10.5	3.12e-03	0	41	0	165675008	22	5995
2026-01-11 02:52:56.83	356.33	11.94	-31.1	-35.5	10.5	3.79e-03	0	41	0	167772160	22	6024
2026-01-11 02:52:57.84	356.16	11.99	-31.1	-35.8	10.3	4.24e-03	0	41	0	168820736	22	6136
2026-01-11 02:52:58.84	356.00	12.04	-31.1	-35.6	10.5	4.83e-03	0	41	0	170917888	22	6050
2026-01-11 02:52:59.85	355.84	12.10	-30.9	-35.5	10.8	3.27e-03	0	41	0	173015040	21	6133
2026-01-11 02:53:00.85	355.68	12.15	-31.0	-35.8	10.4	2.64e-03	0	41	0	175112192	21	6248
2026-01-11 02:53:01.86	355.52	12.20	-31.0	-35.4	10.6	2.47e-03	0	41	0	177209344	22	5936
2026-01-11 02:53:02.86	355.35	12.25	-31.0	-35.2	10.8	2.68e-03	0	41	0	178257920	22	5865
2026-01-11 02:53:03.87	355.19	12.30	-31.2	-36.1	10.1	5.78e-03	0	41	0	180355072	22	6303
2026-01-11 02:53:04.88	355.02	12.35	-31.1	-35.5	10.5	5.74e-03	0	41	0	182452224	22	6023
2026-01-11 02:53:05.88	354.86	12.40	-30.8	-35.2	11.1	2.04e-03	0	41	0	184549376	21	5984
2026-01-11 02:53:06.89	354.69	12.45	-30.7	-34.9	11.3	1.77e-03	0	41	0	186646528	21	5842
2026-01-11 02:53:07.90	354.53	12.51	-30.6	-34.5	11.7	9.83e-04	0	41	0	187695104	21	5658
2026-01-11 02:53:08.90	354.36	12.56	-30.5	-34.6	11.9	8.77e-04	0	41	0	189792256	20	5803
2026-01-11 02:53:09.91	354.19	12.61	-30.6	-34.7	11.5	7.16e-04	0	41	0	191889408	21	5718
2026-01-11 02:53:10.91	354.03	12.66	-30.8	-35.1	11.2	1.13e-03	0	41	0	193986560	21	5918
2026-01-11 02:53:11.92	353.86	12.71	-30.6	-34.7	11.6	1.35e-03	0	41	0	196083712	21	5712
2026-01-11 02:53:12.93	353.69	12.76	-30.4	-34.5	12.1	4.96e-04	0	41	0	197132288	20	5739
2026-01-11 02:53:13.93	353.52	12.81	-30.2	-33.8	12.5	1.79e-04	0	41	0	199229440	20	5463
2026-01-11 02:53:14.94	353.35	12.86	-30.2	-33.8	12.5	3.46e-04	0	41	0	201326592	20	5438
2026-01-11 02:53:15.95	353.18	12.90	-30.2	-33.7	12.6	1.51e-03	0	41	0	203423744	20	5392
2026-01-11 02:53:16.95	353.00	12.95	-30.3	-34.0	12.4	1.25e-04	0	41	0	205520896	20	5529
2026-01-11 02:53:17.96	352.83	13.00	-30.3	-34.0	12.4	3.64e-04	0	41	0	206569472	20	5534
2026-01-11 02:53:18.97	352.66	13.05	-30.3	-34.2	12.3	1.74e-03	0	41	0	208666624	20	5613
2026-01-11 02:53:19.97	352.49	13.10	-30.5	-34.6	12.1	1.94e-04	0	42	0	210763776	20	5770
2026-01-11 02:53:20.98	352.31	13.15	-30.3	-34.2	12.3	5.40e-04	0	41	0	212860928	20	5594
2026-01-11 02:53:21.98	352.14	13.20	-30.3	-34.1	12.4	1.30e-03	0	42	0	214958080	20	5554
2026-01-11 02:53:22.99	351.96	13.25	-30.3	-34.0	12.4	1.23e-03	0	41	0	216006656	20	5554
2026-01-11 02:53:23.98	351.79	13.29	-30.2	-33.7	12.6	3.62e-04	0	42	0	218103808	20	5414
2026-01-11 02:53:24.99	351.61	13.34	-30.2	-33.8	12.6	1.12e-03	0	41	0	220200960	20	5427
2026-01-11 02:53:26.00	351.43	13.39	-30.1	-33.5	12.8	1.10e-03	0	42	0	222298112	20	5330
2026-01-11 02:53:27.01	351.26	13.44	-30.1	-33.6	12.7	3.04e-04	0	42	0	224395264	20	5345
2026-01-11 02:53:28.02	351.08	13.49	-30.3	-34.1	12.4	3.73e-04	0	42	0	225443840	20	5558
2026-01-11 02:53:29.02	350.90	13.53	-30.1	-33.6	12.8	1.42e-03	0	42	0	227540992	20	5355
2026-01-11 02:53:30.03	350.72	13.58	-30.0	-33.2	13.0	4.11e-05	0	42	0	229638144	20	5198
2026-01-11 02:53:31.03	350.54	13.63	-30.0	-33.1	13.1	3.36e-04	0	42	0	231735296	20	5149
2026-01-11 02:53:32.04	350.36	13.67	-29.9	-33.5	13.3	1.50e-03	0	41	0	233832448	19	5396
2026-01-11 02:53:33.04	350.18	13.72	-29.9	-33.3	13.4	1.44e-05	0	42	0	234881024	19	5336
2026-01-11 02:53:34.05	350.00	13.77	-29.9	-33.3	13.3	1.60e-03	0	42	0	236978176	19	5353
2026-01-11 02:53:35.05	349.82	13.81	-29.8	-33.0	13.5	1.82e-03	0	42	0	239075328	19	5235
2026-01-11 02:53:36.05	349.64	13.86	-29.9	-33.4	13.3	2.51e-05	0	41	0	241172480	19	5372
2026-01-11 02:53:37.06	349.45	13.90	-30.0	-33.2	13.1	1.87e-03	0	42	0	243269632	20	5185
2026-01-11 02:53:38.07	349.27	13.95	-30.3	-34.0	12.5	1.89e-03	0	41	0	244318208	20	5512
2026-01-11 02:53:39.08	349.08	13.99	-30.0	-33.1	13.1	8.08e-05	0	41	0	246415360	20	5153
2026-01-11 02:53:40.09	348.90	14.04	-30.1	-33.4	12.9	1.76e-03	0	42	0	248512512	20	5255
2026-01-11 02:53:41.09	348.71	14.08	-30.0	-33.2	13.1	1.54e-03	0	42	0	250609664	20	5180
2026-01-11 02:53:42.10	348.53	14.13	-29.9	-33.0	13.2	2.67e-05	0	41	0	252706816	20	5125
2026-01-11 02:53:43.11	348.34	14.17	-30.1	-33.5	12.9	1.39e-03	0	42	0	253755392	20	5305
2026-01-11 02:53:44.11	348.15	14.22	-30.0	-33.2	13.0	1.10e-03	0	42	0	255852544	20	5214
2026-01-11 02:53:45.11	347.97	14.26	-30.0	-33.3	13.0	3.35e-05	0	42	0	257949696	20	5262
2026-01-11 02:53:46.12	347.78	14.31	-30.1	-33.6	12.8	4.78e-04	0	42	0	260046848	20	5383
2026-01-11 02:53:47.13	347.59	14.35	-30.3	-34.1	12.4	4.13e-04	0	42	0	261095424	20	5596
2026-01-11 02:53:48.14	347.40	14.39	-30.1	-33.4	12.9	8.77e-05	0	42	0	263192576	20	5308
2026-01-11 02:53:49.15	347.21	14.44	-29.9	-33.0	13.2	2.97e-05	0	42	0	265289728	20	5129
2026-01-11 02:53:50.15	347.02	14.48	-30.0	-33.6	13.0	3.54e-04	0	42	0	267386880	19	5451
2026-01-11 02:53:51.16	346.83	14.52	-30.1	-33.3	12.9	3.12e-05	0	42	0	269484032	20	5233
2026-01-11 02:53:52.16	346.64	14.56	-30.2	-33.6	12.8	5.03e-05	0	42	0	271581184	20	5352
2026-01-11 02:53:53.17	346.44	14.61	-30.1	-33.5	12.9	6.93e-04	0	42	0	272629760	20	5301
2026-01-11 02:53:54.17	346.25	14.65	-30.2	-33.7	12.7	5.56e-05	0	41	0	274726912	20	5407
2026-01-11 02:53:55.18	346.06	14.69	-30.2	-33.7	12.8	5.56e-05	0	42	0	276824064	20	5411
2026-01-11 02:53:56.19	345.86	14.73	-30.2	-33.7	12.7	7.93e-05	0	42	0	278921216	20	5397
2026-01-11 02:53:57.19	345.67	14.77	-30.3	-34.0	12.5	8.92e-05	0	42	0	281018368	20	5524
2026-01-11 02:53:58.19	345.47	14.81	-30.4	-34.2	12.4	2.49e-03	0	42	0	282066944	20	5589
2026-01-11 02:53:59.20	345.28	14.85	-30.4	-34.4	12.3	1.52e-04	0	42	0	284164096	20	5663
2026-01-11 02:54:00.20	345.08	14.89	-30.5	-34.1	12.1	2.85e-04	0	42	0	286261248	21	5454
2026-01-11 02:54:01.20	344.89	14.93	-30.4	-34.2	12.4	2.38e-03	0	42	0	288358400	20	5607
2026-01-11 02:54:02.21	344.69	14.97	-30.6	-34.4	11.9	5.25e-04	0	42	0	289406976	21	5574
2026-01-11 02:54:03.22	344.49	15.01	-30.7	-34.8	11.7	5.57e-04	0	42	0	291504128	21	5752
2026-01-11 02:54:04.22	344.29	15.05	-30.6	-34.3	12.0	3.11e-03	0	42	0	293601280	21	5549
2026-01-11 02:54:05.22	344.10	15.09	-30.5	-34.1	12.1	5.42e-04	0	42	0	295698432	21	5460
2026-01-11 02:54:06.23	343.90	15.13	-30.4	-33.9	12.3	1.49e-04	0	42	0	297795584	21	5381
2026-01-11 02:54:07.23	343.70	15.17	-30.2	-33.8	12.7	1.32e-04	0	42	0	298844160	20	5424
2026-01-11 02:54:08.24	343.50	15.20	-30.3	-34.0	12.6	2.28e-03	0	42	0	300941312	20	5501
2026-01-11 02:54:09.25	343.30	15.24	-30.4	-33.8	12.3	3.13e-04	0	42	0	303038464	21	5320
2026-01-11 02:54:10.26	343.09	15.28	-30.1	-33.5	12.9	9.15e-05	0	42	0	305135616	20	5298
2026-01-11 02:54:11.27	342.89	15.32	-29.9	-32.9	13.3	2.55e-03	0	42	0	307232768	20	5073
2026-01-11 02:54:12.28	342.69	15.35	-29.9	-32.7	13.5	4.88e-05	0	42	0	308281344	20	4998
2026-01-11 02:54:13.28	342.49	15.39	-29.8	-32.9	13.8	8.30e-06	0	42	0	310378496	19	5166
2026-01-11 02:54:14.28	342.28	15.43	-29.8	-33.1	13.6	6.80e-06	0	42	0	312475648	19	5234
2026-01-11 02:54:15.28	342.08	15.46	-29.7	-32.8	13.8	1.60e-04	0	42	0	314572800	19	5119
2026-01-11 02:54:16.28	341.88	15.50	-29.6	-32.6	13.9	1.50e-06	0	42	0	316669952	19	5045
2026-01-11 02:54:17.29	341.67	15.53	-29.6	-32.5	14.0	3.00e-06	0	42	0	317718528	19	5024
2026-01-11 02:54:18.30	341.47	15.57	-29.6	-32.4	14.1	1.83e-04	0	42	0	319815680	19	4998
2026-01-11 02:54:19.30	341.26	15.60	-29.6	-32.4	14.1	1.50e-06	0	42	0	321912832	19	4967
2026-01-11 02:54:20.31	341.06	15.64	-29.7	-32.6	14.0	1.57e-04	0	42	0	324009984	19	5053
2026-01-11 02:54:21.32	340.85	15.67	-29.7	-32.7	13.9	6.10e-06	0	42	0	326107136	19	5105
2026-01-11 02:54:22.32	340.64	15.70	-29.8	-33.1	13.6	6.10e-06	0	42	0	327155712	19	5246
2026-01-11 02:54:23.33	340.43	15.74	-29.7	-32.7	13.4	2.59e-05	0	42	0	329252864	20	5049
2026-01-11 02:54:24.34	340.22	15.77	-29.5	-32.5	12.9	9.10e-06	0	42	0	331350016	19	5057
2026-01-11 02:54:25.34	340.02	15.80	-29.6	-32.6	13.6	2.20e-06	0	42	0	333447168	19	5066
2026-01-11 02:54:26.35	339.81	15.83	-29.7	-32.8	13.8	7.00e-07	0	42	0	335544320	19	5114
2026-01-11 02:54:27.36	339.60	15.87	-29.8	-32.9	13.7	9.10e-06	0	42	0	336592896	19	5172
2026-01-11 02:54:28.36	339.39	15.90	-29.6	-32.5	14.1	2.65e-03	0	42	0	338690048	19	5002
2026-01-11 02:54:29.36	339.18	15.93	-29.7	-32.7	13.8	8.01e-05	0	42	0	340787200	19	5100
2026-01-11 02:54:30.37	338.97	15.96	-29.8	-32.9	13.8	1.62e-04	0	42	0	342884352	19	5149
2026-01-11 02:54:31.38	338.75	15.99	-29.7	-32.8	13.8	2.20e-06	0	42	0	344981504	19	5116
2026-01-11 02:54:32.37	338.55	16.02	-29.8	-32.9	13.7	2.99e-04	0	42	0	346030080	19	5171
2026-01-11 02:54:33.38	338.33	16.05	-29.8	-33.1	13.6	3.32e-04	0	42	0	348127232	19	5224
2026-01-11 02:54:34.39	338.12	16.08	-30.0	-33.0	13.3	9.90e-06	0	42	0	350224384	20	5100
2026-01-11 02:54:35.40	337.91	16.11	-30.2	-33.7	12.8	2.06e-04	0	42	0	352321536	20	5357
2026-01-11 02:54:36.40	337.69	16.14	-30.3	-33.9	12.7	9.46e-05	0	42	0	354418688	20	5470
2026-01-11 02:54:37.41	337.48	16.17	-30.0	-33.1	13.2	4.65e-05	0	42	0	355467264	20	5153
2026-01-11 02:54:38.41	337.27	16.19	-29.8	-32.6	13.5	1.87e-04	0	42	0	357564416	20	4964
2026-01-11 02:54:39.42	337.05	16.22	-29.8	-33.0	13.7	2.68e-03	0	42	0	359661568	19	5215
2026-01-11 02:54:40.41	336.84	16.25	-29.8	-33.1	13.7	3.00e-06	0	42	0	361758720	19	5244
2026-01-11 02:54:41.42	336.62	16.27	-29.8	-32.9	13.7	1.65e-04	0	42	0	363855872	19	5164
2026-01-11 02:54:42.43	336.41	16.30	-29.6	-32.4	14.1	2.51e-03	0	42	0	364904448	19	4969
2026-01-11 02:54:43.44	336.19	16.33	-29.5	-32.1	14.3	2.20e-06	0	42	0	367001600	19	4863
2026-01-11 02:54:44.44	335.97	16.35	-29.4	-32.0	14.3	2.87e-04	0	42	0	369098752	19	4852
2026-01-11 02:54:45.44	335.76	16.38	-29.4	-32.4	14.3	2.27e-03	0	42	0	371195904	18	5106
2026-01-11 02:54:46.44	335.54	16.40	-29.4	-32.5	14.4	2.52e-03	0	42	0	373293056	18	5119
2026-01-11 02:54:47.44	335.32	16.43	-29.4	-32.5	14.3	3.84e-04	0	42	0	374341632	18	5128
2026-01-11 02:54:48.45	335.11	16.45	-29.5	-32.2	14.2	2.54e-03	0	42	0	376438784	19	4914
2026-01-11 02:54:49.46	334.89	16.47	-29.7	-32.7	13.9	2.53e-03	0	42	0	378535936	19	5082
2026-01-11 02:54:50.46	334.67	16.50	-29.7	-32.8	13.8	1.43e-04	0	42	0	380633088	19	5119
2026-01-11 02:54:51.47	334.45	16.52	-29.5	-32.6	14.3	9.90e-06	0	42	0	382730240	18	5171
2026-01-11 02:54:52.48	334.23	16.54	-29.4	-32.4	14.4	2.28e-03	0	42	0	383778816	18	5081
2026-01-11 02:54:53.49	334.01	16.57	-29.6	-32.5	14.0	3.00e-06	0	42	0	385875968	19	5027
2026-01-11 02:54:54.49	333.79	16.59	-29.7	-32.8	13.8	6.10e-06	0	42	0	387973120	19	5110
2026-01-11 02:54:55.49	333.57	16.61	-29.7	-32.6	13.9	2.63e-03	0	42	0	390070272	19	5068
2026-01-11 02:54:56.50	333.35	16.63	-29.7	-32.8	13.8	3.80e-06	0	42	0	392167424	19	5116
2026-01-11 02:54:57.51	333.13	16.65	-29.8	-33.0	13.7	2.78e-03	0	42	0	393216000	19	5180
2026-01-11 02:54:58.51	332.91	16.67	-30.0	-33.4	13.4	2.49e-03	0	42	0	395313152	19	5348
2026-01-11 02:54:59.52	332.68	16.69	-30.0	-33.4	13.4	1.37e-05	0	42	0	397410304	19	5362
2026-01-11 02:55:00.52	332.46	16.71	-30.1	-33.5	13.0	2.54e-03	0	42	0	399507456	20	5281
2026-01-11 02:55:01.53	332.24	16.73	-30.1	-33.4	13.0	2.42e-03	0	42	0	401604608	20	5264
2026-01-11 02:55:02.53	332.02	16.74	-30.2	-33.6	13.0	2.82e-05	0	42	0	402653184	20	5326
2026-01-11 02:55:03.54	331.80	16.76	-30.1	-33.4	13.0	2.35e-03	0	42	0	404750336	20	5267
2026-01-11 02:55:04.54	331.57	16.78	-29.9	-32.8	13.4	2.60e-03	0	42	0	406847488	20	5033
2026-01-11 02:55:05.55	331.35	16.80	-29.8	-32.6	13.6	1.14e-05	0	42	0	408944640	20	4950
2026-01-11 02:55:06.55	331.13	16.81	-29.8	-33.0	13.7	2.52e-03	0	42	0	411041792	19	5194
2026-01-11 02:55:07.56	330.90	16.83	-29.9	-33.3	13.5	2.47e-03	0	42	0	412090368	19	5319
2026-01-11 02:55:08.57	330.68	16.85	-29.9	-32.8	13.4	1.37e-05	0	42	0	414187520	20	5030
2026-01-11 02:55:09.57	330.45	16.86	-30.0	-33.0	13.3	2.52e-03	0	42	0	416284672	20	5106
2026-01-11 02:55:10.57	330.23	16.87	-30.0	-33.1	13.3	2.35e-03	0	42	0	418381824	20	5124
2026-01-11 02:55:11.58	330.01	16.89	-30.0	-33.0	13.3	1.52e-05	0	42	0	419430400	20	5096
2026-01-11 02:55:12.58	329.78	16.90	-30.0	-33.1	13.2	2.19e-04	0	42	0	421527552	20	5136
2026-01-11 02:55:13.59	329.56	16.92	-30.1	-33.3	13.1	2.65e-03	0	42	0	423624704	20	5196
2026-01-11 02:55:14.59	329.33	16.93	-30.0	-33.2	13.2	3.12e-05	0	42	0	425721856	20	5156
2026-01-11 02:55:15.60	329.11	16.94	-30.1	-33.2	13.2	1.90e-05	0	42	0	427819008	20	5188
2026-01-11 02:55:16.61	328.88	16.95	-30.2	-33.5	13.0	2.59e-03	0	42	0	429916160	20	5309
2026-01-11 02:55:17.61	328.65	16.97	-29.1	-32.6	12.8	3.96e-05	0	42	0	430964736	20	5387
2026-01-11 02:55:18.62	328.43	16.98	-30.3	-33.8	12.8	6.10e-05	0	42	0	433061888	20	5411
2026-01-11 02:55:19.62	328.20	16.99	-30.3	-33.8	12.6	6.71e-05	0	42	0	435159040	20	5406
2026-01-11 02:55:20.63	327.97	17.00	-30.3	-33.9	12.5	1.67e-04	0	42	0	437256192	20	5455
2026-01-11 02:55:21.63	327.75	17.01	-30.2	-33.7	12.9	2.40e-03	0	42	0	438304768	20	5347
2026-01-11 02:55:22.64	327.52	17.02	-30.1	-33.4	13.0	3.12e-05	0	42	0	440401920	20	5242
2026-01-11 02:55:23.64	327.30	17.03	-30.0	-33.0	13.3	1.56e-04	0	42	0	442499072	20	5101
2026-01-11 02:55:24.65	327.07	17.04	-30.0	-33.5	13.4	2.42e-03	0	42	0	444596224	19	5374
2026-01-11 02:55:25.65	326.84	17.04	-30.0	-33.4	13.4	1.83e-05	0	42	0	446693376	19	5358
2026-01-11 02:55:26.66	326.61	17.05	-29.9	-32.9	13.4	1.60e-05	0	42	0	447741952	20	5071
2026-01-11 02:55:27.67	326.39	17.06	-30.1	-33.4	13.1	2.51e-03	0	42	0	449839104	20	5239
2026-01-11 02:55:28.67	326.16	17.06	-30.1	-33.5	13.0	3.35e-04	0	42	0	451936256	20	5280
2026-01-11 02:55:29.68	325.93	17.07	-30.1	-33.4	13.0	3.35e-05	0	42	0	454033408	20	5270
2026-01-11 02:55:30.69	325.70	17.08	-30.1	-33.4	13.0	3.81e-05	0	42	0	456130560	20	5250
2026-01-11 02:55:31.69	325.48	17.08	-30.1	-33.3	13.1	1.61e-04	0	42	0	458227712	20	5214
2026-01-11 02:55:32.70	325.25	17.09	-30.2	-33.5	13.0	3.12e-05	0	42	0	459276288	20	5298
2026-01-11 02:55:33.71	325.02	17.09	-30.3	-34.0	12.7	4.57e-05	0	42	0	461373440	20	5492
2026-01-11 02:55:34.72	324.79	17.10	-30.3	-33.9	12.7	2.51e-03	0	42	0	463470592	20	5449
2026-01-11 02:55:35.72	324.56	17.10	-30.2	-33.6	12.9	2.01e-04	0	42	0	465567744	20	5319
2026-01-11 02:55:36.72	324.34	17.10	-30.1	-33.3	13.1	3.89e-05	0	42	0	466616320	20	5209
2026-01-11 02:55:37.73	324.11	17.10	-30.2	-33.5	13.0	3.43e-05	0	42	0	468713472	20	5301
2026-01-11 02:55:38.74	323.88	17.11	-30.1	-33.4	13.1	3.27e-04	0	42	0	470810624	20	5263
2026-01-11 02:55:39.74	323.65	17.11	-30.2	-33.6	12.9	4.50e-05	0	42	0	472907776	20	5322
2026-01-11 02:55:40.75	323.42	17.11	-30.1	-33.4	13.1	4.19e-05	0	42	0	475004928	20	5241
2026-01-11 02:55:41.75	323.20	17.11	-30.1	-33.3	13.1	3.97e-04	0	42	0	477102080	20	5223
2026-01-11 02:55:42.76	322.97	17.11	-30.1	-33.3	13.2	2.59e-05	0	42	0	478150656	20	5215
2026-01-11 02:55:43.77	322.74	17.11	-30.0	-33.1	13.2	2.89e-05	0	42	0	480247808	20	5139
2026-01-11 02:55:44.77	322.51	17.11	-30.1	-33.2	13.1	2.28e-05	0	42	0	482344960	20	5191
2026-01-11 02:55:45.78	322.28	17.11	-30.1	-33.2	13.1	2.05e-05	0	42	0	484442112	20	5189
2026-01-11 02:55:46.79	322.05	17.11	-30.1	-33.3	13.1	2.37e-04	0	42	0	485490688	20	5203
2026-01-11 02:55:47.79	321.82	17.10	-30.1	-33.4	13.0	3.05e-05	0	42	0	487587840	20	5255
2026-01-11 02:55:48.80	321.60	17.10	-30.0	-33.2	13.1	2.51e-05	0	42	0	489684992	20	5163
2026-01-11 02:55:49.81	321.37	17.10	-30.0	-33.0	13.3	1.83e-05	0	42	0	491782144	20	5091
2026-01-11 02:55:50.82	321.14	17.09	-30.0	-33.0	13.3	1.67e-05	0	42	0	493879296	20	5103
2026-01-11 02:55:51.82	320.91	17.09	-29.9	-33.3	13.5	2.47e-03	0	42	0	494927872	19	5304
2026-01-11 02:55:52.83	320.68	17.09	-29.9	-33.1	13.6	1.86e-04	0	42	0	497025024	19	5247
2026-01-11 02:55:53.83	320.46	17.08	-29.9	-33.2	13.5	3.25e-04	0	42	0	499122176	19	5278
2026-01-11 02:55:54.84	320.23	17.08	-29.8	-33.1	13.6	6.80e-06	0	42	0	501219328	19	5245
2026-01-11 02:55:55.84	320.00	17.07	-30.0	-33.4	13.4	4.29e-04	0	42	0	503316480	19	5351
2026-01-11 02:55:56.85	319.77	17.06	-29.9	-32.9	13.4	4.55e-04	0	42	0	505413632	20	5077
2026-01-11 02:55:57.86	319.54	17.06	-30.1	-33.3	13.1	1.67e-05	0	42	0	506462208	20	5223
2026-01-11 02:55:58.86	319.32	17.05	-30.0	-33.1	13.2	8.35e-04	0	42	0	508559360	20	5143
2026-01-11 02:55:59.87	319.09	17.04	-30.1	-33.2	13.2	2.36e-04	0	42	0	510656512	20	5188
2026-01-11 02:56:00.87	318.86	17.03	-30.0	-33.2	13.2	2.21e-05	0	42	0	512753664	20	5161
2026-01-11 02:56:01.87	318.64	17.03	-30.0	-33.1	13.2	3.61e-04	0	42	0	513802240	20	5138
2026-01-11 02:56:02.88	318.41	17.02	-30.0	-33.1	13.2	2.97e-05	0	42	0	515899392	20	5139
2026-01-11 02:56:03.88	318.18	17.01	-30.0	-33.1	13.2	1.75e-05	0	42	0	517996544	20	5134
2026-01-11 02:56:04.88	317.96	17.00	-30.1	-33.3	13.1	2.21e-05	0	42	0	520093696	20	5201
2026-01-11 02:56:05.89	317.73	16.99	-30.1	-33.4	13.0	2.08e-03	0	42	0	522190848	20	5268
2026-01-11 02:56:06.89	317.51	16.98	-30.0	-33.2	13.1	2.59e-05	0	42	0	523239424	20	5175
2026-01-11 02:56:07.90	317.28	16.96	-30.0	-33.1	13.2	2.36e-05	0	42	0	525336576	20	5128
2026-01-11 02:56:08.90	317.05	16.95	-30.1	-33.5	13.0	1.99e-03	0	42	0	527433728	20	5285
2026-01-11 02:56:09.91	316.83	16.94	-29.9	-32.8	13.4	2.03e-03	0	42	0	529530880	20	5045
2026-01-11 02:56:10.92	316.60	16.93	-29.9	-33.4	13.4	1.22e-05	0	42	0	531628032	19	5349
2026-01-11 02:56:11.92	316.38	16.91	-30.0	-33.0	13.3	2.30e-03	0	42	0	532676608	20	5116
2026-01-11 02:56:12.93	316.15	16.90	-30.0	-33.1	13.2	2.12e-03	0	42	0	534773760	20	5137
2026-01-11 02:56:13.94	315.92	16.89	-30.4	-34.2	12.5	4.65e-05	0	42	0	536870912	20	5570
2026-01-11 02:56:14.94	315.70	16.87	-30.2	-33.8	12.8	2.27e-03	0	42	0	538968064	20	5408
2026-01-11 02:56:15.95	315.47	16.86	-30.1	-33.5	12.9	2.51e-03	0	42	0	541065216	20	5285
2026-01-11 02:56:16.96	315.25	16.84	-29.9	-32.8	13.4	5.07e-04	0	42	0	542113792	20	5043
2026-01-11 02:56:17.97	315.02	16.83	-29.9	-33.2	13.5	8.23e-05	0	42	0	544210944	19	5298
2026-01-11 02:56:18.97	314.80	16.81	-29.9	-33.3	13.5	1.96e-03	0	42	0	546308096	19	5309
2026-01-11 02:56:19.98	314.58	16.79	-29.8	-33.0	13.7	2.98e-04	0	42	0	548405248	19	5204
2026-01-11 02:56:20.98	314.35	16.78	-29.9	-33.1	13.6	9.75e-04	0	42	0	550502400	19	5256
2026-01-11 02:56:21.99	314.13	16.76	-29.7	-32.9	13.8	1.53e-03	0	42	0	551550976	19	5149
2026-01-11 02:56:23.00	313.91	16.74	-29.7	-32.7	13.8	9.38e-05	0	42	0	553648128	19	5099
2026-01-11 02:56:24.01	313.68	16.72	-29.8	-32.9	13.8	2.51e-03	0	42	0	555745280	19	5170
2026-01-11 02:56:25.01	313.46	16.70	-29.6	-32.5	14.0	2.50e-03	0	42	0	557842432	19	5010
2026-01-11 02:56:26.01	313.24	16.68	-29.7	-32.7	13.9	2.96e-04	0	42	0	559939584	19	5084
2026-01-11 02:56:27.02	313.02	16.66	-29.5	-32.1	14.3	2.57e-03	0	42	0	560988160	19	4872
2026-01-11 02:56:28.03	312.80	16.64	-29.3	-32.2	14.5	2.50e-03	0	42	0	563085312	18	5022
2026-01-11 02:56:29.03	312.58	16.62	-29.4	-32.3	14.4	3.99e-04	0	42	0	565182464	18	5072
2026-01-11 02:56:30.03	312.36	16.60	-29.5	-32.2	14.1	2.30e-03	0	42	0	567279616	19	4919
2026-01-11 02:56:31.04	312.14	16.58	-29.3	-32.3	14.4	2.03e-03	0	42	0	569376768	18	5049
2026-01-11 02:56:32.04	311.92	16.56	-29.4	-32.5	14.3	0.00e+00	0	42	0	570425344	18	5124
2026-01-11 02:56:33.05	311.70	16.54	-29.5	-32.3	14.1	1.95e-03	0	42	0	572522496	19	4965
2026-01-11 02:56:34.06	311.47	16.52	-29.5	-32.2	14.1	2.35e-03	0	42	0	574619648	19	4931
2026-01-11 02:56:35.06	311.26	16.49	-29.6	-32.6	13.9	4.50e-06	0	42	0	576716800	19	5061
2026-01-11 02:56:36.07	311.04	16.47	-29.7	-32.6	13.8	2.40e-03	0	42	0	578813952	19	5078
2026-01-11 02:56:37.08	310.82	16.45	-29.7	-32.8	13.8	2.40e-03	0	42	0	579862528	19	5153
2026-01-11 02:56:38.08	310.60	16.42	-29.8	-32.9	13.7	1.94e-04	0	42	0	581959680	19	5186
2026-01-11 02:56:39.09	310.38	16.40	-29.9	-33.3	13.5	9.10e-06	0	42	0	584056832	19	5317
2026-01-11 02:56:40.10	310.16	16.37	-29.7	-32.9	13.7	2.03e-03	0	42	0	586153984	19	5158
2026-01-11 02:56:41.10	309.95	16.35	-29.5	-32.3	14.1	2.14e-04	0	42	0	588251136	19	4955
2026-01-11 02:56:42.11	309.73	16.32	-29.5	-32.2	14.1	1.50e-06	0	42	0	589299712	19	4933
2026-01-11 02:56:43.11	309.51	16.29	-29.5	-32.3	14.1	1.99e-03	0	42	0	591396864	19	4937
2026-01-11 02:56:44.12	309.30	16.27	-29.5	-32.3	14.1	9.38e-05	0	42	0	593494016	19	4957
2026-01-11 02:56:45.12	309.08	16.24	-29.6	-32.4	14.0	2.20e-06	0	42	0	595591168	19	5006
2026-01-11 02:56:46.13	308.87	16.21	-29.6	-32.9	13.7	3.00e-06	0	42	0	597688320	18	5287
2026-01-11 02:56:47.14	308.65	16.19	-30.1	-33.4	13.3	4.50e-06	0	42	0	598736896	19	5241
2026-01-11 02:56:48.14	308.44	16.16	-29.8	-33.0	13.6	7.60e-06	0	42	0	600834048	19	5201
2026-01-11 02:56:49.15	308.22	16.13	-29.7	-32.8	13.7	3.80e-06	0	42	0	602931200	19	5144
2026-01-11 02:56:50.16	308.01	16.10	-29.7	-32.7	13.8	6.10e-06	0	42	0	605028352	19	5114
2026-01-11 02:56:51.16	307.80	16.07	-29.8	-33.0	13.6	2.25e-03	0	42	0	607125504	19	5200
2026-01-11 02:56:52.17	307.58	16.04	-29.9	-33.4	13.4	1.67e-05	0	42	0	608174080	19	5350
2026-01-11 02:56:53.18	307.37	16.01	-29.8	-33.0	13.6	1.06e-05	0	42	0	610271232	19	5225
2026-01-11 02:56:54.19	307.16	15.98	-29.7	-32.8	13.7	2.47e-03	0	42	0	612368384	19	5149
2026-01-11 02:56:55.19	306.95	15.95	-29.8	-33.0	13.6	2.95e-04	0	42	0	614465536	19	5227
2026-01-11 02:56:56.19	306.74	15.92	-29.8	-33.0	13.6	6.10e-06	0	42	0	616562688	19	5206
2026-01-11 02:56:57.20	306.52	15.89	-29.8	-33.0	13.6	9.10e-06	0	42	0	617611264	19	5223
2026-01-11 02:56:58.21	306.31	15.86	-29.9	-33.3	13.4	3.54e-04	0	42	0	619708416	19	5334
2026-01-11 02:56:59.22	306.10	15.83	-29.9	-33.4	13.4	3.33e-04	0	42	0	621805568	19	5357
2026-01-11 02:57:00.23	305.89	15.79	-30.0	-33.5	13.3	1.06e-05	0	42	0	623902720	19	5403
2026-01-11 02:57:01.23	305.68	15.76	-29.8	-33.1	13.5	1.60e-05	0	42	0	625999872	19	5265
2026-01-11 02:57:02.24	305.47	15.73	-29.9	-33.2	13.4	3.46e-04	0	42	0	627048448	19	5285
2026-01-11 02:57:03.25	305.27	15.69	-30.0	-33.5	13.3	1.67e-05	0	42	0	629145600	19	5402
2026-01-11 02:57:04.25	305.06	15.66	-29.9	-32.9	13.2	2.28e-05	0	42	0	631242752	20	5092
2026-01-11 02:57:05.25	304.85	15.63	-30.1	-33.4	12.9	6.08e-04	0	42	0	633339904	20	5262
2026-01-11 02:57:06.26	304.65	15.59	-30.1	-33.4	12.9	4.65e-05	0	42	0	635437056	20	5267
2026-01-11 02:57:07.26	304.44	15.56	-30.0	-33.0	13.1	2.59e-05	0	42	0	636485632	20	5129
2026-01-11 02:57:08.27	304.24	15.52	-29.9	-33.4	13.3	5.97e-04	0	42	0	638582784	19	5379
2026-01-11 02:57:09.28	304.03	15.49	-29.9	-33.3	13.4	1.29e-05	0	42	0	640679936	19	5320
2026-01-11 02:57:10.28	303.83	15.45	-29.8	-33.0	13.6	7.60e-06	0	42	0	642777088	19	5201
2026-01-11 02:57:11.29	303.62	15.42	-29.7	-32.9	13.6	6.80e-06	0	42	0	644874240	19	5168
2026-01-11 02:57:12.29	303.42	15.38	-29.6	-32.5	13.7	5.30e-06	0	42	0	645922816	19	5044
2026-01-11 02:57:13.29	303.22	15.34	-29.6	-32.6	13.9	5.06e-04	0	42	0	648019968	19	5059
2026-01-11 02:57:14.30	303.01	15.31	-29.7	-32.8	13.6	6.80e-06	0	42	0	650117120	19	5142
2026-01-11 02:57:15.31	302.81	15.27	-29.8	-33.0	13.6	6.10e-06	0	42	0	652214272	19	5207
2026-01-11 02:57:16.31	302.61	15.23	-29.9	-33.5	13.3	1.61e-03	0	42	0	654311424	19	5391
2026-01-11 02:57:17.31	302.41	15.19	-30.1	-33.4	12.9	1.56e-03	0	42	0	655360000	20	5282
2026-01-11 02:57:18.31	302.21	15.16	-30.1	-33.6	12.7	1.76e-03	0	42	0	657457152	20	5344
2026-01-11 02:57:19.32	302.01	15.12	-30.0	-33.2	13.1	1.51e-03	0	42	0	659554304	20	5181
2026-01-11 02:57:20.32	301.81	15.08	-29.9	-33.4	13.2	1.66e-03	0	42	0	661651456	19	5398
2026-01-11 02:57:21.32	301.61	15.04	-29.9	-33.3	13.4	1.75e-05	0	42	0	663748608	19	5321
2026-01-11 02:57:22.34	301.41	15.00	-29.8	-33.1	13.4	1.52e-03	0	42	0	664797184	19	5273
2026-01-11 02:57:23.34	301.21	14.96	-29.9	-33.4	13.3	1.60e-03	0	42	0	666894336	19	5361
2026-01-11 02:57:24.35	301.02	14.92	-29.7	-32.8	13.7	1.14e-05	0	42	0	668991488	19	5139
2026-01-11 02:57:25.36	300.82	14.88	-29.6	-32.5	13.8	1.55e-03	0	42	0	671088640	19	5046
2026-01-11 02:57:26.35	300.63	14.84	-29.6	-32.6	13.8	1.38e-03	0	42	0	673185792	19	5087
2026-01-11 02:57:27.35	300.43	14.80	-29.7	-32.7	13.7	5.30e-06	0	42	0	674234368	19	5100
2026-01-11 02:57:28.35	300.24	14.76	-29.6	-32.6	13.8	1.09e-03	0	42	0	676331520	19	5060
2026-01-11 02:57:29.36	300.04	14.72	-29.7	-32.9	13.6	3.68e-03	0	42	0	678428672	19	5178
2026-01-11 02:57:30.36	299.85	14.68	-29.9	-33.3	13.3	1.44e-05	0	42	0	680525824	19	5332
2026-01-11 02:57:31.36	299.66	14.64	-29.7	-32.7	13.7	1.71e-03	0	42	0	681574400	19	5124
2026-01-11 02:57:32.37	299.46	14.59	-29.6	-32.6	13.7	4.07e-03	0	42	0	683671552	19	5078
2026-01-11 02:57:33.37	299.27	14.55	-29.7	-32.7	13.7	9.10e-06	0	42	0	685768704	19	5118
2026-01-11 02:57:34.38	299.08	14.51	-29.7	-32.9	13.5	1.71e-03	0	42	0	687865856	19	5194
2026-01-11 02:57:35.39	298.88	14.47	-29.7	-32.9	13.6	2.07e-03	0	42	0	689963008	19	5180
2026-01-11 02:57:36.39	298.69	14.42	-29.8	-33.2	13.3	1.96e-03	0	42	0	692060160	19	5317
2026-01-11 02:57:37.40	298.50	14.38	-29.9	-33.4	13.2	1.34e-03	0	42	0	693108736	19	5372
2026-01-11 02:57:38.39	298.32	14.34	-29.8	-33.2	13.3	1.57e-03	0	42	0	695205888	19	5312
2026-01-11 02:57:39.40	298.13	14.29	-29.9	-33.4	13.2	1.09e-03	0	42	0	697303040	19	5383
2026-01-11 02:57:40.40	297.94	14.25	-29.8	-33.1	13.4	5.43e-04	0	42	0	699400192	19	5284
2026-01-11 02:57:41.41	297.75	14.21	-29.7	-32.9	13.6	2.73e-04	0	42	0	700448768	19	5177
2026-01-11 02:57:42.42	297.56	14.16	-29.7	-32.9	13.5	3.85e-04	0	42	0	702545920	19	5188
2026-01-11 02:57:43.42	297.38	14.12	-29.7	-32.9	13.5	4.61e-04	0	42	0	704643072	19	5196
2026-01-11 02:57:44.43	297.19	14.07	-29.7	-32.8	13.6	2.01e-04	0	42	0	706740224	19	5149
2026-01-11 02:57:45.43	297.00	14.03	-29.7	-33.0	13.5	1.60e-05	0	42	0	708837376	19	5210
2026-01-11 02:57:46.44	296.82	13.98	-29.6	-32.7	13.7	5.90e-04	0	42	0	709885952	19	5115
2026-01-11 02:57:47.44	296.63	13.94	-29.7	-32.9	13.5	1.19e-03	0	42	0	711983104	19	5179
2026-01-11 02:57:48.44	296.45	13.89	-29.8	-33.2	13.2	1.52e-05	0	42	0	714080256	19	5302
2026-01-11 02:57:49.45	296.27	13.85	-29.9	-33.4	13.2	3.05e-05	0	42	0	716177408	19	5375
2026-01-11 02:57:50.45	296.08	13.80	-30.0	-33.1	13.0	1.89e-03	0	42	0	718274560	20	5179
2026-01-11 02:57:51.46	295.90	13.75	-30.1	-33.5	12.7	5.11e-05	0	42	0	719323136	20	5323
2026-01-11 02:57:52.47	295.72	13.71	-30.1	-33.6	12.6	1.56e-04	0	42	0	721420288	20	5378
2026-01-11 02:57:53.48	295.54	13.66	-30.0	-33.3	12.8	1.15e-03	0	42	0	723517440	20	5234
2026-01-11 02:57:54.48	295.36	13.61	-30.0	-33.2	12.9	1.52e-03	0	42	0	725614592	20	5227
2026-01-11 02:57:55.49	295.18	13.57	-30.0	-33.2	12.9	6.79e-05	0	42	0	727711744	20	5216
2026-01-11 02:57:56.49	295.00	13.52	-30.1	-33.5	12.7	1.97e-03	0	42	0	728760320	20	5319
2026-01-11 02:57:57.50	294.82	13.47	-30.1	-33.5	12.7	2.11e-03	0	42	0	730857472	20	5351
2026-01-11 02:57:58.51	294.64	13.42	-30.1	-33.7	12.6	9.15e-05	0	42	0	732954624	20	5404
2026-01-11 02:57:59.51	294.46	13.38	-30.1	-33.7	12.5	2.50e-03	0	42	0	735051776	20	5402
2026-01-11 02:58:00.52	294.28	13.33	-30.2	-33.9	12.4	2.30e-03	0	42	0	737148928	20	5488
2026-01-11 02:58:01.52	294.11	13.28	-30.2	-34.0	12.3	1.43e-03	0	42	0	738197504	20	5525
2026-01-11 02:58:02.52	293.93	13.23	-30.2	-33.9	12.4	2.25e-03	0	42	0	740294656	20	5499
2026-01-11 02:58:03.53	293.76	13.18	-30.2	-34.0	12.3	2.32e-03	0	42	0	742391808	20	5532
2026-01-11 02:58:04.54	293.58	13.14	-30.3	-34.0	12.3	3.91e-04	0	42	0	744488960	20	5560
2026-01-11 02:58:05.54	293.41	13.09	-30.4	-34.4	12.0	2.73e-04	0	42	0	746586112	20	5731
2026-01-11 02:58:06.55	293.23	13.04	-30.4	-34.5	11.9	1.03e-03	0	42	0	747634688	20	5778
2026-01-11 02:58:07.55	293.06	12.99	-30.5	-34.3	11.8	5.11e-04	0	42	0	749731840	21	5564
2026-01-11 02:58:08.56	292.89	12.94	-30.7	-34.9	11.3	7.97e-04	0	42	0	751828992	21	5833
2026-01-11 02:58:09.57	292.72	12.89	-30.7	-35.0	11.2	2.64e-03	0	42	0	753926144	21	5872
2026-01-11 02:58:10.57	292.54	12.84	-30.8	-35.3	11.0	1.30e-03	0	42	0	756023296	21	6023
2026-01-11 02:58:11.58	292.37	12.79	-30.9	-35.5	10.9	2.66e-03	0	42	0	757071872	21	6116
2026-01-11 02:58:12.59	292.20	12.74	-30.9	-35.6	10.8	2.16e-03	0	42	0	759169024	21	6160
2026-01-11 02:58:13.59	292.03	12.69	-30.9	-35.5	10.8	3.09e-03	0	42	0	761266176	21	6144
2026-01-11 02:58:14.60	291.86	12.64	-30.8	-35.3	11.0	2.42e-03	0	42	0	763363328	21	6045
2026-01-11 02:58:15.61	291.69	12.59	-30.7	-35.1	11.1	1.52e-03	0	42	0	765460480	21	5916
2026-01-11 02:58:16.61	291.53	12.54	-30.7	-35.0	11.2	1.35e-03	0	42	0	766509056	21	5904
2026-01-11 02:58:17.62	291.36	12.49	-30.7	-34.8	11.3	1.34e-03	0	42	0	768606208	21	5821
2026-01-11 02:58:18.62	291.19	12.44	-30.6	-34.6	11.5	8.67e-04	0	42	0	770703360	21	5690
2026-01-11 02:58:19.63	291.03	12.39	-30.6	-34.5	11.5	7.97e-04	0	42	0	772800512	21	5678
2026-01-11 02:58:20.64	290.86	12.34	-30.6	-34.7	11.4	2.50e-03	0	42	0	774897664	21	5769
2026-01-11 02:58:21.64	290.70	12.29	-30.7	-35.0	11.1	2.06e-03	0	42	0	775946240	21	5888
2026-01-11 02:58:22.65	290.53	12.23	-30.9	-35.4	10.9	1.89e-03	0	42	0	778043392	21	6108
2026-01-11 02:58:23.65	290.37	12.18	-30.9	-35.7	10.6	3.06e-03	0	42	0	780140544	21	6257
2026-01-11 02:58:24.66	290.20	12.13	-31.0	-35.9	10.5	5.77e-03	0	42	0	782237696	21	6350
2026-01-11 02:58:25.67	290.04	12.08	-31.0	-35.6	10.4	4.50e-03	0	42	0	784334848	22	6069
2026-01-11 02:58:26.67	289.88	12.03	-31.0	-35.5	10.4	4.13e-03	0	42	0	785383424	22	6058
2026-01-11 02:58:27.68	289.72	11.98	-31.1	-35.8	10.2	5.20e-03	0	42	0	787480576	22	6183
2026-01-11 02:58:28.68	289.56	11.92	-31.0	-35.6	10.3	6.10e-03	0	42	0	789577728	22	6104
2026-01-11 02:58:29.69	289.40	11.87	-30.9	-35.6	10.7	3.42e-03	0	42	0	791674880	21	6174
2026-01-11 02:58:30.70	289.24	11.82	-30.8	-35.3	10.9	2.60e-03	0	42	0	793772032	21	6066
2026-01-11 02:58:31.70	289.08	11.77	-30.8	-35.5	10.7	3.91e-03	0	42	0	794820608	21	6137
2026-01-11 02:58:32.71	288.92	11.72	-30.9	-35.6	10.7	3.09e-03	0	42	0	796917760	21	6197
2026-01-11 02:58:33.71	288.76	11.66	-30.9	-35.5	10.7	3.19e-03	0	42	0	799014912	21	6161
2026-01-11 02:58:34.72	288.60	11.61	-30.9	-35.6	10.6	2.87e-03	0	42	0	801112064	21	6194
2026-01-11 02:58:35.73	288.45	11.56	-31.0	-35.9	10.4	3.94e-03	0	42	0	803209216	21	6364
2026-01-11 02:58:36.74	288.29	11.50	-31.0	-35.9	10.4	4.75e-03	0	42	0	804257792	21	6366
2026-01-11 02:58:37.74	288.13	11.45	-31.0	-35.6	10.3	4.31e-03	0	42	0	806354944	22	6061
2026-01-11 02:58:38.74	287.98	11.40	-31.1	-35.8	10.2	5.98e-03	0	42	0	808452096	22	6172
2026-01-11 02:58:39.74	287.82	11.35	-31.0	-35.7	10.2	6.35e-03	0	42	0	810549248	22	6145
2026-01-11 02:58:40.74	287.67	11.29	-31.0	-35.4	10.5	4.82e-03	0	42	0	811597824	22	5988
2026-01-11 02:58:41.74	287.52	11.24	-30.9	-35.8	10.5	3.79e-03	0	42	0	813694976	21	6304
2026-01-11 02:58:42.74	287.37	11.19	-30.9	-35.9	10.4	4.15e-03	0	42	0	815792128	21	6354
2026-01-11 02:58:43.75	287.21	11.13	-30.9	-35.6	10.1	4.67e-03	0	42	0	817889280	21	6228
2026-01-11 02:58:44.76	287.06	11.08	-30.9	-35.8	10.2	3.80e-03	0	42	0	819986432	21	6336
2026-01-11 02:58:45.76	286.91	11.03	-30.8	-35.5	10.6	3.78e-03	0	42	0	822083584	21	6176
2026-01-11 02:58:46.76	286.76	10.97	-30.8	-35.4	10.6	2.93e-03	0	42	0	823132160	21	6099
2026-01-11 02:58:47.77	286.61	10.92	-30.8	-35.6	10.5	2.90e-03	0	42	0	825229312	21	6214
2026-01-11 02:58:48.78	286.46	10.87	-30.9	-35.6	10.5	4.07e-03	0	42	0	827326464	21	6240
2026-01-11 02:58:49.78	286.31	10.81	-31.0	-36.0	10.3	4.06e-03	0	42	0	829423616	21	6404
2026-01-11 02:58:50.79	286.16	10.76	-30.9	-35.8	10.4	5.49e-03	0	42	0	830472192	21	6334
2026-01-11 02:58:51.80	286.01	10.70	-30.8	-35.5	10.6	5.53e-03	0	42	0	832569344	21	6168
2026-01-11 02:58:52.81	285.87	10.65	-30.7	-35.2	10.8	4.37e-03	0	42	0	834666496	21	6047
2026-01-11 02:58:53.81	285.72	10.60	-30.8	-35.3	10.7	2.57e-03	0	42	0	836763648	21	6085
2026-01-11 02:58:54.81	285.57	10.54	-30.7	-35.1	10.9	2.53e-03	0	42	0	838860800	21	5960
2026-01-11 02:58:55.82	285.43	10.49	-30.6	-34.9	11.0	6.63e-03	0	42	0	839909376	21	5900
2026-01-11 02:58:56.82	285.28	10.43	-30.7	-35.1	10.9	1.93e-03	0	42	0	842006528	21	5992
2026-01-11 02:58:57.83	285.14	10.38	-30.6	-34.7	11.2	4.31e-03	0	42	0	844103680	21	5777
2026-01-11 02:58:58.84	284.99	10.32	-30.5	-34.5	11.3	6.16e-03	0	42	0	846200832	21	5680
2026-01-11 02:58:59.85	284.85	10.27	-30.5	-34.6	11.2	9.89e-04	0	42	0	848297984	21	5765
2026-01-11 02:59:00.86	284.71	10.22	-30.5	-34.5	11.3	3.12e-03	0	42	0	850395136	21	5712
2026-01-11 02:59:01.86	284.56	10.16	-30.5	-34.5	11.3	4.40e-03	0	42	0	851443712	21	5694
2026-01-11 02:59:02.86	284.42	10.11	-30.5	-34.6	11.2	3.77e-03	0	42	0	853540864	21	5765
2026-01-11 02:59:03.87	284.28	10.05	-30.5	-34.6	11.1	2.58e-03	0	42	0	855638016	21	5774
2026-01-11 02:59:04.88	284.14	10.00	-30.6	-34.9	11.0	3.02e-03	0	42	0	857735168	21	5886
2026-01-11 02:59:05.88	284.00	9.94	-30.6	-34.7	11.1	5.11e-03	0	42	0	858783744	21	5821
2026-01-11 02:59:06.89	283.86	9.89	-30.5	-34.6	11.2	4.93e-03	0	42	0	860880896	21	5747
2026-01-11 02:59:07.90	283.72	9.83	-30.5	-34.9	11.3	3.92e-03	0	42	0	862978048	20	5999
2026-01-11 02:59:08.90	283.58	9.78	-30.4	-34.7	11.4	4.21e-03	0	42	0	865075200	20	5930
2026-01-11 02:59:09.91	283.44	9.72	-30.5	-35.0	11.2	5.14e-03	0	42	0	867172352	20	6074
2026-01-11 02:59:10.92	283.30	9.67	-30.4	-34.7	11.4	4.02e-03	0	42	0	868220928	20	5913
2026-01-11 02:59:11.92	283.17	9.61	-30.3	-34.5	11.6	3.51e-03	0	42	0	870318080	20	5814
2026-01-11 02:59:12.94	283.03	9.56	-30.4	-34.6	11.5	4.50e-03	0	42	0	872415232	20	5870
2026-01-11 02:59:13.94	282.89	9.50	-30.3	-34.3	11.7	6.02e-03	0	42	0	874512384	20	5739
2026-01-11 02:59:14.95	282.76	9.45	-30.2	-34.1	11.9	3.70e-03	0	42	0	876609536	20	5640
2026-01-11 02:59:15.95	282.62	9.39	-30.2	-34.1	11.8	1.31e-03	0	42	0	878706688	20	5654
2026-01-11 02:59:16.96	282.49	9.34	-30.3	-34.4	11.6	6.05e-03	0	42	0	879755264	20	5785
2026-01-11 02:59:17.96	282.35	9.28	-30.2	-34.1	11.8	6.90e-04	0	42	0	881852416	20	5653
2026-01-11 02:59:18.97	282.22	9.23	-30.2	-34.0	11.9	8.98e-04	0	42	0	883949568	20	5600
2026-01-11 02:59:19.97	282.09	9.17	-30.1	-34.0	11.9	5.36e-03	0	42	0	886046720	20	5597
2026-01-11 02:59:20.98	281.95	9.12	-30.2	-34.3	11.6	2.87e-03	0	42	0	887095296	20	5752
2026-01-11 02:59:21.99	281.82	9.06	-30.1	-34.0	11.9	6.55e-04	0	42	0	889192448	20	5608
2026-01-11 02:59:22.99	281.69	9.01	-30.1	-33.8	12.0	2.46e-03	0	42	0	891289600	20	5517
2026-01-11 02:59:24.00	281.56	8.95	-30.1	-33.9	11.9	2.60e-03	0	42	0	893386752	20	5578
2026-01-11 02:59:25.00	281.43	8.89	-30.0	-33.6	12.1	2.46e-04	0	42	0	895483904	20	5431
2026-01-11 02:59:26.01	281.30	8.84	-29.9	-33.4	12.3	1.91e-03	0	42	0	896532480	20	5357
2026-01-11 02:59:27.01	281.17	8.78	-29.9	-33.4	12.3	1.70e-03	0	42	0	898629632	20	5357
2026-01-11 02:59:28.02	281.04	8.73	-30.0	-33.6	12.1	2.79e-03	0	42	0	900726784	20	5429
2026-01-11 02:59:29.03	280.91	8.67	-30.2	-34.1	11.7	8.95e-04	0	42	0	902823936	20	5689
2026-01-11 02:59:30.04	280.78	8.62	-30.0	-33.7	12.0	4.48e-04	0	42	0	904921088	20	5489
2026-01-11 02:59:31.04	280.66	8.56	-29.9	-33.3	12.3	2.88e-03	0	42	0	905969664	20	5327
2026-01-11 02:59:32.03	280.53	8.51	-29.9	-33.8	12.4	1.75e-04	0	42	0	908066816	19	5612
2026-01-11 02:59:33.04	280.40	8.45	-30.0	-33.5	12.2	1.09e-03	0	42	0	910163968	20	5395
2026-01-11 02:59:34.04	280.28	8.40	-30.0	-33.4	12.2	1.87e-04	0	42	0	912261120	20	5377
2026-01-11 02:59:35.04	280.15	8.34	-30.0	-33.5	12.1	5.32e-03	0	42	0	914358272	20	5420
2026-01-11 02:59:36.05	280.03	8.29	-29.9	-33.9	12.3	1.57e-04	0	42	0	915406848	19	5661
2026-01-11 02:59:37.05	279.91	8.23	-29.9	-33.8	12.3	2.75e-04	0	42	0	917504000	19	5637
2026-01-11 02:59:38.06	279.78	8.17	-30.0	-33.6	12.1	3.02e-03	0	42	0	919601152	20	5454
2026-01-11 02:59:39.06	279.66	8.12	-30.2	-34.2	11.7	5.38e-04	0	42	0	921698304	20	5702
2026-01-11 02:59:40.07	279.53	8.06	-29.9	-33.5	12.1	6.26e-04	0	42	0	923795456	20	5407
2026-01-11 02:59:41.08	279.41	8.01	-30.1	-34.0	11.8	3.17e-03	0	42	0	924844032	20	5620
2026-01-11 02:59:42.08	279.29	7.95	-29.9	-33.5	12.2	2.62e-04	0	42	0	926941184	20	5404
2026-01-11 02:59:43.09	279.17	7.90	-30.0	-33.5	12.1	2.05e-04	0	42	0	929038336	20	5430
2026-01-11 02:59:44.09	279.05	7.84	-30.0	-33.5	12.1	3.53e-03	0	42	0	931135488	20	5425
2026-01-11 02:59:45.10	278.93	7.79	-30.1	-34.1	11.7	4.58e-04	0	42	0	933232640	20	5661
2026-01-11 02:59:46.10	278.81	7.73	-30.0	-33.6	12.1	3.29e-04	0	42	0	934281216	20	5459
2026-01-11 02:59:47.10	278.69	7.68	-29.9	-33.4	12.1	1.05e-03	0	42	0	936378368	20	5389
2026-01-11 02:59:48.11	278.57	7.62	-30.0	-33.7	11.9	2.98e-03	0	42	0	938475520	20	5506
2026-01-11 02:59:49.12	278.45	7.56	-30.1	-34.1	11.6	7.15e-04	0	42	0	940572672	20	5668
2026-01-11 02:59:50.12	278.33	7.51	-29.9	-33.5	12.1	4.58e-04	0	42	0	942669824	20	5417
2026-01-11 02:59:51.13	278.21	7.45	-29.9	-33.5	11.9	3.69e-03	0	42	0	943718400	20	5420
2026-01-11 02:59:52.13	278.09	7.40	-30.5	-34.6	11.6	3.96e-04	0	42	0	945815552	20	5763
2026-01-11 02:59:53.13	277.98	7.34	-30.0	-33.8	11.8	3.33e-04	0	42	0	947912704	20	5560
2026-01-11 02:59:54.14	277.86	7.29	-30.0	-34.1	11.7	2.72e-04	0	42	0	950009856	19	5766
2026-01-11 02:59:55.14	277.75	7.23	-30.0	-33.6	11.9	1.82e-03	0	42	0	952107008	20	5486
2026-01-11 02:59:56.14	277.63	7.18	-29.9	-33.9	12.1	2.27e-04	0	42	0	953155584	19	5707
2026-01-11 02:59:57.14	277.52	7.12	-29.9	-33.5	12.0	2.37e-04	0	42	0	955252736	20	5446
2026-01-11 02:59:58.14	277.40	7.07	-30.5	-35.0	10.9	1.32e-03	0	42	0	957349888	21	5998
2026-01-11 02:59:59.15	277.29	7.01	-32.7	-47.1	3.8	1.49e+00	0	42	104	957349888	25	18747
2026-01-11 03:00:00.16	277.17	6.95	-33.2	-47.5	3.8	1.49e+00	0	42	104	957349888	26	18656
2026-01-11 03:00:01.16	277.06	6.90	-33.5	-47.6	3.8	1.49e+00	0	42	104	957349888	27	18262
2026-01-11 03:00:02.16	276.95	6.84	-33.7	-48.0	3.8	1.49e+00	0	42	104	957349888	27	18660

#Closed at: 2026-01-11 03:00:02
#Recorded file [957 MB]: D:/data/31010_260111_055127.dat