passes_logs/2026/01/11/R2M6_AANII_01/R2M6_AANII_01__20260111_101304_NOAA_21_JPSS-2_rec.log

#Pass ID: 20260111_101304_NOAA 21 (JPSS-2)
#Satellite: NOAA 21 (JPSS-2)
#Configuration: NOAA 21
#almurnet v.1.7.20240730
#Start time: 2026-01-11 10:13:56

#Version: 2.2.20231116
#Station: R2M6_AANII_01
#Location: 30.233357 lon 59.946436 lat
#TLE: 1 54234U 22150A   26009.79679979  .00000100  00000+0  68070-4 0  9993
#TLE: 2 54234  98.7494 310.7596 0000833 322.2782  37.8335 14.19533646164071

#Time	Az	El	Level	Level2	SNR	BER	BlckErr	Temp	State	Recorded	gain1	gain2
2026-01-11 10:13:56.62	156.95	11.41	-33.6	-44.8	3.8	8.45e-01	0	42	0	0	27	12988
2026-01-11 10:13:57.60	156.95	11.50	-33.9	-45.2	3.8	1.49e+00	0	42	104	0	29	13184
2026-01-11 10:13:58.61	156.95	11.59	-34.0	-45.2	3.8	1.49e+00	0	42	104	0	29	13177
2026-01-11 10:13:59.62	156.94	11.69	-34.0	-45.3	3.8	1.49e+00	0	42	104	0	29	13223
2026-01-11 10:14:00.62	156.94	11.78	-34.0	-45.3	3.8	1.49e+00	0	42	104	0	29	13227
2026-01-11 10:14:01.61	156.94	11.88	-34.0	-45.3	3.8	1.49e+00	0	42	104	0	29	13288
2026-01-11 10:14:02.62	156.94	11.97	-34.0	-45.3	3.8	1.49e+00	0	42	104	0	29	13223
2026-01-11 10:14:03.62	156.93	12.07	-34.0	-45.3	3.8	1.49e+00	0	42	104	0	29	13302
2026-01-11 10:14:04.62	156.93	12.16	-34.0	-45.3	3.8	1.49e+00	0	42	104	0	29	13272
2026-01-11 10:14:05.63	156.93	12.26	-34.0	-45.3	3.8	1.49e+00	0	42	104	0	29	13224
2026-01-11 10:14:06.63	156.93	12.35	-34.0	-45.3	3.8	1.49e+00	0	42	104	0	29	13257
2026-01-11 10:14:07.63	156.92	12.45	-34.0	-45.3	3.8	1.49e+00	0	42	104	0	29	13227
2026-01-11 10:14:08.63	156.92	12.55	-34.0	-45.3	3.8	1.49e+00	0	42	104	0	29	13269
2026-01-11 10:14:09.64	156.92	12.64	-33.9	-45.2	3.8	1.49e+00	0	42	104	0	29	13204
2026-01-11 10:14:10.65	156.92	12.74	-33.9	-45.2	3.8	1.49e+00	0	42	104	0	29	13204
2026-01-11 10:14:11.65	156.91	12.84	-33.9	-45.2	3.8	1.49e+00	0	42	104	0	29	13181
2026-01-11 10:14:12.64	156.91	12.94	-33.9	-45.2	3.8	1.49e+00	0	42	104	0	29	13164
2026-01-11 10:14:13.65	156.91	13.04	-33.9	-45.2	3.8	1.49e+00	0	42	104	0	29	13223
2026-01-11 10:14:14.65	156.91	13.14	-34.0	-45.3	3.8	1.49e+00	0	42	104	0	29	13274
2026-01-11 10:14:15.65	156.90	13.24	-34.1	-45.4	3.8	1.49e+00	0	42	104	0	29	13343
2026-01-11 10:14:16.65	156.90	13.34	-34.1	-45.6	3.8	1.49e+00	0	42	104	0	29	13486
2026-01-11 10:14:17.65	156.90	13.44	-34.1	-45.6	3.8	1.49e+00	0	42	104	0	29	13481
2026-01-11 10:14:18.64	156.89	13.54	-34.1	-45.5	3.8	1.49e+00	0	42	104	0	29	13397
2026-01-11 10:14:19.65	156.89	13.64	-34.1	-45.5	3.8	1.49e+00	0	42	104	0	29	13411
2026-01-11 10:14:20.65	156.89	13.74	-34.0	-45.4	3.8	1.49e+00	0	42	104	0	29	13379
2026-01-11 10:14:21.66	156.88	13.84	-34.0	-45.3	3.8	1.49e+00	0	42	104	0	29	13271
2026-01-11 10:14:22.67	156.88	13.95	-33.9	-45.2	3.8	1.49e+00	0	42	104	0	29	13188
2026-01-11 10:14:23.66	156.88	14.05	-33.8	-45.0	3.8	1.49e+00	0	42	104	0	29	13086
2026-01-11 10:14:24.66	156.88	14.15	-33.8	-45.0	3.8	1.49e+00	0	42	104	0	29	13044
2026-01-11 10:14:25.66	156.87	14.26	-33.7	-45.3	3.8	1.49e+00	0	42	104	0	28	13676
2026-01-11 10:14:26.67	156.87	14.36	-33.7	-45.2	3.8	1.49e+00	0	42	104	0	28	13598
2026-01-11 10:14:27.67	156.87	14.46	-33.6	-45.0	3.8	1.49e+00	0	42	104	0	28	13382
2026-01-11 10:14:28.68	156.86	14.57	-33.4	-44.7	3.8	1.49e+00	0	42	104	0	28	13204
2026-01-11 10:14:29.68	156.86	14.68	-33.3	-44.9	3.8	1.49e+00	0	42	104	0	27	13654
2026-01-11 10:14:30.68	156.86	14.78	-33.1	-43.7	3.8	1.49e+00	0	42	104	0	27	12110
2026-01-11 10:14:31.69	156.85	14.89	-33.0	-42.6	3.8	1.49e+00	0	42	104	0	27	10875
2026-01-11 10:14:32.70	156.85	15.00	-32.9	-41.5	3.9	1.48e+00	0	42	104	0	27	9723
2026-01-11 10:14:33.70	156.84	15.11	-32.7	-40.7	4.0	1.43e+00	0	42	104	0	26	9125
2026-01-11 10:14:34.71	156.84	15.21	-32.4	-38.4	5.3	9.53e-01	0	42	104	0	26	7226
2026-01-11 10:14:35.71	156.84	15.32	-32.1	-37.4	6.1	3.93e-01	0	42	0	1048576	25	6690
2026-01-11 10:14:36.72	156.83	15.43	-31.6	-36.2	7.2	1.78e-01	0	42	0	4194304	24	6091
2026-01-11 10:14:37.71	156.83	15.54	-31.2	-35.0	8.4	5.98e-02	0	42	0	7340032	23	5617
2026-01-11 10:14:38.71	156.83	15.65	-30.6	-33.9	9.6	1.82e-02	0	42	0	9437184	22	5222
2026-01-11 10:14:39.71	156.82	15.76	-30.1	-32.8	10.6	4.18e-03	0	42	0	12582912	21	4932
2026-01-11 10:14:40.71	156.82	15.87	-29.6	-31.8	11.6	8.56e-04	0	42	0	15728640	20	4670
2026-01-11 10:14:41.71	156.81	15.98	-29.1	-31.2	12.4	2.37e-04	0	42	0	18874368	19	4570
2026-01-11 10:14:42.71	156.81	16.10	-28.7	-30.5	13.1	4.50e-05	0	42	0	22020096	18	4447
2026-01-11 10:14:43.71	156.81	16.21	-28.4	-29.7	13.6	8.30e-06	0	42	0	25165824	18	4221
2026-01-11 10:14:44.70	156.80	16.32	-28.0	-29.5	14.1	0.00e+00	0	42	0	28311552	17	4246
2026-01-11 10:14:45.71	156.80	16.43	-27.9	-29.1	14.2	0.00e+00	0	42	0	31457280	17	4153
2026-01-11 10:14:46.71	156.79	16.55	-27.9	-29.2	14.2	1.50e-06	0	42	0	34603008	17	4185
2026-01-11 10:14:47.71	156.79	16.66	-28.1	-29.6	14.0	1.67e-05	0	42	0	37748736	17	4298
2026-01-11 10:14:48.71	156.78	16.78	-28.3	-30.2	13.6	3.80e-06	0	42	0	40894464	17	4477
2026-01-11 10:14:49.70	156.78	16.89	-28.8	-31.4	12.9	2.74e-05	0	42	0	44040192	17	4830
2026-01-11 10:14:50.70	156.78	17.01	-29.3	-32.0	12.2	1.46e-04	0	42	0	47185920	18	4953
2026-01-11 10:14:51.70	156.77	17.13	-29.6	-32.3	11.7	5.37e-04	0	42	0	50331648	19	4918
2026-01-11 10:14:52.70	156.77	17.24	-29.2	-31.3	12.3	3.08e-04	0	42	0	53477376	19	4606
2026-01-11 10:14:53.70	156.76	17.36	-29.3	-31.6	12.2	1.54e-04	0	42	0	56623104	19	4694
2026-01-11 10:14:54.70	156.76	17.48	-29.2	-31.3	12.3	2.40e-04	0	42	0	59768832	19	4598
2026-01-11 10:14:55.70	156.75	17.60	-28.8	-30.3	13.0	5.03e-05	0	42	0	62914560	19	4291
2026-01-11 10:14:56.70	156.75	17.72	-28.4	-30.0	13.5	1.37e-05	0	42	0	66060288	18	4288
2026-01-11 10:14:57.70	156.74	17.84	-28.2	-30.0	13.8	3.80e-06	0	42	0	69206016	17	4398
2026-01-11 10:14:58.70	156.74	17.96	-28.3	-30.2	13.7	4.50e-06	0	42	0	72351744	17	4456
2026-01-11 10:14:59.71	156.73	18.08	-28.5	-30.6	13.5	1.06e-05	0	42	0	75497472	17	4576
2026-01-11 10:15:00.71	156.73	18.20	-28.4	-30.4	13.6	1.22e-05	0	42	0	78643200	17	4524
2026-01-11 10:15:01.71	156.72	18.32	-28.2	-29.9	13.9	3.00e-06	0	42	0	81788928	17	4380
2026-01-11 10:15:02.71	156.72	18.45	-28.1	-29.5	14.1	1.52e-05	0	42	0	84934656	17	4271
2026-01-11 10:15:03.70	156.71	18.57	-27.9	-29.2	14.3	7.00e-07	0	42	0	88080384	17	4180
2026-01-11 10:15:04.70	156.71	18.69	-27.8	-29.0	14.4	1.50e-06	0	42	0	91226112	17	4105
2026-01-11 10:15:05.71	156.70	18.82	-27.8	-29.0	14.4	7.00e-07	0	42	0	94371840	17	4114
2026-01-11 10:15:06.71	156.69	18.95	-27.8	-28.9	14.5	0.00e+00	0	42	0	97517568	17	4079
2026-01-11 10:15:07.71	156.69	19.07	-28.0	-29.5	14.2	1.50e-06	0	42	0	100663296	17	4241
2026-01-11 10:15:08.71	156.68	19.20	-27.9	-29.1	14.4	3.80e-06	0	42	0	103809024	17	4146
2026-01-11 10:15:09.71	156.68	19.33	-27.6	-29.0	14.7	0.00e+00	0	42	0	106954752	16	4226
2026-01-11 10:15:10.72	156.67	19.46	-27.5	-28.7	14.9	0.00e+00	0	42	0	110100480	16	4127
2026-01-11 10:15:11.71	156.67	19.58	-27.5	-28.6	15.0	0.00e+00	0	42	0	113246208	16	4098
2026-01-11 10:15:12.72	156.66	19.72	-27.5	-28.6	15.0	0.00e+00	0	42	0	116391936	16	4102
2026-01-11 10:15:13.72	156.65	19.85	-27.5	-28.6	15.0	0.00e+00	0	42	0	119537664	16	4114
2026-01-11 10:15:14.72	156.65	19.98	-27.4	-28.5	15.0	7.00e-07	0	42	0	122683392	16	4077
2026-01-11 10:15:15.72	156.64	20.11	-27.4	-28.6	15.0	0.00e+00	0	42	0	125829120	16	4097
2026-01-11 10:15:16.72	156.63	20.24	-27.4	-28.5	15.1	0.00e+00	0	42	0	128974848	16	4076
2026-01-11 10:15:17.72	156.63	20.37	-27.4	-28.4	15.2	0.00e+00	0	42	0	132120576	16	4046
2026-01-11 10:15:18.72	156.62	20.51	-27.4	-28.5	15.1	0.00e+00	0	42	0	135266304	16	4074
2026-01-11 10:15:19.72	156.62	20.64	-27.4	-28.4	15.1	0.00e+00	0	42	0	138412032	16	4063
2026-01-11 10:15:20.72	156.61	20.78	-27.0	-28.2	15.4	0.00e+00	0	42	0	141557760	15	4105
2026-01-11 10:15:21.73	156.60	20.91	-27.0	-28.1	15.4	0.00e+00	0	42	0	144703488	15	4092
2026-01-11 10:15:22.73	156.60	21.05	-27.1	-28.3	15.3	0.00e+00	0	42	0	147849216	15	4138
2026-01-11 10:15:23.73	156.59	21.19	-27.1	-28.2	15.4	0.00e+00	0	42	0	150994944	15	4110
2026-01-11 10:15:24.74	156.58	21.33	-26.9	-27.9	15.6	0.00e+00	0	42	0	154140672	15	4022
2026-01-11 10:15:25.75	156.57	21.47	-26.9	-27.8	15.6	0.00e+00	0	42	0	157286400	15	4006
2026-01-11 10:15:26.75	156.57	21.61	-27.1	-28.2	15.4	0.00e+00	0	42	0	160432128	15	4110
2026-01-11 10:15:27.75	156.56	21.75	-26.9	-27.8	15.7	0.00e+00	0	42	0	163577856	15	3988
2026-01-11 10:15:28.76	156.55	21.89	-26.6	-27.7	15.9	0.00e+00	0	42	0	166723584	14	4086
2026-01-11 10:15:29.77	156.54	22.03	-26.7	-27.8	15.9	0.00e+00	0	42	0	169869312	14	4112
2026-01-11 10:15:30.76	156.54	22.18	-26.7	-27.8	16.0	0.00e+00	0	42	0	173015040	14	4096
2026-01-11 10:15:31.76	156.53	22.32	-26.8	-28.0	15.8	0.00e+00	0	42	0	176160768	14	4171
2026-01-11 10:15:32.77	156.52	22.46	-26.6	-27.7	16.0	0.00e+00	0	42	0	179306496	14	4085
2026-01-11 10:15:33.78	156.51	22.61	-26.4	-27.3	16.2	0.00e+00	0	42	0	182452224	14	3977
2026-01-11 10:15:34.77	156.51	22.76	-26.3	-27.0	16.4	0.00e+00	0	42	0	185597952	14	3907
2026-01-11 10:15:35.77	156.50	22.90	-26.3	-27.0	16.4	0.00e+00	0	42	0	188743680	14	3908
2026-01-11 10:15:36.77	156.49	23.05	-26.2	-27.2	16.5	0.00e+00	0	42	0	190840832	13	4061
2026-01-11 10:15:37.77	156.48	23.20	-26.1	-27.0	16.6	0.00e+00	0	42	0	195035136	13	4012
2026-01-11 10:15:38.78	156.47	23.35	-26.0	-26.8	16.8	0.00e+00	0	42	0	198180864	13	3960
2026-01-11 10:15:39.78	156.46	23.50	-26.1	-27.1	16.6	0.00e+00	0	42	0	201326592	13	4015
2026-01-11 10:15:40.78	156.46	23.65	-26.0	-26.9	16.7	0.00e+00	0	42	0	204472320	13	3972
2026-01-11 10:15:41.78	156.45	23.80	-25.9	-26.6	16.8	0.00e+00	0	42	0	207618048	13	3912
2026-01-11 10:15:42.77	156.44	23.96	-26.1	-26.9	16.7	0.00e+00	0	42	0	210763776	13	3985
2026-01-11 10:15:43.77	156.43	24.11	-25.9	-26.7	16.8	0.00e+00	0	42	0	213909504	13	3923
2026-01-11 10:15:44.78	156.42	24.27	-25.9	-26.7	16.9	0.00e+00	0	42	0	216006656	13	3923
2026-01-11 10:15:45.78	156.41	24.42	-26.0	-26.9	16.7	0.00e+00	0	42	0	219152384	13	3973
2026-01-11 10:15:46.78	156.40	24.58	-25.9	-26.7	16.9	0.00e+00	0	42	0	222298112	13	3913
2026-01-11 10:15:47.79	156.39	24.74	-26.0	-26.7	16.9	0.00e+00	0	42	0	225443840	13	3927
2026-01-11 10:15:48.78	156.38	24.89	-26.0	-26.8	16.9	0.00e+00	0	42	0	228589568	13	3936
2026-01-11 10:15:49.79	156.37	25.06	-26.0	-26.9	16.8	0.00e+00	0	42	0	231735296	13	3968
2026-01-11 10:15:50.79	156.36	25.22	-26.0	-26.9	16.8	0.00e+00	0	42	0	234881024	13	3976
2026-01-11 10:15:51.79	156.35	25.38	-26.1	-27.0	16.7	0.00e+00	0	42	0	238026752	13	4010
2026-01-11 10:15:52.79	156.34	25.54	-26.1	-27.0	16.8	7.00e-07	0	42	0	241172480	13	3989
2026-01-11 10:15:53.79	156.33	25.70	-26.2	-27.2	16.6	0.00e+00	0	42	0	244318208	13	4056
2026-01-11 10:15:54.79	156.32	25.87	-26.2	-27.3	16.6	0.00e+00	0	42	0	247463936	13	4061
2026-01-11 10:15:55.78	156.31	26.03	-26.3	-27.6	16.4	0.00e+00	0	42	0	250609664	13	4145
2026-01-11 10:15:56.79	156.30	26.20	-26.3	-27.6	16.5	0.00e+00	0	42	0	253755392	13	4143
2026-01-11 10:15:57.79	156.29	26.37	-26.4	-27.7	16.4	0.00e+00	0	42	0	256901120	13	4173
2026-01-11 10:15:58.80	156.28	26.54	-26.5	-27.9	16.2	0.00e+00	0	42	0	260046848	13	4237
2026-01-11 10:15:59.78	156.27	26.70	-26.5	-28.0	16.2	0.00e+00	0	42	0	263192576	13	4257
2026-01-11 10:16:00.78	156.26	26.88	-26.6	-28.2	16.2	0.00e+00	0	42	0	266338304	13	4299
2026-01-11 10:16:01.79	156.25	27.05	-26.7	-28.4	16.0	1.50e-06	0	42	0	269484032	13	4373
2026-01-11 10:16:02.79	156.23	27.22	-26.7	-28.4	16.0	0.00e+00	0	42	0	272629760	13	4378
2026-01-11 10:16:03.80	156.22	27.40	-26.9	-28.7	15.8	0.00e+00	0	42	0	275775488	13	4449
2026-01-11 10:16:04.81	156.21	27.57	-26.8	-28.6	15.9	0.00e+00	0	42	0	278921216	13	4429
2026-01-11 10:16:05.81	156.20	27.75	-26.9	-28.9	15.8	0.00e+00	0	42	0	282066944	13	4488
2026-01-11 10:16:06.81	156.19	27.93	-26.8	-28.6	15.9	0.00e+00	0	42	0	285212672	13	4420
2026-01-11 10:16:07.82	156.17	28.11	-26.9	-28.8	15.8	5.30e-06	0	42	0	288358400	13	4476
2026-01-11 10:16:08.83	156.16	28.29	-26.9	-28.8	15.8	0.00e+00	0	42	0	291504128	13	4478
2026-01-11 10:16:09.82	156.15	28.47	-27.0	-28.6	15.7	0.00e+00	0	42	0	294649856	14	4299
2026-01-11 10:16:10.82	156.14	28.65	-27.2	-28.9	15.5	4.50e-06	0	42	0	297795584	14	4398
2026-01-11 10:16:11.83	156.12	28.84	-27.0	-28.6	15.7	0.00e+00	0	42	0	300941312	14	4298
2026-01-11 10:16:12.84	156.11	29.02	-27.0	-28.5	15.8	0.00e+00	0	42	0	304087040	14	4267
2026-01-11 10:16:13.83	156.10	29.21	-26.9	-28.4	15.8	3.80e-06	0	42	0	307232768	14	4237
2026-01-11 10:16:14.83	156.08	29.39	-27.0	-28.4	15.8	0.00e+00	0	42	0	310378496	14	4248
2026-01-11 10:16:15.84	156.07	29.58	-26.9	-28.4	15.8	0.00e+00	0	42	0	313524224	14	4244
2026-01-11 10:16:16.85	156.05	29.77	-27.0	-28.5	15.8	6.80e-06	0	42	0	316669952	14	4290
2026-01-11 10:16:17.85	156.04	29.96	-27.0	-28.6	15.7	0.00e+00	0	42	0	319815680	14	4298
2026-01-11 10:16:18.84	156.03	30.15	-27.0	-28.6	15.7	0.00e+00	0	42	0	322961408	14	4312
2026-01-11 10:16:19.85	156.01	30.35	-27.2	-28.9	15.5	0.00e+00	0	42	0	326107136	14	4405
2026-01-11 10:16:20.85	156.00	30.54	-27.0	-28.6	15.7	0.00e+00	0	42	0	329252864	14	4320
2026-01-11 10:16:21.85	155.98	30.74	-26.9	-28.3	15.9	0.00e+00	0	42	0	332398592	14	4217
2026-01-11 10:16:22.86	155.96	30.94	-26.9	-28.3	15.9	3.00e-06	0	42	0	335544320	14	4220
2026-01-11 10:16:23.86	155.95	31.14	-26.8	-28.2	16.0	0.00e+00	0	42	0	338690048	14	4190
2026-01-11 10:16:24.87	155.93	31.34	-26.9	-28.2	15.9	0.00e+00	0	42	0	341835776	14	4210
2026-01-11 10:16:25.87	155.92	31.54	-27.0	-28.5	15.8	7.00e-07	0	42	0	344981504	14	4288
2026-01-11 10:16:26.88	155.90	31.75	-27.0	-28.4	15.8	0.00e+00	0	42	0	348127232	14	4263
2026-01-11 10:16:27.88	155.88	31.95	-27.0	-28.5	15.8	0.00e+00	0	42	0	351272960	14	4268
2026-01-11 10:16:28.88	155.87	32.16	-27.2	-28.9	15.6	0.00e+00	0	42	0	354418688	14	4400
2026-01-11 10:16:29.88	155.85	32.36	-27.2	-28.9	15.6	0.00e+00	0	42	0	357564416	14	4382
2026-01-11 10:16:30.87	155.83	32.57	-27.3	-29.2	15.5	0.00e+00	0	42	0	360710144	14	4467
2026-01-11 10:16:31.87	155.82	32.78	-27.3	-29.2	15.4	0.00e+00	0	42	0	363855872	14	4477
2026-01-11 10:16:32.88	155.80	32.99	-27.5	-29.6	15.2	0.00e+00	0	42	0	367001600	14	4592
2026-01-11 10:16:33.87	155.78	33.20	-27.6	-29.3	15.1	0.00e+00	0	42	0	370147328	15	4385
2026-01-11 10:16:34.87	155.76	33.42	-27.7	-29.5	15.0	0.00e+00	0	42	0	373293056	15	4446
2026-01-11 10:16:35.87	155.74	33.63	-27.6	-29.5	15.1	0.00e+00	0	42	0	376438784	15	4436
2026-01-11 10:16:36.87	155.72	33.85	-27.6	-29.2	15.1	0.00e+00	0	42	0	379584512	15	4374
2026-01-11 10:16:37.88	155.70	34.07	-27.5	-29.2	15.2	0.00e+00	0	42	0	382730240	15	4359
2026-01-11 10:16:38.88	155.68	34.29	-27.6	-29.3	15.1	0.00e+00	0	42	0	385875968	15	4392
2026-01-11 10:16:39.89	155.66	34.51	-27.7	-29.6	15.0	0.00e+00	0	42	0	389021696	15	4466
2026-01-11 10:16:40.89	155.64	34.74	-27.7	-29.7	14.9	0.00e+00	0	42	0	392167424	15	4493
2026-01-11 10:16:41.89	155.62	34.96	-27.9	-30.0	14.7	7.00e-07	0	42	0	395313152	15	4606
2026-01-11 10:16:42.88	155.60	35.19	-28.0	-30.3	14.6	0.00e+00	0	42	0	398458880	15	4675
2026-01-11 10:16:43.88	155.58	35.42	-28.1	-30.0	14.6	7.00e-07	0	42	0	401604608	16	4473
2026-01-11 10:16:44.88	155.56	35.65	-28.4	-30.5	14.3	1.50e-06	0	42	0	404750336	16	4628
2026-01-11 10:16:45.89	155.54	35.88	-28.3	-30.5	14.3	7.00e-07	0	42	0	407896064	16	4615
2026-01-11 10:16:46.90	155.52	36.12	-28.3	-30.5	14.3	0.00e+00	0	42	0	411041792	16	4631
2026-01-11 10:16:47.89	155.49	36.35	-28.5	-30.9	14.1	1.50e-06	0	42	0	414187520	16	4750
2026-01-11 10:16:48.90	155.47	36.59	-28.6	-30.6	14.0	2.20e-06	0	42	0	417333248	17	4553
2026-01-11 10:16:49.89	155.45	36.82	-28.8	-31.0	13.7	8.30e-06	0	42	0	419430400	17	4669
2026-01-11 10:16:50.90	155.42	37.07	-28.8	-31.2	13.7	8.30e-06	0	42	0	422576128	17	4719
2026-01-11 10:16:51.91	155.40	37.31	-28.8	-31.2	13.6	9.90e-06	0	42	0	425721856	17	4725
2026-01-11 10:16:52.91	155.37	37.55	-28.7	-31.0	13.7	7.60e-06	0	42	0	428867584	17	4666
2026-01-11 10:16:53.91	155.35	37.80	-28.7	-30.8	13.9	2.20e-06	0	42	0	432013312	17	4612
2026-01-11 10:16:54.92	155.32	38.05	-28.7	-30.9	13.9	3.00e-06	0	42	0	435159040	17	4632
2026-01-11 10:16:55.92	155.30	38.30	-28.7	-30.8	13.9	5.30e-06	0	42	0	439353344	17	4606
2026-01-11 10:16:56.93	155.27	38.55	-28.6	-30.7	13.9	2.20e-06	0	42	0	442499072	17	4587
2026-01-11 10:16:57.94	155.24	38.81	-28.7	-30.9	13.8	2.20e-06	0	42	0	444596224	17	4634
2026-01-11 10:16:58.95	155.22	39.07	-28.7	-31.0	13.8	4.50e-06	0	42	0	447741952	17	4657
2026-01-11 10:16:59.94	155.19	39.32	-28.7	-30.8	13.9	4.50e-06	0	42	0	450887680	17	4586
2026-01-11 10:17:00.93	155.16	39.58	-28.6	-30.7	14.0	4.50e-06	0	42	0	454033408	17	4559
2026-01-11 10:17:01.94	155.13	39.84	-28.7	-30.9	13.8	2.20e-06	0	42	0	457179136	17	4635
2026-01-11 10:17:02.95	155.10	40.10	-28.8	-31.1	13.8	6.10e-06	0	42	0	460324864	17	4677
2026-01-11 10:17:03.95	155.07	40.37	-28.8	-31.0	13.8	3.00e-06	0	42	0	463470592	17	4650
2026-01-11 10:17:04.96	155.04	40.64	-28.7	-30.9	13.9	2.20e-06	0	42	0	466616320	17	4638
2026-01-11 10:17:05.96	155.01	40.91	-28.8	-31.2	13.7	5.30e-06	0	42	0	469762048	17	4714
2026-01-11 10:17:06.96	154.98	41.18	-28.8	-31.1	13.8	3.00e-06	0	42	0	472907776	17	4683
2026-01-11 10:17:07.97	154.95	41.45	-28.8	-31.1	13.8	6.10e-06	0	42	0	476053504	17	4672
2026-01-11 10:17:08.97	154.91	41.72	-28.9	-31.4	13.6	6.80e-06	0	42	0	479199232	17	4789
2026-01-11 10:17:09.97	154.88	42.00	-29.0	-31.1	13.5	1.22e-05	0	42	0	482344960	18	4562
2026-01-11 10:17:10.97	154.85	42.28	-29.4	-32.0	12.9	3.73e-05	0	42	0	485490688	18	4860
2026-01-11 10:17:11.98	154.81	42.56	-29.3	-31.8	13.1	3.81e-05	0	42	0	488636416	18	4785
2026-01-11 10:17:12.98	154.78	42.85	-29.6	-32.0	12.7	7.55e-05	0	42	0	491782144	19	4751
2026-01-11 10:17:13.97	154.74	43.13	-29.4	-31.6	12.9	5.72e-05	0	42	0	494927872	19	4617
2026-01-11 10:17:14.98	154.70	43.42	-29.1	-30.8	13.3	2.13e-05	0	42	0	498073600	19	4383
2026-01-11 10:17:15.98	154.67	43.71	-29.0	-30.5	13.5	9.90e-06	0	42	0	501219328	19	4285
2026-01-11 10:17:16.98	154.63	44.00	-29.0	-30.5	13.6	9.90e-06	0	42	0	504365056	19	4274
2026-01-11 10:17:17.98	154.59	44.29	-29.2	-30.9	13.3	1.52e-05	0	42	0	507510784	19	4408
2026-01-11 10:17:18.97	154.55	44.59	-29.1	-30.7	13.4	1.67e-05	0	42	0	510656512	19	4356
2026-01-11 10:17:19.98	154.51	44.89	-29.2	-31.0	13.3	1.22e-05	0	42	0	513802240	19	4425
2026-01-11 10:17:20.98	154.47	45.19	-29.4	-31.5	13.0	2.82e-05	0	42	0	516947968	19	4576
2026-01-11 10:17:21.98	154.42	45.49	-29.5	-31.7	12.8	5.56e-05	0	42	0	520093696	19	4655
2026-01-11 10:17:22.98	154.38	45.79	-29.6	-32.0	12.6	7.24e-05	0	42	0	523239424	19	4761
2026-01-11 10:17:23.98	154.34	46.10	-29.5	-31.8	12.8	5.87e-05	0	42	0	526385152	19	4685
2026-01-11 10:17:24.98	154.29	46.41	-29.4	-31.6	12.9	5.49e-05	0	42	0	529530880	19	4635
2026-01-11 10:17:25.98	154.25	46.72	-29.3	-31.2	13.2	2.82e-05	0	42	0	532676608	19	4486
2026-01-11 10:17:26.99	154.20	47.04	-29.1	-30.9	13.4	2.44e-05	0	42	0	535822336	19	4398
2026-01-11 10:17:27.99	154.15	47.35	-29.1	-30.9	13.4	1.29e-05	0	42	0	538968064	19	4403
2026-01-11 10:17:28.99	154.10	47.67	-29.2	-31.1	13.2	1.67e-05	0	42	0	542113792	19	4482
2026-01-11 10:17:29.99	154.05	47.99	-28.9	-30.3	13.7	1.22e-05	0	42	0	545259520	19	4220
2026-01-11 10:17:30.99	154.00	48.32	-28.8	-30.2	13.8	6.10e-06	0	42	0	548405248	19	4188
2026-01-11 10:17:32.00	153.95	48.65	-28.8	-30.5	14.0	7.00e-07	0	42	0	551550976	18	4376
2026-01-11 10:17:33.01	153.89	48.98	-28.8	-30.5	13.9	4.50e-06	0	42	0	554696704	18	4392
2026-01-11 10:17:34.01	153.84	49.31	-28.7	-30.4	13.9	7.00e-07	0	42	0	557842432	18	4356
2026-01-11 10:17:35.01	153.78	49.64	-28.8	-30.6	13.8	2.20e-06	0	42	0	560988160	18	4426
2026-01-11 10:17:36.00	153.73	49.97	-28.7	-30.3	14.0	2.20e-06	0	42	0	564133888	18	4340
2026-01-11 10:17:37.01	153.67	50.31	-28.8	-30.6	13.9	7.00e-07	0	42	0	567279616	18	4421
2026-01-11 10:17:38.01	153.61	50.66	-28.7	-30.3	14.0	4.50e-06	0	42	0	570425344	18	4328
2026-01-11 10:17:39.01	153.55	51.00	-28.9	-30.8	13.8	6.10e-06	0	42	0	573571072	18	4493
2026-01-11 10:17:40.01	153.48	51.34	-28.7	-30.2	14.1	1.50e-06	0	42	0	576716800	18	4308
2026-01-11 10:17:41.00	153.42	51.69	-28.6	-30.0	14.2	0.00e+00	0	42	0	579862528	18	4249
2026-01-11 10:17:42.00	153.35	52.04	-28.7	-30.3	14.1	3.80e-06	0	42	0	583008256	18	4324
2026-01-11 10:17:43.00	153.28	52.39	-28.3	-29.4	14.5	7.00e-07	0	42	0	586153984	18	4069
2026-01-11 10:17:44.01	153.21	52.75	-27.9	-29.0	15.0	0.00e+00	0	42	0	589299712	17	4076
2026-01-11 10:17:45.01	153.14	53.11	-27.8	-29.2	15.2	0.00e+00	0	42	0	592445440	16	4237
2026-01-11 10:17:46.02	153.07	53.47	-27.6	-28.8	15.4	0.00e+00	0	42	0	595591168	16	4126
2026-01-11 10:17:47.03	152.99	53.84	-27.5	-28.6	15.5	0.00e+00	0	42	0	598736896	16	4085
2026-01-11 10:17:48.03	152.91	54.20	-27.6	-28.9	15.4	0.00e+00	0	42	0	601882624	16	4150
2026-01-11 10:17:49.03	152.84	54.57	-27.3	-28.1	15.8	0.00e+00	0	42	0	605028352	16	3948
2026-01-11 10:17:50.02	152.75	54.94	-27.1	-28.1	16.0	0.00e+00	0	42	0	608174080	15	4039
2026-01-11 10:17:51.03	152.67	55.31	-27.0	-27.9	16.1	0.00e+00	0	42	0	611319808	15	4006
2026-01-11 10:17:52.03	152.58	55.69	-27.0	-27.9	16.1	0.00e+00	0	42	0	614465536	15	4003
2026-01-11 10:17:53.03	152.50	56.07	-27.1	-28.2	16.0	7.00e-07	0	42	0	617611264	15	4071
2026-01-11 10:17:54.03	152.40	56.45	-27.1	-28.2	16.0	0.00e+00	0	42	0	620756992	15	4078
2026-01-11 10:17:55.03	152.31	56.83	-27.0	-27.9	16.1	0.00e+00	0	42	0	623902720	15	4011
2026-01-11 10:17:56.04	152.21	57.22	-27.0	-27.9	16.1	0.00e+00	0	42	0	627048448	15	4011
2026-01-11 10:17:57.04	152.11	57.61	-26.9	-27.7	16.2	0.00e+00	0	42	0	630194176	15	3941
2026-01-11 10:17:58.03	152.01	58.00	-26.7	-27.8	16.5	0.00e+00	0	42	0	633339904	14	4068
2026-01-11 10:17:59.04	151.91	58.39	-26.6	-27.5	16.5	0.00e+00	0	42	0	636485632	14	3996
2026-01-11 10:18:00.05	151.80	58.79	-26.8	-28.0	16.3	0.00e+00	0	42	0	639631360	14	4137
2026-01-11 10:18:01.04	151.69	59.19	-26.4	-27.0	16.8	0.00e+00	0	42	0	642777088	14	3883
2026-01-11 10:18:02.04	151.57	59.59	-26.2	-27.1	17.1	0.00e+00	0	42	0	645922816	13	4002
2026-01-11 10:18:03.04	151.45	59.99	-26.1	-27.1	17.1	0.00e+00	0	42	0	649068544	13	3997
2026-01-11 10:18:04.04	151.33	60.40	-26.3	-27.5	16.9	0.00e+00	0	42	0	651165696	13	4102
2026-01-11 10:18:05.05	151.20	60.81	-26.3	-27.5	16.9	0.00e+00	0	42	0	654311424	13	4099
2026-01-11 10:18:06.05	151.07	61.22	-26.4	-27.5	16.8	0.00e+00	0	42	0	657457152	13	4126
2026-01-11 10:18:07.05	150.93	61.64	-26.2	-27.2	17.0	0.00e+00	0	42	0	660602880	13	4034
2026-01-11 10:18:08.05	150.79	62.05	-26.2	-27.1	17.1	0.00e+00	0	42	0	663748608	13	4017
2026-01-11 10:18:09.05	150.64	62.47	-26.4	-27.7	16.8	0.00e+00	0	42	0	666894336	13	4152
2026-01-11 10:18:10.05	150.49	62.89	-26.1	-27.0	17.1	0.00e+00	0	42	0	670040064	13	3979
2026-01-11 10:18:11.05	150.33	63.31	-25.9	-26.6	17.3	0.00e+00	0	42	0	673185792	13	3886
2026-01-11 10:18:12.04	150.17	63.73	-25.8	-26.3	17.4	0.00e+00	0	42	0	676331520	13	3811
2026-01-11 10:18:13.04	150.00	64.16	-25.8	-26.2	17.4	0.00e+00	0	42	0	679477248	13	3802
2026-01-11 10:18:14.05	149.83	64.60	-25.9	-27.1	17.2	0.00e+00	0	42	0	682622976	12	4122
2026-01-11 10:18:15.05	149.64	65.03	-25.6	-26.3	17.6	0.00e+00	0	42	0	685768704	12	3926
2026-01-11 10:18:16.05	149.45	65.46	-25.7	-26.7	17.4	0.00e+00	0	42	0	688914432	12	4014
2026-01-11 10:18:17.05	149.26	65.90	-25.4	-26.1	17.8	0.00e+00	0	42	0	692060160	12	3859
2026-01-11 10:18:18.06	149.05	66.34	-25.3	-25.8	17.9	0.00e+00	0	42	0	695205888	12	3806
2026-01-11 10:18:19.06	148.83	66.78	-25.4	-26.0	17.8	0.00e+00	0	42	0	698351616	12	3840
2026-01-11 10:18:20.07	148.61	67.23	-25.4	-25.9	17.9	0.00e+00	0	42	0	701497344	12	3820
2026-01-11 10:18:21.07	148.37	67.67	-25.5	-26.2	17.7	0.00e+00	0	42	0	704643072	12	3898
2026-01-11 10:18:22.08	148.13	68.12	-25.5	-26.1	17.8	0.00e+00	0	42	0	707788800	12	3871
2026-01-11 10:18:23.09	147.87	68.58	-25.5	-26.3	17.7	0.00e+00	0	42	0	710934528	12	3911
2026-01-11 10:18:24.08	147.60	69.02	-25.8	-26.8	17.4	0.00e+00	0	42	0	714080256	12	4051
2026-01-11 10:18:25.09	147.32	69.48	-26.0	-27.4	17.1	0.00e+00	0	42	0	717225984	12	4197
2026-01-11 10:18:26.10	147.02	69.94	-26.1	-27.4	17.1	0.00e+00	0	42	0	720371712	12	4217
2026-01-11 10:18:27.10	146.71	70.39	-26.0	-27.2	17.1	0.00e+00	0	42	0	723517440	12	4155
2026-01-11 10:18:28.10	146.39	70.85	-26.3	-27.8	16.8	0.00e+00	0	42	0	726663168	12	4302
2026-01-11 10:18:29.10	146.05	71.31	-26.4	-28.1	16.7	0.00e+00	0	42	0	729808896	12	4388
2026-01-11 10:18:30.11	145.68	71.77	-26.5	-27.8	16.5	0.00e+00	0	42	0	732954624	13	4206
2026-01-11 10:18:31.11	145.30	72.23	-26.4	-27.6	16.7	0.00e+00	0	42	0	736100352	13	4149
2026-01-11 10:18:32.11	144.90	72.69	-26.5	-27.8	16.6	0.00e+00	0	42	0	739246080	13	4193
2026-01-11 10:18:33.12	144.47	73.16	-26.3	-27.3	16.8	0.00e+00	0	42	0	742391808	13	4075
2026-01-11 10:18:34.12	144.02	73.62	-26.4	-27.7	16.7	0.00e+00	0	42	0	745537536	13	4170
2026-01-11 10:18:35.13	143.53	74.09	-26.6	-28.0	16.5	0.00e+00	0	42	0	748683264	13	4254
2026-01-11 10:18:36.14	143.02	74.56	-26.2	-27.2	16.9	0.00e+00	0	42	0	751828992	13	4034
2026-01-11 10:18:37.15	142.47	75.03	-26.0	-26.8	17.2	0.00e+00	0	42	0	754974720	13	3938
2026-01-11 10:18:38.16	141.88	75.50	-26.1	-27.1	17.0	0.00e+00	0	42	0	758120448	13	4005
2026-01-11 10:18:39.16	141.26	75.97	-26.4	-27.6	16.8	0.00e+00	0	42	0	761266176	13	4134
2026-01-11 10:18:40.17	140.59	76.44	-26.1	-27.1	17.0	0.00e+00	0	42	0	764411904	13	4009
2026-01-11 10:18:41.17	139.87	76.90	-25.9	-26.6	17.2	0.00e+00	0	42	0	767557632	13	3887
2026-01-11 10:18:42.18	139.09	77.37	-26.1	-27.0	17.0	0.00e+00	0	42	0	770703360	13	3991
2026-01-11 10:18:43.18	138.26	77.84	-26.1	-27.0	17.1	0.00e+00	0	42	0	773849088	13	3980
2026-01-11 10:18:44.19	137.35	78.30	-26.3	-27.3	16.9	0.00e+00	0	42	0	776994816	13	4074
2026-01-11 10:18:45.19	136.38	78.76	-26.0	-26.8	17.0	0.00e+00	0	42	0	780140544	13	3948
2026-01-11 10:18:46.19	135.31	79.22	-25.9	-26.6	17.3	0.00e+00	0	42	0	783286272	13	3873
2026-01-11 10:18:47.20	134.15	79.68	-26.0	-26.8	17.2	0.00e+00	0	42	0	786432000	13	3940
2026-01-11 10:18:48.21	132.87	80.14	-26.0	-26.8	17.2	0.00e+00	0	42	0	789577728	13	3950
2026-01-11 10:18:49.22	131.46	80.59	-25.9	-26.6	17.2	0.00e+00	0	42	0	792723456	13	3883
2026-01-11 10:18:50.22	129.93	81.03	-25.5	-26.2	17.7	0.00e+00	0	42	0	795869184	12	3894
2026-01-11 10:18:51.23	128.21	81.47	-25.7	-26.5	17.6	0.00e+00	0	42	0	799014912	12	3956
2026-01-11 10:18:52.24	126.32	81.90	-26.0	-27.2	17.3	0.00e+00	0	42	0	802160640	12	4141
2026-01-11 10:18:53.25	124.20	82.33	-26.2	-27.7	17.1	0.00e+00	0	42	0	805306368	12	4283
2026-01-11 10:18:54.25	121.87	82.74	-26.0	-27.2	17.2	0.00e+00	0	42	0	808452096	12	4141
2026-01-11 10:18:55.26	119.23	83.14	-25.9	-27.0	17.3	0.00e+00	0	42	0	811597824	12	4092
2026-01-11 10:18:56.27	116.26	83.52	-26.3	-28.0	17.0	0.00e+00	0	42	0	814743552	12	4353
2026-01-11 10:18:57.27	112.97	83.88	-27.2	-29.0	15.9	0.00e+00	0	42	0	817889280	14	4395
2026-01-11 10:18:58.28	109.23	84.22	-27.6	-29.3	15.5	0.00e+00	0	42	0	821035008	15	4369
2026-01-11 10:18:59.28	105.09	84.54	-27.7	-29.5	15.4	7.00e-07	0	42	0	824180736	15	4426
2026-01-11 10:19:00.29	100.41	84.82	-27.8	-29.7	15.3	2.20e-06	0	42	0	827326464	15	4493
2026-01-11 10:19:01.29	95.29	85.06	-27.7	-29.6	15.3	0.00e+00	0	42	0	830472192	15	4443
2026-01-11 10:19:02.30	89.62	85.26	-27.7	-29.5	15.5	0.00e+00	0	42	0	833617920	15	4416
2026-01-11 10:19:03.31	83.52	85.42	-27.9	-30.1	15.1	3.00e-06	0	42	0	836763648	15	4592
2026-01-11 10:19:04.31	77.13	85.51	-28.4	-30.6	14.8	7.00e-07	0	42	0	839909376	16	4612
2026-01-11 10:19:05.31	70.56	85.55	-28.0	-29.5	15.3	0.00e+00	0	42	0	843055104	16	4300
2026-01-11 10:19:06.32	63.89	85.53	-27.7	-28.9	15.7	0.00e+00	0	42	0	846200832	16	4137
2026-01-11 10:19:07.32	57.43	85.45	-27.8	-29.1	15.5	0.00e+00	0	42	0	849346560	16	4179
2026-01-11 10:19:08.33	51.22	85.31	-28.2	-30.1	15.0	0.00e+00	0	42	0	852492288	16	4475
2026-01-11 10:19:09.34	45.41	85.13	-28.2	-30.0	15.1	3.00e-06	0	42	0	855638016	16	4424
2026-01-11 10:19:10.35	40.09	84.89	-28.3	-30.4	14.8	0.00e+00	0	42	0	858783744	16	4552
2026-01-11 10:19:11.35	35.32	84.62	-28.4	-30.4	14.8	0.00e+00	0	42	0	861929472	16	4565
2026-01-11 10:19:12.36	31.00	84.32	-28.4	-30.6	14.7	0.00e+00	0	42	0	865075200	16	4615
2026-01-11 10:19:13.36	27.18	83.99	-28.6	-30.5	14.5	1.50e-06	0	42	0	868220928	17	4469
2026-01-11 10:19:14.37	23.74	83.63	-28.8	-31.0	14.1	1.50e-06	0	42	0	871366656	17	4630
2026-01-11 10:19:15.38	20.67	83.25	-28.7	-30.7	14.3	1.29e-05	0	42	0	874512384	17	4541
2026-01-11 10:19:16.38	17.97	82.86	-28.8	-31.0	14.2	7.00e-07	0	42	0	877658112	17	4626
2026-01-11 10:19:17.39	15.54	82.45	-28.3	-29.9	14.7	7.00e-07	0	42	0	880803840	17	4308
2026-01-11 10:19:18.40	13.36	82.03	-27.7	-29.0	15.6	0.00e+00	0	42	0	883949568	16	4170
2026-01-11 10:19:19.40	11.42	81.60	-27.6	-28.8	15.7	0.00e+00	0	42	0	887095296	16	4104
2026-01-11 10:19:20.41	9.65	81.16	-27.4	-28.3	15.8	0.00e+00	0	42	0	890241024	16	3983
2026-01-11 10:19:21.40	8.09	80.73	-26.9	-27.6	16.4	0.00e+00	0	42	0	893386752	15	3922
2026-01-11 10:19:22.41	6.64	80.28	-26.4	-27.0	16.9	0.00e+00	0	42	0	896532480	14	3878
2026-01-11 10:19:23.42	5.33	79.82	-26.4	-27.0	17.0	0.00e+00	0	42	0	899678208	14	3873
2026-01-11 10:19:24.42	4.14	79.37	-26.4	-27.1	16.9	0.00e+00	0	42	0	902823936	14	3909
2026-01-11 10:19:25.41	3.06	78.92	-26.8	-27.9	16.5	0.00e+00	0	42	0	905969664	14	4100
2026-01-11 10:19:26.42	2.05	78.46	-26.9	-28.3	16.2	0.00e+00	0	42	0	909115392	14	4203
2026-01-11 10:19:27.43	1.12	77.99	-26.7	-27.7	16.5	0.00e+00	0	42	0	912261120	14	4051
2026-01-11 10:19:28.44	0.26	77.52	-25.7	-26.6	17.6	0.00e+00	0	42	0	915406848	12	3988
2026-01-11 10:19:29.44	359.47	77.06	-25.3	-26.3	18.1	0.00e+00	0	42	0	918552576	11	4002
2026-01-11 10:19:30.45	358.73	76.59	-25.3	-26.2	18.1	0.00e+00	0	42	0	921698304	11	3992
2026-01-11 10:19:31.45	358.05	76.13	-25.8	-27.3	17.6	0.00e+00	0	42	0	924844032	11	4281
2026-01-11 10:19:32.46	357.41	75.66	-26.3	-27.9	16.9	0.00e+00	0	42	0	927989760	12	4325
2026-01-11 10:19:33.46	356.81	75.19	-26.1	-27.4	17.2	0.00e+00	0	42	0	931135488	12	4181
2026-01-11 10:19:34.47	356.25	74.72	-25.5	-26.2	17.8	0.00e+00	0	42	0	934281216	12	3885
2026-01-11 10:19:35.47	355.73	74.26	-25.6	-26.3	17.8	0.00e+00	0	42	0	937426944	12	3913
2026-01-11 10:19:36.47	355.24	73.79	-26.0	-27.2	17.3	0.00e+00	0	42	0	940572672	12	4137
2026-01-11 10:19:37.48	354.78	73.33	-26.6	-28.1	16.6	0.00e+00	0	42	0	943718400	13	4278
2026-01-11 10:19:38.49	354.34	72.86	-27.3	-29.0	15.7	0.00e+00	0	42	0	946864128	14	4422
2026-01-11 10:19:39.49	353.93	72.40	-27.1	-28.6	16.0	0.00e+00	0	42	0	950009856	14	4303
2026-01-11 10:19:40.50	353.54	71.93	-26.7	-27.7	16.6	0.00e+00	0	42	0	953155584	14	4052
2026-01-11 10:19:41.51	353.17	71.47	-26.0	-26.8	17.3	0.00e+00	0	42	0	956301312	13	3930
2026-01-11 10:19:42.51	352.82	71.01	-25.9	-26.6	17.4	0.00e+00	0	42	0	959447040	13	3873
2026-01-11 10:19:43.52	352.48	70.55	-26.2	-27.1	17.0	0.00e+00	0	42	0	962592768	13	4007
2026-01-11 10:19:44.52	352.17	70.10	-26.3	-27.3	16.8	0.00e+00	0	42	0	965738496	13	4059
2026-01-11 10:19:45.53	351.87	69.64	-26.6	-28.0	16.6	0.00e+00	0	42	0	968884224	13	4230
2026-01-11 10:19:46.54	351.58	69.18	-27.0	-28.9	16.1	0.00e+00	0	42	0	972029952	13	4474
2026-01-11 10:19:47.55	351.31	68.73	-26.9	-28.1	16.2	0.00e+00	0	42	0	975175680	14	4154
2026-01-11 10:19:48.56	351.05	68.28	-26.0	-26.8	17.1	0.00e+00	0	42	0	978321408	13	3926
2026-01-11 10:19:49.57	350.80	67.83	-25.4	-26.0	17.9	0.00e+00	0	42	0	981467136	12	3830
2026-01-11 10:19:50.57	350.56	67.38	-25.3	-26.1	18.1	0.00e+00	0	42	0	984612864	11	3966
2026-01-11 10:19:51.59	350.33	66.93	-25.4	-26.3	17.9	0.00e+00	0	42	0	987758592	11	4010
2026-01-11 10:19:52.58	350.11	66.50	-25.9	-27.5	17.4	0.00e+00	0	42	0	990904320	11	4318
2026-01-11 10:19:53.59	349.90	66.05	-26.7	-28.3	16.4	0.00e+00	0	42	0	994050048	13	4328
2026-01-11 10:19:54.60	349.70	65.61	-26.6	-28.1	16.5	0.00e+00	0	42	0	997195776	13	4264
2026-01-11 10:19:55.61	349.51	65.18	-26.0	-26.7	17.2	0.00e+00	0	42	0	1000341504	13	3904
2026-01-11 10:19:56.61	349.32	64.74	-25.9	-26.5	17.2	7.00e-07	0	42	0	1003487232	13	3863
2026-01-11 10:19:57.61	349.15	64.31	-25.9	-26.5	17.3	0.00e+00	0	42	0	1006632960	13	3854
2026-01-11 10:19:58.61	348.98	63.89	-26.2	-27.2	17.0	0.00e+00	0	42	0	1009778688	13	4037
2026-01-11 10:19:59.61	348.81	63.46	-26.6	-27.9	16.5	0.00e+00	0	42	0	1012924416	13	4227
2026-01-11 10:20:00.61	348.65	63.04	-27.6	-29.4	15.3	0.00e+00	0	42	0	1016070144	15	4409
2026-01-11 10:20:01.62	348.50	62.62	-28.3	-30.4	14.6	0.00e+00	0	42	0	1019215872	16	4583
2026-01-11 10:20:02.63	348.35	62.20	-28.2	-30.2	14.6	7.00e-07	0	42	0	1022361600	16	4511
2026-01-11 10:20:03.63	348.21	61.78	-28.1	-29.8	14.8	0.00e+00	0	42	0	1025507328	16	4402
2026-01-11 10:20:04.64	348.07	61.36	-28.1	-29.9	14.8	0.00e+00	0	42	0	1028653056	16	4412
2026-01-11 10:20:05.65	347.94	60.95	-27.9	-29.4	15.1	7.00e-07	0	42	0	1031798784	16	4294
2026-01-11 10:20:06.66	347.81	60.54	-27.5	-28.4	15.7	0.00e+00	0	42	0	1034944512	16	4025
2026-01-11 10:20:07.67	347.68	60.13	-27.1	-28.2	15.9	0.00e+00	0	42	0	1038090240	15	4086
2026-01-11 10:20:08.67	347.56	59.73	-27.5	-29.1	15.4	0.00e+00	0	42	0	1041235968	15	4317
2026-01-11 10:20:09.68	347.44	59.32	-28.3	-30.5	14.5	0.00e+00	0	42	0	1044381696	16	4604
2026-01-11 10:20:10.69	347.33	58.92	-28.9	-31.4	13.7	6.10e-06	0	42	0	1047527424	17	4792
2026-01-11 10:20:11.70	347.22	58.52	-29.0	-31.1	13.7	9.10e-06	0	42	0	1050673152	18	4563
2026-01-11 10:20:12.70	347.11	58.13	-28.0	-29.1	14.9	0.00e+00	0	42	0	1053818880	17	4114
2026-01-11 10:20:13.71	347.01	57.73	-26.7	-27.7	16.4	0.00e+00	0	42	0	1056964608	14	4048
2026-01-11 10:20:14.72	346.91	57.34	-26.1	-27.0	17.0	0.00e+00	0	42	0	1060110336	13	3989
2026-01-11 10:20:15.72	346.81	56.96	-26.3	-27.3	16.9	0.00e+00	0	42	0	1063256064	13	4064
2026-01-11 10:20:16.73	346.72	56.57	-26.9	-28.8	16.2	0.00e+00	0	42	0	1066401792	13	4458
2026-01-11 10:20:17.73	346.63	56.19	-27.8	-29.7	15.1	0.00e+00	0	42	0	1069547520	15	4501
2026-01-11 10:20:18.74	346.54	55.81	-28.1	-30.0	14.9	0.00e+00	0	42	0	1072693248	16	4443
2026-01-11 10:20:19.74	346.45	55.43	-28.5	-30.8	14.4	0.00e+00	0	42	0	1075838976	16	4708
2026-01-11 10:20:20.75	346.37	55.06	-28.7	-30.8	14.0	1.50e-06	0	42	0	1078984704	17	4596
2026-01-11 10:20:21.75	346.28	54.69	-28.6	-30.7	14.0	7.00e-07	0	42	0	1082130432	17	4543
2026-01-11 10:20:22.76	346.20	54.32	-28.5	-30.3	14.1	1.50e-06	0	42	0	1085276160	17	4449
2026-01-11 10:20:23.76	346.13	53.95	-28.4	-30.1	14.3	3.00e-06	0	42	0	1088421888	17	4394
2026-01-11 10:20:24.77	346.05	53.59	-28.1	-29.3	14.9	0.00e+00	0	42	0	1091567616	17	4149
2026-01-11 10:20:25.78	345.98	53.22	-27.9	-28.8	15.2	0.00e+00	0	42	0	1094713344	17	4016
2026-01-11 10:20:26.78	345.90	52.87	-28.1	-29.5	14.7	0.00e+00	0	42	0	1097859072	17	4191
2026-01-11 10:20:27.79	345.83	52.51	-28.6	-30.6	14.2	1.50e-06	0	42	0	1101004800	17	4513
2026-01-11 10:20:28.80	345.77	52.15	-29.1	-31.2	13.5	2.20e-06	0	42	0	1104150528	18	4605
2026-01-11 10:20:29.81	345.70	51.80	-29.5	-31.8	12.9	3.50e-05	0	42	0	1107296256	19	4672
2026-01-11 10:20:30.82	345.63	51.45	-29.7	-32.3	12.6	6.79e-05	0	42	0	1110441984	19	4830
2026-01-11 10:20:31.83	345.57	51.10	-29.6	-32.1	12.7	6.71e-05	0	42	0	1113587712	19	4775
2026-01-11 10:20:32.83	345.51	50.76	-29.7	-32.1	12.6	1.01e-04	0	42	0	1116733440	19	4778
2026-01-11 10:20:33.84	345.45	50.42	-29.7	-32.2	12.6	8.23e-05	0	42	0	1119879168	19	4811
2026-01-11 10:20:34.85	345.39	50.08	-30.1	-32.8	11.8	3.20e-04	0	42	0	1123024896	20	4896
2026-01-11 10:20:35.86	345.33	49.74	-30.0	-32.6	11.9	4.42e-04	0	42	0	1126170624	20	4830
2026-01-11 10:20:36.87	345.27	49.41	-29.6	-31.4	12.6	2.17e-04	0	42	0	1129316352	20	4467
2026-01-11 10:20:37.88	345.22	49.07	-29.2	-31.0	13.2	3.28e-05	0	42	0	1132462080	19	4432
2026-01-11 10:20:38.89	345.17	48.74	-28.9	-30.2	13.7	5.30e-06	0	42	0	1135607808	19	4205
2026-01-11 10:20:39.89	345.11	48.42	-28.9	-30.2	13.8	4.50e-06	0	42	0	1138753536	19	4197
2026-01-11 10:20:40.89	345.06	48.09	-29.0	-30.5	13.5	9.10e-06	0	42	0	1141899264	19	4294
2026-01-11 10:20:41.91	345.01	47.77	-29.3	-31.3	13.0	1.90e-05	0	42	0	1145044992	19	4517
2026-01-11 10:20:42.91	344.96	47.45	-29.5	-31.7	12.8	6.86e-05	0	42	0	1148190720	19	4640
2026-01-11 10:20:43.92	344.91	47.13	-29.5	-31.8	12.8	6.63e-05	0	42	0	1151336448	19	4686
2026-01-11 10:20:44.92	344.87	46.82	-29.5	-31.8	12.8	5.34e-05	0	42	0	1154482176	19	4687
2026-01-11 10:20:45.93	344.82	46.51	-29.5	-31.7	12.8	6.48e-05	0	42	0	1157627904	19	4663
2026-01-11 10:20:46.93	344.78	46.20	-29.5	-31.8	12.7	5.87e-05	0	42	0	1160773632	19	4685
2026-01-11 10:20:47.94	344.73	45.89	-29.4	-31.6	13.0	5.11e-05	0	42	0	1163919360	19	4601
2026-01-11 10:20:48.95	344.69	45.58	-29.4	-31.5	13.0	4.27e-05	0	42	0	1167065088	19	4582
2026-01-11 10:20:49.95	344.65	45.28	-29.4	-31.6	12.9	4.73e-05	0	42	0	1170210816	19	4620
2026-01-11 10:20:50.96	344.61	44.98	-29.5	-31.8	12.8	6.17e-05	0	42	0	1173356544	19	4693
2026-01-11 10:20:51.97	344.57	44.68	-29.4	-31.6	12.9	6.17e-05	0	42	0	1176502272	19	4622
2026-01-11 10:20:52.97	344.53	44.38	-29.5	-31.7	12.8	5.18e-05	0	42	0	1179648000	19	4641
2026-01-11 10:20:53.99	344.49	44.09	-29.4	-31.6	12.9	4.88e-05	0	42	0	1182793728	19	4618
2026-01-11 10:20:54.99	344.45	43.80	-29.1	-30.8	13.4	1.37e-05	0	42	0	1185939456	19	4391
2026-01-11 10:20:56.00	344.41	43.50	-29.0	-30.5	13.6	7.60e-06	0	42	0	1189085184	19	4288
2026-01-11 10:20:57.01	344.37	43.22	-29.1	-30.7	13.4	1.14e-05	0	42	0	1192230912	19	4356
2026-01-11 10:20:58.01	344.34	42.93	-29.0	-30.6	13.5	8.30e-06	0	42	0	1195376640	19	4303
2026-01-11 10:20:59.02	344.30	42.65	-29.1	-30.8	13.3	1.14e-05	0	42	0	1198522368	19	4391
2026-01-11 10:21:00.02	344.27	42.37	-29.3	-31.3	13.0	3.50e-05	0	42	0	1201668096	19	4542
2026-01-11 10:21:01.03	344.24	42.09	-29.4	-31.5	12.9	4.34e-05	0	42	0	1204813824	19	4608
2026-01-11 10:21:02.04	344.20	41.81	-29.5	-31.8	12.7	6.40e-05	0	42	0	1207959552	19	4695
2026-01-11 10:21:03.05	344.17	41.53	-29.4	-31.7	12.8	7.47e-05	0	42	0	1211105280	19	4643
2026-01-11 10:21:04.05	344.14	41.26	-29.5	-31.7	12.9	4.27e-05	0	42	0	1214251008	19	4651
2026-01-11 10:21:05.06	344.11	40.99	-29.3	-31.4	13.0	3.58e-05	0	42	0	1217396736	19	4557
2026-01-11 10:21:06.07	344.08	40.72	-29.0	-30.6	13.5	1.44e-05	0	42	0	1220542464	19	4331
2026-01-11 10:21:07.07	344.05	40.45	-28.9	-30.3	13.8	9.90e-06	0	42	0	1223688192	19	4217
2026-01-11 10:21:08.08	344.02	40.19	-28.9	-30.3	13.8	3.80e-06	0	42	0	1226833920	19	4214
2026-01-11 10:21:09.09	343.99	39.93	-29.1	-30.8	13.4	9.90e-06	0	42	0	1229979648	19	4373
2026-01-11 10:21:10.09	343.96	39.67	-29.1	-30.7	13.5	6.10e-06	0	42	0	1233125376	19	4350
2026-01-11 10:21:11.10	343.93	39.41	-29.3	-31.3	13.1	1.29e-05	0	42	0	1236271104	19	4522
2026-01-11 10:21:12.11	343.90	39.15	-29.3	-31.3	13.1	3.43e-05	0	42	0	1239416832	19	4525
2026-01-11 10:21:13.11	343.88	38.89	-29.4	-31.5	13.0	2.59e-05	0	42	0	1242562560	19	4603
2026-01-11 10:21:14.11	343.85	38.64	-29.3	-31.2	13.2	1.90e-05	0	42	0	1245708288	19	4479
2026-01-11 10:21:15.12	343.82	38.39	-29.1	-30.7	13.5	1.67e-05	0	42	0	1248854016	19	4344
2026-01-11 10:21:16.13	343.80	38.14	-29.0	-30.4	13.6	7.60e-06	0	42	0	1251999744	19	4253
2026-01-11 10:21:17.13	343.77	37.89	-28.8	-30.5	13.9	2.20e-06	0	42	0	1255145472	18	4372
2026-01-11 10:21:18.13	343.75	37.65	-28.8	-30.5	13.9	3.00e-06	0	42	0	1258291200	18	4376
2026-01-11 10:21:19.14	343.72	37.40	-28.2	-29.7	14.6	7.00e-07	0	42	0	1261436928	17	4262
2026-01-11 10:21:20.15	343.70	37.16	-28.0	-29.2	14.9	0.00e+00	0	42	0	1264582656	17	4117
2026-01-11 10:21:21.16	343.67	36.92	-27.9	-29.0	15.0	0.00e+00	0	42	0	1267728384	17	4068
2026-01-11 10:21:22.16	343.65	36.68	-28.2	-29.5	14.7	0.00e+00	0	42	0	1270874112	17	4219
2026-01-11 10:21:23.17	343.63	36.44	-28.5	-30.2	14.3	7.00e-07	0	42	0	1274019840	17	4422
2026-01-11 10:21:24.17	343.61	36.21	-28.7	-30.9	13.9	0.00e+00	0	42	0	1277165568	17	4617
2026-01-11 10:21:25.18	343.58	35.97	-28.8	-31.1	13.8	6.80e-06	0	42	0	1280311296	17	4699
2026-01-11 10:21:26.18	343.56	35.74	-28.9	-31.4	13.6	6.80e-06	0	42	0	1283457024	17	4796
2026-01-11 10:21:27.19	343.54	35.51	-29.2	-31.5	13.3	1.75e-05	0	42	0	1286602752	18	4690
2026-01-11 10:21:28.20	343.52	35.28	-28.8	-30.5	13.9	3.00e-06	0	42	0	1289748480	18	4399
2026-01-11 10:21:29.20	343.50	35.06	-28.5	-29.9	14.2	1.50e-06	0	42	0	1292894208	18	4223
2026-01-11 10:21:30.20	343.48	34.83	-28.3	-29.4	14.5	7.00e-07	0	42	0	1296039936	18	4082
2026-01-11 10:21:31.21	343.46	34.61	-28.1	-29.4	14.8	0.00e+00	0	42	0	1299185664	17	4176
2026-01-11 10:21:32.21	343.44	34.39	-28.0	-29.1	14.9	0.00e+00	0	42	0	1302331392	17	4106
2026-01-11 10:21:33.22	343.42	34.17	-28.0	-29.2	14.9	0.00e+00	0	42	0	1305477120	17	4126
2026-01-11 10:21:34.23	343.40	33.95	-28.1	-29.5	14.7	0.00e+00	0	42	0	1308622848	17	4200
2026-01-11 10:21:35.24	343.38	33.73	-28.1	-29.3	14.8	0.00e+00	0	42	0	1311768576	17	4167
2026-01-11 10:21:36.25	343.37	33.51	-28.1	-29.4	14.7	0.00e+00	0	42	0	1314914304	17	4184
2026-01-11 10:21:37.25	343.35	33.30	-28.1	-29.4	14.7	7.00e-07	0	42	0	1318060032	17	4179
2026-01-11 10:21:38.26	343.33	33.08	-28.1	-29.4	14.7	0.00e+00	0	42	0	1321205760	17	4200
2026-01-11 10:21:39.27	343.31	32.87	-28.0	-29.1	14.9	0.00e+00	0	42	0	1324351488	17	4112
2026-01-11 10:21:40.27	343.30	32.66	-27.9	-29.0	15.0	0.00e+00	0	42	0	1327497216	17	4078
2026-01-11 10:21:41.28	343.28	32.45	-28.0	-29.2	14.8	0.00e+00	0	42	0	1330642944	17	4142
2026-01-11 10:21:42.28	343.26	32.25	-28.1	-29.5	14.7	0.00e+00	0	42	0	1333788672	17	4221
2026-01-11 10:21:43.28	343.25	32.04	-28.4	-30.0	14.3	0.00e+00	0	42	0	1336934400	17	4362
2026-01-11 10:21:44.29	343.23	31.84	-28.0	-29.1	14.9	7.00e-07	0	42	0	1340080128	17	4115
2026-01-11 10:21:45.29	343.21	31.64	-27.7	-29.1	15.2	0.00e+00	0	42	0	1343225856	16	4198
2026-01-11 10:21:46.29	343.20	31.44	-27.6	-28.8	15.3	0.00e+00	0	42	0	1346371584	16	4130
2026-01-11 10:21:47.30	343.18	31.23	-27.8	-29.1	15.1	0.00e+00	0	42	0	1349517312	16	4223
2026-01-11 10:21:48.31	343.17	31.04	-27.7	-28.9	15.3	0.00e+00	0	42	0	1352663040	16	4169
2026-01-11 10:21:49.31	343.15	30.84	-27.7	-29.0	15.2	0.00e+00	0	42	0	1355808768	16	4178
2026-01-11 10:21:50.32	343.14	30.64	-27.7	-29.1	15.2	0.00e+00	0	42	0	1358954496	16	4207
2026-01-11 10:21:51.32	343.12	30.45	-27.8	-29.2	15.1	0.00e+00	0	42	0	1362100224	16	4231
2026-01-11 10:21:52.33	343.11	30.25	-27.8	-29.4	15.0	0.00e+00	0	42	0	1365245952	16	4298
2026-01-11 10:21:53.34	343.09	30.06	-27.8	-29.2	15.1	0.00e+00	0	42	0	1368391680	16	4247
2026-01-11 10:21:54.35	343.08	29.87	-27.8	-29.3	15.0	0.00e+00	0	42	0	1371537408	16	4275
2026-01-11 10:21:55.36	343.07	29.68	-27.9	-29.5	14.9	0.00e+00	0	42	0	1374683136	16	4346
2026-01-11 10:21:56.36	343.05	29.49	-28.0	-29.8	14.7	0.00e+00	0	42	0	1377828864	16	4435
2026-01-11 10:21:57.36	343.04	29.31	-27.9	-29.5	14.9	7.00e-07	0	42	0	1380974592	16	4331
2026-01-11 10:21:58.37	343.03	29.12	-27.9	-29.5	14.9	0.00e+00	0	42	0	1384120320	16	4322
2026-01-11 10:21:59.38	343.01	28.93	-27.9	-29.5	14.8	0.00e+00	0	42	0	1387266048	16	4334
2026-01-11 10:22:00.38	343.00	28.75	-27.8	-29.3	14.9	0.00e+00	0	42	0	1390411776	16	4274
2026-01-11 10:22:01.40	342.99	28.57	-27.8	-29.2	15.0	1.50e-06	0	42	0	1393557504	16	4258
2026-01-11 10:22:02.40	342.98	28.39	-27.8	-29.2	15.0	0.00e+00	0	42	0	1396703232	16	4264
2026-01-11 10:22:03.41	342.96	28.21	-27.7	-29.1	15.1	0.00e+00	0	42	0	1399848960	16	4214
2026-01-11 10:22:04.41	342.95	28.03	-27.7	-29.0	15.1	0.00e+00	0	42	0	1402994688	16	4193
2026-01-11 10:22:05.41	342.94	27.85	-27.7	-29.1	15.0	0.00e+00	0	42	0	1406140416	16	4233
2026-01-11 10:22:06.42	342.93	27.68	-27.8	-29.2	14.9	0.00e+00	0	42	0	1409286144	16	4259
2026-01-11 10:22:07.42	342.92	27.50	-27.6	-28.9	15.1	7.00e-07	0	42	0	1412431872	16	4165
2026-01-11 10:22:08.43	342.91	27.33	-27.5	-28.6	15.3	0.00e+00	0	42	0	1415577600	16	4076
2026-01-11 10:22:09.44	342.90	27.15	-27.4	-28.3	15.5	0.00e+00	0	42	0	1418723328	16	4007
2026-01-11 10:22:10.44	342.88	26.98	-27.4	-28.3	15.5	0.00e+00	0	42	0	1421869056	16	4005
2026-01-11 10:22:11.45	342.87	26.81	-27.3	-28.1	15.6	0.00e+00	0	42	0	1425014784	16	3968
2026-01-11 10:22:12.46	342.86	26.64	-26.8	-27.7	15.9	0.00e+00	0	42	0	1428160512	15	3955
2026-01-11 10:22:13.46	342.85	26.47	-26.8	-27.5	16.0	0.00e+00	0	42	0	1431306240	15	3925
2026-01-11 10:22:14.47	342.84	26.30	-26.8	-27.6	16.0	0.00e+00	0	42	0	1434451968	15	3946
2026-01-11 10:22:15.48	342.83	26.14	-26.7	-27.9	16.1	0.00e+00	0	42	0	1437597696	14	4111
2026-01-11 10:22:16.49	342.82	25.97	-26.6	-27.7	16.2	0.00e+00	0	42	0	1440743424	14	4066
2026-01-11 10:22:17.49	342.81	25.81	-26.5	-27.3	16.4	0.00e+00	0	42	0	1443889152	14	3963
2026-01-11 10:22:18.50	342.80	25.64	-26.5	-27.4	16.3	0.00e+00	0	42	0	1447034880	14	3987
2026-01-11 10:22:19.51	342.79	25.48	-26.5	-27.4	16.3	0.00e+00	0	42	0	1450180608	14	3999
2026-01-11 10:22:20.51	342.78	25.32	-26.4	-27.2	16.5	0.00e+00	0	42	0	1453326336	14	3935
2026-01-11 10:22:21.52	342.77	25.16	-26.2	-27.2	16.7	0.00e+00	0	42	0	1456472064	13	4054
2026-01-11 10:22:22.53	342.77	25.00	-26.2	-27.2	16.7	0.00e+00	0	42	0	1459617792	13	4050
2026-01-11 10:22:23.54	342.76	24.84	-26.2	-27.3	16.6	0.00e+00	0	42	0	1462763520	13	4076
2026-01-11 10:22:24.54	342.75	24.68	-26.3	-27.4	16.6	0.00e+00	0	42	0	1465909248	13	4100
2026-01-11 10:22:25.54	342.74	24.52	-26.3	-27.5	16.5	0.00e+00	0	42	0	1469054976	13	4111
2026-01-11 10:22:26.55	342.73	24.37	-26.3	-27.5	16.5	0.00e+00	0	42	0	1472200704	13	4121
2026-01-11 10:22:27.55	342.72	24.21	-26.5	-27.9	16.4	0.00e+00	0	42	0	1475346432	13	4217
2026-01-11 10:22:28.56	342.71	24.06	-26.5	-27.9	16.3	0.00e+00	0	42	0	1478492160	13	4232
2026-01-11 10:22:29.57	342.70	23.91	-26.5	-27.9	16.3	0.00e+00	0	42	0	1481637888	13	4228
2026-01-11 10:22:30.57	342.70	23.75	-26.6	-28.0	16.2	0.00e+00	0	42	0	1484783616	13	4258
2026-01-11 10:22:31.57	342.69	23.60	-26.6	-28.2	16.2	0.00e+00	0	42	0	1487929344	13	4302
2026-01-11 10:22:32.57	342.68	23.45	-26.7	-28.3	16.0	0.00e+00	0	42	0	1491075072	13	4350
2026-01-11 10:22:33.58	342.67	23.30	-26.7	-28.4	16.0	0.00e+00	0	42	0	1494220800	13	4359
2026-01-11 10:22:34.59	342.67	23.15	-26.7	-28.4	16.0	0.00e+00	0	42	0	1497366528	13	4362
2026-01-11 10:22:35.59	342.66	23.01	-26.8	-28.5	15.9	0.00e+00	0	42	0	1500512256	13	4394
2026-01-11 10:22:36.60	342.65	22.86	-26.8	-28.5	15.9	0.00e+00	0	42	0	1503657984	13	4401
2026-01-11 10:22:37.61	342.64	22.71	-26.8	-28.6	15.9	0.00e+00	0	42	0	1506803712	13	4427
2026-01-11 10:22:38.61	342.64	22.57	-26.9	-28.7	15.8	0.00e+00	0	42	0	1509949440	13	4460
2026-01-11 10:22:39.62	342.63	22.42	-26.9	-28.7	15.8	0.00e+00	0	42	0	1513095168	13	4464
2026-01-11 10:22:40.63	342.62	22.28	-27.0	-28.6	15.6	0.00e+00	0	42	0	1516240896	14	4304
2026-01-11 10:22:41.64	342.61	22.14	-27.3	-29.3	15.2	0.00e+00	0	42	0	1519386624	14	4507
2026-01-11 10:22:42.64	342.61	21.99	-27.2	-29.0	15.4	0.00e+00	0	42	0	1522532352	14	4431
2026-01-11 10:22:43.65	342.60	21.85	-27.0	-28.5	15.7	0.00e+00	0	42	0	1525678080	14	4273
2026-01-11 10:22:44.66	342.59	21.71	-26.8	-28.1	15.8	0.00e+00	0	42	0	1528823808	14	4179
2026-01-11 10:22:45.66	342.59	21.57	-26.8	-28.1	15.9	0.00e+00	0	42	0	1531969536	14	4185
2026-01-11 10:22:46.66	342.58	21.43	-26.7	-28.0	16.0	0.00e+00	0	42	0	1535115264	14	4143
2026-01-11 10:22:47.67	342.57	21.30	-26.7	-28.0	16.0	0.00e+00	0	42	0	1538260992	14	4140
2026-01-11 10:22:48.68	342.57	21.16	-26.8	-28.1	15.9	0.00e+00	0	42	0	1541406720	14	4192
2026-01-11 10:22:49.68	342.56	21.02	-26.7	-28.0	15.9	0.00e+00	0	42	0	1544552448	14	4146
2026-01-11 10:22:50.68	342.56	20.89	-26.7	-27.9	15.9	0.00e+00	0	42	0	1547698176	14	4136
2026-01-11 10:22:51.69	342.55	20.75	-26.8	-28.1	15.8	0.00e+00	0	42	0	1550843904	14	4191
2026-01-11 10:22:52.70	342.54	20.62	-26.7	-28.0	15.9	0.00e+00	0	42	0	1553989632	14	4147
2026-01-11 10:22:53.70	342.54	20.48	-26.9	-28.3	15.8	0.00e+00	0	42	0	1557135360	14	4224
2026-01-11 10:22:54.71	342.53	20.35	-26.9	-28.4	15.7	0.00e+00	0	42	0	1560281088	14	4255
2026-01-11 10:22:55.72	342.53	20.22	-26.9	-28.3	15.7	0.00e+00	0	42	0	1563426816	14	4226
2026-01-11 10:22:56.73	342.52	20.08	-27.0	-28.6	15.6	0.00e+00	0	42	0	1566572544	14	4304
2026-01-11 10:22:57.73	342.52	19.95	-26.9	-28.3	15.7	0.00e+00	0	42	0	1569718272	14	4235
2026-01-11 10:22:58.74	342.51	19.82	-26.9	-28.3	15.7	0.00e+00	0	42	0	1572864000	14	4239
2026-01-11 10:22:59.75	342.51	19.69	-26.9	-28.4	15.6	0.00e+00	0	42	0	1576009728	14	4270
2026-01-11 10:23:00.76	342.50	19.56	-26.9	-28.4	15.6	0.00e+00	0	42	0	1579155456	14	4263
2026-01-11 10:23:01.77	342.49	19.43	-26.9	-28.4	15.6	0.00e+00	0	42	0	1582301184	14	4260
2026-01-11 10:23:02.78	342.49	19.31	-27.0	-28.4	15.6	0.00e+00	0	42	0	1585446912	14	4275
2026-01-11 10:23:03.79	342.48	19.18	-27.0	-28.7	15.5	0.00e+00	0	42	0	1588592640	14	4335
2026-01-11 10:23:04.80	342.48	19.05	-27.1	-28.8	15.4	0.00e+00	0	42	0	1591738368	14	4369
2026-01-11 10:23:05.81	342.47	18.93	-27.1	-28.7	15.4	0.00e+00	0	42	0	1594884096	14	4356
2026-01-11 10:23:06.81	342.47	18.80	-27.3	-29.2	15.2	0.00e+00	0	42	0	1598029824	14	4482
2026-01-11 10:23:07.82	342.47	18.68	-27.4	-29.5	15.0	0.00e+00	0	42	0	1601175552	14	4583
2026-01-11 10:23:08.82	342.46	18.55	-27.4	-29.4	15.1	0.00e+00	0	42	0	1604321280	14	4551
2026-01-11 10:23:09.83	342.46	18.43	-27.4	-29.5	15.0	0.00e+00	0	42	0	1607467008	14	4581
2026-01-11 10:23:10.84	342.45	18.31	-27.4	-29.4	15.0	7.00e-07	0	42	0	1610612736	14	4552
2026-01-11 10:23:11.85	342.45	18.18	-27.5	-29.7	14.9	0.00e+00	0	42	0	1613758464	14	4626
2026-01-11 10:23:12.86	342.44	18.06	-27.5	-29.3	14.8	0.00e+00	0	42	0	1616904192	15	4418
2026-01-11 10:23:13.86	342.44	17.94	-27.7	-29.6	14.6	0.00e+00	0	42	0	1620049920	15	4487
2026-01-11 10:23:14.87	342.43	17.82	-27.6	-29.4	14.7	0.00e+00	0	42	0	1623195648	15	4446
2026-01-11 10:23:15.87	342.43	17.70	-27.5	-29.2	14.8	7.00e-07	0	42	0	1626341376	15	4393
2026-01-11 10:23:16.87	342.43	17.58	-27.3	-28.9	15.0	0.00e+00	0	42	0	1629487104	15	4285
2026-01-11 10:23:17.88	342.42	17.47	-27.3	-28.7	15.1	0.00e+00	0	42	0	1632632832	15	4246
2026-01-11 10:23:18.89	342.42	17.35	-27.3	-28.8	15.1	0.00e+00	0	42	0	1635778560	15	4276
2026-01-11 10:23:19.89	342.41	17.23	-27.3	-28.7	15.1	0.00e+00	0	42	0	1638924288	15	4231
2026-01-11 10:23:20.90	342.41	17.11	-27.4	-28.9	15.0	7.00e-07	0	42	0	1642070016	15	4288
2026-01-11 10:23:21.91	342.41	17.00	-27.3	-28.8	15.0	0.00e+00	0	42	0	1645215744	15	4272
2026-01-11 10:23:22.92	342.40	16.88	-27.4	-29.0	14.9	0.00e+00	0	42	0	1648361472	15	4333
2026-01-11 10:23:23.92	342.40	16.77	-27.4	-29.0	14.9	0.00e+00	0	42	0	1651507200	15	4322
2026-01-11 10:23:24.93	342.40	16.65	-27.4	-29.0	14.9	0.00e+00	0	42	0	1654652928	15	4336
2026-01-11 10:23:25.94	342.39	16.54	-27.6	-29.5	14.6	0.00e+00	0	42	0	1657798656	15	4484
2026-01-11 10:23:26.95	342.39	16.42	-27.7	-29.6	14.5	0.00e+00	0	42	0	1660944384	15	4509
2026-01-11 10:23:27.96	342.38	16.31	-27.6	-29.4	14.7	0.00e+00	0	42	0	1664090112	15	4449
2026-01-11 10:23:28.97	342.38	16.20	-27.7	-29.7	14.5	1.50e-06	0	42	0	1667235840	15	4537
2026-01-11 10:23:29.97	342.38	16.09	-27.6	-29.5	14.6	0.00e+00	0	42	0	1670381568	15	4461
2026-01-11 10:23:30.98	342.37	15.97	-27.6	-29.5	14.6	3.00e-06	0	42	0	1673527296	15	4475
2026-01-11 10:23:31.99	342.37	15.86	-27.7	-29.7	14.5	0.00e+00	0	42	0	1676673024	15	4517
2026-01-11 10:23:33.00	342.37	15.75	-27.5	-29.2	14.7	1.50e-06	0	42	0	1679818752	15	4394
2026-01-11 10:23:34.00	342.37	15.64	-27.9	-30.2	14.2	3.00e-06	0	42	0	1682964480	15	4691
2026-01-11 10:23:35.01	342.36	15.53	-27.6	-29.5	14.6	0.00e+00	0	42	0	1686110208	15	4473
2026-01-11 10:23:36.02	342.36	15.42	-27.5	-29.3	14.7	0.00e+00	0	42	0	1689255936	15	4410
2026-01-11 10:23:37.02	342.36	15.32	-27.3	-28.7	15.0	0.00e+00	0	42	0	1692401664	15	4244
2026-01-11 10:23:38.03	342.35	15.21	-27.3	-28.8	15.0	0.00e+00	0	42	0	1695547392	15	4265
2026-01-11 10:23:39.04	342.35	15.10	-27.4	-28.9	14.9	7.00e-07	0	42	0	1698693120	15	4301
2026-01-11 10:23:40.05	342.35	14.99	-27.4	-28.9	14.9	7.00e-07	0	42	0	1701838848	15	4301
2026-01-11 10:23:41.05	342.34	14.89	-27.4	-29.0	14.9	0.00e+00	0	42	0	1704984576	15	4334
2026-01-11 10:23:42.05	342.34	14.78	-27.4	-29.0	14.8	7.00e-07	0	42	0	1708130304	15	4336
2026-01-11 10:23:43.06	342.34	14.68	-27.4	-29.0	14.8	1.50e-06	0	42	0	1711276032	15	4313
2026-01-11 10:23:44.07	342.34	14.57	-27.5	-29.3	14.7	0.00e+00	0	42	0	1714421760	15	4405
2026-01-11 10:23:45.08	342.33	14.46	-27.5	-29.1	14.8	0.00e+00	0	42	0	1717567488	15	4364
2026-01-11 10:23:46.09	342.33	14.36	-27.6	-29.4	14.6	0.00e+00	0	42	0	1720713216	15	4433
2026-01-11 10:23:47.09	342.33	14.26	-27.6	-29.5	14.5	1.50e-06	0	42	0	1723858944	15	4470
2026-01-11 10:23:48.10	342.33	14.15	-27.8	-30.0	14.2	7.00e-07	0	42	0	1727004672	15	4636
2026-01-11 10:23:49.11	342.32	14.05	-27.7	-29.6	14.4	0.00e+00	0	42	0	1730150400	15	4507
2026-01-11 10:23:50.12	342.32	13.95	-27.5	-29.3	14.7	0.00e+00	0	42	0	1733296128	15	4407
2026-01-11 10:23:51.12	342.32	13.85	-27.6	-29.4	14.6	0.00e+00	0	42	0	1736441856	15	4443
2026-01-11 10:23:52.13	342.32	13.74	-27.5	-29.2	14.6	0.00e+00	0	42	0	1739587584	15	4400
2026-01-11 10:23:53.14	342.32	13.64	-27.6	-29.5	14.5	1.50e-06	0	42	0	1742733312	15	4471
2026-01-11 10:23:54.15	342.31	13.54	-27.8	-29.9	14.2	1.50e-06	0	42	0	1745879040	15	4596
2026-01-11 10:23:55.16	342.31	13.44	-27.7	-29.6	14.4	0.00e+00	0	42	0	1749024768	15	4513
2026-01-11 10:23:56.16	342.31	13.34	-27.4	-29.0	14.8	7.00e-07	0	42	0	1752170496	15	4322
2026-01-11 10:23:57.15	342.31	13.24	-27.4	-29.1	14.7	0.00e+00	0	42	0	1755316224	15	4351
2026-01-11 10:23:58.16	342.31	13.14	-27.6	-29.4	14.5	0.00e+00	0	42	0	1758461952	15	4437
2026-01-11 10:23:59.16	342.30	13.05	-27.6	-29.5	14.4	7.00e-07	0	42	0	1761607680	15	4482
2026-01-11 10:24:00.17	342.30	12.95	-27.4	-29.1	14.7	0.00e+00	0	42	0	1764753408	15	4360
2026-01-11 10:24:01.17	342.30	12.85	-27.6	-29.4	14.5	0.00e+00	0	42	0	1767899136	15	4428
2026-01-11 10:24:02.17	342.30	12.75	-27.5	-29.3	14.5	0.00e+00	0	42	0	1771044864	15	4420
2026-01-11 10:24:03.17	342.30	12.66	-27.5	-29.4	14.5	7.00e-07	0	42	0	1774190592	15	4438
2026-01-11 10:24:04.19	342.29	12.56	-27.6	-29.5	14.4	0.00e+00	0	42	0	1777336320	15	4483
2026-01-11 10:24:05.19	342.29	12.46	-27.6	-29.6	14.4	0.00e+00	0	42	0	1780482048	15	4508
2026-01-11 10:24:06.20	342.29	12.37	-27.7	-29.7	14.3	0.00e+00	0	42	0	1783627776	15	4539
2026-01-11 10:24:07.21	342.29	12.27	-27.7	-29.7	14.3	7.00e-07	0	42	0	1786773504	15	4547
2026-01-11 10:24:08.22	342.29	12.17	-27.9	-30.2	14.0	1.50e-06	0	42	0	1789919232	15	4681
2026-01-11 10:24:09.23	342.29	12.08	-27.7	-29.8	14.2	7.00e-07	0	42	0	1793064960	15	4560
2026-01-11 10:24:10.23	342.28	11.99	-27.7	-29.8	14.2	0.00e+00	0	42	0	1796210688	15	4564
2026-01-11 10:24:11.23	342.28	11.89	-27.4	-29.1	14.6	7.00e-07	0	42	0	1799356416	15	4367
2026-01-11 10:24:12.24	342.28	11.80	-27.5	-29.2	14.6	0.00e+00	0	42	0	1802502144	15	4401
2026-01-11 10:24:13.25	342.28	11.70	-27.5	-29.4	14.4	7.00e-07	0	42	0	1805647872	15	4440
2026-01-11 10:24:14.26	342.28	11.61	-27.5	-29.3	14.5	7.00e-07	0	42	0	1808793600	15	4420
2026-01-11 10:24:15.26	342.28	11.52	-27.5	-29.2	14.6	7.00e-07	0	42	0	1811939328	15	4387
2026-01-11 10:24:16.27	342.28	11.43	-27.7	-29.7	14.3	0.00e+00	0	42	0	1815085056	15	4542
2026-01-11 10:24:17.27	342.28	11.33	-27.5	-29.3	14.5	7.00e-07	0	42	0	1818230784	15	4418
2026-01-11 10:24:18.29	342.27	11.24	-27.6	-29.5	14.3	7.00e-07	0	42	0	1821376512	15	4484
2026-01-11 10:24:19.29	342.27	11.15	-27.7	-29.7	14.2	3.00e-06	0	42	0	1824522240	15	4550
2026-01-11 10:24:20.30	342.27	11.06	-27.7	-29.8	14.1	1.50e-06	0	42	0	1827667968	15	4581
2026-01-11 10:24:21.31	342.27	10.97	-27.8	-30.0	14.0	3.00e-06	0	42	0	1830813696	15	4633
2026-01-11 10:24:22.31	342.27	10.88	-27.9	-30.2	13.9	4.50e-06	0	42	0	1833959424	15	4708
2026-01-11 10:24:23.32	342.27	10.79	-27.7	-29.8	14.2	2.20e-06	0	42	0	1837105152	15	4568
2026-01-11 10:24:24.33	342.27	10.70	-27.9	-30.2	13.9	1.50e-06	0	42	0	1840250880	15	4694
2026-01-11 10:24:25.34	342.27	10.61	-27.7	-29.7	14.2	3.00e-06	0	42	0	1843396608	15	4548
2026-01-11 10:24:26.34	342.27	10.52	-27.8	-30.1	13.9	3.00e-06	0	42	0	1846542336	15	4674
2026-01-11 10:24:27.35	342.26	10.43	-27.8	-30.0	14.0	7.00e-07	0	42	0	1849688064	15	4631
2026-01-11 10:24:28.36	342.26	10.34	-27.8	-30.0	14.0	6.10e-06	0	42	0	1852833792	15	4630
2026-01-11 10:24:29.36	342.26	10.25	-28.2	-30.3	13.7	7.00e-07	0	42	0	1855979520	16	4626
2026-01-11 10:24:30.36	342.26	10.17	-28.1	-30.3	13.7	8.30e-06	0	42	0	1859125248	16	4609
2026-01-11 10:24:31.37	342.26	10.08	-28.2	-30.3	13.6	7.60e-06	0	42	0	1862270976	16	4625
2026-01-11 10:24:32.38	342.26	9.99	-28.2	-30.5	13.5	1.06e-05	0	42	0	1865416704	16	4675
2026-01-11 10:24:33.39	342.26	9.91	-28.2	-30.5	13.6	7.60e-06	0	42	0	1868562432	16	4661
2026-01-11 10:24:34.39	342.26	9.82	-28.1	-30.2	13.7	1.44e-05	0	42	0	1871708160	16	4595
2026-01-11 10:24:35.40	342.26	9.73	-28.3	-30.8	13.4	3.80e-06	0	42	0	1874853888	16	4766
2026-01-11 10:24:36.41	342.26	9.65	-28.2	-30.5	13.5	1.60e-05	0	42	0	1877999616	16	4692
2026-01-11 10:24:37.41	342.26	9.56	-28.3	-30.7	13.4	1.14e-05	0	42	0	1881145344	16	4733
2026-01-11 10:24:38.41	342.26	9.48	-28.3	-30.6	13.4	1.29e-05	0	42	0	1884291072	16	4722
2026-01-11 10:24:39.42	342.26	9.39	-28.3	-30.8	13.3	1.98e-05	0	42	0	1887436800	16	4765
2026-01-11 10:24:40.43	342.26	9.31	-28.4	-30.8	13.3	1.37e-05	0	42	0	1890582528	16	4787
2026-01-11 10:24:41.43	342.25	9.22	-28.2	-30.4	13.5	1.22e-05	0	42	0	1893728256	16	4657
2026-01-11 10:24:42.42	342.25	9.14	-28.3	-30.6	13.4	1.67e-05	0	42	0	1896873984	16	4729
2026-01-11 10:24:43.43	342.25	9.06	-28.5	-31.1	13.1	2.97e-05	0	42	0	1900019712	16	4893
2026-01-11 10:24:44.44	342.25	8.97	-28.4	-31.0	13.1	2.21e-05	0	42	0	1903165440	16	4843
2026-01-11 10:24:45.44	342.25	8.89	-28.6	-30.9	12.9	3.81e-05	0	42	0	1906311168	17	4702
2026-01-11 10:24:46.45	342.25	8.81	-28.4	-30.5	13.1	3.28e-05	0	42	0	1909456896	17	4572
2026-01-11 10:24:47.45	342.25	8.72	-28.9	-31.7	12.4	9.53e-05	0	42	0	1912602624	17	4960
2026-01-11 10:24:48.46	342.25	8.64	-28.5	-30.8	12.9	9.30e-05	0	42	0	1915748352	17	4665
2026-01-11 10:24:49.47	342.25	8.56	-28.6	-30.9	12.8	6.94e-05	0	42	0	1918894080	17	4717
2026-01-11 10:24:50.47	342.25	8.48	-28.8	-31.3	12.6	8.31e-05	0	42	0	1922039808	17	4854
2026-01-11 10:24:51.48	342.25	8.39	-28.7	-31.3	12.6	1.01e-04	0	42	0	1925185536	17	4844
2026-01-11 10:24:52.49	342.25	8.31	-28.7	-31.3	12.6	5.79e-05	0	42	0	1928331264	17	4839
2026-01-11 10:24:53.49	342.25	8.23	-28.8	-30.9	12.6	2.01e-04	0	42	0	1931476992	18	4598
2026-01-11 10:24:54.50	342.25	8.15	-28.6	-30.5	12.8	6.63e-05	0	42	0	1934622720	18	4474
2026-01-11 10:24:55.51	342.25	8.07	-28.9	-31.3	12.3	1.89e-04	0	42	0	1937768448	18	4722
2026-01-11 10:24:56.52	342.25	7.99	-28.9	-31.2	12.4	1.61e-04	0	42	0	1940914176	18	4697
2026-01-11 10:24:57.52	342.25	7.91	-28.8	-31.1	12.4	1.51e-04	0	42	0	1944059904	18	4673
2026-01-11 10:24:58.53	342.25	7.83	-28.9	-31.2	12.3	2.06e-04	0	42	0	1947205632	18	4681
2026-01-11 10:24:59.54	342.25	7.75	-28.9	-31.3	12.3	1.78e-04	0	42	0	1950351360	18	4737
2026-01-11 10:25:00.55	342.25	7.67	-29.0	-31.4	12.1	3.17e-04	0	42	0	1953497088	18	4778
2026-01-11 10:25:01.55	342.25	7.59	-28.9	-31.4	12.2	1.79e-04	0	42	0	1956642816	18	4770
2026-01-11 10:25:02.55	342.25	7.51	-29.0	-31.5	12.1	4.30e-04	0	42	0	1959788544	18	4788
2026-01-11 10:25:03.56	342.25	7.43	-29.2	-32.2	11.6	7.22e-04	0	42	0	1962934272	18	5039
2026-01-11 10:25:04.57	342.25	7.36	-29.3	-32.3	11.6	6.34e-04	0	42	0	1966080000	18	5080
2026-01-11 10:25:05.57	342.25	7.28	-29.4	-32.1	11.3	9.45e-04	0	42	0	1969225728	19	4926
2026-01-11 10:25:06.58	342.25	7.20	-29.1	-31.3	11.8	6.33e-04	0	42	0	1972371456	19	4651
2026-01-11 10:25:07.59	342.25	7.12	-29.3	-31.9	11.5	6.59e-04	0	42	0	1975517184	19	4840
2026-01-11 10:25:08.60	342.25	7.04	-32.9	-45.0	3.8	1.05e+00	0	42	104	1977614336	25	14502
2026-01-11 10:25:09.60	342.25	6.97	-33.2	-45.2	3.8	1.49e+00	0	42	104	1977614336	26	14355
2026-01-11 10:25:10.61	342.25	6.89	-33.5	-45.8	3.8	1.49e+00	0	42	104	1977614336	26	14862

#Closed at: 2026-01-11 10:25:10
#Recorded file [1977 MB]: D:/data/31010_260111_131435.dat