passes_logs/2026/01/11/R2M6_AANII_01/R2M6_AANII_01__20260111_132835_FENGYUN_3E_rec.log

#Pass ID: 20260111_132835_FENGYUN 3E
#Satellite: FENGYUN 3E
#Configuration: FENGYUN 3E
#almurnet v.1.7.20240730
#Start time: 2026-01-11 13:34:47

#Version: 2.2.20231116
#Station: R2M6_AANII_01
#Location: 30.233357 lon 59.946436 lat
#TLE: 1 49008U 21062A   26010.98903141  .00000148  00000+0  90257-4 0  9995
#TLE: 2 49008  98.7490  16.1644 0001865 146.3673 213.7622 14.19884943234274

#Time	Az	El	Level	Level2	SNR	BER	BlckErr	Temp	State	Recorded	gain1	gain2
2026-01-11 13:34:47.29	40.78	38.22	-33.5	-45.0	3.8	8.47e-01	0	42	0	0	26	13595
2026-01-11 13:34:48.28	40.36	38.15	-33.9	-43.2	3.8	8.46e-01	0	42	104	0	28	10517
2026-01-11 13:34:49.27	39.94	38.08	-33.9	-43.2	3.8	8.47e-01	0	43	104	0	28	10471
2026-01-11 13:34:50.26	39.52	38.01	-33.9	-43.3	3.8	8.47e-01	0	42	104	0	28	10580
2026-01-11 13:34:51.26	39.11	37.94	-33.9	-43.3	3.8	8.45e-01	0	43	104	0	28	10553
2026-01-11 13:34:52.26	38.69	37.87	-34.0	-43.3	3.8	8.46e-01	0	43	104	0	28	10524
2026-01-11 13:34:53.26	38.28	37.79	-33.9	-43.3	3.8	8.46e-01	0	43	104	0	28	10540
2026-01-11 13:34:54.25	37.87	37.72	-33.9	-43.3	3.8	8.46e-01	0	43	104	0	28	10517
2026-01-11 13:34:55.25	37.46	37.64	-33.9	-43.3	3.8	8.46e-01	0	43	104	0	28	10544
2026-01-11 13:34:56.24	37.05	37.56	-33.9	-43.3	3.8	8.46e-01	0	43	104	0	28	10541
2026-01-11 13:34:57.24	36.64	37.48	-33.9	-43.2	3.8	8.46e-01	0	43	104	0	28	10525
2026-01-11 13:34:58.24	36.24	37.40	-33.9	-43.2	3.8	8.46e-01	0	43	104	0	28	10527
2026-01-11 13:34:59.23	35.84	37.31	-33.9	-43.2	3.8	8.47e-01	0	43	104	0	28	10472
2026-01-11 13:35:00.22	35.44	37.23	-33.9	-43.2	3.8	8.47e-01	0	43	104	0	28	10515
2026-01-11 13:35:01.21	35.05	37.14	-33.9	-43.1	3.8	8.46e-01	0	43	104	0	28	10426
2026-01-11 13:35:02.20	34.66	37.06	-33.9	-43.2	3.8	8.46e-01	0	42	104	0	28	10470
2026-01-11 13:35:03.20	34.26	36.97	-33.9	-43.3	3.8	8.46e-01	0	43	104	0	28	10596
2026-01-11 13:35:04.19	33.88	36.88	-34.0	-43.3	3.8	8.46e-01	0	43	104	0	28	10581
2026-01-11 13:35:05.19	33.49	36.79	-34.0	-43.3	3.8	8.47e-01	0	43	104	0	28	10611
2026-01-11 13:35:06.18	33.10	36.69	-34.0	-43.3	3.8	8.46e-01	0	43	104	0	28	10551
2026-01-11 13:35:07.17	32.72	36.60	-34.0	-43.3	3.8	8.46e-01	0	43	104	0	28	10585
2026-01-11 13:35:08.17	32.34	36.51	-33.9	-43.3	3.8	8.45e-01	0	43	104	0	28	10530
2026-01-11 13:35:09.17	31.96	36.41	-33.9	-43.3	3.8	8.46e-01	0	43	104	0	28	10587
2026-01-11 13:35:10.17	31.58	36.31	-33.9	-43.2	3.8	8.46e-01	0	43	104	0	28	10499
2026-01-11 13:35:11.17	31.20	36.21	-33.9	-43.1	3.8	8.46e-01	0	43	104	0	28	10435
2026-01-11 13:35:12.16	30.83	36.11	-33.9	-43.1	3.8	8.46e-01	0	43	104	0	28	10375
2026-01-11 13:35:13.16	30.46	36.01	-33.9	-43.0	3.8	8.45e-01	0	43	104	0	28	10374
2026-01-11 13:35:14.16	30.09	35.91	-33.8	-43.0	3.8	8.47e-01	0	43	104	0	28	10363
2026-01-11 13:35:15.15	29.73	35.81	-33.8	-42.9	3.8	8.47e-01	0	43	104	0	28	10267
2026-01-11 13:35:16.14	29.37	35.71	-33.7	-42.0	3.8	8.46e-01	0	43	104	0	28	9456
2026-01-11 13:35:17.13	29.01	35.60	-33.6	-41.7	3.8	8.46e-01	0	43	104	0	28	9155
2026-01-11 13:35:18.12	28.65	35.50	-33.6	-41.3	3.8	8.46e-01	0	43	104	0	28	8798
2026-01-11 13:35:19.10	28.30	35.39	-33.5	-41.2	3.8	8.47e-01	0	43	104	0	28	8727
2026-01-11 13:35:20.09	27.95	35.29	-33.6	-41.6	3.8	8.47e-01	0	43	104	0	28	9020
2026-01-11 13:35:21.07	27.60	35.18	-33.6	-42.1	3.8	8.45e-01	0	43	104	0	28	9503
2026-01-11 13:35:22.07	27.25	35.07	-33.7	-42.5	3.8	8.45e-01	0	43	104	0	28	9891
2026-01-11 13:35:23.06	26.91	34.96	-33.7	-42.6	3.8	8.45e-01	0	43	104	0	28	9985
2026-01-11 13:35:24.05	26.56	34.85	-33.7	-42.3	3.8	8.46e-01	0	43	104	0	28	9683
2026-01-11 13:35:25.03	26.23	34.74	-33.6	-41.8	3.8	8.46e-01	0	43	104	0	28	9251
2026-01-11 13:35:26.03	25.89	34.63	-33.5	-41.1	3.8	8.46e-01	0	43	104	0	28	8594
2026-01-11 13:35:27.01	25.55	34.52	-33.5	-40.9	3.8	8.45e-01	0	43	104	0	28	8443
2026-01-11 13:35:28.00	25.22	34.41	-33.6	-41.4	3.8	8.46e-01	0	43	104	0	28	8847
2026-01-11 13:35:28.99	24.89	34.29	-33.6	-41.9	3.8	8.46e-01	0	43	104	0	28	9324
2026-01-11 13:35:29.99	24.56	34.18	-33.6	-42.1	3.8	8.46e-01	0	43	104	0	28	9498
2026-01-11 13:35:30.98	24.23	34.06	-33.6	-41.9	3.8	8.45e-01	0	43	104	0	28	9352
2026-01-11 13:35:31.97	23.91	33.95	-33.6	-41.7	3.8	8.45e-01	0	43	104	0	28	9124
2026-01-11 13:35:32.96	23.59	33.83	-33.5	-40.7	3.8	8.46e-01	0	43	104	0	28	8283
2026-01-11 13:35:33.95	23.27	33.71	-33.3	-39.8	4.1	8.46e-01	0	43	104	0	27	7561
2026-01-11 13:35:34.95	22.95	33.60	-32.8	-37.7	4.9	8.06e-01	0	43	0	0	26	6346
2026-01-11 13:35:35.94	22.63	33.48	-32.1	-35.4	6.2	4.37e-01	0	43	0	2097152	25	5289
2026-01-11 13:35:36.94	22.32	33.36	-31.5	-33.9	7.6	1.48e-01	0	43	0	9437184	24	4741
2026-01-11 13:35:37.93	22.01	33.24	-31.1	-33.2	8.3	5.95e-02	0	43	0	15728640	23	4592
2026-01-11 13:35:38.93	21.70	33.12	-30.7	-32.7	8.9	3.86e-02	0	43	0	23068672	22	4537
2026-01-11 13:35:39.93	21.39	33.00	-29.4	-30.3	11.1	3.22e-03	0	43	0	30408704	20	3998
2026-01-11 13:35:40.92	21.08	32.88	-27.1	-27.5	14.1	1.60e-05	0	43	0	37748736	15	3764
2026-01-11 13:35:41.92	20.78	32.76	-26.5	-26.6	14.9	1.10e-06	0	43	0	45088768	14	3643
2026-01-11 13:35:42.92	20.48	32.63	-27.2	-28.2	13.9	3.40e-06	0	43	0	52428800	14	4053
2026-01-11 13:35:43.91	20.18	32.51	-26.8	-27.2	14.6	2.20e-06	0	43	0	59768832	14	3799
2026-01-11 13:35:44.91	19.89	32.39	-26.3	-26.7	15.1	0.00e+00	0	43	0	67108864	13	3773
2026-01-11 13:35:45.92	19.59	32.27	-25.8	-26.2	15.7	0.00e+00	0	43	0	73400320	12	3762
2026-01-11 13:35:46.92	19.30	32.14	-25.5	-25.5	16.0	0.00e+00	0	43	0	80740352	12	3587
2026-01-11 13:35:47.92	19.01	32.02	-25.4	-25.7	16.3	0.00e+00	0	43	0	88080384	11	3737
2026-01-11 13:35:48.92	18.72	31.89	-25.7	-26.4	15.9	0.00e+00	0	43	0	95420416	11	3901
2026-01-11 13:35:49.92	18.43	31.77	-26.5	-27.6	14.9	0.00e+00	0	43	0	102760448	12	4086
2026-01-11 13:35:50.91	18.15	31.65	-25.8	-26.2	15.6	0.00e+00	0	43	0	110100480	12	3753
2026-01-11 13:35:51.90	17.87	31.52	-25.3	-25.5	16.4	0.00e+00	0	43	0	117440512	11	3687
2026-01-11 13:35:52.89	17.60	31.40	-24.6	-24.6	17.1	0.00e+00	0	43	0	123731968	10	3594
2026-01-11 13:35:53.89	17.32	31.27	-24.1	-23.9	17.7	0.00e+00	0	43	0	132120576	9	3540
2026-01-11 13:35:54.89	17.04	31.15	-23.6	-23.5	18.1	0.00e+00	0	43	0	138412032	8	3558
2026-01-11 13:35:55.89	16.77	31.02	-23.4	-22.9	18.4	0.00e+00	0	43	0	145752064	8	3431
2026-01-11 13:35:56.88	16.50	30.89	-23.3	-23.2	18.5	0.00e+00	0	43	0	153092096	7	3591
2026-01-11 13:35:57.89	16.23	30.77	-23.4	-23.4	18.4	0.00e+00	0	43	0	160432128	7	3629
2026-01-11 13:35:58.88	15.97	30.64	-23.1	-23.0	18.6	0.00e+00	0	43	0	167772160	7	3528
2026-01-11 13:35:59.88	15.70	30.52	-23.1	-22.9	18.7	0.00e+00	0	43	0	175112192	7	3512
2026-01-11 13:36:00.86	15.45	30.39	-23.0	-22.6	18.8	0.00e+00	0	43	0	181403648	7	3456
2026-01-11 13:36:01.85	15.19	30.27	-22.9	-22.6	18.7	0.00e+00	0	43	0	188743680	7	3445
2026-01-11 13:36:02.84	14.93	30.14	-23.1	-22.8	18.7	0.00e+00	0	43	0	196083712	7	3495
2026-01-11 13:36:03.83	14.68	30.01	-23.1	-22.9	18.6	0.00e+00	0	43	0	203423744	7	3522
2026-01-11 13:36:04.82	14.43	29.89	-23.3	-23.3	18.4	0.00e+00	0	43	0	210763776	7	3609
2026-01-11 13:36:05.82	14.18	29.76	-23.2	-23.2	18.5	0.00e+00	0	43	0	217055232	7	3577
2026-01-11 13:36:06.81	13.93	29.63	-23.2	-23.1	18.5	0.00e+00	0	43	0	224395264	7	3564
2026-01-11 13:36:07.80	13.68	29.51	-23.2	-23.1	18.5	0.00e+00	0	43	0	231735296	7	3569
2026-01-11 13:36:08.79	13.44	29.38	-23.3	-23.3	18.4	0.00e+00	0	43	0	239075328	7	3611
2026-01-11 13:36:09.78	13.20	29.26	-23.1	-22.9	18.6	0.00e+00	0	43	0	246415360	7	3513
2026-01-11 13:36:10.76	12.96	29.13	-23.0	-22.6	18.8	0.00e+00	0	43	0	253755392	7	3458
2026-01-11 13:36:11.75	12.72	29.01	-23.0	-22.7	18.7	0.00e+00	0	43	0	260046848	7	3486
2026-01-11 13:36:12.73	12.49	28.88	-23.1	-22.9	18.7	0.00e+00	0	43	0	267386880	7	3514
2026-01-11 13:36:13.72	12.25	28.75	-23.2	-23.1	18.5	0.00e+00	0	43	0	274726912	7	3561
2026-01-11 13:36:14.70	12.02	28.63	-23.2	-23.2	18.5	0.00e+00	0	43	0	282066944	7	3580
2026-01-11 13:36:15.69	11.79	28.50	-23.2	-23.1	18.5	0.00e+00	0	43	0	289406976	7	3567
2026-01-11 13:36:16.68	11.57	28.38	-23.3	-23.3	18.4	0.00e+00	0	43	0	295698432	7	3597
2026-01-11 13:36:17.66	11.34	28.25	-23.1	-23.0	18.5	0.00e+00	0	43	0	303038464	7	3541
2026-01-11 13:36:18.64	11.12	28.13	-23.0	-22.8	18.7	0.00e+00	0	43	0	310378496	7	3484
2026-01-11 13:36:19.63	10.89	28.00	-23.0	-22.8	18.6	0.00e+00	0	43	0	316669952	7	3487
2026-01-11 13:36:20.61	10.68	27.88	-23.2	-23.2	18.5	0.00e+00	0	43	0	324009984	7	3583
2026-01-11 13:36:21.60	10.46	27.75	-23.4	-23.5	18.3	0.00e+00	0	43	0	331350016	7	3650
2026-01-11 13:36:22.59	10.24	27.63	-23.5	-23.7	18.2	0.00e+00	0	43	0	338690048	7	3690
2026-01-11 13:36:23.58	10.02	27.50	-23.6	-24.0	18.0	0.00e+00	0	43	0	346030080	7	3771
2026-01-11 13:36:24.57	9.81	27.38	-23.6	-24.0	18.0	0.00e+00	0	43	0	353370112	7	3773
2026-01-11 13:36:25.56	9.59	27.25	-23.8	-24.3	17.9	0.00e+00	0	43	0	359661568	7	3838
2026-01-11 13:36:26.56	9.38	27.13	-23.7	-24.1	18.0	0.00e+00	0	43	0	367001600	7	3791
2026-01-11 13:36:27.55	9.17	27.00	-23.6	-23.9	18.1	0.00e+00	0	43	0	374341632	7	3749
2026-01-11 13:36:28.55	8.96	26.88	-23.6	-23.9	18.1	0.00e+00	0	43	0	381681664	7	3725
2026-01-11 13:36:29.55	8.75	26.75	-23.2	-23.0	18.5	0.00e+00	0	43	0	389021696	7	3539
2026-01-11 13:36:30.53	8.55	26.63	-23.0	-22.7	18.7	0.00e+00	0	43	0	396361728	7	3480
2026-01-11 13:36:31.53	8.34	26.50	-23.1	-22.8	18.6	0.00e+00	0	43	0	402653184	7	3501
2026-01-11 13:36:32.52	8.14	26.38	-23.1	-22.8	18.6	0.00e+00	0	43	0	409993216	7	3506
2026-01-11 13:36:33.50	7.95	26.25	-23.2	-23.1	18.5	0.00e+00	0	43	0	417333248	7	3561
2026-01-11 13:36:34.48	7.75	26.13	-23.2	-23.2	18.4	0.00e+00	0	43	0	424673280	7	3576
2026-01-11 13:36:35.47	7.55	26.01	-23.5	-23.7	18.2	0.00e+00	0	43	0	432013312	7	3689
2026-01-11 13:36:36.46	7.36	25.89	-23.2	-23.1	18.4	0.00e+00	0	43	0	438304768	7	3571
2026-01-11 13:36:37.46	7.16	25.76	-23.2	-23.0	18.5	0.00e+00	0	43	0	445644800	7	3541
2026-01-11 13:36:38.45	6.97	25.64	-23.2	-23.2	18.4	0.00e+00	0	43	0	452984832	7	3571
2026-01-11 13:36:39.44	6.78	25.52	-23.3	-23.4	18.3	0.00e+00	0	43	0	460324864	7	3622
2026-01-11 13:36:40.43	6.59	25.39	-23.1	-22.9	18.6	0.00e+00	0	43	0	467664896	7	3515
2026-01-11 13:36:41.42	6.40	25.27	-23.3	-23.2	18.4	0.00e+00	0	43	0	475004928	7	3591
2026-01-11 13:36:42.41	6.22	25.15	-23.3	-23.4	18.3	0.00e+00	0	43	0	481296384	7	3619
2026-01-11 13:36:43.40	6.03	25.03	-23.5	-23.8	18.1	0.00e+00	0	43	0	488636416	7	3711
2026-01-11 13:36:44.38	5.85	24.91	-23.6	-23.9	18.0	0.00e+00	0	43	0	495976448	7	3736
2026-01-11 13:36:45.37	5.67	24.79	-23.7	-24.1	17.9	0.00e+00	0	43	0	503316480	7	3793
2026-01-11 13:36:46.36	5.49	24.67	-23.6	-23.9	18.0	0.00e+00	0	43	0	510656512	7	3741
2026-01-11 13:36:47.35	5.31	24.54	-23.5	-23.7	18.2	0.00e+00	0	43	0	517996544	7	3687
2026-01-11 13:36:48.35	5.13	24.42	-23.5	-23.8	18.1	0.00e+00	0	43	0	524288000	7	3714
2026-01-11 13:36:49.34	4.95	24.30	-23.7	-24.1	18.0	0.00e+00	0	43	0	531628032	7	3778
2026-01-11 13:36:50.33	4.78	24.18	-23.6	-24.0	17.9	0.00e+00	0	43	0	538968064	7	3772
2026-01-11 13:36:51.32	4.61	24.06	-23.5	-23.7	18.1	0.00e+00	0	43	0	546308096	7	3703
2026-01-11 13:36:52.31	4.43	23.94	-23.4	-23.5	18.2	0.00e+00	0	43	0	553648128	7	3651
2026-01-11 13:36:53.30	4.26	23.82	-23.4	-23.6	18.2	0.00e+00	0	43	0	559939584	7	3662
2026-01-11 13:36:54.28	4.10	23.71	-23.3	-23.3	18.4	0.00e+00	0	43	0	567279616	7	3595
2026-01-11 13:36:55.28	3.93	23.59	-23.1	-22.9	18.5	0.00e+00	0	43	0	574619648	7	3525
2026-01-11 13:36:56.26	3.76	23.47	-23.0	-22.6	18.6	0.00e+00	0	43	0	581959680	7	3464
2026-01-11 13:36:57.25	3.59	23.35	-23.0	-22.7	18.6	0.00e+00	0	43	0	589299712	7	3475
2026-01-11 13:36:58.24	3.43	23.23	-23.1	-22.9	18.5	0.00e+00	0	43	0	596639744	7	3512
2026-01-11 13:36:59.23	3.27	23.12	-23.2	-23.2	18.4	0.00e+00	0	43	0	602931200	7	3580
2026-01-11 13:37:00.21	3.11	23.00	-23.3	-23.3	18.3	0.00e+00	0	43	0	610271232	7	3600
2026-01-11 13:37:01.20	2.95	22.88	-23.4	-23.6	18.2	0.00e+00	0	43	0	617611264	7	3671
2026-01-11 13:37:02.20	2.79	22.77	-23.4	-23.6	18.2	0.00e+00	0	43	0	624951296	7	3663
2026-01-11 13:37:03.19	2.63	22.65	-23.5	-23.7	18.1	0.00e+00	0	43	0	631242752	7	3682
2026-01-11 13:37:04.18	2.47	22.53	-23.4	-23.6	18.1	0.00e+00	0	43	0	638582784	7	3668
2026-01-11 13:37:05.16	2.32	22.42	-23.5	-23.6	18.1	0.00e+00	0	43	0	645922816	7	3679
2026-01-11 13:37:06.16	2.16	22.30	-23.2	-23.1	18.4	0.00e+00	0	43	0	653262848	7	3568
2026-01-11 13:37:07.16	2.00	22.19	-23.1	-23.0	18.4	0.00e+00	0	43	0	660602880	7	3536
2026-01-11 13:37:08.15	1.85	22.07	-23.2	-23.0	18.4	0.00e+00	0	43	0	667942912	7	3544
2026-01-11 13:37:09.14	1.70	21.96	-23.4	-23.6	18.1	0.00e+00	0	43	0	675282944	7	3675
2026-01-11 13:37:10.13	1.55	21.84	-23.4	-23.6	18.2	0.00e+00	0	43	0	681574400	7	3660
2026-01-11 13:37:11.13	1.40	21.73	-23.7	-24.3	17.8	0.00e+00	0	43	0	688914432	7	3825
2026-01-11 13:37:12.12	1.25	21.61	-23.7	-24.1	17.9	0.00e+00	0	43	0	696254464	7	3784
2026-01-11 13:37:13.11	1.11	21.50	-23.9	-24.7	17.5	0.00e+00	0	43	0	703594496	7	3924
2026-01-11 13:37:14.11	0.96	21.39	-23.9	-24.7	17.6	0.00e+00	0	43	0	710934528	7	3918
2026-01-11 13:37:15.10	0.82	21.27	-24.2	-24.7	17.3	0.00e+00	0	43	0	718274560	8	3832
2026-01-11 13:37:16.09	0.67	21.16	-24.7	-25.3	16.7	0.00e+00	0	43	0	724566016	9	3843
2026-01-11 13:37:17.08	0.53	21.05	-24.7	-25.4	16.7	0.00e+00	0	43	0	731906048	9	3873
2026-01-11 13:37:18.08	0.39	20.94	-24.6	-25.2	16.8	0.00e+00	0	43	0	739246080	9	3820
2026-01-11 13:37:19.06	0.25	20.82	-24.5	-24.9	16.9	0.00e+00	0	43	0	746586112	9	3766
2026-01-11 13:37:20.06	0.11	20.71	-24.7	-25.2	16.8	0.00e+00	0	43	0	753926144	9	3833
2026-01-11 13:37:21.04	359.97	20.60	-24.9	-25.8	16.5	0.00e+00	0	43	0	761266176	9	3966
2026-01-11 13:37:22.03	359.83	20.49	-24.7	-25.2	16.8	0.00e+00	0	43	0	767557632	9	3836
2026-01-11 13:37:23.02	359.70	20.38	-25.2	-25.9	16.1	0.00e+00	0	43	0	774897664	10	3900
2026-01-11 13:37:23.99	359.56	20.27	-25.1	-25.7	16.2	0.00e+00	0	43	0	782237696	10	3859
2026-01-11 13:37:24.99	359.43	20.16	-24.7	-24.8	16.7	0.00e+00	0	43	0	788529152	10	3634
2026-01-11 13:37:25.98	359.30	20.05	-24.4	-24.3	17.0	0.00e+00	0	43	0	795869184	10	3527
2026-01-11 13:37:26.97	359.16	19.94	-24.3	-24.4	17.1	0.00e+00	0	43	0	803209216	9	3660
2026-01-11 13:37:27.96	359.03	19.84	-24.2	-24.3	17.2	0.00e+00	0	43	0	810549248	9	3632
2026-01-11 13:37:28.95	358.90	19.73	-24.5	-24.9	16.9	0.00e+00	0	43	0	817889280	9	3764
2026-01-11 13:37:29.93	358.77	19.62	-24.3	-24.4	17.1	0.00e+00	0	43	0	824180736	9	3658
2026-01-11 13:37:30.92	358.65	19.51	-24.0	-23.8	17.5	0.00e+00	0	43	0	831520768	9	3509
2026-01-11 13:37:31.90	358.52	19.41	-24.1	-24.0	17.4	0.00e+00	0	43	0	838860800	9	3552
2026-01-11 13:37:32.89	358.39	19.30	-24.0	-23.8	17.4	0.00e+00	0	43	0	846200832	9	3522
2026-01-11 13:37:33.88	358.27	19.19	-24.1	-24.1	17.3	0.00e+00	0	43	0	853540864	9	3576
2026-01-11 13:37:34.86	358.14	19.09	-24.1	-24.0	17.3	0.00e+00	0	43	0	860880896	9	3549
2026-01-11 13:37:35.84	358.02	18.98	-24.2	-24.3	17.2	0.00e+00	0	43	0	867172352	9	3637
2026-01-11 13:37:36.83	357.90	18.88	-24.2	-24.3	17.2	0.00e+00	0	43	0	874512384	9	3627
2026-01-11 13:37:37.82	357.78	18.77	-24.7	-25.3	16.6	0.00e+00	0	43	0	881852416	9	3865
2026-01-11 13:37:38.81	357.65	18.67	-24.5	-24.9	16.8	0.00e+00	0	43	0	889192448	9	3775
2026-01-11 13:37:39.80	357.53	18.56	-24.4	-24.7	16.9	0.00e+00	0	43	0	896532480	9	3727
2026-01-11 13:37:40.79	357.41	18.46	-24.4	-24.6	17.0	0.00e+00	0	43	0	902823936	9	3704
2026-01-11 13:37:41.78	357.30	18.35	-24.5	-24.8	16.9	0.00e+00	0	43	0	910163968	9	3735
2026-01-11 13:37:42.78	357.18	18.25	-24.4	-24.8	16.9	0.00e+00	0	43	0	917504000	9	3735
2026-01-11 13:37:43.76	357.06	18.14	-24.6	-25.1	16.7	0.00e+00	0	43	0	924844032	9	3804
2026-01-11 13:37:44.74	356.95	18.04	-24.6	-25.0	16.8	0.00e+00	0	43	0	932184064	9	3785
2026-01-11 13:37:45.73	356.83	17.94	-24.5	-24.9	16.8	0.00e+00	0	43	0	938475520	9	3772
2026-01-11 13:37:46.71	356.72	17.84	-24.8	-25.4	16.5	0.00e+00	0	43	0	945815552	9	3886
2026-01-11 13:37:47.70	356.60	17.73	-24.8	-25.5	16.5	0.00e+00	0	43	0	953155584	9	3898
2026-01-11 13:37:48.69	356.49	17.63	-24.8	-25.4	16.5	0.00e+00	0	43	0	960495616	9	3881
2026-01-11 13:37:49.67	356.38	17.53	-24.7	-25.2	16.6	0.00e+00	0	43	0	966787072	9	3841
2026-01-11 13:37:50.66	356.27	17.43	-24.6	-25.1	16.7	0.00e+00	0	43	0	974127104	9	3799
2026-01-11 13:37:51.64	356.16	17.33	-24.5	-24.9	16.8	0.00e+00	0	43	0	981467136	9	3753
2026-01-11 13:37:52.62	356.05	17.23	-24.6	-25.1	16.7	0.00e+00	0	43	0	988807168	9	3810
2026-01-11 13:37:53.60	355.94	17.13	-24.7	-25.3	16.6	0.00e+00	0	43	0	996147200	9	3858
2026-01-11 13:37:54.60	355.83	17.03	-24.7	-25.4	16.5	0.00e+00	0	43	0	1002438656	9	3878
2026-01-11 13:37:55.58	355.72	16.93	-24.8	-25.6	16.4	0.00e+00	0	43	0	1009778688	9	3927
2026-01-11 13:37:56.56	355.62	16.83	-24.8	-25.5	16.4	0.00e+00	0	43	0	1017118720	9	3917
2026-01-11 13:37:57.55	355.51	16.73	-24.8	-25.5	16.5	0.00e+00	0	43	0	1024458752	9	3898
2026-01-11 13:37:58.53	355.41	16.63	-24.7	-25.3	16.5	0.00e+00	0	43	0	1030750208	9	3871
2026-01-11 13:37:59.52	355.30	16.53	-24.9	-25.7	16.3	0.00e+00	0	43	0	1038090240	9	3959
2026-01-11 13:38:00.50	355.20	16.44	-24.9	-25.7	16.3	0.00e+00	0	43	0	1045430272	9	3960
2026-01-11 13:38:01.50	355.10	16.34	-25.0	-25.9	16.2	0.00e+00	0	43	0	1052770304	9	3991
2026-01-11 13:38:02.49	354.99	16.24	-25.0	-25.5	16.2	0.00e+00	0	43	0	1060110336	10	3810
2026-01-11 13:38:03.49	354.89	16.14	-25.2	-25.8	16.0	0.00e+00	0	43	0	1067450368	10	3875
2026-01-11 13:38:04.48	354.79	16.04	-25.2	-25.9	16.0	0.00e+00	0	43	0	1073741824	10	3909
2026-01-11 13:38:05.48	354.69	15.94	-25.3	-26.0	15.9	0.00e+00	0	43	0	1081081856	10	3928
2026-01-11 13:38:06.47	354.59	15.85	-25.4	-26.3	15.8	0.00e+00	0	43	0	1088421888	10	3998
2026-01-11 13:38:07.47	354.49	15.75	-25.4	-26.3	15.7	0.00e+00	0	43	0	1095761920	10	3993
2026-01-11 13:38:08.46	354.39	15.65	-25.6	-26.7	15.5	0.00e+00	0	43	0	1103101952	10	4099
2026-01-11 13:38:09.46	354.29	15.56	-25.6	-26.3	15.5	0.00e+00	0	43	0	1110441984	11	3889
2026-01-11 13:38:10.45	354.19	15.46	-25.4	-25.9	15.7	0.00e+00	0	43	0	1117782016	11	3791
2026-01-11 13:38:11.43	354.10	15.37	-25.5	-25.9	15.7	0.00e+00	0	43	0	1124073472	11	3808
2026-01-11 13:38:12.42	354.00	15.27	-25.4	-25.9	15.7	0.00e+00	0	43	0	1131413504	11	3804
2026-01-11 13:38:13.42	353.90	15.18	-25.5	-26.0	15.6	0.00e+00	0	43	0	1138753536	11	3822
2026-01-11 13:38:14.41	353.81	15.08	-25.5	-26.1	15.6	0.00e+00	0	43	0	1146093568	11	3851
2026-01-11 13:38:15.40	353.71	14.99	-25.6	-26.2	15.5	0.00e+00	0	43	0	1153433600	11	3862
2026-01-11 13:38:16.39	353.62	14.89	-25.4	-25.8	15.7	0.00e+00	0	43	0	1160773632	11	3766
2026-01-11 13:38:17.39	353.53	14.80	-25.2	-25.5	15.9	0.00e+00	0	43	0	1167065088	11	3701
2026-01-11 13:38:18.38	353.43	14.71	-25.4	-25.8	15.7	0.00e+00	0	43	0	1174405120	11	3782
2026-01-11 13:38:19.38	353.34	14.61	-25.4	-25.8	15.7	0.00e+00	0	43	0	1181745152	11	3764
2026-01-11 13:38:20.37	353.25	14.52	-25.2	-25.4	15.9	0.00e+00	0	43	0	1189085184	11	3669
2026-01-11 13:38:21.35	353.16	14.43	-25.5	-26.0	15.6	0.00e+00	0	43	0	1196425216	11	3825
2026-01-11 13:38:22.35	353.07	14.34	-25.6	-26.3	15.4	0.00e+00	0	43	0	1203765248	11	3891
2026-01-11 13:38:23.34	352.98	14.24	-25.3	-25.6	15.8	0.00e+00	0	43	0	1210056704	11	3721
2026-01-11 13:38:24.33	352.89	14.15	-25.3	-25.6	15.8	0.00e+00	0	43	0	1217396736	11	3725
2026-01-11 13:38:25.32	352.80	14.06	-25.3	-25.5	15.8	0.00e+00	0	43	0	1224736768	11	3704
2026-01-11 13:38:26.31	352.72	13.97	-25.3	-25.7	15.7	0.00e+00	0	43	0	1232076800	11	3747
2026-01-11 13:38:27.30	352.63	13.88	-25.4	-25.9	15.6	0.00e+00	0	43	0	1239416832	11	3800
2026-01-11 13:38:28.28	352.54	13.79	-25.6	-26.3	15.4	0.00e+00	0	43	0	1245708288	11	3891
2026-01-11 13:38:29.27	352.46	13.70	-25.4	-25.9	15.6	0.00e+00	0	43	0	1253048320	11	3792
2026-01-11 13:38:30.25	352.37	13.61	-25.4	-25.7	15.7	0.00e+00	0	43	0	1260388352	11	3761
2026-01-11 13:38:31.24	352.29	13.52	-25.5	-26.0	15.5	0.00e+00	0	43	0	1267728384	11	3828
2026-01-11 13:38:32.24	352.20	13.43	-25.5	-26.0	15.5	0.00e+00	0	43	0	1274019840	11	3816
2026-01-11 13:38:33.23	352.12	13.34	-25.5	-26.0	15.5	0.00e+00	0	43	0	1281359872	11	3828
2026-01-11 13:38:34.22	352.03	13.25	-25.5	-26.1	15.5	0.00e+00	0	43	0	1288699904	11	3837
2026-01-11 13:38:35.21	351.95	13.16	-25.6	-26.2	15.4	0.00e+00	0	43	0	1296039936	11	3872
2026-01-11 13:38:36.20	351.87	13.07	-25.5	-26.0	15.5	0.00e+00	0	43	0	1303379968	11	3821
2026-01-11 13:38:37.20	351.79	12.98	-25.6	-26.3	15.3	0.00e+00	0	43	0	1310720000	11	3893
2026-01-11 13:38:38.20	351.70	12.90	-25.6	-26.2	15.4	0.00e+00	0	43	0	1318060032	11	3870
2026-01-11 13:38:39.20	351.62	12.81	-25.6	-26.3	15.3	0.00e+00	0	43	0	1325400064	11	3891
2026-01-11 13:38:40.19	351.54	12.72	-25.6	-26.2	15.4	0.00e+00	0	43	0	1331691520	11	3864
2026-01-11 13:38:41.19	351.46	12.63	-25.6	-26.2	15.4	0.00e+00	0	43	0	1339031552	11	3878
2026-01-11 13:38:42.20	351.38	12.54	-25.6	-26.3	15.3	0.00e+00	0	43	0	1346371584	11	3886
2026-01-11 13:38:43.19	351.30	12.46	-25.7	-26.5	15.3	0.00e+00	0	43	0	1353711616	11	3932
2026-01-11 13:38:44.19	351.22	12.37	-25.7	-26.6	15.2	0.00e+00	0	43	0	1361051648	11	3964
2026-01-11 13:38:45.19	351.14	12.28	-25.8	-26.7	15.1	0.00e+00	0	43	0	1368391680	11	3991
2026-01-11 13:38:46.19	351.07	12.20	-25.9	-26.9	14.9	0.00e+00	0	43	0	1375731712	11	4058
2026-01-11 13:38:47.18	350.99	12.11	-26.1	-26.8	14.7	0.00e+00	0	43	0	1382023168	12	3932
2026-01-11 13:38:48.19	350.91	12.02	-26.0	-26.7	14.7	1.10e-06	0	43	0	1389363200	12	3891
2026-01-11 13:38:49.19	350.83	11.94	-25.8	-26.4	14.9	0.00e+00	0	43	0	1396703232	12	3819
2026-01-11 13:38:50.18	350.76	11.85	-26.1	-26.9	14.6	0.00e+00	0	43	0	1404043264	12	3950
2026-01-11 13:38:51.18	350.68	11.77	-26.3	-27.3	14.4	1.10e-06	0	43	0	1411383296	12	4042
2026-01-11 13:38:52.18	350.61	11.68	-26.1	-26.9	14.6	0.00e+00	0	43	0	1418723328	12	3949
2026-01-11 13:38:53.17	350.53	11.60	-26.4	-27.6	14.2	0.00e+00	0	43	0	1426063360	12	4134
2026-01-11 13:38:54.16	350.46	11.51	-26.3	-27.3	14.4	2.20e-06	0	43	0	1432354816	12	4050
2026-01-11 13:38:55.16	350.39	11.43	-26.2	-27.0	14.5	2.20e-06	0	43	0	1439694848	12	3987
2026-01-11 13:38:56.16	350.31	11.34	-26.0	-26.6	14.7	0.00e+00	0	43	0	1447034880	12	3889
2026-01-11 13:38:57.15	350.24	11.26	-26.1	-26.9	14.6	0.00e+00	0	43	0	1454374912	12	3945
2026-01-11 13:38:58.15	350.17	11.18	-26.1	-26.8	14.6	0.00e+00	0	43	0	1461714944	12	3933
2026-01-11 13:38:59.14	350.10	11.09	-26.2	-27.2	14.4	1.10e-06	0	43	0	1469054976	12	4031
2026-01-11 13:39:00.14	350.02	11.01	-26.1	-26.9	14.6	0.00e+00	0	43	0	1476395008	12	3949
2026-01-11 13:39:01.14	349.95	10.93	-26.1	-26.9	14.6	0.00e+00	0	43	0	1482686464	12	3940
2026-01-11 13:39:02.13	349.88	10.85	-26.1	-26.9	14.5	2.20e-06	0	43	0	1490026496	12	3954
2026-01-11 13:39:03.12	349.81	10.76	-26.2	-27.1	14.4	0.00e+00	0	43	0	1497366528	12	4005
2026-01-11 13:39:04.13	349.74	10.68	-26.2	-27.0	14.5	0.00e+00	0	43	0	1504706560	12	3978
2026-01-11 13:39:05.13	349.67	10.60	-26.1	-27.0	14.5	0.00e+00	0	43	0	1512046592	12	3966
2026-01-11 13:39:06.12	349.60	10.52	-26.2	-27.1	14.4	1.10e-06	0	43	0	1519386624	12	3990
2026-01-11 13:39:07.13	349.53	10.44	-26.1	-26.8	14.6	0.00e+00	0	43	0	1526726656	12	3920
2026-01-11 13:39:08.13	349.47	10.35	-26.2	-27.0	14.5	2.20e-06	0	43	0	1533018112	12	3986
2026-01-11 13:39:09.12	349.40	10.27	-26.2	-27.1	14.4	1.10e-06	0	43	0	1540358144	12	3992
2026-01-11 13:39:10.13	349.33	10.19	-26.0	-26.7	14.6	0.00e+00	0	43	0	1547698176	12	3906
2026-01-11 13:39:11.12	349.26	10.11	-26.3	-27.4	14.2	5.70e-06	0	43	0	1555038208	12	4068
2026-01-11 13:39:12.12	349.20	10.03	-26.2	-27.2	14.3	1.10e-06	0	43	0	1562378240	12	4033
2026-01-11 13:39:13.11	349.13	9.95	-26.2	-27.1	14.3	1.10e-06	0	43	0	1569718272	12	3999
2026-01-11 13:39:14.10	349.07	9.87	-26.3	-27.4	14.1	0.00e+00	0	43	0	1577058304	12	4088
2026-01-11 13:39:15.10	349.00	9.79	-26.1	-27.0	14.4	1.10e-06	0	43	0	1584398336	12	3971
2026-01-11 13:39:16.10	348.93	9.71	-26.2	-27.2	14.3	1.10e-06	0	43	0	1591738368	12	4021
2026-01-11 13:39:17.09	348.87	9.63	-26.3	-27.3	14.2	1.10e-06	0	43	0	1598029824	12	4045
2026-01-11 13:39:18.08	348.81	9.56	-26.3	-27.3	14.2	2.20e-06	0	43	0	1605369856	12	4048
2026-01-11 13:39:19.08	348.74	9.48	-26.3	-27.4	14.2	3.40e-06	0	43	0	1612709888	12	4082
2026-01-11 13:39:20.06	348.68	9.40	-26.4	-27.7	14.0	4.50e-06	0	43	0	1620049920	12	4142
2026-01-11 13:39:21.05	348.62	9.32	-26.3	-27.4	14.1	0.00e+00	0	43	0	1627389952	12	4090
2026-01-11 13:39:22.04	348.55	9.24	-26.3	-27.3	14.2	2.20e-06	0	43	0	1633681408	12	4043
2026-01-11 13:39:23.03	348.49	9.17	-26.3	-27.4	14.1	2.20e-06	0	43	0	1641021440	12	4070
2026-01-11 13:39:24.02	348.43	9.09	-26.4	-27.6	14.0	2.20e-06	0	43	0	1648361472	12	4142
2026-01-11 13:39:25.02	348.37	9.01	-26.3	-27.4	14.1	4.50e-06	0	43	0	1655701504	12	4088
2026-01-11 13:39:26.01	348.31	8.93	-26.3	-27.3	14.2	1.10e-06	0	43	0	1663041536	12	4051
2026-01-11 13:39:27.00	348.25	8.86	-26.3	-27.5	14.1	5.70e-06	0	43	0	1670381568	12	4099
2026-01-11 13:39:27.99	348.19	8.78	-26.4	-27.5	14.0	0.00e+00	0	43	0	1676673024	12	4114
2026-01-11 13:39:28.98	348.13	8.71	-26.4	-27.7	13.9	3.40e-06	0	43	0	1684013056	12	4145
2026-01-11 13:39:29.97	348.07	8.63	-26.3	-27.4	14.1	1.10e-06	0	43	0	1691353088	12	4080
2026-01-11 13:39:30.97	348.01	8.55	-26.4	-27.5	14.0	2.20e-06	0	43	0	1698693120	12	4117
2026-01-11 13:39:31.97	347.95	8.48	-26.3	-27.3	14.1	1.10e-06	0	43	0	1706033152	12	4065
2026-01-11 13:39:32.96	347.89	8.40	-26.4	-27.5	14.0	3.40e-06	0	43	0	1713373184	12	4120
2026-01-11 13:39:33.95	347.83	8.33	-26.3	-27.4	14.1	3.40e-06	0	43	0	1719664640	12	4074
2026-01-11 13:39:34.94	347.77	8.25	-26.2	-27.2	14.2	1.10e-06	0	43	0	1727004672	12	4021
2026-01-11 13:39:35.94	347.71	8.18	-26.4	-27.5	14.0	3.40e-06	0	43	0	1734344704	12	4124
2026-01-11 13:39:36.93	347.65	8.10	-26.5	-27.8	13.8	8.00e-06	0	43	0	1741684736	12	4194
2026-01-11 13:39:37.93	347.60	8.03	-26.4	-27.6	13.9	1.10e-06	0	43	0	1749024768	12	4145
2026-01-11 13:39:38.94	347.54	7.95	-26.6	-27.6	13.6	1.25e-05	0	43	0	1755316224	13	4025
2026-01-11 13:39:39.94	347.48	7.87	-26.5	-27.3	13.7	6.80e-06	0	43	0	1763704832	13	3960
2026-01-11 13:39:40.93	347.43	7.80	-26.4	-27.1	13.9	4.50e-06	0	43	0	1769996288	13	3915
2026-01-11 13:39:41.94	347.37	7.73	-26.7	-27.8	13.5	1.71e-05	0	43	0	1777336320	13	4084
2026-01-11 13:39:42.93	347.31	7.65	-26.7	-27.7	13.5	1.14e-05	0	43	0	1784676352	13	4061
2026-01-11 13:39:43.93	347.26	7.58	-26.6	-27.5	13.6	1.48e-05	0	43	0	1792016384	13	4022
2026-01-11 13:39:44.93	347.20	7.50	-26.4	-27.1	13.9	5.70e-06	0	43	0	1799356416	13	3905
2026-01-11 13:39:45.92	347.15	7.43	-26.8	-28.0	13.3	5.70e-06	0	43	0	1806696448	13	4140
2026-01-11 13:39:46.93	347.09	7.36	-26.8	-28.1	13.2	2.63e-05	0	43	0	1814036480	13	4181
2026-01-11 13:39:47.92	347.04	7.28	-26.9	-28.2	13.2	3.20e-05	0	43	0	1820327936	13	4203
2026-01-11 13:39:48.92	346.98	7.21	-27.4	-28.8	12.5	9.38e-05	0	43	0	1827667968	14	4265
2026-01-11 13:39:49.91	346.93	7.14	-27.0	-28.1	13.0	3.43e-05	0	43	0	1835008000	14	4062
2026-01-11 13:39:50.90	346.88	7.07	-32.5	-39.2	3.9	8.46e-01	0	43	104	1839202304	25	7857

#Closed at: 2026-01-11 13:39:51
#Recorded file [1839 MB]: D:/data/31010_260111_163534.dat