passes_logs/2026/01/11/R2M6_AANII_01/R2M6_AANII_01__20260111_090318_SUOMI_NPP_rec.log

#Pass ID: 20260111_090318_SUOMI NPP
#Satellite: SUOMI NPP
#Configuration: NPP
#almurnet v.1.7.20240730
#Start time: 2026-01-11 09:03:20

#Version: 2.2.20231116
#Station: R2M6_AANII_01
#Location: 30.233357 lon 59.946436 lat
#TLE: 1 37849U 11061A   26009.81756760  .00000113  00000+0  74747-4 0  9994
#TLE: 2 37849  98.7806 311.9110 0002525  72.5604 287.5848 14.19524046735974

#Time	Az	El	Level	Level2	SNR	BER	BlckErr	Temp	State	Recorded	gain1	gain2
2026-01-11 09:03:20.07	118.76	7.14	-31.7	-36.9	4.7	1.33e+00	0	39	0	0	24	6533
2026-01-11 09:03:21.07	118.69	7.21	-31.8	-36.6	4.7	1.36e+00	0	39	104	0	25	6244
2026-01-11 09:03:22.07	118.62	7.28	-31.9	-37.1	6.3	2.36e-01	0	39	0	0	25	6535
2026-01-11 09:03:23.08	118.56	7.36	-31.8	-36.8	6.4	2.64e-01	0	39	0	1048576	25	6376
2026-01-11 09:03:24.08	118.49	7.43	-31.9	-37.1	6.3	2.63e-01	0	40	0	3145728	25	6519
2026-01-11 09:03:25.09	118.42	7.50	-31.9	-36.9	6.4	2.54e-01	0	40	0	5242880	25	6435
2026-01-11 09:03:26.09	118.35	7.57	-31.7	-36.6	6.9	2.12e-01	0	40	0	7340032	24	6309
2026-01-11 09:03:27.10	118.29	7.65	-31.6	-35.8	7.6	1.13e-01	0	40	0	9437184	24	5840
2026-01-11 09:03:28.10	118.22	7.72	-31.3	-34.6	8.6	5.91e-02	0	40	0	10485760	24	5230
2026-01-11 09:03:29.11	118.15	7.79	-31.1	-34.3	9.2	3.33e-02	0	40	0	12582912	23	5176
2026-01-11 09:03:30.11	118.08	7.86	-31.0	-33.7	9.8	1.13e-02	0	40	0	14680064	23	4907
2026-01-11 09:03:31.12	118.01	7.94	-30.8	-33.2	10.1	7.87e-03	0	40	0	16777216	23	4739
2026-01-11 09:03:32.12	117.94	8.01	-30.8	-33.4	10.4	5.78e-03	0	40	0	18874368	22	4859
2026-01-11 09:03:33.12	117.87	8.08	-30.7	-33.3	10.5	3.58e-03	0	40	0	19922944	22	4834
2026-01-11 09:03:34.13	117.80	8.16	-30.7	-33.3	10.5	4.07e-03	0	40	0	22020096	22	4819
2026-01-11 09:03:35.13	117.73	8.23	-30.6	-32.9	10.8	3.28e-03	0	40	0	24117248	22	4689
2026-01-11 09:03:36.13	117.66	8.31	-30.6	-32.8	10.9	2.11e-03	0	40	0	26214400	22	4630
2026-01-11 09:03:37.14	117.58	8.38	-30.7	-33.2	10.6	3.12e-03	0	40	0	28311552	22	4775
2026-01-11 09:03:38.14	117.51	8.46	-30.8	-33.4	10.5	3.32e-03	0	40	0	29360128	22	4874
2026-01-11 09:03:39.15	117.44	8.53	-30.9	-33.8	10.2	4.49e-03	0	40	0	31457280	22	5007
2026-01-11 09:03:40.15	117.37	8.61	-31.1	-34.5	9.6	1.12e-02	0	40	0	33554432	22	5308
2026-01-11 09:03:41.16	117.29	8.68	-31.1	-34.4	9.7	9.40e-03	0	40	0	35651584	22	5280
2026-01-11 09:03:42.16	117.22	8.76	-31.0	-33.9	10.1	6.71e-03	0	40	0	36700160	22	5081
2026-01-11 09:03:43.17	117.14	8.83	-31.0	-34.2	10.0	7.03e-03	0	40	0	38797312	22	5162
2026-01-11 09:03:44.18	117.07	8.91	-31.0	-34.0	10.0	1.26e-02	0	40	0	40894464	22	5115
2026-01-11 09:03:45.18	116.99	8.98	-30.8	-33.4	10.5	5.33e-03	0	40	0	42991616	22	4853
2026-01-11 09:03:46.18	116.92	9.06	-30.7	-32.9	10.9	3.90e-03	0	40	0	45088768	22	4662
2026-01-11 09:03:47.19	116.84	9.14	-30.5	-32.4	11.4	1.43e-03	0	40	0	46137344	22	4449
2026-01-11 09:03:48.20	116.77	9.21	-30.5	-32.3	11.4	1.14e-03	0	40	0	48234496	22	4441
2026-01-11 09:03:49.21	116.69	9.29	-30.7	-33.1	10.8	1.13e-03	0	40	0	50331648	22	4712
2026-01-11 09:03:50.22	116.61	9.37	-30.6	-32.7	11.1	1.67e-03	0	40	0	52428800	22	4581
2026-01-11 09:03:51.22	116.53	9.44	-30.7	-33.0	10.9	2.27e-03	0	40	0	54525952	22	4679
2026-01-11 09:03:52.23	116.46	9.52	-30.8	-33.3	10.7	3.31e-03	0	40	0	56623104	22	4805
2026-01-11 09:03:53.24	116.38	9.60	-30.8	-33.2	10.9	2.46e-03	0	40	0	57671680	22	4736
2026-01-11 09:03:54.24	116.30	9.68	-30.7	-33.0	11.0	2.03e-03	0	40	0	59768832	22	4675
2026-01-11 09:03:55.25	116.22	9.75	-30.6	-32.5	11.4	1.26e-03	0	40	0	61865984	22	4477
2026-01-11 09:03:56.26	116.14	9.83	-30.6	-32.4	11.5	1.06e-03	0	41	0	63963136	22	4446
2026-01-11 09:03:57.26	116.06	9.91	-30.5	-32.3	11.6	7.15e-04	0	40	0	65011712	22	4403
2026-01-11 09:03:58.27	115.98	9.99	-30.5	-32.3	11.6	6.04e-04	0	40	0	67108864	22	4403
2026-01-11 09:03:59.28	115.90	10.07	-30.6	-32.5	11.4	8.74e-04	0	41	0	69206016	22	4487
2026-01-11 09:04:00.29	115.81	10.15	-30.6	-32.5	11.4	9.22e-04	0	40	0	71303168	22	4473
2026-01-11 09:04:01.29	115.73	10.23	-30.8	-33.2	10.9	1.68e-03	0	41	0	73400320	22	4738
2026-01-11 09:04:02.30	115.65	10.31	-31.0	-33.7	10.5	2.27e-03	0	41	0	74448896	22	4946
2026-01-11 09:04:03.31	115.57	10.38	-30.9	-33.3	10.9	2.48e-03	0	41	0	76546048	22	4772
2026-01-11 09:04:04.32	115.48	10.46	-30.9	-33.4	10.8	2.49e-03	0	41	0	78643200	22	4792
2026-01-11 09:04:05.33	115.40	10.54	-30.7	-32.9	11.1	2.33e-03	0	41	0	80740352	22	4636
2026-01-11 09:04:06.33	115.31	10.62	-30.7	-32.6	11.4	9.23e-04	0	41	0	82837504	22	4518
2026-01-11 09:04:07.34	115.23	10.70	-30.6	-32.5	11.5	1.01e-03	0	41	0	84934656	22	4459
2026-01-11 09:04:08.35	115.14	10.79	-30.7	-32.7	11.4	1.11e-03	0	41	0	85983232	22	4523
2026-01-11 09:04:09.35	115.06	10.87	-30.8	-33.0	11.1	1.25e-03	0	41	0	88080384	22	4646
2026-01-11 09:04:10.36	114.97	10.95	-30.9	-33.3	10.9	1.33e-03	0	41	0	90177536	22	4771
2026-01-11 09:04:11.37	114.88	11.03	-31.0	-33.6	10.7	3.40e-03	0	41	0	92274688	22	4867
2026-01-11 09:04:12.38	114.80	11.11	-30.9	-33.4	10.9	2.25e-03	0	41	0	94371840	22	4779
2026-01-11 09:04:13.38	114.71	11.19	-30.7	-32.8	11.4	1.62e-03	0	41	0	95420416	22	4552
2026-01-11 09:04:14.39	114.62	11.27	-30.7	-32.8	11.3	7.93e-04	0	41	0	97517568	22	4568
2026-01-11 09:04:15.39	114.53	11.35	-30.6	-32.5	11.6	7.84e-04	0	41	0	99614720	22	4452
2026-01-11 09:04:16.40	114.44	11.44	-30.5	-31.9	11.9	5.24e-04	0	41	0	101711872	22	4272
2026-01-11 09:04:17.40	114.35	11.52	-30.4	-31.8	12.1	2.55e-04	0	41	0	102760448	22	4233
2026-01-11 09:04:18.41	114.26	11.60	-30.5	-32.0	11.9	3.26e-04	0	41	0	104857600	22	4285
2026-01-11 09:04:19.42	114.17	11.68	-30.2	-31.7	12.4	1.30e-04	0	41	0	106954752	21	4299
2026-01-11 09:04:20.43	114.08	11.77	-30.3	-31.9	12.4	1.39e-04	0	41	0	109051904	21	4355
2026-01-11 09:04:21.43	113.99	11.85	-30.2	-31.7	12.4	3.11e-04	0	41	0	111149056	21	4295
2026-01-11 09:04:22.44	113.90	11.93	-30.4	-32.3	12.1	1.98e-04	0	41	0	113246208	21	4474
2026-01-11 09:04:23.45	113.80	12.02	-30.3	-32.1	12.2	2.17e-04	0	41	0	114294784	21	4403
2026-01-11 09:04:24.45	113.71	12.10	-30.3	-32.1	12.2	2.68e-04	0	41	0	116391936	21	4394
2026-01-11 09:04:25.45	113.62	12.18	-30.1	-31.5	12.6	1.64e-04	0	41	0	118489088	21	4212
2026-01-11 09:04:26.45	113.52	12.27	-30.2	-31.7	12.5	1.06e-04	0	41	0	120586240	21	4286
2026-01-11 09:04:27.46	113.43	12.35	-30.1	-31.4	12.8	6.02e-05	0	41	0	121634816	21	4166
2026-01-11 09:04:28.47	113.33	12.44	-30.1	-31.5	12.7	8.77e-05	0	41	0	123731968	21	4193
2026-01-11 09:04:29.47	113.23	12.52	-30.1	-31.4	12.7	7.70e-05	0	41	0	125829120	21	4188
2026-01-11 09:04:30.48	113.14	12.61	-30.2	-31.7	12.5	1.06e-04	0	41	0	127926272	21	4278
2026-01-11 09:04:31.49	113.04	12.69	-30.2	-31.7	12.5	1.29e-04	0	41	0	130023424	21	4284
2026-01-11 09:04:32.49	112.94	12.78	-30.3	-31.8	12.5	1.27e-04	0	41	0	131072000	21	4312
2026-01-11 09:04:33.50	112.84	12.86	-30.3	-31.9	12.4	1.68e-04	0	41	0	133169152	21	4342
2026-01-11 09:04:34.50	112.74	12.95	-30.1	-31.3	12.9	8.39e-05	0	41	0	135266304	21	4137
2026-01-11 09:04:35.50	112.64	13.03	-30.0	-31.0	13.0	4.57e-05	0	41	0	137363456	21	4063
2026-01-11 09:04:36.51	112.54	13.12	-30.0	-31.1	13.0	4.11e-05	0	41	0	139460608	21	4081
2026-01-11 09:04:37.51	112.44	13.21	-29.9	-30.7	13.3	2.97e-05	0	41	0	140509184	21	3953
2026-01-11 09:04:38.52	112.34	13.29	-30.0	-31.1	13.0	1.90e-05	0	41	0	142606336	21	4073
2026-01-11 09:04:39.52	112.24	13.38	-30.2	-31.6	12.7	7.09e-05	0	41	0	144703488	21	4226
2026-01-11 09:04:40.53	112.14	13.47	-30.1	-31.4	12.9	7.09e-05	0	41	0	146800640	21	4172
2026-01-11 09:04:41.52	112.03	13.55	-30.2	-31.5	12.8	8.08e-05	0	41	0	148897792	21	4204
2026-01-11 09:04:42.52	111.93	13.64	-30.1	-31.4	12.8	1.07e-04	0	41	0	149946368	21	4168
2026-01-11 09:04:43.53	111.83	13.73	-30.1	-31.3	12.9	5.41e-05	0	41	0	152043520	21	4152
2026-01-11 09:04:44.54	111.72	13.82	-30.0	-31.1	13.0	5.49e-05	0	41	0	154140672	21	4072
2026-01-11 09:04:45.55	111.61	13.90	-30.2	-31.5	12.8	7.47e-05	0	41	0	156237824	21	4203
2026-01-11 09:04:46.55	111.51	13.99	-30.1	-31.4	12.9	4.42e-05	0	41	0	158334976	21	4160
2026-01-11 09:04:47.56	111.40	14.08	-30.1	-31.4	12.8	4.95e-05	0	41	0	159383552	21	4161
2026-01-11 09:04:48.57	111.29	14.17	-30.2	-31.6	12.8	5.87e-05	0	41	0	161480704	21	4215
2026-01-11 09:04:49.57	111.18	14.26	-30.1	-31.4	12.9	5.64e-05	0	41	0	163577856	21	4158
2026-01-11 09:04:50.58	111.07	14.35	-30.1	-31.3	12.9	3.58e-05	0	41	0	165675008	21	4143
2026-01-11 09:04:51.58	110.96	14.44	-30.3	-32.0	12.5	6.25e-05	0	41	0	167772160	21	4366
2026-01-11 09:04:52.59	110.85	14.53	-30.3	-31.8	12.6	1.23e-04	0	41	0	168820736	21	4288
2026-01-11 09:04:53.60	110.74	14.62	-30.2	-31.6	12.7	5.56e-05	0	41	0	170917888	21	4232
2026-01-11 09:04:54.60	110.63	14.71	-30.3	-31.9	12.5	8.31e-05	0	41	0	173015040	21	4334
2026-01-11 09:04:55.61	110.52	14.80	-30.3	-31.9	12.6	1.15e-04	0	41	0	175112192	21	4326
2026-01-11 09:04:56.61	110.40	14.89	-30.2	-31.7	12.7	8.85e-05	0	41	0	177209344	21	4249
2026-01-11 09:04:57.62	110.29	14.98	-30.3	-31.9	12.6	8.77e-05	0	41	0	178257920	21	4313
2026-01-11 09:04:58.62	110.18	15.07	-30.2	-31.6	12.8	1.01e-04	0	41	0	180355072	21	4227
2026-01-11 09:04:59.63	110.06	15.16	-30.3	-31.8	12.7	6.25e-05	0	41	0	182452224	21	4278
2026-01-11 09:05:00.64	109.94	15.25	-30.2	-31.5	12.9	5.64e-05	0	41	0	184549376	21	4178
2026-01-11 09:05:01.65	109.82	15.35	-30.1	-31.3	13.0	2.67e-05	0	41	0	186646528	21	4122
2026-01-11 09:05:02.66	109.71	15.44	-30.0	-31.1	13.1	3.43e-05	0	41	0	187695104	21	4060
2026-01-11 09:05:03.67	109.59	15.53	-30.1	-31.3	13.0	3.81e-05	0	41	0	189792256	21	4132
2026-01-11 09:05:04.67	109.47	15.62	-30.2	-31.6	12.8	6.25e-05	0	41	0	191889408	21	4232
2026-01-11 09:05:05.67	109.35	15.71	-30.3	-31.7	12.7	7.32e-05	0	41	0	193986560	21	4245
2026-01-11 09:05:06.67	109.23	15.81	-30.1	-31.3	13.1	3.43e-05	0	41	0	196083712	21	4120
2026-01-11 09:05:07.67	109.11	15.90	-30.2	-31.5	12.9	6.33e-05	0	41	0	197132288	21	4197
2026-01-11 09:05:08.67	108.99	15.99	-30.2	-31.6	12.8	5.87e-05	0	41	0	199229440	21	4215
2026-01-11 09:05:09.67	108.86	16.09	-30.1	-31.2	13.2	2.74e-05	0	41	0	201326592	21	4082
2026-01-11 09:05:10.68	108.74	16.18	-30.1	-31.3	13.0	4.27e-05	0	41	0	203423744	21	4134
2026-01-11 09:05:11.67	108.62	16.27	-29.9	-30.7	13.4	4.27e-05	0	41	0	205520896	21	3935
2026-01-11 09:05:12.68	108.49	16.37	-29.9	-30.7	13.5	1.52e-05	0	41	0	206569472	21	3937
2026-01-11 09:05:13.69	108.37	16.46	-30.0	-31.0	13.3	1.22e-05	0	41	0	208666624	21	4026
2026-01-11 09:05:14.69	108.24	16.56	-29.9	-30.7	13.5	9.10e-06	0	42	0	210763776	21	3937
2026-01-11 09:05:15.69	108.11	16.65	-30.0	-31.0	13.3	1.22e-05	0	41	0	212860928	21	4029
2026-01-11 09:05:16.70	107.98	16.75	-30.1	-31.2	13.1	3.05e-05	0	41	0	214958080	21	4092
2026-01-11 09:05:17.71	107.85	16.84	-30.2	-31.4	13.0	2.21e-05	0	41	0	216006656	21	4148
2026-01-11 09:05:18.71	107.72	16.94	-30.2	-31.5	13.0	4.11e-05	0	41	0	218103808	21	4174
2026-01-11 09:05:19.72	107.59	17.03	-29.8	-30.5	13.6	1.75e-05	0	41	0	220200960	21	3900
2026-01-11 09:05:20.73	107.46	17.13	-29.9	-30.6	13.5	6.80e-06	0	41	0	222298112	21	3918
2026-01-11 09:05:21.73	107.33	17.22	-30.0	-31.0	13.3	1.29e-05	0	41	0	224395264	21	4041
2026-01-11 09:05:22.74	107.19	17.32	-30.2	-31.6	12.9	1.83e-05	0	41	0	225443840	21	4207
2026-01-11 09:05:23.75	107.06	17.42	-30.4	-32.0	12.7	7.32e-05	0	41	0	227540992	21	4322
2026-01-11 09:05:24.75	106.92	17.51	-30.6	-32.5	12.2	1.28e-04	0	41	0	229638144	21	4499
2026-01-11 09:05:25.75	106.79	17.61	-30.6	-32.7	12.1	1.49e-04	0	41	0	231735296	21	4577
2026-01-11 09:05:26.75	106.65	17.71	-30.7	-32.9	12.0	3.22e-04	0	41	0	232783872	21	4656
2026-01-11 09:05:27.76	106.51	17.81	-30.4	-32.2	12.5	2.68e-04	0	41	0	234881024	21	4400
2026-01-11 09:05:28.77	106.37	17.90	-30.6	-32.5	12.3	1.72e-04	0	41	0	236978176	21	4519
2026-01-11 09:05:29.77	106.23	18.00	-30.7	-33.0	12.0	3.20e-04	0	41	0	239075328	21	4669
2026-01-11 09:05:30.78	106.09	18.10	-30.7	-32.9	12.0	2.29e-04	0	41	0	241172480	21	4656
2026-01-11 09:05:31.78	105.95	18.20	-30.8	-33.1	11.9	4.67e-04	0	41	0	243269632	21	4715
2026-01-11 09:05:32.79	105.81	18.30	-30.6	-32.7	12.2	4.07e-04	0	41	0	244318208	21	4576
2026-01-11 09:05:33.79	105.66	18.39	-30.5	-32.3	12.5	1.11e-04	0	41	0	246415360	21	4443
2026-01-11 09:05:34.80	105.52	18.49	-30.4	-32.1	12.6	7.62e-05	0	41	0	248512512	21	4370
2026-01-11 09:05:35.81	105.37	18.59	-30.3	-31.8	12.9	7.55e-05	0	42	0	250609664	21	4261
2026-01-11 09:05:36.81	105.23	18.69	-30.3	-31.7	12.9	6.86e-05	0	42	0	251658240	21	4231
2026-01-11 09:05:37.82	105.08	18.79	-30.4	-31.9	12.8	6.86e-05	0	41	0	253755392	21	4297
2026-01-11 09:05:38.83	104.93	18.89	-30.4	-32.1	12.7	6.25e-05	0	41	0	255852544	21	4341
2026-01-11 09:05:39.83	104.78	18.99	-30.5	-32.2	12.6	8.08e-05	0	42	0	257949696	21	4387
2026-01-11 09:05:40.83	104.63	19.09	-30.5	-32.4	12.5	9.23e-05	0	41	0	260046848	21	4441
2026-01-11 09:05:41.84	104.48	19.19	-30.5	-32.3	12.5	8.92e-05	0	41	0	261095424	21	4435
2026-01-11 09:05:42.83	104.33	19.29	-30.4	-32.0	12.7	6.10e-05	0	41	0	263192576	21	4344
2026-01-11 09:05:43.84	104.17	19.39	-30.6	-32.5	12.4	1.17e-04	0	41	0	265289728	21	4495
2026-01-11 09:05:44.84	104.02	19.49	-30.4	-32.1	12.7	9.99e-05	0	41	0	267386880	21	4371
2026-01-11 09:05:45.85	103.86	19.59	-30.5	-32.3	12.6	8.85e-05	0	41	0	269484032	21	4410
2026-01-11 09:05:46.85	103.71	19.69	-30.7	-33.0	12.1	1.59e-04	0	41	0	270532608	21	4671
2026-01-11 09:05:47.85	103.55	19.80	-30.7	-32.8	12.2	1.83e-04	0	41	0	272629760	21	4608
2026-01-11 09:05:48.85	103.39	19.90	-30.6	-32.6	12.4	1.81e-04	0	42	0	274726912	21	4529
2026-01-11 09:05:49.86	103.23	20.00	-30.5	-32.4	12.5	1.36e-04	0	42	0	276824064	21	4439
2026-01-11 09:05:50.86	103.07	20.10	-30.5	-32.1	12.7	1.03e-04	0	42	0	278921216	21	4368
2026-01-11 09:05:51.87	102.91	20.20	-30.7	-32.9	12.2	1.25e-04	0	41	0	279969792	21	4612
2026-01-11 09:05:52.88	102.74	20.31	-30.6	-32.6	12.4	2.04e-04	0	42	0	282066944	21	4537
2026-01-11 09:05:53.88	102.58	20.41	-30.5	-32.2	12.7	9.68e-05	0	42	0	284164096	21	4397
2026-01-11 09:05:54.89	102.42	20.51	-30.5	-32.2	12.6	1.14e-04	0	42	0	286261248	21	4400
2026-01-11 09:05:55.89	102.25	20.61	-30.5	-32.4	12.5	8.85e-05	0	42	0	288358400	21	4472
2026-01-11 09:05:56.90	102.08	20.72	-30.3	-31.9	12.7	3.66e-05	0	42	0	289406976	21	4332
2026-01-11 09:05:57.90	101.91	20.82	-30.2	-31.5	13.0	4.04e-05	0	42	0	291504128	21	4184
2026-01-11 09:05:58.91	101.74	20.92	-30.4	-32.0	12.7	4.04e-05	0	42	0	293601280	21	4352
2026-01-11 09:05:59.92	101.57	21.03	-30.5	-32.4	12.5	1.37e-04	0	41	0	295698432	21	4465
2026-01-11 09:06:00.92	101.40	21.13	-30.7	-33.1	11.9	2.30e-04	0	42	0	297795584	21	4724
2026-01-11 09:06:01.93	101.23	21.23	-30.7	-33.0	12.1	3.49e-04	0	42	0	298844160	21	4692
2026-01-11 09:06:02.94	101.05	21.34	-30.8	-33.2	11.9	4.94e-04	0	42	0	300941312	21	4778
2026-01-11 09:06:03.95	100.87	21.44	-31.0	-33.5	11.4	5.58e-04	0	41	0	303038464	22	4787
2026-01-11 09:06:04.95	100.70	21.55	-30.9	-33.1	11.7	6.61e-04	0	41	0	305135616	22	4633
2026-01-11 09:06:05.95	100.52	21.65	-30.7	-32.5	12.1	4.03e-04	0	42	0	307232768	22	4426
2026-01-11 09:06:06.96	100.34	21.76	-30.7	-32.6	12.0	2.37e-04	0	42	0	308281344	22	4466
2026-01-11 09:06:07.97	100.16	21.86	-30.6	-32.3	12.2	2.69e-04	0	41	0	310378496	22	4371
2026-01-11 09:06:08.97	99.98	21.96	-30.5	-32.0	12.4	2.63e-04	0	42	0	312475648	22	4268
2026-01-11 09:06:09.98	99.79	22.07	-30.5	-31.9	12.5	1.23e-04	0	42	0	314572800	22	4226
2026-01-11 09:06:10.97	99.61	22.17	-30.5	-32.0	12.4	1.55e-04	0	42	0	316669952	22	4268
2026-01-11 09:06:11.98	99.43	22.28	-30.6	-32.3	12.3	1.55e-04	0	42	0	317718528	22	4351
2026-01-11 09:06:12.98	99.24	22.38	-30.6	-32.2	12.3	1.59e-04	0	41	0	319815680	22	4324
2026-01-11 09:06:13.98	99.05	22.49	-30.4	-31.7	12.6	6.63e-05	0	41	0	321912832	22	4181
2026-01-11 09:06:14.99	98.86	22.59	-30.2	-31.7	13.0	6.79e-05	0	41	0	324009984	21	4240
2026-01-11 09:06:15.99	98.67	22.70	-30.1	-31.3	13.3	3.35e-05	0	42	0	326107136	21	4119
2026-01-11 09:06:17.00	98.48	22.80	-30.1	-31.1	13.3	2.82e-05	0	41	0	327155712	21	4078
2026-01-11 09:06:18.01	98.29	22.91	-30.3	-31.8	13.0	1.90e-05	0	42	0	329252864	21	4266
2026-01-11 09:06:19.01	98.09	23.02	-30.2	-31.4	13.2	3.50e-05	0	42	0	331350016	21	4134
2026-01-11 09:06:20.02	97.90	23.12	-30.0	-30.8	13.6	9.90e-06	0	41	0	333447168	21	3972
2026-01-11 09:06:21.02	97.70	23.23	-30.1	-31.3	13.3	4.50e-06	0	42	0	335544320	21	4107
2026-01-11 09:06:22.02	97.50	23.33	-30.1	-31.3	13.3	7.60e-06	0	42	0	336592896	21	4104
2026-01-11 09:06:23.03	97.30	23.44	-29.9	-30.8	13.6	9.10e-06	0	42	0	338690048	21	3953
2026-01-11 09:06:24.03	97.10	23.54	-30.1	-31.2	13.5	1.52e-05	0	42	0	340787200	21	4068
2026-01-11 09:06:25.04	96.90	23.65	-30.1	-31.1	13.4	1.22e-05	0	41	0	342884352	21	4060
2026-01-11 09:06:26.04	96.69	23.76	-30.1	-31.2	13.3	1.22e-05	0	41	0	344981504	21	4090
2026-01-11 09:06:27.05	96.49	23.86	-30.1	-31.1	13.4	2.13e-05	0	42	0	346030080	21	4047
2026-01-11 09:06:28.06	96.28	23.97	-30.1	-31.2	13.4	7.60e-06	0	42	0	348127232	21	4075
2026-01-11 09:06:29.06	96.07	24.08	-30.4	-32.0	12.9	2.44e-05	0	42	0	350224384	21	4341
2026-01-11 09:06:30.07	95.86	24.18	-30.2	-31.5	13.2	1.83e-05	0	42	0	352321536	21	4180
2026-01-11 09:06:31.07	95.65	24.29	-30.3	-31.8	13.0	3.12e-05	0	42	0	354418688	21	4272
2026-01-11 09:06:32.08	95.44	24.39	-30.1	-31.2	13.4	2.59e-05	0	42	0	355467264	21	4089
2026-01-11 09:06:33.09	95.22	24.50	-30.2	-31.3	13.3	1.22e-05	0	42	0	357564416	21	4115
2026-01-11 09:06:34.10	95.00	24.61	-30.2	-31.4	13.2	1.75e-05	0	42	0	359661568	21	4140
2026-01-11 09:06:35.11	94.79	24.71	-30.1	-31.1	13.5	2.05e-05	0	42	0	361758720	21	4040
2026-01-11 09:06:36.11	94.57	24.82	-30.2	-31.4	13.3	9.90e-06	0	42	0	362807296	21	4140
2026-01-11 09:06:37.12	94.35	24.93	-30.3	-31.6	13.1	3.05e-05	0	42	0	364904448	21	4208
2026-01-11 09:06:38.12	94.13	25.03	-30.2	-31.6	13.2	2.59e-05	0	42	0	367001600	21	4194
2026-01-11 09:06:39.13	93.90	25.14	-30.4	-32.0	13.0	2.59e-05	0	42	0	369098752	21	4313
2026-01-11 09:06:40.13	93.68	25.24	-30.1	-31.2	13.5	1.37e-05	0	42	0	371195904	21	4071
2026-01-11 09:06:41.13	93.45	25.35	-30.2	-31.3	13.4	2.05e-05	0	42	0	373293056	21	4114
2026-01-11 09:06:42.14	93.23	25.46	-30.5	-32.1	12.7	2.97e-05	0	42	0	374341632	21	4369
2026-01-11 09:06:43.15	93.00	25.56	-30.4	-32.1	12.9	3.73e-05	0	42	0	376438784	21	4358
2026-01-11 09:06:44.15	92.77	25.67	-30.5	-32.2	12.8	4.88e-05	0	42	0	378535936	21	4383
2026-01-11 09:06:45.16	92.53	25.77	-30.3	-31.7	13.2	3.96e-05	0	42	0	380633088	21	4237
2026-01-11 09:06:46.17	92.30	25.88	-30.5	-32.3	12.8	5.87e-05	0	42	0	381681664	21	4401
2026-01-11 09:06:47.16	92.07	25.98	-30.5	-32.2	12.8	4.50e-05	0	42	0	383778816	21	4390
2026-01-11 09:06:48.17	91.83	26.09	-30.8	-33.0	12.3	9.76e-05	0	42	0	385875968	21	4645
2026-01-11 09:06:49.18	91.59	26.19	-30.7	-32.6	12.5	1.43e-04	0	42	0	387973120	21	4531
2026-01-11 09:06:50.19	91.35	26.30	-30.6	-32.5	12.8	5.87e-05	0	42	0	390070272	21	4479
2026-01-11 09:06:51.20	91.10	26.41	-30.3	-31.7	13.1	4.88e-05	0	42	0	391118848	21	4225
2026-01-11 09:06:52.20	90.86	26.51	-30.0	-30.9	13.7	1.06e-05	0	42	0	393216000	21	3988
2026-01-11 09:06:53.21	90.62	26.61	-30.2	-31.3	13.4	3.00e-06	0	42	0	395313152	21	4107
2026-01-11 09:06:54.22	90.37	26.72	-30.0	-30.9	13.7	2.20e-06	0	42	0	397410304	21	3977
2026-01-11 09:06:55.23	90.12	26.82	-29.9	-30.6	13.9	3.00e-06	0	42	0	399507456	21	3897
2026-01-11 09:06:56.23	89.87	26.93	-29.8	-30.5	13.9	7.60e-06	0	42	0	401604608	21	3864
2026-01-11 09:06:57.24	89.62	27.03	-29.5	-30.0	14.6	7.00e-07	0	42	0	402653184	20	3831
2026-01-11 09:06:58.25	89.36	27.14	-29.4	-29.7	14.7	0.00e+00	0	42	0	404750336	20	3753
2026-01-11 09:06:59.25	89.11	27.24	-29.6	-30.3	14.4	0.00e+00	0	41	0	406847488	20	3903
2026-01-11 09:07:00.26	88.85	27.34	-29.8	-30.9	13.9	1.50e-06	0	42	0	408944640	20	4095
2026-01-11 09:07:01.27	88.59	27.44	-30.0	-31.5	13.6	5.30e-06	0	42	0	411041792	20	4255
2026-01-11 09:07:02.28	88.33	27.55	-30.3	-32.4	13.0	9.90e-06	0	42	0	412090368	20	4564
2026-01-11 09:07:03.28	88.07	27.65	-30.3	-32.3	13.0	5.72e-05	0	42	0	414187520	20	4534
2026-01-11 09:07:04.29	87.81	27.75	-30.4	-32.5	12.9	3.58e-05	0	42	0	416284672	20	4600
2026-01-11 09:07:05.29	87.54	27.85	-30.4	-32.4	13.0	5.11e-05	0	42	0	418381824	20	4542
2026-01-11 09:07:06.30	87.27	27.95	-30.2	-32.0	13.3	3.05e-05	0	42	0	419430400	20	4412
2026-01-11 09:07:07.30	87.01	28.05	-30.5	-32.7	12.7	4.50e-05	0	42	0	421527552	20	4679
2026-01-11 09:07:08.30	86.74	28.15	-30.8	-33.2	12.1	1.98e-04	0	42	0	423624704	21	4733
2026-01-11 09:07:09.31	86.47	28.26	-30.8	-33.1	12.1	2.49e-04	0	42	0	425721856	21	4720
2026-01-11 09:07:10.31	86.19	28.35	-30.9	-33.4	12.1	4.07e-04	0	42	0	427819008	21	4809
2026-01-11 09:07:11.31	85.92	28.45	-30.7	-33.0	12.2	1.97e-04	0	42	0	428867584	21	4694
2026-01-11 09:07:12.32	85.64	28.55	-30.8	-33.1	12.1	2.49e-04	0	42	0	430964736	21	4706
2026-01-11 09:07:13.33	85.36	28.65	-30.7	-32.8	12.4	1.49e-04	0	42	0	433061888	21	4591
2026-01-11 09:07:14.33	85.08	28.75	-30.7	-32.8	12.5	1.68e-04	0	42	0	435159040	21	4592
2026-01-11 09:07:15.34	84.80	28.85	-30.4	-32.1	12.9	7.70e-05	0	42	0	437256192	21	4360
2026-01-11 09:07:16.35	84.51	28.95	-30.6	-32.5	12.6	4.95e-05	0	42	0	438304768	21	4490
2026-01-11 09:07:17.36	84.23	29.04	-30.7	-32.9	12.3	1.17e-04	0	42	0	440401920	21	4624
2026-01-11 09:07:18.36	83.94	29.14	-30.8	-33.1	12.2	1.65e-04	0	42	0	442499072	21	4721
2026-01-11 09:07:19.37	83.65	29.24	-31.0	-33.7	11.8	3.13e-04	0	42	0	444596224	21	4936
2026-01-11 09:07:20.37	83.36	29.33	-31.1	-33.6	11.5	4.90e-04	0	42	0	446693376	22	4835
2026-01-11 09:07:21.38	83.07	29.43	-31.3	-34.3	10.9	1.58e-03	0	42	0	447741952	22	5114
2026-01-11 09:07:22.39	82.77	29.52	-31.3	-34.3	11.0	2.11e-03	0	42	0	449839104	22	5113
2026-01-11 09:07:23.39	82.48	29.62	-31.5	-34.4	10.6	3.57e-03	0	42	0	451936256	23	5034
2026-01-11 09:07:24.39	82.18	29.71	-31.6	-34.7	10.4	2.99e-03	0	42	0	454033408	23	5181
2026-01-11 09:07:25.40	81.88	29.80	-31.8	-35.4	9.8	6.84e-03	0	42	0	456130560	23	5483
2026-01-11 09:07:26.40	81.58	29.89	-31.9	-35.7	9.6	9.51e-03	0	42	0	457179136	23	5614
2026-01-11 09:07:27.41	81.28	29.99	-31.9	-35.3	9.5	1.61e-02	0	42	0	459276288	24	5342
2026-01-11 09:07:28.42	80.97	30.08	-31.8	-34.8	10.0	1.73e-02	0	42	0	461373440	24	5111
2026-01-11 09:07:29.42	80.67	30.17	-31.9	-35.4	9.5	1.09e-02	0	42	0	463470592	24	5383
2026-01-11 09:07:30.43	80.36	30.26	-32.2	-36.3	8.7	2.17e-02	0	42	0	465567744	24	5810
2026-01-11 09:07:31.44	80.05	30.35	-31.8	-35.1	9.7	1.27e-02	0	42	0	466616320	24	5229
2026-01-11 09:07:32.44	79.74	30.43	-31.7	-34.7	9.9	1.05e-02	0	42	0	468713472	24	5088
2026-01-11 09:07:33.45	79.42	30.52	-31.4	-33.6	10.8	2.68e-03	0	42	0	470810624	24	4625
2026-01-11 09:07:34.45	79.11	30.61	-31.3	-33.8	11.1	1.07e-03	0	42	0	472907776	23	4788
2026-01-11 09:07:35.45	78.79	30.69	-31.4	-33.8	11.1	1.65e-03	0	42	0	475004928	23	4792
2026-01-11 09:07:36.46	78.47	30.78	-31.5	-34.3	10.7	9.17e-04	0	42	0	476053504	23	4985
2026-01-11 09:07:37.47	78.15	30.87	-31.3	-33.8	11.1	1.14e-03	0	42	0	478150656	23	4801
2026-01-11 09:07:38.47	77.83	30.95	-31.4	-34.0	10.9	1.58e-03	0	42	0	480247808	23	4880
2026-01-11 09:07:39.48	77.51	31.03	-31.5	-34.6	10.4	2.53e-03	0	42	0	482344960	23	5118
2026-01-11 09:07:40.49	77.18	31.12	-31.6	-35.1	10.0	5.14e-03	0	42	0	484442112	23	5354
2026-01-11 09:07:41.49	76.86	31.20	-31.4	-34.4	10.6	4.96e-03	0	42	0	485490688	23	5070
2026-01-11 09:07:42.50	76.53	31.28	-31.5	-34.6	10.5	3.46e-03	0	42	0	487587840	23	5157
2026-01-11 09:07:43.50	76.20	31.36	-31.6	-34.8	10.4	4.87e-03	0	42	0	489684992	23	5232
2026-01-11 09:07:44.51	75.86	31.44	-31.6	-35.0	10.2	6.95e-03	0	42	0	491782144	23	5311
2026-01-11 09:07:45.52	75.53	31.52	-31.6	-35.0	10.1	7.49e-03	0	42	0	493879296	23	5311
2026-01-11 09:07:46.53	75.19	31.59	-31.5	-34.5	10.5	4.44e-03	0	42	0	494927872	23	5083
2026-01-11 09:07:47.53	74.86	31.67	-31.4	-34.3	10.7	1.80e-03	0	42	0	497025024	23	4997
2026-01-11 09:07:48.54	74.52	31.75	-31.5	-34.4	10.6	2.55e-03	0	42	0	499122176	23	5036
2026-01-11 09:07:49.54	74.18	31.82	-31.5	-34.5	10.6	3.65e-03	0	42	0	501219328	23	5075
2026-01-11 09:07:50.55	73.84	31.89	-31.3	-33.8	11.2	1.49e-03	0	42	0	503316480	23	4773
2026-01-11 09:07:51.55	73.50	31.97	-31.5	-34.3	10.6	2.94e-03	0	42	0	504365056	23	4987
2026-01-11 09:07:52.55	73.16	32.04	-31.4	-34.1	10.9	2.11e-03	0	42	0	506462208	23	4889
2026-01-11 09:07:53.56	72.81	32.11	-31.6	-34.5	10.7	2.94e-03	0	42	0	508559360	23	5039
2026-01-11 09:07:54.57	72.46	32.18	-31.5	-34.2	10.9	3.41e-03	0	42	0	510656512	23	4915
2026-01-11 09:07:55.57	72.11	32.25	-31.2	-33.3	11.5	1.35e-03	0	42	0	512753664	23	4578
2026-01-11 09:07:56.58	71.76	32.31	-31.0	-32.7	11.9	3.81e-04	0	42	0	513802240	23	4389
2026-01-11 09:07:57.59	71.41	32.38	-31.0	-33.1	12.0	2.88e-04	0	42	0	515899392	22	4626
2026-01-11 09:07:58.59	71.06	32.45	-31.2	-33.9	11.4	5.41e-04	0	42	0	517996544	22	4926
2026-01-11 09:07:59.60	70.70	32.51	-31.4	-34.6	11.0	1.13e-03	0	42	0	520093696	22	5191
2026-01-11 09:08:00.58	70.35	32.57	-31.4	-34.1	10.9	2.76e-03	0	42	0	522190848	23	4904
2026-01-11 09:08:01.59	69.99	32.63	-31.0	-33.0	11.7	1.19e-03	0	42	0	523239424	23	4488
2026-01-11 09:08:02.59	69.64	32.69	-30.5	-31.9	12.7	3.13e-04	0	42	0	525336576	22	4227
2026-01-11 09:08:03.60	69.28	32.75	-30.5	-31.9	12.9	4.04e-05	0	42	0	527433728	22	4202
2026-01-11 09:08:04.60	68.92	32.81	-30.6	-32.1	12.7	4.80e-05	0	42	0	529530880	22	4274
2026-01-11 09:08:05.61	68.55	32.87	-30.7	-32.4	12.5	1.20e-04	0	42	0	531628032	22	4380
2026-01-11 09:08:06.62	68.19	32.93	-30.8	-32.6	12.3	1.30e-04	0	42	0	532676608	22	4456
2026-01-11 09:08:07.63	67.82	32.98	-30.9	-32.9	12.1	2.62e-04	0	42	0	534773760	22	4564
2026-01-11 09:08:08.63	67.46	33.04	-31.2	-33.7	11.6	6.08e-04	0	42	0	536870912	22	4834
2026-01-11 09:08:09.64	67.09	33.09	-31.1	-33.5	11.7	8.20e-04	0	42	0	538968064	22	4773
2026-01-11 09:08:10.65	66.72	33.14	-30.7	-32.3	12.5	1.69e-04	0	42	0	541065216	22	4327
2026-01-11 09:08:11.65	66.35	33.19	-30.4	-31.4	13.1	6.10e-05	0	42	0	542113792	22	4057
2026-01-11 09:08:12.66	65.98	33.24	-30.1	-31.2	13.5	1.98e-05	0	42	0	544210944	21	4082
2026-01-11 09:08:13.66	65.61	33.29	-30.2	-31.3	13.5	5.30e-06	0	42	0	546308096	21	4111
2026-01-11 09:08:14.67	65.23	33.33	-30.1	-31.0	13.8	1.06e-05	0	42	0	548405248	21	4021
2026-01-11 09:08:15.67	64.86	33.38	-29.9	-30.7	13.9	3.80e-06	0	42	0	550502400	21	3937
2026-01-11 09:08:16.68	64.48	33.42	-29.5	-30.2	14.5	0.00e+00	0	42	0	551550976	20	3872
2026-01-11 09:08:17.68	64.11	33.46	-29.7	-30.5	14.4	7.00e-07	0	42	0	553648128	20	3963
2026-01-11 09:08:18.69	63.73	33.50	-29.9	-31.0	14.0	7.00e-07	0	42	0	555745280	20	4115
2026-01-11 09:08:19.70	63.35	33.54	-30.3	-32.3	13.2	7.00e-07	0	42	0	557842432	20	4507
2026-01-11 09:08:20.70	62.97	33.58	-30.8	-33.1	12.3	8.85e-05	0	42	0	559939584	21	4702
2026-01-11 09:08:21.70	62.60	33.62	-31.2	-34.0	11.3	4.74e-04	0	42	0	560988160	22	4936
2026-01-11 09:08:22.71	62.21	33.65	-31.5	-34.7	10.8	1.62e-03	0	42	0	563085312	22	5228
2026-01-11 09:08:23.71	61.83	33.69	-31.2	-33.4	11.4	1.04e-03	0	42	0	565182464	23	4598
2026-01-11 09:08:24.72	61.45	33.72	-30.8	-32.5	12.4	1.75e-04	0	42	0	567279616	22	4398
2026-01-11 09:08:25.73	61.07	33.75	-30.8	-32.5	12.4	1.14e-04	0	42	0	569376768	22	4391
2026-01-11 09:08:26.73	60.68	33.78	-31.2	-33.7	11.6	3.40e-04	0	42	0	570425344	22	4827
2026-01-11 09:08:27.74	60.30	33.81	-31.0	-33.2	11.9	4.18e-04	0	42	0	572522496	22	4636
2026-01-11 09:08:28.74	59.92	33.83	-31.0	-33.1	11.9	3.39e-04	0	42	0	574619648	22	4605
2026-01-11 09:08:29.75	59.53	33.86	-31.1	-33.4	11.9	3.62e-04	0	42	0	576716800	22	4666
2026-01-11 09:08:30.76	59.14	33.88	-30.9	-32.6	12.4	2.45e-04	0	42	0	578813952	22	4409
2026-01-11 09:08:31.77	58.75	33.91	-30.6	-31.9	12.9	5.79e-05	0	42	0	579862528	22	4180
2026-01-11 09:08:32.77	58.37	33.93	-30.0	-30.8	13.8	1.67e-05	0	42	0	581959680	21	3953
2026-01-11 09:08:33.78	57.98	33.95	-29.9	-30.6	14.0	4.50e-06	0	42	0	584056832	21	3903
2026-01-11 09:08:34.79	57.59	33.96	-30.0	-30.9	13.8	3.00e-06	0	42	0	586153984	21	3985
2026-01-11 09:08:35.79	57.20	33.98	-30.5	-32.1	13.1	1.44e-05	0	42	0	588251136	21	4337
2026-01-11 09:08:36.79	56.82	34.00	-30.7	-32.8	12.7	8.69e-05	0	42	0	589299712	21	4575
2026-01-11 09:08:37.80	56.42	34.01	-30.7	-32.9	12.5	1.93e-04	0	42	0	591396864	21	4610
2026-01-11 09:08:38.80	56.04	34.02	-30.8	-33.2	12.3	1.78e-04	0	42	0	593494016	21	4722
2026-01-11 09:08:39.81	55.65	34.03	-31.3	-34.0	11.5	2.91e-04	0	42	0	595591168	22	4924
2026-01-11 09:08:40.81	55.26	34.04	-31.2	-33.7	11.6	1.09e-03	0	42	0	596639744	22	4829
2026-01-11 09:08:41.81	54.87	34.05	-31.2	-33.6	11.6	1.20e-03	0	42	0	598736896	22	4783
2026-01-11 09:08:42.82	54.48	34.05	-31.2	-33.7	11.6	1.07e-03	0	42	0	600834048	22	4811
2026-01-11 09:08:43.82	54.09	34.06	-31.3	-33.9	11.4	8.11e-04	0	42	0	602931200	22	4905
2026-01-11 09:08:44.83	53.70	34.06	-31.3	-34.0	11.2	1.10e-03	0	42	0	605028352	22	4933
2026-01-11 09:08:45.84	53.30	34.06	-31.1	-33.5	11.7	9.16e-04	0	42	0	607125504	22	4744
2026-01-11 09:08:46.84	52.92	34.06	-31.0	-33.2	11.9	5.90e-04	0	42	0	608174080	22	4618
2026-01-11 09:08:47.84	52.53	34.06	-31.0	-33.2	11.9	4.62e-04	0	42	0	610271232	22	4627
2026-01-11 09:08:48.85	52.14	34.06	-30.9	-32.8	12.2	3.50e-04	0	42	0	612368384	22	4486
2026-01-11 09:08:49.86	51.74	34.05	-31.1	-33.3	11.8	2.00e-04	0	42	0	614465536	22	4667
2026-01-11 09:08:50.86	51.36	34.05	-31.3	-34.1	11.3	7.86e-04	0	42	0	615514112	22	4977
2026-01-11 09:08:51.87	50.96	34.04	-31.6	-34.5	10.5	2.08e-03	0	42	0	617611264	23	5072
2026-01-11 09:08:52.87	50.58	34.03	-31.5	-34.3	10.9	3.97e-03	0	42	0	619708416	23	4981
2026-01-11 09:08:53.87	50.19	34.02	-31.1	-33.0	11.7	1.96e-03	0	42	0	621805568	23	4499
2026-01-11 09:08:54.89	49.79	34.01	-31.0	-32.7	11.9	5.84e-04	0	42	0	623902720	23	4394
2026-01-11 09:08:55.89	49.41	33.99	-31.1	-32.9	11.8	3.07e-04	0	42	0	624951296	23	4427
2026-01-11 09:08:56.90	49.02	33.98	-31.1	-32.9	11.8	4.03e-04	0	42	0	627048448	23	4446
2026-01-11 09:08:57.91	48.63	33.96	-31.2	-33.3	11.5	6.03e-04	0	42	0	629145600	23	4607
2026-01-11 09:08:58.91	48.24	33.94	-31.6	-34.7	10.4	1.54e-03	0	42	0	631242752	23	5144
2026-01-11 09:08:59.91	47.86	33.93	-31.8	-35.5	9.8	1.13e-02	0	42	0	633339904	23	5507
2026-01-11 09:09:00.92	47.47	33.90	-32.0	-35.6	9.3	1.60e-02	0	42	0	635437056	24	5439
2026-01-11 09:09:01.93	47.08	33.88	-31.7	-34.8	10.0	1.40e-02	0	42	0	636485632	24	5101
2026-01-11 09:09:02.94	46.69	33.86	-31.3	-33.4	11.0	5.44e-03	0	42	0	638582784	24	4564
2026-01-11 09:09:03.94	46.31	33.83	-31.1	-33.1	11.5	1.36e-03	0	42	0	640679936	23	4544
2026-01-11 09:09:04.95	45.92	33.80	-30.9	-32.6	11.9	2.80e-04	0	42	0	642777088	23	4376
2026-01-11 09:09:05.95	45.54	33.78	-30.9	-32.5	12.0	4.00e-04	0	42	0	643825664	23	4314
2026-01-11 09:09:06.96	45.15	33.75	-30.9	-32.9	12.1	1.88e-04	0	42	0	645922816	22	4547
2026-01-11 09:09:07.97	44.77	33.72	-31.0	-33.2	11.9	2.42e-04	0	42	0	648019968	22	4639
2026-01-11 09:09:08.97	44.39	33.68	-30.7	-32.3	12.5	3.42e-04	0	42	0	650117120	22	4345
2026-01-11 09:09:09.97	44.01	33.65	-31.1	-33.5	11.7	4.20e-04	0	42	0	652214272	22	4753
2026-01-11 09:09:10.98	43.63	33.61	-31.2	-33.8	11.4	8.05e-04	0	42	0	653262848	22	4884
2026-01-11 09:09:11.99	43.25	33.58	-31.1	-33.6	11.4	1.20e-03	0	42	0	655360000	22	4827
2026-01-11 09:09:12.99	42.87	33.54	-30.9	-33.2	11.8	6.31e-04	0	42	0	657457152	22	4651
2026-01-11 09:09:14.00	42.49	33.50	-31.0	-33.4	11.9	3.59e-04	0	42	0	659554304	22	4734
2026-01-11 09:09:15.00	42.12	33.46	-31.0	-33.2	11.9	4.12e-04	0	42	0	661651456	22	4637
2026-01-11 09:09:16.01	41.74	33.42	-31.0	-33.1	12.0	4.55e-04	0	42	0	662700032	22	4615
2026-01-11 09:09:17.02	41.37	33.37	-30.7	-32.4	12.4	2.87e-04	0	42	0	664797184	22	4382
2026-01-11 09:09:18.03	40.99	33.33	-31.0	-33.2	11.8	3.05e-04	0	42	0	666894336	22	4658
2026-01-11 09:09:19.03	40.62	33.28	-31.0	-33.4	11.6	4.87e-04	0	42	0	668991488	22	4751
2026-01-11 09:09:20.04	40.25	33.23	-30.6	-32.2	12.4	2.78e-04	0	42	0	671088640	22	4311
2026-01-11 09:09:21.05	39.88	33.18	-30.6	-32.1	12.5	1.65e-04	0	42	0	672137216	22	4289
2026-01-11 09:09:22.06	39.51	33.13	-30.7	-32.2	12.5	1.39e-04	0	42	0	674234368	22	4307
2026-01-11 09:09:23.06	39.14	33.08	-30.6	-32.1	12.5	1.52e-04	0	42	0	676331520	22	4284
2026-01-11 09:09:24.07	38.77	33.03	-30.6	-32.0	12.6	1.13e-04	0	42	0	678428672	22	4254
2026-01-11 09:09:25.07	38.41	32.98	-30.4	-31.6	12.9	9.53e-05	0	42	0	680525824	22	4097
2026-01-11 09:09:26.08	38.04	32.92	-30.5	-31.9	12.8	5.26e-05	0	42	0	681574400	22	4186
2026-01-11 09:09:27.09	37.68	32.86	-30.9	-32.9	12.0	2.27e-04	0	42	0	683671552	22	4537
2026-01-11 09:09:28.09	37.32	32.81	-31.1	-33.7	11.5	4.97e-04	0	42	0	685768704	22	4809
2026-01-11 09:09:29.10	36.96	32.75	-31.5	-34.8	10.7	1.34e-03	0	42	0	687865856	22	5247
2026-01-11 09:09:30.11	36.59	32.69	-31.8	-35.3	9.9	6.71e-03	0	42	0	689963008	23	5394
2026-01-11 09:09:31.11	36.24	32.63	-31.4	-33.8	11.0	4.14e-03	0	42	0	691011584	23	4782
2026-01-11 09:09:32.12	35.88	32.57	-31.0	-32.8	11.7	1.11e-03	0	42	0	693108736	23	4396
2026-01-11 09:09:33.12	35.53	32.50	-30.8	-32.7	12.2	2.33e-04	0	42	0	695205888	22	4469
2026-01-11 09:09:34.12	35.18	32.44	-31.0	-33.1	11.9	2.99e-04	0	42	0	697303040	22	4585
2026-01-11 09:09:35.13	34.82	32.37	-31.0	-33.1	11.8	2.43e-04	0	42	0	699400192	22	4619
2026-01-11 09:09:36.14	34.47	32.31	-31.2	-33.8	11.4	4.65e-04	0	42	0	700448768	22	4861
2026-01-11 09:09:37.15	34.12	32.24	-31.0	-33.2	11.9	5.10e-04	0	42	0	702545920	22	4625
2026-01-11 09:09:38.15	33.77	32.17	-31.0	-33.1	12.0	2.83e-04	0	42	0	704643072	22	4615
2026-01-11 09:09:39.15	33.43	32.10	-31.1	-33.5	11.5	4.87e-04	0	42	0	706740224	22	4744
2026-01-11 09:09:40.16	33.08	32.03	-31.3	-34.4	10.9	1.42e-03	0	42	0	708837376	22	5101
2026-01-11 09:09:41.17	32.74	31.96	-31.7	-35.0	10.0	2.11e-03	0	42	0	709885952	23	5297
2026-01-11 09:09:42.18	32.40	31.89	-31.7	-35.1	9.9	5.94e-03	0	42	0	711983104	23	5346
2026-01-11 09:09:43.18	32.06	31.81	-31.8	-35.5	9.8	1.04e-02	0	42	0	714080256	23	5499
2026-01-11 09:09:44.19	31.72	31.74	-31.7	-35.1	9.9	6.26e-03	0	42	0	716177408	23	5345
2026-01-11 09:09:45.19	31.38	31.66	-31.6	-34.6	10.4	5.63e-03	0	42	0	718274560	23	5107
2026-01-11 09:09:46.20	31.04	31.59	-31.3	-33.8	11.0	1.40e-03	0	42	0	719323136	23	4788
2026-01-11 09:09:47.21	30.71	31.51	-31.3	-33.6	11.1	1.19e-03	0	42	0	721420288	23	4726
2026-01-11 09:09:48.22	30.38	31.43	-31.2	-33.6	11.1	1.19e-03	0	42	0	723517440	23	4696
2026-01-11 09:09:49.23	30.04	31.35	-31.4	-34.0	10.7	1.74e-03	0	42	0	725614592	23	4874
2026-01-11 09:09:50.23	29.72	31.27	-31.1	-33.0	11.4	1.24e-03	0	42	0	727711744	23	4508
2026-01-11 09:09:51.24	29.39	31.19	-31.0	-32.9	11.6	5.77e-04	0	42	0	728760320	23	4440
2026-01-11 09:09:52.24	29.06	31.11	-31.1	-32.9	11.6	4.53e-04	0	42	0	730857472	23	4457
2026-01-11 09:09:53.25	28.74	31.03	-31.2	-33.5	11.2	1.24e-03	0	42	0	732954624	23	4661
2026-01-11 09:09:54.25	28.42	30.94	-30.9	-32.4	12.0	3.46e-04	0	42	0	735051776	23	4289
2026-01-11 09:09:55.25	28.10	30.86	-30.8	-32.2	12.1	3.22e-04	0	42	0	737148928	23	4225
2026-01-11 09:09:56.26	27.78	30.78	-30.8	-32.5	12.3	2.01e-04	0	42	0	738197504	22	4389
2026-01-11 09:09:57.26	27.46	30.69	-30.9	-32.9	11.9	3.75e-04	0	42	0	740294656	22	4541
2026-01-11 09:09:58.26	27.15	30.60	-30.7	-32.4	12.4	1.87e-04	0	42	0	742391808	22	4355
2026-01-11 09:09:59.27	26.83	30.52	-30.9	-33.0	11.9	1.42e-04	0	42	0	744488960	22	4572
2026-01-11 09:10:00.28	26.52	30.43	-31.4	-34.5	10.8	7.64e-04	0	42	0	746586112	22	5133
2026-01-11 09:10:01.28	26.21	30.34	-31.9	-35.9	9.4	7.39e-03	0	42	0	747634688	23	5665
2026-01-11 09:10:02.28	25.91	30.25	-32.0	-35.7	9.2	2.70e-02	0	42	0	749731840	24	5474
2026-01-11 09:10:03.29	25.60	30.16	-31.9	-35.2	9.5	1.88e-02	0	42	0	751828992	24	5285
2026-01-11 09:10:04.30	25.29	30.07	-31.4	-33.7	10.6	5.27e-03	0	42	0	753926144	24	4655
2026-01-11 09:10:05.30	24.99	29.98	-31.0	-32.8	11.6	1.42e-03	0	42	0	756023296	23	4411
2026-01-11 09:10:06.31	24.69	29.89	-30.5	-31.8	12.7	3.72e-04	0	42	0	757071872	22	4183
2026-01-11 09:10:07.32	24.38	29.80	-30.6	-32.1	12.5	7.78e-05	0	42	0	759169024	22	4268
2026-01-11 09:10:08.32	24.09	29.71	-31.1	-33.6	11.5	4.24e-04	0	42	0	761266176	22	4786
2026-01-11 09:10:09.33	23.79	29.61	-31.5	-34.5	10.4	1.65e-03	0	42	0	763363328	23	5096
2026-01-11 09:10:10.33	23.50	29.52	-31.7	-35.0	10.0	1.18e-02	0	42	0	765460480	23	5291
2026-01-11 09:10:11.34	23.20	29.42	-31.9	-36.0	9.3	1.57e-02	0	42	0	766509056	23	5740
2026-01-11 09:10:12.35	22.91	29.33	-31.7	-35.1	9.9	1.20e-02	0	42	0	768606208	23	5349
2026-01-11 09:10:13.35	22.62	29.23	-31.3	-33.9	10.7	4.16e-03	0	42	0	770703360	23	4846
2026-01-11 09:10:14.36	22.33	29.14	-31.2	-33.5	11.2	2.68e-03	0	42	0	772800512	23	4666
2026-01-11 09:10:15.37	22.05	29.04	-31.3	-33.8	10.9	1.55e-03	0	42	0	774897664	23	4773
2026-01-11 09:10:16.37	21.76	28.95	-31.3	-33.7	10.9	3.21e-03	0	42	0	775946240	23	4742
2026-01-11 09:10:17.37	21.48	28.85	-31.2	-33.3	11.3	1.18e-03	0	42	0	778043392	23	4592
2026-01-11 09:10:18.38	21.20	28.75	-31.3	-33.6	11.0	1.36e-03	0	42	0	780140544	23	4727
2026-01-11 09:10:19.39	20.92	28.65	-31.5	-34.3	10.6	2.31e-03	0	42	0	782237696	23	4978
2026-01-11 09:10:20.39	20.64	28.55	-31.5	-34.4	10.5	4.72e-03	0	42	0	784334848	23	5026
2026-01-11 09:10:21.40	20.37	28.46	-31.4	-34.0	10.7	5.05e-03	0	42	0	785383424	23	4870
2026-01-11 09:10:22.41	20.09	28.36	-31.2	-33.5	11.1	2.48e-03	0	42	0	787480576	23	4653
2026-01-11 09:10:23.41	19.82	28.26	-31.1	-33.0	11.5	8.17e-04	0	42	0	789577728	23	4490
2026-01-11 09:10:24.42	19.55	28.16	-31.1	-32.8	11.6	8.66e-04	0	42	0	791674880	23	4425
2026-01-11 09:10:25.43	19.28	28.06	-31.1	-33.0	11.6	9.66e-04	0	42	0	793772032	23	4461
2026-01-11 09:10:26.43	19.01	27.96	-30.7	-32.4	12.3	1.88e-04	0	42	0	794820608	22	4368
2026-01-11 09:10:27.43	18.75	27.86	-30.8	-32.5	12.2	3.42e-04	0	42	0	796917760	22	4409
2026-01-11 09:10:28.43	18.49	27.75	-30.9	-32.9	11.9	3.05e-04	0	42	0	799014912	22	4551
2026-01-11 09:10:29.44	18.22	27.65	-31.0	-33.1	11.8	5.68e-04	0	42	0	801112064	22	4619
2026-01-11 09:10:30.45	17.96	27.55	-31.2	-33.9	11.2	1.04e-03	0	42	0	803209216	22	4900
2026-01-11 09:10:31.46	17.70	27.45	-31.2	-33.9	11.2	1.48e-03	0	42	0	804257792	22	4916
2026-01-11 09:10:32.46	17.44	27.35	-31.3	-34.0	11.2	1.50e-03	0	42	0	806354944	22	4936
2026-01-11 09:10:33.47	17.19	27.24	-31.0	-33.2	11.7	1.32e-03	0	42	0	808452096	22	4639
2026-01-11 09:10:34.48	16.93	27.14	-30.5	-31.6	12.7	1.84e-04	0	42	0	810549248	22	4106
2026-01-11 09:10:35.48	16.68	27.04	-29.9	-30.6	13.7	1.75e-05	0	42	0	812646400	21	3914
2026-01-11 09:10:36.49	16.43	26.93	-29.7	-30.7	14.0	2.20e-06	0	42	0	813694976	20	4006
2026-01-11 09:10:37.49	16.18	26.83	-30.0	-31.3	13.6	2.20e-06	0	42	0	815792128	20	4194
2026-01-11 09:10:38.49	15.94	26.73	-30.2	-32.1	13.1	1.67e-05	0	42	0	817889280	20	4433
2026-01-11 09:10:39.49	15.69	26.62	-30.3	-32.1	13.1	4.42e-05	0	42	0	819986432	20	4444
2026-01-11 09:10:40.50	15.45	26.52	-30.2	-32.0	13.1	2.28e-05	0	42	0	822083584	20	4415
2026-01-11 09:10:41.51	15.20	26.41	-30.1	-31.7	13.3	2.13e-05	0	42	0	823132160	20	4313
2026-01-11 09:10:42.51	14.97	26.31	-29.9	-31.2	13.7	1.37e-05	0	42	0	825229312	20	4147
2026-01-11 09:10:43.51	14.73	26.21	-29.9	-31.2	13.7	1.50e-06	0	42	0	827326464	20	4173
2026-01-11 09:10:44.52	14.49	26.10	-29.9	-31.2	13.7	6.10e-06	0	42	0	829423616	20	4146
2026-01-11 09:10:45.53	14.25	26.00	-29.9	-31.1	13.8	1.14e-05	0	42	0	831520768	20	4117
2026-01-11 09:10:46.53	14.02	25.89	-29.6	-30.2	14.3	0.00e+00	0	42	0	832569344	20	3882
2026-01-11 09:10:47.54	13.79	25.79	-29.7	-30.7	14.0	2.20e-06	0	42	0	834666496	20	4017
2026-01-11 09:10:48.55	13.55	25.68	-29.9	-31.1	13.7	2.20e-06	0	42	0	836763648	20	4127
2026-01-11 09:10:49.56	13.32	25.57	-30.1	-31.7	13.4	9.90e-06	0	42	0	838860800	20	4306
2026-01-11 09:10:50.56	13.10	25.47	-30.4	-32.4	12.8	4.04e-05	0	42	0	839909376	20	4571
2026-01-11 09:10:51.56	12.87	25.37	-30.5	-32.2	12.7	1.09e-04	0	42	0	842006528	21	4402
2026-01-11 09:10:52.57	12.64	25.26	-30.1	-31.1	13.2	4.34e-05	0	42	0	844103680	21	4060
2026-01-11 09:10:53.58	12.42	25.15	-29.6	-30.3	14.2	3.00e-06	0	42	0	846200832	20	3906
2026-01-11 09:10:54.59	12.20	25.05	-29.3	-30.0	14.8	2.20e-06	0	42	0	848297984	19	3915
2026-01-11 09:10:55.59	11.98	24.94	-29.2	-29.7	14.9	0.00e+00	0	42	0	850395136	19	3819
2026-01-11 09:10:56.60	11.76	24.84	-29.1	-29.6	15.0	0.00e+00	0	42	0	851443712	19	3815
2026-01-11 09:10:57.61	11.54	24.73	-29.2	-29.7	14.9	7.00e-07	0	42	0	853540864	19	3833
2026-01-11 09:10:58.62	11.32	24.62	-29.4	-30.4	14.5	0.00e+00	0	42	0	855638016	19	4021
2026-01-11 09:10:59.62	11.11	24.52	-29.3	-30.0	14.8	0.00e+00	0	42	0	857735168	19	3919
2026-01-11 09:11:00.62	10.90	24.41	-29.3	-30.1	14.7	1.50e-06	0	42	0	859832320	19	3937
2026-01-11 09:11:01.62	10.69	24.31	-29.2	-29.7	14.9	7.00e-07	0	42	0	860880896	19	3843
2026-01-11 09:11:02.62	10.48	24.20	-29.2	-29.7	14.8	0.00e+00	0	42	0	862978048	19	3842
2026-01-11 09:11:03.63	10.27	24.10	-29.0	-29.4	15.1	0.00e+00	0	42	0	865075200	19	3753
2026-01-11 09:11:04.64	10.06	23.99	-29.3	-30.0	14.7	0.00e+00	0	42	0	867172352	19	3908
2026-01-11 09:11:05.65	9.85	23.88	-29.3	-29.9	14.7	0.00e+00	0	42	0	868220928	19	3896
2026-01-11 09:11:06.65	9.65	23.78	-29.1	-29.6	14.9	7.00e-07	0	42	0	870318080	19	3814
2026-01-11 09:11:07.66	9.44	23.67	-29.0	-29.2	15.2	0.00e+00	0	42	0	872415232	19	3706
2026-01-11 09:11:08.67	9.24	23.57	-29.0	-29.3	15.2	0.00e+00	0	42	0	874512384	19	3715
2026-01-11 09:11:09.67	9.04	23.46	-29.2	-29.7	14.9	0.00e+00	0	42	0	876609536	19	3822
2026-01-11 09:11:10.67	8.84	23.36	-29.3	-30.2	14.6	7.00e-07	0	42	0	878706688	19	3952
2026-01-11 09:11:11.68	8.65	23.25	-29.5	-30.5	14.4	0.00e+00	0	42	0	879755264	19	4058
2026-01-11 09:11:12.68	8.45	23.15	-29.7	-31.0	14.1	7.00e-07	0	42	0	881852416	19	4204
2026-01-11 09:11:13.69	8.25	23.04	-29.8	-31.3	13.9	4.50e-06	0	42	0	883949568	19	4283
2026-01-11 09:11:14.70	8.06	22.93	-29.4	-30.4	14.4	1.50e-06	0	42	0	886046720	19	4030
2026-01-11 09:11:15.71	7.87	22.83	-29.5	-30.5	14.4	0.00e+00	0	42	0	887095296	19	4064
2026-01-11 09:11:16.71	7.68	22.72	-29.4	-30.4	14.4	1.50e-06	0	42	0	889192448	19	4029
2026-01-11 09:11:17.72	7.49	22.62	-29.6	-30.9	14.2	7.00e-07	0	42	0	891289600	19	4160
2026-01-11 09:11:18.73	7.30	22.51	-29.8	-31.4	13.9	2.20e-06	0	42	0	893386752	19	4313
2026-01-11 09:11:19.74	7.11	22.41	-30.1	-31.6	13.3	1.22e-05	0	42	0	895483904	20	4297
2026-01-11 09:11:20.74	6.92	22.30	-30.1	-31.7	13.2	3.28e-05	0	42	0	896532480	20	4334
2026-01-11 09:11:21.74	6.74	22.20	-30.3	-32.4	12.8	2.67e-05	0	42	0	898629632	20	4562
2026-01-11 09:11:22.74	6.56	22.10	-30.3	-32.3	12.8	6.63e-05	0	42	0	900726784	20	4530
2026-01-11 09:11:23.75	6.38	21.99	-30.2	-32.0	13.0	3.20e-05	0	42	0	902823936	20	4432
2026-01-11 09:11:24.75	6.20	21.89	-30.5	-32.4	12.4	5.87e-05	0	42	0	904921088	21	4477
2026-01-11 09:11:25.76	6.02	21.78	-30.2	-31.4	13.1	8.77e-05	0	42	0	905969664	21	4145
2026-01-11 09:11:26.77	5.84	21.68	-30.4	-31.9	12.7	4.57e-05	0	42	0	908066816	21	4322
2026-01-11 09:11:27.78	5.66	21.57	-30.3	-31.8	12.8	6.94e-05	0	42	0	910163968	21	4267
2026-01-11 09:11:28.78	5.48	21.47	-30.7	-32.9	12.1	9.46e-05	0	42	0	912261120	21	4641
2026-01-11 09:11:29.79	5.31	21.37	-30.7	-33.0	12.0	3.31e-04	0	42	0	914358272	21	4693
2026-01-11 09:11:30.79	5.14	21.26	-30.8	-33.4	11.7	4.44e-04	0	42	0	915406848	21	4838
2026-01-11 09:11:31.80	4.96	21.16	-30.7	-32.9	12.0	4.78e-04	0	42	0	917504000	21	4667
2026-01-11 09:11:32.81	4.79	21.06	-30.4	-32.1	12.5	2.27e-04	0	42	0	919601152	21	4393
2026-01-11 09:11:33.81	4.62	20.95	-30.3	-31.7	12.8	1.43e-04	0	42	0	921698304	21	4264
2026-01-11 09:11:34.82	4.45	20.85	-30.1	-31.4	13.0	4.50e-05	0	42	0	923795456	21	4158
2026-01-11 09:11:35.83	4.28	20.75	-30.2	-31.6	12.9	3.28e-05	0	42	0	924844032	21	4238
2026-01-11 09:11:36.84	4.12	20.64	-30.2	-31.6	12.9	3.96e-05	0	42	0	926941184	21	4223
2026-01-11 09:11:37.85	3.95	20.54	-30.3	-31.8	12.7	6.86e-05	0	42	0	929038336	21	4297
2026-01-11 09:11:38.85	3.79	20.44	-30.1	-31.3	13.0	4.88e-05	0	42	0	931135488	21	4147
2026-01-11 09:11:39.85	3.62	20.34	-30.1	-31.4	13.0	4.57e-05	0	42	0	933232640	21	4164
2026-01-11 09:11:40.86	3.46	20.24	-29.9	-30.8	13.4	2.67e-05	0	42	0	934281216	21	3975
2026-01-11 09:11:41.87	3.30	20.13	-29.9	-31.4	13.3	7.60e-06	0	42	0	936378368	20	4247
2026-01-11 09:11:42.87	3.14	20.03	-29.7	-30.6	13.8	8.30e-06	0	42	0	938475520	20	4015
2026-01-11 09:11:43.87	2.98	19.93	-29.5	-30.2	14.1	4.50e-06	0	42	0	940572672	20	3895
2026-01-11 09:11:44.87	2.83	19.83	-29.5	-30.1	14.1	3.00e-06	0	42	0	942669824	20	3875
2026-01-11 09:11:45.88	2.67	19.73	-29.6	-30.4	14.0	3.80e-06	0	42	0	943718400	20	3950
2026-01-11 09:11:46.89	2.51	19.63	-29.8	-30.9	13.6	5.30e-06	0	42	0	945815552	20	4090
2026-01-11 09:11:47.90	2.36	19.53	-29.7	-30.8	13.7	2.20e-06	0	42	0	947912704	20	4083
2026-01-11 09:11:48.91	2.20	19.43	-30.0	-31.5	13.3	9.90e-06	0	42	0	950009856	20	4294
2026-01-11 09:11:49.92	2.05	19.33	-29.9	-31.4	13.3	1.29e-05	0	42	0	952107008	20	4237
2026-01-11 09:11:50.92	1.90	19.23	-30.0	-31.5	13.3	2.05e-05	0	42	0	953155584	20	4270
2026-01-11 09:11:51.93	1.75	19.13	-29.8	-30.9	13.6	1.37e-05	0	42	0	955252736	20	4101
2026-01-11 09:11:52.93	1.60	19.03	-29.7	-30.8	13.7	5.30e-06	0	42	0	957349888	20	4057
2026-01-11 09:11:53.94	1.45	18.93	-29.7	-30.8	13.7	2.20e-06	0	42	0	959447040	20	4067
2026-01-11 09:11:54.94	1.30	18.83	-29.5	-30.3	14.0	1.50e-06	0	42	0	961544192	20	3914
2026-01-11 09:11:55.95	1.16	18.73	-29.7	-30.6	13.8	2.20e-06	0	42	0	962592768	20	4021
2026-01-11 09:11:56.96	1.01	18.63	-29.6	-30.4	13.9	3.80e-06	0	42	0	964689920	20	3953
2026-01-11 09:11:57.97	0.86	18.53	-29.5	-30.1	14.1	3.80e-06	0	42	0	966787072	20	3880
2026-01-11 09:11:58.97	0.72	18.43	-29.6	-30.4	13.9	3.80e-06	0	42	0	968884224	20	3956
2026-01-11 09:11:59.97	0.58	18.33	-29.6	-30.4	13.9	2.20e-06	0	42	0	970981376	20	3965
2026-01-11 09:12:00.98	0.44	18.24	-29.6	-30.6	13.8	4.50e-06	0	42	0	972029952	20	4001
2026-01-11 09:12:01.98	0.30	18.14	-29.8	-31.0	13.5	6.10e-06	0	42	0	974127104	20	4138
2026-01-11 09:12:02.98	0.16	18.04	-30.0	-31.5	13.1	3.12e-05	0	42	0	976224256	20	4296
2026-01-11 09:12:03.99	0.02	17.94	-30.3	-32.3	12.6	6.33e-05	0	42	0	978321408	20	4564
2026-01-11 09:12:04.99	359.88	17.85	-30.6	-32.9	11.8	1.96e-04	0	42	0	980418560	21	4685
2026-01-11 09:12:06.00	359.74	17.75	-30.9	-33.7	11.3	6.07e-04	0	42	0	981467136	21	4997
2026-01-11 09:12:07.00	359.61	17.65	-31.2	-34.2	10.6	2.73e-03	0	42	0	983564288	22	5104
2026-01-11 09:12:08.00	359.47	17.56	-31.4	-34.7	10.2	4.88e-03	0	42	0	985661440	22	5306
2026-01-11 09:12:09.01	359.34	17.46	-31.4	-35.0	10.0	7.33e-03	0	42	0	987758592	22	5425
2026-01-11 09:12:10.02	359.20	17.36	-31.2	-34.3	10.4	5.26e-03	0	42	0	989855744	22	5135
2026-01-11 09:12:11.02	359.07	17.27	-31.1	-33.9	10.8	2.59e-03	0	42	0	990904320	22	4949
2026-01-11 09:12:12.03	358.94	17.17	-30.9	-33.1	11.4	1.22e-03	0	42	0	993001472	22	4661
2026-01-11 09:12:13.03	358.81	17.08	-30.7	-32.7	11.7	6.14e-04	0	42	0	995098624	22	4499
2026-01-11 09:12:14.04	358.68	16.98	-30.7	-32.6	11.8	5.10e-04	0	42	0	997195776	22	4464
2026-01-11 09:12:15.05	358.55	16.89	-30.8	-33.0	11.5	5.21e-04	0	42	0	999292928	22	4612
2026-01-11 09:12:16.05	358.42	16.79	-30.5	-32.1	12.2	5.01e-04	0	42	0	1000341504	22	4296
2026-01-11 09:12:17.06	358.29	16.70	-30.5	-32.1	12.1	2.46e-04	0	42	0	1002438656	22	4294
2026-01-11 09:12:18.07	358.17	16.60	-30.5	-32.0	12.1	2.13e-04	0	42	0	1004535808	22	4269
2026-01-11 09:12:19.07	358.04	16.51	-30.5	-32.1	12.1	2.70e-04	0	42	0	1006632960	22	4326
2026-01-11 09:12:20.07	357.92	16.41	-30.7	-32.5	11.8	4.69e-04	0	42	0	1008730112	22	4435
2026-01-11 09:12:21.08	357.79	16.32	-30.8	-33.0	11.4	8.40e-04	0	42	0	1009778688	22	4606
2026-01-11 09:12:22.09	357.67	16.23	-31.0	-33.4	11.1	1.07e-03	0	42	0	1011875840	22	4769
2026-01-11 09:12:23.09	357.54	16.13	-31.2	-34.3	10.4	3.91e-03	0	42	0	1013972992	22	5147
2026-01-11 09:12:24.09	357.42	16.04	-30.9	-33.4	11.1	2.73e-03	0	42	0	1016070144	22	4770
2026-01-11 09:12:25.10	357.30	15.95	-30.8	-32.9	11.5	1.39e-03	0	42	0	1018167296	22	4576
2026-01-11 09:12:26.10	357.18	15.86	-30.4	-31.9	12.2	5.22e-04	0	42	0	1019215872	22	4253
2026-01-11 09:12:27.11	357.06	15.76	-30.2	-31.7	12.5	1.40e-04	0	42	0	1021313024	21	4285
2026-01-11 09:12:28.12	356.94	15.67	-30.0	-31.2	12.9	7.09e-05	0	42	0	1023410176	21	4129
2026-01-11 09:12:29.12	356.82	15.58	-30.1	-31.4	12.7	4.19e-05	0	42	0	1025507328	21	4200
2026-01-11 09:12:30.12	356.71	15.49	-30.0	-31.1	13.0	4.57e-05	0	42	0	1027604480	21	4086
2026-01-11 09:12:31.13	356.59	15.40	-30.1	-31.3	12.8	5.72e-05	0	42	0	1028653056	21	4152
2026-01-11 09:12:32.14	356.47	15.30	-30.3	-32.1	12.2	1.23e-04	0	42	0	1030750208	21	4421
2026-01-11 09:12:33.14	356.36	15.21	-30.1	-31.4	12.7	1.08e-04	0	42	0	1032847360	21	4189
2026-01-11 09:12:34.15	356.24	15.12	-30.1	-31.4	12.6	8.85e-05	0	42	0	1034944512	21	4189
2026-01-11 09:12:35.15	356.13	15.03	-30.2	-31.8	12.4	9.68e-05	0	42	0	1037041664	21	4331
2026-01-11 09:12:36.16	356.02	14.94	-30.2	-31.6	12.5	1.36e-04	0	42	0	1038090240	21	4270
2026-01-11 09:12:37.16	355.91	14.85	-30.2	-31.9	12.4	1.38e-04	0	42	0	1040187392	21	4351
2026-01-11 09:12:38.17	355.79	14.76	-30.2	-31.7	12.4	1.15e-04	0	42	0	1042284544	21	4296
2026-01-11 09:12:39.18	355.68	14.67	-30.4	-32.4	12.0	2.01e-04	0	42	0	1044381696	21	4510
2026-01-11 09:12:40.18	355.57	14.58	-30.1	-31.6	12.5	1.59e-04	0	42	0	1046478848	21	4254
2026-01-11 09:12:41.19	355.46	14.49	-30.3	-31.9	12.3	1.14e-04	0	42	0	1047527424	21	4365
2026-01-11 09:12:42.20	355.35	14.40	-30.4	-32.4	12.0	1.86e-04	0	42	0	1049624576	21	4511
2026-01-11 09:12:43.21	355.24	14.31	-30.2	-31.6	12.5	1.69e-04	0	42	0	1051721728	21	4266
2026-01-11 09:12:44.20	355.14	14.23	-30.3	-32.0	12.3	2.12e-04	0	42	0	1053818880	21	4392
2026-01-11 09:12:45.21	355.03	14.14	-30.2	-31.8	12.3	1.79e-04	0	42	0	1054867456	21	4335
2026-01-11 09:12:46.22	354.92	14.05	-30.3	-32.0	12.3	1.75e-04	0	42	0	1056964608	21	4378
2026-01-11 09:12:47.22	354.82	13.96	-30.2	-31.7	12.5	1.19e-04	0	42	0	1059061760	21	4296
2026-01-11 09:12:48.23	354.71	13.87	-30.4	-32.3	12.0	2.66e-04	0	42	0	1061158912	21	4479
2026-01-11 09:12:49.23	354.61	13.79	-30.0	-31.2	12.8	1.69e-04	0	42	0	1063256064	21	4115
2026-01-11 09:12:50.24	354.50	13.70	-30.1	-31.3	12.8	5.49e-05	0	42	0	1065353216	21	4167
2026-01-11 09:12:51.24	354.40	13.61	-30.1	-31.3	12.7	7.01e-05	0	42	0	1066401792	21	4169
2026-01-11 09:12:52.24	354.30	13.52	-29.9	-30.9	12.9	5.18e-05	0	42	0	1068498944	21	4036
2026-01-11 09:12:53.25	354.20	13.44	-29.7	-30.9	13.3	2.51e-05	0	42	0	1070596096	20	4126
2026-01-11 09:12:54.26	354.10	13.35	-29.9	-31.3	13.1	2.36e-05	0	42	0	1072693248	20	4249
2026-01-11 09:12:55.27	354.00	13.26	-29.9	-31.5	12.9	4.04e-05	0	42	0	1073741824	20	4332
2026-01-11 09:12:56.27	353.90	13.18	-30.0	-31.8	12.7	1.30e-04	0	42	0	1075838976	20	4429
2026-01-11 09:12:57.28	353.80	13.09	-30.2	-32.4	12.3	1.55e-04	0	42	0	1077936128	20	4611
2026-01-11 09:12:58.29	353.70	13.01	-30.6	-33.1	11.4	4.26e-04	0	42	0	1080033280	21	4784
2026-01-11 09:12:59.29	353.60	12.92	-30.5	-32.9	11.6	5.32e-04	0	42	0	1082130432	21	4705
2026-01-11 09:13:00.30	353.50	12.84	-30.7	-33.4	11.2	1.21e-03	0	42	0	1083179008	21	4903
2026-01-11 09:13:01.31	353.40	12.75	-31.0	-34.0	10.5	2.55e-03	0	42	0	1085276160	22	5046
2026-01-11 09:13:02.32	353.31	12.66	-31.2	-34.5	10.0	5.38e-03	0	42	0	1087373312	22	5277
2026-01-11 09:13:03.32	353.21	12.58	-31.2	-34.5	10.0	8.48e-03	0	42	0	1089470464	22	5273
2026-01-11 09:13:04.33	353.12	12.50	-31.5	-35.3	9.0	1.30e-02	0	42	0	1091567616	23	5533
2026-01-11 09:13:05.33	353.02	12.41	-31.4	-35.0	9.2	1.84e-02	0	42	0	1093664768	23	5392
2026-01-11 09:13:06.34	352.93	12.33	-31.3	-34.6	9.5	1.72e-02	0	42	0	1094713344	23	5235
2026-01-11 09:13:07.35	352.83	12.24	-31.4	-34.8	9.3	1.84e-02	0	42	0	1096810496	23	5308
2026-01-11 09:13:08.36	352.74	12.16	-31.2	-34.2	9.8	1.28e-02	0	42	0	1098907648	23	5071
2026-01-11 09:13:09.36	352.65	12.08	-31.1	-33.9	10.1	8.01e-03	0	42	0	1101004800	23	4932
2026-01-11 09:13:10.37	352.55	11.99	-31.0	-33.5	10.3	6.49e-03	0	42	0	1103101952	23	4768
2026-01-11 09:13:11.37	352.46	11.91	-30.9	-33.2	10.5	5.13e-03	0	42	0	1104150528	23	4671
2026-01-11 09:13:12.38	352.37	11.83	-30.9	-33.1	10.6	3.47e-03	0	42	0	1106247680	23	4649
2026-01-11 09:13:13.38	352.28	11.75	-30.9	-33.0	10.7	3.51e-03	0	42	0	1108344832	23	4600
2026-01-11 09:13:14.39	352.19	11.66	-30.7	-32.9	11.1	2.11e-03	0	42	0	1110441984	22	4625
2026-01-11 09:13:15.39	352.10	11.58	-30.7	-33.0	11.0	1.18e-03	0	42	0	1111490560	22	4678
2026-01-11 09:13:16.40	352.01	11.50	-30.8	-33.1	11.0	2.13e-03	0	42	0	1113587712	22	4715
2026-01-11 09:13:17.41	351.93	11.42	-30.6	-32.7	11.2	1.62e-03	0	42	0	1115684864	22	4557
2026-01-11 09:13:18.41	351.84	11.34	-30.5	-32.3	11.5	8.26e-04	0	42	0	1117782016	22	4424
2026-01-11 09:13:19.41	351.75	11.26	-30.4	-32.0	11.7	7.99e-04	0	42	0	1119879168	22	4315
2026-01-11 09:13:20.42	351.66	11.17	-30.4	-32.0	11.7	6.48e-04	0	42	0	1121976320	22	4328
2026-01-11 09:13:21.42	351.58	11.09	-30.4	-32.0	11.7	4.98e-04	0	42	0	1123024896	22	4344
2026-01-11 09:13:22.43	351.49	11.01	-30.4	-32.1	11.6	8.22e-04	0	42	0	1125122048	22	4372
2026-01-11 09:13:23.44	351.41	10.93	-30.3	-31.7	11.9	4.78e-04	0	42	0	1127219200	22	4218
2026-01-11 09:13:24.44	351.32	10.85	-30.1	-31.7	12.2	3.02e-04	0	42	0	1129316352	21	4329
2026-01-11 09:13:25.45	351.24	10.77	-30.2	-32.0	12.0	2.72e-04	0	42	0	1130364928	21	4425
2026-01-11 09:13:26.46	351.15	10.69	-30.2	-31.9	12.1	2.69e-04	0	42	0	1132462080	21	4375
2026-01-11 09:13:27.47	351.07	10.61	-30.2	-31.9	12.0	3.04e-04	0	42	0	1134559232	21	4384
2026-01-11 09:13:28.47	350.99	10.53	-30.2	-31.8	12.1	2.55e-04	0	42	0	1136656384	21	4350
2026-01-11 09:13:29.48	350.90	10.45	-30.3	-32.1	11.9	4.03e-04	0	42	0	1138753536	21	4466
2026-01-11 09:13:30.48	350.82	10.37	-30.3	-32.1	11.8	4.08e-04	0	42	0	1139802112	21	4470
2026-01-11 09:13:31.48	350.74	10.30	-30.4	-32.4	11.7	4.89e-04	0	42	0	1141899264	21	4560
2026-01-11 09:13:32.48	350.66	10.22	-30.4	-32.5	11.6	6.82e-04	0	42	0	1143996416	21	4597
2026-01-11 09:13:33.49	350.58	10.14	-30.4	-32.7	11.4	7.07e-04	0	42	0	1146093568	21	4663
2026-01-11 09:13:34.48	350.50	10.06	-30.6	-33.3	11.0	1.81e-03	0	42	0	1148190720	21	4873
2026-01-11 09:13:35.49	350.42	9.98	-30.6	-33.2	11.0	1.73e-03	0	42	0	1149239296	21	4868
2026-01-11 09:13:36.50	350.34	9.91	-30.7	-33.6	10.8	2.22e-03	0	42	0	1151336448	21	5025
2026-01-11 09:13:37.51	350.26	9.83	-30.8	-33.9	10.6	3.16e-03	0	42	0	1153433600	21	5145
2026-01-11 09:13:38.51	350.18	9.75	-30.8	-33.9	10.6	4.10e-03	0	42	0	1155530752	21	5141
2026-01-11 09:13:39.52	350.11	9.67	-31.0	-34.1	10.0	7.41e-03	0	42	0	1157627904	22	5135
2026-01-11 09:13:40.53	350.03	9.60	-31.2	-34.8	9.5	1.07e-02	0	42	0	1158676480	22	5456
2026-01-11 09:13:41.53	349.95	9.52	-31.2	-34.8	9.5	1.93e-02	0	42	0	1160773632	22	5448
2026-01-11 09:13:42.53	349.87	9.44	-31.0	-34.0	10.1	1.01e-02	0	42	0	1162870784	22	5095
2026-01-11 09:13:43.53	349.80	9.37	-31.0	-34.0	10.1	6.87e-03	0	42	0	1164967936	22	5099
2026-01-11 09:13:44.54	349.72	9.29	-31.1	-34.3	9.9	7.47e-03	0	42	0	1167065088	22	5235
2026-01-11 09:13:45.55	349.65	9.21	-31.2	-34.6	9.7	7.49e-03	0	42	0	1168113664	22	5358
2026-01-11 09:13:46.55	349.57	9.14	-31.2	-34.9	9.4	1.36e-02	0	42	0	1170210816	22	5488
2026-01-11 09:13:47.56	349.50	9.06	-31.4	-35.3	9.2	1.50e-02	0	42	0	1172307968	22	5657
2026-01-11 09:13:48.57	349.42	8.98	-31.3	-35.0	9.3	2.21e-02	0	42	0	1174405120	22	5520
2026-01-11 09:13:49.58	349.35	8.91	-31.2	-34.8	9.5	1.06e-02	0	42	0	1176502272	22	5441
2026-01-11 09:13:50.58	349.28	8.83	-31.4	-35.4	9.0	1.68e-02	0	42	0	1177550848	22	5731
2026-01-11 09:13:51.59	349.20	8.76	-31.5	-35.4	8.5	4.38e-02	0	42	0	1179648000	23	5660
2026-01-11 09:13:52.60	349.13	8.68	-31.5	-35.4	8.6	3.79e-02	0	42	0	1181745152	23	5659
2026-01-11 09:13:53.60	349.06	8.61	-31.5	-35.4	8.5	4.59e-02	0	42	0	1183842304	23	5665
2026-01-11 09:13:54.61	348.99	8.53	-31.6	-36.0	8.1	5.05e-02	0	42	0	1185939456	23	5984
2026-01-11 09:13:55.61	348.92	8.46	-31.6	-35.9	8.1	7.19e-02	0	42	0	1186988032	23	5916
2026-01-11 09:13:56.62	348.84	8.39	-31.6	-35.9	8.2	6.02e-02	0	42	0	1189085184	23	5906
2026-01-11 09:13:57.63	348.77	8.31	-31.9	-37.3	7.1	9.44e-02	0	42	0	1191182336	23	6695
2026-01-11 09:13:58.64	348.70	8.24	-31.7	-36.7	7.6	1.06e-01	0	42	0	1193279488	23	6354
2026-01-11 09:13:59.65	348.63	8.16	-31.9	-37.6	6.9	1.66e-01	0	42	0	1195376640	23	6902
2026-01-11 09:14:00.65	348.56	8.09	-31.9	-37.3	6.7	2.05e-01	0	42	0	1196425216	24	6643
2026-01-11 09:14:01.66	348.49	8.02	-31.8	-36.5	7.2	1.40e-01	0	42	0	1198522368	24	6218
2026-01-11 09:14:02.66	348.43	7.94	-31.5	-35.4	8.1	1.14e-01	0	42	0	1200619520	24	5605
2026-01-11 09:14:03.67	348.36	7.87	-31.5	-35.4	8.0	6.34e-02	0	42	0	1202716672	24	5635
2026-01-11 09:14:04.68	348.29	7.80	-31.4	-34.8	8.5	5.40e-02	0	42	0	1204813824	24	5320
2026-01-11 09:14:05.69	348.22	7.72	-31.4	-34.8	8.5	4.49e-02	0	42	0	1205862400	24	5334
2026-01-11 09:14:06.69	348.15	7.65	-31.4	-34.8	8.4	4.76e-02	0	42	0	1207959552	24	5349
2026-01-11 09:14:07.70	348.09	7.58	-31.0	-33.8	9.6	2.05e-02	0	42	0	1210056704	23	4973
2026-01-11 09:14:08.71	348.02	7.51	-31.2	-34.4	9.1	2.02e-02	0	42	0	1212153856	23	5241
2026-01-11 09:14:09.72	347.95	7.43	-31.1	-34.0	9.5	1.59e-02	0	42	0	1214251008	23	5062
2026-01-11 09:14:10.72	347.89	7.36	-31.1	-34.2	9.4	2.11e-02	0	42	0	1215299584	23	5119
2026-01-11 09:14:11.73	347.82	7.29	-31.1	-34.3	9.3	1.44e-02	0	42	0	1217396736	23	5170
2026-01-11 09:14:12.73	347.76	7.22	-31.0	-33.8	9.6	1.19e-02	0	42	0	1219493888	23	4973
2026-01-11 09:14:13.74	347.69	7.15	-30.7	-33.3	10.4	7.58e-03	0	42	0	1221591040	22	4850
2026-01-11 09:14:14.74	347.63	7.08	-32.9	-44.5	3.8	3.56e-01	0	42	104	1222639616	25	13767
2026-01-11 09:14:15.75	347.56	7.01	-33.2	-45.3	3.8	1.49e+00	0	42	104	1222639616	26	14599
2026-01-11 09:14:16.75	347.50	6.93	-33.4	-46.1	3.8	1.49e+00	0	42	104	1222639616	26	15411
2026-01-11 09:14:17.76	347.43	6.86	-33.6	-46.0	3.8	1.49e+00	0	42	104	1222639616	27	14962

#Closed at: 2026-01-11 09:14:18
#Recorded file [1222 MB]: D:/data/31010_260111_120321.dat