passes_logs/2026/01/11/R2M6_AANII_01/R2M6_AANII_01__20260111_104244_SUOMI_NPP_rec.log

#Pass ID: 20260111_104244_SUOMI NPP
#Satellite: SUOMI NPP
#Configuration: NPP
#almurnet v.1.7.20240730
#Start time: 2026-01-11 10:42:44

#Version: 2.2.20231116
#Station: R2M6_AANII_01
#Location: 30.233357 lon 59.946436 lat
#TLE: 1 37849U 11061A   26009.81756760  .00000113  00000+0  74747-4 0  9994
#TLE: 2 37849  98.7806 311.9110 0002525  72.5604 287.5848 14.19524046735974

#Time	Az	El	Level	Level2	SNR	BER	BlckErr	Temp	State	Recorded	gain1	gain2
2026-01-11 10:42:44.51	170.13	6.97	-30.8	-34.3	5.3	1.25e+00	0	39	0	0	22	5381
2026-01-11 10:42:45.52	170.15	7.05	-31.4	-36.2	4.8	1.32e+00	0	39	104	0	23	6297
2026-01-11 10:42:46.52	170.17	7.13	-31.4	-36.0	7.5	1.27e-01	0	39	0	0	23	6102
2026-01-11 10:42:47.54	170.20	7.21	-31.2	-35.3	8.1	5.17e-02	0	39	0	1048576	23	5726
2026-01-11 10:42:48.54	170.22	7.28	-31.3	-35.4	7.9	9.45e-02	0	39	0	3145728	23	5791
2026-01-11 10:42:49.55	170.24	7.36	-31.1	-34.4	8.8	4.56e-02	0	39	0	5242880	23	5313
2026-01-11 10:42:50.55	170.27	7.44	-30.8	-33.4	9.5	2.60e-02	0	39	0	7340032	23	4865
2026-01-11 10:42:51.56	170.29	7.52	-30.6	-33.1	10.3	6.11e-03	0	39	0	9437184	22	4798
2026-01-11 10:42:52.57	170.31	7.60	-30.5	-32.7	10.6	4.69e-03	0	39	0	10485760	22	4659
2026-01-11 10:42:53.57	170.34	7.68	-30.3	-32.3	10.9	2.66e-03	0	40	0	12582912	22	4509
2026-01-11 10:42:54.58	170.36	7.76	-30.2	-32.3	11.3	1.26e-03	0	39	0	14680064	21	4584
2026-01-11 10:42:55.59	170.39	7.84	-30.2	-32.4	11.1	1.65e-03	0	39	0	16777216	21	4645
2026-01-11 10:42:56.59	170.41	7.92	-30.2	-32.3	11.3	1.23e-03	0	39	0	18874368	21	4580
2026-01-11 10:42:57.60	170.43	8.00	-30.2	-32.4	11.2	1.12e-03	0	40	0	19922944	21	4621
2026-01-11 10:42:58.61	170.46	8.08	-30.1	-32.2	11.4	1.37e-03	0	40	0	22020096	21	4541
2026-01-11 10:42:59.61	170.48	8.16	-30.2	-32.2	11.3	1.13e-03	0	40	0	24117248	21	4564
2026-01-11 10:43:00.62	170.51	8.24	-30.2	-32.2	11.3	9.05e-04	0	40	0	26214400	21	4558
2026-01-11 10:43:01.62	170.53	8.32	-30.2	-32.2	11.3	7.48e-04	0	40	0	28311552	21	4566
2026-01-11 10:43:02.63	170.56	8.40	-30.3	-32.7	11.0	1.31e-03	0	40	0	29360128	21	4717
2026-01-11 10:43:03.63	170.58	8.48	-30.3	-32.7	11.1	1.84e-03	0	40	0	31457280	21	4721
2026-01-11 10:43:04.63	170.61	8.56	-30.2	-32.3	11.4	9.13e-04	0	40	0	33554432	21	4569
2026-01-11 10:43:05.64	170.63	8.65	-30.1	-32.0	11.6	1.14e-03	0	40	0	35651584	21	4471
2026-01-11 10:43:06.64	170.66	8.73	-30.3	-32.5	11.3	1.04e-03	0	40	0	37748736	21	4634
2026-01-11 10:43:07.65	170.68	8.81	-30.4	-32.8	11.1	1.66e-03	0	40	0	38797312	21	4743
2026-01-11 10:43:08.65	170.71	8.90	-30.3	-32.4	11.3	1.23e-03	0	40	0	40894464	21	4594
2026-01-11 10:43:09.65	170.73	8.98	-30.1	-31.8	11.8	6.06e-04	0	40	0	42991616	21	4385
2026-01-11 10:43:10.66	170.76	9.06	-29.9	-31.2	12.2	4.34e-04	0	40	0	45088768	21	4185
2026-01-11 10:43:11.67	170.78	9.15	-29.9	-31.3	12.1	2.23e-04	0	40	0	47185920	21	4219
2026-01-11 10:43:12.67	170.81	9.23	-29.8	-31.4	12.4	2.15e-04	0	40	0	48234496	20	4357
2026-01-11 10:43:13.68	170.84	9.31	-29.8	-31.5	12.4	2.49e-04	0	40	0	50331648	20	4358
2026-01-11 10:43:14.68	170.86	9.40	-29.7	-31.3	12.5	1.13e-04	0	40	0	52428800	20	4308
2026-01-11 10:43:15.68	170.89	9.48	-29.8	-31.4	12.4	1.51e-04	0	40	0	54525952	20	4353
2026-01-11 10:43:16.69	170.91	9.57	-29.7	-31.2	12.5	1.19e-04	0	40	0	56623104	20	4286
2026-01-11 10:43:17.70	170.94	9.65	-29.7	-31.3	12.5	1.33e-04	0	40	0	57671680	20	4315
2026-01-11 10:43:18.71	170.97	9.74	-29.7	-31.1	12.6	8.01e-05	0	40	0	59768832	20	4253
2026-01-11 10:43:19.72	171.00	9.83	-29.7	-31.1	12.6	9.23e-05	0	40	0	61865984	20	4255
2026-01-11 10:43:20.73	171.02	9.91	-29.7	-31.3	12.5	7.78e-05	0	40	0	63963136	20	4302
2026-01-11 10:43:21.73	171.05	10.00	-29.6	-31.0	12.8	8.69e-05	0	40	0	66060288	20	4221
2026-01-11 10:43:22.74	171.08	10.09	-29.6	-30.8	12.9	5.95e-05	0	41	0	67108864	20	4132
2026-01-11 10:43:23.75	171.10	10.18	-29.7	-31.1	12.7	7.47e-05	0	41	0	69206016	20	4233
2026-01-11 10:43:24.75	171.13	10.26	-29.6	-30.9	12.9	6.33e-05	0	40	0	71303168	20	4176
2026-01-11 10:43:25.76	171.16	10.35	-29.6	-30.9	12.8	8.08e-05	0	41	0	73400320	20	4175
2026-01-11 10:43:26.77	171.19	10.44	-29.6	-30.9	12.9	5.11e-05	0	40	0	75497472	20	4164
2026-01-11 10:43:27.78	171.22	10.53	-29.6	-30.9	12.9	4.57e-05	0	41	0	76546048	20	4170
2026-01-11 10:43:28.78	171.24	10.62	-29.6	-30.9	12.9	6.33e-05	0	40	0	78643200	20	4174
2026-01-11 10:43:29.78	171.27	10.71	-29.8	-31.3	12.6	8.08e-05	0	40	0	80740352	20	4305
2026-01-11 10:43:30.79	171.30	10.80	-29.8	-31.3	12.6	7.55e-05	0	40	0	82837504	20	4294
2026-01-11 10:43:31.80	171.33	10.89	-29.6	-30.8	12.9	7.17e-05	0	41	0	84934656	20	4141
2026-01-11 10:43:32.80	171.36	10.98	-29.5	-30.6	13.1	3.58e-05	0	41	0	85983232	20	4069
2026-01-11 10:43:33.81	171.39	11.07	-29.7	-31.0	12.9	4.95e-05	0	40	0	88080384	20	4183
2026-01-11 10:43:34.82	171.42	11.16	-29.6	-30.7	13.1	4.50e-05	0	41	0	90177536	20	4095
2026-01-11 10:43:35.82	171.45	11.25	-29.5	-30.6	13.1	1.90e-05	0	41	0	92274688	20	4080
2026-01-11 10:43:36.83	171.48	11.34	-29.5	-30.5	13.2	3.50e-05	0	41	0	94371840	20	4048
2026-01-11 10:43:37.84	171.51	11.43	-29.7	-31.0	12.9	3.81e-05	0	41	0	95420416	20	4189
2026-01-11 10:43:38.85	171.54	11.53	-29.6	-30.7	13.1	4.50e-05	0	41	0	97517568	20	4104
2026-01-11 10:43:39.85	171.57	11.62	-29.5	-30.4	13.3	2.82e-05	0	41	0	99614720	20	3997
2026-01-11 10:43:40.86	171.60	11.71	-29.3	-30.0	13.6	9.10e-06	0	41	0	101711872	20	3888
2026-01-11 10:43:41.87	171.63	11.81	-29.3	-30.3	13.7	6.80e-06	0	41	0	103809024	19	4060
2026-01-11 10:43:42.87	171.66	11.90	-29.3	-30.4	13.7	1.22e-05	0	41	0	104857600	19	4091
2026-01-11 10:43:43.87	171.69	11.99	-29.3	-30.5	13.7	6.10e-06	0	41	0	106954752	19	4101
2026-01-11 10:43:44.88	171.72	12.09	-29.3	-30.2	13.8	3.80e-06	0	41	0	109051904	19	4037
2026-01-11 10:43:45.88	171.75	12.18	-29.3	-30.5	13.7	3.00e-06	0	41	0	111149056	19	4097
2026-01-11 10:43:46.89	171.78	12.28	-29.3	-30.5	13.6	3.80e-06	0	41	0	113246208	19	4110
2026-01-11 10:43:47.90	171.81	12.37	-29.3	-30.3	13.7	6.80e-06	0	41	0	114294784	19	4069
2026-01-11 10:43:48.90	171.84	12.47	-29.5	-31.0	13.4	1.06e-05	0	41	0	116391936	19	4250
2026-01-11 10:43:49.90	171.88	12.56	-29.4	-30.7	13.5	2.05e-05	0	41	0	118489088	19	4179
2026-01-11 10:43:50.90	171.91	12.66	-29.4	-30.7	13.6	6.80e-06	0	41	0	120586240	19	4159
2026-01-11 10:43:51.92	171.94	12.76	-29.6	-31.1	13.3	9.10e-06	0	41	0	122683392	19	4304
2026-01-11 10:43:52.92	171.97	12.85	-29.4	-30.8	13.5	1.52e-05	0	41	0	123731968	19	4196
2026-01-11 10:43:53.92	172.00	12.95	-29.4	-30.7	13.6	4.50e-06	0	41	0	125829120	19	4184
2026-01-11 10:43:54.93	172.04	13.05	-29.3	-30.5	13.7	5.30e-06	0	41	0	127926272	19	4116
2026-01-11 10:43:55.94	172.07	13.15	-29.5	-30.9	13.4	9.10e-06	0	41	0	130023424	19	4241
2026-01-11 10:43:56.94	172.10	13.25	-29.4	-30.6	13.6	1.29e-05	0	41	0	131072000	19	4147
2026-01-11 10:43:57.94	172.14	13.35	-29.3	-30.4	13.8	6.10e-06	0	41	0	133169152	19	4080
2026-01-11 10:43:58.94	172.17	13.44	-29.1	-30.0	14.1	7.60e-06	0	41	0	135266304	19	3950
2026-01-11 10:43:59.95	172.20	13.54	-29.2	-30.1	14.0	2.20e-06	0	41	0	137363456	19	3987
2026-01-11 10:44:00.96	172.24	13.65	-29.3	-30.2	13.9	4.50e-06	0	41	0	139460608	19	4034
2026-01-11 10:44:01.97	172.27	13.75	-29.2	-30.0	14.1	7.60e-06	0	41	0	141557760	19	3960
2026-01-11 10:44:02.97	172.31	13.85	-29.1	-29.9	14.2	1.50e-06	0	41	0	142606336	19	3947
2026-01-11 10:44:03.98	172.34	13.95	-29.1	-29.9	14.2	7.00e-07	0	41	0	144703488	19	3938
2026-01-11 10:44:04.99	172.38	14.05	-29.3	-30.3	13.9	5.30e-06	0	41	0	146800640	19	4062
2026-01-11 10:44:05.99	172.41	14.15	-29.1	-29.9	14.2	1.50e-06	0	41	0	148897792	19	3945
2026-01-11 10:44:07.00	172.45	14.26	-29.2	-30.2	14.0	7.00e-07	0	41	0	149946368	19	4010
2026-01-11 10:44:08.01	172.48	14.36	-29.3	-30.3	13.9	1.29e-05	0	41	0	152043520	19	4061
2026-01-11 10:44:09.02	172.52	14.47	-29.4	-30.5	13.8	7.60e-06	0	41	0	154140672	19	4123
2026-01-11 10:44:10.02	172.55	14.57	-29.2	-30.1	14.1	3.00e-06	0	41	0	156237824	19	3986
2026-01-11 10:44:11.03	172.59	14.67	-29.0	-29.7	14.3	6.80e-06	0	41	0	158334976	19	3884
2026-01-11 10:44:12.03	172.63	14.78	-29.1	-29.8	14.3	4.50e-06	0	41	0	159383552	19	3901
2026-01-11 10:44:13.04	172.66	14.89	-29.2	-30.0	14.2	2.20e-06	0	41	0	161480704	19	3958
2026-01-11 10:44:14.05	172.70	14.99	-29.3	-30.2	14.0	8.30e-06	0	41	0	163577856	19	4029
2026-01-11 10:44:15.05	172.74	15.10	-29.1	-29.9	14.2	1.50e-06	0	41	0	165675008	19	3923
2026-01-11 10:44:16.04	172.77	15.20	-29.1	-29.8	14.3	7.00e-07	0	41	0	167772160	19	3903
2026-01-11 10:44:17.05	172.81	15.31	-29.1	-29.8	14.3	1.22e-05	0	41	0	168820736	19	3906
2026-01-11 10:44:18.06	172.85	15.42	-29.2	-30.1	14.1	3.80e-06	0	41	0	170917888	19	4001
2026-01-11 10:44:19.07	172.89	15.53	-29.1	-29.9	14.2	1.50e-06	0	41	0	173015040	19	3935
2026-01-11 10:44:20.07	172.93	15.64	-29.1	-29.8	14.3	4.50e-06	0	41	0	175112192	19	3903
2026-01-11 10:44:21.08	172.96	15.75	-29.2	-30.0	14.1	7.00e-07	0	41	0	177209344	19	3977
2026-01-11 10:44:22.09	173.00	15.86	-29.3	-30.3	14.0	2.20e-06	0	41	0	178257920	19	4045
2026-01-11 10:44:23.10	173.04	15.97	-29.3	-30.3	14.0	9.10e-06	0	41	0	180355072	19	4032
2026-01-11 10:44:24.10	173.08	16.08	-29.3	-30.2	14.0	1.50e-06	0	41	0	182452224	19	4015
2026-01-11 10:44:25.10	173.12	16.19	-29.3	-30.3	14.0	3.00e-06	0	41	0	184549376	19	4053
2026-01-11 10:44:26.11	173.16	16.30	-29.4	-30.6	13.8	9.10e-06	0	41	0	186646528	19	4140
2026-01-11 10:44:27.11	173.20	16.41	-29.4	-30.7	13.8	6.10e-06	0	41	0	187695104	19	4161
2026-01-11 10:44:28.12	173.24	16.53	-29.6	-31.2	13.5	3.80e-06	0	41	0	189792256	19	4316
2026-01-11 10:44:29.13	173.28	16.64	-29.5	-30.9	13.7	1.90e-05	0	41	0	191889408	19	4204
2026-01-11 10:44:30.14	173.32	16.75	-29.6	-31.2	13.5	9.90e-06	0	41	0	193986560	19	4311
2026-01-11 10:44:31.13	173.37	16.87	-29.6	-31.2	13.5	1.14e-05	0	41	0	196083712	19	4317
2026-01-11 10:44:32.14	173.41	16.98	-29.7	-31.5	13.4	1.14e-05	0	41	0	197132288	19	4386
2026-01-11 10:44:33.15	173.45	17.10	-29.7	-31.4	13.4	1.22e-05	0	41	0	199229440	19	4371
2026-01-11 10:44:34.16	173.49	17.21	-29.7	-31.4	13.4	1.83e-05	0	41	0	201326592	19	4379
2026-01-11 10:44:35.16	173.53	17.33	-29.8	-31.5	13.3	2.13e-05	0	41	0	203423744	19	4403
2026-01-11 10:44:36.17	173.58	17.45	-29.8	-31.6	13.3	1.44e-05	0	41	0	205520896	19	4426
2026-01-11 10:44:37.17	173.62	17.56	-29.8	-31.7	13.2	1.67e-05	0	41	0	206569472	19	4467
2026-01-11 10:44:38.17	173.66	17.68	-29.8	-31.5	13.3	1.44e-05	0	41	0	208666624	19	4401
2026-01-11 10:44:39.18	173.71	17.80	-29.8	-31.5	13.4	1.52e-05	0	41	0	210763776	19	4401
2026-01-11 10:44:40.18	173.75	17.92	-29.9	-31.9	13.1	1.90e-05	0	41	0	212860928	19	4512
2026-01-11 10:44:41.18	173.80	18.04	-29.9	-31.9	13.1	2.36e-05	0	41	0	214958080	19	4519
2026-01-11 10:44:42.19	173.84	18.16	-29.9	-31.8	13.3	1.37e-05	0	41	0	216006656	19	4459
2026-01-11 10:44:43.19	173.88	18.28	-29.9	-31.5	13.0	1.98e-05	0	41	0	218103808	20	4286
2026-01-11 10:44:44.19	173.93	18.40	-30.0	-31.6	12.9	6.02e-05	0	41	0	220200960	20	4318
2026-01-11 10:44:45.19	173.98	18.52	-30.1	-31.8	12.8	3.20e-05	0	41	0	222298112	20	4391
2026-01-11 10:44:46.20	174.02	18.64	-30.1	-31.9	12.7	6.94e-05	0	41	0	224395264	20	4433
2026-01-11 10:44:47.21	174.07	18.77	-30.3	-32.4	12.4	8.85e-05	0	41	0	225443840	20	4596
2026-01-11 10:44:48.21	174.11	18.89	-30.4	-32.7	12.2	1.79e-04	0	41	0	227540992	20	4684
2026-01-11 10:44:49.22	174.16	19.02	-30.3	-32.5	12.4	1.18e-04	0	41	0	229638144	20	4606
2026-01-11 10:44:50.22	174.21	19.14	-30.4	-32.7	12.4	1.66e-04	0	41	0	231735296	20	4678
2026-01-11 10:44:51.23	174.26	19.27	-30.3	-32.0	12.4	2.61e-04	0	41	0	233832448	21	4357
2026-01-11 10:44:52.23	174.31	19.39	-30.5	-32.5	12.1	2.80e-04	0	41	0	234881024	21	4519
2026-01-11 10:44:53.24	174.35	19.52	-30.4	-32.2	12.2	2.30e-04	0	41	0	236978176	21	4425
2026-01-11 10:44:54.24	174.40	19.65	-30.5	-32.4	12.2	1.91e-04	0	41	0	239075328	21	4488
2026-01-11 10:44:55.25	174.45	19.78	-30.3	-31.8	12.5	1.50e-04	0	41	0	241172480	21	4310
2026-01-11 10:44:56.25	174.50	19.90	-30.3	-31.8	12.5	1.34e-04	0	41	0	243269632	21	4290
2026-01-11 10:44:57.26	174.55	20.04	-30.3	-31.8	12.5	7.01e-05	0	41	0	244318208	21	4296
2026-01-11 10:44:58.27	174.60	20.17	-30.3	-31.9	12.5	5.41e-05	0	41	0	246415360	21	4314
2026-01-11 10:44:59.27	174.65	20.30	-30.3	-31.8	12.5	9.84e-05	0	41	0	248512512	21	4284
2026-01-11 10:45:00.28	174.71	20.43	-30.1	-31.4	12.8	1.07e-04	0	41	0	250609664	21	4183
2026-01-11 10:45:01.28	174.76	20.56	-30.1	-31.4	12.9	8.16e-05	0	41	0	252706816	21	4156
2026-01-11 10:45:02.28	174.81	20.69	-30.1	-31.3	12.9	3.81e-05	0	41	0	253755392	21	4142
2026-01-11 10:45:03.28	174.86	20.82	-30.2	-31.6	12.7	3.96e-05	0	42	0	255852544	21	4230
2026-01-11 10:45:04.28	174.91	20.96	-30.3	-31.8	12.6	7.01e-05	0	41	0	257949696	21	4287
2026-01-11 10:45:05.29	174.97	21.09	-30.3	-31.9	12.6	8.08e-05	0	41	0	260046848	21	4312
2026-01-11 10:45:06.30	175.02	21.23	-30.5	-32.4	12.2	1.37e-04	0	42	0	261095424	21	4478
2026-01-11 10:45:07.30	175.08	21.37	-30.3	-31.9	12.6	1.27e-04	0	41	0	263192576	21	4324
2026-01-11 10:45:08.31	175.13	21.50	-30.3	-31.8	12.6	1.68e-04	0	41	0	265289728	21	4305
2026-01-11 10:45:09.32	175.19	21.64	-30.3	-31.9	12.5	1.42e-04	0	41	0	267386880	21	4319
2026-01-11 10:45:10.33	175.24	21.78	-30.4	-32.2	12.3	1.49e-04	0	41	0	269484032	21	4438
2026-01-11 10:45:11.33	175.30	21.92	-30.4	-32.2	12.3	1.51e-04	0	41	0	271581184	21	4427
2026-01-11 10:45:12.34	175.35	22.06	-30.5	-32.4	12.2	1.82e-04	0	41	0	272629760	21	4500
2026-01-11 10:45:13.35	175.41	22.20	-30.5	-32.5	12.2	3.24e-04	0	41	0	274726912	21	4511
2026-01-11 10:45:14.36	175.47	22.34	-30.3	-32.0	12.5	1.82e-04	0	42	0	276824064	21	4337
2026-01-11 10:45:15.36	175.53	22.49	-30.3	-31.9	12.5	7.78e-05	0	42	0	278921216	21	4323
2026-01-11 10:45:16.36	175.59	22.63	-30.3	-32.0	12.5	6.56e-05	0	41	0	281018368	21	4341
2026-01-11 10:45:17.37	175.64	22.77	-30.2	-31.6	12.8	6.94e-05	0	42	0	282066944	21	4224
2026-01-11 10:45:18.38	175.70	22.92	-30.4	-32.2	12.3	1.58e-04	0	41	0	284164096	21	4421
2026-01-11 10:45:19.38	175.76	23.06	-30.4	-32.2	12.3	1.39e-04	0	41	0	286261248	21	4427
2026-01-11 10:45:20.39	175.83	23.21	-30.3	-31.7	12.7	1.05e-04	0	42	0	288358400	21	4267
2026-01-11 10:45:21.40	175.89	23.36	-30.4	-32.1	12.4	1.40e-04	0	42	0	289406976	21	4381
2026-01-11 10:45:22.40	175.95	23.50	-30.2	-31.7	12.7	1.18e-04	0	42	0	291504128	21	4250
2026-01-11 10:45:23.41	176.01	23.65	-30.3	-31.7	12.7	1.11e-04	0	41	0	293601280	21	4262
2026-01-11 10:45:24.42	176.07	23.80	-30.3	-31.9	12.6	9.23e-05	0	42	0	295698432	21	4322
2026-01-11 10:45:25.43	176.14	23.95	-30.3	-31.8	12.7	5.87e-05	0	42	0	297795584	21	4288
2026-01-11 10:45:26.43	176.20	24.10	-30.3	-31.8	12.7	6.71e-05	0	41	0	299892736	21	4276
2026-01-11 10:45:27.44	176.27	24.26	-30.1	-31.1	13.2	3.50e-05	0	41	0	300941312	21	4055
2026-01-11 10:45:28.45	176.33	24.41	-30.1	-31.2	13.1	5.95e-05	0	41	0	303038464	21	4103
2026-01-11 10:45:29.45	176.40	24.56	-30.0	-30.9	13.3	2.59e-05	0	42	0	305135616	21	3997
2026-01-11 10:45:30.46	176.46	24.72	-29.9	-31.2	13.4	7.60e-06	0	42	0	307232768	20	4181
2026-01-11 10:45:31.47	176.53	24.88	-29.9	-31.1	13.5	1.14e-05	0	42	0	309329920	20	4137
2026-01-11 10:45:32.48	176.60	25.03	-29.8	-30.9	13.6	4.50e-06	0	41	0	310378496	20	4095
2026-01-11 10:45:33.48	176.67	25.19	-29.9	-31.1	13.6	4.50e-06	0	42	0	312475648	20	4152
2026-01-11 10:45:34.49	176.74	25.35	-29.7	-30.7	13.8	6.80e-06	0	41	0	314572800	20	4014
2026-01-11 10:45:35.50	176.81	25.51	-29.8	-30.9	13.6	3.80e-06	0	42	0	316669952	20	4075
2026-01-11 10:45:36.50	176.88	25.67	-29.9	-31.2	13.5	7.60e-06	0	41	0	317718528	20	4167
2026-01-11 10:45:37.51	176.95	25.83	-29.8	-31.0	13.6	1.14e-05	0	41	0	319815680	20	4107
2026-01-11 10:45:38.51	177.02	25.99	-29.9	-31.1	13.5	7.60e-06	0	41	0	321912832	20	4155
2026-01-11 10:45:39.52	177.09	26.15	-29.7	-30.6	13.8	7.60e-06	0	42	0	324009984	20	3999
2026-01-11 10:45:40.52	177.16	26.32	-29.6	-30.2	14.1	8.30e-06	0	41	0	326107136	20	3890
2026-01-11 10:45:41.52	177.24	26.48	-29.5	-30.1	14.2	7.00e-07	0	42	0	328204288	20	3856
2026-01-11 10:45:42.53	177.31	26.65	-29.7	-30.5	13.9	2.20e-06	0	42	0	329252864	20	3965
2026-01-11 10:45:43.53	177.39	26.81	-29.7	-30.7	13.9	8.30e-06	0	42	0	331350016	20	4013
2026-01-11 10:45:44.53	177.46	26.98	-29.6	-30.4	14.0	1.50e-06	0	41	0	333447168	20	3938
2026-01-11 10:45:45.54	177.54	27.15	-29.6	-30.3	14.1	3.80e-06	0	42	0	335544320	20	3923
2026-01-11 10:45:46.54	177.62	27.32	-29.6	-30.4	14.0	7.00e-07	0	41	0	336592896	20	3928
2026-01-11 10:45:47.55	177.70	27.49	-29.6	-30.4	14.0	3.00e-06	0	42	0	338690048	20	3937
2026-01-11 10:45:48.55	177.77	27.66	-29.6	-30.4	14.0	1.50e-06	0	42	0	340787200	20	3941
2026-01-11 10:45:49.56	177.86	27.83	-29.3	-29.7	14.5	7.00e-07	0	42	0	342884352	20	3740
2026-01-11 10:45:50.57	177.94	28.01	-29.4	-29.9	14.3	0.00e+00	0	42	0	344981504	20	3804
2026-01-11 10:45:51.57	178.02	28.18	-29.4	-29.8	14.4	1.50e-06	0	42	0	346030080	20	3766
2026-01-11 10:45:52.58	178.10	28.36	-29.5	-30.6	14.3	0.00e+00	0	42	0	348127232	19	4074
2026-01-11 10:45:53.59	178.18	28.53	-29.5	-30.5	14.3	7.00e-07	0	42	0	350224384	19	4056
2026-01-11 10:45:54.60	178.27	28.71	-29.3	-30.1	14.6	7.00e-07	0	42	0	352321536	19	3942
2026-01-11 10:45:55.60	178.35	28.89	-29.6	-30.8	14.2	1.50e-06	0	42	0	354418688	19	4139
2026-01-11 10:45:56.60	178.44	29.07	-29.9	-31.5	13.7	1.50e-06	0	42	0	355467264	19	4352
2026-01-11 10:45:57.61	178.53	29.25	-29.9	-31.6	13.7	5.30e-06	0	42	0	357564416	19	4387
2026-01-11 10:45:58.62	178.61	29.44	-29.9	-31.5	13.7	6.80e-06	0	42	0	359661568	19	4357
2026-01-11 10:45:59.62	178.70	29.62	-29.9	-31.0	13.7	1.14e-05	0	42	0	361758720	20	4116
2026-01-11 10:46:00.63	178.79	29.80	-30.1	-31.7	13.2	1.83e-05	0	41	0	363855872	20	4327
2026-01-11 10:46:01.63	178.88	29.99	-30.0	-31.4	13.5	6.80e-06	0	42	0	364904448	20	4212
2026-01-11 10:46:02.64	178.98	30.18	-30.2	-31.8	13.2	7.60e-06	0	42	0	367001600	20	4354
2026-01-11 10:46:03.65	179.07	30.36	-29.8	-30.8	13.9	1.44e-05	0	42	0	369098752	20	4046
2026-01-11 10:46:04.65	179.16	30.55	-29.8	-30.7	13.9	3.80e-06	0	42	0	371195904	20	4022
2026-01-11 10:46:05.66	179.26	30.74	-30.0	-31.4	13.5	9.10e-06	0	42	0	373293056	20	4225
2026-01-11 10:46:06.66	179.35	30.93	-30.1	-31.6	13.4	1.14e-05	0	42	0	374341632	20	4278
2026-01-11 10:46:07.67	179.45	31.13	-30.3	-32.3	12.9	4.42e-05	0	42	0	376438784	20	4502
2026-01-11 10:46:08.67	179.55	31.32	-30.4	-32.0	12.8	6.17e-05	0	42	0	378535936	21	4305
2026-01-11 10:46:09.69	179.65	31.52	-30.6	-32.5	12.4	1.49e-04	0	42	0	380633088	21	4490
2026-01-11 10:46:10.69	179.75	31.71	-30.8	-32.5	12.1	4.35e-04	0	42	0	382730240	22	4400
2026-01-11 10:46:11.70	179.85	31.91	-31.0	-33.2	11.6	4.25e-04	0	42	0	383778816	22	4647
2026-01-11 10:46:12.70	179.96	32.11	-31.2	-33.8	11.3	9.47e-04	0	42	0	385875968	22	4855
2026-01-11 10:46:13.70	180.06	32.31	-31.0	-33.3	11.6	5.01e-04	0	42	0	387973120	22	4665
2026-01-11 10:46:14.71	180.16	32.51	-31.3	-34.0	11.2	1.27e-03	0	42	0	390070272	22	4957
2026-01-11 10:46:15.71	180.27	32.71	-31.1	-33.4	11.4	1.21e-03	0	42	0	392167424	22	4730
2026-01-11 10:46:16.71	180.38	32.91	-31.2	-33.9	11.1	5.74e-04	0	42	0	393216000	22	4876
2026-01-11 10:46:17.72	180.49	33.12	-31.1	-33.6	11.4	1.05e-03	0	42	0	395313152	22	4791
2026-01-11 10:46:18.72	180.60	33.32	-30.9	-32.8	11.9	5.69e-04	0	42	0	397410304	22	4504
2026-01-11 10:46:19.73	180.71	33.53	-31.0	-33.2	11.7	4.74e-04	0	42	0	399507456	22	4640
2026-01-11 10:46:20.73	180.82	33.74	-30.7	-32.3	12.4	1.59e-04	0	42	0	401604608	22	4322
2026-01-11 10:46:21.74	180.94	33.95	-30.5	-31.6	12.6	5.87e-05	0	42	0	402653184	22	4104
2026-01-11 10:46:22.74	181.05	34.16	-30.6	-32.3	12.6	6.40e-05	0	42	0	404750336	21	4427
2026-01-11 10:46:23.74	181.17	34.37	-30.3	-31.8	13.0	5.95e-05	0	42	0	406847488	21	4237
2026-01-11 10:46:24.75	181.29	34.59	-30.4	-32.0	12.8	5.87e-05	0	42	0	408944640	21	4317
2026-01-11 10:46:25.75	181.41	34.80	-30.3	-31.8	13.0	5.11e-05	0	42	0	411041792	21	4248
2026-01-11 10:46:26.76	181.54	35.02	-30.9	-33.4	11.9	1.01e-04	0	42	0	412090368	21	4791
2026-01-11 10:46:27.76	181.66	35.24	-30.5	-32.2	12.6	8.08e-05	0	42	0	414187520	21	4396
2026-01-11 10:46:28.77	181.78	35.46	-30.7	-32.7	12.5	7.93e-05	0	42	0	416284672	21	4563
2026-01-11 10:46:29.78	181.91	35.68	-30.8	-32.4	12.2	2.87e-04	0	42	0	418381824	22	4367
2026-01-11 10:46:30.79	182.04	35.90	-31.0	-33.0	11.8	3.16e-04	0	42	0	420478976	22	4571
2026-01-11 10:46:31.79	182.17	36.13	-31.1	-33.5	11.4	5.91e-04	0	42	0	421527552	22	4737
2026-01-11 10:46:32.80	182.30	36.35	-31.2	-33.9	11.1	6.23e-04	0	42	0	423624704	22	4901
2026-01-11 10:46:33.80	182.44	36.58	-31.4	-34.4	10.9	1.19e-03	0	42	0	425721856	22	5083
2026-01-11 10:46:34.80	182.57	36.80	-31.2	-33.7	11.3	1.45e-03	0	42	0	427819008	22	4824
2026-01-11 10:46:35.81	182.71	37.03	-31.5	-34.3	10.6	2.64e-03	0	42	0	429916160	23	4949
2026-01-11 10:46:36.81	182.85	37.26	-31.4	-33.7	10.7	2.49e-03	0	42	0	430964736	23	4735
2026-01-11 10:46:37.82	182.99	37.50	-31.3	-33.7	11.0	1.24e-03	0	42	0	433061888	23	4730
2026-01-11 10:46:38.82	183.14	37.73	-31.3	-33.7	11.0	1.70e-03	0	42	0	435159040	23	4705
2026-01-11 10:46:39.83	183.28	37.96	-31.0	-32.7	11.6	1.18e-03	0	42	0	437256192	23	4365
2026-01-11 10:46:40.83	183.43	38.20	-31.5	-34.1	10.8	1.94e-03	0	42	0	439353344	23	4863
2026-01-11 10:46:41.84	183.58	38.44	-31.5	-34.1	10.7	2.66e-03	0	42	0	440401920	23	4877
2026-01-11 10:46:42.84	183.73	38.68	-31.9	-35.5	9.8	5.63e-03	0	42	0	442499072	23	5443
2026-01-11 10:46:43.85	183.89	38.92	-31.9	-35.1	9.6	8.56e-03	0	42	0	444596224	24	5190
2026-01-11 10:46:44.86	184.04	39.16	-32.1	-35.9	9.2	2.00e-02	0	42	0	446693376	24	5560
2026-01-11 10:46:45.87	184.20	39.41	-32.1	-35.9	9.0	4.59e-02	0	42	0	448790528	24	5564
2026-01-11 10:46:46.87	184.36	39.65	-32.1	-35.9	8.9	2.68e-02	0	42	0	449839104	24	5580
2026-01-11 10:46:47.88	184.53	39.90	-32.2	-36.2	8.8	2.53e-02	0	42	0	451936256	24	5716
2026-01-11 10:46:48.88	184.69	40.15	-32.3	-36.6	8.5	3.94e-02	0	42	0	454033408	24	5903
2026-01-11 10:46:49.89	184.86	40.40	-32.5	-36.9	7.7	7.82e-02	0	42	0	456130560	25	5984
2026-01-11 10:46:50.90	185.03	40.65	-32.1	-35.2	9.1	2.89e-02	0	42	0	458227712	25	5178
2026-01-11 10:46:51.91	185.21	40.90	-32.3	-36.1	8.5	3.30e-02	0	42	0	459276288	25	5575
2026-01-11 10:46:52.90	185.38	41.15	-32.2	-35.8	8.6	4.12e-02	0	42	0	461373440	25	5429
2026-01-11 10:46:53.91	185.56	41.41	-32.1	-35.5	9.1	2.81e-02	0	42	0	463470592	25	5274
2026-01-11 10:46:54.92	185.74	41.67	-32.2	-35.6	8.8	3.05e-02	0	42	0	465567744	25	5360
2026-01-11 10:46:55.92	185.93	41.93	-32.0	-35.1	9.3	2.40e-02	0	42	0	467664896	25	5124
2026-01-11 10:46:56.93	186.12	42.19	-32.1	-35.3	9.2	1.63e-02	0	42	0	468713472	25	5182
2026-01-11 10:46:57.94	186.31	42.45	-31.7	-34.4	10.1	8.95e-03	0	42	0	470810624	24	4914
2026-01-11 10:46:58.94	186.50	42.71	-31.7	-34.2	10.4	3.23e-03	0	42	0	472907776	24	4811
2026-01-11 10:46:59.95	186.70	42.98	-31.2	-33.1	11.5	1.11e-03	0	42	0	475004928	23	4511
2026-01-11 10:47:00.95	186.90	43.24	-31.2	-33.3	11.2	1.91e-03	0	42	0	476053504	23	4554
2026-01-11 10:47:01.96	187.10	43.51	-31.5	-34.2	10.7	1.93e-03	0	42	0	478150656	23	4887
2026-01-11 10:47:02.96	187.31	43.78	-31.5	-34.2	10.7	2.74e-03	0	42	0	480247808	23	4903
2026-01-11 10:47:03.97	187.52	44.05	-31.4	-33.8	11.0	2.94e-03	0	42	0	482344960	23	4766
2026-01-11 10:47:04.98	187.73	44.33	-31.3	-33.4	11.2	1.16e-03	0	42	0	484442112	23	4616
2026-01-11 10:47:05.99	187.95	44.60	-31.4	-33.8	11.0	1.35e-03	0	42	0	486539264	23	4731
2026-01-11 10:47:06.99	188.17	44.87	-30.9	-32.3	12.1	1.43e-03	0	42	0	487587840	23	4220
2026-01-11 10:47:08.00	188.40	45.15	-30.6	-31.8	12.8	1.12e-04	0	42	0	489684992	22	4155
2026-01-11 10:47:09.01	188.63	45.43	-30.4	-31.4	13.0	6.33e-05	0	42	0	491782144	22	4020
2026-01-11 10:47:10.01	188.86	45.71	-30.2	-31.4	13.4	4.50e-05	0	42	0	493879296	21	4108
2026-01-11 10:47:11.02	189.10	45.99	-30.2	-31.3	13.4	8.30e-06	0	42	0	495976448	21	4100
2026-01-11 10:47:12.02	189.34	46.27	-30.3	-31.7	13.2	1.14e-05	0	42	0	497025024	21	4196
2026-01-11 10:47:13.03	189.58	46.56	-29.9	-30.6	13.9	1.06e-05	0	42	0	499122176	21	3897
2026-01-11 10:47:14.03	189.83	46.84	-30.4	-31.8	13.0	3.43e-05	0	42	0	501219328	21	4242
2026-01-11 10:47:15.04	190.09	47.13	-30.4	-31.8	13.2	3.58e-05	0	42	0	503316480	21	4238
2026-01-11 10:47:16.04	190.35	47.42	-30.6	-32.3	12.7	2.59e-05	0	42	0	504365056	21	4407
2026-01-11 10:47:17.05	190.61	47.71	-30.9	-33.3	12.1	1.14e-04	0	42	0	506462208	21	4758
2026-01-11 10:47:18.05	190.88	47.99	-31.1	-33.4	11.8	3.19e-04	0	42	0	508559360	22	4679
2026-01-11 10:47:19.07	191.15	48.29	-31.1	-33.5	11.6	5.31e-04	0	42	0	510656512	22	4726
2026-01-11 10:47:20.07	191.43	48.58	-31.0	-33.1	12.0	7.44e-04	0	42	0	512753664	22	4572
2026-01-11 10:47:21.08	191.72	48.88	-31.1	-33.4	11.9	4.56e-04	0	42	0	514850816	22	4689
2026-01-11 10:47:22.09	192.01	49.17	-31.2	-33.6	11.5	3.94e-04	0	42	0	515899392	22	4770
2026-01-11 10:47:23.10	192.30	49.47	-30.9	-32.8	12.1	3.93e-04	0	42	0	517996544	22	4466
2026-01-11 10:47:24.10	192.60	49.77	-30.3	-31.2	13.2	3.05e-05	0	42	0	520093696	22	3967
2026-01-11 10:47:25.10	192.91	50.07	-30.2	-31.2	13.5	9.10e-06	0	42	0	522190848	21	4058
2026-01-11 10:47:26.10	193.22	50.37	-30.1	-31.0	13.6	3.00e-06	0	42	0	523239424	21	4001
2026-01-11 10:47:27.10	193.54	50.66	-30.2	-31.2	13.5	5.30e-06	0	42	0	525336576	21	4055
2026-01-11 10:47:28.11	193.86	50.97	-29.8	-30.6	14.2	9.90e-06	0	42	0	527433728	20	3965
2026-01-11 10:47:29.11	194.19	51.27	-30.1	-31.5	13.6	2.20e-06	0	42	0	529530880	20	4240
2026-01-11 10:47:30.12	194.53	51.58	-30.1	-31.7	13.5	8.30e-06	0	42	0	531628032	20	4289
2026-01-11 10:47:31.13	194.88	51.88	-30.2	-31.9	13.3	1.83e-05	0	42	0	532676608	20	4360
2026-01-11 10:47:32.12	195.23	52.18	-30.1	-31.5	13.6	6.80e-06	0	42	0	534773760	20	4234
2026-01-11 10:47:33.13	195.59	52.49	-30.1	-31.5	13.6	1.06e-05	0	42	0	536870912	20	4245
2026-01-11 10:47:34.13	195.95	52.80	-30.0	-31.2	13.8	6.10e-06	0	42	0	538968064	20	4139
2026-01-11 10:47:35.14	196.33	53.11	-30.3	-32.1	13.4	3.80e-06	0	42	0	541065216	20	4413
2026-01-11 10:47:36.14	196.71	53.41	-30.0	-31.2	13.8	9.10e-06	0	42	0	542113792	20	4129
2026-01-11 10:47:37.15	197.10	53.72	-30.1	-31.6	13.6	4.50e-06	0	42	0	544210944	20	4271
2026-01-11 10:47:38.15	197.50	54.03	-30.3	-31.9	13.6	7.60e-06	0	42	0	546308096	20	4352
2026-01-11 10:47:39.16	197.91	54.34	-30.1	-31.6	13.6	3.00e-06	0	42	0	548405248	20	4274
2026-01-11 10:47:40.16	198.32	54.65	-30.0	-31.2	13.9	3.00e-06	0	42	0	550502400	20	4144
2026-01-11 10:47:41.17	198.75	54.97	-29.6	-30.2	14.5	1.50e-06	0	42	0	551550976	20	3867
2026-01-11 10:47:42.16	199.18	55.27	-29.3	-29.5	14.9	0.00e+00	0	42	0	553648128	20	3667
2026-01-11 10:47:43.16	199.62	55.58	-29.3	-29.8	15.2	0.00e+00	0	42	0	555745280	19	3843
2026-01-11 10:47:44.17	200.08	55.90	-29.2	-29.5	15.3	0.00e+00	0	42	0	557842432	19	3756
2026-01-11 10:47:45.18	200.54	56.21	-30.0	-31.6	14.1	0.00e+00	0	42	0	559939584	19	4336
2026-01-11 10:47:46.18	201.02	56.52	-29.5	-30.5	14.7	7.00e-07	0	42	0	560988160	19	4014
2026-01-11 10:47:47.19	201.50	56.83	-28.7	-28.8	16.1	0.00e+00	0	42	0	563085312	18	3671
2026-01-11 10:47:48.19	202.00	57.14	-28.1	-28.0	16.7	0.00e+00	0	42	0	565182464	17	3565
2026-01-11 10:47:49.20	202.51	57.45	-27.8	-27.9	17.1	0.00e+00	0	42	0	567279616	16	3614
2026-01-11 10:47:50.20	203.02	57.76	-28.2	-28.7	16.7	0.00e+00	0	42	0	569376768	16	3811
2026-01-11 10:47:51.21	203.56	58.07	-28.4	-29.1	16.4	0.00e+00	0	42	0	570425344	16	3933
2026-01-11 10:47:52.21	204.10	58.38	-28.2	-28.3	16.6	0.00e+00	0	42	0	572522496	17	3622
2026-01-11 10:47:53.22	204.66	58.69	-28.2	-28.2	16.6	0.00e+00	0	42	0	574619648	17	3602
2026-01-11 10:47:54.23	205.23	59.00	-27.9	-27.6	16.9	0.00e+00	0	42	0	576716800	17	3474
2026-01-11 10:47:55.23	205.81	59.30	-28.8	-29.6	15.9	0.00e+00	0	42	0	578813952	17	3953
2026-01-11 10:47:56.23	206.40	59.61	-28.9	-29.8	15.8	0.00e+00	0	42	0	579862528	17	4024
2026-01-11 10:47:57.24	207.02	59.91	-28.8	-29.6	15.8	0.00e+00	0	42	0	581959680	17	3975
2026-01-11 10:47:58.24	207.64	60.21	-28.8	-29.7	15.8	0.00e+00	0	42	0	584056832	17	3990
2026-01-11 10:47:59.24	208.27	60.51	-29.2	-30.2	15.2	0.00e+00	0	42	0	586153984	18	4037
2026-01-11 10:48:00.24	208.93	60.81	-29.8	-31.2	14.4	0.00e+00	0	42	0	588251136	19	4203
2026-01-11 10:48:01.24	209.59	61.10	-30.0	-31.3	14.0	4.50e-06	0	42	0	589299712	20	4143
2026-01-11 10:48:02.25	210.28	61.40	-29.7	-30.4	14.4	0.00e+00	0	42	0	591396864	20	3916
2026-01-11 10:48:03.25	210.98	61.69	-29.3	-29.9	15.1	0.00e+00	0	42	0	593494016	19	3855
2026-01-11 10:48:04.25	211.69	61.98	-29.1	-29.4	15.4	0.00e+00	0	42	0	595591168	19	3729
2026-01-11 10:48:05.25	212.43	62.27	-29.2	-29.6	15.4	0.00e+00	0	42	0	596639744	19	3768
2026-01-11 10:48:06.25	213.17	62.55	-29.6	-30.6	14.7	0.00e+00	0	42	0	598736896	19	4048
2026-01-11 10:48:07.25	213.94	62.83	-29.5	-30.4	14.9	0.00e+00	0	42	0	600834048	19	3985
2026-01-11 10:48:08.25	214.72	63.11	-29.3	-29.9	15.2	0.00e+00	0	42	0	602931200	19	3837
2026-01-11 10:48:09.24	215.52	63.38	-28.9	-29.0	15.8	0.00e+00	0	42	0	605028352	19	3607
2026-01-11 10:48:10.24	216.34	63.65	-28.7	-28.9	16.0	0.00e+00	0	42	0	606076928	18	3685
2026-01-11 10:48:11.24	217.18	63.91	-28.9	-29.4	15.7	0.00e+00	0	42	0	608174080	18	3795
2026-01-11 10:48:12.24	218.04	64.17	-29.1	-29.9	15.4	0.00e+00	0	42	0	610271232	18	3947
2026-01-11 10:48:13.24	218.92	64.43	-28.8	-29.1	15.9	0.00e+00	0	42	0	612368384	18	3731
2026-01-11 10:48:14.23	219.81	64.68	-28.9	-29.3	15.9	0.00e+00	0	42	0	614465536	18	3781
2026-01-11 10:48:15.23	220.72	64.93	-29.3	-30.4	15.1	0.00e+00	0	42	0	615514112	18	4081
2026-01-11 10:48:16.22	221.65	65.17	-29.4	-30.1	15.1	0.00e+00	0	42	0	617611264	19	3888
2026-01-11 10:48:17.21	222.60	65.40	-29.3	-29.9	15.2	0.00e+00	0	42	0	619708416	19	3841
2026-01-11 10:48:18.20	223.57	65.63	-29.4	-30.0	15.1	7.00e-07	0	42	0	621805568	19	3884
2026-01-11 10:48:19.21	224.58	65.86	-29.8	-31.1	14.4	0.00e+00	0	42	0	622854144	19	4177
2026-01-11 10:48:20.22	225.61	66.08	-29.4	-30.0	15.1	0.00e+00	0	42	0	624951296	19	3872
2026-01-11 10:48:21.22	226.65	66.30	-29.2	-29.7	15.4	0.00e+00	0	42	0	627048448	19	3783
2026-01-11 10:48:22.22	227.71	66.51	-29.5	-30.4	15.0	7.00e-07	0	42	0	629145600	19	3968
2026-01-11 10:48:23.23	228.80	66.71	-29.8	-30.6	14.4	0.00e+00	0	42	0	631242752	20	3946
2026-01-11 10:48:24.23	229.90	66.90	-29.5	-29.9	14.9	0.00e+00	0	42	0	632291328	20	3763
2026-01-11 10:48:25.23	231.02	67.09	-29.6	-30.1	14.7	0.00e+00	0	42	0	634388480	20	3828
2026-01-11 10:48:26.23	232.16	67.26	-30.4	-32.1	13.6	6.10e-06	0	42	0	636485632	20	4408
2026-01-11 10:48:27.23	233.32	67.43	-30.6	-32.2	13.1	4.80e-05	0	42	0	638582784	21	4347
2026-01-11 10:48:28.23	234.49	67.60	-30.6	-32.3	13.0	1.75e-05	0	42	0	640679936	21	4376
2026-01-11 10:48:29.24	235.70	67.75	-30.5	-31.9	13.3	3.50e-05	0	42	0	641728512	21	4241
2026-01-11 10:48:30.24	236.91	67.89	-30.2	-31.1	13.9	7.60e-06	0	42	0	643825664	21	3999
2026-01-11 10:48:31.25	238.16	68.03	-30.6	-32.1	13.2	5.30e-06	0	42	0	645922816	21	4315
2026-01-11 10:48:32.25	239.40	68.16	-31.0	-32.9	12.4	1.36e-04	0	42	0	648019968	22	4481
2026-01-11 10:48:33.25	240.66	68.27	-31.1	-33.2	12.2	1.16e-04	0	42	0	650117120	22	4560
2026-01-11 10:48:34.25	241.94	68.38	-31.2	-33.5	12.0	6.22e-04	0	42	0	651165696	22	4677
2026-01-11 10:48:35.26	243.24	68.48	-31.0	-32.8	12.4	5.96e-04	0	42	0	653262848	22	4451
2026-01-11 10:48:36.27	244.55	68.57	-31.2	-33.4	12.1	2.32e-04	0	42	0	655360000	22	4644
2026-01-11 10:48:37.27	245.87	68.64	-32.2	-35.7	9.6	4.68e-03	0	42	0	657457152	24	5383
2026-01-11 10:48:38.27	247.19	68.71	-32.3	-35.6	9.3	2.66e-02	0	42	0	659554304	25	5259
2026-01-11 10:48:39.28	248.53	68.77	-31.7	-34.1	10.8	4.74e-03	0	42	0	660602880	24	4713
2026-01-11 10:48:40.29	249.88	68.81	-31.5	-33.5	11.3	1.59e-03	0	42	0	662700032	24	4513
2026-01-11 10:48:41.29	251.22	68.85	-32.1	-35.3	9.9	3.26e-03	0	42	0	664797184	24	5205
2026-01-11 10:48:42.30	252.58	68.87	-32.0	-35.0	9.9	1.02e-02	0	42	0	666894336	24	5098
2026-01-11 10:48:43.30	253.92	68.89	-31.1	-32.7	12.0	1.41e-03	0	42	0	668991488	23	4332
2026-01-11 10:48:44.30	255.27	68.89	-30.3	-31.4	13.7	4.42e-05	0	42	0	670040064	21	4101
2026-01-11 10:48:45.31	256.63	68.88	-30.5	-32.1	13.2	9.10e-06	0	42	0	672137216	21	4304
2026-01-11 10:48:46.31	257.98	68.86	-30.3	-31.3	13.7	1.22e-05	0	42	0	674234368	21	4065
2026-01-11 10:48:47.31	259.32	68.83	-29.6	-30.1	14.7	2.20e-06	0	42	0	676331520	20	3808
2026-01-11 10:48:48.31	260.66	68.79	-29.0	-29.1	15.7	0.00e+00	0	42	0	677380096	19	3638
2026-01-11 10:48:49.32	262.01	68.74	-29.6	-30.7	14.8	0.00e+00	0	42	0	679477248	19	4062
2026-01-11 10:48:50.32	263.33	68.68	-30.0	-31.5	14.3	3.80e-06	0	42	0	681574400	19	4282
2026-01-11 10:48:51.33	264.66	68.61	-30.0	-31.2	14.1	7.00e-07	0	42	0	683671552	20	4128
2026-01-11 10:48:52.33	265.97	68.52	-29.9	-31.0	14.2	2.20e-06	0	42	0	685768704	20	4065
2026-01-11 10:48:53.33	267.26	68.43	-29.7	-30.4	14.5	3.80e-06	0	42	0	686817280	20	3889
2026-01-11 10:48:54.34	268.55	68.33	-28.8	-28.7	16.0	0.00e+00	0	42	0	688914432	19	3530
2026-01-11 10:48:55.35	269.83	68.22	-29.1	-29.2	15.6	0.00e+00	0	42	0	691011584	19	3669
2026-01-11 10:48:56.35	271.09	68.09	-30.1	-31.4	14.0	2.20e-06	0	42	0	693108736	20	4166
2026-01-11 10:48:57.35	272.32	67.96	-30.0	-31.1	14.1	3.80e-06	0	42	0	695205888	20	4093
2026-01-11 10:48:58.36	273.56	67.82	-29.4	-29.5	15.1	0.00e+00	0	42	0	696254464	20	3670
2026-01-11 10:48:59.35	274.75	67.67	-29.6	-30.5	14.9	2.20e-06	0	42	0	698351616	19	4008
2026-01-11 10:49:00.35	275.93	67.52	-29.8	-30.7	14.4	0.00e+00	0	42	0	700448768	20	3965
2026-01-11 10:49:01.36	277.11	67.35	-29.4	-29.7	15.0	0.00e+00	0	42	0	702545920	20	3707
2026-01-11 10:49:02.36	278.26	67.18	-29.3	-29.8	15.3	0.00e+00	0	42	0	704643072	19	3807
2026-01-11 10:49:03.36	279.39	66.99	-29.7	-30.7	14.8	7.00e-07	0	42	0	705691648	19	4064
2026-01-11 10:49:04.36	280.50	66.81	-30.4	-32.2	13.5	4.50e-06	0	42	0	707788800	20	4437
2026-01-11 10:49:05.37	281.60	66.61	-30.3	-31.5	13.6	2.74e-05	0	42	0	709885952	21	4126
2026-01-11 10:49:06.37	282.67	66.40	-29.8	-30.7	14.3	1.50e-06	0	42	0	711983104	20	3994
2026-01-11 10:49:07.38	283.73	66.19	-29.2	-29.5	15.5	0.00e+00	0	42	0	714080256	19	3745
2026-01-11 10:49:08.38	284.75	65.97	-29.4	-30.2	15.1	0.00e+00	0	42	0	715128832	19	3921
2026-01-11 10:49:09.38	285.76	65.75	-29.3	-29.9	15.3	0.00e+00	0	42	0	717225984	19	3838
2026-01-11 10:49:10.38	286.75	65.52	-28.8	-28.6	16.0	0.00e+00	0	42	0	719323136	19	3522
2026-01-11 10:49:11.38	287.72	65.29	-27.6	-27.4	17.5	1.50e-06	0	42	0	721420288	16	3519
2026-01-11 10:49:12.38	288.66	65.05	-26.8	-26.5	18.3	0.00e+00	0	42	0	723517440	14	3496
2026-01-11 10:49:13.39	289.60	64.80	-27.1	-27.3	17.8	0.00e+00	0	42	0	724566016	14	3672
2026-01-11 10:49:14.40	290.51	64.55	-28.2	-28.7	16.7	7.00e-07	0	42	0	726663168	16	3832
2026-01-11 10:49:15.40	291.40	64.29	-28.4	-28.7	16.4	0.00e+00	0	42	0	728760320	17	3738
2026-01-11 10:49:16.41	292.27	64.03	-28.0	-27.7	17.0	0.00e+00	0	42	0	730857472	17	3497
2026-01-11 10:49:17.42	293.13	63.77	-28.1	-28.0	16.8	0.00e+00	0	42	0	732954624	17	3563
2026-01-11 10:49:18.42	293.96	63.50	-28.7	-29.5	15.9	0.00e+00	0	42	0	734003200	17	3951
2026-01-11 10:49:19.41	294.76	63.23	-29.2	-30.1	15.3	0.00e+00	0	42	0	736100352	18	4037
2026-01-11 10:49:20.42	295.56	62.95	-28.2	-28.3	16.5	0.00e+00	0	42	0	738197504	17	3653
2026-01-11 10:49:21.42	296.33	62.68	-27.0	-26.6	17.9	0.00e+00	0	42	0	740294656	15	3418
2026-01-11 10:49:22.43	297.09	62.39	-27.4	-27.5	17.4	0.00e+00	0	42	0	742391808	15	3653
2026-01-11 10:49:23.43	297.83	62.11	-26.8	-28.5	15.1	0.00e+00	0	42	0	743440384	14	4409
2026-01-11 10:49:24.44	298.56	61.82	-25.5	-28.5	13.7	1.50e-06	0	42	0	745537536	12	5072
2026-01-11 10:49:25.45	299.27	61.53	-25.5	-28.6	14.2	1.50e-06	0	42	0	747634688	11	5130
2026-01-11 10:49:26.45	299.95	61.24	-26.4	-28.2	16.0	0.00e+00	0	42	0	749731840	12	4459
2026-01-11 10:49:27.46	300.63	60.94	-27.5	-28.8	16.4	0.00e+00	0	42	0	750780416	14	4183
2026-01-11 10:49:28.46	301.29	60.64	-27.6	-28.3	16.7	0.00e+00	0	42	0	752877568	15	3872
2026-01-11 10:49:29.46	301.93	60.35	-28.4	-29.4	16.0	0.00e+00	0	42	0	754974720	16	4069
2026-01-11 10:49:30.45	302.55	60.05	-28.8	-29.8	15.6	0.00e+00	0	42	0	757071872	17	4068
2026-01-11 10:49:31.45	303.16	59.75	-28.5	-29.1	16.1	0.00e+00	0	42	0	759169024	17	3848
2026-01-11 10:49:32.45	303.76	59.45	-27.8	-27.3	17.2	0.00e+00	0	42	0	760217600	17	3407
2026-01-11 10:49:33.46	304.35	59.14	-28.4	-28.7	16.4	0.00e+00	0	42	0	762314752	17	3723
2026-01-11 10:49:34.46	304.92	58.84	-29.3	-30.5	15.2	0.00e+00	0	42	0	764411904	18	4096
2026-01-11 10:49:35.46	305.48	58.53	-28.4	-28.2	16.4	0.00e+00	0	42	0	766509056	18	3527
2026-01-11 10:49:36.47	306.03	58.22	-26.9	-26.4	18.0	0.00e+00	0	42	0	768606208	15	3383
2026-01-11 10:49:37.47	306.56	57.91	-26.4	-26.1	18.8	0.00e+00	0	42	0	769654784	13	3486
2026-01-11 10:49:38.47	307.08	57.61	-26.7	-26.9	18.3	0.00e+00	0	42	0	771751936	13	3676
2026-01-11 10:49:39.47	307.59	57.30	-27.3	-27.7	17.6	0.00e+00	0	42	0	773849088	14	3771
2026-01-11 10:49:40.48	308.10	56.99	-27.1	-27.3	17.9	0.00e+00	0	42	0	775946240	14	3672
2026-01-11 10:49:41.48	308.58	56.68	-27.3	-27.6	17.7	0.00e+00	0	42	0	778043392	14	3756
2026-01-11 10:49:42.48	309.06	56.37	-27.5	-27.7	17.3	0.00e+00	0	42	0	779091968	15	3688
2026-01-11 10:49:43.48	309.53	56.06	-27.6	-27.9	17.3	0.00e+00	0	42	0	781189120	15	3717
2026-01-11 10:49:44.49	309.99	55.75	-27.2	-27.0	17.8	0.00e+00	0	42	0	783286272	15	3510
2026-01-11 10:49:45.49	310.43	55.44	-27.4	-27.4	17.5	0.00e+00	0	42	0	785383424	15	3614
2026-01-11 10:49:46.50	310.87	55.13	-27.5	-27.6	17.2	0.00e+00	0	42	0	787480576	15	3653
2026-01-11 10:49:47.51	311.30	54.82	-27.2	-27.1	17.7	0.00e+00	0	42	0	788529152	15	3535
2026-01-11 10:49:48.50	311.72	54.51	-27.3	-27.2	17.6	0.00e+00	0	42	0	790626304	15	3555
2026-01-11 10:49:49.51	312.13	54.20	-28.0	-28.7	16.8	0.00e+00	0	42	0	792723456	15	3935
2026-01-11 10:49:50.52	312.53	53.89	-28.9	-29.9	15.8	0.00e+00	0	42	0	794820608	17	4033
2026-01-11 10:49:51.52	312.93	53.58	-29.7	-30.8	14.7	0.00e+00	0	42	0	796917760	19	4097
2026-01-11 10:49:52.52	313.31	53.28	-28.8	-29.1	15.9	0.00e+00	0	42	0	797966336	18	3730
2026-01-11 10:49:53.52	313.68	52.97	-28.8	-29.2	15.8	0.00e+00	0	42	0	800063488	18	3742
2026-01-11 10:49:54.52	314.05	52.67	-28.6	-28.6	16.3	0.00e+00	0	42	0	802160640	18	3607
2026-01-11 10:49:55.51	314.41	52.37	-28.9	-29.2	15.9	0.00e+00	0	42	0	804257792	18	3764
2026-01-11 10:49:56.51	314.76	52.06	-29.5	-30.4	14.9	0.00e+00	0	42	0	805306368	19	3994
2026-01-11 10:49:57.51	315.11	51.76	-30.8	-32.9	12.6	4.50e-05	0	42	0	807403520	21	4567
2026-01-11 10:49:58.52	315.45	51.46	-31.0	-32.9	12.3	2.72e-04	0	42	0	809500672	22	4488
2026-01-11 10:49:59.52	315.79	51.15	-30.6	-31.8	13.0	9.15e-05	0	42	0	811597824	22	4153
2026-01-11 10:50:00.53	316.11	50.85	-30.7	-32.0	12.8	5.41e-05	0	42	0	813694976	22	4201
2026-01-11 10:50:01.53	316.43	50.55	-31.1	-33.1	12.1	1.31e-04	0	42	0	814743552	22	4556
2026-01-11 10:50:02.53	316.75	50.25	-31.0	-33.0	12.1	3.23e-04	0	42	0	816840704	22	4515
2026-01-11 10:50:03.53	317.06	49.96	-30.9	-32.7	12.4	2.20e-04	0	42	0	818937856	22	4401
2026-01-11 10:50:04.53	317.36	49.66	-31.0	-33.0	12.1	2.35e-04	0	42	0	821035008	22	4520
2026-01-11 10:50:05.54	317.66	49.36	-31.3	-33.9	11.5	6.87e-04	0	42	0	823132160	22	4849
2026-01-11 10:50:06.54	317.95	49.07	-31.2	-33.5	11.8	2.19e-04	0	42	0	824180736	22	4701
2026-01-11 10:50:07.54	318.23	48.78	-30.9	-32.5	12.5	1.96e-04	0	42	0	826277888	22	4352
2026-01-11 10:50:08.54	318.51	48.49	-29.9	-30.3	14.2	2.21e-05	0	42	0	828375040	21	3772
2026-01-11 10:50:09.56	318.79	48.19	-28.7	-29.0	16.0	0.00e+00	0	42	0	830472192	18	3702
2026-01-11 10:50:10.56	319.06	47.90	-28.5	-28.4	16.3	0.00e+00	0	42	0	832569344	18	3551
2026-01-11 10:50:11.57	319.33	47.61	-29.6	-30.5	14.8	0.00e+00	0	42	0	833617920	19	4028
2026-01-11 10:50:12.57	319.59	47.33	-30.9	-33.3	12.3	1.14e-05	0	42	0	835715072	21	4715
2026-01-11 10:50:13.58	319.84	47.04	-31.3	-33.9	11.3	7.36e-04	0	42	0	837812224	22	4861
2026-01-11 10:50:14.59	320.10	46.76	-30.2	-31.4	13.5	6.79e-05	0	42	0	839909376	21	4098
2026-01-11 10:50:15.59	320.34	46.47	-29.4	-30.0	15.1	0.00e+00	0	42	0	842006528	19	3882
2026-01-11 10:50:16.59	320.59	46.19	-28.8	-29.1	15.9	0.00e+00	0	42	0	843055104	18	3740
2026-01-11 10:50:17.59	320.82	45.91	-29.1	-29.8	15.5	0.00e+00	0	42	0	845152256	18	3905
2026-01-11 10:50:18.59	321.06	45.64	-29.2	-30.1	15.3	0.00e+00	0	42	0	847249408	18	4001
2026-01-11 10:50:19.60	321.29	45.36	-29.5	-30.5	14.8	0.00e+00	0	42	0	849346560	19	4002
2026-01-11 10:50:20.60	321.51	45.08	-30.1	-31.3	13.9	1.50e-06	0	42	0	850395136	20	4175
2026-01-11 10:50:21.61	321.74	44.81	-30.7	-32.6	12.7	3.73e-05	0	42	0	852492288	21	4500
2026-01-11 10:50:22.61	321.96	44.54	-30.8	-32.8	12.6	1.62e-04	0	42	0	854589440	21	4559
2026-01-11 10:50:23.62	322.17	44.26	-30.2	-31.3	13.5	2.51e-05	0	42	0	856686592	21	4089
2026-01-11 10:50:24.62	322.38	43.99	-29.5	-30.0	14.6	0.00e+00	0	42	0	858783744	20	3804
2026-01-11 10:50:25.63	322.59	43.72	-28.9	-28.9	15.8	0.00e+00	0	42	0	860880896	19	3586
2026-01-11 10:50:26.63	322.80	43.46	-28.6	-28.6	16.3	0.00e+00	0	42	0	861929472	18	3604
2026-01-11 10:50:27.64	323.00	43.19	-29.0	-29.7	15.5	0.00e+00	0	42	0	864026624	18	3883
2026-01-11 10:50:28.63	323.20	42.93	-29.8	-31.2	14.3	0.00e+00	0	42	0	866123776	19	4233
2026-01-11 10:50:29.63	323.39	42.67	-30.4	-32.4	13.2	9.90e-06	0	42	0	868220928	20	4495
2026-01-11 10:50:30.63	323.58	42.41	-30.7	-32.7	12.7	7.55e-05	0	42	0	869269504	21	4503
2026-01-11 10:50:31.63	323.77	42.15	-30.2	-31.2	13.6	1.60e-05	0	42	0	871366656	21	4055
2026-01-11 10:50:32.63	323.96	41.89	-29.5	-29.8	14.8	7.00e-07	0	42	0	873463808	20	3754
2026-01-11 10:50:33.62	324.14	41.64	-29.4	-29.7	14.8	0.00e+00	0	42	0	875560960	20	3720
2026-01-11 10:50:34.63	324.32	41.38	-29.2	-29.5	15.3	7.00e-07	0	42	0	877658112	19	3752
2026-01-11 10:50:35.62	324.49	41.13	-29.2	-29.6	15.3	0.00e+00	0	42	0	878706688	19	3767
2026-01-11 10:50:36.63	324.67	40.88	-30.0	-31.6	14.0	0.00e+00	0	42	0	880803840	19	4336
2026-01-11 10:50:37.64	324.84	40.63	-30.8	-32.8	12.5	4.04e-05	0	42	0	882900992	21	4564
2026-01-11 10:50:38.64	325.01	40.38	-31.6	-34.3	10.8	1.02e-03	0	42	0	884998144	23	4922
2026-01-11 10:50:39.64	325.18	40.13	-32.1	-35.7	9.4	1.04e-02	0	42	0	887095296	24	5422
2026-01-11 10:50:40.64	325.34	39.89	-32.4	-36.4	8.4	4.23e-02	0	42	0	888143872	25	5711
2026-01-11 10:50:41.63	325.50	39.65	-32.3	-35.9	8.7	3.60e-02	0	42	0	890241024	25	5471
2026-01-11 10:50:42.64	325.66	39.40	-32.3	-35.7	9.0	2.42e-02	0	42	0	892338176	25	5351
2026-01-11 10:50:43.64	325.82	39.16	-31.6	-34.0	10.5	2.00e-02	0	42	0	894435328	24	4712
2026-01-11 10:50:44.64	325.98	38.92	-30.4	-31.3	13.1	8.92e-05	0	42	0	896532480	22	3999
2026-01-11 10:50:45.64	326.13	38.68	-29.4	-29.6	14.8	3.80e-06	0	42	0	897581056	20	3694
2026-01-11 10:50:46.64	326.28	38.45	-29.1	-29.4	15.3	0.00e+00	0	42	0	899678208	19	3726
2026-01-11 10:50:47.64	326.43	38.21	-29.2	-29.6	15.2	0.00e+00	0	42	0	901775360	19	3773
2026-01-11 10:50:48.64	326.57	37.98	-29.7	-30.8	14.5	0.00e+00	0	42	0	903872512	19	4120
2026-01-11 10:50:49.64	326.72	37.74	-30.6	-32.4	12.8	1.83e-05	0	42	0	904921088	21	4412
2026-01-11 10:50:50.64	326.86	37.51	-30.8	-33.0	12.3	1.43e-04	0	42	0	907018240	21	4644
2026-01-11 10:50:51.64	327.00	37.28	-31.3	-34.1	11.3	8.03e-04	0	42	0	909115392	22	4926
2026-01-11 10:50:52.64	327.14	37.06	-31.3	-33.5	11.3	2.46e-03	0	42	0	911212544	23	4638
2026-01-11 10:50:53.64	327.28	36.83	-30.8	-32.0	12.4	4.10e-04	0	42	0	913309696	23	4122
2026-01-11 10:50:54.64	327.41	36.60	-30.6	-31.8	12.9	1.41e-04	0	42	0	914358272	22	4157
2026-01-11 10:50:55.65	327.55	36.38	-30.4	-31.4	13.1	3.20e-05	0	42	0	916455424	22	4024
2026-01-11 10:50:56.65	327.68	36.16	-30.5	-31.7	13.0	3.50e-05	0	42	0	918552576	22	4097
2026-01-11 10:50:57.64	327.81	35.94	-30.4	-31.3	13.2	6.02e-05	0	42	0	920649728	22	3996
2026-01-11 10:50:58.64	327.93	35.72	-30.4	-31.9	13.1	2.13e-05	0	42	0	922746880	21	4261
2026-01-11 10:50:59.65	328.06	35.50	-30.1	-31.1	13.6	3.66e-05	0	42	0	923795456	21	4007
2026-01-11 10:51:00.65	328.19	35.28	-29.9	-30.4	14.0	3.00e-06	0	42	0	925892608	21	3816
2026-01-11 10:51:01.65	328.31	35.06	-29.9	-31.1	13.9	3.80e-06	0	42	0	927989760	20	4113
2026-01-11 10:51:02.65	328.43	34.85	-30.0	-31.1	13.9	7.00e-07	0	42	0	930086912	20	4115
2026-01-11 10:51:03.64	328.55	34.64	-30.3	-32.2	13.2	9.10e-06	0	42	0	931135488	20	4450
2026-01-11 10:51:04.64	328.67	34.43	-30.8	-32.9	12.4	4.80e-05	0	42	0	933232640	21	4587
2026-01-11 10:51:05.64	328.78	34.22	-31.4	-34.4	11.1	5.34e-04	0	42	0	935329792	22	5045
2026-01-11 10:51:06.65	328.90	34.01	-31.8	-35.2	10.1	5.18e-03	0	42	0	937426944	23	5289
2026-01-11 10:51:07.64	329.01	33.80	-32.1	-35.8	9.2	8.49e-03	0	42	0	939524096	24	5471
2026-01-11 10:51:08.63	329.13	33.60	-32.3	-36.6	8.6	3.66e-02	0	42	0	940572672	24	5857
2026-01-11 10:51:09.63	329.24	33.39	-32.3	-36.3	8.9	2.38e-02	0	42	0	942669824	24	5729
2026-01-11 10:51:10.64	329.35	33.18	-32.4	-36.8	8.4	4.23e-02	0	42	0	944766976	24	5990
2026-01-11 10:51:11.64	329.46	32.98	-32.2	-36.2	8.8	3.87e-02	0	42	0	946864128	24	5674
2026-01-11 10:51:12.64	329.56	32.78	-32.0	-35.4	9.5	1.31e-02	0	42	0	948961280	24	5318
2026-01-11 10:51:13.64	329.67	32.58	-32.0	-35.3	9.6	1.09e-02	0	42	0	950009856	24	5275
2026-01-11 10:51:14.64	329.78	32.38	-31.9	-34.9	9.9	1.03e-02	0	42	0	952107008	24	5072
2026-01-11 10:51:15.64	329.88	32.18	-31.9	-34.9	9.9	8.62e-03	0	42	0	954204160	24	5098
2026-01-11 10:51:16.65	329.98	31.98	-31.6	-33.8	10.6	5.49e-03	0	42	0	956301312	24	4663
2026-01-11 10:51:17.65	330.08	31.79	-31.1	-32.8	11.7	1.52e-03	0	42	0	958398464	23	4391
2026-01-11 10:51:18.65	330.18	31.60	-30.9	-32.1	12.3	4.82e-04	0	42	0	959447040	23	4148
2026-01-11 10:51:19.64	330.28	31.40	-30.9	-32.6	12.2	9.30e-05	0	42	0	961544192	22	4410
2026-01-11 10:51:20.65	330.38	31.21	-30.9	-32.7	12.2	1.91e-04	0	42	0	963641344	22	4429
2026-01-11 10:51:21.65	330.48	31.02	-30.9	-32.6	12.3	1.79e-04	0	42	0	965738496	22	4387
2026-01-11 10:51:22.65	330.57	30.83	-31.2	-33.6	11.6	4.90e-04	0	42	0	966787072	22	4749
2026-01-11 10:51:23.66	330.67	30.64	-31.5	-34.5	10.9	1.45e-03	0	42	0	968884224	22	5094
2026-01-11 10:51:24.66	330.76	30.45	-31.6	-34.4	10.6	4.44e-03	0	42	0	970981376	23	4977
2026-01-11 10:51:25.66	330.86	30.27	-31.7	-34.8	10.4	2.97e-03	0	42	0	973078528	23	5133
2026-01-11 10:51:26.66	330.95	30.08	-31.8	-35.2	10.0	4.07e-03	0	42	0	975175680	23	5328
2026-01-11 10:51:27.66	331.04	29.90	-31.8	-35.0	10.0	1.07e-02	0	42	0	976224256	23	5245
2026-01-11 10:51:28.66	331.13	29.72	-31.7	-34.6	10.4	7.69e-03	0	42	0	978321408	23	5067
2026-01-11 10:51:29.67	331.22	29.53	-31.5	-34.1	10.8	3.36e-03	0	42	0	980418560	23	4848
2026-01-11 10:51:30.67	331.30	29.35	-31.3	-33.6	11.2	1.52e-03	0	42	0	982515712	23	4688
2026-01-11 10:51:31.68	331.39	29.17	-31.2	-33.3	11.3	1.21e-03	0	42	0	984612864	23	4579
2026-01-11 10:51:32.68	331.48	28.99	-31.4	-33.8	10.9	2.22e-03	0	42	0	985661440	23	4770
2026-01-11 10:51:33.67	331.56	28.82	-31.1	-32.9	11.7	9.01e-04	0	42	0	987758592	23	4424
2026-01-11 10:51:34.67	331.65	28.64	-30.9	-32.4	12.0	4.61e-04	0	42	0	989855744	23	4241
2026-01-11 10:51:35.67	331.73	28.47	-30.4	-31.4	13.0	2.20e-04	0	42	0	991952896	22	4042
2026-01-11 10:51:36.68	331.81	28.29	-30.1	-30.9	13.6	1.37e-05	0	42	0	994050048	21	3984
2026-01-11 10:51:37.67	331.89	28.12	-29.9	-30.4	13.9	8.30e-06	0	42	0	995098624	21	3826
2026-01-11 10:51:38.67	331.97	27.95	-29.5	-29.9	14.6	7.00e-07	0	42	0	997195776	20	3774
2026-01-11 10:51:39.67	332.05	27.78	-29.6	-30.2	14.3	7.00e-07	0	42	0	999292928	20	3874
2026-01-11 10:51:40.67	332.13	27.61	-29.2	-29.6	15.0	7.00e-07	0	42	0	1001390080	19	3796
2026-01-11 10:51:41.68	332.21	27.44	-28.8	-29.1	15.7	0.00e+00	0	42	0	1003487232	18	3755
2026-01-11 10:51:42.68	332.29	27.27	-28.4	-28.2	16.2	0.00e+00	0	42	0	1004535808	18	3534
2026-01-11 10:51:43.68	332.37	27.10	-28.4	-28.3	16.2	0.00e+00	0	42	0	1006632960	18	3544
2026-01-11 10:51:44.69	332.44	26.93	-28.7	-29.1	15.7	0.00e+00	0	42	0	1008730112	18	3762
2026-01-11 10:51:45.69	332.52	26.77	-29.0	-29.7	15.3	0.00e+00	0	42	0	1010827264	18	3903
2026-01-11 10:51:46.70	332.59	26.60	-29.3	-30.5	14.8	0.00e+00	0	42	0	1011875840	18	4138
2026-01-11 10:51:47.71	332.67	26.44	-29.7	-30.9	14.3	7.00e-07	0	42	0	1013972992	19	4161
2026-01-11 10:51:48.72	332.74	26.28	-30.0	-31.3	13.7	4.50e-06	0	42	0	1016070144	20	4178
2026-01-11 10:51:49.73	332.81	26.11	-30.1	-31.7	13.3	1.22e-05	0	42	0	1018167296	20	4319
2026-01-11 10:51:50.73	332.89	25.95	-30.2	-31.9	13.2	2.82e-05	0	42	0	1020264448	20	4374
2026-01-11 10:51:51.74	332.96	25.79	-30.4	-32.4	13.0	2.74e-05	0	42	0	1021313024	20	4528
2026-01-11 10:51:52.75	333.03	25.63	-30.1	-31.6	13.4	2.59e-05	0	42	0	1023410176	20	4295
2026-01-11 10:51:53.75	333.10	25.47	-30.1	-31.7	13.3	1.44e-05	0	42	0	1025507328	20	4343
2026-01-11 10:51:54.75	333.17	25.32	-30.0	-31.4	13.4	1.60e-05	0	42	0	1027604480	20	4261
2026-01-11 10:51:55.75	333.24	25.16	-29.6	-30.4	14.1	3.00e-06	0	42	0	1029701632	20	3952
2026-01-11 10:51:56.75	333.30	25.01	-29.5	-30.0	14.4	1.50e-06	0	42	0	1030750208	20	3830
2026-01-11 10:51:57.75	333.37	24.85	-29.6	-30.2	14.3	7.00e-07	0	42	0	1032847360	20	3873
2026-01-11 10:51:58.75	333.44	24.70	-29.5	-30.0	14.4	0.00e+00	0	42	0	1034944512	20	3818
2026-01-11 10:51:59.76	333.50	24.55	-29.7	-30.6	14.1	0.00e+00	0	42	0	1037041664	20	3978
2026-01-11 10:52:00.75	333.57	24.40	-29.5	-30.1	14.3	3.00e-06	0	42	0	1039138816	20	3857
2026-01-11 10:52:01.76	333.63	24.24	-29.6	-30.2	14.2	1.50e-06	0	42	0	1040187392	20	3891
2026-01-11 10:52:02.75	333.70	24.10	-29.6	-30.4	14.1	2.20e-06	0	42	0	1042284544	20	3944
2026-01-11 10:52:03.76	333.76	23.94	-29.7	-30.5	14.1	7.00e-07	0	42	0	1044381696	20	3966
2026-01-11 10:52:04.76	333.82	23.80	-29.4	-30.0	14.4	1.50e-06	0	42	0	1046478848	20	3827
2026-01-11 10:52:05.76	333.89	23.65	-29.4	-30.3	14.5	7.00e-07	0	42	0	1048576000	19	3997
2026-01-11 10:52:06.76	333.95	23.50	-29.4	-30.3	14.5	0.00e+00	0	42	0	1049624576	19	3998
2026-01-11 10:52:07.77	334.01	23.36	-29.2	-29.8	14.8	0.00e+00	0	42	0	1051721728	19	3851
2026-01-11 10:52:08.77	334.07	23.21	-29.4	-30.3	14.5	0.00e+00	0	42	0	1053818880	19	3998
2026-01-11 10:52:09.78	334.13	23.07	-29.3	-30.0	14.7	0.00e+00	0	42	0	1055916032	19	3899
2026-01-11 10:52:10.78	334.19	22.92	-29.1	-29.6	14.9	0.00e+00	0	42	0	1058013184	19	3810
2026-01-11 10:52:11.78	334.25	22.78	-29.2	-29.8	14.8	0.00e+00	0	42	0	1059061760	19	3859
2026-01-11 10:52:12.78	334.31	22.64	-29.2	-29.8	14.7	7.00e-07	0	42	0	1061158912	19	3868
2026-01-11 10:52:13.78	334.37	22.50	-29.2	-29.8	14.9	0.00e+00	0	42	0	1063256064	19	3850
2026-01-11 10:52:14.79	334.43	22.36	-29.2	-29.9	14.7	0.00e+00	0	42	0	1065353216	19	3889
2026-01-11 10:52:15.79	334.48	22.22	-29.0	-29.3	15.2	0.00e+00	0	42	0	1066401792	19	3715
2026-01-11 10:52:16.79	334.54	22.08	-29.1	-29.4	15.0	7.00e-07	0	42	0	1068498944	19	3755
2026-01-11 10:52:17.79	334.60	21.94	-28.9	-29.2	15.1	0.00e+00	0	42	0	1070596096	19	3689
2026-01-11 10:52:18.79	334.65	21.80	-28.7	-29.0	15.6	0.00e+00	0	42	0	1072693248	18	3746
2026-01-11 10:52:19.79	334.71	21.66	-28.6	-28.8	15.7	0.00e+00	0	42	0	1074790400	18	3695
2026-01-11 10:52:20.79	334.76	21.53	-28.8	-29.2	15.5	0.00e+00	0	42	0	1075838976	18	3787
2026-01-11 10:52:21.80	334.82	21.39	-28.5	-28.7	15.8	0.00e+00	0	42	0	1077936128	18	3653
2026-01-11 10:52:22.80	334.87	21.26	-28.3	-28.1	16.1	0.00e+00	0	42	0	1080033280	18	3512
2026-01-11 10:52:23.80	334.93	21.12	-28.4	-28.3	16.0	0.00e+00	0	42	0	1082130432	18	3556
2026-01-11 10:52:24.80	334.98	20.99	-28.3	-28.1	16.1	0.00e+00	0	42	0	1084227584	18	3522
2026-01-11 10:52:25.81	335.03	20.86	-28.1	-28.1	16.3	0.00e+00	0	42	0	1085276160	17	3608
2026-01-11 10:52:26.82	335.09	20.72	-28.1	-28.1	16.4	0.00e+00	0	42	0	1087373312	17	3597
2026-01-11 10:52:27.82	335.14	20.59	-28.3	-28.5	16.1	0.00e+00	0	42	0	1089470464	17	3701
2026-01-11 10:52:28.83	335.19	20.46	-28.1	-28.2	16.3	0.00e+00	0	42	0	1091567616	17	3622
2026-01-11 10:52:29.84	335.24	20.33	-28.0	-27.9	16.4	0.00e+00	0	42	0	1093664768	17	3561
2026-01-11 10:52:30.85	335.29	20.20	-28.1	-28.1	16.3	0.00e+00	0	42	0	1094713344	17	3602
2026-01-11 10:52:31.84	335.34	20.07	-28.0	-27.9	16.4	7.00e-07	0	42	0	1096810496	17	3553
2026-01-11 10:52:32.85	335.39	19.94	-28.1	-28.2	16.3	0.00e+00	0	42	0	1098907648	17	3630
2026-01-11 10:52:33.86	335.44	19.82	-28.2	-28.5	16.1	7.00e-07	0	42	0	1101004800	17	3685
2026-01-11 10:52:34.87	335.49	19.69	-28.4	-28.8	15.9	0.00e+00	0	42	0	1103101952	17	3771
2026-01-11 10:52:35.87	335.54	19.56	-28.5	-29.1	15.8	0.00e+00	0	42	0	1104150528	17	3846
2026-01-11 10:52:36.88	335.59	19.44	-28.5	-29.0	15.8	0.00e+00	0	42	0	1106247680	17	3828
2026-01-11 10:52:37.89	335.64	19.31	-28.5	-29.1	15.8	0.00e+00	0	42	0	1108344832	17	3856
2026-01-11 10:52:38.90	335.69	19.18	-28.6	-29.3	15.6	0.00e+00	0	42	0	1110441984	17	3912
2026-01-11 10:52:39.90	335.74	19.06	-28.8	-29.9	15.3	7.00e-07	0	42	0	1112539136	17	4073
2026-01-11 10:52:40.91	335.78	18.94	-28.9	-30.1	15.1	0.00e+00	0	42	0	1113587712	17	4137
2026-01-11 10:52:41.91	335.83	18.81	-29.0	-30.3	15.0	0.00e+00	0	42	0	1115684864	17	4180
2026-01-11 10:52:42.92	335.88	18.69	-29.2	-30.3	14.7	7.00e-07	0	42	0	1117782016	18	4101
2026-01-11 10:52:43.92	335.92	18.57	-29.3	-30.5	14.5	0.00e+00	0	42	0	1119879168	18	4169
2026-01-11 10:52:44.93	335.97	18.45	-29.3	-30.7	14.5	2.20e-06	0	42	0	1121976320	18	4225
2026-01-11 10:52:45.93	336.02	18.33	-29.6	-30.9	14.0	3.80e-06	0	42	0	1123024896	19	4188
2026-01-11 10:52:46.94	336.06	18.21	-29.7	-31.0	13.9	3.00e-06	0	42	0	1125122048	19	4211
2026-01-11 10:52:47.94	336.11	18.09	-29.9	-31.6	13.6	9.10e-06	0	42	0	1127219200	19	4383
2026-01-11 10:52:48.93	336.15	17.97	-29.8	-31.5	13.6	1.60e-05	0	42	0	1129316352	19	4348
2026-01-11 10:52:49.93	336.19	17.86	-30.0	-31.4	13.3	1.75e-05	0	42	0	1131413504	20	4244
2026-01-11 10:52:50.93	336.24	17.74	-29.9	-31.3	13.3	1.90e-05	0	42	0	1132462080	20	4215
2026-01-11 10:52:51.94	336.28	17.62	-30.3	-32.4	12.6	3.66e-05	0	42	0	1134559232	20	4564
2026-01-11 10:52:52.94	336.33	17.50	-30.0	-31.5	13.2	6.02e-05	0	42	0	1136656384	20	4280
2026-01-11 10:52:53.95	336.37	17.39	-29.7	-30.7	13.7	6.80e-06	0	42	0	1138753536	20	4036
2026-01-11 10:52:54.95	336.41	17.27	-29.6	-30.4	13.9	6.80e-06	0	42	0	1139802112	20	3943
2026-01-11 10:52:55.95	336.45	17.16	-29.5	-30.1	14.1	3.80e-06	0	42	0	1141899264	20	3868
2026-01-11 10:52:56.95	336.50	17.04	-29.3	-29.6	14.4	0.00e+00	0	42	0	1143996416	20	3735
2026-01-11 10:52:57.96	336.54	16.93	-29.3	-29.7	14.3	1.50e-06	0	42	0	1146093568	20	3756
2026-01-11 10:52:58.97	336.58	16.82	-29.5	-30.0	14.1	2.20e-06	0	42	0	1148190720	20	3849
2026-01-11 10:52:59.96	336.62	16.70	-29.3	-29.7	14.3	5.30e-06	0	42	0	1149239296	20	3755
2026-01-11 10:53:00.96	336.66	16.59	-29.3	-30.0	14.5	0.00e+00	0	42	0	1151336448	19	3919
2026-01-11 10:53:01.96	336.70	16.48	-29.1	-29.7	14.7	0.00e+00	0	42	0	1153433600	19	3835
2026-01-11 10:53:02.96	336.74	16.37	-29.1	-29.6	14.7	1.50e-06	0	42	0	1155530752	19	3817
2026-01-11 10:53:03.97	336.78	16.26	-29.0	-29.4	14.8	7.00e-07	0	42	0	1157627904	19	3764
2026-01-11 10:53:04.97	336.82	16.15	-29.2	-29.8	14.6	7.00e-07	0	42	0	1158676480	19	3863
2026-01-11 10:53:05.97	336.86	16.04	-29.1	-29.6	14.7	7.00e-07	0	42	0	1160773632	19	3812
2026-01-11 10:53:06.97	336.90	15.93	-29.0	-29.3	14.9	0.00e+00	0	42	0	1162870784	19	3734
2026-01-11 10:53:07.97	336.94	15.82	-29.0	-29.4	14.8	0.00e+00	0	42	0	1164967936	19	3761
2026-01-11 10:53:08.97	336.98	15.72	-29.2	-29.8	14.6	0.00e+00	0	42	0	1167065088	19	3877
2026-01-11 10:53:09.97	337.02	15.61	-29.1	-29.7	14.6	0.00e+00	0	42	0	1168113664	19	3857
2026-01-11 10:53:10.97	337.06	15.50	-29.2	-29.9	14.5	7.00e-07	0	42	0	1170210816	19	3896
2026-01-11 10:53:11.98	337.10	15.39	-29.3	-30.2	14.3	0.00e+00	0	42	0	1172307968	19	3991
2026-01-11 10:53:12.97	337.13	15.29	-29.4	-30.3	14.2	7.00e-07	0	42	0	1174405120	19	4016
2026-01-11 10:53:13.97	337.17	15.18	-29.4	-30.3	14.2	0.00e+00	0	42	0	1176502272	19	4023
2026-01-11 10:53:14.97	337.21	15.08	-29.5	-30.6	14.0	3.00e-06	0	42	0	1177550848	19	4094
2026-01-11 10:53:15.97	337.25	14.97	-29.9	-31.7	13.3	4.50e-06	0	42	0	1179648000	19	4437
2026-01-11 10:53:16.98	337.28	14.87	-29.7	-31.3	13.6	1.75e-05	0	42	0	1181745152	19	4310
2026-01-11 10:53:17.97	337.32	14.76	-29.6	-31.1	13.7	4.50e-06	0	42	0	1183842304	19	4233
2026-01-11 10:53:18.97	337.36	14.66	-29.7	-31.2	13.7	6.80e-06	0	42	0	1184890880	19	4272
2026-01-11 10:53:19.97	337.39	14.56	-29.8	-31.3	13.5	4.50e-06	0	42	0	1186988032	19	4324
2026-01-11 10:53:20.97	337.43	14.46	-29.8	-31.5	13.4	1.52e-05	0	42	0	1189085184	19	4373
2026-01-11 10:53:21.97	337.46	14.35	-29.8	-31.6	13.4	9.90e-06	0	42	0	1191182336	19	4398
2026-01-11 10:53:22.97	337.50	14.25	-29.8	-31.6	13.4	2.21e-05	0	42	0	1193279488	19	4405
2026-01-11 10:53:23.97	337.54	14.15	-29.9	-31.7	13.3	1.98e-05	0	42	0	1194328064	19	4446
2026-01-11 10:53:24.96	337.57	14.05	-29.9	-31.9	13.2	1.75e-05	0	42	0	1196425216	19	4504
2026-01-11 10:53:25.97	337.61	13.95	-29.8	-30.9	13.4	1.67e-05	0	42	0	1198522368	20	4120
2026-01-11 10:53:26.97	337.64	13.85	-29.9	-31.3	13.1	2.44e-05	0	42	0	1200619520	20	4237
2026-01-11 10:53:27.97	337.68	13.75	-29.9	-31.4	13.0	3.89e-05	0	42	0	1202716672	20	4253
2026-01-11 10:53:28.96	337.71	13.65	-29.8	-31.0	13.3	1.44e-05	0	42	0	1203765248	20	4155
2026-01-11 10:53:29.96	337.74	13.55	-29.9	-31.3	13.1	2.44e-05	0	42	0	1205862400	20	4248
2026-01-11 10:53:30.97	337.78	13.45	-29.9	-31.3	13.1	3.05e-05	0	42	0	1207959552	20	4245
2026-01-11 10:53:31.97	337.81	13.35	-30.0	-31.5	12.9	4.27e-05	0	42	0	1210056704	20	4310
2026-01-11 10:53:32.97	337.85	13.26	-29.9	-31.4	13.0	4.27e-05	0	42	0	1212153856	20	4273
2026-01-11 10:53:33.98	337.88	13.16	-29.9	-31.5	13.0	4.19e-05	0	42	0	1213202432	20	4288
2026-01-11 10:53:34.97	337.91	13.06	-30.0	-31.5	13.0	5.11e-05	0	42	0	1215299584	20	4304
2026-01-11 10:53:35.98	337.95	12.97	-30.0	-31.7	12.8	3.89e-05	0	42	0	1217396736	20	4361
2026-01-11 10:53:36.98	337.98	12.87	-30.0	-31.8	12.7	5.18e-05	0	42	0	1219493888	20	4392
2026-01-11 10:53:37.98	338.01	12.77	-29.9	-31.4	13.0	6.33e-05	0	42	0	1220542464	20	4279
2026-01-11 10:53:38.96	338.04	12.68	-30.1	-31.8	12.7	5.18e-05	0	42	0	1222639616	20	4410
2026-01-11 10:53:39.95	338.07	12.59	-30.0	-31.7	12.8	4.95e-05	0	42	0	1224736768	20	4369
2026-01-11 10:53:40.95	338.11	12.49	-30.1	-31.9	12.7	5.64e-05	0	42	0	1226833920	20	4428
2026-01-11 10:53:41.94	338.14	12.40	-30.0	-31.7	12.7	5.72e-05	0	42	0	1228931072	20	4367
2026-01-11 10:53:42.93	338.17	12.30	-30.0	-31.7	12.8	4.95e-05	0	42	0	1229979648	20	4368
2026-01-11 10:53:43.93	338.20	12.21	-30.2	-32.2	12.4	1.06e-04	0	42	0	1232076800	20	4546
2026-01-11 10:53:44.93	338.23	12.12	-30.0	-31.7	12.7	1.10e-04	0	42	0	1234173952	20	4377
2026-01-11 10:53:45.92	338.26	12.03	-30.0	-31.8	12.6	1.06e-04	0	42	0	1236271104	20	4410
2026-01-11 10:53:46.92	338.30	11.93	-30.1	-32.0	12.5	1.16e-04	0	42	0	1237319680	20	4492
2026-01-11 10:53:47.92	338.33	11.84	-30.0	-31.7	12.7	1.37e-04	0	42	0	1239416832	20	4390
2026-01-11 10:53:48.92	338.36	11.75	-30.0	-31.7	12.7	1.01e-04	0	42	0	1241513984	20	4396
2026-01-11 10:53:49.92	338.39	11.66	-30.0	-31.8	12.6	9.53e-05	0	42	0	1243611136	20	4415
2026-01-11 10:53:50.93	338.42	11.57	-30.1	-32.1	12.4	1.17e-04	0	42	0	1245708288	20	4514
2026-01-11 10:53:51.94	338.45	11.47	-30.1	-32.0	12.4	1.11e-04	0	42	0	1246756864	20	4469
2026-01-11 10:53:52.94	338.48	11.38	-30.0	-31.8	12.6	6.25e-05	0	42	0	1248854016	20	4430
2026-01-11 10:53:53.94	338.51	11.29	-30.1	-32.1	12.3	1.31e-04	0	42	0	1250951168	20	4522
2026-01-11 10:53:54.95	338.54	11.20	-30.0	-31.6	12.7	1.04e-04	0	42	0	1253048320	20	4359
2026-01-11 10:53:55.95	338.57	11.11	-30.0	-31.8	12.6	1.07e-04	0	42	0	1255145472	20	4402
2026-01-11 10:53:56.96	338.60	11.02	-30.1	-31.9	12.5	1.22e-04	0	42	0	1256194048	20	4457
2026-01-11 10:53:57.96	338.63	10.93	-30.0	-31.7	12.6	6.86e-05	0	42	0	1258291200	20	4381
2026-01-11 10:53:58.97	338.66	10.84	-29.9	-31.6	12.7	8.23e-05	0	42	0	1260388352	20	4356
2026-01-11 10:53:59.98	338.69	10.75	-30.0	-31.6	12.7	1.27e-04	0	42	0	1262485504	20	4356
2026-01-11 10:54:00.98	338.72	10.67	-29.9	-31.4	12.8	7.17e-05	0	42	0	1264582656	20	4285
2026-01-11 10:54:01.99	338.74	10.58	-30.0	-31.7	12.6	7.78e-05	0	42	0	1265631232	20	4377
2026-01-11 10:54:02.99	338.77	10.49	-30.1	-32.1	12.3	1.37e-04	0	42	0	1267728384	20	4516
2026-01-11 10:54:04.00	338.80	10.40	-30.0	-31.8	12.5	1.31e-04	0	42	0	1269825536	20	4410
2026-01-11 10:54:05.01	338.83	10.32	-29.9	-31.5	12.7	6.71e-05	0	42	0	1271922688	20	4332
2026-01-11 10:54:06.01	338.86	10.23	-29.9	-31.5	12.7	7.55e-05	0	42	0	1274019840	20	4331
2026-01-11 10:54:07.02	338.89	10.14	-29.8	-31.4	12.8	7.24e-05	0	42	0	1275068416	20	4288
2026-01-11 10:54:08.02	338.91	10.06	-29.8	-31.3	12.8	6.25e-05	0	42	0	1277165568	20	4278
2026-01-11 10:54:09.03	338.94	9.97	-29.8	-31.3	12.8	5.64e-05	0	42	0	1279262720	20	4265
2026-01-11 10:54:10.03	338.97	9.88	-29.8	-31.3	12.8	5.64e-05	0	42	0	1281359872	20	4250
