passes_logs/2026/01/11/R2M6_AANII_01/R2M6_AANII_01__20260111_110341_NOAA_20_JPSS-1_rec.log

#Pass ID: 20260111_110341_NOAA 20 (JPSS-1)
#Satellite: NOAA 20 (JPSS-1)
#Configuration: NOAA 20
#almurnet v.1.7.20240730
#Start time: 2026-01-11 11:03:42

#Version: 2.2.20231116
#Station: R2M6_AANII_01
#Location: 30.233357 lon 59.946436 lat
#TLE: 1 43013U 17073A   26009.69119415  .00000109  00000+0  72598-4 0  9996
#TLE: 2 43013  98.7631 310.6868 0001678  46.7442 313.3874 14.19534878421981

#Time	Az	El	Level	Level2	SNR	BER	BlckErr	Temp	State	Recorded	gain1	gain2
2026-01-11 11:03:42.61	183.59	7.05	-31.0	-36.1	5.3	1.22e+00	0	39	0	0	22	6513
2026-01-11 11:03:43.61	183.64	7.13	-31.3	-37.0	5.1	1.28e+00	0	40	104	0	23	6888
2026-01-11 11:03:44.61	183.68	7.20	-31.4	-37.2	8.2	4.77e-02	0	40	0	0	23	7005
2026-01-11 11:03:45.61	183.73	7.28	-31.4	-37.0	8.3	5.69e-02	0	40	0	1048576	23	6866
2026-01-11 11:03:46.61	183.78	7.35	-31.2	-36.3	8.9	2.96e-02	0	40	0	3145728	23	6442
2026-01-11 11:03:47.61	183.82	7.43	-31.0	-35.4	9.6	2.04e-02	0	40	0	5242880	23	5969
2026-01-11 11:03:48.61	183.87	7.50	-30.8	-34.7	10.1	9.81e-03	0	40	0	7340032	23	5652
2026-01-11 11:03:49.61	183.92	7.58	-30.7	-34.8	10.5	4.33e-03	0	40	0	8388608	22	5781
2026-01-11 11:03:50.61	183.97	7.65	-30.5	-34.2	10.9	2.67e-03	0	40	0	10485760	22	5485
2026-01-11 11:03:51.62	184.02	7.73	-30.6	-34.3	10.9	1.94e-03	0	40	0	12582912	22	5547
2026-01-11 11:03:52.62	184.07	7.81	-30.6	-34.5	10.8	2.20e-03	0	40	0	14680064	22	5637
2026-01-11 11:03:53.62	184.11	7.88	-30.5	-34.0	11.1	2.17e-03	0	40	0	16777216	22	5419
2026-01-11 11:03:54.62	184.16	7.96	-30.4	-33.8	11.3	1.28e-03	0	40	0	17825792	22	5310
2026-01-11 11:03:55.61	184.21	8.04	-30.4	-33.7	11.4	1.02e-03	0	40	0	19922944	22	5269
2026-01-11 11:03:56.61	184.26	8.11	-30.5	-34.0	11.2	1.18e-03	0	40	0	22020096	22	5393
2026-01-11 11:03:57.61	184.31	8.19	-30.5	-33.9	11.2	1.56e-03	0	40	0	24117248	22	5362
2026-01-11 11:03:58.62	184.36	8.27	-30.2	-33.7	11.7	1.05e-03	0	40	0	26214400	21	5380
2026-01-11 11:03:59.62	184.41	8.35	-30.4	-34.3	11.3	9.65e-04	0	40	0	27262976	21	5636
2026-01-11 11:04:00.62	184.46	8.43	-30.4	-34.2	11.4	1.17e-03	0	40	0	29360128	21	5595
2026-01-11 11:04:01.63	184.51	8.51	-30.4	-34.2	11.4	1.08e-03	0	40	0	31457280	21	5607
2026-01-11 11:04:02.63	184.57	8.58	-30.2	-33.8	11.7	5.28e-04	0	40	0	33554432	21	5392
2026-01-11 11:04:03.63	184.62	8.66	-30.5	-34.4	11.3	1.39e-03	0	40	0	35651584	21	5668
2026-01-11 11:04:04.64	184.67	8.74	-30.3	-34.0	11.6	7.21e-04	0	40	0	36700160	21	5504
2026-01-11 11:04:05.64	184.72	8.82	-30.3	-34.0	11.6	9.18e-04	0	40	0	38797312	21	5494
2026-01-11 11:04:06.65	184.77	8.90	-30.4	-34.3	11.4	8.98e-04	0	40	0	40894464	21	5625
2026-01-11 11:04:07.65	184.83	8.98	-30.4	-34.3	11.4	8.76e-04	0	40	0	42991616	21	5636
2026-01-11 11:04:08.65	184.88	9.06	-30.4	-34.2	11.4	1.32e-03	0	40	0	45088768	21	5595
2026-01-11 11:04:09.66	184.93	9.14	-30.2	-33.7	11.8	5.23e-04	0	41	0	46137344	21	5374
2026-01-11 11:04:10.65	184.99	9.22	-30.2	-33.7	11.8	5.41e-04	0	40	0	48234496	21	5344
2026-01-11 11:04:11.65	185.04	9.31	-30.3	-33.9	11.7	5.58e-04	0	40	0	50331648	21	5454
2026-01-11 11:04:12.65	185.09	9.39	-30.3	-33.9	11.7	4.02e-04	0	40	0	52428800	21	5443
2026-01-11 11:04:13.65	185.15	9.47	-30.3	-33.7	11.8	5.69e-04	0	40	0	53477376	21	5373
2026-01-11 11:04:14.66	185.20	9.55	-30.3	-33.8	11.9	3.78e-04	0	40	0	55574528	21	5379
2026-01-11 11:04:15.66	185.26	9.63	-30.3	-33.9	11.7	4.54e-04	0	41	0	57671680	21	5459
2026-01-11 11:04:16.66	185.31	9.71	-30.3	-33.8	11.9	5.40e-04	0	41	0	59768832	21	5382
2026-01-11 11:04:17.66	185.37	9.80	-30.3	-33.9	11.8	4.13e-04	0	41	0	61865984	21	5425
2026-01-11 11:04:18.67	185.42	9.88	-30.3	-33.9	11.8	5.86e-04	0	40	0	62914560	21	5435
2026-01-11 11:04:19.67	185.48	9.96	-30.2	-33.6	12.0	3.10e-04	0	40	0	65011712	21	5305
2026-01-11 11:04:20.67	185.54	10.05	-30.3	-33.7	11.9	4.16e-04	0	41	0	67108864	21	5371
2026-01-11 11:04:21.67	185.59	10.13	-30.2	-33.4	12.1	3.17e-04	0	41	0	69206016	21	5233
2026-01-11 11:04:22.68	185.65	10.21	-30.2	-33.6	12.0	2.84e-04	0	41	0	71303168	21	5297
2026-01-11 11:04:23.68	185.71	10.30	-30.2	-33.4	12.1	3.22e-04	0	41	0	72351744	21	5241
2026-01-11 11:04:24.69	185.76	10.38	-30.1	-33.2	12.3	2.03e-04	0	41	0	74448896	21	5127
2026-01-11 11:04:25.69	185.82	10.47	-30.0	-32.8	12.5	1.34e-04	0	41	0	76546048	21	4973
2026-01-11 11:04:26.69	185.88	10.55	-30.0	-32.8	12.5	1.17e-04	0	41	0	78643200	21	5002
2026-01-11 11:04:27.68	185.94	10.64	-30.0	-32.8	12.5	1.17e-04	0	41	0	80740352	21	5002
2026-01-11 11:04:28.69	186.00	10.72	-29.9	-32.7	12.6	1.15e-04	0	41	0	81788928	21	4955
2026-01-11 11:04:29.68	186.06	10.81	-30.0	-33.0	12.5	1.19e-04	0	41	0	83886080	21	5047
2026-01-11 11:04:30.69	186.12	10.89	-30.0	-32.9	12.5	1.45e-04	0	41	0	85983232	21	5039
2026-01-11 11:04:31.70	186.18	10.98	-30.1	-33.1	12.4	9.46e-05	0	41	0	88080384	21	5102
2026-01-11 11:04:32.71	186.24	11.07	-30.0	-32.8	12.6	1.34e-04	0	41	0	90177536	21	4991
2026-01-11 11:04:33.71	186.30	11.15	-30.0	-32.8	12.6	9.46e-05	0	41	0	91226112	21	4976
2026-01-11 11:04:34.72	186.36	11.24	-29.9	-32.7	12.7	8.01e-05	0	41	0	93323264	21	4934
2026-01-11 11:04:35.73	186.42	11.33	-29.9	-32.7	12.7	8.62e-05	0	41	0	95420416	21	4949
2026-01-11 11:04:36.72	186.48	11.42	-29.9	-32.7	12.7	7.55e-05	0	41	0	97517568	21	4943
2026-01-11 11:04:37.73	186.54	11.50	-30.0	-32.8	12.6	6.63e-05	0	41	0	99614720	21	4975
2026-01-11 11:04:38.73	186.60	11.59	-30.0	-32.8	12.6	1.04e-04	0	41	0	100663296	21	4996
2026-01-11 11:04:39.74	186.67	11.68	-30.0	-33.0	12.5	1.25e-04	0	41	0	102760448	21	5038
2026-01-11 11:04:40.73	186.73	11.77	-30.0	-32.9	12.5	1.97e-04	0	41	0	104857600	21	5035
2026-01-11 11:04:41.73	186.79	11.86	-30.1	-33.0	12.4	9.99e-05	0	41	0	106954752	21	5074
2026-01-11 11:04:42.72	186.86	11.95	-29.9	-32.7	12.7	1.41e-04	0	41	0	108003328	21	4941
2026-01-11 11:04:43.73	186.92	12.04	-29.9	-32.6	12.7	8.85e-05	0	41	0	110100480	21	4923
2026-01-11 11:04:44.73	186.98	12.13	-29.8	-32.2	13.0	4.88e-05	0	41	0	112197632	21	4769
2026-01-11 11:04:45.73	187.05	12.22	-29.8	-32.6	13.1	3.20e-05	0	41	0	114294784	20	5018
2026-01-11 11:04:46.73	187.11	12.31	-29.7	-32.6	13.1	2.67e-05	0	41	0	116391936	20	5003
2026-01-11 11:04:47.73	187.18	12.40	-29.8	-32.7	13.1	3.05e-05	0	41	0	117440512	20	5028
2026-01-11 11:04:48.73	187.24	12.49	-29.8	-32.8	13.0	3.66e-05	0	41	0	119537664	20	5072
2026-01-11 11:04:49.74	187.31	12.58	-29.9	-33.1	12.9	4.88e-05	0	41	0	121634816	20	5170
2026-01-11 11:04:50.74	187.38	12.67	-29.9	-32.9	13.0	5.18e-05	0	41	0	123731968	20	5112
2026-01-11 11:04:51.75	187.45	12.77	-29.8	-32.8	13.1	3.20e-05	0	41	0	125829120	20	5056
2026-01-11 11:04:52.74	187.51	12.86	-29.7	-32.5	13.3	3.20e-05	0	41	0	126877696	20	4966
2026-01-11 11:04:53.75	187.58	12.95	-29.7	-32.6	13.2	1.98e-05	0	41	0	128974848	20	4977
2026-01-11 11:04:54.76	187.65	13.04	-29.8	-32.6	13.2	2.36e-05	0	41	0	131072000	20	4987
2026-01-11 11:04:55.77	187.72	13.14	-29.9	-32.9	13.0	3.81e-05	0	41	0	133169152	20	5112
2026-01-11 11:04:56.77	187.79	13.23	-29.8	-32.6	13.2	3.28e-05	0	41	0	135266304	20	5009
2026-01-11 11:04:57.78	187.86	13.33	-29.7	-32.5	13.3	1.37e-05	0	41	0	136314880	20	4946
2026-01-11 11:04:58.78	187.93	13.42	-29.7	-32.4	13.4	2.51e-05	0	41	0	138412032	20	4917
2026-01-11 11:04:59.79	188.00	13.52	-29.7	-32.5	13.3	1.37e-05	0	41	0	140509184	20	4952
2026-01-11 11:05:00.80	188.07	13.61	-29.9	-32.9	13.1	2.13e-05	0	41	0	142606336	20	5092
2026-01-11 11:05:01.80	188.14	13.71	-29.9	-33.0	13.0	2.97e-05	0	41	0	144703488	20	5133
2026-01-11 11:05:02.81	188.21	13.80	-30.0	-33.2	12.9	5.34e-05	0	41	0	145752064	20	5229
2026-01-11 11:05:03.80	188.28	13.90	-30.0	-33.3	12.8	4.73e-05	0	41	0	147849216	20	5257
2026-01-11 11:05:04.81	188.36	14.00	-29.9	-32.9	13.1	5.56e-05	0	41	0	149946368	20	5096
2026-01-11 11:05:05.81	188.43	14.09	-29.9	-33.0	13.1	2.44e-05	0	41	0	152043520	20	5132
2026-01-11 11:05:06.80	188.50	14.19	-29.9	-32.9	13.1	2.74e-05	0	41	0	153092096	20	5113
2026-01-11 11:05:07.80	188.58	14.29	-30.1	-33.4	12.8	6.10e-05	0	41	0	155189248	20	5293
2026-01-11 11:05:08.80	188.65	14.38	-29.9	-33.1	13.0	6.02e-05	0	41	0	157286400	20	5152
2026-01-11 11:05:09.80	188.72	14.48	-29.6	-32.2	13.6	1.75e-05	0	41	0	159383552	20	4844
2026-01-11 11:05:10.80	188.80	14.58	-29.5	-31.8	13.9	3.80e-06	0	41	0	161480704	20	4691
2026-01-11 11:05:11.81	188.88	14.68	-29.3	-31.4	14.2	7.00e-07	0	41	0	162529280	20	4568
2026-01-11 11:05:12.81	188.95	14.78	-29.3	-31.8	14.3	7.00e-07	0	42	0	164626432	19	4799
2026-01-11 11:05:13.81	189.03	14.88	-29.3	-31.7	14.4	1.50e-06	0	41	0	166723584	19	4757
2026-01-11 11:05:14.81	189.11	14.98	-29.4	-31.9	14.2	7.00e-07	0	41	0	168820736	19	4819
2026-01-11 11:05:15.82	189.18	15.08	-29.3	-31.8	14.2	7.00e-07	0	41	0	170917888	19	4804
2026-01-11 11:05:16.82	189.26	15.18	-29.3	-31.7	14.4	2.20e-06	0	41	0	171966464	19	4767
2026-01-11 11:05:17.82	189.34	15.28	-29.3	-31.7	14.3	0.00e+00	0	41	0	174063616	19	4755
2026-01-11 11:05:18.82	189.42	15.38	-29.4	-31.9	14.2	7.00e-07	0	42	0	176160768	19	4837
2026-01-11 11:05:19.83	189.50	15.48	-29.3	-31.7	14.4	3.00e-06	0	41	0	178257920	19	4761
2026-01-11 11:05:20.84	189.58	15.59	-29.3	-31.9	14.3	0.00e+00	0	41	0	180355072	19	4811
2026-01-11 11:05:21.83	189.66	15.69	-29.3	-31.7	14.4	7.00e-07	0	41	0	181403648	19	4748
2026-01-11 11:05:22.83	189.74	15.79	-29.3	-31.6	14.4	7.00e-07	0	41	0	183500800	19	4720
2026-01-11 11:05:23.83	189.82	15.89	-29.3	-31.6	14.4	7.00e-07	0	42	0	185597952	19	4722
2026-01-11 11:05:24.84	189.91	16.00	-29.2	-31.6	14.5	7.00e-07	0	41	0	187695104	19	4707
2026-01-11 11:05:25.84	189.99	16.10	-29.2	-31.5	14.5	0.00e+00	0	41	0	189792256	19	4671
2026-01-11 11:05:26.84	190.07	16.21	-29.2	-31.4	14.6	0.00e+00	0	41	0	190840832	19	4647
2026-01-11 11:05:27.84	190.16	16.31	-29.2	-31.4	14.5	7.00e-07	0	41	0	192937984	19	4657
2026-01-11 11:05:28.84	190.24	16.42	-29.1	-31.3	14.7	0.00e+00	0	41	0	195035136	19	4597
2026-01-11 11:05:29.84	190.33	16.52	-29.1	-31.3	14.7	0.00e+00	0	41	0	197132288	19	4606
2026-01-11 11:05:30.85	190.41	16.63	-29.2	-31.3	14.7	1.50e-06	0	41	0	198180864	19	4614
2026-01-11 11:05:31.85	190.50	16.74	-29.3	-31.7	14.5	0.00e+00	0	41	0	200278016	19	4745
2026-01-11 11:05:32.85	190.59	16.84	-29.5	-32.1	14.2	7.00e-07	0	41	0	202375168	19	4883
2026-01-11 11:05:33.85	190.67	16.95	-29.4	-32.0	14.3	0.00e+00	0	41	0	204472320	19	4852
2026-01-11 11:05:34.85	190.76	17.06	-29.6	-32.4	14.0	7.00e-07	0	42	0	206569472	19	4994
2026-01-11 11:05:35.85	190.85	17.16	-29.6	-32.5	14.0	1.50e-06	0	41	0	207618048	19	5018
2026-01-11 11:05:36.86	190.94	17.27	-29.7	-32.7	13.8	1.50e-06	0	42	0	209715200	19	5096
2026-01-11 11:05:37.86	191.03	17.38	-29.6	-32.4	14.1	4.50e-06	0	42	0	211812352	19	4975
2026-01-11 11:05:38.86	191.12	17.49	-29.7	-32.6	13.9	3.80e-06	0	41	0	213909504	19	5067
2026-01-11 11:05:39.87	191.21	17.60	-29.6	-32.5	14.0	3.80e-06	0	41	0	216006656	19	5021
2026-01-11 11:05:40.87	191.30	17.71	-29.5	-32.2	14.2	4.50e-06	0	41	0	217055232	19	4921
2026-01-11 11:05:41.88	191.40	17.82	-29.4	-32.0	14.3	7.00e-07	0	42	0	219152384	19	4839
2026-01-11 11:05:42.88	191.49	17.94	-29.2	-31.5	14.6	0.00e+00	0	42	0	221249536	19	4688
2026-01-11 11:05:43.87	191.58	18.05	-29.2	-31.4	14.7	1.50e-06	0	42	0	223346688	19	4634
2026-01-11 11:05:44.87	191.68	18.16	-29.1	-31.3	14.8	1.50e-06	0	41	0	225443840	19	4596
2026-01-11 11:05:45.87	191.77	18.27	-29.2	-31.3	14.8	0.00e+00	0	41	0	226492416	19	4612
2026-01-11 11:05:46.87	191.87	18.38	-29.1	-31.1	14.9	0.00e+00	0	41	0	228589568	19	4547
2026-01-11 11:05:47.88	191.96	18.50	-29.1	-31.1	14.9	0.00e+00	0	42	0	230686720	19	4528
2026-01-11 11:05:48.88	192.06	18.61	-29.1	-31.1	14.9	0.00e+00	0	42	0	232783872	19	4538
2026-01-11 11:05:49.89	192.16	18.73	-29.1	-31.2	14.9	0.00e+00	0	42	0	234881024	19	4565
2026-01-11 11:05:50.89	192.26	18.84	-29.1	-31.2	14.9	0.00e+00	0	42	0	235929600	19	4570
2026-01-11 11:05:51.89	192.36	18.95	-29.3	-31.6	14.6	7.00e-07	0	42	0	238026752	19	4707
2026-01-11 11:05:52.90	192.46	19.07	-29.3	-31.6	14.6	7.00e-07	0	42	0	240123904	19	4689
2026-01-11 11:05:53.90	192.56	19.19	-29.4	-31.9	14.4	0.00e+00	0	41	0	242221056	19	4811
2026-01-11 11:05:54.91	192.66	19.30	-29.4	-31.8	14.5	0.00e+00	0	42	0	244318208	19	4770
2026-01-11 11:05:55.91	192.76	19.42	-29.5	-32.2	14.3	0.00e+00	0	41	0	245366784	19	4889
2026-01-11 11:05:56.92	192.87	19.54	-29.5	-32.2	14.2	7.00e-07	0	42	0	247463936	19	4918
2026-01-11 11:05:57.93	192.97	19.66	-29.7	-32.6	14.0	7.00e-07	0	42	0	249561088	19	5052
2026-01-11 11:05:58.94	193.08	19.78	-29.6	-32.3	14.2	7.00e-07	0	42	0	251658240	19	4954
2026-01-11 11:05:59.94	193.18	19.90	-29.6	-32.5	14.1	2.20e-06	0	42	0	253755392	19	5026
2026-01-11 11:06:00.95	193.29	20.02	-30.1	-33.2	13.2	5.30e-06	0	42	0	254803968	20	5180
2026-01-11 11:06:01.95	193.40	20.14	-29.6	-32.0	14.0	1.44e-05	0	42	0	256901120	20	4730
2026-01-11 11:06:02.96	193.51	20.26	-29.4	-31.5	14.4	0.00e+00	0	42	0	258998272	20	4567
2026-01-11 11:06:03.96	193.61	20.38	-29.3	-31.6	14.7	0.00e+00	0	42	0	261095424	19	4693
2026-01-11 11:06:04.97	193.72	20.50	-29.5	-32.1	14.4	1.50e-06	0	41	0	263192576	19	4848
2026-01-11 11:06:05.97	193.83	20.62	-29.2	-31.5	14.7	0.00e+00	0	42	0	264241152	19	4650
2026-01-11 11:06:06.97	193.95	20.74	-29.2	-31.4	14.9	1.50e-06	0	42	0	266338304	19	4617
2026-01-11 11:06:07.97	194.06	20.87	-29.3	-31.6	14.7	7.00e-07	0	42	0	268435456	19	4706
2026-01-11 11:06:08.98	194.17	20.99	-29.2	-31.3	14.9	0.00e+00	0	42	0	270532608	19	4603
2026-01-11 11:06:09.98	194.28	21.11	-29.2	-31.3	14.9	3.80e-06	0	42	0	272629760	19	4607
2026-01-11 11:06:10.98	194.40	21.24	-29.2	-31.3	14.9	0.00e+00	0	42	0	273678336	19	4608
2026-01-11 11:06:11.99	194.52	21.36	-29.4	-31.8	14.6	0.00e+00	0	42	0	275775488	19	4754
2026-01-11 11:06:12.99	194.63	21.49	-29.3	-31.7	14.7	2.20e-06	0	42	0	277872640	19	4716
2026-01-11 11:06:13.99	194.75	21.61	-29.6	-32.3	14.3	0.00e+00	0	42	0	279969792	19	4935
2026-01-11 11:06:14.99	194.87	21.74	-29.4	-31.8	14.6	3.00e-06	0	42	0	281018368	19	4769
2026-01-11 11:06:16.00	194.99	21.87	-29.2	-31.4	14.8	0.00e+00	0	42	0	283115520	19	4625
2026-01-11 11:06:16.99	195.11	21.99	-29.1	-31.1	15.0	0.00e+00	0	42	0	285212672	19	4546
2026-01-11 11:06:17.99	195.23	22.12	-29.1	-31.2	15.0	0.00e+00	0	42	0	287309824	19	4563
2026-01-11 11:06:18.98	195.35	22.25	-29.0	-31.0	15.1	0.00e+00	0	42	0	289406976	19	4501
2026-01-11 11:06:19.98	195.47	22.38	-29.1	-31.1	15.0	0.00e+00	0	42	0	290455552	19	4552
2026-01-11 11:06:20.98	195.59	22.50	-29.0	-30.9	15.1	0.00e+00	0	42	0	292552704	19	4477
2026-01-11 11:06:21.98	195.72	22.63	-29.1	-31.1	15.0	0.00e+00	0	42	0	294649856	19	4547
2026-01-11 11:06:22.99	195.85	22.77	-29.0	-30.9	15.1	0.00e+00	0	42	0	296747008	19	4476
2026-01-11 11:06:23.99	195.97	22.90	-29.1	-31.0	15.1	0.00e+00	0	42	0	298844160	19	4511
2026-01-11 11:06:24.99	196.10	23.03	-29.1	-31.0	15.1	0.00e+00	0	42	0	299892736	19	4499
2026-01-11 11:06:25.99	196.23	23.16	-29.2	-31.3	14.9	0.00e+00	0	42	0	301989888	19	4590
2026-01-11 11:06:27.00	196.36	23.29	-29.2	-31.3	15.0	7.00e-07	0	42	0	304087040	19	4586
2026-01-11 11:06:27.99	196.49	23.42	-29.3	-31.6	14.7	0.00e+00	0	42	0	306184192	19	4703
2026-01-11 11:06:29.00	196.62	23.56	-29.3	-31.6	14.8	0.00e+00	0	42	0	307232768	19	4689
2026-01-11 11:06:29.99	196.76	23.69	-29.3	-31.7	14.7	0.00e+00	0	42	0	309329920	19	4714
2026-01-11 11:06:31.00	196.89	23.83	-29.4	-31.9	14.5	7.00e-07	0	42	0	311427072	19	4793
2026-01-11 11:06:32.00	197.03	23.96	-29.3	-31.5	14.8	0.00e+00	0	42	0	313524224	19	4659
2026-01-11 11:06:33.00	197.16	24.10	-29.3	-31.7	14.7	7.00e-07	0	42	0	315621376	19	4716
2026-01-11 11:06:34.01	197.30	24.23	-29.2	-31.5	14.8	1.50e-06	0	42	0	316669952	19	4649
2026-01-11 11:06:35.00	197.44	24.37	-29.3	-31.7	14.7	7.00e-07	0	42	0	318767104	19	4720
2026-01-11 11:06:36.01	197.58	24.51	-29.3	-31.5	14.8	0.00e+00	0	42	0	320864256	19	4665
2026-01-11 11:06:37.01	197.72	24.65	-29.2	-31.4	14.9	0.00e+00	0	42	0	322961408	19	4628
2026-01-11 11:06:38.01	197.86	24.78	-29.4	-31.9	14.6	0.00e+00	0	42	0	325058560	19	4795
2026-01-11 11:06:39.01	198.01	24.92	-29.4	-31.9	14.6	0.00e+00	0	42	0	326107136	19	4806
2026-01-11 11:06:40.01	198.15	25.06	-29.5	-32.0	14.5	0.00e+00	0	42	0	328204288	19	4834
2026-01-11 11:06:41.01	198.30	25.20	-29.8	-33.0	13.9	7.00e-07	0	42	0	330301440	19	5184
2026-01-11 11:06:42.01	198.45	25.34	-29.7	-32.6	14.1	2.20e-06	0	42	0	332398592	19	5050
2026-01-11 11:06:43.01	198.60	25.48	-29.7	-32.6	14.2	1.50e-06	0	42	0	334495744	19	5047
2026-01-11 11:06:44.00	198.74	25.62	-29.8	-32.8	14.0	7.00e-07	0	42	0	335544320	19	5112
2026-01-11 11:06:45.00	198.90	25.77	-29.7	-32.7	14.1	2.20e-06	0	42	0	337641472	19	5068
2026-01-11 11:06:46.01	199.05	25.91	-29.5	-32.2	14.5	0.00e+00	0	42	0	339738624	19	4882
2026-01-11 11:06:47.01	199.20	26.05	-29.7	-32.5	14.2	7.00e-07	0	42	0	341835776	19	4999
2026-01-11 11:06:48.01	199.36	26.20	-29.6	-32.3	14.4	0.00e+00	0	42	0	342884352	19	4931
2026-01-11 11:06:49.01	199.52	26.34	-29.6	-32.3	14.4	7.00e-07	0	42	0	344981504	19	4935
2026-01-11 11:06:50.02	199.68	26.49	-29.6	-32.3	14.4	0.00e+00	0	42	0	347078656	19	4937
2026-01-11 11:06:51.03	199.84	26.63	-29.7	-32.6	14.2	0.00e+00	0	42	0	349175808	19	5032
2026-01-11 11:06:52.04	200.00	26.78	-29.9	-33.0	13.9	1.50e-06	0	42	0	351272960	19	5191
2026-01-11 11:06:53.04	200.16	26.93	-29.8	-32.8	14.0	2.20e-06	0	42	0	352321536	19	5111
2026-01-11 11:06:54.04	200.33	27.07	-30.0	-33.4	13.7	3.80e-06	0	42	0	354418688	19	5347
2026-01-11 11:06:55.04	200.49	27.22	-29.9	-32.6	13.8	4.50e-06	0	42	0	356515840	20	4928
2026-01-11 11:06:56.04	200.66	27.37	-30.0	-32.9	13.7	3.80e-06	0	42	0	358612992	20	5023
2026-01-11 11:06:57.05	200.83	27.52	-30.0	-33.1	13.6	5.30e-06	0	42	0	360710144	20	5097
2026-01-11 11:06:58.06	201.00	27.67	-30.0	-32.9	13.6	4.50e-06	0	42	0	361758720	20	5051
2026-01-11 11:06:59.06	201.17	27.82	-30.2	-33.6	13.2	9.90e-06	0	42	0	363855872	20	5296
2026-01-11 11:07:00.07	201.35	27.97	-30.1	-33.1	13.5	1.29e-05	0	42	0	365953024	20	5110
2026-01-11 11:07:01.08	201.52	28.12	-30.0	-32.9	13.7	6.80e-06	0	42	0	368050176	20	5021
2026-01-11 11:07:02.08	201.70	28.28	-30.0	-32.8	13.7	7.60e-06	0	42	0	370147328	20	5004
2026-01-11 11:07:03.08	201.88	28.43	-30.0	-33.0	13.6	9.90e-06	0	42	0	371195904	20	5082
2026-01-11 11:07:04.09	202.06	28.58	-30.2	-33.6	13.2	1.60e-05	0	42	0	373293056	20	5305
2026-01-11 11:07:05.10	202.24	28.74	-30.3	-33.7	13.1	3.05e-05	0	42	0	375390208	20	5325
2026-01-11 11:07:06.10	202.42	28.89	-30.4	-34.0	13.0	2.67e-05	0	42	0	377487360	20	5445
2026-01-11 11:07:07.11	202.61	29.05	-30.5	-34.2	12.8	5.34e-05	0	42	0	379584512	20	5545
2026-01-11 11:07:08.11	202.80	29.20	-30.6	-34.2	12.5	1.01e-04	0	42	0	380633088	21	5428
2026-01-11 11:07:09.11	202.99	29.36	-30.9	-34.9	12.0	1.96e-04	0	42	0	382730240	21	5745
2026-01-11 11:07:10.11	203.18	29.51	-30.9	-34.9	12.1	2.84e-04	0	42	0	384827392	21	5716
2026-01-11 11:07:11.12	203.37	29.67	-31.0	-34.9	11.7	5.69e-04	0	42	0	386924544	22	5595
2026-01-11 11:07:12.13	203.56	29.83	-31.0	-34.6	11.9	5.18e-04	0	42	0	389021696	22	5486
2026-01-11 11:07:13.13	203.76	29.98	-31.1	-34.9	11.7	5.16e-04	0	42	0	390070272	22	5617
2026-01-11 11:07:14.13	203.96	30.14	-31.2	-35.3	11.4	8.17e-04	0	42	0	392167424	22	5804
2026-01-11 11:07:15.14	204.16	30.30	-31.2	-35.3	11.4	9.18e-04	0	42	0	394264576	22	5802
2026-01-11 11:07:16.15	204.36	30.46	-31.2	-35.5	11.3	1.08e-03	0	42	0	396361728	22	5863
2026-01-11 11:07:17.15	204.57	30.62	-31.4	-35.9	11.0	1.81e-03	0	42	0	398458880	22	6058
2026-01-11 11:07:18.16	204.77	30.78	-31.2	-35.3	11.4	1.30e-03	0	42	0	399507456	22	5774
2026-01-11 11:07:19.16	204.98	30.94	-31.2	-35.4	11.3	8.93e-04	0	42	0	401604608	22	5837
2026-01-11 11:07:20.17	205.19	31.11	-31.2	-35.4	11.4	1.05e-03	0	42	0	403701760	22	5839
2026-01-11 11:07:21.17	205.40	31.27	-31.3	-35.7	11.2	1.26e-03	0	42	0	405798912	22	5968
2026-01-11 11:07:22.17	205.62	31.43	-31.4	-35.9	11.0	1.64e-03	0	42	0	407896064	22	6078
2026-01-11 11:07:23.18	205.83	31.59	-31.4	-36.0	11.0	1.77e-03	0	42	0	408944640	22	6094
2026-01-11 11:07:24.18	206.05	31.76	-31.5	-36.0	10.6	2.86e-03	0	42	0	411041792	23	5987
2026-01-11 11:07:25.19	206.27	31.92	-31.6	-36.1	10.5	3.87e-03	0	42	0	413138944	23	6045
2026-01-11 11:07:26.20	206.50	32.09	-31.2	-35.0	11.3	2.48e-03	0	42	0	415236096	23	5555
2026-01-11 11:07:27.20	206.72	32.25	-31.0	-34.2	11.9	5.22e-04	0	42	0	417333248	23	5192
2026-01-11 11:07:28.20	206.95	32.41	-30.8	-33.6	12.3	2.55e-04	0	42	0	418381824	23	4964
2026-01-11 11:07:29.20	207.18	32.58	-30.7	-33.7	12.6	1.08e-04	0	42	0	420478976	22	5104
2026-01-11 11:07:30.20	207.41	32.74	-30.7	-33.9	12.5	1.30e-04	0	42	0	422576128	22	5186
2026-01-11 11:07:31.21	207.64	32.91	-30.6	-33.6	12.7	9.30e-05	0	42	0	424673280	22	5074
2026-01-11 11:07:32.21	207.88	33.08	-30.6	-33.6	12.7	8.92e-05	0	42	0	425721856	22	5067
2026-01-11 11:07:33.22	208.12	33.25	-30.4	-32.8	13.1	3.58e-05	0	42	0	427819008	22	4792
2026-01-11 11:07:34.22	208.36	33.41	-30.3	-32.8	13.2	2.44e-05	0	42	0	429916160	22	4776
2026-01-11 11:07:35.23	208.60	33.58	-30.2	-33.0	13.4	1.90e-05	0	42	0	432013312	21	4961
2026-01-11 11:07:36.24	208.85	33.75	-30.2	-32.8	13.5	1.83e-05	0	42	0	434110464	21	4877
2026-01-11 11:07:37.24	209.10	33.92	-30.0	-32.3	13.8	3.80e-06	0	42	0	436207616	21	4698
2026-01-11 11:07:38.24	209.35	34.09	-30.0	-32.3	13.8	6.10e-06	0	42	0	437256192	21	4711
2026-01-11 11:07:39.25	209.61	34.26	-30.1	-32.5	13.7	9.10e-06	0	42	0	439353344	21	4782
2026-01-11 11:07:40.26	209.86	34.43	-29.9	-32.1	14.0	2.20e-06	0	42	0	441450496	21	4646
2026-01-11 11:07:41.26	210.12	34.60	-29.8	-32.3	14.2	1.50e-06	0	42	0	443547648	20	4787
2026-01-11 11:07:42.26	210.38	34.76	-29.7	-31.9	14.3	7.00e-07	0	42	0	444596224	20	4679
2026-01-11 11:07:43.26	210.65	34.93	-29.5	-31.6	14.6	7.00e-07	0	42	0	446693376	20	4558
2026-01-11 11:07:44.26	210.91	35.10	-29.3	-31.6	15.0	0.00e+00	0	42	0	448790528	19	4662
2026-01-11 11:07:45.26	211.18	35.27	-29.2	-31.3	15.1	0.00e+00	0	42	0	450887680	19	4584
2026-01-11 11:07:46.27	211.46	35.45	-29.3	-31.4	15.1	0.00e+00	0	42	0	452984832	19	4615
2026-01-11 11:07:47.28	211.73	35.62	-29.5	-32.0	14.8	0.00e+00	0	42	0	454033408	19	4791
2026-01-11 11:07:48.29	212.01	35.79	-29.7	-32.4	14.5	0.00e+00	0	42	0	456130560	19	4934
2026-01-11 11:07:49.29	212.29	35.96	-29.8	-32.9	14.3	7.00e-07	0	42	0	458227712	19	5094
2026-01-11 11:07:50.30	212.58	36.13	-29.9	-33.1	14.1	7.00e-07	0	42	0	460324864	19	5171
2026-01-11 11:07:51.30	212.87	36.31	-30.0	-32.8	13.9	5.30e-06	0	42	0	462422016	20	4982
2026-01-11 11:07:52.31	213.16	36.48	-29.9	-32.5	14.1	3.00e-06	0	42	0	463470592	20	4865
2026-01-11 11:07:53.31	213.45	36.65	-29.8	-32.2	14.3	0.00e+00	0	42	0	465567744	20	4759
2026-01-11 11:07:54.32	213.75	36.82	-29.7	-32.1	14.3	3.00e-06	0	42	0	467664896	20	4746
2026-01-11 11:07:55.32	214.05	36.99	-29.6	-31.7	14.6	1.50e-06	0	42	0	469762048	20	4585
2026-01-11 11:07:56.33	214.35	37.17	-29.3	-31.5	15.1	7.00e-07	0	42	0	471859200	19	4644
2026-01-11 11:07:57.34	214.66	37.34	-29.2	-31.2	15.3	0.00e+00	0	42	0	472907776	19	4536
2026-01-11 11:07:58.35	214.97	37.51	-29.1	-30.9	15.5	0.00e+00	0	42	0	475004928	19	4428
2026-01-11 11:07:59.35	215.28	37.69	-29.1	-30.8	15.5	0.00e+00	0	42	0	477102080	19	4416
2026-01-11 11:08:00.34	215.59	37.86	-29.2	-31.2	15.3	0.00e+00	0	42	0	479199232	19	4542
2026-01-11 11:08:01.34	215.91	38.03	-29.3	-31.4	15.2	0.00e+00	0	42	0	481296384	19	4585
2026-01-11 11:08:02.35	216.23	38.20	-29.6	-32.3	14.6	0.00e+00	0	42	0	482344960	19	4896
2026-01-11 11:08:03.35	216.56	38.37	-29.7	-32.5	14.5	7.00e-07	0	42	0	484442112	19	4981
2026-01-11 11:08:04.36	216.89	38.54	-29.6	-32.2	14.7	0.00e+00	0	42	0	486539264	19	4868
2026-01-11 11:08:05.36	217.22	38.71	-29.7	-32.6	14.5	0.00e+00	0	42	0	488636416	19	4992
2026-01-11 11:08:06.37	217.55	38.89	-29.7	-32.4	14.5	7.00e-07	0	42	0	490733568	19	4934
2026-01-11 11:08:07.38	217.90	39.06	-29.4	-31.7	15.0	0.00e+00	0	42	0	491782144	19	4693
2026-01-11 11:08:08.38	218.24	39.23	-29.4	-31.7	15.0	1.50e-06	0	42	0	493879296	19	4707
2026-01-11 11:08:09.39	218.58	39.40	-29.4	-31.8	14.9	0.00e+00	0	42	0	495976448	19	4729
2026-01-11 11:08:10.40	218.94	39.57	-29.5	-32.1	14.8	7.00e-07	0	42	0	498073600	19	4816
2026-01-11 11:08:11.40	219.29	39.74	-29.7	-32.4	14.6	1.50e-06	0	42	0	500170752	19	4936
2026-01-11 11:08:12.40	219.64	39.91	-29.6	-32.3	14.6	7.00e-07	0	42	0	501219328	19	4911
2026-01-11 11:08:13.40	220.00	40.08	-29.8	-32.7	14.4	0.00e+00	0	42	0	503316480	19	5023
2026-01-11 11:08:14.41	220.37	40.25	-29.9	-33.1	14.2	1.50e-06	0	42	0	505413632	19	5177
2026-01-11 11:08:15.42	220.74	40.42	-29.9	-33.1	14.2	3.00e-06	0	42	0	507510784	19	5169
2026-01-11 11:08:16.42	221.11	40.58	-30.1	-33.0	13.9	3.00e-06	0	42	0	509607936	20	5047
2026-01-11 11:08:17.43	221.49	40.75	-30.1	-33.1	13.8	6.10e-06	0	42	0	510656512	20	5071
2026-01-11 11:08:18.43	221.87	40.92	-30.0	-32.9	14.0	4.50e-06	0	42	0	512753664	20	5002
2026-01-11 11:08:19.43	222.25	41.08	-30.0	-32.9	13.9	4.50e-06	0	42	0	514850816	20	5001
2026-01-11 11:08:20.44	222.64	41.25	-30.1	-33.0	13.8	7.60e-06	0	42	0	516947968	20	5047
2026-01-11 11:08:21.44	223.03	41.41	-30.2	-33.4	13.6	7.60e-06	0	42	0	519045120	20	5172
2026-01-11 11:08:22.45	223.43	41.58	-30.3	-33.7	13.4	1.52e-05	0	42	0	520093696	20	5316
2026-01-11 11:08:23.45	223.82	41.74	-30.5	-33.6	13.1	2.13e-05	0	42	0	522190848	21	5165
2026-01-11 11:08:24.45	224.23	41.90	-30.5	-33.8	13.0	3.89e-05	0	42	0	524288000	21	5227
2026-01-11 11:08:25.46	224.64	42.06	-30.6	-33.9	12.9	3.89e-05	0	42	0	526385152	21	5267
2026-01-11 11:08:26.46	225.04	42.22	-30.6	-34.0	12.9	6.02e-05	0	42	0	528482304	21	5310
2026-01-11 11:08:27.47	225.46	42.38	-30.6	-34.1	12.8	5.18e-05	0	42	0	529530880	21	5333
2026-01-11 11:08:28.47	225.88	42.54	-30.7	-34.3	12.7	7.93e-05	0	42	0	531628032	21	5451
2026-01-11 11:08:29.47	226.30	42.69	-30.7	-34.3	12.7	1.14e-04	0	42	0	533725184	21	5424
2026-01-11 11:08:30.48	226.73	42.85	-30.5	-33.8	13.0	4.95e-05	0	42	0	535822336	21	5221
2026-01-11 11:08:31.49	227.17	43.01	-30.7	-34.2	12.8	6.02e-05	0	42	0	537919488	21	5402
2026-01-11 11:08:32.49	227.60	43.16	-30.7	-34.1	12.8	1.01e-04	0	42	0	538968064	21	5352
2026-01-11 11:08:33.50	228.04	43.32	-30.5	-33.5	13.2	5.11e-05	0	42	0	541065216	21	5119
2026-01-11 11:08:34.50	228.48	43.47	-30.3	-33.2	13.5	1.06e-05	0	42	0	543162368	21	4984
2026-01-11 11:08:35.51	228.94	43.62	-30.5	-33.8	13.1	2.13e-05	0	42	0	545259520	21	5217
2026-01-11 11:08:36.52	229.39	43.77	-30.9	-34.8	12.4	7.17e-05	0	42	0	547356672	21	5636
2026-01-11 11:08:37.53	229.85	43.91	-31.2	-35.0	11.9	3.58e-04	0	42	0	548405248	22	5627
2026-01-11 11:08:38.53	230.31	44.06	-31.1	-35.0	12.0	3.64e-04	0	42	0	550502400	22	5595
2026-01-11 11:08:39.54	230.78	44.21	-30.9	-34.3	12.5	2.59e-04	0	42	0	552599552	22	5301
2026-01-11 11:08:40.54	231.24	44.35	-30.7	-33.7	12.8	7.17e-05	0	42	0	554696704	22	5074
2026-01-11 11:08:41.54	231.71	44.49	-30.7	-33.7	12.8	6.94e-05	0	42	0	556793856	22	5091
2026-01-11 11:08:42.55	232.19	44.63	-30.8	-34.0	12.6	1.21e-04	0	42	0	557842432	22	5207
2026-01-11 11:08:43.55	232.67	44.77	-31.0	-34.6	12.3	6.17e-05	0	42	0	559939584	22	5426
2026-01-11 11:08:44.56	233.16	44.90	-31.4	-35.8	11.4	8.73e-04	0	42	0	562036736	22	5956
2026-01-11 11:08:45.57	233.65	45.04	-31.5	-35.7	11.0	1.22e-03	0	42	0	564133888	23	5814
2026-01-11 11:08:46.58	234.15	45.17	-31.6	-36.1	10.8	1.99e-03	0	42	0	566231040	23	5990
2026-01-11 11:08:47.58	234.65	45.30	-31.3	-35.1	11.4	1.65e-03	0	42	0	567279616	23	5545
2026-01-11 11:08:48.59	235.15	45.43	-30.8	-33.5	12.6	2.86e-04	0	42	0	569376768	23	4906
2026-01-11 11:08:49.59	235.66	45.56	-30.5	-33.0	13.3	5.72e-05	0	42	0	571473920	22	4795
2026-01-11 11:08:50.60	236.17	45.68	-30.2	-32.8	13.7	6.80e-06	0	42	0	573571072	21	4847
2026-01-11 11:08:51.61	236.68	45.81	-30.5	-33.6	13.3	1.44e-05	0	42	0	574619648	21	5136
2026-01-11 11:08:52.62	237.21	45.93	-31.1	-34.9	12.1	5.49e-05	0	42	0	576716800	22	5557
2026-01-11 11:08:53.63	237.73	46.05	-31.5	-35.9	11.2	1.13e-03	0	42	0	578813952	22	6034
2026-01-11 11:08:54.63	238.25	46.16	-31.7	-36.3	10.7	2.12e-03	0	42	0	580911104	23	6104
2026-01-11 11:08:55.64	238.79	46.28	-31.5	-35.5	11.2	2.67e-03	0	42	0	583008256	23	5734
2026-01-11 11:08:56.65	239.32	46.39	-31.2	-34.5	11.9	7.47e-04	0	42	0	585105408	23	5296
2026-01-11 11:08:57.65	239.86	46.50	-30.9	-33.6	12.5	1.69e-04	0	42	0	586153984	23	4949
2026-01-11 11:08:58.66	240.40	46.61	-30.8	-33.4	12.7	6.86e-05	0	42	0	588251136	23	4865
2026-01-11 11:08:59.67	240.95	46.71	-30.8	-33.9	12.7	6.10e-05	0	42	0	590348288	22	5160
2026-01-11 11:09:00.68	241.50	46.81	-30.9	-34.2	12.5	1.02e-04	0	42	0	592445440	22	5253
2026-01-11 11:09:01.68	242.05	46.91	-31.0	-34.6	12.2	1.37e-04	0	42	0	594542592	22	5430
2026-01-11 11:09:02.69	242.61	47.01	-31.1	-34.7	12.2	2.48e-04	0	42	0	595591168	22	5475
2026-01-11 11:09:03.70	243.17	47.10	-30.9	-34.3	12.4	1.10e-04	0	42	0	597688320	22	5298
2026-01-11 11:09:04.70	243.73	47.19	-30.9	-34.3	12.4	1.38e-04	0	42	0	599785472	22	5302
2026-01-11 11:09:05.70	244.29	47.28	-31.0	-34.6	12.2	2.23e-04	0	42	0	601882624	22	5445
2026-01-11 11:09:06.71	244.86	47.37	-31.0	-34.6	12.2	2.22e-04	0	42	0	602931200	22	5439
2026-01-11 11:09:07.72	245.43	47.45	-30.7	-33.7	12.9	1.03e-04	0	42	0	605028352	22	5056
2026-01-11 11:09:08.72	246.00	47.53	-30.6	-33.3	13.1	3.81e-05	0	42	0	607125504	22	4907
2026-01-11 11:09:09.73	246.58	47.61	-30.6	-33.3	13.1	4.04e-05	0	42	0	609222656	22	4909
2026-01-11 11:09:10.74	247.17	47.68	-30.4	-32.8	13.3	2.51e-05	0	42	0	611319808	22	4758
2026-01-11 11:09:11.74	247.75	47.75	-30.4	-32.8	13.5	1.06e-05	0	42	0	613416960	22	4754
2026-01-11 11:09:12.75	248.33	47.82	-30.6	-33.4	13.0	1.44e-05	0	42	0	614465536	22	4968
2026-01-11 11:09:13.76	248.92	47.88	-30.9	-34.2	12.5	9.53e-05	0	42	0	616562688	22	5250
2026-01-11 11:09:14.77	249.52	47.95	-30.9	-34.2	12.5	1.43e-04	0	42	0	618659840	22	5278
2026-01-11 11:09:15.77	250.10	48.00	-30.8	-33.8	12.8	8.54e-05	0	42	0	620756992	22	5111
2026-01-11 11:09:16.78	250.70	48.06	-30.7	-33.6	12.9	5.64e-05	0	42	0	622854144	22	5033
2026-01-11 11:09:17.78	251.29	48.11	-30.6	-33.4	13.0	5.41e-05	0	42	0	623902720	22	4944
2026-01-11 11:09:18.78	251.89	48.16	-30.6	-33.3	13.1	4.73e-05	0	42	0	625999872	22	4904
2026-01-11 11:09:19.78	252.49	48.21	-30.9	-34.0	12.6	5.11e-05	0	42	0	628097024	22	5188
2026-01-11 11:09:20.78	253.08	48.25	-30.9	-34.3	12.5	1.33e-04	0	42	0	630194176	22	5307
2026-01-11 11:09:21.79	253.69	48.29	-31.1	-34.6	12.3	1.54e-04	0	42	0	631242752	22	5439
2026-01-11 11:09:22.79	254.29	48.32	-30.7	-33.7	12.8	1.22e-04	0	42	0	633339904	22	5083
2026-01-11 11:09:23.80	254.90	48.35	-30.6	-33.3	13.2	2.74e-05	0	42	0	635437056	22	4898
2026-01-11 11:09:24.80	255.50	48.38	-30.7	-33.6	12.9	2.28e-05	0	42	0	637534208	22	5017
2026-01-11 11:09:25.81	256.12	48.41	-30.6	-33.4	13.0	4.11e-05	0	42	0	639631360	22	4958
2026-01-11 11:09:26.81	256.72	48.43	-30.4	-32.9	13.4	3.43e-05	0	42	0	640679936	22	4764
2026-01-11 11:09:27.82	257.33	48.45	-30.3	-32.9	13.7	6.80e-06	0	42	0	642777088	21	4870
2026-01-11 11:09:28.82	257.94	48.46	-30.3	-32.9	13.7	6.10e-06	0	42	0	644874240	21	4891
2026-01-11 11:09:29.83	258.55	48.48	-30.4	-33.3	13.5	1.06e-05	0	42	0	646971392	21	5012
2026-01-11 11:09:30.83	259.16	48.48	-30.3	-33.1	13.6	9.90e-06	0	42	0	649068544	21	4944
2026-01-11 11:09:31.83	259.77	48.49	-30.5	-33.6	13.3	7.60e-06	0	42	0	650117120	21	5140
2026-01-11 11:09:32.84	260.39	48.49	-30.3	-33.1	13.6	1.37e-05	0	42	0	652214272	21	4954
2026-01-11 11:09:33.84	260.99	48.49	-30.2	-32.8	13.7	6.10e-06	0	42	0	654311424	21	4856
2026-01-11 11:09:34.85	261.61	48.48	-30.2	-32.9	13.7	3.80e-06	0	42	0	656408576	21	4877
2026-01-11 11:09:35.86	262.22	48.47	-30.2	-32.7	13.8	2.20e-06	0	42	0	658505728	21	4809
2026-01-11 11:09:36.87	262.84	48.46	-30.2	-32.8	13.7	3.80e-06	0	42	0	659554304	21	4846
2026-01-11 11:09:37.87	263.44	48.45	-30.1	-32.6	13.9	3.80e-06	0	42	0	661651456	21	4765
2026-01-11 11:09:38.88	264.06	48.43	-30.0	-32.3	14.1	2.20e-06	0	42	0	663748608	21	4684
2026-01-11 11:09:39.88	264.66	48.40	-30.1	-32.4	14.0	5.30e-06	0	42	0	665845760	21	4693
2026-01-11 11:09:40.89	265.27	48.38	-30.2	-32.6	13.9	6.10e-06	0	42	0	667942912	21	4783
2026-01-11 11:09:41.90	265.88	48.35	-30.2	-32.8	13.8	2.20e-06	0	42	0	668991488	21	4831
2026-01-11 11:09:42.89	266.48	48.32	-30.4	-33.2	13.5	9.90e-06	0	42	0	671088640	21	4998
2026-01-11 11:09:43.90	267.08	48.28	-30.4	-33.4	13.4	1.60e-05	0	42	0	673185792	21	5060
2026-01-11 11:09:44.91	267.69	48.24	-30.2	-32.8	13.7	8.30e-06	0	42	0	675282944	21	4848
2026-01-11 11:09:45.91	268.29	48.20	-30.1	-32.5	14.0	2.20e-06	0	42	0	677380096	21	4733
2026-01-11 11:09:46.91	268.88	48.15	-30.2	-32.9	13.7	3.00e-06	0	42	0	678428672	21	4883
2026-01-11 11:09:47.91	269.48	48.10	-30.3	-33.1	13.5	9.90e-06	0	42	0	680525824	21	4950
2026-01-11 11:09:48.92	270.07	48.05	-30.6	-34.0	13.0	1.75e-05	0	42	0	682622976	21	5279
2026-01-11 11:09:49.93	270.67	48.00	-30.7	-34.1	12.9	5.11e-05	0	42	0	684720128	21	5351
2026-01-11 11:09:50.93	271.26	47.94	-30.7	-34.1	12.9	5.18e-05	0	42	0	686817280	21	5319
2026-01-11 11:09:51.94	271.85	47.87	-30.6	-34.0	13.0	2.97e-05	0	42	0	687865856	21	5276
2026-01-11 11:09:52.95	272.44	47.81	-30.7	-34.0	12.9	4.80e-05	0	42	0	689963008	21	5315
2026-01-11 11:09:53.95	273.02	47.74	-30.9	-34.7	12.5	8.08e-05	0	42	0	692060160	21	5585
2026-01-11 11:09:54.96	273.60	47.67	-31.1	-34.9	12.0	2.08e-04	0	42	0	694157312	22	5535
2026-01-11 11:09:55.96	274.18	47.60	-30.8	-33.9	12.7	1.25e-04	0	42	0	696254464	22	5162
2026-01-11 11:09:56.97	274.76	47.52	-30.5	-33.1	13.3	1.90e-05	0	42	0	697303040	22	4831
2026-01-11 11:09:57.98	275.33	47.44	-30.6	-33.4	13.1	2.74e-05	0	42	0	699400192	22	4950
2026-01-11 11:09:58.98	275.90	47.36	-31.0	-34.5	12.4	6.79e-05	0	42	0	701497344	22	5366
2026-01-11 11:09:59.99	276.47	47.27	-31.5	-35.6	11.2	3.23e-04	0	42	0	703594496	23	5775
2026-01-11 11:10:00.99	277.03	47.18	-31.5	-35.5	11.2	1.70e-03	0	42	0	705691648	23	5732
2026-01-11 11:10:01.99	277.59	47.09	-31.1	-34.4	12.0	5.49e-04	0	42	0	706740224	23	5234
2026-01-11 11:10:02.99	278.14	47.00	-30.7	-33.7	12.8	1.31e-04	0	42	0	708837376	22	5074
2026-01-11 11:10:03.98	278.69	46.90	-31.0	-34.6	12.3	1.28e-04	0	42	0	710934528	22	5423
2026-01-11 11:10:04.99	279.24	46.80	-31.5	-35.9	11.3	5.93e-04	0	42	0	713031680	22	6001
2026-01-11 11:10:05.99	279.78	46.70	-31.7	-36.1	10.8	1.52e-03	0	42	0	715128832	23	5999
2026-01-11 11:10:07.00	280.33	46.60	-31.5	-35.6	11.1	2.08e-03	0	42	0	716177408	23	5765
2026-01-11 11:10:08.01	280.87	46.49	-31.3	-35.0	11.7	8.51e-04	0	42	0	718274560	23	5481
2026-01-11 11:10:09.01	281.41	46.38	-31.3	-35.0	11.6	6.74e-04	0	42	0	720371712	23	5473
2026-01-11 11:10:10.02	281.94	46.27	-31.4	-35.4	11.4	8.15e-04	0	42	0	722468864	23	5653
2026-01-11 11:10:11.02	282.47	46.16	-31.6	-35.8	11.1	1.36e-03	0	42	0	724566016	23	5834
2026-01-11 11:10:12.02	282.99	46.04	-31.6	-35.7	11.1	1.94e-03	0	42	0	725614592	23	5790
2026-01-11 11:10:13.03	283.51	45.92	-31.4	-35.3	11.5	1.24e-03	0	42	0	727711744	23	5595
2026-01-11 11:10:14.03	284.03	45.80	-31.3	-34.9	11.7	6.45e-04	0	42	0	729808896	23	5443
2026-01-11 11:10:15.03	284.54	45.68	-31.5	-35.7	11.1	9.62e-04	0	42	0	731906048	23	5781
2026-01-11 11:10:16.04	285.05	45.55	-31.9	-36.9	10.2	2.95e-03	0	42	0	732954624	23	6405
2026-01-11 11:10:17.05	285.56	45.43	-32.3	-37.7	9.2	1.16e-02	0	42	0	735051776	24	6759
2026-01-11 11:10:18.05	286.05	45.30	-31.7	-35.7	10.8	6.37e-03	0	42	0	737148928	24	5708
2026-01-11 11:10:19.06	286.55	45.17	-30.6	-33.4	13.0	3.52e-04	0	42	0	739246080	22	4946
2026-01-11 11:10:20.07	287.05	45.03	-30.1	-32.5	13.9	1.14e-05	0	42	0	741343232	21	4748
2026-01-11 11:10:21.07	287.53	44.90	-30.3	-33.1	13.6	5.30e-06	0	42	0	743440384	21	4935
2026-01-11 11:10:22.08	288.02	44.76	-30.4	-33.4	13.4	1.98e-05	0	42	0	744488960	21	5048
2026-01-11 11:10:23.09	288.50	44.63	-30.2	-32.6	13.9	7.60e-06	0	42	0	746586112	21	4764
2026-01-11 11:10:24.09	288.98	44.49	-29.9	-31.9	14.3	2.20e-06	0	42	0	748683264	21	4560
2026-01-11 11:10:25.09	289.45	44.35	-29.7	-32.0	14.6	7.00e-07	0	42	0	750780416	20	4672
2026-01-11 11:10:26.10	289.92	44.20	-29.9	-32.5	14.2	7.00e-07	0	42	0	751828992	20	4848
2026-01-11 11:10:27.10	290.38	44.06	-29.8	-32.3	14.4	1.50e-06	0	42	0	753926144	20	4769
2026-01-11 11:10:28.10	290.84	43.91	-29.9	-32.5	14.3	0.00e+00	0	42	0	756023296	20	4854
2026-01-11 11:10:29.11	291.29	43.77	-29.9	-32.5	14.3	7.00e-07	0	42	0	758120448	20	4839
2026-01-11 11:10:30.11	291.74	43.62	-29.5	-31.4	15.0	0.00e+00	0	42	0	760217600	20	4490
2026-01-11 11:10:31.11	292.19	43.47	-29.4	-31.3	15.1	0.00e+00	0	42	0	761266176	20	4444
2026-01-11 11:10:32.12	292.63	43.32	-29.7	-31.8	14.7	0.00e+00	0	42	0	763363328	20	4627
2026-01-11 11:10:33.12	293.07	43.17	-29.6	-31.7	14.7	7.00e-07	0	42	0	765460480	20	4587
2026-01-11 11:10:34.12	293.50	43.01	-29.4	-31.2	15.1	0.00e+00	0	42	0	767557632	20	4426
2026-01-11 11:10:35.13	293.93	42.86	-29.3	-31.4	15.3	0.00e+00	0	42	0	769654784	19	4568
2026-01-11 11:10:36.13	294.36	42.70	-29.1	-30.9	15.6	0.00e+00	0	42	0	770703360	19	4424
2026-01-11 11:10:37.13	294.78	42.55	-29.4	-31.7	15.2	0.00e+00	0	42	0	772800512	19	4670
2026-01-11 11:10:38.14	295.20	42.39	-29.5	-31.8	15.1	0.00e+00	0	42	0	774897664	19	4713
2026-01-11 11:10:39.14	295.61	42.23	-29.4	-31.7	15.1	7.00e-07	0	42	0	776994816	19	4663
2026-01-11 11:10:40.15	296.02	42.07	-29.4	-31.6	15.2	0.00e+00	0	42	0	779091968	19	4649
2026-01-11 11:10:41.15	296.43	41.91	-29.6	-32.1	14.9	0.00e+00	0	42	0	780140544	19	4799
2026-01-11 11:10:42.16	296.83	41.75	-29.6	-32.2	14.9	0.00e+00	0	42	0	782237696	19	4842
2026-01-11 11:10:43.16	297.23	41.59	-29.9	-32.9	14.4	0.00e+00	0	42	0	784334848	19	5082
2026-01-11 11:10:44.16	297.62	41.43	-30.3	-33.6	13.5	6.80e-06	0	42	0	786432000	20	5269
2026-01-11 11:10:45.17	298.01	41.26	-30.4	-33.9	13.4	9.10e-06	0	42	0	788529152	20	5368
2026-01-11 11:10:46.17	298.40	41.10	-30.4	-33.7	13.5	1.29e-05	0	42	0	789577728	20	5298
2026-01-11 11:10:47.18	298.78	40.93	-30.4	-33.7	13.4	6.80e-06	0	42	0	791674880	20	5295
2026-01-11 11:10:48.18	299.16	40.77	-30.4	-33.8	13.4	1.14e-05	0	42	0	793772032	20	5328
2026-01-11 11:10:49.19	299.54	40.60	-30.8	-34.4	12.7	2.97e-05	0	42	0	795869184	21	5457
2026-01-11 11:10:50.19	299.91	40.43	-31.1	-35.0	11.9	2.23e-04	0	42	0	797966336	22	5581
2026-01-11 11:10:51.20	300.28	40.27	-30.6	-33.4	13.0	8.46e-05	0	42	0	799014912	22	4942
2026-01-11 11:10:52.21	300.64	40.10	-30.1	-32.4	14.0	5.30e-06	0	42	0	801112064	21	4716
2026-01-11 11:10:53.21	301.00	39.93	-29.8	-31.8	14.3	0.00e+00	0	42	0	803209216	21	4521
2026-01-11 11:10:54.21	301.35	39.76	-30.2	-32.9	13.7	3.00e-06	0	42	0	805306368	21	4878
2026-01-11 11:10:55.22	301.71	39.59	-30.7	-34.2	12.9	1.98e-05	0	42	0	807403520	21	5361
2026-01-11 11:10:56.23	302.06	39.42	-31.2	-35.2	11.8	2.17e-04	0	42	0	808452096	22	5706
2026-01-11 11:10:57.24	302.41	39.25	-30.9	-34.2	12.4	3.58e-04	0	42	0	810549248	22	5285
2026-01-11 11:10:58.24	302.75	39.08	-30.4	-32.7	13.5	2.51e-05	0	42	0	812646400	22	4711
2026-01-11 11:10:59.25	303.09	38.91	-29.8	-31.6	14.5	2.20e-06	0	42	0	814743552	21	4453
2026-01-11 11:11:00.26	303.42	38.74	-29.8	-32.1	14.5	7.00e-07	0	42	0	816840704	20	4713
2026-01-11 11:11:01.26	303.75	38.57	-30.4	-33.9	13.3	5.30e-06	0	42	0	817889280	20	5353
2026-01-11 11:11:02.26	304.08	38.40	-31.0	-34.7	12.2	9.30e-05	0	42	0	819986432	22	5478
2026-01-11 11:11:03.27	304.41	38.23	-31.2	-35.2	11.7	6.68e-04	0	42	0	822083584	22	5700
2026-01-11 11:11:04.27	304.72	38.06	-30.4	-32.8	13.4	5.64e-05	0	42	0	824180736	22	4741
2026-01-11 11:11:05.28	305.04	37.89	-29.7	-31.9	14.6	2.20e-06	0	42	0	826277888	20	4644
2026-01-11 11:11:06.28	305.36	37.72	-29.5	-31.4	14.9	0.00e+00	0	42	0	827326464	20	4478
2026-01-11 11:11:07.28	305.67	37.54	-30.1	-33.1	13.9	7.00e-07	0	42	0	829423616	20	5055
2026-01-11 11:11:08.29	305.98	37.37	-30.9	-34.9	12.4	5.41e-05	0	42	0	831520768	21	5656
2026-01-11 11:11:09.30	306.28	37.20	-31.6	-35.9	10.9	1.16e-03	0	42	0	833617920	23	5920
2026-01-11 11:11:10.30	306.58	37.03	-31.3	-35.1	11.5	2.18e-03	0	42	0	834666496	23	5534
2026-01-11 11:11:11.31	306.88	36.86	-30.6	-33.4	13.0	8.08e-05	0	42	0	836763648	22	4962
2026-01-11 11:11:12.31	307.18	36.69	-30.2	-32.9	13.6	1.29e-05	0	42	0	838860800	21	4885
2026-01-11 11:11:13.32	307.47	36.51	-30.2	-32.7	13.7	6.10e-06	0	42	0	840957952	21	4827
2026-01-11 11:11:14.32	307.76	36.34	-30.5	-33.5	13.2	1.83e-05	0	42	0	843055104	21	5128
2026-01-11 11:11:15.33	308.05	36.17	-31.0	-35.0	12.2	1.27e-04	0	42	0	845152256	21	5734
2026-01-11 11:11:16.33	308.33	36.00	-31.6	-36.0	10.8	6.93e-04	0	42	0	846200832	23	5953
2026-01-11 11:11:17.34	308.61	35.83	-31.8	-36.7	10.3	4.91e-03	0	42	0	848297984	23	6320
2026-01-11 11:11:18.34	308.89	35.66	-31.1	-34.4	11.9	1.10e-03	0	42	0	850395136	23	5267
2026-01-11 11:11:19.35	309.17	35.49	-30.3	-32.6	13.5	6.71e-05	0	42	0	852492288	22	4681
2026-01-11 11:11:20.35	309.44	35.32	-29.8	-32.1	14.5	1.50e-06	0	42	0	853540864	20	4716
2026-01-11 11:11:21.36	309.71	35.15	-29.7	-32.0	14.5	0.00e+00	0	42	0	855638016	20	4696
2026-01-11 11:11:22.36	309.97	34.98	-30.2	-33.3	13.7	1.50e-06	0	42	0	857735168	20	5124
2026-01-11 11:11:23.37	310.24	34.81	-30.9	-34.7	12.4	2.36e-05	0	42	0	859832320	21	5598
2026-01-11 11:11:24.37	310.50	34.64	-31.5	-36.1	11.1	1.22e-03	0	42	0	861929472	22	6143
2026-01-11 11:11:25.38	310.76	34.47	-31.4	-35.4	11.2	1.59e-03	0	42	0	862978048	23	5698
2026-01-11 11:11:26.38	311.01	34.31	-31.1	-34.4	11.9	9.83e-04	0	42	0	865075200	23	5251
2026-01-11 11:11:27.38	311.27	34.14	-30.8	-33.6	12.5	2.43e-04	0	42	0	867172352	23	4931
2026-01-11 11:11:28.39	311.52	33.97	-30.9	-33.9	12.3	1.31e-04	0	42	0	869269504	23	5042
2026-01-11 11:11:29.39	311.77	33.80	-31.0	-34.0	12.2	2.82e-04	0	42	0	871366656	23	5101
2026-01-11 11:11:30.40	312.01	33.63	-30.9	-33.8	12.4	1.79e-04	0	42	0	872415232	23	5001
2026-01-11 11:11:31.40	312.25	33.47	-31.3	-35.1	11.5	4.39e-04	0	42	0	874512384	23	5549
2026-01-11 11:11:32.41	312.50	33.30	-31.9	-36.9	10.1	3.49e-03	0	42	0	876609536	23	6413
2026-01-11 11:11:33.42	312.74	33.13	-32.3	-37.9	8.9	1.32e-02	0	42	0	878706688	24	6894
2026-01-11 11:11:34.42	312.97	32.97	-32.2	-37.8	9.0	3.06e-02	0	42	0	880803840	24	6802
2026-01-11 11:11:35.43	313.21	32.80	-31.8	-36.3	10.2	1.11e-02	0	42	0	881852416	24	5990
2026-01-11 11:11:36.44	313.44	32.64	-31.4	-34.7	11.3	2.77e-03	0	42	0	883949568	24	5275
2026-01-11 11:11:37.44	313.67	32.47	-31.1	-34.3	12.0	6.04e-04	0	42	0	886046720	23	5221
2026-01-11 11:11:38.45	313.90	32.31	-31.1	-34.4	11.9	3.19e-04	0	42	0	888143872	23	5243
2026-01-11 11:11:39.45	314.12	32.15	-31.3	-34.8	11.6	6.49e-04	0	42	0	890241024	23	5438
2026-01-11 11:11:40.45	314.34	31.98	-31.7	-36.3	10.6	1.09e-03	0	42	0	891289600	23	6093
2026-01-11 11:11:41.46	314.56	31.82	-32.2	-37.6	9.1	1.77e-02	0	42	0	893386752	24	6742
2026-01-11 11:11:42.46	314.78	31.66	-32.6	-39.0	7.7	4.69e-02	0	42	0	895483904	25	7524
2026-01-11 11:11:43.46	314.99	31.50	-32.9	-40.5	6.5	1.94e-01	0	42	0	897581056	25	8623
2026-01-11 11:11:44.46	315.21	31.34	-32.6	-39.1	7.6	1.28e-01	0	42	0	899678208	25	7561
2026-01-11 11:11:45.47	315.42	31.17	-32.0	-36.5	9.5	3.46e-02	0	42	0	900726784	25	6023
2026-01-11 11:11:46.47	315.63	31.01	-31.1	-34.5	11.7	3.40e-03	0	42	0	902823936	23	5309
2026-01-11 11:11:47.47	315.84	30.86	-30.5	-33.1	13.1	5.56e-05	0	42	0	904921088	22	4867
2026-01-11 11:11:48.48	316.04	30.69	-30.0	-32.2	14.0	3.80e-06	0	42	0	907018240	21	4638
2026-01-11 11:11:49.49	316.25	30.53	-29.9	-32.0	14.1	7.00e-07	0	42	0	909115392	21	4579
2026-01-11 11:11:50.48	316.45	30.38	-29.9	-32.1	14.1	2.20e-06	0	42	0	910163968	21	4619
2026-01-11 11:11:51.48	316.64	30.22	-30.4	-33.5	13.2	1.06e-05	0	42	0	912261120	21	5104
2026-01-11 11:11:52.49	316.84	30.06	-30.9	-34.7	12.3	1.10e-04	0	42	0	914358272	21	5602
2026-01-11 11:11:53.48	317.04	29.91	-31.3	-35.4	11.5	3.29e-04	0	42	0	916455424	22	5798
2026-01-11 11:11:54.48	317.23	29.75	-31.6	-36.2	10.6	3.40e-03	0	42	0	918552576	23	6066
2026-01-11 11:11:55.49	317.42	29.60	-31.7	-36.2	10.6	3.68e-03	0	42	0	919601152	23	6085
2026-01-11 11:11:56.49	317.61	29.44	-31.7	-36.3	10.5	3.58e-03	0	42	0	921698304	23	6108
2026-01-11 11:11:57.50	317.80	29.29	-31.5	-35.8	10.9	3.82e-03	0	42	0	923795456	23	5893
2026-01-11 11:11:58.50	317.99	29.13	-31.4	-35.3	11.2	1.46e-03	0	42	0	925892608	23	5642
2026-01-11 11:11:59.50	318.17	28.98	-31.3	-35.2	11.3	1.13e-03	0	42	0	926941184	23	5596
2026-01-11 11:12:00.50	318.36	28.83	-31.3	-35.1	11.4	1.30e-03	0	42	0	929038336	23	5537
2026-01-11 11:12:01.50	318.54	28.67	-31.2	-34.8	11.5	7.37e-04	0	42	0	931135488	23	5443
2026-01-11 11:12:02.50	318.72	28.52	-31.3	-34.9	11.5	7.23e-04	0	42	0	933232640	23	5481
2026-01-11 11:12:03.50	318.90	28.37	-31.4	-35.5	11.1	1.12e-03	0	42	0	935329792	23	5735
2026-01-11 11:12:04.50	319.07	28.22	-31.5	-35.7	11.0	2.51e-03	0	42	0	936378368	23	5828
2026-01-11 11:12:05.50	319.25	28.07	-31.2	-34.7	11.6	9.88e-04	0	42	0	938475520	23	5390
2026-01-11 11:12:06.50	319.42	27.92	-31.0	-34.1	12.1	4.97e-04	0	42	0	940572672	23	5138
2026-01-11 11:12:07.50	319.59	27.77	-30.4	-33.0	13.2	1.23e-04	0	42	0	942669824	22	4829
2026-01-11 11:12:08.51	319.76	27.62	-30.0	-32.4	13.8	1.22e-05	0	42	0	944766976	21	4713
2026-01-11 11:12:09.51	319.93	27.47	-29.8	-31.7	14.3	7.00e-07	0	42	0	945815552	21	4498
2026-01-11 11:12:10.51	320.10	27.33	-29.5	-31.4	14.8	0.00e+00	0	42	0	947912704	20	4479
2026-01-11 11:12:11.51	320.26	27.18	-29.5	-31.6	14.7	0.00e+00	0	42	0	950009856	20	4545
2026-01-11 11:12:12.52	320.43	27.03	-29.5	-31.4	14.8	3.00e-06	0	42	0	952107008	20	4497
2026-01-11 11:12:13.52	320.59	26.89	-29.5	-31.4	14.8	0.00e+00	0	42	0	954204160	20	4488
2026-01-11 11:12:14.52	320.75	26.74	-29.7	-31.9	14.5	1.50e-06	0	42	0	955252736	20	4650
2026-01-11 11:12:15.52	320.91	26.60	-29.9	-32.5	14.1	2.20e-06	0	42	0	957349888	20	4850
2026-01-11 11:12:16.52	321.07	26.45	-30.1	-33.0	13.7	2.20e-06	0	42	0	959447040	20	5048
2026-01-11 11:12:17.52	321.23	26.31	-30.3	-33.7	13.4	1.06e-05	0	42	0	961544192	20	5288
2026-01-11 11:12:18.51	321.38	26.17	-30.5	-33.6	13.0	3.35e-05	0	42	0	963641344	21	5176
2026-01-11 11:12:19.51	321.53	26.03	-30.4	-33.4	13.2	4.19e-05	0	42	0	964689920	21	5084
2026-01-11 11:12:20.51	321.69	25.89	-30.3	-33.2	13.3	1.37e-05	0	42	0	966787072	21	5004
2026-01-11 11:12:21.51	321.84	25.74	-30.3	-33.2	13.3	1.75e-05	0	42	0	968884224	21	4993
2026-01-11 11:12:22.51	321.99	25.60	-30.2	-32.9	13.5	5.30e-06	0	42	0	970981376	21	4908
2026-01-11 11:12:23.51	322.14	25.46	-30.2	-32.8	13.6	7.60e-06	0	42	0	972029952	21	4857
2026-01-11 11:12:24.52	322.29	25.32	-29.9	-32.1	14.0	3.80e-06	0	42	0	974127104	21	4632
2026-01-11 11:12:25.52	322.43	25.18	-29.9	-32.0	14.1	1.50e-06	0	42	0	976224256	21	4604
2026-01-11 11:12:26.53	322.58	25.04	-29.9	-32.0	14.1	1.50e-06	0	42	0	978321408	21	4573
2026-01-11 11:12:27.52	322.72	24.91	-29.7	-32.1	14.3	1.50e-06	0	42	0	980418560	20	4731
2026-01-11 11:12:28.52	322.86	24.77	-29.8	-32.3	14.2	7.00e-07	0	42	0	981467136	20	4792
2026-01-11 11:12:29.52	323.01	24.63	-29.8	-32.4	14.2	7.00e-07	0	42	0	983564288	20	4813
2026-01-11 11:12:30.52	323.15	24.50	-29.8	-32.3	14.1	4.50e-06	0	42	0	985661440	20	4797
2026-01-11 11:12:31.53	323.29	24.36	-29.9	-32.5	14.1	0.00e+00	0	42	0	987758592	20	4858
2026-01-11 11:12:32.53	323.42	24.22	-30.0	-32.7	13.9	3.00e-06	0	42	0	989855744	20	4938
2026-01-11 11:12:33.53	323.56	24.09	-30.1	-33.0	13.7	3.80e-06	0	42	0	990904320	20	5061
2026-01-11 11:12:34.53	323.70	23.96	-30.2	-33.3	13.5	9.90e-06	0	42	0	993001472	20	5175
2026-01-11 11:12:35.54	323.83	23.82	-30.4	-33.9	13.1	1.52e-05	0	42	0	995098624	20	5388
2026-01-11 11:12:36.55	323.97	23.69	-30.5	-33.6	12.9	4.57e-05	0	42	0	997195776	21	5187
2026-01-11 11:12:37.56	324.10	23.55	-30.6	-34.0	12.7	6.25e-05	0	42	0	999292928	21	5350
2026-01-11 11:12:38.56	324.23	23.42	-30.7	-34.3	12.5	1.40e-04	0	42	0	1000341504	21	5441
2026-01-11 11:12:39.57	324.36	23.29	-30.6	-34.0	12.7	7.32e-05	0	42	0	1002438656	21	5320
2026-01-11 11:12:40.57	324.49	23.16	-30.6	-34.0	12.7	6.02e-05	0	42	0	1004535808	21	5340
2026-01-11 11:12:41.58	324.62	23.02	-30.6	-33.9	12.8	4.88e-05	0	42	0	1006632960	21	5282
2026-01-11 11:12:42.58	324.75	22.89	-30.5	-33.6	12.9	4.04e-05	0	42	0	1008730112	21	5193
2026-01-11 11:12:43.59	324.88	22.76	-30.5	-33.9	12.7	6.40e-05	0	42	0	1009778688	21	5295
2026-01-11 11:12:44.59	325.00	22.64	-30.4	-33.6	12.9	6.56e-05	0	42	0	1011875840	21	5168
2026-01-11 11:12:45.60	325.13	22.51	-30.3	-33.3	13.1	4.34e-05	0	42	0	1013972992	21	5065
2026-01-11 11:12:46.60	325.25	22.38	-30.4	-33.4	13.1	2.36e-05	0	42	0	1016070144	21	5082
2026-01-11 11:12:47.60	325.37	22.25	-30.3	-33.1	13.2	2.21e-05	0	42	0	1017118720	21	4993
2026-01-11 11:12:48.59	325.49	22.13	-30.4	-33.6	12.9	2.59e-05	0	42	0	1019215872	21	5177
2026-01-11 11:12:49.59	325.61	22.00	-30.5	-33.6	12.9	7.40e-05	0	42	0	1021313024	21	5202
2026-01-11 11:12:50.60	325.73	21.87	-30.5	-33.9	12.7	4.57e-05	0	42	0	1023410176	21	5284
2026-01-11 11:12:51.60	325.85	21.75	-30.6	-34.0	12.6	1.24e-04	0	42	0	1025507328	21	5344
2026-01-11 11:12:52.60	325.97	21.62	-30.6	-34.1	12.5	9.68e-05	0	42	0	1026555904	21	5400
2026-01-11 11:12:53.60	326.08	21.50	-30.5	-33.8	12.7	1.43e-04	0	42	0	1028653056	21	5281
2026-01-11 11:12:54.59	326.20	21.37	-30.4	-33.6	12.9	7.62e-05	0	42	0	1030750208	21	5179
2026-01-11 11:12:55.59	326.31	21.25	-30.1	-32.8	13.4	2.44e-05	0	42	0	1032847360	21	4893
2026-01-11 11:12:56.58	326.43	21.13	-30.1	-32.6	13.5	6.80e-06	0	42	0	1034944512	21	4807
2026-01-11 11:12:57.57	326.54	21.01	-30.0	-32.4	13.7	9.90e-06	0	42	0	1035993088	21	4737
2026-01-11 11:12:58.58	326.65	20.89	-30.0	-32.5	13.6	9.10e-06	0	42	0	1038090240	21	4775
2026-01-11 11:12:59.59	326.76	20.76	-30.1	-32.6	13.5	9.10e-06	0	42	0	1040187392	21	4836
2026-01-11 11:13:00.60	326.87	20.64	-30.0	-32.5	13.6	8.30e-06	0	42	0	1042284544	21	4774
2026-01-11 11:13:01.60	326.98	20.52	-30.2	-32.9	13.3	8.30e-06	0	42	0	1044381696	21	4920
2026-01-11 11:13:02.59	327.09	20.40	-30.3	-33.2	13.1	3.66e-05	0	42	0	1045430272	21	5038
2026-01-11 11:13:03.59	327.20	20.28	-30.1	-32.8	13.4	1.44e-05	0	42	0	1047527424	21	4877
2026-01-11 11:13:04.59	327.31	20.16	-30.1	-32.7	13.4	7.60e-06	0	42	0	1049624576	21	4842
2026-01-11 11:13:05.60	327.41	20.04	-30.1	-32.7	13.4	1.52e-05	0	42	0	1051721728	21	4850
2026-01-11 11:13:06.61	327.52	19.93	-30.1	-32.9	13.2	2.51e-05	0	42	0	1052770304	21	4949
2026-01-11 11:13:07.61	327.63	19.81	-30.1	-33.0	13.2	1.83e-05	0	42	0	1054867456	21	4977
2026-01-11 11:13:08.60	327.73	19.69	-30.3	-33.2	13.1	2.67e-05	0	42	0	1056964608	21	5038
2026-01-11 11:13:09.60	327.83	19.58	-30.2	-33.0	13.1	2.97e-05	0	42	0	1059061760	21	5012
2026-01-11 11:13:10.60	327.93	19.46	-30.1	-32.9	13.2	2.44e-05	0	42	0	1061158912	21	4961
2026-01-11 11:13:11.60	328.04	19.34	-30.2	-33.0	13.2	1.98e-05	0	42	0	1062207488	21	4966
2026-01-11 11:13:12.60	328.14	19.23	-30.3	-33.2	13.1	2.82e-05	0	42	0	1064304640	21	5029
2026-01-11 11:13:13.61	328.24	19.11	-30.2	-33.1	13.1	3.66e-05	0	42	0	1066401792	21	5000
2026-01-11 11:13:14.60	328.34	19.00	-30.2	-33.1	13.1	3.50e-05	0	42	0	1068498944	21	5009
2026-01-11 11:13:15.60	328.44	18.89	-30.3	-33.3	13.0	3.35e-05	0	42	0	1070596096	21	5078
2026-01-11 11:13:16.60	328.53	18.77	-30.3	-33.3	13.0	3.28e-05	0	42	0	1071644672	21	5079
2026-01-11 11:13:17.60	328.63	18.66	-30.3	-33.2	12.9	5.26e-05	0	42	0	1073741824	21	5071
2026-01-11 11:13:18.61	328.73	18.55	-30.4	-33.5	12.8	5.26e-05	0	42	0	1075838976	21	5162
2026-01-11 11:13:19.62	328.83	18.43	-30.4	-33.6	12.8	8.08e-05	0	42	0	1077936128	21	5208
2026-01-11 11:13:20.62	328.92	18.32	-30.3	-33.3	12.9	5.18e-05	0	42	0	1080033280	21	5095
2026-01-11 11:13:21.62	329.02	18.21	-30.3	-33.5	12.8	5.49e-05	0	42	0	1081081856	21	5161
2026-01-11 11:13:22.63	329.11	18.10	-30.4	-33.7	12.7	5.95e-05	0	42	0	1083179008	21	5236
2026-01-11 11:13:23.62	329.20	17.99	-30.4	-33.7	12.6	9.53e-05	0	42	0	1085276160	21	5238
2026-01-11 11:13:24.62	329.30	17.88	-30.5	-33.9	12.5	6.10e-05	0	42	0	1087373312	21	5318
2026-01-11 11:13:25.63	329.39	17.77	-30.5	-33.8	12.5	1.41e-04	0	42	0	1089470464	21	5284
2026-01-11 11:13:26.63	329.48	17.66	-30.3	-33.4	12.8	5.41e-05	0	42	0	1090519040	21	5149
2026-01-11 11:13:27.64	329.57	17.55	-30.4	-33.6	12.7	7.70e-05	0	42	0	1092616192	21	5208
2026-01-11 11:13:28.64	329.66	17.44	-30.3	-33.3	12.9	7.01e-05	0	42	0	1094713344	21	5100
2026-01-11 11:13:29.65	329.75	17.33	-30.4	-33.7	12.6	6.17e-05	0	42	0	1096810496	21	5243
2026-01-11 11:13:30.65	329.84	17.22	-30.4	-33.8	12.6	9.23e-05	0	42	0	1097859072	21	5275
2026-01-11 11:13:31.65	329.93	17.12	-30.4	-33.7	12.6	8.92e-05	0	42	0	1099956224	21	5269
2026-01-11 11:13:32.65	330.02	17.01	-30.5	-34.0	12.4	1.04e-04	0	42	0	1102053376	21	5376
2026-01-11 11:13:33.64	330.11	16.91	-30.5	-33.9	12.4	1.98e-04	0	42	0	1104150528	21	5358
2026-01-11 11:13:34.64	330.19	16.80	-30.4	-33.7	12.5	9.38e-05	0	42	0	1106247680	21	5269
2026-01-11 11:13:35.65	330.28	16.69	-30.4	-33.7	12.6	9.30e-05	0	42	0	1107296256	21	5240
2026-01-11 11:13:36.65	330.37	16.59	-30.4	-33.7	12.6	1.05e-04	0	42	0	1109393408	21	5247
2026-01-11 11:13:37.66	330.45	16.48	-30.6	-34.3	12.1	2.27e-04	0	42	0	1111490560	21	5508
2026-01-11 11:13:38.66	330.54	16.38	-30.6	-34.2	12.2	2.70e-04	0	42	0	1113587712	21	5460
2026-01-11 11:13:39.67	330.62	16.27	-30.5	-34.0	12.3	1.64e-04	0	42	0	1115684864	21	5392
2026-01-11 11:13:40.66	330.70	16.17	-30.5	-34.0	12.4	1.80e-04	0	42	0	1116733440	21	5371
2026-01-11 11:13:41.66	330.79	16.07	-30.6	-34.2	12.2	1.81e-04	0	42	0	1118830592	21	5444
2026-01-11 11:13:42.66	330.87	15.97	-30.7	-34.5	12.0	2.72e-04	0	42	0	1120927744	21	5596
2026-01-11 11:13:43.67	330.95	15.86	-30.6	-34.3	12.1	3.95e-04	0	42	0	1123024896	21	5492
2026-01-11 11:13:44.67	331.03	15.76	-30.4	-33.8	12.5	1.70e-04	0	42	0	1125122048	21	5298
2026-01-11 11:13:45.67	331.11	15.66	-30.4	-33.6	12.6	1.30e-04	0	42	0	1126170624	21	5217
2026-01-11 11:13:46.67	331.19	15.56	-30.3	-33.4	12.7	9.46e-05	0	42	0	1128267776	21	5154
2026-01-11 11:13:47.67	331.27	15.46	-30.3	-33.3	12.7	8.23e-05	0	42	0	1130364928	21	5120
2026-01-11 11:13:48.67	331.35	15.36	-30.4	-33.7	12.4	1.04e-04	0	42	0	1132462080	21	5279
2026-01-11 11:13:49.66	331.43	15.26	-30.3	-33.6	12.5	1.19e-04	0	42	0	1133510656	21	5205
2026-01-11 11:13:50.66	331.51	15.16	-30.5	-33.9	12.3	1.07e-04	0	42	0	1135607808	21	5342
2026-01-11 11:13:51.67	331.59	15.06	-30.5	-34.0	12.3	1.93e-04	0	42	0	1137704960	21	5378
2026-01-11 11:13:52.67	331.66	14.96	-30.4	-33.6	12.5	1.21e-04	0	42	0	1139802112	21	5238
2026-01-11 11:13:53.68	331.74	14.86	-30.3	-33.5	12.6	7.78e-05	0	42	0	1141899264	21	5200
2026-01-11 11:13:54.68	331.82	14.76	-30.3	-33.4	12.7	7.24e-05	0	42	0	1142947840	21	5154
2026-01-11 11:13:55.69	331.89	14.66	-30.4	-33.6	12.5	9.30e-05	0	42	0	1145044992	21	5235
2026-01-11 11:13:56.70	331.97	14.56	-30.5	-33.9	12.3	1.45e-04	0	42	0	1147142144	21	5339
2026-01-11 11:13:57.70	332.04	14.47	-30.5	-34.1	12.2	2.53e-04	0	42	0	1149239296	21	5436
2026-01-11 11:13:58.70	332.12	14.37	-30.6	-34.4	12.0	3.20e-04	0	42	0	1151336448	21	5551
2026-01-11 11:13:59.70	332.19	14.27	-30.6	-34.4	11.9	3.78e-04	0	42	0	1152385024	21	5580
2026-01-11 11:14:00.69	332.27	14.18	-30.7	-34.7	11.7	4.74e-04	0	42	0	1154482176	21	5715
2026-01-11 11:14:01.70	332.34	14.08	-30.8	-34.9	11.5	8.03e-04	0	42	0	1156579328	21	5795
2026-01-11 11:14:02.70	332.41	13.99	-30.7	-34.8	11.7	6.13e-04	0	42	0	1158676480	21	5726
2026-01-11 11:14:03.71	332.48	13.89	-30.8	-35.0	11.5	6.68e-04	0	42	0	1160773632	21	5816
2026-01-11 11:14:04.71	332.56	13.80	-30.8	-34.9	11.6	8.45e-04	0	42	0	1161822208	21	5771
2026-01-11 11:14:05.71	332.63	13.70	-30.8	-34.9	11.6	6.42e-04	0	42	0	1163919360	21	5796
2026-01-11 11:14:06.70	332.70	13.61	-30.9	-35.2	11.3	8.99e-04	0	42	0	1166016512	21	5933
2026-01-11 11:14:07.71	332.77	13.51	-30.8	-35.0	11.4	1.22e-03	0	42	0	1168113664	21	5863
2026-01-11 11:14:08.71	332.84	13.42	-30.7	-34.6	11.7	6.79e-04	0	42	0	1169162240	21	5674
2026-01-11 11:14:09.71	332.91	13.33	-30.6	-34.4	11.8	4.84e-04	0	42	0	1171259392	21	5575
2026-01-11 11:14:10.71	332.98	13.23	-30.6	-34.5	11.8	4.68e-04	0	42	0	1173356544	21	5630
2026-01-11 11:14:11.70	333.05	13.14	-30.5	-34.2	12.1	3.46e-04	0	42	0	1175453696	21	5473
2026-01-11 11:14:12.71	333.12	13.05	-30.5	-34.1	12.1	5.24e-04	0	42	0	1177550848	21	5453
2026-01-11 11:14:13.71	333.18	12.96	-30.6	-34.5	11.8	3.33e-04	0	42	0	1179648000	21	5618
2026-01-11 11:14:14.72	333.25	12.87	-30.5	-34.1	12.1	3.72e-04	0	42	0	1180696576	21	5438
2026-01-11 11:14:15.73	333.32	12.77	-30.3	-33.6	12.4	1.93e-04	0	42	0	1182793728	21	5236
2026-01-11 11:14:16.73	333.39	12.68	-30.3	-33.4	12.5	9.38e-05	0	42	0	1184890880	21	5154
2026-01-11 11:14:17.74	333.45	12.59	-30.2	-33.2	12.6	1.18e-04	0	42	0	1186988032	21	5109
2026-01-11 11:14:18.74	333.52	12.50	-30.2	-33.3	12.6	1.08e-04	0	42	0	1188036608	21	5132
2026-01-11 11:14:19.74	333.59	12.41	-30.3	-33.5	12.5	1.23e-04	0	42	0	1190133760	21	5190
2026-01-11 11:14:20.75	333.65	12.32	-30.2	-33.2	12.6	1.31e-04	0	42	0	1192230912	21	5104
2026-01-11 11:14:21.76	333.72	12.23	-30.2	-33.2	12.6	8.85e-05	0	42	0	1194328064	21	5094
2026-01-11 11:14:22.76	333.78	12.14	-30.1	-33.1	12.7	7.78e-05	0	42	0	1196425216	21	5042
2026-01-11 11:14:23.77	333.85	12.05	-30.2	-33.3	12.6	8.23e-05	0	42	0	1197473792	21	5124
2026-01-11 11:14:24.78	333.91	11.96	-30.2	-33.2	12.6	1.02e-04	0	42	0	1199570944	21	5085
2026-01-11 11:14:25.79	333.97	11.87	-30.3	-33.5	12.4	1.22e-04	0	42	0	1201668096	21	5221
2026-01-11 11:14:26.80	334.04	11.78	-30.3	-33.5	12.4	1.26e-04	0	42	0	1203765248	21	5203
2026-01-11 11:14:27.80	334.10	11.70	-30.4	-33.7	12.2	1.88e-04	0	42	0	1205862400	21	5322
2026-01-11 11:14:28.81	334.16	11.61	-30.3	-33.6	12.3	1.88e-04	0	42	0	1207959552	21	5247
2026-01-11 11:14:29.82	334.23	11.52	-30.3	-33.5	12.4	1.46e-04	0	42	0	1209008128	21	5228
2026-01-11 11:14:30.83	334.29	11.43	-30.5	-34.3	11.8	2.01e-04	0	42	0	1211105280	21	5547
2026-01-11 11:14:31.83	334.35	11.35	-30.6	-34.4	11.7	4.15e-04	0	42	0	1213202432	21	5594
2026-01-11 11:14:32.84	334.41	11.26	-30.6	-34.6	11.6	6.64e-04	0	42	0	1215299584	21	5689
2026-01-11 11:14:33.84	334.47	11.17	-30.7	-34.8	11.4	7.54e-04	0	42	0	1216348160	21	5772
2026-01-11 11:14:34.84	334.53	11.09	-30.6	-34.6	11.5	8.22e-04	0	42	0	1218445312	21	5707
2026-01-11 11:14:35.85	334.59	11.00	-30.8	-35.0	11.3	9.68e-04	0	42	0	1220542464	21	5878
2026-01-11 11:14:36.85	334.65	10.92	-30.8	-35.1	11.2	1.40e-03	0	42	0	1222639616	21	5930
2026-01-11 11:14:37.85	334.71	10.83	-30.9	-35.5	10.9	1.58e-03	0	42	0	1224736768	21	6116
2026-01-11 11:14:38.86	334.77	10.75	-30.9	-35.4	10.9	2.41e-03	0	42	0	1225785344	21	6084
2026-01-11 11:14:39.86	334.83	10.66	-31.0	-35.8	10.6	2.53e-03	0	42	0	1227882496	21	6269
2026-01-11 11:14:40.87	334.89	10.58	-31.0	-35.2	10.7	3.48e-03	0	42	0	1229979648	22	5865
2026-01-11 11:14:41.87	334.95	10.49	-30.9	-35.0	10.9	2.55e-03	0	42	0	1232076800	22	5772
2026-01-11 11:14:42.88	335.01	10.41	-30.9	-35.0	10.8	2.50e-03	0	42	0	1234173952	22	5793
2026-01-11 11:14:43.88	335.07	10.33	-31.0	-35.3	10.6	2.62e-03	0	42	0	1235222528	22	5908
2026-01-11 11:14:44.88	335.12	10.24	-31.0	-35.2	10.7	3.00e-03	0	42	0	1237319680	22	5887
2026-01-11 11:14:45.88	335.18	10.16	-30.9	-35.2	10.7	2.80e-03	0	42	0	1239416832	22	5863
2026-01-11 11:14:46.88	335.24	10.08	-31.0	-35.4	10.6	3.38e-03	0	42	0	1241513984	22	5977
2026-01-11 11:14:47.89	335.29	9.99	-31.0	-35.2	10.6	3.59e-03	0	42	0	1243611136	22	5895
2026-01-11 11:14:48.88	335.35	9.91	-31.0	-35.3	10.6	2.93e-03	0	42	0	1244659712	22	5935
2026-01-11 11:14:49.89	335.41	9.83	-30.9	-35.2	10.7	2.98e-03	0	42	0	1246756864	22	5880
2026-01-11 11:14:50.90	335.46	9.75	-31.0	-35.2	10.6	2.65e-03	0	42	0	1248854016	22	5905
2026-01-11 11:14:51.90	335.52	9.67	-31.0	-35.4	10.5	3.36e-03	0	42	0	1250951168	22	5975
2026-01-11 11:14:52.91	335.57	9.59	-30.9	-35.2	10.6	3.81e-03	0	42	0	1253048320	22	5863
2026-01-11 11:14:53.91	335.63	9.50	-30.9	-35.1	10.7	2.54e-03	0	42	0	1254096896	22	5822
2026-01-11 11:14:54.91	335.68	9.42	-30.8	-34.9	10.8	2.45e-03	0	42	0	1256194048	22	5738
2026-01-11 11:14:55.91	335.74	9.34	-30.8	-34.6	11.0	2.11e-03	0	42	0	1258291200	22	5622
2026-01-11 11:14:56.92	335.79	9.26	-31.0	-35.3	10.5	2.46e-03	0	42	0	1260388352	22	5939
2026-01-11 11:14:57.92	335.84	9.18	-30.8	-34.9	10.8	3.30e-03	0	42	0	1262485504	22	5753
2026-01-11 11:14:58.92	335.90	9.10	-30.9	-35.2	10.6	2.95e-03	0	42	0	1263534080	22	5906
2026-01-11 11:14:59.93	335.95	9.02	-30.9	-35.2	10.6	2.89e-03	0	42	0	1265631232	22	5864
2026-01-11 11:15:00.94	336.00	8.94	-30.8	-34.8	10.9	2.13e-03	0	42	0	1267728384	22	5686
2026-01-11 11:15:01.94	336.06	8.87	-30.9	-35.0	10.7	2.77e-03	0	42	0	1269825536	22	5793
2026-01-11 11:15:02.94	336.11	8.79	-30.8	-34.7	10.9	2.29e-03	0	42	0	1270874112	22	5673
2026-01-11 11:15:03.94	336.16	8.71	-30.7	-34.5	11.1	1.73e-03	0	42	0	1272971264	22	5564
2026-01-11 11:15:04.95	336.21	8.63	-30.8	-34.9	10.8	2.33e-03	0	42	0	1275068416	22	5748
2026-01-11 11:15:05.96	336.26	8.55	-30.7	-34.6	10.9	2.22e-03	0	42	0	1277165568	22	5637
2026-01-11 11:15:06.97	336.32	8.47	-30.8	-34.7	10.9	2.12e-03	0	42	0	1279262720	22	5677
2026-01-11 11:15:07.96	336.37	8.40	-30.8	-34.8	10.8	2.18e-03	0	42	0	1281359872	22	5700
