passes_logs/2026/01/11/R2M6_AANII_01/R2M6_AANII_01__20260111_115452_NOAA_21_JPSS-2_rec.log

#Pass ID: 20260111_115452_NOAA 21 (JPSS-2)
#Satellite: NOAA 21 (JPSS-2)
#Configuration: NOAA 21
#almurnet v.1.7.20240730
#Start time: 2026-01-11 11:54:52

#Version: 2.2.20231116
#Station: R2M6_AANII_01
#Location: 30.233357 lon 59.946436 lat
#TLE: 1 54234U 22150A   26009.79679979  .00000100  00000+0  68070-4 0  9993
#TLE: 2 54234  98.7494 310.7596 0000833 322.2782  37.8335 14.19533646164071

#Time	Az	El	Level	Level2	SNR	BER	BlckErr	Temp	State	Recorded	gain1	gain2
2026-01-11 11:54:52.02	212.38	6.97	-33.3	-45.3	3.9	1.49e+00	0	42	0	0	27	14396
2026-01-11 11:54:53.01	212.47	7.03	-34.0	-45.8	3.8	1.49e+00	0	42	104	0	28	14036
2026-01-11 11:54:54.01	212.57	7.09	-34.0	-45.7	3.8	1.49e+00	0	42	104	0	28	13995
2026-01-11 11:54:55.01	212.66	7.16	-33.9	-45.7	3.8	1.49e+00	0	42	104	0	28	14009
2026-01-11 11:54:55.99	212.75	7.22	-33.9	-45.7	3.8	1.49e+00	0	42	104	0	28	14010
2026-01-11 11:54:56.99	212.85	7.28	-33.9	-45.7	3.8	1.49e+00	0	42	104	0	28	13964
2026-01-11 11:54:57.99	212.95	7.35	-33.8	-45.5	3.8	1.49e+00	0	42	104	0	28	13799
2026-01-11 11:54:58.99	213.04	7.41	-33.8	-45.5	3.8	1.49e+00	0	42	104	0	28	13779
2026-01-11 11:54:59.99	213.14	7.48	-33.8	-45.4	3.8	1.49e+00	0	42	104	0	28	13755
2026-01-11 11:55:00.99	213.23	7.54	-33.8	-45.3	3.8	1.49e+00	0	42	104	0	28	13677
2026-01-11 11:55:01.98	213.33	7.60	-33.7	-45.2	3.8	1.49e+00	0	42	104	0	28	13602
2026-01-11 11:55:02.99	213.43	7.67	-33.7	-45.2	3.8	1.49e+00	0	42	104	0	28	13578
2026-01-11 11:55:03.99	213.53	7.73	-33.6	-45.1	3.8	1.49e+00	0	42	104	0	28	13472
2026-01-11 11:55:05.00	213.63	7.80	-33.5	-44.9	3.8	1.49e+00	0	42	104	0	28	13354
2026-01-11 11:55:05.99	213.72	7.86	-33.3	-44.6	3.8	1.49e+00	0	42	104	0	28	13117
2026-01-11 11:55:06.99	213.82	7.93	-33.3	-44.9	3.8	1.49e+00	0	42	104	0	27	13750
2026-01-11 11:55:07.99	213.92	7.99	-33.1	-44.3	3.8	1.49e+00	0	42	104	0	27	13057
2026-01-11 11:55:08.99	214.02	8.06	-32.8	-43.6	3.8	1.49e+00	0	42	104	0	26	12583
2026-01-11 11:55:09.99	214.12	8.12	-32.8	-43.7	3.8	1.49e+00	0	42	104	0	26	12704
2026-01-11 11:55:10.99	214.23	8.19	-32.8	-43.8	3.8	1.49e+00	0	42	104	0	26	12849
2026-01-11 11:55:11.99	214.33	8.25	-32.8	-44.0	3.8	1.49e+00	0	42	104	0	26	13089
2026-01-11 11:55:12.99	214.43	8.32	-32.8	-44.2	3.8	1.49e+00	0	42	104	0	26	13352
2026-01-11 11:55:13.99	214.53	8.38	-32.8	-44.1	3.8	1.49e+00	0	42	104	0	26	13224
2026-01-11 11:55:14.99	214.63	8.45	-32.7	-43.4	3.8	1.49e+00	0	42	104	0	26	12293
2026-01-11 11:55:15.98	214.74	8.51	-32.5	-41.7	3.9	1.49e+00	0	42	104	0	26	10396
2026-01-11 11:55:16.98	214.84	8.58	-32.2	-40.6	4.0	1.48e+00	0	42	104	0	25	9404
2026-01-11 11:55:17.97	214.94	8.64	-31.8	-37.7	5.4	1.20e+00	0	42	104	0	25	7079
2026-01-11 11:55:18.98	215.05	8.71	-31.3	-35.8	6.9	2.54e-01	0	42	0	1048576	24	6064
2026-01-11 11:55:19.97	215.15	8.78	-30.7	-34.6	8.4	6.74e-02	0	42	0	4194304	22	5661
2026-01-11 11:55:20.96	215.26	8.84	-30.2	-33.6	9.5	1.72e-02	0	42	0	7340032	21	5323
2026-01-11 11:55:21.97	215.36	8.91	-29.8	-32.4	10.3	6.69e-03	0	42	0	10485760	21	4824
2026-01-11 11:55:22.97	215.47	8.97	-29.6	-32.2	10.8	2.78e-03	0	42	0	13631488	20	4849
2026-01-11 11:55:23.97	215.58	9.04	-29.2	-31.6	11.6	7.67e-04	0	42	0	16777216	19	4751
2026-01-11 11:55:24.97	215.68	9.11	-29.2	-31.7	11.6	8.58e-04	0	42	0	19922944	19	4766
2026-01-11 11:55:25.96	215.79	9.17	-29.3	-31.9	11.4	8.35e-04	0	42	0	23068672	19	4837
2026-01-11 11:55:26.96	215.90	9.24	-29.5	-32.5	11.0	1.65e-03	0	42	0	26214400	19	5058
2026-01-11 11:55:27.96	216.01	9.31	-29.9	-33.5	10.4	3.40e-03	0	42	0	29360128	19	5441
2026-01-11 11:55:28.95	216.12	9.37	-29.9	-33.6	10.2	5.16e-03	0	42	0	32505856	19	5513
2026-01-11 11:55:29.96	216.23	9.44	-29.7	-32.8	10.8	2.99e-03	0	42	0	35651584	19	5177
2026-01-11 11:55:30.95	216.34	9.51	-29.9	-33.5	10.3	4.02e-03	0	42	0	38797312	19	5464
2026-01-11 11:55:31.95	216.45	9.57	-29.8	-33.3	10.4	4.31e-03	0	42	0	41943040	19	5386
2026-01-11 11:55:32.94	216.56	9.64	-29.9	-33.5	10.3	4.86e-03	0	42	0	45088768	19	5460
2026-01-11 11:55:33.94	216.67	9.71	-30.0	-33.4	10.0	8.51e-03	0	42	0	48234496	20	5318
2026-01-11 11:55:34.94	216.78	9.77	-30.4	-34.7	9.1	1.54e-02	0	42	0	51380224	20	5878
2026-01-11 11:55:35.94	216.89	9.84	-30.1	-33.7	9.8	1.31e-02	0	42	0	54525952	20	5442
2026-01-11 11:55:36.94	217.01	9.91	-30.0	-33.2	10.1	6.69e-03	0	42	0	56623104	20	5246
2026-01-11 11:55:37.94	217.12	9.98	-29.5	-31.8	11.1	1.80e-03	0	42	0	59768832	20	4729
2026-01-11 11:55:38.94	217.23	10.04	-29.3	-31.7	11.6	1.37e-03	0	42	0	62914560	19	4770
2026-01-11 11:55:39.94	217.35	10.11	-29.9	-33.4	10.5	1.92e-03	0	42	0	66060288	19	5383
2026-01-11 11:55:40.94	217.46	10.18	-29.5	-32.3	11.3	1.32e-03	0	42	0	69206016	19	4961
2026-01-11 11:55:41.94	217.58	10.25	-29.1	-31.3	11.9	5.03e-04	0	42	0	72351744	19	4620
2026-01-11 11:55:42.94	217.70	10.31	-28.3	-30.2	12.5	1.98e-04	0	42	0	75497472	18	4481
2026-01-11 11:55:43.94	217.81	10.38	-28.4	-30.0	13.0	7.24e-05	0	42	0	78643200	18	4331
2026-01-11 11:55:44.94	217.93	10.45	-28.0	-29.6	13.5	1.29e-05	0	42	0	81788928	17	4317
2026-01-11 11:55:45.93	218.05	10.52	-28.0	-29.6	13.6	9.90e-06	0	42	0	84934656	17	4304
2026-01-11 11:55:46.91	218.16	10.59	-28.0	-29.6	13.6	9.90e-06	0	42	0	88080384	17	4298
2026-01-11 11:55:47.91	218.28	10.65	-28.0	-29.6	13.6	6.10e-06	0	42	0	91226112	17	4315
2026-01-11 11:55:48.91	218.40	10.72	-28.2	-30.1	13.3	1.75e-05	0	42	0	94371840	17	4449
2026-01-11 11:55:49.90	218.52	10.79	-28.0	-29.6	13.6	1.37e-05	0	42	0	97517568	17	4300
2026-01-11 11:55:50.90	218.64	10.86	-27.8	-29.1	13.9	2.20e-06	0	42	0	100663296	17	4163
2026-01-11 11:55:51.89	218.76	10.93	-27.6	-29.0	14.3	7.00e-07	0	42	0	103809024	16	4239
2026-01-11 11:55:52.89	218.88	11.00	-27.6	-29.0	14.3	7.00e-07	0	42	0	106954752	16	4248
2026-01-11 11:55:53.89	219.00	11.06	-27.5	-28.9	14.3	1.50e-06	0	42	0	110100480	16	4220
2026-01-11 11:55:54.89	219.13	11.13	-27.7	-29.2	14.2	2.20e-06	0	42	0	113246208	16	4288
2026-01-11 11:55:55.89	219.25	11.20	-27.6	-29.1	14.2	0.00e+00	0	42	0	116391936	16	4269
2026-01-11 11:55:56.89	219.37	11.27	-27.6	-29.1	14.2	0.00e+00	0	42	0	119537664	16	4269
2026-01-11 11:55:57.88	219.50	11.34	-27.7	-29.3	14.1	2.20e-06	0	42	0	122683392	16	4343
2026-01-11 11:55:58.87	219.62	11.41	-27.6	-29.1	14.2	7.00e-07	0	42	0	125829120	16	4274
2026-01-11 11:55:59.87	219.74	11.48	-27.7	-29.2	14.1	1.50e-06	0	42	0	128974848	16	4305
2026-01-11 11:56:00.85	219.87	11.55	-27.5	-28.9	14.4	0.00e+00	0	42	0	132120576	16	4201
2026-01-11 11:56:01.84	219.99	11.61	-27.6	-29.1	14.2	2.20e-06	0	42	0	135266304	16	4283
2026-01-11 11:56:02.83	220.12	11.68	-27.6	-29.1	14.2	1.50e-06	0	42	0	138412032	16	4283
2026-01-11 11:56:03.83	220.25	11.75	-27.7	-29.2	14.2	0.00e+00	0	42	0	141557760	16	4303
2026-01-11 11:56:04.82	220.37	11.82	-27.5	-28.9	14.4	1.50e-06	0	42	0	144703488	16	4214
2026-01-11 11:56:05.81	220.50	11.89	-27.5	-28.8	14.5	1.50e-06	0	42	0	146800640	16	4174
2026-01-11 11:56:06.80	220.63	11.96	-27.3	-28.5	14.6	0.00e+00	0	42	0	149946368	16	4092
2026-01-11 11:56:07.80	220.76	12.03	-27.5	-28.7	14.5	1.50e-06	0	42	0	153092096	16	4166
2026-01-11 11:56:08.80	220.89	12.10	-27.4	-28.6	14.6	0.00e+00	0	42	0	156237824	16	4124
2026-01-11 11:56:09.79	221.02	12.17	-27.4	-28.6	14.6	0.00e+00	0	42	0	159383552	16	4119
2026-01-11 11:56:10.79	221.15	12.24	-27.5	-28.7	14.5	0.00e+00	0	42	0	162529280	16	4167
2026-01-11 11:56:11.80	221.29	12.31	-27.3	-28.4	14.7	7.00e-07	0	42	0	165675008	16	4077
2026-01-11 11:56:12.81	221.42	12.38	-27.1	-28.5	14.8	7.00e-07	0	42	0	168820736	15	4205
2026-01-11 11:56:13.81	221.55	12.45	-27.0	-28.3	14.9	0.00e+00	0	42	0	171966464	15	4160
2026-01-11 11:56:14.80	221.69	12.52	-27.2	-28.7	14.7	7.00e-07	0	42	0	175112192	15	4278
2026-01-11 11:56:15.79	221.82	12.59	-27.1	-28.4	14.8	0.00e+00	0	42	0	178257920	15	4189
2026-01-11 11:56:16.79	221.96	12.66	-27.1	-28.3	14.9	3.00e-06	0	42	0	181403648	15	4154
2026-01-11 11:56:17.78	222.09	12.73	-27.2	-28.6	14.7	0.00e+00	0	42	0	184549376	15	4251
2026-01-11 11:56:18.78	222.23	12.80	-27.2	-28.6	14.7	0.00e+00	0	42	0	187695104	15	4237
2026-01-11 11:56:19.78	222.37	12.87	-27.1	-28.4	14.8	1.50e-06	0	42	0	190840832	15	4194
2026-01-11 11:56:20.78	222.50	12.94	-27.0	-28.1	15.0	0.00e+00	0	42	0	193986560	15	4103
2026-01-11 11:56:21.78	222.64	13.01	-27.2	-28.6	14.8	0.00e+00	0	42	0	197132288	15	4228
2026-01-11 11:56:22.78	222.78	13.08	-27.0	-28.3	14.9	0.00e+00	0	42	0	200278016	15	4155
2026-01-11 11:56:23.78	222.92	13.16	-27.1	-28.3	14.9	0.00e+00	0	42	0	203423744	15	4167
2026-01-11 11:56:24.77	223.06	13.23	-27.1	-28.5	14.8	0.00e+00	0	42	0	206569472	15	4201
2026-01-11 11:56:25.77	223.20	13.30	-27.0	-28.1	15.0	0.00e+00	0	42	0	209715200	15	4114
2026-01-11 11:56:26.76	223.34	13.37	-27.0	-28.2	15.0	0.00e+00	0	42	0	212860928	15	4138
2026-01-11 11:56:27.75	223.48	13.44	-26.9	-27.9	15.1	0.00e+00	0	42	0	216006656	15	4058
2026-01-11 11:56:28.74	223.63	13.51	-27.0	-28.1	15.0	0.00e+00	0	42	0	219152384	15	4111
2026-01-11 11:56:29.74	223.77	13.58	-27.0	-28.2	15.0	0.00e+00	0	42	0	222298112	15	4127
2026-01-11 11:56:30.74	223.91	13.65	-27.1	-28.4	14.9	0.00e+00	0	42	0	225443840	15	4190
2026-01-11 11:56:31.73	224.06	13.72	-27.0	-28.2	15.0	0.00e+00	0	42	0	228589568	15	4139
2026-01-11 11:56:32.73	224.20	13.79	-26.9	-28.0	15.1	0.00e+00	0	42	0	231735296	15	4075
2026-01-11 11:56:33.73	224.35	13.86	-27.2	-28.6	14.8	0.00e+00	0	42	0	234881024	15	4228
2026-01-11 11:56:34.72	224.50	13.93	-27.0	-28.1	15.1	2.20e-06	0	42	0	238026752	15	4108
2026-01-11 11:56:35.71	224.64	14.00	-27.0	-28.2	15.1	0.00e+00	0	42	0	241172480	15	4114
2026-01-11 11:56:36.71	224.79	14.08	-27.0	-28.2	15.0	0.00e+00	0	42	0	244318208	15	4138
2026-01-11 11:56:37.71	224.94	14.15	-27.2	-28.6	14.8	7.00e-07	0	42	0	247463936	15	4241
2026-01-11 11:56:38.72	225.09	14.22	-27.1	-28.3	15.0	0.00e+00	0	42	0	250609664	15	4164
2026-01-11 11:56:39.72	225.24	14.29	-27.1	-28.3	15.0	0.00e+00	0	42	0	253755392	15	4151
2026-01-11 11:56:40.71	225.39	14.36	-27.1	-28.4	15.0	0.00e+00	0	42	0	255852544	15	4177
2026-01-11 11:56:41.69	225.54	14.43	-27.3	-28.8	14.7	0.00e+00	0	42	0	258998272	15	4281
2026-01-11 11:56:42.69	225.70	14.50	-27.2	-28.6	14.8	0.00e+00	0	42	0	262144000	15	4234
2026-01-11 11:56:43.68	225.85	14.57	-27.2	-28.6	14.8	7.00e-07	0	42	0	265289728	15	4240
2026-01-11 11:56:44.68	226.00	14.65	-27.2	-28.7	14.8	7.00e-07	0	42	0	268435456	15	4255
2026-01-11 11:56:45.67	226.15	14.72	-27.3	-28.8	14.8	0.00e+00	0	42	0	271581184	15	4281
2026-01-11 11:56:46.66	226.31	14.79	-27.2	-28.7	14.8	0.00e+00	0	42	0	274726912	15	4263
2026-01-11 11:56:47.65	226.46	14.86	-27.3	-28.7	14.8	0.00e+00	0	42	0	277872640	15	4267
2026-01-11 11:56:48.65	226.62	14.93	-27.2	-28.6	14.8	0.00e+00	0	42	0	281018368	15	4235
2026-01-11 11:56:49.65	226.78	15.00	-27.4	-29.2	14.6	0.00e+00	0	42	0	284164096	15	4388
2026-01-11 11:56:50.65	226.94	15.07	-27.3	-28.9	14.7	7.00e-07	0	42	0	287309824	15	4316
2026-01-11 11:56:51.65	227.10	15.15	-27.2	-28.6	14.9	0.00e+00	0	42	0	290455552	15	4233
2026-01-11 11:56:52.64	227.26	15.22	-27.2	-28.6	14.9	0.00e+00	0	42	0	293601280	15	4239
2026-01-11 11:56:53.64	227.42	15.29	-27.2	-28.5	14.9	0.00e+00	0	42	0	296747008	15	4207
2026-01-11 11:56:54.63	227.58	15.36	-27.2	-28.6	14.9	0.00e+00	0	42	0	299892736	15	4237
2026-01-11 11:56:55.63	227.74	15.43	-27.1	-28.3	15.0	0.00e+00	0	42	0	303038464	15	4153
2026-01-11 11:56:56.62	227.90	15.50	-27.3	-28.8	14.8	0.00e+00	0	42	0	306184192	15	4286
2026-01-11 11:56:57.61	228.06	15.57	-27.1	-28.5	15.0	0.00e+00	0	42	0	309329920	15	4191
2026-01-11 11:56:58.62	228.23	15.64	-27.1	-28.4	15.0	0.00e+00	0	42	0	312475648	15	4165
2026-01-11 11:56:59.61	228.39	15.72	-27.1	-28.3	15.1	7.00e-07	0	42	0	315621376	15	4153
2026-01-11 11:57:00.61	228.56	15.79	-27.2	-28.5	15.0	0.00e+00	0	42	0	318767104	15	4211
2026-01-11 11:57:01.61	228.73	15.86	-27.1	-28.4	15.0	0.00e+00	0	42	0	321912832	15	4177
2026-01-11 11:57:02.60	228.89	15.93	-27.2	-28.7	14.9	0.00e+00	0	42	0	325058560	15	4253
2026-01-11 11:57:03.59	229.06	16.00	-27.2	-28.6	14.9	0.00e+00	0	42	0	328204288	15	4226
2026-01-11 11:57:04.58	229.23	16.07	-27.3	-28.8	14.8	0.00e+00	0	42	0	331350016	15	4280
2026-01-11 11:57:05.57	229.39	16.14	-27.3	-28.7	14.9	0.00e+00	0	42	0	334495744	15	4260
2026-01-11 11:57:06.56	229.56	16.21	-27.2	-28.6	14.9	0.00e+00	0	42	0	337641472	15	4236
2026-01-11 11:57:07.56	229.74	16.28	-27.3	-28.7	14.9	0.00e+00	0	42	0	339738624	15	4264
2026-01-11 11:57:08.55	229.91	16.36	-27.3	-28.7	14.9	0.00e+00	0	42	0	342884352	15	4264
2026-01-11 11:57:09.55	230.08	16.43	-27.3	-28.8	14.8	0.00e+00	0	42	0	346030080	15	4290
2026-01-11 11:57:10.54	230.25	16.50	-27.3	-28.8	14.9	0.00e+00	0	42	0	349175808	15	4286
2026-01-11 11:57:11.54	230.43	16.57	-27.2	-28.6	14.9	0.00e+00	0	42	0	352321536	15	4235
2026-01-11 11:57:12.53	230.60	16.64	-27.4	-28.9	14.8	0.00e+00	0	42	0	355467264	15	4317
2026-01-11 11:57:13.53	230.78	16.71	-27.4	-29.0	14.8	0.00e+00	0	42	0	358612992	15	4331
2026-01-11 11:57:14.51	230.95	16.78	-27.3	-28.8	14.8	0.00e+00	0	42	0	361758720	15	4288
2026-01-11 11:57:15.51	231.13	16.85	-27.4	-29.0	14.8	0.00e+00	0	42	0	364904448	15	4324
2026-01-11 11:57:16.51	231.31	16.92	-27.4	-29.0	14.8	7.00e-07	0	42	0	368050176	15	4341
2026-01-11 11:57:17.50	231.49	16.99	-27.4	-29.0	14.8	0.00e+00	0	42	0	371195904	15	4334
2026-01-11 11:57:18.51	231.67	17.06	-27.4	-29.0	14.8	0.00e+00	0	42	0	374341632	15	4348
2026-01-11 11:57:19.50	231.85	17.14	-27.4	-29.0	14.7	0.00e+00	0	42	0	377487360	15	4348
2026-01-11 11:57:20.49	232.03	17.21	-27.4	-29.0	14.8	0.00e+00	0	42	0	380633088	15	4339
2026-01-11 11:57:21.48	232.21	17.28	-27.3	-28.7	14.9	0.00e+00	0	42	0	383778816	15	4262
2026-01-11 11:57:22.48	232.39	17.35	-27.2	-28.6	15.0	2.20e-06	0	42	0	386924544	15	4230
2026-01-11 11:57:23.48	232.58	17.42	-27.2	-28.6	15.0	0.00e+00	0	42	0	390070272	15	4225
2026-01-11 11:57:24.46	232.76	17.49	-27.3	-28.7	15.0	0.00e+00	0	42	0	393216000	15	4254
2026-01-11 11:57:25.46	232.94	17.56	-27.3	-28.7	15.0	0.00e+00	0	42	0	396361728	15	4253
2026-01-11 11:57:26.45	233.13	17.63	-27.2	-28.5	15.1	0.00e+00	0	42	0	399507456	15	4187
2026-01-11 11:57:27.46	233.32	17.70	-27.2	-28.5	15.0	0.00e+00	0	42	0	402653184	15	4206
2026-01-11 11:57:28.45	233.51	17.77	-27.2	-28.5	15.1	0.00e+00	0	42	0	405798912	15	4201
2026-01-11 11:57:29.46	233.70	17.84	-27.1	-28.4	15.2	0.00e+00	0	42	0	408944640	15	4175
2026-01-11 11:57:30.45	233.89	17.91	-27.1	-28.2	15.3	0.00e+00	0	42	0	412090368	15	4115
2026-01-11 11:57:31.44	234.08	17.98	-27.0	-28.0	15.4	0.00e+00	0	42	0	415236096	15	4065
2026-01-11 11:57:32.43	234.27	18.04	-27.0	-28.0	15.4	0.00e+00	0	42	0	418381824	15	4069
2026-01-11 11:57:33.43	234.46	18.11	-27.0	-28.2	15.3	0.00e+00	0	42	0	421527552	15	4107
2026-01-11 11:57:34.42	234.65	18.18	-26.9	-27.8	15.4	0.00e+00	0	42	0	424673280	15	4016
2026-01-11 11:57:35.40	234.84	18.25	-27.0	-28.0	15.4	0.00e+00	0	42	0	426770432	15	4066
2026-01-11 11:57:36.38	235.03	18.32	-27.0	-28.2	15.3	0.00e+00	0	42	0	429916160	15	4103
2026-01-11 11:57:37.38	235.23	18.39	-27.1	-28.3	15.2	0.00e+00	0	42	0	433061888	15	4132
2026-01-11 11:57:38.38	235.43	18.46	-27.0	-28.2	15.3	0.00e+00	0	42	0	436207616	15	4098
2026-01-11 11:57:39.36	235.62	18.52	-27.1	-28.3	15.3	0.00e+00	0	42	0	439353344	15	4139
2026-01-11 11:57:40.36	235.82	18.59	-27.0	-28.1	15.4	0.00e+00	0	42	0	442499072	15	4077
2026-01-11 11:57:41.35	236.02	18.66	-26.9	-27.9	15.5	0.00e+00	0	42	0	445644800	15	4040
2026-01-11 11:57:42.35	236.22	18.73	-27.0	-28.0	15.4	0.00e+00	0	42	0	448790528	15	4062
2026-01-11 11:57:43.35	236.42	18.80	-26.9	-28.0	15.4	0.00e+00	0	42	0	451936256	15	4045
2026-01-11 11:57:44.35	236.62	18.87	-26.9	-27.8	15.6	0.00e+00	0	42	0	455081984	15	4012
2026-01-11 11:57:45.35	236.83	18.93	-26.8	-27.7	15.6	0.00e+00	0	42	0	458227712	15	3973
2026-01-11 11:57:46.34	237.03	19.00	-26.9	-27.8	15.6	0.00e+00	0	42	0	461373440	15	3996
2026-01-11 11:57:47.34	237.24	19.07	-26.8	-27.6	15.6	0.00e+00	0	42	0	464519168	15	3954
2026-01-11 11:57:48.34	237.44	19.14	-26.9	-27.8	15.5	0.00e+00	0	42	0	467664896	15	3992
2026-01-11 11:57:49.33	237.65	19.20	-26.9	-27.8	15.5	0.00e+00	0	42	0	470810624	15	4002
2026-01-11 11:57:50.32	237.85	19.27	-26.9	-28.0	15.5	0.00e+00	0	42	0	473956352	15	4042
2026-01-11 11:57:51.31	238.06	19.33	-27.1	-28.3	15.3	0.00e+00	0	42	0	477102080	15	4136
2026-01-11 11:57:52.32	238.27	19.40	-27.1	-28.2	15.3	0.00e+00	0	42	0	480247808	15	4118
2026-01-11 11:57:53.31	238.48	19.47	-27.2	-28.5	15.2	0.00e+00	0	42	0	483393536	15	4190
2026-01-11 11:57:54.30	238.69	19.53	-27.4	-28.9	14.9	7.00e-07	0	42	0	486539264	15	4304
2026-01-11 11:57:55.30	238.90	19.60	-27.2	-28.4	15.2	0.00e+00	0	42	0	489684992	15	4176
2026-01-11 11:57:56.29	239.11	19.67	-27.0	-28.0	15.4	0.00e+00	0	42	0	492830720	15	4065
2026-01-11 11:57:57.30	239.33	19.73	-27.0	-28.1	15.4	0.00e+00	0	42	0	495976448	15	4090
2026-01-11 11:57:58.30	239.54	19.80	-27.1	-28.2	15.4	0.00e+00	0	42	0	499122176	15	4103
2026-01-11 11:57:59.30	239.76	19.86	-27.0	-28.0	15.5	0.00e+00	0	42	0	502267904	15	4055
2026-01-11 11:58:00.30	239.98	19.93	-27.0	-28.1	15.4	0.00e+00	0	42	0	505413632	15	4089
2026-01-11 11:58:01.29	240.19	19.99	-27.0	-28.1	15.4	0.00e+00	0	42	0	508559360	15	4081
2026-01-11 11:58:02.29	240.41	20.06	-27.1	-28.4	15.3	0.00e+00	0	42	0	511705088	15	4155
2026-01-11 11:58:03.29	240.63	20.12	-27.1	-28.4	15.2	0.00e+00	0	42	0	514850816	15	4163
2026-01-11 11:58:04.30	240.85	20.18	-27.2	-28.5	15.2	0.00e+00	0	42	0	517996544	15	4195
2026-01-11 11:58:05.30	241.07	20.25	-27.2	-28.4	15.2	0.00e+00	0	42	0	521142272	15	4172
2026-01-11 11:58:06.30	241.29	20.31	-27.2	-28.6	15.1	0.00e+00	0	42	0	524288000	15	4224
2026-01-11 11:58:07.30	241.52	20.37	-27.2	-28.6	15.2	0.00e+00	0	42	0	527433728	15	4213
2026-01-11 11:58:08.30	241.74	20.44	-27.2	-28.5	15.2	0.00e+00	0	42	0	530579456	15	4185
2026-01-11 11:58:09.31	241.97	20.50	-27.0	-28.0	15.5	0.00e+00	0	42	0	533725184	15	4063
2026-01-11 11:58:10.31	242.19	20.56	-27.0	-28.1	15.5	0.00e+00	0	42	0	536870912	15	4070
2026-01-11 11:58:11.30	242.42	20.62	-27.0	-28.1	15.5	0.00e+00	0	42	0	538968064	15	4063
2026-01-11 11:58:12.30	242.65	20.69	-27.0	-28.0	15.5	0.00e+00	0	42	0	542113792	15	4057
2026-01-11 11:58:13.30	242.87	20.75	-27.1	-28.2	15.4	0.00e+00	0	42	0	545259520	15	4106
2026-01-11 11:58:14.31	243.11	20.81	-26.9	-27.9	15.6	0.00e+00	0	42	0	548405248	15	4025
2026-01-11 11:58:15.31	243.34	20.87	-27.0	-28.0	15.5	0.00e+00	0	42	0	551550976	15	4056
2026-01-11 11:58:16.31	243.57	20.93	-27.1	-28.2	15.4	0.00e+00	0	42	0	554696704	15	4113
2026-01-11 11:58:17.30	243.80	20.99	-27.1	-28.3	15.3	7.00e-07	0	42	0	557842432	15	4139
2026-01-11 11:58:18.29	244.03	21.05	-27.1	-28.4	15.3	0.00e+00	0	42	0	560988160	15	4156
2026-01-11 11:58:19.28	244.26	21.11	-27.2	-28.5	15.2	0.00e+00	0	42	0	564133888	15	4184
2026-01-11 11:58:20.28	244.49	21.17	-27.1	-28.2	15.4	0.00e+00	0	42	0	567279616	15	4107
2026-01-11 11:58:21.28	244.73	21.23	-27.0	-28.2	15.4	0.00e+00	0	42	0	570425344	15	4093
2026-01-11 11:58:22.28	244.96	21.29	-26.8	-27.7	15.7	0.00e+00	0	42	0	573571072	15	3982
2026-01-11 11:58:23.28	245.20	21.34	-26.8	-28.1	15.7	0.00e+00	0	42	0	576716800	14	4175
2026-01-11 11:58:24.28	245.44	21.40	-26.7	-27.8	15.9	0.00e+00	0	42	0	579862528	14	4104
2026-01-11 11:58:25.27	245.68	21.46	-26.7	-27.9	15.9	0.00e+00	0	42	0	583008256	14	4129
2026-01-11 11:58:26.27	245.92	21.52	-26.9	-28.2	15.7	0.00e+00	0	42	0	586153984	14	4219
2026-01-11 11:58:27.27	246.16	21.57	-26.8	-28.0	15.8	0.00e+00	0	42	0	589299712	14	4162
2026-01-11 11:58:28.27	246.40	21.63	-26.7	-27.9	15.8	0.00e+00	0	42	0	592445440	14	4137
2026-01-11 11:58:29.27	246.64	21.69	-26.7	-28.0	15.8	0.00e+00	0	42	0	595591168	14	4162
2026-01-11 11:58:30.27	246.88	21.74	-26.8	-28.2	15.7	0.00e+00	0	42	0	598736896	14	4214
2026-01-11 11:58:31.27	247.13	21.80	-26.8	-28.2	15.7	0.00e+00	0	42	0	601882624	14	4212
2026-01-11 11:58:32.26	247.37	21.85	-26.8	-28.2	15.7	0.00e+00	0	42	0	605028352	14	4200
2026-01-11 11:58:33.26	247.61	21.90	-27.0	-28.5	15.5	0.00e+00	0	42	0	608174080	14	4292
2026-01-11 11:58:34.26	247.86	21.96	-27.0	-28.6	15.5	0.00e+00	0	42	0	611319808	14	4326
2026-01-11 11:58:35.25	248.11	22.01	-26.7	-27.9	15.9	0.00e+00	0	42	0	614465536	14	4134
2026-01-11 11:58:36.24	248.35	22.06	-26.6	-27.6	16.0	0.00e+00	0	42	0	617611264	14	4062
2026-01-11 11:58:37.23	248.60	22.12	-26.6	-27.7	16.0	0.00e+00	0	42	0	620756992	14	4064
2026-01-11 11:58:38.22	248.85	22.17	-26.7	-27.9	15.9	0.00e+00	0	42	0	623902720	14	4125
2026-01-11 11:58:39.21	249.09	22.22	-26.7	-27.8	15.9	0.00e+00	0	42	0	627048448	14	4108
2026-01-11 11:58:40.22	249.35	22.27	-26.8	-28.1	15.8	0.00e+00	0	42	0	630194176	14	4170
2026-01-11 11:58:41.22	249.60	22.32	-26.8	-28.0	15.8	0.00e+00	0	42	0	633339904	14	4168
2026-01-11 11:58:42.22	249.85	22.37	-26.8	-28.1	15.8	0.00e+00	0	42	0	636485632	14	4180
2026-01-11 11:58:43.23	250.11	22.42	-26.6	-27.7	16.0	0.00e+00	0	42	0	639631360	14	4066
2026-01-11 11:58:44.22	250.36	22.47	-26.5	-27.5	16.1	0.00e+00	0	42	0	642777088	14	4015
2026-01-11 11:58:45.22	250.62	22.52	-26.6	-27.7	16.0	0.00e+00	0	42	0	645922816	14	4065
2026-01-11 11:58:46.22	250.87	22.57	-26.7	-27.8	16.0	0.00e+00	0	42	0	649068544	14	4115
2026-01-11 11:58:47.21	251.13	22.62	-26.7	-27.9	15.9	0.00e+00	0	42	0	651165696	14	4129
2026-01-11 11:58:48.21	251.38	22.66	-26.7	-27.8	16.0	0.00e+00	0	42	0	654311424	14	4095
2026-01-11 11:58:49.20	251.64	22.71	-26.7	-27.9	15.9	0.00e+00	0	42	0	657457152	14	4132
2026-01-11 11:58:50.20	251.90	22.76	-26.8	-28.1	15.8	0.00e+00	0	42	0	660602880	14	4178
2026-01-11 11:58:51.20	252.16	22.80	-26.8	-28.2	15.8	0.00e+00	0	42	0	663748608	14	4205
2026-01-11 11:58:52.20	252.42	22.85	-26.8	-28.1	15.8	0.00e+00	0	42	0	666894336	14	4189
2026-01-11 11:58:53.19	252.68	22.89	-26.7	-27.8	15.9	0.00e+00	0	42	0	670040064	14	4110
2026-01-11 11:58:54.18	252.94	22.94	-26.6	-27.6	16.1	0.00e+00	0	42	0	673185792	14	4046
2026-01-11 11:58:55.17	253.20	22.98	-26.6	-27.7	16.1	0.00e+00	0	42	0	676331520	14	4059
2026-01-11 11:58:56.16	253.46	23.02	-26.6	-27.6	16.1	0.00e+00	0	42	0	679477248	14	4059
2026-01-11 11:58:57.17	253.73	23.07	-26.7	-27.9	15.9	1.50e-06	0	42	0	682622976	14	4118
2026-01-11 11:58:58.17	253.99	23.11	-26.7	-27.9	15.9	0.00e+00	0	42	0	685768704	14	4111
2026-01-11 11:58:59.16	254.25	23.15	-26.9	-28.2	15.7	0.00e+00	0	42	0	688914432	14	4210
2026-01-11 11:59:00.16	254.52	23.19	-27.0	-28.5	15.6	0.00e+00	0	42	0	692060160	14	4286
2026-01-11 11:59:01.17	254.79	23.23	-26.7	-28.0	15.9	0.00e+00	0	42	0	695205888	14	4152
2026-01-11 11:59:02.15	255.05	23.27	-26.8	-28.0	15.9	0.00e+00	0	42	0	698351616	14	4153
2026-01-11 11:59:03.15	255.32	23.31	-26.8	-28.0	15.9	0.00e+00	0	42	0	701497344	14	4157
2026-01-11 11:59:04.15	255.59	23.35	-26.6	-27.7	16.0	0.00e+00	0	42	0	704643072	14	4058
2026-01-11 11:59:05.14	255.86	23.39	-26.6	-27.7	16.1	0.00e+00	0	42	0	707788800	14	4069
2026-01-11 11:59:06.13	256.12	23.43	-26.8	-28.2	15.8	6.10e-06	0	42	0	710934528	14	4193
2026-01-11 11:59:07.13	256.39	23.46	-26.9	-28.4	15.6	0.00e+00	0	42	0	714080256	14	4261
2026-01-11 11:59:08.13	256.67	23.50	-27.0	-28.6	15.5	0.00e+00	0	42	0	717225984	14	4318
2026-01-11 11:59:09.13	256.94	23.53	-26.9	-28.4	15.6	0.00e+00	0	42	0	720371712	14	4265
2026-01-11 11:59:10.13	257.21	23.57	-26.9	-28.3	15.7	0.00e+00	0	42	0	723517440	14	4226
2026-01-11 11:59:11.12	257.48	23.60	-26.8	-28.2	15.8	0.00e+00	0	42	0	726663168	14	4200
2026-01-11 11:59:12.11	257.75	23.64	-26.7	-27.8	15.9	5.30e-06	0	42	0	729808896	14	4106
2026-01-11 11:59:13.10	258.02	23.67	-26.9	-28.3	15.7	0.00e+00	0	42	0	732954624	14	4224
2026-01-11 11:59:14.10	258.30	23.70	-26.7	-27.8	15.9	0.00e+00	0	42	0	736100352	14	4108
2026-01-11 11:59:15.09	258.57	23.74	-26.7	-27.8	16.0	4.50e-06	0	42	0	739246080	14	4095
2026-01-11 11:59:16.09	258.85	23.77	-26.6	-27.7	16.0	0.00e+00	0	42	0	742391808	14	4064
2026-01-11 11:59:17.08	259.12	23.80	-26.7	-27.9	15.9	0.00e+00	0	42	0	745537536	14	4133
2026-01-11 11:59:18.07	259.40	23.83	-26.7	-27.8	16.0	0.00e+00	0	42	0	748683264	14	4099
2026-01-11 11:59:19.07	259.67	23.86	-26.6	-27.7	16.0	0.00e+00	0	42	0	750780416	14	4071
2026-01-11 11:59:20.07	259.95	23.89	-26.6	-27.7	16.0	0.00e+00	0	42	0	754974720	14	4078
2026-01-11 11:59:21.06	260.23	23.91	-26.7	-28.0	15.9	4.50e-06	0	42	0	757071872	14	4144
2026-01-11 11:59:22.06	260.51	23.94	-26.6	-27.6	16.1	0.00e+00	0	42	0	760217600	14	4061
2026-01-11 11:59:23.05	260.78	23.97	-26.6	-27.6	16.1	0.00e+00	0	42	0	763363328	14	4038
2026-01-11 11:59:24.05	261.06	23.99	-26.7	-27.9	16.0	1.50e-06	0	42	0	766509056	14	4121
2026-01-11 11:59:25.04	261.34	24.02	-26.5	-27.4	16.2	0.00e+00	0	42	0	769654784	14	3991
2026-01-11 11:59:26.03	261.62	24.04	-26.4	-27.2	16.3	0.00e+00	0	42	0	772800512	14	3943
2026-01-11 11:59:27.03	261.90	24.07	-26.5	-27.4	16.2	3.00e-06	0	42	0	775946240	14	3994
2026-01-11 11:59:28.03	262.18	24.09	-26.7	-28.0	15.9	0.00e+00	0	42	0	779091968	14	4141
2026-01-11 11:59:29.03	262.46	24.12	-26.6	-27.6	16.1	0.00e+00	0	42	0	782237696	14	4039
2026-01-11 11:59:30.03	262.75	24.14	-26.5	-27.3	16.2	3.80e-06	0	42	0	785383424	14	3980
2026-01-11 11:59:31.03	263.03	24.16	-26.4	-27.2	16.3	0.00e+00	0	42	0	788529152	14	3959
2026-01-11 11:59:32.02	263.31	24.18	-26.5	-27.4	16.2	0.00e+00	0	42	0	791674880	14	3985
2026-01-11 11:59:33.02	263.59	24.20	-26.4	-27.2	16.4	0.00e+00	0	42	0	794820608	14	3931
2026-01-11 11:59:34.02	263.88	24.22	-26.4	-27.2	16.3	0.00e+00	0	42	0	797966336	14	3952
2026-01-11 11:59:35.00	264.15	24.24	-26.3	-26.9	16.5	0.00e+00	0	42	0	801112064	14	3882
2026-01-11 11:59:35.99	264.44	24.25	-26.4	-27.1	16.3	1.50e-06	0	42	0	804257792	14	3932
2026-01-11 11:59:36.97	264.72	24.27	-26.4	-27.1	16.4	0.00e+00	0	42	0	807403520	14	3926
2026-01-11 11:59:37.96	265.00	24.29	-26.4	-27.2	16.3	0.00e+00	0	42	0	810549248	14	3960
2026-01-11 11:59:38.95	265.28	24.30	-26.3	-27.1	16.4	3.80e-06	0	42	0	813694976	14	3910
2026-01-11 11:59:39.94	265.56	24.32	-26.2	-27.3	16.5	0.00e+00	0	42	0	816840704	13	4085
2026-01-11 11:59:40.93	265.85	24.33	-26.3	-27.6	16.4	0.00e+00	0	42	0	819986432	13	4143
2026-01-11 11:59:41.93	266.13	24.35	-26.2	-27.3	16.5	7.00e-07	0	42	0	823132160	13	4073
2026-01-11 11:59:42.93	266.42	24.36	-26.2	-27.2	16.6	0.00e+00	0	42	0	826277888	13	4057
2026-01-11 11:59:43.93	266.71	24.37	-26.2	-27.3	16.5	0.00e+00	0	42	0	829423616	13	4080
2026-01-11 11:59:44.93	266.99	24.38	-26.2	-27.3	16.5	6.10e-06	0	42	0	832569344	13	4079
2026-01-11 11:59:45.93	267.28	24.39	-26.3	-27.4	16.4	0.00e+00	0	42	0	835715072	13	4105
2026-01-11 11:59:46.91	267.56	24.40	-26.2	-27.4	16.5	0.00e+00	0	42	0	837812224	13	4096
2026-01-11 11:59:47.91	267.85	24.41	-26.2	-27.2	16.6	4.50e-06	0	42	0	840957952	13	4035
2026-01-11 11:59:48.92	268.14	24.42	-26.2	-27.2	16.5	0.00e+00	0	42	0	844103680	13	4055
2026-01-11 11:59:49.92	268.43	24.43	-26.2	-27.2	16.5	0.00e+00	0	42	0	847249408	13	4058
2026-01-11 11:59:50.90	268.71	24.44	-26.4	-27.7	16.2	0.00e+00	0	42	0	850395136	13	4194
2026-01-11 11:59:51.91	269.00	24.44	-26.5	-28.0	16.1	0.00e+00	0	42	0	853540864	13	4259
2026-01-11 11:59:52.91	269.29	24.45	-26.6	-28.2	16.0	0.00e+00	0	42	0	856686592	13	4313
2026-01-11 11:59:53.90	269.57	24.45	-26.5	-27.9	16.1	2.20e-06	0	42	0	859832320	13	4247
2026-01-11 11:59:54.88	269.85	24.46	-26.5	-28.0	16.1	0.00e+00	0	42	0	862978048	13	4275
2026-01-11 11:59:55.88	270.14	24.46	-26.5	-27.9	16.2	0.00e+00	0	42	0	866123776	13	4245
2026-01-11 11:59:56.87	270.43	24.46	-26.6	-28.1	16.0	0.00e+00	0	42	0	869269504	13	4297
2026-01-11 11:59:57.85	270.71	24.46	-26.6	-28.1	16.1	0.00e+00	0	42	0	872415232	13	4300
2026-01-11 11:59:58.85	271.00	24.46	-26.6	-28.2	16.1	0.00e+00	0	42	0	875560960	13	4319
2026-01-11 11:59:59.84	271.28	24.47	-26.5	-27.9	16.2	0.00e+00	0	42	0	878706688	13	4229
2026-01-11 12:00:00.83	271.57	24.46	-26.4	-27.7	16.3	0.00e+00	0	42	0	881852416	13	4174
2026-01-11 12:00:01.83	271.86	24.46	-26.4	-27.7	16.3	0.00e+00	0	42	0	884998144	13	4177
2026-01-11 12:00:02.82	272.14	24.46	-26.2	-27.3	16.5	8.30e-06	0	42	0	888143872	13	4070
2026-01-11 12:00:03.80	272.43	24.46	-26.2	-27.1	16.6	0.00e+00	0	42	0	891289600	13	4032
2026-01-11 12:00:04.79	272.71	24.46	-26.2	-27.3	16.5	0.00e+00	0	42	0	894435328	13	4077
2026-01-11 12:00:05.78	273.00	24.45	-26.3	-27.5	16.4	6.10e-06	0	42	0	897581056	13	4141
2026-01-11 12:00:06.77	273.28	24.45	-26.4	-27.8	16.2	0.00e+00	0	42	0	900726784	13	4209
2026-01-11 12:00:07.78	273.57	24.44	-26.4	-27.7	16.3	0.00e+00	0	42	0	903872512	13	4189
2026-01-11 12:00:08.79	273.86	24.43	-26.4	-27.7	16.3	1.50e-06	0	42	0	907018240	13	4176
2026-01-11 12:00:09.79	274.15	24.43	-26.5	-27.9	16.2	0.00e+00	0	42	0	910163968	13	4238
2026-01-11 12:00:10.80	274.44	24.42	-26.5	-27.9	16.1	0.00e+00	0	42	0	913309696	13	4239
2026-01-11 12:00:11.80	274.73	24.41	-26.6	-28.2	16.0	2.20e-06	0	42	0	916455424	13	4314
2026-01-11 12:00:12.80	275.01	24.40	-26.8	-28.6	15.8	0.00e+00	0	42	0	919601152	13	4422
2026-01-11 12:00:13.79	275.30	24.39	-26.8	-28.5	15.8	0.00e+00	0	42	0	922746880	13	4404
2026-01-11 12:00:14.80	275.59	24.38	-26.7	-28.4	15.9	0.00e+00	0	42	0	925892608	13	4373
2026-01-11 12:00:15.81	275.88	24.37	-26.8	-28.6	15.8	0.00e+00	0	42	0	929038336	13	4430
2026-01-11 12:00:16.80	276.16	24.36	-26.7	-28.3	15.9	0.00e+00	0	42	0	932184064	13	4343
2026-01-11 12:00:17.79	276.44	24.34	-26.6	-28.1	16.1	0.00e+00	0	42	0	934281216	13	4282
2026-01-11 12:00:18.79	276.73	24.33	-26.7	-28.4	15.9	0.00e+00	0	42	0	937426944	13	4370
2026-01-11 12:00:19.79	277.02	24.32	-26.6	-28.1	16.0	0.00e+00	0	42	0	940572672	13	4291
2026-01-11 12:00:20.79	277.30	24.30	-26.8	-28.6	15.8	0.00e+00	0	42	0	943718400	13	4418
2026-01-11 12:00:21.79	277.59	24.29	-26.5	-28.0	16.1	0.00e+00	0	42	0	946864128	13	4268
2026-01-11 12:00:22.79	277.87	24.27	-26.3	-27.4	16.4	0.00e+00	0	42	0	950009856	13	4113
2026-01-11 12:00:23.79	278.16	24.25	-26.2	-27.2	16.6	0.00e+00	0	42	0	953155584	13	4059
2026-01-11 12:00:24.79	278.44	24.23	-26.2	-27.2	16.6	0.00e+00	0	42	0	956301312	13	4045
2026-01-11 12:00:25.79	278.72	24.21	-26.2	-27.2	16.6	0.00e+00	0	42	0	959447040	13	4044
2026-01-11 12:00:26.79	279.01	24.20	-26.2	-27.3	16.5	2.20e-06	0	42	0	962592768	13	4075
2026-01-11 12:00:27.79	279.29	24.18	-26.4	-27.6	16.3	0.00e+00	0	42	0	965738496	13	4157
2026-01-11 12:00:28.79	279.57	24.15	-26.3	-27.4	16.5	0.00e+00	0	42	0	968884224	13	4095
2026-01-11 12:00:29.79	279.85	24.13	-26.2	-27.3	16.6	0.00e+00	0	42	0	972029952	13	4061
2026-01-11 12:00:30.79	280.14	24.11	-26.2	-27.3	16.5	0.00e+00	0	42	0	975175680	13	4080
2026-01-11 12:00:31.79	280.42	24.09	-26.4	-27.7	16.3	0.00e+00	0	42	0	978321408	13	4188
2026-01-11 12:00:32.79	280.70	24.06	-26.5	-27.9	16.2	0.00e+00	0	42	0	981467136	13	4229
2026-01-11 12:00:33.79	280.98	24.04	-26.4	-27.7	16.3	0.00e+00	0	42	0	984612864	13	4170
2026-01-11 12:00:34.79	281.26	24.01	-26.4	-27.8	16.3	0.00e+00	0	42	0	987758592	13	4195
2026-01-11 12:00:35.80	281.54	23.99	-26.6	-28.0	16.1	0.00e+00	0	42	0	990904320	13	4266
2026-01-11 12:00:36.79	281.82	23.96	-26.5	-27.8	16.2	0.00e+00	0	42	0	994050048	13	4215
2026-01-11 12:00:37.80	282.10	23.94	-26.4	-27.6	16.3	0.00e+00	0	42	0	997195776	13	4146
2026-01-11 12:00:38.79	282.38	23.91	-26.4	-27.6	16.3	0.00e+00	0	42	0	1000341504	13	4160
2026-01-11 12:00:39.79	282.65	23.88	-26.3	-27.5	16.4	0.00e+00	0	42	0	1003487232	13	4125
2026-01-11 12:00:40.80	282.93	23.85	-26.5	-27.8	16.2	0.00e+00	0	42	0	1006632960	13	4217
2026-01-11 12:00:41.80	283.21	23.82	-26.4	-27.7	16.3	0.00e+00	0	42	0	1009778688	13	4183
2026-01-11 12:00:42.81	283.49	23.79	-26.2	-27.3	16.5	0.00e+00	0	42	0	1012924416	13	4062
2026-01-11 12:00:43.80	283.76	23.76	-26.2	-27.2	16.5	0.00e+00	0	42	0	1016070144	13	4055
2026-01-11 12:00:44.81	284.04	23.73	-26.2	-27.4	16.5	0.00e+00	0	42	0	1019215872	13	4089
2026-01-11 12:00:45.81	284.32	23.70	-26.2	-27.3	16.5	0.00e+00	0	42	0	1022361600	13	4072
2026-01-11 12:00:46.81	284.59	23.66	-26.3	-27.4	16.4	0.00e+00	0	42	0	1025507328	13	4100
2026-01-11 12:00:47.82	284.87	23.63	-26.3	-27.5	16.4	0.00e+00	0	42	0	1028653056	13	4127
2026-01-11 12:00:48.81	285.14	23.60	-26.3	-27.4	16.5	0.00e+00	0	42	0	1031798784	13	4092
2026-01-11 12:00:49.81	285.41	23.56	-26.3	-27.4	16.5	0.00e+00	0	42	0	1034944512	13	4092
2026-01-11 12:00:50.81	285.68	23.53	-26.2	-27.3	16.5	0.00e+00	0	42	0	1038090240	13	4080
2026-01-11 12:00:51.82	285.95	23.49	-26.3	-27.4	16.4	0.00e+00	0	42	0	1041235968	13	4109
2026-01-11 12:00:52.82	286.23	23.45	-26.4	-27.6	16.3	0.00e+00	0	42	0	1044381696	13	4157
2026-01-11 12:00:53.81	286.49	23.42	-26.4	-27.6	16.3	0.00e+00	0	42	0	1047527424	13	4154
2026-01-11 12:00:54.82	286.76	23.38	-26.4	-27.6	16.3	0.00e+00	0	42	0	1050673152	13	4160
2026-01-11 12:00:55.82	287.03	23.34	-26.4	-27.7	16.3	0.00e+00	0	42	0	1053818880	13	4193
2026-01-11 12:00:56.81	287.30	23.30	-26.4	-27.6	16.3	0.00e+00	0	42	0	1056964608	13	4155
2026-01-11 12:00:57.82	287.57	23.26	-26.2	-27.3	16.5	0.00e+00	0	42	0	1060110336	13	4082
2026-01-11 12:00:58.82	287.83	23.22	-26.3	-27.5	16.4	0.00e+00	0	42	0	1063256064	13	4116
2026-01-11 12:00:59.82	288.10	23.18	-26.3	-27.4	16.5	0.00e+00	0	42	0	1066401792	13	4106
2026-01-11 12:01:00.83	288.37	23.14	-26.3	-27.6	16.4	0.00e+00	0	42	0	1069547520	13	4150
2026-01-11 12:01:01.83	288.63	23.10	-26.3	-27.4	16.5	0.00e+00	0	42	0	1072693248	13	4100
2026-01-11 12:01:02.84	288.90	23.05	-26.2	-27.2	16.6	0.00e+00	0	42	0	1075838976	13	4042
2026-01-11 12:01:03.84	289.16	23.01	-26.2	-27.3	16.5	0.00e+00	0	42	0	1078984704	13	4067
2026-01-11 12:01:04.84	289.43	22.97	-26.2	-27.3	16.5	0.00e+00	0	42	0	1082130432	13	4081
2026-01-11 12:01:05.83	289.68	22.92	-26.3	-27.5	16.4	0.00e+00	0	42	0	1085276160	13	4121
2026-01-11 12:01:06.84	289.95	22.88	-26.4	-27.7	16.3	0.00e+00	0	42	0	1088421888	13	4193
2026-01-11 12:01:07.84	290.21	22.83	-26.4	-27.7	16.3	0.00e+00	0	42	0	1091567616	13	4193
2026-01-11 12:01:08.84	290.47	22.79	-26.4	-27.8	16.3	0.00e+00	0	42	0	1094713344	13	4211
2026-01-11 12:01:09.84	290.73	22.74	-26.5	-28.0	16.1	0.00e+00	0	42	0	1097859072	13	4247
2026-01-11 12:01:10.85	290.99	22.70	-26.5	-27.8	16.2	0.00e+00	0	42	0	1101004800	13	4212
2026-01-11 12:01:11.85	291.24	22.65	-26.4	-27.7	16.3	0.00e+00	0	42	0	1104150528	13	4190
2026-01-11 12:01:12.85	291.50	22.60	-26.3	-27.6	16.4	0.00e+00	0	42	0	1107296256	13	4147
2026-01-11 12:01:13.86	291.76	22.55	-26.5	-28.0	16.2	0.00e+00	0	42	0	1110441984	13	4259
2026-01-11 12:01:14.86	292.01	22.51	-26.5	-27.9	16.2	0.00e+00	0	42	0	1113587712	13	4232
2026-01-11 12:01:15.86	292.27	22.46	-26.5	-27.9	16.2	0.00e+00	0	42	0	1115684864	13	4234
2026-01-11 12:01:16.86	292.52	22.41	-26.5	-28.0	16.1	0.00e+00	0	42	0	1118830592	13	4269
2026-01-11 12:01:17.87	292.78	22.36	-26.5	-28.0	16.1	0.00e+00	0	42	0	1123024896	13	4249
2026-01-11 12:01:18.87	293.03	22.31	-26.6	-28.3	16.0	0.00e+00	0	42	0	1125122048	13	4330
2026-01-11 12:01:19.87	293.28	22.26	-26.7	-28.3	16.0	0.00e+00	0	42	0	1128267776	13	4345
2026-01-11 12:01:20.87	293.53	22.20	-26.7	-28.4	15.9	0.00e+00	0	42	0	1132462080	13	4376
2026-01-11 12:01:21.88	293.78	22.15	-26.7	-28.3	16.0	0.00e+00	0	42	0	1135607808	13	4341
2026-01-11 12:01:22.87	294.03	22.10	-26.7	-28.4	15.9	0.00e+00	0	42	0	1138753536	13	4386
2026-01-11 12:01:23.88	294.28	22.05	-26.7	-28.4	15.9	0.00e+00	0	42	0	1140850688	13	4378
2026-01-11 12:01:24.88	294.52	21.99	-26.7	-28.4	15.9	0.00e+00	0	42	0	1143996416	13	4372
2026-01-11 12:01:25.88	294.77	21.94	-26.8	-28.6	15.8	2.20e-06	0	42	0	1147142144	13	4433
2026-01-11 12:01:26.88	295.01	21.89	-26.9	-28.8	15.7	0.00e+00	0	42	0	1150287872	13	4489
2026-01-11 12:01:27.88	295.26	21.83	-26.8	-28.7	15.8	0.00e+00	0	42	0	1153433600	13	4442
2026-01-11 12:01:28.87	295.50	21.78	-27.0	-28.6	15.6	0.00e+00	0	42	0	1156579328	14	4310
2026-01-11 12:01:29.87	295.74	21.72	-27.0	-28.5	15.6	0.00e+00	0	42	0	1159725056	14	4296
2026-01-11 12:01:30.88	295.99	21.67	-27.0	-28.6	15.5	0.00e+00	0	42	0	1162870784	14	4325
2026-01-11 12:01:31.87	296.22	21.61	-26.9	-28.3	15.7	1.50e-06	0	42	0	1166016512	14	4224
2026-01-11 12:01:32.88	296.47	21.56	-27.0	-28.6	15.5	0.00e+00	0	42	0	1169162240	14	4310
2026-01-11 12:01:33.88	296.71	21.50	-26.9	-28.2	15.7	0.00e+00	0	42	0	1172307968	14	4218
2026-01-11 12:01:34.88	296.94	21.44	-26.7	-27.9	15.9	4.50e-06	0	42	0	1175453696	14	4126
2026-01-11 12:01:35.89	297.18	21.38	-26.6	-27.7	16.0	0.00e+00	0	42	0	1178599424	14	4070
2026-01-11 12:01:36.89	297.42	21.33	-26.7	-27.8	16.0	0.00e+00	0	42	0	1181745152	14	4103
2026-01-11 12:01:37.89	297.66	21.27	-26.7	-27.8	16.0	0.00e+00	0	42	0	1184890880	14	4089
2026-01-11 12:01:38.88	297.89	21.21	-26.8	-28.1	15.8	0.00e+00	0	42	0	1188036608	14	4175
2026-01-11 12:01:39.88	298.12	21.15	-26.9	-28.3	15.7	0.00e+00	0	42	0	1191182336	14	4238
2026-01-11 12:01:40.88	298.36	21.09	-26.8	-28.1	15.8	0.00e+00	0	42	0	1194328064	14	4195
2026-01-11 12:01:41.89	298.59	21.03	-26.9	-28.4	15.7	0.00e+00	0	42	0	1197473792	14	4258
2026-01-11 12:01:42.89	298.82	20.97	-26.9	-28.3	15.7	0.00e+00	0	42	0	1200619520	14	4243
2026-01-11 12:01:43.88	299.05	20.91	-26.9	-28.3	15.7	0.00e+00	0	42	0	1203765248	14	4229
2026-01-11 12:01:44.88	299.28	20.85	-26.8	-28.1	15.8	0.00e+00	0	42	0	1206910976	14	4178
2026-01-11 12:01:45.88	299.51	20.79	-26.8	-28.1	15.8	0.00e+00	0	42	0	1210056704	14	4194
2026-01-11 12:01:46.88	299.74	20.73	-26.6	-27.6	16.1	0.00e+00	0	42	0	1213202432	14	4055
2026-01-11 12:01:47.88	299.96	20.67	-26.5	-27.5	16.1	0.00e+00	0	42	0	1216348160	14	4023
2026-01-11 12:01:48.89	300.19	20.61	-26.5	-27.4	16.2	0.00e+00	0	42	0	1219493888	14	3997
2026-01-11 12:01:49.89	300.42	20.55	-26.6	-27.6	16.1	2.20e-06	0	42	0	1222639616	14	4049
2026-01-11 12:01:50.88	300.64	20.49	-26.5	-27.5	16.1	0.00e+00	0	42	0	1225785344	14	4023
2026-01-11 12:01:51.88	300.86	20.42	-26.7	-27.8	16.0	0.00e+00	0	42	0	1228931072	14	4109
2026-01-11 12:01:52.89	301.09	20.36	-26.7	-27.9	15.9	0.00e+00	0	42	0	1232076800	14	4125
2026-01-11 12:01:53.89	301.31	20.30	-26.8	-28.1	15.8	0.00e+00	0	42	0	1235222528	14	4174
2026-01-11 12:01:54.89	301.53	20.23	-26.8	-28.0	15.8	0.00e+00	0	42	0	1238368256	14	4145
2026-01-11 12:01:55.89	301.75	20.17	-26.8	-28.0	15.8	0.00e+00	0	42	0	1241513984	14	4152
2026-01-11 12:01:56.90	301.97	20.11	-26.7	-28.0	15.9	0.00e+00	0	42	0	1244659712	14	4140
2026-01-11 12:01:57.90	302.19	20.04	-26.7	-27.8	15.9	0.00e+00	0	42	0	1247805440	14	4100
2026-01-11 12:01:58.90	302.40	19.98	-26.7	-28.0	15.9	0.00e+00	0	42	0	1250951168	14	4145
2026-01-11 12:01:59.91	302.62	19.91	-26.7	-27.9	15.9	0.00e+00	0	42	0	1254096896	14	4123
2026-01-11 12:02:00.90	302.84	19.85	-26.8	-28.1	15.8	0.00e+00	0	42	0	1257242624	14	4186
2026-01-11 12:02:01.90	303.05	19.79	-26.7	-28.0	15.8	0.00e+00	0	42	0	1260388352	14	4150
2026-01-11 12:02:02.90	303.26	19.72	-26.7	-27.9	15.9	0.00e+00	0	42	0	1263534080	14	4125
2026-01-11 12:02:03.90	303.48	19.66	-26.8	-28.0	15.8	0.00e+00	0	42	0	1266679808	14	4163
2026-01-11 12:02:04.90	303.69	19.59	-26.7	-27.9	15.9	0.00e+00	0	42	0	1269825536	14	4120
2026-01-11 12:02:05.90	303.90	19.52	-26.9	-28.2	15.7	0.00e+00	0	42	0	1272971264	14	4215
2026-01-11 12:02:06.89	304.11	19.46	-26.9	-28.2	15.7	0.00e+00	0	42	0	1276116992	14	4218
2026-01-11 12:02:07.89	304.32	19.39	-27.0	-28.6	15.5	0.00e+00	0	42	0	1279262720	14	4323
2026-01-11 12:02:08.89	304.52	19.33	-26.9	-28.3	15.6	0.00e+00	0	42	0	1282408448	14	4248
2026-01-11 12:02:09.89	304.73	19.26	-26.9	-28.3	15.6	0.00e+00	0	42	0	1285554176	14	4249
2026-01-11 12:02:10.89	304.94	19.19	-27.0	-28.5	15.5	0.00e+00	0	42	0	1288699904	14	4280
2026-01-11 12:02:11.89	305.14	19.13	-26.9	-28.2	15.6	7.00e-07	0	42	0	1291845632	14	4217
2026-01-11 12:02:12.90	305.35	19.06	-26.8	-28.1	15.7	0.00e+00	0	42	0	1294991360	14	4181
2026-01-11 12:02:13.90	305.55	18.99	-27.0	-28.6	15.4	0.00e+00	0	42	0	1297088512	14	4324
2026-01-11 12:02:14.90	305.76	18.92	-27.0	-28.6	15.5	0.00e+00	0	42	0	1300234240	14	4303
2026-01-11 12:02:15.90	305.96	18.86	-27.0	-28.4	15.5	7.00e-07	0	42	0	1303379968	14	4274
2026-01-11 12:02:16.90	306.16	18.79	-27.1	-28.8	15.4	0.00e+00	0	42	0	1306525696	14	4369
2026-01-11 12:02:17.90	306.36	18.72	-26.9	-28.3	15.6	0.00e+00	0	42	0	1309671424	14	4235
2026-01-11 12:02:18.89	306.56	18.65	-26.8	-28.2	15.7	0.00e+00	0	42	0	1312817152	14	4216
2026-01-11 12:02:19.89	306.76	18.59	-26.9	-28.4	15.6	0.00e+00	0	42	0	1315962880	14	4254
2026-01-11 12:02:20.90	306.96	18.52	-27.1	-28.7	15.4	0.00e+00	0	42	0	1319108608	14	4338
2026-01-11 12:02:21.90	307.15	18.45	-27.1	-28.7	15.4	0.00e+00	0	42	0	1322254336	14	4349
2026-01-11 12:02:22.90	307.35	18.38	-27.2	-29.1	15.1	0.00e+00	0	42	0	1325400064	14	4462
2026-01-11 12:02:23.90	307.54	18.31	-27.0	-28.7	15.4	0.00e+00	0	42	0	1328545792	14	4342
2026-01-11 12:02:24.90	307.74	18.24	-27.0	-28.5	15.5	0.00e+00	0	42	0	1331691520	14	4298
2026-01-11 12:02:25.91	307.93	18.17	-26.9	-28.4	15.5	0.00e+00	0	42	0	1334837248	14	4276
2026-01-11 12:02:26.91	308.13	18.11	-27.0	-28.6	15.4	0.00e+00	0	42	0	1337982976	14	4332
2026-01-11 12:02:27.91	308.32	18.04	-27.0	-28.7	15.3	0.00e+00	0	42	0	1341128704	14	4336
2026-01-11 12:02:28.91	308.51	17.97	-27.1	-28.7	15.3	7.00e-07	0	42	0	1344274432	14	4359
2026-01-11 12:02:29.91	308.70	17.90	-27.0	-28.6	15.4	0.00e+00	0	42	0	1347420160	14	4325
2026-01-11 12:02:30.90	308.89	17.83	-27.1	-28.8	15.3	0.00e+00	0	42	0	1350565888	14	4378
2026-01-11 12:02:31.90	309.07	17.76	-27.0	-28.6	15.4	0.00e+00	0	42	0	1353711616	14	4334
2026-01-11 12:02:32.90	309.26	17.69	-26.9	-28.2	15.6	0.00e+00	0	42	0	1356857344	14	4224
2026-01-11 12:02:33.90	309.45	17.62	-26.8	-28.1	15.6	0.00e+00	0	42	0	1360003072	14	4194
2026-01-11 12:02:34.90	309.63	17.55	-26.9	-28.3	15.6	0.00e+00	0	42	0	1363148800	14	4229
2026-01-11 12:02:35.90	309.82	17.48	-27.0	-28.7	15.3	0.00e+00	0	42	0	1366294528	14	4354
2026-01-11 12:02:36.90	310.00	17.41	-27.0	-28.6	15.4	0.00e+00	0	42	0	1369440256	14	4335
2026-01-11 12:02:37.89	310.18	17.34	-27.1	-28.7	15.3	0.00e+00	0	42	0	1372585984	14	4356
2026-01-11 12:02:38.89	310.37	17.27	-27.1	-28.9	15.2	0.00e+00	0	42	0	1375731712	14	4404
2026-01-11 12:02:39.89	310.55	17.20	-27.2	-29.1	15.1	0.00e+00	0	42	0	1378877440	14	4472
2026-01-11 12:02:40.90	310.73	17.13	-27.2	-29.0	15.2	0.00e+00	0	42	0	1382023168	14	4429
2026-01-11 12:02:41.90	310.91	17.06	-27.1	-28.7	15.3	0.00e+00	0	42	0	1385168896	14	4364
2026-01-11 12:02:42.90	311.09	16.99	-27.1	-28.8	15.3	0.00e+00	0	42	0	1388314624	14	4378
2026-01-11 12:02:43.90	311.27	16.92	-27.2	-29.0	15.1	0.00e+00	0	42	0	1391460352	14	4451
2026-01-11 12:02:44.90	311.45	16.85	-27.1	-28.8	15.2	0.00e+00	0	42	0	1394606080	14	4393
2026-01-11 12:02:45.91	311.62	16.78	-27.1	-28.9	15.2	0.00e+00	0	42	0	1397751808	14	4405
2026-01-11 12:02:46.91	311.80	16.71	-27.3	-29.3	15.0	0.00e+00	0	42	0	1400897536	14	4535
2026-01-11 12:02:47.92	311.98	16.64	-27.2	-29.0	15.1	0.00e+00	0	42	0	1404043264	14	4450
2026-01-11 12:02:48.92	312.15	16.56	-27.0	-28.6	15.3	0.00e+00	0	42	0	1407188992	14	4324
2026-01-11 12:02:49.92	312.32	16.49	-27.0	-28.6	15.4	0.00e+00	0	42	0	1410334720	14	4317
2026-01-11 12:02:50.92	312.50	16.42	-27.1	-28.8	15.3	0.00e+00	0	42	0	1413480448	14	4375
2026-01-11 12:02:51.93	312.67	16.35	-27.0	-28.6	15.3	0.00e+00	0	42	0	1416626176	14	4333
2026-01-11 12:02:52.92	312.84	16.28	-27.1	-28.9	15.2	0.00e+00	0	42	0	1419771904	14	4425
2026-01-11 12:02:53.93	313.01	16.21	-27.0	-28.7	15.3	0.00e+00	0	42	0	1422917632	14	4345
2026-01-11 12:02:54.92	313.18	16.14	-27.0	-28.5	15.4	0.00e+00	0	42	0	1426063360	14	4303
2026-01-11 12:02:55.93	313.35	16.07	-27.0	-28.6	15.3	0.00e+00	0	42	0	1429209088	14	4336
2026-01-11 12:02:56.93	313.52	16.00	-27.0	-28.6	15.3	0.00e+00	0	42	0	1432354816	14	4322
2026-01-11 12:02:57.93	313.69	15.93	-27.1	-28.7	15.3	0.00e+00	0	42	0	1435500544	14	4370
2026-01-11 12:02:58.93	313.85	15.86	-27.1	-28.8	15.2	0.00e+00	0	42	0	1438646272	14	4380
2026-01-11 12:02:59.93	314.02	15.78	-27.1	-28.7	15.3	0.00e+00	0	42	0	1441792000	14	4364
2026-01-11 12:03:00.93	314.18	15.71	-27.2	-29.0	15.1	0.00e+00	0	42	0	1444937728	14	4430
2026-01-11 12:03:01.94	314.35	15.64	-27.0	-28.7	15.3	0.00e+00	0	42	0	1448083456	14	4343
2026-01-11 12:03:02.94	314.51	15.57	-27.0	-28.6	15.3	0.00e+00	0	42	0	1451229184	14	4313
2026-01-11 12:03:03.94	314.67	15.50	-27.1	-28.7	15.3	0.00e+00	0	42	0	1454374912	14	4363
2026-01-11 12:03:04.94	314.84	15.43	-27.0	-28.6	15.3	0.00e+00	0	42	0	1457520640	14	4339
2026-01-11 12:03:05.94	315.00	15.36	-27.2	-29.0	15.1	0.00e+00	0	42	0	1460666368	14	4443
2026-01-11 12:03:06.93	315.16	15.29	-27.2	-29.0	15.1	7.00e-07	0	42	0	1463812096	14	4442
2026-01-11 12:03:07.93	315.32	15.22	-27.2	-29.0	15.1	0.00e+00	0	42	0	1466957824	14	4439
2026-01-11 12:03:08.93	315.47	15.15	-27.4	-29.5	14.8	0.00e+00	0	42	0	1470103552	14	4578
2026-01-11 12:03:09.93	315.63	15.07	-27.3	-29.4	14.9	0.00e+00	0	42	0	1473249280	14	4550
2026-01-11 12:03:10.93	315.79	15.00	-27.3	-29.3	14.9	0.00e+00	0	42	0	1476395008	14	4511
2026-01-11 12:03:11.93	315.95	14.93	-27.3	-29.4	14.8	0.00e+00	0	42	0	1478492160	14	4557
2026-01-11 12:03:12.93	316.10	14.86	-27.4	-29.5	14.8	0.00e+00	0	42	0	1481637888	14	4581
2026-01-11 12:03:13.94	316.26	14.79	-27.5	-29.7	14.7	0.00e+00	0	42	0	1484783616	14	4637
2026-01-11 12:03:14.95	316.42	14.72	-27.5	-29.7	14.7	7.00e-07	0	42	0	1487929344	14	4639
2026-01-11 12:03:15.96	316.57	14.65	-27.5	-29.2	14.6	0.00e+00	0	42	0	1491075072	15	4398
2026-01-11 12:03:16.96	316.72	14.58	-27.8	-29.8	14.3	7.00e-07	0	42	0	1494220800	15	4582
2026-01-11 12:03:17.97	316.88	14.50	-27.6	-29.6	14.4	0.00e+00	0	42	0	1498415104	15	4508
2026-01-11 12:03:18.98	317.03	14.43	-27.6	-29.6	14.4	2.20e-06	0	42	0	1501560832	15	4502
2026-01-11 12:03:19.98	317.18	14.36	-27.6	-29.5	14.4	1.50e-06	0	42	0	1503657984	15	4486
2026-01-11 12:03:20.98	317.33	14.29	-27.7	-29.8	14.3	7.00e-07	0	42	0	1506803712	15	4557
2026-01-11 12:03:21.98	317.48	14.22	-27.6	-29.6	14.4	7.00e-07	0	42	0	1509949440	15	4495
2026-01-11 12:03:22.99	317.63	14.15	-27.8	-29.9	14.2	1.50e-06	0	42	0	1513095168	15	4610
2026-01-11 12:03:24.00	317.78	14.08	-27.7	-29.8	14.3	7.00e-07	0	42	0	1516240896	15	4559
2026-01-11 12:03:25.01	317.93	14.01	-27.8	-29.9	14.2	7.00e-07	0	42	0	1519386624	15	4612
2026-01-11 12:03:26.01	318.08	13.93	-27.8	-30.1	14.1	7.00e-07	0	42	0	1522532352	15	4649
2026-01-11 12:03:27.02	318.23	13.86	-27.8	-30.0	14.2	7.00e-07	0	42	0	1525678080	15	4616
2026-01-11 12:03:28.01	318.37	13.79	-27.8	-30.0	14.1	1.50e-06	0	42	0	1528823808	15	4645
2026-01-11 12:03:29.02	318.52	13.72	-27.7	-29.9	14.2	0.00e+00	0	42	0	1531969536	15	4589
2026-01-11 12:03:30.03	318.66	13.65	-27.7	-29.8	14.3	2.20e-06	0	42	0	1535115264	15	4558
2026-01-11 12:03:31.03	318.81	13.58	-27.7	-29.7	14.3	1.50e-06	0	42	0	1538260992	15	4527
2026-01-11 12:03:32.04	318.95	13.51	-27.7	-29.7	14.3	7.00e-07	0	42	0	1541406720	15	4527
2026-01-11 12:03:33.04	319.09	13.44	-27.6	-29.5	14.4	0.00e+00	0	42	0	1544552448	15	4484
2026-01-11 12:03:34.04	319.23	13.37	-27.5	-29.3	14.5	7.00e-07	0	42	0	1547698176	15	4417
2026-01-11 12:03:35.04	319.37	13.30	-27.6	-29.4	14.4	1.50e-06	0	42	0	1550843904	15	4462
2026-01-11 12:03:36.05	319.52	13.23	-27.5	-29.3	14.5	0.00e+00	0	42	0	1553989632	15	4425
2026-01-11 12:03:37.05	319.66	13.16	-27.5	-29.4	14.5	0.00e+00	0	42	0	1557135360	15	4445
2026-01-11 12:03:38.05	319.79	13.09	-27.6	-29.5	14.4	0.00e+00	0	42	0	1560281088	15	4488
2026-01-11 12:03:39.04	319.93	13.02	-27.7	-29.7	14.3	1.50e-06	0	42	0	1563426816	15	4550
2026-01-11 12:03:40.03	320.07	12.95	-27.7	-29.8	14.2	1.50e-06	0	42	0	1566572544	15	4568
2026-01-11 12:03:41.03	320.21	12.88	-27.8	-30.1	14.1	0.00e+00	0	42	0	1569718272	15	4650
2026-01-11 12:03:42.03	320.34	12.81	-27.9	-30.2	14.0	7.00e-07	0	42	0	1572864000	15	4709
2026-01-11 12:03:43.03	320.48	12.74	-28.0	-30.4	13.9	4.50e-06	0	42	0	1576009728	15	4767
2026-01-11 12:03:44.03	320.61	12.67	-28.2	-30.3	13.8	2.20e-06	0	42	0	1579155456	16	4593
2026-01-11 12:03:45.03	320.75	12.60	-28.2	-30.3	13.8	1.50e-06	0	42	0	1582301184	16	4598
2026-01-11 12:03:46.03	320.88	12.53	-28.2	-30.3	13.8	4.50e-06	0	42	0	1585446912	16	4616
2026-01-11 12:03:47.03	321.01	12.46	-28.1	-30.2	13.9	6.80e-06	0	42	0	1588592640	16	4565
2026-01-11 12:03:48.02	321.15	12.39	-28.1	-30.2	13.9	7.00e-07	0	42	0	1591738368	16	4566
2026-01-11 12:03:49.02	321.28	12.32	-28.1	-30.1	13.9	3.80e-06	0	42	0	1594884096	16	4555
2026-01-11 12:03:50.02	321.41	12.25	-28.2	-30.3	13.8	1.14e-05	0	42	0	1598029824	16	4601
2026-01-11 12:03:51.02	321.54	12.18	-28.3	-30.6	13.6	6.80e-06	0	42	0	1601175552	16	4705
2026-01-11 12:03:52.02	321.67	12.11	-28.1	-30.1	13.9	3.80e-06	0	42	0	1604321280	16	4529
2026-01-11 12:03:53.02	321.80	12.05	-28.1	-30.1	13.9	7.00e-07	0	42	0	1607467008	16	4531
2026-01-11 12:03:54.02	321.93	11.98	-28.1	-30.0	13.9	2.20e-06	0	42	0	1610612736	16	4523
2026-01-11 12:03:55.02	322.06	11.91	-28.1	-30.1	13.9	4.50e-06	0	42	0	1613758464	16	4556
2026-01-11 12:03:56.02	322.19	11.84	-28.0	-29.8	14.0	2.20e-06	0	42	0	1616904192	16	4461
2026-01-11 12:03:57.02	322.31	11.77	-28.1	-30.1	13.8	4.50e-06	0	42	0	1620049920	16	4543
2026-01-11 12:03:58.01	322.44	11.70	-28.2	-30.5	13.6	7.60e-06	0	42	0	1623195648	16	4667
2026-01-11 12:03:59.02	322.57	11.63	-28.1	-30.2	13.8	2.20e-06	0	42	0	1626341376	16	4562
2026-01-11 12:04:00.02	322.69	11.56	-28.1	-30.2	13.8	5.30e-06	0	42	0	1629487104	16	4583
2026-01-11 12:04:01.02	322.82	11.49	-28.3	-30.6	13.5	3.00e-06	0	42	0	1632632832	16	4708
2026-01-11 12:04:02.03	322.94	11.42	-28.2	-30.4	13.6	3.80e-06	0	42	0	1635778560	16	4643
2026-01-11 12:04:03.03	323.07	11.36	-28.2	-30.5	13.6	9.90e-06	0	42	0	1638924288	16	4660
2026-01-11 12:04:04.02	323.19	11.29	-28.3	-30.6	13.6	8.30e-06	0	42	0	1642070016	16	4693
2026-01-11 12:04:05.02	323.31	11.22	-28.2	-30.5	13.6	8.30e-06	0	42	0	1645215744	16	4677
2026-01-11 12:04:06.03	323.44	11.15	-28.3	-30.7	13.5	1.29e-05	0	42	0	1648361472	16	4739
2026-01-11 12:04:07.03	323.56	11.08	-28.2	-30.5	13.6	5.30e-06	0	42	0	1651507200	16	4685
2026-01-11 12:04:08.02	323.68	11.02	-28.3	-30.8	13.4	1.06e-05	0	42	0	1654652928	16	4752
2026-01-11 12:04:09.03	323.80	10.95	-28.2	-30.4	13.6	9.10e-06	0	42	0	1657798656	16	4656
2026-01-11 12:04:10.03	323.92	10.88	-28.2	-30.5	13.6	5.30e-06	0	42	0	1660944384	16	4662
2026-01-11 12:04:11.03	324.04	10.81	-28.3	-30.7	13.4	1.22e-05	0	42	0	1664090112	16	4755
2026-01-11 12:04:12.03	324.16	10.74	-28.3	-30.5	13.6	8.30e-06	0	42	0	1667235840	16	4682
2026-01-11 12:04:13.03	324.28	10.68	-28.3	-30.6	13.5	8.30e-06	0	42	0	1670381568	16	4695
2026-01-11 12:04:14.03	324.40	10.61	-28.3	-30.8	13.4	8.30e-06	0	42	0	1673527296	16	4767
2026-01-11 12:04:15.03	324.51	10.54	-28.3	-30.6	13.5	2.28e-05	0	42	0	1676673024	16	4703
2026-01-11 12:04:16.04	324.63	10.47	-28.3	-30.8	13.4	1.14e-05	0	42	0	1679818752	16	4777
2026-01-11 12:04:17.04	324.75	10.41	-28.4	-30.8	13.3	1.83e-05	0	42	0	1682964480	16	4787
2026-01-11 12:04:18.03	324.86	10.34	-28.5	-31.1	13.1	2.74e-05	0	42	0	1685061632	16	4873
2026-01-11 12:04:19.04	324.98	10.27	-28.3	-30.8	13.4	2.05e-05	0	42	0	1688207360	16	4766
2026-01-11 12:04:20.04	325.10	10.20	-28.3	-30.7	13.4	9.10e-06	0	42	0	1691353088	16	4733
2026-01-11 12:04:21.05	325.21	10.14	-28.3	-30.8	13.3	9.10e-06	0	42	0	1694498816	16	4760
2026-01-11 12:04:22.04	325.32	10.07	-29.0	-31.5	13.1	2.82e-05	0	42	0	1697644544	17	4810
2026-01-11 12:04:23.05	325.44	10.00	-28.4	-30.4	13.3	2.13e-05	0	42	0	1700790272	17	4536
2026-01-11 12:04:24.05	325.55	9.94	-28.5	-30.7	13.1	2.89e-05	0	42	0	1703936000	17	4649
2026-01-11 12:04:25.06	325.67	9.87	-28.4	-30.5	13.2	2.89e-05	0	42	0	1707081728	17	4560
2026-01-11 12:04:26.05	325.78	9.80	-28.5	-30.7	13.1	3.12e-05	0	42	0	1710227456	17	4632
2026-01-11 12:04:27.04	325.89	9.74	-28.8	-31.3	12.7	4.42e-05	0	42	0	1713373184	17	4848
2026-01-11 12:04:28.04	326.00	9.67	-28.5	-30.6	13.1	3.05e-05	0	42	0	1716518912	17	4606
2026-01-11 12:04:29.04	326.11	9.60	-28.5	-30.6	13.2	2.59e-05	0	42	0	1719664640	17	4588
2026-01-11 12:04:30.04	326.22	9.54	-28.3	-30.3	13.3	1.67e-05	0	42	0	1722810368	17	4503
2026-01-11 12:04:31.03	326.33	9.47	-28.6	-30.9	13.0	2.82e-05	0	42	0	1725956096	17	4695
2026-01-11 12:04:32.03	326.44	9.41	-28.4	-30.5	13.2	1.60e-05	0	42	0	1729101824	17	4573
2026-01-11 12:04:33.03	326.54	9.34	-28.3	-30.2	13.4	2.36e-05	0	42	0	1732247552	17	4487
2026-01-11 12:04:34.03	326.65	9.27	-28.3	-30.3	13.3	6.10e-06	0	42	0	1735393280	17	4510
2026-01-11 12:04:35.03	326.76	9.21	-28.4	-30.5	13.1	1.37e-05	0	42	0	1738539008	17	4580
2026-01-11 12:04:36.03	326.87	9.14	-28.4	-30.4	13.3	1.67e-05	0	42	0	1741684736	17	4538
2026-01-11 12:04:37.03	326.97	9.08	-28.5	-30.8	13.0	2.51e-05	0	42	0	1744830464	17	4661
2026-01-11 12:04:38.03	327.08	9.01	-28.5	-30.7	13.1	2.44e-05	0	42	0	1747976192	17	4622
2026-01-11 12:04:39.03	327.19	8.95	-28.4	-30.5	13.2	3.73e-05	0	42	0	1751121920	17	4587
2026-01-11 12:04:40.03	327.29	8.88	-28.7	-31.2	12.7	6.79e-05	0	42	0	1754267648	17	4794
2026-01-11 12:04:41.03	327.40	8.82	-28.4	-30.5	13.1	3.81e-05	0	42	0	1757413376	17	4582
2026-01-11 12:04:42.03	327.50	8.75	-28.4	-30.4	13.2	1.83e-05	0	42	0	1760559104	17	4542
2026-01-11 12:04:43.03	327.61	8.68	-28.5	-30.7	13.0	3.05e-05	0	42	0	1763704832	17	4627
2026-01-11 12:04:44.02	327.71	8.62	-28.3	-30.1	13.4	1.44e-05	0	42	0	1766850560	17	4440
2026-01-11 12:04:45.03	327.81	8.55	-28.3	-30.1	13.3	1.14e-05	0	42	0	1769996288	17	4464
2026-01-11 12:04:46.03	327.92	8.49	-28.3	-30.3	13.3	2.97e-05	0	42	0	1773142016	17	4499
2026-01-11 12:04:47.04	328.02	8.42	-28.3	-30.1	13.4	9.10e-06	0	42	0	1776287744	17	4456
2026-01-11 12:04:48.04	328.12	8.36	-28.2	-30.0	13.4	1.44e-05	0	42	0	1779433472	17	4434
2026-01-11 12:04:49.03	328.22	8.30	-28.3	-30.3	13.2	1.98e-05	0	42	0	1782579200	17	4509
2026-01-11 12:04:50.03	328.32	8.23	-28.3	-30.2	13.2	2.28e-05	0	42	0	1785724928	17	4496
2026-01-11 12:04:51.03	328.42	8.17	-28.5	-30.6	13.0	2.44e-05	0	42	0	1788870656	17	4616
2026-01-11 12:04:52.03	328.52	8.10	-28.4	-30.5	13.1	4.27e-05	0	42	0	1792016384	17	4594
2026-01-11 12:04:53.02	328.62	8.04	-28.5	-30.6	13.0	3.35e-05	0	42	0	1795162112	17	4618
2026-01-11 12:04:54.02	328.72	7.98	-28.5	-30.7	13.0	4.34e-05	0	42	0	1798307840	17	4642
2026-01-11 12:04:55.02	328.82	7.91	-28.7	-31.2	12.6	7.70e-05	0	42	0	1801453568	17	4807
2026-01-11 12:04:56.02	328.92	7.85	-28.6	-30.9	12.8	5.34e-05	0	42	0	1804599296	17	4715
2026-01-11 12:04:57.03	329.02	7.78	-28.6	-30.9	12.8	4.19e-05	0	42	0	1807745024	17	4701
2026-01-11 12:04:58.03	329.12	7.72	-28.6	-31.0	12.7	6.63e-05	0	42	0	1810890752	17	4748
2026-01-11 12:04:59.03	329.21	7.66	-28.7	-31.3	12.6	8.62e-05	0	42	0	1814036480	17	4841
2026-01-11 12:05:00.04	329.31	7.59	-28.7	-31.2	12.6	1.04e-04	0	42	0	1817182208	17	4821
2026-01-11 12:05:01.03	329.41	7.53	-28.7	-31.3	12.6	9.61e-05	0	42	0	1820327936	17	4827
2026-01-11 12:05:02.04	329.50	7.47	-28.9	-31.8	12.2	1.47e-04	0	42	0	1823473664	17	5029
2026-01-11 12:05:03.04	329.60	7.40	-28.7	-31.2	12.6	9.99e-05	0	42	0	1826619392	17	4816
2026-01-11 12:05:04.04	329.70	7.34	-28.7	-31.3	12.5	1.11e-04	0	42	0	1829765120	17	4847
2026-01-11 12:05:05.04	329.79	7.28	-28.8	-31.6	12.3	1.36e-04	0	42	0	1832910848	17	4954
2026-01-11 12:05:06.05	329.89	7.21	-28.7	-31.4	12.4	1.48e-04	0	42	0	1836056576	17	4885
2026-01-11 12:05:07.05	329.98	7.15	-28.8	-31.6	12.3	1.69e-04	0	42	0	1839202304	17	4970
2026-01-11 12:05:08.04	330.07	7.09	-28.8	-31.6	12.2	1.52e-04	0	42	0	1841299456	17	4958
2026-01-11 12:05:09.04	330.17	7.02	-33.0	-44.6	3.8	1.49e+00	0	42	104	1843396608	26	13681
2026-01-11 12:05:10.04	330.26	6.96	-33.3	-45.6	3.8	1.49e+00	0	42	104	1843396608	26	14687
2026-01-11 12:05:11.05	330.35	6.90	-33.5	-45.4	3.8	1.49e+00	0	42	104	1843396608	27	14151

#Closed at: 2026-01-11 12:05:11
#Recorded file [1843 MB]: D:/data/31010_260111_145518.dat