passes_logs/2026/01/11/R2M6_AANII_01/R2M6_AANII_01__20260111_222148_NOAA_21_JPSS-2_rec.log

#Pass ID: 20260111_222148_NOAA 21 (JPSS-2)
#Satellite: NOAA 21 (JPSS-2)
#Configuration: NOAA 21
#almurnet v.1.7.20240730
#Start time: 2026-01-11 22:21:49

#Version: 2.2.20231116
#Station: R2M6_AANII_01
#Location: 30.233357 lon 59.946436 lat
#TLE: 1 54234U 22150A   26011.27699114  .00000090  00000+0  63771-4 0  9993
#TLE: 2 54234  98.7494 312.2218 0000765 314.9553  45.1561 14.19534106164285

#Time	Az	El	Level	Level2	SNR	BER	BlckErr	Temp	State	Recorded	gain1	gain2
2026-01-11 22:21:49.00	34.53	7.02	-30.6	-35.2	4.6	1.39e+00	0	39	0	0	22	6139
2026-01-11 22:21:50.00	34.64	7.07	-30.9	-36.4	4.5	1.41e+00	0	39	104	0	22	6790
2026-01-11 22:21:51.01	34.76	7.13	-30.7	-35.0	7.9	9.29e-02	0	39	0	0	22	5888
2026-01-11 22:21:52.01	34.87	7.18	-30.9	-35.4	7.6	9.54e-02	0	39	0	3145728	22	6091
2026-01-11 22:21:53.02	34.99	7.24	-30.6	-35.1	8.3	5.36e-02	0	39	0	6291456	21	6006
2026-01-11 22:21:54.02	35.11	7.29	-30.5	-34.7	8.5	4.41e-02	0	39	0	9437184	21	5820
2026-01-11 22:21:55.02	35.22	7.34	-30.5	-34.7	8.5	4.16e-02	0	39	0	12582912	21	5844
2026-01-11 22:21:56.03	35.34	7.40	-30.7	-35.2	8.2	5.07e-02	0	39	0	15728640	21	6072
2026-01-11 22:21:57.04	35.46	7.45	-30.3	-33.9	9.1	2.66e-02	0	39	0	18874368	21	5470
2026-01-11 22:21:58.05	35.58	7.51	-29.9	-33.2	10.0	1.06e-02	0	39	0	22020096	20	5254
2026-01-11 22:21:59.05	35.70	7.56	-29.5	-32.1	10.7	3.36e-03	0	40	0	24117248	20	4855
2026-01-11 22:22:00.05	35.81	7.62	-29.3	-31.9	11.3	1.44e-03	0	39	0	28311552	19	4871
2026-01-11 22:22:01.06	35.93	7.67	-29.0	-31.2	11.8	4.47e-04	0	39	0	31457280	19	4629
2026-01-11 22:22:02.07	36.05	7.73	-29.1	-31.3	11.7	8.03e-04	0	39	0	34603008	19	4674
2026-01-11 22:22:03.07	36.17	7.78	-29.0	-31.2	11.9	4.59e-04	0	39	0	37748736	19	4614
2026-01-11 22:22:04.07	36.29	7.84	-29.2	-31.6	11.6	5.95e-04	0	39	0	40894464	19	4744
2026-01-11 22:22:05.07	36.42	7.89	-28.9	-30.9	12.0	3.25e-04	0	39	0	44040192	19	4527
2026-01-11 22:22:06.08	36.54	7.95	-28.9	-30.8	12.1	2.88e-04	0	40	0	47185920	19	4504
2026-01-11 22:22:07.08	36.66	8.00	-28.5	-30.4	12.6	1.78e-04	0	40	0	49283072	18	4465
2026-01-11 22:22:08.08	36.78	8.06	-28.5	-30.4	12.7	1.11e-04	0	39	0	52428800	18	4461
2026-01-11 22:22:09.08	36.90	8.11	-28.8	-31.1	12.3	1.07e-04	0	40	0	55574528	18	4678
2026-01-11 22:22:10.08	37.03	8.17	-28.6	-30.5	12.7	1.22e-04	0	40	0	58720256	18	4478
2026-01-11 22:22:11.09	37.15	8.22	-28.8	-31.0	12.3	1.04e-04	0	40	0	61865984	18	4649
2026-01-11 22:22:12.10	37.27	8.28	-29.1	-31.8	11.8	4.09e-04	0	40	0	65011712	18	4936
2026-01-11 22:22:13.11	37.40	8.33	-28.9	-31.3	12.2	3.46e-04	0	40	0	69206016	18	4740
2026-01-11 22:22:14.11	37.52	8.39	-28.7	-30.8	12.5	1.40e-04	0	40	0	71303168	18	4572
2026-01-11 22:22:15.11	37.65	8.44	-28.6	-30.4	12.8	1.12e-04	0	40	0	74448896	18	4455
2026-01-11 22:22:16.12	37.78	8.50	-28.5	-30.4	12.8	1.33e-04	0	40	0	77594624	18	4439
2026-01-11 22:22:17.13	37.90	8.55	-28.7	-30.6	12.7	9.46e-05	0	40	0	80740352	18	4532
2026-01-11 22:22:18.12	38.03	8.60	-28.6	-30.5	12.7	4.73e-05	0	40	0	83886080	18	4496
2026-01-11 22:22:19.12	38.16	8.66	-28.3	-29.8	13.2	2.59e-04	0	40	0	87031808	18	4271
2026-01-11 22:22:20.13	38.28	8.71	-28.4	-30.4	13.1	2.74e-05	0	40	0	90177536	17	4549
2026-01-11 22:22:21.13	38.41	8.77	-28.3	-30.3	13.1	2.11e-04	0	40	0	93323264	17	4528
2026-01-11 22:22:22.13	38.54	8.82	-28.1	-29.9	13.4	1.74e-04	0	40	0	96468992	17	4393
2026-01-11 22:22:23.14	38.67	8.88	-28.1	-29.7	13.5	1.29e-05	0	40	0	99614720	17	4341
2026-01-11 22:22:24.14	38.80	8.93	-28.1	-29.8	13.4	1.29e-05	0	40	0	102760448	17	4384
2026-01-11 22:22:25.15	38.93	8.99	-28.1	-29.7	13.5	1.60e-05	0	40	0	105906176	17	4336
2026-01-11 22:22:26.15	39.06	9.04	-28.3	-30.2	13.3	2.36e-05	0	40	0	109051904	17	4491
2026-01-11 22:22:27.15	39.19	9.10	-28.2	-30.0	13.4	1.67e-05	0	40	0	112197632	17	4441
2026-01-11 22:22:28.16	39.32	9.15	-28.3	-30.3	13.2	2.28e-05	0	40	0	115343360	17	4513
2026-01-11 22:22:29.16	39.45	9.21	-28.4	-30.4	13.1	2.44e-05	0	40	0	118489088	17	4558
2026-01-11 22:22:30.17	39.59	9.26	-28.4	-30.6	13.0	2.28e-05	0	40	0	121634816	17	4612
2026-01-11 22:22:31.17	39.72	9.32	-28.6	-31.1	12.7	2.59e-04	0	40	0	124780544	17	4771
2026-01-11 22:22:32.18	39.85	9.37	-28.6	-31.0	12.8	8.46e-05	0	40	0	127926272	17	4758
2026-01-11 22:22:33.19	39.99	9.43	-28.5	-30.6	12.9	3.81e-05	0	40	0	131072000	17	4624
2026-01-11 22:22:34.20	40.12	9.48	-28.5	-30.7	13.0	4.34e-05	0	40	0	134217728	17	4641
2026-01-11 22:22:35.21	40.26	9.54	-28.5	-30.8	12.9	4.19e-05	0	40	0	137363456	17	4662
2026-01-11 22:22:36.21	40.39	9.59	-28.5	-30.7	13.0	5.18e-05	0	40	0	140509184	17	4657
2026-01-11 22:22:37.21	40.53	9.65	-28.4	-30.6	13.0	1.98e-05	0	40	0	143654912	17	4608
2026-01-11 22:22:38.22	40.67	9.70	-28.7	-31.2	12.7	9.38e-05	0	40	0	146800640	17	4808
2026-01-11 22:22:39.23	40.80	9.76	-28.5	-30.6	13.0	5.26e-05	0	40	0	149946368	17	4625
2026-01-11 22:22:40.23	40.94	9.81	-28.4	-30.4	13.1	2.67e-05	0	40	0	153092096	17	4554
2026-01-11 22:22:41.24	41.08	9.87	-28.4	-30.4	13.2	2.59e-05	0	40	0	156237824	17	4569
2026-01-11 22:22:42.24	41.22	9.92	-28.3	-30.3	13.3	1.67e-05	0	40	0	159383552	17	4510
2026-01-11 22:22:43.25	41.36	9.98	-28.2	-30.1	13.4	1.29e-05	0	40	0	162529280	17	4454
2026-01-11 22:22:44.26	41.50	10.03	-28.2	-30.0	13.4	1.60e-05	0	40	0	165675008	17	4441
2026-01-11 22:22:45.27	41.64	10.09	-28.3	-30.2	13.3	1.75e-05	0	41	0	168820736	17	4479
2026-01-11 22:22:46.28	41.78	10.14	-28.2	-30.4	13.5	1.29e-05	0	40	0	171966464	16	4672
2026-01-11 22:22:47.28	41.92	10.20	-28.0	-30.1	13.7	8.30e-06	0	40	0	175112192	16	4553
2026-01-11 22:22:48.28	42.06	10.25	-27.9	-29.7	13.9	2.20e-06	0	41	0	178257920	16	4447
2026-01-11 22:22:49.28	42.20	10.30	-27.8	-29.5	14.1	2.20e-06	0	40	0	181403648	16	4370
2026-01-11 22:22:50.29	42.34	10.36	-27.9	-29.7	13.9	1.50e-06	0	41	0	184549376	16	4448
2026-01-11 22:22:51.29	42.49	10.41	-27.8	-29.5	14.1	7.00e-07	0	41	0	187695104	16	4393
2026-01-11 22:22:52.30	42.63	10.47	-27.7	-29.3	14.2	4.50e-06	0	41	0	190840832	16	4332
2026-01-11 22:22:53.30	42.77	10.52	-27.8	-29.5	14.0	7.00e-07	0	41	0	193986560	16	4384
2026-01-11 22:22:54.31	42.92	10.58	-27.9	-29.7	13.9	1.50e-06	0	40	0	197132288	16	4449
2026-01-11 22:22:55.31	43.06	10.63	-27.9	-29.8	13.9	2.20e-06	0	41	0	200278016	16	4456
2026-01-11 22:22:56.32	43.21	10.68	-28.0	-29.9	13.8	2.20e-06	0	41	0	203423744	16	4508
2026-01-11 22:22:57.33	43.36	10.74	-28.2	-30.4	13.6	9.10e-06	0	40	0	206569472	16	4641
2026-01-11 22:22:58.33	43.50	10.79	-28.1	-30.3	13.6	9.90e-06	0	40	0	209715200	16	4627
2026-01-11 22:22:59.34	43.65	10.85	-28.1	-30.1	13.7	6.80e-06	0	41	0	212860928	16	4570
2026-01-11 22:23:00.35	43.80	10.90	-28.2	-30.4	13.6	1.22e-05	0	41	0	216006656	16	4653
2026-01-11 22:23:01.36	43.95	10.96	-28.1	-30.3	13.6	9.90e-06	0	41	0	219152384	16	4613
2026-01-11 22:23:02.36	44.10	11.01	-28.0	-29.9	13.8	7.60e-06	0	41	0	222298112	16	4503
2026-01-11 22:23:03.36	44.25	11.06	-28.0	-30.0	13.8	6.80e-06	0	41	0	225443840	16	4543
2026-01-11 22:23:04.37	44.40	11.12	-28.1	-30.3	13.7	5.30e-06	0	41	0	228589568	16	4606
2026-01-11 22:23:05.36	44.54	11.17	-28.0	-30.0	13.9	5.30e-06	0	41	0	231735296	16	4528
2026-01-11 22:23:06.37	44.70	11.22	-27.9	-29.8	14.0	1.50e-06	0	41	0	234881024	16	4453
2026-01-11 22:23:07.38	44.85	11.28	-27.9	-29.7	14.0	3.00e-06	0	41	0	238026752	16	4432
2026-01-11 22:23:08.39	45.00	11.33	-28.0	-29.9	13.8	3.80e-06	0	41	0	241172480	16	4508
2026-01-11 22:23:09.40	45.15	11.39	-28.0	-30.1	13.8	3.00e-06	0	41	0	244318208	16	4543
2026-01-11 22:23:10.41	45.31	11.44	-27.9	-29.8	14.0	6.10e-06	0	41	0	247463936	16	4457
2026-01-11 22:23:11.41	45.46	11.49	-27.9	-29.7	14.0	2.20e-06	0	41	0	250609664	16	4423
2026-01-11 22:23:12.42	45.62	11.55	-27.8	-29.6	14.1	7.00e-07	0	41	0	253755392	16	4396
2026-01-11 22:23:13.43	45.77	11.60	-27.7	-29.3	14.2	0.00e+00	0	41	0	256901120	16	4319
2026-01-11 22:23:14.44	45.93	11.65	-27.8	-29.5	14.2	1.50e-06	0	41	0	260046848	16	4359
2026-01-11 22:23:15.44	46.08	11.71	-27.7	-29.3	14.3	1.50e-06	0	41	0	263192576	16	4322
2026-01-11 22:23:16.45	46.24	11.76	-27.6	-29.0	14.5	1.50e-06	0	41	0	266338304	16	4220
2026-01-11 22:23:17.46	46.40	11.81	-27.6	-29.0	14.5	0.00e+00	0	41	0	269484032	16	4227
2026-01-11 22:23:18.46	46.55	11.87	-27.7	-29.2	14.4	1.50e-06	0	41	0	272629760	16	4276
2026-01-11 22:23:19.47	46.71	11.92	-27.7	-29.2	14.4	1.50e-06	0	41	0	275775488	16	4292
2026-01-11 22:23:20.47	46.87	11.97	-27.8	-29.5	14.2	1.50e-06	0	41	0	278921216	16	4365
2026-01-11 22:23:21.47	47.03	12.02	-27.7	-29.4	14.3	7.00e-07	0	41	0	282066944	16	4331
2026-01-11 22:23:22.48	47.19	12.08	-27.7	-29.3	14.3	2.20e-06	0	41	0	285212672	16	4319
2026-01-11 22:23:23.49	47.35	12.13	-27.8	-29.4	14.2	1.50e-06	0	41	0	288358400	16	4334
2026-01-11 22:23:24.49	47.51	12.18	-27.8	-29.6	14.2	0.00e+00	0	41	0	291504128	16	4393
2026-01-11 22:23:25.50	47.67	12.23	-27.7	-29.3	14.3	0.00e+00	0	41	0	294649856	16	4300
2026-01-11 22:23:26.51	47.84	12.29	-27.7	-29.2	14.3	7.00e-07	0	41	0	297795584	16	4292
2026-01-11 22:23:27.52	48.00	12.34	-27.8	-29.4	14.3	0.00e+00	0	41	0	300941312	16	4335
2026-01-11 22:23:28.52	48.16	12.39	-27.7	-29.2	14.4	1.50e-06	0	41	0	304087040	16	4290
2026-01-11 22:23:29.53	48.33	12.44	-27.7	-29.3	14.3	5.62e-04	0	41	0	307232768	16	4315
2026-01-11 22:23:30.54	48.49	12.50	-27.8	-29.9	14.1	7.09e-04	0	41	0	310378496	15	4612
2026-01-11 22:23:31.55	48.66	12.55	-27.7	-29.8	14.2	7.00e-07	0	41	0	313524224	15	4578
2026-01-11 22:23:32.56	48.82	12.60	-27.9	-30.2	14.0	6.16e-04	0	41	0	316669952	15	4695
2026-01-11 22:23:33.57	48.99	12.65	-27.9	-30.2	14.0	6.10e-06	0	41	0	319815680	15	4701
2026-01-11 22:23:34.57	49.16	12.70	-28.2	-30.3	13.8	3.80e-06	0	41	0	322961408	16	4610
2026-01-11 22:23:35.58	49.32	12.75	-28.5	-31.0	13.4	7.49e-04	0	41	0	326107136	16	4844
2026-01-11 22:23:36.58	49.49	12.81	-28.4	-30.4	13.4	6.32e-04	0	41	0	329252864	17	4534
2026-01-11 22:23:37.59	49.66	12.86	-28.2	-29.8	13.8	6.80e-06	0	41	0	332398592	17	4358
2026-01-11 22:23:38.59	49.83	12.91	-28.1	-29.5	14.0	2.20e-06	0	41	0	335544320	17	4272
2026-01-11 22:23:39.59	50.00	12.96	-28.1	-29.6	13.9	2.04e-04	0	41	0	338690048	17	4288
2026-01-11 22:23:40.60	50.17	13.01	-28.2	-29.8	13.8	3.80e-06	0	41	0	341835776	17	4359
2026-01-11 22:23:41.61	50.34	13.06	-28.2	-29.8	13.8	1.78e-04	0	41	0	344981504	17	4344
2026-01-11 22:23:42.61	50.51	13.11	-28.2	-29.9	13.8	2.43e-04	0	41	0	348127232	17	4379
2026-01-11 22:23:43.63	50.68	13.16	-28.3	-30.1	13.6	9.10e-06	0	41	0	351272960	17	4424
2026-01-11 22:23:44.62	50.85	13.21	-28.5	-30.7	13.2	1.14e-05	0	41	0	354418688	17	4628
2026-01-11 22:23:45.63	51.02	13.26	-28.5	-30.5	13.3	6.06e-04	0	41	0	357564416	17	4575
2026-01-11 22:23:46.64	51.20	13.31	-28.3	-30.2	13.6	1.14e-05	0	41	0	360710144	17	4453
2026-01-11 22:23:47.65	51.37	13.36	-28.1	-29.7	13.9	4.50e-04	0	41	0	363855872	17	4329
2026-01-11 22:23:48.65	51.55	13.41	-28.1	-29.6	13.9	4.43e-04	0	41	0	367001600	17	4290
2026-01-11 22:23:49.65	51.72	13.46	-28.0	-29.4	14.1	7.00e-07	0	41	0	370147328	17	4235
2026-01-11 22:23:50.66	51.90	13.51	-28.1	-30.1	13.9	1.50e-06	0	41	0	373293056	16	4560
2026-01-11 22:23:51.66	52.07	13.56	-27.9	-29.8	14.2	7.20e-04	0	41	0	376438784	16	4445
2026-01-11 22:23:52.66	52.25	13.61	-27.9	-29.7	14.2	7.00e-07	0	41	0	379584512	16	4413
2026-01-11 22:23:53.67	52.43	13.66	-27.9	-29.7	14.3	8.10e-04	0	41	0	382730240	16	4412
2026-01-11 22:23:54.67	52.60	13.71	-27.6	-29.6	14.4	2.20e-06	0	41	0	385875968	15	4515
2026-01-11 22:23:55.68	52.78	13.76	-27.6	-29.5	14.4	7.00e-07	0	41	0	389021696	15	4489
2026-01-11 22:23:56.68	52.96	13.81	-27.5	-29.4	14.5	0.00e+00	0	41	0	392167424	15	4445
2026-01-11 22:23:57.69	53.14	13.85	-27.6	-29.5	14.5	3.86e-04	0	41	0	395313152	15	4469
2026-01-11 22:23:58.70	53.32	13.90	-27.7	-29.7	14.4	2.20e-06	0	41	0	398458880	15	4539
2026-01-11 22:23:59.71	53.50	13.95	-27.7	-29.8	14.3	7.00e-07	0	41	0	401604608	15	4573
2026-01-11 22:24:00.71	53.68	14.00	-27.7	-29.7	14.3	3.00e-06	0	41	0	404750336	15	4540
2026-01-11 22:24:01.72	53.87	14.05	-27.7	-29.9	14.2	0.00e+00	0	41	0	407896064	15	4588
2026-01-11 22:24:02.72	54.05	14.09	-27.8	-30.0	14.1	1.50e-06	0	41	0	411041792	15	4636
2026-01-11 22:24:03.72	54.23	14.14	-27.8	-29.9	14.2	7.00e-07	0	41	0	414187520	15	4602
2026-01-11 22:24:04.73	54.42	14.19	-27.8	-30.1	14.1	2.20e-06	0	41	0	417333248	15	4669
2026-01-11 22:24:05.73	54.60	14.24	-27.8	-29.9	14.2	7.00e-07	0	41	0	420478976	15	4605
2026-01-11 22:24:06.73	54.78	14.28	-27.7	-29.7	14.4	0.00e+00	0	41	0	423624704	15	4534
2026-01-11 22:24:07.74	54.97	14.33	-27.7	-29.7	14.4	1.50e-06	0	41	0	426770432	15	4536
2026-01-11 22:24:08.74	55.15	14.38	-27.6	-29.4	14.5	7.00e-07	0	41	0	429916160	15	4457
2026-01-11 22:24:09.74	55.34	14.42	-27.5	-29.3	14.6	7.00e-07	0	41	0	433061888	15	4434
2026-01-11 22:24:10.75	55.53	14.47	-27.5	-29.3	14.6	7.00e-07	0	41	0	436207616	15	4420
2026-01-11 22:24:11.75	55.71	14.51	-27.5	-29.3	14.5	1.50e-06	0	41	0	439353344	15	4434
2026-01-11 22:24:12.76	55.90	14.56	-27.7	-29.7	14.4	0.00e+00	0	41	0	442499072	15	4535
2026-01-11 22:24:13.77	56.09	14.61	-27.7	-29.7	14.4	7.00e-07	0	41	0	445644800	15	4549
2026-01-11 22:24:14.77	56.28	14.65	-27.7	-29.8	14.3	7.00e-07	0	41	0	448790528	15	4566
2026-01-11 22:24:15.77	56.47	14.70	-27.8	-29.9	14.3	3.00e-06	0	41	0	451936256	15	4598
2026-01-11 22:24:16.78	56.66	14.74	-27.7	-29.8	14.3	2.20e-06	0	41	0	455081984	15	4575
2026-01-11 22:24:17.79	56.85	14.79	-27.7	-29.8	14.3	2.20e-06	0	41	0	458227712	15	4564
2026-01-11 22:24:18.79	57.04	14.83	-27.6	-29.5	14.5	1.50e-06	0	41	0	461373440	15	4493
2026-01-11 22:24:19.80	57.24	14.87	-27.6	-29.5	14.5	0.00e+00	0	41	0	464519168	15	4490
2026-01-11 22:24:20.80	57.43	14.92	-27.5	-29.4	14.5	0.00e+00	0	41	0	467664896	15	4442
2026-01-11 22:24:21.81	57.62	14.96	-27.5	-29.7	14.7	0.00e+00	0	41	0	470810624	14	4641
2026-01-11 22:24:22.82	57.82	15.01	-27.4	-29.5	14.8	7.00e-07	0	41	0	473956352	14	4582
2026-01-11 22:24:23.82	58.01	15.05	-27.3	-29.4	14.9	0.00e+00	0	41	0	477102080	14	4546
2026-01-11 22:24:24.83	58.21	15.09	-27.4	-29.6	14.8	7.00e-07	0	41	0	480247808	14	4605
2026-01-11 22:24:25.84	58.40	15.14	-27.4	-29.0	14.8	0.00e+00	0	41	0	483393536	15	4329
2026-01-11 22:24:26.84	58.60	15.18	-27.5	-29.1	14.7	0.00e+00	0	41	0	486539264	15	4371
2026-01-11 22:24:27.85	58.80	15.22	-27.5	-29.2	14.7	0.00e+00	0	41	0	489684992	15	4406
2026-01-11 22:24:28.86	58.99	15.26	-27.5	-29.3	14.6	7.00e-07	0	41	0	492830720	15	4423
2026-01-11 22:24:29.86	59.19	15.31	-27.7	-29.7	14.4	0.00e+00	0	41	0	495976448	15	4528
2026-01-11 22:24:30.86	59.39	15.35	-27.5	-29.3	14.6	0.00e+00	0	41	0	499122176	15	4428
2026-01-11 22:24:31.87	59.59	15.39	-27.5	-29.3	14.6	0.00e+00	0	41	0	502267904	15	4416
2026-01-11 22:24:32.87	59.79	15.43	-27.5	-29.2	14.7	0.00e+00	0	41	0	505413632	15	4399
2026-01-11 22:24:33.88	59.99	15.47	-27.4	-29.0	14.8	0.00e+00	0	41	0	508559360	15	4336
2026-01-11 22:24:34.88	60.19	15.51	-27.3	-28.9	14.9	7.00e-07	0	41	0	511705088	15	4294
2026-01-11 22:24:35.89	60.39	15.55	-27.3	-28.9	14.9	0.00e+00	0	41	0	514850816	15	4299
2026-01-11 22:24:36.89	60.59	15.59	-27.4	-29.1	14.8	0.00e+00	0	41	0	517996544	15	4353
2026-01-11 22:24:37.90	60.79	15.63	-27.2	-28.6	15.0	7.00e-07	0	41	0	521142272	15	4213
2026-01-11 22:24:38.91	60.99	15.67	-27.2	-28.5	15.1	0.00e+00	0	41	0	524288000	15	4201
2026-01-11 22:24:39.92	61.20	15.71	-27.2	-28.5	15.1	0.00e+00	0	41	0	527433728	15	4203
2026-01-11 22:24:40.93	61.40	15.75	-27.2	-28.6	15.0	0.00e+00	0	41	0	530579456	15	4231
2026-01-11 22:24:41.94	61.61	15.79	-27.3	-29.3	14.9	0.00e+00	0	41	0	533725184	14	4521
2026-01-11 22:24:42.94	61.81	15.83	-27.3	-29.3	14.9	0.00e+00	0	41	0	536870912	14	4541
2026-01-11 22:24:43.95	62.02	15.87	-27.3	-29.4	14.9	0.00e+00	0	41	0	540016640	14	4558
2026-01-11 22:24:44.96	62.22	15.91	-27.3	-29.3	14.9	0.00e+00	0	41	0	543162368	14	4528
2026-01-11 22:24:45.96	62.43	15.94	-27.3	-29.3	14.9	0.00e+00	0	41	0	546308096	14	4541
2026-01-11 22:24:46.96	62.63	15.98	-27.5	-29.6	14.8	7.00e-07	0	41	0	549453824	14	4626
2026-01-11 22:24:47.97	62.84	16.02	-27.3	-29.3	15.0	0.00e+00	0	41	0	552599552	14	4518
2026-01-11 22:24:48.97	63.05	16.06	-27.3	-29.2	15.0	0.00e+00	0	41	0	555745280	14	4493
2026-01-11 22:24:49.98	63.26	16.09	-27.2	-29.1	15.0	0.00e+00	0	41	0	558891008	14	4472
2026-01-11 22:24:50.98	63.47	16.13	-27.4	-29.5	14.9	1.14e-03	0	41	0	562036736	14	4588
2026-01-11 22:24:51.99	63.68	16.16	-27.3	-29.2	15.0	7.00e-07	0	42	0	565182464	14	4507
2026-01-11 22:24:52.99	63.88	16.20	-27.2	-29.0	15.1	0.00e+00	0	41	0	568328192	14	4429
2026-01-11 22:24:54.00	64.10	16.24	-27.1	-28.9	15.2	0.00e+00	0	41	0	571473920	14	4410
2026-01-11 22:24:55.01	64.31	16.27	-27.1	-28.8	15.3	0.00e+00	0	41	0	574619648	14	4368
2026-01-11 22:24:56.01	64.52	16.31	-27.2	-29.0	15.2	8.97e-04	0	41	0	577765376	14	4433
2026-01-11 22:24:57.01	64.73	16.34	-27.1	-28.7	15.3	5.52e-04	0	41	0	580911104	14	4365
2026-01-11 22:24:58.02	64.94	16.37	-27.1	-28.8	15.3	7.00e-07	0	42	0	584056832	14	4384
2026-01-11 22:24:59.03	65.15	16.41	-27.2	-29.0	15.1	0.00e+00	0	41	0	587202560	14	4438
2026-01-11 22:25:00.04	65.37	16.44	-27.2	-29.1	15.1	1.43e-04	0	41	0	590348288	14	4462
2026-01-11 22:25:01.04	65.58	16.47	-27.1	-28.8	15.3	0.00e+00	0	41	0	593494016	14	4392
2026-01-11 22:25:02.05	65.80	16.51	-27.3	-29.4	14.9	1.82e-04	0	41	0	596639744	14	4545
2026-01-11 22:25:03.07	66.01	16.54	-27.2	-29.0	15.1	2.08e-04	0	41	0	599785472	14	4445
2026-01-11 22:25:04.07	66.23	16.57	-27.0	-28.7	15.3	0.00e+00	0	42	0	602931200	14	4345
2026-01-11 22:25:05.07	66.44	16.60	-27.0	-28.6	15.4	1.89e-04	0	41	0	606076928	14	4313
2026-01-11 22:25:06.08	66.66	16.64	-27.1	-28.8	15.2	2.47e-04	0	41	0	609222656	14	4377
2026-01-11 22:25:07.09	66.88	16.67	-26.9	-28.4	15.5	0.00e+00	0	41	0	612368384	14	4266
2026-01-11 22:25:08.10	67.09	16.70	-26.9	-28.3	15.5	4.93e-04	0	41	0	615514112	14	4239
2026-01-11 22:25:09.11	67.31	16.73	-27.0	-28.5	15.4	8.81e-04	0	41	0	618659840	14	4300
2026-01-11 22:25:10.11	67.53	16.76	-26.9	-28.4	15.5	0.00e+00	0	41	0	621805568	14	4261
2026-01-11 22:25:11.12	67.75	16.79	-26.9	-29.0	15.4	0.00e+00	0	41	0	624951296	13	4541
2026-01-11 22:25:12.12	67.96	16.82	-27.0	-28.7	15.3	1.13e-03	0	42	0	628097024	14	4359
2026-01-11 22:25:13.13	68.18	16.85	-27.2	-29.1	15.1	0.00e+00	0	41	0	631242752	14	4475
2026-01-11 22:25:14.14	68.40	16.87	-27.1	-28.7	15.3	5.86e-04	0	41	0	634388480	14	4367
2026-01-11 22:25:15.14	68.62	16.90	-27.0	-28.6	15.4	0.00e+00	0	41	0	637534208	14	4332
2026-01-11 22:25:16.15	68.84	16.93	-27.0	-28.6	15.4	0.00e+00	0	41	0	640679936	14	4335
2026-01-11 22:25:17.16	69.06	16.96	-27.0	-28.5	15.4	0.00e+00	0	41	0	643825664	14	4293
2026-01-11 22:25:18.16	69.28	16.99	-27.1	-28.7	15.3	4.08e-04	0	42	0	646971392	14	4366
2026-01-11 22:25:19.16	69.50	17.01	-27.0	-28.5	15.4	0.00e+00	0	41	0	650117120	14	4292
2026-01-11 22:25:20.17	69.73	17.04	-27.0	-28.6	15.4	0.00e+00	0	42	0	653262848	14	4314
2026-01-11 22:25:21.18	69.95	17.06	-27.0	-28.7	15.3	1.50e-06	0	41	0	656408576	14	4349
2026-01-11 22:25:22.19	70.17	17.09	-27.0	-28.5	15.4	0.00e+00	0	41	0	659554304	14	4304
2026-01-11 22:25:23.19	70.39	17.11	-27.0	-28.5	15.4	1.44e-04	0	41	0	662700032	14	4293
2026-01-11 22:25:24.20	70.62	17.14	-27.0	-28.6	15.4	1.50e-06	0	41	0	665845760	14	4334
2026-01-11 22:25:25.21	70.84	17.16	-27.0	-28.6	15.4	0.00e+00	0	41	0	668991488	14	4314
2026-01-11 22:25:26.21	71.07	17.19	-26.9	-28.4	15.5	0.00e+00	0	41	0	672137216	14	4257
2026-01-11 22:25:27.22	71.29	17.21	-27.0	-28.6	15.4	0.00e+00	0	42	0	675282944	14	4321
2026-01-11 22:25:28.22	71.51	17.24	-26.9	-28.4	15.5	0.00e+00	0	42	0	678428672	14	4277
2026-01-11 22:25:29.23	71.74	17.26	-27.0	-28.5	15.5	0.00e+00	0	42	0	681574400	14	4298
2026-01-11 22:25:30.24	71.97	17.28	-27.1	-28.9	15.2	3.00e-06	0	41	0	684720128	14	4411
2026-01-11 22:25:31.24	72.19	17.30	-27.1	-28.9	15.2	0.00e+00	0	41	0	687865856	14	4426
2026-01-11 22:25:32.24	72.41	17.32	-27.3	-29.3	15.0	7.00e-07	0	41	0	691011584	14	4522
2026-01-11 22:25:33.25	72.64	17.35	-27.3	-29.2	15.1	0.00e+00	0	42	0	694157312	14	4491
2026-01-11 22:25:34.26	72.87	17.37	-27.2	-29.2	15.1	0.00e+00	0	42	0	697303040	14	4485
2026-01-11 22:25:35.27	73.10	17.39	-27.2	-29.0	15.2	0.00e+00	0	42	0	700448768	14	4447
2026-01-11 22:25:36.27	73.32	17.41	-27.3	-29.3	15.0	0.00e+00	0	42	0	703594496	14	4522
2026-01-11 22:25:37.28	73.55	17.43	-27.0	-28.7	15.4	0.00e+00	0	41	0	706740224	14	4341
2026-01-11 22:25:38.28	73.78	17.45	-27.0	-28.5	15.4	0.00e+00	0	42	0	709885952	14	4305
2026-01-11 22:25:39.29	74.01	17.46	-27.1	-28.8	15.3	0.00e+00	0	41	0	713031680	14	4379
2026-01-11 22:25:40.30	74.24	17.48	-27.1	-28.8	15.3	0.00e+00	0	42	0	716177408	14	4378
2026-01-11 22:25:41.31	74.47	17.50	-27.1	-28.9	15.3	0.00e+00	0	42	0	719323136	14	4396
2026-01-11 22:25:42.30	74.69	17.52	-27.2	-28.9	15.1	0.00e+00	0	42	0	722468864	14	4423
2026-01-11 22:25:43.31	74.92	17.54	-27.0	-28.6	15.4	0.00e+00	0	42	0	725614592	14	4328
2026-01-11 22:25:44.31	75.15	17.55	-26.9	-28.4	15.5	0.00e+00	0	41	0	728760320	14	4270
2026-01-11 22:25:45.31	75.38	17.57	-26.9	-28.4	15.5	0.00e+00	0	42	0	731906048	14	4280
2026-01-11 22:25:46.32	75.61	17.58	-27.1	-28.8	15.3	0.00e+00	0	42	0	735051776	14	4362
2026-01-11 22:25:47.33	75.84	17.60	-26.9	-28.3	15.6	0.00e+00	0	41	0	738197504	14	4249
2026-01-11 22:25:48.34	76.07	17.61	-26.9	-28.4	15.5	0.00e+00	0	41	0	741343232	14	4283
2026-01-11 22:25:49.35	76.30	17.63	-27.0	-28.5	15.4	0.00e+00	0	42	0	744488960	14	4296
2026-01-11 22:25:50.36	76.53	17.64	-27.1	-28.9	15.3	0.00e+00	0	42	0	747634688	14	4396
2026-01-11 22:25:51.36	76.76	17.66	-27.0	-28.6	15.4	0.00e+00	0	41	0	750780416	14	4328
2026-01-11 22:25:52.36	76.99	17.67	-27.0	-28.7	15.4	7.00e-07	0	42	0	753926144	14	4345
2026-01-11 22:25:53.36	77.22	17.68	-27.0	-28.7	15.4	0.00e+00	0	41	0	757071872	14	4350
2026-01-11 22:25:54.37	77.46	17.69	-27.0	-28.5	15.4	0.00e+00	0	41	0	760217600	14	4302
2026-01-11 22:25:55.38	77.69	17.71	-26.9	-28.4	15.5	0.00e+00	0	41	0	763363328	14	4257
2026-01-11 22:25:56.38	77.92	17.72	-27.0	-28.6	15.4	0.00e+00	0	42	0	766509056	14	4309
2026-01-11 22:25:57.39	78.15	17.73	-27.0	-28.6	15.4	0.00e+00	0	41	0	769654784	14	4315
2026-01-11 22:25:58.40	78.39	17.74	-27.1	-28.9	15.2	0.00e+00	0	41	0	772800512	14	4404
2026-01-11 22:25:59.41	78.62	17.75	-27.2	-29.0	15.2	0.00e+00	0	41	0	775946240	14	4431
2026-01-11 22:26:00.41	78.85	17.76	-27.0	-28.5	15.4	0.00e+00	0	41	0	779091968	14	4308
2026-01-11 22:26:01.41	79.08	17.77	-26.9	-28.4	15.5	0.00e+00	0	41	0	782237696	14	4263
2026-01-11 22:26:02.42	79.32	17.78	-26.8	-28.2	15.6	0.00e+00	0	41	0	785383424	14	4224
2026-01-11 22:26:03.43	79.55	17.78	-26.9	-28.3	15.6	0.00e+00	0	42	0	788529152	14	4232
2026-01-11 22:26:04.43	79.78	17.79	-26.8	-28.2	15.6	0.00e+00	0	41	0	791674880	14	4215
2026-01-11 22:26:05.44	80.02	17.80	-26.9	-28.4	15.5	0.00e+00	0	41	0	794820608	14	4260
2026-01-11 22:26:06.44	80.25	17.81	-27.0	-28.6	15.4	7.00e-07	0	42	0	797966336	14	4316
2026-01-11 22:26:07.45	80.48	17.81	-26.8	-28.2	15.6	0.00e+00	0	42	0	801112064	14	4211
2026-01-11 22:26:08.46	80.72	17.82	-26.9	-28.3	15.6	0.00e+00	0	41	0	804257792	14	4240
2026-01-11 22:26:09.47	80.95	17.82	-26.9	-28.3	15.6	0.00e+00	0	41	0	807403520	14	4235
2026-01-11 22:26:10.48	81.19	17.83	-26.9	-28.4	15.5	0.00e+00	0	41	0	810549248	14	4267
2026-01-11 22:26:11.48	81.42	17.83	-26.9	-28.4	15.5	3.66e-04	0	41	0	813694976	14	4264
2026-01-11 22:26:12.49	81.65	17.84	-27.0	-28.6	15.4	0.00e+00	0	41	0	816840704	14	4338
2026-01-11 22:26:13.50	81.89	17.84	-27.1	-28.9	15.2	0.00e+00	0	41	0	819986432	14	4414
2026-01-11 22:26:14.51	82.12	17.84	-27.2	-29.1	15.1	0.00e+00	0	42	0	823132160	14	4468
2026-01-11 22:26:15.52	82.36	17.85	-27.0	-28.6	15.4	0.00e+00	0	42	0	826277888	14	4318
2026-01-11 22:26:16.53	82.59	17.85	-26.9	-28.5	15.4	1.37e-05	0	42	0	829423616	14	4288
2026-01-11 22:26:17.54	82.83	17.85	-27.0	-28.6	15.4	3.50e-05	0	42	0	832569344	14	4317
2026-01-11 22:26:18.55	83.06	17.85	-27.0	-28.6	15.4	0.00e+00	0	42	0	835715072	14	4340
2026-01-11 22:26:19.55	83.30	17.85	-27.0	-28.7	15.3	0.00e+00	0	41	0	838860800	14	4353
2026-01-11 22:26:20.55	83.53	17.85	-27.2	-29.0	15.2	3.00e-06	0	42	0	842006528	14	4430
2026-01-11 22:26:21.56	83.76	17.85	-27.1	-28.8	15.2	0.00e+00	0	41	0	845152256	14	4394
2026-01-11 22:26:22.57	84.00	17.85	-27.2	-29.1	15.1	1.52e-05	0	42	0	848297984	14	4471
2026-01-11 22:26:23.58	84.23	17.85	-27.2	-29.1	15.1	7.78e-05	0	42	0	851443712	14	4452
2026-01-11 22:26:24.58	84.47	17.85	-27.0	-28.5	15.4	0.00e+00	0	42	0	854589440	14	4302
2026-01-11 22:26:25.59	84.70	17.85	-27.0	-28.6	15.4	2.28e-05	0	41	0	857735168	14	4314
2026-01-11 22:26:26.60	84.94	17.85	-27.1	-28.7	15.3	1.90e-05	0	42	0	860880896	14	4360
2026-01-11 22:26:27.60	85.17	17.84	-27.0	-28.7	15.3	0.00e+00	0	42	0	864026624	14	4356
2026-01-11 22:26:28.61	85.41	17.84	-27.1	-28.9	15.3	7.00e-07	0	42	0	867172352	14	4400
2026-01-11 22:26:29.62	85.64	17.84	-27.1	-28.9	15.2	0.00e+00	0	42	0	870318080	14	4399
2026-01-11 22:26:30.61	85.87	17.83	-27.1	-28.8	15.3	7.00e-07	0	42	0	873463808	14	4376
2026-01-11 22:26:31.63	86.11	17.83	-27.0	-28.6	15.3	0.00e+00	0	41	0	876609536	14	4337
2026-01-11 22:26:32.63	86.34	17.82	-27.1	-28.9	15.2	6.10e-06	0	42	0	879755264	14	4399
2026-01-11 22:26:33.64	86.58	17.82	-27.1	-28.7	15.3	0.00e+00	0	42	0	882900992	14	4353
2026-01-11 22:26:34.65	86.81	17.81	-27.1	-28.8	15.3	0.00e+00	0	41	0	886046720	14	4377
2026-01-11 22:26:35.66	87.04	17.81	-27.2	-29.0	15.2	0.00e+00	0	42	0	889192448	14	4432
2026-01-11 22:26:36.66	87.28	17.80	-27.3	-29.3	15.0	0.00e+00	0	42	0	892338176	14	4523
2026-01-11 22:26:37.67	87.51	17.79	-27.2	-29.2	15.1	0.00e+00	0	41	0	895483904	14	4488
2026-01-11 22:26:38.67	87.74	17.78	-27.1	-28.8	15.3	2.20e-06	0	41	0	898629632	14	4389
2026-01-11 22:26:39.68	87.98	17.77	-27.0	-28.5	15.4	0.00e+00	0	42	0	901775360	14	4307
2026-01-11 22:26:40.69	88.21	17.77	-27.1	-28.9	15.2	0.00e+00	0	41	0	904921088	14	4400
2026-01-11 22:26:41.70	88.45	17.76	-27.0	-28.5	15.4	0.00e+00	0	42	0	908066816	14	4304
2026-01-11 22:26:42.71	88.68	17.75	-27.1	-28.7	15.3	0.00e+00	0	42	0	911212544	14	4354
2026-01-11 22:26:43.71	88.91	17.74	-27.3	-29.2	15.1	0.00e+00	0	42	0	914358272	14	4493
2026-01-11 22:26:44.72	89.14	17.73	-27.4	-29.5	14.8	0.00e+00	0	42	0	917504000	14	4601
2026-01-11 22:26:45.73	89.38	17.72	-27.4	-29.4	14.9	0.00e+00	0	42	0	920649728	14	4561
2026-01-11 22:26:46.73	89.61	17.70	-27.3	-29.3	15.0	7.00e-07	0	41	0	923795456	14	4519
2026-01-11 22:26:47.74	89.84	17.69	-27.3	-29.3	15.0	0.00e+00	0	41	0	926941184	14	4518
2026-01-11 22:26:48.75	90.07	17.68	-27.2	-29.1	15.1	0.00e+00	0	42	0	930086912	14	4468
2026-01-11 22:26:49.75	90.30	17.67	-27.0	-28.6	15.4	0.00e+00	0	41	0	933232640	14	4317
2026-01-11 22:26:50.75	90.53	17.65	-26.8	-28.2	15.6	0.00e+00	0	42	0	936378368	14	4210
2026-01-11 22:26:51.76	90.77	17.64	-26.9	-28.3	15.5	0.00e+00	0	41	0	939524096	14	4235
2026-01-11 22:26:52.76	91.00	17.63	-27.1	-28.8	15.3	0.00e+00	0	41	0	942669824	14	4370
2026-01-11 22:26:53.77	91.23	17.61	-27.0	-28.6	15.4	0.00e+00	0	41	0	945815552	14	4329
2026-01-11 22:26:54.77	91.46	17.60	-26.8	-28.2	15.6	0.00e+00	0	42	0	948961280	14	4224
2026-01-11 22:26:55.78	91.69	17.58	-26.8	-28.1	15.6	0.00e+00	0	42	0	952107008	14	4197
2026-01-11 22:26:56.79	91.92	17.56	-26.7	-28.0	15.7	0.00e+00	0	42	0	955252736	14	4162
2026-01-11 22:26:57.79	92.15	17.55	-27.0	-28.7	15.4	0.00e+00	0	42	0	958398464	14	4346
2026-01-11 22:26:58.80	92.38	17.53	-27.0	-28.7	15.3	0.00e+00	0	42	0	961544192	14	4351
2026-01-11 22:26:59.81	92.61	17.51	-27.1	-28.9	15.2	0.00e+00	0	41	0	964689920	14	4408
2026-01-11 22:27:00.81	92.84	17.50	-27.0	-28.5	15.4	0.00e+00	0	42	0	967835648	14	4305
2026-01-11 22:27:01.82	93.07	17.48	-26.9	-28.5	15.4	0.00e+00	0	42	0	970981376	14	4287
2026-01-11 22:27:02.83	93.30	17.46	-26.8	-28.2	15.6	0.00e+00	0	42	0	974127104	14	4211
2026-01-11 22:27:03.83	93.52	17.44	-26.9	-28.4	15.5	0.00e+00	0	41	0	977272832	14	4266
2026-01-11 22:27:04.84	93.75	17.42	-26.9	-28.3	15.5	0.00e+00	0	41	0	980418560	14	4237
2026-01-11 22:27:05.85	93.98	17.40	-26.9	-28.3	15.5	0.00e+00	0	42	0	983564288	14	4235
2026-01-11 22:27:06.86	94.21	17.38	-26.9	-28.3	15.5	0.00e+00	0	42	0	986710016	14	4238
2026-01-11 22:27:07.87	94.44	17.36	-26.7	-28.0	15.7	0.00e+00	0	42	0	989855744	14	4148
2026-01-11 22:27:08.88	94.67	17.34	-26.7	-27.9	15.7	0.00e+00	0	41	0	993001472	14	4148
2026-01-11 22:27:09.88	94.89	17.32	-26.9	-28.4	15.5	0.00e+00	0	42	0	996147200	14	4258
2026-01-11 22:27:10.89	95.12	17.30	-26.8	-28.2	15.5	0.00e+00	0	41	0	999292928	14	4230
2026-01-11 22:27:11.90	95.35	17.27	-27.0	-28.6	15.4	0.00e+00	0	42	0	1002438656	14	4313
2026-01-11 22:27:12.91	95.57	17.25	-26.9	-28.4	15.5	0.00e+00	0	41	0	1005584384	14	4263
2026-01-11 22:27:13.91	95.80	17.23	-27.1	-28.7	15.3	7.00e-07	0	42	0	1008730112	14	4364
2026-01-11 22:27:14.91	96.02	17.21	-27.0	-28.6	15.3	0.00e+00	0	42	0	1011875840	14	4326
2026-01-11 22:27:15.92	96.25	17.18	-27.0	-28.6	15.4	0.00e+00	0	42	0	1015021568	14	4325
2026-01-11 22:27:16.92	96.47	17.16	-26.9	-28.5	15.4	0.00e+00	0	41	0	1018167296	14	4291
2026-01-11 22:27:17.91	96.69	17.13	-27.0	-28.6	15.4	0.00e+00	0	42	0	1021313024	14	4324
2026-01-11 22:27:18.92	96.92	17.11	-26.8	-28.2	15.5	0.00e+00	0	42	0	1024458752	14	4229
2026-01-11 22:27:19.93	97.14	17.08	-26.7	-27.9	15.7	0.00e+00	0	42	0	1027604480	14	4138
2026-01-11 22:27:20.93	97.36	17.06	-26.7	-27.9	15.7	0.00e+00	0	42	0	1030750208	14	4148
2026-01-11 22:27:21.94	97.58	17.03	-26.7	-28.0	15.7	0.00e+00	0	42	0	1033895936	14	4163
2026-01-11 22:27:22.93	97.80	17.00	-26.7	-28.0	15.7	0.00e+00	0	42	0	1037041664	14	4163
2026-01-11 22:27:23.94	98.03	16.98	-26.7	-28.0	15.7	0.00e+00	0	42	0	1040187392	14	4169
2026-01-11 22:27:24.94	98.25	16.95	-26.8	-28.1	15.6	0.00e+00	0	42	0	1043333120	14	4187
2026-01-11 22:27:25.95	98.47	16.92	-26.7	-28.0	15.6	0.00e+00	0	42	0	1046478848	14	4157
2026-01-11 22:27:26.96	98.69	16.89	-26.9	-28.4	15.4	0.00e+00	0	41	0	1049624576	14	4282
2026-01-11 22:27:27.96	98.91	16.87	-26.8	-28.0	15.6	8.39e-05	0	42	0	1052770304	14	4168
2026-01-11 22:27:28.97	99.13	16.84	-26.7	-27.8	15.7	0.00e+00	0	42	0	1055916032	14	4120
2026-01-11 22:27:29.98	99.35	16.81	-26.7	-28.0	15.7	0.00e+00	0	42	0	1059061760	14	4157
2026-01-11 22:27:30.99	99.57	16.78	-26.8	-28.0	15.6	0.00e+00	0	42	0	1062207488	14	4167
2026-01-11 22:27:31.99	99.79	16.75	-26.7	-27.8	15.7	5.56e-05	0	42	0	1065353216	14	4119
2026-01-11 22:27:32.99	100.00	16.72	-26.8	-28.0	15.6	0.00e+00	0	42	0	1068498944	14	4173
2026-01-11 22:27:34.00	100.22	16.69	-27.0	-28.6	15.3	0.00e+00	0	42	0	1071644672	14	4331
2026-01-11 22:27:35.00	100.44	16.66	-26.9	-28.3	15.4	0.00e+00	0	42	0	1074790400	14	4249
2026-01-11 22:27:36.01	100.66	16.63	-26.9	-28.3	15.5	0.00e+00	0	42	0	1077936128	14	4245
2026-01-11 22:27:37.00	100.87	16.59	-26.8	-28.1	15.6	5.21e-04	0	42	0	1081081856	14	4182
2026-01-11 22:27:38.00	101.08	16.56	-26.9	-28.8	15.5	8.67e-04	0	41	0	1084227584	13	4510
2026-01-11 22:27:39.01	101.30	16.53	-26.7	-28.4	15.7	0.00e+00	0	42	0	1087373312	13	4383
2026-01-11 22:27:40.01	101.52	16.50	-26.7	-28.5	15.6	8.08e-04	0	41	0	1090519040	13	4397
2026-01-11 22:27:41.02	101.73	16.46	-26.9	-28.8	15.4	7.00e-07	0	42	0	1093664768	13	4510
2026-01-11 22:27:42.02	101.94	16.43	-26.7	-28.5	15.6	0.00e+00	0	42	0	1096810496	13	4424
2026-01-11 22:27:43.03	102.16	16.40	-26.7	-28.4	15.6	8.03e-04	0	42	0	1099956224	13	4392
2026-01-11 22:27:44.04	102.37	16.36	-26.7	-28.5	15.6	7.00e-04	0	41	0	1103101952	13	4417
2026-01-11 22:27:45.05	102.59	16.33	-26.7	-28.3	15.7	7.00e-07	0	42	0	1106247680	13	4357
2026-01-11 22:27:46.05	102.80	16.29	-26.7	-28.4	15.6	6.50e-04	0	42	0	1109393408	13	4388
2026-01-11 22:27:47.05	103.01	16.26	-26.8	-28.8	15.4	5.78e-04	0	41	0	1112539136	13	4501
2026-01-11 22:27:48.06	103.22	16.22	-26.8	-28.7	15.5	0.00e+00	0	42	0	1115684864	13	4459
2026-01-11 22:27:49.06	103.43	16.19	-26.9	-28.9	15.4	3.41e-04	0	42	0	1118830592	13	4540
2026-01-11 22:27:50.06	103.64	16.15	-26.8	-28.8	15.5	4.36e-04	0	42	0	1121976320	13	4488
2026-01-11 22:27:51.06	103.85	16.12	-26.8	-28.6	15.5	0.00e+00	0	41	0	1125122048	13	4451
2026-01-11 22:27:52.06	104.06	16.08	-26.9	-28.9	15.4	4.93e-04	0	41	0	1128267776	13	4533
2026-01-11 22:27:53.07	104.27	16.04	-26.7	-28.5	15.6	7.08e-04	0	41	0	1131413504	13	4422
2026-01-11 22:27:54.07	104.47	16.01	-26.8	-28.7	15.5	0.00e+00	0	41	0	1134559232	13	4464
2026-01-11 22:27:55.07	104.68	15.97	-27.0	-29.1	15.3	7.48e-04	0	42	0	1137704960	13	4582
2026-01-11 22:27:56.07	104.89	15.93	-27.0	-29.0	15.3	0.00e+00	0	42	0	1140850688	13	4569
2026-01-11 22:27:57.08	105.09	15.89	-27.1	-28.9	15.1	0.00e+00	0	42	0	1143996416	14	4410
2026-01-11 22:27:58.09	105.30	15.85	-27.4	-29.5	14.8	3.90e-04	0	42	0	1147142144	14	4587
2026-01-11 22:27:59.09	105.51	15.82	-27.2	-29.2	15.0	2.37e-04	0	42	0	1150287872	14	4495
2026-01-11 22:28:00.10	105.71	15.78	-27.1	-28.8	15.1	0.00e+00	0	41	0	1153433600	14	4389
2026-01-11 22:28:01.10	105.92	15.74	-27.1	-28.8	15.2	0.00e+00	0	42	0	1156579328	14	4379
2026-01-11 22:28:02.11	106.12	15.70	-27.2	-29.1	15.0	7.00e-07	0	41	0	1159725056	14	4474
2026-01-11 22:28:03.12	106.33	15.66	-27.2	-29.0	15.0	0.00e+00	0	41	0	1162870784	14	4458
2026-01-11 22:28:04.13	106.53	15.62	-27.2	-29.2	15.0	5.35e-04	0	41	0	1166016512	14	4500
2026-01-11 22:28:05.13	106.73	15.58	-27.2	-29.0	15.1	6.17e-04	0	42	0	1169162240	14	4432
2026-01-11 22:28:06.14	106.94	15.54	-27.1	-28.8	15.2	0.00e+00	0	42	0	1172307968	14	4381
2026-01-11 22:28:07.14	107.14	15.50	-27.2	-29.0	15.1	0.00e+00	0	42	0	1175453696	14	4432
2026-01-11 22:28:08.15	107.34	15.46	-27.3	-29.3	14.8	0.00e+00	0	42	0	1178599424	14	4547
2026-01-11 22:28:09.16	107.54	15.41	-27.1	-28.9	15.1	0.00e+00	0	42	0	1181745152	14	4419
2026-01-11 22:28:10.16	107.74	15.37	-27.2	-29.2	14.9	0.00e+00	0	42	0	1184890880	14	4493
2026-01-11 22:28:11.17	107.94	15.33	-27.3	-29.3	14.8	0.00e+00	0	42	0	1188036608	14	4532
2026-01-11 22:28:12.17	108.14	15.29	-27.4	-29.4	14.8	0.00e+00	0	42	0	1191182336	14	4569
2026-01-11 22:28:13.18	108.34	15.25	-27.5	-29.3	14.6	0.00e+00	0	42	0	1194328064	15	4416
2026-01-11 22:28:14.19	108.54	15.20	-27.6	-29.5	14.4	0.00e+00	0	42	0	1197473792	15	4492
2026-01-11 22:28:15.19	108.73	15.16	-27.5	-29.3	14.6	7.00e-07	0	42	0	1200619520	15	4418
2026-01-11 22:28:16.20	108.93	15.12	-27.4	-29.1	14.7	7.00e-07	0	42	0	1202716672	15	4356
2026-01-11 22:28:17.21	109.13	15.07	-27.4	-29.1	14.7	0.00e+00	0	42	0	1206910976	15	4356
2026-01-11 22:28:18.21	109.32	15.03	-27.4	-29.0	14.8	0.00e+00	0	42	0	1210056704	15	4327
2026-01-11 22:28:19.21	109.51	14.99	-27.4	-29.0	14.7	0.00e+00	0	42	0	1213202432	15	4328
2026-01-11 22:28:20.22	109.71	14.94	-27.6	-29.5	14.4	0.00e+00	0	42	0	1216348160	15	4493
2026-01-11 22:28:21.22	109.90	14.90	-27.3	-28.9	14.8	0.00e+00	0	42	0	1219493888	15	4299
2026-01-11 22:28:22.24	110.10	14.85	-27.2	-28.6	14.9	0.00e+00	0	41	0	1222639616	15	4236
2026-01-11 22:28:23.24	110.29	14.81	-27.2	-28.6	14.9	0.00e+00	0	42	0	1224736768	15	4223
2026-01-11 22:28:24.25	110.48	14.76	-27.2	-28.6	14.9	0.00e+00	0	42	0	1227882496	15	4218
2026-01-11 22:28:25.25	110.68	14.72	-27.3	-28.8	14.8	0.00e+00	0	42	0	1231028224	15	4293
2026-01-11 22:28:26.26	110.87	14.67	-27.3	-28.8	14.8	0.00e+00	0	42	0	1235222528	15	4293
2026-01-11 22:28:27.26	111.06	14.63	-27.4	-29.1	14.6	2.20e-06	0	42	0	1238368256	15	4370
2026-01-11 22:28:28.27	111.25	14.58	-27.5	-29.8	14.5	6.10e-06	0	42	0	1241513984	14	4684
2026-01-11 22:28:29.28	111.44	14.54	-27.8	-29.9	14.1	7.00e-07	0	42	0	1244659712	15	4616
2026-01-11 22:28:30.29	111.63	14.49	-27.8	-30.1	14.1	3.80e-06	0	42	0	1247805440	15	4658
2026-01-11 22:28:31.29	111.82	14.44	-27.7	-29.7	14.3	7.00e-07	0	42	0	1249902592	15	4551
2026-01-11 22:28:32.30	112.00	14.40	-27.5	-29.3	14.5	0.00e+00	0	42	0	1253048320	15	4419
2026-01-11 22:28:33.30	112.19	14.35	-27.4	-29.0	14.7	1.50e-06	0	42	0	1257242624	15	4346
2026-01-11 22:28:34.31	112.38	14.30	-27.4	-29.1	14.6	8.30e-06	0	42	0	1260388352	15	4360
2026-01-11 22:28:35.32	112.56	14.25	-27.4	-29.1	14.6	0.00e+00	0	42	0	1263534080	15	4373
2026-01-11 22:28:36.33	112.75	14.21	-27.5	-29.2	14.6	0.00e+00	0	42	0	1266679808	15	4395
2026-01-11 22:28:37.34	112.94	14.16	-27.3	-28.9	14.8	5.30e-06	0	42	0	1269825536	15	4300
2026-01-11 22:28:38.34	113.12	14.11	-27.4	-29.0	14.7	0.00e+00	0	42	0	1272971264	15	4352
2026-01-11 22:28:39.35	113.31	14.06	-27.4	-29.1	14.6	0.00e+00	0	42	0	1275068416	15	4371
2026-01-11 22:28:40.36	113.49	14.02	-27.5	-29.3	14.5	3.80e-06	0	42	0	1279262720	15	4438
2026-01-11 22:28:41.36	113.67	13.97	-27.6	-29.5	14.3	2.20e-06	0	42	0	1282408448	15	4494
2026-01-11 22:28:42.37	113.85	13.92	-27.5	-29.4	14.4	7.00e-07	0	42	0	1285554176	15	4459
2026-01-11 22:28:43.38	114.04	13.87	-27.5	-29.4	14.4	5.30e-06	0	42	0	1288699904	15	4445
2026-01-11 22:28:44.39	114.22	13.82	-27.4	-29.1	14.6	0.00e+00	0	42	0	1291845632	15	4368
2026-01-11 22:28:45.39	114.40	13.77	-27.5	-29.3	14.5	1.50e-06	0	42	0	1294991360	15	4416
2026-01-11 22:28:46.40	114.58	13.72	-27.5	-29.4	14.4	6.10e-06	0	42	0	1297088512	15	4458
2026-01-11 22:28:47.41	114.76	13.67	-27.5	-29.4	14.4	7.00e-07	0	42	0	1301282816	15	4454
2026-01-11 22:28:48.40	114.93	13.63	-27.6	-29.4	14.4	7.00e-07	0	42	0	1304428544	15	4471
2026-01-11 22:28:49.41	115.11	13.58	-27.5	-29.4	14.4	6.10e-06	0	42	0	1307574272	15	4450
2026-01-11 22:28:50.42	115.29	13.53	-27.5	-29.3	14.5	7.00e-07	0	42	0	1310720000	15	4423
2026-01-11 22:28:51.42	115.47	13.48	-27.6	-29.5	14.3	0.00e+00	0	42	0	1313865728	15	4490
2026-01-11 22:28:52.43	115.64	13.43	-27.4	-29.7	14.5	1.92e-03	0	42	0	1317011456	14	4648
2026-01-11 22:28:53.43	115.82	13.38	-27.4	-29.5	14.6	1.50e-06	0	42	0	1320157184	14	4610
2026-01-11 22:28:54.44	115.99	13.33	-27.4	-29.5	14.6	7.00e-07	0	42	0	1322254336	14	4611
2026-01-11 22:28:55.45	116.17	13.27	-27.4	-29.6	14.5	7.60e-06	0	42	0	1325400064	14	4636
2026-01-11 22:28:56.45	116.34	13.22	-27.5	-29.3	14.4	3.00e-06	0	42	0	1328545792	15	4441
2026-01-11 22:28:57.46	116.52	13.17	-27.6	-29.6	14.2	0.00e+00	0	42	0	1332740096	15	4525
2026-01-11 22:28:58.46	116.69	13.12	-27.6	-29.6	14.2	2.20e-06	0	42	0	1335885824	15	4526
2026-01-11 22:28:59.47	116.86	13.07	-27.7	-29.7	14.2	2.20e-06	0	42	0	1339031552	15	4549
2026-01-11 22:29:00.47	117.03	13.02	-27.7	-29.7	14.2	1.50e-06	0	42	0	1342177280	15	4560
2026-01-11 22:29:01.47	117.20	12.97	-27.6	-29.6	14.2	2.20e-06	0	42	0	1344274432	15	4523
2026-01-11 22:29:02.47	117.37	12.92	-27.7	-29.9	14.0	1.50e-06	0	42	0	1347420160	15	4609
2026-01-11 22:29:03.48	117.54	12.87	-27.8	-30.0	14.0	6.33e-05	0	42	0	1350565888	15	4631
2026-01-11 22:29:04.49	117.71	12.82	-27.6	-29.6	14.2	2.20e-06	0	42	0	1353711616	15	4535
2026-01-11 22:29:05.49	117.88	12.76	-27.7	-29.7	14.1	0.00e+00	0	42	0	1356857344	15	4561
2026-01-11 22:29:06.50	118.05	12.71	-27.6	-29.6	14.2	7.00e-07	0	42	0	1361051648	15	4522
2026-01-11 22:29:07.50	118.22	12.66	-27.8	-30.0	14.0	5.03e-05	0	42	0	1364197376	15	4639
2026-01-11 22:29:08.51	118.39	12.61	-28.2	-30.5	13.5	1.22e-05	0	42	0	1367343104	16	4671
2026-01-11 22:29:09.52	118.55	12.56	-28.0	-29.9	13.9	4.80e-05	0	42	0	1369440256	16	4492
2026-01-11 22:29:10.52	118.72	12.50	-27.8	-29.6	14.1	1.59e-04	0	42	0	1372585984	16	4392
2026-01-11 22:29:11.53	118.88	12.45	-27.9	-29.6	14.1	2.20e-06	0	42	0	1375731712	16	4409
2026-01-11 22:29:12.54	119.05	12.40	-27.9	-29.7	14.0	6.63e-04	0	42	0	1378877440	16	4434
2026-01-11 22:29:13.54	119.21	12.35	-27.7	-29.8	14.1	8.35e-04	0	42	0	1382023168	15	4593
2026-01-11 22:29:14.55	119.38	12.29	-27.7	-29.8	14.1	3.80e-06	0	42	0	1386217472	15	4578
2026-01-11 22:29:15.56	119.54	12.24	-27.6	-29.6	14.2	7.57e-04	0	42	0	1389363200	15	4518
2026-01-11 22:29:16.57	119.70	12.19	-27.6	-29.5	14.3	0.00e+00	0	42	0	1391460352	15	4481
2026-01-11 22:29:17.57	119.87	12.13	-27.5	-29.4	14.3	7.00e-07	0	42	0	1394606080	15	4477
2026-01-11 22:29:18.57	120.03	12.08	-27.6	-29.6	14.2	3.84e-04	0	42	0	1397751808	15	4537
2026-01-11 22:29:19.59	120.19	12.03	-27.6	-29.5	14.2	4.92e-04	0	42	0	1400897536	15	4509
2026-01-11 22:29:20.59	120.35	11.97	-27.6	-29.5	14.2	7.00e-07	0	42	0	1404043264	15	4495
2026-01-11 22:29:21.60	120.51	11.92	-27.5	-29.4	14.2	0.00e+00	0	42	0	1407188992	15	4475
2026-01-11 22:29:22.60	120.67	11.87	-27.7	-29.7	14.1	4.65e-05	0	42	0	1411383296	15	4553
2026-01-11 22:29:23.60	120.83	11.81	-27.6	-29.7	14.1	4.57e-05	0	42	0	1414529024	15	4545
2026-01-11 22:29:24.61	120.98	11.76	-27.6	-29.5	14.2	2.20e-06	0	42	0	1416626176	15	4499
2026-01-11 22:29:25.62	121.14	11.71	-27.6	-29.6	14.1	3.64e-04	0	42	0	1419771904	15	4532
2026-01-11 22:29:26.62	121.30	11.65	-27.6	-29.5	14.2	1.50e-06	0	42	0	1422917632	15	4491
2026-01-11 22:29:27.62	121.45	11.60	-27.5	-29.3	14.3	2.20e-06	0	42	0	1426063360	15	4427
2026-01-11 22:29:28.63	121.61	11.55	-27.5	-29.3	14.3	6.10e-06	0	42	0	1429209088	15	4443
2026-01-11 22:29:29.64	121.77	11.49	-27.4	-29.2	14.4	1.50e-06	0	42	0	1432354816	15	4406
2026-01-11 22:29:30.65	121.92	11.44	-27.5	-29.2	14.3	7.00e-07	0	42	0	1435500544	15	4415
2026-01-11 22:29:31.65	122.08	11.38	-27.3	-28.9	14.5	0.00e+00	0	42	0	1438646272	15	4331
2026-01-11 22:29:32.66	122.23	11.33	-27.4	-29.1	14.4	0.00e+00	0	42	0	1441792000	15	4373
2026-01-11 22:29:33.67	122.38	11.28	-27.5	-29.2	14.3	0.00e+00	0	42	0	1444937728	15	4421
2026-01-11 22:29:34.68	122.54	11.22	-27.5	-29.3	14.3	1.50e-06	0	42	0	1448083456	15	4423
2026-01-11 22:29:35.68	122.69	11.17	-27.5	-29.2	14.3	0.00e+00	0	42	0	1451229184	15	4413
2026-01-11 22:29:36.69	122.84	11.11	-27.4	-29.1	14.4	7.60e-06	0	42	0	1454374912	15	4391
2026-01-11 22:29:37.70	122.99	11.06	-27.5	-29.3	14.2	7.00e-07	0	42	0	1458569216	15	4455
2026-01-11 22:29:38.71	123.14	11.00	-27.5	-29.4	14.2	0.00e+00	0	42	0	1461714944	15	4476
2026-01-11 22:29:39.71	123.29	10.95	-27.6	-29.5	14.2	2.20e-06	0	42	0	1463812096	15	4495
2026-01-11 22:29:40.72	123.44	10.89	-27.6	-29.6	14.1	3.80e-06	0	42	0	1466957824	15	4526
2026-01-11 22:29:41.72	123.59	10.84	-27.7	-29.8	14.0	3.80e-06	0	42	0	1470103552	15	4590
2026-01-11 22:29:42.73	123.74	10.78	-27.7	-29.8	14.0	1.14e-05	0	42	0	1473249280	15	4589
2026-01-11 22:29:43.74	123.89	10.73	-27.6	-29.5	14.1	8.31e-05	0	42	0	1476395008	15	4497
2026-01-11 22:29:44.75	124.04	10.67	-27.9	-30.2	13.7	3.80e-06	0	42	0	1479540736	15	4720
2026-01-11 22:29:45.76	124.18	10.62	-27.7	-29.9	13.9	1.06e-05	0	42	0	1483735040	15	4639
2026-01-11 22:29:46.77	124.33	10.56	-27.8	-30.0	13.8	3.00e-06	0	42	0	1485832192	15	4646
2026-01-11 22:29:47.77	124.47	10.51	-27.8	-30.1	13.8	4.50e-06	0	42	0	1488977920	15	4677
2026-01-11 22:29:48.78	124.62	10.45	-27.9	-30.2	13.7	1.60e-05	0	42	0	1492123648	15	4726
2026-01-11 22:29:49.78	124.76	10.40	-27.8	-30.1	13.8	5.30e-06	0	42	0	1495269376	15	4682
2026-01-11 22:29:50.79	124.91	10.35	-27.8	-30.2	13.7	3.00e-06	0	42	0	1498415104	15	4722
2026-01-11 22:29:51.79	125.05	10.29	-27.9	-30.4	13.6	1.22e-05	0	42	0	1501560832	15	4772
2026-01-11 22:29:52.80	125.19	10.23	-28.2	-30.5	13.4	8.30e-06	0	42	0	1505755136	16	4700
2026-01-11 22:29:53.80	125.34	10.18	-28.2	-30.5	13.4	1.67e-05	0	42	0	1508900864	16	4699
2026-01-11 22:29:54.81	125.48	10.12	-28.1	-30.4	13.4	1.37e-05	0	42	0	1510998016	16	4646
2026-01-11 22:29:55.82	125.62	10.07	-28.4	-31.0	13.0	3.12e-05	0	42	0	1514143744	16	4856
2026-01-11 22:29:56.82	125.76	10.01	-28.3	-30.8	13.2	3.20e-05	0	42	0	1517289472	16	4800
2026-01-11 22:29:57.82	125.90	9.96	-28.3	-30.9	13.1	3.28e-05	0	42	0	1520435200	16	4820
2026-01-11 22:29:58.83	126.04	9.90	-28.4	-31.1	12.9	5.41e-05	0	42	0	1523580928	16	4896
2026-01-11 22:29:59.84	126.18	9.85	-28.3	-30.9	13.1	3.28e-05	0	42	0	1526726656	16	4810
2026-01-11 22:30:00.84	126.32	9.79	-28.5	-30.8	12.9	4.95e-05	0	42	0	1529872384	17	4677
2026-01-11 22:30:01.85	126.46	9.74	-28.6	-31.0	12.7	7.78e-05	0	42	0	1533018112	17	4768
2026-01-11 22:30:02.86	126.60	9.68	-28.6	-31.0	12.7	8.54e-05	0	42	0	1536163840	17	4744
2026-01-11 22:30:03.86	126.73	9.63	-28.7	-31.4	12.5	1.10e-04	0	42	0	1539309568	17	4883
2026-01-11 22:30:04.87	126.87	9.57	-28.5	-30.7	12.8	8.39e-05	0	42	0	1542455296	17	4669
2026-01-11 22:30:05.88	127.01	9.52	-27.7	-29.8	12.9	3.05e-05	0	42	0	1545601024	17	4602
2026-01-11 22:30:06.89	127.14	9.46	-28.4	-31.0	12.7	4.19e-05	0	42	0	1548746752	16	4850
2026-01-11 22:30:07.89	127.28	9.41	-28.4	-31.1	13.0	3.50e-05	0	42	0	1551892480	16	4875
2026-01-11 22:30:08.90	127.41	9.35	-28.4	-30.9	12.9	3.12e-05	0	42	0	1555038208	16	4835
2026-01-11 22:30:09.90	127.55	9.29	-28.4	-30.9	13.0	2.97e-05	0	42	0	1558183936	16	4834
2026-01-11 22:30:10.91	127.68	9.24	-28.4	-31.0	12.9	4.34e-05	0	42	0	1561329664	16	4875
2026-01-11 22:30:11.92	127.82	9.18	-28.4	-31.0	12.9	4.65e-05	0	42	0	1564475392	16	4879
2026-01-11 22:30:12.93	127.95	9.13	-28.5	-31.2	12.8	1.42e-03	0	42	0	1567621120	16	4927
2026-01-11 22:30:13.94	128.08	9.07	-28.5	-30.8	12.7	7.47e-05	0	42	0	1570766848	17	4681
2026-01-11 22:30:14.94	128.21	9.02	-28.4	-31.0	12.9	4.88e-05	0	42	0	1573912576	16	4860
2026-01-11 22:30:15.95	128.35	8.96	-28.5	-31.2	12.8	5.56e-05	0	42	0	1577058304	16	4944
2026-01-11 22:30:16.95	128.48	8.91	-28.5	-30.8	12.7	7.55e-05	0	42	0	1580204032	17	4680
2026-01-11 22:30:17.96	128.61	8.85	-28.7	-31.3	12.4	7.12e-04	0	42	0	1583349760	17	4845
2026-01-11 22:30:18.96	128.74	8.79	-28.5	-30.9	12.7	3.71e-04	0	42	0	1586495488	17	4723
2026-01-11 22:30:19.97	128.87	8.74	-28.5	-30.8	12.7	6.71e-05	0	42	0	1589641216	17	4701
2026-01-11 22:30:20.97	129.00	8.68	-28.5	-30.9	12.7	7.24e-05	0	42	0	1592786944	17	4716
2026-01-11 22:30:21.97	129.12	8.63	-28.5	-30.9	12.7	6.33e-05	0	42	0	1595932672	17	4712
2026-01-11 22:30:22.98	129.25	8.57	-28.6	-31.2	12.5	9.46e-05	0	42	0	1599078400	17	4818
2026-01-11 22:30:23.99	129.38	8.52	-28.6	-31.0	12.6	9.23e-05	0	42	0	1602224128	17	4770
2026-01-11 22:30:24.99	129.51	8.46	-28.6	-31.0	12.5	1.20e-04	0	42	0	1605369856	17	4767
2026-01-11 22:30:26.00	129.63	8.41	-28.6	-31.2	12.5	1.33e-04	0	42	0	1608515584	17	4819
2026-01-11 22:30:27.01	129.76	8.35	-28.5	-30.8	12.7	9.53e-05	0	42	0	1611661312	17	4688
2026-01-11 22:30:28.02	129.89	8.29	-28.5	-30.8	12.7	7.85e-05	0	42	0	1614807040	17	4702
2026-01-11 22:30:29.03	130.01	8.24	-28.5	-30.7	12.7	7.93e-05	0	42	0	1617952768	17	4673
2026-01-11 22:30:30.03	130.14	8.18	-28.6	-31.2	12.4	1.86e-04	0	42	0	1621098496	17	4835
2026-01-11 22:30:31.03	130.26	8.13	-28.7	-31.4	12.3	4.92e-04	0	42	0	1624244224	17	4890
2026-01-11 22:30:32.04	130.39	8.07	-28.7	-31.3	12.3	1.85e-04	0	42	0	1627389952	17	4866
2026-01-11 22:30:33.04	130.51	8.02	-28.8	-31.6	12.1	5.75e-04	0	42	0	1630535680	17	4974
2026-01-11 22:30:34.04	130.63	7.96	-28.8	-31.7	12.0	5.05e-04	0	42	0	1633681408	17	5014
2026-01-11 22:30:35.04	130.75	7.91	-28.8	-31.5	12.1	2.44e-04	0	42	0	1636827136	17	4949
2026-01-11 22:30:36.05	130.88	7.85	-29.0	-32.1	11.7	5.62e-04	0	42	0	1639972864	17	5147
2026-01-11 22:30:37.06	131.00	7.80	-28.8	-31.7	12.0	3.99e-04	0	42	0	1643118592	17	5010
2026-01-11 22:30:38.06	131.12	7.74	-28.7	-31.4	12.2	2.40e-04	0	42	0	1646264320	17	4896
2026-01-11 22:30:39.07	131.24	7.68	-28.7	-31.4	12.1	2.43e-04	0	42	0	1649410048	17	4927
2026-01-11 22:30:40.07	131.36	7.63	-28.8	-31.6	12.0	2.59e-04	0	42	0	1652555776	17	4982
2026-01-11 22:30:41.08	131.48	7.57	-28.7	-31.4	12.2	2.14e-04	0	42	0	1655701504	17	4900
2026-01-11 22:30:42.09	131.60	7.52	-28.8	-31.6	12.0	3.37e-04	0	42	0	1658847232	17	4984
2026-01-11 22:30:43.09	131.72	7.46	-28.7	-31.5	12.0	2.85e-04	0	42	0	1661992960	17	4956
2026-01-11 22:30:44.10	131.84	7.41	-28.7	-31.5	12.0	3.23e-04	0	42	0	1665138688	17	4961
2026-01-11 22:30:45.10	131.95	7.35	-28.7	-31.4	12.1	3.06e-04	0	42	0	1668284416	17	4930
2026-01-11 22:30:46.10	132.07	7.30	-28.6	-31.2	12.2	3.91e-04	0	42	0	1671430144	17	4850
2026-01-11 22:30:47.11	132.19	7.24	-28.6	-31.3	12.2	2.23e-04	0	42	0	1674575872	17	4889
2026-01-11 22:30:48.12	132.31	7.19	-28.7	-31.4	12.1	2.18e-04	0	42	0	1677721600	17	4910
2026-01-11 22:30:49.12	132.42	7.13	-28.8	-31.6	11.9	2.74e-04	0	42	0	1680867328	17	4989
2026-01-11 22:30:50.12	132.54	7.08	-29.1	-32.1	11.4	5.89e-04	0	42	0	1684013056	18	5049
2026-01-11 22:30:51.12	132.65	7.02	-32.9	-45.1	3.8	1.49e+00	0	42	104	1685061632	25	14726
2026-01-11 22:30:52.13	132.77	6.97	-33.3	-45.4	3.8	1.49e+00	0	42	104	1685061632	26	14505

#Closed at: 2026-01-11 22:30:53
#Recorded file [1685 MB]: D:/data/31010_260112_012150.dat