passes_logs/2026/01/11/R2M6_AANII_01/R2M6_AANII_01__20260111_030634_AQUA_rec.log

#Pass ID: 20260111_030634_AQUA
#Satellite: AQUA
#Configuration: AQUA
#almurnet v.1.7.20240730
#Start time: 2026-01-11 03:06:34

#Version: 2.2.20231116
#Station: R2M6_AANII_01
#Location: 30.233357 lon 59.946436 lat
#TLE: 1 27424U 02022A   26009.89520876  .00001045  00000+0  21914-3 0  9996
#TLE: 2 27424  98.4076 336.2372 0002032  84.5955   1.0356 14.61811442260144

#Time	Az	El	Level	Level2	SNR	BER	BlckErr	Temp	State	Recorded	gain1	gain2
2026-01-11 03:06:34.62	10.08	6.98	-32.2	-48.3	3.8	7.48e-01	0	39	0	0	25	23091
2026-01-11 03:06:35.63	10.01	7.06	-32.3	-48.7	3.8	7.46e-01	0	39	104	0	25	23794
2026-01-11 03:06:36.63	9.94	7.13	-32.3	-48.6	3.8	7.44e-01	0	39	104	0	25	23678
2026-01-11 03:06:37.64	9.87	7.21	-32.3	-48.7	3.8	7.47e-01	0	40	104	0	25	23638
2026-01-11 03:06:38.64	9.80	7.29	-32.2	-48.0	3.8	7.44e-01	0	40	104	0	25	22221
2026-01-11 03:06:39.65	9.73	7.36	-32.2	-47.9	3.8	7.45e-01	0	39	104	0	25	21974
2026-01-11 03:06:40.66	9.66	7.44	-32.1	-47.5	3.8	7.46e-01	0	40	104	0	25	21308
2026-01-11 03:06:41.67	9.59	7.52	-31.9	-46.8	3.8	7.44e-01	0	40	104	0	25	19927
2026-01-11 03:06:42.67	9.52	7.60	-31.8	-46.6	3.8	7.47e-01	0	40	104	0	24	19854
2026-01-11 03:06:43.67	9.45	7.67	-31.4	-45.4	3.8	7.42e-01	0	40	104	0	24	18046
2026-01-11 03:06:44.69	9.37	7.75	-31.2	-45.2	3.8	7.45e-01	0	40	104	0	23	18022
2026-01-11 03:06:45.69	9.30	7.83	-30.0	-43.6	3.8	7.46e-01	0	40	104	0	23	17090
2026-01-11 03:06:46.70	9.22	7.91	-30.7	-44.3	3.8	7.43e-01	0	40	104	0	21	17268
2026-01-11 03:06:47.71	9.15	7.99	-30.7	-44.1	3.8	7.45e-01	0	40	104	0	22	16884
2026-01-11 03:06:48.71	9.08	8.06	-30.7	-44.0	3.8	7.44e-01	0	40	104	0	22	16802
2026-01-11 03:06:49.71	9.00	8.14	-29.5	-42.6	3.8	7.47e-01	0	40	104	0	22	16305
2026-01-11 03:06:50.72	8.92	8.22	-28.8	-42.1	3.8	7.47e-01	0	40	104	0	21	16525
2026-01-11 03:06:51.73	8.85	8.30	-30.6	-43.9	3.8	7.42e-01	0	40	104	0	22	16527
2026-01-11 03:06:52.73	8.77	8.38	-30.7	-44.2	3.8	7.44e-01	0	40	104	0	22	16939
2026-01-11 03:06:53.74	8.70	8.46	-30.8	-44.5	3.8	7.44e-01	0	40	104	0	22	17329
2026-01-11 03:06:54.75	8.62	8.54	-31.1	-45.2	3.8	7.42e-01	0	40	104	0	22	18336
2026-01-11 03:06:55.76	8.54	8.62	-31.3	-45.4	3.8	7.47e-01	0	40	104	0	23	18249
2026-01-11 03:06:56.76	8.46	8.70	-31.5	-46.3	3.8	7.45e-01	0	40	104	0	23	19675
2026-01-11 03:06:57.77	8.38	8.78	-31.8	-46.7	3.8	7.44e-01	0	40	104	0	24	19998
2026-01-11 03:06:58.78	8.30	8.87	-32.1	-47.7	3.8	7.44e-01	0	40	104	0	24	21782
2026-01-11 03:06:59.78	8.22	8.95	-32.2	-47.9	3.8	7.46e-01	0	40	104	0	25	21933
2026-01-11 03:07:00.79	8.14	9.03	-32.3	-48.4	3.8	7.46e-01	0	40	104	0	25	22734
2026-01-11 03:07:01.80	8.06	9.11	-32.5	-49.0	3.8	7.43e-01	0	40	104	0	25	24013
2026-01-11 03:07:02.80	7.98	9.19	-32.6	-49.4	3.8	7.44e-01	0	40	104	0	25	24966
2026-01-11 03:07:03.81	7.90	9.27	-32.7	-49.4	3.8	7.45e-01	0	40	104	0	26	24741
2026-01-11 03:07:04.82	7.81	9.36	-32.8	-49.9	3.8	7.44e-01	0	40	104	0	26	25796
2026-01-11 03:07:05.82	7.73	9.44	-32.9	-50.5	3.8	7.46e-01	0	40	104	0	26	27336
2026-01-11 03:07:06.83	7.65	9.52	-33.0	-50.9	3.8	7.43e-01	0	40	104	0	26	28534
2026-01-11 03:07:07.83	7.56	9.61	-33.0	-51.2	3.8	7.44e-01	0	40	104	0	26	29352
2026-01-11 03:07:08.82	7.48	9.69	-33.1	-51.5	3.8	7.48e-01	0	40	104	0	26	30239
2026-01-11 03:07:09.83	7.39	9.77	-33.1	-51.2	3.8	7.46e-01	0	40	104	0	27	29030
2026-01-11 03:07:10.84	7.31	9.86	-33.1	-51.5	3.8	7.46e-01	0	40	104	0	27	29832
2026-01-11 03:07:11.84	7.22	9.94	-33.2	-51.8	3.8	7.43e-01	0	40	104	0	27	30556
2026-01-11 03:07:12.84	7.14	10.02	-33.2	-51.5	3.8	7.40e-01	0	40	104	0	27	29885
2026-01-11 03:07:13.85	7.05	10.11	-33.1	-51.2	3.8	7.50e-01	0	41	104	0	27	28872
2026-01-11 03:07:14.86	6.96	10.20	-33.1	-51.4	3.8	7.47e-01	0	40	104	0	26	29542
2026-01-11 03:07:15.86	6.87	10.28	-33.0	-50.9	3.8	7.44e-01	0	40	104	0	26	28304
2026-01-11 03:07:16.87	6.78	10.37	-32.9	-50.6	3.8	7.42e-01	0	40	104	0	26	27317
2026-01-11 03:07:17.88	6.69	10.45	-32.9	-50.3	3.8	7.46e-01	0	41	104	0	26	26541
2026-01-11 03:07:18.89	6.60	10.54	-32.9	-50.0	3.8	7.46e-01	0	41	104	0	26	25804
2026-01-11 03:07:19.90	6.51	10.63	-32.8	-49.7	3.8	7.45e-01	0	41	104	0	26	25055
2026-01-11 03:07:20.90	6.42	10.71	-32.8	-49.5	3.8	7.45e-01	0	41	104	0	26	24647
2026-01-11 03:07:21.91	6.32	10.80	-32.7	-49.1	3.8	7.44e-01	0	41	104	0	26	23794
2026-01-11 03:07:22.92	6.23	10.89	-32.6	-48.6	3.8	7.44e-01	0	41	104	0	26	22688
2026-01-11 03:07:23.93	6.14	10.97	-32.4	-48.5	3.8	7.47e-01	0	41	104	0	25	22817
2026-01-11 03:07:24.93	6.04	11.06	-32.2	-47.5	3.8	7.44e-01	0	41	104	0	25	20955
2026-01-11 03:07:25.94	5.95	11.15	-32.2	-47.4	3.8	7.46e-01	0	41	104	0	25	20658
2026-01-11 03:07:26.95	5.85	11.24	-32.2	-47.1	3.8	7.48e-01	0	41	104	0	25	20207
2026-01-11 03:07:27.96	5.76	11.33	-32.2	-47.2	3.8	7.48e-01	0	41	104	0	25	20305
2026-01-11 03:07:28.96	5.66	11.42	-32.4	-48.1	3.8	7.46e-01	0	41	104	0	25	21873
2026-01-11 03:07:29.97	5.56	11.51	-32.4	-48.0	3.8	7.43e-01	0	41	104	0	25	21749
2026-01-11 03:07:30.98	5.46	11.60	-32.5	-48.4	3.8	7.45e-01	0	41	104	0	25	22432
2026-01-11 03:07:31.99	5.36	11.69	-32.2	-47.3	3.8	7.44e-01	0	41	104	0	25	20429
2026-01-11 03:07:32.99	5.27	11.78	-31.9	-46.3	3.8	7.43e-01	0	41	104	0	25	18800
2026-01-11 03:07:34.00	5.16	11.87	-31.7	-45.9	3.8	7.44e-01	0	41	104	0	24	18430
2026-01-11 03:07:35.01	5.06	11.96	-31.3	-45.0	3.8	7.39e-01	0	41	104	0	23	17588
2026-01-11 03:07:36.01	4.96	12.05	-31.0	-44.1	3.8	7.47e-01	0	41	104	0	23	16350
2026-01-11 03:07:37.02	4.86	12.14	-30.7	-43.7	3.8	7.46e-01	0	41	104	0	22	16254
2026-01-11 03:07:38.02	4.76	12.23	-30.4	-43.7	3.8	7.43e-01	0	41	104	0	21	16467
2026-01-11 03:07:39.03	4.65	12.32	-30.2	-43.1	3.8	7.43e-01	0	41	104	0	21	15762
2026-01-11 03:07:40.04	4.55	12.41	-30.3	-43.2	3.8	7.48e-01	0	41	104	0	21	15973
2026-01-11 03:07:41.05	4.44	12.51	-30.3	-43.2	3.8	7.46e-01	0	41	104	0	21	15957
2026-01-11 03:07:42.05	4.34	12.60	-30.4	-43.6	3.8	7.43e-01	0	41	104	0	21	16373
2026-01-11 03:07:43.06	4.23	12.69	-30.5	-43.9	3.8	7.43e-01	0	41	104	0	21	16836
2026-01-11 03:07:44.07	4.12	12.79	-30.7	-44.0	3.8	7.44e-01	0	41	104	0	22	16507
2026-01-11 03:07:45.08	4.01	12.88	-31.1	-44.9	3.8	7.45e-01	0	41	104	0	22	17744
2026-01-11 03:07:46.09	3.91	12.97	-31.3	-45.3	3.8	7.42e-01	0	41	104	0	23	17911
2026-01-11 03:07:47.09	3.80	13.07	-31.7	-45.8	3.8	7.48e-01	0	41	104	0	24	18326
2026-01-11 03:07:48.10	3.69	13.16	-32.0	-46.9	3.8	7.45e-01	0	41	104	0	24	20015
2026-01-11 03:07:49.11	3.57	13.26	-32.2	-47.4	3.8	7.46e-01	0	41	104	0	25	20533
2026-01-11 03:07:50.12	3.46	13.35	-32.5	-48.2	3.8	7.45e-01	0	41	104	0	25	22081
2026-01-11 03:07:51.13	3.35	13.45	-32.6	-48.7	3.8	7.46e-01	0	41	104	0	25	23077
2026-01-11 03:07:52.14	3.23	13.55	-32.7	-48.8	3.8	7.47e-01	0	41	104	0	26	22893
2026-01-11 03:07:53.15	3.12	13.64	-32.8	-49.2	3.8	7.46e-01	0	41	104	0	26	23874
2026-01-11 03:07:54.16	3.00	13.74	-32.9	-49.8	3.8	7.45e-01	0	41	104	0	26	25009
2026-01-11 03:07:55.16	2.89	13.83	-32.8	-49.3	3.8	7.46e-01	0	41	104	0	26	23925
2026-01-11 03:07:56.17	2.77	13.93	-32.7	-48.7	3.8	7.43e-01	0	41	104	0	26	22636
2026-01-11 03:07:57.17	2.65	14.03	-32.9	-49.5	3.8	7.46e-01	0	41	104	0	26	24296
2026-01-11 03:07:58.17	2.54	14.13	-33.0	-49.9	3.8	7.49e-01	0	41	104	0	26	25317
2026-01-11 03:07:59.18	2.42	14.22	-33.1	-50.3	3.8	7.43e-01	0	41	104	0	26	26282
2026-01-11 03:08:00.18	2.30	14.32	-33.1	-50.2	3.8	7.41e-01	0	41	104	0	27	25610
2026-01-11 03:08:01.18	2.17	14.42	-33.2	-50.6	3.8	7.43e-01	0	41	104	0	27	26802
2026-01-11 03:08:02.19	2.05	14.52	-33.3	-51.0	3.8	7.47e-01	0	41	104	0	27	27758
2026-01-11 03:08:03.19	1.93	14.62	-33.2	-50.6	3.8	7.50e-01	0	41	104	0	27	26541
2026-01-11 03:08:04.20	1.81	14.72	-33.1	-50.2	3.8	7.44e-01	0	41	104	0	27	25643
2026-01-11 03:08:05.20	1.68	14.82	-33.1	-49.7	3.8	7.43e-01	0	41	104	0	27	24504
2026-01-11 03:08:06.21	1.55	14.92	-33.0	-49.9	3.8	7.46e-01	0	41	104	0	26	25083
2026-01-11 03:08:07.21	1.43	15.02	-33.0	-49.6	3.8	7.48e-01	0	41	104	0	26	24586
2026-01-11 03:08:08.22	1.30	15.12	-32.9	-49.4	3.8	7.43e-01	0	41	104	0	26	23939
2026-01-11 03:08:09.22	1.17	15.22	-31.9	-48.4	3.8	7.43e-01	0	41	104	0	26	23859
2026-01-11 03:08:10.23	1.04	15.32	-32.9	-49.2	3.8	7.48e-01	0	41	104	0	25	23731
2026-01-11 03:08:11.24	0.91	15.42	-32.8	-49.0	3.8	7.46e-01	0	41	104	0	26	23242
2026-01-11 03:08:12.25	0.78	15.53	-32.7	-48.6	3.8	7.44e-01	0	41	104	0	26	22389
2026-01-11 03:08:13.25	0.65	15.63	-32.6	-48.2	3.8	7.47e-01	0	41	104	0	25	21848
2026-01-11 03:08:14.26	0.51	15.73	-32.3	-47.4	3.8	7.45e-01	0	41	104	0	25	20425
2026-01-11 03:08:15.27	0.38	15.83	-32.1	-46.7	3.8	7.43e-01	0	41	104	0	25	19229
2026-01-11 03:08:16.28	0.24	15.94	-32.1	-46.6	3.8	7.45e-01	0	41	104	0	25	19125
2026-01-11 03:08:17.28	0.11	16.04	-32.3	-47.4	3.8	7.45e-01	0	41	104	0	25	20327
2026-01-11 03:08:18.29	359.97	16.14	-32.4	-47.5	3.8	7.43e-01	0	41	104	0	25	20476
2026-01-11 03:08:19.29	359.83	16.25	-32.2	-46.9	3.8	7.43e-01	0	41	104	0	25	19480
2026-01-11 03:08:20.30	359.69	16.35	-32.1	-46.5	3.8	7.43e-01	0	41	104	0	25	18964
2026-01-11 03:08:21.31	359.55	16.46	-32.0	-46.7	3.8	7.45e-01	0	41	104	0	24	19535
2026-01-11 03:08:22.32	359.41	16.57	-31.7	-45.6	3.8	7.42e-01	0	41	104	0	24	17935
2026-01-11 03:08:23.32	359.26	16.67	-31.3	-44.9	3.8	7.45e-01	0	42	104	0	23	17170
2026-01-11 03:08:24.33	359.12	16.78	-30.9	-44.1	3.8	7.43e-01	0	41	104	0	22	16551
2026-01-11 03:08:25.34	358.97	16.88	-30.5	-43.6	3.8	7.42e-01	0	41	104	0	21	16330
2026-01-11 03:08:26.34	358.83	16.99	-30.2	-42.8	3.8	7.46e-01	0	41	104	0	21	15420
2026-01-11 03:08:27.35	358.68	17.10	-30.0	-42.9	3.8	7.42e-01	0	41	104	0	20	15865
2026-01-11 03:08:28.36	358.53	17.20	-30.0	-42.8	3.8	7.44e-01	0	41	104	0	20	15735
2026-01-11 03:08:29.37	358.38	17.31	-30.0	-42.9	3.8	7.42e-01	0	41	104	0	20	15858
2026-01-11 03:08:30.38	358.23	17.42	-30.2	-42.9	3.8	7.46e-01	0	41	104	0	21	15513
2026-01-11 03:08:31.39	358.08	17.53	-30.4	-43.3	3.8	7.46e-01	0	41	104	0	21	15963
2026-01-11 03:08:32.40	357.92	17.64	-30.7	-43.6	3.8	7.43e-01	0	41	104	0	22	15942
2026-01-11 03:08:33.39	357.77	17.75	-30.9	-44.3	3.8	7.45e-01	0	41	104	0	22	16835
2026-01-11 03:08:34.40	357.61	17.86	-31.3	-44.8	3.8	7.46e-01	0	41	104	0	23	17022
2026-01-11 03:08:35.41	357.46	17.97	-31.6	-45.8	3.8	7.45e-01	0	41	104	0	23	18439
2026-01-11 03:08:36.42	357.30	18.08	-31.8	-46.1	3.8	7.47e-01	0	41	104	0	24	18575
2026-01-11 03:08:37.42	357.14	18.19	-32.2	-46.6	3.8	7.46e-01	0	42	104	0	25	19027
2026-01-11 03:08:38.42	356.98	18.30	-32.4	-47.7	3.8	7.42e-01	0	41	104	0	25	20847
2026-01-11 03:08:39.42	356.82	18.41	-32.7	-48.2	3.8	7.46e-01	0	41	104	0	26	21452
2026-01-11 03:08:40.43	356.66	18.52	-32.9	-49.1	3.8	7.44e-01	0	42	104	0	26	23138
2026-01-11 03:08:41.44	356.49	18.63	-33.1	-49.8	3.8	7.44e-01	0	41	104	0	26	24735
2026-01-11 03:08:42.45	356.32	18.74	-33.1	-49.3	3.8	7.47e-01	0	41	104	0	27	23379
2026-01-11 03:08:43.46	356.16	18.85	-33.0	-49.2	3.8	7.45e-01	0	42	104	0	26	23319
2026-01-11 03:08:44.46	355.99	18.97	-32.8	-48.4	3.8	7.45e-01	0	41	104	0	26	21842
2026-01-11 03:08:45.47	355.82	19.08	-32.6	-47.8	3.8	7.44e-01	0	41	104	0	26	20644
2026-01-11 03:08:46.48	355.65	19.19	-32.7	-48.0	3.8	7.45e-01	0	42	104	0	26	20945
2026-01-11 03:08:47.48	355.47	19.31	-32.9	-48.8	3.8	7.41e-01	0	42	104	0	26	22550
2026-01-11 03:08:48.49	355.30	19.42	-33.0	-49.5	3.8	7.46e-01	0	42	104	0	26	23944
2026-01-11 03:08:49.49	355.13	19.53	-33.2	-49.6	3.8	7.42e-01	0	42	104	0	27	23727
2026-01-11 03:08:50.50	354.95	19.65	-33.3	-49.9	3.8	7.47e-01	0	42	104	0	27	24492
2026-01-11 03:08:51.51	354.77	19.76	-33.3	-50.3	3.8	7.44e-01	0	41	104	0	27	25409
2026-01-11 03:08:52.51	354.59	19.88	-33.3	-50.4	3.8	7.46e-01	0	42	104	0	27	25708
2026-01-11 03:08:53.52	354.41	19.99	-33.3	-50.0	3.8	7.44e-01	0	41	104	0	27	24586
2026-01-11 03:08:54.52	354.23	20.11	-33.2	-49.7	3.8	7.45e-01	0	41	104	0	27	23925
2026-01-11 03:08:55.53	354.04	20.22	-33.2	-49.4	3.8	7.44e-01	0	42	104	0	27	23327
2026-01-11 03:08:56.54	353.86	20.34	-33.1	-49.3	3.8	7.45e-01	0	42	104	0	27	23090
2026-01-11 03:08:57.54	353.67	20.46	-33.1	-49.3	3.8	7.45e-01	0	42	104	0	27	23053
2026-01-11 03:08:58.55	353.48	20.57	-33.2	-49.3	3.8	7.43e-01	0	42	104	0	27	23082
2026-01-11 03:08:59.56	353.29	20.69	-33.2	-49.3	3.8	7.43e-01	0	42	104	0	27	23098
2026-01-11 03:09:00.56	353.10	20.81	-33.2	-49.3	3.8	7.44e-01	0	42	104	0	27	23085
2026-01-11 03:09:01.57	352.91	20.93	-33.1	-49.1	3.8	7.44e-01	0	41	104	0	27	22636
2026-01-11 03:09:02.58	352.71	21.04	-32.9	-41.4	4.9	7.08e-01	0	41	104	0	26	9510
2026-01-11 03:09:03.59	352.51	21.16	-32.8	-39.7	12.4	6.06e-01	0	42	104	0	26	7987
2026-01-11 03:09:04.59	352.32	21.28	-32.5	-38.6	13.3	6.06e-01	0	42	0	1048576	26	7212
2026-01-11 03:09:05.60	352.11	21.40	-32.2	-37.8	14.2	6.04e-01	0	42	0	3145728	25	6866
2026-01-11 03:09:06.60	351.91	21.52	-31.9	-36.6	15.2	6.04e-01	0	42	0	4718592	25	6183
2026-01-11 03:09:07.61	351.71	21.64	-31.6	-35.9	16.1	6.04e-01	0	42	0	6815744	24	5940
2026-01-11 03:09:08.62	351.51	21.76	-31.2	-35.3	16.9	6.03e-01	0	42	0	8388608	23	5753
2026-01-11 03:09:09.62	351.30	21.88	-30.9	-34.3	17.5	6.03e-01	0	42	0	10485760	23	5328
2026-01-11 03:09:10.63	351.09	22.00	-30.5	-33.7	18.2	6.02e-01	0	42	0	12582912	22	5217
2026-01-11 03:09:11.64	350.88	22.12	-30.3	-33.6	18.6	6.05e-01	0	42	0	14155776	21	5287
2026-01-11 03:09:12.64	350.67	22.24	-30.3	-33.7	18.6	6.03e-01	0	42	0	16252928	21	5302
2026-01-11 03:09:13.65	350.46	22.36	-30.2	-33.5	18.7	6.01e-01	0	42	0	18350080	21	5229
2026-01-11 03:09:14.66	350.24	22.48	-30.0	-32.9	19.0	6.01e-01	0	42	0	19922944	21	5012
2026-01-11 03:09:15.66	350.02	22.60	-29.9	-33.2	19.1	6.04e-01	0	42	0	22020096	20	5240
2026-01-11 03:09:16.67	349.81	22.72	-29.9	-33.2	19.1	6.01e-01	0	42	0	23592960	20	5233
2026-01-11 03:09:17.67	349.59	22.84	-29.9	-33.1	19.2	6.05e-01	0	42	0	25690112	20	5204
2026-01-11 03:09:18.68	349.36	22.96	-30.0	-33.3	19.1	6.02e-01	0	42	0	27787264	20	5273
2026-01-11 03:09:19.68	349.14	23.08	-29.9	-33.0	19.3	6.04e-01	0	42	0	29360128	20	5174
2026-01-11 03:09:20.69	348.91	23.20	-29.7	-32.6	19.6	6.03e-01	0	42	0	31457280	20	5028
2026-01-11 03:09:21.69	348.69	23.32	-29.7	-32.6	19.6	6.02e-01	0	42	0	33030144	20	5031
2026-01-11 03:09:22.70	348.46	23.45	-29.7	-32.6	19.6	6.03e-01	0	42	0	35127296	20	5014
2026-01-11 03:09:23.71	348.22	23.57	-29.8	-32.9	19.4	6.04e-01	0	41	0	36700160	20	5129
2026-01-11 03:09:24.71	347.99	23.69	-29.8	-32.7	19.5	6.04e-01	0	42	0	38797312	20	5067
2026-01-11 03:09:25.72	347.76	23.81	-29.7	-32.6	19.5	6.04e-01	0	42	0	40894464	20	5039
2026-01-11 03:09:26.73	347.52	23.94	-29.8	-32.8	19.4	6.03e-01	0	42	0	42467328	20	5104
2026-01-11 03:09:27.73	347.28	24.06	-29.7	-32.6	19.5	6.03e-01	0	42	0	44564480	20	5035
2026-01-11 03:09:28.74	347.04	24.18	-29.6	-32.3	19.7	6.04e-01	0	42	0	46661632	20	4924
2026-01-11 03:09:29.74	346.79	24.30	-29.6	-32.3	19.7	6.03e-01	0	42	0	48234496	20	4917
2026-01-11 03:09:30.74	346.55	24.43	-29.6	-32.4	19.7	6.05e-01	0	41	0	50331648	20	4935
2026-01-11 03:09:31.74	346.30	24.55	-29.6	-32.3	19.3	6.04e-01	0	42	0	51904512	20	4924
2026-01-11 03:09:32.75	346.05	24.67	-29.8	-32.8	19.5	6.04e-01	0	42	0	54001664	20	5095
2026-01-11 03:09:33.75	345.80	24.79	-29.7	-32.7	18.4	6.10e-01	0	41	0	55574528	20	5052
2026-01-11 03:09:34.76	345.55	24.92	-29.9	-33.0	17.4	6.06e-01	0	42	0	57671680	20	5156
2026-01-11 03:09:35.76	345.29	25.04	-29.8	-32.8	19.5	6.03e-01	0	42	0	59768832	20	5090
2026-01-11 03:09:36.77	345.04	25.16	-29.7	-32.6	17.8	6.04e-01	0	42	0	61341696	20	5023
2026-01-11 03:09:37.77	344.78	25.29	-29.7	-32.5	18.3	6.02e-01	0	42	0	63438848	20	4991
2026-01-11 03:09:38.78	344.51	25.41	-29.6	-32.4	19.7	6.03e-01	0	42	0	65011712	20	4945
2026-01-11 03:09:39.78	344.25	25.53	-29.7	-32.7	19.6	6.04e-01	0	42	0	67108864	20	5039
2026-01-11 03:09:40.79	343.98	25.65	-29.6	-32.4	19.7	6.04e-01	0	42	0	69206016	20	4933
2026-01-11 03:09:41.79	343.72	25.78	-29.5	-32.6	20.0	6.05e-01	0	42	0	70778880	19	5113
2026-01-11 03:09:42.80	343.44	25.90	-29.5	-32.4	20.1	6.02e-01	0	42	0	72876032	19	5060
2026-01-11 03:09:43.81	343.17	26.02	-29.5	-32.5	20.0	6.03e-01	0	42	0	74448896	19	5098
2026-01-11 03:09:44.81	342.90	26.15	-29.4	-32.4	20.1	6.06e-01	0	42	0	76546048	19	5035
2026-01-11 03:09:45.82	342.62	26.27	-29.5	-32.4	20.1	6.04e-01	0	42	0	78643200	19	5065
2026-01-11 03:09:46.82	342.34	26.39	-29.5	-32.4	20.1	6.04e-01	0	42	0	80216064	19	5058
2026-01-11 03:09:47.83	342.06	26.51	-29.5	-32.6	20.0	6.04e-01	0	42	0	82313216	19	5108
2026-01-11 03:09:48.84	341.77	26.64	-29.5	-32.6	20.0	6.02e-01	0	42	0	83886080	19	5116
2026-01-11 03:09:49.85	341.48	26.76	-29.5	-32.1	19.9	6.03e-01	0	42	0	85983232	20	4836
2026-01-11 03:09:50.86	341.19	26.88	-29.6	-32.3	19.8	6.03e-01	0	41	0	88080384	20	4920
2026-01-11 03:09:51.87	340.90	27.00	-29.5	-32.4	20.2	6.03e-01	0	42	0	89653248	19	5037
2026-01-11 03:09:52.87	340.61	27.12	-29.5	-32.4	20.2	6.02e-01	0	42	0	91750400	19	5044
2026-01-11 03:09:53.88	340.31	27.25	-29.4	-32.3	20.2	6.03e-01	0	42	0	93323264	19	5026
2026-01-11 03:09:54.87	340.02	27.36	-29.4	-32.4	20.2	6.03e-01	0	42	0	95420416	19	5033
2026-01-11 03:09:55.89	339.71	27.49	-29.4	-32.2	20.3	6.02e-01	0	42	0	97517568	19	4974
2026-01-11 03:09:56.89	339.41	27.61	-29.5	-32.4	20.2	6.05e-01	0	42	0	99090432	19	5049
2026-01-11 03:09:57.90	339.10	27.73	-29.3	-32.1	20.3	6.02e-01	0	42	0	101187584	19	4940
2026-01-11 03:09:58.90	338.80	27.85	-29.2	-31.7	20.5	6.03e-01	0	42	0	102760448	19	4821
2026-01-11 03:09:59.91	338.49	27.97	-29.4	-32.2	20.3	6.02e-01	0	42	0	104857600	19	4968
2026-01-11 03:10:00.91	338.17	28.08	-29.4	-32.1	20.3	6.04e-01	0	42	0	106954752	19	4948
2026-01-11 03:10:01.92	337.86	28.20	-29.4	-32.2	20.3	6.05e-01	0	42	0	108527616	19	4983
2026-01-11 03:10:02.92	337.54	28.32	-29.6	-32.4	19.9	6.01e-01	0	42	0	110624768	20	4927
2026-01-11 03:10:03.92	337.22	28.44	-29.5	-32.6	20.1	6.04e-01	0	42	0	112197632	19	5110
2026-01-11 03:10:04.93	336.90	28.56	-29.5	-32.6	20.1	6.04e-01	0	42	0	114294784	19	5099
2026-01-11 03:10:05.94	336.57	28.67	-29.7	-32.5	19.8	6.05e-01	0	41	0	116391936	20	4984
2026-01-11 03:10:06.95	336.24	28.79	-30.1	-33.5	19.2	6.03e-01	0	42	0	117964800	20	5319
2026-01-11 03:10:07.96	335.91	28.91	-30.1	-33.1	19.1	6.03e-01	0	42	0	120061952	21	5071
2026-01-11 03:10:08.97	335.58	29.02	-30.2	-33.3	19.0	6.04e-01	0	42	0	121634816	21	5160
2026-01-11 03:10:09.97	335.25	29.14	-30.1	-33.1	19.1	6.04e-01	0	42	0	123731968	21	5079
2026-01-11 03:10:10.97	334.91	29.25	-30.1	-33.0	19.1	6.04e-01	0	42	0	125304832	21	5037
2026-01-11 03:10:11.98	334.57	29.37	-30.1	-33.2	19.1	6.03e-01	0	42	0	127401984	21	5091
2026-01-11 03:10:12.99	334.22	29.48	-30.2	-33.4	18.9	6.02e-01	0	42	0	129499136	21	5185
2026-01-11 03:10:14.00	333.88	29.59	-30.1	-33.0	19.2	6.02e-01	0	42	0	131072000	21	5038
2026-01-11 03:10:15.00	333.53	29.70	-30.5	-34.2	18.5	6.04e-01	0	42	0	133169152	21	5477
2026-01-11 03:10:16.01	333.18	29.81	-30.0	-32.8	19.3	6.02e-01	0	42	0	135266304	21	4962
2026-01-11 03:10:17.01	332.83	29.92	-29.5	-32.1	20.0	6.05e-01	0	42	0	136839168	20	4819
2026-01-11 03:10:18.02	332.47	30.03	-29.3	-32.0	20.4	6.04e-01	0	41	0	138936320	19	4916
2026-01-11 03:10:19.02	332.12	30.14	-29.6	-32.4	19.9	6.02e-01	0	42	0	140509184	20	4923
2026-01-11 03:10:20.02	331.76	30.25	-30.1	-33.4	19.2	6.01e-01	0	42	0	142606336	20	5311
2026-01-11 03:10:21.02	331.40	30.36	-30.1	-33.1	19.1	6.01e-01	0	42	0	144179200	21	5069
2026-01-11 03:10:22.03	331.03	30.46	-30.0	-32.9	19.2	6.03e-01	0	42	0	146276352	21	4992
2026-01-11 03:10:23.04	330.66	30.57	-30.0	-33.2	19.3	6.05e-01	0	42	0	148373504	20	5224
2026-01-11 03:10:24.04	330.29	30.67	-30.0	-33.2	19.3	6.03e-01	0	42	0	149946368	20	5225
2026-01-11 03:10:25.04	329.92	30.78	-29.9	-32.9	19.6	6.04e-01	0	42	0	152043520	20	5123
2026-01-11 03:10:26.04	329.55	30.88	-29.9	-33.0	19.5	6.02e-01	0	42	0	153616384	20	5153
2026-01-11 03:10:27.04	329.17	30.98	-30.0	-33.4	19.3	6.01e-01	0	42	0	155713536	20	5288
2026-01-11 03:10:28.05	328.79	31.08	-29.7	-32.4	19.8	6.04e-01	0	42	0	157810688	20	4950
2026-01-11 03:10:29.06	328.41	31.18	-29.4	-32.2	20.4	6.06e-01	0	42	0	159383552	19	4962
2026-01-11 03:10:30.06	328.03	31.28	-29.2	-31.6	20.6	6.04e-01	0	42	0	161480704	19	4777
2026-01-11 03:10:31.07	327.64	31.38	-29.0	-31.7	20.8	6.04e-01	0	42	0	163053568	18	4921
2026-01-11 03:10:32.07	327.25	31.47	-29.2	-31.7	20.7	6.04e-01	0	42	0	165150720	19	4796
2026-01-11 03:10:33.08	326.85	31.57	-29.3	-32.0	20.4	6.05e-01	0	42	0	167247872	19	4910
2026-01-11 03:10:34.08	326.46	31.66	-29.2	-31.7	20.7	6.02e-01	0	42	0	168820736	19	4803
2026-01-11 03:10:35.09	326.06	31.76	-29.3	-32.0	20.4	6.02e-01	0	42	0	170917888	19	4912
2026-01-11 03:10:36.09	325.67	31.85	-29.2	-31.6	20.7	6.03e-01	0	42	0	172490752	19	4764
2026-01-11 03:10:37.10	325.26	31.94	-29.1	-31.4	20.8	6.03e-01	0	42	0	174587904	19	4688
2026-01-11 03:10:38.10	324.86	32.03	-29.1	-31.5	20.7	6.04e-01	0	42	0	176685056	19	4739
2026-01-11 03:10:39.11	324.45	32.12	-29.1	-31.6	20.8	6.04e-01	0	42	0	178257920	19	4756
2026-01-11 03:10:40.11	324.05	32.20	-29.2	-31.8	20.6	6.05e-01	0	42	0	180355072	19	4834
2026-01-11 03:10:41.12	323.63	32.29	-29.1	-31.4	20.8	6.04e-01	0	42	0	181927936	19	4704
2026-01-11 03:10:42.12	323.22	32.37	-29.0	-31.7	21.0	6.02e-01	0	42	0	184025088	18	4909
2026-01-11 03:10:43.12	322.81	32.46	-29.1	-31.6	20.8	6.05e-01	0	42	0	185597952	19	4760
2026-01-11 03:10:44.13	322.39	32.54	-29.1	-31.4	20.8	6.03e-01	0	42	0	187695104	19	4699
2026-01-11 03:10:45.14	321.97	32.62	-29.1	-31.4	20.8	6.00e-01	0	42	0	189792256	19	4713
2026-01-11 03:10:46.15	321.54	32.70	-29.1	-31.5	20.8	6.02e-01	0	42	0	191365120	19	4725
2026-01-11 03:10:47.15	321.12	32.77	-29.1	-31.4	20.9	6.03e-01	0	42	0	193462272	19	4689
2026-01-11 03:10:48.16	320.69	32.85	-29.1	-31.5	20.8	6.03e-01	0	42	0	195559424	19	4736
2026-01-11 03:10:49.16	320.27	32.92	-29.1	-31.5	20.8	6.05e-01	0	42	0	197132288	19	4728
2026-01-11 03:10:50.17	319.84	32.99	-29.3	-32.0	20.4	6.05e-01	0	42	0	199229440	19	4891
2026-01-11 03:10:51.18	319.40	33.06	-29.0	-31.3	20.9	6.03e-01	0	42	0	200802304	19	4666
2026-01-11 03:10:52.18	318.97	33.13	-29.3	-31.8	20.6	6.04e-01	0	42	0	202899456	19	4838
2026-01-11 03:10:53.19	318.53	33.20	-29.2	-31.7	20.7	6.04e-01	0	42	0	204996608	19	4801
2026-01-11 03:10:54.20	318.09	33.27	-29.1	-31.4	20.9	6.03e-01	0	42	0	206569472	19	4702
2026-01-11 03:10:55.20	317.66	33.33	-29.3	-31.8	20.6	6.03e-01	0	42	0	208666624	19	4847
2026-01-11 03:10:56.20	317.22	33.39	-29.2	-31.7	20.7	6.03e-01	0	42	0	210239488	19	4786
2026-01-11 03:10:57.21	316.77	33.45	-29.3	-31.9	20.6	6.04e-01	0	42	0	212336640	19	4853
2026-01-11 03:10:58.22	316.33	33.51	-29.4	-32.1	20.5	6.03e-01	0	42	0	213909504	19	4933
2026-01-11 03:10:59.22	315.88	33.57	-29.4	-32.1	20.4	6.03e-01	0	42	0	216006656	19	4929
2026-01-11 03:11:00.23	315.43	33.62	-29.6	-32.4	17.9	6.04e-01	0	42	0	218103808	20	4920
2026-01-11 03:11:01.24	314.98	33.67	-29.7	-32.5	17.7	6.03e-01	0	42	0	219676672	20	4977
2026-01-11 03:11:02.24	314.53	33.73	-30.0	-33.1	19.0	6.03e-01	0	42	0	221773824	20	5187
2026-01-11 03:11:03.25	314.08	33.77	-29.7	-32.6	18.5	6.07e-01	0	42	0	223870976	20	4996
2026-01-11 03:11:04.25	313.63	33.82	-29.8	-32.6	19.3	6.03e-01	0	42	0	225443840	20	5012
2026-01-11 03:11:05.26	313.17	33.87	-29.9	-33.1	19.5	6.02e-01	0	42	0	227540992	20	5166
2026-01-11 03:11:06.27	312.71	33.91	-29.9	-32.9	19.5	6.01e-01	0	42	0	229113856	20	5105
2026-01-11 03:11:07.27	312.26	33.95	-29.6	-32.2	20.0	6.03e-01	0	42	0	231211008	20	4856
2026-01-11 03:11:08.28	311.80	33.99	-29.7	-32.5	19.7	6.04e-01	0	42	0	233308160	20	4959
2026-01-11 03:11:09.29	311.33	34.03	-29.9	-32.9	19.5	6.02e-01	0	42	0	234881024	20	5098
2026-01-11 03:11:10.29	310.87	34.07	-29.6	-32.1	20.0	6.04e-01	0	42	0	236978176	20	4845
2026-01-11 03:11:11.29	310.41	34.10	-29.5	-32.4	20.3	6.03e-01	0	42	0	238551040	19	5048
2026-01-11 03:11:12.30	309.95	34.13	-29.2	-31.6	20.8	6.06e-01	0	42	0	240648192	19	4775
2026-01-11 03:11:13.31	309.48	34.16	-29.1	-31.4	20.8	6.05e-01	0	42	0	242221056	19	4695
2026-01-11 03:11:14.32	309.02	34.19	-29.0	-31.3	20.7	6.06e-01	0	42	0	244318208	19	4656
2026-01-11 03:11:15.33	308.55	34.21	-29.4	-31.8	20.0	6.00e-01	0	42	0	246415360	20	4718
2026-01-11 03:11:16.34	308.08	34.24	-29.8	-32.7	19.7	6.02e-01	0	42	0	247988224	20	5046
2026-01-11 03:11:17.34	307.62	34.26	-29.8	-32.7	19.8	6.02e-01	0	42	0	250085376	20	5057
2026-01-11 03:11:18.34	307.15	34.28	-29.3	-31.9	20.7	6.02e-01	0	42	0	252182528	19	4859
2026-01-11 03:11:19.35	306.68	34.29	-29.0	-31.2	21.0	6.01e-01	0	42	0	253755392	19	4631
2026-01-11 03:11:20.36	306.21	34.31	-29.1	-30.9	20.6	6.04e-01	0	42	0	255852544	20	4437
2026-01-11 03:11:21.36	305.74	34.32	-29.4	-31.7	20.2	6.01e-01	0	42	0	257425408	20	4693
2026-01-11 03:11:22.37	305.27	34.33	-29.7	-32.6	19.8	6.05e-01	0	42	0	259522560	20	4991
2026-01-11 03:11:23.38	304.80	34.34	-29.6	-32.3	19.9	6.05e-01	0	42	0	261619712	20	4915
2026-01-11 03:11:24.38	304.33	34.34	-29.6	-32.2	20.0	6.02e-01	0	42	0	263192576	20	4850
2026-01-11 03:11:25.38	303.87	34.35	-29.4	-32.3	20.4	6.06e-01	0	42	0	265289728	19	5000
2026-01-11 03:11:26.39	303.39	34.35	-29.4	-32.2	20.4	6.02e-01	0	42	0	266862592	19	4955
2026-01-11 03:11:27.40	302.92	34.35	-29.4	-32.2	20.4	6.04e-01	0	42	0	268959744	19	4955
2026-01-11 03:11:28.40	302.45	34.35	-29.3	-31.9	20.6	6.03e-01	0	42	0	270532608	19	4850
2026-01-11 03:11:29.40	301.99	34.34	-29.1	-31.0	20.7	6.04e-01	0	42	0	272629760	20	4478
2026-01-11 03:11:30.41	301.51	34.34	-29.2	-31.2	20.5	6.02e-01	0	42	0	274726912	20	4547
2026-01-11 03:11:31.41	301.05	34.33	-29.5	-32.1	20.0	6.05e-01	0	42	0	276299776	20	4826
2026-01-11 03:11:32.41	300.58	34.32	-29.5	-32.5	20.2	6.03e-01	0	42	0	278396928	19	5064
2026-01-11 03:11:33.42	300.11	34.30	-29.3	-32.0	20.5	6.04e-01	0	42	0	279969792	19	4884
2026-01-11 03:11:34.42	299.64	34.29	-29.3	-32.0	20.5	6.02e-01	0	42	0	282066944	19	4892
2026-01-11 03:11:35.43	299.17	34.27	-29.6	-32.4	19.9	6.04e-01	0	42	0	284164096	20	4926
2026-01-11 03:11:36.43	298.71	34.25	-29.6	-32.7	20.1	6.07e-01	0	42	0	285736960	19	5141
2026-01-11 03:11:37.43	298.24	34.23	-28.9	-31.0	21.0	6.03e-01	0	42	0	287834112	19	4560
2026-01-11 03:11:38.44	297.77	34.21	-29.1	-31.5	20.6	6.06e-01	0	42	0	289406976	19	4723
2026-01-11 03:11:39.45	297.31	34.18	-29.7	-32.5	19.7	6.05e-01	0	42	0	291504128	20	4977
2026-01-11 03:11:40.45	296.84	34.15	-29.7	-32.5	19.9	6.02e-01	0	42	0	293601280	20	4963
2026-01-11 03:11:41.45	296.38	34.12	-29.3	-31.9	20.6	6.04e-01	0	42	0	295174144	19	4871
2026-01-11 03:11:42.46	295.92	34.09	-29.2	-31.7	20.7	6.02e-01	0	42	0	297271296	19	4789
2026-01-11 03:11:43.47	295.45	34.06	-29.3	-31.4	20.3	6.03e-01	0	42	0	298844160	20	4596
2026-01-11 03:11:44.47	294.99	34.02	-29.3	-31.4	20.2	6.04e-01	0	42	0	300941312	20	4599
2026-01-11 03:11:45.48	294.53	33.98	-29.9	-33.1	19.3	6.02e-01	0	42	0	303038464	20	5180
2026-01-11 03:11:46.48	294.07	33.95	-29.8	-32.8	19.7	6.03e-01	0	42	0	304611328	20	5062
2026-01-11 03:11:47.49	293.61	33.90	-29.3	-31.3	20.5	6.01e-01	0	42	0	306708480	20	4576
2026-01-11 03:11:48.49	293.16	33.86	-29.3	-31.4	20.1	6.06e-01	0	42	0	308281344	20	4601
2026-01-11 03:11:49.50	292.70	33.81	-29.9	-33.0	19.4	6.03e-01	0	42	0	310378496	20	5180
2026-01-11 03:11:50.50	292.25	33.77	-29.4	-32.2	20.3	6.03e-01	0	42	0	311951360	19	4981
2026-01-11 03:11:51.51	291.80	33.72	-29.0	-30.8	20.8	6.02e-01	0	42	0	314048512	20	4409
2026-01-11 03:11:52.51	291.35	33.66	-29.7	-32.6	19.6	6.03e-01	0	42	0	316145664	20	5020
2026-01-11 03:11:53.52	290.89	33.61	-29.9	-33.1	19.3	6.04e-01	0	42	0	317718528	20	5209
2026-01-11 03:11:54.53	290.44	33.56	-29.6	-32.3	20.0	6.04e-01	0	42	0	319815680	20	4902
2026-01-11 03:11:55.53	290.00	33.50	-29.2	-31.3	20.5	6.00e-01	0	42	0	321912832	20	4562
2026-01-11 03:11:56.54	289.55	33.44	-29.2	-31.4	20.3	6.02e-01	0	42	0	323485696	20	4588
2026-01-11 03:11:57.55	289.11	33.38	-30.0	-33.3	19.4	6.02e-01	0	42	0	325582848	20	5264
2026-01-11 03:11:58.55	288.67	33.32	-29.2	-31.1	20.6	6.01e-01	0	42	0	327155712	20	4508
2026-01-11 03:11:59.56	288.23	33.25	-29.2	-31.3	20.3	6.07e-01	0	42	0	329252864	20	4569
2026-01-11 03:12:00.56	287.79	33.19	-29.6	-32.3	19.9	6.02e-01	0	42	0	330825728	20	4918
2026-01-11 03:12:01.57	287.35	33.12	-29.3	-31.4	20.4	6.04e-01	0	42	0	332922880	20	4604
2026-01-11 03:12:02.58	286.92	33.05	-29.3	-31.6	20.1	6.03e-01	0	42	0	335020032	20	4674
2026-01-11 03:12:03.59	286.48	32.98	-29.5	-32.4	20.2	6.07e-01	0	42	0	336592896	19	5051
2026-01-11 03:12:04.59	286.05	32.91	-29.2	-31.6	20.6	6.06e-01	0	42	0	338690048	19	4764
2026-01-11 03:12:05.60	285.62	32.83	-29.7	-32.5	19.8	6.06e-01	0	42	0	340262912	20	4974
2026-01-11 03:12:06.61	285.19	32.76	-29.3	-31.5	20.4	6.00e-01	0	42	0	342360064	20	4623
2026-01-11 03:12:07.61	284.77	32.68	-29.6	-32.2	19.9	6.03e-01	0	42	0	344457216	20	4889
2026-01-11 03:12:08.62	284.35	32.60	-29.0	-30.6	20.8	6.04e-01	0	42	0	346030080	20	4364
2026-01-11 03:12:09.62	283.93	32.52	-29.6	-32.4	19.8	6.04e-01	0	42	0	348127232	20	4947
2026-01-11 03:12:10.62	283.51	32.44	-28.7	-30.6	21.2	6.05e-01	0	42	0	350224384	19	4439
2026-01-11 03:12:11.63	283.10	32.36	-29.9	-33.0	19.4	6.03e-01	0	42	0	351797248	20	5179
2026-01-11 03:12:12.63	282.69	32.27	-28.9	-31.0	20.9	6.02e-01	0	42	0	353894400	19	4573
2026-01-11 03:12:13.64	282.27	32.18	-29.5	-32.5	20.1	6.02e-01	0	42	0	355467264	19	5090
2026-01-11 03:12:14.64	281.87	32.10	-29.3	-31.8	20.5	6.03e-01	0	42	0	357564416	19	4851
2026-01-11 03:12:15.65	281.46	32.01	-29.3	-32.0	20.4	6.02e-01	0	42	0	359137280	19	4906
2026-01-11 03:12:16.65	281.05	31.92	-29.6	-32.6	20.0	6.03e-01	0	42	0	361234432	19	5135
2026-01-11 03:12:17.66	280.65	31.83	-29.1	-31.1	20.5	6.05e-01	0	42	0	363331584	20	4503
2026-01-11 03:12:18.66	280.25	31.74	-29.3	-31.8	20.5	6.05e-01	0	42	0	364904448	19	4850
2026-01-11 03:12:19.66	279.86	31.64	-29.7	-32.7	19.6	6.04e-01	0	42	0	367001600	20	5038
2026-01-11 03:12:20.67	279.46	31.55	-29.3	-31.4	20.3	6.05e-01	0	42	0	368574464	20	4614
2026-01-11 03:12:21.67	279.07	31.45	-29.6	-32.6	20.0	6.04e-01	0	42	0	370671616	19	5134
2026-01-11 03:12:22.68	278.68	31.35	-29.2	-31.2	20.4	6.03e-01	0	42	0	372768768	20	4545
2026-01-11 03:12:23.69	278.29	31.26	-29.6	-32.2	19.8	6.02e-01	0	42	0	374341632	20	4892
2026-01-11 03:12:24.70	277.90	31.16	-28.5	-31.3	19.6	6.05e-01	0	42	0	376438784	20	4984
2026-01-11 03:12:25.71	277.51	31.06	-29.3	-32.0	20.3	6.03e-01	0	42	0	378011648	19	4904
2026-01-11 03:12:26.71	277.14	30.95	-29.5	-32.6	19.0	6.03e-01	0	42	0	380108800	19	5106
2026-01-11 03:12:27.71	276.76	30.85	-29.3	-32.0	19.4	6.06e-01	0	42	0	382205952	19	4913
2026-01-11 03:12:28.72	276.38	30.75	-29.7	-32.5	19.8	6.03e-01	0	42	0	383778816	20	4973
2026-01-11 03:12:29.72	276.01	30.65	-29.6	-32.3	18.0	6.04e-01	0	42	0	385875968	20	4917
2026-01-11 03:12:30.72	275.64	30.54	-29.4	-32.3	20.2	6.02e-01	0	42	0	387448832	19	5023
2026-01-11 03:12:31.73	275.27	30.43	-29.7	-32.5	19.5	6.01e-01	0	42	0	389545984	20	4993
2026-01-11 03:12:32.73	274.91	30.33	-29.3	-32.1	20.0	6.04e-01	0	42	0	391643136	19	4928
2026-01-11 03:12:33.74	274.54	30.22	-29.9	-33.1	19.4	6.02e-01	0	42	0	393216000	20	5186
2026-01-11 03:12:34.74	274.18	30.11	-30.0	-32.8	19.1	6.04e-01	0	42	0	395313152	21	4998
2026-01-11 03:12:35.75	273.82	30.00	-29.4	-31.9	19.9	6.04e-01	0	42	0	396886016	20	4761
2026-01-11 03:12:36.76	273.47	29.89	-29.5	-32.4	20.1	6.03e-01	0	42	0	398983168	19	5050
2026-01-11 03:12:37.76	273.12	29.78	-29.5	-31.9	19.9	6.03e-01	0	42	0	400556032	20	4796
2026-01-11 03:12:38.76	272.77	29.67	-29.3	-32.0	20.4	6.01e-01	0	42	0	402653184	19	4915
2026-01-11 03:12:39.77	272.42	29.56	-29.7	-32.5	19.7	6.04e-01	0	42	0	404750336	20	4984
2026-01-11 03:12:40.76	272.08	29.45	-29.9	-33.1	19.2	6.05e-01	0	42	0	406323200	20	5215
2026-01-11 03:12:41.76	271.74	29.33	-29.4	-32.2	20.2	6.02e-01	0	42	0	408420352	19	4965
2026-01-11 03:12:42.77	271.39	29.22	-29.5	-32.6	19.9	6.03e-01	0	42	0	409993216	19	5140
2026-01-11 03:12:43.78	271.05	29.10	-29.6	-32.5	19.6	6.01e-01	0	42	0	412090368	20	4985
2026-01-11 03:12:44.78	270.72	28.99	-29.4	-32.3	20.1	6.02e-01	0	42	0	414187520	19	4999
2026-01-11 03:12:45.78	270.39	28.87	-29.9	-33.1	19.3	6.05e-01	0	42	0	415760384	20	5204
2026-01-11 03:12:46.79	270.06	28.76	-30.3	-33.7	18.6	6.04e-01	0	42	0	417857536	21	5352
2026-01-11 03:12:47.79	269.73	28.64	-29.8	-32.8	19.4	6.05e-01	0	42	0	419430400	20	5093
2026-01-11 03:12:48.80	269.40	28.52	-29.5	-32.1	19.9	6.04e-01	0	42	0	421527552	20	4848
2026-01-11 03:12:49.80	269.08	28.40	-30.1	-33.5	19.0	6.03e-01	0	42	0	423624704	20	5368
2026-01-11 03:12:50.80	268.76	28.29	-30.4	-33.9	18.5	6.03e-01	0	42	0	425197568	21	5415
2026-01-11 03:12:51.80	268.45	28.17	-30.1	-33.2	18.8	6.03e-01	0	42	0	427294720	21	5124
2026-01-11 03:12:52.80	268.13	28.05	-30.1	-33.2	18.9	6.03e-01	0	42	0	428867584	21	5108
2026-01-11 03:12:53.81	267.82	27.93	-30.0	-33.3	19.1	6.02e-01	0	42	0	430964736	20	5262
2026-01-11 03:12:54.81	267.51	27.81	-30.1	-33.6	19.0	6.01e-01	0	42	0	432537600	20	5391
2026-01-11 03:12:55.82	267.20	27.69	-30.4	-34.0	18.4	6.02e-01	0	42	0	434634752	21	5451
2026-01-11 03:12:56.82	266.89	27.57	-30.1	-33.1	18.9	6.03e-01	0	42	0	436731904	21	5083
2026-01-11 03:12:57.83	266.59	27.45	-29.5	-32.1	19.9	6.03e-01	0	42	0	438304768	20	4836
2026-01-11 03:12:58.84	266.28	27.33	-29.5	-32.0	19.9	6.03e-01	0	42	0	440401920	20	4819
2026-01-11 03:12:59.85	265.98	27.20	-29.8	-32.8	19.4	6.03e-01	0	42	0	442499072	20	5117
2026-01-11 03:13:00.86	265.69	27.08	-30.2	-33.5	18.7	6.02e-01	0	42	0	444071936	21	5255
2026-01-11 03:13:01.86	265.39	26.96	-30.0	-33.0	18.9	6.04e-01	0	42	0	446169088	21	5057
2026-01-11 03:13:02.87	265.10	26.84	-29.6	-32.3	19.7	6.03e-01	0	42	0	447741952	20	4905
2026-01-11 03:13:03.88	264.81	26.72	-29.4	-32.3	20.1	6.03e-01	0	42	0	449839104	19	5015
2026-01-11 03:13:04.88	264.52	26.59	-29.4	-32.4	20.0	6.02e-01	0	42	0	451936256	19	5049
2026-01-11 03:13:05.89	264.24	26.47	-29.5	-32.5	20.0	6.02e-01	0	42	0	453509120	19	5083
2026-01-11 03:13:06.90	263.95	26.35	-29.5	-32.6	19.9	6.04e-01	0	42	0	455606272	19	5135
2026-01-11 03:13:07.90	263.67	26.22	-29.5	-32.6	19.9	6.02e-01	0	42	0	457179136	19	5143
2026-01-11 03:13:08.90	263.40	26.10	-29.6	-32.5	19.6	6.02e-01	0	42	0	459276288	20	4978
2026-01-11 03:13:09.91	263.12	25.98	-29.8	-32.8	19.4	6.03e-01	0	42	0	460849152	20	5089
2026-01-11 03:13:10.92	262.84	25.85	-29.7	-32.5	19.5	6.03e-01	0	42	0	462946304	20	5007
2026-01-11 03:13:11.92	262.57	25.73	-29.5	-32.5	19.9	6.04e-01	0	42	0	465043456	19	5098
2026-01-11 03:13:12.92	262.31	25.61	-29.6	-32.8	19.8	6.03e-01	0	42	0	466616320	19	5201
2026-01-11 03:13:13.93	262.04	25.49	-29.6	-32.5	19.6	6.03e-01	0	42	0	468713472	20	4993
2026-01-11 03:13:14.93	261.77	25.36	-29.8	-32.9	19.3	6.01e-01	0	42	0	470810624	20	5139
2026-01-11 03:13:15.94	261.51	25.24	-29.7	-32.7	19.4	6.03e-01	0	42	0	472383488	20	5082
2026-01-11 03:13:16.95	261.25	25.11	-29.6	-32.5	19.6	6.05e-01	0	42	0	474480640	20	4983
2026-01-11 03:13:17.95	260.99	24.99	-29.7	-32.7	19.4	6.03e-01	0	42	0	476053504	20	5086
2026-01-11 03:13:18.96	260.73	24.87	-29.6	-32.4	19.6	6.05e-01	0	42	0	478150656	20	4970
2026-01-11 03:13:19.97	260.48	24.74	-29.9	-33.1	19.2	6.06e-01	0	42	0	479723520	20	5225
2026-01-11 03:13:20.98	260.23	24.62	-29.7	-32.7	19.3	6.03e-01	0	42	0	481820672	20	5064
2026-01-11 03:13:21.98	259.98	24.50	-29.6	-32.4	19.5	6.05e-01	0	42	0	483917824	20	4960
2026-01-11 03:13:22.99	259.73	24.37	-29.5	-32.1	19.7	6.03e-01	0	42	0	485490688	20	4871
2026-01-11 03:13:24.00	259.48	24.25	-29.5	-32.7	19.8	6.04e-01	0	42	0	487587840	19	5162
2026-01-11 03:13:25.00	259.24	24.13	-29.6	-32.8	19.7	6.03e-01	0	42	0	489160704	19	5201
2026-01-11 03:13:26.01	258.99	24.00	-29.7	-32.5	19.5	6.03e-01	0	42	0	491257856	20	5015
2026-01-11 03:13:27.02	258.75	23.88	-29.8	-32.8	19.3	6.04e-01	0	42	0	493355008	20	5116
2026-01-11 03:13:28.03	258.51	23.76	-29.6	-32.3	19.6	6.03e-01	0	42	0	494927872	20	4936
2026-01-11 03:13:29.03	258.28	23.63	-29.6	-32.8	19.7	6.03e-01	0	42	0	497025024	19	5205
2026-01-11 03:13:30.03	258.05	23.51	-29.7	-32.6	19.4	6.02e-01	0	42	0	499122176	20	5045
2026-01-11 03:13:31.03	257.82	23.39	-30.0	-33.5	18.8	6.04e-01	0	42	0	500695040	20	5385
2026-01-11 03:13:32.02	257.59	23.27	-29.7	-32.8	19.3	6.05e-01	0	42	0	502267904	20	5103
2026-01-11 03:13:33.03	257.36	23.15	-29.8	-32.9	19.2	6.01e-01	0	42	0	504365056	20	5150
2026-01-11 03:13:34.04	257.13	23.02	-30.1	-33.6	18.7	6.05e-01	0	42	0	506462208	20	5431
2026-01-11 03:13:35.04	256.91	22.90	-30.1	-33.1	18.7	6.04e-01	0	42	0	508035072	21	5126
2026-01-11 03:13:36.05	256.68	22.78	-29.9	-33.2	19.0	6.03e-01	0	42	0	510132224	20	5258
2026-01-11 03:13:37.05	256.46	22.66	-30.0	-33.4	18.9	6.02e-01	0	42	0	512229376	20	5324
2026-01-11 03:13:38.06	256.24	22.54	-30.0	-33.5	18.8	6.03e-01	0	42	0	513802240	20	5399
2026-01-11 03:13:39.06	256.03	22.42	-29.8	-33.1	19.1	6.02e-01	0	42	0	515899392	20	5215
2026-01-11 03:13:40.07	255.81	22.29	-29.7	-32.7	19.3	6.01e-01	0	42	0	517472256	20	5077
2026-01-11 03:13:41.07	255.60	22.17	-29.7	-32.6	19.4	6.01e-01	0	42	0	519569408	20	5058
2026-01-11 03:13:42.07	255.39	22.05	-29.8	-32.9	19.2	6.04e-01	0	42	0	521142272	20	5150
2026-01-11 03:13:43.08	255.18	21.93	-29.7	-32.6	19.3	6.05e-01	0	42	0	523239424	20	5063
2026-01-11 03:13:44.08	254.97	21.81	-29.6	-32.5	19.4	6.03e-01	0	42	0	525336576	20	5029
2026-01-11 03:13:45.08	254.76	21.69	-29.8	-33.0	19.1	6.03e-01	0	42	0	526909440	20	5198
2026-01-11 03:13:46.09	254.56	21.57	-29.7	-32.6	19.3	6.05e-01	0	42	0	529006592	20	5064
2026-01-11 03:13:47.10	254.35	21.45	-29.6	-32.4	19.5	6.03e-01	0	42	0	530579456	20	4960
2026-01-11 03:13:48.11	254.15	21.34	-29.5	-32.2	19.6	6.04e-01	0	42	0	532676608	20	4893
2026-01-11 03:13:49.11	253.95	21.22	-29.5	-32.3	19.5	6.03e-01	0	42	0	534773760	20	4945
2026-01-11 03:13:50.12	253.75	21.10	-29.5	-32.1	19.7	6.03e-01	0	42	0	536346624	20	4880
2026-01-11 03:13:51.13	253.55	20.98	-29.5	-32.7	19.6	6.05e-01	0	42	0	538443776	19	5200
2026-01-11 03:13:52.14	253.36	20.86	-29.6	-32.8	19.6	6.03e-01	0	42	0	540540928	19	5237
2026-01-11 03:13:53.14	253.16	20.74	-29.5	-32.7	19.7	6.02e-01	0	42	0	542113792	19	5179
2026-01-11 03:13:54.15	252.97	20.62	-28.4	-31.6	19.7	6.05e-01	0	42	0	544210944	19	5206
2026-01-11 03:13:55.16	252.78	20.51	-29.5	-32.7	19.6	6.02e-01	0	42	0	545783808	19	5241
2026-01-11 03:13:56.17	252.59	20.39	-29.5	-32.8	19.1	6.10e-01	0	42	0	547880960	19	5292
2026-01-11 03:13:57.17	252.40	20.27	-29.5	-32.5	17.7	6.11e-01	0	42	0	549453824	19	5130
2026-01-11 03:13:58.18	252.21	20.16	-29.5	-32.5	19.7	6.03e-01	0	42	0	551550976	19	5125
2026-01-11 03:13:59.18	252.03	20.04	-29.4	-32.4	19.8	6.02e-01	0	42	0	553648128	19	5099
2026-01-11 03:14:00.18	251.85	19.92	-29.4	-32.5	19.7	6.02e-01	0	42	0	555220992	19	5121
2026-01-11 03:14:01.19	251.67	19.81	-29.5	-32.7	19.6	6.05e-01	0	42	0	557318144	19	5188
2026-01-11 03:14:02.20	251.48	19.69	-29.5	-32.3	19.4	6.04e-01	0	42	0	558891008	20	4935
2026-01-11 03:14:03.20	251.31	19.58	-29.5	-32.7	19.6	6.05e-01	0	42	0	560988160	19	5196
2026-01-11 03:14:04.21	251.13	19.46	-29.1	-32.8	19.2	6.04e-01	0	42	0	563085312	18	5504
2026-01-11 03:14:05.22	250.95	19.35	-29.5	-32.8	18.9	6.05e-01	0	42	0	564658176	19	5219
2026-01-11 03:14:06.23	250.78	19.23	-29.5	-32.8	19.5	6.03e-01	0	42	0	566755328	19	5228
2026-01-11 03:14:07.23	250.60	19.12	-29.3	-32.3	19.8	6.02e-01	0	42	0	568852480	19	5042
2026-01-11 03:14:08.24	250.43	19.01	-29.3	-32.3	19.8	6.01e-01	0	42	0	570425344	19	5048
2026-01-11 03:14:09.24	250.26	18.89	-29.5	-32.6	19.6	6.01e-01	0	42	0	572522496	19	5168
2026-01-11 03:14:10.25	250.09	18.78	-29.5	-32.6	19.6	6.02e-01	0	42	0	574095360	19	5156
2026-01-11 03:14:11.26	249.92	18.67	-29.5	-32.8	19.5	6.05e-01	0	42	0	576192512	19	5230
2026-01-11 03:14:12.26	249.76	18.56	-29.5	-32.8	19.5	6.04e-01	0	42	0	577765376	19	5234
2026-01-11 03:14:13.27	249.59	18.44	-29.6	-32.9	19.5	6.05e-01	0	42	0	579862528	19	5257
2026-01-11 03:14:14.28	249.43	18.33	-29.5	-32.3	19.4	6.05e-01	0	42	0	581959680	20	4961
2026-01-11 03:14:15.28	249.27	18.22	-29.6	-32.5	19.3	6.02e-01	0	42	0	583532544	20	5016
2026-01-11 03:14:16.29	249.10	18.11	-29.4	-32.1	19.5	6.03e-01	0	42	0	585629696	20	4869
2026-01-11 03:14:17.30	248.94	18.00	-29.4	-32.5	19.6	6.03e-01	0	42	0	587202560	19	5140
2026-01-11 03:14:18.30	248.78	17.89	-29.4	-32.3	19.7	6.04e-01	0	42	0	589299712	19	5074
2026-01-11 03:14:19.30	248.63	17.78	-29.4	-32.5	19.6	6.03e-01	0	42	0	591396864	19	5115
2026-01-11 03:14:20.30	248.47	17.67	-29.4	-32.5	19.6	6.04e-01	0	42	0	592969728	19	5119
2026-01-11 03:14:21.31	248.32	17.56	-29.5	-32.6	19.5	6.03e-01	0	42	0	595066880	19	5183
2026-01-11 03:14:22.31	248.16	17.45	-29.4	-32.4	19.6	6.02e-01	0	42	0	596639744	19	5110
2026-01-11 03:14:23.32	248.01	17.34	-29.4	-32.6	19.6	6.04e-01	0	42	0	598736896	19	5159
2026-01-11 03:14:24.33	247.86	17.23	-29.5	-32.7	19.5	6.06e-01	0	42	0	600834048	19	5204
2026-01-11 03:14:25.33	247.71	17.13	-29.6	-32.9	19.4	6.04e-01	0	42	0	602406912	19	5270
2026-01-11 03:14:26.33	247.56	17.02	-29.6	-32.6	19.1	6.05e-01	0	42	0	604504064	20	5069
2026-01-11 03:14:27.34	247.41	16.91	-29.6	-32.5	19.3	6.04e-01	0	42	0	606076928	20	5012
2026-01-11 03:14:28.35	247.26	16.80	-29.5	-32.3	19.4	6.03e-01	0	42	0	608174080	20	4944
2026-01-11 03:14:29.35	247.12	16.70	-29.4	-32.3	19.7	6.05e-01	0	42	0	610271232	19	5065
2026-01-11 03:14:30.36	246.97	16.59	-29.3	-32.3	19.8	6.04e-01	0	42	0	611844096	19	5058
2026-01-11 03:14:31.37	246.83	16.48	-29.4	-32.4	19.7	6.03e-01	0	42	0	613941248	19	5089
2026-01-11 03:14:32.37	246.69	16.38	-29.4	-32.6	19.5	6.04e-01	0	42	0	615514112	19	5169
2026-01-11 03:14:33.38	246.54	16.27	-29.5	-32.6	19.5	6.02e-01	0	42	0	617611264	19	5193
2026-01-11 03:14:34.39	246.40	16.17	-29.4	-32.6	19.5	6.04e-01	0	42	0	619708416	19	5181
2026-01-11 03:14:35.39	246.27	16.06	-29.4	-32.5	19.6	6.05e-01	0	42	0	621281280	19	5128
2026-01-11 03:14:36.39	246.13	15.96	-29.3	-32.3	19.7	6.04e-01	0	42	0	623378432	19	5073
2026-01-11 03:14:37.40	245.99	15.86	-29.5	-32.6	19.5	6.02e-01	0	42	0	624951296	19	5191
2026-01-11 03:14:38.41	245.85	15.75	-29.5	-32.4	19.2	6.04e-01	0	42	0	627048448	20	4995
2026-01-11 03:14:39.42	245.72	15.65	-29.4	-32.5	19.5	6.04e-01	0	42	0	629145600	19	5155
2026-01-11 03:14:40.42	245.58	15.54	-29.5	-32.7	19.4	6.06e-01	0	42	0	630718464	19	5203
2026-01-11 03:14:41.42	245.45	15.44	-29.6	-32.9	19.2	6.01e-01	0	42	0	632815616	19	5306
2026-01-11 03:14:42.42	245.32	15.34	-29.6	-32.4	19.1	6.03e-01	0	42	0	634388480	20	5022
2026-01-11 03:14:43.42	245.19	15.24	-29.5	-32.7	19.3	6.04e-01	0	42	0	636485632	19	5221
2026-01-11 03:14:44.43	245.06	15.14	-29.4	-32.6	19.4	6.03e-01	0	42	0	638582784	19	5189
2026-01-11 03:14:45.43	244.93	15.04	-29.5	-32.7	19.3	6.05e-01	0	42	0	640155648	19	5231
2026-01-11 03:14:46.44	244.80	14.93	-29.6	-32.5	19.1	6.05e-01	0	42	0	642252800	20	5049
2026-01-11 03:14:47.45	244.67	14.83	-29.8	-33.2	18.7	6.02e-01	0	42	0	643825664	20	5323
2026-01-11 03:14:48.45	244.55	14.73	-29.9	-33.4	18.5	6.03e-01	0	42	0	645922816	20	5401
2026-01-11 03:14:49.45	244.42	14.63	-29.6	-32.6	19.0	6.03e-01	0	42	0	647495680	20	5101
2026-01-11 03:14:50.46	244.30	14.53	-29.5	-32.8	19.3	6.04e-01	0	42	0	649592832	19	5254
2026-01-11 03:14:51.46	244.17	14.43	-29.6	-32.5	19.1	6.04e-01	0	42	0	651689984	20	5059
2026-01-11 03:14:52.46	244.05	14.34	-29.7	-33.0	18.8	6.01e-01	0	42	0	653262848	20	5228
2026-01-11 03:14:53.47	243.93	14.24	-29.7	-33.0	18.8	6.04e-01	0	42	0	655360000	20	5226
2026-01-11 03:14:54.47	243.81	14.14	-29.7	-32.8	18.9	6.05e-01	0	42	0	656932864	20	5163
2026-01-11 03:14:55.48	243.69	14.04	-29.6	-32.7	18.9	6.03e-01	0	42	0	659030016	20	5133
2026-01-11 03:14:56.48	243.57	13.94	-29.7	-32.8	18.9	6.03e-01	0	42	0	661127168	20	5181
2026-01-11 03:14:57.49	243.45	13.84	-29.7	-32.9	18.8	6.03e-01	0	42	0	662700032	20	5222
2026-01-11 03:14:58.50	243.33	13.75	-29.6	-32.6	19.0	6.02e-01	0	42	0	664797184	20	5096
2026-01-11 03:14:59.50	243.22	13.65	-29.5	-32.5	19.1	6.01e-01	0	42	0	666370048	20	5035
2026-01-11 03:15:00.51	243.10	13.55	-29.6	-33.0	19.1	6.04e-01	0	42	0	668467200	19	5323
2026-01-11 03:15:01.52	242.98	13.46	-29.6	-33.0	19.0	6.02e-01	0	42	0	670564352	19	5349
2026-01-11 03:15:02.52	242.87	13.36	-29.8	-33.1	18.6	6.04e-01	0	42	0	672137216	20	5285
2026-01-11 03:15:03.53	242.76	13.27	-29.8	-33.2	18.5	6.05e-01	0	42	0	674234368	20	5328
2026-01-11 03:15:04.53	242.64	13.17	-29.7	-32.9	18.7	6.03e-01	0	42	0	675807232	20	5219
2026-01-11 03:15:05.54	242.53	13.07	-29.6	-32.6	19.0	6.02e-01	0	42	0	677904384	20	5092
2026-01-11 03:15:06.55	242.42	12.98	-29.6	-32.6	18.9	6.05e-01	0	42	0	680001536	20	5088
2026-01-11 03:15:07.56	242.31	12.88	-29.7	-32.8	18.8	6.02e-01	0	42	0	681574400	20	5190
2026-01-11 03:15:08.56	242.20	12.79	-29.7	-32.9	18.7	6.02e-01	0	42	0	683671552	20	5195
2026-01-11 03:15:09.57	242.09	12.70	-29.7	-32.8	18.8	6.04e-01	0	42	0	685244416	20	5177
2026-01-11 03:15:10.58	241.98	12.60	-29.6	-32.8	18.8	6.01e-01	0	42	0	687341568	20	5155
2026-01-11 03:15:11.58	241.87	12.51	-29.5	-32.5	18.9	6.04e-01	0	42	0	689438720	20	5064
2026-01-11 03:15:12.59	241.77	12.42	-29.5	-32.4	18.9	6.03e-01	0	42	0	691011584	20	5042
2026-01-11 03:15:13.59	241.66	12.32	-29.5	-32.5	18.9	6.02e-01	0	42	0	693108736	20	5052
2026-01-11 03:15:14.60	241.56	12.23	-29.6	-32.6	18.9	6.02e-01	0	42	0	694681600	20	5104
2026-01-11 03:15:15.60	241.45	12.14	-29.6	-32.6	18.9	6.01e-01	0	42	0	696778752	20	5113
2026-01-11 03:15:16.60	241.35	12.05	-29.6	-32.6	18.8	6.04e-01	0	42	0	698875904	20	5120
2026-01-11 03:15:17.61	241.25	11.96	-29.6	-32.6	18.9	6.04e-01	0	42	0	700448768	20	5099
2026-01-11 03:15:18.61	241.14	11.87	-29.6	-32.6	18.9	6.02e-01	0	42	0	702545920	20	5106
2026-01-11 03:15:19.62	241.04	11.78	-29.7	-32.8	18.7	6.03e-01	0	42	0	704118784	20	5200
2026-01-11 03:15:20.63	240.94	11.68	-29.6	-32.7	17.1	6.02e-01	0	42	0	706215936	20	5139
2026-01-11 03:15:21.64	240.84	11.59	-29.6	-32.7	18.8	6.04e-01	0	42	0	708313088	20	5133
2026-01-11 03:15:22.64	240.74	11.50	-29.6	-32.7	18.0	6.05e-01	0	42	0	709885952	20	5151
2026-01-11 03:15:23.65	240.64	11.41	-29.6	-32.7	18.4	6.02e-01	0	42	0	711983104	20	5136
2026-01-11 03:15:24.66	240.54	11.32	-29.6	-32.8	18.7	6.02e-01	0	42	0	713555968	20	5164
2026-01-11 03:15:25.67	240.45	11.23	-29.6	-32.8	18.6	6.04e-01	0	42	0	715653120	20	5186
2026-01-11 03:15:26.67	240.35	11.15	-29.7	-32.9	18.6	6.03e-01	0	42	0	717225984	20	5211
2026-01-11 03:15:27.67	240.25	11.06	-29.8	-33.3	18.4	6.04e-01	0	42	0	719323136	20	5365
2026-01-11 03:15:28.67	240.16	10.97	-30.0	-33.8	18.0	6.04e-01	0	42	0	721420288	20	5593
2026-01-11 03:15:29.68	240.06	10.88	-29.9	-33.6	18.1	6.05e-01	0	42	0	722993152	20	5511
2026-01-11 03:15:30.68	239.97	10.79	-30.0	-33.7	18.1	6.05e-01	0	42	0	725090304	20	5551
2026-01-11 03:15:31.69	239.87	10.71	-29.9	-33.5	18.2	6.04e-01	0	42	0	727187456	20	5486
2026-01-11 03:15:32.70	239.78	10.62	-30.0	-34.0	17.9	6.03e-01	0	42	0	728760320	20	5665
2026-01-11 03:15:33.70	239.69	10.53	-30.0	-33.8	17.9	6.02e-01	0	42	0	730857472	20	5600
2026-01-11 03:15:34.70	239.60	10.45	-30.0	-34.0	17.8	6.03e-01	0	42	0	732430336	20	5674
2026-01-11 03:15:35.71	239.51	10.36	-30.3	-34.2	17.4	6.05e-01	0	42	0	734527488	21	5640
2026-01-11 03:15:36.72	239.41	10.27	-30.2	-34.1	17.4	6.03e-01	0	42	0	736100352	21	5617
2026-01-11 03:15:37.72	239.33	10.19	-30.3	-34.3	17.2	6.03e-01	0	42	0	738197504	21	5681
2026-01-11 03:15:38.73	239.24	10.10	-30.3	-34.1	17.4	5.99e-01	0	42	0	740294656	21	5617
2026-01-11 03:15:39.73	239.15	10.02	-30.1	-33.7	17.7	6.02e-01	0	42	0	741867520	21	5447
2026-01-11 03:15:40.74	239.06	9.93	-30.0	-33.8	18.0	6.04e-01	0	42	0	743964672	20	5588
2026-01-11 03:15:41.74	238.97	9.85	-30.0	-33.9	17.9	6.05e-01	0	42	0	745537536	20	5648
2026-01-11 03:15:42.74	238.88	9.76	-30.2	-34.1	17.4	6.02e-01	0	42	0	747634688	21	5621
2026-01-11 03:15:43.74	238.80	9.68	-30.3	-34.3	17.3	6.04e-01	0	42	0	749731840	21	5718
2026-01-11 03:15:44.75	238.71	9.59	-30.2	-33.9	17.5	6.06e-01	0	42	0	751304704	21	5517
2026-01-11 03:15:45.76	238.63	9.51	-30.0	-33.9	17.8	6.02e-01	0	42	0	753401856	20	5650
2026-01-11 03:15:46.76	238.54	9.43	-30.1	-34.1	17.7	6.05e-01	0	42	0	754974720	20	5738
2026-01-11 03:15:47.76	238.46	9.34	-30.0	-34.0	17.7	6.02e-01	0	42	0	757071872	20	5703
2026-01-11 03:15:48.77	238.37	9.26	-30.2	-34.0	17.5	6.04e-01	0	42	0	759169024	21	5558
2026-01-11 03:15:49.78	238.29	9.18	-30.4	-34.8	16.9	6.04e-01	0	42	0	760741888	21	5928
2026-01-11 03:15:50.78	238.21	9.10	-30.3	-34.3	17.1	6.02e-01	0	42	0	762839040	21	5733
2026-01-11 03:15:51.78	238.12	9.01	-30.1	-33.7	17.6	6.02e-01	0	42	0	764411904	21	5442
2026-01-11 03:15:52.79	238.04	8.93	-30.0	-33.8	17.8	6.03e-01	0	42	0	766509056	20	5635
2026-01-11 03:15:53.80	237.96	8.85	-30.0	-34.1	17.6	6.05e-01	0	42	0	768606208	20	5769
2026-01-11 03:15:54.80	237.88	8.77	-30.0	-33.9	17.7	6.03e-01	0	42	0	770179072	20	5668
2026-01-11 03:15:55.81	237.80	8.69	-30.0	-34.0	17.7	6.02e-01	0	42	0	772276224	20	5693
2026-01-11 03:15:56.82	237.72	8.61	-30.1	-34.2	17.6	6.05e-01	0	42	0	773849088	20	5776
2026-01-11 03:15:57.82	237.64	8.53	-30.2	-34.1	17.3	6.01e-01	0	42	0	775946240	21	5626
2026-01-11 03:15:58.83	237.56	8.44	-30.3	-34.4	17.0	6.04e-01	0	42	0	778043392	21	5795
2026-01-11 03:15:59.83	237.48	8.36	-30.2	-34.1	17.2	6.02e-01	0	42	0	779616256	21	5638
2026-01-11 03:16:00.84	237.40	8.28	-30.1	-33.8	17.4	6.06e-01	0	42	0	781713408	21	5523
2026-01-11 03:16:01.85	237.33	8.20	-30.0	-34.1	17.6	6.04e-01	0	42	0	783286272	20	5742
2026-01-11 03:16:02.85	237.25	8.12	-30.0	-34.0	17.6	6.04e-01	0	42	0	785383424	20	5703
2026-01-11 03:16:03.85	237.17	8.05	-30.2	-34.1	17.2	6.04e-01	0	42	0	787480576	21	5648
2026-01-11 03:16:04.86	237.10	7.97	-30.3	-34.6	16.9	6.04e-01	0	42	0	789053440	21	5870
2026-01-11 03:16:05.86	237.02	7.89	-30.3	-34.5	16.9	6.03e-01	0	42	0	791150592	21	5825
2026-01-11 03:16:06.87	236.95	7.81	-30.3	-34.6	16.9	6.02e-01	0	42	0	792723456	21	5884
2026-01-11 03:16:07.87	236.87	7.73	-30.8	-35.5	15.9	6.03e-01	0	42	0	794820608	22	6234
2026-01-11 03:16:08.88	236.80	7.65	-30.4	-34.4	16.6	6.02e-01	0	42	0	796917760	22	5675
2026-01-11 03:16:09.88	236.73	7.57	-30.7	-35.2	16.0	6.04e-01	0	42	0	798490624	22	6092
2026-01-11 03:16:10.89	236.65	7.50	-30.4	-34.5	16.5	6.06e-01	0	42	0	800587776	22	5724
2026-01-11 03:16:11.90	236.58	7.42	-30.4	-34.9	16.6	6.04e-01	0	42	0	802160640	21	6016
2026-01-11 03:16:12.90	236.51	7.34	-30.5	-35.2	16.3	6.04e-01	0	42	0	804257792	21	6166
2026-01-11 03:16:13.90	236.43	7.26	-30.5	-35.1	16.4	6.03e-01	0	42	0	805830656	21	6120
2026-01-11 03:16:14.91	236.36	7.19	-30.5	-34.8	16.2	6.04e-01	0	42	0	807927808	22	5884
2026-01-11 03:16:15.91	236.29	7.11	-30.3	-33.9	16.8	6.05e-01	0	42	0	810024960	22	5499
2026-01-11 03:16:16.92	236.22	7.03	-33.1	-49.5	4.0	7.41e-01	0	42	104	811073536	27	23600

#Closed at: 2026-01-11 03:16:17
#Recorded file [811 MB]: D:/data/31010_260111_060903.dat