passes_logs/2026/01/11/R2M6_AANII_01/R2M6_AANII_01__20260111_124227_AQUA_rec.log

#Pass ID: 20260111_124227_AQUA
#Satellite: AQUA
#Configuration: AQUA
#almurnet v.1.7.20240730
#Start time: 2026-01-11 12:42:28

#Version: 2.2.20231116
#Station: R2M6_AANII_01
#Location: 30.233357 lon 59.946436 lat
#TLE: 1 27424U 02022A   26009.89520876  .00001045  00000+0  21914-3 0  9996
#TLE: 2 27424  98.4076 336.2372 0002032  84.5955   1.0356 14.61811442260144

#Time	Az	El	Level	Level2	SNR	BER	BlckErr	Temp	State	Recorded	gain1	gain2
2026-01-11 12:42:28.35	182.80	7.08	-30.6	-35.9	5.2	7.09e-01	0	40	0	0	22	6619
2026-01-11 12:42:29.34	182.85	7.15	-31.3	-37.9	5.0	7.11e-01	0	39	104	0	23	7674
2026-01-11 12:42:30.35	182.90	7.23	-31.2	-36.7	14.5	6.09e-01	0	40	0	0	23	6762
2026-01-11 12:42:31.35	182.95	7.31	-31.2	-37.4	5.1	7.07e-01	0	40	104	0	23	7337
2026-01-11 12:42:32.35	183.01	7.39	-31.1	-36.1	15.0	6.08e-01	0	40	0	0	23	6407
2026-01-11 12:42:33.36	183.06	7.48	-30.8	-35.1	15.7	6.06e-01	0	40	0	2097152	23	5893
2026-01-11 12:42:34.36	183.11	7.56	-30.6	-34.3	16.3	6.08e-01	0	40	0	3670016	23	5556
2026-01-11 12:42:35.36	183.16	7.64	-30.3	-34.1	16.9	6.06e-01	0	40	0	5767168	22	5530
2026-01-11 12:42:36.37	183.22	7.72	-30.3	-33.9	17.0	6.09e-01	0	40	0	7340032	22	5464
2026-01-11 12:42:37.37	183.27	7.80	-30.5	-34.5	16.6	6.06e-01	0	40	0	9437184	22	5725
2026-01-11 12:42:38.36	183.32	7.88	-30.5	-34.6	16.5	6.06e-01	0	40	0	11010048	22	5744
2026-01-11 12:42:39.37	183.38	7.96	-30.4	-34.2	16.8	6.05e-01	0	40	0	13107200	22	5572
2026-01-11 12:42:40.37	183.43	8.05	-30.3	-33.9	17.0	6.06e-01	0	40	0	15204352	22	5433
2026-01-11 12:42:41.37	183.48	8.13	-30.5	-34.5	16.6	6.07e-01	0	40	0	16777216	22	5721
2026-01-11 12:42:42.36	183.54	8.21	-30.5	-34.6	16.5	6.10e-01	0	40	0	18874368	22	5756
2026-01-11 12:42:43.37	183.59	8.30	-30.4	-34.3	16.8	6.07e-01	0	40	0	20447232	22	5617
2026-01-11 12:42:44.38	183.65	8.38	-30.4	-34.3	16.8	6.06e-01	0	40	0	22544384	22	5606
2026-01-11 12:42:45.38	183.71	8.46	-30.3	-33.9	17.0	6.06e-01	0	40	0	24641536	22	5465
2026-01-11 12:42:46.38	183.76	8.55	-30.2	-33.4	17.4	6.09e-01	0	40	0	26214400	22	5243
2026-01-11 12:42:47.39	183.82	8.63	-30.0	-33.0	17.7	6.06e-01	0	40	0	28311552	22	5094
2026-01-11 12:42:48.39	183.87	8.72	-30.0	-33.0	17.7	6.07e-01	0	40	0	29884416	22	5071
2026-01-11 12:42:49.39	183.93	8.80	-30.0	-33.0	17.7	6.08e-01	0	40	0	31981568	22	5066
2026-01-11 12:42:50.40	183.99	8.89	-30.1	-33.2	17.6	6.06e-01	0	40	0	33554432	22	5152
2026-01-11 12:42:51.40	184.05	8.97	-30.2	-33.4	17.4	6.09e-01	0	40	0	35651584	22	5242
2026-01-11 12:42:52.40	184.10	9.06	-30.0	-32.9	17.8	6.07e-01	0	40	0	37748736	22	5051
2026-01-11 12:42:53.41	184.16	9.15	-29.8	-32.9	18.1	6.08e-01	0	40	0	39321600	21	5143
2026-01-11 12:42:54.42	184.22	9.23	-29.9	-33.0	18.0	6.06e-01	0	40	0	41418752	21	5190
2026-01-11 12:42:55.42	184.28	9.32	-29.8	-32.9	18.1	6.07e-01	0	40	0	42991616	21	5160
2026-01-11 12:42:56.43	184.34	9.41	-29.7	-32.7	18.2	6.07e-01	0	40	0	45088768	21	5070
2026-01-11 12:42:57.44	184.40	9.50	-29.8	-32.9	18.1	6.04e-01	0	40	0	47185920	21	5154
2026-01-11 12:42:58.44	184.46	9.59	-29.8	-33.0	18.1	6.07e-01	0	40	0	48758784	21	5163
2026-01-11 12:42:59.44	184.52	9.67	-29.8	-32.8	18.2	6.06e-01	0	40	0	50855936	21	5092
2026-01-11 12:43:00.44	184.58	9.76	-29.7	-32.6	18.4	6.06e-01	0	40	0	52428800	21	5022
2026-01-11 12:43:01.44	184.64	9.85	-29.8	-32.7	18.3	6.06e-01	0	40	0	54525952	21	5072
2026-01-11 12:43:02.45	184.71	9.94	-29.7	-32.7	18.3	6.07e-01	0	40	0	56623104	21	5055
2026-01-11 12:43:03.45	184.77	10.03	-29.7	-32.5	18.5	6.07e-01	0	40	0	58195968	21	4970
2026-01-11 12:43:04.46	184.83	10.12	-29.8	-32.7	18.3	6.08e-01	0	41	0	60293120	21	5047
2026-01-11 12:43:05.45	184.89	10.21	-29.7	-32.6	18.4	6.07e-01	0	40	0	61865984	21	5015
2026-01-11 12:43:06.45	184.96	10.30	-29.6	-32.3	18.6	6.07e-01	0	41	0	63963136	21	4903
2026-01-11 12:43:07.45	185.02	10.39	-29.6	-32.3	18.6	6.06e-01	0	41	0	65536000	21	4916
2026-01-11 12:43:08.45	185.08	10.48	-29.6	-32.2	18.7	6.05e-01	0	41	0	67633152	21	4873
2026-01-11 12:43:09.45	185.15	10.57	-29.6	-32.3	18.6	6.06e-01	0	41	0	69730304	21	4918
2026-01-11 12:43:10.46	185.21	10.67	-29.7	-32.5	18.5	6.04e-01	0	41	0	71303168	21	4967
2026-01-11 12:43:11.46	185.28	10.76	-29.7	-32.4	18.5	6.07e-01	0	40	0	73400320	21	4949
2026-01-11 12:43:12.47	185.35	10.85	-29.6	-32.4	18.6	6.08e-01	0	41	0	74973184	21	4927
2026-01-11 12:43:13.47	185.41	10.95	-29.7	-32.4	18.6	6.06e-01	0	40	0	77070336	21	4933
2026-01-11 12:43:14.47	185.48	11.04	-29.7	-32.5	18.5	6.06e-01	0	41	0	79167488	21	4962
2026-01-11 12:43:15.48	185.55	11.13	-29.6	-32.3	18.7	6.06e-01	0	41	0	80740352	21	4888
2026-01-11 12:43:16.48	185.61	11.23	-29.8	-32.7	18.4	6.07e-01	0	41	0	82837504	21	5032
2026-01-11 12:43:17.48	185.68	11.32	-29.8	-32.8	18.4	6.07e-01	0	41	0	84410368	21	5067
2026-01-11 12:43:18.48	185.75	11.42	-29.7	-32.5	18.5	6.07e-01	0	41	0	86507520	21	4985
2026-01-11 12:43:19.49	185.82	11.51	-29.6	-32.2	18.8	6.05e-01	0	41	0	88080384	21	4851
2026-01-11 12:43:20.49	185.89	11.61	-29.6	-32.2	18.7	6.07e-01	0	41	0	90177536	21	4876
2026-01-11 12:43:21.50	185.96	11.71	-29.6	-32.3	18.7	6.06e-01	0	41	0	92274688	21	4880
2026-01-11 12:43:22.50	186.03	11.80	-29.7	-32.4	18.6	6.07e-01	0	41	0	93847552	21	4930
2026-01-11 12:43:23.49	186.10	11.90	-29.6	-32.3	18.7	6.07e-01	0	41	0	95944704	21	4899
2026-01-11 12:43:24.50	186.17	12.00	-29.5	-32.0	18.9	6.06e-01	0	41	0	98041856	21	4780
2026-01-11 12:43:25.51	186.24	12.09	-29.5	-32.0	18.9	6.08e-01	0	41	0	99614720	21	4774
2026-01-11 12:43:26.51	186.32	12.19	-29.6	-32.3	18.7	6.08e-01	0	41	0	101711872	21	4882
2026-01-11 12:43:27.51	186.39	12.29	-29.6	-32.3	18.7	6.08e-01	0	41	0	103284736	21	4878
2026-01-11 12:43:28.51	186.46	12.39	-29.6	-32.3	18.7	6.05e-01	0	41	0	105381888	21	4896
2026-01-11 12:43:29.52	186.54	12.49	-29.6	-32.3	18.7	6.07e-01	0	41	0	106954752	21	4911
2026-01-11 12:43:30.53	186.61	12.59	-29.5	-32.0	18.9	6.05e-01	0	41	0	109051904	21	4797
2026-01-11 12:43:31.52	186.68	12.69	-29.6	-32.2	18.8	6.06e-01	0	41	0	111149056	21	4857
2026-01-11 12:43:32.53	186.76	12.79	-29.6	-32.2	18.8	6.05e-01	0	41	0	112721920	21	4866
2026-01-11 12:43:33.53	186.84	12.89	-29.5	-32.0	18.9	6.07e-01	0	41	0	114819072	21	4805
2026-01-11 12:43:34.53	186.91	12.99	-29.6	-32.1	18.9	6.05e-01	0	41	0	116391936	21	4819
2026-01-11 12:43:35.54	186.99	13.09	-29.6	-32.1	18.9	6.05e-01	0	41	0	118489088	21	4804
2026-01-11 12:43:36.55	187.07	13.20	-29.6	-32.3	18.8	6.06e-01	0	41	0	120061952	21	4887
2026-01-11 12:43:37.55	187.14	13.30	-29.5	-32.0	18.9	6.07e-01	0	41	0	122159104	21	4799
2026-01-11 12:43:38.56	187.22	13.40	-29.4	-32.0	19.3	6.07e-01	0	41	0	124256256	20	4899
2026-01-11 12:43:39.56	187.30	13.51	-29.5	-32.4	19.0	6.05e-01	0	41	0	125829120	20	5026
2026-01-11 12:43:40.56	187.38	13.61	-29.5	-32.4	19.1	6.06e-01	0	41	0	127926272	20	5024
2026-01-11 12:43:41.57	187.46	13.72	-29.5	-32.5	19.0	6.07e-01	0	41	0	130023424	20	5058
2026-01-11 12:43:42.57	187.54	13.82	-29.4	-32.3	19.1	6.05e-01	0	41	0	131596288	20	4973
2026-01-11 12:43:43.56	187.62	13.92	-29.4	-32.0	19.3	6.07e-01	0	41	0	133693440	20	4884
2026-01-11 12:43:44.56	187.71	14.03	-29.4	-32.0	19.3	6.07e-01	0	41	0	135266304	20	4892
2026-01-11 12:43:45.56	187.79	14.14	-29.5	-32.3	19.1	6.08e-01	0	41	0	137363456	20	4982
2026-01-11 12:43:46.57	187.87	14.24	-29.4	-32.1	19.3	6.05e-01	0	41	0	138936320	20	4923
2026-01-11 12:43:47.57	187.96	14.35	-29.5	-32.4	19.1	6.08e-01	0	41	0	141033472	20	5031
2026-01-11 12:43:48.57	188.04	14.46	-29.5	-32.4	19.1	6.07e-01	0	41	0	143130624	20	5007
2026-01-11 12:43:49.58	188.13	14.57	-29.4	-32.2	19.2	6.06e-01	0	41	0	144703488	20	4947
2026-01-11 12:43:50.58	188.21	14.68	-29.3	-31.9	19.4	6.07e-01	0	41	0	146800640	20	4851
2026-01-11 12:43:51.58	188.30	14.78	-29.4	-32.1	19.3	6.08e-01	0	41	0	148373504	20	4904
2026-01-11 12:43:52.58	188.38	14.89	-29.4	-32.0	19.4	6.09e-01	0	41	0	150470656	20	4872
2026-01-11 12:43:53.58	188.47	15.00	-29.3	-31.8	19.5	6.06e-01	0	41	0	152043520	20	4810
2026-01-11 12:43:54.59	188.56	15.12	-29.3	-31.8	19.5	6.06e-01	0	41	0	154140672	20	4817
2026-01-11 12:43:55.58	188.65	15.23	-29.3	-31.8	19.5	6.06e-01	0	41	0	156237824	20	4808
2026-01-11 12:43:56.59	188.74	15.34	-29.3	-31.8	19.5	6.08e-01	0	41	0	157810688	20	4807
2026-01-11 12:43:57.59	188.83	15.45	-29.4	-32.0	19.4	6.09e-01	0	41	0	159907840	20	4868
2026-01-11 12:43:58.60	188.92	15.56	-29.3	-31.7	19.6	6.05e-01	0	41	0	161480704	20	4777
2026-01-11 12:43:59.60	189.01	15.68	-29.3	-31.9	19.5	6.05e-01	0	41	0	163577856	20	4836
2026-01-11 12:44:00.60	189.11	15.79	-29.3	-31.9	19.4	6.08e-01	0	41	0	165675008	20	4850
2026-01-11 12:44:01.61	189.20	15.91	-29.3	-31.9	19.5	6.07e-01	0	41	0	167247872	20	4827
2026-01-11 12:44:02.61	189.29	16.02	-29.3	-31.9	19.5	6.05e-01	0	41	0	169345024	20	4843
2026-01-11 12:44:03.60	189.39	16.13	-29.3	-31.9	19.5	6.06e-01	0	41	0	170917888	20	4824
2026-01-11 12:44:04.59	189.48	16.25	-29.3	-31.9	19.5	6.08e-01	0	41	0	173015040	20	4842
2026-01-11 12:44:05.59	189.58	16.36	-29.2	-31.6	19.6	6.07e-01	0	41	0	174587904	20	4741
2026-01-11 12:44:06.59	189.67	16.48	-29.2	-31.6	19.7	6.05e-01	0	41	0	176685056	20	4740
2026-01-11 12:44:07.59	189.77	16.60	-29.2	-31.6	19.7	6.08e-01	0	41	0	178782208	20	4737
2026-01-11 12:44:08.59	189.87	16.72	-29.1	-31.4	19.8	6.07e-01	0	41	0	180355072	20	4675
2026-01-11 12:44:09.59	189.97	16.83	-29.2	-31.5	19.8	6.08e-01	0	41	0	182452224	20	4701
2026-01-11 12:44:10.60	190.07	16.95	-29.2	-31.7	19.7	6.06e-01	0	41	0	184025088	20	4759
2026-01-11 12:44:11.60	190.17	17.07	-29.2	-31.6	19.7	6.07e-01	0	41	0	186122240	20	4733
2026-01-11 12:44:12.60	190.27	17.19	-29.2	-31.5	19.8	6.06e-01	0	41	0	188219392	20	4702
2026-01-11 12:44:13.61	190.37	17.32	-29.2	-31.5	19.8	6.08e-01	0	41	0	189792256	20	4697
2026-01-11 12:44:14.61	190.48	17.44	-29.2	-31.6	19.7	6.05e-01	0	41	0	191889408	20	4717
2026-01-11 12:44:15.62	190.58	17.56	-29.2	-31.5	19.8	6.05e-01	0	41	0	193462272	20	4696
2026-01-11 12:44:16.63	190.69	17.68	-29.2	-31.5	19.8	6.05e-01	0	41	0	195559424	20	4695
2026-01-11 12:44:17.62	190.79	17.80	-29.2	-31.5	19.8	6.07e-01	0	41	0	197132288	20	4698
2026-01-11 12:44:18.63	190.90	17.93	-29.3	-31.8	19.7	6.07e-01	0	41	0	199229440	20	4792
2026-01-11 12:44:19.62	191.01	18.05	-29.2	-31.5	19.8	6.06e-01	0	41	0	201326592	20	4686
2026-01-11 12:44:20.63	191.12	18.18	-29.0	-31.1	20.1	6.06e-01	0	42	0	202899456	20	4562
2026-01-11 12:44:21.63	191.23	18.30	-29.0	-31.0	20.2	6.09e-01	0	41	0	204996608	20	4518
2026-01-11 12:44:22.63	191.34	18.43	-29.1	-31.2	20.0	6.06e-01	0	41	0	206569472	20	4595
2026-01-11 12:44:23.64	191.45	18.56	-29.1	-31.3	20.0	6.05e-01	0	41	0	208666624	20	4628
2026-01-11 12:44:24.64	191.56	18.68	-29.2	-31.5	19.9	6.06e-01	0	41	0	210239488	20	4672
2026-01-11 12:44:25.64	191.68	18.81	-29.2	-31.5	19.9	6.07e-01	0	41	0	212336640	20	4691
2026-01-11 12:44:26.63	191.79	18.94	-29.3	-31.6	19.8	6.07e-01	0	41	0	214433792	20	4729
2026-01-11 12:44:27.64	191.90	19.07	-29.2	-31.6	19.8	6.06e-01	0	41	0	216006656	20	4720
2026-01-11 12:44:28.64	192.02	19.20	-29.2	-31.5	19.8	6.05e-01	0	41	0	218103808	20	4700
2026-01-11 12:44:29.64	192.14	19.33	-29.3	-31.8	19.7	6.05e-01	0	41	0	219676672	20	4780
2026-01-11 12:44:30.64	192.26	19.46	-29.5	-32.3	19.4	6.05e-01	0	41	0	221773824	20	4957
2026-01-11 12:44:31.64	192.38	19.59	-29.7	-32.7	19.2	6.07e-01	0	41	0	223870976	20	5093
2026-01-11 12:44:32.65	192.50	19.73	-29.7	-32.7	19.2	6.07e-01	0	41	0	225443840	20	5114
2026-01-11 12:44:33.65	192.62	19.86	-29.8	-33.1	19.0	6.07e-01	0	41	0	227540992	20	5247
2026-01-11 12:44:34.66	192.74	19.99	-29.6	-32.6	19.2	6.04e-01	0	41	0	229113856	20	5079
2026-01-11 12:44:35.65	192.86	20.13	-29.5	-32.3	19.4	6.06e-01	0	41	0	231211008	20	4957
2026-01-11 12:44:36.66	192.99	20.26	-29.6	-32.5	19.3	6.09e-01	0	42	0	233308160	20	5044
2026-01-11 12:44:37.66	193.12	20.40	-29.6	-32.4	19.4	6.08e-01	0	42	0	234881024	20	5005
2026-01-11 12:44:38.66	193.24	20.54	-29.8	-33.0	19.0	6.06e-01	0	41	0	236978176	20	5211
2026-01-11 12:44:39.67	193.37	20.67	-29.7	-32.7	19.2	6.07e-01	0	41	0	238551040	20	5077
2026-01-11 12:44:40.67	193.50	20.81	-29.5	-32.2	19.5	6.08e-01	0	41	0	240648192	20	4929
2026-01-11 12:44:41.67	193.63	20.95	-29.4	-31.9	19.7	6.07e-01	0	41	0	242221056	20	4814
2026-01-11 12:44:42.68	193.76	21.09	-29.3	-31.8	19.8	6.06e-01	0	41	0	244318208	20	4785
2026-01-11 12:44:43.68	193.90	21.23	-29.3	-31.7	19.9	6.08e-01	0	41	0	246415360	20	4739
2026-01-11 12:44:44.68	194.03	21.37	-29.3	-31.6	19.9	6.08e-01	0	42	0	247988224	20	4725
2026-01-11 12:44:45.69	194.17	21.51	-29.4	-31.9	19.7	6.05e-01	0	41	0	250085376	20	4805
2026-01-11 12:44:46.69	194.30	21.65	-29.3	-31.8	19.8	6.03e-01	0	41	0	251658240	20	4788
2026-01-11 12:44:47.70	194.44	21.80	-29.4	-31.9	19.8	6.07e-01	0	42	0	253755392	20	4821
2026-01-11 12:44:48.70	194.58	21.94	-29.4	-31.9	19.7	6.06e-01	0	41	0	255852544	20	4819
2026-01-11 12:44:49.71	194.73	22.09	-29.5	-32.2	19.5	6.03e-01	0	41	0	257425408	20	4931
2026-01-11 12:44:50.72	194.87	22.23	-29.5	-32.3	19.5	6.05e-01	0	42	0	259522560	20	4957
2026-01-11 12:44:51.72	195.01	22.38	-29.5	-32.2	19.5	6.06e-01	0	41	0	261095424	20	4922
2026-01-11 12:44:52.72	195.16	22.53	-29.5	-32.2	19.5	6.06e-01	0	41	0	263192576	20	4908
2026-01-11 12:44:53.73	195.30	22.67	-29.7	-32.6	19.3	6.06e-01	0	42	0	265289728	20	5076
2026-01-11 12:44:54.73	195.45	22.82	-29.6	-32.5	19.4	6.05e-01	0	41	0	266862592	20	5013
2026-01-11 12:44:55.74	195.60	22.97	-29.5	-32.3	19.5	6.07e-01	0	42	0	268959744	20	4943
2026-01-11 12:44:56.75	195.75	23.12	-29.5	-32.2	19.5	6.08e-01	0	41	0	270532608	20	4932
2026-01-11 12:44:57.75	195.91	23.27	-29.5	-32.3	19.5	6.08e-01	0	42	0	272629760	20	4962
2026-01-11 12:44:58.75	196.06	23.42	-29.6	-32.4	19.5	6.07e-01	0	42	0	274726912	20	4984
2026-01-11 12:44:59.76	196.21	23.58	-29.5	-32.1	19.6	6.06e-01	0	41	0	276299776	20	4898
2026-01-11 12:45:00.75	196.37	23.73	-29.3	-31.7	19.9	6.05e-01	0	41	0	278396928	20	4763
2026-01-11 12:45:01.74	196.53	23.88	-29.3	-31.8	19.8	6.06e-01	0	41	0	279969792	20	4775
2026-01-11 12:45:02.73	196.68	24.03	-29.4	-31.9	19.8	6.04e-01	0	42	0	282066944	20	4797
2026-01-11 12:45:03.73	196.84	24.19	-29.4	-32.0	19.8	6.06e-01	0	41	0	283639808	20	4840
2026-01-11 12:45:04.73	197.01	24.34	-29.4	-32.1	19.7	6.06e-01	0	41	0	285736960	20	4879
2026-01-11 12:45:05.73	197.17	24.50	-29.4	-31.9	19.8	6.06e-01	0	41	0	287309824	20	4812
2026-01-11 12:45:06.74	197.34	24.65	-29.4	-31.9	19.8	6.05e-01	0	41	0	289406976	20	4817
2026-01-11 12:45:07.74	197.51	24.81	-29.5	-32.1	19.7	6.06e-01	0	42	0	291504128	20	4894
2026-01-11 12:45:08.73	197.68	24.97	-29.3	-31.7	19.9	6.07e-01	0	41	0	293076992	20	4735
2026-01-11 12:45:09.73	197.85	25.13	-29.2	-31.5	20.0	6.07e-01	0	42	0	295174144	20	4681
2026-01-11 12:45:10.73	198.02	25.29	-29.3	-31.8	19.9	6.06e-01	0	41	0	296747008	20	4767
2026-01-11 12:45:11.73	198.19	25.45	-29.4	-31.9	19.8	6.06e-01	0	41	0	298844160	20	4815
2026-01-11 12:45:12.73	198.37	25.61	-29.3	-31.7	19.9	6.04e-01	0	42	0	300941312	20	4756
2026-01-11 12:45:13.73	198.55	25.77	-29.3	-31.6	20.0	6.07e-01	0	41	0	302514176	20	4694
2026-01-11 12:45:14.72	198.73	25.93	-29.3	-31.6	20.0	6.07e-01	0	42	0	304611328	20	4700
2026-01-11 12:45:15.73	198.91	26.10	-29.3	-31.6	20.0	6.06e-01	0	42	0	306184192	20	4726
2026-01-11 12:45:16.73	199.10	26.27	-29.3	-31.8	19.9	6.07e-01	0	42	0	308281344	20	4772
2026-01-11 12:45:17.73	199.28	26.43	-29.4	-32.0	19.8	6.05e-01	0	41	0	309854208	20	4862
2026-01-11 12:45:18.73	199.47	26.60	-29.2	-31.5	20.1	6.08e-01	0	42	0	311951360	20	4673
2026-01-11 12:45:19.74	199.66	26.77	-29.1	-31.2	20.2	6.07e-01	0	42	0	314048512	20	4599
2026-01-11 12:45:20.75	199.85	26.94	-29.4	-31.8	19.9	6.06e-01	0	41	0	315621376	20	4789
2026-01-11 12:45:21.76	200.05	27.11	-29.2	-31.5	20.1	6.05e-01	0	42	0	317718528	20	4689
2026-01-11 12:45:22.76	200.25	27.28	-29.1	-31.2	20.3	6.07e-01	0	42	0	319291392	20	4582
2026-01-11 12:45:23.76	200.45	27.45	-29.1	-31.1	20.3	6.08e-01	0	42	0	321388544	20	4563
2026-01-11 12:45:24.76	200.65	27.62	-28.9	-30.8	20.5	6.08e-01	0	42	0	323485696	20	4441
2026-01-11 12:45:25.77	200.85	27.79	-29.0	-30.8	20.5	6.07e-01	0	41	0	325058560	20	4460
2026-01-11 12:45:26.77	201.06	27.96	-29.1	-31.2	20.3	6.06e-01	0	41	0	327155712	20	4580
2026-01-11 12:45:27.77	201.26	28.14	-29.2	-31.3	20.3	6.07e-01	0	42	0	328728576	20	4602
2026-01-11 12:45:28.78	201.47	28.31	-29.1	-31.2	20.3	6.08e-01	0	42	0	330825728	20	4558
2026-01-11 12:45:29.78	201.69	28.49	-29.2	-31.3	20.3	6.07e-01	0	42	0	332398592	20	4608
2026-01-11 12:45:30.77	201.90	28.66	-29.2	-31.5	20.2	6.06e-01	0	42	0	334495744	20	4653
2026-01-11 12:45:31.77	202.12	28.84	-29.2	-31.3	20.3	6.07e-01	0	42	0	336592896	20	4614
2026-01-11 12:45:32.77	202.33	29.02	-29.1	-31.2	20.4	6.06e-01	0	42	0	338165760	20	4565
2026-01-11 12:45:33.77	202.56	29.19	-29.0	-31.0	20.5	6.07e-01	0	42	0	340262912	20	4507
2026-01-11 12:45:34.78	202.78	29.38	-29.2	-31.3	20.3	6.06e-01	0	42	0	341835776	20	4597
2026-01-11 12:45:35.79	203.01	29.56	-29.0	-30.9	20.5	6.06e-01	0	41	0	343932928	20	4477
2026-01-11 12:45:36.79	203.24	29.74	-29.0	-30.9	20.5	6.06e-01	0	41	0	346030080	20	4483
2026-01-11 12:45:37.79	203.47	29.92	-29.1	-31.1	20.4	6.06e-01	0	42	0	347602944	20	4547
2026-01-11 12:45:38.79	203.71	30.10	-29.3	-31.5	20.2	6.07e-01	0	41	0	349700096	20	4661
2026-01-11 12:45:39.79	203.94	30.28	-29.3	-31.5	20.2	6.07e-01	0	41	0	351272960	20	4666
2026-01-11 12:45:40.79	204.18	30.47	-29.3	-31.7	20.1	6.07e-01	0	41	0	353370112	20	4717
2026-01-11 12:45:41.79	204.43	30.65	-29.1	-31.2	20.4	6.04e-01	0	41	0	354942976	20	4562
2026-01-11 12:45:42.78	204.67	30.83	-29.0	-31.0	20.5	6.05e-01	0	41	0	357040128	20	4491
2026-01-11 12:45:43.77	204.91	31.02	-29.1	-31.1	20.5	6.05e-01	0	42	0	359137280	20	4524
2026-01-11 12:45:44.77	205.17	31.20	-29.1	-31.2	20.4	6.06e-01	0	42	0	360710144	20	4561
2026-01-11 12:45:45.76	205.42	31.39	-29.3	-31.7	20.1	6.04e-01	0	41	0	362807296	20	4719
2026-01-11 12:45:46.76	205.67	31.58	-29.2	-31.4	20.3	6.08e-01	0	42	0	364380160	20	4625
2026-01-11 12:45:47.75	205.93	31.76	-29.2	-31.3	20.3	6.10e-01	0	42	0	366477312	20	4601
2026-01-11 12:45:48.75	206.20	31.95	-29.3	-31.7	20.1	6.06e-01	0	42	0	368050176	20	4716
2026-01-11 12:45:49.74	206.46	32.14	-29.3	-31.5	20.2	6.07e-01	0	42	0	370147328	20	4652
2026-01-11 12:45:50.74	206.73	32.33	-29.3	-31.5	20.2	6.06e-01	0	41	0	371720192	20	4671
2026-01-11 12:45:51.74	207.00	32.52	-29.3	-31.7	20.1	6.06e-01	0	42	0	373817344	20	4726
2026-01-11 12:45:52.73	207.27	32.71	-29.4	-31.8	20.1	6.05e-01	0	41	0	375914496	20	4754
2026-01-11 12:45:53.73	207.55	32.90	-29.3	-31.5	20.2	6.05e-01	0	42	0	377487360	20	4662
2026-01-11 12:45:54.72	207.83	33.09	-29.5	-32.0	20.0	6.09e-01	0	42	0	379584512	20	4808
2026-01-11 12:45:55.72	208.12	33.29	-29.6	-32.4	19.7	6.08e-01	0	41	0	381157376	20	4950
2026-01-11 12:45:56.71	208.41	33.48	-29.6	-32.2	19.8	6.05e-01	0	42	0	383254528	20	4895
2026-01-11 12:45:57.71	208.70	33.67	-29.6	-32.4	19.7	6.06e-01	0	41	0	384827392	20	4965
2026-01-11 12:45:58.70	208.99	33.86	-29.7	-32.7	19.6	6.07e-01	0	41	0	386924544	20	5046
2026-01-11 12:45:59.70	209.29	34.06	-29.7	-32.6	19.6	6.07e-01	0	42	0	388497408	20	5017
2026-01-11 12:46:00.69	209.59	34.25	-29.9	-33.2	19.3	6.06e-01	0	41	0	390594560	20	5248
2026-01-11 12:46:01.69	209.90	34.45	-29.8	-33.0	19.4	6.05e-01	0	41	0	392691712	20	5158
2026-01-11 12:46:02.68	210.21	34.64	-29.8	-32.7	19.6	6.05e-01	0	42	0	394264576	20	5059
2026-01-11 12:46:03.68	210.52	34.84	-29.8	-33.0	19.4	6.06e-01	0	41	0	396361728	20	5154
2026-01-11 12:46:04.67	210.84	35.04	-30.0	-33.4	19.2	6.08e-01	0	42	0	397934592	20	5304
2026-01-11 12:46:05.66	211.16	35.23	-30.0	-33.3	19.2	6.05e-01	0	41	0	400031744	20	5292
2026-01-11 12:46:06.64	211.48	35.43	-30.0	-33.3	19.2	6.06e-01	0	41	0	401604608	20	5296
2026-01-11 12:46:07.64	211.81	35.62	-29.8	-32.9	19.5	6.06e-01	0	41	0	403701760	20	5124
2026-01-11 12:46:08.63	212.14	35.82	-29.7	-32.4	19.7	6.06e-01	0	41	0	405274624	20	4965
2026-01-11 12:46:09.63	212.48	36.02	-29.9	-33.0	19.4	6.05e-01	0	41	0	407371776	20	5155
2026-01-11 12:46:10.62	212.82	36.22	-30.0	-33.3	19.2	6.08e-01	0	42	0	409468928	20	5261
2026-01-11 12:46:11.61	213.16	36.41	-29.8	-32.8	19.5	6.07e-01	0	42	0	411041792	20	5104
2026-01-11 12:46:12.61	213.51	36.61	-29.8	-32.8	19.5	6.06e-01	0	42	0	413138944	20	5083
2026-01-11 12:46:13.60	213.86	36.81	-30.1	-33.5	19.1	6.07e-01	0	42	0	414711808	20	5370
2026-01-11 12:46:14.59	214.22	37.01	-30.1	-33.2	19.0	6.02e-01	0	42	0	416808960	21	5120
2026-01-11 12:46:15.58	214.58	37.20	-29.9	-32.6	19.3	6.06e-01	0	42	0	418381824	21	4921
2026-01-11 12:46:16.58	214.95	37.40	-29.9	-32.6	19.3	6.07e-01	0	42	0	420478976	21	4920
2026-01-11 12:46:17.57	215.32	37.60	-29.8	-32.4	19.5	6.08e-01	0	42	0	422051840	21	4823
2026-01-11 12:46:18.58	215.70	37.80	-30.0	-32.8	19.3	6.06e-01	0	42	0	424148992	21	4960
2026-01-11 12:46:19.57	216.08	38.00	-29.9	-32.7	19.3	6.05e-01	0	42	0	426246144	21	4946
2026-01-11 12:46:20.56	216.46	38.20	-29.9	-32.6	19.4	6.06e-01	0	42	0	427819008	21	4906
2026-01-11 12:46:21.55	216.85	38.39	-29.9	-32.6	19.4	6.08e-01	0	42	0	429916160	21	4910
2026-01-11 12:46:22.55	217.25	38.59	-29.9	-32.5	19.4	6.06e-01	0	42	0	431489024	21	4886
2026-01-11 12:46:23.55	217.65	38.79	-29.9	-32.4	19.5	6.07e-01	0	42	0	433586176	21	4852
2026-01-11 12:46:24.54	218.05	38.99	-29.9	-32.5	19.4	6.07e-01	0	42	0	435159040	21	4866
2026-01-11 12:46:25.53	218.46	39.18	-29.7	-32.1	19.7	6.07e-01	0	42	0	437256192	21	4712
2026-01-11 12:46:26.53	218.88	39.38	-29.9	-32.5	19.5	6.07e-01	0	42	0	438829056	21	4875
2026-01-11 12:46:27.52	219.29	39.58	-29.8	-32.3	19.6	6.07e-01	0	42	0	440926208	21	4800
2026-01-11 12:46:28.52	219.72	39.77	-29.8	-32.4	19.6	6.08e-01	0	42	0	443023360	21	4817
2026-01-11 12:46:29.51	220.15	39.97	-29.8	-32.3	19.6	6.06e-01	0	42	0	444596224	21	4811
2026-01-11 12:46:30.51	220.58	40.16	-29.6	-31.8	19.9	6.05e-01	0	42	0	446693376	21	4631
2026-01-11 12:46:31.50	221.02	40.35	-29.7	-31.9	19.8	6.08e-01	0	42	0	448266240	21	4671
2026-01-11 12:46:32.50	221.47	40.55	-29.9	-32.5	19.4	6.07e-01	0	42	0	450363392	21	4876
2026-01-11 12:46:33.49	221.92	40.74	-29.9	-32.6	19.4	6.07e-01	0	42	0	451936256	21	4894
2026-01-11 12:46:34.50	222.38	40.93	-29.8	-32.3	19.6	6.07e-01	0	42	0	454033408	21	4809
2026-01-11 12:46:35.50	222.85	41.12	-29.4	-31.3	20.2	6.05e-01	0	42	0	456130560	21	4479
2026-01-11 12:46:36.50	223.32	41.31	-29.4	-31.3	20.2	6.06e-01	0	42	0	457703424	21	4482
2026-01-11 12:46:37.51	223.80	41.50	-29.4	-31.8	20.3	6.06e-01	0	42	0	459800576	20	4744
2026-01-11 12:46:38.50	224.27	41.69	-29.3	-31.5	20.4	6.07e-01	0	42	0	461373440	20	4658
2026-01-11 12:46:39.51	224.77	41.88	-29.3	-31.4	20.4	6.05e-01	0	42	0	463470592	20	4618
2026-01-11 12:46:40.51	225.26	42.06	-29.0	-30.7	20.9	6.06e-01	0	42	0	465567744	20	4384
2026-01-11 12:46:41.51	225.76	42.25	-29.1	-30.9	20.7	6.08e-01	0	42	0	467140608	20	4461
2026-01-11 12:46:42.50	226.25	42.43	-29.1	-31.0	20.7	6.07e-01	0	42	0	469237760	20	4489
2026-01-11 12:46:43.50	226.76	42.61	-29.1	-31.0	20.7	6.05e-01	0	42	0	470810624	20	4467
2026-01-11 12:46:44.50	227.28	42.79	-29.0	-30.8	20.8	6.07e-01	0	42	0	472907776	20	4417
2026-01-11 12:46:45.50	227.80	42.96	-28.9	-30.6	21.0	6.07e-01	0	42	0	474480640	20	4348
2026-01-11 12:46:46.51	228.33	43.14	-29.0	-30.7	20.9	6.06e-01	0	42	0	476577792	20	4381
2026-01-11 12:46:47.50	228.86	43.31	-29.0	-30.9	20.8	6.05e-01	0	42	0	478674944	20	4441
2026-01-11 12:46:48.50	229.40	43.49	-28.9	-31.0	21.1	6.06e-01	0	42	0	480247808	19	4565
2026-01-11 12:46:49.51	229.95	43.66	-28.9	-31.1	21.0	6.08e-01	0	42	0	482344960	19	4609
2026-01-11 12:46:50.51	230.50	43.83	-28.8	-30.8	21.1	6.05e-01	0	41	0	483917824	19	4524
2026-01-11 12:46:51.52	231.06	43.99	-28.8	-30.8	21.2	6.05e-01	0	42	0	486014976	19	4518
2026-01-11 12:46:52.51	231.62	44.16	-28.9	-30.9	21.1	6.07e-01	0	42	0	487587840	19	4549
2026-01-11 12:46:53.52	232.19	44.32	-28.8	-30.7	21.2	6.05e-01	0	42	0	489684992	19	4500
2026-01-11 12:46:54.52	232.76	44.48	-28.7	-30.6	21.3	6.05e-01	0	42	0	491782144	19	4451
2026-01-11 12:46:55.52	233.34	44.64	-28.7	-30.6	21.3	6.08e-01	0	42	0	493355008	19	4444
2026-01-11 12:46:56.52	233.93	44.79	-28.8	-30.8	21.2	6.07e-01	0	42	0	495452160	19	4527
2026-01-11 12:46:57.52	234.52	44.94	-28.9	-30.9	21.1	6.06e-01	0	42	0	497025024	19	4544
2026-01-11 12:46:58.53	235.12	45.09	-28.8	-30.7	21.2	6.09e-01	0	42	0	499122176	19	4483
2026-01-11 12:46:59.52	235.71	45.24	-28.8	-30.7	21.2	6.07e-01	0	42	0	500695040	19	4495
2026-01-11 12:47:00.53	236.33	45.38	-29.1	-31.4	20.9	6.07e-01	0	42	0	502792192	19	4694
2026-01-11 12:47:01.53	236.94	45.52	-29.1	-31.4	20.8	6.06e-01	0	42	0	504889344	19	4688
2026-01-11 12:47:02.53	237.56	45.66	-29.3	-31.8	20.7	6.05e-01	0	42	0	506462208	19	4840
2026-01-11 12:47:03.53	238.18	45.79	-29.3	-31.9	20.6	6.07e-01	0	42	0	508559360	19	4874
2026-01-11 12:47:04.53	238.81	45.93	-29.2	-31.7	20.7	6.06e-01	0	42	0	510132224	19	4803
2026-01-11 12:47:05.53	239.44	46.05	-29.4	-32.3	20.4	6.07e-01	0	42	0	512229376	19	5000
2026-01-11 12:47:06.54	240.09	46.18	-29.2	-31.7	20.7	6.06e-01	0	42	0	513802240	19	4811
2026-01-11 12:47:07.53	240.73	46.30	-29.5	-32.3	20.4	6.07e-01	0	42	0	515899392	19	5013
2026-01-11 12:47:08.54	241.38	46.42	-29.4	-32.2	20.4	6.06e-01	0	42	0	517996544	19	4943
2026-01-11 12:47:09.55	242.04	46.53	-29.4	-32.3	20.4	6.07e-01	0	42	0	519569408	19	4992
2026-01-11 12:47:10.55	242.70	46.64	-29.3	-32.0	20.5	6.06e-01	0	42	0	521666560	19	4896
2026-01-11 12:47:11.55	243.36	46.75	-29.2	-31.6	20.8	6.06e-01	0	42	0	523239424	19	4774
2026-01-11 12:47:12.55	244.03	46.85	-29.3	-31.9	20.6	6.06e-01	0	42	0	525336576	19	4866
2026-01-11 12:47:13.55	244.70	46.95	-29.3	-31.8	20.6	6.07e-01	0	42	0	527433728	19	4836
2026-01-11 12:47:14.54	245.37	47.04	-29.3	-31.9	20.6	6.08e-01	0	42	0	529006592	19	4851
2026-01-11 12:47:15.54	246.05	47.13	-29.5	-32.3	20.4	6.03e-01	0	42	0	531103744	19	5013
2026-01-11 12:47:16.55	246.74	47.22	-29.4	-32.2	20.4	6.06e-01	0	42	0	532676608	19	4959
2026-01-11 12:47:17.55	247.43	47.30	-29.7	-32.4	20.0	6.06e-01	0	42	0	534773760	20	4915
2026-01-11 12:47:18.56	248.13	47.38	-29.6	-32.3	20.1	6.04e-01	0	42	0	536870912	20	4875
2026-01-11 12:47:19.56	248.82	47.45	-29.6	-32.1	20.1	6.06e-01	0	42	0	538443776	20	4827
2026-01-11 12:47:20.56	249.52	47.52	-29.5	-32.1	20.2	6.08e-01	0	42	0	540540928	20	4813
2026-01-11 12:47:21.56	250.22	47.59	-29.6	-32.3	20.0	6.06e-01	0	42	0	542113792	20	4902
2026-01-11 12:47:22.56	250.93	47.65	-29.7	-32.4	20.0	6.07e-01	0	42	0	544210944	20	4932
2026-01-11 12:47:23.56	251.63	47.71	-29.6	-32.3	20.0	6.06e-01	0	42	0	545783808	20	4884
2026-01-11 12:47:24.56	252.34	47.76	-29.7	-32.3	20.0	6.07e-01	0	42	0	547880960	20	4903
2026-01-11 12:47:25.57	253.06	47.80	-29.7	-32.5	19.9	6.06e-01	0	42	0	549978112	20	4961
2026-01-11 12:47:26.57	253.77	47.85	-29.5	-32.0	20.2	6.04e-01	0	42	0	551550976	20	4783
2026-01-11 12:47:27.58	254.49	47.88	-29.8	-32.8	19.8	6.08e-01	0	42	0	553648128	20	5059
2026-01-11 12:47:28.58	255.21	47.92	-29.9	-33.0	19.6	6.04e-01	0	42	0	555220992	20	5133
2026-01-11 12:47:29.58	255.93	47.95	-29.6	-32.2	20.1	6.06e-01	0	42	0	557318144	20	4844
2026-01-11 12:47:30.58	256.65	47.97	-29.7	-32.5	20.0	6.05e-01	0	42	0	558891008	20	4939
2026-01-11 12:47:31.59	257.37	47.99	-29.7	-32.6	19.9	6.04e-01	0	42	0	560988160	20	4978
2026-01-11 12:47:32.59	258.09	48.00	-30.0	-33.3	19.4	6.07e-01	0	42	0	563085312	20	5267
2026-01-11 12:47:33.59	258.81	48.01	-29.8	-32.7	19.8	6.09e-01	0	42	0	564658176	20	5024
2026-01-11 12:47:34.59	259.54	48.01	-29.6	-32.3	20.0	6.03e-01	0	42	0	566755328	20	4893
2026-01-11 12:47:35.59	260.26	48.01	-29.6	-32.2	20.1	6.08e-01	0	41	0	568328192	20	4859
2026-01-11 12:47:36.58	260.97	48.01	-29.9	-33.0	19.6	6.07e-01	0	41	0	570425344	20	5132
2026-01-11 12:47:37.57	261.69	48.00	-29.5	-31.9	20.3	6.07e-01	0	42	0	572522496	20	4756
2026-01-11 12:47:38.56	262.40	47.98	-29.8	-32.7	19.8	6.08e-01	0	42	0	574095360	20	5017
2026-01-11 12:47:39.56	263.12	47.97	-29.7	-32.5	19.9	6.06e-01	0	42	0	576192512	20	4946
2026-01-11 12:47:40.56	263.84	47.94	-30.0	-33.1	19.5	6.07e-01	0	42	0	577765376	20	5186
2026-01-11 12:47:41.56	264.55	47.91	-29.6	-32.1	20.2	6.06e-01	0	42	0	579862528	20	4808
2026-01-11 12:47:42.56	265.27	47.88	-29.8	-32.8	19.8	6.07e-01	0	42	0	581435392	20	5052
2026-01-11 12:47:43.56	265.98	47.84	-29.8	-32.8	19.7	6.06e-01	0	42	0	583532544	20	5061
2026-01-11 12:47:44.55	266.69	47.80	-29.9	-32.9	19.7	6.06e-01	0	42	0	585105408	20	5085
2026-01-11 12:47:45.55	267.40	47.75	-29.7	-32.5	20.1	6.06e-01	0	42	0	587202560	20	4943
2026-01-11 12:47:46.54	268.10	47.70	-30.1	-32.9	19.4	6.06e-01	0	42	0	589299712	21	4991
2026-01-11 12:47:47.54	268.80	47.64	-29.8	-32.3	19.8	6.06e-01	0	42	0	590872576	21	4773
2026-01-11 12:47:48.54	269.51	47.58	-29.9	-32.6	19.6	6.04e-01	0	42	0	592969728	21	4869
2026-01-11 12:47:49.54	270.21	47.52	-29.9	-32.3	19.8	6.08e-01	0	42	0	594542592	21	4775
2026-01-11 12:47:50.55	270.91	47.45	-30.4	-33.7	18.9	6.06e-01	0	42	0	596639744	21	5284
2026-01-11 12:47:51.55	271.60	47.37	-30.2	-33.3	19.2	6.07e-01	0	42	0	598212608	21	5144
2026-01-11 12:47:52.55	272.29	47.29	-30.2	-33.2	19.2	6.06e-01	0	42	0	600309760	21	5086
2026-01-11 12:47:53.54	272.97	47.21	-30.0	-32.7	19.5	6.05e-01	0	42	0	602406912	21	4917
2026-01-11 12:47:54.54	273.66	47.12	-30.2	-33.2	19.2	6.06e-01	0	42	0	603979776	21	5079
2026-01-11 12:47:55.55	274.34	47.03	-30.1	-32.8	19.4	6.04e-01	0	42	0	606076928	21	4963
2026-01-11 12:47:56.55	275.02	46.94	-30.3	-33.6	18.9	6.06e-01	0	42	0	607649792	21	5257
2026-01-11 12:47:57.55	275.69	46.84	-30.6	-33.7	18.5	6.05e-01	0	42	0	609746944	22	5178
2026-01-11 12:47:58.56	276.36	46.74	-30.3	-33.1	18.9	6.07e-01	0	42	0	611844096	22	4943
2026-01-11 12:47:59.56	277.02	46.63	-30.7	-34.1	18.3	6.07e-01	0	42	0	613416960	22	5338
2026-01-11 12:48:00.56	277.68	46.52	-30.8	-34.4	18.1	6.06e-01	0	42	0	615514112	22	5454
2026-01-11 12:48:01.57	278.34	46.40	-30.5	-33.5	18.7	6.08e-01	0	42	0	617086976	22	5091
2026-01-11 12:48:02.57	278.98	46.29	-30.1	-32.5	19.3	6.06e-01	0	42	0	619184128	22	4746
2026-01-11 12:48:03.57	279.62	46.17	-29.9	-32.0	19.6	6.05e-01	0	42	0	621281280	22	4566
2026-01-11 12:48:04.57	280.26	46.04	-29.8	-32.3	19.8	6.08e-01	0	42	0	622854144	21	4771
2026-01-11 12:48:05.56	280.89	45.91	-29.9	-32.5	19.7	6.08e-01	0	42	0	624951296	21	4840
2026-01-11 12:48:06.56	281.51	45.78	-30.0	-32.8	19.5	6.04e-01	0	42	0	626524160	21	4940
2026-01-11 12:48:07.56	282.14	45.65	-29.7	-32.0	19.9	6.07e-01	0	42	0	628621312	21	4689
2026-01-11 12:48:08.55	282.75	45.51	-29.9	-32.4	19.7	6.06e-01	0	42	0	630194176	21	4803
2026-01-11 12:48:09.56	283.36	45.37	-30.0	-32.6	19.6	6.08e-01	0	42	0	632291328	21	4881
2026-01-11 12:48:10.56	283.97	45.23	-29.8	-32.3	19.8	6.06e-01	0	42	0	634388480	21	4777
2026-01-11 12:48:11.55	284.56	45.08	-30.2	-33.1	19.3	6.06e-01	0	42	0	635961344	21	5060
2026-01-11 12:48:12.55	285.16	44.94	-29.8	-32.3	19.8	6.06e-01	0	42	0	638058496	21	4763
2026-01-11 12:48:13.55	285.75	44.78	-30.0	-32.7	19.6	6.07e-01	0	42	0	639631360	21	4915
2026-01-11 12:48:14.55	286.33	44.63	-30.1	-33.1	19.2	6.06e-01	0	42	0	641728512	21	5047
2026-01-11 12:48:15.55	286.91	44.47	-30.0	-32.8	19.5	6.08e-01	0	42	0	643301376	21	4944
2026-01-11 12:48:16.56	287.48	44.31	-30.1	-33.1	19.3	6.07e-01	0	42	0	645398528	21	5043
2026-01-11 12:48:17.56	288.05	44.15	-30.2	-33.3	19.2	6.06e-01	0	42	0	647495680	21	5110
2026-01-11 12:48:18.56	288.61	43.99	-30.0	-32.8	19.5	6.06e-01	0	42	0	649068544	21	4934
2026-01-11 12:48:19.57	289.17	43.82	-30.0	-32.6	19.5	6.02e-01	0	42	0	651165696	21	4880
2026-01-11 12:48:20.57	289.72	43.65	-30.0	-32.6	19.6	6.07e-01	0	42	0	652738560	21	4879
2026-01-11 12:48:21.58	290.26	43.48	-30.1	-32.9	19.4	6.08e-01	0	42	0	654835712	21	4987
2026-01-11 12:48:22.58	290.80	43.31	-29.9	-32.5	19.7	6.06e-01	0	42	0	656408576	21	4834
2026-01-11 12:48:23.58	291.33	43.14	-30.1	-32.8	19.5	6.05e-01	0	42	0	658505728	21	4953
2026-01-11 12:48:24.58	291.86	42.96	-30.2	-33.3	19.2	6.08e-01	0	42	0	660602880	21	5110
2026-01-11 12:48:25.58	292.38	42.78	-30.4	-33.7	19.0	6.08e-01	0	42	0	662175744	21	5269
2026-01-11 12:48:26.57	292.88	42.61	-30.3	-33.4	19.1	6.07e-01	0	42	0	664272896	21	5178
2026-01-11 12:48:27.58	293.40	42.42	-30.1	-32.8	19.4	6.05e-01	0	42	0	665845760	21	4963
2026-01-11 12:48:28.56	293.89	42.25	-30.0	-32.7	19.5	6.07e-01	0	42	0	667942912	21	4925
2026-01-11 12:48:29.56	294.39	42.06	-30.0	-32.7	19.6	6.07e-01	0	42	0	669515776	21	4918
2026-01-11 12:48:30.56	294.88	41.88	-30.3	-33.4	19.1	6.03e-01	0	42	0	671612928	21	5157
2026-01-11 12:48:31.56	295.36	41.69	-30.3	-33.6	19.0	6.07e-01	0	42	0	673710080	21	5232
2026-01-11 12:48:32.55	295.84	41.51	-30.1	-32.9	19.4	6.07e-01	0	42	0	675282944	21	4984
2026-01-11 12:48:33.56	296.31	41.32	-30.2	-33.2	19.3	6.07e-01	0	42	0	677380096	21	5088
2026-01-11 12:48:34.56	296.78	41.13	-30.4	-33.7	18.9	6.08e-01	0	42	0	678952960	21	5276
2026-01-11 12:48:35.56	297.25	40.94	-30.3	-33.5	19.1	6.05e-01	0	42	0	681050112	21	5192
2026-01-11 12:48:36.56	297.70	40.75	-30.4	-33.9	18.8	6.09e-01	0	42	0	683147264	21	5357
2026-01-11 12:48:37.57	298.16	40.55	-30.4	-33.7	18.9	6.06e-01	0	42	0	684720128	21	5284
2026-01-11 12:48:38.57	298.61	40.36	-30.1	-33.1	19.3	6.07e-01	0	42	0	686817280	21	5039
2026-01-11 12:48:39.58	299.05	40.17	-30.2	-33.3	19.2	6.07e-01	0	42	0	688390144	21	5111
2026-01-11 12:48:40.58	299.49	39.97	-30.4	-33.8	18.9	6.07e-01	0	42	0	690487296	21	5306
2026-01-11 12:48:41.58	299.92	39.78	-30.3	-33.5	19.0	6.07e-01	0	42	0	692060160	21	5215
2026-01-11 12:48:42.58	300.34	39.58	-30.4	-33.6	19.0	6.07e-01	0	42	0	694157312	21	5258
2026-01-11 12:48:43.58	300.76	39.39	-30.3	-33.6	19.0	6.05e-01	0	42	0	696254464	21	5229
2026-01-11 12:48:44.59	301.18	39.19	-30.2	-33.2	19.2	6.05e-01	0	42	0	697827328	21	5093
2026-01-11 12:48:45.60	301.60	38.99	-30.1	-32.9	19.4	6.07e-01	0	42	0	699924480	21	4964
2026-01-11 12:48:46.61	302.00	38.79	-30.0	-32.6	19.6	6.05e-01	0	42	0	701497344	21	4869
2026-01-11 12:48:47.60	302.40	38.59	-30.2	-33.2	19.3	6.04e-01	0	42	0	703594496	21	5085
2026-01-11 12:48:48.60	302.80	38.40	-30.2	-33.4	19.1	6.08e-01	0	42	0	705691648	21	5159
2026-01-11 12:48:49.60	303.19	38.20	-30.2	-33.4	19.1	6.06e-01	0	42	0	707264512	21	5154
2026-01-11 12:48:50.60	303.57	38.00	-30.1	-33.0	19.3	6.07e-01	0	42	0	709361664	21	5034
2026-01-11 12:48:51.61	303.96	37.80	-30.2	-33.2	19.2	6.06e-01	0	42	0	710934528	21	5091
2026-01-11 12:48:52.61	304.33	37.60	-30.1	-33.0	19.3	6.08e-01	0	42	0	713031680	21	5032
2026-01-11 12:48:53.61	304.70	37.40	-30.2	-33.3	19.1	6.06e-01	0	42	0	715128832	21	5117
2026-01-11 12:48:54.61	305.07	37.21	-30.2	-33.2	19.2	6.05e-01	0	42	0	716701696	21	5102
2026-01-11 12:48:55.62	305.44	37.01	-30.4	-33.7	18.9	6.07e-01	0	42	0	718798848	21	5281
2026-01-11 12:48:56.63	305.80	36.80	-30.2	-33.1	19.1	6.07e-01	0	42	0	720371712	21	5074
2026-01-11 12:48:57.63	306.15	36.61	-29.8	-32.1	19.8	6.08e-01	0	42	0	722468864	21	4717
2026-01-11 12:48:58.64	306.50	36.41	-29.7	-32.0	19.9	6.06e-01	0	42	0	724041728	21	4675
2026-01-11 12:48:59.64	306.85	36.21	-29.8	-32.1	19.8	6.06e-01	0	42	0	726138880	21	4734
2026-01-11 12:49:00.64	307.19	36.01	-29.7	-32.0	19.9	6.06e-01	0	42	0	728236032	21	4680
2026-01-11 12:49:01.65	307.53	35.81	-29.7	-31.9	20.0	6.05e-01	0	42	0	729808896	21	4649
2026-01-11 12:49:02.66	307.87	35.61	-29.6	-31.8	20.0	6.06e-01	0	42	0	731906048	21	4610
2026-01-11 12:49:03.66	308.19	35.41	-29.7	-32.0	19.9	6.07e-01	0	42	0	733478912	21	4686
2026-01-11 12:49:04.67	308.52	35.22	-29.7	-32.0	19.9	6.06e-01	0	42	0	735576064	21	4670
2026-01-11 12:49:05.68	308.85	35.02	-29.6	-31.7	20.0	6.06e-01	0	42	0	737673216	21	4583
2026-01-11 12:49:06.69	309.16	34.82	-29.5	-31.5	20.1	6.06e-01	0	42	0	739246080	21	4539
2026-01-11 12:49:07.69	309.48	34.62	-29.5	-31.6	20.1	6.06e-01	0	42	0	741343232	21	4544
2026-01-11 12:49:08.69	309.79	34.43	-29.4	-31.3	20.3	6.06e-01	0	42	0	742916096	21	4456
2026-01-11 12:49:09.69	310.09	34.23	-29.6	-31.7	20.1	6.05e-01	0	42	0	745013248	21	4586
2026-01-11 12:49:10.70	310.40	34.04	-29.4	-31.2	20.3	6.07e-01	0	42	0	747110400	21	4437
2026-01-11 12:49:11.70	310.69	33.84	-29.4	-31.8	20.3	6.07e-01	0	42	0	748683264	20	4729
2026-01-11 12:49:12.71	310.99	33.65	-29.8	-32.7	19.7	6.05e-01	0	42	0	750780416	20	5027
2026-01-11 12:49:13.71	311.28	33.46	-29.5	-32.1	20.0	6.08e-01	0	42	0	752353280	20	4838
2026-01-11 12:49:14.72	311.57	33.26	-29.3	-31.4	20.4	6.07e-01	0	42	0	754450432	20	4615
2026-01-11 12:49:15.73	311.86	33.07	-29.0	-30.8	20.8	6.03e-01	0	42	0	756547584	20	4424
2026-01-11 12:49:16.73	312.14	32.88	-28.9	-30.9	21.1	6.05e-01	0	42	0	758120448	19	4538
2026-01-11 12:49:17.73	312.42	32.69	-28.9	-31.0	21.1	6.07e-01	0	42	0	760217600	19	4566
2026-01-11 12:49:18.74	312.69	32.49	-29.1	-31.3	20.8	6.04e-01	0	42	0	761790464	19	4686
2026-01-11 12:49:19.74	312.96	32.30	-29.0	-31.3	20.9	6.07e-01	0	42	0	763887616	19	4679
2026-01-11 12:49:20.75	313.23	32.11	-28.9	-31.0	21.0	6.07e-01	0	42	0	765460480	19	4594
2026-01-11 12:49:21.75	313.50	31.93	-29.0	-31.2	21.0	6.07e-01	0	42	0	767557632	19	4639
2026-01-11 12:49:22.75	313.76	31.74	-29.1	-31.4	20.8	6.05e-01	0	42	0	769654784	19	4710
2026-01-11 12:49:23.75	314.02	31.55	-29.2	-31.7	20.6	6.07e-01	0	42	0	771227648	19	4819
2026-01-11 12:49:24.75	314.27	31.36	-29.1	-31.5	20.7	6.07e-01	0	42	0	773324800	19	4755
2026-01-11 12:49:25.76	314.53	31.18	-29.2	-31.7	20.6	6.05e-01	0	42	0	774897664	19	4819
2026-01-11 12:49:26.77	314.78	30.99	-29.1	-31.4	20.8	6.06e-01	0	42	0	776994816	19	4699
2026-01-11 12:49:27.78	315.03	30.80	-28.9	-30.9	21.0	6.05e-01	0	42	0	779091968	19	4562
2026-01-11 12:49:28.79	315.27	30.62	-28.8	-30.7	21.2	6.06e-01	0	42	0	780664832	19	4491
2026-01-11 12:49:29.79	315.51	30.44	-28.9	-31.0	21.1	6.05e-01	0	42	0	782761984	19	4568
2026-01-11 12:49:30.79	315.75	30.25	-29.0	-31.1	20.9	6.06e-01	0	42	0	784334848	19	4621
2026-01-11 12:49:31.80	315.99	30.07	-29.1	-31.5	20.8	6.05e-01	0	42	0	786432000	19	4729
2026-01-11 12:49:32.81	316.22	29.89	-29.0	-31.3	20.8	6.05e-01	0	42	0	788529152	19	4688
2026-01-11 12:49:33.81	316.45	29.71	-29.0	-31.3	20.8	6.07e-01	0	42	0	790102016	19	4680
2026-01-11 12:49:34.82	316.68	29.53	-29.0	-31.3	20.8	6.06e-01	0	42	0	792199168	19	4666
2026-01-11 12:49:35.81	316.91	29.35	-29.1	-31.4	20.8	6.09e-01	0	42	0	793772032	19	4721
2026-01-11 12:49:36.82	317.13	29.17	-29.0	-31.2	20.9	6.05e-01	0	42	0	795869184	19	4654
2026-01-11 12:49:37.82	317.35	29.00	-28.9	-31.1	20.9	6.05e-01	0	42	0	797966336	19	4609
2026-01-11 12:49:38.82	317.57	28.82	-29.1	-31.4	20.8	6.06e-01	0	42	0	799539200	19	4705
2026-01-11 12:49:39.82	317.78	28.65	-29.1	-31.4	20.7	6.05e-01	0	42	0	801636352	19	4720
2026-01-11 12:49:40.82	317.99	28.47	-29.3	-31.9	20.5	6.06e-01	0	42	0	803209216	19	4863
2026-01-11 12:49:41.82	318.20	28.30	-29.3	-32.0	20.4	6.06e-01	0	42	0	805306368	19	4919
2026-01-11 12:49:42.83	318.41	28.12	-29.5	-32.4	20.2	6.05e-01	0	42	0	806879232	19	5036
2026-01-11 12:49:43.82	318.62	27.95	-29.6	-32.7	20.0	6.07e-01	0	42	0	808976384	19	5165
2026-01-11 12:49:44.83	318.82	27.78	-29.5	-32.0	20.0	6.06e-01	0	42	0	811073536	20	4818
2026-01-11 12:49:45.84	319.03	27.61	-29.5	-32.0	20.0	6.08e-01	0	42	0	812646400	20	4805
2026-01-11 12:49:46.85	319.23	27.44	-29.5	-32.0	20.0	6.06e-01	0	42	0	814743552	20	4805
2026-01-11 12:49:47.85	319.42	27.27	-29.6	-32.2	19.9	6.07e-01	0	42	0	816316416	20	4868
2026-01-11 12:49:48.85	319.62	27.10	-29.5	-31.9	20.0	6.05e-01	0	42	0	818413568	20	4779
2026-01-11 12:49:49.86	319.81	26.93	-29.4	-31.9	20.1	6.09e-01	0	42	0	820510720	20	4762
2026-01-11 12:49:50.87	320.01	26.76	-29.5	-32.0	20.0	6.05e-01	0	42	0	822083584	20	4802
2026-01-11 12:49:51.87	320.20	26.60	-29.4	-31.7	20.2	6.02e-01	0	42	0	824180736	20	4707
2026-01-11 12:49:52.87	320.38	26.43	-29.3	-31.5	20.3	6.02e-01	0	42	0	825753600	20	4652
2026-01-11 12:49:53.88	320.57	26.27	-29.4	-31.7	20.2	6.01e-01	0	42	0	827850752	20	4707
2026-01-11 12:49:54.88	320.75	26.10	-29.3	-31.6	20.3	6.02e-01	0	42	0	829947904	20	4671
2026-01-11 12:49:55.88	320.93	25.94	-29.4	-31.8	20.1	6.00e-01	0	42	0	831520768	20	4739
2026-01-11 12:49:56.88	321.11	25.78	-29.4	-31.9	20.1	6.02e-01	0	42	0	833617920	20	4757
2026-01-11 12:49:57.88	321.29	25.62	-29.4	-31.8	20.1	6.01e-01	0	42	0	835190784	20	4748
2026-01-11 12:49:58.88	321.46	25.46	-29.5	-32.0	20.0	6.02e-01	0	42	0	837287936	20	4802
2026-01-11 12:49:59.89	321.64	25.30	-29.5	-31.9	20.0	6.00e-01	0	42	0	838860800	20	4781
2026-01-11 12:50:00.89	321.81	25.14	-29.5	-31.9	20.1	6.00e-01	0	42	0	840957952	20	4778
2026-01-11 12:50:01.90	321.98	24.98	-29.6	-32.3	19.9	6.02e-01	0	42	0	843055104	20	4891
2026-01-11 12:50:02.91	322.15	24.82	-29.6	-32.2	19.9	5.99e-01	0	42	0	844627968	20	4869
2026-01-11 12:50:03.91	322.32	24.66	-29.6	-32.3	19.8	6.02e-01	0	42	0	846725120	20	4920
2026-01-11 12:50:04.91	322.48	24.51	-29.8	-32.8	19.6	6.05e-01	0	42	0	848297984	20	5077
2026-01-11 12:50:05.91	322.65	24.35	-29.7	-32.5	19.7	6.03e-01	0	42	0	850395136	20	4978
2026-01-11 12:50:06.91	322.81	24.20	-29.6	-32.3	19.8	6.03e-01	0	42	0	852492288	20	4917
2026-01-11 12:50:07.92	322.97	24.04	-29.7	-32.5	19.7	6.02e-01	0	42	0	854065152	20	4975
2026-01-11 12:50:08.92	323.13	23.89	-29.6	-32.4	19.8	6.02e-01	0	42	0	856162304	20	4933
2026-01-11 12:50:09.93	323.29	23.74	-29.6	-32.4	19.8	6.01e-01	0	42	0	857735168	20	4934
2026-01-11 12:50:10.93	323.44	23.59	-29.6	-32.4	19.7	6.03e-01	0	42	0	859832320	20	4969
2026-01-11 12:50:11.94	323.60	23.43	-29.7	-32.5	19.7	6.00e-01	0	42	0	861929472	20	4993
2026-01-11 12:50:12.94	323.75	23.29	-29.7	-32.5	19.7	5.99e-01	0	42	0	863502336	20	4972
2026-01-11 12:50:13.94	323.90	23.14	-29.7	-32.7	19.5	6.03e-01	0	42	0	865599488	20	5049
2026-01-11 12:50:14.95	324.05	22.99	-29.9	-33.0	19.3	5.99e-01	0	42	0	867172352	20	5156
2026-01-11 12:50:15.96	324.20	22.84	-29.7	-32.5	19.6	6.02e-01	0	42	0	869269504	20	4969
2026-01-11 12:50:16.96	324.35	22.69	-29.7	-32.5	19.6	6.01e-01	0	42	0	871366656	20	4978
2026-01-11 12:50:17.96	324.49	22.55	-29.8	-32.7	19.5	6.01e-01	0	42	0	872939520	20	5068
2026-01-11 12:50:18.97	324.64	22.40	-29.6	-32.4	19.7	6.00e-01	0	42	0	875036672	20	4950
2026-01-11 12:50:19.97	324.78	22.26	-29.6	-32.2	19.8	6.02e-01	0	42	0	876609536	20	4891
2026-01-11 12:50:20.97	324.92	22.11	-29.6	-32.5	19.7	6.04e-01	0	42	0	878706688	20	4971
2026-01-11 12:50:21.98	325.06	21.97	-29.7	-32.5	19.7	6.01e-01	0	42	0	880279552	20	4968
2026-01-11 12:50:22.99	325.20	21.82	-29.9	-33.1	19.3	6.00e-01	0	42	0	882376704	20	5199
2026-01-11 12:50:23.99	325.34	21.68	-29.7	-32.7	19.5	5.98e-01	0	42	0	884473856	20	5055
2026-01-11 12:50:24.99	325.48	21.54	-29.6	-32.4	19.7	6.01e-01	0	42	0	886046720	20	4962
2026-01-11 12:50:26.00	325.61	21.40	-29.6	-32.4	19.7	6.03e-01	0	42	0	888143872	20	4953
2026-01-11 12:50:27.01	325.75	21.26	-29.6	-32.3	19.8	6.01e-01	0	42	0	890241024	20	4917
2026-01-11 12:50:28.02	325.88	21.12	-29.7	-32.5	19.6	6.01e-01	0	42	0	891813888	20	4990
2026-01-11 12:50:29.02	326.01	20.98	-29.5	-32.2	19.8	6.01e-01	0	42	0	893911040	20	4876
2026-01-11 12:50:30.02	326.14	20.85	-29.6	-32.3	19.7	6.04e-01	0	42	0	895483904	20	4921
2026-01-11 12:50:31.02	326.27	20.71	-29.7	-32.6	19.5	6.03e-01	0	42	0	897581056	20	5041
2026-01-11 12:50:32.03	326.40	20.57	-29.5	-32.2	19.8	6.03e-01	0	42	0	899153920	20	4871
2026-01-11 12:50:33.03	326.53	20.44	-29.5	-32.0	19.8	6.01e-01	0	42	0	901251072	20	4834
2026-01-11 12:50:34.04	326.65	20.30	-29.5	-32.0	19.9	6.00e-01	0	42	0	903348224	20	4807
2026-01-11 12:50:35.05	326.78	20.17	-29.4	-31.9	19.9	6.01e-01	0	42	0	904921088	20	4794
2026-01-11 12:50:36.05	326.90	20.03	-29.4	-31.9	19.9	6.02e-01	0	42	0	907018240	20	4801
2026-01-11 12:50:37.05	327.02	19.90	-29.5	-32.1	19.8	6.03e-01	0	42	0	908591104	20	4838
2026-01-11 12:50:38.06	327.14	19.77	-29.3	-31.7	20.0	6.04e-01	0	42	0	910688256	20	4722
2026-01-11 12:50:39.07	327.27	19.63	-29.4	-31.7	20.0	6.00e-01	0	42	0	912785408	20	4738
2026-01-11 12:50:40.08	327.39	19.50	-29.4	-31.9	19.8	6.03e-01	0	42	0	914358272	20	4802
2026-01-11 12:50:41.08	327.50	19.37	-29.3	-31.6	20.0	6.00e-01	0	42	0	916455424	20	4699
2026-01-11 12:50:42.09	327.62	19.24	-29.3	-31.6	20.0	6.02e-01	0	42	0	918028288	20	4685
2026-01-11 12:50:43.09	327.74	19.11	-29.4	-31.8	19.9	6.04e-01	0	42	0	920125440	20	4765
2026-01-11 12:50:44.09	327.85	18.99	-29.3	-31.6	20.0	6.00e-01	0	42	0	921698304	20	4703
2026-01-11 12:50:45.10	327.97	18.86	-29.4	-31.8	19.9	6.01e-01	0	42	0	923795456	20	4764
2026-01-11 12:50:46.10	328.08	18.73	-29.5	-32.2	19.7	6.03e-01	0	42	0	925892608	20	4881
2026-01-11 12:50:47.11	328.19	18.60	-29.4	-31.8	19.9	6.03e-01	0	42	0	927465472	20	4766
2026-01-11 12:50:48.11	328.30	18.48	-29.3	-31.7	20.0	6.05e-01	0	42	0	929562624	20	4723
2026-01-11 12:50:49.12	328.41	18.35	-29.4	-31.8	20.0	6.02e-01	0	42	0	931659776	20	4746
2026-01-11 12:50:50.12	328.52	18.23	-29.3	-31.7	20.0	6.02e-01	0	42	0	933232640	20	4716
2026-01-11 12:50:51.13	328.63	18.10	-29.3	-31.7	20.0	6.02e-01	0	42	0	935329792	20	4733
2026-01-11 12:50:52.13	328.74	17.98	-29.4	-31.9	19.9	6.01e-01	0	42	0	936902656	20	4795
2026-01-11 12:50:53.13	328.85	17.86	-29.3	-31.6	20.1	6.02e-01	0	42	0	938999808	20	4697
2026-01-11 12:50:54.14	328.95	17.73	-29.3	-31.5	20.1	6.04e-01	0	42	0	940572672	20	4671
2026-01-11 12:50:55.14	329.06	17.61	-29.3	-31.5	20.1	6.00e-01	0	42	0	942669824	20	4658
2026-01-11 12:50:56.14	329.16	17.49	-29.3	-31.7	20.0	6.00e-01	0	42	0	944766976	20	4717
2026-01-11 12:50:57.14	329.26	17.37	-29.3	-31.6	20.1	6.02e-01	0	42	0	946339840	20	4682
2026-01-11 12:50:58.14	329.37	17.25	-29.4	-31.8	19.9	6.02e-01	0	42	0	948436992	20	4749
2026-01-11 12:50:59.15	329.47	17.13	-29.3	-31.5	20.1	6.03e-01	0	42	0	950009856	20	4669
2026-01-11 12:51:00.16	329.57	17.01	-29.2	-31.5	20.1	6.02e-01	0	42	0	952107008	20	4649
2026-01-11 12:51:01.17	329.67	16.89	-29.3	-31.6	20.0	5.98e-01	0	42	0	954204160	20	4693
2026-01-11 12:51:02.17	329.77	16.78	-29.2	-31.5	20.1	6.01e-01	0	42	0	955777024	20	4673
2026-01-11 12:51:03.17	329.87	16.66	-29.3	-31.6	20.0	5.99e-01	0	42	0	957874176	20	4699
2026-01-11 12:51:04.17	329.96	16.54	-29.2	-31.5	20.1	6.02e-01	0	42	0	959447040	20	4656
2026-01-11 12:51:05.18	330.06	16.43	-29.3	-31.5	20.0	6.01e-01	0	42	0	961544192	20	4679
2026-01-11 12:51:06.19	330.16	16.31	-29.2	-31.5	20.1	6.02e-01	0	42	0	963641344	20	4665
2026-01-11 12:51:07.19	330.25	16.19	-29.2	-31.4	20.1	6.03e-01	0	42	0	965214208	20	4650
2026-01-11 12:51:08.20	330.35	16.08	-29.3	-31.7	19.9	6.03e-01	0	42	0	967311360	20	4728
2026-01-11 12:51:09.21	330.44	15.96	-29.3	-31.5	20.0	5.98e-01	0	42	0	968884224	20	4673
2026-01-11 12:51:10.22	330.54	15.85	-29.2	-31.4	20.0	6.02e-01	0	42	0	970981376	20	4654
2026-01-11 12:51:11.22	330.63	15.74	-29.3	-31.7	19.9	6.02e-01	0	42	0	973078528	20	4722
2026-01-11 12:51:12.22	330.72	15.63	-29.3	-31.7	19.9	6.01e-01	0	42	0	974651392	20	4726
2026-01-11 12:51:13.23	330.81	15.51	-29.3	-31.6	19.9	6.03e-01	0	42	0	976748544	20	4699
2026-01-11 12:51:14.23	330.90	15.40	-29.4	-31.9	19.7	6.01e-01	0	42	0	978321408	20	4805
2026-01-11 12:51:15.23	330.99	15.29	-29.3	-31.7	19.8	6.01e-01	0	42	0	980418560	20	4756
2026-01-11 12:51:16.24	331.08	15.18	-29.3	-31.8	19.7	6.02e-01	0	42	0	981991424	20	4760
2026-01-11 12:51:17.24	331.17	15.07	-29.3	-31.8	19.7	6.05e-01	0	42	0	984088576	20	4779
2026-01-11 12:51:18.25	331.26	14.96	-29.5	-32.1	19.6	6.01e-01	0	42	0	986185728	20	4868
2026-01-11 12:51:19.25	331.34	14.85	-29.3	-31.7	19.8	6.02e-01	0	42	0	987758592	20	4757
2026-01-11 12:51:20.26	331.43	14.74	-29.3	-31.7	19.7	6.02e-01	0	42	0	989855744	20	4751
2026-01-11 12:51:21.27	331.52	14.64	-29.4	-31.9	19.7	5.98e-01	0	42	0	991952896	20	4799
2026-01-11 12:51:22.27	331.60	14.53	-29.4	-31.8	19.7	6.01e-01	0	42	0	993525760	20	4791
2026-01-11 12:51:23.28	331.69	14.42	-29.4	-32.0	19.6	6.03e-01	0	42	0	995622912	20	4856
2026-01-11 12:51:24.28	331.77	14.31	-29.5	-32.2	19.5	6.01e-01	0	42	0	997195776	20	4914
2026-01-11 12:51:25.28	331.85	14.21	-29.4	-31.9	19.7	6.03e-01	0	42	0	999292928	20	4818
2026-01-11 12:51:26.28	331.94	14.10	-29.6	-32.4	19.4	5.99e-01	0	42	0	1000865792	20	4995
2026-01-11 12:51:27.28	332.02	14.00	-29.5	-32.1	19.5	6.02e-01	0	42	0	1002962944	20	4893
2026-01-11 12:51:28.29	332.10	13.89	-29.6	-32.4	19.4	6.00e-01	0	42	0	1005060096	20	4980
2026-01-11 12:51:29.29	332.18	13.79	-29.5	-32.4	19.4	6.01e-01	0	42	0	1006632960	20	4974
2026-01-11 12:51:30.30	332.26	13.68	-29.6	-32.6	19.3	6.02e-01	0	42	0	1008730112	20	5062
2026-01-11 12:51:31.31	332.34	13.58	-29.6	-32.6	19.2	6.02e-01	0	42	0	1010302976	20	5050
2026-01-11 12:51:32.31	332.42	13.48	-29.5	-32.2	19.4	6.01e-01	0	42	0	1012400128	20	4924
2026-01-11 12:51:33.31	332.50	13.38	-29.4	-32.0	19.6	6.03e-01	0	42	0	1014497280	20	4846
2026-01-11 12:51:34.32	332.58	13.27	-29.5	-32.2	19.5	6.02e-01	0	42	0	1016070144	20	4910
2026-01-11 12:51:35.33	332.66	13.17	-29.4	-32.1	19.5	6.05e-01	0	42	0	1018167296	20	4878
2026-01-11 12:51:36.34	332.73	13.07	-29.5	-32.2	19.5	6.01e-01	0	42	0	1019740160	20	4911
2026-01-11 12:51:37.34	332.81	12.97	-29.5	-32.2	19.4	6.02e-01	0	42	0	1021837312	20	4916
2026-01-11 12:51:38.35	332.89	12.87	-29.4	-32.0	19.5	6.02e-01	0	42	0	1023934464	20	4869
2026-01-11 12:51:39.36	332.96	12.77	-29.6	-32.4	19.3	6.02e-01	0	42	0	1025507328	20	4990
2026-01-11 12:51:40.36	333.04	12.67	-29.6	-32.5	19.2	6.04e-01	0	42	0	1027604480	20	5046
2026-01-11 12:51:41.37	333.11	12.57	-29.5	-32.2	19.4	6.02e-01	0	42	0	1029177344	20	4941
2026-01-11 12:51:42.37	333.19	12.47	-29.7	-32.7	19.1	6.03e-01	0	42	0	1031274496	20	5095
2026-01-11 12:51:43.38	333.26	12.37	-29.8	-33.0	18.9	5.99e-01	0	42	0	1033371648	20	5222
2026-01-11 12:51:44.38	333.33	12.27	-29.7	-32.7	19.1	6.02e-01	0	42	0	1034944512	20	5094
2026-01-11 12:51:45.39	333.41	12.18	-29.7	-32.9	19.0	6.03e-01	0	42	0	1037041664	20	5165
2026-01-11 12:51:46.40	333.48	12.08	-29.7	-32.7	19.0	6.04e-01	0	42	0	1038614528	20	5120
2026-01-11 12:51:47.40	333.55	11.98	-29.7	-32.9	18.9	6.01e-01	0	42	0	1040711680	20	5163
2026-01-11 12:51:48.40	333.62	11.89	-29.7	-32.9	18.9	6.01e-01	0	42	0	1042284544	20	5182
2026-01-11 12:51:49.40	333.69	11.79	-29.7	-32.9	18.9	6.00e-01	0	42	0	1044381696	20	5192
2026-01-11 12:51:50.41	333.76	11.69	-29.8	-33.1	18.8	6.03e-01	0	42	0	1046478848	20	5268
2026-01-11 12:51:51.41	333.83	11.60	-29.9	-33.4	18.6	6.01e-01	0	42	0	1048051712	20	5360
2026-01-11 12:51:52.41	333.90	11.51	-29.7	-32.9	18.9	6.03e-01	0	42	0	1050148864	20	5205
2026-01-11 12:51:53.42	333.97	11.41	-29.6	-32.6	19.2	6.02e-01	0	42	0	1052246016	20	5060
2026-01-11 12:51:54.43	334.04	11.32	-29.6	-32.7	19.0	6.02e-01	0	42	0	1053818880	20	5099
2026-01-11 12:51:55.44	334.11	11.22	-29.6	-32.6	19.1	6.01e-01	0	42	0	1055916032	20	5084
2026-01-11 12:51:56.44	334.17	11.13	-29.7	-32.7	19.0	6.04e-01	0	42	0	1057488896	20	5119
2026-01-11 12:51:57.44	334.24	11.04	-29.7	-32.8	19.0	6.00e-01	0	42	0	1059586048	20	5140
2026-01-11 12:51:58.45	334.31	10.94	-29.7	-32.8	19.0	5.98e-01	0	42	0	1061683200	20	5145
2026-01-11 12:51:59.45	334.37	10.85	-29.8	-33.2	18.7	6.00e-01	0	42	0	1063256064	20	5289
2026-01-11 12:52:00.45	334.44	10.76	-29.8	-33.1	18.8	5.99e-01	0	42	0	1065353216	20	5248
2026-01-11 12:52:01.46	334.51	10.67	-29.8	-33.0	18.8	6.00e-01	0	42	0	1066926080	20	5225
2026-01-11 12:52:02.46	334.57	10.58	-29.8	-33.1	18.7	5.97e-01	0	42	0	1069023232	20	5270
2026-01-11 12:52:03.47	334.63	10.49	-29.8	-33.2	18.6	6.03e-01	0	42	0	1070596096	20	5322
2026-01-11 12:52:04.48	334.70	10.39	-29.9	-33.4	18.5	6.02e-01	0	42	0	1072693248	20	5403
2026-01-11 12:52:05.49	334.76	10.30	-29.8	-33.0	18.7	6.01e-01	0	42	0	1074790400	20	5246
2026-01-11 12:52:06.49	334.83	10.21	-29.8	-33.2	18.6	6.03e-01	0	42	0	1076363264	20	5299
2026-01-11 12:52:07.49	334.89	10.13	-29.9	-33.4	18.4	6.00e-01	0	42	0	1078460416	20	5388
2026-01-11 12:52:08.50	334.95	10.04	-29.9	-33.5	18.3	6.02e-01	0	42	0	1080033280	20	5456
2026-01-11 12:52:09.50	335.01	9.95	-29.9	-33.5	18.4	6.02e-01	0	42	0	1082130432	20	5444
2026-01-11 12:52:10.51	335.08	9.86	-30.1	-33.6	18.0	6.00e-01	0	42	0	1084227584	21	5366
2026-01-11 12:52:11.51	335.14	9.77	-30.1	-33.5	18.0	6.01e-01	0	42	0	1085800448	21	5330
2026-01-11 12:52:12.52	335.20	9.68	-29.9	-33.0	18.3	6.01e-01	0	42	0	1087897600	21	5138
2026-01-11 12:52:13.52	335.26	9.59	-29.9	-33.0	18.3	6.01e-01	0	42	0	1089470464	21	5148
2026-01-11 12:52:14.53	335.32	9.51	-30.0	-33.2	18.2	6.01e-01	0	42	0	1091567616	21	5224
2026-01-11 12:52:15.53	335.38	9.42	-29.9	-32.9	18.5	6.01e-01	0	42	0	1093664768	21	5085
2026-01-11 12:52:16.53	335.44	9.33	-29.9	-33.0	18.3	6.02e-01	0	42	0	1095237632	21	5146
2026-01-11 12:52:17.54	335.50	9.25	-30.1	-33.7	17.9	6.02e-01	0	42	0	1097334784	21	5395
2026-01-11 12:52:18.54	335.56	9.16	-30.1	-33.7	17.9	6.01e-01	0	42	0	1098907648	21	5419
2026-01-11 12:52:19.55	335.62	9.08	-30.1	-33.4	18.0	6.02e-01	0	42	0	1101004800	21	5309
2026-01-11 12:52:20.56	335.68	8.99	-29.9	-33.1	18.3	6.02e-01	0	42	0	1103101952	21	5172
2026-01-11 12:52:21.56	335.73	8.91	-29.9	-33.1	18.2	6.02e-01	0	42	0	1104674816	21	5192
2026-01-11 12:52:22.57	335.79	8.82	-30.0	-33.3	18.1	6.01e-01	0	42	0	1106771968	21	5247
2026-01-11 12:52:23.58	335.85	8.74	-30.1	-33.7	17.9	6.02e-01	0	42	0	1108344832	21	5405
2026-01-11 12:52:24.58	335.91	8.65	-30.1	-33.6	17.8	6.01e-01	0	42	0	1110441984	21	5395
2026-01-11 12:52:25.59	335.96	8.57	-30.1	-33.6	17.8	6.05e-01	0	42	0	1112014848	21	5383
2026-01-11 12:52:26.59	336.02	8.48	-30.1	-33.5	17.9	6.02e-01	0	42	0	1114112000	21	5361
2026-01-11 12:52:27.60	336.07	8.40	-30.0	-33.4	18.0	6.01e-01	0	42	0	1116209152	21	5293
2026-01-11 12:52:28.60	336.13	8.32	-30.1	-33.7	17.9	6.02e-01	0	42	0	1117782016	21	5430
2026-01-11 12:52:29.61	336.19	8.24	-29.9	-33.0	18.2	6.01e-01	0	42	0	1119879168	21	5170
2026-01-11 12:52:30.61	336.24	8.15	-30.2	-33.8	17.7	6.02e-01	0	42	0	1121976320	21	5484
2026-01-11 12:52:31.62	336.30	8.07	-30.0	-33.3	18.0	6.04e-01	0	42	0	1123549184	21	5286
2026-01-11 12:52:32.62	336.35	7.99	-30.1	-33.6	17.9	6.00e-01	0	42	0	1125646336	21	5374
2026-01-11 12:52:33.63	336.40	7.91	-30.0	-33.3	18.0	6.01e-01	0	42	0	1127219200	21	5287
2026-01-11 12:52:34.63	336.46	7.83	-30.1	-33.6	17.8	5.98e-01	0	42	0	1129316352	21	5401
2026-01-11 12:52:35.64	336.51	7.74	-30.2	-33.9	17.5	6.00e-01	0	42	0	1130889216	21	5540
2026-01-11 12:52:36.64	336.56	7.66	-30.1	-33.6	17.8	6.01e-01	0	42	0	1132986368	21	5414
2026-01-11 12:52:37.64	336.62	7.58	-30.2	-34.1	17.4	6.02e-01	0	42	0	1135083520	21	5612
2026-01-11 12:52:38.64	336.67	7.50	-30.3	-34.4	17.2	6.01e-01	0	42	0	1136656384	21	5737
2026-01-11 12:52:39.65	336.72	7.42	-30.1	-33.7	17.6	6.02e-01	0	42	0	1138753536	21	5459
2026-01-11 12:52:40.65	336.77	7.34	-30.2	-34.0	17.5	6.03e-01	0	42	0	1140326400	21	5556
2026-01-11 12:52:41.66	336.83	7.26	-30.1	-33.8	17.6	6.03e-01	0	42	0	1142423552	21	5474
2026-01-11 12:52:42.65	336.88	7.19	-30.2	-34.0	17.4	6.02e-01	0	42	0	1144520704	21	5594
2026-01-11 12:52:43.66	336.93	7.11	-30.2	-34.1	17.3	6.02e-01	0	42	0	1146093568	21	5626
2026-01-11 12:52:44.66	336.98	7.03	-33.4	-52.0	3.7	7.46e-01	0	42	104	1147666432	27	30893
2026-01-11 12:52:45.67	337.03	6.95	-33.6	-52.7	3.8	7.47e-01	0	42	104	1147666432	28	32506
2026-01-11 12:52:46.67	337.08	6.87	-33.8	-53.0	3.8	7.48e-01	0	42	104	1147666432	28	32969
2026-01-11 12:52:47.68	337.13	6.79	-33.9	-53.3	3.8	7.47e-01	0	42	104	1147666432	28	33502

#Closed at: 2026-01-11 12:52:47
#Recorded file [1147 MB]: D:/data/31010_260111_154232.dat