passes_logs/2026/01/11/R2M6_AANII_01/R2M6_AANII_01__20260111_100439_FENGYUN_3D_rec.log

#Pass ID: 20260111_100439_FENGYUN 3D
#Satellite: FENGYUN 3D
#Configuration: FENGYUN 3D
#almurnet v.1.7.20240730
#Start time: 2026-01-11 10:04:39

#Version: 2.2.20231116
#Station: R2M6_AANII_01
#Location: 30.233357 lon 59.946436 lat
#TLE: 1 43010U 17072A   26009.92921666 -.00000228  00000+0 -86059-4 0  9998
#TLE: 2 43010  98.9936 341.6668 0002176 116.7510 243.3888 14.19693142422537

#Time	Az	El	Level	Level2	SNR	BER	BlckErr	Temp	State	Recorded	gain1	gain2
2026-01-11 10:04:39.66	89.54	7.02	-31.2	-36.3	4.6	8.22e-01	0	39	0	0	23	6477
2026-01-11 10:04:40.66	89.43	7.08	-30.2	-33.6	5.1	7.88e-01	0	40	104	0	21	5365
2026-01-11 10:04:41.67	89.33	7.14	-30.3	-34.0	8.2	4.33e-02	0	39	0	0	21	5505
2026-01-11 10:04:42.67	89.22	7.19	-30.2	-33.7	8.5	4.05e-02	0	39	0	5242880	21	5360
2026-01-11 10:04:43.68	89.11	7.25	-30.2	-33.8	8.5	3.66e-02	0	40	0	11534336	21	5400
2026-01-11 10:04:44.69	89.01	7.31	-30.1	-33.4	8.7	3.16e-02	0	39	0	16777216	21	5250
2026-01-11 10:04:45.70	88.90	7.37	-30.1	-33.4	8.7	2.31e-02	0	40	0	22020096	21	5217
2026-01-11 10:04:46.70	88.79	7.43	-30.1	-33.3	8.8	2.66e-02	0	40	0	28311552	21	5182
2026-01-11 10:04:47.71	88.68	7.49	-29.7	-32.6	9.6	1.87e-02	0	40	0	33554432	20	5009
2026-01-11 10:04:48.72	88.57	7.55	-29.2	-31.6	10.8	2.40e-03	0	40	0	39845888	19	4742
2026-01-11 10:04:49.73	88.46	7.61	-28.8	-30.6	11.4	9.53e-04	0	40	0	45088768	19	4423
2026-01-11 10:04:50.74	88.35	7.67	-28.1	-29.9	12.4	1.65e-04	0	40	0	50331648	17	4422
2026-01-11 10:04:51.75	88.24	7.73	-27.7	-29.5	13.0	3.31e-05	0	40	0	56623104	16	4427
2026-01-11 10:04:52.75	88.13	7.79	-27.7	-29.5	13.0	1.60e-05	0	40	0	61865984	16	4401
2026-01-11 10:04:53.76	88.02	7.85	-27.5	-28.9	13.4	1.25e-05	0	40	0	67108864	16	4248
2026-01-11 10:04:54.76	87.90	7.91	-26.9	-28.1	14.0	4.50e-06	0	40	0	73400320	15	4140
2026-01-11 10:04:55.77	87.79	7.97	-27.0	-28.2	13.9	0.00e+00	0	40	0	78643200	15	4169
2026-01-11 10:04:56.78	87.68	8.03	-26.9	-28.2	14.0	3.40e-06	0	40	0	84934656	15	4149
2026-01-11 10:04:57.78	87.56	8.09	-26.9	-28.1	14.0	1.10e-06	0	40	0	90177536	15	4142
2026-01-11 10:04:58.79	87.45	8.15	-26.9	-28.2	14.0	2.20e-06	0	40	0	96468992	15	4152
2026-01-11 10:04:59.79	87.34	8.21	-27.1	-28.5	13.8	3.40e-06	0	40	0	101711872	15	4240
2026-01-11 10:05:00.80	87.22	8.27	-27.0	-28.3	14.0	2.20e-06	0	40	0	106954752	15	4176
2026-01-11 10:05:01.81	87.10	8.33	-26.9	-28.0	14.1	1.10e-06	0	40	0	113246208	15	4112
2026-01-11 10:05:02.81	86.99	8.39	-26.9	-28.0	14.1	1.10e-06	0	40	0	118489088	15	4104
2026-01-11 10:05:03.81	86.87	8.45	-26.8	-28.5	14.2	0.00e+00	0	40	0	124780544	14	4348
2026-01-11 10:05:04.82	86.76	8.51	-27.0	-28.9	14.0	1.10e-06	0	40	0	130023424	14	4455
2026-01-11 10:05:05.83	86.64	8.57	-26.8	-28.5	14.2	0.00e+00	0	40	0	135266304	14	4335
2026-01-11 10:05:06.83	86.52	8.63	-27.1	-29.0	13.8	1.10e-06	0	40	0	141557760	14	4495
2026-01-11 10:05:07.84	86.40	8.70	-26.9	-28.7	14.1	0.00e+00	0	40	0	146800640	14	4402
2026-01-11 10:05:08.84	86.28	8.76	-26.8	-28.3	14.3	0.00e+00	0	40	0	152043520	14	4300
2026-01-11 10:05:09.85	86.16	8.82	-26.9	-28.6	14.2	2.20e-06	0	40	0	158334976	14	4375
2026-01-11 10:05:10.86	86.04	8.88	-26.7	-28.2	14.4	1.10e-06	0	40	0	163577856	14	4257
2026-01-11 10:05:11.86	85.92	8.94	-26.8	-28.4	14.3	0.00e+00	0	40	0	169869312	14	4302
2026-01-11 10:05:12.87	85.80	9.00	-26.8	-28.4	14.3	1.10e-06	0	41	0	175112192	14	4311
2026-01-11 10:05:13.88	85.68	9.06	-26.6	-28.0	14.5	0.00e+00	0	40	0	181403648	14	4196
2026-01-11 10:05:14.89	85.56	9.12	-26.7	-28.0	14.5	0.00e+00	0	41	0	186646528	14	4199
2026-01-11 10:05:15.89	85.43	9.18	-26.8	-28.3	14.4	0.00e+00	0	41	0	191889408	14	4279
2026-01-11 10:05:16.90	85.31	9.24	-26.7	-28.1	14.5	0.00e+00	0	41	0	198180864	14	4224
2026-01-11 10:05:17.90	85.19	9.30	-26.7	-28.0	14.6	0.00e+00	0	41	0	203423744	14	4205
2026-01-11 10:05:18.91	85.06	9.36	-26.5	-27.5	14.8	0.00e+00	0	40	0	208666624	14	4073
2026-01-11 10:05:19.92	84.94	9.42	-26.7	-28.1	14.5	0.00e+00	0	41	0	214958080	14	4227
2026-01-11 10:05:20.92	84.81	9.48	-26.6	-27.9	14.6	0.00e+00	0	41	0	220200960	14	4173
2026-01-11 10:05:21.93	84.69	9.54	-26.7	-28.2	14.5	0.00e+00	0	41	0	226492416	14	4251
2026-01-11 10:05:22.94	84.56	9.61	-26.6	-27.9	14.7	0.00e+00	0	41	0	231735296	14	4165
2026-01-11 10:05:23.95	84.43	9.67	-26.5	-27.6	14.8	0.00e+00	0	41	0	236978176	14	4089
2026-01-11 10:05:24.95	84.31	9.73	-26.6	-28.0	14.6	0.00e+00	0	41	0	243269632	14	4189
2026-01-11 10:05:25.96	84.18	9.79	-26.6	-27.8	14.7	0.00e+00	0	41	0	248512512	14	4138
2026-01-11 10:05:26.96	84.05	9.85	-26.7	-28.1	14.6	1.10e-06	0	41	0	254803968	14	4217
2026-01-11 10:05:27.97	83.92	9.91	-26.4	-27.5	14.9	0.00e+00	0	41	0	260046848	14	4062
2026-01-11 10:05:28.97	83.79	9.97	-26.2	-27.4	15.2	0.00e+00	0	41	0	266338304	13	4158
2026-01-11 10:05:29.98	83.66	10.03	-26.1	-27.3	15.2	0.00e+00	0	41	0	271581184	13	4132
2026-01-11 10:05:30.99	83.53	10.09	-26.1	-27.3	15.3	0.00e+00	0	41	0	276824064	13	4103
2026-01-11 10:05:31.99	83.40	10.15	-26.1	-27.2	15.4	0.00e+00	0	41	0	283115520	13	4085
2026-01-11 10:05:33.00	83.27	10.21	-26.4	-28.0	14.9	0.00e+00	0	41	0	288358400	13	4312
2026-01-11 10:05:34.00	83.14	10.27	-26.7	-28.5	14.6	1.10e-06	0	41	0	293601280	13	4449
2026-01-11 10:05:35.01	83.00	10.34	-26.6	-28.3	14.7	0.00e+00	0	41	0	299892736	13	4382
2026-01-11 10:05:36.02	82.87	10.40	-26.6	-28.3	14.8	0.00e+00	0	41	0	305135616	13	4385
2026-01-11 10:05:37.03	82.73	10.46	-26.7	-28.7	14.5	0.00e+00	0	41	0	311427072	13	4496
2026-01-11 10:05:38.03	82.60	10.52	-26.6	-28.4	14.7	0.00e+00	0	41	0	316669952	13	4408
2026-01-11 10:05:39.04	82.47	10.58	-26.6	-28.4	14.7	0.00e+00	0	41	0	321912832	13	4430
2026-01-11 10:05:40.05	82.33	10.64	-26.7	-28.7	14.5	0.00e+00	0	41	0	328204288	13	4500
2026-01-11 10:05:41.05	82.19	10.70	-26.6	-28.4	14.7	0.00e+00	0	41	0	333447168	13	4428
2026-01-11 10:05:42.05	82.06	10.76	-26.6	-28.4	14.7	0.00e+00	0	41	0	339738624	13	4425
2026-01-11 10:05:43.06	81.92	10.82	-26.6	-28.4	14.7	0.00e+00	0	41	0	344981504	13	4431
2026-01-11 10:05:44.07	81.78	10.88	-26.7	-28.6	14.6	0.00e+00	0	41	0	351272960	13	4486
2026-01-11 10:05:45.08	81.64	10.94	-26.4	-27.8	15.0	0.00e+00	0	41	0	356515840	13	4260
2026-01-11 10:05:46.08	81.50	11.00	-26.4	-27.9	15.0	0.00e+00	0	41	0	361758720	13	4277
2026-01-11 10:05:47.09	81.36	11.07	-26.5	-28.0	14.9	0.00e+00	0	41	0	368050176	13	4319
2026-01-11 10:05:48.10	81.22	11.13	-26.5	-28.1	14.9	0.00e+00	0	41	0	373293056	13	4345
2026-01-11 10:05:49.11	81.08	11.19	-26.6	-28.3	14.8	0.00e+00	0	41	0	378535936	13	4391
2026-01-11 10:05:50.11	80.94	11.25	-26.4	-27.8	15.1	0.00e+00	0	41	0	384827392	13	4248
2026-01-11 10:05:51.12	80.80	11.31	-26.2	-27.5	15.2	0.00e+00	0	41	0	390070272	13	4177
2026-01-11 10:05:52.13	80.65	11.37	-26.3	-27.7	15.2	0.00e+00	0	41	0	396361728	13	4210
2026-01-11 10:05:53.13	80.51	11.43	-26.3	-27.8	15.1	0.00e+00	0	41	0	401604608	13	4237
2026-01-11 10:05:54.14	80.37	11.49	-26.4	-28.0	15.0	0.00e+00	0	41	0	406847488	13	4296
2026-01-11 10:05:55.15	80.22	11.55	-26.2	-27.5	15.3	0.00e+00	0	41	0	413138944	13	4174
2026-01-11 10:05:56.15	80.08	11.61	-26.2	-27.4	15.3	0.00e+00	0	41	0	418381824	13	4152
2026-01-11 10:05:57.15	79.93	11.67	-26.2	-27.5	15.3	0.00e+00	0	41	0	424673280	13	4173
2026-01-11 10:05:58.15	79.79	11.73	-26.1	-27.1	15.5	0.00e+00	0	41	0	429916160	13	4070
2026-01-11 10:05:59.16	79.64	11.79	-26.0	-26.9	15.6	0.00e+00	0	42	0	435159040	13	4021
2026-01-11 10:06:00.17	79.49	11.85	-26.1	-27.2	15.4	0.00e+00	0	41	0	441450496	13	4096
2026-01-11 10:06:01.17	79.34	11.91	-26.0	-27.1	15.6	0.00e+00	0	42	0	446693376	13	4048
2026-01-11 10:06:02.17	79.20	11.97	-26.0	-27.1	15.5	0.00e+00	0	41	0	452984832	13	4065
2026-01-11 10:06:03.18	79.05	12.03	-26.2	-27.4	15.3	0.00e+00	0	41	0	458227712	13	4144
2026-01-11 10:06:04.18	78.90	12.09	-26.1	-27.1	15.5	4.50e-06	0	41	0	463470592	13	4070
2026-01-11 10:06:05.18	78.75	12.15	-26.2	-27.5	15.3	0.00e+00	0	41	0	469762048	13	4161
2026-01-11 10:06:06.19	78.59	12.21	-26.0	-26.9	15.6	0.00e+00	0	41	0	475004928	13	4014
2026-01-11 10:06:07.20	78.44	12.27	-25.9	-26.8	15.7	0.00e+00	0	41	0	480247808	13	3989
2026-01-11 10:06:08.21	78.29	12.33	-25.9	-26.8	15.7	0.00e+00	0	41	0	486539264	13	3983
2026-01-11 10:06:09.21	78.14	12.39	-25.9	-26.8	15.7	0.00e+00	0	41	0	491782144	13	3995
2026-01-11 10:06:10.22	77.98	12.45	-25.9	-26.7	15.7	0.00e+00	0	41	0	498073600	13	3974
2026-01-11 10:06:11.23	77.83	12.51	-26.0	-27.0	15.6	0.00e+00	0	42	0	503316480	13	4027
2026-01-11 10:06:12.23	77.67	12.57	-25.9	-26.7	15.7	0.00e+00	0	41	0	509607936	13	3971
2026-01-11 10:06:13.23	77.52	12.63	-25.8	-27.0	15.9	2.20e-06	0	42	0	514850816	12	4139
2026-01-11 10:06:14.23	77.36	12.69	-25.8	-27.1	15.8	0.00e+00	0	41	0	520093696	12	4176
2026-01-11 10:06:15.24	77.20	12.75	-25.7	-26.8	16.0	0.00e+00	0	41	0	526385152	12	4085
2026-01-11 10:06:16.25	77.05	12.81	-25.7	-26.9	16.0	0.00e+00	0	41	0	531628032	12	4117
2026-01-11 10:06:17.25	76.89	12.87	-25.8	-27.0	15.9	0.00e+00	0	42	0	536870912	12	4130
2026-01-11 10:06:18.26	76.73	12.93	-25.8	-27.0	15.9	0.00e+00	0	41	0	543162368	12	4137
2026-01-11 10:06:19.27	76.57	12.99	-25.9	-27.2	15.8	3.40e-06	0	42	0	548405248	12	4182
2026-01-11 10:06:20.27	76.41	13.05	-25.6	-26.7	16.1	0.00e+00	0	42	0	554696704	12	4059
2026-01-11 10:06:21.29	76.25	13.11	-25.7	-26.8	16.0	0.00e+00	0	42	0	559939584	12	4087
2026-01-11 10:06:22.29	76.09	13.17	-25.8	-27.1	15.8	1.10e-06	0	41	0	565182464	12	4176
2026-01-11 10:06:23.30	75.92	13.23	-25.9	-27.2	15.8	0.00e+00	0	42	0	571473920	12	4197
2026-01-11 10:06:24.31	75.76	13.29	-25.9	-27.2	15.8	0.00e+00	0	42	0	576716800	12	4191
2026-01-11 10:06:25.31	75.60	13.35	-26.1	-27.6	15.6	1.10e-06	0	41	0	583008256	12	4317
2026-01-11 10:06:26.32	75.43	13.40	-26.0	-27.4	15.7	0.00e+00	0	42	0	588251136	12	4255
2026-01-11 10:06:27.32	75.27	13.46	-25.9	-27.3	15.8	0.00e+00	0	41	0	594542592	12	4232
2026-01-11 10:06:28.33	75.10	13.52	-25.9	-27.4	15.7	0.00e+00	0	41	0	599785472	12	4243
2026-01-11 10:06:29.33	74.94	13.58	-25.8	-27.1	15.9	0.00e+00	0	41	0	605028352	12	4173
2026-01-11 10:06:30.34	74.77	13.64	-25.8	-27.0	16.0	0.00e+00	0	42	0	611319808	12	4143
2026-01-11 10:06:31.35	74.60	13.70	-25.8	-27.0	16.0	0.00e+00	0	42	0	616562688	12	4145
2026-01-11 10:06:32.35	74.43	13.75	-25.6	-26.6	16.2	0.00e+00	0	42	0	621805568	12	4033
2026-01-11 10:06:33.36	74.26	13.81	-25.6	-26.5	16.2	0.00e+00	0	41	0	628097024	12	4004
2026-01-11 10:06:34.37	74.09	13.87	-25.5	-26.4	16.3	0.00e+00	0	42	0	633339904	12	3982
2026-01-11 10:06:35.38	73.92	13.93	-25.4	-26.5	16.6	0.00e+00	0	41	0	639631360	11	4117
2026-01-11 10:06:36.39	73.75	13.99	-25.3	-26.3	16.7	0.00e+00	0	42	0	644874240	11	4077
2026-01-11 10:06:37.39	73.58	14.04	-25.2	-26.3	16.7	0.00e+00	0	42	0	650117120	11	4057
2026-01-11 10:06:38.40	73.41	14.10	-25.4	-26.7	16.5	0.00e+00	0	42	0	656408576	11	4159
2026-01-11 10:06:39.40	73.24	14.16	-25.4	-26.7	16.5	0.00e+00	0	42	0	661651456	11	4166
2026-01-11 10:06:40.41	73.06	14.22	-25.4	-26.6	16.6	0.00e+00	0	42	0	667942912	11	4141
2026-01-11 10:06:41.42	72.89	14.27	-25.4	-26.6	16.6	0.00e+00	0	42	0	673185792	11	4131
2026-01-11 10:06:42.43	72.71	14.33	-25.6	-27.0	16.3	0.00e+00	0	42	0	679477248	11	4245
2026-01-11 10:06:43.43	72.54	14.39	-25.5	-26.8	16.6	0.00e+00	0	42	0	684720128	11	4177
2026-01-11 10:06:44.44	72.36	14.44	-25.4	-26.6	16.7	0.00e+00	0	42	0	689963008	11	4125
2026-01-11 10:06:45.45	72.18	14.50	-25.4	-26.5	16.7	0.00e+00	0	42	0	696254464	11	4104
2026-01-11 10:06:46.46	72.00	14.56	-25.5	-26.8	16.6	0.00e+00	0	42	0	701497344	11	4166
2026-01-11 10:06:47.46	71.83	14.61	-25.5	-26.7	16.6	0.00e+00	0	42	0	707788800	11	4142
2026-01-11 10:06:48.47	71.65	14.67	-25.6	-27.1	16.4	0.00e+00	0	42	0	713031680	11	4242
2026-01-11 10:06:49.48	71.47	14.73	-25.6	-27.1	16.5	0.00e+00	0	42	0	718274560	11	4247
2026-01-11 10:06:50.48	71.29	14.78	-25.4	-26.6	16.7	0.00e+00	0	42	0	724566016	11	4117
2026-01-11 10:06:51.49	71.10	14.84	-25.7	-27.2	16.4	0.00e+00	0	42	0	729808896	11	4282
2026-01-11 10:06:52.50	70.92	14.89	-25.6	-27.0	16.5	0.00e+00	0	42	0	735051776	11	4216
2026-01-11 10:06:53.50	70.74	14.95	-25.3	-26.4	16.8	0.00e+00	0	42	0	741343232	11	4065
2026-01-11 10:06:54.51	70.56	15.00	-25.3	-26.3	16.9	0.00e+00	0	42	0	746586112	11	4056
2026-01-11 10:06:55.52	70.37	15.06	-25.4	-26.5	16.8	0.00e+00	0	41	0	752877568	11	4083
2026-01-11 10:06:56.52	70.19	15.11	-25.6	-26.9	16.5	0.00e+00	0	42	0	758120448	11	4215
2026-01-11 10:06:57.53	70.00	15.17	-25.5	-26.7	16.6	0.00e+00	0	42	0	764411904	11	4159
2026-01-11 10:06:58.53	69.82	15.22	-25.7	-27.2	16.4	0.00e+00	0	42	0	769654784	11	4279
2026-01-11 10:06:59.54	69.63	15.28	-25.6	-27.0	16.5	0.00e+00	0	42	0	774897664	11	4235
2026-01-11 10:07:00.54	69.44	15.33	-25.4	-26.6	16.7	0.00e+00	0	42	0	781189120	11	4135
2026-01-11 10:07:01.54	69.26	15.38	-25.3	-26.4	16.8	0.00e+00	0	42	0	786432000	11	4057
2026-01-11 10:07:02.54	69.07	15.44	-25.3	-26.4	16.8	0.00e+00	0	42	0	791674880	11	4076
2026-01-11 10:07:03.54	68.88	15.49	-25.4	-26.5	16.7	0.00e+00	0	42	0	797966336	11	4103
2026-01-11 10:07:04.55	68.69	15.55	-25.2	-26.1	17.0	0.00e+00	0	42	0	803209216	11	3987
2026-01-11 10:07:05.56	68.50	15.60	-25.1	-25.9	17.1	0.00e+00	0	41	0	809500672	11	3942
2026-01-11 10:07:06.57	68.31	15.65	-25.0	-25.7	17.2	0.00e+00	0	42	0	814743552	11	3887
2026-01-11 10:07:07.57	68.12	15.70	-25.1	-25.9	17.1	0.00e+00	0	42	0	819986432	11	3949
2026-01-11 10:07:08.57	67.92	15.76	-25.2	-26.1	17.0	0.00e+00	0	42	0	826277888	11	3985
2026-01-11 10:07:09.58	67.73	15.81	-25.2	-26.1	17.0	0.00e+00	0	42	0	831520768	11	4000
2026-01-11 10:07:10.58	67.54	15.86	-25.1	-26.0	17.1	0.00e+00	0	42	0	837812224	11	3967
2026-01-11 10:07:11.59	67.34	15.91	-25.0	-25.7	17.3	0.00e+00	0	42	0	843055104	11	3890
2026-01-11 10:07:12.59	67.15	15.96	-25.1	-25.9	17.1	0.00e+00	0	42	0	848297984	11	3934
2026-01-11 10:07:13.60	66.95	16.02	-25.1	-25.9	17.1	0.00e+00	0	42	0	854589440	11	3941
2026-01-11 10:07:14.61	66.75	16.07	-25.1	-25.8	17.2	0.00e+00	0	42	0	859832320	11	3929
2026-01-11 10:07:15.61	66.56	16.12	-25.1	-25.9	17.1	0.00e+00	0	42	0	866123776	11	3947
2026-01-11 10:07:16.62	66.36	16.17	-25.1	-25.8	17.2	0.00e+00	0	42	0	871366656	11	3930
2026-01-11 10:07:17.63	66.16	16.22	-25.0	-25.7	17.3	0.00e+00	0	42	0	876609536	11	3889
2026-01-11 10:07:18.63	65.96	16.27	-25.1	-25.9	17.1	0.00e+00	0	42	0	882900992	11	3941
2026-01-11 10:07:19.64	65.76	16.32	-24.9	-25.5	17.3	0.00e+00	0	42	0	888143872	11	3855
2026-01-11 10:07:20.65	65.56	16.37	-24.9	-25.5	17.4	0.00e+00	0	42	0	893386752	11	3837
2026-01-11 10:07:21.66	65.36	16.42	-24.9	-25.5	17.4	0.00e+00	0	42	0	899678208	11	3838
2026-01-11 10:07:22.67	65.15	16.47	-25.3	-26.2	17.0	0.00e+00	0	42	0	904921088	11	4016
2026-01-11 10:07:23.67	64.95	16.52	-25.7	-27.2	16.5	0.00e+00	0	42	0	911212544	11	4267
2026-01-11 10:07:24.68	64.75	16.56	-25.3	-26.2	17.0	0.00e+00	0	42	0	916455424	11	4019
2026-01-11 10:07:25.69	64.54	16.61	-25.2	-26.1	17.1	0.00e+00	0	42	0	922746880	11	3989
2026-01-11 10:07:26.70	64.34	16.66	-25.3	-26.3	16.9	0.00e+00	0	42	0	927989760	11	4030
2026-01-11 10:07:27.69	64.13	16.71	-25.0	-25.6	17.3	0.00e+00	0	42	0	933232640	11	3882
2026-01-11 10:07:28.70	63.93	16.76	-25.1	-25.9	17.2	0.00e+00	0	42	0	939524096	11	3942
2026-01-11 10:07:29.71	63.72	16.80	-25.2	-26.1	17.0	0.00e+00	0	42	0	944766976	11	3997
2026-01-11 10:07:30.71	63.51	16.85	-25.2	-26.1	17.1	0.00e+00	0	42	0	950009856	11	3986
2026-01-11 10:07:31.71	63.31	16.90	-25.0	-25.6	17.3	0.00e+00	0	42	0	956301312	11	3867
2026-01-11 10:07:32.72	63.10	16.94	-24.8	-25.3	17.5	0.00e+00	0	42	0	961544192	11	3795
2026-01-11 10:07:33.72	62.89	16.99	-24.7	-25.5	17.6	0.00e+00	0	42	0	967835648	10	3963
2026-01-11 10:07:34.73	62.68	17.03	-24.7	-25.4	17.7	0.00e+00	0	42	0	973078528	10	3940
2026-01-11 10:07:35.73	62.47	17.08	-24.6	-25.3	17.7	0.00e+00	0	42	0	978321408	10	3898
2026-01-11 10:07:36.74	62.26	17.12	-24.7	-25.6	17.6	0.00e+00	0	42	0	984612864	10	3978
2026-01-11 10:07:37.75	62.04	17.17	-24.8	-25.8	17.5	0.00e+00	0	42	0	989855744	10	4021
2026-01-11 10:07:38.76	61.83	17.21	-24.8	-25.7	17.6	0.00e+00	0	42	0	996147200	10	3995
2026-01-11 10:07:39.75	61.62	17.26	-24.8	-25.7	17.5	0.00e+00	0	42	0	1001390080	10	3994
2026-01-11 10:07:40.76	61.40	17.30	-24.9	-26.0	17.4	0.00e+00	0	42	0	1007681536	10	4065
2026-01-11 10:07:41.77	61.19	17.35	-24.8	-25.7	17.5	0.00e+00	0	42	0	1012924416	10	4011
2026-01-11 10:07:42.77	60.98	17.39	-24.6	-25.4	17.7	0.00e+00	0	42	0	1018167296	10	3924
2026-01-11 10:07:43.77	60.76	17.43	-24.8	-25.7	17.5	0.00e+00	0	42	0	1024458752	10	4005
2026-01-11 10:07:44.78	60.54	17.47	-24.9	-26.1	17.3	0.00e+00	0	42	0	1029701632	10	4096
2026-01-11 10:07:45.78	60.33	17.52	-24.6	-25.4	17.7	0.00e+00	0	42	0	1034944512	10	3927
2026-01-11 10:07:46.78	60.11	17.56	-24.6	-25.2	17.8	0.00e+00	0	42	0	1041235968	10	3888
2026-01-11 10:07:47.79	59.89	17.60	-24.4	-24.9	17.9	0.00e+00	0	42	0	1046478848	10	3813
2026-01-11 10:07:48.79	59.68	17.64	-24.4	-24.8	18.0	0.00e+00	0	42	0	1051721728	10	3785
2026-01-11 10:07:49.80	59.46	17.68	-24.2	-25.0	18.1	0.00e+00	0	42	0	1058013184	9	3938
2026-01-11 10:07:50.81	59.23	17.72	-24.4	-25.3	18.0	0.00e+00	0	42	0	1063256064	9	4009
2026-01-11 10:07:51.81	59.02	17.76	-24.2	-25.1	18.1	0.00e+00	0	42	0	1069547520	9	3955
2026-01-11 10:07:52.81	58.80	17.80	-24.5	-25.7	17.8	0.00e+00	0	42	0	1074790400	9	4104
2026-01-11 10:07:53.81	58.58	17.84	-24.5	-25.6	17.8	0.00e+00	0	42	0	1081081856	9	4083
2026-01-11 10:07:54.82	58.35	17.88	-24.5	-25.6	17.8	0.00e+00	0	42	0	1086324736	9	4090
2026-01-11 10:07:55.83	58.13	17.92	-24.6	-25.9	17.7	0.00e+00	0	42	0	1091567616	9	4163
2026-01-11 10:07:56.84	57.90	17.95	-24.6	-25.7	17.8	0.00e+00	0	42	0	1097859072	9	4121
2026-01-11 10:07:57.84	57.68	17.99	-24.6	-25.9	17.7	0.00e+00	0	42	0	1103101952	9	4153
2026-01-11 10:07:58.85	57.46	18.03	-24.4	-25.4	17.9	0.00e+00	0	42	0	1108344832	9	4042
2026-01-11 10:07:59.85	57.23	18.07	-24.3	-25.2	18.0	0.00e+00	0	42	0	1114636288	9	3990
2026-01-11 10:08:00.84	57.01	18.10	-24.3	-25.1	18.1	0.00e+00	0	42	0	1119879168	9	3974
2026-01-11 10:08:01.84	56.79	18.14	-24.4	-25.5	17.9	0.00e+00	0	42	0	1125122048	9	4055
2026-01-11 10:08:02.84	56.56	18.17	-24.4	-25.3	18.0	0.00e+00	0	42	0	1131413504	9	4012
2026-01-11 10:08:03.85	56.33	18.21	-24.3	-25.1	18.1	0.00e+00	0	42	0	1136656384	9	3967
2026-01-11 10:08:04.86	56.10	18.24	-24.3	-25.2	18.0	0.00e+00	0	42	0	1142947840	9	3986
2026-01-11 10:08:05.87	55.87	18.28	-24.2	-25.0	18.1	0.00e+00	0	42	0	1148190720	9	3941
2026-01-11 10:08:06.88	55.64	18.31	-24.2	-24.9	18.2	0.00e+00	0	42	0	1154482176	9	3917
2026-01-11 10:08:07.88	55.42	18.34	-24.1	-24.8	18.3	0.00e+00	0	42	0	1159725056	9	3888
2026-01-11 10:08:08.89	55.19	18.38	-24.3	-25.3	18.0	0.00e+00	0	42	0	1164967936	9	4003
2026-01-11 10:08:09.90	54.96	18.41	-24.3	-25.3	18.0	0.00e+00	0	42	0	1171259392	9	4012
2026-01-11 10:08:10.90	54.73	18.44	-24.3	-25.1	18.1	0.00e+00	0	42	0	1176502272	9	3967
2026-01-11 10:08:11.91	54.49	18.47	-24.3	-25.2	18.0	0.00e+00	0	42	0	1181745152	9	3983
2026-01-11 10:08:12.92	54.26	18.51	-24.3	-25.1	18.1	0.00e+00	0	42	0	1188036608	9	3973
2026-01-11 10:08:13.92	54.03	18.54	-24.2	-25.1	18.1	0.00e+00	0	42	0	1193279488	9	3957
2026-01-11 10:08:14.93	53.80	18.57	-24.3	-25.2	18.0	0.00e+00	0	42	0	1199570944	9	3989
2026-01-11 10:08:15.94	53.56	18.60	-24.2	-24.9	18.2	0.00e+00	0	42	0	1204813824	9	3925
2026-01-11 10:08:16.95	53.33	18.63	-24.1	-24.8	18.3	0.00e+00	0	42	0	1210056704	9	3883
2026-01-11 10:08:17.96	53.09	18.66	-24.2	-25.0	18.2	0.00e+00	0	42	0	1216348160	9	3945
2026-01-11 10:08:18.97	52.86	18.68	-24.1	-24.7	18.3	0.00e+00	0	42	0	1221591040	9	3863
2026-01-11 10:08:19.98	52.62	18.71	-24.1	-24.7	18.3	0.00e+00	0	42	0	1227882496	9	3868
2026-01-11 10:08:20.99	52.39	18.74	-24.3	-25.1	18.1	0.00e+00	0	42	0	1233125376	9	3964
2026-01-11 10:08:21.99	52.15	18.77	-24.0	-24.6	18.4	0.00e+00	0	42	0	1239416832	9	3836
2026-01-11 10:08:23.00	51.91	18.79	-23.9	-24.4	18.5	0.00e+00	0	42	0	1244659712	9	3799
2026-01-11 10:08:24.00	51.68	18.82	-23.9	-24.3	18.5	0.00e+00	0	42	0	1249902592	9	3777
2026-01-11 10:08:25.01	51.44	18.85	-24.1	-24.7	18.3	0.00e+00	0	42	0	1256194048	9	3871
2026-01-11 10:08:26.02	51.20	18.87	-23.9	-24.3	18.5	0.00e+00	0	42	0	1261436928	9	3786
2026-01-11 10:08:27.03	50.96	18.90	-23.9	-24.4	18.5	0.00e+00	0	42	0	1267728384	9	3790
2026-01-11 10:08:28.03	50.73	18.92	-23.9	-24.4	18.5	0.00e+00	0	42	0	1272971264	9	3798
2026-01-11 10:08:29.03	50.49	18.94	-23.9	-24.4	18.5	0.00e+00	0	42	0	1278214144	9	3798
2026-01-11 10:08:30.04	50.25	18.97	-24.0	-24.6	18.3	0.00e+00	0	42	0	1284505600	9	3853
2026-01-11 10:08:31.05	50.01	18.99	-24.0	-24.5	18.4	0.00e+00	0	42	0	1289748480	9	3814
2026-01-11 10:08:32.05	49.77	19.01	-24.0	-24.6	18.4	0.00e+00	0	42	0	1294991360	9	3832
2026-01-11 10:08:33.06	49.53	19.03	-24.0	-24.6	18.4	0.00e+00	0	42	0	1301282816	9	3849
2026-01-11 10:08:34.07	49.29	19.06	-24.3	-25.1	18.1	0.00e+00	0	42	0	1306525696	9	3968
2026-01-11 10:08:35.08	49.05	19.08	-24.0	-24.5	18.4	0.00e+00	0	42	0	1312817152	9	3814
2026-01-11 10:08:36.08	48.81	19.10	-23.9	-24.3	18.5	0.00e+00	0	42	0	1318060032	9	3783
2026-01-11 10:08:37.09	48.57	19.12	-23.9	-24.3	18.5	0.00e+00	0	42	0	1324351488	9	3773
2026-01-11 10:08:38.10	48.32	19.14	-24.1	-24.7	18.3	0.00e+00	0	42	0	1329594368	9	3868
2026-01-11 10:08:39.10	48.08	19.15	-23.9	-24.4	18.5	0.00e+00	0	42	0	1334837248	9	3794
2026-01-11 10:08:40.11	47.84	19.17	-24.1	-24.8	18.3	0.00e+00	0	42	0	1341128704	9	3880
2026-01-11 10:08:41.11	47.60	19.19	-23.9	-24.4	18.5	0.00e+00	0	42	0	1346371584	9	3794
2026-01-11 10:08:42.11	47.36	19.21	-23.9	-24.3	18.5	0.00e+00	0	42	0	1352663040	9	3767
2026-01-11 10:08:43.12	47.11	19.22	-24.0	-24.4	18.5	0.00e+00	0	42	0	1357905920	9	3807
2026-01-11 10:08:44.12	46.87	19.24	-23.9	-24.3	18.5	0.00e+00	0	42	0	1363148800	9	3773
2026-01-11 10:08:45.13	46.63	19.26	-24.0	-24.5	18.4	0.00e+00	0	42	0	1369440256	9	3827
2026-01-11 10:08:46.13	46.38	19.27	-24.0	-24.6	18.4	0.00e+00	0	42	0	1374683136	9	3843
2026-01-11 10:08:47.13	46.14	19.29	-24.2	-25.0	18.2	0.00e+00	0	42	0	1379926016	9	3930
2026-01-11 10:08:48.13	45.90	19.30	-24.0	-24.5	18.4	0.00e+00	0	42	0	1386217472	9	3817
2026-01-11 10:08:49.14	45.65	19.31	-23.9	-24.3	18.6	0.00e+00	0	42	0	1391460352	9	3768
2026-01-11 10:08:50.15	45.41	19.33	-23.9	-24.4	18.5	0.00e+00	0	42	0	1397751808	9	3795
2026-01-11 10:08:51.14	45.17	19.34	-23.9	-24.4	18.5	0.00e+00	0	42	0	1402994688	9	3802
2026-01-11 10:08:52.15	44.92	19.35	-23.9	-24.4	18.5	0.00e+00	0	42	0	1408237568	9	3804
2026-01-11 10:08:53.16	44.67	19.36	-23.8	-24.1	18.6	0.00e+00	0	42	0	1414529024	9	3727
2026-01-11 10:08:54.16	44.43	19.37	-23.8	-24.5	18.7	0.00e+00	0	42	0	1419771904	8	3938
2026-01-11 10:08:55.17	44.18	19.38	-23.9	-24.8	18.5	0.00e+00	0	42	0	1426063360	8	3990
2026-01-11 10:08:56.17	43.94	19.39	-23.9	-24.8	18.5	0.00e+00	0	42	0	1431306240	8	4002
2026-01-11 10:08:57.18	43.69	19.40	-23.9	-24.8	18.5	0.00e+00	0	42	0	1436549120	8	4007
2026-01-11 10:08:58.18	43.45	19.41	-24.0	-25.0	18.4	0.00e+00	0	42	0	1442840576	8	4054
2026-01-11 10:08:59.18	43.20	19.42	-23.8	-24.6	18.6	0.00e+00	0	42	0	1448083456	8	3947
2026-01-11 10:09:00.19	42.96	19.43	-23.8	-24.6	18.6	0.00e+00	0	42	0	1453326336	8	3947
2026-01-11 10:09:01.20	42.71	19.43	-23.9	-24.8	18.5	0.00e+00	0	42	0	1459617792	8	3998
2026-01-11 10:09:02.20	42.46	19.44	-23.9	-24.9	18.5	0.00e+00	0	42	0	1464860672	8	4018
2026-01-11 10:09:03.21	42.22	19.44	-23.9	-24.8	18.5	0.00e+00	0	42	0	1471152128	8	3995
2026-01-11 10:09:04.21	41.97	19.45	-24.0	-25.0	18.4	0.00e+00	0	42	0	1476395008	8	4047
2026-01-11 10:09:05.22	41.72	19.45	-23.9	-24.7	18.6	0.00e+00	0	42	0	1482686464	8	3984
2026-01-11 10:09:06.23	41.47	19.46	-23.8	-24.6	18.6	0.00e+00	0	42	0	1487929344	8	3964
2026-01-11 10:09:07.24	41.23	19.46	-23.9	-24.8	18.5	0.00e+00	0	42	0	1493172224	8	3993
2026-01-11 10:09:08.24	40.98	19.47	-24.0	-25.0	18.4	0.00e+00	0	42	0	1499463680	8	4039
2026-01-11 10:09:09.25	40.73	19.47	-23.9	-24.9	18.5	0.00e+00	0	42	0	1504706560	8	4026
2026-01-11 10:09:10.26	40.49	19.47	-24.0	-25.0	18.4	0.00e+00	0	42	0	1509949440	8	4041
2026-01-11 10:09:11.27	40.24	19.47	-24.0	-25.0	18.4	0.00e+00	0	42	0	1516240896	8	4045
2026-01-11 10:09:12.27	39.99	19.47	-23.9	-24.7	18.6	0.00e+00	0	42	0	1521483776	8	3980
2026-01-11 10:09:13.28	39.74	19.47	-23.9	-24.8	18.5	0.00e+00	0	42	0	1527775232	8	4003
2026-01-11 10:09:14.28	39.50	19.47	-23.8	-24.7	18.6	0.00e+00	0	42	0	1533018112	8	3972
2026-01-11 10:09:15.28	39.25	19.47	-23.9	-24.9	18.5	0.00e+00	0	42	0	1538260992	8	4027
2026-01-11 10:09:16.28	39.01	19.47	-24.0	-25.1	18.4	0.00e+00	0	42	0	1544552448	8	4071
2026-01-11 10:09:17.29	38.76	19.47	-23.8	-24.7	18.6	0.00e+00	0	42	0	1549795328	8	3981
2026-01-11 10:09:18.30	38.51	19.47	-23.8	-24.5	18.7	0.00e+00	0	42	0	1556086784	8	3932
2026-01-11 10:09:19.30	38.27	19.46	-23.7	-24.5	18.7	0.00e+00	0	42	0	1561329664	8	3929
2026-01-11 10:09:20.31	38.02	19.46	-23.7	-24.3	18.8	0.00e+00	0	42	0	1566572544	8	3889
2026-01-11 10:09:21.32	37.77	19.45	-23.7	-24.5	18.7	0.00e+00	0	42	0	1572864000	8	3922
2026-01-11 10:09:22.32	37.52	19.45	-23.9	-24.8	18.5	0.00e+00	0	42	0	1578106880	8	4002
2026-01-11 10:09:23.33	37.28	19.44	-24.0	-25.1	18.4	0.00e+00	0	42	0	1584398336	8	4087
2026-01-11 10:09:24.34	37.03	19.44	-24.0	-25.0	18.4	0.00e+00	0	42	0	1589641216	8	4053
2026-01-11 10:09:25.35	36.78	19.43	-24.1	-25.3	18.3	0.00e+00	0	42	0	1594884096	8	4120
2026-01-11 10:09:26.35	36.54	19.43	-24.1	-25.3	18.3	0.00e+00	0	42	0	1601175552	8	4121
2026-01-11 10:09:27.35	36.29	19.42	-23.9	-24.9	18.5	0.00e+00	0	42	0	1606418432	8	4021
2026-01-11 10:09:28.35	36.05	19.41	-23.7	-24.5	18.7	0.00e+00	0	42	0	1611661312	8	3917
2026-01-11 10:09:29.36	35.80	19.40	-23.7	-24.4	18.7	0.00e+00	0	42	0	1617952768	8	3910
2026-01-11 10:09:30.37	35.55	19.39	-23.6	-24.3	18.8	0.00e+00	0	42	0	1623195648	8	3875
2026-01-11 10:09:31.38	35.31	19.38	-23.7	-24.3	18.7	0.00e+00	0	42	0	1629487104	8	3886
2026-01-11 10:09:32.38	35.06	19.37	-23.8	-24.6	18.6	0.00e+00	0	42	0	1634729984	8	3957
2026-01-11 10:09:33.39	34.82	19.36	-23.7	-24.5	18.7	0.00e+00	0	42	0	1641021440	8	3917
2026-01-11 10:09:34.39	34.57	19.35	-23.8	-24.7	18.6	0.00e+00	0	42	0	1646264320	8	3969
2026-01-11 10:09:35.40	34.33	19.34	-23.9	-24.9	18.5	0.00e+00	0	42	0	1651507200	8	4020
2026-01-11 10:09:36.41	34.08	19.33	-23.9	-24.8	18.5	0.00e+00	0	42	0	1657798656	8	3997
2026-01-11 10:09:37.42	33.84	19.31	-23.9	-24.8	18.5	0.00e+00	0	42	0	1663041536	8	3996
2026-01-11 10:09:38.42	33.59	19.30	-23.9	-24.7	18.5	0.00e+00	0	42	0	1669332992	8	3986
2026-01-11 10:09:39.43	33.35	19.29	-23.9	-24.8	18.5	0.00e+00	0	42	0	1674575872	8	3994
2026-01-11 10:09:40.43	33.11	19.27	-24.2	-25.5	18.2	0.00e+00	0	42	0	1679818752	8	4172
2026-01-11 10:09:41.44	32.86	19.26	-23.9	-24.8	18.5	0.00e+00	0	42	0	1686110208	8	3986
2026-01-11 10:09:42.44	32.62	19.24	-23.8	-24.6	18.6	0.00e+00	0	42	0	1691353088	8	3946
2026-01-11 10:09:43.44	32.38	19.22	-23.7	-24.4	18.7	0.00e+00	0	42	0	1697644544	8	3898
2026-01-11 10:09:44.44	32.14	19.21	-23.8	-24.6	18.6	0.00e+00	0	42	0	1702887424	8	3961
2026-01-11 10:09:45.45	31.89	19.19	-23.9	-24.9	18.5	0.00e+00	0	42	0	1708130304	8	4029
2026-01-11 10:09:46.46	31.65	19.17	-23.8	-24.6	18.6	0.00e+00	0	42	0	1714421760	8	3958
2026-01-11 10:09:47.46	31.41	19.15	-24.1	-25.2	18.3	0.00e+00	0	42	0	1719664640	8	4099
2026-01-11 10:09:48.47	31.17	19.14	-24.0	-25.1	18.3	0.00e+00	0	42	0	1725956096	8	4077
2026-01-11 10:09:49.47	30.93	19.12	-23.8	-24.6	18.6	0.00e+00	0	42	0	1731198976	8	3946
2026-01-11 10:09:50.48	30.68	19.10	-23.8	-24.6	18.6	0.00e+00	0	42	0	1736441856	8	3946
2026-01-11 10:09:51.49	30.44	19.08	-23.8	-24.7	18.5	0.00e+00	0	42	0	1742733312	8	3980
2026-01-11 10:09:52.50	30.20	19.06	-23.8	-24.7	18.5	0.00e+00	0	42	0	1747976192	8	3974
2026-01-11 10:09:53.50	29.96	19.03	-23.8	-24.7	18.6	0.00e+00	0	42	0	1753219072	8	3970
2026-01-11 10:09:54.50	29.72	19.01	-23.8	-24.6	18.6	0.00e+00	0	42	0	1759510528	8	3943
2026-01-11 10:09:55.51	29.48	18.99	-23.9	-24.8	18.5	0.00e+00	0	42	0	1764753408	8	4005
2026-01-11 10:09:56.52	29.24	18.97	-24.0	-25.0	18.4	0.00e+00	0	42	0	1771044864	8	4057
2026-01-11 10:09:57.52	29.01	18.94	-24.1	-25.2	18.3	0.00e+00	0	42	0	1776287744	8	4096
2026-01-11 10:09:58.53	28.77	18.92	-24.1	-25.3	18.2	0.00e+00	0	42	0	1782579200	8	4132
2026-01-11 10:09:59.53	28.53	18.90	-24.1	-25.3	18.3	0.00e+00	0	42	0	1787822080	8	4114
2026-01-11 10:10:00.53	28.30	18.87	-24.1	-25.4	18.2	1.10e-06	0	42	0	1793064960	8	4135
2026-01-11 10:10:01.54	28.06	18.85	-24.0	-25.0	18.4	0.00e+00	0	42	0	1799356416	8	4052
2026-01-11 10:10:02.55	27.82	18.82	-23.6	-24.2	18.8	0.00e+00	0	42	0	1804599296	8	3855
2026-01-11 10:10:03.56	27.58	18.79	-23.7	-24.4	18.7	0.00e+00	0	42	0	1809842176	8	3897
2026-01-11 10:10:04.57	27.35	18.77	-23.7	-24.5	18.7	0.00e+00	0	42	0	1816133632	8	3928
2026-01-11 10:10:05.57	27.11	18.74	-23.8	-24.7	18.5	0.00e+00	0	42	0	1821376512	8	3983
2026-01-11 10:10:06.58	26.88	18.71	-23.8	-24.6	18.6	0.00e+00	0	42	0	1827667968	8	3966
2026-01-11 10:10:07.59	26.64	18.68	-23.8	-24.5	18.6	0.00e+00	0	42	0	1832910848	8	3936
2026-01-11 10:10:08.60	26.41	18.66	-23.9	-24.7	18.5	0.00e+00	0	42	0	1838153728	8	3984
2026-01-11 10:10:09.60	26.17	18.63	-23.9	-24.7	18.5	0.00e+00	0	42	0	1844445184	8	3981
2026-01-11 10:10:10.61	25.94	18.60	-23.9	-24.9	18.4	0.00e+00	0	42	0	1849688064	8	4023
2026-01-11 10:10:11.62	25.71	18.57	-24.2	-25.4	18.2	0.00e+00	0	42	0	1855979520	8	4150
2026-01-11 10:10:12.63	25.47	18.54	-24.2	-25.4	18.2	0.00e+00	0	42	0	1861222400	8	4154
2026-01-11 10:10:13.63	25.24	18.51	-24.8	-26.2	17.5	0.00e+00	0	42	0	1867513856	9	4234
2026-01-11 10:10:14.64	25.01	18.47	-24.5	-25.6	17.8	0.00e+00	0	42	0	1872756736	9	4096
2026-01-11 10:10:15.64	24.78	18.44	-24.3	-25.2	18.0	0.00e+00	0	42	0	1877999616	9	3990
2026-01-11 10:10:16.65	24.55	18.41	-24.5	-25.6	17.8	0.00e+00	0	42	0	1884291072	9	4085
2026-01-11 10:10:17.65	24.32	18.38	-24.4	-25.4	17.9	0.00e+00	0	42	0	1889533952	9	4043
2026-01-11 10:10:18.66	24.09	18.35	-24.4	-25.5	17.9	0.00e+00	0	42	0	1894776832	9	4051
2026-01-11 10:10:19.66	23.86	18.31	-24.3	-25.2	18.0	0.00e+00	0	42	0	1901068288	9	3992
2026-01-11 10:10:20.67	23.63	18.28	-24.1	-24.8	18.2	0.00e+00	0	42	0	1906311168	9	3894
2026-01-11 10:10:21.67	23.41	18.24	-23.9	-24.3	18.5	0.00e+00	0	42	0	1912602624	9	3778
2026-01-11 10:10:22.67	23.18	18.21	-23.8	-24.5	18.6	0.00e+00	0	42	0	1917845504	8	3937
2026-01-11 10:10:23.68	22.95	18.17	-23.9	-24.8	18.5	0.00e+00	0	42	0	1923088384	8	3996
2026-01-11 10:10:24.69	22.73	18.14	-23.9	-24.9	18.4	0.00e+00	0	42	0	1929379840	8	4019
2026-01-11 10:10:25.69	22.50	18.10	-24.0	-25.1	18.3	0.00e+00	0	42	0	1934622720	8	4065
2026-01-11 10:10:26.70	22.28	18.07	-24.1	-25.2	18.2	0.00e+00	0	42	0	1940914176	8	4093
2026-01-11 10:10:27.71	22.05	18.03	-24.0	-25.1	18.3	0.00e+00	0	42	0	1946157056	8	4069
2026-01-11 10:10:28.70	21.83	17.99	-24.1	-25.3	18.2	0.00e+00	0	42	0	1951399936	8	4122
2026-01-11 10:10:29.70	21.61	17.96	-24.0	-25.1	18.3	0.00e+00	0	42	0	1957691392	8	4074
2026-01-11 10:10:30.71	21.38	17.92	-24.0	-25.1	18.3	0.00e+00	0	42	0	1962934272	8	4078
2026-01-11 10:10:31.71	21.16	17.88	-24.1	-25.2	18.2	0.00e+00	0	42	0	1969225728	8	4106
2026-01-11 10:10:32.72	20.94	17.84	-24.0	-25.2	18.3	0.00e+00	0	42	0	1974468608	8	4094
2026-01-11 10:10:33.73	20.72	17.80	-24.0	-25.0	18.3	0.00e+00	0	42	0	1979711488	8	4063
2026-01-11 10:10:34.73	20.50	17.76	-24.1	-25.3	18.2	0.00e+00	0	42	0	1986002944	8	4118
2026-01-11 10:10:35.73	20.28	17.72	-24.2	-25.5	18.0	0.00e+00	0	42	0	1991245824	8	4183
2026-01-11 10:10:36.73	20.06	17.68	-24.3	-25.8	17.9	0.00e+00	0	42	0	1996488704	8	4246
2026-01-11 10:10:37.74	19.84	17.64	-24.5	-26.1	17.8	0.00e+00	0	42	0	2002780160	8	4326
2026-01-11 10:10:38.76	19.62	17.60	-24.4	-26.0	17.8	0.00e+00	0	42	0	2008023040	8	4298
2026-01-11 10:10:39.76	19.40	17.56	-24.7	-26.0	17.6	0.00e+00	0	42	0	2014314496	9	4181
2026-01-11 10:10:40.77	19.19	17.52	-24.5	-25.7	17.7	0.00e+00	0	42	0	2019557376	9	4112
2026-01-11 10:10:41.78	18.97	17.47	-24.4	-25.4	17.8	0.00e+00	0	42	0	2025848832	9	4041
2026-01-11 10:10:42.78	18.76	17.43	-24.4	-25.4	17.9	0.00e+00	0	42	0	2031091712	9	4028
2026-01-11 10:10:43.78	18.54	17.39	-24.5	-25.5	17.8	0.00e+00	0	42	0	2036334592	9	4070
2026-01-11 10:10:44.79	18.33	17.35	-24.5	-25.7	17.7	0.00e+00	0	42	0	2042626048	9	4111
2026-01-11 10:10:45.80	18.11	17.30	-24.5	-25.7	17.7	0.00e+00	0	42	0	2047868928	9	4119
2026-01-11 10:10:46.80	17.90	17.26	-24.5	-25.7	17.7	0.00e+00	0	42	0	2053111808	9	4114
2026-01-11 10:10:47.81	17.69	17.22	-24.7	-26.0	17.5	0.00e+00	0	42	0	2059403264	9	4189
2026-01-11 10:10:48.82	17.47	17.17	-24.6	-25.8	17.6	0.00e+00	0	42	0	2064646144	9	4145
2026-01-11 10:10:49.82	17.26	17.13	-24.4	-25.5	17.8	0.00e+00	0	42	0	2070937600	9	4062
2026-01-11 10:10:50.83	17.05	17.08	-24.4	-25.5	17.8	0.00e+00	0	42	0	2076180480	9	4053
2026-01-11 10:10:51.83	16.84	17.04	-24.6	-25.8	17.6	0.00e+00	0	42	0	2081423360	9	4139
2026-01-11 10:10:52.84	16.63	16.99	-24.7	-26.1	17.4	0.00e+00	0	42	0	2087714816	9	4223
2026-01-11 10:10:53.85	16.42	16.94	-24.7	-26.0	17.5	0.00e+00	0	42	0	2092957696	9	4194
2026-01-11 10:10:54.86	16.21	16.90	-24.6	-25.8	17.6	0.00e+00	0	42	0	2099249152	9	4135
2026-01-11 10:10:55.87	16.00	16.85	-24.6	-25.9	17.5	0.00e+00	0	42	0	2104492032	9	4175
2026-01-11 10:10:56.87	15.80	16.81	-24.8	-26.2	17.4	0.00e+00	0	42	0	2110783488	9	4244
2026-01-11 10:10:57.88	15.59	16.76	-24.8	-26.3	17.3	0.00e+00	0	42	0	2116026368	9	4270
2026-01-11 10:10:58.89	15.39	16.71	-24.8	-26.2	17.4	0.00e+00	0	42	0	2121269248	9	4239
2026-01-11 10:10:59.89	15.18	16.66	-24.7	-26.0	17.5	0.00e+00	0	42	0	2127560704	9	4195
2026-01-11 10:11:00.90	14.98	16.61	-24.7	-26.1	17.4	0.00e+00	0	42	0	2132803584	9	4211
2026-01-11 10:11:01.91	14.77	16.57	-24.7	-26.1	17.4	0.00e+00	0	42	0	2138046464	9	4219
2026-01-11 10:11:02.92	14.57	16.52	-24.9	-26.4	17.3	0.00e+00	0	42	0	2144337920	9	4291
2026-01-11 10:11:03.93	14.37	16.47	-24.7	-26.1	17.4	0.00e+00	0	42	0	2149580800	9	4221
2026-01-11 10:11:04.93	14.17	16.42	-25.1	-26.5	17.0	0.00e+00	0	42	0	2155872256	10	4201
2026-01-11 10:11:05.94	13.96	16.37	-24.9	-26.1	17.2	0.00e+00	0	42	0	2161115136	10	4101
2026-01-11 10:11:06.95	13.76	16.32	-24.8	-25.7	17.4	0.00e+00	0	42	0	2166358016	10	4020
2026-01-11 10:11:07.96	13.56	16.27	-24.8	-25.8	17.3	0.00e+00	0	42	0	2172649472	10	4033
2026-01-11 10:11:08.97	13.36	16.22	-24.9	-26.1	17.2	0.00e+00	0	42	0	2177892352	10	4103
2026-01-11 10:11:09.97	13.17	16.17	-24.7	-25.5	17.5	0.00e+00	0	42	0	2184183808	10	3949
2026-01-11 10:11:10.98	12.97	16.12	-24.7	-25.5	17.5	0.00e+00	0	42	0	2189426688	10	3955
2026-01-11 10:11:11.98	12.77	16.07	-24.8	-25.7	17.3	0.00e+00	0	42	0	2195718144	10	4012
2026-01-11 10:11:12.99	12.57	16.02	-24.8	-25.8	17.3	0.00e+00	0	42	0	2200961024	10	4019
2026-01-11 10:11:14.00	12.38	15.97	-24.9	-25.9	17.3	0.00e+00	0	42	0	2206203904	10	4057
2026-01-11 10:11:15.01	12.18	15.91	-24.8	-25.7	17.4	0.00e+00	0	42	0	2212495360	10	3998
2026-01-11 10:11:16.02	11.99	15.86	-24.8	-25.8	17.3	0.00e+00	0	42	0	2217738240	10	4036
2026-01-11 10:11:17.03	11.79	15.81	-24.8	-25.7	17.4	0.00e+00	0	42	0	2224029696	10	4005
2026-01-11 10:11:18.03	11.60	15.76	-25.0	-26.2	17.1	0.00e+00	0	42	0	2229272576	10	4135
2026-01-11 10:11:19.04	11.41	15.71	-24.9	-26.0	17.2	1.10e-06	0	42	0	2234515456	10	4071
2026-01-11 10:11:20.04	11.22	15.65	-24.9	-25.9	17.2	0.00e+00	0	42	0	2240806912	10	4063
2026-01-11 10:11:21.05	11.03	15.60	-24.9	-25.9	17.2	0.00e+00	0	42	0	2246049792	10	4057
2026-01-11 10:11:22.06	10.84	15.55	-25.0	-26.2	17.1	0.00e+00	0	42	0	2251292672	10	4134
2026-01-11 10:11:23.07	10.65	15.49	-24.8	-25.7	17.4	0.00e+00	0	42	0	2257584128	10	3999
2026-01-11 10:11:24.07	10.46	15.44	-24.9	-25.9	17.2	0.00e+00	0	42	0	2262827008	10	4063
2026-01-11 10:11:25.08	10.27	15.39	-25.0	-26.2	17.1	0.00e+00	0	42	0	2269118464	10	4136
2026-01-11 10:11:26.09	10.08	15.33	-25.1	-26.5	16.9	0.00e+00	0	42	0	2274361344	10	4211
2026-01-11 10:11:27.10	9.90	15.28	-25.1	-26.4	17.0	0.00e+00	0	42	0	2280652800	10	4183
2026-01-11 10:11:28.10	9.71	15.23	-25.0	-26.2	17.0	0.00e+00	0	42	0	2285895680	10	4142
2026-01-11 10:11:29.11	9.52	15.17	-25.1	-26.3	17.0	0.00e+00	0	42	0	2291138560	10	4166
2026-01-11 10:11:30.11	9.34	15.12	-25.3	-26.9	16.7	0.00e+00	0	42	0	2297430016	10	4308
2026-01-11 10:11:31.12	9.16	15.06	-25.5	-26.7	16.5	0.00e+00	0	42	0	2302672896	11	4138
2026-01-11 10:11:32.13	8.97	15.01	-25.3	-26.3	16.7	0.00e+00	0	42	0	2308964352	11	4054
2026-01-11 10:11:33.13	8.79	14.95	-25.4	-26.6	16.6	0.00e+00	0	42	0	2314207232	11	4127
2026-01-11 10:11:34.14	8.61	14.90	-25.6	-27.0	16.4	0.00e+00	0	42	0	2319450112	11	4220
2026-01-11 10:11:35.15	8.43	14.84	-25.6	-27.0	16.4	0.00e+00	0	42	0	2325741568	11	4223
2026-01-11 10:11:36.15	8.25	14.79	-25.6	-27.0	16.4	0.00e+00	0	42	0	2330984448	11	4227
2026-01-11 10:11:37.15	8.07	14.73	-25.8	-27.4	16.1	0.00e+00	0	42	0	2336227328	11	4348
2026-01-11 10:11:38.15	7.89	14.67	-25.4	-26.5	16.6	0.00e+00	0	42	0	2342518784	11	4098
2026-01-11 10:11:39.15	7.71	14.62	-25.1	-25.9	16.9	0.00e+00	0	42	0	2347761664	11	3958
2026-01-11 10:11:40.16	7.54	14.56	-25.0	-25.6	17.1	0.00e+00	0	42	0	2354053120	11	3884
2026-01-11 10:11:41.16	7.36	14.51	-25.1	-25.9	16.9	0.00e+00	0	42	0	2359296000	11	3946
2026-01-11 10:11:42.17	7.18	14.45	-25.2	-26.1	16.9	0.00e+00	0	42	0	2365587456	11	3998
2026-01-11 10:11:43.18	7.01	14.39	-25.5	-26.7	16.5	0.00e+00	0	42	0	2370830336	11	4151
2026-01-11 10:11:44.19	6.83	14.34	-25.3	-26.4	16.6	0.00e+00	0	42	0	2376073216	11	4080
2026-01-11 10:11:45.19	6.66	14.28	-25.4	-26.6	16.6	0.00e+00	0	42	0	2382364672	11	4115
2026-01-11 10:11:46.20	6.48	14.22	-25.4	-26.5	16.6	0.00e+00	0	42	0	2387607552	11	4098
2026-01-11 10:11:47.21	6.31	14.17	-25.3	-26.4	16.6	0.00e+00	0	42	0	2392850432	11	4074
2026-01-11 10:11:48.21	6.14	14.11	-25.3	-26.3	16.7	0.00e+00	0	42	0	2399141888	11	4042
2026-01-11 10:11:49.22	5.97	14.05	-25.5	-26.8	16.5	0.00e+00	0	42	0	2404384768	11	4177
2026-01-11 10:11:50.22	5.80	13.99	-25.6	-27.1	16.3	0.00e+00	0	42	0	2410676224	11	4248
2026-01-11 10:11:51.23	5.63	13.94	-25.8	-27.4	16.1	0.00e+00	0	42	0	2415919104	11	4345
2026-01-11 10:11:52.23	5.46	13.88	-25.6	-26.9	16.3	0.00e+00	0	42	0	2421161984	11	4220
2026-01-11 10:11:53.24	5.29	13.82	-25.6	-27.0	16.3	0.00e+00	0	42	0	2427453440	11	4238
2026-01-11 10:11:54.25	5.12	13.76	-25.8	-27.5	16.0	0.00e+00	0	42	0	2432696320	11	4360
2026-01-11 10:11:55.25	4.95	13.70	-25.6	-27.0	16.3	0.00e+00	0	42	0	2438987776	11	4232
2026-01-11 10:11:56.26	4.78	13.65	-25.5	-26.8	16.4	0.00e+00	0	42	0	2444230656	11	4181
2026-01-11 10:11:57.27	4.62	13.59	-25.4	-26.6	16.5	0.00e+00	0	42	0	2450522112	11	4131
2026-01-11 10:11:58.28	4.45	13.53	-25.5	-26.9	16.3	0.00e+00	0	42	0	2455764992	11	4204
2026-01-11 10:11:59.28	4.29	13.47	-25.7	-27.3	16.2	0.00e+00	0	42	0	2461007872	11	4303
2026-01-11 10:12:00.29	4.12	13.41	-25.7	-27.1	16.2	0.00e+00	0	42	0	2467299328	11	4270
2026-01-11 10:12:01.30	3.96	13.35	-25.5	-26.8	16.4	0.00e+00	0	42	0	2472542208	11	4186
2026-01-11 10:12:02.30	3.80	13.29	-25.5	-26.7	16.5	0.00e+00	0	42	0	2477785088	11	4153
2026-01-11 10:12:03.31	3.63	13.24	-25.5	-26.8	16.4	0.00e+00	0	42	0	2484076544	11	4171
2026-01-11 10:12:04.32	3.47	13.18	-25.7	-27.2	16.2	0.00e+00	0	42	0	2489319424	11	4274
2026-01-11 10:12:05.33	3.31	13.12	-25.5	-26.8	16.4	0.00e+00	0	42	0	2495610880	11	4182
2026-01-11 10:12:06.33	3.15	13.06	-25.5	-26.8	16.4	0.00e+00	0	42	0	2500853760	11	4175
2026-01-11 10:12:07.34	2.99	13.00	-25.5	-26.7	16.4	0.00e+00	0	42	0	2506096640	11	4155
2026-01-11 10:12:08.35	2.83	12.94	-25.5	-26.9	16.3	0.00e+00	0	42	0	2512388096	11	4208
2026-01-11 10:12:09.35	2.67	12.88	-25.6	-27.0	16.3	0.00e+00	0	42	0	2517630976	11	4231
2026-01-11 10:12:10.36	2.52	12.82	-25.7	-27.2	16.1	0.00e+00	0	42	0	2523922432	11	4293
2026-01-11 10:12:11.36	2.36	12.76	-25.6	-27.0	16.2	0.00e+00	0	42	0	2529165312	11	4246
2026-01-11 10:12:12.37	2.20	12.70	-25.7	-27.2	16.1	0.00e+00	0	42	0	2535456768	11	4286
2026-01-11 10:12:13.38	2.05	12.64	-25.7	-27.3	16.0	0.00e+00	0	42	0	2540699648	11	4317
2026-01-11 10:12:14.39	1.89	12.58	-25.9	-27.6	15.9	0.00e+00	0	42	0	2545942528	11	4394
2026-01-11 10:12:15.39	1.74	12.52	-26.0	-27.8	15.7	0.00e+00	0	42	0	2552233984	11	4455
2026-01-11 10:12:16.39	1.58	12.46	-26.2	-27.9	15.4	0.00e+00	0	42	0	2557476864	12	4367
2026-01-11 10:12:17.40	1.43	12.40	-26.3	-28.1	15.2	0.00e+00	0	42	0	2562719744	12	4434
2026-01-11 10:12:18.41	1.28	12.34	-26.0	-27.4	15.7	0.00e+00	0	42	0	2569011200	12	4230
2026-01-11 10:12:19.41	1.13	12.28	-25.9	-27.1	15.8	0.00e+00	0	42	0	2574254080	12	4166
2026-01-11 10:12:20.42	0.98	12.22	-25.7	-26.8	15.9	0.00e+00	0	42	0	2580545536	12	4086
2026-01-11 10:12:21.42	0.83	12.16	-25.8	-26.9	15.9	0.00e+00	0	42	0	2585788416	12	4104
2026-01-11 10:12:22.42	0.68	12.10	-25.9	-27.2	15.8	0.00e+00	0	42	0	2591031296	12	4173
2026-01-11 10:12:23.43	0.53	12.04	-25.9	-27.2	15.7	0.00e+00	0	42	0	2597322752	12	4188
2026-01-11 10:12:24.43	0.38	11.98	-26.1	-27.6	15.5	0.00e+00	0	42	0	2602565632	12	4287
2026-01-11 10:12:25.44	0.23	11.92	-25.9	-27.3	15.7	0.00e+00	0	42	0	2608857088	12	4202
2026-01-11 10:12:26.45	0.08	11.86	-26.0	-27.5	15.5	0.00e+00	0	42	0	2614099968	12	4267
2026-01-11 10:12:27.45	359.94	11.80	-26.1	-27.5	15.5	0.00e+00	0	42	0	2619342848	12	4277
2026-01-11 10:12:28.45	359.79	11.74	-25.8	-26.9	15.9	0.00e+00	0	42	0	2625634304	12	4102
2026-01-11 10:12:29.46	359.64	11.68	-25.6	-26.6	16.1	0.00e+00	0	42	0	2630877184	12	4014
2026-01-11 10:12:30.47	359.50	11.62	-25.6	-26.6	16.1	0.00e+00	0	42	0	2637168640	12	4015
2026-01-11 10:12:31.47	359.36	11.56	-25.8	-27.0	15.8	0.00e+00	0	42	0	2642411520	12	4125
2026-01-11 10:12:32.47	359.21	11.50	-25.9	-27.2	15.7	0.00e+00	0	42	0	2647654400	12	4192
2026-01-11 10:12:33.48	359.07	11.44	-26.0	-27.4	15.6	1.10e-06	0	42	0	2653945856	12	4225
2026-01-11 10:12:34.49	358.93	11.38	-25.7	-26.8	15.9	0.00e+00	0	42	0	2659188736	12	4081
2026-01-11 10:12:35.49	358.78	11.32	-25.9	-27.3	15.6	0.00e+00	0	42	0	2664431616	12	4207
2026-01-11 10:12:36.50	358.64	11.26	-25.8	-27.0	15.8	0.00e+00	0	42	0	2670723072	12	4136
2026-01-11 10:12:37.50	358.50	11.20	-25.8	-27.0	15.8	0.00e+00	0	42	0	2675965952	12	4127
2026-01-11 10:12:38.51	358.36	11.14	-26.0	-27.5	15.5	0.00e+00	0	42	0	2682257408	12	4255
2026-01-11 10:12:39.52	358.22	11.08	-26.0	-27.4	15.6	0.00e+00	0	42	0	2687500288	12	4227
2026-01-11 10:12:40.52	358.08	11.02	-25.9	-27.2	15.7	0.00e+00	0	42	0	2693791744	12	4171
2026-01-11 10:12:41.53	357.94	10.96	-26.0	-27.5	15.5	0.00e+00	0	42	0	2699034624	12	4258
2026-01-11 10:12:42.54	357.81	10.90	-26.0	-27.5	15.5	0.00e+00	0	42	0	2704277504	12	4257
2026-01-11 10:12:43.55	357.67	10.84	-26.1	-27.6	15.4	0.00e+00	0	42	0	2710568960	12	4304
2026-01-11 10:12:44.56	357.53	10.77	-26.2	-27.9	15.3	0.00e+00	0	42	0	2715811840	12	4365
2026-01-11 10:12:45.56	357.40	10.71	-26.0	-27.5	15.5	0.00e+00	0	42	0	2722103296	12	4256
2026-01-11 10:12:46.57	357.26	10.65	-26.1	-27.7	15.4	0.00e+00	0	42	0	2727346176	12	4323
2026-01-11 10:12:47.57	357.13	10.59	-26.0	-27.5	15.5	0.00e+00	0	42	0	2732589056	12	4251
2026-01-11 10:12:48.58	356.99	10.53	-25.9	-27.3	15.6	0.00e+00	0	42	0	2738880512	12	4201
2026-01-11 10:12:49.58	356.86	10.47	-26.2	-28.0	15.2	0.00e+00	0	42	0	2744123392	12	4396
2026-01-11 10:12:50.58	356.73	10.41	-26.2	-28.0	15.2	0.00e+00	0	42	0	2749366272	12	4393
2026-01-11 10:12:51.59	356.59	10.35	-26.2	-27.9	15.2	0.00e+00	0	42	0	2755657728	12	4374
2026-01-11 10:12:52.59	356.46	10.29	-26.0	-27.6	15.4	0.00e+00	0	42	0	2760900608	12	4286
2026-01-11 10:12:53.60	356.33	10.23	-26.2	-27.8	15.2	0.00e+00	0	42	0	2767192064	12	4353
2026-01-11 10:12:54.61	356.20	10.17	-26.3	-28.0	15.1	0.00e+00	0	42	0	2772434944	12	4421
2026-01-11 10:12:55.62	356.07	10.11	-26.1	-27.6	15.3	0.00e+00	0	42	0	2778726400	12	4298
2026-01-11 10:12:56.62	355.94	10.05	-26.0	-27.4	15.4	0.00e+00	0	42	0	2783969280	12	4241
2026-01-11 10:12:57.63	355.81	9.99	-26.3	-28.0	15.1	0.00e+00	0	42	0	2789212160	12	4416
2026-01-11 10:12:58.64	355.68	9.93	-26.1	-27.7	15.3	0.00e+00	0	42	0	2795503616	12	4310
2026-01-11 10:12:59.64	355.55	9.87	-26.0	-27.6	15.4	0.00e+00	0	42	0	2800746496	12	4287
2026-01-11 10:13:00.65	355.42	9.80	-26.2	-27.9	15.2	0.00e+00	0	42	0	2805989376	12	4370
2026-01-11 10:13:01.66	355.29	9.74	-26.1	-27.7	15.3	0.00e+00	0	42	0	2812280832	12	4329
2026-01-11 10:13:02.67	355.17	9.68	-26.3	-28.1	15.0	0.00e+00	0	42	0	2817523712	12	4424
2026-01-11 10:13:03.67	355.04	9.62	-26.4	-28.4	14.9	0.00e+00	0	42	0	2823815168	12	4510
2026-01-11 10:13:04.68	354.92	9.56	-26.3	-28.1	15.1	0.00e+00	0	42	0	2829058048	12	4432
2026-01-11 10:13:05.68	354.79	9.50	-26.8	-28.8	14.4	0.00e+00	0	42	0	2834300928	13	4518
2026-01-11 10:13:06.69	354.67	9.44	-26.6	-28.4	14.6	1.10e-06	0	42	0	2840592384	13	4405
2026-01-11 10:13:07.70	354.54	9.38	-26.3	-27.6	15.0	0.00e+00	0	42	0	2845835264	13	4174
2026-01-11 10:13:08.70	354.42	9.32	-26.5	-28.1	14.7	0.00e+00	0	42	0	2852126720	13	4330
2026-01-11 10:13:09.70	354.30	9.26	-26.5	-28.1	14.7	0.00e+00	0	42	0	2857369600	13	4334
2026-01-11 10:13:10.71	354.18	9.20	-26.6	-28.3	14.6	0.00e+00	0	42	0	2863661056	13	4393
2026-01-11 10:13:11.72	354.05	9.14	-26.5	-28.1	14.7	1.10e-06	0	42	0	2868903936	13	4318
2026-01-11 10:13:12.72	353.93	9.08	-26.9	-29.0	14.2	0.00e+00	0	42	0	2874146816	13	4584
2026-01-11 10:13:13.73	353.81	9.02	-26.8	-28.7	14.3	0.00e+00	0	42	0	2880438272	13	4494
2026-01-11 10:13:14.73	353.69	8.96	-26.6	-28.3	14.6	0.00e+00	0	42	0	2885681152	13	4378
2026-01-11 10:13:15.74	353.57	8.90	-26.8	-28.7	14.3	0.00e+00	0	42	0	2890924032	13	4497
2026-01-11 10:13:16.74	353.45	8.84	-26.8	-28.9	14.3	0.00e+00	0	42	0	2897215488	13	4551
2026-01-11 10:13:17.75	353.33	8.78	-26.8	-28.9	14.2	1.10e-06	0	42	0	2902458368	13	4551
2026-01-11 10:13:18.76	353.21	8.72	-26.5	-28.2	14.6	0.00e+00	0	42	0	2907701248	13	4356
2026-01-11 10:13:19.76	353.10	8.66	-26.8	-28.7	14.3	0.00e+00	0	42	0	2913992704	13	4498
2026-01-11 10:13:20.76	352.98	8.60	-26.8	-28.7	14.3	0.00e+00	0	42	0	2919235584	13	4507
2026-01-11 10:13:21.77	352.86	8.53	-26.9	-28.5	14.1	3.40e-06	0	42	0	2925527040	14	4327
2026-01-11 10:13:22.78	352.75	8.47	-27.0	-28.8	13.9	2.20e-06	0	42	0	2930769920	14	4414
2026-01-11 10:13:23.79	352.63	8.41	-26.8	-28.2	14.3	0.00e+00	0	42	0	2937061376	14	4255
2026-01-11 10:13:24.79	352.52	8.35	-26.9	-28.4	14.1	0.00e+00	0	42	0	2942304256	14	4316
2026-01-11 10:13:25.80	352.40	8.29	-26.9	-28.4	14.2	0.00e+00	0	42	0	2947547136	14	4314
2026-01-11 10:13:26.81	352.29	8.23	-26.9	-28.5	14.1	1.10e-06	0	42	0	2953838592	14	4325
2026-01-11 10:13:27.82	352.17	8.17	-27.4	-29.7	13.4	4.50e-06	0	42	0	2959081472	14	4690
2026-01-11 10:13:28.82	352.06	8.11	-27.3	-29.0	13.5	8.00e-06	0	42	0	2965372928	15	4384
2026-01-11 10:13:29.83	351.95	8.05	-27.2	-28.6	13.8	4.50e-06	0	42	0	2970615808	15	4255
2026-01-11 10:13:30.84	351.83	7.99	-26.9	-28.1	14.0	1.10e-06	0	42	0	2975858688	15	4116
2026-01-11 10:13:31.85	351.72	7.93	-26.8	-27.8	14.2	0.00e+00	0	42	0	2982150144	15	4045
2026-01-11 10:13:32.86	351.61	7.87	-26.7	-28.1	14.4	1.10e-06	0	42	0	2987393024	14	4208
2026-01-11 10:13:33.87	351.50	7.81	-26.5	-27.7	14.6	0.00e+00	0	42	0	2993684480	14	4109
2026-01-11 10:13:34.87	351.39	7.75	-26.6	-27.9	14.4	1.10e-06	0	42	0	2998927360	14	4182
2026-01-11 10:13:35.88	351.28	7.69	-26.7	-28.0	14.3	0.00e+00	0	42	0	3004170240	14	4196
2026-01-11 10:13:36.88	351.17	7.63	-26.8	-28.2	14.2	0.00e+00	0	42	0	3010461696	14	4264
2026-01-11 10:13:37.89	351.06	7.57	-26.8	-28.2	14.2	2.20e-06	0	42	0	3015704576	14	4256
2026-01-11 10:13:38.90	350.95	7.51	-26.7	-28.2	14.2	0.00e+00	0	42	0	3021996032	14	4253
2026-01-11 10:13:39.91	350.84	7.45	-26.9	-28.5	14.0	0.00e+00	0	42	0	3027238912	14	4354
2026-01-11 10:13:40.91	350.74	7.40	-26.9	-28.5	14.0	0.00e+00	0	42	0	3032481792	14	4334
2026-01-11 10:13:41.91	350.63	7.34	-26.9	-28.5	14.0	0.00e+00	0	42	0	3038773248	14	4329
2026-01-11 10:13:42.92	350.52	7.28	-27.0	-28.7	13.9	1.10e-06	0	42	0	3044016128	14	4402
2026-01-11 10:13:43.92	350.42	7.22	-27.2	-29.1	13.6	6.80e-06	0	42	0	3050307584	14	4528
2026-01-11 10:13:44.93	350.31	7.16	-26.6	-27.8	14.4	1.10e-06	0	42	0	3055550464	14	4152
2026-01-11 10:13:45.94	350.20	7.10	-27.0	-28.7	13.9	1.10e-06	0	42	0	3060793344	14	4388
2026-01-11 10:13:46.94	350.10	7.04	-32.3	-39.8	4.0	8.43e-01	0	42	104	3063939072	25	8521
2026-01-11 10:13:47.95	349.99	6.98	-33.1	-43.9	3.8	8.47e-01	0	42	104	3063939072	26	12499
2026-01-11 10:13:48.96	349.89	6.92	-33.4	-44.9	3.8	8.45e-01	0	42	104	3063939072	26	13472

#Closed at: 2026-01-11 10:13:49
#Recorded file [3063 MB]: D:/data/31010_260111_130441.dat