passes_logs/2026/01/11/R2M6_AANII_01/R2M6_AANII_01__20260111_092332_NOAA_20_JPSS-1_rec.log

#Pass ID: 20260111_092332_NOAA 20 (JPSS-1)
#Satellite: NOAA 20 (JPSS-1)
#Configuration: NOAA 20
#almurnet v.1.7.20240730
#Start time: 2026-01-11 09:23:33

#Version: 2.2.20231116
#Station: R2M6_AANII_01
#Location: 30.233357 lon 59.946436 lat
#TLE: 1 43013U 17073A   26009.69119415  .00000109  00000+0  72598-4 0  9996
#TLE: 2 43013  98.7631 310.6868 0001678  46.7442 313.3874 14.19534878421981

#Time	Az	El	Level	Level2	SNR	BER	BlckErr	Temp	State	Recorded	gain1	gain2
2026-01-11 09:23:33.05	131.50	7.06	-31.4	-36.8	5.0	1.27e+00	0	39	0	0	24	6716
2026-01-11 09:23:34.05	131.46	7.13	-31.5	-37.5	4.9	1.29e+00	0	39	104	0	24	7187
2026-01-11 09:23:35.06	131.41	7.21	-31.4	-37.0	7.9	9.11e-02	0	40	0	0	24	6800
2026-01-11 09:23:36.07	131.37	7.29	-31.5	-37.3	7.6	8.60e-02	0	39	0	1048576	24	7026
2026-01-11 09:23:37.08	131.32	7.36	-31.5	-37.0	7.9	7.92e-02	0	40	0	3145728	24	6817
2026-01-11 09:23:38.09	131.27	7.44	-31.4	-36.6	8.3	5.14e-02	0	40	0	5242880	24	6546
2026-01-11 09:23:39.09	131.23	7.51	-31.3	-36.2	8.7	3.89e-02	0	40	0	7340032	24	6291
2026-01-11 09:23:40.10	131.18	7.59	-31.3	-36.4	8.9	2.79e-02	0	40	0	9437184	23	6531
2026-01-11 09:23:41.10	131.13	7.67	-31.3	-36.5	8.8	3.13e-02	0	40	0	10485760	23	6554
2026-01-11 09:23:42.10	131.08	7.74	-31.4	-37.3	8.2	3.46e-02	0	40	0	12582912	23	7057
2026-01-11 09:23:43.11	131.04	7.82	-31.2	-36.4	8.9	3.39e-02	0	40	0	14680064	23	6488
2026-01-11 09:23:44.12	130.99	7.90	-31.0	-35.5	9.6	1.82e-02	0	40	0	16777216	23	6042
2026-01-11 09:23:45.12	130.94	7.98	-30.8	-34.8	10.2	8.79e-03	0	40	0	18874368	23	5660
2026-01-11 09:23:46.13	130.89	8.05	-30.6	-34.6	10.7	2.99e-03	0	40	0	19922944	22	5682
2026-01-11 09:23:47.13	130.84	8.13	-30.5	-34.2	11.0	2.38e-03	0	40	0	22020096	22	5486
2026-01-11 09:23:48.14	130.79	8.21	-30.4	-33.9	11.3	1.65e-03	0	40	0	24117248	22	5360
2026-01-11 09:23:49.14	130.75	8.29	-30.5	-34.0	11.2	1.32e-03	0	40	0	26214400	22	5383
2026-01-11 09:23:50.15	130.70	8.37	-30.5	-34.1	11.2	1.22e-03	0	40	0	28311552	22	5426
2026-01-11 09:23:51.16	130.65	8.45	-30.5	-34.2	11.0	1.80e-03	0	40	0	29360128	22	5498
2026-01-11 09:23:52.16	130.60	8.52	-30.6	-34.3	11.0	1.39e-03	0	40	0	31457280	22	5521
2026-01-11 09:23:53.17	130.54	8.60	-30.4	-33.9	11.3	1.23e-03	0	40	0	33554432	22	5349
2026-01-11 09:23:54.17	130.49	8.68	-30.4	-33.8	11.3	1.24e-03	0	40	0	35651584	22	5335
2026-01-11 09:23:55.18	130.44	8.76	-30.4	-33.8	11.4	1.19e-03	0	40	0	37748736	22	5310
2026-01-11 09:23:56.19	130.39	8.84	-30.4	-33.6	11.6	7.63e-04	0	40	0	38797312	22	5215
2026-01-11 09:23:57.20	130.34	8.92	-30.4	-33.6	11.6	7.67e-04	0	40	0	40894464	22	5239
2026-01-11 09:23:58.20	130.29	9.00	-30.5	-34.0	11.3	1.02e-03	0	40	0	42991616	22	5400
2026-01-11 09:23:59.21	130.23	9.08	-30.3	-33.4	11.7	6.43e-04	0	40	0	45088768	22	5161
2026-01-11 09:24:00.21	130.18	9.17	-30.2	-33.7	11.9	4.16e-04	0	40	0	47185920	21	5354
2026-01-11 09:24:01.22	130.13	9.25	-30.2	-33.8	11.8	4.14e-04	0	40	0	48234496	21	5396
2026-01-11 09:24:02.22	130.08	9.33	-30.4	-34.1	11.6	6.27e-04	0	40	0	50331648	21	5540
2026-01-11 09:24:03.23	130.02	9.41	-30.5	-34.5	11.3	1.15e-03	0	40	0	52428800	21	5702
2026-01-11 09:24:04.24	129.97	9.49	-30.4	-34.2	11.5	9.34e-04	0	40	0	54525952	21	5592
2026-01-11 09:24:05.24	129.91	9.57	-30.4	-34.2	11.5	7.03e-04	0	40	0	56623104	21	5581
2026-01-11 09:24:06.25	129.86	9.66	-30.4	-34.4	11.4	8.51e-04	0	40	0	57671680	21	5670
2026-01-11 09:24:07.26	129.81	9.74	-30.4	-34.4	11.4	8.32e-04	0	40	0	59768832	21	5663
2026-01-11 09:24:08.25	129.75	9.82	-30.6	-34.7	11.1	1.36e-03	0	40	0	61865984	21	5832
2026-01-11 09:24:09.26	129.70	9.90	-30.4	-34.3	11.5	7.74e-04	0	40	0	63963136	21	5641
2026-01-11 09:24:10.27	129.64	9.99	-30.6	-34.7	11.2	1.71e-03	0	40	0	66060288	21	5806
2026-01-11 09:24:11.27	129.58	10.07	-30.3	-33.8	11.8	7.89e-04	0	40	0	67108864	21	5415
2026-01-11 09:24:12.27	129.53	10.15	-30.2	-33.4	12.1	4.53e-04	0	40	0	69206016	21	5247
2026-01-11 09:24:13.28	129.47	10.24	-30.0	-33.1	12.4	1.57e-04	0	40	0	71303168	21	5110
2026-01-11 09:24:14.29	129.41	10.32	-30.0	-32.9	12.5	1.28e-04	0	41	0	73400320	21	5053
2026-01-11 09:24:15.30	129.35	10.41	-30.0	-33.1	12.4	1.14e-04	0	40	0	74448896	21	5091
2026-01-11 09:24:16.30	129.30	10.49	-30.0	-32.9	12.5	9.53e-05	0	41	0	76546048	21	5034
2026-01-11 09:24:17.31	129.24	10.58	-30.1	-33.0	12.5	9.76e-05	0	41	0	78643200	21	5057
2026-01-11 09:24:18.31	129.18	10.66	-30.1	-33.0	12.5	1.04e-04	0	41	0	80740352	21	5060
2026-01-11 09:24:19.32	129.12	10.75	-30.1	-33.0	12.5	1.33e-04	0	41	0	82837504	21	5065
2026-01-11 09:24:20.33	129.06	10.84	-30.2	-33.4	12.2	1.59e-04	0	41	0	84934656	21	5219
2026-01-11 09:24:21.33	129.00	10.92	-30.3	-33.7	12.0	2.61e-04	0	41	0	85983232	21	5324
2026-01-11 09:24:22.34	128.94	11.01	-30.2	-33.5	12.2	2.56e-04	0	41	0	88080384	21	5251
2026-01-11 09:24:23.36	128.88	11.10	-30.3	-33.7	12.1	3.06e-04	0	41	0	90177536	21	5313
2026-01-11 09:24:24.36	128.82	11.18	-30.2	-33.5	12.2	2.49e-04	0	41	0	92274688	21	5253
2026-01-11 09:24:25.36	128.76	11.27	-30.3	-33.8	12.0	2.84e-04	0	41	0	94371840	21	5370
2026-01-11 09:24:26.37	128.70	11.36	-30.3	-33.8	12.0	2.91e-04	0	41	0	95420416	21	5352
2026-01-11 09:24:27.38	128.64	11.45	-30.4	-34.0	11.8	3.53e-04	0	41	0	97517568	21	5460
2026-01-11 09:24:28.38	128.57	11.53	-30.4	-34.1	11.8	5.60e-04	0	41	0	99614720	21	5492
2026-01-11 09:24:29.39	128.51	11.62	-30.2	-33.3	12.4	1.91e-04	0	41	0	101711872	21	5158
2026-01-11 09:24:30.39	128.45	11.71	-30.0	-32.8	12.7	1.12e-04	0	41	0	102760448	21	4980
2026-01-11 09:24:31.39	128.39	11.80	-30.0	-32.7	12.8	6.71e-05	0	41	0	104857600	21	4929
2026-01-11 09:24:32.40	128.32	11.89	-30.0	-32.7	12.8	6.02e-05	0	41	0	106954752	21	4927
2026-01-11 09:24:33.41	128.26	11.98	-30.0	-32.8	12.7	6.10e-05	0	41	0	109051904	21	4991
2026-01-11 09:24:34.41	128.19	12.07	-30.1	-33.2	12.5	1.20e-04	0	41	0	111149056	21	5129
2026-01-11 09:24:35.42	128.13	12.16	-30.2	-33.3	12.4	1.11e-04	0	41	0	113246208	21	5175
2026-01-11 09:24:36.43	128.06	12.25	-30.2	-33.3	12.4	1.40e-04	0	41	0	114294784	21	5174
2026-01-11 09:24:37.44	128.00	12.34	-30.1	-33.1	12.6	1.11e-04	0	41	0	116391936	21	5109
2026-01-11 09:24:38.45	127.93	12.43	-30.1	-33.1	12.6	8.85e-05	0	41	0	118489088	21	5099
2026-01-11 09:24:39.45	127.86	12.52	-30.0	-32.9	12.7	7.32e-05	0	41	0	120586240	21	5010
2026-01-11 09:24:40.46	127.79	12.62	-30.0	-32.7	12.9	5.11e-05	0	41	0	122683392	21	4931
2026-01-11 09:24:41.47	127.73	12.71	-30.0	-32.7	12.9	4.50e-05	0	41	0	123731968	21	4931
2026-01-11 09:24:42.47	127.66	12.80	-30.0	-32.7	12.9	5.18e-05	0	41	0	125829120	21	4909
2026-01-11 09:24:43.48	127.59	12.89	-29.8	-32.3	13.1	5.18e-05	0	41	0	127926272	21	4776
2026-01-11 09:24:44.49	127.52	12.99	-30.1	-32.9	12.8	2.97e-05	0	41	0	130023424	21	4995
2026-01-11 09:24:45.49	127.45	13.08	-30.0	-32.8	12.8	5.64e-05	0	41	0	131072000	21	4961
2026-01-11 09:24:46.50	127.38	13.17	-30.1	-32.9	12.8	4.50e-05	0	41	0	133169152	21	5011
2026-01-11 09:24:47.50	127.31	13.27	-30.2	-33.4	12.5	7.62e-05	0	41	0	135266304	21	5196
2026-01-11 09:24:48.51	127.24	13.36	-30.3	-33.6	12.3	1.69e-04	0	41	0	137363456	21	5270
2026-01-11 09:24:49.52	127.17	13.46	-30.1	-33.1	12.7	1.14e-04	0	41	0	139460608	21	5063
2026-01-11 09:24:50.52	127.10	13.55	-30.1	-33.0	12.8	9.38e-05	0	41	0	141557760	21	5022
2026-01-11 09:24:51.53	127.02	13.65	-30.1	-33.1	12.7	4.65e-05	0	41	0	142606336	21	5049
2026-01-11 09:24:52.53	126.95	13.74	-30.1	-32.9	12.8	7.47e-05	0	41	0	144703488	21	4986
2026-01-11 09:24:53.54	126.88	13.84	-30.0	-32.8	12.9	5.34e-05	0	41	0	146800640	21	4946
2026-01-11 09:24:54.55	126.80	13.93	-30.1	-32.8	12.9	4.19e-05	0	41	0	148897792	21	4948
2026-01-11 09:24:55.56	126.73	14.03	-30.2	-33.3	12.6	8.54e-05	0	41	0	150994944	21	5151
2026-01-11 09:24:56.56	126.66	14.13	-30.3	-33.4	12.5	1.23e-04	0	41	0	152043520	21	5174
2026-01-11 09:24:57.57	126.58	14.22	-30.1	-32.9	12.9	6.79e-05	0	41	0	154140672	21	4990
2026-01-11 09:24:58.58	126.50	14.32	-30.0	-32.7	13.0	4.11e-05	0	41	0	156237824	21	4924
2026-01-11 09:24:59.58	126.43	14.42	-29.9	-32.4	13.2	3.66e-05	0	41	0	158334976	21	4809
2026-01-11 09:25:00.58	126.35	14.52	-30.0	-32.7	13.1	3.20e-05	0	41	0	159383552	21	4909
2026-01-11 09:25:01.58	126.28	14.61	-29.9	-32.4	13.2	3.50e-05	0	41	0	161480704	21	4806
2026-01-11 09:25:02.59	126.20	14.71	-29.9	-32.4	13.2	1.60e-05	0	41	0	163577856	21	4804
2026-01-11 09:25:03.60	126.12	14.81	-30.0	-32.8	13.0	2.89e-05	0	41	0	165675008	21	4939
2026-01-11 09:25:04.60	126.04	14.91	-30.0	-32.7	13.1	4.80e-05	0	41	0	167772160	21	4911
2026-01-11 09:25:05.61	125.96	15.01	-30.0	-32.6	13.2	2.89e-05	0	41	0	169869312	21	4857
2026-01-11 09:25:06.62	125.88	15.11	-29.9	-32.4	13.3	2.05e-05	0	41	0	170917888	21	4804
2026-01-11 09:25:07.61	125.80	15.21	-30.0	-32.6	13.2	2.28e-05	0	41	0	173015040	21	4852
2026-01-11 09:25:08.62	125.72	15.31	-30.0	-32.5	13.2	1.90e-05	0	41	0	175112192	21	4851
2026-01-11 09:25:09.62	125.64	15.42	-29.9	-32.4	13.3	2.36e-05	0	41	0	177209344	21	4810
2026-01-11 09:25:10.63	125.56	15.52	-29.9	-32.3	13.4	1.90e-05	0	41	0	178257920	21	4757
2026-01-11 09:25:11.63	125.47	15.62	-29.9	-32.4	13.3	1.60e-05	0	41	0	180355072	21	4792
2026-01-11 09:25:12.64	125.39	15.72	-30.1	-32.8	13.0	2.21e-05	0	41	0	182452224	21	4936
2026-01-11 09:25:13.64	125.31	15.82	-30.0	-32.6	13.3	3.35e-05	0	41	0	184549376	21	4835
2026-01-11 09:25:14.65	125.22	15.93	-29.9	-32.3	13.5	1.52e-05	0	41	0	186646528	21	4735
2026-01-11 09:25:15.66	125.13	16.03	-29.8	-32.1	13.5	1.14e-05	0	41	0	187695104	21	4685
2026-01-11 09:25:16.66	125.05	16.14	-29.9	-32.4	13.4	1.14e-05	0	41	0	189792256	21	4762
2026-01-11 09:25:17.67	124.96	16.24	-29.9	-32.4	13.4	1.29e-05	0	41	0	191889408	21	4774
2026-01-11 09:25:18.68	124.88	16.35	-29.9	-32.3	13.5	1.29e-05	0	41	0	193986560	21	4741
2026-01-11 09:25:19.69	124.79	16.45	-29.9	-32.4	13.4	1.22e-05	0	41	0	196083712	21	4777
2026-01-11 09:25:20.69	124.70	16.56	-29.9	-32.4	13.4	1.67e-05	0	41	0	197132288	21	4774
2026-01-11 09:25:21.69	124.61	16.66	-29.8	-32.1	13.6	1.44e-05	0	41	0	199229440	21	4687
2026-01-11 09:25:22.70	124.52	16.77	-29.9	-32.3	13.5	7.60e-06	0	41	0	201326592	21	4740
2026-01-11 09:25:23.71	124.43	16.87	-29.8	-32.1	13.6	1.44e-05	0	41	0	203423744	21	4693
2026-01-11 09:25:24.71	124.34	16.98	-29.9	-32.2	13.5	6.10e-06	0	41	0	205520896	21	4712
2026-01-11 09:25:25.72	124.25	17.09	-29.9	-32.4	13.5	1.06e-05	0	42	0	206569472	21	4770
2026-01-11 09:25:26.72	124.16	17.20	-30.0	-32.5	13.4	1.14e-05	0	41	0	208666624	21	4795
2026-01-11 09:25:27.72	124.06	17.30	-30.0	-32.6	13.3	1.67e-05	0	41	0	210763776	21	4857
2026-01-11 09:25:28.73	123.97	17.41	-30.2	-33.1	13.0	2.36e-05	0	41	0	212860928	21	5019
2026-01-11 09:25:29.74	123.87	17.52	-30.1	-33.0	13.1	3.58e-05	0	41	0	214958080	21	4988
2026-01-11 09:25:30.75	123.78	17.63	-30.0	-32.6	13.3	2.05e-05	0	41	0	216006656	21	4869
2026-01-11 09:25:31.76	123.68	17.74	-29.9	-32.4	13.5	1.60e-05	0	41	0	218103808	21	4789
2026-01-11 09:25:32.76	123.59	17.85	-30.0	-32.5	13.4	1.06e-05	0	41	0	220200960	21	4825
2026-01-11 09:25:33.76	123.49	17.96	-30.0	-32.6	13.4	1.52e-05	0	41	0	222298112	21	4847
2026-01-11 09:25:34.77	123.39	18.07	-30.0	-32.5	13.4	1.37e-05	0	42	0	224395264	21	4835
2026-01-11 09:25:35.77	123.29	18.18	-30.1	-32.8	13.2	1.52e-05	0	41	0	225443840	21	4913
2026-01-11 09:25:36.78	123.19	18.30	-29.9	-32.4	13.5	1.60e-05	0	41	0	227540992	21	4784
2026-01-11 09:25:37.79	123.09	18.41	-29.9	-32.2	13.6	6.10e-06	0	42	0	229638144	21	4724
2026-01-11 09:25:38.79	122.99	18.52	-29.9	-32.2	13.7	4.50e-06	0	41	0	231735296	21	4721
2026-01-11 09:25:39.80	122.89	18.64	-29.8	-32.1	13.8	4.50e-06	0	41	0	233832448	21	4651
2026-01-11 09:25:40.80	122.79	18.75	-29.9	-32.2	13.7	4.50e-06	0	42	0	234881024	21	4700
2026-01-11 09:25:41.80	122.69	18.86	-29.9	-32.2	13.7	1.14e-05	0	42	0	236978176	21	4717
2026-01-11 09:25:42.81	122.58	18.98	-30.0	-32.5	13.5	7.60e-06	0	41	0	239075328	21	4785
2026-01-11 09:25:43.82	122.48	19.09	-30.1	-32.7	13.4	1.44e-05	0	41	0	241172480	21	4869
2026-01-11 09:25:44.83	122.37	19.21	-30.0	-32.6	13.5	1.52e-05	0	42	0	243269632	21	4829
2026-01-11 09:25:45.83	122.26	19.32	-30.1	-32.8	13.3	9.90e-06	0	42	0	244318208	21	4915
2026-01-11 09:25:46.84	122.16	19.44	-30.1	-32.7	13.4	1.22e-05	0	42	0	246415360	21	4869
2026-01-11 09:25:47.84	122.05	19.55	-30.0	-32.5	13.5	1.22e-05	0	42	0	248512512	21	4809
2026-01-11 09:25:48.85	121.94	19.67	-30.2	-33.0	13.1	1.83e-05	0	41	0	250609664	21	4989
2026-01-11 09:25:49.86	121.83	19.79	-30.2	-32.9	13.2	2.13e-05	0	42	0	252706816	21	4963
2026-01-11 09:25:50.86	121.72	19.91	-30.3	-33.2	13.0	2.44e-05	0	42	0	253755392	21	5072
2026-01-11 09:25:51.87	121.61	20.03	-30.2	-33.2	13.1	3.96e-05	0	42	0	255852544	21	5048
2026-01-11 09:25:52.87	121.50	20.14	-30.3	-33.4	13.0	4.57e-05	0	42	0	257949696	21	5121
2026-01-11 09:25:53.88	121.38	20.26	-30.5	-33.8	12.7	4.80e-05	0	42	0	260046848	21	5269
2026-01-11 09:25:54.89	121.27	20.38	-30.4	-33.6	12.8	5.64e-05	0	42	0	262144000	21	5183
2026-01-11 09:25:55.89	121.15	20.50	-30.3	-33.3	13.1	3.28e-05	0	42	0	263192576	21	5067
2026-01-11 09:25:56.90	121.04	20.63	-30.3	-33.4	13.0	4.11e-05	0	42	0	265289728	21	5128
2026-01-11 09:25:57.90	120.92	20.75	-30.3	-33.3	13.0	3.66e-05	0	41	0	267386880	21	5099
2026-01-11 09:25:58.91	120.80	20.87	-30.4	-33.5	12.9	3.81e-05	0	41	0	269484032	21	5170
2026-01-11 09:25:59.91	120.68	20.99	-30.4	-33.6	12.8	4.65e-05	0	41	0	271581184	21	5199
2026-01-11 09:26:00.91	120.56	21.11	-30.6	-34.2	12.4	9.15e-05	0	41	0	272629760	21	5434
2026-01-11 09:26:01.92	120.44	21.23	-30.4	-33.6	12.9	8.62e-05	0	42	0	274726912	21	5181
2026-01-11 09:26:02.92	120.32	21.36	-30.3	-33.2	13.1	2.67e-05	0	41	0	276824064	21	5050
2026-01-11 09:26:03.92	120.20	21.48	-30.2	-32.9	13.3	2.74e-05	0	42	0	278921216	21	4937
2026-01-11 09:26:04.93	120.07	21.60	-30.2	-32.8	13.4	1.44e-05	0	41	0	281018368	21	4895
2026-01-11 09:26:05.93	119.95	21.73	-30.2	-33.0	13.3	2.28e-05	0	42	0	282066944	21	4955
2026-01-11 09:26:06.94	119.82	21.85	-30.4	-33.4	13.0	2.44e-05	0	41	0	284164096	21	5103
2026-01-11 09:26:07.95	119.70	21.98	-30.2	-32.9	13.4	2.36e-05	0	41	0	286261248	21	4922
2026-01-11 09:26:08.95	119.57	22.11	-30.2	-32.8	13.4	1.44e-05	0	42	0	288358400	21	4898
2026-01-11 09:26:09.96	119.44	22.23	-30.1	-32.7	13.5	1.52e-05	0	42	0	290455552	21	4836
2026-01-11 09:26:10.97	119.31	22.36	-30.1	-32.8	13.4	1.14e-05	0	42	0	291504128	21	4891
2026-01-11 09:26:11.97	119.18	22.49	-30.2	-33.0	13.3	1.29e-05	0	42	0	293601280	21	4972
2026-01-11 09:26:12.98	119.04	22.62	-30.2	-33.1	13.3	1.90e-05	0	41	0	295698432	21	4986
2026-01-11 09:26:13.99	118.91	22.74	-30.2	-32.9	13.3	1.75e-05	0	41	0	297795584	21	4934
2026-01-11 09:26:14.99	118.78	22.87	-30.2	-33.1	13.2	2.21e-05	0	42	0	299892736	21	4994
2026-01-11 09:26:15.99	118.64	23.00	-30.4	-33.4	13.0	3.43e-05	0	42	0	300941312	21	5114
2026-01-11 09:26:16.99	118.51	23.13	-30.3	-33.3	13.1	3.35e-05	0	42	0	303038464	21	5064
2026-01-11 09:26:18.00	118.37	23.26	-30.3	-33.2	13.2	1.83e-05	0	42	0	305135616	21	5032
2026-01-11 09:26:19.01	118.23	23.39	-30.3	-33.3	13.1	2.05e-05	0	42	0	307232768	21	5049
2026-01-11 09:26:20.02	118.09	23.52	-30.3	-33.2	13.2	1.75e-05	0	42	0	309329920	21	5015
2026-01-11 09:26:21.02	117.95	23.66	-30.5	-33.8	12.8	2.21e-05	0	42	0	310378496	21	5243
2026-01-11 09:26:22.03	117.80	23.79	-30.4	-33.4	13.0	5.41e-05	0	42	0	312475648	21	5100
2026-01-11 09:26:23.03	117.66	23.92	-30.2	-33.0	13.3	2.82e-05	0	42	0	314572800	21	4972
2026-01-11 09:26:24.04	117.51	24.05	-30.2	-33.1	13.3	2.13e-05	0	42	0	316669952	21	4987
2026-01-11 09:26:25.05	117.37	24.19	-30.3	-33.2	13.1	2.21e-05	0	42	0	317718528	21	5047
2026-01-11 09:26:26.05	117.22	24.32	-30.3	-33.2	13.2	1.90e-05	0	41	0	319815680	21	5031
2026-01-11 09:26:27.05	117.07	24.46	-30.3	-33.3	13.1	3.35e-05	0	42	0	321912832	21	5086
2026-01-11 09:26:28.06	116.92	24.59	-30.4	-33.4	13.1	3.20e-05	0	42	0	324009984	21	5103
2026-01-11 09:26:29.06	116.77	24.73	-30.3	-33.2	13.2	3.58e-05	0	42	0	326107136	21	5012
2026-01-11 09:26:30.07	116.61	24.86	-30.3	-33.2	13.3	1.22e-05	0	42	0	328204288	21	5012
2026-01-11 09:26:31.08	116.46	25.00	-30.4	-33.5	13.1	3.28e-05	0	42	0	329252864	21	5139
2026-01-11 09:26:32.08	116.30	25.14	-30.3	-33.1	13.3	1.37e-05	0	42	0	331350016	21	4972
2026-01-11 09:26:33.09	116.15	25.28	-30.3	-33.3	13.2	2.05e-05	0	42	0	333447168	21	5057
2026-01-11 09:26:34.09	115.99	25.41	-30.3	-33.2	13.3	2.67e-05	0	42	0	335544320	21	5015
2026-01-11 09:26:35.10	115.83	25.55	-30.3	-33.2	13.3	2.36e-05	0	41	0	336592896	21	5037
2026-01-11 09:26:36.10	115.67	25.69	-30.5	-33.7	12.9	4.04e-05	0	42	0	338690048	21	5204
2026-01-11 09:26:37.11	115.50	25.83	-30.3	-33.2	13.3	2.36e-05	0	42	0	340787200	21	4997
2026-01-11 09:26:38.12	115.34	25.97	-30.3	-33.0	13.5	1.29e-05	0	42	0	342884352	21	4954
2026-01-11 09:26:39.12	115.17	26.11	-30.3	-33.3	13.3	1.52e-05	0	42	0	344981504	21	5045
2026-01-11 09:26:40.13	115.01	26.25	-30.4	-33.4	13.2	1.75e-05	0	42	0	346030080	21	5081
2026-01-11 09:26:41.14	114.84	26.39	-30.3	-33.2	13.3	1.75e-05	0	42	0	348127232	21	5017
2026-01-11 09:26:42.14	114.67	26.53	-30.4	-33.4	13.2	1.52e-05	0	42	0	350224384	21	5085
2026-01-11 09:26:43.14	114.50	26.68	-30.3	-33.2	13.4	2.44e-05	0	41	0	352321536	21	5000
2026-01-11 09:26:44.15	114.32	26.82	-30.4	-33.4	13.2	2.05e-05	0	42	0	354418688	21	5073
2026-01-11 09:26:45.16	114.15	26.96	-30.5	-33.7	13.0	2.44e-05	0	42	0	356515840	21	5219
2026-01-11 09:26:46.17	113.97	27.11	-30.3	-33.2	13.3	2.59e-05	0	41	0	357564416	21	5018
2026-01-11 09:26:47.17	113.79	27.25	-30.4	-33.5	13.2	2.21e-05	0	42	0	359661568	21	5110
2026-01-11 09:26:48.18	113.61	27.39	-30.3	-33.1	13.4	2.82e-05	0	42	0	361758720	21	4965
2026-01-11 09:26:49.19	113.43	27.54	-30.3	-33.1	13.4	1.06e-05	0	42	0	363855872	21	4986
2026-01-11 09:26:50.19	113.25	27.69	-30.4	-33.3	13.3	2.05e-05	0	42	0	364904448	21	5023
2026-01-11 09:26:51.19	113.06	27.83	-30.5	-33.7	13.1	1.83e-05	0	42	0	367001600	21	5193
2026-01-11 09:26:52.20	112.88	27.98	-30.5	-33.6	13.1	4.19e-05	0	42	0	369098752	21	5165
2026-01-11 09:26:53.21	112.69	28.12	-30.5	-33.6	13.1	2.74e-05	0	42	0	371195904	21	5160
2026-01-11 09:26:54.21	112.50	28.27	-30.5	-33.8	13.0	4.88e-05	0	42	0	373293056	21	5212
2026-01-11 09:26:55.22	112.30	28.42	-30.6	-33.8	13.0	3.50e-05	0	42	0	374341632	21	5233
2026-01-11 09:26:56.23	112.11	28.57	-30.7	-34.2	12.7	5.64e-05	0	42	0	376438784	21	5385
2026-01-11 09:26:57.23	111.92	28.71	-30.9	-34.7	12.4	8.85e-05	0	42	0	378535936	21	5601
2026-01-11 09:26:58.23	111.72	28.86	-31.0	-35.1	12.2	1.91e-04	0	42	0	380633088	21	5750
2026-01-11 09:26:59.24	111.52	29.01	-31.0	-34.6	12.1	2.33e-04	0	42	0	382730240	22	5456
2026-01-11 09:27:00.24	111.32	29.16	-31.1	-34.8	12.0	2.78e-04	0	42	0	383778816	22	5519
2026-01-11 09:27:01.25	111.12	29.31	-31.2	-35.2	11.7	4.40e-04	0	42	0	385875968	22	5701
2026-01-11 09:27:02.26	110.91	29.46	-31.2	-35.3	11.6	5.47e-04	0	42	0	387973120	22	5747
2026-01-11 09:27:03.26	110.70	29.61	-31.3	-35.5	11.5	8.28e-04	0	42	0	390070272	22	5828
2026-01-11 09:27:04.27	110.49	29.76	-31.4	-35.7	11.4	8.95e-04	0	42	0	392167424	22	5923
2026-01-11 09:27:05.28	110.28	29.92	-31.6	-35.9	10.9	1.71e-03	0	42	0	393216000	23	5908
2026-01-11 09:27:06.28	110.07	30.07	-31.6	-36.1	10.8	2.26e-03	0	42	0	395313152	23	5981
2026-01-11 09:27:07.28	109.86	30.22	-31.8	-36.7	10.3	3.11e-03	0	42	0	397410304	23	6297
2026-01-11 09:27:08.29	109.64	30.37	-31.8	-36.6	10.4	4.59e-03	0	41	0	399507456	23	6255
2026-01-11 09:27:09.29	109.42	30.52	-31.9	-37.0	10.1	5.97e-03	0	42	0	401604608	23	6460
2026-01-11 09:27:10.29	109.20	30.68	-31.9	-37.0	10.0	7.93e-03	0	42	0	402653184	23	6479
2026-01-11 09:27:11.30	108.98	30.83	-32.1	-37.0	9.8	7.60e-03	0	42	0	404750336	24	6340
2026-01-11 09:27:12.31	108.75	30.98	-32.1	-37.1	9.6	1.30e-02	0	42	0	406847488	24	6398
2026-01-11 09:27:13.32	108.52	31.14	-32.0	-36.8	9.8	9.53e-03	0	42	0	408944640	24	6268
2026-01-11 09:27:14.32	108.29	31.29	-32.0	-36.9	9.8	8.85e-03	0	42	0	411041792	24	6292
2026-01-11 09:27:15.33	108.06	31.45	-31.9	-36.6	10.0	9.46e-03	0	42	0	412090368	24	6133
2026-01-11 09:27:16.33	107.83	31.60	-31.9	-36.4	10.2	6.28e-03	0	42	0	414187520	24	6017
2026-01-11 09:27:17.34	107.59	31.76	-31.8	-36.1	10.4	5.61e-03	0	42	0	416284672	24	5885
2026-01-11 09:27:18.34	107.35	31.91	-31.8	-36.1	10.4	4.72e-03	0	42	0	418381824	24	5874
2026-01-11 09:27:19.35	107.11	32.07	-31.9	-36.4	10.2	8.11e-03	0	42	0	420478976	24	6059
2026-01-11 09:27:20.36	106.87	32.23	-31.9	-36.3	10.3	5.40e-03	0	42	0	421527552	24	5974
2026-01-11 09:27:21.37	106.62	32.38	-32.0	-36.8	9.9	5.63e-03	0	42	0	423624704	24	6275
2026-01-11 09:27:22.37	106.37	32.54	-32.1	-37.0	9.8	1.22e-02	0	42	0	425721856	24	6349
2026-01-11 09:27:23.37	106.12	32.69	-31.9	-36.5	10.1	8.15e-03	0	42	0	427819008	24	6106
2026-01-11 09:27:24.38	105.87	32.85	-31.9	-36.4	10.2	5.85e-03	0	42	0	429916160	24	6050
2026-01-11 09:27:25.38	105.62	33.01	-31.8	-36.2	10.3	5.40e-03	0	42	0	430964736	24	5948
2026-01-11 09:27:26.38	105.36	33.16	-32.0	-36.7	10.1	5.74e-03	0	42	0	433061888	24	6171
2026-01-11 09:27:27.39	105.10	33.32	-31.9	-36.4	10.2	7.20e-03	0	42	0	435159040	24	6054
2026-01-11 09:27:28.40	104.83	33.48	-31.8	-35.9	10.6	4.40e-03	0	42	0	437256192	24	5785
2026-01-11 09:27:29.40	104.57	33.64	-31.7	-35.7	10.8	2.99e-03	0	42	0	439353344	24	5688
2026-01-11 09:27:30.41	104.30	33.79	-31.7	-35.7	10.8	2.77e-03	0	42	0	440401920	24	5688
2026-01-11 09:27:31.41	104.03	33.95	-31.7	-35.7	10.7	2.67e-03	0	42	0	442499072	24	5700
2026-01-11 09:27:32.42	103.76	34.11	-31.6	-35.3	11.1	2.32e-03	0	42	0	444596224	24	5522
2026-01-11 09:27:33.43	103.48	34.27	-31.5	-34.9	11.3	1.21e-03	0	42	0	446693376	24	5346
2026-01-11 09:27:34.44	103.20	34.43	-31.4	-34.7	11.5	8.89e-04	0	42	0	448790528	24	5269
2026-01-11 09:27:35.45	102.92	34.59	-31.4	-34.6	11.5	8.56e-04	0	42	0	449839104	24	5214
2026-01-11 09:27:36.45	102.63	34.74	-31.2	-34.6	11.9	3.58e-04	0	42	0	451936256	23	5331
2026-01-11 09:27:37.46	102.35	34.90	-31.3	-34.8	11.7	4.20e-04	0	42	0	454033408	23	5414
2026-01-11 09:27:38.46	102.06	35.06	-31.3	-34.8	11.8	6.36e-04	0	41	0	456130560	23	5383
2026-01-11 09:27:39.47	101.76	35.22	-31.1	-34.1	12.2	2.20e-04	0	42	0	458227712	23	5122
2026-01-11 09:27:40.47	101.47	35.37	-31.1	-34.1	12.4	1.50e-04	0	42	0	459276288	23	5109
2026-01-11 09:27:41.46	101.17	35.53	-31.0	-34.0	12.3	2.09e-04	0	42	0	461373440	23	5086
2026-01-11 09:27:42.47	100.87	35.69	-31.1	-34.2	12.2	1.79e-04	0	42	0	463470592	23	5141
2026-01-11 09:27:43.48	100.57	35.84	-31.1	-34.2	12.2	2.72e-04	0	42	0	465567744	23	5153
2026-01-11 09:27:44.48	100.26	36.00	-31.0	-33.9	12.4	1.58e-04	0	42	0	467664896	23	5054
2026-01-11 09:27:45.49	99.95	36.16	-31.0	-33.9	12.4	1.45e-04	0	42	0	468713472	23	5053
2026-01-11 09:27:46.49	99.64	36.31	-31.0	-34.0	12.4	1.60e-04	0	42	0	470810624	23	5069
2026-01-11 09:27:47.50	99.32	36.47	-30.9	-33.5	12.7	1.04e-04	0	42	0	472907776	23	4900
2026-01-11 09:27:48.51	99.00	36.63	-30.8	-33.3	12.8	7.32e-05	0	42	0	475004928	23	4822
2026-01-11 09:27:49.51	98.68	36.78	-30.8	-33.9	12.7	6.48e-05	0	42	0	477102080	22	5141
2026-01-11 09:27:50.52	98.35	36.94	-30.9	-34.2	12.6	1.20e-04	0	42	0	478150656	22	5269
2026-01-11 09:27:51.52	98.02	37.09	-31.1	-34.6	12.3	1.04e-04	0	42	0	480247808	22	5405
2026-01-11 09:27:52.53	97.69	37.25	-31.1	-34.7	12.2	2.33e-04	0	42	0	482344960	22	5461
2026-01-11 09:27:53.54	97.35	37.40	-31.0	-34.3	12.5	1.44e-04	0	42	0	484442112	22	5313
2026-01-11 09:27:54.54	97.02	37.56	-30.9	-34.3	12.5	1.11e-04	0	42	0	486539264	22	5284
2026-01-11 09:27:55.54	96.68	37.71	-31.0	-34.4	12.4	1.51e-04	0	42	0	487587840	22	5332
2026-01-11 09:27:56.55	96.33	37.86	-31.1	-34.6	12.3	1.33e-04	0	42	0	489684992	22	5422
2026-01-11 09:27:57.55	95.99	38.02	-31.2	-34.9	12.1	1.71e-04	0	42	0	491782144	22	5550
2026-01-11 09:27:58.55	95.64	38.17	-31.3	-35.2	11.9	3.96e-04	0	42	0	493879296	22	5679
2026-01-11 09:27:59.56	95.28	38.32	-31.3	-35.3	11.8	3.76e-04	0	42	0	495976448	22	5715
2026-01-11 09:28:00.57	94.92	38.47	-31.2	-35.1	12.0	5.31e-04	0	42	0	497025024	22	5619
2026-01-11 09:28:01.57	94.56	38.62	-31.0	-34.5	12.3	3.30e-04	0	42	0	499122176	22	5384
2026-01-11 09:28:02.58	94.20	38.77	-30.9	-34.2	12.6	9.61e-05	0	42	0	501219328	22	5250
2026-01-11 09:28:03.58	93.83	38.92	-31.0	-34.6	12.4	1.04e-04	0	42	0	503316480	22	5398
2026-01-11 09:28:04.59	93.46	39.07	-31.2	-35.0	12.0	3.34e-04	0	42	0	505413632	22	5587
2026-01-11 09:28:05.60	93.08	39.22	-31.4	-35.6	11.6	3.09e-04	0	42	0	506462208	22	5841
2026-01-11 09:28:06.61	92.70	39.36	-31.3	-35.3	11.9	5.07e-04	0	42	0	508559360	22	5700
2026-01-11 09:28:07.61	92.32	39.51	-31.1	-34.7	12.3	2.75e-04	0	42	0	510656512	22	5433
2026-01-11 09:28:08.62	91.93	39.65	-31.0	-34.4	12.5	1.28e-04	0	42	0	512753664	22	5320
2026-01-11 09:28:09.62	91.55	39.80	-31.0	-34.5	12.5	1.31e-04	0	42	0	514850816	22	5354
2026-01-11 09:28:10.63	91.15	39.94	-31.1	-34.6	12.4	1.43e-04	0	42	0	515899392	22	5421
2026-01-11 09:28:11.63	90.76	40.08	-31.1	-34.6	12.3	2.17e-04	0	42	0	517996544	22	5405
2026-01-11 09:28:12.64	90.36	40.23	-30.9	-34.1	12.7	7.70e-05	0	42	0	520093696	22	5195
2026-01-11 09:28:13.66	89.95	40.37	-30.5	-32.9	13.4	3.12e-05	0	42	0	522190848	22	4767
2026-01-11 09:28:14.67	89.54	40.51	-30.4	-32.7	13.6	1.14e-05	0	42	0	524288000	22	4685
2026-01-11 09:28:15.67	89.14	40.64	-30.6	-33.2	13.3	1.37e-05	0	42	0	525336576	22	4864
2026-01-11 09:28:16.68	88.72	40.78	-30.6	-33.2	13.3	1.98e-05	0	42	0	527433728	22	4878
2026-01-11 09:28:17.69	88.30	40.92	-30.3	-32.6	13.7	1.44e-05	0	42	0	529530880	22	4643
2026-01-11 09:28:18.69	87.89	41.05	-30.1	-32.5	14.0	6.80e-06	0	42	0	531628032	21	4723
2026-01-11 09:28:19.70	87.46	41.19	-29.9	-32.0	14.4	0.00e+00	0	42	0	533725184	21	4565
2026-01-11 09:28:20.70	87.04	41.32	-29.9	-32.0	14.4	1.50e-06	0	42	0	534773760	21	4570
2026-01-11 09:28:21.70	86.61	41.45	-30.0	-32.3	14.2	1.50e-06	0	42	0	536870912	21	4653
2026-01-11 09:28:22.71	86.17	41.58	-30.2	-32.6	14.0	2.20e-06	0	42	0	538968064	21	4761
2026-01-11 09:28:23.72	85.73	41.71	-30.1	-32.4	14.1	4.50e-06	0	42	0	541065216	21	4700
2026-01-11 09:28:24.73	85.29	41.83	-30.0	-32.1	14.3	1.50e-06	0	42	0	543162368	21	4582
2026-01-11 09:28:25.73	84.85	41.96	-30.0	-32.1	14.3	7.00e-07	0	42	0	544210944	21	4588
2026-01-11 09:28:26.73	84.40	42.08	-30.0	-32.1	14.4	7.00e-07	0	42	0	546308096	21	4593
2026-01-11 09:28:27.73	83.95	42.20	-29.9	-32.0	14.4	7.00e-07	0	42	0	548405248	21	4577
2026-01-11 09:28:28.74	83.50	42.32	-30.0	-32.3	14.2	0.00e+00	0	42	0	550502400	21	4652
2026-01-11 09:28:29.74	83.04	42.44	-30.1	-32.5	14.1	3.00e-06	0	42	0	551550976	21	4723
2026-01-11 09:28:30.74	82.58	42.55	-30.3	-32.8	13.9	1.50e-06	0	42	0	553648128	21	4839
2026-01-11 09:28:31.75	82.12	42.67	-30.3	-32.9	13.8	2.20e-06	0	42	0	555745280	21	4874
2026-01-11 09:28:32.75	81.65	42.78	-30.5	-33.4	13.5	1.14e-05	0	42	0	557842432	21	5044
2026-01-11 09:28:33.76	81.18	42.89	-30.6	-33.6	13.3	1.06e-05	0	42	0	559939584	21	5138
2026-01-11 09:28:34.77	80.70	43.00	-30.7	-33.9	13.0	1.29e-05	0	42	0	562036736	21	5250
2026-01-11 09:28:35.77	80.23	43.11	-30.5	-33.6	13.4	1.44e-05	0	42	0	563085312	21	5133
2026-01-11 09:28:36.77	79.75	43.22	-30.2	-32.8	13.9	0.00e+00	0	42	0	565182464	21	4813
2026-01-11 09:28:37.77	79.27	43.32	-30.2	-32.6	14.0	1.50e-06	0	42	0	567279616	21	4765
2026-01-11 09:28:38.78	78.78	43.42	-30.4	-33.2	13.6	2.20e-06	0	42	0	569376768	21	4983
2026-01-11 09:28:39.78	78.29	43.52	-30.3	-33.0	13.8	8.30e-06	0	42	0	570425344	21	4902
2026-01-11 09:28:40.78	77.80	43.62	-30.2	-32.6	14.0	1.50e-06	0	42	0	572522496	21	4757
2026-01-11 09:28:41.79	77.30	43.71	-30.2	-32.6	14.0	1.50e-06	0	42	0	574619648	21	4759
2026-01-11 09:28:42.80	76.80	43.81	-30.1	-32.4	14.2	2.20e-06	0	42	0	576716800	21	4691
2026-01-11 09:28:43.81	76.30	43.90	-30.2	-32.6	14.0	1.50e-06	0	42	0	578813952	21	4757
2026-01-11 09:28:44.81	75.79	43.98	-30.4	-33.2	13.6	3.00e-06	0	42	0	579862528	21	4975
2026-01-11 09:28:45.81	75.29	44.07	-30.3	-33.1	13.7	4.50e-06	0	42	0	581959680	21	4925
2026-01-11 09:28:46.82	74.78	44.15	-30.0	-32.2	14.2	7.00e-07	0	42	0	584056832	21	4627
2026-01-11 09:28:47.82	74.27	44.24	-29.8	-31.7	14.6	1.50e-06	0	42	0	586153984	21	4455
2026-01-11 09:28:48.82	73.75	44.31	-29.9	-31.8	14.6	0.00e+00	0	42	0	588251136	21	4500
2026-01-11 09:28:49.83	73.23	44.39	-30.0	-32.2	14.3	7.00e-07	0	42	0	589299712	21	4618
2026-01-11 09:28:50.84	72.71	44.47	-30.0	-32.3	14.3	7.00e-07	0	42	0	591396864	21	4650
2026-01-11 09:28:51.84	72.19	44.54	-30.2	-32.7	13.9	7.00e-07	0	41	0	593494016	21	4785
2026-01-11 09:28:52.85	71.66	44.61	-30.3	-32.9	13.9	3.00e-06	0	42	0	595591168	21	4867
2026-01-11 09:28:53.85	71.14	44.67	-30.4	-33.1	13.7	1.50e-06	0	42	0	597688320	21	4947
2026-01-11 09:28:54.86	70.61	44.74	-30.4	-33.3	13.6	6.80e-06	0	42	0	598736896	21	5003
2026-01-11 09:28:55.87	70.07	44.80	-30.5	-33.6	13.4	1.06e-05	0	42	0	600834048	21	5124
2026-01-11 09:28:56.87	69.54	44.86	-30.6	-33.7	13.3	1.75e-05	0	42	0	602931200	21	5152
2026-01-11 09:28:57.88	69.00	44.91	-30.6	-33.7	13.3	1.67e-05	0	42	0	605028352	21	5165
2026-01-11 09:28:58.88	68.47	44.96	-30.6	-33.7	13.3	2.21e-05	0	42	0	607125504	21	5172
2026-01-11 09:28:59.89	67.93	45.01	-30.9	-34.5	12.8	3.35e-05	0	42	0	608174080	21	5459
2026-01-11 09:29:00.90	67.38	45.06	-30.8	-34.4	13.0	4.50e-05	0	42	0	610271232	21	5415
2026-01-11 09:29:01.90	66.85	45.11	-30.8	-34.4	12.8	5.49e-05	0	42	0	612368384	21	5453
2026-01-11 09:29:02.91	66.30	45.15	-31.0	-34.5	12.5	9.15e-05	0	42	0	614465536	22	5359
2026-01-11 09:29:03.92	65.75	45.19	-30.9	-34.2	12.6	1.01e-04	0	42	0	616562688	22	5236
2026-01-11 09:29:04.92	65.21	45.22	-30.9	-34.0	12.8	7.01e-05	0	42	0	617611264	22	5161
2026-01-11 09:29:05.93	64.66	45.26	-30.8	-33.9	12.9	4.27e-05	0	42	0	619708416	22	5108
2026-01-11 09:29:06.94	64.11	45.29	-31.0	-34.5	12.5	7.78e-05	0	42	0	621805568	22	5345
2026-01-11 09:29:07.94	63.56	45.32	-31.0	-34.3	12.6	1.01e-04	0	42	0	623902720	22	5302
2026-01-11 09:29:08.94	63.01	45.34	-31.0	-34.3	12.6	9.68e-05	0	42	0	625999872	22	5285
2026-01-11 09:29:09.94	62.46	45.36	-30.8	-33.9	12.9	5.72e-05	0	42	0	627048448	22	5144
2026-01-11 09:29:10.94	61.91	45.38	-31.1	-34.6	12.3	9.68e-05	0	42	0	629145600	22	5412
2026-01-11 09:29:11.95	61.36	45.40	-30.9	-34.2	12.7	1.19e-04	0	42	0	631242752	22	5239
2026-01-11 09:29:12.96	60.80	45.41	-30.9	-34.0	12.8	5.41e-05	0	42	0	633339904	22	5159
2026-01-11 09:29:13.97	60.25	45.42	-30.8	-33.7	13.0	2.59e-05	0	42	0	635437056	22	5053
2026-01-11 09:29:14.97	59.70	45.43	-30.9	-34.2	12.8	4.50e-05	0	42	0	636485632	22	5235
2026-01-11 09:29:15.98	59.14	45.43	-31.0	-34.4	12.5	9.07e-05	0	42	0	638582784	22	5334
2026-01-11 09:29:16.99	58.58	45.43	-31.0	-34.5	12.5	1.01e-04	0	42	0	640679936	22	5346
2026-01-11 09:29:17.99	58.03	45.43	-31.0	-34.5	12.5	1.04e-04	0	42	0	642777088	22	5358
2026-01-11 09:29:19.00	57.48	45.43	-31.1	-34.8	12.3	1.45e-04	0	42	0	644874240	22	5479
2026-01-11 09:29:20.00	56.92	45.42	-31.2	-35.1	12.1	1.87e-04	0	42	0	645922816	22	5585
2026-01-11 09:29:21.01	56.37	45.41	-31.2	-35.0	12.1	2.82e-04	0	42	0	648019968	22	5575
2026-01-11 09:29:22.02	55.81	45.39	-31.4	-35.5	11.8	3.58e-04	0	42	0	650117120	22	5783
2026-01-11 09:29:23.03	55.26	45.38	-31.3	-35.4	11.9	4.13e-04	0	42	0	652214272	22	5729
2026-01-11 09:29:24.02	54.71	45.36	-31.3	-35.4	11.8	4.47e-04	0	42	0	654311424	22	5735
2026-01-11 09:29:25.03	54.16	45.33	-31.3	-35.2	12.0	3.13e-04	0	42	0	655360000	22	5636
2026-01-11 09:29:26.02	53.62	45.31	-31.5	-35.8	11.6	5.39e-04	0	42	0	657457152	22	5911
2026-01-11 09:29:27.03	53.07	45.28	-31.3	-35.1	12.0	4.10e-04	0	42	0	659554304	22	5627
2026-01-11 09:29:28.04	52.52	45.25	-31.4	-35.4	11.9	3.11e-04	0	42	0	661651456	22	5753
2026-01-11 09:29:29.04	51.97	45.22	-31.5	-35.4	11.5	4.85e-04	0	42	0	663748608	23	5651
2026-01-11 09:29:30.04	51.43	45.18	-31.9	-36.6	10.7	2.53e-03	0	42	0	664797184	23	6214
2026-01-11 09:29:31.05	50.88	45.14	-31.9	-36.6	10.6	3.34e-03	0	42	0	666894336	23	6217
2026-01-11 09:29:32.06	50.34	45.10	-31.6	-35.8	11.2	2.16e-03	0	42	0	668991488	23	5809
2026-01-11 09:29:33.06	49.80	45.05	-31.7	-35.9	11.1	1.43e-03	0	42	0	671088640	23	5886
2026-01-11 09:29:34.07	49.26	45.00	-31.8	-36.5	10.7	2.28e-03	0	42	0	673185792	23	6176
2026-01-11 09:29:35.07	48.72	44.95	-31.8	-36.4	10.8	2.59e-03	0	41	0	674234368	23	6083
2026-01-11 09:29:36.08	48.18	44.90	-31.9	-36.8	10.4	3.73e-03	0	42	0	676331520	23	6321
2026-01-11 09:29:37.08	47.65	44.84	-31.9	-36.8	10.5	3.88e-03	0	42	0	678428672	23	6280
2026-01-11 09:29:38.09	47.12	44.78	-31.8	-36.4	10.8	3.83e-03	0	42	0	680525824	23	6078
2026-01-11 09:29:39.10	46.58	44.72	-31.8	-36.4	10.8	2.53e-03	0	42	0	681574400	23	6105
2026-01-11 09:29:40.10	46.06	44.65	-31.9	-36.6	10.5	3.04e-03	0	42	0	683671552	23	6189
2026-01-11 09:29:41.11	45.53	44.59	-32.0	-36.6	10.2	5.87e-03	0	42	0	685768704	24	6111
2026-01-11 09:29:42.11	45.01	44.52	-31.7	-35.7	10.9	4.34e-03	0	42	0	687865856	24	5678
2026-01-11 09:29:43.11	44.49	44.45	-31.5	-35.0	11.3	1.34e-03	0	42	0	689963008	24	5386
2026-01-11 09:29:44.12	43.97	44.37	-31.5	-34.9	11.5	1.09e-03	0	42	0	692060160	24	5305
2026-01-11 09:29:45.12	43.46	44.29	-31.2	-34.5	12.1	4.65e-04	0	42	0	693108736	23	5240
2026-01-11 09:29:46.13	42.94	44.22	-31.0	-33.8	12.6	1.20e-04	0	42	0	695205888	23	4973
2026-01-11 09:29:47.13	42.43	44.13	-31.0	-33.8	12.6	1.40e-04	0	42	0	697303040	23	4999
2026-01-11 09:29:48.14	41.92	44.05	-30.9	-33.5	12.8	6.71e-05	0	42	0	699400192	23	4871
2026-01-11 09:29:49.14	41.42	43.96	-31.0	-33.7	12.6	8.31e-05	0	42	0	700448768	23	4966
2026-01-11 09:29:50.15	40.91	43.87	-30.6	-33.3	13.2	2.97e-05	0	42	0	702545920	22	4902
2026-01-11 09:29:51.16	40.41	43.78	-30.4	-32.6	13.7	6.80e-06	0	42	0	704643072	22	4668
2026-01-11 09:29:52.16	39.91	43.69	-30.2	-32.6	13.9	2.20e-06	0	42	0	706740224	21	4774
2026-01-11 09:29:53.17	39.42	43.59	-30.3	-32.9	13.8	6.10e-06	0	42	0	708837376	21	4883
2026-01-11 09:29:54.17	38.93	43.50	-30.0	-32.2	14.2	7.00e-07	0	42	0	709885952	21	4636
2026-01-11 09:29:55.18	38.44	43.40	-29.9	-32.0	14.4	7.00e-07	0	42	0	711983104	21	4566
2026-01-11 09:29:56.19	37.95	43.29	-29.9	-31.9	14.4	7.00e-07	0	42	0	714080256	21	4525
2026-01-11 09:29:57.20	37.47	43.19	-30.1	-32.3	14.1	7.00e-07	0	42	0	716177408	21	4674
2026-01-11 09:29:58.20	36.99	43.08	-29.9	-31.8	14.5	1.50e-06	0	42	0	718274560	21	4513
2026-01-11 09:29:59.21	36.51	42.98	-29.6	-31.6	14.9	7.00e-07	0	42	0	720371712	20	4547
2026-01-11 09:30:00.21	36.04	42.87	-29.3	-31.0	15.3	0.00e+00	0	42	0	721420288	20	4352
2026-01-11 09:30:01.22	35.57	42.75	-29.4	-31.0	15.3	0.00e+00	0	42	0	723517440	20	4360
2026-01-11 09:30:02.21	35.11	42.64	-29.4	-31.1	15.2	0.00e+00	0	42	0	725614592	20	4397
2026-01-11 09:30:03.22	34.65	42.53	-29.1	-30.9	15.7	0.00e+00	0	42	0	727711744	19	4437
2026-01-11 09:30:04.22	34.19	42.41	-29.0	-30.7	15.8	0.00e+00	0	42	0	728760320	19	4356
2026-01-11 09:30:05.23	33.73	42.29	-29.2	-31.0	15.6	0.00e+00	0	42	0	730857472	19	4453
2026-01-11 09:30:06.23	33.28	42.17	-28.9	-30.5	15.9	0.00e+00	0	42	0	732954624	19	4298
2026-01-11 09:30:07.24	32.83	42.05	-29.0	-30.5	15.9	0.00e+00	0	42	0	735051776	19	4315
2026-01-11 09:30:08.24	32.39	41.93	-29.0	-30.6	15.8	0.00e+00	0	42	0	737148928	19	4339
2026-01-11 09:30:09.25	31.94	41.80	-28.9	-30.4	16.0	0.00e+00	0	42	0	738197504	19	4276
2026-01-11 09:30:10.25	31.51	41.68	-28.8	-30.1	16.1	0.00e+00	0	42	0	740294656	19	4190
2026-01-11 09:30:11.25	31.07	41.55	-28.7	-30.5	16.2	0.00e+00	0	42	0	742391808	18	4410
2026-01-11 09:30:12.25	30.64	41.42	-28.6	-30.3	16.4	0.00e+00	0	42	0	744488960	18	4339
2026-01-11 09:30:13.26	30.21	41.29	-28.7	-30.3	16.3	0.00e+00	0	42	0	746586112	18	4350
2026-01-11 09:30:14.27	29.79	41.16	-28.9	-30.8	16.1	0.00e+00	0	42	0	747634688	18	4504
2026-01-11 09:30:15.27	29.37	41.03	-29.1	-31.3	15.7	0.00e+00	0	42	0	749731840	18	4661
2026-01-11 09:30:16.28	28.95	40.89	-29.0	-31.0	15.9	0.00e+00	0	42	0	751828992	18	4562
2026-01-11 09:30:17.27	28.54	40.76	-28.9	-30.8	16.0	0.00e+00	0	42	0	753926144	18	4512
2026-01-11 09:30:18.28	28.13	40.62	-28.9	-30.9	15.9	0.00e+00	0	42	0	756023296	18	4531
2026-01-11 09:30:19.28	27.72	40.48	-28.8	-30.5	16.2	0.00e+00	0	42	0	757071872	18	4419
2026-01-11 09:30:20.29	27.32	40.34	-28.7	-30.3	16.3	0.00e+00	0	42	0	759169024	18	4349
2026-01-11 09:30:21.30	26.91	40.20	-28.9	-30.8	16.0	0.00e+00	0	42	0	761266176	18	4499
2026-01-11 09:30:22.28	26.53	40.06	-29.0	-31.1	15.8	0.00e+00	0	42	0	763363328	18	4608
2026-01-11 09:30:23.29	26.13	39.92	-29.4	-32.2	15.2	0.00e+00	0	42	0	765460480	18	4938
2026-01-11 09:30:24.30	25.74	39.78	-29.4	-32.0	15.3	0.00e+00	0	42	0	766509056	18	4891
2026-01-11 09:30:25.31	25.35	39.63	-29.5	-31.9	15.1	7.00e-07	0	42	0	768606208	19	4738
2026-01-11 09:30:26.31	24.97	39.49	-29.7	-32.3	14.8	0.00e+00	0	42	0	770703360	19	4869
2026-01-11 09:30:27.32	24.59	39.34	-29.8	-32.7	14.6	0.00e+00	0	42	0	772800512	19	4999
2026-01-11 09:30:28.32	24.21	39.20	-29.5	-31.8	15.1	0.00e+00	0	42	0	774897664	19	4716
2026-01-11 09:30:29.32	23.84	39.05	-29.4	-31.6	15.2	0.00e+00	0	42	0	775946240	19	4640
2026-01-11 09:30:30.33	23.47	38.90	-29.5	-31.8	15.1	0.00e+00	0	42	0	778043392	19	4712
2026-01-11 09:30:31.34	23.10	38.75	-29.7	-32.4	14.7	0.00e+00	0	42	0	780140544	19	4912
2026-01-11 09:30:32.34	22.74	38.61	-29.7	-32.3	14.8	7.00e-07	0	42	0	782237696	19	4888
2026-01-11 09:30:33.34	22.39	38.46	-29.5	-31.8	15.1	0.00e+00	0	42	0	784334848	19	4724
2026-01-11 09:30:34.35	22.03	38.31	-29.5	-31.9	15.0	0.00e+00	0	42	0	785383424	19	4752
2026-01-11 09:30:35.36	21.67	38.15	-29.8	-32.6	14.7	0.00e+00	0	42	0	787480576	19	4968
2026-01-11 09:30:36.35	21.33	38.00	-29.8	-32.8	14.5	0.00e+00	0	42	0	789577728	19	5039
2026-01-11 09:30:37.36	20.98	37.85	-29.8	-32.5	14.6	0.00e+00	0	42	0	791674880	19	4960
2026-01-11 09:30:38.36	20.64	37.70	-29.7	-32.3	14.7	0.00e+00	0	42	0	793772032	19	4870
2026-01-11 09:30:39.36	20.30	37.55	-29.8	-32.6	14.6	0.00e+00	0	42	0	794820608	19	4991
2026-01-11 09:30:40.37	19.97	37.39	-29.9	-33.0	14.4	0.00e+00	0	42	0	796917760	19	5104
2026-01-11 09:30:41.37	19.63	37.24	-30.0	-32.7	14.2	2.20e-06	0	42	0	799014912	20	4906
2026-01-11 09:30:42.38	19.30	37.08	-30.2	-33.4	13.7	7.00e-07	0	42	0	801112064	20	5154
2026-01-11 09:30:43.38	18.98	36.93	-30.4	-33.7	13.5	9.10e-06	0	42	0	802160640	20	5265
2026-01-11 09:30:44.38	18.65	36.78	-30.7	-34.0	12.9	2.13e-05	0	42	0	804257792	21	5287
2026-01-11 09:30:45.38	18.34	36.62	-30.6	-33.9	13.0	2.59e-05	0	42	0	806354944	21	5261
2026-01-11 09:30:46.39	18.02	36.47	-30.7	-34.2	12.8	7.62e-05	0	42	0	808452096	21	5372
2026-01-11 09:30:47.40	17.70	36.31	-30.7	-34.0	12.9	3.96e-05	0	42	0	810549248	21	5299
2026-01-11 09:30:48.40	17.39	36.15	-30.7	-34.1	12.9	4.95e-05	0	42	0	811597824	21	5333
2026-01-11 09:30:49.40	17.08	36.00	-30.7	-34.1	12.9	4.57e-05	0	42	0	813694976	21	5341
2026-01-11 09:30:50.40	16.78	35.84	-30.9	-34.6	12.5	9.30e-05	0	42	0	815792128	21	5539
2026-01-11 09:30:51.41	16.48	35.69	-30.9	-34.7	12.4	1.23e-04	0	42	0	817889280	21	5574
2026-01-11 09:30:52.42	16.17	35.53	-30.9	-34.3	12.3	1.81e-04	0	42	0	819986432	22	5325
2026-01-11 09:30:53.43	15.88	35.37	-30.9	-34.3	12.4	1.23e-04	0	42	0	821035008	22	5292
2026-01-11 09:30:54.44	15.58	35.21	-31.2	-35.0	12.0	1.96e-04	0	42	0	823132160	22	5574
2026-01-11 09:30:55.44	15.29	35.06	-31.3	-35.5	11.6	5.27e-04	0	42	0	825229312	22	5834
2026-01-11 09:30:56.44	15.00	34.90	-31.5	-36.0	11.2	1.10e-03	0	42	0	827326464	22	6044
2026-01-11 09:30:57.45	14.72	34.74	-31.6	-35.7	11.0	1.31e-03	0	42	0	829423616	23	5821
2026-01-11 09:30:58.45	14.44	34.59	-31.5	-35.6	11.1	1.98e-03	0	42	0	830472192	23	5774
2026-01-11 09:30:59.46	14.16	34.43	-31.5	-35.7	11.1	1.41e-03	0	42	0	832569344	23	5795
2026-01-11 09:31:00.46	13.88	34.27	-31.7	-36.4	10.5	2.91e-03	0	42	0	834666496	23	6147
2026-01-11 09:31:01.47	13.60	34.12	-31.8	-36.6	10.4	4.05e-03	0	42	0	836763648	23	6252
2026-01-11 09:31:02.47	13.33	33.96	-31.9	-36.8	10.2	6.65e-03	0	42	0	838860800	23	6373
2026-01-11 09:31:03.48	13.06	33.80	-31.9	-36.9	10.1	6.74e-03	0	42	0	839909376	23	6432
2026-01-11 09:31:04.48	12.80	33.65	-32.1	-37.1	9.6	8.76e-03	0	42	0	842006528	24	6407
2026-01-11 09:31:05.49	12.53	33.49	-32.2	-37.5	9.3	1.49e-02	0	42	0	844103680	24	6672
2026-01-11 09:31:06.50	12.27	33.33	-32.2	-37.5	9.3	2.08e-02	0	42	0	846200832	24	6653
2026-01-11 09:31:07.51	12.01	33.17	-31.9	-36.6	10.0	1.15e-02	0	42	0	848297984	24	6156
2026-01-11 09:31:08.51	11.75	33.02	-31.9	-36.3	10.1	7.82e-03	0	42	0	849346560	24	6013
2026-01-11 09:31:09.52	11.50	32.86	-31.8	-36.2	10.3	5.99e-03	0	42	0	851443712	24	5935
2026-01-11 09:31:10.52	11.25	32.71	-31.9	-36.4	10.1	5.60e-03	0	42	0	853540864	24	6049
2026-01-11 09:31:11.53	11.00	32.55	-31.8	-36.1	10.3	6.43e-03	0	42	0	855638016	24	5914
2026-01-11 09:31:12.54	10.75	32.39	-31.8	-36.0	10.4	4.25e-03	0	42	0	857735168	24	5852
2026-01-11 09:31:13.55	10.51	32.24	-31.7	-35.8	10.6	4.18e-03	0	42	0	858783744	24	5777
2026-01-11 09:31:14.56	10.26	32.08	-31.7	-35.9	10.5	4.71e-03	0	42	0	860880896	24	5797
2026-01-11 09:31:15.56	10.02	31.93	-31.6	-35.4	10.8	3.33e-03	0	42	0	862978048	24	5590
2026-01-11 09:31:16.56	9.79	31.77	-31.5	-35.2	11.0	2.20e-03	0	42	0	865075200	24	5517
2026-01-11 09:31:17.57	9.55	31.62	-31.4	-35.0	11.2	1.75e-03	0	42	0	867172352	24	5397
2026-01-11 09:31:18.58	9.32	31.46	-31.4	-34.7	11.3	1.40e-03	0	42	0	868220928	24	5291
2026-01-11 09:31:19.59	9.09	31.31	-31.4	-34.9	11.2	1.18e-03	0	42	0	870318080	24	5355
2026-01-11 09:31:20.59	8.86	31.16	-31.5	-35.0	11.1	1.52e-03	0	42	0	872415232	24	5401
2026-01-11 09:31:21.59	8.63	31.00	-31.3	-34.6	11.3	1.83e-03	0	42	0	874512384	24	5255
2026-01-11 09:31:22.59	8.41	30.85	-31.2	-34.5	11.8	6.46e-04	0	42	0	876609536	23	5320
2026-01-11 09:31:23.59	8.19	30.70	-31.1	-34.4	11.9	4.19e-04	0	42	0	877658112	23	5266
2026-01-11 09:31:24.60	7.97	30.55	-31.1	-34.4	11.9	3.60e-04	0	42	0	879755264	23	5267
2026-01-11 09:31:25.60	7.75	30.39	-31.1	-34.4	12.0	4.98e-04	0	42	0	881852416	23	5235
2026-01-11 09:31:26.60	7.54	30.24	-31.2	-34.6	11.8	4.36e-04	0	42	0	883949568	23	5342
2026-01-11 09:31:27.61	7.33	30.09	-31.2	-34.8	11.6	7.18e-04	0	42	0	886046720	23	5421
2026-01-11 09:31:28.61	7.12	29.94	-31.3	-34.9	11.6	5.40e-04	0	42	0	887095296	23	5475
2026-01-11 09:31:29.61	6.91	29.79	-31.3	-35.0	11.5	9.62e-04	0	42	0	889192448	23	5511
2026-01-11 09:31:30.62	6.70	29.64	-31.2	-34.7	11.7	5.96e-04	0	42	0	891289600	23	5387
2026-01-11 09:31:31.62	6.49	29.49	-31.2	-34.7	11.7	6.43e-04	0	42	0	893386752	23	5400
2026-01-11 09:31:32.62	6.29	29.34	-31.2	-34.5	11.8	5.58e-04	0	42	0	895483904	23	5322
2026-01-11 09:31:33.63	6.09	29.19	-31.2	-34.7	11.7	4.88e-04	0	42	0	896532480	23	5386
2026-01-11 09:31:34.64	5.89	29.04	-31.2	-34.7	11.7	4.46e-04	0	42	0	898629632	23	5383
2026-01-11 09:31:35.64	5.69	28.90	-31.3	-34.9	11.6	6.58e-04	0	42	0	900726784	23	5479
2026-01-11 09:31:36.65	5.49	28.75	-31.1	-34.5	11.8	6.48e-04	0	42	0	902823936	23	5287
2026-01-11 09:31:37.66	5.30	28.60	-31.0	-34.2	12.0	3.46e-04	0	42	0	904921088	23	5181
2026-01-11 09:31:38.67	5.11	28.45	-30.9	-34.0	12.2	2.39e-04	0	42	0	905969664	23	5090
2026-01-11 09:31:39.67	4.92	28.30	-31.0	-34.2	12.0	2.44e-04	0	42	0	908066816	23	5196
2026-01-11 09:31:40.68	4.73	28.16	-31.0	-34.1	12.1	3.39e-04	0	42	0	910163968	23	5150
2026-01-11 09:31:41.68	4.54	28.01	-31.0	-34.1	12.0	3.20e-04	0	42	0	912261120	23	5149
2026-01-11 09:31:42.68	4.36	27.87	-31.0	-34.1	12.0	3.64e-04	0	42	0	914358272	23	5152
2026-01-11 09:31:43.69	4.17	27.72	-31.2	-34.6	11.8	4.66e-04	0	42	0	915406848	23	5343
2026-01-11 09:31:44.70	3.99	27.58	-31.1	-34.5	11.8	5.97e-04	0	42	0	917504000	23	5304
2026-01-11 09:31:45.70	3.81	27.43	-31.0	-34.1	12.0	3.58e-04	0	42	0	919601152	23	5169
2026-01-11 09:31:46.71	3.63	27.29	-31.0	-34.2	12.0	3.42e-04	0	42	0	921698304	23	5184
2026-01-11 09:31:47.72	3.45	27.15	-31.0	-34.2	11.9	3.07e-04	0	42	0	923795456	23	5202
2026-01-11 09:31:48.72	3.28	27.00	-31.1	-34.4	11.9	4.58e-04	0	42	0	924844032	23	5258
2026-01-11 09:31:49.73	3.10	26.86	-31.0	-34.1	12.0	3.70e-04	0	42	0	926941184	23	5160
2026-01-11 09:31:50.74	2.93	26.72	-30.9	-33.8	12.2	2.28e-04	0	42	0	929038336	23	5059
2026-01-11 09:31:51.74	2.76	26.58	-30.9	-33.8	12.2	2.03e-04	0	42	0	931135488	23	5041
2026-01-11 09:31:52.74	2.59	26.44	-31.0	-34.1	12.0	2.88e-04	0	42	0	933232640	23	5153
2026-01-11 09:31:53.75	2.42	26.30	-30.9	-33.7	12.3	2.68e-04	0	42	0	934281216	23	5018
2026-01-11 09:31:54.75	2.26	26.16	-30.9	-33.9	12.1	1.98e-04	0	42	0	936378368	23	5087
2026-01-11 09:31:55.75	2.09	26.02	-30.9	-33.8	12.2	3.13e-04	0	42	0	938475520	23	5028
2026-01-11 09:31:56.76	1.93	25.88	-30.7	-33.7	12.6	1.17e-04	0	42	0	940572672	22	5105
2026-01-11 09:31:57.77	1.77	25.74	-30.7	-33.9	12.5	1.26e-04	0	42	0	942669824	22	5203
2026-01-11 09:31:58.77	1.61	25.60	-30.7	-33.7	12.6	1.02e-04	0	42	0	943718400	22	5098
2026-01-11 09:31:59.78	1.45	25.46	-30.6	-33.6	12.7	7.09e-05	0	42	0	945815552	22	5049
2026-01-11 09:32:00.79	1.29	25.32	-30.7	-33.7	12.6	6.86e-05	0	42	0	947912704	22	5099
2026-01-11 09:32:01.80	1.13	25.19	-30.7	-33.7	12.6	9.38e-05	0	42	0	950009856	22	5114
2026-01-11 09:32:02.80	0.98	25.05	-30.8	-34.1	12.4	1.28e-04	0	42	0	952107008	22	5253
2026-01-11 09:32:03.81	0.83	24.91	-30.7	-33.8	12.5	1.50e-04	0	42	0	953155584	22	5141
2026-01-11 09:32:04.82	0.67	24.78	-30.6	-33.4	12.8	5.64e-05	0	42	0	955252736	22	4998
2026-01-11 09:32:05.82	0.52	24.64	-30.5	-33.4	12.9	5.56e-05	0	42	0	957349888	22	4976
2026-01-11 09:32:06.82	0.37	24.51	-30.5	-33.2	12.9	4.11e-05	0	42	0	959447040	22	4906
2026-01-11 09:32:07.83	0.23	24.38	-30.5	-33.2	12.9	4.80e-05	0	42	0	960495616	22	4917
2026-01-11 09:32:08.83	0.08	24.24	-30.6	-33.5	12.8	5.41e-05	0	42	0	962592768	22	5013
2026-01-11 09:32:09.83	359.93	24.11	-30.6	-33.6	12.6	7.55e-05	0	42	0	964689920	22	5082
2026-01-11 09:32:10.84	359.79	23.98	-30.5	-33.4	12.7	7.47e-05	0	42	0	966787072	22	4978
2026-01-11 09:32:11.84	359.65	23.85	-30.6	-33.6	12.6	4.95e-05	0	42	0	968884224	22	5070
2026-01-11 09:32:12.85	359.50	23.71	-30.7	-33.7	12.5	1.17e-04	0	42	0	970981376	22	5105
2026-01-11 09:32:13.86	359.36	23.58	-30.6	-33.4	12.7	7.24e-05	0	42	0	972029952	22	5001
2026-01-11 09:32:14.87	359.22	23.45	-30.4	-33.0	13.0	4.95e-05	0	42	0	974127104	22	4855
2026-01-11 09:32:15.87	359.09	23.32	-30.3	-32.8	13.2	2.67e-05	0	42	0	976224256	22	4766
2026-01-11 09:32:16.88	358.95	23.19	-30.4	-32.9	13.1	2.36e-05	0	42	0	978321408	22	4817
2026-01-11 09:32:17.88	358.81	23.06	-30.3	-32.6	13.3	1.98e-05	0	42	0	979369984	22	4719
2026-01-11 09:32:18.88	358.68	22.94	-30.4	-33.5	13.0	2.13e-05	0	42	0	981467136	21	5126
2026-01-11 09:32:19.89	358.54	22.81	-30.3	-33.1	13.2	2.51e-05	0	42	0	983564288	21	5000
2026-01-11 09:32:20.89	358.41	22.68	-30.2	-33.0	13.3	1.60e-05	0	42	0	985661440	21	4944
2026-01-11 09:32:21.89	358.28	22.55	-30.2	-32.8	13.4	1.98e-05	0	42	0	987758592	21	4893
2026-01-11 09:32:22.90	358.15	22.43	-30.2	-33.1	13.2	2.51e-05	0	42	0	988807168	21	4981
2026-01-11 09:32:23.90	358.02	22.30	-30.4	-33.5	12.9	3.12e-05	0	42	0	990904320	21	5158
2026-01-11 09:32:24.90	357.90	22.17	-30.4	-33.7	12.8	6.86e-05	0	42	0	993001472	21	5211
2026-01-11 09:32:25.91	357.77	22.05	-30.4	-33.6	12.9	5.56e-05	0	42	0	995098624	21	5182
2026-01-11 09:32:26.91	357.64	21.92	-30.4	-33.5	13.0	4.34e-05	0	42	0	997195776	21	5132
2026-01-11 09:32:27.92	357.52	21.80	-30.4	-33.6	12.9	4.27e-05	0	42	0	998244352	21	5198
2026-01-11 09:32:28.92	357.39	21.68	-30.4	-33.4	13.0	4.65e-05	0	42	0	1000341504	21	5113
2026-01-11 09:32:29.92	357.27	21.55	-30.4	-33.5	12.9	3.43e-05	0	42	0	1002438656	21	5141
2026-01-11 09:32:30.93	357.15	21.43	-30.3	-33.2	13.1	3.05e-05	0	42	0	1004535808	21	5049
2026-01-11 09:32:31.94	357.03	21.31	-30.5	-33.9	12.7	6.48e-05	0	42	0	1006632960	21	5295
2026-01-11 09:32:32.94	356.91	21.18	-30.3	-33.3	13.1	3.43e-05	0	42	0	1007681536	21	5067
2026-01-11 09:32:33.95	356.79	21.06	-30.3	-33.2	13.2	3.81e-05	0	42	0	1009778688	21	5018
2026-01-11 09:32:34.96	356.67	20.94	-30.3	-33.4	13.0	3.66e-05	0	42	0	1011875840	21	5101
2026-01-11 09:32:35.97	356.55	20.82	-30.3	-33.3	13.0	3.12e-05	0	42	0	1013972992	21	5090
2026-01-11 09:32:36.98	356.44	20.70	-30.3	-33.1	13.1	2.74e-05	0	42	0	1016070144	21	5017
2026-01-11 09:32:37.99	356.32	20.58	-30.3	-33.3	13.0	3.12e-05	0	42	0	1017118720	21	5081
2026-01-11 09:32:38.99	356.21	20.46	-30.4	-33.6	12.8	5.34e-05	0	42	0	1019215872	21	5212
2026-01-11 09:32:40.00	356.09	20.34	-30.4	-33.5	12.9	4.34e-05	0	42	0	1021313024	21	5151
2026-01-11 09:32:41.01	355.98	20.22	-30.4	-33.7	12.8	5.18e-05	0	42	0	1023410176	21	5216
2026-01-11 09:32:42.01	355.87	20.10	-30.3	-33.3	13.0	5.34e-05	0	42	0	1025507328	21	5068
2026-01-11 09:32:43.02	355.76	19.98	-30.3	-33.4	12.9	3.28e-05	0	42	0	1026555904	21	5114
2026-01-11 09:32:44.03	355.65	19.86	-30.4	-33.4	12.9	5.41e-05	0	42	0	1028653056	21	5130
2026-01-11 09:32:45.04	355.54	19.75	-30.3	-33.2	13.1	3.35e-05	0	42	0	1030750208	21	5027
2026-01-11 09:32:46.04	355.43	19.63	-30.4	-33.5	12.8	4.34e-05	0	42	0	1032847360	21	5171
2026-01-11 09:32:47.04	355.32	19.52	-30.2	-33.1	13.2	3.81e-05	0	42	0	1034944512	21	4995
2026-01-11 09:32:48.05	355.22	19.40	-30.2	-32.9	13.2	2.05e-05	0	42	0	1035993088	21	4936
2026-01-11 09:32:49.06	355.11	19.28	-30.2	-33.0	13.2	2.74e-05	0	42	0	1038090240	21	4972
2026-01-11 09:32:50.06	355.01	19.17	-30.2	-33.1	13.1	2.82e-05	0	42	0	1040187392	21	4997
2026-01-11 09:32:51.06	354.90	19.06	-30.3	-33.2	13.1	3.81e-05	0	42	0	1042284544	21	5040
2026-01-11 09:32:52.07	354.80	18.94	-30.4	-33.5	12.9	3.58e-05	0	42	0	1044381696	21	5142
2026-01-11 09:32:53.08	354.70	18.83	-30.3	-33.4	12.9	4.27e-05	0	42	0	1045430272	21	5129
2026-01-11 09:32:54.08	354.60	18.72	-30.3	-33.2	13.0	3.58e-05	0	42	0	1047527424	21	5062
2026-01-11 09:32:55.09	354.49	18.60	-30.4	-33.6	12.7	5.56e-05	0	42	0	1049624576	21	5204
2026-01-11 09:32:56.09	354.40	18.49	-30.3	-33.4	12.9	5.11e-05	0	42	0	1051721728	21	5124
2026-01-11 09:32:57.09	354.30	18.38	-30.4	-33.5	12.8	4.42e-05	0	42	0	1053818880	21	5169
2026-01-11 09:32:58.09	354.20	18.27	-30.5	-33.8	12.6	7.70e-05	0	42	0	1054867456	21	5278
2026-01-11 09:32:59.09	354.10	18.16	-30.5	-33.8	12.6	8.85e-05	0	42	0	1056964608	21	5297
2026-01-11 09:33:00.10	354.00	18.05	-30.6	-34.2	12.4	1.34e-04	0	42	0	1059061760	21	5427
2026-01-11 09:33:01.11	353.91	17.94	-30.6	-34.1	12.3	1.43e-04	0	42	0	1061158912	21	5430
2026-01-11 09:33:02.11	353.81	17.83	-30.7	-34.6	12.0	2.37e-04	0	42	0	1063256064	21	5625
2026-01-11 09:33:03.12	353.72	17.72	-30.7	-34.4	12.2	2.62e-04	0	42	0	1064304640	21	5545
2026-01-11 09:33:04.13	353.62	17.61	-30.8	-34.7	11.9	3.99e-04	0	42	0	1066401792	21	5694
2026-01-11 09:33:05.14	353.53	17.50	-30.7	-34.4	12.1	2.85e-04	0	42	0	1068498944	21	5559
2026-01-11 09:33:06.14	353.44	17.39	-30.6	-34.2	12.3	1.92e-04	0	42	0	1070596096	21	5442
2026-01-11 09:33:07.15	353.34	17.28	-30.6	-34.2	12.3	2.18e-04	0	42	0	1072693248	21	5464
2026-01-11 09:33:08.16	353.25	17.18	-30.7	-34.5	12.1	2.52e-04	0	42	0	1073741824	21	5569
2026-01-11 09:33:09.17	353.16	17.07	-30.6	-34.3	12.2	2.63e-04	0	42	0	1075838976	21	5508
2026-01-11 09:33:10.17	353.07	16.96	-30.6	-34.2	12.2	2.09e-04	0	42	0	1077936128	21	5474
2026-01-11 09:33:11.17	352.98	16.86	-30.6	-34.4	12.1	2.43e-04	0	42	0	1080033280	21	5531
2026-01-11 09:33:12.18	352.89	16.75	-30.6	-34.2	12.2	2.63e-04	0	42	0	1082130432	21	5471
2026-01-11 09:33:13.18	352.81	16.65	-30.6	-34.2	12.3	1.97e-04	0	42	0	1083179008	21	5446
2026-01-11 09:33:14.19	352.72	16.54	-30.6	-34.2	12.2	2.30e-04	0	42	0	1085276160	21	5473
2026-01-11 09:33:15.20	352.63	16.44	-30.5	-33.9	12.4	1.73e-04	0	42	0	1087373312	21	5353
2026-01-11 09:33:16.20	352.54	16.33	-30.5	-34.0	12.3	1.40e-04	0	42	0	1089470464	21	5401
2026-01-11 09:33:17.20	352.46	16.23	-30.5	-34.0	12.3	1.49e-04	0	42	0	1091567616	21	5384
2026-01-11 09:33:18.21	352.37	16.12	-30.5	-34.0	12.4	1.36e-04	0	42	0	1092616192	21	5369
2026-01-11 09:33:19.22	352.29	16.02	-30.5	-34.1	12.3	1.58e-04	0	42	0	1094713344	21	5439
2026-01-11 09:33:20.22	352.21	15.92	-30.6	-34.3	12.1	2.94e-04	0	42	0	1096810496	21	5502
2026-01-11 09:33:21.22	352.12	15.82	-30.5	-33.9	12.4	1.77e-04	0	42	0	1098907648	21	5339
2026-01-11 09:33:22.22	352.04	15.72	-30.3	-33.4	12.7	9.84e-05	0	42	0	1101004800	21	5163
2026-01-11 09:33:23.22	351.96	15.61	-30.3	-33.4	12.7	9.23e-05	0	42	0	1102053376	21	5158
2026-01-11 09:33:24.23	351.88	15.51	-30.3	-33.4	12.8	7.24e-05	0	42	0	1104150528	21	5126
2026-01-11 09:33:25.24	351.80	15.41	-30.3	-33.4	12.7	7.47e-05	0	42	0	1106247680	21	5129
2026-01-11 09:33:26.24	351.72	15.31	-30.3	-33.4	12.7	7.62e-05	0	42	0	1108344832	21	5136
2026-01-11 09:33:27.25	351.64	15.21	-30.2	-33.0	12.8	5.41e-05	0	42	0	1110441984	21	5017
2026-01-11 09:33:28.26	351.56	15.11	-30.3	-33.5	12.6	7.55e-05	0	42	0	1111490560	21	5199
2026-01-11 09:33:29.26	351.48	15.01	-30.4	-33.6	12.5	8.39e-05	0	42	0	1113587712	21	5250
2026-01-11 09:33:30.27	351.40	14.91	-30.4	-33.7	12.5	1.11e-04	0	42	0	1115684864	21	5256
2026-01-11 09:33:31.28	351.32	14.81	-30.4	-33.9	12.4	1.45e-04	0	42	0	1117782016	21	5345
2026-01-11 09:33:32.28	351.25	14.71	-30.4	-33.9	12.4	1.60e-04	0	42	0	1118830592	21	5334
2026-01-11 09:33:33.29	351.17	14.62	-30.5	-34.1	12.2	2.26e-04	0	42	0	1120927744	21	5427
2026-01-11 09:33:34.29	351.09	14.52	-30.5	-34.2	12.1	2.10e-04	0	42	0	1123024896	21	5460
2026-01-11 09:33:35.30	351.02	14.42	-30.6	-34.4	12.0	3.81e-04	0	42	0	1125122048	21	5547
2026-01-11 09:33:36.31	350.94	14.32	-30.6	-34.2	12.1	2.72e-04	0	42	0	1127219200	21	5500
2026-01-11 09:33:37.32	350.87	14.23	-30.6	-34.4	12.0	2.74e-04	0	42	0	1129316352	21	5545
2026-01-11 09:33:38.33	350.79	14.13	-30.6	-34.4	11.9	3.80e-04	0	42	0	1130364928	21	5581
2026-01-11 09:33:39.33	350.72	14.03	-30.6	-34.5	11.9	4.99e-04	0	42	0	1132462080	21	5591
2026-01-11 09:33:40.33	350.65	13.94	-30.7	-34.7	11.7	4.50e-04	0	42	0	1134559232	21	5684
2026-01-11 09:33:41.34	350.58	13.84	-30.7	-34.7	11.7	4.49e-04	0	42	0	1136656384	21	5704
2026-01-11 09:33:42.34	350.51	13.75	-30.8	-35.1	11.3	6.71e-04	0	42	0	1138753536	21	5911
2026-01-11 09:33:43.35	350.43	13.65	-30.9	-35.3	11.2	1.57e-03	0	42	0	1139802112	21	6005
2026-01-11 09:33:44.35	350.36	13.56	-30.8	-35.1	11.4	1.08e-03	0	42	0	1141899264	21	5893
2026-01-11 09:33:45.36	350.29	13.46	-30.8	-35.0	11.4	8.67e-04	0	42	0	1143996416	21	5856
2026-01-11 09:33:46.37	350.22	13.37	-30.8	-35.1	11.4	9.02e-04	0	42	0	1146093568	21	5877
2026-01-11 09:33:47.37	350.15	13.28	-30.9	-35.3	11.2	1.09e-03	0	42	0	1147142144	21	6003
2026-01-11 09:33:48.38	350.08	13.18	-30.8	-35.0	11.4	1.33e-03	0	42	0	1149239296	21	5830
2026-01-11 09:33:49.39	350.02	13.09	-30.8	-35.0	11.4	7.85e-04	0	42	0	1151336448	21	5844
2026-01-11 09:33:50.39	349.95	13.00	-30.9	-35.3	11.2	1.30e-03	0	42	0	1153433600	21	5974
2026-01-11 09:33:51.40	349.88	12.91	-30.8	-34.9	11.5	1.02e-03	0	42	0	1155530752	21	5816
2026-01-11 09:33:52.40	349.81	12.81	-30.8	-34.9	11.5	7.34e-04	0	42	0	1157627904	21	5818
2026-01-11 09:33:53.41	349.75	12.72	-30.8	-34.9	11.4	9.58e-04	0	42	0	1158676480	21	5824
2026-01-11 09:33:54.42	349.68	12.63	-30.8	-35.1	11.3	8.83e-04	0	42	0	1160773632	21	5918
2026-01-11 09:33:55.43	349.61	12.54	-30.8	-35.2	11.3	1.36e-03	0	42	0	1162870784	21	5925
2026-01-11 09:33:56.43	349.55	12.45	-30.8	-35.0	11.3	1.07e-03	0	42	0	1164967936	21	5874
2026-01-11 09:33:57.43	349.48	12.36	-30.8	-35.2	11.2	1.12e-03	0	42	0	1166016512	21	5956
2026-01-11 09:33:58.44	349.42	12.27	-30.8	-35.1	11.3	1.44e-03	0	42	0	1168113664	21	5897
2026-01-11 09:33:59.44	349.35	12.18	-30.8	-35.2	11.2	1.16e-03	0	42	0	1170210816	21	5952
2026-01-11 09:34:00.44	349.29	12.09	-30.8	-35.1	11.2	1.34e-03	0	42	0	1172307968	21	5928
2026-01-11 09:34:01.46	349.23	12.00	-30.9	-35.5	11.0	1.41e-03	0	42	0	1174405120	21	6094
2026-01-11 09:34:02.46	349.16	11.91	-31.0	-35.7	10.8	2.32e-03	0	42	0	1175453696	21	6207
2026-01-11 09:34:03.47	349.10	11.82	-30.9	-35.5	10.9	2.36e-03	0	42	0	1177550848	21	6113
2026-01-11 09:34:04.47	349.04	11.73	-30.9	-35.5	10.9	2.20e-03	0	42	0	1179648000	21	6121
2026-01-11 09:34:05.48	348.98	11.64	-30.8	-35.1	11.2	1.39e-03	0	42	0	1181745152	21	5920
2026-01-11 09:34:06.48	348.92	11.56	-30.7	-34.9	11.4	1.11e-03	0	42	0	1183842304	21	5820
2026-01-11 09:34:07.48	348.86	11.47	-30.8	-35.2	11.2	1.58e-03	0	42	0	1184890880	21	5971
2026-01-11 09:34:08.49	348.79	11.38	-30.9	-35.5	11.0	1.38e-03	0	42	0	1186988032	21	6088
2026-01-11 09:34:09.50	348.73	11.30	-30.9	-35.3	11.0	2.22e-03	0	42	0	1189085184	21	6025
2026-01-11 09:34:10.50	348.67	11.21	-30.7	-34.8	11.4	1.08e-03	0	42	0	1191182336	21	5789
2026-01-11 09:34:11.51	348.61	11.12	-30.7	-34.7	11.5	7.81e-04	0	42	0	1193279488	21	5742
2026-01-11 09:34:12.52	348.56	11.04	-30.7	-34.8	11.4	8.15e-04	0	42	0	1194328064	21	5760
2026-01-11 09:34:13.52	348.50	10.95	-30.7	-34.8	11.4	9.90e-04	0	42	0	1196425216	21	5808
2026-01-11 09:34:14.53	348.44	10.86	-30.8	-35.1	11.2	1.60e-03	0	42	0	1198522368	21	5917
2026-01-11 09:34:15.54	348.38	10.78	-30.7	-34.8	11.4	1.03e-03	0	42	0	1200619520	21	5784
2026-01-11 09:34:16.54	348.32	10.69	-30.8	-35.1	11.2	1.33e-03	0	42	0	1202716672	21	5913
2026-01-11 09:34:17.54	348.27	10.61	-30.8	-35.2	11.1	1.72e-03	0	42	0	1203765248	21	5960
2026-01-11 09:34:18.55	348.21	10.52	-30.7	-35.0	11.2	1.31e-03	0	42	0	1205862400	21	5878
2026-01-11 09:34:19.56	348.15	10.44	-30.8	-35.2	11.1	1.68e-03	0	42	0	1207959552	21	5963
2026-01-11 09:34:20.57	348.10	10.36	-31.0	-35.3	10.6	3.53e-03	0	42	0	1210056704	22	5921
2026-01-11 09:34:21.57	348.04	10.27	-31.0	-35.4	10.6	2.67e-03	0	42	0	1212153856	22	5968
2026-01-11 09:34:22.57	347.98	10.19	-31.0	-35.2	10.7	4.02e-03	0	42	0	1213202432	22	5880
2026-01-11 09:34:23.57	347.93	10.11	-31.0	-35.2	10.7	3.25e-03	0	42	0	1215299584	22	5862
2026-01-11 09:34:24.58	347.87	10.02	-30.9	-35.1	10.7	2.68e-03	0	42	0	1217396736	22	5835
2026-01-11 09:34:25.58	347.82	9.94	-30.8	-34.8	11.0	1.97e-03	0	42	0	1219493888	22	5686
2026-01-11 09:34:26.58	347.77	9.86	-31.0	-35.4	10.6	3.23e-03	0	42	0	1221591040	22	5948
2026-01-11 09:34:27.59	347.71	9.78	-31.0	-35.4	10.6	4.00e-03	0	42	0	1222639616	22	5969
2026-01-11 09:34:28.60	347.66	9.69	-30.9	-35.2	10.7	3.04e-03	0	42	0	1224736768	22	5865
2026-01-11 09:34:29.60	347.61	9.61	-30.9	-35.2	10.6	2.78e-03	0	42	0	1226833920	22	5887
2026-01-11 09:34:30.62	347.55	9.53	-30.9	-35.1	10.8	3.32e-03	0	42	0	1228931072	22	5821
2026-01-11 09:34:31.62	347.50	9.45	-31.0	-35.3	10.6	2.85e-03	0	42	0	1231028224	22	5924
2026-01-11 09:34:32.63	347.45	9.37	-30.9	-35.1	10.7	3.16e-03	0	42	0	1232076800	22	5846
2026-01-11 09:34:33.64	347.39	9.29	-30.9	-35.0	10.8	2.74e-03	0	42	0	1234173952	22	5799
2026-01-11 09:34:34.64	347.34	9.20	-30.9	-35.2	10.6	3.15e-03	0	42	0	1236271104	22	5886
2026-01-11 09:34:35.64	347.29	9.13	-31.0	-35.4	10.5	2.35e-03	0	42	0	1238368256	22	5966
2026-01-11 09:34:36.65	347.24	9.04	-30.9	-35.1	10.6	4.57e-03	0	42	0	1240465408	22	5865
2026-01-11 09:34:37.65	347.19	8.97	-30.8	-34.8	10.9	2.02e-03	0	42	0	1241513984	22	5694
2026-01-11 09:34:38.65	347.14	8.89	-30.8	-34.9	10.7	4.03e-03	0	42	0	1243611136	22	5777
2026-01-11 09:34:39.66	347.09	8.81	-30.9	-35.2	10.5	3.19e-03	0	42	0	1245708288	22	5920
2026-01-11 09:34:40.66	347.04	8.73	-30.9	-35.2	10.6	3.72e-03	0	42	0	1247805440	22	5887
2026-01-11 09:34:41.66	346.99	8.65	-30.9	-35.3	10.4	4.18e-03	0	42	0	1249902592	22	5951
2026-01-11 09:34:42.66	346.94	8.57	-30.9	-35.1	10.5	4.67e-03	0	42	0	1250951168	22	5889
2026-01-11 09:34:43.67	346.89	8.49	-31.0	-35.6	10.2	5.92e-03	0	42	0	1253048320	22	6103
2026-01-11 09:34:44.66	346.85	8.41	-31.1	-36.0	9.9	8.04e-03	0	42	0	1255145472	22	6300
2026-01-11 09:34:45.67	346.80	8.34	-30.8	-35.0	10.6	5.48e-03	0	42	0	1257242624	22	5798
2026-01-11 09:34:46.68	346.75	8.26	-31.2	-36.2	9.7	9.87e-03	0	42	0	1259339776	22	6452
2026-01-11 09:34:47.68	346.70	8.18	-31.1	-36.0	9.8	1.17e-02	0	42	0	1260388352	22	6313
2026-01-11 09:34:48.69	346.65	8.10	-31.0	-35.7	10.1	9.46e-03	0	42	0	1262485504	22	6157
2026-01-11 09:34:49.70	346.61	8.02	-31.0	-35.7	10.1	6.70e-03	0	42	0	1264582656	22	6154
2026-01-11 09:34:50.70	346.56	7.95	-30.9	-35.3	10.3	5.52e-03	0	42	0	1266679808	22	5987
2026-01-11 09:34:51.71	346.51	7.87	-31.1	-35.9	9.9	7.29e-03	0	42	0	1268776960	22	6263
2026-01-11 09:34:52.72	346.46	7.79	-31.1	-36.1	9.7	1.41e-02	0	42	0	1269825536	22	6378
2026-01-11 09:34:53.73	346.42	7.72	-31.2	-36.5	9.4	9.24e-03	0	42	0	1271922688	22	6612
2026-01-11 09:34:54.74	346.37	7.64	-31.2	-36.4	9.4	2.19e-02	0	42	0	1274019840	22	6552
2026-01-11 09:34:55.74	346.33	7.57	-31.1	-36.0	9.7	1.07e-02	0	42	0	1276116992	22	6348
2026-01-11 09:34:56.74	346.28	7.49	-30.9	-35.5	10.2	5.80e-03	0	42	0	1278214144	22	6062
2026-01-11 09:34:57.75	346.24	7.41	-31.1	-36.1	9.7	8.21e-03	0	42	0	1279262720	22	6383
2026-01-11 09:34:58.75	346.19	7.34	-31.1	-36.1	9.7	1.25e-02	0	42	0	1281359872	22	6400
2026-01-11 09:34:59.75	346.15	7.26	-30.9	-35.5	10.2	5.72e-03	0	42	0	1283457024	22	6072
2026-01-11 09:35:00.76	346.10	7.19	-31.1	-36.2	9.5	1.13e-02	0	42	0	1285554176	22	6493
2026-01-11 09:35:01.76	346.06	7.11	-31.1	-36.3	9.5	1.77e-02	0	42	0	1287651328	22	6531
2026-01-11 09:35:02.76	346.01	7.04	-32.9	-46.2	3.8	7.75e-02	0	42	104	1288699904	25	16694
2026-01-11 09:35:03.77	345.97	6.97	-33.2	-47.2	3.8	1.49e+00	0	42	104	1288699904	26	18017

