passes_logs/2026/01/11/R2M6_AANII_01/R2M6_AANII_01__20260111_231138_NOAA_20_JPSS-1_rec.log

#Pass ID: 20260111_231138_NOAA 20 (JPSS-1)
#Satellite: NOAA 20 (JPSS-1)
#Configuration: NOAA 20
#almurnet v.1.7.20240730
#Start time: 2026-01-11 23:11:40

#Version: 2.2.20231116
#Station: R2M6_AANII_01
#Location: 30.233357 lon 59.946436 lat
#TLE: 1 43013U 17073A   26011.31235446  .00000090  00000+0  63634-4 0  9991
#TLE: 2 43013  98.7632 312.2907 0001646  44.6084 315.5224 14.19535308422217

#Time	Az	El	Level	Level2	SNR	BER	BlckErr	Temp	State	Recorded	gain1	gain2
2026-01-11 23:11:40.41	25.71	7.11	-31.8	-39.2	4.7	1.29e+00	0	39	0	0	23	8497
2026-01-11 23:11:41.40	25.78	7.18	-32.0	-40.1	4.5	1.37e+00	0	39	104	0	24	9144
2026-01-11 23:11:42.41	25.85	7.25	-32.0	-39.9	5.8	4.39e-01	0	39	0	0	24	8933
2026-01-11 23:11:43.42	25.92	7.32	-31.9	-39.2	6.2	3.09e-01	0	39	0	1048576	24	8359
2026-01-11 23:11:44.42	25.99	7.39	-31.8	-38.3	7.0	2.17e-01	0	40	0	3145728	24	7647
2026-01-11 23:11:45.43	26.06	7.46	-31.6	-37.8	7.8	1.28e-01	0	39	0	5242880	23	7395
2026-01-11 23:11:46.44	26.13	7.54	-31.5	-37.4	8.1	8.12e-02	0	39	0	7340032	23	7093
2026-01-11 23:11:47.45	26.20	7.61	-31.3	-36.4	8.9	3.59e-02	0	39	0	9437184	23	6508
2026-01-11 23:11:48.46	26.27	7.68	-31.2	-36.7	9.1	2.31e-02	0	40	0	10485760	22	6789
2026-01-11 23:11:49.46	26.34	7.75	-31.0	-36.1	9.6	1.82e-02	0	39	0	12582912	22	6405
2026-01-11 23:11:50.47	26.42	7.82	-30.9	-35.6	10.0	9.05e-03	0	39	0	14680064	22	6151
2026-01-11 23:11:51.47	26.49	7.89	-30.9	-36.1	10.0	5.99e-03	0	40	0	16777216	21	6506
2026-01-11 23:11:52.48	26.56	7.97	-30.8	-35.5	10.4	8.32e-03	0	40	0	18874368	21	6220
2026-01-11 23:11:53.49	26.63	8.04	-30.7	-35.1	10.7	3.46e-03	0	40	0	19922944	21	6017
2026-01-11 23:11:54.50	26.71	8.11	-30.6	-34.9	11.0	2.28e-03	0	40	0	22020096	21	5883
2026-01-11 23:11:55.50	26.78	8.18	-30.5	-34.6	11.2	1.57e-03	0	40	0	24117248	21	5743
2026-01-11 23:11:56.51	26.86	8.26	-30.6	-34.7	11.1	1.31e-03	0	40	0	26214400	21	5804
2026-01-11 23:11:57.52	26.93	8.33	-30.5	-34.6	11.2	1.84e-03	0	40	0	28311552	21	5773
2026-01-11 23:11:58.53	27.00	8.40	-30.4	-34.2	11.4	1.23e-03	0	40	0	29360128	21	5582
2026-01-11 23:11:59.53	27.08	8.48	-30.7	-35.2	10.8	1.73e-03	0	40	0	31457280	21	6028
2026-01-11 23:12:00.51	27.15	8.55	-30.7	-35.1	10.8	2.20e-03	0	40	0	33554432	21	5981
2026-01-11 23:12:01.51	27.23	8.62	-30.6	-34.7	11.2	1.71e-03	0	40	0	35651584	21	5772
2026-01-11 23:12:02.52	27.30	8.70	-30.8	-35.3	10.7	2.10e-03	0	40	0	37748736	21	6084
2026-01-11 23:12:03.53	27.38	8.77	-30.7	-35.2	10.8	3.35e-03	0	40	0	38797312	21	6037
2026-01-11 23:12:04.53	27.46	8.84	-30.6	-34.8	11.1	1.91e-03	0	40	0	40894464	21	5816
2026-01-11 23:12:05.54	27.54	8.92	-30.5	-34.5	11.3	1.49e-03	0	40	0	42991616	21	5705
2026-01-11 23:12:06.55	27.61	8.99	-30.6	-34.6	11.3	1.85e-03	0	40	0	45088768	21	5745
2026-01-11 23:12:07.55	27.69	9.07	-30.5	-34.3	11.5	9.25e-04	0	40	0	46137344	21	5602
2026-01-11 23:12:08.55	27.77	9.14	-30.5	-34.3	11.5	8.69e-04	0	40	0	48234496	21	5618
2026-01-11 23:12:09.56	27.85	9.22	-30.4	-34.5	11.7	7.29e-04	0	40	0	50331648	20	5813
2026-01-11 23:12:10.57	27.93	9.29	-30.4	-34.7	11.6	6.27e-04	0	40	0	52428800	20	5885
2026-01-11 23:12:11.58	28.01	9.37	-30.3	-34.2	11.7	5.35e-04	0	40	0	54525952	20	5667
2026-01-11 23:12:12.58	28.09	9.45	-30.2	-34.1	11.7	4.50e-04	0	40	0	56623104	20	5638
2026-01-11 23:12:13.59	28.17	9.52	-30.1	-33.8	12.2	2.66e-04	0	40	0	57671680	20	5490
2026-01-11 23:12:14.59	28.25	9.60	-30.1	-33.8	12.2	1.50e-04	0	40	0	59768832	20	5465
2026-01-11 23:12:15.60	28.33	9.67	-30.0	-33.3	12.5	1.49e-04	0	40	0	61865984	20	5259
2026-01-11 23:12:16.60	28.41	9.75	-30.3	-34.2	12.0	8.69e-05	0	40	0	63963136	20	5671
2026-01-11 23:12:17.61	28.49	9.83	-30.2	-33.9	12.2	4.44e-04	0	40	0	66060288	20	5524
2026-01-11 23:12:18.61	28.57	9.90	-30.1	-33.5	12.5	1.81e-04	0	40	0	67108864	20	5379
2026-01-11 23:12:19.62	28.66	9.98	-29.0	-32.2	12.7	6.17e-05	0	41	0	69206016	20	5187
2026-01-11 23:12:20.62	28.74	10.06	-30.0	-33.2	12.6	2.10e-04	0	40	0	71303168	20	5242
2026-01-11 23:12:21.63	28.82	10.13	-29.9	-33.5	13.0	7.32e-05	0	40	0	73400320	19	5454
2026-01-11 23:12:22.64	28.91	10.21	-29.9	-33.4	12.5	3.89e-05	0	40	0	74448896	19	5413
2026-01-11 23:12:23.64	28.99	10.29	-29.8	-33.4	12.6	6.19e-04	0	41	0	76546048	19	5387
2026-01-11 23:12:24.65	29.08	10.37	-29.8	-33.1	13.2	2.74e-05	0	40	0	78643200	19	5304
2026-01-11 23:12:25.65	29.16	10.45	-29.8	-33.2	13.1	2.74e-05	0	41	0	80740352	19	5340
2026-01-11 23:12:26.66	29.25	10.52	-29.8	-33.3	13.1	1.32e-03	0	40	0	82837504	19	5364
2026-01-11 23:12:27.66	29.33	10.60	-29.9	-33.4	13.1	8.02e-04	0	40	0	84934656	19	5396
2026-01-11 23:12:28.67	29.42	10.68	-29.8	-33.3	13.2	3.58e-05	0	41	0	85983232	19	5345
2026-01-11 23:12:29.67	29.50	10.76	-29.7	-33.0	13.3	2.59e-05	0	40	0	88080384	19	5247
2026-01-11 23:12:30.68	29.59	10.84	-29.9	-33.4	13.1	6.83e-04	0	40	0	90177536	19	5387
2026-01-11 23:12:31.68	29.68	10.92	-29.7	-33.0	13.3	2.21e-05	0	41	0	92274688	19	5249
2026-01-11 23:12:32.69	29.77	11.00	-29.8	-33.3	13.2	1.44e-05	0	41	0	93323264	19	5351
2026-01-11 23:12:33.70	29.86	11.08	-29.8	-33.2	13.3	7.56e-04	0	41	0	95420416	19	5308
2026-01-11 23:12:34.70	29.95	11.16	-29.9	-33.3	13.1	1.83e-05	0	41	0	97517568	19	5362
2026-01-11 23:12:35.71	30.04	11.24	-29.8	-33.2	13.3	2.36e-05	0	41	0	99614720	19	5309
2026-01-11 23:12:36.72	30.13	11.32	-29.9	-33.3	13.2	7.60e-04	0	41	0	101711872	19	5356
2026-01-11 23:12:37.72	30.22	11.40	-29.9	-33.3	13.2	1.52e-04	0	41	0	102760448	19	5363
2026-01-11 23:12:38.72	30.31	11.48	-29.7	-33.0	13.4	7.99e-04	0	41	0	104857600	19	5248
2026-01-11 23:12:39.73	30.40	11.56	-29.8	-33.1	13.4	1.37e-05	0	41	0	106954752	19	5273
2026-01-11 23:12:40.74	30.49	11.64	-29.7	-32.9	13.5	2.66e-04	0	41	0	109051904	19	5188
2026-01-11 23:12:41.74	30.58	11.72	-29.7	-32.9	13.5	7.20e-04	0	40	0	111149056	19	5203
2026-01-11 23:12:42.75	30.68	11.81	-29.8	-33.1	13.4	9.10e-06	0	41	0	113246208	19	5266
2026-01-11 23:12:43.76	30.77	11.89	-29.9	-33.4	13.2	4.13e-04	0	41	0	114294784	19	5384
2026-01-11 23:12:44.77	30.86	11.97	-29.8	-33.3	13.3	1.09e-03	0	41	0	116391936	19	5339
2026-01-11 23:12:45.78	30.96	12.05	-29.8	-33.1	13.4	5.16e-04	0	41	0	118489088	19	5264
2026-01-11 23:12:46.78	31.05	12.14	-29.7	-32.8	13.6	5.68e-04	0	41	0	120586240	19	5152
2026-01-11 23:12:47.79	31.15	12.22	-29.7	-33.0	13.5	9.45e-04	0	41	0	121634816	19	5225
2026-01-11 23:12:48.80	31.25	12.30	-29.7	-33.0	13.5	4.66e-04	0	41	0	123731968	19	5221
2026-01-11 23:12:49.80	31.34	12.38	-29.8	-33.0	13.4	4.03e-04	0	41	0	125829120	19	5239
2026-01-11 23:12:50.81	31.44	12.47	-29.8	-33.3	13.3	7.69e-04	0	41	0	127926272	19	5341
2026-01-11 23:12:51.82	31.54	12.55	-29.8	-33.2	13.4	4.83e-04	0	41	0	130023424	19	5301
2026-01-11 23:12:52.83	31.64	12.64	-29.8	-33.2	13.4	9.90e-06	0	41	0	131072000	19	5294
2026-01-11 23:12:53.84	31.73	12.72	-29.9	-33.5	13.1	4.74e-04	0	41	0	133169152	19	5439
2026-01-11 23:12:54.84	31.83	12.80	-29.8	-32.6	13.3	4.97e-04	0	41	0	135266304	20	4992
2026-01-11 23:12:55.85	31.93	12.89	-29.8	-32.7	13.3	1.67e-05	0	41	0	137363456	20	5036
2026-01-11 23:12:56.86	32.03	12.97	-29.8	-33.2	13.4	1.75e-05	0	41	0	139460608	19	5286
2026-01-11 23:12:57.87	32.14	13.06	-29.8	-33.2	13.4	3.83e-04	0	41	0	141557760	19	5318
2026-01-11 23:12:58.88	32.24	13.15	-29.9	-33.3	13.3	3.05e-05	0	41	0	142606336	19	5350
2026-01-11 23:12:59.89	32.34	13.23	-29.9	-33.0	13.1	2.67e-05	0	41	0	144703488	20	5146
2026-01-11 23:13:00.89	32.44	13.32	-30.1	-33.6	12.7	4.52e-04	0	41	0	146800640	20	5348
2026-01-11 23:13:01.90	32.54	13.40	-30.0	-33.2	13.0	8.92e-05	0	41	0	148897792	20	5207
2026-01-11 23:13:02.91	32.65	13.49	-29.9	-33.4	13.2	1.37e-05	0	41	0	150994944	19	5392
2026-01-11 23:13:03.91	32.75	13.57	-30.0	-33.6	13.2	1.90e-05	0	41	0	152043520	19	5441
2026-01-11 23:13:04.92	32.86	13.66	-29.8	-32.6	13.4	1.75e-04	0	41	0	154140672	20	4973
2026-01-11 23:13:05.92	32.96	13.75	-29.8	-33.0	13.5	5.73e-04	0	41	0	156237824	19	5242
2026-01-11 23:13:06.93	33.07	13.83	-29.8	-33.0	13.6	1.22e-05	0	41	0	158334976	19	5227
2026-01-11 23:13:07.94	33.18	13.92	-29.9	-33.4	13.3	2.97e-04	0	41	0	159383552	19	5365
2026-01-11 23:13:08.95	33.28	14.01	-29.8	-33.0	13.5	6.54e-04	0	41	0	161480704	19	5227
2026-01-11 23:13:09.96	33.39	14.10	-29.6	-32.6	13.8	3.00e-06	0	41	0	163577856	19	5073
2026-01-11 23:13:10.96	33.50	14.18	-29.6	-32.7	13.8	3.08e-04	0	41	0	165675008	19	5089
2026-01-11 23:13:11.97	33.61	14.27	-29.7	-32.7	13.8	5.80e-04	0	41	0	167772160	19	5118
2026-01-11 23:13:12.98	33.72	14.36	-29.8	-33.0	13.6	6.80e-06	0	41	0	169869312	19	5233
2026-01-11 23:13:13.98	33.83	14.45	-29.8	-33.1	13.6	6.80e-06	0	41	0	170917888	19	5243
2026-01-11 23:13:14.99	33.94	14.54	-29.8	-33.2	13.5	5.00e-04	0	41	0	173015040	19	5281
2026-01-11 23:13:16.00	34.05	14.63	-29.8	-33.0	13.6	2.81e-04	0	41	0	175112192	19	5223
2026-01-11 23:13:17.00	34.16	14.72	-29.9	-33.3	13.4	8.30e-06	0	41	0	177209344	19	5333
2026-01-11 23:13:18.01	34.28	14.81	-29.9	-33.0	13.3	1.44e-05	0	41	0	179306496	20	5096
2026-01-11 23:13:19.01	34.39	14.90	-29.8	-32.6	13.5	2.36e-05	0	41	0	180355072	20	4976
2026-01-11 23:13:20.01	34.50	14.98	-29.9	-33.3	13.5	9.10e-06	0	41	0	182452224	19	5306
2026-01-11 23:13:21.02	34.62	15.08	-29.9	-33.2	13.5	7.60e-06	0	41	0	184549376	19	5287
2026-01-11 23:13:22.02	34.73	15.17	-30.0	-33.0	13.2	9.90e-06	0	41	0	186646528	20	5115
2026-01-11 23:13:23.03	34.85	15.26	-30.1	-33.4	13.0	2.44e-05	0	41	0	187695104	20	5273
2026-01-11 23:13:24.04	34.97	15.35	-30.1	-33.3	13.1	2.82e-05	0	41	0	189792256	20	5230
2026-01-11 23:13:25.04	35.08	15.44	-30.3	-33.8	12.7	4.27e-05	0	41	0	191889408	20	5434
2026-01-11 23:13:26.05	35.20	15.53	-30.2	-33.6	12.9	9.99e-05	0	41	0	193986560	20	5324
2026-01-11 23:13:27.06	35.32	15.62	-30.2	-33.7	12.9	5.26e-05	0	41	0	196083712	20	5361
2026-01-11 23:13:28.06	35.44	15.71	-30.3	-34.0	12.6	6.40e-05	0	41	0	198180864	20	5520
2026-01-11 23:13:29.07	35.56	15.80	-30.3	-33.8	12.7	8.01e-05	0	41	0	199229440	20	5438
2026-01-11 23:13:30.07	35.68	15.90	-30.3	-34.0	12.6	6.94e-05	0	41	0	201326592	20	5486
2026-01-11 23:13:31.08	35.80	15.99	-30.3	-33.8	12.7	6.86e-05	0	41	0	203423744	20	5428
2026-01-11 23:13:32.08	35.92	16.08	-30.3	-33.9	12.7	8.31e-05	0	41	0	205520896	20	5458
2026-01-11 23:13:33.09	36.05	16.17	-30.2	-33.7	12.9	6.10e-05	0	41	0	206569472	20	5376
2026-01-11 23:13:34.10	36.17	16.27	-30.3	-33.8	12.8	5.41e-05	0	41	0	208666624	20	5403
2026-01-11 23:13:35.10	36.30	16.36	-30.2	-33.7	12.8	4.80e-05	0	41	0	210763776	20	5380
2026-01-11 23:13:36.11	36.42	16.46	-30.3	-33.9	12.8	9.07e-05	0	41	0	212860928	20	5442
2026-01-11 23:13:37.11	36.55	16.55	-30.2	-33.6	12.9	4.19e-05	0	41	0	214958080	20	5348
2026-01-11 23:13:38.12	36.68	16.64	-30.2	-33.5	13.0	3.58e-05	0	41	0	216006656	20	5282
2026-01-11 23:13:39.13	36.80	16.74	-30.1	-33.5	13.1	3.66e-05	0	41	0	218103808	20	5268
2026-01-11 23:13:40.14	36.93	16.83	-30.2	-33.5	13.0	2.89e-05	0	41	0	220200960	20	5288
2026-01-11 23:13:41.14	37.06	16.93	-30.2	-33.6	13.0	4.57e-05	0	41	0	222298112	20	5328
2026-01-11 23:13:42.15	37.19	17.02	-30.3	-33.9	12.7	4.34e-05	0	41	0	224395264	20	5457
2026-01-11 23:13:43.16	37.32	17.12	-30.2	-33.7	12.9	4.42e-05	0	41	0	226492416	20	5367
2026-01-11 23:13:44.16	37.45	17.21	-30.3	-33.9	12.8	6.17e-05	0	41	0	227540992	20	5443
2026-01-11 23:13:45.17	37.59	17.31	-30.4	-34.1	12.7	8.77e-05	0	41	0	229638144	20	5540
2026-01-11 23:13:46.18	37.72	17.41	-30.3	-34.0	12.8	7.40e-05	0	41	0	231735296	20	5472
2026-01-11 23:13:47.18	37.85	17.50	-30.5	-34.3	12.5	1.11e-04	0	41	0	233832448	20	5619
2026-01-11 23:13:48.19	37.99	17.60	-30.4	-34.2	12.6	9.07e-05	0	41	0	234881024	20	5575
2026-01-11 23:13:49.20	38.13	17.69	-30.5	-34.3	12.5	1.11e-04	0	41	0	236978176	20	5624
2026-01-11 23:13:50.21	38.26	17.79	-30.6	-34.4	12.1	1.87e-04	0	41	0	239075328	21	5529
2026-01-11 23:13:51.21	38.40	17.89	-30.7	-34.6	12.0	3.70e-04	0	41	0	241172480	21	5622
2026-01-11 23:13:52.22	38.54	17.99	-30.6	-34.3	12.2	2.78e-04	0	41	0	243269632	21	5516
2026-01-11 23:13:53.23	38.68	18.08	-30.5	-34.0	12.4	1.90e-04	0	41	0	244318208	21	5364
2026-01-11 23:13:54.24	38.82	18.18	-30.4	-33.7	12.7	8.54e-05	0	41	0	246415360	21	5243
2026-01-11 23:13:55.24	38.96	18.28	-30.4	-33.7	12.7	7.17e-05	0	41	0	248512512	21	5246
2026-01-11 23:13:56.25	39.10	18.38	-30.4	-33.6	12.7	2.18e-04	0	41	0	250609664	21	5218
2026-01-11 23:13:57.26	39.24	18.48	-30.4	-33.6	12.7	5.79e-05	0	41	0	252706816	21	5204
2026-01-11 23:13:58.27	39.39	18.58	-30.5	-34.0	12.5	9.61e-05	0	41	0	254803968	21	5367
2026-01-11 23:13:59.28	39.53	18.68	-30.4	-33.7	12.7	1.19e-04	0	41	0	255852544	21	5259
2026-01-11 23:14:00.28	39.68	18.77	-30.5	-33.9	12.5	1.47e-04	0	41	0	257949696	21	5344
2026-01-11 23:14:01.28	39.82	18.87	-30.4	-33.6	12.8	9.23e-05	0	41	0	260046848	21	5209
2026-01-11 23:14:02.29	39.97	18.97	-30.3	-33.2	13.0	4.57e-05	0	41	0	262144000	21	5057
2026-01-11 23:14:03.30	40.12	19.07	-30.3	-33.2	13.0	3.73e-05	0	42	0	263192576	21	5057
2026-01-11 23:14:04.30	40.27	19.17	-30.2	-33.0	13.2	3.73e-05	0	41	0	265289728	21	4967
2026-01-11 23:14:05.31	40.42	19.27	-30.1	-32.7	13.4	1.44e-05	0	41	0	267386880	21	4875
2026-01-11 23:14:06.32	40.57	19.37	-30.0	-32.4	13.5	8.30e-06	0	41	0	269484032	21	4770
2026-01-11 23:14:07.32	40.72	19.47	-30.0	-32.5	13.5	6.80e-06	0	41	0	271581184	21	4774
2026-01-11 23:14:08.33	40.87	19.58	-30.1	-32.6	13.5	1.06e-05	0	41	0	272629760	21	4825
2026-01-11 23:14:09.34	41.03	19.68	-30.2	-33.0	13.2	1.52e-05	0	42	0	274726912	21	4956
2026-01-11 23:14:10.34	41.18	19.78	-30.4	-33.5	12.9	7.70e-05	0	41	0	276824064	21	5141
2026-01-11 23:14:11.35	41.34	19.88	-30.2	-33.1	13.2	2.28e-05	0	41	0	278921216	21	4993
2026-01-11 23:14:12.36	41.50	19.98	-30.3	-33.2	13.0	3.05e-05	0	41	0	281018368	21	5049
2026-01-11 23:14:13.37	41.66	20.09	-30.3	-33.2	13.1	8.31e-05	0	41	0	283115520	21	5034
2026-01-11 23:14:14.37	41.81	20.19	-30.2	-33.6	13.1	2.88e-04	0	41	0	284164096	20	5306
2026-01-11 23:14:15.37	41.97	20.29	-30.1	-33.3	13.4	2.59e-05	0	41	0	286261248	20	5194
2026-01-11 23:14:16.38	42.14	20.39	-30.1	-33.2	13.4	3.54e-04	0	42	0	288358400	20	5160
2026-01-11 23:14:17.38	42.30	20.49	-30.1	-33.2	13.4	1.70e-04	0	41	0	290455552	20	5143
2026-01-11 23:14:18.39	42.46	20.60	-29.9	-32.7	13.7	8.30e-06	0	41	0	291504128	20	4961
2026-01-11 23:14:19.40	42.63	20.70	-29.7	-32.2	14.1	1.50e-06	0	41	0	293601280	20	4802
2026-01-11 23:14:20.41	42.79	20.80	-29.7	-32.6	14.2	2.67e-04	0	41	0	295698432	19	5012
2026-01-11 23:14:21.40	42.95	20.91	-29.7	-32.6	14.2	7.00e-07	0	41	0	297795584	19	5040
2026-01-11 23:14:22.41	43.12	21.01	-29.7	-32.6	14.2	7.00e-07	0	41	0	299892736	19	5017
2026-01-11 23:14:23.42	43.29	21.12	-29.7	-32.7	14.2	1.01e-04	0	42	0	300941312	19	5053
2026-01-11 23:14:24.43	43.46	21.22	-29.7	-32.6	14.3	7.00e-07	0	41	0	303038464	19	5021
2026-01-11 23:14:25.43	43.63	21.32	-29.6	-32.4	14.4	5.79e-05	0	42	0	305135616	19	4952
2026-01-11 23:14:26.44	43.81	21.43	-29.6	-32.2	14.5	0.00e+00	0	42	0	307232768	19	4896
2026-01-11 23:14:27.44	43.98	21.53	-29.6	-32.2	14.5	0.00e+00	0	42	0	309329920	19	4886
2026-01-11 23:14:28.45	44.15	21.64	-29.5	-32.1	14.6	2.21e-05	0	42	0	310378496	19	4837
2026-01-11 23:14:29.45	44.33	21.74	-29.3	-31.5	15.0	0.00e+00	0	41	0	312475648	19	4647
2026-01-11 23:14:30.46	44.50	21.85	-29.2	-31.3	15.1	0.00e+00	0	42	0	314572800	19	4578
2026-01-11 23:14:31.46	44.68	21.95	-29.2	-31.2	15.1	0.00e+00	0	42	0	316669952	19	4553
2026-01-11 23:14:32.47	44.86	22.06	-29.2	-31.3	15.1	0.00e+00	0	41	0	318767104	19	4581
2026-01-11 23:14:33.47	45.04	22.16	-29.2	-31.2	15.2	1.50e-06	0	42	0	319815680	19	4559
2026-01-11 23:14:34.48	45.22	22.27	-29.2	-31.3	15.1	1.81e-04	0	41	0	321912832	19	4581
2026-01-11 23:14:35.48	45.40	22.38	-29.2	-31.9	15.1	1.82e-04	0	41	0	324009984	18	4873
2026-01-11 23:14:36.49	45.59	22.48	-29.2	-31.8	15.1	0.00e+00	0	41	0	326107136	18	4839
2026-01-11 23:14:37.50	45.77	22.59	-29.2	-31.8	15.1	0.00e+00	0	41	0	328204288	18	4867
2026-01-11 23:14:38.51	45.96	22.70	-29.1	-31.5	15.3	6.02e-05	0	42	0	329252864	18	4737
2026-01-11 23:14:39.51	46.15	22.80	-28.9	-31.1	15.5	0.00e+00	0	42	0	331350016	18	4620
2026-01-11 23:14:40.51	46.33	22.91	-28.9	-30.9	15.6	0.00e+00	0	41	0	333447168	18	4564
2026-01-11 23:14:41.52	46.52	23.02	-28.9	-31.1	15.5	0.00e+00	0	42	0	335544320	18	4619
2026-01-11 23:14:42.53	46.72	23.12	-28.9	-31.0	15.6	0.00e+00	0	42	0	337641472	18	4584
2026-01-11 23:14:43.53	46.91	23.23	-28.8	-30.8	15.7	0.00e+00	0	41	0	338690048	18	4531
2026-01-11 23:14:44.54	47.10	23.34	-28.7	-30.4	16.0	0.00e+00	0	42	0	340787200	18	4414
2026-01-11 23:14:45.55	47.30	23.45	-28.6	-30.4	16.0	0.00e+00	0	41	0	342884352	18	4395
2026-01-11 23:14:46.55	47.49	23.55	-28.6	-30.3	16.1	0.00e+00	0	42	0	344981504	18	4386
2026-01-11 23:14:47.56	47.69	23.66	-28.4	-29.9	16.3	0.00e+00	0	42	0	347078656	18	4256
2026-01-11 23:14:48.57	47.89	23.77	-28.4	-29.7	16.4	0.00e+00	0	41	0	348127232	18	4206
2026-01-11 23:14:49.57	48.09	23.88	-28.3	-30.1	16.4	0.00e+00	0	42	0	350224384	17	4414
2026-01-11 23:14:50.58	48.29	23.98	-28.2	-29.8	16.6	0.00e+00	0	42	0	352321536	17	4329
2026-01-11 23:14:51.58	48.50	24.09	-28.2	-29.7	16.6	0.00e+00	0	41	0	354418688	17	4316
2026-01-11 23:14:52.59	48.70	24.20	-28.2	-29.8	16.6	0.00e+00	0	42	0	356515840	17	4325
2026-01-11 23:14:53.60	48.91	24.31	-28.3	-30.2	16.4	0.00e+00	0	41	0	357564416	17	4438
2026-01-11 23:14:54.61	49.12	24.42	-28.5	-30.5	16.2	0.00e+00	0	42	0	359661568	17	4532
2026-01-11 23:14:55.61	49.32	24.53	-28.7	-30.9	16.0	0.00e+00	0	41	0	361758720	17	4660
2026-01-11 23:14:56.62	49.53	24.63	-28.8	-31.2	15.8	0.00e+00	0	42	0	363855872	17	4762
2026-01-11 23:14:57.62	49.74	24.74	-28.8	-31.4	15.7	0.00e+00	0	42	0	365953024	17	4816
2026-01-11 23:14:58.62	49.96	24.85	-28.8	-31.4	15.7	0.00e+00	0	42	0	367001600	17	4814
2026-01-11 23:14:59.63	50.17	24.96	-28.8	-31.3	15.7	0.00e+00	0	41	0	369098752	17	4798
2026-01-11 23:15:00.64	50.39	25.07	-28.9	-31.5	15.6	0.00e+00	0	42	0	371195904	17	4872
2026-01-11 23:15:01.64	50.60	25.18	-28.8	-31.3	15.7	0.00e+00	0	42	0	373293056	17	4789
2026-01-11 23:15:02.65	50.82	25.28	-28.7	-31.1	15.9	0.00e+00	0	41	0	375390208	17	4708
2026-01-11 23:15:03.66	51.04	25.39	-28.7	-31.1	15.8	0.00e+00	0	42	0	376438784	17	4740
2026-01-11 23:15:04.66	51.26	25.50	-28.9	-31.4	15.7	0.00e+00	0	42	0	378535936	17	4836
2026-01-11 23:15:05.66	51.49	25.61	-29.0	-31.3	15.5	0.00e+00	0	42	0	380633088	18	4687
2026-01-11 23:15:06.67	51.71	25.72	-29.4	-32.2	15.0	0.00e+00	0	42	0	382730240	18	4974
2026-01-11 23:15:07.67	51.94	25.83	-29.3	-32.0	15.1	0.00e+00	0	42	0	384827392	18	4924
2026-01-11 23:15:08.67	52.16	25.93	-29.4	-32.2	15.0	0.00e+00	0	42	0	385875968	18	4966
2026-01-11 23:15:09.69	52.40	26.05	-29.4	-32.2	15.0	0.00e+00	0	42	0	387973120	18	4961
2026-01-11 23:15:10.69	52.63	26.15	-29.5	-32.4	14.9	0.00e+00	0	41	0	390070272	18	5024
2026-01-11 23:15:11.70	52.86	26.26	-29.5	-31.9	14.8	0.00e+00	0	42	0	392167424	19	4757
2026-01-11 23:15:12.70	53.09	26.37	-29.6	-32.3	14.6	3.05e-04	0	41	0	394264576	19	4886
2026-01-11 23:15:13.70	53.33	26.48	-29.8	-32.7	14.3	0.00e+00	0	42	0	395313152	19	5033
2026-01-11 23:15:14.71	53.56	26.59	-29.9	-32.7	14.0	1.50e-06	0	41	0	397410304	20	4922
2026-01-11 23:15:15.71	53.80	26.69	-30.0	-32.8	13.9	5.30e-06	0	42	0	399507456	20	4960
2026-01-11 23:15:16.72	54.04	26.80	-30.1	-33.1	13.7	1.50e-06	0	42	0	401604608	20	5067
2026-01-11 23:15:17.73	54.28	26.91	-30.1	-33.2	13.7	6.10e-06	0	42	0	403701760	20	5107
2026-01-11 23:15:18.73	54.53	27.02	-30.2	-33.4	13.5	6.80e-06	0	42	0	404750336	20	5208
2026-01-11 23:15:19.74	54.77	27.13	-30.3	-33.5	13.5	1.83e-05	0	42	0	406847488	20	5243
2026-01-11 23:15:20.74	55.02	27.23	-30.3	-33.6	13.4	1.44e-05	0	41	0	408944640	20	5270
2026-01-11 23:15:21.75	55.27	27.34	-30.6	-34.0	12.8	2.05e-05	0	42	0	411041792	21	5315
2026-01-11 23:15:22.76	55.52	27.45	-30.7	-34.1	12.8	7.85e-05	0	41	0	413138944	21	5353
2026-01-11 23:15:23.77	55.77	27.56	-30.8	-34.7	12.3	9.61e-05	0	41	0	414187520	21	5606
2026-01-11 23:15:24.77	56.02	27.66	-30.9	-34.8	12.3	2.33e-04	0	42	0	416284672	21	5638
2026-01-11 23:15:25.78	56.28	27.77	-30.9	-34.8	12.2	2.27e-04	0	42	0	418381824	21	5664
2026-01-11 23:15:26.78	56.53	27.88	-30.9	-34.7	12.3	1.68e-04	0	42	0	420478976	21	5614
2026-01-11 23:15:27.79	56.79	27.98	-30.8	-34.6	12.4	1.72e-04	0	42	0	422576128	21	5570
2026-01-11 23:15:28.79	57.05	28.09	-30.7	-34.3	12.6	1.59e-04	0	42	0	423624704	21	5429
2026-01-11 23:15:29.80	57.32	28.20	-30.7	-34.2	12.7	6.71e-05	0	42	0	425721856	21	5385
2026-01-11 23:15:30.80	57.58	28.30	-30.7	-34.2	12.7	6.10e-05	0	41	0	427819008	21	5394
2026-01-11 23:15:31.81	57.84	28.41	-30.7	-34.3	12.6	8.08e-05	0	42	0	429916160	21	5448
2026-01-11 23:15:32.81	58.11	28.51	-30.7	-34.4	12.5	1.08e-04	0	42	0	432013312	21	5472
2026-01-11 23:15:33.82	58.38	28.62	-31.0	-35.0	12.1	2.08e-04	0	42	0	433061888	21	5714
2026-01-11 23:15:34.82	58.65	28.72	-31.1	-35.0	11.9	3.24e-04	0	42	0	435159040	22	5600
2026-01-11 23:15:35.83	58.92	28.83	-31.3	-35.4	11.5	6.81e-04	0	42	0	437256192	22	5783
2026-01-11 23:15:36.84	59.20	28.93	-31.4	-35.8	11.2	1.20e-03	0	42	0	439353344	22	5969
2026-01-11 23:15:37.84	59.47	29.04	-31.5	-35.7	10.9	1.74e-03	0	42	0	441450496	23	5829
2026-01-11 23:15:38.85	59.75	29.14	-31.7	-36.2	10.6	2.58e-03	0	42	0	442499072	23	6055
2026-01-11 23:15:39.86	60.03	29.24	-31.8	-36.8	10.1	6.18e-03	0	41	0	444596224	23	6394
2026-01-11 23:15:40.86	60.31	29.35	-31.9	-37.0	9.9	7.92e-03	0	42	0	446693376	23	6494
2026-01-11 23:15:41.87	60.59	29.45	-31.9	-37.0	9.9	8.89e-03	0	42	0	448790528	23	6479
2026-01-11 23:15:42.88	60.88	29.55	-31.9	-36.8	10.2	7.71e-03	0	42	0	450887680	23	6383
2026-01-11 23:15:43.88	61.16	29.65	-31.8	-36.7	10.2	7.06e-03	0	42	0	451936256	23	6320
2026-01-11 23:15:44.89	61.45	29.75	-31.8	-36.5	10.3	5.32e-03	0	42	0	454033408	23	6232
2026-01-11 23:15:45.90	61.74	29.86	-31.8	-36.5	10.4	5.15e-03	0	42	0	456130560	23	6227
2026-01-11 23:15:46.90	62.03	29.96	-32.0	-37.3	9.7	7.65e-03	0	42	0	458227712	23	6648
2026-01-11 23:15:47.91	62.33	30.06	-32.0	-37.0	9.6	1.23e-02	0	42	0	460324864	24	6391
2026-01-11 23:15:48.92	62.62	30.16	-32.2	-37.6	9.1	1.85e-02	0	42	0	461373440	24	6712
2026-01-11 23:15:49.92	62.92	30.26	-32.2	-37.8	9.0	2.30e-02	0	41	0	463470592	24	6804
2026-01-11 23:15:50.92	63.22	30.35	-32.3	-38.0	8.8	2.52e-02	0	42	0	465567744	24	6959
2026-01-11 23:15:51.93	63.52	30.45	-32.3	-38.0	8.9	3.24e-02	0	42	0	467664896	24	6926
2026-01-11 23:15:52.94	63.82	30.55	-32.2	-37.6	9.2	2.37e-02	0	42	0	469762048	24	6688
2026-01-11 23:15:53.94	64.12	30.65	-32.1	-37.2	9.4	1.70e-02	0	42	0	470810624	24	6486
2026-01-11 23:15:54.95	64.43	30.74	-32.0	-37.0	9.6	1.37e-02	0	42	0	472907776	24	6367
2026-01-11 23:15:55.96	64.74	30.84	-32.0	-37.0	9.6	1.18e-02	0	42	0	475004928	24	6371
2026-01-11 23:15:56.97	65.05	30.94	-32.1	-37.5	9.2	1.47e-02	0	42	0	477102080	24	6664
2026-01-11 23:15:57.97	65.36	31.03	-32.1	-37.3	9.4	1.88e-02	0	42	0	479199232	24	6544
2026-01-11 23:15:58.98	65.68	31.13	-32.2	-37.5	9.2	1.79e-02	0	42	0	480247808	24	6673
2026-01-11 23:15:59.99	65.99	31.22	-32.2	-37.8	9.0	2.36e-02	0	42	0	482344960	24	6818
2026-01-11 23:16:00.99	66.31	31.31	-32.1	-37.4	9.3	2.31e-02	0	42	0	484442112	24	6592
2026-01-11 23:16:02.00	66.63	31.41	-32.1	-37.2	9.5	1.77e-02	0	42	0	486539264	24	6482
2026-01-11 23:16:03.00	66.95	31.50	-32.0	-37.0	9.7	1.22e-02	0	42	0	488636416	24	6391
2026-01-11 23:16:04.01	67.27	31.59	-31.8	-36.1	10.3	7.40e-03	0	42	0	489684992	24	5901
2026-01-11 23:16:05.02	67.59	31.68	-31.9	-36.3	10.2	5.05e-03	0	42	0	491782144	24	6029
2026-01-11 23:16:06.02	67.92	31.77	-32.1	-37.1	9.6	1.02e-02	0	42	0	493879296	24	6399
2026-01-11 23:16:07.03	68.25	31.86	-31.7	-35.6	10.7	5.25e-03	0	42	0	495976448	24	5685
2026-01-11 23:16:08.04	68.58	31.95	-31.4	-34.9	11.3	1.94e-03	0	42	0	498073600	24	5347
2026-01-11 23:16:09.04	68.91	32.03	-31.2	-34.6	11.8	5.85e-04	0	42	0	499122176	23	5342
2026-01-11 23:16:10.04	69.24	32.12	-31.2	-34.5	11.9	3.68e-04	0	42	0	501219328	23	5280
2026-01-11 23:16:11.04	69.57	32.20	-31.1	-34.2	12.1	3.32e-04	0	42	0	503316480	23	5162
2026-01-11 23:16:12.05	69.91	32.29	-31.0	-34.0	12.3	2.50e-04	0	42	0	505413632	23	5081
2026-01-11 23:16:13.05	70.25	32.37	-30.9	-33.8	12.3	1.75e-04	0	42	0	507510784	23	5022
2026-01-11 23:16:14.06	70.59	32.46	-30.9	-33.7	12.5	1.41e-04	0	42	0	508559360	23	4954
2026-01-11 23:16:15.07	70.93	32.54	-30.7	-33.6	12.9	8.62e-05	0	42	0	510656512	22	5030
2026-01-11 23:16:16.08	71.27	32.62	-30.5	-33.0	13.2	2.21e-05	0	42	0	512753664	22	4819
2026-01-11 23:16:17.08	71.62	32.70	-30.3	-33.2	13.5	1.37e-05	0	42	0	514850816	21	4980
2026-01-11 23:16:18.08	71.96	32.78	-30.4	-33.4	13.3	1.29e-05	0	42	0	516947968	21	5074
2026-01-11 23:16:19.09	72.31	32.86	-30.4	-33.4	13.3	1.90e-05	0	42	0	517996544	21	5075
2026-01-11 23:16:20.09	72.66	32.94	-30.5	-33.7	13.1	2.59e-05	0	42	0	520093696	21	5176
2026-01-11 23:16:21.09	73.01	33.01	-30.4	-33.4	13.3	2.44e-05	0	42	0	522190848	21	5077
2026-01-11 23:16:22.10	73.36	33.09	-30.5	-33.5	13.2	2.05e-05	0	42	0	524288000	21	5122
2026-01-11 23:16:23.11	73.72	33.17	-30.5	-33.7	13.2	2.82e-05	0	42	0	526385152	21	5186
2026-01-11 23:16:24.11	74.08	33.24	-30.6	-33.8	13.0	2.51e-05	0	42	0	527433728	21	5243
2026-01-11 23:16:25.12	74.43	33.31	-30.7	-34.2	12.7	3.66e-05	0	42	0	529530880	21	5389
2026-01-11 23:16:26.13	74.80	33.38	-30.8	-34.5	12.5	7.40e-05	0	42	0	531628032	21	5524
2026-01-11 23:16:27.14	75.16	33.45	-30.8	-34.5	12.6	9.38e-05	0	42	0	533725184	21	5515
2026-01-11 23:16:28.15	75.52	33.52	-30.9	-34.6	12.4	1.23e-04	0	42	0	534773760	21	5566
2026-01-11 23:16:29.15	75.89	33.59	-31.0	-34.7	12.1	1.99e-04	0	42	0	536870912	22	5465
2026-01-11 23:16:30.16	76.25	33.66	-31.2	-35.2	11.8	3.61e-04	0	42	0	538968064	22	5698
2026-01-11 23:16:31.17	76.62	33.73	-31.4	-35.7	11.4	8.17e-04	0	42	0	541065216	22	5951
2026-01-11 23:16:32.17	76.99	33.79	-31.6	-35.9	11.0	1.75e-03	0	42	0	543162368	23	5897
2026-01-11 23:16:33.17	77.36	33.86	-31.8	-36.7	10.3	3.18e-03	0	42	0	545259520	23	6328
2026-01-11 23:16:34.18	77.73	33.92	-31.9	-37.0	10.0	5.64e-03	0	42	0	546308096	23	6494
2026-01-11 23:16:35.19	78.10	33.98	-31.9	-37.1	9.9	6.65e-03	0	42	0	548405248	23	6543
2026-01-11 23:16:36.20	78.48	34.04	-31.9	-37.1	9.9	8.04e-03	0	42	0	550502400	23	6532
2026-01-11 23:16:37.20	78.85	34.10	-31.8	-36.7	10.2	7.01e-03	0	42	0	552599552	23	6333
2026-01-11 23:16:38.20	79.23	34.16	-31.8	-36.8	10.2	5.86e-03	0	42	0	554696704	23	6375
2026-01-11 23:16:39.21	79.61	34.21	-31.8	-36.8	10.2	5.85e-03	0	42	0	555745280	23	6341
2026-01-11 23:16:40.22	79.99	34.27	-31.9	-37.1	10.0	7.87e-03	0	42	0	557842432	23	6522
2026-01-11 23:16:41.21	80.37	34.32	-31.8	-36.7	10.3	4.61e-03	0	42	0	559939584	23	6282
2026-01-11 23:16:42.22	80.75	34.38	-31.9	-37.0	10.1	6.81e-03	0	42	0	562036736	23	6456
2026-01-11 23:16:43.23	81.14	34.43	-31.9	-36.8	10.2	7.05e-03	0	42	0	563085312	23	6387
2026-01-11 23:16:44.23	81.52	34.48	-31.9	-36.8	10.2	5.98e-03	0	42	0	565182464	23	6373
2026-01-11 23:16:45.24	81.91	34.53	-31.6	-35.9	10.8	5.36e-03	0	42	0	567279616	23	5915
2026-01-11 23:16:46.25	82.29	34.57	-31.4	-35.3	11.3	1.82e-03	0	42	0	569376768	23	5631
2026-01-11 23:16:47.25	82.68	34.62	-31.2	-34.5	11.9	4.77e-04	0	42	0	571473920	23	5302
2026-01-11 23:16:48.25	83.07	34.66	-31.1	-34.7	12.1	3.07e-04	0	42	0	572522496	22	5488
2026-01-11 23:16:49.26	83.46	34.71	-31.2	-35.0	11.9	3.87e-04	0	42	0	574619648	22	5620
2026-01-11 23:16:50.27	83.85	34.75	-31.3	-35.4	11.7	3.59e-04	0	42	0	576716800	22	5767
2026-01-11 23:16:51.28	84.25	34.79	-31.6	-35.8	10.9	1.50e-03	0	42	0	578813952	23	5878
2026-01-11 23:16:52.28	84.64	34.83	-31.7	-36.1	10.8	2.15e-03	0	42	0	580911104	23	5983
2026-01-11 23:16:53.28	85.03	34.87	-31.8	-36.6	10.3	5.43e-03	0	42	0	581959680	23	6272
2026-01-11 23:16:54.29	85.43	34.90	-31.6	-36.0	10.8	3.19e-03	0	42	0	584056832	23	5946
2026-01-11 23:16:55.30	85.82	34.94	-31.3	-35.1	11.5	1.31e-03	0	42	0	586153984	23	5539
2026-01-11 23:16:56.31	86.22	34.97	-31.4	-35.1	11.5	6.83e-04	0	42	0	588251136	23	5559
2026-01-11 23:16:57.31	86.62	35.00	-31.2	-34.7	11.8	7.93e-04	0	42	0	590348288	23	5368
2026-01-11 23:16:58.32	87.02	35.03	-31.3	-35.3	11.7	1.10e-03	0	42	0	591396864	22	5745
2026-01-11 23:16:59.33	87.42	35.06	-31.4	-35.7	11.5	8.02e-04	0	42	0	593494016	22	5906
2026-01-11 23:17:00.33	87.82	35.09	-31.3	-35.5	11.6	1.33e-03	0	42	0	595591168	22	5812
2026-01-11 23:17:01.34	88.22	35.12	-31.1	-34.9	12.0	5.79e-04	0	42	0	597688320	22	5540
2026-01-11 23:17:02.35	88.62	35.14	-31.0	-34.6	12.2	2.32e-04	0	42	0	599785472	22	5443
2026-01-11 23:17:03.35	89.02	35.16	-31.1	-34.8	12.1	2.43e-04	0	42	0	600834048	22	5515
2026-01-11 23:17:04.36	89.42	35.18	-31.3	-35.6	11.5	5.26e-04	0	42	0	602931200	22	5853
2026-01-11 23:17:05.37	89.83	35.20	-31.6	-35.8	11.0	1.49e-03	0	42	0	605028352	23	5857
2026-01-11 23:17:06.38	90.23	35.22	-31.7	-36.2	10.7	3.05e-03	0	42	0	607125504	23	6036
2026-01-11 23:17:07.39	90.64	35.24	-31.7	-36.1	10.7	3.86e-03	0	42	0	609222656	23	5998
2026-01-11 23:17:08.39	91.04	35.25	-31.4	-35.4	11.2	2.26e-03	0	42	0	610271232	23	5677
2026-01-11 23:17:09.40	91.45	35.27	-31.4	-35.3	11.4	9.80e-04	0	42	0	612368384	23	5614
2026-01-11 23:17:10.40	91.85	35.28	-31.3	-34.9	11.7	7.33e-04	0	42	0	614465536	23	5445
2026-01-11 23:17:11.41	92.25	35.29	-31.1	-34.4	12.0	6.48e-04	0	42	0	616562688	23	5244
2026-01-11 23:17:12.42	92.66	35.30	-30.9	-33.7	12.5	1.56e-04	0	42	0	618659840	23	4966
2026-01-11 23:17:13.42	93.06	35.31	-30.9	-33.6	12.5	1.04e-04	0	42	0	619708416	23	4952
2026-01-11 23:17:14.43	93.47	35.31	-30.8	-33.5	12.7	1.20e-04	0	42	0	621805568	23	4903
2026-01-11 23:17:15.44	93.88	35.32	-30.8	-34.0	12.6	6.17e-05	0	42	0	623902720	22	5181
2026-01-11 23:17:16.44	94.28	35.32	-31.0	-34.4	12.3	1.50e-04	0	42	0	625999872	22	5359
2026-01-11 23:17:17.45	94.69	35.32	-31.0	-34.5	12.3	1.81e-04	0	42	0	628097024	22	5399
2026-01-11 23:17:18.46	95.10	35.32	-31.0	-34.6	12.2	2.22e-04	0	42	0	630194176	22	5416
2026-01-11 23:17:19.47	95.51	35.32	-30.7	-33.8	12.7	9.46e-05	0	42	0	631242752	22	5094
2026-01-11 23:17:20.47	95.91	35.31	-30.5	-33.2	13.2	3.12e-05	0	42	0	633339904	22	4872
2026-01-11 23:17:21.48	96.32	35.31	-30.4	-32.8	13.4	1.75e-05	0	42	0	635437056	22	4738
2026-01-11 23:17:22.48	96.72	35.30	-30.6	-33.3	13.1	1.60e-05	0	42	0	637534208	22	4933
2026-01-11 23:17:23.48	97.12	35.29	-30.9	-34.1	12.6	6.25e-05	0	42	0	638582784	22	5232
2026-01-11 23:17:24.48	97.53	35.28	-31.3	-35.3	11.7	2.07e-04	0	42	0	640679936	22	5716
2026-01-11 23:17:25.49	97.93	35.27	-31.4	-35.8	11.4	9.88e-04	0	42	0	642777088	22	5959
2026-01-11 23:17:26.50	98.34	35.26	-31.2	-35.3	11.7	8.28e-04	0	42	0	644874240	22	5726
2026-01-11 23:17:27.50	98.74	35.24	-30.8	-33.9	12.7	2.17e-04	0	42	0	646971392	22	5133
2026-01-11 23:17:28.51	99.15	35.23	-30.3	-32.5	13.6	9.90e-06	0	42	0	648019968	22	4656
2026-01-11 23:17:29.51	99.55	35.21	-30.2	-32.7	13.8	3.80e-06	0	42	0	650117120	21	4824
2026-01-11 23:17:30.52	99.95	35.19	-30.4	-33.2	13.4	7.60e-06	0	42	0	652214272	21	4989
2026-01-11 23:17:31.52	100.35	35.17	-30.8	-34.4	12.7	2.97e-05	0	42	0	654311424	21	5448
2026-01-11 23:17:32.53	100.76	35.14	-31.2	-35.0	11.9	2.33e-04	0	42	0	656408576	22	5611
2026-01-11 23:17:33.54	101.16	35.12	-31.5	-35.7	11.0	1.09e-03	0	42	0	657457152	23	5821
2026-01-11 23:17:34.54	101.56	35.10	-31.8	-36.5	10.4	3.01e-03	0	42	0	659554304	23	6201
2026-01-11 23:17:35.55	101.96	35.07	-31.9	-37.0	10.1	6.98e-03	0	42	0	661651456	23	6472
2026-01-11 23:17:36.55	102.36	35.04	-31.9	-37.0	10.0	7.16e-03	0	42	0	663748608	23	6480
2026-01-11 23:17:37.55	102.75	35.01	-32.0	-36.9	9.8	7.97e-03	0	42	0	665845760	24	6294
2026-01-11 23:17:38.56	103.15	34.98	-32.0	-36.9	9.7	1.05e-02	0	42	0	666894336	24	6324
2026-01-11 23:17:39.56	103.55	34.95	-32.1	-37.4	9.5	1.26e-02	0	42	0	668991488	24	6562
2026-01-11 23:17:40.56	103.94	34.91	-31.9	-36.6	9.9	1.36e-02	0	42	0	671088640	24	6179
2026-01-11 23:17:41.55	104.33	34.88	-31.7	-35.7	10.6	5.63e-03	0	42	0	673185792	24	5708
2026-01-11 23:17:42.56	104.73	34.84	-31.5	-35.0	11.1	1.38e-03	0	42	0	675282944	24	5394
2026-01-11 23:17:43.57	105.12	34.80	-31.3	-35.0	11.6	6.67e-04	0	42	0	676331520	23	5497
2026-01-11 23:17:44.58	105.52	34.76	-31.4	-35.3	11.3	9.92e-04	0	42	0	678428672	23	5649
2026-01-11 23:17:45.58	105.91	34.72	-31.4	-35.3	11.3	1.01e-03	0	42	0	680525824	23	5646
2026-01-11 23:17:46.59	106.30	34.67	-31.3	-34.8	11.6	8.91e-04	0	42	0	682622976	23	5435
2026-01-11 23:17:47.60	106.69	34.63	-31.1	-34.3	11.9	4.25e-04	0	42	0	684720128	23	5217
2026-01-11 23:17:48.60	107.08	34.58	-31.0	-34.1	12.1	2.37e-04	0	42	0	685768704	23	5148
2026-01-11 23:17:49.60	107.46	34.54	-31.1	-34.4	12.0	3.56e-04	0	42	0	687865856	23	5250
2026-01-11 23:17:50.61	107.85	34.49	-31.3	-35.0	11.5	5.88e-04	0	42	0	689963008	23	5497
2026-01-11 23:17:51.61	108.24	34.44	-31.5	-35.7	11.0	1.30e-03	0	42	0	692060160	23	5829
2026-01-11 23:17:52.61	108.62	34.39	-31.4	-35.3	11.3	1.55e-03	0	42	0	694157312	23	5639
2026-01-11 23:17:53.62	109.00	34.33	-31.1	-34.3	11.9	6.41e-04	0	42	0	695205888	23	5198
2026-01-11 23:17:54.63	109.39	34.28	-30.7	-33.8	12.7	1.32e-04	0	42	0	697303040	22	5117
2026-01-11 23:17:55.64	109.77	34.22	-30.8	-34.1	12.5	1.01e-04	0	42	0	699400192	22	5224
2026-01-11 23:17:56.64	110.15	34.17	-30.9	-34.3	12.2	1.72e-04	0	42	0	701497344	22	5334
2026-01-11 23:17:57.65	110.53	34.11	-31.2	-35.3	11.6	3.34e-04	0	42	0	703594496	22	5767
2026-01-11 23:17:58.66	110.91	34.05	-31.3	-35.6	11.4	9.30e-04	0	42	0	704643072	22	5872
2026-01-11 23:17:59.66	111.28	33.99	-31.2	-35.4	11.6	8.32e-04	0	42	0	706740224	22	5781
2026-01-11 23:18:00.67	111.65	33.93	-31.1	-34.8	11.9	5.04e-04	0	42	0	708837376	22	5542
2026-01-11 23:18:01.67	112.03	33.87	-31.1	-34.8	11.9	3.09e-04	0	42	0	710934528	22	5536
2026-01-11 23:18:02.67	112.39	33.80	-31.1	-35.0	11.8	7.88e-04	0	42	0	713031680	22	5626
2026-01-11 23:18:03.68	112.77	33.74	-31.2	-35.0	11.8	7.68e-04	0	42	0	714080256	22	5632
2026-01-11 23:18:04.68	113.13	33.67	-30.9	-34.4	12.2	2.08e-04	0	42	0	716177408	22	5363
2026-01-11 23:18:05.69	113.50	33.60	-31.2	-35.4	11.5	7.43e-04	0	42	0	718274560	22	5779
2026-01-11 23:18:06.70	113.87	33.53	-31.4	-35.7	11.2	1.30e-03	0	42	0	720371712	22	5935
2026-01-11 23:18:07.70	114.23	33.47	-31.4	-35.3	11.2	1.66e-03	0	42	0	721420288	23	5666
2026-01-11 23:18:08.70	114.59	33.39	-31.7	-36.4	10.4	4.70e-03	0	42	0	723517440	23	6169
2026-01-11 23:18:09.71	114.95	33.32	-31.8	-36.8	10.1	8.33e-03	0	42	0	725614592	23	6401
2026-01-11 23:18:10.72	115.31	33.25	-32.0	-37.4	9.7	8.02e-03	0	42	0	727711744	23	6689
2026-01-11 23:18:11.72	115.67	33.18	-32.1	-37.3	9.3	1.51e-02	0	42	0	729808896	24	6549
2026-01-11 23:18:12.73	116.03	33.10	-31.9	-36.4	10.0	1.16e-02	0	42	0	731906048	24	6089
2026-01-11 23:18:13.73	116.38	33.03	-31.5	-35.2	10.9	3.90e-03	0	42	0	732954624	24	5500
2026-01-11 23:18:14.73	116.73	32.95	-31.2	-34.7	11.7	1.28e-03	0	42	0	735051776	23	5382
2026-01-11 23:18:15.74	117.08	32.87	-31.2	-34.8	11.5	8.01e-04	0	42	0	737148928	23	5445
2026-01-11 23:18:16.74	117.43	32.79	-31.3	-34.9	11.5	9.31e-04	0	42	0	739246080	23	5497
2026-01-11 23:18:17.74	117.78	32.71	-31.3	-35.0	11.3	1.12e-03	0	42	0	740294656	23	5508
2026-01-11 23:18:18.74	118.12	32.63	-31.5	-35.6	11.0	1.08e-03	0	42	0	742391808	23	5789
2026-01-11 23:18:19.75	118.47	32.55	-31.3	-35.2	11.2	1.66e-03	0	42	0	744488960	23	5616
2026-01-11 23:18:20.76	118.81	32.47	-31.1	-34.6	11.6	1.06e-03	0	42	0	746586112	23	5368
2026-01-11 23:18:21.76	119.15	32.38	-31.3	-34.9	11.4	8.03e-04	0	42	0	748683264	23	5502
2026-01-11 23:18:22.76	119.49	32.30	-31.4	-35.3	11.1	1.47e-03	0	42	0	749731840	23	5676
2026-01-11 23:18:23.76	119.82	32.22	-31.4	-35.4	11.1	1.87e-03	0	42	0	751828992	23	5712
2026-01-11 23:18:24.77	120.16	32.13	-31.3	-35.2	11.2	1.52e-03	0	42	0	753926144	23	5629
2026-01-11 23:18:25.78	120.50	32.04	-31.5	-35.7	10.9	1.92e-03	0	42	0	756023296	23	5836
2026-01-11 23:18:26.78	120.83	31.95	-31.7	-36.3	10.4	3.77e-03	0	42	0	758120448	23	6134
2026-01-11 23:18:27.79	121.16	31.87	-32.0	-37.5	9.5	7.54e-03	0	42	0	759169024	23	6790
2026-01-11 23:18:28.80	121.49	31.78	-32.3	-38.2	8.5	2.76e-02	0	42	0	761266176	24	7142
2026-01-11 23:18:29.80	121.81	31.69	-32.0	-37.1	9.4	2.78e-02	0	42	0	763363328	24	6461
2026-01-11 23:18:30.81	122.14	31.60	-31.6	-35.6	10.5	6.62e-03	0	42	0	765460480	24	5707
2026-01-11 23:18:31.82	122.47	31.50	-30.9	-33.8	12.2	9.23e-04	0	42	0	767557632	23	5038
2026-01-11 23:18:32.82	122.79	31.41	-30.7	-33.6	12.6	7.93e-05	0	42	0	768606208	22	5083
2026-01-11 23:18:33.82	123.10	31.32	-30.9	-34.3	12.2	1.09e-04	0	42	0	770703360	22	5327
2026-01-11 23:18:34.82	123.42	31.23	-31.2	-35.3	11.5	4.04e-04	0	42	0	772800512	22	5779
2026-01-11 23:18:35.83	123.74	31.13	-31.4	-36.0	11.0	1.55e-03	0	42	0	774897664	22	6106
2026-01-11 23:18:36.84	124.05	31.04	-31.2	-35.2	11.5	1.17e-03	0	42	0	776994816	22	5724
2026-01-11 23:18:37.84	124.37	30.94	-30.9	-34.3	12.2	4.32e-04	0	42	0	778043392	22	5343
2026-01-11 23:18:38.84	124.67	30.85	-30.9	-34.3	12.2	1.92e-04	0	42	0	780140544	22	5353
2026-01-11 23:18:39.84	124.98	30.75	-30.9	-34.4	12.1	2.59e-04	0	42	0	782237696	22	5380
2026-01-11 23:18:40.85	125.29	30.65	-31.4	-36.1	10.9	6.79e-04	0	42	0	784334848	22	6147
2026-01-11 23:18:41.86	125.60	30.56	-31.6	-36.3	10.3	3.53e-03	0	42	0	786432000	23	6162
2026-01-11 23:18:42.87	125.90	30.46	-31.7	-36.3	10.3	5.70e-03	0	42	0	787480576	23	6167
2026-01-11 23:18:43.87	126.20	30.36	-31.4	-35.5	10.9	3.42e-03	0	42	0	789577728	23	5793
2026-01-11 23:18:44.88	126.50	30.26	-31.2	-34.9	11.3	1.57e-03	0	42	0	791674880	23	5512
2026-01-11 23:18:45.89	126.80	30.16	-31.3	-35.2	11.1	1.14e-03	0	42	0	793772032	23	5645
2026-01-11 23:18:46.90	127.10	30.06	-31.5	-35.8	10.7	2.33e-03	0	42	0	795869184	23	5910
2026-01-11 23:18:47.90	127.39	29.96	-32.0	-37.2	9.3	6.87e-03	0	42	0	796917760	24	6534
2026-01-11 23:18:48.91	127.69	29.86	-32.4	-38.8	8.0	5.89e-02	0	42	0	799014912	24	7548
2026-01-11 23:18:49.91	127.98	29.76	-32.1	-37.4	9.1	4.09e-02	0	42	0	801112064	24	6646
2026-01-11 23:18:50.92	128.27	29.65	-31.3	-34.8	11.1	5.36e-03	0	42	0	803209216	24	5356
2026-01-11 23:18:51.93	128.56	29.55	-30.7	-33.8	12.5	5.38e-04	0	42	0	805306368	22	5131
2026-01-11 23:18:52.94	128.84	29.45	-30.4	-33.0	13.0	3.50e-05	0	42	0	806354944	22	4852
2026-01-11 23:18:53.94	129.13	29.35	-30.7	-33.8	12.4	6.48e-05	0	42	0	808452096	22	5157
2026-01-11 23:18:54.95	129.41	29.24	-31.2	-35.3	11.5	2.45e-04	0	42	0	810549248	22	5772
2026-01-11 23:18:55.95	129.69	29.14	-31.3	-35.6	11.2	1.47e-03	0	42	0	812646400	22	5936
2026-01-11 23:18:56.96	129.97	29.03	-31.1	-34.9	11.7	8.58e-04	0	42	0	814743552	22	5611
2026-01-11 23:18:57.97	130.25	28.93	-30.9	-34.3	12.1	3.91e-04	0	42	0	815792128	22	5359
2026-01-11 23:18:58.97	130.52	28.83	-31.0	-34.5	12.0	3.18e-04	0	42	0	817889280	22	5445
2026-01-11 23:18:59.97	130.79	28.72	-30.9	-34.4	12.1	2.75e-04	0	42	0	819986432	22	5387
2026-01-11 23:19:00.98	131.06	28.61	-31.2	-35.3	11.5	4.83e-04	0	42	0	822083584	22	5766
2026-01-11 23:19:01.98	131.33	28.51	-31.8	-37.0	9.8	2.51e-03	0	42	0	824180736	23	6540
2026-01-11 23:19:02.99	131.60	28.40	-32.0	-37.3	9.1	1.94e-02	0	42	0	825229312	24	6624
2026-01-11 23:19:04.00	131.87	28.30	-31.7	-36.1	10.0	1.23e-02	0	42	0	827326464	24	5951
2026-01-11 23:19:05.00	132.13	28.19	-31.4	-34.9	10.9	4.29e-03	0	42	0	829423616	24	5410
2026-01-11 23:19:06.01	132.40	28.08	-31.1	-34.6	11.6	9.34e-04	0	42	0	831520768	23	5378
2026-01-11 23:19:07.01	132.66	27.98	-31.2	-34.9	11.3	7.85e-04	0	42	0	833617920	23	5517
2026-01-11 23:19:08.01	132.91	27.87	-31.3	-35.1	11.2	1.10e-03	0	42	0	834666496	23	5592
2026-01-11 23:19:09.02	133.17	27.76	-30.8	-35.0	10.8	2.11e-03	0	42	0	836763648	23	5867
2026-01-11 23:19:10.02	133.43	27.66	-31.7	-36.7	9.9	6.91e-03	0	42	0	838860800	23	6415
2026-01-11 23:19:11.02	133.68	27.55	-31.2	-35.2	10.8	4.26e-03	0	42	0	840957952	23	5660
2026-01-11 23:19:12.03	133.93	27.44	-30.5	-33.6	12.3	6.21e-04	0	42	0	843055104	22	5088
2026-01-11 23:19:13.04	134.19	27.33	-30.1	-32.9	13.3	2.67e-05	0	42	0	844103680	21	4927
2026-01-11 23:19:14.05	134.44	27.22	-30.0	-32.6	13.5	8.30e-06	0	42	0	846200832	21	4827
2026-01-11 23:19:15.05	134.68	27.12	-30.3	-33.8	13.0	1.52e-05	0	42	0	848297984	20	5388
2026-01-11 23:19:16.06	134.93	27.01	-30.6	-34.2	12.3	1.03e-04	0	42	0	850395136	21	5474
2026-01-11 23:19:17.06	135.17	26.90	-31.1	-35.2	11.3	5.19e-04	0	42	0	852492288	22	5800
2026-01-11 23:19:18.07	135.42	26.79	-30.8	-34.4	11.9	9.01e-04	0	42	0	853540864	22	5418
2026-01-11 23:19:19.07	135.66	26.68	-30.2	-33.0	13.2	4.65e-05	0	42	0	855638016	21	4963
2026-01-11 23:19:20.08	135.90	26.57	-29.6	-31.9	14.2	6.10e-06	0	42	0	857735168	20	4690
2026-01-11 23:19:21.08	136.14	26.46	-29.4	-31.7	14.8	3.80e-06	0	42	0	859832320	19	4718
2026-01-11 23:19:22.09	136.37	26.35	-29.5	-32.1	14.5	0.00e+00	0	42	0	861929472	19	4847
2026-01-11 23:19:23.10	136.61	26.24	-29.7	-32.5	14.2	1.85e-04	0	42	0	862978048	19	5011
2026-01-11 23:19:24.10	136.84	26.14	-30.0	-33.0	13.6	9.10e-06	0	42	0	865075200	20	5060
2026-01-11 23:19:25.11	137.07	26.03	-30.1	-33.2	13.4	1.44e-05	0	42	0	867172352	20	5137
2026-01-11 23:19:26.12	137.30	25.92	-29.9	-32.6	13.7	6.10e-06	0	42	0	869269504	20	4928
2026-01-11 23:19:27.12	137.53	25.81	-29.6	-31.9	14.2	1.83e-05	0	42	0	871366656	20	4700
2026-01-11 23:19:28.13	137.76	25.70	-29.4	-31.3	14.6	0.00e+00	0	42	0	872415232	20	4477
2026-01-11 23:19:29.13	137.98	25.59	-29.5	-32.0	14.5	6.43e-04	0	42	0	874512384	19	4836
2026-01-11 23:19:30.14	138.21	25.48	-29.6	-32.4	14.3	9.37e-04	0	42	0	876609536	19	4958
2026-01-11 23:19:31.15	138.43	25.37	-29.4	-31.9	14.6	0.00e+00	0	42	0	878706688	19	4794
2026-01-11 23:19:32.15	138.65	25.26	-29.6	-32.5	14.2	7.00e-07	0	42	0	879755264	19	4998
2026-01-11 23:19:33.16	138.87	25.15	-29.7	-32.7	14.0	6.90e-04	0	42	0	881852416	19	5077
2026-01-11 23:19:34.17	139.09	25.04	-29.7	-32.7	14.0	4.50e-06	0	42	0	883949568	19	5092
2026-01-11 23:19:35.17	139.31	24.93	-29.4	-32.0	14.5	7.00e-07	0	42	0	886046720	19	4823
2026-01-11 23:19:36.17	139.52	24.82	-29.2	-31.3	14.9	4.14e-04	0	42	0	888143872	19	4605
2026-01-11 23:19:37.18	139.74	24.71	-28.9	-30.7	15.3	0.00e+00	0	42	0	890241024	19	4420
2026-01-11 23:19:38.18	139.95	24.61	-29.0	-31.4	15.2	1.17e-03	0	42	0	891289600	18	4724
2026-01-11 23:19:39.18	140.16	24.50	-29.2	-31.8	14.9	1.43e-03	0	42	0	893386752	18	4863
2026-01-11 23:19:40.19	140.37	24.39	-29.1	-31.7	14.9	0.00e+00	0	42	0	895483904	18	4843
2026-01-11 23:19:41.19	140.57	24.28	-29.3	-32.0	14.8	1.59e-03	0	42	0	897581056	18	4951
2026-01-11 23:19:42.20	140.78	24.17	-29.5	-32.3	14.3	5.30e-06	0	42	0	898629632	19	4919
2026-01-11 23:19:43.20	140.99	24.06	-29.3	-31.5	14.7	2.20e-06	0	42	0	900726784	19	4678
2026-01-11 23:19:44.21	141.19	23.95	-29.0	-31.3	15.2	1.63e-03	0	42	0	902823936	18	4705
2026-01-11 23:19:45.22	141.39	23.84	-28.7	-31.1	15.6	1.74e-03	0	42	0	904921088	17	4754
2026-01-11 23:19:46.22	141.59	23.73	-28.6	-30.9	15.7	0.00e+00	0	42	0	907018240	17	4687
2026-01-11 23:19:47.23	141.80	23.63	-28.6	-30.9	15.6	1.76e-03	0	42	0	908066816	17	4694
2026-01-11 23:19:48.24	141.99	23.52	-28.4	-30.5	15.9	1.84e-03	0	42	0	910163968	17	4562
2026-01-11 23:19:49.25	142.19	23.41	-28.4	-30.4	16.0	0.00e+00	0	42	0	912261120	17	4541
2026-01-11 23:19:50.25	142.39	23.30	-28.5	-30.7	15.8	1.84e-03	0	42	0	914358272	17	4625
2026-01-11 23:19:51.26	142.58	23.19	-28.7	-31.2	15.5	1.90e-03	0	42	0	916455424	17	4795
2026-01-11 23:19:52.26	142.77	23.09	-29.0	-31.3	15.1	0.00e+00	0	42	0	918552576	18	4724
2026-01-11 23:19:53.26	142.97	22.98	-28.7	-31.2	15.5	1.85e-03	0	42	0	919601152	17	4777
2026-01-11 23:19:54.27	143.16	22.87	-28.6	-30.9	15.7	1.98e-03	0	42	0	921698304	17	4679
2026-01-11 23:19:55.28	143.35	22.76	-28.4	-30.4	16.0	0.00e+00	0	42	0	923795456	17	4521
2026-01-11 23:19:56.28	143.53	22.65	-28.3	-30.6	16.1	0.00e+00	0	42	0	925892608	16	4713
2026-01-11 23:19:57.29	143.72	22.55	-28.2	-30.5	16.2	1.93e-03	0	42	0	926941184	16	4666
2026-01-11 23:19:58.30	143.91	22.44	-28.2	-30.4	16.2	5.34e-05	0	42	0	929038336	16	4663
2026-01-11 23:19:59.31	144.09	22.33	-28.4	-31.0	15.8	0.00e+00	0	42	0	931135488	16	4855
2026-01-11 23:20:00.31	144.27	22.23	-28.7	-31.1	15.5	1.74e-03	0	42	0	933232640	17	4753
2026-01-11 23:20:01.32	144.46	22.12	-28.9	-31.8	15.0	9.23e-05	0	42	0	935329792	17	5005
2026-01-11 23:20:02.32	144.64	22.01	-29.1	-31.8	14.8	7.00e-07	0	42	0	936378368	18	4881
2026-01-11 23:20:03.33	144.82	21.91	-29.2	-32.0	14.6	7.40e-05	0	42	0	938475520	18	4964
2026-01-11 23:20:04.33	144.99	21.80	-29.1	-31.6	14.9	4.50e-05	0	42	0	940572672	18	4830
2026-01-11 23:20:05.34	145.17	21.69	-28.8	-31.5	15.2	2.14e-03	0	42	0	942669824	17	4894
2026-01-11 23:20:06.35	145.35	21.59	-28.7	-31.1	15.4	0.00e+00	0	42	0	944766976	17	4777
2026-01-11 23:20:07.36	145.52	21.48	-28.7	-31.1	15.4	0.00e+00	0	42	0	946864128	17	4762
2026-01-11 23:20:08.36	145.70	21.38	-28.7	-31.2	15.4	2.16e-03	0	42	0	947912704	17	4780
2026-01-11 23:20:09.37	145.87	21.27	-28.6	-31.0	15.5	0.00e+00	0	42	0	950009856	17	4724
2026-01-11 23:20:10.38	146.04	21.17	-28.6	-30.9	15.5	2.20e-06	0	42	0	952107008	17	4712
2026-01-11 23:20:11.39	146.21	21.06	-28.8	-31.4	15.3	1.92e-03	0	42	0	954204160	17	4849
2026-01-11 23:20:12.39	146.38	20.96	-28.8	-31.5	15.1	0.00e+00	0	42	0	955252736	17	4905
2026-01-11 23:20:13.40	146.55	20.85	-28.8	-31.5	15.2	0.00e+00	0	42	0	957349888	17	4901
2026-01-11 23:20:14.40	146.71	20.75	-28.9	-31.6	15.1	0.00e+00	0	42	0	959447040	17	4939
2026-01-11 23:20:15.40	146.88	20.64	-28.8	-31.4	15.2	2.21e-03	0	42	0	961544192	17	4870
2026-01-11 23:20:16.41	147.05	20.54	-28.7	-31.1	15.4	0.00e+00	0	42	0	963641344	17	4773
2026-01-11 23:20:17.42	147.21	20.43	-28.7	-31.2	15.3	0.00e+00	0	42	0	964689920	17	4811
2026-01-11 23:20:18.42	147.37	20.33	-28.7	-31.2	15.3	0.00e+00	0	42	0	966787072	17	4814
2026-01-11 23:20:19.42	147.53	20.23	-28.9	-31.7	15.0	0.00e+00	0	42	0	968884224	17	4958
2026-01-11 23:20:20.43	147.69	20.13	-28.9	-31.8	14.9	1.50e-06	0	42	0	970981376	17	5004
2026-01-11 23:20:21.44	147.85	20.02	-29.2	-31.9	14.6	0.00e+00	0	42	0	973078528	18	4925
2026-01-11 23:20:22.45	148.01	19.92	-29.4	-32.5	14.2	1.50e-06	0	42	0	974127104	18	5156
2026-01-11 23:20:23.45	148.17	19.82	-29.4	-32.5	14.2	3.80e-06	0	42	0	976224256	18	5140
2026-01-11 23:20:24.46	148.32	19.71	-29.5	-32.7	14.1	1.50e-06	0	42	0	978321408	18	5215
2026-01-11 23:20:25.47	148.48	19.61	-29.5	-32.2	14.1	2.20e-06	0	42	0	980418560	19	4916
2026-01-11 23:20:26.47	148.63	19.51	-29.4	-32.4	14.3	7.60e-06	0	42	0	982515712	18	5097
2026-01-11 23:20:27.48	148.79	19.41	-29.2	-32.0	14.5	7.00e-07	0	42	0	983564288	18	4959
2026-01-11 23:20:28.48	148.94	19.31	-29.1	-31.7	14.7	0.00e+00	0	42	0	985661440	18	4874
2026-01-11 23:20:29.49	149.09	19.21	-29.3	-32.2	14.4	5.30e-06	0	42	0	987758592	18	5027
2026-01-11 23:20:30.50	149.24	19.10	-29.4	-32.4	14.2	1.50e-06	0	42	0	989855744	18	5122
2026-01-11 23:20:31.51	149.39	19.00	-29.5	-32.7	14.0	1.50e-06	0	42	0	991952896	18	5226
2026-01-11 23:20:32.52	149.54	18.90	-29.7	-32.8	13.6	6.10e-06	0	42	0	993001472	19	5159
2026-01-11 23:20:33.52	149.69	18.80	-29.9	-33.4	13.3	2.13e-05	0	42	0	995098624	19	5376
2026-01-11 23:20:34.53	149.83	18.70	-30.0	-33.2	13.0	2.89e-05	0	42	0	997195776	20	5198
2026-01-11 23:20:35.54	149.98	18.60	-30.1	-33.6	12.7	2.29e-03	0	42	0	999292928	20	5365
2026-01-11 23:20:36.54	150.12	18.50	-30.1	-33.6	12.7	8.92e-05	0	42	0	1001390080	20	5370
2026-01-11 23:20:37.55	150.27	18.40	-30.0	-33.1	13.0	5.11e-05	0	42	0	1002438656	20	5192
2026-01-11 23:20:38.55	150.41	18.30	-29.9	-33.4	13.2	2.28e-05	0	42	0	1004535808	19	5383
2026-01-11 23:20:39.55	150.55	18.21	-29.9	-33.4	13.2	2.14e-04	0	42	0	1006632960	19	5384
2026-01-11 23:20:40.54	150.69	18.11	-29.8	-33.1	13.4	1.67e-05	0	42	0	1008730112	19	5290
2026-01-11 23:20:41.54	150.83	18.01	-30.0	-33.7	13.0	2.67e-05	0	42	0	1010827264	19	5500
2026-01-11 23:20:42.55	150.97	17.91	-30.2	-33.8	12.5	3.04e-04	0	42	0	1011875840	20	5457
2026-01-11 23:20:43.56	151.11	17.81	-30.5	-34.3	11.8	2.54e-04	0	42	0	1013972992	21	5556
2026-01-11 23:20:44.56	151.25	17.72	-30.6	-34.6	11.5	6.42e-04	0	42	0	1016070144	21	5717
2026-01-11 23:20:45.57	151.38	17.62	-30.8	-35.1	11.2	1.44e-03	0	42	0	1018167296	21	5946
2026-01-11 23:20:46.58	151.52	17.52	-30.8	-35.1	11.1	4.40e-03	0	42	0	1020264448	21	5955
2026-01-11 23:20:47.59	151.66	17.42	-30.8	-35.1	11.1	1.56e-03	0	42	0	1021313024	21	5968
2026-01-11 23:20:48.59	151.79	17.33	-30.7	-34.8	11.3	1.36e-03	0	42	0	1023410176	21	5810
2026-01-11 23:20:49.58	151.92	17.23	-30.7	-35.0	11.2	4.03e-03	0	42	0	1025507328	21	5893
2026-01-11 23:20:50.59	152.05	17.13	-30.6	-34.7	11.4	4.49e-03	0	42	0	1027604480	21	5755
2026-01-11 23:20:51.60	152.19	17.04	-30.2	-34.1	12.2	4.61e-04	0	42	0	1029701632	20	5590
2026-01-11 23:20:52.60	152.32	16.94	-29.9	-33.2	12.8	2.59e-03	0	42	0	1030750208	20	5219
2026-01-11 23:20:53.61	152.45	16.85	-29.8	-33.2	13.2	2.31e-03	0	42	0	1032847360	19	5346
2026-01-11 23:20:54.62	152.58	16.75	-29.7	-33.0	13.3	1.67e-05	0	42	0	1034944512	19	5265
2026-01-11 23:20:55.63	152.71	16.65	-29.9	-33.4	13.1	2.27e-03	0	42	0	1037041664	19	5411
2026-01-11 23:20:56.63	152.83	16.56	-29.9	-33.4	13.0	2.61e-03	0	42	0	1039138816	19	5408
2026-01-11 23:20:57.64	152.96	16.46	-29.9	-33.7	12.8	2.52e-04	0	42	0	1040187392	19	5527
2026-01-11 23:20:58.65	153.09	16.37	-30.1	-33.6	12.5	8.62e-05	0	42	0	1042284544	20	5393
2026-01-11 23:20:59.65	153.21	16.28	-30.1	-33.8	12.3	2.76e-03	0	42	0	1044381696	20	5494
2026-01-11 23:21:00.66	153.34	16.18	-30.1	-33.8	12.3	4.74e-04	0	42	0	1046478848	20	5486
2026-01-11 23:21:01.67	153.46	16.09	-30.1	-33.8	12.3	2.81e-03	0	42	0	1048576000	20	5490
2026-01-11 23:21:02.67	153.58	15.99	-30.2	-34.0	12.1	2.81e-03	0	42	0	1049624576	20	5598
2026-01-11 23:21:03.68	153.71	15.90	-30.1	-34.0	12.1	6.48e-04	0	42	0	1051721728	20	5580
2026-01-11 23:21:04.69	153.83	15.81	-29.8	-33.0	12.8	2.61e-03	0	42	0	1053818880	20	5197
2026-01-11 23:21:05.70	153.95	15.71	-29.8	-33.4	12.9	2.74e-03	0	42	0	1055916032	19	5453
2026-01-11 23:21:06.70	154.07	15.62	-29.8	-33.3	13.0	2.65e-04	0	42	0	1058013184	19	5383
2026-01-11 23:21:07.70	154.19	15.53	-29.8	-33.4	13.0	2.65e-03	0	42	0	1059061760	19	5406
2026-01-11 23:21:08.71	154.31	15.44	-30.0	-33.8	12.7	5.34e-05	0	42	0	1061158912	19	5587
2026-01-11 23:21:09.72	154.43	15.35	-29.8	-32.9	12.9	3.00e-04	0	42	0	1063256064	20	5117
2026-01-11 23:21:10.73	154.54	15.25	-29.8	-33.2	13.0	2.50e-03	0	42	0	1065353216	19	5352
2026-01-11 23:21:11.73	154.66	15.16	-29.9	-33.5	12.8	2.28e-03	0	42	0	1067450368	19	5479
2026-01-11 23:21:12.74	154.78	15.07	-30.0	-33.7	12.7	6.33e-05	0	42	0	1068498944	19	5532
2026-01-11 23:21:13.75	154.89	14.98	-30.0	-33.4	12.6	2.33e-03	0	42	0	1070596096	20	5321
2026-01-11 23:21:14.75	155.01	14.89	-30.1	-33.6	12.4	2.70e-03	0	42	0	1072693248	20	5411
2026-01-11 23:21:15.76	155.12	14.80	-30.2	-33.9	12.2	1.65e-04	0	42	0	1074790400	20	5508
2026-01-11 23:21:16.76	155.23	14.71	-30.4	-34.7	11.7	2.93e-03	0	42	0	1076887552	20	5873
2026-01-11 23:21:17.77	155.35	14.62	-30.4	-34.0	11.8	3.40e-03	0	42	0	1077936128	21	5443
2026-01-11 23:21:18.77	155.46	14.53	-30.1	-33.3	12.3	2.14e-04	0	42	0	1080033280	21	5157
2026-01-11 23:21:19.78	155.57	14.44	-30.1	-33.7	12.4	1.62e-04	0	42	0	1082130432	20	5442
2026-01-11 23:21:20.79	155.68	14.35	-30.0	-33.5	12.5	2.37e-03	0	42	0	1084227584	20	5359
2026-01-11 23:21:21.80	155.79	14.26	-30.2	-34.1	12.1	4.03e-04	0	42	0	1086324736	20	5620
2026-01-11 23:21:22.81	155.90	14.17	-30.2	-34.0	12.1	2.84e-04	0	42	0	1087373312	20	5580
2026-01-11 23:21:23.81	156.01	14.08	-30.1	-33.7	12.4	1.30e-04	0	42	0	1089470464	20	5427
2026-01-11 23:21:24.82	156.12	13.99	-30.1	-33.6	12.5	3.53e-04	0	42	0	1091567616	20	5380
2026-01-11 23:21:25.82	156.23	13.91	-30.1	-33.7	12.3	1.69e-04	0	42	0	1093664768	20	5456
2026-01-11 23:21:26.83	156.33	13.82	-30.0	-33.5	12.5	2.10e-04	0	42	0	1095761920	20	5357
2026-01-11 23:21:27.84	156.44	13.73	-29.9	-33.2	12.6	2.14e-04	0	42	0	1096810496	20	5254
2026-01-11 23:21:28.84	156.54	13.64	-29.9	-33.7	12.8	5.56e-05	0	42	0	1098907648	19	5533
2026-01-11 23:21:29.85	156.65	13.55	-29.9	-33.7	12.8	6.48e-05	0	42	0	1101004800	19	5545
2026-01-11 23:21:30.86	156.75	13.47	-30.0	-33.4	12.5	8.46e-05	0	42	0	1103101952	20	5338
2026-01-11 23:21:31.87	156.86	13.38	-30.2	-34.2	12.0	2.30e-03	0	42	0	1105199104	20	5668
2026-01-11 23:21:32.88	156.96	13.29	-30.2	-34.2	11.9	5.72e-04	0	42	0	1106247680	20	5701
2026-01-11 23:21:33.88	157.07	13.21	-30.4	-34.6	11.6	5.10e-04	0	42	0	1108344832	20	5892
2026-01-11 23:21:34.89	157.17	13.12	-30.3	-34.5	11.7	7.21e-04	0	42	0	1110441984	20	5833
2026-01-11 23:21:35.90	157.27	13.03	-30.2	-34.2	11.9	5.07e-04	0	42	0	1112539136	20	5694
2026-01-11 23:21:36.90	157.37	12.95	-30.1	-33.9	12.1	3.15e-04	0	42	0	1114636288	20	5570
2026-01-11 23:21:37.91	157.47	12.86	-30.1	-33.7	12.3	2.45e-04	0	42	0	1115684864	20	5480
2026-01-11 23:21:38.92	157.57	12.78	-30.2	-34.0	12.0	2.90e-04	0	42	0	1117782016	20	5597
2026-01-11 23:21:39.93	157.67	12.69	-30.1	-33.9	12.1	2.72e-04	0	41	0	1119879168	20	5562
2026-01-11 23:21:40.93	157.77	12.61	-30.1	-33.8	12.2	2.61e-04	0	42	0	1121976320	20	5504
2026-01-11 23:21:41.94	157.87	12.52	-30.1	-33.8	12.1	2.33e-04	0	42	0	1124073472	20	5506
2026-01-11 23:21:42.94	157.97	12.44	-30.1	-33.9	12.1	2.33e-04	0	42	0	1125122048	20	5554
2026-01-11 23:21:43.95	158.06	12.35	-30.1	-33.8	12.1	2.97e-04	0	42	0	1127219200	20	5522
2026-01-11 23:21:44.95	158.16	12.27	-30.0	-33.5	12.4	1.91e-04	0	42	0	1129316352	20	5387
2026-01-11 23:21:45.96	158.26	12.19	-30.6	-34.3	11.7	1.60e-04	0	42	0	1131413504	20	5545
2026-01-11 23:21:46.97	158.35	12.10	-30.0	-33.4	11.6	1.29e-04	0	42	0	1133510656	20	5328
2026-01-11 23:21:47.98	158.45	12.02	-30.0	-33.6	12.3	1.26e-04	0	42	0	1134559232	20	5417
2026-01-11 23:21:48.99	158.54	11.94	-29.9	-33.3	12.2	1.27e-04	0	42	0	1136656384	20	5308
2026-01-11 23:21:49.98	158.64	11.85	-30.0	-33.9	12.4	1.07e-04	0	42	0	1138753536	19	5626
2026-01-11 23:21:50.99	158.73	11.77	-29.9	-33.3	12.5	1.19e-04	0	42	0	1140850688	20	5294
2026-01-11 23:21:52.00	158.82	11.69	-30.0	-33.9	12.5	1.18e-04	0	42	0	1142947840	19	5645
2026-01-11 23:21:53.00	158.92	11.61	-30.1	-33.7	12.2	1.65e-04	0	42	0	1143996416	20	5470
2026-01-11 23:21:54.01	159.01	11.52	-30.0	-33.4	12.4	2.04e-04	0	42	0	1146093568	20	5353
2026-01-11 23:21:55.01	159.10	11.44	-30.0	-33.5	12.3	1.55e-04	0	42	0	1148190720	20	5405
2026-01-11 23:21:56.02	159.19	11.36	-30.1	-33.9	12.0	2.35e-03	0	42	0	1150287872	20	5559
2026-01-11 23:21:57.03	159.28	11.28	-30.0	-33.6	12.2	2.65e-04	0	42	0	1152385024	20	5441
2026-01-11 23:21:58.03	159.37	11.20	-30.0	-33.5	12.3	1.84e-04	0	42	0	1153433600	20	5385
2026-01-11 23:21:59.03	159.46	11.12	-30.0	-33.5	12.2	2.58e-03	0	42	0	1155530752	20	5429
2026-01-11 23:22:00.04	159.55	11.04	-29.9	-33.4	12.3	1.82e-04	0	42	0	1157627904	20	5392
2026-01-11 23:22:01.05	159.64	10.96	-30.1	-34.0	11.9	2.27e-04	0	42	0	1159725056	20	5637
2026-01-11 23:22:02.05	159.73	10.88	-30.0	-33.8	12.0	3.88e-04	0	42	0	1161822208	20	5553
2026-01-11 23:22:03.06	159.81	10.80	-30.2	-34.3	11.6	5.25e-04	0	42	0	1162870784	20	5789
2026-01-11 23:22:04.07	159.90	10.72	-30.1	-34.1	11.8	5.03e-04	0	42	0	1164967936	20	5672
2026-01-11 23:22:05.08	159.99	10.64	-30.1	-33.8	11.9	4.13e-04	0	42	0	1167065088	20	5553
2026-01-11 23:22:06.08	160.08	10.56	-30.2	-34.2	11.7	5.57e-04	0	42	0	1169162240	20	5720
2026-01-11 23:22:07.09	160.16	10.48	-30.2	-34.3	11.6	2.69e-03	0	42	0	1171259392	20	5755
2026-01-11 23:22:08.09	160.25	10.40	-30.3	-34.6	11.4	7.67e-04	0	42	0	1172307968	20	5899
2026-01-11 23:22:09.10	160.33	10.32	-30.2	-34.4	11.5	8.15e-04	0	42	0	1174405120	20	5822
2026-01-11 23:22:10.10	160.42	10.24	-30.3	-34.4	11.5	3.35e-03	0	42	0	1176502272	20	5838
2026-01-11 23:22:11.10	160.50	10.16	-30.3	-34.6	11.4	8.35e-04	0	42	0	1178599424	20	5909
2026-01-11 23:22:12.11	160.58	10.08	-30.4	-35.0	11.1	1.64e-03	0	42	0	1180696576	20	6074
2026-01-11 23:22:13.12	160.67	10.01	-30.4	-34.8	11.2	3.81e-03	0	42	0	1181745152	20	6026
2026-01-11 23:22:14.12	160.75	9.93	-30.5	-35.2	10.9	4.30e-03	0	42	0	1183842304	20	6213
2026-01-11 23:22:15.13	160.83	9.85	-30.4	-35.1	10.9	2.14e-03	0	42	0	1185939456	20	6161
2026-01-11 23:22:16.14	160.92	9.77	-30.4	-35.1	10.9	4.33e-03	0	42	0	1188036608	20	6177
2026-01-11 23:22:17.14	161.00	9.69	-30.3	-34.9	11.1	4.48e-03	0	42	0	1190133760	20	6058
2026-01-11 23:22:18.15	161.08	9.62	-30.4	-35.3	10.8	1.88e-03	0	42	0	1191182336	20	6273
2026-01-11 23:22:19.15	161.16	9.54	-30.4	-34.9	11.0	4.19e-03	0	42	0	1193279488	20	6103
2026-01-11 23:22:20.16	161.24	9.46	-30.5	-35.4	10.7	5.10e-03	0	42	0	1195376640	20	6349
2026-01-11 23:22:21.17	161.32	9.39	-30.4	-35.0	10.9	2.50e-03	0	42	0	1197473792	20	6164
2026-01-11 23:22:22.18	161.40	9.31	-30.4	-35.0	10.9	4.92e-03	0	42	0	1199570944	20	6160
2026-01-11 23:22:23.18	161.48	9.23	-30.4	-35.1	10.9	4.96e-03	0	42	0	1200619520	20	6195
2026-01-11 23:22:24.19	161.56	9.16	-30.4	-35.1	10.9	2.04e-03	0	42	0	1202716672	20	6155
2026-01-11 23:22:25.19	161.64	9.08	-30.4	-35.1	10.9	5.18e-03	0	42	0	1204813824	20	6177
2026-01-11 23:22:26.19	161.71	9.01	-30.4	-34.9	11.0	5.29e-03	0	42	0	1206910976	20	6091
2026-01-11 23:22:27.20	161.79	8.93	-30.5	-35.2	10.8	2.39e-03	0	42	0	1209008128	20	6207
2026-01-11 23:22:28.20	161.87	8.86	-30.6	-35.1	10.5	5.55e-03	0	42	0	1210056704	21	6061
2026-01-11 23:22:29.21	161.95	8.78	-30.5	-35.0	10.5	4.20e-03	0	42	0	1212153856	21	6034
2026-01-11 23:22:30.21	162.02	8.71	-30.6	-35.0	10.5	3.86e-03	0	42	0	1214251008	21	6033
2026-01-11 23:22:31.21	162.10	8.63	-30.7	-35.5	10.1	8.00e-03	0	42	0	1216348160	21	6283
2026-01-11 23:22:32.22	162.18	8.56	-30.6	-35.3	10.3	5.39e-03	0	42	0	1218445312	21	6186
2026-01-11 23:22:33.23	162.25	8.48	-30.5	-35.1	10.5	5.30e-03	0	42	0	1219493888	21	6051
2026-01-11 23:22:34.23	162.33	8.41	-30.5	-35.0	10.5	6.76e-03	0	42	0	1221591040	21	6051
2026-01-11 23:22:35.24	162.40	8.33	-30.6	-35.1	10.4	7.51e-03	0	42	0	1223688192	21	6105
2026-01-11 23:22:36.25	162.48	8.26	-30.5	-35.1	10.4	4.69e-03	0	42	0	1225785344	21	6069
2026-01-11 23:22:37.26	162.55	8.19	-30.6	-35.2	10.3	7.75e-03	0	42	0	1227882496	21	6160
2026-01-11 23:22:38.26	162.62	8.11	-30.6	-35.3	10.3	8.25e-03	0	42	0	1228931072	21	6176
2026-01-11 23:22:39.26	162.70	8.04	-30.6	-35.4	10.1	7.12e-03	0	42	0	1231028224	21	6263
2026-01-11 23:22:40.27	162.77	7.97	-30.6	-35.5	10.1	6.02e-03	0	42	0	1233125376	21	6309
2026-01-11 23:22:41.27	162.84	7.89	-30.7	-35.6	9.9	1.05e-02	0	42	0	1235222528	21	6361
2026-01-11 23:22:42.28	162.91	7.82	-30.7	-35.7	9.9	1.08e-02	0	42	0	1237319680	21	6417
2026-01-11 23:22:43.29	162.99	7.75	-30.6	-35.5	10.0	8.48e-03	0	42	0	1238368256	21	6338
2026-01-11 23:22:44.30	163.06	7.68	-30.6	-35.3	10.1	1.03e-02	0	42	0	1240465408	21	6234
2026-01-11 23:22:45.30	163.13	7.60	-30.6	-35.4	10.1	7.65e-03	0	42	0	1242562560	21	6275
2026-01-11 23:22:46.31	163.20	7.53	-30.5	-35.2	10.2	6.23e-03	0	42	0	1244659712	21	6174
2026-01-11 23:22:47.31	163.27	7.46	-30.5	-35.3	10.1	8.10e-03	0	42	0	1246756864	21	6238
2026-01-11 23:22:48.31	163.34	7.39	-30.6	-35.4	10.0	6.22e-03	0	42	0	1247805440	21	6262
2026-01-11 23:22:49.32	163.41	7.32	-30.5	-35.3	10.1	8.01e-03	0	42	0	1249902592	21	6250
2026-01-11 23:22:50.32	163.48	7.25	-30.5	-35.3	10.1	8.96e-03	0	42	0	1251999744	21	6225
2026-01-11 23:22:51.33	163.55	7.17	-30.5	-35.4	9.9	8.15e-03	0	42	0	1254096896	21	6326
2026-01-11 23:22:52.33	163.62	7.10	-32.0	-41.3	5.7	2.30e-02	0	42	0	1255145472	23	10497
2026-01-11 23:22:53.34	163.69	7.03	-31.9	-46.0	3.8	1.49e+00	0	42	104	1256194048	25	18363

#Closed at: 2026-01-11 23:22:53
#Recorded file [1256 MB]: D:/data/31010_260112_021142.dat