passes_logs/2026/01/11/R2M6_AANII_01/R2M6_AANII_01__20260111_020053_NOAA_21_JPSS-2_rec.log

#Pass ID: 20260111_020053_NOAA 21 (JPSS-2)
#Satellite: NOAA 21 (JPSS-2)
#Configuration: NOAA 21
#almurnet v.1.7.20240730
#Start time: 2026-01-11 02:01:45

#Version: 2.2.20231116
#Station: R2M6_AANII_01
#Location: 30.233357 lon 59.946436 lat
#TLE: 1 54234U 22150A   26009.79679979  .00000100  00000+0  68070-4 0  9993
#TLE: 2 54234  98.7494 310.7596 0000833 322.2782  37.8335 14.19533646164071

#Time	Az	El	Level	Level2	SNR	BER	BlckErr	Temp	State	Recorded	gain1	gain2
2026-01-11 02:01:45.05	6.50	10.61	-33.2	-44.6	3.8	8.46e-01	0	42	0	0	26	13328
2026-01-11 02:01:46.05	6.40	10.68	-33.7	-45.3	3.8	1.49e+00	0	42	104	0	28	13698
2026-01-11 02:01:47.05	6.29	10.75	-33.7	-45.3	3.8	1.49e+00	0	42	104	0	28	13725
2026-01-11 02:01:48.05	6.19	10.83	-33.9	-46.1	3.8	1.49e+00	0	42	104	0	27	14739
2026-01-11 02:01:49.05	6.08	10.90	-33.9	-46.2	3.8	1.49e+00	0	42	104	0	27	14757
2026-01-11 02:01:50.06	5.98	10.98	-33.9	-46.2	3.8	1.49e+00	0	42	104	0	27	14800
2026-01-11 02:01:51.07	5.87	11.05	-33.9	-46.2	3.8	1.49e+00	0	42	104	0	27	14819
2026-01-11 02:01:52.06	5.77	11.12	-33.9	-46.2	3.8	1.49e+00	0	42	104	0	27	14790
2026-01-11 02:01:53.05	5.66	11.20	-34.0	-46.3	3.8	1.49e+00	0	42	104	0	27	14838
2026-01-11 02:01:54.05	5.55	11.27	-33.9	-46.2	3.8	1.49e+00	0	42	104	0	27	14816
2026-01-11 02:01:55.05	5.44	11.35	-33.9	-46.3	3.8	1.49e+00	0	42	104	0	27	14863
2026-01-11 02:01:56.04	5.34	11.42	-33.9	-46.2	3.8	1.49e+00	0	42	104	0	27	14813
2026-01-11 02:01:57.05	5.23	11.50	-33.9	-46.2	3.8	1.49e+00	0	42	104	0	27	14804
2026-01-11 02:01:58.04	5.12	11.57	-33.9	-46.2	3.8	1.49e+00	0	42	104	0	27	14828
2026-01-11 02:01:59.05	5.01	11.64	-33.9	-46.2	3.8	1.49e+00	0	42	104	0	27	14823
2026-01-11 02:02:00.05	4.90	11.72	-33.9	-46.2	3.8	1.49e+00	0	42	104	0	27	14843
2026-01-11 02:02:01.05	4.78	11.79	-33.9	-46.2	3.8	1.49e+00	0	42	104	0	27	14786
2026-01-11 02:02:02.05	4.67	11.87	-33.9	-46.2	3.8	1.49e+00	0	42	104	0	27	14816
2026-01-11 02:02:03.04	4.56	11.94	-33.9	-46.2	3.8	1.49e+00	0	42	104	0	27	14796
2026-01-11 02:02:04.04	4.45	12.02	-33.9	-46.2	3.8	1.49e+00	0	42	104	0	27	14823
2026-01-11 02:02:05.04	4.33	12.10	-33.9	-46.2	3.8	1.49e+00	0	42	104	0	27	14797
2026-01-11 02:02:06.04	4.22	12.17	-33.9	-46.2	3.8	1.49e+00	0	42	104	0	27	14809
2026-01-11 02:02:07.04	4.10	12.25	-34.0	-46.3	3.8	1.49e+00	0	42	104	0	27	14879
2026-01-11 02:02:08.05	3.99	12.32	-33.9	-45.7	3.8	1.49e+00	0	42	104	0	28	13956
2026-01-11 02:02:09.06	3.87	12.40	-33.9	-45.7	3.8	1.49e+00	0	42	104	0	28	13978
2026-01-11 02:02:10.05	3.75	12.48	-33.9	-45.7	3.8	1.49e+00	0	42	104	0	28	13974
2026-01-11 02:02:11.06	3.64	12.55	-33.9	-45.7	3.8	1.49e+00	0	42	104	0	28	13980
2026-01-11 02:02:12.05	3.52	12.63	-34.0	-46.3	3.8	1.49e+00	0	42	104	0	27	14906
2026-01-11 02:02:13.06	3.40	12.71	-33.9	-46.2	3.8	1.49e+00	0	42	104	0	27	14813
2026-01-11 02:02:14.06	3.28	12.78	-33.9	-46.2	3.8	1.49e+00	0	42	104	0	27	14839
2026-01-11 02:02:15.06	3.16	12.86	-33.9	-46.2	3.8	1.49e+00	0	42	104	0	27	14795
2026-01-11 02:02:16.07	3.04	12.94	-33.9	-46.1	3.8	1.49e+00	0	42	104	0	27	14697
2026-01-11 02:02:17.06	2.92	13.01	-33.8	-46.0	3.8	1.49e+00	0	42	104	0	27	14627
2026-01-11 02:02:18.07	2.79	13.09	-33.8	-46.0	3.8	1.49e+00	0	42	104	0	27	14585
2026-01-11 02:02:19.07	2.67	13.17	-33.8	-46.0	3.8	1.49e+00	0	42	104	0	27	14598
2026-01-11 02:02:20.07	2.55	13.25	-33.7	-45.8	3.8	1.49e+00	0	42	104	0	27	14496
2026-01-11 02:02:21.07	2.42	13.32	-33.7	-45.7	3.8	1.49e+00	0	42	104	0	27	14407
2026-01-11 02:02:22.08	2.30	13.40	-33.5	-45.3	3.8	1.49e+00	0	42	104	0	27	13858
2026-01-11 02:02:23.09	2.17	13.48	-33.4	-44.9	3.8	1.49e+00	0	42	104	0	26	13538
2026-01-11 02:02:24.09	2.05	13.56	-33.3	-45.5	3.8	1.49e+00	0	42	104	0	26	14534
2026-01-11 02:02:25.09	1.92	13.64	-33.3	-45.4	3.8	1.49e+00	0	42	104	0	26	14400
2026-01-11 02:02:26.09	1.79	13.71	-33.3	-45.1	3.8	1.49e+00	0	42	104	0	26	14059
2026-01-11 02:02:27.08	1.66	13.79	-33.3	-44.7	3.8	1.49e+00	0	42	104	0	26	13456
2026-01-11 02:02:28.08	1.54	13.87	-33.2	-44.5	3.8	1.49e+00	0	42	104	0	26	13189
2026-01-11 02:02:29.09	1.40	13.95	-33.2	-44.3	3.8	1.49e+00	0	42	104	0	26	12892
2026-01-11 02:02:30.09	1.27	14.03	-33.2	-44.6	3.8	1.49e+00	0	42	104	0	26	13318
2026-01-11 02:02:31.10	1.14	14.11	-33.3	-45.1	3.8	1.49e+00	0	42	104	0	26	14066
2026-01-11 02:02:32.10	1.01	14.18	-33.3	-45.5	3.8	1.49e+00	0	42	104	0	26	14588
2026-01-11 02:02:33.10	0.88	14.26	-33.3	-44.9	3.8	1.49e+00	0	42	104	0	26	13797
2026-01-11 02:02:34.10	0.75	14.34	-33.0	-42.7	3.9	1.49e+00	0	42	104	0	26	11007
2026-01-11 02:02:35.10	0.61	14.42	-32.6	-40.6	4.0	1.47e+00	0	42	104	0	25	9073
2026-01-11 02:02:36.10	0.48	14.50	-31.9	-37.4	6.8	2.14e-01	0	42	0	0	23	6823
2026-01-11 02:02:37.10	0.34	14.58	-31.2	-34.9	8.6	6.22e-02	0	42	0	3145728	23	5514
2026-01-11 02:02:38.11	0.20	14.66	-31.0	-34.8	9.0	3.01e-02	0	42	0	6291456	22	5578
2026-01-11 02:02:39.11	0.07	14.74	-30.4	-33.5	10.2	7.42e-03	0	42	0	9437184	21	5168
2026-01-11 02:02:40.11	359.93	14.82	-30.3	-33.8	10.3	5.43e-03	0	42	0	12582912	20	5400
2026-01-11 02:02:41.12	359.79	14.90	-30.5	-33.8	10.0	7.39e-03	0	42	0	15728640	21	5266
2026-01-11 02:02:42.11	359.65	14.98	-30.5	-34.3	10.1	6.11e-03	0	42	0	18874368	20	5598
2026-01-11 02:02:43.12	359.51	15.06	-30.6	-34.1	9.8	9.78e-03	0	42	0	22020096	21	5407
2026-01-11 02:02:44.11	359.37	15.14	-30.4	-33.7	10.2	7.67e-03	0	42	0	25165824	21	5218
2026-01-11 02:02:45.12	359.23	15.22	-30.4	-34.1	10.3	5.73e-03	0	42	0	28311552	20	5487
2026-01-11 02:02:46.12	359.09	15.30	-30.5	-34.3	10.1	5.18e-03	0	42	0	31457280	20	5573
2026-01-11 02:02:47.12	358.94	15.38	-30.8	-34.8	9.3	1.44e-02	0	42	0	34603008	21	5708
2026-01-11 02:02:48.12	358.80	15.46	-30.4	-34.1	10.3	7.42e-03	0	42	0	37748736	20	5487
2026-01-11 02:02:49.11	358.66	15.54	-29.9	-32.7	11.2	2.29e-03	0	42	0	40894464	20	4968
2026-01-11 02:02:50.11	358.51	15.62	-29.3	-31.6	12.3	7.08e-04	0	42	0	44040192	19	4685
2026-01-11 02:02:51.12	358.37	15.70	-28.8	-30.7	13.2	4.11e-05	0	42	0	47185920	18	4511
2026-01-11 02:02:52.12	358.22	15.78	-28.4	-30.2	13.8	7.60e-06	0	42	0	49283072	17	4443
2026-01-11 02:02:53.12	358.07	15.86	-28.0	-29.8	14.3	5.76e-04	0	42	0	52428800	16	4451
2026-01-11 02:02:54.12	357.92	15.94	-27.8	-30.0	14.4	6.69e-04	0	42	0	55574528	15	4608
2026-01-11 02:02:55.12	357.77	16.02	-28.3	-30.5	13.9	6.10e-06	0	42	0	58720256	16	4646
2026-01-11 02:02:56.13	357.62	16.10	-27.9	-30.1	14.2	7.86e-04	0	42	0	61865984	15	4645
2026-01-11 02:02:57.13	357.47	16.18	-27.8	-30.0	14.3	2.20e-06	0	42	0	65011712	15	4632
2026-01-11 02:02:58.13	357.32	16.26	-27.9	-30.1	14.3	7.00e-07	0	42	0	68157440	15	4668
2026-01-11 02:02:59.13	357.17	16.34	-27.9	-30.2	14.2	6.32e-04	0	42	0	71303168	15	4698
2026-01-11 02:03:00.14	357.01	16.42	-28.3	-30.5	13.9	6.26e-04	0	42	0	74448896	16	4647
2026-01-11 02:03:01.13	356.86	16.50	-28.1	-30.1	14.2	7.00e-07	0	42	0	77594624	16	4534
2026-01-11 02:03:02.12	356.70	16.58	-28.2	-30.3	14.1	1.50e-06	0	42	0	80740352	16	4574
2026-01-11 02:03:03.12	356.55	16.66	-28.2	-30.4	14.0	7.76e-04	0	42	0	83886080	16	4610
2026-01-11 02:03:04.13	356.39	16.75	-27.8	-29.4	14.6	7.00e-07	0	42	0	87031808	16	4310
2026-01-11 02:03:05.13	356.23	16.83	-27.4	-29.5	15.0	9.54e-04	0	42	0	90177536	14	4581
2026-01-11 02:03:06.13	356.07	16.91	-27.4	-28.9	15.0	9.12e-04	0	42	0	93323264	15	4305
2026-01-11 02:03:07.13	355.91	16.99	-27.4	-29.5	14.9	0.00e+00	0	42	0	96468992	14	4583
2026-01-11 02:03:08.14	355.75	17.07	-27.4	-29.4	15.0	8.24e-04	0	42	0	99614720	14	4554
2026-01-11 02:03:09.15	355.59	17.15	-27.4	-29.4	15.0	1.03e-03	0	42	0	102760448	14	4562
2026-01-11 02:03:10.14	355.43	17.23	-27.4	-29.4	15.0	0.00e+00	0	42	0	105906176	14	4564
2026-01-11 02:03:11.15	355.26	17.32	-27.1	-28.8	14.4	1.41e-03	0	42	0	109051904	15	4375
2026-01-11 02:03:12.15	355.10	17.40	-27.4	-29.5	15.0	1.05e-03	0	42	0	112197632	14	4579
2026-01-11 02:03:13.16	354.93	17.48	-27.5	-29.6	14.9	3.25e-03	0	42	0	115343360	14	4623
2026-01-11 02:03:14.16	354.77	17.56	-27.5	-29.7	14.9	9.95e-04	0	42	0	118489088	14	4633
2026-01-11 02:03:15.16	354.60	17.64	-27.7	-29.6	14.6	1.17e-03	0	42	0	121634816	15	4502
2026-01-11 02:03:16.16	354.43	17.72	-27.6	-29.3	14.8	0.00e+00	0	42	0	124780544	15	4412
2026-01-11 02:03:17.16	354.26	17.81	-27.5	-29.2	14.8	2.97e-03	0	42	0	127926272	15	4383
2026-01-11 02:03:18.16	354.10	17.89	-27.6	-29.5	14.7	3.83e-04	0	42	0	131072000	15	4451
2026-01-11 02:03:19.15	353.93	17.97	-27.4	-28.9	15.0	0.00e+00	0	42	0	134217728	15	4307
2026-01-11 02:03:20.15	353.76	18.05	-27.3	-29.2	15.1	7.11e-04	0	42	0	137363456	14	4491
2026-01-11 02:03:21.16	353.58	18.13	-27.4	-29.4	15.1	6.36e-04	0	42	0	140509184	14	4537
2026-01-11 02:03:22.16	353.41	18.21	-27.4	-29.5	15.0	3.32e-03	0	42	0	143654912	14	4581
2026-01-11 02:03:23.16	353.23	18.29	-27.6	-29.3	14.8	3.09e-03	0	42	0	146800640	15	4418
2026-01-11 02:03:24.16	353.06	18.38	-27.7	-29.7	14.6	2.77e-04	0	42	0	149946368	15	4534
2026-01-11 02:03:25.16	352.88	18.46	-27.5	-29.7	14.9	0.00e+00	0	42	0	153092096	14	4630
2026-01-11 02:03:26.15	352.71	18.54	-27.3	-29.2	15.2	6.37e-04	0	42	0	156237824	14	4503
2026-01-11 02:03:27.15	352.53	18.62	-27.7	-29.6	14.7	1.41e-04	0	42	0	159383552	15	4488
2026-01-11 02:03:28.16	352.35	18.70	-27.4	-28.9	15.1	1.97e-03	0	42	0	162529280	15	4286
2026-01-11 02:03:29.16	352.17	18.78	-27.3	-29.3	15.1	1.65e-03	0	42	0	165675008	14	4524
2026-01-11 02:03:30.16	351.99	18.86	-27.3	-29.3	15.1	5.83e-04	0	42	0	168820736	14	4518
2026-01-11 02:03:31.16	351.81	18.95	-27.1	-28.9	15.4	0.00e+00	0	42	0	171966464	14	4389
2026-01-11 02:03:32.16	351.62	19.03	-27.1	-28.8	15.4	2.21e-03	0	42	0	175112192	14	4384
2026-01-11 02:03:33.16	351.44	19.11	-27.2	-28.9	15.4	8.30e-06	0	42	0	178257920	14	4410
2026-01-11 02:03:34.16	351.25	19.19	-27.4	-29.5	15.0	2.70e-03	0	42	0	181403648	14	4577
2026-01-11 02:03:35.16	351.07	19.27	-27.2	-29.0	15.3	2.74e-03	0	42	0	184549376	14	4433
2026-01-11 02:03:36.16	350.88	19.35	-27.2	-29.0	15.3	2.47e-04	0	42	0	187695104	14	4417
2026-01-11 02:03:37.16	350.69	19.43	-27.2	-29.0	15.3	3.19e-03	0	42	0	190840832	14	4438
2026-01-11 02:03:38.17	350.50	19.51	-27.3	-29.1	15.2	3.59e-03	0	42	0	193986560	14	4474
2026-01-11 02:03:39.17	350.31	19.60	-27.2	-28.9	15.4	1.38e-04	0	42	0	197132288	14	4414
2026-01-11 02:03:40.16	350.12	19.68	-27.3	-29.2	15.3	3.80e-03	0	42	0	200278016	14	4471
2026-01-11 02:03:41.16	349.93	19.76	-27.5	-29.1	15.0	4.02e-03	0	42	0	203423744	15	4354
2026-01-11 02:03:42.16	349.74	19.84	-27.2	-28.4	15.4	2.91e-04	0	42	0	206569472	15	4159
2026-01-11 02:03:43.17	349.54	19.92	-27.0	-28.5	15.6	3.59e-03	0	42	0	209715200	14	4290
2026-01-11 02:03:44.18	349.35	20.00	-26.9	-28.4	15.7	3.49e-03	0	42	0	212860928	14	4261
2026-01-11 02:03:45.19	349.15	20.08	-26.9	-28.9	15.6	3.04e-04	0	42	0	216006656	13	4523
2026-01-11 02:03:46.19	348.95	20.16	-27.0	-28.5	15.6	2.96e-03	0	42	0	219152384	14	4292
2026-01-11 02:03:47.19	348.75	20.24	-26.9	-28.8	15.7	2.54e-03	0	42	0	222298112	13	4484
2026-01-11 02:03:48.19	348.55	20.32	-27.0	-28.6	15.6	2.18e-04	0	42	0	225443840	14	4304
2026-01-11 02:03:49.18	348.35	20.40	-27.0	-28.4	15.7	1.37e-03	0	42	0	228589568	14	4270
2026-01-11 02:03:50.18	348.15	20.48	-26.9	-28.8	15.7	8.41e-04	0	42	0	230686720	13	4478
2026-01-11 02:03:51.18	347.95	20.56	-26.8	-28.7	15.8	0.00e+00	0	42	0	233832448	13	4455
2026-01-11 02:03:52.18	347.75	20.64	-26.7	-28.5	15.9	2.25e-04	0	42	0	236978176	13	4391
2026-01-11 02:03:53.19	347.54	20.72	-26.7	-28.3	16.0	1.36e-04	0	42	0	240123904	13	4355
2026-01-11 02:03:54.19	347.33	20.80	-26.7	-28.3	16.0	0.00e+00	0	42	0	243269632	13	4343
2026-01-11 02:03:55.18	347.13	20.88	-26.7	-28.3	16.0	0.00e+00	0	42	0	246415360	13	4354
2026-01-11 02:03:56.18	346.92	20.96	-26.7	-28.4	15.9	0.00e+00	0	42	0	249561088	13	4370
2026-01-11 02:03:57.19	346.71	21.04	-26.9	-28.7	15.8	0.00e+00	0	42	0	252706816	13	4460
2026-01-11 02:03:58.19	346.50	21.12	-26.6	-28.2	16.1	2.04e-03	0	42	0	255852544	13	4311
2026-01-11 02:03:59.19	346.29	21.19	-26.7	-28.4	16.0	3.02e-03	0	42	0	258998272	13	4371
2026-01-11 02:04:00.19	346.08	21.27	-26.9	-28.8	15.7	0.00e+00	0	42	0	262144000	13	4478
2026-01-11 02:04:01.20	345.86	21.35	-26.7	-28.3	16.0	0.00e+00	0	42	0	265289728	13	4346
2026-01-11 02:04:02.20	345.65	21.43	-26.7	-28.4	16.0	0.00e+00	0	42	0	268435456	13	4366
2026-01-11 02:04:03.20	345.43	21.51	-26.7	-28.4	16.0	0.00e+00	0	42	0	271581184	13	4373
2026-01-11 02:04:04.20	345.21	21.58	-26.7	-28.4	16.0	3.56e-03	0	42	0	274726912	13	4355
2026-01-11 02:04:05.19	345.00	21.66	-26.5	-28.0	16.2	0.00e+00	0	42	0	277872640	13	4266
2026-01-11 02:04:06.19	344.78	21.74	-26.4	-27.7	16.3	0.00e+00	0	42	0	281018368	13	4181
2026-01-11 02:04:07.18	344.56	21.81	-26.4	-28.2	16.3	0.00e+00	0	42	0	284164096	12	4428
2026-01-11 02:04:08.18	344.34	21.89	-26.5	-28.4	16.2	3.94e-03	0	42	0	287309824	12	4483
2026-01-11 02:04:09.17	344.12	21.97	-26.6	-28.2	16.0	0.00e+00	0	42	0	290455552	13	4319
2026-01-11 02:04:10.17	343.90	22.04	-26.7	-28.4	16.0	0.00e+00	0	42	0	293601280	13	4372
2026-01-11 02:04:11.18	343.67	22.12	-26.7	-28.3	16.1	0.00e+00	0	42	0	296747008	13	4335
2026-01-11 02:04:12.18	343.45	22.20	-26.7	-28.3	16.0	0.00e+00	0	42	0	299892736	13	4354
2026-01-11 02:04:13.17	343.22	22.27	-26.9	-28.8	15.8	3.82e-03	0	42	0	303038464	13	4470
2026-01-11 02:04:14.17	342.99	22.35	-26.6	-28.2	16.1	4.43e-03	0	42	0	306184192	13	4313
2026-01-11 02:04:15.17	342.76	22.42	-26.5	-27.9	16.3	0.00e+00	0	42	0	309329920	13	4218
2026-01-11 02:04:16.17	342.53	22.50	-26.5	-27.9	16.2	0.00e+00	0	42	0	312475648	13	4235
2026-01-11 02:04:17.17	342.30	22.57	-26.6	-28.1	16.2	0.00e+00	0	42	0	315621376	13	4284
2026-01-11 02:04:18.17	342.07	22.64	-26.5	-28.0	16.2	0.00e+00	0	42	0	318767104	13	4251
2026-01-11 02:04:19.16	341.84	22.72	-26.6	-28.2	16.1	3.57e-03	0	42	0	321912832	13	4321
2026-01-11 02:04:20.16	341.61	22.79	-26.8	-28.7	15.8	0.00e+00	0	42	0	325058560	13	4448
2026-01-11 02:04:21.17	341.37	22.87	-26.7	-28.3	16.0	0.00e+00	0	42	0	328204288	13	4344
2026-01-11 02:04:22.17	341.13	22.94	-26.7	-28.3	16.0	0.00e+00	0	42	0	331350016	13	4340
2026-01-11 02:04:23.17	340.89	23.01	-26.7	-28.3	16.1	0.00e+00	0	42	0	334495744	13	4335
2026-01-11 02:04:24.17	340.65	23.08	-26.7	-28.5	15.9	0.00e+00	0	42	0	337641472	13	4390
2026-01-11 02:04:25.17	340.41	23.16	-26.8	-28.7	15.8	0.00e+00	0	42	0	340787200	13	4453
2026-01-11 02:04:26.17	340.17	23.23	-26.9	-28.7	15.8	0.00e+00	0	42	0	343932928	13	4457
2026-01-11 02:04:27.18	339.93	23.30	-26.7	-28.4	16.0	0.00e+00	0	42	0	347078656	13	4377
2026-01-11 02:04:28.19	339.68	23.37	-26.8	-28.5	15.9	0.00e+00	0	42	0	350224384	13	4407
2026-01-11 02:04:29.19	339.44	23.44	-26.7	-28.4	16.0	0.00e+00	0	42	0	353370112	13	4368
2026-01-11 02:04:30.19	339.19	23.51	-26.7	-28.4	16.0	0.00e+00	0	42	0	356515840	13	4362
2026-01-11 02:04:31.20	338.94	23.58	-26.8	-28.7	15.9	0.00e+00	0	42	0	359661568	13	4442
2026-01-11 02:04:32.21	338.69	23.65	-26.7	-28.4	16.1	0.00e+00	0	42	0	362807296	13	4360
2026-01-11 02:04:33.20	338.45	23.72	-26.6	-28.0	16.2	0.00e+00	0	42	0	365953024	13	4267
2026-01-11 02:04:34.19	338.20	23.79	-26.7	-28.3	16.1	0.00e+00	0	42	0	369098752	13	4342
2026-01-11 02:04:35.19	337.95	23.86	-26.7	-28.3	16.1	0.00e+00	0	42	0	372244480	13	4328
2026-01-11 02:04:36.20	337.69	23.92	-26.9	-28.7	15.8	0.00e+00	0	42	0	375390208	13	4463
2026-01-11 02:04:37.20	337.44	23.99	-26.9	-28.9	15.7	0.00e+00	0	42	0	378535936	13	4516
2026-01-11 02:04:38.20	337.18	24.06	-27.1	-28.7	15.6	0.00e+00	0	42	0	381681664	14	4352
2026-01-11 02:04:39.20	336.93	24.13	-27.0	-28.5	15.7	0.00e+00	0	42	0	384827392	14	4296
2026-01-11 02:04:40.20	336.67	24.19	-27.2	-28.9	15.5	0.00e+00	0	42	0	387973120	14	4389
2026-01-11 02:04:41.19	336.42	24.26	-27.0	-28.5	15.7	0.00e+00	0	42	0	390070272	14	4284
2026-01-11 02:04:42.19	336.16	24.32	-27.1	-28.8	15.6	0.00e+00	0	42	0	393216000	14	4350
2026-01-11 02:04:43.20	335.89	24.39	-27.2	-29.1	15.5	0.00e+00	0	42	0	396361728	14	4441
2026-01-11 02:04:44.20	335.63	24.45	-27.3	-29.2	15.4	0.00e+00	0	42	0	400556032	14	4477
2026-01-11 02:04:45.21	335.37	24.51	-27.1	-28.8	15.6	0.00e+00	0	42	0	403701760	14	4352
2026-01-11 02:04:46.22	335.10	24.58	-27.1	-28.8	15.6	0.00e+00	0	42	0	406847488	14	4350
2026-01-11 02:04:47.22	334.84	24.64	-27.2	-29.1	15.4	0.00e+00	0	42	0	409993216	14	4441
2026-01-11 02:04:48.22	334.57	24.70	-27.2	-28.9	15.5	0.00e+00	0	42	0	412090368	14	4409
2026-01-11 02:04:49.23	334.30	24.77	-27.2	-29.0	15.5	7.00e-07	0	42	0	415236096	14	4422
2026-01-11 02:04:50.22	334.04	24.83	-27.2	-29.0	15.5	0.00e+00	0	42	0	418381824	14	4426
2026-01-11 02:04:51.22	333.77	24.89	-27.2	-29.0	15.5	0.00e+00	0	42	0	421527552	14	4422
2026-01-11 02:04:52.21	333.50	24.95	-27.0	-28.5	15.8	0.00e+00	0	42	0	424673280	14	4272
2026-01-11 02:04:53.21	333.23	25.00	-26.9	-28.8	15.9	0.00e+00	0	42	0	427819008	13	4464
2026-01-11 02:04:54.21	332.96	25.06	-27.0	-28.5	15.7	0.00e+00	0	42	0	430964736	14	4281
2026-01-11 02:04:55.21	332.69	25.12	-27.0	-28.5	15.7	0.00e+00	0	42	0	434110464	14	4276
2026-01-11 02:04:56.22	332.41	25.18	-27.1	-28.7	15.7	0.00e+00	0	42	0	437256192	14	4335
2026-01-11 02:04:57.21	332.14	25.24	-27.2	-28.9	15.5	0.00e+00	0	42	0	440401920	14	4385
2026-01-11 02:04:58.21	331.86	25.29	-26.9	-28.3	15.8	0.00e+00	0	42	0	443547648	14	4234
2026-01-11 02:04:59.22	331.59	25.35	-26.8	-28.5	16.0	0.00e+00	0	42	0	446693376	13	4401
2026-01-11 02:05:00.22	331.31	25.40	-26.9	-28.7	15.9	0.00e+00	0	42	0	449839104	13	4456
2026-01-11 02:05:01.21	331.03	25.46	-27.0	-28.9	15.8	0.00e+00	0	42	0	452984832	13	4514
2026-01-11 02:05:02.21	330.75	25.51	-27.0	-28.5	15.7	0.00e+00	0	42	0	456130560	14	4287
2026-01-11 02:05:03.21	330.47	25.56	-27.3	-29.1	15.4	0.00e+00	0	42	0	459276288	14	4458
2026-01-11 02:05:04.21	330.19	25.62	-27.5	-29.6	15.0	0.00e+00	0	42	0	462422016	14	4592
2026-01-11 02:05:05.21	329.91	25.67	-27.5	-29.2	14.8	0.00e+00	0	42	0	465567744	15	4371
2026-01-11 02:05:06.20	329.63	25.72	-27.5	-29.0	15.2	0.00e+00	0	42	0	468713472	15	4323
2026-01-11 02:05:07.21	329.34	25.77	-27.5	-29.6	15.1	0.00e+00	0	42	0	471859200	14	4581
2026-01-11 02:05:08.21	329.05	25.82	-27.3	-29.2	15.4	0.00e+00	0	42	0	475004928	14	4481
2026-01-11 02:05:09.21	328.77	25.87	-27.4	-29.5	15.2	0.00e+00	0	42	0	478150656	14	4578
2026-01-11 02:05:10.20	328.48	25.92	-27.6	-29.4	15.0	0.00e+00	0	42	0	481296384	15	4411
2026-01-11 02:05:11.20	328.20	25.97	-28.3	-30.4	14.3	1.50e-06	0	42	0	484442112	16	4589
2026-01-11 02:05:12.20	327.91	26.01	-27.8	-29.4	14.9	0.00e+00	0	42	0	487587840	16	4294
2026-01-11 02:05:13.20	327.62	26.06	-27.6	-28.8	15.2	0.00e+00	0	42	0	490733568	16	4129
2026-01-11 02:05:14.21	327.32	26.11	-27.0	-28.1	15.7	0.00e+00	0	42	0	493879296	15	4061
2026-01-11 02:05:15.21	327.03	26.15	-26.8	-27.9	16.1	0.00e+00	0	42	0	497025024	14	4128
2026-01-11 02:05:16.20	326.74	26.19	-26.6	-28.2	16.2	0.00e+00	0	42	0	500170752	13	4299
2026-01-11 02:05:17.21	326.45	26.24	-26.6	-28.2	16.2	2.16e-04	0	42	0	503316480	13	4318
2026-01-11 02:05:18.21	326.15	26.28	-26.8	-28.6	16.0	0.00e+00	0	42	0	506462208	13	4414
2026-01-11 02:05:19.22	325.86	26.32	-26.7	-28.3	16.1	0.00e+00	0	42	0	509607936	13	4328
2026-01-11 02:05:20.22	325.56	26.36	-26.7	-28.3	16.1	0.00e+00	0	42	0	512753664	13	4344
2026-01-11 02:05:21.23	325.26	26.41	-26.7	-28.4	16.1	0.00e+00	0	42	0	515899392	13	4372
2026-01-11 02:05:22.23	324.96	26.45	-26.7	-28.4	16.1	7.97e-04	0	42	0	519045120	13	4352
2026-01-11 02:05:23.24	324.66	26.48	-26.7	-28.3	16.2	1.01e-03	0	42	0	522190848	13	4332
2026-01-11 02:05:24.24	324.37	26.52	-26.6	-28.1	16.2	0.00e+00	0	42	0	525336576	13	4272
2026-01-11 02:05:25.24	324.07	26.56	-26.7	-28.4	16.1	0.00e+00	0	42	0	528482304	13	4363
2026-01-11 02:05:26.23	323.77	26.60	-26.6	-28.0	16.2	0.00e+00	0	42	0	531628032	13	4262
2026-01-11 02:05:27.23	323.47	26.63	-26.5	-27.9	16.3	0.00e+00	0	42	0	534773760	13	4216
2026-01-11 02:05:28.23	323.17	26.67	-26.5	-28.0	16.3	9.99e-04	0	42	0	537919488	13	4254
2026-01-11 02:05:29.24	322.86	26.70	-26.5	-28.0	16.3	1.15e-03	0	42	0	541065216	13	4253
2026-01-11 02:05:30.24	322.56	26.73	-26.7	-28.3	16.1	0.00e+00	0	42	0	544210944	13	4336
2026-01-11 02:05:31.24	322.26	26.76	-26.9	-28.8	15.9	0.00e+00	0	42	0	547356672	13	4464
2026-01-11 02:05:32.24	321.95	26.80	-26.7	-28.4	16.1	1.24e-03	0	42	0	550502400	13	4358
2026-01-11 02:05:33.25	321.65	26.83	-26.8	-28.5	16.1	0.00e+00	0	42	0	553648128	13	4379
2026-01-11 02:05:34.24	321.34	26.86	-26.7	-28.3	16.1	8.65e-04	0	42	0	556793856	13	4349
2026-01-11 02:05:35.24	321.04	26.88	-26.6	-28.1	16.2	0.00e+00	0	42	0	559939584	13	4291
2026-01-11 02:05:36.24	320.73	26.91	-26.5	-27.9	16.3	0.00e+00	0	42	0	563085312	13	4227
2026-01-11 02:05:37.24	320.43	26.94	-26.6	-28.0	16.3	2.22e-04	0	42	0	566231040	13	4258
2026-01-11 02:05:38.24	320.12	26.97	-26.9	-28.7	15.9	9.00e-05	0	42	0	569376768	13	4458
2026-01-11 02:05:39.25	319.81	26.99	-26.8	-28.6	16.0	0.00e+00	0	42	0	571473920	13	4426
2026-01-11 02:05:40.24	319.50	27.02	-27.0	-28.6	15.7	2.21e-05	0	42	0	574619648	14	4309
2026-01-11 02:05:41.24	319.19	27.04	-26.9	-28.4	15.8	0.00e+00	0	42	0	577765376	14	4244
2026-01-11 02:05:42.24	318.89	27.06	-26.2	-28.2	14.8	0.00e+00	0	42	0	580911104	13	4499
2026-01-11 02:05:43.24	318.58	27.08	-26.7	-28.5	14.0	4.63e-04	0	42	0	584056832	13	4426
2026-01-11 02:05:44.23	318.27	27.10	-27.0	-28.5	15.2	5.09e-04	0	42	0	587202560	14	4281
2026-01-11 02:05:45.24	317.96	27.12	-26.9	-28.7	14.1	0.00e+00	0	42	0	590348288	13	4454
2026-01-11 02:05:46.23	317.65	27.14	-26.9	-28.7	15.0	3.11e-04	0	42	0	593494016	13	4461
2026-01-11 02:05:47.22	317.34	27.16	-26.9	-28.9	15.8	4.03e-04	0	42	0	596639744	13	4498
2026-01-11 02:05:48.22	317.03	27.18	-27.0	-28.9	15.8	0.00e+00	0	42	0	599785472	13	4509
2026-01-11 02:05:49.23	316.71	27.19	-26.7	-28.2	16.2	6.69e-04	0	42	0	602931200	13	4319
2026-01-11 02:05:50.23	316.40	27.21	-26.5	-27.9	16.3	6.50e-04	0	42	0	606076928	13	4232
2026-01-11 02:05:51.22	316.09	27.22	-26.5	-27.8	16.4	4.47e-03	0	42	0	609222656	13	4209
2026-01-11 02:05:52.22	315.78	27.24	-26.6	-28.1	16.2	1.91e-04	0	42	0	612368384	13	4285
2026-01-11 02:05:53.22	315.47	27.25	-26.8	-28.4	16.1	1.14e-05	0	42	0	615514112	13	4374
2026-01-11 02:05:54.22	315.15	27.26	-26.9	-28.8	15.9	0.00e+00	0	42	0	618659840	13	4465
2026-01-11 02:05:55.21	314.84	27.27	-27.0	-28.9	15.8	4.30e-03	0	42	0	621805568	13	4515
2026-01-11 02:05:56.21	314.53	27.28	-26.9	-28.7	15.9	0.00e+00	0	42	0	624951296	13	4444
2026-01-11 02:05:57.22	314.21	27.29	-26.8	-28.6	15.9	0.00e+00	0	42	0	628097024	13	4432
2026-01-11 02:05:58.21	313.90	27.30	-26.9	-28.3	15.8	2.39e-04	0	42	0	631242752	14	4232
2026-01-11 02:05:59.21	313.59	27.30	-26.8	-28.1	16.0	1.59e-04	0	42	0	634388480	14	4168
2026-01-11 02:06:00.20	313.28	27.31	-26.8	-28.6	16.0	3.48e-03	0	42	0	637534208	13	4432
2026-01-11 02:06:01.20	312.96	27.31	-26.8	-28.5	16.0	8.23e-05	0	42	0	640679936	13	4406
2026-01-11 02:06:02.19	312.65	27.32	-26.9	-28.7	15.9	7.85e-05	0	42	0	643825664	13	4454
2026-01-11 02:06:03.19	312.34	27.32	-26.8	-28.5	16.0	0.00e+00	0	42	0	646971392	13	4389
2026-01-11 02:06:04.20	312.02	27.32	-26.7	-28.4	16.0	0.00e+00	0	42	0	650117120	13	4372
2026-01-11 02:06:05.20	311.71	27.32	-26.9	-28.8	15.9	6.40e-04	0	42	0	653262848	13	4467
2026-01-11 02:06:06.21	311.39	27.32	-26.7	-28.4	16.0	4.67e-04	0	42	0	656408576	13	4367
2026-01-11 02:06:07.21	311.07	27.32	-26.6	-28.1	16.2	1.58e-03	0	42	0	659554304	13	4285
2026-01-11 02:06:08.21	310.76	27.32	-26.5	-28.4	16.3	0.00e+00	0	42	0	662700032	12	4466
2026-01-11 02:06:09.22	310.44	27.32	-26.6	-28.1	16.2	0.00e+00	0	42	0	665845760	13	4276
2026-01-11 02:06:10.23	310.12	27.31	-26.6	-28.0	16.2	1.94e-03	0	42	0	668991488	13	4267
2026-01-11 02:06:11.22	309.81	27.31	-26.7	-28.3	16.1	7.20e-04	0	42	0	672137216	13	4331
2026-01-11 02:06:12.22	309.50	27.30	-26.6	-28.2	16.2	3.77e-03	0	42	0	675282944	13	4307
2026-01-11 02:06:13.22	309.18	27.30	-26.7	-28.4	16.1	0.00e+00	0	42	0	678428672	13	4356
2026-01-11 02:06:14.21	308.87	27.29	-26.9	-28.7	15.9	0.00e+00	0	42	0	681574400	13	4447
2026-01-11 02:06:15.22	308.56	27.28	-27.0	-28.4	15.8	4.17e-03	0	42	0	684720128	14	4257
2026-01-11 02:06:16.21	308.24	27.27	-26.8	-28.5	16.0	3.86e-03	0	42	0	687865856	13	4385
2026-01-11 02:06:17.22	307.93	27.26	-26.8	-28.5	16.0	6.62e-04	0	42	0	691011584	13	4390
2026-01-11 02:06:18.22	307.62	27.25	-26.6	-28.2	16.2	4.18e-03	0	42	0	694157312	13	4311
2026-01-11 02:06:19.23	307.30	27.24	-26.7	-28.3	16.1	4.53e-03	0	42	0	697303040	13	4348
2026-01-11 02:06:20.23	306.99	27.22	-26.8	-28.5	16.0	5.86e-04	0	42	0	700448768	13	4386
2026-01-11 02:06:21.23	306.67	27.21	-26.6	-28.1	16.2	4.47e-03	0	42	0	703594496	13	4290
2026-01-11 02:06:22.23	306.36	27.19	-26.6	-28.1	16.2	4.38e-03	0	42	0	706740224	13	4279
2026-01-11 02:06:23.24	306.05	27.18	-26.4	-28.2	16.4	5.28e-04	0	42	0	709885952	12	4423
2026-01-11 02:06:24.24	305.73	27.16	-26.5	-27.9	16.3	4.36e-03	0	42	0	713031680	13	4239
2026-01-11 02:06:25.24	305.42	27.14	-26.6	-28.2	16.2	3.87e-03	0	42	0	716177408	13	4301
2026-01-11 02:06:26.23	305.12	27.12	-26.7	-28.3	16.1	3.32e-04	0	42	0	719323136	13	4339
2026-01-11 02:06:27.24	304.80	27.10	-26.6	-28.1	16.2	3.72e-03	0	42	0	722468864	13	4292
2026-01-11 02:06:28.23	304.49	27.08	-26.8	-28.4	16.0	4.19e-03	0	42	0	725614592	13	4369
2026-01-11 02:06:29.24	304.18	27.06	-27.1	-28.7	15.7	8.03e-04	0	42	0	727711744	14	4332
2026-01-11 02:06:30.24	303.87	27.04	-26.8	-28.6	16.0	4.44e-03	0	42	0	730857472	13	4413
2026-01-11 02:06:31.24	303.56	27.02	-26.8	-28.6	16.0	4.37e-03	0	42	0	734003200	13	4414
2026-01-11 02:06:32.24	303.25	26.99	-27.1	-28.7	15.6	3.14e-04	0	42	0	737148928	14	4343
2026-01-11 02:06:33.24	302.95	26.97	-27.0	-28.9	15.8	4.08e-03	0	42	0	740294656	13	4513
2026-01-11 02:06:34.24	302.64	26.94	-27.0	-28.5	15.7	0.00e+00	0	42	0	743440384	14	4280
2026-01-11 02:06:35.25	302.33	26.91	-26.9	-28.9	15.8	3.51e-04	0	42	0	746586112	13	4494
2026-01-11 02:06:36.25	302.02	26.89	-26.9	-28.8	15.8	3.54e-03	0	42	0	750780416	13	4473
2026-01-11 02:06:37.25	301.72	26.86	-26.9	-28.8	15.8	3.83e-03	0	42	0	752877568	13	4478
2026-01-11 02:06:38.24	301.41	26.83	-26.9	-28.7	15.9	3.52e-04	0	42	0	756023296	13	4450
2026-01-11 02:06:39.24	301.11	26.80	-27.0	-28.4	15.8	0.00e+00	0	42	0	759169024	14	4249
2026-01-11 02:06:40.24	300.81	26.77	-26.7	-28.3	16.1	3.82e-03	0	42	0	762314752	13	4339
2026-01-11 02:06:41.24	300.50	26.73	-26.6	-28.1	16.2	4.99e-04	0	42	0	765460480	13	4285
2026-01-11 02:06:42.25	300.20	26.70	-26.7	-28.3	16.1	3.15e-03	0	42	0	768606208	13	4329
2026-01-11 02:06:43.25	299.89	26.67	-26.8	-28.5	16.0	7.00e-07	0	42	0	771751936	13	4386
2026-01-11 02:06:44.26	299.59	26.63	-26.6	-28.2	16.2	0.00e+00	0	42	0	774897664	13	4303
2026-01-11 02:06:45.26	299.29	26.60	-26.5	-27.9	16.3	0.00e+00	0	42	0	778043392	13	4233
2026-01-11 02:06:46.26	298.99	26.56	-26.5	-28.0	16.3	0.00e+00	0	42	0	781189120	13	4244
2026-01-11 02:06:47.26	298.69	26.52	-26.6	-28.0	16.2	2.89e-05	0	42	0	784334848	13	4264
2026-01-11 02:06:48.27	298.39	26.48	-26.7	-28.4	16.0	0.00e+00	0	42	0	787480576	13	4365
2026-01-11 02:06:49.27	298.09	26.44	-26.8	-28.5	16.0	0.00e+00	0	42	0	790626304	13	4404
2026-01-11 02:06:50.26	297.79	26.41	-26.7	-28.2	16.1	0.00e+00	0	42	0	793772032	13	4324
2026-01-11 02:06:51.26	297.50	26.36	-26.6	-28.0	16.2	0.00e+00	0	42	0	796917760	13	4261
2026-01-11 02:06:52.26	297.20	26.32	-26.6	-28.1	16.2	3.69e-03	0	42	0	800063488	13	4272
2026-01-11 02:06:53.27	296.90	26.28	-26.5	-27.8	16.4	0.00e+00	0	42	0	803209216	13	4206
2026-01-11 02:06:54.28	296.61	26.24	-26.4	-27.7	16.4	0.00e+00	0	42	0	806354944	13	4186
2026-01-11 02:06:55.28	296.31	26.19	-26.3	-28.0	16.5	0.00e+00	0	42	0	809500672	12	4376
2026-01-11 02:06:56.29	296.02	26.15	-26.5	-27.9	16.3	0.00e+00	0	42	0	812646400	13	4237
2026-01-11 02:06:57.29	295.72	26.11	-26.6	-28.2	16.2	2.05e-03	0	42	0	815792128	13	4295
2026-01-11 02:06:58.30	295.43	26.06	-26.8	-28.5	16.0	0.00e+00	0	42	0	818937856	13	4387
2026-01-11 02:06:59.30	295.14	26.01	-26.6	-28.2	16.1	0.00e+00	0	42	0	822083584	13	4315
2026-01-11 02:07:00.29	294.85	25.97	-26.6	-28.1	16.2	0.00e+00	0	42	0	825229312	13	4275
2026-01-11 02:07:01.29	294.56	25.92	-26.7	-28.3	16.1	0.00e+00	0	42	0	828375040	13	4334
2026-01-11 02:07:02.29	294.28	25.87	-26.4	-27.8	16.3	0.00e+00	0	42	0	831520768	13	4191
2026-01-11 02:07:03.29	293.99	25.82	-26.4	-28.2	16.4	0.00e+00	0	42	0	834666496	12	4412
2026-01-11 02:07:04.30	293.70	25.77	-26.3	-28.0	16.5	0.00e+00	0	42	0	837812224	12	4380
2026-01-11 02:07:05.31	293.41	25.72	-26.5	-28.0	16.2	0.00e+00	0	42	0	840957952	13	4245
2026-01-11 02:07:06.31	293.13	25.67	-26.6	-28.2	16.1	0.00e+00	0	42	0	844103680	13	4318
2026-01-11 02:07:07.32	292.84	25.61	-26.6	-28.2	16.1	0.00e+00	0	42	0	847249408	13	4318
2026-01-11 02:07:08.33	292.56	25.56	-26.6	-28.1	16.1	0.00e+00	0	42	0	850395136	13	4284
2026-01-11 02:07:09.33	292.28	25.51	-26.6	-28.2	16.1	0.00e+00	0	42	0	853540864	13	4313
2026-01-11 02:07:10.33	292.00	25.45	-26.8	-28.5	15.9	0.00e+00	0	42	0	856686592	13	4382
2026-01-11 02:07:11.33	291.72	25.40	-26.6	-28.1	16.2	0.00e+00	0	42	0	859832320	13	4286
2026-01-11 02:07:12.34	291.44	25.34	-26.5	-27.9	16.2	0.00e+00	0	42	0	862978048	13	4236
2026-01-11 02:07:13.34	291.16	25.29	-26.5	-28.0	16.2	0.00e+00	0	42	0	866123776	13	4259
2026-01-11 02:07:14.35	290.88	25.23	-26.6	-28.2	16.1	0.00e+00	0	42	0	869269504	13	4301
2026-01-11 02:07:15.35	290.61	25.17	-26.5	-27.9	16.2	0.00e+00	0	42	0	872415232	13	4228
2026-01-11 02:07:16.35	290.33	25.11	-26.5	-28.0	16.2	0.00e+00	0	42	0	875560960	13	4247
2026-01-11 02:07:17.35	290.06	25.06	-26.6	-28.1	16.1	0.00e+00	0	42	0	878706688	13	4291
2026-01-11 02:07:18.35	289.79	25.00	-26.7	-28.3	16.0	0.00e+00	0	42	0	881852416	13	4350
2026-01-11 02:07:19.34	289.52	24.94	-26.7	-28.4	16.0	0.00e+00	0	42	0	884998144	13	4364
2026-01-11 02:07:20.34	289.25	24.88	-26.9	-28.7	15.8	0.00e+00	0	42	0	888143872	13	4450
2026-01-11 02:07:21.34	288.98	24.82	-26.9	-28.4	15.7	0.00e+00	0	42	0	891289600	14	4244
2026-01-11 02:07:22.34	288.71	24.76	-26.8	-28.6	15.8	0.00e+00	0	42	0	894435328	13	4426
2026-01-11 02:07:23.35	288.44	24.69	-26.8	-28.6	15.8	0.00e+00	0	42	0	897581056	13	4427
2026-01-11 02:07:24.35	288.17	24.63	-26.8	-28.7	15.8	0.00e+00	0	42	0	900726784	13	4450
2026-01-11 02:07:25.36	287.91	24.57	-26.8	-28.6	15.8	0.00e+00	0	42	0	903872512	13	4415
2026-01-11 02:07:26.37	287.64	24.50	-26.7	-28.4	15.9	0.00e+00	0	42	0	907018240	13	4361
2026-01-11 02:07:27.38	287.37	24.44	-26.8	-28.5	15.9	0.00e+00	0	42	0	910163968	13	4379
2026-01-11 02:07:28.38	287.11	24.38	-26.8	-28.6	15.8	0.00e+00	0	42	0	913309696	13	4426
2026-01-11 02:07:29.38	286.85	24.31	-26.7	-28.3	16.0	0.00e+00	0	42	0	916455424	13	4339
2026-01-11 02:07:30.39	286.59	24.25	-26.5	-28.0	16.2	0.00e+00	0	42	0	919601152	13	4259
2026-01-11 02:07:31.39	286.33	24.18	-26.6	-28.1	16.1	0.00e+00	0	42	0	922746880	13	4283
2026-01-11 02:07:32.40	286.07	24.11	-26.6	-28.1	16.1	0.00e+00	0	42	0	925892608	13	4282
2026-01-11 02:07:33.40	285.81	24.05	-26.7	-28.3	16.0	0.00e+00	0	42	0	929038336	13	4342
2026-01-11 02:07:34.41	285.56	23.98	-26.9	-28.8	15.7	0.00e+00	0	42	0	932184064	13	4476
2026-01-11 02:07:35.42	285.30	23.91	-26.9	-28.9	15.6	0.00e+00	0	42	0	935329792	13	4502
2026-01-11 02:07:36.43	285.04	23.84	-27.1	-28.8	15.5	0.00e+00	0	42	0	938475520	14	4368
2026-01-11 02:07:37.43	284.79	23.77	-27.0	-28.6	15.6	1.29e-05	0	42	0	941621248	14	4307
2026-01-11 02:07:38.43	284.54	23.70	-26.7	-27.8	15.9	0.00e+00	0	42	0	944766976	14	4104
2026-01-11 02:07:39.44	284.29	23.63	-26.4	-27.8	16.2	0.00e+00	0	42	0	947912704	13	4204
2026-01-11 02:07:40.46	284.03	23.56	-26.3	-27.5	16.4	0.00e+00	0	42	0	951058432	13	4135
2026-01-11 02:07:41.46	283.79	23.49	-26.3	-27.4	16.5	0.00e+00	0	42	0	954204160	13	4097
2026-01-11 02:07:42.47	283.54	23.42	-26.3	-27.9	16.5	0.00e+00	0	42	0	957349888	12	4340
2026-01-11 02:07:43.47	283.29	23.35	-26.2	-27.7	16.5	0.00e+00	0	42	0	960495616	12	4294
2026-01-11 02:07:44.47	283.05	23.28	-26.3	-28.0	14.8	1.81e-03	0	42	0	963641344	12	4380
2026-01-11 02:07:45.48	282.80	23.21	-26.5	-28.3	15.1	0.00e+00	0	42	0	966787072	12	4472
2026-01-11 02:07:46.49	282.56	23.13	-26.7	-28.4	15.9	0.00e+00	0	42	0	969932800	13	4373
2026-01-11 02:07:47.50	282.32	23.06	-26.8	-28.6	15.8	0.00e+00	0	42	0	973078528	13	4426
2026-01-11 02:07:48.50	282.08	22.99	-27.0	-28.6	15.5	0.00e+00	0	42	0	976224256	14	4318
2026-01-11 02:07:49.51	281.84	22.92	-27.0	-28.5	15.6	4.42e-05	0	42	0	979369984	14	4283
2026-01-11 02:07:50.51	281.60	22.84	-26.7	-27.9	15.9	1.74e-04	0	42	0	982515712	14	4121
2026-01-11 02:07:51.52	281.36	22.77	-26.4	-27.6	16.3	6.68e-04	0	42	0	985661440	13	4171
2026-01-11 02:07:52.52	281.12	22.69	-26.3	-28.1	16.3	1.10e-03	0	42	0	988807168	12	4405
2026-01-11 02:07:53.53	280.89	22.62	-26.3	-28.0	16.4	0.00e+00	0	42	0	991952896	12	4366
2026-01-11 02:07:54.54	280.65	22.54	-26.3	-27.9	16.4	2.44e-03	0	42	0	995098624	12	4349
2026-01-11 02:07:55.54	280.42	22.47	-26.3	-28.1	16.3	2.00e-03	0	42	0	998244352	12	4393
2026-01-11 02:07:56.55	280.19	22.39	-26.4	-28.2	16.2	0.00e+00	0	42	0	1001390080	12	4427
2026-01-11 02:07:57.55	279.96	22.32	-26.4	-28.3	16.2	2.24e-03	0	42	0	1004535808	12	4464
2026-01-11 02:07:58.56	279.73	22.24	-26.6	-28.1	16.0	2.37e-03	0	42	0	1007681536	13	4301
2026-01-11 02:07:59.57	279.50	22.16	-26.6	-28.1	16.0	5.65e-04	0	42	0	1010827264	13	4301
2026-01-11 02:08:00.57	279.27	22.09	-26.4	-27.8	16.2	1.23e-03	0	42	0	1013972992	13	4208
2026-01-11 02:08:01.58	279.05	22.01	-26.4	-28.2	16.2	0.00e+00	0	42	0	1017118720	12	4427
2026-01-11 02:08:02.59	278.82	21.93	-26.3	-28.0	16.4	2.98e-03	0	42	0	1020264448	12	4364
2026-01-11 02:08:03.60	278.59	21.86	-26.4	-28.2	16.3	3.58e-03	0	42	0	1023410176	12	4422
2026-01-11 02:08:04.61	278.37	21.78	-26.5	-27.9	16.1	0.00e+00	0	42	0	1026555904	13	4248
2026-01-11 02:08:05.62	278.15	21.70	-26.6	-28.2	16.0	3.58e-03	0	42	0	1029701632	13	4313
2026-01-11 02:08:06.63	277.93	21.62	-26.7	-28.5	15.7	3.92e-03	0	42	0	1032847360	13	4409
2026-01-11 02:08:07.63	277.71	21.54	-26.7	-28.5	15.7	0.00e+00	0	42	0	1035993088	13	4411
2026-01-11 02:08:08.64	277.49	21.47	-26.7	-28.3	15.8	1.19e-04	0	42	0	1039138816	13	4364
2026-01-11 02:08:09.64	277.27	21.39	-26.5	-27.9	16.1	4.38e-03	0	42	0	1042284544	13	4245
2026-01-11 02:08:10.65	277.05	21.31	-26.3	-28.0	16.3	2.50e-04	0	42	0	1045430272	12	4369
2026-01-11 02:08:11.66	276.84	21.23	-26.0	-27.3	16.6	4.54e-03	0	42	0	1048576000	12	4196
2026-01-11 02:08:12.67	276.62	21.15	-25.8	-27.0	16.9	4.33e-03	0	42	0	1051721728	12	4099
2026-01-11 02:08:13.67	276.41	21.07	-25.9	-27.2	16.7	0.00e+00	0	42	0	1054867456	12	4152
2026-01-11 02:08:14.67	276.20	20.99	-26.0	-27.2	16.7	0.00e+00	0	42	0	1058013184	12	4168
2026-01-11 02:08:15.67	275.99	20.91	-26.0	-27.2	16.7	0.00e+00	0	42	0	1061158912	12	4165
2026-01-11 02:08:16.68	275.78	20.83	-26.2	-27.7	16.4	1.50e-06	0	42	0	1064304640	12	4296
2026-01-11 02:08:17.68	275.57	20.75	-26.5	-28.4	16.1	4.12e-03	0	42	0	1067450368	12	4494
2026-01-11 02:08:18.69	275.37	20.67	-26.6	-28.3	15.9	0.00e+00	0	42	0	1070596096	13	4344
2026-01-11 02:08:19.71	275.16	20.59	-26.7	-28.3	15.9	0.00e+00	0	42	0	1073741824	13	4349
2026-01-11 02:08:20.71	274.95	20.51	-26.5	-28.0	16.0	0.00e+00	0	42	0	1076887552	13	4267
2026-01-11 02:08:21.72	274.75	20.43	-26.6	-28.2	15.9	0.00e+00	0	42	0	1080033280	13	4325
2026-01-11 02:08:22.72	274.55	20.35	-26.5	-27.8	16.1	7.43e-04	0	42	0	1083179008	13	4225
2026-01-11 02:08:23.73	274.34	20.27	-26.3	-28.1	16.2	0.00e+00	0	42	0	1086324736	12	4409
2026-01-11 02:08:24.74	274.14	20.19	-26.4	-28.2	16.1	0.00e+00	0	42	0	1089470464	12	4424
2026-01-11 02:08:25.74	273.94	20.11	-26.5	-28.0	16.0	0.00e+00	0	42	0	1092616192	13	4271
2026-01-11 02:08:26.75	273.74	20.03	-26.7	-28.3	15.8	7.60e-06	0	42	0	1095761920	13	4349
2026-01-11 02:08:27.76	273.54	19.94	-26.7	-28.3	15.8	0.00e+00	0	42	0	1098907648	13	4364
2026-01-11 02:08:28.77	273.35	19.86	-26.8	-28.6	15.6	0.00e+00	0	42	0	1102053376	13	4445
2026-01-11 02:08:29.77	273.15	19.78	-26.8	-28.6	15.7	0.00e+00	0	42	0	1105199104	13	4429
2026-01-11 02:08:30.78	272.96	19.70	-26.7	-28.4	15.8	0.00e+00	0	42	0	1108344832	13	4376
2026-01-11 02:08:31.78	272.76	19.62	-26.5	-28.0	16.0	0.00e+00	0	42	0	1111490560	13	4270
2026-01-11 02:08:32.79	272.57	19.54	-26.6	-28.2	15.9	6.80e-06	0	42	0	1114636288	13	4322
2026-01-11 02:08:33.79	272.38	19.46	-26.4	-27.7	16.1	0.00e+00	0	42	0	1117782016	13	4171
2026-01-11 02:08:34.79	272.19	19.37	-26.1	-27.6	16.4	0.00e+00	0	42	0	1120927744	12	4273
2026-01-11 02:08:35.80	272.00	19.29	-26.2	-27.7	16.4	3.00e-06	0	42	0	1124073472	12	4287
2026-01-11 02:08:36.81	271.81	19.21	-26.4	-28.2	16.1	0.00e+00	0	42	0	1127219200	12	4434
2026-01-11 02:08:37.81	271.63	19.13	-26.6	-28.1	15.9	0.00e+00	0	42	0	1130364928	13	4308
2026-01-11 02:08:38.82	271.44	19.05	-26.7	-28.4	15.7	7.60e-06	0	42	0	1133510656	13	4380
2026-01-11 02:08:39.83	271.25	18.96	-26.9	-28.9	15.4	0.00e+00	0	42	0	1136656384	13	4529
2026-01-11 02:08:40.83	271.07	18.88	-27.3	-29.3	15.0	0.00e+00	0	42	0	1139802112	14	4517
2026-01-11 02:08:41.84	270.88	18.80	-27.5	-29.6	14.8	0.00e+00	0	42	0	1142947840	14	4634
2026-01-11 02:08:42.85	270.70	18.72	-27.5	-29.2	14.7	0.00e+00	0	42	0	1146093568	15	4397
2026-01-11 02:08:43.85	270.52	18.64	-27.6	-29.6	14.5	7.00e-07	0	42	0	1149239296	15	4492
2026-01-11 02:08:44.86	270.34	18.55	-27.5	-29.3	14.7	7.00e-07	0	42	0	1152385024	15	4410
2026-01-11 02:08:45.86	270.16	18.47	-27.5	-29.7	14.7	0.00e+00	0	42	0	1155530752	14	4646
2026-01-11 02:08:46.86	269.98	18.39	-27.6	-29.4	14.6	0.00e+00	0	42	0	1158676480	15	4457
2026-01-11 02:08:47.87	269.81	18.31	-27.7	-29.8	14.4	2.20e-06	0	42	0	1161822208	15	4566
2026-01-11 02:08:48.88	269.63	18.22	-27.5	-29.4	14.6	0.00e+00	0	42	0	1164967936	15	4444
2026-01-11 02:08:49.89	269.45	18.14	-27.6	-29.5	14.6	0.00e+00	0	42	0	1168113664	15	4472
2026-01-11 02:08:50.89	269.28	18.06	-27.7	-29.8	14.4	0.00e+00	0	42	0	1171259392	15	4577
2026-01-11 02:08:51.90	269.10	17.98	-27.6	-29.4	14.6	7.00e-07	0	42	0	1174405120	15	4443
2026-01-11 02:08:52.91	268.93	17.89	-27.2	-28.7	15.0	7.00e-07	0	42	0	1177550848	15	4237
2026-01-11 02:08:53.92	268.76	17.81	-27.0	-28.7	15.3	0.00e+00	0	42	0	1180696576	14	4357
2026-01-11 02:08:54.92	268.59	17.73	-26.9	-28.5	15.4	0.00e+00	0	42	0	1183842304	14	4291
2026-01-11 02:08:55.93	268.42	17.65	-27.1	-28.7	15.2	0.00e+00	0	42	0	1186988032	14	4368
2026-01-11 02:08:56.94	268.25	17.57	-26.9	-28.9	15.4	0.00e+00	0	42	0	1190133760	13	4522
2026-01-11 02:08:57.94	268.08	17.48	-26.9	-28.9	15.4	3.55e-03	0	42	0	1193279488	13	4543
2026-01-11 02:08:58.95	267.91	17.40	-26.9	-29.0	15.4	0.00e+00	0	42	0	1196425216	13	4545
2026-01-11 02:08:59.96	267.75	17.32	-26.9	-29.0	15.4	3.59e-03	0	42	0	1199570944	13	4557
2026-01-11 02:09:00.97	267.58	17.24	-27.0	-29.0	15.3	0.00e+00	0	42	0	1202716672	13	4556
2026-01-11 02:09:01.97	267.42	17.15	-27.0	-28.7	15.3	0.00e+00	0	42	0	1205862400	14	4351
2026-01-11 02:09:02.98	267.25	17.07	-27.0	-28.5	15.3	4.04e-03	0	42	0	1209008128	14	4302
2026-01-11 02:09:03.99	267.09	16.99	-26.8	-28.7	15.5	3.63e-03	0	42	0	1212153856	13	4478
2026-01-11 02:09:04.99	266.93	16.91	-26.1	-28.2	15.1	0.00e+00	0	42	0	1215299584	13	4578
2026-01-11 02:09:06.00	266.77	16.83	-26.2	-28.1	13.2	0.00e+00	0	42	0	1218445312	13	4460
2026-01-11 02:09:07.00	266.61	16.74	-26.8	-28.7	15.5	0.00e+00	0	42	0	1221591040	13	4479
2026-01-11 02:09:08.01	266.45	16.66	-26.9	-28.9	15.3	0.00e+00	0	42	0	1224736768	13	4541
2026-01-11 02:09:09.01	266.29	16.58	-27.1	-28.8	15.2	2.12e-03	0	42	0	1227882496	14	4386
2026-01-11 02:09:10.01	266.14	16.50	-27.2	-29.0	15.0	1.47e-03	0	42	0	1231028224	14	4444
2026-01-11 02:09:11.02	265.98	16.42	-27.0	-28.7	15.2	5.33e-03	0	42	0	1234173952	14	4366
2026-01-11 02:09:12.03	265.82	16.34	-26.9	-28.8	15.4	0.00e+00	0	42	0	1237319680	13	4493
2026-01-11 02:09:13.03	265.67	16.25	-26.8	-28.7	15.4	1.27e-03	0	42	0	1240465408	13	4473
2026-01-11 02:09:14.03	265.52	16.17	-27.1	-28.8	15.2	0.00e+00	0	42	0	1243611136	14	4386
2026-01-11 02:09:15.04	265.36	16.09	-26.8	-28.6	15.5	2.40e-03	0	42	0	1246756864	13	4449
2026-01-11 02:09:16.05	265.21	16.01	-26.8	-28.6	15.5	8.10e-04	0	42	0	1249902592	13	4443
2026-01-11 02:09:17.06	265.06	15.93	-27.0	-29.1	15.3	4.05e-03	0	42	0	1253048320	13	4580
2026-01-11 02:09:18.06	264.91	15.85	-26.9	-28.9	15.3	4.67e-03	0	42	0	1256194048	13	4542
2026-01-11 02:09:19.07	264.76	15.77	-26.9	-28.9	15.3	3.75e-04	0	42	0	1259339776	13	4528
2026-01-11 02:09:20.08	264.61	15.68	-27.0	-29.0	15.3	4.64e-03	0	42	0	1262485504	13	4572
2026-01-11 02:09:21.09	264.46	15.60	-27.2	-29.0	15.0	4.75e-03	0	42	0	1265631232	14	4447
2026-01-11 02:09:22.09	264.31	15.52	-27.1	-28.9	15.1	4.06e-04	0	42	0	1268776960	14	4424
2026-01-11 02:09:23.10	264.17	15.44	-27.3	-29.3	14.8	4.60e-03	0	42	0	1271922688	14	4545
2026-01-11 02:09:24.11	264.02	15.36	-27.3	-29.2	14.9	4.38e-03	0	42	0	1275068416	14	4517
2026-01-11 02:09:25.11	263.88	15.28	-27.4	-29.5	14.7	6.65e-04	0	42	0	1278214144	14	4608
2026-01-11 02:09:26.11	263.73	15.20	-27.2	-29.2	14.9	4.21e-03	0	42	0	1281359872	14	4499
2026-01-11 02:09:27.12	263.59	15.12	-27.2	-29.1	14.9	4.60e-03	0	42	0	1284505600	14	4484
2026-01-11 02:09:28.12	263.45	15.04	-27.3	-29.2	14.8	3.05e-05	0	42	0	1287651328	14	4519
2026-01-11 02:09:29.13	263.30	14.96	-27.3	-29.4	14.8	4.23e-03	0	42	0	1290797056	14	4557
2026-01-11 02:09:30.13	263.16	14.88	-27.1	-28.9	15.0	7.00e-07	0	42	0	1293942784	14	4431
2026-01-11 02:09:31.13	263.03	14.80	-27.1	-28.9	15.0	2.40e-03	0	42	0	1297088512	14	4408
2026-01-11 02:09:32.14	262.89	14.72	-27.2	-29.0	14.9	3.56e-03	0	42	0	1300234240	14	4447
2026-01-11 02:09:33.14	262.75	14.64	-27.3	-29.3	14.8	2.48e-03	0	42	0	1303379968	14	4522
2026-01-11 02:09:34.15	262.61	14.56	-27.3	-29.3	14.7	0.00e+00	0	42	0	1306525696	14	4543
2026-01-11 02:09:35.15	262.47	14.48	-27.4	-29.5	14.6	9.90e-06	0	42	0	1309671424	14	4608
2026-01-11 02:09:36.15	262.34	14.40	-27.5	-29.7	14.5	0.00e+00	0	42	0	1312817152	14	4668
2026-01-11 02:09:37.16	262.20	14.32	-27.7	-29.8	14.2	2.28e-04	0	42	0	1315962880	15	4574
2026-01-11 02:09:38.17	262.07	14.24	-28.2	-30.4	13.7	4.00e-03	0	42	0	1319108608	16	4632
2026-01-11 02:09:39.18	261.93	14.16	-27.9	-29.7	14.2	1.50e-06	0	42	0	1322254336	16	4421
2026-01-11 02:09:40.18	261.80	14.08	-27.5	-29.3	14.5	0.00e+00	0	42	0	1325400064	15	4425
2026-01-11 02:09:41.19	261.66	14.00	-27.5	-29.3	14.5	1.22e-05	0	42	0	1328545792	15	4417
2026-01-11 02:09:42.19	261.53	13.92	-27.5	-29.4	14.4	0.00e+00	0	42	0	1331691520	15	4447
2026-01-11 02:09:43.19	261.40	13.84	-27.6	-29.5	14.4	4.45e-04	0	42	0	1334837248	15	4478
2026-01-11 02:09:44.20	261.27	13.76	-27.7	-29.8	14.2	9.90e-06	0	42	0	1337982976	15	4563
2026-01-11 02:09:45.21	261.14	13.68	-27.6	-29.6	14.3	3.00e-06	0	42	0	1341128704	15	4504
2026-01-11 02:09:46.21	261.01	13.61	-27.7	-29.6	14.3	0.00e+00	0	42	0	1344274432	15	4531
2026-01-11 02:09:47.22	260.88	13.53	-27.8	-30.0	14.0	3.00e-06	0	42	0	1347420160	15	4643
2026-01-11 02:09:48.22	260.76	13.45	-27.8	-30.1	14.0	2.20e-06	0	42	0	1350565888	15	4673
2026-01-11 02:09:49.23	260.63	13.37	-27.9	-30.3	13.9	3.80e-06	0	42	0	1353711616	15	4727
2026-01-11 02:09:50.24	260.50	13.29	-27.8	-30.1	14.0	1.29e-05	0	42	0	1356857344	15	4687
2026-01-11 02:09:51.25	260.38	13.21	-27.9	-30.3	13.8	5.30e-06	0	42	0	1358954496	15	4727
2026-01-11 02:09:52.25	260.25	13.14	-27.8	-30.1	14.0	3.80e-06	0	42	0	1362100224	15	4661
2026-01-11 02:09:53.25	260.13	13.06	-28.0	-30.5	13.7	3.80e-06	0	42	0	1365245952	15	4789
2026-01-11 02:09:54.25	260.01	12.98	-28.3	-30.7	13.4	1.75e-05	0	42	0	1369440256	16	4727
2026-01-11 02:09:55.26	259.88	12.90	-28.0	-30.0	13.9	1.37e-05	0	42	0	1372585984	16	4512
2026-01-11 02:09:56.26	259.76	12.83	-27.6	-29.6	14.2	6.10e-06	0	42	0	1375731712	15	4515
2026-01-11 02:09:57.27	259.64	12.75	-27.5	-29.4	14.3	7.00e-07	0	42	0	1378877440	15	4480
2026-01-11 02:09:58.28	259.52	12.67	-27.6	-29.5	14.2	7.00e-07	0	42	0	1382023168	15	4509
2026-01-11 02:09:59.29	259.39	12.59	-27.6	-29.6	14.2	1.50e-06	0	42	0	1384120320	15	4516
2026-01-11 02:10:00.29	259.28	12.52	-27.7	-29.8	14.0	7.00e-07	0	42	0	1387266048	15	4584
2026-01-11 02:10:01.30	259.16	12.44	-27.7	-29.8	14.0	7.00e-07	0	42	0	1390411776	15	4598
2026-01-11 02:10:02.31	259.04	12.36	-27.7	-29.9	14.0	2.20e-06	0	42	0	1394606080	15	4616
2026-01-11 02:10:03.31	258.92	12.29	-28.0	-29.9	13.9	9.10e-06	0	42	0	1397751808	16	4501
2026-01-11 02:10:04.32	258.80	12.21	-27.8	-30.0	13.9	6.10e-06	0	42	0	1400897536	15	4643
2026-01-11 02:10:05.33	258.68	12.13	-27.8	-30.1	13.9	3.00e-06	0	42	0	1404043264	15	4674
2026-01-11 02:10:06.34	258.57	12.05	-27.8	-30.1	13.8	5.30e-06	0	42	0	1406140416	15	4692
2026-01-11 02:10:07.34	258.45	11.98	-27.8	-30.0	13.9	6.10e-06	0	42	0	1409286144	15	4648
2026-01-11 02:10:08.35	258.34	11.90	-27.8	-30.1	13.8	5.30e-06	0	42	0	1412431872	15	4696
2026-01-11 02:10:09.36	258.22	11.83	-27.7	-29.8	14.0	7.00e-07	0	42	0	1416626176	15	4581
2026-01-11 02:10:10.36	258.11	11.75	-27.8	-30.1	13.8	6.80e-06	0	42	0	1419771904	15	4690
2026-01-11 02:10:11.37	258.00	11.67	-27.5	-29.3	14.3	7.00e-07	0	42	0	1422917632	15	4447
2026-01-11 02:10:12.37	257.89	11.60	-27.4	-29.7	14.4	0.00e+00	0	42	0	1426063360	14	4666
2026-01-11 02:10:13.38	257.77	11.52	-27.5	-29.4	14.2	1.50e-06	0	42	0	1429209088	15	4471
2026-01-11 02:10:14.38	257.66	11.45	-27.7	-29.8	14.0	0.00e+00	0	42	0	1431306240	15	4581
2026-01-11 02:10:15.39	257.55	11.37	-27.8	-30.1	13.8	3.80e-06	0	42	0	1434451968	15	4679
2026-01-11 02:10:16.40	257.44	11.30	-27.6	-29.5	14.2	2.20e-06	0	42	0	1437597696	15	4500
2026-01-11 02:10:17.41	257.33	11.22	-27.4	-29.6	14.4	7.00e-07	0	42	0	1441792000	14	4643
2026-01-11 02:10:18.41	257.22	11.15	-27.4	-29.7	14.4	1.50e-06	0	42	0	1444937728	14	4672
2026-01-11 02:10:19.42	257.11	11.07	-27.6	-29.5	14.2	7.00e-07	0	42	0	1448083456	15	4486
2026-01-11 02:10:20.43	257.01	11.00	-27.6	-29.7	14.1	0.00e+00	0	42	0	1451229184	15	4551
2026-01-11 02:10:21.44	256.90	10.92	-27.9	-30.2	13.7	4.50e-06	0	42	0	1453326336	15	4718
2026-01-11 02:10:22.44	256.79	10.85	-28.2	-30.4	13.5	7.60e-06	0	42	0	1456472064	16	4653
2026-01-11 02:10:23.44	256.69	10.77	-28.3	-30.6	13.4	1.83e-05	0	42	0	1459617792	16	4724
2026-01-11 02:10:24.45	256.58	10.70	-28.2	-30.5	13.4	2.92e-04	0	42	0	1462763520	16	4674
2026-01-11 02:10:25.45	256.48	10.63	-28.5	-31.1	13.1	1.83e-05	0	42	0	1465909248	16	4893
2026-01-11 02:10:26.45	256.37	10.55	-28.8	-31.4	12.5	9.30e-05	0	42	0	1469054976	17	4879
2026-01-11 02:10:27.46	256.27	10.48	-28.8	-31.5	12.5	1.50e-04	0	42	0	1473249280	17	4907
2026-01-11 02:10:28.46	256.16	10.41	-28.6	-31.0	12.8	6.33e-05	0	42	0	1476395008	17	4733
2026-01-11 02:10:29.47	256.06	10.33	-28.5	-30.8	12.9	4.46e-04	0	42	0	1478492160	17	4667
2026-01-11 02:10:30.47	255.96	10.26	-28.4	-30.9	13.1	3.96e-03	0	42	0	1481637888	16	4830
2026-01-11 02:10:31.47	255.86	10.19	-28.3	-30.8	13.2	6.70e-03	0	42	0	1484783616	16	4790
2026-01-11 02:10:32.48	255.76	10.11	-28.3	-30.6	13.3	1.37e-05	0	42	0	1487929344	16	4738
2026-01-11 02:10:33.48	255.66	10.04	-28.3	-30.8	13.2	3.66e-05	0	42	0	1491075072	16	4788
2026-01-11 02:10:34.49	255.55	9.97	-27.9	-30.2	13.6	2.28e-05	0	42	0	1494220800	15	4734
2026-01-11 02:10:35.49	255.46	9.90	-27.6	-29.7	13.9	6.75e-03	0	42	0	1497366528	15	4574
2026-01-11 02:10:36.50	255.36	9.82	-27.6	-29.7	14.0	3.87e-03	0	42	0	1500512256	15	4554
2026-01-11 02:10:37.51	255.26	9.75	-27.6	-29.6	14.0	5.79e-03	0	42	0	1503657984	15	4544
2026-01-11 02:10:38.52	255.16	9.68	-27.5	-29.5	14.1	3.00e-06	0	42	0	1506803712	15	4491
2026-01-11 02:10:39.53	255.06	9.60	-27.5	-29.5	14.0	1.50e-06	0	42	0	1509949440	15	4497
2026-01-11 02:10:40.53	254.96	9.53	-27.7	-29.8	13.8	5.11e-03	0	42	0	1513095168	15	4596
2026-01-11 02:10:41.53	254.87	9.46	-27.7	-29.8	13.8	4.16e-03	0	42	0	1516240896	15	4602
2026-01-11 02:10:42.54	254.77	9.39	-27.8	-30.1	13.7	5.87e-05	0	42	0	1519386624	15	4687
2026-01-11 02:10:43.54	254.67	9.32	-28.1	-30.3	13.4	2.10e-04	0	42	0	1522532352	16	4617
2026-01-11 02:10:44.55	254.58	9.25	-28.1	-30.3	13.4	2.78e-04	0	42	0	1525678080	16	4624
2026-01-11 02:10:45.56	254.48	9.17	-28.2	-30.6	13.3	3.17e-04	0	42	0	1528823808	16	4722
2026-01-11 02:10:46.56	254.39	9.10	-28.4	-31.0	13.0	3.89e-03	0	42	0	1531969536	16	4862
2026-01-11 02:10:47.57	254.29	9.03	-28.4	-31.0	13.0	5.39e-03	0	42	0	1535115264	16	4846
2026-01-11 02:10:48.57	254.20	8.96	-28.4	-31.1	13.0	8.30e-04	0	42	0	1538260992	16	4884
2026-01-11 02:10:49.58	254.11	8.89	-28.6	-31.1	12.6	9.30e-05	0	42	0	1541406720	17	4780
2026-01-11 02:10:50.58	254.02	8.82	-28.7	-31.2	12.6	6.34e-03	0	42	0	1544552448	17	4821
2026-01-11 02:10:51.58	253.92	8.75	-28.6	-31.0	12.6	1.81e-03	0	42	0	1547698176	17	4764
2026-01-11 02:10:52.59	253.83	8.68	-28.6	-31.0	12.7	5.12e-03	0	42	0	1550843904	17	4747
2026-01-11 02:10:53.60	253.74	8.61	-28.6	-30.9	12.7	4.90e-03	0	42	0	1553989632	17	4728
2026-01-11 02:10:54.60	253.65	8.54	-28.5	-30.8	12.8	7.24e-05	0	42	0	1557135360	17	4672
2026-01-11 02:10:55.61	253.56	8.47	-28.5	-30.9	12.7	6.79e-05	0	42	0	1560281088	17	4712
2026-01-11 02:10:56.61	253.47	8.40	-28.5	-30.8	12.7	6.48e-05	0	42	0	1563426816	17	4688
2026-01-11 02:10:57.62	253.38	8.33	-28.4	-31.0	13.0	2.05e-03	0	42	0	1566572544	16	4854
2026-01-11 02:10:58.63	253.29	8.26	-28.4	-31.1	12.9	5.27e-03	0	42	0	1569718272	16	4886
2026-01-11 02:10:59.63	253.20	8.19	-28.3	-30.7	13.1	3.20e-05	0	42	0	1572864000	16	4756
2026-01-11 02:11:00.64	253.12	8.12	-28.3	-30.9	12.9	4.04e-05	0	42	0	1576009728	16	4834
2026-01-11 02:11:01.64	253.03	8.05	-28.4	-31.0	12.8	4.57e-05	0	42	0	1579155456	16	4879
2026-01-11 02:11:02.64	252.94	7.98	-28.3	-30.9	12.9	6.22e-03	0	42	0	1582301184	16	4852
2026-01-11 02:11:03.65	252.85	7.91	-28.3	-30.8	13.0	2.39e-03	0	42	0	1585446912	16	4806
2026-01-11 02:11:04.66	252.77	7.84	-28.3	-30.8	12.9	4.19e-05	0	42	0	1588592640	16	4811
2026-01-11 02:11:05.67	252.68	7.77	-28.3	-30.9	12.9	5.56e-05	0	42	0	1591738368	16	4838
2026-01-11 02:11:06.67	252.60	7.70	-28.5	-31.2	12.7	7.55e-05	0	42	0	1594884096	16	4956
2026-01-11 02:11:07.68	252.51	7.63	-28.5	-31.2	12.7	7.93e-05	0	42	0	1598029824	16	4949
2026-01-11 02:11:08.69	252.43	7.57	-28.5	-31.0	12.5	3.53e-03	0	42	0	1601175552	17	4757
2026-01-11 02:11:09.69	252.34	7.50	-28.8	-31.6	12.1	1.43e-04	0	42	0	1604321280	17	4977
2026-01-11 02:11:10.70	252.26	7.43	-28.8	-31.5	12.1	2.85e-04	0	42	0	1607467008	17	4953
2026-01-11 02:11:11.71	252.17	7.36	-28.7	-31.3	12.3	2.23e-04	0	42	0	1610612736	17	4865
2026-01-11 02:11:12.72	252.09	7.29	-28.6	-31.2	12.3	1.42e-04	0	42	0	1613758464	17	4854
2026-01-11 02:11:13.72	252.01	7.22	-28.6	-31.2	12.3	1.52e-04	0	42	0	1616904192	17	4846
2026-01-11 02:11:14.73	251.93	7.16	-29.0	-32.1	11.7	4.70e-04	0	42	0	1620049920	17	5149
2026-01-11 02:11:15.74	251.84	7.09	-29.0	-32.1	11.7	4.26e-04	0	42	0	1623195648	17	5169
2026-01-11 02:11:16.75	251.76	7.02	-32.7	-44.5	3.8	1.09e+00	0	42	104	1625292800	25	13892

#Closed at: 2026-01-11 02:11:17
#Recorded file [1625 MB]: D:/data/31010_260111_050235.dat