passes_logs/2026/01/11/R2M6_AANII_01/R2M6_AANII_01__20260111_114237_FENGYUN_3D_rec.log

#Pass ID: 20260111_114237_FENGYUN 3D
#Satellite: FENGYUN 3D
#Configuration: FENGYUN 3D
#almurnet v.1.7.20240730
#Start time: 2026-01-11 11:42:37

#Version: 2.2.20231116
#Station: R2M6_AANII_01
#Location: 30.233357 lon 59.946436 lat
#TLE: 1 43010U 17072A   26009.92921666 -.00000228  00000+0 -86059-4 0  9998
#TLE: 2 43010  98.9936 341.6668 0002176 116.7510 243.3888 14.19693142422537

#Time	Az	El	Level	Level2	SNR	BER	BlckErr	Temp	State	Recorded	gain1	gain2
2026-01-11 11:42:37.25	140.14	7.01	-28.9	-31.0	5.5	7.82e-01	0	40	0	0	19	4604
2026-01-11 11:42:38.25	140.11	7.09	-29.7	-33.4	5.3	7.92e-01	0	40	104	0	19	5492
2026-01-11 11:42:39.25	140.08	7.16	-29.7	-33.2	9.4	2.16e-02	0	39	0	0	19	5397
2026-01-11 11:42:40.25	140.05	7.24	-29.4	-32.2	10.1	8.26e-03	0	40	0	5242880	19	5005
2026-01-11 11:42:41.25	140.02	7.32	-29.5	-32.6	9.8	1.64e-02	0	39	0	10485760	19	5157
2026-01-11 11:42:42.24	139.99	7.39	-29.2	-31.7	10.4	6.52e-03	0	40	0	16777216	19	4817
2026-01-11 11:42:43.23	139.96	7.47	-29.0	-31.3	10.7	5.10e-03	0	40	0	22020096	19	4689
2026-01-11 11:42:44.23	139.93	7.55	-28.7	-30.9	11.3	1.68e-03	0	40	0	27262976	18	4658
2026-01-11 11:42:45.23	139.90	7.62	-28.6	-30.6	11.5	1.09e-03	0	40	0	33554432	18	4560
2026-01-11 11:42:46.23	139.87	7.70	-28.2	-30.3	12.0	6.30e-04	0	40	0	38797312	17	4567
2026-01-11 11:42:47.23	139.84	7.78	-28.2	-30.2	12.1	4.02e-04	0	40	0	44040192	17	4541
2026-01-11 11:42:48.25	139.81	7.86	-28.2	-30.3	12.0	4.07e-04	0	40	0	50331648	17	4573
2026-01-11 11:42:49.25	139.78	7.94	-28.6	-31.1	11.5	1.14e-03	0	40	0	55574528	17	4833
2026-01-11 11:42:50.26	139.74	8.02	-28.1	-30.0	12.2	5.22e-04	0	40	0	61865984	17	4470
2026-01-11 11:42:51.26	139.71	8.10	-27.9	-29.5	12.5	1.83e-04	0	40	0	67108864	17	4326
2026-01-11 11:42:52.26	139.68	8.18	-27.5	-29.1	13.1	5.37e-05	0	40	0	73400320	16	4301
2026-01-11 11:42:53.26	139.65	8.26	-27.3	-28.5	13.5	1.60e-05	0	40	0	78643200	16	4148
2026-01-11 11:42:54.27	139.62	8.34	-27.1	-28.5	13.6	1.60e-05	0	40	0	83886080	15	4266
2026-01-11 11:42:55.26	139.58	8.42	-26.9	-28.2	13.8	6.80e-06	0	40	0	90177536	15	4180
2026-01-11 11:42:56.26	139.55	8.50	-26.8	-28.0	13.9	1.02e-05	0	40	0	95420416	15	4120
2026-01-11 11:42:57.26	139.52	8.58	-26.8	-28.3	14.0	6.80e-06	0	40	0	100663296	14	4313
2026-01-11 11:42:58.27	139.48	8.66	-26.7	-28.2	14.1	2.20e-06	0	40	0	106954752	14	4284
2026-01-11 11:42:59.27	139.45	8.74	-26.8	-28.4	14.0	4.50e-06	0	40	0	112197632	14	4342
2026-01-11 11:43:00.27	139.42	8.82	-26.8	-28.5	13.9	5.70e-06	0	40	0	117440512	14	4367
2026-01-11 11:43:01.27	139.38	8.91	-26.7	-28.3	14.1	1.10e-06	0	40	0	123731968	14	4300
2026-01-11 11:43:02.28	139.35	8.99	-26.8	-28.3	14.0	3.40e-06	0	40	0	128974848	14	4325
2026-01-11 11:43:03.29	139.31	9.07	-26.9	-28.7	13.8	4.50e-06	0	40	0	135266304	14	4426
2026-01-11 11:43:04.29	139.28	9.16	-26.9	-28.6	13.9	1.25e-05	0	40	0	140509184	14	4402
2026-01-11 11:43:05.30	139.24	9.24	-26.9	-28.6	13.9	5.70e-06	0	40	0	145752064	14	4389
2026-01-11 11:43:06.30	139.21	9.32	-26.9	-28.6	13.9	9.10e-06	0	40	0	152043520	14	4400
2026-01-11 11:43:07.30	139.17	9.41	-26.9	-28.6	13.9	5.70e-06	0	40	0	157286400	14	4398
2026-01-11 11:43:08.29	139.14	9.49	-26.8	-28.5	14.0	8.00e-06	0	40	0	162529280	14	4363
2026-01-11 11:43:09.30	139.10	9.57	-26.8	-28.5	14.0	3.40e-06	0	40	0	168820736	14	4349
2026-01-11 11:43:10.30	139.07	9.66	-27.1	-29.0	13.7	4.50e-06	0	40	0	174063616	14	4503
2026-01-11 11:43:11.30	139.03	9.74	-26.8	-28.5	14.0	8.00e-06	0	40	0	179306496	14	4346
2026-01-11 11:43:12.30	138.99	9.83	-27.1	-29.1	13.6	6.80e-06	0	40	0	185597952	14	4527
2026-01-11 11:43:13.30	138.96	9.91	-26.8	-28.3	14.1	1.10e-06	0	41	0	190840832	14	4297
2026-01-11 11:43:14.31	138.92	10.00	-26.7	-28.1	14.3	2.20e-06	0	41	0	197132288	14	4253
2026-01-11 11:43:15.32	138.88	10.08	-27.0	-28.8	13.8	4.50e-06	0	41	0	202375168	14	4453
2026-01-11 11:43:16.33	138.85	10.17	-26.9	-28.7	13.9	9.10e-06	0	41	0	208666624	14	4427
2026-01-11 11:43:17.33	138.81	10.26	-26.8	-28.4	14.1	3.40e-06	0	41	0	213909504	14	4319
2026-01-11 11:43:18.34	138.77	10.34	-26.7	-28.2	14.2	0.00e+00	0	41	0	219152384	14	4266
2026-01-11 11:43:19.34	138.73	10.43	-26.8	-28.5	14.1	4.50e-06	0	41	0	225443840	14	4343
2026-01-11 11:43:20.35	138.69	10.52	-26.7	-28.3	14.2	5.70e-06	0	41	0	230686720	14	4291
2026-01-11 11:43:21.36	138.65	10.61	-26.8	-28.5	14.1	4.50e-06	0	41	0	236978176	14	4347
2026-01-11 11:43:22.37	138.62	10.70	-26.8	-28.4	14.1	1.10e-06	0	41	0	242221056	14	4332
2026-01-11 11:43:23.37	138.58	10.78	-26.8	-28.3	14.2	3.40e-06	0	41	0	247463936	14	4314
2026-01-11 11:43:24.38	138.54	10.87	-27.0	-28.9	13.8	8.00e-06	0	41	0	253755392	14	4480
2026-01-11 11:43:25.39	138.50	10.96	-27.0	-28.8	13.9	6.80e-06	0	41	0	258998272	14	4448
2026-01-11 11:43:26.39	138.46	11.05	-26.8	-28.3	14.2	5.70e-06	0	41	0	264241152	14	4295
2026-01-11 11:43:27.39	138.42	11.14	-26.5	-27.7	14.5	1.10e-06	0	41	0	270532608	14	4147
2026-01-11 11:43:28.40	138.38	11.23	-26.5	-27.7	14.5	1.10e-06	0	41	0	275775488	14	4148
2026-01-11 11:43:29.40	138.34	11.32	-26.6	-27.9	14.5	0.00e+00	0	41	0	282066944	14	4177
2026-01-11 11:43:30.39	138.30	11.41	-26.5	-27.7	14.5	1.10e-06	0	41	0	287309824	14	4146
2026-01-11 11:43:31.39	138.25	11.50	-26.5	-27.7	14.6	2.20e-06	0	41	0	292552704	14	4121
2026-01-11 11:43:32.38	138.21	11.59	-26.4	-27.5	14.7	1.10e-06	0	41	0	298844160	14	4077
2026-01-11 11:43:33.38	138.17	11.68	-26.4	-27.6	14.7	0.00e+00	0	41	0	304087040	14	4092
2026-01-11 11:43:34.38	138.13	11.77	-26.3	-27.2	14.9	0.00e+00	0	41	0	309329920	14	4002
2026-01-11 11:43:35.38	138.09	11.87	-26.3	-27.3	14.9	0.00e+00	0	41	0	315621376	14	4019
2026-01-11 11:43:36.39	138.05	11.96	-26.3	-27.3	14.8	0.00e+00	0	41	0	320864256	14	4035
2026-01-11 11:43:37.40	138.00	12.05	-26.6	-27.8	14.6	0.00e+00	0	41	0	326107136	14	4153
2026-01-11 11:43:38.40	137.96	12.14	-26.3	-27.3	14.9	0.00e+00	0	41	0	332398592	14	4019
2026-01-11 11:43:39.40	137.92	12.24	-26.3	-27.7	14.9	0.00e+00	0	41	0	337641472	13	4235
2026-01-11 11:43:40.41	137.87	12.33	-26.4	-27.9	14.8	0.00e+00	0	41	0	343932928	13	4292
2026-01-11 11:43:41.40	137.83	12.42	-26.2	-27.5	15.0	0.00e+00	0	41	0	349175808	13	4178
2026-01-11 11:43:42.40	137.78	12.52	-26.2	-27.6	15.0	0.00e+00	0	41	0	354418688	13	4199
2026-01-11 11:43:43.39	137.74	12.61	-26.1	-27.4	15.1	0.00e+00	0	41	0	360710144	13	4142
2026-01-11 11:43:44.39	137.70	12.71	-26.2	-27.5	15.0	0.00e+00	0	41	0	365953024	13	4172
2026-01-11 11:43:45.39	137.65	12.80	-26.4	-27.9	14.8	1.10e-06	0	41	0	371195904	13	4289
2026-01-11 11:43:46.40	137.61	12.90	-26.3	-27.8	14.8	0.00e+00	0	41	0	377487360	13	4280
2026-01-11 11:43:47.39	137.56	12.99	-26.2	-27.4	15.1	0.00e+00	0	41	0	382730240	13	4167
2026-01-11 11:43:48.40	137.51	13.09	-26.1	-27.3	15.1	1.10e-06	0	41	0	387973120	13	4143
2026-01-11 11:43:49.40	137.47	13.19	-26.0	-27.2	15.2	0.00e+00	0	41	0	394264576	13	4097
2026-01-11 11:43:50.41	137.42	13.29	-26.1	-27.2	15.2	4.50e-06	0	41	0	399507456	13	4094
2026-01-11 11:43:51.42	137.37	13.38	-26.0	-27.0	15.3	0.00e+00	0	41	0	405798912	13	4042
2026-01-11 11:43:52.43	137.32	13.48	-26.0	-26.9	15.4	0.00e+00	0	41	0	411041792	13	4028
2026-01-11 11:43:53.43	137.28	13.58	-26.0	-27.1	15.3	3.40e-06	0	41	0	417333248	13	4069
2026-01-11 11:43:54.42	137.23	13.68	-26.0	-27.0	15.3	0.00e+00	0	41	0	422576128	13	4060
2026-01-11 11:43:55.41	137.18	13.78	-26.0	-27.0	15.3	0.00e+00	0	41	0	427819008	13	4044
2026-01-11 11:43:56.40	137.13	13.87	-25.9	-26.9	15.4	0.00e+00	0	41	0	433061888	13	4012
2026-01-11 11:43:57.41	137.08	13.97	-25.9	-26.9	15.4	0.00e+00	0	41	0	439353344	13	4025
2026-01-11 11:43:58.40	137.04	14.07	-26.0	-27.1	15.3	1.10e-06	0	41	0	444596224	13	4083
2026-01-11 11:43:59.41	136.99	14.17	-26.0	-27.0	15.4	0.00e+00	0	41	0	450887680	13	4037
2026-01-11 11:44:00.40	136.94	14.27	-25.9	-26.9	15.4	0.00e+00	0	41	0	456130560	13	4017
2026-01-11 11:44:01.40	136.89	14.38	-25.9	-26.9	15.4	0.00e+00	0	41	0	461373440	13	4039
2026-01-11 11:44:02.40	136.83	14.48	-26.0	-27.1	15.3	0.00e+00	0	41	0	467664896	13	4064
2026-01-11 11:44:03.41	136.78	14.58	-25.9	-26.9	15.4	0.00e+00	0	41	0	472907776	13	4022
2026-01-11 11:44:04.40	136.73	14.68	-25.9	-26.8	15.5	0.00e+00	0	41	0	478150656	13	3995
2026-01-11 11:44:05.41	136.68	14.79	-26.0	-27.1	15.4	0.00e+00	0	41	0	484442112	13	4063
2026-01-11 11:44:06.41	136.63	14.89	-26.0	-27.1	15.4	0.00e+00	0	41	0	489684992	13	4069
2026-01-11 11:44:07.42	136.57	14.99	-25.9	-26.7	15.6	0.00e+00	0	41	0	495976448	13	3980
2026-01-11 11:44:08.43	136.52	15.10	-25.9	-26.8	15.5	2.20e-06	0	41	0	501219328	13	3999
2026-01-11 11:44:09.43	136.47	15.20	-25.9	-26.9	15.5	0.00e+00	0	41	0	506462208	13	4015
2026-01-11 11:44:10.44	136.41	15.31	-25.7	-26.9	15.8	0.00e+00	0	41	0	512753664	12	4129
2026-01-11 11:44:11.45	136.36	15.42	-25.8	-27.0	15.8	2.20e-06	0	41	0	517996544	12	4137
2026-01-11 11:44:12.46	136.30	15.52	-25.7	-26.9	15.8	0.00e+00	0	41	0	524288000	12	4125
2026-01-11 11:44:13.46	136.25	15.63	-25.7	-26.9	15.8	0.00e+00	0	41	0	529530880	12	4125
2026-01-11 11:44:14.46	136.19	15.74	-25.9	-27.3	15.5	0.00e+00	0	41	0	534773760	12	4231
2026-01-11 11:44:15.46	136.14	15.84	-25.9	-27.2	15.6	0.00e+00	0	41	0	541065216	12	4189
2026-01-11 11:44:16.47	136.08	15.95	-25.5	-26.5	16.0	0.00e+00	0	41	0	546308096	12	4019
2026-01-11 11:44:17.47	136.02	16.06	-25.4	-26.3	16.1	0.00e+00	0	41	0	552599552	12	3957
2026-01-11 11:44:18.48	135.97	16.17	-25.4	-26.1	16.3	0.00e+00	0	41	0	557842432	12	3917
2026-01-11 11:44:19.48	135.91	16.28	-25.3	-26.0	16.3	0.00e+00	0	41	0	563085312	12	3901
2026-01-11 11:44:20.48	135.85	16.39	-25.5	-26.9	16.2	0.00e+00	0	41	0	569376768	11	4223
2026-01-11 11:44:21.49	135.79	16.50	-25.6	-27.0	16.1	0.00e+00	0	41	0	574619648	11	4256
2026-01-11 11:44:22.50	135.73	16.61	-25.5	-26.8	16.2	0.00e+00	0	41	0	579862528	11	4193
2026-01-11 11:44:23.51	135.67	16.72	-25.5	-26.9	16.2	0.00e+00	0	41	0	586153984	11	4231
2026-01-11 11:44:24.51	135.61	16.83	-25.3	-26.4	16.5	0.00e+00	0	41	0	591396864	11	4092
2026-01-11 11:44:25.52	135.55	16.94	-25.2	-26.3	16.5	0.00e+00	0	41	0	597688320	11	4068
2026-01-11 11:44:26.52	135.49	17.06	-25.2	-26.2	16.6	0.00e+00	0	41	0	602931200	11	4050
2026-01-11 11:44:27.53	135.43	17.17	-25.3	-26.4	16.5	0.00e+00	0	41	0	608174080	11	4090
2026-01-11 11:44:28.53	135.37	17.28	-25.4	-26.7	16.4	0.00e+00	0	41	0	614465536	11	4161
2026-01-11 11:44:29.54	135.30	17.40	-25.4	-26.7	16.3	0.00e+00	0	41	0	619708416	11	4179
2026-01-11 11:44:30.55	135.24	17.51	-25.3	-26.4	16.5	0.00e+00	0	41	0	625999872	11	4095
2026-01-11 11:44:31.55	135.18	17.63	-25.2	-26.2	16.6	0.00e+00	0	41	0	631242752	11	4046
2026-01-11 11:44:32.56	135.11	17.74	-25.2	-26.1	16.6	0.00e+00	0	41	0	637534208	11	4032
2026-01-11 11:44:33.57	135.05	17.86	-25.3	-26.4	16.5	0.00e+00	0	41	0	642777088	11	4109
2026-01-11 11:44:34.57	134.98	17.98	-25.2	-26.2	16.6	0.00e+00	0	41	0	648019968	11	4043
2026-01-11 11:44:35.58	134.92	18.10	-25.3	-26.5	16.5	0.00e+00	0	41	0	654311424	11	4105
2026-01-11 11:44:36.58	134.85	18.21	-25.3	-26.4	16.5	0.00e+00	0	41	0	659554304	11	4100
2026-01-11 11:44:37.59	134.78	18.33	-24.9	-25.7	17.0	0.00e+00	0	42	0	664797184	11	3910
2026-01-11 11:44:38.60	134.72	18.45	-24.8	-25.4	17.1	0.00e+00	0	42	0	671088640	11	3840
2026-01-11 11:44:39.59	134.65	18.57	-24.8	-25.4	17.1	0.00e+00	0	42	0	676331520	11	3842
2026-01-11 11:44:40.60	134.58	18.69	-24.7	-25.7	17.2	0.00e+00	0	42	0	681574400	10	4034
2026-01-11 11:44:41.60	134.51	18.81	-24.9	-26.1	17.0	0.00e+00	0	42	0	687865856	10	4124
2026-01-11 11:44:42.61	134.44	18.93	-24.8	-25.9	17.1	0.00e+00	0	41	0	693108736	10	4067
2026-01-11 11:44:43.62	134.37	19.05	-24.6	-25.5	17.4	0.00e+00	0	41	0	699400192	10	3967
2026-01-11 11:44:44.63	134.30	19.18	-24.6	-25.5	17.4	0.00e+00	0	41	0	704643072	10	3966
2026-01-11 11:44:45.63	134.23	19.30	-24.6	-25.4	17.4	0.00e+00	0	41	0	710934528	10	3939
2026-01-11 11:44:46.63	134.16	19.42	-24.6	-25.3	17.5	0.00e+00	0	42	0	716177408	10	3936
2026-01-11 11:44:47.64	134.09	19.54	-24.6	-25.4	17.4	0.00e+00	0	41	0	721420288	10	3963
2026-01-11 11:44:48.65	134.01	19.67	-24.6	-25.3	17.5	0.00e+00	0	41	0	727711744	10	3926
2026-01-11 11:44:49.65	133.94	19.79	-24.6	-25.3	17.5	0.00e+00	0	41	0	732954624	10	3922
2026-01-11 11:44:50.66	133.86	19.92	-24.5	-25.2	17.5	0.00e+00	0	42	0	739246080	10	3914
2026-01-11 11:44:51.67	133.79	20.05	-24.6	-25.3	17.5	0.00e+00	0	42	0	744488960	10	3928
2026-01-11 11:44:52.68	133.71	20.17	-24.5	-25.3	17.5	0.00e+00	0	42	0	749731840	10	3926
2026-01-11 11:44:53.68	133.64	20.30	-24.6	-25.5	17.4	0.00e+00	0	42	0	756023296	10	3984
2026-01-11 11:44:54.68	133.56	20.43	-24.6	-25.4	17.5	0.00e+00	0	42	0	761266176	10	3952
2026-01-11 11:44:55.68	133.48	20.56	-24.4	-25.0	17.7	0.00e+00	0	41	0	766509056	10	3863
2026-01-11 11:44:56.68	133.41	20.68	-24.3	-24.8	17.8	0.00e+00	0	42	0	772800512	10	3811
2026-01-11 11:44:57.69	133.33	20.81	-24.4	-25.1	17.6	0.00e+00	0	42	0	778043392	10	3875
2026-01-11 11:44:58.70	133.25	20.94	-24.3	-24.8	17.8	0.00e+00	0	42	0	784334848	10	3815
2026-01-11 11:44:59.71	133.17	21.08	-24.2	-25.1	17.9	0.00e+00	0	42	0	789577728	9	3980
2026-01-11 11:45:00.71	133.08	21.21	-24.2	-25.1	17.9	0.00e+00	0	42	0	795869184	9	3982
2026-01-11 11:45:01.71	133.00	21.34	-24.2	-25.0	18.0	0.00e+00	0	42	0	801112064	9	3949
2026-01-11 11:45:02.71	132.92	21.47	-24.1	-24.9	18.0	0.00e+00	0	42	0	806354944	9	3942
2026-01-11 11:45:03.71	132.84	21.60	-24.2	-25.1	17.9	0.00e+00	0	42	0	812646400	9	3991
2026-01-11 11:45:04.71	132.76	21.74	-24.2	-25.1	17.9	0.00e+00	0	42	0	817889280	9	3998
2026-01-11 11:45:05.71	132.67	21.87	-24.1	-24.8	18.0	0.00e+00	0	41	0	823132160	9	3922
2026-01-11 11:45:06.72	132.59	22.01	-24.0	-24.7	18.2	0.00e+00	0	42	0	829423616	9	3884
2026-01-11 11:45:07.73	132.50	22.14	-24.0	-24.6	18.2	0.00e+00	0	42	0	834666496	9	3857
2026-01-11 11:45:08.74	132.41	22.28	-24.0	-24.7	18.1	0.00e+00	0	42	0	839909376	9	3879
2026-01-11 11:45:09.74	132.32	22.42	-23.9	-24.4	18.3	0.00e+00	0	41	0	846200832	9	3817
2026-01-11 11:45:10.74	132.24	22.55	-23.8	-24.3	18.3	2.20e-06	0	42	0	851443712	9	3783
2026-01-11 11:45:11.75	132.15	22.69	-23.8	-24.3	18.4	0.00e+00	0	42	0	857735168	9	3788
2026-01-11 11:45:12.76	132.06	22.83	-24.0	-24.6	18.2	0.00e+00	0	42	0	862978048	9	3862
2026-01-11 11:45:13.77	131.96	22.97	-24.0	-24.5	18.2	0.00e+00	0	42	0	869269504	9	3845
2026-01-11 11:45:14.77	131.87	23.11	-24.0	-24.6	18.2	0.00e+00	0	42	0	874512384	9	3867
2026-01-11 11:45:15.78	131.78	23.26	-23.9	-24.5	18.3	0.00e+00	0	42	0	879755264	9	3830
2026-01-11 11:45:16.78	131.69	23.40	-23.8	-24.3	18.4	0.00e+00	0	42	0	886046720	9	3787
2026-01-11 11:45:17.79	131.59	23.54	-23.9	-24.4	18.3	0.00e+00	0	42	0	891289600	9	3823
2026-01-11 11:45:18.79	131.50	23.68	-23.8	-24.2	18.4	0.00e+00	0	42	0	896532480	9	3781
2026-01-11 11:45:19.80	131.40	23.83	-23.8	-24.2	18.4	0.00e+00	0	42	0	902823936	9	3775
2026-01-11 11:45:20.80	131.30	23.97	-23.9	-24.4	18.3	0.00e+00	0	42	0	908066816	9	3823
2026-01-11 11:45:21.81	131.20	24.12	-24.1	-24.8	18.2	0.00e+00	0	42	0	914358272	9	3905
2026-01-11 11:45:22.82	131.10	24.27	-23.9	-24.3	18.4	0.00e+00	0	42	0	919601152	9	3800
2026-01-11 11:45:23.82	131.00	24.41	-23.9	-24.3	18.4	0.00e+00	0	41	0	925892608	9	3799
2026-01-11 11:45:24.83	130.90	24.56	-23.8	-24.3	18.4	0.00e+00	0	42	0	931135488	9	3786
2026-01-11 11:45:25.84	130.80	24.71	-24.1	-24.8	18.2	1.10e-06	0	42	0	936378368	9	3901
2026-01-11 11:45:26.85	130.70	24.86	-23.9	-24.5	18.3	0.00e+00	0	42	0	942669824	9	3836
2026-01-11 11:45:27.86	130.59	25.01	-23.7	-24.6	18.5	0.00e+00	0	42	0	947912704	8	3964
2026-01-11 11:45:28.86	130.49	25.16	-23.9	-24.8	18.4	0.00e+00	0	42	0	954204160	8	4028
2026-01-11 11:45:29.87	130.38	25.31	-23.7	-24.4	18.6	0.00e+00	0	42	0	959447040	8	3922
2026-01-11 11:45:30.88	130.27	25.47	-23.5	-24.1	18.8	0.00e+00	0	42	0	964689920	8	3860
2026-01-11 11:45:31.88	130.17	25.62	-23.6	-24.2	18.8	0.00e+00	0	42	0	970981376	8	3864
2026-01-11 11:45:32.89	130.06	25.77	-23.5	-24.1	18.8	0.00e+00	0	42	0	976224256	8	3847
2026-01-11 11:45:33.89	129.95	25.93	-23.5	-24.1	18.8	0.00e+00	0	42	0	981467136	8	3843
2026-01-11 11:45:34.90	129.83	26.08	-23.6	-24.3	18.7	2.20e-06	0	42	0	987758592	8	3908
2026-01-11 11:45:35.91	129.72	26.24	-23.5	-24.1	18.8	0.00e+00	0	42	0	993001472	8	3854
2026-01-11 11:45:36.91	129.61	26.40	-23.6	-24.3	18.7	0.00e+00	0	42	0	999292928	8	3894
2026-01-11 11:45:37.92	129.49	26.55	-23.8	-24.6	18.6	0.00e+00	0	42	0	1004535808	8	3971
2026-01-11 11:45:38.92	129.38	26.71	-23.5	-24.1	18.8	0.00e+00	0	42	0	1010827264	8	3857
2026-01-11 11:45:39.92	129.26	26.87	-23.5	-24.0	18.8	0.00e+00	0	42	0	1016070144	8	3836
2026-01-11 11:45:40.93	129.14	27.03	-23.6	-24.2	18.8	0.00e+00	0	42	0	1021313024	8	3881
2026-01-11 11:45:41.93	129.02	27.19	-23.5	-24.1	18.8	0.00e+00	0	42	0	1027604480	8	3860
2026-01-11 11:45:42.94	128.90	27.35	-23.8	-24.6	18.6	0.00e+00	0	42	0	1032847360	8	3976
2026-01-11 11:45:43.95	128.78	27.52	-23.5	-24.1	18.8	0.00e+00	0	42	0	1038090240	8	3848
2026-01-11 11:45:44.96	128.65	27.68	-23.3	-23.6	19.1	0.00e+00	0	42	0	1044381696	8	3731
2026-01-11 11:45:45.96	128.53	27.85	-23.2	-23.9	19.1	0.00e+00	0	42	0	1049624576	7	3918
2026-01-11 11:45:46.97	128.40	28.01	-23.2	-24.0	19.1	0.00e+00	0	42	0	1055916032	7	3921
2026-01-11 11:45:47.98	128.28	28.18	-23.3	-24.1	19.1	0.00e+00	0	42	0	1061158912	7	3963
2026-01-11 11:45:48.98	128.15	28.34	-23.2	-23.8	19.2	0.00e+00	0	42	0	1066401792	7	3892
2026-01-11 11:45:49.98	128.02	28.51	-23.2	-24.0	19.1	0.00e+00	0	42	0	1072693248	7	3937
2026-01-11 11:45:50.99	127.89	28.68	-23.1	-23.8	19.2	0.00e+00	0	42	0	1077936128	7	3881
2026-01-11 11:45:52.00	127.75	28.85	-23.2	-24.0	19.1	0.00e+00	0	42	0	1084227584	7	3922
2026-01-11 11:45:53.00	127.62	29.02	-23.2	-23.9	19.2	0.00e+00	0	42	0	1089470464	7	3899
2026-01-11 11:45:54.00	127.48	29.19	-23.3	-24.2	19.0	0.00e+00	0	42	0	1094713344	7	3983
2026-01-11 11:45:55.00	127.35	29.36	-23.3	-24.0	19.1	0.00e+00	0	42	0	1101004800	7	3940
2026-01-11 11:45:56.00	127.21	29.53	-23.3	-24.1	19.1	0.00e+00	0	42	0	1106247680	7	3947
2026-01-11 11:45:57.00	127.07	29.70	-23.1	-23.7	19.3	0.00e+00	0	42	0	1111490560	7	3848
2026-01-11 11:45:58.00	126.93	29.88	-23.1	-23.7	19.3	0.00e+00	0	42	0	1117782016	7	3855
2026-01-11 11:45:59.00	126.79	30.05	-23.0	-23.6	19.4	0.00e+00	0	42	0	1123024896	7	3827
2026-01-11 11:46:00.01	126.64	30.23	-23.2	-23.9	19.2	0.00e+00	0	42	0	1129316352	7	3907
2026-01-11 11:46:01.02	126.49	30.41	-23.0	-23.5	19.4	0.00e+00	0	42	0	1134559232	7	3809
2026-01-11 11:46:02.03	126.34	30.58	-22.9	-23.3	19.5	0.00e+00	0	42	0	1139802112	7	3760
2026-01-11 11:46:03.03	126.19	30.76	-23.0	-23.4	19.4	0.00e+00	0	42	0	1146093568	7	3795
2026-01-11 11:46:04.03	126.04	30.94	-22.9	-23.4	19.5	0.00e+00	0	42	0	1151336448	7	3787
2026-01-11 11:46:05.03	125.89	31.12	-22.8	-23.1	19.6	0.00e+00	0	42	0	1157627904	7	3720
2026-01-11 11:46:06.04	125.73	31.30	-22.7	-23.4	19.7	0.00e+00	0	42	0	1162870784	6	3887
2026-01-11 11:46:07.05	125.58	31.49	-22.8	-23.5	19.6	0.00e+00	0	42	0	1168113664	6	3932
2026-01-11 11:46:08.05	125.42	31.67	-22.7	-23.4	19.7	0.00e+00	0	42	0	1174405120	6	3906
2026-01-11 11:46:09.06	125.26	31.85	-23.0	-24.0	19.4	0.00e+00	0	42	0	1179648000	6	4032
2026-01-11 11:46:10.07	125.09	32.04	-22.9	-23.7	19.6	0.00e+00	0	42	0	1185939456	6	3976
2026-01-11 11:46:11.07	124.93	32.22	-23.0	-23.9	19.5	0.00e+00	0	42	0	1191182336	6	4019
2026-01-11 11:46:12.08	124.76	32.41	-23.0	-24.0	19.4	0.00e+00	0	42	0	1196425216	6	4040
2026-01-11 11:46:13.08	124.60	32.60	-22.9	-23.8	19.5	0.00e+00	0	42	0	1202716672	6	3983
2026-01-11 11:46:14.08	124.43	32.78	-23.0	-24.0	19.4	0.00e+00	0	42	0	1207959552	6	4029
2026-01-11 11:46:15.08	124.26	32.97	-23.0	-23.9	19.5	0.00e+00	0	42	0	1213202432	6	4019
2026-01-11 11:46:16.09	124.08	33.16	-23.2	-24.4	19.3	0.00e+00	0	42	0	1219493888	6	4132
2026-01-11 11:46:17.09	123.91	33.35	-22.9	-23.7	19.6	0.00e+00	0	42	0	1224736768	6	3965
2026-01-11 11:46:18.09	123.73	33.55	-22.7	-23.3	19.8	0.00e+00	0	42	0	1231028224	6	3877
2026-01-11 11:46:19.09	123.55	33.74	-22.6	-23.2	19.8	0.00e+00	0	42	0	1236271104	6	3851
2026-01-11 11:46:20.10	123.36	33.93	-22.6	-23.2	19.8	0.00e+00	0	42	0	1241513984	6	3847
2026-01-11 11:46:21.11	123.18	34.13	-22.7	-23.4	19.7	0.00e+00	0	42	0	1247805440	6	3908
2026-01-11 11:46:22.11	122.99	34.32	-22.6	-23.2	19.9	0.00e+00	0	42	0	1253048320	6	3846
2026-01-11 11:46:23.12	122.80	34.52	-22.6	-23.2	19.8	0.00e+00	0	42	0	1259339776	6	3844
2026-01-11 11:46:24.12	122.61	34.71	-22.7	-23.4	19.7	0.00e+00	0	42	0	1264582656	6	3891
2026-01-11 11:46:25.12	122.42	34.91	-22.6	-23.1	19.9	0.00e+00	0	42	0	1269825536	6	3829
2026-01-11 11:46:26.12	122.22	35.11	-22.6	-23.2	19.8	0.00e+00	0	42	0	1276116992	6	3841
2026-01-11 11:46:27.12	122.02	35.31	-22.8	-23.6	19.6	0.00e+00	0	42	0	1281359872	6	3943
2026-01-11 11:46:28.13	121.82	35.51	-22.9	-23.7	19.6	0.00e+00	0	42	0	1286602752	6	3975
2026-01-11 11:46:29.13	121.62	35.71	-23.0	-23.9	19.5	0.00e+00	0	42	0	1292894208	6	4018
2026-01-11 11:46:30.14	121.41	35.91	-23.0	-24.1	19.4	0.00e+00	0	42	0	1298137088	6	4052
2026-01-11 11:46:31.15	121.20	36.12	-22.9	-23.7	19.6	0.00e+00	0	42	0	1304428544	6	3974
2026-01-11 11:46:32.15	120.99	36.32	-22.8	-23.6	19.6	0.00e+00	0	42	0	1309671424	6	3953
2026-01-11 11:46:33.15	120.78	36.53	-23.0	-23.9	19.5	0.00e+00	0	42	0	1314914304	6	4027
2026-01-11 11:46:34.15	120.56	36.73	-22.9	-23.9	19.5	0.00e+00	0	42	0	1321205760	6	4010
2026-01-11 11:46:35.16	120.34	36.94	-22.8	-23.6	19.6	0.00e+00	0	42	0	1326448640	6	3953
2026-01-11 11:46:36.16	120.12	37.14	-22.9	-23.7	19.6	0.00e+00	0	42	0	1332740096	6	3977
2026-01-11 11:46:37.16	119.89	37.35	-22.9	-23.9	19.5	0.00e+00	0	42	0	1337982976	6	4007
2026-01-11 11:46:38.16	119.66	37.56	-23.0	-24.0	19.5	0.00e+00	0	42	0	1343225856	6	4033
2026-01-11 11:46:39.16	119.43	37.77	-22.8	-23.6	19.7	0.00e+00	0	42	0	1349517312	6	3948
2026-01-11 11:46:40.16	119.20	37.98	-22.9	-23.7	19.6	0.00e+00	0	42	0	1354760192	6	3978
2026-01-11 11:46:41.15	118.97	38.18	-23.0	-24.1	19.4	0.00e+00	0	42	0	1360003072	6	4066
2026-01-11 11:46:42.15	118.73	38.39	-23.0	-24.0	19.5	0.00e+00	0	42	0	1366294528	6	4041
2026-01-11 11:46:43.14	118.49	38.60	-22.9	-23.9	19.6	0.00e+00	0	42	0	1371537408	6	4012
2026-01-11 11:46:44.14	118.24	38.82	-23.0	-23.9	19.5	0.00e+00	0	42	0	1376780288	6	4013
2026-01-11 11:46:45.15	117.99	39.03	-23.0	-24.1	19.5	0.00e+00	0	42	0	1383071744	6	4054
2026-01-11 11:46:46.14	117.74	39.24	-22.7	-23.3	19.9	0.00e+00	0	42	0	1388314624	6	3857
2026-01-11 11:46:47.14	117.48	39.46	-22.5	-22.9	20.1	0.00e+00	0	42	0	1393557504	6	3776
2026-01-11 11:46:48.14	117.22	39.67	-22.5	-23.0	20.0	0.00e+00	0	42	0	1399848960	6	3793
2026-01-11 11:46:49.14	116.96	39.89	-22.7	-23.3	19.9	0.00e+00	0	42	0	1405091840	6	3869
2026-01-11 11:46:50.14	116.69	40.10	-22.7	-23.4	19.8	0.00e+00	0	42	0	1410334720	6	3902
2026-01-11 11:46:51.14	116.42	40.32	-22.9	-23.8	19.6	0.00e+00	0	42	0	1416626176	6	3999
2026-01-11 11:46:52.14	116.15	40.54	-23.0	-23.9	19.6	0.00e+00	0	42	0	1421869056	6	4018
2026-01-11 11:46:53.14	115.87	40.76	-23.0	-24.0	19.5	0.00e+00	0	42	0	1428160512	6	4040
2026-01-11 11:46:54.14	115.59	40.98	-22.9	-23.8	19.6	0.00e+00	0	42	0	1433403392	6	3999
2026-01-11 11:46:55.14	115.31	41.19	-23.0	-23.9	19.6	0.00e+00	0	42	0	1438646272	6	4012
2026-01-11 11:46:56.14	115.02	41.41	-22.9	-23.8	19.6	0.00e+00	0	42	0	1444937728	6	3984
2026-01-11 11:46:57.14	114.72	41.63	-23.0	-24.0	19.6	0.00e+00	0	42	0	1450180608	6	4030
2026-01-11 11:46:58.14	114.43	41.85	-23.0	-23.9	19.6	0.00e+00	0	42	0	1455423488	6	4022
2026-01-11 11:46:59.15	114.12	42.08	-23.0	-24.1	19.5	0.00e+00	0	42	0	1461714944	6	4057
2026-01-11 11:47:00.15	113.82	42.30	-23.1	-24.2	19.5	0.00e+00	0	42	0	1466957824	6	4079
2026-01-11 11:47:01.15	113.51	42.52	-22.9	-23.8	19.7	0.00e+00	0	42	0	1472200704	6	3983
2026-01-11 11:47:02.15	113.19	42.74	-22.7	-23.4	19.9	0.00e+00	0	42	0	1478492160	6	3890
2026-01-11 11:47:03.15	112.87	42.97	-22.8	-23.5	19.9	0.00e+00	0	42	0	1483735040	6	3914
2026-01-11 11:47:04.16	112.55	43.19	-22.7	-23.4	19.9	0.00e+00	0	42	0	1490026496	6	3902
2026-01-11 11:47:05.17	112.22	43.42	-23.0	-23.9	19.6	0.00e+00	0	42	0	1495269376	6	4016
2026-01-11 11:47:06.17	111.88	43.64	-22.9	-23.8	19.7	0.00e+00	0	42	0	1501560832	6	3988
2026-01-11 11:47:07.17	111.55	43.86	-22.8	-23.6	19.8	0.00e+00	0	42	0	1506803712	6	3945
2026-01-11 11:47:08.17	111.21	44.09	-22.8	-23.5	19.9	0.00e+00	0	42	0	1512046592	6	3917
2026-01-11 11:47:09.17	110.86	44.31	-23.0	-23.9	19.7	0.00e+00	0	42	0	1518338048	6	4002
2026-01-11 11:47:10.17	110.51	44.53	-22.7	-23.4	19.9	0.00e+00	0	42	0	1523580928	6	3895
2026-01-11 11:47:11.16	110.16	44.76	-22.8	-23.5	19.9	0.00e+00	0	42	0	1528823808	6	3910
2026-01-11 11:47:12.17	109.79	44.98	-23.0	-23.9	19.7	0.00e+00	0	42	0	1535115264	6	4004
2026-01-11 11:47:13.16	109.43	45.20	-23.0	-23.9	19.7	0.00e+00	0	42	0	1540358144	6	4009
2026-01-11 11:47:14.16	109.05	45.43	-23.1	-24.2	19.5	0.00e+00	0	42	0	1545601024	6	4082
2026-01-11 11:47:15.17	108.67	45.65	-23.0	-23.9	19.6	0.00e+00	0	42	0	1551892480	6	4019
2026-01-11 11:47:16.16	108.29	45.87	-23.0	-23.9	19.7	0.00e+00	0	42	0	1557135360	6	4008
2026-01-11 11:47:17.15	107.91	46.09	-23.3	-24.6	19.4	0.00e+00	0	42	0	1562378240	6	4182
2026-01-11 11:47:18.15	107.52	46.32	-23.5	-24.9	19.2	0.00e+00	0	42	0	1568669696	6	4267
2026-01-11 11:47:19.15	107.12	46.54	-23.9	-25.3	18.8	0.00e+00	0	42	0	1573912576	7	4251
2026-01-11 11:47:20.15	106.71	46.76	-23.6	-24.7	19.1	0.00e+00	0	42	0	1579155456	7	4092
2026-01-11 11:47:21.16	106.30	46.99	-23.3	-24.1	19.3	0.00e+00	0	42	0	1585446912	7	3953
2026-01-11 11:47:22.16	105.88	47.21	-23.2	-23.8	19.5	0.00e+00	0	42	0	1590689792	7	3880
2026-01-11 11:47:23.17	105.45	47.43	-23.3	-24.1	19.4	0.00e+00	0	42	0	1596981248	7	3938
2026-01-11 11:47:24.18	105.02	47.65	-23.4	-24.3	19.3	0.00e+00	0	42	0	1602224128	7	3987
2026-01-11 11:47:25.18	104.59	47.87	-23.5	-24.5	19.2	0.00e+00	0	42	0	1607467008	7	4046
2026-01-11 11:47:26.18	104.14	48.09	-23.8	-25.1	18.9	0.00e+00	0	42	0	1613758464	7	4185
2026-01-11 11:47:27.19	103.69	48.31	-23.6	-24.7	19.1	0.00e+00	0	42	0	1619001344	7	4099
2026-01-11 11:47:28.20	103.23	48.53	-23.4	-24.2	19.3	0.00e+00	0	42	0	1625292800	7	3981
2026-01-11 11:47:29.20	102.77	48.75	-23.3	-24.2	19.4	0.00e+00	0	42	0	1630535680	7	3956
2026-01-11 11:47:30.20	102.31	48.96	-23.6	-24.8	19.1	0.00e+00	0	42	0	1635778560	7	4114
2026-01-11 11:47:31.20	101.83	49.18	-23.6	-24.7	19.1	0.00e+00	0	42	0	1642070016	7	4081
2026-01-11 11:47:32.21	101.35	49.39	-23.7	-25.0	18.9	0.00e+00	0	42	0	1647312896	7	4164
2026-01-11 11:47:33.21	100.86	49.60	-23.8	-25.1	18.9	0.00e+00	0	42	0	1653604352	7	4198
2026-01-11 11:47:34.22	100.36	49.82	-23.7	-25.0	18.9	0.00e+00	0	42	0	1658847232	7	4167
2026-01-11 11:47:35.22	99.86	50.03	-24.0	-25.5	18.7	0.00e+00	0	42	0	1664090112	7	4293
2026-01-11 11:47:36.22	99.35	50.23	-24.2	-25.4	18.5	0.00e+00	0	42	0	1670381568	8	4161
2026-01-11 11:47:37.23	98.83	50.44	-24.3	-25.7	18.4	0.00e+00	0	42	0	1675624448	8	4241
2026-01-11 11:47:38.23	98.31	50.65	-24.3	-25.7	18.4	0.00e+00	0	42	0	1680867328	8	4235
2026-01-11 11:47:39.24	97.78	50.85	-24.2	-25.5	18.5	0.00e+00	0	42	0	1687158784	8	4184
2026-01-11 11:47:40.23	97.24	51.05	-24.4	-25.9	18.3	0.00e+00	0	42	0	1692401664	8	4286
2026-01-11 11:47:41.23	96.70	51.25	-24.2	-25.5	18.5	0.00e+00	0	42	0	1698693120	8	4172
2026-01-11 11:47:42.23	96.15	51.45	-23.9	-24.9	18.8	0.00e+00	0	42	0	1703936000	8	4036
2026-01-11 11:47:43.23	95.59	51.65	-23.7	-24.5	19.0	0.00e+00	0	42	0	1709178880	8	3929
2026-01-11 11:47:44.23	95.03	51.84	-23.9	-24.8	18.9	0.00e+00	0	42	0	1715470336	8	4004
2026-01-11 11:47:45.24	94.45	52.03	-24.0	-25.1	18.7	0.00e+00	0	42	0	1720713216	8	4070
2026-01-11 11:47:46.24	93.87	52.22	-23.9	-24.8	18.9	0.00e+00	0	42	0	1725956096	8	3995
2026-01-11 11:47:47.24	93.28	52.41	-23.8	-24.7	18.9	0.00e+00	0	42	0	1732247552	8	3992
2026-01-11 11:47:48.24	92.68	52.59	-23.7	-24.4	19.1	0.00e+00	0	42	0	1737490432	8	3898
2026-01-11 11:47:49.24	92.08	52.77	-23.6	-24.2	19.2	0.00e+00	0	42	0	1743781888	8	3857
2026-01-11 11:47:50.25	91.46	52.96	-24.0	-25.0	18.8	0.00e+00	0	42	0	1749024768	8	4049
2026-01-11 11:47:51.26	90.84	53.13	-24.2	-25.4	18.5	0.00e+00	0	42	0	1754267648	8	4162
2026-01-11 11:47:52.26	90.21	53.31	-24.4	-25.9	18.3	0.00e+00	0	42	0	1760559104	8	4291
2026-01-11 11:47:53.27	89.58	53.48	-24.3	-25.6	18.5	0.00e+00	0	42	0	1765801984	8	4202
2026-01-11 11:47:54.27	88.93	53.65	-24.4	-25.8	18.4	0.00e+00	0	42	0	1772093440	8	4242
2026-01-11 11:47:55.28	88.28	53.81	-24.1	-25.3	18.7	0.00e+00	0	42	0	1777336320	8	4126
2026-01-11 11:47:56.28	87.63	53.97	-24.0	-25.1	18.8	0.00e+00	0	42	0	1782579200	8	4068
2026-01-11 11:47:57.29	86.96	54.13	-24.2	-25.5	18.6	0.00e+00	0	42	0	1788870656	8	4165
2026-01-11 11:47:58.29	86.29	54.29	-24.0	-25.0	18.8	0.00e+00	0	42	0	1794113536	8	4043
2026-01-11 11:47:59.29	85.61	54.44	-23.4	-23.7	19.4	0.00e+00	0	42	0	1799356416	8	3746
2026-01-11 11:48:00.29	84.93	54.58	-23.2	-23.9	19.6	0.00e+00	0	42	0	1805647872	7	3897
2026-01-11 11:48:01.29	84.23	54.73	-23.4	-24.4	19.3	0.00e+00	0	42	0	1810890752	7	4011
2026-01-11 11:48:02.29	83.54	54.87	-23.3	-24.1	19.5	0.00e+00	0	42	0	1817182208	7	3937
2026-01-11 11:48:03.29	82.83	55.00	-23.1	-23.7	19.6	0.00e+00	0	42	0	1822425088	7	3859
2026-01-11 11:48:04.29	82.12	55.13	-23.4	-24.3	19.4	0.00e+00	0	42	0	1827667968	7	3989
2026-01-11 11:48:05.29	81.40	55.26	-23.3	-24.2	19.4	0.00e+00	0	42	0	1833959424	7	3961
2026-01-11 11:48:06.29	80.68	55.38	-23.3	-24.0	19.5	0.00e+00	0	42	0	1839202304	7	3926
2026-01-11 11:48:07.29	79.95	55.50	-23.5	-24.5	19.3	0.00e+00	0	42	0	1844445184	7	4042
2026-01-11 11:48:08.28	79.22	55.62	-23.5	-24.5	19.3	0.00e+00	0	42	0	1850736640	7	4034
2026-01-11 11:48:09.28	78.48	55.73	-23.5	-24.5	19.2	0.00e+00	0	42	0	1855979520	7	4041
2026-01-11 11:48:10.29	77.72	55.83	-23.7	-24.8	19.1	0.00e+00	0	42	0	1861222400	7	4119
2026-01-11 11:48:11.29	76.97	55.93	-23.7	-24.9	19.0	0.00e+00	0	42	0	1867513856	7	4158
2026-01-11 11:48:12.29	76.21	56.03	-23.6	-24.8	19.1	0.00e+00	0	42	0	1872756736	7	4108
2026-01-11 11:48:13.29	75.44	56.12	-23.8	-25.1	18.9	0.00e+00	0	42	0	1879048192	7	4193
2026-01-11 11:48:14.28	74.68	56.21	-24.4	-25.9	18.3	0.00e+00	0	42	0	1884291072	8	4273
2026-01-11 11:48:15.29	73.90	56.29	-24.2	-25.4	18.5	0.00e+00	0	42	0	1889533952	8	4164
2026-01-11 11:48:16.29	73.12	56.36	-24.1	-25.3	18.6	0.00e+00	0	42	0	1895825408	8	4117
2026-01-11 11:48:17.30	72.33	56.44	-24.2	-25.4	18.6	0.00e+00	0	42	0	1901068288	8	4153
2026-01-11 11:48:18.30	71.55	56.50	-24.1	-25.2	18.7	1.10e-06	0	42	0	1906311168	8	4097
2026-01-11 11:48:19.30	70.76	56.56	-24.4	-25.9	18.3	0.00e+00	0	42	0	1912602624	8	4272
2026-01-11 11:48:20.30	69.96	56.62	-24.6	-25.8	18.2	0.00e+00	0	42	0	1917845504	9	4135
2026-01-11 11:48:21.29	69.17	56.67	-24.8	-26.1	18.1	0.00e+00	0	42	0	1923088384	9	4203
2026-01-11 11:48:22.29	68.38	56.71	-25.0	-26.0	17.9	0.00e+00	0	42	0	1929379840	10	4065
2026-01-11 11:48:23.30	67.57	56.75	-24.6	-25.2	18.3	0.00e+00	0	42	0	1934622720	10	3871
2026-01-11 11:48:24.30	66.76	56.79	-24.3	-24.6	18.6	0.00e+00	0	42	0	1940914176	10	3737
2026-01-11 11:48:25.30	65.96	56.82	-24.2	-25.0	18.7	0.00e+00	0	42	0	1946157056	9	3929
2026-01-11 11:48:26.31	65.14	56.84	-24.6	-25.8	18.3	0.00e+00	0	42	0	1952448512	9	4120
2026-01-11 11:48:27.30	64.34	56.86	-25.0	-26.2	17.8	0.00e+00	0	42	0	1957691392	10	4107
2026-01-11 11:48:28.30	63.53	56.87	-24.3	-24.7	18.6	0.00e+00	0	42	0	1962934272	10	3743
2026-01-11 11:48:29.31	62.72	56.88	-23.7	-24.3	19.3	0.00e+00	0	42	0	1969225728	8	3873
2026-01-11 11:48:30.32	61.90	56.88	-23.8	-24.5	19.2	0.00e+00	0	42	0	1974468608	8	3927
2026-01-11 11:48:31.32	61.09	56.88	-23.7	-24.3	19.3	0.00e+00	0	42	0	1979711488	8	3872
2026-01-11 11:48:32.32	60.28	56.87	-23.4	-23.8	19.5	0.00e+00	0	42	0	1986002944	8	3760
2026-01-11 11:48:33.32	59.47	56.85	-23.6	-24.2	19.3	0.00e+00	0	42	0	1991245824	8	3857
2026-01-11 11:48:34.32	58.66	56.83	-23.7	-24.3	19.3	0.00e+00	0	42	0	1996488704	8	3861
2026-01-11 11:48:35.33	57.85	56.80	-23.7	-24.4	19.2	0.00e+00	0	42	0	2002780160	8	3900
2026-01-11 11:48:36.32	57.05	56.77	-23.3	-23.6	19.6	0.00e+00	0	42	0	2008023040	8	3713
2026-01-11 11:48:37.32	56.25	56.74	-23.3	-23.9	19.7	0.00e+00	0	42	0	2014314496	7	3892
2026-01-11 11:48:38.31	55.46	56.69	-23.6	-24.6	19.3	0.00e+00	0	42	0	2019557376	7	4056
2026-01-11 11:48:39.32	54.65	56.65	-23.6	-24.7	19.3	0.00e+00	0	42	0	2024800256	7	4069
2026-01-11 11:48:40.33	53.85	56.59	-23.6	-24.6	19.3	0.00e+00	0	42	0	2031091712	7	4056
2026-01-11 11:48:41.33	53.06	56.53	-23.4	-24.3	19.5	0.00e+00	0	42	0	2036334592	7	3972
2026-01-11 11:48:42.33	52.27	56.47	-23.3	-24.0	19.6	0.00e+00	0	42	0	2041577472	7	3917
2026-01-11 11:48:43.33	51.49	56.40	-23.3	-24.1	19.6	0.00e+00	0	42	0	2047868928	7	3919
2026-01-11 11:48:44.33	50.71	56.33	-23.4	-24.1	19.6	0.00e+00	0	42	0	2053111808	7	3941
2026-01-11 11:48:45.33	49.93	56.25	-23.2	-23.7	19.8	0.00e+00	0	42	0	2058354688	7	3844
2026-01-11 11:48:46.34	49.15	56.17	-23.1	-23.6	19.8	0.00e+00	0	42	0	2064646144	7	3813
2026-01-11 11:48:47.34	48.39	56.08	-23.3	-24.0	19.7	0.00e+00	0	42	0	2069889024	7	3901
2026-01-11 11:48:48.34	47.62	55.98	-23.2	-23.9	19.7	0.00e+00	0	42	0	2076180480	7	3885
2026-01-11 11:48:49.34	46.87	55.88	-23.1	-23.6	19.8	0.00e+00	0	42	0	2081423360	7	3824
2026-01-11 11:48:50.34	46.12	55.78	-23.2	-23.7	19.7	0.00e+00	0	42	0	2086666240	7	3845
2026-01-11 11:48:51.33	45.38	55.68	-23.4	-24.2	19.5	0.00e+00	0	42	0	2092957696	7	3946
2026-01-11 11:48:52.33	44.64	55.56	-23.0	-23.5	19.9	0.00e+00	0	42	0	2098200576	7	3791
2026-01-11 11:48:53.33	43.91	55.45	-22.7	-23.3	20.2	0.00e+00	0	42	0	2103443456	6	3849
2026-01-11 11:48:54.33	43.18	55.33	-22.8	-23.6	20.1	0.00e+00	0	42	0	2109734912	6	3917
2026-01-11 11:48:55.34	42.45	55.20	-23.0	-24.0	19.9	0.00e+00	0	42	0	2114977792	6	4013
2026-01-11 11:48:56.35	41.73	55.07	-23.1	-24.1	19.8	0.00e+00	0	42	0	2120220672	6	4047
2026-01-11 11:48:57.35	41.03	54.94	-23.1	-24.0	19.9	0.00e+00	0	42	0	2126512128	6	4025
2026-01-11 11:48:58.35	40.33	54.80	-23.0	-24.0	19.9	0.00e+00	0	42	0	2131755008	6	4014
2026-01-11 11:48:59.35	39.63	54.66	-23.2	-24.3	19.7	0.00e+00	0	42	0	2138046464	6	4103
2026-01-11 11:49:00.35	38.95	54.51	-23.4	-24.8	19.5	0.00e+00	0	42	0	2143289344	6	4208
2026-01-11 11:49:01.35	38.27	54.37	-23.2	-24.2	19.8	0.00e+00	0	42	0	2148532224	6	4073
2026-01-11 11:49:02.35	37.59	54.21	-23.1	-24.1	19.8	0.00e+00	0	42	0	2154823680	6	4036
2026-01-11 11:49:03.36	36.92	54.06	-23.1	-24.2	19.8	0.00e+00	0	42	0	2160066560	6	4052
2026-01-11 11:49:04.37	36.26	53.90	-23.0	-24.0	19.9	0.00e+00	0	42	0	2166358016	6	4013
2026-01-11 11:49:05.37	35.61	53.73	-23.0	-24.0	19.8	0.00e+00	0	42	0	2171600896	6	4019
2026-01-11 11:49:06.37	34.96	53.57	-23.2	-24.2	19.7	0.00e+00	0	42	0	2176843776	6	4077
2026-01-11 11:49:07.38	34.32	53.40	-22.9	-23.7	20.0	0.00e+00	0	42	0	2183135232	6	3950
2026-01-11 11:49:08.38	33.69	53.23	-22.8	-23.4	20.1	0.00e+00	0	42	0	2188378112	6	3879
2026-01-11 11:49:09.38	33.07	53.05	-23.2	-24.2	19.7	0.00e+00	0	42	0	2193620992	6	4071
2026-01-11 11:49:10.39	32.45	52.87	-23.5	-24.9	19.4	0.00e+00	0	42	0	2199912448	6	4240
2026-01-11 11:49:11.40	31.84	52.69	-23.6	-24.7	19.3	0.00e+00	0	42	0	2205155328	7	4071
2026-01-11 11:49:12.40	31.24	52.51	-23.5	-24.4	19.3	0.00e+00	0	42	0	2211446784	7	4008
2026-01-11 11:49:13.40	30.65	52.32	-23.7	-24.8	19.2	0.00e+00	0	42	0	2216689664	7	4104
2026-01-11 11:49:14.41	30.06	52.13	-23.4	-24.2	19.5	0.00e+00	0	42	0	2222981120	7	3965
2026-01-11 11:49:15.41	29.49	51.94	-23.1	-23.6	19.8	0.00e+00	0	42	0	2228224000	7	3815
2026-01-11 11:49:16.42	28.91	51.75	-23.3	-24.0	19.6	0.00e+00	0	42	0	2233466880	7	3903
2026-01-11 11:49:17.43	28.35	51.55	-23.3	-24.1	19.5	0.00e+00	0	42	0	2239758336	7	3935
2026-01-11 11:49:18.43	27.79	51.36	-23.1	-23.6	19.8	0.00e+00	0	42	0	2245001216	7	3810
2026-01-11 11:49:19.43	27.25	51.16	-23.1	-23.5	19.8	0.00e+00	0	42	0	2250244096	7	3789
2026-01-11 11:49:20.44	26.70	50.96	-23.2	-23.9	19.6	0.00e+00	0	42	0	2256535552	7	3886
2026-01-11 11:49:21.44	26.17	50.76	-23.2	-23.9	19.6	0.00e+00	0	42	0	2261778432	7	3887
2026-01-11 11:49:22.45	25.64	50.55	-23.2	-23.7	19.7	0.00e+00	0	42	0	2267021312	7	3844
2026-01-11 11:49:23.45	25.12	50.35	-23.1	-23.7	19.7	0.00e+00	0	42	0	2273312768	7	3827
2026-01-11 11:49:24.45	24.61	50.14	-23.3	-24.1	19.5	0.00e+00	0	42	0	2278555648	7	3932
2026-01-11 11:49:25.46	24.11	49.93	-23.3	-24.0	19.6	0.00e+00	0	42	0	2284847104	7	3905
2026-01-11 11:49:26.46	23.61	49.72	-23.3	-24.1	19.5	0.00e+00	0	42	0	2290089984	7	3938
2026-01-11 11:49:27.47	23.11	49.51	-23.4	-24.3	19.4	0.00e+00	0	42	0	2296381440	7	3980
2026-01-11 11:49:28.47	22.63	49.29	-23.2	-23.9	19.6	0.00e+00	0	42	0	2301624320	7	3885
2026-01-11 11:49:29.47	22.16	49.08	-23.0	-23.4	19.9	0.00e+00	0	42	0	2306867200	7	3760
2026-01-11 11:49:30.48	21.68	48.86	-22.9	-23.2	20.0	0.00e+00	0	42	0	2313158656	7	3712
2026-01-11 11:49:31.49	21.22	48.65	-22.9	-23.1	20.0	0.00e+00	0	42	0	2318401536	7	3705
2026-01-11 11:49:32.49	20.76	48.43	-23.0	-23.5	19.8	0.00e+00	0	42	0	2323644416	7	3789
2026-01-11 11:49:33.50	20.30	48.21	-23.2	-23.7	19.7	0.00e+00	0	42	0	2329935872	7	3853
2026-01-11 11:49:34.51	19.86	47.99	-22.9	-23.2	19.9	0.00e+00	0	42	0	2335178752	7	3732
2026-01-11 11:49:35.51	19.42	47.77	-22.8	-23.0	20.0	0.00e+00	0	42	0	2341470208	7	3682
2026-01-11 11:49:36.51	18.99	47.55	-22.8	-23.4	20.1	0.00e+00	0	42	0	2346713088	6	3881
2026-01-11 11:49:37.50	18.57	47.34	-22.9	-23.7	20.0	0.00e+00	0	42	0	2351955968	6	3937
2026-01-11 11:49:38.49	18.15	47.12	-22.7	-23.3	20.1	0.00e+00	0	42	0	2358247424	6	3861
2026-01-11 11:49:39.49	17.74	46.90	-22.8	-23.5	20.0	0.00e+00	0	42	0	2363490304	6	3905
2026-01-11 11:49:40.49	17.33	46.68	-22.9	-23.6	20.0	0.00e+00	0	42	0	2368733184	6	3936
2026-01-11 11:49:41.50	16.93	46.45	-22.9	-23.6	20.0	0.00e+00	0	42	0	2375024640	6	3938
2026-01-11 11:49:42.51	16.53	46.23	-22.8	-23.4	20.1	0.00e+00	0	42	0	2380267520	6	3885
2026-01-11 11:49:43.50	16.14	46.01	-22.5	-22.8	20.4	0.00e+00	0	42	0	2385510400	6	3744
2026-01-11 11:49:44.50	15.76	45.78	-22.3	-22.5	20.5	0.00e+00	0	42	0	2391801856	6	3682
2026-01-11 11:49:45.50	15.38	45.56	-22.4	-22.8	20.4	0.00e+00	0	42	0	2397044736	6	3732
2026-01-11 11:49:46.50	15.01	45.34	-22.5	-23.0	20.3	0.00e+00	0	42	0	2402287616	6	3784
2026-01-11 11:49:47.50	14.64	45.12	-22.6	-23.1	20.2	0.00e+00	0	42	0	2408579072	6	3821
2026-01-11 11:49:48.50	14.27	44.89	-22.6	-23.2	20.2	0.00e+00	0	42	0	2413821952	6	3831
2026-01-11 11:49:49.50	13.92	44.67	-22.5	-22.9	20.3	0.00e+00	0	42	0	2420113408	6	3765
2026-01-11 11:49:50.50	13.56	44.45	-22.6	-23.0	20.2	0.00e+00	0	42	0	2425356288	6	3789
2026-01-11 11:49:51.50	13.21	44.22	-22.6	-23.0	20.3	0.00e+00	0	42	0	2430599168	6	3781
2026-01-11 11:49:52.51	12.87	44.00	-22.5	-22.9	20.3	0.00e+00	0	42	0	2436890624	6	3760
2026-01-11 11:49:53.50	12.53	43.78	-22.6	-23.2	20.2	0.00e+00	0	42	0	2442133504	6	3829
2026-01-11 11:49:54.50	12.20	43.56	-22.7	-23.4	20.0	0.00e+00	0	42	0	2447376384	6	3889
2026-01-11 11:49:55.49	11.87	43.34	-22.7	-23.2	20.1	0.00e+00	0	42	0	2453667840	6	3842
2026-01-11 11:49:56.49	11.55	43.11	-22.6	-23.1	20.2	0.00e+00	0	42	0	2458910720	6	3813
2026-01-11 11:49:57.48	11.23	42.89	-22.8	-23.4	20.0	0.00e+00	0	42	0	2464153600	6	3887
2026-01-11 11:49:58.48	10.92	42.67	-22.9	-23.7	19.9	0.00e+00	0	42	0	2470445056	6	3951
2026-01-11 11:49:59.48	10.61	42.45	-23.0	-23.9	19.8	0.00e+00	0	42	0	2475687936	6	4002
2026-01-11 11:50:00.49	10.30	42.23	-23.2	-24.3	19.6	0.00e+00	0	42	0	2481979392	6	4082
2026-01-11 11:50:01.48	10.00	42.01	-23.1	-24.1	19.7	0.00e+00	0	42	0	2487222272	6	4041
2026-01-11 11:50:02.49	9.69	41.79	-23.2	-24.3	19.6	0.00e+00	0	42	0	2492465152	6	4082
2026-01-11 11:50:03.49	9.40	41.57	-23.2	-24.4	19.5	0.00e+00	0	42	0	2498756608	6	4114
2026-01-11 11:50:04.49	9.11	41.35	-23.1	-24.2	19.7	0.00e+00	0	42	0	2503999488	6	4059
2026-01-11 11:50:05.50	8.82	41.13	-23.2	-24.4	19.6	0.00e+00	0	42	0	2509242368	6	4109
2026-01-11 11:50:06.50	8.54	40.91	-23.2	-24.3	19.6	0.00e+00	0	42	0	2515533824	6	4103
2026-01-11 11:50:07.50	8.26	40.69	-23.3	-24.5	19.5	0.00e+00	0	42	0	2520776704	6	4135
2026-01-11 11:50:08.51	7.98	40.47	-23.2	-23.9	19.6	0.00e+00	0	42	0	2527068160	7	3871
2026-01-11 11:50:09.51	7.71	40.26	-22.7	-23.3	20.1	0.00e+00	0	42	0	2532311040	6	3841
2026-01-11 11:50:10.51	7.44	40.04	-22.4	-22.6	20.4	0.00e+00	0	42	0	2537553920	6	3701
2026-01-11 11:50:11.51	7.18	39.83	-22.3	-22.9	20.5	0.00e+00	0	42	0	2543845376	5	3879
2026-01-11 11:50:12.51	6.92	39.61	-22.3	-23.0	20.4	0.00e+00	0	42	0	2549088256	5	3903
2026-01-11 11:50:13.51	6.66	39.40	-22.3	-23.0	20.4	0.00e+00	0	42	0	2555379712	5	3906
2026-01-11 11:50:14.52	6.40	39.18	-22.4	-23.2	20.3	0.00e+00	0	42	0	2560622592	5	3935
2026-01-11 11:50:15.53	6.15	38.97	-22.4	-23.1	20.4	0.00e+00	0	42	0	2565865472	5	3910
2026-01-11 11:50:16.52	5.91	38.76	-22.5	-23.5	20.2	0.00e+00	0	42	0	2572156928	5	4003
2026-01-11 11:50:17.52	5.66	38.55	-22.5	-23.3	20.3	0.00e+00	0	42	0	2577399808	5	3967
2026-01-11 11:50:18.52	5.42	38.34	-22.7	-23.7	20.1	0.00e+00	0	42	0	2582642688	5	4070
2026-01-11 11:50:19.52	5.19	38.13	-22.5	-23.4	20.2	0.00e+00	0	42	0	2588934144	5	3994
2026-01-11 11:50:20.52	4.95	37.92	-22.6	-23.5	20.2	0.00e+00	0	42	0	2594177024	5	4010
2026-01-11 11:50:21.52	4.72	37.71	-22.4	-23.1	20.4	0.00e+00	0	42	0	2599419904	5	3906
2026-01-11 11:50:22.53	4.49	37.50	-22.4	-23.1	20.4	0.00e+00	0	42	0	2605711360	5	3911
2026-01-11 11:50:23.53	4.26	37.29	-22.5	-23.4	20.2	0.00e+00	0	42	0	2610954240	5	3989
2026-01-11 11:50:24.54	4.04	37.08	-22.6	-23.7	20.1	0.00e+00	0	42	0	2617245696	5	4062
2026-01-11 11:50:25.54	3.82	36.88	-22.5	-23.4	20.2	0.00e+00	0	42	0	2622488576	5	3986
2026-01-11 11:50:26.55	3.60	36.67	-22.4	-23.1	20.3	0.00e+00	0	42	0	2627731456	5	3919
2026-01-11 11:50:27.56	3.38	36.47	-22.4	-23.2	20.3	0.00e+00	0	42	0	2634022912	5	3930
2026-01-11 11:50:28.56	3.17	36.27	-22.4	-23.1	20.3	0.00e+00	0	42	0	2639265792	5	3931
2026-01-11 11:50:29.56	2.96	36.06	-22.5	-23.3	20.2	0.00e+00	0	42	0	2645557248	5	3968
2026-01-11 11:50:30.56	2.76	35.86	-22.4	-23.3	20.2	0.00e+00	0	42	0	2650800128	5	3965
2026-01-11 11:50:31.57	2.55	35.66	-22.5	-23.4	20.2	0.00e+00	0	42	0	2656043008	5	3994
2026-01-11 11:50:32.57	2.35	35.46	-22.4	-23.3	20.2	0.00e+00	0	42	0	2662334464	5	3962
2026-01-11 11:50:33.58	2.15	35.26	-22.4	-23.1	20.3	0.00e+00	0	42	0	2667577344	5	3925
2026-01-11 11:50:34.59	1.95	35.06	-22.4	-23.1	20.3	0.00e+00	0	42	0	2673868800	5	3909
2026-01-11 11:50:35.59	1.76	34.86	-22.3	-22.9	20.4	0.00e+00	0	42	0	2679111680	5	3872
2026-01-11 11:50:36.59	1.57	34.67	-22.4	-23.2	20.2	0.00e+00	0	42	0	2684354560	5	3946
2026-01-11 11:50:37.60	1.38	34.47	-22.5	-23.4	20.2	0.00e+00	0	42	0	2690646016	5	3982
2026-01-11 11:50:38.60	1.19	34.28	-22.6	-23.6	20.0	0.00e+00	0	42	0	2695888896	5	4039
2026-01-11 11:50:39.61	1.00	34.08	-22.8	-24.0	19.9	0.00e+00	0	42	0	2702180352	5	4136
2026-01-11 11:50:40.61	0.82	33.89	-22.9	-24.3	19.7	0.00e+00	0	42	0	2707423232	5	4204
2026-01-11 11:50:41.62	0.64	33.70	-22.9	-24.2	19.7	0.00e+00	0	42	0	2712666112	5	4190
2026-01-11 11:50:42.63	0.46	33.50	-22.8	-24.1	19.8	0.00e+00	0	42	0	2718957568	5	4157
2026-01-11 11:50:43.62	0.29	33.32	-22.8	-23.9	19.9	0.00e+00	0	42	0	2724200448	5	4120
2026-01-11 11:50:44.63	0.11	33.12	-22.7	-23.9	19.9	0.00e+00	0	42	0	2729443328	5	4106
2026-01-11 11:50:45.63	359.94	32.94	-22.9	-24.2	19.7	0.00e+00	0	42	0	2735734784	5	4196
2026-01-11 11:50:46.63	359.77	32.75	-22.9	-23.7	19.7	0.00e+00	0	42	0	2740977664	6	3944
2026-01-11 11:50:47.64	359.60	32.56	-22.7	-23.3	19.9	0.00e+00	0	42	0	2747269120	6	3865
2026-01-11 11:50:48.64	359.43	32.38	-22.6	-23.1	20.1	0.00e+00	0	42	0	2752512000	6	3804
2026-01-11 11:50:49.65	359.27	32.19	-22.7	-23.2	20.0	0.00e+00	0	42	0	2757754880	6	3837
2026-01-11 11:50:50.65	359.11	32.01	-22.8	-23.5	19.9	0.00e+00	0	42	0	2764046336	6	3900
2026-01-11 11:50:51.65	358.95	31.82	-22.8	-23.5	19.8	0.00e+00	0	42	0	2769289216	6	3918
2026-01-11 11:50:52.66	358.79	31.64	-22.9	-23.7	19.7	0.00e+00	0	42	0	2775580672	6	3959
2026-01-11 11:50:53.66	358.63	31.46	-22.9	-23.8	19.7	0.00e+00	0	42	0	2780823552	6	3967
2026-01-11 11:50:54.67	358.47	31.28	-23.0	-23.8	19.6	0.00e+00	0	42	0	2786066432	6	3987
2026-01-11 11:50:55.67	358.32	31.10	-23.0	-24.0	19.6	0.00e+00	0	42	0	2792357888	6	4016
2026-01-11 11:50:56.67	358.17	30.92	-23.0	-24.0	19.6	0.00e+00	0	42	0	2797600768	6	4035
2026-01-11 11:50:57.68	358.02	30.74	-23.1	-24.1	19.5	0.00e+00	0	42	0	2802843648	6	4056
2026-01-11 11:50:58.68	357.87	30.56	-23.2	-24.3	19.4	0.00e+00	0	42	0	2809135104	6	4093
2026-01-11 11:50:59.68	357.73	30.39	-23.1	-24.1	19.5	0.00e+00	0	42	0	2814377984	6	4049
2026-01-11 11:51:00.68	357.58	30.21	-23.0	-24.0	19.5	0.00e+00	0	42	0	2820669440	6	4038
2026-01-11 11:51:01.69	357.44	30.04	-22.9	-23.8	19.6	0.00e+00	0	42	0	2825912320	6	3975
2026-01-11 11:51:02.69	357.30	29.86	-22.9	-23.6	19.7	0.00e+00	0	42	0	2831155200	6	3935
2026-01-11 11:51:03.70	357.15	29.69	-22.9	-23.8	19.7	0.00e+00	0	42	0	2837446656	6	3962
2026-01-11 11:51:04.70	357.02	29.52	-22.8	-23.5	19.8	0.00e+00	0	42	0	2842689536	6	3897
2026-01-11 11:51:05.70	356.88	29.35	-22.9	-23.8	19.7	0.00e+00	0	42	0	2847932416	6	3963
2026-01-11 11:51:06.70	356.74	29.18	-23.0	-23.9	19.6	0.00e+00	0	42	0	2854223872	6	4002
2026-01-11 11:51:07.69	356.61	29.01	-23.0	-24.0	19.6	0.00e+00	0	42	0	2859466752	6	4013
2026-01-11 11:51:08.69	356.48	28.84	-23.3	-24.5	19.3	0.00e+00	0	42	0	2864709632	6	4157
2026-01-11 11:51:09.69	356.35	28.67	-23.2	-24.4	19.4	0.00e+00	0	42	0	2871001088	6	4114
2026-01-11 11:51:10.70	356.22	28.51	-23.0	-24.0	19.6	0.00e+00	0	42	0	2876243968	6	4022
2026-01-11 11:51:11.70	356.09	28.34	-23.0	-23.9	19.6	0.00e+00	0	42	0	2882535424	6	3998
2026-01-11 11:51:12.70	355.96	28.18	-23.1	-24.1	19.5	0.00e+00	0	42	0	2887778304	6	4047
2026-01-11 11:51:13.69	355.84	28.01	-23.1	-24.1	19.5	0.00e+00	0	42	0	2893021184	6	4039
2026-01-11 11:51:14.69	355.71	27.85	-23.0	-24.0	19.6	0.00e+00	0	42	0	2899312640	6	4015
2026-01-11 11:51:15.69	355.59	27.69	-23.1	-24.1	19.5	0.00e+00	0	42	0	2904555520	6	4060
2026-01-11 11:51:16.68	355.47	27.53	-23.2	-24.3	19.4	0.00e+00	0	42	0	2909798400	6	4087
2026-01-11 11:51:17.68	355.35	27.37	-23.2	-24.4	19.4	0.00e+00	0	42	0	2916089856	6	4113
2026-01-11 11:51:18.69	355.23	27.21	-23.1	-24.2	19.4	0.00e+00	0	42	0	2921332736	6	4084
2026-01-11 11:51:19.69	355.11	27.05	-23.1	-24.2	19.4	0.00e+00	0	42	0	2926575616	6	4082
2026-01-11 11:51:20.69	355.00	26.89	-23.1	-24.2	19.4	0.00e+00	0	42	0	2932867072	6	4080
2026-01-11 11:51:21.68	354.88	26.73	-23.2	-24.3	19.3	0.00e+00	0	42	0	2938109952	6	4100
2026-01-11 11:51:22.68	354.77	26.57	-23.2	-24.4	19.3	0.00e+00	0	42	0	2944401408	6	4122
2026-01-11 11:51:23.67	354.66	26.42	-23.1	-24.2	19.4	0.00e+00	0	42	0	2949644288	6	4087
2026-01-11 11:51:24.67	354.54	26.26	-23.1	-24.2	19.4	0.00e+00	0	42	0	2954887168	6	4063
2026-01-11 11:51:25.67	354.43	26.11	-23.1	-24.1	19.4	0.00e+00	0	42	0	2961178624	6	4051
2026-01-11 11:51:26.67	354.32	25.96	-23.2	-24.3	19.3	0.00e+00	0	42	0	2966421504	6	4108
2026-01-11 11:51:27.68	354.21	25.80	-23.2	-24.3	19.3	0.00e+00	0	42	0	2971664384	6	4093
2026-01-11 11:51:28.68	354.10	25.65	-23.2	-24.4	19.3	0.00e+00	0	42	0	2977955840	6	4128
2026-01-11 11:51:29.67	354.00	25.50	-23.2	-24.3	19.3	0.00e+00	0	42	0	2983198720	6	4107
2026-01-11 11:51:30.67	353.89	25.35	-23.1	-24.2	19.4	0.00e+00	0	42	0	2988441600	6	4069
2026-01-11 11:51:31.68	353.79	25.20	-23.1	-24.2	19.4	0.00e+00	0	42	0	2994733056	6	4070
2026-01-11 11:51:32.68	353.68	25.05	-23.2	-24.4	19.3	0.00e+00	0	42	0	2999975936	6	4130
2026-01-11 11:51:33.68	353.58	24.90	-23.2	-24.4	19.3	0.00e+00	0	42	0	3006267392	6	4108
2026-01-11 11:51:34.68	353.48	24.75	-23.1	-24.2	19.4	0.00e+00	0	42	0	3011510272	6	4059
2026-01-11 11:51:35.67	353.38	24.61	-23.2	-24.3	19.3	0.00e+00	0	42	0	3016753152	6	4084
2026-01-11 11:51:36.67	353.28	24.46	-23.3	-24.6	19.1	0.00e+00	0	42	0	3023044608	6	4177
2026-01-11 11:51:37.68	353.18	24.31	-23.3	-24.6	19.1	0.00e+00	0	42	0	3028287488	6	4180
2026-01-11 11:51:38.68	353.08	24.17	-23.2	-24.5	19.2	0.00e+00	0	42	0	3033530368	6	4138
2026-01-11 11:51:39.68	352.99	24.02	-23.3	-24.5	19.2	0.00e+00	0	42	0	3039821824	6	4151
2026-01-11 11:51:40.67	352.89	23.88	-23.3	-24.5	19.2	0.00e+00	0	42	0	3045064704	6	4153
2026-01-11 11:51:41.67	352.80	23.74	-23.3	-24.6	19.1	0.00e+00	0	42	0	3050307584	6	4183
2026-01-11 11:51:42.67	352.70	23.60	-23.3	-24.6	19.2	0.00e+00	0	42	0	3056599040	6	4165
2026-01-11 11:51:43.67	352.61	23.46	-23.3	-24.5	19.2	0.00e+00	0	42	0	3061841920	6	4153
2026-01-11 11:51:44.68	352.52	23.31	-23.3	-24.5	19.2	0.00e+00	0	42	0	3068133376	6	4148
2026-01-11 11:51:45.68	352.43	23.17	-23.3	-24.5	19.2	0.00e+00	0	42	0	3073376256	6	4147
2026-01-11 11:51:46.70	352.33	23.03	-23.5	-24.9	19.0	0.00e+00	0	42	0	3078619136	6	4247
2026-01-11 11:51:47.70	352.24	22.89	-23.5	-24.6	18.9	0.00e+00	0	42	0	3084910592	7	4051
2026-01-11 11:51:48.70	352.15	22.76	-23.6	-24.7	18.8	0.00e+00	0	42	0	3090153472	7	4081
2026-01-11 11:51:49.72	352.06	22.61	-23.6	-24.7	18.8	0.00e+00	0	42	0	3096444928	7	4083
2026-01-11 11:51:50.72	351.98	22.48	-23.6	-24.7	18.8	0.00e+00	0	42	0	3101687808	7	4091
2026-01-11 11:51:51.73	351.89	22.34	-23.7	-25.0	18.7	0.00e+00	0	42	0	3106930688	7	4152
2026-01-11 11:51:52.73	351.80	22.21	-23.7	-24.8	18.7	0.00e+00	0	42	0	3113222144	7	4115
2026-01-11 11:51:53.73	351.72	22.07	-23.6	-24.7	18.8	0.00e+00	0	42	0	3118465024	7	4081
2026-01-11 11:51:54.74	351.63	21.94	-23.7	-24.9	18.7	0.00e+00	0	42	0	3123707904	7	4146
2026-01-11 11:51:55.74	351.55	21.80	-23.6	-24.6	18.8	0.00e+00	0	42	0	3129999360	7	4070
2026-01-11 11:51:56.74	351.47	21.67	-23.4	-24.4	18.9	0.00e+00	0	42	0	3135242240	7	4005
2026-01-11 11:51:57.75	351.39	21.54	-23.4	-24.3	19.0	0.00e+00	0	42	0	3141533696	7	4001
2026-01-11 11:51:58.75	351.30	21.40	-23.5	-24.5	18.9	0.00e+00	0	42	0	3146776576	7	4029
2026-01-11 11:51:59.75	351.22	21.27	-23.5	-24.5	18.9	0.00e+00	0	42	0	3152019456	7	4045
2026-01-11 11:52:00.75	351.14	21.14	-23.5	-24.5	18.9	0.00e+00	0	42	0	3158310912	7	4046
2026-01-11 11:52:01.75	351.07	21.01	-23.6	-24.7	18.8	0.00e+00	0	42	0	3163553792	7	4073
2026-01-11 11:52:02.75	350.99	20.88	-23.7	-24.9	18.7	0.00e+00	0	42	0	3168796672	7	4125
2026-01-11 11:52:03.74	350.91	20.76	-23.7	-24.9	18.7	0.00e+00	0	42	0	3175088128	7	4125
2026-01-11 11:52:04.73	350.83	20.63	-23.7	-24.9	18.7	0.00e+00	0	42	0	3180331008	7	4138
2026-01-11 11:52:05.73	350.76	20.50	-23.8	-25.1	18.5	0.00e+00	0	42	0	3185573888	7	4195
2026-01-11 11:52:06.72	350.68	20.38	-23.8	-25.1	17.7	5.83e-04	0	42	0	3191865344	7	4198
2026-01-11 11:52:07.73	350.61	20.25	-23.9	-25.3	17.4	1.22e-03	0	42	0	3197108224	7	4233
2026-01-11 11:52:08.73	350.53	20.13	-23.9	-25.4	17.4	1.45e-03	0	42	0	3203399680	7	4259
2026-01-11 11:52:09.73	350.46	20.00	-24.1	-25.2	17.1	3.33e-03	0	42	0	3208642560	8	4107
2026-01-11 11:52:10.74	350.38	19.87	-24.3	-25.7	17.0	2.01e-03	0	42	0	3213885440	8	4237
2026-01-11 11:52:11.75	350.31	19.75	-24.3	-25.7	17.0	3.10e-03	0	42	0	3220176896	8	4237
2026-01-11 11:52:12.75	350.24	19.63	-24.5	-26.1	17.0	9.33e-04	0	42	0	3225419776	8	4349
2026-01-11 11:52:13.75	350.17	19.50	-24.6	-25.8	16.9	1.09e-03	0	42	0	3230662656	9	4152
2026-01-11 11:52:14.76	350.10	19.38	-24.7	-26.2	16.8	5.95e-04	0	42	0	3236954112	9	4243
2026-01-11 11:52:15.76	350.03	19.26	-24.8	-26.2	16.7	1.13e-03	0	42	0	3242196992	9	4263
2026-01-11 11:52:16.76	349.96	19.14	-24.7	-26.1	16.7	2.35e-03	0	42	0	3248488448	9	4232
2026-01-11 11:52:17.76	349.89	19.02	-24.8	-26.3	16.4	4.22e-03	0	42	0	3253731328	9	4284
2026-01-11 11:52:18.77	349.82	18.90	-24.8	-26.3	16.5	4.23e-03	0	42	0	3258974208	9	4270
2026-01-11 11:52:19.77	349.75	18.78	-24.8	-26.3	16.3	8.93e-03	0	42	0	3265265664	9	4282
2026-01-11 11:52:20.77	349.68	18.66	-24.8	-26.4	16.3	6.31e-03	0	42	0	3270508544	9	4322
2026-01-11 11:52:21.77	349.62	18.54	-24.6	-26.0	16.6	7.27e-03	0	42	0	3276800000	9	4194
2026-01-11 11:52:22.77	349.55	18.42	-24.4	-25.6	16.9	1.92e-03	0	42	0	3282042880	9	4097
2026-01-11 11:52:23.77	349.49	18.30	-24.4	-25.5	17.1	1.42e-03	0	42	0	3287285760	9	4076
2026-01-11 11:52:24.78	349.42	18.19	-24.4	-25.4	17.3	2.23e-04	0	42	0	3293577216	9	4046
2026-01-11 11:52:25.77	349.36	18.07	-24.7	-26.0	17.5	3.20e-05	0	42	0	3298820096	9	4196
2026-01-11 11:52:26.78	349.29	17.95	-24.6	-25.8	17.6	0.00e+00	0	42	0	3304062976	9	4150
2026-01-11 11:52:27.78	349.23	17.84	-24.5	-25.5	17.8	0.00e+00	0	42	0	3310354432	9	4070
2026-01-11 11:52:28.77	349.17	17.73	-24.5	-25.6	17.7	0.00e+00	0	42	0	3315597312	9	4099
2026-01-11 11:52:29.77	349.10	17.61	-24.4	-25.4	17.8	0.00e+00	0	42	0	3320840192	9	4047
2026-01-11 11:52:30.77	349.04	17.50	-24.4	-25.4	17.8	0.00e+00	0	42	0	3327131648	9	4035
2026-01-11 11:52:31.77	348.98	17.38	-24.4	-25.5	17.8	1.10e-06	0	42	0	3332374528	9	4062
2026-01-11 11:52:32.77	348.92	17.27	-24.4	-25.3	17.9	0.00e+00	0	42	0	3338665984	9	4009
2026-01-11 11:52:33.77	348.86	17.16	-24.4	-25.3	17.9	0.00e+00	0	42	0	3343908864	9	4019
2026-01-11 11:52:34.76	348.80	17.05	-24.5	-25.5	17.7	0.00e+00	0	42	0	3349151744	9	4071
2026-01-11 11:52:35.76	348.74	16.94	-24.4	-25.4	17.8	0.00e+00	0	42	0	3355443200	9	4046
2026-01-11 11:52:36.76	348.68	16.83	-24.5	-25.5	17.7	0.00e+00	0	42	0	3360686080	9	4067
2026-01-11 11:52:37.76	348.62	16.72	-24.4	-25.5	17.8	0.00e+00	0	42	0	3365928960	9	4052
2026-01-11 11:52:38.76	348.56	16.61	-24.5	-25.5	17.7	0.00e+00	0	42	0	3372220416	9	4063
2026-01-11 11:52:39.76	348.51	16.50	-24.5	-25.7	17.6	0.00e+00	0	42	0	3377463296	9	4108
2026-01-11 11:52:40.76	348.45	16.39	-24.6	-25.9	17.5	0.00e+00	0	42	0	3382706176	9	4164
2026-01-11 11:52:41.76	348.39	16.28	-24.7	-26.0	17.5	0.00e+00	0	42	0	3388997632	9	4185
2026-01-11 11:52:42.76	348.34	16.17	-24.7	-26.0	17.5	0.00e+00	0	42	0	3394240512	9	4194
2026-01-11 11:52:43.75	348.28	16.06	-24.8	-26.3	17.3	0.00e+00	0	42	0	3400531968	9	4259
2026-01-11 11:52:44.76	348.22	15.96	-24.8	-26.3	17.3	0.00e+00	0	42	0	3405774848	9	4263
2026-01-11 11:52:45.76	348.17	15.85	-24.9	-26.5	17.2	0.00e+00	0	42	0	3411017728	9	4318
2026-01-11 11:52:46.76	348.11	15.74	-24.9	-26.4	17.2	0.00e+00	0	42	0	3417309184	9	4291
2026-01-11 11:52:47.76	348.06	15.64	-24.9	-26.5	17.2	0.00e+00	0	42	0	3422552064	9	4311
2026-01-11 11:52:48.76	348.01	15.53	-24.9	-26.6	17.1	0.00e+00	0	42	0	3427794944	9	4340
2026-01-11 11:52:49.76	347.95	15.43	-25.0	-26.3	17.1	0.00e+00	0	42	0	3434086400	10	4155
2026-01-11 11:52:50.76	347.90	15.32	-25.2	-26.5	16.9	0.00e+00	0	42	0	3439329280	10	4218
2026-01-11 11:52:51.77	347.85	15.22	-25.1	-26.5	16.9	0.00e+00	0	42	0	3444572160	10	4202
2026-01-11 11:52:52.77	347.79	15.11	-25.2	-26.6	16.9	0.00e+00	0	42	0	3450863616	10	4224
2026-01-11 11:52:53.77	347.74	15.01	-25.1	-26.5	16.9	0.00e+00	0	42	0	3456106496	10	4211
2026-01-11 11:52:54.78	347.69	14.91	-25.3	-26.8	16.7	0.00e+00	0	42	0	3462397952	10	4279
2026-01-11 11:52:55.77	347.64	14.80	-25.3	-26.8	16.7	0.00e+00	0	42	0	3467640832	10	4302
2026-01-11 11:52:56.77	347.59	14.70	-25.4	-27.0	16.6	0.00e+00	0	42	0	3472883712	10	4339
2026-01-11 11:52:57.78	347.54	14.60	-25.3	-26.9	16.6	0.00e+00	0	42	0	3479175168	10	4318
2026-01-11 11:52:58.78	347.49	14.50	-25.4	-27.0	16.6	0.00e+00	0	42	0	3484418048	10	4347
2026-01-11 11:52:59.78	347.44	14.40	-25.4	-27.1	16.6	0.00e+00	0	42	0	3489660928	10	4360
2026-01-11 11:53:00.79	347.39	14.29	-25.4	-27.1	16.6	0.00e+00	0	42	0	3495952384	10	4367
2026-01-11 11:53:01.79	347.34	14.19	-25.5	-26.9	16.4	0.00e+00	0	42	0	3501195264	11	4206
2026-01-11 11:53:02.79	347.29	14.10	-25.9	-27.6	16.0	0.00e+00	0	42	0	3506438144	11	4404
2026-01-11 11:53:03.79	347.24	14.00	-25.8	-27.4	16.1	0.00e+00	0	42	0	3512729600	11	4326
2026-01-11 11:53:04.79	347.19	13.90	-25.7	-27.3	16.1	0.00e+00	0	42	0	3517972480	11	4301
2026-01-11 11:53:05.79	347.15	13.80	-25.7	-27.3	16.2	0.00e+00	0	42	0	3524263936	11	4304
2026-01-11 11:53:06.79	347.10	13.70	-25.8	-27.4	16.1	0.00e+00	0	42	0	3529506816	11	4326
2026-01-11 11:53:07.79	347.05	13.60	-25.8	-27.4	16.0	0.00e+00	0	42	0	3534749696	11	4346
2026-01-11 11:53:08.78	347.01	13.51	-25.8	-27.5	16.0	0.00e+00	0	42	0	3541041152	11	4362
2026-01-11 11:53:09.79	346.96	13.41	-25.8	-27.4	16.0	1.10e-06	0	42	0	3546284032	11	4340
2026-01-11 11:53:10.79	346.91	13.31	-25.9	-27.6	15.9	0.00e+00	0	42	0	3551526912	11	4411
2026-01-11 11:53:11.79	346.87	13.21	-25.9	-27.7	15.9	0.00e+00	0	42	0	3557818368	11	4414
2026-01-11 11:53:12.81	346.82	13.12	-26.0	-27.3	15.7	0.00e+00	0	42	0	3563061248	12	4219
2026-01-11 11:53:13.81	346.78	13.02	-26.3	-28.2	15.2	0.00e+00	0	42	0	3569352704	12	4447
2026-01-11 11:53:14.82	346.73	12.92	-26.2	-27.8	15.4	0.00e+00	0	42	0	3574595584	12	4346
2026-01-11 11:53:15.82	346.69	12.83	-25.9	-27.3	15.7	1.10e-06	0	42	0	3580887040	12	4203
2026-01-11 11:53:16.83	346.64	12.73	-25.8	-27.0	15.9	0.00e+00	0	42	0	3586129920	12	4126
2026-01-11 11:53:17.84	346.60	12.64	-25.8	-26.9	15.9	0.00e+00	0	42	0	3591372800	12	4109
2026-01-11 11:53:18.84	346.56	12.54	-25.9	-27.2	15.7	0.00e+00	0	42	0	3597664256	12	4184
2026-01-11 11:53:19.85	346.51	12.45	-25.8	-27.0	15.9	0.00e+00	0	42	0	3602907136	12	4134
2026-01-11 11:53:20.85	346.47	12.36	-25.8	-27.0	15.9	0.00e+00	0	42	0	3608150016	12	4144
2026-01-11 11:53:21.86	346.43	12.26	-26.0	-27.4	15.7	0.00e+00	0	42	0	3614441472	12	4235
2026-01-11 11:53:22.86	346.39	12.17	-25.9	-27.2	15.7	1.10e-06	0	42	0	3619684352	12	4181
2026-01-11 11:53:23.86	346.34	12.08	-26.0	-27.4	15.6	0.00e+00	0	42	0	3625975808	12	4242
2026-01-11 11:53:24.86	346.30	11.99	-25.8	-27.1	15.8	0.00e+00	0	42	0	3631218688	12	4162
2026-01-11 11:53:25.86	346.26	11.90	-26.0	-27.4	15.6	0.00e+00	0	42	0	3636461568	12	4232
2026-01-11 11:53:26.86	346.22	11.80	-26.0	-27.4	15.6	1.10e-06	0	42	0	3642753024	12	4244
2026-01-11 11:53:27.87	346.18	11.71	-26.0	-27.4	15.6	0.00e+00	0	42	0	3647995904	12	4244
2026-01-11 11:53:28.87	346.14	11.62	-26.0	-27.5	15.5	0.00e+00	0	42	0	3654287360	12	4276
2026-01-11 11:53:29.88	346.10	11.53	-26.0	-27.4	15.6	0.00e+00	0	42	0	3659530240	12	4237
2026-01-11 11:53:30.88	346.06	11.44	-26.1	-27.8	15.4	0.00e+00	0	42	0	3664773120	12	4339
2026-01-11 11:53:31.88	346.02	11.35	-26.1	-27.6	15.5	0.00e+00	0	42	0	3671064576	12	4294
2026-01-11 11:53:32.89	345.98	11.26	-26.0	-27.4	15.6	0.00e+00	0	42	0	3676307456	12	4242
2026-01-11 11:53:33.89	345.94	11.17	-26.2	-27.9	15.3	0.00e+00	0	42	0	3681550336	12	4371
2026-01-11 11:53:34.90	345.90	11.08	-26.1	-27.7	15.4	0.00e+00	0	42	0	3687841792	12	4336
2026-01-11 11:53:35.91	345.86	10.99	-26.1	-27.8	15.4	0.00e+00	0	42	0	3693084672	12	4340
2026-01-11 11:53:36.92	345.82	10.90	-26.3	-28.1	15.1	0.00e+00	0	42	0	3699376128	12	4448
2026-01-11 11:53:37.92	345.78	10.82	-26.2	-28.0	15.2	0.00e+00	0	42	0	3704619008	12	4394
2026-01-11 11:53:38.92	345.75	10.73	-26.0	-27.6	15.5	0.00e+00	0	42	0	3709861888	12	4287
2026-01-11 11:53:39.93	345.71	10.64	-26.0	-27.6	15.4	0.00e+00	0	42	0	3716153344	12	4301
2026-01-11 11:53:40.92	345.67	10.56	-26.0	-27.5	15.5	0.00e+00	0	42	0	3721396224	12	4275
2026-01-11 11:53:41.92	345.63	10.47	-26.0	-27.7	15.3	0.00e+00	0	42	0	3727687680	12	4337
2026-01-11 11:53:42.92	345.60	10.38	-25.9	-27.5	15.5	0.00e+00	0	42	0	3732930560	12	4281
2026-01-11 11:53:43.92	345.56	10.30	-26.0	-27.6	15.3	0.00e+00	0	42	0	3738173440	12	4339
2026-01-11 11:53:44.92	345.52	10.21	-26.0	-27.6	15.4	4.50e-06	0	42	0	3744464896	12	4328
2026-01-11 11:53:45.92	345.49	10.13	-26.1	-27.7	15.2	0.00e+00	0	42	0	3749707776	12	4361
2026-01-11 11:53:46.92	345.45	10.04	-26.0	-27.6	15.3	0.00e+00	0	42	0	3754950656	12	4327
2026-01-11 11:53:47.93	345.42	9.95	-26.1	-27.7	15.3	0.00e+00	0	42	0	3761242112	12	4331
2026-01-11 11:53:48.94	345.38	9.87	-26.1	-27.7	15.3	0.00e+00	0	42	0	3766484992	12	4337
2026-01-11 11:53:49.94	345.35	9.78	-26.2	-27.8	15.2	0.00e+00	0	42	0	3771727872	12	4354
2026-01-11 11:53:50.95	345.31	9.70	-26.3	-28.2	15.0	0.00e+00	0	42	0	3778019328	12	4459
2026-01-11 11:53:51.95	345.28	9.62	-26.3	-28.1	15.1	0.00e+00	0	42	0	3783262208	12	4442
2026-01-11 11:53:52.95	345.24	9.53	-26.2	-27.9	15.2	0.00e+00	0	42	0	3789553664	12	4374
2026-01-11 11:53:53.95	345.21	9.45	-26.2	-27.9	15.2	0.00e+00	0	42	0	3794796544	12	4391
2026-01-11 11:53:54.95	345.17	9.37	-26.2	-28.0	15.1	0.00e+00	0	42	0	3800039424	12	4399
2026-01-11 11:53:55.95	345.14	9.28	-26.3	-28.2	15.0	0.00e+00	0	42	0	3806330880	12	4470
2026-01-11 11:53:56.95	345.10	9.20	-26.2	-27.9	15.2	0.00e+00	0	42	0	3811573760	12	4369
2026-01-11 11:53:57.96	345.07	9.12	-26.3	-28.1	15.0	0.00e+00	0	42	0	3817865216	12	4440
2026-01-11 11:53:58.96	345.04	9.04	-26.3	-28.2	15.0	0.00e+00	0	42	0	3823108096	12	4454
2026-01-11 11:53:59.96	345.00	8.95	-26.5	-28.1	14.7	0.00e+00	0	42	0	3828350976	13	4329
2026-01-11 11:54:00.96	344.97	8.87	-26.3	-27.7	15.0	0.00e+00	0	42	0	3834642432	13	4227
2026-01-11 11:54:01.96	344.94	8.79	-26.5	-28.0	14.8	0.00e+00	0	42	0	3839885312	13	4295
2026-01-11 11:54:02.96	344.91	8.71	-26.4	-27.9	14.8	0.00e+00	0	42	0	3845128192	13	4265
2026-01-11 11:54:03.97	344.87	8.63	-26.4	-27.9	14.8	0.00e+00	0	42	0	3851419648	13	4276
2026-01-11 11:54:04.98	344.84	8.55	-26.5	-28.1	14.7	1.10e-06	0	42	0	3856662528	13	4336
