passes_logs/2026/01/11/R2M6_AANII_01/R2M6_AANII_01__20260111_033007_FENGYUN_3D_rec.log

#Pass ID: 20260111_033007_FENGYUN 3D
#Satellite: FENGYUN 3D
#Configuration: FENGYUN 3D
#almurnet v.1.7.20240730
#Start time: 2026-01-11 03:30:09

#Version: 2.2.20231116
#Station: R2M6_AANII_01
#Location: 30.233357 lon 59.946436 lat
#TLE: 1 43010U 17072A   26009.92921666 -.00000228  00000+0 -86059-4 0  9998
#TLE: 2 43010  98.9936 341.6668 0002176 116.7510 243.3888 14.19693142422537

#Time	Az	El	Level	Level2	SNR	BER	BlckErr	Temp	State	Recorded	gain1	gain2
2026-01-11 03:30:09.08	13.79	7.09	-30.5	-34.8	5.0	8.04e-01	0	40	0	0	21	5897
2026-01-11 03:30:10.08	13.73	7.16	-30.6	-35.1	4.9	8.06e-01	0	40	104	0	21	6019
2026-01-11 03:30:11.09	13.68	7.24	-30.8	-35.5	7.2	1.52e-01	0	40	0	0	21	6209
2026-01-11 03:30:12.09	13.63	7.31	-30.6	-34.9	7.6	1.10e-01	0	40	0	5242880	21	5909
2026-01-11 03:30:13.10	13.57	7.38	-30.3	-34.3	8.4	7.87e-02	0	40	0	10485760	20	5713
2026-01-11 03:30:14.11	13.52	7.46	-30.2	-33.9	8.7	4.46e-02	0	40	0	16777216	20	5555
2026-01-11 03:30:15.11	13.46	7.53	-30.3	-34.3	8.4	4.78e-02	0	40	0	22020096	20	5733
2026-01-11 03:30:16.11	13.41	7.61	-30.6	-34.9	7.6	1.01e-01	0	40	0	28311552	21	5909
2026-01-11 03:30:17.12	13.36	7.68	-30.3	-34.3	8.4	7.42e-02	0	40	0	33554432	20	5708
2026-01-11 03:30:18.13	13.30	7.76	-29.8	-33.4	9.5	2.55e-02	0	40	0	38797312	19	5429
2026-01-11 03:30:19.14	13.24	7.83	-29.4	-32.1	10.4	9.17e-03	0	40	0	45088768	19	4931
2026-01-11 03:30:20.14	13.19	7.91	-29.1	-31.9	10.9	5.86e-03	0	40	0	50331648	18	4967
2026-01-11 03:30:21.14	13.13	7.98	-28.6	-31.2	11.6	3.82e-03	0	40	0	56623104	17	4845
2026-01-11 03:30:22.15	13.08	8.06	-28.3	-30.8	12.2	7.06e-04	0	40	0	61865984	16	4797
2026-01-11 03:30:23.16	13.02	8.14	-28.0	-30.0	12.7	2.39e-03	0	40	0	67108864	16	4549
2026-01-11 03:30:24.16	12.96	8.21	-28.3	-30.9	12.2	5.34e-04	0	40	0	73400320	16	4839
2026-01-11 03:30:25.17	12.91	8.29	-28.0	-30.2	12.6	5.33e-04	0	40	0	78643200	16	4602
2026-01-11 03:30:26.18	12.85	8.36	-27.8	-30.1	12.8	2.45e-03	0	40	0	84934656	15	4691
2026-01-11 03:30:27.19	12.79	8.44	-27.6	-29.7	13.1	2.38e-03	0	40	0	90177536	15	4578
2026-01-11 03:30:28.20	12.73	8.52	-27.9	-30.3	12.7	4.70e-04	0	40	0	95420416	15	4755
2026-01-11 03:30:29.20	12.67	8.60	-27.9	-30.4	12.7	2.28e-03	0	40	0	101711872	15	4794
2026-01-11 03:30:30.21	12.61	8.67	-28.0	-30.2	12.7	2.40e-03	0	40	0	106954752	16	4597
2026-01-11 03:30:31.22	12.55	8.75	-28.3	-30.7	12.4	3.74e-04	0	40	0	113246208	16	4751
2026-01-11 03:30:32.22	12.49	8.83	-28.5	-30.7	12.1	2.64e-03	0	40	0	118489088	17	4668
2026-01-11 03:30:33.23	12.43	8.91	-28.0	-30.1	12.8	2.66e-03	0	40	0	123731968	16	4575
2026-01-11 03:30:34.23	12.37	8.99	-27.5	-29.4	13.3	3.94e-04	0	40	0	130023424	15	4495
2026-01-11 03:30:35.23	12.31	9.06	-27.1	-29.0	13.9	2.21e-03	0	40	0	135266304	14	4480
2026-01-11 03:30:36.24	12.25	9.14	-26.9	-29.1	14.1	2.10e-03	0	41	0	141557760	13	4621
2026-01-11 03:30:37.24	12.19	9.22	-26.9	-29.1	14.1	3.13e-04	0	40	0	146800640	13	4616
2026-01-11 03:30:38.24	12.13	9.30	-27.0	-28.8	14.0	1.10e-06	0	41	0	152043520	14	4413
2026-01-11 03:30:39.25	12.07	9.38	-26.9	-28.9	14.2	1.98e-03	0	40	0	158334976	13	4569
2026-01-11 03:30:40.25	12.01	9.46	-26.7	-28.6	14.4	0.00e+00	0	40	0	163577856	13	4458
2026-01-11 03:30:41.26	11.94	9.54	-26.8	-28.8	14.3	1.88e-03	0	41	0	168820736	13	4525
2026-01-11 03:30:42.26	11.88	9.62	-27.0	-28.8	14.0	3.40e-06	0	40	0	175112192	14	4408
2026-01-11 03:30:43.27	11.82	9.70	-26.9	-28.5	14.2	2.20e-06	0	41	0	180355072	14	4317
2026-01-11 03:30:44.28	11.75	9.78	-26.8	-28.9	14.3	2.11e-03	0	41	0	186646528	13	4555
2026-01-11 03:30:45.28	11.69	9.86	-26.7	-28.5	14.5	3.40e-06	0	41	0	191889408	13	4450
2026-01-11 03:30:46.29	11.62	9.94	-26.5	-28.1	14.7	2.63e-04	0	41	0	198180864	13	4326
2026-01-11 03:30:47.30	11.56	10.02	-26.5	-28.1	14.8	0.00e+00	0	41	0	203423744	13	4312
2026-01-11 03:30:48.31	11.49	10.10	-26.6	-28.2	14.7	1.89e-03	0	41	0	208666624	13	4363
2026-01-11 03:30:49.32	11.43	10.19	-26.7	-28.5	14.5	0.00e+00	0	41	0	214958080	13	4447
2026-01-11 03:30:50.33	11.36	10.27	-26.7	-28.5	14.5	1.10e-06	0	41	0	220200960	13	4445
2026-01-11 03:30:51.34	11.29	10.35	-26.6	-28.4	14.6	1.10e-06	0	41	0	226492416	13	4403
2026-01-11 03:30:52.34	11.23	10.43	-26.7	-28.4	14.6	3.40e-06	0	41	0	231735296	13	4414
2026-01-11 03:30:53.35	11.16	10.51	-26.6	-28.3	14.7	2.20e-06	0	41	0	236978176	13	4378
2026-01-11 03:30:54.36	11.09	10.60	-26.5	-28.1	14.8	1.10e-06	0	41	0	243269632	13	4332
2026-01-11 03:30:55.37	11.02	10.68	-26.5	-28.2	14.7	1.10e-06	0	41	0	248512512	13	4342
2026-01-11 03:30:56.37	10.95	10.76	-26.7	-28.5	14.6	2.20e-06	0	41	0	254803968	13	4433
2026-01-11 03:30:57.37	10.88	10.85	-26.8	-28.8	14.4	5.70e-06	0	41	0	260046848	13	4515
2026-01-11 03:30:58.38	10.81	10.93	-26.7	-28.5	14.6	0.00e+00	0	41	0	265289728	13	4434
2026-01-11 03:30:59.39	10.74	11.02	-26.5	-28.1	14.8	0.00e+00	0	41	0	271581184	13	4321
2026-01-11 03:31:00.39	10.67	11.10	-26.5	-28.1	14.8	0.00e+00	0	41	0	276824064	13	4324
2026-01-11 03:31:01.40	10.60	11.18	-26.5	-28.1	14.4	1.10e-06	0	41	0	283115520	13	4326
2026-01-11 03:31:02.41	10.53	11.27	-26.6	-28.3	14.4	0.00e+00	0	41	0	288358400	13	4389
2026-01-11 03:31:03.41	10.46	11.35	-26.5	-28.2	14.8	0.00e+00	0	41	0	293601280	13	4343
2026-01-11 03:31:04.41	10.39	11.44	-26.4	-27.8	15.0	1.74e-04	0	41	0	299892736	13	4241
2026-01-11 03:31:05.42	10.32	11.52	-26.3	-28.0	15.2	0.00e+00	0	41	0	305135616	12	4418
2026-01-11 03:31:06.43	10.24	11.61	-26.4	-28.3	15.0	0.00e+00	0	41	0	310378496	12	4480
2026-01-11 03:31:07.43	10.17	11.70	-26.4	-27.8	15.0	0.00e+00	0	41	0	316669952	13	4230
2026-01-11 03:31:08.44	10.10	11.78	-26.2	-27.9	15.2	0.00e+00	0	41	0	321912832	12	4375
2026-01-11 03:31:09.45	10.02	11.87	-26.3	-28.0	15.1	0.00e+00	0	41	0	328204288	12	4423
2026-01-11 03:31:10.45	9.95	11.96	-26.2	-28.0	15.2	0.00e+00	0	41	0	333447168	12	4404
2026-01-11 03:31:11.46	9.87	12.04	-26.1	-27.7	15.3	2.18e-04	0	41	0	339738624	12	4332
2026-01-11 03:31:12.46	9.80	12.13	-26.0	-27.5	15.5	0.00e+00	0	41	0	344981504	12	4268
2026-01-11 03:31:13.47	9.72	12.22	-25.9	-27.2	15.6	1.73e-04	0	41	0	350224384	12	4193
2026-01-11 03:31:14.48	9.64	12.31	-25.9	-27.3	15.6	0.00e+00	0	41	0	356515840	12	4217
2026-01-11 03:31:15.48	9.57	12.39	-25.8	-26.9	15.8	0.00e+00	0	41	0	361758720	12	4116
2026-01-11 03:31:16.49	9.49	12.48	-25.8	-27.0	15.8	1.93e-04	0	41	0	368050176	12	4130
2026-01-11 03:31:17.49	9.41	12.57	-25.9	-27.6	15.8	1.86e-04	0	41	0	373293056	11	4403
2026-01-11 03:31:18.50	9.33	12.66	-25.8	-27.5	15.9	1.37e-05	0	41	0	378535936	11	4385
2026-01-11 03:31:19.51	9.25	12.75	-25.7	-27.3	16.0	0.00e+00	0	41	0	384827392	11	4326
2026-01-11 03:31:20.52	9.17	12.84	-25.7	-27.3	16.0	1.64e-04	0	41	0	390070272	11	4327
2026-01-11 03:31:21.52	9.09	12.93	-25.7	-27.2	16.0	0.00e+00	0	41	0	395313152	11	4301
2026-01-11 03:31:22.53	9.01	13.02	-25.8	-27.4	15.9	1.49e-04	0	41	0	401604608	11	4340
2026-01-11 03:31:23.54	8.93	13.11	-25.8	-27.4	15.9	1.52e-04	0	41	0	406847488	11	4352
2026-01-11 03:31:24.54	8.85	13.20	-25.8	-27.5	15.9	0.00e+00	0	41	0	413138944	11	4379
2026-01-11 03:31:25.55	8.77	13.29	-25.7	-27.3	16.0	1.73e-04	0	41	0	418381824	11	4322
2026-01-11 03:31:26.56	8.68	13.38	-25.0	-26.5	15.7	1.49e-04	0	41	0	424673280	11	4261
2026-01-11 03:31:27.57	8.60	13.47	-25.8	-27.5	15.4	0.00e+00	0	41	0	429916160	11	4378
2026-01-11 03:31:28.58	8.51	13.56	-25.8	-27.4	12.5	6.98e-05	0	41	0	435159040	11	4348
2026-01-11 03:31:29.58	8.43	13.66	-25.8	-27.6	15.9	1.10e-04	0	41	0	441450496	11	4394
2026-01-11 03:31:30.59	8.35	13.75	-25.8	-27.6	15.9	1.62e-04	0	41	0	446693376	11	4389
2026-01-11 03:31:31.60	8.26	13.84	-25.7	-27.2	16.1	1.05e-04	0	41	0	452984832	11	4288
2026-01-11 03:31:32.60	8.17	13.93	-25.6	-27.1	16.1	1.18e-04	0	41	0	458227712	11	4268
2026-01-11 03:31:33.61	8.09	14.03	-25.8	-27.4	16.0	1.34e-04	0	41	0	463470592	11	4352
2026-01-11 03:31:34.61	8.00	14.12	-25.8	-27.5	15.9	1.27e-04	0	41	0	469762048	11	4369
2026-01-11 03:31:35.62	7.91	14.21	-25.8	-27.5	16.0	1.78e-03	0	41	0	475004928	11	4368
2026-01-11 03:31:36.62	7.82	14.31	-25.8	-27.5	15.9	0.00e+00	0	41	0	480247808	11	4371
2026-01-11 03:31:37.63	7.74	14.40	-25.7	-27.2	16.1	1.61e-03	0	41	0	486539264	11	4298
2026-01-11 03:31:38.64	7.65	14.50	-25.8	-27.6	15.9	3.66e-05	0	41	0	491782144	11	4385
2026-01-11 03:31:39.64	7.56	14.59	-25.8	-27.6	15.9	1.09e-04	0	41	0	498073600	11	4388
2026-01-11 03:31:40.65	7.46	14.69	-25.7	-27.1	16.2	1.52e-03	0	41	0	503316480	11	4272
2026-01-11 03:31:41.66	7.37	14.78	-25.7	-27.2	16.1	0.00e+00	0	41	0	509607936	11	4301
2026-01-11 03:31:42.66	7.28	14.88	-25.7	-27.3	16.1	6.86e-05	0	41	0	514850816	11	4313
2026-01-11 03:31:43.67	7.19	14.97	-25.6	-27.1	16.2	3.40e-06	0	42	0	520093696	11	4259
2026-01-11 03:31:44.68	7.09	15.07	-25.5	-26.8	16.4	1.52e-03	0	42	0	526385152	11	4183
2026-01-11 03:31:45.69	7.00	15.17	-25.4	-26.6	16.5	1.02e-04	0	41	0	531628032	11	4130
2026-01-11 03:31:46.69	6.91	15.26	-25.5	-27.2	16.4	1.55e-03	0	41	0	537919488	10	4409
2026-01-11 03:31:47.70	6.81	15.36	-25.4	-26.6	16.5	1.50e-03	0	41	0	543162368	11	4129
2026-01-11 03:31:48.71	6.72	15.46	-25.3	-26.9	16.6	1.09e-04	0	41	0	548405248	10	4320
2026-01-11 03:31:49.72	6.62	15.56	-25.4	-27.0	16.6	1.55e-03	0	42	0	554696704	10	4339
2026-01-11 03:31:50.72	6.52	15.65	-25.2	-26.7	16.7	4.39e-04	0	41	0	559939584	10	4268
2026-01-11 03:31:51.73	6.42	15.75	-25.1	-26.5	16.8	1.01e-04	0	42	0	565182464	10	4206
2026-01-11 03:31:52.73	6.33	15.85	-25.2	-26.5	16.8	0.00e+00	0	41	0	571473920	10	4226
2026-01-11 03:31:53.74	6.23	15.95	-25.1	-26.4	16.9	1.50e-03	0	41	0	576716800	10	4195
2026-01-11 03:31:54.74	6.13	16.05	-24.9	-26.1	17.1	1.62e-04	0	41	0	583008256	10	4101
2026-01-11 03:31:55.75	6.03	16.15	-24.9	-26.1	17.1	1.56e-03	0	42	0	588251136	10	4099
2026-01-11 03:31:56.76	5.93	16.25	-25.0	-26.3	17.0	1.51e-03	0	42	0	594542592	10	4158
2026-01-11 03:31:57.77	5.82	16.35	-25.0	-26.2	17.1	0.00e+00	0	41	0	599785472	10	4126
2026-01-11 03:31:58.78	5.72	16.45	-25.0	-26.3	17.0	1.55e-03	0	42	0	605028352	10	4154
2026-01-11 03:31:59.79	5.62	16.55	-25.0	-26.2	17.0	0.00e+00	0	42	0	611319808	10	4139
2026-01-11 03:32:00.79	5.51	16.65	-25.1	-26.4	16.9	1.61e-04	0	42	0	616562688	10	4186
2026-01-11 03:32:01.79	5.41	16.75	-25.1	-26.4	16.9	0.00e+00	0	42	0	622854144	10	4181
2026-01-11 03:32:02.80	5.30	16.86	-25.1	-26.5	16.8	0.00e+00	0	42	0	628097024	10	4226
2026-01-11 03:32:03.80	5.20	16.96	-25.1	-26.5	16.9	0.00e+00	0	41	0	633339904	10	4204
2026-01-11 03:32:04.80	5.09	17.06	-25.3	-26.8	16.7	0.00e+00	0	42	0	639631360	10	4290
2026-01-11 03:32:05.81	4.98	17.16	-25.2	-26.6	16.8	1.54e-03	0	42	0	644874240	10	4248
2026-01-11 03:32:06.81	4.88	17.27	-25.0	-26.2	17.0	0.00e+00	0	42	0	650117120	10	4140
2026-01-11 03:32:07.82	4.77	17.37	-25.0	-26.1	17.1	0.00e+00	0	41	0	656408576	10	4120
2026-01-11 03:32:08.83	4.66	17.47	-25.1	-26.5	16.9	0.00e+00	0	41	0	661651456	10	4200
2026-01-11 03:32:09.84	4.54	17.58	-24.9	-25.9	17.2	0.00e+00	0	41	0	667942912	10	4060
2026-01-11 03:32:10.84	4.43	17.68	-24.7	-26.1	17.3	0.00e+00	0	42	0	673185792	9	4230
2026-01-11 03:32:11.85	4.32	17.79	-24.7	-26.0	17.4	0.00e+00	0	41	0	679477248	9	4202
2026-01-11 03:32:12.86	4.21	17.89	-24.8	-26.2	17.3	0.00e+00	0	41	0	684720128	9	4263
2026-01-11 03:32:13.86	4.09	18.00	-24.7	-26.1	17.4	0.00e+00	0	42	0	689963008	9	4217
2026-01-11 03:32:14.87	3.98	18.11	-24.5	-25.7	17.6	0.00e+00	0	42	0	696254464	9	4106
2026-01-11 03:32:15.87	3.86	18.21	-24.6	-25.8	17.6	0.00e+00	0	41	0	701497344	9	4133
2026-01-11 03:32:16.88	3.75	18.32	-24.7	-26.0	17.5	0.00e+00	0	42	0	707788800	9	4190
2026-01-11 03:32:17.89	3.63	18.43	-24.5	-25.6	17.6	0.00e+00	0	42	0	713031680	9	4097
2026-01-11 03:32:18.90	3.51	18.53	-24.5	-25.7	17.6	0.00e+00	0	42	0	718274560	9	4118
2026-01-11 03:32:19.91	3.39	18.64	-24.4	-25.5	17.7	0.00e+00	0	42	0	724566016	9	4070
2026-01-11 03:32:20.91	3.27	18.75	-24.4	-25.5	17.7	0.00e+00	0	42	0	729808896	9	4062
2026-01-11 03:32:21.92	3.15	18.86	-24.5	-26.0	17.7	0.00e+00	0	42	0	735051776	8	4321
2026-01-11 03:32:22.93	3.03	18.97	-24.4	-25.3	17.8	0.00e+00	0	42	0	741343232	9	4029
2026-01-11 03:32:23.93	2.91	19.07	-24.4	-25.5	17.7	0.00e+00	0	42	0	746586112	9	4065
2026-01-11 03:32:24.94	2.78	19.18	-24.3	-25.3	17.8	0.00e+00	0	42	0	752877568	9	4011
2026-01-11 03:32:25.94	2.66	19.29	-24.3	-25.6	17.9	0.00e+00	0	42	0	758120448	8	4207
2026-01-11 03:32:26.95	2.53	19.40	-24.3	-25.7	17.9	0.00e+00	0	42	0	764411904	8	4227
2026-01-11 03:32:27.96	2.40	19.51	-24.2	-25.5	18.0	0.00e+00	0	42	0	769654784	8	4180
2026-01-11 03:32:28.96	2.28	19.62	-24.3	-25.7	17.9	0.00e+00	0	42	0	774897664	8	4224
2026-01-11 03:32:29.96	2.15	19.73	-24.3	-25.6	17.9	0.00e+00	0	42	0	781189120	8	4212
2026-01-11 03:32:30.97	2.02	19.85	-24.4	-25.9	17.8	0.00e+00	0	42	0	786432000	8	4278
2026-01-11 03:32:31.97	1.89	19.96	-24.3	-25.6	17.9	0.00e+00	0	42	0	791674880	8	4209
2026-01-11 03:32:32.98	1.76	20.07	-24.3	-25.7	17.9	0.00e+00	0	42	0	797966336	8	4243
2026-01-11 03:32:33.98	1.63	20.18	-24.2	-25.5	18.0	0.00e+00	0	42	0	803209216	8	4187
2026-01-11 03:32:34.98	1.50	20.29	-24.3	-25.7	17.9	0.00e+00	0	42	0	809500672	8	4233
2026-01-11 03:32:35.99	1.36	20.41	-24.2	-25.4	18.1	0.00e+00	0	42	0	814743552	8	4155
2026-01-11 03:32:37.00	1.23	20.52	-24.1	-25.3	18.1	0.00e+00	0	42	0	819986432	8	4136
2026-01-11 03:32:38.00	1.09	20.63	-24.3	-25.6	18.0	0.00e+00	0	42	0	826277888	8	4206
2026-01-11 03:32:39.00	0.95	20.75	-24.0	-25.1	18.2	0.00e+00	0	42	0	831520768	8	4076
2026-01-11 03:32:40.01	0.82	20.86	-24.0	-25.0	18.3	0.00e+00	0	42	0	837812224	8	4061
2026-01-11 03:32:41.02	0.68	20.98	-24.1	-25.3	18.1	0.00e+00	0	42	0	843055104	8	4135
2026-01-11 03:32:42.02	0.54	21.09	-24.0	-25.1	18.3	0.00e+00	0	42	0	848297984	8	4071
2026-01-11 03:32:43.03	0.39	21.21	-24.0	-25.0	14.4	0.00e+00	0	42	0	854589440	8	4051
2026-01-11 03:32:44.03	0.25	21.32	-24.0	-25.1	18.2	0.00e+00	0	42	0	859832320	8	4065
2026-01-11 03:32:45.04	0.11	21.44	-24.0	-25.0	18.3	0.00e+00	0	42	0	866123776	8	4064
2026-01-11 03:32:46.05	359.96	21.56	-24.0	-25.0	18.3	1.38e-03	0	42	0	871366656	8	4044
2026-01-11 03:32:47.06	359.82	21.67	-24.0	-25.1	18.3	0.00e+00	0	42	0	876609536	8	4081
2026-01-11 03:32:48.06	359.67	21.79	-24.0	-25.1	18.3	0.00e+00	0	42	0	882900992	8	4082
2026-01-11 03:32:49.07	359.52	21.91	-24.0	-25.1	18.3	5.37e-05	0	42	0	888143872	8	4070
2026-01-11 03:32:50.07	359.37	22.02	-24.1	-25.2	18.3	4.00e-05	0	42	0	893386752	8	4102
2026-01-11 03:32:51.07	359.22	22.14	-23.8	-25.2	18.5	0.00e+00	0	42	0	899678208	7	4212
2026-01-11 03:32:52.07	359.07	22.26	-23.7	-24.9	18.6	3.40e-06	0	42	0	904921088	7	4132
2026-01-11 03:32:53.07	358.92	22.38	-23.6	-24.8	18.7	1.34e-03	0	42	0	911212544	7	4110
2026-01-11 03:32:54.08	358.77	22.50	-23.7	-25.0	18.6	0.00e+00	0	42	0	916455424	7	4154
2026-01-11 03:32:55.09	358.61	22.62	-23.6	-24.6	18.8	1.23e-03	0	42	0	922746880	7	4072
2026-01-11 03:32:56.10	358.45	22.74	-23.6	-24.8	18.7	7.89e-05	0	42	0	927989760	7	4119
2026-01-11 03:32:57.11	358.30	22.86	-23.5	-24.6	18.8	0.00e+00	0	42	0	933232640	7	4050
2026-01-11 03:32:58.12	358.14	22.98	-23.5	-24.5	18.9	1.48e-03	0	42	0	939524096	7	4027
2026-01-11 03:32:59.13	357.98	23.10	-23.5	-24.6	18.8	6.06e-05	0	42	0	944766976	7	4058
2026-01-11 03:33:00.13	357.82	23.22	-23.7	-24.9	18.6	1.73e-04	0	42	0	951058432	7	4139
2026-01-11 03:33:01.14	357.65	23.34	-23.5	-24.5	18.8	3.89e-05	0	42	0	956301312	7	4050
2026-01-11 03:33:02.15	357.49	23.47	-23.8	-25.0	18.5	1.25e-03	0	42	0	961544192	7	4173
2026-01-11 03:33:03.15	357.32	23.59	-23.5	-24.5	18.9	2.39e-04	0	42	0	967835648	7	4032
2026-01-11 03:33:04.16	357.16	23.71	-23.4	-24.4	18.9	1.17e-03	0	42	0	973078528	7	4015
2026-01-11 03:33:05.17	356.99	23.83	-23.5	-24.4	18.9	1.42e-03	0	42	0	978321408	7	4023
2026-01-11 03:33:06.17	356.82	23.95	-23.4	-24.7	19.0	1.57e-04	0	42	0	984612864	6	4211
2026-01-11 03:33:07.17	356.65	24.08	-23.5	-24.9	18.9	1.18e-03	0	42	0	989855744	6	4245
2026-01-11 03:33:08.18	356.48	24.20	-23.4	-24.8	18.9	0.00e+00	0	42	0	996147200	6	4229
2026-01-11 03:33:09.18	356.30	24.32	-23.5	-24.6	18.8	1.06e-04	0	42	0	1001390080	7	4054
2026-01-11 03:33:10.19	356.13	24.45	-23.5	-24.6	18.8	1.09e-03	0	42	0	1007681536	7	4061
2026-01-11 03:33:11.19	355.95	24.57	-23.6	-24.8	18.8	1.00e-03	0	42	0	1012924416	7	4107
2026-01-11 03:33:12.20	355.77	24.70	-23.8	-25.2	18.5	9.26e-05	0	42	0	1018167296	7	4223
2026-01-11 03:33:13.20	355.60	24.82	-23.9	-25.4	18.4	9.47e-04	0	42	0	1024458752	7	4276
2026-01-11 03:33:14.20	355.42	24.95	-23.9	-25.3	18.5	9.25e-04	0	42	0	1029701632	7	4235
2026-01-11 03:33:15.21	355.23	25.07	-23.9	-25.2	18.5	0.00e+00	0	42	0	1034944512	7	4223
2026-01-11 03:33:16.22	355.05	25.20	-23.9	-25.3	18.5	8.00e-04	0	42	0	1041235968	7	4233
2026-01-11 03:33:17.22	354.87	25.33	-23.6	-24.7	18.8	0.00e+00	0	42	0	1046478848	7	4095
2026-01-11 03:33:18.23	354.68	25.45	-23.5	-24.6	18.8	8.01e-05	0	42	0	1051721728	7	4059
2026-01-11 03:33:19.23	354.49	25.58	-23.6	-24.6	18.8	0.00e+00	0	42	0	1058013184	7	4069
2026-01-11 03:33:20.24	354.30	25.71	-23.5	-24.5	18.9	5.81e-04	0	42	0	1063256064	7	4037
2026-01-11 03:33:21.25	354.11	25.83	-23.7	-24.9	18.7	8.69e-05	0	42	0	1069547520	7	4124
2026-01-11 03:33:22.26	353.92	25.96	-23.3	-24.1	19.1	0.00e+00	0	42	0	1074790400	7	3933
2026-01-11 03:33:23.26	353.72	26.09	-23.1	-24.2	19.3	7.84e-04	0	42	0	1081081856	6	4079
2026-01-11 03:33:24.27	353.53	26.22	-23.3	-24.5	19.2	0.00e+00	0	42	0	1086324736	6	4161
2026-01-11 03:33:25.27	353.33	26.34	-23.2	-24.3	19.3	7.79e-04	0	42	0	1091567616	6	4108
2026-01-11 03:33:26.28	353.13	26.47	-23.1	-24.3	19.3	0.00e+00	0	42	0	1097859072	6	4088
2026-01-11 03:33:27.28	352.93	26.60	-23.2	-24.3	19.2	0.00e+00	0	42	0	1103101952	6	4108
2026-01-11 03:33:28.28	352.73	26.73	-23.1	-24.3	19.3	0.00e+00	0	42	0	1109393408	6	4091
2026-01-11 03:33:29.29	352.52	26.86	-23.2	-24.3	19.3	0.00e+00	0	42	0	1114636288	6	4094
2026-01-11 03:33:30.29	352.32	26.99	-23.2	-24.3	19.3	0.00e+00	0	42	0	1119879168	6	4097
2026-01-11 03:33:31.30	352.11	27.12	-22.9	-23.8	19.6	0.00e+00	0	42	0	1126170624	6	3973
2026-01-11 03:33:32.31	351.90	27.25	-22.8	-23.6	19.6	0.00e+00	0	42	0	1131413504	6	3938
2026-01-11 03:33:33.32	351.69	27.38	-22.9	-23.7	19.6	0.00e+00	0	42	0	1136656384	6	3959
2026-01-11 03:33:34.32	351.48	27.51	-22.9	-23.7	19.6	0.00e+00	0	42	0	1142947840	6	3948
2026-01-11 03:33:35.33	351.26	27.64	-22.9	-23.7	19.6	0.00e+00	0	42	0	1148190720	6	3951
2026-01-11 03:33:36.33	351.05	27.77	-23.0	-23.9	19.5	0.00e+00	0	42	0	1154482176	6	4001
2026-01-11 03:33:37.33	350.83	27.90	-23.1	-24.1	19.4	0.00e+00	0	42	0	1159725056	6	4043
2026-01-11 03:33:38.34	350.61	28.03	-23.1	-24.2	19.4	0.00e+00	0	42	0	1166016512	6	4071
2026-01-11 03:33:39.34	350.39	28.16	-23.1	-24.2	19.3	0.00e+00	0	42	0	1171259392	6	4082
2026-01-11 03:33:40.35	350.16	28.29	-23.2	-24.3	19.3	0.00e+00	0	42	0	1176502272	6	4097
2026-01-11 03:33:41.35	349.94	28.42	-23.2	-24.4	19.3	0.00e+00	0	42	0	1182793728	6	4113
2026-01-11 03:33:42.35	349.71	28.55	-23.1	-24.1	19.4	0.00e+00	0	42	0	1188036608	6	4054
2026-01-11 03:33:43.36	349.48	28.68	-23.1	-24.1	19.4	0.00e+00	0	42	0	1193279488	6	4048
2026-01-11 03:33:44.37	349.25	28.82	-22.9	-23.8	19.6	0.00e+00	0	42	0	1199570944	6	3976
2026-01-11 03:33:45.37	349.02	28.95	-23.0	-23.9	19.5	0.00e+00	0	42	0	1204813824	6	4008
2026-01-11 03:33:46.38	348.78	29.08	-23.0	-24.0	19.5	0.00e+00	0	42	0	1211105280	6	4014
2026-01-11 03:33:47.39	348.55	29.21	-23.0	-24.0	19.5	0.00e+00	0	42	0	1216348160	6	4014
2026-01-11 03:33:48.39	348.31	29.34	-23.0	-23.9	19.5	0.00e+00	0	42	0	1221591040	6	4006
2026-01-11 03:33:49.40	348.07	29.47	-23.0	-24.0	19.5	0.00e+00	0	42	0	1227882496	6	4016
2026-01-11 03:33:50.40	347.83	29.60	-23.0	-24.0	19.5	0.00e+00	0	42	0	1233125376	6	4025
2026-01-11 03:33:51.41	347.58	29.74	-23.1	-24.1	19.5	0.00e+00	0	42	0	1239416832	6	4044
2026-01-11 03:33:52.42	347.33	29.87	-23.0	-23.9	19.5	0.00e+00	0	42	0	1244659712	6	4018
2026-01-11 03:33:53.43	347.08	30.00	-22.9	-23.8	19.6	0.00e+00	0	42	0	1249902592	6	3979
2026-01-11 03:33:54.43	346.83	30.13	-22.8	-23.6	19.7	0.00e+00	0	42	0	1256194048	6	3930
2026-01-11 03:33:55.44	346.58	30.27	-23.0	-23.9	19.5	0.00e+00	0	42	0	1261436928	6	4011
2026-01-11 03:33:56.44	346.32	30.40	-23.2	-24.4	19.3	0.00e+00	0	42	0	1267728384	6	4117
2026-01-11 03:33:57.45	346.07	30.53	-23.3	-24.5	19.2	2.67e-04	0	42	0	1272971264	6	4161
2026-01-11 03:33:58.46	345.80	30.66	-23.2	-24.3	19.4	0.00e+00	0	42	0	1278214144	6	4093
2026-01-11 03:33:59.47	345.54	30.79	-23.1	-24.2	19.4	0.00e+00	0	42	0	1284505600	6	4078
2026-01-11 03:34:00.47	345.28	30.92	-23.2	-24.4	19.3	0.00e+00	0	42	0	1289748480	6	4110
2026-01-11 03:34:01.47	345.01	31.06	-23.3	-24.5	19.3	0.00e+00	0	42	0	1294991360	6	4149
2026-01-11 03:34:02.48	344.75	31.19	-23.1	-24.2	19.4	0.00e+00	0	42	0	1301282816	6	4074
2026-01-11 03:34:03.49	344.47	31.32	-23.1	-24.1	19.5	0.00e+00	0	42	0	1306525696	6	4052
2026-01-11 03:34:04.49	344.20	31.45	-23.0	-24.0	19.5	1.26e-04	0	42	0	1312817152	6	4030
2026-01-11 03:34:05.50	343.93	31.58	-23.0	-23.9	19.6	0.00e+00	0	42	0	1318060032	6	3997
2026-01-11 03:34:06.50	343.65	31.71	-23.0	-23.8	19.6	3.77e-05	0	42	0	1324351488	6	3989
2026-01-11 03:34:07.51	343.37	31.84	-23.0	-24.0	19.5	0.00e+00	0	42	0	1329594368	6	4036
2026-01-11 03:34:08.52	343.09	31.97	-22.9	-23.8	19.6	0.00e+00	0	42	0	1334837248	6	3971
2026-01-11 03:34:09.52	342.80	32.10	-22.9	-23.8	19.6	2.28e-05	0	42	0	1341128704	6	3978
2026-01-11 03:34:10.53	342.52	32.23	-22.9	-23.7	19.7	0.00e+00	0	42	0	1346371584	6	3946
2026-01-11 03:34:11.53	342.23	32.36	-22.8	-23.6	19.7	0.00e+00	0	42	0	1352663040	6	3932
2026-01-11 03:34:12.54	341.94	32.49	-23.0	-23.9	19.6	8.54e-04	0	42	0	1357905920	6	3994
2026-01-11 03:34:13.55	341.64	32.62	-23.1	-24.2	19.4	1.60e-05	0	42	0	1363148800	6	4087
2026-01-11 03:34:14.56	341.35	32.75	-23.1	-24.2	19.4	0.00e+00	0	42	0	1369440256	6	4068
2026-01-11 03:34:15.57	341.05	32.88	-23.0	-24.0	19.5	0.00e+00	0	42	0	1374683136	6	4020
2026-01-11 03:34:16.58	340.74	33.01	-23.1	-24.1	19.5	0.00e+00	0	42	0	1380974592	6	4040
2026-01-11 03:34:17.58	340.44	33.14	-23.1	-24.1	19.5	1.48e-05	0	42	0	1386217472	6	4047
2026-01-11 03:34:18.59	340.14	33.26	-23.0	-24.0	19.5	0.00e+00	0	42	0	1391460352	6	4024
2026-01-11 03:34:19.60	339.83	33.39	-23.0	-24.1	19.5	8.04e-04	0	42	0	1397751808	6	4043
2026-01-11 03:34:20.60	339.52	33.52	-23.0	-23.9	19.6	0.00e+00	0	42	0	1402994688	6	4010
2026-01-11 03:34:21.61	339.21	33.64	-23.0	-24.0	19.5	7.76e-04	0	42	0	1409286144	6	4023
2026-01-11 03:34:22.62	338.89	33.77	-22.7	-23.4	19.9	8.06e-04	0	42	0	1414529024	6	3878
2026-01-11 03:34:23.63	338.57	33.90	-22.5	-23.0	20.1	0.00e+00	0	42	0	1419771904	6	3779
2026-01-11 03:34:24.63	338.25	34.02	-22.5	-23.4	20.1	1.12e-03	0	42	0	1426063360	5	4000
2026-01-11 03:34:25.63	337.93	34.14	-22.6	-23.7	20.0	1.07e-03	0	42	0	1431306240	5	4065
2026-01-11 03:34:26.64	337.60	34.27	-22.6	-23.6	20.0	3.43e-05	0	42	0	1437597696	5	4054
2026-01-11 03:34:27.64	337.28	34.39	-22.6	-23.5	20.0	4.42e-04	0	42	0	1442840576	5	4016
2026-01-11 03:34:28.65	336.95	34.51	-22.6	-23.6	20.0	8.37e-04	0	42	0	1448083456	5	4036
2026-01-11 03:34:29.66	336.61	34.63	-22.5	-23.4	20.1	2.51e-05	0	42	0	1454374912	5	3995
2026-01-11 03:34:30.67	336.28	34.76	-22.5	-23.3	20.1	7.97e-04	0	42	0	1459617792	5	3977
2026-01-11 03:34:31.68	335.94	34.88	-22.6	-23.5	20.0	9.03e-04	0	42	0	1464860672	5	4022
2026-01-11 03:34:32.68	335.60	35.00	-22.6	-23.6	20.0	0.00e+00	0	42	0	1471152128	5	4042
2026-01-11 03:34:33.69	335.26	35.12	-22.7	-23.8	19.9	9.41e-04	0	42	0	1476395008	5	4087
2026-01-11 03:34:34.69	334.91	35.23	-22.7	-23.7	20.0	0.00e+00	0	42	0	1482686464	5	4072
2026-01-11 03:34:35.70	334.56	35.35	-22.7	-23.8	19.9	0.00e+00	0	42	0	1487929344	5	4086
2026-01-11 03:34:36.71	334.21	35.47	-22.8	-24.0	19.8	8.72e-04	0	42	0	1494220800	5	4133
2026-01-11 03:34:37.71	333.86	35.58	-22.7	-23.9	19.9	7.11e-04	0	42	0	1499463680	5	4106
2026-01-11 03:34:38.72	333.50	35.70	-22.5	-23.3	20.2	0.00e+00	0	42	0	1504706560	5	3973
2026-01-11 03:34:39.72	333.15	35.81	-22.4	-23.2	20.2	0.00e+00	0	42	0	1510998016	5	3943
2026-01-11 03:34:40.72	332.79	35.93	-22.4	-23.2	20.2	6.24e-04	0	42	0	1516240896	5	3955
2026-01-11 03:34:41.72	332.43	36.04	-22.5	-23.4	20.1	0.00e+00	0	42	0	1521483776	5	4000
2026-01-11 03:34:42.72	332.07	36.15	-22.5	-23.3	20.1	6.60e-04	0	42	0	1527775232	5	3974
2026-01-11 03:34:43.73	331.70	36.26	-22.3	-23.0	20.3	6.67e-04	0	42	0	1533018112	5	3891
2026-01-11 03:34:44.73	331.33	36.37	-22.4	-23.1	20.3	0.00e+00	0	42	0	1539309568	5	3910
2026-01-11 03:34:45.75	330.95	36.48	-22.5	-23.4	20.1	0.00e+00	0	42	0	1544552448	5	3986
2026-01-11 03:34:46.75	330.58	36.59	-22.7	-23.7	20.0	0.00e+00	0	42	0	1549795328	5	4074
2026-01-11 03:34:47.76	330.20	36.69	-22.7	-23.8	19.9	0.00e+00	0	42	0	1556086784	5	4089
2026-01-11 03:34:48.77	329.81	36.80	-22.6	-23.6	20.1	0.00e+00	0	42	0	1561329664	5	4032
2026-01-11 03:34:49.78	329.43	36.91	-22.5	-23.4	20.1	2.62e-04	0	42	0	1567621120	5	3988
2026-01-11 03:34:50.78	329.05	37.01	-22.6	-23.6	20.1	0.00e+00	0	42	0	1572864000	5	4028
2026-01-11 03:34:51.78	328.66	37.11	-22.5	-23.4	20.1	0.00e+00	0	42	0	1579155456	5	3983
2026-01-11 03:34:52.79	328.27	37.21	-22.5	-23.3	20.1	0.00e+00	0	42	0	1584398336	5	3976
2026-01-11 03:34:53.80	327.87	37.31	-22.6	-23.6	20.0	0.00e+00	0	42	0	1589641216	5	4041
2026-01-11 03:34:54.80	327.48	37.41	-22.6	-23.6	20.0	0.00e+00	0	42	0	1595932672	5	4038
2026-01-11 03:34:55.81	327.08	37.51	-22.8	-23.9	19.8	0.00e+00	0	42	0	1601175552	5	4115
2026-01-11 03:34:56.82	326.68	37.60	-22.7	-23.8	19.9	0.00e+00	0	42	0	1606418432	5	4081
2026-01-11 03:34:57.82	326.28	37.70	-22.6	-23.7	20.0	0.00e+00	0	42	0	1612709888	5	4057
2026-01-11 03:34:58.83	325.87	37.79	-22.5	-23.4	20.1	0.00e+00	0	42	0	1617952768	5	3998
2026-01-11 03:34:59.84	325.46	37.88	-22.6	-23.5	20.0	0.00e+00	0	42	0	1624244224	5	4008
2026-01-11 03:35:00.85	325.05	37.97	-22.6	-23.5	20.0	0.00e+00	0	42	0	1629487104	5	4024
2026-01-11 03:35:01.86	324.64	38.06	-22.7	-23.9	19.9	0.00e+00	0	42	0	1634729984	5	4115
2026-01-11 03:35:02.87	324.22	38.15	-22.8	-24.1	19.8	0.00e+00	0	42	0	1641021440	5	4167
2026-01-11 03:35:03.88	323.81	38.24	-22.7	-23.8	19.9	0.00e+00	0	42	0	1646264320	5	4097
2026-01-11 03:35:04.88	323.39	38.32	-22.7	-23.9	19.9	0.00e+00	0	42	0	1652555776	5	4102
2026-01-11 03:35:05.89	322.97	38.40	-22.5	-23.5	20.1	0.00e+00	0	42	0	1657798656	5	4011
2026-01-11 03:35:06.90	322.54	38.49	-22.4	-23.3	20.2	0.00e+00	0	42	0	1664090112	5	3958
2026-01-11 03:35:07.90	322.12	38.57	-22.5	-23.4	20.1	0.00e+00	0	42	0	1669332992	5	3985
2026-01-11 03:35:08.91	321.69	38.64	-22.4	-23.2	20.2	0.00e+00	0	42	0	1674575872	5	3949
2026-01-11 03:35:09.92	321.26	38.72	-22.7	-23.7	20.0	0.00e+00	0	42	0	1680867328	5	4063
2026-01-11 03:35:10.93	320.83	38.80	-22.5	-23.4	20.1	0.00e+00	0	42	0	1686110208	5	3990
2026-01-11 03:35:11.94	320.39	38.87	-22.5	-23.4	20.1	0.00e+00	0	42	0	1692401664	5	3978
2026-01-11 03:35:12.95	319.96	38.94	-22.6	-23.7	20.0	0.00e+00	0	42	0	1697644544	5	4061
2026-01-11 03:35:13.96	319.52	39.01	-22.7	-23.8	19.9	0.00e+00	0	42	0	1702887424	5	4093
2026-01-11 03:35:14.97	319.08	39.08	-22.7	-23.8	20.0	0.00e+00	0	42	0	1709178880	5	4078
2026-01-11 03:35:15.97	318.64	39.15	-22.5	-23.3	20.2	0.00e+00	0	42	0	1714421760	5	3960
2026-01-11 03:35:16.98	318.19	39.21	-22.5	-23.4	20.2	0.00e+00	0	42	0	1719664640	5	3979
2026-01-11 03:35:17.98	317.75	39.27	-22.5	-23.4	20.1	0.00e+00	0	42	0	1725956096	5	3988
2026-01-11 03:35:18.99	317.30	39.33	-22.5	-23.4	20.1	0.00e+00	0	42	0	1731198976	5	3987
2026-01-11 03:35:19.99	316.86	39.39	-22.3	-23.1	20.3	0.00e+00	0	42	0	1737490432	5	3914
2026-01-11 03:35:21.00	316.41	39.45	-22.3	-23.0	20.3	0.00e+00	0	42	0	1742733312	5	3906
2026-01-11 03:35:22.01	315.96	39.50	-22.7	-23.7	20.0	0.00e+00	0	42	0	1749024768	5	4063
2026-01-11 03:35:23.02	315.50	39.56	-22.7	-23.7	20.0	0.00e+00	0	42	0	1754267648	5	4072
2026-01-11 03:35:24.02	315.05	39.61	-22.6	-23.7	20.0	0.00e+00	0	42	0	1759510528	5	4058
2026-01-11 03:35:25.03	314.59	39.66	-22.5	-23.5	20.1	0.00e+00	0	42	0	1765801984	5	4004
2026-01-11 03:35:26.03	314.14	39.70	-22.7	-23.8	19.9	0.00e+00	0	42	0	1771044864	5	4077
2026-01-11 03:35:27.04	313.68	39.75	-22.5	-23.4	20.2	0.00e+00	0	42	0	1777336320	5	3985
2026-01-11 03:35:28.05	313.22	39.79	-22.4	-23.3	20.2	8.92e-05	0	42	0	1782579200	5	3959
2026-01-11 03:35:29.06	312.76	39.83	-22.2	-23.3	20.4	0.00e+00	0	42	0	1787822080	4	4091
2026-01-11 03:35:30.06	312.30	39.87	-22.3	-23.4	20.4	8.18e-04	0	42	0	1794113536	4	4100
2026-01-11 03:35:31.07	311.83	39.91	-22.3	-23.4	20.4	4.57e-05	0	42	0	1799356416	4	4095
2026-01-11 03:35:32.08	311.37	39.94	-22.6	-23.7	20.0	0.00e+00	0	42	0	1804599296	5	4058
2026-01-11 03:35:33.08	310.91	39.97	-22.7	-23.9	19.9	1.53e-04	0	42	0	1810890752	5	4106
2026-01-11 03:35:34.09	310.44	40.01	-22.9	-24.2	19.7	1.27e-03	0	42	0	1816133632	5	4196
2026-01-11 03:35:35.09	309.98	40.03	-22.7	-23.8	19.9	1.67e-04	0	42	0	1822425088	5	4087
2026-01-11 03:35:36.09	309.51	40.06	-22.6	-23.7	20.0	1.69e-04	0	42	0	1827667968	5	4056
2026-01-11 03:35:37.10	309.04	40.08	-22.7	-23.8	19.9	1.29e-03	0	42	0	1833959424	5	4097
2026-01-11 03:35:38.10	308.57	40.11	-22.6	-23.6	20.0	0.00e+00	0	42	0	1839202304	5	4051
2026-01-11 03:35:39.12	308.10	40.13	-22.5	-23.4	20.1	1.16e-03	0	42	0	1844445184	5	3981
2026-01-11 03:35:40.12	307.63	40.14	-22.6	-23.5	20.0	5.62e-04	0	42	0	1850736640	5	4023
2026-01-11 03:35:41.12	307.16	40.16	-22.9	-24.3	19.7	7.89e-05	0	42	0	1855979520	5	4209
2026-01-11 03:35:42.12	306.70	40.17	-22.8	-24.0	19.8	1.38e-03	0	42	0	1861222400	5	4138
2026-01-11 03:35:43.13	306.22	40.18	-22.6	-23.6	20.0	1.01e-03	0	42	0	1867513856	5	4049
2026-01-11 03:35:44.14	305.75	40.19	-22.4	-23.3	20.2	6.06e-05	0	42	0	1872756736	5	3959
2026-01-11 03:35:45.14	305.28	40.20	-22.5	-23.4	20.1	8.23e-05	0	42	0	1879048192	5	3992
2026-01-11 03:35:46.15	304.81	40.20	-22.6	-23.6	20.1	1.00e-03	0	42	0	1884291072	5	4033
2026-01-11 03:35:47.16	304.33	40.20	-22.6	-23.6	20.0	0.00e+00	0	42	0	1889533952	5	4044
2026-01-11 03:35:48.17	303.86	40.20	-22.4	-23.2	20.2	7.24e-04	0	42	0	1895825408	5	3944
2026-01-11 03:35:49.18	303.39	40.20	-22.4	-23.3	20.2	7.24e-04	0	42	0	1901068288	5	3954
2026-01-11 03:35:50.18	302.92	40.20	-22.7	-23.8	20.0	0.00e+00	0	42	0	1907359744	5	4080
2026-01-11 03:35:51.19	302.44	40.19	-22.3	-23.0	20.3	7.97e-04	0	42	0	1912602624	5	3892
2026-01-11 03:35:52.20	301.97	40.18	-22.1	-22.5	20.6	0.00e+00	0	42	0	1918894080	5	3774
2026-01-11 03:35:53.20	301.50	40.17	-22.1	-22.6	20.4	0.00e+00	0	42	0	1924136960	5	3802
2026-01-11 03:35:54.21	301.03	40.16	-22.3	-23.6	20.2	0.00e+00	0	42	0	1929379840	4	4153
2026-01-11 03:35:55.22	300.56	40.14	-22.5	-23.4	20.0	1.79e-04	0	42	0	1935671296	5	3991
2026-01-11 03:35:56.23	300.09	40.12	-22.2	-22.8	20.3	0.00e+00	0	42	0	1940914176	5	3842
2026-01-11 03:35:57.23	299.62	40.11	-22.0	-22.9	20.4	5.12e-04	0	42	0	1947205632	4	3974
2026-01-11 03:35:58.24	299.15	40.08	-22.2	-23.3	20.1	7.19e-04	0	42	0	1952448512	4	4090
2026-01-11 03:35:59.25	298.68	40.06	-22.6	-23.7	19.6	1.10e-06	0	42	0	1957691392	5	4067
2026-01-11 03:36:00.25	298.21	40.03	-22.6	-23.5	19.7	7.93e-04	0	42	0	1963982848	5	4030
2026-01-11 03:36:01.26	297.74	40.00	-22.7	-23.8	19.6	0.00e+00	0	42	0	1969225728	5	4097
2026-01-11 03:36:02.27	297.28	39.97	-22.6	-23.7	19.7	0.00e+00	0	42	0	1974468608	5	4061
2026-01-11 03:36:03.27	296.81	39.94	-22.4	-23.1	20.0	0.00e+00	0	42	0	1980760064	5	3930
2026-01-11 03:36:04.28	296.35	39.91	-22.4	-23.2	20.0	0.00e+00	0	42	0	1986002944	5	3941
2026-01-11 03:36:05.28	295.89	39.87	-22.5	-23.5	19.8	0.00e+00	0	42	0	1992294400	5	4009
2026-01-11 03:36:06.28	295.43	39.83	-22.5	-23.5	19.8	0.00e+00	0	42	0	1997537280	5	4004
2026-01-11 03:36:07.29	294.97	39.79	-22.6	-23.6	19.8	1.07e-03	0	42	0	2003828736	5	4046
2026-01-11 03:36:08.30	294.51	39.75	-22.9	-24.1	19.7	0.00e+00	0	42	0	2009071616	5	4170
2026-01-11 03:36:09.30	294.05	39.70	-22.5	-23.4	20.1	0.00e+00	0	42	0	2014314496	5	3983
2026-01-11 03:36:10.31	293.59	39.65	-22.2	-22.7	20.5	0.00e+00	0	42	0	2020605952	5	3835
2026-01-11 03:36:11.32	293.13	39.60	-22.0	-22.3	20.7	0.00e+00	0	42	0	2025848832	5	3735
2026-01-11 03:36:12.33	292.68	39.55	-22.0	-22.8	20.6	0.00e+00	0	42	0	2031091712	4	3954
2026-01-11 03:36:13.33	292.23	39.50	-22.1	-23.1	20.5	0.00e+00	0	42	0	2037383168	4	4030
2026-01-11 03:36:14.34	291.77	39.45	-22.2	-23.2	20.4	0.00e+00	0	42	0	2042626048	4	4055
2026-01-11 03:36:15.35	291.32	39.39	-22.2	-23.3	20.4	0.00e+00	0	42	0	2048917504	4	4091
2026-01-11 03:36:16.36	290.87	39.33	-22.1	-23.1	20.5	0.00e+00	0	42	0	2054160384	4	4035
2026-01-11 03:36:17.36	290.43	39.27	-22.1	-23.1	20.5	0.00e+00	0	42	0	2059403264	4	4034
2026-01-11 03:36:18.37	289.98	39.21	-22.2	-23.3	20.4	0.00e+00	0	42	0	2065694720	4	4078
2026-01-11 03:36:19.37	289.54	39.14	-22.2	-23.3	20.4	0.00e+00	0	42	0	2070937600	4	4067
2026-01-11 03:36:20.37	289.10	39.08	-22.3	-23.5	20.3	0.00e+00	0	42	0	2077229056	4	4140
2026-01-11 03:36:21.38	288.66	39.01	-22.3	-23.4	20.3	0.00e+00	0	42	0	2082471936	4	4100
2026-01-11 03:36:22.38	288.23	38.94	-22.2	-23.2	20.4	0.00e+00	0	42	0	2087714816	4	4054
2026-01-11 03:36:23.39	287.79	38.87	-22.3	-23.5	20.3	0.00e+00	0	42	0	2094006272	4	4117
2026-01-11 03:36:24.39	287.36	38.79	-22.5	-23.4	20.1	0.00e+00	0	42	0	2099249152	5	4000
2026-01-11 03:36:25.39	286.93	38.72	-22.4	-23.2	20.2	0.00e+00	0	42	0	2105540608	5	3941
2026-01-11 03:36:26.40	286.50	38.64	-22.2	-22.8	20.4	0.00e+00	0	42	0	2110783488	5	3860
2026-01-11 03:36:27.40	286.07	38.56	-22.0	-22.2	20.7	0.00e+00	0	42	0	2116026368	5	3724
2026-01-11 03:36:28.41	285.64	38.48	-21.8	-22.5	20.8	0.00e+00	0	42	0	2122317824	4	3884
2026-01-11 03:36:29.41	285.22	38.40	-21.9	-22.7	20.7	0.00e+00	0	42	0	2127560704	4	3930
2026-01-11 03:36:30.41	284.80	38.32	-22.0	-22.9	20.6	0.00e+00	0	42	0	2133852160	4	3974
2026-01-11 03:36:31.42	284.38	38.23	-22.1	-23.0	20.5	0.00e+00	0	42	0	2139095040	4	4011
2026-01-11 03:36:32.43	283.96	38.15	-22.0	-22.9	20.6	0.00e+00	0	42	0	2144337920	4	3975
2026-01-11 03:36:33.44	283.55	38.06	-22.1	-23.0	20.5	0.00e+00	0	42	0	2150629376	4	4003
2026-01-11 03:36:34.44	283.14	37.97	-22.2	-23.2	20.4	0.00e+00	0	42	0	2155872256	4	4061
2026-01-11 03:36:35.45	282.73	37.88	-22.2	-23.3	20.4	0.00e+00	0	42	0	2162163712	4	4082
2026-01-11 03:36:36.46	282.32	37.79	-22.0	-22.9	20.5	0.00e+00	0	42	0	2167406592	4	3992
2026-01-11 03:36:37.46	281.91	37.69	-21.9	-22.6	20.7	0.00e+00	0	42	0	2172649472	4	3903
2026-01-11 03:36:38.47	281.51	37.60	-22.0	-22.8	20.6	0.00e+00	0	42	0	2178940928	4	3956
2026-01-11 03:36:39.48	281.10	37.50	-21.9	-22.7	19.9	0.00e+00	0	42	0	2184183808	4	3934
2026-01-11 03:36:40.48	280.71	37.41	-21.8	-22.4	20.8	0.00e+00	0	42	0	2189426688	4	3868
2026-01-11 03:36:41.48	280.31	37.31	-21.8	-22.5	20.4	0.00e+00	0	42	0	2195718144	4	3892
2026-01-11 03:36:42.48	279.92	37.21	-21.9	-22.7	20.6	0.00e+00	0	42	0	2200961024	4	3933
2026-01-11 03:36:43.49	279.53	37.11	-21.8	-22.5	20.8	0.00e+00	0	42	0	2207252480	4	3893
2026-01-11 03:36:44.50	279.14	37.00	-21.8	-22.4	20.4	0.00e+00	0	42	0	2212495360	4	3855
2026-01-11 03:36:45.50	278.75	36.90	-21.9	-22.7	20.6	2.20e-04	0	42	0	2218786816	4	3942
2026-01-11 03:36:46.51	278.37	36.80	-22.2	-23.2	20.4	0.00e+00	0	42	0	2224029696	4	4056
2026-01-11 03:36:47.52	277.99	36.69	-22.3	-23.5	20.2	6.68e-04	0	42	0	2229272576	4	4138
2026-01-11 03:36:48.52	277.61	36.58	-22.4	-23.7	20.2	0.00e+00	0	42	0	2235564032	4	4176
2026-01-11 03:36:49.53	277.23	36.47	-22.3	-23.6	20.2	0.00e+00	0	42	0	2240806912	4	4141
2026-01-11 03:36:50.54	276.86	36.37	-22.4	-23.7	20.1	6.06e-05	0	42	0	2247098368	4	4188
2026-01-11 03:36:51.54	276.49	36.26	-22.4	-23.2	20.1	0.00e+00	0	42	0	2252341248	5	3949
2026-01-11 03:36:52.55	276.12	36.14	-22.3	-23.0	20.3	0.00e+00	0	42	0	2257584128	5	3896
2026-01-11 03:36:53.56	275.75	36.03	-22.2	-22.7	20.4	0.00e+00	0	42	0	2263875584	5	3835
2026-01-11 03:36:54.57	275.38	35.92	-22.2	-22.8	20.4	9.11e-04	0	42	0	2269118464	5	3852
2026-01-11 03:36:55.57	275.02	35.81	-22.2	-22.7	20.4	0.00e+00	0	42	0	2274361344	5	3838
2026-01-11 03:36:56.57	274.67	35.69	-22.1	-22.5	20.5	8.30e-04	0	42	0	2280652800	5	3787
2026-01-11 03:36:57.58	274.31	35.57	-22.1	-23.2	20.4	0.00e+00	0	42	0	2285895680	4	4044
2026-01-11 03:36:58.58	273.96	35.46	-22.1	-23.0	20.5	0.00e+00	0	42	0	2292187136	4	3998
2026-01-11 03:36:59.59	273.60	35.34	-22.1	-23.0	20.5	4.71e-04	0	42	0	2297430016	4	3999
2026-01-11 03:37:00.60	273.25	35.22	-22.2	-23.3	20.3	0.00e+00	0	42	0	2303721472	4	4083
2026-01-11 03:37:01.60	272.91	35.10	-22.3	-23.5	20.3	2.20e-06	0	42	0	2308964352	4	4121
2026-01-11 03:37:02.61	272.56	34.98	-22.2	-23.2	20.4	0.00e+00	0	42	0	2314207232	4	4061
2026-01-11 03:37:03.62	272.22	34.86	-22.0	-22.9	20.5	1.03e-03	0	42	0	2320498688	4	3981
2026-01-11 03:37:04.62	271.88	34.74	-22.2	-23.2	20.4	0.00e+00	0	42	0	2325741568	4	4059
2026-01-11 03:37:05.63	271.55	34.62	-22.2	-23.3	20.3	1.09e-03	0	42	0	2332033024	4	4082
2026-01-11 03:37:06.63	271.22	34.50	-22.3	-23.5	20.3	1.14e-03	0	42	0	2337275904	4	4118
2026-01-11 03:37:07.65	270.88	34.38	-22.2	-23.2	20.3	0.00e+00	0	42	0	2342518784	4	4067
2026-01-11 03:37:08.65	270.55	34.25	-22.1	-23.0	20.5	1.09e-03	0	42	0	2348810240	4	4006
2026-01-11 03:37:09.65	270.23	34.13	-22.1	-23.1	20.5	0.00e+00	0	42	0	2354053120	4	4028
2026-01-11 03:37:10.66	269.90	34.00	-22.1	-23.0	20.5	2.20e-06	0	42	0	2359296000	4	4007
2026-01-11 03:37:11.66	269.58	33.88	-22.0	-22.8	20.6	1.18e-03	0	42	0	2365587456	4	3960
2026-01-11 03:37:12.67	269.26	33.75	-21.9	-22.7	20.6	1.04e-03	0	42	0	2370830336	4	3939
2026-01-11 03:37:13.67	268.95	33.63	-22.1	-23.0	20.5	0.00e+00	0	42	0	2377121792	4	4009
2026-01-11 03:37:14.68	268.63	33.50	-22.3	-23.5	20.2	5.27e-04	0	42	0	2382364672	4	4128
2026-01-11 03:37:15.68	268.33	33.37	-22.5	-23.5	20.0	1.24e-03	0	42	0	2387607552	5	4011
2026-01-11 03:37:16.68	268.02	33.25	-22.6	-23.6	19.9	0.00e+00	0	42	0	2393899008	5	4042
2026-01-11 03:37:17.69	267.71	33.12	-22.7	-23.8	19.8	1.34e-03	0	42	0	2399141888	5	4089
2026-01-11 03:37:18.69	267.41	32.99	-22.8	-24.0	19.7	0.00e+00	0	42	0	2405433344	5	4132
2026-01-11 03:37:19.71	267.10	32.86	-22.6	-23.6	19.9	3.40e-06	0	42	0	2410676224	5	4040
2026-01-11 03:37:20.72	266.80	32.73	-22.6	-23.7	19.9	1.22e-03	0	42	0	2415919104	5	4058
2026-01-11 03:37:21.72	266.51	32.60	-22.7	-23.7	19.9	0.00e+00	0	42	0	2422210560	5	4074
2026-01-11 03:37:22.73	266.21	32.47	-22.8	-24.0	19.7	4.50e-06	0	42	0	2427453440	5	4144
2026-01-11 03:37:23.74	265.92	32.34	-22.6	-23.5	19.9	0.00e+00	0	42	0	2433744896	5	4011
2026-01-11 03:37:24.74	265.63	32.21	-22.3	-22.9	20.2	1.29e-03	0	42	0	2438987776	5	3868
2026-01-11 03:37:25.75	265.34	32.08	-22.2	-22.8	20.3	0.00e+00	0	42	0	2444230656	5	3850
2026-01-11 03:37:26.76	265.05	31.95	-22.5	-23.3	20.0	0.00e+00	0	42	0	2450522112	5	3984
2026-01-11 03:37:27.76	264.77	31.82	-22.5	-23.4	20.0	0.00e+00	0	42	0	2455764992	5	4008
2026-01-11 03:37:28.77	264.49	31.69	-22.6	-23.5	19.9	0.00e+00	0	42	0	2462056448	5	4029
2026-01-11 03:37:29.78	264.21	31.56	-22.5	-23.3	20.0	0.00e+00	0	42	0	2467299328	5	3982
2026-01-11 03:37:30.78	263.94	31.43	-22.5	-23.3	20.0	0.00e+00	0	42	0	2473590784	5	3972
2026-01-11 03:37:31.79	263.66	31.29	-22.8	-23.9	19.7	0.00e+00	0	42	0	2478833664	5	4121
2026-01-11 03:37:32.81	263.39	31.16	-22.7	-23.8	19.8	0.00e+00	0	42	0	2484076544	5	4104
2026-01-11 03:37:33.82	263.12	31.03	-22.6	-23.5	20.0	0.00e+00	0	42	0	2490368000	5	4025
2026-01-11 03:37:34.82	262.85	30.90	-22.4	-23.3	20.1	0.00e+00	0	42	0	2495610880	5	3955
2026-01-11 03:37:35.82	262.59	30.77	-22.5	-23.4	20.0	0.00e+00	0	42	0	2500853760	5	3995
2026-01-11 03:37:36.83	262.32	30.63	-22.5	-23.3	20.0	0.00e+00	0	42	0	2507145216	5	3970
2026-01-11 03:37:37.84	262.06	30.50	-22.4	-23.3	20.0	0.00e+00	0	42	0	2512388096	5	3957
2026-01-11 03:37:38.85	261.80	30.37	-22.5	-23.4	20.0	0.00e+00	0	42	0	2518679552	5	3993
2026-01-11 03:37:39.86	261.55	30.23	-22.6	-23.5	19.9	0.00e+00	0	42	0	2523922432	5	4027
2026-01-11 03:37:40.87	261.29	30.10	-22.6	-23.7	19.8	0.00e+00	0	42	0	2529165312	5	4060
2026-01-11 03:37:41.87	261.04	29.97	-22.4	-23.3	20.0	0.00e+00	0	42	0	2535456768	5	3961
2026-01-11 03:37:42.87	260.79	29.84	-22.5	-23.4	20.0	0.00e+00	0	42	0	2540699648	5	4002
2026-01-11 03:37:43.88	260.54	29.71	-22.5	-23.4	20.0	0.00e+00	0	42	0	2546991104	5	3994
2026-01-11 03:37:44.89	260.30	29.57	-22.5	-23.3	20.0	0.00e+00	0	42	0	2552233984	5	3971
2026-01-11 03:37:45.89	260.05	29.44	-22.5	-23.4	20.0	0.00e+00	0	42	0	2558525440	5	3984
2026-01-11 03:37:46.90	259.81	29.31	-22.5	-23.3	20.0	0.00e+00	0	42	0	2563768320	5	3978
2026-01-11 03:37:47.90	259.57	29.18	-22.5	-23.3	20.0	0.00e+00	0	42	0	2569011200	5	3971
2026-01-11 03:37:48.91	259.33	29.04	-22.4	-23.1	20.1	0.00e+00	0	42	0	2575302656	5	3930
2026-01-11 03:37:49.92	259.10	28.91	-22.5	-23.3	20.0	0.00e+00	0	42	0	2580545536	5	3976
2026-01-11 03:37:50.93	258.86	28.78	-22.7	-23.8	19.7	0.00e+00	0	42	0	2586836992	5	4099
2026-01-11 03:37:51.94	258.63	28.65	-22.8	-24.0	19.7	0.00e+00	0	42	0	2592079872	5	4138
2026-01-11 03:37:52.94	258.40	28.51	-22.8	-24.0	19.6	0.00e+00	0	42	0	2597322752	5	4134
2026-01-11 03:37:53.94	258.17	28.38	-22.9	-24.3	19.5	0.00e+00	0	42	0	2603614208	5	4209
2026-01-11 03:37:54.95	257.95	28.25	-22.7	-23.9	19.7	0.00e+00	0	42	0	2608857088	5	4103
2026-01-11 03:37:55.95	257.72	28.12	-22.7	-23.9	19.7	0.00e+00	0	42	0	2614099968	5	4102
2026-01-11 03:37:56.95	257.50	27.99	-22.8	-23.9	19.7	0.00e+00	0	42	0	2620391424	5	4124
2026-01-11 03:37:57.96	257.28	27.86	-23.1	-24.1	19.4	0.00e+00	0	42	0	2625634304	6	4047
2026-01-11 03:37:58.96	257.06	27.73	-22.9	-23.7	19.6	0.00e+00	0	42	0	2631925760	6	3944
2026-01-11 03:37:59.97	256.84	27.60	-22.7	-23.3	19.7	0.00e+00	0	42	0	2637168640	6	3872
2026-01-11 03:38:00.97	256.63	27.47	-22.6	-23.2	19.8	0.00e+00	0	42	0	2642411520	6	3838
2026-01-11 03:38:01.97	256.42	27.34	-22.6	-23.2	19.8	0.00e+00	0	42	0	2648702976	6	3832
2026-01-11 03:38:02.97	256.21	27.21	-22.7	-23.9	19.7	0.00e+00	0	42	0	2653945856	5	4112
2026-01-11 03:38:03.98	255.99	27.08	-22.8	-24.0	19.6	0.00e+00	0	42	0	2659188736	5	4126
2026-01-11 03:38:04.99	255.79	26.94	-22.8	-24.0	19.6	4.13e-04	0	42	0	2665480192	5	4151
2026-01-11 03:38:06.00	255.58	26.81	-23.0	-24.3	19.4	0.00e+00	0	42	0	2670723072	5	4227
2026-01-11 03:38:07.00	255.37	26.69	-23.0	-24.0	19.4	0.00e+00	0	42	0	2677014528	6	4035
2026-01-11 03:38:08.00	255.17	26.56	-23.0	-24.0	19.4	0.00e+00	0	42	0	2682257408	6	4020
2026-01-11 03:38:09.01	254.97	26.43	-23.1	-24.1	19.3	0.00e+00	0	42	0	2687500288	6	4050
2026-01-11 03:38:10.02	254.77	26.30	-23.1	-24.2	19.3	0.00e+00	0	42	0	2693791744	6	4069
2026-01-11 03:38:11.03	254.57	26.17	-23.1	-24.1	19.4	0.00e+00	0	42	0	2699034624	6	4041
2026-01-11 03:38:12.03	254.37	26.04	-23.1	-24.2	19.3	2.93e-04	0	42	0	2705326080	6	4082
2026-01-11 03:38:13.03	254.18	25.91	-23.1	-24.2	19.3	0.00e+00	0	42	0	2710568960	6	4072
2026-01-11 03:38:14.04	253.99	25.78	-23.2	-24.3	19.2	8.14e-04	0	42	0	2716860416	6	4108
2026-01-11 03:38:15.05	253.79	25.66	-23.0	-24.0	19.3	4.57e-05	0	42	0	2722103296	6	4037
2026-01-11 03:38:16.06	253.60	25.53	-23.0	-23.9	19.4	0.00e+00	0	42	0	2727346176	6	4014
2026-01-11 03:38:17.07	253.41	25.40	-23.2	-24.3	19.2	5.33e-04	0	42	0	2733637632	6	4109
2026-01-11 03:38:18.07	253.22	25.27	-23.0	-24.0	19.4	0.00e+00	0	42	0	2738880512	6	4022
2026-01-11 03:38:19.08	253.04	25.15	-23.2	-24.3	19.2	0.00e+00	0	42	0	2744123392	6	4096
2026-01-11 03:38:20.08	252.86	25.02	-23.2	-24.3	19.2	0.00e+00	0	42	0	2750414848	6	4099
2026-01-11 03:38:21.09	252.67	24.89	-23.3	-24.5	19.1	8.37e-04	0	42	0	2755657728	6	4162
2026-01-11 03:38:22.10	252.49	24.77	-23.2	-24.3	19.2	2.43e-04	0	42	0	2761949184	6	4109
2026-01-11 03:38:23.11	252.31	24.64	-23.2	-24.4	19.1	1.26e-03	0	42	0	2767192064	6	4137
2026-01-11 03:38:24.11	252.13	24.52	-23.4	-24.8	19.0	1.18e-03	0	42	0	2772434944	6	4215
2026-01-11 03:38:25.12	251.95	24.39	-23.8	-25.1	18.5	3.25e-04	0	42	0	2778726400	7	4180
2026-01-11 03:38:26.12	251.78	24.27	-23.6	-24.7	18.7	1.36e-03	0	42	0	2783969280	7	4089
2026-01-11 03:38:27.13	251.60	24.14	-23.7	-25.0	18.6	1.61e-03	0	42	0	2790260736	7	4149
2026-01-11 03:38:28.13	251.43	24.02	-23.4	-24.3	18.9	2.85e-04	0	42	0	2795503616	7	3996
2026-01-11 03:38:29.14	251.26	23.90	-23.4	-24.3	19.0	1.65e-03	0	42	0	2801795072	7	3984
2026-01-11 03:38:30.14	251.09	23.77	-23.4	-24.2	19.0	1.56e-03	0	42	0	2807037952	7	3966
2026-01-11 03:38:31.15	250.92	23.65	-23.3	-24.1	19.0	2.93e-04	0	42	0	2812280832	7	3948
2026-01-11 03:38:32.16	250.75	23.53	-23.7	-24.9	18.6	0.00e+00	0	42	0	2818572288	7	4136
2026-01-11 03:38:33.17	250.59	23.40	-23.5	-24.4	18.9	1.51e-03	0	42	0	2823815168	7	4018
2026-01-11 03:38:34.18	250.42	23.28	-23.9	-25.3	18.4	0.00e+00	0	42	0	2829058048	7	4249
2026-01-11 03:38:35.19	250.26	23.16	-23.4	-24.3	18.9	1.50e-03	0	42	0	2835349504	7	3988
2026-01-11 03:38:36.19	250.09	23.04	-23.3	-24.1	19.0	0.00e+00	0	42	0	2840592384	7	3952
2026-01-11 03:38:37.20	249.93	22.91	-23.3	-24.7	19.0	2.96e-04	0	42	0	2846883840	6	4198
2026-01-11 03:38:38.21	249.77	22.79	-23.5	-25.0	18.8	0.00e+00	0	42	0	2852126720	6	4272
2026-01-11 03:38:39.21	249.62	22.67	-23.6	-24.7	18.7	0.00e+00	0	42	0	2857369600	7	4086
2026-01-11 03:38:40.22	249.46	22.55	-23.8	-25.2	18.4	2.69e-04	0	42	0	2863661056	7	4217
2026-01-11 03:38:41.22	249.30	22.43	-23.7	-24.8	18.6	0.00e+00	0	42	0	2868903936	7	4124
2026-01-11 03:38:42.23	249.15	22.31	-23.5	-24.6	18.7	1.76e-03	0	42	0	2875195392	7	4068
2026-01-11 03:38:43.24	248.99	22.19	-23.5	-24.6	18.7	0.00e+00	0	42	0	2880438272	7	4062
2026-01-11 03:38:44.24	248.84	22.08	-23.5	-24.6	18.7	1.41e-04	0	42	0	2886729728	7	4064
2026-01-11 03:38:45.24	248.69	21.96	-23.4	-24.4	18.8	0.00e+00	0	42	0	2891972608	7	4002
2026-01-11 03:38:46.25	248.54	21.84	-23.6	-24.7	18.7	0.00e+00	0	42	0	2897215488	7	4086
2026-01-11 03:38:47.26	248.39	21.72	-23.4	-24.3	18.9	0.00e+00	0	42	0	2903506944	7	3986
2026-01-11 03:38:48.26	248.24	21.60	-23.3	-24.6	19.0	0.00e+00	0	42	0	2908749824	6	4170
2026-01-11 03:38:49.27	248.10	21.49	-23.5	-25.0	18.8	0.00e+00	0	42	0	2913992704	6	4269
2026-01-11 03:38:50.27	247.95	21.37	-23.3	-24.7	18.9	0.00e+00	0	42	0	2920284160	6	4199
2026-01-11 03:38:51.28	247.81	21.25	-23.4	-24.7	18.9	0.00e+00	0	42	0	2925527040	6	4213
2026-01-11 03:38:52.29	247.66	21.14	-23.3	-24.7	18.9	0.00e+00	0	42	0	2931818496	6	4193
2026-01-11 03:38:53.29	247.52	21.02	-23.4	-24.7	18.9	0.00e+00	0	42	0	2937061376	6	4209
2026-01-11 03:38:54.30	247.38	20.90	-23.4	-24.8	18.8	0.00e+00	0	42	0	2942304256	6	4232
2026-01-11 03:38:55.30	247.24	20.79	-23.5	-24.5	18.7	0.00e+00	0	42	0	2948595712	7	4045
2026-01-11 03:38:56.31	247.10	20.67	-23.7	-24.9	18.5	0.00e+00	0	42	0	2953838592	7	4136
2026-01-11 03:38:57.32	246.96	20.56	-23.8	-25.2	18.4	0.00e+00	0	42	0	2960130048	7	4208
2026-01-11 03:38:58.33	246.83	20.44	-23.7	-24.9	18.5	0.00e+00	0	42	0	2965372928	7	4135
2026-01-11 03:38:59.34	246.69	20.33	-23.8	-25.2	18.4	0.00e+00	0	42	0	2971664384	7	4206
2026-01-11 03:39:00.34	246.56	20.22	-24.0	-25.5	18.2	0.00e+00	0	42	0	2976907264	7	4293
2026-01-11 03:39:01.34	246.42	20.11	-24.0	-25.2	18.1	0.00e+00	0	42	0	2982150144	8	4093
2026-01-11 03:39:02.35	246.29	19.99	-24.2	-25.5	17.9	0.00e+00	0	42	0	2988441600	8	4191
2026-01-11 03:39:03.36	246.16	19.88	-24.0	-25.1	18.1	0.00e+00	0	42	0	2993684480	8	4084
2026-01-11 03:39:04.36	246.03	19.77	-24.1	-25.2	18.1	0.00e+00	0	42	0	2998927360	8	4115
2026-01-11 03:39:05.37	245.90	19.66	-24.1	-25.2	18.1	0.00e+00	0	42	0	3005218816	8	4111
2026-01-11 03:39:06.38	245.77	19.54	-24.1	-25.3	18.1	0.00e+00	0	42	0	3010461696	8	4117
2026-01-11 03:39:07.38	245.64	19.43	-24.0	-25.0	18.2	0.00e+00	0	42	0	3015704576	8	4054
2026-01-11 03:39:08.38	245.51	19.32	-24.0	-25.1	18.2	0.00e+00	0	42	0	3021996032	8	4068
2026-01-11 03:39:09.37	245.39	19.21	-24.1	-25.2	18.1	0.00e+00	0	42	0	3027238912	8	4114
2026-01-11 03:39:10.38	245.26	19.10	-24.0	-25.2	18.1	0.00e+00	0	42	0	3033530368	8	4101
2026-01-11 03:39:11.39	245.14	18.99	-24.2	-25.4	18.0	0.00e+00	0	42	0	3038773248	8	4161
2026-01-11 03:39:12.39	245.02	18.89	-24.2	-25.5	17.9	0.00e+00	0	42	0	3045064704	8	4186
2026-01-11 03:39:13.39	244.89	18.78	-24.2	-25.6	17.9	0.00e+00	0	42	0	3050307584	8	4200
2026-01-11 03:39:14.40	244.77	18.67	-24.3	-25.8	17.7	0.00e+00	0	42	0	3055550464	8	4257
2026-01-11 03:39:15.41	244.65	18.56	-24.4	-25.8	17.7	0.00e+00	0	42	0	3061841920	8	4269
2026-01-11 03:39:16.42	244.53	18.45	-24.5	-25.6	17.6	0.00e+00	0	42	0	3067084800	9	4098
2026-01-11 03:39:17.42	244.41	18.34	-24.4	-25.4	17.7	0.00e+00	0	42	0	3072327680	9	4040
2026-01-11 03:39:18.43	244.29	18.24	-24.5	-25.6	17.6	0.00e+00	0	42	0	3078619136	9	4083
2026-01-11 03:39:19.44	244.18	18.13	-24.2	-25.0	17.6	0.00e+00	0	42	0	3083862016	9	3972
2026-01-11 03:39:20.45	244.06	18.02	-24.7	-26.0	16.4	0.00e+00	0	42	0	3090153472	9	4212
2026-01-11 03:39:21.46	243.94	17.91	-24.7	-26.1	17.3	0.00e+00	0	42	0	3095396352	9	4222
2026-01-11 03:39:22.46	243.83	17.81	-24.6	-26.0	17.0	0.00e+00	0	42	0	3100639232	9	4195
2026-01-11 03:39:23.47	243.71	17.70	-24.8	-26.2	17.2	0.00e+00	0	42	0	3106930688	9	4246
2026-01-11 03:39:24.48	243.60	17.60	-24.8	-26.2	17.2	0.00e+00	0	42	0	3112173568	9	4255
2026-01-11 03:39:25.48	243.49	17.49	-24.8	-26.2	17.2	0.00e+00	0	42	0	3118465024	9	4242
2026-01-11 03:39:26.49	243.38	17.39	-24.7	-26.1	17.2	0.00e+00	0	42	0	3123707904	9	4236
2026-01-11 03:39:27.49	243.27	17.28	-24.5	-25.6	17.5	0.00e+00	0	42	0	3129999360	9	4087
2026-01-11 03:39:28.50	243.16	17.18	-24.4	-25.9	16.5	0.00e+00	0	42	0	3135242240	8	4276
2026-01-11 03:39:29.50	243.05	17.08	-24.4	-25.9	17.4	1.49e-03	0	42	0	3140485120	8	4273
2026-01-11 03:39:30.51	242.94	16.97	-24.5	-26.1	17.6	0.00e+00	0	42	0	3146776576	8	4319
2026-01-11 03:39:31.52	242.83	16.87	-24.7	-26.0	17.3	2.13e-03	0	42	0	3152019456	9	4184
2026-01-11 03:39:32.53	242.72	16.77	-24.6	-25.8	17.4	4.00e-05	0	42	0	3158310912	9	4139
2026-01-11 03:39:33.54	242.62	16.66	-24.6	-25.8	17.4	3.51e-04	0	42	0	3163553792	9	4145
2026-01-11 03:39:34.55	242.51	16.56	-24.6	-25.9	17.4	2.11e-03	0	42	0	3168796672	9	4165
2026-01-11 03:39:35.56	242.41	16.46	-24.6	-25.8	17.4	0.00e+00	0	42	0	3175088128	9	4139
2026-01-11 03:39:36.56	242.30	16.36	-24.7	-26.0	17.3	3.18e-04	0	42	0	3180331008	9	4208
2026-01-11 03:39:37.57	242.20	16.26	-24.7	-26.1	17.2	0.00e+00	0	42	0	3185573888	9	4220
2026-01-11 03:39:38.57	242.10	16.16	-24.8	-26.3	17.1	2.22e-03	0	42	0	3191865344	9	4275
2026-01-11 03:39:39.58	241.99	16.06	-24.9	-26.4	17.1	0.00e+00	0	42	0	3197108224	9	4304
2026-01-11 03:39:40.59	241.89	15.96	-25.1	-26.4	16.8	1.87e-03	0	42	0	3203399680	10	4183
2026-01-11 03:39:41.58	241.79	15.86	-25.1	-26.4	16.8	1.45e-03	0	42	0	3208642560	10	4198
2026-01-11 03:39:42.59	241.69	15.76	-25.0	-26.2	16.9	9.95e-05	0	42	0	3214934016	10	4128
2026-01-11 03:39:43.59	241.60	15.66	-24.9	-26.4	17.0	1.51e-03	0	42	0	3220176896	9	4315
2026-01-11 03:39:44.59	241.50	15.56	-24.9	-26.5	17.0	1.44e-03	0	42	0	3225419776	9	4326
2026-01-11 03:39:45.60	241.40	15.46	-24.9	-26.5	17.0	3.48e-04	0	42	0	3231711232	9	4335
2026-01-11 03:39:46.61	241.30	15.36	-25.0	-26.3	16.9	1.68e-03	0	42	0	3236954112	10	4157
2026-01-11 03:39:47.62	241.20	15.27	-25.0	-26.2	16.9	2.29e-03	0	42	0	3242196992	10	4144
2026-01-11 03:39:48.63	241.11	15.17	-25.0	-26.3	16.8	8.55e-04	0	42	0	3248488448	10	4160
2026-01-11 03:39:49.64	241.01	15.07	-24.9	-26.0	17.0	2.68e-03	0	42	0	3253731328	10	4084
2026-01-11 03:39:50.65	240.92	14.97	-25.1	-26.5	16.7	2.62e-03	0	42	0	3260022784	10	4211
2026-01-11 03:39:51.65	240.82	14.88	-25.1	-26.5	16.7	0.00e+00	0	42	0	3265265664	10	4220
2026-01-11 03:39:52.66	240.73	14.78	-25.0	-26.3	16.8	2.63e-03	0	42	0	3270508544	10	4164
2026-01-11 03:39:53.67	240.64	14.68	-25.0	-26.2	16.8	1.28e-04	0	42	0	3276800000	10	4150
2026-01-11 03:39:54.68	240.55	14.59	-25.0	-26.3	16.8	8.63e-04	0	42	0	3282042880	10	4168
2026-01-11 03:39:55.68	240.45	14.49	-25.1	-26.3	16.8	0.00e+00	0	42	0	3288334336	10	4174
2026-01-11 03:39:56.69	240.36	14.40	-25.0	-26.3	16.8	1.66e-04	0	42	0	3293577216	10	4156
2026-01-11 03:39:57.70	240.27	14.30	-25.1	-26.5	16.7	0.00e+00	0	42	0	3299868672	10	4209
2026-01-11 03:39:58.70	240.18	14.21	-25.1	-26.3	16.8	2.43e-04	0	42	0	3305111552	10	4174
2026-01-11 03:39:59.70	240.09	14.12	-25.1	-26.5	16.7	2.13e-03	0	42	0	3310354432	10	4209
2026-01-11 03:40:00.71	240.01	14.02	-25.1	-26.4	16.7	0.00e+00	0	42	0	3316645888	10	4200
2026-01-11 03:40:01.71	239.92	13.93	-25.1	-26.4	16.7	2.06e-03	0	42	0	3321888768	10	4182
2026-01-11 03:40:02.72	239.83	13.83	-25.2	-26.7	16.5	0.00e+00	0	42	0	3327131648	10	4283
2026-01-11 03:40:03.73	239.74	13.74	-25.1	-26.4	16.7	0.00e+00	0	42	0	3333423104	10	4201
2026-01-11 03:40:04.74	239.66	13.65	-25.3	-26.9	16.4	0.00e+00	0	42	0	3338665984	10	4326
2026-01-11 03:40:05.74	239.57	13.56	-25.3	-27.0	16.4	2.86e-04	0	42	0	3344957440	10	4354
2026-01-11 03:40:06.75	239.49	13.46	-25.3	-26.9	16.5	0.00e+00	0	42	0	3350200320	10	4311
2026-01-11 03:40:07.76	239.40	13.37	-25.5	-26.9	16.2	0.00e+00	0	42	0	3355443200	11	4207
2026-01-11 03:40:08.76	239.32	13.28	-25.8	-27.4	15.8	1.93e-04	0	42	0	3361734656	11	4360
2026-01-11 03:40:09.77	239.23	13.19	-25.7	-27.3	15.9	0.00e+00	0	42	0	3366977536	11	4337
2026-01-11 03:40:10.78	239.15	13.10	-25.6	-27.0	16.0	1.61e-04	0	42	0	3373268992	11	4253
2026-01-11 03:40:11.79	239.07	13.01	-25.5	-26.8	16.2	4.50e-06	0	42	0	3378511872	11	4192
2026-01-11 03:40:12.79	238.99	12.92	-25.6	-27.0	16.1	0.00e+00	0	42	0	3384803328	11	4239
2026-01-11 03:40:13.80	238.90	12.83	-25.6	-27.0	16.1	0.00e+00	0	42	0	3390046208	11	4246
2026-01-11 03:40:14.81	238.82	12.74	-25.6	-27.1	16.0	4.50e-06	0	42	0	3395289088	11	4269
2026-01-11 03:40:15.82	238.74	12.65	-25.6	-27.1	16.0	0.00e+00	0	42	0	3401580544	11	4268
2026-01-11 03:40:16.82	238.66	12.56	-25.6	-27.0	16.1	0.00e+00	0	42	0	3406823424	11	4229
2026-01-11 03:40:17.82	238.58	12.47	-25.6	-27.1	16.0	5.70e-06	0	42	0	3412066304	11	4276
2026-01-11 03:40:18.83	238.50	12.38	-25.7	-27.2	15.9	0.00e+00	0	42	0	3418357760	11	4304
2026-01-11 03:40:19.84	238.43	12.29	-25.7	-27.2	15.9	0.00e+00	0	42	0	3423600640	11	4309
2026-01-11 03:40:20.84	238.35	12.20	-25.7	-27.3	15.8	0.00e+00	0	42	0	3429892096	11	4326
2026-01-11 03:40:21.85	238.27	12.11	-25.9	-27.7	15.6	0.00e+00	0	42	0	3435134976	11	4432
2026-01-11 03:40:22.86	238.19	12.03	-25.8	-27.6	15.7	0.00e+00	0	42	0	3440377856	11	4406
2026-01-11 03:40:23.86	238.12	11.94	-25.7	-27.3	15.9	0.00e+00	0	42	0	3446669312	11	4318
2026-01-11 03:40:24.87	238.04	11.85	-25.7	-27.2	15.9	0.00e+00	0	42	0	3451912192	11	4293
2026-01-11 03:40:25.87	237.96	11.76	-25.7	-27.2	15.9	0.00e+00	0	42	0	3458203648	11	4297
2026-01-11 03:40:26.88	237.89	11.68	-25.8	-27.4	15.8	0.00e+00	0	42	0	3463446528	11	4348
2026-01-11 03:40:27.89	237.81	11.59	-25.6	-27.0	16.0	0.00e+00	0	42	0	3469737984	11	4243
2026-01-11 03:40:28.88	237.74	11.51	-25.6	-27.0	16.0	0.00e+00	0	42	0	3474980864	11	4249
2026-01-11 03:40:29.89	237.67	11.42	-25.6	-27.0	16.0	0.00e+00	0	42	0	3480223744	11	4248
2026-01-11 03:40:30.90	237.59	11.33	-25.7	-27.3	15.8	0.00e+00	0	42	0	3486515200	11	4309
2026-01-11 03:40:31.91	237.52	11.25	-25.7	-27.3	15.8	0.00e+00	0	42	0	3491758080	11	4326
2026-01-11 03:40:32.92	237.45	11.16	-25.7	-27.2	15.8	0.00e+00	0	42	0	3497000960	11	4303
2026-01-11 03:40:33.92	237.38	11.08	-25.8	-27.6	15.6	0.00e+00	0	42	0	3503292416	11	4401
2026-01-11 03:40:34.93	237.30	10.99	-25.7	-27.4	15.7	0.00e+00	0	42	0	3508535296	11	4341
2026-01-11 03:40:35.93	237.23	10.91	-25.8	-27.4	15.7	0.00e+00	0	42	0	3514826752	11	4357
2026-01-11 03:40:36.94	237.16	10.82	-25.9	-27.7	15.5	0.00e+00	0	42	0	3520069632	11	4436
2026-01-11 03:40:37.95	237.09	10.74	-25.9	-27.7	15.5	0.00e+00	0	42	0	3525312512	11	4439
2026-01-11 03:40:38.95	237.02	10.66	-25.9	-27.7	15.5	0.00e+00	0	42	0	3531603968	11	4449
2026-01-11 03:40:39.96	236.95	10.57	-26.0	-27.9	15.4	0.00e+00	0	42	0	3536846848	11	4484
2026-01-11 03:40:40.97	236.88	10.49	-25.9	-27.3	15.4	1.10e-06	0	42	0	3543138304	12	4209
2026-01-11 03:40:41.97	236.81	10.41	-25.8	-27.0	15.5	1.10e-06	0	42	0	3548381184	12	4138
2026-01-11 03:40:42.98	236.75	10.32	-25.7	-27.2	13.3	0.00e+00	0	42	0	3553624064	12	4284
2026-01-11 03:40:43.99	236.68	10.24	-26.0	-27.4	15.3	0.00e+00	0	42	0	3559915520	12	4249
2026-01-11 03:40:45.00	236.61	10.16	-26.0	-27.5	15.3	0.00e+00	0	42	0	3565158400	12	4261
2026-01-11 03:40:46.00	236.54	10.08	-26.0	-27.5	15.2	0.00e+00	0	42	0	3571449856	12	4277
2026-01-11 03:40:47.01	236.48	9.99	-26.0	-27.5	15.2	1.23e-03	0	42	0	3576692736	12	4284
2026-01-11 03:40:48.02	236.41	9.91	-26.2	-28.0	14.9	0.00e+00	0	42	0	3581935616	12	4409
2026-01-11 03:40:49.03	236.34	9.83	-26.1	-27.7	15.1	9.89e-04	0	42	0	3588227072	12	4330
2026-01-11 03:40:50.03	236.28	9.75	-26.0	-27.5	15.2	0.00e+00	0	42	0	3593469952	12	4270
2026-01-11 03:40:51.04	236.21	9.67	-26.1	-27.6	15.1	0.00e+00	0	42	0	3599761408	12	4314
2026-01-11 03:40:52.05	236.15	9.59	-26.0	-27.4	15.2	0.00e+00	0	42	0	3605004288	12	4259
2026-01-11 03:40:53.06	236.08	9.51	-26.0	-27.4	15.2	9.84e-04	0	42	0	3610247168	12	4259
2026-01-11 03:40:54.07	236.02	9.43	-26.0	-27.4	15.2	0.00e+00	0	42	0	3616538624	12	4258
2026-01-11 03:40:55.08	235.96	9.35	-26.0	-27.6	15.1	0.00e+00	0	42	0	3621781504	12	4292
2026-01-11 03:40:56.09	235.89	9.27	-26.1	-27.6	15.1	7.74e-04	0	42	0	3628072960	12	4304
2026-01-11 03:40:57.10	235.83	9.19	-26.1	-27.6	15.1	0.00e+00	0	42	0	3633315840	12	4318
2026-01-11 03:40:58.11	235.77	9.11	-26.1	-27.7	15.0	8.81e-04	0	42	0	3639607296	12	4331
2026-01-11 03:40:59.11	235.70	9.03	-26.0	-27.6	15.1	9.22e-04	0	42	0	3644850176	12	4298
2026-01-11 03:41:00.12	235.64	8.95	-26.2	-27.9	14.9	0.00e+00	0	42	0	3650093056	12	4393
2026-01-11 03:41:01.13	235.58	8.87	-26.1	-27.7	15.0	8.71e-04	0	42	0	3656384512	12	4332
2026-01-11 03:41:02.13	235.52	8.79	-26.1	-27.7	15.0	8.89e-04	0	42	0	3661627392	12	4325
2026-01-11 03:41:03.14	235.46	8.71	-26.1	-27.7	15.0	2.20e-06	0	42	0	3667918848	12	4347
2026-01-11 03:41:04.15	235.40	8.63	-26.3	-28.1	14.8	0.00e+00	0	42	0	3673161728	12	4460
2026-01-11 03:41:05.16	235.34	8.56	-26.2	-28.0	14.8	6.20e-04	0	42	0	3678404608	12	4433
2026-01-11 03:41:06.17	235.28	8.48	-26.3	-28.3	14.6	1.10e-06	0	42	0	3684696064	12	4502
2026-01-11 03:41:07.17	235.22	8.40	-26.2	-27.9	14.9	5.84e-04	0	42	0	3689938944	12	4394
2026-01-11 03:41:08.18	235.16	8.32	-26.3	-28.3	14.7	2.01e-04	0	42	0	3695181824	12	4502
2026-01-11 03:41:09.19	235.10	8.25	-26.2	-28.0	14.8	2.74e-05	0	42	0	3701473280	12	4428
2026-01-11 03:41:10.19	235.04	8.17	-26.4	-28.4	14.6	4.93e-04	0	42	0	3706716160	12	4527
2026-01-11 03:41:11.19	234.98	8.09	-26.4	-28.5	14.5	0.00e+00	0	42	0	3713007616	12	4579
2026-01-11 03:41:12.20	234.92	8.02	-26.4	-28.4	14.5	6.40e-05	0	42	0	3718250496	12	4545
2026-01-11 03:41:13.21	234.87	7.94	-26.7	-28.7	14.0	1.05e-04	0	42	0	3724541952	13	4519
2026-01-11 03:41:14.21	234.81	7.87	-26.5	-28.2	14.4	1.48e-04	0	42	0	3729784832	13	4357
2026-01-11 03:41:15.22	234.75	7.79	-26.5	-28.2	14.3	0.00e+00	0	42	0	3735027712	13	4381
2026-01-11 03:41:16.23	234.70	7.71	-26.5	-28.1	14.4	5.37e-05	0	42	0	3741319168	13	4329
2026-01-11 03:41:17.23	234.64	7.64	-26.5	-28.2	14.4	1.10e-06	0	42	0	3746562048	13	4357
2026-01-11 03:41:18.24	234.58	7.56	-26.4	-28.1	14.4	0.00e+00	0	42	0	3752853504	13	4332
2026-01-11 03:41:19.25	234.53	7.49	-26.8	-28.8	14.0	2.18e-04	0	42	0	3758096384	13	4536
2026-01-11 03:41:20.26	234.47	7.41	-26.5	-28.1	14.3	1.28e-04	0	42	0	3763339264	13	4342
2026-01-11 03:41:21.27	234.42	7.34	-26.7	-28.6	14.1	3.40e-06	0	42	0	3769630720	13	4495
2026-01-11 03:41:22.28	234.36	7.26	-26.9	-29.0	13.8	3.40e-06	0	42	0	3774873600	13	4616
2026-01-11 03:41:23.28	234.31	7.19	-26.8	-28.8	13.9	1.75e-04	0	42	0	3781165056	13	4562
2026-01-11 03:41:24.29	234.25	7.11	-29.7	-33.1	10.0	1.94e-05	0	42	0	3786407936	19	5323
2026-01-11 03:41:25.30	234.20	7.04	-32.8	-44.2	3.8	8.46e-01	0	42	104	3786407936	25	13399
2026-01-11 03:41:26.31	234.14	6.97	-33.2	-44.4	3.8	8.47e-01	0	42	104	3786407936	26	13149
2026-01-11 03:41:27.31	234.09	6.89	-33.4	-44.8	3.8	8.47e-01	0	42	104	3786407936	26	13460
2026-01-11 03:41:28.32	234.04	6.82	-33.6	-44.8	3.8	8.46e-01	0	42	104	3786407936	27	13006

#Closed at: 2026-01-11 03:41:28
#Recorded file [3786 MB]: D:/data/31010_260111_063010.dat