passes_logs/2026/01/11/R2M6_AANII_01/R2M6_AANII_01__20260111_132317_FENGYUN_3D_rec.log

#Pass ID: 20260111_132317_FENGYUN 3D
#Satellite: FENGYUN 3D
#Configuration: FENGYUN 3D
#almurnet v.1.7.20240730
#Start time: 2026-01-11 13:23:17

#Version: 2.2.20231116
#Station: R2M6_AANII_01
#Location: 30.233357 lon 59.946436 lat
#TLE: 1 43010U 17072A   26010.98637270  .00000005  00000+0  24269-4 0  9997
#TLE: 2 43010  98.9936 342.7405 0002213 115.1030 245.0375 14.19693961422685

#Time	Az	El	Level	Level2	SNR	BER	BlckErr	Temp	State	Recorded	gain1	gain2
2026-01-11 13:23:17.98	192.98	7.07	-27.9	-29.9	5.7	7.69e-01	0	40	0	0	16	4549
2026-01-11 13:23:18.97	193.05	7.14	-29.1	-32.1	5.5	7.80e-01	0	40	104	0	18	5055
2026-01-11 13:23:19.97	193.11	7.21	-28.7	-31.0	11.3	2.26e-03	0	40	0	0	18	4663
2026-01-11 13:23:20.98	193.17	7.28	-29.2	-32.3	10.5	2.96e-03	0	40	0	5242880	18	5122
2026-01-11 13:23:21.97	193.24	7.36	-28.7	-30.8	11.4	2.59e-03	0	40	0	10485760	18	4623
2026-01-11 13:23:22.97	193.30	7.43	-28.4	-30.1	11.9	8.66e-04	0	40	0	16777216	18	4386
2026-01-11 13:23:23.96	193.37	7.50	-27.7	-29.5	12.9	2.35e-04	0	40	0	22020096	16	4420
2026-01-11 13:23:24.96	193.43	7.57	-27.5	-29.0	13.2	4.00e-05	0	40	0	27262976	16	4268
2026-01-11 13:23:25.95	193.50	7.64	-26.9	-28.1	13.9	8.00e-06	0	40	0	33554432	15	4135
2026-01-11 13:23:26.95	193.56	7.72	-26.9	-28.2	13.8	9.10e-06	0	40	0	38797312	15	4153
2026-01-11 13:23:27.94	193.63	7.79	-26.8	-28.0	13.9	2.20e-06	0	40	0	44040192	15	4102
2026-01-11 13:23:28.94	193.70	7.86	-27.3	-28.9	13.4	1.37e-05	0	40	0	50331648	15	4371
2026-01-11 13:23:29.93	193.76	7.94	-27.0	-28.3	13.8	8.00e-06	0	40	0	55574528	15	4178
2026-01-11 13:23:30.94	193.83	8.01	-26.7	-28.1	14.2	6.80e-06	0	40	0	61865984	14	4243
2026-01-11 13:23:31.93	193.90	8.08	-26.5	-27.6	14.5	2.20e-06	0	40	0	67108864	14	4097
2026-01-11 13:23:32.93	193.97	8.16	-26.5	-27.6	14.5	5.70e-06	0	40	0	72351744	14	4101
2026-01-11 13:23:33.93	194.03	8.23	-26.5	-27.7	14.5	1.10e-06	0	40	0	78643200	14	4117
2026-01-11 13:23:34.93	194.10	8.31	-26.7	-28.2	14.1	4.50e-06	0	41	0	83886080	14	4266
2026-01-11 13:23:35.93	194.17	8.38	-26.4	-27.8	14.6	1.10e-06	0	40	0	89128960	13	4270
2026-01-11 13:23:36.93	194.24	8.46	-26.3	-27.8	14.7	1.10e-06	0	41	0	94371840	13	4260
2026-01-11 13:23:37.93	194.31	8.53	-26.3	-27.7	14.7	1.10e-06	0	41	0	100663296	13	4227
2026-01-11 13:23:38.92	194.38	8.61	-26.6	-28.3	14.4	1.10e-06	0	41	0	105906176	13	4402
2026-01-11 13:23:39.92	194.45	8.68	-26.4	-28.0	14.6	0.00e+00	0	41	0	112197632	13	4307
2026-01-11 13:23:40.91	194.52	8.76	-26.3	-27.7	14.7	0.00e+00	0	41	0	117440512	13	4233
2026-01-11 13:23:41.91	194.59	8.83	-26.3	-27.8	14.7	1.10e-06	0	41	0	122683392	13	4272
2026-01-11 13:23:42.91	194.66	8.91	-26.3	-27.8	14.7	0.00e+00	0	41	0	128974848	13	4259
2026-01-11 13:23:43.91	194.73	8.99	-26.6	-28.4	14.4	0.00e+00	0	41	0	134217728	13	4422
2026-01-11 13:23:44.91	194.81	9.06	-26.3	-27.8	14.7	0.00e+00	0	41	0	139460608	13	4258
2026-01-11 13:23:45.92	194.88	9.14	-26.3	-27.7	14.7	1.10e-06	0	41	0	145752064	13	4239
2026-01-11 13:23:46.91	194.95	9.22	-26.4	-27.9	14.7	0.00e+00	0	41	0	150994944	13	4299
2026-01-11 13:23:47.92	195.03	9.29	-26.5	-28.1	14.5	0.00e+00	0	41	0	156237824	13	4356
2026-01-11 13:23:48.91	195.10	9.37	-26.4	-27.8	14.7	1.10e-06	0	41	0	162529280	13	4273
2026-01-11 13:23:49.91	195.17	9.45	-26.4	-27.9	14.6	0.00e+00	0	41	0	167772160	13	4295
2026-01-11 13:23:50.90	195.25	9.53	-26.5	-28.1	14.5	0.00e+00	0	41	0	174063616	13	4344
2026-01-11 13:23:51.89	195.32	9.60	-26.3	-27.7	14.8	0.00e+00	0	41	0	179306496	13	4238
2026-01-11 13:23:52.90	195.40	9.68	-26.3	-27.7	14.8	2.20e-06	0	41	0	184549376	13	4225
2026-01-11 13:23:53.89	195.47	9.76	-26.3	-27.7	14.8	1.10e-06	0	41	0	190840832	13	4229
2026-01-11 13:23:54.90	195.55	9.84	-26.5	-28.1	14.6	0.00e+00	0	41	0	196083712	13	4348
2026-01-11 13:23:55.90	195.62	9.92	-26.6	-28.4	14.4	0.00e+00	0	41	0	201326592	13	4442
2026-01-11 13:23:56.89	195.70	10.00	-26.4	-28.0	14.6	3.40e-06	0	41	0	207618048	13	4311
2026-01-11 13:23:57.89	195.78	10.07	-26.3	-27.7	14.8	0.00e+00	0	41	0	212860928	13	4221
2026-01-11 13:23:58.89	195.85	10.15	-26.2	-27.5	14.9	0.00e+00	0	41	0	218103808	13	4188
2026-01-11 13:23:59.89	195.93	10.23	-26.1	-27.3	15.1	0.00e+00	0	41	0	224395264	13	4114
2026-01-11 13:24:00.88	196.01	10.31	-26.4	-27.9	14.7	0.00e+00	0	41	0	229638144	13	4280
2026-01-11 13:24:01.88	196.09	10.39	-26.2	-27.4	15.0	0.00e+00	0	41	0	234881024	13	4143
2026-01-11 13:24:02.87	196.17	10.47	-26.1	-27.2	15.1	0.00e+00	0	41	0	241172480	13	4099
2026-01-11 13:24:03.88	196.25	10.55	-26.3	-27.8	14.8	0.00e+00	0	41	0	246415360	13	4252
2026-01-11 13:24:04.88	196.33	10.63	-26.2	-27.5	15.0	1.10e-06	0	41	0	252706816	13	4192
2026-01-11 13:24:05.89	196.41	10.72	-26.0	-27.1	15.2	0.00e+00	0	41	0	257949696	13	4072
2026-01-11 13:24:06.89	196.49	10.80	-26.1	-27.2	15.1	1.10e-06	0	41	0	263192576	13	4090
2026-01-11 13:24:07.89	196.57	10.88	-26.2	-27.4	15.0	0.00e+00	0	41	0	269484032	13	4155
2026-01-11 13:24:08.89	196.65	10.96	-26.1	-27.2	15.2	0.00e+00	0	41	0	274726912	13	4087
2026-01-11 13:24:09.89	196.73	11.04	-26.2	-27.6	15.0	0.00e+00	0	41	0	279969792	13	4200
2026-01-11 13:24:10.89	196.81	11.12	-26.1	-27.2	15.2	0.00e+00	0	41	0	286261248	13	4085
2026-01-11 13:24:11.88	196.90	11.20	-25.9	-26.8	15.4	0.00e+00	0	41	0	291504128	13	3992
2026-01-11 13:24:12.88	196.98	11.29	-26.0	-27.1	15.2	0.00e+00	0	41	0	297795584	13	4064
2026-01-11 13:24:13.88	197.06	11.37	-26.0	-26.9	15.2	0.00e+00	0	41	0	303038464	13	4031
2026-01-11 13:24:14.88	197.15	11.45	-26.0	-26.9	15.3	0.00e+00	0	41	0	308281344	13	4027
2026-01-11 13:24:15.88	197.23	11.54	-25.9	-26.9	15.4	0.00e+00	0	41	0	314572800	13	4009
2026-01-11 13:24:16.88	197.32	11.62	-25.9	-26.7	15.5	0.00e+00	0	41	0	319815680	13	3972
2026-01-11 13:24:17.88	197.40	11.70	-26.0	-27.1	15.3	0.00e+00	0	42	0	325058560	13	4062
2026-01-11 13:24:18.87	197.49	11.79	-25.9	-26.7	15.5	0.00e+00	0	41	0	330301440	13	3966
2026-01-11 13:24:19.87	197.58	11.87	-25.8	-27.0	15.6	0.00e+00	0	41	0	336592896	12	4147
2026-01-11 13:24:20.87	197.66	11.95	-25.8	-27.0	15.6	8.00e-06	0	41	0	341835776	12	4155
2026-01-11 13:24:21.86	197.75	12.04	-25.7	-27.0	15.6	0.00e+00	0	41	0	348127232	12	4137
2026-01-11 13:24:22.86	197.84	12.12	-25.7	-26.8	15.7	0.00e+00	0	41	0	353370112	12	4108
2026-01-11 13:24:23.86	197.93	12.21	-25.8	-27.1	15.5	0.00e+00	0	41	0	358612992	12	4170
2026-01-11 13:24:24.86	198.01	12.29	-25.7	-26.7	15.7	0.00e+00	0	41	0	364904448	12	4080
2026-01-11 13:24:25.85	198.10	12.38	-25.5	-26.5	15.9	0.00e+00	0	41	0	370147328	12	4025
2026-01-11 13:24:26.85	198.19	12.46	-25.6	-26.7	15.8	0.00e+00	0	42	0	375390208	12	4066
2026-01-11 13:24:27.86	198.28	12.55	-25.6	-26.7	15.8	0.00e+00	0	42	0	381681664	12	4069
2026-01-11 13:24:28.85	198.37	12.63	-25.5	-26.5	15.9	0.00e+00	0	42	0	386924544	12	4019
2026-01-11 13:24:29.85	198.47	12.72	-25.4	-26.3	16.0	0.00e+00	0	42	0	392167424	12	3962
2026-01-11 13:24:30.85	198.56	12.81	-25.4	-26.1	16.1	0.00e+00	0	42	0	398458880	12	3914
2026-01-11 13:24:31.84	198.65	12.89	-25.8	-27.1	15.6	0.00e+00	0	42	0	403701760	12	4171
2026-01-11 13:24:32.85	198.74	12.98	-25.6	-26.6	15.9	1.48e-05	0	41	0	409993216	12	4037
2026-01-11 13:24:33.84	198.84	13.07	-25.4	-26.2	16.1	0.00e+00	0	41	0	415236096	12	3937
2026-01-11 13:24:34.85	198.93	13.16	-25.4	-26.2	16.1	0.00e+00	0	41	0	420478976	12	3954
2026-01-11 13:24:35.84	199.03	13.24	-25.6	-26.5	15.9	9.10e-06	0	42	0	426770432	12	4028
2026-01-11 13:24:36.84	199.12	13.33	-25.5	-26.3	16.0	0.00e+00	0	42	0	432013312	12	3979
2026-01-11 13:24:37.84	199.22	13.42	-25.5	-26.3	16.0	0.00e+00	0	42	0	437256192	12	3979
2026-01-11 13:24:38.84	199.31	13.51	-25.4	-26.3	16.1	0.00e+00	0	42	0	443547648	12	3959
2026-01-11 13:24:39.84	199.41	13.60	-25.5	-26.3	16.0	0.00e+00	0	41	0	448790528	12	3977
2026-01-11 13:24:40.83	199.51	13.69	-25.6	-26.6	15.9	0.00e+00	0	42	0	454033408	12	4050
2026-01-11 13:24:41.83	199.60	13.78	-25.5	-26.4	16.0	0.00e+00	0	42	0	460324864	12	3992
2026-01-11 13:24:42.82	199.70	13.86	-25.6	-26.7	15.8	0.00e+00	0	42	0	465567744	12	4073
2026-01-11 13:24:43.82	199.80	13.95	-25.4	-26.3	16.1	0.00e+00	0	42	0	470810624	12	3964
2026-01-11 13:24:44.81	199.90	14.04	-25.3	-26.4	16.3	5.70e-06	0	41	0	477102080	11	4106
2026-01-11 13:24:45.81	200.00	14.13	-25.4	-26.7	16.2	0.00e+00	0	42	0	482344960	11	4163
2026-01-11 13:24:46.80	200.10	14.22	-25.3	-26.3	16.4	0.00e+00	0	42	0	487587840	11	4081
2026-01-11 13:24:47.80	200.20	14.31	-25.2	-26.3	16.4	0.00e+00	0	42	0	493879296	11	4070
2026-01-11 13:24:48.79	200.30	14.40	-25.3	-26.3	16.4	0.00e+00	0	42	0	499122176	11	4076
2026-01-11 13:24:49.78	200.40	14.50	-25.4	-26.6	16.3	0.00e+00	0	42	0	505413632	11	4138
2026-01-11 13:24:50.78	200.51	14.59	-25.3	-26.5	16.3	4.50e-06	0	42	0	510656512	11	4127
2026-01-11 13:24:51.78	200.61	14.68	-25.3	-26.5	16.3	0.00e+00	0	42	0	515899392	11	4116
2026-01-11 13:24:52.78	200.71	14.77	-25.4	-26.6	16.3	0.00e+00	0	42	0	522190848	11	4136
2026-01-11 13:24:53.78	200.82	14.86	-25.3	-26.4	16.4	4.50e-06	0	42	0	527433728	11	4095
2026-01-11 13:24:54.78	200.93	14.96	-25.3	-26.5	16.4	0.00e+00	0	42	0	532676608	11	4113
2026-01-11 13:24:55.78	201.03	15.05	-25.2	-26.3	16.5	0.00e+00	0	42	0	537919488	11	4065
2026-01-11 13:24:56.77	201.14	15.14	-25.3	-26.5	16.4	2.20e-06	0	42	0	544210944	11	4115
2026-01-11 13:24:57.77	201.25	15.24	-25.2	-26.3	16.5	0.00e+00	0	42	0	549453824	11	4063
2026-01-11 13:24:58.77	201.35	15.33	-25.0	-25.9	16.7	0.00e+00	0	42	0	555745280	11	3961
2026-01-11 13:24:59.76	201.46	15.42	-25.1	-26.0	16.7	4.50e-06	0	42	0	560988160	11	3985
2026-01-11 13:25:00.76	201.57	15.52	-25.0	-25.8	16.7	0.00e+00	0	42	0	566231040	11	3948
2026-01-11 13:25:01.75	201.68	15.61	-25.0	-25.8	16.8	0.00e+00	0	42	0	572522496	11	3945
2026-01-11 13:25:02.75	201.79	15.71	-25.1	-26.0	16.6	1.10e-06	0	42	0	577765376	11	3998
2026-01-11 13:25:03.75	201.90	15.80	-25.0	-25.8	16.8	0.00e+00	0	42	0	583008256	11	3934
2026-01-11 13:25:04.74	202.01	15.90	-25.1	-26.0	16.7	0.00e+00	0	42	0	589299712	11	4001
2026-01-11 13:25:05.74	202.13	15.99	-24.9	-25.6	16.9	0.00e+00	0	42	0	594542592	11	3895
2026-01-11 13:25:06.74	202.24	16.09	-24.8	-25.4	17.0	0.00e+00	0	42	0	599785472	11	3848
2026-01-11 13:25:07.73	202.35	16.18	-24.9	-25.7	16.9	0.00e+00	0	42	0	606076928	11	3913
2026-01-11 13:25:08.73	202.47	16.28	-24.8	-25.4	17.0	9.10e-06	0	42	0	611319808	11	3842
2026-01-11 13:25:09.73	202.59	16.38	-25.0	-25.8	16.8	0.00e+00	0	42	0	616562688	11	3935
2026-01-11 13:25:10.73	202.70	16.47	-24.9	-25.5	17.0	0.00e+00	0	42	0	622854144	11	3861
2026-01-11 13:25:11.73	202.82	16.57	-24.6	-25.4	17.3	1.02e-05	0	42	0	628097024	10	3957
2026-01-11 13:25:12.73	202.94	16.67	-24.6	-25.5	17.2	0.00e+00	0	42	0	633339904	10	3979
2026-01-11 13:25:13.73	203.06	16.77	-24.5	-25.3	17.3	0.00e+00	0	42	0	639631360	10	3918
2026-01-11 13:25:14.72	203.17	16.86	-24.5	-25.2	17.4	4.50e-06	0	42	0	644874240	10	3899
2026-01-11 13:25:15.72	203.29	16.96	-24.5	-25.2	17.4	0.00e+00	0	42	0	650117120	10	3893
2026-01-11 13:25:16.72	203.42	17.06	-24.5	-25.2	17.4	0.00e+00	0	42	0	656408576	10	3908
2026-01-11 13:25:17.72	203.54	17.16	-24.7	-25.6	17.2	0.00e+00	0	42	0	661651456	10	4002
2026-01-11 13:25:18.72	203.66	17.26	-24.6	-25.3	17.4	0.00e+00	0	42	0	667942912	10	3932
2026-01-11 13:25:19.71	203.78	17.36	-24.4	-25.1	17.5	0.00e+00	0	42	0	673185792	10	3865
2026-01-11 13:25:20.71	203.91	17.46	-24.4	-25.1	17.5	0.00e+00	0	42	0	678428672	10	3867
2026-01-11 13:25:21.71	204.03	17.56	-24.6	-25.4	17.3	0.00e+00	0	42	0	684720128	10	3940
2026-01-11 13:25:22.72	204.16	17.66	-24.7	-25.6	17.2	0.00e+00	0	42	0	689963008	10	3993
2026-01-11 13:25:23.72	204.29	17.76	-24.7	-25.7	17.2	1.02e-05	0	42	0	695205888	10	4031
2026-01-11 13:25:24.70	204.41	17.86	-24.7	-25.6	17.2	0.00e+00	0	42	0	701497344	10	3994
2026-01-11 13:25:25.71	204.54	17.96	-24.7	-25.6	17.2	0.00e+00	0	42	0	706740224	10	4008
2026-01-11 13:25:26.70	204.67	18.06	-24.6	-25.5	17.3	0.00e+00	0	42	0	711983104	10	3973
2026-01-11 13:25:27.70	204.80	18.16	-24.6	-25.3	17.4	0.00e+00	0	42	0	718274560	10	3938
2026-01-11 13:25:28.70	204.93	18.27	-24.5	-25.2	17.4	0.00e+00	0	42	0	723517440	10	3908
2026-01-11 13:25:29.69	205.06	18.37	-24.4	-24.9	17.6	0.00e+00	0	42	0	729808896	10	3837
2026-01-11 13:25:30.69	205.19	18.47	-24.3	-24.8	17.7	0.00e+00	0	42	0	735051776	10	3814
2026-01-11 13:25:31.68	205.32	18.57	-24.2	-25.1	17.7	0.00e+00	0	42	0	740294656	9	3995
2026-01-11 13:25:32.68	205.46	18.67	-24.2	-25.1	17.8	0.00e+00	0	42	0	745537536	9	3977
2026-01-11 13:25:33.68	205.59	18.78	-24.2	-25.0	17.8	0.00e+00	0	42	0	751828992	9	3968
2026-01-11 13:25:34.67	205.73	18.88	-24.1	-24.8	17.9	0.00e+00	0	42	0	757071872	9	3923
2026-01-11 13:25:35.67	205.86	18.98	-24.0	-24.7	18.0	0.00e+00	0	42	0	762314752	9	3887
2026-01-11 13:25:36.67	206.00	19.09	-24.0	-24.7	18.0	0.00e+00	0	42	0	768606208	9	3885
2026-01-11 13:25:37.67	206.14	19.19	-24.0	-24.7	18.0	0.00e+00	0	42	0	773849088	9	3896
2026-01-11 13:25:38.67	206.28	19.30	-24.1	-24.8	17.9	0.00e+00	0	42	0	780140544	9	3918
2026-01-11 13:25:39.66	206.42	19.40	-24.0	-24.7	18.0	0.00e+00	0	42	0	785383424	9	3886
2026-01-11 13:25:40.66	206.56	19.51	-23.9	-24.5	18.1	0.00e+00	0	42	0	790626304	9	3839
2026-01-11 13:25:41.65	206.70	19.61	-24.0	-24.6	18.0	0.00e+00	0	42	0	796917760	9	3853
2026-01-11 13:25:42.65	206.84	19.72	-24.0	-24.6	18.0	0.00e+00	0	42	0	802160640	9	3862
2026-01-11 13:25:43.64	206.99	19.82	-24.1	-24.9	17.9	0.00e+00	0	42	0	807403520	9	3925
2026-01-11 13:25:44.64	207.13	19.93	-24.1	-24.9	17.8	0.00e+00	0	42	0	813694976	9	3945
2026-01-11 13:25:45.63	207.28	20.04	-24.0	-24.7	18.0	0.00e+00	0	42	0	818937856	9	3891
2026-01-11 13:25:46.64	207.43	20.15	-23.9	-24.5	18.1	0.00e+00	0	42	0	824180736	9	3842
2026-01-11 13:25:47.63	207.57	20.25	-24.0	-24.6	18.1	0.00e+00	0	42	0	830472192	9	3876
2026-01-11 13:25:48.63	207.72	20.36	-23.9	-24.4	18.2	0.00e+00	0	42	0	835715072	9	3808
2026-01-11 13:25:49.61	207.87	20.47	-23.9	-24.4	18.2	0.00e+00	0	42	0	840957952	9	3810
2026-01-11 13:25:50.61	208.02	20.57	-23.9	-24.5	18.1	0.00e+00	0	42	0	847249408	9	3832
2026-01-11 13:25:51.61	208.17	20.68	-24.0	-24.7	18.0	0.00e+00	0	42	0	852492288	9	3877
2026-01-11 13:25:52.60	208.32	20.79	-24.0	-24.7	18.0	0.00e+00	0	42	0	857735168	9	3882
2026-01-11 13:25:53.59	208.48	20.90	-24.1	-24.8	18.1	0.00e+00	0	42	0	864026624	9	3887
2026-01-11 13:25:54.59	208.63	21.01	-24.1	-24.7	18.2	0.00e+00	0	42	0	869269504	9	3881
2026-01-11 13:25:55.59	208.79	21.12	-24.2	-25.0	18.0	0.00e+00	0	42	0	874512384	9	3948
2026-01-11 13:25:56.58	208.95	21.23	-24.2	-25.0	18.0	0.00e+00	0	42	0	880803840	9	3937
2026-01-11 13:25:57.57	209.10	21.33	-24.2	-25.0	18.0	0.00e+00	0	42	0	886046720	9	3945
2026-01-11 13:25:58.56	209.26	21.44	-24.2	-25.0	18.0	0.00e+00	0	42	0	891289600	9	3947
2026-01-11 13:25:59.55	209.42	21.55	-24.0	-24.5	18.3	0.00e+00	0	42	0	897581056	9	3828
2026-01-11 13:26:00.54	209.58	21.66	-23.9	-24.2	18.4	0.00e+00	0	42	0	902823936	9	3764
2026-01-11 13:26:01.54	209.74	21.77	-23.8	-24.6	18.5	0.00e+00	0	42	0	908066816	8	3946
2026-01-11 13:26:02.54	209.91	21.89	-23.8	-24.6	18.5	0.00e+00	0	42	0	914358272	8	3958
2026-01-11 13:26:03.53	210.07	22.00	-23.7	-24.5	18.6	0.00e+00	0	42	0	919601152	8	3930
2026-01-11 13:26:04.53	210.24	22.11	-23.7	-24.4	18.6	0.00e+00	0	42	0	925892608	8	3910
2026-01-11 13:26:05.53	210.41	22.22	-23.7	-24.4	18.7	0.00e+00	0	42	0	931135488	8	3899
2026-01-11 13:26:06.53	210.58	22.33	-23.6	-24.2	18.7	0.00e+00	0	42	0	936378368	8	3867
2026-01-11 13:26:07.53	210.75	22.45	-23.8	-24.6	18.6	0.00e+00	0	42	0	941621248	8	3952
2026-01-11 13:26:08.52	210.92	22.56	-23.7	-24.4	18.6	0.00e+00	0	42	0	947912704	8	3917
2026-01-11 13:26:09.51	211.09	22.67	-23.6	-24.2	18.7	0.00e+00	0	42	0	953155584	8	3853
2026-01-11 13:26:10.51	211.26	22.78	-23.7	-24.4	18.7	0.00e+00	0	42	0	958398464	8	3898
2026-01-11 13:26:11.51	211.44	22.90	-23.7	-24.4	18.7	0.00e+00	0	42	0	964689920	8	3911
2026-01-11 13:26:12.50	211.61	23.01	-23.5	-24.1	18.8	0.00e+00	0	42	0	969932800	8	3830
2026-01-11 13:26:13.50	211.79	23.12	-23.5	-24.0	18.8	0.00e+00	0	42	0	976224256	8	3824
2026-01-11 13:26:14.49	211.96	23.24	-23.5	-24.0	18.8	0.00e+00	0	42	0	981467136	8	3822
2026-01-11 13:26:15.49	212.14	23.35	-23.4	-23.8	18.9	0.00e+00	0	42	0	986710016	8	3772
2026-01-11 13:26:16.49	212.33	23.47	-23.5	-24.0	18.8	0.00e+00	0	42	0	993001472	8	3820
2026-01-11 13:26:17.48	212.51	23.58	-23.8	-24.6	18.6	0.00e+00	0	42	0	998244352	8	3946
2026-01-11 13:26:18.47	212.69	23.69	-23.8	-24.7	18.5	0.00e+00	0	42	0	1003487232	8	3972
2026-01-11 13:26:19.46	212.87	23.81	-23.7	-24.3	18.7	0.00e+00	0	42	0	1008730112	8	3886
2026-01-11 13:26:20.46	213.06	23.92	-23.6	-24.1	18.8	0.00e+00	0	42	0	1015021568	8	3834
2026-01-11 13:26:21.46	213.25	24.04	-23.6	-24.2	18.8	0.00e+00	0	42	0	1020264448	8	3858
2026-01-11 13:26:22.45	213.43	24.15	-23.6	-24.2	18.8	0.00e+00	0	42	0	1026555904	8	3855
2026-01-11 13:26:23.45	213.62	24.27	-23.6	-24.2	18.8	0.00e+00	0	42	0	1031798784	8	3866
2026-01-11 13:26:24.45	213.82	24.39	-23.7	-24.4	18.7	0.00e+00	0	42	0	1037041664	8	3896
2026-01-11 13:26:25.46	214.01	24.50	-23.5	-24.0	18.9	0.00e+00	0	42	0	1043333120	8	3821
2026-01-11 13:26:26.45	214.20	24.62	-23.4	-23.8	19.1	0.00e+00	0	42	0	1048576000	8	3756
2026-01-11 13:26:27.45	214.40	24.74	-23.4	-23.8	19.0	0.00e+00	0	42	0	1053818880	8	3770
2026-01-11 13:26:28.45	214.60	24.85	-23.4	-23.8	19.0	0.00e+00	0	42	0	1060110336	8	3762
2026-01-11 13:26:29.44	214.80	24.97	-23.2	-23.9	19.2	0.00e+00	0	42	0	1065353216	7	3889
2026-01-11 13:26:30.44	215.00	25.09	-23.1	-23.7	19.3	0.00e+00	0	42	0	1070596096	7	3856
2026-01-11 13:26:31.45	215.20	25.21	-23.2	-23.9	19.2	0.00e+00	0	42	0	1076887552	7	3901
2026-01-11 13:26:32.46	215.41	25.32	-23.2	-23.9	19.2	0.00e+00	0	42	0	1082130432	7	3881
2026-01-11 13:26:33.45	215.61	25.44	-23.1	-23.6	19.3	0.00e+00	0	42	0	1088421888	7	3830
2026-01-11 13:26:34.45	215.82	25.56	-23.0	-23.5	19.4	0.00e+00	0	42	0	1093664768	7	3808
2026-01-11 13:26:35.45	216.02	25.68	-23.1	-23.8	19.3	0.00e+00	0	42	0	1098907648	7	3859
2026-01-11 13:26:36.44	216.23	25.79	-23.2	-23.9	19.2	0.00e+00	0	42	0	1105199104	7	3885
2026-01-11 13:26:37.44	216.44	25.91	-23.1	-23.6	19.4	0.00e+00	0	42	0	1110441984	7	3831
2026-01-11 13:26:38.44	216.65	26.03	-23.2	-24.0	19.2	0.00e+00	0	42	0	1115684864	7	3911
2026-01-11 13:26:39.43	216.87	26.15	-23.2	-24.0	19.2	0.00e+00	0	42	0	1121976320	7	3909
2026-01-11 13:26:40.43	217.08	26.27	-23.1	-23.6	19.3	0.00e+00	0	42	0	1127219200	7	3835
2026-01-11 13:26:41.42	217.30	26.39	-23.1	-23.6	19.4	0.00e+00	0	42	0	1132462080	7	3828
2026-01-11 13:26:42.41	217.51	26.50	-23.1	-23.6	19.4	0.00e+00	0	42	0	1138753536	7	3832
2026-01-11 13:26:43.42	217.74	26.62	-23.0	-23.5	19.4	0.00e+00	0	42	0	1143996416	7	3807
2026-01-11 13:26:44.42	217.96	26.74	-23.1	-23.6	19.4	0.00e+00	0	42	0	1149239296	7	3821
2026-01-11 13:26:45.42	218.18	26.86	-23.2	-23.8	19.3	0.00e+00	0	42	0	1155530752	7	3871
2026-01-11 13:26:46.42	218.41	26.98	-23.3	-24.0	19.2	0.00e+00	0	42	0	1160773632	7	3923
2026-01-11 13:26:47.42	218.63	27.10	-23.2	-23.9	19.2	0.00e+00	0	42	0	1166016512	7	3891
2026-01-11 13:26:48.41	218.86	27.22	-23.3	-24.0	19.2	0.00e+00	0	42	0	1172307968	7	3912
2026-01-11 13:26:49.40	219.09	27.34	-23.3	-24.1	19.2	0.00e+00	0	42	0	1177550848	7	3931
2026-01-11 13:26:50.40	219.32	27.46	-23.3	-24.0	19.2	0.00e+00	0	42	0	1182793728	7	3923
2026-01-11 13:26:51.39	219.55	27.57	-23.1	-23.7	19.3	0.00e+00	0	42	0	1189085184	7	3851
2026-01-11 13:26:52.38	219.78	27.69	-22.8	-23.1	19.7	0.00e+00	0	42	0	1194328064	7	3703
2026-01-11 13:26:53.38	220.02	27.81	-22.7	-23.4	19.8	0.00e+00	0	42	0	1199570944	6	3877
2026-01-11 13:26:54.37	220.26	27.93	-22.7	-23.4	19.8	0.00e+00	0	42	0	1205862400	6	3877
2026-01-11 13:26:55.37	220.50	28.05	-22.7	-23.3	19.8	0.00e+00	0	42	0	1211105280	6	3859
2026-01-11 13:26:56.36	220.74	28.17	-22.6	-23.2	19.9	0.00e+00	0	42	0	1216348160	6	3832
2026-01-11 13:26:57.36	220.98	28.29	-22.7	-23.3	19.8	0.00e+00	0	42	0	1222639616	6	3854
2026-01-11 13:26:58.36	221.23	28.41	-22.7	-23.4	19.8	0.00e+00	0	42	0	1227882496	6	3879
2026-01-11 13:26:59.36	221.48	28.53	-22.7	-23.4	19.8	0.00e+00	0	42	0	1233125376	6	3878
2026-01-11 13:27:00.36	221.73	28.65	-22.9	-23.7	19.6	0.00e+00	0	42	0	1239416832	6	3963
2026-01-11 13:27:01.35	221.97	28.76	-22.7	-23.2	19.9	0.00e+00	0	42	0	1244659712	6	3842
2026-01-11 13:27:02.35	222.23	28.88	-22.8	-23.5	19.7	0.00e+00	0	42	0	1250951168	6	3910
2026-01-11 13:27:03.35	222.48	29.00	-22.8	-23.5	19.7	0.00e+00	0	42	0	1256194048	6	3910
2026-01-11 13:27:04.34	222.74	29.12	-22.7	-23.3	19.8	1.10e-06	0	42	0	1261436928	6	3868
2026-01-11 13:27:05.34	223.00	29.24	-22.7	-23.3	19.8	0.00e+00	0	42	0	1267728384	6	3868
2026-01-11 13:27:06.34	223.26	29.36	-22.6	-23.1	20.0	0.00e+00	0	42	0	1272971264	6	3810
2026-01-11 13:27:07.33	223.52	29.47	-22.6	-23.0	20.0	1.10e-06	0	42	0	1278214144	6	3797
2026-01-11 13:27:08.33	223.78	29.59	-22.7	-23.3	19.8	0.00e+00	0	42	0	1284505600	6	3856
2026-01-11 13:27:09.32	224.04	29.71	-22.8	-23.4	19.8	0.00e+00	0	42	0	1289748480	6	3891
2026-01-11 13:27:10.31	224.31	29.83	-23.0	-24.0	19.5	0.00e+00	0	43	0	1294991360	6	4020
2026-01-11 13:27:11.31	224.58	29.94	-22.9	-23.8	19.6	0.00e+00	0	42	0	1301282816	6	3979
2026-01-11 13:27:12.31	224.85	30.06	-23.3	-24.5	19.3	0.00e+00	0	42	0	1306525696	6	4149
2026-01-11 13:27:13.30	225.12	30.18	-22.9	-23.8	19.6	0.00e+00	0	42	0	1311768576	6	3971
2026-01-11 13:27:14.30	225.40	30.29	-22.6	-23.2	19.9	0.00e+00	0	42	0	1318060032	6	3825
2026-01-11 13:27:15.29	225.67	30.41	-22.3	-22.5	20.2	0.00e+00	0	42	0	1323302912	6	3683
2026-01-11 13:27:16.29	225.95	30.53	-22.4	-22.6	20.2	0.00e+00	0	42	0	1328545792	6	3689
2026-01-11 13:27:17.28	226.23	30.64	-22.4	-22.6	20.2	0.00e+00	0	42	0	1334837248	6	3702
2026-01-11 13:27:18.28	226.52	30.76	-22.3	-22.6	20.2	0.00e+00	0	42	0	1340080128	6	3688
2026-01-11 13:27:19.27	226.80	30.87	-22.5	-22.9	20.1	0.00e+00	0	42	0	1345323008	6	3775
2026-01-11 13:27:20.27	227.09	30.99	-22.5	-22.9	20.1	0.00e+00	0	42	0	1351614464	6	3767
2026-01-11 13:27:21.26	227.37	31.10	-22.6	-23.2	19.9	0.00e+00	0	42	0	1356857344	6	3829
2026-01-11 13:27:22.26	227.66	31.22	-22.5	-23.0	20.0	0.00e+00	0	42	0	1362100224	6	3777
2026-01-11 13:27:23.25	227.96	31.33	-22.5	-22.8	20.2	0.00e+00	0	42	0	1368391680	6	3738
2026-01-11 13:27:24.25	228.25	31.45	-22.5	-22.8	20.1	0.00e+00	0	42	0	1373634560	6	3749
2026-01-11 13:27:25.25	228.55	31.56	-22.8	-23.6	19.7	0.00e+00	0	42	0	1378877440	6	3929
2026-01-11 13:27:26.25	228.85	31.67	-22.8	-23.6	19.7	0.00e+00	0	42	0	1385168896	6	3924
2026-01-11 13:27:27.24	229.15	31.78	-22.9	-23.7	19.7	0.00e+00	0	42	0	1390411776	6	3946
2026-01-11 13:27:28.23	229.45	31.90	-22.7	-23.4	19.8	0.00e+00	0	42	0	1396703232	6	3887
2026-01-11 13:27:29.23	229.76	32.01	-22.8	-23.5	19.8	0.00e+00	0	42	0	1401946112	6	3898
2026-01-11 13:27:30.23	230.06	32.12	-22.8	-23.5	19.8	0.00e+00	0	42	0	1407188992	6	3913
2026-01-11 13:27:31.22	230.37	32.23	-22.7	-23.2	19.9	0.00e+00	0	42	0	1412431872	6	3840
2026-01-11 13:27:32.22	230.68	32.34	-22.9	-23.7	19.7	0.00e+00	0	42	0	1418723328	6	3951
2026-01-11 13:27:33.22	231.00	32.45	-22.8	-23.5	19.8	0.00e+00	0	43	0	1423966208	6	3900
2026-01-11 13:27:34.23	231.32	32.56	-22.8	-23.5	19.8	0.00e+00	0	42	0	1429209088	6	3894
2026-01-11 13:27:35.22	231.63	32.67	-22.8	-23.4	19.8	0.00e+00	0	42	0	1435500544	6	3886
2026-01-11 13:27:36.22	231.95	32.78	-22.8	-23.5	19.8	0.00e+00	0	42	0	1440743424	6	3911
2026-01-11 13:27:37.22	232.28	32.88	-22.8	-23.4	19.9	0.00e+00	0	42	0	1447034880	6	3887
2026-01-11 13:27:38.21	232.60	32.99	-22.7	-23.3	19.9	0.00e+00	0	42	0	1452277760	6	3862
2026-01-11 13:27:39.21	232.92	33.10	-22.7	-23.4	19.9	0.00e+00	0	42	0	1457520640	6	3877
2026-01-11 13:27:40.20	233.25	33.20	-22.4	-22.7	20.2	0.00e+00	0	42	0	1463812096	6	3708
2026-01-11 13:27:41.20	233.58	33.31	-22.2	-22.8	20.4	0.00e+00	0	42	0	1469054976	5	3856
2026-01-11 13:27:42.20	233.91	33.41	-22.3	-22.9	20.3	0.00e+00	0	42	0	1474297856	5	3883
2026-01-11 13:27:43.19	234.25	33.52	-22.4	-23.1	20.3	2.20e-06	0	42	0	1480589312	5	3913
2026-01-11 13:27:44.19	234.58	33.62	-22.5	-23.3	20.2	0.00e+00	0	42	0	1485832192	5	3963
2026-01-11 13:27:45.18	234.92	33.72	-22.5	-23.5	20.1	0.00e+00	0	42	0	1491075072	5	4001
2026-01-11 13:27:46.18	235.26	33.82	-22.6	-23.7	20.0	0.00e+00	0	42	0	1497366528	5	4055
2026-01-11 13:27:47.18	235.60	33.92	-22.8	-24.0	19.8	0.00e+00	0	42	0	1502609408	5	4148
2026-01-11 13:27:48.17	235.95	34.02	-22.7	-23.8	19.9	0.00e+00	0	42	0	1507852288	5	4090
2026-01-11 13:27:49.17	236.29	34.12	-22.5	-23.3	20.2	0.00e+00	0	42	0	1514143744	5	3975
2026-01-11 13:27:50.17	236.64	34.22	-22.4	-23.1	20.3	0.00e+00	0	42	0	1519386624	5	3920
2026-01-11 13:27:51.16	236.99	34.32	-22.4	-23.3	20.2	0.00e+00	0	42	0	1524629504	5	3957
2026-01-11 13:27:52.16	237.35	34.41	-22.3	-23.0	20.4	0.00e+00	0	42	0	1530920960	5	3886
2026-01-11 13:27:53.15	237.70	34.51	-22.7	-23.7	20.0	0.00e+00	0	42	0	1536163840	5	4066
2026-01-11 13:27:54.15	238.06	34.60	-22.8	-24.1	19.8	0.00e+00	0	43	0	1541406720	5	4156
2026-01-11 13:27:55.15	238.42	34.70	-23.1	-24.1	19.5	0.00e+00	0	42	0	1547698176	6	4047
2026-01-11 13:27:56.16	238.78	34.79	-22.7	-23.4	19.9	0.00e+00	0	42	0	1552941056	6	3889
2026-01-11 13:27:57.15	239.14	34.88	-22.5	-22.8	20.2	0.00e+00	0	42	0	1559232512	6	3745
2026-01-11 13:27:58.16	239.51	34.97	-22.2	-22.8	20.4	0.00e+00	0	42	0	1564475392	5	3840
2026-01-11 13:27:59.15	239.88	35.06	-22.2	-22.8	20.4	0.00e+00	0	42	0	1569718272	5	3844
2026-01-11 13:28:00.14	240.25	35.15	-22.2	-22.7	20.4	0.00e+00	0	42	0	1576009728	5	3828
2026-01-11 13:28:01.14	240.62	35.24	-22.3	-23.0	20.3	0.00e+00	0	42	0	1581252608	5	3896
2026-01-11 13:28:02.14	240.99	35.32	-22.5	-23.3	20.1	0.00e+00	0	43	0	1586495488	5	3979
2026-01-11 13:28:03.14	241.37	35.41	-22.4	-23.2	20.2	0.00e+00	0	42	0	1592786944	5	3955
2026-01-11 13:28:04.13	241.74	35.49	-22.5	-23.3	20.2	0.00e+00	0	42	0	1598029824	5	3975
2026-01-11 13:28:05.14	242.13	35.58	-22.5	-23.5	20.1	0.00e+00	0	42	0	1603272704	5	4011
2026-01-11 13:28:06.13	242.50	35.66	-22.4	-23.1	20.3	0.00e+00	0	42	0	1609564160	5	3921
2026-01-11 13:28:07.12	242.88	35.74	-22.2	-22.8	20.4	0.00e+00	0	42	0	1614807040	5	3845
2026-01-11 13:28:08.11	243.27	35.82	-22.1	-22.6	20.5	0.00e+00	0	42	0	1620049920	5	3806
2026-01-11 13:28:09.10	243.65	35.89	-22.3	-22.9	20.4	0.00e+00	0	42	0	1626341376	5	3872
2026-01-11 13:28:10.09	244.03	35.97	-22.3	-22.9	20.3	0.00e+00	0	42	0	1631584256	5	3882
2026-01-11 13:28:11.09	244.42	36.05	-22.6	-23.7	20.0	0.00e+00	0	42	0	1636827136	5	4056
2026-01-11 13:28:12.09	244.82	36.12	-22.4	-23.3	20.2	0.00e+00	0	42	0	1643118592	5	3965
2026-01-11 13:28:13.09	245.21	36.19	-22.2	-22.9	20.4	0.00e+00	0	42	0	1648361472	5	3863
2026-01-11 13:28:14.08	245.60	36.27	-22.2	-22.8	20.5	0.00e+00	0	43	0	1653604352	5	3851
2026-01-11 13:28:15.07	246.00	36.34	-22.6	-23.6	20.1	0.00e+00	0	43	0	1659895808	5	4035
2026-01-11 13:28:16.07	246.40	36.40	-22.5	-23.5	20.1	0.00e+00	0	42	0	1665138688	5	4005
2026-01-11 13:28:17.07	246.80	36.47	-22.7	-23.9	19.9	0.00e+00	0	42	0	1670381568	5	4113
2026-01-11 13:28:18.07	247.20	36.54	-22.4	-23.1	20.3	0.00e+00	0	43	0	1676673024	5	3929
2026-01-11 13:28:19.05	247.60	36.60	-22.1	-22.5	20.6	0.00e+00	0	42	0	1681915904	5	3790
2026-01-11 13:28:20.05	248.00	36.67	-22.1	-22.5	20.6	0.00e+00	0	42	0	1687158784	5	3786
2026-01-11 13:28:21.05	248.41	36.73	-22.4	-23.1	20.3	0.00e+00	0	42	0	1693450240	5	3914
2026-01-11 13:28:22.05	248.82	36.79	-22.4	-23.1	20.3	0.00e+00	0	42	0	1698693120	5	3920
2026-01-11 13:28:23.04	249.23	36.85	-22.8	-24.0	19.8	0.00e+00	0	42	0	1703936000	5	4136
2026-01-11 13:28:24.04	249.64	36.91	-22.6	-23.5	20.1	0.00e+00	0	42	0	1710227456	5	4020
2026-01-11 13:28:25.04	250.05	36.96	-22.4	-23.1	20.3	0.00e+00	0	42	0	1715470336	5	3925
2026-01-11 13:28:26.04	250.47	37.02	-22.2	-22.8	20.5	0.00e+00	0	42	0	1721761792	5	3839
2026-01-11 13:28:27.03	250.88	37.07	-22.3	-23.0	20.4	0.00e+00	0	42	0	1727004672	5	3884
2026-01-11 13:28:28.03	251.30	37.12	-22.5	-23.3	20.2	0.00e+00	0	42	0	1732247552	5	3963
2026-01-11 13:28:29.03	251.71	37.17	-22.6	-23.6	20.0	0.00e+00	0	42	0	1738539008	5	4049
2026-01-11 13:28:30.03	252.13	37.22	-22.5	-23.5	20.1	0.00e+00	0	42	0	1743781888	5	4001
2026-01-11 13:28:31.02	252.55	37.26	-22.5	-23.4	20.2	0.00e+00	0	42	0	1749024768	5	3981
2026-01-11 13:28:32.03	252.98	37.31	-22.6	-23.6	20.0	0.00e+00	0	42	0	1754267648	5	4050
2026-01-11 13:28:33.02	253.40	37.35	-22.5	-23.3	20.2	0.00e+00	0	42	0	1760559104	5	3977
2026-01-11 13:28:34.02	253.82	37.39	-22.4	-23.1	20.3	0.00e+00	0	42	0	1765801984	5	3922
2026-01-11 13:28:35.02	254.25	37.43	-22.5	-23.3	20.2	0.00e+00	0	42	0	1772093440	5	3977
2026-01-11 13:28:36.01	254.67	37.47	-22.2	-22.7	20.5	0.00e+00	0	42	0	1777336320	5	3822
2026-01-11 13:28:37.00	255.09	37.51	-22.3	-22.9	20.4	0.00e+00	0	42	0	1782579200	5	3862
2026-01-11 13:28:38.00	255.52	37.54	-21.9	-22.0	20.8	0.00e+00	0	42	0	1788870656	5	3671
2026-01-11 13:28:39.00	255.95	37.58	-21.9	-22.1	20.8	0.00e+00	0	42	0	1794113536	5	3683
2026-01-11 13:28:39.99	256.37	37.61	-22.1	-22.7	20.5	0.00e+00	0	42	0	1799356416	5	3823
2026-01-11 13:28:40.99	256.80	37.64	-22.2	-22.7	20.5	0.00e+00	0	42	0	1805647872	5	3834
2026-01-11 13:28:41.99	257.24	37.66	-22.0	-22.3	20.7	0.00e+00	0	42	0	1810890752	5	3744
2026-01-11 13:28:42.98	257.66	37.69	-21.9	-22.2	20.7	0.00e+00	0	42	0	1817182208	5	3711
2026-01-11 13:28:43.99	258.10	37.71	-22.3	-22.9	20.4	0.00e+00	0	42	0	1822425088	5	3866
2026-01-11 13:28:44.98	258.53	37.74	-22.4	-23.2	20.3	0.00e+00	0	42	0	1827667968	5	3937
2026-01-11 13:28:45.98	258.96	37.76	-22.6	-23.6	20.1	0.00e+00	0	42	0	1833959424	5	4038
2026-01-11 13:28:46.98	259.40	37.78	-22.3	-23.0	20.3	0.00e+00	0	42	0	1839202304	5	3897
2026-01-11 13:28:47.98	259.83	37.79	-22.2	-22.8	20.5	0.00e+00	0	43	0	1844445184	5	3841
2026-01-11 13:28:48.98	260.27	37.81	-22.3	-23.1	20.3	0.00e+00	0	42	0	1849688064	5	3905
2026-01-11 13:28:49.97	260.70	37.82	-22.3	-23.0	20.4	0.00e+00	0	42	0	1855979520	5	3887
2026-01-11 13:28:50.96	261.13	37.83	-22.3	-23.0	20.3	0.00e+00	0	42	0	1861222400	5	3898
2026-01-11 13:28:51.96	261.57	37.84	-22.3	-22.9	20.4	0.00e+00	0	42	0	1867513856	5	3874
2026-01-11 13:28:52.96	262.00	37.85	-22.3	-23.0	20.4	0.00e+00	0	42	0	1872756736	5	3893
2026-01-11 13:28:53.95	262.44	37.86	-22.3	-23.0	20.4	0.00e+00	0	43	0	1877999616	5	3887
2026-01-11 13:28:54.95	262.87	37.86	-22.2	-22.8	20.5	0.00e+00	0	42	0	1884291072	5	3840
2026-01-11 13:28:55.95	263.31	37.86	-22.5	-23.5	20.1	0.00e+00	0	42	0	1889533952	5	4005
2026-01-11 13:28:56.94	263.74	37.87	-22.3	-23.0	20.4	0.00e+00	0	42	0	1894776832	5	3901
2026-01-11 13:28:57.94	264.18	37.86	-22.4	-23.1	20.4	0.00e+00	0	42	0	1901068288	5	3912
2026-01-11 13:28:58.94	264.62	37.86	-22.4	-23.2	20.3	0.00e+00	0	42	0	1906311168	5	3934
2026-01-11 13:28:59.93	265.05	37.86	-22.5	-23.5	20.1	0.00e+00	0	42	0	1911554048	5	4009
2026-01-11 13:29:00.92	265.48	37.85	-22.4	-23.2	20.2	0.00e+00	0	42	0	1917845504	5	3943
2026-01-11 13:29:01.91	265.91	37.84	-22.5	-23.4	20.2	0.00e+00	0	43	0	1923088384	5	3984
2026-01-11 13:29:02.90	266.35	37.83	-22.3	-22.9	20.4	0.00e+00	0	42	0	1928331264	5	3879
2026-01-11 13:29:03.90	266.78	37.82	-22.7	-23.7	20.0	0.00e+00	0	42	0	1934622720	5	4069
2026-01-11 13:29:04.90	267.22	37.81	-22.6	-23.6	20.1	0.00e+00	0	42	0	1939865600	5	4032
2026-01-11 13:29:05.89	267.65	37.79	-22.4	-23.2	20.3	0.00e+00	0	42	0	1945108480	5	3936
2026-01-11 13:29:06.89	268.08	37.77	-22.2	-22.9	20.5	0.00e+00	0	42	0	1951399936	5	3862
2026-01-11 13:29:07.88	268.51	37.75	-22.2	-22.7	20.5	0.00e+00	0	42	0	1956642816	5	3825
2026-01-11 13:29:08.89	268.95	37.73	-22.2	-22.8	20.5	0.00e+00	0	42	0	1961885696	5	3855
2026-01-11 13:29:09.88	269.38	37.71	-22.0	-22.4	20.7	0.00e+00	0	42	0	1968177152	5	3748
2026-01-11 13:29:10.87	269.81	37.69	-22.0	-22.4	20.6	0.00e+00	0	42	0	1973420032	5	3757
2026-01-11 13:29:11.87	270.24	37.66	-22.2	-22.8	20.5	0.00e+00	0	42	0	1978662912	5	3837
2026-01-11 13:29:12.87	270.67	37.63	-22.0	-22.4	20.6	0.00e+00	0	42	0	1984954368	5	3766
2026-01-11 13:29:13.86	271.09	37.60	-22.0	-22.3	20.7	0.00e+00	0	42	0	1990197248	5	3735
2026-01-11 13:29:14.86	271.52	37.57	-22.0	-22.4	20.7	0.00e+00	0	42	0	1995440128	5	3753
2026-01-11 13:29:15.85	271.95	37.54	-22.1	-22.6	20.6	0.00e+00	0	42	0	2001731584	5	3804
2026-01-11 13:29:16.85	272.38	37.50	-22.2	-22.8	20.5	0.00e+00	0	42	0	2006974464	5	3849
2026-01-11 13:29:17.85	272.80	37.47	-22.2	-22.8	20.5	0.00e+00	0	42	0	2012217344	5	3848
2026-01-11 13:29:18.85	273.23	37.43	-22.2	-22.8	20.5	0.00e+00	0	42	0	2018508800	5	3856
2026-01-11 13:29:19.84	273.65	37.39	-22.4	-23.2	20.3	0.00e+00	0	43	0	2023751680	5	3931
2026-01-11 13:29:20.83	274.07	37.35	-22.3	-23.0	20.4	1.10e-06	0	42	0	2030043136	5	3892
2026-01-11 13:29:21.84	274.50	37.30	-22.3	-22.9	20.4	0.00e+00	0	42	0	2035286016	5	3883
2026-01-11 13:29:22.83	274.91	37.26	-22.3	-23.0	20.3	0.00e+00	0	42	0	2040528896	5	3890
2026-01-11 13:29:23.83	275.33	37.21	-22.1	-22.6	20.6	0.00e+00	0	42	0	2045771776	5	3796
2026-01-11 13:29:24.83	275.75	37.16	-22.1	-22.6	20.5	0.00e+00	0	42	0	2052063232	5	3804
2026-01-11 13:29:25.82	276.17	37.11	-22.4	-23.2	20.2	0.00e+00	0	42	0	2057306112	5	3940
2026-01-11 13:29:26.82	276.58	37.06	-22.3	-23.0	20.3	0.00e+00	0	42	0	2062548992	5	3906
2026-01-11 13:29:27.82	277.00	37.01	-22.3	-22.9	20.4	0.00e+00	0	43	0	2068840448	5	3885
2026-01-11 13:29:28.81	277.41	36.95	-22.4	-23.1	20.3	0.00e+00	0	42	0	2074083328	5	3932
2026-01-11 13:29:29.80	277.82	36.90	-22.2	-22.9	20.4	0.00e+00	0	43	0	2080374784	5	3865
2026-01-11 13:29:30.79	278.22	36.84	-22.2	-22.8	20.4	0.00e+00	0	43	0	2085617664	5	3858
2026-01-11 13:29:31.79	278.63	36.78	-22.4	-23.2	20.2	0.00e+00	0	42	0	2090860544	5	3950
2026-01-11 13:29:32.79	279.04	36.72	-22.8	-24.0	19.9	0.00e+00	0	42	0	2097152000	5	4132
2026-01-11 13:29:33.79	279.45	36.66	-22.8	-23.9	19.9	0.00e+00	0	42	0	2102394880	5	4118
2026-01-11 13:29:34.78	279.85	36.60	-22.8	-24.0	19.8	0.00e+00	0	42	0	2107637760	5	4138
2026-01-11 13:29:35.77	280.25	36.53	-22.9	-24.2	19.8	0.00e+00	0	42	0	2112880640	5	4182
2026-01-11 13:29:36.78	280.65	36.47	-23.0	-23.8	19.7	0.00e+00	0	42	0	2119172096	6	3984
2026-01-11 13:29:37.78	281.05	36.40	-22.9	-23.6	19.8	0.00e+00	0	42	0	2124414976	6	3926
2026-01-11 13:29:38.77	281.45	36.33	-22.9	-23.8	19.7	0.00e+00	0	43	0	2130706432	6	3973
2026-01-11 13:29:39.77	281.84	36.26	-23.0	-24.0	19.6	0.00e+00	0	42	0	2135949312	6	4017
2026-01-11 13:29:40.77	282.24	36.19	-22.9	-23.7	19.7	0.00e+00	0	42	0	2141192192	6	3959
2026-01-11 13:29:41.76	282.63	36.11	-22.8	-23.6	19.8	0.00e+00	0	42	0	2147483648	6	3928
2026-01-11 13:29:42.76	283.02	36.04	-22.9	-23.7	19.8	0.00e+00	0	43	0	2152726528	6	3956
2026-01-11 13:29:43.75	283.41	35.96	-23.2	-24.4	19.4	0.00e+00	0	43	0	2157969408	6	4130
2026-01-11 13:29:44.75	283.79	35.89	-22.8	-23.5	19.8	0.00e+00	0	42	0	2164260864	6	3906
2026-01-11 13:29:45.75	284.18	35.81	-22.9	-23.8	19.7	0.00e+00	0	42	0	2169503744	6	3975
2026-01-11 13:29:46.74	284.56	35.73	-22.7	-23.2	20.0	0.00e+00	0	42	0	2174746624	6	3845
2026-01-11 13:29:47.73	284.94	35.65	-22.4	-22.7	20.3	0.00e+00	0	42	0	2181038080	6	3716
2026-01-11 13:29:48.73	285.32	35.57	-22.3	-22.5	20.4	0.00e+00	0	43	0	2186280960	6	3688
2026-01-11 13:29:49.72	285.70	35.49	-22.3	-22.4	20.4	0.00e+00	0	42	0	2191523840	6	3658
2026-01-11 13:29:50.71	286.07	35.40	-22.4	-22.6	20.3	0.00e+00	0	43	0	2197815296	6	3706
2026-01-11 13:29:51.71	286.44	35.32	-22.4	-22.6	20.3	0.00e+00	0	43	0	2203058176	6	3697
2026-01-11 13:29:52.70	286.81	35.23	-22.5	-22.9	20.2	0.00e+00	0	43	0	2208301056	6	3767
2026-01-11 13:29:53.69	287.18	35.14	-22.7	-23.3	20.0	0.00e+00	0	42	0	2214592512	6	3853
2026-01-11 13:29:54.69	287.55	35.06	-22.7	-23.2	20.0	0.00e+00	0	42	0	2219835392	6	3840
2026-01-11 13:29:55.69	287.92	34.97	-22.6	-23.1	20.0	0.00e+00	0	42	0	2225078272	6	3810
2026-01-11 13:29:56.69	288.28	34.88	-22.7	-23.2	20.0	0.00e+00	0	43	0	2231369728	6	3833
2026-01-11 13:29:57.69	288.64	34.78	-22.7	-23.2	20.0	0.00e+00	0	42	0	2236612608	6	3839
2026-01-11 13:29:58.69	289.00	34.69	-22.8	-23.6	19.8	0.00e+00	0	43	0	2242904064	6	3917
2026-01-11 13:29:59.69	289.36	34.60	-23.2	-24.3	19.4	0.00e+00	0	43	0	2248146944	6	4106
2026-01-11 13:30:00.68	289.72	34.50	-23.1	-24.2	19.5	0.00e+00	0	43	0	2253389824	6	4062
2026-01-11 13:30:01.68	290.07	34.41	-22.9	-23.8	19.7	0.00e+00	0	43	0	2259681280	6	3983
2026-01-11 13:30:02.68	290.42	34.31	-22.7	-23.2	20.0	0.00e+00	0	43	0	2264924160	6	3841
2026-01-11 13:30:03.68	290.78	34.22	-22.7	-23.3	19.9	0.00e+00	0	43	0	2270167040	6	3857
2026-01-11 13:30:04.67	291.12	34.12	-22.9	-23.7	19.7	0.00e+00	0	43	0	2276458496	6	3953
2026-01-11 13:30:05.67	291.47	34.02	-22.9	-23.7	19.8	0.00e+00	0	42	0	2281701376	6	3949
2026-01-11 13:30:06.66	291.81	33.92	-22.6	-23.2	20.0	0.00e+00	0	43	0	2286944256	6	3827
2026-01-11 13:30:07.67	292.15	33.82	-22.6	-23.2	20.0	0.00e+00	0	43	0	2293235712	6	3831
2026-01-11 13:30:08.67	292.50	33.72	-22.7	-23.4	19.9	0.00e+00	0	42	0	2298478592	6	3877
2026-01-11 13:30:09.67	292.83	33.62	-22.9	-23.6	19.8	0.00e+00	0	42	0	2303721472	6	3941
2026-01-11 13:30:10.66	293.17	33.51	-22.9	-23.7	19.7	0.00e+00	0	43	0	2310012928	6	3958
2026-01-11 13:30:11.66	293.50	33.41	-22.9	-23.7	19.8	0.00e+00	0	42	0	2315255808	6	3941
2026-01-11 13:30:12.66	293.83	33.31	-23.0	-23.9	19.7	0.00e+00	0	43	0	2320498688	6	3988
2026-01-11 13:30:13.67	294.17	33.20	-22.9	-23.6	19.8	0.00e+00	0	42	0	2326790144	6	3930
2026-01-11 13:30:14.66	294.49	33.10	-22.7	-23.2	20.0	0.00e+00	0	43	0	2332033024	6	3842
2026-01-11 13:30:15.65	294.81	32.99	-22.7	-23.3	20.0	0.00e+00	0	42	0	2338324480	6	3853
2026-01-11 13:30:16.65	295.14	32.88	-22.8	-23.6	19.8	0.00e+00	0	43	0	2343567360	6	3924
2026-01-11 13:30:17.65	295.46	32.78	-23.0	-23.9	19.7	0.00e+00	0	43	0	2348810240	6	3999
2026-01-11 13:30:18.65	295.78	32.67	-23.0	-24.0	19.7	0.00e+00	0	43	0	2355101696	6	4019
2026-01-11 13:30:19.64	296.09	32.56	-22.9	-23.8	19.7	0.00e+00	0	42	0	2360344576	6	3972
2026-01-11 13:30:20.63	296.40	32.45	-23.3	-24.5	19.4	0.00e+00	0	42	0	2365587456	6	4141
2026-01-11 13:30:21.64	296.72	32.34	-22.8	-23.4	19.9	0.00e+00	0	42	0	2371878912	6	3889
2026-01-11 13:30:22.63	297.03	32.23	-22.6	-23.2	20.0	0.00e+00	0	43	0	2377121792	6	3823
2026-01-11 13:30:23.63	297.34	32.12	-22.5	-23.0	20.1	0.00e+00	0	42	0	2382364672	6	3775
2026-01-11 13:30:24.62	297.64	32.01	-22.6	-23.0	20.1	0.00e+00	0	42	0	2388656128	6	3794
2026-01-11 13:30:25.61	297.94	31.90	-22.7	-23.3	19.9	0.00e+00	0	42	0	2393899008	6	3861
2026-01-11 13:30:26.60	298.24	31.79	-22.9	-23.8	19.7	0.00e+00	0	42	0	2399141888	6	3979
2026-01-11 13:30:27.60	298.54	31.68	-23.0	-24.0	19.6	0.00e+00	0	43	0	2405433344	6	4019
2026-01-11 13:30:28.59	298.84	31.57	-23.0	-23.9	19.6	0.00e+00	0	43	0	2410676224	6	4001
2026-01-11 13:30:29.58	299.13	31.46	-22.8	-23.6	19.8	0.00e+00	0	43	0	2415919104	6	3931
2026-01-11 13:30:30.58	299.43	31.34	-23.0	-23.9	19.6	0.00e+00	0	43	0	2422210560	6	3993
2026-01-11 13:30:31.57	299.72	31.23	-23.1	-24.2	19.5	0.00e+00	0	42	0	2427453440	6	4065
2026-01-11 13:30:32.57	300.01	31.12	-23.1	-24.1	19.5	0.00e+00	0	42	0	2432696320	6	4039
2026-01-11 13:30:33.56	300.29	31.00	-23.1	-24.1	19.5	0.00e+00	0	43	0	2438987776	6	4053
2026-01-11 13:30:34.57	300.58	30.89	-23.1	-24.1	19.5	0.00e+00	0	42	0	2444230656	6	4059
2026-01-11 13:30:35.57	300.87	30.77	-23.2	-24.4	19.4	0.00e+00	0	42	0	2450522112	6	4118
2026-01-11 13:30:36.57	301.15	30.66	-23.0	-24.0	19.6	0.00e+00	0	42	0	2455764992	6	4029
2026-01-11 13:30:37.56	301.43	30.54	-22.8	-23.6	19.8	0.00e+00	0	42	0	2461007872	6	3919
2026-01-11 13:30:38.57	301.71	30.42	-22.8	-23.4	19.8	0.00e+00	0	42	0	2467299328	6	3892
2026-01-11 13:30:39.56	301.98	30.31	-22.8	-23.4	19.9	0.00e+00	0	43	0	2472542208	6	3882
2026-01-11 13:30:40.56	302.26	30.19	-22.7	-23.3	19.9	0.00e+00	0	42	0	2477785088	6	3863
2026-01-11 13:30:41.56	302.53	30.08	-22.8	-23.5	19.8	0.00e+00	0	42	0	2483027968	6	3910
2026-01-11 13:30:42.55	302.80	29.96	-22.9	-23.7	19.7	0.00e+00	0	42	0	2489319424	6	3965
2026-01-11 13:30:43.55	303.07	29.84	-23.2	-24.2	19.5	0.00e+00	0	43	0	2494562304	6	4079
2026-01-11 13:30:44.55	303.34	29.73	-23.1	-24.0	19.6	0.00e+00	0	42	0	2500853760	6	4033
2026-01-11 13:30:45.54	303.60	29.61	-23.1	-24.1	19.5	0.00e+00	0	42	0	2506096640	6	4053
2026-01-11 13:30:46.54	303.86	29.49	-23.2	-24.3	19.4	0.00e+00	0	43	0	2511339520	6	4092
2026-01-11 13:30:47.54	304.12	29.37	-23.3	-24.5	19.3	0.00e+00	0	42	0	2517630976	6	4159
2026-01-11 13:30:48.55	304.39	29.25	-23.3	-24.6	19.2	0.00e+00	0	43	0	2522873856	6	4181
2026-01-11 13:30:49.54	304.64	29.14	-23.3	-24.6	19.2	0.00e+00	0	42	0	2528116736	6	4183
2026-01-11 13:30:50.54	304.90	29.02	-23.3	-24.6	19.2	0.00e+00	0	42	0	2534408192	6	4175
2026-01-11 13:30:51.54	305.15	28.90	-23.4	-24.9	19.1	0.00e+00	0	43	0	2539651072	6	4239
2026-01-11 13:30:52.54	305.40	28.78	-23.8	-25.1	18.7	0.00e+00	0	42	0	2544893952	7	4186
2026-01-11 13:30:53.54	305.65	28.66	-23.7	-25.0	18.8	0.00e+00	0	42	0	2551185408	7	4142
2026-01-11 13:30:54.54	305.90	28.55	-23.5	-24.5	19.0	0.00e+00	0	42	0	2556428288	7	4019
2026-01-11 13:30:55.53	306.15	28.43	-23.6	-24.7	18.9	0.00e+00	0	43	0	2562719744	7	4086
2026-01-11 13:30:56.54	306.39	28.31	-23.8	-25.1	18.8	0.00e+00	0	42	0	2567962624	7	4180
2026-01-11 13:30:57.54	306.64	28.19	-23.9	-25.3	18.6	0.00e+00	0	43	0	2573205504	7	4249
2026-01-11 13:30:58.54	306.88	28.07	-23.9	-25.4	18.5	0.00e+00	0	42	0	2579496960	7	4271
2026-01-11 13:30:59.53	307.11	27.95	-24.0	-25.0	18.5	0.00e+00	0	42	0	2584739840	8	4056
2026-01-11 13:31:00.52	307.35	27.84	-23.7	-24.4	18.8	0.00e+00	0	42	0	2589982720	8	3909
2026-01-11 13:31:01.53	307.59	27.72	-23.4	-23.7	19.2	0.00e+00	0	42	0	2596274176	8	3727
2026-01-11 13:31:02.52	307.82	27.60	-23.1	-23.7	19.4	0.00e+00	0	42	0	2601517056	7	3834
2026-01-11 13:31:03.51	308.05	27.48	-23.1	-23.6	19.5	0.00e+00	0	42	0	2606759936	7	3814
2026-01-11 13:31:04.51	308.28	27.36	-23.1	-23.7	19.4	0.00e+00	0	42	0	2613051392	7	3836
2026-01-11 13:31:05.51	308.51	27.24	-23.1	-23.7	19.4	0.00e+00	0	43	0	2618294272	7	3845
2026-01-11 13:31:06.51	308.74	27.13	-23.2	-23.9	19.3	0.00e+00	0	43	0	2623537152	7	3880
2026-01-11 13:31:07.51	308.97	27.01	-23.2	-23.9	19.3	0.00e+00	0	42	0	2629828608	7	3905
2026-01-11 13:31:08.50	309.19	26.89	-23.3	-24.0	19.2	0.00e+00	0	42	0	2635071488	7	3929
2026-01-11 13:31:09.50	309.41	26.77	-23.2	-23.9	19.3	0.00e+00	0	42	0	2640314368	7	3905
2026-01-11 13:31:10.49	309.63	26.65	-23.2	-23.9	19.3	0.00e+00	0	42	0	2646605824	7	3889
2026-01-11 13:31:11.50	309.85	26.53	-23.1	-23.7	19.4	0.00e+00	0	42	0	2651848704	7	3846
2026-01-11 13:31:12.49	310.07	26.42	-22.8	-23.1	19.7	0.00e+00	0	42	0	2657091584	7	3708
2026-01-11 13:31:13.50	310.29	26.30	-22.8	-23.5	19.7	0.00e+00	0	42	0	2663383040	6	3901
2026-01-11 13:31:14.49	310.50	26.18	-22.8	-23.5	19.7	0.00e+00	0	43	0	2668625920	6	3895
2026-01-11 13:31:15.49	310.71	26.06	-22.9	-23.7	19.7	0.00e+00	0	42	0	2674917376	6	3949
2026-01-11 13:31:16.48	310.92	25.95	-23.0	-23.8	19.6	0.00e+00	0	43	0	2680160256	6	3980
2026-01-11 13:31:17.48	311.13	25.83	-23.0	-23.8	19.6	0.00e+00	0	42	0	2685403136	6	3990
2026-01-11 13:31:18.47	311.34	25.71	-23.1	-24.1	19.4	0.00e+00	0	42	0	2691694592	6	4043
2026-01-11 13:31:19.47	311.55	25.60	-23.1	-24.2	19.4	0.00e+00	0	42	0	2696937472	6	4073
2026-01-11 13:31:20.46	311.75	25.48	-23.2	-24.3	19.3	0.00e+00	0	42	0	2702180352	6	4100
2026-01-11 13:31:21.45	311.95	25.36	-23.2	-24.4	19.3	0.00e+00	0	42	0	2707423232	6	4117
2026-01-11 13:31:22.45	312.15	25.25	-23.2	-24.4	19.2	0.00e+00	0	42	0	2713714688	6	4136
2026-01-11 13:31:23.45	312.36	25.13	-23.3	-24.5	19.2	0.00e+00	0	42	0	2718957568	6	4146
2026-01-11 13:31:24.44	312.55	25.01	-23.3	-24.5	19.2	0.00e+00	0	42	0	2725249024	6	4153
2026-01-11 13:31:25.43	312.75	24.90	-23.2	-24.2	19.3	0.00e+00	0	42	0	2730491904	6	4080
2026-01-11 13:31:26.43	312.95	24.78	-23.1	-24.1	19.4	0.00e+00	0	43	0	2735734784	6	4044
2026-01-11 13:31:27.42	313.14	24.67	-23.1	-24.2	19.3	0.00e+00	0	43	0	2742026240	6	4074
2026-01-11 13:31:28.42	313.34	24.55	-23.2	-24.3	19.3	0.00e+00	0	42	0	2747269120	6	4091
2026-01-11 13:31:29.43	313.53	24.44	-23.3	-24.5	19.2	0.00e+00	0	42	0	2752512000	6	4142
2026-01-11 13:31:30.42	313.72	24.32	-23.4	-24.7	19.1	0.00e+00	0	43	0	2758803456	6	4198
2026-01-11 13:31:31.42	313.91	24.21	-23.4	-24.9	19.0	0.00e+00	0	43	0	2764046336	6	4249
2026-01-11 13:31:32.41	314.10	24.09	-23.6	-24.7	18.8	0.00e+00	0	43	0	2769289216	7	4081
2026-01-11 13:31:33.41	314.28	23.98	-23.7	-24.8	18.7	0.00e+00	0	42	0	2775580672	7	4126
2026-01-11 13:31:34.41	314.47	23.86	-23.7	-24.8	18.8	0.00e+00	0	42	0	2780823552	7	4124
2026-01-11 13:31:35.40	314.65	23.75	-23.7	-25.0	18.7	0.00e+00	0	43	0	2786066432	7	4159
2026-01-11 13:31:36.40	314.84	23.63	-23.7	-25.0	18.7	0.00e+00	0	42	0	2792357888	7	4160
2026-01-11 13:31:37.40	315.02	23.52	-23.7	-24.9	18.7	0.00e+00	0	43	0	2797600768	7	4133
2026-01-11 13:31:38.40	315.20	23.41	-23.7	-24.9	18.7	0.00e+00	0	43	0	2802843648	7	4140
2026-01-11 13:31:39.40	315.38	23.29	-23.6	-24.8	18.8	0.00e+00	0	42	0	2809135104	7	4107
2026-01-11 13:31:40.39	315.56	23.18	-23.7	-24.8	18.8	0.00e+00	0	43	0	2814377984	7	4116
2026-01-11 13:31:41.38	315.73	23.07	-23.7	-25.0	18.7	0.00e+00	0	43	0	2820669440	7	4162
2026-01-11 13:31:42.38	315.91	22.95	-23.9	-25.3	18.5	0.00e+00	0	42	0	2825912320	7	4222
2026-01-11 13:31:43.36	316.08	22.84	-23.7	-25.0	18.7	0.00e+00	0	42	0	2831155200	7	4146
2026-01-11 13:31:44.36	316.25	22.73	-23.7	-24.9	18.7	0.00e+00	0	43	0	2836398080	7	4137
2026-01-11 13:31:45.36	316.42	22.62	-23.9	-25.4	18.5	0.00e+00	0	42	0	2842689536	7	4252
2026-01-11 13:31:46.35	316.59	22.51	-24.1	-25.2	18.3	0.00e+00	0	42	0	2847932416	8	4088
2026-01-11 13:31:47.35	316.76	22.40	-23.9	-24.9	18.5	0.00e+00	0	43	0	2853175296	8	4015
2026-01-11 13:31:48.34	316.93	22.29	-23.9	-24.8	18.5	0.00e+00	0	43	0	2859466752	8	3999
2026-01-11 13:31:49.33	317.10	22.17	-23.9	-24.8	18.5	0.00e+00	0	43	0	2864709632	8	3998
2026-01-11 13:31:50.32	317.26	22.06	-23.9	-24.9	18.5	0.00e+00	0	43	0	2871001088	8	4014
2026-01-11 13:31:51.32	317.43	21.95	-23.9	-24.9	18.5	0.00e+00	0	43	0	2876243968	8	4014
2026-01-11 13:31:52.32	317.59	21.84	-23.9	-24.8	18.5	0.00e+00	0	43	0	2881486848	8	4004
2026-01-11 13:31:53.32	317.75	21.73	-23.9	-24.8	18.5	0.00e+00	0	43	0	2886729728	8	3999
2026-01-11 13:31:54.32	317.91	21.62	-23.9	-24.8	18.5	0.00e+00	0	43	0	2893021184	8	3999
2026-01-11 13:31:55.32	318.08	21.51	-23.8	-24.6	18.6	0.00e+00	0	43	0	2898264064	8	3959
2026-01-11 13:31:56.31	318.23	21.40	-23.9	-24.8	18.5	0.00e+00	0	42	0	2903506944	8	4008
2026-01-11 13:31:57.31	318.39	21.30	-23.9	-24.8	18.5	0.00e+00	0	43	0	2909798400	8	4002
2026-01-11 13:31:58.31	318.55	21.19	-23.9	-24.9	18.5	0.00e+00	0	43	0	2915041280	8	4023
2026-01-11 13:31:59.31	318.71	21.08	-24.0	-25.0	18.4	0.00e+00	0	43	0	2921332736	8	4053
2026-01-11 13:32:00.31	318.86	20.97	-24.0	-25.1	18.3	0.00e+00	0	42	0	2926575616	8	4074
2026-01-11 13:32:01.30	319.01	20.86	-24.1	-25.3	18.2	0.00e+00	0	43	0	2931818496	8	4127
2026-01-11 13:32:02.29	319.17	20.75	-24.2	-25.4	18.2	0.00e+00	0	43	0	2938109952	8	4138
2026-01-11 13:32:03.29	319.32	20.65	-24.4	-25.8	18.0	0.00e+00	0	42	0	2943352832	8	4252
2026-01-11 13:32:04.29	319.47	20.54	-24.5	-25.6	17.8	0.00e+00	0	43	0	2948595712	9	4077
2026-01-11 13:32:05.28	319.62	20.43	-24.5	-25.5	17.9	0.00e+00	0	43	0	2954887168	9	4059
2026-01-11 13:32:06.28	319.77	20.33	-24.5	-25.6	17.9	0.00e+00	0	43	0	2960130048	9	4083
2026-01-11 13:32:07.28	319.91	20.22	-24.5	-25.7	17.8	0.00e+00	0	43	0	2965372928	9	4104
2026-01-11 13:32:08.28	320.06	20.11	-24.6	-25.8	17.7	0.00e+00	0	43	0	2971664384	9	4140
2026-01-11 13:32:09.28	320.21	20.01	-24.7	-26.0	17.6	0.00e+00	0	43	0	2976907264	9	4199
2026-01-11 13:32:10.27	320.35	19.90	-24.9	-26.4	17.4	0.00e+00	0	42	0	2982150144	9	4289
2026-01-11 13:32:11.27	320.50	19.80	-24.7	-26.1	17.6	0.00e+00	0	43	0	2988441600	9	4210
2026-01-11 13:32:12.28	320.64	19.69	-24.7	-26.1	17.5	0.00e+00	0	42	0	2993684480	9	4221
2026-01-11 13:32:13.28	320.78	19.58	-24.7	-26.0	17.6	0.00e+00	0	43	0	2999975936	9	4184
2026-01-11 13:32:14.28	320.92	19.48	-24.8	-26.3	17.5	0.00e+00	0	43	0	3005218816	9	4260
2026-01-11 13:32:15.28	321.06	19.38	-24.8	-26.4	17.4	0.00e+00	0	43	0	3010461696	9	4284
2026-01-11 13:32:16.28	321.20	19.27	-24.9	-26.4	17.4	0.00e+00	0	43	0	3016753152	9	4306
2026-01-11 13:32:17.28	321.34	19.17	-24.9	-26.4	17.4	0.00e+00	0	43	0	3021996032	9	4290
2026-01-11 13:32:18.28	321.48	19.06	-24.9	-26.5	17.3	0.00e+00	0	42	0	3027238912	9	4311
2026-01-11 13:32:19.28	321.62	18.96	-24.9	-26.5	17.3	0.00e+00	0	42	0	3033530368	9	4331
2026-01-11 13:32:20.28	321.75	18.86	-24.9	-26.4	17.4	0.00e+00	0	43	0	3038773248	9	4287
2026-01-11 13:32:21.28	321.89	18.75	-24.8	-26.4	17.4	0.00e+00	0	43	0	3045064704	9	4283
2026-01-11 13:32:22.27	322.02	18.65	-24.9	-26.5	17.3	0.00e+00	0	43	0	3050307584	9	4322
2026-01-11 13:32:23.27	322.15	18.55	-25.2	-26.6	17.0	0.00e+00	0	43	0	3055550464	10	4230
2026-01-11 13:32:24.27	322.29	18.45	-25.3	-26.9	16.9	0.00e+00	0	43	0	3061841920	10	4302
2026-01-11 13:32:25.27	322.42	18.35	-25.1	-26.4	17.1	0.00e+00	0	42	0	3067084800	10	4179
2026-01-11 13:32:26.27	322.55	18.25	-24.9	-26.0	17.3	0.00e+00	0	43	0	3072327680	10	4083
2026-01-11 13:32:27.27	322.68	18.14	-24.9	-26.0	17.3	0.00e+00	0	43	0	3077570560	10	4087
2026-01-11 13:32:28.27	322.81	18.04	-25.0	-26.1	17.2	0.00e+00	0	43	0	3083862016	10	4115
2026-01-11 13:32:29.27	322.93	17.94	-25.0	-26.1	17.2	0.00e+00	0	43	0	3089104896	10	4106
2026-01-11 13:32:30.26	323.06	17.84	-24.9	-26.0	17.3	0.00e+00	0	42	0	3095396352	10	4087
2026-01-11 13:32:31.25	323.19	17.74	-24.9	-26.1	17.2	0.00e+00	0	43	0	3100639232	10	4101
2026-01-11 13:32:32.26	323.31	17.64	-25.0	-26.2	17.2	0.00e+00	0	43	0	3105882112	10	4140
2026-01-11 13:32:33.26	323.44	17.54	-25.1	-26.3	17.1	0.00e+00	0	43	0	3112173568	10	4168
2026-01-11 13:32:34.26	323.56	17.45	-24.9	-26.0	17.3	0.00e+00	0	43	0	3117416448	10	4078
2026-01-11 13:32:35.25	323.68	17.35	-25.0	-26.1	17.2	0.00e+00	0	43	0	3122659328	10	4096
2026-01-11 13:32:36.25	323.81	17.25	-25.0	-26.2	17.2	0.00e+00	0	43	0	3128950784	10	4132
2026-01-11 13:32:37.25	323.93	17.15	-24.9	-26.0	17.3	0.00e+00	0	43	0	3134193664	10	4085
2026-01-11 13:32:38.25	324.05	17.05	-25.0	-26.2	17.2	0.00e+00	0	43	0	3139436544	10	4134
2026-01-11 13:32:39.25	324.17	16.95	-25.0	-26.1	17.2	0.00e+00	0	43	0	3145728000	10	4111
2026-01-11 13:32:40.24	324.29	16.86	-25.0	-26.1	17.2	0.00e+00	0	43	0	3150970880	10	4109
2026-01-11 13:32:41.24	324.41	16.76	-25.0	-26.1	17.2	0.00e+00	0	43	0	3157262336	10	4097
2026-01-11 13:32:42.23	324.52	16.66	-25.1	-26.5	17.0	0.00e+00	0	43	0	3162505216	10	4195
2026-01-11 13:32:43.23	324.64	16.57	-25.3	-26.9	16.8	0.00e+00	0	43	0	3167748096	10	4313
2026-01-11 13:32:44.24	324.76	16.47	-25.1	-26.5	17.0	0.00e+00	0	43	0	3174039552	10	4205
2026-01-11 13:32:45.23	324.87	16.38	-25.2	-26.7	16.8	0.00e+00	0	42	0	3179282432	10	4254
2026-01-11 13:32:46.23	324.99	16.28	-25.3	-26.8	16.8	0.00e+00	0	43	0	3184525312	10	4298
2026-01-11 13:32:47.23	325.10	16.18	-25.3	-26.7	16.8	0.00e+00	0	43	0	3190816768	10	4267
2026-01-11 13:32:48.23	325.22	16.09	-25.2	-26.6	16.9	0.00e+00	0	43	0	3196059648	10	4244
2026-01-11 13:32:49.23	325.33	15.99	-25.3	-26.8	16.8	0.00e+00	0	42	0	3201302528	10	4291
2026-01-11 13:32:50.22	325.44	15.90	-25.4	-27.1	16.6	0.00e+00	0	43	0	3207593984	10	4355
2026-01-11 13:32:51.22	325.55	15.80	-25.4	-27.0	16.7	0.00e+00	0	43	0	3212836864	10	4349
2026-01-11 13:32:52.21	325.66	15.71	-25.5	-26.9	16.5	0.00e+00	0	42	0	3218079744	11	4202
2026-01-11 13:32:53.22	325.78	15.62	-25.8	-27.5	16.1	0.00e+00	0	43	0	3224371200	11	4372
2026-01-11 13:32:54.22	325.89	15.52	-25.5	-26.8	16.5	0.00e+00	0	43	0	3229614080	11	4189
2026-01-11 13:32:55.22	325.99	15.43	-25.4	-26.6	16.6	0.00e+00	0	43	0	3235905536	11	4129
2026-01-11 13:32:56.22	326.10	15.34	-25.3	-26.3	16.8	0.00e+00	0	43	0	3241148416	11	4039
2026-01-11 13:32:57.21	326.21	15.24	-25.3	-26.3	16.8	0.00e+00	0	43	0	3246391296	11	4050
2026-01-11 13:32:58.21	326.32	15.15	-25.3	-26.4	16.7	0.00e+00	0	43	0	3251634176	11	4078
2026-01-11 13:32:59.21	326.42	15.06	-25.6	-26.9	16.4	0.00e+00	0	43	0	3257925632	11	4209
2026-01-11 13:33:00.20	326.53	14.97	-25.4	-26.5	16.6	0.00e+00	0	43	0	3263168512	11	4097
2026-01-11 13:33:01.20	326.63	14.88	-25.3	-26.3	16.7	0.00e+00	0	43	0	3269459968	11	4056
2026-01-11 13:33:02.19	326.74	14.79	-25.3	-26.4	16.6	0.00e+00	0	43	0	3274702848	11	4081
2026-01-11 13:33:03.19	326.84	14.69	-25.4	-26.6	16.6	0.00e+00	0	43	0	3279945728	11	4123
2026-01-11 13:33:04.19	326.94	14.60	-25.5	-26.7	16.5	0.00e+00	0	43	0	3286237184	11	4150
2026-01-11 13:33:05.18	327.05	14.51	-25.6	-27.0	16.4	0.00e+00	0	43	0	3291480064	11	4215
2026-01-11 13:33:06.18	327.15	14.42	-25.5	-26.9	16.4	0.00e+00	0	42	0	3296722944	11	4202
2026-01-11 13:33:07.17	327.25	14.33	-25.6	-27.0	16.3	0.00e+00	0	43	0	3303014400	11	4228
2026-01-11 13:33:08.17	327.35	14.24	-25.6	-26.9	16.3	0.00e+00	0	42	0	3308257280	11	4206
2026-01-11 13:33:09.16	327.45	14.15	-25.7	-27.2	16.2	0.00e+00	0	43	0	3313500160	11	4287
2026-01-11 13:33:10.16	327.55	14.06	-25.7	-27.2	16.2	0.00e+00	0	43	0	3319791616	11	4276
2026-01-11 13:33:11.15	327.65	13.98	-25.6	-27.1	16.2	0.00e+00	0	42	0	3325034496	11	4260
2026-01-11 13:33:12.15	327.75	13.89	-25.8	-27.5	16.0	0.00e+00	0	42	0	3330277376	11	4369
2026-01-11 13:33:13.15	327.85	13.80	-25.7	-27.3	16.1	0.00e+00	0	43	0	3336568832	11	4317
2026-01-11 13:33:14.14	327.94	13.71	-25.8	-27.5	16.1	0.00e+00	0	43	0	3341811712	11	4363
2026-01-11 13:33:15.14	328.04	13.62	-25.8	-27.5	16.0	0.00e+00	0	42	0	3347054592	11	4368
2026-01-11 13:33:16.13	328.14	13.54	-25.7	-27.2	16.2	0.00e+00	0	42	0	3353346048	11	4297
2026-01-11 13:33:17.13	328.23	13.45	-25.8	-27.4	16.1	0.00e+00	0	43	0	3358588928	11	4323
2026-01-11 13:33:18.14	328.33	13.36	-25.8	-27.5	16.0	0.00e+00	0	43	0	3364880384	11	4378
2026-01-11 13:33:19.14	328.42	13.27	-26.0	-27.8	15.8	0.00e+00	0	42	0	3370123264	11	4457
2026-01-11 13:33:20.13	328.52	13.19	-25.9	-27.1	15.9	0.00e+00	0	42	0	3375366144	12	4151
2026-01-11 13:33:21.12	328.61	13.10	-26.0	-27.5	15.6	0.00e+00	0	43	0	3381657600	12	4249
2026-01-11 13:33:22.12	328.70	13.01	-26.0	-27.4	15.7	0.00e+00	0	43	0	3386900480	12	4238
2026-01-11 13:33:23.12	328.80	12.93	-26.0	-27.4	15.7	0.00e+00	0	43	0	3392143360	12	4233
2026-01-11 13:33:24.11	328.89	12.84	-26.1	-27.6	15.5	0.00e+00	0	43	0	3397386240	12	4293
2026-01-11 13:33:25.11	328.98	12.76	-26.1	-27.6	15.6	0.00e+00	0	43	0	3403677696	12	4293
2026-01-11 13:33:26.10	329.07	12.67	-26.2	-27.8	15.5	0.00e+00	0	42	0	3408920576	12	4348
2026-01-11 13:33:27.10	329.16	12.59	-26.1	-27.6	15.5	0.00e+00	0	42	0	3415212032	12	4295
2026-01-11 13:33:28.09	329.25	12.50	-26.1	-27.7	15.5	0.00e+00	0	43	0	3420454912	12	4322
2026-01-11 13:33:29.09	329.34	12.42	-26.2	-27.9	15.4	0.00e+00	0	43	0	3425697792	12	4385
2026-01-11 13:33:30.09	329.43	12.33	-26.1	-27.7	15.5	0.00e+00	0	42	0	3431989248	12	4310
2026-01-11 13:33:31.09	329.52	12.25	-26.2	-27.9	15.3	0.00e+00	0	43	0	3437232128	12	4386
2026-01-11 13:33:32.09	329.61	12.16	-26.2	-27.9	15.4	0.00e+00	0	42	0	3442475008	12	4363
2026-01-11 13:33:33.10	329.70	12.08	-26.3	-28.1	15.3	0.00e+00	0	43	0	3448766464	12	4417
2026-01-11 13:33:34.09	329.78	12.00	-26.2	-27.9	15.4	0.00e+00	0	43	0	3454009344	12	4362
2026-01-11 13:33:35.08	329.87	11.91	-26.2	-27.9	15.4	0.00e+00	0	42	0	3459252224	12	4374
2026-01-11 13:33:36.08	329.95	11.83	-26.3	-28.0	15.3	0.00e+00	0	42	0	3465543680	12	4395
2026-01-11 13:33:37.07	330.04	11.75	-26.5	-28.1	14.9	0.00e+00	0	43	0	3470786560	13	4311
2026-01-11 13:33:38.07	330.13	11.66	-26.6	-28.2	14.9	0.00e+00	0	43	0	3477078016	13	4340
2026-01-11 13:33:39.07	330.21	11.58	-26.6	-28.4	14.8	1.10e-06	0	43	0	3482320896	13	4386
2026-01-11 13:33:40.07	330.30	11.50	-26.6	-28.2	14.9	0.00e+00	0	43	0	3487563776	13	4347
2026-01-11 13:33:41.07	330.38	11.42	-26.5	-28.1	14.9	0.00e+00	0	42	0	3493855232	13	4322
2026-01-11 13:33:42.06	330.46	11.34	-26.6	-28.3	14.8	0.00e+00	0	43	0	3499098112	13	4382
2026-01-11 13:33:43.06	330.55	11.25	-26.6	-28.2	14.8	0.00e+00	0	43	0	3504340992	13	4355
2026-01-11 13:33:44.06	330.63	11.17	-27.0	-28.7	14.3	0.00e+00	0	43	0	3509583872	14	4377
2026-01-11 13:33:45.06	330.71	11.09	-26.7	-28.0	14.7	0.00e+00	0	43	0	3515875328	14	4183
2026-01-11 13:33:46.06	330.79	11.01	-26.5	-27.5	15.0	0.00e+00	0	43	0	3521118208	14	4060
2026-01-11 13:33:47.06	330.88	10.93	-26.3	-27.1	15.2	1.10e-06	0	42	0	3527409664	14	3944
2026-01-11 13:33:48.05	330.96	10.85	-26.3	-27.6	15.2	0.00e+00	0	43	0	3532652544	13	4168
2026-01-11 13:33:49.04	331.04	10.77	-26.4	-27.7	15.1	1.10e-06	0	43	0	3537895424	13	4205
2026-01-11 13:33:50.03	331.12	10.69	-26.5	-28.0	15.0	0.00e+00	0	43	0	3544186880	13	4274
2026-01-11 13:33:51.03	331.20	10.61	-26.3	-27.6	15.2	1.10e-06	0	43	0	3549429760	13	4184
2026-01-11 13:33:52.02	331.27	10.53	-26.4	-27.8	15.0	0.00e+00	0	43	0	3554672640	13	4238
2026-01-11 13:33:53.02	331.35	10.45	-26.4	-27.8	15.0	0.00e+00	0	43	0	3560964096	13	4248
2026-01-11 13:33:54.02	331.43	10.37	-26.5	-28.0	15.0	0.00e+00	0	43	0	3566206976	13	4281
2026-01-11 13:33:55.02	331.51	10.29	-26.7	-28.5	14.6	1.10e-06	0	43	0	3571449856	13	4431
2026-01-11 13:33:56.02	331.59	10.22	-26.6	-28.3	14.8	0.00e+00	0	43	0	3577741312	13	4363
2026-01-11 13:33:57.02	331.67	10.14	-26.6	-28.3	14.8	1.10e-06	0	43	0	3582984192	13	4367
2026-01-11 13:33:58.02	331.74	10.06	-26.6	-28.3	14.7	0.00e+00	0	43	0	3589275648	13	4387
2026-01-11 13:33:59.02	331.82	9.98	-26.8	-28.6	14.5	2.20e-06	0	43	0	3594518528	13	4474
2026-01-11 13:34:00.00	331.89	9.90	-26.7	-28.5	14.6	1.10e-06	0	43	0	3599761408	13	4420
2026-01-11 13:34:00.99	331.97	9.83	-26.7	-28.5	14.6	2.20e-06	0	43	0	3605004288	13	4422
2026-01-11 13:34:01.99	332.05	9.75	-26.7	-28.5	14.6	0.00e+00	0	43	0	3611295744	13	4443
2026-01-11 13:34:02.99	332.12	9.67	-26.6	-28.3	14.7	0.00e+00	0	43	0	3616538624	13	4367
2026-01-11 13:34:03.98	332.20	9.59	-26.5	-28.1	14.8	0.00e+00	0	43	0	3621781504	13	4330
2026-01-11 13:34:04.97	332.27	9.52	-26.5	-28.1	14.8	0.00e+00	0	43	0	3628072960	13	4315
2026-01-11 13:34:05.98	332.34	9.44	-26.5	-28.1	14.8	0.00e+00	0	43	0	3633315840	13	4325
2026-01-11 13:34:06.98	332.42	9.36	-26.6	-28.2	14.7	0.00e+00	0	43	0	3639607296	13	4357
2026-01-11 13:34:07.97	332.49	9.29	-26.7	-28.6	14.5	0.00e+00	0	43	0	3644850176	13	4476
2026-01-11 13:34:08.98	332.56	9.21	-26.8	-28.7	14.4	1.10e-06	0	43	0	3650093056	13	4503
2026-01-11 13:34:09.97	332.64	9.14	-26.7	-28.5	14.5	2.20e-06	0	43	0	3655335936	13	4452
2026-01-11 13:34:10.96	332.71	9.06	-26.9	-29.0	14.3	3.40e-06	0	43	0	3661627392	13	4571
2026-01-11 13:34:11.95	332.78	8.99	-26.7	-28.5	14.5	1.10e-06	0	43	0	3666870272	13	4428
2026-01-11 13:34:12.95	332.85	8.91	-26.7	-28.6	14.5	2.20e-06	0	43	0	3672113152	13	4452
2026-01-11 13:34:13.94	332.92	8.84	-26.8	-28.7	14.4	2.20e-06	0	43	0	3678404608	13	4481
2026-01-11 13:34:14.94	332.99	8.76	-26.7	-28.5	14.5	0.00e+00	0	43	0	3683647488	13	4428
2026-01-11 13:34:15.94	333.06	8.69	-26.9	-29.0	14.2	2.20e-06	0	43	0	3689938944	13	4582
2026-01-11 13:34:16.94	333.13	8.61	-26.7	-28.6	14.4	2.20e-06	0	43	0	3695181824	13	4464
2026-01-11 13:34:17.94	333.20	8.54	-26.7	-28.5	14.5	1.10e-06	0	43	0	3700424704	13	4447
2026-01-11 13:34:18.93	333.27	8.46	-26.6	-28.4	14.6	2.20e-06	0	42	0	3706716160	13	4399
2026-01-11 13:34:19.93	333.34	8.39	-26.6	-28.4	14.6	2.20e-06	0	43	0	3711959040	13	4398
2026-01-11 13:34:20.92	333.41	8.32	-26.7	-28.6	14.4	0.00e+00	0	43	0	3717201920	13	4459
2026-01-11 13:34:21.92	333.48	8.24	-26.9	-28.9	14.2	0.00e+00	0	43	0	3723493376	13	4563
2026-01-11 13:34:22.92	333.55	8.17	-26.6	-28.3	14.6	2.20e-06	0	43	0	3728736256	13	4384
2026-01-11 13:34:23.91	333.62	8.10	-26.7	-28.5	14.5	3.40e-06	0	43	0	3733979136	13	4435
2026-01-11 13:34:24.90	333.68	8.02	-26.8	-28.7	14.3	0.00e+00	0	43	0	3740270592	13	4505
2026-01-11 13:34:25.90	333.75	7.95	-26.8	-28.7	14.3	1.10e-06	0	43	0	3745513472	13	4490
2026-01-11 13:34:26.90	333.82	7.88	-27.1	-28.9	13.9	5.70e-06	0	42	0	3750756352	14	4459
2026-01-11 13:34:27.89	333.88	7.81	-26.9	-28.5	14.1	1.10e-06	0	43	0	3757047808	14	4327
2026-01-11 13:34:28.88	333.95	7.73	-26.8	-28.4	14.2	3.40e-06	0	43	0	3762290688	14	4291
2026-01-11 13:34:29.88	334.01	7.66	-27.0	-28.7	14.0	3.40e-06	0	43	0	3767533568	14	4375
2026-01-11 13:34:30.87	334.08	7.59	-26.9	-28.5	14.1	2.20e-06	0	43	0	3773825024	14	4326
2026-01-11 13:34:31.87	334.15	7.52	-27.0	-28.7	14.0	4.50e-06	0	43	0	3779067904	14	4376
2026-01-11 13:34:32.86	334.21	7.45	-26.9	-28.4	14.2	5.70e-06	0	43	0	3784310784	14	4302
2026-01-11 13:34:33.86	334.28	7.37	-27.3	-29.4	13.6	1.37e-05	0	43	0	3790602240	14	4580
2026-01-11 13:34:34.86	334.34	7.30	-27.0	-28.8	13.9	8.00e-06	0	43	0	3795845120	14	4403
2026-01-11 13:34:35.85	334.40	7.23	-26.9	-28.5	14.1	4.50e-06	0	43	0	3801088000	14	4342
2026-01-11 13:34:36.85	334.47	7.16	-27.1	-29.1	13.7	6.80e-06	0	43	0	3807379456	14	4510
2026-01-11 13:34:37.85	334.53	7.09	-27.1	-29.1	13.7	1.60e-05	0	43	0	3812622336	14	4519
2026-01-11 13:34:38.84	334.59	7.02	-32.8	-43.1	3.8	7.69e-01	0	43	104	3815768064	25	11726
