passes_logs/2026/01/11/R2M6_AANII_01/R2M6_AANII_01__20260111_065620_FENGYUN_3E_rec.log

#Pass ID: 20260111_065620_FENGYUN 3E
#Satellite: FENGYUN 3E
#Configuration: FENGYUN 3E
#almurnet v.1.7.20240730
#Start time: 2026-01-11 06:56:20

#Version: 2.2.20231116
#Station: R2M6_AANII_01
#Location: 30.233357 lon 59.946436 lat
#TLE: 1 49008U 21062A   26010.00248113 -.00000186  00000+0 -66867-4 0  9993
#TLE: 2 49008  98.7487  15.1892 0001787 147.8079 212.3207 14.19883469234134

#Time	Az	El	Level	Level2	SNR	BER	BlckErr	Temp	State	Recorded	gain1	gain2
2026-01-11 06:56:20.46	9.07	7.01	-30.9	-35.4	4.6	8.16e-01	0	40	0	0	21	6041
2026-01-11 06:56:21.47	8.96	7.07	-30.8	-34.9	4.6	8.10e-01	0	40	104	0	21	5784
2026-01-11 06:56:22.48	8.85	7.13	-30.9	-35.1	6.1	3.19e-01	0	40	0	0	21	5846
2026-01-11 06:56:23.48	8.74	7.19	-30.7	-34.4	6.5	2.82e-01	0	40	0	7340032	21	5542
2026-01-11 06:56:24.49	8.64	7.25	-30.8	-34.8	6.3	2.38e-01	0	40	0	14680064	21	5699
2026-01-11 06:56:25.50	8.53	7.31	-30.8	-34.9	6.2	3.02e-01	0	40	0	20971520	21	5775
2026-01-11 06:56:26.50	8.42	7.36	-30.6	-34.0	6.8	2.38e-01	0	40	0	28311552	21	5359
2026-01-11 06:56:27.50	8.31	7.42	-30.6	-34.1	6.8	2.11e-01	0	40	0	35651584	21	5381
2026-01-11 06:56:28.51	8.20	7.48	-30.4	-33.8	7.3	1.30e-01	0	40	0	42991616	20	5370
2026-01-11 06:56:29.52	8.09	7.54	-30.6	-34.1	6.8	1.70e-01	0	40	0	50331648	21	5371
2026-01-11 06:56:30.53	7.98	7.60	-30.7	-34.5	6.6	1.83e-01	0	40	0	57671680	21	5565
2026-01-11 06:56:31.54	7.87	7.66	-31.1	-35.1	5.9	4.79e-01	0	40	0	65011712	22	5759
2026-01-11 06:56:32.55	7.75	7.72	-30.6	-34.1	6.8	2.14e-01	0	40	0	71303168	21	5389
2026-01-11 06:56:33.55	7.64	7.78	-29.9	-32.2	8.4	6.89e-02	0	40	0	78643200	20	4726
2026-01-11 06:56:34.56	7.53	7.83	-29.7	-32.3	8.8	3.73e-02	0	40	0	85983232	19	4855
2026-01-11 06:56:35.57	7.41	7.89	-28.8	-30.2	10.5	1.13e-02	0	40	0	93323264	18	4258
2026-01-11 06:56:36.58	7.30	7.95	-28.6	-30.4	10.7	3.17e-03	0	40	0	100663296	17	4427
2026-01-11 06:56:37.58	7.19	8.01	-28.3	-30.1	11.2	1.55e-03	0	40	0	108003328	16	4426
2026-01-11 06:56:38.59	7.07	8.07	-28.8	-30.9	10.4	5.02e-03	0	40	0	115343360	17	4576
2026-01-11 06:56:39.60	6.96	8.13	-28.8	-30.9	10.4	7.23e-03	0	40	0	122683392	17	4557
2026-01-11 06:56:40.60	6.84	8.19	-28.7	-30.5	10.6	3.61e-03	0	40	0	130023424	17	4450
2026-01-11 06:56:41.60	6.73	8.25	-28.8	-30.9	10.4	6.53e-03	0	41	0	137363456	17	4554
2026-01-11 06:56:42.61	6.61	8.31	-28.7	-30.5	10.7	3.08e-03	0	40	0	144703488	17	4449
2026-01-11 06:56:43.61	6.49	8.36	-28.8	-30.8	10.5	4.48e-03	0	40	0	150994944	17	4541
2026-01-11 06:56:44.61	6.38	8.42	-29.0	-31.2	10.2	5.45e-03	0	40	0	158334976	17	4669
2026-01-11 06:56:45.62	6.26	8.48	-29.0	-30.7	10.2	7.37e-03	0	40	0	166723584	18	4406
2026-01-11 06:56:46.62	6.14	8.54	-28.7	-30.6	10.6	4.06e-03	0	40	0	173015040	17	4462
2026-01-11 06:56:47.63	6.02	8.60	-28.4	-30.4	11.1	2.00e-03	0	40	0	180355072	16	4518
2026-01-11 06:56:48.63	5.90	8.66	-28.8	-30.8	10.6	3.15e-03	0	41	0	187695104	17	4522
2026-01-11 06:56:49.63	5.78	8.72	-29.1	-31.1	10.1	9.96e-03	0	40	0	195035136	18	4512
2026-01-11 06:56:50.64	5.66	8.78	-28.7	-30.5	10.8	3.14e-03	0	40	0	202375168	17	4434
2026-01-11 06:56:51.64	5.54	8.84	-28.7	-30.5	10.7	2.99e-03	0	41	0	209715200	17	4424
2026-01-11 06:56:52.65	5.42	8.90	-28.6	-30.4	10.8	2.32e-03	0	41	0	217055232	17	4407
2026-01-11 06:56:53.66	5.30	8.96	-28.7	-30.5	10.7	2.48e-03	0	41	0	224395264	17	4446
2026-01-11 06:56:54.67	5.17	9.02	-28.7	-30.4	10.8	2.42e-03	0	41	0	231735296	17	4421
2026-01-11 06:56:55.68	5.05	9.08	-28.9	-31.0	10.5	3.72e-03	0	41	0	239075328	17	4579
2026-01-11 06:56:56.69	4.93	9.13	-29.1	-31.4	10.2	5.21e-03	0	41	0	246415360	17	4730
2026-01-11 06:56:57.69	4.80	9.19	-28.9	-30.5	10.5	4.85e-03	0	41	0	253755392	18	4337
2026-01-11 06:56:58.70	4.68	9.25	-28.3	-29.6	11.3	1.58e-03	0	41	0	260046848	17	4180
2026-01-11 06:56:59.71	4.55	9.31	-27.7	-29.2	12.0	5.60e-04	0	41	0	267386880	15	4252
2026-01-11 06:57:00.71	4.43	9.37	-27.4	-28.3	12.5	1.74e-04	0	41	0	274726912	15	4033
2026-01-11 06:57:01.72	4.30	9.43	-26.8	-27.6	13.3	2.17e-05	0	41	0	282066944	14	3934
2026-01-11 06:57:02.72	4.18	9.49	-27.0	-28.4	13.1	5.60e-05	0	41	0	289406976	13	4259
2026-01-11 06:57:03.73	4.05	9.55	-26.8	-28.0	13.4	1.48e-05	0	41	0	296747008	13	4134
2026-01-11 06:57:04.73	3.92	9.61	-26.6	-27.5	13.7	8.00e-06	0	41	0	304087040	13	4004
2026-01-11 06:57:05.74	3.79	9.67	-27.0	-28.5	13.1	2.40e-05	0	41	0	311427072	13	4284
2026-01-11 06:57:06.75	3.66	9.73	-26.3	-27.0	13.9	2.20e-06	0	41	0	318767104	13	3885
2026-01-11 06:57:07.76	3.53	9.79	-26.5	-27.4	13.7	5.70e-06	0	41	0	326107136	13	3996
2026-01-11 06:57:08.77	3.40	9.85	-26.6	-27.5	13.6	8.00e-06	0	41	0	333447168	13	4020
2026-01-11 06:57:09.77	3.27	9.91	-26.3	-27.0	14.0	4.50e-06	0	41	0	340787200	13	3871
2026-01-11 06:57:10.78	3.14	9.97	-26.6	-27.7	13.6	9.10e-06	0	41	0	348127232	13	4054
2026-01-11 06:57:11.79	3.01	10.03	-26.4	-27.1	13.9	9.10e-06	0	41	0	355467264	13	3916
2026-01-11 06:57:12.80	2.88	10.09	-26.3	-27.4	14.0	0.00e+00	0	41	0	361758720	12	4090
2026-01-11 06:57:13.80	2.75	10.14	-26.4	-27.6	13.9	4.50e-06	0	41	0	369098752	12	4134
2026-01-11 06:57:14.81	2.61	10.20	-26.5	-27.8	13.8	6.80e-06	0	41	0	376438784	12	4199
2026-01-11 06:57:15.82	2.48	10.26	-26.6	-27.6	13.6	1.02e-05	0	41	0	383778816	13	4034
2026-01-11 06:57:16.82	2.34	10.32	-26.3	-27.0	14.0	8.00e-06	0	41	0	391118848	13	3876
2026-01-11 06:57:17.83	2.21	10.38	-26.9	-28.2	13.3	9.10e-06	0	41	0	398458880	13	4185
2026-01-11 06:57:18.84	2.07	10.44	-26.7	-27.8	13.6	1.48e-05	0	41	0	405798912	13	4083
2026-01-11 06:57:19.84	1.94	10.50	-26.7	-27.8	13.6	5.70e-06	0	41	0	413138944	13	4085
2026-01-11 06:57:20.85	1.80	10.56	-26.6	-27.6	13.7	1.14e-05	0	41	0	420478976	13	4025
2026-01-11 06:57:21.86	1.66	10.62	-26.8	-28.0	13.4	5.70e-06	0	41	0	427819008	13	4143
2026-01-11 06:57:22.86	1.53	10.68	-26.7	-27.7	13.6	1.94e-05	0	41	0	435159040	13	4068
2026-01-11 06:57:23.86	1.39	10.74	-26.7	-27.8	13.5	9.10e-06	0	41	0	442499072	13	4096
2026-01-11 06:57:24.87	1.25	10.80	-26.6	-27.7	13.6	2.21e-03	0	41	0	449839104	13	4061
2026-01-11 06:57:25.88	1.11	10.86	-26.8	-28.0	13.4	4.50e-06	0	41	0	457179136	13	4137
2026-01-11 06:57:26.88	0.97	10.92	-26.5	-27.8	13.8	1.37e-05	0	41	0	464519168	12	4199
2026-01-11 06:57:27.88	0.83	10.97	-26.5	-27.8	13.8	2.35e-03	0	41	0	470810624	12	4197
2026-01-11 06:57:28.89	0.69	11.03	-26.4	-27.5	14.0	4.50e-06	0	41	0	478150656	12	4119
2026-01-11 06:57:29.90	0.55	11.09	-26.4	-27.5	14.0	1.73e-04	0	41	0	485490688	12	4116
2026-01-11 06:57:30.90	0.40	11.15	-26.8	-28.0	13.4	1.60e-05	0	41	0	492830720	13	4147
2026-01-11 06:57:31.90	0.26	11.21	-26.3	-27.5	14.0	5.70e-06	0	41	0	500170752	12	4103
2026-01-11 06:57:32.90	0.12	11.27	-26.3	-27.4	14.1	2.09e-04	0	41	0	507510784	12	4077
2026-01-11 06:57:33.91	359.98	11.33	-26.2	-27.1	14.3	2.20e-06	0	41	0	514850816	12	4013
2026-01-11 06:57:34.92	359.83	11.39	-26.3	-27.3	14.1	2.20e-03	0	41	0	522190848	12	4065
2026-01-11 06:57:35.92	359.69	11.45	-26.1	-27.0	14.3	0.00e+00	0	41	0	529530880	12	3976
2026-01-11 06:57:36.92	359.54	11.50	-26.2	-27.1	14.3	2.12e-03	0	41	0	536870912	12	3992
2026-01-11 06:57:37.92	359.39	11.56	-26.0	-26.8	14.4	2.02e-03	0	41	0	544210944	12	3921
2026-01-11 06:57:38.93	359.25	11.62	-26.0	-26.6	14.6	1.10e-06	0	41	0	550502400	12	3878
2026-01-11 06:57:39.94	359.10	11.68	-26.0	-27.2	14.6	2.13e-03	0	41	0	557842432	11	4133
2026-01-11 06:57:40.95	358.95	11.74	-26.1	-26.9	14.4	2.01e-03	0	41	0	565182464	12	3943
2026-01-11 06:57:41.96	358.80	11.80	-26.4	-27.6	14.0	2.27e-04	0	42	0	572522496	12	4126
2026-01-11 06:57:42.97	358.65	11.86	-26.2	-27.1	14.1	1.97e-03	0	41	0	579862528	12	4004
2026-01-11 06:57:43.97	358.50	11.92	-26.6	-27.9	13.8	2.15e-03	0	41	0	587202560	12	4225
2026-01-11 06:57:44.98	358.35	11.97	-26.5	-27.7	13.9	2.62e-04	0	41	0	594542592	12	4160
2026-01-11 06:57:45.99	358.20	12.03	-26.2	-27.1	14.3	2.05e-03	0	41	0	601882624	12	4013
2026-01-11 06:57:47.00	358.05	12.09	-26.3	-27.3	14.2	1.98e-03	0	41	0	609222656	12	4060
2026-01-11 06:57:48.00	357.89	12.15	-26.3	-27.4	14.1	2.68e-04	0	42	0	616562688	12	4094
2026-01-11 06:57:49.01	357.74	12.21	-26.3	-27.5	14.1	5.49e-05	0	41	0	623902720	12	4107
2026-01-11 06:57:50.01	357.59	12.27	-26.9	-28.1	13.4	1.91e-03	0	41	0	631242752	13	4163
2026-01-11 06:57:51.02	357.43	12.32	-26.8	-27.9	13.5	1.02e-05	0	42	0	638582784	13	4116
2026-01-11 06:57:52.02	357.28	12.38	-26.8	-28.1	13.5	1.90e-03	0	41	0	645922816	13	4150
2026-01-11 06:57:53.03	357.12	12.44	-27.4	-29.0	12.7	3.19e-04	0	42	0	653262848	14	4309
2026-01-11 06:57:54.04	356.96	12.50	-26.8	-27.5	13.6	2.97e-05	0	41	0	659554304	14	3892
2026-01-11 06:57:55.04	356.81	12.56	-26.3	-27.4	14.1	1.94e-03	0	41	0	666894336	12	4085
2026-01-11 06:57:56.06	356.65	12.61	-26.1	-26.9	14.5	2.68e-04	0	41	0	674234368	12	3951
2026-01-11 06:57:57.06	356.49	12.67	-25.9	-26.9	14.8	0.00e+00	0	41	0	681574400	11	4045
2026-01-11 06:57:58.07	356.33	12.73	-26.2	-27.0	14.4	3.16e-04	0	41	0	688914432	12	3989
2026-01-11 06:57:59.07	356.17	12.79	-25.9	-27.0	14.7	3.08e-04	0	42	0	696254464	11	4073
2026-01-11 06:58:00.08	356.01	12.84	-26.0	-27.2	14.7	0.00e+00	0	42	0	703594496	11	4126
2026-01-11 06:58:01.09	355.85	12.90	-26.0	-27.2	14.6	3.20e-04	0	42	0	710934528	11	4127
2026-01-11 06:58:02.10	355.69	12.96	-26.1	-26.9	14.5	3.55e-04	0	42	0	718274560	12	3939
2026-01-11 06:58:03.11	355.53	13.02	-26.3	-27.3	14.2	1.10e-06	0	42	0	725614592	12	4055
2026-01-11 06:58:04.11	355.36	13.07	-26.1	-26.9	14.5	3.70e-04	0	42	0	732954624	12	3951
2026-01-11 06:58:05.12	355.20	13.13	-26.2	-27.1	14.3	4.10e-04	0	42	0	740294656	12	4003
2026-01-11 06:58:06.13	355.04	13.19	-26.0	-26.8	14.6	0.00e+00	0	42	0	747634688	12	3914
2026-01-11 06:58:07.14	354.87	13.24	-25.9	-27.0	14.8	0.00e+00	0	42	0	754974720	11	4074
2026-01-11 06:58:08.14	354.71	13.30	-26.0	-26.8	14.6	3.26e-04	0	42	0	762314752	12	3921
2026-01-11 06:58:09.14	354.54	13.36	-25.8	-26.1	14.9	0.00e+00	0	42	0	768606208	12	3761
2026-01-11 06:58:10.15	354.37	13.41	-26.1	-26.8	14.6	0.00e+00	0	42	0	775946240	12	3926
2026-01-11 06:58:11.16	354.21	13.47	-26.0	-26.7	14.6	3.20e-04	0	42	0	783286272	12	3898
2026-01-11 06:58:12.17	354.04	13.53	-25.9	-26.9	14.8	0.00e+00	0	42	0	790626304	11	4052
2026-01-11 06:58:13.17	353.87	13.58	-25.8	-26.7	15.0	2.44e-04	0	41	0	797966336	11	3988
2026-01-11 06:58:14.18	353.70	13.64	-25.8	-26.7	15.0	0.00e+00	0	41	0	805306368	11	3991
2026-01-11 06:58:15.19	353.53	13.69	-25.8	-26.7	15.0	0.00e+00	0	42	0	812646400	11	3988
2026-01-11 06:58:16.19	353.36	13.75	-25.6	-26.4	15.1	0.00e+00	0	42	0	819986432	11	3909
2026-01-11 06:58:17.20	353.19	13.81	-25.6	-26.3	15.2	0.00e+00	0	42	0	827326464	11	3893
2026-01-11 06:58:18.21	353.02	13.86	-25.5	-26.6	15.3	0.00e+00	0	42	0	834666496	10	4068
2026-01-11 06:58:19.21	352.84	13.92	-25.5	-26.5	15.3	0.00e+00	0	42	0	842006528	10	4065
2026-01-11 06:58:20.22	352.67	13.97	-25.8	-26.7	15.0	0.00e+00	0	42	0	849346560	11	3993
2026-01-11 06:58:21.23	352.50	14.03	-25.7	-26.6	15.0	1.10e-06	0	42	0	856686592	11	3965
2026-01-11 06:58:22.24	352.32	14.08	-25.6	-26.2	15.3	0.00e+00	0	42	0	864026624	11	3875
2026-01-11 06:58:23.24	352.15	14.14	-25.4	-25.9	15.4	0.00e+00	0	42	0	870318080	11	3812
2026-01-11 06:58:24.25	351.97	14.19	-25.5	-26.1	15.3	0.00e+00	0	42	0	877658112	11	3852
2026-01-11 06:58:25.26	351.79	14.25	-25.7	-26.5	15.1	0.00e+00	0	42	0	884998144	11	3951
2026-01-11 06:58:26.27	351.62	14.30	-25.6	-26.4	15.2	0.00e+00	0	42	0	892338176	11	3923
2026-01-11 06:58:27.28	351.44	14.35	-25.6	-26.2	15.3	0.00e+00	0	42	0	899678208	11	3877
2026-01-11 06:58:28.28	351.26	14.41	-25.4	-26.4	15.5	0.00e+00	0	42	0	907018240	10	4028
2026-01-11 06:58:29.29	351.08	14.46	-25.3	-26.2	15.6	0.00e+00	0	42	0	914358272	10	3973
2026-01-11 06:58:30.30	350.90	14.52	-25.5	-26.6	15.4	0.00e+00	0	42	0	921698304	10	4080
2026-01-11 06:58:31.30	350.72	14.57	-25.3	-26.1	15.6	0.00e+00	0	42	0	929038336	10	3963
2026-01-11 06:58:32.31	350.54	14.62	-25.2	-25.9	15.7	0.00e+00	0	42	0	936378368	10	3907
2026-01-11 06:58:33.32	350.36	14.68	-25.2	-26.0	15.7	0.00e+00	0	42	0	943718400	10	3923
2026-01-11 06:58:34.32	350.17	14.73	-25.3	-26.1	15.6	0.00e+00	0	42	0	951058432	10	3963
2026-01-11 06:58:35.33	349.99	14.78	-25.2	-25.9	15.8	0.00e+00	0	42	0	958398464	10	3897
2026-01-11 06:58:36.34	349.81	14.84	-25.1	-25.7	15.9	0.00e+00	0	42	0	965738496	10	3843
2026-01-11 06:58:37.34	349.62	14.89	-25.1	-25.6	15.9	0.00e+00	0	42	0	973078528	10	3841
2026-01-11 06:58:38.36	349.44	14.94	-25.1	-25.7	15.9	0.00e+00	0	42	0	979369984	10	3862
2026-01-11 06:58:39.37	349.25	14.99	-25.2	-25.8	15.8	0.00e+00	0	42	0	987758592	10	3881
2026-01-11 06:58:40.38	349.06	15.04	-25.3	-26.0	15.7	0.00e+00	0	42	0	995098624	10	3929
2026-01-11 06:58:41.39	348.87	15.10	-25.1	-26.1	15.9	8.81e-05	0	42	0	1001390080	9	4055
2026-01-11 06:58:42.39	348.69	15.15	-25.1	-25.6	15.9	0.00e+00	0	42	0	1008730112	10	3839
2026-01-11 06:58:43.39	348.50	15.20	-25.2	-25.9	15.8	0.00e+00	0	42	0	1016070144	10	3901
2026-01-11 06:58:44.40	348.31	15.25	-25.2	-26.0	15.7	0.00e+00	0	42	0	1023410176	10	3927
2026-01-11 06:58:45.40	348.12	15.30	-25.0	-25.6	16.0	0.00e+00	0	42	0	1030750208	10	3828
2026-01-11 06:58:46.41	347.93	15.35	-25.0	-25.5	16.0	3.87e-04	0	42	0	1038090240	10	3809
2026-01-11 06:58:47.42	347.74	15.40	-25.1	-25.7	15.9	0.00e+00	0	42	0	1045430272	10	3855
2026-01-11 06:58:48.42	347.55	15.45	-25.1	-25.6	16.0	6.17e-05	0	42	0	1052770304	10	3832
2026-01-11 06:58:49.43	347.36	15.50	-25.0	-25.5	16.0	6.29e-05	0	42	0	1060110336	10	3806
2026-01-11 06:58:50.43	347.16	15.55	-25.1	-25.8	15.9	0.00e+00	0	42	0	1067450368	10	3871
2026-01-11 06:58:51.44	346.97	15.60	-25.1	-25.7	15.9	1.70e-04	0	42	0	1074790400	10	3853
2026-01-11 06:58:52.44	346.78	15.65	-25.1	-25.7	15.9	0.00e+00	0	42	0	1081081856	10	3849
2026-01-11 06:58:53.45	346.58	15.70	-25.0	-25.4	16.0	0.00e+00	0	42	0	1088421888	10	3788
2026-01-11 06:58:54.45	346.39	15.75	-25.0	-25.9	16.0	8.14e-04	0	42	0	1095761920	9	4012
2026-01-11 06:58:55.47	346.19	15.80	-24.9	-25.7	16.2	9.86e-04	0	42	0	1103101952	9	3958
2026-01-11 06:58:56.47	345.99	15.85	-24.9	-25.8	16.1	0.00e+00	0	42	0	1110441984	9	3976
2026-01-11 06:58:57.48	345.79	15.89	-25.0	-26.0	16.0	0.00e+00	0	42	0	1117782016	9	4027
2026-01-11 06:58:58.48	345.60	15.94	-24.9	-25.3	16.1	1.49e-03	0	42	0	1125122048	10	3770
2026-01-11 06:58:59.49	345.40	15.99	-24.9	-25.2	16.2	0.00e+00	0	42	0	1132462080	10	3734
2026-01-11 06:59:00.50	345.20	16.04	-24.9	-25.7	16.2	1.52e-03	0	42	0	1139802112	9	3949
2026-01-11 06:59:01.50	345.00	16.08	-24.8	-25.5	16.3	1.57e-03	0	42	0	1147142144	9	3904
2026-01-11 06:59:02.51	344.80	16.13	-25.0	-25.9	16.1	0.00e+00	0	42	0	1154482176	9	4016
2026-01-11 06:59:03.52	344.59	16.18	-25.1	-25.6	15.5	1.55e-03	0	42	0	1161822208	10	3831
2026-01-11 06:59:04.52	344.39	16.22	-25.0	-25.6	16.0	8.35e-05	0	42	0	1169162240	10	3828
2026-01-11 06:59:05.52	344.19	16.27	-25.0	-25.4	16.1	0.00e+00	0	42	0	1176502272	10	3788
2026-01-11 06:59:06.53	343.99	16.32	-24.9	-25.7	16.2	1.64e-03	0	42	0	1183842304	9	3969
2026-01-11 06:59:07.54	343.78	16.36	-25.1	-25.6	16.0	0.00e+00	0	42	0	1190133760	10	3825
2026-01-11 06:59:08.54	343.58	16.41	-25.0	-25.4	16.1	0.00e+00	0	42	0	1197473792	10	3776
2026-01-11 06:59:09.55	343.37	16.45	-25.2	-25.9	15.8	1.29e-04	0	42	0	1204813824	10	3898
2026-01-11 06:59:10.55	343.17	16.50	-25.3	-26.1	15.7	0.00e+00	0	42	0	1212153856	10	3953
2026-01-11 06:59:11.56	342.96	16.54	-25.1	-25.6	16.0	0.00e+00	0	42	0	1219493888	10	3822
2026-01-11 06:59:12.57	342.75	16.58	-25.0	-25.9	16.1	0.00e+00	0	42	0	1226833920	9	3999
2026-01-11 06:59:13.58	342.55	16.63	-24.8	-25.6	16.3	1.96e-03	0	42	0	1234173952	9	3927
2026-01-11 06:59:14.58	342.34	16.67	-24.9	-25.8	16.1	0.00e+00	0	42	0	1241513984	9	3989
2026-01-11 06:59:15.58	342.13	16.71	-24.9	-25.7	16.2	0.00e+00	0	42	0	1248854016	9	3948
2026-01-11 06:59:16.59	341.92	16.76	-24.9	-25.7	16.2	0.00e+00	0	42	0	1256194048	9	3963
2026-01-11 06:59:17.60	341.71	16.80	-24.9	-25.7	16.2	0.00e+00	0	42	0	1263534080	9	3949
2026-01-11 06:59:18.60	341.50	16.84	-24.8	-25.5	16.3	0.00e+00	0	42	0	1270874112	9	3920
2026-01-11 06:59:19.61	341.29	16.88	-24.9	-25.8	16.1	1.17e-04	0	42	0	1277165568	9	3993
2026-01-11 06:59:20.62	341.08	16.92	-24.8	-25.5	16.3	0.00e+00	0	42	0	1285554176	9	3908
2026-01-11 06:59:21.62	340.86	16.97	-24.7	-25.4	16.4	1.15e-04	0	42	0	1292894208	9	3888
2026-01-11 06:59:22.63	340.65	17.01	-24.6	-25.1	16.5	1.34e-04	0	42	0	1299185664	9	3822
2026-01-11 06:59:23.63	340.44	17.05	-24.6	-25.1	16.5	0.00e+00	0	42	0	1306525696	9	3806
2026-01-11 06:59:24.64	340.22	17.09	-24.6	-25.1	16.5	0.00e+00	0	42	0	1313865728	9	3823
2026-01-11 06:59:25.65	340.01	17.13	-24.6	-25.1	16.5	0.00e+00	0	42	0	1321205760	9	3821
2026-01-11 06:59:26.66	339.79	17.17	-24.5	-24.8	16.7	0.00e+00	0	42	0	1328545792	9	3746
2026-01-11 06:59:27.67	339.57	17.21	-24.4	-25.2	16.7	0.00e+00	0	42	0	1335885824	8	3954
2026-01-11 06:59:28.67	339.36	17.24	-24.3	-25.0	16.9	0.00e+00	0	42	0	1343225856	8	3902
2026-01-11 06:59:29.68	339.14	17.28	-24.4	-25.2	16.7	0.00e+00	0	42	0	1350565888	8	3943
2026-01-11 06:59:30.69	338.92	17.32	-24.5	-25.0	16.6	0.00e+00	0	42	0	1357905920	9	3787
2026-01-11 06:59:31.70	338.70	17.36	-24.5	-24.9	16.7	1.53e-04	0	42	0	1365245952	9	3754
2026-01-11 06:59:32.70	338.49	17.40	-24.4	-25.3	16.7	0.00e+00	0	42	0	1372585984	8	3957
2026-01-11 06:59:33.71	338.27	17.43	-24.5	-25.5	16.6	3.09e-04	0	42	0	1378877440	8	4010
2026-01-11 06:59:34.72	338.05	17.47	-24.5	-25.3	16.7	0.00e+00	0	42	0	1387266048	8	3971
2026-01-11 06:59:35.72	337.83	17.50	-24.6	-25.1	16.6	0.00e+00	0	42	0	1394606080	9	3819
2026-01-11 06:59:36.72	337.61	17.54	-24.7	-25.4	16.4	1.67e-04	0	42	0	1400897536	9	3888
2026-01-11 06:59:37.73	337.38	17.58	-24.6	-25.0	16.6	0.00e+00	0	42	0	1408237568	9	3788
2026-01-11 06:59:38.74	337.16	17.61	-24.5	-24.9	16.7	0.00e+00	0	42	0	1415577600	9	3757
2026-01-11 06:59:39.75	336.94	17.65	-24.5	-24.9	16.7	0.00e+00	0	42	0	1422917632	9	3761
2026-01-11 06:59:40.75	336.72	17.68	-24.5	-24.8	16.7	0.00e+00	0	42	0	1430257664	9	3742
2026-01-11 06:59:41.76	336.49	17.71	-24.6	-25.1	16.6	0.00e+00	0	42	0	1437597696	9	3807
2026-01-11 06:59:42.77	336.27	17.75	-24.5	-25.0	16.6	0.00e+00	0	42	0	1444937728	9	3790
2026-01-11 06:59:43.78	336.04	17.78	-24.5	-25.0	16.7	0.00e+00	0	42	0	1452277760	9	3780
2026-01-11 06:59:44.78	335.82	17.81	-24.5	-24.9	16.7	0.00e+00	0	42	0	1459617792	9	3760
2026-01-11 06:59:45.78	335.59	17.84	-24.6	-25.5	16.6	0.00e+00	0	42	0	1466957824	8	4025
2026-01-11 06:59:46.79	335.37	17.88	-24.5	-24.9	16.7	0.00e+00	0	42	0	1474297856	9	3755
2026-01-11 06:59:47.79	335.14	17.91	-24.5	-24.8	16.8	0.00e+00	0	42	0	1481637888	9	3749
2026-01-11 06:59:48.81	334.91	17.94	-24.5	-25.5	16.7	0.00e+00	0	42	0	1487929344	8	4014
2026-01-11 06:59:49.81	334.69	17.97	-24.4	-25.3	16.8	0.00e+00	0	42	0	1495269376	8	3956
2026-01-11 06:59:50.82	334.46	18.00	-24.4	-25.3	16.8	0.00e+00	0	42	0	1503657984	8	3959
2026-01-11 06:59:51.83	334.23	18.03	-24.9	-25.7	16.3	0.00e+00	0	42	0	1509949440	9	3957
2026-01-11 06:59:52.83	334.00	18.06	-24.6	-25.0	16.6	0.00e+00	0	42	0	1517289472	9	3796
2026-01-11 06:59:53.84	333.77	18.09	-24.6	-25.0	16.7	0.00e+00	0	42	0	1524629504	9	3800
2026-01-11 06:59:54.85	333.54	18.11	-24.4	-24.7	16.8	0.00e+00	0	42	0	1531969536	9	3719
2026-01-11 06:59:55.86	333.31	18.14	-24.7	-25.4	16.5	0.00e+00	0	42	0	1539309568	9	3885
2026-01-11 06:59:56.87	333.08	18.17	-24.6	-25.0	16.5	0.00e+00	0	42	0	1546649600	9	3795
2026-01-11 06:59:57.87	332.85	18.20	-24.5	-25.3	16.8	4.54e-04	0	42	0	1553989632	8	3964
2026-01-11 06:59:58.88	332.62	18.22	-24.5	-25.5	16.7	0.00e+00	0	42	0	1561329664	8	4010
2026-01-11 06:59:59.89	332.38	18.25	-24.5	-24.8	16.8	0.00e+00	0	42	0	1568669696	9	3738
2026-01-11 07:00:00.90	332.15	18.27	-24.4	-25.2	16.8	0.00e+00	0	42	0	1576009728	8	3948
2026-01-11 07:00:01.90	331.92	18.30	-24.5	-25.3	16.7	0.00e+00	0	42	0	1583349760	8	3971
2026-01-11 07:00:02.91	331.69	18.32	-24.4	-25.1	16.8	1.61e-03	0	42	0	1589641216	8	3922
2026-01-11 07:00:03.92	331.45	18.35	-24.3	-25.0	16.9	0.00e+00	0	42	0	1598029824	8	3883
2026-01-11 07:00:04.92	331.22	18.37	-24.1	-24.6	17.1	0.00e+00	0	42	0	1605369856	8	3798
2026-01-11 07:00:05.92	330.99	18.39	-24.3	-24.9	17.0	4.34e-05	0	42	0	1611661312	8	3870
2026-01-11 07:00:06.93	330.75	18.42	-24.1	-24.5	17.2	0.00e+00	0	42	0	1619001344	8	3778
2026-01-11 07:00:07.94	330.52	18.44	-24.1	-24.6	17.1	0.00e+00	0	42	0	1626341376	8	3802
2026-01-11 07:00:08.94	330.28	18.46	-24.0	-24.4	17.3	0.00e+00	0	42	0	1633681408	8	3746
2026-01-11 07:00:09.95	330.05	18.48	-24.3	-24.9	17.0	1.77e-03	0	42	0	1641021440	8	3876
2026-01-11 07:00:10.96	329.81	18.50	-24.2	-24.6	17.1	0.00e+00	0	42	0	1648361472	8	3809
2026-01-11 07:00:11.96	329.57	18.52	-24.1	-24.5	17.2	1.68e-03	0	42	0	1655701504	8	3769
2026-01-11 07:00:12.97	329.34	18.54	-24.2	-24.9	17.0	1.61e-03	0	42	0	1663041536	8	3859
2026-01-11 07:00:13.97	329.10	18.56	-24.2	-24.7	17.1	0.00e+00	0	42	0	1670381568	8	3820
2026-01-11 07:00:14.98	328.86	18.58	-24.1	-24.6	17.1	1.64e-03	0	42	0	1677721600	8	3793
2026-01-11 07:00:15.98	328.63	18.60	-24.1	-24.6	17.1	1.74e-03	0	42	0	1685061632	8	3800
2026-01-11 07:00:16.99	328.39	18.62	-24.2	-24.7	17.1	0.00e+00	0	42	0	1692401664	8	3819
2026-01-11 07:00:18.00	328.15	18.64	-24.3	-24.9	16.9	1.79e-03	0	42	0	1698693120	8	3881
2026-01-11 07:00:19.01	327.91	18.65	-24.1	-24.6	17.1	0.00e+00	0	42	0	1706033152	8	3793
2026-01-11 07:00:20.02	327.67	18.67	-24.1	-24.6	17.1	0.00e+00	0	42	0	1714421760	8	3805
2026-01-11 07:00:21.02	327.43	18.68	-24.2	-24.7	17.1	0.00e+00	0	42	0	1720713216	8	3812
2026-01-11 07:00:22.03	327.19	18.70	-24.2	-24.7	17.1	1.44e-03	0	42	0	1728053248	8	3814
2026-01-11 07:00:23.04	326.95	18.71	-24.3	-24.9	17.0	5.70e-06	0	42	0	1735393280	8	3867
2026-01-11 07:00:24.05	326.71	18.73	-24.1	-24.5	17.2	0.00e+00	0	42	0	1742733312	8	3781
2026-01-11 07:00:25.06	326.47	18.74	-24.1	-24.7	17.1	1.53e-03	0	42	0	1750073344	8	3815
2026-01-11 07:00:26.06	326.23	18.76	-24.3	-24.9	16.9	0.00e+00	0	42	0	1757413376	8	3871
2026-01-11 07:00:27.06	326.00	18.77	-24.1	-24.6	17.1	0.00e+00	0	42	0	1764753408	8	3811
2026-01-11 07:00:28.07	325.75	18.78	-24.2	-24.7	17.1	1.45e-04	0	42	0	1772093440	8	3817
2026-01-11 07:00:29.08	325.51	18.79	-24.1	-24.6	17.1	0.00e+00	0	42	0	1779433472	8	3807
2026-01-11 07:00:30.09	325.27	18.80	-24.3	-24.9	17.0	1.87e-03	0	42	0	1786773504	8	3869
2026-01-11 07:00:31.10	325.03	18.81	-24.1	-24.4	17.2	0.00e+00	0	42	0	1794113536	8	3761
2026-01-11 07:00:32.10	324.79	18.83	-24.0	-24.2	17.3	0.00e+00	0	42	0	1801453568	8	3715
2026-01-11 07:00:33.10	324.55	18.83	-24.0	-24.4	17.2	0.00e+00	0	42	0	1807745024	8	3766
2026-01-11 07:00:34.11	324.31	18.84	-24.0	-24.3	17.3	0.00e+00	0	42	0	1815085056	8	3721
2026-01-11 07:00:35.11	324.07	18.85	-23.8	-24.5	17.4	0.00e+00	0	42	0	1822425088	7	3876
2026-01-11 07:00:36.11	323.83	18.86	-23.9	-24.6	17.4	0.00e+00	0	42	0	1829765120	7	3903
2026-01-11 07:00:37.12	323.58	18.87	-23.9	-24.5	17.4	3.17e-04	0	42	0	1837105152	7	3877
2026-01-11 07:00:38.13	323.34	18.88	-23.9	-24.6	17.3	0.00e+00	0	42	0	1844445184	7	3895
2026-01-11 07:00:39.13	323.10	18.88	-24.0	-24.7	17.3	0.00e+00	0	42	0	1851785216	7	3934
2026-01-11 07:00:40.15	322.86	18.89	-23.8	-24.3	17.5	3.52e-04	0	42	0	1859125248	7	3837
2026-01-11 07:00:41.15	322.61	18.89	-23.8	-24.4	17.5	0.00e+00	0	42	0	1866465280	7	3855
2026-01-11 07:00:42.16	322.37	18.90	-23.9	-24.6	17.4	1.18e-04	0	42	0	1873805312	7	3904
2026-01-11 07:00:43.17	322.13	18.90	-23.8	-24.3	17.5	0.00e+00	0	42	0	1881145344	7	3831
2026-01-11 07:00:44.17	321.89	18.91	-23.8	-24.4	17.4	0.00e+00	0	42	0	1888485376	7	3850
2026-01-11 07:00:45.18	321.64	18.91	-23.9	-24.6	17.3	0.00e+00	0	42	0	1895825408	7	3911
2026-01-11 07:00:46.18	321.40	18.91	-23.9	-24.6	17.4	0.00e+00	0	42	0	1903165440	7	3896
2026-01-11 07:00:47.19	321.16	18.91	-24.0	-24.8	17.2	0.00e+00	0	42	0	1909456896	7	3965
2026-01-11 07:00:48.19	320.92	18.92	-23.8	-24.5	17.4	0.00e+00	0	42	0	1916796928	7	3875
2026-01-11 07:00:49.20	320.67	18.92	-23.8	-24.3	17.5	0.00e+00	0	42	0	1924136960	7	3844
2026-01-11 07:00:50.21	320.43	18.92	-23.8	-24.5	17.4	0.00e+00	0	42	0	1931476992	7	3875
2026-01-11 07:00:51.22	320.19	18.92	-23.8	-24.5	17.4	0.00e+00	0	42	0	1938817024	7	3877
2026-01-11 07:00:52.22	319.94	18.92	-23.8	-24.5	17.4	0.00e+00	0	42	0	1946157056	7	3871
2026-01-11 07:00:53.23	319.70	18.92	-23.9	-24.7	17.3	0.00e+00	0	42	0	1953497088	7	3922
2026-01-11 07:00:54.24	319.46	18.91	-23.9	-24.5	17.4	0.00e+00	0	42	0	1960837120	7	3892
2026-01-11 07:00:55.25	319.21	18.91	-23.9	-24.7	17.3	0.00e+00	0	42	0	1968177152	7	3923
2026-01-11 07:00:56.25	318.97	18.91	-23.9	-24.7	17.3	0.00e+00	0	42	0	1975517184	7	3927
2026-01-11 07:00:57.26	318.73	18.91	-24.0	-24.9	17.2	0.00e+00	0	42	0	1982857216	7	3979
2026-01-11 07:00:58.27	318.49	18.90	-24.1	-24.5	17.2	0.00e+00	0	42	0	1990197248	8	3778
2026-01-11 07:00:59.27	318.24	18.90	-24.1	-24.5	17.1	0.00e+00	0	42	0	1997537280	8	3767
2026-01-11 07:01:00.28	318.00	18.89	-24.0	-24.3	17.2	0.00e+00	0	42	0	2004877312	8	3740
2026-01-11 07:01:01.28	317.76	18.89	-24.0	-24.4	17.2	0.00e+00	0	42	0	2012217344	8	3755
2026-01-11 07:01:02.30	317.51	18.88	-24.1	-25.0	17.1	0.00e+00	0	42	0	2018508800	7	4002
2026-01-11 07:01:03.30	317.27	18.88	-24.0	-24.9	17.2	0.00e+00	0	42	0	2025848832	7	3981
2026-01-11 07:01:04.31	317.03	18.87	-24.2	-24.8	17.0	0.00e+00	0	42	0	2033188864	8	3839
2026-01-11 07:01:05.32	316.79	18.86	-24.1	-24.6	17.1	0.00e+00	0	42	0	2040528896	8	3796
2026-01-11 07:01:06.32	316.55	18.86	-23.9	-24.7	17.3	0.00e+00	0	42	0	2047868928	7	3930
2026-01-11 07:01:07.33	316.30	18.85	-24.1	-24.6	17.1	0.00e+00	0	42	0	2055208960	8	3795
2026-01-11 07:01:08.34	316.06	18.84	-23.9	-24.6	17.3	0.00e+00	0	42	0	2062548992	7	3899
2026-01-11 07:01:09.34	315.82	18.83	-23.8	-24.3	17.4	0.00e+00	0	42	0	2069889024	7	3845
2026-01-11 07:01:10.35	315.58	18.82	-23.8	-24.4	17.4	0.00e+00	0	42	0	2077229056	7	3868
2026-01-11 07:01:11.36	315.34	18.81	-23.7	-24.2	17.5	0.00e+00	0	42	0	2084569088	7	3810
2026-01-11 07:01:12.37	315.10	18.80	-23.8	-24.4	15.8	0.00e+00	0	42	0	2091909120	7	3863
2026-01-11 07:01:13.37	314.86	18.79	-23.9	-24.5	17.4	0.00e+00	0	42	0	2099249152	7	3893
2026-01-11 07:01:14.38	314.62	18.77	-23.9	-24.5	17.4	0.00e+00	0	42	0	2106589184	7	3883
2026-01-11 07:01:15.38	314.38	18.76	-23.8	-24.4	17.4	0.00e+00	0	42	0	2113929216	7	3868
2026-01-11 07:01:16.39	314.14	18.75	-23.8	-24.4	17.4	0.00e+00	0	42	0	2120220672	7	3848
2026-01-11 07:01:17.39	313.90	18.73	-23.8	-24.5	17.4	0.00e+00	0	42	0	2127560704	7	3878
2026-01-11 07:01:18.40	313.66	18.72	-23.9	-24.6	17.3	0.00e+00	0	42	0	2134900736	7	3910
2026-01-11 07:01:19.41	313.42	18.70	-24.0	-24.8	17.2	2.30e-04	0	42	0	2142240768	7	3960
2026-01-11 07:01:20.41	313.18	18.69	-23.9	-24.7	17.3	0.00e+00	0	42	0	2149580800	7	3931
2026-01-11 07:01:21.42	312.94	18.67	-23.9	-24.6	17.3	1.52e-03	0	42	0	2156920832	7	3911
2026-01-11 07:01:22.42	312.70	18.66	-24.1	-24.5	17.1	0.00e+00	0	42	0	2164260864	8	3777
2026-01-11 07:01:23.43	312.46	18.64	-24.0	-24.8	17.3	1.59e-03	0	42	0	2171600896	7	3956
2026-01-11 07:01:24.44	312.22	18.62	-23.9	-24.6	17.3	1.56e-03	0	42	0	2178940928	7	3910
2026-01-11 07:01:25.45	311.98	18.61	-24.0	-24.9	17.2	0.00e+00	0	42	0	2186280960	7	3989
2026-01-11 07:01:26.46	311.74	18.59	-24.2	-24.7	17.0	1.61e-03	0	42	0	2193620992	8	3836
2026-01-11 07:01:27.47	311.51	18.57	-24.1	-24.6	17.1	1.71e-03	0	42	0	2200961024	8	3795
2026-01-11 07:01:28.47	311.27	18.55	-24.2	-24.7	17.0	8.01e-05	0	42	0	2208301056	8	3814
2026-01-11 07:01:29.47	311.03	18.53	-24.2	-24.8	17.0	1.79e-03	0	42	0	2215641088	8	3835
2026-01-11 07:01:30.48	310.80	18.51	-24.1	-24.5	17.1	1.67e-03	0	42	0	2222981120	8	3770
2026-01-11 07:01:31.49	310.56	18.49	-24.1	-24.4	17.2	6.40e-05	0	42	0	2229272576	8	3761
2026-01-11 07:01:32.49	310.32	18.47	-24.0	-24.4	17.2	1.64e-03	0	42	0	2236612608	8	3753
2026-01-11 07:01:33.50	310.09	18.45	-23.8	-24.5	17.4	1.42e-03	0	42	0	2243952640	7	3875
2026-01-11 07:01:34.50	309.85	18.42	-23.8	-24.5	17.4	0.00e+00	0	42	0	2251292672	7	3883
2026-01-11 07:01:35.51	309.62	18.40	-23.8	-24.4	17.4	0.00e+00	0	42	0	2258632704	7	3869
2026-01-11 07:01:36.51	309.39	18.38	-23.8	-24.5	17.4	1.39e-03	0	42	0	2265972736	7	3884
2026-01-11 07:01:37.52	309.15	18.36	-23.9	-24.5	17.3	0.00e+00	0	42	0	2273312768	7	3885
2026-01-11 07:01:38.52	308.92	18.33	-23.9	-24.6	17.3	1.38e-03	0	42	0	2280652800	7	3916
2026-01-11 07:01:39.53	308.68	18.31	-23.9	-24.7	17.2	1.47e-03	0	42	0	2287992832	7	3933
2026-01-11 07:01:40.54	308.45	18.28	-24.0	-24.7	17.2	0.00e+00	0	42	0	2295332864	7	3939
2026-01-11 07:01:41.55	308.22	18.26	-24.0	-24.9	17.1	1.75e-03	0	42	0	2302672896	7	3981
2026-01-11 07:01:42.55	307.98	18.23	-24.0	-24.8	17.2	0.00e+00	0	42	0	2308964352	7	3952
2026-01-11 07:01:43.55	307.75	18.20	-23.9	-24.6	17.3	0.00e+00	0	42	0	2316304384	7	3906
2026-01-11 07:01:44.56	307.52	18.18	-23.9	-24.6	17.3	0.00e+00	0	42	0	2323644416	7	3909
2026-01-11 07:01:45.56	307.29	18.15	-24.0	-24.8	17.2	0.00e+00	0	42	0	2330984448	7	3955
2026-01-11 07:01:46.57	307.06	18.12	-23.9	-24.7	17.3	0.00e+00	0	42	0	2338324480	7	3920
2026-01-11 07:01:47.58	306.83	18.09	-23.7	-24.6	16.6	0.00e+00	0	42	0	2345664512	7	3982
2026-01-11 07:01:48.58	306.60	18.07	-24.1	-24.9	14.3	0.00e+00	0	42	0	2353004544	7	3983
2026-01-11 07:01:49.59	306.37	18.04	-23.9	-24.7	17.3	0.00e+00	0	42	0	2360344576	7	3923
2026-01-11 07:01:50.60	306.14	18.01	-23.9	-24.6	17.3	0.00e+00	0	42	0	2367684608	7	3911
2026-01-11 07:01:51.59	305.92	17.98	-24.0	-24.8	17.2	9.70e-04	0	42	0	2375024640	7	3947
2026-01-11 07:01:52.60	305.69	17.95	-24.0	-24.7	17.2	0.00e+00	0	42	0	2382364672	7	3939
2026-01-11 07:01:53.62	305.46	17.92	-23.9	-24.7	17.2	8.98e-04	0	42	0	2389704704	7	3926
2026-01-11 07:01:54.62	305.23	17.89	-24.1	-24.6	17.0	0.00e+00	0	42	0	2397044736	8	3811
2026-01-11 07:01:55.63	305.00	17.85	-24.0	-24.3	17.2	0.00e+00	0	42	0	2404384768	8	3727
2026-01-11 07:01:56.63	304.78	17.82	-24.0	-24.9	17.1	8.78e-04	0	42	0	2411724800	7	3965
2026-01-11 07:01:57.64	304.55	17.79	-24.0	-24.7	17.2	0.00e+00	0	42	0	2418016256	7	3934
2026-01-11 07:01:58.66	304.32	17.76	-24.0	-24.8	17.1	0.00e+00	0	42	0	2425356288	7	3962
2026-01-11 07:01:59.66	304.10	17.72	-24.3	-24.9	16.9	7.66e-04	0	42	0	2432696320	8	3865
2026-01-11 07:02:00.67	303.87	17.69	-24.2	-24.8	17.0	4.98e-04	0	42	0	2440036352	8	3843
2026-01-11 07:02:01.67	303.65	17.66	-24.3	-24.9	16.9	0.00e+00	0	42	0	2447376384	8	3861
2026-01-11 07:02:02.68	303.43	17.62	-24.3	-24.9	16.9	0.00e+00	0	42	0	2454716416	8	3871
2026-01-11 07:02:03.69	303.20	17.59	-24.3	-25.0	16.8	8.79e-04	0	42	0	2462056448	8	3896
2026-01-11 07:02:04.70	302.98	17.55	-24.4	-25.3	16.6	0.00e+00	0	42	0	2469396480	8	3964
2026-01-11 07:02:05.70	302.76	17.52	-24.6	-25.2	16.5	0.00e+00	0	42	0	2476736512	9	3830
2026-01-11 07:02:06.70	302.54	17.48	-24.5	-25.0	16.5	0.00e+00	0	42	0	2484076544	9	3789
2026-01-11 07:02:07.71	302.32	17.44	-24.7	-25.4	16.3	0.00e+00	0	42	0	2491416576	9	3887
2026-01-11 07:02:08.72	302.10	17.41	-24.4	-24.7	16.7	0.00e+00	0	42	0	2498756608	9	3735
2026-01-11 07:02:09.72	301.88	17.37	-24.4	-25.2	16.7	0.00e+00	0	42	0	2506096640	8	3949
2026-01-11 07:02:10.72	301.66	17.33	-24.3	-24.9	16.9	0.00e+00	0	42	0	2513436672	8	3868
2026-01-11 07:02:11.73	301.44	17.29	-24.4	-25.1	16.7	0.00e+00	0	42	0	2520776704	8	3925
2026-01-11 07:02:12.73	301.23	17.26	-24.4	-25.1	16.7	0.00e+00	0	42	0	2527068160	8	3915
2026-01-11 07:02:13.74	301.01	17.22	-24.3	-25.0	16.8	0.00e+00	0	42	0	2534408192	8	3906
2026-01-11 07:02:14.74	300.79	17.18	-24.4	-25.2	16.7	0.00e+00	0	42	0	2541748224	8	3938
2026-01-11 07:02:15.74	300.58	17.14	-24.5	-24.9	16.6	0.00e+00	0	42	0	2549088256	9	3770
2026-01-11 07:02:16.75	300.36	17.10	-24.7	-25.2	16.4	0.00e+00	0	42	0	2556428288	9	3852
2026-01-11 07:02:17.75	300.15	17.06	-24.7	-25.3	16.4	0.00e+00	0	42	0	2563768320	9	3852
2026-01-11 07:02:18.76	299.93	17.02	-24.7	-25.4	16.3	0.00e+00	0	42	0	2571108352	9	3886
2026-01-11 07:02:19.77	299.72	16.98	-24.6	-25.2	16.4	0.00e+00	0	42	0	2578448384	9	3837
2026-01-11 07:02:20.78	299.50	16.94	-24.7	-25.3	16.4	0.00e+00	0	42	0	2585788416	9	3864
2026-01-11 07:02:21.78	299.29	16.90	-24.6	-25.2	16.4	0.00e+00	0	42	0	2593128448	9	3833
2026-01-11 07:02:22.79	299.08	16.85	-24.7	-25.3	16.3	0.00e+00	0	42	0	2600468480	9	3865
2026-01-11 07:02:23.79	298.87	16.81	-24.7	-25.3	16.3	0.00e+00	0	42	0	2606759936	9	3875
2026-01-11 07:02:24.80	298.66	16.77	-24.8	-25.5	16.2	0.00e+00	0	42	0	2614099968	9	3926
2026-01-11 07:02:25.81	298.45	16.73	-24.8	-25.6	16.1	0.00e+00	0	42	0	2621440000	9	3941
2026-01-11 07:02:26.81	298.24	16.68	-24.7	-25.4	16.3	0.00e+00	0	42	0	2628780032	9	3880
2026-01-11 07:02:27.82	298.03	16.64	-24.9	-25.7	16.1	0.00e+00	0	42	0	2636120064	9	3962
2026-01-11 07:02:28.83	297.82	16.60	-24.7	-25.3	16.3	0.00e+00	0	42	0	2643460096	9	3852
2026-01-11 07:02:29.83	297.61	16.55	-24.7	-25.3	16.3	0.00e+00	0	42	0	2650800128	9	3856
2026-01-11 07:02:30.84	297.40	16.51	-24.9	-25.7	16.1	0.00e+00	0	42	0	2658140160	9	3959
2026-01-11 07:02:31.84	297.20	16.46	-24.8	-25.5	16.2	0.00e+00	0	42	0	2665480192	9	3906
2026-01-11 07:02:32.85	296.99	16.42	-24.7	-25.3	16.3	0.00e+00	0	42	0	2672820224	9	3860
2026-01-11 07:02:33.86	296.79	16.37	-24.7	-25.3	16.3	0.00e+00	0	42	0	2680160256	9	3871
2026-01-11 07:02:34.87	296.58	16.33	-24.7	-25.3	16.3	0.00e+00	0	42	0	2687500288	9	3861
2026-01-11 07:02:35.87	296.38	16.28	-24.7	-25.3	16.3	0.00e+00	0	42	0	2694840320	9	3870
2026-01-11 07:02:36.88	296.17	16.24	-24.6	-25.0	16.5	0.00e+00	0	42	0	2702180352	9	3791
2026-01-11 07:02:37.88	295.97	16.19	-24.6	-25.2	16.4	0.00e+00	0	42	0	2709520384	9	3832
2026-01-11 07:02:38.89	295.77	16.14	-24.6	-25.1	16.4	0.00e+00	0	42	0	2715811840	9	3810
2026-01-11 07:02:39.90	295.57	16.10	-24.5	-25.0	16.5	0.00e+00	0	42	0	2723151872	9	3796
2026-01-11 07:02:40.90	295.37	16.05	-24.6	-25.2	16.4	0.00e+00	0	42	0	2730491904	9	3832
2026-01-11 07:02:41.90	295.17	16.00	-24.6	-25.1	16.4	1.10e-06	0	42	0	2737831936	9	3807
2026-01-11 07:02:42.91	294.97	15.95	-24.5	-24.9	16.5	0.00e+00	0	42	0	2745171968	9	3772
2026-01-11 07:02:43.91	294.77	15.91	-24.6	-25.0	16.4	0.00e+00	0	42	0	2752512000	9	3803
2026-01-11 07:02:44.92	294.57	15.86	-24.8	-25.6	16.1	0.00e+00	0	42	0	2759852032	9	3933
2026-01-11 07:02:45.93	294.37	15.81	-24.7	-25.4	16.3	0.00e+00	0	42	0	2767192064	9	3887
2026-01-11 07:02:46.93	294.17	15.76	-24.6	-25.1	16.4	0.00e+00	0	42	0	2774532096	9	3818
2026-01-11 07:02:47.94	293.98	15.71	-24.8	-25.6	16.1	0.00e+00	0	42	0	2781872128	9	3933
2026-01-11 07:02:48.95	293.78	15.66	-24.6	-25.2	16.3	0.00e+00	0	42	0	2789212160	9	3853
2026-01-11 07:02:49.96	293.58	15.61	-24.8	-25.5	16.2	0.00e+00	0	42	0	2795503616	9	3914
2026-01-11 07:02:50.96	293.39	15.56	-24.8	-25.5	16.2	0.00e+00	0	42	0	2802843648	9	3914
2026-01-11 07:02:51.96	293.20	15.51	-24.9	-25.8	16.0	0.00e+00	0	42	0	2811232256	9	3987
2026-01-11 07:02:52.97	293.00	15.46	-24.8	-25.6	16.1	1.10e-06	0	42	0	2817523712	9	3934
2026-01-11 07:02:53.98	292.81	15.41	-25.0	-26.0	15.9	0.00e+00	0	42	0	2824863744	9	4030
2026-01-11 07:02:54.99	292.62	15.36	-24.8	-25.6	16.1	0.00e+00	0	42	0	2832203776	9	3929
2026-01-11 07:02:55.99	292.43	15.31	-24.9	-25.8	16.0	0.00e+00	0	42	0	2839543808	9	3981
2026-01-11 07:02:57.00	292.24	15.26	-25.2	-26.0	15.7	0.00e+00	0	42	0	2846883840	10	3919
2026-01-11 07:02:58.00	292.05	15.21	-25.5	-26.6	15.3	0.00e+00	0	42	0	2854223872	10	4069
2026-01-11 07:02:59.01	291.86	15.16	-25.3	-26.1	15.6	0.00e+00	0	42	0	2861563904	10	3958
2026-01-11 07:03:00.01	291.67	15.11	-25.1	-25.7	15.8	0.00e+00	0	42	0	2868903936	10	3859
2026-01-11 07:03:01.02	291.48	15.06	-25.2	-25.8	15.7	0.00e+00	0	42	0	2876243968	10	3890
2026-01-11 07:03:02.03	291.29	15.00	-25.3	-26.1	15.6	0.00e+00	0	42	0	2883584000	10	3950
2026-01-11 07:03:03.03	291.11	14.95	-25.2	-25.8	15.7	0.00e+00	0	42	0	2890924032	10	3888
2026-01-11 07:03:04.04	290.92	14.90	-25.5	-26.5	15.3	0.00e+00	0	42	0	2898264064	10	4064
2026-01-11 07:03:05.05	290.73	14.85	-25.3	-26.1	15.6	0.00e+00	0	42	0	2904555520	10	3945
2026-01-11 07:03:06.06	290.55	14.79	-25.1	-25.6	15.9	0.00e+00	0	42	0	2911895552	10	3830
2026-01-11 07:03:07.06	290.37	14.74	-24.8	-25.1	16.1	0.00e+00	0	42	0	2920284160	10	3730
2026-01-11 07:03:08.07	290.18	14.69	-24.9	-25.2	16.0	0.00e+00	0	42	0	2926575616	10	3749
2026-01-11 07:03:09.08	290.00	14.63	-24.9	-25.4	16.0	0.00e+00	0	42	0	2933915648	10	3778
2026-01-11 07:03:10.09	289.82	14.58	-25.1	-25.6	15.8	0.00e+00	0	42	0	2941255680	10	3841
2026-01-11 07:03:11.10	289.63	14.53	-24.9	-25.2	16.0	0.00e+00	0	42	0	2948595712	10	3744
2026-01-11 07:03:12.11	289.45	14.47	-24.9	-25.3	15.9	0.00e+00	0	42	0	2955935744	10	3776
2026-01-11 07:03:13.11	289.27	14.42	-24.9	-25.3	16.0	0.00e+00	0	42	0	2963275776	10	3757
2026-01-11 07:03:14.12	289.09	14.36	-25.0	-25.6	15.8	0.00e+00	0	42	0	2970615808	10	3837
2026-01-11 07:03:15.13	288.91	14.31	-25.1	-25.7	15.8	0.00e+00	0	42	0	2977955840	10	3856
2026-01-11 07:03:16.13	288.74	14.26	-25.3	-26.1	15.5	0.00e+00	0	42	0	2985295872	10	3953
2026-01-11 07:03:17.14	288.56	14.20	-25.1	-25.7	15.8	0.00e+00	0	42	0	2992635904	10	3848
2026-01-11 07:03:18.14	288.38	14.15	-25.2	-25.9	15.7	0.00e+00	0	42	0	2999975936	10	3912
2026-01-11 07:03:19.15	288.21	14.09	-25.3	-26.0	15.5	0.00e+00	0	42	0	3007315968	10	3944
2026-01-11 07:03:20.16	288.03	14.04	-25.4	-26.3	15.4	0.00e+00	0	42	0	3013607424	10	4002
2026-01-11 07:03:21.16	287.86	13.98	-25.3	-26.2	15.5	0.00e+00	0	42	0	3021996032	10	3972
2026-01-11 07:03:22.17	287.68	13.93	-25.5	-26.5	15.2	0.00e+00	0	42	0	3029336064	10	4059
2026-01-11 07:03:23.18	287.51	13.87	-25.3	-26.2	15.4	1.10e-06	0	42	0	3035627520	10	3980
2026-01-11 07:03:24.18	287.33	13.81	-25.2	-25.9	15.6	0.00e+00	0	42	0	3042967552	10	3921
2026-01-11 07:03:25.19	287.16	13.76	-25.3	-26.1	15.5	0.00e+00	0	42	0	3050307584	10	3952
2026-01-11 07:03:26.20	286.99	13.70	-25.3	-26.2	15.5	0.00e+00	0	42	0	3057647616	10	3974
2026-01-11 07:03:27.21	286.82	13.65	-25.2	-26.0	15.6	0.00e+00	0	42	0	3064987648	10	3923
2026-01-11 07:03:28.22	286.65	13.59	-25.2	-25.8	15.6	0.00e+00	0	42	0	3072327680	10	3898
2026-01-11 07:03:29.23	286.48	13.53	-25.1	-25.7	15.7	0.00e+00	0	42	0	3079667712	10	3871
2026-01-11 07:03:30.24	286.31	13.48	-25.3	-26.1	15.4	0.00e+00	0	42	0	3087007744	10	3969
2026-01-11 07:03:31.24	286.14	13.42	-25.2	-26.0	15.5	0.00e+00	0	42	0	3094347776	10	3932
2026-01-11 07:03:32.24	285.97	13.36	-25.2	-25.9	15.6	0.00e+00	0	42	0	3101687808	10	3915
2026-01-11 07:03:33.25	285.81	13.31	-25.2	-25.9	15.6	0.00e+00	0	42	0	3109027840	10	3919
2026-01-11 07:03:34.26	285.64	13.25	-25.2	-26.0	15.5	0.00e+00	0	42	0	3115319296	10	3943
2026-01-11 07:03:35.27	285.47	13.19	-25.5	-26.7	15.2	0.00e+00	0	42	0	3123707904	10	4098
2026-01-11 07:03:36.27	285.31	13.14	-25.3	-26.1	15.5	0.00e+00	0	42	0	3131047936	10	3949
2026-01-11 07:03:37.28	285.14	13.08	-25.1	-25.8	15.6	0.00e+00	0	42	0	3137339392	10	3891
2026-01-11 07:03:38.28	284.98	13.02	-25.3	-26.2	15.4	0.00e+00	0	42	0	3144679424	10	3971
2026-01-11 07:03:39.29	284.82	12.97	-25.2	-25.9	15.5	0.00e+00	0	42	0	3152019456	10	3921
2026-01-11 07:03:40.30	284.65	12.91	-25.2	-26.0	15.5	0.00e+00	0	42	0	3159359488	10	3926
2026-01-11 07:03:41.29	284.49	12.85	-25.3	-26.1	15.4	0.00e+00	0	42	0	3166699520	10	3967
2026-01-11 07:03:42.30	284.33	12.79	-25.2	-25.9	15.5	0.00e+00	0	42	0	3174039552	10	3913
2026-01-11 07:03:43.31	284.17	12.74	-25.2	-25.9	15.5	0.00e+00	0	42	0	3181379584	10	3908
2026-01-11 07:03:44.31	284.01	12.68	-25.4	-26.3	15.3	0.00e+00	0	42	0	3188719616	10	4018
2026-01-11 07:03:45.32	283.85	12.62	-25.3	-26.1	15.5	0.00e+00	0	42	0	3196059648	10	3949
2026-01-11 07:03:46.32	283.69	12.56	-25.4	-26.3	15.3	0.00e+00	0	42	0	3203399680	10	4017
2026-01-11 07:03:47.33	283.54	12.50	-25.4	-26.3	15.3	0.00e+00	0	42	0	3210739712	10	4004
2026-01-11 07:03:48.33	283.38	12.45	-25.4	-26.4	15.3	0.00e+00	0	42	0	3218079744	10	4035
2026-01-11 07:03:49.34	283.22	12.39	-25.4	-26.3	15.3	0.00e+00	0	42	0	3224371200	10	4011
2026-01-11 07:03:50.34	283.07	12.33	-25.4	-26.3	15.3	0.00e+00	0	42	0	3231711232	10	4016
2026-01-11 07:03:51.35	282.91	12.27	-25.4	-26.3	15.3	0.00e+00	0	42	0	3239051264	10	4011
2026-01-11 07:03:52.35	282.76	12.21	-25.5	-26.6	15.2	0.00e+00	0	42	0	3246391296	10	4078
2026-01-11 07:03:53.36	282.60	12.15	-25.6	-26.7	15.1	0.00e+00	0	42	0	3253731328	10	4122
2026-01-11 07:03:54.36	282.45	12.10	-25.7	-26.6	14.9	0.00e+00	0	42	0	3261071360	11	3976
2026-01-11 07:03:55.36	282.30	12.04	-25.8	-26.8	14.8	1.10e-06	0	42	0	3268411392	11	4024
2026-01-11 07:03:56.37	282.14	11.98	-25.9	-26.9	14.7	0.00e+00	0	42	0	3275751424	11	4061
2026-01-11 07:03:57.37	281.99	11.92	-26.0	-26.7	14.5	0.00e+00	0	42	0	3283091456	12	3889
2026-01-11 07:03:58.38	281.84	11.86	-25.8	-26.2	14.7	1.10e-06	0	42	0	3290431488	12	3786
2026-01-11 07:03:59.39	281.69	11.80	-25.5	-25.5	15.1	0.00e+00	0	42	0	3297771520	12	3629
2026-01-11 07:04:00.39	281.54	11.75	-25.6	-25.7	15.0	0.00e+00	0	42	0	3304062976	12	3674
2026-01-11 07:04:01.40	281.39	11.69	-25.5	-25.7	15.0	0.00e+00	0	42	0	3311403008	12	3676
2026-01-11 07:04:02.41	281.24	11.63	-25.6	-25.9	14.9	0.00e+00	0	42	0	3318743040	12	3707
2026-01-11 07:04:03.42	281.09	11.57	-25.8	-26.3	14.7	0.00e+00	0	42	0	3326083072	12	3809
2026-01-11 07:04:04.43	280.94	11.51	-25.7	-26.1	14.7	0.00e+00	0	42	0	3333423104	12	3775
2026-01-11 07:04:05.43	280.80	11.45	-25.7	-25.9	14.8	2.20e-06	0	42	0	3340763136	12	3723
2026-01-11 07:04:06.44	280.65	11.39	-25.9	-26.5	14.5	0.00e+00	0	42	0	3348103168	12	3863
2026-01-11 07:04:07.44	280.51	11.33	-25.9	-26.4	14.6	1.10e-06	0	42	0	3355443200	12	3839
2026-01-11 07:04:08.44	280.36	11.27	-25.8	-26.3	14.6	0.00e+00	0	42	0	3362783232	12	3805
2026-01-11 07:04:09.44	280.22	11.21	-25.8	-26.2	14.7	0.00e+00	0	42	0	3370123264	12	3793
2026-01-11 07:04:10.45	280.07	11.15	-25.8	-26.4	14.6	1.10e-06	0	42	0	3377463296	12	3825
2026-01-11 07:04:11.46	279.93	11.10	-25.9	-26.6	14.5	1.10e-06	0	42	0	3384803328	12	3885
2026-01-11 07:04:12.47	279.79	11.04	-26.0	-26.7	14.4	0.00e+00	0	42	0	3392143360	12	3904
2026-01-11 07:04:13.47	279.64	10.98	-26.1	-26.9	14.3	0.00e+00	0	42	0	3399483392	12	3947
2026-01-11 07:04:14.48	279.50	10.92	-25.9	-26.5	14.5	3.40e-06	0	42	0	3406823424	12	3867
2026-01-11 07:04:15.49	279.36	10.86	-25.9	-26.4	14.5	1.10e-06	0	42	0	3413114880	12	3840
2026-01-11 07:04:16.50	279.22	10.80	-25.9	-26.5	14.5	0.00e+00	0	42	0	3420454912	12	3866
2026-01-11 07:04:17.50	279.08	10.74	-26.3	-27.4	14.0	1.10e-06	0	42	0	3427794944	12	4079
2026-01-11 07:04:18.51	278.94	10.68	-26.3	-27.4	14.0	2.20e-06	0	42	0	3435134976	12	4095
2026-01-11 07:04:19.52	278.80	10.62	-26.2	-27.1	14.1	1.10e-06	0	42	0	3442475008	12	4010
2026-01-11 07:04:20.52	278.66	10.56	-26.1	-26.9	14.3	0.00e+00	0	42	0	3449815040	12	3947
2026-01-11 07:04:21.53	278.53	10.50	-26.1	-27.1	14.2	1.10e-06	0	42	0	3457155072	12	3998
2026-01-11 07:04:22.53	278.39	10.44	-26.7	-27.8	13.5	1.83e-05	0	42	0	3464495104	13	4094
2026-01-11 07:04:23.54	278.25	10.38	-26.5	-27.3	13.7	5.70e-06	0	42	0	3471835136	13	3960
2026-01-11 07:04:24.54	278.12	10.32	-26.6	-27.6	13.6	1.37e-05	0	42	0	3479175168	13	4020
2026-01-11 07:04:25.55	277.98	10.26	-26.8	-27.9	13.4	1.60e-05	0	42	0	3486515200	13	4122
2026-01-11 07:04:26.56	277.85	10.20	-26.4	-27.1	13.9	5.70e-06	0	42	0	3493855232	13	3901
2026-01-11 07:04:27.57	277.71	10.14	-26.2	-26.6	14.1	2.20e-06	0	42	0	3501195264	13	3773
2026-01-11 07:04:28.58	277.58	10.08	-26.1	-26.4	14.3	1.10e-06	0	42	0	3508535296	13	3730
2026-01-11 07:04:29.58	277.44	10.02	-26.0	-26.1	14.4	0.00e+00	0	42	0	3515875328	13	3671
2026-01-11 07:04:30.58	277.31	9.96	-26.0	-26.2	14.4	0.00e+00	0	42	0	3522166784	13	3699
2026-01-11 07:04:31.59	277.18	9.91	-25.9	-26.0	14.4	0.00e+00	0	42	0	3529506816	13	3650
2026-01-11 07:04:32.59	277.05	9.85	-25.9	-26.5	14.5	0.00e+00	0	43	0	3536846848	12	3855
2026-01-11 07:04:33.60	276.92	9.79	-26.0	-26.6	14.4	1.10e-06	0	42	0	3544186880	12	3897
2026-01-11 07:04:34.60	276.79	9.73	-26.0	-26.8	14.3	2.20e-06	0	42	0	3551526912	12	3933
2026-01-11 07:04:35.61	276.66	9.67	-26.0	-26.8	14.3	1.10e-06	0	42	0	3558866944	12	3930
2026-01-11 07:04:36.62	276.53	9.61	-25.9	-26.4	14.5	2.20e-06	0	42	0	3566206976	12	3837
2026-01-11 07:04:37.62	276.40	9.55	-25.9	-26.6	14.4	1.10e-06	0	42	0	3573547008	12	3888
2026-01-11 07:04:38.63	276.27	9.49	-26.0	-26.7	14.3	2.20e-06	0	42	0	3580887040	12	3914
2026-01-11 07:04:39.64	276.14	9.43	-25.9	-26.6	14.4	4.50e-06	0	42	0	3588227072	12	3890
2026-01-11 07:04:40.64	276.02	9.37	-26.0	-26.7	14.3	2.20e-06	0	42	0	3595567104	12	3913
2026-01-11 07:04:41.65	275.89	9.31	-25.9	-26.6	14.4	0.00e+00	0	43	0	3601858560	12	3878
2026-01-11 07:04:42.65	275.76	9.25	-25.9	-26.5	14.4	0.00e+00	0	42	0	3609198592	12	3877
2026-01-11 07:04:43.66	275.64	9.19	-26.1	-26.9	14.2	5.70e-06	0	42	0	3616538624	12	3956
2026-01-11 07:04:44.66	275.51	9.13	-26.2	-27.2	14.0	4.50e-06	0	43	0	3623878656	12	4037
2026-01-11 07:04:45.67	275.39	9.07	-26.2	-27.1	14.1	2.20e-06	0	42	0	3631218688	12	4007
2026-01-11 07:04:46.68	275.26	9.01	-26.2	-27.2	14.0	3.40e-06	0	42	0	3638558720	12	4041
2026-01-11 07:04:47.68	275.14	8.95	-25.9	-26.6	14.3	0.00e+00	0	42	0	3645898752	12	3879
2026-01-11 07:04:48.68	275.02	8.89	-26.0	-26.8	14.2	2.20e-06	0	42	0	3653238784	12	3937
2026-01-11 07:04:49.69	274.90	8.83	-26.5	-27.9	13.6	1.37e-05	0	42	0	3660578816	12	4221
2026-01-11 07:04:50.70	274.77	8.77	-26.6	-28.1	13.5	9.10e-06	0	42	0	3667918848	12	4275
2026-01-11 07:04:51.70	274.65	8.71	-27.2	-28.4	12.7	5.37e-05	0	42	0	3675258880	14	4161
2026-01-11 07:04:52.71	274.53	8.66	-27.2	-28.5	12.6	1.57e-04	0	42	0	3682598912	14	4170
2026-01-11 07:04:53.71	274.41	8.60	-26.7	-27.3	13.4	2.05e-05	0	43	0	3688890368	14	3859
2026-01-11 07:04:54.72	274.29	8.54	-26.3	-26.9	13.9	5.70e-06	0	43	0	3697278976	13	3862
2026-01-11 07:04:55.72	274.17	8.48	-26.6	-27.6	13.4	1.37e-05	0	42	0	3704619008	13	4039
2026-01-11 07:04:56.73	274.05	8.42	-26.6	-27.6	13.4	2.51e-05	0	42	0	3710910464	13	4044
2026-01-11 07:04:57.74	273.93	8.36	-26.6	-27.6	13.5	1.48e-05	0	42	0	3718250496	13	4027
2026-01-11 07:04:58.74	273.82	8.30	-26.5	-27.3	13.6	1.25e-05	0	42	0	3725590528	13	3957
2026-01-11 07:04:59.75	273.70	8.24	-26.4	-27.2	13.6	5.70e-06	0	42	0	3732930560	13	3931
2026-01-11 07:05:00.76	273.58	8.18	-26.8	-28.1	13.1	2.28e-05	0	42	0	3740270592	13	4167
2026-01-11 07:05:01.76	273.46	8.12	-26.3	-26.9	13.7	5.70e-06	0	42	0	3747610624	13	3861
2026-01-11 07:05:02.77	273.35	8.06	-26.4	-27.3	13.5	5.70e-06	0	42	0	3754950656	13	3954
2026-01-11 07:05:03.77	273.23	8.00	-26.4	-27.2	13.6	1.48e-05	0	42	0	3762290688	13	3938
2026-01-11 07:05:04.77	273.12	7.94	-26.4	-27.3	13.6	1.25e-05	0	42	0	3769630720	13	3962
2026-01-11 07:05:05.78	273.00	7.89	-26.8	-28.0	13.1	1.71e-05	0	42	0	3776970752	13	4164
2026-01-11 07:05:06.79	272.89	7.83	-27.0	-28.6	12.8	6.75e-05	0	42	0	3784310784	13	4325
2026-01-11 07:05:07.79	272.78	7.77	-26.9	-28.3	13.0	4.80e-05	0	42	0	3790602240	13	4230
2026-01-11 07:05:08.80	272.66	7.71	-26.8	-28.1	13.0	4.69e-05	0	42	0	3797942272	13	4178
2026-01-11 07:05:09.80	272.55	7.65	-26.6	-27.5	13.4	1.83e-05	0	42	0	3805282304	13	4031
2026-01-11 07:05:10.81	272.44	7.59	-26.7	-27.8	13.2	9.10e-06	0	42	0	3812622336	13	4086
2026-01-11 07:05:11.82	272.33	7.53	-26.7	-27.8	13.2	2.40e-05	0	42	0	3819962368	13	4084
2026-01-11 07:05:12.82	272.21	7.47	-26.4	-27.1	13.6	1.71e-05	0	42	0	3827302400	13	3913
2026-01-11 07:05:13.83	272.10	7.41	-26.7	-27.9	13.2	1.94e-05	0	42	0	3834642432	13	4114
2026-01-11 07:05:14.84	271.99	7.35	-26.4	-27.1	13.6	1.14e-05	0	42	0	3841982464	13	3923
2026-01-11 07:05:15.84	271.88	7.30	-26.5	-27.4	13.4	1.60e-05	0	42	0	3849322496	13	3984
2026-01-11 07:05:16.85	271.77	7.24	-26.7	-27.8	13.2	1.48e-05	0	42	0	3856662528	13	4098
2026-01-11 07:05:17.85	271.66	7.18	-26.5	-27.4	13.4	1.94e-05	0	42	0	3864002560	13	3983
2026-01-11 07:05:18.86	271.56	7.12	-26.5	-27.5	13.3	1.94e-05	0	42	0	3871342592	13	4034
2026-01-11 07:05:19.87	271.45	7.06	-32.6	-41.4	3.8	8.45e-01	0	42	104	3874488320	25	9847
2026-01-11 07:05:20.87	271.34	7.00	-33.0	-43.0	3.8	8.47e-01	0	42	104	3874488320	25	11282

#Closed at: 2026-01-11 07:05:21
#Recorded file [3874 MB]: D:/data/31010_260111_095622.dat