passes_logs/2026/01/11/R2M6_AANII_01/R2M6_AANII_01__20260111_051047_FENGYUN_3D_rec.log

#Pass ID: 20260111_051047_FENGYUN 3D
#Satellite: FENGYUN 3D
#Configuration: FENGYUN 3D
#almurnet v.1.7.20240730
#Start time: 2026-01-11 05:10:48

#Version: 2.2.20231116
#Station: R2M6_AANII_01
#Location: 30.233357 lon 59.946436 lat
#TLE: 1 43010U 17072A   26009.92921666 -.00000228  00000+0 -86059-4 0  9998
#TLE: 2 43010  98.9936 341.6668 0002176 116.7510 243.3888 14.19693142422537

#Time	Az	El	Level	Level2	SNR	BER	BlckErr	Temp	State	Recorded	gain1	gain2
2026-01-11 05:10:48.48	8.64	7.06	-31.8	-39.0	4.1	8.35e-01	0	39	0	0	23	8270
2026-01-11 05:10:49.49	8.52	7.11	-31.0	-35.9	4.7	8.03e-01	0	39	104	0	22	6301
2026-01-11 05:10:50.50	8.40	7.16	-31.0	-35.9	6.6	1.88e-01	0	39	0	0	22	6282
2026-01-11 05:10:51.50	8.28	7.21	-30.9	-36.0	6.9	2.03e-01	0	40	0	5242880	21	6433
2026-01-11 05:10:52.51	8.15	7.27	-31.1	-36.1	6.5	2.27e-01	0	40	0	10485760	22	6374
2026-01-11 05:10:53.51	8.03	7.32	-31.1	-35.9	6.6	2.48e-01	0	40	0	16777216	22	6304
2026-01-11 05:10:54.52	7.91	7.37	-31.0	-35.5	6.9	2.21e-01	0	40	0	22020096	22	6101
2026-01-11 05:10:55.52	7.78	7.42	-30.5	-34.6	7.8	1.17e-01	0	40	0	28311552	21	5768
2026-01-11 05:10:56.53	7.66	7.47	-29.9	-32.7	9.2	4.59e-02	0	40	0	33554432	21	4957
2026-01-11 05:10:57.54	7.53	7.52	-29.8	-33.3	9.5	1.83e-02	0	40	0	39845888	19	5389
2026-01-11 05:10:58.55	7.41	7.57	-29.4	-32.2	10.4	8.86e-03	0	40	0	45088768	19	4952
2026-01-11 05:10:59.55	7.28	7.63	-29.0	-31.2	11.0	2.39e-03	0	40	0	50331648	19	4606
2026-01-11 05:11:00.56	7.15	7.68	-28.4	-30.0	12.2	7.45e-04	0	40	0	56623104	18	4328
2026-01-11 05:11:01.57	7.03	7.73	-28.4	-30.5	12.1	3.78e-04	0	40	0	61865984	17	4591
2026-01-11 05:11:02.58	6.90	7.78	-28.3	-30.9	12.2	2.06e-04	0	40	0	67108864	16	4852
2026-01-11 05:11:03.57	6.77	7.83	-28.6	-31.0	11.8	4.63e-04	0	40	0	73400320	17	4768
2026-01-11 05:11:04.59	6.64	7.88	-28.6	-31.0	11.8	1.14e-03	0	40	0	78643200	17	4749
2026-01-11 05:11:05.59	6.51	7.93	-28.1	-30.3	12.6	2.16e-04	0	40	0	84934656	16	4639
2026-01-11 05:11:06.59	6.39	7.98	-28.1	-30.3	12.6	2.21e-04	0	40	0	90177536	16	4640
2026-01-11 05:11:07.60	6.25	8.04	-27.9	-29.9	12.8	1.12e-04	0	40	0	95420416	16	4514
2026-01-11 05:11:08.60	6.13	8.09	-27.5	-29.5	13.2	3.54e-05	0	40	0	101711872	15	4514
2026-01-11 05:11:09.61	5.99	8.14	-27.7	-30.0	12.9	5.72e-05	0	40	0	106954752	15	4683
2026-01-11 05:11:10.62	5.86	8.19	-27.6	-29.7	13.1	2.41e-04	0	40	0	113246208	15	4575
2026-01-11 05:11:11.62	5.73	8.24	-27.6	-29.6	13.2	5.03e-05	0	40	0	118489088	15	4536
2026-01-11 05:11:12.63	5.60	8.29	-27.0	-28.9	13.9	1.94e-05	0	40	0	123731968	14	4440
2026-01-11 05:11:13.64	5.47	8.34	-27.1	-29.0	13.8	8.00e-06	0	40	0	130023424	14	4488
2026-01-11 05:11:14.65	5.33	8.39	-27.1	-29.0	13.8	9.10e-06	0	40	0	135266304	14	4484
2026-01-11 05:11:15.66	5.20	8.44	-26.9	-29.1	14.1	1.92e-03	0	40	0	141557760	13	4614
2026-01-11 05:11:16.66	5.06	8.49	-27.1	-29.0	13.8	1.25e-05	0	40	0	146800640	14	4490
2026-01-11 05:11:17.67	4.93	8.54	-27.3	-29.4	13.6	1.93e-03	0	40	0	152043520	14	4604
2026-01-11 05:11:18.68	4.79	8.60	-27.1	-29.0	13.8	1.37e-05	0	40	0	158334976	14	4478
2026-01-11 05:11:19.68	4.66	8.65	-27.1	-29.0	13.9	2.36e-04	0	40	0	163577856	14	4478
2026-01-11 05:11:20.69	4.52	8.70	-27.0	-28.9	14.0	1.31e-03	0	40	0	169869312	14	4432
2026-01-11 05:11:21.69	4.39	8.75	-27.4	-29.6	13.5	2.11e-03	0	40	0	175112192	14	4650
2026-01-11 05:11:22.70	4.25	8.80	-27.2	-29.2	13.8	1.84e-04	0	40	0	180355072	14	4536
2026-01-11 05:11:23.71	4.11	8.85	-27.6	-29.6	13.2	2.24e-03	0	41	0	186646528	15	4554
2026-01-11 05:11:24.71	3.97	8.90	-27.5	-29.5	13.3	2.00e-03	0	40	0	191889408	15	4511
2026-01-11 05:11:25.72	3.83	8.95	-27.4	-29.1	13.5	2.40e-05	0	41	0	198180864	15	4403
2026-01-11 05:11:26.72	3.70	9.00	-27.7	-30.0	13.0	2.09e-03	0	41	0	203423744	15	4652
2026-01-11 05:11:27.73	3.56	9.05	-27.4	-29.2	13.4	2.22e-03	0	41	0	208666624	15	4431
2026-01-11 05:11:28.74	3.42	9.10	-27.6	-29.6	13.3	2.53e-04	0	41	0	214958080	15	4544
2026-01-11 05:11:29.75	3.27	9.15	-27.5	-29.5	13.3	2.30e-03	0	41	0	220200960	15	4510
2026-01-11 05:11:30.76	3.13	9.20	-27.3	-29.4	13.7	2.16e-03	0	40	0	226492416	14	4582
2026-01-11 05:11:31.77	2.99	9.25	-27.3	-29.5	13.6	2.28e-04	0	41	0	231735296	14	4627
2026-01-11 05:11:32.78	2.85	9.30	-27.9	-30.4	12.8	6.29e-05	0	41	0	236978176	15	4786
2026-01-11 05:11:33.79	2.71	9.35	-27.9	-29.7	13.1	2.20e-03	0	41	0	243269632	16	4434
2026-01-11 05:11:34.80	2.56	9.40	-27.2	-28.7	13.8	9.10e-06	0	40	0	248512512	15	4271
2026-01-11 05:11:35.81	2.42	9.45	-27.0	-28.7	14.1	1.91e-03	0	41	0	254803968	14	4375
2026-01-11 05:11:36.81	2.27	9.50	-26.8	-28.7	14.4	0.00e+00	0	41	0	260046848	13	4498
2026-01-11 05:11:37.82	2.13	9.55	-27.1	-29.0	13.9	1.32e-04	0	41	0	265289728	14	4471
2026-01-11 05:11:38.83	1.98	9.60	-26.9	-29.1	14.1	1.85e-03	0	41	0	271581184	13	4616
2026-01-11 05:11:39.84	1.84	9.65	-27.2	-29.3	13.8	6.80e-06	0	41	0	276824064	14	4567
2026-01-11 05:11:40.84	1.69	9.70	-27.2	-29.1	13.9	1.62e-04	0	41	0	283115520	14	4495
2026-01-11 05:11:41.85	1.55	9.74	-27.4	-29.7	13.6	2.63e-05	0	41	0	288358400	14	4679
2026-01-11 05:11:42.85	1.40	9.79	-27.1	-28.9	14.0	1.79e-03	0	41	0	294649856	14	4458
2026-01-11 05:11:43.86	1.25	9.84	-27.5	-29.8	13.5	1.04e-04	0	41	0	299892736	14	4706
2026-01-11 05:11:44.86	1.10	9.89	-27.1	-28.9	14.0	1.02e-05	0	41	0	305135616	14	4432
2026-01-11 05:11:45.87	0.96	9.94	-26.7	-28.6	14.5	0.00e+00	0	41	0	311427072	13	4461
2026-01-11 05:11:46.88	0.81	9.99	-26.6	-28.3	14.6	0.00e+00	0	41	0	316669952	13	4376
2026-01-11 05:11:47.88	0.66	10.04	-26.4	-28.3	14.9	1.89e-03	0	41	0	321912832	12	4503
2026-01-11 05:11:48.89	0.51	10.09	-26.5	-28.1	14.8	0.00e+00	0	41	0	328204288	13	4314
2026-01-11 05:11:49.90	0.36	10.13	-26.4	-27.9	14.9	1.23e-04	0	41	0	333447168	13	4277
2026-01-11 05:11:50.90	0.21	10.18	-26.4	-27.8	15.0	1.27e-04	0	41	0	339738624	13	4235
2026-01-11 05:11:51.91	0.05	10.23	-26.5	-28.5	14.8	0.00e+00	0	41	0	344981504	12	4553
2026-01-11 05:11:52.92	359.90	10.28	-26.3	-27.7	15.0	1.05e-04	0	41	0	350224384	13	4214
2026-01-11 05:11:53.92	359.75	10.33	-26.4	-28.3	15.0	1.12e-04	0	41	0	356515840	12	4484
2026-01-11 05:11:54.93	359.60	10.37	-26.4	-28.3	14.9	0.00e+00	0	41	0	361758720	12	4492
2026-01-11 05:11:55.93	359.44	10.42	-26.6	-28.2	14.7	5.60e-05	0	41	0	368050176	13	4359
2026-01-11 05:11:56.93	359.29	10.47	-26.6	-28.3	14.7	6.80e-06	0	41	0	373293056	13	4376
2026-01-11 05:11:57.94	359.13	10.52	-27.1	-29.0	14.0	0.00e+00	0	41	0	379584512	14	4471
2026-01-11 05:11:58.94	358.98	10.56	-26.8	-28.2	14.4	6.86e-05	0	41	0	384827392	14	4249
2026-01-11 05:11:59.95	358.82	10.61	-26.4	-27.9	14.9	7.78e-05	0	41	0	390070272	13	4277
2026-01-11 05:12:00.95	358.67	10.66	-26.1	-27.7	15.3	0.00e+00	0	41	0	396361728	12	4309
2026-01-11 05:12:01.96	358.51	10.71	-26.0	-27.4	15.5	8.81e-05	0	41	0	401604608	12	4249
2026-01-11 05:12:02.96	358.36	10.75	-26.0	-27.4	15.5	5.26e-05	0	41	0	406847488	12	4235
2026-01-11 05:12:03.97	358.20	10.80	-26.2	-28.0	15.1	0.00e+00	0	41	0	413138944	12	4407
2026-01-11 05:12:04.98	358.04	10.85	-26.3	-28.1	15.1	7.43e-05	0	41	0	418381824	12	4422
2026-01-11 05:12:05.99	357.88	10.89	-26.3	-28.2	15.1	0.00e+00	0	41	0	424673280	12	4449
2026-01-11 05:12:06.99	357.72	10.94	-26.2	-27.9	15.2	0.00e+00	0	41	0	429916160	12	4368
2026-01-11 05:12:08.00	357.56	10.99	-26.2	-28.0	15.1	0.00e+00	0	41	0	435159040	12	4410
2026-01-11 05:12:09.00	357.40	11.03	-26.1	-27.6	15.4	1.83e-04	0	41	0	441450496	12	4304
2026-01-11 05:12:10.01	357.24	11.08	-26.4	-28.4	15.0	0.00e+00	0	41	0	446693376	12	4520
2026-01-11 05:12:11.02	357.08	11.12	-26.1	-27.8	15.3	1.54e-04	0	41	0	452984832	12	4338
2026-01-11 05:12:12.02	356.92	11.17	-26.0	-27.6	15.4	1.76e-04	0	41	0	458227712	12	4286
2026-01-11 05:12:13.03	356.75	11.22	-26.0	-27.5	15.5	0.00e+00	0	41	0	463470592	12	4261
2026-01-11 05:12:14.04	356.59	11.26	-26.3	-28.2	15.1	1.91e-04	0	41	0	469762048	12	4462
2026-01-11 05:12:15.05	356.43	11.31	-26.1	-27.6	15.4	1.10e-06	0	41	0	475004928	12	4298
2026-01-11 05:12:16.05	356.26	11.35	-26.2	-27.9	15.3	0.00e+00	0	41	0	481296384	12	4373
2026-01-11 05:12:17.06	356.10	11.40	-26.1	-27.7	15.3	0.00e+00	0	41	0	486539264	12	4330
2026-01-11 05:12:18.07	355.93	11.44	-26.3	-28.2	15.1	0.00e+00	0	41	0	491782144	12	4459
2026-01-11 05:12:19.07	355.77	11.49	-26.2	-28.0	15.2	0.00e+00	0	41	0	498073600	12	4393
2026-01-11 05:12:20.07	355.60	11.53	-26.1	-27.6	15.4	0.00e+00	0	41	0	503316480	12	4290
2026-01-11 05:12:21.08	355.44	11.58	-25.9	-27.6	15.7	2.04e-04	0	41	0	508559360	11	4409
2026-01-11 05:12:22.08	355.27	11.62	-26.3	-28.1	15.1	0.00e+00	0	41	0	514850816	12	4435
2026-01-11 05:12:23.09	355.10	11.66	-26.0	-27.5	15.3	1.60e-04	0	41	0	520093696	12	4260
2026-01-11 05:12:24.09	354.93	11.71	-26.0	-27.5	15.5	0.00e+00	0	41	0	526385152	12	4256
2026-01-11 05:12:25.10	354.77	11.75	-26.1	-27.7	15.4	0.00e+00	0	41	0	531628032	12	4320
2026-01-11 05:12:26.10	354.60	11.80	-26.0	-27.4	15.5	0.00e+00	0	41	0	537919488	12	4244
2026-01-11 05:12:27.11	354.43	11.84	-26.1	-27.8	15.4	0.00e+00	0	41	0	543162368	12	4335
2026-01-11 05:12:28.11	354.26	11.88	-26.3	-28.0	15.2	1.86e-04	0	41	0	548405248	12	4408
2026-01-11 05:12:29.12	354.09	11.93	-26.1	-27.7	15.4	0.00e+00	0	41	0	554696704	12	4326
2026-01-11 05:12:30.13	353.91	11.97	-26.5	-28.2	14.9	9.37e-04	0	41	0	559939584	13	4335
2026-01-11 05:12:31.14	353.74	12.01	-26.2	-27.9	15.3	0.00e+00	0	41	0	566231040	12	4381
2026-01-11 05:12:32.14	353.57	12.06	-26.0	-27.5	15.5	8.81e-04	0	41	0	571473920	12	4260
2026-01-11 05:12:33.15	353.40	12.10	-26.2	-27.9	15.3	0.00e+00	0	41	0	576716800	12	4374
2026-01-11 05:12:34.14	353.23	12.14	-26.1	-27.6	15.5	0.00e+00	0	42	0	583008256	12	4305
2026-01-11 05:12:35.15	353.05	12.18	-26.0	-27.4	15.6	7.78e-04	0	41	0	588251136	12	4249
2026-01-11 05:12:36.16	352.88	12.22	-25.9	-27.2	15.6	0.00e+00	0	41	0	593494016	12	4197
2026-01-11 05:12:37.16	352.70	12.27	-25.9	-27.2	15.7	1.11e-04	0	41	0	599785472	12	4177
2026-01-11 05:12:38.17	352.53	12.31	-25.9	-27.7	15.8	0.00e+00	0	41	0	605028352	11	4428
2026-01-11 05:12:39.18	352.35	12.35	-25.8	-27.0	15.8	7.31e-04	0	41	0	611319808	12	4130
2026-01-11 05:12:40.18	352.18	12.39	-25.8	-27.0	15.8	2.20e-06	0	41	0	616562688	12	4125
2026-01-11 05:12:41.19	352.00	12.43	-25.9	-27.7	15.7	7.44e-04	0	41	0	622854144	11	4426
2026-01-11 05:12:42.19	351.82	12.47	-25.9	-27.7	15.8	7.31e-04	0	42	0	628097024	11	4423
2026-01-11 05:12:43.20	351.65	12.51	-25.8	-27.4	15.9	0.00e+00	0	41	0	633339904	11	4356
2026-01-11 05:12:44.20	351.47	12.55	-25.8	-27.4	15.9	7.38e-04	0	41	0	639631360	11	4351
2026-01-11 05:12:45.21	351.29	12.59	-25.9	-27.3	15.7	7.97e-04	0	41	0	644874240	12	4206
2026-01-11 05:12:46.21	351.11	12.63	-25.9	-27.2	15.7	0.00e+00	0	41	0	650117120	12	4185
2026-01-11 05:12:47.22	350.93	12.67	-26.0	-27.9	15.7	7.94e-04	0	41	0	656408576	11	4480
2026-01-11 05:12:48.22	350.75	12.71	-26.0	-27.4	15.6	9.44e-04	0	41	0	661651456	12	4229
2026-01-11 05:12:49.23	350.57	12.75	-26.0	-27.5	15.5	0.00e+00	0	41	0	666894336	12	4275
2026-01-11 05:12:50.24	350.39	12.79	-25.9	-27.2	15.7	9.89e-04	0	41	0	673185792	12	4177
2026-01-11 05:12:51.25	350.21	12.83	-25.9	-27.6	15.8	1.09e-03	0	41	0	678428672	11	4405
2026-01-11 05:12:52.25	350.03	12.87	-26.1	-27.8	15.4	0.00e+00	0	41	0	684720128	12	4340
2026-01-11 05:12:53.26	349.84	12.91	-25.8	-26.9	15.9	1.17e-03	0	42	0	689963008	12	4110
2026-01-11 05:12:54.26	349.66	12.94	-25.9	-27.8	15.7	1.11e-03	0	42	0	696254464	11	4461
2026-01-11 05:12:55.27	349.48	12.98	-25.8	-27.5	15.9	8.12e-05	0	41	0	701497344	11	4362
2026-01-11 05:12:56.28	349.29	13.02	-25.9	-27.6	15.8	1.07e-03	0	41	0	707788800	11	4412
2026-01-11 05:12:57.29	349.11	13.06	-25.9	-27.2	15.7	0.00e+00	0	42	0	713031680	12	4184
2026-01-11 05:12:58.30	348.92	13.09	-25.7	-26.7	16.0	1.10e-06	0	41	0	718274560	12	4066
2026-01-11 05:12:59.31	348.73	13.13	-25.7	-27.2	16.1	0.00e+00	0	41	0	724566016	11	4279
2026-01-11 05:13:00.31	348.55	13.17	-25.6	-27.0	16.2	8.33e-04	0	41	0	729808896	11	4225
2026-01-11 05:13:01.32	348.36	13.21	-25.5	-26.9	16.2	0.00e+00	0	42	0	735051776	11	4206
2026-01-11 05:13:02.32	348.18	13.24	-25.7	-27.2	16.1	0.00e+00	0	41	0	741343232	11	4299
2026-01-11 05:13:03.32	347.99	13.28	-25.7	-27.3	16.0	0.00e+00	0	42	0	746586112	11	4325
2026-01-11 05:13:04.33	347.80	13.31	-25.6	-27.0	16.2	0.00e+00	0	41	0	751828992	11	4247
2026-01-11 05:13:05.33	347.61	13.35	-25.7	-27.2	16.1	3.92e-04	0	42	0	758120448	11	4283
2026-01-11 05:13:06.34	347.42	13.38	-25.6	-27.0	16.2	0.00e+00	0	42	0	763363328	11	4240
2026-01-11 05:13:07.34	347.24	13.42	-25.3	-26.4	16.5	0.00e+00	0	42	0	769654784	11	4082
2026-01-11 05:13:08.34	347.05	13.45	-25.3	-26.8	16.6	0.00e+00	0	42	0	774897664	10	4300
2026-01-11 05:13:09.34	346.86	13.49	-25.4	-27.1	16.5	0.00e+00	0	42	0	781189120	10	4374
2026-01-11 05:13:10.35	346.67	13.52	-25.6	-27.0	16.2	1.51e-04	0	41	0	786432000	11	4224
2026-01-11 05:13:11.35	346.48	13.56	-25.7	-27.3	16.1	0.00e+00	0	42	0	791674880	11	4307
2026-01-11 05:13:12.36	346.29	13.59	-26.0	-27.5	15.6	0.00e+00	0	42	0	797966336	12	4264
2026-01-11 05:13:13.36	346.09	13.62	-25.7	-26.7	16.0	0.00e+00	0	42	0	803209216	12	4055
2026-01-11 05:13:14.37	345.90	13.66	-25.6	-27.1	16.2	0.00e+00	0	42	0	808452096	11	4263
2026-01-11 05:13:15.37	345.71	13.69	-25.7	-27.2	16.1	0.00e+00	0	42	0	814743552	11	4287
2026-01-11 05:13:16.38	345.52	13.72	-25.3	-26.4	16.6	0.00e+00	0	42	0	819986432	11	4072
2026-01-11 05:13:17.39	345.32	13.75	-25.4	-26.6	16.5	1.41e-04	0	42	0	826277888	11	4117
2026-01-11 05:13:18.39	345.13	13.79	-25.5	-26.8	16.3	0.00e+00	0	42	0	831520768	11	4180
2026-01-11 05:13:19.39	344.94	13.82	-25.4	-26.7	16.4	1.66e-04	0	42	0	837812224	11	4153
2026-01-11 05:13:20.40	344.74	13.85	-25.6	-26.9	16.3	0.00e+00	0	42	0	843055104	11	4218
2026-01-11 05:13:21.40	344.55	13.88	-25.6	-27.0	16.2	0.00e+00	0	42	0	848297984	11	4226
2026-01-11 05:13:22.40	344.35	13.91	-25.6	-27.0	16.2	1.46e-04	0	42	0	854589440	11	4240
2026-01-11 05:13:23.41	344.15	13.94	-25.5	-26.7	16.4	1.59e-04	0	41	0	859832320	11	4157
2026-01-11 05:13:24.41	343.96	13.97	-25.6	-27.0	16.2	0.00e+00	0	42	0	865075200	11	4230
2026-01-11 05:13:25.42	343.76	14.00	-25.3	-26.5	16.5	0.00e+00	0	42	0	871366656	11	4097
2026-01-11 05:13:26.43	343.56	14.03	-25.3	-26.8	16.6	1.58e-04	0	42	0	876609536	10	4287
2026-01-11 05:13:27.43	343.37	14.06	-25.3	-26.9	16.6	0.00e+00	0	42	0	881852416	10	4315
2026-01-11 05:13:28.43	343.17	14.09	-25.4	-27.0	16.5	1.29e-04	0	42	0	888143872	10	4353
2026-01-11 05:13:29.43	342.97	14.12	-25.4	-27.1	16.5	1.01e-04	0	42	0	893386752	10	4388
2026-01-11 05:13:30.44	342.77	14.15	-25.4	-26.5	16.5	0.00e+00	0	42	0	899678208	11	4114
2026-01-11 05:13:31.45	342.57	14.17	-25.4	-26.7	16.5	8.12e-05	0	42	0	904921088	11	4150
2026-01-11 05:13:32.45	342.37	14.20	-25.6	-26.9	16.3	9.72e-05	0	42	0	911212544	11	4222
2026-01-11 05:13:33.46	342.17	14.23	-25.5	-26.8	16.4	0.00e+00	0	42	0	916455424	11	4187
2026-01-11 05:13:34.47	341.97	14.26	-25.4	-26.6	16.5	1.76e-04	0	42	0	921698304	11	4119
2026-01-11 05:13:35.48	341.77	14.28	-25.5	-26.7	16.4	1.91e-04	0	42	0	927989760	11	4150
2026-01-11 05:13:36.48	341.57	14.31	-25.5	-27.2	16.4	0.00e+00	0	42	0	933232640	10	4417
2026-01-11 05:13:37.48	341.37	14.34	-25.7	-27.3	16.1	1.57e-04	0	42	0	938475520	11	4304
2026-01-11 05:13:38.49	341.17	14.36	-25.8	-26.9	16.0	1.65e-04	0	42	0	944766976	12	4090
2026-01-11 05:13:39.50	340.96	14.39	-25.5	-26.8	16.3	0.00e+00	0	42	0	950009856	11	4193
2026-01-11 05:13:40.51	340.76	14.41	-25.3	-26.4	16.6	9.61e-05	0	42	0	956301312	11	4071
2026-01-11 05:13:41.51	340.56	14.44	-25.3	-26.8	16.7	0.00e+00	0	42	0	961544192	10	4284
2026-01-11 05:13:42.52	340.35	14.46	-25.4	-27.0	16.6	0.00e+00	0	42	0	966787072	10	4354
2026-01-11 05:13:43.52	340.15	14.49	-25.3	-27.0	16.6	0.00e+00	0	42	0	973078528	10	4329
2026-01-11 05:13:44.53	339.95	14.51	-25.1	-26.5	16.8	0.00e+00	0	42	0	978321408	10	4212
2026-01-11 05:13:45.54	339.74	14.53	-25.1	-26.5	16.9	1.36e-04	0	42	0	984612864	10	4202
2026-01-11 05:13:46.55	339.54	14.56	-25.1	-26.4	16.9	0.00e+00	0	42	0	989855744	10	4189
2026-01-11 05:13:47.55	339.33	14.58	-25.1	-26.5	16.8	1.27e-04	0	42	0	996147200	10	4209
2026-01-11 05:13:48.56	339.13	14.60	-25.1	-26.5	16.8	0.00e+00	0	42	0	1001390080	10	4214
2026-01-11 05:13:49.56	338.92	14.63	-25.3	-26.9	16.6	1.94e-04	0	42	0	1006632960	10	4307
2026-01-11 05:13:50.56	338.72	14.65	-25.3	-26.9	16.6	2.86e-05	0	42	0	1012924416	10	4326
2026-01-11 05:13:51.57	338.51	14.67	-25.3	-26.8	16.6	0.00e+00	0	42	0	1018167296	10	4301
2026-01-11 05:13:52.58	338.30	14.69	-25.2	-26.6	16.8	1.48e-03	0	42	0	1023410176	10	4235
2026-01-11 05:13:53.58	338.10	14.71	-25.1	-26.4	16.9	0.00e+00	0	42	0	1029701632	10	4176
2026-01-11 05:13:54.59	337.89	14.73	-25.1	-26.4	16.9	8.69e-05	0	42	0	1034944512	10	4173
2026-01-11 05:13:55.60	337.68	14.75	-25.1	-26.5	16.8	0.00e+00	0	42	0	1041235968	10	4217
2026-01-11 05:13:56.61	337.47	14.77	-25.2	-26.7	16.7	0.00e+00	0	42	0	1046478848	10	4267
2026-01-11 05:13:57.61	337.26	14.79	-25.3	-26.9	16.6	5.72e-05	0	42	0	1051721728	10	4324
2026-01-11 05:13:58.62	337.06	14.81	-25.4	-27.0	16.5	0.00e+00	0	42	0	1058013184	10	4346
2026-01-11 05:13:59.62	336.85	14.83	-25.3	-26.8	16.7	1.50e-03	0	42	0	1063256064	10	4290
2026-01-11 05:14:00.64	336.64	14.85	-25.2	-26.7	16.7	0.00e+00	0	42	0	1069547520	10	4256
2026-01-11 05:14:01.64	336.43	14.86	-25.1	-26.4	16.9	1.45e-03	0	42	0	1074790400	10	4193
2026-01-11 05:14:02.65	336.22	14.88	-25.3	-26.8	16.6	1.48e-03	0	42	0	1081081856	10	4303
2026-01-11 05:14:03.65	336.01	14.90	-25.4	-27.0	16.5	4.34e-05	0	42	0	1086324736	10	4343
2026-01-11 05:14:04.66	335.80	14.92	-25.2	-26.7	16.7	1.59e-03	0	42	0	1091567616	10	4251
2026-01-11 05:14:05.67	335.59	14.93	-25.2	-26.7	16.7	1.57e-03	0	42	0	1097859072	10	4272
2026-01-11 05:14:06.68	335.38	14.95	-25.3	-26.8	16.7	1.25e-05	0	42	0	1103101952	10	4290
2026-01-11 05:14:07.69	335.17	14.96	-25.2	-26.7	16.7	1.07e-03	0	42	0	1109393408	10	4269
2026-01-11 05:14:08.70	334.95	14.98	-25.1	-26.5	16.8	1.64e-03	0	42	0	1114636288	10	4223
2026-01-11 05:14:09.70	334.74	14.99	-25.2	-26.6	16.8	2.05e-05	0	42	0	1119879168	10	4234
2026-01-11 05:14:10.71	334.53	15.01	-25.1	-26.5	16.8	1.62e-03	0	42	0	1126170624	10	4209
2026-01-11 05:14:11.72	334.32	15.02	-24.9	-26.0	17.2	1.59e-03	0	42	0	1131413504	10	4073
2026-01-11 05:14:12.72	334.11	15.04	-24.7	-25.7	17.3	2.20e-06	0	42	0	1136656384	10	3999
2026-01-11 05:14:13.72	333.90	15.05	-24.7	-26.0	17.4	1.50e-03	0	42	0	1142947840	9	4188
2026-01-11 05:14:14.73	333.69	15.06	-24.7	-26.0	17.4	0.00e+00	0	42	0	1148190720	9	4185
2026-01-11 05:14:15.73	333.48	15.07	-24.8	-26.2	17.3	0.00e+00	0	42	0	1154482176	9	4242
2026-01-11 05:14:16.74	333.26	15.09	-24.6	-25.9	17.4	0.00e+00	0	42	0	1159725056	9	4183
2026-01-11 05:14:17.74	333.05	15.10	-24.7	-26.1	17.3	1.42e-03	0	42	0	1166016512	9	4227
2026-01-11 05:14:18.75	332.84	15.11	-24.7	-26.0	17.3	0.00e+00	0	42	0	1171259392	9	4201
2026-01-11 05:14:19.75	332.63	15.12	-24.7	-26.1	17.3	0.00e+00	0	42	0	1176502272	9	4222
2026-01-11 05:14:20.75	332.41	15.13	-24.7	-26.1	17.3	1.44e-03	0	42	0	1182793728	9	4223
2026-01-11 05:14:21.76	332.20	15.14	-24.9	-26.5	17.0	0.00e+00	0	42	0	1188036608	9	4335
2026-01-11 05:14:22.77	331.99	15.15	-24.9	-26.4	17.1	1.47e-03	0	42	0	1193279488	9	4302
2026-01-11 05:14:23.78	331.77	15.16	-24.9	-26.4	17.1	0.00e+00	0	42	0	1199570944	9	4308
2026-01-11 05:14:24.78	331.56	15.17	-24.8	-26.4	17.2	0.00e+00	0	42	0	1204813824	9	4291
2026-01-11 05:14:25.79	331.34	15.18	-24.8	-26.2	17.2	0.00e+00	0	42	0	1211105280	9	4256
2026-01-11 05:14:26.80	331.13	15.19	-24.9	-26.4	17.1	0.00e+00	0	42	0	1216348160	9	4300
2026-01-11 05:14:27.80	330.92	15.19	-24.8	-26.3	17.2	0.00e+00	0	42	0	1221591040	9	4271
2026-01-11 05:14:28.81	330.70	15.20	-24.8	-26.3	17.2	0.00e+00	0	42	0	1227882496	9	4268
2026-01-11 05:14:29.82	330.49	15.21	-25.0	-26.7	17.0	1.37e-03	0	42	0	1233125376	9	4372
2026-01-11 05:14:30.83	330.27	15.22	-24.9	-26.1	17.1	0.00e+00	0	42	0	1239416832	10	4105
2026-01-11 05:14:31.84	330.06	15.22	-24.9	-26.1	17.0	0.00e+00	0	42	0	1244659712	10	4109
2026-01-11 05:14:32.84	329.84	15.23	-24.9	-26.1	17.1	0.00e+00	0	42	0	1250951168	10	4099
2026-01-11 05:14:33.85	329.63	15.23	-25.0	-26.2	17.0	0.00e+00	0	42	0	1256194048	10	4133
2026-01-11 05:14:34.86	329.41	15.24	-25.1	-26.3	16.9	0.00e+00	0	42	0	1261436928	10	4168
2026-01-11 05:14:35.87	329.20	15.24	-24.9	-26.0	17.1	0.00e+00	0	42	0	1267728384	10	4095
2026-01-11 05:14:36.87	328.98	15.25	-24.8	-25.8	17.2	0.00e+00	0	42	0	1272971264	10	4029
2026-01-11 05:14:37.88	328.77	15.25	-25.0	-26.6	17.0	0.00e+00	0	42	0	1279262720	9	4354
2026-01-11 05:14:38.89	328.55	15.25	-25.0	-26.3	16.9	0.00e+00	0	42	0	1284505600	10	4158
2026-01-11 05:14:39.89	328.34	15.26	-25.1	-26.5	16.8	0.00e+00	0	42	0	1289748480	10	4223
2026-01-11 05:14:40.90	328.12	15.26	-25.1	-26.5	16.8	2.07e-04	0	42	0	1296039936	10	4205
2026-01-11 05:14:41.90	327.91	15.26	-25.0	-26.3	16.9	0.00e+00	0	42	0	1301282816	10	4156
2026-01-11 05:14:42.91	327.69	15.26	-24.9	-26.1	17.1	0.00e+00	0	42	0	1306525696	10	4098
2026-01-11 05:14:43.92	327.48	15.27	-25.0	-26.2	17.0	0.00e+00	0	42	0	1312817152	10	4143
2026-01-11 05:14:44.92	327.26	15.27	-24.8	-25.8	17.2	0.00e+00	0	42	0	1318060032	10	4044
2026-01-11 05:14:45.93	327.05	15.27	-24.8	-25.7	17.2	1.58e-04	0	42	0	1324351488	10	4011
2026-01-11 05:14:46.92	326.84	15.27	-24.9	-26.4	17.1	0.00e+00	0	42	0	1329594368	9	4305
2026-01-11 05:14:47.93	326.62	15.27	-24.8	-26.3	17.2	0.00e+00	0	42	0	1334837248	9	4283
2026-01-11 05:14:48.94	326.40	15.27	-25.0	-26.7	17.0	0.00e+00	0	42	0	1341128704	9	4382
2026-01-11 05:14:49.94	326.19	15.26	-25.0	-26.1	17.0	1.61e-04	0	42	0	1346371584	10	4120
2026-01-11 05:14:50.94	325.98	15.26	-25.0	-26.1	17.0	0.00e+00	0	42	0	1352663040	10	4117
2026-01-11 05:14:51.94	325.76	15.26	-25.1	-26.5	16.8	6.40e-05	0	42	0	1357905920	10	4212
2026-01-11 05:14:52.95	325.55	15.26	-25.0	-26.2	17.0	0.00e+00	0	42	0	1363148800	10	4143
2026-01-11 05:14:53.95	325.33	15.26	-25.1	-26.4	16.9	0.00e+00	0	42	0	1369440256	10	4189
2026-01-11 05:14:54.96	325.12	15.25	-25.1	-26.3	16.9	0.00e+00	0	42	0	1374683136	10	4170
2026-01-11 05:14:55.96	324.90	15.25	-25.1	-26.4	16.9	0.00e+00	0	42	0	1379926016	10	4175
2026-01-11 05:14:56.96	324.69	15.25	-25.1	-26.5	16.8	0.00e+00	0	42	0	1386217472	10	4210
2026-01-11 05:14:57.97	324.47	15.24	-24.9	-26.0	17.1	1.27e-04	0	42	0	1391460352	10	4074
2026-01-11 05:14:58.98	324.26	15.24	-24.8	-25.7	17.2	1.52e-04	0	42	0	1397751808	10	4020
2026-01-11 05:14:59.98	324.04	15.23	-24.7	-26.1	17.3	0.00e+00	0	42	0	1402994688	9	4219
2026-01-11 05:15:00.99	323.83	15.23	-24.7	-26.0	17.3	1.69e-04	0	42	0	1409286144	9	4192
2026-01-11 05:15:02.00	323.61	15.22	-24.9	-26.4	17.1	1.80e-04	0	42	0	1414529024	9	4310
2026-01-11 05:15:03.01	323.40	15.21	-24.7	-26.2	17.2	0.00e+00	0	42	0	1419771904	9	4237
2026-01-11 05:15:04.01	323.19	15.21	-24.8	-26.2	17.2	2.23e-04	0	42	0	1426063360	9	4244
2026-01-11 05:15:05.02	322.97	15.20	-24.8	-26.3	17.2	2.54e-04	0	42	0	1431306240	9	4262
2026-01-11 05:15:06.03	322.75	15.19	-25.0	-26.3	16.9	0.00e+00	0	42	0	1436549120	10	4154
2026-01-11 05:15:07.04	322.54	15.18	-24.9	-26.0	17.1	2.38e-04	0	42	0	1442840576	10	4089
2026-01-11 05:15:08.04	322.33	15.18	-24.8	-26.3	17.2	2.18e-04	0	42	0	1448083456	9	4271
2026-01-11 05:15:09.04	322.11	15.17	-24.7	-26.1	17.3	0.00e+00	0	42	0	1454374912	9	4229
2026-01-11 05:15:10.05	321.90	15.16	-24.7	-26.0	17.3	1.12e-03	0	42	0	1459617792	9	4191
2026-01-11 05:15:11.06	321.69	15.15	-24.7	-26.1	17.2	8.92e-05	0	42	0	1464860672	9	4233
2026-01-11 05:15:12.06	321.47	15.14	-24.7	-26.1	17.3	0.00e+00	0	42	0	1471152128	9	4221
2026-01-11 05:15:13.07	321.26	15.13	-24.9	-26.5	17.1	1.67e-04	0	42	0	1476395008	9	4313
2026-01-11 05:15:14.07	321.05	15.12	-24.9	-26.5	17.0	2.15e-04	0	42	0	1482686464	9	4337
2026-01-11 05:15:15.07	320.84	15.11	-24.9	-26.6	17.0	0.00e+00	0	42	0	1487929344	9	4345
2026-01-11 05:15:16.08	320.62	15.10	-25.0	-26.7	17.0	3.24e-04	0	42	0	1493172224	9	4371
2026-01-11 05:15:17.08	320.41	15.08	-25.0	-26.7	17.0	1.61e-03	0	42	0	1499463680	9	4377
2026-01-11 05:15:18.09	320.20	15.07	-25.0	-26.7	17.0	0.00e+00	0	42	0	1504706560	9	4372
2026-01-11 05:15:19.09	319.99	15.06	-25.0	-26.2	17.0	1.47e-03	0	42	0	1510998016	10	4128
2026-01-11 05:15:20.10	319.77	15.05	-25.2	-26.5	16.8	1.75e-04	0	42	0	1516240896	10	4216
2026-01-11 05:15:21.11	319.56	15.03	-25.4	-27.1	16.5	2.12e-04	0	42	0	1521483776	10	4377
2026-01-11 05:15:22.11	319.35	15.02	-25.3	-26.8	16.6	1.22e-03	0	42	0	1527775232	10	4289
2026-01-11 05:15:23.12	319.14	15.00	-25.3	-26.9	16.6	8.23e-05	0	42	0	1533018112	10	4307
2026-01-11 05:15:24.12	318.93	14.99	-25.2	-26.5	16.8	1.62e-04	0	42	0	1538260992	10	4229
2026-01-11 05:15:25.12	318.72	14.98	-25.2	-26.7	16.7	2.28e-05	0	42	0	1544552448	10	4262
2026-01-11 05:15:26.13	318.51	14.96	-25.4	-27.0	16.5	1.08e-03	0	42	0	1549795328	10	4341
2026-01-11 05:15:27.14	318.29	14.94	-25.2	-26.6	16.7	1.10e-04	0	42	0	1556086784	10	4250
2026-01-11 05:15:28.14	318.09	14.93	-25.0	-26.3	16.9	9.78e-04	0	42	0	1561329664	10	4161
2026-01-11 05:15:29.15	317.87	14.91	-25.0	-26.3	16.9	9.27e-04	0	42	0	1567621120	10	4164
2026-01-11 05:15:30.15	317.67	14.89	-24.9	-26.0	17.1	1.34e-04	0	42	0	1572864000	10	4090
2026-01-11 05:15:31.16	317.45	14.88	-24.6	-25.9	17.3	8.54e-04	0	42	0	1578106880	9	4178
2026-01-11 05:15:32.17	317.24	14.86	-24.5	-25.7	17.5	8.83e-04	0	42	0	1584398336	9	4108
2026-01-11 05:15:33.17	317.04	14.84	-24.6	-25.9	17.4	1.19e-04	0	42	0	1589641216	9	4175
2026-01-11 05:15:34.18	316.83	14.82	-24.8	-26.4	17.1	1.21e-03	0	42	0	1594884096	9	4299
2026-01-11 05:15:35.19	316.62	14.80	-24.6	-25.9	17.3	1.13e-03	0	42	0	1601175552	9	4182
2026-01-11 05:15:36.19	316.41	14.79	-24.6	-25.9	17.3	1.48e-04	0	42	0	1606418432	9	4180
2026-01-11 05:15:37.20	316.20	14.77	-24.7	-26.0	17.3	1.12e-03	0	42	0	1612709888	9	4199
2026-01-11 05:15:38.21	315.99	14.75	-24.7	-26.0	17.3	1.28e-03	0	42	0	1617952768	9	4205
2026-01-11 05:15:39.21	315.79	14.73	-24.8	-26.2	17.2	0.00e+00	0	42	0	1623195648	9	4249
2026-01-11 05:15:40.22	315.58	14.71	-24.8	-26.2	17.2	1.33e-03	0	42	0	1629487104	9	4251
2026-01-11 05:15:41.23	315.37	14.68	-24.9	-26.6	17.0	0.00e+00	0	42	0	1634729984	9	4356
2026-01-11 05:15:42.23	315.16	14.66	-24.9	-26.6	17.0	2.41e-04	0	42	0	1641021440	9	4350
2026-01-11 05:15:43.23	314.96	14.64	-25.1	-26.4	16.8	6.46e-04	0	42	0	1646264320	10	4182
2026-01-11 05:15:44.24	314.75	14.62	-25.0	-26.3	16.9	2.04e-04	0	42	0	1652555776	10	4152
2026-01-11 05:15:45.24	314.55	14.60	-25.0	-26.3	16.9	0.00e+00	0	42	0	1657798656	10	4163
2026-01-11 05:15:46.25	314.34	14.58	-25.1	-26.4	16.8	0.00e+00	0	42	0	1663041536	10	4192
2026-01-11 05:15:47.26	314.13	14.55	-24.9	-26.1	17.0	1.44e-03	0	42	0	1669332992	10	4097
2026-01-11 05:15:48.27	313.93	14.53	-24.8	-25.9	17.1	0.00e+00	0	42	0	1674575872	10	4049
2026-01-11 05:15:49.27	313.72	14.51	-24.8	-26.3	17.1	1.56e-03	0	42	0	1679818752	9	4271
2026-01-11 05:15:50.28	313.52	14.48	-24.8	-26.2	17.1	0.00e+00	0	42	0	1686110208	9	4254
2026-01-11 05:15:51.29	313.31	14.46	-24.9	-26.4	17.0	0.00e+00	0	42	0	1691353088	9	4311
2026-01-11 05:15:52.30	313.11	14.43	-25.0	-26.2	16.9	0.00e+00	0	42	0	1697644544	10	4135
2026-01-11 05:15:53.31	312.91	14.41	-25.2	-26.7	16.6	0.00e+00	0	42	0	1702887424	10	4265
2026-01-11 05:15:54.31	312.70	14.38	-25.5	-26.7	16.3	0.00e+00	0	42	0	1708130304	11	4171
2026-01-11 05:15:55.31	312.50	14.36	-25.2	-26.2	16.6	0.00e+00	0	42	0	1714421760	11	4037
2026-01-11 05:15:56.32	312.30	14.33	-24.8	-25.8	17.1	0.00e+00	0	42	0	1719664640	10	4037
2026-01-11 05:15:57.32	312.10	14.30	-24.8	-25.8	17.1	0.00e+00	0	42	0	1725956096	10	4042
2026-01-11 05:15:58.33	311.90	14.28	-24.9	-26.6	16.9	0.00e+00	0	42	0	1731198976	9	4350
2026-01-11 05:15:59.34	311.70	14.25	-25.0	-26.6	16.9	0.00e+00	0	42	0	1737490432	9	4370
2026-01-11 05:16:00.35	311.49	14.22	-25.0	-26.1	16.9	0.00e+00	0	42	0	1742733312	10	4119
2026-01-11 05:16:01.35	311.29	14.20	-25.0	-26.2	16.9	0.00e+00	0	42	0	1747976192	10	4140
2026-01-11 05:16:02.36	311.09	14.17	-25.0	-26.1	16.9	0.00e+00	0	42	0	1754267648	10	4119
2026-01-11 05:16:03.37	310.89	14.14	-25.1	-26.4	16.8	0.00e+00	0	42	0	1759510528	10	4180
2026-01-11 05:16:04.38	310.69	14.11	-25.3	-26.8	16.6	0.00e+00	0	42	0	1764753408	10	4306
2026-01-11 05:16:05.39	310.49	14.08	-25.4	-27.1	16.4	0.00e+00	0	42	0	1771044864	10	4365
2026-01-11 05:16:06.39	310.30	14.05	-25.3	-26.9	16.5	0.00e+00	0	42	0	1776287744	10	4330
2026-01-11 05:16:07.39	310.10	14.02	-25.5	-26.9	16.3	0.00e+00	0	42	0	1782579200	11	4196
2026-01-11 05:16:08.40	309.90	13.99	-25.5	-26.9	16.2	0.00e+00	0	42	0	1787822080	11	4213
2026-01-11 05:16:09.40	309.70	13.96	-25.4	-26.6	16.4	0.00e+00	0	42	0	1793064960	11	4131
2026-01-11 05:16:10.40	309.51	13.93	-25.4	-27.1	16.4	0.00e+00	0	42	0	1799356416	10	4385
2026-01-11 05:16:11.41	309.31	13.90	-25.7	-27.3	16.0	0.00e+00	0	42	0	1804599296	11	4308
2026-01-11 05:16:12.42	309.11	13.87	-25.8	-27.5	15.9	0.00e+00	0	42	0	1810890752	11	4365
2026-01-11 05:16:13.42	308.92	13.84	-25.7	-27.4	15.9	0.00e+00	0	42	0	1816133632	11	4338
2026-01-11 05:16:14.42	308.73	13.81	-25.7	-27.2	16.1	0.00e+00	0	42	0	1821376512	11	4287
2026-01-11 05:16:15.43	308.53	13.78	-25.6	-27.1	16.1	0.00e+00	0	42	0	1827667968	11	4251
2026-01-11 05:16:16.44	308.34	13.74	-25.5	-26.8	16.2	0.00e+00	0	42	0	1832910848	11	4188
2026-01-11 05:16:17.45	308.14	13.71	-25.5	-26.7	16.3	0.00e+00	0	42	0	1839202304	11	4160
2026-01-11 05:16:18.45	307.95	13.68	-25.5	-26.8	16.3	0.00e+00	0	42	0	1844445184	11	4178
2026-01-11 05:16:19.45	307.76	13.65	-25.5	-26.9	16.2	0.00e+00	0	42	0	1849688064	11	4217
2026-01-11 05:16:20.45	307.56	13.61	-25.8	-27.5	15.9	0.00e+00	0	42	0	1855979520	11	4372
2026-01-11 05:16:21.45	307.37	13.58	-25.9	-27.2	15.7	0.00e+00	0	42	0	1861222400	12	4188
2026-01-11 05:16:22.45	307.18	13.55	-25.1	-26.5	16.0	0.00e+00	0	42	0	1866465280	11	4214
2026-01-11 05:16:23.46	306.99	13.51	-25.3	-26.4	16.4	0.00e+00	0	42	0	1872756736	11	4093
2026-01-11 05:16:24.47	306.80	13.48	-25.2	-26.1	15.7	0.00e+00	0	42	0	1877999616	11	4001
2026-01-11 05:16:25.48	306.61	13.44	-25.2	-26.6	15.4	1.77e-04	0	42	0	1884291072	10	4235
2026-01-11 05:16:26.48	306.42	13.41	-25.1	-26.5	16.7	0.00e+00	0	42	0	1889533952	10	4217
2026-01-11 05:16:27.49	306.23	13.37	-25.2	-26.6	16.6	3.67e-04	0	42	0	1895825408	10	4239
2026-01-11 05:16:28.48	306.04	13.34	-25.3	-26.8	16.5	0.00e+00	0	42	0	1901068288	10	4300
2026-01-11 05:16:29.48	305.85	13.30	-25.3	-27.0	16.4	0.00e+00	0	42	0	1906311168	10	4353
2026-01-11 05:16:30.49	305.67	13.27	-25.4	-27.1	16.3	0.00e+00	0	42	0	1912602624	10	4365
2026-01-11 05:16:31.50	305.48	13.23	-25.4	-27.1	16.3	0.00e+00	0	42	0	1917845504	10	4384
2026-01-11 05:16:32.50	305.29	13.19	-25.4	-27.1	16.3	0.00e+00	0	42	0	1923088384	10	4368
2026-01-11 05:16:33.50	305.11	13.16	-25.4	-27.0	16.3	0.00e+00	0	42	0	1929379840	10	4352
2026-01-11 05:16:34.50	304.92	13.12	-24.9	-26.0	15.1	5.48e-04	0	42	0	1934622720	11	4100
2026-01-11 05:16:35.50	304.74	13.08	-25.6	-27.1	16.0	1.10e-06	0	42	0	1939865600	11	4274
2026-01-11 05:16:36.51	304.55	13.05	-25.7	-27.2	13.1	0.00e+00	0	42	0	1946157056	11	4298
2026-01-11 05:16:37.52	304.36	13.01	-25.8	-27.6	15.1	0.00e+00	0	42	0	1951399936	11	4398
2026-01-11 05:16:38.53	304.18	12.97	-25.7	-27.3	15.9	0.00e+00	0	42	0	1957691392	11	4334
2026-01-11 05:16:39.53	304.00	12.93	-25.6	-27.1	16.0	0.00e+00	0	42	0	1962934272	11	4274
2026-01-11 05:16:40.54	303.81	12.89	-25.7	-27.2	16.0	0.00e+00	0	42	0	1969225728	11	4298
2026-01-11 05:16:41.54	303.63	12.86	-25.8	-27.6	15.8	0.00e+00	0	42	0	1974468608	11	4387
2026-01-11 05:16:42.55	303.45	12.82	-25.6	-27.0	16.1	0.00e+00	0	42	0	1979711488	11	4247
2026-01-11 05:16:43.55	303.26	12.78	-25.4	-26.6	16.3	1.26e-03	0	42	0	1986002944	11	4136
2026-01-11 05:16:44.56	303.08	12.74	-25.6	-27.0	16.1	0.00e+00	0	42	0	1991245824	11	4240
2026-01-11 05:16:45.56	302.90	12.70	-25.6	-27.0	16.1	1.23e-03	0	42	0	1996488704	11	4231
2026-01-11 05:16:46.57	302.72	12.66	-25.6	-27.0	16.1	2.36e-04	0	42	0	2002780160	11	4245
2026-01-11 05:16:47.57	302.54	12.62	-25.7	-27.2	16.0	1.10e-06	0	42	0	2008023040	11	4280
2026-01-11 05:16:48.57	302.36	12.58	-25.6	-27.1	16.0	1.29e-03	0	42	0	2013265920	11	4277
2026-01-11 05:16:49.58	302.18	12.54	-25.8	-27.5	15.8	0.00e+00	0	42	0	2019557376	11	4367
2026-01-11 05:16:50.59	302.00	12.50	-25.8	-27.4	15.8	0.00e+00	0	42	0	2024800256	11	4347
2026-01-11 05:16:51.60	301.83	12.46	-25.9	-27.6	15.7	3.63e-04	0	42	0	2031091712	11	4415
2026-01-11 05:16:52.60	301.65	12.42	-25.7	-27.3	15.9	1.80e-03	0	42	0	2036334592	11	4326
2026-01-11 05:16:53.61	301.47	12.38	-26.0	-27.6	15.4	0.00e+00	0	42	0	2042626048	12	4283
2026-01-11 05:16:54.62	301.29	12.34	-26.2	-27.8	15.3	1.77e-03	0	42	0	2047868928	12	4344
2026-01-11 05:16:55.62	301.12	12.29	-26.0	-27.6	15.4	1.53e-03	0	42	0	2053111808	12	4284
2026-01-11 05:16:56.63	300.94	12.25	-26.0	-27.4	15.5	2.20e-06	0	42	0	2059403264	12	4230
2026-01-11 05:16:57.64	300.77	12.21	-25.8	-27.6	15.7	1.15e-03	0	42	0	2064646144	11	4414
2026-01-11 05:16:58.65	300.59	12.17	-26.0	-27.9	15.5	8.83e-04	0	42	0	2070937600	11	4497
2026-01-11 05:16:59.66	300.42	12.13	-26.3	-28.1	15.1	0.00e+00	0	42	0	2076180480	12	4425
2026-01-11 05:17:00.66	300.24	12.08	-26.3	-27.7	15.1	1.43e-03	0	42	0	2081423360	13	4202
2026-01-11 05:17:01.67	300.07	12.04	-26.0	-27.5	15.5	1.48e-03	0	42	0	2087714816	12	4267
2026-01-11 05:17:02.68	299.90	12.00	-26.1	-27.7	15.3	1.10e-06	0	42	0	2092957696	12	4324
2026-01-11 05:17:03.69	299.72	11.95	-26.1	-27.7	15.3	8.50e-04	0	42	0	2099249152	12	4330
2026-01-11 05:17:04.69	299.55	11.91	-26.1	-27.7	15.3	1.46e-03	0	42	0	2104492032	12	4316
2026-01-11 05:17:05.70	299.38	11.87	-26.2	-28.0	15.1	0.00e+00	0	42	0	2109734912	12	4410
2026-01-11 05:17:06.71	299.21	11.82	-26.3	-28.1	15.1	1.26e-03	0	42	0	2116026368	12	4430
2026-01-11 05:17:07.71	299.04	11.78	-26.3	-28.2	15.0	1.10e-06	0	42	0	2121269248	12	4469
2026-01-11 05:17:08.71	298.87	11.74	-26.6	-28.2	14.7	0.00e+00	0	42	0	2127560704	13	4358
2026-01-11 05:17:09.72	298.70	11.69	-26.5	-28.0	14.8	1.69e-03	0	42	0	2132803584	13	4287
2026-01-11 05:17:10.72	298.54	11.65	-26.3	-28.0	15.1	0.00e+00	0	42	0	2138046464	12	4415
2026-01-11 05:17:11.72	298.37	11.61	-26.3	-28.2	15.0	1.02e-05	0	42	0	2144337920	12	4462
2026-01-11 05:17:12.72	298.20	11.56	-26.5	-28.5	14.9	0.00e+00	0	42	0	2149580800	12	4555
2026-01-11 05:17:13.73	298.03	11.52	-26.3	-28.1	15.1	1.76e-03	0	42	0	2154823680	12	4445
2026-01-11 05:17:14.72	297.87	11.47	-26.5	-28.6	14.8	0.00e+00	0	42	0	2161115136	12	4570
2026-01-11 05:17:15.73	297.70	11.43	-26.3	-28.0	15.1	9.94e-04	0	42	0	2166358016	12	4421
2026-01-11 05:17:16.73	297.54	11.38	-26.0	-27.5	15.4	0.00e+00	0	42	0	2172649472	12	4269
2026-01-11 05:17:17.74	297.37	11.34	-26.0	-27.5	15.4	0.00e+00	0	42	0	2177892352	12	4272
2026-01-11 05:17:18.75	297.21	11.29	-26.0	-27.5	15.4	0.00e+00	0	42	0	2183135232	12	4259
2026-01-11 05:17:19.75	297.05	11.25	-26.4	-28.3	14.9	0.00e+00	0	42	0	2189426688	12	4484
2026-01-11 05:17:20.76	296.88	11.20	-26.1	-27.8	15.2	5.26e-05	0	42	0	2194669568	12	4353
2026-01-11 05:17:21.76	296.72	11.15	-25.9	-27.3	15.5	0.00e+00	0	42	0	2200961024	12	4234
2026-01-11 05:17:22.77	296.56	11.11	-25.8	-27.6	15.7	0.00e+00	0	42	0	2206203904	11	4400
2026-01-11 05:17:23.78	296.39	11.06	-25.7	-27.3	15.8	0.00e+00	0	42	0	2211446784	11	4331
2026-01-11 05:17:24.78	296.23	11.02	-25.9	-27.4	15.4	0.00e+00	0	42	0	2217738240	12	4240
2026-01-11 05:17:25.78	296.07	10.97	-25.8	-27.5	15.7	0.00e+00	0	42	0	2222981120	11	4381
2026-01-11 05:17:26.79	295.91	10.92	-25.8	-27.6	15.6	0.00e+00	0	42	0	2229272576	11	4410
2026-01-11 05:17:27.80	295.75	10.88	-26.0	-27.4	15.4	0.00e+00	0	42	0	2234515456	12	4238
2026-01-11 05:17:28.81	295.59	10.83	-26.1	-27.7	15.2	0.00e+00	0	42	0	2239758336	12	4334
2026-01-11 05:17:29.81	295.44	10.78	-26.3	-28.1	15.0	0.00e+00	0	42	0	2246049792	12	4451
2026-01-11 05:17:30.82	295.28	10.74	-26.2	-28.0	15.0	0.00e+00	0	42	0	2251292672	12	4411
2026-01-11 05:17:31.83	295.12	10.69	-26.2	-28.0	15.0	0.00e+00	0	42	0	2256535552	12	4414
2026-01-11 05:17:32.84	294.96	10.64	-26.2	-28.0	15.0	0.00e+00	0	42	0	2262827008	12	4407
2026-01-11 05:17:33.85	294.80	10.59	-26.2	-28.1	15.0	0.00e+00	0	42	0	2268069888	12	4434
2026-01-11 05:17:34.85	294.65	10.55	-26.6	-28.3	14.6	1.10e-06	0	42	0	2274361344	13	4383
2026-01-11 05:17:35.85	294.49	10.50	-26.3	-27.6	14.9	0.00e+00	0	42	0	2279604224	13	4200
2026-01-11 05:17:36.86	294.34	10.45	-26.3	-28.2	14.9	0.00e+00	0	42	0	2285895680	12	4456
2026-01-11 05:17:37.86	294.18	10.40	-26.6	-28.4	14.5	1.10e-06	0	42	0	2291138560	13	4404
2026-01-11 05:17:38.86	294.03	10.36	-26.2	-27.5	15.0	0.00e+00	0	42	0	2296381440	13	4160
2026-01-11 05:17:39.87	293.88	10.31	-26.5	-28.6	14.7	0.00e+00	0	42	0	2302672896	12	4585
2026-01-11 05:17:40.88	293.72	10.26	-26.4	-28.4	14.8	0.00e+00	0	42	0	2307915776	12	4527
2026-01-11 05:17:41.89	293.57	10.21	-26.5	-28.2	14.6	0.00e+00	0	42	0	2314207232	13	4358
2026-01-11 05:17:42.89	293.42	10.16	-26.4	-27.8	14.8	0.00e+00	0	42	0	2319450112	13	4260
2026-01-11 05:17:43.90	293.27	10.12	-26.2	-27.9	15.0	0.00e+00	0	42	0	2324692992	12	4376
2026-01-11 05:17:44.90	293.12	10.07	-26.3	-28.2	14.8	0.00e+00	0	42	0	2330984448	12	4472
2026-01-11 05:17:45.90	292.97	10.02	-27.0	-28.9	13.9	1.10e-06	0	42	0	2336227328	14	4443
2026-01-11 05:17:46.91	292.82	9.97	-26.7	-28.0	14.4	1.10e-06	0	42	0	2341470208	14	4191
2026-01-11 05:17:47.91	292.67	9.92	-26.2	-27.4	15.0	0.00e+00	0	42	0	2347761664	13	4133
2026-01-11 05:17:48.93	292.52	9.87	-26.1	-27.8	15.0	0.00e+00	0	42	0	2353004544	12	4373
2026-01-11 05:17:49.94	292.37	9.82	-26.2	-28.1	14.9	1.10e-06	0	42	0	2359296000	12	4436
2026-01-11 05:17:50.94	292.22	9.77	-26.3	-28.3	14.7	0.00e+00	0	42	0	2364538880	12	4506
2026-01-11 05:17:51.94	292.07	9.72	-26.4	-28.5	14.6	0.00e+00	0	42	0	2370830336	12	4565
2026-01-11 05:17:52.95	291.92	9.68	-26.2	-27.9	15.0	0.00e+00	0	42	0	2376073216	12	4380
2026-01-11 05:17:53.96	291.78	9.63	-26.1	-27.8	15.0	1.10e-06	0	42	0	2381316096	12	4367
2026-01-11 05:17:54.97	291.63	9.58	-26.4	-28.4	14.7	0.00e+00	0	42	0	2387607552	12	4523
2026-01-11 05:17:55.97	291.49	9.53	-26.3	-28.2	14.8	0.00e+00	0	42	0	2392850432	12	4466
2026-01-11 05:17:56.98	291.34	9.48	-26.3	-28.2	14.7	1.10e-06	0	42	0	2398093312	12	4486
2026-01-11 05:17:57.99	291.20	9.43	-26.4	-28.5	14.6	2.20e-06	0	42	0	2404384768	12	4572
2026-01-11 05:17:59.00	291.05	9.38	-26.5	-28.2	14.4	0.00e+00	0	42	0	2409627648	13	4372
2026-01-11 05:18:00.00	290.91	9.33	-26.3	-28.3	14.7	1.10e-06	0	42	0	2415919104	12	4500
2026-01-11 05:18:01.01	290.76	9.28	-26.5	-28.1	14.5	1.13e-03	0	42	0	2421161984	13	4344
2026-01-11 05:18:02.02	290.62	9.23	-26.7	-28.7	14.1	0.00e+00	0	42	0	2426404864	13	4510
2026-01-11 05:18:03.02	290.48	9.18	-26.6	-28.4	14.3	1.10e-06	0	42	0	2432696320	13	4422
2026-01-11 05:18:04.03	290.34	9.13	-26.4	-28.0	14.5	0.00e+00	0	42	0	2437939200	13	4324
2026-01-11 05:18:05.04	290.20	9.08	-27.0	-29.3	13.7	3.40e-06	0	42	0	2444230656	13	4699
2026-01-11 05:18:06.05	290.06	9.03	-26.7	-28.6	14.1	1.42e-03	0	42	0	2449473536	13	4490
2026-01-11 05:18:07.05	289.92	8.98	-26.9	-29.1	13.9	3.40e-06	0	42	0	2455764992	13	4629
2026-01-11 05:18:08.06	289.78	8.93	-26.6	-28.5	14.2	4.50e-06	0	42	0	2461007872	13	4459
2026-01-11 05:18:09.07	289.64	8.88	-26.7	-28.6	14.1	2.20e-06	0	42	0	2466250752	13	4476
2026-01-11 05:18:10.07	289.50	8.83	-26.7	-28.7	14.1	1.35e-03	0	42	0	2472542208	13	4519
2026-01-11 05:18:11.08	289.36	8.78	-26.8	-28.9	13.9	4.50e-06	0	42	0	2477785088	13	4573
2026-01-11 05:18:12.08	289.22	8.73	-26.8	-28.8	13.9	1.17e-03	0	42	0	2483027968	13	4560
2026-01-11 05:18:13.08	289.09	8.67	-26.8	-29.0	13.8	1.05e-03	0	42	0	2489319424	13	4600
2026-01-11 05:18:14.09	288.95	8.62	-26.6	-28.4	14.2	1.10e-06	0	42	0	2494562304	13	4426
2026-01-11 05:18:15.10	288.81	8.57	-26.6	-28.3	14.2	1.26e-03	0	42	0	2500853760	13	4415
2026-01-11 05:18:16.10	288.68	8.52	-26.2	-28.1	14.7	1.10e-06	0	42	0	2506096640	12	4448
2026-01-11 05:18:17.11	288.54	8.47	-26.3	-28.3	14.5	0.00e+00	0	42	0	2511339520	12	4528
2026-01-11 05:18:18.12	288.41	8.42	-26.5	-28.6	14.3	1.31e-03	0	42	0	2517630976	12	4622
2026-01-11 05:18:19.13	288.27	8.37	-26.5	-28.2	14.3	1.65e-03	0	42	0	2522873856	13	4374
2026-01-11 05:18:20.13	288.14	8.32	-26.5	-28.2	14.3	8.00e-06	0	42	0	2529165312	13	4383
2026-01-11 05:18:21.14	288.01	8.27	-26.6	-28.5	14.1	2.06e-03	0	42	0	2534408192	13	4471
2026-01-11 05:18:22.15	287.87	8.22	-26.6	-28.5	14.1	1.83e-03	0	42	0	2540699648	13	4451
2026-01-11 05:18:23.15	287.74	8.17	-26.4	-28.0	14.2	1.25e-04	0	42	0	2545942528	13	4322
2026-01-11 05:18:24.16	287.61	8.11	-26.3	-28.3	14.3	1.89e-03	0	42	0	2551185408	12	4521
2026-01-11 05:18:25.17	287.48	8.06	-26.7	-28.6	13.8	1.15e-03	0	42	0	2557476864	13	4498
2026-01-11 05:18:26.17	287.35	8.01	-26.6	-28.4	14.0	2.05e-05	0	42	0	2562719744	13	4449
2026-01-11 05:18:27.18	287.22	7.96	-26.5	-28.3	14.0	4.06e-04	0	42	0	2567962624	13	4416
2026-01-11 05:18:28.18	287.09	7.91	-26.7	-28.8	13.8	9.10e-06	0	42	0	2574254080	13	4549
2026-01-11 05:18:29.19	286.96	7.86	-27.0	-28.9	13.4	3.54e-05	0	42	0	2579496960	14	4468
2026-01-11 05:18:30.20	286.83	7.81	-26.8	-28.9	13.7	4.00e-04	0	42	0	2585788416	13	4582
2026-01-11 05:18:31.20	286.70	7.76	-27.0	-28.9	13.4	1.14e-03	0	42	0	2591031296	14	4484
2026-01-11 05:18:32.21	286.57	7.70	-26.9	-28.7	13.5	1.48e-05	0	42	0	2596274176	14	4431
2026-01-11 05:18:33.21	286.44	7.65	-26.8	-28.9	13.7	1.03e-03	0	42	0	2602565632	13	4607
2026-01-11 05:18:34.22	286.32	7.60	-26.7	-28.6	13.9	6.80e-06	0	42	0	2607808512	13	4508
2026-01-11 05:18:35.22	286.19	7.55	-26.7	-28.8	13.7	9.10e-06	0	42	0	2614099968	13	4561
2026-01-11 05:18:36.23	286.06	7.50	-26.9	-28.7	13.5	1.26e-03	0	42	0	2619342848	14	4433
2026-01-11 05:18:37.24	285.94	7.45	-26.8	-28.9	13.7	4.03e-04	0	42	0	2625634304	13	4589
2026-01-11 05:18:38.24	285.81	7.40	-27.2	-29.3	13.2	1.71e-05	0	42	0	2630877184	14	4594
2026-01-11 05:18:39.25	285.69	7.34	-27.0	-28.9	13.4	2.74e-05	0	42	0	2636120064	14	4479
2026-01-11 05:18:40.24	285.56	7.29	-26.7	-28.8	13.7	1.60e-05	0	42	0	2642411520	13	4557
2026-01-11 05:18:41.25	285.44	7.24	-26.7	-28.7	13.8	1.10e-06	0	42	0	2647654400	13	4532
2026-01-11 05:18:42.25	285.32	7.19	-26.6	-28.4	13.9	9.10e-06	0	42	0	2652897280	13	4461
2026-01-11 05:18:43.26	285.19	7.14	-26.8	-28.9	13.7	1.48e-05	0	42	0	2659188736	13	4594
2026-01-11 05:18:44.27	285.07	7.09	-30.1	-34.2	8.6	5.03e-05	0	42	0	2664431616	20	5776
2026-01-11 05:18:45.27	284.95	7.03	-32.8	-44.3	3.8	8.46e-01	0	42	104	2664431616	25	13420
2026-01-11 05:18:46.28	284.83	6.98	-33.2	-44.5	3.8	8.46e-01	0	42	104	2664431616	26	13195

#Closed at: 2026-01-11 05:18:46
#Recorded file [2664 MB]: D:/data/31010_260111_081050.dat