passes_logs/2026/01/11/R2M6_AANII_01/R2M6_AANII_01__20260111_014943_FENGYUN_3D_rec.log

#Pass ID: 20260111_014943_FENGYUN 3D
#Satellite: FENGYUN 3D
#Configuration: FENGYUN 3D
#almurnet v.1.7.20240730
#Start time: 2026-01-11 01:49:45

#Version: 2.2.20231116
#Station: R2M6_AANII_01
#Location: 30.233357 lon 59.946436 lat
#TLE: 1 43010U 17072A   26009.92921666 -.00000228  00000+0 -86059-4 0  9998
#TLE: 2 43010  98.9936 341.6668 0002176 116.7510 243.3888 14.19693142422537

#Time	Az	El	Level	Level2	SNR	BER	BlckErr	Temp	State	Recorded	gain1	gain2
2026-01-11 01:49:45.77	22.09	7.14	-29.0	-32.0	5.5	7.85e-01	0	40	0	0	18	5054
2026-01-11 01:49:46.78	22.13	7.22	-28.9	-32.1	5.5	7.83e-01	0	39	104	0	17	5188
2026-01-11 01:49:47.79	22.17	7.29	-29.3	-32.7	10.0	4.78e-03	0	40	0	0	18	5308
2026-01-11 01:49:48.79	22.20	7.37	-29.3	-32.6	10.1	6.25e-03	0	40	0	5242880	18	5258
2026-01-11 01:49:49.80	22.24	7.45	-29.1	-32.0	10.5	3.98e-03	0	40	0	11534336	18	5024
2026-01-11 01:49:50.81	22.28	7.52	-28.7	-31.0	11.2	1.05e-03	0	40	0	16777216	18	4670
2026-01-11 01:49:51.81	22.32	7.60	-28.9	-31.9	10.9	1.85e-03	0	40	0	22020096	17	5117
2026-01-11 01:49:52.81	22.36	7.68	-28.6	-31.2	11.3	1.36e-03	0	40	0	28311552	17	4860
2026-01-11 01:49:53.82	22.39	7.75	-28.3	-30.6	11.7	6.72e-04	0	40	0	33554432	17	4661
2026-01-11 01:49:54.82	22.43	7.83	-27.9	-30.0	12.4	4.40e-04	0	40	0	38797312	16	4577
2026-01-11 01:49:55.83	22.47	7.91	-27.3	-29.0	13.1	5.14e-05	0	40	0	45088768	15	4402
2026-01-11 01:49:56.84	22.51	7.99	-27.2	-28.8	13.3	1.25e-05	0	40	0	50331648	15	4330
2026-01-11 01:49:57.85	22.55	8.07	-26.6	-28.0	14.0	2.86e-04	0	40	0	56623104	14	4214
2026-01-11 01:49:58.85	22.59	8.14	-26.6	-28.3	14.1	3.03e-04	0	40	0	61865984	13	4420
2026-01-11 01:49:59.86	22.63	8.22	-26.5	-28.2	14.2	0.00e+00	0	40	0	67108864	13	4376
2026-01-11 01:50:00.86	22.67	8.30	-26.7	-28.6	14.0	0.00e+00	0	40	0	73400320	13	4501
2026-01-11 01:50:01.87	22.71	8.38	-26.6	-28.4	14.1	3.16e-04	0	40	0	78643200	13	4435
2026-01-11 01:50:02.88	22.75	8.46	-26.4	-28.1	14.3	3.40e-06	0	40	0	84934656	13	4346
2026-01-11 01:50:03.89	22.79	8.54	-26.5	-28.1	14.3	2.77e-04	0	40	0	90177536	13	4359
2026-01-11 01:50:04.89	22.83	8.62	-26.3	-28.1	14.5	2.75e-04	0	40	0	96468992	12	4476
2026-01-11 01:50:05.88	22.87	8.70	-26.4	-28.4	14.4	1.10e-06	0	40	0	101711872	12	4554
2026-01-11 01:50:06.89	22.91	8.78	-26.3	-28.2	14.5	2.73e-04	0	40	0	106954752	12	4500
2026-01-11 01:50:07.89	22.95	8.86	-26.0	-27.6	14.8	0.00e+00	0	40	0	113246208	12	4333
2026-01-11 01:50:08.90	23.00	8.94	-26.0	-27.5	14.9	0.00e+00	0	40	0	118489088	12	4306
2026-01-11 01:50:09.91	23.04	9.02	-26.1	-27.7	14.8	1.90e-04	0	40	0	123731968	12	4359
2026-01-11 01:50:10.92	23.08	9.10	-26.0	-27.6	14.9	1.68e-04	0	40	0	130023424	12	4322
2026-01-11 01:50:11.93	23.12	9.19	-26.1	-27.8	14.8	0.00e+00	0	40	0	135266304	12	4367
2026-01-11 01:50:12.93	23.16	9.27	-26.0	-27.6	14.9	2.14e-04	0	40	0	141557760	12	4321
2026-01-11 01:50:13.94	23.21	9.35	-26.2	-28.0	14.6	1.88e-04	0	40	0	146800640	12	4437
2026-01-11 01:50:14.94	23.25	9.43	-26.0	-27.5	15.0	2.35e-04	0	41	0	152043520	12	4277
2026-01-11 01:50:15.95	23.29	9.52	-25.9	-27.9	15.1	2.04e-04	0	40	0	158334976	11	4516
2026-01-11 01:50:16.96	23.34	9.60	-25.9	-27.4	15.0	1.10e-06	0	40	0	163577856	12	4275
2026-01-11 01:50:17.97	23.38	9.68	-25.9	-27.3	15.1	0.00e+00	0	40	0	169869312	12	4231
2026-01-11 01:50:18.97	23.42	9.77	-25.9	-27.8	15.2	4.47e-04	0	41	0	175112192	11	4472
2026-01-11 01:50:19.98	23.47	9.85	-25.9	-27.7	15.2	3.40e-06	0	41	0	181403648	11	4462
2026-01-11 01:50:20.98	23.51	9.93	-25.9	-27.9	15.2	4.37e-04	0	41	0	186646528	11	4501
2026-01-11 01:50:21.98	23.56	10.02	-26.0	-27.5	15.0	3.98e-04	0	41	0	191889408	12	4285
2026-01-11 01:50:22.99	23.60	10.10	-25.9	-27.3	15.1	1.89e-04	0	40	0	198180864	12	4227
2026-01-11 01:50:24.00	23.65	10.19	-25.8	-27.1	15.2	3.22e-04	0	41	0	203423744	12	4184
2026-01-11 01:50:25.00	23.69	10.27	-25.9	-27.3	15.1	0.00e+00	0	41	0	208666624	12	4226
2026-01-11 01:50:26.00	23.74	10.36	-25.9	-27.3	15.2	0.00e+00	0	41	0	214958080	12	4227
2026-01-11 01:50:27.01	23.78	10.44	-26.1	-27.7	14.9	3.44e-04	0	41	0	220200960	12	4357
2026-01-11 01:50:28.02	23.83	10.53	-26.0	-27.6	15.0	3.15e-04	0	41	0	225443840	12	4308
2026-01-11 01:50:29.02	23.87	10.61	-26.0	-27.4	15.1	1.10e-06	0	41	0	231735296	12	4272
2026-01-11 01:50:30.02	23.92	10.70	-25.9	-27.2	15.2	0.00e+00	0	41	0	236978176	12	4215
2026-01-11 01:50:31.03	23.97	10.79	-26.1	-27.8	14.9	3.67e-04	0	41	0	243269632	12	4371
2026-01-11 01:50:32.04	24.01	10.88	-25.9	-27.3	15.2	0.00e+00	0	41	0	248512512	12	4239
2026-01-11 01:50:33.04	24.06	10.96	-26.1	-27.8	14.9	3.79e-04	0	41	0	254803968	12	4376
2026-01-11 01:50:34.04	24.11	11.05	-25.9	-27.2	15.3	4.13e-04	0	41	0	260046848	12	4202
2026-01-11 01:50:35.05	24.15	11.14	-25.7	-26.9	15.5	0.00e+00	0	41	0	265289728	12	4113
2026-01-11 01:50:36.06	24.20	11.23	-25.6	-27.2	15.6	7.40e-04	0	41	0	271581184	11	4315
2026-01-11 01:50:37.07	24.25	11.32	-25.8	-27.6	15.4	8.07e-04	0	41	0	276824064	11	4410
2026-01-11 01:50:38.07	24.30	11.40	-25.7	-27.3	15.6	0.00e+00	0	41	0	282066944	11	4334
2026-01-11 01:50:39.08	24.35	11.49	-25.7	-27.3	15.6	0.00e+00	0	41	0	288358400	11	4343
2026-01-11 01:50:40.09	24.40	11.58	-25.9	-27.8	15.3	9.26e-04	0	41	0	293601280	11	4468
2026-01-11 01:50:41.09	24.45	11.67	-25.7	-27.2	15.6	0.00e+00	0	41	0	299892736	11	4311
2026-01-11 01:50:42.10	24.49	11.76	-25.5	-27.0	15.8	9.20e-04	0	41	0	305135616	11	4245
2026-01-11 01:50:43.11	24.54	11.85	-25.4	-27.2	15.9	8.83e-04	0	41	0	310378496	10	4420
2026-01-11 01:50:44.11	24.59	11.95	-25.4	-26.7	15.9	0.00e+00	0	41	0	316669952	11	4184
2026-01-11 01:50:45.12	24.64	12.04	-25.6	-27.1	15.7	8.31e-04	0	41	0	321912832	11	4278
2026-01-11 01:50:46.12	24.69	12.13	-25.4	-27.1	16.0	0.00e+00	0	41	0	328204288	10	4402
2026-01-11 01:50:47.13	24.75	12.22	-25.3	-26.9	16.1	0.00e+00	0	41	0	333447168	10	4327
2026-01-11 01:50:48.14	24.80	12.31	-25.3	-27.0	16.1	0.00e+00	0	41	0	339738624	10	4361
2026-01-11 01:50:49.14	24.85	12.40	-25.5	-27.3	15.9	0.00e+00	0	41	0	344981504	10	4444
2026-01-11 01:50:50.15	24.90	12.50	-25.3	-27.0	16.0	0.00e+00	0	41	0	350224384	10	4360
2026-01-11 01:50:51.16	24.95	12.59	-25.5	-27.3	15.9	0.00e+00	0	41	0	356515840	10	4443
2026-01-11 01:50:52.17	25.01	12.69	-25.5	-26.9	15.8	8.00e-04	0	41	0	361758720	11	4226
2026-01-11 01:50:53.17	25.06	12.78	-25.7	-27.3	15.6	0.00e+00	0	41	0	367001600	11	4343
2026-01-11 01:50:54.18	25.11	12.87	-25.7	-27.3	15.7	0.00e+00	0	41	0	373293056	11	4321
2026-01-11 01:50:55.19	25.16	12.97	-25.5	-26.9	15.8	0.00e+00	0	41	0	378535936	11	4237
2026-01-11 01:50:56.19	25.22	13.06	-25.6	-27.2	15.7	0.00e+00	0	41	0	384827392	11	4302
2026-01-11 01:50:57.20	25.27	13.16	-25.9	-27.7	15.4	0.00e+00	0	41	0	390070272	11	4439
2026-01-11 01:50:58.21	25.33	13.25	-25.7	-27.4	15.6	0.00e+00	0	41	0	395313152	11	4354
2026-01-11 01:50:59.21	25.38	13.35	-25.8	-27.6	15.5	0.00e+00	0	41	0	401604608	11	4403
2026-01-11 01:51:00.21	25.43	13.45	-25.7	-27.2	15.7	0.00e+00	0	41	0	406847488	11	4317
2026-01-11 01:51:01.21	25.49	13.54	-25.5	-26.8	15.9	0.00e+00	0	41	0	413138944	11	4208
2026-01-11 01:51:02.22	25.54	13.64	-25.5	-26.8	15.9	0.00e+00	0	41	0	418381824	11	4194
2026-01-11 01:51:03.23	25.60	13.74	-25.4	-27.1	15.0	0.00e+00	0	41	0	424673280	10	4401
2026-01-11 01:51:04.23	25.66	13.83	-25.5	-26.9	15.8	0.00e+00	0	41	0	429916160	11	4234
2026-01-11 01:51:05.23	25.71	13.93	-25.6	-27.1	15.8	0.00e+00	0	41	0	435159040	11	4272
2026-01-11 01:51:06.23	25.77	14.03	-25.8	-27.5	15.6	0.00e+00	0	41	0	441450496	11	4382
2026-01-11 01:51:07.24	25.83	14.13	-26.0	-27.5	15.3	0.00e+00	0	41	0	446693376	12	4270
2026-01-11 01:51:08.25	25.88	14.23	-25.6	-26.6	15.7	0.00e+00	0	41	0	451936256	12	4034
2026-01-11 01:51:09.25	25.94	14.33	-25.5	-26.8	16.0	0.00e+00	0	41	0	458227712	11	4199
2026-01-11 01:51:10.26	26.00	14.43	-25.3	-26.8	16.2	4.11e-04	0	41	0	463470592	10	4307
2026-01-11 01:51:11.26	26.06	14.53	-25.3	-27.0	16.1	0.00e+00	0	41	0	468713472	10	4363
2026-01-11 01:51:12.27	26.12	14.63	-25.3	-27.0	16.1	4.30e-04	0	41	0	475004928	10	4357
2026-01-11 01:51:13.28	26.18	14.73	-25.2	-26.8	16.2	0.00e+00	0	42	0	480247808	10	4299
2026-01-11 01:51:14.28	26.24	14.83	-25.1	-26.6	16.3	0.00e+00	0	41	0	486539264	10	4246
2026-01-11 01:51:15.29	26.30	14.93	-25.3	-26.9	16.2	0.00e+00	0	42	0	491782144	10	4334
2026-01-11 01:51:16.30	26.36	15.04	-25.2	-26.7	16.3	0.00e+00	0	41	0	498073600	10	4285
2026-01-11 01:51:17.30	26.42	15.14	-25.1	-26.6	16.4	0.00e+00	0	41	0	503316480	10	4244
2026-01-11 01:51:18.31	26.48	15.24	-25.2	-26.8	16.3	0.00e+00	0	41	0	508559360	10	4305
2026-01-11 01:51:19.31	26.54	15.35	-25.4	-27.1	16.1	5.34e-04	0	41	0	514850816	10	4391
2026-01-11 01:51:20.32	26.60	15.45	-25.1	-26.5	16.4	0.00e+00	0	41	0	520093696	10	4229
2026-01-11 01:51:21.32	26.67	15.56	-24.9	-26.1	16.7	5.08e-04	0	41	0	525336576	10	4127
2026-01-11 01:51:22.33	26.73	15.66	-24.9	-26.6	16.7	5.09e-04	0	41	0	531628032	9	4369
2026-01-11 01:51:23.33	26.79	15.77	-24.9	-26.5	16.7	0.00e+00	0	41	0	536870912	9	4357
2026-01-11 01:51:24.34	26.86	15.87	-24.9	-26.6	16.6	5.10e-04	0	42	0	543162368	9	4378
2026-01-11 01:51:25.35	26.92	15.98	-25.0	-26.7	16.6	0.00e+00	0	41	0	548405248	9	4391
2026-01-11 01:51:26.35	26.98	16.08	-24.9	-26.7	16.6	0.00e+00	0	41	0	553648128	9	4390
2026-01-11 01:51:27.35	27.05	16.19	-24.8	-26.3	16.8	3.99e-04	0	42	0	559939584	9	4296
2026-01-11 01:51:28.36	27.12	16.30	-24.9	-26.5	16.7	3.60e-04	0	41	0	565182464	9	4341
2026-01-11 01:51:29.36	27.18	16.41	-24.8	-26.4	16.7	0.00e+00	0	41	0	571473920	9	4326
2026-01-11 01:51:30.37	27.25	16.52	-24.9	-26.5	16.7	3.43e-04	0	42	0	576716800	9	4332
2026-01-11 01:51:31.37	27.31	16.62	-24.9	-26.5	16.7	3.31e-04	0	41	0	581959680	9	4355
2026-01-11 01:51:32.38	27.38	16.73	-24.6	-25.9	17.1	1.29e-04	0	41	0	588251136	9	4182
2026-01-11 01:51:33.39	27.45	16.84	-24.5	-25.6	17.2	3.18e-04	0	41	0	593494016	9	4106
2026-01-11 01:51:34.40	27.52	16.95	-24.5	-25.6	17.2	0.00e+00	0	41	0	599785472	9	4113
2026-01-11 01:51:35.41	27.59	17.07	-24.6	-25.8	17.1	0.00e+00	0	42	0	605028352	9	4168
2026-01-11 01:51:36.42	27.66	17.18	-24.6	-25.8	17.1	3.36e-04	0	41	0	610271232	9	4164
2026-01-11 01:51:37.42	27.73	17.29	-24.5	-25.6	17.2	3.12e-04	0	41	0	616562688	9	4115
2026-01-11 01:51:38.43	27.80	17.40	-24.5	-25.6	17.2	0.00e+00	0	41	0	621805568	9	4104
2026-01-11 01:51:39.44	27.87	17.51	-24.4	-25.5	17.3	1.61e-04	0	42	0	628097024	9	4086
2026-01-11 01:51:40.44	27.94	17.63	-24.3	-25.3	17.4	2.53e-04	0	42	0	633339904	9	4039
2026-01-11 01:51:41.43	28.01	17.74	-24.4	-25.4	17.4	1.64e-04	0	42	0	638582784	9	4054
2026-01-11 01:51:42.44	28.08	17.85	-24.2	-25.6	17.5	2.59e-04	0	42	0	644874240	8	4215
2026-01-11 01:51:43.45	28.15	17.97	-24.2	-25.6	17.5	0.00e+00	0	41	0	650117120	8	4225
2026-01-11 01:51:44.45	28.23	18.08	-24.1	-25.3	17.7	4.00e-05	0	41	0	656408576	8	4130
2026-01-11 01:51:45.45	28.30	18.20	-24.0	-25.1	17.8	2.97e-04	0	41	0	661651456	8	4094
2026-01-11 01:51:46.46	28.37	18.31	-23.9	-25.0	17.8	0.00e+00	0	42	0	666894336	8	4065
2026-01-11 01:51:47.46	28.45	18.43	-23.9	-24.9	17.9	0.00e+00	0	42	0	673185792	8	4030
2026-01-11 01:51:48.47	28.52	18.55	-23.9	-25.0	17.8	1.76e-04	0	42	0	678428672	8	4065
2026-01-11 01:51:49.48	28.60	18.67	-24.0	-25.1	17.8	3.04e-04	0	42	0	684720128	8	4084
2026-01-11 01:51:50.48	28.67	18.78	-23.8	-24.8	18.0	2.86e-04	0	41	0	689963008	8	4016
2026-01-11 01:51:51.49	28.75	18.90	-23.9	-25.5	17.9	2.59e-04	0	42	0	695205888	7	4296
2026-01-11 01:51:52.50	28.83	19.02	-24.1	-25.2	17.8	0.00e+00	0	42	0	701497344	8	4124
2026-01-11 01:51:53.51	28.91	19.14	-24.0	-25.0	17.8	2.46e-04	0	42	0	706740224	8	4069
2026-01-11 01:51:54.51	28.99	19.26	-24.0	-25.6	17.8	2.70e-04	0	42	0	711983104	7	4321
2026-01-11 01:51:55.52	29.07	19.38	-24.1	-25.3	17.7	0.00e+00	0	42	0	718274560	8	4132
2026-01-11 01:51:56.53	29.15	19.51	-24.1	-25.3	17.8	0.00e+00	0	42	0	723517440	8	4128
2026-01-11 01:51:57.54	29.23	19.63	-24.0	-25.2	17.8	2.18e-04	0	42	0	729808896	8	4113
2026-01-11 01:51:58.55	29.31	19.75	-23.9	-25.0	17.9	0.00e+00	0	42	0	735051776	8	4056
2026-01-11 01:51:59.55	29.39	19.87	-23.9	-25.0	17.9	1.88e-04	0	42	0	741343232	8	4060
2026-01-11 01:52:00.56	29.47	20.00	-23.9	-25.0	17.9	1.57e-04	0	42	0	746586112	8	4057
2026-01-11 01:52:01.57	29.55	20.12	-23.9	-24.8	18.0	0.00e+00	0	42	0	751828992	8	4022
2026-01-11 01:52:02.57	29.64	20.25	-24.0	-25.1	17.9	1.62e-04	0	42	0	758120448	8	4089
2026-01-11 01:52:03.58	29.72	20.37	-23.9	-24.8	18.0	0.00e+00	0	42	0	763363328	8	4015
2026-01-11 01:52:04.58	29.81	20.50	-23.8	-25.1	18.1	0.00e+00	0	42	0	769654784	7	4203
2026-01-11 01:52:05.58	29.89	20.62	-23.7	-24.9	18.2	0.00e+00	0	42	0	774897664	7	4154
2026-01-11 01:52:06.58	29.98	20.75	-23.7	-24.9	18.2	2.63e-05	0	42	0	780140544	7	4141
2026-01-11 01:52:07.58	30.06	20.88	-23.6	-24.7	18.3	0.00e+00	0	42	0	786432000	7	4110
2026-01-11 01:52:08.59	30.15	21.01	-23.5	-24.6	18.4	0.00e+00	0	42	0	791674880	7	4068
2026-01-11 01:52:09.59	30.24	21.13	-23.5	-24.6	18.3	0.00e+00	0	42	0	796917760	7	4084
2026-01-11 01:52:10.60	30.33	21.26	-23.5	-24.5	18.4	0.00e+00	0	42	0	803209216	7	4057
2026-01-11 01:52:11.61	30.42	21.39	-23.4	-24.3	18.5	0.00e+00	0	42	0	808452096	7	4009
2026-01-11 01:52:12.62	30.51	21.53	-23.3	-24.1	18.6	0.00e+00	0	41	0	814743552	7	3960
2026-01-11 01:52:13.62	30.60	21.66	-23.2	-24.5	18.7	0.00e+00	0	42	0	819986432	6	4147
2026-01-11 01:52:14.62	30.69	21.79	-23.2	-24.5	18.7	0.00e+00	0	42	0	825229312	6	4148
2026-01-11 01:52:15.62	30.78	21.92	-23.2	-24.5	18.7	0.00e+00	0	42	0	831520768	6	4154
2026-01-11 01:52:16.63	30.88	22.05	-23.3	-24.6	18.7	0.00e+00	0	42	0	836763648	6	4176
2026-01-11 01:52:17.63	30.97	22.19	-23.3	-24.5	18.7	0.00e+00	0	42	0	843055104	6	4174
2026-01-11 01:52:18.64	31.07	22.32	-23.3	-24.7	18.6	3.87e-04	0	42	0	848297984	6	4202
2026-01-11 01:52:19.65	31.16	22.46	-23.3	-24.7	18.6	0.00e+00	0	42	0	853540864	6	4212
2026-01-11 01:52:20.66	31.26	22.59	-23.3	-24.7	18.6	0.00e+00	0	42	0	859832320	6	4217
2026-01-11 01:52:21.66	31.36	22.73	-23.4	-24.7	18.6	0.00e+00	0	42	0	865075200	6	4220
2026-01-11 01:52:22.67	31.45	22.87	-23.4	-24.9	18.5	0.00e+00	0	42	0	870318080	6	4250
2026-01-11 01:52:23.68	31.55	23.00	-23.4	-24.3	18.6	0.00e+00	0	42	0	876609536	7	3991
2026-01-11 01:52:24.68	31.65	23.14	-23.4	-24.3	18.6	0.00e+00	0	42	0	881852416	7	4002
2026-01-11 01:52:25.69	31.75	23.28	-23.4	-24.3	18.6	0.00e+00	0	42	0	888143872	7	3994
2026-01-11 01:52:26.69	31.85	23.42	-23.4	-24.4	18.5	0.00e+00	0	42	0	893386752	7	4018
2026-01-11 01:52:27.70	31.96	23.56	-23.5	-24.6	18.4	0.00e+00	0	42	0	899678208	7	4067
2026-01-11 01:52:28.70	32.06	23.70	-23.5	-24.5	18.5	0.00e+00	0	42	0	904921088	7	4050
2026-01-11 01:52:29.70	32.16	23.84	-23.4	-24.3	18.6	0.00e+00	0	42	0	910163968	7	3998
2026-01-11 01:52:30.71	32.27	23.98	-23.2	-24.0	18.8	0.00e+00	0	42	0	916455424	7	3930
2026-01-11 01:52:31.71	32.37	24.13	-23.3	-24.1	18.7	0.00e+00	0	42	0	921698304	7	3950
2026-01-11 01:52:32.72	32.48	24.27	-23.2	-23.8	18.8	0.00e+00	0	42	0	926941184	7	3890
2026-01-11 01:52:33.73	32.59	24.42	-23.0	-23.6	19.0	0.00e+00	0	42	0	933232640	7	3827
2026-01-11 01:52:34.73	32.70	24.56	-23.1	-23.6	19.0	0.00e+00	0	42	0	938475520	7	3825
2026-01-11 01:52:35.73	32.81	24.70	-23.0	-23.5	19.0	0.00e+00	0	42	0	944766976	7	3809
2026-01-11 01:52:36.74	32.92	24.85	-23.0	-23.4	19.1	1.28e-04	0	42	0	950009856	7	3792
2026-01-11 01:52:37.75	33.03	25.00	-23.1	-23.6	19.0	0.00e+00	0	42	0	955252736	7	3832
2026-01-11 01:52:38.75	33.14	25.15	-22.9	-23.9	19.1	0.00e+00	0	42	0	961544192	6	4001
2026-01-11 01:52:39.76	33.26	25.30	-23.0	-23.9	19.1	0.00e+00	0	42	0	966787072	6	4018
2026-01-11 01:52:40.76	33.37	25.45	-23.2	-24.3	18.9	0.00e+00	0	42	0	973078528	6	4109
2026-01-11 01:52:41.76	33.49	25.59	-23.0	-24.1	19.0	1.67e-04	0	42	0	978321408	6	4053
2026-01-11 01:52:42.76	33.60	25.74	-22.9	-23.7	19.2	0.00e+00	0	42	0	983564288	6	3959
2026-01-11 01:52:43.77	33.72	25.90	-22.8	-23.5	19.3	0.00e+00	0	42	0	989855744	6	3917
2026-01-11 01:52:44.77	33.84	26.05	-22.8	-23.7	19.2	0.00e+00	0	42	0	995098624	6	3955
2026-01-11 01:52:45.78	33.96	26.20	-22.8	-23.7	19.2	1.10e-04	0	42	0	1001390080	6	3958
2026-01-11 01:52:46.79	34.08	26.36	-22.8	-23.5	19.3	0.00e+00	0	42	0	1006632960	6	3913
2026-01-11 01:52:47.79	34.20	26.51	-22.9	-23.7	19.2	7.09e-05	0	42	0	1011875840	6	3961
2026-01-11 01:52:48.80	34.33	26.67	-22.8	-23.5	19.3	7.32e-05	0	42	0	1018167296	6	3920
2026-01-11 01:52:49.81	34.45	26.82	-22.8	-23.7	19.2	0.00e+00	0	42	0	1023410176	6	3955
2026-01-11 01:52:50.81	34.58	26.98	-22.8	-23.6	19.2	7.32e-05	0	42	0	1028653056	6	3953
2026-01-11 01:52:51.82	34.71	27.14	-22.8	-23.7	19.2	0.00e+00	0	42	0	1034944512	6	3964
2026-01-11 01:52:52.82	34.83	27.30	-22.9	-23.8	19.2	0.00e+00	0	42	0	1040187392	6	3994
2026-01-11 01:52:53.83	34.96	27.46	-23.0	-24.0	19.1	5.26e-05	0	42	0	1046478848	6	4041
2026-01-11 01:52:54.83	35.09	27.61	-22.8	-23.6	19.3	1.94e-05	0	42	0	1051721728	6	3932
2026-01-11 01:52:55.84	35.23	27.78	-22.7	-23.3	19.5	0.00e+00	0	42	0	1058013184	6	3864
2026-01-11 01:52:56.85	35.36	27.94	-22.7	-23.3	19.4	1.02e-05	0	42	0	1063256064	6	3876
2026-01-11 01:52:57.86	35.50	28.10	-22.7	-23.3	19.5	2.17e-05	0	42	0	1068498944	6	3856
2026-01-11 01:52:58.87	35.63	28.27	-22.7	-23.3	19.5	0.00e+00	0	42	0	1074790400	6	3859
2026-01-11 01:52:59.87	35.77	28.43	-22.7	-23.3	19.4	4.23e-05	0	42	0	1080033280	6	3876
2026-01-11 01:53:00.88	35.91	28.59	-23.0	-23.9	19.1	0.00e+00	0	42	0	1086324736	6	4019
2026-01-11 01:53:01.89	36.05	28.76	-22.8	-23.5	19.4	0.00e+00	0	42	0	1091567616	6	3920
2026-01-11 01:53:02.89	36.19	28.93	-22.7	-23.3	19.5	9.61e-05	0	42	0	1096810496	6	3859
2026-01-11 01:53:03.90	36.33	29.09	-22.6	-23.1	19.6	8.12e-05	0	42	0	1103101952	6	3819
2026-01-11 01:53:04.91	36.48	29.26	-22.7	-23.4	19.4	0.00e+00	0	42	0	1108344832	6	3884
2026-01-11 01:53:05.91	36.62	29.43	-22.7	-23.3	19.5	5.60e-05	0	42	0	1113587712	6	3859
2026-01-11 01:53:06.92	36.77	29.60	-22.9	-23.7	19.3	2.74e-05	0	42	0	1119879168	6	3960
2026-01-11 01:53:07.93	36.92	29.77	-22.8	-23.5	19.4	9.38e-05	0	42	0	1125122048	6	3906
2026-01-11 01:53:08.93	37.07	29.94	-22.7	-23.4	19.4	0.00e+00	0	42	0	1131413504	6	3891
2026-01-11 01:53:09.93	37.22	30.11	-22.7	-23.3	19.5	0.00e+00	0	42	0	1136656384	6	3871
2026-01-11 01:53:10.94	37.38	30.29	-22.5	-22.9	19.7	0.00e+00	0	42	0	1142947840	6	3769
2026-01-11 01:53:11.95	37.53	30.46	-22.4	-22.7	19.8	4.50e-06	0	42	0	1148190720	6	3719
2026-01-11 01:53:12.95	37.69	30.64	-22.5	-23.0	19.7	0.00e+00	0	42	0	1153433600	6	3792
2026-01-11 01:53:13.96	37.85	30.81	-22.4	-22.7	19.8	0.00e+00	0	42	0	1159725056	6	3737
2026-01-11 01:53:14.97	38.01	30.99	-22.4	-22.7	19.8	1.20e-04	0	42	0	1164967936	6	3725
2026-01-11 01:53:15.97	38.17	31.17	-22.6	-23.1	19.6	0.00e+00	0	42	0	1170210816	6	3828
2026-01-11 01:53:16.98	38.34	31.35	-22.6	-23.1	19.6	3.40e-06	0	42	0	1176502272	6	3817
2026-01-11 01:53:17.99	38.50	31.53	-22.7	-23.3	19.5	3.40e-06	0	42	0	1181745152	6	3863
2026-01-11 01:53:19.00	38.67	31.71	-22.8	-23.6	19.4	0.00e+00	0	42	0	1188036608	6	3940
2026-01-11 01:53:20.00	38.84	31.89	-22.6	-23.2	19.6	0.00e+00	0	42	0	1193279488	6	3848
2026-01-11 01:53:21.00	39.01	32.07	-22.7	-23.2	19.6	0.00e+00	0	42	0	1198522368	6	3850
2026-01-11 01:53:22.01	39.18	32.25	-22.7	-23.4	19.5	0.00e+00	0	42	0	1204813824	6	3882
2026-01-11 01:53:23.02	39.36	32.43	-23.0	-23.9	19.2	0.00e+00	0	42	0	1210056704	6	4014
2026-01-11 01:53:24.03	39.54	32.62	-22.8	-23.6	19.4	4.69e-05	0	42	0	1216348160	6	3944
2026-01-11 01:53:25.03	39.71	32.80	-23.0	-23.9	19.3	0.00e+00	0	42	0	1221591040	6	3996
2026-01-11 01:53:26.03	39.89	32.99	-23.2	-24.4	19.1	2.23e-04	0	42	0	1227882496	6	4123
2026-01-11 01:53:27.04	40.08	33.17	-22.8	-23.6	19.4	2.33e-04	0	42	0	1233125376	6	3942
2026-01-11 01:53:28.05	40.26	33.36	-22.8	-23.5	19.5	0.00e+00	0	42	0	1238368256	6	3906
2026-01-11 01:53:29.05	40.45	33.55	-22.7	-23.4	19.5	1.84e-04	0	42	0	1244659712	6	3877
2026-01-11 01:53:30.05	40.64	33.74	-22.8	-23.5	19.5	0.00e+00	0	42	0	1249902592	6	3913
2026-01-11 01:53:31.06	40.83	33.93	-22.7	-23.3	19.6	0.00e+00	0	42	0	1255145472	6	3858
2026-01-11 01:53:32.07	41.02	34.12	-22.5	-22.9	19.7	2.07e-04	0	42	0	1261436928	6	3778
2026-01-11 01:53:33.08	41.22	34.31	-22.6	-23.1	19.6	1.70e-04	0	42	0	1266679808	6	3822
2026-01-11 01:53:34.08	41.42	34.50	-22.5	-22.9	19.8	0.00e+00	0	42	0	1272971264	6	3776
2026-01-11 01:53:35.09	41.62	34.70	-22.3	-22.5	20.0	0.00e+00	0	42	0	1278214144	6	3676
2026-01-11 01:53:36.09	41.82	34.89	-22.3	-22.5	20.0	0.00e+00	0	42	0	1283457024	6	3678
2026-01-11 01:53:37.10	42.02	35.09	-22.4	-22.6	19.9	0.00e+00	0	42	0	1289748480	6	3719
2026-01-11 01:53:38.10	42.23	35.28	-22.3	-22.9	20.0	0.00e+00	0	42	0	1294991360	5	3883
2026-01-11 01:53:39.11	42.44	35.48	-22.3	-23.0	20.0	0.00e+00	0	42	0	1301282816	5	3902
2026-01-11 01:53:40.11	42.65	35.68	-22.1	-22.6	20.2	0.00e+00	0	42	0	1306525696	5	3807
2026-01-11 01:53:41.12	42.87	35.87	-22.1	-22.5	20.2	0.00e+00	0	42	0	1311768576	5	3793
2026-01-11 01:53:42.12	43.08	36.07	-22.2	-22.7	20.1	0.00e+00	0	42	0	1318060032	5	3828
2026-01-11 01:53:43.13	43.31	36.27	-22.0	-22.3	20.3	0.00e+00	0	42	0	1323302912	5	3749
2026-01-11 01:53:44.13	43.53	36.47	-22.0	-22.4	20.3	0.00e+00	0	42	0	1329594368	5	3767
2026-01-11 01:53:45.14	43.75	36.67	-22.2	-22.7	20.1	0.00e+00	0	42	0	1334837248	5	3830
2026-01-11 01:53:46.15	43.98	36.88	-22.2	-22.8	20.1	0.00e+00	0	42	0	1340080128	5	3859
2026-01-11 01:53:47.15	44.21	37.08	-22.3	-23.0	20.0	0.00e+00	0	42	0	1346371584	5	3906
2026-01-11 01:53:48.16	44.45	37.28	-22.3	-23.0	20.0	0.00e+00	0	42	0	1351614464	5	3896
2026-01-11 01:53:49.17	44.69	37.49	-22.3	-23.1	19.9	0.00e+00	0	42	0	1356857344	5	3928
2026-01-11 01:53:50.17	44.92	37.69	-22.3	-23.0	20.0	0.00e+00	0	42	0	1363148800	5	3902
2026-01-11 01:53:51.17	45.17	37.90	-22.4	-23.1	20.0	0.00e+00	0	42	0	1368391680	5	3932
2026-01-11 01:53:52.18	45.41	38.10	-22.3	-23.1	20.0	0.00e+00	0	42	0	1374683136	5	3915
2026-01-11 01:53:53.19	45.66	38.31	-22.3	-23.0	20.0	0.00e+00	0	42	0	1379926016	5	3904
2026-01-11 01:53:54.20	45.92	38.52	-22.3	-23.1	20.0	0.00e+00	0	42	0	1386217472	5	3918
2026-01-11 01:53:55.20	46.17	38.73	-22.3	-23.0	20.0	0.00e+00	0	42	0	1391460352	5	3896
2026-01-11 01:53:56.21	46.43	38.94	-22.3	-23.1	20.0	0.00e+00	0	42	0	1396703232	5	3916
2026-01-11 01:53:57.22	46.69	39.15	-22.2	-22.7	20.2	0.00e+00	0	42	0	1402994688	5	3840
2026-01-11 01:53:58.23	46.96	39.36	-22.1	-22.6	20.2	0.00e+00	0	42	0	1408237568	5	3811
2026-01-11 01:53:59.23	47.22	39.57	-22.1	-22.6	20.2	0.00e+00	0	42	0	1414529024	5	3821
2026-01-11 01:54:00.24	47.50	39.78	-22.4	-23.1	20.0	0.00e+00	0	42	0	1419771904	5	3927
2026-01-11 01:54:01.24	47.77	39.99	-22.2	-22.8	20.1	0.00e+00	0	42	0	1425014784	5	3867
2026-01-11 01:54:02.25	48.05	40.21	-22.1	-22.5	20.3	0.00e+00	0	42	0	1431306240	5	3795
2026-01-11 01:54:03.25	48.33	40.42	-22.1	-22.6	20.2	0.00e+00	0	42	0	1436549120	5	3802
2026-01-11 01:54:04.25	48.62	40.63	-22.2	-22.9	20.1	0.00e+00	0	42	0	1442840576	5	3867
2026-01-11 01:54:05.26	48.91	40.85	-22.1	-22.6	20.3	0.00e+00	0	42	0	1448083456	5	3801
2026-01-11 01:54:06.26	49.20	41.06	-22.1	-22.5	20.3	0.00e+00	0	42	0	1453326336	5	3798
2026-01-11 01:54:07.26	49.50	41.28	-22.1	-22.5	20.3	0.00e+00	0	42	0	1459617792	5	3789
2026-01-11 01:54:08.27	49.80	41.49	-22.0	-22.4	20.4	0.00e+00	0	42	0	1464860672	5	3756
2026-01-11 01:54:09.28	50.11	41.71	-22.1	-23.1	20.2	0.00e+00	0	42	0	1471152128	4	4039
2026-01-11 01:54:10.28	50.42	41.93	-22.4	-23.6	20.0	0.00e+00	0	42	0	1476395008	4	4168
2026-01-11 01:54:11.28	50.73	42.14	-22.4	-23.8	19.9	0.00e+00	0	42	0	1481637888	4	4207
2026-01-11 01:54:12.28	51.04	42.36	-22.6	-23.7	19.7	0.00e+00	0	42	0	1487929344	5	4064
2026-01-11 01:54:13.28	51.36	42.57	-22.8	-24.1	19.6	0.00e+00	0	42	0	1493172224	5	4156
2026-01-11 01:54:14.29	51.69	42.79	-22.5	-23.4	19.9	0.00e+00	0	42	0	1498415104	5	4000
2026-01-11 01:54:15.29	52.02	43.01	-22.2	-22.8	20.2	0.00e+00	0	42	0	1504706560	5	3863
2026-01-11 01:54:16.30	52.36	43.23	-22.1	-22.6	20.3	0.00e+00	0	42	0	1509949440	5	3801
2026-01-11 01:54:17.31	52.70	43.45	-22.3	-23.1	20.0	0.00e+00	0	42	0	1516240896	5	3916
2026-01-11 01:54:18.31	53.04	43.67	-22.8	-24.1	19.5	0.00e+00	0	42	0	1521483776	5	4171
2026-01-11 01:54:19.32	53.39	43.89	-23.1	-24.3	19.2	0.00e+00	0	42	0	1526726656	6	4096
2026-01-11 01:54:20.32	53.75	44.10	-23.0	-24.1	19.3	0.00e+00	0	42	0	1533018112	6	4042
2026-01-11 01:54:21.33	54.11	44.32	-23.0	-24.0	19.3	0.00e+00	0	42	0	1538260992	6	4036
2026-01-11 01:54:22.34	54.47	44.54	-22.8	-23.6	19.6	0.00e+00	0	42	0	1544552448	6	3935
2026-01-11 01:54:23.35	54.84	44.76	-22.7	-23.4	19.7	0.00e+00	0	42	0	1549795328	6	3884
2026-01-11 01:54:24.36	55.22	44.98	-22.9	-23.7	19.5	0.00e+00	0	42	0	1555038208	6	3959
2026-01-11 01:54:25.37	55.60	45.20	-23.1	-24.1	15.9	0.00e+00	0	42	0	1561329664	6	4061
2026-01-11 01:54:26.37	55.98	45.42	-23.2	-24.4	18.5	0.00e+00	0	42	0	1566572544	6	4122
2026-01-11 01:54:27.38	56.37	45.64	-23.5	-24.4	18.9	0.00e+00	0	42	0	1572864000	7	4020
2026-01-11 01:54:28.39	56.77	45.86	-23.0	-23.4	19.5	0.00e+00	0	42	0	1578106880	7	3767
2026-01-11 01:54:29.40	57.17	46.08	-22.8	-23.5	19.6	0.00e+00	0	42	0	1583349760	6	3910
2026-01-11 01:54:30.40	57.58	46.29	-22.8	-23.5	19.7	0.00e+00	0	42	0	1589641216	6	3905
2026-01-11 01:54:31.40	57.99	46.51	-22.8	-23.5	19.6	0.00e+00	0	42	0	1594884096	6	3913
2026-01-11 01:54:32.41	58.41	46.73	-22.7	-23.3	19.8	6.06e-05	0	42	0	1601175552	6	3863
2026-01-11 01:54:33.42	58.83	46.94	-22.6	-23.1	19.9	0.00e+00	0	42	0	1606418432	6	3824
2026-01-11 01:54:34.43	59.26	47.16	-22.6	-23.2	19.8	1.33e-04	0	42	0	1612709888	6	3843
2026-01-11 01:54:35.43	59.69	47.37	-22.7	-23.2	19.8	0.00e+00	0	42	0	1617952768	6	3843
2026-01-11 01:54:36.43	60.13	47.59	-22.7	-23.3	19.7	0.00e+00	0	42	0	1623195648	6	3863
2026-01-11 01:54:37.44	60.58	47.80	-22.7	-23.4	19.7	8.23e-05	0	42	0	1629487104	6	3875
2026-01-11 01:54:38.45	61.04	48.01	-22.7	-23.3	19.8	0.00e+00	0	42	0	1634729984	6	3863
2026-01-11 01:54:39.45	61.49	48.22	-22.5	-23.0	19.9	0.00e+00	0	42	0	1639972864	6	3785
2026-01-11 01:54:40.46	61.96	48.44	-22.5	-23.0	19.9	0.00e+00	0	42	0	1646264320	6	3788
2026-01-11 01:54:41.47	62.43	48.65	-22.6	-23.1	19.9	0.00e+00	0	42	0	1651507200	6	3812
2026-01-11 01:54:42.48	62.91	48.86	-22.6	-23.2	19.8	0.00e+00	0	42	0	1657798656	6	3830
2026-01-11 01:54:43.48	63.40	49.06	-22.6	-23.2	19.8	4.50e-06	0	42	0	1663041536	6	3838
2026-01-11 01:54:44.49	63.89	49.27	-22.5	-22.9	20.0	3.54e-05	0	42	0	1668284416	6	3777
2026-01-11 01:54:45.50	64.39	49.48	-22.6	-23.1	19.9	0.00e+00	0	42	0	1674575872	6	3814
2026-01-11 01:54:46.51	64.90	49.68	-22.9	-23.6	19.6	1.65e-04	0	42	0	1679818752	6	3935
2026-01-11 01:54:47.51	65.41	49.88	-22.9	-23.8	19.5	6.52e-05	0	42	0	1686110208	6	3978
2026-01-11 01:54:48.52	65.93	50.08	-22.9	-23.7	19.6	0.00e+00	0	42	0	1691353088	6	3952
2026-01-11 01:54:49.52	66.45	50.28	-22.7	-23.3	19.8	3.20e-04	0	42	0	1696595968	6	3850
2026-01-11 01:54:50.53	66.98	50.48	-22.9	-23.8	19.6	3.40e-04	0	42	0	1702887424	6	3966
2026-01-11 01:54:51.53	67.52	50.67	-23.0	-23.9	19.5	0.00e+00	0	42	0	1708130304	6	4006
2026-01-11 01:54:52.54	68.07	50.87	-22.8	-23.5	19.7	1.70e-04	0	42	0	1714421760	6	3898
2026-01-11 01:54:53.54	68.61	51.06	-22.8	-23.6	19.6	5.49e-05	0	42	0	1719664640	6	3936
2026-01-11 01:54:54.55	69.18	51.25	-23.0	-23.8	19.5	0.00e+00	0	42	0	1724907520	6	3991
2026-01-11 01:54:55.55	69.74	51.44	-22.9	-23.7	19.6	0.00e+00	0	42	0	1731198976	6	3967
2026-01-11 01:54:56.56	70.32	51.63	-22.9	-23.7	19.6	0.00e+00	0	42	0	1736441856	6	3962
2026-01-11 01:54:57.57	70.90	51.81	-22.9	-23.8	19.5	0.00e+00	0	42	0	1741684736	6	3989
2026-01-11 01:54:58.58	71.49	51.99	-23.2	-24.3	19.3	0.00e+00	0	42	0	1747976192	6	4109
2026-01-11 01:54:59.58	72.08	52.17	-23.0	-24.1	19.2	0.00e+00	0	42	0	1753219072	6	4068
2026-01-11 01:55:00.59	72.69	52.35	-22.8	-23.6	19.5	0.00e+00	0	42	0	1759510528	6	3950
2026-01-11 01:55:01.59	73.29	52.52	-22.9	-23.9	19.4	0.00e+00	0	42	0	1764753408	6	4002
2026-01-11 01:55:02.60	73.91	52.69	-23.1	-24.3	19.1	0.00e+00	0	42	0	1771044864	6	4116
2026-01-11 01:55:03.61	74.54	52.86	-23.1	-24.2	19.2	0.00e+00	0	42	0	1776287744	6	4085
2026-01-11 01:55:04.61	75.17	53.02	-23.0	-24.0	19.3	4.50e-06	0	42	0	1781530624	6	4047
2026-01-11 01:55:05.62	75.81	53.19	-23.3	-24.6	19.0	0.00e+00	0	42	0	1787822080	6	4189
2026-01-11 01:55:06.62	76.45	53.35	-23.2	-24.5	19.1	0.00e+00	0	42	0	1793064960	6	4150
2026-01-11 01:55:07.63	77.10	53.50	-23.1	-24.1	19.2	0.00e+00	0	42	0	1799356416	6	4075
2026-01-11 01:55:08.64	77.77	53.66	-23.1	-24.3	19.2	0.00e+00	0	42	0	1804599296	6	4107
2026-01-11 01:55:09.65	78.44	53.81	-23.2	-24.5	19.1	0.00e+00	0	42	0	1809842176	6	4154
2026-01-11 01:55:10.65	79.10	53.95	-23.4	-24.9	18.9	0.00e+00	0	42	0	1816133632	6	4266
2026-01-11 01:55:11.65	79.78	54.09	-23.5	-25.0	18.8	0.00e+00	0	42	0	1821376512	6	4291
2026-01-11 01:55:12.66	80.47	54.23	-23.6	-24.7	18.7	0.00e+00	0	42	0	1826619392	7	4099
2026-01-11 01:55:13.67	81.16	54.37	-23.5	-24.6	18.8	0.00e+00	0	42	0	1832910848	7	4080
2026-01-11 01:55:14.67	81.86	54.50	-23.8	-25.2	18.5	0.00e+00	0	42	0	1838153728	7	4218
2026-01-11 01:55:15.68	82.57	54.63	-23.7	-25.0	18.6	0.00e+00	0	42	0	1844445184	7	4185
2026-01-11 01:55:16.68	83.28	54.75	-23.2	-24.0	19.1	0.00e+00	0	42	0	1849688064	7	3928
2026-01-11 01:55:17.68	83.99	54.87	-23.1	-23.7	19.2	0.00e+00	0	42	0	1855979520	7	3848
2026-01-11 01:55:18.69	84.72	54.99	-23.3	-24.1	19.1	0.00e+00	0	42	0	1861222400	7	3942
2026-01-11 01:55:19.70	85.45	55.10	-23.4	-24.4	18.9	0.00e+00	0	42	0	1866465280	7	4037
2026-01-11 01:55:20.71	86.19	55.20	-23.5	-24.5	18.8	0.00e+00	0	42	0	1872756736	7	4070
2026-01-11 01:55:21.72	86.93	55.31	-23.3	-24.2	19.0	0.00e+00	0	42	0	1877999616	7	3975
2026-01-11 01:55:22.72	87.67	55.40	-23.2	-23.9	19.1	0.00e+00	0	42	0	1883242496	7	3914
2026-01-11 01:55:23.73	88.43	55.50	-23.4	-24.2	19.0	0.00e+00	0	42	0	1889533952	7	3980
2026-01-11 01:55:24.74	89.19	55.59	-23.5	-24.5	18.8	0.00e+00	0	42	0	1894776832	7	4046
2026-01-11 01:55:25.75	89.95	55.67	-23.6	-24.8	18.7	0.00e+00	0	42	0	1901068288	7	4128
2026-01-11 01:55:26.75	90.71	55.75	-23.6	-24.7	18.7	0.00e+00	0	42	0	1906311168	7	4107
2026-01-11 01:55:27.76	91.48	55.82	-24.0	-25.6	18.3	0.00e+00	0	42	0	1911554048	7	4341
2026-01-11 01:55:28.76	92.25	55.89	-24.1	-25.3	18.1	0.00e+00	0	42	0	1917845504	8	4156
2026-01-11 01:55:29.76	93.02	55.96	-23.8	-24.6	18.6	0.00e+00	0	42	0	1923088384	8	3968
2026-01-11 01:55:30.77	93.81	56.02	-23.9	-24.9	18.4	0.00e+00	0	42	0	1929379840	8	4050
2026-01-11 01:55:31.78	94.59	56.07	-23.9	-24.8	18.4	0.00e+00	0	42	0	1934622720	8	4028
2026-01-11 01:55:32.78	95.38	56.12	-24.1	-25.3	18.2	0.00e+00	0	42	0	1940914176	8	4139
2026-01-11 01:55:33.79	96.17	56.16	-24.2	-25.5	18.1	0.00e+00	0	42	0	1946157056	8	4188
2026-01-11 01:55:34.79	96.95	56.20	-24.3	-25.7	18.0	0.00e+00	0	42	0	1951399936	8	4246
2026-01-11 01:55:35.79	97.74	56.23	-24.0	-25.1	18.3	0.00e+00	0	42	0	1957691392	8	4091
2026-01-11 01:55:36.79	98.53	56.26	-24.1	-25.2	18.3	0.00e+00	0	42	0	1962934272	8	4130
2026-01-11 01:55:37.80	99.33	56.29	-23.8	-24.8	18.5	0.00e+00	0	42	0	1968177152	8	4010
2026-01-11 01:55:38.80	100.13	56.30	-23.2	-24.0	19.1	0.00e+00	0	42	0	1974468608	7	3921
2026-01-11 01:55:39.81	100.93	56.32	-23.3	-24.1	19.0	0.00e+00	0	42	0	1979711488	7	3968
2026-01-11 01:55:40.81	101.72	56.32	-23.6	-24.8	18.7	4.50e-06	0	42	0	1984954368	7	4136
2026-01-11 01:55:41.81	102.52	56.33	-23.3	-24.1	19.0	0.00e+00	0	42	0	1991245824	7	3971
2026-01-11 01:55:42.82	103.32	56.32	-23.1	-23.7	19.2	0.00e+00	0	42	0	1996488704	7	3859
2026-01-11 01:55:43.83	104.12	56.31	-22.9	-24.1	18.5	0.00e+00	0	42	0	2002780160	6	4132
2026-01-11 01:55:44.83	104.92	56.30	-23.4	-24.4	18.9	0.00e+00	0	42	0	2008023040	7	4044
2026-01-11 01:55:45.84	105.72	56.28	-23.2	-23.9	17.3	0.00e+00	0	42	0	2014314496	7	3912
2026-01-11 01:55:46.85	106.52	56.25	-23.4	-24.3	18.9	0.00e+00	0	42	0	2019557376	7	3992
2026-01-11 01:55:47.86	107.32	56.22	-23.4	-24.4	18.9	0.00e+00	0	42	0	2024800256	7	4021
2026-01-11 01:55:48.86	108.11	56.19	-23.3	-24.2	19.0	0.00e+00	0	42	0	2031091712	7	3988
2026-01-11 01:55:49.87	108.90	56.15	-23.3	-24.2	19.0	0.00e+00	0	42	0	2036334592	7	3987
2026-01-11 01:55:50.88	109.69	56.10	-23.3	-24.1	19.1	0.00e+00	0	42	0	2042626048	7	3960
2026-01-11 01:55:51.88	110.47	56.05	-23.6	-24.8	18.7	0.00e+00	0	42	0	2047868928	7	4139
2026-01-11 01:55:52.89	111.26	56.00	-23.8	-25.1	18.5	0.00e+00	0	42	0	2053111808	7	4214
2026-01-11 01:55:53.90	112.04	55.94	-23.8	-25.1	18.6	0.00e+00	0	42	0	2059403264	7	4216
2026-01-11 01:55:54.91	112.82	55.87	-23.8	-25.2	18.5	0.00e+00	0	42	0	2064646144	7	4225
2026-01-11 01:55:55.91	113.59	55.80	-23.4	-24.4	18.9	0.00e+00	0	42	0	2069889024	7	4027
2026-01-11 01:55:56.92	114.36	55.72	-23.3	-24.1	19.1	0.00e+00	0	42	0	2076180480	7	3948
2026-01-11 01:55:57.93	115.13	55.64	-23.4	-24.3	19.0	0.00e+00	0	42	0	2081423360	7	3997
2026-01-11 01:55:58.93	115.88	55.56	-23.3	-24.2	19.0	0.00e+00	0	42	0	2087714816	7	3971
2026-01-11 01:55:59.94	116.64	55.47	-23.2	-24.0	19.1	0.00e+00	0	42	0	2092957696	7	3923
2026-01-11 01:56:00.94	117.39	55.37	-23.4	-24.4	18.9	5.14e-05	0	42	0	2099249152	7	4029
2026-01-11 01:56:01.95	118.14	55.27	-23.9	-25.3	18.4	0.00e+00	0	42	0	2104492032	7	4272
2026-01-11 01:56:02.95	118.87	55.17	-23.8	-25.3	18.4	0.00e+00	0	42	0	2109734912	7	4267
2026-01-11 01:56:03.96	119.61	55.06	-23.7	-25.1	18.5	1.25e-05	0	42	0	2116026368	7	4207
2026-01-11 01:56:04.96	120.33	54.95	-23.9	-25.3	18.5	0.00e+00	0	42	0	2121269248	7	4257
2026-01-11 01:56:05.97	121.06	54.83	-23.6	-24.7	18.7	0.00e+00	0	42	0	2126512128	7	4112
2026-01-11 01:56:06.98	121.78	54.71	-23.7	-24.9	18.6	0.00e+00	0	42	0	2132803584	7	4166
2026-01-11 01:56:07.99	122.49	54.58	-23.6	-24.7	18.7	1.68e-04	0	42	0	2138046464	7	4116
2026-01-11 01:56:08.99	123.19	54.46	-23.5	-24.6	18.8	0.00e+00	0	42	0	2144337920	7	4089
2026-01-11 01:56:10.00	123.89	54.32	-23.5	-24.6	18.8	1.37e-05	0	42	0	2149580800	7	4085
2026-01-11 01:56:11.00	124.58	54.19	-23.3	-24.1	19.1	1.59e-04	0	42	0	2154823680	7	3942
2026-01-11 01:56:12.01	125.27	54.05	-23.3	-24.2	19.0	0.00e+00	0	42	0	2161115136	7	3969
2026-01-11 01:56:13.01	125.94	53.90	-23.7	-24.9	18.6	1.42e-04	0	42	0	2166358016	7	4165
2026-01-11 01:56:14.02	126.62	53.75	-23.6	-24.7	18.7	1.70e-04	0	42	0	2172649472	7	4104
2026-01-11 01:56:15.03	127.29	53.60	-23.2	-23.9	19.1	0.00e+00	0	42	0	2177892352	7	3905
2026-01-11 01:56:16.03	127.94	53.45	-23.1	-23.8	19.2	0.00e+00	0	42	0	2184183808	7	3889
2026-01-11 01:56:17.03	128.59	53.29	-23.4	-24.8	18.9	3.05e-04	0	42	0	2189426688	6	4245
2026-01-11 01:56:18.03	129.23	53.13	-23.5	-24.7	18.7	0.00e+00	0	42	0	2194669568	7	4105
2026-01-11 01:56:19.04	129.87	52.97	-23.4	-24.4	18.9	0.00e+00	0	42	0	2200961024	7	4024
2026-01-11 01:56:20.04	130.49	52.80	-23.4	-24.3	19.0	2.56e-04	0	42	0	2206203904	7	3995
2026-01-11 01:56:21.05	131.12	52.63	-23.7	-24.9	18.7	0.00e+00	0	42	0	2211446784	7	4145
2026-01-11 01:56:22.06	131.74	52.46	-23.3	-24.2	19.0	3.55e-04	0	42	0	2217738240	7	3968
2026-01-11 01:56:23.07	132.35	52.28	-23.3	-24.1	19.1	0.00e+00	0	42	0	2222981120	7	3951
2026-01-11 01:56:24.08	132.95	52.10	-23.4	-24.3	19.0	0.00e+00	0	42	0	2229272576	7	4002
2026-01-11 01:56:25.09	133.55	51.92	-23.3	-24.1	19.0	0.00e+00	0	42	0	2234515456	7	3968
2026-01-11 01:56:26.10	134.14	51.74	-23.2	-23.9	19.1	0.00e+00	0	42	0	2239758336	7	3916
2026-01-11 01:56:27.09	134.71	51.56	-23.3	-24.2	19.0	0.00e+00	0	42	0	2246049792	7	3981
2026-01-11 01:56:28.10	135.28	51.37	-23.1	-24.2	19.2	0.00e+00	0	42	0	2251292672	6	4094
2026-01-11 01:56:29.10	135.85	51.18	-23.2	-24.4	19.1	3.02e-04	0	42	0	2257584128	6	4142
2026-01-11 01:56:30.11	136.41	50.99	-23.0	-24.0	19.3	0.00e+00	0	42	0	2262827008	6	4053
2026-01-11 01:56:31.12	136.96	50.79	-22.9	-23.9	19.3	0.00e+00	0	42	0	2268069888	6	4027
2026-01-11 01:56:32.12	137.50	50.60	-22.9	-23.7	19.4	0.00e+00	0	42	0	2274361344	6	3984
2026-01-11 01:56:33.13	138.04	50.40	-22.9	-23.8	19.4	0.00e+00	0	42	0	2279604224	6	3995
2026-01-11 01:56:34.13	138.57	50.20	-22.7	-23.4	19.6	0.00e+00	0	42	0	2285895680	6	3900
2026-01-11 01:56:35.14	139.10	50.00	-22.6	-23.1	19.8	0.00e+00	0	42	0	2291138560	6	3827
2026-01-11 01:56:36.15	139.62	49.80	-22.6	-23.2	19.7	0.00e+00	0	42	0	2296381440	6	3836
2026-01-11 01:56:37.15	140.12	49.60	-22.9	-23.7	19.5	0.00e+00	0	42	0	2302672896	6	3965
2026-01-11 01:56:38.16	140.63	49.39	-22.9	-23.7	19.5	0.00e+00	0	42	0	2307915776	6	3977
2026-01-11 01:56:39.17	141.13	49.18	-23.0	-24.0	19.3	0.00e+00	0	42	0	2313158656	6	4043
2026-01-11 01:56:40.18	141.62	48.98	-22.6	-23.3	19.7	0.00e+00	0	42	0	2319450112	6	3866
2026-01-11 01:56:41.18	142.10	48.77	-22.6	-23.6	19.7	0.00e+00	0	42	0	2324692992	5	4063
2026-01-11 01:56:42.19	142.58	48.56	-22.8	-24.1	19.5	0.00e+00	0	42	0	2330984448	5	4170
2026-01-11 01:56:43.20	143.05	48.35	-23.1	-24.2	19.2	0.00e+00	0	42	0	2336227328	6	4104
2026-01-11 01:56:44.21	143.52	48.13	-22.9	-23.9	19.3	0.00e+00	0	42	0	2342518784	6	4022
2026-01-11 01:56:45.22	143.98	47.92	-22.8	-23.6	19.5	0.00e+00	0	42	0	2347761664	6	3962
2026-01-11 01:56:46.23	144.43	47.70	-22.7	-23.5	19.6	0.00e+00	0	42	0	2354053120	6	3917
2026-01-11 01:56:47.23	144.88	47.49	-22.7	-23.4	19.5	0.00e+00	0	42	0	2359296000	6	3908
2026-01-11 01:56:48.24	145.32	47.27	-22.7	-23.3	19.6	0.00e+00	0	42	0	2364538880	6	3874
2026-01-11 01:56:49.25	145.75	47.06	-22.8	-23.5	19.5	0.00e+00	0	42	0	2370830336	6	3925
2026-01-11 01:56:50.26	146.18	46.84	-22.6	-23.1	19.7	0.00e+00	0	42	0	2376073216	6	3834
2026-01-11 01:56:51.27	146.61	46.62	-22.6	-23.2	19.7	0.00e+00	0	42	0	2381316096	6	3853
2026-01-11 01:56:52.28	147.02	46.40	-22.8	-23.5	19.5	0.00e+00	0	42	0	2387607552	6	3937
2026-01-11 01:56:53.29	147.44	46.18	-22.6	-23.2	19.7	0.00e+00	0	42	0	2392850432	6	3860
2026-01-11 01:56:54.29	147.84	45.97	-22.5	-23.0	19.8	0.00e+00	0	42	0	2399141888	6	3805
2026-01-11 01:56:55.30	148.24	45.75	-22.4	-23.2	19.9	0.00e+00	0	42	0	2404384768	5	3961
2026-01-11 01:56:56.30	148.63	45.53	-22.3	-23.0	20.0	0.00e+00	0	42	0	2409627648	5	3912
2026-01-11 01:56:57.31	149.02	45.31	-22.4	-23.2	19.9	0.00e+00	0	42	0	2415919104	5	3969
2026-01-11 01:56:58.32	149.41	45.09	-22.5	-23.5	19.7	0.00e+00	0	42	0	2421161984	5	4043
2026-01-11 01:56:59.32	149.78	44.87	-22.6	-23.8	19.5	0.00e+00	0	42	0	2427453440	5	4119
2026-01-11 01:57:00.33	150.16	44.65	-22.5	-23.6	19.7	0.00e+00	0	42	0	2432696320	5	4055
2026-01-11 01:57:01.34	150.53	44.43	-22.5	-23.5	19.7	0.00e+00	0	42	0	2438987776	5	4034
2026-01-11 01:57:02.34	150.89	44.21	-22.4	-23.2	19.8	0.00e+00	0	42	0	2444230656	5	3971
2026-01-11 01:57:03.35	151.25	43.99	-22.4	-23.3	19.8	0.00e+00	0	42	0	2449473536	5	3994
2026-01-11 01:57:04.36	151.60	43.77	-22.5	-23.6	19.7	0.00e+00	0	42	0	2455764992	5	4056
2026-01-11 01:57:05.37	151.95	43.55	-22.6	-23.8	19.6	0.00e+00	0	42	0	2461007872	5	4121
2026-01-11 01:57:06.37	152.30	43.33	-22.6	-23.8	19.5	0.00e+00	0	42	0	2466250752	5	4121
2026-01-11 01:57:07.37	152.63	43.11	-22.5	-23.6	19.7	0.00e+00	0	42	0	2472542208	5	4057
2026-01-11 01:57:08.37	152.97	42.89	-22.4	-23.3	19.8	0.00e+00	0	42	0	2477785088	5	3989
2026-01-11 01:57:09.38	153.30	42.67	-22.5	-23.5	19.7	0.00e+00	0	42	0	2484076544	5	4032
2026-01-11 01:57:10.39	153.62	42.45	-22.5	-23.5	19.7	0.00e+00	0	42	0	2489319424	5	4028
2026-01-11 01:57:11.40	153.95	42.23	-22.6	-23.6	19.7	0.00e+00	0	42	0	2494562304	5	4062
2026-01-11 01:57:12.40	154.26	42.02	-22.6	-23.6	19.6	0.00e+00	0	42	0	2500853760	5	4069
2026-01-11 01:57:13.41	154.58	41.80	-22.5	-23.4	19.7	0.00e+00	0	42	0	2506096640	5	4019
2026-01-11 01:57:14.40	154.88	41.58	-22.6	-23.6	19.6	0.00e+00	0	42	0	2512388096	5	4074
2026-01-11 01:57:15.41	155.19	41.37	-22.6	-23.7	19.5	0.00e+00	0	42	0	2517630976	5	4096
2026-01-11 01:57:16.42	155.49	41.15	-22.7	-23.8	19.5	1.60e-05	0	42	0	2522873856	5	4116
2026-01-11 01:57:17.42	155.78	40.93	-22.5	-23.5	19.7	0.00e+00	0	42	0	2529165312	5	4031
2026-01-11 01:57:18.43	156.08	40.72	-22.2	-22.9	19.9	0.00e+00	0	42	0	2534408192	5	3901
2026-01-11 01:57:19.43	156.37	40.50	-22.2	-22.9	20.0	0.00e+00	0	42	0	2540699648	5	3888
2026-01-11 01:57:20.44	156.65	40.29	-22.2	-22.9	20.0	0.00e+00	0	42	0	2545942528	5	3898
2026-01-11 01:57:21.45	156.94	40.07	-22.3	-23.0	19.9	1.69e-04	0	42	0	2551185408	5	3923
2026-01-11 01:57:22.45	157.21	39.86	-22.3	-23.2	19.8	0.00e+00	0	42	0	2557476864	5	3961
2026-01-11 01:57:23.45	157.49	39.65	-22.3	-23.2	19.8	0.00e+00	0	42	0	2562719744	5	3960
2026-01-11 01:57:24.46	157.76	39.43	-22.3	-23.2	19.9	0.00e+00	0	42	0	2567962624	5	3957
2026-01-11 01:57:25.47	158.03	39.22	-22.1	-22.6	20.1	3.35e-04	0	42	0	2574254080	5	3820
2026-01-11 01:57:26.47	158.29	39.01	-22.0	-22.4	20.2	0.00e+00	0	42	0	2579496960	5	3787
2026-01-11 01:57:27.48	158.55	38.80	-22.0	-22.9	20.2	3.11e-04	0	42	0	2585788416	4	4006
2026-01-11 01:57:28.48	158.81	38.59	-22.0	-23.0	20.1	3.13e-04	0	42	0	2591031296	4	4029
2026-01-11 01:57:29.49	159.06	38.38	-22.2	-23.3	20.0	0.00e+00	0	42	0	2597322752	4	4089
2026-01-11 01:57:30.50	159.31	38.17	-22.3	-23.5	19.9	5.58e-04	0	42	0	2602565632	4	4148
2026-01-11 01:57:31.50	159.56	37.96	-22.3	-23.6	19.8	6.27e-04	0	42	0	2607808512	4	4177
2026-01-11 01:57:32.51	159.81	37.75	-22.4	-23.8	19.7	0.00e+00	0	42	0	2614099968	4	4228
2026-01-11 01:57:33.51	160.05	37.55	-22.3	-23.6	19.8	6.91e-04	0	42	0	2619342848	4	4193
2026-01-11 01:57:34.52	160.29	37.34	-22.4	-23.8	19.7	6.86e-04	0	42	0	2624585728	4	4238
2026-01-11 01:57:35.52	160.52	37.14	-22.3	-23.6	19.8	0.00e+00	0	42	0	2630877184	4	4165
2026-01-11 01:57:36.54	160.76	36.93	-22.3	-23.5	19.9	6.68e-04	0	42	0	2636120064	4	4143
2026-01-11 01:57:37.54	160.99	36.73	-22.3	-23.6	19.8	6.10e-04	0	42	0	2642411520	4	4173
2026-01-11 01:57:38.54	161.21	36.53	-22.2	-23.4	19.9	0.00e+00	0	42	0	2647654400	4	4126
2026-01-11 01:57:39.55	161.44	36.32	-22.3	-23.6	19.8	6.40e-04	0	42	0	2652897280	4	4181
2026-01-11 01:57:40.56	161.66	36.12	-22.3	-23.7	19.8	0.00e+00	0	42	0	2659188736	4	4196
2026-01-11 01:57:41.57	161.88	35.92	-22.3	-23.5	19.8	0.00e+00	0	42	0	2664431616	4	4161
2026-01-11 01:57:42.57	162.10	35.72	-22.4	-23.7	19.7	0.00e+00	0	42	0	2670723072	4	4215
2026-01-11 01:57:43.58	162.31	35.52	-22.4	-23.9	19.6	6.30e-04	0	42	0	2675965952	4	4261
2026-01-11 01:57:44.58	162.52	35.33	-22.3	-23.6	19.8	0.00e+00	0	42	0	2682257408	4	4180
2026-01-11 01:57:45.59	162.73	35.13	-22.4	-23.7	19.7	1.10e-06	0	42	0	2687500288	4	4213
2026-01-11 01:57:46.59	162.94	34.93	-22.3	-23.5	19.8	5.40e-04	0	42	0	2692743168	4	4162
2026-01-11 01:57:47.60	163.14	34.74	-22.3	-23.5	19.8	0.00e+00	0	42	0	2699034624	4	4158
2026-01-11 01:57:48.60	163.34	34.54	-22.3	-23.5	19.8	4.14e-04	0	42	0	2704277504	4	4161
2026-01-11 01:57:49.61	163.54	34.35	-22.2	-23.4	19.9	0.00e+00	0	42	0	2709520384	4	4127
2026-01-11 01:57:50.61	163.74	34.15	-22.3	-23.5	19.9	0.00e+00	0	42	0	2715811840	4	4147
2026-01-11 01:57:51.62	163.94	33.96	-22.4	-23.7	19.7	0.00e+00	0	42	0	2721054720	4	4205
2026-01-11 01:57:52.62	164.13	33.77	-22.4	-23.8	19.7	0.00e+00	0	42	0	2726297600	4	4237
2026-01-11 01:57:53.63	164.32	33.58	-22.5	-23.6	19.6	0.00e+00	0	42	0	2732589056	5	4058
2026-01-11 01:57:54.64	164.51	33.39	-22.7	-23.9	19.4	1.10e-06	0	42	0	2737831936	5	4133
2026-01-11 01:57:55.64	164.69	33.20	-22.6	-23.7	19.5	0.00e+00	0	42	0	2744123392	5	4092
2026-01-11 01:57:56.65	164.88	33.01	-22.4	-23.3	19.7	0.00e+00	0	42	0	2749366272	5	3997
2026-01-11 01:57:57.65	165.06	32.83	-22.4	-23.2	19.7	2.20e-06	0	42	0	2755657728	5	3978
2026-01-11 01:57:58.66	165.24	32.64	-22.2	-23.0	19.8	0.00e+00	0	42	0	2760900608	5	3919
2026-01-11 01:57:59.67	165.42	32.45	-22.2	-23.0	19.8	0.00e+00	0	42	0	2766143488	5	3912
2026-01-11 01:58:00.68	165.60	32.27	-22.2	-22.8	19.9	0.00e+00	0	42	0	2772434944	5	3884
2026-01-11 01:58:01.69	165.77	32.08	-22.2	-22.9	19.9	0.00e+00	0	42	0	2777677824	5	3890
2026-01-11 01:58:02.69	165.94	31.90	-22.2	-22.8	19.9	0.00e+00	0	42	0	2783969280	5	3876
2026-01-11 01:58:03.70	166.11	31.72	-22.3	-23.0	19.8	0.00e+00	0	42	0	2789212160	5	3925
2026-01-11 01:58:04.70	166.28	31.54	-21.9	-22.8	19.4	0.00e+00	0	42	0	2794455040	5	3953
2026-01-11 01:58:05.71	166.45	31.36	-22.3	-23.2	19.7	0.00e+00	0	42	0	2800746496	5	3964
2026-01-11 01:58:06.72	166.61	31.18	-22.4	-23.4	18.6	0.00e+00	0	42	0	2805989376	5	4009
2026-01-11 01:58:07.72	166.78	31.00	-22.5	-23.5	19.6	0.00e+00	0	42	0	2812280832	5	4042
2026-01-11 01:58:08.74	166.94	30.82	-22.6	-23.6	19.5	0.00e+00	0	42	0	2817523712	5	4070
2026-01-11 01:58:09.74	167.10	30.64	-22.7	-23.8	19.4	0.00e+00	0	42	0	2822766592	5	4125
2026-01-11 01:58:10.74	167.26	30.47	-22.7	-23.9	19.3	0.00e+00	0	42	0	2829058048	5	4139
2026-01-11 01:58:11.75	167.41	30.29	-22.8	-24.1	19.3	0.00e+00	0	42	0	2834300928	5	4177
2026-01-11 01:58:12.76	167.57	30.12	-22.7	-24.0	19.3	0.00e+00	0	42	0	2840592384	5	4153
2026-01-11 01:58:13.76	167.72	29.94	-22.7	-24.0	19.3	2.40e-05	0	42	0	2845835264	5	4164
2026-01-11 01:58:14.77	167.87	29.77	-22.7	-23.8	19.4	0.00e+00	0	42	0	2851078144	5	4120
2026-01-11 01:58:15.77	168.02	29.60	-22.7	-24.0	19.3	1.14e-05	0	42	0	2857369600	5	4154
2026-01-11 01:58:16.78	168.17	29.43	-22.6	-23.8	19.4	0.00e+00	0	42	0	2862612480	5	4113
2026-01-11 01:58:17.78	168.32	29.26	-22.6	-23.7	19.5	0.00e+00	0	42	0	2868903936	5	4077
2026-01-11 01:58:18.78	168.46	29.09	-22.6	-23.6	19.5	0.00e+00	0	42	0	2874146816	5	4068
2026-01-11 01:58:19.79	168.60	28.92	-22.6	-23.8	19.4	0.00e+00	0	42	0	2879389696	5	4100
2026-01-11 01:58:20.80	168.75	28.75	-22.6	-23.6	19.5	0.00e+00	0	42	0	2885681152	5	4068
2026-01-11 01:58:21.80	168.89	28.58	-22.5	-23.4	19.6	0.00e+00	0	42	0	2890924032	5	4012
2026-01-11 01:58:22.80	169.03	28.42	-22.5	-23.6	19.5	5.37e-05	0	42	0	2896166912	5	4055
2026-01-11 01:58:23.81	169.17	28.25	-22.5	-23.4	19.6	0.00e+00	0	42	0	2902458368	5	4023
2026-01-11 01:58:24.82	169.30	28.09	-22.4	-23.4	19.6	3.66e-05	0	42	0	2907701248	5	4002
2026-01-11 01:58:25.83	169.44	27.92	-22.6	-23.6	19.5	4.57e-05	0	42	0	2913992704	5	4063
2026-01-11 01:58:26.83	169.57	27.76	-22.0	-22.9	19.5	0.00e+00	0	42	0	2919235584	5	3973
2026-01-11 01:58:27.84	169.71	27.60	-22.5	-23.5	15.1	1.02e-05	0	42	0	2925527040	5	4041
2026-01-11 01:58:28.85	169.84	27.44	-22.5	-23.5	19.5	3.40e-06	0	42	0	2930769920	5	4042
2026-01-11 01:58:29.85	169.97	27.28	-22.6	-23.7	19.3	0.00e+00	0	42	0	2936012800	5	4080
2026-01-11 01:58:30.86	170.10	27.12	-22.6	-23.6	19.4	0.00e+00	0	42	0	2942304256	5	4074
2026-01-11 01:58:31.87	170.22	26.96	-22.7	-23.8	19.4	0.00e+00	0	42	0	2947547136	5	4118
2026-01-11 01:58:32.87	170.35	26.80	-22.7	-24.0	19.3	0.00e+00	0	42	0	2952790016	5	4160
2026-01-11 01:58:33.88	170.48	26.64	-22.8	-24.1	19.2	5.23e-04	0	42	0	2959081472	5	4199
2026-01-11 01:58:34.88	170.60	26.49	-23.0	-24.5	19.0	2.20e-06	0	42	0	2964324352	5	4290
2026-01-11 01:58:35.89	170.72	26.33	-22.9	-24.3	19.1	6.23e-04	0	42	0	2970615808	5	4234
2026-01-11 01:58:36.90	170.85	26.17	-22.8	-24.2	19.2	1.14e-05	0	42	0	2975858688	5	4205
2026-01-11 01:58:37.91	170.97	26.02	-22.8	-24.1	19.2	1.25e-05	0	42	0	2981101568	5	4198
2026-01-11 01:58:38.91	171.09	25.87	-22.8	-24.1	19.2	0.00e+00	0	42	0	2987393024	5	4177
2026-01-11 01:58:39.91	171.20	25.71	-22.8	-24.1	19.2	9.95e-05	0	42	0	2992635904	5	4193
2026-01-11 01:58:40.92	171.32	25.56	-22.8	-24.1	19.2	1.60e-05	0	42	0	2998927360	5	4174
2026-01-11 01:58:41.92	171.44	25.41	-22.7	-24.0	19.3	0.00e+00	0	42	0	3004170240	5	4154
2026-01-11 01:58:42.93	171.55	25.26	-22.9	-24.3	19.1	3.54e-04	0	42	0	3010461696	5	4228
2026-01-11 01:58:43.94	171.67	25.11	-22.8	-24.1	19.2	1.45e-04	0	42	0	3015704576	5	4194
2026-01-11 01:58:44.95	171.78	24.96	-22.9	-24.3	19.1	4.05e-04	0	42	0	3020947456	5	4237
2026-01-11 01:58:45.95	171.89	24.81	-22.9	-24.4	19.1	3.67e-04	0	43	0	3027238912	5	4258
2026-01-11 01:58:46.96	172.00	24.66	-22.9	-24.4	19.1	2.74e-05	0	42	0	3032481792	5	4263
2026-01-11 01:58:47.96	172.11	24.52	-23.1	-24.3	18.9	4.19e-04	0	42	0	3037724672	6	4125
2026-01-11 01:58:48.97	172.22	24.37	-23.3	-24.7	18.6	1.14e-05	0	42	0	3044016128	6	4228
2026-01-11 01:58:49.98	172.33	24.22	-23.2	-24.4	18.8	8.00e-06	0	42	0	3049259008	6	4149
2026-01-11 01:58:50.98	172.44	24.08	-23.1	-24.2	18.9	0.00e+00	0	42	0	3055550464	6	4104
2026-01-11 01:58:51.99	172.54	23.93	-23.1	-24.3	18.8	3.66e-04	0	42	0	3060793344	6	4138
2026-01-11 01:58:52.99	172.65	23.79	-23.1	-24.2	18.9	0.00e+00	0	42	0	3066036224	6	4105
2026-01-11 01:58:54.00	172.75	23.65	-23.1	-24.2	18.9	3.38e-04	0	42	0	3072327680	6	4096
2026-01-11 01:58:55.01	172.86	23.51	-23.2	-24.4	18.8	3.13e-04	0	42	0	3077570560	6	4160
2026-01-11 01:58:56.02	172.96	23.36	-23.1	-24.3	18.8	0.00e+00	0	42	0	3083862016	6	4128
2026-01-11 01:58:57.03	173.06	23.22	-23.1	-24.3	18.8	1.91e-04	0	42	0	3089104896	6	4130
2026-01-11 01:58:58.03	173.16	23.08	-23.1	-24.4	18.8	0.00e+00	0	42	0	3095396352	6	4139
2026-01-11 01:58:59.03	173.26	22.95	-23.2	-24.4	18.8	0.00e+00	0	42	0	3100639232	6	4147
2026-01-11 01:59:00.04	173.36	22.81	-23.2	-24.5	18.8	0.00e+00	0	42	0	3105882112	6	4180
2026-01-11 01:59:01.04	173.46	22.67	-23.3	-24.7	18.7	2.47e-04	0	42	0	3112173568	6	4210
2026-01-11 01:59:02.05	173.56	22.53	-23.3	-24.6	18.7	0.00e+00	0	42	0	3117416448	6	4211
2026-01-11 01:59:03.05	173.65	22.39	-23.4	-24.8	18.6	0.00e+00	0	42	0	3122659328	6	4264
2026-01-11 01:59:04.05	173.75	22.26	-23.3	-24.7	18.6	3.15e-04	0	42	0	3128950784	6	4235
2026-01-11 01:59:05.06	173.84	22.12	-23.5	-25.1	18.4	0.00e+00	0	42	0	3134193664	6	4322
2026-01-11 01:59:06.06	173.94	21.99	-23.4	-25.0	18.5	2.73e-04	0	42	0	3139436544	6	4294
2026-01-11 01:59:07.07	174.03	21.86	-23.5	-25.1	18.4	0.00e+00	0	42	0	3145728000	6	4339
2026-01-11 01:59:08.08	174.12	21.72	-23.7	-25.0	18.2	0.00e+00	0	42	0	3150970880	7	4194
2026-01-11 01:59:09.09	174.21	21.59	-24.0	-25.3	17.9	0.00e+00	0	42	0	3157262336	8	4138
2026-01-11 01:59:10.09	174.31	21.46	-23.8	-24.7	18.2	0.00e+00	0	42	0	3162505216	8	3987
2026-01-11 01:59:11.10	174.40	21.32	-23.6	-24.3	18.3	0.00e+00	0	42	0	3168796672	8	3905
2026-01-11 01:59:12.11	174.49	21.19	-23.6	-24.2	18.4	0.00e+00	0	42	0	3174039552	8	3890
2026-01-11 01:59:13.11	174.57	21.06	-23.5	-24.7	18.4	0.00e+00	0	42	0	3179282432	7	4107
2026-01-11 01:59:14.12	174.66	20.93	-23.5	-24.7	18.4	0.00e+00	0	42	0	3185573888	7	4106
2026-01-11 01:59:15.13	174.75	20.80	-23.7	-24.9	18.2	0.00e+00	0	42	0	3190816768	7	4175
2026-01-11 01:59:16.14	174.84	20.67	-23.6	-24.8	18.3	0.00e+00	0	42	0	3197108224	7	4141
2026-01-11 01:59:17.15	174.92	20.55	-23.7	-25.0	18.2	0.00e+00	0	42	0	3202351104	7	4177
2026-01-11 01:59:18.15	175.01	20.42	-23.7	-25.0	18.2	0.00e+00	0	42	0	3207593984	7	4193
2026-01-11 01:59:19.16	175.09	20.29	-23.8	-25.3	18.0	0.00e+00	0	42	0	3213885440	7	4265
2026-01-11 01:59:20.16	175.18	20.17	-23.8	-25.3	18.0	0.00e+00	0	42	0	3219128320	7	4255
2026-01-11 01:59:21.17	175.26	20.04	-23.9	-25.4	18.0	0.00e+00	0	42	0	3224371200	7	4293
2026-01-11 01:59:22.18	175.34	19.91	-23.9	-25.5	17.9	0.00e+00	0	42	0	3230662656	7	4331
2026-01-11 01:59:23.18	175.43	19.79	-24.0	-25.6	17.8	0.00e+00	0	42	0	3235905536	7	4354
2026-01-11 01:59:24.19	175.51	19.67	-24.1	-25.3	17.8	0.00e+00	0	42	0	3242196992	8	4163
2026-01-11 01:59:25.20	175.59	19.54	-24.2	-25.6	17.3	0.00e+00	0	42	0	3247439872	8	4224
2026-01-11 01:59:26.20	175.67	19.42	-24.1	-25.4	17.7	0.00e+00	0	42	0	3253731328	8	4194
2026-01-11 01:59:27.21	175.75	19.30	-24.2	-25.6	17.4	0.00e+00	0	42	0	3258974208	8	4225
2026-01-11 01:59:28.22	175.83	19.17	-24.2	-25.7	17.6	0.00e+00	0	42	0	3264217088	8	4254
2026-01-11 01:59:29.22	175.91	19.05	-24.3	-25.8	17.5	0.00e+00	0	42	0	3270508544	8	4273
2026-01-11 01:59:30.22	175.98	18.93	-24.3	-25.9	17.5	0.00e+00	0	42	0	3275751424	8	4303
2026-01-11 01:59:31.23	176.06	18.81	-24.4	-25.6	17.3	1.64e-04	0	42	0	3282042880	9	4129
2026-01-11 01:59:32.24	176.14	18.69	-24.4	-25.5	17.4	0.00e+00	0	42	0	3287285760	9	4094
2026-01-11 01:59:33.24	176.21	18.58	-24.3	-25.4	17.5	2.30e-04	0	42	0	3292528640	9	4072
2026-01-11 01:59:34.24	176.29	18.46	-24.3	-25.4	17.5	0.00e+00	0	42	0	3298820096	9	4067
2026-01-11 01:59:35.25	176.36	18.34	-24.4	-25.5	17.4	0.00e+00	0	42	0	3304062976	9	4099
2026-01-11 01:59:36.26	176.44	18.22	-24.5	-25.8	17.2	2.32e-04	0	42	0	3309305856	9	4167
2026-01-11 01:59:37.26	176.51	18.11	-24.4	-25.5	17.4	0.00e+00	0	42	0	3315597312	9	4100
2026-01-11 01:59:38.27	176.59	17.99	-24.4	-25.5	17.4	0.00e+00	0	42	0	3320840192	9	4083
2026-01-11 01:59:39.28	176.66	17.87	-24.4	-26.0	17.4	0.00e+00	0	42	0	3327131648	8	4353
2026-01-11 01:59:40.28	176.73	17.76	-24.4	-26.0	17.4	2.44e-04	0	42	0	3332374528	8	4341
2026-01-11 01:59:41.29	176.80	17.64	-24.5	-25.9	17.2	0.00e+00	0	42	0	3338665984	9	4189
2026-01-11 01:59:42.30	176.87	17.53	-24.5	-25.8	17.2	1.83e-04	0	42	0	3343908864	9	4169
2026-01-11 01:59:43.31	176.95	17.41	-24.7	-26.1	17.1	1.77e-04	0	42	0	3349151744	9	4255
2026-01-11 01:59:44.31	177.02	17.30	-24.5	-25.8	17.2	0.00e+00	0	42	0	3355443200	9	4179
2026-01-11 01:59:45.31	177.08	17.19	-24.6	-25.9	17.1	1.57e-04	0	42	0	3360686080	9	4201
2026-01-11 01:59:46.31	177.15	17.08	-24.6	-25.9	17.0	1.89e-04	0	42	0	3366977536	9	4211
2026-01-11 01:59:47.32	177.22	16.96	-24.6	-26.1	17.0	8.00e-06	0	42	0	3372220416	9	4239
2026-01-11 01:59:48.33	177.29	16.85	-24.7	-26.2	17.0	2.09e-04	0	42	0	3377463296	9	4261
2026-01-11 01:59:49.33	177.36	16.74	-24.6	-25.9	17.1	1.84e-04	0	42	0	3383754752	9	4204
2026-01-11 01:59:50.34	177.43	16.63	-24.5	-25.7	17.2	9.10e-06	0	42	0	3388997632	9	4149
2026-01-11 01:59:51.35	177.49	16.52	-24.5	-25.8	17.2	1.93e-04	0	42	0	3394240512	9	4175
2026-01-11 01:59:52.35	177.56	16.41	-24.5	-25.9	17.2	2.02e-04	0	42	0	3400531968	9	4184
2026-01-11 01:59:53.36	177.63	16.30	-24.6	-25.9	17.1	2.84e-04	0	42	0	3405774848	9	4193
2026-01-11 01:59:54.37	177.69	16.19	-24.6	-25.9	17.2	2.47e-04	0	42	0	3412066304	9	4188
2026-01-11 01:59:55.37	177.76	16.08	-24.7	-26.1	17.0	0.00e+00	0	42	0	3417309184	9	4239
2026-01-11 01:59:56.38	177.82	15.98	-24.7	-26.1	17.0	1.02e-05	0	42	0	3423600640	9	4248
2026-01-11 01:59:57.39	177.89	15.87	-24.7	-26.1	17.0	2.70e-04	0	42	0	3428843520	9	4247
2026-01-11 01:59:58.40	177.95	15.76	-24.8	-26.4	16.8	0.00e+00	0	42	0	3434086400	9	4336
2026-01-11 01:59:59.40	178.01	15.65	-24.8	-26.3	16.9	1.02e-05	0	42	0	3440377856	9	4303
2026-01-11 02:00:00.41	178.08	15.55	-24.9	-26.6	16.7	3.20e-04	0	42	0	3445620736	9	4379
2026-01-11 02:00:01.42	178.14	15.44	-24.9	-26.6	16.8	2.63e-04	0	42	0	3451912192	9	4368
2026-01-11 02:00:02.42	178.20	15.34	-25.0	-26.8	16.7	3.42e-04	0	42	0	3457155072	9	4422
2026-01-11 02:00:03.43	178.26	15.23	-24.9	-26.7	16.7	2.76e-04	0	42	0	3462397952	9	4409
2026-01-11 02:00:04.43	178.32	15.13	-25.2	-26.7	16.4	0.00e+00	0	42	0	3468689408	10	4300
2026-01-11 02:00:05.44	178.38	15.02	-25.2	-26.8	16.4	4.11e-04	0	42	0	3473932288	10	4330
2026-01-11 02:00:06.45	178.44	14.92	-25.1	-26.6	16.5	3.95e-04	0	42	0	3479175168	10	4277
2026-01-11 02:00:07.46	178.50	14.82	-25.0	-26.4	16.6	0.00e+00	0	42	0	3485466624	10	4203
2026-01-11 02:00:08.46	178.56	14.71	-25.1	-26.5	16.5	3.88e-04	0	42	0	3490709504	10	4252
2026-01-11 02:00:09.47	178.62	14.61	-25.1	-26.5	16.5	4.39e-04	0	42	0	3497000960	10	4229
2026-01-11 02:00:10.48	178.68	14.51	-25.1	-26.6	16.5	0.00e+00	0	42	0	3502243840	10	4278
2026-01-11 02:00:11.48	178.74	14.41	-25.3	-26.9	16.3	4.59e-04	0	42	0	3508535296	10	4354
2026-01-11 02:00:12.50	178.80	14.31	-25.3	-26.9	16.3	4.62e-04	0	42	0	3513778176	10	4357
2026-01-11 02:00:13.50	178.86	14.21	-25.4	-27.1	16.2	0.00e+00	0	42	0	3519021056	10	4414
2026-01-11 02:00:14.50	178.91	14.11	-25.4	-27.1	16.2	5.13e-04	0	42	0	3525312512	10	4401
2026-01-11 02:00:15.51	178.97	14.01	-25.3	-27.0	16.3	4.86e-04	0	42	0	3530555392	10	4373
2026-01-11 02:00:16.52	179.03	13.91	-25.3	-27.0	16.3	0.00e+00	0	42	0	3536846848	10	4373
2026-01-11 02:00:17.53	179.08	13.81	-25.4	-27.1	16.2	0.00e+00	0	42	0	3542089728	10	4405
2026-01-11 02:00:18.54	179.14	13.71	-25.4	-27.1	16.2	5.17e-04	0	42	0	3547332608	10	4411
2026-01-11 02:00:19.55	179.20	13.61	-25.4	-27.2	16.1	0.00e+00	0	42	0	3553624064	10	4441
2026-01-11 02:00:20.56	179.25	13.51	-25.4	-27.2	16.1	4.34e-04	0	42	0	3558866944	10	4434
2026-01-11 02:00:21.56	179.31	13.41	-25.5	-26.8	16.0	0.00e+00	0	42	0	3565158400	11	4213
2026-01-11 02:00:22.57	179.36	13.31	-25.6	-27.1	15.9	0.00e+00	0	42	0	3570401280	11	4277
2026-01-11 02:00:23.58	179.42	13.22	-25.5	-26.9	16.0	4.76e-04	0	42	0	3575644160	11	4237
2026-01-11 02:00:24.58	179.47	13.12	-25.5	-26.9	16.0	0.00e+00	0	42	0	3581935616	11	4221
2026-01-11 02:00:25.59	179.52	13.03	-25.4	-26.7	16.1	0.00e+00	0	42	0	3587178496	11	4176
2026-01-11 02:00:26.59	179.58	12.93	-25.5	-26.8	16.0	0.00e+00	0	42	0	3593469952	11	4212
2026-01-11 02:00:27.60	179.63	12.83	-25.5	-27.0	15.9	0.00e+00	0	42	0	3598712832	11	4246
2026-01-11 02:00:28.60	179.68	12.74	-25.5	-26.9	16.0	0.00e+00	0	42	0	3603955712	11	4243
2026-01-11 02:00:29.60	179.73	12.65	-25.5	-26.8	16.0	0.00e+00	0	42	0	3610247168	11	4212
2026-01-11 02:00:30.61	179.79	12.55	-25.5	-26.9	15.9	0.00e+00	0	42	0	3615490048	11	4244
2026-01-11 02:00:31.62	179.84	12.46	-25.5	-26.9	16.0	0.00e+00	0	42	0	3621781504	11	4228
2026-01-11 02:00:32.63	179.89	12.36	-25.5	-27.0	15.9	3.13e-04	0	42	0	3627024384	11	4260
2026-01-11 02:00:33.63	179.94	12.27	-25.5	-26.9	16.0	0.00e+00	0	42	0	3632267264	11	4225
2026-01-11 02:00:34.63	179.99	12.18	-25.5	-26.9	16.0	0.00e+00	0	42	0	3638558720	11	4228
2026-01-11 02:00:35.64	180.04	12.08	-25.6	-27.1	15.9	0.00e+00	0	42	0	3643801600	11	4281
2026-01-11 02:00:36.65	180.09	11.99	-25.5	-26.9	15.9	0.00e+00	0	42	0	3649044480	11	4238
2026-01-11 02:00:37.66	180.14	11.90	-25.6	-27.1	15.9	1.10e-06	0	42	0	3655335936	11	4281
2026-01-11 02:00:38.66	180.19	11.81	-25.6	-27.1	15.8	0.00e+00	0	42	0	3660578816	11	4293
2026-01-11 02:00:39.67	180.24	11.72	-25.6	-27.1	15.8	0.00e+00	0	42	0	3666870272	11	4281
2026-01-11 02:00:40.67	180.29	11.62	-25.5	-27.0	15.9	0.00e+00	0	42	0	3672113152	11	4255
2026-01-11 02:00:41.68	180.34	11.53	-25.7	-27.4	15.7	0.00e+00	0	42	0	3678404608	11	4378
2026-01-11 02:00:42.69	180.39	11.44	-25.7	-27.4	15.6	0.00e+00	0	42	0	3683647488	11	4370
2026-01-11 02:00:43.69	180.44	11.35	-25.8	-27.6	15.5	0.00e+00	0	42	0	3688890368	11	4433
2026-01-11 02:00:44.70	180.48	11.26	-25.9	-27.8	15.5	0.00e+00	0	42	0	3695181824	11	4470
2026-01-11 02:00:45.70	180.53	11.17	-25.9	-27.7	15.4	0.00e+00	0	42	0	3700424704	11	4471
2026-01-11 02:00:46.71	180.58	11.08	-25.9	-27.7	15.4	9.10e-06	0	42	0	3706716160	11	4471
2026-01-11 02:00:47.72	180.63	11.00	-25.9	-27.8	15.4	0.00e+00	0	42	0	3711959040	11	4493
2026-01-11 02:00:48.73	180.67	10.91	-25.8	-27.5	15.5	0.00e+00	0	42	0	3717201920	11	4410
2026-01-11 02:00:49.73	180.72	10.82	-25.9	-27.9	15.3	5.70e-06	0	42	0	3723493376	11	4516
2026-01-11 02:00:50.73	180.77	10.73	-25.9	-27.8	15.3	3.28e-04	0	42	0	3728736256	11	4497
2026-01-11 02:00:51.73	180.81	10.64	-25.9	-27.9	15.3	0.00e+00	0	42	0	3733979136	11	4509
2026-01-11 02:00:52.74	180.86	10.56	-25.9	-27.4	15.2	0.00e+00	0	42	0	3740270592	12	4259
2026-01-11 02:00:53.75	180.90	10.47	-25.9	-27.3	15.3	0.00e+00	0	42	0	3745513472	12	4238
2026-01-11 02:00:54.76	180.95	10.38	-26.0	-28.0	15.3	0.00e+00	0	42	0	3751804928	11	4535
2026-01-11 02:00:55.76	180.99	10.30	-26.0	-27.6	15.1	1.02e-05	0	42	0	3757047808	12	4325
2026-01-11 02:00:56.77	181.04	10.21	-25.9	-27.4	15.2	0.00e+00	0	42	0	3763339264	12	4260
2026-01-11 02:00:57.78	181.08	10.12	-26.1	-27.9	14.9	2.66e-04	0	42	0	3768582144	12	4407
2026-01-11 02:00:58.78	181.13	10.04	-26.1	-27.8	15.0	1.02e-05	0	42	0	3773825024	12	4387
2026-01-11 02:00:59.78	181.17	9.95	-26.0	-27.6	15.1	3.28e-04	0	42	0	3780116480	12	4318
2026-01-11 02:01:00.79	181.21	9.87	-26.2	-28.0	14.8	0.00e+00	0	42	0	3785359360	12	4452
2026-01-11 02:01:01.80	181.26	9.78	-26.2	-28.1	14.8	0.00e+00	0	42	0	3790602240	12	4475
2026-01-11 02:01:02.81	181.30	9.70	-26.2	-28.0	14.8	2.68e-04	0	42	0	3796893696	12	4447
2026-01-11 02:01:03.81	181.34	9.61	-26.3	-28.2	14.7	2.72e-04	0	42	0	3802136576	12	4485
2026-01-11 02:01:04.82	181.39	9.53	-26.2	-28.0	14.8	0.00e+00	0	42	0	3808428032	12	4432
2026-01-11 02:01:05.83	181.43	9.45	-26.1	-27.8	14.9	0.00e+00	0	42	0	3813670912	12	4383
2026-01-11 02:01:06.84	181.47	9.36	-26.1	-27.9	14.9	3.23e-04	0	42	0	3818913792	12	4396
2026-01-11 02:01:07.84	181.52	9.28	-26.2	-28.1	14.8	4.50e-06	0	42	0	3825205248	12	4454
2026-01-11 02:01:08.84	181.56	9.20	-26.3	-28.2	14.7	2.82e-04	0	42	0	3830448128	12	4485
2026-01-11 02:01:09.85	181.60	9.11	-26.2	-28.1	14.7	3.07e-04	0	42	0	3836739584	12	4458
2026-01-11 02:01:10.86	181.64	9.03	-26.3	-28.3	14.7	0.00e+00	0	42	0	3841982464	12	4512
2026-01-11 02:01:11.87	181.68	8.95	-26.3	-28.3	14.6	3.10e-04	0	42	0	3848273920	12	4526
2026-01-11 02:01:12.88	181.72	8.87	-26.3	-28.2	14.7	0.00e+00	0	42	0	3853516800	12	4492
2026-01-11 02:01:13.89	181.76	8.79	-26.3	-28.3	14.6	1.10e-06	0	42	0	3858759680	12	4516
2026-01-11 02:01:14.89	181.81	8.70	-26.6	-28.4	14.3	1.02e-03	0	42	0	3865051136	13	4445
2026-01-11 02:01:15.89	181.85	8.62	-26.4	-28.5	14.5	3.32e-04	0	42	0	3870294016	12	4578
2026-01-11 02:01:16.90	181.89	8.54	-26.5	-28.3	14.3	0.00e+00	0	42	0	3875536896	13	4406
2026-01-11 02:01:17.90	181.93	8.46	-26.7	-28.7	14.1	3.71e-04	0	42	0	3881828352	13	4528
