passes_logs/2026/01/11/R2M6_AANII_01/R2M6_AANII_01__20260111_122533_SUOMI_NPP_rec.log

#Pass ID: 20260111_122533_SUOMI NPP
#Satellite: SUOMI NPP
#Configuration: NPP
#almurnet v.1.7.20240730
#Start time: 2026-01-11 12:25:33

#Version: 2.2.20231116
#Station: R2M6_AANII_01
#Location: 30.233357 lon 59.946436 lat
#TLE: 1 37849U 11061A   26009.81756760  .00000113  00000+0  74747-4 0  9994
#TLE: 2 37849  98.7806 311.9110 0002525  72.5604 287.5848 14.19524046735974

#Time	Az	El	Level	Level2	SNR	BER	BlckErr	Temp	State	Recorded	gain1	gain2
2026-01-11 12:25:33.60	228.95	6.99	-31.0	-34.4	5.2	1.17e+00	0	39	0	0	23	5277
2026-01-11 12:25:34.60	229.07	7.05	-31.5	-36.5	4.8	1.25e+00	0	39	104	0	23	6363
2026-01-11 12:25:35.60	229.18	7.10	-31.5	-36.0	7.6	1.28e-01	0	39	0	0	23	6084
2026-01-11 12:25:36.60	229.30	7.15	-31.4	-35.9	7.7	8.57e-02	0	40	0	1048576	23	6017
2026-01-11 12:25:37.60	229.42	7.21	-31.5	-36.0	7.7	9.43e-02	0	39	0	3145728	23	6088
2026-01-11 12:25:38.60	229.54	7.26	-31.3	-35.4	8.1	6.89e-02	0	39	0	5242880	23	5733
2026-01-11 12:25:39.60	229.66	7.31	-31.1	-34.6	8.7	4.64e-02	0	39	0	7340032	23	5360
2026-01-11 12:25:40.61	229.78	7.37	-31.1	-34.4	8.9	2.75e-02	0	40	0	9437184	23	5244
2026-01-11 12:25:41.62	229.90	7.42	-31.0	-33.8	9.3	2.04e-02	0	39	0	10485760	23	5009
2026-01-11 12:25:42.62	230.02	7.48	-31.0	-33.8	9.4	1.76e-02	0	40	0	12582912	23	4999
2026-01-11 12:25:43.63	230.14	7.53	-30.8	-33.3	9.8	1.24e-02	0	40	0	14680064	23	4802
2026-01-11 12:25:44.64	230.27	7.59	-30.8	-33.3	9.9	1.07e-02	0	40	0	16777216	23	4793
2026-01-11 12:25:45.64	230.39	7.64	-30.7	-33.4	10.1	1.01e-02	0	40	0	17825792	22	4916
2026-01-11 12:25:46.65	230.51	7.69	-30.7	-33.4	10.1	8.66e-03	0	40	0	19922944	22	4914
2026-01-11 12:25:47.65	230.64	7.75	-30.5	-32.5	10.8	3.29e-03	0	40	0	22020096	22	4570
2026-01-11 12:25:48.66	230.76	7.80	-30.3	-32.0	11.2	2.04e-03	0	40	0	24117248	22	4386
2026-01-11 12:25:49.66	230.88	7.86	-30.1	-32.0	11.6	1.18e-03	0	40	0	26214400	21	4464
2026-01-11 12:25:50.66	231.01	7.91	-30.2	-32.2	11.4	9.58e-04	0	40	0	28311552	21	4540
2026-01-11 12:25:51.67	231.13	7.97	-30.2	-32.3	11.4	1.21e-03	0	40	0	29360128	21	4550
2026-01-11 12:25:52.67	231.26	8.02	-30.1	-31.7	11.7	7.64e-04	0	40	0	31457280	21	4367
2026-01-11 12:25:53.68	231.39	8.07	-30.1	-31.8	11.7	5.61e-04	0	40	0	33554432	21	4409
2026-01-11 12:25:54.68	231.51	8.13	-30.2	-32.1	11.5	6.81e-04	0	40	0	35651584	21	4487
2026-01-11 12:25:55.68	231.64	8.18	-30.2	-32.0	11.6	7.26e-04	0	40	0	36700160	21	4462
2026-01-11 12:25:56.69	231.77	8.24	-30.2	-32.2	11.5	5.68e-04	0	40	0	38797312	21	4534
2026-01-11 12:25:57.69	231.89	8.29	-30.1	-32.0	11.6	6.48e-04	0	40	0	40894464	21	4440
2026-01-11 12:25:58.69	232.02	8.34	-30.0	-31.7	11.8	4.81e-04	0	40	0	42991616	21	4344
2026-01-11 12:25:59.69	232.15	8.40	-30.1	-31.8	11.8	4.47e-04	0	40	0	45088768	21	4399
2026-01-11 12:26:00.70	232.28	8.45	-30.1	-31.8	11.8	5.41e-04	0	40	0	46137344	21	4401
2026-01-11 12:26:01.71	232.41	8.51	-30.2	-32.1	11.6	5.77e-04	0	40	0	48234496	21	4503
2026-01-11 12:26:02.70	232.54	8.56	-30.2	-32.0	11.7	7.90e-04	0	40	0	50331648	21	4443
2026-01-11 12:26:03.70	232.67	8.61	-30.1	-31.8	11.8	6.03e-04	0	40	0	52428800	21	4374
2026-01-11 12:26:04.70	232.80	8.67	-30.2	-32.0	11.7	4.91e-04	0	40	0	54525952	21	4448
2026-01-11 12:26:05.70	232.93	8.72	-30.2	-32.1	11.6	6.40e-04	0	40	0	55574528	21	4472
2026-01-11 12:26:06.70	233.06	8.78	-30.2	-32.1	11.6	6.62e-04	0	40	0	57671680	21	4484
2026-01-11 12:26:07.70	233.19	8.83	-30.1	-31.9	11.7	6.48e-04	0	40	0	59768832	21	4427
2026-01-11 12:26:08.70	233.33	8.88	-30.1	-31.7	11.9	5.65e-04	0	40	0	61865984	21	4347
2026-01-11 12:26:09.70	233.46	8.94	-30.1	-31.8	11.8	6.51e-04	0	40	0	62914560	21	4392
2026-01-11 12:26:10.71	233.59	8.99	-30.1	-31.8	11.8	4.29e-04	0	40	0	65011712	21	4371
2026-01-11 12:26:11.71	233.73	9.05	-29.9	-31.3	12.2	2.68e-04	0	40	0	67108864	21	4197
2026-01-11 12:26:12.71	233.86	9.10	-29.9	-31.3	12.2	2.75e-04	0	41	0	69206016	21	4211
2026-01-11 12:26:13.72	234.00	9.15	-29.9	-31.1	12.3	1.88e-04	0	40	0	71303168	21	4151
2026-01-11 12:26:14.72	234.13	9.21	-29.9	-31.2	12.3	2.16e-04	0	40	0	73400320	21	4161
2026-01-11 12:26:15.72	234.27	9.26	-30.0	-31.4	12.1	2.53e-04	0	40	0	74448896	21	4256
2026-01-11 12:26:16.73	234.41	9.31	-30.0	-31.4	12.1	3.37e-04	0	41	0	76546048	21	4235
2026-01-11 12:26:17.73	234.55	9.37	-30.2	-32.0	11.7	4.54e-04	0	41	0	78643200	21	4460
2026-01-11 12:26:18.73	234.68	9.42	-29.9	-31.2	12.3	4.56e-04	0	40	0	80740352	21	4175
2026-01-11 12:26:19.74	234.82	9.48	-30.0	-31.4	12.1	2.94e-04	0	41	0	81788928	21	4253
2026-01-11 12:26:20.74	234.96	9.53	-30.1	-31.8	11.9	2.85e-04	0	41	0	83886080	21	4388
2026-01-11 12:26:21.74	235.10	9.58	-30.0	-31.6	12.0	2.94e-04	0	41	0	85983232	21	4288
2026-01-11 12:26:22.74	235.24	9.64	-30.1	-31.6	12.0	2.19e-04	0	41	0	88080384	21	4314
2026-01-11 12:26:23.75	235.38	9.69	-30.1	-31.8	12.0	2.68e-04	0	41	0	90177536	21	4352
2026-01-11 12:26:24.74	235.52	9.74	-30.0	-31.5	12.1	2.89e-04	0	41	0	91226112	21	4258
2026-01-11 12:26:25.74	235.66	9.80	-30.0	-31.6	12.1	2.33e-04	0	40	0	93323264	21	4299
2026-01-11 12:26:26.74	235.80	9.85	-30.0	-31.4	12.2	2.68e-04	0	41	0	95420416	21	4244
2026-01-11 12:26:27.74	235.94	9.90	-30.0	-31.6	12.1	2.24e-04	0	41	0	97517568	21	4299
2026-01-11 12:26:28.74	236.08	9.96	-30.1	-31.7	12.0	4.61e-04	0	40	0	99614720	21	4323
2026-01-11 12:26:29.74	236.23	10.01	-30.0	-31.3	12.3	3.11e-04	0	41	0	100663296	21	4210
2026-01-11 12:26:30.75	236.37	10.06	-30.1	-31.6	12.0	2.33e-04	0	41	0	102760448	21	4310
2026-01-11 12:26:31.75	236.51	10.12	-30.0	-31.4	12.2	2.82e-04	0	41	0	104857600	21	4244
2026-01-11 12:26:32.75	236.66	10.17	-30.1	-31.6	12.1	2.46e-04	0	41	0	106954752	21	4292
2026-01-11 12:26:33.77	236.81	10.22	-30.2	-32.0	11.8	4.91e-04	0	41	0	109051904	21	4439
2026-01-11 12:26:34.77	236.95	10.28	-30.3	-32.2	11.7	4.30e-04	0	41	0	110100480	21	4482
2026-01-11 12:26:35.77	237.10	10.33	-30.2	-32.1	11.7	6.61e-04	0	40	0	112197632	21	4462
2026-01-11 12:26:36.78	237.25	10.38	-30.1	-31.7	12.0	4.51e-04	0	41	0	114294784	21	4328
2026-01-11 12:26:37.78	237.39	10.44	-30.2	-32.0	11.8	4.22e-04	0	41	0	116391936	21	4430
2026-01-11 12:26:38.79	237.54	10.49	-30.3	-32.2	11.7	6.90e-04	0	41	0	118489088	21	4492
2026-01-11 12:26:39.80	237.69	10.54	-30.3	-32.3	11.6	5.41e-04	0	41	0	119537664	21	4535
2026-01-11 12:26:40.80	237.84	10.60	-30.2	-32.0	11.8	4.87e-04	0	41	0	121634816	21	4439
2026-01-11 12:26:41.81	237.99	10.65	-30.3	-32.3	11.7	5.54e-04	0	41	0	123731968	21	4522
2026-01-11 12:26:42.81	238.14	10.70	-30.2	-31.9	11.9	5.15e-04	0	41	0	125829120	21	4398
2026-01-11 12:26:43.81	238.29	10.75	-30.1	-31.8	12.0	2.31e-04	0	41	0	127926272	21	4346
2026-01-11 12:26:44.82	238.44	10.81	-30.1	-31.7	12.1	2.85e-04	0	41	0	128974848	21	4329
2026-01-11 12:26:45.82	238.59	10.86	-30.2	-32.0	11.8	3.69e-04	0	41	0	131072000	21	4425
2026-01-11 12:26:46.82	238.74	10.91	-30.0	-31.4	12.3	2.90e-04	0	41	0	133169152	21	4236
2026-01-11 12:26:47.82	238.90	10.96	-29.9	-31.2	12.4	1.82e-04	0	41	0	135266304	21	4151
2026-01-11 12:26:48.82	239.05	11.02	-30.0	-31.5	12.2	2.25e-04	0	41	0	136314880	21	4259
2026-01-11 12:26:49.83	239.20	11.07	-30.0	-31.3	12.3	1.75e-04	0	41	0	138412032	21	4207
2026-01-11 12:26:50.83	239.36	11.12	-30.0	-31.3	12.4	1.45e-04	0	41	0	140509184	21	4186
2026-01-11 12:26:51.84	239.51	11.17	-30.0	-31.3	12.4	1.39e-04	0	41	0	142606336	21	4189
2026-01-11 12:26:52.84	239.67	11.22	-30.1	-31.6	12.2	1.72e-04	0	41	0	144703488	21	4279
2026-01-11 12:26:53.83	239.82	11.28	-30.2	-31.9	11.9	2.49e-04	0	41	0	145752064	21	4399
2026-01-11 12:26:54.84	239.98	11.33	-30.0	-31.4	12.3	1.98e-04	0	41	0	147849216	21	4227
2026-01-11 12:26:55.84	240.13	11.38	-29.9	-31.0	12.6	1.07e-04	0	41	0	149946368	21	4087
2026-01-11 12:26:56.85	240.29	11.43	-29.7	-31.0	12.9	3.73e-05	0	41	0	152043520	20	4170
2026-01-11 12:26:57.85	240.45	11.48	-29.6	-30.7	13.1	3.50e-05	0	41	0	154140672	20	4084
2026-01-11 12:26:58.85	240.61	11.54	-29.6	-30.7	13.1	2.36e-05	0	41	0	155189248	20	4084
2026-01-11 12:26:59.85	240.77	11.59	-29.7	-31.1	12.9	2.36e-05	0	41	0	157286400	20	4195
2026-01-11 12:27:00.85	240.92	11.64	-29.6	-30.8	13.1	3.89e-05	0	41	0	159383552	20	4132
2026-01-11 12:27:01.86	241.09	11.69	-29.7	-30.8	13.0	3.43e-05	0	41	0	161480704	20	4131
2026-01-11 12:27:02.87	241.25	11.74	-29.8	-31.3	12.7	4.42e-05	0	41	0	163577856	20	4279
2026-01-11 12:27:03.86	241.41	11.79	-29.7	-30.9	13.0	4.73e-05	0	41	0	164626432	20	4160
2026-01-11 12:27:04.86	241.57	11.84	-29.9	-31.5	12.6	6.17e-05	0	41	0	166723584	20	4350
2026-01-11 12:27:05.87	241.73	11.89	-29.9	-31.6	12.5	1.07e-04	0	41	0	168820736	20	4375
2026-01-11 12:27:06.86	241.89	11.94	-29.7	-31.1	12.9	8.16e-05	0	41	0	170917888	20	4198
2026-01-11 12:27:07.86	242.05	11.99	-29.7	-31.0	13.0	4.11e-05	0	41	0	173015040	20	4165
2026-01-11 12:27:08.85	242.22	12.04	-29.6	-30.8	13.1	3.12e-05	0	41	0	174063616	20	4128
2026-01-11 12:27:09.85	242.38	12.09	-29.7	-30.9	13.0	3.96e-05	0	41	0	176160768	20	4130
2026-01-11 12:27:10.85	242.54	12.14	-29.5	-30.4	13.4	1.60e-05	0	41	0	178257920	20	3985
2026-01-11 12:27:11.85	242.71	12.20	-29.6	-30.5	13.1	2.82e-05	0	41	0	180355072	20	4033
2026-01-11 12:27:12.85	242.87	12.25	-29.6	-30.7	13.2	1.44e-05	0	41	0	181403648	20	4080
2026-01-11 12:27:13.85	243.04	12.29	-29.6	-30.6	13.3	1.29e-05	0	41	0	183500800	20	4055
2026-01-11 12:27:14.85	243.21	12.34	-29.6	-30.5	13.3	1.52e-05	0	41	0	185597952	20	4034
2026-01-11 12:27:15.85	243.37	12.39	-29.6	-30.7	13.2	1.90e-05	0	41	0	187695104	20	4070
2026-01-11 12:27:16.85	243.54	12.44	-29.6	-30.5	13.3	2.74e-05	0	41	0	189792256	20	4028
2026-01-11 12:27:17.86	243.71	12.49	-29.5	-30.4	13.4	1.83e-05	0	41	0	190840832	20	3989
2026-01-11 12:27:18.86	243.88	12.54	-29.5	-30.5	13.4	1.52e-05	0	41	0	192937984	20	4012
2026-01-11 12:27:19.86	244.05	12.59	-29.6	-30.8	13.2	2.44e-05	0	41	0	195035136	20	4091
2026-01-11 12:27:20.87	244.22	12.64	-29.7	-30.8	13.2	3.35e-05	0	41	0	197132288	20	4102
2026-01-11 12:27:21.87	244.39	12.69	-29.7	-31.0	13.1	3.28e-05	0	41	0	199229440	20	4160
2026-01-11 12:27:22.88	244.56	12.74	-29.5	-30.4	13.5	1.98e-05	0	41	0	200278016	20	3984
2026-01-11 12:27:23.88	244.73	12.79	-29.7	-30.9	13.1	2.67e-05	0	41	0	202375168	20	4132
2026-01-11 12:27:24.89	244.91	12.84	-29.7	-30.8	13.1	2.97e-05	0	41	0	204472320	20	4100
2026-01-11 12:27:25.90	245.08	12.89	-29.8	-31.1	13.0	3.43e-05	0	41	0	206569472	20	4207
2026-01-11 12:27:26.90	245.26	12.94	-29.7	-31.0	13.1	3.73e-05	0	41	0	208666624	20	4165
2026-01-11 12:27:27.90	245.43	12.98	-29.8	-31.3	12.9	3.66e-05	0	41	0	209715200	20	4253
2026-01-11 12:27:28.90	245.60	13.03	-29.7	-30.9	13.1	2.67e-05	0	41	0	211812352	20	4143
2026-01-11 12:27:29.90	245.78	13.08	-29.7	-30.8	13.2	2.74e-05	0	41	0	213909504	20	4097
2026-01-11 12:27:30.91	245.96	13.13	-29.7	-30.9	13.1	1.60e-05	0	41	0	216006656	20	4143
2026-01-11 12:27:31.91	246.13	13.17	-29.6	-30.7	13.3	2.28e-05	0	41	0	218103808	20	4061
2026-01-11 12:27:32.91	246.31	13.22	-29.7	-31.0	13.1	2.51e-05	0	41	0	219152384	20	4163
2026-01-11 12:27:33.92	246.49	13.27	-29.6	-30.7	13.2	2.05e-05	0	42	0	221249536	20	4082
2026-01-11 12:27:34.92	246.66	13.32	-29.6	-30.6	13.3	1.29e-05	0	41	0	223346688	20	4054
2026-01-11 12:27:35.92	246.84	13.36	-29.8	-31.1	13.0	1.98e-05	0	41	0	225443840	20	4203
2026-01-11 12:27:36.93	247.02	13.41	-29.8	-31.2	12.9	4.04e-05	0	42	0	226492416	20	4226
2026-01-11 12:27:37.94	247.20	13.46	-30.0	-31.6	12.7	7.70e-05	0	41	0	228589568	20	4358
2026-01-11 12:27:38.94	247.38	13.50	-29.9	-31.5	12.7	6.17e-05	0	41	0	230686720	20	4335
2026-01-11 12:27:39.94	247.56	13.55	-30.0	-31.7	12.7	1.01e-04	0	41	0	232783872	20	4380
2026-01-11 12:27:40.94	247.74	13.60	-29.9	-31.5	12.7	8.16e-05	0	41	0	234881024	20	4322
2026-01-11 12:27:41.94	247.93	13.64	-29.9	-31.5	12.8	6.40e-05	0	41	0	235929600	20	4317
2026-01-11 12:27:42.94	248.11	13.69	-30.0	-31.8	12.6	7.40e-05	0	41	0	238026752	20	4419
2026-01-11 12:27:43.94	248.29	13.73	-30.0	-31.6	12.7	7.55e-05	0	41	0	240123904	20	4358
2026-01-11 12:27:44.94	248.47	13.78	-29.9	-31.5	12.8	4.34e-05	0	42	0	242221056	20	4330
2026-01-11 12:27:45.95	248.66	13.82	-30.0	-31.6	12.8	7.17e-05	0	41	0	244318208	20	4341
2026-01-11 12:27:46.95	248.84	13.87	-30.1	-31.9	12.5	8.85e-05	0	42	0	245366784	20	4437
2026-01-11 12:27:47.95	249.03	13.91	-30.2	-32.4	12.2	1.11e-04	0	41	0	247463936	20	4604
2026-01-11 12:27:48.94	249.21	13.96	-30.2	-32.4	12.2	2.25e-04	0	41	0	249561088	20	4612
2026-01-11 12:27:49.92	249.39	14.00	-30.2	-32.1	12.4	1.33e-04	0	42	0	251658240	20	4508
2026-01-11 12:27:50.90	249.57	14.05	-30.2	-32.2	12.4	1.19e-04	0	42	0	252706816	20	4547
2026-01-11 12:27:51.87	249.76	14.09	-30.2	-32.2	12.3	1.24e-04	0	41	0	254803968	20	4554
2026-01-11 12:27:52.85	249.94	14.13	-30.2	-32.3	12.3	1.52e-04	0	42	0	256901120	20	4572
2026-01-11 12:27:53.83	250.12	14.17	-30.2	-32.2	12.4	1.86e-04	0	41	0	258998272	20	4536
2026-01-11 12:27:54.81	250.31	14.22	-30.2	-32.4	12.2	1.93e-04	0	42	0	261095424	20	4621
2026-01-11 12:27:55.79	250.49	14.26	-30.3	-32.4	12.2	1.81e-04	0	41	0	262144000	20	4628
2026-01-11 12:27:56.77	250.68	14.30	-30.3	-32.4	12.2	1.84e-04	0	41	0	264241152	20	4622
2026-01-11 12:27:57.75	250.86	14.34	-30.3	-32.6	12.1	2.62e-04	0	41	0	266338304	20	4681
2026-01-11 12:27:58.73	251.05	14.38	-30.4	-32.9	11.9	3.28e-04	0	42	0	267386880	20	4782
2026-01-11 12:27:59.71	251.24	14.43	-30.4	-32.4	11.9	5.45e-04	0	42	0	269484032	21	4522
2026-01-11 12:28:00.69	251.43	14.47	-30.4	-32.2	12.0	3.16e-04	0	42	0	271581184	21	4450
2026-01-11 12:28:01.67	251.61	14.51	-30.3	-32.1	12.1	2.15e-04	0	41	0	273678336	21	4416
2026-01-11 12:28:02.66	251.80	14.55	-30.4	-32.5	11.9	2.45e-04	0	42	0	275775488	21	4545
2026-01-11 12:28:03.64	251.99	14.59	-30.5	-32.5	11.8	5.04e-04	0	42	0	276824064	21	4569
2026-01-11 12:28:04.63	252.18	14.63	-30.6	-32.8	11.7	3.79e-04	0	42	0	278921216	21	4671
2026-01-11 12:28:05.63	252.38	14.67	-30.5	-32.7	11.7	6.43e-04	0	42	0	281018368	21	4619
2026-01-11 12:28:06.61	252.57	14.71	-30.5	-32.8	11.7	6.10e-04	0	42	0	283115520	21	4643
2026-01-11 12:28:07.60	252.76	14.75	-30.7	-33.1	11.5	6.93e-04	0	42	0	284164096	21	4771
2026-01-11 12:28:08.59	252.96	14.79	-30.6	-32.8	11.7	1.06e-03	0	42	0	286261248	21	4659
2026-01-11 12:28:09.58	253.15	14.83	-30.3	-31.9	12.3	2.72e-04	0	42	0	288358400	21	4348
2026-01-11 12:28:10.57	253.34	14.87	-30.2	-31.8	12.4	1.11e-04	0	42	0	290455552	21	4308
2026-01-11 12:28:11.56	253.54	14.91	-30.3	-31.9	12.3	1.19e-04	0	42	0	291504128	21	4357
2026-01-11 12:28:12.55	253.73	14.95	-30.5	-32.5	11.9	2.97e-04	0	42	0	293601280	21	4542
2026-01-11 12:28:13.54	253.93	14.99	-30.5	-32.7	11.7	6.36e-04	0	42	0	295698432	21	4625
2026-01-11 12:28:14.52	254.13	15.03	-30.7	-33.3	11.3	7.51e-04	0	41	0	297795584	21	4844
2026-01-11 12:28:15.51	254.32	15.06	-30.8	-33.5	11.1	9.44e-04	0	42	0	299892736	21	4915
2026-01-11 12:28:16.50	254.52	15.10	-30.8	-33.5	11.2	1.50e-03	0	42	0	300941312	21	4896
2026-01-11 12:28:17.49	254.72	15.14	-30.6	-32.9	11.6	9.98e-04	0	42	0	303038464	21	4699
2026-01-11 12:28:18.48	254.92	15.18	-30.7	-33.1	11.5	7.02e-04	0	42	0	305135616	21	4777
2026-01-11 12:28:19.46	255.11	15.21	-30.7	-33.3	11.4	1.02e-03	0	42	0	307232768	21	4817
2026-01-11 12:28:20.45	255.31	15.25	-30.8	-33.6	11.2	8.69e-04	0	42	0	308281344	21	4967
2026-01-11 12:28:21.44	255.51	15.29	-30.9	-33.9	10.9	2.11e-03	0	42	0	310378496	21	5085
2026-01-11 12:28:22.44	255.71	15.32	-30.9	-33.9	10.9	1.44e-03	0	42	0	312475648	21	5081
2026-01-11 12:28:23.42	255.91	15.36	-31.0	-33.5	10.9	2.36e-03	0	42	0	314572800	22	4801
2026-01-11 12:28:24.41	256.11	15.40	-30.7	-32.5	11.6	1.02e-03	0	42	0	315621376	22	4461
2026-01-11 12:28:25.40	256.32	15.43	-30.4	-31.8	12.1	4.84e-04	0	41	0	317718528	22	4224
2026-01-11 12:28:26.39	256.52	15.47	-30.2	-31.7	12.5	2.07e-04	0	42	0	319815680	21	4274
2026-01-11 12:28:27.38	256.72	15.50	-30.2	-31.7	12.5	1.05e-04	0	42	0	321912832	21	4285
2026-01-11 12:28:28.38	256.93	15.54	-30.2	-31.8	12.4	1.02e-04	0	42	0	322961408	21	4293
2026-01-11 12:28:29.36	257.13	15.57	-30.3	-31.8	12.4	1.45e-04	0	42	0	325058560	21	4314
2026-01-11 12:28:30.36	257.33	15.60	-30.4	-32.2	12.2	1.64e-04	0	42	0	327155712	21	4431
2026-01-11 12:28:31.35	257.54	15.64	-30.4	-32.2	12.1	3.04e-04	0	42	0	329252864	21	4447
2026-01-11 12:28:32.34	257.74	15.67	-30.5	-32.5	11.9	3.74e-04	0	42	0	331350016	21	4552
2026-01-11 12:28:33.33	257.95	15.70	-30.5	-32.4	12.0	3.37e-04	0	42	0	332398592	21	4520
2026-01-11 12:28:34.32	258.15	15.74	-30.4	-32.2	12.2	3.82e-04	0	42	0	334495744	21	4439
2026-01-11 12:28:35.31	258.36	15.77	-30.2	-31.8	12.5	1.43e-04	0	42	0	336592896	21	4288
2026-01-11 12:28:36.30	258.57	15.80	-30.1	-31.5	12.7	7.62e-05	0	42	0	338690048	21	4207
2026-01-11 12:28:37.29	258.77	15.83	-30.0	-31.2	12.9	8.54e-05	0	42	0	339738624	21	4103
2026-01-11 12:28:38.28	258.98	15.87	-30.0	-31.1	12.9	3.28e-05	0	42	0	341835776	21	4080
2026-01-11 12:28:39.27	259.19	15.90	-30.0	-31.1	12.9	3.73e-05	0	42	0	343932928	21	4101
2026-01-11 12:28:40.27	259.40	15.93	-29.9	-30.8	13.1	4.34e-05	0	42	0	346030080	21	4000
2026-01-11 12:28:41.25	259.61	15.96	-29.9	-30.8	13.1	2.89e-05	0	42	0	348127232	21	3986
2026-01-11 12:28:42.24	259.82	15.99	-29.8	-31.1	13.2	1.06e-05	0	42	0	349175808	20	4181
2026-01-11 12:28:43.23	260.03	16.02	-29.8	-30.9	13.4	1.67e-05	0	42	0	351272960	20	4123
2026-01-11 12:28:44.22	260.24	16.05	-29.7	-30.7	13.6	1.37e-05	0	42	0	353370112	20	4040
2026-01-11 12:28:45.21	260.45	16.08	-29.5	-30.3	13.7	9.10e-06	0	42	0	355467264	20	3946
2026-01-11 12:28:46.20	260.66	16.11	-29.6	-30.4	13.7	6.80e-06	0	42	0	356515840	20	3962
2026-01-11 12:28:47.19	260.87	16.14	-29.7	-30.9	13.4	3.00e-06	0	42	0	358612992	20	4111
2026-01-11 12:28:48.19	261.08	16.16	-29.7	-30.8	13.5	1.14e-05	0	42	0	360710144	20	4067
2026-01-11 12:28:49.18	261.29	16.19	-29.6	-30.6	13.6	6.10e-06	0	42	0	362807296	20	4025
2026-01-11 12:28:50.17	261.51	16.22	-29.8	-31.1	13.3	6.80e-06	0	42	0	363855872	20	4172
2026-01-11 12:28:51.17	261.72	16.25	-29.8	-30.9	13.4	1.90e-05	0	42	0	365953024	20	4120
2026-01-11 12:28:52.16	261.93	16.27	-29.8	-31.0	13.3	2.28e-05	0	42	0	368050176	20	4156
2026-01-11 12:28:53.15	262.15	16.30	-29.8	-31.1	13.3	1.67e-05	0	42	0	370147328	20	4169
2026-01-11 12:28:54.14	262.36	16.33	-29.8	-31.1	13.3	2.21e-05	0	42	0	372244480	20	4175
2026-01-11 12:28:55.14	262.58	16.35	-30.0	-31.5	13.0	3.05e-05	0	42	0	373293056	20	4305
2026-01-11 12:28:56.12	262.79	16.38	-30.1	-31.9	12.7	3.58e-05	0	42	0	375390208	20	4418
2026-01-11 12:28:57.11	263.01	16.40	-30.2	-32.3	12.5	1.18e-04	0	42	0	377487360	20	4547
2026-01-11 12:28:58.11	263.22	16.43	-30.2	-32.1	12.6	1.11e-04	0	42	0	379584512	20	4507
2026-01-11 12:28:59.10	263.44	16.45	-30.5	-32.4	12.0	2.17e-04	0	42	0	380633088	21	4519
2026-01-11 12:29:00.10	263.66	16.48	-30.3	-32.1	12.3	2.36e-04	0	42	0	382730240	21	4393
2026-01-11 12:29:01.09	263.87	16.50	-30.3	-31.9	12.4	1.33e-04	0	42	0	384827392	21	4345
2026-01-11 12:29:02.08	264.09	16.53	-30.3	-32.0	12.4	1.12e-04	0	42	0	386924544	21	4358
2026-01-11 12:29:03.07	264.31	16.55	-30.4	-32.1	12.2	1.62e-04	0	42	0	389021696	21	4412
2026-01-11 12:29:04.06	264.52	16.57	-30.3	-31.9	12.5	1.59e-04	0	42	0	390070272	21	4344
2026-01-11 12:29:05.06	264.74	16.59	-30.3	-31.8	12.5	1.07e-04	0	42	0	392167424	21	4307
2026-01-11 12:29:06.05	264.96	16.62	-30.3	-31.9	12.5	1.14e-04	0	42	0	394264576	21	4322
2026-01-11 12:29:07.04	265.18	16.64	-30.3	-31.9	12.4	9.84e-05	0	42	0	396361728	21	4340
2026-01-11 12:29:08.03	265.40	16.66	-30.3	-32.0	12.4	1.36e-04	0	42	0	397410304	21	4358
2026-01-11 12:29:09.03	265.62	16.68	-29.9	-30.8	13.1	4.34e-05	0	42	0	399507456	21	4001
2026-01-11 12:29:10.01	265.84	16.70	-29.8	-31.0	13.4	1.14e-05	0	42	0	401604608	20	4128
2026-01-11 12:29:11.00	266.06	16.72	-30.0	-31.7	12.9	2.51e-05	0	42	0	403701760	20	4345
2026-01-11 12:29:11.99	266.27	16.74	-30.2	-32.2	12.6	6.63e-05	0	42	0	404750336	20	4534
2026-01-11 12:29:12.98	266.49	16.76	-30.4	-32.7	12.3	1.47e-04	0	42	0	406847488	20	4680
2026-01-11 12:29:13.97	266.71	16.78	-30.5	-32.5	12.1	2.45e-04	0	42	0	408944640	21	4531
2026-01-11 12:29:14.96	266.94	16.80	-30.4	-32.2	12.2	2.51e-04	0	42	0	411041792	21	4441
2026-01-11 12:29:15.95	267.16	16.81	-30.4	-32.1	12.3	2.32e-04	0	42	0	413138944	21	4405
2026-01-11 12:29:16.94	267.38	16.83	-30.4	-32.1	12.3	1.61e-04	0	42	0	414187520	21	4378
2026-01-11 12:29:17.93	267.60	16.85	-30.3	-31.9	12.5	1.45e-04	0	42	0	416284672	21	4314
2026-01-11 12:29:18.93	267.82	16.87	-30.5	-32.4	12.2	1.52e-04	0	42	0	418381824	21	4486
2026-01-11 12:29:19.92	268.04	16.88	-30.5	-32.5	12.0	2.55e-04	0	42	0	420478976	21	4528
2026-01-11 12:29:20.90	268.26	16.90	-30.7	-33.1	11.7	4.35e-04	0	42	0	421527552	21	4728
2026-01-11 12:29:21.90	268.49	16.92	-30.4	-32.3	12.2	4.81e-04	0	42	0	423624704	21	4454
2026-01-11 12:29:22.89	268.71	16.93	-30.1	-31.2	12.9	1.19e-04	0	42	0	425721856	21	4122
2026-01-11 12:29:23.88	268.93	16.95	-29.7	-30.8	13.5	1.44e-05	0	42	0	427819008	20	4082
2026-01-11 12:29:24.88	269.16	16.96	-29.5	-30.1	13.9	9.90e-06	0	42	0	429916160	20	3889
2026-01-11 12:29:25.87	269.38	16.97	-29.4	-29.9	14.1	1.50e-06	0	42	0	430964736	20	3814
2026-01-11 12:29:26.86	269.60	16.99	-29.5	-30.2	13.9	2.20e-06	0	42	0	433061888	20	3895
2026-01-11 12:29:27.85	269.83	17.00	-29.7	-30.7	13.6	3.80e-06	0	42	0	435159040	20	4037
2026-01-11 12:29:28.84	270.05	17.01	-29.9	-31.4	13.2	2.13e-05	0	42	0	437256192	20	4245
2026-01-11 12:29:29.84	270.28	17.03	-29.9	-31.4	13.1	3.89e-05	0	42	0	438304768	20	4256
2026-01-11 12:29:30.85	270.50	17.04	-29.9	-31.3	13.2	2.67e-05	0	42	0	440401920	20	4224
2026-01-11 12:29:31.86	270.73	17.05	-29.8	-31.0	13.4	1.52e-05	0	42	0	442499072	20	4139
2026-01-11 12:29:32.86	270.96	17.06	-30.0	-31.6	13.0	1.44e-05	0	42	0	444596224	20	4333
2026-01-11 12:29:33.85	271.18	17.07	-29.9	-31.2	13.2	4.88e-05	0	42	0	446693376	20	4209
2026-01-11 12:29:34.85	271.41	17.08	-29.6	-30.6	13.6	1.60e-05	0	42	0	447741952	20	4009
2026-01-11 12:29:35.85	271.64	17.09	-29.8	-30.9	13.4	1.37e-05	0	42	0	449839104	20	4124
2026-01-11 12:29:36.85	271.86	17.10	-30.1	-32.0	12.8	1.60e-05	0	42	0	451936256	20	4436
2026-01-11 12:29:37.85	272.09	17.11	-30.3	-32.4	12.4	1.01e-04	0	42	0	454033408	20	4578
2026-01-11 12:29:38.86	272.32	17.12	-30.4	-32.8	12.2	1.94e-04	0	42	0	456130560	20	4719
2026-01-11 12:29:39.86	272.55	17.13	-30.5	-32.4	12.1	1.94e-04	0	42	0	457179136	21	4504
2026-01-11 12:29:40.87	272.78	17.14	-30.6	-32.8	11.9	3.51e-04	0	42	0	459276288	21	4624
2026-01-11 12:29:41.87	273.01	17.15	-30.5	-32.5	12.0	4.07e-04	0	42	0	461373440	21	4537
2026-01-11 12:29:42.88	273.24	17.15	-30.7	-33.1	11.5	4.07e-04	0	42	0	463470592	21	4753
2026-01-11 12:29:43.88	273.46	17.16	-30.6	-32.9	11.7	5.86e-04	0	42	0	464519168	21	4676
2026-01-11 12:29:44.88	273.69	17.17	-30.6	-32.9	11.8	5.10e-04	0	42	0	466616320	21	4661
2026-01-11 12:29:45.89	273.92	17.17	-30.7	-33.1	11.7	5.55e-04	0	42	0	468713472	21	4744
2026-01-11 12:29:46.89	274.15	17.18	-30.6	-32.8	11.8	4.73e-04	0	42	0	470810624	21	4625
2026-01-11 12:29:47.89	274.38	17.18	-30.5	-32.4	12.1	2.79e-04	0	42	0	472907776	21	4509
2026-01-11 12:29:48.90	274.61	17.19	-30.4	-32.3	12.2	2.61e-04	0	42	0	473956352	21	4470
2026-01-11 12:29:49.91	274.84	17.19	-30.4	-32.2	12.3	1.72e-04	0	42	0	476053504	21	4417
2026-01-11 12:29:50.92	275.07	17.19	-30.5	-32.5	12.1	2.60e-04	0	42	0	478150656	21	4520
2026-01-11 12:29:51.92	275.30	17.20	-30.5	-32.4	12.1	2.33e-04	0	42	0	480247808	21	4519
2026-01-11 12:29:52.93	275.53	17.20	-30.4	-32.3	12.2	2.46e-04	0	42	0	482344960	21	4476
2026-01-11 12:29:53.94	275.76	17.20	-30.4	-32.2	12.3	2.37e-04	0	42	0	483393536	21	4421
2026-01-11 12:29:54.94	275.99	17.20	-30.4	-32.1	12.3	1.74e-04	0	42	0	485490688	21	4387
2026-01-11 12:29:55.95	276.22	17.21	-30.3	-31.9	12.5	1.50e-04	0	42	0	487587840	21	4323
2026-01-11 12:29:56.94	276.45	17.21	-30.4	-32.3	12.2	1.65e-04	0	42	0	489684992	21	4469
2026-01-11 12:29:57.94	276.67	17.21	-30.4	-32.1	12.3	2.13e-04	0	42	0	491782144	21	4403
2026-01-11 12:29:58.95	276.91	17.21	-30.4	-32.1	12.3	1.44e-04	0	42	0	492830720	21	4417
2026-01-11 12:29:59.95	277.13	17.21	-30.4	-32.3	12.2	2.05e-04	0	42	0	494927872	21	4480
2026-01-11 12:30:00.95	277.36	17.21	-30.4	-32.3	12.2	2.62e-04	0	42	0	497025024	21	4467
2026-01-11 12:30:01.95	277.59	17.20	-30.4	-32.2	12.2	2.21e-04	0	42	0	499122176	21	4425
2026-01-11 12:30:02.95	277.82	17.20	-30.4	-32.4	12.1	2.34e-04	0	42	0	501219328	21	4497
2026-01-11 12:30:03.96	278.05	17.20	-30.6	-33.0	11.7	3.07e-04	0	42	0	502267904	21	4708
2026-01-11 12:30:04.97	278.28	17.20	-30.4	-32.2	12.2	2.46e-04	0	42	0	504365056	21	4441
2026-01-11 12:30:05.97	278.51	17.20	-30.3	-31.8	12.5	1.44e-04	0	42	0	506462208	21	4315
2026-01-11 12:30:06.98	278.74	17.19	-30.2	-31.7	12.6	1.42e-04	0	42	0	508559360	21	4269
2026-01-11 12:30:07.98	278.97	17.19	-30.4	-32.4	12.1	2.04e-04	0	42	0	510656512	21	4496
2026-01-11 12:30:08.99	279.20	17.18	-30.4	-32.2	12.2	2.30e-04	0	42	0	511705088	21	4421
2026-01-11 12:30:10.00	279.43	17.18	-30.1	-31.4	12.7	9.91e-05	0	42	0	513802240	21	4191
2026-01-11 12:30:11.00	279.66	17.17	-30.0	-31.0	13.0	3.89e-05	0	42	0	515899392	21	4061
2026-01-11 12:30:12.01	279.89	17.17	-29.8	-30.7	13.2	3.12e-05	0	42	0	517996544	21	3956
2026-01-11 12:30:13.02	280.12	17.16	-29.8	-30.6	13.3	2.97e-05	0	42	0	520093696	21	3939
2026-01-11 12:30:14.02	280.35	17.16	-30.1	-31.4	12.8	3.50e-05	0	42	0	521142272	21	4177
2026-01-11 12:30:15.02	280.57	17.15	-30.1	-31.3	12.8	6.40e-05	0	42	0	523239424	21	4141
2026-01-11 12:30:16.03	280.80	17.14	-30.4	-32.2	12.2	1.05e-04	0	42	0	525336576	21	4438
2026-01-11 12:30:17.03	281.03	17.13	-30.3	-32.0	12.4	1.78e-04	0	42	0	527433728	21	4362
2026-01-11 12:30:18.03	281.26	17.13	-30.5	-32.7	11.9	2.59e-04	0	42	0	529530880	21	4593
2026-01-11 12:30:19.04	281.49	17.12	-30.4	-32.3	12.2	2.76e-04	0	42	0	530579456	21	4458
2026-01-11 12:30:20.04	281.71	17.11	-30.3	-31.9	12.4	1.69e-04	0	42	0	532676608	21	4338
2026-01-11 12:30:21.05	281.94	17.10	-30.3	-31.8	12.5	1.20e-04	0	42	0	534773760	21	4295
2026-01-11 12:30:22.04	282.17	17.09	-30.3	-32.0	12.4	1.23e-04	0	42	0	536870912	21	4369
2026-01-11 12:30:23.05	282.40	17.08	-30.4	-32.2	12.2	1.85e-04	0	42	0	538968064	21	4450
2026-01-11 12:30:24.06	282.62	17.07	-30.8	-33.3	11.5	6.32e-04	0	42	0	540016640	21	4819
2026-01-11 12:30:25.06	282.85	17.06	-30.5	-32.5	12.0	3.31e-04	0	42	0	542113792	21	4536
2026-01-11 12:30:26.06	283.08	17.04	-30.4	-32.3	12.1	2.49e-04	0	42	0	544210944	21	4465
2026-01-11 12:30:27.04	283.30	17.03	-30.3	-32.0	12.4	1.91e-04	0	42	0	546308096	21	4358
2026-01-11 12:30:28.04	283.52	17.02	-30.4	-32.2	12.3	1.96e-04	0	42	0	548405248	21	4418
2026-01-11 12:30:29.04	283.75	17.01	-30.3	-31.9	12.4	1.36e-04	0	42	0	549453824	21	4343
2026-01-11 12:30:30.04	283.98	16.99	-30.4	-32.3	12.1	1.67e-04	0	42	0	551550976	21	4475
2026-01-11 12:30:31.03	284.20	16.98	-30.7	-33.0	11.6	3.16e-04	0	42	0	553648128	21	4732
2026-01-11 12:30:32.03	284.42	16.97	-30.6	-32.8	11.8	4.70e-04	0	42	0	555745280	21	4644
2026-01-11 12:30:33.03	284.65	16.95	-30.5	-32.6	11.9	4.23e-04	0	42	0	556793856	21	4578
2026-01-11 12:30:34.02	284.87	16.94	-30.6	-32.8	11.8	3.68e-04	0	42	0	558891008	21	4654
2026-01-11 12:30:35.03	285.10	16.92	-30.5	-32.4	12.1	3.07e-04	0	42	0	560988160	21	4502
2026-01-11 12:30:36.02	285.32	16.91	-30.5	-32.4	12.0	2.37e-04	0	42	0	563085312	21	4507
2026-01-11 12:30:37.02	285.54	16.89	-30.4	-32.1	12.3	1.91e-04	0	42	0	565182464	21	4405
2026-01-11 12:30:38.00	285.76	16.87	-30.2	-31.7	12.6	1.30e-04	0	42	0	566231040	21	4266
2026-01-11 12:30:38.98	285.98	16.86	-30.3	-31.9	12.5	1.35e-04	0	42	0	568328192	21	4318
2026-01-11 12:30:39.97	286.20	16.84	-30.0	-31.2	12.9	7.78e-05	0	42	0	570425344	21	4111
2026-01-11 12:30:40.95	286.42	16.82	-29.8	-30.7	13.2	2.74e-05	0	42	0	572522496	21	3953
2026-01-11 12:30:41.93	286.64	16.81	-29.7	-30.8	13.4	1.60e-05	0	42	0	573571072	20	4089
2026-01-11 12:30:42.92	286.86	16.79	-29.8	-30.9	13.4	1.14e-05	0	42	0	575668224	20	4110
2026-01-11 12:30:43.91	287.08	16.77	-29.9	-31.3	13.1	8.30e-06	0	42	0	577765376	20	4234
2026-01-11 12:30:44.91	287.30	16.75	-29.9	-31.4	13.1	3.12e-05	0	42	0	579862528	20	4266
2026-01-11 12:30:45.90	287.52	16.73	-30.1	-31.9	12.8	5.34e-05	0	42	0	580911104	20	4412
2026-01-11 12:30:46.89	287.74	16.71	-30.1	-31.8	12.8	6.02e-05	0	42	0	583008256	20	4408
2026-01-11 12:30:47.88	287.96	16.69	-30.3	-32.4	12.4	7.01e-05	0	42	0	585105408	20	4600
2026-01-11 12:30:48.87	288.17	16.67	-30.2	-32.0	12.7	1.46e-04	0	42	0	587202560	20	4466
2026-01-11 12:30:49.86	288.39	16.65	-30.4	-32.6	12.3	1.49e-04	0	42	0	589299712	20	4656
2026-01-11 12:30:50.84	288.61	16.63	-30.4	-32.8	12.1	1.28e-04	0	42	0	590348288	20	4730
2026-01-11 12:30:51.83	288.83	16.61	-30.4	-32.7	12.2	2.11e-04	0	42	0	592445440	20	4712
2026-01-11 12:30:52.82	289.04	16.58	-30.5	-32.9	12.0	2.58e-04	0	42	0	594542592	20	4775
2026-01-11 12:30:53.82	289.26	16.56	-30.4	-32.1	12.2	1.46e-04	0	42	0	596639744	21	4411
2026-01-11 12:30:54.81	289.48	16.54	-30.2	-31.6	12.6	1.20e-04	0	42	0	597688320	21	4247
2026-01-11 12:30:55.81	289.70	16.51	-30.1	-31.4	12.7	8.85e-05	0	42	0	599785472	21	4166
2026-01-11 12:30:56.81	289.92	16.49	-30.1	-31.3	12.8	6.86e-05	0	42	0	601882624	21	4139
2026-01-11 12:30:57.80	290.13	16.47	-29.9	-30.8	13.1	3.66e-05	0	42	0	603979776	21	3994
2026-01-11 12:30:58.79	290.35	16.44	-30.0	-31.0	13.0	3.12e-05	0	42	0	606076928	21	4048
2026-01-11 12:30:59.79	290.56	16.42	-30.0	-31.0	13.0	3.81e-05	0	42	0	607125504	21	4050
2026-01-11 12:31:00.78	290.78	16.39	-30.1	-31.3	12.8	4.04e-05	0	42	0	609222656	21	4159
2026-01-11 12:31:01.78	290.99	16.37	-30.0	-31.1	12.8	7.17e-05	0	42	0	611319808	21	4100
2026-01-11 12:31:02.77	291.21	16.34	-29.8	-31.0	13.4	2.67e-05	0	42	0	613416960	20	4134
2026-01-11 12:31:03.77	291.42	16.32	-29.6	-30.5	13.6	6.80e-06	0	42	0	614465536	20	3998
2026-01-11 12:31:04.76	291.64	16.29	-29.6	-30.6	13.6	5.30e-06	0	42	0	616562688	20	4008
2026-01-11 12:31:05.77	291.85	16.26	-29.5	-30.3	13.7	2.20e-06	0	42	0	618659840	20	3943
2026-01-11 12:31:06.76	292.07	16.23	-29.7	-30.9	13.4	9.90e-06	0	42	0	620756992	20	4109
2026-01-11 12:31:07.75	292.28	16.21	-29.8	-31.0	13.3	1.06e-05	0	42	0	622854144	20	4137
2026-01-11 12:31:08.73	292.49	16.18	-30.0	-31.6	13.0	2.82e-05	0	42	0	623902720	20	4344
2026-01-11 12:31:09.73	292.70	16.15	-30.1	-31.9	12.8	6.02e-05	0	42	0	625999872	20	4421
2026-01-11 12:31:10.73	292.91	16.12	-30.2	-32.3	12.4	5.34e-05	0	42	0	628097024	20	4566
2026-01-11 12:31:11.72	293.12	16.09	-30.2	-32.1	12.6	1.23e-04	0	42	0	630194176	20	4500
2026-01-11 12:31:12.71	293.33	16.07	-29.9	-31.2	13.2	3.12e-05	0	42	0	631242752	20	4200
2026-01-11 12:31:13.71	293.54	16.04	-29.6	-30.5	13.5	1.98e-05	0	42	0	633339904	20	4004
2026-01-11 12:31:14.71	293.76	16.01	-29.5	-30.2	13.8	1.22e-05	0	42	0	635437056	20	3915
2026-01-11 12:31:15.70	293.96	15.98	-29.5	-30.4	13.7	5.30e-06	0	42	0	637534208	20	3951
2026-01-11 12:31:16.70	294.17	15.94	-29.6	-30.5	13.7	3.80e-06	0	42	0	639631360	20	3986
2026-01-11 12:31:17.70	294.38	15.91	-29.7	-30.7	13.5	9.10e-06	0	42	0	640679936	20	4049
2026-01-11 12:31:18.68	294.59	15.88	-29.7	-30.8	13.5	9.90e-06	0	42	0	642777088	20	4080
2026-01-11 12:31:19.67	294.80	15.85	-29.8	-31.1	13.3	1.14e-05	0	42	0	644874240	20	4167
2026-01-11 12:31:20.68	295.01	15.82	-29.7	-30.9	13.4	1.37e-05	0	42	0	646971392	20	4104
2026-01-11 12:31:21.66	295.21	15.79	-29.6	-30.4	13.7	1.52e-05	0	42	0	648019968	20	3969
2026-01-11 12:31:22.65	295.42	15.76	-29.5	-30.2	13.8	3.00e-06	0	42	0	650117120	20	3912
2026-01-11 12:31:23.65	295.63	15.72	-29.4	-30.1	13.9	6.10e-06	0	42	0	652214272	20	3872
2026-01-11 12:31:24.65	295.83	15.69	-29.3	-29.8	14.1	3.80e-06	0	42	0	654311424	20	3802
2026-01-11 12:31:25.64	296.04	15.66	-29.2	-29.9	14.3	7.00e-07	0	42	0	656408576	19	3921
2026-01-11 12:31:26.65	296.24	15.62	-29.2	-30.0	14.3	0.00e+00	0	42	0	657457152	19	3928
2026-01-11 12:31:27.65	296.45	15.59	-29.2	-30.0	14.3	7.00e-07	0	42	0	659554304	19	3943
2026-01-11 12:31:28.63	296.65	15.55	-29.3	-30.2	14.3	0.00e+00	0	42	0	661651456	19	3984
2026-01-11 12:31:29.63	296.86	15.52	-29.4	-30.5	14.0	1.50e-06	0	42	0	663748608	19	4083
2026-01-11 12:31:30.61	297.06	15.49	-29.6	-30.9	13.7	3.80e-06	0	42	0	664797184	19	4201
2026-01-11 12:31:31.61	297.26	15.45	-29.8	-31.5	13.4	6.10e-06	0	42	0	666894336	19	4377
2026-01-11 12:31:32.61	297.46	15.42	-29.8	-31.4	13.4	2.44e-05	0	42	0	668991488	19	4364
2026-01-11 12:31:33.61	297.67	15.38	-29.7	-31.2	13.6	1.67e-05	0	42	0	671088640	19	4293
2026-01-11 12:31:34.60	297.87	15.34	-29.6	-31.1	13.6	4.50e-06	0	42	0	673185792	19	4266
2026-01-11 12:31:35.60	298.07	15.31	-29.6	-30.9	13.7	4.50e-06	0	42	0	674234368	19	4210
2026-01-11 12:31:36.60	298.27	15.27	-29.7	-31.2	13.5	3.80e-06	0	42	0	676331520	19	4300
2026-01-11 12:31:37.59	298.47	15.23	-29.6	-31.1	13.6	3.80e-06	0	42	0	678428672	19	4249
2026-01-11 12:31:38.58	298.67	15.20	-29.8	-31.7	13.2	4.50e-06	0	42	0	680525824	19	4436
2026-01-11 12:31:39.58	298.87	15.16	-29.9	-31.7	13.2	2.89e-05	0	42	0	681574400	19	4464
2026-01-11 12:31:40.58	299.06	15.12	-29.8	-31.6	13.2	2.44e-05	0	42	0	683671552	19	4428
2026-01-11 12:31:41.58	299.26	15.08	-29.8	-31.6	13.2	2.28e-05	0	42	0	685768704	19	4411
2026-01-11 12:31:42.57	299.46	15.05	-29.7	-31.3	13.4	1.60e-05	0	42	0	687865856	19	4330
2026-01-11 12:31:43.56	299.66	15.01	-29.7	-31.3	13.5	1.14e-05	0	42	0	689963008	19	4318
2026-01-11 12:31:44.55	299.85	14.97	-29.8	-31.4	13.4	1.37e-05	0	42	0	691011584	19	4363
2026-01-11 12:31:45.55	300.05	14.93	-29.8	-31.5	13.4	1.22e-05	0	42	0	693108736	19	4379
2026-01-11 12:31:46.54	300.24	14.89	-29.7	-31.1	13.5	8.30e-06	0	42	0	695205888	19	4274
2026-01-11 12:31:47.53	300.44	14.85	-29.7	-31.2	13.5	6.80e-06	0	42	0	697303040	19	4294
2026-01-11 12:31:48.52	300.63	14.81	-29.7	-31.1	13.6	1.14e-05	0	42	0	698351616	19	4271
2026-01-11 12:31:49.51	300.82	14.77	-29.5	-30.6	13.9	5.30e-06	0	42	0	700448768	19	4124
2026-01-11 12:31:50.49	301.01	14.73	-29.6	-30.9	13.7	2.20e-06	0	42	0	702545920	19	4189
2026-01-11 12:31:51.48	301.21	14.69	-29.5	-30.8	13.7	3.80e-06	0	42	0	704643072	19	4175
2026-01-11 12:31:52.48	301.40	14.65	-29.5	-30.7	13.8	1.50e-06	0	42	0	705691648	19	4144
2026-01-11 12:31:53.47	301.59	14.61	-29.6	-30.9	13.7	3.00e-06	0	42	0	707788800	19	4218
2026-01-11 12:31:54.47	301.78	14.57	-29.6	-31.0	13.6	7.60e-06	0	42	0	709885952	19	4224
2026-01-11 12:31:55.46	301.97	14.53	-29.7	-31.2	13.5	1.37e-05	0	42	0	711983104	19	4304
2026-01-11 12:31:56.45	302.16	14.49	-29.8	-31.7	13.2	1.83e-05	0	42	0	714080256	19	4447
2026-01-11 12:31:57.45	302.35	14.45	-29.8	-31.7	13.2	1.44e-05	0	42	0	715128832	19	4460
2026-01-11 12:31:58.43	302.54	14.41	-30.0	-32.0	13.0	3.66e-05	0	42	0	717225984	19	4560
2026-01-11 12:31:59.42	302.73	14.37	-29.8	-31.5	13.2	2.21e-05	0	42	0	719323136	19	4390
2026-01-11 12:32:00.41	302.91	14.32	-29.8	-31.7	13.1	2.13e-05	0	42	0	721420288	19	4456
2026-01-11 12:32:01.41	303.10	14.28	-30.0	-32.0	12.9	2.97e-05	0	42	0	722468864	19	4561
2026-01-11 12:32:02.40	303.29	14.24	-30.0	-31.8	12.7	8.08e-05	0	42	0	724566016	20	4411
2026-01-11 12:32:03.39	303.47	14.20	-30.1	-32.0	12.5	1.23e-04	0	42	0	726663168	20	4488
2026-01-11 12:32:04.37	303.66	14.15	-30.4	-32.7	12.1	2.39e-04	0	42	0	728760320	20	4734
2026-01-11 12:32:05.36	303.84	14.11	-30.5	-32.6	11.8	3.82e-04	0	42	0	730857472	21	4608
2026-01-11 12:32:06.35	304.03	14.07	-30.4	-32.4	11.9	3.63e-04	0	42	0	731906048	21	4519
2026-01-11 12:32:07.36	304.21	14.02	-30.3	-31.9	12.3	2.33e-04	0	42	0	734003200	21	4352
2026-01-11 12:32:08.36	304.40	13.98	-30.2	-31.7	12.4	1.66e-04	0	42	0	736100352	21	4300
2026-01-11 12:32:09.35	304.58	13.94	-30.2	-31.8	12.3	1.36e-04	0	42	0	738197504	21	4312
2026-01-11 12:32:10.35	304.76	13.89	-30.2	-31.7	12.4	1.57e-04	0	42	0	739246080	21	4295
2026-01-11 12:32:11.35	304.95	13.85	-30.1	-31.4	12.6	1.01e-04	0	42	0	741343232	21	4184
2026-01-11 12:32:12.34	305.13	13.80	-30.1	-31.4	12.6	7.47e-05	0	42	0	743440384	21	4199
2026-01-11 12:32:13.33	305.31	13.76	-30.3	-32.0	12.1	2.46e-04	0	42	0	745537536	21	4404
2026-01-11 12:32:14.34	305.49	13.71	-30.1	-31.6	12.4	1.52e-04	0	42	0	747634688	21	4267
2026-01-11 12:32:15.34	305.67	13.67	-30.3	-32.0	12.2	1.93e-04	0	42	0	748683264	21	4398
2026-01-11 12:32:16.33	305.85	13.62	-30.5	-32.8	11.6	4.06e-04	0	42	0	750780416	21	4662
2026-01-11 12:32:17.33	306.03	13.58	-30.6	-32.8	11.6	6.18e-04	0	42	0	752877568	21	4673
2026-01-11 12:32:18.33	306.21	13.53	-30.6	-33.1	11.4	1.18e-03	0	42	0	754974720	21	4775
2026-01-11 12:32:19.31	306.39	13.49	-30.4	-32.5	11.8	7.41e-04	0	42	0	756023296	21	4545
2026-01-11 12:32:20.30	306.56	13.44	-30.4	-32.5	11.8	4.61e-04	0	42	0	758120448	21	4564
2026-01-11 12:32:21.28	306.74	13.39	-30.4	-32.3	11.9	3.42e-04	0	42	0	760217600	21	4494
2026-01-11 12:32:22.27	306.91	13.35	-30.4	-32.2	11.9	3.00e-04	0	42	0	762314752	21	4469
2026-01-11 12:32:23.26	307.09	13.30	-30.4	-32.4	11.9	3.91e-04	0	42	0	764411904	21	4527
2026-01-11 12:32:24.24	307.26	13.26	-30.5	-32.8	11.6	5.79e-04	0	42	0	765460480	21	4661
2026-01-11 12:32:25.22	307.43	13.21	-30.6	-33.1	11.4	8.64e-04	0	42	0	767557632	21	4763
2026-01-11 12:32:26.22	307.61	13.16	-30.6	-33.0	11.5	9.28e-04	0	42	0	769654784	21	4742
2026-01-11 12:32:27.21	307.78	13.12	-30.7	-33.4	11.1	1.23e-03	0	42	0	771751936	21	4907
2026-01-11 12:32:28.21	307.96	13.07	-30.6	-32.9	11.5	1.21e-03	0	42	0	772800512	21	4692
2026-01-11 12:32:29.20	308.13	13.02	-30.6	-32.9	11.4	8.38e-04	0	42	0	774897664	21	4704
2026-01-11 12:32:30.19	308.30	12.98	-30.6	-33.1	11.4	7.45e-04	0	42	0	776994816	21	4768
2026-01-11 12:32:31.18	308.47	12.93	-30.7	-33.2	11.3	1.20e-03	0	42	0	779091968	21	4834
2026-01-11 12:32:32.17	308.64	12.88	-30.7	-33.4	11.1	1.89e-03	0	42	0	780140544	21	4909
2026-01-11 12:32:33.17	308.81	12.83	-30.9	-34.0	10.8	2.96e-03	0	42	0	782237696	21	5121
2026-01-11 12:32:34.17	308.98	12.78	-31.0	-34.1	10.6	2.70e-03	0	42	0	784334848	21	5188
2026-01-11 12:32:35.16	309.15	12.74	-31.0	-33.9	10.4	5.41e-03	0	42	0	786432000	22	4999
2026-01-11 12:32:36.15	309.32	12.69	-31.0	-33.7	10.6	5.08e-03	0	42	0	788529152	22	4931
2026-01-11 12:32:37.14	309.49	12.64	-31.0	-33.9	10.4	4.26e-03	0	42	0	789577728	22	4996
2026-01-11 12:32:38.14	309.66	12.59	-30.8	-33.1	11.0	3.50e-03	0	42	0	791674880	22	4693
2026-01-11 12:32:39.13	309.82	12.54	-30.8	-33.1	11.0	1.75e-03	0	42	0	793772032	22	4672
2026-01-11 12:32:40.13	309.99	12.49	-30.9	-33.3	10.8	2.65e-03	0	42	0	795869184	22	4772
2026-01-11 12:32:41.13	310.16	12.45	-30.6	-32.4	11.5	1.26e-03	0	42	0	796917760	22	4448
2026-01-11 12:32:42.13	310.32	12.40	-30.4	-31.8	11.9	4.89e-04	0	42	0	799014912	22	4246
2026-01-11 12:32:43.12	310.49	12.35	-30.3	-31.5	12.1	3.55e-04	0	42	0	801112064	22	4140
2026-01-11 12:32:44.12	310.65	12.30	-30.3	-32.2	12.0	2.28e-04	0	42	0	803209216	21	4446
2026-01-11 12:32:45.12	310.82	12.25	-30.4	-32.3	11.9	4.16e-04	0	42	0	805306368	21	4489
2026-01-11 12:32:46.11	310.98	12.20	-30.4	-32.3	11.9	3.40e-04	0	42	0	806354944	21	4491
2026-01-11 12:32:47.10	311.14	12.15	-30.5	-32.7	11.5	5.87e-04	0	42	0	808452096	21	4653
2026-01-11 12:32:48.10	311.31	12.10	-30.5	-32.6	11.7	7.43e-04	0	42	0	810549248	21	4608
2026-01-11 12:32:49.10	311.47	12.05	-30.6	-32.9	11.5	6.75e-04	0	42	0	812646400	21	4699
2026-01-11 12:32:50.10	311.63	12.00	-30.6	-32.9	11.5	9.40e-04	0	42	0	814743552	21	4707
2026-01-11 12:32:51.09	311.79	11.95	-30.6	-32.9	11.4	7.03e-04	0	42	0	815792128	21	4723
2026-01-11 12:32:52.08	311.95	11.90	-30.7	-33.2	11.3	7.99e-04	0	42	0	817889280	21	4823
2026-01-11 12:32:53.08	312.11	11.85	-30.7	-33.2	11.3	1.27e-03	0	42	0	819986432	21	4807
2026-01-11 12:32:54.07	312.27	11.80	-30.6	-33.0	11.4	1.09e-03	0	42	0	822083584	21	4749
2026-01-11 12:32:55.07	312.43	11.75	-30.9	-33.8	10.8	1.58e-03	0	42	0	823132160	21	5059
2026-01-11 12:32:56.06	312.59	11.70	-30.8	-33.6	10.9	2.65e-03	0	42	0	825229312	21	4990
2026-01-11 12:32:57.05	312.75	11.65	-30.9	-34.0	10.6	2.12e-03	0	42	0	827326464	21	5159
2026-01-11 12:32:58.04	312.90	11.60	-31.1	-34.2	10.2	3.82e-03	0	42	0	829423616	22	5108
2026-01-11 12:32:59.04	313.06	11.55	-30.9	-33.6	10.6	3.67e-03	0	42	0	831520768	22	4892
2026-01-11 12:33:00.03	313.21	11.50	-30.8	-33.3	10.8	2.72e-03	0	42	0	832569344	22	4753
2026-01-11 12:33:01.03	313.37	11.45	-30.7	-32.9	11.1	1.78e-03	0	42	0	834666496	22	4633
2026-01-11 12:33:02.03	313.53	11.40	-30.7	-32.9	11.1	1.76e-03	0	42	0	836763648	22	4638
2026-01-11 12:33:03.02	313.68	11.35	-30.7	-32.7	11.2	1.45e-03	0	42	0	838860800	22	4552
2026-01-11 12:33:04.03	313.84	11.29	-30.7	-32.8	11.2	1.27e-03	0	42	0	839909376	22	4577
2026-01-11 12:33:05.02	313.99	11.24	-30.6	-32.5	11.4	1.31e-03	0	42	0	842006528	22	4482
2026-01-11 12:33:06.01	314.14	11.19	-30.6	-32.5	11.4	9.93e-04	0	42	0	844103680	22	4488
2026-01-11 12:33:07.01	314.30	11.14	-30.6	-32.6	11.3	9.76e-04	0	42	0	846200832	22	4531
2026-01-11 12:33:08.00	314.45	11.09	-30.7	-32.9	11.1	1.64e-03	0	42	0	848297984	22	4630
2026-01-11 12:33:09.00	314.60	11.04	-30.5	-32.1	11.7	8.25e-04	0	42	0	849346560	22	4341
2026-01-11 12:33:09.99	314.75	10.99	-30.6	-32.4	11.4	7.53e-04	0	42	0	851443712	22	4460
2026-01-11 12:33:10.98	314.90	10.94	-30.4	-32.1	11.7	7.27e-04	0	42	0	853540864	22	4335
2026-01-11 12:33:11.97	315.05	10.88	-30.5	-32.1	11.6	6.21e-04	0	42	0	855638016	22	4353
2026-01-11 12:33:12.97	315.20	10.83	-30.7	-32.8	11.2	1.46e-03	0	42	0	856686592	22	4585
2026-01-11 12:33:13.96	315.35	10.78	-30.5	-32.3	11.5	1.09e-03	0	42	0	858783744	22	4416
2026-01-11 12:33:14.96	315.50	10.73	-30.5	-32.1	11.6	5.67e-04	0	42	0	860880896	22	4361
2026-01-11 12:33:15.95	315.64	10.68	-30.4	-31.9	11.8	4.80e-04	0	42	0	862978048	22	4286
2026-01-11 12:33:16.96	315.79	10.62	-30.3	-32.1	11.9	3.30e-04	0	42	0	865075200	21	4445
2026-01-11 12:33:17.96	315.94	10.57	-30.4	-32.4	11.7	5.56e-04	0	42	0	866123776	21	4524
2026-01-11 12:33:18.96	316.09	10.52	-30.5	-32.9	11.4	7.32e-04	0	42	0	868220928	21	4727
2026-01-11 12:33:19.96	316.23	10.47	-30.4	-32.6	11.6	7.46e-04	0	42	0	870318080	21	4615
2026-01-11 12:33:20.96	316.38	10.42	-30.2	-31.9	12.0	5.57e-04	0	42	0	872415232	21	4380
2026-01-11 12:33:21.96	316.53	10.36	-30.0	-31.3	12.4	2.29e-04	0	42	0	873463808	21	4189
2026-01-11 12:33:22.95	316.67	10.31	-30.1	-31.5	12.3	1.89e-04	0	42	0	875560960	21	4249
2026-01-11 12:33:23.95	316.81	10.26	-29.9	-31.1	12.6	9.38e-05	0	42	0	877658112	21	4126
2026-01-11 12:33:24.95	316.96	10.21	-30.0	-31.4	12.4	1.04e-04	0	42	0	879755264	21	4210
2026-01-11 12:33:25.94	317.10	10.15	-30.1	-31.5	12.3	1.71e-04	0	42	0	881852416	21	4234
2026-01-11 12:33:26.94	317.24	10.10	-30.1	-31.6	12.2	2.35e-04	0	42	0	882900992	21	4289
2026-01-11 12:33:27.93	317.39	10.05	-30.3	-32.2	11.8	2.66e-04	0	42	0	884998144	21	4480
2026-01-11 12:33:28.93	317.53	10.00	-30.2	-31.8	12.1	3.42e-04	0	42	0	887095296	21	4349
2026-01-11 12:33:29.92	317.67	9.94	-30.3	-32.2	11.8	3.53e-04	0	42	0	889192448	21	4474
2026-01-11 12:33:30.93	317.81	9.89	-30.4	-32.4	11.7	5.69e-04	0	42	0	890241024	21	4529
2026-01-11 12:33:31.92	317.95	9.84	-30.5	-32.6	11.5	5.84e-04	0	42	0	892338176	21	4635
2026-01-11 12:33:32.92	318.09	9.79	-30.3	-32.1	11.8	6.24e-04	0	42	0	894435328	21	4458
2026-01-11 12:33:33.91	318.23	9.73	-30.2	-31.8	12.1	3.79e-04	0	42	0	896532480	21	4353
2026-01-11 12:33:34.90	318.37	9.68	-30.1	-31.6	12.3	1.91e-04	0	42	0	898629632	21	4264
2026-01-11 12:33:35.90	318.50	9.63	-30.0	-31.4	12.4	1.70e-04	0	42	0	899678208	21	4197
2026-01-11 12:33:36.90	318.64	9.58	-30.0	-31.4	12.4	1.35e-04	0	42	0	901775360	21	4216
2026-01-11 12:33:37.90	318.78	9.52	-30.2	-31.8	12.1	2.39e-04	0	42	0	903872512	21	4342
2026-01-11 12:33:38.89	318.92	9.47	-29.9	-31.1	12.6	1.85e-04	0	42	0	905969664	21	4108
2026-01-11 12:33:39.89	319.05	9.42	-29.9	-31.1	12.6	8.69e-05	0	42	0	908066816	21	4105
2026-01-11 12:33:40.89	319.19	9.36	-29.9	-31.2	12.5	1.21e-04	0	42	0	909115392	21	4139
2026-01-11 12:33:41.89	319.32	9.31	-29.8	-30.9	12.7	7.47e-05	0	42	0	911212544	21	4053
2026-01-11 12:33:42.89	319.46	9.26	-29.9	-31.5	12.7	5.11e-05	0	42	0	913309696	20	4343
2026-01-11 12:33:43.89	319.60	9.21	-29.8	-31.3	12.7	8.54e-05	0	42	0	915406848	20	4274
2026-01-11 12:33:44.90	319.73	9.15	-29.9	-31.5	12.6	1.01e-04	0	42	0	917504000	20	4344
2026-01-11 12:33:45.91	319.87	9.10	-29.9	-31.6	12.5	1.30e-04	0	42	0	918552576	20	4372
2026-01-11 12:33:46.92	320.00	9.04	-29.9	-31.6	12.6	1.20e-04	0	42	0	920649728	20	4361
2026-01-11 12:33:47.92	320.13	8.99	-30.2	-32.5	11.9	2.36e-04	0	42	0	922746880	20	4681
2026-01-11 12:33:48.92	320.27	8.94	-30.3	-32.7	11.8	3.78e-04	0	42	0	924844032	20	4732
2026-01-11 12:33:49.92	320.40	8.88	-30.3	-32.7	11.8	3.28e-04	0	42	0	925892608	20	4739
2026-01-11 12:33:50.93	320.53	8.83	-30.2	-32.4	12.0	4.91e-04	0	42	0	927989760	20	4658
2026-01-11 12:33:51.93	320.66	8.78	-30.2	-32.4	11.9	3.46e-04	0	42	0	930086912	20	4645
2026-01-11 12:33:52.93	320.79	8.72	-30.2	-32.5	11.9	4.16e-04	0	42	0	932184064	20	4663
2026-01-11 12:33:53.94	320.92	8.67	-30.4	-33.0	11.5	7.26e-04	0	42	0	934281216	20	4845
2026-01-11 12:33:54.94	321.05	8.62	-30.3	-32.8	11.7	7.35e-04	0	42	0	935329792	20	4794
2026-01-11 12:33:55.95	321.18	8.56	-30.5	-33.0	11.2	7.19e-04	0	42	0	937426944	21	4776
2026-01-11 12:33:56.96	321.31	8.51	-30.6	-33.2	11.0	1.67e-03	0	42	0	939524096	21	4840
2026-01-11 12:33:57.97	321.44	8.46	-30.5	-32.7	11.4	1.25e-03	0	42	0	941621248	21	4681
2026-01-11 12:33:58.97	321.57	8.40	-30.4	-32.5	11.5	1.00e-03	0	42	0	943718400	21	4588
2026-01-11 12:33:59.97	321.70	8.35	-30.4	-32.5	11.5	1.01e-03	0	42	0	944766976	21	4613
2026-01-11 12:34:00.98	321.83	8.29	-30.5	-32.8	11.2	6.88e-04	0	42	0	946864128	21	4718
2026-01-11 12:34:01.98	321.95	8.24	-30.5	-32.9	11.2	1.19e-03	0	42	0	948961280	21	4733
2026-01-11 12:34:02.99	322.08	8.19	-30.2	-32.1	11.7	7.73e-04	0	42	0	951058432	21	4474
2026-01-11 12:34:03.99	322.21	8.13	-30.1	-31.7	12.0	4.67e-04	0	42	0	953155584	21	4324
2026-01-11 12:34:04.99	322.33	8.08	-30.0	-31.5	12.2	2.12e-04	0	42	0	954204160	21	4257
2026-01-11 12:34:05.98	322.46	8.03	-30.0	-31.4	12.3	2.23e-04	0	42	0	956301312	21	4210
2026-01-11 12:34:06.99	322.58	7.97	-30.1	-31.6	12.1	1.93e-04	0	42	0	958398464	21	4303
2026-01-11 12:34:07.99	322.71	7.92	-30.0	-31.3	12.3	2.61e-04	0	42	0	960495616	21	4193
2026-01-11 12:34:09.00	322.83	7.87	-30.0	-31.3	12.3	2.39e-04	0	42	0	962592768	21	4207
2026-01-11 12:34:10.00	322.95	7.81	-30.0	-31.4	12.3	1.61e-04	0	42	0	963641344	21	4214
2026-01-11 12:34:11.01	323.08	7.76	-30.2	-31.9	11.9	4.27e-04	0	42	0	965738496	21	4381
2026-01-11 12:34:12.01	323.20	7.71	-30.2	-31.9	11.9	5.28e-04	0	42	0	967835648	21	4405
2026-01-11 12:34:13.01	323.32	7.65	-30.2	-32.1	11.7	4.86e-04	0	42	0	969932800	21	4475
2026-01-11 12:34:14.01	323.44	7.60	-30.5	-32.9	11.2	9.39e-04	0	42	0	972029952	21	4735
2026-01-11 12:34:15.01	323.56	7.55	-30.6	-33.3	10.9	1.62e-03	0	42	0	973078528	21	4917
2026-01-11 12:34:16.01	323.68	7.49	-30.6	-33.4	10.8	1.86e-03	0	42	0	975175680	21	4939
2026-01-11 12:34:17.02	323.80	7.44	-30.6	-33.2	10.9	1.97e-03	0	42	0	977272832	21	4861
2026-01-11 12:34:18.02	323.92	7.39	-30.7	-33.6	10.6	2.20e-03	0	42	0	979369984	21	5019
2026-01-11 12:34:19.02	324.04	7.33	-30.7	-33.6	10.5	3.05e-03	0	42	0	980418560	21	5052
2026-01-11 12:34:20.01	324.16	7.28	-30.6	-33.3	10.7	3.23e-03	0	42	0	982515712	21	4913
2026-01-11 12:34:21.02	324.28	7.23	-30.5	-33.1	10.9	2.50e-03	0	42	0	984612864	21	4850
2026-01-11 12:34:22.02	324.40	7.17	-30.6	-33.2	10.9	2.36e-03	0	42	0	986710016	21	4865
2026-01-11 12:34:23.02	324.52	7.12	-30.8	-34.1	10.3	4.08e-03	0	42	0	988807168	21	5217
2026-01-11 12:34:24.01	324.63	7.07	-31.2	-34.8	9.3	1.14e-02	0	42	0	989855744	22	5449
2026-01-11 12:34:25.02	324.75	7.01	-33.1	-45.3	3.8	1.37e+00	0	42	104	990904320	26	14600

#Closed at: 2026-01-11 12:34:25
#Recorded file [990 MB]: D:/data/31010_260111_152535.dat