passes_logs/2026/01/15/R2.0S_Moscow/R2.0S_Moscow__20260115_074724_SUOMI_NPP_rec.log

#Pass ID: 20260115_074724_SUOMI NPP
#Satellite: SUOMI NPP
#Configuration: NPP
#almurnet v.1.7.20251203
#Start time: 2026-01-15 07:47:23

#Version: 2.2.20231116
#Station: R2.0S_Moscow
#Location: 37.707566 lon 55.798166 lat
#TLE: 1 37849U 11061A   26014.11719687  .00000048  00000+0  43625-4 0  9998
#TLE: 2 37849  98.7809 316.1734 0002474  65.2440 294.8994 14.19525043736585

#Time	Az	El	Level	Level2	SNR	BER	BlckErr	Temp	State	Recorded	gain1	gain2
2026-01-15 07:47:23.88	95.35	1.97	-40.0	-54.8	3.8	1.49e+00	0	50	0	0	50	21027
2026-01-15 07:47:24.88	95.27	2.03	-40.0	-54.9	3.8	1.49e+00	0	50	104	0	50	21381
2026-01-15 07:47:25.89	95.18	2.08	-39.6	-54.5	3.8	1.49e+00	0	50	104	0	49	21701
2026-01-15 07:47:26.90	95.09	2.13	-39.8	-54.6	3.8	1.49e+00	0	50	104	0	50	20647
2026-01-15 07:47:27.91	95.01	2.18	-39.9	-54.7	3.9	1.49e+00	0	50	104	0	50	20832
2026-01-15 07:47:28.92	94.92	2.23	-39.8	-54.6	3.9	1.49e+00	0	50	104	0	50	20770
2026-01-15 07:47:29.93	94.83	2.28	-38.8	-54.3	3.9	1.49e+00	0	50	104	0	49	21236
2026-01-15 07:47:30.94	94.74	2.33	-39.3	-54.5	3.8	1.49e+00	0	50	104	0	50	20462
2026-01-15 07:47:31.95	94.65	2.38	-39.7	-54.7	3.8	1.49e+00	0	50	104	0	50	20889
2026-01-15 07:47:32.96	94.57	2.43	-39.3	-54.4	3.8	1.49e+00	0	50	104	0	50	20158
2026-01-15 07:47:33.97	94.48	2.48	-39.9	-54.6	3.8	1.49e+00	0	50	104	0	50	20664
2026-01-15 07:47:34.99	94.39	2.53	-39.9	-54.7	3.8	1.49e+00	0	51	104	0	50	20940
2026-01-15 07:47:36.00	94.30	2.59	-39.6	-54.8	3.8	1.49e+00	0	51	104	0	50	21143
2026-01-15 07:47:37.01	94.21	2.64	-39.8	-54.8	3.9	1.49e+00	0	51	104	0	50	21065
2026-01-15 07:47:38.02	94.12	2.69	-39.8	-54.7	3.8	1.49e+00	0	51	104	0	50	20833
2026-01-15 07:47:39.03	94.03	2.74	-39.8	-54.6	3.9	1.49e+00	0	51	104	0	50	20544
2026-01-15 07:47:40.04	93.94	2.79	-39.6	-54.7	3.8	1.49e+00	0	51	104	0	50	20871
2026-01-15 07:47:41.05	93.84	2.84	-39.0	-54.4	3.9	1.49e+00	0	51	104	0	50	20294
2026-01-15 07:47:42.06	93.75	2.89	-39.8	-54.6	3.8	1.49e+00	0	51	104	0	50	20709
2026-01-15 07:47:43.07	93.66	2.94	-39.9	-54.7	3.8	1.49e+00	0	51	104	0	50	20900
2026-01-15 07:47:44.08	93.57	3.00	-39.8	-54.6	3.8	1.49e+00	0	51	104	0	50	20632
2026-01-15 07:47:45.09	93.48	3.05	-39.8	-54.7	3.8	1.49e+00	0	51	104	0	50	20905
2026-01-15 07:47:46.10	93.38	3.10	-40.1	-54.8	3.8	1.49e+00	0	51	104	0	50	21131
2026-01-15 07:47:47.11	93.29	3.15	-40.1	-54.8	3.8	1.49e+00	0	51	104	0	50	21081
2026-01-15 07:47:48.13	93.19	3.20	-39.9	-54.7	3.8	1.49e+00	0	52	104	0	50	20903
2026-01-15 07:47:49.13	93.10	3.25	-39.8	-54.8	3.8	1.49e+00	0	51	104	0	50	21018
2026-01-15 07:47:50.14	93.01	3.30	-40.0	-54.6	3.8	1.49e+00	0	52	104	0	50	20762
2026-01-15 07:47:51.15	92.91	3.36	-39.9	-54.7	3.8	1.49e+00	0	52	104	0	50	21010
2026-01-15 07:47:52.16	92.82	3.41	-39.9	-54.7	3.8	1.49e+00	0	52	104	0	50	20949
2026-01-15 07:47:53.18	92.72	3.46	-39.9	-54.7	3.8	1.49e+00	0	52	104	0	50	20859
2026-01-15 07:47:54.19	92.63	3.51	-39.7	-54.5	3.8	1.49e+00	0	52	104	0	50	20464
2026-01-15 07:47:55.20	92.53	3.56	-39.7	-54.6	3.8	1.49e+00	0	52	104	0	50	20667
2026-01-15 07:47:56.21	92.43	3.61	-39.9	-54.6	3.8	1.49e+00	0	52	104	0	50	20729
2026-01-15 07:47:57.22	92.34	3.67	-39.9	-54.7	3.8	1.49e+00	0	52	104	0	50	20842
2026-01-15 07:47:58.23	92.24	3.72	-39.1	-54.2	3.8	1.49e+00	0	52	104	0	49	20901
2026-01-15 07:47:59.24	92.14	3.77	-39.3	-54.7	3.8	1.49e+00	0	52	104	0	50	20796
2026-01-15 07:48:00.25	92.04	3.82	-39.9	-54.7	3.8	1.49e+00	0	52	104	0	50	20894
2026-01-15 07:48:01.26	91.95	3.87	-39.8	-54.7	3.8	1.49e+00	0	52	104	0	50	20781
2026-01-15 07:48:02.27	91.85	3.92	-39.4	-54.6	3.7	1.49e+00	0	52	104	0	50	20724
2026-01-15 07:48:03.28	91.75	3.98	-39.4	-54.4	3.8	1.49e+00	0	52	104	0	50	20161
2026-01-15 07:48:04.29	91.65	4.03	-39.7	-54.6	3.8	1.49e+00	0	52	104	0	49	21876
2026-01-15 07:48:05.30	91.55	4.08	-39.4	-54.4	3.9	1.49e+00	0	52	104	0	50	20160
2026-01-15 07:48:06.31	91.45	4.13	-39.4	-54.5	3.8	1.49e+00	0	52	104	0	50	20369
2026-01-15 07:48:07.32	91.35	4.18	-39.9	-54.6	3.8	1.49e+00	0	53	104	0	50	20712
2026-01-15 07:48:08.34	91.25	4.24	-39.9	-54.7	3.8	1.49e+00	0	53	104	0	50	20855
2026-01-15 07:48:09.35	91.15	4.29	-39.4	-54.5	3.9	1.49e+00	0	53	104	0	50	20318
2026-01-15 07:48:10.36	91.05	4.34	-39.6	-54.6	3.8	1.49e+00	0	53	104	0	50	20586
2026-01-15 07:48:11.37	90.94	4.39	-39.6	-54.6	3.8	1.49e+00	0	53	104	0	50	20704
2026-01-15 07:48:12.38	90.84	4.44	-39.8	-54.6	3.9	1.49e+00	0	53	104	0	50	20646
2026-01-15 07:48:13.39	90.74	4.50	-39.7	-54.6	3.8	1.49e+00	0	53	104	0	50	20601
2026-01-15 07:48:14.40	90.64	4.55	-39.8	-54.6	3.9	1.49e+00	0	53	104	0	50	20649
2026-01-15 07:48:15.41	90.53	4.60	-40.0	-54.7	3.8	1.49e+00	0	53	104	0	50	20956
2026-01-15 07:48:16.42	90.43	4.65	-39.1	-54.4	3.8	1.49e+00	0	53	104	0	50	20238
2026-01-15 07:48:17.43	90.33	4.70	-38.3	-54.0	3.8	1.49e+00	0	53	104	0	48	21633
2026-01-15 07:48:18.44	90.22	4.76	-38.3	-53.8	3.8	1.49e+00	0	53	104	0	48	21168
2026-01-15 07:48:19.45	90.12	4.81	-38.8	-54.2	3.8	1.49e+00	0	53	104	0	49	20945
2026-01-15 07:48:20.46	90.01	4.86	-40.1	-54.7	3.9	1.49e+00	0	53	104	0	50	20997
2026-01-15 07:48:21.47	89.91	4.91	-39.8	-54.8	3.8	1.49e+00	0	53	104	0	50	21055
2026-01-15 07:48:22.49	89.80	4.96	-39.6	-54.5	3.8	1.49e+00	0	53	104	0	50	20514
2026-01-15 07:48:23.50	89.69	5.02	-38.9	-54.2	3.8	1.49e+00	0	54	104	0	49	20969
2026-01-15 07:48:24.51	89.59	5.07	-39.9	-54.7	3.8	1.49e+00	0	54	104	0	50	20821
2026-01-15 07:48:25.52	89.48	5.12	-39.8	-54.6	3.8	1.49e+00	0	54	104	0	50	20758
2026-01-15 07:48:26.53	89.37	5.17	-38.9	-54.0	3.8	1.49e+00	0	54	104	0	49	20456
2026-01-15 07:48:27.53	89.26	5.22	-40.1	-54.8	3.8	1.49e+00	0	54	104	0	50	21141
2026-01-15 07:48:28.54	89.16	5.28	-40.1	-54.8	3.9	1.49e+00	0	54	104	0	50	21045
2026-01-15 07:48:29.55	89.05	5.33	-39.9	-54.7	3.8	1.49e+00	0	54	104	0	50	20979
2026-01-15 07:48:30.56	88.94	5.38	-40.1	-54.8	3.9	1.49e+00	0	54	104	0	50	21109
2026-01-15 07:48:31.57	88.83	5.43	-39.2	-54.4	3.8	1.49e+00	0	54	104	0	49	21395
2026-01-15 07:48:32.58	88.72	5.49	-38.8	-54.0	3.8	1.49e+00	0	54	104	0	49	20462
2026-01-15 07:48:33.59	88.61	5.54	-39.1	-54.4	3.8	1.49e+00	0	54	104	0	49	21266
2026-01-15 07:48:34.60	88.50	5.59	-39.2	-54.4	3.8	1.49e+00	0	54	104	0	50	20177
2026-01-15 07:48:35.61	88.39	5.64	-39.5	-54.6	3.8	1.49e+00	0	54	104	0	50	20647
2026-01-15 07:48:36.62	88.28	5.69	-40.1	-54.7	3.8	1.49e+00	0	54	104	0	50	20970
2026-01-15 07:48:37.63	88.16	5.75	-39.9	-54.7	3.8	1.49e+00	0	54	104	0	50	20787
2026-01-15 07:48:38.64	88.05	5.80	-39.8	-54.6	3.8	1.49e+00	0	54	104	0	50	20593
2026-01-15 07:48:39.65	87.94	5.85	-39.3	-54.5	3.8	1.49e+00	0	54	104	0	50	20315
2026-01-15 07:48:40.66	87.83	5.90	-39.7	-54.5	3.9	1.49e+00	0	54	104	0	50	20483
2026-01-15 07:48:41.67	87.71	5.95	-39.8	-54.7	3.8	1.49e+00	0	54	104	0	50	20778
2026-01-15 07:48:42.68	87.60	6.01	-38.7	-54.2	3.8	1.49e+00	0	54	104	0	49	20841
2026-01-15 07:48:43.69	87.48	6.06	-39.7	-54.7	3.8	1.49e+00	0	54	104	0	50	20789
2026-01-15 07:48:44.70	87.37	6.11	-39.5	-54.5	3.9	1.49e+00	0	54	104	0	50	20451
2026-01-15 07:48:45.71	87.25	6.16	-39.3	-54.6	3.8	1.49e+00	0	54	104	0	50	20551
2026-01-15 07:48:46.72	87.14	6.22	-40.0	-54.7	3.8	1.49e+00	0	54	104	0	50	20964
2026-01-15 07:48:47.73	87.02	6.27	-38.9	-54.1	3.9	1.49e+00	0	54	104	0	49	20743
2026-01-15 07:48:48.74	86.91	6.32	-39.5	-54.6	3.8	1.49e+00	0	54	104	0	50	20557
2026-01-15 07:48:49.75	86.79	6.37	-39.5	-54.6	3.8	1.49e+00	0	54	104	0	50	20652
2026-01-15 07:48:50.77	86.67	6.43	-39.2	-54.3	3.9	1.49e+00	0	54	104	0	49	21258
2026-01-15 07:48:51.77	86.55	6.48	-40.0	-54.8	3.8	1.49e+00	0	55	104	0	50	21039
2026-01-15 07:48:52.79	86.44	6.53	-39.0	-54.0	3.8	1.49e+00	0	55	104	0	49	20511
2026-01-15 07:48:53.80	86.32	6.58	-39.8	-54.8	3.9	1.49e+00	0	55	104	0	50	21184
2026-01-15 07:48:54.81	86.20	6.63	-39.5	-54.5	3.8	1.49e+00	0	55	104	0	50	20386
2026-01-15 07:48:55.82	86.08	6.69	-40.0	-54.7	3.8	1.49e+00	0	55	104	0	50	20935
2026-01-15 07:48:56.83	85.96	6.74	-39.9	-54.7	3.8	1.49e+00	0	55	104	0	50	20874
2026-01-15 07:48:57.84	85.84	6.79	-39.3	-54.5	3.8	1.49e+00	0	55	104	0	50	20509
2026-01-15 07:48:58.85	85.72	6.84	-39.6	-54.6	3.8	1.49e+00	0	55	104	0	50	20582
2026-01-15 07:48:59.86	85.60	6.89	-39.1	-54.5	3.8	1.49e+00	0	55	104	0	50	20331
2026-01-15 07:49:00.87	85.47	6.95	-39.4	-54.4	3.8	1.49e+00	0	55	104	0	49	21468
2026-01-15 07:49:01.88	85.35	7.00	-40.1	-54.7	3.8	1.49e+00	0	55	104	0	50	21001
2026-01-15 07:49:02.89	85.23	7.05	-38.1	-53.9	3.9	1.49e+00	0	55	104	0	48	21362
2026-01-15 07:49:03.89	85.11	7.10	-39.7	-54.7	3.8	1.49e+00	0	55	104	0	50	20812
2026-01-15 07:49:04.90	84.98	7.15	-39.4	-54.6	3.8	1.49e+00	0	55	104	0	50	20650
2026-01-15 07:49:05.91	84.86	7.21	-39.7	-54.7	3.8	1.49e+00	0	55	104	0	50	20861
2026-01-15 07:49:06.92	84.74	7.26	-39.4	-54.6	3.8	1.49e+00	0	55	104	0	50	20583
2026-01-15 07:49:07.93	84.61	7.31	-39.7	-54.7	3.8	1.49e+00	0	55	104	0	50	20839
2026-01-15 07:49:08.94	84.49	7.36	-39.8	-54.7	3.8	1.49e+00	0	55	104	0	50	20933
2026-01-15 07:49:09.95	84.36	7.41	-40.1	-54.8	3.8	1.49e+00	0	55	104	0	50	21035
2026-01-15 07:49:10.97	84.23	7.47	-39.8	-54.9	3.9	1.49e+00	0	55	104	0	50	21348
2026-01-15 07:49:11.97	84.11	7.52	-40.0	-54.7	3.8	1.49e+00	0	55	104	0	50	21007
2026-01-15 07:49:12.98	83.98	7.57	-39.6	-54.6	3.8	1.49e+00	0	55	104	0	50	20658
2026-01-15 07:49:13.99	83.85	7.62	-39.7	-54.6	3.8	1.49e+00	0	55	104	0	50	20763
2026-01-15 07:49:15.00	83.72	7.67	-39.2	-54.4	3.8	1.49e+00	0	55	104	0	49	21413
2026-01-15 07:49:16.01	83.60	7.72	-39.6	-54.6	3.8	1.49e+00	0	55	104	0	50	20623
2026-01-15 07:49:17.02	83.47	7.78	-38.7	-54.2	3.8	1.49e+00	0	55	104	0	48	22021
2026-01-15 07:49:18.02	83.34	7.83	-39.5	-54.6	3.9	1.49e+00	0	55	104	0	50	20630
2026-01-15 07:49:19.03	83.21	7.88	-39.3	-54.6	3.8	1.49e+00	0	56	104	0	50	20696
2026-01-15 07:49:20.04	83.08	7.93	-39.6	-54.5	3.8	1.49e+00	0	56	104	0	50	20356
2026-01-15 07:49:21.05	82.95	7.98	-39.4	-54.5	3.8	1.49e+00	0	56	104	0	50	20333
2026-01-15 07:49:22.06	82.82	8.03	-39.3	-54.4	3.8	1.49e+00	0	55	104	0	50	20135
2026-01-15 07:49:23.07	82.69	8.08	-39.8	-54.6	3.8	1.49e+00	0	56	104	0	50	20543
2026-01-15 07:49:24.08	82.55	8.14	-39.8	-54.8	3.8	1.49e+00	0	56	104	0	50	21049
2026-01-15 07:49:25.09	82.42	8.19	-39.8	-54.7	3.8	1.49e+00	0	56	104	0	50	20961
2026-01-15 07:49:26.09	82.29	8.24	-40.2	-54.9	3.8	1.49e+00	0	56	104	0	51	20098
2026-01-15 07:49:27.10	82.16	8.29	-40.0	-54.8	3.8	1.49e+00	0	56	104	0	50	21041
2026-01-15 07:49:28.11	82.02	8.34	-40.2	-54.9	3.8	1.49e+00	0	56	104	0	51	20128
2026-01-15 07:49:29.12	81.89	8.39	-39.7	-54.7	3.8	1.49e+00	0	56	104	0	50	20944
2026-01-15 07:49:30.13	81.75	8.44	-39.8	-54.9	3.8	1.49e+00	0	56	104	0	50	21278
2026-01-15 07:49:31.14	81.62	8.49	-40.1	-54.8	3.8	1.49e+00	0	56	104	0	50	21138
2026-01-15 07:49:32.15	81.48	8.55	-40.2	-54.9	3.8	1.49e+00	0	56	104	0	51	20164
2026-01-15 07:49:33.16	81.34	8.60	-39.7	-54.6	3.8	1.49e+00	0	56	104	0	50	20753
2026-01-15 07:49:34.17	81.21	8.65	-39.9	-54.8	3.8	1.49e+00	0	56	104	0	51	19879
2026-01-15 07:49:35.18	81.07	8.70	-39.9	-54.7	3.8	1.49e+00	0	56	104	0	50	21006
2026-01-15 07:49:36.19	80.93	8.75	-40.2	-54.9	3.8	1.49e+00	0	56	104	0	51	20148
2026-01-15 07:49:37.20	80.79	8.80	-40.3	-54.9	3.8	1.49e+00	0	56	104	0	51	20276
2026-01-15 07:49:38.21	80.65	8.85	-39.5	-54.8	3.8	1.49e+00	0	56	104	0	50	21229
2026-01-15 07:49:39.22	80.51	8.90	-38.9	-54.6	3.8	1.49e+00	0	56	104	0	50	20653
2026-01-15 07:49:40.23	80.37	8.95	-40.2	-55.0	3.8	1.49e+00	0	56	104	0	51	20455
2026-01-15 07:49:41.24	80.23	9.00	-40.3	-54.9	3.8	1.49e+00	0	56	104	0	51	20196
2026-01-15 07:49:42.25	80.09	9.05	-40.3	-55.0	3.8	1.49e+00	0	56	104	0	51	20483
2026-01-15 07:49:43.26	79.95	9.10	-40.3	-55.0	3.8	1.49e+00	0	56	104	0	51	20409
2026-01-15 07:49:44.27	79.81	9.15	-40.3	-55.1	3.8	1.49e+00	0	56	104	0	51	20608
2026-01-15 07:49:45.28	79.67	9.21	-40.3	-55.0	3.8	1.49e+00	0	56	104	0	51	20415
2026-01-15 07:49:46.29	79.52	9.26	-40.3	-55.1	3.8	1.49e+00	0	56	104	0	51	20608
2026-01-15 07:49:47.30	79.38	9.31	-39.7	-54.9	3.8	1.49e+00	0	56	104	0	51	20168
2026-01-15 07:49:48.30	79.24	9.36	-40.6	-55.2	3.8	1.49e+00	0	56	104	0	51	20842
2026-01-15 07:49:49.31	79.09	9.41	-39.9	-54.9	3.8	1.49e+00	0	56	104	0	51	20180
2026-01-15 07:49:50.32	78.95	9.46	-40.3	-55.1	3.8	1.49e+00	0	56	104	0	51	20659
2026-01-15 07:49:51.33	78.80	9.51	-40.5	-55.2	3.8	1.49e+00	0	56	104	0	51	20828
2026-01-15 07:49:52.34	78.66	9.56	-40.4	-55.2	3.8	1.49e+00	0	56	104	0	51	20864
2026-01-15 07:49:53.35	78.51	9.60	-40.6	-55.3	3.8	1.49e+00	0	56	104	0	51	21177
2026-01-15 07:49:54.36	78.36	9.65	-40.7	-55.3	3.8	1.49e+00	0	56	104	0	52	19997
2026-01-15 07:49:55.37	78.22	9.70	-40.5	-55.1	3.8	1.49e+00	0	56	104	0	52	19600
2026-01-15 07:49:56.38	78.07	9.75	-40.7	-55.3	3.8	1.49e+00	0	56	104	0	52	19988
2026-01-15 07:49:57.39	77.92	9.80	-40.5	-55.2	3.8	1.49e+00	0	57	104	0	52	19713
2026-01-15 07:49:58.40	77.77	9.85	-40.7	-55.3	3.8	1.49e+00	0	57	104	0	52	19992
2026-01-15 07:49:59.41	77.62	9.90	-40.8	-55.4	3.8	1.49e+00	0	56	104	0	52	20130
2026-01-15 07:50:00.42	77.47	9.95	-40.7	-55.3	3.8	1.49e+00	0	56	104	0	52	20071
2026-01-15 07:50:01.42	77.32	10.00	-40.8	-55.3	3.8	1.49e+00	0	56	104	0	52	20065
2026-01-15 07:50:02.43	77.17	10.05	-40.8	-55.4	3.8	1.49e+00	0	57	104	0	52	20237
2026-01-15 07:50:03.45	77.02	10.10	-40.8	-55.4	3.8	1.49e+00	0	56	104	0	52	20165
2026-01-15 07:50:04.46	76.87	10.15	-40.8	-55.4	3.8	1.49e+00	0	57	104	0	52	20206
2026-01-15 07:50:05.46	76.72	10.19	-40.8	-55.4	3.8	1.49e+00	0	56	104	0	52	20191
2026-01-15 07:50:06.47	76.56	10.24	-40.8	-55.5	3.8	1.49e+00	0	57	104	0	52	20378
2026-01-15 07:50:07.48	76.41	10.29	-40.8	-55.5	3.8	1.49e+00	0	56	104	0	52	20324
2026-01-15 07:50:08.49	76.26	10.34	-40.8	-55.5	3.8	1.49e+00	0	57	104	0	52	20333
2026-01-15 07:50:09.50	76.10	10.39	-41.0	-55.6	3.8	1.49e+00	0	56	104	0	52	20744
2026-01-15 07:50:10.51	75.95	10.44	-40.9	-55.5	3.8	1.49e+00	0	56	104	0	52	20465
2026-01-15 07:50:11.52	75.79	10.48	-40.9	-55.5	3.8	1.49e+00	0	57	104	0	52	20353
2026-01-15 07:50:12.53	75.63	10.53	-40.9	-55.6	3.8	1.49e+00	0	57	104	0	52	20576
2026-01-15 07:50:13.54	75.48	10.58	-40.9	-55.5	3.8	1.49e+00	0	57	104	0	52	20398
2026-01-15 07:50:14.55	75.32	10.63	-41.0	-55.6	3.8	1.49e+00	0	57	104	0	52	20666
2026-01-15 07:50:15.56	75.16	10.68	-41.0	-55.6	3.8	1.49e+00	0	57	104	0	52	20683
2026-01-15 07:50:16.56	75.01	10.72	-41.0	-55.7	3.8	1.49e+00	0	57	104	0	52	20836
2026-01-15 07:50:17.57	74.85	10.77	-41.0	-55.7	3.8	1.49e+00	0	57	104	0	52	20908
2026-01-15 07:50:18.58	74.69	10.82	-41.1	-55.7	3.8	1.49e+00	0	57	104	0	52	20839
2026-01-15 07:50:19.59	74.53	10.86	-41.1	-55.7	3.8	1.49e+00	0	57	104	0	52	20853
2026-01-15 07:50:20.60	74.37	10.91	-41.1	-55.7	3.8	1.49e+00	0	57	104	0	52	20900
2026-01-15 07:50:21.61	74.21	10.96	-41.1	-55.7	3.8	1.49e+00	0	57	104	0	52	20840
2026-01-15 07:50:22.62	74.05	11.01	-41.0	-55.6	3.8	1.49e+00	0	57	104	0	52	20775
2026-01-15 07:50:23.63	73.88	11.05	-41.0	-55.7	3.8	1.49e+00	0	57	104	0	52	20887
2026-01-15 07:50:24.64	73.72	11.10	-40.9	-55.6	3.8	1.49e+00	0	57	104	0	52	20640
2026-01-15 07:50:25.65	73.56	11.14	-40.9	-55.6	3.8	1.49e+00	0	57	104	0	52	20682
2026-01-15 07:50:26.66	73.39	11.19	-40.9	-55.6	3.8	1.49e+00	0	57	104	0	52	20738
2026-01-15 07:50:27.67	73.23	11.24	-40.9	-55.6	3.8	1.49e+00	0	57	104	0	52	20674
2026-01-15 07:50:28.68	73.07	11.28	-40.9	-55.6	3.8	1.49e+00	0	57	104	0	52	20683
2026-01-15 07:50:29.69	72.90	11.33	-40.9	-55.6	3.8	1.49e+00	0	57	104	0	52	20666
2026-01-15 07:50:30.69	72.74	11.37	-41.0	-55.7	3.8	1.49e+00	0	57	104	0	52	20814
2026-01-15 07:50:31.70	72.57	11.42	-41.0	-55.6	3.8	1.49e+00	0	57	104	0	52	20730
2026-01-15 07:50:32.71	72.40	11.46	-41.1	-55.7	3.8	1.49e+00	0	57	104	0	52	20932
2026-01-15 07:50:33.72	72.24	11.51	-41.1	-55.8	3.8	1.49e+00	0	57	104	0	52	21101
2026-01-15 07:50:34.73	72.07	11.56	-41.0	-55.7	3.8	1.49e+00	0	57	104	0	52	20819
2026-01-15 07:50:35.74	71.90	11.60	-41.1	-55.8	3.8	1.49e+00	0	57	104	0	52	21148
2026-01-15 07:50:36.75	71.73	11.64	-41.1	-55.7	3.8	1.49e+00	0	57	104	0	52	20982
2026-01-15 07:50:37.76	71.56	11.69	-41.1	-55.7	3.8	1.49e+00	0	57	104	0	52	20973
2026-01-15 07:50:38.77	71.39	11.73	-41.1	-55.8	3.8	1.49e+00	0	57	104	0	52	21082
2026-01-15 07:50:39.78	71.22	11.78	-41.1	-55.8	3.8	1.49e+00	0	57	104	0	52	21095
2026-01-15 07:50:40.79	71.05	11.82	-41.0	-55.8	3.8	1.49e+00	0	57	104	0	52	21028
2026-01-15 07:50:41.80	70.88	11.87	-41.0	-55.7	3.8	1.49e+00	0	57	104	0	52	20943
2026-01-15 07:50:42.81	70.71	11.91	-41.1	-55.8	3.8	1.49e+00	0	57	104	0	52	21092
2026-01-15 07:50:43.82	70.54	11.95	-41.0	-55.7	3.8	1.49e+00	0	57	104	0	52	20838
2026-01-15 07:50:44.83	70.37	12.00	-41.1	-55.7	3.8	1.49e+00	0	57	104	0	52	20947
2026-01-15 07:50:45.84	70.19	12.04	-41.1	-55.8	3.8	1.49e+00	0	57	104	0	52	21068
2026-01-15 07:50:46.85	70.02	12.08	-41.0	-55.8	3.8	1.49e+00	0	57	104	0	52	21060
2026-01-15 07:50:47.86	69.84	12.13	-41.2	-55.8	3.8	1.49e+00	0	57	104	0	52	21257
2026-01-15 07:50:48.87	69.67	12.17	-41.1	-55.8	3.8	1.49e+00	0	57	104	0	53	20056
2026-01-15 07:50:49.88	69.49	12.21	-41.2	-55.9	3.8	1.49e+00	0	57	104	0	53	20151
2026-01-15 07:50:50.89	69.32	12.25	-41.0	-55.7	3.8	1.49e+00	0	57	104	0	53	19666
2026-01-15 07:50:51.90	69.14	12.30	-41.3	-55.9	3.8	1.49e+00	0	57	104	0	53	20224
2026-01-15 07:50:52.91	68.97	12.34	-41.0	-55.7	3.8	1.49e+00	0	57	104	0	53	19754
2026-01-15 07:50:53.92	68.79	12.38	-41.4	-56.0	3.8	1.49e+00	0	57	104	0	53	20482
2026-01-15 07:50:54.93	68.61	12.42	-41.3	-55.9	3.8	1.49e+00	0	57	104	0	53	20277
2026-01-15 07:50:55.94	68.43	12.46	-41.4	-56.1	3.8	1.49e+00	0	57	104	0	53	20621
2026-01-15 07:50:56.95	68.25	12.50	-41.3	-55.9	3.8	1.49e+00	0	57	104	0	53	20203
2026-01-15 07:50:57.96	68.07	12.54	-41.4	-56.0	3.8	1.49e+00	0	57	104	0	53	20451
2026-01-15 07:50:58.97	67.89	12.58	-41.3	-55.9	3.8	1.49e+00	0	57	104	0	53	20199
2026-01-15 07:50:59.98	67.71	12.62	-41.4	-56.1	3.8	1.49e+00	0	58	104	0	53	20633
2026-01-15 07:51:00.99	67.53	12.67	-41.3	-55.9	3.8	1.49e+00	0	57	104	0	53	20266
2026-01-15 07:51:02.00	67.35	12.71	-41.6	-56.2	3.8	1.49e+00	0	57	104	0	53	20941
2026-01-15 07:51:03.01	67.17	12.74	-41.3	-55.9	3.8	1.49e+00	0	58	104	0	53	20124
2026-01-15 07:51:04.02	66.99	12.78	-41.7	-56.2	3.8	1.49e+00	0	57	104	0	53	20913
2026-01-15 07:51:05.04	66.80	12.82	-41.3	-55.9	3.8	1.49e+00	0	58	104	0	54	19084
2026-01-15 07:51:06.04	66.62	12.86	-41.6	-56.2	3.8	1.49e+00	0	58	104	0	54	19650
2026-01-15 07:51:07.05	66.44	12.90	-41.4	-56.0	3.8	1.49e+00	0	57	104	0	54	19275
2026-01-15 07:51:08.06	66.25	12.94	-41.6	-56.2	3.8	1.49e+00	0	57	104	0	54	19836
2026-01-15 07:51:09.07	66.07	12.98	-41.4	-56.1	3.8	1.49e+00	0	57	104	0	54	19563
2026-01-15 07:51:10.09	65.88	13.02	-42.3	-56.8	3.8	1.49e+00	0	58	104	0	55	20030
2026-01-15 07:51:11.10	65.70	13.06	-41.5	-56.2	3.8	1.49e+00	0	58	104	0	55	18584
2026-01-15 07:51:12.11	65.51	13.09	-41.5	-56.2	3.8	1.49e+00	0	58	104	0	55	18661
2026-01-15 07:51:13.12	65.32	13.13	-41.6	-56.3	3.8	1.49e+00	0	57	104	0	55	18817
2026-01-15 07:51:14.13	65.14	13.17	-41.7	-56.2	3.8	1.49e+00	0	58	104	0	55	18658
2026-01-15 07:51:15.14	64.95	13.21	-41.8	-56.4	3.8	1.49e+00	0	58	104	0	55	19130
2026-01-15 07:51:16.15	64.76	13.24	-42.0	-56.7	3.8	1.49e+00	0	58	104	0	55	19673
2026-01-15 07:51:17.16	64.57	13.28	-41.7	-56.4	3.8	1.49e+00	0	58	104	0	55	19118
2026-01-15 07:51:18.17	64.38	13.32	-42.8	-56.5	3.8	1.49e+00	0	58	104	0	56	18136
2026-01-15 07:51:19.18	64.19	13.35	-41.8	-56.5	3.8	1.49e+00	0	57	104	0	55	19385
2026-01-15 07:51:20.19	64.00	13.39	-42.0	-55.1	3.8	1.49e+00	0	58	104	0	55	16498
2026-01-15 07:51:21.19	63.81	13.42	-42.2	-55.6	3.8	1.49e+00	0	58	104	0	55	17405
2026-01-15 07:51:22.20	63.62	13.46	-42.3	-54.5	4.0	1.47e+00	0	57	104	0	55	15236
2026-01-15 07:51:23.22	63.43	13.49	-42.4	-52.7	4.6	1.28e+00	0	58	0	0	55	12430
2026-01-15 07:51:24.23	63.24	13.53	-42.6	-52.2	4.9	8.26e-01	0	58	0	2097152	55	11760
2026-01-15 07:51:25.24	63.05	13.56	-42.6	-51.1	5.7	4.97e-01	0	58	0	4194304	55	10372
2026-01-15 07:51:26.25	62.85	13.60	-42.5	-50.0	6.6	2.89e-01	0	58	0	6291456	55	9170
2026-01-15 07:51:27.26	62.66	13.63	-42.2	-48.7	8.0	1.23e-01	0	58	0	7340032	55	7866
2026-01-15 07:51:28.26	62.47	13.66	-42.1	-48.0	8.7	4.98e-02	0	58	0	9437184	55	7245
2026-01-15 07:51:29.27	62.27	13.70	-42.2	-48.1	8.7	2.84e-02	0	58	0	11534336	55	7362
2026-01-15 07:51:30.28	62.08	13.73	-42.2	-48.1	8.7	3.15e-02	0	58	0	13631488	55	7351
2026-01-15 07:51:31.29	61.88	13.76	-41.9	-47.2	9.7	2.54e-02	0	58	0	15728640	55	6584
2026-01-15 07:51:32.30	61.69	13.80	-41.8	-46.8	10.1	7.82e-03	0	58	0	16777216	55	6295
2026-01-15 07:51:33.31	61.49	13.83	-41.4	-46.0	11.0	3.76e-03	0	58	0	18874368	54	6095
2026-01-15 07:51:34.32	61.30	13.86	-41.5	-46.0	11.0	1.41e-03	0	58	0	20971520	54	6097
2026-01-15 07:51:35.33	61.10	13.89	-41.5	-45.9	11.2	1.19e-03	0	58	0	23068672	54	6033
2026-01-15 07:51:36.34	60.90	13.92	-41.6	-46.3	10.9	2.29e-03	0	58	0	25165824	54	6286
2026-01-15 07:51:37.34	60.71	13.95	-41.7	-46.4	10.7	2.34e-03	0	58	0	26214400	54	6407
2026-01-15 07:51:38.35	60.51	13.98	-41.7	-46.3	10.9	2.46e-03	0	58	0	28311552	54	6288
2026-01-15 07:51:39.36	60.31	14.01	-41.6	-46.0	11.2	2.02e-03	0	58	0	30408704	54	6107
2026-01-15 07:51:40.37	60.11	14.04	-41.5	-45.8	11.4	1.70e-03	0	58	0	32505856	54	5972
2026-01-15 07:51:41.38	59.91	14.07	-41.4	-45.4	11.8	9.79e-04	0	58	0	34603008	54	5706
2026-01-15 07:51:42.39	59.71	14.10	-41.4	-45.5	11.8	4.43e-04	0	58	0	36700160	54	5730
2026-01-15 07:51:43.39	59.52	14.13	-41.4	-45.5	11.8	4.23e-04	0	58	0	37748736	54	5746
2026-01-15 07:51:44.40	59.32	14.16	-41.4	-45.5	11.8	4.15e-04	0	58	0	39845888	54	5757
2026-01-15 07:51:45.41	59.12	14.19	-41.5	-45.7	11.6	7.24e-04	0	58	0	41943040	54	5908
2026-01-15 07:51:46.42	58.91	14.22	-41.6	-46.0	11.4	1.15e-03	0	58	0	44040192	54	6070
2026-01-15 07:51:47.43	58.71	14.25	-41.6	-46.0	11.3	1.17e-03	0	58	0	46137344	54	6127
2026-01-15 07:51:48.44	58.51	14.27	-41.8	-46.3	11.0	1.73e-03	0	58	0	47185920	54	6323
2026-01-15 07:51:49.45	58.31	14.30	-41.9	-46.6	10.8	2.21e-03	0	58	0	49283072	54	6495
2026-01-15 07:51:50.46	58.11	14.33	-41.9	-46.6	10.7	2.75e-03	0	58	0	51380224	54	6545
2026-01-15 07:51:51.47	57.90	14.36	-41.9	-46.7	10.6	3.24e-03	0	58	0	53477376	54	6644
2026-01-15 07:51:52.48	57.70	14.38	-42.0	-46.8	10.5	3.98e-03	0	58	0	54525952	54	6688
2026-01-15 07:51:53.49	57.50	14.41	-41.9	-46.6	10.7	3.41e-03	0	58	0	56623104	54	6539
2026-01-15 07:51:54.49	57.29	14.43	-41.9	-46.5	10.8	3.08e-03	0	58	0	58720256	54	6494
2026-01-15 07:51:55.50	57.09	14.46	-41.9	-46.7	10.7	3.03e-03	0	58	0	60817408	54	6571
2026-01-15 07:51:56.51	56.88	14.48	-41.9	-46.6	10.8	2.96e-03	0	58	0	62914560	54	6509
2026-01-15 07:51:57.52	56.68	14.51	-41.9	-46.7	10.6	2.67e-03	0	58	0	65011712	54	6596
2026-01-15 07:51:58.53	56.47	14.53	-42.0	-46.8	10.5	3.30e-03	0	58	0	66060288	54	6654
2026-01-15 07:51:59.54	56.27	14.56	-42.0	-46.7	10.6	2.95e-03	0	58	0	68157440	54	6633
2026-01-15 07:52:00.55	56.06	14.58	-41.9	-46.7	10.7	2.89e-03	0	58	0	70254592	54	6576
2026-01-15 07:52:01.56	55.86	14.60	-41.9	-46.5	10.9	2.59e-03	0	58	0	72351744	54	6439
2026-01-15 07:52:02.56	55.65	14.63	-41.9	-46.7	10.7	2.52e-03	0	58	0	74448896	54	6584
2026-01-15 07:52:03.57	55.44	14.65	-41.9	-46.6	10.7	2.71e-03	0	58	0	75497472	54	6566
2026-01-15 07:52:04.57	55.24	14.67	-41.9	-46.6	10.8	2.90e-03	0	58	0	77594624	54	6505
2026-01-15 07:52:05.58	55.03	14.69	-41.9	-46.6	10.8	2.92e-03	0	58	0	79691776	54	6514
2026-01-15 07:52:06.59	54.82	14.71	-41.8	-46.3	11.0	1.83e-03	0	58	0	81788928	54	6321
2026-01-15 07:52:07.60	54.62	14.74	-41.7	-46.2	11.3	1.04e-03	0	58	0	83886080	54	6204
2026-01-15 07:52:08.61	54.41	14.76	-41.7	-46.1	11.3	1.10e-03	0	58	0	84934656	54	6167
2026-01-15 07:52:09.61	54.20	14.78	-41.7	-46.0	11.4	9.83e-04	0	58	0	87031808	54	6081
2026-01-15 07:52:10.62	53.99	14.80	-41.6	-45.9	11.5	9.52e-04	0	58	0	89128960	54	6028
2026-01-15 07:52:11.63	53.78	14.82	-41.6	-45.9	11.5	8.80e-04	0	58	0	91226112	54	6004
2026-01-15 07:52:12.64	53.57	14.84	-41.6	-45.8	11.6	6.76e-04	0	58	0	93323264	54	5984
2026-01-15 07:52:13.65	53.36	14.85	-41.6	-45.9	11.6	5.32e-04	0	58	0	94371840	54	6008
2026-01-15 07:52:14.66	53.15	14.87	-41.7	-46.0	11.4	8.40e-04	0	58	0	96468992	54	6087
2026-01-15 07:52:15.67	52.94	14.89	-41.8	-46.2	11.2	1.27e-03	0	58	0	98566144	54	6262
2026-01-15 07:52:16.68	52.73	14.91	-41.8	-46.4	11.0	1.64e-03	0	58	0	100663296	54	6361
2026-01-15 07:52:17.68	52.52	14.93	-41.9	-46.5	10.9	2.07e-03	0	58	0	102760448	54	6443
2026-01-15 07:52:18.69	52.31	14.94	-41.8	-46.4	11.0	2.06e-03	0	58	0	103809024	54	6359
2026-01-15 07:52:19.70	52.10	14.96	-41.8	-46.3	11.1	1.51e-03	0	58	0	105906176	54	6286
2026-01-15 07:52:20.71	51.89	14.98	-41.7	-46.1	11.3	1.40e-03	0	58	0	108003328	54	6188
2026-01-15 07:52:21.72	51.68	14.99	-41.8	-46.3	11.1	1.50e-03	0	58	0	110100480	54	6326
2026-01-15 07:52:22.73	51.46	15.01	-41.9	-46.5	10.9	1.73e-03	0	58	0	112197632	54	6453
2026-01-15 07:52:23.74	51.25	15.02	-42.0	-46.7	10.7	2.05e-03	0	58	0	113246208	54	6598
2026-01-15 07:52:24.75	51.04	15.04	-42.0	-46.8	10.7	2.76e-03	0	58	0	115343360	54	6658
2026-01-15 07:52:25.76	50.83	15.05	-41.9	-46.7	10.8	2.65e-03	0	58	0	117440512	54	6573
2026-01-15 07:52:26.77	50.61	15.07	-41.9	-46.6	10.8	2.19e-03	0	58	0	119537664	54	6548
2026-01-15 07:52:27.78	50.40	15.08	-41.9	-46.6	10.8	2.52e-03	0	58	0	121634816	54	6569
2026-01-15 07:52:28.79	50.19	15.09	-42.0	-46.9	10.6	3.12e-03	0	58	0	122683392	54	6734
2026-01-15 07:52:29.80	49.97	15.11	-42.1	-47.0	10.4	3.62e-03	0	58	0	124780544	54	6846
2026-01-15 07:52:30.81	49.76	15.12	-42.1	-47.0	10.4	5.49e-03	0	58	0	126877696	54	6873
2026-01-15 07:52:31.82	49.55	15.13	-42.0	-46.9	10.5	5.13e-03	0	58	0	128974848	54	6744
2026-01-15 07:52:32.83	49.33	15.14	-42.1	-46.9	10.5	4.48e-03	0	58	0	131072000	54	6782
2026-01-15 07:52:33.84	49.12	15.15	-42.0	-46.9	10.5	3.99e-03	0	58	0	133169152	54	6732
2026-01-15 07:52:34.85	48.90	15.17	-42.0	-46.8	10.6	3.23e-03	0	58	0	134217728	54	6691
2026-01-15 07:52:35.86	48.69	15.18	-42.0	-46.7	10.8	2.69e-03	0	58	0	136314880	54	6602
2026-01-15 07:52:36.88	48.47	15.19	-42.0	-46.7	10.7	2.73e-03	0	58	0	138412032	54	6629
2026-01-15 07:52:37.88	48.26	15.20	-41.9	-46.5	10.9	2.60e-03	0	58	0	140509184	54	6472
2026-01-15 07:52:38.89	48.04	15.21	-41.9	-46.5	10.9	2.12e-03	0	58	0	142606336	54	6492
2026-01-15 07:52:39.90	47.83	15.21	-41.8	-46.4	11.0	2.02e-03	0	58	0	143654912	54	6399
2026-01-15 07:52:40.91	47.61	15.22	-41.9	-46.5	11.0	1.71e-03	0	58	0	145752064	54	6452
2026-01-15 07:52:41.91	47.40	15.23	-41.8	-46.3	11.1	1.65e-03	0	58	0	147849216	54	6345
2026-01-15 07:52:42.92	47.18	15.24	-41.7	-46.2	11.2	1.48e-03	0	58	0	149946368	54	6261
2026-01-15 07:52:43.94	46.97	15.25	-41.7	-46.1	11.4	9.17e-04	0	58	0	152043520	54	6133
2026-01-15 07:52:44.95	46.75	15.25	-41.7	-46.0	11.4	8.84e-04	0	58	0	153092096	54	6107
2026-01-15 07:52:45.96	46.54	15.26	-41.7	-46.1	11.3	1.02e-03	0	58	0	155189248	54	6181
2026-01-15 07:52:46.97	46.32	15.27	-41.8	-46.2	11.3	1.21e-03	0	58	0	157286400	54	6248
2026-01-15 07:52:47.97	46.11	15.27	-41.9	-46.5	11.0	1.34e-03	0	58	0	159383552	54	6434
2026-01-15 07:52:48.98	45.89	15.28	-41.9	-46.6	10.9	1.77e-03	0	58	0	161480704	54	6502
2026-01-15 07:52:49.99	45.67	15.28	-41.9	-46.6	10.9	2.39e-03	0	59	0	162529280	54	6521
2026-01-15 07:52:51.00	45.46	15.29	-41.9	-46.4	11.0	1.97e-03	0	59	0	164626432	54	6409
2026-01-15 07:52:52.01	45.24	15.29	-41.8	-46.2	11.2	1.69e-03	0	58	0	166723584	54	6262
2026-01-15 07:52:53.02	45.03	15.29	-41.7	-46.1	11.4	1.35e-03	0	58	0	168820736	54	6144
2026-01-15 07:52:54.03	44.81	15.30	-41.7	-46.0	11.5	8.21e-04	0	58	0	170917888	54	6085
2026-01-15 07:52:55.04	44.59	15.30	-41.7	-46.0	11.5	7.99e-04	0	58	0	171966464	54	6067
2026-01-15 07:52:56.04	44.38	15.30	-41.6	-45.8	11.7	7.22e-04	0	59	0	174063616	54	5936
2026-01-15 07:52:57.05	44.16	15.30	-41.6	-45.7	11.8	5.69e-04	0	59	0	176160768	54	5912
2026-01-15 07:52:58.06	43.95	15.31	-41.6	-45.8	11.7	5.74e-04	0	58	0	178257920	54	5973
2026-01-15 07:52:59.07	43.73	15.31	-41.6	-45.8	11.7	5.96e-04	0	58	0	180355072	54	5973
2026-01-15 07:53:00.08	43.51	15.31	-41.6	-45.8	11.6	6.54e-04	0	58	0	181403648	54	5990
2026-01-15 07:53:01.08	43.30	15.31	-41.7	-46.1	11.4	7.71e-04	0	58	0	183500800	54	6153
2026-01-15 07:53:02.09	43.08	15.31	-41.8	-46.2	11.2	1.09e-03	0	59	0	185597952	54	6273
2026-01-15 07:53:03.10	42.87	15.31	-41.8	-46.4	11.0	1.66e-03	0	58	0	187695104	54	6415
2026-01-15 07:53:04.11	42.65	15.31	-41.9	-46.6	10.8	2.52e-03	0	58	0	189792256	54	6557
2026-01-15 07:53:05.12	42.43	15.31	-42.0	-46.8	10.7	2.37e-03	0	59	0	190840832	54	6655
2026-01-15 07:53:06.13	42.22	15.30	-42.1	-47.0	10.5	2.98e-03	0	58	0	192937984	54	6820
2026-01-15 07:53:07.14	42.00	15.30	-42.1	-46.9	10.5	3.17e-03	0	58	0	195035136	54	6787
2026-01-15 07:53:08.15	41.78	15.30	-42.1	-47.0	10.5	3.83e-03	0	59	0	197132288	54	6832
2026-01-15 07:53:09.16	41.57	15.30	-42.1	-47.0	10.5	4.40e-03	0	58	0	199229440	54	6825
2026-01-15 07:53:10.17	41.35	15.29	-42.2	-47.3	10.1	5.81e-03	0	58	0	200278016	54	7077
2026-01-15 07:53:11.18	41.14	15.29	-42.3	-47.5	9.9	7.46e-03	0	58	0	202375168	55	6863
2026-01-15 07:53:12.19	40.92	15.29	-42.3	-47.8	9.7	9.18e-03	0	59	0	204472320	55	7043
2026-01-15 07:53:13.20	40.70	15.28	-42.3	-47.6	9.8	9.71e-03	0	58	0	206569472	55	6931
2026-01-15 07:53:14.21	40.49	15.28	-42.2	-47.4	9.9	7.95e-03	0	59	0	208666624	55	6797
2026-01-15 07:53:15.22	40.27	15.27	-42.1	-47.2	10.2	7.26e-03	0	59	0	209715200	55	6600
2026-01-15 07:53:16.23	40.06	15.26	-42.0	-46.8	10.6	4.07e-03	0	58	0	211812352	55	6307
2026-01-15 07:53:17.24	39.84	15.26	-41.9	-46.6	10.8	2.98e-03	0	59	0	213909504	55	6167
2026-01-15 07:53:18.25	39.62	15.25	-41.8	-46.4	11.0	2.30e-03	0	58	0	216006656	55	6036
2026-01-15 07:53:19.26	39.41	15.24	-41.8	-46.4	11.0	1.60e-03	0	59	0	218103808	55	6047
2026-01-15 07:53:20.27	39.19	15.24	-41.8	-46.4	11.0	1.30e-03	0	58	0	219152384	55	6048
2026-01-15 07:53:21.28	38.98	15.23	-41.9	-46.5	11.0	1.72e-03	0	59	0	221249536	55	6079
2026-01-15 07:53:22.29	38.76	15.22	-41.8	-46.4	11.1	1.95e-03	0	59	0	223346688	55	6008
2026-01-15 07:53:23.30	38.55	15.21	-41.9	-46.5	10.9	2.07e-03	0	59	0	225443840	55	6127
2026-01-15 07:53:24.31	38.33	15.20	-41.9	-46.7	10.8	2.27e-03	0	59	0	227540992	55	6204
2026-01-15 07:53:25.32	38.12	15.19	-42.0	-46.9	10.6	2.30e-03	0	59	0	229638144	55	6374
2026-01-15 07:53:26.33	37.90	15.18	-42.0	-46.8	10.7	2.80e-03	0	59	0	230686720	55	6305
2026-01-15 07:53:27.34	37.69	15.17	-42.0	-46.8	10.7	2.80e-03	0	59	0	232783872	55	6291
2026-01-15 07:53:28.35	37.47	15.16	-41.9	-46.5	11.0	3.04e-03	0	59	0	234881024	55	6099
2026-01-15 07:53:29.36	37.26	15.15	-41.8	-46.1	11.4	1.18e-03	0	59	0	236978176	55	5845
2026-01-15 07:53:30.37	37.05	15.14	-41.8	-46.1	11.3	7.92e-04	0	59	0	239075328	55	5847
2026-01-15 07:53:31.38	36.83	15.13	-41.6	-45.7	11.8	7.30e-04	0	59	0	240123904	55	5573
2026-01-15 07:53:32.39	36.62	15.12	-41.5	-45.6	11.9	3.92e-04	0	59	0	242221056	55	5498
2026-01-15 07:53:33.40	36.41	15.11	-41.5	-45.6	11.9	4.26e-04	0	59	0	244318208	55	5525
2026-01-15 07:53:34.41	36.19	15.09	-41.6	-45.8	11.8	4.87e-04	0	59	0	246415360	55	5601
2026-01-15 07:53:35.42	35.98	15.08	-41.6	-45.8	11.7	5.32e-04	0	59	0	248512512	55	5606
2026-01-15 07:53:36.43	35.77	15.07	-41.7	-45.9	11.6	6.35e-04	0	59	0	249561088	55	5695
2026-01-15 07:53:37.44	35.55	15.05	-41.7	-46.0	11.5	7.19e-04	0	59	0	251658240	55	5732
2026-01-15 07:53:38.45	35.34	15.04	-41.8	-46.1	11.4	8.31e-04	0	59	0	253755392	55	5845
2026-01-15 07:53:39.46	35.13	15.02	-41.8	-46.2	11.3	1.05e-03	0	59	0	255852544	55	5900
2026-01-15 07:53:40.47	34.92	15.01	-41.9	-46.4	11.1	1.43e-03	0	59	0	257949696	55	6016
2026-01-15 07:53:41.48	34.71	14.99	-41.9	-46.4	11.2	1.23e-03	0	59	0	258998272	55	6004
2026-01-15 07:53:42.49	34.49	14.97	-41.9	-46.4	11.1	1.74e-03	0	59	0	261095424	55	6055
2026-01-15 07:53:43.50	34.28	14.96	-41.9	-46.5	11.1	1.73e-03	0	59	0	263192576	55	6084
2026-01-15 07:53:44.51	34.07	14.94	-41.9	-46.5	11.0	1.71e-03	0	59	0	265289728	55	6109
2026-01-15 07:53:45.52	33.86	14.92	-41.9	-46.5	11.0	1.62e-03	0	59	0	267386880	55	6068
2026-01-15 07:53:46.53	33.65	14.91	-41.9	-46.5	10.9	2.09e-03	0	59	0	268435456	55	6122
2026-01-15 07:53:47.54	33.44	14.89	-41.9	-46.6	10.9	1.92e-03	0	59	0	270532608	55	6140
2026-01-15 07:53:48.55	33.23	14.87	-41.9	-46.5	10.9	2.15e-03	0	59	0	272629760	55	6115
2026-01-15 07:53:49.56	33.02	14.85	-41.9	-46.4	11.0	2.08e-03	0	59	0	274726912	55	6046
2026-01-15 07:53:50.57	32.81	14.83	-42.0	-46.7	10.8	2.32e-03	0	59	0	276824064	55	6216
2026-01-15 07:53:51.58	32.60	14.81	-41.9	-46.4	11.1	1.83e-03	0	59	0	278921216	55	5993
2026-01-15 07:53:52.59	32.39	14.79	-41.9	-46.4	11.1	1.34e-03	0	59	0	279969792	55	6020
2026-01-15 07:53:53.60	32.18	14.77	-41.8	-46.2	11.3	1.44e-03	0	59	0	282066944	55	5865
2026-01-15 07:53:54.61	31.97	14.75	-41.7	-45.9	11.7	8.62e-04	0	59	0	284164096	55	5660
2026-01-15 07:53:55.62	31.77	14.73	-41.6	-45.8	11.7	5.87e-04	0	59	0	286261248	55	5646
2026-01-15 07:53:56.63	31.56	14.71	-41.6	-45.7	11.8	4.97e-04	0	59	0	287309824	55	5588
2026-01-15 07:53:57.64	31.35	14.69	-41.7	-45.9	11.7	5.23e-04	0	59	0	289406976	55	5661
2026-01-15 07:53:58.65	31.14	14.67	-41.6	-45.6	11.9	4.57e-04	0	59	0	291504128	55	5475
2026-01-15 07:53:59.66	30.94	14.65	-41.6	-45.7	11.8	3.18e-04	0	59	0	293601280	55	5572
2026-01-15 07:54:00.67	30.73	14.62	-41.4	-45.3	12.2	3.88e-04	0	59	0	295698432	54	5612
2026-01-15 07:54:01.68	30.52	14.60	-41.4	-45.3	12.3	2.08e-04	0	59	0	297795584	54	5602
2026-01-15 07:54:02.68	30.32	14.58	-41.4	-45.3	12.1	2.53e-04	0	59	0	298844160	54	5656
2026-01-15 07:54:03.69	30.12	14.55	-41.5	-45.5	12.1	2.47e-04	0	59	0	300941312	54	5727
2026-01-15 07:54:04.70	29.91	14.53	-41.6	-45.6	11.9	3.59e-04	0	59	0	303038464	54	5835
2026-01-15 07:54:05.71	29.71	14.50	-41.7	-45.9	11.6	5.23e-04	0	59	0	305135616	54	6031
2026-01-15 07:54:06.72	29.50	14.48	-41.8	-46.1	11.4	1.07e-03	0	59	0	307232768	54	6166
2026-01-15 07:54:07.73	29.30	14.45	-41.8	-46.3	11.2	1.53e-03	0	59	0	308281344	54	6283
2026-01-15 07:54:08.74	29.09	14.43	-41.9	-46.4	11.0	1.57e-03	0	59	0	310378496	54	6388
2026-01-15 07:54:09.75	28.89	14.40	-41.9	-46.5	11.0	1.75e-03	0	59	0	312475648	54	6434
2026-01-15 07:54:10.75	28.69	14.38	-41.9	-46.5	10.9	1.91e-03	0	59	0	314572800	54	6475
2026-01-15 07:54:11.76	28.49	14.35	-41.9	-46.4	11.0	1.76e-03	0	59	0	316669952	54	6390
2026-01-15 07:54:12.77	28.28	14.32	-41.9	-46.5	10.9	1.97e-03	0	59	0	317718528	54	6479
2026-01-15 07:54:13.78	28.08	14.30	-42.0	-46.6	10.8	3.09e-03	0	59	0	319815680	54	6542
2026-01-15 07:54:14.79	27.88	14.27	-42.0	-46.7	10.7	2.63e-03	0	59	0	321912832	54	6625
2026-01-15 07:54:15.80	27.68	14.24	-42.1	-47.0	10.5	3.63e-03	0	59	0	324009984	54	6829
2026-01-15 07:54:16.81	27.48	14.21	-42.1	-47.0	10.5	4.13e-03	0	59	0	326107136	54	6809
2026-01-15 07:54:17.82	27.28	14.19	-42.1	-47.1	10.4	4.47e-03	0	59	0	327155712	54	6886
2026-01-15 07:54:18.83	27.08	14.16	-42.0	-46.8	10.6	3.33e-03	0	59	0	329252864	54	6708
2026-01-15 07:54:19.84	26.88	14.13	-42.0	-46.8	10.6	3.46e-03	0	59	0	331350016	54	6678
2026-01-15 07:54:20.84	26.68	14.10	-41.9	-46.5	11.0	2.53e-03	0	59	0	333447168	54	6454
2026-01-15 07:54:21.85	26.48	14.07	-41.9	-46.5	10.9	2.07e-03	0	59	0	335544320	54	6489
2026-01-15 07:54:22.86	26.28	14.04	-41.8	-46.3	11.1	1.80e-03	0	59	0	336592896	54	6320
2026-01-15 07:54:23.87	26.08	14.01	-41.8	-46.3	11.1	1.42e-03	0	59	0	338690048	54	6310
2026-01-15 07:54:24.88	25.89	13.98	-41.8	-46.2	11.3	1.04e-03	0	59	0	340787200	54	6211
2026-01-15 07:54:25.88	25.69	13.95	-41.7	-46.1	11.3	1.02e-03	0	59	0	342884352	54	6193
2026-01-15 07:54:26.89	25.49	13.92	-41.8	-46.2	11.2	9.33e-04	0	59	0	344981504	54	6265
2026-01-15 07:54:27.90	25.30	13.89	-41.7	-46.0	11.5	1.02e-03	0	59	0	346030080	54	6067
2026-01-15 07:54:28.91	25.10	13.86	-41.7	-46.0	11.4	9.05e-04	0	59	0	348127232	54	6086
2026-01-15 07:54:29.92	24.91	13.82	-41.8	-46.1	11.2	1.01e-03	0	59	0	350224384	54	6202
2026-01-15 07:54:30.93	24.71	13.79	-41.8	-46.1	11.3	1.07e-03	0	59	0	352321536	54	6186
2026-01-15 07:54:31.94	24.52	13.76	-41.6	-45.9	11.5	1.06e-03	0	59	0	354418688	54	6043
2026-01-15 07:54:32.95	24.32	13.73	-41.6	-45.9	11.6	7.22e-04	0	59	0	355467264	54	6005
2026-01-15 07:54:33.96	24.13	13.69	-41.5	-45.6	11.9	5.51e-04	0	59	0	357564416	54	5801
2026-01-15 07:54:34.97	23.94	13.66	-41.4	-45.4	12.1	3.31e-04	0	59	0	359661568	54	5696
2026-01-15 07:54:35.98	23.74	13.63	-41.4	-45.4	12.1	2.67e-04	0	59	0	361758720	54	5691
2026-01-15 07:54:36.99	23.55	13.59	-41.3	-45.2	12.2	3.01e-04	0	59	0	363855872	54	5570
2026-01-15 07:54:37.99	23.36	13.56	-41.5	-45.6	11.8	4.63e-04	0	59	0	365953024	54	5832
2026-01-15 07:54:39.00	23.17	13.52	-41.6	-45.8	11.6	6.53e-04	0	59	0	367001600	54	5989
2026-01-15 07:54:40.01	22.98	13.49	-41.7	-46.1	11.3	7.25e-04	0	59	0	369098752	54	6133
2026-01-15 07:54:41.02	22.79	13.45	-41.7	-46.1	11.3	9.94e-04	0	59	0	371195904	54	6183
2026-01-15 07:54:42.03	22.60	13.42	-41.8	-46.2	11.2	1.37e-03	0	59	0	373293056	54	6262
2026-01-15 07:54:43.04	22.41	13.38	-41.8	-46.3	11.1	1.76e-03	0	59	0	375390208	54	6288
2026-01-15 07:54:44.05	22.22	13.35	-41.8	-46.3	11.1	1.73e-03	0	59	0	376438784	54	6312
2026-01-15 07:54:45.06	22.03	13.31	-42.0	-46.9	10.5	2.67e-03	0	59	0	378535936	54	6790
2026-01-15 07:54:46.07	21.84	13.28	-42.0	-46.9	10.4	4.14e-03	0	59	0	380633088	54	6777
2026-01-15 07:54:47.08	21.65	13.24	-42.2	-47.3	10.1	5.03e-03	0	59	0	382730240	54	7061
2026-01-15 07:54:48.09	21.46	13.20	-42.2	-47.3	10.0	8.69e-03	0	59	0	384827392	55	6701
2026-01-15 07:54:49.09	21.28	13.17	-42.2	-47.5	9.8	1.01e-02	0	59	0	385875968	55	6853
2026-01-15 07:54:50.10	21.09	13.13	-42.3	-47.6	9.7	1.10e-02	0	59	0	387973120	55	6928
2026-01-15 07:54:51.11	20.91	13.09	-42.2	-47.4	9.9	8.99e-03	0	59	0	390070272	55	6749
2026-01-15 07:54:52.12	20.72	13.05	-42.2	-47.4	9.8	8.95e-03	0	59	0	392167424	55	6785
2026-01-15 07:54:53.13	20.54	13.02	-42.1	-47.2	10.1	9.61e-03	0	59	0	394264576	55	6641
2026-01-15 07:54:54.13	20.35	12.98	-42.2	-47.3	10.0	7.51e-03	0	59	0	395313152	55	6692
2026-01-15 07:54:55.14	20.17	12.94	-42.2	-47.3	10.0	7.85e-03	0	59	0	397410304	55	6694
2026-01-15 07:54:56.15	19.99	12.90	-42.2	-47.4	9.9	8.07e-03	0	59	0	399507456	55	6749
2026-01-15 07:54:57.16	19.80	12.86	-42.2	-47.4	9.9	7.82e-03	0	59	0	401604608	55	6752
2026-01-15 07:54:58.17	19.62	12.82	-42.1	-47.2	10.1	7.49e-03	0	59	0	403701760	55	6595
2026-01-15 07:54:59.18	19.44	12.78	-42.1	-47.2	10.0	8.79e-03	0	59	0	404750336	55	6637
2026-01-15 07:55:00.19	19.26	12.74	-42.1	-47.2	10.1	7.22e-03	0	59	0	406847488	55	6592
2026-01-15 07:55:01.20	19.08	12.70	-42.2	-47.4	9.8	8.12e-03	0	59	0	408944640	55	6780
2026-01-15 07:55:02.21	18.90	12.66	-42.1	-47.3	10.0	8.82e-03	0	59	0	411041792	55	6672
2026-01-15 07:55:03.21	18.72	12.62	-42.1	-47.1	10.1	7.75e-03	0	59	0	413138944	55	6569
2026-01-15 07:55:04.22	18.54	12.58	-42.0	-47.1	10.2	5.64e-03	0	59	0	414187520	55	6531
2026-01-15 07:55:05.23	18.36	12.54	-42.1	-47.3	9.9	8.27e-03	0	59	0	416284672	55	6703
2026-01-15 07:55:06.24	18.18	12.50	-42.0	-47.0	10.1	9.57e-03	0	59	0	418381824	55	6444
2026-01-15 07:55:07.25	18.00	12.46	-42.2	-47.5	9.7	9.77e-03	0	59	0	420478976	55	6829
2026-01-15 07:55:08.26	17.83	12.42	-42.2	-47.5	9.7	1.21e-02	0	59	0	422576128	55	6868
2026-01-15 07:55:09.26	17.65	12.38	-42.2	-47.5	9.8	1.13e-02	0	59	0	423624704	55	6803
2026-01-15 07:55:10.27	17.47	12.34	-42.0	-47.1	10.1	8.41e-03	0	59	0	425721856	55	6565
2026-01-15 07:55:11.28	17.30	12.30	-41.9	-46.9	10.3	6.23e-03	0	59	0	427819008	55	6376
2026-01-15 07:55:12.29	17.12	12.25	-41.9	-46.7	10.5	5.14e-03	0	59	0	429916160	55	6232
2026-01-15 07:55:13.30	16.95	12.21	-41.7	-46.4	10.7	3.03e-03	0	59	0	432013312	55	6048
2026-01-15 07:55:14.31	16.77	12.17	-41.7	-46.4	10.8	2.07e-03	0	59	0	433061888	55	6036
2026-01-15 07:55:15.32	16.60	12.13	-41.7	-46.3	10.9	2.23e-03	0	59	0	435159040	55	5940
2026-01-15 07:55:16.33	16.42	12.08	-41.7	-46.5	10.7	2.73e-03	0	59	0	437256192	55	6063
2026-01-15 07:55:17.34	16.25	12.04	-41.8	-46.6	10.5	5.19e-03	0	59	0	439353344	55	6189
2026-01-15 07:55:18.35	16.08	12.00	-42.0	-47.1	10.1	6.18e-03	0	59	0	441450496	55	6514
2026-01-15 07:55:19.36	15.91	11.95	-42.1	-47.5	9.6	8.41e-03	0	59	0	442499072	55	6813
2026-01-15 07:55:20.37	15.74	11.91	-42.1	-47.6	9.4	1.27e-02	0	59	0	444596224	55	6925
2026-01-15 07:55:21.37	15.57	11.87	-42.2	-48.0	9.0	2.21e-02	0	59	0	446693376	55	7210
2026-01-15 07:55:22.38	15.40	11.82	-42.1	-47.7	9.3	2.68e-02	0	59	0	448790528	55	6982
2026-01-15 07:55:23.39	15.23	11.78	-42.2	-47.8	9.1	2.19e-02	0	59	0	450887680	55	7110
2026-01-15 07:55:24.40	15.06	11.74	-42.1	-47.8	9.1	2.08e-02	0	59	0	451936256	55	7074
2026-01-15 07:55:25.41	14.89	11.69	-42.1	-47.8	9.1	2.02e-02	0	59	0	454033408	55	7073
2026-01-15 07:55:26.42	14.72	11.65	-42.0	-47.4	9.5	1.44e-02	0	59	0	456130560	55	6789
2026-01-15 07:55:27.43	14.55	11.60	-41.9	-47.2	9.7	1.27e-02	0	59	0	458227712	55	6595
2026-01-15 07:55:28.44	14.39	11.56	-41.9	-47.4	9.5	1.62e-02	0	59	0	460324864	55	6727
2026-01-15 07:55:29.44	14.22	11.51	-42.0	-47.4	9.4	1.61e-02	0	59	0	462422016	55	6797
2026-01-15 07:55:30.46	14.05	11.47	-42.1	-47.8	9.0	1.97e-02	0	59	0	463470592	55	7110
2026-01-15 07:55:31.46	13.89	11.42	-42.2	-48.4	8.4	3.16e-02	0	59	0	465567744	55	7548
2026-01-15 07:55:32.47	13.72	11.38	-42.3	-48.8	7.9	5.51e-02	0	59	0	467664896	55	7958
2026-01-15 07:55:33.48	13.56	11.33	-42.5	-49.6	7.2	1.17e-01	0	59	0	469762048	55	8715
2026-01-15 07:55:34.49	13.39	11.29	-42.6	-50.1	6.6	1.91e-01	0	59	0	471859200	55	9267
2026-01-15 07:55:35.50	13.23	11.24	-42.5	-50.3	6.4	2.45e-01	0	59	0	472907776	55	9435
2026-01-15 07:55:36.51	13.07	11.19	-42.6	-50.9	5.9	3.59e-01	0	59	0	475004928	55	10078
2026-01-15 07:55:37.52	12.91	11.15	-42.4	-50.5	6.1	3.46e-01	0	59	0	477102080	55	9710
2026-01-15 07:55:38.52	12.75	11.10	-42.4	-50.4	6.1	2.76e-01	0	59	0	479199232	55	9595
2026-01-15 07:55:39.53	12.58	11.06	-42.3	-50.4	6.1	3.30e-01	0	59	0	481296384	55	9539
2026-01-15 07:55:40.55	12.42	11.01	-42.1	-49.9	6.2	2.94e-01	0	59	0	482344960	55	9052
2026-01-15 07:55:41.56	12.26	10.96	-41.9	-49.6	6.5	2.82e-01	0	59	0	484442112	55	8669
2026-01-15 07:55:42.56	12.10	10.92	-41.9	-49.5	6.6	2.12e-01	0	59	0	486539264	55	8573
2026-01-15 07:55:43.58	11.94	10.87	-41.9	-50.0	6.2	2.43e-01	0	59	0	488636416	55	9091
2026-01-15 07:55:44.59	11.78	10.82	-41.7	-49.4	6.5	2.42e-01	0	59	0	490733568	55	8539
2026-01-15 07:55:45.60	11.62	10.77	-41.6	-49.1	6.7	2.12e-01	0	59	0	491782144	55	8222
2026-01-15 07:55:46.61	11.47	10.73	-41.5	-48.9	6.8	2.01e-01	0	59	0	493879296	55	8041
2026-01-15 07:55:47.62	11.31	10.68	-41.5	-49.5	6.1	2.46e-01	0	59	0	495976448	54	9124
2026-01-15 07:55:48.63	11.15	10.63	-41.5	-50.1	5.7	3.36e-01	0	59	0	498073600	54	9725
2026-01-15 07:55:49.64	11.00	10.58	-41.4	-50.8	5.1	5.58e-01	0	59	0	500170752	54	10613
2026-01-15 07:55:50.65	10.84	10.54	-41.4	-51.8	4.5	8.37e-01	0	59	0	501219328	54	11904
2026-01-15 07:55:51.66	10.69	10.49	-41.4	-52.9	4.1	1.32e+00	0	59	0	502267904	54	13541
2026-01-15 07:55:52.67	10.53	10.44	-41.3	-54.0	3.9	1.48e+00	0	59	104	502267904	54	15248
2026-01-15 07:55:53.67	10.38	10.39	-41.2	-54.7	3.8	1.49e+00	0	59	104	502267904	54	16565
2026-01-15 07:55:54.68	10.22	10.35	-41.1	-55.1	3.8	1.49e+00	0	59	104	502267904	54	17317
2026-01-15 07:55:55.69	10.07	10.30	-41.0	-55.3	3.8	1.49e+00	0	59	104	502267904	54	17845
2026-01-15 07:55:56.71	9.92	10.25	-40.9	-55.4	3.8	1.49e+00	0	59	104	502267904	53	19042
2026-01-15 07:55:57.71	9.77	10.20	-40.9	-55.5	3.8	1.49e+00	0	59	104	502267904	53	19237
2026-01-15 07:55:58.72	9.61	10.15	-40.9	-55.5	3.8	1.49e+00	0	59	104	502267904	53	19318
2026-01-15 07:55:59.73	9.46	10.10	-41.2	-55.7	3.8	1.49e+00	0	59	104	502267904	53	19706
2026-01-15 07:56:00.74	9.31	10.05	-40.7	-55.2	3.8	1.49e+00	0	59	104	502267904	53	18631
2026-01-15 07:56:01.75	9.16	10.01	-40.3	-54.9	3.8	1.49e+00	0	59	104	502267904	52	18950
2026-01-15 07:56:02.76	9.01	9.96	-40.6	-55.3	3.8	1.49e+00	0	59	104	502267904	52	19873
2026-01-15 07:56:03.77	8.86	9.91	-40.5	-55.2	3.8	1.49e+00	0	59	104	502267904	52	19707
2026-01-15 07:56:04.78	8.72	9.86	-40.4	-55.0	3.8	1.49e+00	0	59	104	502267904	52	19353
2026-01-15 07:56:05.79	8.57	9.81	-40.3	-54.9	3.8	1.49e+00	0	59	104	502267904	52	19053
2026-01-15 07:56:06.80	8.42	9.76	-40.1	-54.7	3.8	1.49e+00	0	59	104	502267904	52	18681
2026-01-15 07:56:07.80	8.27	9.71	-40.2	-54.8	3.8	1.49e+00	0	59	104	502267904	52	18874
2026-01-15 07:56:08.81	8.13	9.66	-40.6	-55.3	3.8	1.49e+00	0	59	104	502267904	52	20045
2026-01-15 07:56:09.82	7.98	9.61	-40.0	-54.6	3.8	1.49e+00	0	59	104	502267904	52	18504
2026-01-15 07:56:10.83	7.84	9.56	-40.3	-54.9	3.8	1.49e+00	0	59	104	502267904	52	19116
2026-01-15 07:56:11.84	7.69	9.51	-40.1	-54.7	3.8	1.49e+00	0	59	104	502267904	52	18682
2026-01-15 07:56:12.85	7.55	9.46	-40.0	-54.6	3.8	1.49e+00	0	59	104	502267904	52	18465
2026-01-15 07:56:13.86	7.40	9.41	-40.0	-54.6	3.8	1.49e+00	0	59	104	502267904	52	18411
2026-01-15 07:56:14.87	7.26	9.36	-40.0	-54.6	3.8	1.49e+00	0	59	104	502267904	51	19590
2026-01-15 07:56:15.88	7.12	9.31	-40.0	-54.7	3.8	1.49e+00	0	59	104	502267904	51	19628
2026-01-15 07:56:16.89	6.97	9.26	-40.5	-55.1	3.8	1.49e+00	0	59	104	502267904	51	20769
2026-01-15 07:56:17.90	6.83	9.21	-40.0	-54.7	3.8	1.49e+00	0	59	104	502267904	51	19646
2026-01-15 07:56:18.91	6.69	9.16	-40.1	-54.7	3.8	1.49e+00	0	59	104	502267904	51	19717
2026-01-15 07:56:19.91	6.55	9.11	-40.0	-54.7	3.8	1.49e+00	0	59	104	502267904	51	19636
2026-01-15 07:56:20.92	6.41	9.06	-40.0	-54.6	3.8	1.49e+00	0	59	104	502267904	51	19565
2026-01-15 07:56:21.93	6.27	9.01	-40.0	-54.6	3.8	1.49e+00	0	59	104	502267904	51	19513
2026-01-15 07:56:22.94	6.13	8.96	-40.0	-54.6	3.8	1.49e+00	0	59	104	502267904	51	19477
2026-01-15 07:56:23.96	5.99	8.91	-40.0	-54.6	3.8	1.49e+00	0	59	104	502267904	51	19522
2026-01-15 07:56:24.96	5.85	8.86	-40.3	-55.0	3.8	1.49e+00	0	59	104	502267904	51	20314
2026-01-15 07:56:25.97	5.72	8.81	-40.0	-54.6	3.8	1.49e+00	0	59	104	502267904	51	19614
2026-01-15 07:56:26.98	5.58	8.76	-40.0	-54.7	3.8	1.49e+00	0	59	104	502267904	51	19645
2026-01-15 07:56:27.99	5.44	8.71	-40.0	-54.6	3.8	1.49e+00	0	59	104	502267904	51	19541
2026-01-15 07:56:29.00	5.31	8.66	-40.0	-54.7	3.8	1.49e+00	0	59	104	502267904	51	19634
2026-01-15 07:56:30.01	5.17	8.61	-40.1	-54.8	3.8	1.49e+00	0	59	104	502267904	51	20029
2026-01-15 07:56:31.02	5.03	8.56	-40.0	-54.6	3.8	1.49e+00	0	59	104	502267904	51	19553
2026-01-15 07:56:32.03	4.90	8.51	-40.1	-54.8	3.8	1.49e+00	0	59	104	502267904	51	19935
2026-01-15 07:56:33.04	4.76	8.45	-40.0	-54.6	3.8	1.49e+00	0	59	104	502267904	51	19496
2026-01-15 07:56:34.05	4.63	8.40	-40.0	-54.7	3.8	1.49e+00	0	59	104	502267904	51	19628
2026-01-15 07:56:35.05	4.50	8.35	-40.0	-54.7	3.8	1.49e+00	0	59	104	502267904	51	19615
2026-01-15 07:56:36.06	4.36	8.30	-39.9	-54.6	3.8	1.49e+00	0	59	104	502267904	51	19519
2026-01-15 07:56:37.07	4.23	8.25	-40.0	-54.6	3.8	1.49e+00	0	59	104	502267904	51	19489
2026-01-15 07:56:38.08	4.10	8.20	-40.1	-54.8	3.8	1.49e+00	0	59	104	502267904	51	19864
2026-01-15 07:56:39.09	3.97	8.15	-39.9	-54.6	3.8	1.49e+00	0	59	104	502267904	51	19525
2026-01-15 07:56:40.10	3.84	8.10	-40.0	-54.7	3.8	1.49e+00	0	59	104	502267904	51	19824
2026-01-15 07:56:41.11	3.71	8.05	-39.9	-54.6	3.8	1.49e+00	0	59	104	502267904	51	19530
2026-01-15 07:56:42.12	3.58	7.99	-39.9	-54.6	3.8	1.49e+00	0	59	104	502267904	51	19494
2026-01-15 07:56:43.13	3.45	7.94	-40.4	-55.1	3.8	1.49e+00	0	59	104	502267904	51	20756
2026-01-15 07:56:44.14	3.32	7.89	-44.2	-58.6	3.8	1.49e+00	0	59	104	502267904	58	20570
2026-01-15 07:56:45.15	3.19	7.84	-44.9	-59.5	3.8	1.49e+00	0	59	104	502267904	60	20528
2026-01-15 07:56:46.16	3.06	7.79	-45.1	-59.8	3.8	1.49e+00	0	59	104	502267904	60	21042
2026-01-15 07:56:47.17	2.93	7.74	-45.2	-59.9	3.8	1.49e+00	0	59	104	502267904	61	20123
2026-01-15 07:56:48.18	2.80	7.68	-45.3	-60.0	3.8	1.49e+00	0	59	104	502267904	61	20378
2026-01-15 07:56:49.19	2.68	7.63	-45.4	-60.0	3.8	1.49e+00	0	59	104	502267904	61	20471
2026-01-15 07:56:50.20	2.55	7.58	-45.4	-60.1	3.8	1.49e+00	0	59	104	502267904	61	20596
2026-01-15 07:56:51.21	2.42	7.53	-45.5	-60.1	3.8	1.49e+00	0	59	104	502267904	61	20661
2026-01-15 07:56:52.22	2.30	7.48	-45.5	-60.0	3.8	1.49e+00	0	59	104	502267904	61	20516
2026-01-15 07:56:53.23	2.17	7.43	-45.4	-60.0	3.8	1.49e+00	0	59	104	502267904	61	20318
2026-01-15 07:56:54.24	2.05	7.37	-45.4	-59.9	3.8	1.49e+00	0	59	104	502267904	61	20291
2026-01-15 07:56:55.25	1.93	7.32	-45.4	-59.9	3.8	1.49e+00	0	59	104	502267904	61	20084
2026-01-15 07:56:56.26	1.80	7.27	-45.4	-59.8	3.8	1.49e+00	0	59	104	502267904	61	20013
2026-01-15 07:56:57.27	1.68	7.22	-45.3	-59.8	3.8	1.49e+00	0	59	104	502267904	61	19936
2026-01-15 07:56:58.28	1.56	7.17	-45.3	-59.7	3.8	1.49e+00	0	59	104	502267904	61	19795
2026-01-15 07:56:59.29	1.43	7.12	-45.3	-59.8	3.8	1.49e+00	0	59	104	502267904	61	19893
2026-01-15 07:57:00.30	1.31	7.06	-45.3	-59.7	3.8	1.49e+00	0	59	104	502267904	61	19784
2026-01-15 07:57:01.31	1.19	7.01	-45.3	-59.7	3.8	1.49e+00	0	59	104	502267904	61	19831
2026-01-15 07:57:02.32	1.07	6.96	-45.2	-59.7	3.8	1.49e+00	0	59	104	502267904	61	19795
2026-01-15 07:57:03.32	0.95	6.91	-45.0	-59.8	3.8	1.49e+00	0	59	104	502267904	61	19876
2026-01-15 07:57:04.33	0.83	6.86	-45.2	-59.7	3.8	1.49e+00	0	59	104	502267904	61	19783
2026-01-15 07:57:05.34	0.71	6.80	-45.2	-59.7	3.8	1.49e+00	0	59	104	502267904	61	19758
2026-01-15 07:57:06.35	0.59	6.75	-45.2	-59.7	3.8	1.49e+00	0	59	104	502267904	61	19813
2026-01-15 07:57:07.36	0.47	6.70	-45.2	-59.7	3.8	1.49e+00	0	59	104	502267904	61	19772
2026-01-15 07:57:08.38	0.35	6.65	-45.2	-59.7	3.8	1.49e+00	0	59	104	502267904	61	19776
2026-01-15 07:57:09.39	0.23	6.60	-45.0	-59.7	3.8	1.49e+00	0	59	104	502267904	61	19731
2026-01-15 07:57:10.40	0.12	6.54	-45.2	-59.7	3.8	1.49e+00	0	59	104	502267904	61	19825
2026-01-15 07:57:11.41	360.00	6.49	-45.2	-59.7	3.8	1.49e+00	0	59	104	502267904	61	19759
2026-01-15 07:57:12.42	359.88	6.44	-45.2	-59.7	3.8	1.49e+00	0	59	104	502267904	61	19758
2026-01-15 07:57:13.43	359.77	6.39	-45.2	-59.7	3.8	1.49e+00	0	59	104	502267904	61	19792
2026-01-15 07:57:14.44	359.65	6.34	-45.1	-59.7	3.8	1.49e+00	0	59	104	502267904	61	19748
2026-01-15 07:57:15.45	359.53	6.28	-44.6	-59.7	3.8	1.49e+00	0	59	104	502267904	61	19711
2026-01-15 07:57:16.46	359.42	6.23	-45.2	-59.7	3.8	1.49e+00	0	59	104	502267904	61	19672
2026-01-15 07:57:17.47	359.30	6.18	-45.2	-59.7	3.8	1.49e+00	0	59	104	502267904	61	19719
2026-01-15 07:57:18.48	359.19	6.13	-45.2	-59.7	3.8	1.49e+00	0	59	104	502267904	61	19744
2026-01-15 07:57:19.49	359.08	6.08	-45.2	-59.7	3.8	1.49e+00	0	59	104	502267904	61	19718
2026-01-15 07:57:20.50	358.96	6.02	-45.2	-59.7	3.8	1.49e+00	0	59	104	502267904	61	19732
2026-01-15 07:57:21.51	358.85	5.97	-45.2	-59.7	3.8	1.49e+00	0	59	104	502267904	61	19772
2026-01-15 07:57:22.52	358.74	5.92	-45.2	-59.7	3.8	1.49e+00	0	59	104	502267904	61	19709
2026-01-15 07:57:23.53	358.63	5.87	-45.2	-59.7	3.8	1.49e+00	0	59	104	502267904	61	19753
2026-01-15 07:57:24.54	358.51	5.82	-45.2	-59.7	3.8	1.49e+00	0	59	104	502267904	61	19691
2026-01-15 07:57:25.55	358.40	5.76	-45.2	-59.7	3.8	1.49e+00	0	59	104	502267904	61	19736
2026-01-15 07:57:26.56	358.29	5.71	-45.2	-59.7	3.8	1.49e+00	0	59	104	502267904	61	19703
2026-01-15 07:57:27.57	358.18	5.66	-45.2	-59.7	3.8	1.49e+00	0	59	104	502267904	61	19696
2026-01-15 07:57:28.58	358.07	5.61	-45.2	-59.7	3.8	1.49e+00	0	59	104	502267904	61	19810
2026-01-15 07:57:29.59	357.96	5.56	-45.2	-59.7	3.8	1.49e+00	0	59	104	502267904	61	19723
2026-01-15 07:57:30.60	357.85	5.50	-45.2	-59.7	3.8	1.49e+00	0	59	104	502267904	61	19773
2026-01-15 07:57:31.61	357.74	5.45	-45.2	-59.7	3.8	1.49e+00	0	59	104	502267904	61	19721
2026-01-15 07:57:32.62	357.64	5.40	-45.2	-59.7	3.8	1.49e+00	0	59	104	502267904	61	19681
2026-01-15 07:57:33.63	357.53	5.35	-45.2	-59.7	3.8	1.49e+00	0	59	104	502267904	60	20901
2026-01-15 07:57:34.64	357.42	5.30	-45.2	-59.7	3.8	1.49e+00	0	59	104	502267904	61	19795
2026-01-15 07:57:35.65	357.31	5.24	-45.2	-59.7	3.8	1.49e+00	0	59	104	502267904	61	19763
2026-01-15 07:57:36.66	357.21	5.19	-45.2	-59.7	3.8	1.49e+00	0	59	104	502267904	61	19724
2026-01-15 07:57:37.67	357.10	5.14	-45.2	-59.7	3.8	1.49e+00	0	59	104	502267904	61	19658
2026-01-15 07:57:38.68	356.99	5.09	-45.2	-59.7	3.8	1.49e+00	0	59	104	502267904	61	19735
2026-01-15 07:57:39.69	356.89	5.04	-45.2	-59.7	3.8	1.49e+00	0	59	104	502267904	61	19737
2026-01-15 07:57:40.70	356.78	4.98	-45.2	-59.7	3.8	1.49e+00	0	59	104	502267904	61	19801
2026-01-15 07:57:41.71	356.68	4.93	-45.2	-59.7	3.8	1.49e+00	0	59	104	502267904	60	20858
2026-01-15 07:57:42.72	356.57	4.88	-45.2	-59.7	3.8	1.49e+00	0	59	104	502267904	60	20902
2026-01-15 07:57:43.73	356.47	4.83	-45.2	-59.7	3.8	1.49e+00	0	59	104	502267904	60	20943
2026-01-15 07:57:44.73	356.37	4.78	-45.2	-59.7	3.8	1.49e+00	0	59	104	502267904	60	20899
2026-01-15 07:57:45.74	356.26	4.72	-45.2	-59.7	3.8	1.49e+00	0	59	104	502267904	60	20890
2026-01-15 07:57:46.75	356.16	4.67	-45.2	-59.7	3.8	1.49e+00	0	59	104	502267904	60	20927
2026-01-15 07:57:47.76	356.06	4.62	-45.2	-59.7	3.8	1.49e+00	0	59	104	502267904	60	20939
2026-01-15 07:57:48.77	355.96	4.57	-45.1	-59.7	3.8	1.49e+00	0	59	104	502267904	61	19733
2026-01-15 07:57:49.78	355.85	4.52	-45.2	-59.6	3.8	1.49e+00	0	59	104	502267904	61	19593
2026-01-15 07:57:50.79	355.75	4.47	-45.2	-59.7	3.8	1.49e+00	0	59	104	502267904	61	19647
2026-01-15 07:57:51.80	355.65	4.41	-45.2	-59.7	3.8	1.49e+00	0	59	104	502267904	61	19634
2026-01-15 07:57:52.81	355.55	4.36	-45.2	-59.7	3.8	1.49e+00	0	59	104	502267904	61	19652
2026-01-15 07:57:53.81	355.45	4.31	-45.2	-59.7	3.8	1.49e+00	0	59	104	502267904	61	19730
2026-01-15 07:57:54.82	355.35	4.26	-45.1	-59.7	3.7	1.49e+00	0	59	104	502267904	60	20938
2026-01-15 07:57:55.83	355.25	4.21	-45.2	-59.7	3.8	1.49e+00	0	59	104	502267904	60	20855
2026-01-15 07:57:56.85	355.15	4.15	-45.2	-59.7	3.8	1.49e+00	0	59	104	502267904	60	20902
2026-01-15 07:57:57.85	355.05	4.10	-45.2	-59.7	3.8	1.49e+00	0	59	104	502267904	60	20909
2026-01-15 07:57:58.86	354.95	4.05	-45.2	-59.7	3.8	1.49e+00	0	59	104	502267904	60	20863
2026-01-15 07:57:59.88	354.86	4.00	-45.2	-59.7	3.8	1.49e+00	0	59	104	502267904	60	20842
2026-01-15 07:58:00.89	354.76	3.95	-45.2	-59.7	3.8	1.49e+00	0	59	104	502267904	60	20799
2026-01-15 07:58:01.90	354.66	3.90	-45.2	-59.7	3.8	1.49e+00	0	59	104	502267904	60	20847
2026-01-15 07:58:02.91	354.56	3.84	-45.2	-59.7	3.8	1.49e+00	0	59	104	502267904	60	20848
2026-01-15 07:58:03.92	354.47	3.79	-45.2	-59.7	3.8	1.49e+00	0	59	104	502267904	60	20881
2026-01-15 07:58:04.93	354.37	3.74	-45.2	-59.7	3.8	1.49e+00	0	59	104	502267904	60	20851
2026-01-15 07:58:05.94	354.27	3.69	-45.2	-59.7	3.8	1.49e+00	0	59	104	502267904	60	20807
2026-01-15 07:58:06.95	354.18	3.64	-45.1	-59.7	3.8	1.49e+00	0	59	104	502267904	60	20890
2026-01-15 07:58:07.96	354.08	3.59	-45.2	-59.7	3.8	1.49e+00	0	59	104	502267904	60	20875
2026-01-15 07:58:08.97	353.99	3.54	-45.2	-59.7	3.8	1.49e+00	0	59	104	502267904	60	20804
2026-01-15 07:58:09.98	353.89	3.48	-45.2	-59.7	3.8	1.49e+00	0	59	104	502267904	60	20849
2026-01-15 07:58:10.99	353.80	3.43	-45.2	-59.7	3.8	1.49e+00	0	59	104	502267904	60	20813
2026-01-15 07:58:12.00	353.71	3.38	-45.2	-59.7	3.8	1.49e+00	0	59	104	502267904	60	20896
2026-01-15 07:58:13.01	353.61	3.33	-45.2	-59.7	3.8	1.49e+00	0	59	104	502267904	60	20899
2026-01-15 07:58:14.02	353.52	3.28	-45.2	-59.6	3.8	1.49e+00	0	59	104	502267904	60	20751
2026-01-15 07:58:15.03	353.43	3.23	-45.2	-59.7	3.8	1.49e+00	0	59	104	502267904	60	20861
2026-01-15 07:58:16.04	353.33	3.18	-45.2	-59.7	3.8	1.49e+00	0	59	104	502267904	60	20849
2026-01-15 07:58:17.05	353.24	3.12	-45.2	-59.7	3.8	1.49e+00	0	59	104	502267904	60	20798
2026-01-15 07:58:18.06	353.15	3.07	-45.2	-59.7	3.8	1.49e+00	0	59	104	502267904	60	20782
2026-01-15 07:58:19.07	353.06	3.02	-45.2	-59.7	3.8	1.49e+00	0	59	104	502267904	60	20781
2026-01-15 07:58:20.09	352.97	2.97	-45.2	-59.7	3.8	1.49e+00	0	59	104	502267904	60	20881
2026-01-15 07:58:21.10	352.87	2.92	-45.1	-59.7	3.8	1.49e+00	0	59	104	502267904	60	20845
2026-01-15 07:58:22.11	352.78	2.87	-45.2	-59.7	3.8	1.49e+00	0	59	104	502267904	60	20821
2026-01-15 07:58:23.12	352.69	2.82	-45.2	-59.7	3.8	1.49e+00	0	59	104	502267904	60	20818
2026-01-15 07:58:24.12	352.60	2.77	-45.2	-59.7	3.8	1.49e+00	0	59	104	502267904	60	20869
2026-01-15 07:58:25.14	352.51	2.71	-45.2	-59.7	3.8	1.49e+00	0	59	104	502267904	60	20789
2026-01-15 07:58:26.15	352.42	2.66	-45.2	-59.7	3.8	1.49e+00	0	59	104	502267904	60	20894
2026-01-15 07:58:27.16	352.34	2.61	-45.2	-59.7	3.8	1.49e+00	0	59	104	502267904	60	20817
2026-01-15 07:58:28.17	352.25	2.56	-45.2	-59.7	3.8	1.49e+00	0	59	104	502267904	60	20870
2026-01-15 07:58:29.18	352.16	2.51	-45.2	-59.7	3.8	1.49e+00	0	59	104	502267904	60	20822
2026-01-15 07:58:30.19	352.07	2.46	-45.2	-59.7	3.8	1.49e+00	0	60	104	502267904	60	20889
2026-01-15 07:58:31.20	351.98	2.41	-45.2	-59.7	3.8	1.49e+00	0	59	104	502267904	60	20810
2026-01-15 07:58:32.21	351.90	2.36	-45.2	-59.7	3.8	1.49e+00	0	59	104	502267904	60	20805
2026-01-15 07:58:33.22	351.81	2.31	-45.2	-59.7	3.8	1.49e+00	0	59	104	502267904	60	20824
2026-01-15 07:58:34.23	351.72	2.26	-45.2	-59.7	3.8	1.49e+00	0	59	104	502267904	60	20789
2026-01-15 07:58:35.24	351.64	2.21	-45.2	-59.7	3.8	1.49e+00	0	59	104	502267904	60	20860
2026-01-15 07:58:36.25	351.55	2.15	-45.2	-59.6	3.8	1.49e+00	0	59	104	502267904	60	20772
2026-01-15 07:58:37.26	351.46	2.10	-45.2	-59.7	3.8	1.49e+00	0	59	104	502267904	60	20786
2026-01-15 07:58:38.27	351.38	2.05	-45.2	-59.7	3.8	1.49e+00	0	59	104	502267904	60	20839
2026-01-15 07:58:39.28	351.29	2.00	-45.2	-59.7	3.8	1.49e+00	0	59	104	502267904	60	20860
2026-01-15 07:58:40.29	351.21	1.95	-45.2	-59.7	3.8	1.49e+00	0	59	104	502267904	60	20798
2026-01-15 07:58:41.30	351.12	1.90	-45.2	-59.7	3.8	1.49e+00	0	59	104	502267904	60	20825

#Closed at: 2026-01-15 07:58:41
#Recorded file [502 MB]: D:/lorett/data/31039_260115_104723.dat