passes_logs/2026/01/15/R2.0S_Moscow/R2.0S_Moscow__20260115_092509_SUOMI_NPP_rec.log

#Pass ID: 20260115_092509_SUOMI NPP
#Satellite: SUOMI NPP
#Configuration: NPP
#almurnet v.1.7.20251203
#Start time: 2026-01-15 09:25:09

#Version: 2.2.20231116
#Station: R2.0S_Moscow
#Location: 37.707566 lon 55.798166 lat
#TLE: 1 37849U 11061A   26014.11719687  .00000048  00000+0  43625-4 0  9998
#TLE: 2 37849  98.7809 316.1734 0002474  65.2440 294.8994 14.19525043736585

#Time	Az	El	Level	Level2	SNR	BER	BlckErr	Temp	State	Recorded	gain1	gain2
2026-01-15 09:25:09.80	143.85	2.02	-43.7	-58.1	3.8	1.49e+00	0	50	0	0	57	20758
2026-01-15 09:25:10.80	143.83	2.08	-43.7	-58.1	3.8	1.49e+00	0	50	104	0	57	20767
2026-01-15 09:25:11.81	143.81	2.15	-43.7	-58.1	3.8	1.49e+00	0	51	104	0	57	20684
2026-01-15 09:25:12.82	143.78	2.21	-43.5	-58.1	3.8	1.49e+00	0	51	104	0	57	20601
2026-01-15 09:25:13.83	143.76	2.28	-43.4	-58.1	3.8	1.49e+00	0	51	104	0	57	20672
2026-01-15 09:25:14.85	143.74	2.34	-43.4	-58.1	3.9	1.49e+00	0	51	104	0	57	20584
2026-01-15 09:25:15.86	143.71	2.41	-43.6	-58.1	3.8	1.49e+00	0	51	104	0	57	20701
2026-01-15 09:25:16.87	143.69	2.47	-43.3	-58.1	3.7	1.49e+00	0	51	104	0	57	20616
2026-01-15 09:25:17.88	143.67	2.54	-43.4	-57.7	3.8	1.49e+00	0	51	104	0	56	20924
2026-01-15 09:25:18.89	143.64	2.60	-43.6	-58.1	3.8	1.49e+00	0	51	104	0	57	20655
2026-01-15 09:25:19.90	143.62	2.67	-43.7	-58.1	3.8	1.49e+00	0	51	104	0	57	20651
2026-01-15 09:25:20.91	143.59	2.73	-43.2	-58.0	3.8	1.49e+00	0	52	104	0	57	20506
2026-01-15 09:25:21.92	143.57	2.80	-43.1	-58.0	3.8	1.49e+00	0	51	104	0	57	20487
2026-01-15 09:25:22.93	143.54	2.87	-43.2	-58.0	3.8	1.49e+00	0	52	104	0	57	20392
2026-01-15 09:25:23.94	143.52	2.93	-43.4	-58.0	3.8	1.49e+00	0	51	104	0	57	20393
2026-01-15 09:25:24.95	143.49	3.00	-43.5	-58.0	3.8	1.49e+00	0	52	104	0	57	20493
2026-01-15 09:25:25.96	143.47	3.07	-43.3	-58.0	3.8	1.49e+00	0	52	104	0	57	20333
2026-01-15 09:25:26.96	143.45	3.13	-42.3	-57.7	3.9	1.49e+00	0	52	104	0	56	20795
2026-01-15 09:25:27.97	143.42	3.20	-43.6	-58.1	3.8	1.49e+00	0	52	104	0	57	20678
2026-01-15 09:25:28.98	143.39	3.26	-43.5	-58.0	3.8	1.49e+00	0	52	104	0	57	20489
2026-01-15 09:25:29.99	143.37	3.33	-43.4	-58.0	3.8	1.49e+00	0	52	104	0	57	20393
2026-01-15 09:25:31.00	143.34	3.40	-43.1	-57.9	3.9	1.49e+00	0	52	104	0	57	20188
2026-01-15 09:25:32.01	143.32	3.47	-43.1	-57.9	3.8	1.49e+00	0	52	104	0	57	20166
2026-01-15 09:25:33.02	143.29	3.53	-42.1	-58.1	3.8	1.49e+00	0	52	104	0	56	21777
2026-01-15 09:25:34.03	143.27	3.60	-43.4	-57.9	3.8	1.49e+00	0	52	104	0	57	20287
2026-01-15 09:25:35.04	143.24	3.67	-43.3	-57.9	3.8	1.49e+00	0	53	104	0	57	20225
2026-01-15 09:25:36.05	143.21	3.74	-43.4	-57.9	3.8	1.49e+00	0	52	104	0	57	20297
2026-01-15 09:25:37.06	143.19	3.81	-43.3	-57.9	3.8	1.49e+00	0	53	104	0	57	20284
2026-01-15 09:25:38.07	143.16	3.87	-43.4	-58.1	3.8	1.49e+00	0	53	104	0	57	20606
2026-01-15 09:25:39.08	143.13	3.94	-43.6	-58.1	3.8	1.49e+00	0	53	104	0	57	20546
2026-01-15 09:25:40.09	143.11	4.01	-42.8	-57.9	3.8	1.49e+00	0	53	104	0	57	20187
2026-01-15 09:25:41.10	143.08	4.08	-43.4	-58.0	3.8	1.49e+00	0	53	104	0	57	20477
2026-01-15 09:25:42.11	143.05	4.15	-42.8	-57.9	3.8	1.49e+00	0	53	104	0	57	20090
2026-01-15 09:25:43.12	143.03	4.22	-42.9	-57.9	3.8	1.49e+00	0	53	104	0	57	20188
2026-01-15 09:25:44.13	143.00	4.29	-43.6	-58.1	3.8	1.49e+00	0	53	104	0	57	20571
2026-01-15 09:25:45.14	142.97	4.36	-43.2	-58.0	3.8	1.49e+00	0	53	104	0	57	20390
2026-01-15 09:25:46.15	142.94	4.43	-43.3	-58.0	3.8	1.49e+00	0	53	104	0	57	20529
2026-01-15 09:25:47.16	142.92	4.50	-43.0	-58.0	3.8	1.49e+00	0	53	104	0	57	20382
2026-01-15 09:25:48.17	142.89	4.57	-43.2	-57.9	3.8	1.49e+00	0	53	104	0	56	21304
2026-01-15 09:25:49.17	142.86	4.64	-43.4	-58.0	3.8	1.49e+00	0	53	104	0	57	20416
2026-01-15 09:25:50.18	142.83	4.71	-43.6	-58.1	3.8	1.49e+00	0	53	104	0	57	20606
2026-01-15 09:25:51.19	142.81	4.78	-43.5	-58.3	3.8	1.49e+00	0	53	104	0	57	21192
2026-01-15 09:25:52.20	142.78	4.85	-43.1	-58.0	3.8	1.49e+00	0	53	104	0	57	20320
2026-01-15 09:25:53.21	142.75	4.92	-43.3	-57.9	3.8	1.49e+00	0	53	104	0	57	20294
2026-01-15 09:25:54.22	142.72	4.99	-42.7	-57.9	3.9	1.49e+00	0	54	104	0	57	20081
2026-01-15 09:25:55.23	142.69	5.06	-42.9	-57.8	3.8	1.49e+00	0	54	104	0	57	19972
2026-01-15 09:25:56.24	142.66	5.13	-43.7	-58.1	3.8	1.49e+00	0	54	104	0	57	20539
2026-01-15 09:25:57.25	142.63	5.20	-42.7	-57.8	3.8	1.49e+00	0	54	104	0	57	20010
2026-01-15 09:25:58.26	142.60	5.28	-43.3	-57.8	3.8	1.49e+00	0	54	104	0	57	20024
2026-01-15 09:25:59.27	142.57	5.35	-43.6	-58.0	3.8	1.49e+00	0	54	104	0	57	20444
2026-01-15 09:26:00.27	142.54	5.42	-43.5	-57.9	3.8	1.49e+00	0	54	104	0	57	20296
2026-01-15 09:26:01.28	142.51	5.49	-43.4	-57.9	3.8	1.49e+00	0	54	104	0	57	20227
2026-01-15 09:26:02.29	142.48	5.57	-43.1	-57.8	3.8	1.49e+00	0	54	104	0	57	19958
2026-01-15 09:26:03.30	142.45	5.64	-43.5	-57.6	3.8	1.49e+00	0	54	104	0	57	19512
2026-01-15 09:26:04.31	142.42	5.71	-43.5	-57.4	3.8	1.49e+00	0	54	104	0	57	19062
2026-01-15 09:26:05.32	142.39	5.78	-43.0	-57.0	3.8	1.49e+00	0	54	104	0	57	18171
2026-01-15 09:26:06.33	142.36	5.86	-43.3	-56.8	3.8	1.49e+00	0	54	104	0	57	17758
2026-01-15 09:26:07.34	142.33	5.93	-42.8	-56.6	3.8	1.49e+00	0	54	104	0	57	17315
2026-01-15 09:26:08.35	142.30	6.00	-43.5	-56.1	3.8	1.49e+00	0	54	104	0	57	16482
2026-01-15 09:26:09.36	142.27	6.08	-43.4	-55.9	3.8	1.49e+00	0	55	104	0	57	16084
2026-01-15 09:26:10.37	142.24	6.15	-43.3	-55.5	3.8	1.48e+00	0	54	104	0	57	15255
2026-01-15 09:26:11.38	142.21	6.23	-43.2	-55.1	4.0	1.48e+00	0	55	104	0	57	14632
2026-01-15 09:26:12.39	142.18	6.30	-42.9	-54.6	4.1	1.45e+00	0	54	0	0	57	13876
2026-01-15 09:26:13.40	142.14	6.38	-42.1	-54.0	4.2	1.39e+00	0	54	0	0	56	13602
2026-01-15 09:26:14.41	142.11	6.45	-43.3	-54.0	4.3	1.35e+00	0	55	0	0	57	12958
2026-01-15 09:26:15.41	142.08	6.53	-43.3	-54.0	4.4	1.31e+00	0	55	0	1048576	57	12845
2026-01-15 09:26:16.42	142.05	6.60	-43.3	-54.3	4.2	1.34e+00	0	55	0	2097152	57	13327
2026-01-15 09:26:17.43	142.01	6.68	-43.2	-54.3	4.2	1.37e+00	0	55	0	2097152	57	13352
2026-01-15 09:26:18.44	141.98	6.75	-43.0	-54.8	4.0	1.40e+00	0	55	0	2097152	57	14163
2026-01-15 09:26:19.45	141.95	6.83	-43.1	-55.6	3.8	1.48e+00	0	55	104	2097152	57	15462
2026-01-15 09:26:20.46	141.92	6.91	-42.9	-56.2	3.8	1.49e+00	0	55	104	2097152	57	16688
2026-01-15 09:26:21.47	141.88	6.98	-42.6	-56.9	3.9	1.49e+00	0	55	104	2097152	56	18998
2026-01-15 09:26:22.48	141.85	7.06	-42.4	-57.3	3.8	1.49e+00	0	55	104	2097152	56	20011
2026-01-15 09:26:23.49	141.82	7.14	-43.5	-57.9	3.8	1.49e+00	0	55	104	2097152	57	20127
2026-01-15 09:26:24.50	141.78	7.21	-43.1	-57.6	3.8	1.49e+00	0	55	104	2097152	57	19531
2026-01-15 09:26:25.51	141.75	7.29	-43.4	-57.3	3.9	1.49e+00	0	55	104	2097152	57	18792
2026-01-15 09:26:26.52	141.71	7.37	-43.0	-56.4	3.8	1.49e+00	0	55	104	2097152	57	16917
2026-01-15 09:26:27.53	141.68	7.45	-43.3	-55.1	3.9	1.49e+00	0	55	104	2097152	57	14584
2026-01-15 09:26:28.54	141.64	7.52	-42.6	-53.6	4.4	1.41e+00	0	55	0	2097152	55	13792
2026-01-15 09:26:29.55	141.61	7.60	-42.5	-52.7	4.8	8.65e-01	0	55	0	3145728	56	11689
2026-01-15 09:26:30.56	141.57	7.68	-42.8	-51.3	5.8	5.66e-01	0	55	0	5242880	56	9961
2026-01-15 09:26:31.57	141.54	7.76	-42.2	-50.4	6.2	3.62e-01	0	56	0	7340032	55	9514
2026-01-15 09:26:32.58	141.50	7.84	-42.1	-49.5	7.0	1.86e-01	0	56	0	9437184	54	9093
2026-01-15 09:26:33.59	141.47	7.92	-42.2	-48.7	7.8	1.13e-01	0	55	0	11534336	55	7871
2026-01-15 09:26:34.60	141.43	8.00	-41.6	-48.1	8.3	7.45e-02	0	55	0	12582912	54	7720
2026-01-15 09:26:35.61	141.40	8.08	-44.0	-57.2	3.8	8.80e-01	0	56	104	14680064	58	17632
2026-01-15 09:26:36.62	141.36	8.16	-43.6	-55.4	3.9	1.49e+00	0	56	104	14680064	58	14356
2026-01-15 09:26:37.63	141.32	8.24	-41.5	-47.5	8.9	1.49e+00	0	56	104	14680064	54	7249
2026-01-15 09:26:38.64	141.29	8.32	-43.2	-52.5	5.1	9.55e-01	0	56	0	15728640	56	11514
2026-01-15 09:26:39.65	141.25	8.40	-40.9	-46.6	9.4	6.54e-01	0	55	0	17825792	53	6947
2026-01-15 09:26:40.66	141.21	8.48	-41.3	-47.4	8.7	1.43e-01	0	56	0	18874368	54	7153
2026-01-15 09:26:41.67	141.17	8.56	-40.8	-46.8	9.2	4.86e-02	0	56	0	20971520	52	7486
2026-01-15 09:26:42.67	141.14	8.64	-41.6	-46.6	10.0	3.77e-02	0	56	0	23068672	53	6904
2026-01-15 09:26:43.68	141.10	8.72	-41.1	-46.7	9.5	1.86e-02	0	56	0	25165824	53	7012
2026-01-15 09:26:44.69	141.06	8.81	-40.8	-47.0	9.2	4.26e-02	0	56	0	27262976	53	7283
2026-01-15 09:26:45.70	141.02	8.89	-40.3	-46.7	9.2	3.66e-02	0	56	0	28311552	52	7425
2026-01-15 09:26:46.71	140.98	8.97	-40.7	-46.9	8.9	3.50e-02	0	56	0	30408704	52	7575
2026-01-15 09:26:47.72	140.95	9.05	-41.4	-47.1	9.1	3.87e-02	0	56	0	32505856	52	7772
2026-01-15 09:26:48.73	140.91	9.14	-41.5	-47.4	8.5	6.28e-02	0	56	0	34603008	53	7603
2026-01-15 09:26:49.74	140.87	9.22	-40.5	-47.3	8.7	4.30e-02	0	56	0	36700160	52	7914
2026-01-15 09:26:50.75	140.83	9.30	-41.2	-47.6	8.6	4.96e-02	0	56	0	38797312	53	7727
2026-01-15 09:26:51.75	140.79	9.39	-40.5	-47.9	7.8	1.14e-01	0	56	0	39845888	53	8014
2026-01-15 09:26:52.76	140.75	9.47	-41.5	-47.8	8.0	8.92e-02	0	56	0	41943040	52	8427
2026-01-15 09:26:53.77	140.71	9.56	-41.7	-47.8	8.2	1.10e-01	0	56	0	44040192	53	7974
2026-01-15 09:26:54.78	140.67	9.64	-40.6	-47.9	7.7	9.59e-02	0	56	0	46137344	52	8472
2026-01-15 09:26:55.79	140.63	9.72	-40.7	-48.0	7.5	9.83e-02	0	56	0	47185920	52	8565
2026-01-15 09:26:56.80	140.59	9.81	-41.8	-47.7	8.9	1.15e-01	0	56	0	49283072	54	7389
2026-01-15 09:26:57.81	140.55	9.90	-40.1	-46.8	8.8	1.09e-01	0	56	0	51380224	52	7526
2026-01-15 09:26:58.81	140.50	9.98	-39.8	-46.5	8.7	9.29e-02	0	56	0	53477376	52	7224
2026-01-15 09:26:59.82	140.46	10.07	-39.8	-46.3	8.9	9.89e-02	0	56	0	55574528	51	7506
2026-01-15 09:27:00.83	140.42	10.15	-39.5	-45.6	9.8	5.81e-02	0	56	0	56623104	51	6937
2026-01-15 09:27:01.84	140.38	10.24	-41.2	-45.9	10.5	4.28e-02	0	56	0	58720256	52	6743
2026-01-15 09:27:02.85	140.34	10.33	-39.4	-45.3	9.6	1.07e-01	0	57	0	60817408	50	7056
2026-01-15 09:27:03.86	140.29	10.41	-38.2	-44.6	9.0	9.70e-02	0	56	0	62914560	48	7300
2026-01-15 09:27:04.87	140.25	10.50	-40.7	-44.9	11.4	8.67e-02	0	56	0	65011712	51	6411
2026-01-15 09:27:05.88	140.21	10.59	-39.4	-45.1	9.3	7.42e-02	0	56	0	67108864	50	6917
2026-01-15 09:27:06.89	140.16	10.68	-39.5	-45.4	9.3	1.18e-01	0	57	0	68157440	51	6760
2026-01-15 09:27:07.89	140.12	10.76	-41.1	-46.3	8.5	3.87e-02	0	57	0	70254592	50	7922
2026-01-15 09:27:08.90	140.08	10.85	-38.3	-46.3	7.6	1.71e-01	0	57	0	72351744	48	8895
2026-01-15 09:27:09.91	140.03	10.94	-37.8	-46.8	7.4	2.13e-01	0	57	0	74448896	50	8412
2026-01-15 09:27:10.92	139.99	11.03	-41.4	-47.7	7.8	1.88e-01	0	56	0	76546048	53	7857
2026-01-15 09:27:11.93	139.94	11.12	-41.9	-48.2	6.8	2.07e-01	0	57	0	77594624	51	9338
2026-01-15 09:27:12.94	139.90	11.21	-41.1	-47.8	7.8	2.57e-01	0	57	0	79691776	53	7988
2026-01-15 09:27:13.95	139.85	11.30	-38.2	-47.0	7.5	3.43e-01	0	57	0	81788928	50	8593
2026-01-15 09:27:14.96	139.80	11.39	-38.1	-46.3	8.2	2.79e-01	0	57	0	83886080	51	7465
2026-01-15 09:27:15.97	139.76	11.48	-40.3	-45.8	8.4	1.66e-01	0	57	0	85983232	50	7462
2026-01-15 09:27:16.98	139.71	11.57	-37.3	-45.0	8.8	1.12e-01	0	57	0	87031808	47	8141
2026-01-15 09:27:17.99	139.67	11.67	-37.9	-44.8	8.8	1.51e-01	0	57	0	89128960	48	7517
2026-01-15 09:27:19.00	139.62	11.76	-36.5	-44.0	9.1	1.24e-01	0	57	0	91226112	46	7670
2026-01-15 09:27:20.01	139.57	11.85	-40.3	-44.7	11.0	1.45e-01	0	57	0	93323264	50	6628
2026-01-15 09:27:21.01	139.52	11.94	-39.3	-44.3	8.3	8.74e-02	0	57	0	95420416	44	8940
2026-01-15 09:27:22.02	139.48	12.03	-39.2	-44.8	8.2	9.35e-02	0	57	0	96468992	47	7969
2026-01-15 09:27:23.03	139.43	12.13	-37.4	-44.7	7.2	9.43e-02	0	57	0	98566144	45	8846
2026-01-15 09:27:24.04	139.38	12.22	-38.2	-45.4	8.3	3.12e-01	0	57	0	100663296	49	7607
2026-01-15 09:27:25.05	139.33	12.31	-40.2	-46.4	7.8	2.09e-01	0	57	0	102760448	49	8496
2026-01-15 09:27:26.05	139.28	12.41	-39.2	-46.7	7.2	3.67e-01	0	57	0	104857600	47	9898
2026-01-15 09:27:27.06	139.23	12.50	-37.4	-46.0	6.1	3.20e-01	0	57	0	105906176	44	10875
2026-01-15 09:27:28.07	139.18	12.60	-41.9	-48.0	6.9	1.91e-01	0	57	0	108003328	49	10234
2026-01-15 09:27:29.08	139.13	12.69	-38.4	-47.0	8.1	2.56e-01	0	57	0	110100480	52	7679
2026-01-15 09:27:30.09	139.08	12.79	-38.6	-46.6	7.7	2.44e-01	0	57	0	112197632	51	7801
2026-01-15 09:27:31.10	139.03	12.88	-41.5	-46.4	8.2	1.92e-01	0	57	0	114294784	51	7587
2026-01-15 09:27:32.11	138.98	12.98	-37.2	-45.2	7.4	1.73e-01	0	57	0	115343360	45	9303
2026-01-15 09:27:33.12	138.93	13.08	-40.8	-45.1	9.2	1.11e-01	0	57	0	117440512	49	7300
2026-01-15 09:27:34.12	138.87	13.17	-35.8	-44.2	10.2	2.72e-01	0	57	0	119537664	44	8770
2026-01-15 09:27:35.14	138.82	13.27	-37.0	-43.7	7.3	1.57e-01	0	57	0	121634816	42	9346
2026-01-15 09:27:36.15	138.77	13.37	-34.8	-43.6	6.7	4.23e-01	0	57	0	123731968	42	9240
2026-01-15 09:27:37.16	138.72	13.47	-34.3	-43.6	7.7	5.45e-01	0	57	0	124780544	40	10306
2026-01-15 09:27:38.17	138.66	13.56	-33.6	-43.6	6.3	7.21e-01	0	57	0	126877696	39	11013
2026-01-15 09:27:39.18	138.61	13.66	-41.2	-45.6	8.7	4.21e-01	0	57	0	128974848	49	7785
2026-01-15 09:27:40.19	138.55	13.76	-39.5	-46.0	8.9	3.93e-01	0	57	0	131072000	46	9652
2026-01-15 09:27:41.20	138.50	13.86	-38.0	-46.2	6.6	6.78e-01	0	58	0	133169152	45	10423
2026-01-15 09:27:42.21	138.44	13.96	-41.9	-46.6	9.7	6.12e-01	0	57	0	134217728	51	7747
2026-01-15 09:27:43.22	138.39	14.06	-34.7	-45.2	5.9	5.03e-01	0	57	0	136314880	42	11049
2026-01-15 09:27:44.22	138.33	14.16	-34.7	-44.8	5.7	1.01e+00	0	57	0	137363456	40	11819
2026-01-15 09:27:45.23	138.28	14.26	-37.0	-45.0	8.2	3.26e-01	0	57	0	139460608	48	7712
2026-01-15 09:27:46.24	138.22	14.36	-36.5	-44.7	7.5	6.38e-01	0	58	0	141557760	46	8310
2026-01-15 09:27:47.25	138.16	14.47	-36.8	-44.1	7.4	4.35e-01	0	57	0	143654912	43	9196
2026-01-15 09:27:48.26	138.11	14.57	-38.7	-44.4	7.4	4.45e-01	0	57	0	145752064	45	8493
2026-01-15 09:27:49.26	138.05	14.67	-37.1	-44.2	7.7	4.19e-01	0	58	0	146800640	44	8856
2026-01-15 09:27:50.28	137.99	14.77	-38.9	-44.5	9.2	4.80e-01	0	58	0	148897792	49	6817
2026-01-15 09:27:51.29	137.93	14.88	-37.1	-44.4	7.8	2.39e-01	0	58	0	150994944	45	8466
2026-01-15 09:27:52.30	137.87	14.98	-37.3	-44.3	7.1	4.35e-01	0	57	0	153092096	43	9440
2026-01-15 09:27:53.31	137.81	15.09	-35.5	-44.7	6.2	3.25e-01	0	58	0	155189248	41	11136
2026-01-15 09:27:54.32	137.75	15.19	-41.8	-46.6	7.8	5.01e-01	0	58	0	156237824	48	9197
2026-01-15 09:27:55.33	137.69	15.30	-36.6	-45.3	7.2	6.26e-01	0	58	0	158334976	46	8922
2026-01-15 09:27:56.34	137.63	15.40	-34.4	-45.0	6.9	2.42e-01	0	58	0	160432128	43	10259
2026-01-15 09:27:57.35	137.57	15.51	-37.7	-45.6	6.6	6.19e-01	0	58	0	162529280	45	9765
2026-01-15 09:27:58.36	137.51	15.61	-37.7	-44.8	7.4	5.67e-01	0	58	0	164626432	45	8963
2026-01-15 09:27:59.37	137.44	15.72	-37.9	-45.0	7.9	3.73e-01	0	58	0	165675008	46	8634
2026-01-15 09:28:00.38	137.38	15.83	-40.6	-45.4	7.4	4.60e-01	0	58	0	167772160	46	9059
2026-01-15 09:28:01.38	137.32	15.94	-36.4	-43.7	7.1	5.21e-01	0	58	0	169869312	42	9372
2026-01-15 09:28:02.39	137.26	16.04	-38.3	-44.7	7.3	4.13e-01	0	58	0	171966464	44	9376
2026-01-15 09:28:03.40	137.19	16.15	-39.2	-44.6	8.5	3.77e-01	0	58	0	174063616	48	7369
2026-01-15 09:28:04.41	137.13	16.26	-37.2	-45.1	8.1	4.73e-01	0	58	0	175112192	49	7356
2026-01-15 09:28:05.41	137.06	16.37	-38.6	-45.2	9.4	3.41e-01	0	58	0	177209344	50	7011
2026-01-15 09:28:06.42	137.00	16.48	-39.4	-45.5	8.7	3.19e-01	0	58	0	179306496	49	7709
2026-01-15 09:28:07.43	136.93	16.59	-39.3	-45.2	7.5	2.45e-01	0	58	0	181403648	47	8301
2026-01-15 09:28:08.44	136.86	16.70	-39.6	-45.6	8.1	2.73e-01	0	58	0	182452224	49	7784
2026-01-15 09:28:09.45	136.80	16.81	-39.1	-45.4	7.7	3.48e-01	0	58	0	184549376	47	8530
2026-01-15 09:28:10.46	136.73	16.92	-39.6	-45.3	8.2	2.20e-01	0	58	0	186646528	48	7964
2026-01-15 09:28:11.47	136.66	17.04	-40.0	-45.1	10.5	2.09e-01	0	58	0	188743680	49	7317
2026-01-15 09:28:12.48	136.59	17.15	-39.3	-45.1	9.7	2.18e-01	0	58	0	190840832	51	6557
2026-01-15 09:28:13.49	136.52	17.26	-39.2	-45.2	10.4	1.61e-01	0	58	0	191889408	50	6971
2026-01-15 09:28:14.50	136.45	17.38	-40.5	-45.3	9.7	1.78e-01	0	58	0	193986560	50	7080
2026-01-15 09:28:15.51	136.38	17.49	-39.7	-45.4	9.6	1.06e-01	0	58	0	196083712	50	7141
2026-01-15 09:28:16.52	136.31	17.61	-39.7	-45.6	9.6	1.21e-01	0	58	0	198180864	51	6949
2026-01-15 09:28:17.52	136.24	17.72	-41.6	-46.3	10.7	1.31e-01	0	58	0	200278016	54	6340
2026-01-15 09:28:18.53	136.17	17.84	-40.8	-46.4	9.2	1.62e-01	0	58	0	202375168	51	7550
2026-01-15 09:28:19.54	136.10	17.95	-40.8	-46.4	10.3	1.12e-01	0	58	0	203423744	54	6411
2026-01-15 09:28:20.55	136.02	18.07	-41.0	-46.3	9.9	6.53e-02	0	58	0	205520896	53	6700
2026-01-15 09:28:21.56	135.95	18.19	-39.9	-46.0	8.9	9.51e-02	0	58	0	207618048	51	7210
2026-01-15 09:28:22.57	135.88	18.30	-40.5	-45.5	10.8	5.53e-02	0	58	0	209715200	52	6433
2026-01-15 09:28:23.58	135.80	18.42	-40.3	-45.2	10.4	3.31e-02	0	58	0	211812352	51	6603
2026-01-15 09:28:24.59	135.72	18.54	-40.9	-45.1	11.6	2.89e-02	0	58	0	212860928	52	6171
2026-01-15 09:28:25.59	135.65	18.66	-40.8	-45.1	11.4	1.45e-02	0	58	0	214958080	53	5838
2026-01-15 09:28:26.60	135.57	18.78	-40.8	-45.4	12.1	4.01e-03	0	58	0	217055232	53	6035
2026-01-15 09:28:27.61	135.50	18.90	-41.5	-45.6	12.2	1.04e-02	0	58	0	219152384	53	6138
2026-01-15 09:28:28.61	135.42	19.02	-41.6	-46.0	11.2	1.53e-02	0	58	0	221249536	54	6109
2026-01-15 09:28:29.62	135.34	19.14	-41.5	-46.3	10.7	6.53e-03	0	58	0	222298112	54	6309
2026-01-15 09:28:30.63	135.26	19.26	-41.7	-46.2	11.3	2.02e-03	0	58	0	224395264	54	6229
2026-01-15 09:28:31.64	135.18	19.38	-42.1	-46.4	11.3	5.41e-03	0	58	0	226492416	54	6373
2026-01-15 09:28:32.65	135.10	19.51	-41.7	-45.9	11.6	3.82e-03	0	58	0	228589568	54	6056
2026-01-15 09:28:33.65	135.02	19.63	-41.7	-45.8	11.6	1.54e-03	0	58	0	230686720	54	5956
2026-01-15 09:28:34.67	134.94	19.76	-41.9	-45.9	12.0	1.33e-03	0	58	0	231735296	54	6007
2026-01-15 09:28:35.68	134.85	19.88	-41.7	-45.7	12.0	5.29e-03	0	58	0	233832448	54	5862
2026-01-15 09:28:36.69	134.77	20.01	-41.7	-45.8	11.9	1.60e-03	0	58	0	235929600	54	5928
2026-01-15 09:28:37.70	134.69	20.13	-42.0	-46.4	11.2	2.76e-03	0	58	0	238026752	54	6374
2026-01-15 09:28:38.71	134.60	20.26	-42.1	-46.7	11.0	2.09e-03	0	58	0	240123904	55	6210
2026-01-15 09:28:39.71	134.52	20.38	-42.2	-46.7	10.7	2.86e-03	0	58	0	241172480	55	6255
2026-01-15 09:28:40.72	134.43	20.51	-42.1	-46.9	10.5	5.64e-03	0	58	0	243269632	55	6409
2026-01-15 09:28:41.73	134.34	20.64	-42.4	-47.1	10.7	5.29e-03	0	58	0	245366784	55	6526
2026-01-15 09:28:42.74	134.26	20.77	-42.0	-46.8	10.6	8.24e-03	0	58	0	247463936	55	6343
2026-01-15 09:28:43.75	134.17	20.90	-42.1	-46.5	11.1	7.63e-03	0	58	0	249561088	55	6123
2026-01-15 09:28:44.77	134.08	21.03	-41.6	-46.3	11.0	9.80e-03	0	58	0	250609664	54	6333
2026-01-15 09:28:45.77	133.99	21.16	-41.7	-45.9	11.5	6.46e-03	0	58	0	252706816	54	6041
2026-01-15 09:28:46.78	133.90	21.29	-41.3	-45.8	11.5	8.84e-03	0	59	0	254803968	54	5972
2026-01-15 09:28:47.79	133.80	21.42	-41.6	-45.9	11.5	1.35e-02	0	58	0	256901120	54	6045
2026-01-15 09:28:48.80	133.71	21.55	-41.8	-46.3	11.0	1.07e-02	0	58	0	258998272	54	6345
2026-01-15 09:28:49.81	133.62	21.69	-42.0	-46.5	11.1	1.43e-02	0	58	0	260046848	54	6469
2026-01-15 09:28:50.82	133.53	21.82	-41.6	-46.8	10.2	1.90e-02	0	58	0	262144000	54	6700
2026-01-15 09:28:51.82	133.43	21.95	-41.8	-47.1	9.9	2.73e-02	0	58	0	264241152	54	6898
2026-01-15 09:28:52.83	133.34	22.09	-41.6	-46.8	9.4	3.10e-02	0	59	0	266338304	53	7077
2026-01-15 09:28:53.84	133.24	22.22	-40.1	-46.5	10.0	2.05e-02	0	58	0	268435456	52	7264
2026-01-15 09:28:54.85	133.14	22.36	-40.9	-46.2	10.8	2.11e-02	0	58	0	270532608	54	6241
2026-01-15 09:28:55.86	133.04	22.50	-41.3	-46.2	10.7	2.28e-02	0	58	0	271581184	54	6232
2026-01-15 09:28:56.87	132.94	22.63	-41.0	-46.2	10.5	1.47e-02	0	59	0	273678336	53	6625
2026-01-15 09:28:57.88	132.84	22.77	-41.6	-46.3	11.1	2.21e-02	0	58	0	275775488	54	6281
2026-01-15 09:28:58.89	132.74	22.91	-41.4	-46.5	9.5	3.11e-02	0	58	0	277872640	52	7239
2026-01-15 09:28:59.90	132.64	23.05	-42.1	-46.8	10.1	2.52e-02	0	59	0	279969792	54	6719
2026-01-15 09:29:00.91	132.54	23.19	-42.1	-46.6	10.9	2.53e-02	0	58	0	281018368	55	6184
2026-01-15 09:29:01.92	132.43	23.33	-41.9	-46.6	10.8	1.78e-02	0	58	0	283115520	54	6514
2026-01-15 09:29:02.93	132.33	23.47	-41.7	-46.7	10.6	1.29e-02	0	58	0	285212672	55	6237
2026-01-15 09:29:03.94	132.22	23.61	-42.3	-46.6	11.1	1.30e-02	0	59	0	287309824	55	6198
2026-01-15 09:29:04.94	132.12	23.75	-41.9	-46.6	10.6	2.07e-02	0	59	0	289406976	55	6158
2026-01-15 09:29:05.95	132.01	23.90	-42.0	-47.0	10.0	2.05e-02	0	59	0	290455552	55	6439
2026-01-15 09:29:06.96	131.90	24.04	-42.7	-47.4	10.0	1.99e-02	0	59	0	292552704	55	6797
2026-01-15 09:29:07.97	131.79	24.19	-41.9	-47.3	9.5	2.03e-02	0	59	0	294649856	55	6668
2026-01-15 09:29:08.98	131.68	24.33	-42.9	-47.8	10.4	2.16e-02	0	59	0	296747008	56	6678
2026-01-15 09:29:09.98	131.57	24.48	-42.4	-47.2	10.3	1.77e-02	0	59	0	298844160	55	6599
2026-01-15 09:29:10.99	131.46	24.62	-41.6	-46.7	10.9	1.53e-02	0	59	0	299892736	55	6223
2026-01-15 09:29:12.00	131.34	24.77	-41.3	-46.5	10.3	2.07e-02	0	59	0	301989888	54	6427
2026-01-15 09:29:13.01	131.23	24.92	-41.9	-46.4	11.4	8.35e-03	0	59	0	304087040	55	6055
2026-01-15 09:29:14.02	131.11	25.07	-42.0	-46.5	10.8	2.07e-02	0	59	0	306184192	54	6462
2026-01-15 09:29:15.02	130.99	25.21	-41.3	-46.7	10.4	2.63e-02	0	59	0	308281344	54	6591
2026-01-15 09:29:16.03	130.88	25.36	-41.1	-46.9	9.4	3.58e-02	0	58	0	309329920	53	7192
2026-01-15 09:29:17.04	130.76	25.52	-42.2	-47.3	9.6	5.60e-02	0	59	0	311427072	54	7089
2026-01-15 09:29:18.05	130.64	25.67	-42.2	-47.7	10.1	5.58e-02	0	59	0	313524224	56	6598
2026-01-15 09:29:19.06	130.51	25.82	-42.1	-47.5	9.8	1.27e-02	0	59	0	315621376	55	6860
2026-01-15 09:29:20.07	130.39	25.97	-42.5	-47.3	10.3	6.29e-02	0	59	0	317718528	55	6678
2026-01-15 09:29:21.08	130.27	26.13	-42.0	-47.5	9.6	3.17e-02	0	59	0	318767104	55	6828
2026-01-15 09:29:22.09	130.14	26.28	-42.1	-47.3	10.3	2.20e-02	0	59	0	320864256	55	6708
2026-01-15 09:29:23.09	130.01	26.43	-41.9	-47.5	9.3	1.77e-02	0	59	0	322961408	54	7244
2026-01-15 09:29:24.10	129.89	26.59	-42.7	-47.9	9.9	1.70e-02	0	59	0	325058560	56	6775
2026-01-15 09:29:25.11	129.76	26.75	-43.1	-48.2	9.9	1.66e-02	0	59	0	327155712	56	6997
2026-01-15 09:29:26.12	129.63	26.90	-42.2	-47.3	10.1	2.24e-02	0	59	0	328204288	55	6716
2026-01-15 09:29:27.13	129.49	27.06	-42.5	-47.3	10.5	5.10e-03	0	59	0	330301440	56	6342
2026-01-15 09:29:28.14	129.36	27.22	-42.1	-46.7	11.1	4.43e-03	0	59	0	332398592	55	6230
2026-01-15 09:29:29.14	129.23	27.38	-42.1	-46.3	11.5	2.24e-03	0	59	0	334495744	55	5992
2026-01-15 09:29:30.15	129.09	27.54	-42.2	-46.5	11.5	1.89e-03	0	59	0	336592896	55	6103
2026-01-15 09:29:31.17	128.95	27.70	-42.2	-46.7	11.1	1.41e-03	0	59	0	337641472	55	6210
2026-01-15 09:29:32.18	128.81	27.87	-42.5	-46.8	11.3	1.61e-03	0	59	0	339738624	55	6290
2026-01-15 09:29:33.19	128.67	28.03	-42.4	-47.1	10.9	2.11e-03	0	59	0	341835776	55	6519
2026-01-15 09:29:34.19	128.53	28.19	-42.6	-47.2	10.9	2.70e-03	0	59	0	343932928	55	6629
2026-01-15 09:29:35.20	128.39	28.35	-42.8	-47.4	10.8	2.01e-03	0	59	0	346030080	56	6393
2026-01-15 09:29:36.21	128.24	28.52	-42.7	-47.1	11.2	1.66e-03	0	59	0	347078656	56	6174
2026-01-15 09:29:37.22	128.10	28.69	-42.7	-46.9	11.4	1.17e-03	0	59	0	349175808	56	6034
2026-01-15 09:29:38.23	127.95	28.85	-42.6	-46.9	11.5	9.32e-04	0	59	0	351272960	56	5998
2026-01-15 09:29:39.24	127.80	29.02	-42.7	-47.1	11.2	1.06e-03	0	59	0	353370112	56	6170
2026-01-15 09:29:40.25	127.65	29.19	-42.8	-47.2	11.1	1.36e-03	0	59	0	355467264	56	6221
2026-01-15 09:29:41.26	127.50	29.36	-42.8	-47.3	10.9	1.67e-03	0	59	0	356515840	56	6346
2026-01-15 09:29:42.27	127.34	29.53	-42.9	-47.5	10.8	2.87e-03	0	59	0	358612992	56	6464
2026-01-15 09:29:43.28	127.18	29.70	-42.9	-47.6	10.7	2.48e-03	0	59	0	360710144	56	6528
2026-01-15 09:29:44.29	127.03	29.87	-42.9	-47.4	10.9	1.98e-03	0	59	0	362807296	56	6409
2026-01-15 09:29:45.30	126.87	30.04	-43.0	-47.7	10.7	2.20e-03	0	59	0	364904448	56	6590
2026-01-15 09:29:46.30	126.71	30.21	-43.0	-47.8	10.6	3.90e-03	0	59	0	367001600	56	6675
2026-01-15 09:29:47.31	126.54	30.39	-43.3	-48.4	9.9	6.31e-03	0	59	0	368050176	57	6796
2026-01-15 09:29:48.32	126.38	30.56	-43.3	-48.4	9.9	1.10e-02	0	59	0	370147328	57	6777
2026-01-15 09:29:49.33	126.21	30.74	-43.3	-48.5	9.7	1.13e-02	0	59	0	372244480	57	6869
2026-01-15 09:29:50.34	126.05	30.91	-43.2	-48.2	10.1	1.09e-02	0	59	0	374341632	57	6589
2026-01-15 09:29:51.35	125.87	31.09	-43.1	-48.0	10.3	5.13e-03	0	59	0	376438784	57	6467
2026-01-15 09:29:52.36	125.70	31.27	-43.2	-48.3	10.1	8.19e-03	0	59	0	377487360	57	6654
2026-01-15 09:29:53.37	125.53	31.44	-43.3	-48.5	9.8	1.05e-02	0	59	0	379584512	57	6853
2026-01-15 09:29:54.37	125.35	31.62	-43.6	-49.3	9.0	1.82e-02	0	59	0	381681664	57	7534
2026-01-15 09:29:55.38	125.18	31.80	-43.7	-49.7	8.5	2.61e-02	0	59	0	383778816	58	7424
2026-01-15 09:29:56.39	125.00	31.98	-43.8	-49.9	8.4	4.13e-02	0	59	0	385875968	58	7602
2026-01-15 09:29:57.40	124.81	32.16	-43.7	-49.7	8.5	4.53e-02	0	59	0	386924544	58	7438
2026-01-15 09:29:58.41	124.63	32.35	-43.7	-49.5	8.8	3.57e-02	0	59	0	389021696	58	7270
2026-01-15 09:29:59.42	124.44	32.53	-43.5	-49.1	9.2	2.59e-02	0	59	0	391118848	58	6887
2026-01-15 09:30:00.43	124.26	32.71	-43.4	-49.1	9.1	2.60e-02	0	59	0	393216000	58	6954
2026-01-15 09:30:01.44	124.06	32.90	-43.6	-49.3	8.9	2.62e-02	0	59	0	395313152	58	7104
2026-01-15 09:30:02.44	123.87	33.08	-43.8	-50.0	8.3	2.73e-02	0	59	0	396361728	58	7672
2026-01-15 09:30:03.45	123.68	33.27	-43.7	-49.7	8.6	3.24e-02	0	59	0	398458880	58	7457
2026-01-15 09:30:04.46	123.48	33.45	-43.8	-50.0	8.3	5.18e-02	0	59	0	400556032	58	7639
2026-01-15 09:30:05.47	123.28	33.64	-43.8	-50.0	8.4	6.55e-02	0	59	0	402653184	58	7634
2026-01-15 09:30:06.48	123.08	33.83	-43.9	-50.3	8.0	4.64e-02	0	59	0	404750336	58	7936
2026-01-15 09:30:07.49	122.88	34.02	-43.8	-49.9	8.4	5.16e-02	0	59	0	405798912	58	7612
2026-01-15 09:30:08.50	122.67	34.21	-43.6	-49.1	9.2	3.87e-02	0	59	0	407896064	58	6882
2026-01-15 09:30:09.51	122.46	34.40	-43.5	-48.8	9.6	2.01e-02	0	59	0	409993216	58	6650
2026-01-15 09:30:10.51	122.25	34.59	-43.5	-49.0	9.4	9.37e-03	0	59	0	412090368	58	6816
2026-01-15 09:30:11.52	122.04	34.78	-43.3	-48.4	9.9	7.05e-03	0	59	0	414187520	58	6384
2026-01-15 09:30:12.53	121.82	34.97	-43.5	-48.8	9.6	1.03e-02	0	59	0	415236096	58	6651
2026-01-15 09:30:13.54	121.60	35.17	-43.5	-48.8	9.6	1.70e-02	0	59	0	417333248	58	6684
2026-01-15 09:30:14.54	121.38	35.36	-43.4	-48.7	9.7	1.23e-02	0	60	0	419430400	58	6574
2026-01-15 09:30:15.55	121.16	35.55	-43.3	-48.2	10.2	8.81e-03	0	59	0	421527552	58	6237
2026-01-15 09:30:16.56	120.93	35.75	-43.2	-48.0	10.4	9.17e-03	0	59	0	423624704	58	6081
2026-01-15 09:30:17.57	120.70	35.95	-43.2	-48.1	10.3	4.64e-03	0	59	0	424673280	58	6143
2026-01-15 09:30:18.59	120.46	36.14	-43.5	-48.9	9.5	8.23e-03	0	59	0	426770432	58	6724
2026-01-15 09:30:19.60	120.23	36.34	-43.4	-48.6	9.7	8.64e-03	0	59	0	428867584	58	6550
2026-01-15 09:30:20.60	119.99	36.54	-43.5	-48.8	9.5	1.40e-02	0	59	0	430964736	58	6705
2026-01-15 09:30:21.61	119.75	36.74	-43.3	-48.3	10.2	1.09e-02	0	59	0	433061888	58	6299
2026-01-15 09:30:22.62	119.51	36.94	-43.4	-48.5	9.9	7.17e-03	0	59	0	434110464	58	6421
2026-01-15 09:30:23.63	119.26	37.14	-43.4	-48.6	9.9	9.00e-03	0	59	0	436207616	58	6569
2026-01-15 09:30:24.64	119.01	37.34	-43.3	-48.2	10.2	5.84e-03	0	59	0	438304768	58	6254
2026-01-15 09:30:25.65	118.75	37.54	-43.3	-48.2	10.1	7.08e-03	0	59	0	440401920	58	6272
2026-01-15 09:30:26.66	118.50	37.74	-43.2	-48.1	10.3	8.01e-03	0	59	0	442499072	58	6183
2026-01-15 09:30:27.67	118.24	37.94	-43.5	-48.7	9.7	1.14e-02	0	59	0	443547648	58	6624
2026-01-15 09:30:28.68	117.97	38.14	-43.5	-48.9	9.4	1.53e-02	0	59	0	445644800	58	6798
2026-01-15 09:30:29.69	117.70	38.35	-43.5	-48.8	9.5	1.18e-02	0	59	0	447741952	58	6680
2026-01-15 09:30:30.70	117.43	38.55	-43.4	-48.6	9.8	1.19e-02	0	59	0	449839104	58	6545
2026-01-15 09:30:31.71	117.16	38.76	-43.2	-47.8	10.5	6.60e-03	0	59	0	451936256	58	5987
2026-01-15 09:30:32.72	116.88	38.96	-43.2	-47.9	10.5	5.38e-03	0	59	0	452984832	58	5998
2026-01-15 09:30:33.73	116.60	39.17	-43.1	-47.6	10.8	4.24e-03	0	59	0	455081984	58	5834
2026-01-15 09:30:34.74	116.32	39.37	-43.6	-49.2	9.2	1.01e-02	0	59	0	457179136	58	6978
2026-01-15 09:30:35.75	116.03	39.58	-43.8	-49.7	8.7	3.20e-02	0	59	0	459276288	58	7404
2026-01-15 09:30:36.76	115.74	39.78	-43.8	-49.6	8.7	3.74e-02	0	59	0	461373440	58	7325
2026-01-15 09:30:37.77	115.44	39.99	-43.6	-49.1	9.2	2.72e-02	0	59	0	463470592	58	6949
2026-01-15 09:30:38.78	115.14	40.20	-43.3	-48.3	10.1	1.18e-02	0	59	0	464519168	58	6307
2026-01-15 09:30:39.79	114.84	40.40	-43.3	-48.3	10.1	7.58e-03	0	59	0	466616320	58	6276
2026-01-15 09:30:40.81	114.53	40.61	-43.2	-48.1	10.3	7.77e-03	0	59	0	468713472	58	6168
2026-01-15 09:30:41.81	114.22	40.82	-43.1	-47.7	10.7	5.82e-03	0	59	0	470810624	58	5909
2026-01-15 09:30:42.83	113.90	41.03	-42.7	-46.9	11.5	2.03e-03	0	59	0	472907776	57	5670
2026-01-15 09:30:43.84	113.59	41.24	-42.8	-47.0	11.4	9.06e-04	0	59	0	473956352	57	5749
2026-01-15 09:30:44.85	113.26	41.45	-42.8	-47.1	11.3	8.35e-04	0	59	0	476053504	57	5845
2026-01-15 09:30:45.86	112.93	41.66	-43.2	-48.1	10.4	2.17e-03	0	59	0	478150656	57	6518
2026-01-15 09:30:46.86	112.61	41.86	-43.3	-48.4	10.0	8.94e-03	0	59	0	480247808	57	6752
2026-01-15 09:30:47.87	112.27	42.07	-43.6	-49.2	9.2	1.48e-02	0	59	0	482344960	57	7408
2026-01-15 09:30:48.88	111.93	42.28	-43.8	-49.9	8.5	2.91e-02	0	59	0	483393536	58	7559
2026-01-15 09:30:49.88	111.59	42.49	-43.8	-49.7	8.6	4.08e-02	0	60	0	485490688	58	7417
2026-01-15 09:30:50.89	111.24	42.70	-43.8	-49.8	8.6	4.24e-02	0	59	0	487587840	58	7462
2026-01-15 09:30:51.90	110.88	42.91	-43.8	-49.5	8.9	3.50e-02	0	60	0	489684992	58	7271
2026-01-15 09:30:52.91	110.53	43.11	-43.7	-49.3	9.1	2.57e-02	0	59	0	491782144	58	7105
2026-01-15 09:30:53.92	110.16	43.32	-44.0	-50.3	8.2	4.70e-02	0	59	0	492830720	58	7935
2026-01-15 09:30:54.93	109.79	43.53	-44.1	-50.6	7.7	9.50e-02	0	59	0	494927872	58	8270
2026-01-15 09:30:55.94	109.42	43.74	-43.9	-50.0	8.4	7.41e-02	0	59	0	497025024	58	7697
2026-01-15 09:30:56.95	109.04	43.95	-44.0	-50.3	8.1	5.65e-02	0	59	0	499122176	58	7966
2026-01-15 09:30:57.96	108.66	44.15	-44.0	-50.4	7.9	7.43e-02	0	59	0	501219328	58	8081
2026-01-15 09:30:58.96	108.27	44.36	-44.1	-50.9	7.5	8.44e-02	0	59	0	502267904	58	8546
2026-01-15 09:30:59.97	107.88	44.57	-44.1	-50.6	8.0	8.35e-02	0	60	0	504365056	58	8191
2026-01-15 09:31:00.98	107.48	44.77	-43.9	-49.8	8.6	4.95e-02	0	60	0	506462208	58	7537
2026-01-15 09:31:01.98	107.08	44.98	-43.9	-50.1	8.4	5.01e-02	0	60	0	508559360	58	7740
2026-01-15 09:31:02.99	106.68	45.18	-44.1	-50.6	7.9	7.22e-02	0	59	0	510656512	58	8232
2026-01-15 09:31:04.00	106.26	45.39	-44.0	-50.4	7.9	8.34e-02	0	60	0	511705088	58	8026
2026-01-15 09:31:05.01	105.84	45.59	-44.0	-50.2	8.1	8.28e-02	0	60	0	513802240	58	7897
2026-01-15 09:31:06.02	105.42	45.79	-44.0	-50.4	8.0	5.73e-02	0	60	0	515899392	58	8003
2026-01-15 09:31:07.03	104.99	46.00	-44.1	-50.5	7.7	8.67e-02	0	60	0	517996544	58	8141
2026-01-15 09:31:08.04	104.55	46.20	-44.1	-50.6	7.8	9.48e-02	0	59	0	520093696	58	8264
2026-01-15 09:31:09.04	104.11	46.40	-44.0	-50.2	8.3	7.11e-02	0	60	0	521142272	58	7810
2026-01-15 09:31:10.05	103.67	46.60	-44.0	-50.3	8.1	6.14e-02	0	60	0	523239424	58	7914
2026-01-15 09:31:11.06	103.21	46.80	-43.3	-48.2	10.1	2.94e-02	0	60	0	525336576	58	6269
2026-01-15 09:31:12.06	102.76	46.99	-42.7	-46.7	11.7	3.01e-03	0	59	0	527433728	57	5552
2026-01-15 09:31:13.07	102.29	47.19	-42.3	-45.8	12.7	8.39e-05	0	60	0	529530880	56	5318
2026-01-15 09:31:14.08	101.82	47.39	-42.2	-46.1	12.4	8.85e-05	0	60	0	530579456	56	5466
2026-01-15 09:31:15.09	101.35	47.58	-42.7	-47.1	11.4	3.55e-04	0	60	0	532676608	56	6188
2026-01-15 09:31:16.10	100.86	47.77	-42.6	-47.0	11.5	1.19e-03	0	60	0	534773760	56	6067
2026-01-15 09:31:17.11	100.38	47.97	-42.6	-47.1	11.4	7.80e-04	0	60	0	536870912	56	6144
2026-01-15 09:31:18.12	99.88	48.16	-42.6	-47.0	11.4	1.53e-03	0	60	0	538968064	56	6101
2026-01-15 09:31:19.12	99.38	48.34	-42.6	-47.0	11.4	9.04e-04	0	59	0	540016640	56	6069
2026-01-15 09:31:20.13	98.88	48.53	-42.6	-46.8	11.6	8.57e-04	0	60	0	542113792	56	5959
2026-01-15 09:31:21.13	98.37	48.71	-42.7	-47.2	11.3	7.71e-04	0	59	0	544210944	56	6240
2026-01-15 09:31:22.14	97.85	48.90	-43.1	-48.2	10.0	1.83e-03	0	59	0	546308096	56	7008
2026-01-15 09:31:23.15	97.33	49.08	-43.3	-48.9	9.4	1.08e-02	0	60	0	548405248	57	7193
2026-01-15 09:31:24.16	96.79	49.26	-43.0	-47.9	10.4	8.58e-03	0	60	0	549453824	57	6398
2026-01-15 09:31:25.17	96.26	49.44	-42.4	-46.5	12.0	1.53e-03	0	60	0	551550976	56	5724
2026-01-15 09:31:26.18	95.71	49.61	-42.3	-46.2	12.3	1.88e-04	0	60	0	553648128	56	5537
2026-01-15 09:31:27.19	95.16	49.79	-42.2	-46.0	12.5	1.27e-04	0	59	0	555745280	56	5443
2026-01-15 09:31:28.20	94.61	49.96	-42.3	-46.3	12.2	1.60e-04	0	59	0	557842432	56	5618
2026-01-15 09:31:29.20	94.05	50.13	-42.1	-45.9	12.6	1.51e-04	0	60	0	559939584	56	5365
2026-01-15 09:31:30.21	93.48	50.29	-42.0	-45.8	12.6	8.31e-05	0	60	0	560988160	56	5314
2026-01-15 09:31:31.22	92.90	50.46	-41.7	-45.3	12.9	5.49e-05	0	60	0	563085312	55	5321
2026-01-15 09:31:32.23	92.32	50.62	-41.8	-45.5	12.9	5.64e-05	0	60	0	565182464	55	5425
2026-01-15 09:31:33.24	91.73	50.78	-41.9	-45.6	12.7	1.12e-04	0	60	0	567279616	55	5511
2026-01-15 09:31:34.25	91.14	50.94	-42.3	-46.6	11.8	4.33e-04	0	60	0	569376768	55	6182
2026-01-15 09:31:35.26	90.54	51.09	-42.5	-47.0	11.3	9.61e-04	0	60	0	570425344	55	6491
2026-01-15 09:31:36.27	89.93	51.24	-42.4	-46.9	11.3	1.03e-03	0	60	0	572522496	55	6374
2026-01-15 09:31:37.28	89.32	51.39	-42.7	-47.7	10.5	2.09e-03	0	60	0	574619648	55	7018
2026-01-15 09:31:38.29	88.70	51.54	-42.9	-48.2	10.1	5.08e-03	0	60	0	576716800	56	7025
2026-01-15 09:31:39.30	88.07	51.68	-43.0	-48.2	10.1	1.15e-02	0	60	0	578813952	57	6644
2026-01-15 09:31:40.30	87.45	51.82	-43.0	-48.3	10.1	9.06e-03	0	60	0	579862528	57	6670
2026-01-15 09:31:41.31	86.81	51.95	-42.8	-47.7	10.6	5.89e-03	0	60	0	581959680	57	6264
2026-01-15 09:31:42.32	86.17	52.09	-42.4	-46.6	11.9	1.14e-03	0	60	0	584056832	56	5838
2026-01-15 09:31:43.33	85.52	52.21	-42.3	-46.4	12.2	2.97e-04	0	60	0	586153984	56	5680
2026-01-15 09:31:44.34	84.87	52.34	-42.6	-47.3	11.3	5.68e-04	0	60	0	588251136	56	6288
2026-01-15 09:31:45.35	84.21	52.46	-43.0	-48.5	10.0	6.16e-03	0	60	0	589299712	56	7216
2026-01-15 09:31:46.36	83.55	52.58	-43.0	-48.4	9.9	6.85e-03	0	60	0	591396864	56	7186
2026-01-15 09:31:47.37	82.88	52.70	-42.8	-48.0	10.4	3.90e-03	0	60	0	593494016	56	6858
2026-01-15 09:31:48.38	82.20	52.81	-42.9	-48.1	10.3	4.37e-03	0	60	0	595591168	56	6938
2026-01-15 09:31:49.39	81.52	52.91	-42.4	-47.0	11.3	1.95e-03	0	60	0	597688320	56	6098
2026-01-15 09:31:50.40	80.84	53.02	-41.7	-45.6	12.6	3.11e-04	0	60	0	598736896	55	5501
2026-01-15 09:31:51.41	80.15	53.11	-41.6	-45.4	13.0	5.64e-05	0	60	0	600834048	55	5351
2026-01-15 09:31:52.42	79.45	53.21	-41.3	-44.8	13.5	2.05e-05	0	60	0	602931200	54	5325
2026-01-15 09:31:53.43	78.75	53.30	-40.7	-43.8	14.5	7.00e-07	0	60	0	605028352	53	4991
2026-01-15 09:31:54.44	78.05	53.39	-40.6	-43.5	14.8	7.00e-07	0	60	0	607125504	53	4865
2026-01-15 09:31:55.45	77.34	53.47	-40.6	-43.5	14.8	0.00e+00	0	60	0	608174080	53	4843
2026-01-15 09:31:56.46	76.63	53.55	-40.2	-42.9	15.4	0.00e+00	0	60	0	610271232	52	4807
2026-01-15 09:31:57.47	75.92	53.62	-40.3	-43.1	15.3	0.00e+00	0	60	0	612368384	52	4888
2026-01-15 09:31:58.48	75.20	53.69	-40.8	-43.9	14.5	7.00e-07	0	60	0	614465536	52	5367
2026-01-15 09:31:59.48	74.49	53.75	-40.9	-44.2	14.2	7.00e-07	0	60	0	616562688	52	5560
2026-01-15 09:32:00.49	73.76	53.81	-40.9	-44.1	14.3	2.20e-06	0	60	0	617611264	52	5496
2026-01-15 09:32:01.50	73.03	53.87	-41.1	-44.6	13.8	3.00e-06	0	60	0	619708416	52	5797
2026-01-15 09:32:02.51	72.30	53.92	-41.0	-44.3	14.0	4.50e-06	0	60	0	621805568	52	5635
2026-01-15 09:32:03.52	71.57	53.96	-41.0	-44.4	14.0	0.00e+00	0	60	0	623902720	52	5676
2026-01-15 09:32:04.53	70.84	54.01	-40.7	-43.7	14.5	1.50e-06	0	60	0	625999872	52	5269
2026-01-15 09:32:05.54	70.10	54.04	-40.4	-43.3	15.0	0.00e+00	0	60	0	627048448	52	4985
2026-01-15 09:32:06.55	69.36	54.07	-40.5	-43.4	14.9	0.00e+00	0	60	0	629145600	52	5069
2026-01-15 09:32:07.56	68.62	54.10	-41.4	-45.0	13.4	0.00e+00	0	60	0	631242752	53	5780
2026-01-15 09:32:08.57	67.88	54.12	-42.0	-46.3	12.1	2.04e-04	0	60	0	633339904	54	6295
2026-01-15 09:32:09.58	67.14	54.14	-41.5	-45.2	13.1	1.21e-04	0	60	0	635437056	54	5563
2026-01-15 09:32:10.58	66.40	54.15	-41.1	-44.3	14.0	2.20e-06	0	60	0	636485632	54	5031
2026-01-15 09:32:11.60	65.65	54.16	-41.3	-44.7	13.7	7.00e-07	0	60	0	638582784	54	5242
2026-01-15 09:32:12.60	64.92	54.16	-41.3	-44.7	13.7	6.10e-06	0	60	0	640679936	54	5248
2026-01-15 09:32:13.61	64.17	54.16	-41.2	-44.5	13.9	3.00e-06	0	60	0	642777088	54	5102
2026-01-15 09:32:14.62	63.43	54.15	-41.3	-44.8	13.6	4.50e-06	0	60	0	644874240	54	5295
2026-01-15 09:32:15.63	62.69	54.14	-41.5	-45.2	13.2	1.75e-05	0	60	0	645922816	54	5554
2026-01-15 09:32:16.63	61.95	54.13	-41.3	-44.6	13.7	1.37e-05	0	60	0	648019968	54	5203
2026-01-15 09:32:17.64	61.21	54.11	-41.4	-44.9	13.4	7.60e-06	0	60	0	650117120	54	5401
2026-01-15 09:32:18.65	60.47	54.08	-41.3	-44.8	13.5	3.35e-05	0	60	0	652214272	54	5314
2026-01-15 09:32:19.66	59.73	54.05	-41.0	-44.3	14.0	1.50e-06	0	60	0	654311424	54	5005
2026-01-15 09:32:20.67	59.00	54.01	-41.1	-44.5	13.8	3.80e-06	0	60	0	656408576	53	5427
2026-01-15 09:32:21.67	58.27	53.97	-41.2	-44.6	13.8	2.20e-06	0	60	0	657457152	53	5470
2026-01-15 09:32:22.68	57.54	53.93	-40.8	-43.9	14.3	2.20e-06	0	60	0	659554304	53	5084
2026-01-15 09:32:23.69	56.81	53.88	-40.5	-43.5	14.8	0.00e+00	0	60	0	661651456	52	5103
2026-01-15 09:32:24.70	56.08	53.82	-40.5	-43.5	14.9	7.00e-07	0	60	0	663748608	52	5107
2026-01-15 09:32:25.71	55.35	53.76	-40.2	-42.9	15.4	0.00e+00	0	60	0	665845760	52	4765
2026-01-15 09:32:26.71	54.64	53.70	-40.0	-42.6	15.7	0.00e+00	0	60	0	666894336	51	4904
2026-01-15 09:32:27.72	53.92	53.63	-40.3	-43.1	15.3	0.00e+00	0	60	0	668991488	51	5162
2026-01-15 09:32:28.73	53.21	53.56	-40.3	-43.1	15.3	0.00e+00	0	60	0	671088640	51	5165
2026-01-15 09:32:29.74	52.50	53.48	-39.8	-42.2	16.1	0.00e+00	0	60	0	673185792	51	4686
2026-01-15 09:32:30.75	51.79	53.40	-39.9	-42.4	16.0	0.00e+00	0	60	0	675282944	51	4778
2026-01-15 09:32:31.76	51.09	53.32	-40.4	-43.1	15.3	0.00e+00	0	60	0	676331520	51	5181
2026-01-15 09:32:32.77	50.39	53.23	-40.4	-43.0	15.4	0.00e+00	0	60	0	678428672	51	5155
2026-01-15 09:32:33.78	49.69	53.13	-40.5	-43.3	15.2	0.00e+00	0	60	0	680525824	51	5297
2026-01-15 09:32:34.79	49.00	53.03	-41.1	-44.2	14.1	0.00e+00	0	60	0	682622976	52	5556
2026-01-15 09:32:35.80	48.32	52.93	-41.4	-44.8	13.5	1.14e-05	0	60	0	684720128	53	5619
2026-01-15 09:32:36.81	47.64	52.83	-41.1	-44.2	14.2	6.80e-06	0	60	0	685768704	53	5233
2026-01-15 09:32:37.82	46.96	52.72	-41.0	-44.0	14.4	7.00e-07	0	60	0	687865856	53	5119
2026-01-15 09:32:38.83	46.29	52.60	-41.4	-44.7	13.6	2.20e-06	0	60	0	689963008	53	5555
2026-01-15 09:32:39.84	45.63	52.48	-41.8	-45.5	12.8	2.05e-05	0	60	0	692060160	54	5726
2026-01-15 09:32:40.85	44.97	52.36	-42.0	-45.9	12.5	7.55e-05	0	60	0	694157312	54	5996
2026-01-15 09:32:41.86	44.32	52.24	-42.2	-46.3	12.1	2.08e-04	0	60	0	695205888	54	6314
2026-01-15 09:32:42.86	43.68	52.11	-42.5	-46.9	11.5	4.06e-04	0	60	0	697303040	55	6364
2026-01-15 09:32:43.87	43.03	51.98	-42.3	-46.3	11.9	6.35e-04	0	60	0	699400192	55	5982
2026-01-15 09:32:44.88	42.40	51.85	-42.0	-45.8	12.6	1.04e-04	0	60	0	701497344	55	5651
2026-01-15 09:32:45.89	41.77	51.71	-42.2	-46.1	12.3	6.33e-05	0	60	0	703594496	55	5825
2026-01-15 09:32:46.90	41.14	51.57	-42.6	-47.2	11.1	4.00e-04	0	60	0	704643072	55	6618
2026-01-15 09:32:47.91	40.52	51.42	-42.8	-47.3	11.1	2.22e-03	0	60	0	706740224	56	6324
2026-01-15 09:32:48.92	39.91	51.27	-42.9	-47.6	10.8	1.94e-03	0	60	0	708837376	56	6563
2026-01-15 09:32:49.93	39.30	51.12	-43.1	-48.1	10.4	3.39e-03	0	60	0	710934528	56	6920
2026-01-15 09:32:50.94	38.70	50.97	-43.3	-48.6	9.9	7.15e-03	0	60	0	713031680	57	6908
2026-01-15 09:32:51.95	38.11	50.81	-42.5	-46.7	11.7	1.33e-03	0	60	0	714080256	57	5581
2026-01-15 09:32:52.96	37.52	50.66	-41.8	-45.4	12.9	1.87e-04	0	60	0	716177408	55	5389
2026-01-15 09:32:53.97	36.94	50.49	-42.2	-46.2	12.1	2.24e-04	0	60	0	718274560	55	5918
2026-01-15 09:32:54.98	36.36	50.33	-42.3	-46.6	11.7	4.18e-04	0	60	0	720371712	55	6144
2026-01-15 09:32:55.99	35.79	50.16	-42.5	-47.0	11.3	1.01e-03	0	60	0	722468864	55	6471
2026-01-15 09:32:57.00	35.23	50.00	-42.6	-47.1	11.0	1.72e-03	0	60	0	724566016	55	6570
2026-01-15 09:32:58.01	34.67	49.82	-42.3	-46.6	11.6	1.24e-03	0	60	0	725614592	55	6175
2026-01-15 09:32:59.02	34.12	49.65	-42.1	-46.0	12.3	2.72e-04	0	60	0	727711744	55	5754
2026-01-15 09:33:00.03	33.58	49.48	-41.8	-45.5	12.8	9.91e-05	0	60	0	729808896	55	5446
2026-01-15 09:33:01.04	33.04	49.30	-42.1	-46.2	12.1	1.04e-04	0	60	0	731906048	55	5883
2026-01-15 09:33:02.05	32.51	49.12	-42.2	-46.4	11.9	2.58e-04	0	60	0	734003200	55	6016
2026-01-15 09:33:03.05	31.99	48.94	-42.4	-46.6	11.6	4.93e-04	0	60	0	735051776	55	6168
2026-01-15 09:33:04.06	31.47	48.76	-42.2	-46.2	12.1	2.94e-04	0	60	0	737148928	55	5889
2026-01-15 09:33:05.07	30.96	48.57	-42.5	-46.7	11.5	8.69e-04	0	60	0	739246080	55	6269
2026-01-15 09:33:06.08	30.45	48.39	-42.7	-47.2	11.1	1.34e-03	0	60	0	741343232	55	6622
2026-01-15 09:33:07.09	29.95	48.20	-42.9	-47.5	10.9	3.76e-03	0	60	0	742391808	57	6121
2026-01-15 09:33:08.09	29.46	48.01	-42.5	-46.6	11.9	6.87e-04	0	60	0	744488960	56	5815
2026-01-15 09:33:09.10	28.97	47.82	-42.6	-46.8	11.7	5.61e-04	0	60	0	746586112	56	5931
2026-01-15 09:33:10.11	28.49	47.63	-42.8	-47.5	10.9	1.70e-03	0	60	0	748683264	56	6463
2026-01-15 09:33:11.12	28.01	47.43	-43.3	-48.9	9.4	1.13e-02	0	60	0	750780416	57	7146
2026-01-15 09:33:12.12	27.55	47.24	-44.0	-51.1	7.4	3.96e-02	0	60	0	752877568	58	8712
2026-01-15 09:33:13.13	27.08	47.05	-44.4	-53.4	5.5	1.99e-01	0	60	0	753926144	59	10666
2026-01-15 09:33:14.14	26.63	46.85	-44.4	-52.9	5.7	4.29e-01	0	60	0	756023296	59	10141
2026-01-15 09:33:15.15	26.17	46.65	-44.2	-51.8	6.7	2.66e-01	0	60	0	758120448	59	8916
2026-01-15 09:33:16.16	25.73	46.45	-44.4	-52.9	5.8	2.33e-01	0	60	0	760217600	59	10096
2026-01-15 09:33:17.17	25.28	46.25	-44.2	-51.9	6.5	2.96e-01	0	60	0	762314752	59	9030
2026-01-15 09:33:18.17	24.85	46.05	-43.9	-50.5	7.9	1.13e-01	0	60	0	763363328	59	7683
2026-01-15 09:33:19.18	24.42	45.85	-43.6	-49.5	8.9	4.33e-02	0	60	0	765460480	59	6822
2026-01-15 09:33:20.19	24.00	45.65	-43.7	-49.8	8.5	3.71e-02	0	60	0	767557632	58	7492
2026-01-15 09:33:21.20	23.58	45.44	-43.5	-49.0	9.4	2.74e-02	0	60	0	769654784	58	6875
2026-01-15 09:33:22.21	23.16	45.24	-43.2	-48.3	9.9	1.59e-02	0	60	0	771751936	58	6340
2026-01-15 09:33:23.22	22.76	45.04	-43.0	-47.7	10.8	4.89e-03	0	60	0	772800512	57	6226
2026-01-15 09:33:24.23	22.35	44.83	-42.6	-46.7	11.8	9.05e-04	0	60	0	774897664	57	5587
2026-01-15 09:33:25.24	21.95	44.63	-42.5	-46.5	11.8	3.14e-04	0	60	0	776994816	56	5758
2026-01-15 09:33:26.24	21.57	44.42	-42.7	-47.1	11.3	4.86e-04	0	60	0	779091968	56	6145
2026-01-15 09:33:27.25	21.18	44.21	-43.1	-48.1	10.3	3.76e-03	0	59	0	781189120	56	6947
2026-01-15 09:33:28.26	20.80	44.01	-43.5	-49.8	8.5	2.10e-02	0	60	0	782237696	57	7918
2026-01-15 09:33:29.26	20.42	43.80	-43.6	-49.6	8.6	3.72e-02	0	60	0	784334848	57	7790
2026-01-15 09:33:30.27	20.05	43.60	-43.3	-49.1	9.4	2.29e-02	0	60	0	786432000	57	7296
2026-01-15 09:33:31.28	19.68	43.39	-43.4	-49.1	9.1	1.64e-02	0	60	0	788529152	57	7356
2026-01-15 09:33:32.29	19.32	43.18	-43.6	-49.5	8.7	3.00e-02	0	60	0	790626304	57	7716
2026-01-15 09:33:33.29	18.96	42.97	-43.9	-50.8	7.6	8.52e-02	0	60	0	791674880	58	8387
2026-01-15 09:33:34.30	18.61	42.77	-44.0	-51.1	7.2	1.57e-01	0	60	0	793772032	58	8662
2026-01-15 09:33:35.31	18.26	42.56	-43.7	-50.0	8.2	7.92e-02	0	60	0	795869184	58	7717
2026-01-15 09:33:36.32	17.91	42.35	-43.6	-49.6	8.6	3.75e-02	0	60	0	797966336	58	7317
2026-01-15 09:33:37.32	17.58	42.14	-43.5	-49.2	9.1	1.99e-02	0	60	0	800063488	58	7025
2026-01-15 09:33:38.33	17.24	41.94	-43.2	-48.4	9.7	1.42e-02	0	60	0	801112064	58	6385
2026-01-15 09:33:39.34	16.91	41.73	-43.0	-48.0	10.3	8.36e-03	0	60	0	803209216	57	6468
2026-01-15 09:33:40.35	16.58	41.52	-42.9	-47.7	10.7	4.28e-03	0	60	0	805306368	57	6209
2026-01-15 09:33:41.36	16.26	41.31	-43.0	-48.0	10.3	4.09e-03	0	60	0	807403520	57	6487
2026-01-15 09:33:42.37	15.94	41.11	-43.4	-49.1	9.2	9.47e-03	0	60	0	809500672	57	7306
2026-01-15 09:33:43.37	15.63	40.90	-43.7	-50.0	8.3	3.38e-02	0	60	0	810549248	57	8134
2026-01-15 09:33:44.38	15.32	40.69	-43.9	-50.7	7.7	5.81e-02	0	60	0	812646400	58	8282
2026-01-15 09:33:45.39	15.01	40.49	-43.8	-50.5	7.7	6.18e-02	0	60	0	814743552	58	8110
2026-01-15 09:33:46.39	14.71	40.28	-43.8	-50.6	7.7	1.03e-01	0	60	0	816840704	58	8198
2026-01-15 09:33:47.40	14.41	40.08	-43.8	-50.7	7.5	9.58e-02	0	60	0	818937856	58	8288
2026-01-15 09:33:48.41	14.12	39.87	-43.6	-49.7	8.5	5.47e-02	0	60	0	819986432	58	7372
2026-01-15 09:33:49.42	13.82	39.66	-43.5	-49.4	8.8	3.41e-02	0	60	0	822083584	58	7153
2026-01-15 09:33:50.42	13.54	39.46	-43.5	-49.6	8.6	3.95e-02	0	60	0	824180736	58	7323
2026-01-15 09:33:51.43	13.25	39.26	-43.7	-50.1	8.2	4.76e-02	0	60	0	826277888	58	7750
2026-01-15 09:33:52.44	12.97	39.05	-43.5	-49.3	8.8	2.96e-02	0	60	0	828375040	58	7106
2026-01-15 09:33:53.45	12.70	38.85	-43.1	-48.4	9.9	1.34e-02	0	60	0	829423616	58	6369
2026-01-15 09:33:54.46	12.42	38.64	-43.0	-48.4	9.8	5.89e-03	0	60	0	831520768	57	6787
2026-01-15 09:33:55.47	12.15	38.44	-43.2	-48.5	9.7	8.90e-03	0	60	0	833617920	57	6847
2026-01-15 09:33:56.48	11.89	38.24	-43.3	-49.0	9.2	1.42e-02	0	60	0	835715072	57	7254
2026-01-15 09:33:57.49	11.62	38.04	-43.3	-48.9	9.3	2.44e-02	0	60	0	837812224	57	7154
2026-01-15 09:33:58.50	11.36	37.84	-43.4	-49.1	9.0	1.98e-02	0	60	0	838860800	57	7335
2026-01-15 09:33:59.51	11.11	37.63	-43.4	-49.1	9.3	2.44e-02	0	60	0	840957952	57	7304
2026-01-15 09:34:00.52	10.85	37.43	-43.2	-49.0	9.1	1.55e-02	0	60	0	843055104	57	7266
2026-01-15 09:34:01.52	10.60	37.24	-43.0	-48.5	9.7	1.32e-02	0	60	0	845152256	57	6827
2026-01-15 09:34:02.53	10.36	37.04	-43.1	-48.6	9.5	9.79e-03	0	60	0	847249408	57	6920
2026-01-15 09:34:03.54	10.11	36.84	-43.0	-48.2	10.0	9.37e-03	0	60	0	849346560	57	6630
2026-01-15 09:34:04.55	9.87	36.64	-43.1	-48.9	9.3	1.22e-02	0	60	0	850395136	57	7173
2026-01-15 09:34:05.56	9.63	36.44	-43.3	-49.1	9.1	1.96e-02	0	60	0	852492288	57	7289
2026-01-15 09:34:06.56	9.40	36.25	-43.5	-49.4	8.8	3.22e-02	0	60	0	854589440	57	7569
2026-01-15 09:34:07.57	9.17	36.05	-43.4	-49.0	9.1	2.48e-02	0	60	0	856686592	57	7238
2026-01-15 09:34:08.58	8.94	35.86	-43.5	-49.4	8.8	2.10e-02	0	60	0	857735168	57	7600
2026-01-15 09:34:09.59	8.71	35.66	-43.6	-49.8	8.4	3.80e-02	0	60	0	859832320	57	7966
2026-01-15 09:34:10.60	8.49	35.47	-43.8	-50.2	8.0	6.84e-02	0	60	0	861929472	58	7899
2026-01-15 09:34:11.60	8.27	35.28	-43.6	-49.7	8.5	6.66e-02	0	60	0	864026624	58	7449
2026-01-15 09:34:12.61	8.05	35.08	-43.4	-49.1	9.2	2.30e-02	0	60	0	866123776	58	6893
2026-01-15 09:34:13.62	7.83	34.89	-43.1	-48.2	10.0	1.22e-02	0	60	0	867172352	58	6214
2026-01-15 09:34:14.63	7.62	34.70	-42.9	-47.7	10.7	4.23e-03	0	60	0	869269504	57	6204
2026-01-15 09:34:15.64	7.40	34.51	-42.7	-47.4	10.9	2.91e-03	0	60	0	871366656	57	6024
2026-01-15 09:34:16.65	7.20	34.32	-43.1	-48.3	10.0	3.82e-03	0	60	0	873463808	57	6659
2026-01-15 09:34:17.66	6.99	34.13	-43.3	-48.9	9.3	1.55e-02	0	60	0	875560960	57	7167
2026-01-15 09:34:18.67	6.79	33.94	-43.2	-48.5	9.6	1.73e-02	0	60	0	877658112	57	6875
2026-01-15 09:34:19.67	6.59	33.76	-43.1	-48.3	9.9	1.16e-02	0	60	0	878706688	57	6692
2026-01-15 09:34:20.68	6.39	33.57	-43.1	-48.1	10.1	6.79e-03	0	60	0	880803840	57	6527
2026-01-15 09:34:21.69	6.19	33.38	-43.2	-48.4	9.8	8.17e-03	0	60	0	882900992	57	6743
2026-01-15 09:34:22.70	5.99	33.20	-43.2	-48.6	9.6	8.87e-03	0	60	0	884998144	57	6886
2026-01-15 09:34:23.71	5.80	33.01	-43.3	-48.9	9.3	1.57e-02	0	60	0	887095296	57	7122
2026-01-15 09:34:24.72	5.61	32.83	-43.3	-48.8	9.4	1.75e-02	0	60	0	888143872	57	7058
2026-01-15 09:34:25.72	5.43	32.65	-43.2	-48.5	9.7	1.29e-02	0	60	0	890241024	57	6832
2026-01-15 09:34:26.73	5.24	32.47	-43.1	-48.1	10.1	9.63e-03	0	60	0	892338176	57	6565
2026-01-15 09:34:27.74	5.06	32.28	-43.4	-49.1	9.1	1.17e-02	0	60	0	894435328	57	7312
2026-01-15 09:34:28.75	4.87	32.10	-43.5	-49.4	8.7	3.32e-02	0	60	0	896532480	57	7567
2026-01-15 09:34:29.76	4.69	31.92	-43.6	-49.9	8.3	3.61e-02	0	60	0	897581056	57	8002
2026-01-15 09:34:30.77	4.52	31.74	-43.3	-48.7	9.5	2.55e-02	0	60	0	899678208	57	7002
2026-01-15 09:34:31.78	4.34	31.56	-43.0	-48.1	10.0	1.28e-02	0	60	0	901775360	57	6553
2026-01-15 09:34:32.79	4.17	31.39	-42.7	-47.3	10.9	4.37e-03	0	60	0	903872512	57	5972
2026-01-15 09:34:33.80	4.00	31.21	-42.7	-47.3	11.0	1.88e-03	0	60	0	905969664	57	5930
2026-01-15 09:34:34.81	3.83	31.03	-42.8	-47.6	10.5	2.52e-03	0	60	0	907018240	57	6163
2026-01-15 09:34:35.82	3.66	30.86	-43.0	-48.1	10.1	5.70e-03	0	60	0	909115392	57	6512
2026-01-15 09:34:36.83	3.49	30.68	-43.2	-48.5	9.6	8.10e-03	0	60	0	911212544	57	6841
2026-01-15 09:34:37.84	3.33	30.51	-43.0	-48.1	9.9	1.11e-02	0	60	0	913309696	57	6562
2026-01-15 09:34:38.84	3.17	30.34	-43.1	-48.2	10.0	9.44e-03	0	60	0	915406848	57	6599
2026-01-15 09:34:39.85	3.00	30.17	-42.7	-47.3	10.9	4.37e-03	0	60	0	916455424	57	5943
2026-01-15 09:34:40.86	2.85	29.99	-42.7	-47.4	10.8	2.60e-03	0	60	0	918552576	57	6003
2026-01-15 09:34:41.87	2.69	29.82	-42.8	-47.4	10.7	2.75e-03	0	60	0	920649728	57	6054
2026-01-15 09:34:42.88	2.53	29.65	-43.0	-48.1	10.2	3.53e-03	0	60	0	922746880	57	6499
2026-01-15 09:34:43.89	2.38	29.48	-42.9	-47.8	10.4	4.76e-03	0	60	0	924844032	57	6306
2026-01-15 09:34:44.90	2.23	29.32	-42.9	-47.7	10.5	4.21e-03	0	60	0	925892608	57	6253
2026-01-15 09:34:45.90	2.08	29.15	-42.5	-46.9	11.3	2.28e-03	0	60	0	927989760	57	5668
2026-01-15 09:34:46.91	1.93	28.98	-42.3	-46.4	11.8	6.50e-04	0	60	0	930086912	56	5661
2026-01-15 09:34:47.93	1.78	28.82	-42.1	-46.0	12.1	3.07e-04	0	60	0	932184064	56	5447
2026-01-15 09:34:48.94	1.63	28.65	-41.9	-45.8	12.3	1.47e-04	0	60	0	934281216	55	5595
2026-01-15 09:34:49.95	1.49	28.49	-42.0	-46.0	12.1	2.30e-04	0	60	0	935329792	55	5738
2026-01-15 09:34:50.95	1.35	28.32	-42.2	-46.3	11.7	2.63e-04	0	60	0	937426944	55	5974
2026-01-15 09:34:51.96	1.20	28.16	-42.4	-46.9	11.0	1.28e-03	0	60	0	939524096	55	6411
2026-01-15 09:34:52.97	1.06	28.00	-42.6	-47.3	10.7	2.77e-03	0	60	0	941621248	55	6678
2026-01-15 09:34:53.98	0.93	27.84	-42.9	-47.8	10.2	4.10e-03	0	60	0	943718400	56	6685
2026-01-15 09:34:54.99	0.79	27.68	-42.9	-47.8	10.3	5.60e-03	0	60	0	945815552	56	6714
2026-01-15 09:34:56.00	0.65	27.52	-42.9	-47.8	10.3	6.16e-03	0	60	0	946864128	56	6658
2026-01-15 09:34:57.01	0.52	27.36	-42.9	-47.8	10.3	5.12e-03	0	60	0	948961280	56	6672
2026-01-15 09:34:58.02	0.39	27.20	-43.0	-48.0	10.1	6.01e-03	0	60	0	951058432	56	6875
2026-01-15 09:34:59.03	0.25	27.04	-43.1	-48.4	9.7	1.24e-02	0	60	0	953155584	56	7158
2026-01-15 09:35:00.04	0.12	26.88	-43.1	-48.4	9.6	1.08e-02	0	60	0	954204160	56	7188
2026-01-15 09:35:01.05	359.99	26.73	-43.0	-48.2	9.8	1.19e-02	0	60	0	956301312	56	7011
2026-01-15 09:35:02.06	359.87	26.57	-42.9	-47.9	10.2	6.32e-03	0	60	0	958398464	56	6742
2026-01-15 09:35:03.07	359.74	26.42	-42.8	-47.7	10.4	4.18e-03	0	60	0	960495616	56	6578
2026-01-15 09:35:04.07	359.62	26.26	-42.5	-46.9	11.1	2.52e-03	0	60	0	962592768	56	6061
2026-01-15 09:35:05.08	359.49	26.11	-42.4	-46.8	11.3	1.33e-03	0	60	0	963641344	56	5926
2026-01-15 09:35:06.09	359.37	25.96	-42.4	-46.7	11.4	1.18e-03	0	60	0	965738496	56	5864
2026-01-15 09:35:07.10	359.25	25.81	-42.5	-47.0	11.0	1.16e-03	0	60	0	967835648	56	6124
2026-01-15 09:35:08.11	359.13	25.65	-42.6	-47.3	10.7	2.60e-03	0	60	0	969932800	56	6293
2026-01-15 09:35:09.12	359.01	25.50	-42.9	-48.1	9.9	5.86e-03	0	60	0	972029952	56	6883
2026-01-15 09:35:10.13	358.89	25.35	-43.0	-48.4	9.5	1.31e-02	0	60	0	974127104	56	7192
2026-01-15 09:35:11.14	358.77	25.20	-43.2	-48.9	9.0	2.01e-02	0	60	0	975175680	56	7605
2026-01-15 09:35:12.15	358.66	25.06	-43.2	-48.9	8.9	2.72e-02	0	60	0	977272832	57	7166
2026-01-15 09:35:13.16	358.54	24.91	-43.2	-48.9	8.9	2.67e-02	0	60	0	979369984	57	7181
2026-01-15 09:35:14.17	358.43	24.76	-43.0	-48.5	9.3	2.22e-02	0	60	0	981467136	57	6844
2026-01-15 09:35:15.17	358.32	24.62	-43.0	-48.5	9.3	1.65e-02	0	60	0	983564288	57	6839
2026-01-15 09:35:16.18	358.21	24.47	-43.0	-48.4	9.4	1.90e-02	0	60	0	984612864	57	6758
2026-01-15 09:35:17.19	358.10	24.33	-42.9	-48.4	9.4	1.71e-02	0	60	0	986710016	57	6748
2026-01-15 09:35:18.20	357.99	24.18	-43.0	-48.7	9.1	2.25e-02	0	60	0	988807168	57	6986
2026-01-15 09:35:19.21	357.88	24.04	-43.0	-48.8	8.9	2.59e-02	0	60	0	990904320	57	7086
2026-01-15 09:35:20.22	357.77	23.90	-43.1	-49.0	8.7	3.22e-02	0	60	0	993001472	57	7255
2026-01-15 09:35:21.23	357.66	23.75	-43.1	-48.9	8.8	3.39e-02	0	60	0	994050048	57	7178
2026-01-15 09:35:22.23	357.56	23.61	-43.0	-48.7	9.1	2.73e-02	0	60	0	996147200	57	6983
2026-01-15 09:35:23.24	357.46	23.47	-42.9	-48.4	9.2	1.98e-02	0	60	0	998244352	57	6783
2026-01-15 09:35:24.25	357.35	23.33	-42.8	-48.3	9.4	1.56e-02	0	60	0	1000341504	57	6671
2026-01-15 09:35:25.26	357.25	23.19	-42.7	-47.8	9.8	1.19e-02	0	60	0	1002438656	57	6332
2026-01-15 09:35:26.27	357.15	23.05	-42.7	-47.8	9.8	7.87e-03	0	60	0	1003487232	57	6335
2026-01-15 09:35:27.28	357.05	22.92	-42.7	-47.9	9.7	9.89e-03	0	60	0	1005584384	57	6384
2026-01-15 09:35:28.29	356.95	22.78	-42.6	-47.7	9.9	1.07e-02	0	60	0	1007681536	57	6270
2026-01-15 09:35:29.30	356.85	22.64	-42.7	-47.9	9.7	1.03e-02	0	60	0	1009778688	57	6414
2026-01-15 09:35:30.31	356.75	22.51	-42.7	-48.2	9.4	1.49e-02	0	60	0	1011875840	57	6578
2026-01-15 09:35:31.32	356.66	22.37	-42.8	-48.3	9.2	1.82e-02	0	60	0	1012924416	57	6677
2026-01-15 09:35:32.33	356.56	22.23	-42.5	-47.8	9.6	1.59e-02	0	60	0	1015021568	57	6344
2026-01-15 09:35:33.34	356.46	22.10	-42.5	-47.9	9.5	1.47e-02	0	60	0	1017118720	57	6398
2026-01-15 09:35:34.35	356.37	21.97	-42.3	-47.6	9.6	1.38e-02	0	60	0	1019215872	56	6566
2026-01-15 09:35:35.36	356.28	21.83	-42.1	-47.1	10.0	1.03e-02	0	60	0	1021313024	56	6178
2026-01-15 09:35:36.36	356.18	21.70	-41.7	-46.7	10.2	7.52e-03	0	60	0	1022361600	55	6222
2026-01-15 09:35:37.38	356.09	21.57	-41.4	-46.0	10.8	3.24e-03	0	60	0	1024458752	54	6111
2026-01-15 09:35:38.38	356.00	21.44	-41.5	-46.3	10.4	3.95e-03	0	60	0	1026555904	54	6314
2026-01-15 09:35:39.39	355.91	21.31	-41.4	-46.4	10.2	5.64e-03	0	60	0	1028653056	54	6387
2026-01-15 09:35:40.40	355.82	21.18	-41.5	-46.6	10.0	7.66e-03	0	60	0	1030750208	54	6528
2026-01-15 09:35:41.41	355.73	21.05	-41.5	-46.7	9.8	9.88e-03	0	60	0	1031798784	54	6621
2026-01-15 09:35:42.42	355.65	20.92	-41.6	-47.3	9.1	1.50e-02	0	60	0	1033895936	54	7109
2026-01-15 09:35:43.43	355.56	20.79	-41.8	-48.2	8.1	3.08e-02	0	60	0	1035993088	54	7835
2026-01-15 09:35:44.44	355.47	20.66	-42.0	-49.1	7.1	1.09e-01	0	60	0	1038090240	54	8736
2026-01-15 09:35:45.45	355.39	20.54	-42.2	-50.6	5.7	2.60e-01	0	60	0	1040187392	54	10398
2026-01-15 09:35:46.46	355.30	20.41	-42.2	-51.7	5.0	5.31e-01	0	60	0	1042284544	54	11710
2026-01-15 09:35:47.47	355.22	20.28	-42.2	-52.8	4.4	9.93e-01	0	60	0	1043333120	54	13346
2026-01-15 09:35:48.48	355.13	20.16	-42.1	-53.9	4.1	1.40e+00	0	60	0	1044381696	54	15197
2026-01-15 09:35:49.49	355.05	20.03	-42.0	-54.7	3.8	1.49e+00	0	60	104	1044381696	54	16676
2026-01-15 09:35:50.50	354.97	19.91	-41.9	-55.3	3.8	1.49e+00	0	60	104	1044381696	54	17833
2026-01-15 09:35:51.51	354.89	19.78	-41.8	-55.6	3.8	1.49e+00	0	60	104	1044381696	54	18387
2026-01-15 09:35:52.52	354.81	19.66	-41.7	-55.8	3.8	1.49e+00	0	60	104	1044381696	54	18933
2026-01-15 09:35:53.53	354.73	19.54	-41.6	-56.0	3.8	1.49e+00	0	60	104	1044381696	54	19208
2026-01-15 09:35:54.54	354.65	19.42	-41.6	-56.0	3.8	1.49e+00	0	60	104	1044381696	54	19331
2026-01-15 09:35:55.55	354.57	19.29	-41.8	-56.0	3.8	1.49e+00	0	60	104	1044381696	54	19212
2026-01-15 09:35:56.56	354.49	19.17	-41.4	-56.1	3.8	1.49e+00	0	60	104	1044381696	54	19407
2026-01-15 09:35:57.56	354.41	19.05	-41.2	-55.9	3.8	1.49e+00	0	60	104	1044381696	54	19122
2026-01-15 09:35:58.57	354.34	18.93	-41.3	-56.0	3.8	1.49e+00	0	60	104	1044381696	54	19322
2026-01-15 09:35:59.58	354.26	18.81	-41.3	-56.0	3.8	1.49e+00	0	60	104	1044381696	54	19332
2026-01-15 09:36:00.59	354.19	18.69	-41.2	-56.0	3.8	1.49e+00	0	60	104	1044381696	54	19189
2026-01-15 09:36:01.60	354.11	18.58	-40.9	-55.6	3.8	1.49e+00	0	60	104	1044381696	53	19584
2026-01-15 09:36:02.61	354.04	18.46	-41.1	-55.9	3.8	1.49e+00	0	60	104	1044381696	53	20155
2026-01-15 09:36:03.62	353.96	18.34	-40.9	-55.6	3.8	1.49e+00	0	60	104	1044381696	53	19522
2026-01-15 09:36:04.63	353.89	18.22	-40.7	-55.3	3.8	1.49e+00	0	60	104	1044381696	53	18907
2026-01-15 09:36:05.64	353.82	18.11	-40.7	-55.3	3.8	1.49e+00	0	60	104	1044381696	53	18877
2026-01-15 09:36:06.65	353.75	17.99	-40.3	-55.4	3.8	1.49e+00	0	60	104	1044381696	52	20079
2026-01-15 09:36:07.66	353.67	17.88	-40.4	-55.3	3.8	1.49e+00	0	60	104	1044381696	52	20051
2026-01-15 09:36:08.67	353.60	17.76	-40.9	-55.6	3.8	1.49e+00	0	60	104	1044381696	52	20567
2026-01-15 09:36:09.68	353.53	17.65	-40.8	-55.5	3.8	1.49e+00	0	60	104	1044381696	52	20513
2026-01-15 09:36:10.69	353.46	17.53	-40.7	-55.4	3.8	1.49e+00	0	60	104	1044381696	52	20230
2026-01-15 09:36:11.70	353.39	17.42	-40.7	-55.5	3.8	1.49e+00	0	60	104	1044381696	52	20312
2026-01-15 09:36:12.71	353.33	17.31	-40.6	-55.3	3.8	1.49e+00	0	60	104	1044381696	52	20043
2026-01-15 09:36:13.72	353.26	17.19	-40.2	-55.3	3.8	1.49e+00	0	60	104	1044381696	52	20070
2026-01-15 09:36:14.73	353.19	17.08	-40.7	-55.4	3.8	1.49e+00	0	60	104	1044381696	52	20154
2026-01-15 09:36:15.74	353.12	16.97	-40.2	-55.4	3.8	1.49e+00	0	60	104	1044381696	52	20094
2026-01-15 09:36:16.75	353.06	16.86	-40.6	-55.3	3.8	1.49e+00	0	60	104	1044381696	52	20070
2026-01-15 09:36:17.76	352.99	16.75	-40.8	-55.5	3.8	1.49e+00	0	60	104	1044381696	52	20442
2026-01-15 09:36:18.77	352.93	16.64	-40.3	-55.3	3.8	1.49e+00	0	60	104	1044381696	52	20012
2026-01-15 09:36:19.78	352.86	16.53	-40.7	-55.4	3.8	1.49e+00	0	60	104	1044381696	52	20217
2026-01-15 09:36:20.79	352.80	16.42	-40.1	-55.3	3.8	1.49e+00	0	60	104	1044381696	52	20034
2026-01-15 09:36:21.79	352.73	16.31	-40.5	-55.5	3.8	1.49e+00	0	60	104	1044381696	52	20322
2026-01-15 09:36:22.80	352.67	16.20	-40.3	-55.3	3.8	1.49e+00	0	60	104	1044381696	52	20014
2026-01-15 09:36:23.81	352.61	16.09	-40.5	-55.4	3.8	1.49e+00	0	60	104	1044381696	52	20256
2026-01-15 09:36:24.82	352.54	15.99	-40.2	-55.3	3.8	1.49e+00	0	60	104	1044381696	52	20002
2026-01-15 09:36:25.83	352.48	15.88	-40.5	-55.3	3.8	1.49e+00	0	60	104	1044381696	52	20009
2026-01-15 09:36:26.84	352.42	15.77	-40.4	-55.4	3.8	1.49e+00	0	60	104	1044381696	52	20105
2026-01-15 09:36:27.85	352.36	15.67	-40.3	-55.3	3.8	1.49e+00	0	60	104	1044381696	52	20046
2026-01-15 09:36:28.86	352.30	15.56	-40.5	-55.3	3.8	1.49e+00	0	60	104	1044381696	52	20065
2026-01-15 09:36:29.87	352.24	15.46	-40.4	-55.3	3.8	1.49e+00	0	60	104	1044381696	52	20014
2026-01-15 09:36:30.89	352.18	15.35	-40.3	-55.4	3.8	1.49e+00	0	60	104	1044381696	52	20238
2026-01-15 09:36:31.90	352.12	15.25	-40.3	-55.3	3.8	1.49e+00	0	60	104	1044381696	52	19973
2026-01-15 09:36:32.91	352.06	15.14	-40.3	-55.4	3.8	1.49e+00	0	60	104	1044381696	52	20265
2026-01-15 09:36:33.92	352.00	15.04	-40.1	-55.5	3.8	1.49e+00	0	60	104	1044381696	51	21728
2026-01-15 09:36:34.93	351.94	14.93	-40.7	-55.4	3.8	1.49e+00	0	60	104	1044381696	52	20102
2026-01-15 09:36:35.94	351.89	14.83	-40.1	-55.6	3.8	1.49e+00	0	60	104	1044381696	52	20544
2026-01-15 09:36:36.95	351.83	14.73	-40.8	-55.4	3.8	1.49e+00	0	60	104	1044381696	52	20204
2026-01-15 09:36:37.96	351.77	14.63	-40.7	-55.4	3.8	1.49e+00	0	60	104	1044381696	52	20216
2026-01-15 09:36:38.97	351.72	14.53	-40.5	-55.4	3.8	1.49e+00	0	60	104	1044381696	52	20110
2026-01-15 09:36:39.98	351.66	14.42	-40.8	-55.4	3.8	1.49e+00	0	60	104	1044381696	52	20297
2026-01-15 09:36:40.99	351.61	14.32	-40.4	-55.4	3.8	1.49e+00	0	60	104	1044381696	52	20076
2026-01-15 09:36:42.00	351.55	14.22	-40.5	-55.6	3.8	1.49e+00	0	60	104	1044381696	52	20549
2026-01-15 09:36:43.01	351.50	14.12	-40.7	-55.3	3.8	1.49e+00	0	60	104	1044381696	52	19985
2026-01-15 09:36:44.02	351.44	14.02	-40.5	-55.5	3.8	1.49e+00	0	60	104	1044381696	52	20368
2026-01-15 09:36:45.03	351.39	13.92	-40.6	-55.4	3.8	1.49e+00	0	60	104	1044381696	52	20100
2026-01-15 09:36:46.04	351.33	13.82	-40.9	-55.5	3.8	1.49e+00	0	60	104	1044381696	52	20486
2026-01-15 09:36:47.05	351.28	13.73	-40.3	-55.3	3.8	1.49e+00	0	60	104	1044381696	52	20023
2026-01-15 09:36:48.06	351.23	13.63	-40.9	-55.5	3.8	1.49e+00	0	60	104	1044381696	52	20366
2026-01-15 09:36:49.07	351.18	13.53	-40.3	-55.3	3.8	1.49e+00	0	60	104	1044381696	52	19949
