passes_logs/2026/01/15/R2.0S_Moscow/R2.0S_Moscow__20260115_103547_NOAA_21_JPSS-2_rec.log

#Pass ID: 20260115_103547_NOAA 21 (JPSS-2)
#Satellite: NOAA 21 (JPSS-2)
#Configuration: NOAA-21
#almurnet v.1.7.20251203
#Start time: 2026-01-15 10:38:16

#Version: 2.2.20231116
#Station: R2.0S_Moscow
#Location: 37.707566 lon 55.798166 lat
#TLE: 1 54234U 22150A   26014.16688770  .00000052  00000+0  45394-4 0  9999
#TLE: 2 54234  98.7497 315.0767 0000655 297.6997  62.4113 14.19534648164696

#Time	Az	El	Level	Level2	SNR	BER	BlckErr	Temp	State	Recorded	gain1	gain2
2026-01-15 10:38:16.83	187.56	13.34	-45.2	-56.8	3.8	8.47e-01	0	60	0	0	60	14980
2026-01-15 10:38:17.83	187.63	13.43	-45.4	-57.6	3.8	1.49e+00	0	61	104	0	62	14651
2026-01-15 10:38:18.84	187.70	13.53	-45.4	-57.7	3.8	1.49e+00	0	61	104	0	62	14725
2026-01-15 10:38:19.85	187.77	13.62	-45.4	-57.7	3.8	1.49e+00	0	61	104	0	62	14765
2026-01-15 10:38:20.86	187.84	13.72	-45.3	-57.6	3.8	1.49e+00	0	61	104	0	62	14667
2026-01-15 10:38:21.87	187.91	13.82	-45.3	-57.6	3.8	1.49e+00	0	61	104	0	62	14593
2026-01-15 10:38:22.88	187.98	13.91	-45.2	-57.5	3.8	1.49e+00	0	61	104	0	62	14486
2026-01-15 10:38:23.89	188.05	14.01	-45.1	-57.4	3.8	1.49e+00	0	61	104	0	62	14318
2026-01-15 10:38:24.90	188.12	14.11	-45.0	-57.3	3.8	1.49e+00	0	61	104	0	62	14190
2026-01-15 10:38:25.92	188.20	14.21	-44.9	-57.0	3.8	1.49e+00	0	61	104	0	61	14501
2026-01-15 10:38:26.93	188.27	14.31	-44.9	-57.0	3.8	1.49e+00	0	61	104	0	61	14475
2026-01-15 10:38:27.94	188.34	14.40	-44.9	-57.0	3.8	1.49e+00	0	61	104	0	61	14468
2026-01-15 10:38:28.95	188.42	14.50	-44.9	-56.9	3.8	1.49e+00	0	61	104	0	61	14327
2026-01-15 10:38:29.96	188.49	14.60	-44.9	-56.9	3.8	1.49e+00	0	60	104	0	61	14259
2026-01-15 10:38:30.97	188.57	14.70	-44.9	-56.8	3.8	1.49e+00	0	61	104	0	61	14088
2026-01-15 10:38:31.98	188.64	14.80	-44.8	-56.7	3.8	1.49e+00	0	61	104	0	61	13903
2026-01-15 10:38:32.99	188.72	14.90	-44.8	-56.5	3.8	1.49e+00	0	61	104	0	61	13704
2026-01-15 10:38:33.99	188.79	15.01	-44.8	-56.4	3.8	1.49e+00	0	61	104	0	61	13490
2026-01-15 10:38:35.00	188.87	15.11	-44.8	-56.3	3.8	1.49e+00	0	61	104	0	61	13323
2026-01-15 10:38:36.02	188.95	15.21	-44.8	-56.2	3.8	1.49e+00	0	61	104	0	61	13199
2026-01-15 10:38:37.03	189.02	15.31	-44.8	-56.1	3.8	1.49e+00	0	61	104	0	61	12961
2026-01-15 10:38:38.04	189.10	15.41	-44.7	-56.0	3.8	1.49e+00	0	61	104	0	61	12859
2026-01-15 10:38:39.05	189.18	15.52	-44.7	-55.9	3.8	1.49e+00	0	61	104	0	61	12684
2026-01-15 10:38:40.06	189.26	15.62	-44.7	-55.8	3.8	1.49e+00	0	61	104	0	61	12552
2026-01-15 10:38:41.07	189.34	15.73	-44.7	-55.6	3.8	1.49e+00	0	61	104	0	61	12243
2026-01-15 10:38:42.08	189.42	15.83	-44.7	-55.1	3.9	1.49e+00	0	61	104	0	61	11652
2026-01-15 10:38:43.09	189.50	15.93	-44.6	-54.7	3.9	1.48e+00	0	61	104	0	61	11062
2026-01-15 10:38:44.10	189.58	16.04	-44.5	-53.9	4.1	1.46e+00	0	61	104	0	61	10149
2026-01-15 10:38:45.11	189.66	16.14	-44.4	-53.3	4.3	1.47e+00	0	61	104	0	60	10045
2026-01-15 10:38:46.12	189.75	16.25	-44.3	-52.6	4.6	1.22e+00	4	61	104	0	60	9214
2026-01-15 10:38:47.12	189.83	16.36	-44.2	-52.0	4.9	9.89e-01	0	61	104	0	60	8575
2026-01-15 10:38:48.13	189.91	16.46	-44.1	-51.3	5.2	6.25e-01	0	61	0	1048576	60	7952
2026-01-15 10:38:49.14	190.00	16.57	-44.0	-50.7	5.6	4.71e-01	0	61	0	4194304	59	7818
2026-01-15 10:38:50.15	190.08	16.68	-43.9	-50.2	5.9	3.93e-01	0	61	0	7340032	59	7391
2026-01-15 10:38:51.16	190.17	16.79	-43.8	-49.8	6.2	3.16e-01	0	61	0	10485760	59	7096
2026-01-15 10:38:52.17	190.25	16.89	-43.8	-49.7	6.3	2.71e-01	0	61	0	13631488	59	6966
2026-01-15 10:38:53.17	190.34	17.00	-43.7	-49.4	6.5	2.40e-01	0	61	0	16777216	59	6779
2026-01-15 10:38:54.18	190.43	17.11	-43.6	-49.3	6.6	2.13e-01	0	60	0	19922944	59	6696
2026-01-15 10:38:55.19	190.51	17.22	-43.7	-49.4	6.5	2.22e-01	0	61	0	23068672	59	6760
2026-01-15 10:38:56.20	190.60	17.33	-43.8	-49.7	6.3	2.52e-01	0	61	0	26214400	59	6978
2026-01-15 10:38:57.20	190.69	17.44	-43.9	-50.1	6.0	3.06e-01	0	61	0	29360128	59	7295
2026-01-15 10:38:58.21	190.78	17.55	-44.0	-50.6	5.6	4.17e-01	0	61	0	32505856	59	7792
2026-01-15 10:38:59.22	190.87	17.66	-44.2	-51.2	5.2	5.77e-01	0	61	0	35651584	59	8363
2026-01-15 10:39:00.23	190.96	17.77	-44.3	-51.8	4.9	7.47e-01	0	61	0	38797312	59	8923
2026-01-15 10:39:01.24	191.05	17.89	-44.2	-51.6	4.9	1.02e+00	0	61	104	39845888	59	8761
2026-01-15 10:39:02.25	191.14	18.00	-44.0	-50.8	5.5	5.15e-01	0	60	0	41943040	59	7908
2026-01-15 10:39:03.26	191.24	18.11	-43.6	-49.3	6.6	2.97e-01	0	61	0	45088768	59	6702
2026-01-15 10:39:04.27	191.33	18.23	-43.1	-47.8	8.0	9.94e-02	0	61	0	48234496	58	5956
2026-01-15 10:39:05.28	191.43	18.34	-42.5	-46.4	9.4	2.43e-02	0	61	0	51380224	57	5377
2026-01-15 10:39:06.28	191.52	18.45	-41.7	-45.0	10.7	4.67e-03	0	61	0	54525952	55	5158
2026-01-15 10:39:07.29	191.61	18.57	-41.2	-44.1	11.6	8.87e-04	0	61	0	57671680	54	4901
2026-01-15 10:39:08.30	191.71	18.68	-40.8	-43.6	12.2	2.57e-04	0	61	0	60817408	53	4889
2026-01-15 10:39:09.31	191.81	18.80	-40.6	-43.2	12.5	1.26e-04	0	61	0	63963136	53	4680
2026-01-15 10:39:10.32	191.91	18.92	-40.6	-43.2	12.6	1.14e-04	0	61	0	67108864	53	4661
2026-01-15 10:39:11.33	192.00	19.03	-40.5	-43.1	12.6	1.64e-04	0	61	0	70254592	53	4621
2026-01-15 10:39:12.34	192.10	19.15	-41.5	-44.7	11.0	2.20e-02	0	61	0	73400320	55	4928
2026-01-15 10:39:13.35	192.20	19.27	-43.3	-49.1	4.4	1.48e+00	0	61	104	75497472	58	6952
2026-01-15 10:39:14.36	192.30	19.39	-41.9	-45.5	10.2	1.65e-02	0	61	0	76546048	55	5414
2026-01-15 10:39:15.37	192.40	19.50	-41.1	-44.0	11.6	3.91e-02	0	61	0	79691776	54	4861
2026-01-15 10:39:16.38	192.51	19.62	-43.9	-50.2	5.7	1.28e+00	2	61	104	81788928	59	7372
2026-01-15 10:39:17.39	192.61	19.74	-40.5	-43.1	12.6	2.05e-04	0	61	0	83886080	53	4637
2026-01-15 10:39:18.39	192.71	19.86	-40.5	-43.0	12.8	8.77e-05	0	61	0	87031808	52	4838
2026-01-15 10:39:19.40	192.82	19.98	-40.3	-42.7	13.0	3.50e-05	0	61	0	90177536	52	4697
2026-01-15 10:39:20.41	192.92	20.10	-40.3	-42.8	13.0	4.04e-05	0	61	0	93323264	52	4709
2026-01-15 10:39:21.42	193.03	20.23	-40.3	-42.8	13.0	4.50e-05	0	61	0	96468992	52	4722
2026-01-15 10:39:22.43	193.13	20.35	-40.4	-42.8	13.0	4.34e-05	0	61	0	99614720	52	4755
2026-01-15 10:39:23.44	193.24	20.47	-40.3	-42.8	13.0	3.96e-05	0	61	0	102760448	52	4712
2026-01-15 10:39:24.45	193.35	20.59	-40.2	-42.6	13.2	3.35e-05	0	61	0	105906176	52	4631
2026-01-15 10:39:25.45	193.46	20.72	-40.2	-42.7	13.1	2.21e-05	0	61	0	109051904	52	4668
2026-01-15 10:39:26.47	193.57	20.84	-40.2	-42.6	13.2	2.67e-05	0	61	0	112197632	52	4612
2026-01-15 10:39:27.48	193.68	20.97	-40.1	-42.5	13.3	1.90e-05	0	61	0	115343360	52	4559
2026-01-15 10:39:28.48	193.79	21.09	-40.1	-42.5	13.4	2.28e-05	0	61	0	118489088	52	4554
2026-01-15 10:39:29.49	193.91	21.22	-40.1	-42.4	13.4	1.37e-05	0	61	0	121634816	52	4522
2026-01-15 10:39:30.50	194.02	21.34	-40.0	-42.3	13.5	1.06e-05	0	61	0	124780544	52	4465
2026-01-15 10:39:31.51	194.13	21.47	-40.0	-42.3	13.6	7.60e-06	0	61	0	127926272	51	4733
2026-01-15 10:39:32.52	194.25	21.60	-39.9	-42.1	13.7	2.20e-06	0	61	0	131072000	51	4645
2026-01-15 10:39:33.52	194.36	21.72	-39.9	-42.1	13.7	6.80e-06	0	61	0	134217728	51	4650
2026-01-15 10:39:34.53	194.48	21.85	-39.9	-42.1	13.8	8.30e-06	0	61	0	137363456	51	4641
2026-01-15 10:39:35.54	194.60	21.98	-39.9	-42.1	13.8	3.00e-06	0	61	0	140509184	51	4616
2026-01-15 10:39:36.55	194.72	22.11	-39.8	-42.0	13.9	7.00e-07	0	61	0	143654912	51	4564
2026-01-15 10:39:37.55	194.84	22.24	-39.7	-41.9	14.0	3.00e-06	0	61	0	146800640	51	4537
2026-01-15 10:39:38.56	194.96	22.37	-39.7	-41.9	14.1	7.00e-07	0	60	0	149946368	51	4500
2026-01-15 10:39:39.57	195.08	22.50	-39.7	-41.9	14.1	0.00e+00	0	61	0	153092096	51	4495
2026-01-15 10:39:40.58	195.21	22.63	-39.6	-41.8	14.2	7.00e-07	0	61	0	156237824	51	4445
2026-01-15 10:39:41.59	195.33	22.76	-39.7	-41.8	14.2	7.00e-07	0	61	0	159383552	51	4470
2026-01-15 10:39:42.60	195.45	22.90	-39.6	-41.8	14.1	3.00e-06	0	61	0	162529280	51	4467
2026-01-15 10:39:43.61	195.58	23.03	-39.6	-41.7	14.2	1.50e-06	0	61	0	165675008	51	4403
2026-01-15 10:39:44.62	195.71	23.16	-39.6	-41.7	14.3	1.50e-06	0	61	0	168820736	51	4406
2026-01-15 10:39:45.63	195.84	23.30	-39.5	-41.6	14.3	0.00e+00	0	61	0	171966464	51	4384
2026-01-15 10:39:46.64	195.97	23.43	-39.6	-41.7	14.3	7.00e-07	0	61	0	175112192	51	4395
2026-01-15 10:39:47.65	196.10	23.57	-39.6	-41.7	14.3	1.50e-06	0	61	0	178257920	51	4394
2026-01-15 10:39:48.66	196.23	23.71	-39.6	-41.7	14.3	3.00e-06	0	61	0	181403648	51	4408
2026-01-15 10:39:49.66	196.36	23.84	-39.5	-41.6	14.4	2.20e-06	0	61	0	184549376	51	4370
2026-01-15 10:39:50.67	196.49	23.98	-39.6	-41.7	14.3	7.00e-07	0	61	0	187695104	51	4402
2026-01-15 10:39:51.68	196.63	24.12	-39.5	-41.6	14.4	2.20e-06	0	61	0	190840832	51	4374
2026-01-15 10:39:52.69	196.77	24.25	-39.5	-41.6	14.4	2.20e-06	0	61	0	193986560	51	4380
2026-01-15 10:39:53.70	196.90	24.39	-39.6	-41.7	14.3	7.00e-07	0	61	0	197132288	51	4402
2026-01-15 10:39:54.71	197.04	24.53	-39.6	-41.7	14.3	0.00e+00	0	60	0	200278016	51	4398
2026-01-15 10:39:55.71	197.18	24.67	-39.6	-41.7	14.3	7.00e-07	0	60	0	203423744	51	4417
2026-01-15 10:39:56.72	197.32	24.81	-39.6	-41.8	14.2	7.00e-07	0	61	0	206569472	51	4449
2026-01-15 10:39:57.73	197.46	24.95	-39.6	-41.6	14.3	1.50e-06	0	61	0	209715200	51	4388
2026-01-15 10:39:58.74	197.61	25.09	-39.6	-41.7	14.3	3.00e-06	0	61	0	212860928	51	4410
2026-01-15 10:39:59.74	197.75	25.24	-39.6	-41.7	14.2	7.00e-07	0	61	0	216006656	51	4425
2026-01-15 10:40:00.75	197.89	25.38	-39.6	-41.8	14.2	3.80e-06	0	61	0	219152384	51	4445
2026-01-15 10:40:01.76	198.04	25.52	-39.7	-41.8	14.1	2.20e-06	0	61	0	222298112	51	4482
2026-01-15 10:40:02.77	198.19	25.67	-39.8	-41.9	14.1	0.00e+00	0	61	0	225443840	51	4519
2026-01-15 10:40:03.78	198.34	25.81	-39.8	-42.0	14.0	7.00e-07	0	61	0	228589568	51	4555
2026-01-15 10:40:04.78	198.49	25.95	-39.9	-42.1	13.9	6.80e-06	0	61	0	231735296	51	4614
2026-01-15 10:40:05.79	198.64	26.10	-39.9	-42.1	13.9	6.80e-06	0	61	0	234881024	51	4607
2026-01-15 10:40:06.80	198.80	26.25	-39.9	-42.1	13.9	3.80e-06	0	61	0	238026752	51	4645
2026-01-15 10:40:07.81	198.95	26.39	-40.0	-42.2	13.8	3.00e-06	0	60	0	241172480	51	4704
2026-01-15 10:40:08.82	199.11	26.54	-40.0	-42.3	13.7	5.30e-06	0	61	0	244318208	51	4733
2026-01-15 10:40:09.83	199.27	26.69	-40.1	-42.4	13.6	6.10e-06	0	61	0	247463936	51	4763
2026-01-15 10:40:10.84	199.43	26.84	-40.2	-42.5	13.5	8.30e-06	0	61	0	250609664	51	4827
2026-01-15 10:40:11.84	199.59	26.99	-40.2	-42.6	13.5	9.90e-06	0	61	0	253755392	51	4879
2026-01-15 10:40:12.85	199.75	27.13	-40.3	-42.6	13.4	2.05e-05	0	61	0	256901120	51	4907
2026-01-15 10:40:13.86	199.91	27.29	-40.3	-42.7	13.3	1.75e-05	0	61	0	260046848	51	4972
2026-01-15 10:40:14.87	200.08	27.44	-40.4	-42.8	13.2	2.28e-05	0	61	0	263192576	51	4990
2026-01-15 10:40:15.88	200.24	27.59	-40.5	-42.9	13.1	2.82e-05	0	61	0	266338304	51	5073
2026-01-15 10:40:16.88	200.41	27.74	-40.5	-42.9	13.1	3.20e-05	0	61	0	269484032	51	5067
2026-01-15 10:40:17.89	200.58	27.89	-40.5	-42.9	13.1	3.66e-05	0	61	0	272629760	51	5064
2026-01-15 10:40:18.90	200.75	28.04	-40.5	-43.0	13.1	2.89e-05	0	60	0	275775488	51	5109
2026-01-15 10:40:19.91	200.93	28.20	-40.6	-43.1	12.9	5.34e-05	0	61	0	278921216	51	5186
2026-01-15 10:40:20.91	201.10	28.35	-40.7	-43.2	12.8	5.79e-05	0	61	0	282066944	51	5239
2026-01-15 10:40:21.92	201.28	28.51	-40.7	-43.3	12.7	7.93e-05	0	61	0	285212672	52	4988
2026-01-15 10:40:22.93	201.46	28.66	-40.6	-43.2	12.8	7.09e-05	0	61	0	288358400	52	4932
2026-01-15 10:40:23.94	201.64	28.82	-40.6	-43.1	12.9	5.41e-05	0	60	0	291504128	52	4890
2026-01-15 10:40:24.94	201.82	28.97	-40.5	-43.0	13.0	4.88e-05	0	60	0	294649856	52	4825
2026-01-15 10:40:25.95	202.00	29.13	-40.5	-43.0	12.9	4.50e-05	0	61	0	297795584	52	4859
2026-01-15 10:40:26.96	202.18	29.29	-40.5	-43.0	13.0	3.43e-05	0	61	0	300941312	52	4829
2026-01-15 10:40:27.97	202.37	29.45	-40.6	-43.1	12.8	6.02e-05	0	61	0	304087040	52	4911
2026-01-15 10:40:28.98	202.56	29.61	-40.7	-43.2	12.7	5.49e-05	0	60	0	307232768	52	4963
2026-01-15 10:40:29.99	202.75	29.77	-40.6	-43.1	12.9	5.64e-05	0	61	0	310378496	52	4877
2026-01-15 10:40:31.00	202.94	29.93	-40.5	-43.0	12.9	5.03e-05	0	61	0	313524224	52	4833
2026-01-15 10:40:32.01	203.14	30.09	-40.6	-43.1	12.9	4.42e-05	0	61	0	316669952	52	4899
2026-01-15 10:40:33.02	203.33	30.25	-40.7	-43.2	12.8	6.02e-05	0	60	0	319815680	52	4966
2026-01-15 10:40:34.03	203.53	30.41	-40.7	-43.2	12.8	5.87e-05	0	61	0	322961408	52	4957
2026-01-15 10:40:35.03	203.73	30.57	-40.7	-43.2	12.8	6.86e-05	0	61	0	326107136	52	4959
2026-01-15 10:40:36.04	203.93	30.73	-40.5	-43.0	13.0	4.34e-05	0	61	0	329252864	52	4859
2026-01-15 10:40:37.05	204.14	30.90	-40.5	-43.0	13.1	3.35e-05	0	61	0	332398592	52	4822
2026-01-15 10:40:38.05	204.34	31.06	-40.5	-42.9	13.1	2.97e-05	0	61	0	335544320	52	4794
2026-01-15 10:40:39.06	204.55	31.23	-40.5	-43.0	13.1	3.96e-05	0	61	0	338690048	52	4827
2026-01-15 10:40:40.07	204.76	31.39	-40.4	-42.8	13.3	2.28e-05	0	61	0	341835776	52	4713
2026-01-15 10:40:41.07	204.97	31.55	-40.3	-42.7	13.3	1.14e-05	0	61	0	344981504	52	4695
2026-01-15 10:40:42.08	205.18	31.72	-40.3	-42.7	13.3	1.90e-05	0	60	0	348127232	52	4664
2026-01-15 10:40:43.08	205.40	31.89	-40.3	-42.7	13.3	1.67e-05	0	60	0	351272960	52	4675
2026-01-15 10:40:44.09	205.62	32.05	-40.2	-42.6	13.5	1.44e-05	0	60	0	354418688	52	4601
2026-01-15 10:40:45.10	205.84	32.22	-40.3	-42.6	13.4	1.75e-05	0	60	0	357564416	52	4639
2026-01-15 10:40:46.11	206.06	32.39	-40.4	-42.8	13.2	2.36e-05	0	61	0	360710144	52	4719
2026-01-15 10:40:47.11	206.28	32.55	-40.5	-42.9	13.1	3.28e-05	0	61	0	363855872	52	4810
2026-01-15 10:40:48.12	206.51	32.72	-40.4	-42.8	13.2	3.12e-05	0	61	0	367001600	52	4740
2026-01-15 10:40:49.13	206.74	32.89	-40.4	-42.9	13.1	2.44e-05	0	61	0	370147328	52	4770
2026-01-15 10:40:50.14	206.97	33.06	-40.4	-42.8	13.2	2.82e-05	0	61	0	373293056	52	4753
2026-01-15 10:40:51.14	207.21	33.23	-40.5	-43.0	13.0	4.27e-05	0	60	0	376438784	52	4842
2026-01-15 10:40:52.15	207.44	33.40	-40.5	-43.0	13.0	3.43e-05	0	61	0	379584512	52	4854
2026-01-15 10:40:53.16	207.68	33.57	-40.6	-43.0	13.0	3.43e-05	0	61	0	382730240	52	4865
2026-01-15 10:40:54.17	207.93	33.74	-40.6	-43.0	13.0	4.42e-05	0	61	0	385875968	52	4862
2026-01-15 10:40:55.18	208.17	33.92	-40.5	-43.0	13.1	3.12e-05	0	61	0	389021696	52	4840
2026-01-15 10:40:56.19	208.42	34.09	-40.6	-43.1	13.0	4.34e-05	0	61	0	392167424	52	4884
2026-01-15 10:40:57.19	208.67	34.26	-40.6	-43.1	13.0	4.80e-05	0	61	0	395313152	52	4882
2026-01-15 10:40:58.20	208.92	34.43	-40.6	-43.1	12.9	4.34e-05	0	61	0	398458880	52	4905
2026-01-15 10:40:59.21	209.17	34.61	-40.7	-43.3	12.7	6.94e-05	0	61	0	401604608	52	5007
2026-01-15 10:41:00.22	209.43	34.78	-40.9	-43.5	12.6	1.04e-04	0	61	0	405798912	52	5130
2026-01-15 10:41:01.23	209.69	34.95	-40.8	-43.5	12.6	9.76e-05	0	61	0	408944640	52	5104
2026-01-15 10:41:02.24	209.96	35.13	-40.9	-43.5	12.5	1.16e-04	0	61	0	411041792	52	5140
2026-01-15 10:41:03.25	210.22	35.30	-40.9	-43.6	12.4	1.52e-04	0	61	0	414187520	52	5183
2026-01-15 10:41:04.26	210.49	35.48	-40.9	-43.6	12.5	1.47e-04	0	61	0	417333248	52	5184
2026-01-15 10:41:05.27	210.76	35.65	-41.0	-43.7	12.4	1.24e-04	0	61	0	421527552	52	5243
2026-01-15 10:41:06.28	211.04	35.83	-41.1	-43.9	12.1	2.18e-04	0	60	0	424673280	52	5373
2026-01-15 10:41:07.29	211.31	36.00	-41.2	-44.1	12.0	3.48e-04	0	61	0	427819008	53	5164
2026-01-15 10:41:08.30	211.60	36.18	-41.1	-43.9	12.1	3.48e-04	0	61	0	430964736	53	5047
2026-01-15 10:41:09.31	211.88	36.36	-41.2	-44.0	12.0	3.36e-04	0	61	0	433061888	53	5147
2026-01-15 10:41:10.32	212.17	36.53	-41.2	-44.0	12.0	3.28e-04	0	61	0	437256192	53	5130
2026-01-15 10:41:11.33	212.45	36.71	-41.3	-44.1	11.9	3.73e-04	0	61	0	440401920	53	5182
2026-01-15 10:41:12.34	212.75	36.89	-41.4	-44.3	11.7	5.20e-04	0	61	0	443547648	53	5304
2026-01-15 10:41:13.35	213.04	37.06	-41.5	-44.5	11.5	8.25e-04	0	61	0	446693376	53	5446
2026-01-15 10:41:14.36	213.34	37.24	-41.6	-44.7	11.3	1.06e-03	0	61	0	449839104	53	5543
2026-01-15 10:41:15.37	213.64	37.42	-41.6	-44.8	11.2	1.48e-03	0	60	0	452984832	53	5610
2026-01-15 10:41:16.38	213.95	37.59	-41.7	-44.8	11.1	1.36e-03	0	61	0	456130560	53	5640
2026-01-15 10:41:17.39	214.26	37.77	-41.7	-44.9	11.0	1.68e-03	0	61	0	459276288	54	5394
2026-01-15 10:41:18.40	214.57	37.95	-41.7	-44.9	11.1	1.64e-03	0	61	0	462422016	54	5380
2026-01-15 10:41:19.41	214.89	38.12	-41.7	-44.8	11.2	1.50e-03	0	61	0	465567744	54	5300
2026-01-15 10:41:20.42	215.20	38.30	-41.7	-44.8	11.2	1.24e-03	0	61	0	468713472	54	5281
2026-01-15 10:41:21.43	215.53	38.48	-41.7	-44.8	11.2	1.29e-03	0	61	0	471859200	54	5322
2026-01-15 10:41:22.44	215.85	38.65	-41.6	-44.7	11.3	1.24e-03	0	61	0	475004928	54	5257
2026-01-15 10:41:23.45	216.18	38.83	-41.6	-44.6	11.4	1.17e-03	0	60	0	478150656	54	5217
2026-01-15 10:41:24.46	216.51	39.01	-41.7	-44.8	11.2	1.29e-03	0	61	0	481296384	54	5310
2026-01-15 10:41:25.47	216.85	39.18	-41.7	-44.8	11.2	1.27e-03	0	61	0	484442112	54	5312
2026-01-15 10:41:26.48	217.19	39.36	-41.8	-45.0	11.0	1.66e-03	0	60	0	487587840	54	5437
2026-01-15 10:41:27.49	217.53	39.54	-41.8	-45.0	11.0	1.77e-03	0	61	0	490733568	54	5439
2026-01-15 10:41:28.50	217.88	39.71	-41.8	-45.0	11.0	2.00e-03	0	61	0	493879296	54	5452
2026-01-15 10:41:29.51	218.23	39.89	-41.8	-45.0	10.9	2.03e-03	0	61	0	497025024	54	5460
2026-01-15 10:41:30.52	218.59	40.06	-41.8	-45.2	10.9	2.28e-03	0	61	0	500170752	54	5529
2026-01-15 10:41:31.53	218.95	40.24	-41.9	-45.2	10.8	2.28e-03	0	60	0	503316480	54	5534
2026-01-15 10:41:32.54	219.31	40.41	-41.9	-45.1	10.9	2.43e-03	0	61	0	506462208	54	5520
2026-01-15 10:41:33.55	219.67	40.58	-41.8	-45.0	11.0	2.24e-03	0	61	0	509607936	54	5464
2026-01-15 10:41:34.56	220.04	40.76	-41.7	-44.8	11.1	1.49e-03	0	60	0	512753664	54	5335
2026-01-15 10:41:35.57	220.42	40.93	-41.8	-45.1	10.9	1.83e-03	0	61	0	515899392	54	5488
2026-01-15 10:41:36.57	220.79	41.10	-41.9	-45.3	10.7	2.50e-03	0	61	0	519045120	54	5635
2026-01-15 10:41:37.58	221.17	41.27	-42.0	-45.3	10.7	2.49e-03	0	60	0	522190848	54	5597
2026-01-15 10:41:38.59	221.56	41.44	-42.1	-45.6	10.4	4.43e-03	0	61	0	525336576	54	5798
2026-01-15 10:41:39.60	221.95	41.62	-42.1	-45.6	10.4	4.98e-03	0	61	0	528482304	54	5834
2026-01-15 10:41:40.61	222.34	41.79	-42.2	-45.8	10.1	6.67e-03	0	60	0	531628032	55	5608
2026-01-15 10:41:41.62	222.74	41.95	-42.2	-45.8	10.1	6.41e-03	0	61	0	534773760	55	5605
2026-01-15 10:41:42.63	223.14	42.12	-42.3	-46.0	9.9	8.11e-03	0	60	0	537919488	55	5734
2026-01-15 10:41:43.64	223.55	42.29	-42.2	-45.9	10.0	7.96e-03	0	60	0	541065216	55	5664
2026-01-15 10:41:44.64	223.96	42.46	-42.2	-45.7	10.2	5.49e-03	0	61	0	544210944	55	5543
2026-01-15 10:41:45.65	224.37	42.62	-42.2	-45.7	10.2	5.26e-03	0	61	0	547356672	55	5532
2026-01-15 10:41:46.66	224.79	42.79	-42.2	-45.7	10.2	5.35e-03	0	61	0	550502400	55	5553
2026-01-15 10:41:47.67	225.21	42.95	-42.1	-45.6	10.4	5.43e-03	0	61	0	553648128	55	5505
2026-01-15 10:41:48.68	225.64	43.11	-42.0	-45.3	10.7	3.27e-03	0	60	0	556793856	55	5298
2026-01-15 10:41:49.69	226.07	43.28	-41.9	-45.1	10.9	2.60e-03	0	61	0	559939584	55	5179
2026-01-15 10:41:50.70	226.51	43.44	-41.8	-45.0	11.0	1.76e-03	0	61	0	563085312	55	5113
2026-01-15 10:41:51.70	226.94	43.59	-41.9	-45.2	10.9	2.24e-03	0	60	0	566231040	55	5226
2026-01-15 10:41:52.71	227.39	43.75	-42.0	-45.4	10.5	3.85e-03	0	61	0	569376768	55	5389
2026-01-15 10:41:53.72	227.84	43.91	-42.2	-45.7	10.2	5.81e-03	0	61	0	572522496	55	5564
2026-01-15 10:41:54.73	228.29	44.07	-42.2	-45.8	10.2	5.73e-03	0	60	0	575668224	55	5593
2026-01-15 10:41:55.73	228.74	44.22	-42.1	-45.5	10.4	4.79e-03	0	61	0	578813952	55	5454
2026-01-15 10:41:56.74	229.21	44.37	-42.1	-45.5	10.4	5.00e-03	0	61	0	581959680	55	5458
2026-01-15 10:41:57.75	229.67	44.52	-42.0	-45.3	10.7	3.19e-03	0	60	0	585105408	55	5293
2026-01-15 10:41:58.76	230.14	44.67	-42.0	-45.3	10.7	3.25e-03	0	61	0	588251136	55	5280
2026-01-15 10:41:59.77	230.62	44.82	-42.0	-45.4	10.5	3.93e-03	0	61	0	591396864	55	5351
2026-01-15 10:42:00.78	231.10	44.97	-42.1	-45.5	10.5	4.44e-03	0	61	0	594542592	55	5437
2026-01-15 10:42:01.79	231.58	45.12	-42.0	-45.4	10.5	3.99e-03	0	61	0	597688320	55	5377
2026-01-15 10:42:02.79	232.07	45.26	-42.1	-45.7	10.3	5.21e-03	0	61	0	600834048	55	5543
2026-01-15 10:42:03.80	232.56	45.40	-42.2	-45.7	10.2	5.94e-03	0	61	0	603979776	55	5567
2026-01-15 10:42:04.81	233.06	45.54	-42.0	-45.4	10.5	4.78e-03	0	61	0	607125504	55	5380
2026-01-15 10:42:05.82	233.56	45.68	-41.9	-45.2	10.8	2.80e-03	0	60	0	610271232	55	5224
2026-01-15 10:42:06.83	234.06	45.81	-41.8	-44.9	11.0	2.09e-03	0	61	0	613416960	55	5098
2026-01-15 10:42:07.83	234.57	45.95	-41.7	-44.9	11.0	1.73e-03	0	61	0	616562688	55	5056
2026-01-15 10:42:08.84	235.08	46.08	-41.7	-44.9	11.0	1.70e-03	0	61	0	619708416	55	5080
2026-01-15 10:42:09.85	235.60	46.21	-41.7	-44.7	11.3	1.39e-03	0	60	0	622854144	55	4954
2026-01-15 10:42:10.86	236.12	46.34	-41.6	-44.5	11.5	9.89e-04	0	61	0	625999872	54	5141
2026-01-15 10:42:11.87	236.65	46.46	-41.6	-44.6	11.4	8.49e-04	0	61	0	629145600	54	5186
2026-01-15 10:42:12.88	237.18	46.59	-41.6	-44.7	11.3	1.33e-03	0	61	0	632291328	54	5239
2026-01-15 10:42:13.88	237.71	46.71	-41.8	-44.9	11.0	1.71e-03	0	61	0	635437056	54	5389
2026-01-15 10:42:14.89	238.25	46.83	-41.8	-44.9	11.0	1.69e-03	0	61	0	638582784	54	5383
2026-01-15 10:42:15.90	238.79	46.94	-41.7	-44.8	11.1	1.71e-03	0	61	0	641728512	54	5336
2026-01-15 10:42:16.91	239.34	47.06	-41.6	-44.7	11.3	1.46e-03	0	60	0	644874240	54	5222
2026-01-15 10:42:17.92	239.89	47.17	-41.6	-44.6	11.3	9.52e-04	0	61	0	648019968	54	5190
2026-01-15 10:42:18.92	240.44	47.28	-41.7	-44.8	11.1	1.34e-03	0	61	0	651165696	54	5319
2026-01-15 10:42:19.93	241.00	47.39	-41.7	-44.8	11.1	1.41e-03	0	61	0	654311424	54	5333
2026-01-15 10:42:20.94	241.56	47.49	-41.9	-45.1	10.9	1.70e-03	0	61	0	657457152	54	5483
2026-01-15 10:42:21.95	242.13	47.59	-41.9	-45.2	10.8	2.73e-03	0	60	0	660602880	54	5571
2026-01-15 10:42:22.95	242.69	47.69	-41.8	-45.3	10.6	2.96e-03	0	60	0	663748608	54	5629
2026-01-15 10:42:23.96	243.27	47.78	-42.0	-45.3	10.7	3.05e-03	0	61	0	666894336	54	5609
2026-01-15 10:42:24.97	243.84	47.88	-42.0	-45.3	10.7	2.92e-03	0	61	0	670040064	54	5635
2026-01-15 10:42:25.98	244.42	47.97	-41.8	-45.0	11.0	1.81e-03	0	61	0	673185792	54	5404
2026-01-15 10:42:26.99	245.01	48.05	-41.6	-44.6	11.5	9.57e-04	0	60	0	676331520	54	5173
2026-01-15 10:42:27.99	245.59	48.14	-41.6	-44.6	11.5	7.59e-04	0	61	0	679477248	54	5172
2026-01-15 10:42:29.00	246.18	48.22	-41.8	-45.1	11.0	1.31e-03	0	61	0	682622976	54	5472
2026-01-15 10:42:30.01	246.77	48.29	-42.0	-45.3	10.7	2.46e-03	0	61	0	685768704	54	5610
2026-01-15 10:42:31.02	247.37	48.37	-41.7	-44.8	11.2	1.89e-03	0	61	0	688914432	54	5327
2026-01-15 10:42:32.03	247.96	48.44	-41.6	-44.6	11.5	7.64e-04	0	61	0	692060160	54	5165
2026-01-15 10:42:33.04	248.56	48.51	-41.3	-44.2	11.9	4.09e-04	0	61	0	695205888	54	4931
2026-01-15 10:42:34.05	249.17	48.57	-41.5	-44.5	11.5	5.44e-04	0	60	0	698351616	54	5122
2026-01-15 10:42:35.06	249.77	48.64	-41.8	-45.0	11.0	1.48e-03	0	61	0	701497344	54	5441
2026-01-15 10:42:36.07	250.38	48.69	-41.8	-45.0	11.0	2.09e-03	0	60	0	704643072	54	5423
2026-01-15 10:42:37.08	250.99	48.75	-41.7	-44.7	11.3	1.34e-03	0	61	0	707788800	54	5277
2026-01-15 10:42:38.09	251.60	48.80	-41.5	-44.5	11.5	7.69e-04	0	61	0	710934528	54	5108
2026-01-15 10:42:39.10	252.22	48.85	-41.6	-44.7	11.3	1.01e-03	0	60	0	714080256	54	5220
2026-01-15 10:42:40.11	252.84	48.89	-41.6	-44.6	11.4	1.05e-03	0	60	0	717225984	54	5180
2026-01-15 10:42:41.12	253.45	48.94	-41.5	-44.4	11.6	7.04e-04	0	61	0	720371712	54	5080
2026-01-15 10:42:42.13	254.07	48.97	-41.4	-44.3	11.8	5.87e-04	0	60	0	723517440	54	5004
2026-01-15 10:42:43.14	254.69	49.01	-41.6	-44.6	11.4	7.48e-04	0	61	0	726663168	54	5202
2026-01-15 10:42:44.15	255.32	49.04	-41.9	-45.1	10.8	1.79e-03	0	61	0	729808896	54	5499
2026-01-15 10:42:45.16	255.94	49.07	-42.0	-45.3	10.6	3.05e-03	0	60	0	732954624	54	5634
2026-01-15 10:42:46.17	256.56	49.09	-41.8	-44.9	11.1	2.14e-03	0	61	0	736100352	54	5380
2026-01-15 10:42:47.18	257.19	49.11	-41.7	-44.8	11.2	1.26e-03	0	61	0	739246080	54	5299
2026-01-15 10:42:48.19	257.82	49.13	-41.7	-44.9	11.2	1.39e-03	0	61	0	742391808	54	5349
2026-01-15 10:42:49.20	258.44	49.14	-41.6	-44.7	11.3	1.35e-03	0	61	0	745537536	54	5242
2026-01-15 10:42:50.21	259.07	49.15	-41.6	-44.6	11.4	9.41e-04	0	61	0	748683264	54	5173
2026-01-15 10:42:51.22	259.70	49.16	-41.5	-44.4	11.6	7.35e-04	0	61	0	751828992	54	5053
2026-01-15 10:42:52.23	260.32	49.16	-41.4	-44.3	11.6	5.47e-04	0	61	0	754974720	54	5031
2026-01-15 10:42:53.24	260.95	49.16	-41.7	-44.7	11.3	9.62e-04	0	61	0	758120448	54	5250
2026-01-15 10:42:54.25	261.58	49.15	-41.8	-44.9	11.1	1.42e-03	0	61	0	761266176	54	5372
2026-01-15 10:42:55.26	262.21	49.14	-41.6	-44.7	11.3	1.21e-03	0	61	0	764411904	54	5232
2026-01-15 10:42:56.26	262.83	49.13	-41.7	-44.8	11.2	1.32e-03	0	61	0	767557632	54	5319
2026-01-15 10:42:57.27	263.45	49.11	-41.6	-44.7	11.4	1.22e-03	0	61	0	770703360	54	5231
2026-01-15 10:42:58.28	264.08	49.10	-41.5	-44.4	11.6	7.49e-04	0	61	0	773849088	54	5095
2026-01-15 10:42:59.29	264.70	49.07	-41.4	-44.3	11.8	6.38e-04	0	60	0	776994816	54	5000
2026-01-15 10:43:00.30	265.33	49.05	-41.2	-44.0	12.1	2.76e-04	0	61	0	780140544	54	4826
2026-01-15 10:43:01.31	265.95	49.02	-41.4	-44.3	11.7	4.52e-04	0	61	0	783286272	54	5017
2026-01-15 10:43:02.31	266.56	48.98	-41.6	-44.5	11.4	8.59e-04	0	60	0	786432000	54	5146
2026-01-15 10:43:03.32	267.18	48.95	-41.7	-44.8	11.2	1.21e-03	0	61	0	789577728	54	5325
2026-01-15 10:43:04.33	267.80	48.91	-41.7	-44.7	11.3	1.24e-03	0	60	0	792723456	54	5256
2026-01-15 10:43:05.34	268.42	48.86	-41.5	-44.5	11.5	8.72e-04	0	61	0	795869184	54	5137
2026-01-15 10:43:06.35	269.03	48.81	-41.5	-44.4	11.6	6.86e-04	0	61	0	799014912	54	5067
2026-01-15 10:43:07.36	269.64	48.76	-41.6	-44.6	11.4	8.09e-04	0	60	0	802160640	54	5181
2026-01-15 10:43:08.37	270.26	48.71	-42.0	-45.3	10.7	2.67e-03	0	60	0	805306368	54	5611
2026-01-15 10:43:09.38	270.86	48.65	-42.0	-45.4	10.6	3.14e-03	0	61	0	808452096	54	5682
2026-01-15 10:43:10.39	271.47	48.59	-42.0	-45.3	10.6	3.81e-03	0	60	0	811597824	54	5628
2026-01-15 10:43:11.40	272.07	48.53	-41.8	-45.1	10.9	3.06e-03	0	61	0	814743552	54	5470
2026-01-15 10:43:12.41	272.67	48.46	-41.7	-44.8	11.1	1.97e-03	0	61	0	817889280	54	5333
2026-01-15 10:43:13.42	273.27	48.39	-41.8	-44.9	11.0	1.70e-03	0	60	0	821035008	54	5390
2026-01-15 10:43:14.43	273.87	48.32	-42.0	-45.3	10.7	2.78e-03	0	61	0	824180736	54	5601
2026-01-15 10:43:15.43	274.45	48.24	-42.3	-45.8	10.1	5.26e-03	0	61	0	827326464	55	5644
2026-01-15 10:43:16.44	275.04	48.16	-42.4	-46.1	9.9	8.00e-03	0	61	0	830472192	55	5832
2026-01-15 10:43:17.45	275.63	48.08	-42.4	-46.1	9.9	9.67e-03	0	61	0	833617920	55	5822
2026-01-15 10:43:18.46	276.21	47.99	-42.3	-45.9	10.0	7.38e-03	0	61	0	836763648	55	5681
2026-01-15 10:43:19.47	276.79	47.90	-42.1	-45.6	10.4	5.33e-03	0	61	0	839909376	55	5488
2026-01-15 10:43:20.48	277.37	47.81	-42.0	-45.2	10.7	2.89e-03	0	60	0	844103680	55	5271
2026-01-15 10:43:21.49	277.94	47.72	-41.7	-44.9	11.2	1.50e-03	0	61	0	846200832	55	5042
2026-01-15 10:43:22.49	278.51	47.62	-41.9	-45.1	10.9	2.41e-03	0	61	0	849346560	55	5192
2026-01-15 10:43:23.50	279.07	47.52	-41.9	-45.1	10.9	2.17e-03	0	61	0	852492288	55	5177
2026-01-15 10:43:24.51	279.64	47.42	-41.8	-44.9	11.0	1.90e-03	0	61	0	855638016	55	5077
2026-01-15 10:43:25.52	280.19	47.31	-41.8	-45.0	10.9	2.33e-03	0	61	0	859832320	55	5116
2026-01-15 10:43:26.53	280.75	47.20	-41.7	-44.8	11.1	1.69e-03	0	61	0	862978048	55	5004
2026-01-15 10:43:27.54	281.30	47.09	-41.5	-44.5	11.5	8.96e-04	0	61	0	866123776	55	4818
2026-01-15 10:43:28.55	281.85	46.98	-41.4	-44.4	11.6	7.35e-04	0	61	0	868220928	54	5053
2026-01-15 10:43:29.56	282.39	46.86	-41.6	-44.6	11.3	1.04e-03	0	61	0	871366656	54	5161
2026-01-15 10:43:30.57	282.93	46.74	-41.9	-45.1	10.9	1.64e-03	0	61	0	874512384	54	5482
2026-01-15 10:43:31.57	283.46	46.62	-41.9	-45.2	10.8	2.93e-03	0	61	0	878706688	54	5564
2026-01-15 10:43:32.58	283.99	46.50	-42.0	-45.3	10.6	3.00e-03	0	60	0	881852416	54	5609
2026-01-15 10:43:33.59	284.52	46.38	-42.0	-45.3	10.7	3.46e-03	0	61	0	884998144	54	5596
2026-01-15 10:43:34.60	285.04	46.25	-41.7	-44.8	11.2	1.83e-03	0	61	0	888143872	54	5304
2026-01-15 10:43:35.61	285.56	46.12	-41.6	-44.6	11.4	1.06e-03	0	60	0	891289600	54	5160
2026-01-15 10:43:36.62	286.07	45.99	-41.3	-44.1	11.9	4.85e-04	0	61	0	893386752	54	4903
2026-01-15 10:43:37.63	286.58	45.86	-41.3	-44.0	12.0	3.04e-04	0	61	0	897581056	54	4853
2026-01-15 10:43:38.63	287.08	45.72	-41.3	-44.2	11.8	4.17e-04	0	60	0	900726784	54	4941
2026-01-15 10:43:39.64	287.58	45.58	-41.4	-44.3	11.6	6.74e-04	0	61	0	903872512	54	5026
2026-01-15 10:43:40.65	288.08	45.45	-41.5	-44.4	11.6	6.51e-04	0	61	0	907018240	54	5079
2026-01-15 10:43:41.66	288.57	45.30	-41.5	-44.4	11.6	6.64e-04	0	61	0	910163968	54	5047
2026-01-15 10:43:42.66	289.06	45.16	-41.3	-44.1	11.9	5.15e-04	0	61	0	913309696	54	4882
2026-01-15 10:43:43.67	289.54	45.02	-41.2	-44.0	11.9	3.39e-04	0	61	0	916455424	54	4860
2026-01-15 10:43:44.68	290.02	44.87	-41.4	-44.3	11.7	5.51e-04	0	61	0	919601152	54	5003
2026-01-15 10:43:45.69	290.50	44.73	-41.6	-44.5	11.5	9.67e-04	0	61	0	922746880	54	5148
2026-01-15 10:43:46.70	290.97	44.58	-41.7	-44.8	11.1	1.35e-03	0	61	0	925892608	54	5307
2026-01-15 10:43:47.71	291.43	44.43	-41.7	-44.8	11.1	1.34e-03	0	61	0	929038336	54	5282
2026-01-15 10:43:48.71	291.89	44.28	-41.6	-44.7	11.1	2.09e-03	0	61	0	932184064	54	5262
2026-01-15 10:43:49.72	292.35	44.12	-41.8	-44.9	10.9	2.10e-03	0	61	0	935329792	54	5379
2026-01-15 10:43:50.73	292.80	43.97	-41.7	-44.9	11.0	1.88e-03	0	61	0	938475520	54	5345
2026-01-15 10:43:51.74	293.25	43.81	-41.7	-44.8	11.2	1.75e-03	0	61	0	941621248	54	5282
2026-01-15 10:43:52.74	293.69	43.65	-41.8	-45.0	10.8	2.35e-03	0	61	0	944766976	54	5445
2026-01-15 10:43:53.75	294.13	43.50	-42.0	-45.3	10.6	3.35e-03	0	60	0	947912704	54	5599
2026-01-15 10:43:54.76	294.57	43.34	-42.1	-45.6	10.3	4.93e-03	0	61	0	951058432	54	5810
2026-01-15 10:43:55.77	295.00	43.18	-42.3	-45.9	9.9	8.17e-03	0	61	0	954204160	55	5691
2026-01-15 10:43:56.78	295.43	43.01	-42.3	-46.0	9.9	1.01e-02	0	61	0	957349888	55	5731
2026-01-15 10:43:57.79	295.85	42.85	-42.2	-45.8	10.0	8.66e-03	0	61	0	960495616	55	5655
2026-01-15 10:43:58.80	296.27	42.69	-42.2	-45.8	10.0	8.18e-03	0	61	0	963641344	55	5639
2026-01-15 10:43:59.80	296.68	42.52	-42.2	-45.7	10.1	6.96e-03	0	60	0	966787072	55	5583
2026-01-15 10:44:00.81	297.09	42.36	-42.0	-45.3	10.6	4.60e-03	0	60	0	969932800	55	5306
2026-01-15 10:44:01.82	297.50	42.19	-41.9	-45.1	10.8	2.77e-03	0	61	0	973078528	55	5181
2026-01-15 10:44:02.83	297.90	42.02	-41.8	-45.0	10.9	2.39e-03	0	60	0	976224256	55	5101
2026-01-15 10:44:03.83	298.29	41.86	-41.8	-45.0	10.8	2.12e-03	0	61	0	979369984	55	5152
2026-01-15 10:44:04.84	298.69	41.69	-41.9	-45.1	10.7	2.74e-03	0	61	0	982515712	55	5212
2026-01-15 10:44:05.85	299.08	41.52	-41.8	-44.9	11.0	2.19e-03	0	61	0	985661440	55	5095
2026-01-15 10:44:06.86	299.46	41.35	-41.7	-44.8	11.2	1.57e-03	0	61	0	988807168	55	4993
2026-01-15 10:44:07.86	299.84	41.18	-41.6	-44.6	11.3	1.24e-03	0	61	0	991952896	55	4902
2026-01-15 10:44:08.87	300.22	41.01	-41.6	-44.6	11.3	1.28e-03	0	61	0	995098624	55	4907
2026-01-15 10:44:09.88	300.59	40.84	-41.4	-44.4	11.6	7.52e-04	0	61	0	998244352	54	5044
2026-01-15 10:44:10.89	300.96	40.66	-41.4	-44.2	11.7	6.01e-04	0	61	0	1001390080	54	4976
2026-01-15 10:44:11.90	301.33	40.49	-41.5	-44.4	11.5	7.74e-04	0	61	0	1004535808	54	5069
2026-01-15 10:44:12.90	301.69	40.32	-41.6	-44.6	11.3	1.03e-03	0	61	0	1007681536	54	5177
2026-01-15 10:44:13.91	302.05	40.15	-41.6	-44.7	11.1	1.25e-03	0	61	0	1010827264	54	5257
2026-01-15 10:44:14.92	302.40	39.97	-41.7	-44.9	11.0	1.81e-03	0	61	0	1013972992	54	5373
2026-01-15 10:44:15.93	302.75	39.80	-41.7	-44.9	10.9	2.10e-03	0	61	0	1017118720	54	5382
2026-01-15 10:44:16.95	303.10	39.62	-41.7	-44.7	11.1	1.58e-03	0	61	0	1020264448	54	5267
2026-01-15 10:44:17.96	303.45	39.45	-41.6	-44.6	11.2	1.43e-03	0	60	0	1023410176	54	5211
2026-01-15 10:44:18.96	303.78	39.27	-41.5	-44.6	11.3	1.06e-03	0	61	0	1026555904	54	5166
2026-01-15 10:44:19.98	304.12	39.10	-41.7	-44.8	11.1	1.30e-03	0	61	0	1029701632	54	5293
2026-01-15 10:44:20.98	304.45	38.92	-41.7	-44.8	11.1	1.51e-03	0	61	0	1032847360	54	5310
2026-01-15 10:44:22.00	304.78	38.75	-41.8	-45.0	10.9	2.18e-03	0	61	0	1035993088	54	5453
2026-01-15 10:44:23.00	305.11	38.57	-41.9	-45.2	10.7	2.85e-03	0	61	0	1039138816	54	5556
2026-01-15 10:44:24.02	305.43	38.39	-41.8	-45.1	10.8	2.58e-03	0	61	0	1042284544	54	5499
2026-01-15 10:44:25.03	305.75	38.22	-41.8	-45.0	10.9	2.13e-03	0	61	0	1045430272	54	5421
2026-01-15 10:44:26.04	306.07	38.04	-41.7	-44.8	11.2	1.50e-03	0	61	0	1048576000	54	5292
2026-01-15 10:44:27.05	306.38	37.87	-41.3	-44.1	11.8	6.25e-04	0	61	0	1051721728	54	4905
2026-01-15 10:44:28.05	306.69	37.69	-40.8	-43.4	12.5	1.66e-04	0	61	0	1054867456	53	4813
2026-01-15 10:44:29.06	306.99	37.52	-40.7	-43.2	12.6	1.06e-04	0	61	0	1058013184	53	4699
2026-01-15 10:44:30.07	307.29	37.34	-40.8	-43.5	12.5	1.15e-04	0	60	0	1061158912	53	4815
2026-01-15 10:44:31.08	307.59	37.16	-40.8	-43.5	12.5	1.32e-04	0	61	0	1064304640	53	4817
2026-01-15 10:44:32.09	307.89	36.99	-40.9	-43.5	12.4	1.37e-04	0	61	0	1067450368	53	4842
2026-01-15 10:44:33.10	308.18	36.81	-40.8	-43.4	12.5	1.21e-04	0	61	0	1070596096	53	4786
2026-01-15 10:44:34.11	308.47	36.64	-40.9	-43.5	12.4	1.45e-04	0	61	0	1073741824	53	4830
2026-01-15 10:44:35.12	308.76	36.46	-40.8	-43.4	12.5	1.10e-04	0	61	0	1076887552	53	4784
2026-01-15 10:44:36.13	309.04	36.29	-40.8	-43.4	12.6	1.23e-04	0	61	0	1080033280	53	4767
2026-01-15 10:44:37.14	309.32	36.11	-40.8	-43.5	12.5	1.25e-04	0	61	0	1083179008	53	4818
2026-01-15 10:44:38.15	309.60	35.94	-40.9	-43.6	12.3	1.75e-04	0	61	0	1086324736	53	4899
2026-01-15 10:44:39.16	309.88	35.76	-40.9	-43.6	12.3	1.96e-04	0	61	0	1089470464	53	4912
2026-01-15 10:44:40.17	310.15	35.59	-40.7	-43.2	12.7	1.05e-04	0	61	0	1092616192	53	4696
2026-01-15 10:44:41.17	310.41	35.42	-40.7	-43.2	12.7	7.40e-05	0	61	0	1095761920	53	4703
2026-01-15 10:44:42.19	310.68	35.24	-40.7	-43.2	12.7	8.46e-05	0	61	0	1098907648	53	4698
2026-01-15 10:44:43.20	310.95	35.07	-40.7	-43.2	12.7	5.72e-05	0	61	0	1102053376	53	4689
2026-01-15 10:44:44.20	311.20	34.90	-40.7	-43.3	12.6	8.46e-05	0	61	0	1105199104	53	4733
2026-01-15 10:44:45.21	311.46	34.73	-40.8	-43.4	12.5	1.09e-04	0	61	0	1108344832	53	4796
2026-01-15 10:44:46.22	311.72	34.55	-41.0	-43.7	12.2	2.01e-04	0	61	0	1111490560	53	4938
2026-01-15 10:44:47.23	311.97	34.38	-41.1	-43.8	12.0	2.88e-04	0	61	0	1114636288	53	5029
2026-01-15 10:44:48.24	312.22	34.21	-41.1	-43.9	11.9	4.03e-04	0	61	0	1117782016	53	5092
2026-01-15 10:44:49.25	312.47	34.04	-41.0	-43.8	12.1	2.94e-04	0	60	0	1120927744	53	5001
2026-01-15 10:44:50.26	312.71	33.87	-40.9	-43.6	12.2	2.10e-04	0	61	0	1124073472	53	4909
2026-01-15 10:44:51.27	312.96	33.70	-40.9	-43.6	12.3	2.01e-04	0	61	0	1127219200	53	4877
2026-01-15 10:44:52.28	313.20	33.53	-40.9	-43.6	12.3	2.06e-04	0	61	0	1130364928	53	4875
2026-01-15 10:44:53.29	313.43	33.36	-40.8	-43.5	12.4	1.46e-04	0	61	0	1133510656	53	4821
2026-01-15 10:44:54.29	313.67	33.19	-40.9	-43.6	12.2	1.97e-04	0	60	0	1136656384	53	4900
2026-01-15 10:44:55.30	313.90	33.02	-41.0	-43.7	12.1	2.38e-04	0	61	0	1139802112	53	4959
2026-01-15 10:44:56.31	314.13	32.85	-40.9	-43.7	12.2	2.32e-04	0	61	0	1142947840	53	4957
2026-01-15 10:44:57.32	314.36	32.68	-41.0	-43.7	12.1	2.50e-04	0	61	0	1146093568	53	4978
2026-01-15 10:44:58.33	314.58	32.52	-40.8	-43.5	12.4	1.72e-04	0	61	0	1149239296	53	4843
2026-01-15 10:44:59.34	314.81	32.35	-40.8	-43.4	12.5	1.23e-04	0	61	0	1152385024	53	4782
2026-01-15 10:45:00.35	315.03	32.18	-40.7	-43.3	12.5	1.09e-04	0	61	0	1155530752	53	4741
2026-01-15 10:45:01.35	315.25	32.02	-40.5	-43.0	12.9	6.71e-05	0	61	0	1158676480	53	4580
2026-01-15 10:45:02.36	315.46	31.85	-40.5	-43.0	12.9	4.95e-05	0	60	0	1161822208	53	4574
2026-01-15 10:45:03.37	315.68	31.69	-40.6	-43.1	12.8	5.41e-05	0	61	0	1164967936	53	4605
2026-01-15 10:45:04.37	315.89	31.52	-40.5	-43.0	12.9	5.95e-05	0	61	0	1168113664	53	4554
2026-01-15 10:45:05.38	316.10	31.36	-40.4	-42.9	13.0	4.04e-05	0	61	0	1171259392	52	4774
2026-01-15 10:45:06.39	316.31	31.20	-40.3	-42.8	13.1	3.58e-05	0	61	0	1174405120	52	4719
2026-01-15 10:45:07.40	316.51	31.03	-40.3	-42.7	13.1	3.28e-05	0	61	0	1177550848	52	4672
2026-01-15 10:45:08.41	316.72	30.87	-40.2	-42.5	13.3	2.13e-05	0	61	0	1180696576	52	4577
2026-01-15 10:45:09.42	316.92	30.71	-40.2	-42.5	13.4	1.67e-05	0	61	0	1183842304	52	4560
2026-01-15 10:45:10.42	317.12	30.55	-40.2	-42.6	13.2	1.67e-05	0	61	0	1186988032	52	4628
2026-01-15 10:45:11.43	317.32	30.39	-40.3	-42.7	13.1	3.20e-05	0	61	0	1190133760	52	4704
2026-01-15 10:45:12.44	317.52	30.23	-40.3	-42.8	13.1	2.74e-05	0	61	0	1193279488	52	4720
2026-01-15 10:45:13.45	317.71	30.07	-40.3	-42.7	13.1	2.89e-05	0	60	0	1196425216	52	4699
2026-01-15 10:45:14.46	317.90	29.91	-40.4	-42.8	13.0	2.74e-05	0	61	0	1199570944	52	4743
2026-01-15 10:45:15.47	318.09	29.75	-40.4	-42.9	12.9	5.11e-05	0	61	0	1202716672	52	4798
2026-01-15 10:45:16.48	318.28	29.59	-40.4	-42.9	13.0	4.19e-05	0	61	0	1205862400	52	4770
2026-01-15 10:45:17.49	318.47	29.43	-40.3	-42.8	13.1	2.89e-05	0	61	0	1209008128	52	4714
2026-01-15 10:45:18.50	318.66	29.28	-40.3	-42.7	13.1	4.04e-05	0	61	0	1212153856	52	4693
2026-01-15 10:45:19.51	318.84	29.12	-40.2	-42.6	13.2	2.74e-05	0	61	0	1215299584	52	4637
2026-01-15 10:45:20.52	319.02	28.96	-40.2	-42.5	13.3	1.83e-05	0	61	0	1218445312	52	4575
2026-01-15 10:45:21.53	319.20	28.81	-40.2	-42.5	13.3	1.98e-05	0	60	0	1221591040	52	4589
2026-01-15 10:45:22.53	319.38	28.65	-40.2	-42.6	13.2	2.36e-05	0	61	0	1224736768	52	4610
2026-01-15 10:45:23.54	319.56	28.50	-40.2	-42.6	13.2	3.05e-05	0	61	0	1227882496	52	4628
2026-01-15 10:45:24.55	319.73	28.35	-40.3	-42.7	13.1	2.05e-05	0	61	0	1231028224	52	4698
2026-01-15 10:45:25.56	319.91	28.19	-40.4	-42.9	12.9	4.65e-05	0	61	0	1234173952	52	4778
2026-01-15 10:45:26.57	320.08	28.04	-40.4	-42.8	13.0	5.34e-05	0	61	0	1237319680	52	4736
2026-01-15 10:45:27.58	320.25	27.89	-40.2	-42.6	13.2	3.05e-05	0	61	0	1240465408	52	4625
2026-01-15 10:45:28.59	320.42	27.74	-40.1	-42.5	13.3	1.75e-05	0	61	0	1243611136	52	4570
2026-01-15 10:45:29.60	320.58	27.59	-40.1	-42.4	13.4	1.37e-05	0	61	0	1246756864	52	4538
2026-01-15 10:45:30.61	320.75	27.44	-40.0	-42.3	13.6	1.14e-05	0	61	0	1249902592	52	4451
2026-01-15 10:45:31.62	320.91	27.29	-39.9	-42.1	13.8	5.30e-06	0	60	0	1253048320	51	4632
2026-01-15 10:45:32.63	321.08	27.14	-39.9	-42.2	13.8	3.00e-06	0	61	0	1256194048	51	4652
2026-01-15 10:45:33.63	321.24	26.99	-40.0	-42.2	13.7	6.10e-06	0	61	0	1259339776	51	4674
2026-01-15 10:45:34.64	321.40	26.84	-40.0	-42.3	13.6	6.80e-06	0	61	0	1262485504	51	4726
2026-01-15 10:45:35.65	321.56	26.70	-40.1	-42.4	13.4	1.14e-05	0	61	0	1265631232	51	4809
2026-01-15 10:45:36.65	321.71	26.55	-40.2	-42.6	13.3	1.22e-05	0	61	0	1268776960	51	4902
2026-01-15 10:45:37.66	321.87	26.40	-40.1	-42.5	13.4	7.60e-06	0	61	0	1271922688	51	4844
2026-01-15 10:45:38.67	322.02	26.26	-40.1	-42.5	13.4	8.30e-06	0	61	0	1275068416	51	4830
2026-01-15 10:45:39.68	322.17	26.11	-40.2	-42.5	13.4	7.60e-06	0	60	0	1278214144	51	4847
2026-01-15 10:45:40.69	322.33	25.97	-40.2	-42.5	13.3	1.83e-05	0	61	0	1281359872	51	4850
2026-01-15 10:45:41.69	322.47	25.83	-40.0	-42.3	13.6	9.10e-06	0	61	0	1284505600	51	4726
2026-01-15 10:45:42.70	322.62	25.68	-39.9	-42.2	13.7	5.30e-06	0	61	0	1287651328	51	4660
2026-01-15 10:45:43.71	322.77	25.54	-39.9	-42.1	13.7	9.90e-06	0	61	0	1290797056	51	4648
2026-01-15 10:45:44.72	322.92	25.40	-39.9	-42.2	13.7	3.80e-06	0	61	0	1293942784	51	4664
2026-01-15 10:45:45.73	323.06	25.26	-39.7	-41.8	14.0	2.20e-06	0	61	0	1297088512	51	4475
2026-01-15 10:45:46.74	323.21	25.12	-39.6	-41.8	14.1	1.50e-06	0	61	0	1300234240	51	4456
2026-01-15 10:45:47.75	323.35	24.98	-39.7	-41.8	14.0	4.50e-06	0	61	0	1303379968	51	4479
2026-01-15 10:45:48.76	323.49	24.84	-39.7	-41.8	14.0	2.20e-06	0	61	0	1306525696	51	4493
2026-01-15 10:45:49.76	323.63	24.70	-39.8	-42.0	13.8	6.10e-06	0	61	0	1309671424	51	4564
2026-01-15 10:45:50.77	323.77	24.56	-39.8	-42.0	13.7	5.30e-06	0	60	0	1312817152	51	4588
2026-01-15 10:45:51.78	323.91	24.42	-39.7	-41.9	13.8	5.30e-06	0	60	0	1315962880	51	4526
2026-01-15 10:45:52.79	324.04	24.28	-39.7	-41.9	13.9	2.20e-06	0	61	0	1319108608	51	4516
2026-01-15 10:45:53.80	324.18	24.15	-39.8	-42.0	13.8	9.10e-06	0	61	0	1322254336	51	4568
2026-01-15 10:45:54.81	324.31	24.01	-39.8	-42.0	13.8	7.60e-06	0	61	0	1325400064	51	4592
2026-01-15 10:45:55.82	324.45	23.87	-39.9	-42.2	13.6	6.80e-06	0	61	0	1328545792	51	4661
2026-01-15 10:45:56.83	324.58	23.74	-39.9	-42.1	13.7	7.60e-06	0	61	0	1331691520	51	4630
2026-01-15 10:45:57.84	324.71	23.60	-39.8	-42.0	13.8	8.30e-06	0	61	0	1334837248	51	4594
2026-01-15 10:45:58.85	324.84	23.47	-39.9	-42.1	13.7	4.50e-06	0	61	0	1337982976	51	4608
2026-01-15 10:45:59.86	324.97	23.34	-39.9	-42.2	13.6	1.06e-05	0	61	0	1341128704	51	4656
2026-01-15 10:46:00.86	325.10	23.20	-39.9	-42.2	13.6	9.90e-06	0	61	0	1344274432	51	4669
2026-01-15 10:46:01.88	325.22	23.07	-39.9	-42.1	13.7	9.10e-06	0	61	0	1348468736	51	4618
2026-01-15 10:46:02.89	325.35	22.94	-39.9	-42.1	13.6	9.10e-06	0	61	0	1350565888	51	4628
2026-01-15 10:46:03.90	325.47	22.81	-39.9	-42.2	13.5	7.60e-06	0	61	0	1353711616	51	4683
2026-01-15 10:46:04.91	325.60	22.68	-40.0	-42.3	13.4	9.10e-06	0	61	0	1356857344	51	4747
2026-01-15 10:46:05.92	325.72	22.54	-40.0	-42.4	13.3	1.44e-05	0	61	0	1360003072	51	4762
2026-01-15 10:46:06.93	325.84	22.42	-40.0	-42.3	13.4	1.14e-05	0	61	0	1364197376	51	4726
2026-01-15 10:46:07.94	325.96	22.29	-40.0	-42.3	13.4	1.90e-05	0	61	0	1367343104	51	4748
2026-01-15 10:46:08.95	326.08	22.16	-40.1	-42.4	13.2	1.44e-05	0	61	0	1370488832	51	4814
2026-01-15 10:46:09.96	326.20	22.03	-40.2	-42.5	13.2	2.67e-05	0	61	0	1373634560	51	4869
2026-01-15 10:46:10.97	326.32	21.90	-40.1	-42.5	13.2	1.98e-05	0	61	0	1375731712	51	4848
2026-01-15 10:46:11.98	326.44	21.77	-40.1	-42.5	13.2	1.67e-05	0	61	0	1379926016	51	4827
2026-01-15 10:46:12.99	326.55	21.65	-40.2	-42.6	13.0	3.81e-05	0	61	0	1383071744	51	4920
2026-01-15 10:46:14.00	326.67	21.52	-40.2	-42.6	13.1	3.58e-05	0	61	0	1386217472	51	4903
2026-01-15 10:46:15.01	326.78	21.40	-40.3	-42.7	13.0	2.67e-05	0	61	0	1389363200	51	4951
2026-01-15 10:46:16.02	326.90	21.27	-40.3	-42.8	12.9	3.05e-05	0	61	0	1392508928	51	5020
2026-01-15 10:46:17.03	327.01	21.15	-40.4	-42.8	12.9	4.73e-05	0	61	0	1395654656	51	5040
2026-01-15 10:46:18.04	327.12	21.02	-40.3	-42.8	12.9	4.42e-05	0	61	0	1398800384	51	5022
2026-01-15 10:46:19.05	327.23	20.90	-40.3	-42.8	12.9	4.19e-05	0	61	0	1401946112	51	5028
2026-01-15 10:46:20.06	327.34	20.77	-40.4	-42.9	12.8	5.95e-05	0	60	0	1405091840	51	5057
2026-01-15 10:46:21.07	327.45	20.65	-40.4	-42.9	12.8	5.56e-05	0	61	0	1408237568	51	5096
2026-01-15 10:46:22.08	327.56	20.53	-40.4	-42.9	12.8	7.78e-05	0	61	0	1411383296	51	5095
2026-01-15 10:46:23.09	327.67	20.41	-40.5	-43.0	12.7	6.48e-05	0	60	0	1414529024	51	5148
2026-01-15 10:46:24.10	327.77	20.29	-40.4	-42.9	12.8	6.48e-05	0	61	0	1417674752	51	5093
2026-01-15 10:46:25.11	327.88	20.17	-40.3	-42.8	12.9	5.03e-05	0	61	0	1420820480	51	5039
2026-01-15 10:46:26.12	327.98	20.05	-40.2	-42.7	13.0	4.65e-05	0	61	0	1423966208	51	4936
2026-01-15 10:46:27.13	328.09	19.93	-40.2	-42.6	13.1	2.97e-05	0	60	0	1427111936	51	4910
2026-01-15 10:46:28.14	328.19	19.81	-40.2	-42.6	13.1	2.97e-05	0	60	0	1430257664	51	4904
2026-01-15 10:46:29.15	328.29	19.69	-40.1	-42.6	13.1	3.66e-05	0	61	0	1433403392	51	4871
2026-01-15 10:46:30.16	328.40	19.57	-40.1	-42.5	13.1	2.97e-05	0	61	0	1436549120	51	4845
2026-01-15 10:46:31.17	328.50	19.45	-40.2	-42.6	13.0	3.12e-05	0	61	0	1439694848	51	4910
2026-01-15 10:46:32.18	328.60	19.34	-40.2	-42.6	13.0	4.19e-05	0	61	0	1442840576	51	4925
2026-01-15 10:46:33.19	328.70	19.22	-40.1	-42.6	13.1	2.67e-05	0	61	0	1445986304	51	4875
2026-01-15 10:46:34.20	328.80	19.10	-40.0	-42.4	13.2	3.05e-05	0	61	0	1449132032	51	4793
2026-01-15 10:46:35.21	328.89	18.99	-40.1	-42.5	13.1	3.12e-05	0	61	0	1452277760	51	4857
2026-01-15 10:46:36.22	328.99	18.87	-40.0	-42.4	13.1	3.89e-05	0	60	0	1455423488	51	4803
2026-01-15 10:46:37.23	329.09	18.76	-39.9	-42.3	13.3	1.22e-05	0	60	0	1458569216	51	4729
2026-01-15 10:46:38.24	329.18	18.64	-40.0	-42.3	13.2	1.83e-05	0	61	0	1461714944	51	4744
2026-01-15 10:46:39.25	329.28	18.53	-40.0	-42.4	13.1	1.75e-05	0	60	0	1464860672	51	4803
2026-01-15 10:46:40.26	329.38	18.41	-40.1	-42.5	13.1	1.67e-05	0	61	0	1468006400	51	4831
2026-01-15 10:46:41.27	329.47	18.30	-40.0	-42.4	13.2	1.52e-05	0	60	0	1471152128	51	4765
2026-01-15 10:46:42.28	329.56	18.19	-40.0	-42.4	13.2	1.83e-05	0	61	0	1474297856	51	4760
2026-01-15 10:46:43.29	329.66	18.08	-39.9	-42.2	13.4	2.21e-05	0	60	0	1477443584	51	4663
2026-01-15 10:46:44.30	329.75	17.97	-39.8	-42.1	13.4	1.14e-05	0	60	0	1480589312	51	4650
2026-01-15 10:46:45.31	329.84	17.85	-39.8	-42.1	13.4	1.44e-05	0	60	0	1483735040	51	4640
2026-01-15 10:46:46.32	329.93	17.74	-39.9	-42.2	13.4	1.67e-05	0	61	0	1486880768	51	4668
2026-01-15 10:46:47.33	330.02	17.63	-39.9	-42.2	13.3	1.37e-05	0	60	0	1490026496	51	4694
2026-01-15 10:46:48.34	330.11	17.52	-40.0	-42.4	13.2	2.51e-05	0	61	0	1493172224	51	4781
2026-01-15 10:46:49.35	330.20	17.41	-40.1	-42.6	13.0	3.12e-05	0	61	0	1496317952	51	4882
2026-01-15 10:46:50.36	330.29	17.30	-40.2	-42.7	12.9	4.57e-05	0	61	0	1499463680	51	4945
2026-01-15 10:46:51.37	330.38	17.20	-40.3	-42.8	12.7	6.56e-05	0	61	0	1502609408	51	5019
2026-01-15 10:46:52.38	330.46	17.09	-40.3	-42.8	12.8	6.40e-05	0	61	0	1505755136	51	5008
2026-01-15 10:46:53.39	330.55	16.98	-40.3	-42.9	12.7	9.15e-05	0	60	0	1508900864	51	5061
2026-01-15 10:46:54.40	330.64	16.87	-40.4	-43.0	12.5	1.26e-04	0	61	0	1512046592	51	5145
2026-01-15 10:46:55.41	330.72	16.76	-40.5	-43.2	12.3	1.38e-04	0	60	0	1515192320	51	5260
2026-01-15 10:46:56.42	330.81	16.66	-40.6	-43.3	12.2	2.33e-04	0	61	0	1518338048	51	5311
2026-01-15 10:46:57.43	330.89	16.55	-40.6	-43.3	12.2	2.59e-04	0	61	0	1521483776	51	5316
2026-01-15 10:46:58.44	330.97	16.45	-40.6	-43.3	12.1	2.40e-04	0	61	0	1524629504	51	5329
2026-01-15 10:46:59.45	331.06	16.34	-40.6	-43.4	12.1	2.67e-04	0	61	0	1527775232	51	5365
2026-01-15 10:47:00.46	331.14	16.24	-40.7	-43.5	12.0	3.64e-04	0	61	0	1530920960	51	5412
2026-01-15 10:47:01.47	331.22	16.13	-40.6	-43.5	11.9	4.31e-04	0	61	0	1534066688	52	5112
2026-01-15 10:47:02.48	331.30	16.03	-40.6	-43.5	11.9	4.17e-04	0	61	0	1537212416	52	5113
2026-01-15 10:47:03.49	331.38	15.92	-40.7	-43.5	11.8	5.03e-04	0	61	0	1540358144	52	5159
2026-01-15 10:47:04.50	331.47	15.82	-40.6	-43.4	11.9	4.07e-04	0	60	0	1543503872	52	5087
2026-01-15 10:47:05.51	331.54	15.72	-40.6	-43.4	11.9	4.52e-04	0	60	0	1546649600	52	5090
2026-01-15 10:47:06.52	331.62	15.61	-40.5	-43.3	12.0	3.62e-04	0	61	0	1549795328	52	5021
2026-01-15 10:47:07.53	331.70	15.51	-40.5	-43.3	12.0	3.03e-04	0	61	0	1552941056	52	4996
2026-01-15 10:47:08.54	331.78	15.41	-40.5	-43.3	12.0	3.07e-04	0	61	0	1556086784	52	4996
2026-01-15 10:47:09.55	331.86	15.31	-40.5	-43.4	11.9	4.60e-04	0	61	0	1559232512	52	5066
2026-01-15 10:47:10.56	331.94	15.21	-40.5	-43.3	11.9	3.40e-04	0	61	0	1562378240	52	5000
2026-01-15 10:47:11.57	332.01	15.11	-40.4	-43.2	12.0	3.52e-04	0	61	0	1565523968	52	4954
2026-01-15 10:47:12.58	332.09	15.01	-40.5	-43.3	11.9	3.85e-04	0	61	0	1568669696	52	5007
2026-01-15 10:47:13.59	332.17	14.91	-40.6	-43.5	11.7	5.32e-04	0	61	0	1571815424	52	5122
2026-01-15 10:47:14.60	332.24	14.81	-40.6	-43.5	11.7	5.80e-04	0	61	0	1574961152	52	5104
2026-01-15 10:47:15.61	332.32	14.71	-40.6	-43.5	11.7	6.35e-04	0	61	0	1578106880	52	5118
2026-01-15 10:47:16.62	332.39	14.61	-40.5	-43.4	11.7	5.48e-04	0	61	0	1581252608	52	5079
2026-01-15 10:47:17.63	332.47	14.51	-40.6	-43.5	11.7	5.61e-04	0	61	0	1584398336	52	5121
2026-01-15 10:47:18.64	332.54	14.41	-40.7	-43.6	11.5	7.35e-04	0	60	0	1587544064	52	5202
2026-01-15 10:47:19.65	332.61	14.31	-40.7	-43.6	11.5	8.32e-04	0	61	0	1590689792	52	5203
2026-01-15 10:47:20.65	332.68	14.22	-40.5	-43.4	11.7	5.96e-04	0	61	0	1593835520	52	5082
2026-01-15 10:47:21.66	332.76	14.12	-40.6	-43.5	11.7	5.80e-04	0	61	0	1596981248	52	5127
2026-01-15 10:47:22.67	332.83	14.02	-40.6	-43.6	11.6	6.33e-04	0	61	0	1600126976	52	5165
2026-01-15 10:47:23.68	332.90	13.93	-40.6	-43.5	11.6	6.58e-04	0	60	0	1603272704	52	5130
2026-01-15 10:47:24.69	332.97	13.83	-40.6	-43.6	11.6	6.11e-04	0	61	0	1606418432	52	5170
2026-01-15 10:47:25.70	333.04	13.74	-40.6	-43.6	11.5	9.51e-04	0	61	0	1609564160	52	5175
2026-01-15 10:47:26.70	333.11	13.64	-40.4	-43.3	11.9	5.00e-04	0	61	0	1612709888	52	4997
2026-01-15 10:47:27.71	333.18	13.55	-40.4	-43.2	12.0	3.55e-04	0	61	0	1615855616	52	4941
2026-01-15 10:47:28.72	333.25	13.45	-40.4	-43.2	11.9	4.18e-04	0	61	0	1619001344	52	4969
2026-01-15 10:47:29.73	333.32	13.36	-40.4	-43.3	11.9	4.45e-04	0	60	0	1622147072	52	4989
2026-01-15 10:47:30.74	333.39	13.26	-40.3	-43.2	11.9	4.13e-04	0	61	0	1625292800	52	4930
2026-01-15 10:47:31.75	333.46	13.17	-40.4	-43.2	11.9	3.68e-04	0	60	0	1628438528	52	4936
2026-01-15 10:47:32.76	333.52	13.08	-40.5	-43.3	11.7	5.00e-04	0	61	0	1631584256	52	5039
2026-01-15 10:47:33.77	333.59	12.98	-40.5	-43.5	11.6	6.72e-04	0	61	0	1634729984	52	5105
2026-01-15 10:47:34.78	333.66	12.89	-40.5	-43.5	11.6	7.49e-04	0	61	0	1637875712	52	5104
2026-01-15 10:47:35.79	333.72	12.80	-40.6	-43.5	11.5	7.74e-04	0	61	0	1641021440	52	5157
2026-01-15 10:47:36.80	333.79	12.71	-40.6	-43.6	11.4	9.15e-04	0	61	0	1644167168	52	5200
2026-01-15 10:47:37.81	333.86	12.61	-40.7	-43.8	11.2	1.08e-03	0	61	0	1647312896	52	5298
2026-01-15 10:47:38.82	333.92	12.52	-40.7	-43.8	11.2	1.32e-03	0	61	0	1650458624	52	5292
2026-01-15 10:47:39.82	333.99	12.43	-40.6	-43.7	11.3	1.31e-03	0	61	0	1653604352	52	5265
2026-01-15 10:47:40.83	334.05	12.34	-40.6	-43.7	11.2	1.21e-03	0	61	0	1656750080	52	5252
2026-01-15 10:47:41.84	334.11	12.25	-40.7	-43.8	11.1	1.40e-03	0	60	0	1659895808	52	5314
2026-01-15 10:47:42.85	334.18	12.16	-40.7	-43.9	11.1	1.67e-03	0	61	0	1663041536	52	5381
2026-01-15 10:47:43.86	334.24	12.07	-40.8	-43.9	11.0	1.93e-03	0	61	0	1666187264	52	5385
2026-01-15 10:47:44.87	334.30	11.98	-40.7	-43.9	11.1	1.65e-03	0	61	0	1669332992	52	5354
2026-01-15 10:47:45.88	334.37	11.89	-40.7	-43.9	11.0	1.78e-03	0	60	0	1672478720	52	5373
2026-01-15 10:47:46.89	334.43	11.80	-40.7	-43.9	11.0	2.01e-03	0	61	0	1675624448	52	5393
2026-01-15 10:47:47.90	334.49	11.71	-40.7	-43.9	11.0	1.95e-03	0	61	0	1678770176	52	5363
2026-01-15 10:47:48.91	334.55	11.63	-40.6	-43.7	11.1	1.56e-03	0	61	0	1681915904	52	5273
2026-01-15 10:47:49.92	334.62	11.54	-40.6	-43.8	11.1	1.55e-03	0	60	0	1686110208	52	5282
2026-01-15 10:47:50.93	334.68	11.45	-40.7	-43.9	11.0	1.82e-03	0	61	0	1689255936	52	5362
2026-01-15 10:47:51.94	334.74	11.36	-40.7	-43.9	11.0	1.88e-03	0	61	0	1691353088	52	5351
2026-01-15 10:47:52.95	334.80	11.27	-40.7	-43.8	11.0	1.97e-03	0	61	0	1694498816	52	5328
2026-01-15 10:47:53.96	334.86	11.19	-40.7	-43.9	11.0	1.82e-03	0	61	0	1697644544	52	5346
2026-01-15 10:47:54.97	334.92	11.10	-40.6	-43.7	11.1	1.61e-03	0	61	0	1700790272	52	5244
2026-01-15 10:47:55.98	334.98	11.01	-40.6	-43.8	11.0	1.82e-03	0	61	0	1704984576	52	5301
2026-01-15 10:47:56.99	335.04	10.93	-40.7	-44.0	10.8	2.47e-03	0	61	0	1708130304	52	5403
2026-01-15 10:47:58.00	335.09	10.84	-40.7	-44.0	10.7	3.17e-03	0	61	0	1711276032	52	5461
2026-01-15 10:47:59.01	335.15	10.76	-40.6	-43.9	10.8	2.87e-03	0	61	0	1713373184	52	5356
2026-01-15 10:48:00.02	335.21	10.67	-40.6	-43.9	10.7	2.72e-03	0	61	0	1716518912	52	5381
2026-01-15 10:48:01.03	335.27	10.59	-40.6	-43.9	10.7	2.79e-03	0	61	0	1720713216	52	5357
2026-01-15 10:48:02.04	335.33	10.50	-40.6	-43.9	10.7	2.79e-03	0	61	0	1723858944	52	5367
2026-01-15 10:48:03.05	335.38	10.42	-40.7	-44.0	10.5	3.40e-03	0	61	0	1727004672	52	5458
2026-01-15 10:48:04.06	335.44	10.33	-40.7	-44.1	10.5	4.14e-03	0	61	0	1730150400	52	5503
2026-01-15 10:48:05.06	335.50	10.25	-40.7	-44.2	10.3	4.76e-03	0	61	0	1733296128	52	5553
2026-01-15 10:48:06.07	335.55	10.17	-40.7	-44.1	10.4	4.88e-03	0	61	0	1736441856	52	5511
2026-01-15 10:48:07.08	335.61	10.08	-40.6	-44.0	10.5	4.18e-03	0	61	0	1739587584	52	5438
2026-01-15 10:48:08.09	335.66	10.00	-40.7	-44.1	10.4	4.43e-03	0	60	0	1742733312	52	5482
2026-01-15 10:48:09.10	335.72	9.92	-40.7	-44.2	10.3	5.49e-03	0	61	0	1745879040	52	5549
2026-01-15 10:48:10.11	335.78	9.83	-40.8	-44.3	10.1	6.87e-03	0	61	0	1749024768	52	5655
2026-01-15 10:48:11.12	335.83	9.75	-40.7	-44.3	10.1	7.06e-03	0	61	0	1752170496	52	5621
2026-01-15 10:48:12.13	335.88	9.67	-40.7	-44.3	10.1	6.27e-03	0	61	0	1755316224	52	5597
2026-01-15 10:48:13.13	335.94	9.59	-40.6	-44.1	10.3	6.03e-03	0	61	0	1758461952	52	5498
2026-01-15 10:48:14.15	335.99	9.51	-40.7	-44.2	10.2	5.70e-03	0	61	0	1761607680	52	5544
2026-01-15 10:48:15.15	336.05	9.42	-40.6	-44.1	10.2	6.03e-03	0	61	0	1764753408	52	5528
2026-01-15 10:48:16.16	336.10	9.34	-40.6	-44.1	10.2	5.90e-03	0	61	0	1767899136	52	5527
2026-01-15 10:48:17.17	336.15	9.26	-40.7	-44.3	10.0	6.72e-03	0	61	0	1771044864	52	5602
2026-01-15 10:48:18.18	336.21	9.18	-40.7	-44.4	9.9	8.51e-03	0	61	0	1774190592	52	5665
2026-01-15 10:48:19.19	336.26	9.10	-40.8	-44.4	9.8	9.56e-03	0	61	0	1777336320	52	5711
2026-01-15 10:48:20.20	336.31	9.02	-40.7	-44.4	9.8	9.67e-03	0	61	0	1780482048	52	5684
2026-01-15 10:48:21.21	336.36	8.94	-40.8	-44.5	9.7	1.08e-02	0	61	0	1783627776	52	5733
2026-01-15 10:48:22.22	336.41	8.86	-40.8	-44.6	9.5	1.40e-02	0	61	0	1786773504	52	5833
2026-01-15 10:48:23.23	336.47	8.78	-40.8	-44.6	9.5	1.46e-02	0	61	0	1789919232	52	5803
2026-01-15 10:48:24.24	336.52	8.70	-40.7	-44.4	9.8	1.07e-02	0	61	0	1793064960	52	5689
2026-01-15 10:48:25.25	336.57	8.62	-40.6	-44.2	9.9	8.63e-03	0	61	0	1796210688	52	5581
2026-01-15 10:48:26.26	336.62	8.54	-40.7	-44.3	9.8	1.04e-02	0	61	0	1799356416	52	5656
2026-01-15 10:48:27.27	336.67	8.47	-40.7	-44.4	9.7	1.13e-02	0	61	0	1802502144	52	5719
2026-01-15 10:48:28.28	336.72	8.39	-40.7	-44.5	9.6	1.21e-02	0	61	0	1805647872	52	5752
2026-01-15 10:48:29.29	336.77	8.31	-40.8	-44.6	9.5	1.45e-02	0	61	0	1808793600	52	5828
2026-01-15 10:48:30.30	336.82	8.23	-40.8	-44.8	9.3	1.81e-02	0	61	0	1811939328	52	5934
2026-01-15 10:48:31.31	336.87	8.15	-40.9	-44.8	9.1	2.13e-02	0	61	0	1815085056	52	5988
2026-01-15 10:48:32.31	336.92	8.08	-40.9	-44.9	9.1	2.30e-02	0	61	0	1818230784	52	6026
2026-01-15 10:48:33.32	336.97	8.00	-41.0	-45.2	8.8	2.71e-02	0	61	0	1821376512	52	6271
2026-01-15 10:48:34.33	337.02	7.92	-44.1	-55.2	3.8	1.49e+00	0	61	104	1821376512	58	13997
2026-01-15 10:48:35.34	337.07	7.85	-44.7	-56.7	3.8	1.49e+00	0	61	104	1821376512	59	15686
2026-01-15 10:48:36.35	337.11	7.77	-44.9	-57.1	3.8	1.49e+00	0	61	104	1821376512	60	15540
2026-01-15 10:48:37.36	337.16	7.69	-45.0	-57.3	3.8	1.49e+00	0	61	104	1821376512	60	15878
2026-01-15 10:48:38.37	337.21	7.62	-45.2	-57.5	3.8	1.49e+00	0	61	104	1821376512	60	16171
2026-01-15 10:48:39.38	337.26	7.54	-45.2	-57.5	3.8	1.49e+00	0	61	104	1821376512	61	15367
2026-01-15 10:48:40.39	337.31	7.47	-45.3	-57.6	3.8	1.49e+00	0	61	104	1821376512	61	15499
2026-01-15 10:48:41.40	337.35	7.39	-45.3	-57.6	3.8	1.49e+00	0	61	104	1821376512	61	15558
2026-01-15 10:48:42.41	337.40	7.32	-45.4	-57.6	3.8	1.49e+00	0	61	104	1821376512	61	15561
2026-01-15 10:48:43.42	337.45	7.24	-44.1	-57.4	3.8	1.49e+00	0	61	104	1821376512	60	16111
2026-01-15 10:48:44.43	337.49	7.17	-45.4	-57.7	3.8	1.49e+00	0	61	104	1821376512	61	15612
2026-01-15 10:48:45.44	337.54	7.09	-45.3	-57.6	3.8	1.49e+00	0	61	104	1821376512	61	15495
2026-01-15 10:48:46.45	337.59	7.02	-45.3	-57.6	3.8	1.49e+00	0	61	104	1821376512	61	15483
2026-01-15 10:48:47.46	337.63	6.94	-45.3	-57.6	3.8	1.49e+00	0	61	104	1821376512	61	15473
2026-01-15 10:48:48.47	337.68	6.87	-45.3	-57.6	3.8	1.49e+00	0	61	104	1821376512	61	15510
2026-01-15 10:48:49.48	337.72	6.79	-45.2	-57.5	3.8	1.49e+00	0	61	104	1821376512	61	15372
2026-01-15 10:48:50.49	337.77	6.72	-45.2	-57.5	3.8	1.49e+00	0	61	104	1821376512	61	15401
2026-01-15 10:48:51.50	337.81	6.65	-45.2	-57.5	3.8	1.49e+00	0	61	104	1821376512	61	15318
2026-01-15 10:48:52.51	337.86	6.57	-45.3	-57.6	3.8	1.49e+00	0	61	104	1821376512	61	15427
2026-01-15 10:48:53.52	337.90	6.50	-45.1	-57.5	3.8	1.49e+00	0	61	104	1821376512	61	15358
2026-01-15 10:48:54.53	337.95	6.43	-45.2	-57.5	3.8	1.49e+00	0	61	104	1821376512	61	15302
2026-01-15 10:48:55.54	337.99	6.36	-45.2	-57.5	3.8	1.49e+00	0	61	104	1821376512	61	15381
2026-01-15 10:48:56.55	338.04	6.28	-45.2	-57.5	3.8	1.49e+00	0	61	104	1821376512	61	15387
2026-01-15 10:48:57.56	338.08	6.21	-45.2	-57.5	3.8	1.49e+00	0	61	104	1821376512	61	15340
2026-01-15 10:48:58.57	338.13	6.14	-45.2	-57.5	3.8	1.49e+00	0	61	104	1821376512	61	15334
2026-01-15 10:48:59.58	338.17	6.07	-45.1	-57.5	3.8	1.49e+00	0	61	104	1821376512	61	15335
2026-01-15 10:49:00.59	338.21	5.99	-45.0	-57.5	3.8	1.49e+00	0	61	104	1821376512	61	15294
2026-01-15 10:49:01.60	338.26	5.92	-45.0	-57.5	3.8	1.49e+00	0	61	104	1821376512	61	15262
2026-01-15 10:49:02.61	338.30	5.85	-45.2	-57.5	3.8	1.49e+00	0	61	104	1821376512	61	15341
2026-01-15 10:49:03.62	338.34	5.78	-45.2	-57.5	3.8	1.49e+00	0	61	104	1821376512	61	15314
2026-01-15 10:49:04.63	338.38	5.71	-45.2	-57.5	3.8	1.49e+00	0	61	104	1821376512	61	15281
2026-01-15 10:49:05.64	338.43	5.64	-45.2	-57.5	3.8	1.49e+00	0	61	104	1821376512	61	15372
2026-01-15 10:49:06.65	338.47	5.57	-45.2	-57.5	3.8	1.49e+00	0	61	104	1821376512	61	15308
2026-01-15 10:49:07.66	338.51	5.50	-45.2	-57.5	3.8	1.49e+00	0	61	104	1821376512	61	15308
2026-01-15 10:49:08.67	338.55	5.43	-45.2	-57.5	3.8	1.49e+00	0	61	104	1821376512	61	15325
2026-01-15 10:49:09.68	338.59	5.36	-45.2	-57.5	3.8	1.49e+00	0	61	104	1821376512	61	15333
2026-01-15 10:49:10.69	338.64	5.29	-45.1	-57.5	3.8	1.49e+00	0	61	104	1821376512	60	16152
2026-01-15 10:49:11.70	338.68	5.22	-45.2	-57.5	3.8	1.49e+00	0	61	104	1821376512	61	15283
2026-01-15 10:49:12.71	338.72	5.15	-45.2	-57.5	3.8	1.49e+00	0	61	104	1821376512	61	15263
2026-01-15 10:49:13.72	338.76	5.08	-45.2	-57.5	3.8	1.49e+00	0	61	104	1821376512	60	16217
2026-01-15 10:49:14.73	338.80	5.01	-45.2	-57.5	3.8	1.49e+00	0	61	104	1821376512	61	15251
2026-01-15 10:49:15.74	338.84	4.94	-45.2	-57.5	3.8	1.49e+00	0	61	104	1821376512	61	15266
2026-01-15 10:49:16.75	338.88	4.87	-45.2	-57.5	3.8	1.49e+00	0	61	104	1821376512	61	15291
2026-01-15 10:49:17.76	338.92	4.80	-45.2	-57.5	3.8	1.49e+00	0	61	104	1821376512	61	15266
2026-01-15 10:49:18.77	338.96	4.73	-45.2	-57.5	3.8	1.49e+00	0	61	104	1821376512	61	15231
2026-01-15 10:49:19.77	339.00	4.67	-44.9	-57.5	3.8	1.49e+00	0	61	104	1821376512	61	15240
2026-01-15 10:49:20.78	339.04	4.60	-45.2	-57.5	3.8	1.49e+00	0	61	104	1821376512	61	15311
2026-01-15 10:49:21.80	339.08	4.53	-45.2	-57.5	3.8	1.49e+00	0	61	104	1821376512	61	15243
2026-01-15 10:49:22.81	339.12	4.46	-45.2	-57.5	3.8	1.49e+00	0	61	104	1821376512	61	15256
2026-01-15 10:49:23.81	339.16	4.39	-45.2	-57.5	3.8	1.49e+00	0	61	104	1821376512	60	16181
2026-01-15 10:49:24.82	339.20	4.33	-45.2	-57.5	3.8	1.49e+00	0	61	104	1821376512	60	16205
2026-01-15 10:49:25.83	339.24	4.26	-45.2	-57.5	3.8	1.49e+00	0	61	104	1821376512	60	16209
2026-01-15 10:49:26.85	339.28	4.19	-45.2	-57.5	3.8	1.49e+00	0	61	104	1821376512	60	16145
2026-01-15 10:49:27.86	339.32	4.12	-45.2	-57.5	3.8	1.49e+00	0	61	104	1821376512	60	16190
2026-01-15 10:49:28.87	339.36	4.06	-45.2	-57.5	3.8	1.49e+00	0	61	104	1821376512	60	16156
2026-01-15 10:49:29.88	339.39	3.99	-45.2	-57.5	3.8	1.49e+00	0	61	104	1821376512	60	16181
2026-01-15 10:49:30.89	339.43	3.92	-45.2	-57.5	3.8	1.49e+00	0	61	104	1821376512	60	16163
2026-01-15 10:49:31.90	339.47	3.86	-45.2	-57.5	3.8	1.49e+00	0	61	104	1821376512	60	16216
2026-01-15 10:49:32.91	339.51	3.79	-45.2	-57.5	3.8	1.49e+00	0	61	104	1821376512	60	16205
2026-01-15 10:49:33.92	339.55	3.72	-45.2	-57.5	3.8	1.49e+00	0	61	104	1821376512	60	16193
2026-01-15 10:49:34.93	339.58	3.66	-45.2	-57.5	3.8	1.49e+00	0	61	104	1821376512	60	16182
2026-01-15 10:49:35.94	339.62	3.59	-45.2	-57.5	3.8	1.49e+00	0	61	104	1821376512	60	16172
2026-01-15 10:49:36.95	339.66	3.53	-45.2	-57.5	3.8	1.49e+00	0	61	104	1821376512	60	16137
2026-01-15 10:49:37.96	339.70	3.46	-45.2	-57.4	3.8	1.49e+00	0	61	104	1821376512	60	16111
2026-01-15 10:49:38.97	339.73	3.40	-45.2	-57.4	3.8	1.49e+00	0	61	104	1821376512	60	16119
2026-01-15 10:49:39.98	339.77	3.33	-45.2	-57.5	3.8	1.49e+00	0	61	104	1821376512	60	16187
2026-01-15 10:49:40.99	339.81	3.27	-45.2	-57.4	3.8	1.49e+00	0	61	104	1821376512	60	16114
2026-01-15 10:49:42.00	339.84	3.20	-45.2	-57.5	3.8	1.49e+00	0	61	104	1821376512	60	16214
2026-01-15 10:49:43.01	339.88	3.14	-45.1	-57.5	3.8	1.49e+00	0	61	104	1821376512	60	16132
2026-01-15 10:49:44.02	339.92	3.07	-45.2	-57.5	3.8	1.49e+00	0	61	104	1821376512	60	16192
