passes_logs/2026/01/15/R2.0S_Moscow/R2.0S_Moscow__20260115_110552_SUOMI_NPP_rec.log

#Pass ID: 20260115_110552_SUOMI NPP
#Satellite: SUOMI NPP
#Configuration: NPP
#almurnet v.1.7.20251203
#Start time: 2026-01-15 11:05:52

#Version: 2.2.20231116
#Station: R2.0S_Moscow
#Location: 37.707566 lon 55.798166 lat
#TLE: 1 37849U 11061A   26014.11719687  .00000048  00000+0  43625-4 0  9998
#TLE: 2 37849  98.7809 316.1734 0002474  65.2440 294.8994 14.19525043736585

#Time	Az	El	Level	Level2	SNR	BER	BlckErr	Temp	State	Recorded	gain1	gain2
2026-01-15 11:05:52.93	193.49	2.00	-43.3	-57.6	3.8	1.49e+00	0	51	0	0	58	18345
2026-01-15 11:05:53.93	193.54	2.06	-43.3	-57.5	3.8	1.49e+00	0	51	104	0	58	18244
2026-01-15 11:05:54.94	193.60	2.12	-43.3	-57.6	3.8	1.49e+00	0	51	104	0	58	18317
2026-01-15 11:05:55.95	193.65	2.18	-43.3	-57.5	3.8	1.49e+00	0	51	104	0	58	18243
2026-01-15 11:05:56.96	193.70	2.24	-43.3	-57.5	3.8	1.49e+00	0	51	104	0	58	18271
2026-01-15 11:05:57.97	193.76	2.30	-43.3	-57.5	3.8	1.49e+00	0	51	104	0	58	18264
2026-01-15 11:05:58.98	193.81	2.36	-43.3	-57.5	3.8	1.49e+00	0	51	104	0	58	18245
2026-01-15 11:05:59.99	193.87	2.42	-43.3	-57.5	3.8	1.49e+00	0	51	104	0	58	18273
2026-01-15 11:06:01.00	193.92	2.48	-43.3	-57.5	3.8	1.49e+00	0	52	104	0	58	18240
2026-01-15 11:06:02.01	193.98	2.55	-43.3	-57.5	3.8	1.49e+00	0	52	104	0	58	18202
2026-01-15 11:06:03.02	194.03	2.61	-43.3	-57.5	3.8	1.49e+00	0	52	104	0	58	18212
2026-01-15 11:06:04.03	194.09	2.67	-43.3	-57.5	3.8	1.49e+00	0	52	104	0	58	18185
2026-01-15 11:06:05.04	194.14	2.73	-43.3	-57.5	3.8	1.49e+00	0	52	104	0	58	18206
2026-01-15 11:06:06.05	194.20	2.79	-43.3	-57.5	3.8	1.49e+00	0	52	104	0	58	18163
2026-01-15 11:06:07.06	194.25	2.85	-43.3	-57.5	3.8	1.49e+00	0	52	104	0	58	18173
2026-01-15 11:06:08.07	194.31	2.92	-43.3	-57.5	3.8	1.49e+00	0	52	104	0	58	18123
2026-01-15 11:06:09.08	194.36	2.98	-43.3	-57.5	3.8	1.49e+00	0	52	104	0	58	18168
2026-01-15 11:06:10.09	194.42	3.04	-43.3	-57.5	3.8	1.49e+00	0	52	104	0	58	18154
2026-01-15 11:06:11.10	194.48	3.10	-43.3	-57.5	3.8	1.49e+00	0	52	104	0	58	18114
2026-01-15 11:06:12.11	194.53	3.16	-43.3	-57.5	3.8	1.49e+00	0	52	104	0	58	18190
2026-01-15 11:06:13.13	194.59	3.23	-43.3	-57.5	3.8	1.49e+00	0	52	104	0	58	18098
2026-01-15 11:06:14.14	194.65	3.29	-43.3	-57.5	3.8	1.49e+00	0	52	104	0	58	18189
2026-01-15 11:06:15.14	194.70	3.35	-43.3	-57.5	3.8	1.49e+00	0	53	104	0	58	18153
2026-01-15 11:06:16.16	194.76	3.41	-43.3	-57.5	3.8	1.49e+00	0	53	104	0	58	18131
2026-01-15 11:06:17.17	194.82	3.48	-43.3	-57.5	3.8	1.49e+00	0	53	104	0	58	18160
2026-01-15 11:06:18.18	194.88	3.54	-43.3	-57.4	3.8	1.49e+00	0	53	104	0	58	18080
2026-01-15 11:06:19.19	194.94	3.60	-43.3	-57.4	3.8	1.49e+00	0	53	104	0	58	18059
2026-01-15 11:06:20.20	195.00	3.67	-43.3	-57.5	3.8	1.49e+00	0	53	104	0	58	18150
2026-01-15 11:06:21.21	195.06	3.73	-43.2	-57.5	3.8	1.49e+00	0	53	104	0	58	18192
2026-01-15 11:06:22.22	195.11	3.79	-43.3	-57.4	3.8	1.49e+00	0	53	104	0	58	18068
2026-01-15 11:06:23.22	195.17	3.86	-43.3	-57.5	3.8	1.49e+00	0	53	104	0	58	18119
2026-01-15 11:06:24.23	195.23	3.92	-43.2	-57.5	3.8	1.49e+00	0	53	104	0	58	18130
2026-01-15 11:06:25.24	195.29	3.98	-43.2	-57.5	3.8	1.49e+00	0	53	104	0	58	18112
2026-01-15 11:06:26.25	195.35	4.05	-43.2	-57.4	3.8	1.49e+00	0	53	104	0	58	18030
2026-01-15 11:06:27.26	195.41	4.11	-43.2	-57.4	3.8	1.49e+00	0	53	104	0	58	18085
2026-01-15 11:06:28.27	195.47	4.18	-43.2	-57.5	3.8	1.49e+00	0	54	104	0	58	18100
2026-01-15 11:06:29.28	195.53	4.24	-43.2	-57.4	3.8	1.49e+00	0	53	104	0	58	18057
2026-01-15 11:06:30.29	195.60	4.31	-43.2	-57.4	3.8	1.49e+00	0	53	104	0	58	18060
2026-01-15 11:06:31.30	195.66	4.37	-43.2	-57.4	3.8	1.49e+00	0	54	104	0	58	18031
2026-01-15 11:06:32.31	195.72	4.43	-43.2	-57.4	3.8	1.49e+00	0	54	104	0	58	18040
2026-01-15 11:06:33.32	195.78	4.50	-43.2	-57.4	3.8	1.49e+00	0	54	104	0	58	17968
2026-01-15 11:06:34.32	195.84	4.56	-43.2	-57.4	3.8	1.49e+00	0	54	104	0	58	17923
2026-01-15 11:06:35.34	195.91	4.63	-43.2	-57.3	3.8	1.49e+00	0	54	104	0	58	17844
2026-01-15 11:06:36.34	195.97	4.69	-43.2	-57.3	3.8	1.49e+00	0	54	104	0	58	17878
2026-01-15 11:06:37.35	196.03	4.76	-43.2	-57.3	3.8	1.49e+00	0	54	104	0	58	17785
2026-01-15 11:06:38.37	196.09	4.83	-43.2	-57.4	3.8	1.49e+00	0	54	104	0	58	17958
2026-01-15 11:06:39.38	196.16	4.89	-43.2	-57.3	3.8	1.49e+00	0	54	104	0	58	17879
2026-01-15 11:06:40.39	196.22	4.96	-43.2	-57.3	3.8	1.49e+00	0	54	104	0	58	17814
2026-01-15 11:06:41.40	196.29	5.02	-43.2	-57.2	3.8	1.49e+00	0	54	104	0	58	17683
2026-01-15 11:06:42.41	196.35	5.09	-43.2	-57.3	3.8	1.49e+00	0	54	104	0	58	17726
2026-01-15 11:06:43.42	196.41	5.16	-43.2	-57.2	3.8	1.49e+00	0	54	104	0	58	17643
2026-01-15 11:06:44.43	196.48	5.22	-43.2	-57.2	3.8	1.49e+00	0	54	104	0	58	17624
2026-01-15 11:06:45.44	196.54	5.29	-43.2	-57.1	3.8	1.49e+00	0	55	104	0	58	17368
2026-01-15 11:06:46.45	196.61	5.36	-43.2	-57.0	3.8	1.49e+00	0	54	104	0	58	17239
2026-01-15 11:06:47.45	196.68	5.42	-43.2	-56.9	3.8	1.49e+00	0	54	104	0	58	17068
2026-01-15 11:06:48.47	196.74	5.49	-43.1	-56.8	3.8	1.49e+00	0	55	104	0	58	16720
2026-01-15 11:06:49.48	196.81	5.56	-43.2	-56.7	3.8	1.49e+00	0	55	104	0	58	16528
2026-01-15 11:06:50.48	196.87	5.62	-43.1	-56.6	3.8	1.49e+00	0	55	104	0	58	16346
2026-01-15 11:06:51.49	196.94	5.69	-43.1	-56.3	3.8	1.49e+00	0	54	104	0	58	15844
2026-01-15 11:06:52.50	197.01	5.76	-43.1	-56.1	3.8	1.49e+00	0	55	104	0	58	15448
2026-01-15 11:06:53.51	197.08	5.83	-43.1	-55.8	3.8	1.49e+00	0	55	104	0	58	15051
2026-01-15 11:06:54.52	197.14	5.89	-43.1	-55.7	3.8	1.49e+00	0	55	104	0	58	14746
2026-01-15 11:06:55.53	197.21	5.96	-43.1	-55.5	3.8	1.49e+00	0	55	104	0	58	14480
2026-01-15 11:06:56.54	197.28	6.03	-43.0	-55.1	3.8	1.49e+00	0	55	104	0	58	13830
2026-01-15 11:06:57.55	197.35	6.10	-43.0	-54.7	4.0	1.47e+00	0	55	104	0	58	13203
2026-01-15 11:06:58.56	197.42	6.17	-43.0	-54.7	4.0	1.47e+00	0	55	104	0	58	13161
2026-01-15 11:06:59.57	197.49	6.23	-43.0	-54.3	4.1	1.47e+00	0	55	104	0	57	13401
2026-01-15 11:07:00.58	197.56	6.30	-42.9	-54.1	4.1	1.43e+00	0	55	0	0	57	13017
2026-01-15 11:07:01.59	197.63	6.37	-42.9	-53.8	4.2	1.40e+00	0	55	0	0	57	12656
2026-01-15 11:07:02.59	197.70	6.44	-42.9	-53.9	4.2	1.41e+00	0	55	0	0	57	12748
2026-01-15 11:07:03.60	197.77	6.51	-42.9	-53.8	4.2	1.40e+00	0	55	0	0	57	12617
2026-01-15 11:07:04.61	197.84	6.58	-42.9	-54.0	4.1	1.40e+00	0	55	0	0	57	12949
2026-01-15 11:07:05.62	197.91	6.65	-42.9	-54.1	4.1	1.42e+00	0	55	0	0	57	13105
2026-01-15 11:07:06.63	197.98	6.72	-42.9	-54.2	4.1	1.43e+00	0	55	0	0	57	13250
2026-01-15 11:07:07.64	198.05	6.79	-43.0	-54.6	4.0	1.47e+00	0	55	104	0	57	13819
2026-01-15 11:07:08.65	198.13	6.86	-43.0	-54.8	3.8	1.47e+00	0	56	104	0	57	14153
2026-01-15 11:07:09.66	198.20	6.93	-43.0	-54.9	3.8	1.48e+00	0	56	104	0	57	14227
2026-01-15 11:07:10.67	198.27	7.00	-43.0	-54.7	3.8	1.48e+00	0	56	104	0	57	13952
2026-01-15 11:07:11.68	198.34	7.07	-42.9	-53.8	4.2	1.45e+00	0	56	0	0	57	12589
2026-01-15 11:07:12.69	198.42	7.14	-42.8	-53.2	4.4	1.33e+00	0	56	0	0	57	11717
2026-01-15 11:07:13.70	198.49	7.21	-42.8	-52.6	4.6	1.08e+00	0	56	0	2097152	57	10923
2026-01-15 11:07:14.71	198.57	7.28	-42.7	-51.9	4.9	8.06e-01	0	56	0	4194304	57	10075
2026-01-15 11:07:15.72	198.64	7.35	-42.6	-51.2	5.3	5.80e-01	0	56	0	5242880	57	9354
2026-01-15 11:07:16.73	198.72	7.42	-42.4	-50.5	5.8	4.27e-01	0	56	0	7340032	56	9156
2026-01-15 11:07:17.74	198.79	7.49	-42.3	-49.7	6.4	3.11e-01	0	56	0	9437184	56	8286
2026-01-15 11:07:18.75	198.87	7.56	-42.2	-49.2	6.8	1.93e-01	0	56	0	11534336	56	7851
2026-01-15 11:07:19.76	198.94	7.64	-42.1	-48.8	7.2	1.55e-01	0	56	0	13631488	56	7490
2026-01-15 11:07:20.77	199.02	7.71	-42.0	-48.6	7.4	1.45e-01	0	56	0	14680064	56	7302
2026-01-15 11:07:21.78	199.10	7.78	-42.0	-48.6	7.4	1.22e-01	0	56	0	16777216	56	7303
2026-01-15 11:07:22.79	199.17	7.85	-42.1	-48.7	7.3	1.17e-01	0	56	0	18874368	56	7409
2026-01-15 11:07:23.79	199.25	7.92	-42.1	-48.8	7.2	1.32e-01	0	56	0	20971520	56	7542
2026-01-15 11:07:24.80	199.33	8.00	-42.2	-49.3	6.8	1.55e-01	0	56	0	23068672	56	7930
2026-01-15 11:07:25.81	199.41	8.07	-43.0	-50.3	6.8	1.34e-01	0	56	0	24117248	56	8882
2026-01-15 11:07:26.82	199.48	8.14	-43.3	-56.9	3.8	5.12e-01	0	56	104	26214400	57	18010
2026-01-15 11:07:27.83	199.56	8.21	-43.4	-51.8	5.9	1.34e+00	0	56	0	26214400	57	9948
2026-01-15 11:07:28.84	199.64	8.29	-41.5	-49.9	5.5	3.59e-01	0	56	0	28311552	55	9065
2026-01-15 11:07:29.85	199.72	8.36	-42.6	-52.9	4.6	1.12e-01	0	56	0	29360128	55	12718
2026-01-15 11:07:30.86	199.80	8.43	-42.8	-49.2	7.7	1.27e+00	0	56	0	29360128	56	7854
2026-01-15 11:07:31.86	199.88	8.51	-42.3	-48.4	8.1	5.93e-02	0	56	0	31457280	56	7146
2026-01-15 11:07:32.87	199.96	8.58	-42.0	-48.4	7.7	8.74e-02	0	56	0	32505856	56	7128
2026-01-15 11:07:33.88	200.04	8.65	-41.4	-48.0	7.3	9.26e-02	0	56	0	34603008	54	7668
2026-01-15 11:07:34.89	200.13	8.73	-41.1	-47.9	7.0	1.47e-01	0	56	0	36700160	54	7593
2026-01-15 11:07:35.90	200.21	8.80	-40.6	-47.8	6.6	2.03e-01	0	56	0	38797312	53	7982
2026-01-15 11:07:36.91	200.29	8.88	-40.4	-47.6	6.5	2.10e-01	0	56	0	40894464	52	8257
2026-01-15 11:07:37.92	200.37	8.95	-40.2	-47.7	6.2	2.57e-01	0	56	0	41943040	52	8357
2026-01-15 11:07:38.93	200.46	9.03	-40.2	-47.5	6.5	2.51e-01	0	57	0	44040192	52	8124
2026-01-15 11:07:39.94	200.54	9.10	-40.3	-47.4	6.7	2.25e-01	0	57	0	46137344	52	8083
2026-01-15 11:07:40.95	200.62	9.18	-40.5	-47.6	6.8	2.06e-01	0	57	0	48234496	52	8180
2026-01-15 11:07:41.96	200.71	9.25	-40.7	-47.5	7.1	1.46e-01	0	57	0	50331648	52	8088
2026-01-15 11:07:42.97	200.79	9.33	-40.8	-47.4	7.4	1.24e-01	0	57	0	51380224	52	8002
2026-01-15 11:07:43.97	200.88	9.40	-41.1	-47.4	7.9	9.68e-02	0	57	0	53477376	52	8024
2026-01-15 11:07:44.98	200.96	9.48	-41.3	-47.4	8.1	6.16e-02	0	57	0	55574528	53	7612
2026-01-15 11:07:45.99	201.05	9.55	-41.5	-47.4	8.4	5.29e-02	0	57	0	57671680	53	7588
2026-01-15 11:07:47.00	201.14	9.63	-41.6	-47.4	8.6	4.00e-02	0	57	0	59768832	53	7611
2026-01-15 11:07:48.01	201.22	9.71	-41.6	-47.5	8.7	3.38e-02	0	57	0	61865984	53	7636
2026-01-15 11:07:49.02	201.31	9.78	-40.9	-47.4	8.3	3.79e-02	0	57	0	62914560	53	7553
2026-01-15 11:07:50.03	201.40	9.86	-40.6	-47.4	7.8	6.49e-02	0	57	0	65011712	53	7563
2026-01-15 11:07:51.04	201.49	9.94	-40.2	-47.2	7.8	8.19e-02	0	57	0	67108864	52	7826
2026-01-15 11:07:52.05	201.58	10.01	-40.5	-47.2	8.1	5.39e-02	0	57	0	69206016	52	7847
2026-01-15 11:07:53.06	201.67	10.09	-40.3	-47.0	8.3	5.77e-02	0	57	0	71303168	52	7635
2026-01-15 11:07:54.07	201.76	10.17	-40.0	-46.9	8.1	6.65e-02	0	57	0	72351744	51	8030
2026-01-15 11:07:55.08	201.85	10.25	-39.9	-46.9	8.1	8.29e-02	0	57	0	74448896	51	8072
2026-01-15 11:07:56.09	201.94	10.32	-40.3	-47.1	8.4	4.87e-02	0	57	0	76546048	51	8229
2026-01-15 11:07:57.10	202.03	10.40	-40.2	-47.1	8.2	4.56e-02	0	57	0	78643200	51	8195
2026-01-15 11:07:58.11	202.12	10.48	-40.3	-46.9	8.6	4.61e-02	0	57	0	80740352	51	8077
2026-01-15 11:07:59.12	202.21	10.56	-40.3	-46.9	8.6	3.88e-02	0	57	0	81788928	51	8037
2026-01-15 11:08:00.12	202.30	10.64	-40.4	-47.0	8.8	3.74e-02	0	57	0	83886080	51	8123
2026-01-15 11:08:01.13	202.40	10.71	-40.6	-47.1	8.8	2.63e-02	0	57	0	85983232	51	8198
2026-01-15 11:08:02.14	202.49	10.79	-40.9	-47.1	8.9	2.27e-02	0	57	0	88080384	52	7802
2026-01-15 11:08:03.15	202.58	10.87	-40.9	-47.0	9.1	2.51e-02	0	57	0	90177536	52	7718
2026-01-15 11:08:04.16	202.68	10.95	-40.9	-47.1	8.9	2.51e-02	0	57	0	91226112	52	7729
2026-01-15 11:08:05.17	202.77	11.03	-40.8	-47.1	8.7	3.30e-02	0	57	0	93323264	52	7737
2026-01-15 11:08:06.18	202.87	11.11	-40.5	-46.8	8.5	3.79e-02	0	57	0	95420416	52	7512
2026-01-15 11:08:07.19	202.96	11.19	-40.4	-46.8	8.2	5.44e-02	0	57	0	97517568	52	7540
2026-01-15 11:08:08.19	203.06	11.27	-40.1	-46.6	8.1	7.14e-02	0	57	0	99614720	52	7326
2026-01-15 11:08:09.20	203.16	11.35	-40.0	-46.9	7.5	9.33e-02	0	58	0	100663296	52	7597
2026-01-15 11:08:10.21	203.25	11.43	-40.0	-46.8	7.5	1.07e-01	0	57	0	102760448	51	7926
2026-01-15 11:08:11.22	203.35	11.51	-39.9	-46.8	7.3	1.21e-01	0	58	0	104857600	51	7950
2026-01-15 11:08:12.23	203.45	11.59	-39.8	-46.6	7.3	1.35e-01	0	57	0	106954752	51	7769
2026-01-15 11:08:13.24	203.55	11.67	-39.7	-46.6	7.2	1.34e-01	0	57	0	109051904	51	7778
2026-01-15 11:08:14.25	203.65	11.75	-39.8	-46.7	7.2	1.34e-01	0	57	0	110100480	51	7849
2026-01-15 11:08:15.26	203.75	11.84	-39.9	-46.7	7.2	1.29e-01	0	58	0	112197632	51	7861
2026-01-15 11:08:16.27	203.85	11.92	-40.0	-46.7	7.3	1.19e-01	0	57	0	114294784	51	7890
2026-01-15 11:08:17.28	203.95	12.00	-40.2	-46.7	7.6	9.93e-02	0	58	0	116391936	51	7846
2026-01-15 11:08:18.29	204.05	12.08	-40.3	-46.6	7.9	8.60e-02	0	57	0	118489088	51	7808
2026-01-15 11:08:19.30	204.16	12.16	-40.6	-46.6	8.2	6.88e-02	0	57	0	119537664	51	7805
2026-01-15 11:08:20.31	204.26	12.25	-40.8	-46.7	8.6	4.69e-02	0	58	0	121634816	52	7377
2026-01-15 11:08:21.32	204.36	12.33	-41.0	-46.4	9.4	2.08e-02	0	58	0	123731968	52	7200
2026-01-15 11:08:22.33	204.47	12.41	-41.2	-46.5	9.7	1.46e-02	0	58	0	125829120	53	6811
2026-01-15 11:08:23.34	204.57	12.49	-41.3	-46.2	10.1	9.00e-03	0	58	0	127926272	53	6643
2026-01-15 11:08:24.35	204.68	12.58	-41.4	-46.2	10.4	5.11e-03	0	57	0	130023424	53	6627
2026-01-15 11:08:25.36	204.78	12.66	-41.5	-46.0	10.9	3.00e-03	0	58	0	131072000	53	6472
2026-01-15 11:08:26.37	204.89	12.74	-41.6	-46.0	11.1	1.88e-03	0	58	0	133169152	53	6477
2026-01-15 11:08:27.37	204.99	12.83	-41.8	-46.3	10.9	1.79e-03	0	58	0	135266304	54	6276
2026-01-15 11:08:28.38	205.10	12.91	-41.8	-46.1	11.1	1.53e-03	0	58	0	137363456	54	6177
2026-01-15 11:08:29.39	205.21	13.00	-41.8	-46.0	11.3	1.34e-03	0	58	0	139460608	54	6090
2026-01-15 11:08:30.40	205.32	13.08	-41.8	-46.0	11.3	1.01e-03	0	58	0	140509184	54	6090
2026-01-15 11:08:31.41	205.43	13.16	-41.8	-46.0	11.4	9.74e-04	0	58	0	142606336	54	6075
2026-01-15 11:08:32.42	205.54	13.25	-41.8	-45.8	11.7	9.18e-04	0	58	0	144703488	54	5936
2026-01-15 11:08:33.43	205.65	13.33	-41.8	-45.8	11.7	7.28e-04	0	58	0	146800640	54	5952
2026-01-15 11:08:34.44	205.76	13.42	-41.9	-46.0	11.5	7.81e-04	0	58	0	148897792	54	6123
2026-01-15 11:08:35.45	205.87	13.51	-42.0	-46.2	11.5	7.41e-04	0	58	0	149946368	54	6220
2026-01-15 11:08:36.46	205.98	13.59	-42.0	-46.2	11.5	7.96e-04	0	58	0	152043520	54	6217
2026-01-15 11:08:37.47	206.10	13.68	-42.1	-46.4	11.3	1.00e-03	0	58	0	154140672	54	6370
2026-01-15 11:08:38.48	206.21	13.76	-42.2	-46.5	11.2	1.27e-03	0	58	0	156237824	55	6118
2026-01-15 11:08:39.49	206.32	13.85	-42.2	-46.5	11.3	1.30e-03	0	58	0	158334976	55	6072
2026-01-15 11:08:40.50	206.44	13.94	-42.3	-46.6	11.0	1.67e-03	0	58	0	159383552	55	6192
2026-01-15 11:08:41.51	206.55	14.02	-42.2	-46.5	11.3	1.37e-03	0	58	0	161480704	55	6083
2026-01-15 11:08:42.52	206.67	14.11	-42.1	-46.4	11.3	1.19e-03	0	58	0	163577856	55	6018
2026-01-15 11:08:43.53	206.79	14.20	-42.2	-46.5	11.2	1.42e-03	0	58	0	165675008	55	6080
2026-01-15 11:08:44.54	206.91	14.28	-42.1	-46.4	11.4	1.17e-03	0	58	0	167772160	55	6006
2026-01-15 11:08:45.55	207.02	14.37	-42.1	-46.3	11.5	9.67e-04	0	58	0	168820736	55	5965
2026-01-15 11:08:46.56	207.14	14.46	-42.1	-46.2	11.6	6.40e-04	0	58	0	170917888	55	5882
2026-01-15 11:08:47.58	207.26	14.55	-42.0	-46.0	11.7	4.06e-04	0	58	0	173015040	55	5764
2026-01-15 11:08:48.58	207.38	14.63	-41.9	-45.8	12.0	3.10e-04	0	58	0	175112192	55	5631
2026-01-15 11:08:49.59	207.50	14.72	-41.9	-45.8	12.0	2.72e-04	0	58	0	177209344	55	5600
2026-01-15 11:08:50.60	207.62	14.81	-41.8	-45.6	12.2	2.00e-04	0	58	0	178257920	55	5512
2026-01-15 11:08:51.61	207.75	14.90	-41.8	-45.5	12.3	1.66e-04	0	58	0	180355072	55	5456
2026-01-15 11:08:52.62	207.87	14.99	-41.9	-45.7	12.1	1.93e-04	0	58	0	182452224	55	5578
2026-01-15 11:08:53.63	207.99	15.08	-41.7	-45.3	12.5	2.01e-04	0	58	0	184549376	55	5322
2026-01-15 11:08:54.64	208.12	15.17	-41.8	-45.5	12.3	2.14e-04	0	58	0	186646528	55	5444
2026-01-15 11:08:55.65	208.24	15.26	-42.0	-46.0	11.9	2.66e-04	0	58	0	187695104	55	5738
2026-01-15 11:08:56.66	208.37	15.35	-41.9	-45.7	12.1	3.13e-04	0	58	0	189792256	55	5584
2026-01-15 11:08:57.66	208.49	15.43	-42.0	-46.0	11.8	4.13e-04	0	58	0	191889408	55	5767
2026-01-15 11:08:58.67	208.62	15.52	-42.1	-46.3	11.5	5.19e-04	0	58	0	193986560	55	5940
2026-01-15 11:08:59.68	208.75	15.61	-42.1	-46.2	11.6	6.66e-04	0	58	0	196083712	55	5885
2026-01-15 11:09:00.69	208.88	15.71	-42.2	-46.4	11.5	7.05e-04	0	59	0	198180864	55	6002
2026-01-15 11:09:01.69	209.01	15.79	-42.2	-46.5	11.4	8.93e-04	0	58	0	199229440	55	6063
2026-01-15 11:09:02.70	209.14	15.89	-42.2	-46.5	11.4	1.03e-03	0	58	0	201326592	55	6085
2026-01-15 11:09:03.70	209.27	15.98	-42.3	-46.5	11.3	1.09e-03	0	58	0	203423744	55	6131
2026-01-15 11:09:04.71	209.40	16.07	-42.3	-46.7	11.1	1.55e-03	0	59	0	205520896	55	6230
2026-01-15 11:09:05.72	209.53	16.16	-42.4	-46.8	11.0	1.57e-03	0	58	0	206569472	55	6309
2026-01-15 11:09:06.73	209.67	16.25	-42.4	-46.9	11.0	1.39e-03	0	59	0	208666624	55	6356
2026-01-15 11:09:07.74	209.80	16.34	-42.4	-46.8	11.0	1.41e-03	0	58	0	210763776	55	6322
2026-01-15 11:09:08.75	209.94	16.43	-42.3	-46.7	11.2	1.67e-03	0	58	0	212860928	55	6205
2026-01-15 11:09:09.76	210.07	16.53	-42.3	-46.6	11.2	1.54e-03	0	58	0	214958080	55	6161
2026-01-15 11:09:10.77	210.21	16.62	-42.3	-46.7	11.2	1.53e-03	0	59	0	216006656	55	6218
2026-01-15 11:09:11.78	210.35	16.71	-42.2	-46.4	11.4	1.40e-03	0	59	0	218103808	55	6024
2026-01-15 11:09:12.79	210.48	16.80	-42.3	-46.5	11.3	7.61e-04	0	58	0	220200960	55	6098
2026-01-15 11:09:13.80	210.62	16.90	-42.2	-46.4	11.5	1.06e-03	0	58	0	222298112	55	5993
2026-01-15 11:09:14.81	210.76	16.99	-42.1	-46.2	11.7	9.64e-04	0	59	0	224395264	55	5873
2026-01-15 11:09:15.82	210.90	17.08	-42.2	-46.4	11.5	6.41e-04	0	59	0	226492416	55	6011
2026-01-15 11:09:16.83	211.05	17.18	-42.3	-46.4	11.4	7.67e-04	0	59	0	227540992	55	6049
2026-01-15 11:09:17.84	211.19	17.27	-42.3	-46.5	11.4	7.69e-04	0	58	0	229638144	55	6118
2026-01-15 11:09:18.84	211.33	17.37	-42.3	-46.4	11.5	8.85e-04	0	59	0	231735296	55	6037
2026-01-15 11:09:19.85	211.47	17.46	-42.3	-46.6	11.3	1.27e-03	0	59	0	233832448	55	6163
2026-01-15 11:09:20.86	211.62	17.55	-42.4	-46.8	11.1	1.71e-03	0	59	0	235929600	55	6305
2026-01-15 11:09:21.87	211.77	17.65	-42.5	-46.9	11.1	1.46e-03	0	59	0	236978176	55	6373
2026-01-15 11:09:22.88	211.91	17.74	-42.5	-47.1	10.8	1.74e-03	0	59	0	239075328	55	6532
2026-01-15 11:09:23.89	212.06	17.84	-42.4	-46.8	11.1	1.68e-03	0	59	0	241172480	55	6303
2026-01-15 11:09:24.90	212.21	17.93	-42.3	-46.5	11.3	1.44e-03	0	59	0	243269632	55	6129
2026-01-15 11:09:25.91	212.36	18.03	-42.3	-46.5	11.4	1.33e-03	0	59	0	245366784	55	6118
2026-01-15 11:09:26.91	212.51	18.12	-42.4	-46.6	11.3	1.06e-03	0	59	0	246415360	55	6191
2026-01-15 11:09:27.92	212.66	18.22	-42.4	-46.7	11.2	1.06e-03	0	59	0	248512512	55	6247
2026-01-15 11:09:28.93	212.81	18.31	-42.3	-46.6	11.4	1.08e-03	0	59	0	250609664	55	6150
2026-01-15 11:09:29.94	212.97	18.41	-42.4	-46.7	11.3	9.80e-04	0	59	0	252706816	55	6208
2026-01-15 11:09:30.95	213.12	18.51	-42.4	-46.6	11.4	1.25e-03	0	59	0	254803968	55	6150
2026-01-15 11:09:31.96	213.27	18.60	-42.4	-46.7	11.2	1.16e-03	0	59	0	255852544	55	6237
2026-01-15 11:09:32.97	213.43	18.70	-42.5	-46.9	11.0	1.27e-03	0	59	0	257949696	55	6403
2026-01-15 11:09:33.98	213.59	18.80	-42.5	-46.8	11.1	1.35e-03	0	59	0	260046848	55	6326
2026-01-15 11:09:34.99	213.75	18.89	-42.5	-46.9	11.1	1.63e-03	0	59	0	262144000	55	6370
2026-01-15 11:09:36.00	213.91	18.99	-42.5	-46.9	11.0	1.84e-03	0	59	0	264241152	55	6405
2026-01-15 11:09:37.01	214.07	19.09	-42.5	-46.9	11.0	1.96e-03	0	59	0	265289728	55	6398
2026-01-15 11:09:38.02	214.23	19.19	-42.5	-46.9	11.1	1.87e-03	0	59	0	267386880	55	6391
2026-01-15 11:09:39.03	214.39	19.28	-42.6	-47.1	10.8	1.93e-03	0	59	0	269484032	55	6551
2026-01-15 11:09:40.04	214.55	19.38	-42.6	-47.1	10.8	2.07e-03	0	59	0	271581184	55	6530
2026-01-15 11:09:41.05	214.72	19.48	-42.6	-47.1	10.9	2.20e-03	0	59	0	273678336	55	6502
2026-01-15 11:09:42.06	214.88	19.58	-42.7	-47.3	10.7	2.44e-03	0	59	0	274726912	55	6664
2026-01-15 11:09:43.07	215.05	19.68	-42.7	-47.4	10.6	3.17e-03	0	59	0	276824064	55	6737
2026-01-15 11:09:44.08	215.22	19.77	-42.9	-47.7	10.4	3.96e-03	0	59	0	278921216	56	6574
2026-01-15 11:09:45.09	215.38	19.87	-42.9	-47.7	10.3	3.93e-03	0	59	0	281018368	56	6638
2026-01-15 11:09:46.10	215.55	19.97	-42.9	-47.6	10.6	4.53e-03	0	59	0	283115520	56	6525
2026-01-15 11:09:47.11	215.72	20.07	-42.9	-47.6	10.6	4.12e-03	0	59	0	284164096	56	6526
2026-01-15 11:09:48.11	215.89	20.17	-42.9	-47.5	10.6	3.86e-03	0	59	0	286261248	56	6459
2026-01-15 11:09:49.12	216.07	20.27	-42.7	-47.2	11.0	2.69e-03	0	59	0	288358400	56	6212
2026-01-15 11:09:50.13	216.24	20.37	-42.7	-47.0	11.1	1.90e-03	0	59	0	290455552	56	6128
2026-01-15 11:09:51.14	216.41	20.47	-42.6	-46.9	11.2	1.33e-03	0	59	0	292552704	56	6052
2026-01-15 11:09:52.15	216.59	20.57	-42.5	-46.7	11.5	7.81e-04	0	59	0	294649856	56	5872
2026-01-15 11:09:53.16	216.77	20.66	-42.4	-46.4	11.8	5.98e-04	0	59	0	295698432	56	5703
2026-01-15 11:09:54.17	216.95	20.76	-42.3	-46.3	11.9	5.06e-04	0	59	0	297795584	56	5614
2026-01-15 11:09:55.18	217.12	20.86	-42.4	-46.4	11.7	4.94e-04	0	59	0	299892736	56	5717
2026-01-15 11:09:56.19	217.31	20.96	-42.3	-46.2	12.0	4.16e-04	0	59	0	301989888	56	5573
2026-01-15 11:09:57.20	217.49	21.06	-42.4	-46.3	11.9	3.55e-04	0	59	0	304087040	56	5645
2026-01-15 11:09:58.21	217.67	21.16	-42.4	-46.3	11.9	5.48e-04	0	59	0	305135616	56	5649
2026-01-15 11:09:59.22	217.85	21.26	-42.3	-46.3	12.0	4.13e-04	0	59	0	307232768	56	5596
2026-01-15 11:10:00.23	218.04	21.37	-42.2	-46.1	12.1	2.93e-04	0	59	0	309329920	56	5484
2026-01-15 11:10:01.23	218.22	21.46	-42.2	-45.9	12.4	2.13e-04	0	59	0	311427072	56	5380
2026-01-15 11:10:02.24	218.41	21.57	-42.1	-45.9	12.4	1.23e-04	0	59	0	313524224	56	5355
2026-01-15 11:10:03.26	218.60	21.67	-41.7	-45.2	12.9	6.10e-05	0	59	0	314572800	55	5221
2026-01-15 11:10:04.26	218.79	21.77	-41.6	-45.0	13.1	4.80e-05	0	59	0	316669952	55	5117
2026-01-15 11:10:05.27	218.98	21.87	-41.6	-44.9	13.2	2.28e-05	0	59	0	318767104	55	5076
2026-01-15 11:10:06.28	219.17	21.97	-41.4	-44.7	13.4	1.60e-05	0	59	0	320864256	54	5248
2026-01-15 11:10:07.29	219.36	22.07	-41.4	-44.7	13.5	1.06e-05	0	59	0	322961408	54	5224
2026-01-15 11:10:08.30	219.56	22.17	-41.5	-44.7	13.3	1.29e-05	0	59	0	324009984	54	5275
2026-01-15 11:10:09.31	219.76	22.27	-41.5	-44.8	13.3	1.14e-05	0	59	0	326107136	54	5282
2026-01-15 11:10:10.32	219.95	22.37	-41.5	-44.8	13.3	1.29e-05	0	59	0	328204288	54	5319
2026-01-15 11:10:11.32	220.15	22.47	-41.5	-44.8	13.3	1.98e-05	0	59	0	330301440	54	5339
2026-01-15 11:10:12.33	220.35	22.58	-41.6	-45.0	13.0	1.60e-05	0	59	0	332398592	54	5437
2026-01-15 11:10:13.34	220.55	22.68	-41.6	-45.1	13.1	3.81e-05	0	59	0	333447168	54	5487
2026-01-15 11:10:14.35	220.75	22.78	-41.8	-45.3	12.8	2.44e-05	0	59	0	335544320	54	5618
2026-01-15 11:10:15.36	220.96	22.88	-41.7	-45.2	12.9	4.57e-05	0	59	0	337641472	54	5539
2026-01-15 11:10:16.37	221.16	22.98	-41.6	-45.0	13.1	3.43e-05	0	59	0	339738624	54	5431
2026-01-15 11:10:17.38	221.37	23.08	-41.7	-45.2	13.0	3.50e-05	0	59	0	341835776	54	5545
2026-01-15 11:10:18.39	221.57	23.18	-41.7	-45.2	12.9	4.50e-05	0	59	0	342884352	54	5563
2026-01-15 11:10:19.40	221.78	23.29	-41.8	-45.3	12.8	6.33e-05	0	59	0	344981504	54	5642
2026-01-15 11:10:20.41	221.99	23.39	-41.8	-45.3	12.9	6.79e-05	0	60	0	347078656	54	5602
2026-01-15 11:10:21.42	222.20	23.49	-41.8	-45.4	12.8	6.63e-05	0	59	0	349175808	54	5682
2026-01-15 11:10:22.43	222.42	23.59	-41.7	-45.1	13.0	7.40e-05	0	60	0	351272960	54	5490
2026-01-15 11:10:23.44	222.63	23.69	-41.7	-45.1	13.0	4.50e-05	0	59	0	352321536	54	5525
2026-01-15 11:10:24.45	222.85	23.79	-41.6	-45.0	13.1	4.50e-05	0	59	0	354418688	54	5463
2026-01-15 11:10:25.46	223.06	23.90	-41.4	-44.7	13.4	1.60e-05	0	59	0	356515840	54	5258
2026-01-15 11:10:26.47	223.28	24.00	-41.5	-44.7	13.4	2.21e-05	0	59	0	358612992	54	5273
2026-01-15 11:10:27.48	223.50	24.10	-41.3	-44.4	13.6	1.14e-05	0	59	0	360710144	54	5098
2026-01-15 11:10:28.48	223.72	24.20	-41.3	-44.4	13.7	9.90e-06	0	59	0	362807296	54	5100
2026-01-15 11:10:29.50	223.94	24.30	-41.3	-44.5	13.6	1.14e-05	0	59	0	363855872	54	5122
2026-01-15 11:10:30.50	224.17	24.40	-41.3	-44.6	13.5	9.90e-06	0	59	0	365953024	54	5193
2026-01-15 11:10:31.51	224.39	24.50	-41.3	-44.5	13.6	6.80e-06	0	59	0	368050176	54	5131
2026-01-15 11:10:32.52	224.62	24.60	-41.6	-44.9	13.2	6.80e-06	0	59	0	370147328	54	5402
2026-01-15 11:10:33.53	224.85	24.71	-41.6	-44.9	13.2	2.74e-05	0	59	0	372244480	54	5371
2026-01-15 11:10:34.54	225.07	24.81	-41.6	-44.9	13.2	2.36e-05	0	59	0	373293056	54	5395
2026-01-15 11:10:35.55	225.31	24.91	-41.6	-45.1	13.1	2.05e-05	0	59	0	375390208	54	5471
2026-01-15 11:10:36.56	225.54	25.01	-41.7	-45.2	13.0	2.44e-05	0	60	0	377487360	54	5544
2026-01-15 11:10:37.57	225.77	25.11	-41.6	-45.2	12.9	4.11e-05	0	59	0	379584512	54	5565
2026-01-15 11:10:38.58	226.01	25.21	-41.7	-45.1	13.0	3.58e-05	0	60	0	380633088	54	5519
2026-01-15 11:10:39.59	226.24	25.31	-41.5	-44.9	13.3	4.50e-05	0	60	0	382730240	54	5348
2026-01-15 11:10:40.60	226.48	25.41	-41.7	-45.1	13.1	1.90e-05	0	59	0	384827392	54	5485
2026-01-15 11:10:41.61	226.72	25.51	-41.6	-44.8	13.3	2.28e-05	0	59	0	386924544	54	5340
2026-01-15 11:10:42.61	226.96	25.61	-41.5	-44.7	13.4	1.90e-05	0	60	0	389021696	54	5265
2026-01-15 11:10:43.62	227.20	25.71	-41.4	-44.6	13.5	9.10e-06	0	60	0	391118848	54	5214
2026-01-15 11:10:44.63	227.45	25.81	-41.5	-44.8	13.3	1.37e-05	0	60	0	392167424	54	5326
2026-01-15 11:10:45.64	227.69	25.91	-41.6	-44.9	13.2	2.05e-05	0	59	0	394264576	54	5389
2026-01-15 11:10:46.65	227.94	26.01	-41.6	-45.0	13.2	2.36e-05	0	59	0	396361728	54	5422
2026-01-15 11:10:47.66	228.19	26.11	-41.7	-45.2	12.9	5.11e-05	0	59	0	398458880	54	5556
2026-01-15 11:10:48.67	228.44	26.21	-41.8	-45.3	12.9	5.95e-05	0	60	0	400556032	54	5615
2026-01-15 11:10:49.68	228.69	26.31	-41.8	-45.3	12.9	6.02e-05	0	59	0	401604608	54	5606
2026-01-15 11:10:50.69	228.94	26.41	-41.7	-45.2	12.9	6.79e-05	0	60	0	403701760	54	5584
2026-01-15 11:10:51.70	229.20	26.50	-41.9	-45.4	12.7	5.56e-05	0	60	0	405798912	54	5715
2026-01-15 11:10:52.71	229.46	26.60	-42.1	-45.8	12.4	1.36e-04	0	59	0	407896064	54	5981
2026-01-15 11:10:53.72	229.71	26.70	-42.1	-45.9	12.3	2.24e-04	0	60	0	409993216	54	6013
2026-01-15 11:10:54.72	229.97	26.80	-42.2	-46.1	12.0	2.78e-04	0	60	0	411041792	55	5842
2026-01-15 11:10:55.73	230.23	26.89	-42.4	-46.4	11.7	4.26e-04	0	60	0	413138944	55	6018
2026-01-15 11:10:56.74	230.49	26.99	-42.4	-46.4	11.7	6.48e-04	0	60	0	415236096	55	6045
2026-01-15 11:10:57.75	230.76	27.09	-42.4	-46.5	11.7	6.93e-04	0	59	0	417333248	55	6062
2026-01-15 11:10:58.76	231.02	27.19	-42.5	-46.7	11.5	7.15e-04	0	60	0	419430400	55	6206
2026-01-15 11:10:59.77	231.29	27.28	-42.4	-46.5	11.6	7.22e-04	0	60	0	420478976	55	6115
2026-01-15 11:11:00.77	231.56	27.38	-42.6	-46.9	11.2	1.00e-03	0	60	0	422576128	55	6373
2026-01-15 11:11:01.78	231.83	27.47	-42.6	-47.0	11.1	1.63e-03	0	60	0	424673280	55	6430
2026-01-15 11:11:02.79	232.10	27.57	-42.9	-47.5	10.8	1.77e-03	0	60	0	426770432	56	6421
2026-01-15 11:11:03.80	232.37	27.66	-42.9	-47.5	10.7	3.02e-03	0	60	0	428867584	56	6433
2026-01-15 11:11:04.81	232.65	27.76	-43.0	-47.6	10.6	3.40e-03	0	60	0	429916160	56	6558
2026-01-15 11:11:05.82	232.93	27.85	-43.1	-47.9	10.4	4.33e-03	0	60	0	432013312	56	6742
2026-01-15 11:11:06.83	233.20	27.94	-43.2	-48.2	10.0	6.33e-03	0	60	0	434110464	57	6619
2026-01-15 11:11:07.83	233.48	28.04	-43.1	-48.1	10.2	7.37e-03	0	59	0	436207616	57	6496
2026-01-15 11:11:08.84	233.76	28.13	-43.1	-48.1	9.9	6.07e-03	0	60	0	438304768	57	6560
2026-01-15 11:11:09.85	234.05	28.22	-43.2	-48.2	9.9	8.12e-03	0	60	0	439353344	57	6645
2026-01-15 11:11:10.86	234.33	28.31	-43.3	-48.4	9.8	1.05e-02	0	60	0	441450496	57	6765
2026-01-15 11:11:11.87	234.62	28.41	-43.3	-48.4	9.7	1.11e-02	0	60	0	443547648	57	6780
2026-01-15 11:11:12.88	234.91	28.50	-43.2	-48.1	10.1	1.12e-02	0	59	0	445644800	57	6518
2026-01-15 11:11:13.89	235.20	28.59	-43.3	-48.4	9.8	1.04e-02	0	60	0	447741952	57	6793
2026-01-15 11:11:14.90	235.49	28.68	-43.3	-48.5	9.7	9.85e-03	0	60	0	448790528	57	6870
2026-01-15 11:11:15.91	235.78	28.77	-43.3	-48.4	9.8	9.53e-03	0	60	0	450887680	57	6787
2026-01-15 11:11:16.92	236.07	28.86	-43.4	-48.7	9.4	1.34e-02	0	60	0	452984832	57	7034
2026-01-15 11:11:17.93	236.37	28.95	-43.5	-48.8	9.3	1.87e-02	0	60	0	455081984	57	7109
2026-01-15 11:11:18.94	236.67	29.03	-43.4	-48.8	9.4	2.00e-02	0	60	0	457179136	57	7067
2026-01-15 11:11:19.95	236.97	29.12	-43.5	-48.9	9.2	1.65e-02	0	60	0	459276288	57	7198
2026-01-15 11:11:20.96	237.27	29.21	-43.5	-49.0	9.1	1.80e-02	0	60	0	460324864	57	7250
2026-01-15 11:11:21.97	237.57	29.29	-43.7	-49.6	8.6	2.23e-02	0	60	0	462422016	57	7721
2026-01-15 11:11:22.98	237.87	29.38	-43.8	-49.9	8.3	4.90e-02	0	60	0	464519168	58	7613
2026-01-15 11:11:23.99	238.18	29.47	-43.8	-50.0	8.2	5.19e-02	0	60	0	466616320	58	7659
2026-01-15 11:11:24.99	238.48	29.55	-43.8	-49.8	8.2	6.46e-02	0	60	0	468713472	58	7543
2026-01-15 11:11:26.01	238.80	29.63	-43.6	-49.3	8.8	4.94e-02	0	60	0	469762048	58	7086
2026-01-15 11:11:27.01	239.10	29.72	-43.6	-49.1	9.1	2.22e-02	0	60	0	471859200	58	6910
2026-01-15 11:11:28.02	239.41	29.80	-43.5	-49.0	9.2	2.00e-02	0	60	0	473956352	58	6820
2026-01-15 11:11:29.03	239.73	29.88	-43.5	-49.0	9.1	2.22e-02	0	60	0	476053504	58	6856
2026-01-15 11:11:30.04	240.04	29.96	-43.7	-49.4	8.7	2.36e-02	0	60	0	478150656	58	7201
2026-01-15 11:11:31.05	240.36	30.04	-43.6	-49.2	9.0	3.27e-02	0	60	0	479199232	58	6972
2026-01-15 11:11:32.05	240.67	30.12	-43.7	-49.5	8.7	2.65e-02	0	60	0	481296384	58	7260
2026-01-15 11:11:33.06	240.99	30.20	-43.8	-49.8	8.4	4.36e-02	0	60	0	483393536	58	7477
2026-01-15 11:11:34.07	241.32	30.28	-43.9	-50.3	7.9	6.02e-02	0	60	0	485490688	58	7939
2026-01-15 11:11:35.08	241.64	30.36	-44.0	-50.6	7.5	7.53e-02	0	60	0	487587840	58	8189
2026-01-15 11:11:36.09	241.96	30.43	-44.0	-50.5	7.7	1.01e-01	0	60	0	488636416	58	8131
2026-01-15 11:11:37.10	242.29	30.51	-43.7	-49.6	8.5	5.96e-02	0	60	0	490733568	58	7328
2026-01-15 11:11:38.11	242.61	30.58	-43.5	-48.8	9.4	2.70e-02	0	60	0	492830720	58	6675
2026-01-15 11:11:39.12	242.94	30.66	-43.2	-48.1	10.2	9.02e-03	0	60	0	494927872	58	6141
2026-01-15 11:11:40.13	243.27	30.73	-43.3	-48.4	9.8	8.38e-03	0	60	0	497025024	58	6383
2026-01-15 11:11:41.14	243.61	30.80	-43.5	-48.8	9.4	1.35e-02	0	60	0	498073600	58	6700
2026-01-15 11:11:42.15	243.94	30.88	-43.5	-48.8	9.4	1.62e-02	0	60	0	500170752	58	6699
2026-01-15 11:11:43.16	244.27	30.95	-43.6	-49.3	8.9	1.85e-02	0	60	0	502267904	58	7056
2026-01-15 11:11:44.17	244.61	31.02	-43.7	-49.3	8.8	2.80e-02	0	60	0	504365056	58	7118
2026-01-15 11:11:45.18	244.95	31.09	-43.7	-49.5	8.7	3.82e-02	0	60	0	506462208	58	7261
2026-01-15 11:11:46.19	245.28	31.15	-43.6	-49.0	9.1	3.30e-02	0	60	0	507510784	58	6878
2026-01-15 11:11:47.20	245.63	31.22	-43.4	-48.5	9.7	1.78e-02	0	60	0	509607936	58	6452
2026-01-15 11:11:48.21	245.97	31.29	-43.2	-48.1	10.2	8.75e-03	0	60	0	511705088	58	6157
2026-01-15 11:11:49.21	246.31	31.35	-43.0	-47.6	10.7	3.65e-03	0	60	0	513802240	58	5825
2026-01-15 11:11:50.22	246.65	31.42	-43.0	-47.6	10.7	2.22e-03	0	60	0	515899392	57	6136
2026-01-15 11:11:51.23	247.00	31.48	-43.3	-48.4	9.8	4.54e-03	0	60	0	516947968	57	6733
2026-01-15 11:11:52.25	247.35	31.54	-43.6	-49.3	8.9	2.23e-02	0	60	0	519045120	57	7509
2026-01-15 11:11:53.26	247.69	31.61	-43.8	-49.8	8.4	3.99e-02	0	60	0	521142272	58	7507
2026-01-15 11:11:54.27	248.04	31.67	-43.9	-50.2	8.1	4.66e-02	0	60	0	523239424	58	7835
2026-01-15 11:11:55.28	248.39	31.73	-43.7	-49.5	8.6	4.18e-02	0	60	0	525336576	58	7247
2026-01-15 11:11:56.29	248.75	31.78	-43.7	-49.5	8.7	3.14e-02	0	60	0	527433728	58	7278
2026-01-15 11:11:57.29	249.10	31.84	-43.4	-48.7	9.5	1.77e-02	0	60	0	528482304	58	6593
2026-01-15 11:11:58.30	249.45	31.90	-43.3	-48.3	9.9	1.02e-02	0	60	0	530579456	58	6277
2026-01-15 11:11:59.31	249.81	31.95	-43.0	-47.5	10.8	3.58e-03	0	60	0	532676608	58	5724
2026-01-15 11:12:00.32	250.16	32.01	-42.7	-46.9	11.3	1.21e-03	0	60	0	534773760	57	5719
2026-01-15 11:12:01.33	250.52	32.06	-42.7	-46.9	11.4	7.94e-04	0	60	0	536870912	57	5698
2026-01-15 11:12:02.34	250.88	32.11	-43.1	-47.8	10.5	3.19e-03	0	60	0	537919488	57	6279
2026-01-15 11:12:03.35	251.24	32.16	-43.5	-48.9	9.3	8.45e-03	0	60	0	540016640	57	7165
2026-01-15 11:12:04.36	251.60	32.21	-43.6	-49.1	9.0	1.99e-02	0	60	0	542113792	57	7371
2026-01-15 11:12:05.37	251.96	32.26	-43.4	-48.7	9.6	1.37e-02	0	60	0	544210944	57	6985
2026-01-15 11:12:06.38	252.33	32.31	-43.3	-48.4	9.8	8.30e-03	0	60	0	546308096	57	6728
2026-01-15 11:12:07.38	252.69	32.35	-43.4	-48.5	9.7	8.72e-03	0	60	0	547356672	57	6810
2026-01-15 11:12:08.39	253.05	32.40	-43.3	-48.4	9.8	9.75e-03	0	60	0	549453824	57	6740
2026-01-15 11:12:09.40	253.42	32.44	-43.3	-48.4	9.8	1.05e-02	0	60	0	551550976	57	6776
2026-01-15 11:12:10.41	253.79	32.48	-43.2	-48.0	10.3	7.11e-03	0	60	0	553648128	57	6428
2026-01-15 11:12:11.42	254.16	32.52	-43.1	-47.8	10.5	4.45e-03	0	60	0	555745280	57	6306
2026-01-15 11:12:12.42	254.52	32.56	-43.2	-48.0	10.3	4.68e-03	0	60	0	556793856	57	6448
2026-01-15 11:12:13.43	254.89	32.60	-43.6	-49.0	9.2	9.29e-03	0	60	0	558891008	57	7285
2026-01-15 11:12:14.44	255.26	32.64	-43.9	-50.2	8.0	2.94e-02	0	60	0	560988160	58	7846
2026-01-15 11:12:15.45	255.63	32.67	-44.1	-50.9	7.4	1.09e-01	0	60	0	563085312	58	8527
2026-01-15 11:12:16.46	256.01	32.71	-44.1	-51.0	7.2	1.34e-01	0	60	0	565182464	58	8612
2026-01-15 11:12:17.47	256.38	32.74	-44.0	-50.6	7.5	1.47e-01	0	60	0	566231040	58	8271
2026-01-15 11:12:18.48	256.75	32.77	-43.9	-50.2	8.0	8.21e-02	0	60	0	568328192	58	7819
2026-01-15 11:12:19.49	257.13	32.81	-43.8	-49.7	8.5	5.01e-02	0	60	0	570425344	58	7406
2026-01-15 11:12:20.49	257.50	32.83	-43.6	-49.1	9.0	2.90e-02	0	60	0	572522496	58	6953
2026-01-15 11:12:21.50	257.87	32.86	-43.4	-48.6	9.6	1.30e-02	0	60	0	574619648	58	6517
2026-01-15 11:12:22.51	258.25	32.89	-43.3	-48.4	9.8	1.02e-02	0	60	0	575668224	58	6386
2026-01-15 11:12:23.52	258.63	32.92	-43.3	-48.3	9.9	9.42e-03	0	60	0	577765376	58	6327
2026-01-15 11:12:24.53	259.01	32.94	-43.4	-48.6	9.5	1.33e-02	0	60	0	579862528	58	6567
2026-01-15 11:12:25.54	259.38	32.96	-43.6	-49.1	9.2	1.79e-02	0	60	0	581959680	58	6894
2026-01-15 11:12:26.55	259.76	32.98	-43.6	-49.0	9.2	2.00e-02	0	60	0	584056832	58	6869
2026-01-15 11:12:27.56	260.14	33.00	-43.7	-49.3	8.9	2.33e-02	0	60	0	585105408	58	7074
2026-01-15 11:12:28.57	260.52	33.02	-43.5	-48.8	9.4	1.94e-02	0	60	0	587202560	58	6680
2026-01-15 11:12:29.58	260.90	33.04	-43.2	-48.1	10.2	1.01e-02	0	60	0	589299712	58	6174
2026-01-15 11:12:30.59	261.28	33.06	-43.1	-47.9	10.4	6.61e-03	0	60	0	591396864	58	5993
2026-01-15 11:12:31.60	261.66	33.07	-43.0	-47.5	10.8	3.32e-03	0	60	0	593494016	58	5777
2026-01-15 11:12:32.61	262.04	33.09	-43.0	-47.5	10.7	2.94e-03	0	60	0	594542592	57	6117
2026-01-15 11:12:33.62	262.43	33.10	-43.0	-47.5	10.7	2.57e-03	0	60	0	596639744	57	6100
2026-01-15 11:12:34.63	262.81	33.11	-43.0	-47.6	10.7	2.74e-03	0	60	0	598736896	57	6164
2026-01-15 11:12:35.64	263.19	33.12	-43.2	-48.0	10.3	4.38e-03	0	60	0	600834048	57	6426
2026-01-15 11:12:36.65	263.57	33.13	-43.3	-48.2	10.0	7.89e-03	0	60	0	602931200	57	6616
2026-01-15 11:12:37.66	263.95	33.13	-43.3	-48.4	9.8	1.10e-02	0	60	0	603979776	57	6801
2026-01-15 11:12:38.67	264.34	33.14	-43.3	-48.5	9.7	1.04e-02	0	60	0	606076928	57	6811
2026-01-15 11:12:39.67	264.71	33.14	-43.3	-48.4	9.8	1.03e-02	0	60	0	608174080	57	6754
2026-01-15 11:12:40.68	265.10	33.14	-43.4	-48.6	9.6	1.17e-02	0	60	0	610271232	57	6930
2026-01-15 11:12:41.69	265.48	33.14	-43.4	-48.5	9.8	1.23e-02	0	60	0	612368384	57	6806
2026-01-15 11:12:42.70	265.86	33.14	-43.3	-48.3	10.0	8.01e-03	0	60	0	613416960	57	6710
2026-01-15 11:12:43.71	266.24	33.14	-43.1	-47.8	10.4	4.93e-03	0	60	0	615514112	57	6279
2026-01-15 11:12:44.73	266.63	33.14	-43.1	-47.7	10.5	4.01e-03	0	60	0	617611264	57	6260
2026-01-15 11:12:45.74	267.01	33.13	-43.2	-48.0	10.3	5.41e-03	0	60	0	619708416	57	6439
2026-01-15 11:12:46.75	267.39	33.13	-43.2	-48.1	10.1	6.22e-03	0	60	0	621805568	57	6527
2026-01-15 11:12:47.75	267.77	33.12	-43.2	-48.1	10.1	6.88e-03	0	60	0	623902720	57	6513
2026-01-15 11:12:48.76	268.15	33.11	-43.0	-47.6	10.6	4.33e-03	0	60	0	624951296	57	6169
2026-01-15 11:12:49.77	268.54	33.10	-43.2	-47.9	10.2	3.83e-03	0	60	0	627048448	57	6412
2026-01-15 11:12:50.79	268.92	33.09	-43.3	-48.2	10.1	6.05e-03	0	60	0	629145600	57	6633
2026-01-15 11:12:51.80	269.30	33.08	-43.4	-48.6	9.5	1.31e-02	0	60	0	631242752	57	6931
2026-01-15 11:12:52.80	269.68	33.06	-43.5	-48.8	9.4	1.66e-02	0	60	0	633339904	57	7110
2026-01-15 11:12:53.81	270.06	33.05	-43.3	-48.4	9.8	1.40e-02	0	60	0	634388480	57	6794
2026-01-15 11:12:54.82	270.44	33.03	-43.3	-48.3	9.9	9.24e-03	0	60	0	636485632	57	6715
2026-01-15 11:12:55.83	270.82	33.01	-43.3	-48.2	10.0	8.70e-03	0	60	0	638582784	57	6639
2026-01-15 11:12:56.84	271.20	32.99	-43.1	-47.7	10.5	6.15e-03	0	60	0	640679936	57	6243
2026-01-15 11:12:57.85	271.58	32.97	-42.7	-46.9	11.4	1.64e-03	0	60	0	642777088	57	5688
2026-01-15 11:12:58.86	271.95	32.95	-42.4	-46.2	12.1	5.93e-04	0	60	0	643825664	56	5555
2026-01-15 11:12:59.87	272.33	32.93	-42.2	-45.9	12.5	1.83e-04	0	60	0	645922816	56	5370
2026-01-15 11:13:00.88	272.71	32.90	-42.3	-46.0	12.3	1.40e-04	0	60	0	648019968	56	5459
2026-01-15 11:13:01.89	273.09	32.87	-42.6	-46.7	11.5	4.53e-04	0	60	0	650117120	56	5919
2026-01-15 11:13:02.89	273.46	32.85	-43.0	-47.5	10.7	1.23e-03	0	60	0	652214272	56	6463
2026-01-15 11:13:03.90	273.83	32.82	-43.1	-47.7	10.5	3.60e-03	0	60	0	653262848	56	6627
2026-01-15 11:13:04.91	274.21	32.79	-43.1	-47.8	10.5	4.13e-03	0	60	0	655360000	56	6655
2026-01-15 11:13:05.92	274.58	32.76	-43.1	-47.9	10.3	3.98e-03	0	60	0	657457152	56	6766
2026-01-15 11:13:06.93	274.95	32.72	-43.3	-48.4	9.9	8.46e-03	0	60	0	659554304	57	6750
2026-01-15 11:13:07.94	275.33	32.69	-43.4	-48.6	9.7	1.24e-02	0	60	0	661651456	57	6881
2026-01-15 11:13:08.94	275.69	32.65	-43.4	-48.6	9.7	1.00e-02	0	60	0	662700032	57	6894
2026-01-15 11:13:09.95	276.06	32.62	-43.0	-47.7	10.4	5.78e-03	0	60	0	664797184	57	6231
2026-01-15 11:13:10.96	276.43	32.58	-42.7	-46.9	11.4	1.53e-03	0	60	0	666894336	57	5684
2026-01-15 11:13:11.97	276.80	32.54	-42.8	-47.2	11.1	1.41e-03	0	60	0	668991488	57	5870
2026-01-15 11:13:12.98	277.17	32.50	-42.9	-47.5	10.9	1.87e-03	0	60	0	671088640	57	6065
2026-01-15 11:13:13.98	277.53	32.46	-43.1	-47.9	10.3	4.39e-03	0	60	0	672137216	57	6364
2026-01-15 11:13:14.99	277.90	32.41	-43.0	-47.6	10.6	4.25e-03	0	60	0	674234368	57	6171
2026-01-15 11:13:16.00	278.26	32.37	-43.0	-47.5	10.7	3.12e-03	0	60	0	676331520	57	6123
2026-01-15 11:13:17.01	278.63	32.33	-42.9	-47.3	11.0	2.94e-03	0	60	0	678428672	57	5987
2026-01-15 11:13:18.02	278.99	32.28	-42.9	-47.5	10.7	2.66e-03	0	60	0	680525824	57	6075
2026-01-15 11:13:19.03	279.35	32.23	-43.1	-47.8	10.4	3.27e-03	0	60	0	681574400	57	6303
2026-01-15 11:13:20.04	279.71	32.18	-43.0	-47.6	10.6	4.53e-03	0	60	0	683671552	57	6182
2026-01-15 11:13:21.05	280.07	32.13	-42.7	-47.0	11.2	2.42e-03	0	60	0	685768704	57	5765
2026-01-15 11:13:22.06	280.43	32.08	-42.7	-46.8	11.5	9.23e-04	0	60	0	687865856	57	5641
2026-01-15 11:13:23.07	280.79	32.03	-42.7	-46.9	11.4	6.45e-04	0	60	0	689963008	57	5668
2026-01-15 11:13:24.08	281.15	31.98	-43.0	-47.6	10.6	2.06e-03	0	60	0	692060160	57	6134
2026-01-15 11:13:25.09	281.50	31.92	-43.3	-48.4	9.8	6.53e-03	0	60	0	693108736	57	6732
2026-01-15 11:13:26.10	281.86	31.87	-43.4	-48.8	9.3	1.46e-02	0	60	0	695205888	57	7083
2026-01-15 11:13:27.11	282.21	31.81	-43.3	-48.4	9.8	1.36e-02	0	60	0	697303040	57	6745
2026-01-15 11:13:28.12	282.56	31.75	-43.1	-47.7	10.4	6.56e-03	0	60	0	699400192	57	6272
2026-01-15 11:13:29.13	282.91	31.69	-43.0	-47.6	10.7	2.38e-03	0	60	0	701497344	57	6132
2026-01-15 11:13:30.14	283.26	31.63	-42.9	-47.4	10.8	2.60e-03	0	60	0	702545920	57	6026
2026-01-15 11:13:31.15	283.61	31.57	-43.0	-47.7	10.6	2.41e-03	0	60	0	704643072	57	6210
2026-01-15 11:13:32.16	283.95	31.51	-43.0	-47.6	10.7	3.07e-03	0	60	0	706740224	57	6148
2026-01-15 11:13:33.17	284.30	31.45	-42.7	-46.9	11.3	1.48e-03	0	60	0	708837376	57	5707
2026-01-15 11:13:34.18	284.64	31.38	-42.6	-46.8	11.5	8.12e-04	0	60	0	710934528	57	5595
2026-01-15 11:13:35.19	284.99	31.32	-42.5	-46.5	11.8	6.09e-04	0	60	0	711983104	57	5418
2026-01-15 11:13:36.19	285.32	31.25	-42.6	-46.7	11.6	4.07e-04	0	60	0	714080256	56	5888
2026-01-15 11:13:37.20	285.66	31.19	-42.7	-46.8	11.4	7.72e-04	0	60	0	716177408	56	5976
2026-01-15 11:13:38.21	286.00	31.12	-42.7	-46.9	11.4	9.15e-04	0	60	0	718274560	56	5996
2026-01-15 11:13:39.22	286.34	31.05	-42.6	-46.7	11.5	8.82e-04	0	60	0	720371712	56	5904
2026-01-15 11:13:40.23	286.67	30.98	-42.6	-46.7	11.6	6.41e-04	0	60	0	721420288	56	5860
2026-01-15 11:13:41.24	287.01	30.91	-42.5	-46.4	11.8	4.20e-04	0	60	0	723517440	56	5695
2026-01-15 11:13:42.25	287.34	30.84	-42.5	-46.5	11.8	2.46e-04	0	60	0	725614592	56	5761
2026-01-15 11:13:43.26	287.67	30.77	-42.6	-46.6	11.7	6.26e-04	0	60	0	727711744	56	5840
2026-01-15 11:13:44.27	288.00	30.70	-42.7	-46.9	11.2	9.93e-04	0	60	0	729808896	56	6024
2026-01-15 11:13:45.28	288.33	30.62	-42.8	-47.1	11.1	1.54e-03	0	60	0	730857472	56	6166
2026-01-15 11:13:46.29	288.66	30.55	-42.7	-46.8	11.4	8.68e-04	0	60	0	732954624	56	5972
2026-01-15 11:13:47.30	288.98	30.47	-42.6	-46.7	11.6	7.09e-04	0	60	0	735051776	56	5870
2026-01-15 11:13:48.31	289.31	30.40	-42.5	-46.5	11.7	6.54e-04	0	60	0	737148928	56	5775
2026-01-15 11:13:49.32	289.63	30.32	-42.8	-47.2	11.0	1.20e-03	0	60	0	739246080	56	6265
2026-01-15 11:13:50.33	289.95	30.24	-43.0	-47.8	10.5	2.95e-03	0	60	0	740294656	56	6654
2026-01-15 11:13:51.34	290.27	30.16	-43.1	-47.9	10.2	5.23e-03	0	60	0	742391808	56	6790
2026-01-15 11:13:52.35	290.59	30.09	-43.1	-48.0	10.3	6.14e-03	0	60	0	744488960	56	6815
2026-01-15 11:13:53.36	290.90	30.01	-43.0	-47.5	10.6	2.82e-03	0	60	0	746586112	56	6479
2026-01-15 11:13:54.36	291.21	29.93	-42.7	-46.9	11.4	1.30e-03	0	60	0	748683264	56	5994
2026-01-15 11:13:55.37	291.53	29.84	-42.7	-46.9	11.4	8.21e-04	0	60	0	749731840	56	6009
2026-01-15 11:13:56.38	291.84	29.76	-42.7	-46.9	11.4	9.19e-04	0	60	0	751828992	56	6021
2026-01-15 11:13:57.39	292.15	29.68	-42.8	-47.2	11.0	1.49e-03	0	60	0	753926144	56	6244
2026-01-15 11:13:58.40	292.46	29.60	-42.8	-47.3	11.0	1.95e-03	0	60	0	756023296	56	6278
2026-01-15 11:13:59.41	292.76	29.51	-42.8	-47.1	11.1	1.26e-03	0	60	0	758120448	56	6174
2026-01-15 11:14:00.42	293.07	29.43	-42.7	-46.9	11.3	8.83e-04	0	60	0	759169024	56	6033
2026-01-15 11:14:01.43	293.37	29.34	-42.8	-47.1	11.2	1.11e-03	0	60	0	761266176	56	6145
2026-01-15 11:14:02.44	293.67	29.26	-43.1	-47.9	10.4	2.94e-03	0	60	0	763363328	56	6738
2026-01-15 11:14:03.45	293.97	29.17	-43.1	-48.0	10.2	6.19e-03	0	60	0	765460480	56	6851
2026-01-15 11:14:04.45	294.27	29.09	-43.3	-48.5	9.8	8.76e-03	0	60	0	767557632	57	6835
2026-01-15 11:14:05.46	294.57	29.00	-43.4	-48.7	9.4	1.20e-02	0	60	0	768606208	57	7032
2026-01-15 11:14:06.47	294.86	28.91	-43.5	-49.0	9.0	1.68e-02	0	60	0	770703360	57	7262
2026-01-15 11:14:07.48	295.16	28.82	-43.4	-48.7	9.5	1.59e-02	0	60	0	772800512	57	7023
2026-01-15 11:14:08.49	295.45	28.73	-43.3	-48.5	9.7	1.62e-02	0	60	0	774897664	57	6815
2026-01-15 11:14:09.50	295.74	28.64	-43.2	-48.3	9.9	6.89e-03	0	60	0	776994816	57	6659
2026-01-15 11:14:10.51	296.03	28.56	-43.0	-47.7	10.5	4.86e-03	0	60	0	778043392	57	6230
2026-01-15 11:14:11.51	296.32	28.47	-43.0	-47.8	10.4	3.88e-03	0	60	0	780140544	57	6301
2026-01-15 11:14:12.52	296.60	28.37	-43.2	-48.1	10.0	5.33e-03	0	60	0	782237696	57	6540
2026-01-15 11:14:13.53	296.89	28.28	-43.5	-48.9	9.2	1.11e-02	0	60	0	784334848	57	7183
2026-01-15 11:14:14.54	297.17	28.19	-43.7	-49.5	8.6	2.82e-02	0	60	0	786432000	57	7704
2026-01-15 11:14:15.55	297.45	28.10	-43.8	-50.1	7.9	5.50e-02	0	60	0	788529152	58	7806
2026-01-15 11:14:16.55	297.73	28.01	-43.9	-50.4	7.7	7.60e-02	0	60	0	789577728	58	8008
2026-01-15 11:14:17.56	298.00	27.92	-43.7	-49.8	8.3	5.59e-02	0	60	0	791674880	58	7512
2026-01-15 11:14:18.57	298.28	27.82	-43.6	-49.3	8.9	3.12e-02	0	60	0	793772032	58	7042
2026-01-15 11:14:19.58	298.56	27.73	-43.4	-48.8	9.3	1.89e-02	0	60	0	795869184	58	6695
2026-01-15 11:14:20.59	298.83	27.63	-43.3	-48.5	9.6	1.22e-02	0	60	0	797966336	58	6457
2026-01-15 11:14:21.60	299.10	27.54	-43.4	-48.6	9.5	1.28e-02	0	60	0	799014912	58	6531
2026-01-15 11:14:22.61	299.37	27.44	-43.6	-49.2	8.9	2.19e-02	0	60	0	801112064	58	7015
2026-01-15 11:14:23.62	299.64	27.35	-43.8	-49.9	8.2	4.23e-02	0	60	0	803209216	58	7569
2026-01-15 11:14:24.62	299.90	27.26	-43.8	-49.9	8.2	5.90e-02	0	60	0	805306368	58	7597
2026-01-15 11:14:25.63	300.17	27.16	-43.7	-49.8	8.3	5.54e-02	0	60	0	807403520	58	7494
2026-01-15 11:14:26.64	300.43	27.06	-43.6	-49.4	8.6	3.60e-02	0	60	0	808452096	58	7197
2026-01-15 11:14:27.65	300.70	26.97	-43.7	-49.5	8.5	2.96e-02	0	60	0	810549248	58	7262
2026-01-15 11:14:28.66	300.96	26.87	-43.7	-49.7	8.4	4.82e-02	0	60	0	812646400	58	7427
2026-01-15 11:14:29.67	301.22	26.77	-44.0	-50.8	7.3	8.46e-02	0	61	0	814743552	58	8370
2026-01-15 11:14:30.67	301.47	26.68	-43.9	-50.5	7.6	1.39e-01	0	60	0	816840704	58	8128
2026-01-15 11:14:31.68	301.73	26.58	-43.8	-50.2	7.9	8.04e-02	0	60	0	817889280	58	7859
2026-01-15 11:14:32.69	301.98	26.48	-43.6	-49.5	8.5	5.93e-02	0	60	0	819986432	58	7260
2026-01-15 11:14:33.70	302.24	26.38	-43.2	-48.3	9.8	1.73e-02	0	60	0	822083584	58	6332
2026-01-15 11:14:34.71	302.49	26.29	-43.2	-48.3	9.8	8.28e-03	0	60	0	824180736	58	6291
2026-01-15 11:14:35.72	302.74	26.19	-43.4	-48.7	9.4	1.88e-02	0	60	0	826277888	58	6609
2026-01-15 11:14:36.73	302.99	26.09	-43.7	-49.6	8.5	2.73e-02	0	60	0	827326464	58	7315
2026-01-15 11:14:37.74	303.23	25.99	-43.9	-50.6	7.5	8.37e-02	0	60	0	829423616	58	8217
2026-01-15 11:14:38.75	303.48	25.89	-43.9	-50.6	7.4	1.06e-01	0	60	0	831520768	58	8213
2026-01-15 11:14:39.76	303.72	25.79	-43.8	-50.0	8.0	8.80e-02	0	60	0	833617920	58	7640
2026-01-15 11:14:40.77	303.96	25.69	-43.5	-49.3	8.7	4.64e-02	0	60	0	835715072	58	7060
2026-01-15 11:14:41.77	304.20	25.60	-43.4	-48.9	9.0	2.92e-02	0	61	0	836763648	58	6801
2026-01-15 11:14:42.78	304.44	25.50	-43.4	-48.7	9.4	1.81e-02	0	60	0	838860800	58	6618
2026-01-15 11:14:43.79	304.68	25.40	-43.6	-49.5	8.5	2.51e-02	0	60	0	840957952	58	7287
2026-01-15 11:14:44.80	304.92	25.30	-44.1	-51.2	6.9	7.79e-02	0	60	0	843055104	58	8809
2026-01-15 11:14:45.81	305.15	25.20	-44.1	-51.2	6.9	1.99e-01	0	60	0	845152256	58	8822
2026-01-15 11:14:46.82	305.39	25.10	-44.2	-51.7	6.4	2.69e-01	0	60	0	846200832	59	8819
2026-01-15 11:14:47.82	305.62	25.00	-43.9	-50.6	7.4	1.79e-01	0	60	0	848297984	59	7756
2026-01-15 11:14:48.83	305.85	24.90	-43.5	-49.3	8.7	3.63e-02	0	61	0	850395136	59	6664
2026-01-15 11:14:49.84	306.08	24.80	-43.2	-48.3	9.8	1.61e-02	0	60	0	852492288	58	6284
2026-01-15 11:14:50.85	306.30	24.70	-43.0	-47.7	10.4	6.68e-03	0	60	0	854589440	58	5891
2026-01-15 11:14:51.87	306.53	24.60	-43.0	-47.7	10.4	5.04e-03	0	60	0	855638016	57	6220
2026-01-15 11:14:52.87	306.75	24.50	-43.0	-47.9	10.2	6.86e-03	0	60	0	857735168	57	6384
2026-01-15 11:14:53.88	306.98	24.40	-43.4	-49.0	9.0	1.42e-02	0	61	0	859832320	57	7279
2026-01-15 11:14:54.89	307.20	24.30	-43.4	-49.0	9.0	2.46e-02	0	61	0	861929472	57	7266
2026-01-15 11:14:55.91	307.42	24.19	-43.4	-49.0	9.0	2.25e-02	0	60	0	864026624	57	7263
2026-01-15 11:14:56.92	307.64	24.09	-43.4	-48.8	9.2	1.86e-02	0	60	0	865075200	57	7085
2026-01-15 11:14:57.93	307.86	23.99	-43.0	-47.9	10.2	6.91e-03	0	61	0	867172352	57	6354
2026-01-15 11:14:58.94	308.08	23.89	-43.0	-47.8	10.2	6.24e-03	0	60	0	869269504	57	6347
2026-01-15 11:14:59.94	308.29	23.79	-43.0	-47.9	10.1	7.41e-03	0	60	0	871366656	57	6384
2026-01-15 11:15:00.94	308.50	23.69	-43.1	-48.2	9.8	7.02e-03	0	60	0	873463808	57	6586
2026-01-15 11:15:01.95	308.72	23.59	-43.3	-48.7	9.4	1.47e-02	0	61	0	874512384	57	6998
2026-01-15 11:15:02.96	308.93	23.49	-43.3	-48.8	9.2	2.24e-02	0	60	0	876609536	57	7056
2026-01-15 11:15:03.97	309.14	23.39	-43.1	-48.2	9.7	1.64e-02	0	60	0	878706688	57	6618
2026-01-15 11:15:04.98	309.35	23.29	-42.9	-47.8	10.2	6.51e-03	0	60	0	880803840	57	6278
2026-01-15 11:15:05.99	309.55	23.19	-42.8	-47.3	10.7	3.48e-03	0	60	0	882900992	57	5972
2026-01-15 11:15:07.00	309.76	23.09	-42.7	-47.2	10.9	2.45e-03	0	61	0	884998144	57	5881
2026-01-15 11:15:08.00	309.96	22.99	-42.8	-47.4	10.7	2.98e-03	0	60	0	886046720	57	5999
2026-01-15 11:15:09.02	310.17	22.89	-42.9	-47.7	10.3	4.61e-03	0	61	0	888143872	57	6210
2026-01-15 11:15:10.03	310.37	22.78	-43.1	-48.3	9.7	7.42e-03	0	60	0	890241024	57	6658
2026-01-15 11:15:11.03	310.57	22.69	-43.3	-48.8	9.2	1.80e-02	0	60	0	892338176	57	7105
2026-01-15 11:15:12.03	310.77	22.59	-43.3	-48.8	9.2	2.24e-02	0	60	0	894435328	57	7061
2026-01-15 11:15:13.04	310.96	22.49	-43.1	-48.3	9.7	1.45e-02	0	61	0	895483904	57	6670
2026-01-15 11:15:14.05	311.16	22.38	-43.0	-48.0	10.0	1.04e-02	0	60	0	897581056	57	6459
2026-01-15 11:15:15.06	311.36	22.28	-43.0	-47.8	10.2	5.41e-03	0	60	0	899678208	57	6344
2026-01-15 11:15:16.07	311.55	22.18	-42.7	-47.2	10.8	3.04e-03	0	60	0	901775360	57	5889
2026-01-15 11:15:17.07	311.74	22.08	-42.7	-47.2	10.8	2.35e-03	0	61	0	903872512	57	5898
2026-01-15 11:15:18.08	311.94	21.98	-42.6	-46.9	11.1	1.67e-03	0	60	0	904921088	57	5706
2026-01-15 11:15:19.10	312.13	21.88	-42.7	-47.2	10.8	2.01e-03	0	60	0	907018240	57	5892
2026-01-15 11:15:20.10	312.32	21.78	-42.8	-47.3	10.7	2.61e-03	0	61	0	909115392	57	5984
2026-01-15 11:15:21.11	312.51	21.68	-42.7	-47.2	10.7	2.54e-03	0	60	0	911212544	57	5909
2026-01-15 11:15:22.12	312.69	21.58	-42.6	-47.1	11.0	2.07e-03	0	60	0	913309696	57	5798
2026-01-15 11:15:23.13	312.88	21.48	-42.5	-46.6	11.4	1.24e-03	0	61	0	914358272	56	5852
2026-01-15 11:15:24.14	313.06	21.39	-42.3	-46.4	11.6	6.39e-04	0	61	0	916455424	56	5669
2026-01-15 11:15:25.14	313.25	21.29	-42.3	-46.2	11.8	4.97e-04	0	60	0	918552576	56	5589
2026-01-15 11:15:26.15	313.43	21.19	-42.3	-46.4	11.7	4.81e-04	0	61	0	920649728	56	5664
2026-01-15 11:15:27.16	313.61	21.09	-42.4	-46.6	11.4	7.32e-04	0	60	0	922746880	56	5809
2026-01-15 11:15:28.17	313.79	20.99	-42.6	-47.0	11.0	1.74e-03	0	60	0	923795456	56	6100
2026-01-15 11:15:29.18	313.97	20.89	-42.8	-47.4	10.6	2.70e-03	0	61	0	925892608	56	6394
2026-01-15 11:15:30.19	314.15	20.79	-42.7	-47.2	10.7	3.49e-03	0	60	0	927989760	56	6236
2026-01-15 11:15:31.20	314.33	20.69	-42.6	-47.0	11.0	3.00e-03	0	60	0	930086912	56	6129
2026-01-15 11:15:32.20	314.50	20.59	-42.4	-46.7	11.3	1.75e-03	0	61	0	932184064	56	5859
2026-01-15 11:15:33.21	314.68	20.50	-42.2	-46.2	11.8	8.09e-04	0	60	0	933232640	56	5553
2026-01-15 11:15:34.22	314.85	20.40	-42.2	-46.0	12.0	3.43e-04	0	60	0	935329792	56	5455
2026-01-15 11:15:35.23	315.02	20.30	-41.8	-45.4	12.5	1.50e-04	0	60	0	937426944	55	5357
2026-01-15 11:15:36.24	315.19	20.20	-41.6	-45.2	12.7	9.38e-05	0	61	0	939524096	55	5240
2026-01-15 11:15:37.25	315.37	20.10	-41.7	-45.2	12.6	1.07e-04	0	60	0	941621248	55	5269
2026-01-15 11:15:38.26	315.53	20.00	-41.7	-45.3	12.6	8.46e-05	0	61	0	942669824	55	5306
2026-01-15 11:15:39.27	315.70	19.91	-41.8	-45.5	12.3	1.54e-04	0	60	0	944766976	55	5463
2026-01-15 11:15:40.28	315.87	19.81	-42.0	-45.9	11.9	3.08e-04	0	60	0	946864128	55	5688
2026-01-15 11:15:41.29	316.04	19.71	-42.1	-46.2	11.7	3.87e-04	0	61	0	948961280	55	5869
2026-01-15 11:15:42.30	316.20	19.61	-42.2	-46.2	11.6	5.38e-04	0	60	0	951058432	55	5916
2026-01-15 11:15:43.31	316.37	19.52	-42.2	-46.3	11.5	5.72e-04	0	61	0	952107008	55	5976
2026-01-15 11:15:44.32	316.53	19.42	-42.1	-46.1	11.7	4.93e-04	0	61	0	954204160	55	5835
2026-01-15 11:15:45.33	316.69	19.32	-42.0	-45.9	11.9	3.99e-04	0	61	0	956301312	55	5704
2026-01-15 11:15:46.34	316.85	19.23	-42.0	-45.9	12.0	3.68e-04	0	61	0	958398464	55	5682
2026-01-15 11:15:47.35	317.01	19.13	-41.9	-45.8	12.1	3.34e-04	0	60	0	960495616	55	5597
2026-01-15 11:15:48.36	317.17	19.03	-41.9	-45.8	12.0	3.45e-04	0	60	0	961544192	55	5621
2026-01-15 11:15:49.37	317.33	18.94	-41.8	-45.6	12.2	3.02e-04	0	60	0	963641344	55	5482
2026-01-15 11:15:50.38	317.49	18.84	-41.9	-45.7	12.1	2.88e-04	0	60	0	965738496	55	5574
2026-01-15 11:15:51.39	317.65	18.74	-41.9	-45.8	12.0	3.23e-04	0	61	0	967835648	55	5630
2026-01-15 11:15:52.40	317.80	18.65	-41.9	-45.8	12.0	2.77e-04	0	61	0	969932800	55	5613
2026-01-15 11:15:53.41	317.96	18.55	-42.0	-45.9	11.9	3.84e-04	0	61	0	970981376	55	5680
2026-01-15 11:15:54.42	318.11	18.46	-41.9	-45.8	12.0	3.20e-04	0	61	0	973078528	55	5617
2026-01-15 11:15:55.43	318.26	18.36	-41.8	-45.6	12.3	2.33e-04	0	61	0	975175680	55	5485
2026-01-15 11:15:56.44	318.41	18.27	-41.8	-45.5	12.3	1.91e-04	0	60	0	977272832	55	5430
2026-01-15 11:15:57.45	318.57	18.17	-41.8	-45.5	12.3	1.69e-04	0	60	0	979369984	55	5429
2026-01-15 11:15:58.46	318.72	18.08	-41.7	-45.4	12.4	1.82e-04	0	60	0	980418560	55	5354
2026-01-15 11:15:59.47	318.86	17.98	-41.8	-45.5	12.3	1.59e-04	0	61	0	982515712	55	5418
2026-01-15 11:16:00.47	319.01	17.89	-41.7	-45.4	12.4	1.38e-04	0	60	0	984612864	55	5377
2026-01-15 11:16:01.48	319.16	17.80	-41.7	-45.4	12.3	1.47e-04	0	61	0	986710016	55	5397
2026-01-15 11:16:02.49	319.31	17.70	-41.7	-45.5	12.3	1.61e-04	0	60	0	988807168	55	5412
2026-01-15 11:16:03.50	319.45	17.61	-41.7	-45.4	12.4	1.23e-04	0	60	0	990904320	55	5383
2026-01-15 11:16:04.51	319.60	17.52	-41.8	-45.6	12.2	1.67e-04	0	61	0	991952896	55	5483
2026-01-15 11:16:05.52	319.74	17.42	-41.8	-45.6	12.2	2.27e-04	0	61	0	994050048	55	5506
2026-01-15 11:16:06.53	319.88	17.33	-41.8	-45.7	12.1	2.61e-04	0	61	0	996147200	55	5552
2026-01-15 11:16:07.54	320.02	17.24	-41.9	-45.7	12.0	3.20e-04	0	60	0	998244352	55	5567
2026-01-15 11:16:08.54	320.16	17.14	-41.9	-45.7	12.0	2.78e-04	0	60	0	1000341504	55	5588
2026-01-15 11:16:09.55	320.30	17.05	-41.9	-45.8	12.0	3.17e-04	0	61	0	1001390080	55	5600
2026-01-15 11:16:10.56	320.44	16.96	-41.8	-45.6	12.1	2.47e-04	0	60	0	1003487232	55	5483
2026-01-15 11:16:11.57	320.58	16.87	-41.6	-45.3	12.5	1.30e-04	0	60	0	1005584384	55	5291
2026-01-15 11:16:12.58	320.72	16.77	-41.4	-44.9	12.8	8.69e-05	0	60	0	1007681536	54	5382
2026-01-15 11:16:13.59	320.86	16.68	-41.4	-44.8	13.0	5.11e-05	0	61	0	1009778688	54	5285
2026-01-15 11:16:14.60	320.99	16.59	-41.3	-44.7	13.1	3.96e-05	0	61	0	1010827264	54	5233
2026-01-15 11:16:15.61	321.13	16.50	-41.4	-44.8	13.0	3.81e-05	0	60	0	1012924416	54	5294
2026-01-15 11:16:16.62	321.26	16.41	-41.5	-45.0	12.7	7.40e-05	0	61	0	1015021568	54	5448
2026-01-15 11:16:17.62	321.40	16.32	-41.6	-45.2	12.5	8.31e-05	0	60	0	1017118720	54	5553
2026-01-15 11:16:18.63	321.53	16.23	-41.8	-45.6	12.1	1.60e-04	0	61	0	1019215872	54	5853
2026-01-15 11:16:19.64	321.66	16.14	-42.0	-46.1	11.6	5.77e-04	0	61	0	1020264448	54	6139
2026-01-15 11:16:20.65	321.79	16.05	-42.1	-46.4	11.3	7.32e-04	0	61	0	1022361600	54	6363
2026-01-15 11:16:21.66	321.92	15.96	-42.3	-46.8	10.9	1.67e-03	0	61	0	1024458752	55	6331
2026-01-15 11:16:22.67	322.06	15.87	-42.5	-47.2	10.5	3.19e-03	0	61	0	1026555904	55	6616
2026-01-15 11:16:23.68	322.18	15.78	-42.5	-47.1	10.5	3.44e-03	0	61	0	1028653056	55	6554
2026-01-15 11:16:24.69	322.31	15.69	-42.6	-47.4	10.3	5.28e-03	0	61	0	1029701632	55	6732
2026-01-15 11:16:25.70	322.44	15.60	-42.4	-47.1	10.5	5.23e-03	0	61	0	1031798784	55	6525
2026-01-15 11:16:26.70	322.57	15.51	-42.5	-47.1	10.5	3.30e-03	0	61	0	1033895936	55	6527
2026-01-15 11:16:27.71	322.69	15.42	-42.3	-46.7	10.9	3.20e-03	0	60	0	1035993088	55	6255
2026-01-15 11:16:28.72	322.82	15.33	-42.2	-46.4	11.2	1.66e-03	0	60	0	1038090240	55	6041
2026-01-15 11:16:29.73	322.94	15.24	-42.2	-46.4	11.2	1.65e-03	0	61	0	1039138816	55	6037
2026-01-15 11:16:30.74	323.07	15.15	-42.0	-46.2	11.5	1.17e-03	0	60	0	1041235968	55	5871
2026-01-15 11:16:31.75	323.19	15.07	-42.1	-46.2	11.4	7.90e-04	0	61	0	1043333120	55	5893
2026-01-15 11:16:32.76	323.31	14.98	-42.1	-46.3	11.3	1.16e-03	0	61	0	1045430272	55	5970
2026-01-15 11:16:33.77	323.44	14.89	-42.1	-46.2	11.4	8.68e-04	0	61	0	1047527424	55	5921
2026-01-15 11:16:34.77	323.56	14.80	-42.2	-46.5	11.1	1.04e-03	0	60	0	1048576000	55	6108
2026-01-15 11:16:35.79	323.68	14.71	-42.2	-46.5	11.1	1.86e-03	0	61	0	1050673152	55	6105
2026-01-15 11:16:36.80	323.80	14.63	-42.3	-46.7	10.9	1.81e-03	0	60	0	1052770304	55	6238
2026-01-15 11:16:37.81	323.92	14.54	-42.5	-47.2	10.4	3.38e-03	0	61	0	1054867456	55	6590
2026-01-15 11:16:38.81	324.04	14.45	-42.4	-47.1	10.5	4.89e-03	0	60	0	1056964608	55	6513
2026-01-15 11:16:39.83	324.15	14.37	-42.5	-47.4	10.2	5.01e-03	0	60	0	1059061760	55	6772
2026-01-15 11:16:40.83	324.27	14.28	-42.6	-47.7	9.9	9.60e-03	0	61	0	1060110336	55	6960
2026-01-15 11:16:41.84	324.39	14.20	-42.6	-47.7	9.8	8.71e-03	0	60	0	1062207488	55	6969
2026-01-15 11:16:42.85	324.50	14.11	-42.7	-47.8	9.7	9.61e-03	0	60	0	1064304640	55	7096
2026-01-15 11:16:43.86	324.62	14.02	-42.8	-47.8	9.9	1.31e-02	0	61	0	1066401792	56	6657
2026-01-15 11:16:44.87	324.73	13.94	-42.8	-47.8	9.9	9.53e-03	0	60	0	1068498944	56	6716
2026-01-15 11:16:45.88	324.85	13.85	-42.8	-48.0	9.6	1.20e-02	0	60	0	1069547520	56	6839
2026-01-15 11:16:46.89	324.96	13.77	-42.8	-47.8	9.9	9.74e-03	0	61	0	1071644672	56	6682
2026-01-15 11:16:47.90	325.07	13.68	-42.8	-48.0	9.6	9.55e-03	0	60	0	1073741824	56	6859
2026-01-15 11:16:48.91	325.19	13.60	-42.9	-48.1	9.5	1.50e-02	0	61	0	1075838976	56	6940
2026-01-15 11:16:49.92	325.30	13.51	-42.8	-48.0	9.6	1.21e-02	0	60	0	1077936128	56	6856
2026-01-15 11:16:50.93	325.41	13.43	-43.0	-48.4	9.2	1.39e-02	0	61	0	1078984704	56	7176
2026-01-15 11:16:51.94	325.52	13.34	-42.9	-48.1	9.5	1.52e-02	0	60	0	1081081856	56	6946
2026-01-15 11:16:52.94	325.63	13.26	-42.8	-48.0	9.6	1.26e-02	0	60	0	1083179008	56	6820
2026-01-15 11:16:53.96	325.74	13.18	-42.9	-48.1	9.5	1.70e-02	0	60	0	1085276160	56	6958
2026-01-15 11:16:54.96	325.85	13.09	-42.7	-47.8	9.8	1.29e-02	0	60	0	1087373312	56	6686
2026-01-15 11:16:55.97	325.95	13.01	-42.8	-47.9	9.7	1.16e-02	0	61	0	1088421888	56	6786
2026-01-15 11:16:56.98	326.06	12.93	-42.7	-47.8	9.8	1.32e-02	0	61	0	1090519040	56	6666
2026-01-15 11:16:57.99	326.17	12.84	-42.6	-47.5	10.1	8.95e-03	0	61	0	1092616192	56	6433
2026-01-15 11:16:59.00	326.28	12.76	-42.6	-47.6	10.0	7.33e-03	0	61	0	1094713344	56	6500
2026-01-15 11:17:00.01	326.38	12.68	-42.6	-47.4	10.2	5.62e-03	0	61	0	1096810496	56	6354
2026-01-15 11:17:01.02	326.49	12.60	-42.5	-47.1	10.5	3.77e-03	0	60	0	1097859072	56	6188
2026-01-15 11:17:02.03	326.59	12.51	-42.5	-47.2	10.4	4.71e-03	0	61	0	1099956224	56	6211
2026-01-15 11:17:03.04	326.70	12.43	-42.4	-46.9	10.6	3.61e-03	0	61	0	1102053376	56	6061
2026-01-15 11:17:04.04	326.80	12.35	-42.4	-46.9	10.7	3.22e-03	0	60	0	1104150528	56	6056
2026-01-15 11:17:05.05	326.90	12.27	-42.3	-46.8	10.8	3.68e-03	0	60	0	1106247680	56	5955
2026-01-15 11:17:06.06	327.00	12.19	-42.2	-46.5	11.1	1.55e-03	0	60	0	1107296256	56	5731
2026-01-15 11:17:07.07	327.11	12.11	-42.2	-46.6	10.9	1.80e-03	0	61	0	1109393408	56	5835
2026-01-15 11:17:08.08	327.21	12.03	-42.2	-46.6	11.0	1.87e-03	0	61	0	1111490560	56	5803
2026-01-15 11:17:09.09	327.31	11.94	-42.2	-46.6	10.9	1.78e-03	0	61	0	1113587712	56	5844
2026-01-15 11:17:10.10	327.41	11.86	-42.3	-46.8	10.8	2.72e-03	0	61	0	1115684864	56	5953
2026-01-15 11:17:11.11	327.51	11.78	-42.2	-46.6	11.0	2.29e-03	0	61	0	1116733440	56	5824
2026-01-15 11:17:12.11	327.61	11.70	-42.4	-47.0	10.5	3.11e-03	0	60	0	1118830592	56	6130
2026-01-15 11:17:13.12	327.70	11.62	-42.4	-47.1	10.4	4.78e-03	0	60	0	1120927744	56	6132
2026-01-15 11:17:14.13	327.80	11.54	-42.4	-47.1	10.3	4.39e-03	0	61	0	1123024896	56	6170
2026-01-15 11:17:15.14	327.90	11.46	-42.5	-47.4	10.0	7.15e-03	0	61	0	1125122048	56	6413
2026-01-15 11:17:16.15	328.00	11.38	-42.5	-47.3	10.2	7.12e-03	0	60	0	1126170624	56	6325
2026-01-15 11:17:17.16	328.09	11.30	-42.6	-47.7	9.8	7.55e-03	0	61	0	1128267776	56	6589
2026-01-15 11:17:18.17	328.19	11.23	-42.7	-47.9	9.6	1.31e-02	0	60	0	1130364928	56	6725
2026-01-15 11:17:19.18	328.29	11.15	-42.6	-47.8	9.7	1.14e-02	0	61	0	1132462080	56	6655
2026-01-15 11:17:20.19	328.38	11.07	-42.7	-48.1	9.4	1.14e-02	0	60	0	1134559232	56	6886
2026-01-15 11:17:21.20	328.48	10.99	-42.6	-47.9	9.6	1.56e-02	0	61	0	1135607808	56	6724
2026-01-15 11:17:22.21	328.57	10.91	-42.6	-47.8	9.7	1.01e-02	0	61	0	1137704960	56	6667
2026-01-15 11:17:23.21	328.66	10.83	-42.7	-47.9	9.5	1.34e-02	0	61	0	1139802112	56	6801
2026-01-15 11:17:24.22	328.76	10.76	-42.6	-47.6	9.8	1.22e-02	0	61	0	1141899264	56	6555
2026-01-15 11:17:25.23	328.85	10.68	-42.5	-47.6	9.8	9.60e-03	0	61	0	1143996416	56	6550
2026-01-15 11:17:26.24	328.94	10.60	-42.5	-47.6	9.8	1.20e-02	0	60	0	1145044992	56	6536
2026-01-15 11:17:27.25	329.03	10.52	-42.5	-47.5	9.9	9.70e-03	0	61	0	1147142144	56	6450
2026-01-15 11:17:28.26	329.13	10.45	-42.5	-47.7	9.7	1.01e-02	0	60	0	1149239296	56	6581
2026-01-15 11:17:29.27	329.22	10.37	-42.5	-47.5	9.9	9.41e-03	0	61	0	1151336448	56	6448
2026-01-15 11:17:30.28	329.31	10.29	-42.4	-47.3	10.0	7.59e-03	0	61	0	1153433600	56	6337
2026-01-15 11:17:31.29	329.40	10.21	-42.5	-47.5	9.9	1.06e-02	0	61	0	1155530752	56	6454
2026-01-15 11:17:32.30	329.49	10.14	-42.4	-47.3	10.1	7.18e-03	0	61	0	1156579328	56	6286
