passes_logs/2026/01/15/R2.0S_Moscow/R2.0S_Moscow__20260115_153015_FENGYUN_3E_rec.log

#Pass ID: 20260115_153015_FENGYUN 3E
#Satellite: FENGYUN 3E
#Configuration: FENGYUN 3E
#almurnet v.1.7.20251203
#Start time: 2026-01-15 15:30:16

#Version: 2.2.20231116
#Station: R2.0S_Moscow
#Location: 37.707566 lon 55.798166 lat
#TLE: 1 49008U 21062A   26014.58289545 -.00000120  00000+0 -35876-4 0  9998
#TLE: 2 49008  98.7488  19.7165 0002000 137.1107 223.0226 14.19884293234788

#Time	Az	El	Level	Level2	SNR	BER	BlckErr	Temp	State	Recorded	gain1	gain2
2026-01-15 15:30:16.16	199.79	2.07	-44.3	-55.4	3.8	8.46e-01	0	50	0	0	59	12749
2026-01-15 15:30:17.17	199.85	2.13	-44.3	-55.4	3.8	8.46e-01	0	51	104	0	59	12698
2026-01-15 15:30:18.18	199.92	2.18	-44.3	-55.3	3.8	8.45e-01	0	51	104	0	59	12624
2026-01-15 15:30:19.19	199.98	2.24	-44.3	-55.3	3.8	8.46e-01	0	51	104	0	59	12622
2026-01-15 15:30:20.19	200.04	2.30	-44.3	-55.3	3.8	8.46e-01	0	51	104	0	59	12606
2026-01-15 15:30:21.20	200.10	2.36	-44.3	-55.3	3.8	8.47e-01	0	51	104	0	59	12625
2026-01-15 15:30:22.21	200.17	2.42	-44.3	-55.3	3.8	8.46e-01	0	51	104	0	59	12585
2026-01-15 15:30:23.22	200.23	2.48	-44.3	-55.4	3.8	8.46e-01	0	51	104	0	59	12665
2026-01-15 15:30:24.23	200.29	2.54	-44.3	-55.3	3.8	8.46e-01	0	51	104	0	59	12633
2026-01-15 15:30:25.24	200.36	2.60	-44.3	-55.3	3.8	8.47e-01	0	52	104	0	59	12601
2026-01-15 15:30:26.25	200.42	2.65	-44.3	-55.3	3.8	8.45e-01	0	52	104	0	59	12547
2026-01-15 15:30:27.26	200.49	2.71	-44.3	-55.3	3.8	8.46e-01	0	52	104	0	59	12660
2026-01-15 15:30:28.27	200.55	2.77	-44.3	-55.3	3.8	8.47e-01	0	52	104	0	59	12648
2026-01-15 15:30:29.28	200.62	2.83	-44.3	-55.3	3.8	8.46e-01	0	52	104	0	59	12566
2026-01-15 15:30:30.29	200.68	2.89	-44.3	-55.3	3.8	8.46e-01	0	52	104	0	59	12596
2026-01-15 15:30:31.30	200.75	2.95	-44.3	-55.3	3.8	8.45e-01	0	52	104	0	59	12612
2026-01-15 15:30:32.31	200.81	3.01	-44.3	-55.3	3.8	8.45e-01	0	52	104	0	59	12586
2026-01-15 15:30:33.32	200.88	3.07	-44.3	-55.4	3.8	8.47e-01	0	52	104	0	59	12766
2026-01-15 15:30:34.33	200.95	3.13	-44.4	-55.4	3.8	8.46e-01	0	52	104	0	59	12782
2026-01-15 15:30:35.34	201.01	3.19	-44.4	-55.4	3.8	8.46e-01	0	53	104	0	59	12773
2026-01-15 15:30:36.35	201.08	3.25	-44.4	-55.4	3.8	8.47e-01	0	52	104	0	59	12756
2026-01-15 15:30:37.36	201.15	3.31	-44.3	-55.4	3.8	8.45e-01	0	52	104	0	59	12755
2026-01-15 15:30:38.37	201.21	3.37	-44.3	-55.4	3.8	8.45e-01	0	53	104	0	59	12697
2026-01-15 15:30:39.38	201.28	3.43	-44.3	-55.4	3.8	8.46e-01	0	53	104	0	59	12722
2026-01-15 15:30:40.39	201.35	3.50	-44.3	-55.4	3.8	8.45e-01	0	53	104	0	59	12685
2026-01-15 15:30:41.40	201.42	3.56	-44.3	-55.4	3.8	8.47e-01	0	53	104	0	59	12733
2026-01-15 15:30:42.41	201.48	3.62	-44.3	-55.3	3.8	8.47e-01	0	53	104	0	59	12636
2026-01-15 15:30:43.42	201.55	3.68	-44.3	-55.4	3.8	8.45e-01	0	53	104	0	59	12666
2026-01-15 15:30:44.43	201.62	3.74	-44.3	-55.4	3.8	8.46e-01	0	53	104	0	59	12689
2026-01-15 15:30:45.44	201.69	3.80	-44.3	-55.3	3.8	8.45e-01	0	53	104	0	59	12657
2026-01-15 15:30:46.45	201.76	3.86	-44.3	-55.4	3.8	8.46e-01	0	53	104	0	59	12674
2026-01-15 15:30:47.46	201.83	3.92	-44.3	-55.4	3.8	8.47e-01	0	53	104	0	59	12728
2026-01-15 15:30:48.47	201.90	3.98	-44.3	-55.4	3.8	8.46e-01	0	53	104	0	59	12703
2026-01-15 15:30:49.48	201.97	4.05	-44.3	-55.4	3.8	8.45e-01	0	53	104	0	59	12735
2026-01-15 15:30:50.49	202.04	4.11	-44.3	-55.4	3.8	8.47e-01	0	53	104	0	59	12719
2026-01-15 15:30:51.50	202.11	4.17	-44.3	-55.4	3.8	8.45e-01	0	53	104	0	59	12747
2026-01-15 15:30:52.51	202.18	4.23	-44.3	-55.4	3.8	8.46e-01	0	53	104	0	59	12671
2026-01-15 15:30:53.51	202.25	4.29	-44.3	-55.3	3.8	8.46e-01	0	53	104	0	59	12650
2026-01-15 15:30:54.52	202.32	4.36	-44.3	-55.4	3.8	8.46e-01	0	53	104	0	59	12716
2026-01-15 15:30:55.53	202.40	4.42	-44.3	-55.3	3.8	8.46e-01	0	54	104	0	59	12592
2026-01-15 15:30:56.54	202.47	4.48	-44.3	-55.4	3.8	8.47e-01	0	54	104	0	59	12700
2026-01-15 15:30:57.55	202.54	4.54	-44.3	-55.4	3.8	8.45e-01	0	54	104	0	59	12700
2026-01-15 15:30:58.56	202.61	4.60	-44.3	-55.4	3.8	8.46e-01	0	54	104	0	59	12695
2026-01-15 15:30:59.57	202.69	4.67	-44.3	-55.4	3.8	8.47e-01	0	54	104	0	59	12712
2026-01-15 15:31:00.58	202.76	4.73	-44.3	-55.4	3.8	8.46e-01	0	54	104	0	59	12690
2026-01-15 15:31:01.59	202.84	4.79	-44.3	-55.4	3.8	8.46e-01	0	54	104	0	59	12716
2026-01-15 15:31:02.60	202.91	4.86	-44.3	-55.4	3.8	8.46e-01	0	54	104	0	59	12683
2026-01-15 15:31:03.61	202.98	4.92	-44.3	-55.3	3.8	8.46e-01	0	54	104	0	59	12658
2026-01-15 15:31:04.62	203.06	4.98	-44.3	-55.3	3.8	8.46e-01	0	54	104	0	59	12591
2026-01-15 15:31:05.64	203.13	5.05	-44.3	-55.3	3.8	8.45e-01	0	54	104	0	59	12640
2026-01-15 15:31:06.65	203.21	5.11	-44.3	-55.4	3.8	8.45e-01	0	54	104	0	59	12713
2026-01-15 15:31:07.66	203.28	5.17	-44.3	-55.3	3.8	8.46e-01	0	54	104	0	59	12619
2026-01-15 15:31:08.67	203.36	5.24	-44.3	-55.3	3.8	8.46e-01	0	54	104	0	59	12637
2026-01-15 15:31:09.68	203.44	5.30	-44.3	-55.3	3.8	8.46e-01	0	55	104	0	59	12521
2026-01-15 15:31:10.69	203.51	5.37	-44.3	-55.2	3.8	8.46e-01	0	54	104	0	59	12497
2026-01-15 15:31:11.70	203.59	5.43	-44.3	-55.0	3.8	8.45e-01	0	55	104	0	59	12152
2026-01-15 15:31:12.71	203.67	5.49	-44.3	-54.8	3.8	8.46e-01	0	55	104	0	59	11939
2026-01-15 15:31:13.72	203.75	5.56	-44.2	-54.6	3.8	8.45e-01	0	55	104	0	59	11620
2026-01-15 15:31:14.73	203.82	5.62	-44.1	-54.3	3.8	8.46e-01	0	55	104	0	59	11219
2026-01-15 15:31:15.74	203.90	5.69	-44.1	-53.9	3.8	8.46e-01	0	55	104	0	59	10729
2026-01-15 15:31:16.75	203.98	5.75	-44.0	-53.4	3.8	8.45e-01	0	55	104	0	59	10140
2026-01-15 15:31:17.76	204.06	5.82	-44.0	-53.0	3.8	8.44e-01	0	55	104	0	58	10268
2026-01-15 15:31:18.77	204.14	5.88	-43.9	-52.4	4.1	8.44e-01	0	55	104	0	58	9603
2026-01-15 15:31:19.78	204.22	5.95	-43.8	-51.7	4.2	8.36e-01	0	55	0	0	58	8862
2026-01-15 15:31:20.79	204.30	6.01	-43.7	-51.4	4.3	8.35e-01	0	55	0	0	58	8534
2026-01-15 15:31:21.79	204.38	6.08	-43.5	-50.6	4.6	8.15e-01	0	55	0	0	58	7732
2026-01-15 15:31:22.80	204.46	6.14	-43.5	-50.4	4.7	8.06e-01	0	55	0	0	57	8055
2026-01-15 15:31:23.81	204.54	6.21	-43.4	-50.2	4.8	7.99e-01	0	55	0	0	57	7821
2026-01-15 15:31:24.82	204.62	6.27	-43.3	-50.1	4.9	7.99e-01	0	55	0	0	57	7766
2026-01-15 15:31:25.83	204.70	6.34	-43.2	-49.6	5.1	7.62e-01	0	55	0	0	57	7289
2026-01-15 15:31:26.84	204.78	6.40	-42.9	-48.6	5.8	5.33e-01	0	55	0	1048576	56	6933
2026-01-15 15:31:27.85	204.87	6.47	-42.9	-48.5	5.9	3.93e-01	0	55	0	8388608	56	6830
2026-01-15 15:31:28.86	204.95	6.54	-42.9	-48.6	5.9	3.92e-01	0	55	0	15728640	56	6889
2026-01-15 15:31:29.87	205.03	6.60	-42.7	-48.2	6.1	3.20e-01	0	55	0	23068672	56	6591
2026-01-15 15:31:30.88	205.12	6.67	-42.8	-48.2	6.0	3.34e-01	0	56	0	30408704	56	6641
2026-01-15 15:31:31.89	205.20	6.73	-42.8	-48.4	5.9	3.45e-01	0	56	0	37748736	56	6794
2026-01-15 15:31:32.90	205.28	6.80	-43.1	-49.2	5.4	7.07e-01	0	56	0	41943040	56	7397
2026-01-15 15:31:33.90	205.37	6.87	-43.1	-49.4	5.3	7.43e-01	0	56	0	42991616	56	7607
2026-01-15 15:31:34.91	205.45	6.93	-43.2	-49.6	5.2	7.56e-01	0	56	0	44040192	56	7746
2026-01-15 15:31:35.92	205.54	7.00	-43.3	-49.8	5.0	7.71e-01	0	56	0	45088768	56	7989
2026-01-15 15:31:36.93	205.62	7.07	-43.1	-49.0	5.5	7.24e-01	0	56	0	46137344	56	7242
2026-01-15 15:31:37.94	205.71	7.13	-42.9	-48.7	5.8	5.81e-01	0	56	0	50331648	56	6976
2026-01-15 15:31:38.95	205.80	7.20	-42.5	-47.5	6.7	2.84e-01	0	56	0	57671680	56	6082
2026-01-15 15:31:39.95	205.88	7.27	-42.0	-46.4	7.5	1.17e-01	0	56	0	63963136	55	5706
2026-01-15 15:31:40.96	205.97	7.34	-41.6	-45.6	8.3	6.56e-02	0	56	0	71303168	54	5467
2026-01-15 15:31:41.97	206.06	7.40	-40.9	-44.4	9.6	1.72e-02	0	56	0	79691776	52	5375
2026-01-15 15:31:42.98	206.14	7.47	-40.5	-43.6	10.4	6.91e-03	0	56	0	85983232	51	5196
2026-01-15 15:31:43.98	206.23	7.54	-40.0	-42.9	11.2	2.20e-03	0	56	0	93323264	51	4775
2026-01-15 15:31:44.99	206.32	7.61	-39.7	-42.4	11.6	7.79e-04	0	56	0	100663296	50	4814
2026-01-15 15:31:45.99	206.41	7.67	-39.3	-41.9	12.2	3.09e-04	0	56	0	108003328	49	4785
2026-01-15 15:31:47.00	206.50	7.74	-39.1	-41.6	12.5	1.29e-04	0	56	0	115343360	49	4624
2026-01-15 15:31:48.01	206.59	7.81	-38.9	-41.4	12.7	9.04e-05	0	56	0	122683392	48	4767
2026-01-15 15:31:49.02	206.68	7.88	-38.9	-41.3	12.9	5.60e-05	0	56	0	130023424	48	4717
2026-01-15 15:31:50.02	206.77	7.95	-39.1	-41.6	12.5	1.02e-04	0	56	0	137363456	48	4872
2026-01-15 15:31:51.03	206.86	8.02	-39.4	-42.0	12.1	2.08e-04	0	56	0	144703488	48	5149
2026-01-15 15:31:52.04	206.95	8.09	-44.2	-51.9	4.3	8.27e-01	0	56	0	147849216	58	9053
2026-01-15 15:31:53.05	207.04	8.15	-44.0	-54.3	3.8	7.64e-02	0	56	104	150994944	57	12556
2026-01-15 15:31:54.06	207.14	8.22	-41.6	-45.4	8.9	5.92e-03	0	56	0	154140672	52	6006
2026-01-15 15:31:55.07	207.23	8.29	-39.8	-42.5	11.8	2.38e-04	0	56	0	161480704	50	4820
2026-01-15 15:31:56.08	207.32	8.36	-42.9	-48.8	5.6	2.64e-01	0	57	0	168820736	55	7461
2026-01-15 15:31:57.09	207.42	8.43	-38.9	-41.3	13.0	1.25e-04	0	57	0	176160768	48	4723
2026-01-15 15:31:58.09	207.51	8.50	-38.6	-40.9	13.4	1.94e-05	0	57	0	183500800	48	4523
2026-01-15 15:31:59.10	207.60	8.57	-38.7	-41.0	13.4	1.83e-05	0	57	0	189792256	48	4565
2026-01-15 15:32:00.11	207.70	8.64	-38.7	-41.0	13.3	1.60e-05	0	57	0	197132288	48	4586
2026-01-15 15:32:01.12	207.79	8.71	-38.7	-41.1	13.3	2.17e-05	0	57	0	205520896	48	4605
2026-01-15 15:32:02.13	207.89	8.78	-38.8	-41.2	13.2	3.54e-05	0	56	0	211812352	48	4670
2026-01-15 15:32:03.14	207.99	8.85	-38.7	-41.0	13.4	1.83e-05	0	57	0	219152384	48	4592
2026-01-15 15:32:04.15	208.08	8.92	-38.7	-41.0	13.4	1.14e-05	0	57	0	226492416	48	4589
2026-01-15 15:32:05.16	208.18	8.99	-38.6	-41.0	13.5	1.71e-05	0	57	0	233832448	48	4549
2026-01-15 15:32:06.17	208.28	9.06	-38.8	-41.2	13.3	1.37e-05	0	57	0	241172480	48	4653
2026-01-15 15:32:07.18	208.38	9.13	-38.7	-41.1	13.4	2.40e-05	0	57	0	248512512	48	4608
2026-01-15 15:32:08.19	208.47	9.20	-38.6	-40.9	13.5	1.02e-05	0	57	0	255852544	48	4532
2026-01-15 15:32:09.20	208.57	9.28	-38.6	-41.0	13.5	1.48e-05	0	57	0	263192576	48	4549
2026-01-15 15:32:10.21	208.67	9.35	-38.6	-40.9	13.5	1.25e-05	0	57	0	270532608	48	4532
2026-01-15 15:32:11.22	208.77	9.42	-38.7	-41.0	13.4	1.60e-05	0	57	0	277872640	48	4583
2026-01-15 15:32:12.23	208.87	9.49	-38.6	-41.0	13.5	1.48e-05	0	57	0	285212672	48	4551
2026-01-15 15:32:13.24	208.97	9.56	-38.5	-40.8	13.7	1.25e-05	0	57	0	292552704	48	4455
2026-01-15 15:32:14.25	209.08	9.63	-38.3	-40.7	13.6	1.25e-05	0	57	0	299892736	47	4654
2026-01-15 15:32:15.26	209.18	9.70	-38.3	-40.6	13.7	6.80e-06	0	57	0	307232768	47	4611
2026-01-15 15:32:16.27	209.28	9.78	-38.2	-40.5	13.8	3.40e-06	0	57	0	314572800	47	4563
2026-01-15 15:32:17.28	209.38	9.85	-38.3	-40.6	13.7	6.80e-06	0	57	0	321912832	47	4602
2026-01-15 15:32:18.29	209.49	9.92	-38.1	-40.3	13.9	3.40e-06	0	57	0	329252864	47	4491
2026-01-15 15:32:19.29	209.59	9.99	-38.1	-40.4	13.9	2.20e-06	0	57	0	336592896	47	4508
2026-01-15 15:32:20.30	209.69	10.07	-38.1	-40.3	14.0	6.80e-06	0	57	0	342884352	47	4486
2026-01-15 15:32:21.31	209.80	10.14	-38.1	-40.3	14.0	4.50e-06	0	57	0	350224384	47	4488
2026-01-15 15:32:22.32	209.90	10.21	-38.0	-40.2	14.1	5.70e-06	0	57	0	357564416	47	4434
2026-01-15 15:32:23.33	210.01	10.28	-38.1	-40.4	14.0	2.20e-06	0	57	0	364904448	47	4496
2026-01-15 15:32:24.34	210.12	10.36	-38.2	-40.5	13.9	4.50e-06	0	57	0	372244480	47	4549
2026-01-15 15:32:25.35	210.22	10.43	-38.1	-40.4	13.9	3.40e-06	0	57	0	379584512	47	4510
2026-01-15 15:32:26.36	210.33	10.50	-38.1	-40.4	14.0	5.70e-06	0	57	0	386924544	47	4519
2026-01-15 15:32:27.37	210.44	10.58	-38.1	-40.3	14.0	2.20e-06	0	57	0	394264576	47	4485
2026-01-15 15:32:28.38	210.55	10.65	-38.0	-40.2	14.1	4.50e-06	0	57	0	401604608	46	4690
2026-01-15 15:32:29.39	210.66	10.72	-38.0	-40.2	14.1	2.20e-06	0	57	0	408944640	46	4685
2026-01-15 15:32:30.40	210.77	10.80	-38.0	-40.2	14.2	1.10e-06	0	57	0	416284672	46	4682
2026-01-15 15:32:31.41	210.88	10.87	-38.1	-40.4	13.9	4.50e-06	0	58	0	423624704	46	4774
2026-01-15 15:32:32.42	210.99	10.95	-38.0	-40.2	14.1	0.00e+00	0	57	0	430964736	46	4699
2026-01-15 15:32:33.43	211.10	11.02	-37.9	-40.2	14.2	3.40e-06	0	57	0	438304768	46	4666
2026-01-15 15:32:34.44	211.21	11.09	-37.9	-40.1	14.2	0.00e+00	0	57	0	445644800	46	4644
2026-01-15 15:32:35.45	211.32	11.17	-37.9	-40.1	14.3	0.00e+00	0	57	0	452984832	46	4612
2026-01-15 15:32:36.46	211.43	11.24	-37.9	-40.1	14.2	2.20e-06	0	57	0	460324864	46	4622
2026-01-15 15:32:37.46	211.55	11.32	-38.0	-40.2	14.2	3.40e-06	0	58	0	466616320	46	4663
2026-01-15 15:32:38.47	211.66	11.39	-37.9	-40.1	14.3	4.50e-06	0	58	0	475004928	46	4631
2026-01-15 15:32:39.48	211.78	11.47	-38.0	-40.2	14.2	0.00e+00	0	58	0	482344960	46	4659
2026-01-15 15:32:40.49	211.89	11.54	-38.0	-40.2	14.1	1.10e-06	0	57	0	488636416	46	4695
2026-01-15 15:32:41.50	212.01	11.62	-38.0	-40.2	14.1	0.00e+00	0	58	0	495976448	46	4701
2026-01-15 15:32:42.51	212.12	11.69	-37.9	-40.2	14.2	1.10e-06	0	58	0	503316480	46	4661
2026-01-15 15:32:43.52	212.24	11.77	-38.0	-40.2	14.2	3.40e-06	0	58	0	510656512	46	4679
2026-01-15 15:32:44.53	212.36	11.84	-38.0	-40.2	14.1	3.40e-06	0	58	0	517996544	46	4691
2026-01-15 15:32:45.54	212.47	11.92	-38.1	-40.3	14.1	5.70e-06	0	58	0	525336576	46	4737
2026-01-15 15:32:46.54	212.59	11.99	-38.1	-40.3	14.1	2.20e-06	0	58	0	532676608	46	4740
2026-01-15 15:32:47.55	212.71	12.07	-37.9	-40.1	14.3	1.10e-06	0	58	0	540016640	46	4629
2026-01-15 15:32:48.56	212.83	12.15	-38.1	-40.3	14.2	2.20e-06	0	58	0	547356672	46	4710
2026-01-15 15:32:49.57	212.95	12.22	-38.0	-40.1	14.3	1.10e-06	0	58	0	554696704	46	4636
2026-01-15 15:32:50.58	213.07	12.30	-37.8	-39.9	14.5	0.00e+00	0	58	0	562036736	46	4535
2026-01-15 15:32:51.59	213.19	12.38	-37.8	-40.0	14.5	0.00e+00	0	58	0	569376768	46	4546
2026-01-15 15:32:52.60	213.32	12.45	-37.7	-39.8	14.7	0.00e+00	0	58	0	576716800	46	4460
2026-01-15 15:32:53.61	213.44	12.53	-37.8	-39.9	14.6	0.00e+00	0	58	0	584056832	46	4502
2026-01-15 15:32:54.62	213.56	12.61	-37.8	-39.8	14.7	2.20e-06	0	58	0	591396864	46	4491
2026-01-15 15:32:55.62	213.68	12.68	-37.8	-39.8	14.6	0.00e+00	0	58	0	598736896	46	4491
2026-01-15 15:32:56.63	213.81	12.76	-37.8	-39.9	14.6	1.10e-06	0	58	0	606076928	46	4521
2026-01-15 15:32:57.64	213.93	12.84	-37.7	-39.8	14.7	0.00e+00	0	58	0	613416960	46	4463
2026-01-15 15:32:58.65	214.06	12.91	-37.8	-39.8	14.8	0.00e+00	0	58	0	619708416	46	4451
2026-01-15 15:32:59.66	214.19	12.99	-37.8	-39.9	14.6	0.00e+00	0	58	0	627048448	46	4525
2026-01-15 15:33:00.67	214.31	13.07	-37.8	-39.8	14.7	0.00e+00	0	58	0	635437056	46	4477
2026-01-15 15:33:01.68	214.44	13.15	-37.7	-39.7	14.8	0.00e+00	0	58	0	641728512	46	4420
2026-01-15 15:33:02.69	214.57	13.22	-37.6	-39.6	14.9	0.00e+00	0	58	0	649068544	46	4387
2026-01-15 15:33:03.70	214.70	13.30	-37.6	-39.6	14.9	0.00e+00	0	58	0	656408576	46	4383
2026-01-15 15:33:04.71	214.83	13.38	-37.6	-39.6	15.0	0.00e+00	0	58	0	663748608	46	4376
2026-01-15 15:33:05.72	214.96	13.46	-37.6	-39.6	15.0	0.00e+00	0	58	0	671088640	46	4366
2026-01-15 15:33:06.72	215.09	13.54	-37.6	-39.6	15.1	0.00e+00	0	58	0	678428672	46	4348
2026-01-15 15:33:07.73	215.22	13.62	-37.6	-39.6	15.0	0.00e+00	0	58	0	685768704	46	4387
2026-01-15 15:33:08.74	215.35	13.69	-37.6	-39.6	15.0	0.00e+00	0	58	0	693108736	46	4378
2026-01-15 15:33:09.75	215.49	13.77	-37.6	-39.6	15.0	0.00e+00	0	58	0	700448768	46	4378
2026-01-15 15:33:10.76	215.62	13.85	-37.6	-39.6	15.0	0.00e+00	0	58	0	707788800	46	4350
2026-01-15 15:33:11.77	215.76	13.93	-37.5	-39.5	15.1	0.00e+00	0	58	0	715128832	46	4337
2026-01-15 15:33:12.78	215.89	14.01	-37.6	-39.6	15.0	1.10e-06	0	59	0	722468864	46	4375
2026-01-15 15:33:13.79	216.03	14.09	-37.5	-39.6	14.9	0.00e+00	0	58	0	729808896	45	4612
2026-01-15 15:33:14.80	216.16	14.17	-37.4	-39.5	15.1	6.80e-06	0	58	0	737148928	45	4554
2026-01-15 15:33:15.81	216.30	14.25	-37.4	-39.4	15.2	0.00e+00	0	58	0	743440384	45	4543
2026-01-15 15:33:16.82	216.44	14.33	-37.5	-39.5	15.1	0.00e+00	0	58	0	751828992	45	4562
2026-01-15 15:33:17.83	216.58	14.41	-37.4	-39.4	15.2	0.00e+00	0	58	0	759169024	45	4535
2026-01-15 15:33:18.84	216.72	14.49	-37.4	-39.4	15.2	0.00e+00	0	58	0	765460480	45	4526
2026-01-15 15:33:19.85	216.86	14.57	-37.4	-39.4	15.2	0.00e+00	0	58	0	772800512	45	4505
2026-01-15 15:33:20.86	217.00	14.65	-37.4	-39.4	15.2	0.00e+00	0	58	0	780140544	45	4533
2026-01-15 15:33:21.87	217.14	14.73	-37.3	-39.4	15.3	0.00e+00	0	58	0	787480576	45	4496
2026-01-15 15:33:22.88	217.28	14.81	-37.3	-39.4	15.3	0.00e+00	0	59	0	794820608	45	4495
2026-01-15 15:33:23.89	217.43	14.89	-37.3	-39.3	15.3	0.00e+00	0	59	0	802160640	45	4472
2026-01-15 15:33:24.90	217.57	14.97	-37.3	-39.3	15.3	0.00e+00	0	58	0	809500672	45	4459
2026-01-15 15:33:25.91	217.71	15.05	-37.3	-39.4	15.3	0.00e+00	0	59	0	816840704	45	4494
2026-01-15 15:33:26.92	217.86	15.13	-37.3	-39.3	15.3	0.00e+00	0	58	0	824180736	45	4460
2026-01-15 15:33:27.93	218.01	15.21	-37.2	-39.2	15.4	0.00e+00	0	58	0	831520768	45	4439
2026-01-15 15:33:28.94	218.15	15.29	-37.1	-39.0	15.6	0.00e+00	0	59	0	838860800	45	4337
2026-01-15 15:33:29.95	218.30	15.37	-37.1	-39.0	15.6	0.00e+00	0	59	0	846200832	45	4336
2026-01-15 15:33:30.96	218.45	15.45	-37.0	-38.9	15.6	0.00e+00	0	59	0	853540864	44	4540
2026-01-15 15:33:31.96	218.60	15.53	-36.9	-38.8	15.8	0.00e+00	0	58	0	860880896	44	4461
2026-01-15 15:33:32.97	218.75	15.61	-36.9	-38.8	15.8	0.00e+00	0	58	0	868220928	44	4464
2026-01-15 15:33:33.98	218.90	15.69	-36.9	-38.9	15.7	0.00e+00	0	59	0	875560960	44	4498
2026-01-15 15:33:34.99	219.05	15.77	-36.9	-38.9	15.7	0.00e+00	0	59	0	882900992	44	4527
2026-01-15 15:33:36.00	219.20	15.85	-36.9	-38.9	15.7	0.00e+00	0	59	0	890241024	44	4500
2026-01-15 15:33:37.01	219.36	15.94	-36.9	-38.9	15.7	0.00e+00	0	59	0	896532480	44	4537
2026-01-15 15:33:38.02	219.51	16.02	-36.9	-38.9	15.7	0.00e+00	0	59	0	904921088	44	4502
2026-01-15 15:33:39.03	219.67	16.10	-36.9	-38.9	15.7	0.00e+00	0	59	0	912261120	44	4529
2026-01-15 15:33:40.04	219.82	16.18	-36.9	-38.9	15.7	0.00e+00	0	58	0	918552576	44	4526
2026-01-15 15:33:41.04	219.98	16.26	-37.1	-39.1	15.5	0.00e+00	0	59	0	925892608	44	4614
2026-01-15 15:33:42.05	220.13	16.34	-37.0	-38.9	15.7	0.00e+00	0	59	0	933232640	44	4532
2026-01-15 15:33:43.06	220.29	16.42	-36.9	-38.8	15.8	0.00e+00	0	59	0	940572672	44	4489
2026-01-15 15:33:44.07	220.45	16.51	-36.8	-38.8	15.8	0.00e+00	0	59	0	947912704	44	4448
2026-01-15 15:33:45.08	220.61	16.59	-36.9	-38.8	15.8	0.00e+00	0	59	0	955252736	44	4485
2026-01-15 15:33:46.09	220.77	16.67	-36.9	-38.8	15.8	0.00e+00	0	58	0	962592768	44	4463
2026-01-15 15:33:47.10	220.93	16.75	-36.9	-38.7	15.9	0.00e+00	0	59	0	969932800	44	4440
2026-01-15 15:33:48.11	221.10	16.83	-36.8	-38.6	16.0	0.00e+00	0	59	0	977272832	44	4377
2026-01-15 15:33:49.12	221.26	16.92	-36.7	-38.5	16.1	0.00e+00	0	59	0	984612864	44	4337
2026-01-15 15:33:50.13	221.42	17.00	-36.7	-38.5	16.2	0.00e+00	0	59	0	991952896	44	4305
2026-01-15 15:33:51.14	221.59	17.08	-36.7	-38.5	16.2	0.00e+00	0	59	0	999292928	44	4304
2026-01-15 15:33:52.15	221.75	17.16	-36.6	-38.4	16.3	0.00e+00	0	59	0	1006632960	44	4248
2026-01-15 15:33:53.16	221.92	17.25	-36.4	-38.2	16.4	0.00e+00	0	59	0	1013972992	43	4393
2026-01-15 15:33:54.17	222.09	17.33	-36.3	-38.1	16.5	0.00e+00	0	59	0	1021313024	43	4355
2026-01-15 15:33:55.18	222.26	17.41	-36.4	-38.2	16.4	0.00e+00	0	59	0	1028653056	43	4404
2026-01-15 15:33:56.19	222.43	17.49	-36.3	-38.1	16.4	0.00e+00	0	59	0	1035993088	43	4367
2026-01-15 15:33:57.20	222.60	17.58	-36.4	-38.1	16.5	0.00e+00	0	59	0	1042284544	43	4358
2026-01-15 15:33:58.21	222.77	17.66	-36.4	-38.1	16.4	0.00e+00	0	59	0	1049624576	43	4390
2026-01-15 15:33:59.23	222.94	17.74	-36.5	-38.2	16.3	0.00e+00	0	59	0	1058013184	43	4434
2026-01-15 15:34:00.23	223.11	17.82	-36.4	-38.2	16.4	0.00e+00	0	59	0	1064304640	43	4423
2026-01-15 15:34:01.24	223.29	17.91	-36.4	-38.2	16.4	0.00e+00	0	59	0	1071644672	43	4434
2026-01-15 15:34:02.26	223.47	17.99	-36.4	-38.2	16.4	0.00e+00	0	59	0	1078984704	43	4412
2026-01-15 15:34:03.27	223.64	18.07	-36.4	-38.2	16.4	0.00e+00	0	59	0	1086324736	43	4416
2026-01-15 15:34:04.27	223.82	18.15	-36.4	-38.1	16.4	0.00e+00	0	59	0	1093664768	43	4377
2026-01-15 15:34:05.28	223.99	18.24	-36.3	-38.1	16.5	0.00e+00	0	59	0	1101004800	43	4350
2026-01-15 15:34:06.29	224.17	18.32	-36.3	-38.0	16.5	0.00e+00	0	59	0	1108344832	43	4329
2026-01-15 15:34:07.30	224.35	18.40	-36.2	-37.9	16.6	0.00e+00	0	59	0	1115684864	43	4279
2026-01-15 15:34:08.31	224.53	18.49	-36.2	-37.9	16.7	0.00e+00	0	59	0	1123024896	43	4272
2026-01-15 15:34:09.32	224.72	18.57	-36.1	-37.8	16.7	0.00e+00	0	59	0	1130364928	43	4231
2026-01-15 15:34:10.33	224.90	18.65	-36.0	-37.8	16.8	0.00e+00	0	59	0	1137704960	43	4202
2026-01-15 15:34:11.34	225.08	18.73	-36.0	-37.7	16.8	0.00e+00	0	59	0	1145044992	42	4419
2026-01-15 15:34:12.35	225.27	18.82	-36.0	-37.7	16.9	0.00e+00	0	59	0	1152385024	42	4414
2026-01-15 15:34:13.36	225.45	18.90	-35.9	-37.7	16.9	0.00e+00	0	59	0	1159725056	42	4393
2026-01-15 15:34:14.37	225.64	18.98	-35.9	-37.7	16.9	0.00e+00	0	59	0	1167065088	42	4400
2026-01-15 15:34:15.37	225.82	19.06	-35.9	-37.7	16.9	0.00e+00	0	59	0	1174405120	42	4408
2026-01-15 15:34:16.38	226.01	19.15	-36.0	-37.7	16.8	0.00e+00	0	59	0	1181745152	42	4434
2026-01-15 15:34:17.39	226.20	19.23	-35.9	-37.7	16.9	0.00e+00	0	59	0	1189085184	42	4404
2026-01-15 15:34:18.40	226.39	19.31	-35.9	-37.7	16.8	0.00e+00	0	59	0	1195376640	42	4415
2026-01-15 15:34:19.41	226.58	19.39	-35.9	-37.7	16.8	0.00e+00	0	59	0	1202716672	42	4426
2026-01-15 15:34:20.41	226.77	19.48	-36.0	-37.7	16.8	0.00e+00	0	59	0	1210056704	42	4433
2026-01-15 15:34:21.42	226.97	19.56	-35.9	-37.7	16.8	0.00e+00	0	59	0	1217396736	42	4418
2026-01-15 15:34:22.43	227.16	19.64	-36.0	-37.8	16.7	0.00e+00	0	59	0	1224736768	42	4447
2026-01-15 15:34:23.43	227.36	19.72	-36.0	-37.8	16.7	0.00e+00	0	59	0	1232076800	42	4457
2026-01-15 15:34:24.44	227.55	19.80	-36.0	-37.7	16.8	0.00e+00	0	59	0	1239416832	42	4437
2026-01-15 15:34:25.45	227.75	19.89	-36.0	-37.7	16.8	0.00e+00	0	59	0	1246756864	42	4433
2026-01-15 15:34:26.46	227.95	19.97	-35.9	-37.7	16.8	0.00e+00	0	59	0	1254096896	42	4427
2026-01-15 15:34:27.47	228.15	20.05	-35.9	-37.6	16.9	0.00e+00	0	59	0	1261436928	42	4365
2026-01-15 15:34:28.48	228.35	20.13	-35.8	-37.6	17.0	0.00e+00	0	59	0	1268776960	42	4349
2026-01-15 15:34:29.49	228.55	20.22	-35.8	-37.5	17.0	0.00e+00	0	59	0	1276116992	42	4330
2026-01-15 15:34:30.49	228.75	20.30	-35.8	-37.5	17.0	0.00e+00	0	59	0	1283457024	42	4333
2026-01-15 15:34:31.50	228.96	20.38	-35.8	-37.5	17.0	0.00e+00	0	59	0	1290797056	42	4337
2026-01-15 15:34:32.51	229.16	20.46	-35.8	-37.5	17.0	0.00e+00	0	59	0	1297088512	42	4326
2026-01-15 15:34:33.52	229.37	20.54	-35.9	-37.6	16.9	0.00e+00	0	59	0	1305477120	42	4367
2026-01-15 15:34:34.52	229.57	20.62	-35.7	-37.4	17.2	0.00e+00	0	59	0	1312817152	42	4247
2026-01-15 15:34:35.53	229.78	20.70	-35.7	-37.4	17.2	0.00e+00	0	59	0	1319108608	42	4244
2026-01-15 15:34:36.54	229.99	20.78	-35.6	-37.2	17.3	0.00e+00	0	59	0	1326448640	42	4193
2026-01-15 15:34:37.55	230.20	20.87	-35.6	-37.2	17.3	0.00e+00	0	59	0	1333788672	42	4190
2026-01-15 15:34:38.56	230.41	20.95	-35.7	-37.3	17.3	0.00e+00	0	59	0	1341128704	42	4238
2026-01-15 15:34:39.56	230.62	21.03	-35.6	-37.3	17.3	0.00e+00	0	59	0	1348468736	42	4208
2026-01-15 15:34:40.57	230.84	21.11	-35.7	-37.3	17.3	0.00e+00	0	59	0	1355808768	42	4225
2026-01-15 15:34:41.58	231.05	21.19	-35.7	-37.3	17.3	0.00e+00	0	59	0	1363148800	42	4231
2026-01-15 15:34:42.59	231.27	21.27	-35.6	-37.2	17.3	0.00e+00	0	59	0	1370488832	42	4181
2026-01-15 15:34:43.60	231.48	21.35	-35.5	-37.1	17.4	0.00e+00	0	59	0	1377828864	42	4142
2026-01-15 15:34:44.61	231.70	21.43	-35.6	-37.2	17.4	0.00e+00	0	59	0	1385168896	42	4177
2026-01-15 15:34:45.62	231.92	21.51	-35.5	-37.2	17.4	0.00e+00	0	59	0	1392508928	42	4148
2026-01-15 15:34:46.63	232.14	21.59	-35.5	-37.2	17.4	0.00e+00	0	59	0	1399848960	42	4160
2026-01-15 15:34:47.64	232.36	21.67	-35.5	-37.2	17.4	0.00e+00	0	59	0	1407188992	42	4148
2026-01-15 15:34:48.65	232.58	21.75	-35.5	-37.2	17.4	0.00e+00	0	59	0	1414529024	42	4172
2026-01-15 15:34:49.66	232.81	21.83	-35.5	-37.2	17.3	0.00e+00	0	59	0	1421869056	42	4186
2026-01-15 15:34:50.67	233.03	21.91	-35.5	-37.2	17.3	0.00e+00	0	59	0	1429209088	42	4179
2026-01-15 15:34:51.68	233.26	21.99	-35.6	-37.3	17.3	0.00e+00	0	59	0	1436549120	42	4203
2026-01-15 15:34:52.69	233.48	22.06	-35.6	-37.2	17.3	0.00e+00	0	59	0	1443889152	42	4179
2026-01-15 15:34:53.70	233.71	22.14	-35.5	-37.2	17.4	0.00e+00	0	59	0	1450180608	42	4161
2026-01-15 15:34:54.70	233.94	22.22	-35.5	-37.2	17.4	0.00e+00	0	59	0	1457520640	41	4394
2026-01-15 15:34:55.71	234.17	22.30	-35.4	-37.1	17.5	0.00e+00	0	60	0	1464860672	41	4349
2026-01-15 15:34:56.72	234.40	22.38	-35.5	-37.1	17.4	0.00e+00	0	59	0	1472200704	41	4374
2026-01-15 15:34:57.73	234.63	22.45	-35.4	-37.1	17.5	0.00e+00	0	60	0	1479540736	41	4351
2026-01-15 15:34:58.74	234.87	22.53	-35.4	-37.1	17.5	0.00e+00	0	60	0	1486880768	41	4343
2026-01-15 15:34:59.75	235.10	22.61	-35.4	-37.1	17.5	0.00e+00	0	59	0	1494220800	41	4350
2026-01-15 15:35:00.76	235.34	22.69	-35.4	-37.0	17.6	0.00e+00	0	59	0	1501560832	41	4306
2026-01-15 15:35:01.77	235.58	22.76	-35.3	-36.9	17.6	0.00e+00	0	60	0	1508900864	41	4274
2026-01-15 15:35:02.78	235.81	22.84	-35.3	-36.9	17.6	0.00e+00	0	59	0	1516240896	41	4279
2026-01-15 15:35:03.79	236.05	22.91	-35.3	-36.9	17.6	0.00e+00	0	59	0	1523580928	41	4274
2026-01-15 15:35:04.80	236.29	22.99	-35.4	-37.0	17.6	0.00e+00	0	59	0	1530920960	41	4313
2026-01-15 15:35:05.81	236.53	23.07	-35.4	-37.0	17.6	0.00e+00	0	59	0	1538260992	41	4315
2026-01-15 15:35:06.82	236.78	23.14	-35.4	-37.1	17.5	0.00e+00	0	60	0	1545601024	41	4354
2026-01-15 15:35:07.83	237.02	23.22	-35.5	-37.1	17.5	0.00e+00	0	59	0	1552941056	41	4382
2026-01-15 15:35:08.84	237.27	23.29	-35.4	-37.1	17.5	0.00e+00	0	60	0	1560281088	41	4381
2026-01-15 15:35:09.85	237.51	23.36	-35.4	-37.1	17.5	0.00e+00	0	60	0	1567621120	41	4368
2026-01-15 15:35:10.86	237.76	23.44	-35.5	-37.2	17.4	0.00e+00	0	60	0	1574961152	41	4404
2026-01-15 15:35:11.87	238.01	23.51	-35.5	-37.3	17.3	0.00e+00	0	60	0	1582301184	41	4457
2026-01-15 15:35:12.88	238.26	23.59	-35.4	-37.1	17.4	0.00e+00	0	59	0	1589641216	41	4389
2026-01-15 15:35:13.88	238.51	23.66	-35.4	-37.1	17.4	0.00e+00	0	59	0	1596981248	41	4366
2026-01-15 15:35:14.90	238.76	23.73	-35.4	-37.0	17.5	0.00e+00	0	59	0	1603272704	41	4340
2026-01-15 15:35:15.91	239.01	23.80	-35.3	-37.0	17.5	0.00e+00	0	60	0	1610612736	41	4324
2026-01-15 15:35:16.91	239.26	23.87	-35.4	-37.1	17.5	0.00e+00	0	60	0	1617952768	41	4357
2026-01-15 15:35:17.92	239.52	23.94	-35.4	-37.1	17.5	0.00e+00	0	59	0	1625292800	41	4361
2026-01-15 15:35:18.93	239.78	24.02	-35.4	-37.1	17.5	0.00e+00	0	59	0	1632632832	41	4347
2026-01-15 15:35:19.94	240.03	24.09	-35.3	-36.9	17.6	0.00e+00	0	59	0	1639972864	41	4276
2026-01-15 15:35:20.95	240.29	24.16	-35.3	-36.9	17.7	0.00e+00	0	60	0	1647312896	41	4263
2026-01-15 15:35:21.96	240.55	24.23	-35.1	-36.7	17.8	0.00e+00	0	59	0	1654652928	41	4181
2026-01-15 15:35:22.97	240.81	24.30	-35.1	-36.7	17.9	0.00e+00	0	59	0	1661992960	41	4168
2026-01-15 15:35:23.98	241.08	24.36	-35.1	-36.7	17.8	0.00e+00	0	59	0	1669332992	41	4176
2026-01-15 15:35:24.99	241.34	24.43	-35.1	-36.7	17.8	0.00e+00	0	59	0	1676673024	41	4183
2026-01-15 15:35:26.01	241.61	24.50	-35.2	-36.8	17.7	0.00e+00	0	59	0	1684013056	41	4224
2026-01-15 15:35:27.02	241.87	24.57	-35.2	-36.8	17.7	0.00e+00	0	60	0	1691353088	41	4230
2026-01-15 15:35:28.03	242.14	24.64	-35.2	-36.9	17.7	0.00e+00	0	60	0	1698693120	41	4249
2026-01-15 15:35:29.04	242.40	24.70	-35.3	-36.9	17.7	0.00e+00	0	60	0	1706033152	41	4263
2026-01-15 15:35:30.05	242.67	24.77	-35.2	-36.7	17.8	0.00e+00	0	59	0	1713373184	41	4193
2026-01-15 15:35:31.06	242.94	24.83	-35.0	-36.6	17.9	0.00e+00	0	59	0	1720713216	41	4129
2026-01-15 15:35:32.07	243.21	24.90	-35.1	-36.7	17.9	0.00e+00	0	60	0	1728053248	41	4179
2026-01-15 15:35:33.08	243.49	24.96	-35.2	-36.8	17.8	0.00e+00	0	60	0	1735393280	41	4234
2026-01-15 15:35:34.09	243.76	25.03	-35.2	-36.8	17.8	0.00e+00	0	60	0	1742733312	41	4208
2026-01-15 15:35:35.10	244.03	25.09	-35.2	-36.9	17.7	0.00e+00	0	60	0	1749024768	41	4254
2026-01-15 15:35:36.11	244.31	25.15	-35.7	-36.9	18.0	0.00e+00	0	59	0	1756364800	41	4287
2026-01-15 15:35:37.12	244.58	25.22	-35.8	-36.9	18.0	0.00e+00	0	60	0	1764753408	41	4286
2026-01-15 15:35:38.13	244.86	25.28	-35.8	-37.0	18.0	0.00e+00	0	60	0	1771044864	41	4318
2026-01-15 15:35:39.14	245.14	25.34	-35.8	-37.0	18.0	0.00e+00	0	60	0	1778384896	41	4320
2026-01-15 15:35:40.15	245.42	25.40	-35.8	-37.0	18.0	0.00e+00	0	60	0	1785724928	41	4332
2026-01-15 15:35:41.16	245.70	25.46	-35.8	-37.0	18.0	0.00e+00	0	60	0	1793064960	41	4335
2026-01-15 15:35:42.17	245.98	25.52	-35.7	-36.9	18.1	0.00e+00	0	59	0	1800404992	41	4264
2026-01-15 15:35:43.18	246.26	25.58	-35.7	-36.9	18.1	0.00e+00	0	60	0	1807745024	41	4249
2026-01-15 15:35:44.19	246.55	25.64	-35.6	-36.8	18.2	0.00e+00	0	60	0	1815085056	41	4219
2026-01-15 15:35:45.20	246.83	25.70	-35.5	-36.7	18.3	0.00e+00	0	60	0	1822425088	41	4167
2026-01-15 15:35:46.20	247.12	25.75	-35.5	-36.7	18.3	0.00e+00	0	60	0	1829765120	41	4158
2026-01-15 15:35:47.21	247.40	25.81	-35.4	-36.6	18.4	0.00e+00	0	59	0	1837105152	41	4121
2026-01-15 15:35:48.22	247.69	25.87	-35.4	-36.6	18.4	0.00e+00	0	60	0	1844445184	41	4113
2026-01-15 15:35:49.23	247.98	25.92	-35.4	-36.6	18.4	0.00e+00	0	60	0	1851785216	41	4103
2026-01-15 15:35:50.24	248.27	25.98	-35.3	-36.5	18.5	0.00e+00	0	60	0	1859125248	41	4069
2026-01-15 15:35:51.25	248.56	26.03	-35.3	-36.5	18.5	0.00e+00	0	60	0	1866465280	41	4052
2026-01-15 15:35:52.26	248.85	26.08	-35.3	-36.4	18.6	0.00e+00	0	60	0	1873805312	41	4027
2026-01-15 15:35:53.27	249.14	26.14	-35.2	-36.3	18.7	0.00e+00	0	60	0	1881145344	41	3974
2026-01-15 15:35:54.27	249.43	26.19	-35.2	-36.3	18.7	0.00e+00	0	60	0	1888485376	41	3967
2026-01-15 15:35:55.28	249.73	26.24	-35.2	-36.3	18.7	0.00e+00	0	60	0	1895825408	41	3972
2026-01-15 15:35:56.29	250.02	26.29	-35.2	-36.3	18.7	0.00e+00	0	60	0	1902116864	41	4004
2026-01-15 15:35:57.30	250.32	26.34	-35.2	-36.4	18.7	0.00e+00	0	60	0	1909456896	41	4010
2026-01-15 15:35:58.31	250.62	26.39	-35.3	-36.4	18.6	0.00e+00	0	60	0	1916796928	41	4034
2026-01-15 15:35:59.32	250.91	26.44	-35.3	-36.5	18.5	0.00e+00	0	60	0	1924136960	41	4062
2026-01-15 15:36:00.33	251.21	26.48	-35.3	-36.4	18.6	0.00e+00	0	60	0	1931476992	41	4049
2026-01-15 15:36:01.34	251.51	26.53	-35.3	-36.4	18.6	0.00e+00	0	60	0	1938817024	41	4042
2026-01-15 15:36:02.35	251.81	26.58	-35.2	-36.3	18.7	0.00e+00	0	60	0	1946157056	41	3993
2026-01-15 15:36:03.35	252.11	26.62	-35.3	-36.4	18.6	0.00e+00	0	60	0	1953497088	41	4023
2026-01-15 15:36:04.36	252.41	26.67	-35.3	-36.5	18.5	0.00e+00	0	60	0	1960837120	41	4057
2026-01-15 15:36:05.37	252.72	26.71	-35.4	-36.5	18.5	0.00e+00	0	60	0	1968177152	41	4085
2026-01-15 15:36:06.38	253.02	26.76	-35.5	-36.6	18.4	0.00e+00	0	60	0	1975517184	41	4129
2026-01-15 15:36:07.39	253.33	26.80	-35.5	-36.7	18.3	0.00e+00	0	60	0	1982857216	41	4171
2026-01-15 15:36:08.40	253.63	26.84	-35.6	-36.7	18.3	0.00e+00	0	60	0	1990197248	41	4183
2026-01-15 15:36:09.41	253.94	26.88	-35.5	-36.7	18.3	0.00e+00	0	60	0	1997537280	41	4177
2026-01-15 15:36:10.43	254.25	26.92	-35.5	-36.7	18.4	0.00e+00	0	60	0	2004877312	41	4152
2026-01-15 15:36:11.44	254.56	26.96	-35.4	-36.6	18.4	0.00e+00	0	60	0	2012217344	41	4125
2026-01-15 15:36:12.45	254.86	27.00	-35.5	-36.7	18.3	0.00e+00	0	59	0	2019557376	41	4160
2026-01-15 15:36:13.46	255.17	27.04	-35.5	-36.7	18.4	0.00e+00	0	60	0	2025848832	41	4156
2026-01-15 15:36:14.47	255.48	27.07	-35.5	-36.7	18.3	0.00e+00	0	60	0	2034237440	41	4179
2026-01-15 15:36:15.48	255.79	27.11	-35.6	-36.8	18.3	0.00e+00	0	60	0	2041577472	41	4196
2026-01-15 15:36:16.49	256.11	27.14	-35.5	-36.7	18.3	0.00e+00	0	60	0	2047868928	41	4150
2026-01-15 15:36:17.49	256.41	27.18	-35.5	-36.6	18.4	0.00e+00	0	60	0	2055208960	41	4144
2026-01-15 15:36:18.50	256.73	27.21	-35.4	-36.5	18.5	0.00e+00	0	60	0	2062548992	41	4097
2026-01-15 15:36:19.51	257.04	27.24	-35.4	-36.6	18.5	0.00e+00	0	60	0	2069889024	41	4106
2026-01-15 15:36:20.52	257.35	27.28	-35.4	-36.5	18.5	0.00e+00	0	60	0	2077229056	41	4082
2026-01-15 15:36:21.53	257.67	27.31	-35.4	-36.6	18.4	0.00e+00	0	60	0	2084569088	41	4115
2026-01-15 15:36:22.53	257.98	27.34	-35.5	-36.7	18.3	0.00e+00	0	60	0	2091909120	41	4174
2026-01-15 15:36:23.54	258.30	27.36	-35.5	-36.7	18.3	0.00e+00	0	60	0	2099249152	41	4171
2026-01-15 15:36:24.55	258.61	27.39	-35.6	-36.8	18.2	0.00e+00	0	60	0	2106589184	41	4217
2026-01-15 15:36:25.56	258.93	27.42	-35.6	-36.8	18.2	0.00e+00	0	60	0	2113929216	41	4207
2026-01-15 15:36:26.57	259.25	27.45	-35.6	-36.8	18.2	0.00e+00	0	60	0	2121269248	41	4217
2026-01-15 15:36:27.58	259.56	27.47	-35.6	-36.7	18.3	0.00e+00	0	60	0	2128609280	41	4188
2026-01-15 15:36:28.59	259.88	27.50	-35.6	-36.7	18.2	0.00e+00	0	60	0	2135949312	41	4193
2026-01-15 15:36:29.60	260.20	27.52	-35.6	-36.8	18.3	0.00e+00	0	60	0	2143289344	41	4195
2026-01-15 15:36:30.61	260.52	27.54	-35.5	-36.7	18.3	0.00e+00	0	60	0	2150629376	41	4165
2026-01-15 15:36:31.62	260.84	27.56	-35.4	-36.6	18.4	0.00e+00	0	60	0	2157969408	41	4125
2026-01-15 15:36:32.63	261.16	27.59	-35.4	-36.5	18.5	0.00e+00	0	60	0	2165309440	41	4095
2026-01-15 15:36:33.64	261.48	27.61	-35.5	-36.6	18.4	0.00e+00	0	60	0	2172649472	41	4134
2026-01-15 15:36:34.65	261.80	27.62	-35.5	-36.7	18.3	0.00e+00	0	60	0	2178940928	41	4151
2026-01-15 15:36:35.66	262.12	27.64	-35.5	-36.7	18.3	0.00e+00	0	60	0	2186280960	41	4153
2026-01-15 15:36:36.67	262.44	27.66	-35.5	-36.7	18.3	0.00e+00	0	60	0	2194669568	41	4153
2026-01-15 15:36:37.68	262.76	27.68	-35.5	-36.6	18.4	0.00e+00	0	60	0	2200961024	41	4128
2026-01-15 15:36:38.69	263.09	27.69	-35.4	-36.5	18.5	0.00e+00	0	60	0	2208301056	41	4089
2026-01-15 15:36:39.70	263.41	27.70	-35.2	-36.4	18.7	0.00e+00	0	60	0	2215641088	41	4016
2026-01-15 15:36:40.71	263.73	27.72	-35.3	-36.4	18.6	0.00e+00	0	60	0	2222981120	41	4025
2026-01-15 15:36:41.72	264.05	27.73	-35.4	-36.5	18.5	0.00e+00	0	60	0	2230321152	41	4088
2026-01-15 15:36:42.73	264.38	27.74	-35.5	-36.6	18.4	0.00e+00	0	60	0	2237661184	41	4135
2026-01-15 15:36:43.74	264.70	27.75	-35.6	-36.8	18.3	0.00e+00	0	60	0	2245001216	41	4197
2026-01-15 15:36:44.75	265.02	27.76	-35.7	-36.8	18.2	0.00e+00	0	60	0	2252341248	41	4239
2026-01-15 15:36:45.76	265.35	27.77	-35.5	-36.7	18.4	0.00e+00	0	60	0	2259681280	41	4170
2026-01-15 15:36:46.77	265.67	27.78	-35.4	-36.5	18.5	0.00e+00	0	60	0	2267021312	41	4088
2026-01-15 15:36:47.78	265.99	27.78	-35.4	-36.5	18.5	0.00e+00	0	60	0	2274361344	41	4074
2026-01-15 15:36:48.79	266.32	27.79	-35.3	-36.4	18.6	0.00e+00	0	60	0	2281701376	41	4034
2026-01-15 15:36:49.80	266.64	27.79	-35.3	-36.4	18.6	0.00e+00	0	60	0	2289041408	41	4033
2026-01-15 15:36:50.81	266.97	27.80	-35.3	-36.5	18.6	0.00e+00	0	60	0	2296381440	41	4056
2026-01-15 15:36:51.82	267.29	27.80	-35.3	-36.4	18.6	0.00e+00	0	60	0	2303721472	41	4039
2026-01-15 15:36:52.83	267.61	27.80	-35.3	-36.5	18.5	0.00e+00	0	60	0	2311061504	41	4065
2026-01-15 15:36:53.84	267.94	27.80	-35.4	-36.5	18.5	0.00e+00	0	60	0	2318401536	41	4096
2026-01-15 15:36:54.85	268.26	27.80	-35.5	-36.7	18.4	0.00e+00	0	60	0	2324692992	41	4150
2026-01-15 15:36:55.86	268.59	27.80	-35.5	-36.7	18.4	0.00e+00	0	60	0	2332033024	41	4155
2026-01-15 15:36:56.87	268.91	27.80	-35.6	-36.8	18.3	0.00e+00	0	60	0	2340421632	41	4204
2026-01-15 15:36:57.88	269.24	27.80	-35.5	-36.7	18.4	0.00e+00	0	60	0	2346713088	41	4149
2026-01-15 15:36:58.89	269.56	27.79	-35.4	-36.5	18.5	0.00e+00	0	60	0	2354053120	41	4094
2026-01-15 15:36:59.90	269.88	27.79	-35.3	-36.4	18.6	0.00e+00	0	60	0	2361393152	41	4050
2026-01-15 15:37:00.90	270.20	27.78	-35.3	-36.4	18.6	0.00e+00	0	60	0	2368733184	41	4033
2026-01-15 15:37:01.91	270.53	27.77	-35.3	-36.5	18.5	0.00e+00	0	60	0	2376073216	41	4063
2026-01-15 15:37:02.92	270.85	27.77	-35.4	-36.5	18.5	0.00e+00	0	60	0	2383413248	41	4071
2026-01-15 15:37:03.93	271.17	27.76	-35.4	-36.5	18.5	0.00e+00	0	60	0	2390753280	41	4098
2026-01-15 15:37:04.94	271.50	27.75	-35.4	-36.5	18.5	0.00e+00	0	60	0	2398093312	41	4092
2026-01-15 15:37:05.95	271.82	27.74	-35.4	-36.5	18.5	0.00e+00	0	60	0	2405433344	41	4094
2026-01-15 15:37:06.95	272.14	27.72	-35.3	-36.4	18.6	0.00e+00	0	60	0	2412773376	41	4027
2026-01-15 15:37:07.96	272.46	27.71	-35.2	-36.3	18.7	0.00e+00	0	60	0	2420113408	41	3985
2026-01-15 15:37:08.97	272.78	27.70	-35.1	-36.3	18.7	0.00e+00	0	60	0	2427453440	41	3961
2026-01-15 15:37:09.98	273.11	27.68	-35.1	-36.2	18.8	0.00e+00	0	60	0	2434793472	41	3951
2026-01-15 15:37:10.99	273.43	27.67	-35.3	-36.5	18.5	0.00e+00	0	60	0	2442133504	41	4074
2026-01-15 15:37:11.99	273.75	27.65	-35.3	-36.5	18.5	0.00e+00	0	60	0	2449473536	41	4068
2026-01-15 15:37:13.00	274.07	27.63	-35.3	-36.5	18.5	0.00e+00	0	60	0	2455764992	41	4065
2026-01-15 15:37:14.01	274.39	27.61	-35.4	-36.6	18.5	0.00e+00	0	60	0	2463105024	41	4109
2026-01-15 15:37:15.02	274.71	27.60	-35.5	-36.6	18.4	0.00e+00	0	60	0	2471493632	41	4136
2026-01-15 15:37:16.03	275.03	27.58	-35.5	-36.7	18.4	0.00e+00	0	60	0	2477785088	41	4164
2026-01-15 15:37:17.04	275.35	27.55	-35.5	-36.6	18.4	0.00e+00	0	60	0	2485125120	41	4139
2026-01-15 15:37:18.04	275.66	27.53	-35.5	-36.7	18.4	0.00e+00	0	60	0	2492465152	41	4152
2026-01-15 15:37:19.05	275.98	27.51	-35.4	-36.5	18.5	0.00e+00	0	60	0	2499805184	41	4095
2026-01-15 15:37:20.06	276.30	27.48	-35.4	-36.6	18.5	0.00e+00	0	60	0	2507145216	41	4111
2026-01-15 15:37:21.07	276.62	27.46	-35.4	-36.5	18.5	0.00e+00	0	60	0	2514485248	41	4094
2026-01-15 15:37:22.08	276.93	27.43	-35.5	-36.6	18.4	0.00e+00	0	60	0	2521825280	41	4141
2026-01-15 15:37:23.09	277.25	27.41	-35.5	-36.7	18.4	0.00e+00	0	60	0	2529165312	41	4149
2026-01-15 15:37:24.10	277.57	27.38	-35.5	-36.7	18.3	0.00e+00	0	60	0	2536505344	41	4157
2026-01-15 15:37:25.10	277.88	27.35	-35.5	-36.7	18.3	0.00e+00	0	60	0	2543845376	41	4156
2026-01-15 15:37:26.11	278.19	27.32	-35.5	-36.7	18.4	0.00e+00	0	60	0	2551185408	41	4152
2026-01-15 15:37:27.12	278.51	27.29	-35.4	-36.6	18.4	0.00e+00	0	60	0	2558525440	41	4129
2026-01-15 15:37:28.13	278.82	27.26	-35.4	-36.6	18.4	0.00e+00	0	60	0	2565865472	41	4125
2026-01-15 15:37:29.14	279.13	27.23	-35.4	-36.6	18.4	0.00e+00	0	60	0	2573205504	41	4123
2026-01-15 15:37:30.15	279.45	27.20	-35.4	-36.5	18.5	0.00e+00	0	60	0	2579496960	41	4090
2026-01-15 15:37:31.16	279.76	27.16	-35.3	-36.5	18.5	0.00e+00	0	60	0	2586836992	41	4060
2026-01-15 15:37:32.16	280.07	27.13	-35.3	-36.5	18.5	0.00e+00	0	60	0	2594177024	41	4069
2026-01-15 15:37:33.17	280.38	27.09	-35.3	-36.4	18.6	0.00e+00	0	60	0	2601517056	41	4029
2026-01-15 15:37:34.18	280.69	27.06	-35.3	-36.4	18.6	0.00e+00	0	60	0	2608857088	41	4031
2026-01-15 15:37:35.19	280.99	27.02	-35.3	-36.4	18.6	0.00e+00	0	60	0	2616197120	41	4031
2026-01-15 15:37:36.20	281.30	26.98	-35.3	-36.5	18.5	0.00e+00	0	60	0	2623537152	41	4070
2026-01-15 15:37:37.21	281.61	26.94	-35.4	-36.6	18.5	0.00e+00	0	60	0	2630877184	41	4102
2026-01-15 15:37:38.22	281.92	26.90	-35.5	-36.7	18.3	0.00e+00	0	60	0	2638217216	41	4169
2026-01-15 15:37:39.23	282.22	26.86	-35.5	-36.7	18.3	0.00e+00	0	60	0	2645557248	41	4175
2026-01-15 15:37:40.24	282.53	26.82	-35.5	-36.7	18.3	0.00e+00	0	60	0	2652897280	41	4166
2026-01-15 15:37:41.25	282.83	26.78	-35.5	-36.7	18.3	0.00e+00	0	60	0	2660237312	41	4166
2026-01-15 15:37:42.25	283.13	26.74	-35.5	-36.7	18.3	0.00e+00	0	60	0	2667577344	41	4147
2026-01-15 15:37:43.26	283.44	26.69	-35.5	-36.7	18.3	0.00e+00	0	60	0	2674917376	41	4157
2026-01-15 15:37:44.27	283.74	26.65	-35.5	-36.7	18.3	0.00e+00	0	60	0	2682257408	41	4177
2026-01-15 15:37:45.28	284.04	26.61	-35.5	-36.8	18.2	0.00e+00	0	60	0	2689597440	41	4204
2026-01-15 15:37:46.29	284.34	26.56	-35.5	-36.7	18.2	0.00e+00	0	60	0	2696937472	41	4188
2026-01-15 15:37:47.30	284.64	26.51	-35.5	-36.8	18.2	0.00e+00	0	60	0	2704277504	41	4206
2026-01-15 15:37:48.31	284.94	26.47	-35.5	-36.8	18.2	0.00e+00	0	60	0	2710568960	41	4234
2026-01-15 15:37:49.32	285.24	26.42	-35.5	-36.8	18.1	0.00e+00	0	60	0	2718957568	41	4241
2026-01-15 15:37:50.33	285.53	26.37	-35.4	-36.8	18.2	0.00e+00	0	60	0	2726297600	41	4218
2026-01-15 15:37:51.33	285.83	26.32	-35.4	-36.8	18.2	0.00e+00	0	60	0	2732589056	41	4202
2026-01-15 15:37:52.34	286.12	26.27	-35.3	-36.7	18.3	0.00e+00	0	60	0	2739929088	41	4180
2026-01-15 15:37:53.35	286.41	26.22	-35.2	-36.6	18.3	0.00e+00	0	60	0	2747269120	41	4138
2026-01-15 15:37:54.36	286.71	26.17	-35.1	-36.5	18.4	0.00e+00	0	60	0	2754609152	41	4078
2026-01-15 15:37:55.37	287.00	26.12	-35.1	-36.5	18.5	0.00e+00	0	60	0	2761949184	41	4064
2026-01-15 15:37:56.38	287.29	26.06	-35.1	-36.4	18.5	0.00e+00	0	60	0	2769289216	41	4051
2026-01-15 15:37:57.39	287.58	26.01	-35.2	-36.5	18.4	0.00e+00	0	60	0	2776629248	41	4083
2026-01-15 15:37:58.40	287.87	25.96	-35.3	-36.6	18.3	0.00e+00	0	60	0	2783969280	41	4131
2026-01-15 15:37:59.41	288.16	25.90	-35.4	-36.7	18.2	0.00e+00	0	60	0	2791309312	41	4191
2026-01-15 15:38:00.42	288.45	25.85	-35.6	-36.8	18.1	0.00e+00	0	60	0	2798649344	41	4234
2026-01-15 15:38:01.43	288.73	25.79	-35.6	-36.9	18.1	0.00e+00	0	60	0	2805989376	41	4246
2026-01-15 15:38:02.44	289.02	25.73	-35.6	-36.9	18.1	0.00e+00	0	60	0	2813329408	41	4248
2026-01-15 15:38:03.45	289.30	25.68	-35.6	-36.9	18.0	0.00e+00	0	60	0	2820669440	41	4257
2026-01-15 15:38:04.46	289.59	25.62	-35.5	-36.9	18.0	0.00e+00	0	60	0	2828009472	41	4273
2026-01-15 15:38:05.47	289.87	25.56	-35.5	-37.0	17.9	0.00e+00	0	60	0	2835349504	41	4338
2026-01-15 15:38:06.48	290.15	25.50	-35.5	-37.1	17.8	0.00e+00	0	60	0	2842689536	41	4367
2026-01-15 15:38:07.49	290.43	25.44	-35.4	-37.1	17.8	0.00e+00	0	60	0	2850029568	41	4380
2026-01-15 15:38:08.50	290.71	25.38	-35.2	-37.1	17.8	0.00e+00	0	60	0	2856321024	41	4348
2026-01-15 15:38:09.51	290.99	25.32	-35.2	-37.0	17.8	0.00e+00	0	60	0	2863661056	41	4332
2026-01-15 15:38:10.52	291.26	25.26	-35.0	-36.8	18.0	0.00e+00	0	60	0	2872049664	41	4208
2026-01-15 15:38:11.53	291.54	25.20	-34.9	-36.7	18.2	0.00e+00	0	60	0	2878341120	40	4396
2026-01-15 15:38:12.54	291.81	25.13	-35.0	-36.6	18.3	0.00e+00	0	60	0	2885681152	40	4376
2026-01-15 15:38:13.55	292.09	25.07	-35.1	-36.6	18.3	0.00e+00	0	60	0	2893021184	40	4345
2026-01-15 15:38:14.56	292.36	25.01	-35.2	-36.6	18.3	0.00e+00	0	60	0	2900361216	40	4376
2026-01-15 15:38:15.57	292.63	24.94	-35.5	-36.8	18.2	0.00e+00	0	60	0	2907701248	40	4470
2026-01-15 15:38:16.59	292.91	24.88	-35.6	-36.9	18.1	0.00e+00	0	60	0	2915041280	40	4521
2026-01-15 15:38:17.59	293.17	24.81	-35.6	-36.9	18.0	0.00e+00	0	60	0	2922381312	40	4540
2026-01-15 15:38:18.60	293.44	24.75	-35.7	-37.0	18.0	0.00e+00	0	60	0	2929721344	40	4568
2026-01-15 15:38:19.61	293.71	24.68	-35.6	-37.0	17.9	0.00e+00	0	60	0	2937061376	41	4323
2026-01-15 15:38:20.62	293.98	24.62	-35.6	-37.1	17.8	0.00e+00	0	60	0	2944401408	41	4350
2026-01-15 15:38:21.63	294.24	24.55	-35.7	-37.2	17.8	0.00e+00	0	60	0	2951741440	41	4408
2026-01-15 15:38:22.64	294.50	24.48	-35.7	-37.2	17.7	0.00e+00	0	60	0	2959081472	41	4408
2026-01-15 15:38:23.65	294.77	24.41	-35.7	-37.2	17.7	0.00e+00	0	60	0	2966421504	41	4410
2026-01-15 15:38:24.66	295.03	24.35	-35.7	-37.1	17.8	0.00e+00	0	60	0	2973761536	41	4376
2026-01-15 15:38:25.67	295.29	24.28	-35.7	-37.2	17.7	0.00e+00	0	60	0	2981101568	41	4426
2026-01-15 15:38:26.68	295.55	24.21	-35.8	-37.2	17.7	0.00e+00	0	60	0	2988441600	41	4424
2026-01-15 15:38:27.69	295.81	24.14	-35.9	-37.2	17.7	0.00e+00	0	60	0	2995781632	41	4436
2026-01-15 15:38:28.70	296.06	24.07	-35.9	-37.2	17.7	0.00e+00	0	60	0	3003121664	41	4425
2026-01-15 15:38:29.70	296.32	24.00	-35.9	-37.2	17.8	0.00e+00	0	60	0	3009413120	41	4405
2026-01-15 15:38:30.71	296.57	23.93	-35.8	-37.0	17.9	0.00e+00	0	60	0	3016753152	41	4337
2026-01-15 15:38:31.72	296.83	23.86	-35.7	-37.0	18.0	0.00e+00	0	60	0	3025141760	41	4295
2026-01-15 15:38:32.73	297.08	23.79	-35.8	-37.0	17.9	0.00e+00	0	60	0	3031433216	41	4326
2026-01-15 15:38:33.73	297.33	23.72	-35.7	-36.9	18.0	0.00e+00	0	60	0	3038773248	41	4258
2026-01-15 15:38:34.74	297.58	23.64	-35.7	-36.9	18.0	0.00e+00	0	60	0	3046113280	41	4283
2026-01-15 15:38:35.75	297.83	23.57	-35.8	-37.0	17.9	0.00e+00	0	60	0	3053453312	41	4327
2026-01-15 15:38:36.76	298.08	23.50	-35.9	-37.1	17.8	0.00e+00	0	60	0	3060793344	41	4390
2026-01-15 15:38:37.77	298.32	23.43	-36.0	-37.3	17.6	0.00e+00	0	60	0	3068133376	41	4462
2026-01-15 15:38:38.77	298.57	23.35	-36.1	-37.3	17.6	0.00e+00	0	60	0	3075473408	41	4488
2026-01-15 15:38:39.78	298.81	23.28	-36.1	-37.4	17.6	0.00e+00	0	60	0	3082813440	41	4496
2026-01-15 15:38:40.79	299.06	23.20	-36.0	-37.3	17.6	0.00e+00	0	60	0	3090153472	41	4447
2026-01-15 15:38:41.80	299.30	23.13	-36.0	-37.3	17.7	0.00e+00	0	60	0	3097493504	41	4445
2026-01-15 15:38:42.81	299.54	23.06	-36.0	-37.3	17.7	0.00e+00	0	60	0	3104833536	41	4455
2026-01-15 15:38:43.81	299.78	22.98	-36.0	-37.3	17.6	0.00e+00	0	60	0	3112173568	41	4451
2026-01-15 15:38:44.82	300.02	22.91	-36.1	-37.3	17.6	0.00e+00	0	60	0	3119513600	41	4484
2026-01-15 15:38:45.83	300.25	22.83	-36.1	-37.4	17.5	0.00e+00	0	60	0	3126853632	41	4505
2026-01-15 15:38:46.84	300.49	22.75	-36.1	-37.4	17.5	0.00e+00	0	60	0	3134193664	41	4516
2026-01-15 15:38:47.85	300.73	22.68	-36.2	-37.4	17.5	0.00e+00	0	60	0	3140485120	41	4540
2026-01-15 15:38:48.86	300.96	22.60	-36.2	-37.5	17.4	0.00e+00	0	60	0	3147825152	41	4559
2026-01-15 15:38:49.86	301.19	22.53	-36.2	-37.5	17.4	0.00e+00	0	60	0	3155165184	41	4573
2026-01-15 15:38:50.87	301.43	22.45	-36.3	-37.6	17.3	0.00e+00	0	61	0	3162505216	42	4349
2026-01-15 15:38:51.88	301.66	22.37	-36.2	-37.5	17.3	0.00e+00	0	60	0	3169845248	42	4335
2026-01-15 15:38:52.89	301.89	22.29	-36.2	-37.5	17.3	0.00e+00	0	60	0	3177185280	42	4339
2026-01-15 15:38:53.90	302.12	22.22	-36.2	-37.4	17.5	0.00e+00	0	60	0	3184525312	42	4288
2026-01-15 15:38:54.90	302.34	22.14	-36.1	-37.4	17.5	0.00e+00	0	60	0	3191865344	42	4285
2026-01-15 15:38:55.91	302.57	22.06	-36.1	-37.4	17.5	0.00e+00	0	60	0	3199205376	42	4252
2026-01-15 15:38:56.92	302.79	21.98	-36.1	-37.3	17.5	0.00e+00	0	60	0	3206545408	42	4237
2026-01-15 15:38:57.93	303.02	21.91	-36.0	-37.3	17.6	0.00e+00	0	60	0	3213885440	42	4202
2026-01-15 15:38:58.93	303.24	21.83	-36.0	-37.3	17.6	0.00e+00	0	61	0	3221225472	42	4196
2026-01-15 15:38:59.94	303.46	21.75	-36.1	-37.3	17.5	0.00e+00	0	60	0	3228565504	42	4225
2026-01-15 15:39:00.95	303.68	21.67	-36.2	-37.5	17.4	0.00e+00	0	60	0	3235905536	42	4296
2026-01-15 15:39:01.96	303.90	21.59	-36.3	-37.5	17.3	0.00e+00	0	60	0	3242196992	42	4338
2026-01-15 15:39:02.97	304.12	21.51	-36.4	-37.7	17.2	0.00e+00	0	60	0	3250585600	42	4415
2026-01-15 15:39:03.97	304.34	21.43	-36.4	-37.7	17.2	0.00e+00	0	60	0	3257925632	42	4410
2026-01-15 15:39:04.98	304.55	21.35	-36.4	-37.8	17.1	0.00e+00	0	60	0	3264217088	42	4444
2026-01-15 15:39:05.99	304.77	21.27	-36.5	-37.8	17.1	0.00e+00	0	60	0	3271557120	42	4466
2026-01-15 15:39:07.00	304.98	21.19	-36.5	-37.8	17.1	0.00e+00	0	60	0	3278897152	42	4473
2026-01-15 15:39:08.01	305.20	21.11	-36.5	-37.8	17.1	0.00e+00	0	60	0	3286237184	42	4483
2026-01-15 15:39:09.01	305.41	21.03	-36.5	-37.8	17.1	0.00e+00	0	60	0	3293577216	42	4468
2026-01-15 15:39:10.02	305.62	20.95	-36.4	-37.8	17.1	0.00e+00	0	60	0	3300917248	42	4449
2026-01-15 15:39:11.03	305.83	20.87	-36.5	-37.8	17.1	0.00e+00	0	60	0	3308257280	42	4465
2026-01-15 15:39:12.04	306.04	20.79	-36.5	-37.8	17.1	0.00e+00	0	60	0	3315597312	42	4453
2026-01-15 15:39:13.05	306.25	20.71	-36.4	-37.8	17.1	0.00e+00	0	60	0	3322937344	42	4448
2026-01-15 15:39:14.06	306.45	20.63	-36.4	-37.8	17.1	0.00e+00	0	61	0	3330277376	42	4449
2026-01-15 15:39:15.07	306.66	20.55	-36.5	-37.8	17.0	0.00e+00	0	60	0	3337617408	42	4471
2026-01-15 15:39:16.07	306.86	20.47	-36.5	-37.8	17.0	0.00e+00	0	60	0	3344957440	42	4465
2026-01-15 15:39:17.08	307.07	20.39	-36.6	-37.9	16.9	0.00e+00	0	60	0	3352297472	42	4537
2026-01-15 15:39:18.09	307.27	20.31	-36.5	-37.8	17.0	0.00e+00	0	60	0	3359637504	42	4480
2026-01-15 15:39:19.10	307.47	20.23	-36.5	-37.8	17.0	0.00e+00	0	60	0	3366977536	42	4481
2026-01-15 15:39:20.11	307.67	20.14	-36.5	-37.8	17.0	0.00e+00	0	60	0	3373268992	42	4467
2026-01-15 15:39:21.12	307.87	20.06	-36.5	-37.9	17.0	0.00e+00	0	60	0	3381657600	42	4494
2026-01-15 15:39:22.13	308.07	19.98	-36.5	-37.8	17.0	0.00e+00	0	60	0	3388997632	42	4466
2026-01-15 15:39:23.14	308.27	19.90	-36.5	-37.9	16.9	0.00e+00	0	60	0	3395289088	42	4506
2026-01-15 15:39:24.15	308.46	19.82	-36.6	-38.0	16.8	0.00e+00	0	60	0	3402629120	42	4564
2026-01-15 15:39:25.16	308.66	19.74	-36.7	-38.1	16.8	0.00e+00	0	60	0	3409969152	42	4612
2026-01-15 15:39:26.17	308.85	19.66	-36.8	-38.2	16.7	0.00e+00	0	60	0	3417309184	43	4407
2026-01-15 15:39:27.17	309.05	19.57	-36.9	-38.3	16.5	0.00e+00	0	60	0	3424649216	43	4463
2026-01-15 15:39:28.18	309.24	19.49	-37.0	-38.4	16.4	0.00e+00	0	60	0	3431989248	43	4503
2026-01-15 15:39:29.19	309.43	19.41	-37.0	-38.4	16.4	0.00e+00	0	60	0	3439329280	43	4538
2026-01-15 15:39:30.20	309.62	19.33	-37.0	-38.4	16.4	0.00e+00	0	61	0	3446669312	43	4505
2026-01-15 15:39:31.21	309.81	19.25	-37.0	-38.4	16.4	0.00e+00	0	60	0	3454009344	43	4498
2026-01-15 15:39:32.21	310.00	19.17	-36.9	-38.3	16.5	0.00e+00	0	60	0	3461349376	43	4459
2026-01-15 15:39:33.22	310.19	19.08	-36.8	-38.1	16.7	0.00e+00	0	61	0	3468689408	43	4385
2026-01-15 15:39:34.23	310.37	19.00	-36.7	-38.0	16.8	0.00e+00	0	60	0	3476029440	43	4315
2026-01-15 15:39:35.24	310.56	18.92	-36.6	-38.0	16.8	0.00e+00	0	60	0	3483369472	43	4295
2026-01-15 15:39:36.25	310.74	18.84	-36.5	-37.8	16.9	0.00e+00	0	60	0	3490709504	43	4232
2026-01-15 15:39:37.26	310.93	18.76	-36.5	-37.8	17.0	0.00e+00	0	60	0	3497000960	43	4210
2026-01-15 15:39:38.27	311.11	18.67	-36.5	-37.9	16.9	0.00e+00	0	60	0	3505389568	43	4244
2026-01-15 15:39:39.28	311.29	18.59	-36.5	-37.9	16.9	0.00e+00	0	60	0	3512729600	43	4243
2026-01-15 15:39:40.29	311.47	18.51	-36.5	-37.9	16.9	0.00e+00	0	61	0	3519021056	43	4244
2026-01-15 15:39:41.30	311.65	18.43	-36.7	-38.0	16.7	0.00e+00	0	61	0	3526361088	43	4325
2026-01-15 15:39:42.31	311.83	18.35	-36.7	-38.1	16.7	0.00e+00	0	60	0	3533701120	43	4370
2026-01-15 15:39:43.32	312.01	18.26	-36.9	-38.3	16.5	0.00e+00	0	60	0	3541041152	43	4463
2026-01-15 15:39:44.33	312.18	18.18	-37.1	-38.5	16.3	0.00e+00	0	60	0	3548381184	43	4574
2026-01-15 15:39:45.34	312.36	18.10	-37.4	-38.8	16.1	0.00e+00	0	60	0	3555721216	44	4489
2026-01-15 15:39:46.35	312.54	18.02	-37.5	-39.0	15.9	0.00e+00	0	60	0	3563061248	44	4561
2026-01-15 15:39:47.36	312.71	17.94	-37.6	-39.0	15.9	0.00e+00	0	60	0	3570401280	44	4598
2026-01-15 15:39:48.37	312.88	17.85	-37.5	-39.0	15.9	0.00e+00	0	60	0	3577741312	44	4585
2026-01-15 15:39:49.38	313.06	17.77	-37.5	-39.0	15.9	0.00e+00	0	60	0	3585081344	44	4567
2026-01-15 15:39:50.39	313.23	17.69	-37.4	-38.8	16.1	0.00e+00	0	61	0	3592421376	44	4492
2026-01-15 15:39:51.40	313.40	17.61	-37.2	-38.7	16.3	0.00e+00	0	60	0	3599761408	44	4403
2026-01-15 15:39:52.41	313.57	17.53	-37.3	-38.7	16.2	0.00e+00	0	60	0	3607101440	44	4407
2026-01-15 15:39:53.41	313.74	17.44	-37.1	-38.5	16.4	0.00e+00	0	60	0	3614441472	44	4296
2026-01-15 15:39:54.42	313.90	17.36	-37.1	-38.5	16.4	0.00e+00	0	60	0	3621781504	44	4307
2026-01-15 15:39:55.43	314.07	17.28	-37.0	-38.4	16.4	0.00e+00	0	60	0	3629121536	44	4276
2026-01-15 15:39:56.44	314.24	17.20	-37.0	-38.4	16.5	0.00e+00	0	60	0	3636461568	44	4271
2026-01-15 15:39:57.45	314.40	17.12	-37.0	-38.3	16.5	0.00e+00	0	60	0	3643801600	44	4237
2026-01-15 15:39:58.46	314.57	17.04	-36.9	-38.3	16.6	0.00e+00	0	60	0	3650093056	44	4224
2026-01-15 15:39:59.47	314.73	16.95	-36.9	-38.3	16.6	0.00e+00	0	60	0	3658481664	44	4216
2026-01-15 15:40:00.48	314.89	16.87	-36.9	-38.3	16.6	0.00e+00	0	61	0	3665821696	44	4218
2026-01-15 15:40:01.48	315.05	16.79	-36.9	-38.3	16.5	0.00e+00	0	60	0	3672113152	44	4230
2026-01-15 15:40:02.49	315.21	16.71	-37.0	-38.4	16.4	0.00e+00	0	60	0	3679453184	44	4273
2026-01-15 15:40:03.50	315.37	16.63	-37.1	-38.5	16.3	0.00e+00	0	60	0	3686793216	44	4331
2026-01-15 15:40:04.51	315.53	16.55	-37.3	-38.7	16.1	0.00e+00	0	60	0	3694133248	44	4427
2026-01-15 15:40:05.52	315.69	16.47	-37.4	-38.9	16.0	0.00e+00	0	60	0	3701473280	44	4510
2026-01-15 15:40:06.54	315.85	16.39	-37.5	-39.1	15.8	0.00e+00	0	60	0	3708813312	44	4602
2026-01-15 15:40:07.54	316.01	16.31	-37.7	-39.2	15.6	0.00e+00	0	60	0	3716153344	44	4694
2026-01-15 15:40:08.55	316.16	16.22	-37.8	-39.4	15.5	0.00e+00	0	61	0	3723493376	45	4497
2026-01-15 15:40:09.56	316.32	16.14	-37.9	-39.4	15.4	0.00e+00	0	60	0	3730833408	45	4544
2026-01-15 15:40:10.57	316.47	16.06	-38.0	-39.6	15.3	0.00e+00	0	60	0	3738173440	45	4602
2026-01-15 15:40:11.58	316.63	15.98	-37.9	-39.5	15.3	0.00e+00	0	60	0	3745513472	45	4591
2026-01-15 15:40:12.59	316.78	15.90	-38.0	-39.6	15.2	0.00e+00	0	60	0	3752853504	45	4612
2026-01-15 15:40:13.59	316.93	15.82	-38.0	-39.6	15.2	0.00e+00	0	61	0	3760193536	45	4623
2026-01-15 15:40:14.60	317.08	15.74	-37.9	-39.5	15.3	1.10e-06	0	60	0	3767533568	45	4593
2026-01-15 15:40:15.61	317.23	15.66	-37.9	-39.5	15.4	0.00e+00	0	60	0	3773825024	45	4548
2026-01-15 15:40:16.62	317.38	15.58	-37.8	-39.3	15.5	0.00e+00	0	60	0	3782213632	45	4487
2026-01-15 15:40:17.63	317.53	15.50	-37.7	-39.2	15.6	0.00e+00	0	60	0	3789553664	45	4439
2026-01-15 15:40:18.64	317.68	15.42	-37.6	-39.2	15.6	0.00e+00	0	60	0	3795845120	45	4398
2026-01-15 15:40:19.64	317.82	15.34	-37.6	-39.1	15.7	0.00e+00	0	60	0	3803185152	45	4389
2026-01-15 15:40:20.65	317.97	15.26	-37.6	-39.1	15.7	0.00e+00	0	61	0	3810525184	45	4373
2026-01-15 15:40:21.66	318.12	15.18	-37.7	-39.2	15.6	0.00e+00	0	61	0	3817865216	45	4420
2026-01-15 15:40:22.67	318.26	15.10	-37.7	-39.3	15.5	0.00e+00	0	60	0	3825205248	45	4453
2026-01-15 15:40:23.68	318.40	15.02	-37.9	-39.4	15.3	0.00e+00	0	61	0	3832545280	45	4541
2026-01-15 15:40:24.69	318.55	14.94	-37.7	-39.2	15.5	0.00e+00	0	60	0	3839885312	45	4427
2026-01-15 15:40:25.70	318.69	14.86	-37.6	-39.2	15.6	0.00e+00	0	60	0	3847225344	45	4393
2026-01-15 15:40:26.71	318.83	14.78	-37.7	-39.2	15.5	0.00e+00	0	60	0	3854565376	45	4431
2026-01-15 15:40:27.72	318.97	14.70	-37.7	-39.3	15.4	0.00e+00	0	60	0	3861905408	45	4463
2026-01-15 15:40:28.73	319.12	14.63	-37.8	-39.4	15.3	0.00e+00	0	60	0	3869245440	45	4532
2026-01-15 15:40:29.74	319.26	14.55	-37.9	-39.6	15.2	0.00e+00	0	60	0	3876585472	45	4606
2026-01-15 15:40:30.75	319.39	14.47	-38.0	-39.6	15.1	1.10e-06	0	61	0	3883925504	45	4616
2026-01-15 15:40:31.76	319.53	14.39	-38.1	-39.8	14.9	0.00e+00	0	60	0	3891265536	45	4726
2026-01-15 15:40:32.77	319.67	14.31	-38.2	-39.9	14.8	0.00e+00	0	60	0	3898605568	46	4522
2026-01-15 15:40:33.78	319.81	14.23	-38.1	-39.8	14.9	1.10e-06	0	60	0	3905945600	46	4469
2026-01-15 15:40:34.79	319.94	14.15	-38.1	-39.7	14.9	0.00e+00	0	61	0	3913285632	46	4428
2026-01-15 15:40:35.80	320.08	14.07	-38.0	-39.7	15.0	0.00e+00	0	60	0	3920625664	46	4408
2026-01-15 15:40:36.81	320.21	14.00	-38.0	-39.7	15.0	0.00e+00	0	61	0	3926917120	46	4401
2026-01-15 15:40:37.82	320.35	13.92	-38.1	-39.8	14.9	0.00e+00	0	60	0	3935305728	46	4453
2026-01-15 15:40:38.83	320.48	13.84	-38.0	-39.7	15.0	0.00e+00	0	60	0	3942645760	46	4413
2026-01-15 15:40:39.84	320.62	13.76	-38.1	-39.7	15.0	0.00e+00	0	61	0	3948937216	46	4416
2026-01-15 15:40:40.85	320.75	13.68	-38.1	-39.7	14.9	0.00e+00	0	60	0	3956277248	46	4437
2026-01-15 15:40:41.86	320.88	13.61	-38.0	-39.7	15.0	0.00e+00	0	60	0	3963617280	46	4412
2026-01-15 15:40:42.86	321.01	13.53	-38.1	-39.7	15.0	0.00e+00	0	61	0	3970957312	46	4419
2026-01-15 15:40:43.87	321.14	13.45	-38.0	-39.6	15.1	0.00e+00	0	61	0	3978297344	46	4366
2026-01-15 15:40:44.88	321.27	13.37	-37.9	-39.5	15.1	0.00e+00	0	60	0	3985637376	46	4319
2026-01-15 15:40:45.89	321.40	13.30	-37.9	-39.5	15.2	0.00e+00	0	60	0	3992977408	46	4314
2026-01-15 15:40:46.90	321.53	13.22	-37.9	-39.6	15.1	0.00e+00	0	61	0	4000317440	46	4345
2026-01-15 15:40:47.91	321.65	13.14	-38.0	-39.6	15.0	1.10e-06	0	60	0	4007657472	46	4382
2026-01-15 15:40:48.91	321.78	13.07	-38.0	-39.6	15.0	0.00e+00	0	60	0	4014997504	46	4385
2026-01-15 15:40:49.93	321.91	12.99	-38.1	-39.7	14.9	0.00e+00	0	61	0	4022337536	46	4440
2026-01-15 15:40:50.93	322.03	12.91	-38.2	-39.8	14.8	0.00e+00	0	60	0	4029677568	46	4484
2026-01-15 15:40:51.94	322.16	12.84	-38.2	-39.9	14.7	0.00e+00	0	61	0	4037017600	46	4523
2026-01-15 15:40:52.95	322.28	12.76	-38.0	-39.7	14.9	0.00e+00	0	60	0	4044357632	46	4412
2026-01-15 15:40:53.96	322.41	12.68	-38.1	-39.8	14.9	0.00e+00	0	60	0	4051697664	46	4451
2026-01-15 15:40:54.97	322.53	12.61	-38.0	-39.7	14.9	0.00e+00	0	60	0	4059037696	46	4420
2026-01-15 15:40:55.98	322.65	12.53	-38.1	-39.7	14.9	0.00e+00	0	61	0	4066377728	46	4425
2026-01-15 15:40:56.99	322.77	12.46	-38.1	-39.8	14.8	0.00e+00	0	61	0	4072669184	46	4468
2026-01-15 15:40:58.00	322.89	12.38	-38.2	-39.8	14.8	0.00e+00	0	60	0	4080009216	46	4491
2026-01-15 15:40:59.00	323.01	12.30	-38.2	-39.9	14.8	0.00e+00	0	60	0	4088397824	46	4500
2026-01-15 15:41:00.02	323.14	12.23	-38.2	-39.9	14.7	1.10e-06	0	61	0	4094689280	46	4536
2026-01-15 15:41:01.02	323.25	12.15	-38.2	-39.9	14.7	0.00e+00	0	61	0	4102029312	46	4516
2026-01-15 15:41:02.03	323.37	12.08	-38.2	-39.9	14.7	0.00e+00	0	61	0	4109369344	46	4524
2026-01-15 15:41:03.04	323.49	12.00	-38.3	-40.0	14.6	2.20e-06	0	61	0	4116709376	46	4573
2026-01-15 15:41:04.05	323.61	11.93	-38.2	-39.9	14.7	0.00e+00	0	61	0	4124049408	46	4499
2026-01-15 15:41:05.06	323.73	11.85	-38.2	-40.0	14.6	0.00e+00	0	60	0	4131389440	46	4563
2026-01-15 15:41:06.07	323.84	11.78	-38.3	-40.0	14.5	1.10e-06	0	60	0	4138729472	46	4585
2026-01-15 15:41:07.07	323.96	11.70	-38.3	-40.0	14.6	1.10e-06	0	60	0	4146069504	46	4567
2026-01-15 15:41:08.08	324.07	11.63	-38.3	-40.0	14.5	0.00e+00	0	60	0	4153409536	46	4588
2026-01-15 15:41:09.09	324.19	11.56	-38.3	-40.0	14.5	1.10e-06	0	60	0	4160749568	46	4584
2026-01-15 15:41:10.10	324.30	11.48	-38.2	-40.0	14.5	0.00e+00	0	60	0	4168089600	46	4566
2026-01-15 15:41:11.11	324.42	11.41	-38.4	-40.2	14.4	1.10e-06	0	60	0	4175429632	46	4659
2026-01-15 15:41:12.12	324.53	11.33	-38.3	-40.1	14.4	0.00e+00	0	61	0	4182769664	46	4642
2026-01-15 15:41:13.13	324.64	11.26	-38.4	-40.2	14.3	2.20e-06	0	61	0	4190109696	46	4672
2026-01-15 15:41:14.14	324.76	11.19	-38.4	-40.3	14.2	2.20e-06	0	60	0	4197449728	46	4710
2026-01-15 15:41:15.15	324.87	11.11	-38.5	-40.4	14.1	3.40e-06	0	61	0	4203741184	46	4768
2026-01-15 15:41:16.16	324.98	11.04	-38.5	-40.3	14.2	1.10e-06	0	61	0	4212129792	46	4756
2026-01-15 15:41:17.17	325.09	10.96	-38.6	-40.5	14.0	0.00e+00	0	61	0	4219469824	46	4827
2026-01-15 15:41:18.18	325.20	10.89	-38.6	-40.5	14.0	3.40e-06	0	60	0	4225761280	46	4853
2026-01-15 15:41:19.18	325.31	10.82	-38.8	-40.7	13.8	1.02e-05	0	60	0	4233101312	47	4670
2026-01-15 15:41:20.19	325.42	10.75	-38.8	-40.7	13.8	6.80e-06	0	60	0	4240441344	47	4664
2026-01-15 15:41:21.20	325.53	10.67	-38.7	-40.6	13.8	4.50e-06	0	60	0	4247781376	47	4603
2026-01-15 15:41:22.20	325.63	10.60	-38.8	-40.7	13.8	8.00e-06	0	61	0	4255121408	47	4664
2026-01-15 15:41:23.21	325.74	10.53	-38.8	-40.7	13.7	6.80e-06	0	60	0	4262461440	47	4692
2026-01-15 15:41:24.22	325.85	10.46	-38.8	-40.7	13.7	8.00e-06	0	60	0	4269801472	47	4688
2026-01-15 15:41:25.23	325.96	10.38	-38.9	-40.8	13.6	5.70e-06	0	61	0	4277141504	47	4759
2026-01-15 15:41:26.24	326.06	10.31	-38.9	-40.9	13.5	1.02e-05	0	61	0	4284481536	47	4765
2026-01-15 15:41:27.25	326.17	10.24	-38.9	-40.9	13.4	2.05e-05	0	61	0	4291821568	47	4786
2026-01-15 15:41:28.26	326.27	10.17	-38.8	-40.8	13.6	1.02e-05	0	60	0	4299161600	47	4726
2026-01-15 15:41:29.27	326.38	10.10	-38.9	-40.8	13.5	9.10e-06	0	61	0	4306501632	47	4746
2026-01-15 15:41:30.28	326.48	10.02	-39.0	-41.0	13.4	1.48e-05	0	61	0	4313841664	47	4832
2026-01-15 15:41:31.29	326.58	9.95	-38.9	-40.9	13.4	1.83e-05	0	61	0	4321181696	47	4810
2026-01-15 15:41:32.30	326.69	9.88	-39.0	-41.0	13.3	2.74e-05	0	61	0	4327473152	47	4842
2026-01-15 15:41:33.31	326.79	9.81	-39.0	-41.0	13.3	2.97e-05	0	61	0	4335861760	47	4858
2026-01-15 15:41:34.32	326.89	9.74	-39.0	-41.1	13.2	1.60e-05	0	60	0	4343201792	47	4873
2026-01-15 15:41:35.33	326.99	9.67	-38.9	-40.9	13.3	2.51e-05	0	60	0	4349493248	47	4808
2026-01-15 15:41:36.34	327.10	9.60	-38.8	-40.8	13.5	1.25e-05	0	61	0	4356833280	47	4732
2026-01-15 15:41:37.35	327.20	9.52	-38.9	-40.9	13.4	1.48e-05	0	61	0	4365221888	47	4761
2026-01-15 15:41:38.36	327.30	9.45	-38.8	-40.8	13.4	1.48e-05	0	60	0	4371513344	47	4738
2026-01-15 15:41:39.37	327.40	9.38	-39.0	-41.0	13.3	2.05e-05	0	61	0	4378853376	47	4829
2026-01-15 15:41:40.38	327.50	9.31	-38.8	-40.8	13.5	1.48e-05	0	61	0	4386193408	47	4735
2026-01-15 15:41:41.39	327.59	9.24	-38.8	-40.8	13.5	1.71e-05	0	60	0	4393533440	47	4713
2026-01-15 15:41:42.40	327.69	9.17	-38.7	-40.6	13.6	1.02e-05	0	61	0	4400873472	47	4648
2026-01-15 15:41:43.41	327.79	9.10	-38.8	-40.8	13.4	1.25e-05	0	61	0	4408213504	47	4759
2026-01-15 15:41:44.42	327.89	9.03	-38.9	-40.9	13.3	2.51e-05	0	61	0	4415553536	47	4775
2026-01-15 15:41:45.43	327.99	8.96	-39.0	-41.0	13.2	2.51e-05	0	61	0	4422893568	47	4865
2026-01-15 15:41:46.44	328.08	8.89	-39.1	-41.2	13.0	4.80e-05	0	61	0	4430233600	47	4979
2026-01-15 15:41:47.45	328.18	8.82	-39.3	-41.4	12.9	5.83e-05	0	60	0	4437573632	48	4810
