passes_logs/2026/01/15/R2.0S_Moscow/R2.0S_Moscow__20260115_230552_FENGYUN_3G_rec.log

#Pass ID: 20260115_230552_FENGYUN 3G
#Satellite: FENGYUN 3G
#Configuration: FENGYUN 3G
#almurnet v.1.7.20251203
#Start time: 2026-01-15 23:05:54

#Version: 2.2.20231116
#Station: R2.0S_Moscow
#Location: 37.707566 lon 55.798166 lat
#TLE: 1 56232U 23055A   26015.17772624  .00018907  00000+0  29824-3 0  9995
#TLE: 2 56232  49.9942  55.0157 0004230  27.8148 332.3045 15.53505157156222

#Time	Az	El	Level	Level2	SNR	BER	BlckErr	Temp	State	Recorded	gain1	gain2
2026-01-15 23:05:54.15	251.23	2.12	-44.3	-62.3	3.8	8.46e-01	0	51	0	0	60	28103
2026-01-15 23:05:55.15	251.16	2.19	-44.3	-62.2	3.8	8.45e-01	0	52	104	0	60	27995
2026-01-15 23:05:56.16	251.10	2.26	-44.3	-62.3	3.8	8.46e-01	0	52	104	0	60	28179
2026-01-15 23:05:57.17	251.04	2.32	-44.3	-62.3	3.8	8.45e-01	0	52	104	0	60	28202
2026-01-15 23:05:58.18	250.98	2.39	-44.3	-62.3	3.8	8.45e-01	0	52	104	0	60	28182
2026-01-15 23:05:59.19	250.91	2.46	-44.3	-62.3	3.8	8.46e-01	0	52	104	0	60	28195
2026-01-15 23:06:00.20	250.85	2.53	-44.3	-62.3	3.8	8.45e-01	0	52	104	0	60	28130
2026-01-15 23:06:01.21	250.78	2.59	-44.3	-62.3	3.8	8.45e-01	0	52	104	0	60	28201
2026-01-15 23:06:02.22	250.72	2.66	-44.3	-62.2	3.8	8.46e-01	0	52	104	0	60	28005
2026-01-15 23:06:03.23	250.65	2.73	-44.3	-62.2	3.8	8.46e-01	0	52	104	0	60	27941
2026-01-15 23:06:04.25	250.59	2.80	-44.3	-62.2	3.8	8.46e-01	0	52	104	0	60	27942
2026-01-15 23:06:05.26	250.52	2.87	-44.3	-62.2	3.8	8.46e-01	0	52	104	0	60	27872
2026-01-15 23:06:06.26	250.45	2.94	-44.3	-62.2	3.8	8.46e-01	0	52	104	0	60	27810
2026-01-15 23:06:07.27	250.39	3.01	-44.3	-62.2	3.8	8.46e-01	0	52	104	0	60	28021
2026-01-15 23:06:08.28	250.32	3.08	-44.3	-62.2	3.8	8.46e-01	0	53	104	0	60	27935
2026-01-15 23:06:09.29	250.25	3.15	-44.3	-62.2	3.8	8.46e-01	0	53	104	0	60	28024
2026-01-15 23:06:10.30	250.18	3.22	-44.3	-62.2	3.8	8.47e-01	0	53	104	0	60	28016
2026-01-15 23:06:11.31	250.11	3.29	-44.3	-62.3	3.8	8.47e-01	0	53	104	0	60	28063
2026-01-15 23:06:12.32	250.04	3.36	-44.3	-62.3	3.8	8.47e-01	0	53	104	0	60	28125
2026-01-15 23:06:13.33	249.97	3.43	-44.3	-62.3	3.8	8.47e-01	0	53	104	0	60	28143
2026-01-15 23:06:14.34	249.90	3.50	-44.2	-62.3	3.8	8.47e-01	0	53	104	0	60	28152
2026-01-15 23:06:15.35	249.83	3.57	-44.3	-62.3	3.8	8.46e-01	0	53	104	0	60	28162
2026-01-15 23:06:16.36	249.76	3.64	-44.3	-62.3	3.8	8.47e-01	0	53	104	0	60	28042
2026-01-15 23:06:17.37	249.69	3.71	-44.3	-62.3	3.8	8.47e-01	0	53	104	0	60	28086
2026-01-15 23:06:18.38	249.61	3.78	-44.3	-62.3	3.8	8.47e-01	0	53	104	0	60	28044
2026-01-15 23:06:19.39	249.54	3.86	-44.3	-62.3	3.8	8.46e-01	0	53	104	0	60	28105
2026-01-15 23:06:20.40	249.47	3.93	-44.3	-62.2	3.8	8.46e-01	0	53	104	0	60	27869
2026-01-15 23:06:21.41	249.39	4.00	-44.3	-62.2	3.8	8.46e-01	0	53	104	0	60	27707
2026-01-15 23:06:22.42	249.32	4.08	-44.2	-62.1	3.8	8.46e-01	0	53	104	0	60	27506
2026-01-15 23:06:23.43	249.24	4.15	-44.3	-62.1	3.8	8.46e-01	0	53	104	0	60	27478
2026-01-15 23:06:24.44	249.17	4.22	-44.2	-61.9	3.8	8.46e-01	0	54	104	0	60	27023
2026-01-15 23:06:25.45	249.09	4.30	-44.2	-61.9	3.8	8.46e-01	0	54	104	0	60	26869
2026-01-15 23:06:26.46	249.01	4.37	-44.2	-61.7	3.8	8.46e-01	0	54	104	0	60	26284
2026-01-15 23:06:27.47	248.93	4.44	-44.2	-61.7	3.8	8.46e-01	0	54	104	0	60	26437
2026-01-15 23:06:28.48	248.86	4.52	-44.2	-61.5	3.8	8.46e-01	0	54	104	0	60	25831
2026-01-15 23:06:29.49	248.78	4.59	-44.2	-61.7	3.8	8.46e-01	0	54	104	0	60	26306
2026-01-15 23:06:30.50	248.70	4.67	-44.2	-61.7	3.8	8.46e-01	0	54	104	0	60	26168
2026-01-15 23:06:31.51	248.62	4.74	-44.2	-61.7	3.8	8.46e-01	0	54	104	0	60	26249
2026-01-15 23:06:32.52	248.54	4.82	-44.2	-61.6	3.8	8.46e-01	0	54	104	0	60	26089
2026-01-15 23:06:33.53	248.46	4.90	-44.2	-61.5	3.8	8.46e-01	0	54	104	0	60	25709
2026-01-15 23:06:34.54	248.37	4.97	-44.2	-61.2	3.8	8.47e-01	0	54	104	0	60	24949
2026-01-15 23:06:35.55	248.29	5.05	-44.2	-60.8	3.8	8.46e-01	0	54	104	0	60	23825
2026-01-15 23:06:36.55	248.21	5.12	-44.2	-60.7	3.8	8.46e-01	0	54	104	0	60	23434
2026-01-15 23:06:37.57	248.12	5.20	-44.2	-60.3	3.8	8.46e-01	0	54	104	0	60	22463
2026-01-15 23:06:38.58	248.04	5.28	-44.2	-60.0	3.8	8.45e-01	0	54	104	0	60	21627
2026-01-15 23:06:39.59	247.95	5.36	-44.2	-59.9	3.8	8.44e-01	0	54	104	0	60	21445
2026-01-15 23:06:40.59	247.87	5.44	-44.2	-59.6	3.9	8.44e-01	0	54	104	0	60	20686
2026-01-15 23:06:41.60	247.78	5.51	-44.2	-59.6	3.8	8.45e-01	0	54	104	0	60	20658
2026-01-15 23:06:42.61	247.70	5.59	-44.2	-59.8	3.8	8.45e-01	0	54	104	0	60	21250
2026-01-15 23:06:43.62	247.61	5.67	-44.2	-59.8	3.9	8.45e-01	0	55	104	0	60	21077
2026-01-15 23:06:44.63	247.52	5.75	-44.2	-59.7	3.8	8.43e-01	0	55	104	0	60	20968
2026-01-15 23:06:45.64	247.43	5.83	-44.2	-59.4	3.9	8.44e-01	0	54	104	0	60	20193
2026-01-15 23:06:46.65	247.34	5.91	-44.1	-58.9	4.2	8.42e-01	0	55	0	0	60	18977
2026-01-15 23:06:47.66	247.25	5.99	-44.1	-58.1	4.4	8.42e-01	0	55	0	0	60	17314
2026-01-15 23:06:48.67	247.16	6.07	-44.0	-56.9	4.9	8.31e-01	0	54	0	0	60	15066
2026-01-15 23:06:49.68	247.07	6.15	-44.0	-55.8	5.5	7.69e-01	0	55	0	0	59	14107
2026-01-15 23:06:50.70	246.97	6.23	-43.9	-54.4	6.6	7.69e-01	0	55	0	524288	59	12066
2026-01-15 23:06:51.71	246.88	6.32	-43.8	-53.2	7.7	3.30e-01	0	55	0	2097152	59	10531
2026-01-15 23:06:52.72	246.78	6.40	-43.6	-52.5	8.5	8.77e-02	0	55	0	3145728	59	9608
2026-01-15 23:06:53.73	246.69	6.48	-43.5	-51.5	9.5	8.77e-02	0	55	0	4194304	59	8634
2026-01-15 23:06:54.74	246.59	6.56	-43.3	-50.8	10.2	2.42e-02	0	55	0	5242880	58	8419
2026-01-15 23:06:55.75	246.50	6.65	-43.2	-50.4	10.7	5.67e-03	0	55	0	6291456	58	7995
2026-01-15 23:06:56.76	246.40	6.73	-43.2	-50.4	10.7	5.67e-03	0	55	0	7340032	58	8016
2026-01-15 23:06:57.77	246.30	6.81	-43.2	-50.3	10.9	2.56e-03	0	55	0	8912896	58	7904
2026-01-15 23:06:58.78	246.20	6.90	-43.3	-50.8	10.3	2.36e-03	0	55	0	9961472	58	8386
2026-01-15 23:06:59.79	246.10	6.98	-43.5	-51.8	9.3	7.28e-03	0	56	0	11010048	58	9430
2026-01-15 23:07:00.80	246.00	7.07	-43.8	-53.5	7.6	7.28e-03	0	55	0	12058624	58	11459
2026-01-15 23:07:01.81	245.90	7.15	-44.1	-56.1	5.4	6.78e-02	0	55	0	13107200	58	15483
2026-01-15 23:07:02.82	245.80	7.24	-44.3	-60.4	3.8	6.32e-01	0	55	104	13107200	59	23893
2026-01-15 23:07:03.83	245.69	7.32	-44.3	-61.9	3.8	6.32e-01	0	55	104	13107200	59	28525
2026-01-15 23:07:04.84	245.59	7.41	-44.1	-56.8	4.9	8.47e-01	0	55	0	13107200	59	15851
2026-01-15 23:07:05.85	245.49	7.50	-43.7	-52.9	7.9	6.59e-01	0	55	0	13631488	59	10126
2026-01-15 23:07:06.86	245.38	7.58	-43.2	-50.2	10.8	6.59e-01	0	55	0	14680064	58	7870
2026-01-15 23:07:07.87	245.27	7.67	-42.6	-48.4	12.7	4.12e-02	0	55	0	15728640	57	6778
2026-01-15 23:07:08.88	245.17	7.76	-42.1	-47.0	14.2	3.16e-04	0	56	0	16777216	56	6077
2026-01-15 23:07:09.89	245.06	7.85	-41.7	-46.2	14.8	3.16e-04	0	55	0	18350080	55	5910
2026-01-15 23:07:10.90	244.95	7.93	-41.5	-45.9	15.1	3.40e-06	0	56	0	19398656	55	5722
2026-01-15 23:07:11.91	244.84	8.02	-41.5	-45.9	15.2	0.00e+00	0	55	0	20447232	55	5710
2026-01-15 23:07:12.92	244.73	8.11	-41.2	-45.2	16.0	0.00e+00	0	56	0	21495808	54	5546
2026-01-15 23:07:13.93	244.61	8.20	-42.0	-46.9	14.5	0.00e+00	0	56	0	22544384	54	6724
2026-01-15 23:07:14.94	244.50	8.29	-44.1	-57.8	4.4	1.10e-06	0	56	0	23592960	58	18756
2026-01-15 23:07:15.95	244.39	8.38	-43.3	-50.4	11.1	3.38e-01	0	56	0	24117248	57	8556
2026-01-15 23:07:16.96	244.27	8.47	-44.0	-54.7	7.0	3.38e-01	0	56	0	25690112	58	13175
2026-01-15 23:07:17.97	244.15	8.56	-41.4	-45.6	15.4	1.04e-01	0	56	0	26738688	54	5841
2026-01-15 23:07:18.98	244.04	8.66	-41.2	-45.2	16.0	1.74e-02	0	56	0	27787264	54	5565
2026-01-15 23:07:20.00	243.92	8.75	-41.2	-45.1	16.1	1.74e-02	0	56	0	28835840	54	5493
2026-01-15 23:07:21.00	243.80	8.84	-41.1	-44.9	16.3	0.00e+00	0	56	0	29884416	54	5365
2026-01-15 23:07:22.01	243.68	8.93	-40.8	-44.4	16.8	0.00e+00	0	56	0	30932992	53	5383
2026-01-15 23:07:23.02	243.56	9.03	-40.8	-44.3	16.9	0.00e+00	0	56	0	31981568	53	5317
2026-01-15 23:07:24.03	243.43	9.12	-40.8	-44.4	16.8	0.00e+00	0	56	0	33554432	53	5361
2026-01-15 23:07:25.04	243.31	9.22	-40.7	-44.2	17.0	0.00e+00	0	56	0	34603008	53	5259
2026-01-15 23:07:26.05	243.19	9.31	-40.6	-44.0	17.3	0.00e+00	0	56	0	35651584	53	5109
2026-01-15 23:07:27.06	243.06	9.41	-40.4	-43.7	17.5	0.00e+00	0	56	0	36700160	52	5269
2026-01-15 23:07:28.07	242.93	9.50	-40.5	-43.8	17.4	0.00e+00	0	56	0	37748736	52	5340
2026-01-15 23:07:29.08	242.80	9.60	-40.5	-43.8	17.5	0.00e+00	0	56	0	38797312	52	5300
2026-01-15 23:07:30.08	242.68	9.69	-40.4	-43.6	17.6	0.00e+00	0	56	0	40370176	52	5204
2026-01-15 23:07:31.10	242.54	9.79	-40.3	-43.5	17.7	0.00e+00	0	56	0	41418752	52	5153
2026-01-15 23:07:32.11	242.41	9.89	-40.4	-43.7	17.6	0.00e+00	0	56	0	42467328	52	5264
2026-01-15 23:07:33.12	242.28	9.99	-40.5	-43.8	17.5	0.00e+00	0	56	0	43515904	52	5317
2026-01-15 23:07:34.13	242.15	10.08	-40.4	-43.6	17.6	0.00e+00	0	56	0	44564480	52	5218
2026-01-15 23:07:35.14	242.01	10.18	-40.4	-43.7	17.7	0.00e+00	0	56	0	45613056	52	5222
2026-01-15 23:07:36.15	241.87	10.28	-40.4	-43.7	17.6	0.00e+00	0	56	0	47185920	52	5269
2026-01-15 23:07:37.16	241.74	10.38	-40.5	-43.8	17.5	0.00e+00	0	56	0	48234496	52	5292
2026-01-15 23:07:38.16	241.60	10.48	-40.4	-43.7	17.6	0.00e+00	0	56	0	49283072	52	5241
2026-01-15 23:07:39.17	241.46	10.58	-40.3	-43.5	17.8	0.00e+00	0	56	0	50331648	52	5147
2026-01-15 23:07:40.18	241.32	10.68	-40.3	-43.4	17.9	0.00e+00	0	57	0	51380224	52	5069
2026-01-15 23:07:41.19	241.17	10.79	-40.2	-43.3	18.0	0.00e+00	0	56	0	52428800	52	5004
2026-01-15 23:07:42.20	241.03	10.89	-40.1	-43.2	18.2	0.00e+00	0	56	0	54001664	52	4937
2026-01-15 23:07:43.21	240.88	10.99	-40.1	-43.2	18.2	0.00e+00	0	56	0	55050240	52	4939
2026-01-15 23:07:44.22	240.73	11.09	-40.2	-43.3	18.0	0.00e+00	0	56	0	56098816	52	5031
2026-01-15 23:07:45.23	240.59	11.20	-40.3	-43.4	18.0	0.00e+00	0	57	0	57147392	52	5060
2026-01-15 23:07:46.24	240.44	11.30	-40.2	-43.2	18.2	0.00e+00	0	57	0	58195968	52	4960
2026-01-15 23:07:47.25	240.28	11.41	-40.2	-43.3	18.1	0.00e+00	0	56	0	59244544	52	4995
2026-01-15 23:07:48.26	240.13	11.51	-40.2	-43.3	18.1	0.00e+00	0	57	0	60817408	52	5011
2026-01-15 23:07:49.27	239.98	11.62	-40.1	-43.1	18.3	0.00e+00	0	57	0	61865984	52	4913
2026-01-15 23:07:50.28	239.82	11.72	-40.1	-43.1	18.3	0.00e+00	0	57	0	62914560	52	4881
2026-01-15 23:07:51.29	239.66	11.83	-40.1	-43.1	18.3	0.00e+00	0	57	0	63963136	52	4923
2026-01-15 23:07:52.30	239.50	11.94	-40.0	-43.0	18.4	0.00e+00	0	57	0	65011712	52	4850
2026-01-15 23:07:53.31	239.34	12.05	-40.0	-42.9	18.5	0.00e+00	0	57	0	66060288	51	5095
2026-01-15 23:07:54.32	239.18	12.15	-40.1	-43.0	18.5	0.00e+00	0	57	0	67633152	51	5112
2026-01-15 23:07:55.33	239.02	12.26	-39.9	-42.8	18.7	0.00e+00	0	57	0	68681728	51	5020
2026-01-15 23:07:56.34	238.85	12.37	-39.9	-42.7	18.8	0.00e+00	0	57	0	69730304	51	4960
2026-01-15 23:07:57.35	238.68	12.48	-39.9	-42.7	18.8	0.00e+00	0	57	0	70778880	51	4971
2026-01-15 23:07:58.36	238.52	12.59	-39.8	-42.6	18.9	0.00e+00	0	57	0	71827456	51	4889
2026-01-15 23:07:59.37	238.34	12.70	-39.8	-42.5	19.1	0.00e+00	0	56	0	72876032	51	4859
2026-01-15 23:08:00.39	238.17	12.82	-39.7	-42.5	19.1	0.00e+00	0	57	0	74448896	51	4818
2026-01-15 23:08:01.39	238.00	12.93	-39.8	-42.5	19.0	0.00e+00	0	57	0	75497472	51	4863
2026-01-15 23:08:02.40	237.82	13.04	-39.9	-42.7	18.8	0.00e+00	0	57	0	76546048	51	4983
2026-01-15 23:08:03.41	237.65	13.15	-39.9	-42.8	18.8	0.00e+00	0	57	0	77594624	51	4994
2026-01-15 23:08:04.42	237.47	13.27	-40.0	-42.9	18.7	0.00e+00	0	57	0	78643200	51	5062
2026-01-15 23:08:05.43	237.29	13.38	-40.0	-42.8	18.8	0.00e+00	0	57	0	79691776	51	5040
2026-01-15 23:08:06.44	237.10	13.50	-39.8	-42.6	19.0	0.00e+00	0	57	0	81264640	51	4896
2026-01-15 23:08:07.45	236.92	13.61	-39.7	-42.4	19.1	0.00e+00	0	57	0	82313216	51	4807
2026-01-15 23:08:08.46	236.73	13.73	-39.7	-42.4	19.2	0.00e+00	0	57	0	83361792	51	4799
2026-01-15 23:08:09.47	236.54	13.85	-39.6	-42.2	19.4	0.00e+00	0	57	0	84410368	51	4681
2026-01-15 23:08:10.48	236.35	13.96	-39.5	-42.1	19.5	0.00e+00	0	57	0	85458944	51	4646
2026-01-15 23:08:11.48	236.16	14.08	-39.6	-42.2	19.4	0.00e+00	0	57	0	86507520	51	4687
2026-01-15 23:08:12.49	235.97	14.20	-39.5	-42.1	19.5	0.00e+00	0	57	0	88080384	51	4637
2026-01-15 23:08:13.50	235.77	14.32	-39.4	-42.0	19.6	0.00e+00	0	57	0	89128960	50	4831
2026-01-15 23:08:14.51	235.57	14.44	-39.5	-42.2	19.5	0.00e+00	0	57	0	90177536	50	4928
2026-01-15 23:08:15.52	235.37	14.56	-39.7	-42.3	19.3	0.00e+00	0	57	0	91226112	50	5013
2026-01-15 23:08:16.53	235.17	14.68	-39.7	-42.3	19.3	0.00e+00	0	57	0	92274688	50	5022
2026-01-15 23:08:17.54	234.96	14.80	-39.7	-42.3	19.3	0.00e+00	0	57	0	93323264	50	5036
2026-01-15 23:08:18.55	234.76	14.92	-39.6	-42.2	19.5	0.00e+00	0	57	0	94896128	50	4933
2026-01-15 23:08:19.56	234.55	15.04	-39.6	-42.2	19.5	0.00e+00	0	57	0	95944704	50	4940
2026-01-15 23:08:20.57	234.34	15.17	-39.5	-42.1	19.6	0.00e+00	0	57	0	96993280	50	4904
2026-01-15 23:08:21.58	234.12	15.29	-39.4	-42.0	19.7	0.00e+00	0	57	0	98041856	50	4819
2026-01-15 23:08:22.59	233.91	15.41	-39.3	-41.8	19.8	0.00e+00	0	57	0	99090432	50	4752
2026-01-15 23:08:23.60	233.69	15.54	-39.2	-41.7	20.0	0.00e+00	0	57	0	100139008	50	4677
2026-01-15 23:08:24.61	233.47	15.66	-39.2	-41.6	20.1	0.00e+00	0	57	0	101711872	50	4619
2026-01-15 23:08:25.62	233.24	15.79	-39.3	-41.7	20.0	0.00e+00	0	57	0	102760448	50	4700
2026-01-15 23:08:26.63	233.02	15.92	-39.3	-41.8	20.0	0.00e+00	0	57	0	103809024	50	4711
2026-01-15 23:08:27.64	232.79	16.04	-39.2	-41.6	20.1	0.00e+00	0	57	0	104857600	50	4651
2026-01-15 23:08:28.64	232.56	16.17	-39.2	-41.7	20.1	0.00e+00	0	58	0	105906176	50	4655
2026-01-15 23:08:29.65	232.33	16.30	-39.1	-41.5	20.3	0.00e+00	0	57	0	106954752	50	4548
2026-01-15 23:08:30.66	232.10	16.43	-39.1	-41.5	20.2	0.00e+00	0	57	0	108527616	50	4546
2026-01-15 23:08:31.68	231.86	16.56	-39.1	-41.5	20.2	0.00e+00	0	57	0	109576192	50	4582
2026-01-15 23:08:32.68	231.62	16.69	-39.0	-41.4	20.3	0.00e+00	0	57	0	110624768	50	4513
2026-01-15 23:08:33.69	231.37	16.82	-38.7	-41.0	20.7	0.00e+00	0	58	0	111673344	49	4581
2026-01-15 23:08:34.70	231.13	16.95	-38.7	-40.9	20.8	0.00e+00	0	57	0	112721920	49	4537
2026-01-15 23:08:35.71	230.88	17.08	-38.8	-41.1	20.7	0.00e+00	0	58	0	113770496	49	4621
2026-01-15 23:08:36.72	230.63	17.21	-38.9	-41.2	20.5	0.00e+00	0	58	0	115343360	49	4684
2026-01-15 23:08:37.73	230.38	17.34	-38.8	-41.1	20.7	0.00e+00	0	58	0	116391936	49	4613
2026-01-15 23:08:38.74	230.12	17.48	-38.8	-41.1	20.7	0.00e+00	0	57	0	117440512	49	4611
2026-01-15 23:08:39.75	229.86	17.61	-38.7	-41.0	20.7	0.00e+00	0	57	0	118489088	49	4581
2026-01-15 23:08:40.76	229.60	17.74	-38.7	-41.0	20.8	0.00e+00	0	58	0	119537664	49	4569
2026-01-15 23:08:41.77	229.33	17.88	-38.8	-41.1	20.6	0.00e+00	0	57	0	120586240	49	4650
2026-01-15 23:08:42.78	229.06	18.01	-38.8	-41.1	20.7	0.00e+00	0	58	0	122159104	49	4630
2026-01-15 23:08:43.79	228.79	18.15	-38.8	-41.1	20.6	0.00e+00	0	58	0	123207680	49	4625
2026-01-15 23:08:44.80	228.52	18.29	-38.8	-41.0	20.7	0.00e+00	0	58	0	124256256	49	4594
2026-01-15 23:08:45.81	228.24	18.42	-39.0	-41.3	20.4	0.00e+00	0	58	0	125304832	49	4730
2026-01-15 23:08:46.81	227.96	18.56	-38.8	-41.1	20.7	0.00e+00	0	58	0	126353408	49	4622
2026-01-15 23:08:47.83	227.68	18.70	-38.6	-40.8	21.0	0.00e+00	0	58	0	127401984	49	4491
2026-01-15 23:08:48.84	227.39	18.83	-38.7	-40.9	20.8	0.00e+00	0	58	0	128450560	49	4540
2026-01-15 23:08:49.85	227.10	18.97	-38.4	-40.6	21.2	0.00e+00	0	58	0	130023424	48	4620
2026-01-15 23:08:50.85	226.81	19.11	-38.2	-40.3	21.5	0.00e+00	0	58	0	131072000	48	4442
2026-01-15 23:08:51.86	226.51	19.25	-38.2	-40.3	21.4	0.00e+00	0	58	0	132120576	48	4489
2026-01-15 23:08:52.87	226.21	19.39	-38.4	-40.6	21.2	0.00e+00	0	58	0	133169152	48	4616
2026-01-15 23:08:53.88	225.91	19.53	-38.5	-40.7	21.2	0.00e+00	0	58	0	134217728	48	4652
2026-01-15 23:08:54.89	225.60	19.67	-38.4	-40.6	21.2	0.00e+00	0	58	0	135790592	48	4610
2026-01-15 23:08:55.90	225.29	19.81	-38.5	-40.6	21.2	0.00e+00	0	58	0	136839168	48	4631
2026-01-15 23:08:56.91	224.98	19.95	-38.5	-40.6	21.2	0.00e+00	0	58	0	137887744	48	4641
2026-01-15 23:08:57.92	224.66	20.09	-38.5	-40.7	21.1	0.00e+00	0	58	0	138936320	48	4699
2026-01-15 23:08:58.94	224.34	20.24	-38.4	-40.6	21.3	0.00e+00	0	58	0	139984896	48	4604
2026-01-15 23:08:59.95	224.01	20.38	-38.2	-40.3	21.5	0.00e+00	0	58	0	141033472	48	4457
2026-01-15 23:09:00.96	223.69	20.52	-37.8	-39.8	21.9	0.00e+00	0	58	0	142606336	47	4492
2026-01-15 23:09:01.96	223.36	20.66	-37.8	-39.8	22.0	0.00e+00	0	58	0	143654912	47	4449
2026-01-15 23:09:02.97	223.02	20.81	-37.8	-39.8	22.0	0.00e+00	0	58	0	144703488	47	4454
2026-01-15 23:09:03.98	222.68	20.95	-37.9	-39.9	21.9	0.00e+00	0	58	0	145752064	47	4527
2026-01-15 23:09:04.99	222.34	21.09	-37.9	-40.0	21.8	0.00e+00	0	58	0	146800640	47	4564
2026-01-15 23:09:06.00	221.99	21.24	-38.0	-40.1	21.7	0.00e+00	0	58	0	147849216	47	4609
2026-01-15 23:09:07.01	221.64	21.38	-38.2	-40.3	21.5	0.00e+00	0	58	0	149422080	47	4747
2026-01-15 23:09:08.02	221.29	21.52	-38.2	-40.4	21.4	0.00e+00	0	58	0	150470656	47	4774
2026-01-15 23:09:09.03	220.93	21.67	-37.9	-40.0	21.8	0.00e+00	0	58	0	151519232	47	4555
2026-01-15 23:09:10.04	220.57	21.81	-37.8	-39.8	22.0	0.00e+00	0	58	0	152567808	47	4460
2026-01-15 23:09:11.05	220.20	21.96	-37.7	-39.7	22.1	0.00e+00	0	58	0	153616384	47	4418
2026-01-15 23:09:12.06	219.83	22.10	-37.7	-39.6	22.2	0.00e+00	0	58	0	154664960	47	4383
2026-01-15 23:09:13.07	219.46	22.24	-37.6	-39.5	22.3	0.00e+00	0	58	0	156237824	47	4325
2026-01-15 23:09:14.08	219.08	22.39	-37.6	-39.6	22.3	0.00e+00	0	58	0	157286400	47	4372
2026-01-15 23:09:15.08	218.70	22.53	-37.7	-39.6	22.3	0.00e+00	0	58	0	158334976	47	4382
2026-01-15 23:09:16.09	218.31	22.67	-37.7	-39.6	22.2	0.00e+00	0	58	0	159383552	47	4382
2026-01-15 23:09:17.10	217.92	22.82	-37.9	-40.0	21.9	0.00e+00	0	58	0	160432128	47	4556
2026-01-15 23:09:18.11	217.53	22.96	-38.0	-40.0	21.8	0.00e+00	0	58	0	161480704	47	4596
2026-01-15 23:09:19.12	217.13	23.10	-37.8	-39.8	22.0	0.00e+00	0	58	0	163053568	47	4482
2026-01-15 23:09:20.13	216.72	23.25	-37.8	-39.8	22.0	0.00e+00	0	58	0	164102144	47	4459
2026-01-15 23:09:21.14	216.31	23.39	-37.6	-39.6	22.3	0.00e+00	0	58	0	165150720	47	4345
2026-01-15 23:09:22.15	215.90	23.53	-37.5	-39.4	22.4	0.00e+00	0	58	0	166199296	46	4510
2026-01-15 23:09:23.16	215.48	23.67	-37.6	-39.6	22.3	0.00e+00	0	58	0	167247872	46	4612
2026-01-15 23:09:24.17	215.06	23.82	-37.5	-39.4	22.5	0.00e+00	0	58	0	168296448	46	4510
2026-01-15 23:09:25.18	214.63	23.96	-37.5	-39.5	22.3	0.00e+00	0	58	0	169345024	46	4571
2026-01-15 23:09:26.19	214.20	24.10	-37.4	-39.4	22.5	0.00e+00	0	58	0	170917888	46	4499
2026-01-15 23:09:27.20	213.77	24.24	-37.4	-39.3	22.6	0.00e+00	0	58	0	171966464	46	4468
2026-01-15 23:09:28.21	213.33	24.38	-37.3	-39.2	22.7	0.00e+00	0	58	0	173015040	46	4406
2026-01-15 23:09:29.21	212.89	24.51	-37.4	-39.3	22.6	0.00e+00	0	58	0	174063616	46	4483
2026-01-15 23:09:30.22	212.44	24.65	-37.5	-39.4	22.4	0.00e+00	0	58	0	175112192	46	4545
2026-01-15 23:09:31.23	211.99	24.79	-37.5	-39.4	22.4	0.00e+00	0	58	0	176160768	46	4539
2026-01-15 23:09:32.24	211.53	24.93	-37.6	-39.5	22.3	0.00e+00	0	58	0	177733632	46	4591
2026-01-15 23:09:33.25	211.06	25.06	-37.4	-39.4	22.5	0.00e+00	0	58	0	178782208	46	4502
2026-01-15 23:09:34.26	210.60	25.20	-37.4	-39.3	22.5	0.00e+00	0	58	0	179830784	46	4477
2026-01-15 23:09:35.27	210.13	25.33	-37.4	-39.3	22.6	0.00e+00	0	58	0	180879360	46	4471
2026-01-15 23:09:36.28	209.65	25.46	-37.4	-39.3	22.6	0.00e+00	0	58	0	181927936	46	4447
2026-01-15 23:09:37.29	209.17	25.59	-37.3	-39.2	22.7	0.00e+00	0	58	0	183500800	46	4401
2026-01-15 23:09:38.30	208.68	25.73	-37.5	-39.4	22.4	0.00e+00	0	58	0	184549376	46	4539
2026-01-15 23:09:39.31	208.19	25.85	-37.4	-39.3	22.6	0.00e+00	0	58	0	185597952	46	4485
2026-01-15 23:09:40.32	207.70	25.98	-37.4	-39.3	22.5	0.00e+00	0	58	0	186646528	46	4486
2026-01-15 23:09:41.33	207.20	26.11	-37.4	-39.3	22.5	0.00e+00	0	58	0	187695104	46	4487
2026-01-15 23:09:42.34	206.69	26.24	-37.3	-39.2	22.7	0.00e+00	0	58	0	188743680	46	4400
2026-01-15 23:09:43.34	206.19	26.36	-37.2	-39.1	22.8	0.00e+00	0	58	0	190316544	46	4344
2026-01-15 23:09:44.35	205.68	26.48	-37.1	-39.0	22.9	0.00e+00	0	58	0	191365120	46	4321
2026-01-15 23:09:45.36	205.16	26.60	-37.2	-39.1	22.8	0.00e+00	0	58	0	192413696	46	4371
2026-01-15 23:09:46.37	204.63	26.72	-37.4	-39.3	22.6	0.00e+00	0	58	0	193462272	46	4451
2026-01-15 23:09:47.38	204.11	26.84	-37.3	-39.2	22.7	0.00e+00	0	58	0	194510848	46	4409
2026-01-15 23:09:48.39	203.58	26.96	-37.3	-39.2	22.6	0.00e+00	0	58	0	195559424	46	4422
2026-01-15 23:09:49.40	203.04	27.07	-37.2	-39.1	22.8	0.00e+00	0	58	0	197132288	46	4345
2026-01-15 23:09:50.41	202.50	27.18	-37.1	-38.9	23.0	0.00e+00	0	58	0	198180864	46	4271
2026-01-15 23:09:51.42	201.96	27.29	-36.8	-38.6	23.3	0.00e+00	0	58	0	199229440	45	4371
2026-01-15 23:09:52.43	201.41	27.40	-37.0	-38.8	23.0	0.00e+00	0	58	0	200278016	45	4488
2026-01-15 23:09:53.44	200.86	27.51	-37.1	-38.9	23.0	0.00e+00	0	58	0	201326592	45	4529
2026-01-15 23:09:54.45	200.30	27.61	-37.0	-38.9	23.0	0.00e+00	0	58	0	202375168	45	4498
2026-01-15 23:09:55.46	199.74	27.71	-37.0	-38.8	23.0	0.00e+00	0	58	0	203948032	45	4469
2026-01-15 23:09:56.47	199.17	27.81	-36.8	-38.6	23.2	0.00e+00	0	58	0	204996608	45	4365
2026-01-15 23:09:57.48	198.60	27.91	-36.9	-38.7	23.2	0.00e+00	0	58	0	206045184	45	4403
2026-01-15 23:09:58.49	198.03	28.01	-37.1	-38.9	22.9	0.00e+00	0	58	0	207093760	45	4525
2026-01-15 23:09:59.50	197.45	28.10	-37.4	-39.3	22.6	0.00e+00	0	58	0	208142336	45	4728
2026-01-15 23:10:00.51	196.87	28.19	-37.2	-39.1	22.8	0.00e+00	0	58	0	209190912	45	4633
2026-01-15 23:10:01.52	196.29	28.28	-37.1	-39.0	22.9	0.00e+00	0	58	0	210239488	45	4561
2026-01-15 23:10:02.53	195.70	28.36	-37.0	-38.8	23.0	0.00e+00	0	58	0	211812352	45	4465
2026-01-15 23:10:03.53	195.12	28.44	-36.9	-38.7	23.1	0.00e+00	0	58	0	212860928	45	4426
2026-01-15 23:10:04.54	194.52	28.52	-37.2	-39.1	22.6	0.00e+00	0	58	0	213909504	45	4620
2026-01-15 23:10:05.55	193.92	28.60	-37.2	-39.1	22.7	0.00e+00	0	58	0	214958080	45	4629
2026-01-15 23:10:06.56	193.32	28.67	-37.3	-39.2	22.7	0.00e+00	0	58	0	216006656	45	4663
2026-01-15 23:10:07.57	192.72	28.74	-37.1	-39.0	22.8	0.00e+00	0	59	0	217055232	45	4567
2026-01-15 23:10:08.58	192.11	28.81	-37.3	-39.1	22.8	0.00e+00	0	58	0	218628096	45	4638
2026-01-15 23:10:09.59	191.50	28.88	-37.2	-39.1	22.8	0.00e+00	0	59	0	219676672	45	4613
2026-01-15 23:10:10.60	190.89	28.94	-37.4	-39.3	22.4	0.00e+00	0	58	0	220725248	45	4758
2026-01-15 23:10:11.61	190.28	29.00	-37.6	-39.6	22.3	0.00e+00	0	59	0	221773824	45	4873
2026-01-15 23:10:12.62	189.66	29.05	-37.8	-39.8	22.1	0.00e+00	0	59	0	222822400	46	4741
2026-01-15 23:10:13.63	189.04	29.11	-37.9	-39.9	21.9	0.00e+00	0	58	0	223870976	46	4796
2026-01-15 23:10:14.64	188.42	29.15	-37.9	-39.9	22.1	0.00e+00	0	58	0	225443840	46	4764
2026-01-15 23:10:15.65	187.79	29.20	-37.8	-39.8	22.1	0.00e+00	0	59	0	226492416	46	4736
2026-01-15 23:10:16.66	187.17	29.24	-37.7	-39.7	22.2	0.00e+00	0	58	0	227540992	46	4659
2026-01-15 23:10:17.67	186.54	29.28	-37.4	-39.3	22.5	0.00e+00	0	58	0	228589568	46	4487
2026-01-15 23:10:18.68	185.91	29.32	-37.3	-39.1	22.8	0.00e+00	0	59	0	229638144	46	4386
2026-01-15 23:10:19.69	185.28	29.35	-37.0	-38.9	23.0	0.00e+00	0	59	0	230686720	46	4253
2026-01-15 23:10:20.70	184.65	29.38	-37.1	-38.9	22.9	0.00e+00	0	58	0	232259584	46	4273
2026-01-15 23:10:21.71	184.01	29.40	-37.1	-38.9	23.0	0.00e+00	0	58	0	233308160	46	4274
2026-01-15 23:10:22.71	183.38	29.43	-37.2	-39.1	22.8	0.00e+00	0	59	0	234356736	46	4366
2026-01-15 23:10:23.72	182.75	29.44	-37.3	-39.2	22.7	0.00e+00	0	58	0	235405312	46	4421
2026-01-15 23:10:24.73	182.11	29.46	-37.4	-39.3	22.6	0.00e+00	0	59	0	236453888	46	4453
2026-01-15 23:10:25.75	181.47	29.47	-37.3	-39.2	22.6	0.00e+00	0	59	0	238026752	46	4427
2026-01-15 23:10:26.75	180.84	29.48	-37.2	-39.1	22.8	0.00e+00	0	59	0	239075328	46	4362
2026-01-15 23:10:27.76	180.20	29.48	-37.1	-38.9	23.0	0.00e+00	0	58	0	240123904	46	4278
2026-01-15 23:10:28.77	179.56	29.48	-37.2	-39.1	22.8	0.00e+00	0	58	0	241172480	46	4348
2026-01-15 23:10:29.78	178.93	29.48	-37.3	-39.1	22.8	0.00e+00	0	59	0	242221056	46	4386
2026-01-15 23:10:30.79	178.29	29.47	-37.5	-39.4	22.6	0.00e+00	0	58	0	243269632	46	4500
2026-01-15 23:10:31.80	177.65	29.46	-37.4	-39.3	22.6	0.00e+00	0	59	0	244842496	46	4483
2026-01-15 23:10:32.81	177.02	29.45	-37.3	-39.2	22.8	0.00e+00	0	58	0	245891072	46	4404
2026-01-15 23:10:33.82	176.38	29.43	-37.6	-39.5	22.7	0.00e+00	0	58	0	246939648	46	4555
2026-01-15 23:10:34.83	175.75	29.41	-37.5	-39.4	22.6	0.00e+00	0	59	0	247988224	46	4515
2026-01-15 23:10:35.84	175.11	29.38	-37.7	-39.6	22.4	0.00e+00	0	58	0	249036800	46	4630
2026-01-15 23:10:36.85	174.48	29.36	-37.7	-39.6	22.4	0.00e+00	0	59	0	250085376	46	4622
2026-01-15 23:10:37.86	173.85	29.33	-37.6	-39.5	22.4	0.00e+00	0	58	0	251133952	46	4593
2026-01-15 23:10:38.87	173.22	29.29	-37.5	-39.5	22.5	0.00e+00	0	59	0	252706816	46	4549
2026-01-15 23:10:39.87	172.60	29.25	-37.5	-39.5	22.5	0.00e+00	0	59	0	253755392	46	4546
2026-01-15 23:10:40.89	171.97	29.21	-37.4	-39.3	22.6	0.00e+00	0	59	0	254803968	46	4479
2026-01-15 23:10:41.90	171.34	29.17	-37.1	-38.9	22.9	0.00e+00	0	59	0	255852544	46	4288
2026-01-15 23:10:42.90	170.73	29.12	-37.0	-38.8	23.0	0.00e+00	0	59	0	256901120	44	4752
2026-01-15 23:10:43.91	170.11	29.07	-37.0	-38.9	23.0	0.00e+00	0	58	0	257949696	44	4794
2026-01-15 23:10:44.93	169.48	29.01	-37.2	-39.1	22.8	0.00e+00	0	59	0	259522560	44	4892
2026-01-15 23:10:45.94	168.87	28.95	-37.5	-39.4	22.5	0.00e+00	0	58	0	260571136	45	4799
2026-01-15 23:10:46.95	168.25	28.89	-37.7	-39.7	22.3	0.00e+00	0	58	0	261619712	45	4958
2026-01-15 23:10:47.94	167.66	28.83	-37.8	-39.7	22.2	0.00e+00	0	59	0	262668288	46	4705
2026-01-15 23:10:48.95	167.05	28.76	-37.5	-39.4	22.6	0.00e+00	0	58	0	263716864	46	4534
2026-01-15 23:10:49.96	166.44	28.69	-37.3	-39.2	22.9	0.00e+00	0	59	0	264765440	46	4410
2026-01-15 23:10:50.97	165.84	28.62	-37.1	-39.0	23.0	0.00e+00	0	59	0	266338304	46	4312
2026-01-15 23:10:51.98	165.24	28.54	-37.3	-39.1	22.9	0.00e+00	0	59	0	267386880	46	4386
2026-01-15 23:10:52.99	164.65	28.47	-37.3	-39.2	22.8	0.00e+00	0	59	0	268435456	46	4424
2026-01-15 23:10:54.00	164.06	28.38	-37.5	-39.4	22.6	0.00e+00	0	58	0	269484032	46	4527
2026-01-15 23:10:55.01	163.47	28.30	-37.3	-39.2	22.8	0.00e+00	0	59	0	270532608	46	4429
2026-01-15 23:10:56.02	162.88	28.21	-37.2	-39.1	22.9	0.00e+00	0	58	0	271581184	46	4372
2026-01-15 23:10:57.02	162.31	28.12	-37.2	-39.0	23.0	0.00e+00	0	58	0	273154048	46	4333
2026-01-15 23:10:58.04	161.73	28.03	-36.9	-38.7	23.2	0.00e+00	0	59	0	274202624	45	4441
2026-01-15 23:10:59.04	161.16	27.94	-36.8	-38.6	23.3	0.00e+00	0	59	0	275251200	45	4352
2026-01-15 23:11:00.06	160.58	27.84	-36.7	-38.5	23.5	0.00e+00	0	59	0	276299776	45	4297
2026-01-15 23:11:01.06	160.02	27.74	-36.6	-38.4	23.5	0.00e+00	0	59	0	277348352	45	4267
2026-01-15 23:11:02.07	159.46	27.64	-36.9	-38.7	23.3	0.00e+00	0	59	0	278396928	45	4403
2026-01-15 23:11:03.08	158.90	27.54	-37.1	-38.9	23.0	0.00e+00	0	59	0	279969792	45	4527
2026-01-15 23:11:04.09	158.35	27.43	-37.3	-39.2	22.8	0.00e+00	0	59	0	281018368	45	4656
2026-01-15 23:11:05.10	157.80	27.32	-37.4	-39.3	22.6	0.00e+00	0	59	0	282066944	45	4744
2026-01-15 23:11:06.11	157.26	27.21	-37.2	-39.1	22.8	0.00e+00	0	59	0	283115520	45	4648
2026-01-15 23:11:07.12	156.72	27.10	-37.0	-38.9	23.0	0.00e+00	0	59	0	284164096	45	4496
2026-01-15 23:11:08.13	156.18	26.99	-36.7	-38.5	23.4	0.00e+00	0	59	0	285212672	45	4322
2026-01-15 23:11:09.14	155.65	26.87	-36.8	-38.5	23.4	0.00e+00	0	59	0	286785536	45	4330
2026-01-15 23:11:10.15	155.12	26.76	-36.7	-38.5	23.4	0.00e+00	0	59	0	287834112	45	4333
2026-01-15 23:11:11.16	154.60	26.64	-37.0	-38.8	23.2	0.00e+00	0	59	0	288882688	45	4472
2026-01-15 23:11:12.17	154.08	26.52	-37.2	-39.1	22.9	0.00e+00	0	59	0	289931264	45	4604
2026-01-15 23:11:13.18	153.56	26.39	-37.5	-39.4	22.6	0.00e+00	0	59	0	290979840	45	4793
2026-01-15 23:11:14.19	153.05	26.27	-37.7	-39.7	22.3	0.00e+00	0	59	0	292028416	45	4973
2026-01-15 23:11:15.21	152.54	26.14	-37.8	-39.8	22.2	0.00e+00	0	59	0	293601280	46	4721
2026-01-15 23:11:16.21	152.05	26.02	-37.6	-39.5	22.5	0.00e+00	0	59	0	294649856	46	4588
2026-01-15 23:11:17.22	151.55	25.89	-37.6	-39.5	22.5	0.00e+00	0	59	0	295698432	46	4580
2026-01-15 23:11:18.23	151.06	25.76	-37.3	-39.2	22.8	0.00e+00	0	59	0	296747008	46	4436
2026-01-15 23:11:19.24	150.58	25.63	-37.3	-39.2	22.8	0.00e+00	0	59	0	297795584	46	4418
2026-01-15 23:11:20.25	150.09	25.50	-37.4	-39.3	22.8	0.00e+00	0	59	0	298844160	46	4452
2026-01-15 23:11:21.26	149.62	25.37	-37.5	-39.5	22.5	0.00e+00	0	59	0	300417024	46	4570
2026-01-15 23:11:22.27	149.14	25.24	-37.6	-39.6	22.4	0.00e+00	0	59	0	301465600	46	4618
2026-01-15 23:11:23.28	148.68	25.10	-37.6	-39.6	22.4	0.00e+00	0	59	0	302514176	46	4634
2026-01-15 23:11:24.28	148.22	24.97	-37.4	-39.4	22.7	0.00e+00	0	59	0	303562752	46	4496
2026-01-15 23:11:25.29	147.76	24.83	-37.5	-39.5	22.6	0.00e+00	0	59	0	304611328	46	4552
2026-01-15 23:11:26.30	147.30	24.69	-37.4	-39.3	22.7	0.00e+00	0	59	0	305659904	46	4486
2026-01-15 23:11:27.31	146.85	24.56	-37.5	-39.4	22.6	0.00e+00	0	59	0	307232768	46	4522
2026-01-15 23:11:28.32	146.41	24.42	-37.6	-39.6	22.4	0.00e+00	0	59	0	308281344	46	4608
2026-01-15 23:11:29.33	145.97	24.28	-37.8	-39.8	22.2	0.00e+00	0	59	0	309329920	46	4753
2026-01-15 23:11:30.34	145.53	24.14	-38.1	-40.1	21.9	0.00e+00	0	59	0	310378496	46	4924
2026-01-15 23:11:31.35	145.10	24.00	-38.0	-40.1	21.9	0.00e+00	0	59	0	311427072	46	4894
2026-01-15 23:11:32.35	144.68	23.86	-37.8	-39.9	22.1	0.00e+00	0	59	0	312475648	46	4770
2026-01-15 23:11:33.36	144.25	23.72	-37.8	-39.8	22.2	0.00e+00	0	59	0	314048512	46	4720
2026-01-15 23:11:34.37	143.84	23.58	-37.7	-39.7	22.3	0.00e+00	0	59	0	315097088	46	4657
2026-01-15 23:11:35.38	143.42	23.44	-37.6	-39.6	22.4	0.00e+00	0	59	0	316145664	46	4620
2026-01-15 23:11:36.39	143.01	23.29	-37.8	-39.8	22.1	0.00e+00	0	59	0	317194240	46	4757
2026-01-15 23:11:37.40	142.61	23.15	-37.9	-39.9	22.0	0.00e+00	0	59	0	318242816	46	4809
2026-01-15 23:11:38.41	142.21	23.01	-37.9	-40.0	21.9	0.00e+00	0	59	0	319291392	46	4831
2026-01-15 23:11:39.42	141.81	22.86	-37.9	-39.9	22.0	0.00e+00	0	59	0	320864256	46	4802
2026-01-15 23:11:40.43	141.42	22.72	-38.0	-40.1	21.9	0.00e+00	0	59	0	321912832	46	4914
2026-01-15 23:11:41.44	141.03	22.58	-38.0	-40.0	21.9	0.00e+00	0	59	0	322961408	46	4854
2026-01-15 23:11:42.44	140.65	22.44	-37.9	-40.0	21.9	0.00e+00	0	59	0	324009984	46	4855
2026-01-15 23:11:43.45	140.27	22.29	-38.0	-40.1	21.8	0.00e+00	0	59	0	325058560	46	4909
2026-01-15 23:11:44.47	139.89	22.15	-38.0	-40.1	21.9	0.00e+00	0	59	0	326107136	46	4877
2026-01-15 23:11:45.48	139.52	22.00	-38.0	-40.1	21.8	0.00e+00	0	59	0	327680000	46	4912
2026-01-15 23:11:46.48	139.16	21.86	-38.2	-40.3	21.6	0.00e+00	0	59	0	328728576	46	5038
2026-01-15 23:11:47.49	138.80	21.72	-38.3	-40.5	21.4	0.00e+00	0	59	0	329777152	47	4845
2026-01-15 23:11:48.50	138.44	21.57	-38.4	-40.6	21.4	0.00e+00	0	59	0	330825728	47	4889
2026-01-15 23:11:49.51	138.08	21.43	-38.4	-40.6	21.3	0.00e+00	0	59	0	331874304	47	4924
2026-01-15 23:11:50.52	137.73	21.29	-38.4	-40.6	21.4	0.00e+00	0	59	0	332922880	47	4885
2026-01-15 23:11:51.53	137.38	21.14	-38.2	-40.4	21.5	0.00e+00	0	59	0	334495744	47	4782
2026-01-15 23:11:52.54	137.04	21.00	-38.1	-40.2	21.7	0.00e+00	0	59	0	335544320	47	4686
2026-01-15 23:11:53.55	136.70	20.86	-38.2	-40.4	21.6	0.00e+00	0	59	0	336592896	47	4770
2026-01-15 23:11:54.56	136.36	20.71	-38.2	-40.4	21.5	0.00e+00	0	59	0	337641472	47	4793
2026-01-15 23:11:55.57	136.03	20.57	-38.4	-40.6	21.3	0.00e+00	0	59	0	338690048	47	4891
2026-01-15 23:11:56.59	135.70	20.43	-38.2	-40.4	21.5	0.00e+00	0	59	0	339738624	47	4771
2026-01-15 23:11:57.59	135.38	20.29	-38.3	-40.5	21.4	0.00e+00	0	59	0	341311488	47	4831
2026-01-15 23:11:58.60	135.06	20.15	-38.4	-40.6	21.3	0.00e+00	0	59	0	342360064	47	4897
2026-01-15 23:11:59.61	134.74	20.00	-38.5	-40.8	21.1	0.00e+00	0	59	0	343408640	47	5005
2026-01-15 23:12:00.62	134.43	19.86	-38.5	-40.8	21.1	0.00e+00	0	59	0	344457216	47	4996
2026-01-15 23:12:01.63	134.12	19.72	-38.5	-40.7	21.1	0.00e+00	0	59	0	345505792	47	4982
2026-01-15 23:12:02.64	133.81	19.58	-38.6	-40.9	20.9	0.00e+00	0	59	0	346554368	47	5088
2026-01-15 23:12:03.65	133.50	19.44	-38.5	-40.8	21.0	0.00e+00	0	59	0	348127232	47	5004
2026-01-15 23:12:04.66	133.20	19.30	-38.5	-40.8	21.0	0.00e+00	0	59	0	349175808	47	5013
2026-01-15 23:12:05.67	132.91	19.16	-38.4	-40.7	21.2	0.00e+00	0	59	0	350224384	47	4933
2026-01-15 23:12:06.68	132.61	19.02	-38.6	-40.9	21.0	0.00e+00	0	59	0	351272960	47	5043
2026-01-15 23:12:07.69	132.32	18.89	-38.0	-41.1	20.7	0.00e+00	0	59	0	352321536	48	4907
2026-01-15 23:12:08.70	132.04	18.75	-38.7	-41.0	20.8	3.40e-06	0	59	0	353370112	47	5141
2026-01-15 23:12:09.71	131.75	18.61	-38.8	-41.0	20.9	3.40e-06	0	59	0	354942976	48	4864
2026-01-15 23:12:10.72	131.47	18.47	-38.6	-40.8	21.1	1.10e-06	0	59	0	355991552	48	4719
2026-01-15 23:12:11.73	131.19	18.34	-38.6	-40.8	21.1	9.10e-06	0	59	0	357040128	48	4735
2026-01-15 23:12:12.74	130.92	18.20	-38.6	-41.0	20.8	9.10e-06	0	59	0	358088704	48	4853
2026-01-15 23:12:13.75	130.65	18.07	-38.8	-41.1	20.8	9.10e-06	0	59	0	359137280	48	4894
2026-01-15 23:12:14.76	130.38	17.93	-38.8	-41.2	20.6	3.40e-06	0	59	0	360185856	48	4963
2026-01-15 23:12:15.77	130.11	17.80	-38.7	-41.0	20.9	3.40e-06	0	59	0	361758720	48	4846
2026-01-15 23:12:16.78	129.85	17.66	-38.7	-41.0	20.9	2.20e-06	0	59	0	362807296	48	4820
2026-01-15 23:12:17.79	129.59	17.53	-38.7	-41.0	20.8	1.10e-06	0	59	0	363855872	48	4837
2026-01-15 23:12:18.80	129.33	17.39	-38.7	-41.0	20.8	0.00e+00	0	59	0	364904448	48	4837
2026-01-15 23:12:19.81	129.08	17.26	-38.9	-41.3	20.5	0.00e+00	0	59	0	365953024	48	5007
2026-01-15 23:12:20.82	128.83	17.13	-39.0	-41.4	20.4	0.00e+00	0	59	0	367001600	48	5085
2026-01-15 23:12:21.83	128.58	17.00	-39.0	-41.5	20.3	0.00e+00	0	59	0	368574464	48	5107
2026-01-15 23:12:22.84	128.33	16.87	-38.9	-41.4	20.2	0.00e+00	0	59	0	369623040	48	5088
2026-01-15 23:12:23.85	128.09	16.74	-38.9	-41.3	20.4	1.94e-05	0	59	0	370671616	48	5015
2026-01-15 23:12:24.86	127.85	16.61	-38.9	-41.3	20.4	2.17e-05	0	59	0	371720192	48	4994
2026-01-15 23:12:25.87	127.61	16.48	-38.9	-41.3	20.4	2.17e-05	0	59	0	372768768	48	5005
2026-01-15 23:12:26.88	127.37	16.35	-38.9	-41.3	20.3	0.00e+00	0	59	0	373817344	48	5029
2026-01-15 23:12:27.89	127.14	16.22	-39.0	-41.5	20.2	1.02e-05	0	59	0	375390208	48	5121
2026-01-15 23:12:28.90	126.91	16.09	-39.0	-41.5	20.1	0.00e+00	0	59	0	376438784	48	5140
2026-01-15 23:12:29.91	126.68	15.97	-38.8	-41.6	19.9	0.00e+00	0	59	0	377487360	48	5193
2026-01-15 23:12:30.92	126.46	15.84	-39.2	-41.8	19.8	0.00e+00	0	59	0	378535936	49	5017
2026-01-15 23:12:31.93	126.23	15.72	-39.3	-42.2	19.5	5.70e-06	0	59	0	379584512	49	5258
2026-01-15 23:12:32.94	126.01	15.59	-39.3	-42.2	19.4	5.70e-06	0	59	0	380633088	49	5219
2026-01-15 23:12:33.95	125.79	15.47	-39.5	-42.4	19.1	1.10e-06	0	59	0	382205952	49	5366
2026-01-15 23:12:34.96	125.58	15.34	-39.4	-42.4	19.0	3.54e-05	0	59	0	383254528	49	5366
2026-01-15 23:12:35.97	125.36	15.22	-39.5	-42.5	18.9	3.54e-05	0	59	0	384303104	49	5446
2026-01-15 23:12:36.98	125.15	15.09	-39.1	-42.3	19.1	2.28e-05	0	59	0	385351680	49	5293
2026-01-15 23:12:37.99	124.94	14.97	-30.2	-41.1	10.9	5.60e-03	0	59	0	386400256	34	10956
2026-01-15 23:12:39.00	124.73	14.85	-39.1	-42.1	19.1	5.60e-03	0	59	0	387448832	49	5207
2026-01-15 23:12:40.01	124.53	14.73	-28.3	-41.3	17.6	1.37e-02	0	59	0	389021696	30	14088
2026-01-15 23:12:41.02	124.33	14.61	-39.1	-42.5	18.8	1.37e-04	0	59	0	390070272	49	5419
2026-01-15 23:12:42.03	124.12	14.49	-39.6	-42.5	18.8	1.93e-04	0	59	0	391118848	49	5409
2026-01-15 23:12:43.04	123.93	14.37	-39.7	-42.8	18.4	1.93e-04	0	59	0	392167424	50	5291
2026-01-15 23:12:44.05	123.73	14.25	-36.7	-42.8	15.9	2.21e-04	0	59	0	393216000	47	6291
2026-01-15 23:12:45.06	123.53	14.13	-39.8	-43.0	18.0	2.36e-04	0	59	0	394264576	49	5785
2026-01-15 23:12:46.07	123.34	14.01	-39.5	-42.6	18.2	2.36e-04	0	59	0	395837440	49	5525
2026-01-15 23:12:47.08	123.15	13.90	-37.9	-42.8	17.8	5.13e-04	0	59	0	396886016	49	5608
2026-01-15 23:12:48.09	122.96	13.78	-38.5	-42.7	16.8	2.52e-04	0	59	0	397934592	49	5536
2026-01-15 23:12:49.10	122.77	13.66	-39.5	-42.5	18.4	2.52e-04	0	59	0	398983168	49	5429
2026-01-15 23:12:50.11	122.59	13.55	-39.5	-42.7	17.6	3.49e-04	0	59	0	400031744	49	5577
2026-01-15 23:12:51.12	122.41	13.43	-39.5	-43.0	17.9	2.80e-04	0	59	0	401080320	50	5428
2026-01-15 23:12:52.13	122.23	13.32	-39.5	-42.9	17.8	2.80e-04	0	60	0	402653184	50	5401
2026-01-15 23:12:53.14	122.05	13.21	-39.6	-43.0	17.3	3.40e-04	0	59	0	403701760	49	5732
2026-01-15 23:12:54.15	121.87	13.09	-39.9	-43.0	16.8	6.77e-02	0	59	0	404750336	49	5751
2026-01-15 23:12:55.16	121.69	12.98	-39.6	-42.9	17.1	1.06e-03	0	59	0	405798912	49	5709
2026-01-15 23:12:56.17	121.52	12.87	-40.4	-43.6	17.4	1.06e-03	0	59	0	406847488	50	5792
2026-01-15 23:12:57.18	121.35	12.76	-39.7	-43.1	16.7	4.50e-04	0	59	0	407896064	49	5809
2026-01-15 23:12:58.19	121.18	12.64	-38.5	-43.4	16.7	1.48e-03	0	59	0	408944640	50	5713
2026-01-15 23:12:59.20	121.01	12.53	-39.7	-43.3	17.0	1.48e-03	0	59	0	410517504	50	5615
2026-01-15 23:13:00.21	120.84	12.42	-39.2	-43.5	16.6	3.63e-04	0	59	0	411566080	50	5738
2026-01-15 23:13:01.21	120.67	12.32	-39.6	-43.4	16.7	3.90e-04	0	59	0	412614656	50	5699
2026-01-15 23:13:02.22	120.51	12.21	-38.7	-43.5	16.7	3.90e-04	0	59	0	413663232	50	5763
2026-01-15 23:13:03.23	120.35	12.10	-40.1	-43.7	15.9	3.87e-04	0	59	0	414711808	50	5892
2026-01-15 23:13:04.24	120.19	11.99	-39.7	-43.5	16.9	2.05e-03	0	59	0	415760384	50	5723
2026-01-15 23:13:05.25	120.03	11.88	-40.1	-43.5	16.7	2.05e-03	0	59	0	417333248	50	5777
2026-01-15 23:13:06.26	119.87	11.78	-40.2	-43.8	16.3	3.40e-04	0	59	0	418381824	49	6342
2026-01-15 23:13:07.27	119.71	11.67	-40.4	-44.1	16.4	4.23e-04	0	59	0	419430400	51	5790
2026-01-15 23:13:08.28	119.56	11.56	-40.0	-43.9	16.2	5.86e-02	0	59	0	420478976	50	6029
2026-01-15 23:13:09.29	119.41	11.46	-39.3	-44.1	15.8	5.86e-02	0	59	0	421527552	50	6184
2026-01-15 23:13:10.30	119.25	11.35	-40.0	-44.0	15.1	5.19e-04	0	59	0	422576128	49	6443
2026-01-15 23:13:11.31	119.10	11.25	-39.2	-43.7	15.5	9.83e-04	0	59	0	423624704	49	6241
2026-01-15 23:13:12.32	118.95	11.15	-39.3	-44.0	14.7	9.83e-04	0	59	0	425197568	48	6804
2026-01-15 23:13:13.33	118.81	11.04	-39.5	-43.5	14.6	1.66e-03	0	59	0	426246144	48	6449
2026-01-15 23:13:14.34	118.66	10.94	-39.1	-44.0	13.9	5.23e-03	0	59	0	427294720	46	7646
2026-01-15 23:13:15.35	118.52	10.84	-38.5	-43.3	15.0	5.23e-03	0	59	0	428343296	45	7495
2026-01-15 23:13:16.36	118.37	10.74	-37.6	-43.6	12.2	7.75e-03	0	59	0	429391872	42	9277
2026-01-15 23:13:17.37	118.23	10.64	-37.8	-44.0	12.2	9.27e-03	0	59	0	430440448	42	9608
2026-01-15 23:13:18.38	118.09	10.53	-34.7	-42.9	12.4	1.52e-02	0	59	0	432013312	41	9008
2026-01-15 23:13:19.39	117.95	10.43	-35.1	-43.8	11.5	1.52e-02	0	59	0	433061888	42	9475
2026-01-15 23:13:20.40	117.81	10.33	-35.5	-43.5	11.3	3.72e-02	0	59	0	434110464	42	9095
2026-01-15 23:13:21.41	117.68	10.23	-34.8	-43.4	10.7	3.48e-02	0	59	0	435159040	39	10676
2026-01-15 23:13:22.42	117.54	10.14	-32.9	-43.3	9.7	3.48e-02	0	59	0	436207616	36	12601
2026-01-15 23:13:23.43	117.41	10.04	-34.5	-44.2	9.4	8.94e-02	0	59	0	437256192	41	10413
2026-01-15 23:13:24.44	117.27	9.94	-35.5	-44.4	8.6	9.57e-02	0	59	0	438829056	38	12810
2026-01-15 23:13:25.45	117.14	9.84	-31.6	-43.2	8.0	9.57e-02	0	59	0	439877632	33	14795
2026-01-15 23:13:26.46	117.01	9.75	-33.3	-43.5	7.7	1.78e-01	0	59	0	440401920	37	12218
2026-01-15 23:13:27.47	116.88	9.65	-31.0	-43.3	7.2	2.40e-01	0	59	0	441450496	33	15024
2026-01-15 23:13:28.48	116.75	9.55	-32.8	-43.1	7.1	2.40e-01	0	59	0	442499072	32	15563
2026-01-15 23:13:29.49	116.62	9.46	-29.9	-42.4	6.8	3.88e-01	0	59	0	443547648	31	15106
2026-01-15 23:13:30.50	116.50	9.36	-30.3	-43.2	6.8	4.01e-01	0	59	0	444071936	33	14734
2026-01-15 23:13:31.51	116.37	9.27	-30.3	-42.9	7.0	4.13e-01	0	59	0	445120512	31	15974
2026-01-15 23:13:32.52	116.25	9.17	-30.5	-42.6	6.3	4.13e-01	0	59	0	445644800	30	16497
2026-01-15 23:13:33.53	116.13	9.08	-31.1	-42.6	6.3	4.96e-01	0	59	0	446693376	31	15404
2026-01-15 23:13:34.54	116.01	8.99	-28.2	-41.8	6.1	5.13e-01	0	59	0	447217664	29	15853
2026-01-15 23:13:35.55	115.88	8.89	-30.8	-42.7	5.3	5.13e-01	0	60	0	447741952	27	19626
2026-01-15 23:13:36.56	115.77	8.80	-30.0	-43.3	5.6	5.82e-01	0	60	0	448266240	30	17749
2026-01-15 23:13:37.57	115.65	8.71	-30.0	-42.2	5.8	5.77e-01	0	59	0	449314816	30	15687
2026-01-15 23:13:38.58	115.53	8.62	-29.9	-42.7	6.1	5.77e-01	0	59	0	449839104	31	15647
2026-01-15 23:13:39.59	115.41	8.53	-29.2	-43.1	5.8	5.86e-01	0	59	0	450363392	31	16428
2026-01-15 23:13:40.60	115.30	8.43	-31.2	-43.2	5.5	5.60e-01	0	59	0	450887680	29	18594
2026-01-15 23:13:41.61	115.18	8.34	-28.6	-42.4	4.5	5.60e-01	0	59	0	451411968	24	22645
2026-01-15 23:13:42.62	115.07	8.25	-27.8	-42.2	4.9	6.85e-01	0	59	0	451936256	29	16629
2026-01-15 23:13:43.63	114.96	8.16	-29.9	-42.7	5.2	6.54e-01	0	59	0	451936256	29	17616
2026-01-15 23:13:44.64	114.85	8.07	-29.1	-42.9	5.1	6.94e-01	0	59	0	452460544	28	19089
2026-01-15 23:13:45.65	114.73	7.99	-35.7	-53.5	3.4	6.94e-01	0	59	104	452460544	39	34424
2026-01-15 23:13:46.66	114.63	7.90	-44.6	-62.4	3.8	7.59e-01	0	59	104	452460544	59	30083
2026-01-15 23:13:47.67	114.52	7.81	-44.9	-63.0	3.8	8.46e-01	0	60	104	452460544	60	30496
2026-01-15 23:13:48.68	114.41	7.72	-45.1	-63.1	3.8	8.46e-01	0	59	104	452460544	60	30933
2026-01-15 23:13:49.69	114.30	7.63	-45.3	-63.3	3.8	8.47e-01	0	59	104	452460544	61	29997
2026-01-15 23:13:50.69	114.20	7.55	-45.4	-63.5	3.8	8.45e-01	0	60	104	452460544	61	30441
2026-01-15 23:13:51.70	114.09	7.46	-45.6	-63.7	3.8	8.45e-01	0	60	104	452460544	61	31237
2026-01-15 23:13:52.72	113.99	7.37	-45.8	-63.9	3.8	8.46e-01	0	59	104	452460544	62	30192
2026-01-15 23:13:53.73	113.88	7.29	-45.8	-64.0	3.8	8.45e-01	0	59	104	452460544	62	30434
2026-01-15 23:13:54.74	113.78	7.20	-45.9	-64.0	3.8	8.45e-01	0	59	104	452460544	62	30498
2026-01-15 23:13:55.75	113.68	7.12	-45.8	-63.9	3.8	8.46e-01	0	59	104	452460544	62	30247
2026-01-15 23:13:56.76	113.58	7.03	-45.7	-63.9	3.8	8.45e-01	0	60	104	452460544	62	30051
2026-01-15 23:13:57.77	113.48	6.95	-45.6	-63.8	3.8	8.47e-01	0	60	104	452460544	62	29763
2026-01-15 23:13:58.78	113.38	6.87	-45.6	-63.7	3.8	8.47e-01	0	59	104	452460544	62	29544
2026-01-15 23:13:59.79	113.28	6.78	-45.5	-63.7	3.8	8.47e-01	0	60	104	452460544	62	29359
2026-01-15 23:14:00.80	113.18	6.70	-45.5	-63.6	3.8	8.46e-01	0	59	104	452460544	62	29244
2026-01-15 23:14:01.81	113.09	6.62	-45.5	-63.6	3.8	8.46e-01	0	59	104	452460544	62	29073
2026-01-15 23:14:02.82	112.99	6.53	-45.4	-63.5	3.8	8.47e-01	0	60	104	452460544	62	28926
2026-01-15 23:14:03.83	112.90	6.45	-45.4	-63.5	3.8	8.46e-01	0	59	104	452460544	62	28850
2026-01-15 23:14:04.84	112.80	6.37	-45.4	-63.5	3.8	8.46e-01	0	59	104	452460544	62	28867
2026-01-15 23:14:05.85	112.71	6.29	-45.4	-63.5	3.8	8.46e-01	0	60	104	452460544	62	28777
2026-01-15 23:14:06.85	112.62	6.21	-45.4	-63.5	3.8	8.45e-01	0	60	104	452460544	62	28755
2026-01-15 23:14:07.86	112.52	6.13	-45.4	-63.5	3.8	8.45e-01	0	59	104	452460544	62	28752
2026-01-15 23:14:08.88	112.43	6.04	-45.4	-63.5	3.8	8.47e-01	0	60	104	452460544	62	28710
2026-01-15 23:14:09.89	112.34	5.96	-45.4	-63.5	3.8	8.46e-01	0	59	104	452460544	62	28752
2026-01-15 23:14:10.90	112.25	5.88	-45.4	-63.5	3.8	8.46e-01	0	59	104	452460544	62	28709
2026-01-15 23:14:11.91	112.16	5.80	-45.4	-63.4	3.8	8.46e-01	0	59	104	452460544	62	28611
2026-01-15 23:14:12.92	112.07	5.72	-45.4	-63.5	3.8	8.45e-01	0	60	104	452460544	62	28680
2026-01-15 23:14:13.93	111.98	5.65	-45.4	-63.4	3.8	8.46e-01	0	60	104	452460544	62	28675
2026-01-15 23:14:14.94	111.90	5.57	-45.4	-63.4	3.8	8.46e-01	0	60	104	452460544	62	28659
2026-01-15 23:14:15.95	111.81	5.49	-45.4	-63.4	3.8	8.47e-01	0	60	104	452460544	62	28601
2026-01-15 23:14:16.96	111.72	5.41	-45.4	-63.5	3.8	8.46e-01	0	59	104	452460544	62	28702
2026-01-15 23:14:17.97	111.64	5.33	-45.4	-63.4	3.8	8.46e-01	0	59	104	452460544	62	28606
2026-01-15 23:14:18.98	111.55	5.26	-45.4	-63.4	3.8	8.46e-01	0	60	104	452460544	62	28670
2026-01-15 23:14:19.99	111.47	5.18	-45.4	-63.4	3.8	8.46e-01	0	60	104	452460544	62	28606
2026-01-15 23:14:21.00	111.39	5.10	-45.4	-63.4	3.8	8.46e-01	0	60	104	452460544	62	28671
2026-01-15 23:14:22.01	111.30	5.02	-45.4	-63.4	3.8	8.47e-01	0	60	104	452460544	62	28623
2026-01-15 23:14:23.02	111.22	4.95	-45.4	-63.4	3.8	8.47e-01	0	60	104	452460544	62	28638
2026-01-15 23:14:24.03	111.14	4.87	-45.4	-63.4	3.8	8.46e-01	0	60	104	452460544	62	28655
2026-01-15 23:14:25.04	111.06	4.80	-45.4	-63.4	3.8	8.46e-01	0	60	104	452460544	62	28651
2026-01-15 23:14:26.05	110.98	4.72	-45.4	-63.5	3.8	8.46e-01	0	60	104	452460544	62	28692
2026-01-15 23:14:27.06	110.90	4.65	-45.3	-63.4	3.8	8.47e-01	0	59	104	452460544	62	28571
2026-01-15 23:14:28.07	110.82	4.57	-45.4	-63.4	3.8	8.47e-01	0	60	104	452460544	62	28620
2026-01-15 23:14:29.08	110.74	4.50	-45.3	-63.4	3.8	8.47e-01	0	60	104	452460544	62	28566
2026-01-15 23:14:30.09	110.67	4.42	-45.3	-63.4	3.8	8.47e-01	0	60	104	452460544	62	28620
2026-01-15 23:14:31.10	110.59	4.35	-45.3	-63.4	3.8	8.47e-01	0	60	104	452460544	62	28528
2026-01-15 23:14:32.11	110.51	4.27	-45.3	-63.4	3.8	8.45e-01	0	60	104	452460544	62	28559
2026-01-15 23:14:33.12	110.44	4.20	-45.3	-63.4	3.8	8.46e-01	0	59	104	452460544	62	28514
2026-01-15 23:14:34.13	110.36	4.13	-45.3	-63.4	3.8	8.45e-01	0	60	104	452460544	62	28561
2026-01-15 23:14:35.14	110.29	4.05	-45.3	-63.4	3.8	8.45e-01	0	60	104	452460544	62	28531
2026-01-15 23:14:36.15	110.21	3.98	-45.3	-63.4	3.8	8.47e-01	0	59	104	452460544	62	28594
2026-01-15 23:14:37.16	110.14	3.91	-45.3	-63.4	3.8	8.47e-01	0	60	104	452460544	62	28519
2026-01-15 23:14:38.17	110.06	3.84	-45.3	-63.4	3.8	8.47e-01	0	60	104	452460544	62	28616
2026-01-15 23:14:39.18	109.99	3.77	-45.3	-63.4	3.8	8.45e-01	0	60	104	452460544	62	28538
2026-01-15 23:14:40.20	109.92	3.69	-45.3	-63.4	3.8	8.46e-01	0	60	104	452460544	62	28574
2026-01-15 23:14:41.20	109.85	3.62	-45.3	-63.4	3.8	8.46e-01	0	59	104	452460544	62	28609
2026-01-15 23:14:42.22	109.77	3.55	-45.3	-63.4	3.8	8.46e-01	0	59	104	452460544	62	28560
2026-01-15 23:14:43.22	109.70	3.48	-45.3	-63.4	3.8	8.45e-01	0	59	104	452460544	62	28533
2026-01-15 23:14:44.23	109.63	3.41	-45.3	-63.4	3.8	8.45e-01	0	60	104	452460544	62	28530
2026-01-15 23:14:45.24	109.56	3.34	-45.3	-63.4	3.8	8.46e-01	0	60	104	452460544	62	28598
2026-01-15 23:14:46.25	109.50	3.27	-45.3	-63.4	3.8	8.46e-01	0	60	104	452460544	62	28521
2026-01-15 23:14:47.26	109.43	3.20	-45.3	-63.4	3.8	8.47e-01	0	59	104	452460544	62	28602
2026-01-15 23:14:48.27	109.36	3.13	-45.3	-63.4	3.8	8.47e-01	0	60	104	452460544	62	28487
2026-01-15 23:14:49.28	109.29	3.06	-45.3	-63.4	3.8	8.46e-01	0	60	104	452460544	62	28580
2026-01-15 23:14:50.30	109.22	2.99	-45.3	-63.4	3.8	8.47e-01	0	60	104	452460544	62	28459
2026-01-15 23:14:51.30	109.16	2.92	-45.3	-63.4	3.8	8.47e-01	0	60	104	452460544	62	28516
2026-01-15 23:14:52.31	109.09	2.85	-45.3	-63.4	3.8	8.47e-01	0	60	104	452460544	62	28464
2026-01-15 23:14:53.32	109.02	2.78	-45.3	-63.4	3.8	8.45e-01	0	59	104	452460544	62	28409
2026-01-15 23:14:54.33	108.96	2.71	-45.3	-63.4	3.8	8.45e-01	0	60	104	452460544	62	28399
2026-01-15 23:14:55.34	108.89	2.65	-45.3	-63.4	3.8	8.45e-01	0	60	104	452460544	62	28402
2026-01-15 23:14:56.35	108.83	2.58	-45.3	-63.4	3.8	8.47e-01	0	60	104	452460544	62	28414
2026-01-15 23:14:57.36	108.76	2.51	-45.3	-63.4	3.8	8.47e-01	0	60	104	452460544	62	28357
2026-01-15 23:14:58.37	108.70	2.44	-45.3	-63.3	3.8	8.46e-01	0	60	104	452460544	62	28273
2026-01-15 23:14:59.38	108.64	2.38	-45.3	-63.3	3.8	8.45e-01	0	60	104	452460544	62	28332
2026-01-15 23:15:00.38	108.57	2.31	-45.3	-63.3	3.8	8.46e-01	0	60	104	452460544	62	28326
2026-01-15 23:15:01.38	108.51	2.24	-45.3	-63.3	3.8	8.46e-01	0	59	104	452460544	62	28323
2026-01-15 23:15:02.40	108.45	2.18	-45.3	-63.3	3.8	8.48e-01	0	60	104	452460544	62	28300
2026-01-15 23:15:03.41	108.39	2.11	-45.3	-63.3	3.8	8.46e-01	0	60	104	452460544	62	28318
2026-01-15 23:15:04.42	108.33	2.04	-45.3	-63.3	3.8	8.46e-01	0	60	104	452460544	62	28242

#Closed at: 2026-01-15 23:15:05
#Recorded file [452 MB]: D:/lorett/data/31039_260116_020553.dat