passes_logs/2026/01/15/R2.0S_Moscow/R2.0S_Moscow__20260115_013400_FENGYUN_3G_rec.log

#Pass ID: 20260115_013400_FENGYUN 3G
#Satellite: FENGYUN 3G
#Configuration: FENGYUN 3G
#almurnet v.1.7.20251203
#Start time: 2026-01-15 01:34:00

#Version: 2.2.20231116
#Station: R2.0S_Moscow
#Location: 37.707566 lon 55.798166 lat
#TLE: 1 56232U 23055A   26014.27721520  .00018626  00000+0  29428-3 0  9992
#TLE: 2 56232  49.9941  59.6614 0004219  23.8388 336.2775 15.53471838156083

#Time	Az	El	Level	Level2	SNR	BER	BlckErr	Temp	State	Recorded	gain1	gain2
2026-01-15 01:34:00.58	263.97	2.01	-44.1	-62.1	3.8	8.47e-01	0	49	0	0	60	27589
2026-01-15 01:34:01.58	263.87	2.07	-44.1	-62.1	3.8	8.44e-01	0	49	104	0	60	27701
2026-01-15 01:34:02.59	263.77	2.13	-44.1	-62.1	3.8	8.46e-01	0	49	104	0	60	27690
2026-01-15 01:34:03.60	263.66	2.19	-44.1	-62.1	3.8	8.46e-01	0	49	104	0	60	27669
2026-01-15 01:34:04.61	263.56	2.25	-44.1	-62.1	3.8	8.46e-01	0	49	104	0	60	27632
2026-01-15 01:34:05.62	263.45	2.31	-44.1	-62.1	3.8	8.46e-01	0	49	104	0	60	27674
2026-01-15 01:34:06.63	263.35	2.37	-44.1	-62.1	3.8	8.46e-01	0	49	104	0	60	27695
2026-01-15 01:34:07.64	263.24	2.43	-44.1	-62.1	3.8	8.46e-01	0	49	104	0	60	27644
2026-01-15 01:34:08.65	263.14	2.49	-44.1	-62.1	3.8	8.46e-01	0	49	104	0	60	27677
2026-01-15 01:34:09.66	263.03	2.55	-44.1	-62.1	3.8	8.47e-01	0	50	104	0	60	27594
2026-01-15 01:34:10.67	262.92	2.61	-44.1	-62.1	3.8	8.47e-01	0	50	104	0	60	27560
2026-01-15 01:34:11.68	262.81	2.68	-44.1	-62.1	3.8	8.47e-01	0	50	104	0	60	27583
2026-01-15 01:34:12.69	262.71	2.74	-44.1	-62.1	3.8	8.46e-01	0	50	104	0	60	27657
2026-01-15 01:34:13.70	262.60	2.80	-44.1	-62.1	3.8	8.46e-01	0	50	104	0	60	27635
2026-01-15 01:34:14.71	262.49	2.86	-44.1	-62.1	3.8	8.46e-01	0	50	104	0	60	27549
2026-01-15 01:34:15.72	262.38	2.92	-44.1	-62.1	3.8	8.46e-01	0	50	104	0	60	27631
2026-01-15 01:34:16.73	262.26	2.98	-44.1	-62.1	3.8	8.46e-01	0	50	104	0	60	27699
2026-01-15 01:34:17.74	262.15	3.04	-44.1	-62.1	3.8	8.46e-01	0	50	104	0	60	27615
2026-01-15 01:34:18.75	262.04	3.11	-44.1	-62.1	3.8	8.46e-01	0	50	104	0	60	27565
2026-01-15 01:34:19.76	261.92	3.17	-44.1	-62.1	3.8	8.46e-01	0	50	104	0	60	27638
2026-01-15 01:34:20.77	261.81	3.23	-44.1	-62.1	3.8	8.46e-01	0	50	104	0	60	27546
2026-01-15 01:34:21.78	261.70	3.29	-44.1	-62.1	3.8	8.46e-01	0	50	104	0	60	27637
2026-01-15 01:34:22.79	261.58	3.36	-44.1	-62.1	3.8	8.45e-01	0	50	104	0	60	27596
2026-01-15 01:34:23.80	261.46	3.42	-44.1	-62.1	3.8	8.45e-01	0	50	104	0	60	27640
2026-01-15 01:34:24.81	261.35	3.48	-44.1	-62.1	3.8	8.45e-01	0	50	104	0	60	27703
2026-01-15 01:34:25.82	261.23	3.54	-44.1	-62.1	3.8	8.46e-01	0	50	104	0	60	27673
2026-01-15 01:34:26.83	261.11	3.61	-44.1	-62.1	3.8	8.46e-01	0	51	104	0	60	27556
2026-01-15 01:34:27.84	260.99	3.67	-44.1	-62.1	3.8	8.46e-01	0	51	104	0	60	27621
2026-01-15 01:34:28.85	260.87	3.73	-44.1	-62.2	3.8	8.46e-01	0	51	104	0	60	27713
2026-01-15 01:34:29.86	260.75	3.80	-44.1	-62.1	3.8	8.46e-01	0	51	104	0	60	27571
2026-01-15 01:34:30.87	260.63	3.86	-44.1	-62.1	3.8	8.46e-01	0	51	104	0	60	27554
2026-01-15 01:34:31.88	260.50	3.93	-44.1	-62.1	3.8	8.46e-01	0	51	104	0	60	27472
2026-01-15 01:34:32.89	260.38	3.99	-44.1	-62.0	3.8	8.46e-01	0	51	104	0	60	27209
2026-01-15 01:34:33.90	260.26	4.05	-44.1	-61.8	3.8	8.46e-01	0	51	104	0	60	26757
2026-01-15 01:34:34.91	260.13	4.12	-44.1	-61.6	3.8	8.46e-01	0	51	104	0	60	26077
2026-01-15 01:34:35.92	260.01	4.18	-44.1	-61.5	3.8	8.46e-01	0	51	104	0	60	25620
2026-01-15 01:34:36.93	259.88	4.25	-44.1	-61.4	3.8	8.46e-01	0	51	104	0	60	25524
2026-01-15 01:34:37.94	259.75	4.31	-44.1	-61.5	3.8	8.46e-01	0	51	104	0	60	25687
2026-01-15 01:34:38.95	259.62	4.37	-44.1	-61.5	3.8	8.45e-01	0	51	104	0	60	25563
2026-01-15 01:34:39.96	259.50	4.44	-44.1	-61.5	3.8	8.45e-01	0	51	104	0	60	25742
2026-01-15 01:34:40.97	259.37	4.50	-44.1	-61.7	3.8	8.45e-01	0	51	104	0	60	26437
2026-01-15 01:34:41.98	259.24	4.57	-44.1	-61.9	3.8	8.47e-01	0	51	104	0	60	26977
2026-01-15 01:34:42.99	259.10	4.63	-44.1	-62.0	3.8	8.46e-01	0	52	104	0	60	27301
2026-01-15 01:34:44.00	258.97	4.70	-44.1	-62.0	3.8	8.46e-01	0	52	104	0	60	27233
2026-01-15 01:34:45.01	258.84	4.77	-44.1	-62.0	3.8	8.45e-01	0	52	104	0	60	27213
2026-01-15 01:34:46.02	258.70	4.83	-44.1	-61.8	3.8	8.46e-01	0	52	104	0	60	26759
2026-01-15 01:34:47.03	258.57	4.90	-44.1	-61.6	3.8	8.46e-01	0	52	104	0	60	26138
2026-01-15 01:34:48.04	258.43	4.96	-44.1	-61.3	3.8	8.47e-01	0	52	104	0	60	25200
2026-01-15 01:34:49.06	258.30	5.03	-44.1	-61.3	3.8	8.46e-01	0	52	104	0	60	25011
2026-01-15 01:34:50.07	258.16	5.10	-44.1	-61.2	3.8	8.46e-01	0	52	104	0	60	24762
2026-01-15 01:34:51.07	258.02	5.16	-44.1	-61.2	3.8	8.46e-01	0	52	104	0	60	24718
2026-01-15 01:34:52.08	257.88	5.23	-44.1	-61.2	3.8	8.45e-01	0	52	104	0	60	24887
2026-01-15 01:34:53.09	257.74	5.29	-44.1	-61.4	3.8	8.46e-01	0	52	104	0	60	25367
2026-01-15 01:34:54.10	257.60	5.36	-44.1	-61.5	3.8	8.46e-01	0	52	104	0	60	25856
2026-01-15 01:34:55.11	257.46	5.43	-44.1	-61.6	3.8	8.47e-01	0	52	104	0	60	26097
2026-01-15 01:34:56.12	257.32	5.49	-44.1	-61.7	3.8	8.48e-01	0	52	104	0	60	26203
2026-01-15 01:34:57.13	257.17	5.56	-44.1	-61.6	3.8	8.48e-01	0	52	104	0	60	25974
2026-01-15 01:34:58.14	257.03	5.63	-44.1	-61.5	3.8	8.47e-01	0	52	104	0	60	25567
2026-01-15 01:34:59.15	256.88	5.70	-44.1	-61.0	3.8	8.46e-01	0	52	104	0	60	24290
2026-01-15 01:35:00.16	256.73	5.76	-44.1	-60.8	3.8	8.46e-01	0	52	104	0	60	23822
2026-01-15 01:35:01.17	256.59	5.83	-44.0	-60.2	3.9	8.46e-01	0	52	104	0	60	22222
2026-01-15 01:35:02.18	256.44	5.90	-44.0	-60.0	3.8	8.46e-01	0	52	104	0	60	21668
2026-01-15 01:35:03.19	256.29	5.97	-44.0	-59.7	4.0	8.46e-01	0	53	104	0	60	20892
2026-01-15 01:35:04.20	256.14	6.03	-44.0	-59.4	3.9	8.44e-01	0	52	104	0	60	20226
2026-01-15 01:35:05.21	255.99	6.10	-44.0	-59.4	4.0	8.43e-01	0	52	0	0	60	20143
2026-01-15 01:35:06.22	255.83	6.17	-44.0	-59.5	3.8	8.44e-01	0	53	104	0	60	20424
2026-01-15 01:35:07.23	255.68	6.24	-44.0	-59.7	3.9	8.44e-01	0	53	104	0	60	20966
2026-01-15 01:35:08.24	255.53	6.31	-44.0	-60.1	3.9	8.44e-01	0	53	104	0	60	21857
2026-01-15 01:35:09.25	255.37	6.38	-44.1	-60.5	3.8	8.45e-01	0	53	104	0	60	22863
2026-01-15 01:35:10.25	255.21	6.44	-44.1	-60.6	3.8	8.45e-01	0	53	104	0	60	23126
2026-01-15 01:35:11.26	255.06	6.51	-44.1	-60.5	3.8	8.45e-01	0	53	104	0	60	22937
2026-01-15 01:35:12.28	254.90	6.58	-44.0	-60.5	3.8	8.45e-01	0	53	104	0	60	22811
2026-01-15 01:35:13.28	254.74	6.65	-44.1	-60.3	3.8	8.45e-01	0	53	104	0	60	22312
2026-01-15 01:35:14.29	254.58	6.72	-44.0	-60.2	3.8	8.46e-01	0	53	104	0	60	22120
2026-01-15 01:35:15.30	254.41	6.79	-44.0	-60.0	3.8	8.45e-01	0	53	104	0	60	21559
2026-01-15 01:35:16.31	254.25	6.86	-44.0	-59.2	3.9	8.45e-01	0	53	104	0	60	19731
2026-01-15 01:35:17.32	254.09	6.93	-44.1	-58.0	4.4	8.44e-01	0	53	0	0	59	18162
2026-01-15 01:35:18.33	253.92	7.00	-44.0	-56.4	5.1	8.32e-01	0	53	0	0	59	15140
2026-01-15 01:35:19.34	253.75	7.07	-43.8	-54.9	6.1	6.73e-01	0	53	0	0	59	12691
2026-01-15 01:35:20.35	253.59	7.14	-43.7	-53.7	7.1	6.73e-01	0	53	0	1048576	59	11066
2026-01-15 01:35:21.35	253.42	7.21	-43.5	-52.6	8.2	2.19e-01	0	53	0	2097152	59	9756
2026-01-15 01:35:22.36	253.25	7.28	-43.4	-51.7	9.1	6.00e-02	0	53	0	3670016	58	9347
2026-01-15 01:35:23.37	253.08	7.35	-43.3	-51.3	9.5	6.00e-02	0	53	0	4718592	58	8950
2026-01-15 01:35:24.37	252.91	7.42	-43.5	-52.1	8.8	2.13e-02	0	53	0	5767168	58	9739
2026-01-15 01:35:25.38	252.74	7.49	-43.7	-53.9	7.1	4.82e-02	0	53	0	6815744	58	11994
2026-01-15 01:35:26.39	252.56	7.56	-44.0	-57.5	4.6	4.82e-02	0	53	0	7340032	58	18100
2026-01-15 01:35:27.40	252.38	7.63	-44.2	-61.9	3.8	4.86e-01	0	53	104	7340032	58	30336
2026-01-15 01:35:28.41	252.21	7.70	-44.1	-58.6	4.2	8.45e-01	0	54	104	7340032	58	20691
2026-01-15 01:35:29.42	252.03	7.77	-43.7	-53.5	7.1	8.45e-01	0	53	0	7340032	58	11509
2026-01-15 01:35:30.43	251.85	7.84	-43.1	-50.1	10.7	6.09e-01	0	54	0	8912896	58	7805
2026-01-15 01:35:31.44	251.67	7.91	-42.5	-48.4	12.6	2.17e-02	0	54	0	9961472	57	6787
2026-01-15 01:35:32.45	251.49	7.98	-42.2	-47.4	13.6	1.56e-04	0	54	0	11010048	56	6412
2026-01-15 01:35:33.46	251.31	8.06	-41.6	-46.1	14.9	1.56e-04	0	53	0	12058624	55	5822
2026-01-15 01:35:34.46	251.12	8.13	-43.6	-52.3	8.5	2.13e-03	0	54	0	13107200	58	10011
2026-01-15 01:35:35.47	250.94	8.20	-42.5	-48.1	12.5	1.32e-01	0	54	0	14155776	57	6564
2026-01-15 01:35:36.48	250.75	8.27	-42.3	-47.6	12.7	1.32e-01	0	54	0	15728640	56	6558
2026-01-15 01:35:37.49	250.56	8.34	-42.0	-47.1	14.8	3.07e-02	0	54	0	16777216	54	6897
2026-01-15 01:35:38.50	250.37	8.41	-43.9	-56.3	4.5	2.66e-01	0	54	0	16777216	58	15827
2026-01-15 01:35:39.51	250.18	8.48	-41.4	-45.7	15.4	2.66e-01	0	54	0	18350080	54	5868
2026-01-15 01:35:40.52	249.99	8.56	-41.4	-45.7	15.3	1.73e-01	0	54	0	19398656	54	5866
2026-01-15 01:35:41.53	249.80	8.63	-41.5	-45.9	15.1	0.00e+00	0	54	0	20447232	54	6016
2026-01-15 01:35:42.54	249.60	8.70	-41.5	-46.0	15.1	0.00e+00	0	54	0	21495808	54	6067
2026-01-15 01:35:43.54	249.41	8.77	-41.3	-45.5	15.5	0.00e+00	0	54	0	22544384	54	5770
2026-01-15 01:35:44.55	249.21	8.84	-41.2	-45.2	15.8	0.00e+00	0	54	0	23592960	54	5578
2026-01-15 01:35:45.56	249.01	8.92	-41.3	-45.4	15.7	0.00e+00	0	54	0	24641536	54	5661
2026-01-15 01:35:46.57	248.81	8.99	-41.2	-45.3	15.8	0.00e+00	0	54	0	26214400	54	5628
2026-01-15 01:35:47.58	248.61	9.06	-41.2	-45.2	15.9	0.00e+00	0	54	0	27262976	54	5532
2026-01-15 01:35:48.59	248.41	9.13	-41.1	-45.1	16.0	0.00e+00	0	54	0	28311552	54	5495
2026-01-15 01:35:49.60	248.21	9.20	-41.1	-44.9	16.2	0.00e+00	0	54	0	29360128	54	5389
2026-01-15 01:35:50.61	248.00	9.28	-41.2	-45.2	16.0	0.00e+00	0	54	0	30408704	54	5529
2026-01-15 01:35:51.61	247.80	9.35	-41.1	-45.0	16.1	0.00e+00	0	54	0	31457280	54	5458
2026-01-15 01:35:52.62	247.59	9.42	-41.1	-45.1	16.0	0.00e+00	0	54	0	33030144	54	5488
2026-01-15 01:35:53.63	247.38	9.49	-41.2	-45.2	16.0	0.00e+00	0	54	0	34078720	54	5561
2026-01-15 01:35:54.64	247.17	9.57	-41.1	-45.0	16.1	0.00e+00	0	54	0	35127296	54	5450
2026-01-15 01:35:55.65	246.95	9.64	-40.9	-44.7	16.5	0.00e+00	0	54	0	36175872	53	5538
2026-01-15 01:35:56.66	246.74	9.71	-40.7	-44.2	16.9	0.00e+00	0	54	0	37224448	53	5252
2026-01-15 01:35:57.67	246.52	9.78	-40.6	-44.1	17.1	0.00e+00	0	54	0	38273024	53	5206
2026-01-15 01:35:58.68	246.31	9.86	-40.7	-44.2	17.0	0.00e+00	0	54	0	39845888	53	5243
2026-01-15 01:35:59.68	246.09	9.93	-40.8	-44.4	16.8	0.00e+00	0	54	0	40894464	53	5391
2026-01-15 01:36:00.69	245.87	10.00	-40.8	-44.4	16.8	0.00e+00	0	54	0	41943040	53	5375
2026-01-15 01:36:01.70	245.65	10.07	-40.9	-44.6	16.6	0.00e+00	0	54	0	42991616	53	5484
2026-01-15 01:36:02.71	245.43	10.15	-40.8	-44.4	16.7	0.00e+00	0	54	0	44040192	53	5398
2026-01-15 01:36:03.72	245.20	10.22	-40.7	-44.2	17.0	0.00e+00	0	54	0	45088768	53	5258
2026-01-15 01:36:04.73	244.98	10.29	-40.6	-44.0	17.2	0.00e+00	0	55	0	46661632	53	5128
2026-01-15 01:36:05.74	244.75	10.36	-40.6	-44.0	17.3	0.00e+00	0	54	0	47710208	53	5122
2026-01-15 01:36:06.75	244.52	10.44	-40.6	-44.0	17.2	0.00e+00	0	54	0	48758784	53	5132
2026-01-15 01:36:07.75	244.29	10.51	-40.5	-43.8	17.4	0.00e+00	0	55	0	49807360	53	5029
2026-01-15 01:36:08.76	244.06	10.58	-40.5	-43.8	17.4	0.00e+00	0	55	0	50855936	52	5291
2026-01-15 01:36:09.77	243.83	10.65	-40.4	-43.7	17.5	0.00e+00	0	55	0	51904512	52	5263
2026-01-15 01:36:10.78	243.59	10.73	-40.4	-43.6	17.7	0.00e+00	0	55	0	53477376	52	5190
2026-01-15 01:36:11.79	243.36	10.80	-40.5	-43.8	17.4	0.00e+00	0	54	0	54525952	52	5321
2026-01-15 01:36:12.80	243.12	10.87	-40.6	-44.0	17.3	0.00e+00	0	55	0	55574528	52	5404
2026-01-15 01:36:13.81	242.88	10.94	-40.7	-44.2	17.0	0.00e+00	0	55	0	56623104	52	5573
2026-01-15 01:36:14.82	242.64	11.02	-40.7	-44.1	17.1	0.00e+00	0	55	0	57671680	52	5514
2026-01-15 01:36:15.83	242.40	11.09	-40.5	-43.8	17.4	0.00e+00	0	55	0	58720256	52	5314
2026-01-15 01:36:16.84	242.15	11.16	-40.3	-43.5	17.7	0.00e+00	0	54	0	60293120	52	5158
2026-01-15 01:36:17.84	241.91	11.23	-40.5	-43.7	17.5	0.00e+00	0	55	0	61341696	52	5271
2026-01-15 01:36:18.85	241.66	11.30	-40.5	-43.8	17.5	0.00e+00	0	55	0	62390272	52	5337
2026-01-15 01:36:19.86	241.41	11.38	-40.5	-43.8	17.5	0.00e+00	0	55	0	63438848	52	5296
2026-01-15 01:36:20.87	241.16	11.45	-40.3	-43.4	17.9	0.00e+00	0	55	0	64487424	52	5076
2026-01-15 01:36:21.87	240.91	11.52	-40.1	-43.2	18.1	0.00e+00	0	55	0	65536000	52	4957
2026-01-15 01:36:22.88	240.65	11.59	-40.2	-43.3	18.0	0.00e+00	0	55	0	67108864	52	5008
2026-01-15 01:36:23.89	240.40	11.66	-40.2	-43.3	18.0	0.00e+00	0	55	0	68157440	52	5040
2026-01-15 01:36:24.90	240.14	11.73	-40.4	-43.7	17.7	0.00e+00	0	55	0	69206016	52	5219
2026-01-15 01:36:25.91	239.88	11.80	-40.4	-43.7	17.6	0.00e+00	0	55	0	70254592	52	5237
2026-01-15 01:36:26.92	239.62	11.87	-40.4	-43.6	17.7	0.00e+00	0	55	0	71303168	52	5193
2026-01-15 01:36:27.93	239.36	11.94	-40.4	-43.6	17.8	0.00e+00	0	55	0	72351744	52	5167
2026-01-15 01:36:28.93	239.10	12.01	-40.3	-43.4	17.9	0.00e+00	0	55	0	73924608	52	5064
2026-01-15 01:36:29.94	238.83	12.08	-40.4	-43.5	17.8	0.00e+00	0	55	0	74973184	52	5147
2026-01-15 01:36:30.94	238.57	12.15	-40.4	-43.6	17.8	0.00e+00	0	55	0	76021760	52	5175
2026-01-15 01:36:31.95	238.30	12.22	-40.3	-43.4	17.9	0.00e+00	0	55	0	77070336	52	5065
2026-01-15 01:36:32.96	238.03	12.29	-40.1	-43.1	18.3	0.00e+00	0	55	0	78118912	52	4883
2026-01-15 01:36:33.97	237.75	12.36	-40.0	-43.0	18.4	0.00e+00	0	55	0	79167488	51	5106
2026-01-15 01:36:34.98	237.48	12.43	-40.0	-42.9	18.5	0.00e+00	0	55	0	80740352	51	5099
2026-01-15 01:36:35.99	237.20	12.50	-40.0	-42.9	18.6	0.00e+00	0	55	0	81788928	51	5061
2026-01-15 01:36:37.00	236.93	12.57	-40.2	-43.2	18.3	0.00e+00	0	55	0	82837504	51	5236
2026-01-15 01:36:38.00	236.65	12.64	-40.3	-43.4	18.1	0.00e+00	0	55	0	83886080	51	5367
2026-01-15 01:36:39.01	236.37	12.71	-40.3	-43.4	18.1	0.00e+00	0	55	0	84934656	51	5365
2026-01-15 01:36:40.02	236.09	12.78	-40.2	-43.2	18.2	0.00e+00	0	55	0	85983232	51	5278
2026-01-15 01:36:41.03	235.80	12.84	-40.2	-43.3	18.2	0.00e+00	0	55	0	87031808	51	5295
2026-01-15 01:36:42.04	235.51	12.91	-40.3	-43.3	18.2	0.00e+00	0	55	0	88604672	51	5288
2026-01-15 01:36:43.04	235.23	12.98	-40.3	-43.4	18.1	0.00e+00	0	55	0	89653248	51	5387
2026-01-15 01:36:44.05	234.94	13.05	-40.4	-43.5	18.0	0.00e+00	0	55	0	90701824	51	5444
2026-01-15 01:36:45.06	234.65	13.11	-40.4	-43.5	18.0	0.00e+00	0	55	0	91750400	51	5424
2026-01-15 01:36:46.07	234.36	13.18	-40.2	-43.2	18.3	0.00e+00	0	55	0	92798976	51	5232
2026-01-15 01:36:47.08	234.06	13.25	-40.3	-43.3	18.2	0.00e+00	0	55	0	94371840	51	5313
2026-01-15 01:36:48.09	233.76	13.31	-40.2	-43.1	18.4	0.00e+00	0	55	0	95420416	51	5211
2026-01-15 01:36:49.10	233.47	13.38	-40.1	-43.0	18.5	0.00e+00	0	55	0	96468992	51	5157
2026-01-15 01:36:50.11	233.17	13.44	-40.1	-43.0	18.5	0.00e+00	0	55	0	97517568	51	5146
2026-01-15 01:36:51.12	232.86	13.51	-40.1	-43.1	18.5	0.00e+00	0	55	0	98566144	51	5175
2026-01-15 01:36:52.12	232.56	13.57	-40.2	-43.2	18.3	0.00e+00	0	55	0	99614720	51	5272
2026-01-15 01:36:53.13	232.26	13.63	-40.1	-43.1	18.4	0.00e+00	0	55	0	101187584	51	5191
2026-01-15 01:36:54.14	231.95	13.70	-40.0	-42.9	18.6	0.00e+00	0	55	0	102236160	51	5089
2026-01-15 01:36:55.15	231.64	13.76	-40.0	-42.9	18.7	0.00e+00	0	55	0	103284736	51	5050
2026-01-15 01:36:56.16	231.33	13.82	-40.0	-42.8	18.7	0.00e+00	0	55	0	104333312	51	5023
2026-01-15 01:36:57.16	231.02	13.88	-39.9	-42.7	18.9	0.00e+00	0	55	0	105381888	51	4937
2026-01-15 01:36:58.17	230.71	13.95	-39.9	-42.7	18.9	0.00e+00	0	55	0	106430464	51	4950
2026-01-15 01:36:59.18	230.40	14.01	-39.8	-42.6	18.9	0.00e+00	0	55	0	108003328	51	4899
2026-01-15 01:37:00.19	230.08	14.07	-39.8	-42.6	19.0	0.00e+00	0	55	0	109051904	51	4876
2026-01-15 01:37:01.20	229.76	14.13	-39.9	-42.6	18.9	0.00e+00	0	55	0	110100480	51	4925
2026-01-15 01:37:02.22	229.44	14.19	-39.9	-42.8	18.8	0.00e+00	0	55	0	111149056	51	4992
2026-01-15 01:37:03.22	229.12	14.25	-39.9	-42.7	18.8	0.00e+00	0	55	0	112197632	51	4978
2026-01-15 01:37:04.23	228.79	14.31	-39.9	-42.7	18.8	0.00e+00	0	55	0	113246208	51	4959
2026-01-15 01:37:05.24	228.47	14.37	-39.9	-42.7	18.9	0.00e+00	0	55	0	114819072	51	4960
2026-01-15 01:37:06.25	228.14	14.42	-39.8	-42.5	19.1	0.00e+00	0	56	0	115867648	51	4853
2026-01-15 01:37:07.26	227.81	14.48	-39.6	-42.3	19.2	0.00e+00	0	55	0	116916224	51	4751
2026-01-15 01:37:08.27	227.48	14.54	-39.6	-42.3	19.3	0.00e+00	0	56	0	117964800	51	4710
2026-01-15 01:37:09.28	227.15	14.59	-39.5	-42.2	19.4	0.00e+00	0	55	0	119013376	51	4669
2026-01-15 01:37:10.29	226.82	14.65	-39.5	-42.1	19.4	0.00e+00	0	55	0	120061952	51	4650
2026-01-15 01:37:11.30	226.48	14.70	-39.6	-42.2	19.4	0.00e+00	0	56	0	121110528	51	4673
2026-01-15 01:37:12.31	226.15	14.76	-39.5	-42.2	19.4	0.00e+00	0	55	0	122683392	51	4661
2026-01-15 01:37:13.32	225.81	14.81	-39.6	-42.3	19.3	0.00e+00	0	55	0	123731968	51	4731
2026-01-15 01:37:14.33	225.47	14.86	-39.8	-42.5	19.1	0.00e+00	0	56	0	124780544	51	4869
2026-01-15 01:37:15.34	225.13	14.92	-39.9	-42.7	18.9	0.00e+00	0	56	0	125829120	51	4961
2026-01-15 01:37:16.34	224.79	14.97	-40.0	-42.8	18.8	0.00e+00	0	55	0	126877696	51	5003
2026-01-15 01:37:17.35	224.44	15.02	-39.8	-42.5	19.1	0.00e+00	0	56	0	127926272	51	4864
2026-01-15 01:37:18.36	224.10	15.07	-39.8	-42.6	19.0	0.00e+00	0	55	0	129499136	51	4903
2026-01-15 01:37:19.37	223.75	15.12	-39.8	-42.5	19.1	0.00e+00	0	55	0	130547712	51	4833
2026-01-15 01:37:20.38	223.40	15.17	-39.7	-42.4	19.2	0.00e+00	0	55	0	131596288	51	4798
2026-01-15 01:37:21.39	223.05	15.22	-39.8	-42.5	19.1	0.00e+00	0	56	0	132644864	51	4865
2026-01-15 01:37:22.40	222.70	15.26	-39.8	-42.5	19.1	0.00e+00	0	56	0	133693440	51	4868
2026-01-15 01:37:23.41	222.35	15.31	-39.9	-42.6	19.0	0.00e+00	0	55	0	134742016	51	4918
2026-01-15 01:37:24.42	221.99	15.36	-39.9	-42.6	19.0	0.00e+00	0	56	0	136314880	51	4903
2026-01-15 01:37:25.43	221.64	15.40	-40.0	-42.8	18.9	0.00e+00	0	56	0	137363456	51	4991
2026-01-15 01:37:26.44	221.28	15.44	-40.0	-42.7	18.9	0.00e+00	0	56	0	138412032	51	4979
2026-01-15 01:37:27.45	220.92	15.49	-40.0	-42.8	18.8	0.00e+00	0	56	0	139460608	51	5016
2026-01-15 01:37:28.46	220.56	15.53	-39.9	-42.7	19.0	0.00e+00	0	56	0	140509184	51	4963
2026-01-15 01:37:29.46	220.20	15.57	-40.0	-42.8	18.9	0.00e+00	0	55	0	141557760	51	5015
2026-01-15 01:37:30.47	219.84	15.61	-40.0	-42.8	18.9	0.00e+00	0	55	0	143130624	51	5004
2026-01-15 01:37:31.48	219.48	15.65	-39.9	-42.7	19.0	0.00e+00	0	56	0	144179200	51	4947
2026-01-15 01:37:32.49	219.11	15.69	-39.8	-42.6	19.1	0.00e+00	0	56	0	145227776	51	4886
2026-01-15 01:37:33.50	218.75	15.73	-39.7	-42.4	19.3	0.00e+00	0	56	0	146276352	51	4786
2026-01-15 01:37:34.51	218.38	15.77	-39.6	-42.2	19.5	0.00e+00	0	56	0	147324928	51	4678
2026-01-15 01:37:35.52	218.01	15.80	-39.5	-42.0	19.6	0.00e+00	0	56	0	148373504	50	4863
2026-01-15 01:37:36.52	217.65	15.84	-39.5	-42.1	19.6	0.00e+00	0	56	0	149946368	50	4889
2026-01-15 01:37:37.53	217.28	15.88	-39.5	-42.0	19.7	0.00e+00	0	56	0	150994944	50	4863
2026-01-15 01:37:38.54	216.90	15.91	-39.7	-42.3	19.4	0.00e+00	0	56	0	152043520	50	4998
2026-01-15 01:37:39.55	216.53	15.94	-39.9	-42.7	19.0	0.00e+00	0	56	0	153092096	50	5221
2026-01-15 01:37:40.55	216.16	15.97	-40.0	-42.8	18.9	0.00e+00	0	56	0	154140672	50	5332
2026-01-15 01:37:41.56	215.79	16.00	-40.1	-43.0	18.7	0.00e+00	0	56	0	155189248	50	5439
2026-01-15 01:37:42.57	215.41	16.03	-40.2	-43.2	18.5	0.00e+00	0	56	0	156762112	51	5224
2026-01-15 01:37:43.58	215.04	16.06	-40.2	-43.1	18.6	0.00e+00	0	56	0	157810688	51	5216
2026-01-15 01:37:44.59	214.66	16.09	-40.2	-43.0	18.7	0.00e+00	0	56	0	158859264	51	5131
2026-01-15 01:37:45.60	214.28	16.12	-40.1	-42.9	18.9	0.00e+00	0	56	0	159907840	51	5057
2026-01-15 01:37:46.61	213.90	16.15	-40.0	-42.8	18.9	0.00e+00	0	56	0	160956416	51	5040
2026-01-15 01:37:47.62	213.52	16.17	-39.9	-42.6	19.1	0.00e+00	0	56	0	162004992	51	4891
2026-01-15 01:37:48.63	213.14	16.19	-39.9	-42.6	19.2	0.00e+00	0	56	0	163577856	51	4882
2026-01-15 01:37:49.63	212.76	16.22	-39.8	-42.5	19.2	0.00e+00	0	56	0	164626432	51	4837
2026-01-15 01:37:50.64	212.38	16.24	-39.7	-42.3	19.4	0.00e+00	0	56	0	165675008	51	4748
2026-01-15 01:37:51.65	212.00	16.26	-39.6	-42.2	19.5	0.00e+00	0	56	0	166723584	51	4705
2026-01-15 01:37:52.66	211.61	16.28	-39.6	-42.2	19.5	0.00e+00	0	56	0	167772160	51	4660
2026-01-15 01:37:53.67	211.23	16.30	-39.6	-42.2	19.5	0.00e+00	0	56	0	168820736	51	4705
2026-01-15 01:37:54.68	210.84	16.32	-39.7	-42.4	19.4	0.00e+00	0	56	0	170393600	51	4778
2026-01-15 01:37:55.69	210.46	16.34	-39.9	-42.6	19.1	0.00e+00	0	56	0	171442176	51	4917
2026-01-15 01:37:56.70	210.07	16.35	-40.0	-42.7	19.0	0.00e+00	0	56	0	172490752	51	4966
2026-01-15 01:37:57.71	209.68	16.37	-39.9	-42.7	19.1	0.00e+00	0	56	0	173539328	51	4943
2026-01-15 01:37:58.71	209.30	16.38	-39.9	-42.7	19.0	0.00e+00	0	56	0	174587904	51	4948
2026-01-15 01:37:59.72	208.91	16.39	-39.9	-42.7	19.1	0.00e+00	0	56	0	175636480	51	4937
2026-01-15 01:38:00.73	208.53	16.40	-39.8	-42.5	19.3	0.00e+00	0	56	0	177209344	51	4824
2026-01-15 01:38:01.74	208.14	16.41	-39.6	-42.2	19.5	0.00e+00	0	56	0	178257920	51	4703
2026-01-15 01:38:02.75	207.75	16.42	-39.5	-42.1	19.7	0.00e+00	0	56	0	179306496	51	4614
2026-01-15 01:38:03.75	207.37	16.43	-39.5	-42.0	19.7	0.00e+00	0	56	0	180355072	51	4590
2026-01-15 01:38:04.76	206.98	16.44	-39.3	-41.7	20.0	0.00e+00	0	56	0	181403648	50	4675
2026-01-15 01:38:05.77	206.59	16.44	-39.0	-41.3	20.4	0.00e+00	0	56	0	182452224	49	4736
2026-01-15 01:38:06.78	206.20	16.45	-38.8	-41.1	20.6	0.00e+00	0	56	0	184025088	49	4612
2026-01-15 01:38:07.79	205.81	16.45	-38.7	-41.0	20.7	0.00e+00	0	56	0	185073664	49	4586
2026-01-15 01:38:08.80	205.42	16.46	-38.7	-41.0	20.7	0.00e+00	0	56	0	186122240	49	4551
2026-01-15 01:38:09.81	205.03	16.46	-38.7	-41.0	20.7	0.00e+00	0	56	0	187170816	49	4564
2026-01-15 01:38:10.82	204.64	16.46	-38.9	-41.3	20.4	0.00e+00	0	56	0	188219392	49	4713
2026-01-15 01:38:11.83	204.25	16.46	-39.0	-41.4	20.3	0.00e+00	0	56	0	189267968	49	4802
2026-01-15 01:38:12.84	203.86	16.46	-39.1	-41.5	20.2	0.00e+00	0	56	0	190840832	49	4851
2026-01-15 01:38:13.85	203.47	16.45	-39.6	-42.2	19.6	0.00e+00	0	56	0	191889408	49	5235
2026-01-15 01:38:14.86	203.08	16.45	-39.8	-42.5	19.2	0.00e+00	0	56	0	192937984	50	5116
2026-01-15 01:38:15.87	202.69	16.44	-39.6	-42.2	19.5	0.00e+00	0	56	0	193986560	50	4958
2026-01-15 01:38:16.88	202.30	16.44	-39.6	-42.2	19.6	0.00e+00	0	56	0	195035136	50	4937
2026-01-15 01:38:17.89	201.91	16.43	-39.5	-42.1	19.6	0.00e+00	0	56	0	196083712	50	4883
2026-01-15 01:38:18.89	201.53	16.42	-39.5	-42.1	19.6	0.00e+00	0	56	0	197656576	50	4885
2026-01-15 01:38:19.90	201.14	16.41	-39.4	-41.9	19.8	0.00e+00	0	56	0	198705152	50	4793
2026-01-15 01:38:20.91	200.75	16.40	-39.3	-41.7	19.9	0.00e+00	0	56	0	199753728	50	4698
2026-01-15 01:38:21.92	200.36	16.39	-39.2	-41.6	20.1	0.00e+00	0	56	0	200802304	50	4626
2026-01-15 01:38:22.93	199.97	16.38	-39.4	-41.9	19.8	0.00e+00	0	56	0	201850880	50	4777
2026-01-15 01:38:23.94	199.59	16.36	-39.3	-41.7	19.9	0.00e+00	0	56	0	202899456	50	4693
2026-01-15 01:38:24.95	199.20	16.35	-39.0	-41.4	20.3	0.00e+00	0	56	0	204472320	50	4496
2026-01-15 01:38:25.96	198.81	16.33	-39.0	-41.4	20.2	0.00e+00	0	56	0	205520896	49	4797
2026-01-15 01:38:26.97	198.43	16.32	-39.3	-41.8	19.9	0.00e+00	0	56	0	206569472	49	5004
2026-01-15 01:38:27.98	198.04	16.30	-39.2	-41.6	20.1	0.00e+00	0	56	0	207618048	49	4887
2026-01-15 01:38:28.99	197.66	16.28	-39.0	-41.4	20.2	0.00e+00	0	56	0	208666624	49	4807
2026-01-15 01:38:30.00	197.28	16.26	-39.1	-41.6	20.1	0.00e+00	0	56	0	209715200	49	4873
2026-01-15 01:38:31.01	196.89	16.24	-39.2	-41.7	20.0	0.00e+00	0	56	0	211288064	49	4955
2026-01-15 01:38:32.02	196.51	16.22	-39.2	-41.7	19.9	0.00e+00	0	56	0	212336640	49	4972
2026-01-15 01:38:33.03	196.13	16.19	-39.3	-41.8	19.9	0.00e+00	0	56	0	213385216	49	4989
2026-01-15 01:38:34.04	195.75	16.17	-39.5	-42.1	19.6	0.00e+00	0	56	0	214433792	49	5186
2026-01-15 01:38:35.04	195.37	16.14	-39.6	-42.1	19.5	0.00e+00	0	56	0	215482368	49	5216
2026-01-15 01:38:36.05	194.99	16.12	-39.6	-42.2	19.5	0.00e+00	0	56	0	216530944	49	5232
2026-01-15 01:38:37.06	194.61	16.09	-39.8	-42.5	19.2	0.00e+00	0	56	0	217579520	50	5108
2026-01-15 01:38:38.06	194.24	16.06	-39.8	-42.5	19.2	0.00e+00	0	56	0	219152384	50	5118
2026-01-15 01:38:39.07	193.86	16.03	-39.6	-42.2	19.5	0.00e+00	0	56	0	220200960	50	4950
2026-01-15 01:38:40.08	193.49	16.00	-39.5	-42.1	19.5	0.00e+00	0	56	0	221249536	50	4923
2026-01-15 01:38:41.09	193.11	15.97	-39.7	-42.3	19.4	0.00e+00	0	56	0	222298112	50	5014
2026-01-15 01:38:42.10	192.74	15.94	-39.7	-42.4	19.3	0.00e+00	0	56	0	223346688	50	5061
2026-01-15 01:38:43.11	192.36	15.91	-39.5	-42.1	19.6	0.00e+00	0	56	0	224395264	50	4880
2026-01-15 01:38:44.12	191.99	15.87	-39.6	-42.3	19.4	0.00e+00	0	56	0	225968128	50	5002
2026-01-15 01:38:45.12	191.63	15.84	-39.9	-42.6	19.1	0.00e+00	0	56	0	227016704	50	5176
2026-01-15 01:38:46.13	191.26	15.80	-39.8	-42.5	19.2	0.00e+00	0	56	0	228065280	50	5132
2026-01-15 01:38:47.14	190.89	15.77	-39.9	-42.6	19.1	0.00e+00	0	56	0	229113856	50	5174
2026-01-15 01:38:48.15	190.52	15.73	-40.0	-42.9	18.8	0.00e+00	0	56	0	230162432	50	5346
2026-01-15 01:38:49.15	190.16	15.69	-39.7	-42.4	19.2	0.00e+00	0	56	0	231211008	50	5061
2026-01-15 01:38:50.16	189.79	15.65	-39.5	-42.1	19.6	0.00e+00	0	56	0	232783872	50	4886
2026-01-15 01:38:51.17	189.43	15.61	-39.6	-42.3	19.4	0.00e+00	0	56	0	233832448	50	5009
2026-01-15 01:38:52.18	189.07	15.57	-39.6	-42.2	19.5	0.00e+00	0	56	0	234881024	50	4954
2026-01-15 01:38:53.19	188.71	15.53	-39.7	-42.3	19.4	0.00e+00	0	56	0	235929600	50	5027
2026-01-15 01:38:54.20	188.35	15.49	-40.1	-43.0	18.7	0.00e+00	0	56	0	236978176	50	5422
2026-01-15 01:38:55.21	187.99	15.44	-40.3	-43.2	18.4	0.00e+00	0	56	0	238026752	51	5276
2026-01-15 01:38:56.22	187.63	15.40	-40.1	-43.0	18.6	0.00e+00	0	56	0	239599616	51	5141
2026-01-15 01:38:57.23	187.27	15.35	-40.1	-43.0	18.6	0.00e+00	0	56	0	240648192	51	5132
2026-01-15 01:38:58.24	186.92	15.31	-39.7	-42.3	19.3	0.00e+00	0	56	0	241696768	51	4755
2026-01-15 01:38:59.25	186.57	15.26	-39.4	-42.0	19.7	0.00e+00	0	56	0	242745344	50	4819
2026-01-15 01:39:00.26	186.21	15.21	-39.6	-42.2	19.4	0.00e+00	0	56	0	243793920	50	4975
2026-01-15 01:39:01.27	185.86	15.16	-39.5	-42.1	19.5	0.00e+00	0	56	0	244842496	50	4926
2026-01-15 01:39:02.27	185.52	15.12	-39.7	-42.4	19.3	0.00e+00	0	56	0	246415360	50	5053
2026-01-15 01:39:03.28	185.17	15.07	-40.0	-42.8	18.8	0.00e+00	0	56	0	247463936	50	5322
2026-01-15 01:39:04.29	184.82	15.02	-40.0	-42.8	18.8	0.00e+00	0	56	0	248512512	50	5299
2026-01-15 01:39:05.30	184.48	14.96	-39.9	-42.7	18.9	0.00e+00	0	56	0	249561088	50	5276
2026-01-15 01:39:06.31	184.14	14.91	-40.0	-42.8	18.8	0.00e+00	0	56	0	250609664	50	5330
2026-01-15 01:39:07.32	183.79	14.86	-39.8	-42.6	19.0	0.00e+00	0	56	0	251658240	50	5175
2026-01-15 01:39:08.33	183.45	14.81	-39.7	-42.5	19.1	0.00e+00	0	56	0	253231104	50	5110
2026-01-15 01:39:09.34	183.12	14.75	-39.7	-42.5	19.1	0.00e+00	0	56	0	254279680	50	5105
2026-01-15 01:39:10.35	182.78	14.70	-39.7	-42.4	19.2	0.00e+00	0	56	0	255328256	50	5080
2026-01-15 01:39:11.36	182.44	14.64	-39.7	-42.4	19.2	0.00e+00	0	56	0	256376832	50	5046
2026-01-15 01:39:12.37	182.11	14.59	-39.7	-42.5	19.1	0.00e+00	0	57	0	257425408	50	5124
2026-01-15 01:39:13.37	181.78	14.53	-39.7	-42.4	19.2	0.00e+00	0	56	0	258473984	50	5042
2026-01-15 01:39:14.38	181.45	14.48	-39.8	-42.5	19.0	0.00e+00	0	56	0	260046848	50	5152
2026-01-15 01:39:15.39	181.12	14.42	-39.7	-42.4	19.2	0.00e+00	0	57	0	261095424	50	5055
2026-01-15 01:39:16.40	180.79	14.36	-39.5	-42.2	19.4	0.00e+00	0	57	0	262144000	50	4948
2026-01-15 01:39:17.41	180.47	14.30	-39.7	-42.4	19.1	0.00e+00	0	56	0	263192576	50	5076
2026-01-15 01:39:18.42	180.15	14.24	-39.6	-42.2	19.3	0.00e+00	0	57	0	264241152	50	4977
2026-01-15 01:39:19.43	179.82	14.18	-39.5	-42.1	19.5	0.00e+00	0	56	0	265289728	50	4877
2026-01-15 01:39:20.44	179.50	14.12	-39.5	-42.1	19.4	0.00e+00	0	56	0	266862592	50	4906
2026-01-15 01:39:21.45	179.18	14.06	-39.4	-42.0	19.5	0.00e+00	0	56	0	267911168	50	4857
2026-01-15 01:39:22.45	178.87	14.00	-39.5	-42.1	19.4	0.00e+00	0	56	0	268959744	50	4913
2026-01-15 01:39:23.46	178.55	13.94	-39.5	-42.2	19.3	0.00e+00	0	56	0	270008320	50	4942
2026-01-15 01:39:24.47	178.24	13.88	-39.5	-42.1	19.4	0.00e+00	0	56	0	271056896	50	4908
2026-01-15 01:39:25.48	177.93	13.82	-39.7	-42.4	19.2	0.00e+00	0	56	0	272105472	50	5058
2026-01-15 01:39:26.49	177.62	13.76	-39.9	-42.8	18.7	0.00e+00	0	56	0	273678336	50	5313
2026-01-15 01:39:27.50	177.31	13.69	-40.1	-43.0	18.5	0.00e+00	0	56	0	274726912	50	5431
2026-01-15 01:39:28.51	177.00	13.63	-40.3	-43.4	18.1	0.00e+00	0	57	0	275775488	51	5355
2026-01-15 01:39:29.52	176.69	13.56	-40.3	-43.3	18.2	0.00e+00	0	57	0	276824064	51	5300
2026-01-15 01:39:30.53	176.39	13.50	-40.1	-43.0	18.5	0.00e+00	0	57	0	277872640	51	5137
2026-01-15 01:39:31.53	176.09	13.44	-39.9	-42.8	18.6	0.00e+00	0	56	0	278921216	51	5006
2026-01-15 01:39:32.53	175.79	13.37	-39.8	-42.5	18.9	0.00e+00	0	56	0	280494080	51	4865
2026-01-15 01:39:33.54	175.50	13.31	-39.8	-42.7	18.8	0.00e+00	0	57	0	281542656	51	4937
2026-01-15 01:39:34.55	175.20	13.24	-39.9	-42.8	18.7	0.00e+00	0	56	0	282591232	51	5003
2026-01-15 01:39:35.56	174.90	13.17	-39.8	-42.6	18.8	0.00e+00	0	56	0	283639808	51	4910
2026-01-15 01:39:36.57	174.61	13.11	-40.0	-42.9	18.6	0.00e+00	0	57	0	284688384	51	5059
2026-01-15 01:39:37.57	174.32	13.04	-40.2	-43.2	18.3	0.00e+00	0	56	0	285736960	51	5260
2026-01-15 01:39:38.58	174.03	12.97	-40.4	-43.5	18.0	0.00e+00	0	57	0	287309824	51	5445
2026-01-15 01:39:39.59	173.74	12.91	-40.6	-43.8	17.7	0.00e+00	0	56	0	288358400	51	5613
2026-01-15 01:39:40.60	173.46	12.84	-40.5	-43.7	17.8	0.00e+00	0	57	0	289406976	51	5542
2026-01-15 01:39:41.61	173.17	12.77	-40.5	-43.6	18.1	0.00e+00	0	56	0	290455552	51	5497
2026-01-15 01:39:42.62	172.89	12.70	-40.2	-43.2	18.3	0.00e+00	0	57	0	291504128	51	5271
2026-01-15 01:39:43.63	172.61	12.63	-40.1	-43.1	18.5	0.00e+00	0	57	0	292552704	51	5162
2026-01-15 01:39:44.64	172.33	12.56	-40.1	-43.0	18.5	0.00e+00	0	57	0	294125568	51	5150
2026-01-15 01:39:45.65	172.05	12.50	-40.2	-43.1	18.4	0.00e+00	0	57	0	295174144	51	5210
2026-01-15 01:39:46.66	171.77	12.43	-40.2	-43.2	18.3	0.00e+00	0	56	0	296222720	51	5238
2026-01-15 01:39:47.66	171.50	12.36	-40.2	-43.2	18.2	0.00e+00	0	57	0	297271296	51	5274
2026-01-15 01:39:48.68	171.22	12.29	-40.2	-43.2	18.2	0.00e+00	0	57	0	298319872	51	5262
2026-01-15 01:39:49.69	170.95	12.22	-40.4	-43.5	18.0	0.00e+00	0	56	0	299368448	51	5451
2026-01-15 01:39:50.70	170.68	12.15	-40.6	-43.8	17.6	0.00e+00	0	57	0	300941312	51	5642
2026-01-15 01:39:51.71	170.42	12.08	-40.5	-43.7	17.7	0.00e+00	0	57	0	301989888	51	5577
2026-01-15 01:39:52.72	170.15	12.01	-40.7	-44.0	17.5	0.00e+00	0	57	0	303038464	51	5750
2026-01-15 01:39:53.73	169.88	11.94	-40.6	-43.9	17.5	0.00e+00	0	57	0	304087040	52	5350
2026-01-15 01:39:54.74	169.62	11.86	-40.6	-43.9	17.5	0.00e+00	0	57	0	305135616	52	5353
2026-01-15 01:39:55.75	169.36	11.79	-40.6	-43.9	17.4	0.00e+00	0	57	0	306184192	52	5387
2026-01-15 01:39:56.76	169.10	11.72	-40.4	-43.5	17.9	0.00e+00	0	56	0	307757056	52	5121
2026-01-15 01:39:57.77	168.84	11.65	-40.2	-43.3	18.1	0.00e+00	0	57	0	308805632	52	5006
2026-01-15 01:39:58.77	168.59	11.58	-40.2	-43.2	18.2	0.00e+00	0	57	0	309854208	52	4927
2026-01-15 01:39:59.78	168.33	11.51	-40.1	-43.1	18.3	0.00e+00	0	56	0	310902784	52	4900
2026-01-15 01:40:00.79	168.08	11.44	-40.4	-43.5	17.9	0.00e+00	0	57	0	311951360	52	5139
2026-01-15 01:40:01.80	167.83	11.37	-40.4	-43.6	17.8	0.00e+00	0	57	0	312999936	52	5194
2026-01-15 01:40:02.81	167.58	11.29	-40.5	-43.7	17.7	0.00e+00	0	57	0	314048512	52	5235
2026-01-15 01:40:03.82	167.33	11.22	-40.6	-43.9	17.5	0.00e+00	0	57	0	315621376	52	5348
2026-01-15 01:40:04.83	167.09	11.15	-40.4	-43.6	17.7	0.00e+00	0	57	0	316669952	52	5216
2026-01-15 01:40:05.84	166.84	11.08	-40.4	-43.5	17.8	0.00e+00	0	57	0	317718528	52	5132
2026-01-15 01:40:06.85	166.60	11.00	-40.4	-43.7	17.7	0.00e+00	0	57	0	318767104	52	5219
2026-01-15 01:40:07.86	166.36	10.93	-40.5	-43.7	17.5	0.00e+00	0	57	0	319815680	52	5276
2026-01-15 01:40:08.87	166.12	10.86	-40.7	-44.0	17.4	0.00e+00	0	57	0	321388544	52	5426
2026-01-15 01:40:09.88	165.88	10.79	-40.7	-44.2	17.2	0.00e+00	0	57	0	322437120	52	5543
2026-01-15 01:40:10.89	165.64	10.71	-40.9	-44.4	16.9	0.00e+00	0	57	0	323485696	52	5684
2026-01-15 01:40:11.90	165.41	10.64	-41.0	-44.6	16.8	0.00e+00	0	57	0	324534272	52	5791
2026-01-15 01:40:12.91	165.17	10.57	-41.1	-44.8	16.6	0.00e+00	0	57	0	325582848	52	5942
2026-01-15 01:40:13.92	164.94	10.50	-41.1	-44.9	16.4	0.00e+00	0	57	0	326631424	52	6025
2026-01-15 01:40:14.93	164.71	10.42	-41.1	-44.9	16.4	0.00e+00	0	57	0	328204288	52	6013
2026-01-15 01:40:15.94	164.48	10.35	-41.0	-44.7	16.6	0.00e+00	0	57	0	329252864	52	5908
2026-01-15 01:40:16.95	164.25	10.28	-40.8	-44.4	16.9	0.00e+00	0	56	0	330301440	52	5678
2026-01-15 01:40:17.96	164.03	10.21	-40.8	-44.2	17.1	0.00e+00	0	57	0	331350016	52	5576
2026-01-15 01:40:18.96	163.80	10.13	-40.6	-43.9	17.3	0.00e+00	0	57	0	332398592	52	5397
2026-01-15 01:40:19.97	163.58	10.06	-40.7	-44.1	17.1	0.00e+00	0	57	0	333447168	52	5525
2026-01-15 01:40:20.98	163.36	9.99	-40.8	-44.4	16.9	0.00e+00	0	57	0	335020032	52	5660
2026-01-15 01:40:21.99	163.14	9.92	-40.7	-44.2	17.0	0.00e+00	0	57	0	336068608	52	5587
2026-01-15 01:40:23.00	162.92	9.84	-40.8	-44.4	16.8	0.00e+00	0	57	0	337117184	52	5715
2026-01-15 01:40:24.01	162.70	9.77	-40.8	-44.4	16.8	0.00e+00	0	57	0	338165760	52	5690
2026-01-15 01:40:25.02	162.49	9.70	-40.8	-44.3	16.8	0.00e+00	0	57	0	339214336	52	5652
2026-01-15 01:40:26.03	162.27	9.62	-40.8	-44.4	16.8	0.00e+00	0	57	0	340262912	52	5680
2026-01-15 01:40:27.04	162.06	9.55	-40.8	-44.3	16.9	0.00e+00	0	56	0	341835776	52	5642
2026-01-15 01:40:28.05	161.85	9.48	-40.9	-44.6	16.6	0.00e+00	0	57	0	342884352	52	5803
2026-01-15 01:40:29.06	161.64	9.41	-41.0	-44.7	16.4	0.00e+00	0	56	0	343932928	52	5923
2026-01-15 01:40:30.07	161.43	9.33	-41.0	-44.8	16.3	0.00e+00	0	57	0	344981504	52	5941
2026-01-15 01:40:31.08	161.22	9.26	-41.0	-44.9	16.2	0.00e+00	0	57	0	346030080	52	6020
2026-01-15 01:40:32.09	161.02	9.19	-41.0	-44.8	16.3	0.00e+00	0	57	0	347078656	52	5965
2026-01-15 01:40:33.10	160.81	9.12	-41.0	-44.8	16.3	0.00e+00	0	57	0	348127232	52	5950
2026-01-15 01:40:34.11	160.61	9.04	-41.0	-44.8	16.2	0.00e+00	0	57	0	349700096	52	5983
2026-01-15 01:40:35.12	160.41	8.97	-40.9	-44.8	16.3	0.00e+00	0	57	0	350748672	52	5929
2026-01-15 01:40:36.13	160.21	8.90	-40.9	-44.8	16.2	0.00e+00	0	57	0	351797248	52	5935
2026-01-15 01:40:37.14	160.01	8.83	-40.9	-44.8	16.2	0.00e+00	0	57	0	352845824	52	5977
2026-01-15 01:40:38.15	159.81	8.76	-40.9	-44.8	16.2	0.00e+00	0	57	0	353894400	52	5937
2026-01-15 01:40:39.16	159.61	8.68	-40.8	-44.7	16.3	0.00e+00	0	57	0	354942976	52	5884
2026-01-15 01:40:40.17	159.42	8.61	-40.9	-44.8	16.2	0.00e+00	0	57	0	356515840	52	5959
2026-01-15 01:40:41.18	159.23	8.54	-40.9	-44.8	16.2	0.00e+00	0	57	0	357564416	52	5944
2026-01-15 01:40:42.19	159.03	8.47	-40.9	-44.8	16.1	0.00e+00	0	57	0	358612992	52	5981
2026-01-15 01:40:43.20	158.84	8.40	-40.8	-44.7	16.3	0.00e+00	0	57	0	359661568	52	5913
2026-01-15 01:40:44.21	158.65	8.32	-41.0	-45.0	15.9	0.00e+00	0	57	0	360710144	52	6122
2026-01-15 01:40:45.22	158.47	8.25	-41.0	-45.1	15.8	0.00e+00	0	57	0	362283008	52	6179
2026-01-15 01:40:46.23	158.28	8.18	-41.1	-45.3	15.6	0.00e+00	0	57	0	363331584	52	6334
2026-01-15 01:40:47.24	158.09	8.11	-41.3	-45.6	15.2	0.00e+00	0	57	0	364380160	53	6193
2026-01-15 01:40:48.25	157.91	8.04	-41.4	-45.9	15.0	0.00e+00	0	57	0	365428736	53	6384
2026-01-15 01:40:49.26	157.72	7.97	-44.5	-60.9	3.7	0.00e+00	0	57	104	366477312	59	25440
2026-01-15 01:40:50.27	157.54	7.89	-44.9	-62.2	3.8	4.85e-01	0	57	104	366477312	60	27734
2026-01-15 01:40:51.28	157.36	7.82	-45.2	-63.2	3.8	4.85e-01	0	57	104	366477312	60	31280
2026-01-15 01:40:52.29	157.18	7.75	-45.3	-63.4	3.8	8.47e-01	0	57	104	366477312	61	30136
2026-01-15 01:40:53.30	157.00	7.68	-45.4	-63.5	3.8	8.47e-01	0	57	104	366477312	61	30499
2026-01-15 01:40:54.31	156.83	7.61	-45.5	-63.5	3.8	8.46e-01	0	57	104	366477312	61	30650
2026-01-15 01:40:55.32	156.65	7.54	-45.5	-63.5	3.8	8.46e-01	0	57	104	366477312	61	30711
2026-01-15 01:40:56.33	156.47	7.47	-45.5	-63.5	3.8	8.47e-01	0	57	104	366477312	61	30653
2026-01-15 01:40:57.34	156.30	7.40	-45.5	-63.5	3.8	8.46e-01	0	57	104	366477312	61	30532
2026-01-15 01:40:58.35	156.13	7.33	-45.4	-63.4	3.8	8.46e-01	0	57	104	366477312	61	30302
2026-01-15 01:40:59.36	155.96	7.26	-45.4	-63.4	3.8	8.45e-01	0	57	104	366477312	61	30096
2026-01-15 01:41:00.37	155.79	7.19	-45.3	-63.3	3.8	8.46e-01	0	57	104	366477312	61	29866
2026-01-15 01:41:01.38	155.62	7.12	-45.3	-63.3	3.8	8.46e-01	0	57	104	366477312	61	29900
2026-01-15 01:41:02.39	155.45	7.05	-45.3	-63.3	3.8	8.47e-01	0	57	104	366477312	61	29921
2026-01-15 01:41:03.40	155.28	6.98	-45.3	-63.4	3.8	8.46e-01	0	57	104	366477312	61	30064
2026-01-15 01:41:04.41	155.12	6.91	-45.3	-63.3	3.8	8.46e-01	0	57	104	366477312	61	29824
2026-01-15 01:41:05.42	154.95	6.84	-45.3	-63.3	3.8	8.46e-01	0	57	104	366477312	61	29792
2026-01-15 01:41:06.43	154.79	6.77	-45.3	-63.3	3.8	8.45e-01	0	57	104	366477312	61	29797
2026-01-15 01:41:07.44	154.63	6.70	-45.3	-63.3	3.8	8.46e-01	0	57	104	366477312	61	29828
2026-01-15 01:41:08.45	154.46	6.63	-45.3	-63.3	3.8	8.46e-01	0	57	104	366477312	61	29836
2026-01-15 01:41:09.46	154.30	6.56	-45.3	-63.3	3.8	8.45e-01	0	57	104	366477312	61	29760
2026-01-15 01:41:10.47	154.15	6.49	-45.3	-63.3	3.8	8.46e-01	0	57	104	366477312	61	29713
2026-01-15 01:41:11.48	153.99	6.42	-45.3	-63.3	3.8	8.46e-01	0	57	104	366477312	61	29762
2026-01-15 01:41:12.50	153.83	6.35	-45.3	-63.3	3.8	8.45e-01	0	57	104	366477312	61	29743
2026-01-15 01:41:13.51	153.67	6.29	-45.3	-63.3	3.8	8.47e-01	0	57	104	366477312	61	29719
2026-01-15 01:41:14.52	153.52	6.22	-45.3	-63.2	3.8	8.47e-01	0	57	104	366477312	61	29685
2026-01-15 01:41:15.53	153.36	6.15	-45.3	-63.3	3.8	8.46e-01	0	57	104	366477312	61	29749
2026-01-15 01:41:16.54	153.21	6.08	-45.3	-63.3	3.8	8.47e-01	0	57	104	366477312	61	29719
2026-01-15 01:41:17.55	153.06	6.01	-45.3	-63.3	3.8	8.47e-01	0	57	104	366477312	61	29760
2026-01-15 01:41:18.56	152.91	5.94	-45.3	-63.3	3.8	8.47e-01	0	57	104	366477312	61	29765
2026-01-15 01:41:19.57	152.76	5.88	-45.3	-63.3	3.8	8.46e-01	0	57	104	366477312	61	29708
2026-01-15 01:41:20.57	152.61	5.81	-45.3	-63.3	3.8	8.46e-01	0	57	104	366477312	61	29717
2026-01-15 01:41:21.59	152.46	5.74	-45.3	-63.3	3.8	8.46e-01	0	57	104	366477312	61	29739
2026-01-15 01:41:22.60	152.31	5.67	-45.3	-63.3	3.8	8.46e-01	0	57	104	366477312	61	29708
2026-01-15 01:41:23.61	152.17	5.61	-45.3	-63.3	3.8	8.46e-01	0	57	104	366477312	61	29735
2026-01-15 01:41:24.62	152.02	5.54	-45.3	-63.3	3.8	8.46e-01	0	57	104	366477312	61	29720
2026-01-15 01:41:25.63	151.88	5.47	-45.3	-63.2	3.8	8.45e-01	0	57	104	366477312	61	29685
2026-01-15 01:41:26.64	151.73	5.40	-45.3	-63.3	3.8	8.46e-01	0	57	104	366477312	61	29711
2026-01-15 01:41:27.65	151.59	5.34	-45.3	-63.3	3.8	8.46e-01	0	57	104	366477312	61	29718
2026-01-15 01:41:28.65	151.45	5.27	-45.3	-63.3	3.8	8.46e-01	0	57	104	366477312	61	29731
2026-01-15 01:41:29.66	151.31	5.20	-45.2	-63.3	3.8	8.45e-01	0	57	104	366477312	61	29743
2026-01-15 01:41:30.67	151.17	5.14	-45.3	-63.3	3.8	8.46e-01	0	57	104	366477312	61	29777
2026-01-15 01:41:31.68	151.03	5.07	-45.3	-63.3	3.8	8.46e-01	0	57	104	366477312	61	29694
2026-01-15 01:41:32.69	150.90	5.01	-45.2	-63.3	3.8	8.46e-01	0	57	104	366477312	61	29704
2026-01-15 01:41:33.70	150.76	4.94	-45.2	-63.2	3.8	8.47e-01	0	57	104	366477312	61	29664
2026-01-15 01:41:34.71	150.62	4.87	-45.2	-63.2	3.8	8.47e-01	0	57	104	366477312	61	29676
2026-01-15 01:41:35.72	150.49	4.81	-45.2	-63.2	3.8	8.47e-01	0	57	104	366477312	61	29640
2026-01-15 01:41:36.73	150.35	4.74	-45.2	-63.2	3.8	8.45e-01	0	57	104	366477312	61	29645
2026-01-15 01:41:37.74	150.22	4.68	-45.2	-63.2	3.8	8.45e-01	0	57	104	366477312	61	29685
2026-01-15 01:41:38.75	150.09	4.61	-45.2	-63.3	3.8	8.46e-01	0	57	104	366477312	61	29697
2026-01-15 01:41:39.76	149.95	4.55	-45.2	-63.3	3.8	8.46e-01	0	57	104	366477312	61	29716
2026-01-15 01:41:40.77	149.82	4.48	-45.2	-63.2	3.8	8.46e-01	0	57	104	366477312	61	29635
2026-01-15 01:41:41.78	149.69	4.42	-45.2	-63.2	3.8	8.47e-01	0	57	104	366477312	61	29663
2026-01-15 01:41:42.79	149.56	4.35	-45.2	-63.2	3.8	8.46e-01	0	57	104	366477312	61	29664
2026-01-15 01:41:43.81	149.43	4.29	-45.2	-63.3	3.8	8.46e-01	0	57	104	366477312	61	29710
2026-01-15 01:41:44.82	149.31	4.22	-45.2	-63.2	3.8	8.46e-01	0	57	104	366477312	61	29665
2026-01-15 01:41:45.83	149.18	4.16	-45.2	-63.3	3.8	8.46e-01	0	57	104	366477312	61	29711
2026-01-15 01:41:46.84	149.05	4.09	-45.2	-63.3	3.8	8.45e-01	0	57	104	366477312	61	29719
2026-01-15 01:41:47.85	148.93	4.03	-45.2	-63.2	3.8	8.45e-01	0	57	104	366477312	61	29636
2026-01-15 01:41:48.86	148.80	3.96	-45.2	-63.2	3.8	8.47e-01	0	57	104	366477312	61	29648
2026-01-15 01:41:49.87	148.68	3.90	-45.2	-63.2	3.8	8.46e-01	0	57	104	366477312	61	29562
2026-01-15 01:41:50.88	148.56	3.84	-45.2	-63.3	3.8	8.46e-01	0	57	104	366477312	61	29695
2026-01-15 01:41:51.89	148.44	3.77	-45.2	-63.2	3.8	8.45e-01	0	57	104	366477312	61	29665
2026-01-15 01:41:52.90	148.31	3.71	-45.2	-63.2	3.8	8.46e-01	0	57	104	366477312	61	29619
2026-01-15 01:41:53.91	148.19	3.65	-45.2	-63.2	3.8	8.46e-01	0	57	104	366477312	61	29594
2026-01-15 01:41:54.92	148.07	3.58	-45.2	-63.2	3.8	8.46e-01	0	57	104	366477312	61	29609
2026-01-15 01:41:55.93	147.96	3.52	-45.2	-63.2	3.8	8.47e-01	0	57	104	366477312	61	29592
2026-01-15 01:41:56.94	147.84	3.46	-45.2	-63.2	3.8	8.45e-01	0	57	104	366477312	61	29637
2026-01-15 01:41:57.95	147.72	3.39	-45.2	-63.2	3.8	8.45e-01	0	57	104	366477312	61	29655
2026-01-15 01:41:58.96	147.60	3.33	-45.2	-63.2	3.8	8.46e-01	0	57	104	366477312	61	29618
2026-01-15 01:41:59.97	147.49	3.27	-45.2	-63.2	3.8	8.47e-01	0	57	104	366477312	61	29611
2026-01-15 01:42:00.98	147.37	3.21	-45.2	-63.2	3.8	8.47e-01	0	57	104	366477312	61	29534
2026-01-15 01:42:01.99	147.26	3.14	-45.2	-63.2	3.8	8.46e-01	0	57	104	366477312	61	29559
2026-01-15 01:42:03.00	147.14	3.08	-45.2	-63.2	3.8	8.45e-01	0	57	104	366477312	61	29577
2026-01-15 01:42:04.02	147.03	3.02	-45.2	-63.2	3.8	8.45e-01	0	57	104	366477312	61	29580
2026-01-15 01:42:05.03	146.91	2.96	-45.2	-63.2	3.8	8.46e-01	0	57	104	366477312	61	29613
2026-01-15 01:42:06.04	146.80	2.90	-45.2	-63.2	3.8	8.47e-01	0	57	104	366477312	61	29572
2026-01-15 01:42:07.05	146.69	2.83	-45.2	-63.2	3.8	8.47e-01	0	57	104	366477312	61	29620
2026-01-15 01:42:08.06	146.58	2.77	-45.2	-63.2	3.8	8.46e-01	0	57	104	366477312	61	29653
2026-01-15 01:42:09.07	146.47	2.71	-45.2	-63.2	3.8	8.47e-01	0	57	104	366477312	61	29632
2026-01-15 01:42:10.08	146.36	2.65	-45.2	-63.2	3.8	8.44e-01	0	57	104	366477312	61	29542
2026-01-15 01:42:11.09	146.25	2.59	-45.2	-63.2	3.8	8.44e-01	0	57	104	366477312	61	29682
2026-01-15 01:42:12.09	146.15	2.53	-45.2	-63.2	3.8	8.46e-01	0	57	104	366477312	61	29607
2026-01-15 01:42:13.10	146.04	2.47	-45.2	-63.2	3.8	8.46e-01	0	57	104	366477312	61	29686
2026-01-15 01:42:14.11	145.93	2.41	-45.2	-63.2	3.8	8.46e-01	0	57	104	366477312	61	29539
2026-01-15 01:42:15.12	145.83	2.35	-45.2	-63.2	3.8	8.46e-01	0	57	104	366477312	61	29614
2026-01-15 01:42:16.13	145.72	2.28	-45.2	-63.2	3.8	8.46e-01	0	57	104	366477312	61	29632
2026-01-15 01:42:17.14	145.62	2.22	-45.2	-63.2	3.8	8.46e-01	0	57	104	366477312	61	29596
2026-01-15 01:42:18.14	145.51	2.16	-45.2	-63.2	3.8	8.46e-01	0	57	104	366477312	61	29603
2026-01-15 01:42:19.15	145.41	2.10	-45.2	-63.2	3.8	8.47e-01	0	57	104	366477312	61	29642
2026-01-15 01:42:20.16	145.31	2.04	-45.2	-63.2	3.8	8.47e-01	0	57	104	366477312	61	29577
2026-01-15 01:42:21.17	145.20	1.98	-45.2	-63.2	3.8	8.46e-01	0	57	104	366477312	61	29638
2026-01-15 01:42:22.18	145.10	1.93	-45.2	-63.2	3.8	8.46e-01	0	57	104	366477312	61	29641
2026-01-15 01:42:23.19	145.00	1.87	-45.2	-63.2	3.8	8.46e-01	0	57	104	366477312	61	29623

#Closed at: 2026-01-15 01:42:23
#Recorded file [366 MB]: D:/lorett/data/31039_260115_043400.dat