passes_logs/2026/01/15/R2.0S_Moscow/R2.0S_Moscow__20260115_094537_NOAA_20_JPSS-1_rec.log

#Pass ID: 20260115_094537_NOAA 20 (JPSS-1)
#Satellite: NOAA 20 (JPSS-1)
#Configuration: NOAA 20
#almurnet v.1.7.20251203
#Start time: 2026-01-15 09:45:38

#Version: 2.2.20231116
#Station: R2.0S_Moscow
#Location: 37.707566 lon 55.798166 lat
#TLE: 1 43013U 17073A   26014.13176244  .00000049  00000+0  44136-4 0  9994
#TLE: 2 43013  98.7634 315.0803 0001538  40.6488 319.4803 14.19535812422619

#Time	Az	El	Level	Level2	SNR	BER	BlckErr	Temp	State	Recorded	gain1	gain2
2026-01-15 09:45:38.25	155.90	2.07	-44.0	-58.4	3.8	1.49e+00	0	52	0	0	59	19142
2026-01-15 09:45:39.25	155.90	2.14	-44.0	-58.4	3.8	1.49e+00	0	52	104	0	59	19076
2026-01-15 09:45:40.26	155.89	2.20	-44.0	-58.4	3.8	1.49e+00	0	52	104	0	59	19091
2026-01-15 09:45:41.27	155.89	2.27	-44.0	-58.4	3.8	1.49e+00	0	52	104	0	59	19127
2026-01-15 09:45:42.28	155.88	2.33	-44.0	-58.4	3.8	1.49e+00	0	52	104	0	59	19083
2026-01-15 09:45:43.29	155.88	2.40	-44.0	-58.5	3.8	1.49e+00	0	52	104	0	59	19169
2026-01-15 09:45:44.30	155.87	2.46	-44.0	-58.4	3.8	1.49e+00	0	52	104	0	59	19048
2026-01-15 09:45:45.31	155.87	2.53	-44.0	-58.4	3.8	1.49e+00	0	52	104	0	59	19154
2026-01-15 09:45:46.32	155.86	2.60	-44.0	-58.4	3.8	1.49e+00	0	52	104	0	59	19112
2026-01-15 09:45:47.33	155.86	2.66	-44.0	-58.4	3.8	1.49e+00	0	52	104	0	59	19127
2026-01-15 09:45:48.34	155.85	2.73	-44.0	-58.4	3.8	1.49e+00	0	53	104	0	59	19126
2026-01-15 09:45:49.35	155.85	2.80	-44.0	-58.4	3.8	1.49e+00	0	53	104	0	59	19129
2026-01-15 09:45:50.36	155.84	2.86	-44.0	-58.4	3.8	1.49e+00	0	53	104	0	59	19066
2026-01-15 09:45:51.37	155.84	2.93	-44.0	-58.4	3.8	1.49e+00	0	53	104	0	59	19118
2026-01-15 09:45:52.38	155.83	3.00	-44.0	-58.4	3.8	1.49e+00	0	53	104	0	59	19107
2026-01-15 09:45:53.39	155.83	3.06	-44.0	-58.4	3.8	1.49e+00	0	53	104	0	59	19070
2026-01-15 09:45:54.40	155.82	3.13	-44.0	-58.4	3.8	1.49e+00	0	53	104	0	59	19101
2026-01-15 09:45:55.41	155.82	3.20	-44.0	-58.4	3.8	1.49e+00	0	53	104	0	59	19121
2026-01-15 09:45:56.42	155.81	3.27	-44.0	-58.4	3.8	1.49e+00	0	53	104	0	59	19111
2026-01-15 09:45:57.43	155.81	3.34	-44.0	-58.4	3.8	1.49e+00	0	53	104	0	59	19127
2026-01-15 09:45:58.44	155.80	3.40	-44.0	-58.4	3.8	1.49e+00	0	53	104	0	59	19091
2026-01-15 09:45:59.45	155.79	3.47	-43.9	-58.4	3.8	1.49e+00	0	53	104	0	59	19154
2026-01-15 09:46:00.46	155.79	3.54	-44.0	-58.4	3.8	1.49e+00	0	53	104	0	59	19130
2026-01-15 09:46:01.47	155.78	3.61	-44.0	-58.4	3.8	1.49e+00	0	53	104	0	59	19089
2026-01-15 09:46:02.48	155.78	3.68	-44.0	-58.4	3.8	1.49e+00	0	53	104	0	59	19026
2026-01-15 09:46:03.49	155.77	3.75	-44.0	-58.4	3.8	1.49e+00	0	54	104	0	59	19042
2026-01-15 09:46:04.50	155.77	3.82	-44.0	-58.4	3.8	1.49e+00	0	53	104	0	59	19127
2026-01-15 09:46:05.51	155.76	3.89	-44.0	-58.4	3.8	1.49e+00	0	53	104	0	59	19079
2026-01-15 09:46:06.52	155.75	3.96	-44.0	-58.4	3.8	1.49e+00	0	54	104	0	59	19165
2026-01-15 09:46:07.52	155.75	4.03	-44.0	-58.4	3.8	1.49e+00	0	54	104	0	59	19061
2026-01-15 09:46:08.53	155.74	4.10	-44.0	-58.4	3.8	1.49e+00	0	54	104	0	59	19105
2026-01-15 09:46:09.55	155.74	4.17	-44.0	-58.4	3.8	1.49e+00	0	54	104	0	59	19118
2026-01-15 09:46:10.56	155.73	4.24	-44.0	-58.4	3.8	1.49e+00	0	54	104	0	59	19054
2026-01-15 09:46:11.57	155.72	4.31	-44.0	-58.4	3.8	1.49e+00	0	54	104	0	59	19028
2026-01-15 09:46:12.58	155.72	4.38	-44.0	-58.4	3.8	1.49e+00	0	54	104	0	59	19139
2026-01-15 09:46:13.59	155.71	4.45	-44.0	-58.4	3.8	1.49e+00	0	54	104	0	59	19100
2026-01-15 09:46:14.60	155.71	4.52	-44.0	-58.4	3.8	1.49e+00	0	54	104	0	59	19120
2026-01-15 09:46:15.61	155.70	4.59	-44.0	-58.4	3.8	1.49e+00	0	54	104	0	59	19067
2026-01-15 09:46:16.62	155.69	4.66	-44.0	-58.4	3.8	1.49e+00	0	54	104	0	59	19068
2026-01-15 09:46:17.63	155.69	4.73	-44.0	-58.4	3.8	1.49e+00	0	54	104	0	59	19105
2026-01-15 09:46:18.64	155.68	4.81	-44.0	-58.4	3.8	1.49e+00	0	54	104	0	59	19038
2026-01-15 09:46:19.65	155.67	4.88	-44.0	-58.4	3.8	1.49e+00	0	54	104	0	59	19052
2026-01-15 09:46:20.66	155.67	4.95	-44.0	-58.4	3.8	1.49e+00	0	54	104	0	59	18974
2026-01-15 09:46:21.67	155.66	5.02	-44.0	-58.4	3.8	1.49e+00	0	54	104	0	59	19001
2026-01-15 09:46:22.68	155.66	5.10	-44.0	-58.4	3.8	1.49e+00	0	55	104	0	59	18955
2026-01-15 09:46:23.69	155.65	5.17	-43.9	-58.4	3.8	1.49e+00	0	54	104	0	59	18993
2026-01-15 09:46:24.70	155.64	5.24	-44.0	-58.3	3.8	1.49e+00	0	55	104	0	59	18939
2026-01-15 09:46:25.71	155.64	5.31	-43.8	-58.4	3.8	1.49e+00	0	55	104	0	59	19015
2026-01-15 09:46:26.72	155.63	5.39	-44.0	-58.3	3.8	1.49e+00	0	54	104	0	59	18940
2026-01-15 09:46:27.73	155.62	5.46	-44.0	-58.3	3.8	1.49e+00	0	55	104	0	59	18896
2026-01-15 09:46:28.73	155.62	5.53	-44.0	-58.3	3.8	1.49e+00	0	55	104	0	59	18821
2026-01-15 09:46:29.75	155.61	5.61	-44.0	-58.3	3.8	1.49e+00	0	55	104	0	59	18791
2026-01-15 09:46:30.76	155.60	5.68	-44.0	-58.2	3.8	1.49e+00	0	55	104	0	59	18672
2026-01-15 09:46:31.77	155.60	5.76	-44.0	-58.1	3.8	1.49e+00	0	55	104	0	59	18398
2026-01-15 09:46:32.78	155.59	5.83	-43.9	-57.9	3.8	1.49e+00	0	55	104	0	59	18015
2026-01-15 09:46:33.79	155.58	5.91	-43.9	-57.7	3.8	1.49e+00	0	55	104	0	59	17653
2026-01-15 09:46:34.80	155.57	5.98	-43.9	-57.4	3.8	1.49e+00	0	55	104	0	59	16961
2026-01-15 09:46:35.81	155.57	6.06	-43.9	-57.0	3.8	1.49e+00	0	55	104	0	59	16151
2026-01-15 09:46:36.82	155.56	6.13	-43.9	-56.5	3.9	1.49e+00	0	55	104	0	59	15363
2026-01-15 09:46:37.83	155.55	6.21	-43.9	-56.2	3.8	1.49e+00	0	55	104	0	59	14876
2026-01-15 09:46:38.84	155.55	6.29	-43.8	-55.8	4.0	1.48e+00	0	55	104	0	59	14162
2026-01-15 09:46:39.84	155.54	6.36	-43.8	-55.7	4.0	1.47e+00	0	55	104	0	59	13932
2026-01-15 09:46:40.86	155.53	6.44	-43.8	-55.7	3.9	1.48e+00	0	55	104	0	59	14045
2026-01-15 09:46:41.87	155.52	6.52	-43.8	-56.0	4.0	1.48e+00	0	55	104	0	59	14379
2026-01-15 09:46:42.88	155.52	6.59	-43.9	-56.4	3.8	1.49e+00	0	55	104	0	59	15199
2026-01-15 09:46:43.89	155.51	6.67	-43.9	-56.7	3.8	1.49e+00	0	55	104	0	59	15621
2026-01-15 09:46:44.90	155.50	6.75	-43.9	-56.9	3.8	1.49e+00	0	56	104	0	59	15970
2026-01-15 09:46:45.91	155.49	6.82	-43.9	-57.2	3.8	1.49e+00	0	55	104	0	59	16513
2026-01-15 09:46:46.92	155.49	6.90	-43.9	-57.6	3.8	1.49e+00	0	56	104	0	59	17418
2026-01-15 09:46:47.93	155.48	6.98	-43.9	-58.0	3.8	1.49e+00	0	56	104	0	59	18285
2026-01-15 09:46:48.94	155.47	7.06	-44.0	-58.1	3.8	1.49e+00	0	56	104	0	59	18452
2026-01-15 09:46:49.95	155.46	7.14	-43.9	-58.0	3.8	1.49e+00	0	56	104	0	59	18102
2026-01-15 09:46:50.96	155.45	7.22	-43.9	-57.5	3.8	1.49e+00	0	56	104	0	59	17244
2026-01-15 09:46:51.97	155.45	7.30	-43.9	-56.8	3.8	1.49e+00	0	56	104	0	59	15907
2026-01-15 09:46:52.98	155.44	7.37	-43.8	-56.0	3.8	1.48e+00	0	56	104	0	59	14488
2026-01-15 09:46:53.98	155.43	7.45	-43.7	-54.9	4.2	1.45e+00	0	56	0	0	59	12714
2026-01-15 09:46:54.99	155.42	7.53	-43.6	-53.8	4.5	1.15e+00	0	56	0	1048576	59	11211
2026-01-15 09:46:56.00	155.41	7.61	-43.5	-52.9	5.0	8.31e-01	0	56	0	2097152	58	10678
2026-01-15 09:46:57.01	155.41	7.69	-43.4	-52.1	5.5	6.14e-01	0	56	0	4194304	58	9741
2026-01-15 09:46:58.02	155.40	7.77	-43.3	-51.3	6.0	3.81e-01	0	56	0	6291456	58	8919
2026-01-15 09:46:59.03	155.39	7.85	-43.2	-50.7	6.5	2.57e-01	0	56	0	8388608	58	8290
2026-01-15 09:47:00.03	155.38	7.94	-43.0	-50.1	7.0	2.00e-01	0	56	0	10485760	58	7798
2026-01-15 09:47:01.04	155.37	8.02	-43.0	-49.9	7.2	1.39e-01	0	56	0	11534336	57	8076
2026-01-15 09:47:02.05	155.36	8.10	-44.1	-55.7	4.1	1.42e+00	0	56	104	12582912	58	14858
2026-01-15 09:47:03.06	155.36	8.18	-43.9	-55.6	3.9	1.49e+00	0	56	104	12582912	58	14553
2026-01-15 09:47:04.07	155.35	8.26	-42.8	-49.1	8.0	5.42e-02	0	56	0	13631488	57	7354
2026-01-15 09:47:05.08	155.34	8.34	-44.2	-58.3	3.8	1.16e+00	0	56	104	14680064	58	20007
2026-01-15 09:47:06.09	155.33	8.43	-43.5	-54.8	4.2	5.70e-01	70	56	0	14680064	57	14142
2026-01-15 09:47:07.10	155.32	8.51	-42.7	-48.8	8.3	7.36e-02	0	56	0	16777216	57	7056
2026-01-15 09:47:08.11	155.31	8.59	-42.7	-48.8	8.4	4.89e-02	0	56	0	17825792	57	7053
2026-01-15 09:47:09.12	155.30	8.68	-42.6	-48.7	8.5	4.33e-02	0	56	0	19922944	57	6981
2026-01-15 09:47:10.13	155.29	8.76	-42.7	-48.7	8.4	4.23e-02	0	56	0	22020096	57	7034
2026-01-15 09:47:11.14	155.28	8.84	-42.6	-48.6	8.5	4.32e-02	0	57	0	24117248	57	6945
2026-01-15 09:47:12.15	155.28	8.93	-42.6	-48.5	8.7	4.00e-02	0	57	0	26214400	57	6840
2026-01-15 09:47:13.16	155.27	9.01	-42.6	-48.4	8.8	3.61e-02	0	57	0	27262976	57	6792
2026-01-15 09:47:14.17	155.26	9.10	-42.6	-48.3	8.9	2.74e-02	0	56	0	29360128	57	6675
2026-01-15 09:47:15.18	155.25	9.18	-42.6	-48.4	8.9	2.63e-02	0	57	0	31457280	56	7135
2026-01-15 09:47:16.19	155.24	9.27	-42.6	-48.2	9.1	2.64e-02	0	57	0	33554432	56	6995
2026-01-15 09:47:17.20	155.23	9.35	-42.6	-48.3	9.0	2.67e-02	0	56	0	35651584	56	7089
2026-01-15 09:47:18.21	155.22	9.44	-42.6	-48.3	9.0	2.67e-02	0	57	0	36700160	56	7043
2026-01-15 09:47:19.22	155.21	9.53	-42.6	-48.2	9.2	2.23e-02	0	57	0	38797312	56	6976
2026-01-15 09:47:20.23	155.20	9.61	-42.5	-48.1	9.3	2.01e-02	0	57	0	40894464	56	6892
2026-01-15 09:47:21.24	155.19	9.70	-42.5	-48.1	9.3	1.86e-02	0	57	0	42991616	56	6925
2026-01-15 09:47:22.25	155.18	9.79	-42.6	-48.1	9.3	2.01e-02	0	57	0	45088768	56	6904
2026-01-15 09:47:23.26	155.17	9.88	-42.6	-48.1	9.3	1.77e-02	0	57	0	47185920	56	6939
2026-01-15 09:47:24.27	155.16	9.96	-42.6	-48.0	9.4	1.60e-02	0	57	0	48234496	56	6876
2026-01-15 09:47:25.28	155.15	10.05	-42.6	-48.0	9.5	1.56e-02	0	57	0	50331648	56	6836
2026-01-15 09:47:26.29	155.14	10.14	-42.6	-48.0	9.4	1.48e-02	0	57	0	52428800	56	6833
2026-01-15 09:47:27.30	155.13	10.23	-42.6	-48.0	9.5	1.48e-02	0	57	0	54525952	56	6847
2026-01-15 09:47:28.31	155.12	10.32	-42.6	-48.0	9.5	1.45e-02	0	57	0	56623104	56	6824
2026-01-15 09:47:29.32	155.11	10.41	-42.6	-47.9	9.5	1.39e-02	0	57	0	57671680	56	6791
2026-01-15 09:47:30.32	155.10	10.50	-42.6	-47.8	9.6	1.22e-02	0	57	0	59768832	56	6713
2026-01-15 09:47:31.33	155.09	10.59	-42.6	-47.9	9.6	1.19e-02	0	57	0	61865984	56	6743
2026-01-15 09:47:32.34	155.08	10.68	-42.6	-47.8	9.7	1.12e-02	0	57	0	63963136	56	6719
2026-01-15 09:47:33.35	155.07	10.77	-42.6	-47.8	9.7	1.13e-02	0	57	0	66060288	56	6698
2026-01-15 09:47:34.36	155.05	10.86	-42.6	-47.8	9.8	1.11e-02	0	57	0	67108864	56	6667
2026-01-15 09:47:35.37	155.04	10.95	-42.6	-47.7	9.8	1.13e-02	0	57	0	69206016	56	6636
2026-01-15 09:47:36.37	155.03	11.04	-42.6	-47.7	9.8	1.00e-02	0	57	0	71303168	56	6636
2026-01-15 09:47:37.38	155.02	11.13	-42.5	-47.6	10.0	9.42e-03	0	57	0	73400320	56	6550
2026-01-15 09:47:38.39	155.01	11.23	-42.6	-47.7	9.8	9.50e-03	0	57	0	75497472	56	6633
2026-01-15 09:47:39.40	155.00	11.32	-42.6	-47.7	9.9	8.77e-03	0	57	0	76546048	56	6615
2026-01-15 09:47:40.41	154.99	11.41	-42.6	-47.6	10.0	8.29e-03	0	57	0	78643200	56	6546
2026-01-15 09:47:41.41	154.98	11.51	-42.6	-47.6	10.0	7.74e-03	0	57	0	80740352	56	6551
2026-01-15 09:47:42.42	154.96	11.60	-42.5	-47.6	10.0	7.88e-03	0	57	0	82837504	56	6537
2026-01-15 09:47:43.43	154.95	11.69	-42.5	-47.6	10.0	7.24e-03	0	57	0	84934656	56	6517
2026-01-15 09:47:44.44	154.94	11.79	-42.6	-47.6	10.1	7.41e-03	0	57	0	85983232	56	6512
2026-01-15 09:47:45.45	154.93	11.88	-42.6	-47.6	10.1	6.76e-03	0	58	0	88080384	56	6534
2026-01-15 09:47:46.46	154.92	11.98	-42.5	-47.5	10.2	6.42e-03	0	57	0	90177536	56	6451
2026-01-15 09:47:47.47	154.91	12.07	-42.6	-47.6	10.1	6.35e-03	0	57	0	92274688	56	6512
2026-01-15 09:47:48.48	154.89	12.17	-42.5	-47.5	10.2	5.86e-03	0	57	0	94371840	56	6443
2026-01-15 09:47:49.49	154.88	12.27	-42.5	-47.4	10.3	5.71e-03	0	57	0	95420416	56	6408
2026-01-15 09:47:50.50	154.87	12.36	-42.5	-47.4	10.3	5.52e-03	0	58	0	97517568	56	6368
2026-01-15 09:47:51.51	154.86	12.46	-42.5	-47.4	10.3	5.54e-03	0	58	0	99614720	56	6412
2026-01-15 09:47:52.52	154.84	12.56	-42.6	-47.5	10.3	5.02e-03	0	58	0	101711872	56	6430
2026-01-15 09:47:53.53	154.83	12.66	-42.5	-47.3	10.4	4.49e-03	0	58	0	103809024	56	6338
2026-01-15 09:47:54.54	154.82	12.76	-42.5	-47.4	10.3	5.21e-03	0	58	0	104857600	56	6409
2026-01-15 09:47:55.55	154.81	12.85	-42.5	-47.4	10.4	4.89e-03	0	58	0	106954752	56	6367
2026-01-15 09:47:56.56	154.79	12.95	-42.5	-47.4	10.4	4.32e-03	0	58	0	109051904	56	6368
2026-01-15 09:47:57.57	154.78	13.05	-42.5	-47.3	10.5	4.15e-03	0	58	0	111149056	56	6289
2026-01-15 09:47:58.57	154.77	13.15	-42.5	-47.3	10.5	4.42e-03	0	58	0	113246208	56	6321
2026-01-15 09:47:59.58	154.75	13.25	-42.5	-47.3	10.5	4.15e-03	0	58	0	114294784	56	6325
2026-01-15 09:48:00.59	154.74	13.35	-42.5	-47.3	10.5	3.95e-03	0	58	0	116391936	56	6310
2026-01-15 09:48:01.60	154.73	13.45	-42.5	-47.2	10.6	3.69e-03	0	58	0	118489088	56	6226
2026-01-15 09:48:02.61	154.71	13.56	-42.5	-47.2	10.6	3.27e-03	0	58	0	120586240	56	6254
2026-01-15 09:48:03.62	154.70	13.66	-42.5	-47.1	10.7	3.36e-03	0	58	0	122683392	56	6201
2026-01-15 09:48:04.63	154.69	13.76	-42.5	-47.2	10.7	2.70e-03	0	58	0	123731968	56	6205
2026-01-15 09:48:05.64	154.67	13.86	-42.5	-47.1	10.8	2.87e-03	0	58	0	125829120	56	6170
2026-01-15 09:48:06.65	154.66	13.97	-42.5	-47.1	10.8	2.84e-03	0	58	0	127926272	56	6167
2026-01-15 09:48:07.66	154.64	14.07	-42.5	-47.1	10.8	2.57e-03	0	58	0	130023424	56	6176
2026-01-15 09:48:08.67	154.63	14.18	-42.5	-47.1	10.8	2.50e-03	0	58	0	132120576	56	6180
2026-01-15 09:48:09.68	154.62	14.28	-42.5	-47.1	10.8	2.54e-03	0	58	0	134217728	56	6148
2026-01-15 09:48:10.69	154.60	14.39	-42.5	-47.1	10.9	2.33e-03	0	58	0	135266304	56	6133
2026-01-15 09:48:11.70	154.59	14.49	-42.5	-47.0	11.0	2.11e-03	0	58	0	137363456	56	6062
2026-01-15 09:48:12.71	154.57	14.60	-42.4	-46.9	11.0	2.06e-03	0	58	0	139460608	56	6052
2026-01-15 09:48:13.72	154.56	14.70	-42.4	-47.0	11.0	1.97e-03	0	58	0	141557760	56	6062
2026-01-15 09:48:14.72	154.54	14.81	-42.5	-47.0	11.0	1.96e-03	0	58	0	143654912	56	6091
2026-01-15 09:48:15.73	154.53	14.92	-42.5	-47.0	11.0	1.88e-03	0	58	0	144703488	56	6079
2026-01-15 09:48:16.74	154.51	15.03	-42.5	-47.0	11.0	1.80e-03	0	58	0	146800640	56	6088
2026-01-15 09:48:17.75	154.50	15.13	-42.5	-46.9	11.1	1.76e-03	0	58	0	148897792	56	6049
2026-01-15 09:48:18.76	154.48	15.24	-42.5	-46.9	11.1	1.56e-03	0	58	0	150994944	56	6040
2026-01-15 09:48:19.77	154.46	15.35	-42.4	-46.8	11.3	1.36e-03	0	58	0	153092096	56	5930
2026-01-15 09:48:20.77	154.45	15.46	-42.4	-46.7	11.3	1.30e-03	0	58	0	154140672	56	5894
2026-01-15 09:48:21.78	154.43	15.57	-42.4	-46.7	11.4	9.96e-04	0	58	0	156237824	56	5860
2026-01-15 09:48:22.79	154.42	15.68	-42.3	-46.6	11.4	8.77e-04	0	58	0	158334976	56	5827
2026-01-15 09:48:23.80	154.40	15.80	-42.3	-46.6	11.5	8.69e-04	0	58	0	160432128	56	5792
2026-01-15 09:48:24.81	154.38	15.91	-42.3	-46.5	11.5	7.56e-04	0	58	0	162529280	56	5785
2026-01-15 09:48:25.82	154.37	16.02	-42.3	-46.5	11.5	6.42e-04	0	58	0	163577856	56	5786
2026-01-15 09:48:26.83	154.35	16.13	-42.3	-46.4	11.7	6.90e-04	0	58	0	165675008	56	5688
2026-01-15 09:48:27.84	154.33	16.25	-42.3	-46.4	11.8	5.52e-04	0	58	0	167772160	56	5661
2026-01-15 09:48:28.85	154.32	16.36	-42.3	-46.4	11.8	5.02e-04	0	58	0	169869312	56	5672
2026-01-15 09:48:29.86	154.30	16.48	-42.2	-46.3	11.9	4.07e-04	0	58	0	171966464	56	5617
2026-01-15 09:48:30.87	154.28	16.59	-42.2	-46.3	11.9	3.94e-04	0	58	0	173015040	56	5606
2026-01-15 09:48:31.88	154.27	16.71	-42.2	-46.3	11.9	3.81e-04	0	58	0	175112192	56	5600
2026-01-15 09:48:32.89	154.25	16.82	-42.2	-46.2	11.9	3.84e-04	0	58	0	177209344	56	5590
2026-01-15 09:48:33.90	154.23	16.94	-42.2	-46.2	12.0	3.75e-04	0	58	0	179306496	56	5559
2026-01-15 09:48:34.90	154.21	17.06	-42.2	-46.2	11.9	3.99e-04	0	58	0	181403648	56	5569
2026-01-15 09:48:35.91	154.20	17.17	-42.2	-46.3	11.9	3.97e-04	0	58	0	182452224	56	5598
2026-01-15 09:48:36.92	154.18	17.29	-42.2	-46.2	12.1	3.32e-04	0	58	0	184549376	56	5541
2026-01-15 09:48:37.93	154.16	17.41	-42.2	-46.2	12.0	3.13e-04	0	58	0	186646528	56	5546
2026-01-15 09:48:38.94	154.14	17.53	-42.1	-46.1	12.2	2.66e-04	0	58	0	188743680	56	5466
2026-01-15 09:48:39.95	154.12	17.65	-42.1	-46.0	12.2	1.99e-04	0	58	0	190840832	56	5454
2026-01-15 09:48:40.96	154.10	17.77	-42.1	-46.0	12.3	1.77e-04	0	59	0	191889408	56	5423
2026-01-15 09:48:41.96	154.08	17.89	-42.1	-45.9	12.4	1.50e-04	0	58	0	193986560	56	5383
2026-01-15 09:48:42.98	154.06	18.02	-42.1	-45.9	12.4	1.62e-04	0	59	0	196083712	56	5348
2026-01-15 09:48:43.98	154.05	18.14	-42.1	-45.9	12.4	1.55e-04	0	58	0	198180864	56	5364
2026-01-15 09:48:44.99	154.03	18.26	-42.1	-45.8	12.4	1.24e-04	0	58	0	200278016	56	5334
2026-01-15 09:48:46.00	154.01	18.38	-42.1	-45.9	12.4	1.22e-04	0	59	0	202375168	56	5360
2026-01-15 09:48:47.01	153.99	18.51	-42.1	-45.9	12.4	1.34e-04	0	59	0	203423744	56	5347
2026-01-15 09:48:48.02	153.97	18.63	-42.1	-45.8	12.5	1.25e-04	0	59	0	205520896	56	5329
2026-01-15 09:48:49.03	153.95	18.76	-42.0	-45.8	12.5	1.25e-04	0	58	0	207618048	56	5306
2026-01-15 09:48:50.04	153.93	18.89	-42.0	-45.8	12.5	1.07e-04	0	59	0	209715200	56	5292
2026-01-15 09:48:51.05	153.90	19.01	-42.0	-45.8	12.5	9.99e-05	0	59	0	211812352	56	5297
2026-01-15 09:48:52.06	153.88	19.14	-42.0	-45.7	12.6	9.23e-05	0	58	0	212860928	56	5261
2026-01-15 09:48:53.07	153.86	19.27	-42.0	-45.7	12.7	9.07e-05	0	59	0	214958080	56	5240
2026-01-15 09:48:54.08	153.84	19.40	-41.8	-45.5	12.7	8.08e-05	0	59	0	217055232	55	5432
2026-01-15 09:48:55.09	153.82	19.53	-41.8	-45.4	12.8	7.40e-05	0	58	0	219152384	55	5382
2026-01-15 09:48:56.10	153.80	19.66	-41.8	-45.3	12.9	5.18e-05	0	59	0	220200960	55	5325
2026-01-15 09:48:57.11	153.78	19.79	-41.7	-45.3	12.9	3.89e-05	0	59	0	222298112	55	5301
2026-01-15 09:48:58.12	153.75	19.92	-41.7	-45.2	13.0	4.27e-05	0	59	0	224395264	55	5257
2026-01-15 09:48:59.13	153.73	20.05	-41.7	-45.3	12.9	3.20e-05	0	58	0	226492416	55	5286
2026-01-15 09:49:00.14	153.71	20.19	-41.7	-45.2	13.0	3.73e-05	0	59	0	228589568	55	5270
2026-01-15 09:49:01.15	153.69	20.32	-41.7	-45.3	13.0	4.50e-05	0	59	0	230686720	55	5288
2026-01-15 09:49:02.16	153.66	20.45	-41.7	-45.3	12.9	4.42e-05	0	59	0	231735296	55	5306
2026-01-15 09:49:03.17	153.64	20.59	-41.7	-45.2	13.0	3.73e-05	0	59	0	233832448	55	5263
2026-01-15 09:49:04.18	153.62	20.72	-41.7	-45.1	13.1	2.89e-05	0	59	0	235929600	55	5207
2026-01-15 09:49:05.19	153.59	20.86	-41.6	-45.0	13.2	3.12e-05	0	59	0	238026752	55	5154
2026-01-15 09:49:06.20	153.57	21.00	-41.6	-45.0	13.2	2.36e-05	0	59	0	240123904	55	5122
2026-01-15 09:49:07.20	153.55	21.14	-41.6	-45.0	13.2	2.28e-05	0	59	0	241172480	55	5151
2026-01-15 09:49:08.21	153.52	21.27	-41.5	-44.9	13.3	1.75e-05	0	59	0	243269632	55	5079
2026-01-15 09:49:09.22	153.50	21.41	-41.5	-44.9	13.4	2.05e-05	0	59	0	245366784	55	5067
2026-01-15 09:49:10.23	153.47	21.56	-41.5	-44.9	13.4	2.21e-05	0	59	0	247463936	55	5045
2026-01-15 09:49:11.24	153.45	21.70	-41.5	-44.9	13.4	9.10e-06	0	59	0	249561088	55	5048
2026-01-15 09:49:12.26	153.42	21.84	-41.5	-44.9	13.4	1.14e-05	0	59	0	250609664	55	5042
2026-01-15 09:49:13.27	153.39	21.98	-41.6	-44.9	13.3	1.37e-05	0	59	0	252706816	55	5076
2026-01-15 09:49:14.27	153.37	22.12	-41.6	-44.9	13.3	1.52e-05	0	59	0	254803968	55	5074
2026-01-15 09:49:15.28	153.34	22.27	-41.7	-45.1	13.2	1.83e-05	0	59	0	256901120	55	5190
2026-01-15 09:49:16.29	153.32	22.41	-41.7	-45.1	13.1	2.51e-05	0	59	0	258998272	55	5185
2026-01-15 09:49:17.30	153.29	22.56	-41.7	-45.2	13.1	2.74e-05	0	59	0	260046848	55	5236
2026-01-15 09:49:18.31	153.26	22.71	-41.7	-45.2	13.1	4.34e-05	0	59	0	262144000	55	5245
2026-01-15 09:49:19.32	153.24	22.86	-41.7	-45.2	13.1	3.58e-05	0	59	0	264241152	55	5234
2026-01-15 09:49:20.33	153.21	23.00	-41.7	-45.3	13.0	3.43e-05	0	59	0	266338304	55	5282
2026-01-15 09:49:21.33	153.18	23.15	-41.8	-45.3	13.0	3.66e-05	0	59	0	268435456	55	5305
2026-01-15 09:49:22.34	153.15	23.30	-41.8	-45.3	13.0	3.43e-05	0	59	0	269484032	55	5297
2026-01-15 09:49:23.35	153.12	23.45	-41.8	-45.4	12.9	4.80e-05	0	59	0	271581184	55	5372
2026-01-15 09:49:24.36	153.09	23.61	-41.8	-45.4	12.9	4.42e-05	0	59	0	273678336	55	5367
2026-01-15 09:49:25.37	153.07	23.76	-41.8	-45.4	12.9	4.57e-05	0	59	0	275775488	55	5354
2026-01-15 09:49:26.38	153.04	23.91	-41.9	-45.5	12.8	4.88e-05	0	59	0	277872640	55	5410
2026-01-15 09:49:27.39	153.01	24.07	-41.9	-45.5	12.8	6.40e-05	0	59	0	278921216	55	5436
2026-01-15 09:49:28.40	152.98	24.22	-41.9	-45.5	12.7	7.17e-05	0	59	0	281018368	55	5459
2026-01-15 09:49:29.41	152.95	24.38	-41.9	-45.6	12.7	9.07e-05	0	59	0	283115520	55	5484
2026-01-15 09:49:30.41	152.92	24.54	-41.9	-45.6	12.7	7.47e-05	0	59	0	285212672	55	5497
2026-01-15 09:49:31.42	152.88	24.69	-42.0	-45.6	12.7	7.24e-05	0	59	0	287309824	55	5503
2026-01-15 09:49:32.43	152.85	24.85	-41.9	-45.5	12.8	7.40e-05	0	59	0	288358400	55	5436
2026-01-15 09:49:33.44	152.82	25.01	-41.9	-45.5	12.8	7.24e-05	0	59	0	290455552	55	5420
2026-01-15 09:49:34.44	152.79	25.17	-41.9	-45.5	12.8	5.64e-05	0	59	0	292552704	55	5441
2026-01-15 09:49:35.45	152.76	25.34	-41.9	-45.6	12.7	5.79e-05	0	59	0	294649856	55	5468
2026-01-15 09:49:36.46	152.72	25.50	-41.9	-45.5	12.8	7.55e-05	0	59	0	296747008	55	5450
2026-01-15 09:49:37.47	152.69	25.66	-42.0	-45.5	12.7	6.86e-05	0	59	0	298844160	55	5463
2026-01-15 09:49:38.48	152.66	25.83	-42.0	-45.7	12.6	9.23e-05	0	59	0	299892736	55	5553
2026-01-15 09:49:39.49	152.62	25.99	-42.1	-45.8	12.5	1.06e-04	0	59	0	301989888	55	5638
2026-01-15 09:49:40.49	152.59	26.16	-42.1	-45.8	12.5	1.19e-04	0	59	0	304087040	55	5655
2026-01-15 09:49:41.50	152.55	26.33	-42.2	-46.0	12.3	1.74e-04	0	59	0	306184192	55	5751
2026-01-15 09:49:42.51	152.52	26.50	-42.3	-46.2	12.1	2.64e-04	0	59	0	308281344	55	5899
2026-01-15 09:49:43.52	152.48	26.67	-42.3	-46.3	12.0	3.15e-04	0	59	0	309329920	55	5949
2026-01-15 09:49:44.53	152.45	26.84	-42.4	-46.4	11.9	3.60e-04	0	59	0	311427072	55	6014
2026-01-15 09:49:45.55	152.41	27.01	-42.4	-46.4	11.9	4.42e-04	0	59	0	313524224	55	6029
2026-01-15 09:49:46.56	152.37	27.19	-42.4	-46.4	11.8	4.48e-04	0	59	0	315621376	55	6051
2026-01-15 09:49:47.57	152.34	27.36	-42.4	-46.4	11.9	4.05e-04	0	59	0	317718528	55	6043
2026-01-15 09:49:48.58	152.30	27.54	-42.4	-46.4	11.9	4.03e-04	0	59	0	318767104	55	5997
2026-01-15 09:49:49.59	152.26	27.72	-42.4	-46.3	11.9	3.93e-04	0	59	0	320864256	55	5983
2026-01-15 09:49:50.60	152.22	27.89	-42.4	-46.4	11.9	4.16e-04	0	59	0	322961408	55	5998
2026-01-15 09:49:51.61	152.18	28.07	-42.4	-46.5	11.8	4.71e-04	0	59	0	325058560	55	6110
2026-01-15 09:49:52.62	152.14	28.25	-42.5	-46.7	11.6	5.88e-04	0	59	0	327155712	55	6213
2026-01-15 09:49:53.63	152.10	28.44	-42.6	-46.8	11.5	8.26e-04	0	59	0	328204288	55	6296
2026-01-15 09:49:54.64	152.06	28.62	-42.7	-47.1	11.1	1.15e-03	0	59	0	330301440	55	6536
2026-01-15 09:49:55.65	152.02	28.80	-43.0	-47.6	10.8	1.91e-03	0	59	0	332398592	56	6539
2026-01-15 09:49:56.66	151.98	28.99	-43.1	-47.7	10.7	2.94e-03	0	59	0	334495744	56	6637
2026-01-15 09:49:57.67	151.94	29.17	-43.1	-47.9	10.5	3.55e-03	0	59	0	336592896	56	6757
2026-01-15 09:49:58.68	151.90	29.36	-43.2	-48.0	10.4	4.28e-03	0	59	0	337641472	56	6824
2026-01-15 09:49:59.69	151.85	29.55	-43.2	-48.0	10.4	4.59e-03	0	59	0	339738624	56	6856
2026-01-15 09:50:00.69	151.81	29.74	-43.2	-48.0	10.4	5.35e-03	0	59	0	341835776	57	6475
2026-01-15 09:50:01.70	151.77	29.93	-43.2	-48.1	10.3	5.31e-03	0	59	0	343932928	57	6547
2026-01-15 09:50:02.72	151.72	30.12	-43.3	-48.3	10.1	6.28e-03	0	59	0	346030080	57	6648
2026-01-15 09:50:03.72	151.68	30.32	-43.4	-48.5	9.9	8.35e-03	0	59	0	347078656	57	6832
2026-01-15 09:50:04.74	151.63	30.51	-43.4	-48.6	9.8	8.42e-03	0	59	0	349175808	57	6918
2026-01-15 09:50:05.74	151.58	30.71	-43.4	-48.7	9.7	1.07e-02	0	59	0	351272960	57	6967
2026-01-15 09:50:06.75	151.54	30.91	-43.5	-48.8	9.5	1.44e-02	0	59	0	353370112	57	7120
2026-01-15 09:50:07.76	151.49	31.11	-43.6	-49.1	9.3	1.67e-02	0	59	0	355467264	57	7289
2026-01-15 09:50:08.77	151.44	31.31	-43.6	-49.2	9.2	2.01e-02	0	59	0	356515840	57	7387
2026-01-15 09:50:09.78	151.39	31.51	-43.7	-49.3	9.0	2.43e-02	0	59	0	358612992	57	7524
2026-01-15 09:50:10.79	151.34	31.71	-43.7	-49.3	9.0	2.68e-02	0	59	0	360710144	57	7503
2026-01-15 09:50:11.80	151.29	31.92	-43.7	-49.4	9.0	2.68e-02	0	59	0	362807296	57	7587
2026-01-15 09:50:12.81	151.24	32.12	-43.8	-49.6	8.8	2.80e-02	0	59	0	364904448	58	7315
2026-01-15 09:50:13.82	151.19	32.33	-43.8	-49.5	8.8	3.03e-02	0	59	0	367001600	58	7275
2026-01-15 09:50:14.83	151.14	32.54	-43.8	-49.7	8.6	3.52e-02	0	59	0	368050176	58	7455
2026-01-15 09:50:15.84	151.08	32.75	-43.9	-49.8	8.5	3.53e-02	0	59	0	370147328	58	7515
2026-01-15 09:50:16.84	151.03	32.96	-43.9	-49.9	8.4	4.14e-02	0	59	0	372244480	58	7619
2026-01-15 09:50:17.85	150.98	33.17	-43.9	-49.8	8.5	4.53e-02	0	59	0	374341632	58	7532
2026-01-15 09:50:18.86	150.92	33.39	-43.9	-49.8	8.5	4.15e-02	0	59	0	376438784	58	7510
2026-01-15 09:50:19.87	150.87	33.60	-43.8	-49.8	8.6	3.92e-02	0	60	0	377487360	58	7460
2026-01-15 09:50:20.88	150.81	33.82	-43.8	-49.6	8.7	3.62e-02	0	59	0	379584512	58	7350
2026-01-15 09:50:21.89	150.75	34.04	-43.8	-49.6	8.8	3.30e-02	0	59	0	381681664	58	7324
2026-01-15 09:50:22.90	150.69	34.26	-43.7	-49.3	9.1	2.62e-02	0	59	0	383778816	58	7114
2026-01-15 09:50:23.91	150.63	34.48	-43.7	-49.3	9.1	2.38e-02	0	59	0	385875968	58	7076
2026-01-15 09:50:24.92	150.57	34.70	-43.6	-49.1	9.4	1.96e-02	0	59	0	386924544	58	6887
2026-01-15 09:50:25.93	150.51	34.93	-43.5	-48.8	9.5	1.43e-02	0	59	0	389021696	58	6719
2026-01-15 09:50:26.94	150.45	35.16	-43.4	-48.6	9.8	1.27e-02	0	59	0	391118848	58	6519
2026-01-15 09:50:27.94	150.39	35.38	-43.4	-48.5	10.0	9.19e-03	0	59	0	393216000	58	6454
2026-01-15 09:50:28.96	150.32	35.62	-43.3	-48.2	10.2	6.98e-03	0	59	0	395313152	58	6243
2026-01-15 09:50:29.97	150.26	35.85	-43.1	-47.8	10.7	4.43e-03	0	59	0	396361728	58	5936
2026-01-15 09:50:30.98	150.19	36.08	-43.1	-47.6	10.9	2.76e-03	0	59	0	398458880	58	5800
2026-01-15 09:50:31.98	150.13	36.31	-42.9	-47.2	11.3	1.64e-03	0	59	0	400556032	57	5894
2026-01-15 09:50:32.99	150.06	36.55	-42.8	-46.9	11.6	6.89e-04	0	60	0	402653184	57	5712
2026-01-15 09:50:34.00	149.99	36.79	-42.8	-46.9	11.6	7.03e-04	0	60	0	404750336	57	5709
2026-01-15 09:50:35.01	149.92	37.03	-42.9	-47.2	11.3	7.68e-04	0	59	0	405798912	57	5911
2026-01-15 09:50:36.02	149.85	37.27	-42.8	-47.0	11.5	7.98e-04	0	59	0	407896064	57	5760
2026-01-15 09:50:37.03	149.78	37.51	-42.7	-46.8	11.7	7.00e-04	0	59	0	409993216	57	5638
2026-01-15 09:50:38.04	149.71	37.76	-42.7	-46.8	11.6	6.89e-04	0	59	0	412090368	57	5640
2026-01-15 09:50:39.05	149.63	38.01	-42.7	-46.8	11.7	6.05e-04	0	59	0	414187520	57	5599
2026-01-15 09:50:40.06	149.56	38.25	-42.7	-46.8	11.7	5.00e-04	0	59	0	415236096	57	5647
2026-01-15 09:50:41.07	149.48	38.51	-42.7	-46.8	11.7	6.26e-04	0	59	0	417333248	57	5650
2026-01-15 09:50:42.08	149.40	38.76	-42.8	-47.0	11.5	6.77e-04	0	59	0	419430400	57	5770
2026-01-15 09:50:43.09	149.32	39.01	-42.9	-47.3	11.2	9.99e-04	0	59	0	421527552	57	5951
2026-01-15 09:50:44.10	149.24	39.27	-43.1	-47.6	10.9	1.86e-03	0	59	0	423624704	57	6182
2026-01-15 09:50:45.11	149.16	39.53	-43.2	-47.9	10.6	3.07e-03	0	59	0	424673280	57	6365
2026-01-15 09:50:46.12	149.08	39.79	-43.3	-48.1	10.4	3.72e-03	0	59	0	426770432	57	6518
2026-01-15 09:50:47.13	148.99	40.05	-43.3	-48.2	10.3	4.54e-03	0	59	0	428867584	57	6580
2026-01-15 09:50:48.14	148.91	40.31	-43.3	-48.1	10.3	5.32e-03	0	59	0	430964736	57	6560
2026-01-15 09:50:49.14	148.82	40.57	-43.3	-48.2	10.3	5.92e-03	0	59	0	433061888	57	6591
2026-01-15 09:50:50.15	148.73	40.84	-43.3	-48.2	10.3	5.78e-03	0	60	0	434110464	57	6605
2026-01-15 09:50:51.16	148.64	41.11	-43.2	-47.9	10.5	5.09e-03	0	59	0	436207616	57	6416
2026-01-15 09:50:52.17	148.55	41.38	-43.3	-48.1	10.4	4.60e-03	0	59	0	438304768	57	6541
2026-01-15 09:50:53.18	148.46	41.65	-43.3	-48.1	10.3	5.39e-03	0	59	0	440401920	57	6563
2026-01-15 09:50:54.19	148.36	41.93	-43.3	-48.2	10.3	5.08e-03	0	60	0	442499072	57	6576
2026-01-15 09:50:55.20	148.26	42.20	-43.4	-48.3	10.1	6.12e-03	0	59	0	443547648	57	6720
2026-01-15 09:50:56.21	148.16	42.48	-43.5	-48.5	9.9	7.50e-03	0	59	0	445644800	57	6867
2026-01-15 09:50:57.21	148.07	42.76	-43.5	-48.5	9.9	7.70e-03	0	60	0	447741952	57	6874
2026-01-15 09:50:58.22	147.96	43.04	-43.5	-48.6	9.9	8.84e-03	0	59	0	449839104	57	6896
2026-01-15 09:50:59.23	147.86	43.33	-43.5	-48.6	9.8	9.87e-03	0	59	0	451936256	57	6918
2026-01-15 09:51:00.24	147.75	43.62	-43.6	-48.8	9.7	1.07e-02	0	60	0	452984832	57	7048
2026-01-15 09:51:01.25	147.65	43.90	-43.7	-49.1	9.3	1.80e-02	0	59	0	455081984	57	7352
2026-01-15 09:51:02.26	147.54	44.20	-43.8	-49.3	9.2	2.11e-02	0	60	0	457179136	58	7082
2026-01-15 09:51:03.27	147.42	44.49	-43.8	-49.3	9.1	2.29e-02	0	60	0	459276288	58	7087
2026-01-15 09:51:04.27	147.31	44.78	-43.7	-49.0	9.4	1.84e-02	0	60	0	461373440	58	6848
2026-01-15 09:51:05.28	147.19	45.08	-43.6	-48.8	9.7	1.39e-02	0	59	0	463470592	58	6682
2026-01-15 09:51:06.29	147.07	45.38	-43.6	-48.8	9.7	1.32e-02	0	60	0	464519168	58	6698
2026-01-15 09:51:07.30	146.95	45.68	-43.6	-48.7	9.6	1.23e-02	0	60	0	466616320	58	6632
2026-01-15 09:51:08.30	146.83	45.98	-43.5	-48.6	9.9	9.64e-03	0	60	0	468713472	58	6511
2026-01-15 09:51:09.31	146.71	46.28	-43.4	-48.3	10.1	6.56e-03	0	60	0	470810624	58	6337
2026-01-15 09:51:10.32	146.58	46.59	-43.4	-48.4	10.1	7.23e-03	0	60	0	472907776	58	6349
2026-01-15 09:51:11.33	146.45	46.90	-43.5	-48.6	9.8	8.62e-03	0	60	0	473956352	58	6549
2026-01-15 09:51:12.34	146.31	47.21	-43.8	-49.3	9.2	1.56e-02	0	60	0	476053504	58	7083
2026-01-15 09:51:13.34	146.18	47.52	-43.9	-49.7	8.7	3.21e-02	0	59	0	478150656	58	7429
2026-01-15 09:51:14.35	146.04	47.84	-43.9	-49.9	8.6	3.58e-02	0	60	0	480247808	58	7564
2026-01-15 09:51:15.36	145.90	48.16	-44.0	-50.0	8.4	4.09e-02	0	59	0	482344960	58	7682
2026-01-15 09:51:16.37	145.75	48.48	-43.9	-49.8	8.5	4.28e-02	0	60	0	483393536	58	7541
2026-01-15 09:51:17.38	145.60	48.80	-43.9	-49.7	8.7	3.82e-02	0	59	0	485490688	58	7413
2026-01-15 09:51:18.39	145.45	49.13	-43.7	-49.2	9.1	2.53e-02	0	60	0	487587840	58	7038
2026-01-15 09:51:19.40	145.30	49.45	-43.5	-48.6	9.8	1.45e-02	0	59	0	489684992	58	6560
2026-01-15 09:51:20.41	145.14	49.78	-43.4	-48.2	10.2	8.29e-03	0	60	0	491782144	58	6237
2026-01-15 09:51:21.42	144.98	50.11	-43.2	-47.8	10.6	3.46e-03	0	60	0	492830720	58	5971
2026-01-15 09:51:22.43	144.81	50.45	-43.0	-47.3	11.2	1.82e-03	0	60	0	494927872	58	5615
2026-01-15 09:51:23.44	144.64	50.78	-42.6	-46.6	11.9	9.91e-04	0	60	0	497025024	57	5482
2026-01-15 09:51:24.44	144.47	51.12	-42.5	-46.2	12.4	2.64e-04	0	60	0	499122176	56	5589
2026-01-15 09:51:25.45	144.29	51.46	-42.3	-45.9	12.7	8.85e-05	0	59	0	501219328	56	5353
2026-01-15 09:51:26.46	144.11	51.80	-42.1	-45.5	13.1	6.48e-05	0	60	0	502267904	56	5117
2026-01-15 09:51:27.47	143.93	52.14	-41.7	-45.0	13.4	2.51e-05	0	60	0	504365056	55	5119
2026-01-15 09:51:28.48	143.74	52.49	-41.7	-44.9	13.6	9.10e-06	0	60	0	506462208	55	5055
2026-01-15 09:51:29.49	143.54	52.84	-41.5	-44.6	13.8	3.00e-06	0	60	0	508559360	55	4903
2026-01-15 09:51:30.50	143.34	53.19	-41.6	-44.8	13.7	4.50e-06	0	60	0	510656512	55	4995
2026-01-15 09:51:31.51	143.14	53.54	-41.8	-45.1	13.3	1.14e-05	0	60	0	511705088	55	5188
2026-01-15 09:51:32.52	142.93	53.90	-41.9	-45.2	13.2	2.28e-05	0	60	0	513802240	55	5248
2026-01-15 09:51:33.53	142.71	54.25	-41.8	-45.2	13.2	2.44e-05	0	60	0	515899392	55	5221
2026-01-15 09:51:34.53	142.50	54.61	-41.9	-45.2	13.2	2.28e-05	0	59	0	517996544	55	5254
2026-01-15 09:51:35.54	142.27	54.97	-42.0	-45.5	12.9	3.20e-05	0	60	0	520093696	55	5445
2026-01-15 09:51:36.55	142.04	55.33	-42.3	-46.0	12.4	8.69e-05	0	60	0	521142272	55	5747
2026-01-15 09:51:37.56	141.80	55.70	-42.4	-46.3	12.1	2.80e-04	0	60	0	523239424	55	5958
2026-01-15 09:51:38.57	141.56	56.06	-42.5	-46.5	11.9	3.28e-04	0	60	0	525336576	55	6076
2026-01-15 09:51:39.57	141.31	56.43	-42.6	-46.7	11.7	5.31e-04	0	60	0	527433728	55	6227
2026-01-15 09:51:40.58	141.05	56.80	-42.9	-47.2	11.3	7.71e-04	0	60	0	529530880	56	6230
2026-01-15 09:51:41.59	140.79	57.17	-43.0	-47.3	11.2	1.26e-03	0	60	0	530579456	56	6280
2026-01-15 09:51:42.60	140.51	57.54	-43.1	-47.5	10.9	1.52e-03	0	60	0	532676608	56	6443
2026-01-15 09:51:43.61	140.24	57.92	-43.3	-48.0	10.4	2.79e-03	0	60	0	534773760	57	6482
2026-01-15 09:51:44.62	139.95	58.30	-43.4	-48.4	10.0	6.36e-03	0	60	0	536870912	57	6783
2026-01-15 09:51:45.63	139.65	58.68	-43.3	-48.1	10.4	6.22e-03	0	60	0	538968064	57	6497
2026-01-15 09:51:46.64	139.35	59.06	-43.1	-47.6	10.8	3.42e-03	0	60	0	540016640	57	6173
2026-01-15 09:51:47.65	139.03	59.44	-43.0	-47.3	11.1	1.57e-03	0	60	0	542113792	57	5991
2026-01-15 09:51:48.66	138.71	59.82	-42.7	-46.7	11.8	7.93e-04	0	59	0	544210944	57	5570
2026-01-15 09:51:49.67	138.38	60.21	-42.6	-46.4	12.1	3.76e-04	0	60	0	546308096	57	5379
2026-01-15 09:51:50.67	138.04	60.59	-42.3	-45.9	12.6	1.28e-04	0	60	0	548405248	56	5386
2026-01-15 09:51:51.69	137.68	60.99	-42.1	-45.6	12.8	7.17e-05	0	60	0	549453824	56	5199
2026-01-15 09:51:52.70	137.31	61.38	-41.8	-45.1	13.3	3.05e-05	0	60	0	551550976	55	5180
2026-01-15 09:51:53.71	136.94	61.77	-41.7	-44.9	13.6	1.22e-05	0	60	0	553648128	55	5044
2026-01-15 09:51:54.71	136.55	62.16	-41.6	-44.8	13.6	6.10e-06	0	60	0	555745280	55	5037
2026-01-15 09:51:55.72	136.15	62.55	-41.7	-45.0	13.3	1.75e-05	0	60	0	557842432	55	5141
2026-01-15 09:51:56.73	135.73	62.94	-41.8	-45.1	13.2	2.13e-05	0	60	0	559939584	55	5204
2026-01-15 09:51:57.74	135.30	63.34	-41.7	-45.0	13.3	1.90e-05	0	60	0	560988160	55	5151
2026-01-15 09:51:58.75	134.86	63.73	-41.6	-44.9	13.5	1.14e-05	0	60	0	563085312	55	5051
2026-01-15 09:51:59.76	134.40	64.13	-41.8	-45.1	13.3	1.60e-05	0	60	0	565182464	55	5161
2026-01-15 09:52:00.77	133.92	64.53	-41.8	-45.1	13.2	1.83e-05	0	60	0	567279616	55	5190
2026-01-15 09:52:01.78	133.43	64.93	-41.9	-45.2	13.1	2.21e-05	0	60	0	569376768	55	5271
2026-01-15 09:52:02.79	132.92	65.32	-41.8	-45.2	13.1	2.36e-05	0	60	0	570425344	55	5244
2026-01-15 09:52:03.80	132.39	65.72	-42.1	-45.6	12.6	5.95e-05	0	60	0	572522496	55	5487
2026-01-15 09:52:04.80	131.84	66.12	-42.6	-46.7	11.5	3.35e-04	0	60	0	574619648	55	6261
2026-01-15 09:52:05.82	131.27	66.52	-43.2	-47.8	10.5	1.87e-03	0	60	0	576716800	56	6692
2026-01-15 09:52:06.83	130.68	66.92	-43.4	-48.3	10.0	7.94e-03	0	60	0	578813952	57	6723
2026-01-15 09:52:07.83	130.07	67.31	-43.5	-48.7	9.6	1.20e-02	0	60	0	579862528	57	7025
2026-01-15 09:52:08.84	129.43	67.71	-43.5	-48.8	9.6	1.59e-02	0	60	0	581959680	57	7052
2026-01-15 09:52:09.85	128.77	68.10	-43.3	-48.1	10.3	9.61e-03	0	60	0	584056832	57	6502
2026-01-15 09:52:10.86	128.08	68.50	-43.0	-47.5	10.8	4.07e-03	0	60	0	586153984	57	6125
2026-01-15 09:52:11.87	127.36	68.89	-43.0	-47.5	10.8	2.31e-03	0	60	0	588251136	57	6081
2026-01-15 09:52:12.88	126.61	69.28	-42.8	-47.1	11.3	1.70e-03	0	60	0	589299712	57	5805
2026-01-15 09:52:13.89	125.83	69.67	-42.6	-46.7	11.7	5.70e-04	0	60	0	591396864	57	5534
2026-01-15 09:52:14.90	125.02	70.06	-42.5	-46.4	11.9	3.23e-04	0	60	0	593494016	57	5402
2026-01-15 09:52:15.91	124.18	70.45	-42.4	-46.3	12.1	2.46e-04	0	60	0	595591168	56	5603
2026-01-15 09:52:16.92	123.29	70.83	-42.1	-45.6	12.8	7.78e-05	0	60	0	597688320	56	5179
2026-01-15 09:52:17.92	122.38	71.20	-41.8	-45.2	13.1	2.82e-05	0	60	0	598736896	55	5247
2026-01-15 09:52:18.93	121.42	71.58	-41.9	-45.4	12.8	4.27e-05	0	60	0	600834048	55	5399
2026-01-15 09:52:19.94	120.42	71.95	-42.2	-45.9	12.3	1.85e-04	0	60	0	602931200	55	5700
2026-01-15 09:52:20.95	119.37	72.32	-42.2	-45.9	12.3	1.46e-04	0	60	0	605028352	55	5682
2026-01-15 09:52:21.96	118.28	72.69	-42.4	-46.2	12.0	2.09e-04	0	60	0	607125504	55	5923
2026-01-15 09:52:22.97	117.13	73.04	-43.1	-47.8	10.5	2.89e-03	0	60	0	608174080	56	6698
2026-01-15 09:52:23.98	115.94	73.40	-43.0	-47.6	10.7	4.99e-03	0	60	0	610271232	57	6144
2026-01-15 09:52:24.99	114.69	73.74	-42.8	-47.1	11.2	1.63e-03	0	60	0	612368384	57	5819
2026-01-15 09:52:26.00	113.38	74.08	-43.0	-47.4	10.9	1.54e-03	0	60	0	614465536	57	6007
2026-01-15 09:52:27.01	112.02	74.42	-43.3	-48.3	10.0	5.10e-03	0	60	0	616562688	57	6663
2026-01-15 09:52:28.02	110.59	74.74	-43.3	-48.4	9.9	7.58e-03	0	60	0	617611264	57	6728
2026-01-15 09:52:29.03	109.10	75.06	-43.5	-48.7	9.5	1.26e-02	0	60	0	619708416	57	6998
2026-01-15 09:52:30.04	107.55	75.36	-43.3	-48.2	10.0	9.76e-03	0	60	0	621805568	57	6587
2026-01-15 09:52:31.05	105.92	75.66	-43.2	-47.8	10.4	4.03e-03	0	60	0	623902720	57	6338
2026-01-15 09:52:32.06	104.23	75.94	-43.5	-48.7	9.5	5.78e-03	0	60	0	625999872	57	7033
2026-01-15 09:52:33.06	102.48	76.22	-43.5	-48.7	9.5	1.63e-02	0	60	0	628097024	57	7013
2026-01-15 09:52:34.07	100.65	76.48	-43.4	-48.5	9.7	1.24e-02	0	60	0	629145600	57	6806
2026-01-15 09:52:35.08	98.74	76.72	-43.3	-48.2	10.2	1.06e-02	0	60	0	631242752	57	6574
2026-01-15 09:52:36.09	96.76	76.96	-43.5	-48.7	9.5	9.26e-03	0	60	0	633339904	57	7015
2026-01-15 09:52:37.10	94.71	77.17	-43.6	-49.1	9.1	2.19e-02	0	60	0	635437056	57	7343
2026-01-15 09:52:38.11	92.59	77.37	-43.7	-49.2	8.9	2.82e-02	0	60	0	637534208	57	7451
2026-01-15 09:52:39.12	90.40	77.56	-43.7	-49.2	9.0	3.36e-02	0	60	0	638582784	58	7003
2026-01-15 09:52:40.13	88.14	77.72	-43.8	-49.6	8.6	3.17e-02	0	60	0	640679936	58	7315
2026-01-15 09:52:41.14	85.83	77.87	-43.9	-50.1	8.1	4.96e-02	0	60	0	642777088	58	7772
2026-01-15 09:52:42.14	83.49	77.99	-44.1	-50.7	7.5	8.32e-02	0	59	0	644874240	58	8339
2026-01-15 09:52:43.15	81.07	78.10	-43.8	-49.7	8.4	5.79e-02	0	60	0	646971392	58	7417
2026-01-15 09:52:44.16	78.62	78.19	-43.6	-49.1	9.2	3.32e-02	0	60	0	648019968	58	6896
2026-01-15 09:52:45.17	76.13	78.25	-43.6	-48.9	9.2	1.89e-02	0	60	0	650117120	58	6798
2026-01-15 09:52:46.18	73.62	78.29	-43.3	-48.2	10.0	1.18e-02	0	60	0	652214272	58	6267
2026-01-15 09:52:47.19	71.10	78.31	-42.9	-47.2	11.0	3.25e-03	0	60	0	654311424	57	5905
2026-01-15 09:52:48.20	68.57	78.31	-42.8	-47.1	11.4	1.25e-03	0	60	0	656408576	57	5793
2026-01-15 09:52:49.21	66.05	78.29	-43.0	-47.5	10.7	2.49e-03	0	60	0	657457152	57	6107
2026-01-15 09:52:50.22	63.54	78.24	-43.2	-48.0	10.3	4.60e-03	0	60	0	659554304	57	6435
2026-01-15 09:52:51.23	61.06	78.17	-43.2	-47.9	10.4	5.09e-03	0	60	0	661651456	57	6375
2026-01-15 09:52:52.24	58.62	78.08	-43.1	-47.7	10.6	3.02e-03	0	60	0	663748608	57	6205
2026-01-15 09:52:53.25	56.21	77.97	-43.3	-48.1	10.2	3.89e-03	0	60	0	665845760	57	6544
2026-01-15 09:52:54.25	53.88	77.84	-43.8	-49.6	8.6	1.42e-02	0	60	0	666894336	58	7355
2026-01-15 09:52:55.26	51.58	77.69	-44.0	-50.4	7.8	5.44e-02	0	60	0	668991488	58	8060
2026-01-15 09:52:56.27	49.34	77.52	-43.9	-50.1	8.0	6.49e-02	0	60	0	671088640	58	7804
2026-01-15 09:52:57.28	47.16	77.34	-43.9	-49.9	8.3	4.33e-02	0	60	0	673185792	58	7603
2026-01-15 09:52:58.29	45.05	77.13	-43.8	-49.8	8.3	5.00e-02	0	60	0	675282944	58	7509
2026-01-15 09:52:59.29	43.03	76.92	-43.8	-49.8	8.3	5.05e-02	0	60	0	676331520	58	7534
2026-01-15 09:53:00.30	41.07	76.68	-44.0	-50.4	7.7	5.95e-02	0	60	0	678428672	58	8074
2026-01-15 09:53:01.31	39.17	76.43	-44.2	-51.2	7.1	1.09e-01	0	60	0	680525824	59	8349
2026-01-15 09:53:02.32	37.35	76.17	-44.3	-51.6	6.7	1.73e-01	0	60	0	682622976	59	8751
2026-01-15 09:53:03.33	35.60	75.90	-44.3	-51.6	6.8	2.28e-01	0	60	0	684720128	59	8673
2026-01-15 09:53:04.34	33.92	75.61	-44.1	-50.5	7.6	1.25e-01	0	60	0	685768704	59	7688
2026-01-15 09:53:05.35	32.31	75.31	-44.0	-50.1	8.1	5.82e-02	0	60	0	687865856	59	7339
2026-01-15 09:53:06.36	30.77	75.00	-43.8	-49.6	8.6	3.86e-02	0	60	0	689963008	59	6947
2026-01-15 09:53:07.37	29.29	74.69	-43.9	-50.0	8.1	5.34e-02	0	60	0	692060160	59	7252
2026-01-15 09:53:08.37	27.89	74.36	-44.0	-50.2	8.0	7.31e-02	0	60	0	694157312	59	7441
2026-01-15 09:53:09.38	26.54	74.03	-43.7	-49.2	9.0	3.67e-02	0	60	0	695205888	59	6635
2026-01-15 09:53:10.39	25.25	73.69	-43.3	-48.2	10.1	1.46e-02	0	60	0	697303040	58	6247
2026-01-15 09:53:11.40	24.01	73.34	-43.2	-48.0	10.3	5.76e-03	0	60	0	699400192	58	6093
2026-01-15 09:53:12.41	22.82	72.99	-43.1	-47.6	10.7	3.87e-03	0	60	0	701497344	58	5855
2026-01-15 09:53:13.42	21.69	72.63	-42.8	-47.0	11.3	2.65e-03	0	60	0	703594496	57	5772
2026-01-15 09:53:14.43	20.60	72.27	-42.4	-46.2	12.2	5.85e-04	0	60	0	704643072	56	5565
2026-01-15 09:53:15.44	19.57	71.90	-42.5	-46.3	12.1	2.71e-04	0	60	0	706740224	56	5607
2026-01-15 09:53:16.45	18.57	71.53	-42.7	-46.8	11.6	5.07e-04	0	60	0	708837376	56	5989
2026-01-15 09:53:17.46	17.62	71.15	-42.8	-47.0	11.4	8.79e-04	0	60	0	710934528	56	6125
2026-01-15 09:53:18.47	16.71	70.77	-42.7	-46.8	11.6	8.44e-04	0	60	0	713031680	56	5991
2026-01-15 09:53:19.48	15.83	70.39	-42.8	-46.9	11.5	6.93e-04	0	60	0	714080256	56	5999
2026-01-15 09:53:20.49	14.99	70.00	-42.9	-47.2	11.2	8.40e-04	0	60	0	716177408	56	6224
2026-01-15 09:53:21.50	14.19	69.61	-43.2	-48.0	10.4	2.65e-03	0	60	0	718274560	57	6457
2026-01-15 09:53:22.51	13.42	69.22	-43.4	-48.3	9.9	7.80e-03	0	60	0	720371712	57	6720
2026-01-15 09:53:23.51	12.68	68.84	-43.3	-48.1	10.2	6.73e-03	0	60	0	722468864	57	6518
2026-01-15 09:53:24.52	11.97	68.44	-43.2	-48.0	10.4	5.39e-03	0	60	0	724566016	57	6444
2026-01-15 09:53:25.53	11.28	68.05	-43.4	-48.5	9.8	6.85e-03	0	60	0	725614592	57	6831
2026-01-15 09:53:26.54	10.63	67.65	-43.9	-50.0	8.4	2.77e-02	0	60	0	727711744	58	7634
2026-01-15 09:53:27.55	9.99	67.26	-44.0	-50.3	7.9	5.89e-02	0	60	0	729808896	58	7931
2026-01-15 09:53:28.56	9.38	66.86	-43.9	-50.1	8.2	5.90e-02	0	60	0	731906048	58	7765
2026-01-15 09:53:29.57	8.80	66.47	-43.7	-49.6	8.7	4.28e-02	0	60	0	734003200	58	7355
2026-01-15 09:53:30.58	8.23	66.07	-43.0	-49.1	9.2	2.97e-02	0	60	0	735051776	57	7294
2026-01-15 09:53:31.59	7.69	65.67	-43.4	-48.5	9.8	9.67e-03	0	60	0	737148928	57	6847
2026-01-15 09:53:32.59	7.16	65.28	-43.0	-47.5	10.9	3.51e-03	0	60	0	739246080	57	6111
2026-01-15 09:53:33.60	6.66	64.88	-42.7	-46.8	11.6	1.02e-03	0	60	0	741343232	56	5974
2026-01-15 09:53:34.61	6.17	64.48	-42.6	-46.5	12.0	5.88e-04	0	60	0	743440384	56	5741
2026-01-15 09:53:35.62	5.70	64.09	-41.9	-45.4	12.9	8.23e-05	0	60	0	744488960	55	5364
2026-01-15 09:53:36.63	5.24	63.69	-41.6	-44.8	13.6	1.29e-05	0	60	0	746586112	54	5297
2026-01-15 09:53:37.64	4.80	63.30	-41.5	-44.9	13.5	1.14e-05	0	60	0	748683264	54	5368
2026-01-15 09:53:38.64	4.37	62.91	-41.6	-45.1	13.3	3.28e-05	0	60	0	750780416	54	5490
2026-01-15 09:53:39.65	3.96	62.52	-41.6	-44.8	13.5	1.52e-05	0	60	0	752877568	53	5630
2026-01-15 09:53:40.66	3.56	62.12	-41.6	-44.8	13.5	6.10e-06	0	60	0	753926144	53	5655
2026-01-15 09:53:41.67	3.17	61.73	-41.8	-45.2	13.1	2.59e-05	0	60	0	756023296	54	5576
2026-01-15 09:53:42.68	2.80	61.34	-42.2	-45.8	12.5	7.40e-05	0	60	0	758120448	54	5952
2026-01-15 09:53:43.69	2.44	60.95	-42.5	-46.5	11.8	1.69e-04	0	60	0	760217600	55	6108
2026-01-15 09:53:44.70	2.08	60.57	-43.1	-47.8	10.7	8.69e-04	0	60	0	762314752	56	6653
2026-01-15 09:53:45.71	1.74	60.18	-43.5	-48.6	9.7	6.83e-03	0	60	0	763363328	57	6925
2026-01-15 09:53:46.72	1.41	59.80	-43.3	-48.8	9.6	1.26e-02	0	60	0	765460480	57	7058
2026-01-15 09:53:47.73	1.09	59.42	-43.5	-48.8	9.6	9.42e-03	0	60	0	767557632	57	7077
2026-01-15 09:53:48.73	0.78	59.04	-43.5	-48.8	9.5	1.30e-02	0	60	0	769654784	57	7104
2026-01-15 09:53:49.74	0.48	58.66	-43.7	-49.6	8.7	2.19e-02	0	60	0	771751936	58	7336
2026-01-15 09:53:50.75	0.18	58.28	-44.1	-50.4	7.9	5.30e-02	0	60	0	772800512	58	8021
2026-01-15 09:53:51.76	359.90	57.90	-44.1	-50.7	7.7	8.85e-02	0	60	0	774897664	58	8284
2026-01-15 09:53:52.77	359.62	57.53	-44.0	-50.1	8.2	6.06e-02	0	60	0	776994816	58	7775
2026-01-15 09:53:53.77	359.35	57.16	-43.8	-49.6	8.9	4.60e-02	0	60	0	779091968	58	7304
2026-01-15 09:53:54.78	359.09	56.79	-43.5	-48.9	9.3	2.24e-02	0	60	0	781189120	57	7161
2026-01-15 09:53:55.79	358.83	56.42	-43.4	-48.4	9.9	1.11e-02	0	60	0	782237696	57	6767
2026-01-15 09:53:56.80	358.58	56.05	-43.2	-47.8	10.6	5.86e-03	0	60	0	784334848	57	6338
2026-01-15 09:53:57.81	358.34	55.69	-43.0	-47.4	11.0	2.59e-03	0	60	0	786432000	56	6382
2026-01-15 09:53:58.82	358.11	55.33	-42.9	-47.1	11.4	1.43e-03	0	60	0	788529152	56	6182
2026-01-15 09:53:59.82	357.88	54.97	-42.2	-46.0	12.3	5.38e-04	0	60	0	790626304	55	5771
2026-01-15 09:54:00.83	357.65	54.61	-42.0	-45.6	12.8	1.15e-04	0	60	0	791674880	55	5505
2026-01-15 09:54:01.84	357.43	54.25	-41.9	-45.4	12.9	3.58e-05	0	60	0	793772032	55	5370
2026-01-15 09:54:02.85	357.22	53.90	-41.9	-45.4	13.0	5.34e-05	0	60	0	795869184	55	5366
2026-01-15 09:54:03.85	357.01	53.55	-42.0	-45.5	12.9	4.19e-05	0	60	0	797966336	54	5740
2026-01-15 09:54:04.86	356.81	53.20	-41.9	-45.4	13.0	6.33e-05	0	60	0	800063488	54	5684
2026-01-15 09:54:05.87	356.61	52.85	-42.1	-45.7	12.7	6.71e-05	0	60	0	801112064	54	5867
2026-01-15 09:54:06.88	356.42	52.50	-42.1	-45.7	12.6	1.39e-04	0	60	0	803209216	54	5885
2026-01-15 09:54:07.89	356.23	52.16	-41.9	-45.7	12.6	7.62e-05	0	60	0	805306368	54	5867
2026-01-15 09:54:08.90	356.05	51.81	-42.2	-46.0	12.3	1.80e-04	0	60	0	807403520	55	5738
2026-01-15 09:54:09.91	355.87	51.47	-42.4	-46.2	12.1	1.85e-04	0	60	0	809500672	55	5907
2026-01-15 09:54:10.92	355.69	51.14	-42.5	-46.5	11.9	5.42e-04	0	60	0	810549248	55	6077
2026-01-15 09:54:11.93	355.52	50.80	-43.1	-47.6	10.9	1.29e-03	0	60	0	812646400	56	6495
2026-01-15 09:54:12.94	355.35	50.47	-43.4	-48.5	9.8	4.39e-03	0	60	0	814743552	57	6870
2026-01-15 09:54:13.95	355.18	50.13	-43.8	-49.6	8.8	2.63e-02	0	60	0	816840704	58	7297
2026-01-15 09:54:14.96	355.02	49.80	-43.9	-50.0	8.4	4.61e-02	0	60	0	818937856	58	7635
2026-01-15 09:54:15.97	354.87	49.48	-43.8	-50.0	8.3	4.45e-02	0	60	0	821035008	58	7668
2026-01-15 09:54:16.98	354.71	49.15	-44.0	-50.2	8.1	5.43e-02	0	60	0	822083584	58	7834
2026-01-15 09:54:17.99	354.56	48.83	-44.1	-50.4	7.9	7.17e-02	0	60	0	824180736	58	8078
2026-01-15 09:54:19.00	354.41	48.51	-44.0	-50.3	8.0	7.96e-02	0	60	0	826277888	58	7980
2026-01-15 09:54:20.01	354.27	48.19	-43.9	-50.1	8.2	5.80e-02	0	60	0	828375040	58	7724
2026-01-15 09:54:21.02	354.13	47.87	-44.0	-50.1	8.2	5.51e-02	0	60	0	830472192	58	7767
2026-01-15 09:54:22.03	353.99	47.56	-44.0	-50.3	8.1	6.27e-02	0	60	0	831520768	58	7901
2026-01-15 09:54:23.04	353.85	47.24	-44.1	-50.5	7.8	8.36e-02	0	60	0	833617920	58	8119
2026-01-15 09:54:24.04	353.72	46.94	-44.0	-50.2	8.0	6.81e-02	0	60	0	835715072	58	7848
2026-01-15 09:54:25.05	353.59	46.63	-43.9	-49.8	8.4	5.26e-02	0	60	0	837812224	58	7489
2026-01-15 09:54:26.06	353.47	46.32	-43.6	-48.9	9.4	2.48e-02	0	60	0	839909376	58	6762
2026-01-15 09:54:27.07	353.34	46.02	-43.6	-48.9	9.4	1.46e-02	0	60	0	840957952	58	6742
2026-01-15 09:54:28.08	353.22	45.72	-43.4	-48.4	9.9	9.85e-03	0	60	0	843055104	58	6418
2026-01-15 09:54:29.09	353.10	45.42	-43.4	-48.2	10.1	8.40e-03	0	60	0	845152256	58	6274
2026-01-15 09:54:30.10	352.98	45.12	-43.2	-48.1	10.3	6.11e-03	0	60	0	847249408	58	6158
2026-01-15 09:54:31.11	352.86	44.82	-43.4	-48.5	9.9	9.00e-03	0	60	0	849346560	58	6438
2026-01-15 09:54:32.12	352.75	44.53	-43.7	-49.1	9.2	1.44e-02	0	60	0	850395136	58	6956
2026-01-15 09:54:33.13	352.64	44.24	-43.8	-49.8	8.4	2.96e-02	0	60	0	852492288	58	7512
2026-01-15 09:54:34.14	352.53	43.95	-43.9	-50.2	8.1	5.03e-02	0	60	0	854589440	58	7891
2026-01-15 09:54:35.15	352.42	43.66	-43.8	-50.3	7.9	7.02e-02	0	60	0	856686592	58	7976
2026-01-15 09:54:36.15	352.32	43.38	-43.7	-50.2	8.1	7.58e-02	0	60	0	858783744	58	7882
2026-01-15 09:54:37.16	352.21	43.09	-43.8	-49.9	8.4	5.48e-02	0	60	0	859832320	58	7544
2026-01-15 09:54:38.17	352.11	42.81	-43.6	-49.0	9.2	2.61e-02	0	60	0	861929472	58	6870
2026-01-15 09:54:39.18	352.01	42.53	-43.6	-49.0	9.3	1.86e-02	0	60	0	864026624	58	6877
2026-01-15 09:54:40.19	351.92	42.26	-43.6	-49.0	9.3	1.63e-02	0	60	0	866123776	58	6817
2026-01-15 09:54:41.20	351.82	41.98	-43.6	-49.1	9.2	1.79e-02	0	60	0	868220928	58	6885
2026-01-15 09:54:42.21	351.72	41.71	-43.6	-49.1	9.1	1.97e-02	0	60	0	869269504	58	6943
2026-01-15 09:54:43.22	351.63	41.44	-43.8	-49.5	8.8	3.11e-02	0	60	0	871366656	58	7222
2026-01-15 09:54:44.22	351.54	41.17	-43.9	-49.9	8.5	3.79e-02	0	60	0	873463808	58	7547
2026-01-15 09:54:45.23	351.45	40.90	-43.9	-50.1	8.1	5.28e-02	0	60	0	875560960	58	7767
2026-01-15 09:54:46.24	351.36	40.63	-44.0	-50.2	8.0	6.02e-02	0	60	0	877658112	58	7850
2026-01-15 09:54:47.25	351.28	40.37	-44.0	-50.2	8.0	6.40e-02	0	60	0	878706688	58	7876
2026-01-15 09:54:48.26	351.19	40.11	-43.9	-49.9	8.3	6.44e-02	0	60	0	880803840	58	7597
2026-01-15 09:54:49.27	351.11	39.85	-43.9	-49.9	8.4	4.79e-02	0	60	0	882900992	58	7567
2026-01-15 09:54:50.28	351.03	39.59	-43.8	-49.7	8.5	4.22e-02	0	60	0	884998144	58	7427
2026-01-15 09:54:51.29	350.94	39.33	-43.7	-49.4	8.8	3.57e-02	0	60	0	887095296	58	7169
2026-01-15 09:54:52.30	350.86	39.08	-43.6	-49.1	9.1	2.39e-02	0	60	0	889192448	58	6945
2026-01-15 09:54:53.31	350.79	38.83	-43.6	-48.9	9.4	1.85e-02	0	60	0	890241024	58	6777
2026-01-15 09:54:54.31	350.71	38.58	-43.6	-48.9	9.3	1.78e-02	0	60	0	892338176	58	6785
2026-01-15 09:54:55.32	350.63	38.33	-43.5	-48.8	9.4	1.58e-02	0	60	0	894435328	58	6717
2026-01-15 09:54:56.33	350.56	38.08	-43.6	-49.1	9.2	1.72e-02	0	60	0	896532480	58	6932
2026-01-15 09:54:57.34	350.49	37.84	-43.6	-49.1	9.1	2.20e-02	0	60	0	897581056	58	6948
2026-01-15 09:54:58.35	350.41	37.59	-43.7	-49.4	8.8	2.80e-02	0	60	0	899678208	58	7143
2026-01-15 09:54:59.36	350.34	37.35	-43.6	-49.3	8.9	3.03e-02	0	60	0	901775360	58	7093
2026-01-15 09:55:00.36	350.27	37.11	-43.6	-49.2	9.0	2.43e-02	0	60	0	903872512	58	7027
2026-01-15 09:55:01.37	350.20	36.87	-43.5	-48.9	9.3	2.04e-02	0	60	0	905969664	58	6755
2026-01-15 09:55:02.39	350.13	36.63	-43.4	-48.7	9.6	1.52e-02	0	60	0	907018240	58	6595
2026-01-15 09:55:03.40	350.07	36.40	-43.3	-48.3	10.0	8.72e-03	0	60	0	909115392	58	6342
2026-01-15 09:55:04.41	350.00	36.16	-43.3	-48.3	9.9	8.39e-03	0	60	0	911212544	58	6340
2026-01-15 09:55:05.42	349.94	35.93	-43.3	-48.3	9.9	8.48e-03	0	60	0	913309696	58	6318
2026-01-15 09:55:06.43	349.87	35.70	-43.3	-48.2	10.0	8.37e-03	0	60	0	915406848	58	6268
2026-01-15 09:55:07.43	349.81	35.47	-43.3	-48.2	10.0	8.07e-03	0	60	0	917504000	58	6245
2026-01-15 09:55:08.44	349.75	35.25	-43.3	-48.2	10.0	7.09e-03	0	60	0	918552576	58	6241
2026-01-15 09:55:09.45	349.69	35.02	-43.2	-48.2	10.0	7.42e-03	0	60	0	920649728	58	6233
2026-01-15 09:55:10.46	349.63	34.80	-43.2	-48.1	10.2	7.99e-03	0	60	0	922746880	58	6169
2026-01-15 09:55:11.47	349.57	34.57	-43.2	-48.0	10.2	6.47e-03	0	60	0	924844032	58	6123
2026-01-15 09:55:12.48	349.51	34.35	-43.2	-48.0	10.3	6.40e-03	0	60	0	926941184	58	6062
2026-01-15 09:55:13.49	349.45	34.13	-43.1	-47.9	10.3	5.33e-03	0	60	0	927989760	58	6057
2026-01-15 09:55:14.50	349.39	33.91	-43.1	-47.9	10.3	4.96e-03	0	60	0	930086912	58	6036
2026-01-15 09:55:15.51	349.34	33.70	-43.2	-48.1	10.1	5.10e-03	0	60	0	932184064	58	6147
2026-01-15 09:55:16.52	349.28	33.48	-43.3	-48.3	9.9	7.59e-03	0	60	0	934281216	58	6320
2026-01-15 09:55:17.53	349.23	33.27	-43.4	-48.8	9.4	1.18e-02	0	60	0	936378368	58	6666
2026-01-15 09:55:18.54	349.17	33.06	-43.6	-49.4	8.7	2.11e-02	0	60	0	937426944	58	7135
2026-01-15 09:55:19.55	349.12	32.85	-43.7	-49.8	8.4	4.04e-02	0	60	0	939524096	58	7484
2026-01-15 09:55:20.56	349.07	32.64	-43.8	-50.1	8.0	5.75e-02	0	60	0	941621248	58	7775
2026-01-15 09:55:21.57	349.01	32.43	-43.9	-50.3	7.8	7.07e-02	0	60	0	943718400	58	7940
2026-01-15 09:55:22.58	348.96	32.22	-43.8	-50.2	7.9	7.62e-02	0	60	0	945815552	58	7857
2026-01-15 09:55:23.58	348.91	32.02	-43.8	-50.0	8.1	6.32e-02	0	60	0	946864128	58	7659
2026-01-15 09:55:24.59	348.86	31.82	-43.8	-49.9	8.2	5.68e-02	0	60	0	948961280	58	7594
2026-01-15 09:55:25.60	348.82	31.61	-43.7	-49.6	8.5	4.70e-02	0	60	0	951058432	58	7351
2026-01-15 09:55:26.61	348.77	31.41	-43.6	-49.4	8.7	3.75e-02	0	60	0	953155584	58	7140
2026-01-15 09:55:27.62	348.72	31.21	-43.5	-49.1	9.0	2.86e-02	0	60	0	955252736	58	6907
2026-01-15 09:55:28.63	348.67	31.01	-43.4	-48.8	9.3	2.39e-02	0	60	0	956301312	58	6711
2026-01-15 09:55:29.64	348.63	30.82	-43.4	-48.7	9.4	1.82e-02	0	60	0	958398464	58	6602
2026-01-15 09:55:30.65	348.58	30.62	-43.3	-48.5	9.6	1.37e-02	0	60	0	960495616	58	6432
2026-01-15 09:55:31.65	348.53	30.43	-43.3	-48.5	9.6	1.32e-02	0	60	0	962592768	58	6477
2026-01-15 09:55:32.66	348.49	30.24	-43.2	-48.3	9.9	1.08e-02	0	60	0	964689920	58	6286
2026-01-15 09:55:33.67	348.45	30.05	-43.2	-48.4	9.7	1.04e-02	0	60	0	965738496	58	6379
2026-01-15 09:55:34.68	348.40	29.85	-43.2	-48.4	9.6	1.15e-02	0	60	0	967835648	58	6414
2026-01-15 09:55:35.69	348.36	29.67	-43.3	-48.5	9.5	1.31e-02	0	60	0	969932800	58	6451
2026-01-15 09:55:36.70	348.32	29.48	-43.3	-48.6	9.4	1.52e-02	0	60	0	972029952	58	6552
2026-01-15 09:55:37.70	348.28	29.29	-43.3	-48.7	9.3	1.67e-02	0	60	0	974127104	58	6642
2026-01-15 09:55:38.71	348.23	29.11	-43.3	-48.7	9.3	1.97e-02	0	60	0	975175680	58	6584
2026-01-15 09:55:39.72	348.19	28.92	-43.3	-48.7	9.2	1.92e-02	0	60	0	977272832	58	6640
2026-01-15 09:55:40.73	348.15	28.74	-43.3	-48.8	9.2	2.05e-02	0	60	0	979369984	58	6658
2026-01-15 09:55:41.74	348.11	28.56	-43.2	-48.6	9.4	1.94e-02	0	60	0	981467136	58	6506
2026-01-15 09:55:42.75	348.07	28.38	-43.2	-48.5	9.5	1.46e-02	0	60	0	983564288	58	6441
2026-01-15 09:55:43.76	348.03	28.20	-43.1	-48.3	9.6	1.33e-02	0	60	0	985661440	58	6346
2026-01-15 09:55:44.77	348.00	28.02	-43.1	-48.2	9.8	1.11e-02	0	60	0	986710016	58	6220
2026-01-15 09:55:45.77	347.96	27.84	-43.0	-48.0	9.9	9.17e-03	0	60	0	988807168	58	6128
2026-01-15 09:55:46.78	347.92	27.67	-42.9	-47.9	10.0	8.05e-03	0	60	0	990904320	57	6385
2026-01-15 09:55:47.79	347.88	27.49	-43.0	-48.0	9.9	8.48e-03	0	60	0	993001472	57	6464
2026-01-15 09:55:48.81	347.85	27.32	-42.9	-47.8	10.1	7.31e-03	0	60	0	995098624	57	6319
2026-01-15 09:55:49.82	347.81	27.14	-42.9	-47.8	10.0	7.66e-03	0	60	0	996147200	57	6336
2026-01-15 09:55:50.83	347.78	26.97	-42.9	-47.9	9.9	8.30e-03	0	60	0	998244352	57	6392
2026-01-15 09:55:51.83	347.74	26.80	-42.9	-47.9	10.0	7.47e-03	0	60	0	1000341504	57	6380
2026-01-15 09:55:52.84	347.71	26.63	-42.9	-47.9	10.0	8.13e-03	0	60	0	1002438656	57	6349
2026-01-15 09:55:53.86	347.67	26.46	-42.8	-47.8	10.1	8.52e-03	0	60	0	1004535808	57	6294
2026-01-15 09:55:54.86	347.64	26.30	-42.7	-47.6	10.2	6.38e-03	0	60	0	1005584384	57	6179
2026-01-15 09:55:55.88	347.60	26.13	-42.7	-47.6	10.2	5.85e-03	0	60	0	1007681536	57	6149
2026-01-15 09:55:56.88	347.57	25.96	-42.6	-47.4	10.3	6.48e-03	0	60	0	1009778688	57	6048
2026-01-15 09:55:57.89	347.54	25.80	-42.6	-47.4	10.3	5.37e-03	0	60	0	1011875840	57	6012
2026-01-15 09:55:58.90	347.50	25.63	-42.6	-47.4	10.3	5.02e-03	0	60	0	1013972992	57	6033
2026-01-15 09:55:59.91	347.47	25.47	-42.5	-47.3	10.3	6.17e-03	0	60	0	1015021568	57	5980
2026-01-15 09:56:00.92	347.44	25.31	-42.5	-47.2	10.4	4.11e-03	0	60	0	1017118720	56	6237
2026-01-15 09:56:01.93	347.41	25.15	-42.5	-47.3	10.3	5.05e-03	0	60	0	1019215872	56	6310
2026-01-15 09:56:02.93	347.38	24.99	-42.5	-47.3	10.2	6.03e-03	0	60	0	1021313024	56	6344
2026-01-15 09:56:03.94	347.35	24.83	-42.5	-47.3	10.3	5.66e-03	0	60	0	1023410176	56	6294
2026-01-15 09:56:04.95	347.32	24.67	-42.5	-47.5	10.1	6.58e-03	0	60	0	1024458752	56	6425
2026-01-15 09:56:05.96	347.29	24.52	-42.5	-47.3	10.2	6.79e-03	0	60	0	1026555904	56	6329
2026-01-15 09:56:06.97	347.26	24.36	-42.4	-47.4	10.1	6.04e-03	0	60	0	1028653056	56	6389
2026-01-15 09:56:07.98	347.23	24.21	-42.4	-47.3	10.1	7.28e-03	0	60	0	1030750208	56	6304
2026-01-15 09:56:08.99	347.20	24.05	-42.4	-47.3	10.1	6.61e-03	0	60	0	1032847360	56	6302
2026-01-15 09:56:10.00	347.17	23.90	-42.4	-47.5	9.8	9.26e-03	0	60	0	1033895936	56	6439
2026-01-15 09:56:11.00	347.14	23.75	-42.2	-47.2	10.1	9.39e-03	0	60	0	1035993088	56	6218
2026-01-15 09:56:12.01	347.11	23.60	-42.1	-47.0	10.2	5.95e-03	0	60	0	1038090240	56	6086
2026-01-15 09:56:13.02	347.09	23.45	-42.1	-47.3	9.8	7.93e-03	0	60	0	1040187392	56	6283
2026-01-15 09:56:14.03	347.06	23.30	-42.1	-47.5	9.4	1.36e-02	0	60	0	1042284544	56	6429
2026-01-15 09:56:15.04	347.03	23.15	-41.8	-46.9	9.8	1.09e-02	0	60	0	1043333120	55	6365
2026-01-15 09:56:16.05	347.01	23.00	-41.6	-46.7	9.9	8.82e-03	0	60	0	1045430272	55	6256
2026-01-15 09:56:17.06	346.98	22.85	-41.6	-47.0	9.5	1.18e-02	0	60	0	1047527424	55	6444
2026-01-15 09:56:18.07	346.95	22.71	-41.6	-47.0	9.3	1.76e-02	0	60	0	1049624576	55	6473
2026-01-15 09:56:19.07	346.93	22.56	-41.5	-47.0	9.3	1.84e-02	0	60	0	1051721728	55	6445
2026-01-15 09:56:20.08	346.90	22.42	-41.4	-46.7	9.4	1.71e-02	0	60	0	1052770304	54	6643
2026-01-15 09:56:21.09	346.88	22.27	-41.3	-46.7	9.4	1.53e-02	0	60	0	1054867456	54	6598
2026-01-15 09:56:22.10	346.85	22.13	-41.3	-46.8	9.2	1.84e-02	0	60	0	1056964608	54	6656
2026-01-15 09:56:23.10	346.83	21.99	-41.4	-47.2	8.8	2.39e-02	0	60	0	1059061760	54	6967
2026-01-15 09:56:24.11	346.80	21.85	-41.5	-47.7	8.2	3.90e-02	0	60	0	1061158912	54	7381
2026-01-15 09:56:25.12	346.78	21.71	-41.5	-48.2	7.5	8.47e-02	0	60	0	1062207488	54	7872
2026-01-15 09:56:26.13	346.75	21.57	-41.6	-49.1	6.6	1.58e-01	0	60	0	1064304640	54	8712
2026-01-15 09:56:27.14	346.73	21.43	-41.7	-50.0	5.9	2.81e-01	0	60	0	1066401792	54	9630
2026-01-15 09:56:28.14	346.70	21.29	-41.7	-51.1	5.0	5.84e-01	0	60	0	1068498944	54	10942
2026-01-15 09:56:29.15	346.68	21.15	-41.6	-52.2	4.5	9.18e-01	36	60	0	1070596096	54	12502
2026-01-15 09:56:30.17	346.66	21.02	-41.6	-53.2	4.1	1.34e+00	0	60	0	1070596096	54	14001
2026-01-15 09:56:31.17	346.63	20.88	-41.5	-54.3	3.8	1.48e+00	0	60	104	1070596096	54	15825
2026-01-15 09:56:32.18	346.61	20.75	-41.4	-54.9	3.8	1.49e+00	0	60	104	1070596096	54	17067
2026-01-15 09:56:33.19	346.59	20.61	-41.4	-55.5	3.8	1.49e+00	0	60	104	1070596096	54	18101
2026-01-15 09:56:34.20	346.57	20.48	-41.4	-55.6	3.8	1.49e+00	0	60	104	1070596096	54	18513
2026-01-15 09:56:35.21	346.55	20.34	-41.8	-55.6	3.8	1.49e+00	0	60	104	1070596096	54	18369
2026-01-15 09:56:36.21	346.52	20.21	-41.4	-55.8	3.8	1.49e+00	0	60	104	1070596096	54	18889
2026-01-15 09:56:37.22	346.50	20.08	-41.3	-56.0	3.8	1.49e+00	0	60	104	1070596096	54	19246
2026-01-15 09:56:38.23	346.48	19.95	-41.3	-56.0	3.8	1.49e+00	0	60	104	1070596096	54	19194
2026-01-15 09:56:39.24	346.46	19.82	-41.3	-56.0	3.8	1.49e+00	0	60	104	1070596096	54	19272
2026-01-15 09:56:40.25	346.44	19.69	-41.3	-56.0	3.8	1.49e+00	0	60	104	1070596096	54	19301
2026-01-15 09:56:41.26	346.42	19.56	-41.1	-55.7	3.8	1.49e+00	0	60	104	1070596096	54	18638
2026-01-15 09:56:42.27	346.40	19.43	-41.3	-56.0	3.8	1.49e+00	0	60	104	1070596096	54	19207
2026-01-15 09:56:43.28	346.38	19.30	-41.0	-55.6	3.8	1.49e+00	0	60	104	1070596096	53	19451
2026-01-15 09:56:44.29	346.36	19.18	-41.3	-56.0	3.8	1.49e+00	0	60	104	1070596096	53	20317
2026-01-15 09:56:45.30	346.34	19.05	-41.2	-55.8	3.8	1.49e+00	0	60	104	1070596096	53	20011
2026-01-15 09:56:46.31	346.32	18.92	-41.1	-55.8	3.8	1.49e+00	0	60	104	1070596096	53	19870
2026-01-15 09:56:47.32	346.30	18.80	-41.1	-55.7	3.8	1.49e+00	0	60	104	1070596096	53	19758
2026-01-15 09:56:48.33	346.28	18.67	-40.9	-55.6	3.8	1.49e+00	0	60	104	1070596096	53	19542
2026-01-15 09:56:49.35	346.26	18.55	-41.0	-55.6	3.8	1.49e+00	0	60	104	1070596096	53	19552
2026-01-15 09:56:50.36	346.24	18.42	-41.1	-55.7	3.8	1.49e+00	0	60	104	1070596096	53	19785
2026-01-15 09:56:51.37	346.22	18.30	-41.1	-55.7	3.8	1.49e+00	0	60	104	1070596096	53	19642
2026-01-15 09:56:52.38	346.20	18.18	-41.1	-55.7	3.8	1.49e+00	0	60	104	1070596096	53	19764
2026-01-15 09:56:53.39	346.18	18.06	-40.9	-55.5	3.8	1.49e+00	0	60	104	1070596096	53	19350
2026-01-15 09:56:54.40	346.17	17.94	-41.1	-55.7	3.8	1.49e+00	0	60	104	1070596096	53	19621
2026-01-15 09:56:55.41	346.15	17.82	-41.0	-55.6	3.8	1.49e+00	0	60	104	1070596096	53	19537
2026-01-15 09:56:56.42	346.13	17.70	-41.4	-55.9	3.8	1.49e+00	0	60	104	1070596096	53	20123
2026-01-15 09:56:57.42	346.11	17.58	-41.2	-55.7	3.8	1.49e+00	0	60	104	1070596096	53	19786
2026-01-15 09:56:58.43	346.10	17.46	-41.1	-55.6	3.8	1.49e+00	0	60	104	1070596096	53	19543
2026-01-15 09:56:59.44	346.08	17.34	-41.1	-55.7	3.8	1.49e+00	0	60	104	1070596096	53	19677
2026-01-15 09:57:00.45	346.06	17.22	-41.0	-55.6	3.8	1.49e+00	0	61	104	1070596096	53	19423
2026-01-15 09:57:01.46	346.04	17.11	-41.1	-55.7	3.8	1.49e+00	0	60	104	1070596096	53	19688
2026-01-15 09:57:02.47	346.03	16.99	-41.2	-55.7	3.8	1.49e+00	0	60	104	1070596096	53	19839
2026-01-15 09:57:03.48	346.01	16.87	-41.1	-55.6	3.8	1.49e+00	0	60	104	1070596096	53	19603
2026-01-15 09:57:04.49	345.99	16.76	-41.1	-55.7	3.8	1.49e+00	0	60	104	1070596096	53	19661
2026-01-15 09:57:05.50	345.98	16.64	-41.0	-55.6	3.8	1.49e+00	0	60	104	1070596096	53	19448
2026-01-15 09:57:06.51	345.96	16.53	-41.0	-55.6	3.8	1.49e+00	0	61	104	1070596096	53	19473
2026-01-15 09:57:07.52	345.94	16.42	-40.9	-55.5	3.8	1.49e+00	0	60	104	1070596096	53	19352
2026-01-15 09:57:08.53	345.93	16.30	-41.0	-55.6	3.8	1.49e+00	0	60	104	1070596096	53	19513
2026-01-15 09:57:09.54	345.91	16.19	-40.9	-55.5	3.8	1.49e+00	0	60	104	1070596096	53	19317
2026-01-15 09:57:10.55	345.90	16.08	-40.9	-55.5	3.8	1.49e+00	0	60	104	1070596096	53	19220
2026-01-15 09:57:11.56	345.88	15.97	-40.9	-55.5	3.8	1.49e+00	0	60	104	1070596096	53	19303
2026-01-15 09:57:12.57	345.87	15.86	-41.1	-55.7	3.8	1.49e+00	0	60	104	1070596096	53	19704
2026-01-15 09:57:13.58	345.85	15.75	-40.9	-55.5	3.8	1.49e+00	0	60	104	1070596096	53	19386
2026-01-15 09:57:14.60	345.84	15.63	-40.9	-55.6	3.8	1.49e+00	0	60	104	1070596096	53	19510
2026-01-15 09:57:15.61	345.82	15.52	-40.9	-55.5	3.8	1.49e+00	0	60	104	1070596096	53	19350
2026-01-15 09:57:16.62	345.81	15.42	-40.9	-55.5	3.8	1.49e+00	0	60	104	1070596096	53	19376
