passes_logs/2026/01/15/R2.0S_Moscow/R2.0S_Moscow__20260115_102521_FENGYUN_3D_rec.log

#Pass ID: 20260115_102521_FENGYUN 3D
#Satellite: FENGYUN 3D
#Configuration: FENGYUN 3D
#almurnet v.1.7.20251203
#Start time: 2026-01-15 10:32:14

#Version: 2.2.20231116
#Station: R2.0S_Moscow
#Location: 37.707566 lon 55.798166 lat
#TLE: 1 43010U 17072A   26014.22831475  .00000226  00000+0  12883-3 0  9994
#TLE: 2 43010  98.9934 346.0326 0002309 109.2304 250.9121 14.19696287423146

#Time	Az	El	Level	Level2	SNR	BER	BlckErr	Temp	State	Recorded	gain1	gain2
2026-01-15 10:32:14.82	43.37	24.60	-46.2	-64.9	3.8	7.43e-01	0	60	0	0	63	32016
2026-01-15 10:32:15.82	43.09	24.57	-45.5	-57.2	3.8	8.46e-01	0	60	104	0	62	13929
2026-01-15 10:32:16.83	42.80	24.55	-45.5	-57.2	3.8	8.46e-01	0	60	104	0	62	14035
2026-01-15 10:32:17.84	42.51	24.52	-45.4	-57.1	3.8	8.47e-01	0	60	104	0	62	13876
2026-01-15 10:32:18.85	42.22	24.50	-45.4	-57.1	3.8	8.46e-01	0	60	104	0	62	13794
2026-01-15 10:32:19.86	41.94	24.47	-45.3	-57.0	3.8	8.46e-01	0	60	104	0	62	13693
2026-01-15 10:32:20.87	41.65	24.44	-45.2	-57.0	3.8	8.45e-01	0	60	104	0	62	13625
2026-01-15 10:32:21.89	41.36	24.41	-45.1	-56.9	3.8	8.46e-01	0	60	104	0	62	13525
2026-01-15 10:32:22.90	41.07	24.38	-45.0	-56.7	3.8	8.47e-01	0	60	104	0	61	13963
2026-01-15 10:32:23.91	40.79	24.35	-44.9	-56.7	3.8	8.48e-01	0	60	104	0	61	13900
2026-01-15 10:32:24.92	40.50	24.32	-44.9	-56.6	3.8	8.45e-01	0	60	104	0	61	13836
2026-01-15 10:32:25.93	40.22	24.29	-44.9	-56.6	3.8	8.46e-01	0	61	104	0	61	13772
2026-01-15 10:32:26.94	39.94	24.26	-44.9	-56.6	3.8	8.46e-01	0	60	104	0	61	13733
2026-01-15 10:32:27.95	39.65	24.22	-44.9	-56.5	3.8	8.46e-01	0	60	104	0	61	13661
2026-01-15 10:32:28.96	39.37	24.19	-44.9	-56.5	3.8	8.46e-01	0	60	104	0	61	13639
2026-01-15 10:32:29.97	39.09	24.16	-44.9	-56.5	3.8	8.47e-01	0	60	104	0	61	13725
2026-01-15 10:32:30.98	38.81	24.12	-44.9	-56.6	3.8	8.46e-01	0	60	104	0	61	13751
2026-01-15 10:32:31.99	38.53	24.08	-44.9	-56.5	3.8	8.46e-01	0	60	104	0	61	13710
2026-01-15 10:32:33.00	38.25	24.05	-44.9	-56.4	3.8	8.46e-01	0	61	104	0	61	13532
2026-01-15 10:32:34.01	37.97	24.01	-44.9	-56.4	3.8	8.46e-01	0	60	104	0	61	13496
2026-01-15 10:32:35.03	37.69	23.97	-44.9	-56.5	3.8	8.46e-01	0	60	104	0	61	13641
2026-01-15 10:32:36.04	37.41	23.93	-44.9	-56.6	3.8	8.46e-01	0	60	104	0	61	13873
2026-01-15 10:32:37.05	37.14	23.89	-45.0	-56.7	3.8	8.47e-01	0	61	104	0	61	14040
2026-01-15 10:32:38.06	36.86	23.85	-44.9	-56.7	3.8	8.47e-01	0	60	104	0	61	14030
2026-01-15 10:32:39.07	36.58	23.81	-44.9	-56.7	3.8	8.46e-01	0	61	104	0	61	14027
2026-01-15 10:32:40.08	36.31	23.77	-44.9	-56.7	3.8	8.47e-01	0	61	104	0	61	13931
2026-01-15 10:32:41.09	36.04	23.73	-44.9	-56.5	3.8	8.47e-01	0	60	104	0	61	13572
2026-01-15 10:32:42.10	35.76	23.69	-44.9	-56.0	3.8	8.47e-01	0	60	104	0	61	12868
2026-01-15 10:32:43.11	35.49	23.64	-44.8	-55.4	3.8	8.46e-01	0	61	104	0	61	12001
2026-01-15 10:32:44.12	35.22	23.60	-44.7	-55.0	3.8	8.46e-01	0	60	104	0	61	11519
2026-01-15 10:32:45.14	34.95	23.55	-44.8	-55.1	3.8	8.46e-01	0	61	104	0	61	11573
2026-01-15 10:32:46.15	34.68	23.51	-44.8	-55.2	3.8	8.45e-01	0	61	104	0	61	11769
2026-01-15 10:32:47.16	34.41	23.46	-44.8	-55.2	3.8	8.46e-01	0	60	104	0	61	11781
2026-01-15 10:32:48.17	34.14	23.42	-44.7	-54.9	3.9	8.44e-01	0	60	104	0	61	11387
2026-01-15 10:32:49.18	33.87	23.37	-44.7	-54.8	3.8	8.45e-01	0	61	104	0	61	11204
2026-01-15 10:32:50.19	33.60	23.32	-44.7	-54.6	3.9	8.45e-01	0	61	104	0	61	10915
2026-01-15 10:32:51.20	33.34	23.27	-44.7	-54.5	3.8	8.44e-01	0	60	104	0	61	10786
2026-01-15 10:32:52.21	33.07	23.23	-44.6	-54.0	4.0	8.44e-01	0	61	104	0	61	10242
2026-01-15 10:32:53.22	32.81	23.18	-44.4	-52.8	4.3	8.39e-01	0	61	0	0	60	9464
2026-01-15 10:32:54.23	32.54	23.13	-44.1	-50.9	5.1	7.79e-01	0	60	0	0	60	7625
2026-01-15 10:32:55.24	32.28	23.08	-43.4	-48.6	6.7	3.18e-01	0	61	0	3145728	58	6512
2026-01-15 10:32:56.25	32.02	23.03	-42.7	-46.7	8.5	6.06e-02	0	61	0	8388608	57	5585
2026-01-15 10:32:57.26	31.76	22.97	-42.0	-45.5	9.9	1.63e-02	0	60	0	14680064	56	5106
2026-01-15 10:32:58.27	31.50	22.92	-41.5	-44.6	10.7	4.48e-03	0	61	0	19922944	54	5164
2026-01-15 10:32:59.28	31.24	22.87	-41.3	-44.3	10.9	3.00e-03	0	60	0	26214400	54	5033
2026-01-15 10:33:00.29	30.98	22.82	-41.4	-44.5	10.7	3.30e-03	0	60	0	31457280	54	5157
2026-01-15 10:33:01.30	30.73	22.76	-41.9	-45.3	9.9	8.67e-03	0	61	0	37748736	54	5626
2026-01-15 10:33:02.31	30.47	22.71	-42.5	-46.6	8.5	2.86e-02	0	60	0	42991616	55	6179
2026-01-15 10:33:03.32	30.21	22.66	-43.2	-48.1	7.3	1.23e-01	0	61	0	49283072	56	6897
2026-01-15 10:33:04.33	29.96	22.60	-43.0	-47.5	7.8	1.39e-01	0	61	0	54525952	57	6062
2026-01-15 10:33:05.34	29.70	22.54	-41.4	-44.5	10.8	9.41e-03	0	61	0	59768832	54	5118
2026-01-15 10:33:06.35	29.45	22.49	-39.6	-41.7	13.7	1.03e-04	0	60	0	66060288	51	4433
2026-01-15 10:33:07.36	29.20	22.43	-38.1	-39.9	15.6	0.00e+00	0	61	0	71303168	48	4251
2026-01-15 10:33:08.37	28.95	22.38	-37.3	-38.9	16.5	0.00e+00	0	60	0	77594624	46	4265
2026-01-15 10:33:09.38	28.70	22.32	-37.4	-39.1	16.3	0.00e+00	0	61	0	82837504	46	4368
2026-01-15 10:33:10.39	28.45	22.26	-40.0	-42.3	12.9	2.13e-02	0	60	0	88080384	52	4485
2026-01-15 10:33:11.40	28.20	22.20	-37.2	-38.7	16.6	1.60e-05	0	61	0	94371840	46	4173
2026-01-15 10:33:12.41	27.95	22.14	-42.3	-46.1	9.1	4.34e-01	0	60	0	99614720	56	5490
2026-01-15 10:33:13.42	27.71	22.08	-37.7	-39.4	15.9	1.71e-05	0	61	0	104857600	47	4246
2026-01-15 10:33:14.43	27.46	22.02	-41.0	-43.9	11.3	3.01e-02	0	61	0	111149056	54	4784
2026-01-15 10:33:15.44	27.22	21.96	-37.9	-39.6	15.7	1.10e-06	0	61	0	116391936	47	4364
2026-01-15 10:33:16.45	26.98	21.90	-37.8	-39.5	15.9	0.00e+00	0	60	0	122683392	47	4305
2026-01-15 10:33:17.45	26.74	21.84	-37.6	-39.3	16.1	0.00e+00	0	61	0	127926272	47	4200
2026-01-15 10:33:18.46	26.49	21.78	-37.5	-39.2	16.2	0.00e+00	0	60	0	133169152	47	4149
2026-01-15 10:33:19.47	26.25	21.72	-37.4	-39.0	16.3	0.00e+00	0	61	0	139460608	46	4323
2026-01-15 10:33:20.48	26.01	21.66	-37.1	-38.7	16.7	0.00e+00	0	61	0	144703488	46	4160
2026-01-15 10:33:21.49	25.78	21.60	-37.0	-38.6	16.7	0.00e+00	0	61	0	150994944	46	4108
2026-01-15 10:33:22.50	25.54	21.53	-36.9	-38.5	16.8	0.00e+00	0	60	0	156237824	45	4302
2026-01-15 10:33:23.51	25.30	21.47	-36.8	-38.3	17.0	0.00e+00	0	61	0	161480704	45	4241
2026-01-15 10:33:24.52	25.07	21.41	-36.8	-38.3	17.0	0.00e+00	0	61	0	167772160	45	4238
2026-01-15 10:33:25.52	24.83	21.34	-36.9	-38.4	16.9	0.00e+00	0	61	0	173015040	45	4265
2026-01-15 10:33:26.53	24.60	21.28	-37.0	-38.5	16.8	0.00e+00	0	61	0	179306496	45	4321
2026-01-15 10:33:27.54	24.37	21.22	-37.1	-38.7	16.6	0.00e+00	0	61	0	184549376	45	4400
2026-01-15 10:33:28.55	24.14	21.15	-37.2	-38.8	16.5	0.00e+00	0	61	0	189792256	45	4448
2026-01-15 10:33:29.56	23.91	21.09	-37.2	-38.8	16.5	0.00e+00	0	61	0	196083712	45	4460
2026-01-15 10:33:30.57	23.68	21.02	-37.2	-38.8	16.5	0.00e+00	0	61	0	201326592	45	4455
2026-01-15 10:33:31.58	23.45	20.96	-37.2	-38.8	16.5	0.00e+00	0	61	0	207618048	45	4466
2026-01-15 10:33:32.59	23.22	20.89	-37.2	-38.8	16.5	0.00e+00	0	61	0	212860928	45	4486
2026-01-15 10:33:33.60	22.99	20.82	-37.2	-38.8	16.4	0.00e+00	0	61	0	219152384	45	4489
2026-01-15 10:33:34.61	22.77	20.76	-37.2	-38.8	16.4	0.00e+00	0	60	0	224395264	45	4491
2026-01-15 10:33:35.61	22.54	20.69	-37.2	-38.8	16.5	0.00e+00	0	61	0	229638144	45	4443
2026-01-15 10:33:36.62	22.32	20.62	-37.2	-38.7	16.5	0.00e+00	0	60	0	235929600	45	4433
2026-01-15 10:33:37.62	22.10	20.56	-37.2	-38.8	16.4	0.00e+00	0	61	0	241172480	45	4481
2026-01-15 10:33:38.63	21.88	20.49	-37.3	-39.0	16.3	0.00e+00	0	61	0	247463936	45	4565
2026-01-15 10:33:39.64	21.66	20.42	-37.5	-39.1	16.1	0.00e+00	0	61	0	252706816	45	4649
2026-01-15 10:33:40.65	21.44	20.35	-37.5	-39.2	16.1	0.00e+00	0	60	0	257949696	45	4668
2026-01-15 10:33:41.66	21.22	20.28	-37.5	-39.1	16.1	0.00e+00	0	60	0	264241152	45	4648
2026-01-15 10:33:42.67	21.00	20.21	-37.4	-39.0	16.2	0.00e+00	0	61	0	269484032	45	4596
2026-01-15 10:33:43.68	20.78	20.15	-37.4	-39.0	16.2	0.00e+00	0	61	0	275775488	45	4569
2026-01-15 10:33:44.69	20.57	20.08	-37.4	-39.1	16.2	0.00e+00	0	61	0	281018368	45	4613
2026-01-15 10:33:45.70	20.35	20.01	-37.5	-39.2	16.0	0.00e+00	0	60	0	286261248	45	4673
2026-01-15 10:33:46.70	20.14	19.94	-37.6	-39.3	15.9	0.00e+00	0	60	0	292552704	45	4746
2026-01-15 10:33:47.71	19.93	19.87	-37.7	-39.4	15.8	0.00e+00	0	60	0	297795584	45	4785
2026-01-15 10:33:48.72	19.72	19.80	-37.7	-39.4	15.8	0.00e+00	0	60	0	304087040	46	4515
2026-01-15 10:33:49.73	19.51	19.73	-37.5	-39.2	16.0	0.00e+00	0	61	0	309329920	46	4425
2026-01-15 10:33:50.74	19.30	19.66	-37.5	-39.2	16.0	0.00e+00	0	61	0	315621376	46	4415
2026-01-15 10:33:51.74	19.09	19.59	-37.6	-39.3	16.0	0.00e+00	0	60	0	320864256	46	4445
2026-01-15 10:33:52.75	18.88	19.51	-37.6	-39.3	15.9	0.00e+00	0	61	0	326107136	46	4489
2026-01-15 10:33:53.76	18.67	19.44	-37.7	-39.5	15.7	0.00e+00	0	61	0	332398592	46	4557
2026-01-15 10:33:54.77	18.47	19.37	-37.8	-39.5	15.7	0.00e+00	0	61	0	337641472	46	4598
2026-01-15 10:33:55.78	18.26	19.30	-37.7	-39.5	15.7	0.00e+00	0	61	0	343932928	46	4577
2026-01-15 10:33:56.79	18.06	19.23	-37.6	-39.3	15.8	0.00e+00	0	61	0	349175808	46	4474
2026-01-15 10:33:57.80	17.86	19.16	-37.6	-39.3	15.9	0.00e+00	0	61	0	354418688	46	4477
2026-01-15 10:33:58.81	17.65	19.09	-37.6	-39.4	15.8	0.00e+00	0	61	0	360710144	46	4515
2026-01-15 10:33:59.82	17.45	19.01	-37.8	-39.5	15.6	0.00e+00	0	61	0	365953024	46	4598
2026-01-15 10:34:00.83	17.25	18.94	-37.8	-39.6	15.6	0.00e+00	0	60	0	372244480	46	4626
2026-01-15 10:34:01.84	17.05	18.87	-37.7	-39.4	15.8	0.00e+00	0	61	0	377487360	46	4526
2026-01-15 10:34:02.84	16.86	18.80	-37.6	-39.3	15.8	0.00e+00	0	60	0	382730240	46	4483
2026-01-15 10:34:03.85	16.66	18.72	-37.6	-39.4	15.8	0.00e+00	0	61	0	389021696	46	4507
2026-01-15 10:34:04.86	16.46	18.65	-37.7	-39.5	15.7	0.00e+00	0	61	0	394264576	46	4549
2026-01-15 10:34:05.87	16.27	18.58	-37.7	-39.5	15.7	0.00e+00	0	61	0	400556032	46	4547
2026-01-15 10:34:06.88	16.07	18.50	-37.7	-39.4	15.7	0.00e+00	0	61	0	405798912	46	4544
2026-01-15 10:34:07.89	15.88	18.43	-37.7	-39.4	15.7	0.00e+00	0	61	0	412090368	46	4512
2026-01-15 10:34:08.90	15.69	18.36	-37.7	-39.4	15.7	0.00e+00	0	61	0	417333248	46	4511
2026-01-15 10:34:09.91	15.50	18.28	-37.7	-39.4	15.7	0.00e+00	0	61	0	422576128	46	4521
2026-01-15 10:34:10.91	15.31	18.21	-37.6	-39.4	15.7	0.00e+00	0	61	0	428867584	46	4496
2026-01-15 10:34:11.92	15.12	18.14	-37.7	-39.5	15.7	0.00e+00	0	61	0	434110464	46	4547
2026-01-15 10:34:12.93	14.93	18.06	-37.8	-39.6	15.5	0.00e+00	0	60	0	440401920	46	4602
2026-01-15 10:34:13.94	14.74	17.99	-37.8	-39.5	15.6	0.00e+00	0	61	0	445644800	46	4591
2026-01-15 10:34:14.95	14.55	17.91	-37.9	-39.7	15.4	0.00e+00	0	61	0	450887680	46	4657
2026-01-15 10:34:15.95	14.37	17.84	-37.9	-39.7	15.4	0.00e+00	0	60	0	457179136	46	4688
2026-01-15 10:34:16.96	14.19	17.77	-37.9	-39.7	15.3	0.00e+00	0	61	0	462422016	46	4684
2026-01-15 10:34:17.97	14.00	17.69	-37.9	-39.7	15.3	1.10e-06	0	61	0	468713472	46	4699
2026-01-15 10:34:18.98	13.82	17.62	-37.9	-39.7	15.3	0.00e+00	0	61	0	473956352	46	4694
2026-01-15 10:34:19.99	13.64	17.54	-38.0	-39.9	15.2	1.10e-06	0	61	0	479199232	46	4775
2026-01-15 10:34:21.00	13.45	17.47	-37.9	-39.7	15.3	0.00e+00	0	61	0	485490688	46	4696
2026-01-15 10:34:22.00	13.28	17.40	-37.9	-39.8	15.2	0.00e+00	0	61	0	490733568	46	4709
2026-01-15 10:34:23.01	13.10	17.32	-37.9	-39.7	15.3	0.00e+00	0	60	0	497025024	46	4675
2026-01-15 10:34:24.02	12.92	17.25	-37.9	-39.8	15.3	0.00e+00	0	60	0	502267904	46	4713
2026-01-15 10:34:25.03	12.74	17.17	-37.8	-39.6	15.4	0.00e+00	0	60	0	508559360	46	4625
2026-01-15 10:34:26.04	12.56	17.10	-37.8	-39.6	15.3	0.00e+00	0	61	0	513802240	46	4651
2026-01-15 10:34:27.05	12.39	17.02	-37.9	-39.8	15.2	1.10e-06	0	61	0	519045120	46	4709
2026-01-15 10:34:28.05	12.21	16.95	-38.1	-39.9	15.0	0.00e+00	0	61	0	525336576	46	4801
2026-01-15 10:34:29.06	12.04	16.87	-38.2	-40.1	14.8	0.00e+00	0	60	0	530579456	46	4889
2026-01-15 10:34:30.07	11.87	16.80	-38.2	-40.1	14.8	0.00e+00	0	61	0	536870912	47	4638
2026-01-15 10:34:31.08	11.69	16.72	-38.1	-40.0	14.9	0.00e+00	0	60	0	542113792	47	4574
2026-01-15 10:34:32.09	11.52	16.65	-38.0	-39.9	15.0	0.00e+00	0	61	0	547356672	47	4507
2026-01-15 10:34:33.10	11.35	16.57	-38.0	-39.9	14.9	1.10e-06	0	61	0	553648128	47	4544
2026-01-15 10:34:34.11	11.18	16.50	-38.1	-40.0	14.9	0.00e+00	0	61	0	558891008	47	4546
2026-01-15 10:34:35.12	11.01	16.42	-38.1	-40.0	14.8	0.00e+00	0	61	0	565182464	47	4590
2026-01-15 10:34:36.13	10.85	16.35	-38.2	-40.1	14.7	0.00e+00	0	61	0	570425344	47	4646
2026-01-15 10:34:37.13	10.68	16.27	-38.1	-40.0	14.8	2.20e-06	0	61	0	575668224	47	4596
2026-01-15 10:34:38.14	10.51	16.20	-38.1	-40.0	14.8	0.00e+00	0	61	0	581959680	47	4589
2026-01-15 10:34:39.15	10.35	16.12	-38.1	-40.0	14.8	1.10e-06	0	60	0	587202560	47	4592
2026-01-15 10:34:40.16	10.18	16.05	-38.1	-40.1	14.7	0.00e+00	0	61	0	593494016	47	4607
2026-01-15 10:34:41.17	10.02	15.97	-38.2	-40.2	14.6	1.10e-06	0	60	0	598736896	47	4674
2026-01-15 10:34:42.18	9.86	15.90	-38.3	-40.2	14.6	1.10e-06	0	60	0	605028352	47	4683
2026-01-15 10:34:43.19	9.69	15.82	-38.2	-40.1	14.6	0.00e+00	0	61	0	610271232	47	4648
2026-01-15 10:34:44.20	9.53	15.74	-38.2	-40.2	14.5	2.20e-06	0	60	0	615514112	47	4679
2026-01-15 10:34:45.21	9.37	15.67	-38.2	-40.1	14.5	1.10e-06	0	61	0	621805568	47	4636
2026-01-15 10:34:46.22	9.21	15.59	-38.3	-40.3	14.3	2.20e-06	0	60	0	627048448	47	4728
2026-01-15 10:34:47.23	9.05	15.52	-38.4	-40.5	14.1	3.40e-06	0	60	0	633339904	47	4841
2026-01-15 10:34:48.24	8.90	15.44	-38.2	-40.2	14.3	1.10e-06	0	60	0	638582784	47	4682
2026-01-15 10:34:49.24	8.74	15.37	-38.2	-40.3	14.2	1.10e-06	0	61	0	643825664	47	4706
2026-01-15 10:34:50.25	8.58	15.29	-38.4	-40.5	13.9	5.70e-06	0	61	0	650117120	47	4856
2026-01-15 10:34:51.26	8.43	15.22	-38.4	-40.6	13.8	4.50e-06	0	61	0	655360000	47	4878
2026-01-15 10:34:52.27	8.27	15.14	-38.5	-40.6	13.7	1.14e-05	0	61	0	660602880	47	4907
2026-01-15 10:34:53.27	8.12	15.07	-38.4	-40.6	13.8	1.02e-05	0	60	0	666894336	47	4892
2026-01-15 10:34:54.28	7.97	14.99	-38.5	-40.7	13.6	1.71e-05	0	61	0	672137216	47	4963
2026-01-15 10:34:55.29	7.81	14.92	-38.5	-40.7	13.7	1.37e-05	0	61	0	678428672	47	4935
2026-01-15 10:34:56.30	7.66	14.84	-38.4	-40.6	13.7	9.10e-06	0	61	0	683671552	47	4889
2026-01-15 10:34:57.31	7.51	14.77	-38.4	-40.6	13.6	1.37e-05	0	61	0	689963008	47	4907
2026-01-15 10:34:58.32	7.36	14.69	-38.3	-40.5	13.7	1.37e-05	0	60	0	695205888	47	4831
2026-01-15 10:34:59.33	7.21	14.62	-38.1	-40.2	14.0	5.70e-06	0	60	0	701497344	47	4679
2026-01-15 10:35:00.34	7.06	14.54	-38.2	-40.3	13.9	4.50e-06	0	60	0	706740224	47	4755
2026-01-15 10:35:01.35	6.92	14.47	-38.3	-40.4	13.8	1.25e-05	0	61	0	711983104	47	4792
2026-01-15 10:35:02.36	6.77	14.39	-38.2	-40.4	13.8	5.70e-06	0	61	0	718274560	47	4779
2026-01-15 10:35:03.37	6.62	14.32	-38.3	-40.5	13.7	4.50e-06	0	61	0	723517440	47	4850
2026-01-15 10:35:04.38	6.48	14.24	-38.5	-40.7	13.4	1.83e-05	0	61	0	729808896	47	4957
2026-01-15 10:35:05.39	6.33	14.17	-38.9	-41.2	13.0	3.77e-05	0	60	0	735051776	48	4975
2026-01-15 10:35:06.40	6.19	14.09	-38.7	-41.1	13.0	6.52e-05	0	61	0	740294656	48	4881
2026-01-15 10:35:07.40	6.05	14.02	-38.7	-41.1	12.9	7.09e-05	0	61	0	746586112	48	4875
2026-01-15 10:35:08.41	5.90	13.95	-38.7	-41.2	12.6	1.17e-04	0	60	0	751828992	48	4938
2026-01-15 10:35:09.42	5.76	13.87	-38.7	-41.2	12.5	2.02e-04	0	60	0	758120448	48	4936
2026-01-15 10:35:10.44	5.62	13.80	-38.9	-41.5	12.0	3.41e-04	0	61	0	763363328	48	5159
2026-01-15 10:35:11.45	5.48	13.72	-38.8	-41.6	11.8	7.28e-04	0	60	0	768606208	48	5180
2026-01-15 10:35:12.46	5.34	13.65	-38.6	-41.3	12.0	5.09e-04	0	61	0	774897664	48	4994
2026-01-15 10:35:13.47	5.20	13.57	-38.4	-41.0	12.1	3.50e-04	0	61	0	780140544	48	4839
2026-01-15 10:35:14.48	5.06	13.50	-38.3	-40.9	12.1	4.45e-04	0	61	0	786432000	48	4801
2026-01-15 10:35:15.49	4.92	13.42	-38.2	-40.8	12.2	3.00e-04	0	60	0	791674880	48	4753
2026-01-15 10:35:16.50	4.79	13.35	-38.2	-40.8	12.2	2.93e-04	0	61	0	797966336	48	4759
2026-01-15 10:35:17.51	4.65	13.28	-38.5	-41.4	11.5	7.35e-04	0	61	0	803209216	48	5053
2026-01-15 10:35:18.52	4.52	13.20	-39.0	-42.2	10.5	3.16e-03	0	60	0	808452096	48	5556
2026-01-15 10:35:19.52	4.38	13.13	-39.5	-43.3	9.2	1.24e-02	0	61	0	814743552	49	5938
2026-01-15 10:35:20.53	4.25	13.05	-39.9	-44.3	8.0	5.78e-02	0	61	0	819986432	50	6332
2026-01-15 10:35:21.54	4.12	12.98	-40.3	-45.6	6.7	1.53e-01	0	61	0	826277888	51	6956
2026-01-15 10:35:22.55	3.98	12.91	-40.6	-46.8	5.6	4.34e-01	0	60	0	831520768	51	7961
2026-01-15 10:35:23.56	3.85	12.83	-40.8	-48.5	4.6	7.81e-01	0	61	0	832569344	52	9124
2026-01-15 10:35:24.56	3.72	12.76	-40.9	-49.9	4.1	8.39e-01	0	61	0	832569344	52	10771
2026-01-15 10:35:25.57	3.59	12.69	-40.9	-51.3	3.8	8.45e-01	0	61	104	832569344	52	12523
2026-01-15 10:35:26.58	3.46	12.61	-40.9	-52.1	3.8	8.46e-01	0	61	104	832569344	52	13765
2026-01-15 10:35:27.59	3.33	12.54	-40.8	-52.3	3.8	8.46e-01	0	61	104	832569344	52	14189
2026-01-15 10:35:28.60	3.20	12.47	-40.7	-52.4	3.8	8.46e-01	0	61	104	832569344	52	14238
2026-01-15 10:35:29.61	3.07	12.39	-40.8	-52.3	3.8	8.46e-01	0	61	104	832569344	52	14181
2026-01-15 10:35:30.62	2.95	12.32	-41.2	-52.5	3.8	8.47e-01	0	61	104	832569344	52	14475
2026-01-15 10:35:31.63	2.82	12.25	-40.6	-52.5	3.8	8.46e-01	0	61	104	832569344	53	13627
2026-01-15 10:35:32.64	2.69	12.17	-40.3	-51.9	3.8	8.46e-01	0	61	104	832569344	52	13538
2026-01-15 10:35:33.65	2.57	12.10	-40.5	-52.3	3.8	8.46e-01	0	61	104	832569344	52	14090
2026-01-15 10:35:34.66	2.44	12.03	-40.4	-52.2	3.8	8.48e-01	0	61	104	832569344	52	13995
2026-01-15 10:35:35.67	2.32	11.96	-40.3	-52.0	3.8	8.47e-01	0	61	104	832569344	52	13667
2026-01-15 10:35:36.68	2.20	11.88	-40.2	-51.9	3.8	8.46e-01	0	61	104	832569344	52	13515
2026-01-15 10:35:37.69	2.07	11.81	-40.0	-51.8	3.8	8.46e-01	0	61	104	832569344	52	13324
2026-01-15 10:35:38.70	1.95	11.74	-40.1	-51.9	3.8	8.46e-01	0	61	104	832569344	52	13532
2026-01-15 10:35:39.71	1.83	11.67	-40.6	-52.4	3.8	8.47e-01	0	61	104	832569344	52	14259
2026-01-15 10:35:40.72	1.71	11.59	-40.9	-52.6	3.8	8.45e-01	0	61	104	832569344	52	14680
2026-01-15 10:35:41.73	1.59	11.52	-40.2	-52.0	3.8	8.47e-01	0	61	104	832569344	52	13610
2026-01-15 10:35:42.74	1.47	11.45	-40.0	-51.8	3.8	8.46e-01	0	61	104	832569344	52	13355
2026-01-15 10:35:43.75	1.35	11.38	-40.0	-51.8	3.8	8.47e-01	0	61	104	832569344	52	13334
2026-01-15 10:35:44.76	1.23	11.30	-40.0	-51.8	3.8	8.46e-01	0	61	104	832569344	51	14182
2026-01-15 10:35:45.77	1.11	11.23	-40.0	-51.9	3.8	8.45e-01	0	61	104	832569344	51	14229
2026-01-15 10:35:46.78	1.00	11.16	-40.0	-51.8	3.8	8.46e-01	0	61	104	832569344	51	14194
2026-01-15 10:35:47.79	0.88	11.09	-40.5	-52.4	3.8	8.45e-01	0	61	104	832569344	51	15107
2026-01-15 10:35:48.80	0.76	11.02	-40.0	-51.8	3.8	8.47e-01	0	61	104	832569344	51	14194
2026-01-15 10:35:49.81	0.65	10.95	-40.0	-51.9	3.8	8.46e-01	0	61	104	832569344	51	14236
2026-01-15 10:35:50.82	0.53	10.87	-40.0	-51.8	3.8	8.45e-01	0	61	104	832569344	51	14194
2026-01-15 10:35:51.83	0.42	10.80	-39.9	-51.8	3.8	8.45e-01	0	61	104	832569344	51	14115
2026-01-15 10:35:52.84	0.30	10.73	-39.9	-51.8	3.8	8.48e-01	0	61	104	832569344	51	14115
2026-01-15 10:35:53.85	0.19	10.66	-39.7	-51.7	3.8	8.45e-01	0	61	104	832569344	51	13997
2026-01-15 10:35:54.85	0.08	10.59	-39.8	-51.7	3.8	8.47e-01	0	61	104	832569344	51	14026
2026-01-15 10:35:55.86	359.97	10.52	-40.2	-52.1	3.8	8.46e-01	0	61	104	832569344	51	14704
2026-01-15 10:35:56.87	359.85	10.45	-39.5	-51.8	3.8	8.45e-01	0	61	104	832569344	51	14081
2026-01-15 10:35:57.88	359.74	10.38	-40.1	-52.0	3.8	8.47e-01	0	61	104	832569344	50	15238
2026-01-15 10:35:58.89	359.63	10.31	-39.4	-51.8	3.8	8.46e-01	0	61	104	832569344	50	14886
2026-01-15 10:35:59.90	359.52	10.24	-40.0	-51.9	3.8	8.46e-01	0	61	104	832569344	50	15123
2026-01-15 10:36:00.91	359.41	10.17	-39.9	-52.0	3.8	8.46e-01	0	61	104	832569344	50	15315
2026-01-15 10:36:01.92	359.30	10.10	-39.5	-51.7	3.8	8.47e-01	0	61	104	832569344	50	14878
2026-01-15 10:36:02.93	359.20	10.03	-39.8	-52.0	3.8	8.46e-01	0	61	104	832569344	50	15228
2026-01-15 10:36:03.94	359.09	9.96	-39.5	-51.8	3.8	8.47e-01	0	61	104	832569344	50	14915
2026-01-15 10:36:04.95	358.98	9.89	-39.8	-51.7	3.8	8.45e-01	0	61	104	832569344	50	14792
2026-01-15 10:36:05.96	358.87	9.82	-39.6	-51.8	3.8	8.47e-01	0	61	104	832569344	50	14983
2026-01-15 10:36:06.97	358.77	9.75	-39.7	-51.7	3.8	8.46e-01	0	61	104	832569344	50	14755
2026-01-15 10:36:07.98	358.66	9.68	-39.5	-51.8	3.8	8.47e-01	0	61	104	832569344	50	14908
2026-01-15 10:36:08.98	358.56	9.61	-39.8	-51.9	3.8	8.47e-01	0	61	104	832569344	50	15115
2026-01-15 10:36:09.99	358.45	9.54	-39.6	-51.7	3.8	8.46e-01	0	61	104	832569344	50	14824
2026-01-15 10:36:11.00	358.35	9.47	-39.8	-51.9	3.8	8.46e-01	0	61	104	832569344	50	15072
2026-01-15 10:36:12.01	358.25	9.40	-39.6	-51.7	3.8	8.48e-01	0	61	104	832569344	50	14742
2026-01-15 10:36:13.02	358.14	9.33	-39.6	-51.7	3.8	8.46e-01	0	61	104	832569344	50	14824
2026-01-15 10:36:14.03	358.04	9.26	-39.6	-51.7	3.8	8.46e-01	0	61	104	832569344	50	14847
2026-01-15 10:36:15.05	357.94	9.19	-39.6	-51.7	3.8	8.45e-01	0	61	104	832569344	50	14781
2026-01-15 10:36:16.06	357.84	9.12	-39.7	-51.7	3.8	8.45e-01	0	61	104	832569344	50	14800
2026-01-15 10:36:17.07	357.73	9.05	-39.6	-51.8	3.8	8.46e-01	0	61	104	832569344	50	14895
2026-01-15 10:36:18.08	357.63	8.98	-39.5	-51.6	3.8	8.46e-01	0	61	104	832569344	50	14702
2026-01-15 10:36:19.09	357.53	8.91	-39.5	-51.8	3.8	8.46e-01	0	61	104	832569344	50	14923
2026-01-15 10:36:20.10	357.43	8.85	-39.4	-51.7	3.8	8.46e-01	0	61	104	832569344	50	14741
2026-01-15 10:36:21.11	357.33	8.78	-39.6	-51.7	3.8	8.47e-01	0	61	104	832569344	50	14711
2026-01-15 10:36:22.12	357.24	8.71	-39.6	-51.7	3.8	8.46e-01	0	61	104	832569344	50	14780
2026-01-15 10:36:23.13	357.14	8.64	-39.5	-51.6	3.8	8.45e-01	0	61	104	832569344	50	14667
2026-01-15 10:36:24.14	357.04	8.57	-39.6	-51.7	3.8	8.45e-01	0	61	104	832569344	50	14792
2026-01-15 10:36:25.15	356.94	8.50	-39.6	-51.7	3.8	8.46e-01	0	61	104	832569344	50	14799
2026-01-15 10:36:26.16	356.85	8.44	-39.6	-51.6	3.8	8.46e-01	0	61	104	832569344	50	14688
2026-01-15 10:36:27.17	356.75	8.37	-39.6	-51.7	3.8	8.46e-01	0	61	104	832569344	50	14792
2026-01-15 10:36:28.18	356.65	8.30	-39.7	-51.6	3.8	8.47e-01	0	61	104	832569344	50	14641
2026-01-15 10:36:29.19	356.56	8.23	-39.5	-51.7	3.8	8.46e-01	0	61	104	832569344	50	14767
2026-01-15 10:36:30.20	356.46	8.17	-39.7	-51.7	3.8	8.47e-01	0	61	104	832569344	50	14765
2026-01-15 10:36:31.21	356.37	8.10	-39.6	-51.6	3.8	8.46e-01	0	61	104	832569344	50	14703
2026-01-15 10:36:32.23	356.27	8.03	-39.7	-51.6	3.8	8.46e-01	0	61	104	832569344	50	14697
2026-01-15 10:36:33.24	356.18	7.96	-40.5	-52.5	3.8	8.46e-01	0	61	104	832569344	51	15257
2026-01-15 10:36:34.25	356.09	7.90	-44.1	-55.7	3.8	8.46e-01	0	61	104	832569344	58	14803
2026-01-15 10:36:35.26	355.99	7.83	-44.8	-56.5	3.8	8.47e-01	0	61	104	832569344	60	14486
2026-01-15 10:36:36.27	355.90	7.76	-45.0	-56.8	3.8	8.46e-01	0	61	104	832569344	60	14962
2026-01-15 10:36:37.28	355.81	7.70	-45.1	-57.0	3.8	8.46e-01	0	61	104	832569344	60	15230
2026-01-15 10:36:38.29	355.72	7.63	-45.3	-57.0	3.8	8.47e-01	0	61	104	832569344	61	14498
2026-01-15 10:36:39.30	355.63	7.56	-45.3	-57.0	3.8	8.45e-01	0	61	104	832569344	61	14529
2026-01-15 10:36:40.31	355.54	7.50	-45.3	-57.1	3.8	8.46e-01	0	61	104	832569344	61	14574
2026-01-15 10:36:41.32	355.45	7.43	-45.3	-57.0	3.8	8.45e-01	0	61	104	832569344	61	14531
2026-01-15 10:36:42.33	355.36	7.36	-44.9	-56.6	3.9	8.47e-01	0	61	104	832569344	60	14690
2026-01-15 10:36:43.34	355.27	7.30	-39.9	-55.8	3.8	8.45e-01	0	61	104	832569344	53	19925
2026-01-15 10:36:44.35	355.18	7.23	-45.2	-57.0	3.8	8.45e-01	0	61	104	832569344	61	14424
2026-01-15 10:36:45.37	355.09	7.16	-45.3	-57.0	3.8	8.46e-01	0	61	104	832569344	61	14399
2026-01-15 10:36:46.38	355.00	7.10	-45.3	-56.9	3.8	8.46e-01	0	61	104	832569344	61	14316
2026-01-15 10:36:47.39	354.92	7.03	-45.3	-56.9	3.8	8.46e-01	0	61	104	832569344	61	14325
2026-01-15 10:36:48.40	354.83	6.97	-44.7	-56.7	3.8	8.45e-01	0	61	104	832569344	60	14879
2026-01-15 10:36:49.41	354.74	6.90	-45.2	-56.8	3.8	8.47e-01	0	61	104	832569344	61	14173
2026-01-15 10:36:50.42	354.66	6.84	-45.2	-56.9	3.8	8.44e-01	0	61	104	832569344	60	15091
2026-01-15 10:36:51.43	354.57	6.77	-43.8	-56.6	3.8	8.45e-01	0	61	104	832569344	59	15513
2026-01-15 10:36:52.44	354.48	6.71	-44.7	-56.7	3.8	8.46e-01	0	61	104	832569344	60	14856
2026-01-15 10:36:53.45	354.40	6.64	-45.2	-56.8	3.8	8.46e-01	0	61	104	832569344	60	15001
2026-01-15 10:36:54.46	354.31	6.58	-45.2	-56.8	3.8	8.46e-01	0	61	104	832569344	60	15018
2026-01-15 10:36:55.47	354.23	6.51	-45.2	-56.8	3.8	8.46e-01	0	61	104	832569344	60	15030
2026-01-15 10:36:56.48	354.15	6.45	-45.1	-56.8	3.8	8.47e-01	0	61	104	832569344	60	15044
2026-01-15 10:36:57.49	354.06	6.38	-45.2	-56.8	3.8	8.45e-01	0	61	104	832569344	60	15007
2026-01-15 10:36:58.50	353.98	6.32	-45.2	-56.9	3.8	8.46e-01	0	61	104	832569344	60	15105
2026-01-15 10:36:59.51	353.90	6.25	-44.6	-56.8	3.8	8.45e-01	0	61	104	832569344	60	15009
2026-01-15 10:37:00.52	353.81	6.19	-45.1	-56.8	3.8	8.46e-01	0	61	104	832569344	60	14997
2026-01-15 10:37:01.53	353.73	6.12	-45.1	-56.8	3.8	8.46e-01	0	61	104	832569344	60	14916
2026-01-15 10:37:02.54	353.65	6.06	-45.0	-56.8	3.8	8.47e-01	0	61	104	832569344	60	15026
2026-01-15 10:37:03.55	353.57	6.00	-45.2	-56.8	3.8	8.47e-01	0	61	104	832569344	60	15014
2026-01-15 10:37:04.56	353.49	5.93	-45.2	-56.8	3.8	8.47e-01	0	61	104	832569344	60	15035
2026-01-15 10:37:05.56	353.41	5.87	-45.2	-56.8	3.8	8.47e-01	0	61	104	832569344	60	15003
2026-01-15 10:37:06.58	353.33	5.80	-45.2	-56.8	3.8	8.45e-01	0	61	104	832569344	60	14992
2026-01-15 10:37:07.59	353.25	5.74	-45.2	-56.8	3.8	8.46e-01	0	61	104	832569344	60	15007
2026-01-15 10:37:08.60	353.17	5.68	-45.2	-56.8	3.8	8.46e-01	0	61	104	832569344	60	14980
2026-01-15 10:37:09.60	353.09	5.61	-45.2	-56.8	3.8	8.47e-01	0	61	104	832569344	60	15011
2026-01-15 10:37:10.61	353.01	5.55	-44.6	-56.8	3.8	8.46e-01	0	61	104	832569344	60	15004
2026-01-15 10:37:11.62	352.93	5.49	-45.2	-56.9	3.8	8.47e-01	0	61	104	832569344	60	15067
2026-01-15 10:37:12.63	352.86	5.42	-45.2	-56.8	3.8	8.47e-01	0	61	104	832569344	60	15040
2026-01-15 10:37:13.63	352.78	5.36	-45.1	-56.8	3.8	8.45e-01	0	61	104	832569344	60	14990
2026-01-15 10:37:14.64	352.70	5.30	-45.2	-56.8	3.8	8.45e-01	0	61	104	832569344	60	14985
2026-01-15 10:37:15.65	352.62	5.24	-45.2	-56.8	3.8	8.46e-01	0	61	104	832569344	60	14940
2026-01-15 10:37:16.66	352.55	5.17	-45.2	-56.8	3.8	8.45e-01	0	61	104	832569344	60	15013
2026-01-15 10:37:17.67	352.47	5.11	-45.2	-56.8	3.8	8.46e-01	0	61	104	832569344	60	14960
2026-01-15 10:37:18.68	352.40	5.05	-45.2	-56.8	3.8	8.47e-01	0	61	104	832569344	60	14972
2026-01-15 10:37:19.69	352.32	4.98	-45.2	-56.9	3.8	8.46e-01	0	61	104	832569344	60	15065
2026-01-15 10:37:20.70	352.24	4.92	-45.2	-56.8	3.8	8.46e-01	0	61	104	832569344	60	15010
2026-01-15 10:37:21.71	352.17	4.86	-45.1	-56.8	3.8	8.45e-01	0	61	104	832569344	60	15034
2026-01-15 10:37:22.71	352.10	4.80	-45.2	-56.8	3.8	8.46e-01	0	61	104	832569344	60	15019
2026-01-15 10:37:23.72	352.02	4.74	-45.2	-56.8	3.8	8.45e-01	0	61	104	832569344	60	15005
2026-01-15 10:37:24.73	351.95	4.67	-45.2	-56.8	3.8	8.46e-01	0	61	104	832569344	60	14985
2026-01-15 10:37:25.74	351.87	4.61	-45.2	-56.8	3.8	8.47e-01	0	61	104	832569344	60	14933
2026-01-15 10:37:26.75	351.80	4.55	-45.2	-56.8	3.8	8.47e-01	0	61	104	832569344	60	14958
2026-01-15 10:37:27.76	351.73	4.49	-45.2	-56.8	3.8	8.46e-01	0	61	104	832569344	60	14955
2026-01-15 10:37:28.77	351.66	4.43	-45.2	-56.8	3.8	8.47e-01	0	61	104	832569344	60	15003
2026-01-15 10:37:29.78	351.58	4.37	-45.1	-56.8	3.8	8.46e-01	0	61	104	832569344	60	14996
2026-01-15 10:37:30.79	351.51	4.30	-45.1	-56.8	3.8	8.47e-01	0	61	104	832569344	60	14952
2026-01-15 10:37:31.80	351.44	4.24	-45.1	-56.8	3.8	8.47e-01	0	61	104	832569344	60	14940
2026-01-15 10:37:32.81	351.37	4.18	-45.2	-56.8	3.8	8.46e-01	0	61	104	832569344	60	14990
2026-01-15 10:37:33.82	351.30	4.12	-44.9	-56.8	3.8	8.46e-01	0	61	104	832569344	60	14972
2026-01-15 10:37:34.83	351.23	4.06	-45.2	-56.8	3.8	8.46e-01	0	61	104	832569344	60	14970
2026-01-15 10:37:35.85	351.16	4.00	-45.1	-56.8	3.8	8.45e-01	0	61	104	832569344	60	14980
2026-01-15 10:37:36.86	351.09	3.94	-45.1	-56.8	3.8	8.44e-01	0	61	104	832569344	60	14938
2026-01-15 10:37:37.87	351.02	3.88	-45.2	-56.8	3.8	8.46e-01	0	61	104	832569344	60	14948
2026-01-15 10:37:38.88	350.95	3.82	-45.1	-56.8	3.8	8.47e-01	0	61	104	832569344	60	14992
2026-01-15 10:37:39.89	350.88	3.76	-45.2	-56.8	3.8	8.46e-01	0	61	104	832569344	60	14994
2026-01-15 10:37:40.90	350.81	3.69	-44.9	-56.8	3.8	8.47e-01	0	61	104	832569344	60	14916
2026-01-15 10:37:41.91	350.74	3.63	-44.9	-56.8	3.8	8.46e-01	0	61	104	832569344	60	14983
2026-01-15 10:37:42.92	350.67	3.57	-45.1	-56.8	3.8	8.47e-01	0	61	104	832569344	60	15031
2026-01-15 10:37:43.93	350.60	3.51	-45.2	-56.8	3.8	8.47e-01	0	61	104	832569344	60	14940
2026-01-15 10:37:44.94	350.54	3.45	-45.1	-56.8	3.8	8.46e-01	0	61	104	832569344	60	14987
2026-01-15 10:37:45.95	350.47	3.39	-45.1	-56.8	3.8	8.45e-01	0	61	104	832569344	60	14979
2026-01-15 10:37:46.96	350.40	3.33	-45.1	-56.8	3.8	8.45e-01	0	61	104	832569344	60	14981
2026-01-15 10:37:47.97	350.34	3.27	-45.2	-56.8	3.8	8.47e-01	0	61	104	832569344	60	14912
2026-01-15 10:37:48.98	350.27	3.21	-45.2	-56.8	3.8	8.46e-01	0	61	104	832569344	60	14975
2026-01-15 10:37:49.99	350.20	3.15	-45.2	-56.8	3.8	8.47e-01	0	61	104	832569344	60	14928
2026-01-15 10:37:51.00	350.14	3.10	-44.7	-56.7	3.8	8.47e-01	0	61	104	832569344	60	14832
2026-01-15 10:37:52.01	350.07	3.04	-45.1	-56.8	3.8	8.46e-01	0	61	104	832569344	60	15030
2026-01-15 10:37:53.02	350.01	2.98	-45.1	-56.8	3.8	8.45e-01	0	61	104	832569344	60	14975
2026-01-15 10:37:54.03	349.94	2.92	-45.2	-56.8	3.8	8.46e-01	0	61	104	832569344	60	14992
2026-01-15 10:37:55.04	349.88	2.86	-45.2	-56.8	3.8	8.47e-01	0	61	104	832569344	60	14964
2026-01-15 10:37:56.05	349.81	2.80	-45.2	-56.8	3.8	8.46e-01	0	61	104	832569344	60	14906
2026-01-15 10:37:57.06	349.75	2.74	-45.1	-56.8	3.8	8.45e-01	0	61	104	832569344	60	14951
2026-01-15 10:37:58.07	349.68	2.68	-45.1	-56.8	3.8	8.46e-01	0	61	104	832569344	60	14964
2026-01-15 10:37:59.08	349.62	2.62	-45.1	-56.8	3.8	8.46e-01	0	61	104	832569344	60	14917
2026-01-15 10:38:00.09	349.56	2.56	-45.0	-56.8	3.8	8.46e-01	0	61	104	832569344	60	14940
2026-01-15 10:38:01.10	349.49	2.50	-45.2	-56.8	3.8	8.47e-01	0	61	104	832569344	60	14963
2026-01-15 10:38:02.11	349.43	2.45	-45.1	-56.8	3.8	8.46e-01	0	61	104	832569344	60	14963
2026-01-15 10:38:03.12	349.37	2.39	-45.2	-56.8	3.8	8.46e-01	0	61	104	832569344	60	14984
2026-01-15 10:38:04.12	349.31	2.33	-45.2	-56.8	3.8	8.46e-01	0	61	104	832569344	60	14927
2026-01-15 10:38:05.13	349.24	2.27	-45.0	-56.8	3.8	8.46e-01	0	61	104	832569344	60	14922
2026-01-15 10:38:06.14	349.18	2.21	-45.1	-56.8	3.8	8.47e-01	0	61	104	832569344	60	14909
2026-01-15 10:38:07.15	349.12	2.16	-45.2	-56.8	3.8	8.45e-01	0	61	104	832569344	60	14909
2026-01-15 10:38:08.16	349.06	2.10	-45.2	-56.8	3.8	8.45e-01	0	61	104	832569344	60	14904
2026-01-15 10:38:09.17	349.00	2.04	-45.1	-56.8	3.8	8.46e-01	0	61	104	832569344	60	14975

#Closed at: 2026-01-15 10:38:09
#Recorded file [832 MB]: D:/lorett/data/31039_260115_133214.dat