passes_logs/2026/01/15/R2.0S_Moscow/R2.0S_Moscow__20260115_003334_FENGYUN_3D_rec.log

#Pass ID: 20260115_003334_FENGYUN 3D
#Satellite: FENGYUN 3D
#Configuration: FENGYUN 3D
#almurnet v.1.7.20251203
#Start time: 2026-01-15 00:33:35

#Version: 2.2.20231116
#Station: R2.0S_Moscow
#Location: 37.707566 lon 55.798166 lat
#TLE: 1 43010U 17072A   26014.22831475  .00000226  00000+0  12883-3 0  9994
#TLE: 2 43010  98.9934 346.0326 0002309 109.2304 250.9121 14.19696287423146

#Time	Az	El	Level	Level2	SNR	BER	BlckErr	Temp	State	Recorded	gain1	gain2
2026-01-15 00:33:35.86	23.34	2.06	-42.2	-54.4	3.8	8.47e-01	0	49	0	0	56	14210
2026-01-15 00:33:36.87	23.40	2.12	-42.0	-54.2	3.8	8.45e-01	0	49	104	0	54	15612
2026-01-15 00:33:37.88	23.46	2.18	-42.0	-54.2	3.8	8.47e-01	0	49	104	0	54	15598
2026-01-15 00:33:38.89	23.52	2.24	-42.0	-54.2	3.8	8.46e-01	0	49	104	0	54	15607
2026-01-15 00:33:39.89	23.57	2.29	-42.0	-54.2	3.8	8.46e-01	0	49	104	0	54	15599
2026-01-15 00:33:40.91	23.63	2.35	-42.0	-54.2	3.8	8.45e-01	0	49	104	0	54	15603
2026-01-15 00:33:41.92	23.69	2.41	-42.0	-54.2	3.8	8.46e-01	0	49	104	0	54	15618
2026-01-15 00:33:42.92	23.75	2.47	-42.0	-54.2	3.8	8.47e-01	0	49	104	0	54	15617
2026-01-15 00:33:43.93	23.81	2.53	-42.0	-54.2	3.8	8.46e-01	0	49	104	0	54	15659
2026-01-15 00:33:44.94	23.87	2.59	-42.0	-54.1	3.8	8.45e-01	0	49	104	0	54	15579
2026-01-15 00:33:45.95	23.93	2.65	-42.0	-54.2	3.8	8.45e-01	0	49	104	0	54	15632
2026-01-15 00:33:46.96	23.99	2.71	-42.0	-54.2	3.8	8.46e-01	0	50	104	0	54	15615
2026-01-15 00:33:47.97	24.05	2.77	-42.0	-54.2	3.8	8.46e-01	0	50	104	0	54	15583
2026-01-15 00:33:48.98	24.11	2.83	-42.0	-54.2	3.8	8.46e-01	0	50	104	0	54	15583
2026-01-15 00:33:49.99	24.18	2.89	-42.0	-54.2	3.8	8.46e-01	0	50	104	0	54	15631
2026-01-15 00:33:51.00	24.24	2.95	-42.0	-54.2	3.8	8.45e-01	0	50	104	0	54	15619
2026-01-15 00:33:52.01	24.30	3.01	-42.0	-54.2	3.8	8.47e-01	0	50	104	0	54	15612
2026-01-15 00:33:53.02	24.36	3.07	-42.0	-54.2	3.8	8.47e-01	0	50	104	0	54	15642
2026-01-15 00:33:54.03	24.42	3.13	-42.0	-54.2	3.8	8.46e-01	0	50	104	0	54	15628
2026-01-15 00:33:55.04	24.49	3.19	-42.0	-54.2	3.8	8.47e-01	0	50	104	0	54	15586
2026-01-15 00:33:56.06	24.55	3.25	-42.0	-54.2	3.8	8.47e-01	0	50	104	0	54	15616
2026-01-15 00:33:57.07	24.61	3.31	-42.0	-54.2	3.8	8.47e-01	0	50	104	0	54	15621
2026-01-15 00:33:58.08	24.67	3.37	-42.0	-54.1	3.8	8.46e-01	0	50	104	0	54	15502
2026-01-15 00:33:59.09	24.74	3.43	-42.0	-54.2	3.8	8.46e-01	0	51	104	0	54	15599
2026-01-15 00:34:00.10	24.80	3.49	-42.0	-54.1	3.8	8.46e-01	0	51	104	0	54	15538
2026-01-15 00:34:01.10	24.86	3.55	-42.0	-54.2	3.8	8.45e-01	0	51	104	0	54	15618
2026-01-15 00:34:02.11	24.93	3.62	-42.0	-54.2	3.8	8.45e-01	0	50	104	0	54	15588
2026-01-15 00:34:03.12	24.99	3.68	-42.0	-54.2	3.8	8.46e-01	0	51	104	0	54	15594
2026-01-15 00:34:04.13	25.06	3.74	-42.0	-54.2	3.8	8.46e-01	0	51	104	0	54	15630
2026-01-15 00:34:05.14	25.12	3.80	-42.0	-54.2	3.8	8.45e-01	0	51	104	0	54	15616
2026-01-15 00:34:06.15	25.19	3.86	-42.0	-54.1	3.8	8.46e-01	0	51	104	0	54	15578
2026-01-15 00:34:07.15	25.25	3.92	-42.0	-54.2	3.8	8.47e-01	0	51	104	0	54	15605
2026-01-15 00:34:08.16	25.32	3.98	-42.0	-54.2	3.8	8.46e-01	0	51	104	0	54	15593
2026-01-15 00:34:09.17	25.38	4.05	-42.0	-54.2	3.8	8.46e-01	0	51	104	0	54	15596
2026-01-15 00:34:10.18	25.45	4.11	-42.0	-54.2	3.8	8.47e-01	0	51	104	0	54	15592
2026-01-15 00:34:11.19	25.52	4.17	-42.0	-54.1	3.8	8.45e-01	0	51	104	0	54	15551
2026-01-15 00:34:12.20	25.58	4.23	-42.0	-54.1	3.8	8.46e-01	0	51	104	0	54	15574
2026-01-15 00:34:13.21	25.65	4.30	-42.0	-54.2	3.8	8.46e-01	0	51	104	0	54	15586
2026-01-15 00:34:14.22	25.72	4.36	-42.0	-54.2	3.8	8.46e-01	0	51	104	0	54	15606
2026-01-15 00:34:15.23	25.78	4.42	-42.0	-54.1	3.8	8.46e-01	0	52	104	0	54	15550
2026-01-15 00:34:16.24	25.85	4.48	-42.0	-54.1	3.8	8.45e-01	0	52	104	0	54	15556
2026-01-15 00:34:17.25	25.92	4.55	-42.0	-54.2	3.8	8.46e-01	0	52	104	0	54	15588
2026-01-15 00:34:18.26	25.99	4.61	-42.0	-54.1	3.8	8.44e-01	0	52	104	0	54	15544
2026-01-15 00:34:19.27	26.06	4.67	-42.0	-54.2	3.8	8.47e-01	0	52	104	0	54	15649
2026-01-15 00:34:20.28	26.13	4.74	-42.0	-54.1	3.8	8.47e-01	0	52	104	0	54	15575
2026-01-15 00:34:21.29	26.19	4.80	-42.0	-54.1	3.8	8.47e-01	0	52	104	0	54	15570
2026-01-15 00:34:22.30	26.26	4.86	-42.0	-54.2	3.8	8.45e-01	0	52	104	0	54	15621
2026-01-15 00:34:23.31	26.33	4.93	-42.0	-54.1	3.8	8.44e-01	0	52	104	0	54	15572
2026-01-15 00:34:24.32	26.40	4.99	-42.0	-54.1	3.8	8.45e-01	0	52	104	0	54	15566
2026-01-15 00:34:25.33	26.47	5.05	-42.0	-54.1	3.8	8.46e-01	0	52	104	0	54	15519
2026-01-15 00:34:26.34	26.54	5.12	-42.0	-54.2	3.8	8.47e-01	0	52	104	0	54	15618
2026-01-15 00:34:27.35	26.61	5.18	-42.0	-54.1	3.8	8.47e-01	0	52	104	0	54	15548
2026-01-15 00:34:28.36	26.69	5.25	-42.0	-54.2	3.8	8.45e-01	0	52	104	0	54	15632
2026-01-15 00:34:29.37	26.76	5.31	-42.0	-54.1	3.8	8.47e-01	0	52	104	0	54	15568
2026-01-15 00:34:30.38	26.83	5.37	-42.0	-54.1	3.8	8.46e-01	0	52	104	0	54	15578
2026-01-15 00:34:31.40	26.90	5.44	-42.0	-54.1	3.8	8.46e-01	0	52	104	0	54	15562
2026-01-15 00:34:32.41	26.97	5.50	-42.0	-54.1	3.8	8.45e-01	0	52	104	0	54	15577
2026-01-15 00:34:33.42	27.05	5.57	-42.0	-54.1	3.8	8.46e-01	0	52	104	0	54	15572
2026-01-15 00:34:34.43	27.12	5.63	-42.0	-54.1	3.8	8.44e-01	0	52	104	0	54	15580
2026-01-15 00:34:35.44	27.19	5.70	-42.0	-54.2	3.8	8.46e-01	0	53	104	0	54	15589
2026-01-15 00:34:36.45	27.27	5.76	-42.0	-54.1	3.8	8.45e-01	0	53	104	0	54	15421
2026-01-15 00:34:37.46	27.34	5.83	-42.0	-54.1	3.8	8.46e-01	0	53	104	0	54	15429
2026-01-15 00:34:38.47	27.41	5.90	-42.0	-54.1	3.8	8.46e-01	0	53	104	0	54	15502
2026-01-15 00:34:39.48	27.49	5.96	-42.0	-54.1	3.8	8.46e-01	0	53	104	0	54	15492
2026-01-15 00:34:40.49	27.56	6.03	-42.0	-54.1	3.8	8.46e-01	0	53	104	0	54	15493
2026-01-15 00:34:41.50	27.64	6.09	-42.0	-54.1	3.8	8.45e-01	0	53	104	0	54	15407
2026-01-15 00:34:42.51	27.71	6.16	-42.0	-54.1	3.8	8.46e-01	0	53	104	0	54	15421
2026-01-15 00:34:43.52	27.79	6.22	-42.0	-54.0	3.8	8.46e-01	0	53	104	0	54	15358
2026-01-15 00:34:44.53	27.86	6.29	-42.0	-53.9	3.8	8.46e-01	0	53	104	0	54	15202
2026-01-15 00:34:45.54	27.94	6.36	-42.0	-53.7	3.8	8.47e-01	0	53	104	0	54	14848
2026-01-15 00:34:46.55	28.02	6.42	-41.9	-53.0	3.8	8.44e-01	0	53	104	0	54	13646
2026-01-15 00:34:47.56	28.09	6.49	-41.8	-52.2	3.8	8.44e-01	0	53	104	0	54	12501
2026-01-15 00:34:48.57	28.17	6.56	-41.7	-51.5	3.8	8.43e-01	0	53	104	0	54	11435
2026-01-15 00:34:49.58	28.25	6.62	-41.7	-51.6	3.9	8.43e-01	0	53	104	0	54	11605
2026-01-15 00:34:50.59	28.33	6.69	-41.7	-51.4	4.0	8.44e-01	0	53	104	0	54	11312
2026-01-15 00:34:51.60	28.41	6.76	-41.8	-51.6	4.0	8.44e-01	0	53	104	0	54	11638
2026-01-15 00:34:52.61	28.48	6.83	-41.7	-51.5	4.0	8.44e-01	0	53	104	0	54	11473
2026-01-15 00:34:53.61	28.56	6.89	-41.6	-50.5	4.2	8.41e-01	0	53	0	0	54	10208
2026-01-15 00:34:54.62	28.64	6.96	-41.6	-50.5	4.2	8.36e-01	0	53	0	0	54	10230
2026-01-15 00:34:55.63	28.72	7.03	-41.8	-51.9	3.8	8.43e-01	0	53	104	0	54	12080
2026-01-15 00:34:56.64	28.80	7.10	-41.9	-53.1	3.8	8.44e-01	0	53	104	0	54	13727
2026-01-15 00:34:57.65	28.88	7.16	-42.0	-53.6	3.8	8.45e-01	0	53	104	0	54	14551
2026-01-15 00:34:58.66	28.96	7.23	-42.0	-54.1	3.8	8.46e-01	0	53	104	0	54	15419
2026-01-15 00:34:59.67	29.04	7.30	-42.0	-54.0	3.8	8.46e-01	0	54	104	0	54	15284
2026-01-15 00:35:00.67	29.12	7.37	-41.8	-52.6	3.8	8.45e-01	0	54	104	0	54	13031
2026-01-15 00:35:01.68	29.21	7.44	-41.5	-50.1	4.3	8.40e-01	0	54	0	0	54	9788
2026-01-15 00:35:02.69	29.29	7.50	-41.0	-47.5	5.6	7.60e-01	0	54	0	0	54	7254
2026-01-15 00:35:03.70	29.37	7.57	-40.4	-45.8	7.0	2.28e-01	0	54	0	5242880	52	6670
2026-01-15 00:35:04.70	29.45	7.64	-40.0	-44.5	8.4	8.16e-02	0	54	0	10485760	51	6129
2026-01-15 00:35:05.71	29.54	7.71	-39.8	-44.0	8.9	3.68e-02	0	54	0	16777216	51	5752
2026-01-15 00:35:06.72	29.62	7.78	-39.6	-43.7	9.3	2.56e-02	0	53	0	22020096	51	5533
2026-01-15 00:35:07.73	29.70	7.85	-39.5	-43.3	9.6	1.91e-02	0	54	0	28311552	51	5334
2026-01-15 00:35:08.74	29.79	7.92	-39.4	-43.2	9.8	1.21e-02	0	54	0	33554432	50	5556
2026-01-15 00:35:09.75	29.87	7.99	-39.3	-43.0	10.0	1.02e-02	0	54	0	39845888	50	5459
2026-01-15 00:35:10.76	29.96	8.06	-41.0	-45.9	7.8	4.15e-03	0	54	0	45088768	52	6733
2026-01-15 00:35:11.77	30.04	8.13	-41.1	-50.6	4.2	1.93e-01	0	54	0	50331648	52	11680
2026-01-15 00:35:12.78	30.13	8.20	-39.9	-43.4	10.2	6.80e-01	0	54	104	50331648	50	5664
2026-01-15 00:35:13.79	30.22	8.27	-41.9	-47.7	6.2	9.51e-02	0	54	0	55574528	54	7433
2026-01-15 00:35:14.80	30.30	8.34	-39.9	-43.5	9.8	8.69e-03	0	54	0	59768832	50	5787
2026-01-15 00:35:15.81	30.39	8.41	-39.6	-43.0	10.5	9.31e-03	0	54	0	66060288	51	5111
2026-01-15 00:35:16.82	30.48	8.48	-39.4	-42.7	10.8	3.64e-03	0	54	0	71303168	50	5235
2026-01-15 00:35:17.83	30.57	8.55	-39.2	-42.4	11.1	2.65e-03	0	54	0	77594624	50	5057
2026-01-15 00:35:18.84	30.65	8.62	-39.2	-42.3	11.2	1.76e-03	0	54	0	82837504	50	5012
2026-01-15 00:35:19.85	30.74	8.69	-39.2	-42.2	11.4	1.48e-03	0	54	0	88080384	50	4957
2026-01-15 00:35:20.86	30.83	8.76	-39.3	-42.4	11.3	1.82e-03	0	54	0	94371840	50	5047
2026-01-15 00:35:21.87	30.92	8.84	-39.1	-42.1	11.6	1.02e-03	0	54	0	99614720	50	4886
2026-01-15 00:35:22.88	31.01	8.91	-39.1	-42.0	11.7	8.00e-04	0	54	0	105906176	50	4847
2026-01-15 00:35:23.89	31.10	8.98	-39.3	-42.2	11.6	9.77e-04	0	54	0	111149056	50	4941
2026-01-15 00:35:24.90	31.19	9.05	-39.2	-42.0	11.8	7.93e-04	0	54	0	116391936	50	4852
2026-01-15 00:35:25.91	31.28	9.12	-39.3	-42.1	11.8	7.55e-04	0	54	0	122683392	50	4876
2026-01-15 00:35:26.91	31.37	9.19	-39.2	-41.9	12.0	4.51e-04	0	54	0	127926272	50	4795
2026-01-15 00:35:27.92	31.47	9.27	-39.4	-42.1	11.9	7.21e-04	0	54	0	134217728	50	4914
2026-01-15 00:35:28.93	31.56	9.34	-39.4	-42.2	11.8	7.33e-04	0	54	0	139460608	50	4965
2026-01-15 00:35:29.94	31.65	9.41	-39.3	-42.0	12.0	5.31e-04	0	55	0	144703488	50	4865
2026-01-15 00:35:30.95	31.75	9.48	-39.2	-42.0	12.1	4.91e-04	0	54	0	150994944	50	4835
2026-01-15 00:35:31.96	31.84	9.56	-39.3	-42.1	12.0	4.60e-04	0	55	0	156237824	50	4902
2026-01-15 00:35:32.97	31.93	9.63	-39.3	-42.0	12.1	5.15e-04	0	54	0	162529280	50	4847
2026-01-15 00:35:33.98	32.03	9.70	-39.3	-42.0	12.1	3.64e-04	0	54	0	167772160	50	4846
2026-01-15 00:35:34.99	32.12	9.78	-39.2	-41.9	12.2	3.55e-04	0	55	0	174063616	50	4806
2026-01-15 00:35:36.00	32.22	9.85	-39.2	-41.9	12.3	2.33e-04	0	55	0	179306496	50	4763
2026-01-15 00:35:37.02	32.32	9.92	-39.2	-41.7	12.4	2.46e-04	0	55	0	185597952	50	4702
2026-01-15 00:35:38.02	32.41	10.00	-39.3	-41.9	12.3	2.66e-04	0	55	0	190840832	50	4786
2026-01-15 00:35:39.03	32.51	10.07	-39.2	-41.8	12.5	2.09e-04	0	55	0	196083712	50	4720
2026-01-15 00:35:40.04	32.61	10.15	-39.1	-41.6	12.6	1.52e-04	0	55	0	202375168	50	4639
2026-01-15 00:35:41.05	32.70	10.22	-39.1	-41.6	12.6	1.53e-04	0	55	0	207618048	50	4633
2026-01-15 00:35:42.06	32.80	10.29	-39.1	-41.6	12.7	1.21e-04	0	55	0	213909504	50	4605
2026-01-15 00:35:43.07	32.90	10.37	-39.1	-41.5	12.8	1.14e-04	0	55	0	219152384	50	4586
2026-01-15 00:35:44.08	33.00	10.44	-39.0	-41.4	13.0	8.69e-05	0	55	0	224395264	50	4504
2026-01-15 00:35:45.09	33.10	10.52	-39.0	-41.3	13.0	7.09e-05	0	55	0	230686720	50	4490
2026-01-15 00:35:46.10	33.20	10.59	-39.0	-41.3	13.0	5.26e-05	0	55	0	235929600	50	4487
2026-01-15 00:35:47.11	33.30	10.67	-39.0	-41.4	13.0	6.98e-05	0	55	0	242221056	50	4510
2026-01-15 00:35:48.12	33.40	10.74	-39.0	-41.3	13.1	5.60e-05	0	55	0	247463936	50	4476
2026-01-15 00:35:49.13	33.51	10.82	-39.0	-41.3	13.1	5.14e-05	0	55	0	252706816	49	4724
2026-01-15 00:35:50.14	33.61	10.89	-39.0	-41.3	13.1	5.83e-05	0	55	0	258998272	49	4717
2026-01-15 00:35:51.15	33.71	10.97	-38.9	-41.2	13.2	4.11e-05	0	55	0	264241152	49	4692
2026-01-15 00:35:52.15	33.81	11.05	-38.9	-41.2	13.2	3.20e-05	0	55	0	270532608	49	4686
2026-01-15 00:35:53.16	33.92	11.12	-39.0	-41.2	13.2	4.34e-05	0	55	0	275775488	49	4703
2026-01-15 00:35:54.17	34.02	11.20	-38.9	-41.2	13.3	2.17e-05	0	55	0	282066944	49	4659
2026-01-15 00:35:55.18	34.13	11.27	-38.9	-41.2	13.3	3.20e-05	0	55	0	287309824	49	4670
2026-01-15 00:35:56.19	34.23	11.35	-39.0	-41.3	13.3	3.89e-05	0	55	0	292552704	49	4715
2026-01-15 00:35:57.20	34.34	11.43	-38.9	-41.1	13.4	2.86e-05	0	55	0	298844160	49	4638
2026-01-15 00:35:58.21	34.45	11.50	-38.9	-41.1	13.4	2.28e-05	0	55	0	304087040	49	4644
2026-01-15 00:35:59.22	34.55	11.58	-38.8	-41.0	13.5	2.05e-05	0	55	0	310378496	49	4597
2026-01-15 00:36:00.23	34.66	11.66	-38.9	-41.1	13.5	1.48e-05	0	55	0	315621376	49	4629
2026-01-15 00:36:01.24	34.77	11.74	-38.8	-41.1	13.5	2.51e-05	0	55	0	320864256	49	4604
2026-01-15 00:36:02.24	34.88	11.81	-38.9	-41.2	13.5	1.71e-05	0	55	0	327155712	49	4654
2026-01-15 00:36:03.25	34.99	11.89	-38.9	-41.1	13.5	1.71e-05	0	55	0	332398592	49	4625
2026-01-15 00:36:04.26	35.10	11.97	-38.9	-41.2	13.4	2.63e-05	0	55	0	338690048	49	4668
2026-01-15 00:36:05.27	35.21	12.05	-38.9	-41.1	13.5	1.83e-05	0	56	0	343932928	49	4646
2026-01-15 00:36:06.28	35.32	12.12	-39.0	-41.2	13.4	1.48e-05	0	55	0	349175808	49	4697
2026-01-15 00:36:07.29	35.43	12.20	-39.0	-41.3	13.4	2.40e-05	0	55	0	355467264	49	4708
2026-01-15 00:36:08.30	35.54	12.28	-38.9	-41.2	13.4	2.40e-05	0	55	0	360710144	49	4672
2026-01-15 00:36:09.31	35.65	12.36	-38.9	-41.2	13.5	2.97e-05	0	55	0	367001600	49	4658
2026-01-15 00:36:10.31	35.77	12.44	-38.9	-41.1	13.6	1.25e-05	0	55	0	372244480	49	4608
2026-01-15 00:36:11.33	35.88	12.52	-38.8	-41.0	13.6	1.71e-05	0	55	0	378535936	49	4576
2026-01-15 00:36:12.34	35.99	12.60	-38.8	-41.0	13.7	1.14e-05	0	56	0	383778816	49	4567
2026-01-15 00:36:13.35	36.11	12.68	-38.9	-41.0	13.6	1.25e-05	0	55	0	389021696	49	4595
2026-01-15 00:36:14.36	36.23	12.76	-38.8	-41.0	13.7	1.37e-05	0	55	0	395313152	49	4565
2026-01-15 00:36:15.37	36.34	12.84	-38.8	-41.0	13.7	8.00e-06	0	55	0	400556032	49	4584
2026-01-15 00:36:16.38	36.46	12.92	-38.9	-41.1	13.6	2.05e-05	0	56	0	406847488	49	4609
2026-01-15 00:36:17.39	36.58	12.99	-38.9	-41.1	13.6	1.14e-05	0	56	0	412090368	49	4608
2026-01-15 00:36:18.40	36.69	13.08	-38.9	-41.1	13.7	1.48e-05	0	56	0	417333248	49	4599
2026-01-15 00:36:19.41	36.81	13.16	-38.9	-41.1	13.7	1.48e-05	0	56	0	423624704	49	4600
2026-01-15 00:36:20.42	36.93	13.24	-38.8	-41.0	13.7	1.02e-05	0	56	0	428867584	49	4575
2026-01-15 00:36:21.43	37.05	13.32	-38.8	-41.0	13.8	1.25e-05	0	56	0	435159040	49	4569
2026-01-15 00:36:22.44	37.17	13.40	-38.7	-40.8	13.9	8.00e-06	0	56	0	440401920	49	4476
2026-01-15 00:36:23.45	37.29	13.48	-38.6	-40.7	14.1	3.40e-06	0	56	0	445644800	49	4412
2026-01-15 00:36:24.46	37.42	13.56	-38.5	-40.6	14.2	2.20e-06	0	56	0	451936256	49	4341
2026-01-15 00:36:25.47	37.54	13.64	-38.4	-40.4	14.4	2.20e-06	0	56	0	457179136	48	4535
2026-01-15 00:36:26.48	37.66	13.72	-38.4	-40.3	14.4	1.10e-06	0	56	0	463470592	48	4482
2026-01-15 00:36:27.49	37.79	13.80	-38.4	-40.3	14.5	1.10e-06	0	56	0	468713472	48	4480
2026-01-15 00:36:28.50	37.91	13.88	-38.4	-40.3	14.5	2.20e-06	0	56	0	475004928	48	4491
2026-01-15 00:36:29.51	38.03	13.97	-38.4	-40.4	14.4	1.10e-06	0	56	0	480247808	48	4512
2026-01-15 00:36:30.52	38.16	14.05	-38.5	-40.5	14.4	2.20e-06	0	56	0	486539264	48	4553
2026-01-15 00:36:31.53	38.29	14.13	-38.5	-40.5	14.3	0.00e+00	0	56	0	491782144	48	4578
2026-01-15 00:36:32.54	38.41	14.21	-38.5	-40.5	14.3	2.20e-06	0	56	0	497025024	48	4597
2026-01-15 00:36:33.54	38.54	14.29	-38.6	-40.6	14.2	2.20e-06	0	56	0	503316480	48	4651
2026-01-15 00:36:34.56	38.67	14.38	-38.5	-40.5	14.3	2.20e-06	0	56	0	508559360	48	4588
2026-01-15 00:36:35.56	38.80	14.46	-38.5	-40.5	14.3	2.20e-06	0	56	0	514850816	48	4589
2026-01-15 00:36:36.57	38.93	14.54	-38.5	-40.5	14.4	1.10e-06	0	56	0	520093696	48	4562
2026-01-15 00:36:37.58	39.06	14.62	-38.4	-40.4	14.5	0.00e+00	0	56	0	525336576	48	4537
2026-01-15 00:36:38.59	39.19	14.71	-38.4	-40.4	14.5	2.20e-06	0	56	0	531628032	48	4537
2026-01-15 00:36:39.60	39.32	14.79	-38.4	-40.4	14.5	1.10e-06	0	56	0	536870912	48	4520
2026-01-15 00:36:40.61	39.46	14.87	-38.4	-40.4	14.5	1.10e-06	0	56	0	543162368	48	4508
2026-01-15 00:36:41.62	39.59	14.96	-38.4	-40.4	14.5	1.10e-06	0	56	0	548405248	48	4516
2026-01-15 00:36:42.63	39.72	15.04	-38.4	-40.4	14.5	0.00e+00	0	56	0	553648128	48	4535
2026-01-15 00:36:43.65	39.86	15.13	-38.4	-40.3	14.5	0.00e+00	0	56	0	559939584	48	4488
2026-01-15 00:36:44.66	39.99	15.21	-38.4	-40.3	14.6	1.10e-06	0	56	0	565182464	48	4487
2026-01-15 00:36:45.67	40.13	15.30	-38.3	-40.3	14.6	0.00e+00	0	56	0	571473920	48	4462
2026-01-15 00:36:46.67	40.27	15.38	-38.3	-40.3	14.7	1.10e-06	0	56	0	576716800	48	4451
2026-01-15 00:36:47.68	40.40	15.46	-38.3	-40.3	14.7	0.00e+00	0	56	0	583008256	48	4443
2026-01-15 00:36:48.69	40.54	15.55	-38.2	-40.1	14.8	1.10e-06	0	56	0	588251136	48	4381
2026-01-15 00:36:49.70	40.68	15.63	-38.2	-40.1	14.9	0.00e+00	0	56	0	593494016	48	4346
2026-01-15 00:36:50.71	40.82	15.72	-38.1	-39.9	15.0	0.00e+00	0	56	0	599785472	48	4285
2026-01-15 00:36:51.72	40.96	15.80	-38.1	-39.9	15.0	0.00e+00	0	56	0	605028352	48	4284
2026-01-15 00:36:52.73	41.11	15.89	-38.0	-39.9	15.1	0.00e+00	0	56	0	611319808	48	4269
2026-01-15 00:36:53.74	41.25	15.97	-38.1	-39.9	15.0	0.00e+00	0	56	0	616562688	48	4288
2026-01-15 00:36:54.75	41.39	16.06	-38.1	-40.0	15.0	0.00e+00	0	56	0	621805568	48	4317
2026-01-15 00:36:55.75	41.53	16.14	-38.1	-40.0	15.0	0.00e+00	0	56	0	628097024	48	4319
2026-01-15 00:36:56.76	41.68	16.23	-38.1	-40.0	15.0	1.10e-06	0	56	0	633339904	48	4315
2026-01-15 00:36:57.77	41.82	16.31	-38.1	-40.0	15.0	0.00e+00	0	56	0	639631360	48	4320
2026-01-15 00:36:58.78	41.97	16.40	-38.0	-39.8	15.1	0.00e+00	0	56	0	644874240	48	4235
2026-01-15 00:36:59.79	42.12	16.49	-37.9	-39.7	15.2	0.00e+00	0	56	0	650117120	47	4421
2026-01-15 00:37:00.80	42.27	16.57	-37.8	-39.6	15.3	0.00e+00	0	56	0	656408576	47	4375
2026-01-15 00:37:01.81	42.42	16.66	-37.8	-39.6	15.3	0.00e+00	0	56	0	661651456	47	4370
2026-01-15 00:37:02.82	42.57	16.75	-37.8	-39.6	15.3	0.00e+00	0	56	0	667942912	47	4369
2026-01-15 00:37:03.82	42.71	16.83	-37.8	-39.6	15.3	0.00e+00	0	56	0	673185792	47	4362
2026-01-15 00:37:04.83	42.87	16.92	-37.8	-39.6	15.3	0.00e+00	0	56	0	679477248	47	4388
2026-01-15 00:37:05.84	43.02	17.01	-37.8	-39.6	15.3	0.00e+00	0	56	0	684720128	47	4359
2026-01-15 00:37:06.85	43.17	17.09	-37.7	-39.5	15.4	0.00e+00	0	56	0	689963008	47	4310
2026-01-15 00:37:07.86	43.33	17.18	-37.7	-39.5	15.4	0.00e+00	0	56	0	696254464	47	4309
2026-01-15 00:37:08.87	43.48	17.27	-37.7	-39.5	15.5	0.00e+00	0	56	0	701497344	47	4297
2026-01-15 00:37:09.88	43.64	17.35	-37.7	-39.5	15.4	0.00e+00	0	56	0	707788800	47	4312
2026-01-15 00:37:10.89	43.79	17.44	-37.7	-39.5	15.4	0.00e+00	0	56	0	713031680	47	4335
2026-01-15 00:37:11.90	43.95	17.53	-37.8	-39.6	15.4	0.00e+00	0	56	0	718274560	47	4366
2026-01-15 00:37:12.91	44.11	17.62	-37.8	-39.6	15.4	0.00e+00	0	56	0	724566016	47	4357
2026-01-15 00:37:13.92	44.27	17.70	-37.8	-39.6	15.3	0.00e+00	0	56	0	729808896	47	4370
2026-01-15 00:37:14.93	44.43	17.79	-37.8	-39.6	15.4	0.00e+00	0	56	0	736100352	47	4351
2026-01-15 00:37:15.94	44.59	17.88	-37.8	-39.6	15.4	0.00e+00	0	56	0	741343232	47	4345
2026-01-15 00:37:16.95	44.75	17.97	-37.8	-39.6	15.4	0.00e+00	0	56	0	746586112	47	4343
2026-01-15 00:37:17.96	44.91	18.06	-37.7	-39.5	15.4	0.00e+00	0	57	0	752877568	47	4330
2026-01-15 00:37:18.97	45.08	18.14	-37.7	-39.5	15.4	0.00e+00	0	56	0	758120448	47	4326
2026-01-15 00:37:19.99	45.25	18.23	-37.7	-39.5	15.4	0.00e+00	0	57	0	764411904	47	4329
2026-01-15 00:37:20.99	45.41	18.32	-37.7	-39.4	15.5	0.00e+00	0	56	0	769654784	47	4278
2026-01-15 00:37:22.00	45.58	18.41	-37.6	-39.4	15.6	0.00e+00	0	56	0	775946240	47	4259
2026-01-15 00:37:23.01	45.74	18.50	-37.6	-39.3	15.7	0.00e+00	0	56	0	781189120	47	4222
2026-01-15 00:37:24.02	45.91	18.59	-37.6	-39.3	15.7	0.00e+00	0	56	0	787480576	47	4218
2026-01-15 00:37:25.03	46.08	18.68	-37.6	-39.3	15.6	0.00e+00	0	56	0	792723456	47	4236
2026-01-15 00:37:26.04	46.25	18.77	-37.6	-39.3	15.7	0.00e+00	0	57	0	797966336	47	4215
2026-01-15 00:37:27.05	46.42	18.85	-37.5	-39.3	15.7	0.00e+00	0	56	0	804257792	47	4205
2026-01-15 00:37:28.06	46.60	18.94	-37.5	-39.3	15.7	0.00e+00	0	56	0	809500672	47	4200
2026-01-15 00:37:29.07	46.77	19.03	-37.5	-39.2	15.8	0.00e+00	0	57	0	815792128	47	4169
2026-01-15 00:37:30.08	46.94	19.12	-37.5	-39.2	15.8	0.00e+00	0	56	0	821035008	46	4439
2026-01-15 00:37:31.09	47.12	19.21	-37.5	-39.2	15.8	0.00e+00	0	57	0	826277888	46	4405
2026-01-15 00:37:32.10	47.30	19.30	-37.4	-39.1	15.9	0.00e+00	0	57	0	832569344	46	4374
2026-01-15 00:37:33.11	47.47	19.39	-37.3	-39.0	16.0	0.00e+00	0	57	0	837812224	46	4325
2026-01-15 00:37:34.12	47.65	19.48	-37.3	-39.0	16.0	0.00e+00	0	57	0	844103680	46	4319
2026-01-15 00:37:35.13	47.83	19.57	-37.3	-39.0	16.0	0.00e+00	0	57	0	849346560	46	4295
2026-01-15 00:37:36.14	48.01	19.66	-37.4	-39.1	16.0	0.00e+00	0	56	0	854589440	46	4349
2026-01-15 00:37:37.15	48.19	19.75	-37.4	-39.1	16.0	0.00e+00	0	57	0	860880896	46	4350
2026-01-15 00:37:38.16	48.38	19.84	-37.4	-39.1	15.9	0.00e+00	0	57	0	866123776	46	4361
2026-01-15 00:37:39.17	48.56	19.93	-37.4	-39.1	15.9	0.00e+00	0	57	0	872415232	46	4364
2026-01-15 00:37:40.18	48.75	20.02	-37.3	-39.0	16.0	0.00e+00	0	57	0	877658112	46	4318
2026-01-15 00:37:41.18	48.93	20.11	-37.3	-39.0	16.1	0.00e+00	0	57	0	883949568	46	4301
2026-01-15 00:37:42.19	49.12	20.20	-37.3	-38.9	16.1	0.00e+00	0	57	0	889192448	46	4286
2026-01-15 00:37:43.20	49.30	20.29	-37.2	-38.9	16.1	0.00e+00	0	57	0	894435328	46	4249
2026-01-15 00:37:44.20	49.49	20.37	-37.2	-38.8	16.2	0.00e+00	0	57	0	900726784	46	4218
2026-01-15 00:37:45.21	49.68	20.46	-37.2	-38.8	16.2	0.00e+00	0	57	0	905969664	46	4218
2026-01-15 00:37:46.22	49.87	20.55	-37.2	-38.8	16.2	0.00e+00	0	56	0	912261120	46	4204
2026-01-15 00:37:47.23	50.07	20.64	-37.2	-38.8	16.2	0.00e+00	0	57	0	917504000	46	4227
2026-01-15 00:37:48.23	50.26	20.73	-37.2	-38.8	16.2	0.00e+00	0	57	0	922746880	46	4237
2026-01-15 00:37:49.25	50.45	20.82	-37.2	-38.8	16.2	0.00e+00	0	57	0	929038336	46	4235
2026-01-15 00:37:50.26	50.65	20.91	-37.2	-38.8	16.2	0.00e+00	0	57	0	934281216	46	4233
2026-01-15 00:37:51.27	50.85	21.00	-37.2	-38.8	16.2	0.00e+00	0	57	0	940572672	46	4229
2026-01-15 00:37:52.28	51.04	21.09	-37.2	-38.8	16.2	0.00e+00	0	57	0	945815552	46	4224
2026-01-15 00:37:53.29	51.24	21.18	-37.1	-38.8	16.3	0.00e+00	0	57	0	951058432	46	4214
2026-01-15 00:37:54.29	51.44	21.27	-37.1	-38.8	16.3	0.00e+00	0	57	0	957349888	46	4208
2026-01-15 00:37:55.30	51.64	21.36	-37.2	-38.8	16.2	0.00e+00	0	57	0	962592768	46	4217
2026-01-15 00:37:56.31	51.84	21.45	-37.2	-38.9	16.1	0.00e+00	0	57	0	968884224	46	4265
2026-01-15 00:37:57.32	52.05	21.54	-37.2	-38.9	16.2	0.00e+00	0	57	0	974127104	46	4243
2026-01-15 00:37:58.33	52.25	21.63	-37.2	-38.8	16.2	0.00e+00	0	57	0	980418560	46	4240
2026-01-15 00:37:59.34	52.46	21.72	-37.0	-38.7	16.4	0.00e+00	0	57	0	985661440	46	4148
2026-01-15 00:38:00.35	52.67	21.81	-36.9	-38.5	16.5	0.00e+00	0	57	0	991952896	45	4324
2026-01-15 00:38:01.36	52.87	21.90	-36.9	-38.5	16.6	0.00e+00	0	57	0	997195776	45	4306
2026-01-15 00:38:02.37	53.08	21.99	-37.0	-38.6	16.5	0.00e+00	0	57	0	1002438656	45	4355
2026-01-15 00:38:03.38	53.29	22.08	-37.0	-38.7	16.4	0.00e+00	0	57	0	1008730112	45	4393
2026-01-15 00:38:04.39	53.51	22.17	-37.1	-38.8	16.3	0.00e+00	0	57	0	1013972992	45	4442
2026-01-15 00:38:05.40	53.72	22.26	-37.1	-38.8	16.3	0.00e+00	0	57	0	1019215872	45	4463
2026-01-15 00:38:06.40	53.93	22.35	-37.1	-38.8	16.3	0.00e+00	0	57	0	1025507328	45	4455
2026-01-15 00:38:07.41	54.15	22.44	-37.1	-38.7	16.4	0.00e+00	0	57	0	1030750208	45	4432
2026-01-15 00:38:08.42	54.36	22.52	-37.1	-38.7	16.4	0.00e+00	0	57	0	1037041664	45	4421
2026-01-15 00:38:09.43	54.58	22.61	-37.0	-38.7	16.4	0.00e+00	0	56	0	1042284544	45	4393
2026-01-15 00:38:10.44	54.80	22.70	-37.0	-38.6	16.5	0.00e+00	0	57	0	1047527424	45	4354
2026-01-15 00:38:11.45	55.02	22.79	-36.9	-38.5	16.6	0.00e+00	0	57	0	1053818880	45	4315
2026-01-15 00:38:12.46	55.24	22.88	-36.8	-38.4	16.7	0.00e+00	0	57	0	1059061760	45	4268
2026-01-15 00:38:13.46	55.46	22.97	-36.8	-38.4	16.7	0.00e+00	0	57	0	1065353216	45	4252
2026-01-15 00:38:14.47	55.69	23.06	-36.8	-38.3	16.8	0.00e+00	0	57	0	1070596096	45	4221
2026-01-15 00:38:15.48	55.91	23.14	-36.8	-38.3	16.8	0.00e+00	0	57	0	1076887552	45	4239
2026-01-15 00:38:16.49	56.14	23.23	-36.7	-38.4	16.4	0.00e+00	0	57	0	1082130432	45	4278
2026-01-15 00:38:17.50	56.37	23.32	-36.7	-38.5	16.3	0.00e+00	0	57	0	1087373312	45	4304
2026-01-15 00:38:18.51	56.59	23.41	-36.7	-38.4	16.4	0.00e+00	0	57	0	1093664768	45	4282
2026-01-15 00:38:19.52	56.82	23.49	-36.5	-38.2	16.6	0.00e+00	0	57	0	1098907648	45	4193
2026-01-15 00:38:20.53	57.06	23.58	-36.4	-38.1	16.7	0.00e+00	0	57	0	1105199104	44	4374
2026-01-15 00:38:21.54	57.29	23.67	-36.4	-38.0	16.8	0.00e+00	0	57	0	1110441984	44	4310
2026-01-15 00:38:22.55	57.52	23.76	-36.4	-38.1	16.8	0.00e+00	0	57	0	1115684864	44	4367
2026-01-15 00:38:23.55	57.76	23.84	-36.6	-38.3	16.6	0.00e+00	0	57	0	1121976320	44	4451
2026-01-15 00:38:24.56	57.99	23.93	-36.7	-38.4	16.4	0.00e+00	0	57	0	1127219200	44	4532
2026-01-15 00:38:25.57	58.23	24.02	-36.8	-38.5	16.3	0.00e+00	0	57	0	1133510656	44	4598
2026-01-15 00:38:26.58	58.47	24.10	-36.7	-38.5	16.4	0.00e+00	0	57	0	1138753536	44	4549
2026-01-15 00:38:27.59	58.71	24.19	-36.7	-38.4	16.5	0.00e+00	0	57	0	1143996416	44	4515
2026-01-15 00:38:28.59	58.95	24.27	-36.6	-38.3	16.6	0.00e+00	0	57	0	1150287872	44	4469
2026-01-15 00:38:29.60	59.19	24.36	-36.4	-38.1	16.8	0.00e+00	0	57	0	1155530752	44	4358
2026-01-15 00:38:30.61	59.44	24.44	-36.3	-38.0	16.9	0.00e+00	0	57	0	1161822208	44	4297
2026-01-15 00:38:31.62	59.68	24.53	-36.3	-37.9	16.9	0.00e+00	0	57	0	1167065088	44	4273
2026-01-15 00:38:32.63	59.93	24.61	-36.3	-38.0	16.9	0.00e+00	0	57	0	1173356544	44	4294
2026-01-15 00:38:33.64	60.18	24.70	-36.4	-38.1	16.8	0.00e+00	0	57	0	1178599424	44	4344
2026-01-15 00:38:34.65	60.43	24.78	-36.5	-38.2	16.7	0.00e+00	0	57	0	1184890880	44	4402
2026-01-15 00:38:35.67	60.68	24.87	-36.6	-38.3	16.6	0.00e+00	0	57	0	1190133760	44	4450
2026-01-15 00:38:36.68	60.93	24.95	-36.5	-38.2	16.7	0.00e+00	0	57	0	1195376640	44	4408
2026-01-15 00:38:37.68	61.18	25.03	-36.4	-38.1	16.8	0.00e+00	0	57	0	1201668096	44	4358
2026-01-15 00:38:38.70	61.44	25.12	-36.3	-38.0	16.9	0.00e+00	0	57	0	1206910976	44	4300
2026-01-15 00:38:39.71	61.70	25.20	-36.2	-37.9	17.0	0.00e+00	0	57	0	1213202432	44	4261
2026-01-15 00:38:40.72	61.96	25.28	-36.2	-37.8	17.0	0.00e+00	0	57	0	1218445312	44	4229
2026-01-15 00:38:41.73	62.21	25.36	-36.2	-37.8	17.1	0.00e+00	0	57	0	1223688192	44	4204
2026-01-15 00:38:42.74	62.48	25.44	-36.2	-37.8	17.1	0.00e+00	0	57	0	1229979648	44	4209
2026-01-15 00:38:43.74	62.73	25.52	-36.2	-37.8	17.0	0.00e+00	0	57	0	1235222528	44	4220
2026-01-15 00:38:44.76	63.00	25.61	-36.1	-37.7	17.2	0.00e+00	0	57	0	1241513984	44	4165
2026-01-15 00:38:45.77	63.26	25.69	-36.0	-37.6	17.2	0.00e+00	0	57	0	1246756864	44	4119
2026-01-15 00:38:46.78	63.53	25.77	-35.8	-37.4	17.3	0.00e+00	0	57	0	1251999744	43	4259
2026-01-15 00:38:47.79	63.80	25.85	-35.8	-37.3	17.3	0.00e+00	0	57	0	1258291200	43	4241
2026-01-15 00:38:48.80	64.06	25.92	-35.8	-37.4	17.3	0.00e+00	0	57	0	1263534080	43	4270
2026-01-15 00:38:49.80	64.33	26.00	-35.9	-37.5	17.2	0.00e+00	0	57	0	1269825536	43	4294
2026-01-15 00:38:50.81	64.60	26.08	-35.9	-37.4	17.3	0.00e+00	0	57	0	1275068416	43	4282
2026-01-15 00:38:51.82	64.87	26.16	-35.9	-37.5	17.2	0.00e+00	0	57	0	1281359872	43	4329
2026-01-15 00:38:52.83	65.15	26.24	-36.0	-37.6	17.1	0.00e+00	0	57	0	1286602752	43	4369
2026-01-15 00:38:53.85	65.42	26.31	-36.1	-37.7	17.0	0.00e+00	0	57	0	1291845632	43	4434
2026-01-15 00:38:54.86	65.70	26.39	-36.0	-37.6	17.1	0.00e+00	0	57	0	1298137088	43	4388
2026-01-15 00:38:55.87	65.98	26.47	-36.0	-37.6	17.1	0.00e+00	0	57	0	1303379968	43	4355
2026-01-15 00:38:56.88	66.26	26.54	-35.9	-37.5	17.2	0.00e+00	0	57	0	1309671424	43	4293
2026-01-15 00:38:57.89	66.54	26.62	-35.9	-37.5	17.3	0.00e+00	0	57	0	1314914304	43	4292
2026-01-15 00:38:58.90	66.82	26.69	-35.9	-37.5	17.2	0.00e+00	0	57	0	1320157184	43	4310
2026-01-15 00:38:59.90	67.10	26.77	-36.0	-37.6	17.1	0.00e+00	0	57	0	1326448640	43	4353
2026-01-15 00:39:00.91	67.38	26.84	-36.0	-37.6	17.1	0.00e+00	0	57	0	1331691520	43	4362
2026-01-15 00:39:01.92	67.67	26.91	-36.0	-37.6	17.1	0.00e+00	0	57	0	1337982976	43	4370
2026-01-15 00:39:02.93	67.95	26.98	-35.9	-37.6	17.1	0.00e+00	0	57	0	1343225856	43	4344
2026-01-15 00:39:03.94	68.24	27.06	-35.9	-37.5	17.2	0.00e+00	0	57	0	1348468736	43	4292
2026-01-15 00:39:04.95	68.53	27.13	-35.9	-37.5	17.2	0.00e+00	0	57	0	1354760192	43	4324
2026-01-15 00:39:05.96	68.82	27.20	-36.0	-37.5	17.2	0.00e+00	0	57	0	1360003072	43	4340
2026-01-15 00:39:06.97	69.11	27.27	-36.0	-37.5	17.2	0.00e+00	0	57	0	1366294528	43	4340
2026-01-15 00:39:07.98	69.40	27.34	-35.9	-37.5	17.2	0.00e+00	0	57	0	1371537408	43	4315
2026-01-15 00:39:08.99	69.70	27.41	-35.9	-37.5	17.2	0.00e+00	0	57	0	1377828864	43	4337
2026-01-15 00:39:10.00	69.99	27.48	-35.9	-37.5	17.2	0.00e+00	0	57	0	1383071744	43	4322
2026-01-15 00:39:11.01	70.29	27.54	-35.8	-37.4	17.3	0.00e+00	0	57	0	1389363200	43	4279
2026-01-15 00:39:12.03	70.59	27.61	-35.8	-37.4	17.3	0.00e+00	0	57	0	1394606080	43	4247
2026-01-15 00:39:13.04	70.89	27.68	-35.7	-37.3	17.4	0.00e+00	0	57	0	1399848960	43	4210
2026-01-15 00:39:14.05	71.19	27.74	-35.7	-37.3	17.4	0.00e+00	0	57	0	1406140416	43	4204
2026-01-15 00:39:15.06	71.49	27.81	-35.8	-37.3	17.4	0.00e+00	0	57	0	1411383296	43	4238
2026-01-15 00:39:16.07	71.79	27.87	-35.9	-37.5	17.3	0.00e+00	0	57	0	1417674752	43	4293
2026-01-15 00:39:17.08	72.10	27.94	-35.8	-37.4	17.3	0.00e+00	0	57	0	1422917632	43	4286
2026-01-15 00:39:18.09	72.40	28.00	-35.8	-37.4	17.4	0.00e+00	0	57	0	1428160512	43	4252
2026-01-15 00:39:19.10	72.71	28.06	-35.6	-37.2	17.6	0.00e+00	0	57	0	1434451968	43	4147
2026-01-15 00:39:20.11	73.02	28.12	-35.5	-37.0	17.7	0.00e+00	0	57	0	1439694848	43	4064
2026-01-15 00:39:21.12	73.33	28.18	-35.5	-37.0	17.8	0.00e+00	0	57	0	1445986304	42	4301
2026-01-15 00:39:22.13	73.64	28.24	-35.7	-37.2	17.5	0.00e+00	0	57	0	1451229184	42	4439
2026-01-15 00:39:23.14	73.95	28.30	-35.9	-37.5	17.3	0.00e+00	0	57	0	1456472064	42	4559
2026-01-15 00:39:24.15	74.26	28.36	-36.0	-37.6	17.1	0.00e+00	0	57	0	1462763520	42	4643
2026-01-15 00:39:25.16	74.57	28.42	-36.0	-37.6	17.1	0.00e+00	0	57	0	1468006400	42	4643
2026-01-15 00:39:26.17	74.89	28.48	-35.9	-37.5	17.2	0.00e+00	0	57	0	1474297856	42	4597
2026-01-15 00:39:27.18	75.20	28.53	-35.9	-37.5	17.2	0.00e+00	0	57	0	1479540736	42	4584
2026-01-15 00:39:28.19	75.52	28.59	-35.9	-37.5	17.3	0.00e+00	0	57	0	1485832192	42	4560
2026-01-15 00:39:29.20	75.84	28.64	-35.9	-37.5	17.2	0.00e+00	0	57	0	1491075072	42	4574
2026-01-15 00:39:30.21	76.15	28.69	-35.9	-37.4	17.3	0.00e+00	0	57	0	1497366528	42	4542
2026-01-15 00:39:31.21	76.47	28.75	-35.8	-37.3	17.4	0.00e+00	0	57	0	1502609408	42	4493
2026-01-15 00:39:32.22	76.79	28.80	-35.8	-37.3	17.4	0.00e+00	0	57	0	1507852288	42	4482
2026-01-15 00:39:33.23	77.11	28.85	-35.8	-37.4	17.4	0.00e+00	0	57	0	1514143744	42	4508
2026-01-15 00:39:34.24	77.44	28.90	-35.8	-37.3	17.4	0.00e+00	0	57	0	1519386624	42	4488
2026-01-15 00:39:35.25	77.76	28.95	-35.7	-37.2	17.5	0.00e+00	0	57	0	1525678080	42	4437
2026-01-15 00:39:36.26	78.08	29.00	-35.7	-37.3	17.5	0.00e+00	0	57	0	1530920960	42	4451
2026-01-15 00:39:37.26	78.41	29.04	-35.7	-37.3	17.5	0.00e+00	0	57	0	1536163840	42	4467
2026-01-15 00:39:38.27	78.73	29.09	-35.7	-37.3	17.5	0.00e+00	0	57	0	1542455296	42	4468
2026-01-15 00:39:39.28	79.06	29.14	-35.7	-37.2	17.6	0.00e+00	0	57	0	1547698176	42	4420
2026-01-15 00:39:40.29	79.39	29.18	-35.7	-37.3	17.5	0.00e+00	0	57	0	1552941056	42	4446
2026-01-15 00:39:41.30	79.72	29.23	-35.7	-37.3	17.5	0.00e+00	0	57	0	1559232512	42	4460
2026-01-15 00:39:42.31	80.05	29.27	-35.8	-37.4	17.4	0.00e+00	0	57	0	1564475392	42	4522
2026-01-15 00:39:43.32	80.38	29.31	-35.8	-37.4	17.3	0.00e+00	0	57	0	1570766848	42	4537
2026-01-15 00:39:44.33	80.71	29.35	-35.8	-37.4	17.3	0.00e+00	0	57	0	1576009728	42	4521
2026-01-15 00:39:45.34	81.04	29.39	-35.8	-37.4	17.4	0.00e+00	0	57	0	1582301184	42	4515
2026-01-15 00:39:46.35	81.38	29.43	-35.8	-37.4	17.4	0.00e+00	0	57	0	1587544064	42	4500
2026-01-15 00:39:47.36	81.71	29.47	-35.8	-37.4	17.4	0.00e+00	0	57	0	1593835520	42	4503
2026-01-15 00:39:48.37	82.05	29.51	-35.9	-37.5	17.3	0.00e+00	0	57	0	1599078400	42	4572
2026-01-15 00:39:49.38	82.38	29.54	-36.0	-37.6	17.2	0.00e+00	0	57	0	1604321280	42	4607
2026-01-15 00:39:50.39	82.72	29.58	-36.0	-37.6	17.2	0.00e+00	0	57	0	1610612736	42	4618
2026-01-15 00:39:51.40	83.06	29.61	-36.0	-37.6	17.2	0.00e+00	0	57	0	1615855616	42	4631
2026-01-15 00:39:52.41	83.40	29.64	-36.0	-37.6	17.2	0.00e+00	0	57	0	1622147072	42	4628
2026-01-15 00:39:53.41	83.73	29.67	-35.9	-37.5	17.3	0.00e+00	0	57	0	1627389952	42	4565
2026-01-15 00:39:54.42	84.07	29.71	-35.7	-37.3	17.5	0.00e+00	0	57	0	1632632832	42	4451
2026-01-15 00:39:55.43	84.41	29.74	-35.7	-37.2	17.6	0.00e+00	0	57	0	1638924288	42	4418
2026-01-15 00:39:56.44	84.75	29.76	-35.7	-37.2	17.5	0.00e+00	0	57	0	1644167168	42	4436
2026-01-15 00:39:57.44	85.09	29.79	-35.9	-37.5	17.3	0.00e+00	0	57	0	1650458624	42	4550
2026-01-15 00:39:58.45	85.43	29.82	-35.9	-37.5	17.3	0.00e+00	0	57	0	1655701504	42	4567
2026-01-15 00:39:59.46	85.77	29.84	-35.8	-37.4	17.4	0.00e+00	0	57	0	1660944384	42	4501
2026-01-15 00:40:00.47	86.12	29.87	-35.8	-37.3	17.5	0.00e+00	0	57	0	1667235840	42	4480
2026-01-15 00:40:01.48	86.46	29.89	-35.7	-37.3	17.5	0.00e+00	0	57	0	1672478720	42	4445
2026-01-15 00:40:02.49	86.80	29.91	-35.7	-37.3	17.5	0.00e+00	0	57	0	1678770176	42	4445
2026-01-15 00:40:03.50	87.15	29.94	-35.7	-37.3	17.5	0.00e+00	0	57	0	1684013056	42	4461
2026-01-15 00:40:04.51	87.49	29.96	-35.8	-37.4	17.4	0.00e+00	0	57	0	1690304512	42	4498
2026-01-15 00:40:05.52	87.84	29.97	-35.8	-37.4	17.4	0.00e+00	0	57	0	1695547392	42	4520
2026-01-15 00:40:06.53	88.18	29.99	-35.8	-37.4	17.4	0.00e+00	0	57	0	1700790272	42	4528
2026-01-15 00:40:07.54	88.53	30.01	-35.8	-37.4	17.4	0.00e+00	0	57	0	1707081728	42	4513
2026-01-15 00:40:08.55	88.88	30.02	-35.7	-37.3	17.5	0.00e+00	0	57	0	1712324608	42	4469
2026-01-15 00:40:09.56	89.22	30.04	-35.7	-37.2	17.6	0.00e+00	0	57	0	1718616064	42	4411
2026-01-15 00:40:10.58	89.57	30.05	-35.6	-37.2	17.6	0.00e+00	0	57	0	1723858944	42	4392
2026-01-15 00:40:11.59	89.92	30.07	-35.6	-37.2	17.6	0.00e+00	0	57	0	1729101824	42	4405
2026-01-15 00:40:12.60	90.27	30.08	-35.7	-37.3	17.5	0.00e+00	0	57	0	1735393280	42	4444
2026-01-15 00:40:13.61	90.62	30.09	-35.7	-37.2	17.5	0.00e+00	0	57	0	1740636160	42	4439
2026-01-15 00:40:14.61	90.96	30.10	-35.7	-37.3	17.5	0.00e+00	0	57	0	1746927616	42	4442
2026-01-15 00:40:15.63	91.31	30.10	-35.7	-37.3	17.5	0.00e+00	0	57	0	1752170496	42	4470
2026-01-15 00:40:16.64	91.66	30.11	-35.8	-37.4	17.4	0.00e+00	0	57	0	1757413376	42	4505
2026-01-15 00:40:17.64	92.01	30.12	-35.8	-37.4	17.4	0.00e+00	0	58	0	1763704832	42	4509
2026-01-15 00:40:18.65	92.35	30.12	-35.8	-37.3	17.4	0.00e+00	0	57	0	1768947712	42	4493
2026-01-15 00:40:19.66	92.70	30.12	-35.7	-37.3	17.5	0.00e+00	0	58	0	1775239168	42	4451
2026-01-15 00:40:20.67	93.05	30.13	-35.7	-37.2	17.5	0.00e+00	0	57	0	1780482048	42	4441
2026-01-15 00:40:21.68	93.40	30.13	-35.8	-37.3	17.5	0.00e+00	0	57	0	1786773504	42	4480
2026-01-15 00:40:22.69	93.75	30.13	-35.9	-37.5	17.3	0.00e+00	0	57	0	1792016384	42	4553
2026-01-15 00:40:23.70	94.10	30.12	-36.0	-37.6	17.2	0.00e+00	0	57	0	1798307840	42	4626
2026-01-15 00:40:24.71	94.45	30.12	-36.0	-37.6	17.2	0.00e+00	0	57	0	1803550720	42	4624
2026-01-15 00:40:25.72	94.80	30.12	-35.8	-37.4	17.3	0.00e+00	0	57	0	1808793600	42	4534
2026-01-15 00:40:26.73	95.14	30.11	-35.8	-37.3	17.4	0.00e+00	0	58	0	1815085056	42	4490
2026-01-15 00:40:27.74	95.49	30.11	-35.8	-37.4	17.4	0.00e+00	0	57	0	1820327936	42	4506
2026-01-15 00:40:28.75	95.84	30.10	-35.9	-37.5	17.3	0.00e+00	0	58	0	1826619392	42	4563
2026-01-15 00:40:29.76	96.19	30.09	-36.0	-37.6	17.2	0.00e+00	0	57	0	1831862272	42	4644
2026-01-15 00:40:30.77	96.54	30.08	-36.0	-37.7	17.1	0.00e+00	0	57	0	1837105152	42	4662
2026-01-15 00:40:31.77	96.88	30.07	-35.9	-37.5	17.2	0.00e+00	0	57	0	1843396608	42	4593
2026-01-15 00:40:32.78	97.23	30.06	-35.7	-37.3	17.5	0.00e+00	0	58	0	1848639488	42	4468
2026-01-15 00:40:33.79	97.58	30.05	-35.7	-37.3	17.5	0.00e+00	0	58	0	1853882368	42	4469
2026-01-15 00:40:34.80	97.92	30.04	-35.8	-37.4	17.4	0.00e+00	0	57	0	1860173824	42	4529
2026-01-15 00:40:35.80	98.27	30.02	-35.9	-37.6	17.3	0.00e+00	0	58	0	1865416704	42	4599
2026-01-15 00:40:36.81	98.62	30.00	-35.9	-37.6	17.2	0.00e+00	0	58	0	1871708160	42	4617
2026-01-15 00:40:37.82	98.96	29.99	-35.9	-37.5	17.3	0.00e+00	0	57	0	1876951040	42	4561
2026-01-15 00:40:38.83	99.31	29.97	-35.8	-37.4	17.4	0.00e+00	0	58	0	1883242496	42	4529
2026-01-15 00:40:39.84	99.65	29.95	-35.8	-37.4	17.4	0.00e+00	0	57	0	1888485376	42	4529
2026-01-15 00:40:40.85	100.00	29.93	-35.8	-37.4	17.4	0.00e+00	0	58	0	1894776832	42	4526
2026-01-15 00:40:41.86	100.34	29.91	-35.8	-37.4	17.4	0.00e+00	0	58	0	1900019712	42	4501
2026-01-15 00:40:42.87	100.69	29.89	-35.8	-37.4	17.4	0.00e+00	0	57	0	1905262592	42	4509
2026-01-15 00:40:43.88	101.03	29.86	-35.9	-37.5	17.3	0.00e+00	0	58	0	1911554048	42	4550
2026-01-15 00:40:44.89	101.37	29.84	-35.9	-37.5	17.4	0.00e+00	0	57	0	1916796928	42	4546
2026-01-15 00:40:45.91	101.72	29.81	-35.8	-37.4	17.5	0.00e+00	0	57	0	1923088384	42	4494
2026-01-15 00:40:46.91	102.06	29.78	-35.7	-37.3	17.5	0.00e+00	0	57	0	1928331264	42	4458
2026-01-15 00:40:47.92	102.40	29.76	-35.8	-37.3	17.5	0.00e+00	0	58	0	1933574144	42	4487
2026-01-15 00:40:48.94	102.74	29.73	-35.9	-37.5	17.4	0.00e+00	0	57	0	1939865600	42	4551
2026-01-15 00:40:49.94	103.08	29.70	-35.9	-37.5	17.3	0.00e+00	0	58	0	1945108480	42	4568
2026-01-15 00:40:50.96	103.42	29.66	-35.9	-37.5	17.4	0.00e+00	0	58	0	1951399936	42	4559
2026-01-15 00:40:51.97	103.76	29.63	-35.8	-37.4	17.4	0.00e+00	0	58	0	1956642816	42	4515
2026-01-15 00:40:52.98	104.10	29.60	-35.7	-37.2	17.6	0.00e+00	0	57	0	1961885696	42	4439
2026-01-15 00:40:53.99	104.44	29.56	-35.6	-37.1	17.7	0.00e+00	0	57	0	1968177152	42	4369
2026-01-15 00:40:55.00	104.78	29.53	-35.5	-37.0	17.8	0.00e+00	0	58	0	1973420032	42	4333
2026-01-15 00:40:56.01	105.11	29.49	-35.5	-37.1	17.7	0.00e+00	0	58	0	1979711488	42	4344
2026-01-15 00:40:57.01	105.45	29.46	-35.6	-37.1	17.6	0.00e+00	0	58	0	1984954368	42	4389
2026-01-15 00:40:58.02	105.78	29.42	-35.7	-37.3	17.5	0.00e+00	0	57	0	1991245824	42	4465
2026-01-15 00:40:59.03	106.11	29.38	-35.8	-37.4	17.4	0.00e+00	0	57	0	1996488704	42	4521
2026-01-15 00:41:00.05	106.45	29.34	-35.8	-37.4	17.3	0.00e+00	0	57	0	2002780160	42	4542
2026-01-15 00:41:01.06	106.78	29.30	-35.9	-37.5	17.3	0.00e+00	0	57	0	2008023040	42	4559
2026-01-15 00:41:02.07	107.11	29.25	-35.9	-37.5	17.3	0.00e+00	0	58	0	2013265920	42	4577
2026-01-15 00:41:03.08	107.44	29.21	-36.0	-37.6	17.2	0.00e+00	0	58	0	2019557376	42	4613
2026-01-15 00:41:04.09	107.77	29.17	-36.1	-37.7	17.1	0.00e+00	0	57	0	2024800256	42	4692
2026-01-15 00:41:05.10	108.10	29.12	-36.1	-37.8	17.0	0.00e+00	0	57	0	2031091712	42	4728
2026-01-15 00:41:06.11	108.43	29.07	-36.1	-37.7	17.1	0.00e+00	0	57	0	2036334592	42	4698
2026-01-15 00:41:07.12	108.76	29.03	-36.0	-37.6	17.2	0.00e+00	0	57	0	2041577472	42	4627
2026-01-15 00:41:08.13	109.08	28.98	-36.0	-37.6	17.2	0.00e+00	0	57	0	2047868928	42	4624
2026-01-15 00:41:09.14	109.41	28.93	-36.1	-37.7	17.1	0.00e+00	0	58	0	2053111808	42	4697
2026-01-15 00:41:10.15	109.73	28.88	-36.2	-37.8	17.0	0.00e+00	0	58	0	2059403264	42	4744
2026-01-15 00:41:11.16	110.06	28.83	-36.1	-37.7	17.1	0.00e+00	0	57	0	2064646144	42	4693
2026-01-15 00:41:12.17	110.38	28.78	-35.9	-37.5	17.3	0.00e+00	0	57	0	2069889024	42	4580
2026-01-15 00:41:13.18	110.70	28.73	-35.8	-37.4	17.4	0.00e+00	0	58	0	2076180480	42	4498
2026-01-15 00:41:14.19	111.02	28.67	-35.8	-37.3	17.4	0.00e+00	0	58	0	2081423360	42	4488
2026-01-15 00:41:15.20	111.34	28.62	-35.9	-37.4	17.3	0.00e+00	0	58	0	2087714816	42	4544
2026-01-15 00:41:16.21	111.66	28.56	-36.0	-37.6	17.2	0.00e+00	0	58	0	2092957696	42	4622
2026-01-15 00:41:17.22	111.97	28.51	-36.0	-37.7	17.2	0.00e+00	0	57	0	2099249152	42	4662
2026-01-15 00:41:18.22	112.29	28.45	-36.0	-37.6	17.2	0.00e+00	0	58	0	2104492032	42	4644
2026-01-15 00:41:19.23	112.60	28.40	-36.0	-37.6	17.2	0.00e+00	0	57	0	2109734912	42	4625
2026-01-15 00:41:20.24	112.92	28.34	-36.0	-37.6	17.2	0.00e+00	0	58	0	2116026368	42	4615
2026-01-15 00:41:21.25	113.23	28.28	-35.9	-37.5	17.3	0.00e+00	0	58	0	2121269248	42	4559
2026-01-15 00:41:22.26	113.54	28.22	-35.8	-37.4	17.4	0.00e+00	0	58	0	2127560704	42	4527
2026-01-15 00:41:23.27	113.85	28.16	-35.9	-37.4	17.4	0.00e+00	0	58	0	2132803584	42	4528
2026-01-15 00:41:24.28	114.16	28.10	-35.9	-37.5	17.4	0.00e+00	0	58	0	2138046464	42	4549
2026-01-15 00:41:25.28	114.46	28.04	-36.0	-37.6	17.3	0.00e+00	0	58	0	2144337920	42	4608
2026-01-15 00:41:26.29	114.77	27.97	-36.0	-37.7	17.1	0.00e+00	0	57	0	2149580800	42	4661
2026-01-15 00:41:27.30	115.08	27.91	-36.1	-37.7	17.1	0.00e+00	0	58	0	2155872256	42	4697
2026-01-15 00:41:28.31	115.38	27.84	-36.0	-37.7	17.1	0.00e+00	0	58	0	2161115136	42	4654
2026-01-15 00:41:29.32	115.68	27.78	-36.0	-37.6	17.2	0.00e+00	0	58	0	2166358016	42	4636
2026-01-15 00:41:30.32	115.98	27.71	-36.0	-37.6	17.2	0.00e+00	0	58	0	2172649472	42	4631
2026-01-15 00:41:31.33	116.28	27.65	-36.0	-37.6	17.2	0.00e+00	0	58	0	2177892352	42	4633
2026-01-15 00:41:32.34	116.58	27.58	-36.0	-37.6	17.2	0.00e+00	0	57	0	2184183808	42	4642
2026-01-15 00:41:33.35	116.88	27.51	-35.9	-37.5	17.3	0.00e+00	0	58	0	2189426688	42	4587
2026-01-15 00:41:34.36	117.18	27.45	-35.9	-37.5	17.3	0.00e+00	0	57	0	2195718144	42	4580
2026-01-15 00:41:35.36	117.47	27.38	-35.9	-37.5	17.3	0.00e+00	0	58	0	2200961024	42	4582
2026-01-15 00:41:36.37	117.77	27.31	-36.1	-37.7	17.2	0.00e+00	0	58	0	2206203904	42	4657
2026-01-15 00:41:37.38	118.06	27.24	-36.2	-37.9	17.0	0.00e+00	0	58	0	2212495360	42	4760
2026-01-15 00:41:38.39	118.35	27.17	-36.3	-37.9	16.9	0.00e+00	0	57	0	2217738240	43	4535
2026-01-15 00:41:39.40	118.64	27.10	-36.2	-37.9	16.9	0.00e+00	0	58	0	2224029696	43	4521
2026-01-15 00:41:40.41	118.93	27.02	-36.1	-37.8	17.1	0.00e+00	0	58	0	2229272576	43	4448
2026-01-15 00:41:41.42	119.22	26.95	-36.1	-37.7	17.1	0.00e+00	0	58	0	2234515456	43	4416
2026-01-15 00:41:42.43	119.51	26.88	-36.1	-37.7	17.1	0.00e+00	0	58	0	2240806912	43	4402
2026-01-15 00:41:43.43	119.79	26.81	-36.1	-37.6	17.2	0.00e+00	0	58	0	2246049792	43	4389
2026-01-15 00:41:44.44	120.08	26.73	-36.2	-37.8	17.1	0.00e+00	0	58	0	2251292672	43	4454
2026-01-15 00:41:45.45	120.36	26.66	-36.2	-37.9	16.9	0.00e+00	0	57	0	2257584128	43	4508
2026-01-15 00:41:46.45	120.64	26.58	-36.3	-37.9	16.9	0.00e+00	0	58	0	2262827008	43	4541
2026-01-15 00:41:47.46	120.92	26.51	-36.2	-37.9	16.9	0.00e+00	0	58	0	2269118464	43	4521
2026-01-15 00:41:48.47	121.20	26.43	-36.1	-37.8	17.0	0.00e+00	0	57	0	2274361344	43	4458
2026-01-15 00:41:49.48	121.48	26.35	-36.1	-37.7	17.1	0.00e+00	0	57	0	2280652800	43	4410
2026-01-15 00:41:50.49	121.75	26.28	-36.2	-37.8	17.1	0.00e+00	0	58	0	2285895680	43	4455
2026-01-15 00:41:51.50	122.03	26.20	-36.2	-37.9	17.0	0.00e+00	0	58	0	2292187136	43	4501
2026-01-15 00:41:52.51	122.30	26.12	-36.3	-38.0	16.9	0.00e+00	0	58	0	2297430016	43	4548
2026-01-15 00:41:53.52	122.58	26.04	-36.3	-38.0	16.8	0.00e+00	0	58	0	2302672896	43	4556
2026-01-15 00:41:54.53	122.85	25.96	-36.3	-38.0	16.8	0.00e+00	0	57	0	2308964352	43	4570
2026-01-15 00:41:55.53	123.11	25.88	-36.3	-37.9	16.8	0.00e+00	0	57	0	2314207232	43	4536
2026-01-15 00:41:56.54	123.38	25.80	-36.3	-38.0	16.9	0.00e+00	0	58	0	2319450112	43	4549
2026-01-15 00:41:57.55	123.65	25.72	-36.4	-38.1	16.7	0.00e+00	0	58	0	2325741568	43	4618
2026-01-15 00:41:58.56	123.92	25.64	-36.4	-38.2	16.7	0.00e+00	0	58	0	2330984448	43	4654
2026-01-15 00:41:59.57	124.18	25.56	-36.4	-38.1	16.7	0.00e+00	0	58	0	2337275904	43	4636
2026-01-15 00:42:00.58	124.44	25.48	-36.3	-38.0	16.8	0.00e+00	0	57	0	2342518784	43	4589
2026-01-15 00:42:01.59	124.71	25.40	-36.3	-38.0	16.8	0.00e+00	0	58	0	2347761664	43	4554
2026-01-15 00:42:02.60	124.97	25.32	-36.3	-38.0	16.8	0.00e+00	0	58	0	2354053120	43	4549
2026-01-15 00:42:03.61	125.23	25.23	-36.3	-38.0	16.8	0.00e+00	0	58	0	2359296000	43	4572
2026-01-15 00:42:04.62	125.48	25.15	-36.4	-38.0	16.7	0.00e+00	0	57	0	2365587456	43	4594
2026-01-15 00:42:05.63	125.74	25.07	-36.3	-38.0	16.7	0.00e+00	0	58	0	2370830336	43	4596
2026-01-15 00:42:06.63	125.99	24.99	-36.4	-38.0	16.7	0.00e+00	0	58	0	2377121792	43	4592
2026-01-15 00:42:07.64	126.25	24.90	-36.4	-38.1	16.7	0.00e+00	0	58	0	2382364672	43	4608
2026-01-15 00:42:08.65	126.50	24.82	-36.4	-38.1	16.7	0.00e+00	0	58	0	2388656128	43	4606
2026-01-15 00:42:09.66	126.75	24.73	-36.3	-38.0	16.8	0.00e+00	0	58	0	2393899008	43	4566
2026-01-15 00:42:10.67	127.00	24.65	-36.3	-37.9	16.9	0.00e+00	0	58	0	2399141888	43	4535
2026-01-15 00:42:11.68	127.25	24.56	-36.2	-37.9	16.9	0.00e+00	0	58	0	2405433344	43	4501
2026-01-15 00:42:12.69	127.50	24.48	-36.2	-37.8	16.9	0.00e+00	0	58	0	2410676224	43	4489
2026-01-15 00:42:13.70	127.75	24.39	-36.2	-37.8	17.0	0.00e+00	0	58	0	2416967680	43	4478
2026-01-15 00:42:14.71	127.99	24.31	-36.3	-37.9	16.8	0.00e+00	0	58	0	2422210560	43	4511
2026-01-15 00:42:15.72	128.23	24.22	-36.4	-38.0	16.8	0.00e+00	0	58	0	2427453440	43	4583
2026-01-15 00:42:16.73	128.48	24.13	-36.4	-38.1	16.7	0.00e+00	0	58	0	2433744896	43	4608
2026-01-15 00:42:17.74	128.72	24.05	-36.5	-38.2	16.7	0.00e+00	0	58	0	2438987776	43	4652
2026-01-15 00:42:18.75	128.96	23.96	-36.5	-38.2	16.6	0.00e+00	0	58	0	2445279232	43	4686
2026-01-15 00:42:19.76	129.20	23.87	-36.5	-38.3	16.6	0.00e+00	0	58	0	2450522112	43	4713
2026-01-15 00:42:20.77	129.43	23.78	-36.6	-38.3	16.5	0.00e+00	0	58	0	2455764992	43	4729
2026-01-15 00:42:21.78	129.67	23.70	-36.6	-38.3	16.4	0.00e+00	0	58	0	2462056448	43	4759
2026-01-15 00:42:22.79	129.90	23.61	-36.6	-38.4	16.4	0.00e+00	0	58	0	2467299328	43	4780
2026-01-15 00:42:23.79	130.13	23.52	-36.6	-38.4	16.3	0.00e+00	0	58	0	2473590784	43	4787
2026-01-15 00:42:24.80	130.37	23.43	-36.6	-38.3	16.5	0.00e+00	0	58	0	2478833664	43	4742
2026-01-15 00:42:25.81	130.60	23.35	-36.6	-38.3	16.4	0.00e+00	0	58	0	2485125120	43	4719
2026-01-15 00:42:26.82	130.83	23.26	-36.5	-38.2	16.5	0.00e+00	0	58	0	2490368000	43	4697
2026-01-15 00:42:27.83	131.06	23.17	-36.5	-38.3	16.5	0.00e+00	0	58	0	2495610880	43	4706
2026-01-15 00:42:28.84	131.28	23.08	-36.6	-38.3	16.5	0.00e+00	0	58	0	2501902336	43	4712
2026-01-15 00:42:29.85	131.51	22.99	-36.6	-38.3	16.5	0.00e+00	0	58	0	2507145216	43	4740
2026-01-15 00:42:30.86	131.73	22.90	-36.6	-38.3	16.4	0.00e+00	0	58	0	2513436672	43	4758
2026-01-15 00:42:31.87	131.96	22.81	-36.7	-38.4	16.4	0.00e+00	0	58	0	2518679552	43	4780
2026-01-15 00:42:32.87	132.18	22.72	-36.7	-38.4	16.4	0.00e+00	0	58	0	2523922432	43	4793
2026-01-15 00:42:33.88	132.40	22.64	-36.7	-38.4	16.3	0.00e+00	0	57	0	2530213888	43	4801
2026-01-15 00:42:34.89	132.62	22.55	-36.6	-38.4	16.4	0.00e+00	0	58	0	2535456768	43	4764
2026-01-15 00:42:35.90	132.83	22.46	-36.6	-38.3	16.5	0.00e+00	0	57	0	2541748224	43	4738
2026-01-15 00:42:36.91	133.05	22.37	-36.6	-38.3	16.4	0.00e+00	0	58	0	2546991104	43	4741
2026-01-15 00:42:37.91	133.26	22.28	-36.6	-38.3	16.5	0.00e+00	0	58	0	2552233984	43	4721
2026-01-15 00:42:38.92	133.48	22.19	-36.6	-38.3	16.2	0.00e+00	0	58	0	2558525440	43	4743
2026-01-15 00:42:39.93	133.69	22.10	-36.7	-38.4	16.4	0.00e+00	0	58	0	2563768320	43	4777
2026-01-15 00:42:40.94	133.91	22.01	-36.9	-38.7	16.1	0.00e+00	0	58	0	2570059776	44	4657
2026-01-15 00:42:41.95	134.12	21.92	-37.0	-38.8	16.2	0.00e+00	0	58	0	2575302656	44	4713
2026-01-15 00:42:42.96	134.33	21.83	-37.1	-38.9	16.1	0.00e+00	0	58	0	2580545536	44	4768
2026-01-15 00:42:43.97	134.53	21.74	-37.1	-39.0	16.0	0.00e+00	0	58	0	2586836992	44	4815
2026-01-15 00:42:44.98	134.74	21.65	-37.2	-39.0	15.9	0.00e+00	0	58	0	2592079872	44	4852
2026-01-15 00:42:45.99	134.95	21.56	-37.2	-39.0	15.9	0.00e+00	0	58	0	2598371328	44	4860
2026-01-15 00:42:47.00	135.15	21.47	-37.2	-39.1	15.8	0.00e+00	0	58	0	2603614208	45	4608
2026-01-15 00:42:48.01	135.36	21.37	-37.2	-39.1	15.8	0.00e+00	0	58	0	2609905664	45	4603
2026-01-15 00:42:49.02	135.56	21.28	-37.2	-39.1	15.8	0.00e+00	0	58	0	2615148544	45	4605
2026-01-15 00:42:50.03	135.76	21.19	-37.2	-39.1	15.8	0.00e+00	0	58	0	2620391424	45	4609
2026-01-15 00:42:51.04	135.96	21.10	-37.2	-39.0	15.9	0.00e+00	0	58	0	2626682880	45	4579
2026-01-15 00:42:52.05	136.16	21.01	-37.2	-39.0	15.9	0.00e+00	0	58	0	2631925760	45	4560
2026-01-15 00:42:53.06	136.36	20.92	-37.1	-38.9	15.9	0.00e+00	0	58	0	2638217216	45	4538
2026-01-15 00:42:54.07	136.56	20.83	-37.2	-39.0	15.9	0.00e+00	0	58	0	2643460096	45	4586
2026-01-15 00:42:55.08	136.75	20.74	-37.3	-39.1	15.7	0.00e+00	0	58	0	2648702976	45	4648
2026-01-15 00:42:56.09	136.95	20.65	-37.4	-39.3	15.6	0.00e+00	0	58	0	2654994432	45	4741
2026-01-15 00:42:57.10	137.14	20.56	-37.6	-39.5	15.4	0.00e+00	0	58	0	2660237312	45	4854
2026-01-15 00:42:58.11	137.33	20.47	-37.7	-39.7	15.2	0.00e+00	0	58	0	2666528768	45	4932
2026-01-15 00:42:59.12	137.52	20.38	-37.7	-39.7	15.2	0.00e+00	0	58	0	2671771648	45	4946
2026-01-15 00:43:00.13	137.72	20.29	-37.7	-39.6	15.2	0.00e+00	0	58	0	2677014528	45	4917
2026-01-15 00:43:01.14	137.90	20.20	-37.6	-39.6	15.3	0.00e+00	0	58	0	2683305984	45	4878
2026-01-15 00:43:02.15	138.09	20.11	-37.5	-39.4	15.4	0.00e+00	0	58	0	2688548864	45	4790
2026-01-15 00:43:03.16	138.28	20.02	-37.4	-39.3	15.5	0.00e+00	0	58	0	2694840320	45	4755
2026-01-15 00:43:04.17	138.47	19.93	-37.4	-39.3	15.5	0.00e+00	0	58	0	2700083200	45	4750
2026-01-15 00:43:05.18	138.65	19.83	-37.5	-39.4	15.4	0.00e+00	0	58	0	2706374656	45	4785
2026-01-15 00:43:06.19	138.83	19.74	-37.5	-39.5	15.4	0.00e+00	0	58	0	2711617536	45	4823
2026-01-15 00:43:07.19	139.02	19.65	-37.6	-39.5	15.3	0.00e+00	0	58	0	2717908992	45	4853
2026-01-15 00:43:08.20	139.20	19.56	-37.6	-39.5	15.3	0.00e+00	0	58	0	2723151872	45	4854
2026-01-15 00:43:09.21	139.38	19.47	-37.5	-39.5	15.3	0.00e+00	0	58	0	2728394752	45	4833
2026-01-15 00:43:10.22	139.56	19.38	-37.5	-39.4	15.4	0.00e+00	0	58	0	2734686208	45	4811
2026-01-15 00:43:11.23	139.74	19.29	-37.4	-39.3	15.5	0.00e+00	0	58	0	2739929088	45	4756
2026-01-15 00:43:12.24	139.91	19.20	-37.4	-39.3	15.5	0.00e+00	0	58	0	2745171968	45	4751
2026-01-15 00:43:13.25	140.09	19.11	-37.4	-39.3	15.5	0.00e+00	0	58	0	2751463424	45	4742
2026-01-15 00:43:14.26	140.27	19.02	-37.4	-39.3	15.5	0.00e+00	0	58	0	2756706304	45	4753
2026-01-15 00:43:15.27	140.44	18.93	-37.5	-39.4	15.4	0.00e+00	0	58	0	2762997760	45	4777
2026-01-15 00:43:16.28	140.61	18.84	-37.5	-39.4	15.4	0.00e+00	0	58	0	2768240640	45	4799
2026-01-15 00:43:17.29	140.79	18.75	-37.6	-39.5	15.3	0.00e+00	0	58	0	2773483520	45	4855
2026-01-15 00:43:18.30	140.96	18.66	-37.6	-39.6	15.2	0.00e+00	0	58	0	2779774976	45	4887
2026-01-15 00:43:19.31	141.13	18.57	-37.6	-39.6	15.2	0.00e+00	0	58	0	2785017856	45	4917
2026-01-15 00:43:20.32	141.30	18.48	-37.6	-39.7	15.2	0.00e+00	0	58	0	2791309312	45	4936
2026-01-15 00:43:21.33	141.47	18.40	-37.7	-39.7	15.1	0.00e+00	0	58	0	2796552192	45	4950
2026-01-15 00:43:22.34	141.64	18.31	-37.7	-39.7	15.1	0.00e+00	0	58	0	2802843648	45	4965
2026-01-15 00:43:23.35	141.80	18.22	-37.8	-39.8	15.0	0.00e+00	0	58	0	2808086528	46	4715
2026-01-15 00:43:24.35	141.97	18.13	-37.8	-39.8	15.0	0.00e+00	0	58	0	2814377984	46	4730
2026-01-15 00:43:25.36	142.13	18.04	-37.8	-39.8	15.0	0.00e+00	0	58	0	2819620864	46	4747
2026-01-15 00:43:26.37	142.30	17.95	-37.9	-39.9	14.9	0.00e+00	0	58	0	2824863744	46	4772
2026-01-15 00:43:27.38	142.46	17.86	-37.9	-39.9	14.9	1.10e-06	0	58	0	2831155200	46	4787
2026-01-15 00:43:28.39	142.62	17.77	-37.9	-40.0	14.8	0.00e+00	0	58	0	2836398080	46	4817
2026-01-15 00:43:29.40	142.78	17.68	-38.0	-40.0	14.8	1.10e-06	0	58	0	2842689536	46	4854
2026-01-15 00:43:30.41	142.94	17.59	-38.0	-40.1	14.6	1.10e-06	0	58	0	2847932416	46	4876
2026-01-15 00:43:31.42	143.10	17.51	-38.0	-40.1	14.7	0.00e+00	0	58	0	2853175296	46	4908
2026-01-15 00:43:32.43	143.26	17.42	-38.1	-40.2	14.6	0.00e+00	0	58	0	2859466752	46	4938
2026-01-15 00:43:33.44	143.42	17.33	-38.1	-40.2	14.6	2.20e-06	0	58	0	2864709632	46	4930
2026-01-15 00:43:34.45	143.57	17.24	-38.1	-40.2	14.6	2.40e-05	0	58	0	2871001088	46	4940
2026-01-15 00:43:35.46	143.73	17.15	-38.1	-40.1	14.6	3.40e-06	0	58	0	2876243968	46	4925
2026-01-15 00:43:36.47	143.89	17.07	-38.0	-40.1	14.7	2.20e-06	0	58	0	2881486848	46	4902
2026-01-15 00:43:37.48	144.04	16.98	-38.0	-40.1	14.7	1.10e-06	0	58	0	2887778304	46	4885
2026-01-15 00:43:38.48	144.19	16.89	-37.9	-40.0	14.7	5.70e-06	0	58	0	2893021184	46	4859
2026-01-15 00:43:39.49	144.34	16.80	-38.0	-40.1	14.7	1.10e-06	0	58	0	2899312640	46	4873
2026-01-15 00:43:40.50	144.49	16.72	-38.0	-40.1	14.7	1.10e-06	0	58	0	2904555520	46	4892
2026-01-15 00:43:41.51	144.65	16.63	-38.1	-40.2	14.6	2.20e-06	0	58	0	2910846976	46	4931
2026-01-15 00:43:42.52	144.79	16.54	-38.1	-40.2	14.5	2.17e-05	0	58	0	2916089856	46	4954
2026-01-15 00:43:43.53	144.94	16.45	-38.1	-40.3	14.5	3.40e-06	0	58	0	2921332736	46	4985
2026-01-15 00:43:44.53	145.09	16.37	-38.2	-40.3	14.4	1.10e-06	0	58	0	2927624192	46	5023
2026-01-15 00:43:45.54	145.24	16.28	-38.2	-40.3	14.4	0.00e+00	0	58	0	2932867072	46	5038
2026-01-15 00:43:46.55	145.38	16.19	-38.2	-40.4	14.3	2.51e-05	0	58	0	2939158528	47	4769
2026-01-15 00:43:47.56	145.53	16.11	-38.2	-40.4	14.3	4.50e-06	0	58	0	2944401408	47	4775
2026-01-15 00:43:48.57	145.67	16.02	-38.2	-40.3	14.4	4.50e-06	0	58	0	2949644288	47	4748
2026-01-15 00:43:49.58	145.82	15.94	-38.2	-40.3	14.4	6.80e-06	0	58	0	2955935744	47	4732
2026-01-15 00:43:50.59	145.96	15.85	-38.1	-40.3	14.0	4.00e-05	0	58	0	2961178624	47	4710
2026-01-15 00:43:51.60	146.10	15.76	-38.2	-40.3	14.4	8.23e-05	0	58	0	2967470080	47	4723
2026-01-15 00:43:52.61	146.25	15.68	-38.1	-40.3	14.5	0.00e+00	0	58	0	2972712960	47	4707
2026-01-15 00:43:53.62	146.39	15.59	-38.2	-40.3	14.4	1.10e-06	0	58	0	2977955840	47	4722
2026-01-15 00:43:54.63	146.53	15.51	-38.2	-40.3	14.4	2.17e-05	0	58	0	2984247296	47	4735
2026-01-15 00:43:55.64	146.67	15.42	-38.2	-40.4	14.3	2.05e-05	0	58	0	2989490176	47	4763
2026-01-15 00:43:56.65	146.80	15.34	-38.2	-40.4	14.3	1.10e-06	0	58	0	2995781632	47	4780
2026-01-15 00:43:57.66	146.94	15.25	-38.3	-40.5	14.2	4.50e-06	0	58	0	3001024512	47	4821
2026-01-15 00:43:58.66	147.08	15.17	-38.3	-40.5	14.2	1.10e-06	0	58	0	3007315968	47	4840
2026-01-15 00:43:59.68	147.21	15.08	-38.4	-40.6	14.1	5.70e-06	0	58	0	3012558848	47	4877
2026-01-15 00:44:00.69	147.35	15.00	-38.4	-40.6	14.0	1.02e-05	0	58	0	3017801728	47	4911
2026-01-15 00:44:01.70	147.49	14.91	-38.4	-40.6	14.1	1.10e-06	0	58	0	3024093184	47	4879
2026-01-15 00:44:02.71	147.62	14.83	-38.4	-40.6	14.1	6.80e-06	0	58	0	3029336064	47	4875
2026-01-15 00:44:03.72	147.75	14.74	-38.4	-40.5	14.1	0.00e+00	0	58	0	3035627520	47	4860
2026-01-15 00:44:04.73	147.88	14.66	-38.4	-40.6	14.1	3.40e-06	0	58	0	3040870400	47	4880
2026-01-15 00:44:05.74	148.02	14.57	-38.3	-40.5	14.2	2.20e-06	0	58	0	3046113280	47	4824
2026-01-15 00:44:06.74	148.15	14.49	-38.3	-40.5	14.3	1.10e-06	0	58	0	3052404736	47	4815
2026-01-15 00:44:07.75	148.28	14.41	-38.2	-40.3	14.3	2.20e-06	0	58	0	3057647616	47	4759
2026-01-15 00:44:08.76	148.41	14.32	-38.3	-40.4	14.3	2.20e-06	0	58	0	3063939072	47	4790
2026-01-15 00:44:09.77	148.54	14.24	-38.2	-40.4	14.3	4.50e-06	0	58	0	3069181952	47	4774
2026-01-15 00:44:10.79	148.66	14.16	-38.3	-40.4	14.2	3.40e-06	0	58	0	3074424832	47	4789
2026-01-15 00:44:11.80	148.79	14.07	-38.4	-40.5	14.1	3.40e-06	0	58	0	3080716288	47	4858
2026-01-15 00:44:12.81	148.92	13.99	-38.3	-40.5	14.1	2.20e-06	0	58	0	3085959168	47	4850
2026-01-15 00:44:13.82	149.05	13.91	-38.4	-40.6	14.1	3.40e-06	0	58	0	3092250624	47	4876
2026-01-15 00:44:14.83	149.17	13.83	-38.4	-40.6	14.0	3.40e-06	0	58	0	3097493504	47	4896
2026-01-15 00:44:15.84	149.30	13.74	-38.4	-40.6	14.0	1.10e-06	0	58	0	3103784960	47	4914
2026-01-15 00:44:16.85	149.42	13.66	-38.4	-40.7	14.0	4.50e-06	0	58	0	3109027840	47	4935
2026-01-15 00:44:17.85	149.54	13.58	-38.5	-40.7	13.9	1.02e-05	0	58	0	3115319296	47	4975
2026-01-15 00:44:18.86	149.66	13.50	-38.5	-40.8	13.8	8.00e-06	0	58	0	3120562176	47	5000
2026-01-15 00:44:19.87	149.79	13.42	-38.5	-40.8	13.8	1.02e-05	0	58	0	3125805056	47	5024
2026-01-15 00:44:20.88	149.91	13.33	-38.5	-40.8	13.8	1.48e-05	0	58	0	3132096512	47	5023
2026-01-15 00:44:21.88	150.03	13.25	-38.6	-40.9	13.7	1.25e-05	0	58	0	3137339392	47	5051
2026-01-15 00:44:22.89	150.15	13.17	-38.6	-40.9	13.7	1.02e-05	0	58	0	3142582272	47	5069
2026-01-15 00:44:23.90	150.27	13.09	-38.6	-40.9	13.6	8.00e-06	0	58	0	3148873728	47	5078
2026-01-15 00:44:24.91	150.39	13.01	-38.6	-41.0	13.6	1.25e-05	0	58	0	3154116608	47	5104
2026-01-15 00:44:25.92	150.51	12.93	-38.7	-41.0	13.5	1.37e-05	0	58	0	3160408064	47	5152
2026-01-15 00:44:26.93	150.62	12.85	-38.7	-41.1	13.4	1.71e-05	0	58	0	3165650944	47	5179
2026-01-15 00:44:27.94	150.74	12.77	-38.7	-41.1	13.4	1.48e-05	0	58	0	3170893824	47	5166
2026-01-15 00:44:28.95	150.86	12.69	-38.8	-41.2	13.5	1.71e-05	0	58	0	3177185280	48	4956
2026-01-15 00:44:29.96	150.97	12.61	-38.9	-41.2	13.4	1.83e-05	0	58	0	3182428160	48	4973
2026-01-15 00:44:30.97	151.09	12.53	-38.9	-41.3	13.3	3.43e-05	0	58	0	3188719616	48	4995
2026-01-15 00:44:31.98	151.20	12.45	-38.9	-41.3	13.3	2.74e-05	0	58	0	3193962496	48	5020
2026-01-15 00:44:32.99	151.32	12.37	-38.9	-41.3	13.3	3.08e-05	0	58	0	3200253952	48	5017
2026-01-15 00:44:33.99	151.43	12.29	-38.9	-41.3	13.3	2.51e-05	0	58	0	3205496832	48	5032
2026-01-15 00:44:35.00	151.54	12.21	-39.0	-41.4	13.2	2.97e-05	0	58	0	3211788288	48	5058
2026-01-15 00:44:36.01	151.65	12.13	-38.9	-41.3	13.3	3.08e-05	0	58	0	3217031168	48	5034
2026-01-15 00:44:37.02	151.77	12.05	-38.9	-41.3	13.3	3.08e-05	0	58	0	3222274048	48	5024
2026-01-15 00:44:38.03	151.88	11.97	-38.9	-41.3	13.3	2.86e-05	0	58	0	3228565504	48	5023
2026-01-15 00:44:39.04	151.99	11.89	-39.0	-41.4	13.2	3.31e-05	0	58	0	3233808384	48	5056
2026-01-15 00:44:40.05	152.10	11.81	-38.9	-41.3	13.3	2.74e-05	0	58	0	3240099840	48	5030
2026-01-15 00:44:41.06	152.21	11.74	-39.0	-41.4	13.2	4.69e-05	0	58	0	3245342720	48	5065
2026-01-15 00:44:42.07	152.32	11.66	-39.0	-41.4	13.2	5.14e-05	0	58	0	3250585600	48	5086
2026-01-15 00:44:43.08	152.42	11.58	-39.1	-41.5	13.1	4.92e-05	0	58	0	3256877056	48	5124
2026-01-15 00:44:44.09	152.53	11.50	-39.1	-41.6	13.0	5.60e-05	0	58	0	3262119936	48	5167
2026-01-15 00:44:45.10	152.64	11.42	-39.1	-41.6	12.9	5.26e-05	0	58	0	3268411392	48	5183
2026-01-15 00:44:46.11	152.75	11.35	-39.2	-41.6	12.9	6.63e-05	0	58	0	3273654272	48	5204
2026-01-15 00:44:47.12	152.85	11.27	-39.2	-41.7	12.8	9.04e-05	0	58	0	3278897152	49	4970
2026-01-15 00:44:48.13	152.96	11.19	-39.2	-41.7	12.8	9.38e-05	0	58	0	3285188608	49	4941
2026-01-15 00:44:49.14	153.06	11.11	-39.3	-41.8	12.7	1.13e-04	0	58	0	3290431488	49	4995
2026-01-15 00:44:50.15	153.17	11.04	-39.2	-41.8	12.7	9.15e-05	0	58	0	3296722944	49	4990
2026-01-15 00:44:51.16	153.27	10.96	-39.3	-41.8	12.7	1.40e-04	0	58	0	3301965824	49	5027
2026-01-15 00:44:52.17	153.37	10.88	-39.3	-41.8	12.7	1.15e-04	0	58	0	3308257280	49	5028
2026-01-15 00:44:53.18	153.48	10.81	-39.3	-41.8	12.6	1.25e-04	0	58	0	3313500160	49	5030
2026-01-15 00:44:54.19	153.58	10.73	-39.3	-41.9	12.6	1.79e-04	0	58	0	3318743040	49	5072
2026-01-15 00:44:55.20	153.68	10.65	-39.3	-41.8	12.7	1.30e-04	0	58	0	3325034496	49	5015
2026-01-15 00:44:56.21	153.78	10.58	-39.3	-41.9	12.6	1.58e-04	0	58	0	3330277376	49	5076
2026-01-15 00:44:57.22	153.88	10.50	-39.3	-41.9	12.6	1.17e-04	0	58	0	3336568832	49	5051
2026-01-15 00:44:58.23	153.98	10.43	-39.3	-41.9	12.5	1.56e-04	0	58	0	3341811712	49	5083
2026-01-15 00:44:59.24	154.08	10.35	-39.3	-41.8	12.6	2.13e-04	0	58	0	3347054592	49	5004
2026-01-15 00:45:00.25	154.18	10.28	-39.3	-41.9	12.5	1.34e-04	0	58	0	3353346048	49	5082
2026-01-15 00:45:01.26	154.28	10.20	-39.4	-42.0	12.4	1.70e-04	0	58	0	3358588928	49	5101
2026-01-15 00:45:02.27	154.38	10.13	-39.3	-41.9	12.5	1.79e-04	0	58	0	3364880384	49	5054
2026-01-15 00:45:03.28	154.48	10.05	-39.3	-42.0	12.4	1.84e-04	0	58	0	3370123264	49	5110
2026-01-15 00:45:04.29	154.58	9.98	-39.4	-42.0	12.3	2.87e-04	0	58	0	3375366144	49	5156
2026-01-15 00:45:05.30	154.67	9.90	-39.4	-42.0	12.3	2.61e-04	0	58	0	3381657600	49	5150
2026-01-15 00:45:06.31	154.77	9.83	-39.4	-42.1	12.2	3.10e-04	0	58	0	3386900480	49	5193
2026-01-15 00:45:07.32	154.86	9.75	-39.4	-42.1	12.2	2.91e-04	0	58	0	3393191936	49	5207
2026-01-15 00:45:08.33	154.96	9.68	-39.4	-42.1	12.2	2.89e-04	0	58	0	3398434816	49	5187
2026-01-15 00:45:09.33	155.05	9.60	-39.4	-42.1	12.2	3.34e-04	0	58	0	3404726272	49	5214
2026-01-15 00:45:10.34	155.15	9.53	-39.6	-42.4	11.9	4.61e-04	0	58	0	3409969152	49	5345
2026-01-15 00:45:11.36	155.24	9.46	-39.4	-42.1	12.1	4.44e-04	0	58	0	3416260608	49	5215
2026-01-15 00:45:12.36	155.34	9.38	-39.5	-42.2	12.0	5.03e-04	0	58	0	3421503488	49	5268
2026-01-15 00:45:13.37	155.43	9.31	-39.5	-42.3	11.9	4.95e-04	0	58	0	3426746368	49	5321
