passes_logs/2026/01/15/R2.0S_Moscow/R2.0S_Moscow__20260115_233612_NOAA_20_JPSS-1_rec.log

#Pass ID: 20260115_233612_NOAA 20 (JPSS-1)
#Satellite: NOAA 20 (JPSS-1)
#Configuration: NOAA 20
#almurnet v.1.7.20251203
#Start time: 2026-01-15 23:36:13

#Version: 2.2.20231116
#Station: R2.0S_Moscow
#Location: 37.707566 lon 55.798166 lat
#TLE: 1 43013U 17073A   26015.47098083  .00000029  00000+0  34851-4 0  9997
#TLE: 2 43013  98.7636 316.4053 0001479  38.6686 321.4595 14.19536048422808

#Time	Az	El	Level	Level2	SNR	BER	BlckErr	Temp	State	Recorded	gain1	gain2
2026-01-15 23:36:13.89	16.48	2.07	-42.1	-57.1	3.8	1.49e+00	0	51	0	0	56	19581
2026-01-15 23:36:14.89	16.49	2.13	-42.0	-57.0	3.8	1.49e+00	0	51	104	0	55	20304
2026-01-15 23:36:15.90	16.50	2.20	-42.0	-56.9	3.8	1.49e+00	0	51	104	0	55	20303
2026-01-15 23:36:16.92	16.50	2.26	-42.0	-57.0	3.8	1.49e+00	0	51	104	0	55	20329
2026-01-15 23:36:17.93	16.51	2.33	-41.9	-57.0	3.8	1.49e+00	0	51	104	0	55	20317
2026-01-15 23:36:18.93	16.52	2.39	-42.0	-57.0	3.8	1.49e+00	0	51	104	0	55	20355
2026-01-15 23:36:19.95	16.52	2.46	-42.0	-57.0	3.8	1.49e+00	0	51	104	0	55	20322
2026-01-15 23:36:20.95	16.53	2.52	-42.0	-57.0	3.8	1.49e+00	0	51	104	0	55	20304
2026-01-15 23:36:21.96	16.54	2.59	-42.0	-57.0	3.8	1.49e+00	0	52	104	0	55	20336
2026-01-15 23:36:22.97	16.54	2.66	-42.0	-56.9	3.8	1.49e+00	0	52	104	0	55	20299
2026-01-15 23:36:23.98	16.55	2.72	-42.0	-56.9	3.8	1.49e+00	0	52	104	0	55	20294
2026-01-15 23:36:24.99	16.56	2.79	-41.9	-56.9	3.8	1.49e+00	0	52	104	0	55	20294
2026-01-15 23:36:26.01	16.57	2.86	-41.9	-56.9	3.8	1.49e+00	0	52	104	0	55	20240
2026-01-15 23:36:27.02	16.57	2.92	-41.9	-56.9	3.8	1.49e+00	0	52	104	0	55	20301
2026-01-15 23:36:28.03	16.58	2.99	-42.0	-57.0	3.8	1.49e+00	0	52	104	0	55	20327
2026-01-15 23:36:29.04	16.59	3.05	-42.0	-56.9	3.8	1.49e+00	0	52	104	0	55	20278
2026-01-15 23:36:30.04	16.60	3.12	-42.0	-56.9	3.8	1.49e+00	0	52	104	0	55	20287
2026-01-15 23:36:31.05	16.60	3.19	-41.9	-57.0	3.8	1.49e+00	0	52	104	0	55	20344
2026-01-15 23:36:32.06	16.61	3.25	-42.0	-57.0	3.8	1.49e+00	0	52	104	0	55	20333
2026-01-15 23:36:33.07	16.62	3.32	-41.9	-57.0	3.8	1.49e+00	0	52	104	0	55	20314
2026-01-15 23:36:34.08	16.62	3.39	-41.9	-57.0	3.8	1.49e+00	0	52	104	0	55	20347
2026-01-15 23:36:35.09	16.63	3.46	-42.0	-57.0	3.8	1.49e+00	0	52	104	0	55	20334
2026-01-15 23:36:36.10	16.64	3.53	-41.9	-56.9	3.8	1.49e+00	0	53	104	0	55	20261
2026-01-15 23:36:37.11	16.65	3.59	-42.0	-57.0	3.8	1.49e+00	0	53	104	0	55	20308
2026-01-15 23:36:38.12	16.65	3.66	-42.0	-57.0	3.8	1.49e+00	0	53	104	0	55	20316
2026-01-15 23:36:39.13	16.66	3.73	-41.9	-56.9	3.8	1.49e+00	0	53	104	0	55	20254
2026-01-15 23:36:40.14	16.67	3.80	-42.0	-56.9	3.8	1.49e+00	0	53	104	0	55	20292
2026-01-15 23:36:41.15	16.67	3.87	-41.9	-57.0	3.8	1.49e+00	0	53	104	0	55	20341
2026-01-15 23:36:42.16	16.68	3.94	-41.9	-56.9	3.8	1.49e+00	0	53	104	0	55	20287
2026-01-15 23:36:43.17	16.69	4.00	-41.9	-56.9	3.8	1.49e+00	0	53	104	0	55	20248
2026-01-15 23:36:44.18	16.70	4.07	-42.0	-56.9	3.8	1.49e+00	0	53	104	0	55	20281
2026-01-15 23:36:45.18	16.70	4.14	-41.9	-56.9	3.8	1.49e+00	0	53	104	0	55	20256
2026-01-15 23:36:46.19	16.71	4.21	-41.9	-56.9	3.8	1.49e+00	0	53	104	0	55	20283
2026-01-15 23:36:47.20	16.72	4.28	-41.9	-57.0	3.8	1.49e+00	0	53	104	0	55	20319
2026-01-15 23:36:48.21	16.73	4.35	-41.9	-56.9	3.8	1.49e+00	0	53	104	0	55	20274
2026-01-15 23:36:49.22	16.73	4.42	-42.0	-56.9	3.8	1.49e+00	0	53	104	0	55	20288
2026-01-15 23:36:50.23	16.74	4.49	-41.9	-57.0	3.8	1.49e+00	0	53	104	0	55	20346
2026-01-15 23:36:51.24	16.75	4.56	-41.9	-56.9	3.8	1.49e+00	0	53	104	0	55	20277
2026-01-15 23:36:52.25	16.76	4.63	-42.0	-56.9	3.8	1.49e+00	0	54	104	0	55	20262
2026-01-15 23:36:53.26	16.76	4.70	-42.0	-56.9	3.8	1.49e+00	0	54	104	0	55	20291
2026-01-15 23:36:54.27	16.77	4.78	-41.9	-57.0	3.8	1.49e+00	0	54	104	0	55	20324
2026-01-15 23:36:55.28	16.78	4.85	-42.0	-56.9	3.8	1.49e+00	0	54	104	0	55	20271
2026-01-15 23:36:56.29	16.79	4.92	-42.0	-57.0	3.8	1.49e+00	0	54	104	0	55	20322
2026-01-15 23:36:57.29	16.79	4.99	-41.9	-56.9	3.8	1.49e+00	0	54	104	0	55	20252
2026-01-15 23:36:58.30	16.80	5.06	-42.0	-56.9	3.8	1.49e+00	0	54	104	0	55	20273
2026-01-15 23:36:59.31	16.81	5.13	-42.0	-56.9	3.8	1.49e+00	0	54	104	0	55	20237
2026-01-15 23:37:00.32	16.82	5.20	-41.9	-56.9	3.8	1.49e+00	0	54	104	0	55	20295
2026-01-15 23:37:01.33	16.82	5.28	-41.9	-56.9	3.8	1.49e+00	0	54	104	0	55	20291
2026-01-15 23:37:02.34	16.83	5.35	-42.0	-56.9	3.8	1.49e+00	0	54	104	0	55	20292
2026-01-15 23:37:03.35	16.84	5.42	-41.9	-56.9	3.8	1.49e+00	0	54	104	0	55	20244
2026-01-15 23:37:04.36	16.85	5.50	-41.9	-56.9	3.8	1.49e+00	0	54	104	0	55	20266
2026-01-15 23:37:05.36	16.85	5.57	-41.9	-56.9	3.8	1.49e+00	0	54	104	0	55	20287
2026-01-15 23:37:06.37	16.86	5.64	-42.0	-56.9	3.8	1.49e+00	0	54	104	0	55	20265
2026-01-15 23:37:07.38	16.87	5.71	-41.9	-56.9	3.8	1.49e+00	0	54	104	0	55	20239
2026-01-15 23:37:08.39	16.88	5.79	-41.9	-56.9	3.8	1.49e+00	0	54	104	0	55	20225
2026-01-15 23:37:09.40	16.89	5.86	-42.0	-56.9	3.8	1.49e+00	0	54	104	0	55	20286
2026-01-15 23:37:10.41	16.89	5.94	-42.0	-56.9	3.8	1.49e+00	0	54	104	0	55	20282
2026-01-15 23:37:11.42	16.90	6.01	-42.0	-56.9	3.8	1.49e+00	0	55	104	0	55	20254
2026-01-15 23:37:12.43	16.91	6.09	-41.9	-56.9	3.8	1.49e+00	0	54	104	0	55	20246
2026-01-15 23:37:13.44	16.92	6.16	-42.0	-56.9	3.8	1.49e+00	0	54	104	0	55	20267
2026-01-15 23:37:14.45	16.92	6.24	-41.9	-56.9	3.8	1.49e+00	0	55	104	0	55	20274
2026-01-15 23:37:15.46	16.93	6.31	-41.9	-56.9	3.8	1.49e+00	0	54	104	0	55	20262
2026-01-15 23:37:16.47	16.94	6.39	-42.0	-56.9	3.8	1.49e+00	0	55	104	0	55	20290
2026-01-15 23:37:17.48	16.95	6.46	-41.9	-56.9	3.8	1.49e+00	0	55	104	0	55	20165
2026-01-15 23:37:18.49	16.96	6.54	-41.9	-56.9	3.8	1.49e+00	0	55	104	0	55	20132
2026-01-15 23:37:19.50	16.96	6.61	-41.9	-56.9	3.8	1.49e+00	0	55	104	0	55	20079
2026-01-15 23:37:20.51	16.97	6.69	-41.9	-56.8	3.8	1.49e+00	0	55	104	0	55	19977
2026-01-15 23:37:21.52	16.98	6.77	-41.9	-56.8	3.8	1.49e+00	0	55	104	0	55	19863
2026-01-15 23:37:22.53	16.99	6.84	-41.9	-56.7	3.8	1.49e+00	0	55	104	0	55	19768
2026-01-15 23:37:23.54	17.00	6.92	-41.9	-56.7	3.8	1.49e+00	0	55	104	0	55	19710
2026-01-15 23:37:24.55	17.00	7.00	-41.9	-56.7	3.8	1.49e+00	0	55	104	0	55	19677
2026-01-15 23:37:25.56	17.01	7.08	-41.9	-56.6	3.8	1.49e+00	0	55	104	0	55	19565
2026-01-15 23:37:26.57	17.02	7.15	-41.9	-56.5	3.8	1.49e+00	0	55	104	0	55	19269
2026-01-15 23:37:27.58	17.03	7.23	-41.9	-56.1	3.8	1.49e+00	0	55	104	0	55	18393
2026-01-15 23:37:28.59	17.04	7.31	-41.9	-55.5	3.8	1.49e+00	0	55	104	0	55	17097
2026-01-15 23:37:29.59	17.04	7.39	-41.8	-54.6	4.0	1.49e+00	0	55	104	0	55	15520
2026-01-15 23:37:30.60	17.05	7.47	-41.8	-54.0	3.9	1.47e+00	0	55	104	0	55	14490
2026-01-15 23:37:31.61	17.06	7.55	-41.7	-53.2	4.3	1.40e+00	0	55	0	0	55	13114
2026-01-15 23:37:32.63	17.07	7.63	-41.6	-52.3	4.6	1.26e+00	0	55	0	1048576	55	11880
2026-01-15 23:37:33.64	17.08	7.71	-41.5	-51.1	5.1	7.04e-01	0	55	0	3145728	55	10354
2026-01-15 23:37:34.65	17.08	7.79	-41.3	-49.9	6.0	4.50e-01	0	55	0	4194304	54	9512
2026-01-15 23:37:35.66	17.09	7.87	-41.1	-48.8	6.8	2.56e-01	0	56	0	6291456	54	8459
2026-01-15 23:37:36.67	17.10	7.95	-41.0	-48.2	7.5	1.12e-01	0	56	0	8388608	54	7815
2026-01-15 23:37:37.68	17.11	8.03	-40.9	-47.8	7.8	8.36e-02	0	55	0	10485760	53	7980
2026-01-15 23:37:38.69	17.12	8.11	-41.5	-48.8	7.1	8.22e-02	0	55	0	12582912	53	8957
2026-01-15 23:37:39.70	17.13	8.19	-42.2	-49.1	7.4	1.36e-01	0	56	0	13631488	54	8697
2026-01-15 23:37:40.71	17.13	8.27	-41.5	-53.8	4.1	1.14e-01	13	56	0	15728640	55	14117
2026-01-15 23:37:41.72	17.14	8.35	-42.2	-56.0	3.8	1.49e+00	0	56	104	15728640	55	18210
2026-01-15 23:37:42.73	17.15	8.43	-42.0	-48.7	7.7	1.48e+00	0	56	0	15728640	55	7891
2026-01-15 23:37:43.74	17.16	8.51	-42.0	-48.6	7.7	1.84e-01	0	56	0	17825792	55	7801
2026-01-15 23:37:44.75	17.17	8.60	-41.8	-48.0	8.4	5.70e-02	0	56	0	19922944	55	7269
2026-01-15 23:37:45.76	17.18	8.68	-41.8	-47.9	8.5	4.20e-02	0	55	0	20971520	55	7133
2026-01-15 23:37:46.77	17.18	8.76	-41.9	-48.0	8.5	4.00e-02	0	56	0	23068672	55	7264
2026-01-15 23:37:47.78	17.19	8.85	-42.0	-48.2	8.3	5.23e-02	0	56	0	25165824	55	7439
2026-01-15 23:37:48.79	17.20	8.93	-41.9	-47.9	8.6	4.65e-02	0	56	0	27262976	55	7163
2026-01-15 23:37:49.80	17.21	9.01	-41.9	-47.8	8.8	3.14e-02	0	56	0	29360128	55	7045
2026-01-15 23:37:50.81	17.22	9.10	-41.9	-47.9	8.7	3.23e-02	0	56	0	30408704	55	7134
2026-01-15 23:37:51.81	17.23	9.18	-41.9	-47.8	8.9	3.31e-02	0	56	0	32505856	55	7070
2026-01-15 23:37:52.82	17.24	9.27	-41.9	-47.5	9.2	2.06e-02	0	56	0	34603008	55	6856
2026-01-15 23:37:53.83	17.24	9.35	-42.0	-47.9	8.9	2.38e-02	0	56	0	36700160	55	7146
2026-01-15 23:37:54.84	17.25	9.44	-42.0	-47.7	9.0	3.14e-02	0	56	0	37748736	55	7033
2026-01-15 23:37:55.85	17.26	9.52	-41.9	-47.5	9.3	1.81e-02	0	56	0	39845888	55	6809
2026-01-15 23:37:56.86	17.27	9.61	-42.0	-47.8	9.0	2.31e-02	0	56	0	41943040	55	7105
2026-01-15 23:37:57.87	17.28	9.69	-41.9	-47.5	9.3	2.05e-02	0	56	0	44040192	55	6838
2026-01-15 23:37:58.88	17.29	9.78	-42.0	-47.7	9.2	1.78e-02	0	56	0	46137344	55	6965
2026-01-15 23:37:59.89	17.30	9.87	-42.0	-47.6	9.3	1.80e-02	0	56	0	48234496	55	6900
2026-01-15 23:38:00.90	17.31	9.95	-42.0	-47.6	9.4	1.48e-02	0	56	0	49283072	55	6885
2026-01-15 23:38:01.91	17.31	10.04	-42.0	-47.4	9.6	1.56e-02	0	56	0	51380224	55	6793
2026-01-15 23:38:02.92	17.32	10.13	-42.0	-47.5	9.5	1.25e-02	0	56	0	53477376	55	6811
2026-01-15 23:38:03.93	17.33	10.22	-42.0	-47.4	9.6	1.44e-02	0	56	0	55574528	55	6764
2026-01-15 23:38:04.94	17.34	10.30	-42.0	-47.4	9.7	1.17e-02	0	56	0	57671680	55	6738
2026-01-15 23:38:05.95	17.35	10.39	-42.1	-47.4	9.7	1.19e-02	0	56	0	58720256	55	6740
2026-01-15 23:38:06.96	17.36	10.48	-42.1	-47.4	9.7	1.05e-02	0	57	0	60817408	55	6777
2026-01-15 23:38:07.97	17.37	10.57	-42.1	-47.3	9.8	1.10e-02	0	56	0	62914560	55	6712
2026-01-15 23:38:08.98	17.38	10.66	-42.1	-47.3	9.8	9.77e-03	0	57	0	65011712	55	6691
2026-01-15 23:38:09.99	17.39	10.75	-42.1	-47.3	9.8	1.02e-02	0	57	0	67108864	55	6713
2026-01-15 23:38:11.00	17.40	10.84	-42.2	-47.4	9.8	8.61e-03	0	57	0	68157440	55	6768
2026-01-15 23:38:12.01	17.40	10.93	-42.1	-47.3	9.9	8.16e-03	0	57	0	70254592	55	6654
2026-01-15 23:38:13.02	17.41	11.02	-42.1	-47.2	10.0	9.06e-03	0	57	0	72351744	55	6646
2026-01-15 23:38:14.03	17.42	11.11	-42.1	-47.1	10.1	7.52e-03	0	57	0	74448896	55	6564
2026-01-15 23:38:15.04	17.43	11.20	-42.1	-47.1	10.2	6.34e-03	0	57	0	76546048	55	6513
2026-01-15 23:38:16.05	17.44	11.30	-42.1	-47.0	10.3	5.74e-03	0	57	0	77594624	55	6489
2026-01-15 23:38:17.06	17.45	11.39	-42.1	-47.0	10.3	5.49e-03	0	57	0	79691776	55	6484
2026-01-15 23:38:18.07	17.46	11.48	-42.1	-47.0	10.3	5.29e-03	0	57	0	81788928	55	6473
2026-01-15 23:38:19.08	17.47	11.57	-42.1	-47.0	10.3	4.80e-03	0	57	0	83886080	55	6468
2026-01-15 23:38:20.09	17.48	11.67	-42.1	-46.9	10.4	4.88e-03	0	57	0	85983232	55	6408
2026-01-15 23:38:21.10	17.49	11.76	-42.1	-47.0	10.5	4.45e-03	0	57	0	88080384	55	6428
2026-01-15 23:38:22.11	17.50	11.85	-42.1	-46.9	10.5	3.85e-03	0	57	0	89128960	55	6348
2026-01-15 23:38:23.12	17.51	11.95	-42.1	-46.9	10.5	3.70e-03	0	57	0	91226112	55	6369
2026-01-15 23:38:24.13	17.52	12.04	-42.1	-46.8	10.6	3.74e-03	0	57	0	93323264	55	6346
2026-01-15 23:38:25.14	17.53	12.14	-42.0	-46.7	10.7	3.34e-03	0	57	0	95420416	55	6264
2026-01-15 23:38:26.15	17.54	12.23	-42.1	-46.8	10.6	3.16e-03	0	57	0	97517568	55	6323
2026-01-15 23:38:27.16	17.55	12.33	-42.1	-46.7	10.7	2.93e-03	0	57	0	98566144	55	6270
2026-01-15 23:38:28.17	17.56	12.42	-42.1	-46.8	10.7	2.78e-03	0	57	0	100663296	55	6299
2026-01-15 23:38:29.18	17.57	12.52	-42.1	-46.8	10.7	2.80e-03	0	57	0	102760448	55	6277
2026-01-15 23:38:30.19	17.57	12.62	-42.0	-46.7	10.8	2.76e-03	0	57	0	104857600	55	6229
2026-01-15 23:38:31.20	17.58	12.72	-42.0	-46.7	10.8	2.49e-03	0	57	0	106954752	55	6207
2026-01-15 23:38:32.20	17.59	12.81	-42.0	-46.6	10.9	2.48e-03	0	57	0	108003328	55	6139
2026-01-15 23:38:33.21	17.60	12.91	-42.0	-46.6	10.9	2.14e-03	0	57	0	110100480	55	6190
2026-01-15 23:38:34.22	17.61	13.01	-42.0	-46.6	10.9	2.24e-03	0	57	0	112197632	55	6152
2026-01-15 23:38:35.23	17.62	13.11	-42.0	-46.6	10.9	2.34e-03	0	57	0	114294784	55	6145
2026-01-15 23:38:36.24	17.63	13.21	-42.0	-46.6	10.9	2.05e-03	0	57	0	116391936	55	6187
2026-01-15 23:38:37.25	17.64	13.31	-42.0	-46.6	11.0	2.06e-03	0	57	0	117440512	55	6138
2026-01-15 23:38:38.26	17.65	13.41	-42.0	-46.5	11.0	1.74e-03	0	57	0	119537664	55	6100
2026-01-15 23:38:39.27	17.66	13.51	-42.0	-46.5	11.1	1.81e-03	0	57	0	121634816	55	6114
2026-01-15 23:38:40.28	17.67	13.61	-42.0	-46.5	11.1	1.59e-03	0	57	0	123731968	55	6087
2026-01-15 23:38:41.28	17.68	13.71	-42.0	-46.5	11.1	1.56e-03	0	57	0	125829120	55	6092
2026-01-15 23:38:42.29	17.69	13.81	-42.0	-46.4	11.2	1.50e-03	0	57	0	126877696	55	6057
2026-01-15 23:38:43.30	17.70	13.91	-42.0	-46.5	11.1	1.51e-03	0	57	0	128974848	55	6068
2026-01-15 23:38:44.31	17.71	14.02	-42.0	-46.4	11.2	1.45e-03	0	57	0	131072000	55	6012
2026-01-15 23:38:45.32	17.73	14.12	-42.0	-46.4	11.3	1.29e-03	0	57	0	133169152	55	6016
2026-01-15 23:38:46.33	17.74	14.22	-42.0	-46.3	11.3	1.16e-03	0	57	0	135266304	55	5987
2026-01-15 23:38:47.34	17.75	14.33	-42.0	-46.3	11.4	1.12e-03	0	57	0	136314880	55	5987
2026-01-15 23:38:48.35	17.76	14.43	-42.0	-46.4	11.3	1.01e-03	0	57	0	138412032	55	6013
2026-01-15 23:38:49.36	17.77	14.54	-42.0	-46.4	11.3	1.09e-03	0	57	0	140509184	55	6008
2026-01-15 23:38:50.37	17.78	14.64	-42.0	-46.3	11.4	1.06e-03	0	58	0	142606336	55	5988
2026-01-15 23:38:51.38	17.79	14.75	-42.1	-46.4	11.3	1.29e-03	0	58	0	144703488	55	6028
2026-01-15 23:38:52.39	17.80	14.85	-42.0	-46.4	11.4	1.08e-03	0	58	0	145752064	55	6005
2026-01-15 23:38:53.40	17.81	14.96	-42.1	-46.4	11.4	1.01e-03	0	58	0	147849216	55	6024
2026-01-15 23:38:54.41	17.82	15.07	-42.1	-46.4	11.4	1.08e-03	0	58	0	149946368	55	6029
2026-01-15 23:38:55.42	17.83	15.18	-42.0	-46.4	11.4	9.83e-04	0	58	0	152043520	55	6006
2026-01-15 23:38:56.43	17.84	15.28	-42.1	-46.4	11.4	9.63e-04	0	57	0	154140672	55	6041
2026-01-15 23:38:57.44	17.85	15.39	-42.0	-46.4	11.4	1.01e-03	0	58	0	155189248	55	6001
2026-01-15 23:38:58.45	17.86	15.50	-42.0	-46.3	11.5	9.57e-04	0	57	0	157286400	55	5976
2026-01-15 23:38:59.45	17.87	15.61	-42.0	-46.4	11.4	1.09e-03	0	58	0	159383552	55	6009
2026-01-15 23:39:00.46	17.89	15.72	-42.0	-46.3	11.5	9.83e-04	0	58	0	161480704	55	5961
2026-01-15 23:39:01.47	17.90	15.83	-42.0	-46.3	11.5	9.18e-04	0	58	0	163577856	55	5977
2026-01-15 23:39:02.49	17.91	15.94	-42.0	-46.3	11.4	8.95e-04	0	58	0	164626432	55	5989
2026-01-15 23:39:03.49	17.92	16.05	-42.0	-46.3	11.5	8.72e-04	0	58	0	166723584	55	5947
2026-01-15 23:39:04.50	17.93	16.17	-42.0	-46.3	11.5	8.31e-04	0	58	0	168820736	55	5958
2026-01-15 23:39:05.51	17.94	16.28	-42.0	-46.3	11.5	8.35e-04	0	58	0	170917888	55	5974
2026-01-15 23:39:06.52	17.95	16.39	-42.0	-46.3	11.5	7.77e-04	0	58	0	173015040	55	5936
2026-01-15 23:39:07.53	17.96	16.51	-42.1	-46.3	11.5	7.90e-04	0	58	0	174063616	55	5971
2026-01-15 23:39:08.54	17.98	16.62	-42.0	-46.3	11.6	8.41e-04	0	58	0	176160768	55	5946
2026-01-15 23:39:09.55	17.99	16.73	-42.1	-46.4	11.5	7.07e-04	0	58	0	178257920	55	5997
2026-01-15 23:39:10.56	18.00	16.85	-42.1	-46.4	11.5	8.17e-04	0	58	0	180355072	55	6002
2026-01-15 23:39:11.57	18.01	16.97	-42.1	-46.3	11.6	7.62e-04	0	58	0	182452224	55	5969
2026-01-15 23:39:12.58	18.02	17.08	-42.1	-46.4	11.5	6.91e-04	0	58	0	184549376	55	6004
2026-01-15 23:39:13.59	18.03	17.20	-42.1	-46.4	11.5	8.10e-04	0	58	0	185597952	55	6010
2026-01-15 23:39:14.60	18.05	17.32	-42.1	-46.3	11.6	7.39e-04	0	58	0	187695104	55	5989
2026-01-15 23:39:15.61	18.06	17.43	-42.1	-46.4	11.5	8.78e-04	0	58	0	189792256	55	6019
2026-01-15 23:39:16.61	18.07	17.55	-42.1	-46.3	11.6	7.66e-04	0	58	0	191889408	55	5982
2026-01-15 23:39:17.62	18.08	17.67	-42.2	-46.4	11.5	8.30e-04	0	58	0	193986560	55	6056
2026-01-15 23:39:18.63	18.09	17.79	-42.2	-46.4	11.5	7.74e-04	0	58	0	195035136	55	6057
2026-01-15 23:39:19.64	18.10	17.91	-42.2	-46.4	11.5	7.77e-04	0	58	0	197132288	55	6059
2026-01-15 23:39:20.65	18.12	18.03	-42.2	-46.5	11.5	7.90e-04	0	58	0	199229440	55	6064
2026-01-15 23:39:21.66	18.13	18.15	-42.2	-46.5	11.5	8.09e-04	0	58	0	201326592	55	6070
2026-01-15 23:39:22.67	18.14	18.28	-42.2	-46.4	11.5	7.77e-04	0	58	0	203423744	55	6043
2026-01-15 23:39:23.68	18.15	18.40	-42.2	-46.5	11.5	8.77e-04	0	58	0	204472320	55	6099
2026-01-15 23:39:24.69	18.17	18.52	-42.2	-46.5	11.5	8.41e-04	0	58	0	206569472	55	6094
2026-01-15 23:39:25.70	18.18	18.65	-42.2	-46.5	11.5	8.35e-04	0	58	0	208666624	55	6077
2026-01-15 23:39:26.71	18.19	18.77	-42.3	-46.5	11.5	8.69e-04	0	58	0	210763776	55	6118
2026-01-15 23:39:27.72	18.20	18.90	-42.2	-46.5	11.5	7.12e-04	0	58	0	212860928	55	6070
2026-01-15 23:39:28.73	18.22	19.02	-42.2	-46.5	11.6	7.04e-04	0	58	0	213909504	55	6062
2026-01-15 23:39:29.74	18.23	19.15	-42.2	-46.4	11.6	7.07e-04	0	58	0	216006656	55	6030
2026-01-15 23:39:30.75	18.24	19.28	-42.2	-46.4	11.6	6.90e-04	0	58	0	218103808	55	6033
2026-01-15 23:39:31.76	18.26	19.41	-42.3	-46.5	11.6	7.54e-04	0	58	0	220200960	55	6075
2026-01-15 23:39:32.77	18.27	19.53	-42.3	-46.5	11.5	7.65e-04	0	58	0	222298112	55	6128
2026-01-15 23:39:33.77	18.28	19.66	-42.3	-46.5	11.6	7.74e-04	0	58	0	223346688	55	6093
2026-01-15 23:39:34.78	18.29	19.79	-42.3	-46.6	11.4	8.93e-04	0	58	0	225443840	55	6180
2026-01-15 23:39:35.79	18.31	19.92	-42.3	-46.6	11.5	8.38e-04	0	58	0	227540992	55	6152
2026-01-15 23:39:36.80	18.32	20.05	-42.3	-46.6	11.5	7.74e-04	0	58	0	229638144	55	6136
2026-01-15 23:39:37.81	18.33	20.19	-42.3	-46.6	11.5	7.69e-04	0	58	0	231735296	55	6148
2026-01-15 23:39:38.82	18.35	20.32	-42.3	-46.5	11.6	8.59e-04	0	58	0	232783872	55	6102
2026-01-15 23:39:39.83	18.36	20.45	-42.3	-46.6	11.5	8.21e-04	0	58	0	234881024	55	6154
2026-01-15 23:39:40.84	18.37	20.59	-42.3	-46.6	11.5	8.32e-04	0	58	0	236978176	55	6154
2026-01-15 23:39:41.85	18.39	20.72	-42.3	-46.6	11.5	8.59e-04	0	58	0	239075328	55	6157
2026-01-15 23:39:42.86	18.40	20.86	-42.4	-46.7	11.4	9.04e-04	0	58	0	241172480	55	6215
2026-01-15 23:39:43.87	18.42	20.99	-42.4	-46.6	11.5	8.89e-04	0	58	0	242221056	55	6186
2026-01-15 23:39:44.87	18.43	21.13	-42.4	-46.6	11.5	7.80e-04	0	58	0	244318208	55	6172
2026-01-15 23:39:45.88	18.44	21.27	-42.4	-46.7	11.4	9.22e-04	0	58	0	246415360	55	6224
2026-01-15 23:39:46.90	18.46	21.41	-42.4	-46.7	11.4	9.00e-04	0	59	0	248512512	55	6268
2026-01-15 23:39:47.91	18.47	21.55	-42.4	-46.7	11.4	9.47e-04	0	58	0	250609664	55	6252
2026-01-15 23:39:48.91	18.49	21.69	-42.4	-46.8	11.3	9.45e-04	0	58	0	252706816	55	6294
2026-01-15 23:39:49.92	18.50	21.83	-42.5	-46.8	11.3	9.85e-04	0	58	0	253755392	55	6293
2026-01-15 23:39:50.93	18.52	21.97	-42.5	-46.8	11.3	1.22e-03	0	58	0	255852544	55	6327
2026-01-15 23:39:51.94	18.53	22.11	-42.5	-46.8	11.3	1.17e-03	0	59	0	257949696	55	6332
2026-01-15 23:39:52.95	18.54	22.25	-42.5	-46.8	11.3	1.15e-03	0	59	0	260046848	55	6341
2026-01-15 23:39:53.96	18.56	22.40	-42.5	-46.9	11.3	1.23e-03	0	58	0	262144000	55	6357
2026-01-15 23:39:54.97	18.57	22.54	-42.5	-46.9	11.2	1.24e-03	0	59	0	263192576	55	6404
2026-01-15 23:39:55.98	18.59	22.69	-42.5	-46.9	11.3	1.20e-03	0	59	0	265289728	55	6355
2026-01-15 23:39:56.99	18.60	22.84	-42.5	-46.9	11.3	1.14e-03	0	58	0	267386880	55	6354
2026-01-15 23:39:58.00	18.62	22.98	-42.5	-46.9	11.3	1.29e-03	0	58	0	269484032	55	6382
2026-01-15 23:39:59.01	18.64	23.13	-42.5	-46.9	11.3	1.29e-03	0	59	0	271581184	55	6360
2026-01-15 23:40:00.02	18.65	23.28	-42.5	-46.8	11.3	1.11e-03	0	58	0	272629760	55	6332
2026-01-15 23:40:01.03	18.67	23.43	-42.5	-46.8	11.4	1.04e-03	0	58	0	274726912	55	6280
2026-01-15 23:40:02.04	18.68	23.58	-42.5	-46.8	11.4	9.89e-04	0	58	0	276824064	55	6316
2026-01-15 23:40:03.05	18.70	23.73	-42.5	-46.9	11.3	9.93e-04	0	59	0	278921216	55	6355
2026-01-15 23:40:04.06	18.71	23.89	-42.5	-46.7	11.5	9.62e-04	0	58	0	281018368	55	6255
2026-01-15 23:40:05.06	18.73	24.04	-42.5	-46.7	11.5	7.67e-04	0	59	0	282066944	55	6234
2026-01-15 23:40:06.08	18.75	24.20	-42.5	-46.8	11.4	9.03e-04	0	58	0	284164096	55	6327
2026-01-15 23:40:07.09	18.76	24.35	-42.5	-46.7	11.5	8.61e-04	0	58	0	286261248	55	6237
2026-01-15 23:40:08.10	18.78	24.51	-42.5	-46.7	11.5	8.01e-04	0	58	0	288358400	55	6257
2026-01-15 23:40:09.10	18.79	24.66	-42.5	-46.7	11.5	9.00e-04	0	59	0	290455552	55	6260
2026-01-15 23:40:10.11	18.81	24.82	-42.4	-46.6	11.6	7.26e-04	0	59	0	291504128	55	6196
2026-01-15 23:40:11.12	18.83	24.98	-42.5	-46.8	11.5	8.22e-04	0	59	0	293601280	55	6290
2026-01-15 23:40:12.13	18.84	25.14	-42.4	-46.6	11.6	8.15e-04	0	59	0	295698432	55	6162
2026-01-15 23:40:13.14	18.86	25.30	-42.5	-46.7	11.5	7.36e-04	0	59	0	297795584	55	6250
2026-01-15 23:40:14.15	18.88	25.46	-42.6	-46.9	11.3	1.02e-03	0	58	0	299892736	55	6396
2026-01-15 23:40:15.16	18.90	25.63	-42.5	-46.8	11.4	9.89e-04	0	59	0	300941312	55	6308
2026-01-15 23:40:16.17	18.91	25.79	-42.6	-46.9	11.4	9.34e-04	0	59	0	303038464	55	6363
2026-01-15 23:40:17.18	18.93	25.96	-42.6	-46.9	11.4	1.07e-03	0	59	0	305135616	55	6348
2026-01-15 23:40:18.19	18.95	26.12	-42.6	-46.9	11.3	9.89e-04	0	59	0	307232768	55	6373
2026-01-15 23:40:19.20	18.97	26.29	-42.6	-47.0	11.2	1.21e-03	0	59	0	309329920	55	6485
2026-01-15 23:40:20.21	18.98	26.46	-42.6	-46.9	11.3	1.14e-03	0	59	0	310378496	55	6380
2026-01-15 23:40:21.22	19.00	26.63	-42.6	-46.9	11.3	1.08e-03	0	59	0	312475648	55	6393
2026-01-15 23:40:22.23	19.02	26.80	-42.7	-47.1	11.1	1.47e-03	0	59	0	314572800	55	6523
2026-01-15 23:40:23.24	19.04	26.97	-42.7	-47.1	11.2	1.36e-03	0	59	0	316669952	55	6505
2026-01-15 23:40:24.25	19.06	27.14	-42.7	-47.1	11.2	1.49e-03	0	59	0	318767104	55	6523
2026-01-15 23:40:25.26	19.08	27.32	-42.7	-47.1	11.1	1.56e-03	0	59	0	320864256	55	6552
2026-01-15 23:40:26.27	19.10	27.49	-42.9	-47.4	11.0	1.69e-03	0	59	0	321912832	56	6358
2026-01-15 23:40:27.27	19.11	27.67	-42.9	-47.3	11.2	1.58e-03	0	59	0	324009984	56	6286
2026-01-15 23:40:28.28	19.13	27.84	-42.8	-47.2	11.2	1.46e-03	0	59	0	326107136	56	6248
2026-01-15 23:40:29.29	19.15	28.02	-42.9	-47.3	11.2	1.55e-03	0	59	0	328204288	56	6310
2026-01-15 23:40:30.30	19.17	28.20	-42.9	-47.4	11.0	1.71e-03	0	59	0	330301440	56	6383
2026-01-15 23:40:31.31	19.19	28.38	-42.9	-47.5	10.9	1.84e-03	0	59	0	331350016	56	6447
2026-01-15 23:40:32.32	19.21	28.56	-43.0	-47.5	10.9	2.54e-03	0	59	0	333447168	56	6489
2026-01-15 23:40:33.33	19.23	28.75	-43.0	-47.7	10.7	2.60e-03	0	59	0	335544320	56	6599
2026-01-15 23:40:34.34	19.25	28.93	-43.1	-47.9	10.6	3.21e-03	0	59	0	337641472	56	6731
2026-01-15 23:40:35.35	19.27	29.12	-43.1	-47.7	10.7	2.93e-03	0	59	0	339738624	56	6639
2026-01-15 23:40:36.36	19.29	29.30	-43.2	-48.0	10.4	4.15e-03	0	59	0	340787200	56	6853
2026-01-15 23:40:37.37	19.31	29.49	-43.2	-48.1	10.3	4.98e-03	0	59	0	342884352	56	6881
2026-01-15 23:40:38.38	19.34	29.68	-43.3	-48.3	10.1	5.62e-03	0	59	0	344981504	57	6663
2026-01-15 23:40:39.39	19.36	29.87	-43.3	-48.4	9.9	7.72e-03	0	59	0	347078656	57	6795
2026-01-15 23:40:40.40	19.38	30.06	-43.4	-48.6	9.8	9.54e-03	0	59	0	349175808	57	6915
2026-01-15 23:40:41.41	19.40	30.25	-43.4	-48.7	9.7	1.08e-02	0	59	0	350224384	57	6995
2026-01-15 23:40:42.42	19.42	30.45	-43.5	-48.8	9.6	1.22e-02	0	59	0	352321536	57	7048
2026-01-15 23:40:43.42	19.44	30.64	-43.4	-48.6	9.8	1.17e-02	0	59	0	354418688	57	6883
2026-01-15 23:40:44.43	19.47	30.84	-43.5	-48.8	9.6	1.15e-02	0	59	0	356515840	57	7065
2026-01-15 23:40:45.44	19.49	31.04	-43.5	-48.8	9.6	1.32e-02	0	59	0	358612992	57	7054
2026-01-15 23:40:46.45	19.51	31.24	-43.5	-48.8	9.6	1.38e-02	0	59	0	359661568	57	7101
2026-01-15 23:40:47.45	19.53	31.44	-43.6	-49.0	9.4	1.43e-02	0	59	0	361758720	57	7238
2026-01-15 23:40:48.46	19.56	31.64	-43.6	-49.2	9.2	1.98e-02	0	59	0	363855872	57	7438
2026-01-15 23:40:49.47	19.58	31.84	-43.6	-49.1	9.3	1.94e-02	0	59	0	365953024	57	7305
2026-01-15 23:40:50.48	19.61	32.05	-43.5	-48.9	9.4	1.67e-02	0	59	0	368050176	57	7181
2026-01-15 23:40:51.49	19.63	32.25	-43.6	-49.1	9.3	1.68e-02	0	59	0	369098752	57	7300
2026-01-15 23:40:52.50	19.65	32.46	-43.6	-49.2	9.2	1.95e-02	0	59	0	371195904	57	7453
2026-01-15 23:40:53.51	19.68	32.67	-43.7	-49.4	9.0	2.12e-02	0	59	0	373293056	57	7597
2026-01-15 23:40:54.52	19.70	32.88	-43.6	-49.1	9.3	2.16e-02	0	59	0	375390208	57	7348
2026-01-15 23:40:55.53	19.73	33.10	-43.6	-49.1	9.2	1.93e-02	0	59	0	377487360	57	7369
2026-01-15 23:40:56.54	19.75	33.31	-43.6	-49.1	9.3	1.74e-02	0	59	0	378535936	57	7320
2026-01-15 23:40:57.55	19.78	33.52	-43.4	-48.5	9.9	1.39e-02	0	59	0	380633088	57	6846
2026-01-15 23:40:58.56	19.81	33.74	-43.2	-48.1	10.4	5.73e-03	0	59	0	382730240	57	6523
2026-01-15 23:40:59.57	19.83	33.96	-43.2	-47.9	10.5	4.35e-03	0	59	0	384827392	57	6419
2026-01-15 23:41:00.58	19.86	34.18	-43.1	-47.8	10.7	3.56e-03	0	59	0	386924544	57	6307
2026-01-15 23:41:01.58	19.88	34.40	-43.1	-47.6	10.8	2.47e-03	0	59	0	389021696	57	6200
2026-01-15 23:41:02.59	19.91	34.62	-43.0	-47.5	11.0	1.77e-03	0	59	0	390070272	57	6079
2026-01-15 23:41:03.60	19.94	34.85	-42.9	-47.3	11.2	1.45e-03	0	59	0	392167424	57	5970
2026-01-15 23:41:04.61	19.97	35.07	-42.8	-47.1	11.4	1.06e-03	0	59	0	394264576	57	5826
2026-01-15 23:41:05.62	20.00	35.30	-42.8	-46.9	11.6	7.25e-04	0	59	0	396361728	57	5722
2026-01-15 23:41:06.63	20.02	35.53	-42.7	-46.8	11.7	6.45e-04	0	59	0	397410304	57	5644
2026-01-15 23:41:07.64	20.05	35.76	-42.7	-46.8	11.7	5.74e-04	0	59	0	399507456	57	5623
2026-01-15 23:41:08.65	20.08	36.00	-42.6	-46.7	11.9	4.72e-04	0	59	0	401604608	57	5533
2026-01-15 23:41:09.66	20.11	36.23	-42.6	-46.5	12.1	2.95e-04	0	59	0	403701760	57	5425
2026-01-15 23:41:10.67	20.14	36.47	-42.5	-46.5	12.1	2.59e-04	0	59	0	405798912	57	5411
2026-01-15 23:41:11.68	20.17	36.71	-42.4	-46.1	12.5	1.48e-04	0	59	0	406847488	56	5514
2026-01-15 23:41:12.69	20.20	36.95	-42.3	-46.0	12.7	1.07e-04	0	59	0	408944640	56	5406
2026-01-15 23:41:13.70	20.23	37.19	-42.3	-45.9	12.7	7.47e-05	0	59	0	411041792	56	5370
2026-01-15 23:41:14.70	20.26	37.43	-42.2	-45.8	12.8	5.79e-05	0	59	0	413138944	56	5324
2026-01-15 23:41:15.71	20.30	37.68	-42.2	-45.8	12.8	6.40e-05	0	59	0	415236096	56	5306
2026-01-15 23:41:16.72	20.33	37.92	-42.2	-45.7	12.9	5.72e-05	0	59	0	417333248	56	5262
2026-01-15 23:41:17.73	20.36	38.17	-42.2	-45.7	13.0	4.34e-05	0	59	0	418381824	56	5229
2026-01-15 23:41:18.74	20.40	38.42	-42.2	-45.7	12.9	4.04e-05	0	59	0	420478976	56	5263
2026-01-15 23:41:19.75	20.43	38.68	-42.2	-45.7	13.0	4.04e-05	0	59	0	422576128	56	5256
2026-01-15 23:41:20.76	20.46	38.93	-42.2	-45.7	13.0	4.65e-05	0	59	0	424673280	56	5243
2026-01-15 23:41:21.77	20.50	39.19	-42.3	-46.0	12.6	6.40e-05	0	59	0	426770432	56	5422
2026-01-15 23:41:22.78	20.53	39.45	-42.3	-46.0	12.6	9.00e-05	0	59	0	427819008	56	5415
2026-01-15 23:41:23.79	20.57	39.71	-42.4	-46.1	12.6	1.02e-04	0	59	0	429916160	56	5510
2026-01-15 23:41:24.80	20.61	39.97	-42.4	-46.2	12.5	1.20e-04	0	59	0	432013312	56	5530
2026-01-15 23:41:25.81	20.64	40.23	-42.5	-46.2	12.4	1.07e-04	0	59	0	434110464	56	5580
2026-01-15 23:41:26.82	20.68	40.50	-42.5	-46.4	12.3	1.67e-04	0	59	0	436207616	56	5677
2026-01-15 23:41:27.83	20.72	40.77	-42.6	-46.5	12.1	2.47e-04	0	60	0	437256192	56	5775
2026-01-15 23:41:28.84	20.76	41.04	-42.7	-46.6	12.0	2.69e-04	0	59	0	439353344	56	5849
2026-01-15 23:41:29.85	20.79	41.31	-42.7	-46.8	11.8	4.01e-04	0	59	0	441450496	56	5936
2026-01-15 23:41:30.86	20.83	41.59	-42.7	-46.8	11.9	4.54e-04	0	59	0	443547648	56	5926
2026-01-15 23:41:31.87	20.87	41.86	-42.8	-46.9	11.7	5.67e-04	0	59	0	445644800	56	6059
2026-01-15 23:41:32.88	20.91	42.14	-42.8	-46.9	11.8	6.32e-04	0	59	0	446693376	56	5996
2026-01-15 23:41:33.89	20.96	42.42	-42.8	-46.9	11.8	4.43e-04	0	59	0	448790528	56	6032
2026-01-15 23:41:34.90	21.00	42.70	-42.8	-46.9	11.8	4.94e-04	0	59	0	450887680	56	6006
2026-01-15 23:41:35.91	21.04	42.99	-42.8	-47.0	11.7	5.89e-04	0	59	0	452984832	56	6071
2026-01-15 23:41:36.92	21.09	43.28	-42.8	-46.9	11.7	5.96e-04	0	59	0	455081984	56	6008
2026-01-15 23:41:37.93	21.13	43.57	-42.8	-46.9	11.8	4.97e-04	0	59	0	456130560	56	6000
2026-01-15 23:41:38.94	21.17	43.86	-42.8	-46.8	11.8	4.77e-04	0	60	0	458227712	56	5991
2026-01-15 23:41:39.95	21.22	44.15	-42.7	-46.8	11.8	4.61e-04	0	59	0	460324864	56	5941
2026-01-15 23:41:40.96	21.27	44.45	-42.7	-46.8	11.9	4.23e-04	0	59	0	462422016	56	5960
2026-01-15 23:41:41.97	21.31	44.75	-42.8	-46.8	11.8	4.18e-04	0	59	0	464519168	56	5985
2026-01-15 23:41:42.98	21.36	45.05	-42.8	-47.0	11.7	5.36e-04	0	59	0	465567744	56	6076
2026-01-15 23:41:43.99	21.41	45.35	-42.9	-47.2	11.4	7.64e-04	0	59	0	467664896	56	6208
2026-01-15 23:41:45.00	21.46	45.65	-43.1	-47.5	11.1	1.26e-03	0	59	0	469762048	56	6445
2026-01-15 23:41:46.01	21.51	45.96	-43.3	-48.0	10.6	2.18e-03	0	59	0	471859200	57	6446
2026-01-15 23:41:47.02	21.56	46.27	-43.5	-48.6	9.9	6.93e-03	0	59	0	473956352	57	6924
2026-01-15 23:41:48.03	21.62	46.58	-43.6	-48.8	9.7	9.23e-03	0	59	0	475004928	57	7091
2026-01-15 23:41:49.03	21.67	46.90	-43.8	-49.3	9.3	1.37e-02	0	59	0	477102080	58	7089
2026-01-15 23:41:50.04	21.72	47.21	-43.8	-49.4	9.1	2.12e-02	0	59	0	479199232	58	7172
2026-01-15 23:41:51.05	21.78	47.53	-43.9	-49.5	9.0	2.36e-02	0	59	0	481296384	58	7260
2026-01-15 23:41:52.06	21.84	47.85	-43.9	-49.5	9.0	2.51e-02	0	59	0	483393536	58	7274
2026-01-15 23:41:53.07	21.89	48.18	-43.8	-49.4	9.2	2.26e-02	0	59	0	485490688	58	7128
2026-01-15 23:41:54.08	21.95	48.50	-43.7	-49.1	9.5	1.63e-02	0	60	0	486539264	58	6915
2026-01-15 23:41:55.09	22.01	48.83	-43.7	-48.9	9.6	1.43e-02	0	59	0	488636416	58	6778
2026-01-15 23:41:56.10	22.08	49.16	-43.6	-48.9	9.7	1.37e-02	0	59	0	490733568	58	6755
2026-01-15 23:41:57.11	22.14	49.50	-43.7	-49.0	9.6	1.30e-02	0	59	0	492830720	58	6822
2026-01-15 23:41:58.12	22.20	49.83	-43.7	-49.0	9.6	1.25e-02	0	59	0	494927872	58	6838
2026-01-15 23:41:59.13	22.27	50.17	-43.4	-48.4	10.2	8.80e-03	0	60	0	495976448	58	6350
2026-01-15 23:42:00.14	22.33	50.51	-43.3	-47.9	10.7	3.01e-03	0	60	0	498073600	58	6032
2026-01-15 23:42:01.15	22.40	50.86	-43.1	-47.6	11.1	1.77e-03	0	59	0	500170752	58	5795
2026-01-15 23:42:02.16	22.47	51.20	-42.7	-46.7	12.0	7.87e-04	0	59	0	502267904	57	5534
2026-01-15 23:42:03.17	22.54	51.55	-42.3	-45.8	12.8	8.39e-05	0	59	0	504365056	56	5312
2026-01-15 23:42:04.18	22.62	51.90	-42.0	-45.3	13.5	1.67e-05	0	59	0	505413632	56	5003
2026-01-15 23:42:05.19	22.69	52.26	-41.7	-44.9	13.6	7.60e-06	0	59	0	507510784	55	5076
2026-01-15 23:42:06.19	22.77	52.61	-41.9	-45.2	13.3	5.30e-06	0	59	0	509607936	55	5277
2026-01-15 23:42:07.21	22.85	52.97	-41.9	-45.2	13.3	1.67e-05	0	59	0	511705088	55	5253
2026-01-15 23:42:08.21	22.93	53.33	-41.7	-44.9	13.6	1.06e-05	0	59	0	513802240	55	5094
2026-01-15 23:42:09.23	23.01	53.70	-41.7	-45.0	13.6	8.30e-06	0	59	0	514850816	55	5104
2026-01-15 23:42:10.23	23.09	54.06	-41.7	-45.0	13.6	6.80e-06	0	59	0	516947968	55	5101
2026-01-15 23:42:11.24	23.18	54.43	-41.7	-44.9	13.6	9.90e-06	0	59	0	519045120	55	5099
2026-01-15 23:42:12.25	23.27	54.80	-41.7	-44.8	13.8	3.80e-06	0	59	0	521142272	55	5037
2026-01-15 23:42:13.26	23.36	55.18	-41.5	-44.5	14.1	1.50e-06	0	59	0	523239424	55	4830
2026-01-15 23:42:14.27	23.45	55.55	-41.4	-44.5	14.1	3.00e-06	0	59	0	524288000	54	5105
2026-01-15 23:42:15.28	23.54	55.93	-41.6	-44.7	13.9	7.00e-07	0	59	0	526385152	54	5240
2026-01-15 23:42:16.29	23.64	56.32	-41.8	-45.0	13.6	4.50e-06	0	59	0	528482304	54	5415
2026-01-15 23:42:17.30	23.74	56.70	-42.0	-45.3	13.3	1.52e-05	0	59	0	530579456	54	5638
2026-01-15 23:42:18.31	23.84	57.09	-42.2	-45.8	12.7	3.96e-05	0	59	0	532676608	55	5644
2026-01-15 23:42:19.32	23.95	57.48	-42.4	-46.3	12.2	1.73e-04	0	59	0	533725184	55	5932
2026-01-15 23:42:20.33	24.06	57.87	-42.5	-46.4	12.1	2.39e-04	0	59	0	535822336	55	6001
2026-01-15 23:42:21.34	24.17	58.27	-42.5	-46.4	12.1	2.30e-04	0	60	0	537919488	55	6039
2026-01-15 23:42:22.35	24.29	58.66	-42.4	-46.2	12.3	2.26e-04	0	59	0	540016640	55	5882
2026-01-15 23:42:23.36	24.40	59.06	-42.3	-46.0	12.5	1.39e-04	0	59	0	542113792	55	5773
2026-01-15 23:42:24.37	24.53	59.47	-42.1	-45.6	12.9	6.25e-05	0	59	0	543162368	55	5499
2026-01-15 23:42:25.38	24.65	59.87	-41.9	-45.3	13.2	4.27e-05	0	60	0	545259520	55	5317
2026-01-15 23:42:26.39	24.78	60.28	-41.6	-44.7	13.9	6.10e-06	0	59	0	547356672	55	4965
2026-01-15 23:42:27.40	24.92	60.69	-41.4	-44.3	14.3	5.30e-06	0	59	0	549453824	54	5027
2026-01-15 23:42:28.41	25.06	61.10	-41.1	-43.9	14.7	7.00e-07	0	59	0	551550976	54	4771
2026-01-15 23:42:29.42	25.20	61.52	-40.8	-43.5	15.1	0.00e+00	0	59	0	553648128	53	4817
2026-01-15 23:42:30.43	25.35	61.94	-40.7	-43.3	15.3	0.00e+00	0	59	0	554696704	53	4737
2026-01-15 23:42:31.44	25.50	62.36	-40.7	-43.3	15.3	0.00e+00	0	60	0	556793856	53	4732
2026-01-15 23:42:32.45	25.66	62.78	-41.0	-43.7	14.9	0.00e+00	0	59	0	558891008	53	4963
2026-01-15 23:42:33.46	25.82	63.21	-41.3	-44.2	14.3	0.00e+00	0	59	0	560988160	53	5255
2026-01-15 23:42:34.47	25.99	63.63	-41.5	-44.6	14.0	2.20e-06	0	59	0	563085312	53	5481
2026-01-15 23:42:35.48	26.16	64.06	-41.6	-44.7	13.8	4.50e-06	0	59	0	564133888	53	5567
2026-01-15 23:42:36.49	26.35	64.50	-41.9	-45.2	13.3	9.90e-06	0	59	0	566231040	54	5572
2026-01-15 23:42:37.50	26.54	64.93	-42.3	-45.9	12.6	4.88e-05	0	59	0	568328192	55	5699
2026-01-15 23:42:38.51	26.73	65.37	-42.9	-47.1	11.5	2.66e-04	0	59	0	570425344	56	6174
2026-01-15 23:42:39.52	26.94	65.81	-43.1	-47.5	11.1	1.30e-03	0	60	0	572522496	56	6483
2026-01-15 23:42:40.52	27.15	66.24	-43.2	-47.9	10.7	2.09e-03	0	59	0	573571072	57	6365
2026-01-15 23:42:41.53	27.37	66.69	-43.3	-47.9	10.6	3.47e-03	0	60	0	575668224	57	6418
2026-01-15 23:42:42.54	27.60	67.13	-43.1	-47.6	11.0	2.22e-03	0	59	0	577765376	57	6188
2026-01-15 23:42:43.55	27.84	67.58	-42.9	-47.0	11.6	1.22e-03	0	59	0	579862528	57	5753
2026-01-15 23:42:44.56	28.09	68.03	-42.8	-46.8	11.7	6.35e-04	0	60	0	581959680	57	5646
2026-01-15 23:42:45.57	28.35	68.48	-42.8	-46.9	11.7	6.53e-04	0	59	0	583008256	57	5705
2026-01-15 23:42:46.58	28.62	68.93	-42.6	-46.5	12.1	3.62e-04	0	60	0	585105408	57	5445
2026-01-15 23:42:47.59	28.91	69.39	-42.6	-46.4	12.2	2.62e-04	0	60	0	587202560	57	5364
2026-01-15 23:42:48.60	29.21	69.85	-42.5	-46.3	12.3	2.20e-04	0	60	0	589299712	57	5317
2026-01-15 23:42:49.61	29.53	70.31	-42.5	-46.3	12.3	1.94e-04	0	60	0	591396864	57	5320
2026-01-15 23:42:50.62	29.86	70.77	-42.6	-46.4	12.2	2.04e-04	0	59	0	592445440	57	5360
2026-01-15 23:42:51.63	30.21	71.23	-42.6	-46.5	12.2	2.12e-04	0	60	0	594542592	56	5745
2026-01-15 23:42:52.64	30.57	71.69	-42.8	-46.8	11.7	4.49e-04	0	60	0	596639744	56	5960
2026-01-15 23:42:53.64	30.96	72.15	-42.8	-46.8	11.7	4.90e-04	0	60	0	598736896	56	5962
2026-01-15 23:42:54.65	31.36	72.62	-42.8	-46.8	11.7	4.04e-04	0	59	0	600834048	56	5952
2026-01-15 23:42:55.66	31.80	73.08	-43.1	-47.5	11.0	1.17e-03	0	60	0	601882624	56	6463
2026-01-15 23:42:56.67	32.25	73.55	-43.3	-48.2	10.2	3.41e-03	0	59	0	603979776	57	6608
2026-01-15 23:42:57.68	32.74	74.02	-43.4	-48.2	10.2	6.30e-03	0	60	0	606076928	57	6615
2026-01-15 23:42:58.69	33.25	74.49	-43.1	-47.7	10.7	3.65e-03	0	60	0	608174080	57	6216
2026-01-15 23:42:59.70	33.80	74.96	-43.3	-48.1	10.3	3.33e-03	0	60	0	610271232	57	6546
2026-01-15 23:43:00.71	34.39	75.43	-43.1	-47.7	10.8	3.55e-03	0	59	0	611319808	57	6228
2026-01-15 23:43:01.72	35.02	75.90	-43.1	-47.6	10.9	1.88e-03	0	60	0	613416960	57	6132
2026-01-15 23:43:02.73	35.69	76.37	-43.0	-47.4	11.0	1.62e-03	0	59	0	615514112	57	6036
2026-01-15 23:43:03.74	36.41	76.84	-43.1	-47.6	10.8	2.57e-03	0	60	0	617611264	57	6198
2026-01-15 23:43:04.75	37.18	77.31	-43.1	-47.7	10.6	3.30e-03	0	60	0	619708416	57	6273
2026-01-15 23:43:05.76	38.02	77.78	-43.0	-47.3	11.2	2.19e-03	0	60	0	621805568	57	5970
2026-01-15 23:43:06.77	38.92	78.24	-43.0	-47.3	11.2	1.52e-03	0	59	0	622854144	57	5934
2026-01-15 23:43:07.78	39.90	78.71	-42.8	-47.0	11.4	1.56e-03	0	59	0	624951296	57	5783
2026-01-15 23:43:08.79	40.96	79.17	-42.7	-46.7	11.8	5.29e-04	0	60	0	627048448	57	5560
2026-01-15 23:43:09.80	42.13	79.63	-42.4	-46.2	12.3	2.49e-04	0	60	0	629145600	56	5554
2026-01-15 23:43:10.81	43.40	80.09	-42.4	-46.1	12.3	1.30e-04	0	60	0	631242752	56	5502
2026-01-15 23:43:11.81	44.78	80.53	-42.7	-46.8	11.7	2.75e-04	0	60	0	632291328	56	5926
2026-01-15 23:43:12.82	46.31	80.98	-43.4	-48.4	10.0	2.88e-03	0	59	0	634388480	57	6737
2026-01-15 23:43:13.84	48.02	81.43	-43.8	-49.6	8.8	2.00e-02	0	60	0	636485632	58	7319
2026-01-15 23:43:14.85	49.90	81.86	-43.7	-49.1	9.2	2.78e-02	0	59	0	638582784	58	6925
2026-01-15 23:43:15.85	51.97	82.28	-43.6	-48.9	9.5	1.32e-02	0	60	0	640679936	58	6758
2026-01-15 23:43:16.87	54.33	82.70	-43.3	-48.2	10.1	1.12e-02	0	60	0	641728512	58	6220
2026-01-15 23:43:17.87	56.92	83.10	-42.9	-47.1	11.3	1.91e-03	0	60	0	643825664	57	5842
2026-01-15 23:43:18.88	59.85	83.48	-42.7	-46.8	11.7	8.23e-04	0	60	0	645922816	57	5599
2026-01-15 23:43:19.89	63.14	83.85	-42.3	-46.1	12.4	2.86e-04	0	60	0	648019968	56	5468
2026-01-15 23:43:20.90	66.84	84.20	-41.6	-44.7	13.6	1.44e-05	0	60	0	650117120	55	4982
2026-01-15 23:43:21.91	70.99	84.52	-41.1	-43.9	14.4	2.20e-06	0	60	0	651165696	54	4795
2026-01-15 23:43:22.92	75.63	84.80	-40.9	-43.6	14.8	7.00e-07	0	60	0	653262848	53	4915
2026-01-15 23:43:23.93	80.78	85.05	-41.2	-44.1	14.3	0.00e+00	0	60	0	655360000	53	5170
2026-01-15 23:43:24.94	86.42	85.26	-41.4	-44.5	13.8	4.50e-06	0	60	0	657457152	53	5438
2026-01-15 23:43:25.95	92.52	85.42	-41.8	-45.1	13.2	1.52e-05	0	60	0	659554304	54	5499
2026-01-15 23:43:26.96	98.96	85.52	-41.9	-45.4	13.0	2.13e-05	0	60	0	660602880	54	5660
2026-01-15 23:43:27.97	105.62	85.56	-42.2	-45.9	12.5	9.00e-05	0	60	0	662700032	54	6004
2026-01-15 23:43:28.98	112.32	85.54	-42.4	-46.3	12.0	2.20e-04	0	59	0	664797184	55	5949
2026-01-15 23:43:29.99	118.88	85.47	-42.4	-46.2	12.0	2.67e-04	0	60	0	666894336	55	5915
2026-01-15 23:43:31.00	125.14	85.33	-42.4	-46.3	11.9	2.82e-04	0	60	0	668991488	55	5983
2026-01-15 23:43:32.01	130.99	85.15	-42.5	-46.5	11.7	4.74e-04	0	60	0	670040064	55	6092
2026-01-15 23:43:33.02	136.35	84.92	-42.5	-46.5	11.7	5.45e-04	0	60	0	672137216	55	6081
2026-01-15 23:43:34.03	141.21	84.64	-42.6	-46.7	11.6	6.17e-04	0	60	0	674234368	55	6237
2026-01-15 23:43:35.04	145.56	84.34	-42.9	-47.2	11.2	1.07e-03	0	60	0	676331520	56	6207
2026-01-15 23:43:36.05	149.45	84.00	-43.1	-47.6	10.8	1.57e-03	0	60	0	678428672	56	6552
2026-01-15 23:43:37.05	152.88	83.65	-43.4	-48.5	9.8	9.26e-03	0	60	0	679477248	57	6878
2026-01-15 23:43:38.06	155.96	83.27	-43.9	-49.7	8.6	3.34e-02	0	60	0	681574400	58	7406
2026-01-15 23:43:39.07	158.71	82.87	-44.1	-50.7	7.6	6.17e-02	0	60	0	683671552	58	8304
2026-01-15 23:43:40.08	161.16	82.46	-44.3	-51.4	6.9	1.33e-01	0	60	0	685768704	59	8517
2026-01-15 23:43:41.09	163.35	82.04	-44.0	-50.2	8.0	9.73e-02	0	60	0	687865856	59	7373
2026-01-15 23:43:42.11	165.34	81.61	-43.5	-48.7	9.6	2.30e-02	0	60	0	689963008	59	6212
2026-01-15 23:43:43.12	167.11	81.17	-43.1	-47.7	10.7	6.68e-03	0	60	0	691011584	58	5882
2026-01-15 23:43:44.13	168.71	80.72	-42.9	-47.2	11.2	1.65e-03	0	60	0	693108736	57	5916
2026-01-15 23:43:45.14	170.16	80.27	-42.8	-47.1	11.3	1.32e-03	0	59	0	695205888	57	5813
2026-01-15 23:43:46.15	171.49	79.82	-42.5	-46.2	12.1	7.12e-04	0	60	0	697303040	56	5578
2026-01-15 23:43:47.16	172.69	79.36	-42.2	-45.8	12.7	7.40e-05	0	60	0	699400192	56	5309
2026-01-15 23:43:48.17	173.79	78.90	-42.6	-46.6	11.8	1.67e-04	0	60	0	700448768	56	5839
2026-01-15 23:43:49.18	174.81	78.43	-43.3	-48.1	10.3	1.97e-03	0	60	0	702545920	57	6555
2026-01-15 23:43:50.19	175.74	77.96	-43.6	-49.1	9.2	1.42e-02	0	60	0	704643072	57	7294
2026-01-15 23:43:51.20	176.61	77.50	-44.4	-51.8	6.6	9.57e-02	0	60	0	706740224	59	8963
2026-01-15 23:43:52.20	177.40	77.03	-44.7	-54.0	5.1	5.83e-01	0	60	0	708837376	60	10875
2026-01-15 23:43:53.21	178.14	76.56	-44.5	-52.8	5.8	6.13e-01	0	60	0	709885952	60	9394
2026-01-15 23:43:54.22	178.83	76.09	-44.4	-52.0	6.5	2.59e-01	0	60	0	711983104	60	8653
2026-01-15 23:43:55.23	179.48	75.62	-44.3	-51.7	6.7	2.37e-01	0	60	0	714080256	60	8337
2026-01-15 23:43:56.24	180.08	75.15	-44.4	-52.0	6.5	1.86e-01	0	60	0	716177408	60	8641
2026-01-15 23:43:57.25	180.64	74.68	-44.4	-52.4	6.2	3.15e-01	0	60	0	718274560	60	9001
2026-01-15 23:43:58.26	181.17	74.21	-44.2	-51.1	7.2	2.16e-01	0	60	0	719323136	60	7798
2026-01-15 23:43:59.27	181.67	73.74	-43.5	-48.7	9.6	5.22e-02	0	60	0	721420288	59	6222
2026-01-15 23:44:00.28	182.14	73.27	-43.1	-47.6	10.7	3.57e-03	0	60	0	723517440	58	5834
2026-01-15 23:44:01.29	182.58	72.80	-42.9	-47.2	11.2	2.49e-03	0	60	0	725614592	57	5878
2026-01-15 23:44:02.30	183.00	72.33	-42.6	-46.5	11.9	9.35e-04	0	60	0	727711744	57	5454
2026-01-15 23:44:03.31	183.40	71.87	-42.1	-45.5	13.1	7.47e-05	0	60	0	728760320	56	5118
2026-01-15 23:44:04.32	183.77	71.40	-41.7	-44.9	13.4	1.67e-05	0	60	0	730857472	55	5095
2026-01-15 23:44:05.33	184.13	70.94	-41.8	-45.1	13.2	1.60e-05	0	60	0	732954624	55	5197
2026-01-15 23:44:06.34	184.47	70.48	-42.4	-46.2	12.1	1.65e-04	0	60	0	735051776	55	5893
2026-01-15 23:44:07.35	184.79	70.02	-43.2	-47.9	10.5	2.64e-03	0	60	0	737148928	56	6729
2026-01-15 23:44:08.36	185.09	69.56	-42.9	-47.1	11.2	4.13e-03	0	60	0	738197504	57	5843
2026-01-15 23:44:09.37	185.39	69.10	-42.7	-46.6	11.8	6.20e-04	0	60	0	740294656	57	5502
2026-01-15 23:44:10.37	185.66	68.65	-43.4	-48.3	10.0	2.68e-03	0	60	0	742391808	57	6721
2026-01-15 23:44:11.39	185.93	68.19	-44.3	-51.2	7.1	6.39e-02	0	60	0	744488960	59	8343
2026-01-15 23:44:12.39	186.18	67.75	-44.2	-50.9	7.4	1.52e-01	0	60	0	746586112	59	8017
2026-01-15 23:44:13.40	186.43	67.30	-43.8	-49.4	8.8	3.96e-02	0	60	0	747634688	59	6774
2026-01-15 23:44:14.41	186.66	66.85	-43.6	-48.8	9.6	1.43e-02	0	60	0	749731840	59	6297
2026-01-15 23:44:15.42	186.89	66.40	-43.1	-47.6	10.8	5.67e-03	0	60	0	751828992	58	5851
2026-01-15 23:44:16.43	187.10	65.96	-43.3	-48.2	10.2	3.24e-03	0	60	0	753926144	58	6221
2026-01-15 23:44:17.44	187.31	65.52	-43.8	-49.4	9.0	2.02e-02	0	60	0	756023296	58	7141
2026-01-15 23:44:18.44	187.51	65.09	-43.3	-48.1	10.3	1.90e-02	0	60	0	758120448	58	6159
2026-01-15 23:44:19.45	187.70	64.65	-42.3	-45.9	12.5	3.36e-04	0	60	0	759169024	56	5392
2026-01-15 23:44:20.46	187.88	64.21	-42.2	-45.8	12.7	5.03e-05	0	60	0	761266176	56	5283
2026-01-15 23:44:21.47	188.06	63.78	-42.4	-46.0	12.5	1.10e-04	0	60	0	763363328	56	5445
2026-01-15 23:44:22.48	188.23	63.35	-41.7	-45.0	13.4	4.88e-05	0	60	0	765460480	55	5107
2026-01-15 23:44:23.50	188.40	62.92	-41.4	-44.4	14.0	6.80e-06	0	60	0	767557632	54	5059
2026-01-15 23:44:24.51	188.56	62.50	-41.3	-44.3	14.1	7.00e-07	0	60	0	768606208	54	4994
2026-01-15 23:44:25.52	188.72	62.07	-41.0	-43.7	14.7	7.00e-07	0	60	0	770703360	54	4696
2026-01-15 23:44:26.52	188.86	61.66	-41.0	-43.7	14.7	0.00e+00	0	60	0	772800512	53	4971
2026-01-15 23:44:27.53	189.01	61.24	-41.8	-45.0	13.3	3.00e-06	0	60	0	774897664	54	5464
2026-01-15 23:44:28.54	189.15	60.82	-42.7	-46.9	11.5	1.52e-04	0	60	0	776994816	55	6358
2026-01-15 23:44:29.55	189.28	60.41	-43.0	-47.4	11.1	2.02e-03	0	60	0	778043392	56	6368
2026-01-15 23:44:30.56	189.42	60.00	-42.5	-46.3	12.1	4.48e-04	0	60	0	780140544	56	5655
2026-01-15 23:44:31.58	189.54	59.59	-42.4	-46.1	12.4	1.97e-04	0	60	0	782237696	56	5483
2026-01-15 23:44:32.59	189.67	59.18	-42.9	-47.1	11.4	5.10e-04	0	60	0	784334848	56	6150
2026-01-15 23:44:33.59	189.79	58.79	-43.4	-48.3	10.1	3.48e-03	0	60	0	786432000	57	6675
2026-01-15 23:44:34.60	189.90	58.39	-43.6	-48.9	9.4	1.21e-02	0	60	0	787480576	57	7195
2026-01-15 23:44:35.61	190.02	57.99	-43.9	-49.7	8.7	3.06e-02	0	60	0	789577728	58	7411
2026-01-15 23:44:36.62	190.13	57.59	-44.1	-50.5	7.8	6.65e-02	0	60	0	791674880	58	8089
2026-01-15 23:44:37.63	190.23	57.20	-43.8	-49.5	8.8	5.41e-02	0	60	0	793772032	58	7257
2026-01-15 23:44:38.64	190.34	56.81	-43.3	-48.0	10.4	7.36e-03	0	60	0	795869184	58	6117
2026-01-15 23:44:39.65	190.44	56.42	-43.1	-47.5	11.0	2.35e-03	0	60	0	796917760	58	5743
2026-01-15 23:44:40.66	190.54	56.04	-43.0	-47.3	11.2	1.96e-03	0	60	0	799014912	57	5924
2026-01-15 23:44:41.67	190.63	55.66	-42.6	-46.5	12.0	1.01e-03	0	60	0	801112064	57	5461
2026-01-15 23:44:42.68	190.73	55.28	-42.0	-45.4	13.1	4.95e-05	0	60	0	803209216	56	5072
2026-01-15 23:44:43.69	190.82	54.90	-41.6	-44.8	13.6	6.10e-06	0	60	0	805306368	55	5010
2026-01-15 23:44:44.70	190.91	54.53	-41.9	-45.3	13.1	9.10e-06	0	60	0	806354944	55	5284
2026-01-15 23:44:45.71	190.99	54.16	-42.3	-46.0	12.3	9.15e-05	0	60	0	808452096	55	5782
2026-01-15 23:44:46.72	191.08	53.79	-42.2	-45.9	12.5	1.70e-04	0	60	0	810549248	55	5660
2026-01-15 23:44:47.73	191.16	53.42	-41.9	-45.2	13.1	7.55e-05	0	60	0	812646400	55	5270
2026-01-15 23:44:48.74	191.24	53.06	-41.6	-44.8	13.5	2.13e-05	0	60	0	814743552	55	5013
2026-01-15 23:44:49.75	191.32	52.70	-42.0	-45.4	12.9	1.29e-05	0	60	0	815792128	55	5400
2026-01-15 23:44:50.76	191.40	52.34	-42.5	-46.5	11.9	1.01e-04	0	60	0	817889280	55	6086
2026-01-15 23:44:51.77	191.47	51.98	-43.3	-48.0	10.4	1.09e-03	0	60	0	819986432	57	6477
2026-01-15 23:44:52.78	191.55	51.63	-43.7	-49.2	9.1	1.51e-02	0	60	0	822083584	57	7455
2026-01-15 23:44:53.79	191.62	51.28	-44.0	-50.1	8.2	3.62e-02	0	60	0	824180736	58	7760
2026-01-15 23:44:54.80	191.69	50.93	-44.1	-50.5	7.9	7.00e-02	0	60	0	826277888	58	8115
2026-01-15 23:44:55.81	191.76	50.58	-44.0	-50.3	8.0	8.08e-02	0	60	0	827326464	58	7946
2026-01-15 23:44:56.81	191.82	50.24	-43.7	-49.3	9.0	3.83e-02	0	60	0	829423616	58	7075
2026-01-15 23:44:57.82	191.89	49.90	-43.5	-48.6	9.7	1.33e-02	0	60	0	831520768	58	6569
2026-01-15 23:44:58.83	191.95	49.56	-43.6	-48.7	9.7	1.00e-02	0	60	0	833617920	58	6611
2026-01-15 23:44:59.84	192.02	49.23	-43.8	-49.4	8.9	1.54e-02	0	60	0	835715072	58	7204
2026-01-15 23:45:00.85	192.08	48.89	-44.5	-52.2	6.3	7.76e-02	0	60	0	836763648	59	9309
2026-01-15 23:45:01.86	192.14	48.56	-44.7	-54.2	4.9	7.29e-01	0	60	0	838860800	60	11143
2026-01-15 23:45:02.87	192.20	48.23	-44.3	-51.7	6.7	4.36e-01	0	60	0	840957952	60	8307
2026-01-15 23:45:03.88	192.26	47.91	-43.6	-48.8	9.5	5.40e-02	0	60	0	843055104	59	6299
2026-01-15 23:45:04.89	192.31	47.58	-43.1	-47.5	10.9	2.56e-03	0	60	0	845152256	58	5751
2026-01-15 23:45:05.90	192.37	47.26	-42.8	-46.9	11.6	1.06e-03	0	60	0	846200832	57	5675
2026-01-15 23:45:06.91	192.42	46.94	-42.6	-46.4	12.0	4.05e-04	0	60	0	848297984	57	5395
2026-01-15 23:45:07.92	192.48	46.63	-42.6	-46.5	12.0	2.84e-04	0	60	0	850395136	57	5459
2026-01-15 23:45:08.93	192.53	46.31	-43.1	-47.8	10.7	1.79e-03	0	60	0	852492288	57	6276
2026-01-15 23:45:09.94	192.58	46.00	-43.4	-48.5	9.8	5.93e-03	0	60	0	854589440	57	6823
2026-01-15 23:45:10.95	192.63	45.69	-43.6	-48.9	9.5	1.11e-02	0	60	0	855638016	57	7144
2026-01-15 23:45:11.96	192.68	45.39	-43.5	-48.6	9.7	1.45e-02	0	60	0	857735168	57	6918
2026-01-15 23:45:12.96	192.73	45.08	-43.2	-47.9	10.5	6.84e-03	0	60	0	859832320	57	6373
2026-01-15 23:45:13.98	192.78	44.78	-42.6	-46.6	11.9	1.91e-03	0	60	0	861929472	57	5480
2026-01-15 23:45:14.98	192.83	44.48	-42.0	-45.4	13.1	5.79e-05	0	60	0	864026624	56	5048
2026-01-15 23:45:15.99	192.87	44.18	-41.2	-44.1	14.3	6.10e-06	0	60	0	865075200	54	4881
2026-01-15 23:45:17.00	192.92	43.89	-40.9	-43.7	14.7	7.00e-07	0	60	0	867172352	53	4932
2026-01-15 23:45:18.01	192.96	43.59	-40.9	-43.6	14.8	0.00e+00	0	60	0	869269504	53	4910
2026-01-15 23:45:19.02	193.01	43.30	-41.3	-44.2	14.2	0.00e+00	0	60	0	871366656	53	5236
2026-01-15 23:45:20.03	193.05	43.01	-41.7	-45.0	13.4	3.00e-06	0	60	0	873463808	53	5768
2026-01-15 23:45:21.04	193.09	42.73	-42.3	-46.1	12.3	1.03e-04	0	60	0	874512384	55	5803
2026-01-15 23:45:22.05	193.14	42.44	-43.1	-47.7	10.7	1.44e-03	0	60	0	876609536	56	6588
2026-01-15 23:45:23.06	193.18	42.16	-43.4	-48.5	9.9	6.08e-03	0	60	0	878706688	57	6837
2026-01-15 23:45:24.07	193.22	41.88	-43.3	-48.3	10.1	8.30e-03	0	60	0	880803840	57	6672
2026-01-15 23:45:25.08	193.26	41.60	-43.1	-47.8	10.5	4.77e-03	0	60	0	882900992	57	6337
2026-01-15 23:45:26.09	193.30	41.32	-42.9	-47.3	11.1	2.53e-03	0	60	0	883949568	57	5967
2026-01-15 23:45:27.10	193.34	41.05	-42.7	-46.8	11.7	1.18e-03	0	60	0	886046720	57	5599
2026-01-15 23:45:28.11	193.38	40.78	-42.5	-46.4	12.1	3.89e-04	0	60	0	888143872	57	5367
2026-01-15 23:45:29.12	193.41	40.51	-42.4	-46.1	12.4	2.14e-04	0	60	0	890241024	56	5481
2026-01-15 23:45:30.13	193.45	40.24	-42.4	-46.1	12.4	1.05e-04	0	60	0	892338176	56	5470
2026-01-15 23:45:31.14	193.49	39.97	-42.6	-46.5	12.0	2.32e-04	0	60	0	894435328	56	5745
2026-01-15 23:45:32.15	193.52	39.71	-43.0	-47.4	11.0	8.68e-04	0	60	0	895483904	56	6396
2026-01-15 23:45:33.15	193.56	39.45	-43.4	-48.3	10.0	4.01e-03	0	60	0	897581056	57	6720
2026-01-15 23:45:34.16	193.59	39.19	-43.8	-49.6	8.7	2.40e-02	0	60	0	899678208	58	7343
2026-01-15 23:45:35.17	193.63	38.93	-44.2	-50.9	7.5	7.62e-02	0	60	0	901775360	58	8518
2026-01-15 23:45:36.18	193.66	38.67	-44.4	-52.0	6.4	1.82e-01	0	60	0	902823936	59	9123
2026-01-15 23:45:37.19	193.69	38.42	-44.5	-52.4	6.0	2.99e-01	0	60	0	904921088	59	9604
2026-01-15 23:45:38.20	193.73	38.17	-44.5	-52.3	6.2	3.13e-01	0	60	0	907018240	59	9428
2026-01-15 23:45:39.21	193.76	37.92	-44.4	-51.9	6.6	2.59e-01	0	60	0	909115392	59	8968
2026-01-15 23:45:40.22	193.79	37.67	-44.2	-51.2	7.2	1.81e-01	0	60	0	911212544	59	8284
2026-01-15 23:45:41.23	193.82	37.42	-43.9	-50.0	8.2	7.22e-02	0	60	0	912261120	59	7256
2026-01-15 23:45:42.24	193.86	37.18	-43.7	-49.3	8.9	4.20e-02	0	60	0	914358272	59	6716
2026-01-15 23:45:43.25	193.89	36.93	-43.5	-48.9	9.4	2.28e-02	0	60	0	916455424	59	6368
2026-01-15 23:45:44.26	193.92	36.69	-43.6	-48.9	9.4	1.50e-02	0	60	0	918552576	59	6412
2026-01-15 23:45:45.27	193.95	36.45	-43.6	-49.1	9.1	1.88e-02	0	60	0	920649728	59	6529
2026-01-15 23:45:46.28	193.98	36.21	-43.7	-49.3	9.0	2.17e-02	0	60	0	922746880	59	6647
2026-01-15 23:45:47.29	194.01	35.98	-43.7	-49.2	9.0	2.41e-02	0	60	0	923795456	59	6642
2026-01-15 23:45:48.30	194.04	35.74	-43.8	-49.5	8.7	2.79e-02	0	60	0	925892608	59	6852
2026-01-15 23:45:49.31	194.06	35.51	-43.8	-49.8	8.4	3.71e-02	0	60	0	927989760	59	7088
2026-01-15 23:45:50.32	194.09	35.28	-44.0	-50.4	7.9	5.10e-02	0	60	0	930086912	59	7580
2026-01-15 23:45:51.33	194.12	35.05	-44.2	-51.1	7.2	1.12e-01	0	60	0	932184064	59	8214
2026-01-15 23:45:52.34	194.15	34.82	-44.4	-52.0	6.4	1.99e-01	0	60	0	933232640	59	9156
2026-01-15 23:45:53.34	194.17	34.60	-44.5	-52.8	5.8	3.09e-01	0	60	0	935329792	59	10006
2026-01-15 23:45:54.35	194.20	34.37	-44.6	-53.4	5.4	4.97e-01	0	60	0	937426944	59	10661
2026-01-15 23:45:55.36	194.23	34.15	-44.6	-53.3	5.4	5.27e-01	0	60	0	939524096	59	10621
2026-01-15 23:45:56.37	194.25	33.93	-44.5	-53.0	5.6	5.14e-01	0	60	0	941621248	59	10246
2026-01-15 23:45:57.38	194.28	33.71	-44.4	-52.3	6.1	3.36e-01	0	60	0	942669824	59	9415
2026-01-15 23:45:58.39	194.31	33.49	-44.3	-51.8	6.5	2.69e-01	0	60	0	944766976	59	8932
2026-01-15 23:45:59.40	194.33	33.27	-44.2	-51.3	6.9	2.02e-01	0	60	0	946864128	59	8401
2026-01-15 23:46:00.41	194.36	33.06	-44.2	-51.2	7.0	1.53e-01	0	60	0	948961280	59	8304
2026-01-15 23:46:01.42	194.38	32.84	-44.0	-50.4	7.8	9.40e-02	0	60	0	951058432	59	7553
2026-01-15 23:46:02.43	194.41	32.63	-43.9	-50.0	8.2	6.55e-02	0	60	0	952107008	59	7230
2026-01-15 23:46:03.44	194.43	32.42	-43.8	-49.6	8.6	4.21e-02	0	60	0	954204160	59	6945
2026-01-15 23:46:04.45	194.45	32.21	-43.7	-49.5	8.7	3.62e-02	0	60	0	956301312	59	6845
2026-01-15 23:46:05.46	194.48	32.00	-43.6	-49.2	9.0	3.06e-02	0	60	0	958398464	59	6623
2026-01-15 23:46:06.47	194.50	31.79	-43.6	-49.1	9.2	2.20e-02	0	60	0	960495616	59	6497
2026-01-15 23:46:07.48	194.52	31.59	-43.6	-49.1	9.1	2.24e-02	0	60	0	961544192	59	6549
2026-01-15 23:46:08.49	194.55	31.39	-43.6	-49.3	8.9	2.57e-02	0	60	0	963641344	59	6676
2026-01-15 23:46:09.50	194.57	31.18	-43.7	-49.6	8.7	3.08e-02	0	60	0	965738496	59	6887
2026-01-15 23:46:10.51	194.59	30.98	-43.8	-49.9	8.3	4.81e-02	0	60	0	967835648	59	7195
2026-01-15 23:46:11.52	194.61	30.78	-44.0	-50.4	7.8	6.58e-02	0	60	0	969932800	59	7581
2026-01-15 23:46:12.53	194.64	30.59	-44.0	-50.6	7.6	8.82e-02	0	60	0	970981376	59	7758
2026-01-15 23:46:13.54	194.66	30.39	-44.1	-50.9	7.3	9.76e-02	0	60	0	973078528	59	8053
2026-01-15 23:46:14.55	194.68	30.19	-44.1	-51.0	7.2	1.22e-01	0	60	0	975175680	59	8125
2026-01-15 23:46:15.56	194.70	30.00	-44.1	-50.9	7.3	1.25e-01	0	60	0	977272832	59	8050
2026-01-15 23:46:16.57	194.72	29.81	-44.0	-50.8	7.4	1.14e-01	0	60	0	979369984	59	7964
2026-01-15 23:46:17.58	194.74	29.61	-44.0	-50.7	7.5	1.10e-01	0	60	0	980418560	59	7877
2026-01-15 23:46:18.59	194.76	29.42	-44.0	-50.6	7.6	1.01e-01	0	60	0	982515712	59	7738
2026-01-15 23:46:19.59	194.78	29.24	-43.9	-50.4	7.8	8.52e-02	0	60	0	984612864	59	7552
2026-01-15 23:46:20.60	194.80	29.05	-43.9	-50.1	8.1	6.84e-02	0	60	0	986710016	59	7322
2026-01-15 23:46:21.61	194.82	28.86	-43.8	-50.0	8.2	5.81e-02	0	60	0	988807168	59	7212
2026-01-15 23:46:22.62	194.84	28.68	-43.7	-49.5	8.6	4.81e-02	0	60	0	990904320	59	6874
2026-01-15 23:46:23.63	194.86	28.49	-43.6	-49.1	9.0	2.71e-02	0	60	0	991952896	59	6567
2026-01-15 23:46:24.64	194.88	28.31	-43.4	-48.8	9.4	1.91e-02	0	60	0	994050048	58	6680
2026-01-15 23:46:25.65	194.90	28.13	-43.4	-48.6	9.6	1.47e-02	0	60	0	996147200	58	6544
2026-01-15 23:46:26.66	194.92	27.95	-43.3	-48.3	9.9	9.90e-03	0	60	0	998244352	58	6306
2026-01-15 23:46:27.67	194.94	27.77	-43.1	-47.8	10.5	5.45e-03	0	60	0	1000341504	58	5924
2026-01-15 23:46:28.68	194.96	27.59	-42.9	-47.5	10.7	3.64e-03	0	60	0	1001390080	57	6097
2026-01-15 23:46:29.69	194.98	27.41	-42.7	-47.0	11.2	1.81e-03	0	60	0	1003487232	57	5761
2026-01-15 23:46:30.70	194.99	27.24	-42.6	-46.9	11.4	1.09e-03	0	60	0	1005584384	57	5660
2026-01-15 23:46:31.71	195.01	27.06	-42.6	-46.7	11.5	8.25e-04	0	60	0	1007681536	57	5570
2026-01-15 23:46:32.72	195.03	26.89	-42.5	-46.5	11.7	5.51e-04	0	60	0	1009778688	57	5463
2026-01-15 23:46:33.73	195.05	26.72	-42.5	-46.5	11.8	5.30e-04	0	60	0	1010827264	56	5733
2026-01-15 23:46:34.74	195.07	26.55	-42.5	-46.5	11.8	4.34e-04	0	60	0	1012924416	56	5758
2026-01-15 23:46:35.75	195.08	26.38	-42.4	-46.4	11.9	4.37e-04	0	60	0	1015021568	56	5675
2026-01-15 23:46:36.76	195.10	26.21	-42.4	-46.4	11.9	3.24e-04	0	60	0	1017118720	56	5658
2026-01-15 23:46:37.77	195.12	26.04	-42.4	-46.3	11.9	3.71e-04	0	60	0	1019215872	56	5652
2026-01-15 23:46:38.77	195.14	25.87	-42.4	-46.4	11.9	4.22e-04	0	60	0	1020264448	56	5701
2026-01-15 23:46:39.78	195.15	25.71	-42.4	-46.3	12.0	3.69e-04	0	60	0	1022361600	56	5650
2026-01-15 23:46:40.79	195.17	25.54	-42.4	-46.4	11.9	3.91e-04	0	60	0	1024458752	56	5697
2026-01-15 23:46:41.80	195.19	25.38	-42.4	-46.4	12.0	4.07e-04	0	60	0	1026555904	56	5658
2026-01-15 23:46:42.81	195.20	25.21	-42.4	-46.3	12.0	3.32e-04	0	60	0	1028653056	56	5634
2026-01-15 23:46:43.82	195.22	25.05	-42.4	-46.5	11.9	3.70e-04	0	60	0	1029701632	56	5723
2026-01-15 23:46:44.83	195.24	24.89	-42.4	-46.3	12.0	3.46e-04	0	60	0	1031798784	56	5643
2026-01-15 23:46:45.84	195.25	24.73	-42.4	-46.3	12.0	3.22e-04	0	60	0	1033895936	56	5631
2026-01-15 23:46:46.85	195.27	24.57	-42.4	-46.2	12.1	3.11e-04	0	60	0	1035993088	56	5590
2026-01-15 23:46:47.86	195.28	24.41	-42.3	-46.1	12.2	2.38e-04	0	60	0	1038090240	56	5518
2026-01-15 23:46:48.87	195.30	24.26	-42.2	-46.0	12.3	1.81e-04	0	60	0	1039138816	56	5451
2026-01-15 23:46:49.88	195.32	24.10	-42.1	-45.8	12.5	1.43e-04	0	60	0	1041235968	56	5312
2026-01-15 23:46:50.89	195.33	23.95	-42.0	-45.6	12.7	1.07e-04	0	60	0	1043333120	56	5192
2026-01-15 23:46:51.90	195.35	23.79	-42.0	-45.6	12.7	9.46e-05	0	60	0	1045430272	56	5183
2026-01-15 23:46:52.91	195.36	23.64	-41.8	-45.3	12.8	5.49e-05	0	60	0	1047527424	55	5307
2026-01-15 23:46:53.92	195.38	23.48	-41.7	-45.1	13.0	4.19e-05	0	60	0	1048576000	55	5202
2026-01-15 23:46:54.93	195.39	23.33	-41.7	-45.1	13.1	2.36e-05	0	60	0	1050673152	55	5173
2026-01-15 23:46:55.94	195.41	23.18	-41.7	-45.1	13.1	2.67e-05	0	60	0	1052770304	55	5167
2026-01-15 23:46:56.95	195.42	23.03	-41.6	-44.9	13.2	2.59e-05	0	60	0	1054867456	55	5088
2026-01-15 23:46:57.96	195.44	22.88	-41.6	-45.0	13.1	1.75e-05	0	60	0	1056964608	55	5149
2026-01-15 23:46:58.97	195.45	22.73	-41.6	-44.9	13.2	2.97e-05	0	60	0	1059061760	55	5082
2026-01-15 23:46:59.98	195.47	22.59	-41.6	-45.0	13.2	3.20e-05	0	60	0	1060110336	55	5113
2026-01-15 23:47:00.98	195.48	22.44	-41.6	-45.1	13.1	3.58e-05	0	60	0	1062207488	55	5167
2026-01-15 23:47:01.99	195.49	22.30	-41.6	-45.1	13.1	2.36e-05	0	60	0	1064304640	55	5177
2026-01-15 23:47:03.00	195.51	22.15	-41.7	-45.2	12.9	3.73e-05	0	60	0	1066401792	55	5239
2026-01-15 23:47:04.01	195.52	22.01	-41.7	-45.2	12.9	5.18e-05	0	60	0	1068498944	55	5262
2026-01-15 23:47:05.02	195.54	21.86	-41.7	-45.1	13.0	3.81e-05	0	60	0	1069547520	55	5209
2026-01-15 23:47:06.03	195.55	21.72	-41.7	-45.2	12.9	3.58e-05	0	60	0	1071644672	55	5260
2026-01-15 23:47:07.04	195.56	21.58	-41.7	-45.2	12.9	5.79e-05	0	60	0	1073741824	55	5247
2026-01-15 23:47:08.05	195.58	21.44	-41.8	-45.3	12.8	6.25e-05	0	60	0	1075838976	55	5319
2026-01-15 23:47:09.06	195.59	21.30	-41.8	-45.3	12.8	6.48e-05	0	60	0	1077936128	55	5325
2026-01-15 23:47:10.07	195.60	21.16	-41.8	-45.4	12.7	6.94e-05	0	60	0	1078984704	55	5358
2026-01-15 23:47:11.08	195.62	21.02	-41.8	-45.4	12.6	8.69e-05	0	60	0	1081081856	55	5402
2026-01-15 23:47:12.09	195.63	20.88	-41.9	-45.5	12.6	1.03e-04	0	60	0	1083179008	55	5455
2026-01-15 23:47:13.10	195.64	20.75	-41.9	-45.6	12.5	1.07e-04	0	60	0	1085276160	55	5483
2026-01-15 23:47:14.11	195.66	20.61	-41.9	-45.6	12.4	1.22e-04	0	60	0	1087373312	55	5506
2026-01-15 23:47:15.12	195.67	20.47	-42.0	-45.7	12.3	1.38e-04	0	60	0	1088421888	55	5582
2026-01-15 23:47:16.13	195.68	20.34	-42.0	-45.7	12.3	1.63e-04	0	60	0	1090519040	55	5578
2026-01-15 23:47:17.14	195.70	20.21	-42.0	-45.7	12.3	1.81e-04	0	60	0	1092616192	55	5574
2026-01-15 23:47:18.15	195.71	20.07	-42.0	-45.9	12.2	1.97e-04	0	60	0	1094713344	55	5664
2026-01-15 23:47:19.16	195.72	19.94	-42.0	-45.9	12.2	2.23e-04	0	60	0	1096810496	55	5657
2026-01-15 23:47:20.17	195.73	19.81	-42.0	-45.9	12.2	2.28e-04	0	60	0	1097859072	55	5659
2026-01-15 23:47:21.18	195.75	19.68	-42.1	-46.0	12.1	2.62e-04	0	60	0	1099956224	55	5743
2026-01-15 23:47:22.19	195.76	19.55	-42.1	-46.0	12.1	2.72e-04	0	60	0	1102053376	55	5732
2026-01-15 23:47:23.20	195.77	19.42	-42.1	-46.1	11.9	2.74e-04	0	60	0	1104150528	55	5816
2026-01-15 23:47:24.20	195.78	19.29	-42.1	-46.0	12.0	3.38e-04	0	60	0	1106247680	55	5745
2026-01-15 23:47:25.21	195.80	19.16	-42.0	-45.9	12.1	2.66e-04	0	60	0	1107296256	55	5690
2026-01-15 23:47:26.22	195.81	19.03	-42.1	-46.0	12.0	3.01e-04	0	60	0	1109393408	55	5767
2026-01-15 23:47:27.23	195.82	18.90	-42.1	-46.0	12.0	3.04e-04	0	60	0	1111490560	55	5765
2026-01-15 23:47:28.24	195.83	18.78	-42.1	-46.1	11.9	3.11e-04	0	60	0	1113587712	55	5822
2026-01-15 23:47:29.25	195.84	18.65	-42.1	-46.1	11.9	3.71e-04	0	60	0	1115684864	55	5825
2026-01-15 23:47:30.26	195.86	18.53	-42.1	-46.0	12.0	3.06e-04	0	60	0	1116733440	55	5750
2026-01-15 23:47:31.27	195.87	18.40	-42.1	-46.1	12.0	3.94e-04	0	60	0	1118830592	55	5802
2026-01-15 23:47:32.28	195.88	18.28	-42.1	-46.0	12.0	2.92e-04	0	60	0	1120927744	55	5771
2026-01-15 23:47:33.29	195.89	18.15	-42.1	-46.0	12.0	3.11e-04	0	60	0	1123024896	55	5725
2026-01-15 23:47:34.30	195.90	18.03	-42.1	-46.1	11.9	3.40e-04	0	60	0	1125122048	55	5811
2026-01-15 23:47:35.31	195.91	17.91	-42.1	-46.0	12.0	3.56e-04	0	60	0	1127219200	55	5751
2026-01-15 23:47:36.32	195.93	17.79	-42.1	-46.1	11.9	3.59e-04	0	60	0	1128267776	55	5819
2026-01-15 23:47:37.33	195.94	17.67	-42.1	-46.1	11.9	3.81e-04	0	60	0	1130364928	55	5810
2026-01-15 23:47:38.34	195.95	17.55	-42.1	-46.1	11.9	4.02e-04	0	60	0	1132462080	55	5805
2026-01-15 23:47:39.35	195.96	17.43	-42.2	-46.2	11.8	4.26e-04	0	60	0	1134559232	55	5879
2026-01-15 23:47:40.36	195.97	17.31	-42.1	-46.1	11.8	4.18e-04	0	60	0	1136656384	55	5854
2026-01-15 23:47:41.37	195.98	17.19	-42.2	-46.2	11.8	5.45e-04	0	60	0	1137704960	55	5879
2026-01-15 23:47:42.38	195.99	17.07	-42.2	-46.3	11.6	5.52e-04	0	60	0	1139802112	55	5986
2026-01-15 23:47:43.39	196.00	16.95	-42.2	-46.3	11.7	6.73e-04	0	60	0	1141899264	55	5957
2026-01-15 23:47:44.40	196.01	16.83	-42.2	-46.3	11.7	5.98e-04	0	60	0	1143996416	55	5944
2026-01-15 23:47:45.41	196.02	16.72	-42.2	-46.4	11.5	7.10e-04	0	60	0	1146093568	55	6024
2026-01-15 23:47:46.42	196.04	16.60	-42.2	-46.4	11.5	8.00e-04	0	60	0	1147142144	55	6034
2026-01-15 23:47:47.43	196.05	16.49	-42.2	-46.4	11.5	7.12e-04	0	60	0	1149239296	55	6034
2026-01-15 23:47:48.44	196.06	16.37	-42.2	-46.4	11.5	6.68e-04	0	60	0	1151336448	55	6028
2026-01-15 23:47:49.45	196.07	16.26	-42.2	-46.4	11.5	8.55e-04	0	60	0	1153433600	55	6043
2026-01-15 23:47:50.46	196.08	16.14	-42.2	-46.4	11.5	8.21e-04	0	60	0	1155530752	55	6034
2026-01-15 23:47:51.47	196.09	16.03	-42.3	-46.5	11.4	8.94e-04	0	60	0	1156579328	55	6080
2026-01-15 23:47:52.48	196.10	15.92	-42.2	-46.4	11.5	8.99e-04	0	60	0	1158676480	55	6008
2026-01-15 23:47:53.49	196.11	15.81	-42.2	-46.4	11.5	8.73e-04	0	60	0	1160773632	55	6047
2026-01-15 23:47:54.50	196.12	15.69	-42.3	-46.5	11.4	9.60e-04	0	60	0	1162870784	55	6073
2026-01-15 23:47:55.51	196.13	15.58	-42.2	-46.4	11.4	9.36e-04	0	60	0	1164967936	55	6056
2026-01-15 23:47:56.51	196.14	15.47	-42.3	-46.5	11.4	8.74e-04	0	60	0	1166016512	55	6113
