passes_logs/2026/01/15/R2.0S_Moscow/R2.0S_Moscow__20260115_013538_NOAA_20_JPSS-1_rec.log

#Pass ID: 20260115_013538_NOAA 20 (JPSS-1)
#Satellite: NOAA 20 (JPSS-1)
#Configuration: NOAA 20
#almurnet v.1.7.20251203
#Start time: 2026-01-15 01:42:30

#Version: 2.2.20231116
#Station: R2.0S_Moscow
#Location: 37.707566 lon 55.798166 lat
#TLE: 1 43013U 17073A   26014.13176244  .00000049  00000+0  44136-4 0  9994
#TLE: 2 43013  98.7634 315.0803 0001538  40.6488 319.4803 14.19535812422619

#Time	Az	El	Level	Level2	SNR	BER	BlckErr	Temp	State	Recorded	gain1	gain2
2026-01-15 01:42:30.43	300.33	18.69	-45.2	-63.2	3.8	8.46e-01	0	57	0	0	61	29553
2026-01-15 01:42:31.43	300.10	18.66	-45.3	-59.7	3.8	1.49e+00	0	57	104	0	62	18707
2026-01-15 01:42:32.44	299.86	18.64	-45.3	-59.8	3.8	1.49e+00	0	57	104	0	62	18761
2026-01-15 01:42:33.44	299.63	18.61	-45.2	-59.7	3.8	1.49e+00	0	57	104	0	62	18724
2026-01-15 01:42:34.45	299.39	18.58	-45.2	-59.7	3.8	1.49e+00	0	57	104	0	62	18596
2026-01-15 01:42:35.46	299.16	18.55	-45.2	-59.7	3.8	1.49e+00	0	57	104	0	62	18590
2026-01-15 01:42:36.47	298.93	18.53	-45.1	-59.7	3.8	1.49e+00	0	57	104	0	62	18551
2026-01-15 01:42:37.48	298.69	18.50	-45.1	-59.6	3.8	1.49e+00	0	57	104	0	62	18436
2026-01-15 01:42:38.49	298.46	18.47	-45.0	-59.5	3.8	1.49e+00	0	57	104	0	62	18248
2026-01-15 01:42:39.50	298.23	18.44	-44.9	-59.3	3.8	1.49e+00	0	57	104	0	61	18803
2026-01-15 01:42:40.51	297.99	18.41	-44.8	-59.1	3.8	1.49e+00	0	57	104	0	61	18382
2026-01-15 01:42:41.52	297.76	18.38	-44.5	-58.9	3.8	1.49e+00	0	57	104	0	61	18034
2026-01-15 01:42:42.53	297.53	18.35	-44.5	-58.9	3.8	1.49e+00	0	57	104	0	61	17961
2026-01-15 01:42:43.54	297.30	18.31	-44.5	-58.9	3.8	1.49e+00	0	57	104	0	60	19015
2026-01-15 01:42:44.55	297.07	18.28	-44.5	-58.9	3.8	1.49e+00	0	57	104	0	60	19157
2026-01-15 01:42:45.56	296.84	18.25	-44.5	-59.1	3.8	1.49e+00	0	57	104	0	60	19409
2026-01-15 01:42:46.57	296.61	18.22	-44.5	-59.1	3.8	1.49e+00	0	57	104	0	60	19477
2026-01-15 01:42:47.58	296.38	18.18	-44.4	-59.0	3.8	1.49e+00	0	57	104	0	60	19387
2026-01-15 01:42:48.58	296.15	18.15	-44.4	-59.0	3.8	1.49e+00	0	57	104	0	60	19284
2026-01-15 01:42:49.59	295.92	18.12	-44.4	-59.0	3.8	1.49e+00	0	57	104	0	60	19242
2026-01-15 01:42:50.60	295.70	18.08	-44.4	-59.0	3.8	1.49e+00	0	57	104	0	60	19258
2026-01-15 01:42:51.61	295.47	18.05	-44.4	-59.0	3.8	1.49e+00	0	57	104	0	60	19369
2026-01-15 01:42:52.62	295.24	18.01	-44.4	-59.1	3.8	1.49e+00	0	57	104	0	60	19443
2026-01-15 01:42:53.63	295.02	17.97	-44.4	-59.1	3.8	1.49e+00	0	57	104	0	60	19480
2026-01-15 01:42:54.64	294.79	17.94	-44.4	-59.0	3.8	1.49e+00	0	57	104	0	60	19265
2026-01-15 01:42:55.65	294.57	17.90	-44.4	-58.7	3.8	1.49e+00	0	57	104	0	60	18638
2026-01-15 01:42:56.66	294.34	17.86	-44.4	-58.3	3.8	1.49e+00	0	57	104	0	60	17847
2026-01-15 01:42:57.67	294.12	17.83	-44.4	-58.1	3.8	1.49e+00	0	57	104	0	60	17481
2026-01-15 01:42:58.68	293.89	17.79	-44.3	-58.1	3.8	1.49e+00	0	57	104	0	60	17452
2026-01-15 01:42:59.69	293.67	17.75	-44.4	-58.4	3.8	1.49e+00	0	57	104	0	60	18048
2026-01-15 01:43:00.70	293.45	17.71	-44.4	-58.7	3.8	1.49e+00	0	57	104	0	60	18724
2026-01-15 01:43:01.71	293.23	17.67	-44.4	-58.8	3.8	1.49e+00	0	58	104	0	60	18942
2026-01-15 01:43:02.72	293.01	17.63	-44.4	-58.5	3.8	1.49e+00	0	57	104	0	60	18195
2026-01-15 01:43:03.73	292.79	17.59	-44.4	-57.9	3.8	1.49e+00	0	57	104	0	60	17063
2026-01-15 01:43:04.74	292.57	17.55	-44.3	-57.4	3.8	1.49e+00	0	58	104	0	60	16072
2026-01-15 01:43:05.75	292.35	17.51	-44.3	-57.1	3.8	1.49e+00	0	57	104	0	60	15535
2026-01-15 01:43:06.76	292.13	17.47	-44.3	-57.3	3.8	1.49e+00	0	57	104	0	60	15807
2026-01-15 01:43:07.77	291.91	17.43	-44.4	-57.8	3.8	1.49e+00	0	58	104	0	60	16749
2026-01-15 01:43:08.78	291.69	17.39	-44.4	-58.5	3.8	1.49e+00	0	57	104	0	60	18280
2026-01-15 01:43:09.79	291.48	17.35	-44.4	-59.0	3.8	1.49e+00	0	57	104	0	60	19317
2026-01-15 01:43:10.80	291.26	17.31	-44.4	-58.5	3.8	1.49e+00	0	57	104	0	60	18270
2026-01-15 01:43:11.82	291.04	17.26	-44.3	-56.5	3.8	1.49e+00	0	57	104	0	60	14506
2026-01-15 01:43:12.83	290.83	17.22	-44.1	-54.0	4.8	1.31e+00	0	57	0	0	60	10875
2026-01-15 01:43:13.84	290.61	17.18	-43.9	-52.0	5.9	4.33e-01	0	57	0	2097152	59	9145
2026-01-15 01:43:14.85	290.40	17.13	-43.7	-50.9	6.8	2.20e-01	0	57	0	4194304	59	8047
2026-01-15 01:43:15.86	290.19	17.09	-43.6	-50.6	7.1	1.52e-01	0	57	0	6291456	59	7797
2026-01-15 01:43:16.87	289.97	17.04	-43.8	-51.3	6.5	1.62e-01	0	57	0	7340032	59	8373
2026-01-15 01:43:17.88	289.76	17.00	-44.0	-52.8	5.4	4.06e-01	0	57	0	9437184	59	9951
2026-01-15 01:43:18.88	289.55	16.96	-44.3	-54.8	4.4	8.34e-01	69	57	0	11534336	59	12529
2026-01-15 01:43:19.89	289.34	16.91	-44.3	-55.0	4.3	1.35e+00	74	57	0	12582912	59	12827
2026-01-15 01:43:20.90	289.13	16.86	-44.0	-52.9	5.3	7.45e-01	0	58	0	13631488	59	10105
2026-01-15 01:43:21.91	288.92	16.82	-43.6	-50.5	7.2	2.55e-01	0	57	0	15728640	59	7643
2026-01-15 01:43:22.92	288.71	16.77	-43.0	-48.6	9.0	6.30e-02	0	58	0	17825792	58	6535
2026-01-15 01:43:23.93	288.50	16.73	-42.6	-47.5	10.2	7.84e-03	0	58	0	19922944	57	6081
2026-01-15 01:43:24.94	288.30	16.68	-44.2	-54.8	4.4	3.19e-01	74	58	0	22020096	58	13273
2026-01-15 01:43:25.95	288.09	16.63	-43.8	-51.5	6.7	2.47e-01	0	57	0	23068672	58	9104
2026-01-15 01:43:26.95	287.89	16.59	-44.3	-56.9	3.8	7.23e-01	0	57	104	25165824	59	16122
2026-01-15 01:43:27.97	287.68	16.54	-44.2	-54.4	4.5	9.74e-01	0	57	0	25165824	59	12011
2026-01-15 01:43:28.98	287.47	16.49	-42.8	-47.9	9.9	5.96e-02	0	57	0	26214400	56	6794
2026-01-15 01:43:29.99	287.27	16.44	-42.6	-47.5	10.3	6.02e-03	0	57	0	28311552	56	6426
2026-01-15 01:43:31.00	287.07	16.39	-42.4	-47.0	10.7	3.44e-03	0	57	0	30408704	56	6125
2026-01-15 01:43:32.01	286.86	16.34	-42.5	-47.2	10.5	3.43e-03	0	58	0	32505856	56	6238
2026-01-15 01:43:33.01	286.66	16.30	-42.5	-47.1	10.6	3.73e-03	0	58	0	34603008	56	6197
2026-01-15 01:43:34.02	286.46	16.25	-42.5	-47.3	10.4	4.14e-03	0	58	0	35651584	56	6332
2026-01-15 01:43:35.03	286.26	16.20	-42.6	-47.5	10.2	5.35e-03	0	58	0	37748736	56	6471
2026-01-15 01:43:36.04	286.06	16.15	-42.6	-47.5	10.1	6.18e-03	0	57	0	39845888	56	6486
2026-01-15 01:43:37.05	285.86	16.10	-42.6	-47.4	10.3	5.40e-03	0	57	0	41943040	56	6378
2026-01-15 01:43:38.06	285.66	16.05	-42.5	-47.3	10.4	4.94e-03	0	58	0	44040192	56	6314
2026-01-15 01:43:39.06	285.47	16.00	-42.5	-47.2	10.5	3.96e-03	0	58	0	46137344	56	6229
2026-01-15 01:43:40.07	285.27	15.95	-42.5	-47.1	10.6	3.42e-03	0	57	0	47185920	56	6192
2026-01-15 01:43:41.08	285.07	15.90	-42.5	-47.2	10.4	4.14e-03	0	58	0	49283072	56	6261
2026-01-15 01:43:42.09	284.87	15.84	-42.5	-47.2	10.5	3.77e-03	0	58	0	51380224	56	6205
2026-01-15 01:43:43.10	284.68	15.79	-42.4	-47.1	10.6	3.38e-03	0	57	0	53477376	56	6154
2026-01-15 01:43:44.10	284.49	15.74	-42.4	-47.0	10.7	3.15e-03	0	58	0	55574528	56	6077
2026-01-15 01:43:45.11	284.29	15.69	-42.4	-46.9	10.8	2.62e-03	0	57	0	56623104	56	6021
2026-01-15 01:43:46.12	284.10	15.64	-42.4	-47.0	10.7	2.77e-03	0	57	0	58720256	56	6085
2026-01-15 01:43:47.13	283.91	15.59	-42.4	-47.0	10.6	3.21e-03	0	58	0	60817408	56	6128
2026-01-15 01:43:48.14	283.71	15.53	-42.5	-47.3	10.4	4.08e-03	0	57	0	62914560	56	6281
2026-01-15 01:43:49.14	283.52	15.48	-42.5	-47.4	10.3	4.79e-03	0	58	0	65011712	56	6370
2026-01-15 01:43:50.15	283.33	15.43	-42.6	-47.5	10.1	6.43e-03	0	58	0	66060288	56	6489
2026-01-15 01:43:51.16	283.14	15.37	-42.6	-47.5	10.1	6.94e-03	0	58	0	68157440	56	6459
2026-01-15 01:43:52.17	282.95	15.32	-42.5	-47.3	10.3	5.43e-03	0	58	0	70254592	56	6344
2026-01-15 01:43:53.18	282.76	15.27	-42.5	-47.3	10.3	5.70e-03	0	58	0	72351744	56	6346
2026-01-15 01:43:54.18	282.58	15.21	-42.6	-47.4	10.2	5.70e-03	0	58	0	74448896	56	6410
2026-01-15 01:43:55.19	282.39	15.16	-42.5	-47.3	10.4	5.35e-03	0	58	0	75497472	56	6284
2026-01-15 01:43:56.20	282.20	15.11	-42.5	-47.2	10.4	4.78e-03	0	58	0	77594624	56	6240
2026-01-15 01:43:57.21	282.02	15.05	-42.5	-47.3	10.3	4.87e-03	0	57	0	79691776	56	6294
2026-01-15 01:43:58.22	281.83	15.00	-42.5	-47.4	10.1	5.61e-03	0	58	0	81788928	56	6405
2026-01-15 01:43:59.22	281.65	14.94	-42.5	-47.5	10.1	6.61e-03	0	57	0	83886080	56	6451
2026-01-15 01:44:00.23	281.47	14.89	-42.6	-47.6	9.9	7.86e-03	0	58	0	84934656	56	6552
2026-01-15 01:44:01.24	281.28	14.83	-42.7	-47.8	9.7	9.93e-03	0	57	0	87031808	56	6711
2026-01-15 01:44:02.25	281.10	14.78	-42.7	-47.9	9.7	1.16e-02	0	58	0	89128960	56	6775
2026-01-15 01:44:03.26	280.92	14.72	-42.7	-47.9	9.6	1.26e-02	0	58	0	91226112	56	6777
2026-01-15 01:44:04.27	280.74	14.67	-42.7	-47.9	9.7	1.27e-02	0	57	0	93323264	56	6731
2026-01-15 01:44:05.28	280.56	14.61	-42.6	-47.7	9.8	1.05e-02	0	58	0	94371840	56	6632
2026-01-15 01:44:06.29	280.38	14.56	-42.6	-47.5	10.1	8.23e-03	0	57	0	96468992	56	6475
2026-01-15 01:44:07.30	280.20	14.50	-42.5	-47.4	10.2	6.33e-03	0	58	0	98566144	56	6354
2026-01-15 01:44:08.31	280.02	14.44	-42.5	-47.3	10.3	5.32e-03	0	58	0	100663296	56	6311
2026-01-15 01:44:09.32	279.84	14.39	-42.5	-47.3	10.3	4.90e-03	0	58	0	102760448	56	6275
2026-01-15 01:44:10.32	279.67	14.33	-42.5	-47.2	10.4	4.56e-03	0	58	0	103809024	56	6251
2026-01-15 01:44:11.33	279.49	14.28	-42.5	-47.4	10.1	5.39e-03	0	58	0	105906176	56	6408
2026-01-15 01:44:12.34	279.31	14.22	-42.6	-47.7	9.8	7.48e-03	0	58	0	108003328	56	6604
2026-01-15 01:44:13.35	279.14	14.16	-42.7	-48.0	9.5	1.26e-02	0	58	0	110100480	56	6836
2026-01-15 01:44:14.36	278.96	14.11	-42.8	-48.2	9.3	1.59e-02	0	58	0	112197632	56	7036
2026-01-15 01:44:15.37	278.79	14.05	-42.9	-48.4	9.1	2.05e-02	0	58	0	113246208	56	7168
2026-01-15 01:44:16.37	278.62	13.99	-42.9	-48.5	9.0	2.36e-02	0	58	0	115343360	56	7214
2026-01-15 01:44:17.38	278.45	13.93	-42.9	-48.4	9.1	2.33e-02	0	57	0	117440512	56	7156
2026-01-15 01:44:18.39	278.27	13.88	-42.9	-48.4	9.1	2.25e-02	0	58	0	119537664	56	7181
2026-01-15 01:44:19.41	278.10	13.82	-42.8	-48.4	9.1	2.31e-02	0	57	0	121634816	56	7137
2026-01-15 01:44:20.41	277.93	13.76	-42.8	-48.3	9.2	2.12e-02	0	58	0	122683392	56	7059
2026-01-15 01:44:21.42	277.76	13.70	-42.8	-48.3	9.2	1.95e-02	0	57	0	124780544	56	7066
2026-01-15 01:44:22.43	277.59	13.65	-42.8	-48.3	9.2	2.09e-02	0	58	0	126877696	56	7084
2026-01-15 01:44:23.44	277.42	13.59	-42.9	-48.5	9.0	2.30e-02	0	57	0	128974848	56	7230
2026-01-15 01:44:24.45	277.26	13.53	-42.9	-48.5	8.9	2.63e-02	0	57	0	131072000	56	7280
2026-01-15 01:44:25.46	277.09	13.47	-42.9	-48.7	8.8	3.01e-02	0	57	0	132120576	56	7406
2026-01-15 01:44:26.47	276.92	13.41	-42.9	-48.7	8.8	3.09e-02	0	57	0	134217728	56	7384
2026-01-15 01:44:27.48	276.76	13.35	-42.9	-48.7	8.7	3.31e-02	0	58	0	136314880	56	7405
2026-01-15 01:44:28.49	276.59	13.30	-43.0	-48.8	8.7	3.34e-02	0	58	0	138412032	56	7459
2026-01-15 01:44:29.50	276.43	13.24	-43.0	-48.8	8.5	3.96e-02	0	58	0	140509184	56	7537
2026-01-15 01:44:30.50	276.27	13.18	-42.9	-48.6	8.8	3.65e-02	0	58	0	142606336	56	7358
2026-01-15 01:44:31.51	276.10	13.12	-42.8	-48.3	9.2	2.54e-02	0	58	0	143654912	56	7062
2026-01-15 01:44:32.52	275.94	13.06	-42.7	-48.1	9.4	1.74e-02	0	58	0	145752064	56	6891
2026-01-15 01:44:33.53	275.78	13.00	-42.7	-48.1	9.4	1.63e-02	0	58	0	147849216	56	6891
2026-01-15 01:44:34.54	275.62	12.94	-42.7	-48.1	9.3	1.76e-02	0	58	0	149946368	56	6889
2026-01-15 01:44:35.55	275.46	12.88	-42.7	-48.2	9.2	2.00e-02	0	57	0	152043520	56	6968
2026-01-15 01:44:36.56	275.30	12.83	-42.8	-48.3	9.0	2.36e-02	0	58	0	153092096	56	7114
2026-01-15 01:44:37.57	275.14	12.77	-42.8	-48.5	8.9	2.80e-02	0	57	0	155189248	56	7207
2026-01-15 01:44:38.57	274.98	12.71	-42.7	-48.3	9.0	2.91e-02	0	58	0	157286400	56	7121
2026-01-15 01:44:39.58	274.82	12.65	-42.7	-48.2	9.1	2.21e-02	0	58	0	159383552	56	7000
2026-01-15 01:44:40.59	274.66	12.59	-42.7	-48.2	9.1	2.15e-02	0	58	0	161480704	56	7017
2026-01-15 01:44:41.61	274.51	12.53	-42.7	-48.1	9.3	2.12e-02	0	58	0	162529280	56	6893
2026-01-15 01:44:42.62	274.35	12.47	-42.6	-48.0	9.3	1.79e-02	0	58	0	164626432	56	6829
2026-01-15 01:44:43.62	274.20	12.41	-42.6	-48.0	9.4	1.70e-02	0	58	0	166723584	56	6838
2026-01-15 01:44:44.63	274.04	12.35	-42.5	-47.7	9.6	1.54e-02	0	58	0	168820736	56	6617
2026-01-15 01:44:45.64	273.89	12.29	-42.4	-47.5	9.8	1.08e-02	0	58	0	170917888	56	6471
2026-01-15 01:44:46.65	273.73	12.23	-42.4	-47.4	9.8	9.29e-03	0	57	0	171966464	56	6412
2026-01-15 01:44:47.66	273.58	12.17	-42.3	-47.3	9.9	8.93e-03	0	58	0	174063616	56	6345
2026-01-15 01:44:48.67	273.43	12.11	-42.3	-47.3	10.0	7.55e-03	0	58	0	176160768	56	6281
2026-01-15 01:44:49.67	273.28	12.05	-42.3	-47.2	10.0	7.42e-03	0	58	0	178257920	56	6254
2026-01-15 01:44:50.68	273.13	11.99	-42.2	-47.3	9.9	8.09e-03	0	58	0	180355072	56	6275
2026-01-15 01:44:51.69	272.98	11.93	-42.2	-47.2	10.0	8.08e-03	0	58	0	181403648	56	6229
2026-01-15 01:44:52.70	272.83	11.87	-42.2	-47.2	9.9	8.64e-03	0	58	0	183500800	56	6266
2026-01-15 01:44:53.71	272.68	11.81	-42.3	-47.3	9.9	8.97e-03	0	58	0	185597952	56	6320
2026-01-15 01:44:54.72	272.53	11.75	-42.2	-47.3	9.9	9.94e-03	0	58	0	187695104	56	6298
2026-01-15 01:44:55.73	272.38	11.69	-42.2	-47.2	9.9	9.27e-03	0	58	0	189792256	56	6274
2026-01-15 01:44:56.74	272.23	11.63	-42.2	-47.3	9.8	9.66e-03	0	57	0	190840832	56	6299
2026-01-15 01:44:57.75	272.09	11.57	-42.2	-47.3	9.8	1.02e-02	0	57	0	192937984	56	6301
2026-01-15 01:44:58.75	271.94	11.51	-42.2	-47.3	9.7	1.15e-02	0	58	0	195035136	56	6313
2026-01-15 01:44:59.76	271.80	11.45	-42.1	-47.2	9.8	9.85e-03	0	58	0	197132288	56	6206
2026-01-15 01:45:00.77	271.65	11.39	-42.1	-47.1	9.8	9.83e-03	0	58	0	199229440	56	6192
2026-01-15 01:45:01.78	271.51	11.33	-42.1	-47.1	9.8	9.43e-03	0	58	0	200278016	56	6195
2026-01-15 01:45:02.79	271.37	11.27	-42.0	-47.1	9.8	9.10e-03	0	58	0	202375168	56	6155
2026-01-15 01:45:03.80	271.22	11.21	-41.8	-46.8	9.9	9.12e-03	0	58	0	204472320	55	6318
2026-01-15 01:45:04.81	271.08	11.15	-41.8	-46.8	9.7	1.03e-02	0	58	0	206569472	55	6343
2026-01-15 01:45:05.82	270.94	11.09	-41.7	-46.7	9.9	9.30e-03	0	58	0	208666624	55	6231
2026-01-15 01:45:06.83	270.80	11.03	-41.6	-46.5	10.1	7.64e-03	0	58	0	210763776	55	6100
2026-01-15 01:45:07.84	270.66	10.96	-41.6	-46.5	10.1	6.39e-03	0	58	0	211812352	55	6068
2026-01-15 01:45:08.85	270.52	10.90	-41.5	-46.4	10.1	6.71e-03	0	58	0	213909504	55	6017
2026-01-15 01:45:09.86	270.38	10.84	-41.5	-46.4	10.0	7.23e-03	0	58	0	216006656	55	6058
2026-01-15 01:45:10.87	270.24	10.78	-41.5	-46.4	10.1	7.52e-03	0	58	0	218103808	54	6382
2026-01-15 01:45:11.88	270.10	10.72	-41.5	-46.4	10.0	7.75e-03	0	58	0	219152384	54	6377
2026-01-15 01:45:12.89	269.96	10.66	-41.4	-46.3	10.1	6.81e-03	0	58	0	221249536	54	6292
2026-01-15 01:45:13.90	269.82	10.60	-41.4	-46.1	10.3	5.93e-03	0	58	0	223346688	54	6196
2026-01-15 01:45:14.91	269.69	10.54	-41.3	-46.1	10.3	5.35e-03	0	58	0	225443840	54	6166
2026-01-15 01:45:15.92	269.55	10.48	-41.3	-46.1	10.3	5.26e-03	0	58	0	227540992	54	6152
2026-01-15 01:45:16.93	269.42	10.42	-41.3	-46.1	10.3	5.70e-03	0	57	0	228589568	54	6160
2026-01-15 01:45:17.94	269.28	10.36	-41.3	-46.1	10.2	5.63e-03	0	58	0	230686720	54	6133
2026-01-15 01:45:18.95	269.15	10.30	-41.3	-46.1	10.2	5.88e-03	0	58	0	232783872	54	6195
2026-01-15 01:45:19.95	269.01	10.24	-41.3	-46.1	10.2	6.02e-03	0	58	0	234881024	54	6154
2026-01-15 01:45:20.97	268.88	10.18	-41.3	-46.1	10.2	5.96e-03	0	58	0	236978176	54	6145
2026-01-15 01:45:21.98	268.75	10.12	-41.3	-46.1	10.2	6.42e-03	0	58	0	239075328	54	6170
2026-01-15 01:45:22.98	268.62	10.06	-41.3	-46.1	10.1	6.70e-03	0	58	0	240123904	54	6198
2026-01-15 01:45:23.99	268.48	9.99	-41.3	-46.3	9.9	7.54e-03	0	58	0	242221056	54	6336
2026-01-15 01:45:25.00	268.35	9.93	-41.3	-46.4	9.8	9.79e-03	0	58	0	244318208	54	6376
2026-01-15 01:45:26.01	268.22	9.87	-41.4	-46.6	9.6	1.14e-02	0	58	0	246415360	54	6531
2026-01-15 01:45:27.02	268.09	9.81	-41.4	-46.7	9.4	1.43e-02	0	58	0	248512512	54	6623
2026-01-15 01:45:28.03	267.96	9.75	-41.5	-46.9	9.2	1.91e-02	0	58	0	249561088	54	6749
2026-01-15 01:45:29.04	267.83	9.69	-41.5	-47.1	9.0	2.31e-02	0	58	0	251658240	54	6881
2026-01-15 01:45:30.05	267.71	9.63	-41.6	-47.1	8.9	2.62e-02	0	58	0	253755392	54	6957
2026-01-15 01:45:31.06	267.58	9.57	-41.6	-47.3	8.8	3.08e-02	0	58	0	255852544	54	7071
2026-01-15 01:45:32.07	267.45	9.51	-41.6	-47.4	8.7	3.47e-02	0	58	0	257949696	54	7172
2026-01-15 01:45:33.08	267.33	9.45	-41.5	-47.4	8.6	3.75e-02	0	58	0	258998272	54	7153
2026-01-15 01:45:34.09	267.20	9.39	-41.5	-47.5	8.4	4.58e-02	0	58	0	261095424	54	7227
2026-01-15 01:45:35.10	267.07	9.33	-41.5	-47.7	8.1	5.59e-02	0	58	0	263192576	54	7395
2026-01-15 01:45:36.11	266.95	9.27	-41.5	-47.7	8.0	6.34e-02	0	58	0	265289728	54	7449
2026-01-15 01:45:37.12	266.82	9.21	-41.5	-47.7	8.0	6.64e-02	0	58	0	267386880	54	7441
2026-01-15 01:45:38.12	266.70	9.15	-41.5	-47.8	8.0	7.11e-02	0	58	0	268435456	54	7509
2026-01-15 01:45:39.13	266.58	9.09	-41.6	-47.9	7.9	7.35e-02	0	58	0	270532608	54	7575
2026-01-15 01:45:40.14	266.45	9.02	-41.6	-48.1	7.7	7.75e-02	0	58	0	272629760	54	7731
2026-01-15 01:45:41.15	266.33	8.96	-41.6	-48.3	7.5	9.82e-02	0	58	0	274726912	54	7917
2026-01-15 01:45:42.16	266.21	8.90	-41.7	-48.4	7.3	1.08e-01	0	58	0	276824064	54	8037
2026-01-15 01:45:43.17	266.09	8.84	-41.7	-48.6	7.1	1.27e-01	0	57	0	277872640	54	8216
2026-01-15 01:45:44.18	265.97	8.78	-41.7	-48.8	7.0	1.54e-01	0	58	0	279969792	54	8441
2026-01-15 01:45:45.19	265.85	8.72	-41.7	-49.0	6.8	1.81e-01	0	58	0	282066944	54	8592
2026-01-15 01:45:46.20	265.73	8.66	-41.8	-49.2	6.6	2.02e-01	0	58	0	284164096	54	8837
2026-01-15 01:45:47.21	265.61	8.60	-41.9	-49.5	6.4	2.41e-01	0	58	0	286261248	54	9093
2026-01-15 01:45:48.22	265.49	8.54	-41.9	-49.7	6.2	2.87e-01	0	58	0	287309824	54	9323
2026-01-15 01:45:49.23	265.37	8.48	-41.9	-49.8	6.1	2.98e-01	0	58	0	289406976	54	9441
2026-01-15 01:45:50.24	265.25	8.42	-41.9	-49.9	6.0	3.35e-01	0	58	0	291504128	54	9591
2026-01-15 01:45:51.24	265.14	8.36	-41.9	-50.0	5.9	3.47e-01	0	58	0	293601280	54	9683
2026-01-15 01:45:52.26	265.02	8.30	-41.9	-50.1	5.9	3.67e-01	0	58	0	295698432	54	9767
2026-01-15 01:45:53.26	264.90	8.24	-41.9	-50.2	5.8	3.74e-01	0	58	0	296747008	54	9914
2026-01-15 01:45:54.27	264.79	8.18	-41.9	-50.2	5.8	4.05e-01	0	58	0	298844160	54	9920
2026-01-15 01:45:55.28	264.67	8.12	-41.9	-50.0	5.9	3.74e-01	0	58	0	300941312	54	9715
2026-01-15 01:45:56.29	264.56	8.06	-41.9	-50.0	5.9	3.52e-01	0	58	0	303038464	54	9693
2026-01-15 01:45:57.30	264.44	8.00	-41.9	-49.9	6.1	3.42e-01	0	58	0	305135616	54	9534
2026-01-15 01:45:58.31	264.33	7.94	-44.4	-58.8	3.8	1.49e+00	0	58	104	305135616	59	19869
2026-01-15 01:45:59.32	264.22	7.88	-44.7	-59.2	3.8	1.49e+00	0	58	104	305135616	60	19827
2026-01-15 01:46:00.32	264.10	7.82	-44.9	-59.4	3.8	1.49e+00	0	58	104	305135616	60	20286
2026-01-15 01:46:01.33	263.99	7.76	-45.0	-59.5	3.8	1.49e+00	0	58	104	305135616	60	20537
2026-01-15 01:46:02.34	263.88	7.70	-45.1	-59.7	3.8	1.49e+00	0	58	104	305135616	60	20801
2026-01-15 01:46:03.35	263.77	7.64	-45.2	-59.7	3.8	1.49e+00	0	58	104	305135616	60	20925
2026-01-15 01:46:04.36	263.66	7.58	-45.2	-59.7	3.8	1.49e+00	0	58	104	305135616	60	20993
2026-01-15 01:46:05.37	263.55	7.52	-45.2	-59.8	3.8	1.49e+00	0	58	104	305135616	61	19871
2026-01-15 01:46:06.38	263.43	7.46	-45.2	-59.7	3.8	1.49e+00	0	58	104	305135616	61	19742
2026-01-15 01:46:07.39	263.33	7.40	-45.2	-59.7	3.8	1.49e+00	0	58	104	305135616	61	19776
2026-01-15 01:46:08.40	263.22	7.34	-45.2	-59.7	3.8	1.49e+00	0	58	104	305135616	61	19781
2026-01-15 01:46:09.41	263.11	7.28	-45.2	-59.7	3.8	1.49e+00	0	58	104	305135616	61	19747
2026-01-15 01:46:10.42	263.00	7.22	-45.2	-59.7	3.8	1.49e+00	0	58	104	305135616	61	19726
2026-01-15 01:46:11.42	262.89	7.17	-45.2	-59.7	3.8	1.49e+00	0	58	104	305135616	61	19701
2026-01-15 01:46:12.43	262.78	7.11	-45.2	-59.8	3.8	1.49e+00	0	58	104	305135616	61	19848
2026-01-15 01:46:13.45	262.68	7.05	-45.2	-59.7	3.8	1.49e+00	0	58	104	305135616	61	19838
2026-01-15 01:46:14.46	262.57	6.99	-45.2	-59.7	3.8	1.49e+00	0	58	104	305135616	61	19779
2026-01-15 01:46:15.47	262.46	6.93	-45.2	-59.7	3.8	1.49e+00	0	58	104	305135616	61	19737
2026-01-15 01:46:16.48	262.36	6.87	-45.2	-59.7	3.8	1.49e+00	0	58	104	305135616	61	19702
2026-01-15 01:46:17.49	262.25	6.81	-45.2	-59.7	3.8	1.49e+00	0	58	104	305135616	61	19639
2026-01-15 01:46:18.50	262.15	6.75	-45.2	-59.7	3.8	1.49e+00	0	58	104	305135616	61	19660
2026-01-15 01:46:19.51	262.04	6.69	-45.2	-59.7	3.8	1.49e+00	0	58	104	305135616	61	19673
2026-01-15 01:46:20.52	261.94	6.63	-45.2	-59.7	3.8	1.49e+00	0	58	104	305135616	61	19687
2026-01-15 01:46:21.53	261.84	6.57	-45.2	-59.6	3.8	1.49e+00	0	58	104	305135616	61	19574
2026-01-15 01:46:22.54	261.73	6.51	-45.2	-59.6	3.8	1.49e+00	0	58	104	305135616	61	19594
2026-01-15 01:46:23.55	261.63	6.45	-45.2	-59.6	3.8	1.49e+00	0	58	104	305135616	61	19597
2026-01-15 01:46:24.55	261.53	6.40	-45.1	-59.6	3.8	1.49e+00	0	58	104	305135616	61	19517
2026-01-15 01:46:25.56	261.43	6.34	-45.1	-59.6	3.8	1.49e+00	0	58	104	305135616	61	19608
2026-01-15 01:46:26.58	261.32	6.28	-45.1	-59.6	3.8	1.49e+00	0	58	104	305135616	61	19591
2026-01-15 01:46:27.58	261.22	6.22	-45.2	-59.6	3.8	1.49e+00	0	58	104	305135616	61	19612
2026-01-15 01:46:28.59	261.12	6.16	-45.2	-59.7	3.8	1.49e+00	0	58	104	305135616	61	19681
2026-01-15 01:46:29.60	261.02	6.10	-45.2	-59.7	3.8	1.49e+00	0	58	104	305135616	61	19656
2026-01-15 01:46:30.61	260.92	6.04	-45.2	-59.7	3.8	1.49e+00	0	58	104	305135616	61	19631
2026-01-15 01:46:31.62	260.82	5.98	-45.2	-59.6	3.8	1.49e+00	0	58	104	305135616	61	19589
2026-01-15 01:46:32.63	260.72	5.93	-45.2	-59.6	3.8	1.49e+00	0	58	104	305135616	61	19556
2026-01-15 01:46:33.64	260.63	5.87	-45.1	-59.6	3.8	1.49e+00	0	58	104	305135616	61	19578
2026-01-15 01:46:34.65	260.53	5.81	-45.1	-59.6	3.8	1.49e+00	0	58	104	305135616	61	19545
2026-01-15 01:46:35.66	260.43	5.75	-45.1	-59.6	3.8	1.49e+00	0	58	104	305135616	61	19561
2026-01-15 01:46:36.66	260.33	5.69	-45.1	-59.7	3.8	1.49e+00	0	58	104	305135616	61	19622
2026-01-15 01:46:37.67	260.24	5.63	-45.1	-59.6	3.8	1.49e+00	0	58	104	305135616	61	19592
2026-01-15 01:46:38.68	260.14	5.58	-45.1	-59.6	3.8	1.49e+00	0	58	104	305135616	61	19549
2026-01-15 01:46:39.69	260.04	5.52	-45.1	-59.6	3.8	1.49e+00	0	58	104	305135616	61	19491
2026-01-15 01:46:40.70	259.95	5.46	-45.1	-59.6	3.8	1.49e+00	0	58	104	305135616	61	19531
2026-01-15 01:46:41.72	259.85	5.40	-45.1	-59.6	3.8	1.49e+00	0	58	104	305135616	61	19604
2026-01-15 01:46:42.73	259.76	5.34	-45.1	-59.6	3.8	1.49e+00	0	58	104	305135616	61	19555
2026-01-15 01:46:43.74	259.66	5.29	-45.1	-59.6	3.8	1.49e+00	0	58	104	305135616	61	19550
2026-01-15 01:46:44.75	259.57	5.23	-45.1	-59.6	3.8	1.49e+00	0	58	104	305135616	61	19471
2026-01-15 01:46:45.76	259.47	5.17	-45.1	-59.6	3.8	1.49e+00	0	58	104	305135616	61	19543
2026-01-15 01:46:46.77	259.38	5.11	-45.1	-59.6	3.8	1.49e+00	0	58	104	305135616	61	19470
2026-01-15 01:46:47.78	259.29	5.05	-45.1	-59.6	3.8	1.49e+00	0	58	104	305135616	61	19525
2026-01-15 01:46:48.79	259.19	5.00	-45.1	-59.6	3.8	1.49e+00	0	58	104	305135616	61	19555
2026-01-15 01:46:49.80	259.10	4.94	-45.1	-59.6	3.8	1.49e+00	0	58	104	305135616	61	19496
2026-01-15 01:46:50.81	259.01	4.88	-45.1	-59.6	3.8	1.49e+00	0	58	104	305135616	61	19566
2026-01-15 01:46:51.82	258.92	4.82	-45.1	-59.6	3.8	1.49e+00	0	58	104	305135616	61	19532
2026-01-15 01:46:52.84	258.83	4.77	-45.1	-59.6	3.8	1.49e+00	0	58	104	305135616	61	19492
2026-01-15 01:46:53.85	258.74	4.71	-45.1	-59.6	3.8	1.49e+00	0	58	104	305135616	61	19513
2026-01-15 01:46:54.86	258.64	4.65	-45.1	-59.6	3.8	1.49e+00	0	58	104	305135616	61	19488
2026-01-15 01:46:55.87	258.55	4.59	-45.1	-59.6	3.8	1.49e+00	0	58	104	305135616	61	19557
2026-01-15 01:46:56.88	258.47	4.54	-45.1	-59.6	3.8	1.49e+00	0	58	104	305135616	61	19444
2026-01-15 01:46:57.89	258.38	4.48	-45.1	-59.6	3.8	1.49e+00	0	58	104	305135616	61	19537
2026-01-15 01:46:58.90	258.29	4.42	-45.1	-59.6	3.8	1.49e+00	0	58	104	305135616	61	19460
2026-01-15 01:46:59.91	258.20	4.37	-45.1	-59.6	3.8	1.49e+00	0	58	104	305135616	61	19541
2026-01-15 01:47:00.92	258.11	4.31	-45.1	-59.6	3.8	1.49e+00	0	58	104	305135616	61	19485
2026-01-15 01:47:01.93	258.02	4.25	-45.1	-59.6	3.8	1.49e+00	0	58	104	305135616	61	19496
2026-01-15 01:47:02.94	257.93	4.20	-45.1	-59.6	3.8	1.49e+00	0	58	104	305135616	61	19522
2026-01-15 01:47:03.95	257.85	4.14	-45.1	-59.6	3.8	1.49e+00	0	58	104	305135616	61	19473
2026-01-15 01:47:04.96	257.76	4.08	-45.1	-59.6	3.8	1.49e+00	0	58	104	305135616	61	19448
2026-01-15 01:47:05.97	257.67	4.02	-45.1	-59.6	3.8	1.49e+00	0	58	104	305135616	61	19499
2026-01-15 01:47:06.98	257.59	3.97	-45.1	-59.6	3.8	1.49e+00	0	58	104	305135616	61	19487
2026-01-15 01:47:07.99	257.50	3.91	-45.1	-59.6	3.8	1.49e+00	0	58	104	305135616	61	19500
2026-01-15 01:47:09.00	257.42	3.86	-45.1	-59.6	3.8	1.49e+00	0	58	104	305135616	61	19405
2026-01-15 01:47:10.01	257.33	3.80	-45.1	-59.6	3.8	1.49e+00	0	58	104	305135616	61	19424
2026-01-15 01:47:11.02	257.24	3.74	-45.1	-59.6	3.8	1.49e+00	0	58	104	305135616	61	19467
2026-01-15 01:47:12.03	257.16	3.69	-45.1	-59.6	3.8	1.49e+00	0	58	104	305135616	61	19441
2026-01-15 01:47:13.04	257.08	3.63	-45.1	-59.5	3.8	1.49e+00	0	58	104	305135616	61	19362
2026-01-15 01:47:14.05	256.99	3.57	-45.1	-59.6	3.8	1.49e+00	0	58	104	305135616	61	19503
2026-01-15 01:47:15.06	256.91	3.52	-45.1	-59.6	3.8	1.49e+00	0	58	104	305135616	61	19471
2026-01-15 01:47:16.07	256.83	3.46	-45.1	-59.5	3.8	1.49e+00	0	58	104	305135616	61	19381
2026-01-15 01:47:17.08	256.74	3.41	-45.1	-59.6	3.8	1.49e+00	0	58	104	305135616	61	19456
2026-01-15 01:47:18.09	256.66	3.35	-45.1	-59.6	3.8	1.49e+00	0	58	104	305135616	61	19542
2026-01-15 01:47:19.10	256.58	3.29	-45.1	-59.6	3.8	1.49e+00	0	58	104	305135616	61	19461
2026-01-15 01:47:20.11	256.50	3.24	-45.1	-59.6	3.8	1.49e+00	0	58	104	305135616	61	19488
2026-01-15 01:47:21.12	256.41	3.18	-45.1	-59.6	3.8	1.49e+00	0	58	104	305135616	61	19520
2026-01-15 01:47:22.13	256.33	3.13	-45.1	-59.6	3.8	1.49e+00	0	58	104	305135616	61	19465
2026-01-15 01:47:23.14	256.25	3.07	-45.1	-59.6	3.8	1.49e+00	0	58	104	305135616	61	19477
2026-01-15 01:47:24.15	256.17	3.01	-45.1	-59.6	3.8	1.49e+00	0	58	104	305135616	61	19431
2026-01-15 01:47:25.16	256.09	2.96	-45.1	-59.6	3.8	1.49e+00	0	58	104	305135616	61	19468
2026-01-15 01:47:26.17	256.01	2.90	-45.1	-59.6	3.8	1.49e+00	0	58	104	305135616	61	19438
2026-01-15 01:47:27.18	255.93	2.85	-45.1	-59.6	3.8	1.49e+00	0	58	104	305135616	61	19456
2026-01-15 01:47:28.20	255.85	2.79	-45.1	-59.6	3.8	1.49e+00	0	58	104	305135616	61	19465
2026-01-15 01:47:29.21	255.77	2.74	-45.1	-59.6	3.8	1.49e+00	0	58	104	305135616	61	19501
2026-01-15 01:47:30.22	255.69	2.68	-45.1	-59.6	3.8	1.49e+00	0	58	104	305135616	61	19440
2026-01-15 01:47:31.23	255.61	2.63	-45.1	-59.6	3.8	1.49e+00	0	58	104	305135616	61	19431
2026-01-15 01:47:32.24	255.54	2.57	-45.1	-59.5	3.8	1.49e+00	0	58	104	305135616	61	19381
2026-01-15 01:47:33.25	255.46	2.52	-45.1	-59.6	3.8	1.49e+00	0	58	104	305135616	61	19491
2026-01-15 01:47:34.26	255.38	2.46	-45.1	-59.6	3.8	1.49e+00	0	58	104	305135616	61	19408
2026-01-15 01:47:35.26	255.30	2.41	-45.1	-59.6	3.8	1.49e+00	0	58	104	305135616	61	19490
2026-01-15 01:47:36.27	255.23	2.35	-45.1	-59.6	3.8	1.49e+00	0	58	104	305135616	61	19455
2026-01-15 01:47:37.28	255.15	2.30	-45.1	-59.6	3.8	1.49e+00	0	58	104	305135616	61	19426
2026-01-15 01:47:38.29	255.07	2.24	-45.1	-59.6	3.8	1.49e+00	0	58	104	305135616	61	19443
2026-01-15 01:47:39.30	255.00	2.19	-45.1	-59.6	3.8	1.49e+00	0	58	104	305135616	61	19433
2026-01-15 01:47:40.31	254.92	2.13	-45.1	-59.6	3.8	1.49e+00	0	58	104	305135616	61	19452
2026-01-15 01:47:41.32	254.85	2.08	-45.1	-59.5	3.8	1.49e+00	0	58	104	305135616	61	19355
2026-01-15 01:47:42.33	254.77	2.02	-45.1	-59.6	3.8	1.49e+00	0	58	104	305135616	61	19435
2026-01-15 01:47:43.34	254.69	1.97	-45.1	-59.6	3.8	1.49e+00	0	58	104	305135616	61	19482

#Closed at: 2026-01-15 01:47:44
#Recorded file [305 MB]: D:/lorett/data/31039_260115_044230.dat