passes_logs/2026/01/15/R2.0S_Moscow/R2.0S_Moscow__20260115_120414_FENGYUN_3D_rec.log

#Pass ID: 20260115_120414_FENGYUN 3D
#Satellite: FENGYUN 3D
#Configuration: FENGYUN 3D
#almurnet v.1.7.20251203
#Start time: 2026-01-15 12:09:57

#Version: 2.2.20231116
#Station: R2.0S_Moscow
#Location: 37.707566 lon 55.798166 lat
#TLE: 1 43010U 17072A   26014.22831475  .00000226  00000+0  12883-3 0  9994
#TLE: 2 43010  98.9934 346.0326 0002309 109.2304 250.9121 14.19696287423146

#Time	Az	El	Level	Level2	SNR	BER	BlckErr	Temp	State	Recorded	gain1	gain2
2026-01-15 12:09:57.04	171.97	49.98	-46.1	-64.7	3.8	7.45e-01	0	60	0	0	62	33270
2026-01-15 12:09:58.04	172.08	50.32	-45.1	-56.9	3.8	8.47e-01	0	61	104	0	62	13439
2026-01-15 12:09:59.05	172.19	50.66	-45.2	-56.8	3.8	8.46e-01	0	61	104	0	62	13394
2026-01-15 12:10:00.06	172.31	51.00	-45.2	-56.8	3.8	8.46e-01	0	61	104	0	62	13352
2026-01-15 12:10:01.07	172.42	51.35	-45.1	-56.8	3.8	8.47e-01	0	61	104	0	62	13341
2026-01-15 12:10:02.08	172.54	51.70	-45.1	-56.8	3.8	8.45e-01	0	61	104	0	62	13327
2026-01-15 12:10:03.09	172.66	52.05	-45.1	-56.8	3.8	8.46e-01	0	61	104	0	62	13397
2026-01-15 12:10:04.10	172.79	52.40	-45.1	-56.8	3.8	8.45e-01	0	61	104	0	62	13297
2026-01-15 12:10:05.11	172.91	52.76	-45.1	-56.8	3.8	8.46e-01	0	61	104	0	61	14067
2026-01-15 12:10:06.12	173.04	53.12	-45.1	-56.7	3.8	8.46e-01	0	61	104	0	61	14045
2026-01-15 12:10:07.13	173.18	53.48	-45.1	-56.8	3.8	8.46e-01	0	61	104	0	61	14060
2026-01-15 12:10:08.15	173.32	53.84	-45.1	-56.8	3.8	8.47e-01	0	61	104	0	61	14070
2026-01-15 12:10:09.16	173.46	54.21	-45.1	-56.8	3.8	8.46e-01	0	61	104	0	61	14125
2026-01-15 12:10:10.17	173.60	54.58	-45.1	-56.8	3.8	8.46e-01	0	61	104	0	61	14139
2026-01-15 12:10:11.18	173.75	54.95	-45.1	-56.8	3.8	8.46e-01	0	61	104	0	61	14050
2026-01-15 12:10:12.19	173.90	55.32	-45.1	-56.8	3.8	8.46e-01	0	61	104	0	61	14133
2026-01-15 12:10:13.20	174.05	55.70	-45.1	-56.8	3.8	8.47e-01	0	61	104	0	61	14107
2026-01-15 12:10:14.21	174.21	56.07	-45.1	-56.8	3.8	8.46e-01	0	61	104	0	61	14120
2026-01-15 12:10:15.22	174.38	56.46	-45.1	-56.8	3.8	8.46e-01	0	61	104	0	61	14137
2026-01-15 12:10:16.23	174.54	56.84	-45.1	-56.7	3.8	8.46e-01	0	61	104	0	61	14046
2026-01-15 12:10:17.24	174.72	57.22	-45.1	-56.7	3.8	8.46e-01	0	61	104	0	61	14014
2026-01-15 12:10:18.25	174.89	57.61	-45.1	-56.8	3.8	8.46e-01	0	61	104	0	61	14094
2026-01-15 12:10:19.26	175.08	58.00	-45.1	-56.7	3.8	8.46e-01	0	61	104	0	61	13977
2026-01-15 12:10:20.27	175.26	58.39	-45.1	-56.8	3.8	8.46e-01	0	61	104	0	61	14047
2026-01-15 12:10:21.28	175.46	58.79	-45.1	-56.7	3.8	8.46e-01	0	61	104	0	61	14014
2026-01-15 12:10:22.29	175.66	59.18	-45.1	-56.7	3.8	8.46e-01	0	61	104	0	61	13992
2026-01-15 12:10:23.30	175.86	59.58	-45.0	-56.6	3.8	8.47e-01	0	61	104	0	61	13756
2026-01-15 12:10:24.31	176.07	59.98	-45.1	-56.6	3.8	8.48e-01	0	61	104	0	61	13829
2026-01-15 12:10:25.33	176.29	60.39	-45.0	-56.5	3.8	8.47e-01	0	61	104	0	61	13681
2026-01-15 12:10:26.34	176.52	60.80	-45.1	-56.6	3.8	8.46e-01	0	61	104	0	61	13801
2026-01-15 12:10:27.35	176.75	61.21	-45.1	-56.7	3.8	8.46e-01	0	61	104	0	61	13889
2026-01-15 12:10:28.36	176.99	61.62	-45.1	-56.7	3.8	8.46e-01	0	61	104	0	61	13904
2026-01-15 12:10:29.37	177.24	62.03	-45.1	-56.7	3.8	8.45e-01	0	61	104	0	61	13922
2026-01-15 12:10:30.38	177.49	62.44	-45.1	-56.8	3.8	8.47e-01	0	61	104	0	61	14053
2026-01-15 12:10:31.39	177.76	62.86	-45.1	-56.7	3.8	8.46e-01	0	61	104	0	61	14018
2026-01-15 12:10:32.40	178.03	63.28	-45.1	-56.7	3.8	8.47e-01	0	61	104	0	61	13924
2026-01-15 12:10:33.41	178.32	63.70	-45.1	-56.7	3.8	8.46e-01	0	61	104	0	61	13949
2026-01-15 12:10:34.42	178.61	64.12	-45.1	-56.7	3.8	8.47e-01	0	61	104	0	61	14003
2026-01-15 12:10:35.43	178.92	64.54	-45.0	-56.5	3.8	8.47e-01	0	61	104	0	61	13662
2026-01-15 12:10:36.44	179.23	64.97	-45.0	-56.4	3.8	8.47e-01	0	61	104	0	61	13423
2026-01-15 12:10:37.45	179.56	65.40	-44.9	-55.3	3.8	8.46e-01	0	61	104	0	61	11953
2026-01-15 12:10:38.46	179.90	65.83	-44.8	-54.6	3.8	8.45e-01	0	61	104	0	61	11008
2026-01-15 12:10:39.47	180.26	66.26	-44.9	-54.9	3.8	8.45e-01	0	61	104	0	61	11298
2026-01-15 12:10:40.48	180.63	66.69	-44.9	-54.9	3.8	8.45e-01	0	61	104	0	61	11412
2026-01-15 12:10:41.49	181.01	67.12	-44.8	-54.9	3.8	8.45e-01	0	61	104	0	61	11330
2026-01-15 12:10:42.50	181.41	67.56	-44.8	-54.6	3.8	8.46e-01	0	61	104	0	61	10943
2026-01-15 12:10:43.51	181.83	67.99	-44.3	-51.6	4.8	8.37e-01	0	61	104	0	60	8221
2026-01-15 12:10:44.52	182.27	68.43	-42.8	-46.8	8.4	2.00e-01	0	61	0	3145728	57	5653
2026-01-15 12:10:45.53	182.72	68.87	-40.8	-43.5	11.7	1.91e-03	0	61	0	9437184	53	4862
2026-01-15 12:10:46.54	183.20	69.30	-40.3	-42.7	12.6	1.76e-04	0	61	0	14680064	52	4668
2026-01-15 12:10:47.55	183.70	69.74	-41.6	-44.8	10.4	2.47e-03	0	61	0	20971520	53	5627
2026-01-15 12:10:48.56	184.22	70.18	-43.7	-49.2	6.3	1.19e-01	0	61	0	26214400	57	7403
2026-01-15 12:10:49.57	184.77	70.62	-41.2	-44.3	10.9	2.24e-02	0	61	0	31457280	54	4984
2026-01-15 12:10:50.58	185.34	71.06	-37.1	-38.8	16.3	0.00e+00	0	61	0	37748736	46	4241
2026-01-15 12:10:51.59	185.94	71.50	-44.4	-49.8	4.7	4.82e-01	0	61	104	41943040	58	7542
2026-01-15 12:10:52.60	186.58	71.94	-42.6	-46.5	5.2	8.24e-01	0	61	104	41943040	57	5417
2026-01-15 12:10:53.61	187.24	72.38	-35.0	-36.4	18.4	2.07e-03	0	61	0	44040192	42	4025
2026-01-15 12:10:54.62	187.95	72.82	-39.5	-41.8	13.8	0.00e+00	0	61	0	49283072	49	4996
2026-01-15 12:10:55.63	188.69	73.26	-35.6	-37.0	17.9	2.94e-03	0	61	0	54525952	42	4335
2026-01-15 12:10:56.64	189.47	73.70	-39.2	-41.2	14.0	6.29e-02	0	61	0	60817408	50	4428
2026-01-15 12:10:57.65	190.30	74.13	-35.6	-37.0	17.9	0.00e+00	0	61	0	66060288	42	4307
2026-01-15 12:10:58.66	191.17	74.57	-35.4	-36.8	18.1	0.00e+00	0	61	0	72351744	42	4224
2026-01-15 12:10:59.67	192.10	75.00	-35.0	-36.3	18.6	0.00e+00	0	61	0	77594624	42	3999
2026-01-15 12:11:00.67	193.08	75.42	-34.5	-35.8	19.0	0.00e+00	0	61	0	82837504	41	3970
2026-01-15 12:11:01.68	194.12	75.85	-34.4	-35.7	19.1	0.00e+00	0	61	0	89128960	40	4191
2026-01-15 12:11:02.69	195.24	76.27	-34.3	-35.6	19.2	0.00e+00	0	61	0	94371840	40	4105
2026-01-15 12:11:03.70	196.42	76.69	-34.1	-35.4	19.4	0.00e+00	0	61	0	100663296	40	4027
2026-01-15 12:11:04.71	197.69	77.10	-34.2	-35.5	19.3	0.00e+00	0	61	0	105906176	40	4060
2026-01-15 12:11:05.72	199.04	77.51	-34.0	-35.3	19.4	0.00e+00	0	61	0	111149056	40	3995
2026-01-15 12:11:06.73	200.48	77.92	-33.8	-35.1	19.7	0.00e+00	0	61	0	117440512	39	4101
2026-01-15 12:11:07.74	202.02	78.31	-33.9	-35.1	19.7	0.00e+00	0	61	0	122683392	39	4138
2026-01-15 12:11:08.75	203.67	78.70	-33.9	-35.2	19.6	0.00e+00	0	61	0	128974848	39	4181
2026-01-15 12:11:09.76	205.44	79.08	-33.8	-35.1	19.7	0.00e+00	0	61	0	134217728	39	4107
2026-01-15 12:11:10.77	207.34	79.45	-33.6	-34.8	19.9	0.00e+00	0	61	0	140509184	39	3985
2026-01-15 12:11:11.78	209.38	79.80	-33.4	-34.6	20.1	0.00e+00	0	61	0	145752064	38	4134
2026-01-15 12:11:12.79	211.56	80.15	-33.3	-34.5	20.2	0.00e+00	0	61	0	152043520	38	4081
2026-01-15 12:11:13.80	213.90	80.48	-33.6	-34.9	19.8	1.10e-06	0	61	0	157286400	38	4265
2026-01-15 12:11:14.81	216.41	80.79	-33.7	-35.0	19.7	0.00e+00	0	61	0	162529280	38	4315
2026-01-15 12:11:15.82	219.08	81.08	-33.6	-34.9	19.8	0.00e+00	0	61	0	168820736	38	4274
2026-01-15 12:11:16.83	221.94	81.36	-33.7	-35.0	19.7	0.00e+00	0	61	0	174063616	38	4310
2026-01-15 12:11:17.83	224.95	81.61	-33.5	-34.8	19.9	0.00e+00	0	61	0	180355072	38	4212
2026-01-15 12:11:18.84	228.17	81.84	-33.8	-35.0	19.7	0.00e+00	0	61	0	185597952	38	4333
2026-01-15 12:11:19.85	231.56	82.04	-33.8	-35.1	19.7	0.00e+00	0	61	0	190840832	38	4349
2026-01-15 12:11:20.86	235.12	82.21	-33.5	-34.8	19.9	0.00e+00	0	61	0	197132288	38	4203
2026-01-15 12:11:21.87	238.83	82.36	-33.6	-34.9	19.8	0.00e+00	0	61	0	202375168	38	4270
2026-01-15 12:11:22.88	242.67	82.46	-33.7	-35.0	19.7	0.00e+00	0	61	0	208666624	38	4306
2026-01-15 12:11:23.89	246.59	82.54	-33.8	-35.1	19.6	0.00e+00	0	61	0	213909504	38	4347
2026-01-15 12:11:24.90	250.59	82.58	-33.6	-34.9	19.8	0.00e+00	0	61	0	219152384	38	4244
2026-01-15 12:11:25.91	254.60	82.58	-33.5	-34.8	19.9	0.00e+00	0	61	0	225443840	38	4211
2026-01-15 12:11:26.93	258.64	82.55	-33.6	-34.9	19.8	0.00e+00	0	61	0	230686720	38	4255
2026-01-15 12:11:27.94	262.59	82.48	-33.6	-34.9	19.8	0.00e+00	0	61	0	236978176	38	4280
2026-01-15 12:11:28.95	266.44	82.38	-33.6	-34.8	19.8	0.00e+00	0	61	0	242221056	38	4234
2026-01-15 12:11:29.96	270.18	82.25	-33.5	-34.7	20.0	0.00e+00	0	61	0	248512512	38	4175
2026-01-15 12:11:30.97	273.77	82.08	-33.4	-34.7	20.0	0.00e+00	0	61	0	253755392	38	4157
2026-01-15 12:11:31.98	277.21	81.88	-33.5	-34.8	19.9	0.00e+00	0	61	0	258998272	38	4206
2026-01-15 12:11:32.99	280.46	81.66	-33.6	-34.8	19.9	0.00e+00	0	61	0	265289728	38	4234
2026-01-15 12:11:34.00	283.54	81.41	-33.5	-34.8	19.9	0.00e+00	0	61	0	270532608	38	4218
2026-01-15 12:11:35.01	286.43	81.14	-33.3	-34.6	20.2	0.00e+00	0	61	0	276824064	38	4102
2026-01-15 12:11:36.02	289.15	80.85	-33.3	-34.5	20.2	0.00e+00	0	61	0	282066944	38	4071
2026-01-15 12:11:37.03	291.69	80.54	-33.6	-34.8	19.9	0.00e+00	0	61	0	287309824	38	4230
2026-01-15 12:11:38.04	294.06	80.22	-33.5	-34.8	20.0	0.00e+00	0	61	0	293601280	38	4197
2026-01-15 12:11:39.05	296.27	79.88	-33.6	-34.8	19.9	0.00e+00	0	61	0	298844160	38	4231
2026-01-15 12:11:40.06	298.34	79.52	-34.0	-35.3	19.4	0.00e+00	0	61	0	305135616	38	4482
2026-01-15 12:11:41.07	300.26	79.16	-34.0	-35.4	19.4	1.10e-06	0	61	0	310378496	38	4500
2026-01-15 12:11:42.08	302.06	78.78	-33.7	-35.0	19.7	0.00e+00	0	61	0	316669952	38	4312
2026-01-15 12:11:43.09	303.74	78.40	-34.0	-35.3	19.4	0.00e+00	0	61	0	321912832	38	4488
2026-01-15 12:11:44.10	305.30	78.00	-34.2	-35.5	19.2	0.00e+00	0	61	0	327155712	38	4596
2026-01-15 12:11:45.11	306.76	77.60	-34.1	-35.4	19.3	0.00e+00	0	61	0	333447168	38	4524
2026-01-15 12:11:46.12	308.13	77.20	-34.0	-35.2	19.5	0.00e+00	0	61	0	338690048	38	4437
2026-01-15 12:11:47.13	309.41	76.78	-34.0	-35.3	19.4	0.00e+00	0	61	0	344981504	38	4488
2026-01-15 12:11:48.14	310.61	76.37	-34.4	-35.7	19.1	0.00e+00	0	61	0	350224384	39	4421
2026-01-15 12:11:49.15	311.74	75.95	-34.6	-36.0	18.8	0.00e+00	0	61	0	356515840	39	4572
2026-01-15 12:11:50.16	312.80	75.52	-34.6	-36.0	18.8	0.00e+00	0	61	0	361758720	39	4554
2026-01-15 12:11:51.17	313.80	75.09	-34.7	-36.0	18.8	0.00e+00	0	61	0	367001600	39	4598
2026-01-15 12:11:52.18	314.74	74.66	-34.8	-36.2	18.6	0.00e+00	0	61	0	373293056	40	4437
2026-01-15 12:11:53.19	315.62	74.23	-34.9	-36.3	18.5	0.00e+00	0	61	0	378535936	40	4455
2026-01-15 12:11:54.20	316.46	73.79	-34.7	-36.0	18.8	0.00e+00	0	61	0	384827392	40	4327
2026-01-15 12:11:55.20	317.24	73.36	-34.8	-36.2	18.7	0.00e+00	0	61	0	390070272	40	4397
2026-01-15 12:11:56.21	317.99	72.93	-35.0	-36.4	18.4	0.00e+00	0	61	0	395313152	40	4522
2026-01-15 12:11:57.22	318.70	72.49	-34.7	-36.0	18.8	0.00e+00	0	61	0	401604608	40	4336
2026-01-15 12:11:58.23	319.38	72.05	-34.6	-35.9	18.9	0.00e+00	0	61	0	406847488	40	4280
2026-01-15 12:11:59.24	320.02	71.61	-34.8	-36.2	18.6	1.10e-06	0	61	0	413138944	40	4400
2026-01-15 12:12:00.25	320.63	71.17	-35.0	-36.5	18.3	0.00e+00	0	61	0	418381824	40	4553
2026-01-15 12:12:01.26	321.21	70.73	-34.9	-36.4	18.4	2.20e-06	0	61	0	423624704	40	4515
2026-01-15 12:12:02.27	321.76	70.29	-34.9	-36.3	18.4	1.10e-06	0	61	0	429916160	40	4479
2026-01-15 12:12:03.28	322.28	69.85	-35.0	-36.4	18.4	1.60e-05	0	61	0	435159040	40	4545
2026-01-15 12:12:04.29	322.79	69.41	-35.1	-36.6	18.3	0.00e+00	0	61	0	441450496	40	4605
2026-01-15 12:12:05.30	323.27	68.98	-34.9	-36.4	18.4	0.00e+00	0	61	0	446693376	40	4527
2026-01-15 12:12:06.31	323.73	68.54	-35.1	-36.5	18.4	0.00e+00	0	61	0	452984832	40	4564
2026-01-15 12:12:07.32	324.17	68.10	-34.9	-36.4	18.4	0.00e+00	0	61	0	458227712	40	4524
2026-01-15 12:12:08.33	324.59	67.67	-34.8	-36.2	18.7	5.70e-06	0	61	0	463470592	40	4396
2026-01-15 12:12:09.34	324.99	67.24	-34.8	-36.1	18.7	0.00e+00	0	61	0	469762048	40	4382
2026-01-15 12:12:10.35	325.38	66.80	-35.0	-36.4	18.5	0.00e+00	0	61	0	475004928	40	4529
2026-01-15 12:12:11.36	325.75	66.37	-35.2	-36.6	18.3	0.00e+00	0	61	0	481296384	40	4621
2026-01-15 12:12:12.37	326.11	65.94	-35.2	-36.6	18.3	0.00e+00	0	61	0	486539264	41	4365
2026-01-15 12:12:13.37	326.45	65.52	-35.0	-36.4	18.4	0.00e+00	0	61	0	491782144	41	4268
2026-01-15 12:12:14.38	326.78	65.09	-35.0	-36.3	18.5	0.00e+00	0	61	0	498073600	41	4241
2026-01-15 12:12:15.39	327.10	64.67	-35.2	-36.6	18.3	0.00e+00	0	61	0	503316480	41	4342
2026-01-15 12:12:16.40	327.41	64.24	-35.5	-37.0	18.0	0.00e+00	0	61	0	509607936	41	4551
2026-01-15 12:12:17.41	327.71	63.82	-35.7	-37.2	17.8	0.00e+00	0	61	0	514850816	41	4654
2026-01-15 12:12:18.42	327.99	63.40	-35.7	-37.1	17.9	0.00e+00	0	61	0	520093696	41	4619
2026-01-15 12:12:19.43	328.27	62.99	-35.7	-37.2	17.8	0.00e+00	0	61	0	526385152	42	4414
2026-01-15 12:12:20.44	328.54	62.57	-35.9	-37.4	17.6	0.00e+00	0	61	0	531628032	42	4514
2026-01-15 12:12:21.45	328.80	62.16	-35.9	-37.4	17.6	0.00e+00	0	61	0	537919488	42	4501
2026-01-15 12:12:22.46	329.05	61.74	-35.7	-37.1	17.9	0.00e+00	0	61	0	543162368	42	4379
2026-01-15 12:12:23.47	329.29	61.33	-35.6	-37.0	18.0	0.00e+00	0	61	0	549453824	42	4318
2026-01-15 12:12:24.48	329.52	60.93	-35.6	-37.1	17.9	0.00e+00	0	61	0	554696704	42	4360
2026-01-15 12:12:25.49	329.75	60.52	-35.7	-37.2	17.8	0.00e+00	0	61	0	560988160	42	4402
2026-01-15 12:12:26.50	329.97	60.12	-35.9	-37.4	17.6	0.00e+00	0	61	0	566231040	42	4538
2026-01-15 12:12:27.51	330.18	59.72	-36.2	-37.7	17.3	0.00e+00	0	61	0	571473920	42	4692
2026-01-15 12:12:28.52	330.39	59.32	-36.3	-37.9	17.1	0.00e+00	0	61	0	577765376	43	4511
2026-01-15 12:12:29.53	330.59	58.92	-36.4	-38.0	17.0	0.00e+00	0	61	0	583008256	43	4559
2026-01-15 12:12:30.54	330.78	58.53	-36.6	-38.2	16.8	0.00e+00	0	61	0	589299712	43	4680
2026-01-15 12:12:31.55	330.97	58.14	-37.1	-38.7	16.5	0.00e+00	0	61	0	594542592	44	4690
2026-01-15 12:12:32.56	331.16	57.75	-37.2	-38.9	16.3	0.00e+00	0	61	0	599785472	45	4514
2026-01-15 12:12:33.57	331.34	57.36	-36.8	-38.4	16.7	0.00e+00	0	61	0	606076928	45	4284
2026-01-15 12:12:34.58	331.51	56.98	-36.5	-38.0	17.1	0.00e+00	0	61	0	611319808	45	4081
2026-01-15 12:12:35.58	331.68	56.60	-36.5	-38.0	17.2	0.00e+00	0	61	0	617611264	44	4302
2026-01-15 12:12:36.59	331.84	56.22	-36.8	-38.4	16.8	0.00e+00	0	61	0	622854144	44	4523
2026-01-15 12:12:37.60	332.00	55.84	-37.2	-38.9	16.3	0.00e+00	0	61	0	628097024	45	4539
2026-01-15 12:12:38.61	332.16	55.47	-37.0	-38.7	16.5	0.00e+00	0	61	0	634388480	45	4428
2026-01-15 12:12:39.62	332.31	55.09	-36.7	-38.3	16.9	0.00e+00	0	61	0	639631360	45	4224
2026-01-15 12:12:40.63	332.46	54.72	-36.5	-38.0	17.1	0.00e+00	0	61	0	645922816	45	4096
2026-01-15 12:12:41.64	332.60	54.36	-36.5	-38.0	17.2	0.00e+00	0	61	0	651165696	44	4333
2026-01-15 12:12:42.65	332.75	53.99	-36.9	-38.4	17.0	0.00e+00	0	61	0	657457152	44	4531
2026-01-15 12:12:43.66	332.88	53.63	-37.1	-38.7	16.7	0.00e+00	0	61	0	662700032	44	4684
2026-01-15 12:12:44.67	333.02	53.27	-37.3	-38.8	16.6	0.00e+00	0	61	0	667942912	45	4491
2026-01-15 12:12:45.68	333.15	52.91	-37.1	-38.7	16.7	0.00e+00	0	61	0	674234368	45	4411
2026-01-15 12:12:46.69	333.28	52.55	-37.2	-38.7	16.7	0.00e+00	0	61	0	679477248	45	4429
2026-01-15 12:12:47.70	333.40	52.20	-37.1	-38.6	16.8	0.00e+00	0	61	0	685768704	45	4374
2026-01-15 12:12:48.71	333.52	51.85	-37.1	-38.6	16.8	0.00e+00	0	61	0	691011584	45	4363
2026-01-15 12:12:49.72	333.64	51.50	-37.1	-38.7	16.7	0.00e+00	0	61	0	696254464	45	4410
2026-01-15 12:12:50.73	333.76	51.16	-36.8	-38.3	17.1	0.00e+00	0	61	0	702545920	45	4227
2026-01-15 12:12:51.74	333.88	50.81	-36.6	-38.1	17.3	0.00e+00	0	61	0	707788800	45	4128
2026-01-15 12:12:52.75	333.99	50.47	-36.5	-37.9	17.4	0.00e+00	0	61	0	714080256	45	4043
2026-01-15 12:12:53.76	334.10	50.13	-36.3	-37.6	17.7	0.00e+00	0	61	0	719323136	44	4140
2026-01-15 12:12:54.77	334.20	49.80	-36.2	-37.6	17.8	0.00e+00	0	61	0	724566016	44	4114
2026-01-15 12:12:55.77	334.31	49.47	-36.1	-37.5	17.9	0.00e+00	0	61	0	730857472	44	4067
2026-01-15 12:12:56.78	334.41	49.13	-36.1	-37.4	18.0	0.00e+00	0	61	0	736100352	44	4034
2026-01-15 12:12:57.79	334.51	48.81	-36.0	-37.4	18.0	0.00e+00	0	61	0	742391808	44	4014
2026-01-15 12:12:58.80	334.61	48.48	-36.0	-37.4	18.0	0.00e+00	0	61	0	747634688	44	4005
2026-01-15 12:12:59.81	334.71	48.15	-36.0	-37.4	18.0	0.00e+00	0	61	0	753926144	44	4033
2026-01-15 12:13:00.82	334.80	47.83	-36.1	-37.5	17.9	0.00e+00	0	61	0	759169024	44	4088
2026-01-15 12:13:01.83	334.89	47.51	-36.2	-37.6	17.8	0.00e+00	0	61	0	764411904	44	4144
2026-01-15 12:13:02.84	334.98	47.20	-36.3	-37.7	17.7	0.00e+00	0	61	0	770703360	44	4172
2026-01-15 12:13:03.84	335.07	46.88	-36.4	-37.8	17.6	0.00e+00	0	61	0	775946240	44	4209
2026-01-15 12:13:04.85	335.16	46.57	-36.3	-37.7	17.6	0.00e+00	0	61	0	782237696	44	4185
2026-01-15 12:13:05.86	335.25	46.26	-36.3	-37.7	17.7	0.00e+00	0	61	0	787480576	44	4179
2026-01-15 12:13:06.87	335.33	45.95	-36.2	-37.6	17.8	0.00e+00	0	61	0	792723456	44	4134
2026-01-15 12:13:07.88	335.41	45.65	-36.2	-37.6	17.8	0.00e+00	0	61	0	799014912	44	4114
2026-01-15 12:13:08.89	335.50	45.34	-36.2	-37.6	17.8	0.00e+00	0	61	0	804257792	44	4101
2026-01-15 12:13:09.90	335.57	45.04	-36.1	-37.4	18.0	0.00e+00	0	61	0	810549248	44	4045
2026-01-15 12:13:10.90	335.65	44.75	-36.0	-37.3	18.0	0.00e+00	0	61	0	815792128	44	4004
2026-01-15 12:13:11.91	335.73	44.45	-35.8	-37.2	18.0	0.00e+00	0	61	0	821035008	43	4158
2026-01-15 12:13:12.92	335.81	44.15	-35.7	-37.0	18.2	0.00e+00	0	61	0	827326464	43	4062
2026-01-15 12:13:13.93	335.88	43.86	-35.6	-36.9	18.3	0.00e+00	0	61	0	832569344	43	4028
2026-01-15 12:13:14.94	335.95	43.57	-35.6	-36.9	18.3	0.00e+00	0	61	0	838860800	43	4030
2026-01-15 12:13:15.95	336.02	43.28	-35.6	-36.9	18.2	0.00e+00	0	61	0	844103680	43	4048
2026-01-15 12:13:16.96	336.10	43.00	-35.7	-37.0	18.2	0.00e+00	0	61	0	850395136	43	4086
2026-01-15 12:13:17.97	336.16	42.71	-35.7	-37.1	18.1	0.00e+00	0	61	0	855638016	43	4107
2026-01-15 12:13:18.98	336.23	42.43	-35.8	-37.2	18.0	0.00e+00	0	61	0	860880896	43	4155
2026-01-15 12:13:19.99	336.30	42.15	-35.8	-37.2	18.0	0.00e+00	0	61	0	867172352	43	4166
2026-01-15 12:13:21.00	336.37	41.87	-35.8	-37.2	18.0	0.00e+00	0	61	0	872415232	43	4159
2026-01-15 12:13:22.00	336.43	41.60	-35.8	-37.2	18.0	0.00e+00	0	61	0	878706688	43	4150
2026-01-15 12:13:23.01	336.49	41.32	-35.7	-37.0	18.1	0.00e+00	0	61	0	883949568	43	4086
2026-01-15 12:13:24.02	336.56	41.05	-35.6	-37.0	18.2	0.00e+00	0	61	0	889192448	43	4060
2026-01-15 12:13:25.03	336.62	40.78	-35.6	-37.0	18.2	0.00e+00	0	61	0	895483904	43	4056
2026-01-15 12:13:26.04	336.68	40.52	-35.6	-36.9	18.2	0.00e+00	0	61	0	900726784	43	4048
2026-01-15 12:13:27.04	336.74	40.25	-35.6	-37.0	18.2	0.00e+00	0	61	0	907018240	43	4063
2026-01-15 12:13:28.05	336.80	39.99	-35.6	-37.0	18.2	0.00e+00	0	61	0	912261120	43	4063
2026-01-15 12:13:29.06	336.86	39.73	-35.7	-37.0	18.1	0.00e+00	0	61	0	917504000	43	4082
2026-01-15 12:13:30.07	336.92	39.47	-35.6	-36.9	18.2	0.00e+00	0	61	0	923795456	43	4043
2026-01-15 12:13:31.08	336.97	39.21	-35.5	-36.9	18.3	0.00e+00	0	61	0	929038336	43	4014
2026-01-15 12:13:32.09	337.03	38.95	-35.5	-36.8	18.4	0.00e+00	0	61	0	935329792	43	3980
2026-01-15 12:13:33.09	337.08	38.70	-35.5	-36.8	18.4	0.00e+00	0	61	0	940572672	42	4200
2026-01-15 12:13:34.10	337.14	38.45	-35.5	-36.8	18.4	0.00e+00	0	61	0	946864128	42	4209
2026-01-15 12:13:35.11	337.19	38.20	-35.5	-36.8	18.4	0.00e+00	0	61	0	952107008	42	4204
2026-01-15 12:13:36.12	337.24	37.95	-35.5	-36.8	18.4	0.00e+00	0	61	0	957349888	42	4213
2026-01-15 12:13:37.13	337.29	37.70	-35.5	-36.8	18.3	0.00e+00	0	61	0	963641344	42	4217
2026-01-15 12:13:38.14	337.35	37.46	-35.5	-36.8	18.3	0.00e+00	0	61	0	968884224	42	4229
2026-01-15 12:13:39.15	337.40	37.21	-35.4	-36.8	18.4	0.00e+00	0	61	0	975175680	42	4205
2026-01-15 12:13:40.16	337.45	36.97	-35.5	-36.8	18.4	0.00e+00	0	61	0	980418560	42	4210
2026-01-15 12:13:41.17	337.50	36.73	-35.4	-36.8	18.3	0.00e+00	0	61	0	985661440	42	4196
2026-01-15 12:13:42.17	337.54	36.50	-35.5	-36.8	18.3	0.00e+00	0	61	0	991952896	42	4214
2026-01-15 12:13:43.18	337.59	36.26	-35.5	-36.8	18.3	0.00e+00	0	61	0	997195776	42	4241
2026-01-15 12:13:44.19	337.64	36.03	-35.6	-36.9	18.2	0.00e+00	0	61	0	1003487232	42	4270
2026-01-15 12:13:45.20	337.68	35.79	-35.7	-37.1	18.0	0.00e+00	0	61	0	1008730112	42	4348
2026-01-15 12:13:46.21	337.73	35.56	-35.8	-37.2	17.9	0.00e+00	0	61	0	1013972992	42	4408
2026-01-15 12:13:47.22	337.78	35.33	-35.9	-37.3	17.8	0.00e+00	0	61	0	1020264448	42	4485
2026-01-15 12:13:48.23	337.82	35.10	-36.0	-37.4	17.7	0.00e+00	0	61	0	1025507328	42	4523
2026-01-15 12:13:49.24	337.87	34.88	-36.0	-37.5	17.7	0.00e+00	0	61	0	1031798784	42	4549
2026-01-15 12:13:50.25	337.91	34.65	-36.0	-37.4	17.7	0.00e+00	0	61	0	1037041664	42	4540
2026-01-15 12:13:51.26	337.95	34.43	-35.9	-37.4	17.7	0.00e+00	0	61	0	1043333120	42	4500
2026-01-15 12:13:52.27	337.99	34.21	-35.9	-37.3	17.8	0.00e+00	0	61	0	1048576000	42	4471
2026-01-15 12:13:53.28	338.04	33.99	-35.9	-37.3	17.8	0.00e+00	0	61	0	1053818880	42	4475
2026-01-15 12:13:54.29	338.08	33.77	-35.9	-37.2	17.9	0.00e+00	0	61	0	1060110336	42	4433
2026-01-15 12:13:55.30	338.12	33.55	-35.8	-37.2	17.9	0.00e+00	0	61	0	1065353216	42	4413
2026-01-15 12:13:56.31	338.16	33.34	-35.8	-37.2	17.9	0.00e+00	0	61	0	1071644672	42	4419
2026-01-15 12:13:57.31	338.20	33.13	-35.8	-37.1	17.9	0.00e+00	0	61	0	1076887552	42	4391
2026-01-15 12:13:58.32	338.24	32.91	-35.8	-37.2	17.9	0.00e+00	0	61	0	1082130432	42	4417
2026-01-15 12:13:59.33	338.28	32.70	-35.8	-37.2	17.9	0.00e+00	0	61	0	1088421888	42	4407
2026-01-15 12:14:00.34	338.32	32.49	-35.9	-37.3	17.8	0.00e+00	0	61	0	1093664768	42	4448
2026-01-15 12:14:01.34	338.36	32.29	-35.9	-37.3	17.8	0.00e+00	0	61	0	1099956224	42	4460
2026-01-15 12:14:02.36	338.39	32.08	-36.0	-37.4	17.7	0.00e+00	0	61	0	1105199104	42	4517
2026-01-15 12:14:03.37	338.43	31.87	-36.0	-37.4	17.6	0.00e+00	0	61	0	1110441984	42	4527
2026-01-15 12:14:04.38	338.47	31.67	-36.1	-37.5	17.6	0.00e+00	0	61	0	1116733440	42	4563
2026-01-15 12:14:05.39	338.51	31.47	-36.1	-37.5	17.5	0.00e+00	0	61	0	1121976320	42	4595
2026-01-15 12:14:06.40	338.54	31.27	-36.1	-37.6	17.5	0.00e+00	0	61	0	1128267776	42	4606
2026-01-15 12:14:07.41	338.58	31.07	-36.2	-37.6	17.5	0.00e+00	0	61	0	1133510656	42	4621
2026-01-15 12:14:08.42	338.61	30.87	-36.2	-37.6	17.4	0.00e+00	0	61	0	1139802112	42	4632
2026-01-15 12:14:09.43	338.65	30.67	-36.2	-37.6	17.4	0.00e+00	0	61	0	1145044992	42	4627
2026-01-15 12:14:10.44	338.68	30.48	-36.1	-37.6	17.4	0.00e+00	0	61	0	1151336448	42	4618
2026-01-15 12:14:11.45	338.72	30.28	-36.1	-37.6	17.5	0.00e+00	0	61	0	1156579328	42	4606
2026-01-15 12:14:12.46	338.75	30.09	-36.1	-37.5	17.5	0.00e+00	0	61	0	1161822208	42	4590
2026-01-15 12:14:13.47	338.78	29.90	-36.1	-37.5	17.5	0.00e+00	0	61	0	1168113664	42	4574
2026-01-15 12:14:14.48	338.82	29.71	-36.1	-37.5	17.5	0.00e+00	0	61	0	1173356544	42	4564
2026-01-15 12:14:15.49	338.85	29.52	-36.0	-37.4	17.6	0.00e+00	0	61	0	1179648000	42	4521
2026-01-15 12:14:16.50	338.88	29.33	-36.0	-37.4	17.6	0.00e+00	0	61	0	1184890880	42	4522
2026-01-15 12:14:17.51	338.91	29.14	-36.0	-37.4	17.6	0.00e+00	0	61	0	1190133760	42	4510
2026-01-15 12:14:18.52	338.95	28.96	-35.9	-37.3	17.6	0.00e+00	0	61	0	1196425216	42	4491
2026-01-15 12:14:19.53	338.98	28.77	-35.9	-37.3	17.6	0.00e+00	0	61	0	1201668096	42	4483
2026-01-15 12:14:20.54	339.01	28.59	-35.9	-37.3	17.6	0.00e+00	0	61	0	1207959552	42	4488
2026-01-15 12:14:21.55	339.04	28.41	-35.9	-37.3	17.6	0.00e+00	0	61	0	1213202432	42	4487
2026-01-15 12:14:22.56	339.07	28.23	-35.9	-37.3	17.6	0.00e+00	0	61	0	1218445312	42	4485
2026-01-15 12:14:23.57	339.10	28.05	-35.9	-37.3	17.6	0.00e+00	0	61	0	1224736768	42	4490
2026-01-15 12:14:24.58	339.13	27.87	-35.9	-37.4	17.6	0.00e+00	0	61	0	1229979648	42	4494
2026-01-15 12:14:25.58	339.16	27.69	-35.9	-37.4	17.6	0.00e+00	0	61	0	1236271104	42	4501
2026-01-15 12:14:26.60	339.19	27.52	-35.9	-37.3	17.6	0.00e+00	0	61	0	1241513984	42	4483
2026-01-15 12:14:27.61	339.22	27.34	-35.9	-37.3	17.6	0.00e+00	0	61	0	1247805440	42	4481
2026-01-15 12:14:28.62	339.25	27.17	-35.9	-37.3	17.6	0.00e+00	0	61	0	1253048320	42	4456
2026-01-15 12:14:29.63	339.28	26.99	-35.8	-37.3	17.6	0.00e+00	0	61	0	1258291200	42	4449
2026-01-15 12:14:30.64	339.31	26.82	-35.8	-37.2	17.7	0.00e+00	0	61	0	1264582656	42	4416
2026-01-15 12:14:31.64	339.33	26.65	-35.8	-37.2	17.6	0.00e+00	0	61	0	1269825536	42	4417
2026-01-15 12:14:32.65	339.36	26.48	-35.8	-37.2	17.6	0.00e+00	0	61	0	1276116992	42	4422
2026-01-15 12:14:33.66	339.39	26.32	-35.8	-37.2	17.6	0.00e+00	0	61	0	1281359872	42	4404
2026-01-15 12:14:34.67	339.42	26.15	-35.8	-37.2	17.6	0.00e+00	0	61	0	1286602752	42	4395
2026-01-15 12:14:35.68	339.44	25.98	-35.8	-37.2	17.6	0.00e+00	0	61	0	1292894208	42	4402
2026-01-15 12:14:36.69	339.47	25.82	-35.8	-37.2	17.6	0.00e+00	0	61	0	1298137088	42	4408
2026-01-15 12:14:37.70	339.50	25.65	-35.9	-37.3	17.5	0.00e+00	0	61	0	1304428544	42	4450
2026-01-15 12:14:38.70	339.52	25.49	-35.9	-37.3	17.4	0.00e+00	0	61	0	1309671424	42	4454
2026-01-15 12:14:39.71	339.55	25.33	-35.9	-37.3	17.4	0.00e+00	0	61	0	1314914304	42	4479
2026-01-15 12:14:40.72	339.58	25.17	-36.0	-37.4	17.3	0.00e+00	0	61	0	1321205760	42	4527
2026-01-15 12:14:41.73	339.60	25.01	-36.0	-37.4	17.2	0.00e+00	0	61	0	1326448640	42	4537
2026-01-15 12:14:42.73	339.63	24.85	-36.1	-37.6	17.1	0.00e+00	0	61	0	1332740096	42	4617
2026-01-15 12:14:43.74	339.65	24.69	-36.1	-37.6	17.0	0.00e+00	0	61	0	1337982976	42	4638
2026-01-15 12:14:44.75	339.68	24.53	-36.2	-37.7	16.9	0.00e+00	0	61	0	1344274432	43	4395
2026-01-15 12:14:45.76	339.70	24.38	-36.3	-37.8	16.8	0.00e+00	0	61	0	1349517312	43	4471
2026-01-15 12:14:46.77	339.73	24.22	-36.3	-37.8	16.7	0.00e+00	0	61	0	1354760192	43	4490
2026-01-15 12:14:47.78	339.75	24.07	-36.4	-38.0	16.5	0.00e+00	0	61	0	1361051648	43	4552
2026-01-15 12:14:48.79	339.78	23.91	-36.5	-38.2	16.3	0.00e+00	0	61	0	1366294528	43	4660
2026-01-15 12:14:49.80	339.80	23.76	-36.6	-38.2	16.3	0.00e+00	0	61	0	1372585984	43	4673
2026-01-15 12:14:50.81	339.82	23.61	-36.6	-38.3	16.2	0.00e+00	0	61	0	1377828864	43	4718
2026-01-15 12:14:51.83	339.85	23.46	-36.9	-38.5	16.1	0.00e+00	0	61	0	1383071744	44	4593
2026-01-15 12:14:52.83	339.87	23.31	-36.8	-38.4	16.2	0.00e+00	0	61	0	1389363200	44	4530
2026-01-15 12:14:53.84	339.89	23.16	-37.0	-38.7	15.8	0.00e+00	0	61	0	1394606080	44	4657
2026-01-15 12:14:54.85	339.92	23.01	-36.6	-38.3	16.2	0.00e+00	0	61	0	1400897536	44	4450
2026-01-15 12:14:55.85	339.94	22.86	-36.6	-38.3	16.2	0.00e+00	0	61	0	1406140416	44	4447
2026-01-15 12:14:56.86	339.96	22.72	-37.0	-38.7	15.7	0.00e+00	0	61	0	1411383296	44	4669
2026-01-15 12:14:57.87	339.99	22.57	-36.8	-38.5	15.8	0.00e+00	0	61	0	1417674752	44	4595
2026-01-15 12:14:58.88	340.01	22.43	-36.4	-38.0	16.2	0.00e+00	0	61	0	1422917632	44	4327
2026-01-15 12:14:59.88	340.03	22.28	-36.5	-38.2	15.9	0.00e+00	0	61	0	1429209088	44	4398
2026-01-15 12:15:00.86	340.05	22.14	-37.0	-38.8	15.1	0.00e+00	0	61	0	1434451968	44	4736
2026-01-15 12:15:01.87	340.07	22.00	-37.2	-39.1	14.7	0.00e+00	0	61	0	1439694848	44	4908
2026-01-15 12:15:02.88	340.10	21.86	-36.9	-38.8	15.0	0.00e+00	0	61	0	1445986304	44	4709
2026-01-15 12:15:03.89	340.12	21.72	-36.6	-38.4	15.4	0.00e+00	0	61	0	1451229184	44	4525
2026-01-15 12:15:04.90	340.14	21.58	-36.5	-38.3	15.3	0.00e+00	0	61	0	1457520640	44	4471
2026-01-15 12:15:05.91	340.16	21.44	-36.4	-38.1	15.4	0.00e+00	0	61	0	1462763520	44	4365
2026-01-15 12:15:06.92	340.18	21.30	-36.3	-38.1	15.4	0.00e+00	0	61	0	1468006400	44	4350
2026-01-15 12:15:07.93	340.20	21.16	-36.2	-38.0	15.4	0.00e+00	0	61	0	1474297856	44	4328
2026-01-15 12:15:08.94	340.22	21.02	-36.4	-38.3	15.0	0.00e+00	0	61	0	1479540736	44	4446
2026-01-15 12:15:09.95	340.24	20.89	-36.8	-38.7	14.4	2.20e-06	0	61	0	1485832192	44	4702
2026-01-15 12:15:10.96	340.26	20.75	-37.4	-39.6	13.4	4.50e-06	0	61	0	1491075072	45	4916
2026-01-15 12:15:11.97	340.28	20.62	-38.0	-40.7	12.3	9.84e-05	0	61	0	1496317952	46	5225
2026-01-15 12:15:12.98	340.30	20.48	-38.9	-42.1	10.7	1.94e-03	0	61	0	1502609408	48	5501
2026-01-15 12:15:13.99	340.32	20.35	-39.7	-43.7	8.9	2.67e-02	0	61	0	1507852288	49	6237
2026-01-15 12:15:15.00	340.34	20.22	-40.4	-45.5	6.9	1.29e-01	0	61	0	1514143744	51	6862
2026-01-15 12:15:16.01	340.36	20.08	-40.8	-47.5	5.3	4.36e-01	0	61	0	1518338048	52	8127
2026-01-15 12:15:17.02	340.38	19.95	-41.1	-49.2	4.4	8.19e-01	0	61	0	1519386624	52	9916
2026-01-15 12:15:18.03	340.40	19.82	-41.3	-50.9	3.9	8.41e-01	0	61	104	1519386624	53	11320
2026-01-15 12:15:19.04	340.42	19.69	-41.3	-51.8	3.8	8.45e-01	0	61	104	1519386624	53	12624
2026-01-15 12:15:20.05	340.44	19.56	-41.4	-52.5	3.8	8.48e-01	0	61	104	1519386624	53	13639
2026-01-15 12:15:21.06	340.46	19.43	-41.4	-52.6	3.8	8.47e-01	0	61	104	1519386624	53	13842
2026-01-15 12:15:22.07	340.48	19.30	-41.4	-52.8	3.8	8.47e-01	0	61	104	1519386624	53	14052
2026-01-15 12:15:23.08	340.50	19.18	-41.4	-52.7	3.8	8.47e-01	0	61	104	1519386624	53	13917
2026-01-15 12:15:24.09	340.52	19.05	-41.4	-52.9	3.8	8.45e-01	0	61	104	1519386624	53	14212
2026-01-15 12:15:25.10	340.54	18.92	-41.4	-53.0	3.8	8.46e-01	0	61	104	1519386624	53	14396
2026-01-15 12:15:26.11	340.56	18.80	-41.3	-52.9	3.8	8.46e-01	0	61	104	1519386624	53	14326
2026-01-15 12:15:27.12	340.57	18.67	-41.3	-52.8	3.8	8.47e-01	0	61	104	1519386624	53	14085
2026-01-15 12:15:28.13	340.59	18.55	-41.4	-52.9	3.8	8.46e-01	0	61	104	1519386624	53	14319
2026-01-15 12:15:29.14	340.61	18.43	-41.0	-52.5	3.8	8.47e-01	0	61	104	1519386624	53	13671
2026-01-15 12:15:30.15	340.63	18.30	-41.4	-52.2	3.8	8.45e-01	0	61	104	1519386624	53	13248
2026-01-15 12:15:31.16	340.65	18.18	-40.8	-51.9	3.8	8.47e-01	0	61	104	1519386624	53	12742
2026-01-15 12:15:32.17	340.67	18.06	-41.1	-52.5	3.8	8.46e-01	0	61	104	1519386624	53	13700
2026-01-15 12:15:33.18	340.68	17.94	-41.1	-52.6	3.8	8.46e-01	0	61	104	1519386624	53	13878
2026-01-15 12:15:34.18	340.70	17.82	-41.1	-52.6	3.8	8.46e-01	0	61	104	1519386624	53	13829
2026-01-15 12:15:35.19	340.72	17.70	-41.1	-52.5	3.8	8.46e-01	0	61	104	1519386624	53	13654
2026-01-15 12:15:36.20	340.74	17.58	-40.6	-52.3	3.8	8.47e-01	0	61	104	1519386624	53	13327
2026-01-15 12:15:37.21	340.75	17.46	-41.2	-52.8	3.8	8.45e-01	0	61	104	1519386624	53	14063
2026-01-15 12:15:38.22	340.77	17.34	-41.2	-52.3	3.8	8.47e-01	0	61	104	1519386624	53	13414
2026-01-15 12:15:39.23	340.79	17.22	-40.6	-52.3	3.8	8.46e-01	0	61	104	1519386624	53	13386
2026-01-15 12:15:40.24	340.80	17.11	-41.0	-52.6	3.8	8.46e-01	0	61	104	1519386624	53	13751
2026-01-15 12:15:41.25	340.82	16.99	-40.4	-52.2	3.8	8.46e-01	0	61	104	1519386624	52	13931
2026-01-15 12:15:42.26	340.84	16.87	-40.5	-52.4	3.8	8.45e-01	0	61	104	1519386624	52	14292
2026-01-15 12:15:43.27	340.85	16.76	-41.1	-52.7	3.8	8.46e-01	0	61	104	1519386624	52	14718
2026-01-15 12:15:44.28	340.87	16.64	-40.5	-52.4	3.8	8.46e-01	0	61	104	1519386624	52	14365
2026-01-15 12:15:45.29	340.89	16.53	-41.0	-52.6	3.8	8.46e-01	0	61	104	1519386624	52	14690
2026-01-15 12:15:46.30	340.90	16.42	-40.8	-52.6	3.8	8.47e-01	0	61	104	1519386624	52	14644
2026-01-15 12:15:47.31	340.92	16.30	-40.4	-52.3	3.8	8.46e-01	0	61	104	1519386624	52	14123
2026-01-15 12:15:48.32	340.94	16.19	-40.7	-52.7	3.8	8.45e-01	0	61	104	1519386624	52	14735
2026-01-15 12:15:49.33	340.95	16.08	-40.5	-52.3	3.8	8.45e-01	0	61	104	1519386624	52	14158
2026-01-15 12:15:50.34	340.97	15.96	-40.4	-52.4	3.8	8.46e-01	0	61	104	1519386624	52	14256
2026-01-15 12:15:51.35	340.99	15.85	-40.5	-52.5	3.8	8.46e-01	0	61	104	1519386624	52	14486
2026-01-15 12:15:52.36	341.00	15.74	-40.5	-52.3	3.8	8.45e-01	0	61	104	1519386624	52	14120
2026-01-15 12:15:53.37	341.02	15.63	-40.6	-52.6	3.8	8.45e-01	0	61	104	1519386624	52	14553
2026-01-15 12:15:54.38	341.03	15.52	-40.5	-52.6	3.8	8.46e-01	0	61	104	1519386624	52	14585
2026-01-15 12:15:55.39	341.05	15.41	-40.5	-52.3	3.8	8.46e-01	0	61	104	1519386624	52	14121
2026-01-15 12:15:56.40	341.06	15.30	-40.5	-52.5	3.8	8.47e-01	0	61	104	1519386624	52	14465
2026-01-15 12:15:57.41	341.08	15.20	-40.5	-52.1	3.8	8.46e-01	0	61	104	1519386624	52	13862
2026-01-15 12:15:58.42	341.10	15.09	-40.5	-52.3	3.8	8.45e-01	0	61	104	1519386624	52	14082
2026-01-15 12:15:59.42	341.11	14.98	-40.4	-52.4	3.8	8.45e-01	0	61	104	1519386624	52	14234
2026-01-15 12:16:00.43	341.13	14.88	-40.6	-52.3	3.8	8.45e-01	0	61	104	1519386624	52	14133
2026-01-15 12:16:01.45	341.14	14.77	-40.4	-52.5	3.8	8.46e-01	0	61	104	1519386624	52	14445
2026-01-15 12:16:02.46	341.16	14.66	-40.6	-52.3	3.8	8.47e-01	0	61	104	1519386624	52	14197
2026-01-15 12:16:03.47	341.17	14.56	-40.5	-52.3	3.8	8.47e-01	0	61	104	1519386624	52	14050
2026-01-15 12:16:04.48	341.19	14.45	-40.6	-52.4	3.8	8.46e-01	0	61	104	1519386624	52	14295
2026-01-15 12:16:05.49	341.20	14.35	-40.6	-52.3	3.8	8.46e-01	0	61	104	1519386624	52	14058
2026-01-15 12:16:06.50	341.22	14.24	-40.6	-52.3	3.8	8.46e-01	0	61	104	1519386624	52	14201
2026-01-15 12:16:07.51	341.23	14.14	-40.6	-52.4	3.8	8.46e-01	0	61	104	1519386624	52	14230
2026-01-15 12:16:08.52	341.25	14.04	-40.6	-52.3	3.8	8.47e-01	0	61	104	1519386624	52	14182
2026-01-15 12:16:09.53	341.26	13.93	-40.7	-52.5	3.8	8.45e-01	0	61	104	1519386624	52	14417
2026-01-15 12:16:10.54	341.27	13.83	-40.6	-52.3	3.8	8.46e-01	0	61	104	1519386624	52	14145
2026-01-15 12:16:11.55	341.29	13.73	-40.6	-52.3	3.8	8.47e-01	0	61	104	1519386624	52	14155
2026-01-15 12:16:12.56	341.30	13.63	-40.5	-52.3	3.8	8.47e-01	0	61	104	1519386624	52	14060
2026-01-15 12:16:13.57	341.32	13.53	-40.2	-52.1	3.8	8.47e-01	0	61	104	1519386624	52	13727
2026-01-15 12:16:14.58	341.33	13.43	-40.4	-52.2	3.8	8.47e-01	0	61	104	1519386624	52	13988
2026-01-15 12:16:15.59	341.35	13.33	-40.4	-52.1	3.8	8.45e-01	0	61	104	1519386624	52	13820
2026-01-15 12:16:16.59	341.36	13.23	-40.4	-52.2	3.8	8.46e-01	0	61	104	1519386624	52	14016
2026-01-15 12:16:17.60	341.37	13.13	-40.7	-52.4	3.8	8.46e-01	0	61	104	1519386624	52	14325
2026-01-15 12:16:18.62	341.39	13.03	-40.3	-52.1	3.8	8.45e-01	0	61	104	1519386624	52	13797
2026-01-15 12:16:19.62	341.40	12.93	-40.5	-52.2	3.8	8.47e-01	0	61	104	1519386624	52	13957
2026-01-15 12:16:20.64	341.42	12.83	-40.2	-52.0	3.8	8.46e-01	0	61	104	1519386624	52	13719
2026-01-15 12:16:21.65	341.43	12.73	-40.4	-52.1	3.8	8.47e-01	0	61	104	1519386624	52	13798
2026-01-15 12:16:22.66	341.44	12.64	-40.3	-52.1	3.8	8.47e-01	0	61	104	1519386624	52	13843
2026-01-15 12:16:23.67	341.46	12.54	-40.5	-52.1	3.8	8.46e-01	0	61	104	1519386624	52	13879
2026-01-15 12:16:24.67	341.47	12.44	-40.4	-52.1	3.8	8.46e-01	0	61	104	1519386624	52	13851
2026-01-15 12:16:25.68	341.48	12.35	-40.7	-52.3	3.8	8.46e-01	0	61	104	1519386624	52	14175
2026-01-15 12:16:26.69	341.50	12.25	-40.3	-52.1	3.8	8.47e-01	0	61	104	1519386624	52	13803
2026-01-15 12:16:27.70	341.51	12.16	-40.6	-52.3	3.8	8.46e-01	0	62	104	1519386624	52	14103
2026-01-15 12:16:28.71	341.52	12.06	-40.4	-52.1	3.8	8.46e-01	0	61	104	1519386624	52	13791
2026-01-15 12:16:29.72	341.54	11.97	-40.3	-52.0	3.8	8.47e-01	0	61	104	1519386624	52	13691
2026-01-15 12:16:30.73	341.55	11.87	-40.4	-52.1	3.8	8.46e-01	0	61	104	1519386624	52	13805
2026-01-15 12:16:31.74	341.56	11.78	-40.2	-52.0	3.8	8.45e-01	0	61	104	1519386624	52	13623
2026-01-15 12:16:32.75	341.58	11.68	-40.4	-52.1	3.8	8.46e-01	0	61	104	1519386624	52	13804
2026-01-15 12:16:33.76	341.59	11.59	-40.5	-52.3	3.8	8.47e-01	0	61	104	1519386624	52	14149
2026-01-15 12:16:34.77	341.60	11.50	-40.5	-52.1	3.8	8.47e-01	0	61	104	1519386624	52	13812
2026-01-15 12:16:35.78	341.62	11.40	-40.4	-52.2	3.8	8.46e-01	0	61	104	1519386624	52	13918
2026-01-15 12:16:36.79	341.63	11.31	-40.5	-52.1	3.8	8.45e-01	0	61	104	1519386624	52	13857
2026-01-15 12:16:37.80	341.64	11.22	-40.2	-51.9	3.8	8.45e-01	0	61	104	1519386624	52	13526
2026-01-15 12:16:38.80	341.65	11.13	-40.4	-52.1	3.8	8.47e-01	0	61	104	1519386624	52	13774
2026-01-15 12:16:39.81	341.67	11.04	-40.2	-51.9	3.8	8.46e-01	0	61	104	1519386624	52	13569
2026-01-15 12:16:40.82	341.68	10.95	-40.4	-52.1	3.8	8.46e-01	0	61	104	1519386624	52	13766
2026-01-15 12:16:41.83	341.69	10.86	-40.4	-52.2	3.8	8.46e-01	0	61	104	1519386624	52	13997
2026-01-15 12:16:42.84	341.70	10.77	-40.4	-52.0	3.8	8.47e-01	0	61	104	1519386624	52	13724
2026-01-15 12:16:43.85	341.72	10.68	-40.5	-52.2	3.8	8.46e-01	0	61	104	1519386624	52	13911
2026-01-15 12:16:44.86	341.73	10.59	-40.4	-52.0	3.8	8.46e-01	0	61	104	1519386624	52	13612
2026-01-15 12:16:45.87	341.74	10.50	-40.3	-52.0	3.8	8.46e-01	0	61	104	1519386624	52	13620
2026-01-15 12:16:46.88	341.75	10.41	-40.3	-52.0	3.8	8.45e-01	0	61	104	1519386624	52	13655
2026-01-15 12:16:47.89	341.77	10.32	-40.3	-52.0	3.8	8.47e-01	0	61	104	1519386624	52	13576
2026-01-15 12:16:48.90	341.78	10.23	-40.2	-52.0	3.8	8.46e-01	0	61	104	1519386624	52	13656
2026-01-15 12:16:49.91	341.79	10.14	-40.5	-52.2	3.8	8.47e-01	0	61	104	1519386624	52	13940
2026-01-15 12:16:50.92	341.80	10.06	-40.3	-52.0	3.8	8.46e-01	0	61	104	1519386624	52	13588
2026-01-15 12:16:51.93	341.82	9.97	-40.5	-52.1	3.8	8.47e-01	0	61	104	1519386624	52	13861
2026-01-15 12:16:52.94	341.83	9.88	-40.4	-52.0	3.8	8.46e-01	0	61	104	1519386624	52	13691
2026-01-15 12:16:53.95	341.84	9.80	-40.3	-51.9	3.8	8.45e-01	0	61	104	1519386624	52	13493
2026-01-15 12:16:54.96	341.85	9.71	-40.2	-51.9	3.8	8.46e-01	0	61	104	1519386624	52	13544
2026-01-15 12:16:55.97	341.86	9.62	-40.3	-51.8	3.8	8.48e-01	0	61	104	1519386624	52	13414
2026-01-15 12:16:56.98	341.88	9.54	-40.2	-51.9	3.8	8.46e-01	0	61	104	1519386624	52	13531
2026-01-15 12:16:57.99	341.89	9.45	-40.5	-52.1	3.8	8.47e-01	0	61	104	1519386624	52	13765
2026-01-15 12:16:59.00	341.90	9.37	-40.6	-52.1	3.8	8.47e-01	0	61	104	1519386624	52	13870
2026-01-15 12:17:00.01	341.91	9.28	-40.5	-52.1	3.8	8.46e-01	0	61	104	1519386624	52	13811
2026-01-15 12:17:01.01	341.92	9.20	-40.5	-52.1	3.8	8.45e-01	0	61	104	1519386624	52	13861
2026-01-15 12:17:02.02	341.93	9.11	-40.3	-51.9	3.8	8.47e-01	0	61	104	1519386624	52	13549
2026-01-15 12:17:03.03	341.95	9.03	-40.3	-52.0	3.8	8.46e-01	0	61	104	1519386624	52	13601
2026-01-15 12:17:04.04	341.96	8.95	-40.3	-51.9	3.8	8.46e-01	0	61	104	1519386624	52	13557
2026-01-15 12:17:05.05	341.97	8.86	-40.3	-52.0	3.8	8.46e-01	0	61	104	1519386624	52	13611
2026-01-15 12:17:06.06	341.98	8.78	-40.5	-52.1	3.8	8.46e-01	0	61	104	1519386624	52	13877
2026-01-15 12:17:07.07	341.99	8.70	-40.5	-52.0	3.8	8.46e-01	0	61	104	1519386624	52	13657
2026-01-15 12:17:08.08	342.00	8.61	-40.5	-52.1	3.8	8.46e-01	0	61	104	1519386624	52	13841
2026-01-15 12:17:09.09	342.02	8.53	-40.4	-52.0	3.8	8.46e-01	0	61	104	1519386624	52	13629
2026-01-15 12:17:10.10	342.03	8.45	-40.3	-51.9	3.8	8.46e-01	0	61	104	1519386624	52	13568
2026-01-15 12:17:11.11	342.04	8.37	-40.3	-51.9	3.8	8.47e-01	0	61	104	1519386624	52	13564
2026-01-15 12:17:12.12	342.05	8.29	-40.4	-52.0	3.8	8.45e-01	0	61	104	1519386624	52	13586
2026-01-15 12:17:13.13	342.06	8.20	-40.3	-51.9	3.8	8.45e-01	0	61	104	1519386624	52	13513
2026-01-15 12:17:14.14	342.07	8.12	-40.5	-52.0	3.8	8.46e-01	0	61	104	1519386624	52	13705
2026-01-15 12:17:15.15	342.08	8.04	-40.4	-51.9	3.8	8.47e-01	0	61	104	1519386624	52	13541
2026-01-15 12:17:16.16	342.09	7.96	-40.4	-52.2	3.8	8.45e-01	0	61	104	1519386624	52	13937
2026-01-15 12:17:17.17	342.11	7.88	-41.3	-53.0	3.8	8.46e-01	0	61	104	1519386624	53	14451
2026-01-15 12:17:18.18	342.12	7.80	-44.0	-55.4	3.8	8.47e-01	0	61	104	1519386624	58	14224
2026-01-15 12:17:19.19	342.13	7.72	-44.8	-56.5	3.8	8.46e-01	0	61	104	1519386624	60	14512
2026-01-15 12:17:20.20	342.14	7.64	-45.0	-56.7	3.8	8.46e-01	0	61	104	1519386624	60	14820
2026-01-15 12:17:21.21	342.15	7.56	-45.1	-56.8	3.8	8.45e-01	0	61	104	1519386624	60	14979
2026-01-15 12:17:22.22	342.16	7.48	-45.2	-56.9	3.8	8.46e-01	0	61	104	1519386624	60	15112
2026-01-15 12:17:23.23	342.17	7.40	-45.2	-56.9	3.8	8.46e-01	0	61	104	1519386624	61	14309
2026-01-15 12:17:24.24	342.18	7.33	-45.3	-56.9	3.8	8.46e-01	0	61	104	1519386624	61	14349
2026-01-15 12:17:25.25	342.19	7.25	-45.2	-56.9	3.8	8.46e-01	0	61	104	1519386624	61	14293
2026-01-15 12:17:26.26	342.20	7.17	-45.2	-56.9	3.8	8.46e-01	0	61	104	1519386624	61	14313
2026-01-15 12:17:27.27	342.21	7.09	-45.2	-56.8	3.8	8.47e-01	0	61	104	1519386624	61	14207
2026-01-15 12:17:28.28	342.22	7.01	-45.1	-56.9	3.8	8.46e-01	0	61	104	1519386624	61	14240
2026-01-15 12:17:29.29	342.24	6.94	-45.2	-56.8	3.8	8.46e-01	0	61	104	1519386624	61	14184
2026-01-15 12:17:30.30	342.25	6.86	-45.2	-56.8	3.8	8.47e-01	0	61	104	1519386624	61	14180
2026-01-15 12:17:31.31	342.26	6.78	-45.1	-56.8	3.8	8.46e-01	0	61	104	1519386624	61	14058
2026-01-15 12:17:32.32	342.27	6.71	-45.1	-56.7	3.8	8.47e-01	0	61	104	1519386624	61	14045
2026-01-15 12:17:33.33	342.28	6.63	-45.1	-56.7	3.8	8.45e-01	0	61	104	1519386624	61	14024
2026-01-15 12:17:34.34	342.29	6.55	-45.1	-56.7	3.8	8.47e-01	0	61	104	1519386624	61	14030
2026-01-15 12:17:35.35	342.30	6.48	-45.0	-56.7	3.8	8.46e-01	0	61	104	1519386624	61	14016
2026-01-15 12:17:36.36	342.31	6.40	-45.1	-56.8	3.8	8.47e-01	0	61	104	1519386624	61	14080
2026-01-15 12:17:37.36	342.32	6.33	-45.1	-56.7	3.8	8.46e-01	0	61	104	1519386624	61	14039
2026-01-15 12:17:38.37	342.33	6.25	-45.1	-56.8	3.8	8.44e-01	0	61	104	1519386624	61	14069
2026-01-15 12:17:39.38	342.34	6.18	-45.1	-56.7	3.8	8.47e-01	0	61	104	1519386624	61	14046
2026-01-15 12:17:40.39	342.35	6.10	-45.1	-56.7	3.8	8.46e-01	0	61	104	1519386624	61	13939
2026-01-15 12:17:41.40	342.36	6.03	-45.1	-56.7	3.8	8.46e-01	0	61	104	1519386624	60	14870
2026-01-15 12:17:42.41	342.37	5.95	-45.0	-56.7	3.8	8.45e-01	0	61	104	1519386624	60	14811
2026-01-15 12:17:43.42	342.38	5.88	-45.1	-56.7	3.8	8.45e-01	0	61	104	1519386624	60	14864
2026-01-15 12:17:44.43	342.39	5.80	-45.1	-56.8	3.8	8.46e-01	0	61	104	1519386624	60	14909
2026-01-15 12:17:45.44	342.40	5.73	-45.1	-56.7	3.8	8.46e-01	0	61	104	1519386624	60	14816
2026-01-15 12:17:46.45	342.41	5.66	-45.0	-56.8	3.8	8.47e-01	0	61	104	1519386624	60	14887
2026-01-15 12:17:47.46	342.42	5.58	-45.1	-56.7	3.8	8.47e-01	0	61	104	1519386624	60	14856
2026-01-15 12:17:48.46	342.43	5.51	-45.1	-56.7	3.8	8.47e-01	0	61	104	1519386624	60	14839
2026-01-15 12:17:49.47	342.44	5.44	-45.1	-56.8	3.8	8.46e-01	0	61	104	1519386624	60	14913
2026-01-15 12:17:50.48	342.45	5.37	-45.1	-56.8	3.8	8.47e-01	0	61	104	1519386624	60	14902
2026-01-15 12:17:51.49	342.46	5.29	-45.1	-56.7	3.8	8.46e-01	0	61	104	1519386624	60	14879
2026-01-15 12:17:52.50	342.47	5.22	-45.1	-56.7	3.8	8.47e-01	0	61	104	1519386624	60	14858
2026-01-15 12:17:53.51	342.48	5.15	-45.1	-56.8	3.8	8.46e-01	0	61	104	1519386624	60	14929
2026-01-15 12:17:54.52	342.49	5.08	-45.1	-56.8	3.8	8.46e-01	0	61	104	1519386624	60	14923
2026-01-15 12:17:55.53	342.50	5.00	-45.1	-56.8	3.8	8.45e-01	0	61	104	1519386624	60	14882
2026-01-15 12:17:56.54	342.51	4.93	-45.1	-56.7	3.8	8.46e-01	0	61	104	1519386624	60	14842
2026-01-15 12:17:57.55	342.52	4.86	-45.1	-56.7	3.8	8.46e-01	0	61	104	1519386624	60	14828
2026-01-15 12:17:58.56	342.53	4.79	-45.1	-56.7	3.8	8.46e-01	0	61	104	1519386624	60	14855
2026-01-15 12:17:59.57	342.54	4.72	-44.8	-56.7	3.8	8.47e-01	0	61	104	1519386624	60	14844
2026-01-15 12:18:00.58	342.55	4.65	-45.1	-56.7	3.8	8.46e-01	0	61	104	1519386624	60	14823
2026-01-15 12:18:01.59	342.56	4.58	-45.0	-56.7	3.8	8.47e-01	0	61	104	1519386624	60	14826
2026-01-15 12:18:02.60	342.57	4.51	-45.1	-56.7	3.8	8.45e-01	0	61	104	1519386624	60	14819
2026-01-15 12:18:03.60	342.58	4.44	-44.8	-56.8	3.8	8.48e-01	0	61	104	1519386624	60	14908
2026-01-15 12:18:04.62	342.59	4.37	-45.1	-56.7	3.8	8.45e-01	0	61	104	1519386624	60	14841
2026-01-15 12:18:05.63	342.60	4.30	-45.1	-56.7	3.8	8.45e-01	0	61	104	1519386624	60	14874
2026-01-15 12:18:06.64	342.61	4.23	-45.1	-56.7	3.8	8.44e-01	0	61	104	1519386624	60	14802
2026-01-15 12:18:07.65	342.62	4.16	-45.1	-56.8	3.8	8.46e-01	0	61	104	1519386624	60	14882
2026-01-15 12:18:08.66	342.63	4.09	-44.5	-56.7	3.8	8.45e-01	0	61	104	1519386624	60	14812
2026-01-15 12:18:09.67	342.64	4.02	-45.1	-56.8	3.8	8.46e-01	0	61	104	1519386624	60	14889
2026-01-15 12:18:10.68	342.65	3.95	-45.1	-56.7	3.8	8.46e-01	0	61	104	1519386624	60	14773
2026-01-15 12:18:11.69	342.66	3.88	-44.8	-56.7	3.8	8.46e-01	0	61	104	1519386624	60	14808
2026-01-15 12:18:12.69	342.67	3.81	-45.1	-56.7	3.8	8.46e-01	0	61	104	1519386624	60	14855
2026-01-15 12:18:13.70	342.68	3.74	-45.1	-56.7	3.8	8.45e-01	0	61	104	1519386624	60	14879
2026-01-15 12:18:14.71	342.69	3.68	-45.1	-56.7	3.8	8.46e-01	0	61	104	1519386624	60	14839
2026-01-15 12:18:15.72	342.69	3.61	-45.1	-56.7	3.8	8.45e-01	0	61	104	1519386624	60	14866
2026-01-15 12:18:16.73	342.70	3.54	-45.1	-56.7	3.8	8.46e-01	0	61	104	1519386624	60	14793
2026-01-15 12:18:17.74	342.71	3.47	-45.1	-56.7	3.8	8.46e-01	0	62	104	1519386624	60	14805
2026-01-15 12:18:18.75	342.72	3.40	-45.1	-56.7	3.8	8.47e-01	0	61	104	1519386624	60	14841
2026-01-15 12:18:19.77	342.73	3.34	-45.1	-56.7	3.8	8.46e-01	0	61	104	1519386624	60	14836
2026-01-15 12:18:20.77	342.74	3.27	-45.1	-56.7	3.8	8.46e-01	0	61	104	1519386624	60	14775
2026-01-15 12:18:21.78	342.75	3.20	-45.1	-56.7	3.8	8.47e-01	0	61	104	1519386624	60	14816
2026-01-15 12:18:22.79	342.76	3.13	-45.1	-56.7	3.8	8.47e-01	0	61	104	1519386624	60	14766
2026-01-15 12:18:23.80	342.77	3.07	-45.1	-56.7	3.8	8.46e-01	0	61	104	1519386624	60	14806
2026-01-15 12:18:24.81	342.78	3.00	-45.1	-56.7	3.8	8.47e-01	0	61	104	1519386624	60	14818
2026-01-15 12:18:25.83	342.79	2.93	-45.1	-56.7	3.8	8.46e-01	0	61	104	1519386624	60	14823
2026-01-15 12:18:26.84	342.80	2.87	-45.1	-56.7	3.8	8.45e-01	0	61	104	1519386624	60	14798
2026-01-15 12:18:27.85	342.81	2.80	-45.1	-56.7	3.8	8.45e-01	0	61	104	1519386624	60	14773
2026-01-15 12:18:28.86	342.82	2.74	-45.1	-56.7	3.8	8.46e-01	0	61	104	1519386624	60	14859
2026-01-15 12:18:29.87	342.82	2.67	-45.1	-56.7	3.8	8.47e-01	0	61	104	1519386624	60	14836
2026-01-15 12:18:30.88	342.83	2.60	-45.0	-56.7	3.8	8.46e-01	0	61	104	1519386624	60	14774
2026-01-15 12:18:31.89	342.84	2.54	-45.1	-56.7	3.8	8.47e-01	0	61	104	1519386624	60	14868
2026-01-15 12:18:32.90	342.85	2.47	-45.1	-56.7	3.8	8.46e-01	0	61	104	1519386624	60	14821
2026-01-15 12:18:33.91	342.86	2.41	-45.0	-56.7	3.8	8.46e-01	0	61	104	1519386624	60	14789
2026-01-15 12:18:34.92	342.87	2.34	-45.1	-56.7	3.8	8.46e-01	0	61	104	1519386624	60	14870
2026-01-15 12:18:35.93	342.88	2.28	-45.1	-56.7	3.8	8.46e-01	0	61	104	1519386624	60	14778
2026-01-15 12:18:36.94	342.89	2.21	-44.9	-56.7	3.8	8.45e-01	0	61	104	1519386624	60	14834
2026-01-15 12:18:37.95	342.90	2.15	-45.1	-56.7	3.8	8.46e-01	0	61	104	1519386624	60	14871
2026-01-15 12:18:38.96	342.91	2.08	-45.1	-56.7	3.8	8.46e-01	0	61	104	1519386624	60	14820
2026-01-15 12:18:39.97	342.91	2.02	-45.1	-56.7	3.8	8.46e-01	0	62	104	1519386624	60	14816

#Closed at: 2026-01-15 12:18:40
#Recorded file [1519 MB]: D:/lorett/data/31039_260115_150956.dat