passes_logs/2026/01/15/R2.0S_Moscow/R2.0S_Moscow__20260115_115700_AQUA_rec.log

#Pass ID: 20260115_115700_AQUA
#Satellite: AQUA
#Configuration: AQUA
#almurnet v.1.7.20251203
#Start time: 2026-01-15 11:57:02

#Version: 2.2.20231116
#Station: R2.0S_Moscow
#Location: 37.707566 lon 55.798166 lat
#TLE: 1 27424U 02022A   26014.19338718  .00000717  00000+0  15340-3 0  9998
#TLE: 2 27424  98.4080 340.6072 0002047  79.4950 292.1093 14.61819636260772

#Time	Az	El	Level	Level2	SNR	BER	BlckErr	Temp	State	Recorded	gain1	gain2
2026-01-15 11:57:02.15	170.13	2.11	-44.3	-62.9	3.8	7.48e-01	0	51	0	0	60	30161
2026-01-15 11:57:03.15	170.14	2.17	-44.6	-63.3	3.8	7.43e-01	0	51	104	0	59	33343
2026-01-15 11:57:04.15	170.16	2.24	-44.6	-63.3	3.8	7.46e-01	0	51	104	0	59	33363
2026-01-15 11:57:05.16	170.18	2.31	-44.6	-63.3	3.8	7.46e-01	0	52	104	0	59	33415
2026-01-15 11:57:06.17	170.20	2.38	-44.6	-63.2	3.8	7.45e-01	0	52	104	0	59	33247
2026-01-15 11:57:07.19	170.22	2.45	-44.6	-63.3	3.8	7.48e-01	0	52	104	0	59	33320
2026-01-15 11:57:08.20	170.24	2.51	-44.6	-63.3	3.8	7.48e-01	0	52	104	0	59	33321
2026-01-15 11:57:09.21	170.25	2.58	-44.6	-63.2	3.8	7.49e-01	0	52	104	0	59	33200
2026-01-15 11:57:10.22	170.27	2.65	-44.6	-63.3	3.8	7.42e-01	0	52	104	0	59	33314
2026-01-15 11:57:11.23	170.29	2.72	-44.6	-63.3	3.8	7.43e-01	0	52	104	0	59	33324
2026-01-15 11:57:12.24	170.31	2.79	-44.6	-63.3	3.8	7.47e-01	0	52	104	0	59	33345
2026-01-15 11:57:13.25	170.33	2.86	-44.6	-63.3	3.8	7.46e-01	0	52	104	0	59	33338
2026-01-15 11:57:14.26	170.35	2.93	-44.6	-63.3	3.8	7.46e-01	0	52	104	0	59	33381
2026-01-15 11:57:15.27	170.37	3.00	-44.6	-63.3	3.8	7.45e-01	0	52	104	0	59	33363
2026-01-15 11:57:16.28	170.39	3.07	-44.6	-63.3	3.8	7.45e-01	0	52	104	0	59	33315
2026-01-15 11:57:17.29	170.41	3.14	-44.6	-63.3	3.8	7.47e-01	0	52	104	0	59	33367
2026-01-15 11:57:18.30	170.42	3.21	-44.6	-63.3	3.8	7.44e-01	0	53	104	0	59	33316
2026-01-15 11:57:19.31	170.44	3.28	-44.6	-63.2	3.8	7.45e-01	0	52	104	0	59	33306
2026-01-15 11:57:20.32	170.46	3.35	-44.6	-63.3	3.8	7.42e-01	0	53	104	0	59	33317
2026-01-15 11:57:21.33	170.48	3.42	-44.6	-63.2	3.8	7.45e-01	0	53	104	0	59	33236
2026-01-15 11:57:22.34	170.50	3.49	-44.6	-63.3	3.8	7.42e-01	0	53	104	0	59	33323
2026-01-15 11:57:23.35	170.52	3.56	-44.6	-63.2	3.8	7.43e-01	0	53	104	0	59	33296
2026-01-15 11:57:24.36	170.54	3.63	-44.6	-63.3	3.8	7.46e-01	0	53	104	0	59	33348
2026-01-15 11:57:25.37	170.56	3.70	-44.6	-63.2	3.8	7.47e-01	0	53	104	0	59	33271
2026-01-15 11:57:26.38	170.58	3.77	-44.6	-63.2	3.8	7.47e-01	0	53	104	0	59	33203
2026-01-15 11:57:27.39	170.60	3.85	-44.6	-63.2	3.8	7.44e-01	0	53	104	0	59	33071
2026-01-15 11:57:28.40	170.62	3.92	-44.6	-63.1	3.8	7.44e-01	0	53	104	0	59	32755
2026-01-15 11:57:29.41	170.64	3.99	-44.6	-63.1	3.8	7.47e-01	0	53	104	0	59	32584
2026-01-15 11:57:30.42	170.66	4.06	-44.6	-63.0	3.8	7.44e-01	0	53	104	0	59	32199
2026-01-15 11:57:31.43	170.68	4.14	-44.6	-62.9	3.8	7.47e-01	0	53	104	0	59	32105
2026-01-15 11:57:32.44	170.70	4.21	-44.6	-62.9	3.8	7.45e-01	0	53	104	0	59	31851
2026-01-15 11:57:33.45	170.72	4.28	-44.6	-62.8	3.8	7.45e-01	0	53	104	0	59	31541
2026-01-15 11:57:34.46	170.75	4.36	-44.6	-62.6	3.8	7.48e-01	0	53	104	0	59	30813
2026-01-15 11:57:35.47	170.77	4.43	-44.5	-62.3	3.8	7.42e-01	0	54	104	0	59	29781
2026-01-15 11:57:36.48	170.79	4.50	-44.5	-61.7	3.9	7.45e-01	0	54	104	0	59	27880
2026-01-15 11:57:37.49	170.81	4.58	-44.5	-60.7	4.0	7.40e-01	0	54	104	0	59	24900
2026-01-15 11:57:38.50	170.83	4.65	-44.5	-60.3	3.8	7.41e-01	0	54	104	0	59	23715
2026-01-15 11:57:39.51	170.85	4.73	-44.5	-59.1	4.4	7.27e-01	0	54	104	0	59	20572
2026-01-15 11:57:40.52	170.87	4.80	-44.4	-59.0	3.9	7.37e-01	0	54	104	0	59	20514
2026-01-15 11:57:41.53	170.89	4.88	-44.4	-57.8	4.9	7.08e-01	0	54	0	0	59	17812
2026-01-15 11:57:42.54	170.92	4.95	-44.4	-57.6	5.1	7.08e-01	0	54	0	0	59	17327
2026-01-15 11:57:43.55	170.94	5.03	-44.4	-57.0	5.4	6.99e-01	0	54	0	0	59	16192
2026-01-15 11:57:44.56	170.96	5.10	-44.3	-56.7	5.6	6.93e-01	17	54	0	524288	59	15678
2026-01-15 11:57:45.56	170.98	5.18	-44.3	-56.3	5.9	6.86e-01	14	54	0	1048576	59	15003
2026-01-15 11:57:46.57	171.00	5.25	-44.3	-55.8	6.2	6.78e-01	90	54	0	2621440	59	14180
2026-01-15 11:57:47.58	171.02	5.33	-44.2	-55.3	6.7	6.69e-01	92	54	0	4718592	59	13393
2026-01-15 11:57:48.59	171.05	5.41	-44.2	-55.0	7.0	6.64e-01	91	54	0	6291456	59	12817
2026-01-15 11:57:49.60	171.07	5.48	-44.2	-55.0	7.0	6.64e-01	91	54	0	8388608	59	12952
2026-01-15 11:57:50.61	171.09	5.56	-44.2	-54.9	7.0	6.63e-01	92	55	0	10485760	59	12722
2026-01-15 11:57:51.62	171.11	5.64	-44.1	-54.6	7.4	6.59e-01	92	54	0	12058624	59	12275
2026-01-15 11:57:52.63	171.14	5.72	-44.1	-54.3	7.7	6.55e-01	90	54	0	14155776	59	11840
2026-01-15 11:57:53.64	171.16	5.79	-44.1	-54.2	7.7	6.49e-01	91	55	0	15728640	59	11772
2026-01-15 11:57:54.65	171.18	5.87	-44.1	-54.4	7.5	6.54e-01	90	55	0	17825792	59	12072
2026-01-15 11:57:55.66	171.21	5.95	-44.1	-54.4	7.5	6.57e-01	92	55	0	19922944	59	12076
2026-01-15 11:57:56.67	171.23	6.03	-44.1	-54.4	7.6	6.54e-01	90	55	0	21495808	59	11958
2026-01-15 11:57:57.68	171.25	6.11	-44.1	-54.4	7.5	6.53e-01	91	55	0	23592960	59	12012
2026-01-15 11:57:58.69	171.28	6.19	-44.2	-54.8	7.2	6.63e-01	92	55	0	25165824	59	12632
2026-01-15 11:57:59.70	171.30	6.27	-44.2	-54.8	7.2	6.62e-01	92	55	0	27262976	59	12565
2026-01-15 11:58:00.71	171.32	6.35	-44.2	-55.4	6.7	6.71e-01	92	55	0	29360128	59	13464
2026-01-15 11:58:01.72	171.35	6.43	-44.2	-55.7	6.4	6.75e-01	90	55	0	30932992	59	13889
2026-01-15 11:58:02.72	171.37	6.51	-44.3	-55.9	6.2	6.76e-01	93	55	0	33030144	59	14262
2026-01-15 11:58:03.73	171.39	6.59	-44.3	-56.2	6.0	6.86e-01	91	55	0	34603008	59	14755
2026-01-15 11:58:04.74	171.42	6.67	-44.3	-56.1	6.0	6.82e-01	92	55	0	36175872	59	14597
2026-01-15 11:58:05.75	171.44	6.75	-44.3	-56.0	6.1	6.81e-01	92	55	0	37748736	59	14408
2026-01-15 11:58:06.76	171.47	6.83	-44.2	-55.3	6.7	6.70e-01	92	55	0	39845888	59	13331
2026-01-15 11:58:07.77	171.49	6.91	-44.1	-54.7	7.3	6.58e-01	92	56	0	41418752	59	12438
2026-01-15 11:58:08.78	171.52	7.00	-44.0	-53.7	8.2	6.41e-01	52	55	0	43515904	59	11035
2026-01-15 11:58:09.79	171.54	7.08	-43.9	-52.6	9.3	6.34e-01	0	55	0	45088768	59	9826
2026-01-15 11:58:10.79	171.57	7.16	-43.6	-51.4	10.6	6.20e-01	0	56	0	47185920	59	8546
2026-01-15 11:58:11.81	171.59	7.24	-43.4	-50.6	11.5	6.11e-01	0	55	0	49283072	58	8183
2026-01-15 11:58:12.81	171.62	7.33	-43.2	-49.6	12.5	6.11e-01	0	56	0	50855936	58	7336
2026-01-15 11:58:13.82	171.64	7.41	-43.0	-49.0	13.0	6.07e-01	0	56	0	52953088	58	6829
2026-01-15 11:58:14.83	171.67	7.49	-42.8	-48.3	13.8	6.07e-01	0	56	0	54525952	57	6708
2026-01-15 11:58:15.84	171.69	7.58	-42.6	-48.0	14.2	6.08e-01	0	55	0	56623104	57	6428
2026-01-15 11:58:16.85	171.72	7.66	-42.5	-47.6	14.6	6.07e-01	0	56	0	58720256	57	6143
2026-01-15 11:58:17.86	171.74	7.75	-42.3	-47.1	15.1	6.09e-01	0	56	0	60293120	56	6158
2026-01-15 11:58:18.87	171.77	7.83	-42.2	-46.9	15.3	6.08e-01	0	56	0	62390272	56	6049
2026-01-15 11:58:19.88	171.80	7.92	-42.2	-46.9	15.1	6.07e-01	0	56	0	63963136	56	6019
2026-01-15 11:58:20.89	171.82	8.00	-42.3	-47.1	15.0	6.07e-01	0	56	0	66060288	56	6201
2026-01-15 11:58:21.89	171.85	8.09	-42.8	-47.9	14.8	6.06e-01	0	56	0	68157440	56	6736
2026-01-15 11:58:22.90	171.88	8.17	-44.2	-52.4	10.1	6.27e-01	0	56	0	69730304	58	10136
2026-01-15 11:58:23.91	171.90	8.26	-44.0	-56.3	5.7	6.89e-01	41	56	0	71827456	58	15793
2026-01-15 11:58:24.92	171.93	8.35	-44.2	-56.1	6.2	6.85e-01	86	56	0	72876032	58	15432
2026-01-15 11:58:25.93	171.96	8.44	-43.0	-48.2	14.6	6.07e-01	0	56	0	74448896	56	6960
2026-01-15 11:58:26.94	171.98	8.52	-42.4	-47.0	15.6	6.07e-01	0	56	0	76546048	56	6066
2026-01-15 11:58:27.95	172.01	8.61	-42.4	-46.9	15.8	6.05e-01	0	56	0	78118912	56	6035
2026-01-15 11:58:28.96	172.04	8.70	-42.3	-46.6	16.0	6.07e-01	0	56	0	80216064	56	5829
2026-01-15 11:58:29.96	172.07	8.79	-42.3	-46.5	16.2	6.07e-01	0	56	0	82313216	56	5781
2026-01-15 11:58:30.97	172.10	8.88	-42.3	-46.5	16.2	6.08e-01	0	56	0	83886080	56	5765
2026-01-15 11:58:31.98	172.12	8.97	-42.3	-46.4	16.4	6.07e-01	0	56	0	85983232	56	5696
2026-01-15 11:58:32.99	172.15	9.06	-42.3	-46.5	16.3	6.08e-01	0	56	0	87556096	56	5779
2026-01-15 11:58:34.00	172.18	9.15	-42.3	-46.5	16.4	6.08e-01	0	56	0	89653248	56	5733
2026-01-15 11:58:35.00	172.21	9.24	-42.3	-46.5	16.3	6.06e-01	0	56	0	91750400	56	5749
2026-01-15 11:58:36.01	172.24	9.33	-42.4	-46.6	16.2	6.07e-01	0	56	0	93323264	56	5818
2026-01-15 11:58:37.02	172.27	9.42	-42.4	-46.5	16.3	6.07e-01	0	56	0	95420416	56	5754
2026-01-15 11:58:38.03	172.30	9.51	-42.3	-46.4	16.4	6.06e-01	0	56	0	97517568	56	5701
2026-01-15 11:58:39.04	172.33	9.60	-42.3	-46.4	16.5	6.08e-01	0	56	0	99090432	56	5698
2026-01-15 11:58:40.05	172.35	9.69	-42.3	-46.3	16.6	6.06e-01	0	56	0	101187584	56	5634
2026-01-15 11:58:41.06	172.38	9.79	-42.3	-46.4	16.5	6.08e-01	0	56	0	102760448	56	5665
2026-01-15 11:58:42.07	172.41	9.88	-42.3	-46.3	16.6	6.06e-01	0	56	0	104857600	56	5621
2026-01-15 11:58:43.08	172.44	9.97	-42.2	-46.2	16.8	6.06e-01	0	57	0	106954752	56	5546
2026-01-15 11:58:44.09	172.47	10.07	-42.2	-46.1	16.8	6.06e-01	0	57	0	108527616	56	5519
2026-01-15 11:58:45.10	172.51	10.16	-42.2	-46.1	16.9	6.06e-01	0	57	0	110624768	56	5498
2026-01-15 11:58:46.11	172.54	10.26	-42.2	-46.0	17.0	6.06e-01	0	57	0	112197632	56	5452
2026-01-15 11:58:47.12	172.57	10.35	-42.2	-46.1	16.9	6.05e-01	0	57	0	114294784	56	5496
2026-01-15 11:58:48.13	172.60	10.45	-42.1	-45.9	17.1	6.07e-01	0	57	0	116391936	56	5385
2026-01-15 11:58:49.13	172.63	10.54	-42.2	-46.0	17.1	6.07e-01	0	57	0	117964800	56	5405
2026-01-15 11:58:50.15	172.66	10.64	-42.2	-45.9	17.1	6.06e-01	0	56	0	120061952	56	5402
2026-01-15 11:58:51.16	172.69	10.74	-42.2	-45.9	17.2	6.09e-01	0	57	0	122159104	56	5377
2026-01-15 11:58:52.16	172.72	10.83	-42.1	-45.8	17.3	6.07e-01	0	57	0	123731968	56	5316
2026-01-15 11:58:53.17	172.76	10.93	-42.1	-45.8	17.3	6.06e-01	0	57	0	125829120	56	5295
2026-01-15 11:58:54.18	172.79	11.03	-42.1	-45.8	17.3	6.06e-01	0	57	0	127401984	56	5305
2026-01-15 11:58:55.19	172.82	11.13	-42.1	-45.7	17.4	6.08e-01	0	57	0	129499136	56	5252
2026-01-15 11:58:56.20	172.85	11.22	-42.1	-45.7	17.4	6.07e-01	0	57	0	131596288	56	5261
2026-01-15 11:58:57.21	172.89	11.32	-42.1	-45.7	17.5	6.06e-01	0	57	0	133169152	56	5227
2026-01-15 11:58:58.22	172.92	11.42	-42.0	-45.6	17.5	6.06e-01	0	57	0	135266304	56	5202
2026-01-15 11:58:59.23	172.95	11.52	-42.0	-45.5	17.6	6.06e-01	0	57	0	136839168	56	5159
2026-01-15 11:59:00.24	172.99	11.62	-42.0	-45.6	17.6	6.05e-01	0	57	0	138936320	56	5170
2026-01-15 11:59:01.24	173.02	11.72	-42.0	-45.6	17.6	6.07e-01	0	57	0	140509184	56	5191
2026-01-15 11:59:02.25	173.05	11.83	-42.0	-45.6	17.7	6.06e-01	0	57	0	142606336	56	5161
2026-01-15 11:59:03.26	173.09	11.93	-42.1	-45.6	17.6	6.07e-01	0	57	0	144703488	56	5211
2026-01-15 11:59:04.27	173.12	12.03	-42.1	-45.7	17.6	6.06e-01	0	57	0	146276352	56	5223
2026-01-15 11:59:05.28	173.16	12.13	-42.1	-45.6	17.6	6.07e-01	0	57	0	148373504	56	5190
2026-01-15 11:59:06.29	173.19	12.24	-42.1	-45.7	17.6	6.05e-01	0	57	0	150470656	56	5222
2026-01-15 11:59:07.30	173.23	12.34	-42.1	-45.6	17.6	6.03e-01	0	57	0	152043520	56	5207
2026-01-15 11:59:08.31	173.26	12.45	-42.1	-45.7	17.6	6.06e-01	0	57	0	154140672	56	5239
2026-01-15 11:59:09.32	173.30	12.55	-42.1	-45.7	17.6	6.07e-01	0	57	0	155713536	56	5242
2026-01-15 11:59:10.33	173.34	12.66	-42.2	-45.8	17.5	6.06e-01	0	57	0	157810688	56	5298
2026-01-15 11:59:11.34	173.37	12.76	-42.1	-45.7	17.6	6.04e-01	0	57	0	159907840	56	5250
2026-01-15 11:59:12.35	173.41	12.87	-42.2	-45.7	17.6	6.06e-01	0	57	0	161480704	56	5261
2026-01-15 11:59:13.36	173.44	12.98	-42.1	-45.6	17.7	6.06e-01	0	57	0	163577856	56	5177
2026-01-15 11:59:14.37	173.48	13.08	-42.1	-45.6	17.7	6.08e-01	0	57	0	165675008	56	5164
2026-01-15 11:59:15.38	173.52	13.19	-42.1	-45.5	17.8	6.09e-01	0	57	0	167247872	56	5137
2026-01-15 11:59:16.39	173.56	13.30	-42.1	-45.5	17.8	6.07e-01	0	57	0	169345024	56	5159
2026-01-15 11:59:17.40	173.59	13.41	-42.0	-45.5	17.8	6.08e-01	0	58	0	170917888	56	5126
2026-01-15 11:59:18.41	173.63	13.52	-42.0	-45.5	17.9	6.07e-01	0	57	0	173015040	56	5114
2026-01-15 11:59:19.42	173.67	13.63	-42.0	-45.4	18.0	6.06e-01	0	57	0	175112192	56	5056
2026-01-15 11:59:20.43	173.71	13.74	-41.9	-45.2	18.1	6.07e-01	0	58	0	176685056	55	5257
2026-01-15 11:59:21.43	173.75	13.85	-41.9	-45.2	18.0	6.05e-01	0	57	0	178782208	55	5269
2026-01-15 11:59:22.44	173.79	13.96	-41.9	-45.2	18.1	6.08e-01	0	57	0	180355072	55	5256
2026-01-15 11:59:23.45	173.83	14.07	-41.8	-45.2	18.1	6.06e-01	0	58	0	182452224	55	5228
2026-01-15 11:59:24.46	173.87	14.19	-41.8	-45.1	18.2	6.05e-01	0	57	0	184549376	55	5180
2026-01-15 11:59:25.47	173.91	14.30	-41.8	-45.1	18.2	6.07e-01	0	57	0	186122240	55	5198
2026-01-15 11:59:26.48	173.95	14.41	-41.8	-45.1	18.2	6.06e-01	0	58	0	188219392	55	5195
2026-01-15 11:59:27.49	173.99	14.53	-41.8	-45.2	18.2	6.05e-01	0	58	0	189792256	55	5224
2026-01-15 11:59:28.50	174.03	14.64	-41.9	-45.2	18.2	6.06e-01	0	58	0	191889408	55	5233
2026-01-15 11:59:29.51	174.07	14.76	-41.9	-45.2	18.2	6.07e-01	0	57	0	193986560	55	5227
2026-01-15 11:59:30.52	174.11	14.88	-41.9	-45.2	18.1	6.04e-01	0	58	0	195559424	55	5258
2026-01-15 11:59:31.53	174.15	14.99	-41.9	-45.2	18.2	6.08e-01	0	58	0	197656576	55	5254
2026-01-15 11:59:32.54	174.20	15.11	-41.9	-45.2	18.2	6.05e-01	0	58	0	199229440	55	5258
2026-01-15 11:59:33.55	174.24	15.23	-41.9	-45.2	18.1	6.06e-01	0	58	0	201326592	55	5274
2026-01-15 11:59:34.56	174.28	15.35	-41.9	-45.2	18.1	6.04e-01	0	58	0	203423744	55	5274
2026-01-15 11:59:35.57	174.33	15.47	-41.9	-45.2	18.2	6.07e-01	0	58	0	204996608	55	5261
2026-01-15 11:59:36.58	174.37	15.59	-41.9	-45.2	18.2	6.08e-01	0	58	0	207093760	55	5257
2026-01-15 11:59:37.59	174.41	15.71	-41.9	-45.2	18.2	6.05e-01	0	58	0	208666624	55	5259
2026-01-15 11:59:38.60	174.46	15.83	-41.9	-45.2	18.2	6.04e-01	0	58	0	210763776	55	5238
2026-01-15 11:59:39.61	174.50	15.95	-41.9	-45.2	18.2	6.09e-01	0	58	0	212860928	55	5248
2026-01-15 11:59:40.62	174.55	16.07	-41.9	-45.2	18.3	6.08e-01	0	58	0	214433792	55	5219
2026-01-15 11:59:41.63	174.59	16.20	-41.9	-45.2	18.3	6.08e-01	0	58	0	216530944	55	5222
2026-01-15 11:59:42.64	174.64	16.32	-41.9	-45.1	18.3	6.06e-01	0	58	0	218628096	55	5196
2026-01-15 11:59:43.65	174.69	16.45	-41.8	-45.1	18.3	6.07e-01	0	58	0	220200960	55	5185
2026-01-15 11:59:44.66	174.73	16.57	-41.8	-45.0	18.4	6.07e-01	0	58	0	222298112	55	5154
2026-01-15 11:59:45.67	174.78	16.70	-41.8	-45.0	18.5	6.07e-01	0	58	0	223870976	55	5117
2026-01-15 11:59:46.67	174.83	16.82	-41.8	-45.0	18.5	6.07e-01	0	58	0	225968128	55	5118
2026-01-15 11:59:47.68	174.87	16.95	-41.8	-45.0	18.5	6.08e-01	0	58	0	228065280	55	5119
2026-01-15 11:59:48.69	174.92	17.08	-41.8	-45.0	18.5	6.07e-01	0	58	0	229638144	55	5112
2026-01-15 11:59:49.70	174.97	17.21	-41.8	-45.0	18.5	6.07e-01	0	58	0	231735296	55	5133
2026-01-15 11:59:50.71	175.02	17.34	-41.8	-45.0	18.3	6.06e-01	0	58	0	233832448	55	5158
2026-01-15 11:59:51.72	175.07	17.47	-41.8	-45.1	18.4	6.07e-01	0	58	0	235405312	55	5163
2026-01-15 11:59:52.73	175.12	17.60	-41.8	-45.0	18.4	6.05e-01	0	58	0	237502464	55	5155
2026-01-15 11:59:53.74	175.17	17.73	-41.9	-45.1	18.4	6.08e-01	0	58	0	239075328	55	5187
2026-01-15 11:59:54.75	175.22	17.87	-41.8	-45.0	18.5	6.05e-01	0	58	0	241172480	55	5133
2026-01-15 11:59:55.75	175.27	18.00	-41.8	-45.0	18.5	6.06e-01	0	58	0	243269632	55	5129
2026-01-15 11:59:56.76	175.32	18.13	-41.8	-45.0	18.5	6.08e-01	0	58	0	244842496	55	5159
2026-01-15 11:59:57.77	175.37	18.27	-41.8	-45.0	18.5	6.06e-01	0	58	0	246939648	55	5132
2026-01-15 11:59:58.78	175.43	18.40	-41.9	-45.1	18.5	6.08e-01	0	58	0	248512512	55	5163
2026-01-15 11:59:59.79	175.48	18.54	-41.8	-45.0	18.5	6.06e-01	0	58	0	250609664	55	5152
2026-01-15 12:00:00.80	175.53	18.68	-41.8	-45.0	18.4	6.07e-01	0	58	0	252182528	55	5153
2026-01-15 12:00:01.80	175.59	18.82	-41.8	-45.0	18.5	6.06e-01	0	58	0	254279680	55	5144
2026-01-15 12:00:02.81	175.64	18.95	-41.8	-45.1	18.5	6.06e-01	0	58	0	256376832	55	5165
2026-01-15 12:00:03.82	175.70	19.09	-41.9	-45.1	18.5	6.07e-01	0	58	0	257949696	55	5166
2026-01-15 12:00:04.83	175.75	19.24	-41.9	-45.1	18.5	6.08e-01	0	58	0	260046848	55	5176
2026-01-15 12:00:05.84	175.81	19.38	-41.9	-45.1	18.4	6.06e-01	0	58	0	262144000	55	5205
2026-01-15 12:00:06.85	175.86	19.52	-41.9	-45.1	18.4	6.07e-01	0	58	0	263716864	55	5208
2026-01-15 12:00:07.87	175.92	19.67	-41.9	-45.2	18.4	6.06e-01	0	58	0	265814016	55	5231
2026-01-15 12:00:08.88	175.98	19.81	-41.9	-45.1	18.4	6.04e-01	0	58	0	267386880	55	5217
2026-01-15 12:00:09.88	176.04	19.95	-41.9	-45.2	18.4	6.07e-01	0	58	0	269484032	55	5231
2026-01-15 12:00:10.89	176.10	20.10	-42.0	-45.2	18.3	6.04e-01	0	58	0	271581184	55	5263
2026-01-15 12:00:11.90	176.15	20.25	-42.0	-45.2	18.3	6.06e-01	0	59	0	273154048	55	5268
2026-01-15 12:00:12.91	176.21	20.40	-42.0	-45.2	18.3	6.06e-01	0	59	0	275251200	55	5271
2026-01-15 12:00:13.92	176.28	20.54	-41.9	-45.1	18.5	6.08e-01	0	58	0	276824064	55	5209
2026-01-15 12:00:14.93	176.34	20.69	-41.9	-45.1	18.5	6.09e-01	0	59	0	278921216	55	5182
2026-01-15 12:00:15.94	176.40	20.85	-41.9	-45.1	18.5	6.07e-01	0	58	0	281018368	55	5209
2026-01-15 12:00:16.95	176.46	21.00	-41.9	-45.1	18.5	6.07e-01	0	58	0	282591232	55	5198
2026-01-15 12:00:17.96	176.52	21.15	-42.0	-45.2	18.4	6.07e-01	0	59	0	284688384	55	5251
2026-01-15 12:00:18.97	176.59	21.30	-42.0	-45.2	18.4	6.08e-01	0	58	0	286785536	55	5260
2026-01-15 12:00:19.98	176.65	21.46	-42.0	-45.2	18.4	6.08e-01	0	58	0	288358400	55	5277
2026-01-15 12:00:20.99	176.71	21.62	-42.0	-45.3	18.4	6.08e-01	0	59	0	290455552	55	5281
2026-01-15 12:00:22.00	176.78	21.77	-42.0	-45.3	18.3	6.08e-01	0	58	0	292028416	55	5306
2026-01-15 12:00:23.01	176.85	21.93	-42.1	-45.4	18.2	6.05e-01	0	59	0	294125568	55	5355
2026-01-15 12:00:24.02	176.91	22.09	-42.1	-45.4	18.2	6.05e-01	0	59	0	296222720	55	5369
2026-01-15 12:00:25.02	176.98	22.25	-42.1	-45.4	18.2	6.07e-01	0	58	0	297795584	55	5372
2026-01-15 12:00:26.03	177.05	22.41	-42.0	-45.3	18.3	6.06e-01	0	59	0	299892736	55	5322
2026-01-15 12:00:27.04	177.12	22.57	-42.1	-45.3	18.3	6.09e-01	0	58	0	301465600	55	5321
2026-01-15 12:00:28.05	177.19	22.73	-42.1	-45.4	18.3	6.06e-01	0	58	0	303562752	55	5355
2026-01-15 12:00:29.06	177.26	22.90	-42.1	-45.4	18.2	6.07e-01	0	59	0	305659904	55	5398
2026-01-15 12:00:30.07	177.33	23.06	-42.2	-45.5	18.1	6.06e-01	0	59	0	307232768	55	5450
2026-01-15 12:00:31.08	177.40	23.23	-42.2	-45.5	18.1	6.08e-01	0	58	0	309329920	55	5435
2026-01-15 12:00:32.09	177.47	23.40	-42.2	-45.5	18.2	6.10e-01	0	59	0	310902784	55	5443
2026-01-15 12:00:33.10	177.54	23.57	-42.2	-45.5	18.1	6.06e-01	0	59	0	312999936	55	5458
2026-01-15 12:00:34.11	177.62	23.74	-42.2	-45.5	18.2	6.06e-01	0	59	0	315097088	55	5439
2026-01-15 12:00:35.12	177.69	23.91	-42.2	-45.6	18.1	6.08e-01	0	59	0	316669952	55	5498
2026-01-15 12:00:36.13	177.77	24.08	-42.2	-45.5	18.1	6.04e-01	0	59	0	318767104	55	5452
2026-01-15 12:00:37.14	177.85	24.26	-42.2	-45.5	18.2	6.07e-01	0	59	0	320339968	55	5443
2026-01-15 12:00:38.15	177.92	24.43	-42.2	-45.6	18.1	6.07e-01	0	59	0	322437120	55	5471
2026-01-15 12:00:39.16	178.00	24.61	-42.3	-45.6	18.1	6.08e-01	0	59	0	324534272	55	5512
2026-01-15 12:00:40.17	178.08	24.78	-42.3	-45.6	18.0	6.07e-01	0	59	0	326107136	55	5521
2026-01-15 12:00:41.18	178.16	24.96	-42.2	-45.6	18.1	6.06e-01	0	59	0	328204288	55	5478
2026-01-15 12:00:42.19	178.24	25.14	-42.2	-45.6	18.2	6.05e-01	0	59	0	330301440	55	5484
2026-01-15 12:00:43.20	178.32	25.32	-42.2	-45.6	18.2	6.09e-01	0	59	0	331874304	55	5465
2026-01-15 12:00:44.21	178.41	25.51	-42.2	-45.6	18.1	6.07e-01	0	59	0	333971456	55	5475
2026-01-15 12:00:45.22	178.49	25.69	-42.3	-45.6	18.1	6.07e-01	0	59	0	335544320	55	5499
2026-01-15 12:00:46.23	178.57	25.87	-42.3	-45.7	18.1	6.07e-01	0	59	0	337641472	55	5545
2026-01-15 12:00:47.24	178.66	26.06	-42.3	-45.6	18.1	6.07e-01	0	59	0	339738624	55	5493
2026-01-15 12:00:48.25	178.75	26.25	-42.1	-45.4	18.3	6.06e-01	0	59	0	341311488	55	5363
2026-01-15 12:00:49.25	178.83	26.44	-42.1	-45.3	18.4	6.05e-01	0	59	0	343408640	55	5310
2026-01-15 12:00:50.26	178.92	26.63	-42.0	-45.1	18.6	6.04e-01	0	59	0	344981504	55	5199
2026-01-15 12:00:51.28	179.01	26.82	-42.0	-45.2	18.6	6.09e-01	0	59	0	347078656	55	5234
2026-01-15 12:00:52.28	179.10	27.01	-42.1	-45.3	18.5	6.04e-01	0	59	0	349175808	55	5280
2026-01-15 12:00:53.29	179.19	27.21	-42.1	-45.4	18.4	6.07e-01	0	59	0	350748672	55	5344
2026-01-15 12:00:54.30	179.29	27.40	-42.2	-45.4	18.3	6.07e-01	0	59	0	352845824	55	5364
2026-01-15 12:00:55.31	179.38	27.60	-42.1	-45.3	18.4	6.06e-01	0	59	0	354942976	55	5331
2026-01-15 12:00:56.32	179.48	27.80	-42.0	-45.2	18.5	6.07e-01	0	59	0	356515840	55	5269
2026-01-15 12:00:57.33	179.57	28.00	-41.9	-45.0	18.8	6.07e-01	0	59	0	358612992	55	5144
2026-01-15 12:00:58.34	179.67	28.20	-41.8	-44.8	19.0	6.07e-01	0	59	0	360185856	55	5025
2026-01-15 12:00:59.35	179.77	28.41	-41.8	-44.7	19.1	6.06e-01	0	59	0	362283008	55	4975
2026-01-15 12:01:00.36	179.87	28.61	-41.9	-44.9	18.8	6.06e-01	0	59	0	364380160	55	5093
2026-01-15 12:01:01.37	179.97	28.82	-42.0	-45.1	18.7	6.08e-01	0	59	0	365953024	55	5183
2026-01-15 12:01:02.38	180.08	29.02	-42.0	-45.1	18.7	6.07e-01	0	59	0	368050176	55	5192
2026-01-15 12:01:03.39	180.18	29.23	-41.9	-45.0	18.8	6.06e-01	0	59	0	369623040	55	5156
2026-01-15 12:01:04.40	180.29	29.45	-41.8	-44.9	19.0	6.08e-01	0	59	0	371720192	55	5042
2026-01-15 12:01:05.41	180.39	29.66	-41.7	-44.7	19.1	6.04e-01	0	59	0	373817344	55	4959
2026-01-15 12:01:06.42	180.50	29.87	-41.8	-44.8	19.0	6.07e-01	0	59	0	375390208	55	4989
2026-01-15 12:01:07.43	180.61	30.09	-41.8	-44.8	19.0	6.07e-01	0	59	0	377487360	55	5027
2026-01-15 12:01:08.44	180.72	30.31	-41.8	-44.8	19.0	6.07e-01	0	59	0	379060224	55	5036
2026-01-15 12:01:09.45	180.84	30.53	-41.8	-44.8	19.0	6.05e-01	0	59	0	381157376	55	5040
2026-01-15 12:01:10.46	180.95	30.75	-41.9	-44.9	18.9	6.05e-01	0	59	0	383254528	55	5065
2026-01-15 12:01:11.47	181.07	30.97	-41.9	-45.0	18.9	6.05e-01	0	59	0	384827392	55	5108
2026-01-15 12:01:12.48	181.19	31.20	-41.9	-45.0	18.8	6.06e-01	0	59	0	386924544	55	5145
2026-01-15 12:01:13.49	181.31	31.42	-42.0	-45.0	18.8	6.06e-01	0	59	0	388497408	55	5150
2026-01-15 12:01:14.50	181.43	31.65	-42.0	-45.1	18.7	6.08e-01	0	59	0	390594560	55	5191
2026-01-15 12:01:15.51	181.55	31.88	-42.0	-45.2	18.7	6.07e-01	0	59	0	392691712	55	5231
2026-01-15 12:01:16.52	181.67	32.11	-42.1	-45.3	18.5	6.07e-01	0	59	0	394264576	55	5318
2026-01-15 12:01:17.53	181.80	32.34	-42.3	-45.5	18.4	6.06e-01	0	59	0	396361728	55	5440
2026-01-15 12:01:18.54	181.93	32.58	-42.2	-45.4	18.4	6.06e-01	0	59	0	398458880	55	5392
2026-01-15 12:01:19.55	182.06	32.82	-42.2	-45.4	18.4	6.06e-01	0	59	0	400031744	55	5364
2026-01-15 12:01:20.56	182.19	33.06	-42.2	-45.4	18.5	6.05e-01	0	59	0	402128896	55	5341
2026-01-15 12:01:21.56	182.32	33.29	-42.2	-45.4	18.5	6.06e-01	0	59	0	403701760	55	5359
2026-01-15 12:01:22.58	182.46	33.54	-42.3	-45.6	18.3	6.06e-01	0	59	0	405798912	55	5499
2026-01-15 12:01:23.59	182.60	33.78	-42.5	-45.9	18.0	6.06e-01	0	59	0	407896064	55	5681
2026-01-15 12:01:24.59	182.74	34.03	-42.6	-46.2	17.7	6.05e-01	0	59	0	409468928	55	5865
2026-01-15 12:01:25.60	182.88	34.28	-42.6	-46.2	17.7	6.07e-01	0	59	0	411566080	55	5866
2026-01-15 12:01:26.61	183.02	34.53	-42.6	-46.1	17.7	6.04e-01	0	59	0	413138944	55	5841
2026-01-15 12:01:27.62	183.17	34.78	-42.6	-46.2	17.7	6.07e-01	0	59	0	415236096	55	5864
2026-01-15 12:01:28.63	183.32	35.03	-42.7	-46.3	17.6	6.07e-01	0	59	0	417333248	55	5927
2026-01-15 12:01:29.64	183.47	35.29	-42.9	-46.6	17.4	6.07e-01	0	59	0	418906112	56	5795
2026-01-15 12:01:30.65	183.63	35.55	-43.0	-46.8	17.2	6.06e-01	0	59	0	421003264	56	5953
2026-01-15 12:01:31.66	183.78	35.81	-43.1	-46.9	17.1	6.06e-01	0	59	0	423100416	56	6038
2026-01-15 12:01:32.67	183.94	36.07	-43.1	-46.9	17.1	6.07e-01	0	59	0	424673280	56	5999
2026-01-15 12:01:33.68	184.10	36.33	-43.0	-46.7	17.3	6.08e-01	0	59	0	426770432	56	5891
2026-01-15 12:01:34.69	184.27	36.60	-43.1	-47.0	17.0	6.07e-01	0	59	0	428343296	56	6062
2026-01-15 12:01:35.70	184.43	36.87	-43.4	-47.6	16.4	6.08e-01	0	59	0	430440448	57	6159
2026-01-15 12:01:36.71	184.60	37.14	-43.6	-47.9	16.1	6.06e-01	0	60	0	432537600	57	6350
2026-01-15 12:01:37.72	184.77	37.41	-43.6	-47.8	16.2	6.08e-01	0	59	0	434110464	57	6312
2026-01-15 12:01:38.73	184.95	37.69	-43.3	-47.4	16.6	6.08e-01	0	59	0	436207616	57	6001
2026-01-15 12:01:39.74	185.13	37.96	-43.3	-47.2	16.8	6.06e-01	0	59	0	437780480	57	5918
2026-01-15 12:01:40.75	185.31	38.24	-43.5	-47.7	16.3	6.07e-01	0	59	0	439877632	57	6247
2026-01-15 12:01:41.75	185.49	38.52	-43.6	-47.9	16.0	6.06e-01	0	60	0	441974784	57	6407
2026-01-15 12:01:42.76	185.68	38.80	-43.6	-47.8	16.2	6.07e-01	0	59	0	443547648	57	6302
2026-01-15 12:01:43.77	185.87	39.09	-43.4	-47.5	16.4	6.07e-01	0	59	0	445644800	57	6131
2026-01-15 12:01:44.78	186.06	39.38	-43.4	-47.5	16.4	6.07e-01	0	59	0	447217664	57	6114
2026-01-15 12:01:45.79	186.26	39.67	-43.4	-47.5	16.5	6.07e-01	0	59	0	449314816	57	6094
2026-01-15 12:01:46.80	186.46	39.96	-43.5	-47.6	16.3	6.08e-01	0	60	0	451411968	57	6195
2026-01-15 12:01:47.81	186.67	40.25	-43.3	-47.2	16.8	6.07e-01	0	59	0	452984832	57	5882
2026-01-15 12:01:48.82	186.88	40.55	-43.1	-46.9	17.1	6.09e-01	0	59	0	455081984	57	5703
2026-01-15 12:01:49.83	187.09	40.85	-43.1	-46.9	17.1	6.08e-01	0	59	0	456654848	57	5669
2026-01-15 12:01:50.84	187.30	41.15	-43.1	-46.9	17.1	6.06e-01	0	59	0	458752000	57	5681
2026-01-15 12:01:51.85	187.53	41.45	-43.0	-46.7	17.3	6.10e-01	0	59	0	460849152	57	5559
2026-01-15 12:01:52.86	187.75	41.76	-42.7	-46.2	17.8	6.07e-01	0	59	0	462422016	57	5246
2026-01-15 12:01:53.87	187.98	42.06	-42.5	-45.8	18.2	6.08e-01	0	59	0	464519168	57	5012
2026-01-15 12:01:54.88	188.21	42.37	-42.5	-45.7	18.3	6.08e-01	0	60	0	466616320	56	5264
2026-01-15 12:01:55.89	188.45	42.69	-42.5	-45.7	18.3	6.06e-01	0	59	0	468189184	56	5268
2026-01-15 12:01:56.90	188.69	43.00	-42.4	-45.7	18.4	6.07e-01	0	60	0	470286336	56	5235
2026-01-15 12:01:57.91	188.94	43.32	-42.3	-45.4	18.6	6.06e-01	0	59	0	471859200	56	5064
2026-01-15 12:01:58.92	189.19	43.63	-42.1	-45.1	18.9	6.07e-01	0	60	0	473956352	56	4876
2026-01-15 12:01:59.92	189.45	43.95	-42.1	-45.2	18.9	6.08e-01	0	59	0	476053504	56	4930
2026-01-15 12:02:00.93	189.71	44.27	-42.2	-45.4	18.7	6.06e-01	0	59	0	477626368	56	5053
2026-01-15 12:02:01.95	189.98	44.60	-41.9	-45.0	18.9	6.07e-01	0	60	0	479723520	55	5105
2026-01-15 12:02:02.95	190.25	44.93	-41.8	-44.8	19.1	6.08e-01	0	59	0	481296384	55	5020
2026-01-15 12:02:03.97	190.54	45.26	-41.9	-44.9	19.0	6.08e-01	0	59	0	483393536	55	5067
2026-01-15 12:02:04.98	190.82	45.59	-41.9	-44.9	19.1	6.08e-01	0	60	0	485490688	55	5053
2026-01-15 12:02:05.99	191.11	45.92	-41.8	-44.8	19.2	6.06e-01	0	59	0	487063552	55	5005
2026-01-15 12:02:06.99	191.41	46.25	-41.9	-44.9	19.0	6.07e-01	0	60	0	489160704	55	5095
2026-01-15 12:02:08.00	191.71	46.59	-41.9	-45.0	18.9	6.08e-01	0	59	0	491257856	55	5115
2026-01-15 12:02:09.01	192.02	46.93	-41.9	-44.9	19.1	6.04e-01	0	60	0	492830720	55	5051
2026-01-15 12:02:10.02	192.34	47.27	-41.9	-44.8	19.1	6.08e-01	0	59	0	494927872	55	5026
2026-01-15 12:02:11.03	192.66	47.62	-41.9	-44.8	19.1	6.07e-01	0	60	0	496500736	55	5024
2026-01-15 12:02:12.04	192.99	47.96	-41.9	-44.9	19.1	6.06e-01	0	60	0	498597888	55	5076
2026-01-15 12:02:13.05	193.33	48.31	-42.0	-44.9	19.0	6.05e-01	0	60	0	500695040	55	5095
2026-01-15 12:02:14.06	193.68	48.66	-42.0	-45.0	18.9	6.06e-01	0	60	0	502267904	55	5159
2026-01-15 12:02:15.07	194.04	49.01	-41.9	-44.9	19.1	6.06e-01	0	59	0	504365056	55	5062
2026-01-15 12:02:16.08	194.40	49.36	-41.9	-44.9	19.1	6.07e-01	0	59	0	505937920	55	5067
2026-01-15 12:02:17.09	194.77	49.72	-41.8	-44.7	19.3	6.06e-01	0	59	0	508035072	55	4965
2026-01-15 12:02:18.10	195.15	50.07	-41.8	-44.7	19.3	6.06e-01	0	60	0	510132224	55	4973
2026-01-15 12:02:19.11	195.54	50.43	-41.9	-44.8	19.1	6.07e-01	0	59	0	511705088	55	5041
2026-01-15 12:02:20.12	195.94	50.79	-41.6	-44.4	19.6	6.07e-01	0	59	0	513802240	55	4764
2026-01-15 12:02:21.13	196.35	51.15	-41.9	-44.8	19.2	6.08e-01	0	59	0	515375104	55	5030
2026-01-15 12:02:22.14	196.76	51.51	-41.5	-44.3	19.7	6.05e-01	0	59	0	517472256	55	4718
2026-01-15 12:02:23.15	197.19	51.87	-41.6	-44.4	19.5	6.06e-01	0	60	0	519569408	54	5099
2026-01-15 12:02:24.16	197.63	52.24	-41.6	-44.4	19.6	6.07e-01	0	60	0	521142272	54	5065
2026-01-15 12:02:25.16	198.08	52.60	-41.7	-44.5	19.4	6.05e-01	0	60	0	523239424	54	5158
2026-01-15 12:02:26.17	198.54	52.97	-41.7	-44.5	19.5	6.07e-01	0	60	0	524812288	54	5156
2026-01-15 12:02:27.18	199.01	53.33	-41.6	-44.4	19.5	6.05e-01	0	59	0	526909440	54	5093
2026-01-15 12:02:28.19	199.50	53.70	-41.6	-44.4	19.6	6.06e-01	0	60	0	529006592	54	5070
2026-01-15 12:02:29.20	199.99	54.07	-41.9	-44.9	19.2	6.08e-01	0	59	0	530579456	54	5354
2026-01-15 12:02:30.21	200.50	54.44	-41.6	-44.3	19.6	6.08e-01	0	60	0	532676608	54	5030
2026-01-15 12:02:31.21	201.02	54.80	-41.9	-44.8	19.2	6.05e-01	0	60	0	534773760	54	5339
2026-01-15 12:02:32.22	201.56	55.17	-41.8	-44.8	19.2	6.06e-01	0	60	0	536346624	54	5290
2026-01-15 12:02:33.23	202.11	55.55	-41.9	-44.9	19.1	6.08e-01	0	60	0	538443776	54	5382
2026-01-15 12:02:34.24	202.68	55.92	-42.1	-45.2	18.8	6.05e-01	0	59	0	540016640	54	5537
2026-01-15 12:02:35.25	203.26	56.29	-42.2	-45.4	18.6	6.07e-01	0	59	0	542113792	55	5388
2026-01-15 12:02:36.26	203.86	56.66	-42.2	-45.4	18.6	6.07e-01	0	60	0	544210944	55	5385
2026-01-15 12:02:37.27	204.47	57.02	-42.5	-45.8	18.3	6.07e-01	0	60	0	545783808	55	5608
2026-01-15 12:02:38.28	205.10	57.39	-42.6	-45.9	18.1	6.07e-01	0	59	0	547880960	55	5717
2026-01-15 12:02:39.29	205.75	57.76	-42.9	-46.4	17.7	6.09e-01	0	60	0	549453824	56	5704
2026-01-15 12:02:40.30	206.41	58.13	-42.9	-46.4	17.7	6.07e-01	0	59	0	551550976	56	5707
2026-01-15 12:02:41.31	207.10	58.49	-43.1	-47.0	17.1	6.06e-01	0	60	0	553648128	56	6080
2026-01-15 12:02:42.32	207.80	58.86	-43.3	-47.1	17.0	6.08e-01	0	60	0	555220992	57	5848
2026-01-15 12:02:43.33	208.52	59.22	-43.5	-47.6	16.5	6.06e-01	0	60	0	557318144	57	6165
2026-01-15 12:02:44.33	209.26	59.58	-43.5	-47.5	16.6	6.08e-01	0	59	0	558891008	57	6119
2026-01-15 12:02:45.34	210.02	59.93	-43.5	-47.7	16.3	6.08e-01	0	60	0	560988160	57	6239
2026-01-15 12:02:46.35	210.80	60.29	-43.8	-48.2	15.9	6.09e-01	0	60	0	563085312	58	6223
2026-01-15 12:02:47.36	211.61	60.64	-43.7	-47.9	16.2	6.08e-01	0	60	0	564658176	58	6036
2026-01-15 12:02:48.37	212.44	60.99	-43.8	-48.1	16.1	6.09e-01	0	60	0	566755328	58	6140
2026-01-15 12:02:49.38	213.29	61.34	-44.0	-48.6	15.5	6.04e-01	0	60	0	568328192	58	6539
2026-01-15 12:02:50.39	214.17	61.68	-43.7	-48.0	16.2	6.07e-01	0	60	0	570425344	58	6080
2026-01-15 12:02:51.40	215.07	62.02	-43.9	-48.5	15.5	6.08e-01	0	60	0	572522496	58	6427
2026-01-15 12:02:52.41	216.00	62.35	-43.8	-48.2	15.9	6.08e-01	0	59	0	574095360	58	6211
2026-01-15 12:02:53.42	216.95	62.68	-43.9	-48.4	15.6	6.07e-01	0	60	0	576192512	58	6402
2026-01-15 12:02:54.43	217.92	63.01	-44.0	-48.8	15.3	6.06e-01	0	60	0	577765376	58	6668
2026-01-15 12:02:55.44	218.93	63.32	-44.1	-49.0	15.1	6.08e-01	0	60	0	579862528	58	6849
2026-01-15 12:02:56.45	219.96	63.64	-44.0	-48.6	15.4	6.08e-01	0	60	0	581959680	58	6566
2026-01-15 12:02:57.46	221.02	63.94	-44.4	-49.8	14.2	6.07e-01	0	60	0	583532544	59	7113
2026-01-15 12:02:58.47	222.11	64.24	-44.3	-49.4	14.7	6.07e-01	0	60	0	585629696	59	6742
2026-01-15 12:02:59.48	223.22	64.53	-44.5	-49.9	14.1	6.08e-01	0	60	0	587726848	59	7181
2026-01-15 12:03:00.49	224.36	64.82	-44.5	-49.9	14.1	6.09e-01	0	60	0	589299712	59	7184
2026-01-15 12:03:01.49	225.52	65.09	-44.7	-50.5	13.5	6.10e-01	0	60	0	591396864	59	7701
2026-01-15 12:03:02.50	226.73	65.36	-44.5	-49.8	14.1	6.09e-01	0	60	0	592969728	59	7102
2026-01-15 12:03:03.51	227.95	65.62	-44.6	-50.2	13.7	6.07e-01	0	60	0	595066880	59	7445
2026-01-15 12:03:04.52	229.21	65.87	-44.5	-50.4	13.5	6.08e-01	0	60	0	597164032	59	7617
2026-01-15 12:03:05.53	230.50	66.11	-44.5	-50.0	14.0	6.07e-01	0	60	0	598736896	59	7260
2026-01-15 12:03:06.54	231.81	66.34	-44.5	-50.1	13.8	6.08e-01	0	60	0	600834048	59	7363
2026-01-15 12:03:07.55	233.16	66.56	-44.5	-49.9	14.1	6.06e-01	0	60	0	602931200	59	7156
2026-01-15 12:03:08.56	234.53	66.77	-44.6	-50.4	13.6	6.09e-01	0	60	0	604504064	59	7589
2026-01-15 12:03:09.57	235.92	66.96	-44.4	-49.6	14.4	6.06e-01	0	60	0	606601216	59	6906
2026-01-15 12:03:10.58	237.34	67.14	-44.6	-50.4	13.5	6.07e-01	0	60	0	608174080	59	7605
2026-01-15 12:03:11.59	238.79	67.32	-44.5	-50.0	14.0	6.08e-01	0	60	0	610271232	59	7229
2026-01-15 12:03:12.60	240.26	67.47	-44.2	-49.7	14.3	6.09e-01	0	60	0	612368384	59	6973
2026-01-15 12:03:13.61	241.75	67.62	-44.5	-50.1	13.9	6.11e-01	0	60	0	613941248	59	7289
2026-01-15 12:03:14.62	243.26	67.75	-44.5	-50.0	13.9	6.08e-01	0	60	0	616038400	59	7254
2026-01-15 12:03:15.63	244.79	67.87	-44.4	-49.8	14.1	6.09e-01	0	60	0	617611264	59	7102
2026-01-15 12:03:16.63	246.31	67.97	-44.3	-50.7	13.3	6.08e-01	0	60	0	619708416	59	7845
2026-01-15 12:03:17.65	247.89	68.05	-44.3	-49.5	14.2	6.10e-01	0	60	0	621281280	58	7254
2026-01-15 12:03:18.65	249.44	68.13	-44.2	-49.3	14.3	6.07e-01	0	60	0	623378432	59	6673
2026-01-15 12:03:19.66	251.03	68.18	-44.4	-49.7	14.3	6.07e-01	0	60	0	625475584	59	6979
2026-01-15 12:03:20.67	252.62	68.23	-44.1	-49.0	14.9	6.06e-01	0	60	0	627048448	59	6450
2026-01-15 12:03:21.67	254.19	68.25	-44.1	-49.0	14.4	6.08e-01	0	60	0	629145600	58	6851
2026-01-15 12:03:22.68	255.79	68.27	-44.3	-49.4	14.7	6.09e-01	0	60	0	631242752	59	6742
2026-01-15 12:03:23.69	257.39	68.26	-44.2	-49.2	14.7	6.06e-01	0	60	0	632815616	59	6607
2026-01-15 12:03:24.70	258.99	68.24	-43.9	-48.6	15.4	6.06e-01	0	60	0	634912768	59	6172
2026-01-15 12:03:25.71	260.58	68.21	-44.4	-49.8	14.2	6.10e-01	0	60	0	636485632	59	7057
2026-01-15 12:03:26.72	262.17	68.16	-44.2	-49.1	14.8	6.05e-01	0	60	0	638582784	59	6517
2026-01-15 12:03:27.73	263.74	68.09	-44.0	-48.7	15.4	6.05e-01	0	60	0	640679936	58	6577
2026-01-15 12:03:28.74	265.31	68.01	-44.3	-49.5	14.5	6.08e-01	0	60	0	642252800	59	6827
2026-01-15 12:03:29.75	266.86	67.92	-44.2	-49.2	14.8	6.07e-01	0	60	0	644349952	59	6596
2026-01-15 12:03:30.76	268.39	67.81	-44.1	-48.9	15.2	6.05e-01	0	60	0	645922816	59	6361
2026-01-15 12:03:31.77	269.91	67.69	-44.2	-49.2	14.9	6.08e-01	0	60	0	648019968	59	6584
2026-01-15 12:03:32.78	271.41	67.55	-44.0	-48.6	15.4	6.05e-01	0	60	0	650117120	59	6177
2026-01-15 12:03:33.78	272.88	67.40	-44.0	-48.8	15.3	6.08e-01	0	60	0	651689984	59	6285
2026-01-15 12:03:34.80	274.35	67.23	-44.0	-48.7	15.4	6.08e-01	0	60	0	653787136	59	6254
2026-01-15 12:03:35.81	275.78	67.06	-43.9	-48.6	15.5	6.06e-01	0	60	0	655884288	59	6165
2026-01-15 12:03:36.81	277.17	66.87	-43.7	-49.0	15.1	6.07e-01	0	60	0	657457152	59	6422
2026-01-15 12:03:37.82	278.55	66.67	-43.9	-48.6	15.5	6.07e-01	0	60	0	659554304	58	6550
2026-01-15 12:03:38.83	279.91	66.46	-43.9	-48.5	15.4	6.06e-01	0	60	0	661127168	58	6476
2026-01-15 12:03:39.84	281.24	66.23	-44.0	-48.8	15.4	6.08e-01	0	60	0	663224320	58	6647
2026-01-15 12:03:40.85	282.54	66.00	-44.0	-48.8	15.2	6.10e-01	0	60	0	665321472	58	6706
2026-01-15 12:03:41.86	283.81	65.75	-43.7	-48.0	16.1	6.07e-01	0	60	0	666894336	58	6084
2026-01-15 12:03:42.87	285.05	65.50	-44.0	-48.9	15.0	6.06e-01	0	60	0	668991488	58	6755
2026-01-15 12:03:43.88	286.27	65.24	-44.0	-48.8	15.3	6.06e-01	0	60	0	670564352	58	6657
2026-01-15 12:03:44.89	287.45	64.97	-43.8	-48.1	15.9	6.04e-01	0	60	0	672661504	58	6192
2026-01-15 12:03:45.90	288.61	64.69	-44.0	-48.6	15.5	6.06e-01	0	60	0	674234368	58	6523
2026-01-15 12:03:46.91	289.74	64.40	-43.8	-48.2	16.0	6.06e-01	0	60	0	676331520	58	6209
2026-01-15 12:03:47.91	290.83	64.11	-43.8	-48.3	15.8	6.06e-01	0	60	0	678428672	58	6329
2026-01-15 12:03:48.92	291.90	63.80	-43.8	-48.2	15.9	6.09e-01	0	60	0	680001536	58	6244
2026-01-15 12:03:49.93	292.94	63.49	-43.5	-47.6	16.6	6.05e-01	0	60	0	682098688	58	5797
2026-01-15 12:03:50.94	293.96	63.18	-43.3	-47.2	17.0	6.07e-01	0	60	0	684195840	58	5546
2026-01-15 12:03:51.95	294.95	62.86	-43.5	-47.7	16.5	6.06e-01	0	60	0	685768704	58	5888
2026-01-15 12:03:52.96	295.91	62.53	-43.3	-47.3	16.9	6.08e-01	0	60	0	687865856	58	5606
2026-01-15 12:03:53.97	296.85	62.20	-43.2	-47.0	17.1	6.08e-01	0	60	0	689438720	58	5451
2026-01-15 12:03:54.98	297.76	61.87	-43.1	-46.9	17.2	6.07e-01	0	60	0	691535872	58	5381
2026-01-15 12:03:55.99	298.65	61.53	-43.3	-47.4	16.7	6.06e-01	0	60	0	693633024	58	5720
2026-01-15 12:03:56.99	299.51	61.19	-43.3	-47.4	16.8	6.07e-01	0	60	0	695205888	58	5660
2026-01-15 12:03:58.00	300.35	60.84	-43.2	-47.2	17.0	6.05e-01	0	60	0	697303040	58	5536
2026-01-15 12:03:59.01	301.16	60.49	-43.3	-47.2	16.9	6.06e-01	0	60	0	699400192	58	5569
2026-01-15 12:04:00.02	301.96	60.14	-43.4	-47.4	16.8	6.08e-01	0	60	0	700973056	58	5675
2026-01-15 12:04:01.03	302.73	59.78	-43.4	-47.4	16.8	6.06e-01	0	60	0	703070208	58	5707
2026-01-15 12:04:02.04	303.48	59.43	-42.9	-47.3	16.8	6.07e-01	0	60	0	704643072	57	5938
2026-01-15 12:04:03.05	304.22	59.07	-41.5	-46.1	17.9	6.06e-01	0	60	0	706740224	55	5847
2026-01-15 12:04:04.06	304.93	58.70	-42.0	-46.8	17.3	6.06e-01	0	60	0	708837376	54	6651
2026-01-15 12:04:05.07	305.62	58.34	-43.2	-47.1	17.0	6.07e-01	0	60	0	710410240	56	6150
2026-01-15 12:04:06.08	306.29	57.98	-42.3	-46.4	17.8	6.10e-01	0	60	0	712507392	56	5659
2026-01-15 12:04:07.08	306.94	57.61	-41.1	-45.9	18.1	6.07e-01	0	60	0	714080256	54	6039
2026-01-15 12:04:08.09	307.58	57.25	-41.2	-45.7	18.3	6.08e-01	0	60	0	716177408	53	6224
2026-01-15 12:04:09.10	308.20	56.88	-42.0	-45.9	18.1	6.09e-01	0	60	0	718274560	54	6045
2026-01-15 12:04:10.11	308.81	56.51	-41.8	-45.8	18.3	6.07e-01	0	60	0	719847424	54	5959
2026-01-15 12:04:11.12	309.40	56.14	-41.8	-45.9	18.1	6.06e-01	0	60	0	721944576	54	6059
2026-01-15 12:04:12.13	309.97	55.77	-41.9	-45.8	18.2	6.04e-01	0	60	0	723517440	54	5946
2026-01-15 12:04:13.14	310.53	55.40	-41.7	-45.1	18.9	6.05e-01	0	60	0	725614592	54	5494
2026-01-15 12:04:14.15	311.07	55.04	-42.0	-45.3	18.8	6.04e-01	0	60	0	727711744	54	5605
2026-01-15 12:04:15.16	311.60	54.67	-42.2	-45.4	18.7	6.06e-01	0	60	0	729284608	54	5684
2026-01-15 12:04:16.17	312.12	54.30	-42.3	-45.6	18.5	6.06e-01	0	60	0	731381760	55	5497
2026-01-15 12:04:17.18	312.62	53.93	-42.2	-45.3	18.8	6.08e-01	0	60	0	732954624	55	5303
2026-01-15 12:04:18.19	313.12	53.56	-42.1	-45.2	19.0	6.06e-01	0	60	0	735051776	55	5219
2026-01-15 12:04:19.20	313.59	53.20	-42.2	-45.4	18.7	6.06e-01	0	60	0	737148928	55	5377
2026-01-15 12:04:20.21	314.06	52.83	-42.3	-45.5	18.6	6.08e-01	0	60	0	738721792	55	5455
2026-01-15 12:04:21.22	314.52	52.47	-42.3	-45.6	18.5	6.08e-01	0	60	0	740818944	55	5491
2026-01-15 12:04:22.23	314.96	52.10	-42.3	-45.6	18.5	6.07e-01	0	60	0	742391808	55	5481
2026-01-15 12:04:23.24	315.39	51.74	-42.4	-45.7	18.4	6.07e-01	0	60	0	744488960	55	5585
2026-01-15 12:04:24.25	315.82	51.38	-42.3	-45.5	18.6	6.06e-01	0	60	0	746586112	55	5446
2026-01-15 12:04:25.26	316.23	51.02	-42.7	-46.1	18.0	6.07e-01	0	60	0	748158976	55	5844
2026-01-15 12:04:26.27	316.63	50.66	-42.6	-45.9	18.2	6.07e-01	0	60	0	750256128	55	5709
2026-01-15 12:04:27.28	317.03	50.31	-42.5	-45.8	18.3	6.05e-01	0	60	0	752353280	55	5656
2026-01-15 12:04:28.28	317.41	49.95	-42.9	-46.4	17.8	6.05e-01	0	60	0	753926144	56	5682
2026-01-15 12:04:29.29	317.78	49.60	-42.8	-46.2	18.0	6.06e-01	0	60	0	756023296	56	5589
2026-01-15 12:04:30.30	318.15	49.25	-42.8	-46.3	17.9	6.08e-01	0	60	0	757596160	56	5626
2026-01-15 12:04:31.31	318.51	48.90	-42.9	-46.4	17.9	6.08e-01	0	60	0	759693312	56	5690
2026-01-15 12:04:32.32	318.86	48.55	-42.8	-46.4	17.9	6.07e-01	0	60	0	761790464	56	5659
2026-01-15 12:04:33.33	319.20	48.20	-42.8	-46.3	17.9	6.05e-01	0	60	0	763363328	56	5632
2026-01-15 12:04:34.33	319.54	47.86	-42.9	-46.5	17.7	6.05e-01	0	60	0	765460480	56	5739
2026-01-15 12:04:35.34	319.86	47.52	-42.8	-46.2	18.0	6.07e-01	0	60	0	767033344	56	5553
2026-01-15 12:04:36.35	320.18	47.18	-42.7	-46.1	18.1	6.06e-01	0	60	0	769130496	56	5471
2026-01-15 12:04:37.36	320.50	46.84	-42.7	-46.1	18.1	6.07e-01	0	60	0	771227648	56	5478
2026-01-15 12:04:38.37	320.81	46.50	-42.7	-46.0	18.2	6.04e-01	0	60	0	772800512	56	5451
2026-01-15 12:04:39.37	321.10	46.17	-42.7	-46.2	18.0	6.08e-01	0	60	0	774897664	56	5535
2026-01-15 12:04:40.38	321.40	45.84	-42.8	-46.2	18.0	6.06e-01	0	60	0	776470528	56	5568
2026-01-15 12:04:41.39	321.69	45.51	-42.6	-45.9	18.3	6.08e-01	0	60	0	778567680	56	5392
2026-01-15 12:04:42.40	321.97	45.18	-42.5	-45.8	18.4	6.06e-01	0	60	0	780664832	56	5291
2026-01-15 12:04:43.41	322.25	44.85	-42.6	-45.8	18.4	6.07e-01	0	60	0	782237696	56	5331
2026-01-15 12:04:44.42	322.52	44.53	-42.5	-45.7	18.4	6.06e-01	0	60	0	784334848	56	5278
2026-01-15 12:04:45.43	322.78	44.20	-42.6	-45.9	18.2	6.06e-01	0	60	0	785907712	56	5394
2026-01-15 12:04:46.43	323.04	43.89	-42.7	-46.1	18.1	6.06e-01	0	60	0	788004864	56	5467
2026-01-15 12:04:47.44	323.29	43.57	-42.7	-46.1	18.1	6.07e-01	0	60	0	790102016	56	5475
2026-01-15 12:04:48.45	323.55	43.25	-42.6	-46.0	18.2	6.08e-01	0	60	0	791674880	56	5430
2026-01-15 12:04:49.46	323.79	42.94	-42.7	-46.1	18.0	6.09e-01	0	60	0	793772032	56	5521
2026-01-15 12:04:50.46	324.03	42.63	-42.8	-46.4	17.8	6.07e-01	0	60	0	795869184	56	5662
2026-01-15 12:04:51.47	324.26	42.32	-42.9	-46.5	17.7	6.07e-01	0	60	0	797442048	56	5756
2026-01-15 12:04:52.48	324.50	42.01	-42.9	-46.4	17.7	6.04e-01	0	60	0	799539200	56	5704
2026-01-15 12:04:53.49	324.72	41.71	-42.8	-46.2	18.0	6.08e-01	0	60	0	801112064	56	5581
2026-01-15 12:04:54.50	324.95	41.41	-42.8	-46.3	17.9	6.07e-01	0	60	0	803209216	56	5597
2026-01-15 12:04:55.51	325.17	41.11	-43.0	-46.7	17.5	6.08e-01	0	60	0	805306368	56	5880
2026-01-15 12:04:56.51	325.38	40.81	-43.1	-46.8	17.4	6.07e-01	0	60	0	806879232	56	5958
2026-01-15 12:04:57.52	325.59	40.51	-43.0	-46.7	17.5	6.06e-01	0	60	0	808976384	56	5901
2026-01-15 12:04:58.53	325.80	40.22	-43.0	-46.6	17.6	6.08e-01	0	60	0	810549248	56	5818
2026-01-15 12:04:59.54	326.00	39.93	-43.0	-46.7	17.5	6.05e-01	0	60	0	812646400	56	5894
2026-01-15 12:05:00.55	326.20	39.64	-42.9	-46.5	17.7	6.07e-01	0	60	0	814219264	56	5723
2026-01-15 12:05:01.56	326.40	39.35	-43.0	-46.7	17.5	6.06e-01	0	60	0	816316416	56	5888
2026-01-15 12:05:02.57	326.59	39.06	-43.2	-47.0	17.1	6.07e-01	0	60	0	818413568	56	6109
2026-01-15 12:05:03.58	326.78	38.78	-43.1	-46.9	17.2	6.04e-01	0	60	0	819986432	56	6007
2026-01-15 12:05:04.59	326.96	38.50	-43.0	-46.7	17.4	6.06e-01	0	60	0	822083584	56	5891
2026-01-15 12:05:05.59	327.15	38.22	-43.0	-46.7	17.5	6.07e-01	0	60	0	824180736	56	5858
2026-01-15 12:05:06.60	327.33	37.95	-42.8	-46.3	17.8	6.08e-01	0	60	0	825753600	56	5646
2026-01-15 12:05:07.61	327.50	37.67	-42.8	-46.2	17.9	6.06e-01	0	60	0	827850752	56	5589
2026-01-15 12:05:08.62	327.68	37.40	-42.7	-46.1	18.1	6.07e-01	0	60	0	829423616	56	5490
2026-01-15 12:05:09.63	327.85	37.13	-42.6	-45.9	18.2	6.07e-01	0	60	0	831520768	56	5391
2026-01-15 12:05:10.64	328.02	36.86	-42.7	-46.1	18.0	6.05e-01	0	60	0	833617920	56	5495
2026-01-15 12:05:11.65	328.18	36.59	-42.8	-46.2	17.9	6.05e-01	0	60	0	835190784	56	5573
2026-01-15 12:05:12.66	328.34	36.33	-42.6	-46.0	18.2	6.08e-01	0	60	0	837287936	56	5417
2026-01-15 12:05:13.67	328.50	36.07	-42.5	-45.9	18.2	6.07e-01	0	60	0	838860800	56	5356
2026-01-15 12:05:14.67	328.66	35.81	-42.6	-45.9	18.2	6.06e-01	0	60	0	840957952	56	5392
2026-01-15 12:05:15.68	328.82	35.55	-42.4	-45.7	18.4	6.07e-01	0	60	0	843055104	56	5260
2026-01-15 12:05:16.69	328.97	35.30	-42.3	-45.5	18.6	6.08e-01	0	60	0	844627968	56	5128
2026-01-15 12:05:17.70	329.12	35.04	-42.3	-45.4	18.8	6.07e-01	0	60	0	846725120	56	5064
2026-01-15 12:05:18.71	329.27	34.79	-42.3	-45.5	18.6	6.04e-01	0	60	0	848822272	56	5119
2026-01-15 12:05:19.72	329.41	34.54	-42.1	-45.1	19.0	6.06e-01	0	60	0	850395136	56	4913
2026-01-15 12:05:20.73	329.56	34.29	-42.1	-45.1	19.0	6.07e-01	0	60	0	852492288	56	4894
2026-01-15 12:05:21.74	329.70	34.04	-42.1	-45.2	18.9	6.07e-01	0	60	0	854065152	56	4981
2026-01-15 12:05:22.74	329.84	33.80	-42.2	-45.3	18.8	6.06e-01	0	60	0	856162304	56	5018
2026-01-15 12:05:23.75	329.98	33.56	-42.2	-45.3	18.8	6.07e-01	0	60	0	858259456	56	5013
2026-01-15 12:05:24.76	330.11	33.32	-42.2	-45.3	18.8	6.08e-01	0	60	0	859832320	56	5023
2026-01-15 12:05:25.77	330.24	33.08	-42.0	-45.1	19.0	6.08e-01	0	60	0	861929472	56	4898
2026-01-15 12:05:26.78	330.38	32.84	-41.9	-44.9	19.1	6.07e-01	0	60	0	863502336	55	5055
2026-01-15 12:05:27.79	330.51	32.61	-41.9	-44.9	19.1	6.07e-01	0	60	0	865599488	55	5063
2026-01-15 12:05:28.79	330.63	32.38	-41.7	-44.7	19.3	6.04e-01	0	60	0	867172352	55	4943
2026-01-15 12:05:29.80	330.76	32.14	-41.7	-44.7	19.3	6.08e-01	0	60	0	869269504	55	4941
2026-01-15 12:05:30.81	330.88	31.91	-41.8	-44.7	19.3	6.05e-01	0	60	0	871366656	55	4949
2026-01-15 12:05:31.82	331.00	31.69	-41.6	-44.5	19.5	6.07e-01	0	60	0	872939520	55	4842
2026-01-15 12:05:32.83	331.13	31.46	-41.6	-44.5	19.4	6.07e-01	0	60	0	875036672	55	4856
2026-01-15 12:05:33.84	331.24	31.23	-41.6	-44.4	19.5	6.05e-01	0	60	0	877133824	55	4798
2026-01-15 12:05:34.85	331.36	31.01	-41.5	-44.4	19.6	6.08e-01	0	60	0	878706688	55	4783
2026-01-15 12:05:35.86	331.48	30.79	-41.5	-44.4	19.6	6.06e-01	0	60	0	880803840	55	4769
2026-01-15 12:05:36.87	331.59	30.57	-41.5	-44.4	19.5	6.04e-01	0	60	0	882376704	55	4797
2026-01-15 12:05:37.88	331.70	30.35	-41.5	-44.4	19.5	6.06e-01	0	60	0	884473856	55	4813
2026-01-15 12:05:38.89	331.82	30.14	-41.7	-44.5	19.5	6.07e-01	0	60	0	886571008	55	4864
2026-01-15 12:05:39.90	331.93	29.92	-41.7	-44.6	19.3	6.05e-01	0	60	0	888143872	55	4902
2026-01-15 12:05:40.91	332.03	29.71	-41.7	-44.6	19.3	6.07e-01	0	60	0	890241024	55	4902
2026-01-15 12:05:41.92	332.14	29.50	-41.8	-44.8	19.2	6.09e-01	0	60	0	892338176	55	4996
2026-01-15 12:05:42.93	332.25	29.29	-41.8	-45.0	18.9	6.07e-01	0	60	0	893911040	55	5126
2026-01-15 12:05:43.94	332.35	29.08	-41.8	-45.1	18.8	6.06e-01	0	60	0	896008192	55	5185
2026-01-15 12:05:44.94	332.45	28.87	-41.8	-45.2	18.7	6.05e-01	0	60	0	897581056	55	5249
2026-01-15 12:05:45.95	332.55	28.67	-41.8	-45.2	18.7	6.07e-01	0	60	0	899678208	55	5248
2026-01-15 12:05:46.96	332.65	28.47	-41.7	-45.1	18.7	6.08e-01	0	60	0	901775360	55	5214
2026-01-15 12:05:47.96	332.75	28.27	-41.7	-44.9	18.9	6.07e-01	0	60	0	903348224	55	5087
2026-01-15 12:05:48.97	332.85	28.06	-41.8	-45.0	18.9	6.06e-01	0	60	0	905445376	55	5116
2026-01-15 12:05:49.98	332.95	27.87	-41.9	-45.1	18.7	6.08e-01	0	60	0	907018240	55	5213
2026-01-15 12:05:50.99	333.04	27.67	-42.0	-45.3	18.6	6.07e-01	0	60	0	909115392	55	5280
2026-01-15 12:05:52.00	333.14	27.47	-42.1	-45.4	18.5	6.07e-01	0	60	0	910688256	55	5366
2026-01-15 12:05:53.00	333.23	27.28	-42.1	-45.4	18.5	6.06e-01	0	60	0	912785408	55	5381
2026-01-15 12:05:54.01	333.32	27.09	-42.2	-45.5	18.4	6.08e-01	0	60	0	914882560	55	5444
2026-01-15 12:05:55.02	333.41	26.89	-42.3	-45.7	18.2	6.06e-01	0	60	0	916455424	55	5529
2026-01-15 12:05:56.03	333.50	26.70	-42.2	-45.6	18.3	6.05e-01	0	60	0	918552576	55	5482
2026-01-15 12:05:57.04	333.59	26.51	-42.2	-45.6	18.2	6.07e-01	0	61	0	920649728	55	5509
2026-01-15 12:05:58.05	333.68	26.33	-42.2	-45.6	18.3	6.07e-01	0	60	0	922222592	55	5476
2026-01-15 12:05:59.05	333.76	26.14	-42.2	-45.5	18.3	6.06e-01	0	60	0	924319744	55	5434
2026-01-15 12:06:00.06	333.85	25.96	-42.3	-45.6	18.2	6.08e-01	0	60	0	925892608	55	5511
2026-01-15 12:06:01.07	333.94	25.77	-42.3	-45.8	18.1	6.08e-01	0	60	0	927989760	55	5602
2026-01-15 12:06:02.08	334.02	25.59	-42.4	-45.9	18.0	6.05e-01	0	60	0	930086912	55	5660
2026-01-15 12:06:03.09	334.10	25.41	-42.4	-45.9	17.9	6.07e-01	0	60	0	931659776	55	5692
2026-01-15 12:06:04.09	334.18	25.23	-42.5	-46.1	17.7	6.07e-01	0	60	0	933756928	55	5821
2026-01-15 12:06:05.10	334.26	25.05	-42.4	-45.9	17.9	6.04e-01	0	60	0	935329792	55	5671
2026-01-15 12:06:06.11	334.34	24.87	-42.4	-45.9	17.9	6.07e-01	0	60	0	937426944	55	5700
2026-01-15 12:06:07.12	334.42	24.70	-42.5	-46.0	17.7	6.06e-01	0	60	0	939524096	55	5776
2026-01-15 12:06:08.13	334.50	24.52	-42.5	-46.0	17.7	6.07e-01	0	60	0	941096960	55	5784
2026-01-15 12:06:09.14	334.58	24.35	-42.4	-46.0	17.8	6.07e-01	0	60	0	943194112	55	5754
2026-01-15 12:06:10.15	334.66	24.18	-42.4	-46.0	17.8	6.08e-01	0	60	0	944766976	55	5723
2026-01-15 12:06:11.15	334.73	24.01	-42.4	-46.0	17.7	6.08e-01	0	60	0	946864128	55	5779
2026-01-15 12:06:12.16	334.81	23.84	-42.4	-46.0	17.8	6.07e-01	0	60	0	948961280	55	5728
2026-01-15 12:06:13.17	334.88	23.67	-42.4	-45.9	17.8	6.05e-01	0	60	0	950534144	55	5680
2026-01-15 12:06:14.18	334.95	23.50	-42.3	-45.9	17.8	6.06e-01	0	60	0	952631296	55	5670
2026-01-15 12:06:15.19	335.03	23.33	-42.3	-45.9	17.8	6.08e-01	0	60	0	954204160	55	5670
2026-01-15 12:06:16.20	335.10	23.17	-42.3	-45.9	17.8	6.06e-01	0	60	0	956301312	55	5680
2026-01-15 12:06:17.21	335.17	23.00	-42.3	-45.8	17.9	6.07e-01	0	60	0	958398464	55	5594
2026-01-15 12:06:18.22	335.24	22.84	-42.3	-45.8	17.9	6.07e-01	0	60	0	959971328	55	5613
2026-01-15 12:06:19.23	335.31	22.68	-42.3	-45.8	17.8	6.08e-01	0	60	0	962068480	55	5647
2026-01-15 12:06:20.24	335.38	22.52	-42.2	-45.7	17.9	6.07e-01	0	60	0	963641344	55	5565
2026-01-15 12:06:21.25	335.45	22.35	-42.2	-45.7	17.9	6.06e-01	0	60	0	965738496	55	5578
2026-01-15 12:06:22.26	335.52	22.20	-42.2	-45.7	17.9	6.06e-01	0	60	0	967835648	55	5570
2026-01-15 12:06:23.27	335.58	22.04	-42.2	-45.7	17.9	6.05e-01	0	60	0	969408512	55	5531
2026-01-15 12:06:24.28	335.65	21.88	-42.1	-45.6	17.9	6.09e-01	0	60	0	971505664	55	5516
2026-01-15 12:06:25.29	335.71	21.72	-42.1	-45.6	17.9	6.06e-01	0	60	0	973602816	55	5514
2026-01-15 12:06:26.30	335.78	21.57	-42.1	-45.6	17.8	6.06e-01	0	60	0	975175680	55	5522
2026-01-15 12:06:27.31	335.84	21.42	-42.0	-45.5	17.9	6.07e-01	0	60	0	977272832	55	5432
2026-01-15 12:06:28.31	335.91	21.26	-42.1	-45.7	17.8	6.08e-01	0	60	0	978845696	55	5530
2026-01-15 12:06:29.32	335.97	21.11	-42.1	-45.7	17.7	6.08e-01	0	60	0	980942848	55	5553
2026-01-15 12:06:30.33	336.03	20.96	-42.1	-45.7	17.7	6.07e-01	0	60	0	983040000	55	5552
2026-01-15 12:06:31.34	336.09	20.81	-42.1	-45.7	17.7	6.09e-01	0	60	0	984612864	55	5568
2026-01-15 12:06:32.35	336.16	20.66	-42.1	-45.7	17.6	6.07e-01	0	60	0	986710016	55	5562
2026-01-15 12:06:33.36	336.22	20.51	-42.0	-45.6	17.7	6.06e-01	0	60	0	988807168	55	5519
2026-01-15 12:06:34.37	336.28	20.37	-41.9	-45.5	17.8	6.06e-01	0	60	0	990380032	55	5417
2026-01-15 12:06:35.37	336.34	20.22	-41.8	-45.4	17.8	6.07e-01	0	60	0	992477184	55	5349
2026-01-15 12:06:36.38	336.39	20.08	-41.8	-45.3	17.8	6.06e-01	0	60	0	994050048	55	5340
2026-01-15 12:06:37.39	336.45	19.93	-41.8	-45.4	17.9	6.06e-01	0	60	0	996147200	55	5344
2026-01-15 12:06:38.40	336.51	19.79	-41.8	-45.3	17.9	6.04e-01	0	60	0	998244352	55	5292
2026-01-15 12:06:39.41	336.57	19.64	-41.8	-45.3	17.9	6.06e-01	0	60	0	999817216	55	5283
2026-01-15 12:06:40.42	336.63	19.50	-41.8	-45.4	17.8	6.07e-01	0	61	0	1001914368	55	5363
2026-01-15 12:06:41.43	336.68	19.36	-41.9	-45.6	17.6	6.05e-01	0	60	0	1003487232	55	5474
2026-01-15 12:06:42.43	336.74	19.22	-42.0	-45.8	17.2	6.07e-01	0	60	0	1005584384	55	5610
2026-01-15 12:06:43.44	336.79	19.08	-42.0	-45.8	17.2	6.06e-01	0	60	0	1007157248	55	5655
2026-01-15 12:06:44.45	336.85	18.94	-42.1	-45.9	17.1	6.09e-01	0	60	0	1009254400	55	5691
2026-01-15 12:06:45.46	336.90	18.81	-42.0	-45.9	17.0	6.06e-01	0	60	0	1011351552	55	5699
2026-01-15 12:06:46.46	336.96	18.67	-41.9	-45.6	17.3	6.06e-01	0	60	0	1012924416	55	5505
2026-01-15 12:06:47.47	337.01	18.53	-41.8	-45.5	17.5	6.07e-01	0	60	0	1015021568	55	5422
2026-01-15 12:06:48.48	337.06	18.40	-41.7	-45.4	17.6	6.09e-01	0	60	0	1017118720	55	5350
2026-01-15 12:06:49.49	337.11	18.27	-41.7	-45.3	17.6	6.07e-01	0	60	0	1018691584	55	5316
2026-01-15 12:06:50.50	337.17	18.13	-41.5	-45.1	17.8	6.06e-01	0	60	0	1020788736	55	5164
2026-01-15 12:06:51.51	337.22	18.00	-41.4	-45.0	17.9	6.06e-01	0	60	0	1022361600	54	5411
2026-01-15 12:06:52.52	337.27	17.87	-41.5	-45.0	17.7	6.08e-01	0	60	0	1024458752	54	5457
2026-01-15 12:06:53.53	337.32	17.73	-41.5	-45.1	17.7	6.08e-01	0	60	0	1026555904	54	5514
2026-01-15 12:06:54.54	337.37	17.60	-41.6	-45.4	17.4	6.05e-01	0	60	0	1028128768	54	5669
2026-01-15 12:06:55.55	337.42	17.47	-41.7	-45.6	17.1	6.08e-01	0	60	0	1030225920	54	5808
2026-01-15 12:06:56.56	337.47	17.35	-41.7	-45.7	16.9	6.08e-01	0	61	0	1031798784	54	5879
2026-01-15 12:06:57.57	337.52	17.22	-41.7	-45.9	16.7	6.06e-01	0	60	0	1033895936	54	6004
2026-01-15 12:06:58.58	337.57	17.09	-41.7	-45.9	16.6	6.03e-01	0	60	0	1035993088	54	6007
2026-01-15 12:06:59.59	337.62	16.96	-41.7	-45.8	16.7	6.01e-01	0	60	0	1037565952	54	5966
2026-01-15 12:07:00.60	337.66	16.84	-41.6	-45.7	16.8	6.05e-01	0	60	0	1039663104	54	5904
2026-01-15 12:07:01.61	337.71	16.71	-41.6	-45.7	16.8	6.04e-01	0	60	0	1041760256	54	5860
2026-01-15 12:07:02.62	337.76	16.59	-41.5	-45.5	16.9	6.03e-01	0	60	0	1043333120	54	5774
2026-01-15 12:07:03.63	337.81	16.46	-41.4	-45.2	17.2	6.03e-01	0	60	0	1045430272	54	5586
2026-01-15 12:07:04.64	337.85	16.34	-41.2	-45.0	17.4	6.05e-01	0	60	0	1047003136	54	5450
2026-01-15 12:07:05.65	337.90	16.21	-41.2	-44.9	17.5	6.01e-01	0	60	0	1049100288	54	5396
2026-01-15 12:07:06.65	337.94	16.09	-41.1	-44.8	17.6	6.02e-01	0	60	0	1051197440	54	5292
2026-01-15 12:07:07.66	337.99	15.97	-41.0	-44.8	17.6	6.05e-01	0	60	0	1052770304	54	5291
2026-01-15 12:07:08.67	338.03	15.85	-41.0	-44.7	17.6	6.04e-01	0	60	0	1054867456	54	5259
2026-01-15 12:07:09.68	338.08	15.73	-40.9	-44.7	17.6	6.03e-01	0	61	0	1056440320	53	5541
2026-01-15 12:07:10.69	338.12	15.61	-40.9	-44.6	17.6	6.05e-01	0	60	0	1058537472	53	5514
2026-01-15 12:07:11.70	338.17	15.49	-40.9	-44.7	17.4	6.05e-01	0	61	0	1060110336	53	5567
2026-01-15 12:07:12.71	338.21	15.37	-40.9	-44.8	17.4	6.06e-01	0	61	0	1062207488	53	5623
2026-01-15 12:07:13.72	338.25	15.26	-40.8	-44.8	17.3	6.04e-01	0	60	0	1064304640	53	5623
2026-01-15 12:07:14.73	338.30	15.14	-40.8	-44.9	17.1	6.04e-01	0	60	0	1065877504	53	5692
2026-01-15 12:07:15.74	338.34	15.02	-40.8	-45.0	17.0	6.04e-01	0	60	0	1067974656	53	5749
2026-01-15 12:07:16.75	338.38	14.91	-40.8	-45.0	16.9	6.05e-01	0	60	0	1070071808	53	5764
2026-01-15 12:07:17.76	338.42	14.79	-40.7	-44.8	17.0	6.06e-01	0	60	0	1071644672	53	5648
2026-01-15 12:07:18.76	338.47	14.68	-40.6	-44.8	17.1	6.02e-01	0	60	0	1073741824	53	5611
2026-01-15 12:07:19.77	338.51	14.56	-40.7	-44.8	17.1	6.05e-01	0	60	0	1075314688	53	5608
2026-01-15 12:07:20.78	338.55	14.45	-40.8	-45.1	16.7	6.04e-01	0	60	0	1077411840	53	5796
2026-01-15 12:07:21.79	338.59	14.34	-40.9	-45.2	16.6	6.06e-01	0	60	0	1079508992	53	5879
2026-01-15 12:07:22.80	338.63	14.23	-41.0	-45.4	16.4	6.02e-01	0	61	0	1081081856	53	6007
2026-01-15 12:07:23.81	338.67	14.11	-41.0	-45.5	16.3	6.04e-01	0	60	0	1083179008	53	6075
2026-01-15 12:07:24.82	338.71	14.00	-41.1	-45.7	16.0	6.04e-01	0	60	0	1085276160	53	6236
2026-01-15 12:07:25.83	338.75	13.89	-41.2	-46.1	15.6	6.03e-01	0	60	0	1086849024	53	6513
2026-01-15 12:07:26.84	338.79	13.78	-41.3	-46.4	15.3	6.07e-01	0	61	0	1088946176	53	6732
2026-01-15 12:07:27.85	338.83	13.67	-41.4	-46.5	15.1	6.05e-01	0	60	0	1090519040	53	6848
2026-01-15 12:07:28.86	338.87	13.56	-41.5	-46.8	14.9	6.02e-01	0	60	0	1092616192	53	7052
2026-01-15 12:07:29.87	338.90	13.45	-41.5	-47.0	14.6	6.04e-01	0	60	0	1094713344	53	7210
2026-01-15 12:07:30.87	338.94	13.35	-41.6	-47.3	14.2	6.07e-01	0	60	0	1096286208	53	7497
2026-01-15 12:07:31.88	338.98	13.24	-41.6	-47.7	13.7	6.05e-01	0	60	0	1098383360	53	7818
2026-01-15 12:07:32.89	339.02	13.13	-41.6	-47.9	13.4	6.03e-01	0	60	0	1099956224	53	8071
2026-01-15 12:07:33.90	339.06	13.03	-41.7	-48.2	13.1	6.06e-01	0	61	0	1102053376	53	8285
2026-01-15 12:07:34.91	339.09	12.92	-41.7	-48.4	12.8	6.06e-01	0	60	0	1104150528	53	8528
2026-01-15 12:07:35.92	339.13	12.82	-41.8	-48.9	12.3	6.08e-01	0	60	0	1105723392	54	8479
2026-01-15 12:07:36.93	339.17	12.71	-41.8	-49.2	11.9	6.11e-01	0	61	0	1107820544	54	8772
2026-01-15 12:07:37.94	339.20	12.61	-41.8	-49.6	11.4	6.12e-01	0	60	0	1109393408	54	9212
2026-01-15 12:07:38.95	339.24	12.50	-41.9	-49.9	11.0	6.13e-01	0	60	0	1111490560	54	9569
2026-01-15 12:07:39.96	339.28	12.40	-42.0	-50.3	10.5	6.17e-01	0	61	0	1113587712	54	10059
2026-01-15 12:07:40.97	339.31	12.30	-42.0	-50.9	9.9	6.21e-01	0	60	0	1115160576	54	10742
2026-01-15 12:07:41.98	339.35	12.19	-42.1	-51.3	9.5	6.26e-01	0	61	0	1117257728	54	11226
2026-01-15 12:07:42.99	339.38	12.09	-42.2	-51.8	8.9	6.33e-01	1	61	0	1118830592	54	11883
2026-01-15 12:07:44.00	339.42	11.99	-42.2	-52.1	8.6	6.38e-01	4	60	0	1120927744	55	11658
2026-01-15 12:07:45.01	339.45	11.89	-42.3	-52.5	8.1	6.46e-01	75	60	0	1123024896	55	12164
2026-01-15 12:07:46.02	339.49	11.79	-42.3	-52.9	7.6	6.53e-01	93	61	0	1124597760	55	12805
2026-01-15 12:07:47.02	339.52	11.69	-42.3	-53.5	7.0	6.64e-01	91	61	0	1126694912	55	13703
2026-01-15 12:07:48.03	339.55	11.59	-42.3	-53.8	6.7	6.70e-01	92	61	0	1128267776	55	14112
2026-01-15 12:07:49.04	339.59	11.49	-42.3	-54.4	6.3	6.78e-01	92	61	0	1130364928	55	15055
2026-01-15 12:07:50.05	339.62	11.39	-42.3	-54.8	5.8	6.90e-01	92	60	0	1131937792	55	15865
2026-01-15 12:07:51.06	339.66	11.29	-42.3	-55.1	5.6	6.93e-01	24	61	0	1132986368	55	16384
2026-01-15 12:07:52.07	339.69	11.19	-42.3	-55.5	5.3	7.01e-01	5	60	0	1134034944	55	17180
2026-01-15 12:07:53.08	339.72	11.10	-42.3	-55.8	5.1	7.05e-01	0	61	0	1134034944	55	17791
2026-01-15 12:07:54.09	339.76	11.00	-42.2	-56.3	4.8	7.17e-01	0	61	0	1134034944	55	18894
2026-01-15 12:07:55.10	339.79	10.90	-42.2	-56.7	4.6	7.19e-01	0	61	104	1134034944	55	19655
2026-01-15 12:07:56.11	339.82	10.81	-42.2	-57.1	4.3	7.25e-01	0	61	104	1134034944	55	20703
2026-01-15 12:07:57.12	339.85	10.71	-42.1	-57.5	4.3	7.29e-01	0	61	104	1134034944	55	21744
2026-01-15 12:07:58.13	339.88	10.61	-42.0	-59.6	3.8	7.44e-01	0	61	104	1134034944	55	27645
2026-01-15 12:07:59.14	339.92	10.52	-42.8	-58.3	4.2	7.30e-01	0	60	104	1134034944	56	22420
2026-01-15 12:08:00.15	339.95	10.42	-41.8	-61.0	3.8	7.43e-01	0	60	104	1134034944	55	32348
2026-01-15 12:08:01.16	339.98	10.33	-41.7	-60.8	3.8	7.43e-01	0	61	104	1134034944	55	31554
2026-01-15 12:08:02.17	340.01	10.24	-42.6	-60.1	3.8	7.43e-01	0	61	104	1134034944	55	29112
2026-01-15 12:08:03.18	340.04	10.14	-42.4	-59.0	4.1	7.43e-01	0	61	104	1134034944	55	25723
2026-01-15 12:08:04.19	340.07	10.05	-42.4	-58.9	4.0	7.37e-01	0	61	104	1134034944	55	25506
2026-01-15 12:08:05.20	340.10	9.96	-42.3	-59.8	3.8	7.41e-01	0	60	104	1134034944	55	28039
2026-01-15 12:08:06.21	340.13	9.87	-42.0	-60.0	3.8	7.43e-01	0	61	104	1134034944	55	28742
2026-01-15 12:08:07.22	340.17	9.77	-42.1	-59.6	3.8	7.41e-01	0	60	104	1134034944	55	27419
2026-01-15 12:08:08.23	340.20	9.68	-41.8	-60.8	3.8	7.45e-01	0	61	104	1134034944	55	31725
2026-01-15 12:08:09.25	340.23	9.59	-42.2	-61.1	3.8	7.44e-01	0	61	104	1134034944	55	32855
2026-01-15 12:08:10.25	340.26	9.50	-42.6	-59.9	3.9	7.44e-01	0	61	104	1134034944	55	28618
2026-01-15 12:08:11.26	340.29	9.41	-42.4	-59.6	3.8	7.43e-01	0	61	104	1134034944	55	27495
2026-01-15 12:08:12.27	340.31	9.32	-42.4	-59.3	3.9	7.40e-01	0	61	104	1134034944	55	26693
2026-01-15 12:08:13.28	340.34	9.23	-42.3	-59.8	3.8	7.45e-01	0	61	104	1134034944	55	28154
2026-01-15 12:08:14.29	340.37	9.14	-42.0	-60.1	3.8	7.40e-01	0	61	104	1134034944	55	29227
2026-01-15 12:08:15.30	340.40	9.05	-41.9	-60.5	3.8	7.43e-01	0	60	104	1134034944	55	30566
2026-01-15 12:08:16.31	340.43	8.96	-41.6	-60.7	3.8	7.46e-01	0	61	104	1134034944	55	31186
2026-01-15 12:08:17.32	340.46	8.87	-41.8	-60.9	3.8	7.47e-01	0	61	104	1134034944	55	32044
2026-01-15 12:08:18.33	340.49	8.79	-41.6	-61.0	3.8	7.46e-01	0	61	104	1134034944	55	32226
2026-01-15 12:08:19.34	340.52	8.70	-41.9	-60.9	3.8	7.45e-01	0	61	104	1134034944	55	31862
2026-01-15 12:08:20.35	340.55	8.61	-41.7	-60.9	3.8	7.49e-01	0	61	104	1134034944	55	32140
2026-01-15 12:08:21.36	340.57	8.52	-41.9	-61.0	3.8	7.48e-01	0	61	104	1134034944	55	32263
2026-01-15 12:08:22.37	340.60	8.44	-41.7	-60.8	3.8	7.42e-01	0	61	104	1134034944	55	31655
2026-01-15 12:08:23.38	340.63	8.35	-42.0	-61.0	3.8	7.42e-01	0	61	104	1134034944	55	32459
2026-01-15 12:08:24.39	340.66	8.26	-41.7	-60.6	3.8	7.43e-01	0	61	104	1134034944	55	30994
2026-01-15 12:08:25.40	340.68	8.18	-41.8	-60.8	3.8	7.44e-01	0	61	104	1134034944	55	31615
2026-01-15 12:08:26.41	340.71	8.09	-41.8	-61.0	3.8	7.45e-01	0	61	104	1134034944	55	32415
2026-01-15 12:08:27.42	340.74	8.01	-41.6	-60.5	3.8	7.47e-01	0	61	104	1134034944	55	30488
2026-01-15 12:08:28.43	340.77	7.92	-44.0	-62.9	3.9	7.47e-01	0	61	104	1134034944	58	33852
2026-01-15 12:08:29.44	340.79	7.84	-45.0	-63.7	3.8	7.46e-01	0	61	104	1134034944	60	33183
2026-01-15 12:08:30.45	340.82	7.75	-45.6	-64.3	3.8	7.47e-01	0	60	104	1134034944	61	33546
2026-01-15 12:08:31.46	340.85	7.67	-46.0	-64.7	3.8	7.44e-01	0	61	104	1134034944	62	32934
2026-01-15 12:08:32.46	340.87	7.59	-46.1	-64.8	3.8	7.47e-01	0	61	104	1134034944	62	33493
2026-01-15 12:08:33.48	340.90	7.50	-46.2	-64.9	3.9	7.48e-01	0	61	104	1134034944	63	32128
2026-01-15 12:08:34.49	340.93	7.42	-46.3	-65.0	3.8	7.42e-01	0	61	104	1134034944	63	32319
