passes_logs/2026/01/15/R2.0S_Moscow/R2.0S_Moscow__20260115_011452_SUOMI_NPP_rec.log

#Pass ID: 20260115_011452_SUOMI NPP
#Satellite: SUOMI NPP
#Configuration: NPP
#almurnet v.1.7.20251203
#Start time: 2026-01-15 01:14:52

#Version: 2.2.20231116
#Station: R2.0S_Moscow
#Location: 37.707566 lon 55.798166 lat
#TLE: 1 37849U 11061A   26014.11719687  .00000048  00000+0  43625-4 0  9998
#TLE: 2 37849  98.7809 316.1734 0002474  65.2440 294.8994 14.19525043736585

#Time	Az	El	Level	Level2	SNR	BER	BlckErr	Temp	State	Recorded	gain1	gain2
2026-01-15 01:14:52.44	10.76	2.00	-39.9	-54.6	3.8	1.49e+00	0	48	0	0	51	19558
2026-01-15 01:14:53.44	10.71	2.06	-39.9	-54.6	3.8	1.49e+00	0	48	104	0	51	19504
2026-01-15 01:14:54.45	10.65	2.12	-39.9	-54.6	3.8	1.49e+00	0	48	104	0	51	19548
2026-01-15 01:14:55.46	10.59	2.18	-39.9	-54.6	3.8	1.49e+00	0	49	104	0	51	19538
2026-01-15 01:14:56.47	10.53	2.24	-39.9	-54.6	3.8	1.49e+00	0	49	104	0	51	19535
2026-01-15 01:14:57.48	10.47	2.30	-39.9	-54.6	3.8	1.49e+00	0	49	104	0	51	19514
2026-01-15 01:14:58.49	10.41	2.35	-39.9	-54.6	3.8	1.49e+00	0	49	104	0	51	19528
2026-01-15 01:14:59.50	10.35	2.41	-39.9	-54.6	3.8	1.49e+00	0	49	104	0	51	19520
2026-01-15 01:15:00.49	10.29	2.47	-39.9	-54.6	3.8	1.49e+00	0	49	104	0	51	19507
2026-01-15 01:15:01.50	10.23	2.53	-39.9	-54.6	3.8	1.49e+00	0	49	104	0	51	19509
2026-01-15 01:15:02.51	10.17	2.59	-39.9	-54.6	3.8	1.49e+00	0	49	104	0	51	19550
2026-01-15 01:15:03.52	10.11	2.65	-39.9	-54.6	3.8	1.49e+00	0	49	104	0	51	19502
2026-01-15 01:15:04.53	10.05	2.71	-39.9	-54.6	3.8	1.49e+00	0	49	104	0	51	19511
2026-01-15 01:15:05.54	9.98	2.77	-39.9	-54.6	3.8	1.49e+00	0	49	104	0	51	19517
2026-01-15 01:15:06.55	9.92	2.83	-39.9	-54.6	3.8	1.49e+00	0	49	104	0	51	19545
2026-01-15 01:15:07.56	9.86	2.89	-39.9	-54.6	3.8	1.49e+00	0	50	104	0	51	19474
2026-01-15 01:15:08.56	9.80	2.95	-39.9	-54.6	3.8	1.49e+00	0	50	104	0	51	19552
2026-01-15 01:15:09.58	9.73	3.01	-39.9	-54.6	3.8	1.49e+00	0	49	104	0	51	19516
2026-01-15 01:15:10.59	9.67	3.07	-39.9	-54.6	3.8	1.49e+00	0	50	104	0	51	19544
2026-01-15 01:15:11.60	9.61	3.13	-39.9	-54.6	3.8	1.49e+00	0	50	104	0	51	19526
2026-01-15 01:15:12.61	9.54	3.19	-39.9	-54.6	3.8	1.49e+00	0	50	104	0	51	19489
2026-01-15 01:15:13.62	9.48	3.25	-39.9	-54.6	3.8	1.49e+00	0	50	104	0	51	19482
2026-01-15 01:15:14.63	9.42	3.31	-39.9	-54.6	3.8	1.49e+00	0	50	104	0	51	19554
2026-01-15 01:15:15.64	9.35	3.37	-39.9	-54.6	3.8	1.49e+00	0	50	104	0	51	19492
2026-01-15 01:15:16.65	9.29	3.43	-39.9	-54.6	3.8	1.49e+00	0	50	104	0	51	19531
2026-01-15 01:15:17.66	9.22	3.49	-39.9	-54.6	3.8	1.49e+00	0	50	104	0	51	19485
2026-01-15 01:15:18.67	9.16	3.55	-39.9	-54.6	3.8	1.49e+00	0	50	104	0	51	19507
2026-01-15 01:15:19.68	9.09	3.61	-39.9	-54.6	3.8	1.49e+00	0	50	104	0	51	19520
2026-01-15 01:15:20.69	9.03	3.67	-39.9	-54.6	3.8	1.49e+00	0	50	104	0	51	19570
2026-01-15 01:15:21.70	8.96	3.73	-39.9	-54.6	3.8	1.49e+00	0	50	104	0	51	19541
2026-01-15 01:15:22.71	8.89	3.79	-39.9	-54.6	3.8	1.49e+00	0	50	104	0	51	19450
2026-01-15 01:15:23.72	8.83	3.85	-39.9	-54.6	3.8	1.49e+00	0	51	104	0	51	19526
2026-01-15 01:15:24.73	8.76	3.92	-39.9	-54.6	3.8	1.49e+00	0	50	104	0	51	19532
2026-01-15 01:15:25.74	8.69	3.98	-39.9	-54.6	3.8	1.49e+00	0	50	104	0	51	19565
2026-01-15 01:15:26.76	8.62	4.04	-39.9	-54.6	3.8	1.49e+00	0	51	104	0	51	19493
2026-01-15 01:15:27.77	8.55	4.10	-39.9	-54.6	3.8	1.49e+00	0	51	104	0	51	19502
2026-01-15 01:15:28.78	8.49	4.16	-39.9	-54.6	3.8	1.49e+00	0	51	104	0	51	19527
2026-01-15 01:15:29.79	8.42	4.22	-39.9	-54.6	3.8	1.49e+00	0	51	104	0	51	19489
2026-01-15 01:15:30.80	8.35	4.29	-39.9	-54.6	3.8	1.49e+00	0	51	104	0	51	19519
2026-01-15 01:15:31.81	8.28	4.35	-39.9	-54.6	3.8	1.49e+00	0	51	104	0	51	19488
2026-01-15 01:15:32.82	8.21	4.41	-39.9	-54.6	3.8	1.49e+00	0	51	104	0	51	19482
2026-01-15 01:15:33.83	8.14	4.47	-39.9	-54.6	3.8	1.49e+00	0	51	104	0	51	19478
2026-01-15 01:15:34.84	8.07	4.54	-39.9	-54.6	3.8	1.49e+00	0	51	104	0	51	19471
2026-01-15 01:15:35.84	8.00	4.60	-39.9	-54.6	3.8	1.49e+00	0	51	104	0	51	19503
2026-01-15 01:15:36.86	7.93	4.66	-39.9	-54.6	3.8	1.49e+00	0	51	104	0	51	19499
2026-01-15 01:15:37.87	7.86	4.72	-39.9	-54.6	3.8	1.49e+00	0	51	104	0	51	19504
2026-01-15 01:15:38.88	7.79	4.79	-39.9	-54.6	3.8	1.49e+00	0	51	104	0	51	19496
2026-01-15 01:15:39.89	7.72	4.85	-39.9	-54.6	3.8	1.49e+00	0	51	104	0	51	19507
2026-01-15 01:15:40.90	7.64	4.91	-39.9	-54.6	3.8	1.49e+00	0	51	104	0	51	19490
2026-01-15 01:15:41.91	7.57	4.97	-39.9	-54.6	3.8	1.49e+00	0	51	104	0	51	19504
2026-01-15 01:15:42.92	7.50	5.04	-39.9	-54.6	3.8	1.49e+00	0	51	104	0	51	19497
2026-01-15 01:15:43.93	7.42	5.10	-39.9	-54.6	3.8	1.49e+00	0	52	104	0	51	19505
2026-01-15 01:15:44.94	7.35	5.16	-39.9	-54.6	3.8	1.49e+00	0	52	104	0	51	19440
2026-01-15 01:15:45.95	7.28	5.23	-39.9	-54.6	3.8	1.49e+00	0	52	104	0	51	19479
2026-01-15 01:15:46.96	7.20	5.29	-39.9	-54.6	3.8	1.49e+00	0	52	104	0	51	19522
2026-01-15 01:15:47.97	7.13	5.35	-39.9	-54.6	3.8	1.49e+00	0	52	104	0	51	19519
2026-01-15 01:15:48.98	7.05	5.42	-39.9	-54.6	3.8	1.49e+00	0	52	104	0	51	19544
2026-01-15 01:15:49.99	6.98	5.48	-39.9	-54.6	3.8	1.49e+00	0	52	104	0	51	19501
2026-01-15 01:15:51.00	6.90	5.55	-39.9	-54.6	3.8	1.49e+00	0	52	104	0	51	19474
2026-01-15 01:15:52.01	6.83	5.61	-39.9	-54.6	3.8	1.49e+00	0	52	104	0	51	19468
2026-01-15 01:15:53.02	6.75	5.67	-39.9	-54.6	3.8	1.49e+00	0	52	104	0	51	19499
2026-01-15 01:15:54.03	6.68	5.74	-39.9	-54.6	3.8	1.49e+00	0	52	104	0	51	19521
2026-01-15 01:15:55.04	6.60	5.80	-39.9	-54.6	3.8	1.49e+00	0	52	104	0	51	19505
2026-01-15 01:15:56.05	6.52	5.87	-39.9	-54.6	3.8	1.49e+00	0	52	104	0	51	19490
2026-01-15 01:15:57.06	6.44	5.93	-39.9	-54.6	3.8	1.49e+00	0	52	104	0	51	19514
2026-01-15 01:15:58.07	6.37	6.00	-39.9	-54.6	3.8	1.49e+00	0	52	104	0	51	19464
2026-01-15 01:15:59.08	6.29	6.06	-39.9	-54.6	3.8	1.49e+00	0	52	104	0	51	19518
2026-01-15 01:16:00.08	6.21	6.13	-39.9	-54.6	3.8	1.49e+00	0	52	104	0	51	19471
2026-01-15 01:16:01.10	6.13	6.19	-39.9	-54.6	3.8	1.49e+00	0	52	104	0	51	19532
2026-01-15 01:16:02.10	6.05	6.26	-39.9	-54.6	3.8	1.49e+00	0	52	104	0	51	19492
2026-01-15 01:16:03.11	5.97	6.32	-39.9	-54.6	3.8	1.49e+00	0	52	104	0	51	19501
2026-01-15 01:16:04.12	5.89	6.39	-39.9	-54.6	3.8	1.49e+00	0	53	104	0	51	19461
2026-01-15 01:16:05.14	5.81	6.45	-39.9	-54.6	3.8	1.49e+00	0	52	104	0	51	19465
2026-01-15 01:16:06.15	5.73	6.52	-39.9	-54.6	3.8	1.49e+00	0	53	104	0	51	19489
2026-01-15 01:16:07.16	5.65	6.59	-39.9	-54.6	3.8	1.49e+00	0	53	104	0	51	19546
2026-01-15 01:16:08.17	5.57	6.65	-39.9	-54.6	3.8	1.49e+00	0	53	104	0	51	19501
2026-01-15 01:16:09.18	5.48	6.72	-39.9	-54.6	3.8	1.49e+00	0	53	104	0	51	19481
2026-01-15 01:16:10.19	5.40	6.78	-39.9	-54.6	3.8	1.49e+00	0	53	104	0	51	19499
2026-01-15 01:16:11.20	5.32	6.85	-39.9	-54.6	3.8	1.49e+00	0	53	104	0	51	19496
2026-01-15 01:16:12.21	5.24	6.92	-39.9	-54.6	3.8	1.49e+00	0	53	104	0	51	19535
2026-01-15 01:16:13.22	5.15	6.98	-39.9	-54.6	3.8	1.49e+00	0	53	104	0	51	19536
2026-01-15 01:16:14.23	5.07	7.05	-39.9	-54.6	3.8	1.49e+00	0	53	104	0	51	19518
2026-01-15 01:16:15.24	4.98	7.12	-39.9	-54.6	3.8	1.49e+00	0	53	104	0	51	19496
2026-01-15 01:16:16.25	4.90	7.18	-39.9	-54.6	3.8	1.49e+00	0	53	104	0	51	19532
2026-01-15 01:16:17.26	4.81	7.25	-39.9	-54.6	3.8	1.49e+00	0	53	104	0	51	19489
2026-01-15 01:16:18.27	4.73	7.32	-39.9	-54.6	3.8	1.49e+00	0	53	104	0	51	19507
2026-01-15 01:16:19.28	4.64	7.38	-39.9	-54.6	3.8	1.49e+00	0	53	104	0	51	19533
2026-01-15 01:16:20.29	4.55	7.45	-39.9	-54.6	3.8	1.49e+00	0	53	104	0	51	19488
2026-01-15 01:16:21.30	4.47	7.52	-39.9	-54.6	3.8	1.49e+00	0	53	104	0	51	19494
2026-01-15 01:16:22.31	4.38	7.59	-39.9	-54.6	3.8	1.49e+00	0	53	104	0	51	19465
2026-01-15 01:16:23.32	4.29	7.65	-39.9	-54.6	3.8	1.49e+00	0	53	104	0	51	19496
2026-01-15 01:16:24.33	4.20	7.72	-39.9	-54.6	3.8	1.49e+00	0	53	104	0	51	19514
2026-01-15 01:16:25.34	4.12	7.79	-39.9	-54.6	3.8	1.49e+00	0	53	104	0	51	19492
2026-01-15 01:16:26.35	4.03	7.86	-39.9	-54.6	3.8	1.49e+00	0	53	104	0	51	19470
2026-01-15 01:16:27.36	3.94	7.92	-39.9	-54.6	3.8	1.49e+00	0	54	104	0	51	19490
2026-01-15 01:16:28.37	3.85	7.99	-39.9	-54.6	3.8	1.49e+00	0	53	104	0	51	19526
2026-01-15 01:16:29.38	3.76	8.06	-39.9	-54.6	3.8	1.49e+00	0	54	104	0	51	19535
2026-01-15 01:16:30.39	3.67	8.13	-39.9	-54.6	3.8	1.49e+00	0	53	104	0	51	19537
2026-01-15 01:16:31.40	3.58	8.20	-39.9	-54.6	3.8	1.49e+00	0	54	104	0	51	19614
2026-01-15 01:16:32.41	3.48	8.27	-40.0	-54.7	3.8	1.49e+00	0	54	104	0	51	19694
2026-01-15 01:16:33.42	3.39	8.33	-40.0	-54.7	3.8	1.49e+00	0	54	104	0	51	19747
2026-01-15 01:16:34.43	3.30	8.40	-39.9	-54.6	3.8	1.49e+00	0	54	104	0	51	19564
2026-01-15 01:16:35.44	3.21	8.47	-39.9	-54.7	3.8	1.49e+00	0	54	104	0	51	19696
2026-01-15 01:16:36.45	3.11	8.54	-39.9	-54.6	3.8	1.49e+00	0	54	104	0	51	19561
2026-01-15 01:16:37.46	3.02	8.61	-39.9	-54.7	3.8	1.49e+00	0	54	104	0	51	19624
2026-01-15 01:16:38.47	2.92	8.68	-39.9	-54.6	3.8	1.49e+00	0	54	104	0	51	19558
2026-01-15 01:16:39.48	2.83	8.75	-40.0	-54.7	3.8	1.49e+00	0	54	104	0	51	19716
2026-01-15 01:16:40.49	2.73	8.82	-39.9	-54.7	3.8	1.49e+00	0	54	104	0	51	19668
2026-01-15 01:16:41.50	2.64	8.89	-39.9	-54.7	3.8	1.49e+00	0	54	104	0	51	19714
2026-01-15 01:16:42.51	2.54	8.96	-40.0	-54.7	3.8	1.49e+00	0	54	104	0	51	19643
2026-01-15 01:16:43.52	2.44	9.03	-39.9	-54.7	3.8	1.49e+00	0	54	104	0	51	19698
2026-01-15 01:16:44.53	2.35	9.10	-40.0	-54.7	3.8	1.49e+00	0	54	104	0	51	19795
2026-01-15 01:16:45.54	2.25	9.17	-40.0	-54.7	3.8	1.49e+00	0	54	104	0	51	19801
2026-01-15 01:16:46.55	2.15	9.24	-40.0	-54.7	3.8	1.49e+00	0	54	104	0	51	19837
2026-01-15 01:16:47.56	2.05	9.31	-40.0	-54.7	3.8	1.49e+00	0	54	104	0	51	19796
2026-01-15 01:16:48.57	1.95	9.38	-40.0	-54.7	3.8	1.49e+00	0	54	104	0	51	19830
2026-01-15 01:16:49.58	1.85	9.45	-40.0	-54.8	3.8	1.49e+00	0	54	104	0	51	19848
2026-01-15 01:16:50.59	1.75	9.52	-40.0	-54.7	3.8	1.49e+00	0	54	104	0	51	19804
2026-01-15 01:16:51.60	1.65	9.59	-40.0	-54.7	3.8	1.49e+00	0	54	104	0	51	19772
2026-01-15 01:16:52.61	1.55	9.66	-39.9	-54.7	3.8	1.49e+00	0	54	104	0	51	19771
2026-01-15 01:16:53.62	1.45	9.73	-40.0	-54.8	3.8	1.49e+00	0	54	104	0	51	19854
2026-01-15 01:16:54.63	1.35	9.80	-39.9	-54.8	3.8	1.49e+00	0	54	104	0	51	19847
2026-01-15 01:16:55.64	1.24	9.88	-39.9	-54.8	3.8	1.49e+00	0	54	104	0	51	19856
2026-01-15 01:16:56.64	1.14	9.95	-40.0	-54.8	3.8	1.49e+00	0	54	104	0	51	19984
2026-01-15 01:16:57.65	1.04	10.02	-39.9	-54.7	3.8	1.49e+00	0	54	104	0	51	19664
2026-01-15 01:16:58.67	0.93	10.09	-40.0	-54.8	3.8	1.49e+00	0	54	104	0	51	19895
2026-01-15 01:16:59.68	0.83	10.16	-39.9	-54.7	3.8	1.49e+00	0	54	104	0	51	19728
2026-01-15 01:17:00.68	0.72	10.23	-39.9	-54.8	3.8	1.49e+00	0	54	104	0	51	19927
2026-01-15 01:17:01.69	0.62	10.30	-39.9	-54.8	3.8	1.49e+00	0	54	104	0	51	19888
2026-01-15 01:17:02.70	0.51	10.38	-40.0	-54.8	3.8	1.49e+00	0	54	104	0	51	20050
2026-01-15 01:17:03.71	0.40	10.45	-39.9	-54.8	3.8	1.49e+00	0	54	104	0	51	19889
2026-01-15 01:17:04.72	0.30	10.52	-40.1	-55.0	3.8	1.49e+00	0	54	104	0	51	20351
2026-01-15 01:17:05.73	0.19	10.59	-39.8	-54.7	3.8	1.49e+00	0	54	104	0	51	19819
2026-01-15 01:17:06.74	0.08	10.67	-40.1	-55.0	3.8	1.49e+00	0	54	104	0	51	20377
2026-01-15 01:17:07.75	359.97	10.74	-39.6	-54.7	3.8	1.49e+00	0	54	104	0	51	19740
2026-01-15 01:17:08.76	359.86	10.81	-39.9	-55.0	3.8	1.49e+00	0	55	104	0	50	21571
2026-01-15 01:17:09.76	359.75	10.88	-40.0	-54.8	3.8	1.49e+00	0	55	104	0	50	21236
2026-01-15 01:17:10.77	359.64	10.96	-40.0	-55.1	3.8	1.49e+00	0	55	104	0	50	21815
2026-01-15 01:17:11.78	359.53	11.03	-40.0	-54.9	3.8	1.49e+00	0	55	104	0	50	21311
2026-01-15 01:17:12.79	359.42	11.10	-40.4	-55.3	3.8	1.49e+00	0	55	104	0	51	21212
2026-01-15 01:17:13.80	359.30	11.18	-39.7	-54.7	3.8	1.49e+00	0	55	104	0	51	19833
2026-01-15 01:17:14.81	359.19	11.25	-39.6	-54.7	3.8	1.49e+00	0	55	104	0	51	19664
2026-01-15 01:17:15.82	359.08	11.32	-39.7	-54.7	3.8	1.49e+00	0	55	104	0	51	19716
2026-01-15 01:17:16.83	358.96	11.40	-39.7	-54.7	3.8	1.49e+00	0	55	104	0	51	19664
2026-01-15 01:17:17.84	358.85	11.47	-39.7	-54.7	3.8	1.49e+00	0	55	104	0	51	19676
2026-01-15 01:17:18.85	358.73	11.54	-39.8	-54.8	3.8	1.49e+00	0	55	104	0	51	19862
2026-01-15 01:17:19.86	358.61	11.62	-40.7	-55.5	3.8	1.49e+00	0	55	104	0	51	21752
2026-01-15 01:17:20.87	358.50	11.69	-40.0	-55.1	3.8	1.49e+00	0	55	104	0	51	20656
2026-01-15 01:17:21.88	358.38	11.77	-39.8	-54.8	3.8	1.49e+00	0	55	104	0	51	19965
2026-01-15 01:17:22.89	358.26	11.84	-39.9	-54.9	3.8	1.49e+00	0	55	104	0	51	20230
2026-01-15 01:17:23.90	358.14	11.91	-39.9	-55.0	3.8	1.49e+00	0	55	104	0	51	20411
2026-01-15 01:17:24.91	358.02	11.99	-39.9	-55.0	3.8	1.49e+00	0	55	104	0	51	20409
2026-01-15 01:17:25.92	357.90	12.06	-40.2	-55.2	3.8	1.49e+00	0	55	104	0	51	20869
2026-01-15 01:17:26.93	357.78	12.14	-40.9	-55.1	3.8	1.49e+00	0	55	104	0	52	19463
2026-01-15 01:17:27.94	357.66	12.21	-40.3	-55.1	3.8	1.49e+00	0	55	104	0	52	19553
2026-01-15 01:17:28.95	357.54	12.29	-41.6	-55.6	3.8	1.49e+00	0	55	104	0	53	19535
2026-01-15 01:17:29.96	357.42	12.36	-40.0	-54.1	3.8	1.48e+00	0	55	104	0	52	17457
2026-01-15 01:17:30.97	357.29	12.44	-40.2	-50.9	4.6	1.49e+00	0	55	104	0	51	12734
2026-01-15 01:17:31.98	357.17	12.51	-40.1	-49.2	5.5	6.16e-01	0	55	0	1048576	51	10464
2026-01-15 01:17:32.99	357.05	12.59	-39.9	-48.4	6.1	3.58e-01	0	55	0	3145728	51	9500
2026-01-15 01:17:34.00	356.92	12.66	-40.0	-47.9	6.6	2.75e-01	0	55	0	5242880	51	8971
2026-01-15 01:17:35.01	356.80	12.74	-40.0	-47.6	6.9	1.77e-01	0	55	0	6291456	51	8752
2026-01-15 01:17:36.02	356.67	12.81	-40.3	-48.3	6.3	2.15e-01	0	55	0	8388608	51	9421
2026-01-15 01:17:37.03	356.54	12.89	-40.5	-49.4	5.6	3.71e-01	0	55	0	10485760	51	10657
2026-01-15 01:17:38.04	356.41	12.96	-40.7	-50.7	4.7	6.50e-01	0	55	0	12582912	52	11762
2026-01-15 01:17:39.05	356.29	13.04	-40.8	-51.9	4.3	1.29e+00	0	55	0	13631488	52	13450
2026-01-15 01:17:40.06	356.16	13.12	-40.9	-52.3	4.1	1.41e+00	0	55	0	13631488	52	14156
2026-01-15 01:17:41.07	356.03	13.19	-40.9	-53.5	3.8	1.48e+00	0	55	104	13631488	52	16279
2026-01-15 01:17:42.08	355.90	13.27	-40.9	-54.4	3.8	1.49e+00	0	55	104	13631488	52	18019
2026-01-15 01:17:43.08	355.77	13.34	-40.9	-54.7	3.8	1.49e+00	0	55	104	13631488	52	18550
2026-01-15 01:17:44.09	355.63	13.42	-40.8	-54.9	3.8	1.49e+00	0	55	104	13631488	52	19133
2026-01-15 01:17:45.10	355.50	13.50	-40.9	-55.2	3.8	1.49e+00	0	55	104	13631488	52	19732
2026-01-15 01:17:46.11	355.37	13.57	-41.5	-55.3	3.8	1.49e+00	0	55	104	13631488	53	18925
2026-01-15 01:17:47.12	355.24	13.65	-41.3	-55.5	3.8	1.49e+00	0	55	104	13631488	53	19258
2026-01-15 01:17:48.13	355.10	13.73	-40.5	-55.3	3.8	1.49e+00	0	55	104	13631488	52	19890
2026-01-15 01:17:49.14	354.97	13.80	-41.0	-55.5	3.8	1.49e+00	0	55	104	13631488	52	20436
2026-01-15 01:17:50.15	354.83	13.88	-40.4	-55.2	3.8	1.49e+00	0	55	104	13631488	52	19773
2026-01-15 01:17:51.16	354.69	13.96	-40.6	-55.3	3.8	1.49e+00	0	55	104	13631488	52	19912
2026-01-15 01:17:52.16	354.56	14.03	-41.0	-55.6	3.8	1.49e+00	0	55	104	13631488	52	20667
2026-01-15 01:17:53.17	354.42	14.11	-40.5	-55.2	3.8	1.49e+00	0	55	104	13631488	52	19741
2026-01-15 01:17:54.18	354.28	14.19	-40.9	-55.6	3.8	1.49e+00	0	55	104	13631488	52	20621
2026-01-15 01:17:55.19	354.14	14.26	-40.7	-55.4	3.8	1.49e+00	0	56	104	13631488	52	20113
2026-01-15 01:17:56.20	354.00	14.34	-40.4	-55.2	3.8	1.49e+00	0	55	104	13631488	52	19685
2026-01-15 01:17:57.21	353.86	14.42	-40.6	-55.3	3.8	1.49e+00	0	56	104	13631488	52	19883
2026-01-15 01:17:58.22	353.72	14.50	-40.4	-55.2	3.8	1.49e+00	0	55	104	13631488	52	19703
2026-01-15 01:17:59.23	353.57	14.57	-40.5	-55.2	3.8	1.49e+00	0	56	104	13631488	52	19832
2026-01-15 01:18:00.24	353.43	14.65	-40.6	-55.3	3.8	1.49e+00	0	55	104	13631488	52	19887
2026-01-15 01:18:01.25	353.28	14.73	-40.5	-55.3	3.8	1.49e+00	0	56	104	13631488	52	20039
2026-01-15 01:18:02.26	353.14	14.80	-40.5	-55.2	3.8	1.49e+00	0	56	104	13631488	52	19663
2026-01-15 01:18:03.27	352.99	14.88	-40.2	-55.3	3.8	1.49e+00	0	56	104	13631488	52	19909
2026-01-15 01:18:04.28	352.85	14.96	-40.7	-55.3	3.8	1.49e+00	0	56	104	13631488	52	19915
2026-01-15 01:18:05.29	352.70	15.04	-40.1	-55.4	3.8	1.49e+00	0	56	104	13631488	52	20097
2026-01-15 01:18:06.30	352.55	15.12	-40.6	-55.3	3.8	1.49e+00	0	56	104	13631488	52	19892
2026-01-15 01:18:07.31	352.40	15.19	-40.3	-55.4	3.8	1.49e+00	0	56	104	13631488	52	20133
2026-01-15 01:18:08.32	352.25	15.27	-40.5	-55.3	3.8	1.49e+00	0	56	104	13631488	52	19991
2026-01-15 01:18:09.33	352.10	15.35	-40.2	-55.5	3.8	1.49e+00	0	56	104	13631488	51	21565
2026-01-15 01:18:10.35	351.95	15.43	-40.5	-55.5	3.8	1.49e+00	0	56	104	13631488	51	21551
2026-01-15 01:18:11.36	351.80	15.51	-40.4	-55.4	3.8	1.49e+00	0	56	104	13631488	51	21459
2026-01-15 01:18:12.37	351.64	15.58	-40.1	-55.5	3.8	1.49e+00	0	56	104	13631488	51	21534
2026-01-15 01:18:13.37	351.49	15.66	-40.0	-55.4	3.8	1.49e+00	0	56	104	13631488	51	21342
2026-01-15 01:18:14.38	351.34	15.74	-40.5	-55.7	3.8	1.49e+00	0	56	104	13631488	51	22019
2026-01-15 01:18:15.39	351.18	15.82	-40.0	-55.6	3.8	1.49e+00	0	56	104	13631488	51	21806
2026-01-15 01:18:16.40	351.02	15.90	-40.0	-55.5	3.8	1.49e+00	0	56	104	13631488	51	21660
2026-01-15 01:18:17.41	350.87	15.97	-40.0	-55.6	3.8	1.49e+00	0	56	104	13631488	51	21760
2026-01-15 01:18:18.42	350.71	16.05	-39.9	-55.5	3.8	1.49e+00	0	56	104	13631488	51	21596
2026-01-15 01:18:19.43	350.55	16.13	-39.6	-55.5	3.8	1.49e+00	0	56	104	13631488	51	21735
2026-01-15 01:18:20.44	350.39	16.21	-40.6	-55.5	3.8	1.49e+00	0	56	104	13631488	52	20372
2026-01-15 01:18:21.45	350.23	16.29	-40.1	-55.5	3.8	1.49e+00	0	56	104	13631488	51	21623
2026-01-15 01:18:22.46	350.07	16.37	-40.7	-55.6	3.8	1.49e+00	0	56	104	13631488	52	20599
2026-01-15 01:18:23.47	349.91	16.45	-40.7	-55.5	3.8	1.49e+00	0	56	104	13631488	52	20435
2026-01-15 01:18:24.49	349.74	16.52	-40.5	-55.4	3.8	1.49e+00	0	56	104	13631488	52	20244
2026-01-15 01:18:25.50	349.58	16.60	-40.9	-55.6	3.8	1.49e+00	0	56	104	13631488	53	19451
2026-01-15 01:18:26.51	349.41	16.68	-40.5	-55.5	3.8	1.49e+00	0	56	104	13631488	52	20360
2026-01-15 01:18:27.51	349.25	16.76	-41.2	-55.7	3.8	1.49e+00	0	56	104	13631488	52	20951
2026-01-15 01:18:28.52	349.08	16.84	-41.2	-55.8	3.8	1.49e+00	0	56	104	13631488	53	19965
2026-01-15 01:18:29.54	348.91	16.92	-41.3	-55.8	3.8	1.49e+00	0	56	104	13631488	53	20027
2026-01-15 01:18:30.55	348.74	17.00	-41.4	-55.9	3.8	1.49e+00	0	56	104	13631488	53	20204
2026-01-15 01:18:31.56	348.57	17.07	-41.4	-55.9	3.8	1.49e+00	0	56	104	13631488	53	20163
2026-01-15 01:18:32.57	348.40	17.15	-41.4	-55.9	3.8	1.49e+00	0	56	104	13631488	53	20202
2026-01-15 01:18:33.57	348.24	17.23	-41.4	-55.9	3.8	1.49e+00	0	56	104	13631488	53	20189
2026-01-15 01:18:34.58	348.06	17.31	-41.2	-55.7	3.8	1.49e+00	0	56	104	13631488	53	19744
2026-01-15 01:18:35.60	347.89	17.39	-41.4	-55.9	3.8	1.49e+00	0	56	104	13631488	53	20203
2026-01-15 01:18:36.60	347.72	17.46	-41.2	-55.8	3.8	1.49e+00	0	56	104	13631488	53	19852
2026-01-15 01:18:37.61	347.54	17.54	-41.4	-55.9	3.8	1.49e+00	0	56	104	13631488	53	20209
2026-01-15 01:18:38.62	347.37	17.62	-41.4	-55.9	3.8	1.49e+00	0	56	104	13631488	53	20124
2026-01-15 01:18:39.63	347.19	17.70	-41.3	-55.8	3.8	1.49e+00	0	56	104	13631488	53	20013
2026-01-15 01:18:40.64	347.01	17.78	-41.2	-55.7	3.8	1.49e+00	0	56	104	13631488	53	19806
2026-01-15 01:18:41.65	346.83	17.86	-41.3	-55.8	3.8	1.49e+00	0	56	104	13631488	53	19919
2026-01-15 01:18:42.65	346.65	17.93	-40.8	-55.6	3.8	1.49e+00	0	56	104	13631488	53	19481
2026-01-15 01:18:43.66	346.47	18.01	-41.1	-55.7	3.8	1.49e+00	0	56	104	13631488	53	19737
2026-01-15 01:18:44.67	346.29	18.09	-40.9	-55.5	3.8	1.49e+00	0	56	104	13631488	53	19274
2026-01-15 01:18:45.68	346.11	18.17	-40.9	-55.6	3.8	1.49e+00	0	56	104	13631488	53	19483
2026-01-15 01:18:46.69	345.93	18.25	-40.9	-55.5	3.8	1.49e+00	0	56	104	13631488	53	19324
2026-01-15 01:18:47.70	345.74	18.32	-40.9	-55.5	3.8	1.49e+00	0	56	104	13631488	53	19265
2026-01-15 01:18:48.71	345.56	18.40	-40.9	-55.5	3.8	1.49e+00	0	57	104	13631488	53	19260
2026-01-15 01:18:49.72	345.37	18.48	-40.9	-55.5	3.8	1.49e+00	0	56	104	13631488	53	19257
2026-01-15 01:18:50.73	345.18	18.56	-41.1	-55.7	3.8	1.49e+00	0	56	104	13631488	53	19821
2026-01-15 01:18:51.74	345.00	18.64	-40.9	-55.5	3.8	1.49e+00	0	56	104	13631488	53	19214
2026-01-15 01:18:52.75	344.81	18.71	-41.1	-55.8	3.8	1.49e+00	0	56	104	13631488	53	19928
2026-01-15 01:18:53.76	344.62	18.79	-40.8	-55.4	3.8	1.49e+00	0	56	104	13631488	53	19095
2026-01-15 01:18:54.77	344.43	18.87	-40.9	-55.6	3.8	1.49e+00	0	57	104	13631488	53	19431
2026-01-15 01:18:55.78	344.23	18.95	-40.9	-55.5	3.8	1.49e+00	0	56	104	13631488	53	19335
2026-01-15 01:18:56.79	344.04	19.02	-41.1	-55.7	3.8	1.49e+00	0	56	104	13631488	53	19753
2026-01-15 01:18:57.79	343.85	19.10	-40.9	-55.5	3.8	1.49e+00	0	56	104	13631488	53	19332
2026-01-15 01:18:58.80	343.65	19.18	-41.2	-55.9	3.8	1.49e+00	0	56	104	13631488	53	20220
2026-01-15 01:18:59.81	343.46	19.25	-40.8	-55.4	3.8	1.49e+00	0	56	104	13631488	53	19019
2026-01-15 01:19:00.82	343.26	19.33	-41.2	-55.9	3.8	1.49e+00	0	56	104	13631488	53	20140
2026-01-15 01:19:01.83	343.06	19.41	-40.9	-55.5	3.8	1.49e+00	0	56	104	13631488	53	19324
2026-01-15 01:19:02.84	342.86	19.48	-41.0	-55.9	3.8	1.49e+00	0	56	104	13631488	53	20225
2026-01-15 01:19:03.85	342.66	19.56	-41.1	-55.7	3.8	1.49e+00	0	57	104	13631488	53	19692
2026-01-15 01:19:04.86	342.46	19.64	-41.3	-56.0	3.8	1.49e+00	0	56	104	13631488	53	20528
2026-01-15 01:19:05.86	342.26	19.71	-41.2	-55.8	3.8	1.49e+00	0	56	104	13631488	53	19860
2026-01-15 01:19:06.87	342.06	19.79	-41.6	-55.8	3.8	1.49e+00	0	56	104	13631488	53	20035
2026-01-15 01:19:07.89	341.85	19.86	-40.9	-55.8	3.8	1.49e+00	0	57	104	13631488	53	19889
2026-01-15 01:19:08.89	341.65	19.94	-41.9	-55.8	3.8	1.49e+00	0	56	104	13631488	54	18911
2026-01-15 01:19:09.90	341.44	20.01	-41.2	-56.0	3.8	1.49e+00	0	56	104	13631488	54	19348
2026-01-15 01:19:10.91	341.24	20.09	-41.8	-55.3	3.8	1.49e+00	0	57	104	13631488	54	17887
2026-01-15 01:19:11.92	341.03	20.16	-41.4	-55.9	3.8	1.49e+00	0	56	104	13631488	54	19079
2026-01-15 01:19:12.93	340.82	20.24	-41.6	-53.3	4.1	1.49e+00	0	57	104	13631488	54	14180
2026-01-15 01:19:13.94	340.61	20.31	-41.6	-52.1	4.5	1.21e+00	0	57	0	14680064	54	12363
2026-01-15 01:19:14.95	340.40	20.39	-41.6	-51.5	4.8	8.97e-01	0	56	0	15728640	54	11539
2026-01-15 01:19:15.95	340.19	20.46	-41.5	-51.0	5.1	7.37e-01	0	57	0	17825792	54	10893
2026-01-15 01:19:16.96	339.97	20.54	-41.6	-50.9	5.2	5.62e-01	0	56	0	19922944	54	10766
2026-01-15 01:19:17.97	339.76	20.61	-41.7	-49.6	6.3	3.41e-01	0	57	0	22020096	54	9192
2026-01-15 01:19:18.98	339.54	20.69	-41.7	-48.6	7.4	1.73e-01	0	57	0	24117248	54	8182
2026-01-15 01:19:19.99	339.33	20.76	-41.6	-47.4	8.7	7.72e-02	0	56	0	25165824	54	7195
2026-01-15 01:19:21.00	339.11	20.83	-41.6	-46.9	9.5	2.26e-02	0	57	0	27262976	54	6771
2026-01-15 01:19:22.01	338.89	20.91	-41.4	-46.2	10.3	7.47e-03	0	56	0	29360128	54	6258
2026-01-15 01:19:23.02	338.67	20.98	-41.2	-45.8	10.9	4.38e-03	0	57	0	31457280	54	5961
2026-01-15 01:19:24.03	338.45	21.05	-41.4	-46.0	10.7	2.48e-03	0	57	0	33554432	54	6105
2026-01-15 01:19:25.03	338.23	21.12	-41.5	-46.2	10.7	3.07e-03	0	56	0	34603008	54	6218
2026-01-15 01:19:26.04	338.01	21.20	-41.7	-46.7	10.2	3.37e-03	0	56	0	36700160	54	6585
2026-01-15 01:19:27.05	337.78	21.27	-41.8	-46.7	10.3	4.60e-03	0	56	0	38797312	54	6634
2026-01-15 01:19:28.06	337.56	21.34	-41.9	-46.7	10.4	4.22e-03	0	57	0	40894464	54	6600
2026-01-15 01:19:29.07	337.33	21.41	-41.7	-46.2	10.9	3.08e-03	0	57	0	42991616	54	6274
2026-01-15 01:19:30.08	337.10	21.48	-41.6	-46.0	11.2	1.46e-03	0	57	0	44040192	54	6129
2026-01-15 01:19:31.09	336.87	21.55	-41.6	-45.8	11.4	1.14e-03	0	56	0	46137344	54	5982
2026-01-15 01:19:32.10	336.65	21.62	-41.6	-45.9	11.5	8.30e-04	0	57	0	48234496	54	6010
2026-01-15 01:19:33.11	336.41	21.69	-41.6	-45.7	11.7	5.52e-04	0	57	0	50331648	54	5906
2026-01-15 01:19:34.12	336.18	21.76	-41.5	-45.5	11.9	4.83e-04	0	57	0	52428800	54	5768
2026-01-15 01:19:35.13	335.95	21.83	-41.5	-45.6	11.9	4.06e-04	0	57	0	53477376	54	5809
2026-01-15 01:19:36.14	335.72	21.90	-41.6	-45.6	11.9	4.40e-04	0	57	0	55574528	54	5813
2026-01-15 01:19:37.15	335.48	21.97	-41.5	-45.4	12.1	2.62e-04	0	57	0	57671680	54	5706
2026-01-15 01:19:38.15	335.25	22.04	-41.6	-45.6	12.2	2.49e-04	0	57	0	59768832	54	5790
2026-01-15 01:19:39.16	335.01	22.11	-41.5	-45.3	12.3	1.89e-04	0	57	0	61865984	54	5615
2026-01-15 01:19:40.17	334.77	22.18	-41.4	-45.2	12.4	1.69e-04	0	57	0	62914560	54	5587
2026-01-15 01:19:41.18	334.54	22.24	-41.4	-45.1	12.5	1.52e-04	0	57	0	65011712	54	5519
2026-01-15 01:19:42.19	334.30	22.31	-41.5	-45.3	12.3	1.03e-04	0	57	0	67108864	54	5633
2026-01-15 01:19:43.20	334.05	22.38	-41.4	-45.1	12.5	1.16e-04	0	57	0	69206016	54	5506
2026-01-15 01:19:44.21	333.81	22.44	-41.4	-45.1	12.6	9.76e-05	0	57	0	71303168	54	5486
2026-01-15 01:19:45.22	333.57	22.51	-41.4	-45.2	12.5	1.04e-04	0	57	0	73400320	54	5530
2026-01-15 01:19:46.23	333.33	22.58	-41.3	-44.8	12.9	6.86e-05	0	57	0	74448896	54	5300
2026-01-15 01:19:47.24	333.08	22.64	-41.3	-44.9	12.9	4.34e-05	0	57	0	76546048	54	5344
2026-01-15 01:19:48.25	332.83	22.71	-41.2	-44.7	13.0	3.81e-05	0	57	0	78643200	54	5237
2026-01-15 01:19:49.26	332.59	22.77	-41.2	-44.7	13.0	2.97e-05	0	57	0	80740352	54	5260
2026-01-15 01:19:50.27	332.34	22.84	-41.2	-44.6	13.1	2.82e-05	0	57	0	82837504	54	5203
2026-01-15 01:19:51.28	332.09	22.90	-41.2	-44.7	13.1	3.96e-05	0	57	0	83886080	54	5260
2026-01-15 01:19:52.29	331.84	22.96	-41.3	-44.9	12.8	5.18e-05	0	57	0	85983232	54	5385
2026-01-15 01:19:53.29	331.59	23.03	-41.4	-45.0	12.8	6.33e-05	0	57	0	88080384	54	5410
2026-01-15 01:19:54.30	331.34	23.09	-41.6	-45.4	12.4	8.16e-05	0	57	0	90177536	54	5683
2026-01-15 01:19:55.31	331.08	23.15	-41.5	-45.3	12.4	1.33e-04	0	57	0	92274688	54	5614
2026-01-15 01:19:56.32	330.83	23.21	-41.6	-45.3	12.5	9.76e-05	0	57	0	93323264	54	5637
2026-01-15 01:19:57.33	330.57	23.27	-41.4	-44.9	12.9	8.77e-05	0	57	0	95420416	54	5366
2026-01-15 01:19:58.33	330.32	23.33	-41.4	-44.9	13.0	4.27e-05	0	57	0	97517568	54	5346
2026-01-15 01:19:59.35	330.06	23.39	-41.4	-44.9	12.9	5.56e-05	0	57	0	99614720	54	5362
2026-01-15 01:20:00.36	329.80	23.45	-41.4	-44.9	12.9	4.50e-05	0	57	0	101711872	54	5374
2026-01-15 01:20:01.37	329.54	23.51	-41.4	-45.0	12.8	3.66e-05	0	57	0	102760448	54	5439
2026-01-15 01:20:02.37	329.28	23.57	-41.5	-45.2	12.6	7.40e-05	0	57	0	104857600	54	5569
2026-01-15 01:20:03.38	329.02	23.63	-41.7	-45.6	12.3	1.50e-04	0	57	0	106954752	54	5792
2026-01-15 01:20:04.39	328.76	23.69	-41.7	-45.6	12.2	1.87e-04	0	57	0	109051904	54	5836
2026-01-15 01:20:05.40	328.50	23.74	-41.7	-45.5	12.2	1.84e-04	0	57	0	111149056	54	5778
2026-01-15 01:20:06.40	328.23	23.80	-41.5	-45.2	12.7	1.27e-04	0	57	0	112197632	54	5530
2026-01-15 01:20:07.41	327.97	23.86	-41.5	-45.1	12.7	6.71e-05	0	57	0	114294784	54	5478
2026-01-15 01:20:08.42	327.70	23.91	-41.4	-44.9	12.9	7.55e-05	0	57	0	116391936	54	5381
2026-01-15 01:20:09.43	327.43	23.97	-41.1	-44.5	13.4	2.59e-05	0	57	0	118489088	54	5124
2026-01-15 01:20:10.44	327.17	24.02	-41.2	-44.6	13.2	2.74e-05	0	57	0	120586240	54	5191
2026-01-15 01:20:11.44	326.90	24.07	-41.3	-44.7	13.1	3.28e-05	0	57	0	121634816	54	5269
2026-01-15 01:20:12.45	326.63	24.13	-41.4	-45.0	12.8	6.56e-05	0	57	0	123731968	54	5416
2026-01-15 01:20:13.46	326.36	24.18	-41.5	-45.1	12.7	9.61e-05	0	57	0	125829120	54	5526
2026-01-15 01:20:14.47	326.09	24.23	-41.6	-45.4	12.4	9.53e-05	0	57	0	127926272	54	5680
2026-01-15 01:20:15.48	325.81	24.28	-41.7	-45.5	12.5	1.27e-04	0	57	0	130023424	54	5730
2026-01-15 01:20:16.49	325.54	24.34	-41.5	-45.1	12.7	7.01e-05	0	57	0	131072000	54	5506
2026-01-15 01:20:17.50	325.27	24.39	-41.4	-44.8	13.0	3.12e-05	0	57	0	133169152	54	5313
2026-01-15 01:20:18.51	324.99	24.44	-41.3	-44.7	13.2	2.82e-05	0	57	0	135266304	54	5246
2026-01-15 01:20:19.52	324.71	24.48	-41.2	-44.5	13.3	1.98e-05	0	57	0	137363456	54	5143
2026-01-15 01:20:20.53	324.44	24.53	-41.3	-44.7	13.2	1.44e-05	0	57	0	139460608	54	5227
2026-01-15 01:20:21.54	324.16	24.58	-41.4	-44.9	13.0	2.97e-05	0	57	0	140509184	54	5349
2026-01-15 01:20:22.54	323.88	24.63	-41.3	-44.8	13.1	3.66e-05	0	57	0	142606336	54	5284
2026-01-15 01:20:23.56	323.60	24.67	-41.5	-45.0	12.8	3.20e-05	0	57	0	144703488	54	5441
2026-01-15 01:20:24.56	323.32	24.72	-41.5	-45.0	12.9	4.34e-05	0	57	0	146800640	54	5412
2026-01-15 01:20:25.57	323.04	24.76	-41.4	-44.8	13.1	4.27e-05	0	57	0	148897792	54	5325
2026-01-15 01:20:26.58	322.76	24.81	-41.2	-44.6	13.3	1.67e-05	0	57	0	149946368	54	5170
2026-01-15 01:20:27.59	322.47	24.85	-41.1	-44.5	13.4	1.60e-05	0	57	0	152043520	54	5103
2026-01-15 01:20:28.60	322.19	24.90	-41.1	-44.4	13.5	1.98e-05	0	57	0	154140672	54	5060
2026-01-15 01:20:29.61	321.91	24.94	-41.2	-44.5	13.3	1.29e-05	0	57	0	156237824	54	5143
2026-01-15 01:20:30.62	321.62	24.98	-41.2	-44.6	13.3	1.37e-05	0	57	0	158334976	54	5180
2026-01-15 01:20:31.62	321.34	25.02	-41.4	-44.8	13.1	2.51e-05	0	57	0	159383552	54	5335
2026-01-15 01:20:32.63	321.05	25.06	-41.4	-44.9	12.9	5.34e-05	0	57	0	161480704	54	5365
2026-01-15 01:20:33.64	320.76	25.10	-41.3	-44.8	13.1	2.89e-05	0	57	0	163577856	54	5288
2026-01-15 01:20:34.65	320.47	25.14	-41.2	-44.6	13.3	1.83e-05	0	57	0	165675008	54	5162
2026-01-15 01:20:35.66	320.18	25.18	-41.2	-44.5	13.4	2.28e-05	0	57	0	167772160	54	5133
2026-01-15 01:20:36.67	319.90	25.21	-41.3	-44.6	13.2	1.29e-05	0	57	0	169869312	54	5218
2026-01-15 01:20:37.68	319.60	25.25	-41.4	-44.8	13.0	3.81e-05	0	57	0	170917888	54	5337
2026-01-15 01:20:38.68	319.32	25.29	-41.6	-45.3	12.6	1.20e-04	0	57	0	173015040	54	5636
2026-01-15 01:20:39.69	319.02	25.32	-41.8	-45.5	12.3	1.94e-04	0	57	0	175112192	54	5771
2026-01-15 01:20:40.70	318.73	25.36	-42.1	-46.2	11.6	4.32e-04	0	57	0	177209344	54	6271
2026-01-15 01:20:41.71	318.44	25.39	-42.3	-46.7	11.2	1.24e-03	0	57	0	179306496	55	6244
2026-01-15 01:20:42.72	318.14	25.42	-42.5	-47.2	10.7	2.05e-03	0	57	0	180355072	55	6587
2026-01-15 01:20:43.73	317.85	25.45	-42.6	-47.5	10.3	5.15e-03	0	57	0	182452224	55	6838
2026-01-15 01:20:44.74	317.56	25.49	-42.6	-47.5	10.3	6.48e-03	0	57	0	184549376	55	6860
2026-01-15 01:20:45.75	317.26	25.52	-42.6	-47.4	10.4	4.82e-03	0	57	0	186646528	55	6758
2026-01-15 01:20:46.76	316.96	25.54	-42.3	-46.8	11.0	2.85e-03	0	57	0	188743680	55	6333
2026-01-15 01:20:47.77	316.67	25.57	-42.1	-46.3	11.5	1.14e-03	0	57	0	189792256	55	5934
2026-01-15 01:20:48.77	316.37	25.60	-42.0	-46.2	11.6	5.97e-04	0	57	0	191889408	55	5858
2026-01-15 01:20:49.79	316.07	25.63	-42.1	-46.3	11.6	6.23e-04	0	57	0	193986560	55	5933
2026-01-15 01:20:50.79	315.78	25.65	-42.2	-46.5	11.3	1.37e-03	0	57	0	196083712	55	6087
2026-01-15 01:20:51.80	315.48	25.68	-42.3	-46.8	11.0	2.36e-03	0	57	0	198180864	55	6326
2026-01-15 01:20:52.81	315.18	25.70	-42.4	-47.1	10.8	2.50e-03	0	57	0	199229440	55	6498
2026-01-15 01:20:53.82	314.88	25.73	-42.4	-47.1	10.6	3.27e-03	0	57	0	201326592	55	6562
2026-01-15 01:20:54.83	314.58	25.75	-42.3	-46.9	10.9	2.86e-03	0	57	0	203423744	55	6399
2026-01-15 01:20:55.85	314.28	25.77	-42.4	-47.0	10.8	2.18e-03	0	57	0	205520896	55	6445
2026-01-15 01:20:56.85	313.98	25.80	-42.2	-46.6	11.1	2.35e-03	0	57	0	207618048	55	6195
2026-01-15 01:20:57.86	313.68	25.82	-42.1	-46.3	11.5	1.16e-03	0	57	0	208666624	55	5968
2026-01-15 01:20:58.87	313.37	25.84	-42.0	-46.2	11.6	6.51e-04	0	57	0	210763776	55	5910
2026-01-15 01:20:59.88	313.07	25.85	-42.1	-46.3	11.5	6.03e-04	0	57	0	212860928	55	5963
2026-01-15 01:21:00.89	312.77	25.87	-42.3	-46.7	10.9	1.02e-03	0	57	0	214958080	55	6262
2026-01-15 01:21:01.90	312.47	25.89	-42.5	-47.3	10.4	3.39e-03	0	57	0	217055232	55	6704
2026-01-15 01:21:02.91	312.16	25.90	-42.5	-47.5	10.3	5.57e-03	0	57	0	218103808	55	6811
2026-01-15 01:21:03.92	311.86	25.92	-42.5	-47.4	10.4	6.97e-03	0	57	0	220200960	55	6752
2026-01-15 01:21:04.93	311.56	25.93	-42.4	-47.1	10.6	4.16e-03	0	57	0	222298112	55	6514
2026-01-15 01:21:05.94	311.25	25.95	-42.2	-46.6	11.1	1.99e-03	0	57	0	224395264	55	6193
2026-01-15 01:21:06.95	310.95	25.96	-42.1	-46.4	11.4	1.33e-03	0	57	0	226492416	55	5996
2026-01-15 01:21:07.96	310.64	25.97	-42.0	-46.1	11.7	7.84e-04	0	57	0	227540992	55	5853
2026-01-15 01:21:08.97	310.34	25.98	-41.9	-45.9	12.0	5.29e-04	0	57	0	229638144	55	5658
2026-01-15 01:21:09.98	310.03	25.99	-41.9	-45.9	12.0	4.58e-04	0	57	0	231735296	55	5665
2026-01-15 01:21:10.99	309.73	26.00	-41.9	-46.1	11.7	5.69e-04	0	57	0	233832448	55	5793
2026-01-15 01:21:12.00	309.42	26.01	-42.1	-46.5	11.3	1.00e-03	0	57	0	235929600	55	6120
2026-01-15 01:21:13.01	309.12	26.02	-42.4	-47.2	10.6	2.45e-03	0	57	0	236978176	55	6581
2026-01-15 01:21:14.01	308.81	26.02	-42.6	-47.6	10.2	4.58e-03	0	57	0	239075328	55	6894
2026-01-15 01:21:15.02	308.51	26.03	-42.6	-47.6	10.2	6.47e-03	0	57	0	241172480	55	6883
2026-01-15 01:21:16.03	308.20	26.03	-42.6	-47.5	10.3	6.84e-03	0	57	0	243269632	55	6817
2026-01-15 01:21:17.04	307.90	26.04	-42.6	-47.5	10.2	7.12e-03	0	57	0	245366784	55	6845
2026-01-15 01:21:18.05	307.59	26.04	-42.5	-47.4	10.3	4.81e-03	0	57	0	247463936	55	6765
2026-01-15 01:21:19.06	307.28	26.04	-42.5	-47.2	10.6	3.54e-03	0	57	0	248512512	55	6587
2026-01-15 01:21:20.07	306.98	26.04	-42.2	-46.6	11.2	2.40e-03	0	57	0	250609664	55	6146
2026-01-15 01:21:21.08	306.67	26.04	-42.0	-46.2	11.6	7.52e-04	0	57	0	252706816	55	5896
2026-01-15 01:21:22.09	306.37	26.04	-41.9	-46.0	11.8	5.16e-04	0	57	0	254803968	55	5750
2026-01-15 01:21:23.10	306.06	26.04	-41.9	-46.0	11.9	4.23e-04	0	57	0	256901120	55	5725
2026-01-15 01:21:24.10	305.76	26.04	-41.9	-45.9	11.9	4.54e-04	0	57	0	257949696	55	5696
2026-01-15 01:21:25.11	305.45	26.04	-41.9	-46.0	11.8	4.90e-04	0	57	0	260046848	55	5758
2026-01-15 01:21:26.12	305.14	26.03	-42.1	-46.5	11.3	7.84e-04	0	57	0	262144000	55	6108
2026-01-15 01:21:27.12	304.84	26.03	-42.4	-47.0	10.8	1.77e-03	0	57	0	264241152	55	6470
2026-01-15 01:21:28.13	304.54	26.02	-42.5	-47.3	10.4	3.69e-03	0	57	0	265289728	55	6694
2026-01-15 01:21:29.14	304.23	26.01	-42.4	-47.2	10.5	3.91e-03	0	57	0	267386880	55	6616
2026-01-15 01:21:30.15	303.92	26.00	-42.4	-47.2	10.6	4.71e-03	0	57	0	269484032	55	6625
2026-01-15 01:21:31.16	303.62	26.00	-42.4	-47.1	10.7	3.41e-03	0	57	0	271581184	55	6540
2026-01-15 01:21:32.17	303.31	25.99	-42.4	-47.0	10.7	2.71e-03	0	57	0	273678336	55	6481
2026-01-15 01:21:33.18	303.01	25.98	-42.2	-46.6	11.2	2.26e-03	0	57	0	275775488	55	6156
2026-01-15 01:21:34.19	302.70	25.96	-42.2	-46.7	11.1	1.46e-03	0	57	0	276824064	55	6207
2026-01-15 01:21:35.20	302.40	25.95	-42.1	-46.4	11.4	1.08e-03	0	57	0	278921216	55	6005
2026-01-15 01:21:36.20	302.10	25.94	-42.0	-46.2	11.6	7.99e-04	0	57	0	281018368	55	5894
2026-01-15 01:21:37.21	301.79	25.92	-41.9	-45.9	11.9	5.19e-04	0	58	0	283115520	55	5708
2026-01-15 01:21:38.22	301.49	25.91	-41.8	-45.8	12.1	2.39e-04	0	57	0	285212672	55	5635
2026-01-15 01:21:39.23	301.19	25.89	-41.6	-45.4	12.4	2.00e-04	0	57	0	286261248	55	5387
2026-01-15 01:21:40.24	300.88	25.88	-41.7	-45.5	12.4	1.56e-04	0	57	0	288358400	55	5428
2026-01-15 01:21:41.25	300.58	25.86	-41.7	-45.5	12.4	2.33e-04	0	57	0	290455552	55	5427
2026-01-15 01:21:42.26	300.28	25.84	-41.8	-45.6	12.2	1.68e-04	0	57	0	292552704	55	5512
2026-01-15 01:21:43.27	299.98	25.82	-41.7	-45.6	12.3	1.81e-04	0	57	0	294649856	55	5482
2026-01-15 01:21:44.28	299.67	25.80	-41.7	-45.4	12.4	1.39e-04	0	57	0	295698432	55	5383
2026-01-15 01:21:45.29	299.37	25.78	-41.5	-45.2	12.6	1.03e-04	0	57	0	297795584	55	5272
2026-01-15 01:21:46.30	299.07	25.76	-41.3	-44.7	13.2	6.48e-05	0	57	0	299892736	54	5262
2026-01-15 01:21:47.30	298.77	25.74	-41.0	-44.3	13.6	1.83e-05	0	57	0	301989888	54	4991
2026-01-15 01:21:48.31	298.47	25.71	-40.8	-43.8	14.0	7.00e-07	0	57	0	304087040	53	5006
2026-01-15 01:21:49.32	298.17	25.69	-40.6	-43.5	14.4	3.00e-06	0	57	0	305135616	53	4828
2026-01-15 01:21:50.33	297.87	25.66	-40.6	-43.5	14.4	0.00e+00	0	57	0	307232768	53	4846
2026-01-15 01:21:51.34	297.58	25.64	-40.8	-43.9	14.1	0.00e+00	0	57	0	309329920	53	5043
2026-01-15 01:21:52.35	297.28	25.61	-40.9	-44.0	13.9	1.50e-06	0	57	0	311427072	53	5118
2026-01-15 01:21:53.36	296.98	25.58	-40.9	-44.1	13.8	5.30e-06	0	57	0	313524224	53	5177
2026-01-15 01:21:54.37	296.68	25.55	-40.7	-43.7	14.2	2.20e-06	0	57	0	314572800	53	4955
2026-01-15 01:21:55.38	296.39	25.53	-41.0	-44.1	13.8	2.20e-06	0	57	0	316669952	53	5186
2026-01-15 01:21:56.39	296.09	25.50	-41.1	-44.3	13.6	7.60e-06	0	57	0	318767104	53	5286
2026-01-15 01:21:57.40	295.79	25.46	-41.2	-44.6	13.3	1.44e-05	0	57	0	320864256	53	5473
2026-01-15 01:21:58.41	295.50	25.43	-41.4	-44.9	13.0	1.60e-05	0	57	0	322961408	53	5671
2026-01-15 01:21:59.41	295.21	25.40	-41.4	-44.9	13.0	3.05e-05	0	57	0	324009984	53	5697
2026-01-15 01:22:00.43	294.91	25.37	-41.4	-45.0	12.9	4.95e-05	0	57	0	326107136	53	5724
2026-01-15 01:22:01.44	294.62	25.33	-41.4	-44.9	12.9	4.04e-05	0	57	0	328204288	53	5698
2026-01-15 01:22:02.45	294.32	25.30	-41.4	-44.8	13.1	4.65e-05	0	57	0	330301440	53	5616
2026-01-15 01:22:03.45	294.04	25.26	-41.4	-44.9	13.0	5.03e-05	0	57	0	332398592	53	5701
2026-01-15 01:22:04.46	293.74	25.23	-41.4	-44.9	13.0	3.28e-05	0	57	0	333447168	53	5677
2026-01-15 01:22:05.47	293.45	25.19	-41.3	-44.6	13.3	1.22e-05	0	57	0	335544320	53	5466
2026-01-15 01:22:06.48	293.16	25.15	-41.4	-44.9	13.0	2.44e-05	0	57	0	337641472	53	5690
2026-01-15 01:22:07.49	292.87	25.11	-41.6	-45.2	12.7	5.79e-05	0	57	0	339738624	53	5889
2026-01-15 01:22:08.49	292.59	25.07	-41.6	-45.3	12.6	7.09e-05	0	57	0	341835776	53	5938
2026-01-15 01:22:09.50	292.30	25.03	-41.6	-45.3	12.6	9.61e-05	0	57	0	343932928	53	5930
2026-01-15 01:22:10.51	292.01	24.99	-41.7	-45.3	12.6	8.77e-05	0	57	0	344981504	54	5616
2026-01-15 01:22:11.52	291.73	24.95	-41.8	-45.6	12.3	9.84e-05	0	57	0	347078656	54	5801
2026-01-15 01:22:12.53	291.44	24.91	-42.0	-45.9	12.0	2.01e-04	0	57	0	349175808	54	6060
2026-01-15 01:22:13.54	291.16	24.87	-42.2	-46.5	11.4	1.02e-03	0	57	0	351272960	55	6095
2026-01-15 01:22:14.55	290.87	24.82	-42.3	-46.7	11.1	1.51e-03	0	57	0	353370112	55	6245
2026-01-15 01:22:15.56	290.59	24.78	-42.1	-46.3	11.7	1.33e-03	0	57	0	354418688	55	5930
2026-01-15 01:22:16.57	290.31	24.73	-42.0	-45.9	11.9	3.83e-04	0	57	0	356515840	55	5708
2026-01-15 01:22:17.57	290.03	24.69	-42.0	-46.0	11.8	3.81e-04	0	57	0	358612992	55	5758
2026-01-15 01:22:18.58	289.75	24.64	-41.9	-45.9	12.0	3.49e-04	0	57	0	360710144	55	5662
2026-01-15 01:22:19.58	289.47	24.60	-42.1	-46.2	11.6	5.19e-04	0	57	0	361758720	55	5909
2026-01-15 01:22:20.59	289.19	24.55	-42.1	-46.2	11.6	7.27e-04	0	57	0	363855872	55	5916
2026-01-15 01:22:21.60	288.91	24.50	-42.2	-46.4	11.4	9.76e-04	0	57	0	365953024	55	6016
2026-01-15 01:22:22.60	288.64	24.45	-42.3	-46.6	11.2	1.21e-03	0	57	0	368050176	55	6167
2026-01-15 01:22:23.61	288.36	24.40	-42.4	-46.9	10.9	1.79e-03	0	57	0	370147328	55	6371
2026-01-15 01:22:24.62	288.09	24.35	-42.4	-47.0	10.9	1.65e-03	0	57	0	372244480	55	6434
2026-01-15 01:22:25.63	287.81	24.30	-42.3	-46.8	10.9	2.18e-03	0	57	0	373293056	55	6343
2026-01-15 01:22:26.63	287.54	24.25	-42.3	-46.7	11.1	1.29e-03	0	57	0	375390208	55	6223
2026-01-15 01:22:27.64	287.27	24.20	-42.3	-46.8	10.9	1.68e-03	0	57	0	377487360	55	6341
2026-01-15 01:22:28.65	287.00	24.14	-42.4	-47.0	10.8	2.65e-03	0	57	0	379584512	55	6438
2026-01-15 01:22:29.66	286.73	24.09	-42.5	-47.3	10.5	4.09e-03	0	57	0	381681664	55	6666
2026-01-15 01:22:30.67	286.46	24.04	-42.6	-47.5	10.3	4.81e-03	0	57	0	382730240	55	6806
2026-01-15 01:22:31.67	286.19	23.98	-42.5	-47.2	10.5	4.35e-03	0	57	0	384827392	55	6613
2026-01-15 01:22:32.68	285.92	23.93	-42.2	-46.6	11.1	1.86e-03	0	57	0	386924544	55	6199
2026-01-15 01:22:33.69	285.65	23.87	-42.1	-46.3	11.5	9.29e-04	0	57	0	389021696	55	5947
2026-01-15 01:22:34.70	285.39	23.82	-42.0	-46.1	11.6	7.13e-04	0	57	0	391118848	55	5849
2026-01-15 01:22:35.71	285.12	23.76	-42.1	-46.3	11.5	8.51e-04	0	57	0	392167424	55	5958
2026-01-15 01:22:36.71	284.86	23.70	-42.1	-46.5	11.3	1.08e-03	0	57	0	394264576	55	6081
2026-01-15 01:22:37.72	284.60	23.65	-42.2	-46.5	11.3	1.03e-03	0	57	0	396361728	55	6088
2026-01-15 01:22:38.73	284.33	23.59	-42.3	-46.9	10.9	1.51e-03	0	57	0	398458880	55	6390
2026-01-15 01:22:39.74	284.07	23.53	-42.3	-46.9	10.9	2.69e-03	0	57	0	400556032	55	6389
2026-01-15 01:22:40.75	283.81	23.47	-42.4	-47.1	10.7	3.03e-03	0	57	0	401604608	55	6496
2026-01-15 01:22:41.75	283.55	23.41	-42.3	-46.8	10.9	2.97e-03	0	57	0	403701760	55	6336
2026-01-15 01:22:42.76	283.29	23.35	-42.2	-46.6	11.1	1.74e-03	0	57	0	405798912	55	6185
2026-01-15 01:22:43.77	283.04	23.29	-42.2	-46.5	11.2	1.34e-03	0	57	0	407896064	55	6116
2026-01-15 01:22:44.78	282.78	23.23	-42.1	-46.4	11.3	1.10e-03	0	57	0	409993216	55	6058
2026-01-15 01:22:45.79	282.52	23.17	-42.2	-46.6	11.2	1.57e-03	0	57	0	411041792	55	6158
2026-01-15 01:22:46.80	282.27	23.11	-42.2	-46.7	11.1	1.63e-03	0	57	0	413138944	55	6242
2026-01-15 01:22:47.81	282.02	23.04	-42.4	-47.0	10.7	2.09e-03	0	58	0	415236096	55	6471
2026-01-15 01:22:48.82	281.76	22.98	-42.4	-47.1	10.6	2.89e-03	0	57	0	417333248	55	6508
2026-01-15 01:22:49.83	281.51	22.92	-42.5	-47.4	10.3	4.54e-03	0	57	0	419430400	55	6762
2026-01-15 01:22:50.84	281.26	22.85	-42.6	-47.6	10.1	5.28e-03	0	57	0	420478976	55	6934
2026-01-15 01:22:51.85	281.01	22.79	-42.6	-47.9	9.9	7.99e-03	0	57	0	422576128	55	7131
2026-01-15 01:22:52.86	280.76	22.72	-42.5	-47.5	10.0	1.08e-02	0	57	0	424673280	55	6875
2026-01-15 01:22:53.87	280.52	22.66	-42.4	-47.3	10.4	7.34e-03	0	57	0	426770432	55	6699
2026-01-15 01:22:54.88	280.27	22.59	-42.1	-46.4	11.3	2.61e-03	0	57	0	428867584	55	6049
2026-01-15 01:22:55.89	280.02	22.53	-42.0	-46.2	11.5	1.00e-03	0	58	0	429916160	55	5912
2026-01-15 01:22:56.90	279.78	22.46	-41.9	-46.1	11.7	5.78e-04	0	58	0	432013312	55	5804
2026-01-15 01:22:57.91	279.54	22.39	-41.9	-46.2	11.6	4.32e-04	0	57	0	434110464	55	5868
2026-01-15 01:22:58.92	279.29	22.33	-42.1	-46.5	11.2	1.05e-03	0	57	0	436207616	55	6091
2026-01-15 01:22:59.93	279.05	22.26	-42.2	-46.7	11.0	1.59e-03	0	57	0	438304768	55	6272
2026-01-15 01:23:00.94	278.81	22.19	-42.3	-47.0	10.6	2.83e-03	0	57	0	439353344	55	6453
2026-01-15 01:23:01.94	278.58	22.12	-42.5	-47.6	10.1	6.40e-03	0	57	0	441450496	55	6891
2026-01-15 01:23:02.95	278.34	22.06	-42.6	-47.8	9.9	7.72e-03	0	57	0	443547648	55	7060
2026-01-15 01:23:03.96	278.10	21.99	-42.6	-47.6	10.1	6.03e-03	0	58	0	445644800	55	6940
2026-01-15 01:23:04.97	277.87	21.92	-42.3	-47.1	10.7	4.60e-03	0	57	0	447741952	55	6504
2026-01-15 01:23:05.98	277.63	21.85	-42.2	-46.8	10.9	2.19e-03	0	57	0	448790528	55	6320
2026-01-15 01:23:06.99	277.40	21.78	-42.0	-46.2	11.5	1.77e-03	0	57	0	450887680	55	5906
2026-01-15 01:23:08.00	277.16	21.71	-41.6	-45.5	12.2	3.75e-04	0	57	0	452984832	55	5448
2026-01-15 01:23:09.01	276.93	21.64	-41.7	-45.6	12.1	1.72e-04	0	57	0	455081984	55	5513
2026-01-15 01:23:10.01	276.70	21.57	-41.7	-45.6	12.2	2.10e-04	0	58	0	457179136	55	5500
2026-01-15 01:23:11.02	276.47	21.50	-41.8	-45.8	12.0	2.29e-04	0	57	0	458227712	55	5618
2026-01-15 01:23:12.03	276.25	21.43	-41.9	-46.1	11.7	5.55e-04	0	57	0	460324864	55	5801
2026-01-15 01:23:13.04	276.02	21.35	-42.1	-46.5	11.2	1.11e-03	0	57	0	462422016	55	6081
2026-01-15 01:23:14.05	275.79	21.28	-42.2	-46.8	11.0	1.62e-03	0	57	0	464519168	55	6286
2026-01-15 01:23:15.06	275.57	21.21	-42.1	-46.7	11.1	1.49e-03	0	57	0	466616320	55	6205
2026-01-15 01:23:16.06	275.34	21.14	-42.2	-46.4	11.4	1.54e-03	0	57	0	468713472	55	6035
2026-01-15 01:23:17.07	275.12	21.07	-42.1	-46.2	11.5	8.80e-04	0	58	0	469762048	55	5923
2026-01-15 01:23:18.08	274.90	20.99	-41.9	-45.7	12.1	6.55e-04	0	57	0	471859200	55	5542
2026-01-15 01:23:19.09	274.68	20.92	-41.6	-45.2	12.7	1.03e-04	0	57	0	473956352	55	5226
2026-01-15 01:23:20.10	274.46	20.85	-41.4	-44.9	13.0	4.27e-05	0	58	0	476053504	54	5341
2026-01-15 01:23:21.11	274.24	20.77	-41.2	-44.5	13.4	2.67e-05	0	57	0	478150656	54	5125
2026-01-15 01:23:22.12	274.02	20.70	-41.1	-44.3	13.6	1.29e-05	0	57	0	479199232	54	5011
2026-01-15 01:23:23.13	273.80	20.63	-41.1	-44.3	13.6	5.30e-06	0	57	0	481296384	54	4984
2026-01-15 01:23:24.13	273.59	20.55	-41.3	-44.6	13.3	9.90e-06	0	57	0	483393536	54	5179
2026-01-15 01:23:25.14	273.38	20.48	-41.4	-44.8	13.0	4.04e-05	0	57	0	485490688	54	5308
2026-01-15 01:23:26.15	273.16	20.40	-41.6	-45.3	12.6	7.62e-05	0	57	0	487587840	54	5595
2026-01-15 01:23:27.16	272.95	20.33	-41.7	-45.5	12.4	1.26e-04	0	57	0	488636416	54	5731
2026-01-15 01:23:28.17	272.74	20.25	-41.8	-45.5	12.3	1.67e-04	0	57	0	490733568	54	5758
2026-01-15 01:23:29.18	272.53	20.18	-41.8	-45.6	12.2	1.98e-04	0	57	0	492830720	54	5802
2026-01-15 01:23:30.19	272.32	20.10	-41.8	-45.6	12.2	2.51e-04	0	58	0	494927872	54	5810
2026-01-15 01:23:31.20	272.11	20.03	-41.9	-45.8	12.0	2.86e-04	0	57	0	497025024	54	5930
2026-01-15 01:23:32.21	271.90	19.95	-41.9	-45.9	11.9	3.49e-04	0	57	0	498073600	54	6010
2026-01-15 01:23:33.22	271.69	19.87	-42.0	-46.0	11.8	4.73e-04	0	57	0	500170752	54	6078
2026-01-15 01:23:34.23	271.49	19.80	-42.0	-46.0	11.7	5.08e-04	0	57	0	502267904	54	6127
2026-01-15 01:23:35.23	271.29	19.72	-42.0	-46.0	11.8	5.15e-04	0	57	0	504365056	54	6067
2026-01-15 01:23:36.24	271.08	19.65	-41.9	-45.7	12.1	3.02e-04	0	57	0	506462208	54	5921
2026-01-15 01:23:37.25	270.88	19.57	-41.8	-45.7	12.1	2.75e-04	0	57	0	507510784	54	5894
2026-01-15 01:23:38.26	270.68	19.49	-41.8	-45.6	12.3	2.39e-04	0	57	0	509607936	54	5828
2026-01-15 01:23:39.27	270.48	19.42	-41.8	-45.6	12.2	2.39e-04	0	57	0	511705088	54	5793
2026-01-15 01:23:40.27	270.28	19.34	-41.7	-45.5	12.3	2.00e-04	0	57	0	513802240	54	5747
2026-01-15 01:23:41.28	270.08	19.26	-41.8	-45.6	12.2	1.72e-04	0	57	0	515899392	54	5795
2026-01-15 01:23:42.29	269.89	19.19	-41.5	-45.1	12.7	8.54e-05	0	57	0	516947968	54	5502
2026-01-15 01:23:43.30	269.69	19.11	-41.6	-45.2	12.6	7.78e-05	0	57	0	519045120	54	5578
2026-01-15 01:23:44.31	269.49	19.03	-41.7	-45.5	12.3	1.63e-04	0	57	0	521142272	54	5731
2026-01-15 01:23:45.32	269.30	18.95	-41.9	-45.9	11.8	3.49e-04	0	57	0	523239424	54	6040
2026-01-15 01:23:46.33	269.11	18.88	-42.2	-46.4	11.4	6.67e-04	0	57	0	525336576	54	6355
2026-01-15 01:23:47.34	268.91	18.80	-42.2	-46.3	11.4	8.19e-04	0	57	0	526385152	54	6336
2026-01-15 01:23:48.35	268.72	18.72	-42.1	-46.2	11.5	7.95e-04	0	57	0	528482304	54	6233
2026-01-15 01:23:49.36	268.53	18.64	-41.8	-45.6	12.1	4.03e-04	0	57	0	530579456	54	5847
2026-01-15 01:23:50.37	268.34	18.57	-41.7	-45.4	12.3	2.57e-04	0	57	0	532676608	54	5700
2026-01-15 01:23:51.38	268.15	18.49	-41.8	-45.5	12.2	1.69e-04	0	57	0	534773760	54	5787
2026-01-15 01:23:52.39	267.97	18.41	-41.7	-45.5	12.2	1.74e-04	0	57	0	535822336	54	5756
2026-01-15 01:23:53.39	267.78	18.33	-41.9	-45.7	12.0	2.24e-04	0	57	0	537919488	54	5917
2026-01-15 01:23:54.40	267.60	18.25	-41.9	-45.9	11.8	4.58e-04	0	57	0	540016640	54	6055
2026-01-15 01:23:55.42	267.41	18.17	-42.0	-46.1	11.6	5.79e-04	0	58	0	542113792	54	6136
2026-01-15 01:23:56.42	267.23	18.10	-42.0	-46.0	11.7	6.94e-04	0	57	0	544210944	54	6120
2026-01-15 01:23:57.43	267.05	18.02	-41.9	-45.9	11.8	5.93e-04	0	57	0	545259520	54	6029
2026-01-15 01:23:58.44	266.86	17.94	-41.7	-45.6	12.2	2.64e-04	0	57	0	547356672	54	5796
2026-01-15 01:23:59.45	266.68	17.86	-41.6	-45.3	12.4	2.18e-04	0	58	0	549453824	54	5642
2026-01-15 01:24:00.47	266.50	17.78	-41.7	-45.4	12.4	1.71e-04	0	57	0	551550976	54	5672
2026-01-15 01:24:01.48	266.32	17.70	-41.5	-45.2	12.6	1.11e-04	0	58	0	553648128	54	5529
2026-01-15 01:24:02.48	266.15	17.63	-41.4	-45.0	12.7	8.39e-05	0	58	0	554696704	54	5411
2026-01-15 01:24:03.50	265.97	17.55	-41.4	-44.9	12.9	6.02e-05	0	57	0	556793856	54	5375
2026-01-15 01:24:04.51	265.79	17.47	-41.3	-44.7	13.0	5.11e-05	0	57	0	558891008	54	5276
2026-01-15 01:24:05.52	265.62	17.39	-41.3	-44.8	12.9	3.28e-05	0	57	0	560988160	54	5303
2026-01-15 01:24:06.52	265.44	17.31	-41.4	-44.9	12.8	4.19e-05	0	57	0	563085312	54	5382
2026-01-15 01:24:07.53	265.27	17.23	-41.5	-45.1	12.5	8.69e-05	0	58	0	565182464	54	5519
2026-01-15 01:24:08.54	265.10	17.15	-41.7	-45.5	12.2	1.45e-04	0	58	0	566231040	54	5723
2026-01-15 01:24:09.55	264.93	17.08	-41.8	-45.8	11.9	2.78e-04	0	58	0	568328192	54	5935
2026-01-15 01:24:10.56	264.76	17.00	-41.8	-45.8	11.9	4.10e-04	0	58	0	570425344	54	5930
2026-01-15 01:24:11.57	264.59	16.92	-41.8	-45.7	12.0	3.46e-04	0	57	0	572522496	54	5883
2026-01-15 01:24:12.58	264.42	16.84	-41.7	-45.5	12.3	2.51e-04	0	57	0	574619648	54	5725
2026-01-15 01:24:13.58	264.25	16.76	-41.5	-45.2	12.5	1.50e-04	0	58	0	575668224	54	5537
2026-01-15 01:24:14.59	264.08	16.68	-41.4	-44.8	12.9	5.72e-05	0	58	0	577765376	54	5323
2026-01-15 01:24:15.60	263.92	16.60	-41.2	-44.5	13.2	2.67e-05	0	57	0	579862528	54	5128
2026-01-15 01:24:16.61	263.75	16.53	-41.3	-44.6	13.1	3.58e-05	0	57	0	581959680	54	5210
2026-01-15 01:24:17.62	263.59	16.45	-41.3	-44.7	13.0	3.50e-05	0	57	0	584056832	54	5263
2026-01-15 01:24:18.63	263.42	16.37	-41.3	-44.7	13.0	3.05e-05	0	58	0	585105408	54	5258
2026-01-15 01:24:19.63	263.26	16.29	-41.4	-44.9	12.8	3.35e-05	0	58	0	587202560	54	5386
2026-01-15 01:24:20.64	263.10	16.21	-41.5	-45.0	12.7	7.40e-05	0	57	0	589299712	54	5457
2026-01-15 01:24:21.65	262.94	16.13	-41.5	-45.1	12.5	9.00e-05	0	57	0	591396864	54	5515
2026-01-15 01:24:22.66	262.78	16.05	-41.6	-45.3	12.4	1.28e-04	0	57	0	593494016	54	5603
2026-01-15 01:24:23.66	262.62	15.98	-41.6	-45.4	12.3	1.67e-04	0	57	0	594542592	54	5662
2026-01-15 01:24:24.67	262.46	15.90	-41.6	-45.3	12.4	1.94e-04	0	57	0	596639744	54	5596
2026-01-15 01:24:25.68	262.31	15.82	-41.6	-45.4	12.3	1.62e-04	0	58	0	598736896	54	5663
2026-01-15 01:24:26.69	262.15	15.74	-41.7	-45.5	12.1	1.94e-04	0	57	0	600834048	54	5776
2026-01-15 01:24:27.70	261.99	15.66	-41.6	-45.2	12.4	1.65e-04	0	57	0	602931200	54	5579
2026-01-15 01:24:28.71	261.84	15.58	-41.4	-45.0	12.7	1.03e-04	0	58	0	603979776	54	5442
2026-01-15 01:24:29.72	261.68	15.50	-41.4	-44.8	12.8	7.78e-05	0	57	0	606076928	54	5340
2026-01-15 01:24:30.73	261.53	15.43	-41.2	-44.6	13.0	3.05e-05	0	57	0	608174080	54	5194
2026-01-15 01:24:31.73	261.38	15.35	-41.3	-44.7	12.9	4.19e-05	0	57	0	610271232	54	5271
2026-01-15 01:24:32.74	261.23	15.27	-41.3	-44.8	12.9	4.04e-05	0	57	0	612368384	54	5288
2026-01-15 01:24:33.75	261.08	15.19	-41.4	-44.9	12.7	7.70e-05	0	57	0	613416960	54	5398
2026-01-15 01:24:34.76	260.93	15.11	-41.4	-45.1	12.5	1.11e-04	0	58	0	615514112	54	5486
2026-01-15 01:24:35.77	260.78	15.04	-41.7	-45.6	12.0	2.10e-04	0	58	0	617611264	54	5825
2026-01-15 01:24:36.78	260.63	14.96	-41.9	-46.0	11.6	5.30e-04	0	57	0	619708416	54	6109
2026-01-15 01:24:37.78	260.48	14.88	-42.0	-46.2	11.4	6.67e-04	0	57	0	621805568	54	6211
2026-01-15 01:24:38.79	260.33	14.80	-42.0	-46.3	11.3	9.67e-04	0	57	0	622854144	54	6281
2026-01-15 01:24:39.80	260.19	14.73	-41.9	-45.9	11.7	7.85e-04	0	57	0	624951296	54	6041
2026-01-15 01:24:40.81	260.04	14.65	-41.8	-45.9	11.8	6.93e-04	0	57	0	627048448	54	6001
2026-01-15 01:24:41.82	259.90	14.57	-41.7	-45.7	11.9	4.32e-04	0	57	0	629145600	54	5875
2026-01-15 01:24:42.83	259.75	14.49	-41.8	-45.8	11.8	4.01e-04	0	57	0	631242752	54	5950
2026-01-15 01:24:43.83	259.61	14.42	-41.7	-45.5	12.0	3.19e-04	0	58	0	632291328	54	5783
2026-01-15 01:24:44.84	259.47	14.34	-41.6	-45.5	12.2	2.34e-04	0	58	0	634388480	54	5750
2026-01-15 01:24:45.85	259.33	14.26	-41.6	-45.5	12.0	3.01e-04	0	57	0	636485632	54	5766
2026-01-15 01:24:46.86	259.19	14.18	-41.7	-45.6	12.0	3.52e-04	0	57	0	638582784	54	5799
2026-01-15 01:24:47.87	259.05	14.11	-41.6	-45.5	12.1	2.94e-04	0	58	0	640679936	54	5763
2026-01-15 01:24:48.88	258.91	14.03	-41.6	-45.4	12.2	1.72e-04	0	58	0	641728512	54	5673
2026-01-15 01:24:49.89	258.77	13.95	-41.6	-45.4	12.2	1.99e-04	0	57	0	643825664	54	5673
2026-01-15 01:24:50.90	258.63	13.87	-41.5	-45.2	12.4	1.44e-04	0	57	0	645922816	54	5549
2026-01-15 01:24:51.91	258.49	13.80	-41.6	-45.4	12.2	1.73e-04	0	57	0	648019968	54	5670
2026-01-15 01:24:52.92	258.35	13.72	-41.6	-45.4	12.1	3.39e-04	0	58	0	650117120	54	5721
2026-01-15 01:24:53.93	258.22	13.64	-41.8	-45.9	11.6	4.24e-04	0	57	0	651165696	54	6019
2026-01-15 01:24:54.94	258.08	13.57	-41.9	-46.1	11.5	7.15e-04	0	57	0	653262848	54	6137
2026-01-15 01:24:55.95	257.95	13.49	-42.1	-46.6	11.0	1.24e-03	0	57	0	655360000	54	6532
2026-01-15 01:24:56.96	257.82	13.41	-42.2	-46.8	10.6	3.03e-03	0	58	0	657457152	55	6335
2026-01-15 01:24:57.97	257.68	13.34	-42.3	-47.0	10.4	3.93e-03	0	57	0	659554304	55	6478
2026-01-15 01:24:58.97	257.55	13.26	-42.4	-47.2	10.2	6.33e-03	0	57	0	661651456	55	6614
2026-01-15 01:24:59.98	257.42	13.18	-42.3	-47.1	10.4	4.85e-03	0	58	0	662700032	55	6521
2026-01-15 01:25:00.99	257.29	13.11	-42.2	-46.9	10.6	4.04e-03	0	58	0	664797184	55	6361
2026-01-15 01:25:02.00	257.16	13.03	-42.0	-46.3	11.1	2.75e-03	0	58	0	666894336	55	5980
2026-01-15 01:25:03.01	257.03	12.96	-41.9	-46.0	11.5	1.03e-03	0	58	0	668991488	55	5765
2026-01-15 01:25:04.02	256.90	12.88	-41.7	-45.7	11.8	6.54e-04	0	58	0	671088640	55	5546
2026-01-15 01:25:05.03	256.77	12.80	-41.7	-45.7	11.7	4.58e-04	0	57	0	672137216	55	5581
2026-01-15 01:25:06.04	256.64	12.73	-41.7	-45.7	11.7	4.84e-04	0	58	0	674234368	55	5581
2026-01-15 01:25:07.05	256.52	12.65	-41.6	-45.6	11.9	3.62e-04	0	58	0	676331520	55	5469
2026-01-15 01:25:08.05	256.39	12.58	-41.7	-45.7	11.7	5.16e-04	0	57	0	678428672	55	5570
2026-01-15 01:25:09.06	256.27	12.50	-41.7	-45.7	11.8	5.65e-04	0	57	0	680525824	55	5534
2026-01-15 01:25:10.07	256.14	12.43	-41.7	-45.8	11.7	5.55e-04	0	58	0	681574400	55	5610
2026-01-15 01:25:11.08	256.02	12.35	-41.8	-45.9	11.5	7.35e-04	0	57	0	683671552	55	5711
2026-01-15 01:25:12.09	255.89	12.28	-41.8	-45.8	11.6	8.06e-04	0	57	0	685768704	55	5644
2026-01-15 01:25:13.09	255.77	12.20	-41.7	-45.7	11.8	5.71e-04	0	58	0	687865856	55	5542
2026-01-15 01:25:14.10	255.65	12.13	-41.7	-45.7	11.6	5.95e-04	0	58	0	689963008	55	5592
2026-01-15 01:25:15.11	255.53	12.05	-41.8	-45.9	11.5	8.17e-04	0	57	0	691011584	55	5672
2026-01-15 01:25:16.12	255.41	11.98	-41.7	-45.7	11.7	5.35e-04	0	58	0	693108736	55	5566
2026-01-15 01:25:17.13	255.28	11.90	-41.8	-46.0	11.5	6.26e-04	0	58	0	695205888	55	5752
2026-01-15 01:25:18.14	255.16	11.83	-41.8	-45.9	11.6	8.46e-04	0	58	0	697303040	55	5657
2026-01-15 01:25:19.15	255.05	11.75	-41.9	-46.1	11.3	9.98e-04	0	58	0	699400192	55	5809
2026-01-15 01:25:20.16	254.93	11.68	-41.9	-46.2	11.1	1.74e-03	0	57	0	700448768	55	5908
2026-01-15 01:25:21.17	254.81	11.60	-42.1	-46.6	10.8	2.33e-03	0	57	0	702545920	55	6150
2026-01-15 01:25:22.19	254.69	11.53	-42.2	-46.9	10.4	3.11e-03	0	57	0	704643072	55	6375
2026-01-15 01:25:23.20	254.57	11.46	-42.3	-47.2	10.2	4.19e-03	0	58	0	706740224	55	6617
2026-01-15 01:25:24.20	254.46	11.38	-42.3	-47.1	10.2	6.57e-03	0	58	0	708837376	55	6547
2026-01-15 01:25:25.22	254.34	11.31	-42.2	-46.9	10.5	5.24e-03	0	58	0	709885952	55	6377
2026-01-15 01:25:26.23	254.23	11.23	-42.3	-47.1	10.3	4.74e-03	0	57	0	711983104	55	6501
2026-01-15 01:25:27.24	254.11	11.16	-42.3	-47.1	10.3	5.17e-03	0	58	0	714080256	55	6511
2026-01-15 01:25:28.25	254.00	11.09	-42.3	-47.1	10.3	4.55e-03	0	58	0	716177408	55	6510
2026-01-15 01:25:29.26	253.88	11.01	-42.3	-47.1	10.3	5.81e-03	0	58	0	718274560	55	6507
2026-01-15 01:25:30.27	253.77	10.94	-42.3	-47.2	10.1	7.30e-03	0	58	0	719323136	55	6616
2026-01-15 01:25:31.28	253.66	10.87	-42.4	-47.4	9.9	8.38e-03	0	58	0	721420288	55	6774
2026-01-15 01:25:32.28	253.55	10.79	-42.5	-47.6	9.7	1.04e-02	0	58	0	723517440	55	6916
2026-01-15 01:25:33.30	253.44	10.72	-42.5	-47.8	9.5	1.31e-02	0	58	0	725614592	55	7116
2026-01-15 01:25:34.30	253.33	10.65	-42.5	-47.8	9.4	1.54e-02	0	58	0	727711744	55	7116
2026-01-15 01:25:35.31	253.22	10.58	-42.6	-48.0	9.3	1.80e-02	0	58	0	729808896	55	7242
2026-01-15 01:25:36.32	253.11	10.50	-42.6	-48.1	9.1	2.58e-02	0	58	0	730857472	55	7359
2026-01-15 01:25:37.33	253.00	10.43	-42.6	-48.0	9.3	1.88e-02	0	58	0	732954624	55	7220
2026-01-15 01:25:38.34	252.89	10.36	-42.6	-48.0	9.3	1.81e-02	0	58	0	735051776	55	7241
2026-01-15 01:25:39.34	252.78	10.29	-42.5	-47.7	9.6	1.34e-02	0	58	0	737148928	55	6991
2026-01-15 01:25:40.35	252.68	10.21	-42.4	-47.4	9.8	1.26e-02	0	58	0	739246080	55	6791
2026-01-15 01:25:41.36	252.57	10.14	-42.3	-47.2	10.0	8.59e-03	0	58	0	740294656	55	6611
2026-01-15 01:25:42.37	252.46	10.07	-42.3	-47.2	10.1	7.24e-03	0	58	0	742391808	55	6635
2026-01-15 01:25:43.38	252.36	10.00	-42.3	-47.1	10.1	6.36e-03	0	58	0	744488960	55	6561
2026-01-15 01:25:44.39	252.25	9.93	-42.1	-46.8	10.5	4.29e-03	0	58	0	746586112	55	6312
2026-01-15 01:25:45.40	252.15	9.86	-42.1	-46.7	10.6	3.82e-03	0	58	0	748683264	55	6222
2026-01-15 01:25:46.41	252.04	9.78	-42.0	-46.6	10.7	3.25e-03	0	58	0	749731840	55	6166
2026-01-15 01:25:47.42	251.94	9.71	-42.1	-46.8	10.5	3.37e-03	0	58	0	751828992	55	6322
2026-01-15 01:25:48.43	251.84	9.64	-42.2	-46.9	10.3	4.86e-03	0	58	0	753926144	55	6412
2026-01-15 01:25:49.44	251.74	9.57	-42.2	-47.0	10.2	5.30e-03	0	58	0	756023296	55	6452
2026-01-15 01:25:50.45	251.63	9.50	-42.3	-47.2	10.0	6.80e-03	0	58	0	758120448	55	6607
2026-01-15 01:25:51.46	251.53	9.43	-42.3	-47.3	9.9	9.12e-03	0	58	0	759169024	55	6700
2026-01-15 01:25:52.47	251.43	9.36	-42.3	-47.3	9.9	1.05e-02	0	57	0	761266176	55	6716
2026-01-15 01:25:53.47	251.33	9.29	-42.4	-47.5	9.7	1.00e-02	0	58	0	763363328	55	6842
2026-01-15 01:25:54.48	251.23	9.22	-42.4	-47.5	9.7	1.02e-02	0	58	0	765460480	55	6860
2026-01-15 01:25:55.49	251.13	9.15	-42.3	-47.4	9.8	1.07e-02	0	58	0	767557632	55	6738
2026-01-15 01:25:56.50	251.03	9.08	-42.3	-47.4	9.8	9.49e-03	0	58	0	768606208	55	6735
2026-01-15 01:25:57.51	250.93	9.01	-42.3	-47.3	9.9	1.00e-02	0	58	0	770703360	55	6672
2026-01-15 01:25:58.52	250.84	8.94	-42.3	-47.3	9.9	8.69e-03	0	57	0	772800512	55	6658
2026-01-15 01:25:59.53	250.74	8.87	-42.2	-47.1	10.0	7.75e-03	0	57	0	774897664	55	6526
2026-01-15 01:26:00.54	250.64	8.80	-42.1	-47.0	10.2	7.21e-03	0	58	0	776994816	55	6443
2026-01-15 01:26:01.55	250.54	8.73	-42.2	-47.0	10.1	6.43e-03	0	58	0	778043392	55	6469
2026-01-15 01:26:02.56	250.45	8.66	-42.1	-47.0	10.2	6.40e-03	0	58	0	780140544	55	6452
2026-01-15 01:26:03.57	250.35	8.59	-42.1	-46.9	10.3	6.22e-03	0	57	0	782237696	55	6402
2026-01-15 01:26:04.58	250.26	8.52	-42.1	-46.9	10.3	5.98e-03	0	58	0	784334848	55	6397
2026-01-15 01:26:05.59	250.16	8.45	-42.1	-47.0	10.2	5.74e-03	0	58	0	786432000	55	6476
2026-01-15 01:26:06.60	250.07	8.38	-42.2	-47.2	10.0	7.29e-03	0	58	0	787480576	55	6602
2026-01-15 01:26:07.61	249.98	8.31	-42.1	-47.0	10.2	8.62e-03	0	58	0	789577728	55	6430
2026-01-15 01:26:08.62	249.88	8.24	-42.2	-47.2	9.9	8.51e-03	0	58	0	791674880	55	6636
2026-01-15 01:26:09.63	249.79	8.17	-42.2	-47.3	9.8	9.79e-03	0	58	0	793772032	55	6672
2026-01-15 01:26:10.64	249.70	8.10	-42.1	-47.1	10.0	9.46e-03	0	58	0	795869184	55	6537
2026-01-15 01:26:11.65	249.60	8.04	-42.2	-47.4	9.7	1.07e-02	0	58	0	797966336	55	6738
2026-01-15 01:26:12.66	249.51	7.97	-44.1	-55.7	3.8	1.90e-02	0	57	104	799014912	58	14807
2026-01-15 01:26:13.67	249.42	7.90	-44.6	-59.0	3.8	1.49e+00	0	58	104	799014912	59	20471
2026-01-15 01:26:14.68	249.33	7.83	-44.8	-59.3	3.8	1.49e+00	0	57	104	799014912	60	19969
2026-01-15 01:26:15.69	249.24	7.76	-44.9	-59.5	3.8	1.49e+00	0	57	104	799014912	60	20370
2026-01-15 01:26:16.70	249.15	7.69	-45.0	-59.6	3.8	1.49e+00	0	58	104	799014912	60	20621
2026-01-15 01:26:17.70	249.06	7.63	-45.1	-59.6	3.8	1.49e+00	0	58	104	799014912	60	20712
2026-01-15 01:26:18.71	248.97	7.56	-45.2	-59.7	3.8	1.49e+00	0	57	104	799014912	60	20902
2026-01-15 01:26:19.72	248.88	7.49	-45.2	-59.7	3.8	1.49e+00	0	58	104	799014912	60	20998
2026-01-15 01:26:20.73	248.80	7.42	-45.2	-59.8	3.8	1.49e+00	0	57	104	799014912	61	19949
2026-01-15 01:26:21.74	248.71	7.36	-45.2	-59.8	3.8	1.49e+00	0	57	104	799014912	61	19863
2026-01-15 01:26:22.75	248.62	7.29	-45.2	-59.7	3.8	1.49e+00	0	57	104	799014912	61	19775
2026-01-15 01:26:23.76	248.53	7.22	-45.2	-59.7	3.8	1.49e+00	0	58	104	799014912	61	19666
2026-01-15 01:26:24.77	248.45	7.15	-45.2	-59.7	3.8	1.49e+00	0	58	104	799014912	61	19669
2026-01-15 01:26:25.78	248.36	7.09	-45.2	-59.6	3.8	1.49e+00	0	58	104	799014912	61	19609
2026-01-15 01:26:26.79	248.28	7.02	-45.2	-59.6	3.8	1.49e+00	0	58	104	799014912	61	19551
2026-01-15 01:26:27.80	248.19	6.95	-45.2	-59.6	3.8	1.49e+00	0	58	104	799014912	61	19529
2026-01-15 01:26:28.81	248.11	6.89	-45.2	-59.7	3.8	1.49e+00	0	58	104	799014912	61	19644
2026-01-15 01:26:29.82	248.02	6.82	-45.1	-59.6	3.8	1.49e+00	0	58	104	799014912	61	19547
2026-01-15 01:26:30.83	247.94	6.75	-45.1	-59.6	3.8	1.49e+00	0	58	104	799014912	61	19527
2026-01-15 01:26:31.84	247.85	6.69	-45.1	-59.7	3.8	1.49e+00	0	58	104	799014912	61	19624
2026-01-15 01:26:32.85	247.77	6.62	-45.1	-59.6	3.8	1.49e+00	0	58	104	799014912	61	19529
2026-01-15 01:26:33.87	247.69	6.55	-45.1	-59.6	3.8	1.49e+00	0	57	104	799014912	61	19557
2026-01-15 01:26:34.88	247.60	6.49	-45.1	-59.6	3.8	1.49e+00	0	57	104	799014912	61	19512
2026-01-15 01:26:35.89	247.52	6.42	-45.1	-59.6	3.8	1.49e+00	0	58	104	799014912	61	19522
2026-01-15 01:26:36.90	247.44	6.36	-45.1	-59.6	3.8	1.49e+00	0	57	104	799014912	61	19487
