passes_logs/2026/01/15/R2.0S_Moscow/R2.0S_Moscow__20260115_080711_NOAA_20_JPSS-1_rec.log

#Pass ID: 20260115_080711_NOAA 20 (JPSS-1)
#Satellite: NOAA 20 (JPSS-1)
#Configuration: NOAA 20
#almurnet v.1.7.20251203
#Start time: 2026-01-15 08:07:10

#Version: 2.2.20231116
#Station: R2.0S_Moscow
#Location: 37.707566 lon 55.798166 lat
#TLE: 1 43013U 17073A   26014.13176244  .00000049  00000+0  44136-4 0  9994
#TLE: 2 43013  98.7634 315.0803 0001538  40.6488 319.4803 14.19535812422619

#Time	Az	El	Level	Level2	SNR	BER	BlckErr	Temp	State	Recorded	gain1	gain2
2026-01-15 08:07:10.89	107.62	1.99	-23.9	-39.3	3.6	1.50e+00	0	50	0	0	20	20019
2026-01-15 08:07:11.89	107.55	2.05	-25.7	-43.0	3.9	1.51e+00	0	50	104	0	24	24222
2026-01-15 08:07:12.90	107.47	2.11	-23.9	-38.7	3.8	1.50e+00	0	50	104	0	18	20793
2026-01-15 08:07:13.91	107.40	2.16	-25.0	-39.7	4.0	1.50e+00	0	50	104	0	23	17606
2026-01-15 08:07:14.92	107.33	2.22	-31.8	-43.2	3.8	1.50e+00	0	50	104	0	24	24744
2026-01-15 08:07:15.93	107.25	2.27	-18.8	-35.8	3.8	1.50e+00	0	51	104	0	11	22374
2026-01-15 08:07:16.94	107.18	2.33	-28.5	-41.4	4.1	1.50e+00	0	51	104	0	27	16893
2026-01-15 08:07:17.95	107.11	2.38	-24.9	-42.0	3.9	1.50e+00	0	51	104	0	27	18207
2026-01-15 08:07:18.96	107.03	2.44	-32.4	-46.0	3.9	1.50e+00	0	51	104	0	32	21673
2026-01-15 08:07:19.97	106.96	2.50	-26.1	-43.8	4.0	1.50e+00	0	51	104	0	29	19916
2026-01-15 08:07:20.98	106.88	2.55	-25.2	-41.1	3.9	1.50e+00	0	51	104	0	21	23104
2026-01-15 08:07:21.99	106.81	2.61	-24.4	-38.8	3.8	1.51e+00	0	51	104	0	15	24984
2026-01-15 08:07:23.00	106.73	2.66	-18.0	-35.2	3.6	1.50e+00	0	51	104	0	13	18664
2026-01-15 08:07:24.01	106.65	2.72	-28.9	-43.1	3.7	1.51e+00	0	51	104	0	25	23233
2026-01-15 08:07:25.03	106.58	2.78	-28.5	-40.9	3.7	1.50e+00	0	51	104	0	24	18974
2026-01-15 08:07:26.03	106.50	2.83	-20.9	-37.9	3.7	1.50e+00	0	52	104	0	15	22724
2026-01-15 08:07:27.04	106.43	2.89	-27.0	-41.7	3.7	1.50e+00	0	51	104	0	23	22023
2026-01-15 08:07:28.05	106.35	2.94	-25.8	-40.6	4.2	1.50e+00	0	51	104	0	22	20773
2026-01-15 08:07:29.06	106.27	3.00	-26.3	-40.1	4.1	1.50e+00	0	51	104	0	22	19526
2026-01-15 08:07:30.07	106.19	3.06	-18.3	-35.9	3.8	1.51e+00	0	52	104	0	15	18032
2026-01-15 08:07:31.08	106.11	3.11	-30.6	-46.6	3.8	1.50e+00	0	52	104	0	21	43476
2026-01-15 08:07:32.09	106.04	3.17	-18.7	-37.3	3.8	1.50e+00	0	52	104	0	14	22424
2026-01-15 08:07:33.10	105.96	3.23	-18.5	-35.9	3.7	1.50e+00	0	52	104	0	11	22746
2026-01-15 08:07:34.11	105.88	3.29	-29.5	-42.4	3.9	1.50e+00	0	52	104	0	29	16991
2026-01-15 08:07:35.12	105.80	3.34	-26.6	-40.0	3.8	1.50e+00	0	52	104	0	28	13612
2026-01-15 08:07:36.13	105.72	3.40	-32.0	-44.1	4.2	1.50e+00	0	52	104	0	29	20542
2026-01-15 08:07:37.14	105.64	3.46	-22.6	-36.1	3.6	1.50e+00	0	52	104	0	13	20583
2026-01-15 08:07:38.15	105.56	3.51	-21.8	-39.4	3.7	1.50e+00	0	52	104	0	18	22539
2026-01-15 08:07:39.16	105.48	3.57	-21.3	-38.7	4.0	1.50e+00	0	52	104	0	23	15616
2026-01-15 08:07:40.17	105.40	3.63	-27.9	-41.7	4.0	1.50e+00	0	52	104	0	23	22079
2026-01-15 08:07:41.19	105.32	3.69	-20.8	-37.6	3.7	1.50e+00	0	52	104	0	14	23084
2026-01-15 08:07:42.20	105.23	3.74	-32.2	-47.3	4.1	1.50e+00	0	53	104	0	34	22519
2026-01-15 08:07:43.20	105.15	3.80	-21.6	-41.6	3.8	1.50e+00	0	52	104	0	31	13845
2026-01-15 08:07:44.21	105.07	3.86	-33.7	-47.3	4.1	1.50e+00	0	52	104	0	34	22434
2026-01-15 08:07:45.22	104.99	3.92	-19.9	-36.1	3.7	1.50e+00	0	53	104	0	13	20769
2026-01-15 08:07:46.24	104.90	3.97	-28.1	-43.4	3.7	1.50e+00	0	53	104	0	29	19010
2026-01-15 08:07:47.24	104.82	4.03	-30.5	-46.7	4.2	1.50e+00	0	53	104	0	34	21000
2026-01-15 08:07:48.25	104.74	4.09	-33.6	-44.7	4.1	1.50e+00	0	53	104	0	32	18602
2026-01-15 08:07:49.26	104.65	4.15	-31.6	-42.8	3.6	1.50e+00	0	53	104	0	17	35455
2026-01-15 08:07:50.27	104.57	4.20	-31.0	-43.6	3.8	1.50e+00	0	53	104	0	26	23112
2026-01-15 08:07:51.29	104.49	4.26	-21.4	-38.4	4.3	1.50e+00	0	53	104	0	28	11340
2026-01-15 08:07:52.30	104.40	4.32	-26.6	-41.7	3.9	1.50e+00	0	53	104	0	27	17642
2026-01-15 08:07:53.31	104.31	4.38	-22.4	-39.7	3.9	1.50e+00	0	53	104	0	14	29625
2026-01-15 08:07:54.32	104.23	4.44	-22.2	-41.7	3.9	1.50e+00	0	53	104	0	31	13995
2026-01-15 08:07:55.32	104.14	4.49	-26.5	-43.5	3.7	1.50e+00	0	53	104	0	26	22867
2026-01-15 08:07:56.34	104.06	4.55	-22.6	-37.7	3.7	1.50e+00	0	53	104	0	16	20986
2026-01-15 08:07:57.35	103.97	4.61	-24.2	-40.6	3.3	1.50e+00	0	53	104	0	20	23225
2026-01-15 08:07:58.36	103.88	4.67	-32.0	-47.2	3.9	1.50e+00	0	53	104	0	32	24887
2026-01-15 08:07:59.37	103.80	4.73	-30.5	-41.2	4.1	1.50e+00	0	53	104	0	24	19777
2026-01-15 08:08:00.38	103.71	4.79	-27.7	-40.9	3.7	1.50e+00	0	53	104	0	20	24062
2026-01-15 08:08:01.39	103.62	4.85	-32.5	-41.9	3.5	1.50e+00	0	53	104	0	15	36093
2026-01-15 08:08:02.40	103.53	4.91	-25.0	-40.9	3.9	1.50e+00	0	53	104	0	25	17934
2026-01-15 08:08:03.41	103.44	4.96	-30.7	-45.7	4.1	1.50e+00	0	53	104	0	33	19820
2026-01-15 08:08:04.42	103.35	5.02	-29.1	-46.3	3.9	1.50e+00	0	54	104	0	29	26639
2026-01-15 08:08:05.43	103.26	5.08	-20.8	-36.9	3.3	1.50e+00	0	54	104	0	24	11975
2026-01-15 08:08:06.44	103.17	5.14	-31.8	-46.0	3.9	1.50e+00	0	54	0	0	30	24214
2026-01-15 08:08:07.45	103.08	5.20	-32.8	-46.7	3.9	1.50e+00	0	54	104	0	30	26355
2026-01-15 08:08:08.46	102.99	5.26	-24.9	-40.8	4.0	1.51e+00	0	54	0	0	19	25256
2026-01-15 08:08:09.47	102.90	5.32	-18.4	-35.2	3.8	1.50e+00	0	54	104	0	14	17611
2026-01-15 08:08:10.48	102.81	5.38	-32.9	-47.4	4.1	1.50e+00	0	54	104	0	33	23857
2026-01-15 08:08:11.49	102.72	5.44	-30.9	-44.7	4.4	1.50e+00	0	54	104	0	30	20977
2026-01-15 08:08:12.50	102.63	5.50	-31.5	-45.3	3.9	1.50e+00	0	54	104	0	34	17724
2026-01-15 08:08:13.51	102.53	5.56	-20.3	-38.1	3.7	1.50e+00	0	54	104	0	19	18465
2026-01-15 08:08:14.52	102.44	5.61	-27.3	-45.1	3.7	1.50e+00	0	54	104	0	26	27604
2026-01-15 08:08:15.53	102.35	5.67	-32.1	-46.1	3.9	1.50e+00	0	54	104	0	31	23205
2026-01-15 08:08:16.54	102.25	5.73	-31.4	-46.3	3.9	1.50e+00	0	54	104	0	32	22289
2026-01-15 08:08:17.55	102.16	5.79	-24.3	-41.0	3.7	1.50e+00	0	54	104	0	15	32197
2026-01-15 08:08:18.55	102.06	5.85	-28.9	-44.4	3.9	1.51e+00	0	54	104	0	26	25288
2026-01-15 08:08:19.56	101.97	5.91	-33.0	-48.5	3.9	1.50e+00	0	54	104	0	32	28848
2026-01-15 08:08:20.57	101.87	5.97	-34.3	-47.3	3.9	1.50e+00	0	54	104	0	30	28317
2026-01-15 08:08:21.58	101.78	6.03	-28.2	-46.3	3.6	1.50e+00	0	54	104	0	20	44929
2026-01-15 08:08:22.59	101.68	6.09	-26.6	-44.1	3.9	1.50e+00	0	54	104	0	31	18423
2026-01-15 08:08:23.60	101.59	6.15	-27.8	-41.7	4.1	1.50e+00	0	54	104	0	28	16572
2026-01-15 08:08:24.61	101.49	6.21	-32.5	-47.6	4.1	1.50e+00	0	54	104	0	34	23096
2026-01-15 08:08:25.62	101.39	6.27	-26.0	-44.3	3.5	1.50e+00	0	54	104	0	15	47348
2026-01-15 08:08:26.63	101.29	6.33	-23.1	-40.1	3.5	1.50e+00	0	54	104	0	20	21829
2026-01-15 08:08:27.64	101.20	6.39	-23.7	-37.7	4.1	1.50e+00	0	55	104	0	18	18642
2026-01-15 08:08:28.65	101.10	6.45	-32.4	-46.9	3.9	1.50e+00	0	55	104	0	31	25430
2026-01-15 08:08:29.66	101.00	6.51	-30.8	-43.3	3.7	1.50e+00	0	55	104	0	23	26577
2026-01-15 08:08:30.67	100.90	6.58	-29.4	-45.2	4.1	1.50e+00	0	55	104	0	34	17506
2026-01-15 08:08:31.68	100.80	6.64	-33.9	-48.6	4.2	1.50e+00	0	55	104	0	37	21812
2026-01-15 08:08:32.69	100.70	6.70	-30.9	-45.8	3.8	1.50e+00	0	55	104	0	33	19871
2026-01-15 08:08:33.70	100.60	6.76	-31.7	-46.1	4.0	1.50e+00	0	55	104	0	30	24593
2026-01-15 08:08:34.71	100.50	6.82	-26.3	-43.0	3.9	1.50e+00	0	55	104	0	23	25761
2026-01-15 08:08:35.72	100.39	6.88	-31.0	-45.1	3.9	1.50e+00	0	55	104	0	32	19563
2026-01-15 08:08:36.73	100.29	6.94	-29.5	-44.3	4.0	1.50e+00	0	55	104	0	30	19878
2026-01-15 08:08:37.74	100.19	7.00	-28.9	-44.6	6.0	1.50e+00	0	55	104	0	12	58248
2026-01-15 08:08:38.75	100.09	7.06	-26.7	-43.6	4.1	1.51e+00	0	55	104	0	37	12237
2026-01-15 08:08:39.76	99.98	7.12	-31.6	-45.1	3.9	1.50e+00	0	55	104	0	33	18323
2026-01-15 08:08:40.77	99.88	7.18	-33.7	-47.9	4.2	1.50e+00	0	55	104	0	36	21387
2026-01-15 08:08:41.78	99.77	7.24	-32.4	-46.7	4.1	1.50e+00	0	55	104	0	31	24859
2026-01-15 08:08:42.79	99.67	7.31	-32.2	-44.1	4.2	1.50e+00	0	55	104	0	26	24619
2026-01-15 08:08:43.80	99.56	7.37	-20.4	-35.7	3.8	1.50e+00	0	55	104	0	13	19630
2026-01-15 08:08:44.81	99.46	7.43	-32.9	-46.4	3.9	1.50e+00	0	55	104	0	31	24091
2026-01-15 08:08:45.82	99.35	7.49	-32.3	-46.5	4.0	1.50e+00	0	55	104	0	33	21700
2026-01-15 08:08:46.83	99.25	7.55	-31.7	-44.6	4.1	1.50e+00	0	55	104	0	32	18362
2026-01-15 08:08:47.83	99.14	7.61	-31.1	-45.0	3.9	1.50e+00	0	55	104	0	31	20387
2026-01-15 08:08:48.84	99.03	7.67	-20.6	-37.8	3.5	1.50e+00	0	55	104	0	14	23686
2026-01-15 08:08:49.85	98.92	7.74	-29.0	-38.7	3.7	1.50e+00	0	55	104	0	14	26208
2026-01-15 08:08:50.86	98.82	7.80	-25.2	-39.9	3.6	1.50e+00	0	56	104	0	25	16050
2026-01-15 08:08:51.87	98.71	7.86	-31.4	-41.7	3.8	1.50e+00	0	55	104	0	23	22214
2026-01-15 08:08:52.88	98.60	7.92	-22.3	-37.4	3.7	1.50e+00	0	55	104	0	13	24029
2026-01-15 08:08:53.89	98.49	7.98	-28.1	-41.5	3.8	1.50e+00	0	56	104	0	23	21543
2026-01-15 08:08:54.90	98.38	8.04	-21.8	-41.4	3.6	1.50e+00	0	56	104	0	18	28405
2026-01-15 08:08:55.91	98.27	8.11	-23.0	-39.9	3.9	1.50e+00	0	56	104	0	21	20205
2026-01-15 08:08:56.92	98.16	8.17	-27.1	-39.2	3.6	1.50e+00	0	56	104	0	19	20996
2026-01-15 08:08:57.93	98.04	8.23	-29.5	-41.5	4.6	1.50e+00	0	56	104	0	27	17256
2026-01-15 08:08:58.94	97.93	8.29	-23.3	-43.0	3.8	1.50e+00	0	56	104	0	19	32402
2026-01-15 08:08:59.95	97.82	8.35	-27.5	-40.4	4.0	1.50e+00	0	56	104	0	24	17970
2026-01-15 08:09:00.96	97.71	8.42	-19.5	-39.3	4.1	1.50e+00	0	56	104	0	19	21208
2026-01-15 08:09:01.97	97.59	8.48	-28.0	-45.3	4.0	1.50e+00	0	56	104	0	32	19974
2026-01-15 08:09:02.98	97.48	8.54	-21.3	-41.6	4.0	1.50e+00	0	56	104	0	29	15504
2026-01-15 08:09:03.99	97.36	8.60	-32.5	-39.8	3.5	1.50e+00	0	56	104	0	10	37775
2026-01-15 08:09:05.00	97.25	8.67	-20.7	-37.5	4.3	1.50e+00	0	56	104	0	25	12232
2026-01-15 08:09:06.01	97.13	8.73	-29.5	-46.6	4.1	1.50e+00	0	56	104	0	31	24500
2026-01-15 08:09:07.02	97.02	8.79	-24.5	-40.5	3.7	1.50e+00	0	56	104	0	22	20350
2026-01-15 08:09:08.03	96.90	8.85	-25.0	-38.8	3.7	1.50e+00	0	56	104	0	18	21114
2026-01-15 08:09:09.03	96.78	8.92	-27.5	-42.8	3.9	1.50e+00	0	56	104	0	29	17765
2026-01-15 08:09:10.04	96.67	8.98	-27.7	-42.9	3.9	1.50e+00	0	56	104	0	25	22688
2026-01-15 08:09:11.05	96.55	9.04	-36.4	-50.3	3.9	1.50e+00	0	56	104	0	39	23719
2026-01-15 08:09:12.06	96.43	9.10	-28.8	-41.5	3.7	1.50e+00	0	56	104	0	24	20348
2026-01-15 08:09:13.07	96.31	9.17	-26.0	-40.7	3.8	1.50e+00	0	56	104	0	24	18606
2026-01-15 08:09:14.09	96.19	9.23	-26.6	-42.9	3.6	1.50e+00	0	56	104	0	28	18964
2026-01-15 08:09:15.10	96.07	9.29	-26.5	-42.4	4.0	1.50e+00	0	56	104	0	24	22720
2026-01-15 08:09:16.11	95.95	9.35	-27.7	-45.4	4.1	1.50e+00	0	56	104	0	32	20247
2026-01-15 08:09:17.12	95.83	9.42	-23.8	-38.9	3.9	1.50e+00	0	56	104	0	19	20197
2026-01-15 08:09:18.13	95.70	9.48	-34.4	-50.9	3.9	1.50e+00	0	56	104	0	39	25301
2026-01-15 08:09:19.14	95.58	9.54	-29.5	-46.0	3.7	1.50e+00	0	56	104	0	30	24390
2026-01-15 08:09:20.15	95.46	9.61	-26.6	-42.4	3.9	1.50e+00	0	56	104	0	24	22750
2026-01-15 08:09:21.16	95.33	9.67	-26.7	-44.2	3.8	1.50e+00	0	56	104	0	26	24740
2026-01-15 08:09:22.17	95.21	9.73	-36.8	-52.3	3.5	1.50e+00	0	56	104	0	46	20009
2026-01-15 08:09:23.17	95.09	9.79	-29.8	-47.1	3.9	1.49e+00	0	56	104	0	41	14614
2026-01-15 08:09:24.18	94.96	9.86	-41.0	-54.8	3.9	1.50e+00	0	56	104	0	53	17810
2026-01-15 08:09:25.19	94.84	9.92	-37.8	-52.9	3.9	1.49e+00	0	57	104	0	46	21363
2026-01-15 08:09:26.21	94.71	9.98	-42.2	-55.9	3.8	1.49e+00	0	56	104	0	55	18049
2026-01-15 08:09:27.22	94.58	10.05	-40.4	-54.4	3.8	1.47e+00	0	57	104	0	52	17941
2026-01-15 08:09:28.23	94.45	10.11	-39.8	-54.7	4.0	1.49e+00	0	56	104	0	50	20841
2026-01-15 08:09:29.24	94.33	10.17	-39.1	-54.0	3.8	1.49e+00	0	57	104	0	49	20358
2026-01-15 08:09:30.25	94.20	10.24	-39.3	-54.0	3.8	1.49e+00	0	56	104	0	49	20497
2026-01-15 08:09:31.24	94.07	10.30	-40.3	-54.7	4.1	1.49e+00	0	56	104	0	49	22165
2026-01-15 08:09:32.25	93.94	10.36	-40.5	-54.3	3.9	1.49e+00	0	57	104	0	51	18782
2026-01-15 08:09:33.26	93.81	10.43	-40.3	-53.7	3.9	1.49e+00	0	56	104	0	52	16572
2026-01-15 08:09:34.27	93.68	10.49	-42.0	-54.8	3.8	1.43e+00	0	57	104	0	54	16710
2026-01-15 08:09:35.28	93.55	10.55	-42.1	-56.3	3.8	1.49e+00	0	57	104	0	56	17808
2026-01-15 08:09:36.29	93.42	10.62	-40.6	-53.2	3.8	1.36e+00	0	57	104	0	52	15594
2026-01-15 08:09:37.30	93.28	10.68	-40.7	-51.0	4.7	1.34e+00	0	57	0	0	52	12187
2026-01-15 08:09:38.31	93.15	10.74	-41.0	-50.0	5.3	6.39e-01	0	57	0	2097152	52	10895
2026-01-15 08:09:39.32	93.02	10.81	-40.9	-48.6	6.5	2.68e-01	0	57	0	3145728	52	9229
2026-01-15 08:09:40.33	92.88	10.87	-40.9	-48.7	6.4	2.60e-01	0	57	0	5242880	52	9292
2026-01-15 08:09:41.34	92.75	10.93	-40.7	-48.9	6.2	2.47e-01	0	57	0	7340032	52	9533
2026-01-15 08:09:42.35	92.61	11.00	-40.9	-48.8	6.3	2.96e-01	0	57	0	9437184	52	9436
2026-01-15 08:09:43.36	92.48	11.06	-41.0	-50.1	5.4	3.62e-01	0	57	0	10485760	52	10935
2026-01-15 08:09:44.37	92.34	11.12	-40.9	-49.8	5.4	5.82e-01	0	57	0	12582912	52	10623
2026-01-15 08:09:45.37	92.20	11.19	-41.0	-50.3	5.2	5.41e-01	0	57	0	14680064	52	11247
2026-01-15 08:09:46.38	92.07	11.25	-41.1	-50.0	5.4	5.91e-01	0	57	0	16777216	53	10275
2026-01-15 08:09:47.39	91.93	11.31	-41.1	-49.5	5.8	4.59e-01	0	57	0	18874368	53	9610
2026-01-15 08:09:48.40	91.79	11.38	-41.1	-49.5	5.8	4.17e-01	0	57	0	19922944	53	9623
2026-01-15 08:09:49.40	91.65	11.44	-41.0	-49.1	6.1	2.89e-01	0	57	0	22020096	53	9197
2026-01-15 08:09:50.41	91.51	11.50	-41.0	-49.4	5.9	2.75e-01	0	57	0	24117248	53	9524
2026-01-15 08:09:51.42	91.37	11.57	-41.1	-49.4	5.9	3.71e-01	0	57	0	26214400	53	9580
2026-01-15 08:09:52.43	91.23	11.63	-41.0	-48.6	6.7	2.55e-01	0	57	0	28311552	53	8710
2026-01-15 08:09:53.44	91.09	11.69	-40.6	-47.7	7.5	1.37e-01	0	57	0	29360128	53	7866
2026-01-15 08:09:54.45	90.94	11.76	-40.8	-48.1	7.2	1.19e-01	0	57	0	31457280	53	8199
2026-01-15 08:09:55.46	90.80	11.82	-41.0	-49.7	5.8	2.61e-01	0	57	0	33554432	53	9845
2026-01-15 08:09:56.46	90.66	11.88	-41.2	-51.6	4.6	6.69e-01	0	57	0	35651584	53	12273
2026-01-15 08:09:57.47	90.51	11.95	-41.1	-52.5	4.3	1.07e+00	0	57	0	36700160	53	13657
2026-01-15 08:09:58.48	90.37	12.01	-41.1	-54.4	3.9	1.48e+00	0	57	104	36700160	53	16992
2026-01-15 08:09:59.49	90.22	12.07	-41.3	-55.3	3.8	1.49e+00	0	57	104	36700160	53	18806
2026-01-15 08:10:00.50	90.07	12.14	-41.3	-55.8	3.8	1.49e+00	0	57	104	36700160	53	20022
2026-01-15 08:10:01.51	89.93	12.20	-41.2	-55.9	3.8	1.49e+00	0	57	104	36700160	53	20264
2026-01-15 08:10:02.51	89.78	12.26	-41.3	-56.0	3.8	1.49e+00	0	57	104	36700160	53	20398
2026-01-15 08:10:03.53	89.63	12.32	-41.3	-56.1	3.8	1.49e+00	0	57	104	36700160	53	20637
2026-01-15 08:10:04.53	89.48	12.39	-41.3	-55.9	3.8	1.49e+00	0	57	104	36700160	53	20232
2026-01-15 08:10:05.54	89.33	12.45	-41.4	-56.2	3.8	1.49e+00	0	57	104	36700160	53	20831
2026-01-15 08:10:06.55	89.18	12.51	-41.3	-56.0	3.8	1.49e+00	0	57	104	36700160	54	19376
2026-01-15 08:10:07.56	89.03	12.58	-41.2	-55.9	3.8	1.49e+00	0	57	104	36700160	53	20117
2026-01-15 08:10:08.57	88.88	12.64	-41.2	-55.8	3.8	1.49e+00	0	57	104	36700160	53	19877
2026-01-15 08:10:09.58	88.73	12.70	-41.1	-55.8	3.8	1.49e+00	0	57	104	36700160	52	21170
2026-01-15 08:10:10.59	88.58	12.77	-40.8	-55.7	3.8	1.49e+00	0	57	104	36700160	52	20867
2026-01-15 08:10:11.60	88.42	12.83	-40.9	-55.7	3.8	1.49e+00	0	57	104	36700160	52	20784
2026-01-15 08:10:12.61	88.27	12.89	-40.9	-55.6	3.8	1.49e+00	0	57	104	36700160	52	20616
2026-01-15 08:10:13.62	88.11	12.96	-40.8	-56.1	3.8	1.49e+00	0	57	104	36700160	53	20723
2026-01-15 08:10:14.63	87.96	13.02	-41.0	-55.7	3.8	1.49e+00	0	57	104	36700160	53	19629
2026-01-15 08:10:15.63	87.80	13.08	-40.9	-55.6	3.8	1.49e+00	0	57	104	36700160	52	20753
2026-01-15 08:10:16.64	87.64	13.14	-40.8	-55.6	3.8	1.49e+00	0	58	104	36700160	52	20560
2026-01-15 08:10:17.65	87.49	13.21	-40.6	-55.4	3.8	1.49e+00	0	58	104	36700160	52	20195
2026-01-15 08:10:18.66	87.33	13.27	-40.6	-55.4	3.8	1.49e+00	0	57	104	36700160	52	20301
2026-01-15 08:10:19.67	87.17	13.33	-40.6	-55.5	3.8	1.49e+00	0	57	104	36700160	52	20358
2026-01-15 08:10:20.68	87.01	13.39	-41.0	-55.6	3.8	1.49e+00	0	58	104	36700160	52	20701
2026-01-15 08:10:21.69	86.85	13.46	-41.2	-55.6	3.8	1.49e+00	0	57	104	36700160	53	19510
2026-01-15 08:10:22.70	86.69	13.52	-42.0	-56.0	3.8	1.49e+00	0	58	104	36700160	54	19231
2026-01-15 08:10:23.71	86.53	13.58	-40.9	-55.3	3.8	1.49e+00	0	57	104	36700160	53	18755
2026-01-15 08:10:24.72	86.36	13.64	-40.9	-55.2	3.8	1.49e+00	0	58	104	36700160	52	19633
2026-01-15 08:10:25.73	86.20	13.71	-41.0	-54.9	3.8	1.49e+00	0	58	104	36700160	52	19016
2026-01-15 08:10:26.74	86.04	13.77	-41.0	-54.8	3.8	1.49e+00	0	58	104	36700160	52	18814
2026-01-15 08:10:27.75	85.87	13.83	-41.0	-54.5	3.8	1.49e+00	0	58	104	36700160	52	18230
2026-01-15 08:10:28.76	85.71	13.89	-41.0	-53.9	3.8	1.49e+00	0	58	104	36700160	52	17011
2026-01-15 08:10:29.76	85.54	13.95	-41.0	-53.5	3.9	1.49e+00	0	58	104	36700160	52	16268
2026-01-15 08:10:30.77	85.38	14.01	-41.0	-53.2	4.0	1.47e+00	0	58	104	36700160	52	15742
2026-01-15 08:10:31.78	85.21	14.08	-41.0	-52.7	4.1	1.47e+00	0	58	0	36700160	52	14789
2026-01-15 08:10:32.78	85.04	14.14	-41.0	-52.2	4.2	1.40e+00	0	58	0	36700160	52	13903
2026-01-15 08:10:33.79	84.87	14.20	-41.0	-51.7	4.4	1.31e+00	85	58	0	36700160	52	13233
2026-01-15 08:10:34.80	84.70	14.26	-41.0	-51.1	4.7	9.63e-01	0	58	0	38797312	52	12356
2026-01-15 08:10:35.81	84.53	14.32	-40.9	-50.4	5.1	8.02e-01	0	58	0	40894464	52	11326
2026-01-15 08:10:36.82	84.36	14.38	-40.8	-49.9	5.3	6.43e-01	0	58	0	41943040	52	10675
2026-01-15 08:10:37.83	84.19	14.44	-40.8	-49.5	5.6	5.11e-01	0	57	0	44040192	52	10236
2026-01-15 08:10:38.83	84.02	14.50	-40.7	-49.2	5.8	4.47e-01	0	58	0	46137344	52	9874
2026-01-15 08:10:39.84	83.85	14.57	-40.7	-48.9	6.1	3.32e-01	0	58	0	48234496	52	9521
2026-01-15 08:10:40.85	83.67	14.63	-40.8	-49.0	6.0	3.21e-01	0	58	0	50331648	52	9635
2026-01-15 08:10:41.86	83.50	14.69	-40.9	-49.3	5.8	3.72e-01	0	58	0	51380224	52	10004
2026-01-15 08:10:42.87	83.32	14.75	-40.9	-49.6	5.5	4.16e-01	0	58	0	53477376	52	10343
2026-01-15 08:10:43.87	83.15	14.81	-40.9	-49.7	5.5	4.88e-01	0	58	0	55574528	52	10433
2026-01-15 08:10:44.88	82.97	14.87	-40.9	-49.6	5.6	4.66e-01	0	58	0	57671680	52	10345
2026-01-15 08:10:45.89	82.80	14.93	-41.0	-49.6	5.6	4.58e-01	0	58	0	59768832	52	10344
2026-01-15 08:10:46.90	82.62	14.99	-41.0	-49.6	5.7	4.41e-01	0	58	0	60817408	52	10304
2026-01-15 08:10:47.91	82.44	15.05	-41.1	-49.2	6.0	3.59e-01	0	58	0	62914560	52	9865
2026-01-15 08:10:48.92	82.26	15.11	-41.1	-49.0	6.2	3.01e-01	0	58	0	65011712	52	9689
2026-01-15 08:10:49.93	82.08	15.17	-41.1	-49.0	6.3	2.73e-01	0	58	0	67108864	52	9628
2026-01-15 08:10:50.94	81.90	15.23	-41.1	-48.8	6.5	2.48e-01	0	58	0	69206016	52	9440
2026-01-15 08:10:51.94	81.72	15.29	-41.1	-48.9	6.4	2.35e-01	0	58	0	70254592	52	9525
2026-01-15 08:10:52.95	81.54	15.35	-41.1	-49.0	6.3	2.49e-01	0	58	0	72351744	52	9629
2026-01-15 08:10:53.96	81.35	15.40	-41.1	-49.1	6.1	3.09e-01	0	58	0	74448896	52	9830
2026-01-15 08:10:54.97	81.17	15.46	-41.1	-49.4	6.0	3.19e-01	0	58	0	76546048	52	10105
2026-01-15 08:10:55.98	80.98	15.52	-41.1	-49.4	5.9	3.62e-01	0	58	0	78643200	52	10159
2026-01-15 08:10:56.99	80.80	15.58	-41.1	-49.5	5.9	3.76e-01	0	58	0	79691776	52	10194
2026-01-15 08:10:57.99	80.61	15.64	-41.1	-49.4	5.9	3.79e-01	0	58	0	81788928	52	10136
2026-01-15 08:10:59.00	80.43	15.70	-41.1	-49.2	6.0	3.45e-01	0	58	0	83886080	52	9925
2026-01-15 08:11:00.01	80.24	15.76	-41.1	-49.1	6.1	3.01e-01	0	58	0	85983232	52	9798
2026-01-15 08:11:01.02	80.05	15.81	-41.2	-49.1	6.2	2.93e-01	0	58	0	88080384	52	9814
2026-01-15 08:11:02.03	79.86	15.87	-41.2	-49.1	6.2	2.99e-01	0	58	0	89128960	52	9761
2026-01-15 08:11:03.04	79.67	15.93	-41.2	-48.7	6.6	2.23e-01	0	58	0	91226112	53	8824
2026-01-15 08:11:04.05	79.48	15.99	-41.3	-48.7	6.8	1.77e-01	0	58	0	93323264	53	8781
2026-01-15 08:11:05.06	79.29	16.04	-41.2	-48.5	6.9	1.66e-01	0	58	0	95420416	53	8566
2026-01-15 08:11:06.06	79.10	16.10	-41.2	-48.4	7.0	1.62e-01	0	58	0	97517568	53	8525
2026-01-15 08:11:07.07	78.91	16.16	-41.2	-48.3	7.1	1.51e-01	0	58	0	98566144	53	8373
2026-01-15 08:11:08.08	78.71	16.21	-41.1	-48.1	7.3	1.29e-01	0	58	0	100663296	53	8183
2026-01-15 08:11:09.09	78.52	16.27	-41.0	-48.1	7.2	1.29e-01	0	58	0	102760448	53	8203
2026-01-15 08:11:10.10	78.33	16.33	-41.0	-48.1	7.1	1.39e-01	0	58	0	104857600	53	8205
2026-01-15 08:11:11.10	78.13	16.38	-40.9	-48.1	7.0	1.45e-01	0	58	0	106954752	53	8233
2026-01-15 08:11:12.11	77.94	16.44	-40.9	-48.2	6.9	1.58e-01	0	58	0	108003328	53	8279
2026-01-15 08:11:13.12	77.74	16.49	-40.8	-48.1	7.0	1.58e-01	0	58	0	110100480	53	8209
2026-01-15 08:11:14.13	77.54	16.55	-40.8	-48.1	6.9	1.60e-01	0	58	0	112197632	53	8203
2026-01-15 08:11:15.13	77.34	16.60	-40.9	-48.4	6.7	1.69e-01	0	58	0	114294784	53	8508
2026-01-15 08:11:16.14	77.14	16.66	-41.0	-49.0	6.1	2.69e-01	0	58	0	116391936	53	9119
2026-01-15 08:11:17.15	76.94	16.71	-41.0	-49.1	6.1	3.18e-01	0	58	0	117440512	53	9244
2026-01-15 08:11:18.16	76.74	16.77	-41.0	-48.8	6.3	2.95e-01	0	58	0	119537664	53	8923
2026-01-15 08:11:19.17	76.54	16.82	-41.0	-48.5	6.6	2.39e-01	0	58	0	121634816	53	8612
2026-01-15 08:11:20.18	76.34	16.88	-40.9	-48.3	6.9	1.80e-01	0	58	0	123731968	53	8407
2026-01-15 08:11:21.19	76.14	16.93	-40.9	-48.1	7.0	1.68e-01	0	58	0	125829120	53	8238
2026-01-15 08:11:22.20	75.93	16.98	-40.9	-48.1	7.1	1.48e-01	0	58	0	127926272	53	8206
2026-01-15 08:11:23.21	75.73	17.04	-40.9	-48.2	6.9	1.57e-01	0	58	0	128974848	53	8352
2026-01-15 08:11:24.22	75.52	17.09	-40.9	-48.3	6.9	1.69e-01	0	58	0	131072000	53	8378
2026-01-15 08:11:25.23	75.32	17.14	-40.9	-48.4	6.8	1.81e-01	0	58	0	133169152	53	8489
2026-01-15 08:11:26.24	75.11	17.20	-41.0	-48.6	6.6	2.06e-01	0	58	0	135266304	53	8685
2026-01-15 08:11:27.25	74.90	17.25	-41.0	-48.8	6.4	2.34e-01	0	58	0	137363456	53	8936
2026-01-15 08:11:28.26	74.70	17.30	-41.1	-49.2	6.1	2.62e-01	0	58	0	138412032	53	9329
2026-01-15 08:11:29.27	74.49	17.35	-41.1	-49.3	6.0	3.29e-01	0	58	0	140509184	53	9487
2026-01-15 08:11:30.28	74.28	17.40	-41.1	-49.4	6.0	3.53e-01	0	58	0	142606336	53	9553
2026-01-15 08:11:31.29	74.07	17.45	-41.1	-49.4	6.0	3.47e-01	0	58	0	144703488	53	9539
2026-01-15 08:11:32.30	73.86	17.50	-41.1	-49.3	6.0	3.26e-01	0	58	0	146800640	53	9399
2026-01-15 08:11:33.30	73.65	17.55	-41.1	-49.1	6.2	2.99e-01	0	58	0	147849216	53	9270
2026-01-15 08:11:34.31	73.44	17.60	-41.0	-48.8	6.5	2.68e-01	0	58	0	149946368	53	8874
2026-01-15 08:11:35.32	73.22	17.65	-41.0	-48.6	6.7	2.20e-01	0	58	0	152043520	53	8666
2026-01-15 08:11:36.32	73.01	17.70	-41.1	-48.4	6.9	1.73e-01	0	59	0	154140672	53	8526
2026-01-15 08:11:37.33	72.80	17.75	-41.0	-48.3	7.0	1.57e-01	0	58	0	156237824	53	8407
2026-01-15 08:11:38.34	72.58	17.80	-41.1	-48.3	7.0	1.51e-01	0	58	0	157286400	53	8447
2026-01-15 08:11:39.35	72.37	17.85	-41.1	-48.3	7.0	1.55e-01	0	58	0	159383552	53	8461
2026-01-15 08:11:40.36	72.15	17.90	-41.1	-48.1	7.3	1.34e-01	0	58	0	161480704	53	8256
2026-01-15 08:11:41.37	71.93	17.95	-41.1	-48.0	7.5	1.18e-01	0	58	0	163577856	53	8111
2026-01-15 08:11:42.38	71.71	18.00	-41.1	-47.9	7.6	1.01e-01	0	58	0	165675008	53	8058
2026-01-15 08:11:43.39	71.49	18.04	-41.0	-47.8	7.8	8.32e-02	0	58	0	166723584	53	7922
2026-01-15 08:11:44.40	71.28	18.09	-41.1	-47.7	7.9	8.12e-02	0	58	0	168820736	53	7829
2026-01-15 08:11:45.41	71.06	18.14	-41.1	-47.4	8.3	6.39e-02	0	58	0	170917888	53	7571
2026-01-15 08:11:46.42	70.84	18.18	-41.2	-47.2	8.6	4.15e-02	0	58	0	173015040	53	7442
2026-01-15 08:11:47.42	70.62	18.23	-41.2	-47.2	8.7	3.61e-02	0	58	0	175112192	53	7415
2026-01-15 08:11:48.43	70.39	18.27	-41.3	-47.2	8.8	3.42e-02	0	58	0	176160768	53	7391
2026-01-15 08:11:49.44	70.17	18.32	-41.2	-46.9	9.2	2.49e-02	0	59	0	178257920	53	7151
2026-01-15 08:11:50.45	69.95	18.36	-41.2	-46.5	9.6	1.54e-02	0	58	0	180355072	53	6845
2026-01-15 08:11:51.46	69.72	18.41	-41.2	-46.3	10.0	9.42e-03	0	59	0	182452224	53	6677
2026-01-15 08:11:52.47	69.50	18.45	-41.3	-46.3	10.2	6.84e-03	0	58	0	184549376	53	6674
2026-01-15 08:11:53.48	69.27	18.50	-41.3	-46.2	10.3	5.88e-03	0	58	0	185597952	53	6594
2026-01-15 08:11:54.48	69.05	18.54	-41.3	-45.9	10.6	4.24e-03	0	58	0	187695104	53	6416
2026-01-15 08:11:55.49	68.82	18.58	-41.3	-45.7	11.0	2.20e-03	0	58	0	189792256	53	6268
2026-01-15 08:11:56.50	68.60	18.62	-41.1	-45.4	11.4	1.29e-03	0	58	0	191889408	53	6057
2026-01-15 08:11:57.51	68.37	18.67	-41.2	-45.4	11.5	8.15e-04	0	58	0	193986560	53	5993
2026-01-15 08:11:58.52	68.14	18.71	-41.2	-45.4	11.6	8.92e-04	0	58	0	195035136	53	6005
2026-01-15 08:11:59.53	67.91	18.75	-41.2	-45.3	11.7	6.16e-04	0	59	0	197132288	53	5977
2026-01-15 08:12:00.54	67.68	18.79	-41.2	-45.1	12.0	4.76e-04	0	59	0	199229440	53	5853
2026-01-15 08:12:01.55	67.45	18.83	-41.2	-45.0	12.1	2.77e-04	0	58	0	201326592	53	5773
2026-01-15 08:12:02.56	67.22	18.87	-41.2	-45.1	12.1	2.62e-04	0	59	0	203423744	53	5847
2026-01-15 08:12:03.56	66.99	18.91	-41.3	-45.3	12.0	2.73e-04	0	58	0	204472320	53	5949
2026-01-15 08:12:04.57	66.76	18.95	-41.4	-45.3	12.0	3.07e-04	0	59	0	206569472	53	5979
2026-01-15 08:12:05.58	66.53	18.99	-41.4	-45.3	12.1	2.74e-04	0	58	0	208666624	53	5948
2026-01-15 08:12:06.59	66.29	19.03	-41.4	-45.3	12.1	2.62e-04	0	59	0	210763776	53	5978
2026-01-15 08:12:07.60	66.06	19.07	-41.5	-45.5	12.0	2.68e-04	0	58	0	212860928	53	6083
2026-01-15 08:12:08.61	65.82	19.10	-41.6	-45.6	12.0	4.09e-04	0	59	0	213909504	53	6133
2026-01-15 08:12:09.62	65.59	19.14	-41.6	-45.5	12.0	2.91e-04	0	59	0	216006656	53	6106
2026-01-15 08:12:10.63	65.35	19.18	-41.5	-45.4	12.1	2.97e-04	0	59	0	218103808	53	6059
2026-01-15 08:12:11.63	65.12	19.21	-41.5	-45.4	12.2	2.53e-04	0	58	0	220200960	53	6015
2026-01-15 08:12:12.64	64.88	19.25	-41.6	-45.5	12.1	2.42e-04	0	58	0	222298112	53	6085
2026-01-15 08:12:13.65	64.65	19.28	-41.6	-45.5	12.1	2.39e-04	0	59	0	224395264	53	6114
2026-01-15 08:12:14.66	64.41	19.32	-41.6	-45.6	12.0	2.62e-04	0	59	0	225443840	53	6150
2026-01-15 08:12:15.67	64.17	19.35	-41.6	-45.5	12.1	2.47e-04	0	58	0	227540992	53	6099
2026-01-15 08:12:16.67	63.93	19.39	-41.6	-45.4	12.2	2.13e-04	0	59	0	229638144	53	6046
2026-01-15 08:12:17.68	63.69	19.42	-41.7	-45.5	12.1	2.47e-04	0	59	0	231735296	53	6124
2026-01-15 08:12:18.69	63.45	19.45	-41.7	-45.6	12.1	2.82e-04	0	58	0	233832448	53	6188
2026-01-15 08:12:19.70	63.21	19.49	-41.8	-45.7	11.9	3.13e-04	0	59	0	234881024	54	5915
2026-01-15 08:12:20.71	62.97	19.52	-41.8	-45.8	11.9	4.09e-04	0	59	0	236978176	54	5959
2026-01-15 08:12:21.71	62.73	19.55	-41.8	-45.8	11.9	3.92e-04	0	58	0	239075328	54	5977
2026-01-15 08:12:22.73	62.49	19.58	-41.9	-45.9	11.8	5.09e-04	0	59	0	241172480	54	6026
2026-01-15 08:12:23.74	62.25	19.61	-42.0	-46.1	11.6	5.84e-04	0	58	0	243269632	54	6188
2026-01-15 08:12:24.75	62.00	19.64	-42.0	-46.2	11.4	9.38e-04	0	59	0	244318208	54	6273
2026-01-15 08:12:25.76	61.76	19.67	-42.0	-46.2	11.5	8.06e-04	0	59	0	246415360	54	6265
2026-01-15 08:12:26.77	61.52	19.70	-42.0	-46.2	11.5	7.45e-04	0	58	0	248512512	54	6226
2026-01-15 08:12:27.77	61.27	19.73	-42.1	-46.3	11.4	9.25e-04	0	58	0	250609664	54	6339
2026-01-15 08:12:28.78	61.03	19.76	-42.1	-46.4	11.3	1.22e-03	0	58	0	252706816	54	6388
2026-01-15 08:12:29.79	60.78	19.78	-42.1	-46.4	11.3	1.15e-03	0	59	0	253755392	54	6390
2026-01-15 08:12:30.80	60.54	19.81	-42.1	-46.4	11.3	1.18e-03	0	58	0	255852544	54	6395
2026-01-15 08:12:31.81	60.29	19.84	-42.1	-46.4	11.3	1.08e-03	0	59	0	257949696	54	6357
2026-01-15 08:12:32.82	60.05	19.86	-42.1	-46.5	11.3	1.09e-03	0	59	0	260046848	54	6449
2026-01-15 08:12:33.83	59.80	19.89	-42.2	-46.5	11.2	1.31e-03	0	59	0	262144000	54	6486
2026-01-15 08:12:34.83	59.55	19.91	-42.2	-46.6	11.2	1.42e-03	0	59	0	263192576	54	6510
2026-01-15 08:12:35.84	59.31	19.94	-42.2	-46.5	11.2	1.71e-03	0	59	0	265289728	55	6130
2026-01-15 08:12:36.86	59.06	19.96	-42.2	-46.5	11.2	1.38e-03	0	59	0	267386880	55	6104
2026-01-15 08:12:37.87	58.81	19.99	-42.2	-46.7	11.1	1.58e-03	0	59	0	269484032	55	6205
2026-01-15 08:12:38.88	58.56	20.01	-42.3	-46.7	11.0	1.81e-03	0	59	0	271581184	55	6269
2026-01-15 08:12:39.88	58.31	20.03	-42.3	-46.8	10.9	2.07e-03	0	59	0	272629760	55	6323
2026-01-15 08:12:40.89	58.06	20.05	-42.3	-46.8	10.9	2.12e-03	0	59	0	274726912	55	6335
2026-01-15 08:12:41.90	57.81	20.07	-42.3	-46.8	10.9	2.32e-03	0	58	0	276824064	55	6346
2026-01-15 08:12:42.91	57.56	20.09	-42.3	-47.0	10.7	2.67e-03	0	59	0	278921216	55	6461
2026-01-15 08:12:43.92	57.31	20.11	-42.4	-47.2	10.5	3.45e-03	0	59	0	281018368	55	6627
2026-01-15 08:12:44.93	57.06	20.13	-42.5	-47.3	10.5	4.53e-03	0	59	0	282066944	55	6670
2026-01-15 08:12:45.94	56.81	20.15	-42.4	-47.1	10.6	4.07e-03	0	59	0	284164096	55	6536
2026-01-15 08:12:46.95	56.56	20.17	-42.3	-46.9	10.8	3.25e-03	0	59	0	286261248	55	6400
2026-01-15 08:12:47.96	56.31	20.19	-42.3	-46.8	11.0	2.11e-03	0	59	0	288358400	55	6289
2026-01-15 08:12:48.97	56.05	20.20	-42.2	-46.6	11.1	1.70e-03	0	59	0	290455552	55	6170
2026-01-15 08:12:49.97	55.80	20.22	-42.2	-46.6	11.1	1.62e-03	0	59	0	291504128	55	6175
2026-01-15 08:12:50.98	55.55	20.24	-42.2	-46.7	11.0	1.52e-03	0	59	0	293601280	55	6240
2026-01-15 08:12:51.99	55.30	20.25	-42.2	-46.7	11.1	1.39e-03	0	59	0	295698432	55	6204
2026-01-15 08:12:53.00	55.05	20.27	-42.3	-46.7	11.0	1.64e-03	0	59	0	297795584	55	6258
2026-01-15 08:12:54.01	54.79	20.28	-42.3	-46.8	10.9	2.03e-03	0	59	0	299892736	55	6337
2026-01-15 08:12:55.02	54.54	20.29	-42.4	-47.0	10.8	2.35e-03	0	59	0	300941312	55	6426
2026-01-15 08:12:56.03	54.29	20.31	-42.4	-47.0	10.7	2.96e-03	0	59	0	303038464	55	6480
2026-01-15 08:12:57.04	54.03	20.32	-42.4	-47.0	10.7	2.96e-03	0	59	0	305135616	55	6489
2026-01-15 08:12:58.05	53.78	20.33	-42.4	-46.9	10.8	2.56e-03	0	59	0	307232768	55	6412
2026-01-15 08:12:59.06	53.52	20.34	-42.3	-46.8	10.9	2.38e-03	0	59	0	309329920	55	6320
2026-01-15 08:13:00.07	53.27	20.35	-42.3	-46.9	10.9	2.10e-03	0	59	0	310378496	55	6361
2026-01-15 08:13:01.07	53.02	20.36	-42.3	-46.9	10.9	2.28e-03	0	59	0	312475648	55	6377
2026-01-15 08:13:02.09	52.76	20.37	-42.3	-46.9	10.9	2.13e-03	0	59	0	314572800	55	6384
2026-01-15 08:13:03.09	52.51	20.38	-42.3	-46.8	10.9	2.10e-03	0	59	0	316669952	55	6325
2026-01-15 08:13:04.10	52.25	20.39	-42.3	-46.8	10.9	2.01e-03	0	59	0	318767104	55	6342
2026-01-15 08:13:05.11	52.00	20.40	-42.3	-46.8	11.0	2.11e-03	0	59	0	320864256	55	6309
2026-01-15 08:13:06.12	51.74	20.41	-42.3	-46.8	10.9	2.00e-03	0	59	0	321912832	55	6346
2026-01-15 08:13:07.13	51.48	20.41	-42.3	-46.8	11.0	1.94e-03	0	59	0	324009984	55	6304
2026-01-15 08:13:08.14	51.23	20.42	-42.3	-46.8	11.0	1.77e-03	0	59	0	326107136	55	6291
2026-01-15 08:13:09.15	50.97	20.42	-42.3	-46.7	11.1	1.75e-03	0	59	0	328204288	55	6223
2026-01-15 08:13:10.16	50.72	20.43	-42.3	-46.7	11.1	1.68e-03	0	59	0	330301440	55	6261
2026-01-15 08:13:11.17	50.46	20.43	-42.3	-46.8	11.0	1.79e-03	0	59	0	331350016	55	6324
2026-01-15 08:13:12.17	50.21	20.44	-42.3	-46.8	10.9	2.04e-03	0	58	0	333447168	55	6347
2026-01-15 08:13:13.18	49.95	20.44	-42.3	-46.7	11.0	1.98e-03	0	59	0	335544320	55	6266
2026-01-15 08:13:14.19	49.70	20.44	-42.2	-46.6	11.2	1.45e-03	0	59	0	337641472	55	6137
2026-01-15 08:13:15.20	49.44	20.44	-42.1	-46.4	11.4	1.07e-03	0	58	0	339738624	55	6014
2026-01-15 08:13:16.21	49.18	20.45	-42.0	-46.1	11.7	7.45e-04	0	59	0	340787200	55	5825
2026-01-15 08:13:17.22	48.93	20.45	-42.0	-46.0	11.8	5.13e-04	0	59	0	342884352	55	5780
2026-01-15 08:13:18.23	48.67	20.45	-42.0	-46.0	11.8	4.84e-04	0	59	0	344981504	55	5740
2026-01-15 08:13:19.24	48.42	20.45	-42.0	-46.1	11.7	5.15e-04	0	59	0	347078656	55	5809
2026-01-15 08:13:20.25	48.16	20.44	-42.0	-46.1	11.7	5.36e-04	0	59	0	349175808	55	5834
2026-01-15 08:13:21.26	47.90	20.44	-42.0	-46.1	11.7	5.54e-04	0	59	0	350224384	55	5825
2026-01-15 08:13:22.26	47.65	20.44	-42.0	-46.0	11.8	5.22e-04	0	59	0	352321536	55	5767
2026-01-15 08:13:23.27	47.39	20.44	-41.9	-46.0	11.9	4.25e-04	0	59	0	354418688	55	5735
2026-01-15 08:13:24.28	47.14	20.43	-41.9	-45.9	11.9	4.02e-04	0	59	0	356515840	55	5694
2026-01-15 08:13:25.29	46.88	20.43	-41.9	-45.8	12.0	3.65e-04	0	59	0	358612992	55	5619
2026-01-15 08:13:26.29	46.63	20.42	-41.8	-45.7	12.2	2.76e-04	0	59	0	359661568	55	5566
2026-01-15 08:13:27.30	46.37	20.42	-41.8	-45.6	12.3	2.02e-04	0	59	0	361758720	55	5496
2026-01-15 08:13:28.32	46.12	20.41	-41.8	-45.6	12.3	1.91e-04	0	59	0	363855872	55	5476
2026-01-15 08:13:29.33	45.86	20.41	-41.7	-45.5	12.4	1.23e-04	0	59	0	365953024	55	5416
2026-01-15 08:13:30.33	45.61	20.40	-41.7	-45.4	12.4	1.27e-04	0	59	0	368050176	55	5368
2026-01-15 08:13:31.34	45.35	20.39	-41.7	-45.4	12.5	1.23e-04	0	59	0	369098752	55	5382
2026-01-15 08:13:32.35	45.10	20.38	-41.7	-45.4	12.5	1.16e-04	0	59	0	371195904	55	5389
2026-01-15 08:13:33.37	44.84	20.37	-41.7	-45.5	12.4	1.23e-04	0	59	0	373293056	55	5408
2026-01-15 08:13:34.37	44.59	20.36	-41.6	-45.3	12.6	1.02e-04	0	59	0	375390208	55	5286
2026-01-15 08:13:35.38	44.33	20.35	-41.6	-45.2	12.7	7.93e-05	0	59	0	377487360	55	5243
2026-01-15 08:13:36.40	44.08	20.34	-41.5	-45.0	12.9	6.10e-05	0	59	0	378535936	55	5159
2026-01-15 08:13:37.40	43.82	20.33	-41.4	-44.9	13.0	4.19e-05	0	59	0	380633088	54	5395
2026-01-15 08:13:38.41	43.57	20.32	-41.4	-44.9	13.0	3.89e-05	0	59	0	382730240	54	5342
2026-01-15 08:13:39.42	43.32	20.31	-41.4	-44.8	13.1	2.74e-05	0	59	0	384827392	54	5304
2026-01-15 08:13:40.44	43.06	20.30	-41.4	-44.8	13.0	2.97e-05	0	59	0	386924544	54	5338
2026-01-15 08:13:41.44	42.81	20.28	-41.4	-44.9	13.0	3.20e-05	0	59	0	389021696	54	5353
2026-01-15 08:13:42.45	42.56	20.27	-41.4	-44.9	13.0	2.59e-05	0	59	0	390070272	54	5366
2026-01-15 08:13:43.46	42.30	20.25	-41.4	-44.8	13.1	3.35e-05	0	59	0	392167424	54	5301
2026-01-15 08:13:44.47	42.05	20.24	-41.3	-44.7	13.2	3.05e-05	0	59	0	394264576	54	5250
2026-01-15 08:13:45.48	41.80	20.22	-41.3	-44.8	13.1	2.82e-05	0	59	0	396361728	54	5293
2026-01-15 08:13:46.49	41.55	20.20	-41.3	-44.7	13.2	2.44e-05	0	59	0	398458880	54	5279
2026-01-15 08:13:47.50	41.29	20.19	-41.3	-44.7	13.2	2.21e-05	0	59	0	399507456	54	5247
2026-01-15 08:13:48.51	41.04	20.17	-41.3	-44.7	13.3	1.67e-05	0	59	0	401604608	54	5241
2026-01-15 08:13:49.52	40.79	20.15	-41.2	-44.6	13.3	2.21e-05	0	59	0	403701760	54	5177
2026-01-15 08:13:50.52	40.54	20.13	-41.3	-44.6	13.3	9.10e-06	0	59	0	405798912	54	5209
2026-01-15 08:13:51.53	40.29	20.11	-41.3	-44.7	13.2	2.13e-05	0	59	0	407896064	54	5242
2026-01-15 08:13:52.54	40.04	20.09	-41.3	-44.8	13.2	2.74e-05	0	59	0	408944640	54	5286
2026-01-15 08:13:53.55	39.79	20.07	-41.4	-44.9	13.0	3.50e-05	0	59	0	411041792	54	5369
2026-01-15 08:13:54.56	39.54	20.05	-41.4	-44.9	13.0	4.11e-05	0	59	0	413138944	54	5398
2026-01-15 08:13:55.57	39.29	20.03	-41.4	-44.9	13.0	4.80e-05	0	59	0	415236096	54	5394
2026-01-15 08:13:56.58	39.05	20.01	-41.5	-45.0	12.9	3.58e-05	0	59	0	417333248	54	5423
2026-01-15 08:13:57.58	38.80	19.99	-41.4	-44.8	13.1	4.57e-05	0	59	0	418381824	54	5299
2026-01-15 08:13:58.59	38.55	19.96	-41.4	-44.8	13.1	3.73e-05	0	59	0	420478976	54	5308
2026-01-15 08:13:59.60	38.30	19.94	-41.4	-44.8	13.1	3.05e-05	0	59	0	422576128	54	5326
2026-01-15 08:14:00.61	38.06	19.91	-41.4	-44.8	13.1	3.28e-05	0	59	0	424673280	54	5314
2026-01-15 08:14:01.62	37.81	19.89	-41.4	-45.0	13.0	3.12e-05	0	59	0	426770432	54	5412
2026-01-15 08:14:02.63	37.56	19.86	-41.5	-45.1	12.8	5.64e-05	0	59	0	427819008	54	5526
2026-01-15 08:14:03.64	37.32	19.84	-41.7	-45.4	12.5	8.46e-05	0	59	0	429916160	54	5709
2026-01-15 08:14:04.65	37.07	19.81	-41.8	-45.6	12.3	1.24e-04	0	59	0	432013312	54	5795
2026-01-15 08:14:05.66	36.83	19.79	-41.8	-45.7	12.1	2.15e-04	0	59	0	434110464	54	5909
2026-01-15 08:14:06.67	36.58	19.76	-41.8	-45.8	12.1	2.29e-04	0	59	0	436207616	54	5930
2026-01-15 08:14:07.68	36.34	19.73	-41.9	-45.8	12.1	2.46e-04	0	59	0	437256192	54	5925
2026-01-15 08:14:08.69	36.09	19.70	-41.9	-45.7	12.2	2.35e-04	0	59	0	439353344	54	5919
2026-01-15 08:14:09.70	35.85	19.67	-41.9	-45.7	12.2	2.17e-04	0	59	0	441450496	54	5914
2026-01-15 08:14:10.70	35.61	19.64	-41.9	-45.8	12.1	2.44e-04	0	59	0	443547648	54	5968
2026-01-15 08:14:11.71	35.37	19.61	-41.9	-45.9	12.0	2.86e-04	0	59	0	445644800	54	6007
2026-01-15 08:14:12.72	35.13	19.58	-42.0	-46.0	11.9	3.75e-04	0	59	0	446693376	54	6085
2026-01-15 08:14:13.73	34.88	19.55	-42.0	-46.1	11.8	4.86e-04	0	59	0	448790528	54	6187
2026-01-15 08:14:14.74	34.64	19.52	-42.0	-46.1	11.8	5.55e-04	0	59	0	450887680	54	6185
2026-01-15 08:14:15.75	34.40	19.49	-42.1	-46.2	11.7	5.47e-04	0	59	0	452984832	54	6229
2026-01-15 08:14:16.76	34.16	19.46	-42.1	-46.2	11.6	6.26e-04	0	59	0	455081984	54	6258
2026-01-15 08:14:17.77	33.92	19.42	-42.1	-46.3	11.6	6.45e-04	0	59	0	456130560	54	6339
2026-01-15 08:14:18.77	33.69	19.39	-42.2	-46.4	11.5	8.09e-04	0	59	0	458227712	54	6377
2026-01-15 08:14:19.78	33.45	19.36	-42.2	-46.5	11.4	1.02e-03	0	59	0	460324864	54	6442
2026-01-15 08:14:20.79	33.21	19.32	-42.1	-46.4	11.5	9.39e-04	0	59	0	462422016	54	6377
2026-01-15 08:14:21.80	32.97	19.29	-42.2	-46.4	11.5	8.59e-04	0	59	0	464519168	54	6352
2026-01-15 08:14:22.81	32.74	19.25	-42.2	-46.3	11.5	7.99e-04	0	59	0	465567744	54	6342
2026-01-15 08:14:23.82	32.50	19.22	-42.2	-46.4	11.5	7.91e-04	0	59	0	467664896	54	6375
2026-01-15 08:14:24.83	32.27	19.18	-42.2	-46.5	11.4	9.07e-04	0	59	0	469762048	54	6455
2026-01-15 08:14:25.84	32.03	19.14	-42.2	-46.5	11.3	1.08e-03	0	59	0	471859200	55	6108
2026-01-15 08:14:26.84	31.80	19.11	-42.2	-46.5	11.3	1.15e-03	0	59	0	473956352	55	6118
2026-01-15 08:14:27.85	31.56	19.07	-42.2	-46.5	11.3	1.14e-03	0	59	0	475004928	55	6116
2026-01-15 08:14:28.86	31.33	19.03	-42.2	-46.5	11.4	1.08e-03	0	59	0	477102080	55	6099
2026-01-15 08:14:29.87	31.10	18.99	-42.2	-46.5	11.3	1.05e-03	0	59	0	479199232	55	6121
2026-01-15 08:14:30.88	30.87	18.95	-42.2	-46.5	11.3	1.17e-03	0	59	0	481296384	55	6106
2026-01-15 08:14:31.89	30.63	18.91	-42.2	-46.6	11.3	1.21e-03	0	59	0	483393536	55	6133
2026-01-15 08:14:32.90	30.40	18.88	-42.2	-46.6	11.2	1.27e-03	0	59	0	485490688	55	6165
2026-01-15 08:14:33.91	30.17	18.84	-42.2	-46.6	11.2	1.35e-03	0	59	0	486539264	55	6172
2026-01-15 08:14:34.92	29.94	18.79	-42.3	-46.7	11.2	1.35e-03	0	59	0	488636416	55	6225
2026-01-15 08:14:35.93	29.72	18.75	-42.3	-46.8	11.0	1.78e-03	0	59	0	490733568	55	6328
2026-01-15 08:14:36.94	29.49	18.71	-42.4	-46.9	10.9	1.99e-03	0	59	0	492830720	55	6391
2026-01-15 08:14:37.95	29.26	18.67	-42.4	-46.9	10.9	2.17e-03	0	59	0	494927872	55	6372
2026-01-15 08:14:38.96	29.03	18.63	-42.3	-46.8	11.0	1.84e-03	0	59	0	495976448	55	6316
2026-01-15 08:14:39.97	28.81	18.59	-42.2	-46.6	11.3	1.56e-03	0	59	0	498073600	55	6142
2026-01-15 08:14:40.98	28.58	18.54	-42.2	-46.4	11.4	1.12e-03	0	59	0	500170752	55	6061
2026-01-15 08:14:41.99	28.35	18.50	-42.1	-46.3	11.5	7.84e-04	0	59	0	502267904	55	5959
2026-01-15 08:14:42.99	28.13	18.46	-42.2	-46.5	11.4	7.45e-04	0	59	0	504365056	55	6064
2026-01-15 08:14:44.00	27.91	18.41	-42.2	-46.5	11.3	9.80e-04	0	59	0	505413632	55	6097
2026-01-15 08:14:45.01	27.69	18.37	-42.2	-46.6	11.2	1.35e-03	0	59	0	507510784	55	6175
2026-01-15 08:14:46.02	27.46	18.32	-42.3	-46.8	11.1	1.62e-03	0	59	0	509607936	55	6277
2026-01-15 08:14:47.03	27.24	18.28	-42.3	-46.8	11.0	1.74e-03	0	59	0	511705088	55	6281
2026-01-15 08:14:48.04	27.02	18.23	-42.3	-46.8	11.0	1.84e-03	0	59	0	513802240	55	6320
2026-01-15 08:14:49.05	26.80	18.19	-42.3	-46.8	11.0	1.71e-03	0	59	0	514850816	55	6308
2026-01-15 08:14:50.06	26.58	18.14	-42.3	-46.8	11.0	1.90e-03	0	59	0	516947968	55	6301
2026-01-15 08:14:51.07	26.36	18.09	-42.3	-46.8	11.0	1.87e-03	0	59	0	519045120	55	6306
2026-01-15 08:14:52.08	26.14	18.05	-42.3	-46.8	11.0	1.92e-03	0	59	0	521142272	55	6293
2026-01-15 08:14:53.09	25.92	18.00	-42.3	-46.8	11.0	1.85e-03	0	59	0	523239424	55	6297
2026-01-15 08:14:54.10	25.71	17.95	-42.3	-46.8	11.0	1.92e-03	0	59	0	524288000	55	6298
2026-01-15 08:14:55.11	25.49	17.91	-42.3	-46.8	10.9	1.93e-03	0	59	0	526385152	55	6342
2026-01-15 08:14:56.11	25.28	17.86	-42.3	-46.9	10.9	2.16e-03	0	59	0	528482304	55	6409
2026-01-15 08:14:57.12	25.06	17.81	-42.4	-47.1	10.7	2.75e-03	0	59	0	530579456	55	6520
2026-01-15 08:14:58.13	24.85	17.76	-42.4	-47.1	10.6	3.29e-03	0	59	0	532676608	55	6570
2026-01-15 08:14:59.14	24.63	17.71	-42.4	-47.0	10.8	3.02e-03	0	59	0	533725184	55	6480
2026-01-15 08:15:00.14	24.42	17.66	-42.4	-46.9	10.8	2.80e-03	0	59	0	535822336	55	6416
2026-01-15 08:15:01.14	24.21	17.61	-42.3	-46.8	11.0	2.24e-03	0	59	0	537919488	55	6337
2026-01-15 08:15:02.15	24.00	17.56	-42.3	-46.7	11.1	1.82e-03	0	59	0	540016640	55	6244
2026-01-15 08:15:03.16	23.79	17.51	-42.2	-46.7	11.1	1.60e-03	0	59	0	542113792	55	6231
2026-01-15 08:15:04.17	23.58	17.46	-42.2	-46.8	11.0	1.70e-03	0	59	0	543162368	55	6302
2026-01-15 08:15:05.18	23.37	17.41	-42.2	-46.8	11.0	2.09e-03	0	59	0	545259520	55	6302
2026-01-15 08:15:06.19	23.16	17.36	-42.3	-46.9	10.9	2.12e-03	0	59	0	547356672	55	6360
2026-01-15 08:15:07.20	22.96	17.31	-42.3	-46.9	10.9	2.15e-03	0	59	0	549453824	55	6372
2026-01-15 08:15:08.20	22.75	17.26	-42.3	-46.8	10.9	2.31e-03	0	59	0	551550976	55	6313
2026-01-15 08:15:09.21	22.54	17.20	-42.3	-46.8	10.9	2.06e-03	0	59	0	552599552	55	6326
2026-01-15 08:15:10.22	22.34	17.15	-42.3	-46.8	10.9	1.91e-03	0	59	0	554696704	55	6332
2026-01-15 08:15:11.23	22.13	17.10	-42.3	-46.8	10.9	2.20e-03	0	59	0	556793856	55	6336
2026-01-15 08:15:12.24	21.93	17.05	-42.3	-46.8	10.9	2.42e-03	0	59	0	558891008	55	6329
2026-01-15 08:15:13.25	21.73	16.99	-42.2	-46.9	10.8	2.36e-03	0	59	0	560988160	55	6358
2026-01-15 08:15:14.26	21.52	16.94	-42.3	-46.9	10.8	2.58e-03	0	59	0	562036736	55	6377
2026-01-15 08:15:15.27	21.32	16.89	-42.2	-46.8	10.9	2.33e-03	0	59	0	564133888	55	6302
2026-01-15 08:15:16.27	21.12	16.83	-42.2	-46.8	10.9	2.21e-03	0	59	0	566231040	55	6283
2026-01-15 08:15:17.28	20.92	16.78	-42.2	-46.7	11.0	2.08e-03	0	59	0	568328192	55	6271
2026-01-15 08:15:18.29	20.72	16.73	-42.2	-46.6	11.0	1.94e-03	0	59	0	570425344	55	6200
2026-01-15 08:15:19.30	20.52	16.67	-42.1	-46.5	11.1	1.55e-03	0	59	0	571473920	55	6130
2026-01-15 08:15:20.31	20.32	16.62	-42.1	-46.5	11.1	1.62e-03	0	59	0	573571072	55	6128
2026-01-15 08:15:21.32	20.13	16.56	-42.1	-46.5	11.2	1.44e-03	0	59	0	575668224	55	6094
2026-01-15 08:15:22.32	19.93	16.51	-42.1	-46.5	11.2	1.31e-03	0	59	0	577765376	55	6083
2026-01-15 08:15:23.33	19.73	16.45	-42.1	-46.5	11.1	1.42e-03	0	59	0	579862528	55	6127
2026-01-15 08:15:24.34	19.54	16.40	-42.2	-46.7	10.9	1.90e-03	0	59	0	581959680	55	6251
2026-01-15 08:15:25.34	19.35	16.34	-42.3	-46.9	10.8	2.26e-03	0	59	0	583008256	55	6355
2026-01-15 08:15:26.35	19.15	16.28	-42.3	-47.0	10.6	2.75e-03	0	59	0	585105408	55	6437
2026-01-15 08:15:27.36	18.96	16.23	-42.3	-47.0	10.6	3.28e-03	0	59	0	587202560	55	6455
2026-01-15 08:15:28.37	18.77	16.17	-42.3	-47.1	10.6	3.40e-03	0	59	0	589299712	55	6501
2026-01-15 08:15:29.38	18.58	16.11	-42.3	-47.0	10.6	3.55e-03	0	59	0	590348288	55	6466
2026-01-15 08:15:30.38	18.39	16.06	-42.3	-47.1	10.5	3.40e-03	0	59	0	592445440	55	6520
2026-01-15 08:15:31.39	18.20	16.00	-42.3	-47.1	10.5	3.94e-03	0	59	0	594542592	55	6514
2026-01-15 08:15:32.40	18.01	15.94	-42.4	-47.2	10.4	4.28e-03	0	59	0	596639744	55	6612
2026-01-15 08:15:33.41	17.82	15.89	-42.4	-47.3	10.3	5.18e-03	0	59	0	598736896	55	6689
2026-01-15 08:15:34.41	17.63	15.83	-42.4	-47.4	10.2	5.88e-03	0	59	0	599785472	55	6743
2026-01-15 08:15:35.42	17.44	15.77	-42.4	-47.4	10.1	6.40e-03	0	59	0	601882624	55	6754
2026-01-15 08:15:36.43	17.26	15.71	-42.4	-47.4	10.2	6.16e-03	0	59	0	603979776	55	6761
2026-01-15 08:15:37.44	17.07	15.66	-42.4	-47.3	10.2	5.86e-03	0	59	0	606076928	55	6683
2026-01-15 08:15:38.45	16.89	15.60	-42.4	-47.2	10.3	5.67e-03	0	59	0	608174080	55	6635
2026-01-15 08:15:39.46	16.70	15.54	-42.3	-47.2	10.3	5.26e-03	0	59	0	610271232	55	6604
2026-01-15 08:15:40.47	16.52	15.48	-42.3	-47.2	10.3	5.06e-03	0	59	0	611319808	55	6574
2026-01-15 08:15:41.48	16.34	15.42	-42.4	-47.2	10.3	5.32e-03	0	59	0	613416960	55	6644
2026-01-15 08:15:42.49	16.15	15.36	-42.4	-47.4	10.2	5.75e-03	0	59	0	615514112	55	6730
2026-01-15 08:15:43.50	15.97	15.30	-42.4	-47.4	10.1	6.62e-03	0	59	0	617611264	55	6736
2026-01-15 08:15:44.50	15.79	15.24	-42.4	-47.4	10.1	7.24e-03	0	59	0	619708416	55	6787
2026-01-15 08:15:45.51	15.61	15.19	-42.5	-47.6	9.9	8.11e-03	0	59	0	620756992	55	6893
2026-01-15 08:15:46.52	15.43	15.13	-42.5	-47.6	9.9	9.23e-03	0	59	0	622854144	55	6911
2026-01-15 08:15:47.53	15.25	15.07	-42.5	-47.6	9.9	9.10e-03	0	59	0	624951296	55	6927
2026-01-15 08:15:48.54	15.08	15.01	-42.4	-47.6	9.9	9.12e-03	0	59	0	627048448	55	6892
2026-01-15 08:15:49.55	14.90	14.95	-42.4	-47.5	9.9	8.44e-03	0	59	0	629145600	55	6834
2026-01-15 08:15:50.56	14.72	14.89	-42.4	-47.4	10.1	7.74e-03	0	59	0	630194176	55	6749
2026-01-15 08:15:51.56	14.55	14.83	-42.3	-47.2	10.2	6.28e-03	0	59	0	632291328	55	6580
2026-01-15 08:15:52.57	14.37	14.77	-42.3	-47.1	10.3	5.28e-03	0	59	0	634388480	55	6567
2026-01-15 08:15:53.58	14.20	14.71	-42.2	-47.0	10.4	4.55e-03	0	59	0	636485632	55	6494
2026-01-15 08:15:54.59	14.03	14.65	-42.2	-46.9	10.5	4.27e-03	0	59	0	638582784	55	6399
2026-01-15 08:15:55.60	13.85	14.59	-42.1	-46.8	10.6	3.84e-03	0	59	0	639631360	55	6319
2026-01-15 08:15:56.60	13.68	14.53	-42.1	-46.8	10.5	3.58e-03	0	59	0	641728512	55	6330
2026-01-15 08:15:57.61	13.51	14.46	-42.1	-46.8	10.5	3.87e-03	0	59	0	643825664	55	6311
2026-01-15 08:15:58.62	13.34	14.40	-42.1	-46.8	10.5	3.48e-03	0	59	0	645922816	55	6295
2026-01-15 08:15:59.63	13.17	14.34	-42.0	-46.7	10.6	3.50e-03	0	59	0	648019968	55	6232
2026-01-15 08:16:00.64	13.00	14.28	-42.0	-46.7	10.6	3.54e-03	0	59	0	649068544	55	6231
2026-01-15 08:16:01.65	12.83	14.22	-42.0	-46.6	10.6	3.36e-03	0	59	0	651165696	55	6195
2026-01-15 08:16:02.66	12.67	14.16	-41.9	-46.6	10.6	3.35e-03	0	59	0	653262848	55	6181
2026-01-15 08:16:03.67	12.50	14.10	-41.9	-46.6	10.5	3.84e-03	0	59	0	655360000	55	6190
2026-01-15 08:16:04.67	12.33	14.04	-41.9	-46.6	10.5	3.54e-03	0	59	0	657457152	55	6170
2026-01-15 08:16:05.68	12.17	13.98	-41.9	-46.6	10.5	3.51e-03	0	59	0	658505728	55	6190
2026-01-15 08:16:06.69	12.00	13.91	-41.8	-46.6	10.5	3.83e-03	0	59	0	660602880	55	6132
2026-01-15 08:16:07.70	11.84	13.85	-41.8	-46.4	10.6	3.38e-03	0	59	0	662700032	55	6045
2026-01-15 08:16:08.71	11.68	13.79	-41.7	-46.3	10.7	3.22e-03	0	59	0	664797184	55	5991
2026-01-15 08:16:09.72	11.51	13.73	-41.7	-46.3	10.7	3.13e-03	0	59	0	666894336	55	5975
2026-01-15 08:16:10.73	11.35	13.67	-41.6	-46.1	10.9	2.47e-03	0	59	0	667942912	55	5839
2026-01-15 08:16:11.74	11.19	13.60	-41.5	-46.0	11.0	2.05e-03	0	59	0	670040064	55	5750
2026-01-15 08:16:12.75	11.03	13.54	-41.5	-45.9	11.0	1.85e-03	0	59	0	672137216	55	5700
2026-01-15 08:16:13.75	10.87	13.48	-41.5	-46.0	10.9	2.16e-03	0	59	0	674234368	54	6110
2026-01-15 08:16:14.76	10.71	13.42	-41.5	-46.1	10.7	2.70e-03	0	59	0	676331520	54	6179
2026-01-15 08:16:15.77	10.55	13.36	-41.5	-46.1	10.7	3.09e-03	0	59	0	677380096	54	6182
2026-01-15 08:16:16.77	10.40	13.29	-41.4	-46.0	10.7	3.02e-03	0	59	0	679477248	54	6083
2026-01-15 08:16:17.78	10.24	13.23	-41.1	-45.5	11.1	1.77e-03	0	59	0	681574400	54	5743
2026-01-15 08:16:18.79	10.08	13.17	-41.1	-45.4	11.1	1.48e-03	0	59	0	683671552	54	5718
2026-01-15 08:16:19.80	9.92	13.11	-41.1	-45.6	10.8	2.02e-03	0	59	0	685768704	54	5831
2026-01-15 08:16:20.81	9.77	13.04	-41.1	-45.8	10.6	2.96e-03	0	59	0	686817280	54	5938
2026-01-15 08:16:21.82	9.61	12.98	-41.2	-45.9	10.5	3.91e-03	0	59	0	688914432	54	6032
2026-01-15 08:16:22.82	9.46	12.92	-41.2	-46.2	10.1	4.81e-03	0	59	0	691011584	54	6211
2026-01-15 08:16:23.84	9.31	12.86	-41.2	-46.1	10.2	6.15e-03	0	59	0	693108736	54	6134
2026-01-15 08:16:24.84	9.16	12.79	-41.1	-46.1	10.1	6.76e-03	0	59	0	695205888	54	6142
2026-01-15 08:16:25.85	9.00	12.73	-40.9	-45.7	10.3	6.01e-03	0	59	0	696254464	53	6222
2026-01-15 08:16:26.86	8.85	12.67	-40.9	-45.8	10.2	5.36e-03	0	59	0	698351616	53	6284
2026-01-15 08:16:27.88	8.70	12.61	-40.6	-45.3	10.6	4.89e-03	0	59	0	700448768	53	5955
2026-01-15 08:16:28.89	8.55	12.54	-40.6	-45.3	10.5	3.53e-03	0	59	0	702545920	53	5983
2026-01-15 08:16:29.90	8.40	12.48	-40.6	-45.5	10.2	5.43e-03	0	59	0	704643072	53	6094
2026-01-15 08:16:30.91	8.25	12.42	-40.6	-45.3	10.5	3.92e-03	0	59	0	706740224	53	5977
2026-01-15 08:16:31.92	8.10	12.35	-40.5	-45.1	10.6	3.80e-03	0	59	0	707788800	52	6200
2026-01-15 08:16:32.93	7.96	12.29	-40.5	-45.3	10.4	4.86e-03	0	59	0	709885952	52	6317
2026-01-15 08:16:33.94	7.81	12.23	-40.5	-45.4	10.3	5.03e-03	0	59	0	711983104	52	6381
2026-01-15 08:16:34.95	7.66	12.16	-40.4	-45.2	10.4	4.51e-03	0	59	0	714080256	52	6254
2026-01-15 08:16:35.96	7.52	12.10	-40.5	-45.6	9.9	8.20e-03	0	59	0	716177408	52	6565
2026-01-15 08:16:36.97	7.37	12.04	-40.6	-46.2	9.2	1.43e-02	0	60	0	717225984	52	7030
2026-01-15 08:16:37.98	7.23	11.98	-40.8	-47.1	8.2	4.18e-02	0	59	0	719323136	52	7762
2026-01-15 08:16:38.99	7.09	11.91	-41.0	-48.1	7.2	7.44e-02	0	59	0	721420288	52	8691
2026-01-15 08:16:40.00	6.94	11.85	-41.1	-49.1	6.2	2.52e-01	0	59	0	723517440	52	9811
2026-01-15 08:16:41.01	6.80	11.79	-41.2	-49.9	5.5	3.72e-01	0	59	0	725614592	52	10699
2026-01-15 08:16:42.01	6.66	11.72	-41.2	-50.9	4.9	5.94e-01	0	59	0	726663168	52	11982
2026-01-15 08:16:43.02	6.52	11.66	-41.2	-51.7	4.5	9.59e-01	12	59	0	728760320	52	13144
2026-01-15 08:16:44.03	6.38	11.60	-41.2	-53.0	4.1	1.37e+00	0	59	0	729808896	52	15300
2026-01-15 08:16:45.04	6.24	11.53	-41.2	-53.8	3.8	1.48e+00	0	59	104	729808896	52	16826
2026-01-15 08:16:46.05	6.10	11.47	-41.1	-54.0	3.8	1.48e+00	0	59	104	729808896	52	17242
2026-01-15 08:16:47.06	5.96	11.41	-41.0	-54.2	3.8	1.49e+00	0	59	104	729808896	52	17525
2026-01-15 08:16:48.07	5.82	11.34	-41.0	-54.5	3.8	1.49e+00	0	59	104	729808896	52	18165
2026-01-15 08:16:49.08	5.68	11.28	-40.9	-54.9	3.8	1.49e+00	0	59	104	729808896	52	18965
2026-01-15 08:16:50.09	5.55	11.22	-40.8	-55.0	3.8	1.49e+00	0	60	104	729808896	52	19340
2026-01-15 08:16:51.10	5.41	11.15	-40.8	-55.1	3.8	1.49e+00	0	59	104	729808896	52	19408
2026-01-15 08:16:52.11	5.28	11.09	-40.7	-55.0	3.8	1.49e+00	0	59	104	729808896	52	19262
2026-01-15 08:16:53.12	5.14	11.03	-40.7	-54.9	3.8	1.49e+00	0	59	104	729808896	52	19055
2026-01-15 08:16:54.13	5.01	10.97	-40.7	-55.1	3.8	1.49e+00	0	59	104	729808896	52	19552
2026-01-15 08:16:55.14	4.87	10.90	-41.1	-55.3	3.8	1.49e+00	0	59	104	729808896	52	19992
2026-01-15 08:16:56.15	4.74	10.84	-40.1	-54.8	3.8	1.49e+00	0	59	104	729808896	52	18850
2026-01-15 08:16:57.16	4.61	10.78	-40.0	-54.7	3.8	1.49e+00	0	59	104	729808896	52	18589
2026-01-15 08:16:58.17	4.47	10.71	-40.2	-54.9	3.8	1.49e+00	0	59	104	729808896	52	19100
2026-01-15 08:16:59.18	4.34	10.65	-40.0	-54.7	3.8	1.49e+00	0	59	104	729808896	52	18721
2026-01-15 08:17:00.18	4.21	10.59	-40.0	-54.7	3.8	1.49e+00	0	59	104	729808896	52	18621
2026-01-15 08:17:01.18	4.08	10.52	-40.0	-54.7	3.8	1.49e+00	0	59	104	729808896	52	18580
2026-01-15 08:17:02.19	3.96	10.46	-40.0	-54.7	3.8	1.49e+00	0	59	104	729808896	51	19765
2026-01-15 08:17:03.20	3.83	10.40	-40.1	-54.8	3.8	1.49e+00	0	59	104	729808896	51	19974
2026-01-15 08:17:04.21	3.70	10.34	-40.6	-55.3	3.8	1.49e+00	0	59	104	729808896	51	21224
2026-01-15 08:17:05.22	3.57	10.27	-40.0	-54.7	3.8	1.49e+00	0	59	104	729808896	51	19801
2026-01-15 08:17:06.23	3.44	10.21	-40.2	-54.9	3.8	1.49e+00	0	59	104	729808896	51	20192
2026-01-15 08:17:07.24	3.31	10.15	-40.1	-54.8	3.8	1.49e+00	0	59	104	729808896	51	19867
2026-01-15 08:17:08.25	3.19	10.08	-40.0	-54.7	3.8	1.49e+00	0	59	104	729808896	51	19774
2026-01-15 08:17:09.26	3.06	10.02	-39.9	-54.7	3.8	1.49e+00	0	59	104	729808896	51	19705
2026-01-15 08:17:10.27	2.94	9.96	-39.9	-54.6	3.8	1.49e+00	0	59	104	729808896	51	19584
2026-01-15 08:17:11.28	2.81	9.90	-40.0	-54.7	3.8	1.49e+00	0	59	104	729808896	51	19823
2026-01-15 08:17:12.28	2.69	9.83	-40.2	-54.9	3.8	1.49e+00	0	59	104	729808896	51	20169
2026-01-15 08:17:13.29	2.57	9.77	-40.2	-54.9	3.8	1.49e+00	0	59	104	729808896	51	20150
2026-01-15 08:17:14.31	2.44	9.71	-39.9	-54.7	3.8	1.49e+00	0	59	104	729808896	51	19754
2026-01-15 08:17:15.31	2.32	9.64	-40.1	-54.9	3.8	1.49e+00	0	59	104	729808896	51	20079
2026-01-15 08:17:16.33	2.20	9.58	-40.0	-54.7	3.8	1.49e+00	0	59	104	729808896	51	19716
2026-01-15 08:17:17.33	2.08	9.52	-40.0	-54.7	3.8	1.49e+00	0	59	104	729808896	51	19808
2026-01-15 08:17:18.35	1.96	9.46	-40.0	-54.7	3.8	1.49e+00	0	59	104	729808896	51	19838
2026-01-15 08:17:19.36	1.83	9.39	-40.0	-54.7	3.8	1.49e+00	0	59	104	729808896	51	19698
2026-01-15 08:17:20.37	1.72	9.33	-40.0	-54.8	3.8	1.49e+00	0	59	104	729808896	51	19921
2026-01-15 08:17:21.38	1.60	9.27	-40.0	-54.8	3.8	1.49e+00	0	59	104	729808896	51	19890
2026-01-15 08:17:22.39	1.48	9.21	-40.0	-54.7	3.8	1.49e+00	0	59	104	729808896	51	19782
2026-01-15 08:17:23.39	1.36	9.14	-40.0	-54.7	3.8	1.49e+00	0	59	104	729808896	51	19812
2026-01-15 08:17:24.40	1.24	9.08	-39.8	-54.7	3.8	1.49e+00	0	59	104	729808896	51	19640
2026-01-15 08:17:25.41	1.13	9.02	-39.8	-54.6	3.8	1.49e+00	0	59	104	729808896	51	19554
2026-01-15 08:17:26.42	1.01	8.96	-39.9	-54.7	3.8	1.49e+00	0	59	104	729808896	51	19659
2026-01-15 08:17:27.43	0.89	8.89	-39.8	-54.6	3.8	1.49e+00	0	59	104	729808896	51	19574
2026-01-15 08:17:28.44	0.78	8.83	-39.9	-54.7	3.8	1.49e+00	0	59	104	729808896	51	19710
2026-01-15 08:17:29.45	0.66	8.77	-39.8	-54.7	3.8	1.49e+00	0	59	104	729808896	51	19642
2026-01-15 08:17:30.46	0.55	8.71	-39.8	-54.7	3.8	1.49e+00	0	59	104	729808896	51	19620
2026-01-15 08:17:31.47	0.43	8.65	-39.8	-54.6	3.8	1.49e+00	0	59	104	729808896	51	19612
2026-01-15 08:17:32.48	0.32	8.58	-39.7	-54.6	3.8	1.49e+00	0	60	104	729808896	51	19553
2026-01-15 08:17:33.49	0.21	8.52	-39.7	-54.7	3.8	1.49e+00	0	59	104	729808896	50	20803
2026-01-15 08:17:34.50	0.09	8.46	-39.7	-54.6	3.8	1.49e+00	0	59	104	729808896	50	20773
2026-01-15 08:17:35.51	359.98	8.40	-39.6	-54.6	3.8	1.49e+00	0	59	104	729808896	50	20771
2026-01-15 08:17:36.52	359.87	8.34	-39.7	-54.7	3.8	1.49e+00	0	59	104	729808896	50	20830
2026-01-15 08:17:37.53	359.76	8.27	-39.6	-54.7	3.8	1.49e+00	0	59	104	729808896	50	20855
2026-01-15 08:17:38.54	359.65	8.21	-39.5	-54.7	3.8	1.49e+00	0	59	104	729808896	50	20857
2026-01-15 08:17:39.55	359.54	8.15	-39.5	-54.7	3.8	1.49e+00	0	59	104	729808896	50	20873
2026-01-15 08:17:40.56	359.43	8.09	-39.4	-54.6	3.8	1.49e+00	0	59	104	729808896	50	20727
2026-01-15 08:17:41.57	359.32	8.03	-39.4	-54.6	3.8	1.49e+00	0	59	104	729808896	50	20761
2026-01-15 08:17:42.58	359.21	7.97	-39.8	-54.6	3.8	1.49e+00	0	59	104	729808896	50	20724
2026-01-15 08:17:43.59	359.10	7.90	-42.2	-56.8	3.8	1.49e+00	0	59	104	729808896	54	21056
2026-01-15 08:17:44.60	358.99	7.84	-44.7	-59.1	3.8	1.49e+00	0	59	104	729808896	59	20699
2026-01-15 08:17:45.61	358.89	7.78	-45.0	-59.6	3.8	1.49e+00	0	59	104	729808896	60	20639
2026-01-15 08:17:46.62	358.78	7.72	-45.1	-59.8	3.8	1.49e+00	0	59	104	729808896	60	21060
2026-01-15 08:17:47.63	358.67	7.66	-45.0	-59.9	3.8	1.49e+00	0	59	104	729808896	61	20089
2026-01-15 08:17:48.64	358.57	7.60	-45.4	-60.0	3.8	1.49e+00	0	59	104	729808896	61	20383
2026-01-15 08:17:49.65	358.46	7.54	-45.3	-60.0	3.8	1.49e+00	0	59	104	729808896	61	20431
2026-01-15 08:17:50.66	358.36	7.47	-45.4	-60.0	3.8	1.49e+00	0	59	104	729808896	61	20396
2026-01-15 08:17:51.67	358.25	7.41	-45.3	-60.0	3.8	1.49e+00	0	59	104	729808896	61	20374
2026-01-15 08:17:52.68	358.15	7.35	-45.4	-60.0	3.8	1.49e+00	0	59	104	729808896	61	20358
2026-01-15 08:17:53.69	358.04	7.29	-45.2	-59.8	3.8	1.49e+00	0	59	104	729808896	61	20071
2026-01-15 08:17:54.70	357.94	7.23	-45.1	-59.8	3.8	1.49e+00	0	59	104	729808896	61	20012
2026-01-15 08:17:55.71	357.84	7.17	-45.3	-59.8	3.8	1.49e+00	0	59	104	729808896	61	20022
2026-01-15 08:17:56.72	357.74	7.11	-45.3	-59.8	3.8	1.49e+00	0	59	104	729808896	61	19939
2026-01-15 08:17:57.73	357.63	7.05	-45.3	-59.8	3.8	1.49e+00	0	59	104	729808896	61	19942
2026-01-15 08:17:58.74	357.53	6.99	-45.2	-59.7	3.8	1.49e+00	0	59	104	729808896	61	19778
2026-01-15 08:17:59.75	357.43	6.93	-45.2	-59.7	3.8	1.49e+00	0	59	104	729808896	61	19794
2026-01-15 08:18:00.76	357.33	6.87	-45.2	-59.7	3.8	1.49e+00	0	59	104	729808896	61	19803
2026-01-15 08:18:01.77	357.23	6.81	-45.2	-59.7	3.8	1.49e+00	0	59	104	729808896	61	19735
2026-01-15 08:18:02.78	357.13	6.75	-45.2	-59.7	3.8	1.49e+00	0	59	104	729808896	61	19759
2026-01-15 08:18:03.79	357.03	6.68	-45.2	-59.7	3.8	1.49e+00	0	59	104	729808896	61	19833
2026-01-15 08:18:04.79	356.93	6.62	-45.2	-59.7	3.8	1.49e+00	0	60	104	729808896	61	19799
2026-01-15 08:18:05.80	356.83	6.56	-45.2	-59.7	3.8	1.49e+00	0	59	104	729808896	61	19657
2026-01-15 08:18:06.81	356.74	6.50	-45.2	-59.7	3.8	1.49e+00	0	59	104	729808896	61	19756
2026-01-15 08:18:07.82	356.64	6.44	-45.2	-59.7	3.8	1.49e+00	0	60	104	729808896	61	19708
2026-01-15 08:18:08.83	356.54	6.38	-45.2	-59.7	3.8	1.49e+00	0	60	104	729808896	61	19772
2026-01-15 08:18:09.84	356.45	6.32	-45.2	-59.7	3.8	1.49e+00	0	59	104	729808896	61	19716
2026-01-15 08:18:10.85	356.35	6.26	-45.1	-59.7	3.8	1.49e+00	0	59	104	729808896	61	19752
2026-01-15 08:18:11.86	356.25	6.20	-45.2	-59.7	3.8	1.49e+00	0	60	104	729808896	61	19725
2026-01-15 08:18:12.88	356.16	6.14	-45.0	-59.7	3.8	1.49e+00	0	59	104	729808896	61	19680
2026-01-15 08:18:13.89	356.06	6.08	-45.2	-59.7	3.8	1.49e+00	0	59	104	729808896	61	19784
2026-01-15 08:18:14.90	355.97	6.02	-44.6	-59.7	3.8	1.49e+00	0	60	104	729808896	61	19632
2026-01-15 08:18:15.91	355.87	5.96	-45.1	-59.7	3.8	1.49e+00	0	60	104	729808896	61	19728
2026-01-15 08:18:16.92	355.78	5.90	-45.2	-59.7	3.8	1.49e+00	0	59	104	729808896	61	19743
2026-01-15 08:18:17.93	355.68	5.84	-45.2	-59.7	3.8	1.49e+00	0	60	104	729808896	61	19779
2026-01-15 08:18:18.94	355.59	5.79	-45.1	-59.7	3.8	1.49e+00	0	60	104	729808896	61	19666
2026-01-15 08:18:19.95	355.50	5.73	-45.2	-59.7	3.8	1.49e+00	0	59	104	729808896	61	19691
2026-01-15 08:18:20.96	355.41	5.67	-45.2	-59.7	3.8	1.49e+00	0	60	104	729808896	61	19733
2026-01-15 08:18:21.97	355.31	5.61	-45.2	-59.7	3.8	1.49e+00	0	59	104	729808896	61	19718
2026-01-15 08:18:22.98	355.22	5.55	-45.1	-59.7	3.8	1.49e+00	0	60	104	729808896	61	19702
2026-01-15 08:18:23.99	355.13	5.49	-45.2	-59.7	3.8	1.49e+00	0	59	104	729808896	61	19672
2026-01-15 08:18:25.00	355.04	5.43	-45.2	-59.7	3.8	1.49e+00	0	60	104	729808896	61	19654
2026-01-15 08:18:26.01	354.95	5.37	-45.2	-59.7	3.8	1.49e+00	0	60	104	729808896	61	19674
2026-01-15 08:18:27.02	354.86	5.31	-45.2	-59.7	3.8	1.49e+00	0	60	104	729808896	60	20791
2026-01-15 08:18:28.03	354.77	5.25	-45.2	-59.7	3.8	1.49e+00	0	60	104	729808896	60	20856
2026-01-15 08:18:29.04	354.68	5.19	-45.2	-59.7	3.8	1.49e+00	0	59	104	729808896	60	20894
2026-01-15 08:18:30.05	354.59	5.13	-45.2	-59.7	3.8	1.49e+00	0	60	104	729808896	60	20869
2026-01-15 08:18:31.06	354.50	5.08	-45.2	-59.7	3.8	1.49e+00	0	60	104	729808896	60	20951
2026-01-15 08:18:32.07	354.42	5.02	-45.2	-59.7	3.8	1.49e+00	0	59	104	729808896	60	20807
2026-01-15 08:18:33.08	354.33	4.96	-45.2	-59.7	3.8	1.49e+00	0	60	104	729808896	60	20870
2026-01-15 08:18:34.09	354.24	4.90	-45.1	-59.7	3.8	1.49e+00	0	59	104	729808896	60	20903
2026-01-15 08:18:35.10	354.15	4.84	-45.2	-59.7	3.8	1.49e+00	0	60	104	729808896	60	20881
2026-01-15 08:18:36.11	354.07	4.78	-45.2	-59.7	3.8	1.49e+00	0	59	104	729808896	60	20842
2026-01-15 08:18:37.12	353.98	4.72	-45.2	-59.7	3.8	1.49e+00	0	59	104	729808896	60	20871
2026-01-15 08:18:38.13	353.90	4.67	-45.2	-59.7	3.8	1.49e+00	0	60	104	729808896	60	20831
2026-01-15 08:18:39.14	353.81	4.61	-45.2	-59.7	3.8	1.49e+00	0	59	104	729808896	60	20836
2026-01-15 08:18:40.15	353.72	4.55	-45.2	-59.7	3.8	1.49e+00	0	60	104	729808896	60	20889
2026-01-15 08:18:41.16	353.64	4.49	-45.2	-59.7	3.8	1.49e+00	0	60	104	729808896	60	20843
2026-01-15 08:18:42.17	353.56	4.43	-45.1	-59.7	3.8	1.49e+00	0	59	104	729808896	60	20884
2026-01-15 08:18:43.18	353.47	4.38	-45.0	-59.7	3.8	1.49e+00	0	59	104	729808896	60	20792
2026-01-15 08:18:44.19	353.39	4.32	-45.1	-59.7	3.8	1.49e+00	0	59	104	729808896	60	20865
2026-01-15 08:18:45.20	353.30	4.26	-45.2	-59.7	3.8	1.49e+00	0	60	104	729808896	60	20828
2026-01-15 08:18:46.21	353.22	4.20	-45.2	-59.7	3.8	1.49e+00	0	59	104	729808896	60	20870
2026-01-15 08:18:47.22	353.14	4.14	-45.1	-59.7	3.8	1.49e+00	0	59	104	729808896	60	20819
2026-01-15 08:18:48.23	353.06	4.09	-45.2	-59.7	3.8	1.49e+00	0	59	104	729808896	60	20807
2026-01-15 08:18:49.24	352.97	4.03	-45.1	-59.7	3.8	1.49e+00	0	59	104	729808896	60	20821
2026-01-15 08:18:50.25	352.89	3.97	-45.2	-59.7	3.8	1.49e+00	0	59	104	729808896	60	20918
2026-01-15 08:18:51.26	352.81	3.91	-45.2	-59.6	3.8	1.49e+00	0	60	104	729808896	60	20737
2026-01-15 08:18:52.27	352.73	3.86	-45.2	-59.7	3.8	1.49e+00	0	59	104	729808896	60	20827
2026-01-15 08:18:53.28	352.65	3.80	-45.1	-59.7	3.8	1.49e+00	0	60	104	729808896	60	20784
2026-01-15 08:18:54.29	352.57	3.74	-45.1	-59.6	3.8	1.49e+00	0	59	104	729808896	60	20724
2026-01-15 08:18:55.30	352.49	3.69	-44.8	-59.6	3.8	1.49e+00	0	59	104	729808896	60	20745
2026-01-15 08:18:56.30	352.41	3.63	-45.1	-59.6	3.8	1.49e+00	0	59	104	729808896	60	20766
2026-01-15 08:18:57.31	352.33	3.57	-45.1	-59.6	3.8	1.49e+00	0	59	104	729808896	60	20773
2026-01-15 08:18:58.32	352.25	3.51	-45.2	-59.7	3.8	1.49e+00	0	59	104	729808896	60	20910
