passes_logs/2026/01/15/R2.0S_Moscow/R2.0S_Moscow__20260115_134626_FENGYUN_3D_rec.log

#Pass ID: 20260115_134626_FENGYUN 3D
#Satellite: FENGYUN 3D
#Configuration: FENGYUN 3D
#almurnet v.1.7.20251203
#Start time: 2026-01-15 13:46:27

#Version: 2.2.20231116
#Station: R2.0S_Moscow
#Location: 37.707566 lon 55.798166 lat
#TLE: 1 43010U 17072A   26014.65117763 -.00000217  00000+0 -80772-4 0  9993
#TLE: 2 43010  98.9933 346.4618 0002330 108.4699 251.6730 14.19694700423204

#Time	Az	El	Level	Level2	SNR	BER	BlckErr	Temp	State	Recorded	gain1	gain2
2026-01-15 13:46:27.29	216.20	2.06	-44.1	-55.7	3.8	8.44e-01	0	51	0	0	59	13924
2026-01-15 13:46:28.29	216.29	2.11	-44.0	-55.9	3.8	8.47e-01	0	51	104	0	60	13450
2026-01-15 13:46:29.30	216.37	2.16	-44.1	-55.7	3.8	8.46e-01	0	51	104	0	59	14004
2026-01-15 13:46:30.31	216.46	2.21	-44.1	-55.7	3.8	8.46e-01	0	52	104	0	59	13915
2026-01-15 13:46:31.32	216.54	2.26	-44.1	-55.7	3.8	8.47e-01	0	51	104	0	59	13949
2026-01-15 13:46:32.34	216.63	2.32	-44.1	-55.7	3.8	8.46e-01	0	52	104	0	59	13950
2026-01-15 13:46:33.35	216.72	2.37	-44.1	-55.7	3.8	8.45e-01	0	52	104	0	59	13907
2026-01-15 13:46:34.35	216.80	2.42	-44.1	-55.7	3.8	8.46e-01	0	52	104	0	59	14005
2026-01-15 13:46:35.36	216.89	2.47	-44.1	-55.7	3.8	8.46e-01	0	52	104	0	59	13939
2026-01-15 13:46:36.37	216.97	2.52	-44.1	-55.7	3.8	8.45e-01	0	52	104	0	59	14012
2026-01-15 13:46:37.38	217.06	2.58	-44.1	-55.7	3.8	8.46e-01	0	52	104	0	59	13995
2026-01-15 13:46:38.39	217.15	2.63	-44.1	-55.7	3.8	8.46e-01	0	52	104	0	59	13966
2026-01-15 13:46:39.40	217.24	2.68	-44.1	-55.7	3.8	8.46e-01	0	52	104	0	59	13939
2026-01-15 13:46:40.41	217.33	2.73	-44.1	-55.7	3.8	8.46e-01	0	52	104	0	59	13991
2026-01-15 13:46:41.42	217.41	2.79	-44.1	-55.7	3.8	8.45e-01	0	52	104	0	59	13937
2026-01-15 13:46:42.43	217.50	2.84	-44.1	-55.7	3.8	8.47e-01	0	52	104	0	59	14014
2026-01-15 13:46:43.44	217.59	2.89	-44.1	-55.7	3.8	8.46e-01	0	52	104	0	59	13955
2026-01-15 13:46:44.45	217.68	2.94	-44.1	-55.7	3.8	8.46e-01	0	52	104	0	59	13963
2026-01-15 13:46:45.46	217.77	3.00	-44.1	-55.7	3.8	8.46e-01	0	53	104	0	59	13976
2026-01-15 13:46:46.47	217.86	3.05	-44.1	-55.7	3.8	8.46e-01	0	53	104	0	59	13958
2026-01-15 13:46:47.48	217.95	3.10	-44.1	-55.7	3.8	8.45e-01	0	53	104	0	59	14010
2026-01-15 13:46:48.49	218.04	3.15	-44.1	-55.7	3.8	8.45e-01	0	53	104	0	59	13929
2026-01-15 13:46:49.49	218.13	3.21	-44.1	-55.7	3.8	8.46e-01	0	53	104	0	59	13989
2026-01-15 13:46:50.51	218.22	3.26	-44.1	-55.8	3.8	8.46e-01	0	53	104	0	59	14054
2026-01-15 13:46:51.52	218.32	3.31	-44.1	-55.7	3.8	8.46e-01	0	53	104	0	59	13974
2026-01-15 13:46:52.52	218.41	3.36	-44.1	-55.7	3.8	8.46e-01	0	53	104	0	59	14038
2026-01-15 13:46:53.53	218.50	3.42	-44.1	-55.7	3.8	8.46e-01	0	53	104	0	59	13952
2026-01-15 13:46:54.54	218.59	3.47	-44.1	-55.7	3.8	8.46e-01	0	53	104	0	59	13925
2026-01-15 13:46:55.55	218.68	3.52	-44.1	-55.7	3.8	8.46e-01	0	53	104	0	59	13977
2026-01-15 13:46:56.56	218.78	3.58	-44.1	-55.7	3.8	8.47e-01	0	53	104	0	59	13906
2026-01-15 13:46:57.57	218.87	3.63	-44.1	-55.7	3.8	8.46e-01	0	53	104	0	59	13934
2026-01-15 13:46:58.59	218.97	3.68	-44.1	-55.7	3.8	8.45e-01	0	53	104	0	59	13935
2026-01-15 13:46:59.60	219.06	3.74	-44.1	-55.7	3.8	8.45e-01	0	53	104	0	59	13961
2026-01-15 13:47:00.61	219.15	3.79	-44.1	-55.7	3.8	8.46e-01	0	54	104	0	59	13964
2026-01-15 13:47:01.62	219.25	3.84	-44.1	-55.7	3.8	8.46e-01	0	54	104	0	59	13943
2026-01-15 13:47:02.63	219.34	3.90	-44.1	-55.7	3.8	8.46e-01	0	54	104	0	59	13978
2026-01-15 13:47:03.64	219.44	3.95	-44.1	-55.7	3.8	8.46e-01	0	54	104	0	59	13942
2026-01-15 13:47:04.65	219.54	4.00	-44.1	-55.7	3.8	8.47e-01	0	54	104	0	59	13912
2026-01-15 13:47:05.66	219.63	4.06	-44.1	-55.7	3.8	8.46e-01	0	54	104	0	59	13969
2026-01-15 13:47:06.67	219.73	4.11	-44.1	-55.7	3.8	8.46e-01	0	54	104	0	59	13971
2026-01-15 13:47:07.68	219.83	4.16	-44.1	-55.7	3.8	8.47e-01	0	54	104	0	59	13955
2026-01-15 13:47:08.69	219.92	4.22	-44.1	-55.7	3.8	8.45e-01	0	54	104	0	59	13972
2026-01-15 13:47:09.70	220.02	4.27	-44.1	-55.7	3.8	8.45e-01	0	54	104	0	59	13905
2026-01-15 13:47:10.71	220.12	4.32	-44.1	-55.7	3.8	8.46e-01	0	54	104	0	59	13931
2026-01-15 13:47:11.72	220.22	4.38	-44.1	-55.7	3.8	8.46e-01	0	54	104	0	59	13919
2026-01-15 13:47:12.73	220.31	4.43	-44.1	-55.7	3.8	8.46e-01	0	54	104	0	59	13920
2026-01-15 13:47:13.74	220.41	4.48	-44.1	-55.7	3.8	8.46e-01	0	54	104	0	59	13982
2026-01-15 13:47:14.75	220.51	4.54	-44.1	-55.7	3.8	8.47e-01	0	54	104	0	59	13951
2026-01-15 13:47:15.76	220.61	4.59	-44.1	-55.7	3.8	8.46e-01	0	54	104	0	59	14021
2026-01-15 13:47:16.77	220.71	4.65	-44.1	-55.7	3.8	8.45e-01	0	54	104	0	59	13912
2026-01-15 13:47:17.78	220.81	4.70	-44.1	-55.7	3.8	8.47e-01	0	55	104	0	59	13982
2026-01-15 13:47:18.79	220.91	4.75	-44.1	-55.7	3.8	8.45e-01	0	54	104	0	59	13973
2026-01-15 13:47:19.80	221.01	4.81	-44.1	-55.7	3.8	8.46e-01	0	54	104	0	59	13955
2026-01-15 13:47:20.81	221.12	4.86	-44.1	-55.7	3.8	8.45e-01	0	55	104	0	59	13944
2026-01-15 13:47:21.82	221.22	4.92	-44.1	-55.7	3.8	8.47e-01	0	55	104	0	59	13905
2026-01-15 13:47:22.83	221.32	4.97	-44.1	-55.7	3.8	8.46e-01	0	55	104	0	59	13984
2026-01-15 13:47:23.84	221.42	5.02	-44.1	-55.7	3.8	8.46e-01	0	55	104	0	59	13946
2026-01-15 13:47:24.85	221.53	5.08	-44.1	-55.7	3.8	8.46e-01	0	55	104	0	59	13952
2026-01-15 13:47:25.86	221.63	5.13	-44.1	-55.7	3.8	8.47e-01	0	55	104	0	59	13954
2026-01-15 13:47:26.87	221.73	5.19	-44.1	-55.7	3.8	8.45e-01	0	55	104	0	59	13920
2026-01-15 13:47:27.88	221.84	5.24	-44.1	-55.7	3.8	8.46e-01	0	55	104	0	59	13985
2026-01-15 13:47:28.89	221.94	5.29	-44.1	-55.7	3.8	8.47e-01	0	55	104	0	59	13951
2026-01-15 13:47:29.90	222.04	5.35	-44.1	-55.7	3.8	8.46e-01	0	55	104	0	59	13968
2026-01-15 13:47:30.91	222.15	5.40	-44.1	-55.7	3.8	8.46e-01	0	55	104	0	59	13932
2026-01-15 13:47:31.93	222.26	5.46	-44.1	-55.7	3.8	8.46e-01	0	55	104	0	59	13892
2026-01-15 13:47:32.93	222.36	5.51	-44.1	-55.6	3.8	8.47e-01	0	55	104	0	59	13878
2026-01-15 13:47:33.95	222.47	5.57	-44.1	-55.7	3.8	8.45e-01	0	55	104	0	59	13888
2026-01-15 13:47:34.96	222.58	5.62	-44.1	-55.6	3.8	8.46e-01	0	55	104	0	59	13811
2026-01-15 13:47:35.97	222.68	5.68	-44.1	-55.5	3.8	8.46e-01	0	55	104	0	59	13681
2026-01-15 13:47:36.98	222.79	5.73	-44.1	-55.5	3.8	8.46e-01	0	55	104	0	59	13653
2026-01-15 13:47:37.99	222.90	5.78	-44.1	-55.4	3.8	8.47e-01	0	55	104	0	59	13519
2026-01-15 13:47:39.00	223.01	5.84	-44.1	-55.3	3.8	8.47e-01	0	56	104	0	59	13385
2026-01-15 13:47:40.01	223.11	5.89	-44.1	-55.2	3.8	8.45e-01	0	56	104	0	59	13202
2026-01-15 13:47:41.02	223.22	5.95	-44.1	-55.1	3.8	8.46e-01	0	56	104	0	59	13077
2026-01-15 13:47:42.03	223.33	6.00	-44.0	-55.1	3.8	8.46e-01	0	56	104	0	59	12979
2026-01-15 13:47:43.04	223.44	6.06	-44.0	-55.0	3.8	8.47e-01	0	56	104	0	59	12905
2026-01-15 13:47:44.05	223.55	6.11	-44.0	-55.0	3.8	8.46e-01	0	56	104	0	59	12922
2026-01-15 13:47:45.06	223.66	6.17	-44.0	-54.9	3.8	8.44e-01	0	56	104	0	59	12716
2026-01-15 13:47:46.07	223.77	6.22	-44.0	-54.8	3.8	8.46e-01	0	56	104	0	59	12584
2026-01-15 13:47:47.09	223.89	6.28	-44.0	-54.6	3.8	8.47e-01	0	56	104	0	59	12351
2026-01-15 13:47:48.09	224.00	6.33	-43.9	-54.3	3.8	8.45e-01	0	56	104	0	59	11951
2026-01-15 13:47:49.11	224.11	6.39	-43.9	-53.9	3.8	8.46e-01	0	56	104	0	59	11318
2026-01-15 13:47:50.12	224.22	6.44	-43.8	-53.3	3.9	8.45e-01	0	56	104	0	59	10551
2026-01-15 13:47:51.13	224.34	6.50	-43.8	-52.8	3.9	8.43e-01	0	56	104	0	59	10051
2026-01-15 13:47:52.14	224.45	6.55	-43.7	-52.0	4.2	8.37e-01	0	56	0	0	59	9121
2026-01-15 13:47:53.15	224.56	6.61	-43.5	-51.1	4.5	8.26e-01	0	56	0	0	59	8203
2026-01-15 13:47:54.16	224.68	6.66	-43.3	-50.4	4.9	7.90e-01	0	56	0	0	58	8004
2026-01-15 13:47:55.17	224.79	6.72	-43.2	-50.0	5.1	7.72e-01	0	56	0	0	58	7670
2026-01-15 13:47:56.18	224.91	6.77	-43.1	-49.5	5.4	7.39e-01	0	56	0	0	58	7236
2026-01-15 13:47:57.19	225.02	6.83	-43.0	-49.0	5.7	5.27e-01	0	56	0	2097152	57	7219
2026-01-15 13:47:58.20	225.14	6.88	-42.8	-48.6	6.0	3.79e-01	0	56	0	8388608	57	6906
2026-01-15 13:47:59.21	225.25	6.94	-42.7	-48.2	6.3	3.15e-01	0	56	0	13631488	57	6639
2026-01-15 13:48:00.22	225.37	6.99	-42.7	-48.2	6.3	2.78e-01	0	56	0	18874368	57	6583
2026-01-15 13:48:01.23	225.49	7.05	-42.6	-48.1	6.4	2.70e-01	0	56	0	25165824	56	6909
2026-01-15 13:48:02.24	225.61	7.10	-42.7	-48.2	6.3	2.77e-01	0	56	0	30408704	56	7019
2026-01-15 13:48:03.25	225.72	7.16	-42.9	-48.9	5.8	3.95e-01	0	56	0	36700160	56	7596
2026-01-15 13:48:04.26	225.84	7.21	-43.0	-49.2	5.5	6.21e-01	0	57	0	40894464	56	7898
2026-01-15 13:48:05.27	225.96	7.27	-43.2	-49.9	5.1	7.51e-01	0	56	0	41943040	56	8560
2026-01-15 13:48:06.28	226.08	7.32	-43.3	-50.5	4.8	7.89e-01	0	57	0	42991616	57	8623
2026-01-15 13:48:07.29	226.20	7.38	-43.4	-50.9	4.6	8.13e-01	0	56	0	42991616	57	9052
2026-01-15 13:48:08.30	226.32	7.43	-43.3	-50.6	4.7	8.06e-01	0	57	0	42991616	57	8711
2026-01-15 13:48:09.31	226.44	7.49	-43.2	-49.9	5.1	7.66e-01	0	57	0	42991616	57	8015
2026-01-15 13:48:10.31	226.56	7.54	-42.8	-48.5	6.1	4.03e-01	0	57	0	46137344	57	6821
2026-01-15 13:48:11.32	226.68	7.60	-42.3	-47.0	7.4	2.16e-01	0	57	0	52428800	56	6103
2026-01-15 13:48:12.33	226.80	7.65	-41.6	-45.7	8.5	6.05e-02	0	57	0	57671680	55	5548
2026-01-15 13:48:13.34	226.93	7.71	-41.0	-44.4	9.8	2.27e-02	0	57	0	63963136	54	5083
2026-01-15 13:48:14.35	227.05	7.76	-40.5	-43.5	10.8	4.42e-03	0	57	0	69206016	53	4868
2026-01-15 13:48:15.36	227.17	7.82	-40.0	-42.8	11.5	1.66e-03	0	57	0	74448896	52	4752
2026-01-15 13:48:16.37	227.30	7.87	-39.9	-42.6	11.8	6.93e-04	0	57	0	80740352	51	4875
2026-01-15 13:48:17.38	227.42	7.93	-39.7	-42.3	12.1	3.57e-04	0	57	0	85983232	51	4747
2026-01-15 13:48:18.39	227.55	7.98	-39.8	-42.4	12.0	4.52e-04	0	57	0	92274688	51	4796
2026-01-15 13:48:19.40	227.67	8.04	-39.7	-42.3	12.2	8.69e-04	0	57	0	97517568	51	4715
2026-01-15 13:48:20.41	227.80	8.10	-41.3	-45.0	9.3	1.54e-02	0	57	0	103809024	53	5772
2026-01-15 13:48:21.42	227.92	8.15	-42.5	-47.8	4.6	8.46e-01	0	57	104	104857600	57	6323
2026-01-15 13:48:22.43	228.05	8.21	-40.8	-43.9	10.4	2.48e-02	0	57	0	108003328	53	5098
2026-01-15 13:48:23.44	228.18	8.26	-39.8	-42.3	12.3	2.14e-03	0	57	0	114294784	51	4725
2026-01-15 13:48:24.45	228.30	8.32	-42.1	-46.5	7.9	3.48e-01	0	57	0	118489088	56	5749
2026-01-15 13:48:25.46	228.43	8.37	-40.0	-42.6	11.9	5.62e-04	0	57	0	124780544	51	4896
2026-01-15 13:48:26.47	228.56	8.43	-39.9	-42.5	12.0	4.91e-04	0	57	0	130023424	51	4843
2026-01-15 13:48:27.48	228.69	8.48	-39.9	-42.4	12.1	4.39e-04	0	57	0	135266304	51	4813
2026-01-15 13:48:28.49	228.82	8.54	-39.9	-42.5	12.1	3.86e-04	0	57	0	141557760	51	4847
2026-01-15 13:48:29.50	228.95	8.59	-39.8	-42.3	12.3	3.58e-04	0	57	0	146800640	51	4733
2026-01-15 13:48:30.51	229.08	8.65	-39.6	-42.1	12.5	2.21e-04	0	57	0	153092096	51	4613
2026-01-15 13:48:31.52	229.21	8.70	-39.6	-42.0	12.5	1.33e-04	0	57	0	158334976	51	4589
2026-01-15 13:48:32.53	229.34	8.76	-39.5	-42.0	12.6	1.32e-04	0	57	0	164626432	51	4555
2026-01-15 13:48:33.54	229.47	8.81	-39.6	-42.0	12.6	1.58e-04	0	57	0	169869312	50	4848
2026-01-15 13:48:34.55	229.61	8.87	-39.6	-42.0	12.5	1.45e-04	0	57	0	175112192	50	4865
2026-01-15 13:48:35.56	229.74	8.92	-39.7	-42.2	12.4	2.01e-04	0	57	0	181403648	50	4948
2026-01-15 13:48:36.57	229.87	8.98	-39.6	-42.1	12.5	1.79e-04	0	58	0	186646528	50	4891
2026-01-15 13:48:37.58	230.00	9.03	-39.5	-41.9	12.7	1.27e-04	0	57	0	192937984	50	4797
2026-01-15 13:48:38.59	230.14	9.09	-39.5	-41.9	12.7	1.23e-04	0	58	0	198180864	50	4803
2026-01-15 13:48:39.60	230.27	9.15	-39.5	-41.9	12.7	1.27e-04	0	57	0	204472320	50	4787
2026-01-15 13:48:40.61	230.41	9.20	-39.4	-41.8	12.8	1.06e-04	0	57	0	209715200	50	4746
2026-01-15 13:48:41.63	230.55	9.26	-39.5	-41.9	12.7	1.11e-04	0	57	0	214958080	50	4800
2026-01-15 13:48:42.63	230.68	9.31	-39.4	-41.7	12.9	1.07e-04	0	58	0	221249536	50	4681
2026-01-15 13:48:43.65	230.82	9.37	-39.4	-41.7	12.9	7.55e-05	0	57	0	226492416	50	4685
2026-01-15 13:48:44.66	230.96	9.42	-39.3	-41.6	13.0	5.49e-05	0	58	0	232783872	50	4635
2026-01-15 13:48:45.67	231.09	9.48	-39.2	-41.5	13.2	4.69e-05	0	57	0	238026752	50	4564
2026-01-15 13:48:46.68	231.23	9.53	-39.3	-41.6	13.1	4.69e-05	0	57	0	243269632	50	4620
2026-01-15 13:48:47.69	231.37	9.59	-39.2	-41.5	13.2	4.34e-05	0	58	0	249561088	50	4556
2026-01-15 13:48:48.70	231.51	9.64	-39.2	-41.4	13.3	1.48e-05	0	57	0	254803968	50	4531
2026-01-15 13:48:49.71	231.65	9.70	-39.2	-41.5	13.2	4.00e-05	0	58	0	261095424	50	4563
2026-01-15 13:48:50.72	231.79	9.75	-39.1	-41.3	13.4	1.37e-05	0	58	0	266338304	50	4484
2026-01-15 13:48:51.73	231.93	9.81	-39.1	-41.3	13.4	2.51e-05	0	58	0	271581184	50	4465
2026-01-15 13:48:52.73	232.07	9.86	-39.1	-41.2	13.5	1.83e-05	0	58	0	277872640	50	4434
2026-01-15 13:48:53.75	232.21	9.92	-39.0	-41.2	13.5	1.48e-05	0	58	0	283115520	50	4407
2026-01-15 13:48:54.76	232.36	9.97	-39.0	-41.2	13.6	2.97e-05	0	58	0	289406976	50	4392
2026-01-15 13:48:55.77	232.50	10.03	-39.0	-41.1	13.6	1.25e-05	0	58	0	294649856	49	4624
2026-01-15 13:48:56.77	232.64	10.08	-38.9	-41.1	13.6	1.02e-05	0	58	0	300941312	49	4599
2026-01-15 13:48:57.78	232.78	10.14	-39.0	-41.1	13.6	1.02e-05	0	58	0	306184192	49	4626
2026-01-15 13:48:58.79	232.93	10.19	-38.9	-41.0	13.7	1.60e-05	0	58	0	312475648	49	4565
2026-01-15 13:48:59.80	233.07	10.24	-39.0	-41.2	13.5	8.00e-06	0	58	0	317718528	49	4682
2026-01-15 13:49:00.81	233.22	10.30	-39.1	-41.3	13.5	2.05e-05	0	58	0	322961408	49	4713
2026-01-15 13:49:01.82	233.36	10.35	-39.1	-41.3	13.5	2.97e-05	0	58	0	329252864	49	4731
2026-01-15 13:49:02.83	233.51	10.41	-39.1	-41.4	13.4	1.94e-05	0	58	0	334495744	49	4761
2026-01-15 13:49:03.84	233.66	10.46	-39.2	-41.4	13.4	2.51e-05	0	58	0	340787200	49	4774
2026-01-15 13:49:04.85	233.81	10.52	-39.1	-41.3	13.4	2.28e-05	0	58	0	346030080	49	4745
2026-01-15 13:49:05.86	233.95	10.57	-39.2	-41.4	13.4	2.28e-05	0	58	0	351272960	49	4783
2026-01-15 13:49:06.86	234.10	10.63	-39.1	-41.3	13.5	2.05e-05	0	58	0	357564416	49	4736
2026-01-15 13:49:07.87	234.25	10.68	-39.1	-41.3	13.4	1.83e-05	0	58	0	362807296	49	4758
2026-01-15 13:49:08.88	234.40	10.73	-39.1	-41.2	13.5	1.02e-05	0	58	0	369098752	49	4699
2026-01-15 13:49:09.90	234.55	10.79	-39.2	-41.4	13.4	2.74e-05	0	58	0	374341632	49	4766
2026-01-15 13:49:10.91	234.70	10.84	-39.1	-41.3	13.5	1.60e-05	0	58	0	379584512	49	4742
2026-01-15 13:49:11.92	234.85	10.90	-39.1	-41.3	13.5	2.28e-05	0	58	0	385875968	49	4738
2026-01-15 13:49:12.93	235.01	10.95	-39.1	-41.3	13.5	1.83e-05	0	58	0	391118848	49	4747
2026-01-15 13:49:13.94	235.16	11.01	-39.2	-41.4	13.4	2.28e-05	0	58	0	397410304	49	4797
2026-01-15 13:49:14.95	235.31	11.06	-39.1	-41.3	13.4	1.94e-05	0	58	0	402653184	49	4752
2026-01-15 13:49:15.96	235.46	11.11	-39.1	-41.3	13.5	2.28e-05	0	58	0	408944640	49	4736
2026-01-15 13:49:16.97	235.62	11.17	-39.1	-41.2	13.6	1.48e-05	0	58	0	414187520	49	4695
2026-01-15 13:49:17.97	235.77	11.22	-39.0	-41.2	13.6	2.17e-05	0	58	0	419430400	49	4670
2026-01-15 13:49:18.98	235.93	11.27	-39.1	-41.3	13.6	1.25e-05	0	58	0	425721856	49	4710
2026-01-15 13:49:19.99	236.08	11.33	-39.1	-41.3	13.5	2.63e-05	0	58	0	430964736	49	4732
2026-01-15 13:49:21.00	236.24	11.38	-39.1	-41.3	13.6	1.37e-05	0	58	0	437256192	49	4715
2026-01-15 13:49:22.01	236.39	11.43	-39.1	-41.3	13.6	9.10e-06	0	58	0	442499072	49	4713
2026-01-15 13:49:23.02	236.55	11.49	-39.1	-41.2	13.6	1.71e-05	0	58	0	447741952	49	4700
2026-01-15 13:49:24.03	236.71	11.54	-39.0	-41.2	13.7	1.02e-05	0	58	0	454033408	49	4657
2026-01-15 13:49:25.04	236.87	11.59	-39.0	-41.1	13.7	8.00e-06	0	58	0	459276288	49	4641
2026-01-15 13:49:26.05	237.03	11.65	-38.9	-41.0	13.9	6.80e-06	0	58	0	465567744	49	4555
2026-01-15 13:49:27.05	237.18	11.70	-38.8	-40.9	13.9	8.00e-06	0	58	0	470810624	49	4520
2026-01-15 13:49:28.07	237.35	11.75	-38.8	-40.8	14.0	2.20e-06	0	58	0	476053504	49	4473
2026-01-15 13:49:29.07	237.51	11.81	-38.7	-40.7	14.1	6.80e-06	0	58	0	482344960	49	4429
2026-01-15 13:49:30.08	237.67	11.86	-38.7	-40.8	14.1	3.40e-06	0	58	0	487587840	49	4451
2026-01-15 13:49:31.09	237.83	11.91	-38.7	-40.8	14.1	2.20e-06	0	58	0	493879296	49	4466
2026-01-15 13:49:32.10	237.99	11.96	-38.7	-40.7	14.1	2.20e-06	0	58	0	499122176	49	4422
2026-01-15 13:49:33.11	238.15	12.02	-38.8	-40.8	14.1	4.50e-06	0	58	0	505413632	49	4476
2026-01-15 13:49:34.12	238.32	12.07	-38.8	-40.8	14.1	5.70e-06	0	59	0	510656512	49	4455
2026-01-15 13:49:35.13	238.48	12.12	-38.7	-40.7	14.1	4.50e-06	0	59	0	515899392	49	4431
2026-01-15 13:49:36.14	238.65	12.17	-38.8	-40.8	14.1	5.70e-06	0	59	0	522190848	49	4458
2026-01-15 13:49:37.14	238.81	12.22	-38.7	-40.7	14.2	3.40e-06	0	58	0	527433728	49	4405
2026-01-15 13:49:38.15	238.97	12.28	-38.7	-40.7	14.1	5.70e-06	0	58	0	533725184	49	4430
2026-01-15 13:49:39.16	239.14	12.33	-38.7	-40.8	14.1	4.50e-06	0	59	0	538968064	49	4446
2026-01-15 13:49:40.17	239.31	12.38	-38.8	-40.8	14.1	3.40e-06	0	59	0	544210944	49	4464
2026-01-15 13:49:41.18	239.48	12.43	-38.8	-40.9	14.0	5.70e-06	0	59	0	550502400	49	4512
2026-01-15 13:49:42.18	239.64	12.48	-38.8	-40.9	14.0	3.40e-06	0	59	0	555745280	49	4500
2026-01-15 13:49:43.19	239.81	12.53	-38.7	-40.7	14.1	2.20e-06	0	59	0	562036736	49	4438
2026-01-15 13:49:44.20	239.98	12.59	-38.7	-40.7	14.2	2.20e-06	0	58	0	567279616	49	4427
2026-01-15 13:49:45.21	240.15	12.64	-38.7	-40.6	14.2	3.40e-06	0	59	0	572522496	49	4389
2026-01-15 13:49:46.22	240.32	12.69	-38.6	-40.6	14.3	2.20e-06	0	58	0	578813952	49	4352
2026-01-15 13:49:47.23	240.49	12.74	-38.5	-40.5	14.4	1.10e-06	0	59	0	584056832	49	4292
2026-01-15 13:49:48.24	240.66	12.79	-38.5	-40.5	14.4	2.20e-06	0	59	0	590348288	49	4301
2026-01-15 13:49:49.25	240.83	12.84	-38.6	-40.5	14.4	1.10e-06	0	59	0	595591168	49	4327
2026-01-15 13:49:50.26	241.01	12.89	-38.6	-40.6	14.3	0.00e+00	0	59	0	601882624	49	4355
2026-01-15 13:49:51.27	241.18	12.94	-38.6	-40.6	14.4	1.10e-06	0	59	0	607125504	49	4341
2026-01-15 13:49:52.28	241.35	12.99	-38.6	-40.5	14.4	0.00e+00	0	59	0	612368384	49	4329
2026-01-15 13:49:53.28	241.53	13.04	-38.6	-40.6	14.4	2.20e-06	0	59	0	618659840	49	4344
2026-01-15 13:49:54.29	241.70	13.09	-38.5	-40.5	14.5	0.00e+00	0	59	0	623902720	49	4292
2026-01-15 13:49:55.30	241.88	13.14	-38.6	-40.5	14.4	0.00e+00	0	59	0	630194176	49	4324
2026-01-15 13:49:56.31	242.05	13.19	-38.5	-40.4	14.5	0.00e+00	0	59	0	635437056	49	4290
2026-01-15 13:49:57.32	242.23	13.24	-38.5	-40.5	14.4	0.00e+00	0	59	0	640679936	49	4304
2026-01-15 13:49:58.33	242.41	13.29	-38.5	-40.5	14.5	3.40e-06	0	59	0	646971392	49	4295
2026-01-15 13:49:59.34	242.58	13.34	-38.5	-40.4	14.5	2.20e-06	0	59	0	652214272	49	4268
2026-01-15 13:50:00.35	242.76	13.39	-38.4	-40.3	14.6	0.00e+00	0	59	0	658505728	48	4489
2026-01-15 13:50:01.36	242.94	13.44	-38.5	-40.4	14.6	0.00e+00	0	59	0	663748608	48	4522
2026-01-15 13:50:02.37	243.12	13.49	-38.5	-40.4	14.5	0.00e+00	0	59	0	668991488	48	4545
2026-01-15 13:50:03.38	243.30	13.54	-38.5	-40.4	14.5	0.00e+00	0	59	0	675282944	48	4544
2026-01-15 13:50:04.39	243.48	13.58	-38.5	-40.4	14.5	0.00e+00	0	59	0	680525824	48	4539
2026-01-15 13:50:05.40	243.66	13.63	-38.5	-40.4	14.6	1.10e-06	0	59	0	686817280	48	4523
2026-01-15 13:50:06.41	243.84	13.68	-38.5	-40.4	14.6	0.00e+00	0	59	0	692060160	48	4511
2026-01-15 13:50:07.42	244.03	13.73	-38.4	-40.3	14.6	1.10e-06	0	59	0	698351616	48	4492
2026-01-15 13:50:08.43	244.21	13.78	-38.4	-40.3	14.6	0.00e+00	0	59	0	703594496	48	4480
2026-01-15 13:50:09.44	244.39	13.82	-38.4	-40.3	14.7	0.00e+00	0	59	0	709885952	48	4444
2026-01-15 13:50:10.45	244.58	13.87	-38.4	-40.3	14.6	0.00e+00	0	59	0	715128832	48	4487
2026-01-15 13:50:11.46	244.76	13.92	-38.4	-40.4	14.6	0.00e+00	0	59	0	720371712	48	4498
2026-01-15 13:50:12.47	244.95	13.97	-38.5	-40.4	14.5	1.10e-06	0	59	0	726663168	48	4534
2026-01-15 13:50:13.47	245.13	14.01	-38.5	-40.4	14.5	0.00e+00	0	59	0	731906048	48	4530
2026-01-15 13:50:14.48	245.32	14.06	-38.5	-40.4	14.6	1.10e-06	0	59	0	738197504	48	4506
2026-01-15 13:50:15.49	245.50	14.11	-38.4	-40.3	14.7	1.10e-06	0	59	0	743440384	48	4486
2026-01-15 13:50:16.50	245.69	14.15	-38.4	-40.4	14.6	0.00e+00	0	59	0	748683264	48	4495
2026-01-15 13:50:17.51	245.88	14.20	-38.4	-40.3	14.6	1.10e-06	0	59	0	754974720	48	4487
2026-01-15 13:50:18.52	246.07	14.24	-38.4	-40.3	14.7	1.10e-06	0	59	0	760217600	48	4465
2026-01-15 13:50:19.53	246.26	14.29	-38.4	-40.3	14.6	0.00e+00	0	59	0	765460480	48	4485
2026-01-15 13:50:20.54	246.45	14.34	-38.4	-40.4	14.6	0.00e+00	0	59	0	771751936	48	4505
2026-01-15 13:50:21.54	246.63	14.38	-38.4	-40.3	14.7	0.00e+00	0	59	0	776994816	48	4444
2026-01-15 13:50:22.55	246.83	14.43	-38.3	-40.2	14.8	0.00e+00	0	59	0	783286272	48	4412
2026-01-15 13:50:23.56	247.02	14.47	-38.2	-40.1	14.9	0.00e+00	0	59	0	788529152	48	4352
2026-01-15 13:50:24.57	247.21	14.52	-38.2	-40.0	15.0	0.00e+00	0	59	0	794820608	48	4312
2026-01-15 13:50:25.58	247.40	14.56	-38.1	-39.9	15.1	0.00e+00	0	59	0	800063488	48	4273
2026-01-15 13:50:26.59	247.59	14.60	-38.1	-39.9	15.1	0.00e+00	0	59	0	806354944	48	4245
2026-01-15 13:50:27.60	247.79	14.65	-38.1	-39.9	15.2	0.00e+00	0	59	0	811597824	48	4249
2026-01-15 13:50:28.61	247.98	14.69	-38.1	-39.9	15.1	0.00e+00	0	59	0	816840704	48	4267
2026-01-15 13:50:29.62	248.18	14.74	-38.1	-39.9	15.1	0.00e+00	0	59	0	823132160	48	4269
2026-01-15 13:50:30.63	248.37	14.78	-38.1	-39.9	15.1	1.10e-06	0	59	0	828375040	48	4280
2026-01-15 13:50:31.64	248.57	14.82	-38.2	-40.1	14.9	0.00e+00	0	59	0	834666496	48	4343
2026-01-15 13:50:32.65	248.76	14.87	-38.2	-40.1	14.9	0.00e+00	0	59	0	839909376	48	4344
2026-01-15 13:50:33.66	248.96	14.91	-38.2	-40.1	14.9	0.00e+00	0	59	0	845152256	48	4343
2026-01-15 13:50:34.67	249.16	14.95	-38.2	-40.0	15.0	0.00e+00	0	59	0	851443712	48	4326
2026-01-15 13:50:35.68	249.36	14.99	-38.1	-39.9	15.1	0.00e+00	0	59	0	856686592	48	4285
2026-01-15 13:50:36.69	249.56	15.04	-38.1	-39.9	15.1	0.00e+00	0	59	0	862978048	48	4284
2026-01-15 13:50:37.70	249.76	15.08	-38.1	-39.9	15.1	0.00e+00	0	59	0	868220928	48	4280
2026-01-15 13:50:38.71	249.95	15.12	-38.1	-39.9	15.1	1.10e-06	0	59	0	873463808	48	4277
2026-01-15 13:50:39.72	250.15	15.16	-38.1	-39.9	15.1	0.00e+00	0	59	0	879755264	48	4276
2026-01-15 13:50:40.73	250.36	15.20	-38.2	-40.0	15.1	0.00e+00	0	59	0	884998144	48	4303
2026-01-15 13:50:41.74	250.56	15.24	-38.2	-40.0	15.0	0.00e+00	0	59	0	891289600	48	4318
2026-01-15 13:50:42.74	250.76	15.28	-38.2	-40.0	15.0	0.00e+00	0	59	0	896532480	48	4328
2026-01-15 13:50:43.75	250.96	15.32	-38.2	-40.0	15.0	0.00e+00	0	59	0	902823936	48	4328
2026-01-15 13:50:44.76	251.16	15.36	-38.3	-40.1	14.9	0.00e+00	0	59	0	908066816	48	4366
2026-01-15 13:50:45.77	251.37	15.40	-38.3	-40.2	14.9	0.00e+00	0	59	0	913309696	48	4401
2026-01-15 13:50:46.78	251.57	15.44	-38.3	-40.2	14.8	1.10e-06	0	59	0	919601152	48	4410
2026-01-15 13:50:47.79	251.77	15.48	-38.3	-40.1	14.9	0.00e+00	0	59	0	924844032	48	4382
2026-01-15 13:50:48.80	251.98	15.52	-38.2	-40.0	15.0	0.00e+00	0	59	0	931135488	48	4308
2026-01-15 13:50:49.81	252.18	15.56	-38.0	-39.8	15.2	0.00e+00	0	59	0	936378368	48	4230
2026-01-15 13:50:50.82	252.39	15.59	-38.0	-39.8	15.3	1.10e-06	0	59	0	941621248	48	4196
2026-01-15 13:50:51.83	252.60	15.63	-37.9	-39.6	15.3	0.00e+00	0	59	0	947912704	47	4385
2026-01-15 13:50:52.83	252.80	15.67	-37.8	-39.6	15.3	0.00e+00	0	59	0	953155584	47	4361
2026-01-15 13:50:53.84	253.01	15.71	-37.9	-39.7	15.3	0.00e+00	0	59	0	959447040	47	4401
2026-01-15 13:50:54.85	253.22	15.74	-37.9	-39.8	15.2	0.00e+00	0	59	0	964689920	47	4447
2026-01-15 13:50:55.86	253.43	15.78	-38.0	-39.9	15.1	0.00e+00	0	59	0	969932800	47	4495
2026-01-15 13:50:56.87	253.63	15.82	-38.0	-39.9	15.1	0.00e+00	0	59	0	976224256	47	4502
2026-01-15 13:50:57.88	253.84	15.85	-38.0	-39.8	15.1	1.10e-06	0	59	0	981467136	47	4487
2026-01-15 13:50:58.89	254.05	15.89	-38.0	-39.8	15.1	0.00e+00	0	59	0	987758592	47	4469
2026-01-15 13:50:59.89	254.26	15.92	-37.9	-39.7	15.2	0.00e+00	0	59	0	993001472	47	4414
2026-01-15 13:51:00.91	254.48	15.96	-37.9	-39.6	15.3	0.00e+00	0	59	0	999292928	47	4391
2026-01-15 13:51:01.91	254.68	15.99	-37.9	-39.6	15.3	0.00e+00	0	59	0	1004535808	47	4388
2026-01-15 13:51:02.92	254.90	16.03	-37.8	-39.6	15.3	0.00e+00	0	59	0	1009778688	47	4375
2026-01-15 13:51:03.93	255.11	16.06	-37.8	-39.6	15.4	1.10e-06	0	60	0	1016070144	47	4358
2026-01-15 13:51:04.94	255.32	16.10	-37.8	-39.6	15.3	0.00e+00	0	59	0	1021313024	47	4357
2026-01-15 13:51:05.95	255.54	16.13	-37.8	-39.5	15.4	0.00e+00	0	59	0	1027604480	47	4333
2026-01-15 13:51:06.96	255.75	16.16	-37.7	-39.5	15.4	0.00e+00	0	59	0	1032847360	47	4310
2026-01-15 13:51:07.97	255.96	16.20	-37.6	-39.5	15.1	0.00e+00	0	59	0	1038090240	47	4299
2026-01-15 13:51:08.97	256.18	16.23	-37.5	-39.4	14.3	4.61e-03	0	59	0	1044381696	46	4530
2026-01-15 13:51:09.98	256.39	16.26	-37.4	-39.4	14.3	1.10e-02	0	59	0	1049624576	46	4519
2026-01-15 13:51:10.99	256.61	16.29	-37.4	-39.4	14.1	1.31e-02	0	59	0	1055916032	46	4531
2026-01-15 13:51:12.00	256.82	16.32	-37.4	-39.4	14.2	9.35e-03	0	59	0	1061158912	46	4518
2026-01-15 13:51:13.01	257.04	16.36	-37.3	-39.5	13.9	1.70e-02	0	59	0	1066401792	46	4565
2026-01-15 13:51:14.02	257.26	16.39	-37.5	-39.5	14.0	1.66e-02	0	60	0	1072693248	46	4576
2026-01-15 13:51:15.03	257.47	16.42	-37.8	-39.6	15.4	4.96e-03	0	59	0	1077936128	46	4620
2026-01-15 13:51:16.04	257.69	16.45	-37.8	-39.5	15.4	0.00e+00	0	60	0	1084227584	46	4576
2026-01-15 13:51:17.05	257.91	16.48	-37.7	-39.4	15.5	0.00e+00	0	59	0	1089470464	46	4528
2026-01-15 13:51:18.06	258.13	16.51	-37.7	-39.4	15.6	0.00e+00	0	59	0	1095761920	46	4524
2026-01-15 13:51:19.07	258.35	16.54	-37.7	-39.4	15.5	0.00e+00	0	60	0	1101004800	46	4535
2026-01-15 13:51:20.08	258.57	16.56	-37.8	-39.5	15.5	0.00e+00	0	59	0	1106247680	46	4570
2026-01-15 13:51:21.09	258.79	16.59	-37.8	-39.5	15.4	0.00e+00	0	60	0	1112539136	46	4598
2026-01-15 13:51:22.10	259.01	16.62	-37.8	-39.6	15.4	0.00e+00	0	59	0	1117782016	46	4617
2026-01-15 13:51:23.11	259.23	16.65	-37.8	-39.6	15.4	0.00e+00	0	59	0	1124073472	46	4622
2026-01-15 13:51:24.12	259.45	16.68	-37.9	-39.7	15.3	0.00e+00	0	60	0	1129316352	46	4661
2026-01-15 13:51:25.12	259.67	16.70	-37.9	-39.7	15.3	0.00e+00	0	60	0	1134559232	46	4658
2026-01-15 13:51:26.13	259.89	16.73	-37.9	-39.7	15.3	0.00e+00	0	60	0	1140850688	46	4658
2026-01-15 13:51:27.14	260.11	16.75	-37.9	-39.6	15.3	0.00e+00	0	60	0	1146093568	46	4649
2026-01-15 13:51:28.15	260.33	16.78	-37.8	-39.6	15.4	0.00e+00	0	60	0	1152385024	46	4619
2026-01-15 13:51:29.17	260.56	16.81	-37.8	-39.5	15.4	0.00e+00	0	60	0	1157627904	46	4594
2026-01-15 13:51:30.18	260.78	16.83	-37.7	-39.5	15.5	0.00e+00	0	59	0	1162870784	46	4570
2026-01-15 13:51:31.19	261.00	16.86	-37.7	-39.5	15.5	0.00e+00	0	60	0	1169162240	46	4565
2026-01-15 13:51:32.20	261.23	16.88	-37.8	-39.5	15.4	0.00e+00	0	60	0	1174405120	46	4590
2026-01-15 13:51:33.21	261.45	16.90	-37.8	-39.6	15.4	0.00e+00	0	59	0	1180696576	46	4626
2026-01-15 13:51:34.22	261.68	16.93	-37.9	-39.6	15.3	0.00e+00	0	59	0	1185939456	46	4651
2026-01-15 13:51:35.23	261.90	16.95	-37.9	-39.7	15.3	0.00e+00	0	59	0	1192230912	46	4662
2026-01-15 13:51:36.24	262.13	16.97	-37.9	-39.6	15.3	0.00e+00	0	59	0	1197473792	46	4649
2026-01-15 13:51:37.25	262.35	16.99	-37.8	-39.6	15.4	0.00e+00	0	60	0	1203765248	46	4622
2026-01-15 13:51:38.26	262.58	17.02	-37.8	-39.6	15.4	0.00e+00	0	60	0	1209008128	46	4606
2026-01-15 13:51:39.27	262.80	17.04	-37.8	-39.5	15.5	1.10e-06	0	60	0	1214251008	46	4585
2026-01-15 13:51:40.28	263.03	17.06	-37.7	-39.5	15.5	0.00e+00	0	60	0	1220542464	46	4582
2026-01-15 13:51:41.29	263.26	17.08	-37.7	-39.4	15.6	0.00e+00	0	60	0	1225785344	46	4531
2026-01-15 13:51:42.30	263.48	17.10	-37.6	-39.3	15.6	0.00e+00	0	59	0	1232076800	46	4492
2026-01-15 13:51:43.31	263.71	17.12	-37.6	-39.3	15.7	0.00e+00	0	59	0	1237319680	46	4445
2026-01-15 13:51:44.32	263.94	17.14	-37.5	-39.2	15.8	0.00e+00	0	60	0	1242562560	46	4433
2026-01-15 13:51:45.33	264.17	17.16	-37.6	-39.3	15.7	0.00e+00	0	60	0	1248854016	46	4451
2026-01-15 13:51:46.34	264.40	17.18	-37.6	-39.4	15.6	0.00e+00	0	60	0	1254096896	46	4497
2026-01-15 13:51:47.35	264.62	17.19	-37.8	-39.5	15.5	0.00e+00	0	60	0	1260388352	46	4577
2026-01-15 13:51:48.36	264.85	17.21	-37.8	-39.6	15.4	0.00e+00	0	60	0	1265631232	46	4615
2026-01-15 13:51:49.36	265.08	17.23	-37.9	-39.6	15.3	0.00e+00	0	60	0	1270874112	46	4639
2026-01-15 13:51:50.37	265.31	17.24	-37.8	-39.6	15.4	0.00e+00	0	60	0	1277165568	46	4608
2026-01-15 13:51:51.38	265.54	17.26	-37.7	-39.4	15.5	1.10e-06	0	60	0	1282408448	46	4521
2026-01-15 13:51:52.39	265.77	17.28	-37.6	-39.3	15.7	0.00e+00	0	60	0	1288699904	46	4461
2026-01-15 13:51:53.40	266.00	17.29	-37.6	-39.2	15.7	0.00e+00	0	60	0	1293942784	46	4437
2026-01-15 13:51:54.41	266.23	17.31	-37.6	-39.3	15.7	0.00e+00	0	60	0	1300234240	46	4451
2026-01-15 13:51:55.42	266.46	17.32	-37.6	-39.4	15.6	0.00e+00	0	60	0	1305477120	46	4501
2026-01-15 13:51:56.43	266.69	17.34	-37.6	-39.3	15.7	0.00e+00	0	60	0	1310720000	46	4468
2026-01-15 13:51:57.44	266.92	17.35	-37.6	-39.3	15.7	0.00e+00	0	60	0	1317011456	46	4444
2026-01-15 13:51:58.45	267.15	17.36	-37.5	-39.2	15.8	0.00e+00	0	60	0	1322254336	46	4396
2026-01-15 13:51:59.46	267.38	17.38	-37.5	-39.2	15.8	0.00e+00	0	60	0	1328545792	46	4399
2026-01-15 13:52:00.47	267.61	17.39	-37.5	-39.1	15.8	0.00e+00	0	60	0	1333788672	46	4376
2026-01-15 13:52:01.48	267.84	17.40	-37.5	-39.1	15.8	0.00e+00	0	60	0	1339031552	46	4389
2026-01-15 13:52:02.49	268.08	17.41	-37.5	-39.1	15.8	0.00e+00	0	60	0	1345323008	46	4388
2026-01-15 13:52:03.49	268.31	17.42	-37.5	-39.2	15.8	0.00e+00	0	60	0	1350565888	46	4396
2026-01-15 13:52:04.50	268.54	17.43	-37.5	-39.2	15.8	0.00e+00	0	60	0	1356857344	46	4398
2026-01-15 13:52:05.52	268.77	17.44	-37.5	-39.2	15.8	0.00e+00	0	60	0	1362100224	46	4413
2026-01-15 13:52:06.53	269.00	17.45	-37.5	-39.3	15.7	0.00e+00	0	60	0	1367343104	46	4444
2026-01-15 13:52:07.53	269.23	17.46	-37.6	-39.3	15.6	0.00e+00	0	60	0	1373634560	46	4487
2026-01-15 13:52:08.55	269.47	17.47	-37.6	-39.3	15.6	0.00e+00	0	60	0	1378877440	46	4491
2026-01-15 13:52:09.56	269.70	17.48	-37.5	-39.3	15.7	0.00e+00	0	60	0	1385168896	46	4443
2026-01-15 13:52:10.57	269.94	17.49	-37.5	-39.2	15.8	0.00e+00	0	60	0	1390411776	46	4401
2026-01-15 13:52:11.57	270.17	17.50	-37.4	-39.0	15.9	0.00e+00	0	60	0	1396703232	46	4340
2026-01-15 13:52:12.58	270.40	17.50	-37.4	-39.1	15.9	0.00e+00	0	60	0	1401946112	46	4342
2026-01-15 13:52:13.59	270.63	17.51	-37.4	-39.1	15.9	0.00e+00	0	60	0	1408237568	46	4349
2026-01-15 13:52:14.60	270.86	17.51	-37.4	-39.1	15.9	0.00e+00	0	60	0	1413480448	46	4365
2026-01-15 13:52:15.61	271.10	17.52	-37.5	-39.2	15.8	0.00e+00	0	60	0	1418723328	46	4396
2026-01-15 13:52:16.62	271.33	17.53	-37.5	-39.2	15.8	0.00e+00	0	60	0	1425014784	46	4405
2026-01-15 13:52:17.63	271.57	17.53	-37.5	-39.1	15.8	0.00e+00	0	60	0	1430257664	46	4389
2026-01-15 13:52:18.64	271.80	17.53	-37.5	-39.2	15.8	0.00e+00	0	60	0	1436549120	46	4399
2026-01-15 13:52:19.65	272.03	17.54	-37.5	-39.2	15.8	0.00e+00	0	60	0	1441792000	46	4423
2026-01-15 13:52:20.66	272.27	17.54	-37.6	-39.3	15.7	0.00e+00	0	60	0	1447034880	46	4449
2026-01-15 13:52:21.67	272.50	17.54	-37.6	-39.3	15.7	0.00e+00	0	60	0	1453326336	46	4475
2026-01-15 13:52:22.68	272.73	17.55	-37.6	-39.3	15.6	0.00e+00	0	60	0	1458569216	46	4490
2026-01-15 13:52:23.69	272.97	17.55	-37.6	-39.3	15.7	1.10e-06	0	60	0	1464860672	46	4469
2026-01-15 13:52:24.70	273.20	17.55	-37.6	-39.3	15.7	0.00e+00	0	60	0	1470103552	46	4446
2026-01-15 13:52:25.71	273.43	17.55	-37.6	-39.3	15.7	0.00e+00	0	60	0	1475346432	46	4455
2026-01-15 13:52:26.72	273.67	17.55	-37.6	-39.3	15.7	0.00e+00	0	60	0	1481637888	46	4454
2026-01-15 13:52:27.73	273.90	17.55	-37.6	-39.3	15.7	0.00e+00	0	60	0	1486880768	46	4460
2026-01-15 13:52:28.74	274.14	17.55	-37.6	-39.3	15.7	0.00e+00	0	60	0	1493172224	46	4444
2026-01-15 13:52:29.75	274.37	17.55	-37.6	-39.3	15.7	0.00e+00	0	60	0	1498415104	46	4456
2026-01-15 13:52:30.76	274.60	17.55	-37.6	-39.3	15.6	0.00e+00	0	60	0	1504706560	46	4474
2026-01-15 13:52:31.77	274.84	17.55	-37.6	-39.3	15.7	0.00e+00	0	60	0	1509949440	46	4469
2026-01-15 13:52:32.77	275.07	17.55	-37.6	-39.4	15.6	0.00e+00	0	60	0	1515192320	46	4496
2026-01-15 13:52:33.78	275.30	17.54	-37.6	-39.4	15.6	0.00e+00	0	60	0	1521483776	46	4505
2026-01-15 13:52:34.79	275.54	17.54	-37.7	-39.4	15.5	0.00e+00	0	60	0	1526726656	46	4521
2026-01-15 13:52:35.80	275.77	17.54	-37.6	-39.4	15.6	0.00e+00	0	60	0	1533018112	46	4498
2026-01-15 13:52:36.80	276.00	17.53	-37.6	-39.3	15.7	0.00e+00	0	60	0	1538260992	46	4451
2026-01-15 13:52:37.81	276.23	17.53	-37.5	-39.2	15.7	0.00e+00	0	60	0	1543503872	46	4436
2026-01-15 13:52:38.82	276.47	17.52	-37.6	-39.3	15.6	0.00e+00	0	60	0	1549795328	46	4463
2026-01-15 13:52:39.83	276.70	17.52	-37.6	-39.4	15.5	0.00e+00	0	60	0	1555038208	46	4513
2026-01-15 13:52:40.84	276.93	17.51	-37.8	-39.5	15.4	1.10e-06	0	60	0	1561329664	46	4591
2026-01-15 13:52:41.85	277.17	17.51	-37.8	-39.6	15.4	0.00e+00	0	60	0	1566572544	46	4600
2026-01-15 13:52:42.85	277.40	17.50	-37.8	-39.6	15.4	0.00e+00	0	60	0	1571815424	46	4607
2026-01-15 13:52:43.86	277.63	17.49	-37.8	-39.6	15.3	0.00e+00	0	60	0	1578106880	46	4613
2026-01-15 13:52:44.87	277.86	17.49	-37.8	-39.5	15.4	0.00e+00	0	60	0	1583349760	46	4591
2026-01-15 13:52:45.88	278.09	17.48	-37.7	-39.5	15.4	0.00e+00	0	60	0	1589641216	46	4546
2026-01-15 13:52:46.89	278.33	17.47	-37.7	-39.4	15.5	0.00e+00	0	60	0	1594884096	46	4537
2026-01-15 13:52:47.90	278.56	17.46	-37.7	-39.5	15.5	0.00e+00	0	60	0	1601175552	46	4549
2026-01-15 13:52:48.91	278.79	17.45	-37.7	-39.5	15.4	0.00e+00	0	60	0	1606418432	46	4558
2026-01-15 13:52:49.92	279.02	17.44	-37.8	-39.5	15.4	0.00e+00	0	60	0	1611661312	46	4585
2026-01-15 13:52:50.93	279.26	17.43	-37.7	-39.5	15.4	0.00e+00	0	60	0	1617952768	46	4573
2026-01-15 13:52:51.94	279.49	17.42	-37.7	-39.4	15.5	0.00e+00	0	60	0	1623195648	46	4518
2026-01-15 13:52:52.95	279.72	17.41	-37.6	-39.3	15.5	0.00e+00	0	60	0	1629487104	46	4469
2026-01-15 13:52:53.96	279.95	17.40	-37.6	-39.3	15.6	0.00e+00	0	60	0	1634729984	46	4453
2026-01-15 13:52:54.97	280.18	17.39	-37.5	-39.2	15.6	0.00e+00	0	60	0	1639972864	46	4430
2026-01-15 13:52:55.98	280.41	17.37	-37.5	-39.2	15.6	0.00e+00	0	60	0	1646264320	46	4422
2026-01-15 13:52:56.99	280.64	17.36	-37.5	-39.2	15.7	0.00e+00	0	60	0	1651507200	46	4421
2026-01-15 13:52:58.00	280.87	17.35	-37.6	-39.3	15.6	0.00e+00	0	60	0	1657798656	46	4485
2026-01-15 13:52:59.01	281.10	17.33	-37.6	-39.3	15.6	0.00e+00	0	60	0	1663041536	46	4475
2026-01-15 13:53:00.02	281.33	17.32	-37.6	-39.4	15.5	0.00e+00	0	60	0	1668284416	46	4496
2026-01-15 13:53:01.03	281.56	17.30	-37.6	-39.3	15.5	0.00e+00	0	60	0	1674575872	46	4487
2026-01-15 13:53:02.04	281.79	17.29	-37.6	-39.3	15.6	1.10e-06	0	60	0	1679818752	46	4489
2026-01-15 13:53:03.05	282.02	17.27	-37.6	-39.3	15.6	0.00e+00	0	60	0	1686110208	46	4484
2026-01-15 13:53:04.05	282.25	17.26	-37.6	-39.3	15.5	0.00e+00	0	60	0	1691353088	46	4489
2026-01-15 13:53:05.06	282.48	17.24	-37.6	-39.4	15.5	0.00e+00	0	60	0	1697644544	46	4522
2026-01-15 13:53:06.07	282.71	17.22	-37.7	-39.4	15.4	0.00e+00	0	60	0	1702887424	46	4537
2026-01-15 13:53:07.08	282.94	17.21	-37.7	-39.5	15.3	0.00e+00	0	60	0	1708130304	46	4572
2026-01-15 13:53:08.09	283.16	17.19	-37.8	-39.6	15.3	0.00e+00	0	60	0	1714421760	46	4601
2026-01-15 13:53:09.10	283.39	17.17	-37.8	-39.6	15.3	0.00e+00	0	60	0	1719664640	46	4617
2026-01-15 13:53:10.11	283.62	17.15	-37.8	-39.6	15.3	1.10e-06	0	60	0	1725956096	46	4621
2026-01-15 13:53:11.12	283.85	17.13	-37.8	-39.6	15.3	0.00e+00	0	60	0	1731198976	46	4617
2026-01-15 13:53:12.14	284.08	17.11	-37.8	-39.5	15.3	0.00e+00	0	60	0	1737490432	46	4582
2026-01-15 13:53:13.15	284.30	17.09	-37.7	-39.5	15.4	0.00e+00	0	60	0	1742733312	46	4571
2026-01-15 13:53:14.16	284.53	17.07	-37.7	-39.5	15.3	0.00e+00	0	60	0	1747976192	46	4573
2026-01-15 13:53:15.17	284.76	17.05	-37.8	-39.6	15.3	0.00e+00	0	60	0	1754267648	46	4613
2026-01-15 13:53:16.18	284.98	17.03	-37.9	-39.7	15.2	0.00e+00	0	60	0	1759510528	46	4665
2026-01-15 13:53:17.19	285.21	17.01	-38.0	-39.8	15.0	0.00e+00	0	60	0	1765801984	46	4750
2026-01-15 13:53:18.20	285.43	16.99	-38.0	-39.9	15.0	0.00e+00	0	60	0	1771044864	46	4788
2026-01-15 13:53:19.21	285.66	16.97	-38.1	-40.0	14.8	1.10e-06	0	60	0	1776287744	46	4852
2026-01-15 13:53:20.22	285.88	16.94	-38.1	-40.0	14.9	0.00e+00	0	60	0	1782579200	46	4820
2026-01-15 13:53:21.23	286.11	16.92	-38.0	-39.9	14.9	1.10e-06	0	60	0	1787822080	46	4778
2026-01-15 13:53:22.24	286.33	16.90	-37.9	-39.8	15.0	1.10e-06	0	60	0	1794113536	46	4730
2026-01-15 13:53:23.25	286.55	16.87	-37.9	-39.7	15.1	0.00e+00	0	60	0	1799356416	46	4677
2026-01-15 13:53:24.26	286.78	16.85	-37.8	-39.6	15.2	0.00e+00	0	60	0	1805647872	46	4617
2026-01-15 13:53:25.27	287.00	16.83	-37.8	-39.6	15.2	1.10e-06	0	60	0	1810890752	46	4633
2026-01-15 13:53:26.28	287.22	16.80	-37.8	-39.6	15.2	0.00e+00	0	60	0	1816133632	46	4626
2026-01-15 13:53:27.29	287.45	16.78	-37.8	-39.6	15.2	0.00e+00	0	60	0	1822425088	46	4625
2026-01-15 13:53:28.30	287.67	16.75	-37.8	-39.6	15.2	0.00e+00	0	60	0	1827667968	46	4615
2026-01-15 13:53:29.31	287.89	16.72	-37.8	-39.6	15.2	0.00e+00	0	60	0	1833959424	46	4606
2026-01-15 13:53:30.32	288.11	16.70	-37.8	-39.6	15.3	0.00e+00	0	60	0	1839202304	46	4601
2026-01-15 13:53:31.33	288.33	16.67	-37.8	-39.5	15.3	0.00e+00	0	60	0	1844445184	46	4591
2026-01-15 13:53:32.34	288.55	16.64	-37.8	-39.5	15.3	0.00e+00	0	60	0	1850736640	46	4593
2026-01-15 13:53:33.35	288.77	16.62	-37.8	-39.6	15.2	0.00e+00	0	60	0	1855979520	46	4650
2026-01-15 13:53:34.36	288.99	16.59	-37.9	-39.8	15.0	0.00e+00	0	60	0	1862270976	46	4728
2026-01-15 13:53:35.37	289.21	16.56	-38.0	-39.9	14.9	0.00e+00	0	60	0	1867513856	46	4779
2026-01-15 13:53:36.38	289.43	16.53	-38.0	-39.9	14.9	0.00e+00	0	60	0	1872756736	46	4786
2026-01-15 13:53:37.38	289.64	16.50	-38.1	-40.0	14.8	0.00e+00	0	60	0	1879048192	46	4836
2026-01-15 13:53:38.39	289.86	16.47	-38.1	-40.0	14.8	0.00e+00	0	60	0	1884291072	46	4845
2026-01-15 13:53:39.40	290.08	16.44	-38.1	-40.0	14.8	0.00e+00	0	60	0	1890582528	46	4844
2026-01-15 13:53:40.41	290.30	16.41	-38.0	-39.9	14.9	0.00e+00	0	60	0	1895825408	46	4786
2026-01-15 13:53:41.42	290.51	16.38	-38.0	-39.9	14.9	0.00e+00	0	60	0	1902116864	46	4782
2026-01-15 13:53:42.43	290.73	16.35	-38.0	-39.9	14.9	0.00e+00	0	60	0	1907359744	46	4780
2026-01-15 13:53:43.44	290.94	16.32	-38.1	-39.9	14.9	0.00e+00	0	60	0	1913651200	46	4802
2026-01-15 13:53:44.45	291.16	16.29	-38.1	-39.9	14.9	0.00e+00	0	60	0	1918894080	46	4797
2026-01-15 13:53:45.46	291.37	16.26	-38.1	-40.0	14.8	0.00e+00	0	60	0	1924136960	46	4821
2026-01-15 13:53:46.47	291.59	16.23	-38.0	-39.8	15.0	0.00e+00	0	60	0	1930428416	46	4735
2026-01-15 13:53:47.48	291.80	16.19	-38.0	-39.8	15.0	0.00e+00	0	60	0	1935671296	46	4749
2026-01-15 13:53:48.48	292.01	16.16	-38.0	-39.8	15.0	0.00e+00	0	60	0	1941962752	46	4727
2026-01-15 13:53:49.49	292.23	16.13	-38.0	-39.8	15.0	0.00e+00	0	60	0	1947205632	46	4721
2026-01-15 13:53:50.50	292.44	16.09	-38.0	-39.8	15.0	0.00e+00	0	60	0	1952448512	46	4731
2026-01-15 13:53:51.51	292.65	16.06	-38.0	-39.8	15.0	0.00e+00	0	60	0	1958739968	46	4754
2026-01-15 13:53:52.52	292.86	16.03	-38.0	-39.9	14.9	0.00e+00	0	60	0	1963982848	46	4781
2026-01-15 13:53:53.53	293.07	15.99	-38.0	-39.9	14.9	0.00e+00	0	60	0	1969225728	46	4803
2026-01-15 13:53:54.54	293.28	15.96	-38.0	-39.9	14.9	0.00e+00	0	60	0	1975517184	46	4794
2026-01-15 13:53:55.55	293.49	15.92	-38.0	-39.9	14.9	0.00e+00	0	60	0	1980760064	46	4760
2026-01-15 13:53:56.56	293.70	15.89	-38.0	-39.9	14.9	0.00e+00	0	60	0	1987051520	46	4784
2026-01-15 13:53:57.56	293.91	15.85	-38.0	-39.9	14.9	0.00e+00	0	60	0	1992294400	46	4776
2026-01-15 13:53:58.57	294.12	15.82	-38.1	-39.9	14.8	0.00e+00	0	60	0	1998585856	46	4808
2026-01-15 13:53:59.58	294.33	15.78	-38.1	-39.9	14.8	0.00e+00	0	60	0	2003828736	46	4811
2026-01-15 13:54:00.59	294.53	15.74	-38.0	-39.9	14.9	0.00e+00	0	60	0	2010120192	46	4804
2026-01-15 13:54:01.60	294.74	15.71	-38.0	-39.9	14.8	0.00e+00	0	60	0	2015363072	46	4799
2026-01-15 13:54:02.61	294.95	15.67	-38.1	-39.9	14.8	0.00e+00	0	60	0	2020605952	46	4802
2026-01-15 13:54:03.62	295.15	15.63	-38.0	-39.9	14.9	0.00e+00	0	60	0	2026897408	46	4787
2026-01-15 13:54:04.63	295.36	15.59	-38.0	-39.9	14.9	0.00e+00	0	60	0	2032140288	46	4780
2026-01-15 13:54:05.64	295.57	15.56	-38.0	-39.9	14.8	0.00e+00	0	60	0	2038431744	46	4798
2026-01-15 13:54:06.65	295.77	15.52	-38.1	-39.9	14.8	1.10e-06	0	60	0	2043674624	46	4809
2026-01-15 13:54:07.65	295.97	15.48	-38.1	-40.0	14.7	1.10e-06	0	60	0	2048917504	46	4861
2026-01-15 13:54:08.66	296.18	15.44	-38.1	-40.1	14.7	2.20e-06	0	60	0	2055208960	46	4881
2026-01-15 13:54:09.67	296.38	15.40	-38.1	-40.1	14.7	1.10e-06	0	60	0	2060451840	46	4874
2026-01-15 13:54:10.68	296.58	15.36	-38.2	-40.1	14.7	0.00e+00	0	60	0	2065694720	46	4889
2026-01-15 13:54:11.69	296.78	15.32	-38.2	-40.1	14.7	1.10e-06	0	60	0	2071986176	46	4900
2026-01-15 13:54:12.70	296.98	15.28	-38.2	-40.2	14.6	0.00e+00	0	60	0	2077229056	47	4652
2026-01-15 13:54:13.71	297.19	15.24	-38.3	-40.3	14.5	1.10e-06	0	60	0	2083520512	47	4707
2026-01-15 13:54:14.71	297.38	15.20	-38.3	-40.3	14.5	0.00e+00	0	60	0	2088763392	47	4708
2026-01-15 13:54:15.72	297.58	15.16	-38.3	-40.3	14.4	3.40e-06	0	60	0	2095054848	47	4734
2026-01-15 13:54:16.73	297.78	15.12	-38.3	-40.2	14.5	0.00e+00	0	60	0	2100297728	47	4679
2026-01-15 13:54:17.74	297.98	15.08	-38.3	-40.2	14.5	1.10e-06	0	60	0	2106589184	47	4697
2026-01-15 13:54:18.75	298.18	15.04	-38.2	-40.2	14.6	2.20e-06	0	60	0	2111832064	47	4658
2026-01-15 13:54:19.76	298.38	15.00	-38.2	-40.2	14.6	1.10e-06	0	60	0	2117074944	47	4663
2026-01-15 13:54:20.77	298.57	14.95	-38.2	-40.1	14.6	1.10e-06	0	60	0	2123366400	47	4642
2026-01-15 13:54:21.78	298.77	14.91	-38.3	-40.2	14.5	2.20e-06	0	60	0	2128609280	47	4693
2026-01-15 13:54:22.79	298.97	14.87	-38.3	-40.3	14.5	0.00e+00	0	60	0	2134900736	47	4721
2026-01-15 13:54:23.80	299.16	14.83	-38.4	-40.4	14.3	1.10e-06	0	60	0	2140143616	47	4778
2026-01-15 13:54:24.81	299.36	14.78	-38.4	-40.4	14.4	2.20e-06	0	60	0	2145386496	47	4774
2026-01-15 13:54:25.82	299.55	14.74	-38.4	-40.4	14.3	0.00e+00	0	60	0	2151677952	47	4797
2026-01-15 13:54:26.83	299.75	14.70	-38.4	-40.4	14.3	3.40e-06	0	61	0	2156920832	47	4787
2026-01-15 13:54:27.83	299.94	14.65	-38.4	-40.4	14.3	1.10e-06	0	60	0	2162163712	47	4784
2026-01-15 13:54:28.84	300.13	14.61	-38.4	-40.3	14.4	2.20e-06	0	60	0	2168455168	47	4759
2026-01-15 13:54:29.85	300.32	14.57	-38.4	-40.3	14.4	0.00e+00	0	60	0	2173698048	47	4743
2026-01-15 13:54:30.86	300.51	14.52	-38.3	-40.3	14.4	1.10e-06	0	60	0	2179989504	47	4746
2026-01-15 13:54:31.87	300.71	14.48	-38.4	-40.4	14.4	3.40e-06	0	60	0	2185232384	47	4768
2026-01-15 13:54:32.88	300.90	14.43	-38.4	-40.4	14.4	0.00e+00	0	60	0	2191523840	47	4764
2026-01-15 13:54:33.89	301.09	14.39	-38.4	-40.4	14.3	0.00e+00	0	60	0	2196766720	47	4787
2026-01-15 13:54:34.89	301.27	14.34	-38.3	-40.3	14.4	0.00e+00	0	60	0	2203058176	47	4726
2026-01-15 13:54:35.90	301.46	14.30	-38.3	-40.3	14.4	2.20e-06	0	60	0	2208301056	47	4743
2026-01-15 13:54:36.91	301.65	14.25	-38.3	-40.3	14.4	0.00e+00	0	60	0	2213543936	47	4717
2026-01-15 13:54:37.92	301.84	14.21	-38.3	-40.2	14.5	1.10e-06	0	60	0	2219835392	47	4705
2026-01-15 13:54:38.93	302.03	14.16	-38.3	-40.2	14.5	1.10e-06	0	60	0	2225078272	47	4694
2026-01-15 13:54:39.94	302.21	14.12	-38.3	-40.2	14.5	2.20e-06	0	60	0	2231369728	47	4694
2026-01-15 13:54:40.95	302.40	14.07	-38.3	-40.2	14.5	1.10e-06	0	60	0	2236612608	47	4688
2026-01-15 13:54:41.96	302.58	14.02	-38.4	-40.3	14.4	1.10e-06	0	60	0	2241855488	47	4735
2026-01-15 13:54:42.97	302.77	13.98	-38.4	-40.4	14.4	0.00e+00	0	60	0	2248146944	47	4767
2026-01-15 13:54:43.98	302.95	13.93	-38.5	-40.5	14.3	3.40e-06	0	60	0	2253389824	47	4815
2026-01-15 13:54:44.99	303.14	13.88	-38.5	-40.5	14.2	4.50e-06	0	60	0	2259681280	47	4867
2026-01-15 13:54:46.00	303.32	13.83	-38.5	-40.5	14.2	3.40e-06	0	60	0	2264924160	47	4855
2026-01-15 13:54:47.01	303.50	13.79	-38.5	-40.5	14.2	5.70e-06	0	60	0	2270167040	47	4846
2026-01-15 13:54:48.02	303.68	13.74	-38.5	-40.6	14.2	2.20e-06	0	60	0	2276458496	47	4875
2026-01-15 13:54:49.03	303.87	13.69	-38.5	-40.5	14.2	2.20e-06	0	60	0	2281701376	47	4826
2026-01-15 13:54:50.03	304.04	13.65	-38.5	-40.5	14.2	1.10e-06	0	60	0	2287992832	47	4830
2026-01-15 13:54:51.04	304.22	13.60	-38.5	-40.5	14.2	3.40e-06	0	60	0	2293235712	47	4850
2026-01-15 13:54:52.05	304.40	13.55	-38.5	-40.5	14.2	9.10e-06	0	60	0	2299527168	47	4854
2026-01-15 13:54:53.06	304.58	13.50	-38.6	-40.6	14.1	1.10e-06	0	60	0	2304770048	47	4887
2026-01-15 13:54:54.07	304.76	13.45	-38.6	-40.6	14.1	3.40e-06	0	60	0	2310012928	47	4902
2026-01-15 13:54:55.08	304.94	13.40	-38.6	-40.6	14.1	4.50e-06	0	60	0	2316304384	47	4906
2026-01-15 13:54:56.09	305.12	13.35	-38.6	-40.7	14.0	5.70e-06	0	60	0	2321547264	47	4946
2026-01-15 13:54:57.10	305.29	13.31	-38.6	-40.7	14.0	6.80e-06	0	60	0	2327838720	47	4959
2026-01-15 13:54:58.11	305.47	13.26	-38.7	-40.8	13.9	2.20e-06	0	60	0	2333081600	47	4995
2026-01-15 13:54:59.12	305.65	13.21	-38.7	-40.8	13.9	8.00e-06	0	60	0	2338324480	47	5008
2026-01-15 13:55:00.13	305.82	13.16	-38.7	-40.8	13.9	8.00e-06	0	60	0	2344615936	47	5025
2026-01-15 13:55:01.14	306.00	13.11	-38.8	-40.9	13.8	4.50e-06	0	60	0	2349858816	48	4812
2026-01-15 13:55:02.15	306.17	13.06	-38.9	-41.0	13.8	1.02e-05	0	60	0	2356150272	48	4830
2026-01-15 13:55:03.16	306.34	13.01	-38.9	-41.0	13.8	6.80e-06	0	60	0	2361393152	48	4836
2026-01-15 13:55:04.17	306.52	12.96	-38.8	-40.9	13.9	5.70e-06	0	60	0	2366636032	48	4764
2026-01-15 13:55:05.18	306.69	12.91	-38.8	-40.9	13.9	3.40e-06	0	60	0	2372927488	48	4788
2026-01-15 13:55:06.19	306.86	12.86	-38.8	-40.9	13.9	1.25e-05	0	60	0	2378170368	48	4801
2026-01-15 13:55:07.20	307.03	12.81	-38.8	-40.8	13.9	4.50e-06	0	60	0	2384461824	48	4755
2026-01-15 13:55:08.22	307.20	12.76	-38.9	-41.0	13.8	1.14e-05	0	60	0	2389704704	48	4825
2026-01-15 13:55:09.23	307.37	12.71	-38.9	-41.0	13.8	1.25e-05	0	60	0	2395996160	48	4828
2026-01-15 13:55:10.24	307.54	12.66	-39.0	-41.1	13.7	9.10e-06	0	61	0	2401239040	48	4911
2026-01-15 13:55:11.25	307.71	12.61	-39.0	-41.1	13.6	1.14e-05	0	60	0	2407530496	48	4902
2026-01-15 13:55:12.26	307.88	12.56	-39.0	-41.2	13.6	2.28e-05	0	60	0	2412773376	48	4945
2026-01-15 13:55:13.27	308.05	12.50	-39.0	-41.1	13.6	1.83e-05	0	61	0	2418016256	48	4906
2026-01-15 13:55:14.28	308.22	12.45	-39.0	-41.1	13.7	1.25e-05	0	60	0	2424307712	48	4897
2026-01-15 13:55:15.28	308.38	12.40	-39.0	-41.1	13.6	1.83e-05	0	60	0	2429550592	48	4907
2026-01-15 13:55:16.29	308.55	12.35	-39.0	-41.2	13.6	2.40e-05	0	61	0	2435842048	48	4928
2026-01-15 13:55:17.30	308.71	12.30	-39.1	-41.2	13.5	1.71e-05	0	60	0	2441084928	48	4953
2026-01-15 13:55:18.31	308.88	12.25	-39.0	-41.1	13.6	1.71e-05	0	61	0	2446327808	48	4919
2026-01-15 13:55:19.32	309.04	12.20	-39.1	-41.2	13.5	1.94e-05	0	60	0	2452619264	48	4977
2026-01-15 13:55:20.33	309.21	12.15	-39.1	-41.3	13.5	1.94e-05	0	60	0	2457862144	48	4987
2026-01-15 13:55:21.34	309.37	12.09	-39.1	-41.3	13.5	1.71e-05	0	61	0	2464153600	48	4986
2026-01-15 13:55:22.34	309.53	12.04	-39.1	-41.3	13.4	2.86e-05	0	61	0	2469396480	48	5037
2026-01-15 13:55:23.36	309.69	11.99	-39.1	-41.3	13.4	2.05e-05	0	60	0	2474639360	48	5023
2026-01-15 13:55:24.36	309.85	11.94	-39.1	-41.3	13.4	1.94e-05	0	60	0	2480930816	48	5036
2026-01-15 13:55:25.37	310.01	11.89	-39.1	-41.3	13.4	2.28e-05	0	60	0	2486173696	48	5015
2026-01-15 13:55:26.38	310.18	11.83	-39.0	-41.2	13.5	2.05e-05	0	61	0	2492465152	48	4971
2026-01-15 13:55:27.39	310.34	11.78	-39.0	-41.2	13.5	1.60e-05	0	60	0	2497708032	48	4957
2026-01-15 13:55:28.40	310.49	11.73	-39.0	-41.2	13.5	2.28e-05	0	60	0	2503999488	48	4946
2026-01-15 13:55:29.41	310.65	11.68	-39.0	-41.2	13.5	2.63e-05	0	60	0	2509242368	48	4943
2026-01-15 13:55:30.42	310.81	11.62	-39.0	-41.2	13.5	1.60e-05	0	60	0	2514485248	48	4940
2026-01-15 13:55:31.43	310.97	11.57	-38.9	-41.1	13.6	2.17e-05	0	60	0	2520776704	48	4897
2026-01-15 13:55:32.43	311.12	11.52	-39.0	-41.1	13.6	1.60e-05	0	61	0	2526019584	48	4909
2026-01-15 13:55:33.44	311.28	11.47	-39.0	-41.1	13.6	1.48e-05	0	60	0	2532311040	48	4901
2026-01-15 13:55:34.45	311.44	11.41	-39.0	-41.2	13.5	8.00e-06	0	61	0	2537553920	48	4949
2026-01-15 13:55:35.46	311.59	11.36	-39.0	-41.2	13.5	2.17e-05	0	60	0	2542796800	48	4961
2026-01-15 13:55:36.47	311.75	11.31	-39.1	-41.3	13.4	2.40e-05	0	60	0	2549088256	48	5011
2026-01-15 13:55:37.48	311.90	11.25	-39.1	-41.3	13.4	1.94e-05	0	60	0	2554331136	48	5021
2026-01-15 13:55:38.50	312.06	11.20	-39.1	-41.3	13.4	2.28e-05	0	60	0	2560622592	48	5013
2026-01-15 13:55:39.51	312.21	11.15	-39.1	-41.3	13.4	2.63e-05	0	60	0	2565865472	48	5007
2026-01-15 13:55:40.52	312.36	11.09	-39.1	-41.3	13.4	2.86e-05	0	61	0	2571108352	48	4998
2026-01-15 13:55:41.53	312.52	11.04	-39.1	-41.3	13.3	2.51e-05	0	60	0	2577399808	48	5020
2026-01-15 13:55:42.54	312.67	10.99	-39.1	-41.3	13.3	2.28e-05	0	60	0	2582642688	48	5016
2026-01-15 13:55:43.55	312.82	10.93	-39.1	-41.3	13.3	3.66e-05	0	60	0	2588934144	48	5027
2026-01-15 13:55:44.56	312.97	10.88	-39.1	-41.4	13.2	3.54e-05	0	60	0	2594177024	48	5080
2026-01-15 13:55:45.57	313.12	10.83	-39.1	-41.4	13.2	3.77e-05	0	60	0	2600468480	48	5077
2026-01-15 13:55:46.58	313.27	10.77	-39.2	-41.5	13.1	4.23e-05	0	60	0	2605711360	48	5123
2026-01-15 13:55:47.59	313.42	10.72	-39.3	-41.6	13.0	6.40e-05	0	61	0	2612002816	49	4889
2026-01-15 13:55:48.60	313.57	10.66	-39.2	-41.5	13.1	5.26e-05	0	60	0	2617245696	49	4833
2026-01-15 13:55:49.61	313.72	10.61	-39.3	-41.5	13.1	6.63e-05	0	60	0	2622488576	49	4869
2026-01-15 13:55:50.62	313.86	10.56	-39.2	-41.5	13.1	7.89e-05	0	60	0	2628780032	49	4846
2026-01-15 13:55:51.63	314.01	10.50	-39.3	-41.5	13.0	6.40e-05	0	60	0	2634022912	49	4865
2026-01-15 13:55:52.64	314.16	10.45	-39.2	-41.5	13.1	5.03e-05	0	61	0	2640314368	49	4849
2026-01-15 13:55:53.65	314.30	10.39	-39.3	-41.6	13.0	5.95e-05	0	60	0	2645557248	49	4891
2026-01-15 13:55:54.66	314.45	10.34	-39.3	-41.6	13.0	6.06e-05	0	60	0	2650800128	49	4891
2026-01-15 13:55:55.67	314.59	10.29	-39.3	-41.7	12.9	5.95e-05	0	61	0	2657091584	49	4932
2026-01-15 13:55:56.68	314.74	10.23	-39.4	-41.7	12.8	7.55e-05	0	60	0	2662334464	49	4972
2026-01-15 13:55:57.69	314.88	10.18	-39.4	-41.8	12.8	1.09e-04	0	61	0	2668625920	49	4998
2026-01-15 13:55:58.70	315.02	10.12	-39.5	-41.9	12.7	1.13e-04	0	61	0	2673868800	49	5066
2026-01-15 13:55:59.71	315.17	10.07	-39.4	-41.8	12.7	1.23e-04	0	60	0	2679111680	49	5031
2026-01-15 13:56:00.72	315.31	10.02	-39.4	-41.8	12.7	1.33e-04	0	60	0	2685403136	49	5032
2026-01-15 13:56:01.73	315.45	9.96	-39.4	-41.8	12.7	1.57e-04	0	61	0	2690646016	49	5039
2026-01-15 13:56:02.74	315.59	9.91	-39.4	-41.8	12.7	1.28e-04	0	60	0	2696937472	49	5006
2026-01-15 13:56:03.75	315.73	9.85	-39.4	-41.8	12.7	1.10e-04	0	61	0	2702180352	49	5018
2026-01-15 13:56:04.76	315.87	9.80	-39.4	-41.8	12.7	1.26e-04	0	60	0	2708471808	49	5012
2026-01-15 13:56:05.77	316.01	9.74	-39.4	-41.8	12.7	1.19e-04	0	60	0	2713714688	49	4994
2026-01-15 13:56:06.78	316.15	9.69	-39.5	-41.9	12.6	1.23e-04	0	61	0	2720006144	49	5051
2026-01-15 13:56:07.79	316.29	9.64	-39.4	-41.8	12.7	1.56e-04	0	60	0	2725249024	49	4986
2026-01-15 13:56:08.80	316.43	9.58	-39.4	-41.8	12.7	1.15e-04	0	61	0	2730491904	49	5010
2026-01-15 13:56:09.81	316.57	9.53	-39.4	-41.9	12.6	1.50e-04	0	61	0	2736783360	49	5044
2026-01-15 13:56:10.82	316.70	9.47	-39.4	-41.8	12.6	1.22e-04	0	61	0	2742026240	49	5030
2026-01-15 13:56:11.83	316.84	9.42	-39.4	-41.8	12.7	1.33e-04	0	60	0	2747269120	49	5037
2026-01-15 13:56:12.84	316.98	9.36	-39.4	-41.9	12.6	1.46e-04	0	60	0	2753560576	49	5043
2026-01-15 13:56:13.85	317.11	9.31	-39.4	-41.9	12.6	1.54e-04	0	60	0	2758803456	49	5058
2026-01-15 13:56:14.85	317.25	9.25	-39.5	-41.9	12.6	1.77e-04	0	60	0	2765094912	49	5066
2026-01-15 13:56:15.86	317.38	9.20	-39.5	-42.0	12.5	1.65e-04	0	61	0	2770337792	49	5108
2026-01-15 13:56:16.87	317.52	9.14	-39.6	-42.1	12.3	2.39e-04	0	61	0	2775580672	49	5182
2026-01-15 13:56:17.88	317.65	9.09	-39.6	-42.2	12.3	2.84e-04	0	60	0	2781872128	49	5219
2026-01-15 13:56:18.89	317.78	9.04	-39.6	-42.1	12.3	2.15e-04	0	60	0	2787115008	49	5209
2026-01-15 13:56:19.90	317.91	8.98	-39.6	-42.1	12.3	3.81e-04	0	61	0	2793406464	49	5215
2026-01-15 13:56:20.91	318.05	8.93	-39.6	-42.1	12.3	2.93e-04	0	61	0	2798649344	49	5205
2026-01-15 13:56:21.92	318.18	8.87	-39.7	-42.2	12.2	3.05e-04	0	61	0	2804940800	49	5256
2026-01-15 13:56:22.92	318.31	8.82	-39.7	-42.3	12.2	4.13e-04	0	60	0	2810183680	50	4984
2026-01-15 13:56:23.93	318.44	8.76	-39.8	-42.4	12.0	4.23e-04	0	60	0	2815426560	50	5075
2026-01-15 13:56:24.94	318.57	8.71	-39.8	-42.4	12.0	5.66e-04	0	60	0	2821718016	50	5070
2026-01-15 13:56:25.95	318.70	8.65	-39.6	-42.1	12.3	3.02e-04	0	61	0	2826960896	50	4921
2026-01-15 13:56:26.96	318.83	8.60	-39.6	-42.1	12.3	2.69e-04	0	60	0	2833252352	50	4905
2026-01-15 13:56:27.97	318.96	8.54	-39.6	-42.1	12.4	2.64e-04	0	61	0	2838495232	50	4872
2026-01-15 13:56:28.98	319.09	8.49	-39.6	-42.2	12.2	2.75e-04	0	60	0	2843738112	50	4931
2026-01-15 13:56:29.99	319.22	8.43	-39.7	-42.3	12.1	3.86e-04	0	61	0	2850029568	50	5012
2026-01-15 13:56:31.00	319.34	8.38	-39.7	-42.2	12.1	3.82e-04	0	60	0	2855272448	50	4974
2026-01-15 13:56:32.01	319.47	8.33	-39.7	-42.3	12.1	4.10e-04	0	60	0	2861563904	50	4984
2026-01-15 13:56:33.02	319.60	8.27	-39.7	-42.2	12.2	4.06e-04	0	60	0	2866806784	50	4974
2026-01-15 13:56:34.03	319.72	8.22	-39.8	-42.4	12.0	4.18e-04	0	60	0	2872049664	50	5044
2026-01-15 13:56:35.04	319.85	8.16	-39.9	-42.5	11.8	5.97e-04	0	60	0	2878341120	50	5154
2026-01-15 13:56:36.05	319.98	8.11	-39.8	-42.5	11.8	6.19e-04	0	61	0	2883584000	50	5127
2026-01-15 13:56:37.06	320.10	8.05	-39.9	-42.6	11.7	6.91e-04	0	60	0	2889875456	50	5188
2026-01-15 13:56:38.07	320.22	8.00	-39.9	-42.5	11.8	7.15e-04	0	61	0	2895118336	50	5150
2026-01-15 13:56:39.08	320.35	7.94	-44.3	-54.9	3.8	8.22e-01	0	61	104	2898264064	59	12794
2026-01-15 13:56:40.09	320.47	7.89	-44.7	-56.0	3.8	8.47e-01	0	60	104	2898264064	59	14469
2026-01-15 13:56:41.10	320.60	7.83	-44.8	-56.5	3.8	8.46e-01	0	60	104	2898264064	60	14443
2026-01-15 13:56:42.11	320.72	7.78	-44.9	-56.6	3.8	8.47e-01	0	61	104	2898264064	60	14637
2026-01-15 13:56:43.12	320.84	7.72	-45.1	-56.7	3.8	8.47e-01	0	60	104	2898264064	60	14869
2026-01-15 13:56:44.13	320.96	7.67	-45.1	-56.8	3.8	8.46e-01	0	61	104	2898264064	60	15004
2026-01-15 13:56:45.14	321.08	7.61	-45.2	-56.9	3.8	8.46e-01	0	61	104	2898264064	60	15099
2026-01-15 13:56:46.15	321.20	7.56	-45.2	-56.9	3.8	8.47e-01	0	61	104	2898264064	60	15197
2026-01-15 13:56:47.16	321.32	7.51	-45.1	-56.9	3.8	8.47e-01	0	61	104	2898264064	61	14285
2026-01-15 13:56:48.17	321.44	7.45	-45.2	-56.8	3.8	8.46e-01	0	61	104	2898264064	61	14207
2026-01-15 13:56:49.18	321.56	7.40	-45.0	-56.9	3.8	8.46e-01	0	61	104	2898264064	60	15120
2026-01-15 13:56:50.19	321.68	7.34	-44.9	-56.9	3.8	8.46e-01	0	61	104	2898264064	60	15070
2026-01-15 13:56:51.20	321.80	7.29	-45.2	-56.9	3.8	8.47e-01	0	61	104	2898264064	60	15071
2026-01-15 13:56:52.21	321.92	7.23	-45.2	-56.8	3.8	8.45e-01	0	61	104	2898264064	61	14160
2026-01-15 13:56:53.22	322.04	7.18	-45.2	-56.8	3.8	8.47e-01	0	60	104	2898264064	61	14184
2026-01-15 13:56:54.23	322.16	7.12	-45.0	-56.8	3.8	8.47e-01	0	61	104	2898264064	61	14124
2026-01-15 13:56:55.24	322.27	7.07	-45.2	-56.8	3.8	8.47e-01	0	61	104	2898264064	61	14142
2026-01-15 13:56:56.25	322.39	7.01	-45.2	-56.8	3.8	8.47e-01	0	61	104	2898264064	61	14145
2026-01-15 13:56:57.26	322.51	6.96	-45.1	-56.8	3.8	8.46e-01	0	60	104	2898264064	61	14127
2026-01-15 13:56:58.27	322.62	6.91	-45.1	-56.8	3.8	8.46e-01	0	60	104	2898264064	61	14145
2026-01-15 13:56:59.28	322.74	6.85	-45.2	-56.8	3.8	8.46e-01	0	60	104	2898264064	61	14137
2026-01-15 13:57:00.29	322.85	6.80	-45.2	-56.8	3.8	8.47e-01	0	61	104	2898264064	61	14176
2026-01-15 13:57:01.29	322.97	6.74	-45.2	-56.8	3.8	8.46e-01	0	61	104	2898264064	61	14170
2026-01-15 13:57:02.31	323.08	6.69	-45.1	-56.8	3.8	8.47e-01	0	60	104	2898264064	61	14131
2026-01-15 13:57:03.32	323.19	6.63	-45.1	-56.8	3.8	8.46e-01	0	61	104	2898264064	60	14956
2026-01-15 13:57:04.33	323.31	6.58	-45.2	-56.8	3.8	8.47e-01	0	60	104	2898264064	60	14918
2026-01-15 13:57:05.33	323.42	6.53	-45.1	-56.8	3.8	8.47e-01	0	61	104	2898264064	60	14966
2026-01-15 13:57:06.34	323.53	6.47	-45.2	-56.8	3.8	8.46e-01	0	61	104	2898264064	60	14965
2026-01-15 13:57:07.36	323.65	6.42	-45.2	-56.8	3.8	8.46e-01	0	61	104	2898264064	60	14991
2026-01-15 13:57:08.37	323.76	6.36	-45.2	-56.8	3.8	8.46e-01	0	61	104	2898264064	60	14941
2026-01-15 13:57:09.37	323.87	6.31	-45.2	-56.8	3.8	8.46e-01	0	61	104	2898264064	60	14944
2026-01-15 13:57:10.38	323.98	6.25	-45.2	-56.8	3.8	8.46e-01	0	61	104	2898264064	60	14951
2026-01-15 13:57:11.39	324.09	6.20	-44.9	-56.8	3.8	8.45e-01	0	61	104	2898264064	60	14946
2026-01-15 13:57:12.40	324.20	6.15	-45.1	-56.8	3.8	8.47e-01	0	61	104	2898264064	60	15020
2026-01-15 13:57:13.41	324.31	6.09	-44.9	-56.8	3.8	8.47e-01	0	61	104	2898264064	60	14884
2026-01-15 13:57:14.42	324.42	6.04	-45.1	-56.8	3.8	8.47e-01	0	61	104	2898264064	60	14908
2026-01-15 13:57:15.43	324.53	5.98	-45.1	-56.8	3.8	8.47e-01	0	60	104	2898264064	60	14941
2026-01-15 13:57:16.44	324.64	5.93	-45.1	-56.8	3.8	8.46e-01	0	60	104	2898264064	60	14959
2026-01-15 13:57:17.45	324.74	5.88	-45.1	-56.8	3.8	8.47e-01	0	61	104	2898264064	60	14968
2026-01-15 13:57:18.46	324.85	5.82	-44.9	-56.8	3.8	8.47e-01	0	60	104	2898264064	60	14910
2026-01-15 13:57:19.47	324.96	5.77	-45.2	-56.8	3.8	8.46e-01	0	61	104	2898264064	60	14994
2026-01-15 13:57:20.48	325.07	5.71	-45.1	-56.8	3.8	8.46e-01	0	61	104	2898264064	60	14927
2026-01-15 13:57:21.49	325.17	5.66	-45.1	-56.8	3.8	8.46e-01	0	61	104	2898264064	60	14884
2026-01-15 13:57:22.50	325.28	5.61	-44.8	-56.8	3.8	8.47e-01	0	61	104	2898264064	60	14947
2026-01-15 13:57:23.51	325.39	5.55	-45.1	-56.7	3.8	8.45e-01	0	61	104	2898264064	60	14844
2026-01-15 13:57:24.51	325.49	5.50	-45.1	-56.8	3.8	8.46e-01	0	61	104	2898264064	60	14940
2026-01-15 13:57:25.52	325.60	5.45	-45.1	-56.8	3.8	8.46e-01	0	61	104	2898264064	60	14956
2026-01-15 13:57:26.53	325.70	5.39	-45.1	-56.8	3.8	8.46e-01	0	61	104	2898264064	60	14885
2026-01-15 13:57:27.54	325.80	5.34	-45.1	-56.8	3.8	8.46e-01	0	61	104	2898264064	60	14976
2026-01-15 13:57:28.55	325.91	5.29	-45.1	-56.8	3.8	8.46e-01	0	61	104	2898264064	60	14888
2026-01-15 13:57:29.56	326.01	5.23	-45.7	-57.1	3.8	8.46e-01	0	61	104	2898264064	60	15423
2026-01-15 13:57:30.58	326.12	5.18	-44.0	-56.5	3.8	8.46e-01	0	61	104	2898264064	59	15391
2026-01-15 13:57:31.59	326.22	5.12	-45.1	-56.8	3.8	8.45e-01	0	60	104	2898264064	60	14938
2026-01-15 13:57:32.60	326.32	5.07	-45.1	-56.8	3.8	8.46e-01	0	61	104	2898264064	60	14936
2026-01-15 13:57:33.61	326.42	5.02	-45.1	-56.8	3.8	8.46e-01	0	61	104	2898264064	60	14923
2026-01-15 13:57:34.62	326.53	4.96	-45.0	-56.8	3.8	8.46e-01	0	61	104	2898264064	60	14883
2026-01-15 13:57:35.63	326.63	4.91	-45.1	-56.8	3.8	8.45e-01	0	61	104	2898264064	60	14961
2026-01-15 13:57:36.64	326.73	4.86	-45.1	-56.8	3.8	8.46e-01	0	61	104	2898264064	60	14919
2026-01-15 13:57:37.65	326.83	4.80	-45.1	-56.8	3.8	8.47e-01	0	61	104	2898264064	60	14940
2026-01-15 13:57:38.66	326.93	4.75	-45.1	-56.7	3.8	8.47e-01	0	61	104	2898264064	60	14819
2026-01-15 13:57:39.67	327.03	4.70	-45.1	-56.8	3.8	8.46e-01	0	61	104	2898264064	60	14890
2026-01-15 13:57:40.68	327.13	4.64	-45.1	-56.8	3.8	8.46e-01	0	61	104	2898264064	60	14902
2026-01-15 13:57:41.69	327.23	4.59	-45.1	-56.8	3.8	8.45e-01	0	61	104	2898264064	60	14917
2026-01-15 13:57:42.70	327.33	4.54	-44.1	-56.7	3.8	8.46e-01	0	61	104	2898264064	60	14840
2026-01-15 13:57:43.71	327.43	4.49	-45.1	-56.8	3.8	8.47e-01	0	61	104	2898264064	60	14941
2026-01-15 13:57:44.72	327.53	4.43	-45.1	-56.8	3.8	8.47e-01	0	61	104	2898264064	60	14954
2026-01-15 13:57:45.73	327.63	4.38	-45.1	-56.8	3.8	8.46e-01	0	61	104	2898264064	60	14892
2026-01-15 13:57:46.74	327.72	4.33	-45.1	-56.8	3.8	8.46e-01	0	61	104	2898264064	60	14890
2026-01-15 13:57:47.75	327.82	4.27	-45.0	-56.8	3.8	8.45e-01	0	61	104	2898264064	60	14883
2026-01-15 13:57:48.76	327.92	4.22	-45.1	-56.8	3.8	8.45e-01	0	61	104	2898264064	60	14886
2026-01-15 13:57:49.77	328.01	4.17	-45.1	-56.8	3.8	8.45e-01	0	61	104	2898264064	60	14899
2026-01-15 13:57:50.78	328.11	4.11	-45.1	-56.7	3.8	8.46e-01	0	61	104	2898264064	60	14861
2026-01-15 13:57:51.79	328.21	4.06	-45.1	-56.8	3.8	8.45e-01	0	61	104	2898264064	60	14883
2026-01-15 13:57:52.81	328.30	4.01	-45.1	-56.8	3.8	8.47e-01	0	61	104	2898264064	60	14934
2026-01-15 13:57:53.82	328.40	3.96	-45.1	-56.8	3.8	8.45e-01	0	61	104	2898264064	60	14906
2026-01-15 13:57:54.82	328.49	3.90	-45.1	-56.8	3.8	8.47e-01	0	61	104	2898264064	60	14922
2026-01-15 13:57:55.83	328.59	3.85	-45.1	-56.7	3.8	8.47e-01	0	61	104	2898264064	60	14870
2026-01-15 13:57:56.84	328.68	3.80	-44.8	-56.7	3.8	8.46e-01	0	61	104	2898264064	60	14862
2026-01-15 13:57:57.85	328.78	3.75	-44.4	-56.8	3.8	8.46e-01	0	61	104	2898264064	60	14898
2026-01-15 13:57:58.86	328.87	3.69	-44.4	-56.7	3.8	8.45e-01	0	61	104	2898264064	60	14793
2026-01-15 13:57:59.87	328.96	3.64	-43.7	-56.5	3.8	8.46e-01	0	61	104	2898264064	59	15381
