passes_logs/2026/01/15/R2.0S_Moscow/R2.0S_Moscow__20260115_053910_FENGYUN_3E_rec.log

#Pass ID: 20260115_053910_FENGYUN 3E
#Satellite: FENGYUN 3E
#Configuration: FENGYUN 3E
#almurnet v.1.7.20251203
#Start time: 2026-01-15 05:39:11

#Version: 2.2.20231116
#Station: R2.0S_Moscow
#Location: 37.707566 lon 55.798166 lat
#TLE: 1 49008U 21062A   26014.30102361 -.00000015  00000+0  13743-4 0  9999
#TLE: 2 49008  98.7489  19.4380 0001989 137.7844 222.3486 14.19884630234745

#Time	Az	El	Level	Level2	SNR	BER	BlckErr	Temp	State	Recorded	gain1	gain2
2026-01-15 05:39:11.67	9.98	2.09	-40.2	-51.2	3.8	8.47e-01	0	48	0	0	51	12499
2026-01-15 05:39:12.68	9.92	2.15	-40.3	-51.3	3.8	8.46e-01	0	49	104	0	51	12540
2026-01-15 05:39:13.68	9.85	2.21	-40.3	-51.3	3.8	8.46e-01	0	49	104	0	51	12543
2026-01-15 05:39:14.69	9.78	2.26	-40.3	-51.2	3.8	8.46e-01	0	49	104	0	51	12516
2026-01-15 05:39:15.70	9.72	2.32	-40.3	-51.3	3.8	8.46e-01	0	49	104	0	51	12535
2026-01-15 05:39:16.71	9.65	2.38	-40.3	-51.3	3.8	8.47e-01	0	49	104	0	51	12542
2026-01-15 05:39:17.72	9.58	2.43	-40.3	-51.3	3.8	8.45e-01	0	49	104	0	51	12553
2026-01-15 05:39:18.73	9.51	2.49	-40.3	-51.3	3.8	8.45e-01	0	49	104	0	51	12538
2026-01-15 05:39:19.74	9.44	2.55	-40.2	-51.3	3.8	8.47e-01	0	49	104	0	51	12529
2026-01-15 05:39:20.75	9.37	2.61	-40.2	-51.3	3.8	8.47e-01	0	49	104	0	51	12545
2026-01-15 05:39:21.76	9.31	2.66	-40.2	-51.3	3.8	8.47e-01	0	49	104	0	51	12553
2026-01-15 05:39:22.77	9.24	2.72	-40.2	-51.3	3.8	8.46e-01	0	50	104	0	51	12539
2026-01-15 05:39:23.78	9.17	2.78	-40.2	-51.3	3.8	8.47e-01	0	50	104	0	51	12573
2026-01-15 05:39:24.79	9.10	2.83	-40.2	-51.2	3.8	8.46e-01	0	49	104	0	51	12507
2026-01-15 05:39:25.80	9.03	2.89	-40.2	-51.3	3.8	8.45e-01	0	50	104	0	51	12547
2026-01-15 05:39:26.81	8.96	2.95	-40.2	-51.2	3.8	8.47e-01	0	50	104	0	51	12510
2026-01-15 05:39:27.82	8.88	3.01	-40.2	-51.3	3.8	8.45e-01	0	50	104	0	51	12558
2026-01-15 05:39:28.83	8.81	3.07	-40.2	-51.2	3.8	8.45e-01	0	50	104	0	51	12513
2026-01-15 05:39:29.85	8.74	3.12	-40.2	-51.2	3.8	8.48e-01	0	50	104	0	51	12504
2026-01-15 05:39:30.84	8.67	3.18	-40.2	-51.3	3.8	8.46e-01	0	50	104	0	51	12521
2026-01-15 05:39:31.85	8.60	3.24	-40.2	-51.2	3.8	8.47e-01	0	50	104	0	51	12507
2026-01-15 05:39:32.86	8.53	3.30	-40.2	-51.3	3.8	8.46e-01	0	50	104	0	51	12530
2026-01-15 05:39:33.88	8.45	3.36	-40.2	-51.3	3.8	8.47e-01	0	50	104	0	51	12521
2026-01-15 05:39:34.89	8.38	3.41	-40.2	-51.3	3.8	8.47e-01	0	50	104	0	51	12527
2026-01-15 05:39:35.90	8.31	3.47	-40.2	-51.2	3.8	8.46e-01	0	50	104	0	51	12492
2026-01-15 05:39:36.91	8.23	3.53	-40.2	-51.2	3.8	8.45e-01	0	50	104	0	51	12471
2026-01-15 05:39:37.92	8.16	3.59	-40.2	-51.2	3.8	8.46e-01	0	50	104	0	51	12477
2026-01-15 05:39:38.93	8.08	3.65	-40.2	-51.2	3.8	8.48e-01	0	51	104	0	51	12518
2026-01-15 05:39:39.94	8.01	3.71	-40.2	-51.3	3.8	8.47e-01	0	51	104	0	51	12556
2026-01-15 05:39:40.95	7.93	3.77	-40.2	-51.2	3.8	8.47e-01	0	51	104	0	51	12499
2026-01-15 05:39:41.96	7.86	3.83	-40.2	-51.2	3.8	8.46e-01	0	51	104	0	51	12511
2026-01-15 05:39:42.97	7.78	3.88	-40.2	-51.3	3.8	8.45e-01	0	51	104	0	51	12524
2026-01-15 05:39:43.98	7.71	3.94	-40.2	-51.2	3.8	8.47e-01	0	51	104	0	51	12495
2026-01-15 05:39:44.99	7.63	4.00	-40.2	-51.2	3.8	8.46e-01	0	51	104	0	51	12494
2026-01-15 05:39:46.00	7.56	4.06	-40.2	-51.2	3.8	8.46e-01	0	51	104	0	51	12497
2026-01-15 05:39:47.01	7.48	4.12	-40.2	-51.2	3.8	8.46e-01	0	51	104	0	51	12517
2026-01-15 05:39:48.02	7.40	4.18	-40.2	-51.2	3.8	8.46e-01	0	51	104	0	51	12483
2026-01-15 05:39:49.03	7.32	4.24	-40.2	-51.2	3.8	8.46e-01	0	51	104	0	51	12492
2026-01-15 05:39:50.04	7.25	4.30	-40.2	-51.2	3.8	8.46e-01	0	51	104	0	51	12486
2026-01-15 05:39:51.05	7.17	4.36	-40.2	-51.2	3.8	8.46e-01	0	51	104	0	51	12505
2026-01-15 05:39:52.06	7.09	4.42	-40.2	-51.3	3.8	8.47e-01	0	51	104	0	51	12526
2026-01-15 05:39:53.08	7.01	4.48	-40.2	-51.2	3.8	8.46e-01	0	51	104	0	51	12505
2026-01-15 05:39:54.09	6.93	4.54	-40.2	-51.2	3.8	8.46e-01	0	52	104	0	51	12503
2026-01-15 05:39:55.10	6.85	4.60	-40.2	-51.2	3.8	8.46e-01	0	52	104	0	51	12502
2026-01-15 05:39:56.11	6.77	4.66	-40.2	-51.3	3.8	8.46e-01	0	51	104	0	51	12538
2026-01-15 05:39:57.12	6.69	4.72	-40.2	-51.3	3.8	8.46e-01	0	52	104	0	51	12550
2026-01-15 05:39:58.13	6.61	4.78	-40.2	-51.3	3.8	8.46e-01	0	52	104	0	51	12532
2026-01-15 05:39:59.14	6.53	4.84	-40.2	-51.2	3.8	8.47e-01	0	52	104	0	51	12516
2026-01-15 05:40:00.15	6.45	4.90	-40.2	-51.2	3.8	8.46e-01	0	52	104	0	51	12494
2026-01-15 05:40:01.16	6.37	4.96	-40.2	-51.3	3.8	8.46e-01	0	52	104	0	51	12552
2026-01-15 05:40:02.17	6.28	5.02	-40.3	-51.3	3.8	8.47e-01	0	52	104	0	51	12541
2026-01-15 05:40:03.18	6.20	5.08	-40.2	-51.3	3.8	8.45e-01	0	52	104	0	51	12526
2026-01-15 05:40:04.19	6.12	5.14	-40.2	-51.2	3.8	8.47e-01	0	52	104	0	51	12512
2026-01-15 05:40:05.20	6.04	5.20	-40.2	-51.2	3.8	8.47e-01	0	52	104	0	51	12515
2026-01-15 05:40:06.21	5.95	5.26	-40.2	-51.2	3.8	8.45e-01	0	52	104	0	51	12495
2026-01-15 05:40:07.22	5.87	5.33	-40.2	-51.2	3.8	8.46e-01	0	52	104	0	51	12505
2026-01-15 05:40:08.24	5.78	5.39	-40.2	-51.2	3.8	8.46e-01	0	52	104	0	51	12490
2026-01-15 05:40:09.25	5.70	5.45	-40.2	-51.3	3.8	8.47e-01	0	52	104	0	51	12525
2026-01-15 05:40:10.26	5.62	5.51	-40.2	-51.2	3.8	8.45e-01	0	52	104	0	51	12471
2026-01-15 05:40:11.27	5.53	5.57	-40.2	-51.2	3.8	8.46e-01	0	52	104	0	51	12498
2026-01-15 05:40:12.28	5.44	5.63	-40.2	-51.2	3.8	8.46e-01	0	52	104	0	51	12505
2026-01-15 05:40:13.29	5.36	5.69	-40.2	-51.2	3.8	8.47e-01	0	52	104	0	51	12480
2026-01-15 05:40:14.30	5.27	5.75	-40.2	-51.3	3.8	8.46e-01	0	53	104	0	51	12554
2026-01-15 05:40:15.31	5.19	5.82	-40.2	-51.3	3.8	8.46e-01	0	53	104	0	51	12523
2026-01-15 05:40:16.32	5.10	5.88	-40.2	-51.2	3.8	8.47e-01	0	52	104	0	51	12466
2026-01-15 05:40:17.33	5.01	5.94	-40.2	-51.2	3.8	8.47e-01	0	53	104	0	51	12498
2026-01-15 05:40:18.34	4.92	6.00	-40.2	-51.2	3.8	8.46e-01	0	53	104	0	51	12488
2026-01-15 05:40:19.35	4.83	6.06	-40.2	-51.3	3.8	8.46e-01	0	53	104	0	51	12536
2026-01-15 05:40:20.36	4.75	6.13	-40.2	-51.3	3.8	8.46e-01	0	53	104	0	51	12545
2026-01-15 05:40:21.37	4.66	6.19	-40.2	-51.3	3.8	8.46e-01	0	53	104	0	51	12572
2026-01-15 05:40:22.38	4.57	6.25	-40.2	-51.2	3.8	8.46e-01	0	53	104	0	51	12519
2026-01-15 05:40:23.39	4.48	6.31	-40.2	-51.2	3.8	8.46e-01	0	53	104	0	51	12507
2026-01-15 05:40:24.40	4.39	6.37	-40.2	-51.2	3.8	8.46e-01	0	53	104	0	51	12486
2026-01-15 05:40:25.41	4.30	6.44	-40.2	-51.3	3.8	8.47e-01	0	53	104	0	51	12551
2026-01-15 05:40:26.42	4.20	6.50	-40.2	-51.2	3.8	8.46e-01	0	53	104	0	51	12479
2026-01-15 05:40:27.43	4.11	6.56	-40.2	-51.2	3.8	8.46e-01	0	53	104	0	51	12490
2026-01-15 05:40:28.44	4.02	6.62	-40.2	-51.2	3.8	8.46e-01	0	53	104	0	51	12485
2026-01-15 05:40:29.46	3.93	6.69	-40.2	-51.2	3.8	8.47e-01	0	53	104	0	51	12482
2026-01-15 05:40:30.46	3.84	6.75	-40.2	-51.2	3.8	8.46e-01	0	53	104	0	51	12503
2026-01-15 05:40:31.47	3.74	6.81	-40.2	-51.2	3.8	8.46e-01	0	53	104	0	51	12475
2026-01-15 05:40:32.48	3.65	6.88	-40.2	-51.2	3.8	8.45e-01	0	53	104	0	51	12509
2026-01-15 05:40:33.49	3.56	6.94	-40.2	-51.2	3.8	8.47e-01	0	53	104	0	51	12514
2026-01-15 05:40:34.50	3.46	7.00	-40.2	-51.2	3.8	8.46e-01	0	54	104	0	51	12487
2026-01-15 05:40:35.51	3.37	7.07	-40.2	-51.3	3.8	8.47e-01	0	53	104	0	51	12563
2026-01-15 05:40:36.52	3.27	7.13	-40.2	-51.2	3.8	8.46e-01	0	53	104	0	51	12512
2026-01-15 05:40:37.53	3.17	7.19	-40.2	-51.2	3.8	8.45e-01	0	54	104	0	51	12435
2026-01-15 05:40:38.54	3.08	7.26	-40.2	-51.2	3.8	8.46e-01	0	54	104	0	51	12492
2026-01-15 05:40:39.55	2.98	7.32	-40.2	-51.2	3.8	8.46e-01	0	54	104	0	51	12512
2026-01-15 05:40:40.57	2.88	7.38	-40.2	-51.2	3.8	8.46e-01	0	54	104	0	51	12492
2026-01-15 05:40:41.57	2.79	7.45	-40.2	-51.3	3.8	8.46e-01	0	54	104	0	51	12540
2026-01-15 05:40:42.59	2.69	7.51	-40.2	-51.2	3.8	8.46e-01	0	54	104	0	51	12497
2026-01-15 05:40:43.60	2.59	7.57	-40.2	-51.2	3.8	8.45e-01	0	54	104	0	51	12471
2026-01-15 05:40:44.61	2.49	7.64	-40.2	-51.2	3.8	8.46e-01	0	54	104	0	51	12518
2026-01-15 05:40:45.62	2.39	7.70	-40.2	-51.3	3.8	8.46e-01	0	54	104	0	51	12543
2026-01-15 05:40:46.63	2.29	7.77	-40.2	-51.3	3.8	8.46e-01	0	54	104	0	51	12544
2026-01-15 05:40:47.64	2.19	7.83	-40.2	-51.2	3.8	8.46e-01	0	54	104	0	51	12454
2026-01-15 05:40:48.65	2.09	7.90	-40.2	-51.2	3.8	8.44e-01	0	54	104	0	51	12502
2026-01-15 05:40:49.66	1.99	7.96	-40.2	-51.2	3.8	8.47e-01	0	54	104	0	51	12453
2026-01-15 05:40:50.67	1.89	8.02	-40.2	-51.2	3.8	8.47e-01	0	54	104	0	51	12505
2026-01-15 05:40:51.68	1.79	8.09	-40.1	-51.2	3.8	8.46e-01	0	54	104	0	51	12474
2026-01-15 05:40:52.69	1.68	8.15	-40.2	-51.3	3.8	8.46e-01	0	54	104	0	51	12542
2026-01-15 05:40:53.70	1.58	8.22	-40.3	-51.3	3.8	8.46e-01	0	54	104	0	51	12663
2026-01-15 05:40:54.71	1.48	8.28	-40.5	-51.4	3.8	8.46e-01	0	54	104	0	51	12727
2026-01-15 05:40:55.72	1.37	8.35	-40.1	-51.2	3.8	8.46e-01	0	54	104	0	51	12518
2026-01-15 05:40:56.73	1.27	8.41	-40.3	-51.3	3.8	8.46e-01	0	54	104	0	51	12588
2026-01-15 05:40:57.74	1.16	8.48	-40.1	-51.2	3.8	8.47e-01	0	54	104	0	51	12441
2026-01-15 05:40:58.75	1.06	8.54	-40.2	-51.3	3.8	8.46e-01	0	54	104	0	51	12562
2026-01-15 05:40:59.75	0.95	8.61	-40.2	-51.3	3.8	8.48e-01	0	54	104	0	51	12571
2026-01-15 05:41:00.76	0.85	8.67	-40.2	-51.3	3.8	8.45e-01	0	54	104	0	51	12575
2026-01-15 05:41:01.77	0.74	8.74	-40.2	-51.3	3.8	8.46e-01	0	54	104	0	51	12537
2026-01-15 05:41:02.78	0.63	8.80	-40.3	-51.3	3.8	8.46e-01	0	54	104	0	51	12588
2026-01-15 05:41:03.79	0.53	8.87	-40.0	-51.2	3.8	8.46e-01	0	54	104	0	51	12477
2026-01-15 05:41:04.80	0.42	8.93	-40.3	-51.3	3.8	8.45e-01	0	54	104	0	51	12638
2026-01-15 05:41:05.81	0.31	9.00	-40.0	-51.3	3.8	8.45e-01	0	54	104	0	51	12567
2026-01-15 05:41:06.82	0.20	9.06	-39.7	-51.3	3.8	8.46e-01	0	54	104	0	50	13373
2026-01-15 05:41:07.83	0.09	9.13	-40.1	-51.2	3.8	8.48e-01	0	55	104	0	50	13260
2026-01-15 05:41:08.84	359.98	9.20	-39.7	-51.3	3.8	8.45e-01	0	55	104	0	50	13300
2026-01-15 05:41:09.85	359.87	9.26	-40.1	-51.3	3.8	8.46e-01	0	55	104	0	50	13266
2026-01-15 05:41:10.86	359.76	9.33	-40.2	-51.3	3.8	8.46e-01	0	55	104	0	50	13330
2026-01-15 05:41:11.86	359.64	9.39	-39.7	-51.3	3.8	8.47e-01	0	55	104	0	50	13276
2026-01-15 05:41:12.88	359.53	9.46	-40.1	-51.3	3.8	8.47e-01	0	55	104	0	50	13389
2026-01-15 05:41:13.88	359.42	9.52	-39.7	-51.3	3.8	8.47e-01	0	55	104	0	50	13286
2026-01-15 05:41:14.89	359.31	9.59	-40.0	-51.3	3.8	8.46e-01	0	55	104	0	50	13268
2026-01-15 05:41:15.90	359.19	9.66	-39.8	-51.3	3.8	8.46e-01	0	55	104	0	50	13299
2026-01-15 05:41:16.92	359.08	9.72	-40.1	-51.3	3.8	8.46e-01	0	55	104	0	50	13304
2026-01-15 05:41:17.92	358.96	9.79	-39.7	-51.2	3.8	8.46e-01	0	55	104	0	50	13247
2026-01-15 05:41:18.93	358.85	9.86	-40.1	-51.4	3.8	8.46e-01	0	55	104	0	50	13487
2026-01-15 05:41:19.94	358.73	9.92	-39.9	-51.2	3.8	8.46e-01	0	55	104	0	50	13151
2026-01-15 05:41:20.95	358.61	9.99	-40.2	-51.4	3.8	8.46e-01	0	55	104	0	50	13493
2026-01-15 05:41:21.96	358.50	10.06	-40.0	-51.2	3.8	8.46e-01	0	55	104	0	50	13159
2026-01-15 05:41:22.97	358.38	10.12	-40.2	-51.4	3.8	8.47e-01	0	55	104	0	50	13555
2026-01-15 05:41:23.98	358.26	10.19	-39.8	-51.3	3.8	8.47e-01	0	55	104	0	50	13270
2026-01-15 05:41:24.99	358.14	10.26	-40.3	-51.5	3.8	8.47e-01	0	55	104	0	50	13613
2026-01-15 05:41:26.00	358.02	10.32	-40.0	-51.2	3.8	8.46e-01	0	55	104	0	50	13242
2026-01-15 05:41:27.01	357.90	10.39	-40.4	-51.6	3.8	8.47e-01	0	55	104	0	50	13754
2026-01-15 05:41:28.02	357.78	10.46	-39.9	-51.2	3.8	8.46e-01	0	55	104	0	50	13202
2026-01-15 05:41:29.03	357.66	10.52	-40.4	-51.6	3.8	8.45e-01	0	55	104	0	50	13807
2026-01-15 05:41:30.04	357.54	10.59	-39.8	-51.2	3.8	8.47e-01	0	55	104	0	50	13231
2026-01-15 05:41:31.05	357.41	10.66	-40.6	-51.5	3.8	8.46e-01	0	55	104	0	50	13636
2026-01-15 05:41:32.06	357.29	10.73	-40.1	-51.4	3.8	8.46e-01	0	55	104	0	50	13458
2026-01-15 05:41:33.07	357.17	10.79	-40.6	-51.6	3.8	8.47e-01	0	55	104	0	50	13753
2026-01-15 05:41:34.08	357.04	10.86	-40.2	-51.4	3.8	8.46e-01	0	55	104	0	50	13489
2026-01-15 05:41:35.09	356.92	10.93	-40.7	-51.9	3.8	8.46e-01	0	55	104	0	50	14293
2026-01-15 05:41:36.10	356.79	10.99	-40.1	-51.3	3.8	8.47e-01	0	55	104	0	50	13270
2026-01-15 05:41:37.11	356.67	11.06	-40.1	-51.2	3.8	8.45e-01	0	56	104	0	50	13252
2026-01-15 05:41:38.12	356.54	11.13	-40.2	-51.2	3.8	8.47e-01	0	55	104	0	50	13245
2026-01-15 05:41:39.13	356.41	11.20	-40.2	-51.2	3.8	8.46e-01	0	55	104	0	50	13237
2026-01-15 05:41:40.14	356.29	11.26	-40.3	-51.3	3.8	8.45e-01	0	56	104	0	50	13297
2026-01-15 05:41:41.15	356.16	11.33	-40.7	-51.8	3.8	8.46e-01	0	56	104	0	51	13382
2026-01-15 05:41:42.16	356.03	11.40	-40.6	-51.4	3.8	8.45e-01	0	56	104	0	51	12802
2026-01-15 05:41:43.16	355.90	11.47	-41.1	-51.8	3.8	8.47e-01	0	56	104	0	52	12605
2026-01-15 05:41:44.18	355.77	11.54	-40.4	-51.5	3.8	8.47e-01	0	56	104	0	51	12915
2026-01-15 05:41:45.19	355.64	11.60	-41.2	-52.1	3.8	8.47e-01	0	55	104	0	52	13031
2026-01-15 05:41:46.20	355.51	11.67	-40.5	-51.5	3.8	8.45e-01	0	56	104	0	51	12921
2026-01-15 05:41:47.21	355.37	11.74	-40.8	-51.7	3.8	8.46e-01	0	56	104	0	51	13125
2026-01-15 05:41:48.22	355.24	11.81	-40.4	-51.5	3.8	8.45e-01	0	56	104	0	51	12854
2026-01-15 05:41:49.23	355.11	11.87	-40.6	-51.7	3.8	8.47e-01	0	56	104	0	51	13116
2026-01-15 05:41:50.24	354.97	11.94	-40.7	-51.5	3.8	8.45e-01	0	56	104	0	51	12954
2026-01-15 05:41:51.25	354.84	12.01	-40.8	-51.7	3.8	8.45e-01	0	56	104	0	51	13115
2026-01-15 05:41:52.26	354.70	12.08	-40.7	-51.7	3.8	8.47e-01	0	56	104	0	51	13120
2026-01-15 05:41:53.27	354.57	12.15	-40.8	-51.7	3.8	8.46e-01	0	56	104	0	51	13204
2026-01-15 05:41:54.28	354.43	12.21	-40.9	-51.9	3.8	8.46e-01	0	56	104	0	51	13468
2026-01-15 05:41:55.29	354.29	12.28	-40.9	-51.7	3.8	8.46e-01	0	56	104	0	51	13259
2026-01-15 05:41:56.30	354.16	12.35	-41.0	-51.9	3.8	8.46e-01	0	56	104	0	51	13479
2026-01-15 05:41:57.31	354.02	12.42	-40.9	-51.8	3.8	8.45e-01	0	56	104	0	51	13265
2026-01-15 05:41:58.32	353.88	12.49	-40.9	-51.9	3.8	8.46e-01	0	56	104	0	51	13450
2026-01-15 05:41:59.33	353.74	12.56	-40.8	-51.8	3.8	8.45e-01	0	56	104	0	51	13296
2026-01-15 05:42:00.34	353.60	12.62	-40.6	-51.7	3.8	8.46e-01	0	56	104	0	51	13179
2026-01-15 05:42:01.35	353.46	12.69	-40.9	-51.8	3.8	8.46e-01	0	56	104	0	51	13320
2026-01-15 05:42:02.36	353.32	12.76	-40.8	-51.9	3.8	8.46e-01	0	56	104	0	51	13418
2026-01-15 05:42:03.37	353.17	12.83	-41.0	-52.0	3.8	8.46e-01	0	56	104	0	51	13598
2026-01-15 05:42:04.38	353.03	12.90	-40.9	-51.8	3.8	8.46e-01	0	56	104	0	51	13320
2026-01-15 05:42:05.39	352.89	12.97	-41.0	-52.1	3.8	8.46e-01	0	56	104	0	51	13757
2026-01-15 05:42:06.40	352.74	13.03	-40.9	-51.8	3.8	8.47e-01	0	56	104	0	51	13389
2026-01-15 05:42:07.41	352.60	13.10	-41.0	-52.1	3.8	8.46e-01	0	56	104	0	51	13742
2026-01-15 05:42:08.42	352.45	13.17	-40.9	-51.9	3.8	8.47e-01	0	56	104	0	51	13530
2026-01-15 05:42:09.43	352.30	13.24	-41.0	-52.1	3.8	8.46e-01	0	56	104	0	51	13867
2026-01-15 05:42:10.44	352.16	13.31	-40.9	-51.9	3.8	8.46e-01	0	56	104	0	51	13507
2026-01-15 05:42:11.45	352.01	13.38	-41.1	-52.1	3.8	8.45e-01	0	56	104	0	51	13766
2026-01-15 05:42:12.46	351.86	13.44	-41.0	-52.1	3.8	8.46e-01	0	56	104	0	51	13815
2026-01-15 05:42:13.47	351.71	13.51	-41.1	-52.1	3.8	8.46e-01	0	56	104	0	51	13766
2026-01-15 05:42:14.48	351.56	13.58	-41.1	-52.1	3.8	8.47e-01	0	56	104	0	51	13818
2026-01-15 05:42:15.49	351.41	13.65	-41.1	-52.1	3.8	8.46e-01	0	56	104	0	51	13767
2026-01-15 05:42:16.50	351.26	13.72	-41.2	-52.1	3.8	8.46e-01	0	56	104	0	52	13033
2026-01-15 05:42:17.51	351.10	13.79	-41.0	-52.1	3.8	8.47e-01	0	56	104	0	52	12977
2026-01-15 05:42:18.52	350.95	13.85	-41.3	-52.2	3.8	8.45e-01	0	56	104	0	52	13219
2026-01-15 05:42:19.53	350.80	13.92	-41.1	-52.2	3.8	8.46e-01	0	56	104	0	52	13138
2026-01-15 05:42:20.54	350.64	13.99	-41.1	-52.1	3.8	8.45e-01	0	56	104	0	52	13030
2026-01-15 05:42:21.55	350.49	14.06	-41.1	-52.1	3.8	8.46e-01	0	56	104	0	52	13059
2026-01-15 05:42:22.56	350.33	14.13	-40.9	-52.1	3.8	8.45e-01	0	56	104	0	52	13004
2026-01-15 05:42:23.57	350.18	14.20	-41.0	-52.1	3.8	8.45e-01	0	56	104	0	52	12963
2026-01-15 05:42:24.58	350.02	14.26	-40.9	-52.0	3.8	8.45e-01	0	56	104	0	52	12910
2026-01-15 05:42:25.59	349.86	14.33	-41.0	-52.1	3.8	8.47e-01	0	56	104	0	52	12975
2026-01-15 05:42:26.60	349.70	14.40	-41.4	-52.3	3.8	8.46e-01	0	56	104	0	52	13353
2026-01-15 05:42:27.60	349.54	14.47	-41.0	-52.2	3.8	8.47e-01	0	56	104	0	52	13113
2026-01-15 05:42:28.61	349.38	14.54	-40.9	-52.0	3.8	8.46e-01	0	56	104	0	52	12914
2026-01-15 05:42:29.62	349.22	14.60	-40.9	-52.1	3.8	8.46e-01	0	56	104	0	52	12972
2026-01-15 05:42:30.63	349.06	14.67	-40.9	-52.1	3.8	8.46e-01	0	56	104	0	52	13025
2026-01-15 05:42:31.64	348.90	14.74	-41.0	-52.3	3.8	8.47e-01	0	57	104	0	52	13280
2026-01-15 05:42:32.65	348.73	14.81	-41.3	-52.5	3.8	8.46e-01	0	56	104	0	52	13647
2026-01-15 05:42:33.66	348.57	14.88	-41.7	-52.6	3.8	8.46e-01	0	57	104	0	52	13851
2026-01-15 05:42:34.67	348.40	14.94	-41.8	-52.8	3.8	8.47e-01	0	56	104	0	53	13317
2026-01-15 05:42:35.67	348.24	15.01	-41.7	-52.7	3.8	8.47e-01	0	56	104	0	53	13167
2026-01-15 05:42:36.68	348.07	15.08	-41.8	-52.8	3.8	8.46e-01	0	57	104	0	53	13302
2026-01-15 05:42:37.69	347.91	15.15	-41.8	-52.7	3.8	8.47e-01	0	56	104	0	53	13203
2026-01-15 05:42:38.70	347.74	15.21	-41.5	-52.6	3.8	8.45e-01	0	57	104	0	53	13004
2026-01-15 05:42:39.71	347.57	15.28	-41.7	-52.8	3.8	8.45e-01	0	57	104	0	53	13388
2026-01-15 05:42:40.72	347.40	15.35	-41.7	-52.6	3.8	8.47e-01	0	57	104	0	53	13105
2026-01-15 05:42:41.73	347.23	15.42	-41.7	-52.9	3.8	8.46e-01	0	57	104	0	53	13463
2026-01-15 05:42:42.74	347.06	15.48	-41.7	-52.6	3.8	8.46e-01	0	57	104	0	53	13030
2026-01-15 05:42:43.75	346.89	15.55	-41.8	-52.8	3.8	8.45e-01	0	57	104	0	53	13378
2026-01-15 05:42:44.76	346.71	15.62	-41.5	-52.4	3.8	8.47e-01	0	57	104	0	53	12775
2026-01-15 05:42:45.77	346.54	15.69	-41.8	-52.8	3.8	8.46e-01	0	57	104	0	53	13390
2026-01-15 05:42:46.78	346.37	15.75	-41.5	-52.5	3.8	8.46e-01	0	57	104	0	53	12842
2026-01-15 05:42:47.79	346.19	15.82	-41.2	-52.3	3.8	8.47e-01	0	57	104	0	53	12608
2026-01-15 05:42:48.80	346.01	15.89	-41.2	-52.2	3.8	8.46e-01	0	57	104	0	53	12401
2026-01-15 05:42:49.81	345.84	15.95	-41.2	-52.1	3.8	8.44e-01	0	57	104	0	53	12324
2026-01-15 05:42:50.82	345.66	16.02	-41.1	-52.1	3.8	8.45e-01	0	57	104	0	53	12306
2026-01-15 05:42:51.83	345.48	16.09	-41.0	-52.3	3.8	8.45e-01	0	57	104	0	53	12536
2026-01-15 05:42:52.83	345.30	16.15	-41.4	-52.3	3.8	8.47e-01	0	57	104	0	53	12635
2026-01-15 05:42:53.84	345.12	16.22	-41.4	-52.4	3.8	8.46e-01	0	57	104	0	53	12743
2026-01-15 05:42:54.85	344.94	16.29	-40.6	-52.0	3.8	8.45e-01	0	57	104	0	52	12845
2026-01-15 05:42:55.86	344.76	16.35	-41.2	-52.1	3.8	8.45e-01	0	57	104	0	52	13040
2026-01-15 05:42:56.87	344.58	16.42	-40.5	-52.0	3.8	8.46e-01	0	57	104	0	51	13666
2026-01-15 05:42:57.88	344.40	16.48	-41.2	-52.2	3.8	8.46e-01	0	57	104	0	52	13118
2026-01-15 05:42:58.89	344.21	16.55	-41.1	-52.2	3.8	8.46e-01	0	57	104	0	52	13256
2026-01-15 05:42:59.90	344.03	16.62	-41.0	-52.1	3.8	8.46e-01	0	57	104	0	51	13789
2026-01-15 05:43:00.91	343.84	16.68	-40.8	-52.2	3.8	8.45e-01	0	57	104	0	51	13920
2026-01-15 05:43:01.92	343.66	16.75	-41.0	-52.1	3.8	8.46e-01	0	57	104	0	51	13794
2026-01-15 05:43:02.93	343.47	16.81	-40.9	-52.1	3.8	8.48e-01	0	57	104	0	51	13783
2026-01-15 05:43:03.93	343.28	16.88	-40.4	-52.0	3.8	8.47e-01	0	57	104	0	51	13640
2026-01-15 05:43:04.94	343.09	16.94	-40.8	-52.1	3.8	8.47e-01	0	57	104	0	51	13764
2026-01-15 05:43:05.95	342.90	17.01	-40.5	-52.0	3.8	8.46e-01	0	57	104	0	51	13621
2026-01-15 05:43:06.97	342.71	17.07	-41.1	-52.1	3.8	8.46e-01	0	57	104	0	51	13802
2026-01-15 05:43:07.98	342.52	17.14	-41.0	-52.0	3.8	8.46e-01	0	57	104	0	51	13617
2026-01-15 05:43:08.99	342.33	17.20	-41.2	-52.1	3.8	8.47e-01	0	57	104	0	51	13811
2026-01-15 05:43:10.00	342.13	17.26	-40.9	-51.9	3.8	8.46e-01	0	57	104	0	51	13509
2026-01-15 05:43:11.01	341.94	17.33	-41.3	-52.1	3.8	8.46e-01	0	57	104	0	52	13015
2026-01-15 05:43:12.02	341.74	17.39	-40.7	-52.0	3.8	8.45e-01	0	57	104	0	52	12829
2026-01-15 05:43:13.03	341.55	17.46	-41.5	-52.2	3.8	8.46e-01	0	57	104	0	52	13217
2026-01-15 05:43:14.04	341.35	17.52	-40.6	-51.9	3.8	8.46e-01	0	57	104	0	52	12740
2026-01-15 05:43:15.05	341.15	17.58	-41.3	-52.3	3.8	8.47e-01	0	57	104	0	52	13404
2026-01-15 05:43:16.06	340.96	17.65	-41.0	-52.0	3.8	8.46e-01	0	57	104	0	52	12815
2026-01-15 05:43:17.07	340.76	17.71	-41.5	-52.3	3.8	8.46e-01	0	57	104	0	52	13407
2026-01-15 05:43:18.07	340.56	17.77	-41.2	-51.8	3.8	8.45e-01	0	57	104	0	52	12616
2026-01-15 05:43:19.08	340.36	17.83	-42.1	-52.1	3.8	8.46e-01	0	57	104	0	53	12270
2026-01-15 05:43:20.10	340.15	17.90	-41.0	-51.5	3.8	8.47e-01	0	57	104	0	52	12141
2026-01-15 05:43:21.11	339.95	17.96	-41.0	-51.3	3.8	8.46e-01	0	57	104	0	52	11831
2026-01-15 05:43:22.12	339.75	18.02	-41.1	-50.7	3.8	8.46e-01	0	57	104	0	52	11137
2026-01-15 05:43:23.13	339.54	18.08	-41.2	-50.2	3.8	8.45e-01	0	57	104	0	52	10443
2026-01-15 05:43:24.14	339.34	18.14	-41.4	-49.4	4.2	8.39e-01	0	57	0	0	52	9507
2026-01-15 05:43:25.15	339.13	18.21	-41.5	-48.6	4.5	8.26e-01	0	57	0	0	52	8708
2026-01-15 05:43:26.15	338.93	18.27	-41.7	-48.3	4.9	7.94e-01	0	57	0	0	53	7916
2026-01-15 05:43:27.16	338.72	18.33	-41.7	-47.6	5.3	7.48e-01	0	57	0	0	53	7336
2026-01-15 05:43:28.17	338.51	18.39	-41.6	-46.8	6.0	3.89e-01	0	57	0	2097152	53	6717
2026-01-15 05:43:29.18	338.30	18.45	-41.6	-46.6	6.3	2.81e-01	0	57	0	9437184	53	6515
2026-01-15 05:43:30.19	338.09	18.51	-41.7	-46.7	6.3	3.02e-01	0	57	0	16777216	53	6623
2026-01-15 05:43:31.19	337.89	18.57	-41.4	-45.8	7.3	1.53e-01	0	57	0	24117248	53	5926
2026-01-15 05:43:32.21	337.67	18.63	-41.2	-45.3	7.8	8.36e-02	0	57	0	31457280	53	5612
2026-01-15 05:43:33.22	337.46	18.69	-41.7	-46.3	7.1	1.28e-01	0	57	0	38797312	53	6276
2026-01-15 05:43:34.23	337.25	18.74	-41.6	-45.7	7.7	1.19e-01	0	57	0	46137344	53	5885
2026-01-15 05:43:35.24	337.03	18.80	-41.2	-44.8	8.7	3.72e-02	0	57	0	53477376	53	5323
2026-01-15 05:43:36.24	336.82	18.86	-41.6	-45.5	8.2	4.90e-02	0	57	0	60817408	53	5745
2026-01-15 05:43:37.25	336.60	18.92	-41.6	-45.3	8.5	6.10e-02	0	57	0	68157440	53	5651
2026-01-15 05:43:38.26	336.39	18.98	-41.4	-44.8	9.2	2.14e-02	0	57	0	75497472	53	5320
2026-01-15 05:43:39.26	336.17	19.03	-41.5	-45.0	9.1	2.37e-02	0	57	0	82837504	53	5446
2026-01-15 05:43:40.27	335.95	19.09	-41.5	-44.9	9.3	2.03e-02	0	57	0	90177536	53	5360
2026-01-15 05:43:41.28	335.73	19.15	-41.6	-45.1	9.1	2.56e-02	0	57	0	97517568	53	5480
2026-01-15 05:43:42.29	335.51	19.21	-41.6	-45.2	9.0	2.30e-02	0	57	0	104857600	53	5531
2026-01-15 05:43:43.30	335.29	19.26	-41.7	-45.2	9.1	2.43e-02	0	57	0	111149056	53	5533
2026-01-15 05:43:44.31	335.07	19.32	-41.7	-45.2	9.1	2.38e-02	0	57	0	118489088	53	5546
2026-01-15 05:43:45.31	334.85	19.37	-41.6	-45.0	9.3	2.28e-02	0	57	0	126877696	53	5451
2026-01-15 05:43:46.32	334.63	19.43	-41.5	-44.7	9.7	1.27e-02	0	57	0	133169152	53	5240
2026-01-15 05:43:47.33	334.40	19.48	-41.2	-44.2	10.2	7.24e-03	0	57	0	140509184	53	4959
2026-01-15 05:43:48.34	334.18	19.54	-41.1	-44.0	10.5	5.70e-03	0	57	0	147849216	53	4854
2026-01-15 05:43:49.35	333.95	19.59	-40.8	-43.5	11.1	2.02e-03	0	57	0	155189248	52	4835
2026-01-15 05:43:50.36	333.72	19.65	-40.6	-43.1	11.5	1.01e-03	0	57	0	162529280	52	4637
2026-01-15 05:43:51.37	333.50	19.70	-40.4	-42.7	12.1	4.44e-04	0	57	0	169869312	51	4690
2026-01-15 05:43:52.38	333.27	19.75	-39.8	-41.9	12.9	6.52e-05	0	57	0	177209344	50	4538
2026-01-15 05:43:53.39	333.04	19.81	-39.3	-41.2	13.7	8.00e-06	0	57	0	184549376	49	4414
2026-01-15 05:43:54.40	332.81	19.86	-38.8	-40.6	14.3	2.20e-06	0	57	0	191889408	48	4382
2026-01-15 05:43:55.41	332.58	19.91	-38.3	-39.9	14.8	0.00e+00	0	57	0	199229440	47	4284
2026-01-15 05:43:56.42	332.35	19.96	-37.8	-39.3	15.4	0.00e+00	0	57	0	206569472	46	4237
2026-01-15 05:43:57.43	332.11	20.01	-37.4	-38.9	15.9	0.00e+00	0	57	0	213909504	45	4271
2026-01-15 05:43:58.44	331.88	20.07	-37.2	-38.6	16.2	0.00e+00	0	57	0	221249536	45	4139
2026-01-15 05:43:59.45	331.65	20.12	-36.9	-38.3	16.5	0.00e+00	0	57	0	228589568	44	4228
2026-01-15 05:44:00.46	331.41	20.17	-36.6	-37.9	16.9	0.00e+00	0	57	0	235929600	44	4047
2026-01-15 05:44:01.47	331.18	20.22	-36.7	-38.1	16.8	0.00e+00	0	57	0	243269632	44	4104
2026-01-15 05:44:02.48	330.94	20.27	-36.8	-38.2	16.7	0.00e+00	0	57	0	250609664	44	4176
2026-01-15 05:44:03.49	330.70	20.32	-36.7	-38.1	16.8	0.00e+00	0	57	0	256901120	44	4121
2026-01-15 05:44:04.50	330.46	20.36	-36.7	-38.1	16.8	0.00e+00	0	57	0	264241152	44	4119
2026-01-15 05:44:05.51	330.23	20.41	-36.7	-38.0	16.9	0.00e+00	0	57	0	271581184	44	4085
2026-01-15 05:44:06.52	329.99	20.46	-36.7	-38.0	16.9	0.00e+00	0	57	0	278921216	44	4084
2026-01-15 05:44:07.53	329.75	20.51	-36.8	-38.2	16.7	0.00e+00	0	57	0	286261248	44	4152
2026-01-15 05:44:08.54	329.51	20.55	-36.7	-38.1	16.8	0.00e+00	0	57	0	293601280	44	4109
2026-01-15 05:44:09.55	329.26	20.60	-36.7	-38.1	16.8	0.00e+00	0	57	0	300941312	44	4124
2026-01-15 05:44:10.56	329.02	20.65	-36.6	-38.0	16.9	0.00e+00	0	57	0	308281344	44	4062
2026-01-15 05:44:11.57	328.78	20.69	-36.5	-37.8	17.1	0.00e+00	0	57	0	315621376	44	3999
2026-01-15 05:44:12.58	328.54	20.74	-36.5	-37.8	17.1	0.00e+00	0	57	0	322961408	44	3999
2026-01-15 05:44:13.59	328.29	20.78	-36.4	-37.7	17.1	0.00e+00	0	57	0	330301440	43	4153
2026-01-15 05:44:14.60	328.05	20.83	-36.3	-37.6	17.1	0.00e+00	0	58	0	337641472	43	4127
2026-01-15 05:44:15.61	327.80	20.87	-36.2	-37.5	17.3	0.00e+00	0	57	0	344981504	43	4075
2026-01-15 05:44:16.62	327.55	20.91	-36.1	-37.4	17.4	0.00e+00	0	57	0	352321536	43	4026
2026-01-15 05:44:17.63	327.31	20.96	-36.0	-37.3	17.5	0.00e+00	0	57	0	359661568	43	3970
2026-01-15 05:44:18.64	327.06	21.00	-36.0	-37.2	17.5	0.00e+00	0	57	0	367001600	42	4193
2026-01-15 05:44:19.65	326.81	21.04	-35.9	-37.1	17.6	0.00e+00	0	57	0	374341632	42	4127
2026-01-15 05:44:20.66	326.56	21.08	-36.0	-37.2	17.5	0.00e+00	0	57	0	381681664	42	4174
2026-01-15 05:44:21.67	326.31	21.12	-36.0	-37.2	17.5	0.00e+00	0	57	0	389021696	42	4186
2026-01-15 05:44:22.68	326.06	21.16	-36.0	-37.3	17.5	0.00e+00	0	58	0	396361728	42	4211
2026-01-15 05:44:23.69	325.81	21.20	-36.0	-37.3	17.5	0.00e+00	0	57	0	403701760	42	4196
2026-01-15 05:44:24.70	325.56	21.24	-36.0	-37.3	17.5	0.00e+00	0	58	0	409993216	42	4206
2026-01-15 05:44:25.71	325.30	21.28	-36.0	-37.3	17.5	0.00e+00	0	57	0	418381824	42	4198
2026-01-15 05:44:26.72	325.05	21.32	-36.0	-37.2	17.6	0.00e+00	0	57	0	425721856	42	4183
2026-01-15 05:44:27.73	324.80	21.35	-36.0	-37.2	17.5	0.00e+00	0	57	0	432013312	42	4184
2026-01-15 05:44:28.74	324.54	21.39	-36.0	-37.2	17.6	0.00e+00	0	58	0	439353344	42	4175
2026-01-15 05:44:29.75	324.29	21.43	-36.0	-37.3	17.5	0.00e+00	0	57	0	446693376	42	4206
2026-01-15 05:44:30.76	324.03	21.46	-36.1	-37.3	17.5	0.00e+00	0	58	0	454033408	42	4225
2026-01-15 05:44:31.77	323.77	21.50	-36.0	-37.3	17.5	0.00e+00	0	58	0	461373440	42	4211
2026-01-15 05:44:32.78	323.52	21.53	-36.0	-37.2	17.6	0.00e+00	0	58	0	468713472	42	4180
2026-01-15 05:44:33.79	323.26	21.57	-35.9	-37.2	17.6	0.00e+00	0	57	0	476053504	42	4158
2026-01-15 05:44:34.80	323.00	21.60	-35.8	-37.0	17.7	0.00e+00	0	57	0	483393536	42	4098
2026-01-15 05:44:35.81	322.74	21.63	-35.8	-37.0	17.8	0.00e+00	0	58	0	490733568	42	4081
2026-01-15 05:44:36.82	322.48	21.67	-35.7	-36.9	17.9	0.00e+00	0	57	0	498073600	42	4045
2026-01-15 05:44:37.82	322.23	21.70	-35.7	-37.0	17.9	0.00e+00	0	57	0	505413632	42	4058
2026-01-15 05:44:38.83	321.96	21.73	-35.7	-36.9	17.9	0.00e+00	0	57	0	512753664	42	4014
2026-01-15 05:44:39.84	321.70	21.76	-35.6	-36.8	18.0	0.00e+00	0	57	0	520093696	42	3993
2026-01-15 05:44:40.85	321.44	21.79	-35.6	-36.8	18.0	0.00e+00	0	57	0	527433728	42	4004
2026-01-15 05:44:41.86	321.18	21.82	-35.7	-36.9	17.9	0.00e+00	0	57	0	533725184	42	4017
2026-01-15 05:44:42.86	320.92	21.85	-35.7	-36.9	17.9	0.00e+00	0	57	0	542113792	42	4021
2026-01-15 05:44:43.87	320.66	21.88	-35.7	-36.9	17.9	0.00e+00	0	57	0	549453824	42	4026
2026-01-15 05:44:44.88	320.39	21.90	-35.7	-36.9	17.9	0.00e+00	0	57	0	555745280	42	4027
2026-01-15 05:44:45.89	320.13	21.93	-35.7	-37.0	17.9	0.00e+00	0	57	0	563085312	42	4052
2026-01-15 05:44:46.89	319.87	21.96	-35.8	-37.0	17.8	0.00e+00	0	58	0	570425344	42	4091
2026-01-15 05:44:47.90	319.60	21.98	-35.8	-37.1	17.7	0.00e+00	0	58	0	577765376	42	4119
2026-01-15 05:44:48.91	319.34	22.01	-35.9	-37.1	17.7	0.00e+00	0	58	0	585105408	42	4113
2026-01-15 05:44:49.92	319.07	22.03	-35.8	-37.1	17.8	0.00e+00	0	58	0	592445440	42	4102
2026-01-15 05:44:50.93	318.81	22.06	-35.8	-37.1	17.7	0.00e+00	0	58	0	599785472	42	4110
2026-01-15 05:44:51.93	318.54	22.08	-35.9	-37.1	17.7	0.00e+00	0	58	0	607125504	42	4122
2026-01-15 05:44:52.94	318.28	22.10	-35.9	-37.1	17.7	0.00e+00	0	58	0	614465536	42	4140
2026-01-15 05:44:53.95	318.01	22.12	-35.9	-37.2	17.6	0.00e+00	0	57	0	621805568	42	4156
2026-01-15 05:44:54.96	317.74	22.14	-35.9	-37.1	17.7	0.00e+00	0	58	0	629145600	42	4140
2026-01-15 05:44:55.97	317.47	22.17	-35.9	-37.1	17.7	0.00e+00	0	58	0	636485632	42	4107
2026-01-15 05:44:56.98	317.20	22.19	-35.9	-37.1	17.7	0.00e+00	0	58	0	643825664	42	4128
2026-01-15 05:44:57.99	316.94	22.21	-35.9	-37.2	17.7	0.00e+00	0	58	0	651165696	42	4148
2026-01-15 05:44:59.00	316.67	22.22	-35.8	-37.0	17.8	0.00e+00	0	58	0	658505728	42	4094
2026-01-15 05:45:00.01	316.40	22.24	-35.8	-37.0	17.8	0.00e+00	0	58	0	664797184	42	4093
2026-01-15 05:45:01.02	316.13	22.26	-35.8	-37.0	17.8	0.00e+00	0	57	0	673185792	42	4089
2026-01-15 05:45:02.03	315.86	22.28	-35.9	-37.1	17.7	0.00e+00	0	57	0	680525824	42	4135
2026-01-15 05:45:03.04	315.59	22.29	-35.9	-37.1	17.7	0.00e+00	0	58	0	686817280	42	4130
2026-01-15 05:45:04.05	315.32	22.31	-35.8	-37.0	17.8	0.00e+00	0	58	0	694157312	42	4089
2026-01-15 05:45:05.06	315.05	22.32	-35.8	-37.0	17.8	0.00e+00	0	57	0	702545920	42	4067
2026-01-15 05:45:06.07	314.77	22.34	-35.8	-37.0	17.8	0.00e+00	0	58	0	708837376	42	4054
2026-01-15 05:45:07.08	314.50	22.35	-35.8	-37.0	17.8	0.00e+00	0	58	0	716177408	42	4085
2026-01-15 05:45:08.09	314.23	22.36	-35.8	-37.0	17.8	0.00e+00	0	57	0	723517440	42	4076
2026-01-15 05:45:09.10	313.96	22.37	-35.8	-37.0	17.8	0.00e+00	0	58	0	730857472	42	4085
2026-01-15 05:45:10.10	313.69	22.39	-35.8	-37.1	17.8	0.00e+00	0	58	0	738197504	42	4100
2026-01-15 05:45:11.11	313.42	22.40	-35.9	-37.1	17.7	0.00e+00	0	57	0	745537536	42	4120
2026-01-15 05:45:12.12	313.14	22.41	-35.9	-37.1	17.7	0.00e+00	0	58	0	752877568	42	4133
2026-01-15 05:45:13.13	312.87	22.42	-35.8	-37.1	17.8	0.00e+00	0	57	0	760217600	42	4101
2026-01-15 05:45:14.14	312.60	22.42	-35.8	-37.1	17.8	0.00e+00	0	58	0	767557632	42	4103
2026-01-15 05:45:15.15	312.33	22.43	-35.8	-37.0	17.9	0.00e+00	0	58	0	774897664	42	4058
2026-01-15 05:45:16.15	312.06	22.44	-35.8	-37.0	17.9	0.00e+00	0	58	0	782237696	42	4067
2026-01-15 05:45:17.16	311.78	22.45	-35.8	-37.0	17.8	0.00e+00	0	57	0	788529152	42	4072
2026-01-15 05:45:18.17	311.51	22.45	-35.8	-37.0	17.8	0.00e+00	0	58	0	796917760	42	4077
2026-01-15 05:45:19.17	311.24	22.46	-35.8	-37.1	17.8	0.00e+00	0	58	0	804257792	42	4107
2026-01-15 05:45:20.18	310.97	22.46	-35.9	-37.1	17.7	0.00e+00	0	58	0	810549248	42	4121
2026-01-15 05:45:21.19	310.69	22.46	-35.9	-37.1	17.7	0.00e+00	0	57	0	817889280	42	4125
2026-01-15 05:45:22.20	310.42	22.47	-35.9	-37.1	17.7	0.00e+00	0	58	0	825229312	42	4121
2026-01-15 05:45:23.21	310.14	22.47	-35.9	-37.1	17.7	0.00e+00	0	58	0	832569344	42	4133
2026-01-15 05:45:24.22	309.87	22.47	-35.9	-37.1	17.8	0.00e+00	0	58	0	839909376	42	4119
2026-01-15 05:45:25.23	309.60	22.47	-35.8	-37.1	17.8	0.00e+00	0	58	0	847249408	42	4103
2026-01-15 05:45:26.24	309.32	22.47	-35.8	-37.0	17.8	0.00e+00	0	58	0	854589440	42	4067
2026-01-15 05:45:27.25	309.05	22.47	-35.7	-36.9	17.9	0.00e+00	0	58	0	861929472	42	4023
2026-01-15 05:45:28.26	308.77	22.47	-35.7	-36.9	17.9	0.00e+00	0	58	0	869269504	42	4038
2026-01-15 05:45:29.27	308.50	22.47	-35.7	-36.9	18.0	0.00e+00	0	58	0	876609536	42	4008
2026-01-15 05:45:30.28	308.23	22.47	-35.7	-36.9	17.9	0.00e+00	0	58	0	883949568	42	4028
2026-01-15 05:45:31.29	307.95	22.46	-35.7	-36.9	17.9	0.00e+00	0	58	0	891289600	42	4041
2026-01-15 05:45:32.30	307.68	22.46	-35.7	-36.9	17.9	0.00e+00	0	58	0	898629632	42	4016
2026-01-15 05:45:33.31	307.41	22.45	-35.6	-36.8	18.0	0.00e+00	0	58	0	905969664	42	3985
2026-01-15 05:45:34.32	307.13	22.45	-35.6	-36.8	18.0	0.00e+00	0	58	0	913309696	42	3984
2026-01-15 05:45:35.33	306.86	22.44	-35.6	-36.8	18.0	0.00e+00	0	58	0	920649728	42	3993
2026-01-15 05:45:36.34	306.59	22.44	-35.7	-36.9	18.0	0.00e+00	0	57	0	927989760	42	4018
2026-01-15 05:45:37.35	306.31	22.43	-35.8	-37.0	17.8	0.00e+00	0	58	0	935329792	42	4088
2026-01-15 05:45:38.36	306.04	22.42	-35.8	-37.1	17.8	0.00e+00	0	58	0	941621248	42	4110
2026-01-15 05:45:39.37	305.77	22.41	-35.8	-37.0	17.8	0.00e+00	0	58	0	950009856	42	4098
2026-01-15 05:45:40.38	305.49	22.40	-35.8	-37.0	17.8	0.00e+00	0	58	0	957349888	42	4064
2026-01-15 05:45:41.38	305.22	22.39	-35.8	-37.0	17.8	0.00e+00	0	58	0	963641344	42	4061
2026-01-15 05:45:42.39	304.95	22.38	-35.7	-36.9	18.0	0.00e+00	0	58	0	970981376	42	4010
2026-01-15 05:45:43.40	304.68	22.37	-35.7	-36.9	17.9	0.00e+00	0	58	0	978321408	42	4042
2026-01-15 05:45:44.41	304.41	22.36	-35.7	-36.9	18.0	0.00e+00	0	58	0	985661440	42	4022
2026-01-15 05:45:45.42	304.14	22.34	-35.8	-37.0	17.8	0.00e+00	0	58	0	993001472	42	4073
2026-01-15 05:45:46.43	303.86	22.33	-35.9	-37.1	17.7	0.00e+00	0	58	0	1000341504	42	4135
2026-01-15 05:45:47.44	303.59	22.32	-36.0	-37.2	17.6	0.00e+00	0	57	0	1007681536	42	4186
2026-01-15 05:45:48.45	303.32	22.30	-36.0	-37.3	17.6	0.00e+00	0	58	0	1015021568	42	4196
2026-01-15 05:45:49.45	303.05	22.29	-35.9	-37.2	17.7	0.00e+00	0	58	0	1022361600	42	4159
2026-01-15 05:45:50.46	302.78	22.27	-35.9	-37.1	17.7	0.00e+00	0	58	0	1029701632	42	4130
2026-01-15 05:45:51.47	302.51	22.25	-35.8	-37.0	17.9	0.00e+00	0	58	0	1037041664	42	4062
2026-01-15 05:45:52.48	302.24	22.24	-35.8	-37.0	17.9	0.00e+00	0	58	0	1044381696	42	4059
2026-01-15 05:45:53.49	301.97	22.22	-35.8	-37.0	17.8	0.00e+00	0	58	0	1051721728	42	4084
2026-01-15 05:45:54.50	301.70	22.20	-35.8	-37.1	17.7	0.00e+00	0	58	0	1059061760	42	4109
2026-01-15 05:45:55.51	301.43	22.18	-35.8	-37.1	17.8	0.00e+00	0	58	0	1066401792	42	4112
2026-01-15 05:45:56.52	301.17	22.16	-35.9	-37.1	17.7	0.00e+00	0	58	0	1073741824	42	4126
2026-01-15 05:45:57.53	300.90	22.14	-36.0	-37.2	17.6	0.00e+00	0	58	0	1081081856	42	4178
2026-01-15 05:45:58.54	300.63	22.12	-36.0	-37.2	17.6	0.00e+00	0	58	0	1087373312	42	4189
2026-01-15 05:45:59.55	300.36	22.09	-36.0	-37.2	17.6	0.00e+00	0	58	0	1094713344	42	4191
2026-01-15 05:46:00.56	300.10	22.07	-36.0	-37.3	17.6	0.00e+00	0	58	0	1102053376	42	4202
2026-01-15 05:46:01.57	299.83	22.05	-36.0	-37.2	17.6	0.00e+00	0	58	0	1109393408	42	4177
2026-01-15 05:46:02.58	299.56	22.02	-35.9	-37.2	17.6	0.00e+00	0	58	0	1116733440	42	4167
2026-01-15 05:46:03.59	299.30	22.00	-35.9	-37.2	17.7	0.00e+00	0	58	0	1124073472	42	4148
2026-01-15 05:46:04.59	299.03	21.97	-35.9	-37.1	17.7	0.00e+00	0	58	0	1131413504	42	4131
2026-01-15 05:46:05.60	298.77	21.95	-35.9	-37.2	17.7	0.00e+00	0	58	0	1138753536	42	4149
2026-01-15 05:46:06.61	298.50	21.92	-35.9	-37.2	17.7	0.00e+00	0	58	0	1146093568	42	4148
2026-01-15 05:46:07.62	298.24	21.89	-35.9	-37.2	17.7	0.00e+00	0	58	0	1153433600	42	4152
2026-01-15 05:46:08.63	297.98	21.86	-35.8	-37.1	17.8	0.00e+00	0	58	0	1160773632	42	4103
2026-01-15 05:46:09.64	297.71	21.84	-35.9	-37.1	17.7	0.00e+00	0	58	0	1168113664	42	4140
2026-01-15 05:46:10.65	297.45	21.81	-35.9	-37.1	17.7	0.00e+00	0	58	0	1175453696	42	4123
2026-01-15 05:46:11.66	297.19	21.78	-35.9	-37.1	17.7	0.00e+00	0	58	0	1182793728	42	4140
2026-01-15 05:46:12.67	296.93	21.75	-35.9	-37.2	17.6	0.00e+00	0	58	0	1190133760	42	4165
2026-01-15 05:46:13.68	296.66	21.72	-35.9	-37.1	17.7	0.00e+00	0	58	0	1197473792	42	4141
2026-01-15 05:46:14.69	296.40	21.68	-35.9	-37.2	17.6	0.00e+00	0	58	0	1204813824	42	4165
2026-01-15 05:46:15.70	296.14	21.65	-35.9	-37.2	17.6	0.00e+00	0	58	0	1212153856	42	4160
2026-01-15 05:46:16.70	295.89	21.62	-36.0	-37.2	17.6	0.00e+00	0	58	0	1218445312	42	4168
2026-01-15 05:46:17.72	295.62	21.59	-36.0	-37.2	17.6	0.00e+00	0	58	0	1226833920	42	4167
2026-01-15 05:46:18.73	295.37	21.55	-36.0	-37.2	17.6	0.00e+00	0	58	0	1234173952	42	4192
2026-01-15 05:46:19.74	295.11	21.52	-36.0	-37.2	17.6	0.00e+00	0	58	0	1240465408	42	4175
2026-01-15 05:46:20.75	294.85	21.48	-35.9	-37.1	17.7	0.00e+00	0	58	0	1247805440	42	4134
2026-01-15 05:46:21.75	294.60	21.45	-35.8	-37.1	17.8	0.00e+00	0	58	0	1255145472	42	4103
2026-01-15 05:46:22.76	294.34	21.41	-35.7	-36.9	17.9	0.00e+00	0	58	0	1262485504	42	4051
2026-01-15 05:46:23.77	294.08	21.37	-35.7	-37.0	17.8	0.00e+00	0	58	0	1269825536	42	4065
2026-01-15 05:46:24.78	293.83	21.34	-35.8	-37.0	17.8	0.00e+00	0	58	0	1277165568	42	4086
2026-01-15 05:46:25.78	293.58	21.30	-35.8	-37.0	17.8	0.00e+00	0	58	0	1284505600	42	4088
2026-01-15 05:46:26.79	293.32	21.26	-35.8	-37.1	17.7	0.00e+00	0	58	0	1291845632	42	4119
2026-01-15 05:46:27.80	293.07	21.22	-35.9	-37.2	17.7	0.00e+00	0	58	0	1299185664	42	4147
2026-01-15 05:46:28.82	292.82	21.18	-35.9	-37.1	17.7	0.00e+00	0	58	0	1306525696	42	4130
2026-01-15 05:46:29.82	292.57	21.14	-35.9	-37.1	17.7	0.00e+00	0	58	0	1313865728	42	4145
2026-01-15 05:46:30.83	292.32	21.10	-35.9	-37.1	17.7	0.00e+00	0	58	0	1321205760	42	4116
2026-01-15 05:46:31.84	292.06	21.06	-35.9	-37.1	17.7	0.00e+00	0	58	0	1328545792	42	4138
2026-01-15 05:46:32.85	291.81	21.02	-35.8	-37.1	17.7	0.00e+00	0	58	0	1335885824	42	4110
2026-01-15 05:46:33.86	291.57	20.98	-35.8	-37.1	17.7	0.00e+00	0	58	0	1343225856	42	4108
2026-01-15 05:46:34.87	291.32	20.94	-36.0	-37.3	17.5	0.00e+00	0	58	0	1350565888	42	4195
2026-01-15 05:46:35.88	291.07	20.89	-35.9	-37.1	17.7	0.00e+00	0	58	0	1357905920	42	4140
2026-01-15 05:46:36.89	290.82	20.85	-35.9	-37.1	17.7	0.00e+00	0	58	0	1365245952	42	4141
2026-01-15 05:46:37.90	290.58	20.81	-36.0	-37.2	17.6	0.00e+00	0	58	0	1371537408	42	4171
2026-01-15 05:46:38.91	290.33	20.76	-35.9	-37.2	17.7	0.00e+00	0	58	0	1378877440	42	4151
2026-01-15 05:46:39.92	290.09	20.72	-35.8	-37.0	17.8	0.00e+00	0	58	0	1387266048	42	4084
2026-01-15 05:46:40.93	289.84	20.67	-35.8	-37.0	17.8	0.00e+00	0	58	0	1393557504	42	4082
2026-01-15 05:46:41.93	289.60	20.63	-35.7	-36.9	17.8	0.00e+00	0	58	0	1400897536	42	4049
2026-01-15 05:46:42.94	289.36	20.58	-35.7	-36.9	17.9	0.00e+00	0	58	0	1408237568	42	4039
2026-01-15 05:46:43.96	289.11	20.53	-35.7	-36.9	17.8	0.00e+00	0	58	0	1415577600	42	4051
2026-01-15 05:46:44.97	288.87	20.49	-35.7	-37.0	17.8	0.00e+00	0	58	0	1422917632	42	4055
2026-01-15 05:46:45.98	288.63	20.44	-35.8	-37.0	17.8	0.00e+00	0	58	0	1430257664	42	4068
2026-01-15 05:46:46.98	288.39	20.39	-35.7	-37.0	17.8	0.00e+00	0	58	0	1437597696	42	4062
2026-01-15 05:46:47.99	288.15	20.34	-35.8	-37.0	17.8	0.00e+00	0	58	0	1444937728	42	4070
2026-01-15 05:46:49.00	287.92	20.29	-35.8	-37.0	17.8	0.00e+00	0	58	0	1452277760	42	4073
2026-01-15 05:46:50.01	287.68	20.24	-35.8	-37.0	17.8	0.00e+00	0	58	0	1459617792	42	4084
2026-01-15 05:46:51.02	287.44	20.19	-35.9	-37.1	17.7	0.00e+00	0	58	0	1466957824	42	4113
2026-01-15 05:46:52.03	287.20	20.14	-35.9	-37.2	17.6	0.00e+00	0	58	0	1474297856	42	4151
2026-01-15 05:46:53.03	286.97	20.09	-36.0	-37.3	17.5	0.00e+00	0	58	0	1481637888	42	4214
2026-01-15 05:46:54.04	286.74	20.04	-36.1	-37.3	17.5	0.00e+00	0	58	0	1488977920	42	4228
2026-01-15 05:46:55.05	286.50	19.99	-36.1	-37.4	17.4	0.00e+00	0	58	0	1495269376	42	4260
2026-01-15 05:46:56.05	286.27	19.94	-36.1	-37.4	17.4	0.00e+00	0	58	0	1502609408	42	4280
2026-01-15 05:46:57.06	286.04	19.89	-36.2	-37.4	17.3	0.00e+00	0	58	0	1509949440	42	4284
2026-01-15 05:46:58.07	285.81	19.84	-36.2	-37.4	17.3	0.00e+00	0	58	0	1517289472	42	4287
2026-01-15 05:46:59.08	285.58	19.78	-36.1	-37.4	17.4	0.00e+00	0	58	0	1524629504	42	4245
2026-01-15 05:47:00.09	285.35	19.73	-36.1	-37.3	17.4	0.00e+00	0	58	0	1531969536	42	4240
2026-01-15 05:47:01.10	285.12	19.68	-36.0	-37.3	17.5	0.00e+00	0	58	0	1539309568	42	4194
2026-01-15 05:47:02.11	284.89	19.62	-36.0	-37.2	17.5	0.00e+00	0	58	0	1546649600	42	4193
2026-01-15 05:47:03.11	284.67	19.57	-36.0	-37.3	17.5	0.00e+00	0	58	0	1553989632	42	4195
2026-01-15 05:47:04.12	284.44	19.51	-36.0	-37.3	17.4	0.00e+00	0	58	0	1561329664	42	4214
2026-01-15 05:47:05.13	284.21	19.46	-36.1	-37.3	17.4	0.00e+00	0	58	0	1568669696	42	4239
2026-01-15 05:47:06.14	283.99	19.40	-36.2	-37.5	17.2	0.00e+00	0	58	0	1576009728	42	4330
2026-01-15 05:47:07.15	283.77	19.35	-36.2	-37.5	17.2	0.00e+00	0	58	0	1583349760	42	4330
2026-01-15 05:47:08.16	283.54	19.29	-36.2	-37.5	17.2	0.00e+00	0	58	0	1590689792	42	4321
2026-01-15 05:47:09.17	283.32	19.23	-36.3	-37.6	17.1	0.00e+00	0	58	0	1598029824	42	4374
2026-01-15 05:47:10.18	283.10	19.18	-36.3	-37.6	17.2	0.00e+00	0	58	0	1605369856	42	4367
2026-01-15 05:47:11.19	282.88	19.12	-36.3	-37.6	17.2	0.00e+00	0	58	0	1612709888	42	4348
2026-01-15 05:47:12.20	282.66	19.06	-36.2	-37.5	17.2	0.00e+00	0	58	0	1620049920	42	4309
2026-01-15 05:47:13.21	282.44	19.01	-36.2	-37.5	17.3	0.00e+00	0	58	0	1626341376	42	4295
2026-01-15 05:47:14.22	282.22	18.95	-36.1	-37.4	17.3	0.00e+00	0	58	0	1634729984	42	4281
2026-01-15 05:47:15.23	282.00	18.89	-36.2	-37.5	17.3	0.00e+00	0	58	0	1642070016	42	4309
2026-01-15 05:47:16.24	281.79	18.83	-36.2	-37.5	17.2	0.00e+00	0	58	0	1648361472	42	4310
2026-01-15 05:47:17.25	281.57	18.77	-36.3	-37.6	17.1	0.00e+00	0	58	0	1655701504	42	4358
2026-01-15 05:47:18.26	281.36	18.71	-36.3	-37.7	17.1	0.00e+00	0	58	0	1663041536	42	4395
2026-01-15 05:47:19.27	281.14	18.65	-36.4	-37.7	17.0	0.00e+00	0	58	0	1670381568	42	4434
2026-01-15 05:47:20.28	280.93	18.59	-36.5	-37.8	16.9	0.00e+00	0	58	0	1677721600	42	4476
2026-01-15 05:47:21.29	280.72	18.53	-36.5	-37.9	16.9	0.00e+00	0	58	0	1685061632	42	4502
2026-01-15 05:47:22.29	280.51	18.48	-36.5	-37.9	16.9	0.00e+00	0	58	0	1692401664	42	4498
2026-01-15 05:47:23.30	280.30	18.41	-36.5	-37.9	16.8	0.00e+00	0	58	0	1699741696	42	4512
2026-01-15 05:47:24.31	280.09	18.35	-36.5	-37.9	16.8	0.00e+00	0	58	0	1707081728	42	4500
2026-01-15 05:47:25.32	279.88	18.29	-36.5	-37.8	16.9	0.00e+00	0	58	0	1714421760	42	4491
2026-01-15 05:47:26.33	279.67	18.23	-36.5	-37.8	16.9	0.00e+00	0	58	0	1721761792	42	4487
2026-01-15 05:47:27.34	279.46	18.17	-36.5	-37.9	16.8	0.00e+00	0	58	0	1729101824	42	4510
2026-01-15 05:47:28.35	279.25	18.11	-36.5	-37.9	16.8	0.00e+00	0	58	0	1736441856	42	4510
2026-01-15 05:47:29.35	279.05	18.05	-36.6	-37.9	16.8	0.00e+00	0	58	0	1743781888	42	4521
2026-01-15 05:47:30.36	278.85	17.99	-36.5	-37.9	16.8	0.00e+00	0	58	0	1751121920	42	4514
2026-01-15 05:47:31.37	278.64	17.92	-36.6	-37.9	16.7	0.00e+00	0	58	0	1758461952	42	4539
2026-01-15 05:47:32.38	278.44	17.86	-36.5	-37.8	16.8	0.00e+00	0	58	0	1765801984	42	4491
2026-01-15 05:47:33.38	278.24	17.80	-36.5	-37.9	16.8	0.00e+00	0	58	0	1772093440	42	4510
2026-01-15 05:47:34.39	278.04	17.74	-36.5	-37.9	16.8	0.00e+00	0	58	0	1779433472	42	4496
2026-01-15 05:47:35.40	277.84	17.67	-36.5	-37.9	16.8	0.00e+00	0	58	0	1786773504	42	4516
2026-01-15 05:47:36.41	277.64	17.61	-36.5	-37.9	16.8	0.00e+00	0	58	0	1794113536	42	4495
2026-01-15 05:47:37.42	277.44	17.55	-36.6	-37.9	16.7	0.00e+00	0	58	0	1801453568	42	4532
2026-01-15 05:47:38.43	277.24	17.48	-36.5	-37.9	16.8	0.00e+00	0	58	0	1808793600	42	4507
2026-01-15 05:47:39.44	277.04	17.42	-36.6	-37.9	16.8	0.00e+00	0	58	0	1816133632	42	4531
2026-01-15 05:47:40.46	276.84	17.35	-36.6	-38.0	16.7	0.00e+00	0	58	0	1823473664	42	4565
2026-01-15 05:47:41.46	276.65	17.29	-36.6	-38.0	16.7	0.00e+00	0	58	0	1830813696	42	4582
2026-01-15 05:47:42.48	276.45	17.23	-36.6	-38.0	16.6	0.00e+00	0	58	0	1838153728	42	4586
2026-01-15 05:47:43.48	276.26	17.16	-36.7	-38.1	16.6	0.00e+00	0	58	0	1845493760	43	4352
2026-01-15 05:47:44.50	276.07	17.10	-36.7	-38.1	16.5	0.00e+00	0	58	0	1852833792	43	4380
2026-01-15 05:47:45.50	275.88	17.03	-36.7	-38.1	16.6	0.00e+00	0	58	0	1860173824	43	4364
2026-01-15 05:47:46.52	275.68	16.97	-36.7	-38.1	16.6	0.00e+00	0	58	0	1867513856	43	4352
2026-01-15 05:47:47.53	275.49	16.90	-36.8	-38.1	16.5	0.00e+00	0	58	0	1874853888	43	4391
2026-01-15 05:47:48.54	275.30	16.84	-36.8	-38.2	16.5	0.00e+00	0	58	0	1882193920	43	4396
2026-01-15 05:47:49.55	275.11	16.77	-36.8	-38.2	16.5	0.00e+00	0	58	0	1889533952	43	4403
2026-01-15 05:47:50.56	274.92	16.70	-36.8	-38.2	16.4	0.00e+00	0	58	0	1896873984	43	4417
2026-01-15 05:47:51.57	274.74	16.64	-36.9	-38.3	16.3	0.00e+00	0	58	0	1904214016	43	4463
2026-01-15 05:47:52.57	274.55	16.57	-36.9	-38.3	16.3	0.00e+00	0	58	0	1911554048	43	4469
2026-01-15 05:47:53.58	274.37	16.51	-36.9	-38.4	16.3	0.00e+00	0	58	0	1918894080	43	4504
2026-01-15 05:47:54.59	274.18	16.44	-36.9	-38.4	16.3	0.00e+00	0	58	0	1925185536	43	4500
2026-01-15 05:47:55.60	274.00	16.38	-37.0	-38.4	16.2	0.00e+00	0	58	0	1932525568	43	4537
2026-01-15 05:47:56.61	273.82	16.31	-37.0	-38.4	16.2	0.00e+00	0	58	0	1939865600	43	4536
2026-01-15 05:47:57.62	273.63	16.24	-37.0	-38.4	16.2	0.00e+00	0	58	0	1947205632	43	4525
2026-01-15 05:47:58.63	273.45	16.18	-36.9	-38.3	16.3	0.00e+00	0	58	0	1954545664	43	4477
2026-01-15 05:47:59.64	273.27	16.11	-36.9	-38.3	16.3	0.00e+00	0	58	0	1961885696	43	4493
2026-01-15 05:48:00.64	273.09	16.04	-36.9	-38.3	16.3	0.00e+00	0	58	0	1969225728	43	4473
2026-01-15 05:48:01.65	272.91	15.98	-36.9	-38.3	16.3	0.00e+00	0	58	0	1976565760	43	4462
2026-01-15 05:48:02.66	272.73	15.91	-36.9	-38.3	16.3	0.00e+00	0	58	0	1983905792	43	4478
2026-01-15 05:48:03.67	272.56	15.84	-36.9	-38.4	16.2	0.00e+00	0	58	0	1991245824	43	4505
2026-01-15 05:48:04.68	272.38	15.77	-37.0	-38.4	16.2	0.00e+00	0	58	0	1998585856	43	4528
2026-01-15 05:48:05.70	272.20	15.71	-37.0	-38.5	16.1	0.00e+00	0	58	0	2005925888	43	4560
2026-01-15 05:48:06.70	272.03	15.64	-37.1	-38.5	16.1	0.00e+00	0	58	0	2013265920	43	4580
2026-01-15 05:48:07.71	271.86	15.57	-37.0	-38.5	16.1	0.00e+00	0	58	0	2020605952	43	4559
2026-01-15 05:48:08.72	271.68	15.51	-37.1	-38.5	16.0	0.00e+00	0	58	0	2027945984	43	4594
2026-01-15 05:48:09.73	271.51	15.44	-37.0	-38.5	16.1	0.00e+00	0	58	0	2035286016	43	4578
2026-01-15 05:48:10.74	271.34	15.37	-37.1	-38.5	16.0	0.00e+00	0	58	0	2042626048	43	4586
2026-01-15 05:48:11.75	271.17	15.30	-37.0	-38.5	16.1	0.00e+00	0	58	0	2048917504	43	4563
2026-01-15 05:48:12.76	271.00	15.23	-37.0	-38.5	16.1	0.00e+00	0	58	0	2056257536	43	4547
2026-01-15 05:48:13.77	270.83	15.17	-37.0	-38.5	16.1	0.00e+00	0	58	0	2064646144	43	4558
2026-01-15 05:48:14.78	270.66	15.10	-37.0	-38.5	16.1	0.00e+00	0	58	0	2070937600	43	4561
2026-01-15 05:48:15.79	270.49	15.03	-37.1	-38.5	16.0	0.00e+00	0	58	0	2078277632	43	4590
2026-01-15 05:48:16.80	270.32	14.96	-37.1	-38.6	16.0	0.00e+00	0	58	0	2085617664	43	4621
2026-01-15 05:48:17.81	270.16	14.89	-37.2	-38.7	15.9	0.00e+00	0	58	0	2092957696	43	4655
2026-01-15 05:48:18.82	269.99	14.83	-37.4	-38.9	15.8	0.00e+00	0	58	0	2100297728	44	4494
2026-01-15 05:48:19.83	269.82	14.76	-37.5	-39.0	15.7	0.00e+00	0	58	0	2107637760	44	4560
2026-01-15 05:48:20.84	269.66	14.69	-37.5	-39.1	15.7	0.00e+00	0	58	0	2114977792	44	4600
2026-01-15 05:48:21.85	269.50	14.62	-37.6	-39.1	15.6	0.00e+00	0	58	0	2122317824	44	4639
2026-01-15 05:48:22.86	269.33	14.55	-37.6	-39.1	15.5	0.00e+00	0	58	0	2129657856	44	4650
2026-01-15 05:48:23.87	269.17	14.48	-37.6	-39.1	15.5	0.00e+00	0	58	0	2136997888	44	4646
2026-01-15 05:48:24.88	269.01	14.42	-37.6	-39.1	15.6	0.00e+00	0	58	0	2144337920	44	4645
2026-01-15 05:48:25.89	268.85	14.35	-37.6	-39.1	15.6	0.00e+00	0	58	0	2151677952	44	4651
2026-01-15 05:48:26.90	268.69	14.28	-37.6	-39.1	15.5	0.00e+00	0	58	0	2159017984	44	4649
2026-01-15 05:48:27.91	268.53	14.21	-37.6	-39.2	15.5	0.00e+00	0	58	0	2166358016	44	4675
2026-01-15 05:48:28.91	268.38	14.14	-37.7	-39.2	15.4	0.00e+00	0	58	0	2173698048	44	4682
2026-01-15 05:48:29.92	268.22	14.07	-37.7	-39.3	15.4	0.00e+00	0	58	0	2181038080	45	4465
2026-01-15 05:48:30.93	268.06	14.01	-37.7	-39.3	15.3	1.10e-06	0	58	0	2188378112	45	4489
2026-01-15 05:48:31.94	267.90	13.94	-37.7	-39.3	15.3	0.00e+00	0	58	0	2195718144	45	4480
2026-01-15 05:48:32.95	267.75	13.87	-37.7	-39.3	15.3	1.10e-06	0	58	0	2202009600	45	4484
2026-01-15 05:48:33.96	267.60	13.80	-37.7	-39.3	15.4	0.00e+00	0	58	0	2209349632	45	4445
2026-01-15 05:48:34.97	267.44	13.73	-37.7	-39.3	15.4	0.00e+00	0	58	0	2217738240	45	4444
2026-01-15 05:48:35.97	267.29	13.66	-37.6	-39.2	15.5	0.00e+00	0	58	0	2224029696	45	4395
2026-01-15 05:48:36.98	267.14	13.59	-37.5	-39.1	15.6	0.00e+00	0	58	0	2231369728	45	4350
2026-01-15 05:48:37.98	266.99	13.53	-37.5	-39.1	15.6	0.00e+00	0	58	0	2238709760	45	4352
2026-01-15 05:48:38.99	266.84	13.46	-37.6	-39.1	15.5	0.00e+00	0	58	0	2246049792	45	4375
2026-01-15 05:48:40.00	266.69	13.39	-37.6	-39.2	15.4	0.00e+00	0	58	0	2253389824	45	4398
2026-01-15 05:48:41.01	266.54	13.32	-37.6	-39.2	15.4	0.00e+00	0	58	0	2260729856	45	4412
2026-01-15 05:48:42.01	266.39	13.25	-37.6	-39.2	15.4	0.00e+00	0	58	0	2268069888	45	4402
2026-01-15 05:48:43.02	266.24	13.18	-37.6	-39.2	15.4	0.00e+00	0	58	0	2275409920	45	4409
2026-01-15 05:48:44.03	266.09	13.11	-37.6	-39.2	15.4	0.00e+00	0	58	0	2282749952	45	4404
2026-01-15 05:48:45.04	265.95	13.05	-37.6	-39.2	15.4	0.00e+00	0	58	0	2290089984	45	4415
2026-01-15 05:48:46.05	265.80	12.98	-37.7	-39.2	15.4	0.00e+00	0	58	0	2297430016	45	4438
2026-01-15 05:48:47.06	265.65	12.91	-37.7	-39.2	15.3	0.00e+00	0	58	0	2303721472	45	4437
2026-01-15 05:48:48.07	265.51	12.84	-37.6	-39.2	15.3	0.00e+00	0	58	0	2312110080	45	4436
2026-01-15 05:48:49.07	265.37	12.77	-37.6	-39.2	15.4	0.00e+00	0	58	0	2319450112	45	4410
2026-01-15 05:48:50.08	265.22	12.70	-37.6	-39.2	15.4	0.00e+00	0	58	0	2325741568	45	4416
2026-01-15 05:48:51.09	265.08	12.64	-37.6	-39.2	15.4	0.00e+00	0	58	0	2333081600	45	4408
2026-01-15 05:48:52.10	264.94	12.57	-37.6	-39.2	15.4	0.00e+00	0	58	0	2340421632	45	4422
2026-01-15 05:48:53.11	264.80	12.50	-37.7	-39.3	15.2	0.00e+00	0	58	0	2347761664	45	4467
2026-01-15 05:48:54.12	264.66	12.43	-37.7	-39.3	15.3	0.00e+00	0	58	0	2355101696	45	4460
2026-01-15 05:48:55.13	264.52	12.36	-37.8	-39.4	15.1	0.00e+00	0	58	0	2362441728	45	4531
2026-01-15 05:48:56.13	264.38	12.29	-37.9	-39.5	15.0	0.00e+00	0	58	0	2369781760	45	4594
2026-01-15 05:48:57.14	264.24	12.22	-38.0	-39.7	14.9	0.00e+00	0	58	0	2377121792	45	4652
2026-01-15 05:48:58.15	264.10	12.16	-38.0	-39.7	14.9	0.00e+00	0	58	0	2384461824	45	4665
2026-01-15 05:48:59.16	263.96	12.09	-38.0	-39.7	14.8	0.00e+00	0	58	0	2391801856	45	4690
2026-01-15 05:49:00.17	263.83	12.02	-38.0	-39.7	14.7	0.00e+00	0	58	0	2399141888	45	4690
2026-01-15 05:49:01.18	263.69	11.95	-38.2	-39.9	14.6	0.00e+00	0	58	0	2406481920	45	4802
2026-01-15 05:49:02.19	263.56	11.88	-38.2	-39.9	14.6	0.00e+00	0	58	0	2413821952	45	4814
2026-01-15 05:49:03.19	263.42	11.82	-38.3	-40.0	14.5	2.20e-06	0	58	0	2421161984	46	4590
2026-01-15 05:49:04.20	263.29	11.75	-38.2	-40.0	14.5	0.00e+00	0	58	0	2428502016	46	4570
2026-01-15 05:49:05.21	263.16	11.68	-38.2	-39.9	14.5	0.00e+00	0	58	0	2435842048	46	4542
2026-01-15 05:49:06.22	263.02	11.61	-38.2	-39.9	14.6	1.10e-06	0	58	0	2443182080	46	4494
2026-01-15 05:49:07.23	262.89	11.54	-38.1	-39.8	14.7	0.00e+00	0	58	0	2450522112	46	4481
2026-01-15 05:49:08.24	262.76	11.47	-38.1	-39.8	14.7	1.10e-06	0	58	0	2456813568	46	4478
2026-01-15 05:49:09.24	262.63	11.41	-38.1	-39.8	14.7	1.10e-06	0	58	0	2464153600	46	4469
2026-01-15 05:49:10.25	262.50	11.34	-38.2	-39.9	14.6	1.10e-06	0	58	0	2471493632	46	4511
2026-01-15 05:49:11.26	262.37	11.27	-38.2	-39.9	14.5	2.20e-06	0	58	0	2478833664	46	4532
2026-01-15 05:49:12.27	262.24	11.20	-38.3	-40.0	14.5	0.00e+00	0	58	0	2486173696	46	4575
2026-01-15 05:49:13.28	262.11	11.14	-38.3	-40.1	14.4	0.00e+00	0	58	0	2493513728	46	4609
2026-01-15 05:49:14.29	261.98	11.07	-38.4	-40.2	14.2	2.20e-06	0	58	0	2500853760	46	4696
2026-01-15 05:49:15.30	261.85	11.00	-38.4	-40.2	14.3	1.10e-06	0	58	0	2508193792	46	4685
2026-01-15 05:49:16.30	261.73	10.93	-38.3	-40.1	14.4	3.40e-06	0	58	0	2515533824	46	4615
2026-01-15 05:49:17.31	261.60	10.87	-38.3	-40.0	14.4	1.10e-06	0	58	0	2522873856	46	4580
2026-01-15 05:49:18.32	261.48	10.80	-38.2	-40.0	14.4	0.00e+00	0	58	0	2530213888	46	4562
2026-01-15 05:49:19.33	261.35	10.73	-38.2	-39.9	14.5	0.00e+00	0	58	0	2537553920	46	4518
2026-01-15 05:49:20.34	261.23	10.66	-38.1	-39.8	14.6	0.00e+00	0	58	0	2544893952	46	4481
2026-01-15 05:49:21.35	261.10	10.60	-38.1	-39.9	14.5	0.00e+00	0	58	0	2552233984	46	4506
2026-01-15 05:49:22.36	260.98	10.53	-38.1	-39.9	14.6	2.20e-06	0	58	0	2558525440	46	4504
2026-01-15 05:49:23.37	260.86	10.46	-38.2	-39.9	14.5	1.10e-06	0	58	0	2566914048	46	4538
2026-01-15 05:49:24.38	260.73	10.39	-38.3	-40.0	14.4	1.10e-06	0	58	0	2574254080	46	4591
2026-01-15 05:49:25.38	260.61	10.33	-38.3	-40.1	14.3	1.10e-06	0	58	0	2580545536	46	4646
2026-01-15 05:49:26.39	260.49	10.26	-38.5	-40.3	14.1	1.10e-06	0	58	0	2587885568	46	4747
2026-01-15 05:49:27.40	260.37	10.19	-38.6	-40.5	13.9	1.10e-06	0	58	0	2595225600	46	4837
2026-01-15 05:49:28.41	260.25	10.13	-38.7	-40.6	13.8	6.80e-06	0	58	0	2602565632	46	4878
2026-01-15 05:49:29.42	260.13	10.06	-38.6	-40.5	13.9	2.20e-06	0	58	0	2609905664	46	4846
2026-01-15 05:49:30.42	260.02	9.99	-38.6	-40.5	13.9	6.80e-06	0	58	0	2617245696	46	4821
2026-01-15 05:49:31.43	259.90	9.93	-38.6	-40.5	13.9	4.50e-06	0	58	0	2624585728	46	4819
2026-01-15 05:49:32.44	259.78	9.86	-38.5	-40.4	13.9	5.70e-06	0	58	0	2631925760	46	4800
2026-01-15 05:49:33.45	259.66	9.79	-38.5	-40.3	14.1	3.40e-06	0	58	0	2639265792	46	4729
2026-01-15 05:49:34.46	259.55	9.73	-38.5	-40.3	14.0	8.00e-06	0	58	0	2646605824	46	4753
2026-01-15 05:49:35.47	259.43	9.66	-38.5	-40.3	14.0	8.00e-06	0	58	0	2653945856	46	4745
2026-01-15 05:49:36.48	259.31	9.59	-38.5	-40.3	14.1	5.70e-06	0	58	0	2661285888	46	4725
2026-01-15 05:49:37.48	259.20	9.53	-38.5	-40.4	14.0	6.80e-06	0	58	0	2668625920	46	4788
2026-01-15 05:49:38.49	259.09	9.46	-38.7	-40.5	13.8	4.50e-06	0	58	0	2675965952	46	4865
2026-01-15 05:49:39.50	258.97	9.39	-38.8	-40.7	13.6	4.50e-06	0	58	0	2683305984	47	4704
2026-01-15 05:49:40.51	258.86	9.33	-38.9	-40.9	13.4	1.48e-05	0	58	0	2689597440	47	4770
2026-01-15 05:49:41.52	258.75	9.26	-38.9	-40.9	13.4	1.48e-05	0	58	0	2697986048	47	4800
2026-01-15 05:49:42.53	258.63	9.20	-39.1	-41.1	13.2	2.17e-05	0	58	0	2705326080	47	4911
2026-01-15 05:49:43.54	258.52	9.13	-39.2	-41.3	13.0	3.77e-05	0	58	0	2711617536	47	5001
2026-01-15 05:49:44.54	258.41	9.06	-39.5	-41.6	12.9	5.26e-05	0	58	0	2718957568	48	4895
2026-01-15 05:49:45.56	258.30	9.00	-39.3	-41.5	13.0	4.80e-05	0	58	0	2726297600	48	4815
2026-01-15 05:49:46.56	258.19	8.93	-39.3	-41.5	13.0	5.72e-05	0	58	0	2733637632	48	4817
2026-01-15 05:49:47.57	258.08	8.87	-39.3	-41.4	13.1	2.97e-05	0	58	0	2740977664	48	4760
2026-01-15 05:49:48.58	257.97	8.80	-39.2	-41.3	13.1	4.00e-05	0	58	0	2748317696	48	4729
2026-01-15 05:49:49.59	257.86	8.74	-39.2	-41.3	13.1	2.40e-05	0	58	0	2755657728	48	4735
2026-01-15 05:49:50.60	257.75	8.67	-39.3	-41.3	13.1	3.20e-05	0	58	0	2762997760	48	4759
2026-01-15 05:49:51.61	257.65	8.60	-39.3	-41.4	13.0	3.77e-05	0	58	0	2770337792	48	4780
2026-01-15 05:49:52.62	257.54	8.54	-39.3	-41.4	13.0	4.80e-05	0	58	0	2777677824	48	4809
2026-01-15 05:49:53.63	257.43	8.47	-39.1	-41.2	13.3	2.63e-05	0	58	0	2785017856	48	4660
2026-01-15 05:49:54.64	257.33	8.41	-39.0	-40.9	13.5	5.70e-06	0	58	0	2792357888	48	4537
2026-01-15 05:49:55.65	257.22	8.34	-39.0	-40.9	13.5	1.25e-05	0	58	0	2799697920	48	4540
2026-01-15 05:49:56.66	257.11	8.28	-39.0	-41.0	13.5	8.00e-06	0	58	0	2807037952	48	4560
2026-01-15 05:49:57.67	257.01	8.21	-39.0	-41.0	13.4	1.71e-05	0	58	0	2814377984	48	4581
2026-01-15 05:49:58.68	256.90	8.15	-38.9	-40.8	13.6	1.14e-05	0	58	0	2821718016	48	4485
2026-01-15 05:49:59.69	256.80	8.08	-39.0	-41.0	13.4	9.10e-06	0	58	0	2829058048	48	4582
2026-01-15 05:50:00.69	256.70	8.02	-43.9	-50.8	4.6	1.63e-01	0	58	0	2835349504	57	8397
2026-01-15 05:50:01.70	256.59	7.95	-45.0	-56.1	3.8	8.46e-01	0	58	104	2835349504	59	13798
2026-01-15 05:50:02.71	256.49	7.89	-45.2	-56.5	3.8	8.46e-01	0	59	104	2835349504	60	13642
2026-01-15 05:50:03.72	256.39	7.83	-45.3	-56.7	3.8	8.47e-01	0	58	104	2835349504	60	13965
2026-01-15 05:50:04.73	256.29	7.76	-45.4	-56.8	3.8	8.46e-01	0	58	104	2835349504	60	14137
2026-01-15 05:50:05.74	256.19	7.70	-45.5	-56.9	3.8	8.46e-01	0	58	104	2835349504	60	14236
2026-01-15 05:50:06.75	256.09	7.63	-45.6	-56.9	3.8	8.48e-01	0	58	104	2835349504	60	14307
2026-01-15 05:50:07.75	255.99	7.57	-45.6	-57.0	3.8	8.46e-01	0	58	104	2835349504	60	14400
2026-01-15 05:50:08.76	255.89	7.50	-45.6	-57.0	3.8	8.47e-01	0	58	104	2835349504	60	14490
2026-01-15 05:50:09.77	255.79	7.44	-45.6	-57.0	3.8	8.46e-01	0	58	104	2835349504	60	14464
2026-01-15 05:50:10.78	255.69	7.38	-45.6	-57.0	3.8	8.47e-01	0	58	104	2835349504	60	14459
2026-01-15 05:50:11.79	255.59	7.31	-45.6	-56.9	3.8	8.46e-01	0	58	104	2835349504	60	14345
2026-01-15 05:50:12.80	255.49	7.25	-45.6	-57.0	3.8	8.46e-01	0	58	104	2835349504	60	14384
2026-01-15 05:50:13.81	255.39	7.18	-45.6	-56.9	3.8	8.46e-01	0	58	104	2835349504	60	14296
2026-01-15 05:50:14.81	255.30	7.12	-45.6	-56.9	3.8	8.46e-01	0	58	104	2835349504	60	14328
2026-01-15 05:50:15.82	255.20	7.06	-45.5	-56.9	3.8	8.46e-01	0	59	104	2835349504	60	14351
2026-01-15 05:50:16.83	255.11	6.99	-45.6	-56.9	3.8	8.47e-01	0	58	104	2835349504	60	14346
2026-01-15 05:50:17.85	255.01	6.93	-45.5	-56.9	3.8	8.47e-01	0	58	104	2835349504	60	14329
2026-01-15 05:50:18.85	254.91	6.87	-45.5	-56.9	3.8	8.46e-01	0	58	104	2835349504	60	14234
2026-01-15 05:50:19.86	254.82	6.80	-45.5	-56.9	3.8	8.46e-01	0	58	104	2835349504	60	14300
2026-01-15 05:50:20.87	254.72	6.74	-45.5	-56.9	3.8	8.47e-01	0	58	104	2835349504	60	14235
2026-01-15 05:50:21.88	254.63	6.68	-45.5	-56.9	3.8	8.46e-01	0	58	104	2835349504	60	14240
2026-01-15 05:50:22.89	254.54	6.62	-45.5	-56.9	3.8	8.46e-01	0	58	104	2835349504	60	14246
2026-01-15 05:50:23.90	254.44	6.55	-45.5	-56.9	3.8	8.46e-01	0	58	104	2835349504	60	14227
2026-01-15 05:50:24.91	254.35	6.49	-45.5	-56.9	3.8	8.47e-01	0	58	104	2835349504	60	14241
2026-01-15 05:50:25.92	254.26	6.43	-45.5	-56.9	3.8	8.45e-01	0	58	104	2835349504	60	14230
2026-01-15 05:50:26.93	254.17	6.36	-45.5	-56.8	3.8	8.47e-01	0	58	104	2835349504	60	14201
2026-01-15 05:50:27.94	254.07	6.30	-45.5	-56.9	3.8	8.46e-01	0	58	104	2835349504	60	14265
2026-01-15 05:50:28.95	253.98	6.24	-45.5	-56.8	3.8	8.46e-01	0	58	104	2835349504	60	14206
2026-01-15 05:50:29.96	253.89	6.18	-45.5	-56.8	3.8	8.45e-01	0	58	104	2835349504	60	14209
2026-01-15 05:50:30.97	253.80	6.11	-45.5	-56.9	3.8	8.48e-01	0	58	104	2835349504	60	14236
2026-01-15 05:50:31.98	253.71	6.05	-45.5	-56.9	3.8	8.45e-01	0	58	104	2835349504	60	14233
2026-01-15 05:50:32.99	253.62	5.99	-45.5	-56.8	3.8	8.46e-01	0	58	104	2835349504	60	14200
2026-01-15 05:50:34.00	253.53	5.93	-45.5	-56.8	3.8	8.46e-01	0	58	104	2835349504	60	14168
2026-01-15 05:50:35.01	253.44	5.87	-45.5	-56.9	3.8	8.47e-01	0	59	104	2835349504	60	14236
2026-01-15 05:50:36.02	253.35	5.80	-45.5	-56.8	3.8	8.46e-01	0	58	104	2835349504	60	14146
2026-01-15 05:50:37.03	253.27	5.74	-45.5	-56.8	3.8	8.46e-01	0	58	104	2835349504	60	14189
2026-01-15 05:50:38.04	253.18	5.68	-45.5	-56.9	3.8	8.46e-01	0	58	104	2835349504	60	14254
2026-01-15 05:50:39.05	253.09	5.62	-45.5	-56.8	3.8	8.46e-01	0	58	104	2835349504	60	14134
2026-01-15 05:50:40.06	253.00	5.56	-45.5	-56.8	3.8	8.46e-01	0	58	104	2835349504	60	14204
2026-01-15 05:50:41.07	252.92	5.50	-45.5	-56.8	3.8	8.46e-01	0	59	104	2835349504	60	14183
2026-01-15 05:50:42.08	252.83	5.43	-45.5	-56.8	3.8	8.47e-01	0	58	104	2835349504	60	14182
2026-01-15 05:50:43.09	252.74	5.37	-45.5	-56.8	3.8	8.48e-01	0	58	104	2835349504	60	14188
2026-01-15 05:50:44.10	252.66	5.31	-45.5	-56.8	3.8	8.44e-01	0	58	104	2835349504	60	14186
2026-01-15 05:50:45.11	252.57	5.25	-45.5	-56.9	3.8	8.46e-01	0	58	104	2835349504	60	14215
2026-01-15 05:50:46.12	252.49	5.19	-45.5	-56.9	3.8	8.47e-01	0	58	104	2835349504	60	14252
2026-01-15 05:50:47.13	252.40	5.13	-45.5	-56.8	3.8	8.47e-01	0	58	104	2835349504	60	14143
2026-01-15 05:50:48.13	252.32	5.07	-45.4	-56.8	3.8	8.45e-01	0	58	104	2835349504	60	14203
2026-01-15 05:50:49.14	252.24	5.01	-45.4	-56.8	3.8	8.45e-01	0	58	104	2835349504	60	14185
2026-01-15 05:50:50.16	252.15	4.95	-45.4	-56.8	3.8	8.45e-01	0	58	104	2835349504	60	14109
2026-01-15 05:50:51.16	252.07	4.88	-45.4	-56.8	3.8	8.46e-01	0	59	104	2835349504	60	14177
2026-01-15 05:50:52.17	251.99	4.82	-45.5	-56.8	3.8	8.47e-01	0	58	104	2835349504	60	14155
2026-01-15 05:50:53.19	251.91	4.76	-45.1	-56.8	3.8	8.46e-01	0	58	104	2835349504	60	14078
2026-01-15 05:50:54.20	251.82	4.70	-45.5	-56.8	3.8	8.47e-01	0	58	104	2835349504	60	14178
2026-01-15 05:50:55.21	251.74	4.64	-45.5	-56.8	3.8	8.45e-01	0	59	104	2835349504	60	14115
2026-01-15 05:50:56.22	251.66	4.58	-45.5	-56.8	3.8	8.46e-01	0	58	104	2835349504	60	14200
2026-01-15 05:50:57.23	251.58	4.52	-45.5	-56.9	3.8	8.46e-01	0	58	104	2835349504	60	14257
2026-01-15 05:50:58.24	251.50	4.46	-45.5	-56.8	3.8	8.46e-01	0	58	104	2835349504	60	14194
2026-01-15 05:50:59.25	251.42	4.40	-45.5	-56.8	3.8	8.46e-01	0	58	104	2835349504	60	14152
