passes_logs/2026/01/15/R2.0S_Moscow/R2.0S_Moscow__20260115_102035_AQUA_rec.log

#Pass ID: 20260115_102035_AQUA
#Satellite: AQUA
#Configuration: AQUA
#almurnet v.1.7.20251203
#Start time: 2026-01-15 10:20:35

#Version: 2.2.20231116
#Station: R2.0S_Moscow
#Location: 37.707566 lon 55.798166 lat
#TLE: 1 27424U 02022A   26014.19338718  .00000717  00000+0  15340-3 0  9998
#TLE: 2 27424  98.4080 340.6072 0002047  79.4950 292.1093 14.61819636260772

#Time	Az	El	Level	Level2	SNR	BER	BlckErr	Temp	State	Recorded	gain1	gain2
2026-01-15 10:20:35.69	119.99	1.99	-15.6	-28.2	3.5	7.40e-01	0	51	0	0	2	15702
2026-01-15 10:20:36.71	119.92	2.05	-13.9	-28.2	3.6	7.35e-01	0	51	104	0	2	15723
2026-01-15 10:20:37.72	119.85	2.11	-16.8	-31.9	3.8	7.47e-01	0	51	104	0	5	20145
2026-01-15 10:20:38.73	119.79	2.17	-19.1	-34.2	3.6	7.57e-01	0	51	104	0	7	23498
2026-01-15 10:20:39.74	119.72	2.23	-18.0	-31.6	3.3	7.47e-01	0	51	104	0	2	23180
2026-01-15 10:20:40.75	119.65	2.29	-18.6	-30.6	3.3	7.42e-01	0	51	104	0	2	20679
2026-01-15 10:20:41.76	119.58	2.35	-16.5	-33.0	3.8	7.49e-01	0	51	104	0	9	18225
2026-01-15 10:20:42.77	119.51	2.41	-11.8	-26.7	4.0	7.65e-01	0	51	104	0	0	14791
2026-01-15 10:20:43.78	119.44	2.48	-16.6	-34.7	3.4	7.57e-01	0	51	104	0	7	24710
2026-01-15 10:20:44.79	119.37	2.54	-19.2	-31.9	3.7	7.38e-01	0	52	104	0	8	16974
2026-01-15 10:20:45.80	119.30	2.60	-17.6	-31.8	3.6	7.33e-01	0	52	104	0	7	17815
2026-01-15 10:20:46.81	119.23	2.66	-19.3	-31.1	3.9	7.34e-01	0	51	104	0	6	17422
2026-01-15 10:20:47.82	119.16	2.72	-15.8	-33.7	3.8	7.44e-01	0	52	104	0	8	20999
2026-01-15 10:20:48.83	119.09	2.79	-17.5	-34.1	3.7	7.55e-01	0	52	104	0	7	23111
2026-01-15 10:20:49.84	119.02	2.85	-17.1	-33.1	3.6	7.60e-01	0	52	104	0	4	24411
2026-01-15 10:20:50.85	118.94	2.91	-11.6	-32.9	3.7	7.27e-01	0	52	104	0	0	30258
2026-01-15 10:20:51.86	118.87	2.97	-17.1	-34.2	3.6	7.48e-01	0	52	104	0	9	20945
2026-01-15 10:20:52.87	118.80	3.03	-18.5	-34.6	3.9	7.47e-01	0	52	104	0	8	23157
2026-01-15 10:20:53.88	118.73	3.10	-18.4	-34.0	3.7	7.54e-01	0	52	104	0	6	24292
2026-01-15 10:20:54.89	118.65	3.16	-14.7	-30.5	3.5	7.38e-01	0	52	104	0	0	22907
2026-01-15 10:20:55.90	118.58	3.22	-18.6	-35.7	3.8	7.50e-01	0	52	104	0	10	23329
2026-01-15 10:20:56.91	118.51	3.29	-18.9	-35.8	3.8	7.52e-01	0	52	104	0	10	23674
2026-01-15 10:20:57.92	118.43	3.35	-17.9	-34.1	3.9	7.43e-01	0	52	104	0	9	20741
2026-01-15 10:20:58.93	118.36	3.41	-15.1	-32.3	3.9	7.55e-01	0	52	104	0	7	18834
2026-01-15 10:20:59.94	118.28	3.48	-18.2	-33.2	3.9	7.49e-01	0	52	104	0	7	20968
2026-01-15 10:21:00.95	118.21	3.54	-14.8	-29.5	3.6	7.47e-01	0	52	104	0	2	18208
2026-01-15 10:21:01.96	118.13	3.60	-15.2	-29.4	3.8	7.57e-01	0	53	104	0	0	20148
2026-01-15 10:21:02.96	118.05	3.67	-13.7	-29.1	3.4	7.36e-01	0	52	104	0	0	19538
2026-01-15 10:21:03.97	117.98	3.73	-18.6	-34.3	3.8	7.42e-01	0	53	104	0	7	23691
2026-01-15 10:21:04.98	117.90	3.79	-14.1	-32.5	3.6	7.47e-01	0	53	104	0	6	20340
2026-01-15 10:21:05.99	117.82	3.86	-19.1	-34.5	3.9	7.47e-01	0	53	104	0	8	22906
2026-01-15 10:21:07.00	117.75	3.92	-16.7	-33.4	3.8	7.54e-01	0	53	104	0	7	21430
2026-01-15 10:21:08.01	117.67	3.99	-19.3	-34.6	3.9	7.51e-01	0	53	104	0	9	21772
2026-01-15 10:21:09.02	117.59	4.05	-18.9	-34.8	3.8	7.54e-01	0	53	104	0	7	24990
2026-01-15 10:21:10.03	117.51	4.12	-13.7	-31.9	3.7	7.49e-01	0	53	104	0	8	17038
2026-01-15 10:21:11.04	117.43	4.18	-16.4	-34.7	3.8	7.47e-01	0	53	104	0	10	20829
2026-01-15 10:21:12.05	117.35	4.24	-17.2	-35.8	3.7	7.53e-01	0	53	104	0	9	25173
2026-01-15 10:21:13.06	117.27	4.31	-18.9	-34.2	3.8	7.48e-01	0	53	104	0	7	23486
2026-01-15 10:21:14.07	117.19	4.37	-18.3	-32.4	3.7	7.52e-01	0	53	104	0	5	21386
2026-01-15 10:21:15.08	117.11	4.44	-19.1	-35.8	3.8	7.51e-01	0	53	104	0	10	23747
2026-01-15 10:21:16.09	117.03	4.51	-19.1	-35.3	3.4	7.63e-01	0	53	104	0	6	28274
2026-01-15 10:21:17.10	116.95	4.57	-17.6	-31.6	3.8	7.35e-01	0	53	104	0	5	19459
2026-01-15 10:21:18.11	116.86	4.64	-17.3	-34.7	3.5	7.58e-01	0	53	104	0	6	26352
2026-01-15 10:21:19.12	116.78	4.70	-19.0	-34.6	3.7	7.45e-01	0	54	104	0	8	23182
2026-01-15 10:21:20.13	116.70	4.77	-18.2	-32.8	3.8	7.52e-01	0	54	104	0	6	21129
2026-01-15 10:21:21.14	116.62	4.83	-15.9	-31.9	3.8	7.49e-01	0	54	104	0	6	19035
2026-01-15 10:21:22.15	116.53	4.90	-17.8	-32.6	3.6	7.48e-01	0	54	104	0	6	20650
2026-01-15 10:21:23.16	116.45	4.97	-13.8	-28.8	3.7	7.38e-01	0	54	104	0	2	16698
2026-01-15 10:21:24.17	116.36	5.03	-17.7	-32.8	3.7	7.45e-01	0	54	104	0	6	21119
2026-01-15 10:21:25.19	116.28	5.10	-14.7	-31.4	3.7	7.63e-01	0	54	104	0	2	22549
2026-01-15 10:21:26.19	116.19	5.17	-18.8	-34.7	3.7	7.49e-01	0	54	104	0	8	23354
2026-01-15 10:21:27.21	116.10	5.23	-15.8	-32.7	3.7	7.52e-01	0	54	104	0	7	19641
2026-01-15 10:21:28.22	116.02	5.30	-16.0	-32.7	3.5	7.53e-01	0	54	104	0	5	22041
2026-01-15 10:21:29.23	115.93	5.37	-16.0	-33.7	3.7	7.55e-01	0	54	104	0	9	19826
2026-01-15 10:21:30.23	115.85	5.43	-16.1	-34.0	3.7	7.59e-01	0	54	104	0	8	21751
2026-01-15 10:21:31.24	115.76	5.50	-18.4	-32.1	3.7	7.54e-01	0	54	104	0	6	19511
2026-01-15 10:21:32.25	115.67	5.57	-17.7	-32.8	3.6	7.58e-01	0	54	104	0	4	23761
2026-01-15 10:21:33.26	115.58	5.64	-15.8	-32.1	3.7	7.44e-01	0	54	104	0	6	19464
2026-01-15 10:21:34.27	115.49	5.70	-17.4	-32.4	3.7	7.47e-01	0	54	104	0	6	20232
2026-01-15 10:21:35.28	115.40	5.77	-18.7	-34.8	3.7	7.56e-01	0	54	104	0	8	23648
2026-01-15 10:21:36.30	115.31	5.84	-18.1	-34.2	3.7	7.56e-01	0	54	104	0	7	23343
2026-01-15 10:21:37.31	115.22	5.91	-16.7	-30.9	3.9	7.62e-01	0	54	104	0	3	20232
2026-01-15 10:21:38.32	115.13	5.98	-18.7	-34.6	3.8	7.42e-01	0	54	104	0	9	21877
2026-01-15 10:21:39.33	115.04	6.04	-18.7	-34.5	3.9	7.50e-01	0	55	104	0	8	22876
2026-01-15 10:21:40.34	114.95	6.11	-16.0	-33.5	3.4	7.50e-01	0	55	104	0	7	21675
2026-01-15 10:21:41.35	114.85	6.18	-19.1	-34.0	3.8	7.57e-01	0	55	104	0	7	22960
2026-01-15 10:21:42.36	114.76	6.25	-18.0	-34.9	4.0	7.54e-01	0	55	104	0	10	21340
2026-01-15 10:21:43.37	114.67	6.32	-18.1	-34.7	3.5	7.41e-01	0	55	104	0	7	24843
2026-01-15 10:21:44.38	114.57	6.39	-18.5	-35.1	3.7	7.57e-01	0	55	104	0	8	24434
2026-01-15 10:21:45.39	114.48	6.46	-18.8	-35.6	3.8	7.46e-01	0	55	104	0	9	24494
2026-01-15 10:21:46.40	114.38	6.53	-17.0	-31.4	3.7	7.56e-01	0	55	104	0	2	22599
2026-01-15 10:21:47.41	114.29	6.60	-13.4	-28.3	3.8	7.33e-01	0	55	104	0	0	17872
2026-01-15 10:21:48.42	114.19	6.67	-17.0	-35.0	3.5	7.62e-01	0	55	104	0	9	22918
2026-01-15 10:21:49.43	114.09	6.74	-17.6	-33.8	3.7	7.51e-01	0	55	104	0	8	21125
2026-01-15 10:21:50.44	114.00	6.80	-18.8	-35.0	3.9	7.53e-01	0	55	104	0	9	22954
2026-01-15 10:21:51.45	113.90	6.87	-15.6	-31.8	3.6	7.38e-01	0	55	104	0	7	17872
2026-01-15 10:21:52.46	113.80	6.95	-17.0	-31.7	3.8	7.56e-01	0	55	104	0	3	22216
2026-01-15 10:21:53.47	113.70	7.02	-12.2	-26.2	3.6	7.46e-01	0	55	104	0	0	13920
2026-01-15 10:21:54.48	113.60	7.09	-17.8	-32.1	3.9	7.42e-01	0	55	104	0	5	20602
2026-01-15 10:21:55.49	113.50	7.16	-15.1	-29.5	3.4	7.44e-01	0	55	104	0	0	20411
2026-01-15 10:21:56.50	113.40	7.23	-12.9	-29.4	3.6	7.45e-01	0	55	104	0	2	17889
2026-01-15 10:21:57.51	113.30	7.30	-13.5	-30.1	3.7	7.40e-01	0	55	104	0	5	16386
2026-01-15 10:21:58.52	113.20	7.37	-16.4	-34.5	3.6	7.58e-01	0	55	104	0	6	25769
2026-01-15 10:21:59.53	113.10	7.44	-15.2	-31.1	3.5	7.56e-01	0	55	104	0	4	19446
2026-01-15 10:22:00.54	113.00	7.51	-13.2	-28.6	3.6	7.46e-01	0	55	104	0	4	14684
2026-01-15 10:22:01.55	112.90	7.58	-18.3	-34.4	3.9	7.42e-01	0	55	104	0	9	21497
2026-01-15 10:22:02.56	112.79	7.65	-18.9	-34.5	3.7	7.49e-01	0	55	104	0	8	22964
2026-01-15 10:22:03.57	112.69	7.73	-13.5	-28.4	3.5	7.47e-01	0	55	104	0	2	16000
2026-01-15 10:22:04.58	112.58	7.80	-14.1	-29.3	3.7	7.57e-01	0	56	104	0	0	19855
2026-01-15 10:22:05.59	112.48	7.87	-18.5	-35.2	4.0	7.51e-01	0	55	104	0	10	22134
2026-01-15 10:22:06.60	112.37	7.94	-12.0	-27.7	3.9	7.48e-01	0	56	104	0	0	16661
2026-01-15 10:22:07.62	112.26	8.01	-19.4	-33.9	3.5	7.52e-01	0	56	104	0	4	26803
2026-01-15 10:22:08.63	112.16	8.09	-27.7	-47.1	3.9	7.46e-01	0	56	104	0	28	30789
2026-01-15 10:22:09.64	112.05	8.16	-27.1	-44.0	3.6	7.50e-01	0	56	104	0	23	28880
2026-01-15 10:22:10.65	111.94	8.23	-19.0	-33.1	3.8	7.66e-01	0	56	104	0	3	26152
2026-01-15 10:22:11.66	111.83	8.30	-14.0	-27.2	3.5	7.42e-01	0	56	104	0	1	14727
2026-01-15 10:22:12.67	111.72	8.38	-18.4	-35.5	3.6	7.50e-01	0	56	104	0	10	22982
2026-01-15 10:22:13.68	111.61	8.45	-17.2	-34.4	3.8	7.45e-01	0	56	104	0	10	20146
2026-01-15 10:22:14.69	111.50	8.52	-19.7	-36.2	4.0	7.50e-01	0	56	104	0	11	23366
2026-01-15 10:22:15.70	111.39	8.60	-14.9	-30.1	3.7	7.43e-01	0	56	104	0	1	20621
2026-01-15 10:22:16.70	111.28	8.67	-14.5	-33.7	3.9	7.55e-01	0	56	104	0	11	17674
2026-01-15 10:22:17.71	111.17	8.74	-25.4	-42.5	4.0	7.50e-01	0	56	104	0	24	22840
2026-01-15 10:22:18.73	111.05	8.82	-26.3	-39.5	3.8	7.54e-01	0	56	104	0	18	22821
2026-01-15 10:22:19.74	110.94	8.89	-18.3	-32.1	3.6	7.44e-01	0	56	104	0	11	14636
2026-01-15 10:22:20.75	110.83	8.97	-20.9	-36.3	4.1	7.46e-01	0	56	104	0	15	18773
2026-01-15 10:22:21.76	110.71	9.04	-25.8	-40.5	3.9	7.55e-01	0	56	104	0	21	21709
2026-01-15 10:22:22.77	110.60	9.12	-21.4	-36.1	3.9	7.51e-01	0	56	104	0	13	20632
2026-01-15 10:22:23.78	110.48	9.19	-29.0	-44.6	4.1	7.48e-01	0	56	104	0	28	23186
2026-01-15 10:22:24.79	110.36	9.26	-29.1	-42.2	4.1	7.51e-01	0	56	104	0	28	17618
2026-01-15 10:22:25.80	110.25	9.34	-28.8	-44.6	4.0	7.60e-01	0	56	104	0	27	24579
2026-01-15 10:22:26.81	110.13	9.41	-30.4	-46.9	3.7	7.41e-01	0	56	104	0	29	28604
2026-01-15 10:22:27.82	110.01	9.49	-29.6	-50.2	3.7	7.54e-01	0	56	104	0	33	33049
2026-01-15 10:22:28.83	109.89	9.56	-30.9	-46.9	4.3	7.47e-01	0	56	104	0	35	20130
2026-01-15 10:22:29.84	109.77	9.64	-29.4	-46.6	3.8	7.48e-01	0	56	104	0	32	23125
2026-01-15 10:22:30.85	109.65	9.72	-29.0	-44.3	4.1	7.39e-01	0	57	104	0	32	17707
2026-01-15 10:22:31.86	109.53	9.79	-30.4	-47.4	4.0	7.49e-01	0	57	104	0	32	25280
2026-01-15 10:22:32.87	109.40	9.87	-32.8	-46.7	4.5	7.45e-01	0	56	104	0	34	20948
2026-01-15 10:22:33.88	109.28	9.94	-34.3	-52.4	4.6	7.45e-01	0	57	104	0	39	30377
2026-01-15 10:22:34.89	109.16	10.02	-21.8	-43.3	4.1	7.40e-01	0	56	104	0	29	18904
2026-01-15 10:22:35.90	109.03	10.10	-31.5	-48.8	4.4	7.35e-01	0	57	104	0	38	21260
2026-01-15 10:22:36.91	108.91	10.17	-28.0	-44.5	4.0	7.53e-01	0	56	104	0	25	27330
2026-01-15 10:22:37.92	108.78	10.25	-28.4	-46.2	4.4	7.39e-01	0	57	104	0	33	20824
2026-01-15 10:22:38.93	108.65	10.32	-30.1	-45.9	4.8	7.40e-01	0	57	104	0	34	19023
2026-01-15 10:22:39.94	108.53	10.40	-31.5	-47.1	4.1	7.43e-01	0	57	104	0	30	27553
2026-01-15 10:22:40.95	108.40	10.48	-25.8	-43.9	3.4	7.46e-01	0	57	104	0	25	25431
2026-01-15 10:22:41.96	108.27	10.56	-20.6	-39.0	3.3	7.54e-01	0	57	104	0	17	22935
2026-01-15 10:22:42.97	108.14	10.63	-29.2	-44.1	3.7	7.22e-01	0	57	104	0	25	26150
2026-01-15 10:22:43.98	108.01	10.71	-29.7	-47.3	4.0	7.38e-01	0	57	104	0	30	28317
2026-01-15 10:22:44.99	107.88	10.79	-28.7	-45.5	3.9	7.41e-01	0	57	104	0	28	25661
2026-01-15 10:22:46.00	107.75	10.86	-32.5	-49.0	3.8	7.53e-01	0	57	104	0	32	30545
2026-01-15 10:22:47.01	107.61	10.94	-26.5	-45.8	3.7	7.52e-01	0	57	104	0	26	29834
2026-01-15 10:22:48.03	107.48	11.02	-27.2	-48.6	4.4	7.39e-01	0	57	104	0	32	29191
2026-01-15 10:22:49.04	107.34	11.10	-24.9	-40.8	3.8	7.43e-01	0	57	104	0	16	30012
2026-01-15 10:22:50.05	107.21	11.18	-27.0	-42.6	3.7	7.61e-01	0	57	104	0	20	29117
2026-01-15 10:22:51.06	107.07	11.26	-37.0	-50.3	5.4	6.96e-01	0	57	0	0	33	33488
2026-01-15 10:22:52.07	106.94	11.33	-26.8	-48.3	4.0	7.51e-01	0	57	104	0	23	47536
2026-01-15 10:22:53.08	106.80	11.41	-32.3	-50.8	3.7	7.44e-01	0	57	104	0	32	37652
2026-01-15 10:22:54.09	106.66	11.49	-29.3	-49.9	4.1	7.63e-01	0	57	104	0	31	35786
2026-01-15 10:22:55.10	106.52	11.57	-35.0	-53.1	4.1	7.41e-01	0	57	104	0	37	36578
2026-01-15 10:22:56.11	106.38	11.65	-32.3	-48.6	4.4	7.38e-01	0	57	104	0	39	19614
2026-01-15 10:22:57.12	106.24	11.73	-32.6	-51.9	3.9	7.49e-01	0	57	104	0	39	28618
2026-01-15 10:22:58.13	106.10	11.81	-32.3	-54.4	3.9	7.49e-01	0	57	104	0	35	47688
2026-01-15 10:22:59.14	105.96	11.89	-29.8	-49.3	5.2	7.04e-01	0	57	104	0	37	23791
2026-01-15 10:23:00.15	105.81	11.97	-25.4	-47.5	4.1	7.30e-01	0	57	104	0	28	32258
2026-01-15 10:23:01.16	105.67	12.04	-30.6	-53.5	4.1	7.50e-01	0	57	104	0	35	43018
2026-01-15 10:23:02.17	105.53	12.12	-25.7	-45.1	4.6	7.41e-01	0	57	104	0	21	36751
2026-01-15 10:23:03.18	105.38	12.20	-23.9	-43.6	4.4	7.37e-01	0	57	104	0	21	30860
2026-01-15 10:23:04.19	105.23	12.28	-25.0	-43.9	3.9	7.40e-01	0	57	104	0	18	38213
2026-01-15 10:23:05.20	105.09	12.36	-25.0	-45.4	3.8	7.19e-01	0	57	104	0	22	35881
2026-01-15 10:23:06.21	104.94	12.44	-25.5	-44.6	4.8	7.29e-01	0	57	104	0	25	27604
2026-01-15 10:23:07.22	104.79	12.52	-22.7	-42.7	4.4	7.34e-01	0	58	104	0	19	31090
2026-01-15 10:23:08.23	104.64	12.60	-25.9	-44.4	4.4	7.39e-01	0	57	104	0	19	38169
2026-01-15 10:23:09.25	104.49	12.69	-23.6	-43.6	5.0	7.01e-01	0	57	104	0	24	26037
2026-01-15 10:23:10.26	104.33	12.77	-25.0	-42.6	5.6	7.12e-01	0	57	104	0	21	27652
2026-01-15 10:23:11.27	104.18	12.85	-23.9	-44.1	5.8	6.82e-01	0	58	0	0	27	23264
2026-01-15 10:23:12.28	104.03	12.93	-26.3	-43.9	5.8	6.77e-01	0	57	104	0	25	25360
2026-01-15 10:23:13.28	103.87	13.01	-24.5	-42.6	6.2	6.92e-01	6	58	0	0	26	20750
2026-01-15 10:23:14.29	103.72	13.09	-25.7	-44.8	4.7	7.32e-01	0	58	104	0	25	28117
2026-01-15 10:23:15.30	103.56	13.17	-22.8	-44.1	3.8	7.25e-01	0	57	104	0	20	34806
2026-01-15 10:23:16.31	103.40	13.25	-31.9	-42.8	7.8	6.62e-01	87	57	0	0	23	25024
2026-01-15 10:23:17.32	103.25	13.33	-30.6	-43.6	8.1	6.43e-01	78	58	0	1572864	35	13838
2026-01-15 10:23:18.33	103.09	13.41	-31.6	-43.2	8.7	6.35e-01	74	58	0	3670016	31	16691
2026-01-15 10:23:19.34	102.93	13.49	-36.7	-45.0	8.8	6.42e-01	64	58	0	5242880	38	13723
2026-01-15 10:23:20.35	102.77	13.58	-29.1	-43.6	8.0	6.66e-01	83	58	0	7340032	28	20701
2026-01-15 10:23:21.36	102.60	13.66	-31.8	-43.9	12.3	6.19e-01	16	58	0	8912896	37	12732
2026-01-15 10:23:22.37	102.44	13.74	-36.1	-44.1	11.4	6.19e-01	14	58	0	11010048	34	15458
2026-01-15 10:23:23.38	102.28	13.82	-28.2	-43.0	7.9	6.54e-01	88	58	0	12582912	27	20415
2026-01-15 10:23:24.39	102.11	13.90	-27.0	-43.0	8.9	6.44e-01	85	58	0	14680064	27	20335
2026-01-15 10:23:25.40	101.95	13.98	-38.7	-45.3	11.8	6.27e-01	33	58	0	16777216	43	10603
2026-01-15 10:23:26.41	101.78	14.07	-38.4	-47.0	11.3	6.22e-01	24	58	0	18350080	45	11418
2026-01-15 10:23:27.42	101.61	14.15	-38.9	-45.7	11.1	6.24e-01	28	58	0	20447232	40	13257
2026-01-15 10:23:28.43	101.44	14.23	-34.0	-44.8	12.2	6.12e-01	1	58	0	22020096	44	9435
2026-01-15 10:23:29.44	101.27	14.31	-33.3	-45.8	10.9	6.25e-01	18	58	0	24117248	41	12626
2026-01-15 10:23:30.45	101.10	14.40	-34.8	-46.9	9.7	6.20e-01	30	58	0	26214400	44	11969
2026-01-15 10:23:31.46	100.93	14.48	-36.9	-47.2	12.8	6.09e-01	1	58	0	27787264	51	8341
2026-01-15 10:23:32.47	100.75	14.56	-34.4	-46.4	10.1	6.24e-01	36	58	0	29884416	44	11321
2026-01-15 10:23:33.48	100.58	14.64	-37.8	-45.9	11.9	6.16e-01	12	58	0	31457280	46	9504
2026-01-15 10:23:34.49	100.40	14.73	-41.0	-46.3	14.9	6.09e-01	0	58	0	33554432	53	6723
2026-01-15 10:23:35.50	100.23	14.81	-41.5	-46.4	13.8	6.09e-01	0	58	0	35651584	53	6764
2026-01-15 10:23:36.51	100.05	14.89	-40.5	-46.5	12.8	6.14e-01	0	58	0	37224448	51	7659
2026-01-15 10:23:37.51	99.87	14.97	-37.9	-45.9	14.4	6.08e-01	0	58	0	39321600	51	7169
2026-01-15 10:23:38.52	99.69	15.06	-41.1	-45.8	15.6	6.08e-01	0	58	0	40894464	53	6291
2026-01-15 10:23:39.53	99.51	15.14	-40.3	-45.7	16.0	6.07e-01	0	58	0	42991616	52	6630
2026-01-15 10:23:40.53	99.33	15.22	-40.8	-45.7	14.3	6.10e-01	0	58	0	45088768	52	6585
2026-01-15 10:23:41.54	99.15	15.30	-41.9	-46.1	15.3	6.06e-01	0	58	0	46661632	54	6138
2026-01-15 10:23:42.55	98.97	15.39	-41.6	-46.1	16.0	6.07e-01	0	58	0	48758784	54	6191
2026-01-15 10:23:43.56	98.78	15.47	-40.3	-46.0	12.1	6.15e-01	0	58	0	50855936	52	6808
2026-01-15 10:23:44.57	98.60	15.55	-41.4	-45.8	16.4	6.06e-01	0	58	0	52428800	54	5951
2026-01-15 10:23:45.57	98.41	15.63	-41.7	-45.5	16.6	6.06e-01	0	58	0	54525952	54	5780
2026-01-15 10:23:46.58	98.22	15.72	-41.8	-45.6	16.9	6.07e-01	0	58	0	56098816	54	5805
2026-01-15 10:23:47.59	98.03	15.80	-41.7	-45.7	16.6	6.08e-01	0	58	0	58195968	54	5858
2026-01-15 10:23:48.60	97.84	15.88	-42.0	-45.8	17.1	6.09e-01	0	58	0	60293120	54	5961
2026-01-15 10:23:49.61	97.65	15.97	-41.9	-45.8	16.9	6.07e-01	0	58	0	61865984	54	5950
2026-01-15 10:23:50.62	97.46	16.05	-41.7	-45.7	17.1	6.08e-01	0	58	0	63963136	54	5891
2026-01-15 10:23:51.63	97.26	16.13	-41.9	-45.6	17.2	6.06e-01	0	58	0	65536000	54	5854
2026-01-15 10:23:52.64	97.07	16.21	-42.0	-45.7	17.3	6.07e-01	0	58	0	67633152	54	5869
2026-01-15 10:23:53.64	96.88	16.30	-41.8	-45.7	17.3	6.06e-01	0	58	0	69206016	54	5870
2026-01-15 10:23:54.65	96.68	16.38	-41.5	-45.5	16.9	6.06e-01	0	58	0	71303168	54	5736
2026-01-15 10:23:55.66	96.48	16.46	-41.2	-45.4	14.8	6.09e-01	0	58	0	73400320	52	6420
2026-01-15 10:23:56.67	96.28	16.55	-40.7	-45.6	16.0	6.07e-01	0	58	0	74973184	54	5814
2026-01-15 10:23:57.68	96.08	16.63	-41.3	-45.7	15.1	6.10e-01	0	58	0	77070336	52	6571
2026-01-15 10:23:58.69	95.88	16.71	-41.5	-45.7	15.8	6.07e-01	0	58	0	79167488	54	5916
2026-01-15 10:23:59.70	95.67	16.79	-41.9	-45.7	16.0	6.05e-01	0	58	0	80740352	54	5883
2026-01-15 10:24:00.71	95.47	16.88	-41.4	-45.5	16.7	6.06e-01	0	58	0	82837504	53	6112
2026-01-15 10:24:01.72	95.26	16.96	-41.5	-45.4	16.9	6.07e-01	0	58	0	84410368	53	5994
2026-01-15 10:24:02.73	95.06	17.04	-41.5	-45.2	17.5	6.07e-01	0	58	0	86507520	53	5912
2026-01-15 10:24:03.74	94.85	17.12	-41.3	-45.1	17.8	6.05e-01	0	58	0	88604672	53	5816
2026-01-15 10:24:04.75	94.64	17.21	-41.3	-45.1	17.5	6.08e-01	0	58	0	90177536	53	5834
2026-01-15 10:24:05.76	94.43	17.29	-41.3	-45.4	17.4	6.06e-01	0	58	0	92274688	53	6010
2026-01-15 10:24:06.77	94.22	17.37	-41.4	-45.6	17.3	6.07e-01	0	58	0	94371840	53	6173
2026-01-15 10:24:07.78	94.00	17.45	-41.5	-45.6	17.1	6.09e-01	0	58	0	95944704	53	6164
2026-01-15 10:24:08.79	93.79	17.54	-41.5	-45.6	17.2	6.07e-01	0	58	0	98041856	53	6175
2026-01-15 10:24:09.80	93.57	17.62	-41.5	-45.6	17.0	6.06e-01	0	58	0	99614720	53	6176
2026-01-15 10:24:10.80	93.36	17.70	-41.2	-45.4	17.2	6.07e-01	0	59	0	101711872	53	6058
2026-01-15 10:24:11.81	93.14	17.78	-41.3	-45.5	17.0	6.05e-01	0	58	0	103809024	53	6081
2026-01-15 10:24:12.82	92.92	17.86	-41.4	-45.6	17.2	6.06e-01	0	58	0	105381888	53	6140
2026-01-15 10:24:13.83	92.70	17.95	-41.3	-45.7	17.1	6.06e-01	0	59	0	107479040	53	6206
2026-01-15 10:24:14.83	92.48	18.03	-41.5	-45.6	17.1	6.07e-01	0	59	0	109051904	53	6181
2026-01-15 10:24:15.84	92.26	18.11	-41.2	-45.6	16.9	6.07e-01	0	59	0	111149056	53	6200
2026-01-15 10:24:16.85	92.03	18.19	-41.3	-45.7	16.9	6.07e-01	0	59	0	113246208	53	6204
2026-01-15 10:24:17.86	91.81	18.27	-41.4	-45.6	17.0	6.08e-01	0	58	0	114819072	53	6132
2026-01-15 10:24:18.87	91.58	18.35	-41.1	-45.6	16.7	6.07e-01	0	59	0	116916224	53	6137
2026-01-15 10:24:19.88	91.35	18.43	-41.4	-45.7	16.7	6.07e-01	0	59	0	118489088	53	6219
2026-01-15 10:24:20.88	91.12	18.51	-41.9	-45.8	16.8	6.06e-01	0	59	0	120586240	54	5975
2026-01-15 10:24:21.89	90.89	18.59	-41.9	-46.0	16.6	6.07e-01	0	59	0	122683392	54	6063
2026-01-15 10:24:22.90	90.66	18.67	-42.0	-46.2	16.3	6.06e-01	0	59	0	124256256	54	6274
2026-01-15 10:24:23.91	90.43	18.75	-42.1	-46.4	16.1	6.06e-01	0	59	0	126353408	54	6383
2026-01-15 10:24:24.92	90.19	18.83	-42.0	-46.3	16.2	6.05e-01	0	59	0	127926272	54	6324
2026-01-15 10:24:25.93	89.96	18.91	-41.9	-46.2	16.2	6.07e-01	0	58	0	130023424	54	6227
2026-01-15 10:24:26.94	89.72	18.99	-41.9	-46.2	16.2	6.10e-01	0	59	0	132120576	54	6262
2026-01-15 10:24:27.95	89.48	19.07	-41.8	-46.4	15.8	6.07e-01	0	59	0	133693440	54	6361
2026-01-15 10:24:28.96	89.24	19.15	-42.0	-46.6	15.6	6.07e-01	0	58	0	135790592	54	6550
2026-01-15 10:24:29.97	89.00	19.23	-42.1	-46.9	15.2	6.07e-01	0	59	0	137363456	54	6790
2026-01-15 10:24:30.98	88.76	19.31	-42.1	-47.0	15.1	6.06e-01	0	58	0	139460608	54	6829
2026-01-15 10:24:31.99	88.51	19.39	-42.0	-47.0	15.1	6.07e-01	0	58	0	141557760	54	6805
2026-01-15 10:24:33.00	88.27	19.47	-42.1	-47.1	14.9	6.07e-01	0	59	0	143130624	54	6916
2026-01-15 10:24:34.00	88.02	19.54	-42.1	-47.3	14.7	6.07e-01	0	59	0	145227776	54	7102
2026-01-15 10:24:35.01	87.78	19.62	-42.1	-47.5	14.5	6.06e-01	0	59	0	147324928	54	7210
2026-01-15 10:24:36.02	87.53	19.70	-42.2	-47.6	14.2	6.08e-01	0	59	0	148897792	54	7363
2026-01-15 10:24:37.03	87.28	19.77	-42.1	-47.4	14.5	6.07e-01	0	59	0	150994944	54	7196
2026-01-15 10:24:38.04	87.02	19.85	-42.1	-47.3	14.6	6.08e-01	0	59	0	152567808	54	7109
2026-01-15 10:24:39.04	86.77	19.93	-42.1	-47.2	14.8	6.09e-01	0	59	0	154664960	54	7012
2026-01-15 10:24:40.06	86.52	20.00	-42.1	-47.2	14.8	6.06e-01	0	59	0	156762112	54	7014
2026-01-15 10:24:41.06	86.26	20.08	-42.0	-47.0	15.1	6.08e-01	0	59	0	158334976	54	6806
2026-01-15 10:24:42.07	86.01	20.15	-42.0	-46.9	15.1	6.08e-01	0	59	0	160432128	54	6777
2026-01-15 10:24:43.08	85.75	20.23	-42.0	-46.9	15.1	6.09e-01	0	59	0	162004992	54	6799
2026-01-15 10:24:44.09	85.49	20.31	-42.0	-46.8	15.2	6.08e-01	0	59	0	164102144	54	6703
2026-01-15 10:24:45.10	85.22	20.38	-41.9	-46.6	15.4	6.06e-01	0	59	0	166199296	54	6555
2026-01-15 10:24:46.11	84.96	20.45	-41.9	-46.5	15.5	6.08e-01	0	59	0	167772160	54	6491
2026-01-15 10:24:47.12	84.70	20.53	-41.9	-46.5	15.6	6.08e-01	0	59	0	169869312	54	6478
2026-01-15 10:24:48.13	84.43	20.60	-42.0	-46.6	15.6	6.07e-01	0	59	0	171442176	54	6552
2026-01-15 10:24:49.14	84.17	20.67	-42.0	-46.5	15.8	6.06e-01	0	59	0	173539328	54	6434
2026-01-15 10:24:50.15	83.90	20.75	-42.0	-46.4	15.9	6.07e-01	0	59	0	175636480	54	6401
2026-01-15 10:24:51.15	83.63	20.82	-42.0	-46.3	16.0	6.06e-01	0	59	0	177209344	54	6315
2026-01-15 10:24:52.16	83.36	20.89	-42.0	-46.3	16.2	6.07e-01	0	59	0	179306496	54	6279
2026-01-15 10:24:53.17	83.09	20.96	-42.1	-46.3	16.2	6.08e-01	0	59	0	180879360	54	6335
2026-01-15 10:24:54.18	82.82	21.03	-42.1	-46.3	16.2	6.05e-01	0	59	0	182976512	54	6327
2026-01-15 10:24:55.19	82.54	21.10	-42.1	-46.3	16.3	6.07e-01	0	59	0	185073664	54	6302
2026-01-15 10:24:56.20	82.26	21.17	-42.1	-46.2	16.5	6.07e-01	0	59	0	186646528	54	6236
2026-01-15 10:24:57.21	81.99	21.24	-42.2	-46.3	16.4	6.04e-01	0	59	0	188743680	54	6344
2026-01-15 10:24:58.22	81.71	21.31	-42.3	-46.6	16.1	6.05e-01	0	59	0	190840832	55	6184
2026-01-15 10:24:59.23	81.43	21.38	-42.3	-46.6	16.1	6.07e-01	0	59	0	192413696	55	6189
2026-01-15 10:25:00.24	81.15	21.45	-42.3	-46.5	16.2	6.07e-01	0	59	0	194510848	55	6100
2026-01-15 10:25:01.25	80.87	21.52	-42.2	-46.4	16.4	6.07e-01	0	59	0	196083712	55	6004
2026-01-15 10:25:02.26	80.58	21.58	-42.3	-46.5	16.3	6.07e-01	0	59	0	198180864	55	6066
2026-01-15 10:25:03.27	80.30	21.65	-42.3	-46.5	16.3	6.06e-01	0	59	0	200278016	55	6115
2026-01-15 10:25:04.28	80.01	21.72	-42.3	-46.4	16.5	6.07e-01	0	59	0	201850880	55	5999
2026-01-15 10:25:05.28	79.72	21.78	-42.2	-46.3	16.5	6.08e-01	0	59	0	203948032	55	5969
2026-01-15 10:25:06.29	79.44	21.85	-42.2	-46.2	16.6	6.07e-01	0	59	0	205520896	55	5898
2026-01-15 10:25:07.30	79.15	21.91	-42.2	-46.3	16.6	6.06e-01	0	59	0	207618048	55	5940
2026-01-15 10:25:08.31	78.85	21.97	-42.2	-46.3	16.5	6.08e-01	0	59	0	209715200	55	5984
2026-01-15 10:25:09.32	78.56	22.04	-42.3	-46.4	16.4	6.07e-01	0	59	0	211288064	55	6050
2026-01-15 10:25:10.32	78.27	22.10	-42.2	-46.2	16.6	6.06e-01	0	59	0	213385216	55	5907
2026-01-15 10:25:11.33	77.98	22.16	-42.1	-46.0	16.9	6.05e-01	0	59	0	214958080	55	5776
2026-01-15 10:25:12.34	77.68	22.22	-42.2	-46.2	16.7	6.08e-01	0	59	0	217055232	55	5895
2026-01-15 10:25:13.35	77.38	22.28	-42.4	-46.6	16.3	6.07e-01	0	59	0	219152384	55	6166
2026-01-15 10:25:14.36	77.08	22.34	-42.5	-46.7	16.2	6.07e-01	0	59	0	220725248	55	6258
2026-01-15 10:25:15.37	76.78	22.40	-42.5	-46.6	16.3	6.05e-01	0	59	0	222822400	55	6180
2026-01-15 10:25:16.38	76.48	22.46	-42.4	-46.5	16.5	6.06e-01	0	59	0	224395264	55	6090
2026-01-15 10:25:17.39	76.18	22.52	-42.5	-46.5	16.5	6.07e-01	0	59	0	226492416	55	6112
2026-01-15 10:25:18.40	75.87	22.58	-42.3	-46.3	16.8	6.06e-01	0	59	0	228589568	55	5929
2026-01-15 10:25:19.40	75.57	22.63	-42.4	-46.4	16.6	6.04e-01	0	59	0	230162432	55	6058
2026-01-15 10:25:20.41	75.27	22.69	-42.4	-46.5	16.6	6.06e-01	0	59	0	232259584	55	6088
2026-01-15 10:25:21.42	74.96	22.74	-42.3	-46.3	16.8	6.08e-01	0	59	0	233832448	55	5929
2026-01-15 10:25:22.43	74.65	22.80	-42.3	-46.2	16.8	6.08e-01	0	59	0	235929600	55	5895
2026-01-15 10:25:23.45	74.34	22.85	-42.3	-46.3	16.8	6.06e-01	0	59	0	238026752	55	5947
2026-01-15 10:25:24.45	74.03	22.91	-42.5	-46.6	16.5	6.07e-01	0	59	0	239599616	55	6177
2026-01-15 10:25:25.46	73.72	22.96	-42.4	-46.3	16.8	6.08e-01	0	59	0	241696768	55	5984
2026-01-15 10:25:26.47	73.41	23.01	-42.3	-46.0	17.1	6.06e-01	0	59	0	243793920	55	5778
2026-01-15 10:25:27.48	73.09	23.06	-42.3	-46.1	17.1	6.07e-01	0	59	0	245366784	55	5817
2026-01-15 10:25:28.49	72.78	23.11	-42.3	-46.1	17.1	6.08e-01	0	59	0	247463936	55	5844
2026-01-15 10:25:29.50	72.46	23.16	-42.2	-46.0	17.2	6.08e-01	0	59	0	249036800	55	5734
2026-01-15 10:25:30.51	72.15	23.21	-42.2	-46.0	17.2	6.04e-01	0	59	0	251133952	55	5742
2026-01-15 10:25:31.52	71.83	23.26	-42.3	-46.1	17.1	6.04e-01	0	59	0	253231104	55	5820
2026-01-15 10:25:32.53	71.51	23.30	-42.3	-46.1	17.2	6.07e-01	0	59	0	254803968	55	5822
2026-01-15 10:25:33.53	71.19	23.35	-42.4	-46.1	17.2	6.05e-01	0	59	0	256901120	55	5839
2026-01-15 10:25:34.54	70.87	23.39	-42.4	-46.3	17.1	6.07e-01	0	59	0	258473984	55	5924
2026-01-15 10:25:35.55	70.55	23.44	-42.4	-46.2	17.2	6.07e-01	0	59	0	260571136	55	5858
2026-01-15 10:25:36.56	70.23	23.48	-42.4	-46.1	17.3	6.07e-01	0	59	0	262668288	55	5825
2026-01-15 10:25:37.56	69.91	23.52	-42.4	-46.1	17.3	6.10e-01	0	59	0	264241152	55	5801
2026-01-15 10:25:38.57	69.58	23.57	-42.4	-46.2	17.2	6.08e-01	0	59	0	266338304	55	5871
2026-01-15 10:25:39.58	69.26	23.61	-42.5	-46.2	17.2	6.07e-01	0	59	0	267911168	55	5900
2026-01-15 10:25:40.59	68.93	23.65	-42.4	-46.2	17.3	6.07e-01	0	59	0	270008320	55	5863
2026-01-15 10:25:41.60	68.60	23.69	-42.5	-46.2	17.1	6.07e-01	0	59	0	272105472	55	5901
2026-01-15 10:25:42.61	68.27	23.72	-42.3	-45.9	17.6	6.07e-01	0	59	0	273678336	55	5702
2026-01-15 10:25:43.61	67.95	23.76	-42.4	-46.0	17.5	6.07e-01	0	59	0	275775488	55	5774
2026-01-15 10:25:44.62	67.62	23.80	-42.4	-46.1	17.4	6.08e-01	0	59	0	277348352	55	5832
2026-01-15 10:25:45.63	67.29	23.83	-42.5	-46.1	17.4	6.06e-01	0	59	0	279445504	55	5845
2026-01-15 10:25:46.64	66.96	23.87	-42.5	-46.2	17.3	6.06e-01	0	59	0	281542656	55	5877
2026-01-15 10:25:47.65	66.63	23.90	-42.4	-46.0	17.5	6.07e-01	0	59	0	283115520	55	5780
2026-01-15 10:25:48.66	66.29	23.93	-42.4	-46.0	17.5	6.07e-01	0	59	0	285212672	55	5738
2026-01-15 10:25:49.67	65.96	23.96	-42.4	-46.0	17.5	6.06e-01	0	59	0	287309824	55	5777
2026-01-15 10:25:50.68	65.63	23.99	-42.3	-45.9	17.7	6.05e-01	0	59	0	288882688	55	5684
2026-01-15 10:25:51.69	65.29	24.02	-42.4	-46.0	17.6	6.06e-01	0	59	0	290979840	55	5758
2026-01-15 10:25:52.70	64.96	24.05	-42.5	-46.2	17.4	6.07e-01	0	59	0	292552704	55	5895
2026-01-15 10:25:53.71	64.62	24.08	-42.6	-46.3	17.3	6.05e-01	0	59	0	294649856	55	5939
2026-01-15 10:25:54.72	64.28	24.11	-42.3	-45.9	17.7	6.08e-01	0	59	0	296747008	55	5678
2026-01-15 10:25:55.72	63.95	24.13	-42.3	-45.8	17.8	6.06e-01	0	59	0	298319872	55	5640
2026-01-15 10:25:56.73	63.61	24.16	-42.4	-46.0	17.6	6.05e-01	0	59	0	300417024	55	5775
2026-01-15 10:25:57.74	63.27	24.18	-42.5	-46.1	17.5	6.09e-01	0	59	0	301989888	55	5796
2026-01-15 10:25:58.74	62.94	24.20	-42.4	-46.0	17.6	6.06e-01	0	59	0	304087040	55	5729
2026-01-15 10:25:59.75	62.60	24.22	-42.4	-46.1	17.5	6.07e-01	0	59	0	306184192	55	5803
2026-01-15 10:26:00.76	62.26	24.24	-42.4	-46.0	17.6	6.09e-01	0	59	0	307757056	55	5755
2026-01-15 10:26:01.76	61.92	24.26	-42.5	-46.1	17.5	6.06e-01	0	60	0	309854208	55	5855
2026-01-15 10:26:02.77	61.58	24.28	-42.5	-46.3	17.4	6.09e-01	0	59	0	311427072	55	5925
2026-01-15 10:26:03.78	61.24	24.30	-42.5	-46.3	17.3	6.08e-01	0	59	0	313524224	55	5933
2026-01-15 10:26:04.79	60.90	24.32	-42.5	-46.1	17.5	6.07e-01	0	59	0	315621376	55	5823
2026-01-15 10:26:05.80	60.56	24.33	-42.4	-46.1	17.5	6.08e-01	0	60	0	317194240	55	5826
2026-01-15 10:26:06.80	60.22	24.35	-42.4	-46.0	17.6	6.07e-01	0	59	0	319291392	55	5780
2026-01-15 10:26:07.81	59.88	24.36	-42.5	-46.2	17.4	6.07e-01	0	59	0	320864256	55	5881
2026-01-15 10:26:08.82	59.53	24.37	-42.7	-46.4	17.2	6.05e-01	0	60	0	322961408	55	6059
2026-01-15 10:26:09.83	59.19	24.38	-42.6	-46.3	17.3	6.06e-01	0	60	0	325058560	55	5954
2026-01-15 10:26:10.84	58.85	24.39	-42.5	-46.2	17.4	6.07e-01	0	59	0	326631424	55	5907
2026-01-15 10:26:11.85	58.50	24.40	-42.4	-46.0	17.6	6.09e-01	0	59	0	328728576	55	5765
2026-01-15 10:26:12.86	58.16	24.41	-42.4	-46.0	17.6	6.06e-01	0	59	0	330301440	55	5746
2026-01-15 10:26:13.87	57.82	24.42	-42.5	-46.1	17.6	6.08e-01	0	59	0	332398592	55	5790
2026-01-15 10:26:14.88	57.47	24.42	-42.5	-46.2	17.4	6.06e-01	0	59	0	334495744	55	5883
2026-01-15 10:26:15.89	57.13	24.43	-42.5	-46.1	17.5	6.06e-01	0	60	0	336068608	55	5839
2026-01-15 10:26:16.89	56.79	24.43	-42.4	-46.0	17.7	6.05e-01	0	59	0	338165760	55	5748
2026-01-15 10:26:17.90	56.44	24.43	-42.4	-46.0	17.6	6.07e-01	0	59	0	340262912	55	5741
2026-01-15 10:26:18.91	56.10	24.43	-42.5	-46.2	17.5	6.05e-01	0	60	0	341835776	55	5863
2026-01-15 10:26:19.92	55.76	24.43	-42.4	-46.0	17.6	6.08e-01	0	59	0	343932928	55	5764
2026-01-15 10:26:20.93	55.41	24.43	-42.5	-46.0	17.6	6.08e-01	0	59	0	345505792	55	5775
2026-01-15 10:26:21.94	55.07	24.43	-42.5	-46.2	17.5	6.05e-01	0	59	0	347602944	55	5883
2026-01-15 10:26:22.95	54.72	24.43	-42.5	-46.2	17.5	6.07e-01	0	59	0	349700096	55	5860
2026-01-15 10:26:23.96	54.38	24.42	-42.4	-46.0	17.6	6.07e-01	0	59	0	351272960	55	5763
2026-01-15 10:26:24.96	54.04	24.42	-42.4	-46.0	17.6	6.07e-01	0	60	0	353370112	55	5778
2026-01-15 10:26:25.97	53.70	24.41	-42.4	-46.0	17.6	6.08e-01	0	59	0	354942976	55	5779
2026-01-15 10:26:26.98	53.35	24.41	-42.5	-46.1	17.5	6.06e-01	0	59	0	357040128	55	5847
2026-01-15 10:26:27.99	53.01	24.40	-42.4	-46.0	17.7	6.06e-01	0	59	0	358612992	55	5752
2026-01-15 10:26:29.00	52.67	24.39	-42.5	-46.2	17.5	6.08e-01	0	59	0	360710144	55	5887
2026-01-15 10:26:30.02	52.32	24.38	-42.5	-46.2	17.4	6.06e-01	0	59	0	362807296	55	5915
2026-01-15 10:26:31.03	51.98	24.37	-42.4	-46.0	17.6	6.06e-01	0	59	0	364380160	55	5787
2026-01-15 10:26:32.04	51.63	24.35	-42.7	-55.7	3.8	7.47e-01	0	59	104	364904448	55	17545
2026-01-15 10:26:33.05	51.29	24.34	-42.8	-55.9	3.9	7.42e-01	0	59	104	364904448	56	16985
2026-01-15 10:26:34.06	50.95	24.32	-42.8	-55.8	3.9	7.44e-01	0	60	104	364904448	56	16814
2026-01-15 10:26:35.07	50.61	24.31	-43.1	-56.4	3.8	7.46e-01	0	59	104	364904448	56	17961
2026-01-15 10:26:36.08	50.27	24.29	-44.5	-59.7	3.8	7.48e-01	0	60	104	364904448	59	22101
2026-01-15 10:26:37.09	49.93	24.27	-45.4	-62.4	3.9	7.51e-01	0	60	104	364904448	61	26869
2026-01-15 10:26:38.10	49.59	24.26	-44.9	-60.7	3.8	7.44e-01	0	59	104	364904448	61	22100
2026-01-15 10:26:39.11	49.25	24.24	-45.6	-63.8	3.8	7.44e-01	0	60	104	364904448	61	31548
2026-01-15 10:26:40.12	48.91	24.21	-43.1	-56.6	3.8	7.42e-01	0	60	104	364904448	58	16463
2026-01-15 10:26:41.13	48.57	24.19	-43.1	-56.4	3.8	7.45e-01	0	60	104	364904448	58	15957
2026-01-15 10:26:42.14	48.23	24.17	-42.9	-55.8	3.9	7.39e-01	0	60	104	364904448	57	15882
2026-01-15 10:26:43.15	47.89	24.15	-44.1	-58.3	3.8	7.43e-01	0	60	104	364904448	59	18858
2026-01-15 10:26:44.16	47.56	24.12	-45.0	-61.3	3.9	7.46e-01	0	59	104	364904448	61	23632
2026-01-15 10:26:45.17	47.22	24.09	-44.4	-59.2	3.8	7.45e-01	0	60	104	364904448	59	20954
2026-01-15 10:26:46.18	46.89	24.07	-44.8	-60.6	3.9	7.45e-01	0	60	104	364904448	61	21997
2026-01-15 10:26:47.19	46.55	24.04	-45.3	-62.3	3.8	7.43e-01	0	59	104	364904448	61	26520
2026-01-15 10:26:48.19	46.22	24.01	-42.9	-55.9	4.1	7.32e-01	0	60	104	364904448	57	15951
2026-01-15 10:26:49.20	45.88	23.98	-42.8	-55.8	3.7	7.46e-01	0	60	104	364904448	57	15777
2026-01-15 10:26:50.21	45.55	23.95	-42.8	-55.6	4.1	7.34e-01	0	60	104	364904448	57	15493
2026-01-15 10:26:51.22	45.22	23.92	-44.6	-59.9	3.8	7.43e-01	0	59	104	364904448	60	21285
2026-01-15 10:26:52.23	44.89	23.89	-44.1	-58.4	3.9	7.47e-01	0	60	104	364904448	59	19146
2026-01-15 10:26:53.24	44.56	23.85	-45.2	-61.8	3.8	7.43e-01	0	60	104	364904448	61	25126
2026-01-15 10:26:54.25	44.23	23.82	-44.0	-58.3	3.9	7.41e-01	0	59	104	364904448	60	17712
2026-01-15 10:26:55.26	43.90	23.78	-45.6	-63.5	3.8	7.43e-01	0	60	104	364904448	61	30603
2026-01-15 10:26:56.27	43.57	23.74	-43.1	-56.3	3.8	7.47e-01	0	60	104	364904448	58	15845
2026-01-15 10:26:57.28	43.24	23.71	-43.0	-56.2	3.8	7.45e-01	0	60	104	364904448	58	15638
2026-01-15 10:26:58.29	42.91	23.67	-43.1	-56.2	3.8	7.48e-01	0	60	104	364904448	58	15645
2026-01-15 10:26:59.30	42.59	23.63	-44.8	-60.6	3.8	7.43e-01	0	60	104	364904448	60	23213
2026-01-15 10:27:00.30	42.26	23.59	-44.3	-59.0	3.9	7.39e-01	0	60	104	364904448	60	19348
2026-01-15 10:27:01.31	41.94	23.55	-44.3	-58.9	3.9	7.45e-01	0	60	104	364904448	59	20123
2026-01-15 10:27:02.32	41.62	23.51	-43.8	-57.6	3.9	7.47e-01	0	60	104	364904448	59	17411
2026-01-15 10:27:03.33	41.29	23.46	-45.2	-61.7	3.9	7.43e-01	0	60	104	364904448	61	24880
2026-01-15 10:27:04.34	40.97	23.42	-42.9	-56.1	3.8	7.46e-01	0	60	104	364904448	57	16340
2026-01-15 10:27:05.35	40.65	23.37	-43.0	-56.2	3.8	7.41e-01	0	60	104	364904448	57	16602
2026-01-15 10:27:06.36	40.33	23.33	-42.9	-55.9	3.8	7.46e-01	0	60	104	364904448	57	16101
2026-01-15 10:27:07.37	40.01	23.28	-43.9	-57.9	3.8	7.43e-01	0	60	104	364904448	59	17906
2026-01-15 10:27:08.38	39.70	23.24	-43.4	-56.9	3.9	7.43e-01	0	60	104	364904448	58	16911
2026-01-15 10:27:09.39	39.38	23.19	-44.7	-60.0	3.9	7.44e-01	0	60	104	364904448	61	20525
2026-01-15 10:27:10.40	39.06	23.14	-43.3	-56.5	3.9	7.41e-01	0	60	104	364904448	58	16135
2026-01-15 10:27:11.41	38.75	23.09	-45.4	-63.0	3.8	7.46e-01	0	60	104	364904448	61	28874
2026-01-15 10:27:12.42	38.44	23.04	-43.3	-56.7	3.8	7.45e-01	0	60	104	364904448	58	16610
2026-01-15 10:27:13.43	38.12	22.99	-43.2	-56.4	3.8	7.46e-01	0	60	104	364904448	58	16107
2026-01-15 10:27:14.44	37.81	22.94	-42.8	-55.6	3.8	7.46e-01	0	60	104	364904448	57	15545
2026-01-15 10:27:15.45	37.50	22.88	-43.2	-56.3	3.8	7.41e-01	0	60	104	364904448	58	15778
2026-01-15 10:27:16.46	37.19	22.83	-43.3	-56.7	3.9	7.42e-01	0	60	104	364904448	58	16511
2026-01-15 10:27:17.47	36.89	22.78	-43.9	-58.1	3.8	7.46e-01	0	60	104	364904448	59	18345
2026-01-15 10:27:18.48	36.58	22.72	-42.9	-56.0	3.9	7.46e-01	0	60	104	364904448	57	16129
2026-01-15 10:27:19.49	36.27	22.67	-44.7	-60.4	3.9	7.45e-01	0	60	104	364904448	61	21370
2026-01-15 10:27:20.50	35.97	22.61	-43.0	-56.1	3.8	7.45e-01	0	60	104	364904448	57	16324
2026-01-15 10:27:21.51	35.67	22.55	-42.9	-56.0	3.8	7.44e-01	0	60	104	364904448	57	16186
2026-01-15 10:27:22.52	35.36	22.50	-43.7	-57.3	3.8	7.44e-01	0	60	104	364904448	57	18860
2026-01-15 10:27:23.53	35.06	22.44	-45.0	-60.9	3.8	7.47e-01	0	60	104	364904448	61	22735
2026-01-15 10:27:24.54	34.76	22.38	-43.0	-56.1	3.8	7.46e-01	0	60	104	364904448	57	16438
2026-01-15 10:27:25.56	34.46	22.32	-44.2	-59.1	3.9	7.40e-01	0	60	104	364904448	60	19594
2026-01-15 10:27:26.57	34.16	22.26	-43.0	-56.1	3.8	7.47e-01	0	60	104	364904448	57	16463
2026-01-15 10:27:27.58	33.87	22.20	-44.5	-59.4	3.9	7.45e-01	0	60	104	364904448	61	19045
2026-01-15 10:27:28.58	33.58	22.14	-43.3	-56.6	3.8	7.45e-01	0	60	104	364904448	58	16348
2026-01-15 10:27:29.59	33.28	22.07	-43.1	-56.4	3.8	7.45e-01	0	60	104	364904448	58	16094
2026-01-15 10:27:30.60	32.99	22.01	-43.0	-56.2	3.8	7.45e-01	0	60	104	364904448	57	16534
2026-01-15 10:27:31.61	32.70	21.95	-43.8	-57.8	3.8	7.45e-01	0	60	104	364904448	58	18901
2026-01-15 10:27:32.62	32.41	21.88	-43.1	-56.3	3.8	7.46e-01	0	60	104	364904448	58	15842
2026-01-15 10:27:33.63	32.12	21.82	-44.1	-58.2	3.8	7.45e-01	0	60	104	364904448	59	18667
2026-01-15 10:27:34.64	31.83	21.76	-44.0	-58.0	3.8	7.48e-01	0	60	104	364904448	58	19210
2026-01-15 10:27:35.66	31.54	21.69	-43.8	-57.8	3.7	7.43e-01	0	60	104	364904448	59	17686
2026-01-15 10:27:36.67	31.26	21.62	-42.9	-56.0	3.8	7.44e-01	0	60	104	364904448	57	16129
2026-01-15 10:27:37.68	30.98	21.56	-42.8	-55.9	3.8	7.49e-01	0	60	104	364904448	57	15948
2026-01-15 10:27:38.69	30.69	21.49	-43.8	-57.7	3.8	7.45e-01	0	60	104	364904448	58	18625
2026-01-15 10:27:39.70	30.41	21.42	-44.4	-59.0	3.8	7.46e-01	0	60	104	364904448	59	20530
2026-01-15 10:27:40.71	30.13	21.35	-44.0	-57.8	3.8	7.47e-01	0	60	104	364904448	58	18873
2026-01-15 10:27:41.72	29.86	21.29	-44.2	-58.4	3.8	7.45e-01	0	60	104	364904448	59	19134
2026-01-15 10:27:42.73	29.58	21.22	-45.0	-60.9	3.7	7.47e-01	0	60	104	364904448	60	24062
2026-01-15 10:27:43.73	29.31	21.15	-44.2	-58.9	3.8	7.46e-01	0	60	104	364904448	60	19111
2026-01-15 10:27:44.75	29.03	21.08	-43.3	-56.8	3.8	7.43e-01	0	60	104	364904448	58	16771
2026-01-15 10:27:45.75	28.76	21.01	-43.2	-56.6	3.8	7.44e-01	0	60	104	364904448	58	16352
2026-01-15 10:27:46.76	28.49	20.94	-43.2	-56.3	3.8	7.45e-01	0	60	104	364904448	57	16883
2026-01-15 10:27:47.77	28.22	20.86	-44.7	-59.4	3.8	7.47e-01	0	60	104	364904448	59	21457
2026-01-15 10:27:48.78	27.95	20.79	-43.8	-57.9	3.8	7.45e-01	0	60	104	364904448	58	18993
2026-01-15 10:27:49.79	27.68	20.72	-44.3	-58.6	3.8	7.45e-01	0	60	104	364904448	59	19463
2026-01-15 10:27:50.80	27.41	20.65	-45.2	-61.7	3.7	7.48e-01	0	60	104	364904448	60	26182
2026-01-15 10:27:51.81	27.15	20.58	-43.1	-56.4	3.8	7.44e-01	0	60	104	364904448	58	16085
2026-01-15 10:27:52.82	26.89	20.50	-42.9	-56.1	3.8	7.45e-01	0	60	104	364904448	57	16331
2026-01-15 10:27:53.83	26.62	20.43	-42.9	-56.1	3.8	7.46e-01	0	60	104	364904448	57	16367
2026-01-15 10:27:54.83	26.37	20.36	-43.7	-57.6	3.8	7.42e-01	0	60	104	364904448	57	19574
2026-01-15 10:27:55.84	26.11	20.28	-44.5	-59.2	3.8	7.42e-01	0	60	104	364904448	59	20997
2026-01-15 10:27:56.85	25.85	20.21	-44.8	-60.2	3.7	7.51e-01	0	60	104	364904448	60	22125
2026-01-15 10:27:57.86	25.59	20.13	-44.5	-58.9	3.8	7.47e-01	0	60	104	364904448	59	20134
2026-01-15 10:27:58.87	25.34	20.06	-45.5	-63.4	3.8	7.50e-01	0	60	104	364904448	61	30159
2026-01-15 10:27:59.88	25.08	19.98	-44.1	-58.6	3.7	7.43e-01	0	60	104	364904448	59	19506
2026-01-15 10:28:00.89	24.83	19.90	-43.4	-56.8	3.8	7.45e-01	0	60	104	364904448	58	16816
2026-01-15 10:28:01.90	24.58	19.83	-43.2	-56.5	3.8	7.47e-01	0	60	104	364904448	58	16293
2026-01-15 10:28:02.91	24.33	19.75	-43.4	-57.0	3.8	7.44e-01	0	60	104	364904448	57	18156
2026-01-15 10:28:03.92	24.08	19.67	-45.1	-61.4	3.7	7.48e-01	0	60	104	364904448	60	25540
2026-01-15 10:28:04.93	23.83	19.60	-44.4	-59.2	3.8	7.43e-01	0	60	104	364904448	59	20897
2026-01-15 10:28:05.94	23.58	19.52	-44.5	-59.4	3.8	7.47e-01	0	60	104	364904448	59	21335
2026-01-15 10:28:06.95	23.34	19.44	-45.4	-62.8	3.8	7.45e-01	0	60	104	364904448	61	28212
2026-01-15 10:28:07.96	23.10	19.36	-42.9	-56.1	3.8	7.43e-01	0	60	104	364904448	57	16435
2026-01-15 10:28:08.97	22.85	19.29	-42.8	-56.0	3.8	7.42e-01	0	60	104	364904448	57	16171
2026-01-15 10:28:09.98	22.61	19.21	-42.7	-55.6	3.8	7.44e-01	0	60	104	364904448	57	15441
2026-01-15 10:28:10.99	22.37	19.13	-44.9	-60.9	3.8	7.45e-01	0	60	104	364904448	60	24024
2026-01-15 10:28:12.00	22.14	19.05	-44.2	-59.0	3.8	7.42e-01	0	60	104	364904448	60	19186
2026-01-15 10:28:13.01	21.90	18.97	-45.4	-63.4	3.8	7.48e-01	0	60	104	364904448	61	30084
2026-01-15 10:28:14.02	21.66	18.89	-44.2	-59.0	3.8	7.41e-01	0	60	104	364904448	60	19208
2026-01-15 10:28:15.03	21.43	18.81	-45.3	-62.3	3.7	7.48e-01	0	60	104	364904448	61	26735
2026-01-15 10:28:16.04	21.20	18.73	-43.9	-57.8	3.8	7.43e-01	0	60	104	364904448	59	17839
2026-01-15 10:28:17.05	20.97	18.65	-43.2	-56.6	3.8	7.45e-01	0	60	104	364904448	58	16350
2026-01-15 10:28:18.06	20.73	18.57	-43.1	-56.5	3.8	7.43e-01	0	60	104	364904448	58	16251
2026-01-15 10:28:19.07	20.51	18.49	-43.0	-56.4	3.8	7.46e-01	0	60	104	364904448	57	17035
2026-01-15 10:28:20.08	20.28	18.41	-45.3	-62.6	3.8	7.42e-01	0	60	104	364904448	61	27582
2026-01-15 10:28:21.09	20.05	18.33	-44.5	-59.4	3.8	7.46e-01	0	60	104	364904448	59	21499
2026-01-15 10:28:22.10	19.83	18.25	-44.0	-58.3	3.8	7.44e-01	0	60	104	364904448	59	18912
2026-01-15 10:28:23.11	19.60	18.17	-45.2	-62.8	3.8	7.47e-01	0	60	104	364904448	60	29726
2026-01-15 10:28:24.12	19.38	18.09	-42.9	-56.1	3.8	7.45e-01	0	60	104	364904448	57	16455
2026-01-15 10:28:25.13	19.16	18.01	-42.8	-56.0	3.8	7.46e-01	0	60	104	364904448	57	16196
2026-01-15 10:28:26.14	18.94	17.93	-42.7	-55.8	3.8	7.47e-01	0	60	104	364904448	57	15903
2026-01-15 10:28:27.15	18.72	17.84	-43.3	-56.9	3.8	7.44e-01	0	60	104	364904448	57	18085
2026-01-15 10:28:28.16	18.50	17.76	-44.1	-58.8	3.8	7.44e-01	0	60	104	364904448	59	20014
2026-01-15 10:28:29.17	18.29	17.68	-45.1	-62.0	3.9	7.45e-01	0	60	104	364904448	61	25617
2026-01-15 10:28:30.18	18.07	17.60	-43.8	-57.8	3.9	7.42e-01	0	60	104	364904448	59	17742
2026-01-15 10:28:31.19	17.86	17.52	-45.2	-63.1	3.8	7.47e-01	0	60	104	364904448	61	29178
2026-01-15 10:28:32.20	17.65	17.44	-42.8	-56.0	3.8	7.44e-01	0	60	104	364904448	57	16150
2026-01-15 10:28:33.21	17.43	17.35	-42.8	-56.1	3.8	7.43e-01	0	60	104	364904448	57	16351
2026-01-15 10:28:34.21	17.23	17.27	-42.5	-55.6	3.8	7.47e-01	0	60	104	364904448	57	15450
2026-01-15 10:28:35.22	17.02	17.19	-43.9	-58.3	3.8	7.44e-01	0	60	104	364904448	58	20061
2026-01-15 10:28:36.23	16.81	17.11	-43.4	-57.0	3.9	7.45e-01	0	60	104	364904448	58	17263
2026-01-15 10:28:37.24	16.60	17.03	-45.1	-62.9	3.8	7.46e-01	0	60	104	364904448	61	28365
2026-01-15 10:28:38.25	16.40	16.94	-43.6	-57.8	3.9	7.42e-01	0	60	104	364904448	59	17773
2026-01-15 10:28:39.26	16.20	16.86	-44.9	-61.8	3.8	7.44e-01	0	60	104	364904448	60	26508
2026-01-15 10:28:40.27	15.99	16.78	-43.1	-56.6	3.8	7.43e-01	0	60	104	364904448	58	16373
2026-01-15 10:28:41.28	15.79	16.70	-42.9	-56.2	3.9	7.44e-01	0	60	104	364904448	57	16555
2026-01-15 10:28:42.29	15.59	16.61	-42.6	-55.6	3.8	7.45e-01	0	60	104	364904448	57	15518
2026-01-15 10:28:43.30	15.39	16.53	-42.4	-55.4	3.8	7.41e-01	0	60	104	364904448	56	15967
2026-01-15 10:28:44.30	15.20	16.45	-42.7	-55.9	3.9	7.46e-01	0	60	104	364904448	57	16015
2026-01-15 10:28:45.31	15.00	16.37	-44.9	-62.5	3.8	7.46e-01	0	60	104	364904448	60	28687
2026-01-15 10:28:46.32	14.80	16.29	-43.3	-57.3	3.8	7.43e-01	0	60	104	364904448	58	17839
2026-01-15 10:28:47.33	14.61	16.20	-44.8	-61.3	3.8	7.42e-01	0	60	104	364904448	60	25187
2026-01-15 10:28:48.34	14.42	16.12	-43.1	-56.7	3.8	7.44e-01	0	60	104	364904448	58	16546
2026-01-15 10:28:49.35	14.22	16.04	-43.0	-56.5	3.8	7.45e-01	0	60	104	364904448	58	16260
2026-01-15 10:28:50.35	14.03	15.96	-42.8	-56.1	3.8	7.44e-01	0	60	104	364904448	57	16337
2026-01-15 10:28:51.36	13.84	15.87	-42.8	-56.1	3.8	7.44e-01	0	60	104	364904448	57	16487
2026-01-15 10:28:52.37	13.66	15.79	-43.9	-58.6	3.9	7.42e-01	0	60	104	364904448	59	19614
2026-01-15 10:28:53.39	13.47	15.71	-43.5	-57.9	3.8	7.46e-01	0	60	104	364904448	59	17901
2026-01-15 10:28:54.40	13.28	15.62	-42.5	-55.5	3.9	7.44e-01	0	60	104	364904448	56	16302
2026-01-15 10:28:55.41	13.09	15.54	-44.6	-61.5	3.8	7.42e-01	0	60	104	364904448	60	25850
2026-01-15 10:28:56.42	12.91	15.46	-42.8	-56.4	3.8	7.45e-01	0	60	104	364904448	57	17001
2026-01-15 10:28:57.43	12.73	15.38	-42.6	-55.9	3.8	7.42e-01	0	60	104	364904448	57	16007
2026-01-15 10:28:58.44	12.54	15.29	-42.6	-55.7	3.8	7.43e-01	0	60	104	364904448	56	16631
2026-01-15 10:28:59.45	12.36	15.21	-44.0	-58.8	3.9	7.47e-01	0	60	104	364904448	59	19848
2026-01-15 10:29:00.45	12.19	15.13	-42.5	-55.6	3.8	7.46e-01	0	60	104	364904448	56	16395
2026-01-15 10:29:01.46	12.01	15.05	-44.0	-60.0	3.9	7.40e-01	0	60	104	364904448	60	21508
2026-01-15 10:29:02.47	11.83	14.97	-42.4	-55.5	3.9	7.47e-01	0	60	104	364904448	56	16312
2026-01-15 10:29:03.48	11.65	14.88	-44.0	-59.2	3.9	7.45e-01	0	60	104	364904448	60	19807
2026-01-15 10:29:04.49	11.48	14.80	-42.7	-56.0	3.8	7.45e-01	0	60	104	364904448	57	16278
2026-01-15 10:29:05.50	11.30	14.72	-42.7	-56.1	3.8	7.45e-01	0	60	104	364904448	57	16484
2026-01-15 10:29:06.51	11.13	14.64	-42.4	-55.6	3.8	7.47e-01	0	60	104	364904448	56	16462
2026-01-15 10:29:07.52	10.96	14.56	-43.1	-57.0	3.8	7.44e-01	0	60	104	364904448	56	19209
2026-01-15 10:29:08.53	10.78	14.47	-42.8	-56.6	3.9	7.46e-01	0	60	104	364904448	57	17442
2026-01-15 10:29:09.53	10.62	14.39	-42.9	-56.8	3.8	7.46e-01	0	60	104	364904448	57	17780
2026-01-15 10:29:10.54	10.45	14.31	-42.9	-56.6	3.8	7.47e-01	0	60	104	364904448	56	18372
2026-01-15 10:29:11.55	10.28	14.23	-42.9	-57.8	3.9	7.40e-01	0	60	104	364904448	58	18920
2026-01-15 10:29:12.56	10.11	14.15	-42.3	-55.6	3.8	7.46e-01	0	60	104	364904448	56	16358
2026-01-15 10:29:13.57	9.94	14.07	-42.3	-55.6	3.8	7.44e-01	0	60	104	364904448	56	16333
2026-01-15 10:29:14.58	9.78	13.98	-43.9	-59.2	3.8	7.47e-01	0	60	104	364904448	58	22084
2026-01-15 10:29:15.59	9.61	13.90	-43.8	-59.5	3.9	7.43e-01	0	60	104	364904448	59	21544
2026-01-15 10:29:16.60	9.45	13.82	-42.8	-56.8	3.8	7.48e-01	0	60	104	364904448	57	17702
2026-01-15 10:29:17.61	9.29	13.74	-43.3	-57.6	3.8	7.43e-01	0	60	104	364904448	58	18456
2026-01-15 10:29:18.62	9.13	13.66	-43.6	-58.8	3.8	7.48e-01	0	60	104	364904448	57	22353
2026-01-15 10:29:19.63	8.97	13.58	-43.5	-58.8	3.9	7.40e-01	0	60	104	364904448	59	19906
2026-01-15 10:29:20.64	8.81	13.50	-42.5	-56.3	3.8	7.44e-01	0	60	104	364904448	56	17778
2026-01-15 10:29:21.64	8.65	13.42	-42.4	-56.0	3.8	7.43e-01	0	60	104	364904448	56	17108
2026-01-15 10:29:22.65	8.49	13.34	-43.4	-58.1	3.8	7.48e-01	0	60	104	364904448	57	20761
2026-01-15 10:29:23.67	8.33	13.25	-42.9	-57.1	3.8	7.47e-01	0	60	104	364904448	56	19571
2026-01-15 10:29:24.68	8.18	13.17	-42.3	-57.0	3.8	7.46e-01	0	60	104	364904448	56	19173
2026-01-15 10:29:25.69	8.02	13.09	-42.6	-57.0	3.8	7.45e-01	0	60	104	364904448	56	19384
2026-01-15 10:29:26.70	7.87	13.01	-43.1	-60.2	3.7	7.48e-01	0	60	104	364904448	56	27812
2026-01-15 10:29:27.71	7.72	12.93	-42.2	-56.6	3.9	7.43e-01	0	60	104	364904448	56	18516
2026-01-15 10:29:28.72	7.57	12.85	-41.7	-55.7	3.8	7.47e-01	0	60	104	364904448	55	17523
2026-01-15 10:29:29.72	7.42	12.77	-41.5	-55.1	3.8	7.43e-01	0	60	104	364904448	55	16479
2026-01-15 10:29:30.73	7.27	12.69	-43.1	-58.7	3.8	7.43e-01	0	60	104	364904448	56	23549
2026-01-15 10:29:31.74	7.12	12.61	-42.1	-57.6	3.8	7.44e-01	0	60	104	364904448	56	20725
2026-01-15 10:29:32.76	6.97	12.53	-42.7	-58.4	3.8	7.46e-01	0	60	104	364904448	55	23931
2026-01-15 10:29:33.76	6.82	12.45	-42.8	-57.7	3.8	7.43e-01	0	60	104	364904448	57	19840
2026-01-15 10:29:34.77	6.67	12.37	-42.6	-61.1	3.8	7.44e-01	0	60	104	364904448	56	31013
2026-01-15 10:29:35.78	6.53	12.29	-42.4	-58.5	3.9	7.45e-01	0	60	104	364904448	56	22908
2026-01-15 10:29:36.79	6.38	12.21	-42.1	-58.0	3.8	7.46e-01	0	60	104	364904448	55	22844
2026-01-15 10:29:37.81	6.24	12.13	-42.1	-58.3	3.8	7.44e-01	0	60	104	364904448	55	23703
2026-01-15 10:29:38.82	6.09	12.05	-41.8	-57.4	3.8	7.47e-01	0	60	104	364904448	55	21370
2026-01-15 10:29:39.83	5.95	11.98	-43.0	-61.1	3.8	7.46e-01	0	60	104	364904448	56	31084
2026-01-15 10:29:40.84	5.81	11.90	-41.8	-60.5	3.8	7.46e-01	0	60	104	364904448	55	30497
2026-01-15 10:29:41.85	5.67	11.82	-42.3	-59.9	3.8	7.44e-01	0	60	104	364904448	55	28502
2026-01-15 10:29:42.86	5.53	11.74	-41.6	-60.8	3.8	7.45e-01	0	60	104	364904448	55	31518
2026-01-15 10:29:43.87	5.39	11.66	-41.9	-60.3	3.8	7.44e-01	0	60	104	364904448	55	29846
2026-01-15 10:29:44.88	5.25	11.58	-41.9	-60.3	3.8	7.45e-01	0	60	104	364904448	55	29977
2026-01-15 10:29:45.89	5.11	11.50	-41.9	-60.6	3.8	7.47e-01	0	60	104	364904448	55	30737
2026-01-15 10:29:46.90	4.98	11.43	-41.5	-60.7	3.8	7.44e-01	0	60	104	364904448	55	31163
2026-01-15 10:29:47.91	4.84	11.35	-41.5	-60.6	3.8	7.45e-01	0	60	104	364904448	54	32792
2026-01-15 10:29:48.92	4.71	11.27	-41.9	-61.1	3.8	7.43e-01	0	60	104	364904448	54	34745
2026-01-15 10:29:49.93	4.57	11.19	-41.7	-61.1	3.8	7.46e-01	0	60	104	364904448	54	34537
2026-01-15 10:29:50.94	4.44	11.11	-41.1	-60.3	3.8	7.45e-01	0	60	104	364904448	54	31584
2026-01-15 10:29:51.95	4.31	11.04	-41.1	-60.2	3.8	7.46e-01	0	60	104	364904448	54	31375
2026-01-15 10:29:52.96	4.17	10.96	-41.0	-60.2	3.8	7.48e-01	0	60	104	364904448	54	31231
2026-01-15 10:29:53.96	4.04	10.88	-41.0	-60.2	3.8	7.48e-01	0	60	104	364904448	54	31207
2026-01-15 10:29:54.97	3.91	10.81	-40.9	-60.2	3.8	7.45e-01	0	60	104	364904448	53	32950
2026-01-15 10:29:55.98	3.78	10.73	-41.0	-60.2	3.8	7.44e-01	0	60	104	364904448	53	33159
2026-01-15 10:29:56.99	3.66	10.65	-41.5	-60.9	3.8	7.50e-01	0	60	104	364904448	53	35908
2026-01-15 10:29:58.00	3.53	10.57	-40.8	-60.1	3.8	7.45e-01	0	60	104	364904448	53	32808
2026-01-15 10:29:59.01	3.40	10.50	-41.2	-60.4	3.8	7.44e-01	0	60	104	364904448	53	33750
2026-01-15 10:30:00.02	3.27	10.42	-41.0	-60.2	3.8	7.40e-01	0	60	104	364904448	53	33152
2026-01-15 10:30:01.03	3.15	10.35	-40.9	-60.1	3.8	7.49e-01	0	61	104	364904448	53	32903
2026-01-15 10:30:02.04	3.02	10.27	-40.8	-60.1	3.8	7.42e-01	0	61	104	364904448	53	32685
2026-01-15 10:30:03.05	2.90	10.19	-40.6	-60.0	3.8	7.44e-01	0	60	104	364904448	53	32533
2026-01-15 10:30:04.06	2.77	10.12	-40.6	-60.0	3.8	7.45e-01	0	60	104	364904448	53	32486
2026-01-15 10:30:05.07	2.65	10.04	-41.2	-60.4	3.8	7.44e-01	0	60	104	364904448	53	33940
2026-01-15 10:30:06.08	2.53	9.97	-40.7	-60.1	3.8	7.44e-01	0	60	104	364904448	53	32802
2026-01-15 10:30:07.09	2.41	9.89	-41.1	-60.3	3.8	7.47e-01	0	60	104	364904448	53	33365
2026-01-15 10:30:08.10	2.29	9.81	-40.7	-60.1	3.8	7.48e-01	0	60	104	364904448	53	32747
2026-01-15 10:30:09.11	2.17	9.74	-41.0	-60.2	3.8	7.43e-01	0	60	104	364904448	53	33155
2026-01-15 10:30:10.11	2.05	9.66	-40.8	-60.2	3.8	7.44e-01	0	60	104	364904448	53	33217
2026-01-15 10:30:11.12	1.93	9.59	-40.8	-60.1	3.8	7.42e-01	0	60	104	364904448	53	32589
2026-01-15 10:30:12.13	1.81	9.51	-40.7	-60.2	3.8	7.45e-01	0	60	104	364904448	53	33101
2026-01-15 10:30:13.14	1.69	9.44	-40.9	-60.1	3.8	7.47e-01	0	61	104	364904448	53	32775
2026-01-15 10:30:14.15	1.58	9.37	-40.5	-60.0	3.8	7.44e-01	0	60	104	364904448	53	32469
2026-01-15 10:30:15.16	1.46	9.29	-40.7	-60.1	3.8	7.46e-01	0	61	104	364904448	53	32865
2026-01-15 10:30:16.17	1.34	9.22	-40.4	-60.0	3.8	7.44e-01	0	60	104	364904448	52	34341
2026-01-15 10:30:17.18	1.23	9.14	-40.6	-60.1	3.8	7.46e-01	0	60	104	364904448	52	34713
2026-01-15 10:30:18.19	1.12	9.07	-40.6	-60.1	3.8	7.46e-01	0	60	104	364904448	52	34690
2026-01-15 10:30:19.20	1.00	8.99	-40.5	-60.0	3.8	7.44e-01	0	60	104	364904448	52	34409
2026-01-15 10:30:20.21	0.89	8.92	-40.6	-60.1	3.8	7.49e-01	0	60	104	364904448	52	34633
2026-01-15 10:30:21.21	0.78	8.85	-40.3	-60.0	3.8	7.45e-01	0	60	104	364904448	52	34116
2026-01-15 10:30:22.22	0.67	8.77	-40.3	-60.0	3.8	7.43e-01	0	60	104	364904448	52	34382
2026-01-15 10:30:23.23	0.56	8.70	-40.5	-60.0	3.8	7.47e-01	0	60	104	364904448	52	34373
2026-01-15 10:30:24.24	0.44	8.63	-40.1	-60.1	3.8	7.46e-01	0	60	104	364904448	51	36658
2026-01-15 10:30:25.25	0.33	8.56	-40.6	-60.1	3.8	7.45e-01	0	60	104	364904448	51	36645
2026-01-15 10:30:26.26	0.23	8.48	-40.2	-60.1	3.8	7.43e-01	0	60	104	364904448	51	36792
2026-01-15 10:30:27.27	0.12	8.41	-40.3	-60.0	3.8	7.47e-01	0	60	104	364904448	51	36369
2026-01-15 10:30:28.28	0.01	8.34	-39.9	-60.1	3.8	7.42e-01	0	60	104	364904448	51	36842
2026-01-15 10:30:29.29	359.90	8.26	-40.2	-60.0	3.8	7.42e-01	0	61	104	364904448	51	36390
2026-01-15 10:30:30.30	359.80	8.19	-39.7	-60.1	3.8	7.48e-01	0	60	104	364904448	51	36588
2026-01-15 10:30:31.31	359.69	8.12	-40.3	-60.1	3.8	7.46e-01	0	60	104	364904448	51	36597
2026-01-15 10:30:32.32	359.58	8.05	-39.7	-60.0	3.8	7.45e-01	0	60	104	364904448	51	36324
2026-01-15 10:30:33.33	359.48	7.98	-41.2	-60.4	3.8	7.43e-01	0	60	104	364904448	52	36104
2026-01-15 10:30:34.34	359.37	7.90	-44.8	-63.6	3.8	7.46e-01	0	61	104	364904448	60	32736
2026-01-15 10:30:35.35	359.27	7.83	-45.8	-64.5	3.8	7.45e-01	0	60	104	364904448	62	32271
2026-01-15 10:30:36.36	359.17	7.76	-46.0	-64.7	3.8	7.45e-01	0	61	104	364904448	62	33086
2026-01-15 10:30:37.37	359.06	7.69	-46.2	-64.9	3.8	7.43e-01	0	60	104	364904448	63	31856
2026-01-15 10:30:38.38	358.96	7.62	-46.3	-64.9	3.8	7.48e-01	0	61	104	364904448	63	32148
2026-01-15 10:30:39.39	358.86	7.55	-46.4	-65.0	3.8	7.45e-01	0	60	104	364904448	63	32421
2026-01-15 10:30:40.40	358.76	7.48	-46.4	-65.0	3.8	7.42e-01	0	60	104	364904448	63	32379
2026-01-15 10:30:41.41	358.66	7.41	-46.5	-65.1	3.8	7.46e-01	0	60	104	364904448	63	32653
2026-01-15 10:30:42.42	358.56	7.34	-45.9	-64.4	3.8	7.44e-01	0	60	104	364904448	62	32053
2026-01-15 10:30:43.44	358.46	7.26	-46.0	-64.5	3.8	7.48e-01	0	61	104	364904448	63	30585
2026-01-15 10:30:44.45	358.36	7.19	-46.4	-65.0	3.8	7.43e-01	0	60	104	364904448	63	32230
2026-01-15 10:30:45.46	358.26	7.12	-46.1	-64.7	3.8	7.45e-01	0	60	104	364904448	63	31390
2026-01-15 10:30:46.47	358.16	7.05	-46.4	-65.0	3.8	7.44e-01	0	60	104	364904448	63	32379
2026-01-15 10:30:47.48	358.07	6.98	-46.3	-65.0	3.8	7.47e-01	0	60	104	364904448	63	32406
2026-01-15 10:30:48.49	357.97	6.91	-46.3	-65.0	3.8	7.46e-01	0	60	104	364904448	63	32333
2026-01-15 10:30:49.50	357.87	6.84	-46.3	-65.0	3.8	7.45e-01	0	60	104	364904448	63	32190
2026-01-15 10:30:50.51	357.78	6.78	-46.3	-64.9	3.8	7.45e-01	0	60	104	364904448	63	32138
2026-01-15 10:30:51.52	357.68	6.71	-46.3	-65.0	3.8	7.44e-01	0	61	104	364904448	63	32251
2026-01-15 10:30:52.53	357.59	6.64	-46.3	-65.0	3.8	7.45e-01	0	61	104	364904448	63	32184
2026-01-15 10:30:53.54	357.49	6.57	-46.0	-65.0	3.8	7.44e-01	0	60	104	364904448	63	32237
2026-01-15 10:30:54.55	357.40	6.50	-46.2	-64.9	3.8	7.45e-01	0	61	104	364904448	63	32132
2026-01-15 10:30:55.56	357.31	6.43	-46.3	-64.9	3.8	7.45e-01	0	60	104	364904448	63	32152
2026-01-15 10:30:56.57	357.22	6.36	-46.3	-64.9	3.8	7.45e-01	0	60	104	364904448	63	32148
2026-01-15 10:30:57.58	357.12	6.29	-46.1	-64.9	3.8	7.45e-01	0	61	104	364904448	63	32124
2026-01-15 10:30:58.59	357.03	6.22	-46.2	-64.9	3.8	7.47e-01	0	61	104	364904448	63	32110
2026-01-15 10:30:59.60	356.94	6.16	-45.6	-65.0	3.8	7.45e-01	0	61	104	364904448	63	32356
2026-01-15 10:31:00.61	356.85	6.09	-46.1	-64.9	3.8	7.47e-01	0	60	104	364904448	63	32043
2026-01-15 10:31:01.62	356.76	6.02	-46.3	-64.9	3.8	7.43e-01	0	61	104	364904448	63	32108
2026-01-15 10:31:02.63	356.67	5.95	-46.3	-64.9	3.8	7.41e-01	0	60	104	364904448	63	32149
2026-01-15 10:31:03.64	356.58	5.88	-46.3	-64.9	3.8	7.47e-01	0	60	104	364904448	63	32167
2026-01-15 10:31:04.65	356.49	5.82	-46.2	-64.9	3.8	7.44e-01	0	60	104	364904448	63	32106
2026-01-15 10:31:05.66	356.40	5.75	-46.3	-64.9	3.8	7.47e-01	0	61	104	364904448	63	32048
2026-01-15 10:31:06.67	356.32	5.68	-46.2	-64.9	3.8	7.45e-01	0	60	104	364904448	63	32019
2026-01-15 10:31:07.68	356.23	5.61	-46.2	-64.9	3.8	7.44e-01	0	61	104	364904448	63	32039
2026-01-15 10:31:08.69	356.14	5.55	-46.2	-64.9	3.8	7.44e-01	0	61	104	364904448	63	32041
2026-01-15 10:31:09.70	356.06	5.48	-46.0	-64.6	3.8	7.45e-01	0	60	104	364904448	62	32562
2026-01-15 10:31:10.71	355.97	5.41	-46.2	-64.9	3.8	7.45e-01	0	60	104	364904448	63	32010
2026-01-15 10:31:11.72	355.88	5.35	-46.3	-64.9	3.8	7.44e-01	0	61	104	364904448	63	32166
2026-01-15 10:31:12.73	355.80	5.28	-46.3	-64.9	3.8	7.46e-01	0	61	104	364904448	63	32147
2026-01-15 10:31:13.74	355.71	5.21	-46.2	-64.9	3.8	7.44e-01	0	60	104	364904448	63	31970
2026-01-15 10:31:14.75	355.63	5.15	-46.3	-64.9	3.8	7.47e-01	0	61	104	364904448	63	32068
2026-01-15 10:31:15.76	355.55	5.08	-46.2	-64.9	3.8	7.45e-01	0	61	104	364904448	63	31998
2026-01-15 10:31:16.77	355.46	5.01	-46.3	-64.9	3.8	7.44e-01	0	61	104	364904448	63	32044
2026-01-15 10:31:17.78	355.38	4.95	-46.2	-64.8	3.8	7.44e-01	0	61	104	364904448	63	31750
2026-01-15 10:31:18.79	355.30	4.88	-46.2	-64.9	3.8	7.43e-01	0	61	104	364904448	63	31988
2026-01-15 10:31:19.80	355.21	4.82	-46.2	-64.9	3.8	7.45e-01	0	60	104	364904448	63	32016
2026-01-15 10:31:20.82	355.13	4.75	-46.2	-64.9	3.8	7.48e-01	0	60	104	364904448	63	32042
2026-01-15 10:31:21.82	355.05	4.69	-46.2	-64.7	3.9	7.49e-01	0	61	104	364904448	62	33294
2026-01-15 10:31:22.83	354.97	4.62	-46.2	-65.0	3.8	7.43e-01	0	60	104	364904448	63	32339
2026-01-15 10:31:23.84	354.89	4.56	-46.2	-64.9	3.8	7.45e-01	0	60	104	364904448	63	32125
2026-01-15 10:31:24.85	354.81	4.49	-46.3	-64.9	3.8	7.43e-01	0	61	104	364904448	63	32055
2026-01-15 10:31:25.86	354.73	4.43	-46.2	-64.9	3.8	7.44e-01	0	60	104	364904448	63	32034
2026-01-15 10:31:26.87	354.65	4.36	-46.2	-64.9	3.8	7.44e-01	0	61	104	364904448	63	32059
2026-01-15 10:31:27.88	354.57	4.30	-46.0	-64.9	3.8	7.45e-01	0	61	104	364904448	63	31898
2026-01-15 10:31:28.89	354.49	4.23	-46.2	-64.9	3.8	7.44e-01	0	61	104	364904448	63	31875
2026-01-15 10:31:29.90	354.42	4.17	-46.0	-64.8	3.8	7.45e-01	0	61	104	364904448	63	31680
2026-01-15 10:31:30.91	354.34	4.10	-46.2	-64.9	3.8	7.47e-01	0	61	104	364904448	63	32019
2026-01-15 10:31:31.92	354.26	4.04	-46.2	-64.9	3.8	7.43e-01	0	60	104	364904448	63	31914
2026-01-15 10:31:32.93	354.19	3.97	-46.3	-64.9	3.8	7.48e-01	0	60	104	364904448	63	32082
2026-01-15 10:31:33.94	354.11	3.91	-46.2	-64.9	3.8	7.46e-01	0	61	104	364904448	63	32076
2026-01-15 10:31:34.95	354.03	3.85	-46.1	-64.9	3.8	7.47e-01	0	61	104	364904448	63	32062
2026-01-15 10:31:35.96	353.96	3.78	-46.3	-64.9	3.8	7.46e-01	0	61	104	364904448	63	32041
2026-01-15 10:31:36.97	353.88	3.72	-46.2	-64.9	3.8	7.44e-01	0	60	104	364904448	63	31888
2026-01-15 10:31:37.98	353.81	3.66	-46.2	-64.9	3.8	7.47e-01	0	61	104	364904448	63	32007
2026-01-15 10:31:38.99	353.73	3.59	-46.3	-64.9	3.8	7.45e-01	0	61	104	364904448	63	31971
2026-01-15 10:31:40.00	353.66	3.53	-46.3	-64.9	3.8	7.43e-01	0	60	104	364904448	63	31937
2026-01-15 10:31:41.02	353.58	3.47	-46.0	-64.9	3.8	7.45e-01	0	61	104	364904448	63	31929
2026-01-15 10:31:42.02	353.51	3.40	-46.1	-64.9	3.8	7.46e-01	0	61	104	364904448	63	32043
2026-01-15 10:31:43.03	353.44	3.34	-46.2	-64.9	3.8	7.43e-01	0	61	104	364904448	63	32020
2026-01-15 10:31:44.04	353.37	3.28	-46.2	-64.9	3.8	7.43e-01	0	61	104	364904448	63	31979
2026-01-15 10:31:45.05	353.29	3.22	-46.2	-64.9	3.8	7.44e-01	0	61	104	364904448	63	32015
2026-01-15 10:31:46.06	353.22	3.15	-46.2	-64.9	3.8	7.45e-01	0	61	104	364904448	63	31982
2026-01-15 10:31:47.07	353.15	3.09	-46.2	-64.9	3.8	7.45e-01	0	61	104	364904448	63	31932
2026-01-15 10:31:48.08	353.08	3.03	-46.2	-64.9	3.8	7.47e-01	0	61	104	364904448	63	31989
2026-01-15 10:31:49.10	353.01	2.97	-46.3	-64.9	3.8	7.45e-01	0	61	104	364904448	63	32016
2026-01-15 10:31:50.11	352.94	2.90	-46.2	-64.9	3.8	7.45e-01	0	61	104	364904448	63	31978
2026-01-15 10:31:51.12	352.87	2.84	-46.2	-64.9	3.8	7.46e-01	0	61	104	364904448	63	32019
2026-01-15 10:31:52.13	352.80	2.78	-46.2	-64.9	3.8	7.44e-01	0	61	104	364904448	63	31850
2026-01-15 10:31:53.14	352.73	2.72	-46.2	-64.9	3.8	7.43e-01	0	60	104	364904448	63	31969
2026-01-15 10:31:54.15	352.66	2.66	-46.2	-64.9	3.8	7.43e-01	0	60	104	364904448	63	31906
2026-01-15 10:31:55.16	352.59	2.59	-46.1	-64.9	3.8	7.41e-01	0	61	104	364904448	63	31937
2026-01-15 10:31:56.17	352.52	2.53	-45.9	-64.9	3.8	7.47e-01	0	60	104	364904448	63	31932
2026-01-15 10:31:57.18	352.45	2.47	-46.2	-64.9	3.8	7.45e-01	0	61	104	364904448	63	31989
2026-01-15 10:31:58.19	352.38	2.41	-46.2	-64.9	3.8	7.48e-01	0	61	104	364904448	62	33929
2026-01-15 10:31:59.20	352.32	2.35	-46.2	-64.9	3.8	7.44e-01	0	60	104	364904448	63	31990
2026-01-15 10:32:00.21	352.25	2.29	-46.2	-64.9	3.8	7.44e-01	0	61	104	364904448	63	31912
2026-01-15 10:32:01.22	352.18	2.23	-46.1	-64.8	3.8	7.46e-01	0	60	104	364904448	63	31735
2026-01-15 10:32:02.23	352.12	2.17	-46.2	-64.9	3.8	7.44e-01	0	61	104	364904448	63	31991
2026-01-15 10:32:03.24	352.05	2.11	-46.2	-64.9	3.9	7.44e-01	0	61	104	364904448	63	31953
2026-01-15 10:32:04.25	351.98	2.05	-46.2	-64.9	3.8	7.45e-01	0	60	104	364904448	63	31958
2026-01-15 10:32:05.26	351.92	1.99	-46.2	-64.9	3.8	7.43e-01	0	61	104	364904448	63	31929
2026-01-15 10:32:06.27	351.85	1.93	-45.6	-64.9	3.8	7.44e-01	0	60	104	364904448	63	32015
2026-01-15 10:32:07.28	351.79	1.87	-46.2	-64.9	3.8	7.46e-01	0	61	104	364904448	63	31917

#Closed at: 2026-01-15 10:32:07
#Recorded file [364 MB]: D:/lorett/data/31039_260115_132035.dat