passes_logs/2026/01/15/R2.0S_Moscow/R2.0S_Moscow__20260115_035421_FENGYUN_3D_rec.log

#Pass ID: 20260115_035421_FENGYUN 3D
#Satellite: FENGYUN 3D
#Configuration: FENGYUN 3D
#almurnet v.1.7.20251203
#Start time: 2026-01-15 03:54:21

#Version: 2.2.20231116
#Station: R2.0S_Moscow
#Location: 37.707566 lon 55.798166 lat
#TLE: 1 43010U 17072A   26014.22831475  .00000226  00000+0  12883-3 0  9994
#TLE: 2 43010  98.9934 346.0326 0002309 109.2304 250.9121 14.19696287423146

#Time	Az	El	Level	Level2	SNR	BER	BlckErr	Temp	State	Recorded	gain1	gain2
2026-01-15 03:54:21.39	9.54	1.98	-39.3	-51.5	3.8	8.46e-01	0	48	0	0	50	14528
2026-01-15 03:54:22.39	9.46	2.03	-39.3	-51.5	3.8	8.47e-01	0	48	104	0	49	15325
2026-01-15 03:54:23.39	9.38	2.08	-39.3	-51.5	3.8	8.46e-01	0	48	104	0	49	15370
2026-01-15 03:54:24.40	9.29	2.14	-39.3	-51.5	3.8	8.45e-01	0	49	104	0	49	15335
2026-01-15 03:54:25.41	9.21	2.19	-39.3	-51.5	3.8	8.46e-01	0	49	104	0	49	15327
2026-01-15 03:54:26.42	9.13	2.24	-39.3	-51.5	3.8	8.46e-01	0	49	104	0	49	15307
2026-01-15 03:54:27.44	9.05	2.29	-39.3	-51.5	3.8	8.47e-01	0	49	104	0	49	15324
2026-01-15 03:54:28.45	8.96	2.35	-39.3	-51.5	3.8	8.46e-01	0	49	104	0	49	15310
2026-01-15 03:54:29.46	8.88	2.40	-39.3	-51.5	3.8	8.46e-01	0	49	104	0	49	15302
2026-01-15 03:54:30.47	8.80	2.45	-39.3	-51.5	3.8	8.47e-01	0	49	104	0	49	15317
2026-01-15 03:54:31.48	8.71	2.50	-39.3	-51.5	3.8	8.45e-01	0	49	104	0	49	15374
2026-01-15 03:54:32.49	8.63	2.55	-39.3	-51.5	3.8	8.46e-01	0	49	104	0	49	15365
2026-01-15 03:54:33.50	8.54	2.61	-39.3	-51.5	3.8	8.46e-01	0	49	104	0	49	15320
2026-01-15 03:54:34.51	8.46	2.66	-39.3	-51.5	3.8	8.46e-01	0	49	104	0	49	15313
2026-01-15 03:54:35.52	8.37	2.71	-39.3	-51.5	3.8	8.46e-01	0	49	104	0	49	15330
2026-01-15 03:54:36.53	8.29	2.76	-39.3	-51.5	3.8	8.47e-01	0	49	104	0	49	15360
2026-01-15 03:54:37.54	8.20	2.82	-39.3	-51.5	3.8	8.46e-01	0	49	104	0	49	15323
2026-01-15 03:54:38.55	8.11	2.87	-39.3	-51.5	3.8	8.46e-01	0	49	104	0	49	15303
2026-01-15 03:54:39.57	8.03	2.92	-39.3	-51.5	3.8	8.45e-01	0	50	104	0	49	15279
2026-01-15 03:54:40.58	7.94	2.98	-39.3	-51.5	3.8	8.46e-01	0	50	104	0	49	15321
2026-01-15 03:54:41.59	7.85	3.03	-39.3	-51.5	3.8	8.45e-01	0	50	104	0	49	15351
2026-01-15 03:54:42.60	7.76	3.08	-39.3	-51.5	3.8	8.45e-01	0	50	104	0	49	15288
2026-01-15 03:54:43.61	7.68	3.13	-39.3	-51.5	3.8	8.45e-01	0	50	104	0	49	15332
2026-01-15 03:54:44.62	7.59	3.19	-39.3	-51.5	3.8	8.46e-01	0	50	104	0	49	15273
2026-01-15 03:54:45.63	7.50	3.24	-39.3	-51.5	3.8	8.47e-01	0	50	104	0	49	15290
2026-01-15 03:54:46.64	7.41	3.29	-39.3	-51.5	3.8	8.46e-01	0	50	104	0	49	15293
2026-01-15 03:54:47.65	7.32	3.35	-39.3	-51.5	3.8	8.45e-01	0	50	104	0	49	15266
2026-01-15 03:54:48.66	7.23	3.40	-39.3	-51.5	3.8	8.47e-01	0	50	104	0	49	15336
2026-01-15 03:54:49.67	7.14	3.45	-39.3	-51.5	3.8	8.46e-01	0	51	104	0	49	15289
2026-01-15 03:54:50.68	7.05	3.51	-39.3	-51.5	3.8	8.46e-01	0	50	104	0	49	15327
2026-01-15 03:54:51.69	6.96	3.56	-39.3	-51.5	3.8	8.46e-01	0	50	104	0	49	15293
2026-01-15 03:54:52.70	6.87	3.61	-39.3	-51.5	3.8	8.47e-01	0	50	104	0	49	15316
2026-01-15 03:54:53.71	6.78	3.66	-39.3	-51.5	3.8	8.46e-01	0	51	104	0	49	15294
2026-01-15 03:54:54.73	6.69	3.72	-39.3	-51.5	3.8	8.45e-01	0	51	104	0	49	15281
2026-01-15 03:54:55.73	6.59	3.77	-39.3	-51.5	3.8	8.47e-01	0	51	104	0	49	15324
2026-01-15 03:54:56.75	6.50	3.82	-39.3	-51.5	3.8	8.46e-01	0	51	104	0	49	15311
2026-01-15 03:54:57.76	6.41	3.88	-39.3	-51.5	3.8	8.47e-01	0	51	104	0	49	15306
2026-01-15 03:54:58.77	6.32	3.93	-39.3	-51.5	3.8	8.47e-01	0	51	104	0	49	15347
2026-01-15 03:54:59.78	6.22	3.99	-39.3	-51.5	3.8	8.46e-01	0	51	104	0	49	15303
2026-01-15 03:55:00.79	6.13	4.04	-39.3	-51.5	3.8	8.46e-01	0	51	104	0	49	15295
2026-01-15 03:55:01.80	6.03	4.09	-39.3	-51.5	3.8	8.46e-01	0	51	104	0	49	15299
2026-01-15 03:55:02.81	5.94	4.15	-39.3	-51.5	3.8	8.46e-01	0	51	104	0	49	15297
2026-01-15 03:55:03.82	5.84	4.20	-39.3	-51.5	3.8	8.46e-01	0	51	104	0	49	15304
2026-01-15 03:55:04.83	5.75	4.25	-39.3	-51.5	3.8	8.45e-01	0	51	104	0	49	15242
2026-01-15 03:55:05.84	5.65	4.31	-39.3	-51.5	3.8	8.47e-01	0	51	104	0	49	15320
2026-01-15 03:55:06.85	5.56	4.36	-39.3	-51.5	3.8	8.46e-01	0	51	104	0	49	15319
2026-01-15 03:55:07.86	5.46	4.41	-39.3	-51.5	3.8	8.46e-01	0	51	104	0	49	15302
2026-01-15 03:55:08.87	5.36	4.47	-39.3	-51.5	3.8	8.45e-01	0	51	104	0	49	15316
2026-01-15 03:55:09.88	5.27	4.52	-39.3	-51.5	3.8	8.46e-01	0	52	104	0	49	15277
2026-01-15 03:55:10.89	5.17	4.57	-39.3	-51.5	3.8	8.47e-01	0	52	104	0	49	15304
2026-01-15 03:55:11.90	5.07	4.63	-39.3	-51.5	3.8	8.46e-01	0	51	104	0	49	15287
2026-01-15 03:55:12.91	4.97	4.68	-39.3	-51.5	3.8	8.46e-01	0	52	104	0	49	15292
2026-01-15 03:55:13.92	4.88	4.74	-39.3	-51.5	3.8	8.46e-01	0	52	104	0	49	15335
2026-01-15 03:55:14.93	4.78	4.79	-39.3	-51.5	3.8	8.45e-01	0	52	104	0	49	15315
2026-01-15 03:55:15.94	4.68	4.84	-39.3	-51.5	3.8	8.46e-01	0	52	104	0	49	15292
2026-01-15 03:55:16.95	4.58	4.90	-39.3	-51.5	3.8	8.46e-01	0	52	104	0	49	15301
2026-01-15 03:55:17.96	4.48	4.95	-39.3	-51.5	3.8	8.46e-01	0	52	104	0	49	15306
2026-01-15 03:55:18.96	4.38	5.01	-39.3	-51.5	3.8	8.46e-01	0	52	104	0	49	15320
2026-01-15 03:55:19.97	4.28	5.06	-39.3	-51.5	3.8	8.46e-01	0	52	104	0	49	15312
2026-01-15 03:55:20.98	4.18	5.11	-39.3	-51.5	3.8	8.47e-01	0	52	104	0	49	15273
2026-01-15 03:55:21.99	4.07	5.17	-39.3	-51.5	3.8	8.48e-01	0	52	104	0	49	15235
2026-01-15 03:55:23.00	3.97	5.22	-39.3	-51.5	3.8	8.46e-01	0	52	104	0	49	15306
2026-01-15 03:55:24.01	3.87	5.28	-39.3	-51.5	3.8	8.46e-01	0	52	104	0	49	15315
2026-01-15 03:55:25.02	3.77	5.33	-39.3	-51.5	3.8	8.45e-01	0	52	104	0	49	15304
2026-01-15 03:55:26.03	3.66	5.38	-39.3	-51.5	3.8	8.46e-01	0	52	104	0	49	15356
2026-01-15 03:55:27.04	3.56	5.44	-39.3	-51.5	3.8	8.46e-01	0	52	104	0	49	15268
2026-01-15 03:55:28.04	3.46	5.49	-39.3	-51.5	3.8	8.46e-01	0	52	104	0	49	15330
2026-01-15 03:55:29.05	3.35	5.55	-39.3	-51.5	3.8	8.47e-01	0	53	104	0	49	15320
2026-01-15 03:55:30.06	3.25	5.60	-39.3	-51.5	3.8	8.46e-01	0	53	104	0	49	15313
2026-01-15 03:55:31.07	3.14	5.65	-39.3	-51.5	3.8	8.46e-01	0	52	104	0	49	15333
2026-01-15 03:55:32.08	3.04	5.71	-39.3	-51.5	3.8	8.45e-01	0	53	104	0	49	15345
2026-01-15 03:55:33.09	2.93	5.76	-39.3	-51.5	3.8	8.46e-01	0	53	104	0	49	15328
2026-01-15 03:55:34.10	2.82	5.82	-39.3	-51.5	3.8	8.45e-01	0	53	104	0	49	15300
2026-01-15 03:55:35.11	2.72	5.87	-39.3	-51.5	3.8	8.46e-01	0	53	104	0	49	15255
2026-01-15 03:55:36.12	2.61	5.93	-39.3	-51.5	3.8	8.46e-01	0	53	104	0	49	15312
2026-01-15 03:55:37.13	2.50	5.98	-39.3	-51.5	3.8	8.46e-01	0	53	104	0	49	15293
2026-01-15 03:55:38.14	2.39	6.03	-39.3	-51.5	3.8	8.46e-01	0	53	104	0	49	15278
2026-01-15 03:55:39.15	2.29	6.09	-39.3	-51.5	3.8	8.46e-01	0	53	104	0	49	15302
2026-01-15 03:55:40.16	2.18	6.14	-39.3	-51.5	3.8	8.46e-01	0	53	104	0	49	15295
2026-01-15 03:55:41.17	2.07	6.20	-39.3	-51.5	3.8	8.46e-01	0	53	104	0	49	15308
2026-01-15 03:55:42.18	1.96	6.25	-39.3	-51.5	3.8	8.46e-01	0	53	104	0	49	15314
2026-01-15 03:55:43.19	1.85	6.31	-39.3	-51.5	3.8	8.47e-01	0	53	104	0	49	15308
2026-01-15 03:55:44.20	1.74	6.36	-39.3	-51.5	3.8	8.46e-01	0	53	104	0	49	15286
2026-01-15 03:55:45.21	1.63	6.42	-39.3	-51.5	3.8	8.45e-01	0	53	104	0	49	15287
2026-01-15 03:55:46.22	1.51	6.47	-39.3	-51.5	3.8	8.47e-01	0	53	104	0	49	15272
2026-01-15 03:55:47.23	1.40	6.52	-39.3	-51.5	3.8	8.46e-01	0	53	104	0	49	15274
2026-01-15 03:55:48.24	1.29	6.58	-39.3	-51.5	3.8	8.46e-01	0	53	104	0	49	15320
2026-01-15 03:55:49.25	1.18	6.63	-39.3	-51.5	3.8	8.47e-01	0	53	104	0	49	15329
2026-01-15 03:55:50.26	1.06	6.69	-39.3	-51.5	3.8	8.47e-01	0	53	104	0	49	15322
2026-01-15 03:55:51.27	0.95	6.74	-39.3	-51.5	3.8	8.46e-01	0	53	104	0	49	15289
2026-01-15 03:55:52.28	0.84	6.80	-39.3	-51.5	3.8	8.46e-01	0	53	104	0	49	15341
2026-01-15 03:55:53.29	0.72	6.85	-39.3	-51.5	3.8	8.46e-01	0	53	104	0	49	15320
2026-01-15 03:55:54.30	0.61	6.91	-39.3	-51.5	3.8	8.46e-01	0	53	104	0	49	15301
2026-01-15 03:55:55.31	0.49	6.96	-39.3	-51.5	3.8	8.47e-01	0	54	104	0	49	15274
2026-01-15 03:55:56.32	0.38	7.02	-39.3	-51.5	3.8	8.46e-01	0	54	104	0	49	15337
2026-01-15 03:55:57.33	0.26	7.07	-39.3	-51.5	3.8	8.46e-01	0	53	104	0	49	15313
2026-01-15 03:55:58.34	0.14	7.13	-39.3	-51.5	3.8	8.46e-01	0	53	104	0	49	15279
2026-01-15 03:55:59.35	0.03	7.18	-39.3	-51.5	3.8	8.46e-01	0	54	104	0	49	15274
2026-01-15 03:56:00.36	359.91	7.23	-39.3	-51.5	3.8	8.46e-01	0	54	104	0	49	15281
2026-01-15 03:56:01.37	359.79	7.29	-39.3	-51.5	3.8	8.46e-01	0	53	104	0	49	15364
2026-01-15 03:56:02.38	359.67	7.34	-39.3	-51.5	3.8	8.48e-01	0	54	104	0	49	15308
2026-01-15 03:56:03.39	359.55	7.40	-39.3	-51.5	3.8	8.46e-01	0	54	104	0	49	15295
2026-01-15 03:56:04.40	359.43	7.45	-39.3	-51.5	3.8	8.46e-01	0	54	104	0	49	15285
2026-01-15 03:56:05.41	359.31	7.51	-39.3	-51.5	3.8	8.46e-01	0	54	104	0	49	15355
2026-01-15 03:56:06.42	359.19	7.56	-39.3	-51.5	3.8	8.45e-01	0	54	104	0	49	15273
2026-01-15 03:56:07.43	359.07	7.62	-39.3	-51.5	3.8	8.46e-01	0	54	104	0	49	15307
2026-01-15 03:56:08.45	358.95	7.67	-39.3	-51.5	3.8	8.47e-01	0	54	104	0	49	15286
2026-01-15 03:56:09.46	358.83	7.73	-39.3	-51.5	3.8	8.46e-01	0	54	104	0	49	15308
2026-01-15 03:56:10.47	358.70	7.78	-39.3	-51.5	3.8	8.46e-01	0	54	104	0	49	15304
2026-01-15 03:56:11.48	358.58	7.84	-39.3	-51.5	3.8	8.46e-01	0	54	104	0	49	15337
2026-01-15 03:56:12.49	358.46	7.89	-39.3	-51.5	3.8	8.45e-01	0	54	104	0	49	15349
2026-01-15 03:56:13.50	358.33	7.94	-39.3	-51.5	3.8	8.46e-01	0	54	104	0	49	15281
2026-01-15 03:56:14.51	358.21	8.00	-39.3	-51.5	3.8	8.47e-01	0	54	104	0	49	15300
2026-01-15 03:56:15.52	358.08	8.05	-39.3	-51.5	3.8	8.46e-01	0	54	104	0	49	15372
2026-01-15 03:56:16.53	357.96	8.11	-39.5	-51.6	3.8	8.46e-01	0	54	104	0	49	15491
2026-01-15 03:56:17.54	357.83	8.16	-39.3	-51.6	3.8	8.46e-01	0	54	104	0	49	15530
2026-01-15 03:56:18.55	357.71	8.22	-39.5	-51.6	3.8	8.47e-01	0	54	104	0	49	15566
2026-01-15 03:56:19.56	357.58	8.27	-39.5	-51.7	3.8	8.46e-01	0	54	104	0	50	14738
2026-01-15 03:56:20.57	357.45	8.33	-39.7	-51.7	3.8	8.45e-01	0	54	104	0	50	14807
2026-01-15 03:56:21.58	357.33	8.38	-39.7	-51.7	3.8	8.46e-01	0	54	104	0	50	14778
2026-01-15 03:56:22.59	357.20	8.44	-39.7	-51.7	3.8	8.47e-01	0	54	104	0	50	14777
2026-01-15 03:56:23.60	357.07	8.49	-39.7	-51.6	3.8	8.46e-01	0	54	104	0	50	14686
2026-01-15 03:56:24.61	356.94	8.54	-39.7	-51.7	3.8	8.46e-01	0	54	104	0	50	14731
2026-01-15 03:56:25.62	356.81	8.60	-39.7	-51.6	3.8	8.46e-01	0	54	104	0	50	14685
2026-01-15 03:56:26.63	356.68	8.65	-39.5	-51.7	3.8	8.45e-01	0	54	104	0	50	14723
2026-01-15 03:56:27.64	356.55	8.71	-39.7	-51.6	3.8	8.46e-01	0	55	104	0	50	14639
2026-01-15 03:56:28.65	356.42	8.76	-39.6	-51.7	3.8	8.45e-01	0	54	104	0	50	14744
2026-01-15 03:56:29.66	356.29	8.82	-39.6	-51.7	3.8	8.47e-01	0	55	104	0	50	14740
2026-01-15 03:56:30.67	356.16	8.87	-39.6	-51.7	3.8	8.46e-01	0	54	104	0	50	14795
2026-01-15 03:56:31.68	356.02	8.92	-39.5	-51.7	3.8	8.46e-01	0	55	104	0	50	14724
2026-01-15 03:56:32.69	355.89	8.98	-39.7	-51.7	3.8	8.47e-01	0	55	104	0	50	14756
2026-01-15 03:56:33.70	355.76	9.03	-39.6	-51.7	3.8	8.47e-01	0	55	104	0	50	14794
2026-01-15 03:56:34.71	355.62	9.09	-39.9	-51.8	3.8	8.46e-01	0	54	104	0	50	14882
2026-01-15 03:56:35.72	355.49	9.14	-39.7	-51.7	3.8	8.45e-01	0	54	104	0	50	14809
2026-01-15 03:56:36.73	355.35	9.19	-40.0	-51.8	3.8	8.45e-01	0	55	104	0	50	14959
2026-01-15 03:56:37.74	355.22	9.25	-39.8	-51.7	3.8	8.45e-01	0	55	104	0	50	14806
2026-01-15 03:56:38.75	355.08	9.30	-40.1	-51.9	3.8	8.47e-01	0	54	104	0	50	15099
2026-01-15 03:56:39.76	354.94	9.36	-39.9	-51.8	3.8	8.46e-01	0	55	104	0	50	14918
2026-01-15 03:56:40.77	354.81	9.41	-40.1	-51.9	3.8	8.47e-01	0	55	104	0	50	15132
2026-01-15 03:56:41.77	354.67	9.46	-39.9	-51.8	3.8	8.46e-01	0	55	104	0	50	14935
2026-01-15 03:56:42.78	354.53	9.52	-40.2	-51.9	3.8	8.46e-01	0	55	104	0	51	14355
2026-01-15 03:56:43.79	354.39	9.57	-40.0	-51.8	3.8	8.47e-01	0	55	104	0	51	14139
2026-01-15 03:56:44.80	354.25	9.62	-40.3	-52.0	3.8	8.47e-01	0	55	104	0	51	14387
2026-01-15 03:56:45.81	354.11	9.68	-40.1	-51.8	3.8	8.45e-01	0	55	104	0	51	14194
2026-01-15 03:56:46.82	353.97	9.73	-40.3	-52.0	3.8	8.45e-01	0	55	104	0	51	14482
2026-01-15 03:56:47.83	353.83	9.79	-40.2	-51.8	3.8	8.46e-01	0	55	104	0	51	14193
2026-01-15 03:56:48.84	353.69	9.84	-40.2	-52.0	3.8	8.47e-01	0	55	104	0	51	14395
2026-01-15 03:56:49.85	353.55	9.89	-40.2	-51.9	3.8	8.47e-01	0	55	104	0	51	14331
2026-01-15 03:56:50.86	353.41	9.95	-40.3	-52.1	3.8	8.46e-01	0	55	104	0	51	14692
2026-01-15 03:56:51.87	353.26	10.00	-40.3	-51.9	3.8	8.46e-01	0	55	104	0	51	14363
2026-01-15 03:56:52.88	353.12	10.05	-40.4	-52.2	3.8	8.46e-01	0	55	104	0	51	14721
2026-01-15 03:56:53.89	352.97	10.11	-40.3	-52.0	3.8	8.47e-01	0	55	104	0	51	14394
2026-01-15 03:56:54.89	352.83	10.16	-40.2	-52.1	3.8	8.47e-01	0	55	104	0	51	14622
2026-01-15 03:56:55.90	352.69	10.21	-40.4	-52.2	3.8	8.46e-01	0	55	104	0	51	14768
2026-01-15 03:56:56.91	352.54	10.26	-40.5	-52.2	3.8	8.46e-01	0	55	104	0	51	14822
2026-01-15 03:56:57.92	352.39	10.32	-40.4	-52.2	3.8	8.46e-01	0	55	104	0	51	14761
2026-01-15 03:56:58.93	352.25	10.37	-40.4	-52.1	3.8	8.47e-01	0	55	104	0	51	14695
2026-01-15 03:56:59.94	352.10	10.42	-40.3	-52.1	3.8	8.46e-01	0	55	104	0	51	14687
2026-01-15 03:57:00.95	351.95	10.48	-40.5	-52.2	3.8	8.47e-01	0	55	104	0	51	14832
2026-01-15 03:57:01.96	351.80	10.53	-40.3	-52.1	3.8	8.46e-01	0	55	104	0	51	14666
2026-01-15 03:57:02.97	351.65	10.58	-40.6	-52.2	3.9	8.45e-01	0	55	104	0	52	14034
2026-01-15 03:57:03.98	351.50	10.63	-40.4	-52.1	3.8	8.47e-01	0	55	104	0	52	13885
2026-01-15 03:57:04.99	351.35	10.69	-40.6	-52.3	3.8	8.46e-01	0	55	104	0	52	14088
2026-01-15 03:57:06.00	351.20	10.74	-40.5	-52.2	3.8	8.46e-01	0	56	104	0	52	14044
2026-01-15 03:57:07.01	351.05	10.79	-40.7	-52.4	3.8	8.45e-01	0	55	104	0	52	14320
2026-01-15 03:57:08.02	350.90	10.84	-40.3	-52.1	3.8	8.47e-01	0	55	104	0	52	13760
2026-01-15 03:57:09.03	350.75	10.90	-40.7	-52.4	3.8	8.46e-01	0	55	104	0	52	14360
2026-01-15 03:57:10.04	350.60	10.95	-40.4	-52.2	3.8	8.47e-01	0	55	104	0	52	13942
2026-01-15 03:57:11.05	350.44	11.00	-40.7	-52.4	3.8	8.47e-01	0	55	104	0	52	14225
2026-01-15 03:57:12.06	350.29	11.05	-40.5	-52.2	3.8	8.46e-01	0	55	104	0	52	13961
2026-01-15 03:57:13.07	350.13	11.10	-40.6	-52.3	3.8	8.46e-01	0	56	104	0	52	14089
2026-01-15 03:57:14.08	349.98	11.15	-40.4	-52.2	3.8	8.45e-01	0	55	104	0	52	13908
2026-01-15 03:57:15.09	349.82	11.21	-40.9	-52.6	3.8	8.46e-01	0	55	104	0	52	14567
2026-01-15 03:57:16.10	349.67	11.26	-40.6	-52.4	3.8	8.46e-01	0	55	104	0	52	14267
2026-01-15 03:57:17.11	349.51	11.31	-40.9	-52.6	3.8	8.46e-01	0	56	104	0	52	14635
2026-01-15 03:57:18.12	349.35	11.36	-40.7	-52.4	3.8	8.46e-01	0	56	104	0	52	14219
2026-01-15 03:57:19.12	349.20	11.41	-40.8	-52.4	3.8	8.47e-01	0	56	104	0	52	14359
2026-01-15 03:57:20.13	349.04	11.46	-40.8	-52.5	3.8	8.45e-01	0	56	104	0	52	14494
2026-01-15 03:57:21.15	348.88	11.51	-40.9	-52.6	3.8	8.47e-01	0	56	104	0	52	14589
2026-01-15 03:57:22.16	348.72	11.56	-40.8	-52.6	3.8	8.46e-01	0	56	104	0	52	14545
2026-01-15 03:57:23.16	348.56	11.61	-40.9	-52.6	3.8	8.47e-01	0	56	104	0	52	14689
2026-01-15 03:57:24.17	348.40	11.66	-40.9	-52.5	3.8	8.45e-01	0	56	104	0	52	14536
2026-01-15 03:57:25.18	348.24	11.72	-41.0	-52.7	3.8	8.46e-01	0	56	104	0	52	14776
2026-01-15 03:57:26.19	348.07	11.77	-40.9	-52.6	3.8	8.46e-01	0	56	104	0	52	14620
2026-01-15 03:57:27.20	347.91	11.82	-41.0	-52.7	3.8	8.45e-01	0	56	104	0	52	14817
2026-01-15 03:57:28.21	347.75	11.87	-41.0	-52.6	3.8	8.46e-01	0	56	104	0	52	14671
2026-01-15 03:57:29.22	347.59	11.92	-41.0	-52.7	3.8	8.47e-01	0	56	104	0	52	14811
2026-01-15 03:57:30.23	347.42	11.97	-41.1	-52.7	3.8	8.46e-01	0	56	104	0	52	14798
2026-01-15 03:57:31.24	347.26	12.02	-41.0	-52.7	3.8	8.46e-01	0	56	104	0	52	14749
2026-01-15 03:57:32.25	347.09	12.07	-40.9	-52.7	3.8	8.45e-01	0	56	104	0	52	14749
2026-01-15 03:57:33.26	346.93	12.11	-40.9	-52.6	3.8	8.46e-01	0	56	104	0	52	14591
2026-01-15 03:57:34.27	346.76	12.16	-41.0	-52.7	3.8	8.47e-01	0	56	104	0	52	14805
2026-01-15 03:57:35.28	346.59	12.21	-41.2	-52.9	3.8	8.45e-01	0	56	104	0	52	15055
2026-01-15 03:57:36.29	346.42	12.26	-40.9	-52.6	3.8	8.45e-01	0	56	104	0	52	14602
2026-01-15 03:57:37.29	346.26	12.31	-41.0	-52.7	3.8	8.46e-01	0	56	104	0	52	14740
2026-01-15 03:57:38.30	346.09	12.36	-40.7	-52.4	3.8	8.47e-01	0	56	104	0	52	14289
2026-01-15 03:57:39.31	345.92	12.41	-40.6	-52.3	3.8	8.45e-01	0	56	104	0	52	14209
2026-01-15 03:57:40.32	345.75	12.46	-40.8	-52.5	3.8	8.46e-01	0	56	104	0	52	14423
2026-01-15 03:57:41.33	345.58	12.51	-40.6	-52.4	3.8	8.46e-01	0	56	104	0	52	14301
2026-01-15 03:57:42.34	345.41	12.55	-40.7	-52.5	3.8	8.46e-01	0	56	104	0	52	14381
2026-01-15 03:57:43.35	345.24	12.60	-40.8	-52.5	3.8	8.46e-01	0	56	104	0	52	14446
2026-01-15 03:57:44.36	345.06	12.65	-40.7	-52.3	3.8	8.46e-01	0	56	104	0	52	14183
2026-01-15 03:57:45.37	344.89	12.70	-40.9	-52.6	3.8	8.46e-01	0	56	104	0	52	14633
2026-01-15 03:57:46.38	344.72	12.74	-40.7	-52.3	3.8	8.46e-01	0	56	104	0	52	14095
2026-01-15 03:57:47.39	344.55	12.79	-40.6	-52.3	3.8	8.46e-01	0	56	104	0	52	14190
2026-01-15 03:57:48.40	344.37	12.84	-40.7	-52.4	3.8	8.46e-01	0	56	104	0	52	14259
2026-01-15 03:57:49.41	344.20	12.89	-40.6	-52.3	3.8	8.44e-01	0	56	104	0	52	14057
2026-01-15 03:57:50.42	344.02	12.93	-40.8	-52.5	3.8	8.46e-01	0	56	104	0	52	14433
2026-01-15 03:57:51.43	343.84	12.98	-40.7	-52.3	3.8	8.47e-01	0	56	104	0	52	14190
2026-01-15 03:57:52.44	343.67	13.03	-40.4	-52.1	3.8	8.46e-01	0	56	104	0	52	13855
2026-01-15 03:57:53.45	343.49	13.07	-40.7	-52.3	3.8	8.47e-01	0	56	104	0	52	14104
2026-01-15 03:57:54.45	343.31	13.12	-40.4	-52.1	3.8	8.47e-01	0	56	104	0	52	13884
2026-01-15 03:57:55.46	343.14	13.16	-40.7	-52.3	3.8	8.44e-01	0	56	104	0	52	14108
2026-01-15 03:57:56.47	342.96	13.21	-40.7	-52.3	3.8	8.47e-01	0	56	104	0	52	14063
2026-01-15 03:57:57.48	342.78	13.26	-40.6	-52.3	3.8	8.45e-01	0	56	104	0	52	14066
2026-01-15 03:57:58.49	342.60	13.30	-40.8	-52.3	3.8	8.46e-01	0	56	104	0	52	14195
2026-01-15 03:57:59.50	342.42	13.35	-40.5	-52.2	3.8	8.47e-01	0	56	104	0	52	13977
2026-01-15 03:58:00.51	342.23	13.39	-40.3	-52.2	3.8	8.45e-01	0	56	104	0	52	13911
2026-01-15 03:58:01.52	342.05	13.44	-40.3	-52.1	3.8	8.47e-01	0	56	104	0	52	13840
2026-01-15 03:58:02.53	341.87	13.48	-40.3	-52.1	3.8	8.47e-01	0	56	104	0	52	13820
2026-01-15 03:58:03.54	341.69	13.52	-40.3	-52.1	3.8	8.45e-01	0	57	104	0	52	13875
2026-01-15 03:58:04.54	341.51	13.57	-40.4	-52.2	3.8	8.45e-01	0	57	104	0	52	13947
2026-01-15 03:58:05.55	341.32	13.61	-40.4	-52.2	3.8	8.45e-01	0	56	104	0	52	14015
2026-01-15 03:58:06.56	341.14	13.66	-40.4	-52.1	3.8	8.47e-01	0	57	104	0	52	13884
2026-01-15 03:58:07.57	340.95	13.70	-40.7	-52.4	3.8	8.46e-01	0	56	104	0	52	14369
2026-01-15 03:58:08.58	340.77	13.74	-40.8	-52.5	3.8	8.47e-01	0	56	104	0	52	14454
2026-01-15 03:58:09.59	340.58	13.79	-40.9	-52.5	3.8	8.45e-01	0	56	104	0	52	14397
2026-01-15 03:58:10.60	340.39	13.83	-41.2	-52.2	3.8	8.46e-01	0	57	104	0	52	13943
2026-01-15 03:58:11.61	340.21	13.87	-41.0	-52.4	3.8	8.46e-01	0	57	104	0	53	13431
2026-01-15 03:58:12.62	340.02	13.91	-41.0	-51.9	3.8	8.46e-01	0	57	104	0	53	12696
2026-01-15 03:58:13.63	339.83	13.96	-41.2	-49.7	4.2	8.44e-01	0	57	104	0	53	9943
2026-01-15 03:58:14.64	339.64	14.00	-41.0	-48.4	4.7	8.22e-01	0	57	0	0	53	8539
2026-01-15 03:58:15.65	339.45	14.04	-40.8	-47.0	5.5	7.15e-01	0	57	0	0	53	7240
2026-01-15 03:58:16.66	339.26	14.08	-40.3	-45.4	6.9	2.61e-01	0	57	0	5242880	52	6384
2026-01-15 03:58:17.67	339.07	14.12	-39.8	-43.8	8.6	8.68e-02	0	57	0	10485760	51	5653
2026-01-15 03:58:18.68	338.88	14.16	-39.1	-42.3	10.3	1.13e-02	0	56	0	15728640	50	5013
2026-01-15 03:58:19.69	338.69	14.20	-38.3	-41.1	11.7	1.77e-03	0	57	0	22020096	48	4876
2026-01-15 03:58:20.70	338.50	14.24	-37.7	-40.1	12.6	2.08e-04	0	56	0	27262976	47	4650
2026-01-15 03:58:21.70	338.30	14.28	-37.6	-40.0	12.9	6.86e-05	0	57	0	33554432	47	4548
2026-01-15 03:58:22.72	338.11	14.32	-37.7	-40.1	12.9	8.69e-05	0	57	0	38797312	47	4613
2026-01-15 03:58:23.72	337.92	14.36	-38.2	-40.6	12.4	1.20e-04	0	57	0	44040192	47	4917
2026-01-15 03:58:24.73	337.72	14.40	-38.5	-41.2	12.0	4.21e-04	0	57	0	50331648	47	5230
2026-01-15 03:58:25.74	337.53	14.44	-38.8	-41.4	12.0	6.95e-04	0	57	0	55574528	48	5062
2026-01-15 03:58:26.75	337.33	14.48	-38.2	-40.5	13.1	8.35e-05	0	57	0	61865984	48	4555
2026-01-15 03:58:27.76	337.14	14.52	-38.1	-40.3	13.4	2.05e-05	0	57	0	67108864	48	4484
2026-01-15 03:58:28.77	336.94	14.56	-38.7	-41.1	12.7	6.52e-05	0	57	0	72351744	48	4909
2026-01-15 03:58:29.78	336.74	14.60	-38.4	-40.6	13.3	5.95e-05	0	57	0	78643200	48	4635
2026-01-15 03:58:30.79	336.55	14.63	-38.1	-40.2	14.0	1.02e-05	0	57	0	83886080	48	4395
2026-01-15 03:58:31.80	336.35	14.67	-38.4	-40.5	13.7	1.14e-05	0	57	0	90177536	48	4559
2026-01-15 03:58:32.81	336.15	14.71	-38.3	-40.4	13.8	9.10e-06	0	56	0	95420416	48	4505
2026-01-15 03:58:33.82	335.95	14.74	-38.3	-40.4	13.9	5.70e-06	0	57	0	101711872	48	4513
2026-01-15 03:58:34.83	335.75	14.78	-38.1	-40.2	14.1	2.20e-06	0	57	0	106954752	48	4398
2026-01-15 03:58:35.83	335.55	14.82	-37.8	-39.8	14.5	2.20e-06	0	57	0	112197632	47	4456
2026-01-15 03:58:36.84	335.35	14.85	-38.0	-40.0	14.3	1.10e-06	0	57	0	118489088	47	4581
2026-01-15 03:58:37.85	335.15	14.89	-37.8	-39.7	14.6	0.00e+00	0	57	0	123731968	47	4421
2026-01-15 03:58:38.86	334.95	14.92	-38.0	-40.0	14.4	1.10e-06	0	57	0	130023424	47	4562
2026-01-15 03:58:39.87	334.75	14.96	-38.0	-40.0	14.4	2.20e-06	0	57	0	135266304	47	4585
2026-01-15 03:58:40.88	334.55	14.99	-38.0	-39.9	14.5	4.50e-06	0	57	0	140509184	47	4530
2026-01-15 03:58:41.89	334.34	15.03	-38.0	-40.0	14.5	0.00e+00	0	57	0	146800640	47	4551
2026-01-15 03:58:42.90	334.14	15.06	-37.9	-39.8	14.6	0.00e+00	0	57	0	152043520	47	4484
2026-01-15 03:58:43.90	333.94	15.10	-37.8	-39.7	14.8	0.00e+00	0	57	0	158334976	47	4395
2026-01-15 03:58:44.91	333.73	15.13	-37.8	-39.7	14.8	0.00e+00	0	57	0	163577856	47	4406
2026-01-15 03:58:45.92	333.53	15.16	-37.8	-39.7	14.8	0.00e+00	0	57	0	168820736	47	4408
2026-01-15 03:58:46.93	333.32	15.20	-37.9	-39.8	14.7	0.00e+00	0	57	0	175112192	47	4465
2026-01-15 03:58:47.94	333.12	15.23	-38.0	-39.9	14.6	0.00e+00	0	57	0	180355072	47	4523
2026-01-15 03:58:48.95	332.91	15.26	-38.0	-40.0	14.6	0.00e+00	0	57	0	186646528	47	4547
2026-01-15 03:58:49.96	332.71	15.29	-38.0	-39.9	14.6	0.00e+00	0	57	0	191889408	47	4537
2026-01-15 03:58:50.97	332.50	15.32	-38.0	-39.9	14.6	2.20e-06	0	57	0	198180864	47	4526
2026-01-15 03:58:51.98	332.29	15.36	-38.0	-39.9	14.6	1.10e-06	0	57	0	203423744	47	4539
2026-01-15 03:58:52.99	332.08	15.39	-38.0	-39.8	14.7	0.00e+00	0	57	0	209715200	47	4493
2026-01-15 03:58:54.00	331.87	15.42	-37.9	-39.7	14.9	0.00e+00	0	57	0	214958080	47	4429
2026-01-15 03:58:55.01	331.67	15.45	-37.8	-39.7	14.9	0.00e+00	0	57	0	220200960	47	4416
2026-01-15 03:58:56.02	331.46	15.48	-37.8	-39.6	15.0	0.00e+00	0	57	0	226492416	47	4353
2026-01-15 03:58:57.03	331.25	15.51	-37.8	-39.6	15.0	1.10e-06	0	57	0	231735296	47	4368
2026-01-15 03:58:58.03	331.04	15.54	-37.8	-39.6	15.0	1.10e-06	0	57	0	236978176	47	4370
2026-01-15 03:58:59.04	330.83	15.56	-37.9	-39.7	14.9	0.00e+00	0	57	0	243269632	47	4419
2026-01-15 03:59:00.05	330.62	15.59	-37.9	-39.7	14.9	1.10e-06	0	57	0	248512512	47	4433
2026-01-15 03:59:01.06	330.41	15.62	-38.0	-39.9	14.8	0.00e+00	0	57	0	254803968	47	4506
2026-01-15 03:59:02.07	330.19	15.65	-38.0	-39.9	14.8	0.00e+00	0	57	0	260046848	47	4533
2026-01-15 03:59:03.08	329.98	15.68	-38.2	-40.1	14.6	1.10e-06	0	57	0	265289728	47	4617
2026-01-15 03:59:04.09	329.77	15.70	-38.2	-40.2	14.5	1.10e-06	0	57	0	271581184	47	4680
2026-01-15 03:59:05.10	329.56	15.73	-38.3	-40.3	14.4	2.20e-06	0	57	0	276824064	47	4720
2026-01-15 03:59:06.11	329.34	15.76	-38.3	-40.3	14.4	1.10e-06	0	57	0	283115520	47	4730
2026-01-15 03:59:07.12	329.13	15.78	-38.1	-40.0	14.6	1.10e-06	0	57	0	288358400	47	4590
2026-01-15 03:59:08.13	328.92	15.81	-38.1	-39.9	14.8	1.10e-06	0	57	0	294649856	47	4533
2026-01-15 03:59:09.14	328.70	15.83	-37.9	-39.8	14.9	0.00e+00	0	57	0	299892736	47	4444
2026-01-15 03:59:10.15	328.49	15.86	-37.8	-39.6	15.1	0.00e+00	0	57	0	306184192	47	4374
2026-01-15 03:59:11.16	328.27	15.88	-37.8	-39.6	15.1	0.00e+00	0	57	0	311427072	47	4378
2026-01-15 03:59:12.17	328.06	15.91	-37.7	-39.5	15.2	0.00e+00	0	57	0	316669952	47	4319
2026-01-15 03:59:13.18	327.84	15.93	-37.8	-39.6	15.1	0.00e+00	0	57	0	322961408	47	4365
2026-01-15 03:59:14.19	327.62	15.95	-37.8	-39.6	15.1	0.00e+00	0	57	0	328204288	47	4391
2026-01-15 03:59:15.20	327.41	15.98	-37.9	-39.7	15.0	0.00e+00	0	57	0	334495744	47	4434
2026-01-15 03:59:16.21	327.19	16.00	-37.9	-39.8	15.0	0.00e+00	0	57	0	339738624	47	4457
2026-01-15 03:59:17.22	326.97	16.02	-38.1	-39.9	14.8	0.00e+00	0	57	0	344981504	47	4539
2026-01-15 03:59:18.23	326.76	16.04	-38.0	-39.9	14.9	0.00e+00	0	57	0	351272960	47	4498
2026-01-15 03:59:19.24	326.54	16.06	-37.9	-39.8	15.0	0.00e+00	0	57	0	356515840	47	4448
2026-01-15 03:59:20.25	326.32	16.08	-38.0	-39.9	14.9	0.00e+00	0	57	0	362807296	47	4496
2026-01-15 03:59:21.26	326.10	16.10	-37.9	-39.7	15.0	0.00e+00	0	57	0	368050176	47	4427
2026-01-15 03:59:22.27	325.88	16.12	-37.9	-39.7	15.0	0.00e+00	0	57	0	373293056	47	4426
2026-01-15 03:59:23.28	325.66	16.14	-37.9	-39.7	15.0	0.00e+00	0	57	0	379584512	47	4435
2026-01-15 03:59:24.29	325.44	16.16	-37.9	-39.7	15.1	0.00e+00	0	57	0	384827392	47	4405
2026-01-15 03:59:25.30	325.22	16.18	-37.8	-39.6	15.1	0.00e+00	0	57	0	391118848	47	4378
2026-01-15 03:59:26.31	325.00	16.20	-37.8	-39.6	15.2	0.00e+00	0	57	0	396361728	47	4362
2026-01-15 03:59:27.32	324.78	16.22	-37.8	-39.6	15.1	0.00e+00	0	57	0	402653184	47	4388
2026-01-15 03:59:28.33	324.56	16.24	-37.8	-39.6	15.2	0.00e+00	0	57	0	407896064	47	4353
2026-01-15 03:59:29.34	324.34	16.25	-37.8	-39.6	15.1	0.00e+00	0	57	0	413138944	47	4388
2026-01-15 03:59:30.35	324.12	16.27	-37.9	-39.7	15.0	0.00e+00	0	57	0	419430400	47	4438
2026-01-15 03:59:31.37	323.90	16.29	-38.0	-39.8	15.0	1.10e-06	0	57	0	424673280	47	4474
2026-01-15 03:59:32.38	323.68	16.30	-37.9	-39.8	15.0	0.00e+00	0	57	0	430964736	47	4450
2026-01-15 03:59:33.39	323.46	16.32	-37.9	-39.7	15.1	0.00e+00	0	57	0	436207616	47	4404
2026-01-15 03:59:34.39	323.24	16.33	-37.8	-39.6	15.2	0.00e+00	0	57	0	442499072	47	4369
2026-01-15 03:59:35.40	323.01	16.35	-37.7	-39.5	15.3	0.00e+00	0	57	0	447741952	47	4322
2026-01-15 03:59:36.41	322.79	16.36	-37.6	-39.3	15.4	0.00e+00	0	57	0	452984832	47	4239
2026-01-15 03:59:37.42	322.57	16.37	-37.6	-39.3	15.5	0.00e+00	0	57	0	459276288	47	4240
2026-01-15 03:59:38.42	322.35	16.39	-37.7	-39.4	15.4	0.00e+00	0	57	0	464519168	47	4274
2026-01-15 03:59:39.44	322.12	16.40	-37.8	-39.5	15.3	0.00e+00	0	57	0	469762048	47	4340
2026-01-15 03:59:40.44	321.90	16.41	-37.7	-39.5	15.3	0.00e+00	0	57	0	476053504	47	4318
2026-01-15 03:59:41.45	321.68	16.43	-37.7	-39.4	15.4	0.00e+00	0	57	0	481296384	47	4281
2026-01-15 03:59:42.46	321.45	16.44	-37.6	-39.3	15.5	0.00e+00	0	57	0	487587840	47	4227
2026-01-15 03:59:43.47	321.23	16.45	-37.5	-39.2	15.6	0.00e+00	0	57	0	492830720	47	4185
2026-01-15 03:59:44.47	321.01	16.46	-37.5	-39.2	15.5	0.00e+00	0	57	0	499122176	47	4188
2026-01-15 03:59:45.48	320.78	16.47	-37.6	-39.3	15.5	0.00e+00	0	57	0	504365056	47	4236
2026-01-15 03:59:46.49	320.56	16.48	-37.7	-39.4	15.4	0.00e+00	0	57	0	509607936	47	4285
2026-01-15 03:59:47.50	320.34	16.49	-37.8	-39.5	15.3	0.00e+00	0	57	0	515899392	47	4340
2026-01-15 03:59:48.50	320.11	16.50	-37.7	-39.5	15.3	0.00e+00	0	57	0	521142272	47	4309
2026-01-15 03:59:49.50	319.89	16.51	-37.6	-39.3	15.5	0.00e+00	0	57	0	527433728	47	4231
2026-01-15 03:59:50.51	319.67	16.51	-37.5	-39.3	15.5	0.00e+00	0	57	0	532676608	47	4208
2026-01-15 03:59:51.52	319.44	16.52	-37.6	-39.3	15.5	0.00e+00	0	57	0	537919488	47	4242
2026-01-15 03:59:52.53	319.22	16.53	-37.6	-39.4	15.5	0.00e+00	0	57	0	544210944	47	4248
2026-01-15 03:59:53.54	318.99	16.54	-37.7	-39.4	15.4	0.00e+00	0	57	0	549453824	47	4274
2026-01-15 03:59:54.55	318.77	16.54	-37.7	-39.5	15.3	0.00e+00	0	57	0	555745280	47	4300
2026-01-15 03:59:55.56	318.54	16.55	-37.7	-39.4	15.4	0.00e+00	0	57	0	560988160	47	4289
2026-01-15 03:59:56.58	318.31	16.55	-37.6	-39.4	15.4	0.00e+00	0	57	0	566231040	47	4269
2026-01-15 03:59:57.59	318.09	16.56	-37.7	-39.4	15.4	0.00e+00	0	57	0	572522496	47	4283
2026-01-15 03:59:58.60	317.86	16.56	-37.5	-39.3	15.5	0.00e+00	0	57	0	577765376	47	4204
2026-01-15 03:59:59.61	317.64	16.57	-37.6	-39.3	15.5	0.00e+00	0	57	0	584056832	47	4223
2026-01-15 04:00:00.62	317.41	16.57	-37.5	-39.2	15.6	0.00e+00	0	57	0	589299712	47	4179
2026-01-15 04:00:01.62	317.19	16.57	-37.4	-39.1	15.7	0.00e+00	0	57	0	595591168	46	4391
2026-01-15 04:00:02.64	316.96	16.58	-37.5	-39.2	15.7	0.00e+00	0	57	0	600834048	46	4405
2026-01-15 04:00:03.65	316.73	16.58	-37.6	-39.3	15.5	0.00e+00	0	57	0	607125504	46	4468
2026-01-15 04:00:04.66	316.51	16.58	-37.5	-39.3	15.6	0.00e+00	0	57	0	612368384	46	4447
2026-01-15 04:00:05.67	316.28	16.58	-37.4	-39.1	15.7	0.00e+00	0	57	0	617611264	46	4391
2026-01-15 04:00:06.68	316.06	16.58	-37.4	-39.2	15.7	0.00e+00	0	57	0	623902720	46	4394
2026-01-15 04:00:07.69	315.83	16.58	-37.4	-39.1	15.7	0.00e+00	0	57	0	629145600	46	4354
2026-01-15 04:00:08.70	315.60	16.58	-37.5	-39.2	15.7	0.00e+00	0	57	0	635437056	46	4396
2026-01-15 04:00:09.70	315.38	16.58	-37.4	-39.1	15.8	0.00e+00	0	57	0	640679936	46	4348
2026-01-15 04:00:10.71	315.15	16.58	-37.4	-39.0	15.8	0.00e+00	0	57	0	645922816	46	4340
2026-01-15 04:00:11.72	314.93	16.58	-37.4	-39.1	15.7	0.00e+00	0	57	0	652214272	46	4358
2026-01-15 04:00:12.73	314.70	16.58	-37.4	-39.1	15.7	0.00e+00	0	57	0	657457152	46	4377
2026-01-15 04:00:13.74	314.48	16.57	-37.5	-39.2	15.6	0.00e+00	0	57	0	662700032	46	4423
2026-01-15 04:00:14.75	314.25	16.57	-37.6	-39.4	15.4	0.00e+00	0	57	0	668991488	46	4522
2026-01-15 04:00:15.76	314.02	16.57	-37.8	-39.5	15.3	0.00e+00	0	57	0	674234368	46	4587
2026-01-15 04:00:16.77	313.80	16.57	-37.9	-39.7	15.1	0.00e+00	0	57	0	680525824	46	4668
2026-01-15 04:00:17.77	313.58	16.56	-37.8	-39.6	15.2	0.00e+00	0	57	0	685768704	46	4641
2026-01-15 04:00:18.78	313.35	16.56	-37.7	-39.5	15.4	0.00e+00	0	57	0	692060160	46	4557
2026-01-15 04:00:19.79	313.12	16.55	-37.7	-39.4	15.4	0.00e+00	0	57	0	697303040	46	4523
2026-01-15 04:00:20.80	312.90	16.55	-37.7	-39.5	15.4	0.00e+00	0	57	0	702545920	46	4554
2026-01-15 04:00:21.81	312.67	16.54	-37.8	-39.6	15.3	0.00e+00	0	57	0	708837376	46	4604
2026-01-15 04:00:22.82	312.45	16.53	-37.8	-39.6	15.3	0.00e+00	0	57	0	714080256	46	4606
2026-01-15 04:00:23.83	312.22	16.53	-37.8	-39.6	15.2	0.00e+00	0	57	0	720371712	46	4604
2026-01-15 04:00:24.84	312.00	16.52	-37.9	-39.7	15.2	0.00e+00	0	57	0	725614592	46	4658
2026-01-15 04:00:25.85	311.77	16.51	-37.9	-39.7	15.2	0.00e+00	0	57	0	731906048	46	4654
2026-01-15 04:00:26.86	311.55	16.50	-37.9	-39.7	15.1	0.00e+00	0	57	0	737148928	46	4675
2026-01-15 04:00:27.86	311.32	16.50	-37.9	-39.7	15.1	0.00e+00	0	57	0	742391808	46	4662
2026-01-15 04:00:28.87	311.10	16.49	-37.8	-39.7	15.2	0.00e+00	0	57	0	748683264	46	4652
2026-01-15 04:00:29.88	310.88	16.48	-37.8	-39.7	15.2	0.00e+00	0	57	0	753926144	46	4659
2026-01-15 04:00:30.89	310.65	16.47	-37.7	-39.5	15.3	0.00e+00	0	57	0	759169024	46	4573
2026-01-15 04:00:31.90	310.43	16.46	-37.6	-39.4	15.5	0.00e+00	0	57	0	765460480	46	4504
2026-01-15 04:00:32.91	310.20	16.45	-37.6	-39.3	15.5	1.10e-06	0	57	0	770703360	46	4460
2026-01-15 04:00:33.92	309.98	16.43	-37.6	-39.3	15.5	0.00e+00	0	57	0	776994816	46	4474
2026-01-15 04:00:34.93	309.76	16.42	-37.6	-39.3	15.5	0.00e+00	0	57	0	782237696	46	4480
2026-01-15 04:00:35.94	309.53	16.41	-37.7	-39.5	15.4	0.00e+00	0	57	0	788529152	46	4554
2026-01-15 04:00:36.94	309.31	16.40	-37.7	-39.5	15.3	0.00e+00	0	57	0	793772032	46	4587
2026-01-15 04:00:37.95	309.09	16.39	-37.7	-39.5	15.3	0.00e+00	0	57	0	799014912	46	4556
2026-01-15 04:00:38.96	308.86	16.37	-37.7	-39.5	15.3	0.00e+00	0	57	0	805306368	46	4573
2026-01-15 04:00:39.97	308.64	16.36	-37.8	-39.6	15.2	0.00e+00	0	57	0	810549248	46	4612
2026-01-15 04:00:40.98	308.42	16.34	-37.7	-39.5	15.3	0.00e+00	0	57	0	816840704	46	4577
2026-01-15 04:00:41.99	308.20	16.33	-37.7	-39.5	15.3	0.00e+00	0	57	0	822083584	46	4568
2026-01-15 04:00:43.00	307.97	16.31	-37.8	-39.6	15.1	1.10e-06	0	57	0	828375040	46	4651
2026-01-15 04:00:44.00	307.75	16.30	-37.9	-39.7	15.1	1.10e-06	0	57	0	833617920	46	4675
2026-01-15 04:00:45.01	307.53	16.28	-37.7	-39.5	15.3	0.00e+00	0	57	0	838860800	46	4587
2026-01-15 04:00:46.02	307.31	16.27	-37.8	-39.6	15.2	0.00e+00	0	57	0	845152256	46	4600
2026-01-15 04:00:47.03	307.09	16.25	-37.7	-39.5	15.3	0.00e+00	0	57	0	850395136	46	4579
2026-01-15 04:00:48.04	306.87	16.23	-37.8	-39.6	15.2	0.00e+00	0	57	0	855638016	46	4615
2026-01-15 04:00:49.04	306.65	16.22	-37.8	-39.7	15.1	0.00e+00	0	57	0	861929472	46	4661
2026-01-15 04:00:50.05	306.43	16.20	-37.8	-39.6	15.1	0.00e+00	0	57	0	867172352	46	4641
2026-01-15 04:00:51.06	306.21	16.18	-37.8	-39.6	15.2	0.00e+00	0	57	0	873463808	46	4623
2026-01-15 04:00:52.07	305.99	16.16	-37.8	-39.6	15.2	0.00e+00	0	57	0	878706688	46	4612
2026-01-15 04:00:53.08	305.77	16.14	-37.8	-39.6	15.1	0.00e+00	0	57	0	884998144	46	4642
2026-01-15 04:00:54.09	305.55	16.12	-37.8	-39.6	15.2	0.00e+00	0	57	0	890241024	46	4602
2026-01-15 04:00:55.10	305.33	16.10	-37.7	-39.5	15.2	0.00e+00	0	57	0	895483904	46	4588
2026-01-15 04:00:56.10	305.11	16.08	-37.7	-39.5	15.3	0.00e+00	0	57	0	901775360	46	4560
2026-01-15 04:00:57.11	304.90	16.06	-37.6	-39.3	15.5	0.00e+00	0	57	0	907018240	46	4470
2026-01-15 04:00:58.12	304.68	16.04	-37.5	-39.2	15.5	0.00e+00	0	57	0	913309696	46	4434
2026-01-15 04:00:59.13	304.46	16.02	-37.6	-39.3	15.5	0.00e+00	0	57	0	918552576	46	4471
2026-01-15 04:01:00.14	304.24	15.99	-37.7	-39.5	15.3	0.00e+00	0	57	0	924844032	46	4549
2026-01-15 04:01:01.15	304.03	15.97	-37.7	-39.5	15.2	0.00e+00	0	57	0	930086912	46	4582
2026-01-15 04:01:02.16	303.81	15.95	-37.8	-39.7	15.1	0.00e+00	0	57	0	935329792	46	4659
2026-01-15 04:01:03.17	303.59	15.93	-37.9	-39.7	15.0	0.00e+00	0	57	0	941621248	46	4691
2026-01-15 04:01:04.17	303.38	15.90	-37.8	-39.6	15.1	0.00e+00	0	57	0	946864128	46	4646
2026-01-15 04:01:05.18	303.16	15.88	-37.8	-39.6	15.1	0.00e+00	0	57	0	952107008	46	4639
2026-01-15 04:01:06.19	302.95	15.85	-37.7	-39.5	15.2	0.00e+00	0	57	0	958398464	46	4569
2026-01-15 04:01:07.20	302.73	15.83	-37.7	-39.4	15.3	0.00e+00	0	57	0	963641344	46	4538
2026-01-15 04:01:08.21	302.52	15.80	-37.7	-39.5	15.3	0.00e+00	0	58	0	969932800	46	4558
2026-01-15 04:01:09.22	302.30	15.78	-37.7	-39.5	15.3	0.00e+00	0	57	0	975175680	46	4563
2026-01-15 04:01:10.23	302.09	15.75	-37.7	-39.5	15.2	0.00e+00	0	57	0	981467136	46	4591
2026-01-15 04:01:11.24	301.87	15.73	-37.7	-39.6	15.2	0.00e+00	0	57	0	986710016	46	4608
2026-01-15 04:01:12.25	301.66	15.70	-37.8	-39.6	15.1	0.00e+00	0	57	0	991952896	46	4619
2026-01-15 04:01:13.26	301.45	15.67	-37.8	-39.6	15.1	0.00e+00	0	57	0	998244352	46	4641
2026-01-15 04:01:14.27	301.24	15.64	-37.8	-39.6	15.1	0.00e+00	0	57	0	1003487232	46	4633
2026-01-15 04:01:15.28	301.02	15.62	-37.9	-39.7	15.0	1.10e-06	0	58	0	1009778688	46	4698
2026-01-15 04:01:16.29	300.81	15.59	-38.0	-39.8	14.9	0.00e+00	0	57	0	1015021568	46	4734
2026-01-15 04:01:17.30	300.60	15.56	-38.0	-39.8	14.9	0.00e+00	0	58	0	1021313024	46	4742
2026-01-15 04:01:18.31	300.39	15.53	-37.9	-39.8	14.9	0.00e+00	0	57	0	1026555904	46	4720
2026-01-15 04:01:19.32	300.18	15.50	-38.0	-39.8	14.9	0.00e+00	0	57	0	1031798784	46	4751
2026-01-15 04:01:20.33	299.97	15.47	-37.9	-39.7	15.0	0.00e+00	0	57	0	1038090240	46	4703
2026-01-15 04:01:21.34	299.76	15.44	-37.8	-39.6	15.1	0.00e+00	0	58	0	1043333120	46	4626
2026-01-15 04:01:22.35	299.55	15.41	-37.8	-39.7	15.1	0.00e+00	0	57	0	1049624576	46	4654
2026-01-15 04:01:23.36	299.34	15.38	-37.9	-39.7	15.0	0.00e+00	0	58	0	1054867456	46	4675
2026-01-15 04:01:24.37	299.13	15.35	-37.9	-39.8	14.9	0.00e+00	0	58	0	1060110336	46	4712
2026-01-15 04:01:25.38	298.92	15.32	-38.0	-39.9	14.8	0.00e+00	0	57	0	1066401792	46	4804
2026-01-15 04:01:26.39	298.72	15.29	-37.9	-39.8	14.9	1.10e-06	0	58	0	1071644672	46	4740
2026-01-15 04:01:27.40	298.51	15.25	-37.9	-39.7	15.0	0.00e+00	0	57	0	1077936128	46	4693
2026-01-15 04:01:28.41	298.30	15.22	-37.9	-39.7	15.0	0.00e+00	0	57	0	1083179008	46	4695
2026-01-15 04:01:29.42	298.10	15.19	-38.0	-39.9	14.8	0.00e+00	0	57	0	1088421888	46	4764
2026-01-15 04:01:30.43	297.89	15.16	-38.2	-40.1	14.6	2.20e-06	0	57	0	1094713344	46	4904
2026-01-15 04:01:31.44	297.69	15.12	-38.3	-40.3	14.4	0.00e+00	0	57	0	1099956224	47	4729
2026-01-15 04:01:32.44	297.48	15.09	-38.4	-40.4	14.3	4.50e-06	0	57	0	1106247680	47	4778
2026-01-15 04:01:33.46	297.28	15.06	-38.4	-40.4	14.2	3.40e-06	0	57	0	1111490560	47	4793
2026-01-15 04:01:34.46	297.07	15.02	-38.4	-40.4	14.3	1.10e-06	0	57	0	1117782016	47	4773
2026-01-15 04:01:35.47	296.87	14.99	-38.4	-40.4	14.2	4.50e-06	0	57	0	1123024896	47	4811
2026-01-15 04:01:36.48	296.67	14.95	-38.3	-40.3	14.4	2.20e-06	0	57	0	1128267776	47	4711
2026-01-15 04:01:37.49	296.47	14.92	-38.2	-40.2	14.4	1.10e-06	0	58	0	1134559232	47	4673
2026-01-15 04:01:38.50	296.26	14.88	-38.2	-40.2	14.5	0.00e+00	0	57	0	1139802112	47	4658
2026-01-15 04:01:39.51	296.06	14.85	-38.2	-40.2	14.4	1.10e-06	0	58	0	1146093568	47	4683
2026-01-15 04:01:40.52	295.86	14.81	-38.3	-40.4	14.2	1.10e-06	0	57	0	1151336448	47	4773
2026-01-15 04:01:41.53	295.66	14.77	-38.4	-40.4	14.2	2.20e-06	0	58	0	1156579328	47	4797
2026-01-15 04:01:42.54	295.46	14.74	-38.3	-40.3	14.2	1.10e-06	0	57	0	1162870784	47	4755
2026-01-15 04:01:43.55	295.26	14.70	-38.3	-40.3	14.2	3.40e-06	0	58	0	1168113664	47	4756
2026-01-15 04:01:44.56	295.06	14.66	-38.4	-40.5	14.0	4.50e-06	0	57	0	1174405120	47	4821
2026-01-15 04:01:45.57	294.86	14.62	-38.5	-40.6	13.9	3.40e-06	0	57	0	1179648000	47	4876
2026-01-15 04:01:46.57	294.67	14.59	-38.3	-40.3	14.1	1.10e-06	0	57	0	1184890880	47	4750
2026-01-15 04:01:47.58	294.47	14.55	-38.2	-40.1	14.3	2.20e-06	0	57	0	1191182336	47	4645
2026-01-15 04:01:48.59	294.27	14.51	-38.1	-40.1	14.4	1.10e-06	0	57	0	1196425216	47	4611
2026-01-15 04:01:49.60	294.08	14.47	-38.0	-39.9	14.6	2.20e-06	0	58	0	1202716672	47	4526
2026-01-15 04:01:50.61	293.88	14.43	-37.8	-39.7	14.7	1.10e-06	0	58	0	1207959552	47	4424
2026-01-15 04:01:51.62	293.68	14.39	-37.8	-39.8	14.5	2.20e-06	0	57	0	1214251008	47	4448
2026-01-15 04:01:52.63	293.49	14.35	-37.8	-39.7	14.5	0.00e+00	0	57	0	1219493888	47	4438
2026-01-15 04:01:53.64	293.30	14.31	-37.8	-39.7	14.5	0.00e+00	0	58	0	1224736768	47	4429
2026-01-15 04:01:54.65	293.10	14.27	-37.7	-39.7	14.6	3.40e-06	0	57	0	1231028224	47	4403
2026-01-15 04:01:55.66	292.91	14.23	-37.8	-39.7	14.6	1.10e-06	0	57	0	1236271104	47	4438
2026-01-15 04:01:56.67	292.72	14.19	-37.9	-39.8	14.5	1.10e-06	0	57	0	1242562560	47	4491
2026-01-15 04:01:57.68	292.52	14.15	-38.0	-39.9	14.3	0.00e+00	0	57	0	1247805440	47	4544
2026-01-15 04:01:58.69	292.33	14.11	-38.0	-40.0	14.3	1.10e-06	0	57	0	1253048320	47	4555
2026-01-15 04:01:59.69	292.14	14.07	-38.0	-40.0	14.2	1.10e-06	0	57	0	1259339776	47	4584
2026-01-15 04:02:00.70	291.95	14.03	-38.0	-40.0	14.2	2.20e-06	0	57	0	1264582656	47	4558
2026-01-15 04:02:01.71	291.76	13.99	-37.9	-39.9	14.2	1.10e-06	0	57	0	1270874112	47	4520
2026-01-15 04:02:02.72	291.57	13.94	-37.9	-40.0	14.0	2.20e-06	0	57	0	1276116992	47	4554
2026-01-15 04:02:03.73	291.38	13.90	-37.9	-39.9	14.1	3.40e-06	0	58	0	1281359872	47	4529
2026-01-15 04:02:04.74	291.19	13.86	-37.8	-39.8	14.2	4.50e-06	0	58	0	1287651328	47	4460
2026-01-15 04:02:05.76	291.00	13.82	-37.7	-39.7	14.2	1.10e-06	0	57	0	1292894208	47	4439
2026-01-15 04:02:06.77	290.82	13.77	-37.7	-39.7	14.2	2.20e-06	0	58	0	1299185664	47	4432
2026-01-15 04:02:07.77	290.63	13.73	-37.7	-39.7	14.2	3.40e-06	0	58	0	1304428544	47	4423
2026-01-15 04:02:08.78	290.44	13.69	-37.6	-39.6	14.3	1.10e-06	0	58	0	1310720000	47	4373
2026-01-15 04:02:09.79	290.26	13.64	-37.6	-39.5	14.3	0.00e+00	0	58	0	1315962880	47	4329
2026-01-15 04:02:10.80	290.07	13.60	-37.6	-39.6	14.2	0.00e+00	0	58	0	1322254336	47	4356
2026-01-15 04:02:11.81	289.89	13.56	-37.7	-39.7	14.0	4.50e-06	0	58	0	1327497216	47	4431
2026-01-15 04:02:12.82	289.70	13.51	-37.8	-39.9	13.9	2.20e-06	0	58	0	1332740096	47	4505
2026-01-15 04:02:13.83	289.52	13.47	-37.8	-40.0	13.7	1.25e-05	0	58	0	1339031552	47	4552
2026-01-15 04:02:14.84	289.34	13.42	-38.0	-40.1	13.5	1.60e-05	0	57	0	1344274432	47	4649
2026-01-15 04:02:15.85	289.16	13.38	-37.9	-40.1	13.5	2.05e-05	0	58	0	1350565888	47	4623
2026-01-15 04:02:16.86	288.97	13.33	-37.9	-40.0	13.6	1.14e-05	0	58	0	1355808768	47	4587
2026-01-15 04:02:17.87	288.79	13.29	-37.9	-40.1	13.5	1.37e-05	0	57	0	1361051648	47	4625
2026-01-15 04:02:18.87	288.61	13.24	-37.9	-40.1	13.4	2.05e-05	0	58	0	1367343104	47	4633
2026-01-15 04:02:19.88	288.43	13.20	-38.1	-40.3	13.2	3.20e-05	0	57	0	1372585984	47	4741
2026-01-15 04:02:20.89	288.25	13.15	-38.2	-40.5	13.0	7.55e-05	0	57	0	1378877440	47	4835
2026-01-15 04:02:21.90	288.07	13.10	-38.3	-40.6	12.8	8.35e-05	0	57	0	1384120320	47	4913
2026-01-15 04:02:22.91	287.90	13.06	-38.3	-40.8	12.6	1.51e-04	0	58	0	1389363200	47	5007
2026-01-15 04:02:23.92	287.72	13.01	-38.3	-40.6	12.7	1.43e-04	0	57	0	1395654656	47	4925
2026-01-15 04:02:24.93	287.54	12.97	-38.3	-40.6	12.8	8.81e-05	0	57	0	1400897536	47	4907
2026-01-15 04:02:25.94	287.36	12.92	-38.4	-40.7	12.7	1.28e-04	0	57	0	1407188992	47	4974
2026-01-15 04:02:26.95	287.19	12.87	-38.4	-40.9	12.5	1.52e-04	0	57	0	1412431872	47	5042
2026-01-15 04:02:27.96	287.01	12.82	-38.6	-41.1	12.3	2.76e-04	0	57	0	1418723328	47	5191
2026-01-15 04:02:28.96	286.84	12.78	-38.7	-41.3	12.0	3.73e-04	0	58	0	1423966208	47	5319
2026-01-15 04:02:29.97	286.66	12.73	-39.0	-41.7	11.7	8.08e-04	0	58	0	1429209088	48	5250
2026-01-15 04:02:30.98	286.49	12.68	-39.1	-41.9	11.4	1.20e-03	0	58	0	1435500544	48	5362
2026-01-15 04:02:32.00	286.31	12.63	-39.2	-42.1	11.2	1.71e-03	0	58	0	1440743424	48	5466
2026-01-15 04:02:33.01	286.14	12.59	-39.2	-42.1	11.1	1.97e-03	0	58	0	1447034880	49	5201
2026-01-15 04:02:34.01	285.97	12.54	-39.2	-42.1	11.1	2.30e-03	0	57	0	1452277760	49	5192
2026-01-15 04:02:35.02	285.80	12.49	-39.3	-42.2	11.1	2.06e-03	0	58	0	1457520640	49	5235
2026-01-15 04:02:36.03	285.63	12.44	-39.3	-42.3	11.0	2.46e-03	0	58	0	1463812096	49	5306
2026-01-15 04:02:37.04	285.46	12.39	-39.4	-42.4	10.9	2.77e-03	0	58	0	1469054976	49	5345
2026-01-15 04:02:38.05	285.29	12.34	-39.3	-42.2	11.0	2.62e-03	0	58	0	1475346432	49	5274
2026-01-15 04:02:39.06	285.12	12.29	-39.3	-42.3	10.9	2.73e-03	0	58	0	1480589312	49	5315
2026-01-15 04:02:40.07	284.95	12.25	-39.4	-42.4	10.8	3.42e-03	0	58	0	1485832192	49	5354
2026-01-15 04:02:41.08	284.78	12.20	-39.4	-42.5	10.7	3.97e-03	0	57	0	1492123648	49	5407
2026-01-15 04:02:42.09	284.61	12.15	-39.4	-42.4	10.8	4.04e-03	0	58	0	1497366528	49	5374
2026-01-15 04:02:43.10	284.45	12.10	-39.3	-42.3	10.9	3.23e-03	0	58	0	1503657984	49	5303
2026-01-15 04:02:44.11	284.28	12.05	-39.3	-42.3	10.9	3.09e-03	0	58	0	1508900864	49	5298
2026-01-15 04:02:45.12	284.11	12.00	-39.3	-42.3	10.9	3.02e-03	0	58	0	1515192320	49	5307
2026-01-15 04:02:46.13	283.95	11.95	-39.3	-42.3	10.8	3.07e-03	0	58	0	1520435200	49	5339
2026-01-15 04:02:47.14	283.78	11.90	-39.2	-42.1	11.1	2.34e-03	0	58	0	1526726656	49	5184
2026-01-15 04:02:48.15	283.62	11.85	-39.0	-41.8	11.5	1.51e-03	0	58	0	1531969536	49	4990
2026-01-15 04:02:49.16	283.45	11.80	-38.9	-41.5	11.7	9.80e-04	0	58	0	1537212416	49	4867
2026-01-15 04:02:50.17	283.29	11.75	-38.8	-41.4	11.8	6.90e-04	0	58	0	1543503872	49	4805
2026-01-15 04:02:51.18	283.13	11.70	-38.6	-41.2	12.1	4.86e-04	0	58	0	1548746752	49	4676
2026-01-15 04:02:52.19	282.97	11.65	-38.6	-41.1	12.3	2.94e-04	0	58	0	1555038208	49	4606
2026-01-15 04:02:53.20	282.80	11.60	-38.6	-41.1	12.4	2.59e-04	0	58	0	1560281088	49	4609
2026-01-15 04:02:54.21	282.64	11.54	-38.5	-41.0	12.5	2.02e-04	0	58	0	1565523968	49	4550
2026-01-15 04:02:55.22	282.48	11.49	-38.4	-40.9	12.5	1.80e-04	0	58	0	1571815424	48	4780
2026-01-15 04:02:56.22	282.33	11.44	-38.3	-40.7	12.6	1.53e-04	0	58	0	1577058304	48	4703
2026-01-15 04:02:57.23	282.17	11.39	-38.1	-40.4	13.1	7.55e-05	0	57	0	1582301184	48	4506
2026-01-15 04:02:58.24	282.01	11.34	-37.9	-40.0	13.5	1.71e-05	0	58	0	1588592640	47	4583
2026-01-15 04:02:59.25	281.85	11.29	-37.9	-40.0	13.6	1.83e-05	0	58	0	1593835520	47	4586
2026-01-15 04:03:00.26	281.69	11.24	-37.8	-39.9	13.8	1.02e-05	0	57	0	1600126976	47	4498
2026-01-15 04:03:01.27	281.53	11.19	-37.7	-39.8	13.8	8.00e-06	0	58	0	1605369856	47	4482
2026-01-15 04:03:02.27	281.38	11.13	-37.9	-40.1	13.5	1.94e-05	0	58	0	1611661312	47	4613
2026-01-15 04:03:03.28	281.22	11.08	-38.1	-40.4	13.2	2.97e-05	0	57	0	1616904192	47	4788
2026-01-15 04:03:04.29	281.07	11.03	-38.4	-40.7	12.8	8.92e-05	0	58	0	1623195648	47	4976
2026-01-15 04:03:05.30	280.91	10.98	-38.4	-40.8	12.7	9.49e-05	0	57	0	1628438528	47	5005
2026-01-15 04:03:06.31	280.76	10.93	-38.4	-40.8	12.6	1.40e-04	0	58	0	1633681408	47	5030
2026-01-15 04:03:07.33	280.60	10.87	-38.4	-40.7	12.7	1.07e-04	0	58	0	1639972864	47	4978
2026-01-15 04:03:08.34	280.45	10.82	-38.3	-40.7	12.7	1.05e-04	0	58	0	1645215744	47	4963
2026-01-15 04:03:09.34	280.30	10.77	-38.5	-40.9	12.6	1.44e-04	0	58	0	1651507200	47	5048
2026-01-15 04:03:10.35	280.15	10.72	-38.5	-40.9	12.5	1.89e-04	0	58	0	1656750080	47	5088
2026-01-15 04:03:11.36	280.00	10.66	-38.4	-40.9	12.5	1.74e-04	0	58	0	1661992960	47	5050
2026-01-15 04:03:12.38	279.84	10.61	-38.6	-41.1	12.3	2.95e-04	0	58	0	1668284416	47	5186
2026-01-15 04:03:13.38	279.69	10.56	-38.7	-41.3	12.0	4.39e-04	0	58	0	1673527296	47	5298
2026-01-15 04:03:14.40	279.54	10.51	-38.9	-41.5	11.9	5.12e-04	0	57	0	1679818752	48	5137
2026-01-15 04:03:15.41	279.39	10.45	-38.9	-41.6	11.7	8.34e-04	0	58	0	1685061632	48	5208
2026-01-15 04:03:16.42	279.25	10.40	-39.1	-42.0	11.3	1.40e-03	0	57	0	1690304512	48	5419
2026-01-15 04:03:17.43	279.10	10.35	-39.3	-42.2	11.0	2.23e-03	0	58	0	1696595968	49	5277
2026-01-15 04:03:18.44	278.95	10.29	-39.3	-42.4	10.8	3.33e-03	0	58	0	1701838848	49	5348
2026-01-15 04:03:19.45	278.80	10.24	-39.4	-42.5	10.5	4.70e-03	0	58	0	1708130304	49	5435
2026-01-15 04:03:20.46	278.66	10.19	-39.4	-42.7	10.3	6.67e-03	0	58	0	1713373184	49	5547
2026-01-15 04:03:21.47	278.51	10.13	-39.5	-42.9	10.0	8.85e-03	0	58	0	1719664640	49	5681
2026-01-15 04:03:22.48	278.36	10.08	-39.6	-43.1	9.7	1.24e-02	0	58	0	1724907520	49	5797
2026-01-15 04:03:23.49	278.22	10.03	-39.7	-43.4	9.3	1.85e-02	0	58	0	1730150400	49	6008
2026-01-15 04:03:24.50	278.07	9.97	-39.8	-43.7	9.0	2.90e-02	0	58	0	1736441856	50	5860
2026-01-15 04:03:25.51	277.93	9.92	-39.8	-43.7	8.8	3.84e-02	0	58	0	1741684736	50	5891
2026-01-15 04:03:26.52	277.79	9.87	-39.8	-43.9	8.7	4.03e-02	0	58	0	1747976192	50	6007
2026-01-15 04:03:27.53	277.64	9.81	-39.9	-44.0	8.4	4.85e-02	0	58	0	1753219072	50	6096
2026-01-15 04:03:28.54	277.50	9.76	-39.9	-44.2	8.3	5.52e-02	0	58	0	1758461952	50	6214
2026-01-15 04:03:29.55	277.36	9.71	-40.0	-44.4	8.0	7.21e-02	0	58	0	1764753408	50	6399
2026-01-15 04:03:30.56	277.22	9.65	-40.1	-44.7	7.6	1.01e-01	0	58	0	1769996288	50	6598
2026-01-15 04:03:31.57	277.08	9.60	-40.1	-45.0	7.3	1.30e-01	0	58	0	1776287744	50	6814
2026-01-15 04:03:32.58	276.94	9.54	-40.2	-45.3	7.0	1.59e-01	0	58	0	1781530624	50	7079
2026-01-15 04:03:33.59	276.80	9.49	-40.3	-45.7	6.5	2.36e-01	0	58	0	1786773504	51	6993
2026-01-15 04:03:34.60	276.66	9.44	-40.4	-46.1	6.1	3.23e-01	0	58	0	1793064960	51	7327
2026-01-15 04:03:35.61	276.52	9.38	-40.4	-46.5	5.8	4.08e-01	0	58	0	1798307840	51	7660
2026-01-15 04:03:36.62	276.38	9.33	-40.5	-46.9	5.5	5.88e-01	0	58	0	1802502144	51	7998
2026-01-15 04:03:37.63	276.25	9.27	-40.5	-47.3	5.2	7.39e-01	0	58	0	1804599296	51	8416
2026-01-15 04:03:38.64	276.11	9.22	-40.5	-47.5	5.0	7.67e-01	0	58	0	1804599296	51	8633
2026-01-15 04:03:39.65	275.97	9.17	-40.5	-47.8	4.8	7.92e-01	0	57	0	1804599296	51	8939
2026-01-15 04:03:40.66	275.84	9.11	-40.5	-48.1	4.6	8.06e-01	0	58	0	1805647872	51	9202
2026-01-15 04:03:41.67	275.70	9.06	-40.5	-48.3	4.5	8.18e-01	0	58	0	1805647872	51	9440
2026-01-15 04:03:42.68	275.57	9.00	-40.5	-48.6	4.4	8.28e-01	0	58	0	1805647872	51	9801
2026-01-15 04:03:43.69	275.43	8.95	-40.5	-48.9	4.2	8.34e-01	0	58	0	1805647872	51	10170
2026-01-15 04:03:44.69	275.30	8.90	-40.6	-49.3	4.1	8.38e-01	0	58	0	1805647872	51	10648
2026-01-15 04:03:45.70	275.16	8.84	-40.6	-49.8	3.9	8.44e-01	0	57	104	1805647872	51	11278
2026-01-15 04:03:46.71	275.03	8.79	-40.6	-50.2	4.0	8.44e-01	0	58	104	1805647872	51	11774
2026-01-15 04:03:47.72	274.90	8.73	-40.6	-50.6	3.8	8.45e-01	0	58	104	1805647872	51	12265
2026-01-15 04:03:48.72	274.77	8.68	-40.6	-50.7	3.9	8.46e-01	0	58	104	1805647872	51	12435
2026-01-15 04:03:49.73	274.64	8.62	-40.6	-50.9	3.8	8.44e-01	0	58	104	1805647872	51	12665
2026-01-15 04:03:50.74	274.51	8.57	-40.6	-50.9	3.8	8.45e-01	0	57	104	1805647872	51	12682
2026-01-15 04:03:51.75	274.38	8.52	-40.6	-51.0	3.8	8.45e-01	0	58	104	1805647872	51	12904
2026-01-15 04:03:52.75	274.25	8.46	-40.6	-51.1	3.8	8.46e-01	0	58	104	1805647872	51	13010
2026-01-15 04:03:53.76	274.12	8.41	-40.6	-51.2	3.8	8.46e-01	0	58	104	1805647872	51	13137
2026-01-15 04:03:54.77	273.99	8.35	-40.5	-51.3	3.8	8.47e-01	0	58	104	1805647872	51	13321
2026-01-15 04:03:55.78	273.86	8.30	-40.5	-51.4	3.8	8.45e-01	0	58	104	1805647872	51	13494
2026-01-15 04:03:56.79	273.73	8.24	-40.5	-51.5	3.8	8.46e-01	0	58	104	1805647872	51	13634
2026-01-15 04:03:57.80	273.60	8.19	-40.5	-51.6	3.8	8.46e-01	0	58	104	1805647872	51	13728
2026-01-15 04:03:58.81	273.48	8.13	-40.5	-51.6	3.8	8.46e-01	0	58	104	1805647872	51	13785
2026-01-15 04:03:59.82	273.35	8.08	-40.4	-51.6	3.8	8.46e-01	0	58	104	1805647872	51	13758
2026-01-15 04:04:00.83	273.22	8.02	-40.4	-51.6	3.8	8.46e-01	0	58	104	1805647872	51	13744
2026-01-15 04:04:01.84	273.10	7.97	-42.5	-53.5	3.8	8.47e-01	0	58	104	1805647872	55	13698
2026-01-15 04:04:02.85	272.97	7.91	-44.6	-56.1	3.8	8.46e-01	0	58	104	1805647872	59	14686
2026-01-15 04:04:03.86	272.85	7.86	-44.8	-56.5	3.8	8.46e-01	0	58	104	1805647872	60	14416
2026-01-15 04:04:04.87	272.72	7.81	-44.9	-56.6	3.8	8.47e-01	0	58	104	1805647872	60	14692
2026-01-15 04:04:05.88	272.60	7.75	-45.0	-56.8	3.8	8.47e-01	0	58	104	1805647872	60	14908
2026-01-15 04:04:06.89	272.48	7.70	-45.1	-56.8	3.8	8.45e-01	0	58	104	1805647872	60	14898
2026-01-15 04:04:07.89	272.36	7.64	-45.2	-56.9	3.8	8.46e-01	0	58	104	1805647872	60	15076
2026-01-15 04:04:08.90	272.23	7.59	-45.2	-56.9	3.8	8.46e-01	0	58	104	1805647872	60	15136
2026-01-15 04:04:09.92	272.11	7.53	-45.2	-56.9	3.8	8.46e-01	0	58	104	1805647872	60	15115
2026-01-15 04:04:10.93	271.99	7.48	-45.2	-56.9	3.8	8.46e-01	0	58	104	1805647872	61	14291
2026-01-15 04:04:11.94	271.87	7.42	-45.2	-56.8	3.8	8.46e-01	0	58	104	1805647872	61	14181
2026-01-15 04:04:12.95	271.75	7.37	-45.1	-56.8	3.8	8.47e-01	0	58	104	1805647872	61	14146
2026-01-15 04:04:13.96	271.63	7.31	-45.1	-56.8	3.8	8.47e-01	0	58	104	1805647872	61	14151
2026-01-15 04:04:14.97	271.51	7.26	-45.1	-56.8	3.8	8.47e-01	0	58	104	1805647872	61	14066
2026-01-15 04:04:15.97	271.39	7.20	-45.1	-56.8	3.8	8.46e-01	0	58	104	1805647872	61	14091
2026-01-15 04:04:16.99	271.27	7.15	-45.1	-56.7	3.8	8.45e-01	0	58	104	1805647872	61	14041
2026-01-15 04:04:18.00	271.15	7.09	-45.1	-56.8	3.8	8.46e-01	0	58	104	1805647872	61	14122
2026-01-15 04:04:19.01	271.04	7.04	-45.1	-56.7	3.8	8.47e-01	0	58	104	1805647872	61	14018
2026-01-15 04:04:20.02	270.92	6.98	-45.1	-56.7	3.8	8.46e-01	0	58	104	1805647872	61	14041
2026-01-15 04:04:21.03	270.80	6.93	-45.1	-56.7	3.8	8.46e-01	0	57	104	1805647872	61	13954
2026-01-15 04:04:22.04	270.68	6.87	-45.1	-56.7	3.8	8.45e-01	0	58	104	1805647872	61	14037
2026-01-15 04:04:23.05	270.57	6.82	-45.1	-56.7	3.8	8.46e-01	0	58	104	1805647872	61	14020
2026-01-15 04:04:24.06	270.45	6.77	-45.1	-56.7	3.8	8.46e-01	0	58	104	1805647872	61	13963
2026-01-15 04:04:25.07	270.34	6.71	-45.1	-56.8	3.8	8.46e-01	0	58	104	1805647872	61	14061
2026-01-15 04:04:26.08	270.22	6.66	-45.1	-56.7	3.8	8.46e-01	0	58	104	1805647872	61	13988
2026-01-15 04:04:27.09	270.11	6.60	-45.1	-56.7	3.8	8.47e-01	0	58	104	1805647872	61	13959
2026-01-15 04:04:28.10	270.00	6.55	-45.1	-56.8	3.8	8.45e-01	0	58	104	1805647872	61	14102
2026-01-15 04:04:29.11	269.88	6.49	-45.1	-56.7	3.8	8.46e-01	0	58	104	1805647872	61	14005
2026-01-15 04:04:30.13	269.77	6.44	-45.1	-56.7	3.8	8.46e-01	0	58	104	1805647872	61	13965
2026-01-15 04:04:31.14	269.66	6.38	-45.1	-56.7	3.8	8.47e-01	0	58	104	1805647872	61	13984
2026-01-15 04:04:32.15	269.54	6.33	-45.1	-56.7	3.8	8.46e-01	0	58	104	1805647872	61	13987
2026-01-15 04:04:33.16	269.43	6.27	-45.1	-56.8	3.8	8.46e-01	0	58	104	1805647872	61	14058
2026-01-15 04:04:34.17	269.32	6.22	-45.1	-56.7	3.8	8.47e-01	0	58	104	1805647872	61	14000
2026-01-15 04:04:35.18	269.21	6.16	-45.1	-56.7	3.8	8.47e-01	0	58	104	1805647872	61	14016
2026-01-15 04:04:36.19	269.10	6.11	-45.1	-56.7	3.8	8.45e-01	0	58	104	1805647872	61	14030
2026-01-15 04:04:37.20	268.99	6.05	-45.1	-56.7	3.8	8.46e-01	0	58	104	1805647872	61	13967
2026-01-15 04:04:38.21	268.88	6.00	-45.1	-56.7	3.8	8.46e-01	0	58	104	1805647872	61	14019
2026-01-15 04:04:39.22	268.77	5.95	-45.1	-56.7	3.8	8.45e-01	0	58	104	1805647872	61	14000
2026-01-15 04:04:40.23	268.66	5.89	-45.1	-56.7	3.8	8.45e-01	0	58	104	1805647872	61	14042
2026-01-15 04:04:41.24	268.56	5.84	-45.1	-56.7	3.8	8.46e-01	0	58	104	1805647872	61	13964
2026-01-15 04:04:42.25	268.45	5.78	-45.1	-56.7	3.8	8.45e-01	0	58	104	1805647872	61	13913
2026-01-15 04:04:43.26	268.34	5.73	-45.1	-56.7	3.8	8.47e-01	0	58	104	1805647872	61	13972
2026-01-15 04:04:44.27	268.23	5.67	-45.1	-56.7	3.8	8.46e-01	0	58	104	1805647872	61	13984
2026-01-15 04:04:45.28	268.13	5.62	-45.1	-56.7	3.8	8.46e-01	0	58	104	1805647872	61	14014
2026-01-15 04:04:46.28	268.02	5.56	-45.1	-56.7	3.8	8.46e-01	0	58	104	1805647872	61	13961
2026-01-15 04:04:47.30	267.92	5.51	-45.1	-56.7	3.8	8.46e-01	0	58	104	1805647872	61	13986
2026-01-15 04:04:48.30	267.81	5.46	-45.0	-56.7	3.8	8.47e-01	0	58	104	1805647872	61	13947
2026-01-15 04:04:49.31	267.71	5.40	-45.1	-56.7	3.8	8.46e-01	0	58	104	1805647872	61	14032
2026-01-15 04:04:50.32	267.60	5.35	-45.1	-56.7	3.8	8.46e-01	0	58	104	1805647872	61	13956
2026-01-15 04:04:51.33	267.50	5.29	-45.1	-56.7	3.8	8.45e-01	0	58	104	1805647872	61	14010
2026-01-15 04:04:52.34	267.39	5.24	-45.1	-56.7	3.8	8.47e-01	0	58	104	1805647872	61	13957
2026-01-15 04:04:53.35	267.29	5.18	-45.1	-56.7	3.8	8.47e-01	0	58	104	1805647872	61	13958
2026-01-15 04:04:54.36	267.19	5.13	-45.1	-56.7	3.8	8.48e-01	0	58	104	1805647872	61	13924
2026-01-15 04:04:55.37	267.08	5.08	-45.1	-56.7	3.8	8.46e-01	0	58	104	1805647872	61	14033
2026-01-15 04:04:56.38	266.98	5.02	-45.0	-56.7	3.8	8.46e-01	0	58	104	1805647872	61	13946
2026-01-15 04:04:57.40	266.88	4.97	-45.1	-56.6	3.8	8.47e-01	0	58	104	1805647872	61	13867
2026-01-15 04:04:58.41	266.78	4.91	-45.1	-56.7	3.8	8.46e-01	0	58	104	1805647872	61	13966
2026-01-15 04:04:59.42	266.68	4.86	-45.1	-56.7	3.8	8.47e-01	0	58	104	1805647872	61	13939
2026-01-15 04:05:00.43	266.58	4.80	-45.0	-56.7	3.8	8.46e-01	0	58	104	1805647872	61	13914
2026-01-15 04:05:01.44	266.48	4.75	-45.1	-56.7	3.8	8.46e-01	0	58	104	1805647872	61	13952
2026-01-15 04:05:02.45	266.38	4.70	-45.0	-56.7	3.8	8.46e-01	0	58	104	1805647872	61	13925
2026-01-15 04:05:03.46	266.28	4.64	-45.1	-56.7	3.8	8.45e-01	0	58	104	1805647872	61	13946
2026-01-15 04:05:04.47	266.18	4.59	-45.1	-56.7	3.8	8.46e-01	0	58	104	1805647872	61	13993
2026-01-15 04:05:05.48	266.08	4.53	-45.0	-56.7	3.8	8.45e-01	0	58	104	1805647872	61	13927
2026-01-15 04:05:06.49	265.98	4.48	-45.1	-56.6	3.8	8.45e-01	0	58	104	1805647872	61	13871
2026-01-15 04:05:07.50	265.88	4.43	-45.1	-56.7	3.8	8.45e-01	0	58	104	1805647872	61	13926
2026-01-15 04:05:08.51	265.78	4.37	-45.1	-56.7	3.8	8.47e-01	0	58	104	1805647872	61	13960
2026-01-15 04:05:09.51	265.69	4.32	-45.0	-56.7	3.8	8.46e-01	0	58	104	1805647872	61	13936
2026-01-15 04:05:10.52	265.59	4.27	-45.0	-56.7	3.8	8.45e-01	0	58	104	1805647872	61	13935
2026-01-15 04:05:11.53	265.49	4.21	-45.0	-56.7	3.8	8.46e-01	0	58	104	1805647872	61	13990
2026-01-15 04:05:12.54	265.40	4.16	-45.0	-56.7	3.8	8.45e-01	0	58	104	1805647872	61	13916
2026-01-15 04:05:13.55	265.30	4.11	-45.1	-56.7	3.8	8.47e-01	0	58	104	1805647872	61	13959
2026-01-15 04:05:14.56	265.21	4.05	-45.0	-56.7	3.8	8.46e-01	0	58	104	1805647872	61	13975
2026-01-15 04:05:15.57	265.11	4.00	-45.1	-56.7	3.8	8.47e-01	0	58	104	1805647872	61	13937
2026-01-15 04:05:16.57	265.02	3.95	-45.1	-56.7	3.8	8.46e-01	0	58	104	1805647872	61	13895
2026-01-15 04:05:17.58	264.92	3.89	-45.0	-56.7	3.8	8.45e-01	0	58	104	1805647872	61	13929
2026-01-15 04:05:18.59	264.83	3.84	-45.1	-56.7	3.8	8.47e-01	0	58	104	1805647872	61	13947
2026-01-15 04:05:19.60	264.74	3.78	-45.0	-56.7	3.8	8.47e-01	0	58	104	1805647872	61	13905
2026-01-15 04:05:20.61	264.64	3.73	-45.0	-56.7	3.8	8.46e-01	0	58	104	1805647872	61	13991
2026-01-15 04:05:21.62	264.55	3.68	-45.1	-56.7	3.8	8.46e-01	0	58	104	1805647872	61	13959
2026-01-15 04:05:22.63	264.46	3.62	-45.0	-56.7	3.8	8.47e-01	0	58	104	1805647872	61	13962
2026-01-15 04:05:23.64	264.36	3.57	-45.0	-56.7	3.8	8.46e-01	0	58	104	1805647872	61	13960
2026-01-15 04:05:24.65	264.27	3.52	-45.0	-56.7	3.8	8.45e-01	0	58	104	1805647872	61	13893
2026-01-15 04:05:25.66	264.18	3.46	-45.0	-56.7	3.8	8.46e-01	0	58	104	1805647872	61	13954
2026-01-15 04:05:26.68	264.09	3.41	-45.0	-56.6	3.8	8.46e-01	0	58	104	1805647872	61	13864
2026-01-15 04:05:27.68	264.00	3.36	-45.0	-56.7	3.8	8.46e-01	0	58	104	1805647872	61	13948
2026-01-15 04:05:28.70	263.91	3.30	-45.0	-56.7	3.8	8.46e-01	0	58	104	1805647872	61	13967
2026-01-15 04:05:29.71	263.82	3.25	-45.0	-56.7	3.8	8.46e-01	0	58	104	1805647872	61	13956
2026-01-15 04:05:30.72	263.73	3.20	-45.0	-56.7	3.8	8.46e-01	0	58	104	1805647872	61	13986
2026-01-15 04:05:31.73	263.64	3.15	-45.0	-56.7	3.8	8.46e-01	0	58	104	1805647872	61	13955
2026-01-15 04:05:32.74	263.55	3.09	-45.0	-56.7	3.8	8.46e-01	0	58	104	1805647872	61	13903
2026-01-15 04:05:33.75	263.46	3.04	-45.0	-56.7	3.8	8.46e-01	0	58	104	1805647872	61	13893
2026-01-15 04:05:34.76	263.37	2.99	-44.9	-56.6	3.8	8.46e-01	0	58	104	1805647872	61	13816
2026-01-15 04:05:35.77	263.28	2.93	-44.9	-56.7	3.8	8.45e-01	0	58	104	1805647872	61	13899
2026-01-15 04:05:36.78	263.19	2.88	-45.0	-56.7	3.8	8.47e-01	0	58	104	1805647872	61	13956
2026-01-15 04:05:37.79	263.11	2.83	-44.9	-56.7	3.8	8.46e-01	0	58	104	1805647872	61	13916
2026-01-15 04:05:38.80	263.02	2.78	-44.8	-56.6	3.8	8.46e-01	0	58	104	1805647872	61	13823
2026-01-15 04:05:39.81	262.93	2.72	-44.8	-56.5	3.8	8.47e-01	0	58	104	1805647872	61	13705
2026-01-15 04:05:40.82	262.85	2.67	-44.6	-56.5	3.8	8.45e-01	0	58	104	1805647872	61	13674
2026-01-15 04:05:41.83	262.76	2.62	-44.3	-56.4	3.8	8.46e-01	0	58	104	1805647872	60	14254
2026-01-15 04:05:42.84	262.67	2.56	-44.1	-56.3	3.8	8.46e-01	0	58	104	1805647872	60	14086
2026-01-15 04:05:43.85	262.59	2.51	-44.4	-56.5	3.8	8.46e-01	0	58	104	1805647872	60	14430
2026-01-15 04:05:44.86	262.50	2.46	-44.7	-56.5	3.8	8.46e-01	0	58	104	1805647872	60	14507
2026-01-15 04:05:45.86	262.42	2.41	-44.8	-56.6	3.8	8.46e-01	0	58	104	1805647872	60	14557
2026-01-15 04:05:46.87	262.33	2.36	-44.4	-56.5	3.8	8.46e-01	0	58	104	1805647872	60	14378
2026-01-15 04:05:47.88	262.25	2.30	-42.9	-55.9	3.8	8.46e-01	0	58	104	1805647872	57	16099
2026-01-15 04:05:48.89	262.16	2.25	-41.1	-54.7	3.8	8.46e-01	0	58	104	1805647872	54	16603
2026-01-15 04:05:49.91	262.08	2.20	-40.8	-54.3	3.8	8.46e-01	0	58	104	1805647872	53	16765
2026-01-15 04:05:50.92	262.00	2.15	-41.4	-54.4	3.8	8.45e-01	0	58	104	1805647872	53	17046
2026-01-15 04:05:51.92	261.91	2.09	-42.1	-54.9	3.8	8.45e-01	0	58	104	1805647872	54	16912
2026-01-15 04:05:52.94	261.83	2.04	-42.2	-55.3	3.8	8.46e-01	0	58	104	1805647872	55	16883
2026-01-15 04:05:53.95	261.75	1.99	-41.8	-54.8	3.8	8.45e-01	0	58	104	1805647872	55	15941
2026-01-15 04:05:54.96	261.66	1.94	-42.0	-54.9	3.8	8.46e-01	0	58	104	1805647872	55	15978
2026-01-15 04:05:55.97	261.58	1.88	-43.5	-55.8	3.8	8.46e-01	0	58	104	1805647872	57	15804

#Closed at: 2026-01-15 04:05:56
#Recorded file [1805 MB]: D:/lorett/data/31039_260115_065421.dat