passes_logs/2026/01/15/R2.0S_Moscow/R2.0S_Moscow__20260115_213002_FENGYUN_3G_rec.log

#Pass ID: 20260115_213002_FENGYUN 3G
#Satellite: FENGYUN 3G
#Configuration: FENGYUN 3G
#almurnet v.1.7.20251203
#Start time: 2026-01-15 21:30:03

#Version: 2.2.20231116
#Station: R2.0S_Moscow
#Location: 37.707566 lon 55.798166 lat
#TLE: 1 56232U 23055A   26015.17772624  .00018907  00000+0  29824-3 0  9995
#TLE: 2 56232  49.9942  55.0157 0004230  27.8148 332.3045 15.53505157156222

#Time	Az	El	Level	Level2	SNR	BER	BlckErr	Temp	State	Recorded	gain1	gain2
2026-01-15 21:30:03.89	224.29	2.10	-44.0	-62.0	3.8	8.46e-01	0	51	0	0	60	27318
2026-01-15 21:30:04.90	224.20	2.17	-44.0	-62.0	3.8	8.45e-01	0	51	104	0	60	27348
2026-01-15 21:30:05.91	224.11	2.23	-44.0	-62.0	3.8	8.46e-01	0	51	104	0	60	27374
2026-01-15 21:30:06.93	224.02	2.29	-44.0	-62.0	3.8	8.46e-01	0	51	104	0	60	27295
2026-01-15 21:30:07.94	223.93	2.36	-44.0	-62.0	3.8	8.46e-01	0	51	104	0	60	27319
2026-01-15 21:30:08.95	223.84	2.42	-44.0	-62.0	3.8	8.46e-01	0	51	104	0	60	27366
2026-01-15 21:30:09.96	223.75	2.48	-44.0	-62.0	3.8	8.47e-01	0	51	104	0	60	27308
2026-01-15 21:30:10.97	223.66	2.55	-44.0	-62.0	3.8	8.47e-01	0	51	104	0	60	27371
2026-01-15 21:30:11.98	223.56	2.61	-44.0	-62.0	3.8	8.46e-01	0	51	104	0	60	27256
2026-01-15 21:30:12.99	223.47	2.68	-44.0	-62.0	3.8	8.46e-01	0	51	104	0	60	27306
2026-01-15 21:30:14.00	223.38	2.74	-44.0	-62.0	3.8	8.46e-01	0	51	104	0	60	27309
2026-01-15 21:30:15.01	223.28	2.81	-44.0	-62.0	3.8	8.46e-01	0	52	104	0	60	27317
2026-01-15 21:30:16.02	223.19	2.87	-44.0	-62.0	3.8	8.46e-01	0	52	104	0	60	27267
2026-01-15 21:30:17.03	223.09	2.94	-44.0	-62.0	3.8	8.46e-01	0	52	104	0	60	27318
2026-01-15 21:30:18.05	222.99	3.00	-44.0	-62.0	3.8	8.46e-01	0	52	104	0	60	27302
2026-01-15 21:30:19.06	222.90	3.07	-44.0	-62.0	3.8	8.46e-01	0	52	104	0	60	27290
2026-01-15 21:30:20.07	222.80	3.13	-44.0	-62.0	3.8	8.47e-01	0	52	104	0	60	27285
2026-01-15 21:30:21.08	222.70	3.20	-44.0	-62.0	3.8	8.47e-01	0	52	104	0	60	27295
2026-01-15 21:30:22.09	222.60	3.27	-44.0	-62.0	3.8	8.46e-01	0	52	104	0	60	27326
2026-01-15 21:30:23.10	222.50	3.33	-44.0	-62.0	3.8	8.46e-01	0	52	104	0	60	27310
2026-01-15 21:30:24.11	222.40	3.40	-44.0	-62.0	3.8	8.46e-01	0	52	104	0	60	27318
2026-01-15 21:30:25.12	222.30	3.46	-44.0	-62.0	3.8	8.48e-01	0	52	104	0	60	27283
2026-01-15 21:30:26.13	222.20	3.53	-44.0	-62.0	3.8	8.46e-01	0	53	104	0	60	27286
2026-01-15 21:30:27.14	222.10	3.60	-44.0	-62.0	3.8	8.46e-01	0	52	104	0	60	27289
2026-01-15 21:30:28.15	221.99	3.67	-44.0	-62.0	3.8	8.47e-01	0	52	104	0	60	27233
2026-01-15 21:30:29.16	221.89	3.73	-44.1	-62.0	3.8	8.46e-01	0	53	104	0	59	28933
2026-01-15 21:30:30.18	221.79	3.80	-44.1	-62.0	3.8	8.46e-01	0	52	104	0	59	28851
2026-01-15 21:30:31.18	221.68	3.87	-44.1	-62.0	3.8	8.46e-01	0	52	104	0	59	28944
2026-01-15 21:30:32.19	221.58	3.94	-44.1	-62.0	3.8	8.47e-01	0	52	104	0	59	28923
2026-01-15 21:30:33.21	221.47	4.00	-44.1	-62.0	3.8	8.45e-01	0	53	104	0	59	28927
2026-01-15 21:30:34.22	221.36	4.07	-44.1	-62.0	3.8	8.45e-01	0	53	104	0	59	28887
2026-01-15 21:30:35.23	221.25	4.14	-44.1	-62.0	3.8	8.46e-01	0	53	104	0	59	28797
2026-01-15 21:30:36.24	221.14	4.21	-44.1	-62.0	3.8	8.45e-01	0	53	104	0	59	28909
2026-01-15 21:30:37.25	221.03	4.28	-44.1	-62.0	3.8	8.45e-01	0	53	104	0	59	28844
2026-01-15 21:30:38.26	220.92	4.35	-44.1	-62.0	3.8	8.46e-01	0	53	104	0	59	28900
2026-01-15 21:30:39.27	220.81	4.42	-44.1	-62.0	3.8	8.47e-01	0	53	104	0	59	28894
2026-01-15 21:30:40.28	220.70	4.49	-44.1	-62.0	3.8	8.47e-01	0	53	104	0	59	28893
2026-01-15 21:30:41.29	220.59	4.56	-44.1	-62.0	3.8	8.46e-01	0	53	104	0	59	28858
2026-01-15 21:30:42.30	220.48	4.63	-44.1	-62.0	3.8	8.47e-01	0	53	104	0	59	28826
2026-01-15 21:30:43.31	220.36	4.69	-44.1	-62.0	3.8	8.46e-01	0	53	104	0	59	28803
2026-01-15 21:30:44.33	220.25	4.77	-44.1	-62.0	3.8	8.46e-01	0	53	104	0	59	28860
2026-01-15 21:30:45.34	220.13	4.84	-44.1	-62.0	3.8	8.45e-01	0	53	104	0	59	28794
2026-01-15 21:30:46.35	220.02	4.91	-44.1	-62.0	3.8	8.45e-01	0	54	104	0	59	28906
2026-01-15 21:30:47.36	219.90	4.98	-44.1	-62.0	3.8	8.45e-01	0	54	104	0	59	28882
2026-01-15 21:30:48.37	219.78	5.05	-44.1	-62.0	3.8	8.46e-01	0	54	104	0	59	28727
2026-01-15 21:30:49.38	219.66	5.12	-44.1	-62.0	3.8	8.45e-01	0	53	104	0	59	28748
2026-01-15 21:30:50.39	219.54	5.19	-44.1	-61.9	3.8	8.45e-01	0	54	104	0	59	28392
2026-01-15 21:30:51.40	219.42	5.26	-44.1	-61.9	3.8	8.46e-01	0	54	104	0	59	28489
2026-01-15 21:30:52.41	219.30	5.33	-44.1	-61.6	3.8	8.46e-01	0	54	104	0	59	27434
2026-01-15 21:30:53.42	219.18	5.41	-44.1	-61.6	3.8	8.46e-01	0	54	104	0	59	27556
2026-01-15 21:30:54.44	219.05	5.48	-44.1	-61.5	3.8	8.46e-01	0	54	104	0	59	27130
2026-01-15 21:30:55.45	218.93	5.55	-44.1	-61.4	3.8	8.46e-01	0	54	104	0	59	26782
2026-01-15 21:30:56.46	218.80	5.62	-44.0	-61.1	3.8	8.46e-01	0	54	104	0	59	25910
2026-01-15 21:30:57.47	218.68	5.70	-44.0	-61.0	3.8	8.46e-01	0	54	104	0	59	25645
2026-01-15 21:30:58.48	218.55	5.77	-44.0	-61.0	3.8	8.47e-01	0	54	104	0	59	25613
2026-01-15 21:30:59.49	218.42	5.84	-44.0	-60.9	3.8	8.46e-01	0	54	104	0	59	25492
2026-01-15 21:31:00.50	218.30	5.92	-44.0	-60.6	3.8	8.46e-01	0	54	104	0	59	24441
2026-01-15 21:31:01.51	218.17	5.99	-44.0	-60.6	3.8	8.47e-01	0	54	104	0	59	24456
2026-01-15 21:31:02.52	218.04	6.06	-44.0	-60.3	3.8	8.45e-01	0	54	104	0	59	23853
2026-01-15 21:31:03.53	217.91	6.14	-44.0	-59.9	3.9	8.45e-01	0	54	104	0	59	22678
2026-01-15 21:31:04.54	217.77	6.21	-44.0	-59.4	4.0	8.45e-01	0	54	104	0	59	21295
2026-01-15 21:31:05.55	217.64	6.29	-44.0	-59.4	4.0	8.44e-01	0	54	104	0	59	21303
2026-01-15 21:31:06.56	217.51	6.36	-44.0	-59.7	4.0	8.44e-01	0	54	104	0	59	22083
2026-01-15 21:31:07.57	217.37	6.44	-44.0	-59.5	3.9	8.45e-01	0	55	104	0	59	21630
2026-01-15 21:31:08.59	217.23	6.51	-44.0	-59.0	4.1	8.45e-01	0	55	104	0	59	20521
2026-01-15 21:31:09.60	217.10	6.59	-44.0	-58.6	4.1	8.41e-01	0	55	0	0	59	19486
2026-01-15 21:31:10.61	216.96	6.66	-43.9	-57.7	4.4	8.41e-01	0	55	0	0	59	17500
2026-01-15 21:31:11.62	216.82	6.74	-43.8	-56.0	5.2	8.30e-01	0	55	0	0	59	14466
2026-01-15 21:31:12.63	216.68	6.82	-43.7	-54.9	6.0	6.84e-01	0	55	0	0	59	12752
2026-01-15 21:31:13.64	216.54	6.89	-43.6	-53.8	6.9	6.84e-01	0	55	0	1572864	59	11192
2026-01-15 21:31:14.65	216.40	6.97	-43.4	-52.3	8.3	2.18e-01	0	55	0	2621440	58	10058
2026-01-15 21:31:15.66	216.25	7.04	-43.3	-51.5	9.2	5.26e-02	0	55	0	3670016	58	9173
2026-01-15 21:31:16.67	216.11	7.12	-43.2	-51.0	9.8	5.26e-02	0	55	0	4718592	58	8580
2026-01-15 21:31:17.68	215.96	7.20	-43.1	-50.9	9.9	1.41e-02	0	55	0	5767168	58	8478
2026-01-15 21:31:18.69	215.82	7.28	-43.2	-51.1	9.7	7.59e-03	0	55	0	7340032	58	8748
2026-01-15 21:31:19.70	215.67	7.35	-43.4	-52.4	8.5	1.80e-02	0	55	0	8388608	58	10111
2026-01-15 21:31:20.72	215.52	7.43	-43.7	-54.7	6.3	1.80e-02	0	55	0	9437184	58	13139
2026-01-15 21:31:21.72	215.37	7.51	-44.0	-58.5	4.2	2.51e-01	0	55	0	9961472	58	20445
2026-01-15 21:31:22.73	215.22	7.59	-44.1	-62.0	3.8	8.30e-01	0	55	104	9961472	58	30390
2026-01-15 21:31:23.74	215.07	7.67	-43.9	-57.1	4.6	8.30e-01	0	55	0	9961472	58	17418
2026-01-15 21:31:24.76	214.91	7.75	-43.4	-52.2	8.3	8.18e-01	0	55	0	10485760	58	9896
2026-01-15 21:31:25.76	214.76	7.82	-42.7	-49.3	11.4	7.75e-02	0	55	0	11534336	57	7537
2026-01-15 21:31:26.77	214.61	7.90	-42.2	-47.6	13.2	7.75e-02	0	55	0	12582912	56	6556
2026-01-15 21:31:27.78	214.45	7.98	-41.7	-46.5	14.3	3.15e-04	0	55	0	13631488	55	6106
2026-01-15 21:31:28.79	214.29	8.06	-41.5	-46.1	14.7	3.40e-06	0	55	0	15204352	54	6166
2026-01-15 21:31:29.80	214.13	8.14	-42.4	-48.5	12.6	3.40e-06	0	55	0	16252928	55	7653
2026-01-15 21:31:30.81	213.97	8.22	-42.2	-47.4	13.9	1.48e-05	0	55	0	17301504	55	6725
2026-01-15 21:31:31.82	213.81	8.30	-43.7	-56.3	6.0	4.92e-05	0	55	0	18350080	57	16719
2026-01-15 21:31:32.83	213.65	8.38	-43.1	-50.4	10.8	3.57e-01	0	55	0	18874368	57	8469
2026-01-15 21:31:33.84	213.48	8.46	-42.9	-50.0	12.1	3.57e-01	0	55	0	19922944	56	8581
2026-01-15 21:31:34.85	213.32	8.54	-41.5	-46.0	14.8	1.90e-02	0	55	0	20971520	55	5742
2026-01-15 21:31:35.86	213.15	8.62	-41.3	-45.5	15.4	1.05e-03	0	55	0	22020096	54	5776
2026-01-15 21:31:36.87	212.98	8.71	-41.0	-44.9	16.1	1.05e-03	0	55	0	23592960	54	5400
2026-01-15 21:31:37.88	212.82	8.79	-41.0	-44.9	16.2	0.00e+00	0	55	0	24641536	54	5358
2026-01-15 21:31:38.89	212.64	8.87	-41.0	-44.9	16.2	0.00e+00	0	56	0	25690112	54	5354
2026-01-15 21:31:39.90	212.47	8.95	-41.0	-44.8	16.2	0.00e+00	0	56	0	26738688	53	5650
2026-01-15 21:31:40.91	212.30	9.03	-41.0	-44.9	16.2	0.00e+00	0	56	0	27787264	53	5664
2026-01-15 21:31:41.92	212.13	9.12	-41.1	-45.0	16.1	0.00e+00	0	56	0	28835840	53	5730
2026-01-15 21:31:42.93	211.95	9.20	-41.0	-44.9	16.3	0.00e+00	0	56	0	30408704	53	5673
2026-01-15 21:31:43.94	211.77	9.28	-41.0	-44.9	16.3	0.00e+00	0	56	0	31457280	53	5682
2026-01-15 21:31:44.95	211.59	9.36	-41.0	-44.8	16.3	0.00e+00	0	56	0	32505856	53	5631
2026-01-15 21:31:45.96	211.41	9.45	-40.9	-44.6	16.5	0.00e+00	0	56	0	33554432	53	5522
2026-01-15 21:31:46.97	211.23	9.53	-40.9	-44.6	16.5	0.00e+00	0	56	0	34603008	53	5504
2026-01-15 21:31:47.98	211.05	9.62	-40.9	-44.6	16.6	0.00e+00	0	56	0	35651584	53	5486
2026-01-15 21:31:48.99	210.87	9.70	-40.9	-44.5	16.7	0.00e+00	0	56	0	37224448	53	5438
2026-01-15 21:31:50.00	210.68	9.78	-40.8	-44.4	16.8	0.00e+00	0	56	0	38273024	53	5402
2026-01-15 21:31:51.01	210.49	9.87	-40.8	-44.4	16.9	0.00e+00	0	56	0	39321600	53	5354
2026-01-15 21:31:52.02	210.31	9.95	-40.7	-44.2	17.0	0.00e+00	0	56	0	40370176	53	5269
2026-01-15 21:31:53.03	210.12	10.04	-40.7	-44.3	16.9	0.00e+00	0	56	0	41418752	53	5309
2026-01-15 21:31:54.04	209.92	10.12	-40.7	-44.2	17.1	0.00e+00	0	56	0	42467328	53	5234
2026-01-15 21:31:55.04	209.73	10.21	-40.7	-44.2	17.1	0.00e+00	0	56	0	44040192	53	5235
2026-01-15 21:31:56.05	209.54	10.29	-40.6	-44.0	17.3	0.00e+00	0	56	0	45088768	53	5113
2026-01-15 21:31:57.06	209.34	10.38	-40.6	-44.1	17.2	0.00e+00	0	56	0	46137344	53	5170
2026-01-15 21:31:58.07	209.14	10.46	-40.6	-43.9	17.3	0.00e+00	0	56	0	47185920	53	5095
2026-01-15 21:31:59.08	208.95	10.55	-40.5	-43.9	17.4	0.00e+00	0	56	0	48234496	53	5061
2026-01-15 21:32:00.09	208.75	10.63	-40.5	-43.9	17.4	0.00e+00	0	56	0	49283072	53	5057
2026-01-15 21:32:01.10	208.54	10.72	-40.5	-43.8	17.5	0.00e+00	0	56	0	50855936	52	5308
2026-01-15 21:32:02.11	208.34	10.81	-40.5	-43.9	17.4	0.00e+00	0	56	0	51904512	52	5385
2026-01-15 21:32:03.12	208.13	10.89	-40.6	-43.9	17.4	0.00e+00	0	56	0	52953088	52	5392
2026-01-15 21:32:04.13	207.93	10.98	-40.6	-43.9	17.4	0.00e+00	0	56	0	54001664	52	5389
2026-01-15 21:32:05.14	207.72	11.07	-40.6	-44.0	17.3	0.00e+00	0	56	0	55050240	52	5435
2026-01-15 21:32:06.15	207.51	11.15	-40.6	-43.9	17.4	0.00e+00	0	56	0	56098816	52	5375
2026-01-15 21:32:07.16	207.29	11.24	-40.5	-43.8	17.5	0.00e+00	0	56	0	57671680	52	5331
2026-01-15 21:32:08.17	207.08	11.33	-40.5	-43.8	17.5	0.00e+00	0	57	0	58720256	52	5331
2026-01-15 21:32:09.18	206.87	11.42	-40.4	-43.7	17.7	0.00e+00	0	56	0	59768832	52	5234
2026-01-15 21:32:10.19	206.65	11.50	-40.3	-43.4	18.0	0.00e+00	0	57	0	60817408	52	5065
2026-01-15 21:32:11.20	206.43	11.59	-40.0	-43.0	18.4	0.00e+00	0	56	0	61865984	52	4843
2026-01-15 21:32:12.21	206.21	11.68	-40.0	-43.0	18.5	0.00e+00	0	57	0	62914560	51	5110
2026-01-15 21:32:13.21	205.99	11.77	-40.0	-42.9	18.6	0.00e+00	0	56	0	64487424	51	5058
2026-01-15 21:32:14.22	205.76	11.86	-40.0	-42.9	18.6	0.00e+00	0	56	0	65536000	51	5072
2026-01-15 21:32:15.23	205.54	11.94	-40.2	-43.1	18.4	0.00e+00	0	57	0	66584576	51	5199
2026-01-15 21:32:16.24	205.31	12.03	-40.2	-43.2	18.3	0.00e+00	0	56	0	67633152	51	5231
2026-01-15 21:32:17.25	205.08	12.12	-40.3	-43.3	18.2	0.00e+00	0	56	0	68681728	51	5311
2026-01-15 21:32:18.26	204.85	12.21	-40.3	-43.4	18.1	0.00e+00	0	57	0	69730304	51	5388
2026-01-15 21:32:19.27	204.62	12.30	-40.4	-43.6	17.9	0.00e+00	0	57	0	71303168	51	5492
2026-01-15 21:32:20.28	204.38	12.39	-40.4	-43.5	18.0	0.00e+00	0	57	0	72351744	51	5447
2026-01-15 21:32:21.29	204.14	12.48	-40.4	-43.5	18.0	0.00e+00	0	57	0	73400320	51	5434
2026-01-15 21:32:22.30	203.90	12.57	-40.2	-43.2	18.4	0.00e+00	0	57	0	74448896	51	5222
2026-01-15 21:32:23.31	203.66	12.66	-40.1	-43.0	18.5	0.00e+00	0	57	0	75497472	51	5120
2026-01-15 21:32:24.32	203.42	12.75	-39.9	-42.8	18.8	0.00e+00	0	57	0	76546048	51	4989
2026-01-15 21:32:25.33	203.18	12.83	-39.9	-42.7	18.8	0.00e+00	0	57	0	78118912	51	4962
2026-01-15 21:32:26.34	202.93	12.92	-39.9	-42.8	18.8	0.00e+00	0	57	0	79167488	51	4988
2026-01-15 21:32:27.35	202.68	13.01	-40.0	-42.9	18.7	0.00e+00	0	57	0	80216064	51	5049
2026-01-15 21:32:28.36	202.43	13.10	-40.0	-42.9	18.6	0.00e+00	0	57	0	81264640	51	5076
2026-01-15 21:32:29.37	202.18	13.19	-40.0	-42.9	18.7	0.00e+00	0	57	0	82313216	51	5052
2026-01-15 21:32:30.38	201.92	13.28	-40.2	-43.1	18.5	0.00e+00	0	57	0	83361792	51	5184
2026-01-15 21:32:31.39	201.67	13.37	-40.0	-42.9	18.7	0.00e+00	0	57	0	84934656	51	5071
2026-01-15 21:32:32.40	201.41	13.46	-40.1	-43.0	18.6	0.00e+00	0	57	0	85983232	51	5113
2026-01-15 21:32:33.41	201.15	13.55	-40.0	-42.8	18.8	0.00e+00	0	57	0	87031808	51	5022
2026-01-15 21:32:34.42	200.88	13.64	-39.8	-42.6	19.0	0.00e+00	0	57	0	88080384	51	4910
2026-01-15 21:32:35.43	200.62	13.73	-39.7	-42.4	19.2	0.00e+00	0	57	0	89128960	51	4783
2026-01-15 21:32:36.44	200.35	13.82	-39.5	-42.2	19.4	0.00e+00	0	57	0	90177536	51	4657
2026-01-15 21:32:37.45	200.08	13.91	-39.5	-42.1	19.5	0.00e+00	0	57	0	91750400	51	4640
2026-01-15 21:32:38.45	199.81	14.00	-39.4	-42.0	19.6	0.00e+00	0	57	0	92798976	50	4839
2026-01-15 21:32:39.46	199.54	14.09	-39.4	-42.0	19.6	0.00e+00	0	57	0	93847552	50	4839
2026-01-15 21:32:40.47	199.26	14.18	-39.4	-42.0	19.7	0.00e+00	0	57	0	94896128	50	4841
2026-01-15 21:32:41.48	198.99	14.27	-39.6	-42.2	19.4	0.00e+00	0	57	0	95944704	50	4969
2026-01-15 21:32:42.49	198.71	14.36	-39.8	-42.5	19.2	0.00e+00	0	57	0	96993280	50	5109
2026-01-15 21:32:43.50	198.43	14.45	-39.9	-42.7	19.0	0.00e+00	0	57	0	98566144	50	5266
2026-01-15 21:32:44.51	198.14	14.54	-40.1	-42.9	18.7	0.00e+00	0	57	0	99614720	50	5393
2026-01-15 21:32:45.52	197.86	14.63	-40.0	-42.8	18.8	0.00e+00	0	57	0	100663296	50	5335
2026-01-15 21:32:46.53	197.57	14.72	-39.9	-42.7	19.0	0.00e+00	0	57	0	101711872	50	5232
2026-01-15 21:32:47.54	197.28	14.81	-39.8	-42.5	19.2	0.00e+00	0	57	0	102760448	50	5111
2026-01-15 21:32:48.55	196.98	14.90	-39.6	-42.3	19.3	0.00e+00	0	57	0	103809024	50	5021
2026-01-15 21:32:49.56	196.69	14.98	-39.4	-42.0	19.7	0.00e+00	0	57	0	105381888	50	4833
2026-01-15 21:32:50.57	196.39	15.07	-39.3	-41.8	19.8	0.00e+00	0	57	0	106430464	50	4726
2026-01-15 21:32:51.58	196.09	15.16	-39.3	-41.8	19.9	0.00e+00	0	57	0	107479040	50	4718
2026-01-15 21:32:52.59	195.79	15.25	-39.3	-41.8	19.8	0.00e+00	0	57	0	108527616	50	4746
2026-01-15 21:32:53.60	195.48	15.34	-39.2	-41.6	20.0	0.00e+00	0	57	0	109576192	50	4642
2026-01-15 21:32:54.61	195.18	15.43	-39.2	-41.7	20.0	0.00e+00	0	57	0	110624768	50	4678
2026-01-15 21:32:55.62	194.87	15.51	-39.4	-41.9	19.8	0.00e+00	0	57	0	112197632	50	4807
2026-01-15 21:32:56.63	194.56	15.60	-39.6	-42.2	19.5	0.00e+00	0	57	0	113246208	50	4938
2026-01-15 21:32:57.64	194.24	15.69	-39.6	-42.2	19.5	0.00e+00	0	58	0	114294784	50	4976
2026-01-15 21:32:58.65	193.93	15.78	-39.8	-42.5	19.2	0.00e+00	0	57	0	115343360	50	5120
2026-01-15 21:32:59.66	193.61	15.86	-39.9	-42.7	19.0	0.00e+00	0	57	0	116391936	50	5222
2026-01-15 21:33:00.67	193.29	15.95	-39.7	-42.4	19.3	0.00e+00	0	57	0	117440512	50	5074
2026-01-15 21:33:01.68	192.97	16.03	-39.7	-42.4	19.3	0.00e+00	0	58	0	119013376	50	5083
2026-01-15 21:33:02.69	192.64	16.12	-39.4	-42.0	19.7	0.00e+00	0	57	0	120061952	50	4834
2026-01-15 21:33:03.69	192.32	16.21	-39.2	-41.7	20.0	0.00e+00	0	58	0	121110528	50	4672
2026-01-15 21:33:04.70	191.99	16.29	-39.0	-41.4	20.3	0.00e+00	0	58	0	122159104	50	4497
2026-01-15 21:33:05.71	191.66	16.38	-38.8	-41.1	20.6	0.00e+00	0	57	0	123207680	49	4610
2026-01-15 21:33:06.72	191.32	16.46	-38.7	-41.0	20.7	0.00e+00	0	58	0	124256256	49	4547
2026-01-15 21:33:07.73	190.99	16.54	-38.7	-41.0	20.6	0.00e+00	0	58	0	125829120	49	4584
2026-01-15 21:33:08.74	190.65	16.63	-38.7	-41.0	20.7	0.00e+00	0	58	0	126877696	49	4580
2026-01-15 21:33:09.75	190.31	16.71	-38.7	-41.0	20.7	0.00e+00	0	57	0	127926272	49	4559
2026-01-15 21:33:10.77	189.96	16.79	-38.8	-41.1	20.5	0.00e+00	0	58	0	128974848	49	4651
2026-01-15 21:33:11.78	189.61	16.88	-38.9	-41.3	20.4	0.00e+00	0	57	0	130023424	49	4710
2026-01-15 21:33:12.78	189.27	16.96	-38.9	-41.3	20.4	0.00e+00	0	57	0	131072000	49	4723
2026-01-15 21:33:13.79	188.92	17.04	-39.0	-41.3	20.4	0.00e+00	0	57	0	132644864	49	4741
2026-01-15 21:33:14.80	188.56	17.12	-39.0	-41.3	20.4	0.00e+00	0	58	0	133693440	49	4750
2026-01-15 21:33:15.81	188.21	17.20	-39.0	-41.4	20.3	0.00e+00	0	57	0	134742016	49	4777
2026-01-15 21:33:16.82	187.85	17.28	-39.2	-41.7	20.0	0.00e+00	0	58	0	135790592	49	4944
2026-01-15 21:33:17.83	187.49	17.36	-39.1	-41.5	20.1	0.00e+00	0	58	0	136839168	49	4865
2026-01-15 21:33:18.84	187.13	17.43	-39.3	-41.7	20.0	0.00e+00	0	58	0	137887744	49	4978
2026-01-15 21:33:19.85	186.76	17.51	-39.1	-41.5	20.3	0.00e+00	0	58	0	139460608	49	4820
2026-01-15 21:33:20.86	186.39	17.59	-39.0	-41.4	20.3	0.00e+00	0	58	0	140509184	49	4795
2026-01-15 21:33:21.86	186.03	17.66	-38.9	-41.2	20.5	0.00e+00	0	58	0	141557760	49	4693
2026-01-15 21:33:22.87	185.66	17.74	-38.8	-41.1	20.5	0.00e+00	0	58	0	142606336	49	4643
2026-01-15 21:33:23.88	185.28	17.81	-38.6	-40.9	20.8	0.00e+00	0	58	0	143654912	49	4504
2026-01-15 21:33:24.89	184.91	17.89	-38.5	-40.7	21.0	0.00e+00	0	58	0	144703488	49	4410
2026-01-15 21:33:25.90	184.53	17.96	-38.5	-40.7	21.0	0.00e+00	0	58	0	146276352	49	4441
2026-01-15 21:33:26.91	184.15	18.03	-38.5	-40.8	21.0	0.00e+00	0	58	0	147324928	49	4442
2026-01-15 21:33:27.92	183.76	18.11	-38.5	-40.7	21.0	0.00e+00	0	58	0	148373504	48	4684
2026-01-15 21:33:28.93	183.38	18.18	-38.7	-41.0	20.7	0.00e+00	0	58	0	149422080	48	4818
2026-01-15 21:33:29.94	182.99	18.25	-38.6	-40.9	20.8	0.00e+00	0	58	0	150470656	48	4775
2026-01-15 21:33:30.95	182.60	18.32	-38.6	-40.8	20.9	0.00e+00	0	58	0	151519232	48	4758
2026-01-15 21:33:31.96	182.21	18.39	-38.8	-41.1	20.6	0.00e+00	0	58	0	153092096	48	4901
2026-01-15 21:33:32.97	181.82	18.45	-38.7	-41.0	20.7	0.00e+00	0	58	0	154140672	48	4844
2026-01-15 21:33:33.98	181.42	18.52	-38.9	-41.3	20.5	0.00e+00	0	58	0	155189248	48	4986
2026-01-15 21:33:34.99	181.02	18.58	-38.8	-41.1	20.6	0.00e+00	0	58	0	156237824	48	4890
2026-01-15 21:33:36.00	180.62	18.65	-39.0	-41.4	20.3	0.00e+00	0	58	0	157286400	48	5042
2026-01-15 21:33:37.01	180.22	18.71	-39.0	-41.3	20.3	0.00e+00	0	58	0	158334976	48	5027
2026-01-15 21:33:38.02	179.81	18.78	-39.0	-41.3	20.4	0.00e+00	0	58	0	159907840	48	5022
2026-01-15 21:33:39.03	179.41	18.84	-38.8	-41.1	20.5	0.00e+00	0	58	0	160956416	48	4920
2026-01-15 21:33:40.03	179.00	18.90	-38.7	-41.0	20.8	0.00e+00	0	58	0	162004992	48	4840
2026-01-15 21:33:41.04	178.59	18.96	-38.6	-40.8	20.9	0.00e+00	0	58	0	163053568	48	4756
2026-01-15 21:33:42.05	178.18	19.02	-38.5	-40.8	21.0	0.00e+00	0	58	0	164102144	48	4712
2026-01-15 21:33:43.06	177.77	19.07	-38.4	-40.6	21.1	0.00e+00	0	58	0	165150720	48	4627
2026-01-15 21:33:44.07	177.35	19.13	-38.5	-40.8	21.0	0.00e+00	0	58	0	166723584	48	4707
2026-01-15 21:33:45.08	176.93	19.18	-38.5	-40.6	21.1	0.00e+00	0	58	0	167772160	48	4651
2026-01-15 21:33:46.09	176.51	19.24	-38.5	-40.7	21.1	0.00e+00	0	58	0	168820736	48	4656
2026-01-15 21:33:47.10	176.09	19.29	-38.5	-40.7	21.1	0.00e+00	0	58	0	169869312	48	4669
2026-01-15 21:33:48.11	175.67	19.34	-38.5	-40.7	21.1	0.00e+00	0	58	0	170917888	48	4680
2026-01-15 21:33:49.12	175.24	19.39	-38.8	-41.0	20.8	0.00e+00	0	58	0	171966464	48	4856
2026-01-15 21:33:50.13	174.82	19.44	-38.8	-41.1	20.7	0.00e+00	0	58	0	173015040	48	4889
2026-01-15 21:33:51.14	174.39	19.49	-38.9	-41.2	20.8	0.00e+00	0	58	0	174587904	48	4936
2026-01-15 21:33:52.15	173.96	19.54	-38.7	-41.0	20.9	0.00e+00	0	58	0	175636480	48	4828
2026-01-15 21:33:53.16	173.53	19.58	-38.5	-40.6	21.2	0.00e+00	0	58	0	176685056	48	4646
2026-01-15 21:33:54.17	173.09	19.62	-38.3	-40.5	21.4	0.00e+00	0	58	0	177733632	48	4546
2026-01-15 21:33:55.18	172.66	19.67	-38.3	-40.3	21.5	0.00e+00	0	58	0	178782208	48	4492
2026-01-15 21:33:56.18	172.23	19.71	-38.3	-40.4	21.5	0.00e+00	0	58	0	179830784	48	4498
2026-01-15 21:33:57.19	171.79	19.75	-38.3	-40.4	21.4	0.00e+00	0	58	0	181403648	48	4539
2026-01-15 21:33:58.20	171.35	19.79	-38.4	-40.6	21.3	0.00e+00	0	58	0	182452224	48	4623
2026-01-15 21:33:59.21	170.91	19.82	-38.6	-40.8	21.1	0.00e+00	0	58	0	183500800	48	4709
2026-01-15 21:34:00.22	170.47	19.86	-38.6	-40.8	21.0	0.00e+00	0	58	0	184549376	48	4750
2026-01-15 21:34:01.23	170.03	19.89	-38.7	-41.0	20.9	0.00e+00	0	58	0	185597952	48	4823
2026-01-15 21:34:02.24	169.58	19.92	-38.6	-40.8	21.1	0.00e+00	0	58	0	186646528	48	4709
2026-01-15 21:34:03.25	169.14	19.96	-38.5	-40.7	21.2	0.00e+00	0	58	0	188219392	48	4682
2026-01-15 21:34:04.26	168.69	19.99	-38.6	-40.8	21.1	0.00e+00	0	58	0	189267968	48	4740
2026-01-15 21:34:05.27	168.25	20.01	-38.7	-40.9	21.1	0.00e+00	0	58	0	190316544	48	4772
2026-01-15 21:34:06.28	167.80	20.04	-38.8	-41.0	21.0	0.00e+00	0	58	0	191365120	48	4835
2026-01-15 21:34:07.29	167.35	20.07	-38.9	-41.1	20.8	0.00e+00	0	58	0	192413696	48	4926
2026-01-15 21:34:08.30	166.90	20.09	-38.9	-41.2	20.8	0.00e+00	0	58	0	193986560	48	4962
2026-01-15 21:34:09.31	166.45	20.11	-38.9	-41.1	20.8	0.00e+00	0	58	0	195035136	48	4911
2026-01-15 21:34:10.32	166.00	20.13	-38.8	-41.0	20.9	0.00e+00	0	58	0	196083712	48	4857
2026-01-15 21:34:11.33	165.55	20.15	-38.8	-41.1	20.9	0.00e+00	0	58	0	197132288	48	4892
2026-01-15 21:34:12.34	165.10	20.17	-38.6	-40.8	21.1	0.00e+00	0	58	0	198180864	48	4756
2026-01-15 21:34:13.35	164.64	20.18	-38.6	-40.8	21.2	0.00e+00	0	58	0	199229440	48	4728
2026-01-15 21:34:14.36	164.19	20.20	-38.5	-40.7	21.3	0.00e+00	0	58	0	200802304	48	4661
2026-01-15 21:34:15.37	163.74	20.21	-38.5	-40.6	21.3	0.00e+00	0	58	0	201850880	48	4621
2026-01-15 21:34:16.38	163.28	20.22	-38.6	-40.7	21.3	0.00e+00	0	58	0	202899456	48	4685
2026-01-15 21:34:17.39	162.83	20.23	-38.5	-40.6	21.4	0.00e+00	0	58	0	203948032	48	4623
2026-01-15 21:34:18.40	162.37	20.24	-38.5	-40.7	21.2	0.00e+00	0	58	0	204996608	48	4674
2026-01-15 21:34:19.41	161.92	20.25	-38.4	-40.5	21.4	0.00e+00	0	58	0	206045184	48	4591
2026-01-15 21:34:20.42	161.46	20.25	-38.4	-40.5	21.4	0.00e+00	0	58	0	207618048	48	4576
2026-01-15 21:34:21.43	161.01	20.25	-38.4	-40.5	21.4	0.00e+00	0	58	0	208666624	48	4565
2026-01-15 21:34:22.43	160.56	20.25	-38.4	-40.5	21.4	0.00e+00	0	58	0	209715200	48	4585
2026-01-15 21:34:23.44	160.10	20.25	-38.3	-40.5	21.4	0.00e+00	0	58	0	210763776	47	4844
2026-01-15 21:34:24.45	159.65	20.25	-38.2	-40.3	21.6	0.00e+00	0	58	0	211812352	47	4755
2026-01-15 21:34:25.46	159.19	20.25	-38.2	-40.3	21.7	0.00e+00	0	58	0	212860928	47	4712
2026-01-15 21:34:26.47	158.74	20.24	-38.1	-40.2	21.7	0.00e+00	0	58	0	213909504	47	4694
2026-01-15 21:34:27.48	158.28	20.24	-38.1	-40.2	21.7	0.00e+00	0	58	0	215482368	47	4677
2026-01-15 21:34:28.49	157.83	20.23	-38.1	-40.2	21.7	0.00e+00	0	58	0	216530944	47	4653
2026-01-15 21:34:29.50	157.37	20.22	-38.1	-40.2	21.7	0.00e+00	0	59	0	217579520	47	4664
2026-01-15 21:34:30.51	156.92	20.21	-38.2	-40.3	21.6	0.00e+00	0	58	0	218628096	47	4710
2026-01-15 21:34:31.52	156.46	20.20	-38.2	-40.3	21.6	0.00e+00	0	58	0	219676672	47	4752
2026-01-15 21:34:32.53	156.01	20.18	-38.2	-40.4	21.6	0.00e+00	0	58	0	220725248	47	4766
2026-01-15 21:34:33.54	155.56	20.16	-38.3	-40.4	21.5	0.00e+00	0	58	0	222298112	47	4806
2026-01-15 21:34:34.55	155.11	20.15	-38.5	-40.6	21.3	0.00e+00	0	58	0	223346688	47	4923
2026-01-15 21:34:35.55	154.66	20.13	-38.6	-40.8	21.2	0.00e+00	0	58	0	224395264	47	5021
2026-01-15 21:34:36.56	154.21	20.11	-38.8	-41.0	20.9	0.00e+00	0	58	0	225443840	48	4864
2026-01-15 21:34:37.58	153.76	20.08	-38.7	-40.9	21.1	0.00e+00	0	59	0	226492416	48	4780
2026-01-15 21:34:38.58	153.31	20.06	-38.6	-40.8	21.1	0.00e+00	0	58	0	227540992	48	4750
2026-01-15 21:34:39.59	152.86	20.04	-38.5	-40.7	21.2	0.00e+00	0	59	0	229113856	48	4675
2026-01-15 21:34:40.60	152.42	20.01	-38.4	-40.6	21.3	0.00e+00	0	58	0	230162432	48	4617
2026-01-15 21:34:41.61	151.97	19.98	-38.4	-40.6	21.4	0.00e+00	0	58	0	231211008	48	4603
2026-01-15 21:34:42.62	151.53	19.95	-38.5	-40.7	21.2	0.00e+00	0	58	0	232259584	48	4692
2026-01-15 21:34:43.63	151.08	19.92	-38.7	-41.0	21.0	0.00e+00	0	58	0	233308160	48	4815
2026-01-15 21:34:44.64	150.64	19.89	-38.8	-41.2	20.8	0.00e+00	0	59	0	234356736	48	4933
2026-01-15 21:34:45.65	150.20	19.85	-39.1	-41.5	20.4	0.00e+00	0	58	0	235929600	48	5143
2026-01-15 21:34:46.66	149.76	19.82	-39.2	-41.7	20.2	0.00e+00	0	59	0	236978176	49	4949
2026-01-15 21:34:47.67	149.32	19.78	-39.1	-41.5	20.4	0.00e+00	0	58	0	238026752	49	4847
2026-01-15 21:34:48.68	148.88	19.74	-38.9	-41.2	20.7	0.00e+00	0	58	0	239075328	49	4674
2026-01-15 21:34:49.69	148.44	19.70	-38.8	-41.0	20.9	0.00e+00	0	58	0	240123904	49	4581
2026-01-15 21:34:50.70	148.01	19.66	-38.4	-40.5	21.4	0.00e+00	0	58	0	241696768	48	4586
2026-01-15 21:34:51.71	147.58	19.62	-38.4	-40.5	21.4	0.00e+00	0	58	0	242745344	48	4589
2026-01-15 21:34:52.72	147.14	19.57	-38.5	-40.7	21.2	0.00e+00	0	59	0	243793920	48	4682
2026-01-15 21:34:53.73	146.71	19.53	-38.6	-40.8	21.1	0.00e+00	0	59	0	244842496	48	4722
2026-01-15 21:34:54.74	146.28	19.48	-38.6	-40.8	21.1	0.00e+00	0	59	0	245891072	48	4730
2026-01-15 21:34:55.75	145.86	19.43	-38.5	-40.7	21.2	0.00e+00	0	59	0	246939648	48	4662
2026-01-15 21:34:56.76	145.43	19.38	-38.3	-40.4	21.4	0.00e+00	0	58	0	248512512	48	4529
2026-01-15 21:34:57.77	145.01	19.33	-38.5	-40.7	21.2	0.00e+00	0	58	0	249561088	48	4654
2026-01-15 21:34:58.78	144.59	19.28	-38.5	-40.7	21.2	0.00e+00	0	59	0	250609664	48	4677
2026-01-15 21:34:59.79	144.17	19.23	-38.6	-40.9	21.0	0.00e+00	0	59	0	251658240	48	4763
2026-01-15 21:35:00.80	143.75	19.18	-38.5	-40.6	21.2	0.00e+00	0	59	0	252706816	48	4650
2026-01-15 21:35:01.81	143.33	19.12	-38.3	-40.5	21.3	0.00e+00	0	59	0	253755392	48	4574
2026-01-15 21:35:02.82	142.92	19.06	-38.4	-40.6	21.2	0.00e+00	0	59	0	254803968	48	4616
2026-01-15 21:35:03.83	142.50	19.01	-38.5	-40.7	21.1	0.00e+00	0	59	0	256376832	48	4681
2026-01-15 21:35:04.84	142.09	18.95	-38.6	-40.8	21.0	0.00e+00	0	59	0	257425408	48	4747
2026-01-15 21:35:05.85	141.68	18.89	-38.6	-40.8	21.1	0.00e+00	0	58	0	258473984	48	4720
2026-01-15 21:35:06.86	141.28	18.83	-38.5	-40.7	21.1	0.00e+00	0	59	0	259522560	48	4656
2026-01-15 21:35:07.87	140.87	18.77	-38.5	-40.8	21.0	0.00e+00	0	59	0	260571136	47	5001
2026-01-15 21:35:08.88	140.47	18.70	-38.6	-41.0	20.8	0.00e+00	0	59	0	261619712	47	5116
2026-01-15 21:35:09.88	140.07	18.64	-38.7	-41.1	20.6	0.00e+00	0	58	0	263192576	48	4915
2026-01-15 21:35:10.89	139.67	18.58	-38.9	-41.3	20.5	0.00e+00	0	59	0	264241152	48	5001
2026-01-15 21:35:11.90	139.27	18.51	-39.0	-41.4	20.3	0.00e+00	0	59	0	265289728	48	5073
2026-01-15 21:35:12.91	138.88	18.44	-38.7	-41.1	20.6	1.10e-06	0	59	0	266338304	48	4919
2026-01-15 21:35:13.92	138.49	18.38	-38.7	-41.1	20.7	1.10e-06	0	58	0	267386880	48	4878
2026-01-15 21:35:14.93	138.10	18.31	-38.8	-41.2	20.6	0.00e+00	0	59	0	268435456	48	4957
2026-01-15 21:35:15.94	137.71	18.24	-38.9	-41.2	20.6	0.00e+00	0	59	0	270008320	48	4961
2026-01-15 21:35:16.95	137.32	18.17	-38.9	-41.3	20.5	0.00e+00	0	59	0	271056896	48	5013
2026-01-15 21:35:17.96	136.94	18.10	-38.9	-41.2	20.5	0.00e+00	0	59	0	272105472	48	4979
2026-01-15 21:35:18.97	136.56	18.03	-38.7	-41.0	20.8	0.00e+00	0	58	0	273154048	48	4823
2026-01-15 21:35:19.98	136.18	17.95	-38.6	-40.9	20.8	0.00e+00	0	59	0	274202624	48	4766
2026-01-15 21:35:20.99	135.80	17.88	-38.2	-40.7	20.9	0.00e+00	0	59	0	275251200	47	4961
2026-01-15 21:35:22.00	135.43	17.81	-36.9	-40.6	17.7	3.40e-06	0	59	0	276824064	44	5820
2026-01-15 21:35:23.00	135.06	17.73	-38.5	-40.7	20.3	8.58e-05	0	59	0	277872640	47	4967
2026-01-15 21:35:24.01	134.69	17.66	-36.7	-41.1	18.9	8.58e-05	0	59	0	278921216	47	5214
2026-01-15 21:35:25.02	134.32	17.58	-38.9	-41.2	20.3	1.35e-04	0	59	0	279969792	48	4978
2026-01-15 21:35:26.03	133.95	17.50	-39.1	-41.5	20.0	8.06e-04	0	58	0	281018368	48	5120
2026-01-15 21:35:27.04	133.59	17.43	-39.1	-41.5	19.3	8.06e-04	0	59	0	282591232	47	5428
2026-01-15 21:35:28.05	133.23	17.35	-39.1	-41.5	20.1	3.18e-04	0	59	0	283639808	48	5150
2026-01-15 21:35:29.06	132.87	17.27	-38.8	-41.2	20.4	1.75e-04	0	59	0	284688384	48	4962
2026-01-15 21:35:30.07	132.51	17.19	-38.8	-41.3	18.7	1.75e-04	0	58	0	285736960	48	5003
2026-01-15 21:35:31.08	132.16	17.11	-38.8	-41.4	19.8	4.11e-05	0	59	0	286785536	48	5089
2026-01-15 21:35:32.09	131.81	17.03	-39.0	-41.4	20.3	9.10e-06	0	58	0	287834112	48	5066
2026-01-15 21:35:33.10	131.46	16.95	-39.1	-41.6	20.0	5.83e-05	0	59	0	289406976	48	5200
2026-01-15 21:35:34.11	131.11	16.87	-39.0	-41.8	18.3	5.83e-05	0	59	0	290455552	48	5283
2026-01-15 21:35:35.12	130.77	16.79	-39.1	-41.6	20.1	5.37e-05	0	59	0	291504128	48	5182
2026-01-15 21:35:36.13	130.43	16.70	-38.8	-41.7	20.0	0.00e+00	0	59	0	292552704	48	5247
2026-01-15 21:35:37.14	130.09	16.62	-39.1	-41.7	19.9	0.00e+00	0	59	0	293601280	48	5239
2026-01-15 21:35:38.16	129.74	16.54	-39.2	-41.7	20.0	0.00e+00	0	59	0	294649856	48	5243
2026-01-15 21:35:39.16	129.41	16.45	-39.1	-41.7	19.9	1.10e-06	0	59	0	295698432	48	5235
2026-01-15 21:35:40.17	129.08	16.37	-39.0	-41.7	19.9	1.10e-06	0	59	0	297271296	48	5223
2026-01-15 21:35:41.18	128.75	16.29	-37.1	-41.5	19.4	0.00e+00	0	59	0	298319872	45	6063
2026-01-15 21:35:42.19	128.42	16.20	-37.1	-41.4	18.7	2.23e-04	0	59	0	299368448	47	5350
2026-01-15 21:35:43.20	128.10	16.12	-39.2	-41.7	19.3	2.23e-04	0	59	0	300417024	48	5266
2026-01-15 21:35:44.21	127.77	16.03	-38.6	-42.0	18.3	5.83e-05	0	59	0	301465600	47	5758
2026-01-15 21:35:45.22	127.45	15.95	-39.1	-41.9	18.7	3.89e-04	0	59	0	302514176	48	5363
2026-01-15 21:35:46.23	127.13	15.86	-39.3	-42.3	19.2	3.89e-04	0	59	0	304087040	49	5292
2026-01-15 21:35:47.23	126.82	15.77	-37.6	-42.2	18.4	8.81e-05	0	59	0	305135616	46	6205
2026-01-15 21:35:48.24	126.51	15.69	-36.3	-42.3	17.8	6.17e-05	0	59	0	306184192	46	6344
2026-01-15 21:35:49.25	126.19	15.60	-39.0	-41.9	18.2	4.99e-03	0	59	0	307232768	47	5683
2026-01-15 21:35:50.26	125.88	15.51	-39.1	-42.2	14.0	4.99e-03	0	59	0	308281344	40	8773
2026-01-15 21:35:51.27	125.58	15.43	-35.4	-42.1	12.6	5.35e-03	0	59	0	309329920	44	6953
2026-01-15 21:35:52.28	125.27	15.34	-32.2	-41.6	10.4	3.90e-02	0	59	0	310902784	38	9262
2026-01-15 21:35:53.29	124.97	15.25	-37.4	-41.6	13.7	3.90e-02	0	59	0	311951360	45	6164
2026-01-15 21:35:54.30	124.67	15.16	-39.3	-42.1	18.7	8.36e-02	0	59	0	312999936	49	5211
2026-01-15 21:35:55.31	124.37	15.07	-39.4	-42.1	19.0	2.61e-03	0	59	0	314048512	49	5214
2026-01-15 21:35:56.32	124.08	14.99	-39.1	-42.2	18.5	2.61e-03	0	59	0	315097088	48	5575
2026-01-15 21:35:57.34	123.78	14.90	-37.7	-42.4	17.4	9.13e-03	0	59	0	316145664	46	6361
2026-01-15 21:35:58.35	123.49	14.81	-36.9	-42.5	8.3	7.86e-03	0	59	0	317718528	41	8635
2026-01-15 21:35:59.36	123.20	14.72	-31.3	-41.3	13.0	1.37e-02	0	59	0	318767104	42	7084
2026-01-15 21:36:00.36	122.91	14.63	-33.7	-42.3	16.9	1.37e-02	0	59	0	319815680	48	5640
2026-01-15 21:36:01.37	122.63	14.54	-33.1	-42.0	14.4	1.92e-02	0	59	0	320864256	44	6878
2026-01-15 21:36:02.38	122.35	14.45	-35.6	-42.2	15.8	1.12e-02	0	59	0	321912832	46	6272
2026-01-15 21:36:03.39	122.07	14.36	-37.1	-41.6	8.8	1.12e-02	0	59	0	322961408	35	10988
2026-01-15 21:36:04.40	121.79	14.27	-38.3	-42.6	10.2	2.59e-02	0	59	0	324534272	43	7793
2026-01-15 21:36:05.41	121.51	14.19	-39.0	-42.9	9.9	7.40e-03	0	59	0	325582848	41	8989
2026-01-15 21:36:06.42	121.24	14.10	-39.3	-43.0	12.9	7.40e-03	0	59	0	326631424	45	7228
2026-01-15 21:36:07.43	120.97	14.01	-39.5	-43.0	15.2	8.31e-03	0	59	0	327680000	49	5747
2026-01-15 21:36:08.44	120.70	13.92	-37.9	-43.0	17.5	3.76e-03	0	59	0	328728576	49	5785
2026-01-15 21:36:09.45	120.43	13.83	-36.2	-43.1	15.1	3.76e-03	0	59	0	329777152	45	7321
2026-01-15 21:36:10.46	120.16	13.74	-38.6	-42.6	17.0	3.29e-02	0	59	0	330825728	48	5855
2026-01-15 21:36:11.47	119.90	13.65	-36.2	-42.5	14.1	1.37e-02	0	59	0	332398592	44	7217
2026-01-15 21:36:12.48	119.64	13.56	-32.8	-43.0	14.0	2.69e-02	0	59	0	333447168	46	6832
2026-01-15 21:36:13.49	119.38	13.47	-38.0	-43.0	14.9	2.69e-02	0	59	0	334495744	46	6861
2026-01-15 21:36:14.50	119.12	13.38	-39.3	-43.1	16.3	1.70e-02	0	59	0	335544320	47	6547
2026-01-15 21:36:15.51	118.87	13.29	-35.3	-43.1	11.2	1.20e-02	0	59	0	336592896	42	8740
2026-01-15 21:36:16.52	118.61	13.20	-37.5	-43.3	14.4	1.20e-02	0	59	0	337641472	45	7502
2026-01-15 21:36:17.53	118.36	13.11	-38.4	-43.2	16.1	3.91e-02	0	59	0	339214336	47	6600
2026-01-15 21:36:18.54	118.11	13.02	-38.6	-43.4	12.7	9.44e-03	0	59	0	340262912	47	6759
2026-01-15 21:36:19.55	117.87	12.93	-38.4	-43.3	15.3	9.44e-03	0	59	0	341311488	47	6716
2026-01-15 21:36:20.56	117.62	12.84	-38.2	-42.9	15.9	9.48e-03	0	59	0	342360064	45	7191
2026-01-15 21:36:21.56	117.38	12.76	-37.6	-43.3	12.0	1.62e-02	0	59	0	343408640	45	7467
2026-01-15 21:36:22.57	117.14	12.67	-33.7	-42.9	15.3	1.62e-02	0	59	0	344457216	44	7589
2026-01-15 21:36:23.58	116.90	12.58	-37.2	-43.2	13.2	5.39e-02	0	59	0	345505792	41	9350
2026-01-15 21:36:24.59	116.66	12.49	-37.4	-43.6	13.6	2.18e-02	0	59	0	347078656	44	8202
2026-01-15 21:36:25.60	116.43	12.40	-33.3	-43.1	7.4	5.45e-02	0	59	0	348127232	35	13003
2026-01-15 21:36:26.61	116.19	12.31	-34.6	-43.1	9.0	5.45e-02	0	59	0	349175808	40	9812
2026-01-15 21:36:27.62	115.96	12.22	-34.2	-43.3	8.5	2.08e-01	0	59	0	350224384	38	11192
2026-01-15 21:36:28.63	115.73	12.14	-32.0	-41.8	8.1	1.74e-01	0	59	0	351272960	31	14206
2026-01-15 21:36:29.64	115.50	12.05	-37.0	-43.7	12.1	1.74e-01	0	59	0	352321536	40	10434
2026-01-15 21:36:30.65	115.27	11.96	-34.9	-43.7	11.3	9.75e-02	0	59	0	353370112	42	9290
2026-01-15 21:36:31.66	115.05	11.87	-32.0	-42.5	11.0	7.19e-02	0	59	0	354418688	38	10287
2026-01-15 21:36:32.67	114.83	11.78	-36.3	-43.7	11.6	7.19e-02	0	59	0	355467264	43	8815
2026-01-15 21:36:33.68	114.61	11.70	-35.8	-43.3	11.4	9.17e-02	0	59	0	356515840	41	9419
2026-01-15 21:36:34.69	114.39	11.61	-35.8	-43.3	11.8	7.50e-02	0	59	0	357564416	41	9391
2026-01-15 21:36:35.70	114.17	11.52	-34.0	-43.5	10.3	7.50e-02	0	59	0	359137280	40	10263
2026-01-15 21:36:36.71	113.95	11.43	-35.6	-43.0	11.4	7.38e-02	0	59	0	360185856	40	9677
2026-01-15 21:36:37.72	113.74	11.35	-35.5	-43.0	11.9	5.83e-02	0	59	0	361234432	42	8597
2026-01-15 21:36:38.73	113.53	11.26	-32.3	-43.0	11.8	5.25e-02	0	59	0	362283008	40	9704
2026-01-15 21:36:39.73	113.32	11.17	-35.6	-43.1	10.2	5.25e-02	0	59	0	363331584	40	9827
2026-01-15 21:36:40.75	113.11	11.09	-36.6	-43.3	12.1	9.02e-02	0	59	0	364380160	42	8902
2026-01-15 21:36:41.76	112.90	11.00	-32.1	-43.4	11.8	6.81e-02	0	59	0	365953024	41	9498
2026-01-15 21:36:42.77	112.69	10.91	-37.9	-43.9	11.3	6.81e-02	0	59	0	367001600	42	9581
2026-01-15 21:36:43.78	112.49	10.83	-34.6	-43.5	11.2	1.16e-01	0	59	0	368050176	41	9635
2026-01-15 21:36:44.79	112.29	10.74	-36.1	-44.4	11.7	6.13e-02	0	59	0	369098752	43	9602
2026-01-15 21:36:45.79	112.09	10.66	-36.9	-44.1	12.2	6.13e-02	0	59	0	370147328	43	9202
2026-01-15 21:36:46.80	111.89	10.57	-37.8	-43.5	13.6	5.61e-02	0	59	0	371195904	46	7226
2026-01-15 21:36:47.81	111.69	10.48	-37.0	-43.8	13.8	5.44e-02	0	59	0	372244480	45	7963
2026-01-15 21:36:48.82	111.49	10.40	-37.3	-45.2	11.9	5.44e-02	0	59	0	373817344	43	10413
2026-01-15 21:36:49.83	111.30	10.31	-36.7	-45.8	10.8	3.12e-02	0	59	0	374865920	44	10636
2026-01-15 21:36:50.84	111.10	10.23	-38.3	-45.5	11.7	5.54e-02	0	59	0	375914496	46	9092
2026-01-15 21:36:51.85	110.91	10.14	-38.5	-44.9	13.1	3.24e-02	0	59	0	376963072	46	8532
2026-01-15 21:36:52.86	110.72	10.06	-38.0	-44.3	13.9	3.24e-02	0	59	0	378011648	46	7907
2026-01-15 21:36:53.87	110.53	9.98	-38.1	-44.2	14.4	1.11e-02	0	59	0	379060224	46	7883
2026-01-15 21:36:54.88	110.35	9.89	-36.4	-44.2	14.4	7.46e-03	0	59	0	380108800	47	7411
2026-01-15 21:36:55.89	110.16	9.81	-36.1	-44.1	14.4	7.46e-03	0	59	0	381681664	46	7766
2026-01-15 21:36:56.90	109.98	9.72	-39.1	-44.6	14.7	5.94e-03	0	59	0	382730240	48	7355
2026-01-15 21:36:57.91	109.79	9.64	-38.0	-44.8	14.8	3.59e-03	0	59	0	383778816	48	7466
2026-01-15 21:36:58.92	109.61	9.56	-39.2	-44.6	14.6	3.59e-03	0	59	0	384827392	49	6954
2026-01-15 21:36:59.93	109.43	9.47	-39.2	-44.3	14.8	4.59e-03	0	59	0	385875968	49	6712
2026-01-15 21:37:00.94	109.25	9.39	-39.6	-44.2	15.1	3.02e-03	0	59	0	386924544	49	6640
2026-01-15 21:37:01.95	109.07	9.31	-39.7	-44.2	14.4	2.46e-03	0	59	0	388497408	49	6627
2026-01-15 21:37:02.96	108.90	9.23	-39.5	-44.4	14.9	2.46e-03	0	59	0	389545984	50	6354
2026-01-15 21:37:03.97	108.72	9.14	-39.7	-44.6	14.7	1.86e-03	0	59	0	390594560	50	6545
2026-01-15 21:37:04.98	108.55	9.06	-39.4	-44.7	14.3	3.93e-03	0	59	0	391643136	49	7002
2026-01-15 21:37:05.99	108.38	8.98	-39.8	-45.1	14.1	3.93e-03	0	59	0	392691712	50	6888
2026-01-15 21:37:07.00	108.21	8.90	-39.8	-44.7	14.6	2.36e-03	0	59	0	394264576	50	6582
2026-01-15 21:37:08.01	108.04	8.82	-39.5	-44.8	14.1	3.01e-03	0	59	0	395313152	47	7924
2026-01-15 21:37:09.02	107.87	8.74	-39.2	-44.3	12.2	3.01e-03	0	59	0	396361728	48	7115
2026-01-15 21:37:10.03	107.70	8.65	-39.7	-44.7	14.3	3.57e-03	0	59	0	397410304	49	6972
2026-01-15 21:37:11.04	107.54	8.57	-39.7	-45.3	13.8	3.18e-03	0	59	0	398458880	50	7086
2026-01-15 21:37:12.05	107.37	8.49	-40.4	-45.8	13.1	3.18e-03	0	59	0	399507456	50	7543
2026-01-15 21:37:13.05	107.21	8.41	-39.7	-45.8	13.3	4.26e-03	0	59	0	401080320	49	7929
2026-01-15 21:37:14.06	107.05	8.33	-37.9	-45.1	12.7	5.22e-03	0	59	0	402128896	49	7359
2026-01-15 21:37:15.07	106.89	8.25	-39.7	-45.4	11.9	7.07e-03	0	59	0	403177472	48	8021
2026-01-15 21:37:16.08	106.73	8.17	-38.6	-45.2	12.7	7.07e-03	0	59	0	404226048	49	7434
2026-01-15 21:37:17.09	106.57	8.09	-39.0	-45.1	12.5	7.08e-03	0	59	0	405274624	49	7306
2026-01-15 21:37:18.10	106.42	8.02	-39.7	-46.5	10.1	2.74e-02	0	59	0	406323200	46	10279
2026-01-15 21:37:19.11	106.26	7.94	-37.5	-54.0	3.7	2.74e-02	0	59	104	406847488	43	28990
2026-01-15 21:37:20.12	106.11	7.86	-44.6	-62.7	3.8	5.32e-01	0	59	104	406847488	59	31214
2026-01-15 21:37:21.13	105.95	7.78	-44.8	-62.9	3.8	8.44e-01	0	59	104	406847488	60	30355
2026-01-15 21:37:22.14	105.80	7.70	-45.1	-63.2	3.8	8.44e-01	0	59	104	406847488	60	31436
2026-01-15 21:37:23.15	105.65	7.62	-45.3	-63.4	3.8	8.47e-01	0	59	104	406847488	61	30351
2026-01-15 21:37:24.16	105.50	7.54	-45.5	-63.6	3.8	8.46e-01	0	59	104	406847488	61	31011
2026-01-15 21:37:25.17	105.35	7.47	-45.6	-63.7	3.8	8.46e-01	0	59	104	406847488	61	31418
2026-01-15 21:37:26.18	105.20	7.39	-45.8	-64.3	3.8	8.46e-01	0	59	104	406847488	62	31576
2026-01-15 21:37:27.19	105.06	7.31	-45.8	-63.9	3.8	8.46e-01	0	59	104	406847488	62	30367
2026-01-15 21:37:28.20	104.91	7.24	-45.8	-64.0	3.8	8.46e-01	0	59	104	406847488	62	30537
2026-01-15 21:37:29.21	104.77	7.16	-45.7	-63.9	3.8	8.46e-01	0	60	104	406847488	62	30225
2026-01-15 21:37:30.23	104.62	7.08	-45.7	-63.8	3.8	8.46e-01	0	60	104	406847488	62	29804
2026-01-15 21:37:31.24	104.48	7.00	-45.6	-63.7	3.8	8.44e-01	0	59	104	406847488	62	29564
2026-01-15 21:37:32.25	104.34	6.93	-45.6	-63.7	3.8	8.44e-01	0	59	104	406847488	62	29412
2026-01-15 21:37:33.26	104.20	6.85	-45.5	-63.6	3.8	8.47e-01	0	60	104	406847488	62	29057
2026-01-15 21:37:34.27	104.06	6.78	-45.5	-63.6	3.8	8.46e-01	0	59	104	406847488	62	29190
2026-01-15 21:37:35.28	103.92	6.70	-45.4	-63.5	3.8	8.46e-01	0	59	104	406847488	62	28827
2026-01-15 21:37:36.29	103.78	6.63	-45.4	-63.5	3.8	8.46e-01	0	59	104	406847488	62	28911
2026-01-15 21:37:37.30	103.65	6.55	-45.4	-63.5	3.8	8.47e-01	0	59	104	406847488	62	28804
2026-01-15 21:37:38.31	103.51	6.48	-45.4	-63.5	3.8	8.47e-01	0	59	104	406847488	62	28788
2026-01-15 21:37:39.32	103.38	6.40	-45.4	-63.5	3.8	8.45e-01	0	59	104	406847488	62	28775
2026-01-15 21:37:40.34	103.24	6.33	-45.4	-63.5	3.8	8.46e-01	0	59	104	406847488	62	28795
2026-01-15 21:37:41.35	103.11	6.25	-45.4	-63.5	3.8	8.46e-01	0	60	104	406847488	62	28721
2026-01-15 21:37:42.36	102.98	6.18	-45.4	-63.5	3.8	8.46e-01	0	59	104	406847488	62	28786
2026-01-15 21:37:43.37	102.85	6.10	-45.4	-63.5	3.8	8.46e-01	0	59	104	406847488	62	28779
2026-01-15 21:37:44.38	102.72	6.03	-45.4	-63.5	3.8	8.47e-01	0	59	104	406847488	62	28707
2026-01-15 21:37:45.39	102.59	5.96	-45.4	-63.5	3.8	8.47e-01	0	60	104	406847488	62	28767
2026-01-15 21:37:46.40	102.47	5.88	-45.4	-63.4	3.8	8.45e-01	0	59	104	406847488	61	30364
2026-01-15 21:37:47.41	102.34	5.81	-45.4	-63.4	3.8	8.46e-01	0	60	104	406847488	61	30273
2026-01-15 21:37:48.42	102.21	5.74	-45.3	-63.4	3.8	8.46e-01	0	59	104	406847488	61	30273
2026-01-15 21:37:49.43	102.09	5.67	-45.4	-63.4	3.8	8.45e-01	0	59	104	406847488	61	30256
2026-01-15 21:37:50.44	101.96	5.59	-45.4	-63.4	3.8	8.46e-01	0	59	104	406847488	61	30296
2026-01-15 21:37:51.46	101.84	5.52	-45.4	-63.4	3.8	8.46e-01	0	60	104	406847488	61	30251
2026-01-15 21:37:52.47	101.72	5.45	-45.3	-63.4	3.8	8.46e-01	0	59	104	406847488	61	30263
2026-01-15 21:37:53.48	101.60	5.38	-45.4	-63.4	3.8	8.46e-01	0	59	104	406847488	61	30248
2026-01-15 21:37:54.49	101.48	5.31	-45.3	-63.4	3.8	8.47e-01	0	59	104	406847488	61	30304
2026-01-15 21:37:55.50	101.36	5.24	-45.4	-63.4	3.8	8.47e-01	0	59	104	406847488	61	30288
2026-01-15 21:37:56.51	101.24	5.16	-45.3	-63.4	3.8	8.46e-01	0	59	104	406847488	61	30236
2026-01-15 21:37:57.52	101.12	5.09	-45.4	-63.4	3.8	8.48e-01	0	59	104	406847488	61	30327
2026-01-15 21:37:58.53	101.00	5.02	-45.3	-63.4	3.8	8.48e-01	0	59	104	406847488	61	30204
2026-01-15 21:37:59.54	100.89	4.95	-45.3	-63.4	3.8	8.46e-01	0	59	104	406847488	61	30280
2026-01-15 21:38:00.55	100.77	4.88	-45.4	-63.4	3.8	8.46e-01	0	59	104	406847488	61	30177
2026-01-15 21:38:01.56	100.66	4.81	-45.3	-63.4	3.8	8.46e-01	0	59	104	406847488	61	30277
2026-01-15 21:38:02.57	100.54	4.74	-45.3	-63.4	3.8	8.47e-01	0	60	104	406847488	61	30167
2026-01-15 21:38:03.59	100.43	4.67	-45.3	-63.4	3.8	8.47e-01	0	59	104	406847488	61	30276
2026-01-15 21:38:04.60	100.31	4.60	-45.3	-63.4	3.8	8.46e-01	0	59	104	406847488	61	30234
2026-01-15 21:38:05.61	100.20	4.53	-45.3	-63.4	3.8	8.46e-01	0	60	104	406847488	61	30207
2026-01-15 21:38:06.62	100.09	4.46	-45.3	-63.4	3.8	8.46e-01	0	59	104	406847488	61	30297
2026-01-15 21:38:07.63	99.98	4.39	-45.3	-63.4	3.8	8.47e-01	0	59	104	406847488	61	30231
2026-01-15 21:38:08.64	99.87	4.33	-45.3	-63.4	3.8	8.47e-01	0	60	104	406847488	61	30277
2026-01-15 21:38:09.65	99.76	4.26	-45.3	-63.4	3.8	8.46e-01	0	60	104	406847488	61	30243
2026-01-15 21:38:10.66	99.66	4.19	-45.3	-63.4	3.8	8.46e-01	0	59	104	406847488	61	30202
2026-01-15 21:38:11.67	99.55	4.12	-45.3	-63.4	3.8	8.46e-01	0	60	104	406847488	61	30277
2026-01-15 21:38:12.69	99.44	4.05	-45.3	-63.4	3.8	8.46e-01	0	60	104	406847488	61	30225
2026-01-15 21:38:13.70	99.34	3.98	-45.3	-63.4	3.8	8.45e-01	0	59	104	406847488	61	30180
2026-01-15 21:38:14.71	99.23	3.92	-45.3	-63.4	3.8	8.45e-01	0	59	104	406847488	61	30210
2026-01-15 21:38:15.72	99.13	3.85	-45.3	-63.4	3.8	8.46e-01	0	60	104	406847488	61	30191
2026-01-15 21:38:16.73	99.02	3.78	-45.3	-63.4	3.8	8.47e-01	0	59	104	406847488	61	30188
2026-01-15 21:38:17.74	98.92	3.72	-45.3	-63.4	3.8	8.47e-01	0	59	104	406847488	61	30228
2026-01-15 21:38:18.75	98.82	3.65	-45.3	-63.4	3.8	8.47e-01	0	59	104	406847488	61	30198
2026-01-15 21:38:19.76	98.72	3.58	-45.3	-63.4	3.8	8.46e-01	0	60	104	406847488	61	30191
2026-01-15 21:38:20.77	98.62	3.52	-45.3	-63.4	3.8	8.46e-01	0	59	104	406847488	61	30199
2026-01-15 21:38:21.79	98.51	3.45	-45.3	-63.4	3.8	8.46e-01	0	59	104	406847488	61	30235
2026-01-15 21:38:22.80	98.42	3.38	-45.3	-63.4	3.8	8.45e-01	0	59	104	406847488	61	30220
2026-01-15 21:38:23.81	98.32	3.32	-45.3	-63.4	3.8	8.46e-01	0	59	104	406847488	61	30157
2026-01-15 21:38:24.82	98.22	3.25	-45.3	-63.4	3.8	8.46e-01	0	59	104	406847488	61	30155
2026-01-15 21:38:25.83	98.12	3.19	-45.3	-63.4	3.8	8.46e-01	0	59	104	406847488	61	30111
2026-01-15 21:38:26.84	98.02	3.12	-45.3	-63.4	3.8	8.46e-01	0	59	104	406847488	61	30170
2026-01-15 21:38:27.85	97.93	3.05	-45.3	-63.4	3.8	8.46e-01	0	60	104	406847488	61	30170
2026-01-15 21:38:28.86	97.83	2.99	-45.3	-63.4	3.8	8.46e-01	0	60	104	406847488	61	30124
2026-01-15 21:38:29.87	97.74	2.92	-45.3	-63.4	3.8	8.46e-01	0	60	104	406847488	61	30115
2026-01-15 21:38:30.88	97.64	2.86	-45.3	-63.4	3.8	8.46e-01	0	60	104	406847488	61	30171
2026-01-15 21:38:31.89	97.55	2.80	-45.3	-63.4	3.8	8.46e-01	0	59	104	406847488	61	30170
2026-01-15 21:38:32.91	97.45	2.73	-45.3	-63.4	3.8	8.46e-01	0	59	104	406847488	61	30110
2026-01-15 21:38:33.92	97.36	2.67	-45.3	-63.4	3.8	8.46e-01	0	60	104	406847488	61	30077
2026-01-15 21:38:34.93	97.27	2.60	-45.3	-63.4	3.8	8.46e-01	0	59	104	406847488	61	30075
2026-01-15 21:38:35.94	97.18	2.54	-45.3	-63.4	3.8	8.46e-01	0	60	104	406847488	61	30072
2026-01-15 21:38:36.95	97.09	2.47	-45.3	-63.4	3.8	8.47e-01	0	59	104	406847488	61	30063
2026-01-15 21:38:37.96	97.00	2.41	-45.3	-63.4	3.8	8.47e-01	0	59	104	406847488	61	30093
2026-01-15 21:38:38.97	96.91	2.35	-45.3	-63.4	3.8	8.46e-01	0	60	104	406847488	61	30130
2026-01-15 21:38:39.98	96.82	2.28	-45.3	-63.4	3.8	8.45e-01	0	59	104	406847488	61	30177
2026-01-15 21:38:40.99	96.73	2.22	-45.3	-63.4	3.8	8.45e-01	0	59	104	406847488	61	30170
2026-01-15 21:38:42.00	96.64	2.16	-45.3	-63.4	3.8	8.46e-01	0	59	104	406847488	61	30094
2026-01-15 21:38:43.01	96.55	2.10	-45.3	-63.4	3.8	8.46e-01	0	59	104	406847488	61	30114
2026-01-15 21:38:44.03	96.47	2.03	-45.3	-63.4	3.8	8.46e-01	0	59	104	406847488	61	30100

#Closed at: 2026-01-15 21:38:44
#Recorded file [406 MB]: D:/lorett/data/31039_260116_003003.dat