passes_logs/2026/01/15/R2.0S_Moscow/R2.0S_Moscow__20260115_112713_NOAA_20_JPSS-1_rec.log

#Pass ID: 20260115_112713_NOAA 20 (JPSS-1)
#Satellite: NOAA 20 (JPSS-1)
#Configuration: NOAA 20
#almurnet v.1.7.20251203
#Start time: 2026-01-15 11:27:13

#Version: 2.2.20231116
#Station: R2.0S_Moscow
#Location: 37.707566 lon 55.798166 lat
#TLE: 1 43013U 17073A   26014.13176244  .00000049  00000+0  44136-4 0  9994
#TLE: 2 43013  98.7634 315.0803 0001538  40.6488 319.4803 14.19535812422619

#Time	Az	El	Level	Level2	SNR	BER	BlckErr	Temp	State	Recorded	gain1	gain2
2026-01-15 11:27:13.14	207.07	1.98	-43.9	-58.4	3.8	1.49e+00	0	52	0	0	59	19025
2026-01-15 11:27:14.14	207.14	2.04	-43.9	-58.4	3.8	1.49e+00	0	52	104	0	59	19006
2026-01-15 11:27:15.15	207.21	2.10	-43.9	-58.4	3.8	1.49e+00	0	52	104	0	59	19000
2026-01-15 11:27:16.16	207.28	2.15	-43.9	-58.4	3.8	1.49e+00	0	52	104	0	59	19025
2026-01-15 11:27:17.17	207.35	2.21	-43.9	-58.4	3.8	1.49e+00	0	52	104	0	59	19023
2026-01-15 11:27:18.18	207.43	2.26	-43.9	-58.4	3.8	1.49e+00	0	52	104	0	59	19017
2026-01-15 11:27:19.19	207.50	2.32	-43.9	-58.4	3.8	1.49e+00	0	52	104	0	59	18975
2026-01-15 11:27:20.20	207.57	2.38	-43.9	-58.4	3.8	1.49e+00	0	52	104	0	59	18974
2026-01-15 11:27:21.21	207.65	2.43	-43.9	-58.4	3.8	1.49e+00	0	52	104	0	59	18997
2026-01-15 11:27:22.23	207.72	2.49	-43.9	-58.4	3.8	1.49e+00	0	52	104	0	59	19006
2026-01-15 11:27:23.24	207.80	2.54	-43.9	-58.4	3.8	1.49e+00	0	53	104	0	59	19029
2026-01-15 11:27:24.25	207.87	2.60	-43.9	-58.4	3.8	1.49e+00	0	53	104	0	59	19035
2026-01-15 11:27:25.26	207.95	2.66	-43.9	-58.4	3.8	1.49e+00	0	53	104	0	59	18973
2026-01-15 11:27:26.27	208.02	2.71	-43.9	-58.4	3.8	1.49e+00	0	53	104	0	59	19036
2026-01-15 11:27:27.28	208.10	2.77	-43.9	-58.3	3.8	1.49e+00	0	53	104	0	59	18908
2026-01-15 11:27:28.29	208.17	2.83	-43.9	-58.4	3.8	1.49e+00	0	53	104	0	59	19033
2026-01-15 11:27:29.29	208.25	2.88	-43.9	-58.4	3.8	1.49e+00	0	53	104	0	59	18999
2026-01-15 11:27:30.31	208.32	2.94	-43.9	-58.4	3.8	1.49e+00	0	53	104	0	59	18949
2026-01-15 11:27:31.31	208.40	3.00	-43.9	-58.4	3.8	1.49e+00	0	53	104	0	59	18967
2026-01-15 11:27:32.33	208.48	3.06	-43.9	-58.4	3.8	1.49e+00	0	53	104	0	59	19015
2026-01-15 11:27:33.33	208.55	3.11	-43.9	-58.4	3.8	1.49e+00	0	53	104	0	59	18987
2026-01-15 11:27:34.34	208.63	3.17	-43.9	-58.4	3.8	1.49e+00	0	53	104	0	59	18966
2026-01-15 11:27:35.36	208.71	3.23	-43.9	-58.3	3.8	1.49e+00	0	53	104	0	59	18934
2026-01-15 11:27:36.37	208.79	3.28	-43.9	-58.4	3.8	1.49e+00	0	53	104	0	59	18979
2026-01-15 11:27:37.37	208.87	3.34	-43.9	-58.4	3.8	1.49e+00	0	54	104	0	59	19036
2026-01-15 11:27:38.39	208.95	3.40	-43.9	-58.4	3.8	1.49e+00	0	54	104	0	59	18972
2026-01-15 11:27:39.40	209.02	3.46	-43.9	-58.3	3.8	1.49e+00	0	54	104	0	59	18942
2026-01-15 11:27:40.41	209.10	3.51	-43.9	-58.4	3.8	1.49e+00	0	54	104	0	59	18976
2026-01-15 11:27:41.42	209.18	3.57	-43.9	-58.3	3.8	1.49e+00	0	54	104	0	59	18928
2026-01-15 11:27:42.43	209.26	3.63	-43.9	-58.4	3.8	1.49e+00	0	54	104	0	59	18986
2026-01-15 11:27:43.44	209.34	3.69	-43.9	-58.4	3.8	1.49e+00	0	54	104	0	59	18995
2026-01-15 11:27:44.45	209.42	3.75	-43.9	-58.4	3.8	1.49e+00	0	54	104	0	59	18995
2026-01-15 11:27:45.46	209.50	3.80	-43.9	-58.4	3.8	1.49e+00	0	54	104	0	59	18984
2026-01-15 11:27:46.47	209.59	3.86	-43.9	-58.4	3.8	1.49e+00	0	54	104	0	59	18956
2026-01-15 11:27:47.48	209.67	3.92	-43.9	-58.4	3.8	1.49e+00	0	54	104	0	59	18960
2026-01-15 11:27:48.49	209.75	3.98	-43.9	-58.4	3.8	1.49e+00	0	54	104	0	59	19013
2026-01-15 11:27:49.50	209.83	4.04	-43.9	-58.4	3.8	1.49e+00	0	54	104	0	59	18964
2026-01-15 11:27:50.50	209.91	4.09	-43.9	-58.4	3.8	1.49e+00	0	54	104	0	59	19006
2026-01-15 11:27:51.51	209.99	4.15	-43.9	-58.4	3.8	1.49e+00	0	54	104	0	59	18996
2026-01-15 11:27:52.52	210.08	4.21	-43.9	-58.4	3.8	1.49e+00	0	54	104	0	59	19077
2026-01-15 11:27:53.53	210.16	4.27	-43.8	-58.4	3.8	1.49e+00	0	54	104	0	59	19014
2026-01-15 11:27:54.54	210.24	4.33	-43.9	-58.4	3.8	1.49e+00	0	55	104	0	59	18949
2026-01-15 11:27:55.55	210.33	4.39	-43.9	-58.3	3.8	1.49e+00	0	54	104	0	59	18948
2026-01-15 11:27:56.56	210.41	4.45	-43.9	-58.3	3.8	1.49e+00	0	55	104	0	59	18921
2026-01-15 11:27:57.57	210.50	4.51	-43.8	-58.4	3.8	1.49e+00	0	55	104	0	59	19000
2026-01-15 11:27:58.58	210.58	4.57	-43.9	-58.3	3.8	1.49e+00	0	55	104	0	59	18911
2026-01-15 11:27:59.59	210.67	4.62	-43.9	-58.4	3.8	1.49e+00	0	55	104	0	59	18973
2026-01-15 11:28:00.60	210.75	4.68	-43.9	-58.3	3.8	1.49e+00	0	55	104	0	59	18922
2026-01-15 11:28:01.61	210.84	4.74	-43.9	-58.4	3.8	1.49e+00	0	55	104	0	59	18991
2026-01-15 11:28:02.62	210.92	4.80	-43.9	-58.4	3.8	1.49e+00	0	55	104	0	59	18964
2026-01-15 11:28:03.62	211.01	4.86	-43.9	-58.4	3.8	1.49e+00	0	55	104	0	59	18983
2026-01-15 11:28:04.63	211.10	4.92	-43.9	-58.4	3.8	1.49e+00	0	55	104	0	59	18952
2026-01-15 11:28:05.64	211.18	4.98	-43.9	-58.4	3.8	1.49e+00	0	55	104	0	59	19061
2026-01-15 11:28:06.65	211.27	5.04	-43.9	-58.3	3.8	1.49e+00	0	55	104	0	59	18921
2026-01-15 11:28:07.67	211.36	5.10	-43.9	-58.3	3.8	1.49e+00	0	55	104	0	59	18848
2026-01-15 11:28:08.68	211.45	5.16	-43.8	-58.3	3.8	1.49e+00	0	55	104	0	59	18772
2026-01-15 11:28:09.69	211.54	5.22	-43.9	-58.2	3.8	1.49e+00	0	55	104	0	59	18616
2026-01-15 11:28:10.70	211.63	5.28	-43.9	-58.2	3.8	1.49e+00	0	55	104	0	59	18596
2026-01-15 11:28:11.71	211.71	5.34	-43.9	-58.1	3.8	1.49e+00	0	55	104	0	58	19496
2026-01-15 11:28:12.72	211.80	5.40	-43.9	-58.1	3.8	1.49e+00	0	55	104	0	58	19443
2026-01-15 11:28:13.73	211.89	5.46	-43.9	-58.0	3.8	1.49e+00	0	55	104	0	58	19309
2026-01-15 11:28:14.74	211.98	5.52	-43.9	-58.0	3.8	1.49e+00	0	56	104	0	58	19302
2026-01-15 11:28:15.74	212.07	5.58	-43.9	-58.0	3.8	1.49e+00	0	56	104	0	58	19192
2026-01-15 11:28:16.75	212.17	5.64	-43.9	-58.0	3.8	1.49e+00	0	56	104	0	58	19375
2026-01-15 11:28:17.76	212.26	5.70	-43.9	-58.0	3.8	1.49e+00	0	56	104	0	58	19381
2026-01-15 11:28:18.77	212.35	5.76	-43.9	-58.1	3.8	1.49e+00	0	56	104	0	58	19512
2026-01-15 11:28:19.78	212.44	5.82	-43.9	-58.0	3.8	1.49e+00	0	56	104	0	58	19272
2026-01-15 11:28:20.79	212.53	5.88	-43.9	-57.9	3.8	1.49e+00	0	56	104	0	58	19042
2026-01-15 11:28:21.80	212.63	5.95	-43.8	-57.7	3.8	1.49e+00	0	56	104	0	58	18634
2026-01-15 11:28:22.81	212.72	6.01	-43.9	-57.4	3.8	1.49e+00	0	56	104	0	58	17979
2026-01-15 11:28:23.82	212.81	6.07	-43.9	-57.2	3.8	1.49e+00	0	56	104	0	58	17614
2026-01-15 11:28:24.83	212.91	6.13	-43.8	-57.0	3.8	1.49e+00	0	56	104	0	58	17122
2026-01-15 11:28:25.84	213.00	6.19	-43.8	-56.8	3.8	1.49e+00	0	56	104	0	58	16729
2026-01-15 11:28:26.85	213.10	6.25	-43.8	-56.3	3.8	1.49e+00	0	56	104	0	58	15925
2026-01-15 11:28:27.86	213.19	6.31	-43.8	-55.9	3.8	1.49e+00	0	56	104	0	58	15108
2026-01-15 11:28:28.87	213.29	6.37	-43.7	-55.4	4.1	1.47e+00	0	56	0	0	58	14239
2026-01-15 11:28:29.88	213.38	6.44	-43.7	-55.0	4.1	1.42e+00	0	56	0	0	58	13660
2026-01-15 11:28:30.89	213.48	6.50	-43.6	-54.5	4.3	1.38e+00	0	56	0	0	58	12870
2026-01-15 11:28:31.90	213.58	6.56	-43.6	-54.1	4.4	1.31e+00	71	56	0	1048576	58	12300
2026-01-15 11:28:32.90	213.67	6.62	-43.6	-53.8	4.5	1.06e+00	4	56	0	2097152	58	11922
2026-01-15 11:28:33.91	213.77	6.68	-43.6	-53.7	4.6	1.00e+00	0	56	0	4194304	58	11802
2026-01-15 11:28:34.92	213.87	6.74	-43.6	-53.6	4.6	9.50e-01	0	56	0	6291456	58	11618
2026-01-15 11:28:35.93	213.97	6.81	-43.5	-53.5	4.7	8.96e-01	0	56	0	8388608	58	11425
2026-01-15 11:28:36.94	214.06	6.87	-43.6	-53.6	4.6	9.12e-01	0	56	0	10485760	58	11607
2026-01-15 11:28:37.95	214.16	6.93	-43.6	-53.5	4.7	9.10e-01	0	56	0	11534336	58	11516
2026-01-15 11:28:38.95	214.26	6.99	-43.6	-53.8	4.5	9.76e-01	0	56	0	13631488	58	11908
2026-01-15 11:28:39.96	214.36	7.05	-43.6	-54.1	4.4	1.08e+00	74	56	0	15728640	58	12366
2026-01-15 11:28:40.97	214.46	7.12	-43.7	-54.7	4.2	1.33e+00	0	56	0	16777216	58	13234
2026-01-15 11:28:41.98	214.56	7.18	-43.7	-55.1	4.1	1.40e+00	0	57	0	16777216	58	13736
2026-01-15 11:28:42.99	214.66	7.24	-43.7	-55.2	4.1	1.42e+00	0	57	0	16777216	58	13988
2026-01-15 11:28:44.00	214.77	7.30	-43.7	-55.0	4.1	1.43e+00	0	57	0	16777216	58	13638
2026-01-15 11:28:45.01	214.87	7.37	-43.6	-54.5	4.3	1.39e+00	0	57	0	16777216	58	12815
2026-01-15 11:28:46.02	214.97	7.43	-43.5	-53.5	4.6	1.03e+00	0	57	0	17825792	58	11538
2026-01-15 11:28:47.03	215.07	7.49	-43.4	-52.6	5.1	7.46e-01	0	57	0	19922944	58	10316
2026-01-15 11:28:48.04	215.18	7.56	-43.3	-51.5	5.8	5.01e-01	0	57	0	22020096	58	9126
2026-01-15 11:28:49.05	215.28	7.62	-43.1	-50.7	6.4	2.75e-01	0	57	0	24117248	58	8362
2026-01-15 11:28:50.06	215.38	7.68	-42.8	-49.6	7.4	1.56e-01	0	57	0	26214400	57	7791
2026-01-15 11:28:51.06	215.49	7.75	-42.7	-49.1	7.9	9.07e-02	0	57	0	28311552	57	7317
2026-01-15 11:28:52.07	215.59	7.81	-42.6	-48.8	8.2	6.33e-02	0	57	0	29360128	57	7092
2026-01-15 11:28:53.08	215.70	7.87	-42.5	-48.5	8.6	3.86e-02	0	57	0	31457280	57	6803
2026-01-15 11:28:54.09	215.80	7.94	-42.5	-48.4	8.6	3.86e-02	0	57	0	33554432	56	7170
2026-01-15 11:28:55.10	215.91	8.00	-42.5	-48.4	8.7	3.51e-02	0	57	0	35651584	56	7132
2026-01-15 11:28:56.11	216.02	8.06	-42.6	-48.7	8.3	4.65e-02	0	57	0	37748736	56	7439
2026-01-15 11:28:57.12	216.13	8.13	-42.6	-48.3	9.0	2.06e-02	0	57	0	38797312	56	7052
2026-01-15 11:28:58.13	216.23	8.19	-43.6	-57.9	3.8	4.55e-01	0	57	104	39845888	57	20092
2026-01-15 11:28:59.14	216.34	8.25	-43.5	-52.0	5.6	1.12e-01	0	57	0	39845888	57	10223
2026-01-15 11:29:00.15	216.45	8.32	-42.9	-49.4	7.9	8.63e-02	0	57	0	41943040	57	7588
2026-01-15 11:29:01.16	216.56	8.38	-43.7	-54.3	4.4	7.82e-02	28	57	0	44040192	58	12570
2026-01-15 11:29:02.17	216.67	8.45	-42.5	-48.1	9.2	4.15e-02	0	57	0	45088768	57	6559
2026-01-15 11:29:03.17	216.78	8.51	-42.5	-48.1	9.2	2.32e-02	0	57	0	47185920	57	6553
2026-01-15 11:29:04.18	216.89	8.57	-42.5	-48.0	9.3	2.26e-02	0	57	0	49283072	57	6446
2026-01-15 11:29:05.19	217.00	8.64	-42.4	-47.8	9.6	1.38e-02	0	57	0	51380224	56	6673
2026-01-15 11:29:06.20	217.11	8.70	-42.4	-47.5	9.8	1.04e-02	0	58	0	53477376	56	6491
2026-01-15 11:29:07.20	217.22	8.77	-42.4	-47.6	9.8	1.04e-02	0	57	0	54525952	56	6545
2026-01-15 11:29:08.22	217.33	8.83	-42.4	-47.6	9.8	1.16e-02	0	57	0	56623104	56	6545
2026-01-15 11:29:09.22	217.45	8.89	-42.4	-47.5	9.9	9.01e-03	0	57	0	58720256	56	6490
2026-01-15 11:29:10.23	217.56	8.96	-42.4	-47.6	9.9	8.84e-03	0	58	0	60817408	56	6502
2026-01-15 11:29:11.24	217.67	9.02	-42.4	-47.5	9.9	1.00e-02	0	57	0	62914560	56	6465
2026-01-15 11:29:12.25	217.79	9.09	-42.4	-47.5	9.9	8.58e-03	0	57	0	63963136	56	6471
2026-01-15 11:29:13.25	217.90	9.15	-42.4	-47.5	9.9	9.21e-03	0	58	0	66060288	56	6487
2026-01-15 11:29:14.27	218.02	9.22	-42.5	-47.6	9.9	8.68e-03	0	58	0	68157440	56	6512
2026-01-15 11:29:15.28	218.13	9.28	-42.4	-47.6	9.9	8.66e-03	0	58	0	70254592	56	6500
2026-01-15 11:29:16.28	218.25	9.35	-42.5	-47.6	9.9	8.40e-03	0	58	0	72351744	56	6526
2026-01-15 11:29:17.29	218.37	9.41	-42.5	-47.5	10.0	8.28e-03	0	58	0	73400320	56	6487
2026-01-15 11:29:18.30	218.48	9.48	-42.4	-47.4	10.1	7.41e-03	0	58	0	75497472	56	6407
2026-01-15 11:29:19.31	218.60	9.54	-42.5	-47.5	10.0	6.92e-03	0	58	0	77594624	56	6479
2026-01-15 11:29:20.32	218.72	9.61	-42.5	-47.6	9.9	8.17e-03	0	58	0	79691776	56	6500
2026-01-15 11:29:21.33	218.84	9.67	-42.5	-47.6	10.0	7.88e-03	0	58	0	81788928	56	6529
2026-01-15 11:29:22.33	218.96	9.74	-42.5	-47.5	10.0	8.59e-03	0	58	0	82837504	56	6475
2026-01-15 11:29:23.34	219.08	9.80	-42.5	-47.6	9.9	8.25e-03	0	58	0	84934656	56	6525
2026-01-15 11:29:24.35	219.20	9.87	-42.5	-47.6	10.0	7.70e-03	0	58	0	87031808	56	6495
2026-01-15 11:29:25.36	219.32	9.94	-42.6	-47.6	10.0	8.07e-03	0	58	0	89128960	56	6525
2026-01-15 11:29:26.36	219.44	10.00	-42.6	-47.5	10.0	7.35e-03	0	58	0	91226112	56	6473
2026-01-15 11:29:27.37	219.56	10.07	-42.6	-47.6	10.0	7.28e-03	0	58	0	92274688	56	6501
2026-01-15 11:29:28.38	219.68	10.13	-42.6	-47.5	10.0	7.76e-03	0	58	0	94371840	56	6492
2026-01-15 11:29:29.39	219.81	10.20	-42.5	-47.4	10.1	7.78e-03	0	58	0	96468992	56	6402
2026-01-15 11:29:30.40	219.93	10.26	-42.5	-47.3	10.3	6.12e-03	0	58	0	98566144	56	6324
2026-01-15 11:29:31.41	220.05	10.33	-42.5	-47.3	10.3	5.55e-03	0	58	0	100663296	56	6318
2026-01-15 11:29:32.42	220.18	10.40	-42.5	-47.2	10.4	4.81e-03	0	58	0	101711872	56	6237
2026-01-15 11:29:33.43	220.30	10.46	-42.4	-47.1	10.5	4.23e-03	0	58	0	103809024	56	6197
2026-01-15 11:29:34.44	220.43	10.53	-42.5	-47.2	10.5	4.16e-03	0	58	0	105906176	56	6223
2026-01-15 11:29:35.45	220.56	10.60	-42.5	-47.2	10.4	4.30e-03	0	58	0	108003328	56	6241
2026-01-15 11:29:36.46	220.68	10.66	-42.4	-47.1	10.6	4.10e-03	0	58	0	110100480	56	6185
2026-01-15 11:29:37.47	220.81	10.73	-42.4	-47.1	10.6	3.53e-03	0	58	0	111149056	56	6153
2026-01-15 11:29:38.47	220.94	10.79	-42.4	-47.0	10.7	3.11e-03	0	58	0	113246208	56	6087
2026-01-15 11:29:39.48	221.06	10.86	-42.4	-46.9	10.8	2.79e-03	0	58	0	115343360	56	6025
2026-01-15 11:29:40.49	221.19	10.93	-42.4	-46.9	10.9	2.62e-03	0	58	0	117440512	56	6010
2026-01-15 11:29:41.50	221.32	10.99	-42.4	-46.9	10.8	2.55e-03	0	58	0	119537664	56	6025
2026-01-15 11:29:42.51	221.45	11.06	-42.4	-46.9	10.9	2.49e-03	0	58	0	121634816	56	6016
2026-01-15 11:29:43.52	221.58	11.13	-42.3	-46.8	10.9	2.45e-03	0	58	0	122683392	56	5956
2026-01-15 11:29:44.53	221.72	11.19	-42.3	-46.7	11.0	1.96e-03	0	58	0	124780544	56	5906
2026-01-15 11:29:45.54	221.85	11.26	-42.3	-46.7	11.0	1.90e-03	0	58	0	126877696	56	5904
2026-01-15 11:29:46.55	221.98	11.33	-42.3	-46.7	11.1	1.80e-03	0	58	0	128974848	56	5884
2026-01-15 11:29:47.56	222.11	11.39	-42.3	-46.6	11.1	1.68e-03	0	58	0	131072000	56	5843
2026-01-15 11:29:48.57	222.25	11.46	-42.3	-46.7	11.1	1.56e-03	0	58	0	132120576	56	5876
2026-01-15 11:29:49.58	222.38	11.53	-42.3	-46.7	11.0	1.66e-03	0	58	0	134217728	56	5917
2026-01-15 11:29:50.59	222.52	11.59	-42.3	-46.7	11.1	1.69e-03	0	58	0	136314880	56	5901
2026-01-15 11:29:51.60	222.65	11.66	-42.3	-46.8	11.0	1.86e-03	0	58	0	138412032	56	5945
2026-01-15 11:29:52.61	222.79	11.73	-42.4	-46.9	10.9	2.13e-03	0	58	0	140509184	56	6009
2026-01-15 11:29:53.62	222.93	11.80	-42.4	-46.9	10.9	2.18e-03	0	58	0	141557760	56	6015
2026-01-15 11:29:54.62	223.06	11.86	-42.3	-46.8	11.0	2.14e-03	0	58	0	143654912	56	5971
2026-01-15 11:29:55.63	223.20	11.93	-42.4	-46.9	10.9	2.03e-03	0	58	0	145752064	56	6017
2026-01-15 11:29:56.64	223.34	12.00	-42.4	-46.8	10.9	2.19e-03	0	59	0	147849216	56	5987
2026-01-15 11:29:57.65	223.48	12.06	-42.4	-46.8	11.0	1.93e-03	0	58	0	149946368	56	5973
2026-01-15 11:29:58.66	223.62	12.13	-42.4	-46.8	11.0	1.86e-03	0	59	0	150994944	56	5965
2026-01-15 11:29:59.67	223.76	12.20	-42.4	-46.8	11.0	1.82e-03	0	59	0	153092096	56	5948
2026-01-15 11:30:00.68	223.90	12.27	-42.3	-46.7	11.1	1.88e-03	0	59	0	155189248	56	5901
2026-01-15 11:30:01.69	224.04	12.33	-42.3	-46.6	11.2	1.51e-03	0	59	0	157286400	56	5855
2026-01-15 11:30:02.70	224.18	12.40	-42.3	-46.7	11.1	1.48e-03	0	59	0	159383552	56	5866
2026-01-15 11:30:03.71	224.33	12.47	-42.3	-46.7	11.1	1.53e-03	0	59	0	160432128	56	5890
2026-01-15 11:30:04.72	224.47	12.54	-42.3	-46.7	11.1	1.39e-03	0	59	0	162529280	56	5882
2026-01-15 11:30:05.73	224.61	12.60	-42.3	-46.6	11.2	1.41e-03	0	59	0	164626432	56	5838
2026-01-15 11:30:06.74	224.76	12.67	-42.3	-46.7	11.2	1.31e-03	0	59	0	166723584	56	5875
2026-01-15 11:30:07.75	224.90	12.74	-42.3	-46.6	11.2	1.27e-03	0	58	0	168820736	56	5833
2026-01-15 11:30:08.76	225.05	12.81	-42.3	-46.6	11.3	1.38e-03	0	59	0	169869312	56	5827
2026-01-15 11:30:09.77	225.20	12.87	-42.3	-46.6	11.3	1.30e-03	0	59	0	171966464	56	5798
2026-01-15 11:30:10.78	225.34	12.94	-42.3	-46.6	11.3	1.13e-03	0	59	0	174063616	56	5815
2026-01-15 11:30:11.79	225.49	13.01	-42.3	-46.6	11.3	1.14e-03	0	59	0	176160768	56	5805
2026-01-15 11:30:12.80	225.64	13.08	-42.3	-46.5	11.4	1.06e-03	0	59	0	178257920	56	5748
2026-01-15 11:30:13.81	225.79	13.14	-42.3	-46.6	11.4	1.07e-03	0	59	0	180355072	56	5799
2026-01-15 11:30:14.82	225.94	13.21	-42.3	-46.6	11.3	1.13e-03	0	59	0	181403648	56	5834
2026-01-15 11:30:15.83	226.09	13.28	-42.3	-46.6	11.3	1.02e-03	0	59	0	183500800	56	5809
2026-01-15 11:30:16.84	226.24	13.35	-42.4	-46.7	11.3	1.19e-03	0	59	0	185597952	56	5872
2026-01-15 11:30:17.85	226.39	13.41	-42.4	-46.7	11.2	1.23e-03	0	59	0	187695104	56	5875
2026-01-15 11:30:18.86	226.55	13.48	-42.4	-46.7	11.2	1.40e-03	0	59	0	189792256	56	5862
2026-01-15 11:30:19.87	226.70	13.55	-42.3	-46.6	11.3	1.19e-03	0	59	0	190840832	56	5821
2026-01-15 11:30:20.88	226.85	13.62	-42.3	-46.7	11.2	1.24e-03	0	59	0	192937984	56	5856
2026-01-15 11:30:21.89	227.01	13.69	-42.3	-46.6	11.3	1.15e-03	0	59	0	195035136	56	5830
2026-01-15 11:30:22.90	227.16	13.75	-42.4	-46.7	11.2	1.25e-03	0	59	0	197132288	56	5863
2026-01-15 11:30:23.91	227.32	13.82	-42.4	-46.7	11.2	1.37e-03	0	59	0	199229440	56	5878
2026-01-15 11:30:24.92	227.48	13.89	-42.3	-46.6	11.3	1.13e-03	0	59	0	200278016	56	5824
2026-01-15 11:30:25.92	227.63	13.96	-42.3	-46.6	11.3	1.24e-03	0	59	0	202375168	56	5804
2026-01-15 11:30:26.93	227.79	14.02	-42.3	-46.5	11.4	1.01e-03	0	59	0	204472320	56	5756
2026-01-15 11:30:27.94	227.95	14.09	-42.3	-46.5	11.4	1.00e-03	0	59	0	206569472	56	5788
2026-01-15 11:30:28.95	228.11	14.16	-42.3	-46.5	11.5	8.98e-04	0	59	0	208666624	56	5731
2026-01-15 11:30:29.96	228.27	14.23	-42.3	-46.5	11.5	9.13e-04	0	59	0	209715200	56	5741
2026-01-15 11:30:30.96	228.43	14.29	-42.3	-46.5	11.5	7.41e-04	0	59	0	211812352	56	5751
2026-01-15 11:30:31.97	228.59	14.36	-42.3	-46.5	11.5	8.41e-04	0	59	0	213909504	56	5732
2026-01-15 11:30:32.98	228.76	14.43	-42.2	-46.4	11.5	8.12e-04	0	59	0	216006656	56	5680
2026-01-15 11:30:33.99	228.92	14.50	-42.3	-46.5	11.5	7.57e-04	0	59	0	218103808	56	5732
2026-01-15 11:30:35.00	229.08	14.56	-42.3	-46.5	11.5	8.38e-04	0	59	0	219152384	56	5754
2026-01-15 11:30:36.01	229.25	14.63	-42.3	-46.5	11.4	9.23e-04	0	59	0	221249536	56	5773
2026-01-15 11:30:37.02	229.41	14.70	-42.3	-46.5	11.5	8.93e-04	0	59	0	223346688	56	5755
2026-01-15 11:30:38.03	229.58	14.77	-42.3	-46.5	11.5	8.97e-04	0	59	0	225443840	56	5739
2026-01-15 11:30:39.04	229.75	14.83	-42.3	-46.6	11.4	1.01e-03	0	59	0	227540992	56	5796
2026-01-15 11:30:40.05	229.91	14.90	-42.3	-46.5	11.4	9.06e-04	0	59	0	228589568	56	5774
2026-01-15 11:30:41.06	230.08	14.97	-42.3	-46.6	11.4	9.47e-04	0	59	0	230686720	56	5820
2026-01-15 11:30:42.07	230.25	15.03	-42.3	-46.6	11.4	9.22e-04	0	59	0	232783872	56	5806
2026-01-15 11:30:43.08	230.42	15.10	-42.3	-46.6	11.4	9.84e-04	0	59	0	234881024	56	5817
2026-01-15 11:30:44.09	230.59	15.17	-42.3	-46.6	11.5	9.65e-04	0	59	0	236978176	56	5789
2026-01-15 11:30:45.10	230.76	15.24	-42.3	-46.5	11.5	8.38e-04	0	59	0	238026752	56	5764
2026-01-15 11:30:46.11	230.93	15.30	-42.3	-46.5	11.5	8.68e-04	0	59	0	240123904	56	5741
2026-01-15 11:30:47.11	231.11	15.37	-42.3	-46.5	11.5	8.12e-04	0	59	0	242221056	56	5764
2026-01-15 11:30:48.13	231.28	15.44	-42.3	-46.5	11.5	8.71e-04	0	59	0	244318208	56	5763
2026-01-15 11:30:49.14	231.46	15.50	-42.3	-46.5	11.5	7.95e-04	0	59	0	246415360	56	5770
2026-01-15 11:30:50.14	231.63	15.57	-42.3	-46.6	11.4	7.89e-04	0	59	0	247463936	56	5789
2026-01-15 11:30:51.15	231.80	15.64	-42.3	-46.5	11.5	7.90e-04	0	59	0	249561088	56	5771
2026-01-15 11:30:52.16	231.98	15.70	-42.3	-46.5	11.5	8.60e-04	0	59	0	251658240	56	5726
2026-01-15 11:30:53.17	232.16	15.77	-42.3	-46.4	11.6	7.39e-04	0	59	0	253755392	56	5722
2026-01-15 11:30:54.18	232.34	15.84	-42.3	-46.4	11.6	7.09e-04	0	59	0	255852544	56	5707
2026-01-15 11:30:55.19	232.52	15.90	-42.3	-46.4	11.6	6.89e-04	0	59	0	256901120	56	5693
2026-01-15 11:30:56.20	232.69	15.97	-42.2	-46.3	11.7	6.13e-04	0	59	0	258998272	56	5645
2026-01-15 11:30:57.20	232.87	16.03	-42.2	-46.3	11.7	5.78e-04	0	59	0	261095424	56	5626
2026-01-15 11:30:58.22	233.06	16.10	-42.2	-46.3	11.7	5.63e-04	0	59	0	263192576	56	5627
2026-01-15 11:30:59.22	233.24	16.17	-42.3	-46.4	11.6	6.42e-04	0	59	0	265289728	56	5687
2026-01-15 11:31:00.23	233.42	16.23	-42.3	-46.5	11.5	7.17e-04	0	59	0	266338304	56	5749
2026-01-15 11:31:01.24	233.60	16.30	-42.3	-46.5	11.5	8.31e-04	0	59	0	268435456	56	5751
2026-01-15 11:31:02.25	233.79	16.36	-42.4	-46.6	11.5	9.67e-04	0	59	0	270532608	56	5794
2026-01-15 11:31:03.26	233.97	16.43	-42.3	-46.4	11.6	7.72e-04	0	60	0	272629760	56	5711
2026-01-15 11:31:04.26	234.16	16.49	-42.3	-46.3	11.7	6.48e-04	0	60	0	274726912	56	5629
2026-01-15 11:31:05.27	234.34	16.56	-42.2	-46.2	11.8	4.87e-04	0	59	0	276824064	56	5558
2026-01-15 11:31:06.28	234.53	16.63	-42.1	-46.1	12.0	3.47e-04	0	59	0	277872640	56	5470
2026-01-15 11:31:07.29	234.72	16.69	-42.1	-46.0	12.0	2.88e-04	0	59	0	279969792	56	5431
2026-01-15 11:31:08.30	234.91	16.76	-42.1	-46.0	12.0	2.90e-04	0	59	0	282066944	56	5446
2026-01-15 11:31:09.31	235.10	16.82	-42.1	-46.0	12.1	3.00e-04	0	60	0	284164096	56	5430
2026-01-15 11:31:10.32	235.29	16.89	-42.2	-46.1	12.0	3.47e-04	0	59	0	286261248	56	5495
2026-01-15 11:31:11.33	235.48	16.95	-42.2	-46.1	12.0	3.43e-04	0	60	0	287309824	56	5499
2026-01-15 11:31:12.33	235.67	17.01	-42.2	-46.1	11.9	3.88e-04	0	59	0	289406976	56	5526
2026-01-15 11:31:13.34	235.86	17.08	-42.2	-46.2	11.9	4.07e-04	0	59	0	291504128	56	5547
2026-01-15 11:31:14.36	236.06	17.14	-42.2	-46.2	11.9	3.65e-04	0	60	0	293601280	56	5534
2026-01-15 11:31:15.37	236.25	17.21	-42.2	-46.1	12.0	3.54e-04	0	59	0	295698432	56	5504
2026-01-15 11:31:16.38	236.45	17.27	-42.1	-46.0	12.1	2.93e-04	0	59	0	296747008	56	5415
2026-01-15 11:31:17.38	236.64	17.33	-42.1	-45.9	12.2	2.75e-04	0	60	0	298844160	56	5362
2026-01-15 11:31:18.39	236.84	17.40	-42.0	-45.7	12.3	1.95e-04	0	59	0	300941312	56	5270
2026-01-15 11:31:19.40	237.04	17.46	-42.0	-45.7	12.3	1.75e-04	0	60	0	303038464	56	5263
2026-01-15 11:31:20.41	237.24	17.52	-41.8	-45.5	12.5	1.28e-04	0	59	0	305135616	55	5407
2026-01-15 11:31:21.42	237.44	17.59	-41.8	-45.4	12.5	1.23e-04	0	59	0	306184192	55	5377
2026-01-15 11:31:22.43	237.64	17.65	-41.7	-45.4	12.5	1.26e-04	0	60	0	308281344	55	5363
2026-01-15 11:31:23.44	237.84	17.71	-41.7	-45.4	12.6	1.17e-04	0	60	0	310378496	55	5359
2026-01-15 11:31:24.45	238.04	17.78	-41.7	-45.4	12.6	9.00e-05	0	60	0	312475648	55	5346
2026-01-15 11:31:25.46	238.24	17.84	-41.7	-45.4	12.6	1.09e-04	0	60	0	314572800	55	5345
2026-01-15 11:31:26.47	238.45	17.90	-41.7	-45.4	12.6	1.02e-04	0	59	0	315621376	55	5341
2026-01-15 11:31:27.47	238.65	17.96	-41.8	-45.4	12.5	1.05e-04	0	59	0	317718528	55	5380
2026-01-15 11:31:28.48	238.85	18.02	-41.8	-45.4	12.5	1.04e-04	0	60	0	319815680	55	5385
2026-01-15 11:31:29.49	239.06	18.09	-41.7	-45.3	12.6	8.01e-05	0	59	0	321912832	55	5306
2026-01-15 11:31:30.50	239.27	18.15	-41.7	-45.3	12.7	7.70e-05	0	60	0	324009984	55	5285
2026-01-15 11:31:31.51	239.47	18.21	-41.7	-45.2	12.7	6.25e-05	0	60	0	325058560	55	5263
2026-01-15 11:31:32.52	239.68	18.27	-41.7	-45.2	12.7	6.56e-05	0	60	0	327155712	55	5268
2026-01-15 11:31:33.53	239.89	18.33	-41.7	-45.3	12.7	8.08e-05	0	60	0	329252864	55	5287
2026-01-15 11:31:34.54	240.10	18.39	-41.7	-45.4	12.6	8.31e-05	0	60	0	331350016	55	5347
2026-01-15 11:31:35.55	240.31	18.45	-41.8	-45.4	12.5	1.08e-04	0	60	0	333447168	55	5365
2026-01-15 11:31:36.56	240.52	18.51	-41.8	-45.5	12.5	1.15e-04	0	60	0	334495744	55	5413
2026-01-15 11:31:37.57	240.74	18.57	-41.8	-45.5	12.5	1.28e-04	0	60	0	336592896	55	5424
2026-01-15 11:31:38.58	240.95	18.63	-41.8	-45.4	12.5	1.23e-04	0	60	0	338690048	55	5399
2026-01-15 11:31:39.59	241.16	18.69	-41.8	-45.5	12.5	1.20e-04	0	60	0	340787200	55	5403
2026-01-15 11:31:40.60	241.38	18.75	-41.8	-45.5	12.5	9.91e-05	0	60	0	342884352	55	5426
2026-01-15 11:31:41.61	241.60	18.81	-41.8	-45.6	12.4	1.13e-04	0	60	0	344981504	55	5466
2026-01-15 11:31:42.62	241.81	18.87	-41.9	-45.7	12.3	1.68e-04	0	60	0	346030080	55	5529
2026-01-15 11:31:43.63	242.03	18.93	-42.0	-45.8	12.1	1.97e-04	0	60	0	348127232	55	5647
2026-01-15 11:31:44.64	242.25	18.98	-42.1	-46.0	11.9	3.90e-04	0	60	0	350224384	55	5786
2026-01-15 11:31:45.65	242.47	19.04	-42.2	-46.3	11.6	5.55e-04	0	60	0	352321536	55	5939
2026-01-15 11:31:46.66	242.69	19.10	-42.3	-46.4	11.5	7.80e-04	0	60	0	354418688	55	6039
2026-01-15 11:31:47.67	242.91	19.16	-42.3	-46.5	11.4	8.79e-04	0	60	0	355467264	55	6121
2026-01-15 11:31:48.68	243.13	19.21	-42.3	-46.5	11.4	1.07e-03	0	60	0	357564416	55	6126
2026-01-15 11:31:49.69	243.35	19.27	-42.3	-46.5	11.4	1.01e-03	0	60	0	359661568	55	6094
2026-01-15 11:31:50.69	243.57	19.33	-42.3	-46.5	11.4	1.01e-03	0	60	0	361758720	55	6128
2026-01-15 11:31:51.70	243.80	19.38	-42.3	-46.5	11.4	1.02e-03	0	60	0	363855872	55	6100
2026-01-15 11:31:52.71	244.02	19.44	-42.3	-46.5	11.4	9.25e-04	0	60	0	364904448	55	6088
2026-01-15 11:31:53.72	244.25	19.49	-42.3	-46.5	11.4	9.34e-04	0	60	0	367001600	55	6115
2026-01-15 11:31:54.73	244.47	19.55	-42.4	-46.8	11.2	1.27e-03	0	60	0	369098752	55	6285
2026-01-15 11:31:55.74	244.70	19.60	-42.5	-46.9	11.0	1.75e-03	0	60	0	371195904	55	6408
2026-01-15 11:31:56.74	244.92	19.66	-42.6	-47.2	10.7	2.34e-03	0	60	0	373293056	55	6612
2026-01-15 11:31:57.75	245.15	19.71	-42.9	-47.7	10.4	3.97e-03	0	60	0	374341632	56	6572
2026-01-15 11:31:58.76	245.38	19.77	-43.0	-47.9	10.1	5.33e-03	0	60	0	376438784	56	6780
2026-01-15 11:31:59.77	245.61	19.82	-43.0	-48.0	10.0	7.32e-03	0	60	0	378535936	56	6850
2026-01-15 11:32:00.78	245.84	19.87	-43.1	-48.1	9.9	8.11e-03	0	60	0	380633088	56	6954
2026-01-15 11:32:01.79	246.08	19.93	-43.1	-48.2	9.9	9.15e-03	0	60	0	382730240	56	6964
2026-01-15 11:32:02.80	246.31	19.98	-43.1	-48.1	9.9	8.56e-03	0	60	0	383778816	56	6930
2026-01-15 11:32:03.81	246.54	20.03	-43.0	-48.0	10.0	8.47e-03	0	60	0	385875968	56	6839
2026-01-15 11:32:04.82	246.78	20.08	-43.0	-47.9	10.1	6.63e-03	0	60	0	387973120	56	6751
2026-01-15 11:32:05.83	247.01	20.13	-42.9	-47.8	10.3	6.15e-03	0	60	0	390070272	56	6654
2026-01-15 11:32:06.84	247.25	20.18	-42.9	-47.6	10.4	5.15e-03	0	60	0	392167424	56	6544
2026-01-15 11:32:07.85	247.48	20.24	-42.9	-47.7	10.4	4.52e-03	0	60	0	393216000	56	6571
2026-01-15 11:32:08.86	247.72	20.29	-42.9	-47.7	10.4	4.72e-03	0	60	0	395313152	56	6607
2026-01-15 11:32:09.87	247.96	20.34	-43.0	-47.8	10.3	5.20e-03	0	60	0	397410304	56	6704
2026-01-15 11:32:10.87	248.19	20.38	-43.0	-47.8	10.3	5.26e-03	0	60	0	399507456	56	6690
2026-01-15 11:32:11.88	248.43	20.43	-42.9	-47.8	10.3	5.02e-03	0	60	0	401604608	56	6653
2026-01-15 11:32:12.89	248.67	20.48	-42.9	-47.7	10.3	5.06e-03	0	60	0	402653184	56	6617
2026-01-15 11:32:13.90	248.91	20.53	-42.9	-47.6	10.4	4.46e-03	0	60	0	404750336	56	6545
2026-01-15 11:32:14.91	249.16	20.58	-42.9	-47.6	10.5	4.10e-03	0	60	0	406847488	56	6544
2026-01-15 11:32:15.92	249.40	20.63	-42.9	-47.6	10.5	4.13e-03	0	60	0	408944640	56	6501
2026-01-15 11:32:16.93	249.64	20.67	-42.8	-47.4	10.7	3.89e-03	0	60	0	411041792	56	6386
2026-01-15 11:32:17.94	249.88	20.72	-42.7	-47.2	10.9	2.67e-03	0	60	0	412090368	56	6225
2026-01-15 11:32:18.94	250.13	20.77	-42.6	-46.9	11.2	1.65e-03	0	60	0	414187520	56	6004
2026-01-15 11:32:19.95	250.37	20.81	-42.5	-46.8	11.3	1.17e-03	0	60	0	416284672	56	5942
2026-01-15 11:32:20.96	250.62	20.86	-42.4	-46.5	11.6	7.77e-04	0	60	0	418381824	56	5756
2026-01-15 11:32:21.97	250.86	20.90	-42.4	-46.5	11.6	6.67e-04	0	60	0	420478976	56	5752
2026-01-15 11:32:22.98	251.11	20.95	-42.5	-46.7	11.4	8.19e-04	0	60	0	421527552	56	5885
2026-01-15 11:32:23.99	251.36	20.99	-42.5	-46.8	11.3	1.09e-03	0	60	0	423624704	56	5949
2026-01-15 11:32:25.01	251.61	21.03	-42.7	-47.1	11.1	1.39e-03	0	60	0	425721856	56	6134
2026-01-15 11:32:26.02	251.86	21.08	-42.7	-47.2	10.8	1.80e-03	0	60	0	427819008	56	6267
2026-01-15 11:32:27.03	252.11	21.12	-42.8	-47.3	10.8	2.74e-03	0	60	0	429916160	56	6315
2026-01-15 11:32:28.04	252.36	21.16	-42.8	-47.4	10.7	2.82e-03	0	60	0	430964736	56	6403
2026-01-15 11:32:29.05	252.61	21.20	-42.8	-47.5	10.6	3.38e-03	0	60	0	433061888	56	6443
2026-01-15 11:32:30.06	252.86	21.24	-42.8	-47.4	10.7	3.32e-03	0	60	0	435159040	56	6395
2026-01-15 11:32:31.07	253.12	21.28	-42.8	-47.4	10.7	3.09e-03	0	60	0	437256192	56	6371
2026-01-15 11:32:32.08	253.37	21.33	-42.7	-47.2	10.9	2.59e-03	0	60	0	439353344	56	6272
2026-01-15 11:32:33.09	253.62	21.36	-42.7	-47.2	10.9	2.35e-03	0	60	0	441450496	56	6225
2026-01-15 11:32:34.10	253.88	21.40	-42.7	-47.1	11.0	1.94e-03	0	60	0	442499072	56	6185
2026-01-15 11:32:35.11	254.13	21.44	-42.6	-47.0	11.1	1.71e-03	0	60	0	444596224	56	6070
2026-01-15 11:32:36.12	254.39	21.48	-42.6	-46.9	11.2	1.46e-03	0	60	0	446693376	56	6032
2026-01-15 11:32:37.13	254.64	21.52	-42.6	-46.9	11.3	1.34e-03	0	60	0	448790528	56	6009
2026-01-15 11:32:38.14	254.90	21.56	-42.6	-47.0	11.1	1.45e-03	0	60	0	450887680	56	6088
2026-01-15 11:32:39.15	255.16	21.59	-42.7	-47.2	11.0	1.69e-03	0	60	0	451936256	56	6203
2026-01-15 11:32:40.16	255.42	21.63	-42.7	-47.2	10.9	2.03e-03	0	60	0	454033408	56	6219
2026-01-15 11:32:41.17	255.68	21.66	-42.7	-47.2	10.9	2.18e-03	0	60	0	456130560	56	6237
2026-01-15 11:32:42.18	255.93	21.70	-42.7	-47.1	11.0	2.00e-03	0	60	0	458227712	56	6149
2026-01-15 11:32:43.19	256.19	21.73	-42.6	-46.9	11.2	1.44e-03	0	60	0	460324864	56	6026
2026-01-15 11:32:44.20	256.46	21.77	-42.6	-46.8	11.3	1.21e-03	0	60	0	461373440	56	5969
2026-01-15 11:32:45.21	256.72	21.80	-42.5	-46.6	11.5	9.18e-04	0	60	0	463470592	56	5815
2026-01-15 11:32:46.22	256.98	21.83	-42.4	-46.5	11.6	6.84e-04	0	60	0	465567744	56	5764
2026-01-15 11:32:47.23	257.24	21.86	-42.4	-46.4	11.7	6.10e-04	0	60	0	467664896	56	5713
2026-01-15 11:32:48.24	257.50	21.90	-42.3	-46.2	11.9	4.86e-04	0	60	0	469762048	56	5586
2026-01-15 11:32:49.25	257.77	21.93	-42.3	-46.1	12.0	3.78e-04	0	60	0	470810624	56	5518
2026-01-15 11:32:50.26	258.03	21.96	-42.2	-46.2	12.0	3.43e-04	0	60	0	472907776	56	5529
2026-01-15 11:32:51.27	258.29	21.99	-42.3	-46.2	12.0	3.03e-04	0	60	0	475004928	56	5558
2026-01-15 11:32:52.28	258.56	22.02	-42.3	-46.2	12.0	3.25e-04	0	60	0	477102080	56	5562
2026-01-15 11:32:53.28	258.82	22.05	-42.3	-46.2	12.0	3.49e-04	0	60	0	479199232	56	5545
2026-01-15 11:32:54.29	259.09	22.07	-42.3	-46.2	12.0	3.65e-04	0	60	0	480247808	56	5567
2026-01-15 11:32:55.30	259.35	22.10	-42.2	-46.1	12.0	4.00e-04	0	60	0	482344960	56	5523
2026-01-15 11:32:56.31	259.62	22.13	-42.2	-46.1	12.0	3.02e-04	0	60	0	484442112	56	5519
2026-01-15 11:32:57.32	259.88	22.15	-42.3	-46.2	11.9	3.26e-04	0	60	0	486539264	56	5592
2026-01-15 11:32:58.33	260.15	22.18	-42.3	-46.3	11.8	4.10e-04	0	60	0	488636416	56	5619
2026-01-15 11:32:59.34	260.42	22.21	-42.4	-46.4	11.7	5.07e-04	0	60	0	489684992	56	5720
2026-01-15 11:33:00.35	260.69	22.23	-42.4	-46.5	11.6	5.98e-04	0	60	0	491782144	56	5761
2026-01-15 11:33:01.36	260.96	22.25	-42.5	-46.6	11.5	7.60e-04	0	60	0	493879296	56	5829
2026-01-15 11:33:02.37	261.22	22.28	-42.4	-46.5	11.5	7.46e-04	0	60	0	495976448	56	5777
2026-01-15 11:33:03.38	261.49	22.30	-42.5	-46.6	11.6	7.51e-04	0	60	0	498073600	56	5805
2026-01-15 11:33:04.39	261.76	22.32	-42.5	-46.6	11.5	7.13e-04	0	60	0	499122176	56	5808
2026-01-15 11:33:05.40	262.03	22.34	-42.5	-46.7	11.4	7.74e-04	0	60	0	501219328	56	5881
2026-01-15 11:33:06.41	262.30	22.36	-42.5	-46.7	11.4	9.46e-04	0	60	0	503316480	56	5902
2026-01-15 11:33:07.42	262.57	22.38	-42.6	-46.8	11.3	1.17e-03	0	60	0	505413632	56	5970
2026-01-15 11:33:08.43	262.85	22.40	-42.6	-47.0	11.1	1.40e-03	0	60	0	507510784	56	6080
2026-01-15 11:33:09.43	263.11	22.42	-42.7	-47.1	11.0	1.72e-03	0	60	0	509607936	56	6148
2026-01-15 11:33:10.44	263.39	22.44	-42.7	-47.2	11.0	1.89e-03	0	60	0	510656512	56	6205
2026-01-15 11:33:11.45	263.66	22.46	-42.7	-47.2	10.9	2.11e-03	0	60	0	512753664	56	6274
2026-01-15 11:33:12.46	263.93	22.48	-42.7	-47.2	10.9	2.24e-03	0	60	0	514850816	56	6246
2026-01-15 11:33:13.47	264.20	22.49	-42.7	-47.2	10.9	2.21e-03	0	60	0	516947968	56	6219
2026-01-15 11:33:14.48	264.48	22.51	-42.7	-47.2	10.9	1.94e-03	0	60	0	519045120	56	6225
2026-01-15 11:33:15.49	264.75	22.52	-42.7	-47.0	11.1	1.94e-03	0	60	0	520093696	56	6115
2026-01-15 11:33:16.49	265.02	22.54	-42.6	-47.0	11.2	1.57e-03	0	60	0	522190848	56	6064
2026-01-15 11:33:17.50	265.29	22.55	-42.6	-46.9	11.1	1.47e-03	0	60	0	524288000	56	6059
2026-01-15 11:33:18.51	265.57	22.56	-42.6	-46.9	11.2	1.34e-03	0	60	0	526385152	56	6052
2026-01-15 11:33:19.52	265.84	22.58	-42.5	-46.8	11.4	1.24e-03	0	60	0	528482304	56	5940
2026-01-15 11:33:20.53	266.12	22.59	-42.5	-46.7	11.5	8.83e-04	0	60	0	529530880	56	5868
2026-01-15 11:33:21.54	266.39	22.60	-42.4	-46.5	11.6	7.92e-04	0	60	0	531628032	56	5773
2026-01-15 11:33:22.54	266.66	22.61	-42.4	-46.5	11.7	6.45e-04	0	60	0	533725184	56	5752
2026-01-15 11:33:23.55	266.94	22.62	-42.4	-46.5	11.6	5.64e-04	0	60	0	535822336	56	5755
2026-01-15 11:33:24.55	267.21	22.63	-42.5	-46.6	11.5	6.44e-04	0	60	0	537919488	56	5845
2026-01-15 11:33:25.56	267.48	22.64	-42.5	-46.7	11.4	9.73e-04	0	60	0	538968064	56	5892
2026-01-15 11:33:26.57	267.76	22.64	-42.6	-46.9	11.2	1.12e-03	0	60	0	541065216	56	6005
2026-01-15 11:33:27.58	268.03	22.65	-42.6	-46.9	11.1	1.35e-03	0	60	0	543162368	56	6055
2026-01-15 11:33:28.59	268.31	22.66	-42.6	-46.9	11.2	1.36e-03	0	60	0	545259520	56	6000
2026-01-15 11:33:29.60	268.58	22.66	-42.6	-46.8	11.3	1.29e-03	0	60	0	547356672	56	5985
2026-01-15 11:33:30.61	268.86	22.67	-42.5	-46.8	11.3	1.16e-03	0	60	0	548405248	56	5937
2026-01-15 11:33:31.61	269.13	22.67	-42.5	-46.6	11.5	9.60e-04	0	60	0	550502400	56	5835
2026-01-15 11:33:32.62	269.41	22.68	-42.4	-46.5	11.6	7.67e-04	0	60	0	552599552	56	5771
2026-01-15 11:33:33.63	269.68	22.68	-42.3	-46.3	11.8	5.11e-04	0	60	0	554696704	56	5652
2026-01-15 11:33:34.64	269.96	22.68	-42.3	-46.2	12.0	4.04e-04	0	60	0	556793856	56	5556
2026-01-15 11:33:35.65	270.24	22.69	-42.3	-46.2	12.0	3.25e-04	0	60	0	557842432	56	5533
2026-01-15 11:33:36.66	270.51	22.69	-42.3	-46.3	11.9	3.78e-04	0	61	0	559939584	56	5615
2026-01-15 11:33:37.66	270.79	22.69	-42.4	-46.4	11.7	4.45e-04	0	60	0	562036736	56	5713
2026-01-15 11:33:38.67	271.06	22.69	-42.5	-46.6	11.5	7.70e-04	0	60	0	564133888	56	5843
2026-01-15 11:33:39.68	271.34	22.69	-42.5	-46.8	11.3	9.46e-04	0	60	0	566231040	56	5937
2026-01-15 11:33:40.69	271.61	22.68	-42.6	-46.8	11.3	1.19e-03	0	60	0	567279616	56	5978
2026-01-15 11:33:41.70	271.89	22.68	-42.5	-46.6	11.5	8.44e-04	0	60	0	569376768	56	5847
2026-01-15 11:33:42.71	272.16	22.68	-42.4	-46.6	11.5	8.37e-04	0	60	0	571473920	56	5812
2026-01-15 11:33:43.72	272.44	22.68	-42.4	-46.5	11.6	7.05e-04	0	60	0	573571072	56	5760
2026-01-15 11:33:44.73	272.72	22.67	-42.3	-46.4	11.8	6.70e-04	0	60	0	575668224	56	5664
2026-01-15 11:33:45.74	272.99	22.67	-42.2	-46.1	12.0	3.51e-04	0	60	0	576716800	56	5511
2026-01-15 11:33:46.75	273.27	22.66	-42.1	-45.9	12.2	2.68e-04	0	60	0	578813952	56	5399
2026-01-15 11:33:47.75	273.54	22.65	-42.1	-45.9	12.2	2.28e-04	0	60	0	580911104	56	5378
2026-01-15 11:33:48.76	273.81	22.65	-42.2	-46.0	12.1	2.31e-04	0	61	0	583008256	56	5437
2026-01-15 11:33:49.77	274.09	22.64	-42.3	-46.2	12.0	2.79e-04	0	60	0	585105408	56	5554
2026-01-15 11:33:50.79	274.37	22.63	-42.4	-46.5	11.5	5.14e-04	0	60	0	586153984	56	5779
2026-01-15 11:33:51.80	274.64	22.62	-42.6	-46.9	11.2	1.16e-03	0	60	0	588251136	56	6032
2026-01-15 11:33:52.80	274.91	22.61	-42.7	-47.1	11.0	1.68e-03	0	60	0	590348288	56	6132
2026-01-15 11:33:53.81	275.19	22.60	-42.7	-47.1	11.0	1.93e-03	0	60	0	592445440	56	6169
2026-01-15 11:33:54.82	275.46	22.59	-42.7	-47.2	10.9	1.92e-03	0	60	0	594542592	56	6220
2026-01-15 11:33:55.83	275.74	22.58	-42.7	-47.2	10.9	2.07e-03	0	61	0	595591168	56	6224
2026-01-15 11:33:56.83	276.01	22.57	-42.7	-47.1	10.9	2.08e-03	0	60	0	597688320	56	6183
2026-01-15 11:33:57.84	276.28	22.55	-42.7	-47.2	10.9	2.17e-03	0	60	0	599785472	56	6232
2026-01-15 11:33:58.85	276.55	22.54	-42.7	-47.1	11.0	1.94e-03	0	61	0	601882624	56	6135
2026-01-15 11:33:59.86	276.83	22.53	-42.6	-46.9	11.2	1.52e-03	0	61	0	603979776	56	6032
2026-01-15 11:34:00.87	277.10	22.51	-42.5	-46.7	11.4	1.29e-03	0	60	0	606076928	56	5884
2026-01-15 11:34:01.88	277.37	22.50	-42.4	-46.6	11.6	7.64e-04	0	61	0	607125504	56	5813
2026-01-15 11:34:02.88	277.64	22.48	-42.3	-46.3	11.8	6.00e-04	0	60	0	609222656	56	5640
2026-01-15 11:34:03.89	277.91	22.46	-42.3	-46.2	11.9	4.52e-04	0	60	0	611319808	56	5583
2026-01-15 11:34:04.90	278.18	22.45	-42.3	-46.2	11.9	3.82e-04	0	61	0	613416960	56	5549
2026-01-15 11:34:05.91	278.46	22.43	-42.4	-46.4	11.7	4.52e-04	0	60	0	615514112	56	5694
2026-01-15 11:34:06.92	278.73	22.41	-42.4	-46.6	11.5	6.32e-04	0	60	0	616562688	56	5824
2026-01-15 11:34:07.93	279.00	22.39	-42.6	-46.9	11.2	1.25e-03	0	60	0	618659840	56	6023
2026-01-15 11:34:08.94	279.27	22.37	-42.7	-47.2	10.9	1.96e-03	0	60	0	620756992	56	6211
2026-01-15 11:34:09.95	279.54	22.35	-42.7	-47.2	10.9	2.53e-03	0	60	0	622854144	56	6253
2026-01-15 11:34:10.96	279.81	22.33	-42.6	-47.0	11.0	2.24e-03	0	60	0	624951296	56	6119
2026-01-15 11:34:11.97	280.08	22.31	-42.6	-46.9	11.2	1.64e-03	0	60	0	625999872	56	6024
2026-01-15 11:34:12.98	280.35	22.28	-42.5	-46.8	11.3	1.25e-03	0	60	0	628097024	56	5941
2026-01-15 11:34:13.99	280.61	22.26	-42.4	-46.6	11.5	9.28e-04	0	60	0	630194176	56	5825
2026-01-15 11:34:15.00	280.88	22.24	-42.5	-46.7	11.5	8.08e-04	0	60	0	632291328	56	5877
2026-01-15 11:34:16.01	281.15	22.21	-42.4	-46.5	11.6	7.13e-04	0	61	0	634388480	56	5750
2026-01-15 11:34:17.02	281.42	22.19	-42.4	-46.4	11.6	7.01e-04	0	60	0	635437056	56	5713
2026-01-15 11:34:18.03	281.68	22.16	-42.3	-46.3	11.8	5.74e-04	0	60	0	637534208	56	5623
2026-01-15 11:34:19.04	281.95	22.14	-42.3	-46.3	11.9	4.22e-04	0	61	0	639631360	56	5596
2026-01-15 11:34:20.05	282.22	22.11	-42.3	-46.2	11.9	3.86e-04	0	61	0	641728512	56	5571
2026-01-15 11:34:21.06	282.48	22.08	-42.2	-46.2	11.9	3.97e-04	0	60	0	643825664	56	5546
2026-01-15 11:34:22.07	282.75	22.05	-42.3	-46.2	11.9	3.81e-04	0	61	0	644874240	56	5559
2026-01-15 11:34:23.08	283.01	22.03	-42.3	-46.3	11.8	4.74e-04	0	60	0	646971392	56	5646
2026-01-15 11:34:24.09	283.28	22.00	-42.4	-46.4	11.7	5.66e-04	0	60	0	649068544	56	5716
2026-01-15 11:34:25.10	283.54	21.97	-42.4	-46.5	11.6	6.34e-04	0	60	0	651165696	56	5726
2026-01-15 11:34:26.11	283.80	21.94	-42.3	-46.3	11.8	6.12e-04	0	61	0	653262848	56	5630
2026-01-15 11:34:27.12	284.06	21.91	-42.2	-46.1	12.0	3.71e-04	0	61	0	654311424	56	5505
2026-01-15 11:34:28.13	284.33	21.88	-42.2	-46.0	12.1	3.30e-04	0	60	0	656408576	56	5455
2026-01-15 11:34:29.14	284.59	21.84	-42.2	-46.0	12.1	2.80e-04	0	60	0	658505728	56	5441
2026-01-15 11:34:30.15	284.85	21.81	-42.1	-45.9	12.1	2.76e-04	0	60	0	660602880	56	5399
2026-01-15 11:34:31.15	285.11	21.78	-42.2	-46.0	12.1	2.68e-04	0	61	0	662700032	56	5443
2026-01-15 11:34:32.16	285.37	21.74	-42.2	-46.1	11.9	3.39e-04	0	60	0	663748608	56	5526
2026-01-15 11:34:33.17	285.63	21.71	-42.3	-46.3	11.8	4.24e-04	0	60	0	665845760	56	5606
2026-01-15 11:34:34.18	285.88	21.68	-42.4	-46.4	11.7	5.44e-04	0	60	0	667942912	56	5703
2026-01-15 11:34:35.19	286.14	21.64	-42.3	-46.4	11.7	5.52e-04	0	60	0	670040064	56	5657
2026-01-15 11:34:36.20	286.40	21.60	-42.3	-46.2	11.8	5.38e-04	0	60	0	672137216	56	5575
2026-01-15 11:34:37.21	286.66	21.57	-42.2	-46.1	12.0	3.11e-04	0	60	0	674234368	56	5488
2026-01-15 11:34:38.22	286.91	21.53	-42.1	-45.9	12.2	2.93e-04	0	61	0	675282944	56	5383
2026-01-15 11:34:39.23	287.17	21.49	-42.0	-45.8	12.4	1.78e-04	0	60	0	677380096	56	5288
2026-01-15 11:34:40.24	287.42	21.46	-41.8	-45.5	12.5	1.30e-04	0	60	0	679477248	55	5407
2026-01-15 11:34:41.25	287.68	21.42	-41.8	-45.4	12.6	1.01e-04	0	60	0	681574400	55	5354
2026-01-15 11:34:42.26	287.93	21.38	-41.6	-45.1	12.8	6.94e-05	0	60	0	683671552	55	5200
2026-01-15 11:34:43.27	288.19	21.34	-41.5	-45.0	13.0	5.41e-05	0	60	0	684720128	55	5102
2026-01-15 11:34:44.28	288.44	21.30	-41.4	-44.8	13.2	2.05e-05	0	60	0	686817280	54	5302
2026-01-15 11:34:45.29	288.69	21.26	-41.3	-44.6	13.4	1.60e-05	0	60	0	688914432	54	5190
2026-01-15 11:34:46.30	288.94	21.22	-41.4	-44.7	13.2	1.52e-05	0	60	0	691011584	54	5276
2026-01-15 11:34:47.31	289.19	21.18	-41.5	-44.9	13.1	2.28e-05	0	60	0	693108736	54	5358
2026-01-15 11:34:48.32	289.44	21.14	-41.6	-45.1	12.9	5.03e-05	0	60	0	694157312	54	5499
2026-01-15 11:34:49.33	289.69	21.09	-41.7	-45.3	12.6	6.63e-05	0	60	0	696254464	54	5632
2026-01-15 11:34:50.34	289.94	21.05	-41.8	-45.5	12.4	1.17e-04	0	60	0	698351616	54	5767
2026-01-15 11:34:51.35	290.19	21.01	-41.8	-45.5	12.5	1.42e-04	0	61	0	700448768	54	5730
2026-01-15 11:34:52.36	290.43	20.97	-41.8	-45.4	12.5	1.29e-04	0	60	0	702545920	54	5712
2026-01-15 11:34:53.37	290.68	20.92	-41.7	-45.4	12.6	8.92e-05	0	60	0	703594496	54	5672
2026-01-15 11:34:54.38	290.93	20.88	-41.7	-45.2	12.7	8.23e-05	0	61	0	705691648	54	5586
2026-01-15 11:34:55.38	291.17	20.83	-41.6	-45.2	12.8	8.08e-05	0	61	0	707788800	54	5532
2026-01-15 11:34:56.39	291.41	20.79	-41.6	-45.1	12.8	5.41e-05	0	61	0	709885952	54	5510
2026-01-15 11:34:57.40	291.66	20.74	-41.5	-45.0	13.0	3.81e-05	0	60	0	711983104	54	5417
2026-01-15 11:34:58.41	291.90	20.69	-41.4	-44.7	13.3	2.89e-05	0	60	0	713031680	54	5242
2026-01-15 11:34:59.42	292.14	20.65	-41.3	-44.5	13.5	1.52e-05	0	60	0	715128832	54	5133
2026-01-15 11:35:00.43	292.38	20.60	-41.2	-44.4	13.6	1.06e-05	0	60	0	717225984	54	5042
2026-01-15 11:35:01.43	292.62	20.55	-41.1	-44.2	13.8	3.80e-06	0	61	0	719323136	54	4942
2026-01-15 11:35:02.44	292.86	20.51	-41.1	-44.2	13.8	3.80e-06	0	60	0	721420288	54	4928
2026-01-15 11:35:03.45	293.10	20.46	-41.0	-44.1	13.8	3.80e-06	0	60	0	722468864	54	4916
2026-01-15 11:35:04.46	293.34	20.41	-41.1	-44.2	13.8	3.00e-06	0	61	0	724566016	54	4948
2026-01-15 11:35:05.47	293.58	20.36	-41.1	-44.2	13.7	5.30e-06	0	61	0	726663168	54	4977
2026-01-15 11:35:06.48	293.82	20.31	-41.2	-44.3	13.6	3.80e-06	0	60	0	728760320	54	5031
2026-01-15 11:35:07.49	294.05	20.26	-41.2	-44.4	13.5	9.10e-06	0	61	0	730857472	54	5070
2026-01-15 11:35:08.50	294.29	20.21	-41.3	-44.5	13.4	9.90e-06	0	61	0	731906048	54	5136
2026-01-15 11:35:09.51	294.52	20.16	-41.3	-44.6	13.3	1.52e-05	0	61	0	734003200	54	5213
2026-01-15 11:35:10.52	294.76	20.11	-41.4	-44.8	13.2	2.59e-05	0	61	0	736100352	54	5306
2026-01-15 11:35:11.52	294.99	20.06	-41.5	-45.0	12.9	2.97e-05	0	60	0	738197504	54	5426
2026-01-15 11:35:12.54	295.22	20.01	-41.6	-45.2	12.8	5.87e-05	0	61	0	740294656	54	5531
2026-01-15 11:35:13.54	295.45	19.95	-41.7	-45.4	12.5	9.91e-05	0	61	0	742391808	54	5672
2026-01-15 11:35:14.55	295.68	19.90	-41.8	-45.5	12.4	1.32e-04	0	61	0	743440384	54	5775
2026-01-15 11:35:15.56	295.91	19.85	-41.8	-45.5	12.3	1.72e-04	0	61	0	745537536	54	5784
2026-01-15 11:35:16.57	296.14	19.80	-41.8	-45.5	12.4	1.54e-04	0	60	0	747634688	54	5750
2026-01-15 11:35:17.59	296.37	19.74	-41.7	-45.4	12.5	1.22e-04	0	60	0	749731840	54	5670
2026-01-15 11:35:18.60	296.60	19.69	-41.6	-45.2	12.7	9.23e-05	0	61	0	751828992	54	5578
2026-01-15 11:35:19.61	296.83	19.63	-41.6	-45.1	12.8	6.94e-05	0	60	0	752877568	54	5524
2026-01-15 11:35:20.62	297.06	19.58	-41.6	-45.1	12.8	6.48e-05	0	61	0	754974720	54	5486
2026-01-15 11:35:21.62	297.28	19.53	-41.6	-45.1	12.8	6.63e-05	0	61	0	757071872	54	5490
2026-01-15 11:35:22.63	297.50	19.47	-41.5	-45.1	12.9	5.64e-05	0	61	0	759169024	54	5465
2026-01-15 11:35:23.64	297.73	19.42	-41.5	-45.0	12.9	4.88e-05	0	60	0	760217600	54	5462
2026-01-15 11:35:24.65	297.95	19.36	-41.6	-45.1	12.9	5.64e-05	0	60	0	762314752	54	5467
2026-01-15 11:35:25.66	298.17	19.30	-41.6	-45.2	12.7	4.57e-05	0	61	0	764411904	54	5535
2026-01-15 11:35:26.66	298.39	19.25	-41.7	-45.4	12.5	9.07e-05	0	61	0	766509056	54	5662
2026-01-15 11:35:27.67	298.61	19.19	-41.8	-45.6	12.2	1.81e-04	0	60	0	768606208	54	5843
2026-01-15 11:35:28.68	298.83	19.14	-42.0	-46.0	11.8	3.09e-04	0	61	0	770703360	54	6100
2026-01-15 11:35:29.69	299.05	19.08	-42.2	-46.3	11.5	6.98e-04	0	60	0	771751936	54	6317
2026-01-15 11:35:30.70	299.27	19.02	-42.2	-46.5	11.3	1.06e-03	0	61	0	773849088	55	6090
2026-01-15 11:35:31.70	299.49	18.96	-42.3	-46.5	11.3	1.14e-03	0	61	0	775946240	55	6092
2026-01-15 11:35:32.71	299.70	18.91	-42.3	-46.6	11.2	1.36e-03	0	61	0	778043392	55	6179
2026-01-15 11:35:33.72	299.92	18.85	-42.3	-46.6	11.1	1.47e-03	0	61	0	780140544	55	6197
2026-01-15 11:35:34.73	300.13	18.79	-42.4	-46.7	11.0	1.57e-03	0	61	0	781189120	55	6267
2026-01-15 11:35:35.74	300.35	18.73	-42.4	-46.8	11.0	1.82e-03	0	61	0	783286272	55	6302
2026-01-15 11:35:36.75	300.56	18.67	-42.3	-46.7	11.1	1.76e-03	0	61	0	785383424	55	6244
2026-01-15 11:35:37.76	300.77	18.61	-42.3	-46.7	11.1	1.68e-03	0	60	0	787480576	55	6232
2026-01-15 11:35:38.76	300.98	18.55	-42.3	-46.5	11.3	1.44e-03	0	61	0	789577728	55	6114
2026-01-15 11:35:39.77	301.19	18.50	-42.2	-46.5	11.3	1.13e-03	0	61	0	790626304	55	6077
2026-01-15 11:35:40.78	301.40	18.44	-42.2	-46.4	11.4	9.30e-04	0	61	0	792723456	55	6008
2026-01-15 11:35:41.79	301.61	18.38	-42.1	-46.3	11.5	8.47e-04	0	61	0	794820608	55	5935
2026-01-15 11:35:42.80	301.82	18.32	-42.1	-46.1	11.6	6.82e-04	0	60	0	796917760	55	5849
2026-01-15 11:35:43.81	302.03	18.25	-42.1	-46.2	11.7	6.54e-04	0	61	0	799014912	55	5863
2026-01-15 11:35:44.82	302.24	18.19	-42.1	-46.2	11.6	7.24e-04	0	60	0	800063488	55	5899
2026-01-15 11:35:45.82	302.44	18.13	-42.1	-46.2	11.6	7.24e-04	0	61	0	802160640	55	5882
2026-01-15 11:35:46.83	302.65	18.07	-42.1	-46.2	11.5	7.39e-04	0	61	0	804257792	55	5910
2026-01-15 11:35:47.84	302.85	18.01	-42.2	-46.4	11.4	9.10e-04	0	61	0	806354944	55	6018
2026-01-15 11:35:48.84	303.05	17.95	-42.3	-46.5	11.3	1.21e-03	0	61	0	808452096	55	6119
2026-01-15 11:35:49.85	303.26	17.89	-42.3	-46.6	11.1	1.42e-03	0	61	0	809500672	55	6198
2026-01-15 11:35:50.86	303.46	17.83	-42.3	-46.6	11.1	1.58e-03	0	61	0	811597824	55	6196
2026-01-15 11:35:51.88	303.66	17.76	-42.4	-46.8	11.0	1.69e-03	0	61	0	813694976	55	6286
2026-01-15 11:35:52.89	303.86	17.70	-42.4	-46.8	11.0	1.97e-03	0	60	0	815792128	55	6289
2026-01-15 11:35:53.90	304.06	17.64	-42.4	-46.8	10.9	1.77e-03	0	60	0	817889280	55	6342
2026-01-15 11:35:54.90	304.26	17.58	-42.3	-46.8	11.0	2.16e-03	0	60	0	818937856	55	6277
2026-01-15 11:35:55.91	304.46	17.52	-42.3	-46.6	11.2	1.58e-03	0	60	0	821035008	55	6143
2026-01-15 11:35:56.92	304.65	17.45	-42.2	-46.5	11.3	1.31e-03	0	61	0	823132160	55	6093
2026-01-15 11:35:57.93	304.85	17.39	-42.1	-46.2	11.6	1.03e-03	0	60	0	825229312	55	5904
2026-01-15 11:35:58.94	305.05	17.33	-42.0	-46.0	11.7	5.46e-04	0	61	0	827326464	55	5778
2026-01-15 11:35:59.95	305.24	17.26	-41.9	-45.9	11.9	4.99e-04	0	61	0	828375040	55	5693
2026-01-15 11:36:00.96	305.43	17.20	-41.9	-45.9	11.9	3.62e-04	0	61	0	830472192	55	5669
2026-01-15 11:36:01.96	305.63	17.14	-41.9	-45.9	11.9	3.91e-04	0	60	0	832569344	55	5662
2026-01-15 11:36:02.97	305.82	17.07	-41.9	-45.9	11.9	3.98e-04	0	61	0	834666496	55	5700
2026-01-15 11:36:03.98	306.01	17.01	-42.0	-46.0	11.8	5.05e-04	0	60	0	836763648	55	5768
2026-01-15 11:36:04.98	306.20	16.95	-42.0	-45.9	11.8	4.92e-04	0	61	0	837812224	55	5709
2026-01-15 11:36:05.99	306.39	16.88	-42.0	-46.0	11.8	4.74e-04	0	61	0	839909376	55	5746
2026-01-15 11:36:07.00	306.58	16.82	-42.0	-46.0	11.8	5.48e-04	0	61	0	842006528	55	5723
2026-01-15 11:36:08.01	306.77	16.75	-41.9	-45.9	11.9	4.32e-04	0	60	0	844103680	55	5679
2026-01-15 11:36:09.02	306.95	16.69	-42.0	-45.9	11.8	4.49e-04	0	61	0	846200832	55	5719
2026-01-15 11:36:10.03	307.14	16.62	-42.0	-46.0	11.7	5.52e-04	0	60	0	847249408	55	5762
2026-01-15 11:36:11.04	307.33	16.56	-42.1	-46.2	11.5	5.84e-04	0	61	0	849346560	55	5877
2026-01-15 11:36:12.05	307.51	16.49	-42.2	-46.6	11.2	1.23e-03	0	61	0	851443712	55	6132
2026-01-15 11:36:13.06	307.70	16.43	-42.3	-46.6	11.1	1.62e-03	0	61	0	853540864	55	6202
2026-01-15 11:36:14.07	307.88	16.36	-42.4	-46.9	10.8	2.03e-03	0	61	0	855638016	55	6380
2026-01-15 11:36:15.08	308.06	16.30	-42.4	-46.9	10.8	2.67e-03	0	61	0	856686592	55	6365
2026-01-15 11:36:16.08	308.24	16.23	-42.4	-46.9	10.9	2.42e-03	0	60	0	858783744	55	6348
2026-01-15 11:36:17.09	308.43	16.17	-42.3	-46.7	11.1	2.15e-03	0	61	0	860880896	55	6207
2026-01-15 11:36:18.10	308.61	16.10	-42.2	-46.5	11.2	1.43e-03	0	60	0	862978048	55	6120
2026-01-15 11:36:19.11	308.79	16.04	-42.1	-46.3	11.4	9.97e-04	0	61	0	865075200	55	5960
2026-01-15 11:36:20.12	308.97	15.97	-42.0	-46.1	11.6	7.85e-04	0	61	0	867172352	55	5813
2026-01-15 11:36:21.13	309.14	15.91	-42.1	-46.2	11.5	6.44e-04	0	61	0	868220928	55	5897
2026-01-15 11:36:22.14	309.32	15.84	-42.1	-46.3	11.4	9.09e-04	0	61	0	870318080	55	5947
2026-01-15 11:36:23.15	309.50	15.78	-42.2	-46.4	11.3	1.01e-03	0	61	0	872415232	55	6037
2026-01-15 11:36:24.16	309.68	15.71	-42.2	-46.5	11.2	1.26e-03	0	60	0	874512384	55	6113
2026-01-15 11:36:25.17	309.85	15.64	-42.1	-46.4	11.3	1.29e-03	0	61	0	876609536	55	6018
2026-01-15 11:36:26.18	310.03	15.58	-42.1	-46.3	11.3	1.07e-03	0	61	0	877658112	55	5986
2026-01-15 11:36:27.19	310.20	15.51	-42.0	-46.2	11.5	9.65e-04	0	61	0	879755264	55	5858
2026-01-15 11:36:28.19	310.37	15.45	-41.9	-45.9	11.7	5.67e-04	0	61	0	881852416	55	5722
2026-01-15 11:36:29.20	310.54	15.38	-41.9	-46.0	11.8	5.39e-04	0	60	0	883949568	55	5732
2026-01-15 11:36:30.21	310.71	15.31	-41.9	-45.9	11.8	5.28e-04	0	61	0	886046720	55	5697
2026-01-15 11:36:31.22	310.89	15.25	-42.0	-46.0	11.6	5.45e-04	0	61	0	887095296	55	5786
2026-01-15 11:36:32.23	311.06	15.18	-42.1	-46.2	11.4	8.25e-04	0	60	0	889192448	55	5920
2026-01-15 11:36:33.24	311.23	15.11	-42.1	-46.4	11.3	1.07e-03	0	60	0	891289600	55	6030
2026-01-15 11:36:34.25	311.39	15.05	-42.3	-46.7	11.0	1.43e-03	0	60	0	893386752	55	6220
2026-01-15 11:36:35.26	311.56	14.98	-42.2	-46.6	11.1	1.73e-03	0	61	0	895483904	55	6133
2026-01-15 11:36:36.27	311.73	14.91	-42.2	-46.5	11.1	1.65e-03	0	60	0	896532480	55	6105
2026-01-15 11:36:37.28	311.90	14.85	-42.1	-46.3	11.4	1.24e-03	0	60	0	898629632	55	5925
2026-01-15 11:36:38.29	312.06	14.78	-42.0	-46.1	11.6	7.53e-04	0	61	0	900726784	55	5811
2026-01-15 11:36:39.30	312.23	14.71	-41.9	-46.0	11.7	5.85e-04	0	60	0	902823936	55	5736
2026-01-15 11:36:40.30	312.39	14.65	-41.9	-45.9	11.8	5.02e-04	0	61	0	904921088	55	5678
2026-01-15 11:36:41.31	312.55	14.58	-41.9	-45.9	11.8	4.80e-04	0	60	0	905969664	55	5677
2026-01-15 11:36:42.32	312.72	14.51	-42.0	-46.1	11.6	6.17e-04	0	60	0	908066816	55	5813
2026-01-15 11:36:43.33	312.88	14.45	-42.1	-46.3	11.3	8.98e-04	0	61	0	910163968	55	5991
2026-01-15 11:36:44.34	313.04	14.38	-42.2	-46.5	11.1	1.29e-03	0	60	0	912261120	55	6106
2026-01-15 11:36:45.34	313.20	14.31	-42.2	-46.7	10.9	1.85e-03	0	61	0	914358272	55	6221
2026-01-15 11:36:46.35	313.36	14.25	-42.3	-46.7	10.9	2.32e-03	0	60	0	915406848	55	6255
2026-01-15 11:36:47.36	313.52	14.18	-42.2	-46.5	11.1	2.04e-03	0	61	0	917504000	55	6124
2026-01-15 11:36:48.36	313.67	14.11	-42.1	-46.3	11.3	1.32e-03	0	61	0	919601152	55	5976
2026-01-15 11:36:49.37	313.83	14.05	-42.0	-46.2	11.4	9.53e-04	0	60	0	921698304	55	5878
2026-01-15 11:36:50.38	313.99	13.98	-41.9	-45.9	11.7	7.32e-04	0	61	0	923795456	55	5693
2026-01-15 11:36:51.39	314.15	13.91	-41.9	-45.9	11.7	4.98e-04	0	60	0	924844032	55	5695
2026-01-15 11:36:52.40	314.30	13.85	-41.9	-45.9	11.7	5.13e-04	0	61	0	926941184	55	5697
2026-01-15 11:36:53.41	314.46	13.78	-41.9	-45.9	11.7	5.91e-04	0	60	0	929038336	55	5719
2026-01-15 11:36:54.42	314.61	13.71	-42.0	-46.3	11.3	1.00e-03	0	61	0	931135488	55	5924
2026-01-15 11:36:55.43	314.77	13.65	-42.1	-46.4	11.2	1.38e-03	0	61	0	933232640	55	6044
2026-01-15 11:36:56.44	314.92	13.58	-42.2	-46.7	10.9	1.82e-03	0	61	0	935329792	55	6229
2026-01-15 11:36:57.45	315.07	13.51	-42.3	-46.9	10.7	2.96e-03	0	61	0	936378368	55	6366
2026-01-15 11:36:58.47	315.23	13.44	-42.3	-46.9	10.6	3.28e-03	0	61	0	938475520	55	6406
2026-01-15 11:36:59.47	315.38	13.38	-42.3	-46.9	10.6	3.15e-03	0	61	0	940572672	55	6405
2026-01-15 11:37:00.48	315.53	13.31	-42.3	-46.9	10.7	3.34e-03	0	61	0	942669824	55	6379
2026-01-15 11:37:01.49	315.68	13.24	-42.2	-46.7	10.9	2.48e-03	0	60	0	943718400	55	6220
2026-01-15 11:37:02.50	315.82	13.18	-42.2	-46.6	10.9	2.14e-03	0	61	0	945815552	55	6166
2026-01-15 11:37:03.51	315.97	13.11	-42.1	-46.6	11.0	1.93e-03	0	60	0	947912704	55	6133
2026-01-15 11:37:04.52	316.12	13.04	-42.2	-46.6	11.0	1.86e-03	0	61	0	950009856	55	6146
2026-01-15 11:37:05.53	316.27	12.98	-42.2	-46.7	10.9	2.18e-03	0	61	0	952107008	55	6216
2026-01-15 11:37:06.54	316.42	12.91	-42.2	-46.8	10.8	2.52e-03	0	61	0	953155584	55	6304
2026-01-15 11:37:07.55	316.56	12.84	-42.3	-46.9	10.6	3.44e-03	0	61	0	955252736	55	6420
2026-01-15 11:37:08.56	316.71	12.78	-42.3	-47.0	10.5	3.87e-03	0	61	0	957349888	55	6457
2026-01-15 11:37:09.57	316.85	12.71	-42.4	-47.1	10.4	4.39e-03	0	61	0	959447040	55	6551
2026-01-15 11:37:10.58	317.00	12.64	-42.3	-47.1	10.4	4.55e-03	0	61	0	961544192	55	6501
2026-01-15 11:37:11.59	317.14	12.58	-42.3	-47.0	10.5	4.02e-03	0	61	0	963641344	55	6432
2026-01-15 11:37:12.60	317.28	12.51	-42.2	-46.8	10.7	3.45e-03	0	61	0	964689920	55	6289
2026-01-15 11:37:13.61	317.42	12.44	-42.1	-46.6	11.0	2.17e-03	0	61	0	966787072	55	6133
2026-01-15 11:37:14.62	317.57	12.37	-42.1	-46.4	11.1	1.62e-03	0	61	0	968884224	55	6030
2026-01-15 11:37:15.63	317.71	12.31	-42.0	-46.3	11.2	1.55e-03	0	61	0	970981376	55	5987
2026-01-15 11:37:16.63	317.85	12.24	-42.0	-46.2	11.2	1.35e-03	0	61	0	973078528	55	5918
2026-01-15 11:37:17.64	317.98	12.18	-42.0	-46.4	11.2	1.37e-03	0	61	0	974127104	55	6007
2026-01-15 11:37:18.65	318.12	12.11	-42.1	-46.4	11.0	1.64e-03	0	61	0	976224256	55	6056
2026-01-15 11:37:19.66	318.26	12.04	-42.2	-46.7	10.8	2.16e-03	0	61	0	978321408	55	6250
2026-01-15 11:37:20.67	318.40	11.98	-42.2	-46.8	10.6	3.17e-03	0	60	0	980418560	55	6333
2026-01-15 11:37:21.68	318.54	11.91	-42.3	-47.1	10.3	4.30e-03	0	61	0	982515712	55	6544
2026-01-15 11:37:22.69	318.67	11.84	-42.4	-47.3	10.1	5.98e-03	0	61	0	983564288	55	6716
2026-01-15 11:37:23.70	318.81	11.78	-42.4	-47.3	10.1	6.65e-03	0	61	0	985661440	55	6687
2026-01-15 11:37:24.71	318.95	11.71	-42.4	-47.3	10.1	6.36e-03	0	60	0	987758592	55	6655
2026-01-15 11:37:25.71	319.08	11.64	-42.3	-47.2	10.2	6.25e-03	0	61	0	989855744	55	6615
2026-01-15 11:37:26.72	319.21	11.58	-42.3	-47.1	10.3	5.13e-03	0	61	0	991952896	55	6498
2026-01-15 11:37:27.73	319.35	11.51	-42.2	-47.0	10.4	4.32e-03	0	60	0	993001472	55	6448
2026-01-15 11:37:28.74	319.48	11.45	-42.2	-47.0	10.5	4.00e-03	0	60	0	995098624	55	6428
2026-01-15 11:37:29.75	319.61	11.38	-42.2	-46.8	10.6	3.70e-03	0	61	0	997195776	55	6331
2026-01-15 11:37:30.76	319.75	11.31	-42.2	-46.9	10.5	3.96e-03	0	61	0	999292928	55	6415
2026-01-15 11:37:31.77	319.88	11.25	-42.2	-47.1	10.4	4.31e-03	0	61	0	1001390080	55	6495
2026-01-15 11:37:32.78	320.01	11.18	-42.3	-47.1	10.2	4.79e-03	0	61	0	1002438656	55	6549
2026-01-15 11:37:33.79	320.14	11.12	-42.3	-47.3	10.1	6.70e-03	0	61	0	1004535808	55	6673
2026-01-15 11:37:34.80	320.27	11.05	-42.4	-47.3	10.0	7.42e-03	0	60	0	1006632960	55	6695
2026-01-15 11:37:35.81	320.40	10.98	-42.4	-47.4	9.9	7.70e-03	0	61	0	1008730112	55	6762
2026-01-15 11:37:36.82	320.53	10.92	-42.4	-47.4	9.9	8.94e-03	0	61	0	1010827264	55	6781
2026-01-15 11:37:37.83	320.65	10.85	-42.4	-47.4	10.0	7.97e-03	0	61	0	1011875840	55	6735
2026-01-15 11:37:38.84	320.78	10.79	-42.4	-47.4	10.0	8.31e-03	0	61	0	1013972992	55	6743
2026-01-15 11:37:39.85	320.91	10.72	-42.4	-47.4	10.0	7.98e-03	0	61	0	1016070144	55	6732
2026-01-15 11:37:40.85	321.03	10.66	-42.3	-47.3	10.0	7.68e-03	0	61	0	1018167296	55	6661
2026-01-15 11:37:41.86	321.16	10.59	-42.3	-47.2	10.2	6.77e-03	0	61	0	1020264448	55	6600
2026-01-15 11:37:42.87	321.28	10.53	-42.3	-47.2	10.1	6.20e-03	0	61	0	1021313024	55	6644
2026-01-15 11:37:43.88	321.41	10.46	-42.4	-47.4	9.9	7.76e-03	0	61	0	1023410176	55	6751
2026-01-15 11:37:44.89	321.53	10.39	-42.4	-47.5	9.8	9.18e-03	0	61	0	1025507328	55	6857
2026-01-15 11:37:45.90	321.66	10.33	-42.5	-47.8	9.5	1.23e-02	0	61	0	1027604480	55	7056
2026-01-15 11:37:46.91	321.78	10.26	-42.6	-48.0	9.3	1.71e-02	0	61	0	1029701632	55	7230
2026-01-15 11:37:47.92	321.90	10.20	-42.6	-48.2	9.1	2.11e-02	0	61	0	1030750208	55	7382
2026-01-15 11:37:48.93	322.02	10.13	-42.6	-48.2	9.0	2.40e-02	0	61	0	1032847360	55	7435
2026-01-15 11:37:49.94	322.15	10.07	-42.6	-48.3	8.9	2.70e-02	0	61	0	1034944512	55	7489
2026-01-15 11:37:50.95	322.27	10.00	-42.6	-48.3	9.0	2.68e-02	0	61	0	1037041664	55	7466
2026-01-15 11:37:51.96	322.39	9.94	-42.6	-48.2	9.0	2.50e-02	0	61	0	1039138816	55	7427
2026-01-15 11:37:52.97	322.51	9.87	-42.6	-48.2	9.0	2.47e-02	0	60	0	1041235968	55	7415
2026-01-15 11:37:53.98	322.63	9.81	-42.6	-48.1	9.1	2.36e-02	0	60	0	1042284544	55	7335
2026-01-15 11:37:54.99	322.75	9.74	-42.5	-47.9	9.3	2.01e-02	0	61	0	1044381696	55	7152
2026-01-15 11:37:56.00	322.87	9.68	-42.4	-47.7	9.5	1.48e-02	0	61	0	1046478848	55	6993
2026-01-15 11:37:57.01	322.98	9.62	-42.4	-47.6	9.6	1.25e-02	0	61	0	1048576000	55	6902
2026-01-15 11:37:58.02	323.10	9.55	-42.3	-47.4	9.8	1.11e-02	0	61	0	1050673152	55	6788
2026-01-15 11:37:59.03	323.22	9.49	-42.3	-47.4	9.8	1.00e-02	0	61	0	1051721728	55	6762
2026-01-15 11:38:00.04	323.33	9.42	-42.3	-47.3	10.0	8.36e-03	0	61	0	1053818880	55	6649
2026-01-15 11:38:01.05	323.45	9.36	-42.3	-47.3	9.9	8.57e-03	0	60	0	1055916032	55	6700
2026-01-15 11:38:02.05	323.56	9.29	-42.3	-47.2	10.0	8.63e-03	0	60	0	1058013184	55	6630
2026-01-15 11:38:03.06	323.68	9.23	-42.3	-47.3	9.8	9.34e-03	0	61	0	1060110336	55	6707
2026-01-15 11:38:04.07	323.79	9.17	-42.4	-47.5	9.7	1.07e-02	0	61	0	1061158912	55	6872
2026-01-15 11:38:05.08	323.91	9.10	-42.3	-47.5	9.6	1.24e-02	0	61	0	1063256064	55	6870
2026-01-15 11:38:06.09	324.02	9.04	-42.4	-47.7	9.4	1.49e-02	0	60	0	1065353216	55	7022
2026-01-15 11:38:07.10	324.14	8.97	-42.4	-47.7	9.4	1.50e-02	0	61	0	1067450368	55	6996
2026-01-15 11:38:08.11	324.25	8.91	-42.4	-47.8	9.3	1.59e-02	0	61	0	1069547520	55	7085
2026-01-15 11:38:09.12	324.36	8.85	-42.4	-47.8	9.3	1.76e-02	0	61	0	1070596096	55	7120
2026-01-15 11:38:10.13	324.47	8.78	-42.4	-47.8	9.4	1.90e-02	0	61	0	1072693248	55	7082
2026-01-15 11:38:11.14	324.58	8.72	-42.4	-47.9	9.3	1.79e-02	0	61	0	1074790400	55	7124
2026-01-15 11:38:12.15	324.69	8.66	-42.5	-47.9	9.2	2.06e-02	0	61	0	1076887552	55	7186
2026-01-15 11:38:13.16	324.80	8.59	-42.4	-47.9	9.2	1.93e-02	0	61	0	1078984704	55	7147
2026-01-15 11:38:14.16	324.91	8.53	-42.5	-48.0	9.1	2.07e-02	0	61	0	1080033280	55	7275
2026-01-15 11:38:15.17	325.02	8.47	-42.5	-48.1	9.0	2.65e-02	0	61	0	1082130432	55	7315
2026-01-15 11:38:16.18	325.13	8.40	-42.5	-48.1	8.9	2.64e-02	0	61	0	1084227584	55	7371
2026-01-15 11:38:17.19	325.24	8.34	-42.6	-48.4	8.6	3.37e-02	0	61	0	1086324736	55	7602
2026-01-15 11:38:18.20	325.35	8.28	-42.6	-48.4	8.6	3.69e-02	0	61	0	1088421888	55	7587
2026-01-15 11:38:19.21	325.46	8.21	-42.6	-48.5	8.5	3.98e-02	0	61	0	1089470464	55	7692
2026-01-15 11:38:20.22	325.56	8.15	-42.6	-48.7	8.4	4.50e-02	0	61	0	1091567616	55	7809
2026-01-15 11:38:21.23	325.67	8.09	-42.6	-48.6	8.4	4.56e-02	0	61	0	1093664768	55	7736
2026-01-15 11:38:22.24	325.78	8.02	-42.7	-48.8	8.2	5.34e-02	0	61	0	1095761920	55	7918
2026-01-15 11:38:23.25	325.88	7.96	-44.4	-58.3	3.8	1.47e+00	0	61	104	1095761920	59	18881
2026-01-15 11:38:24.26	325.99	7.90	-44.7	-59.1	3.8	1.49e+00	0	61	104	1095761920	59	20633
2026-01-15 11:38:25.27	326.09	7.84	-44.8	-59.4	3.8	1.49e+00	0	61	104	1095761920	60	20076
2026-01-15 11:38:26.28	326.20	7.77	-45.0	-59.5	3.8	1.49e+00	0	61	104	1095761920	60	20418
2026-01-15 11:38:27.29	326.30	7.71	-45.1	-59.6	3.8	1.49e+00	0	61	104	1095761920	60	20710
2026-01-15 11:38:28.30	326.40	7.65	-45.2	-59.7	3.8	1.49e+00	0	61	104	1095761920	60	20868
2026-01-15 11:38:29.31	326.51	7.59	-45.2	-59.8	3.8	1.49e+00	0	61	104	1095761920	61	19874
2026-01-15 11:38:30.32	326.61	7.52	-45.2	-59.8	3.8	1.49e+00	0	61	104	1095761920	61	19890
2026-01-15 11:38:31.33	326.71	7.46	-44.5	-59.6	3.8	1.49e+00	0	61	104	1095761920	61	19441
2026-01-15 11:38:32.34	326.82	7.40	-45.3	-59.8	3.8	1.49e+00	0	61	104	1095761920	61	19874
2026-01-15 11:38:33.35	326.92	7.34	-45.2	-59.7	3.8	1.49e+00	0	61	104	1095761920	61	19736
2026-01-15 11:38:34.36	327.02	7.28	-45.0	-59.7	3.8	1.49e+00	0	61	104	1095761920	60	20885
2026-01-15 11:38:35.37	327.12	7.21	-45.2	-59.7	3.8	1.49e+00	0	60	104	1095761920	61	19682
2026-01-15 11:38:36.38	327.22	7.15	-45.2	-59.7	3.8	1.49e+00	0	61	104	1095761920	61	19761
2026-01-15 11:38:37.39	327.32	7.09	-45.2	-59.7	3.8	1.49e+00	0	61	104	1095761920	61	19717
2026-01-15 11:38:38.40	327.42	7.03	-45.2	-59.7	3.8	1.49e+00	0	61	104	1095761920	61	19689
2026-01-15 11:38:39.41	327.52	6.97	-45.2	-59.7	3.8	1.49e+00	0	61	104	1095761920	61	19695
2026-01-15 11:38:40.42	327.62	6.91	-45.2	-59.7	3.8	1.49e+00	0	61	104	1095761920	61	19703
2026-01-15 11:38:41.43	327.72	6.85	-45.2	-59.7	3.8	1.49e+00	0	61	104	1095761920	61	19698
2026-01-15 11:38:42.44	327.81	6.78	-45.2	-59.7	3.8	1.49e+00	0	61	104	1095761920	61	19660
2026-01-15 11:38:43.45	327.91	6.72	-45.2	-59.6	3.8	1.49e+00	0	61	104	1095761920	61	19583
2026-01-15 11:38:44.46	328.01	6.66	-45.1	-59.7	3.8	1.49e+00	0	61	104	1095761920	61	19622
2026-01-15 11:38:45.47	328.10	6.60	-45.1	-59.7	3.8	1.49e+00	0	61	104	1095761920	61	19645
2026-01-15 11:38:46.48	328.20	6.54	-45.2	-59.6	3.8	1.49e+00	0	61	104	1095761920	61	19608
2026-01-15 11:38:47.49	328.30	6.48	-45.1	-59.6	3.8	1.49e+00	0	61	104	1095761920	61	19522
2026-01-15 11:38:48.50	328.39	6.42	-45.2	-59.6	3.8	1.49e+00	0	61	104	1095761920	61	19588
2026-01-15 11:38:49.51	328.49	6.36	-45.2	-59.7	3.8	1.49e+00	0	61	104	1095761920	61	19710
