passes_logs/2026/01/15/R2.0S_Moscow/R2.0S_Moscow__20260115_224557_NOAA_21_JPSS-2_rec.log

#Pass ID: 20260115_224557_NOAA 21 (JPSS-2)
#Satellite: NOAA 21 (JPSS-2)
#Configuration: NOAA-21
#almurnet v.1.7.20251203
#Start time: 2026-01-15 22:45:57

#Version: 2.2.20231116
#Station: R2.0S_Moscow
#Location: 37.707566 lon 55.798166 lat
#TLE: 1 54234U 22150A   26015.43562254  .00000028  00000+0  34201-4 0  9996
#TLE: 2 54234  98.7498 316.3301 0000635 288.4972  71.6135 14.19534768164873

#Time	Az	El	Level	Level2	SNR	BER	BlckErr	Temp	State	Recorded	gain1	gain2
2026-01-15 22:45:57.98	20.90	2.05	-42.2	-54.9	3.8	1.49e+00	0	51	0	0	56	15081
2026-01-15 22:45:58.98	20.95	2.11	-42.1	-54.7	3.8	1.49e+00	0	51	104	0	55	15677
2026-01-15 22:46:00.00	20.99	2.18	-42.1	-54.7	3.8	1.49e+00	0	51	104	0	55	15717
2026-01-15 22:46:01.01	21.04	2.24	-42.1	-54.7	3.8	1.49e+00	0	51	104	0	55	15648
2026-01-15 22:46:02.01	21.08	2.30	-42.1	-54.7	3.8	1.49e+00	0	51	104	0	55	15691
2026-01-15 22:46:03.03	21.13	2.36	-42.1	-54.7	3.8	1.49e+00	0	51	104	0	55	15689
2026-01-15 22:46:04.04	21.17	2.42	-42.1	-54.7	3.8	1.49e+00	0	51	104	0	55	15699
2026-01-15 22:46:05.05	21.22	2.48	-42.1	-54.7	3.8	1.49e+00	0	51	104	0	55	15690
2026-01-15 22:46:06.06	21.27	2.55	-42.1	-54.7	3.8	1.49e+00	0	52	104	0	55	15666
2026-01-15 22:46:07.07	21.31	2.61	-42.1	-54.7	3.8	1.49e+00	0	51	104	0	55	15652
2026-01-15 22:46:08.08	21.36	2.67	-42.1	-54.7	3.8	1.49e+00	0	52	104	0	55	15670
2026-01-15 22:46:09.09	21.40	2.73	-42.1	-54.7	3.8	1.49e+00	0	52	104	0	55	15653
2026-01-15 22:46:10.10	21.45	2.79	-42.1	-54.7	3.8	1.49e+00	0	52	104	0	55	15717
2026-01-15 22:46:11.11	21.50	2.86	-42.1	-54.7	3.8	1.49e+00	0	52	104	0	55	15611
2026-01-15 22:46:12.12	21.55	2.92	-42.1	-54.7	3.8	1.49e+00	0	52	104	0	55	15661
2026-01-15 22:46:13.13	21.59	2.98	-42.1	-54.7	3.8	1.49e+00	0	52	104	0	55	15656
2026-01-15 22:46:14.14	21.64	3.04	-42.0	-54.7	3.8	1.49e+00	0	52	104	0	55	15628
2026-01-15 22:46:15.15	21.69	3.11	-42.1	-54.7	3.8	1.49e+00	0	52	104	0	55	15690
2026-01-15 22:46:16.16	21.74	3.17	-42.1	-54.7	3.8	1.49e+00	0	52	104	0	55	15682
2026-01-15 22:46:17.17	21.78	3.23	-42.1	-54.7	3.8	1.49e+00	0	52	104	0	55	15641
2026-01-15 22:46:18.18	21.83	3.30	-42.1	-54.7	3.8	1.49e+00	0	53	104	0	55	15684
2026-01-15 22:46:19.19	21.88	3.36	-42.1	-54.7	3.8	1.49e+00	0	52	104	0	55	15648
2026-01-15 22:46:20.21	21.93	3.43	-42.1	-54.7	3.8	1.49e+00	0	53	104	0	55	15661
2026-01-15 22:46:21.22	21.98	3.49	-42.1	-54.7	3.8	1.49e+00	0	53	104	0	55	15699
2026-01-15 22:46:22.23	22.03	3.55	-42.1	-54.7	3.8	1.49e+00	0	53	104	0	55	15598
2026-01-15 22:46:23.24	22.08	3.62	-42.1	-54.7	3.8	1.49e+00	0	53	104	0	55	15645
2026-01-15 22:46:24.25	22.13	3.68	-42.1	-54.7	3.8	1.49e+00	0	53	104	0	55	15687
2026-01-15 22:46:25.26	22.18	3.75	-42.1	-54.7	3.8	1.49e+00	0	53	104	0	55	15686
2026-01-15 22:46:26.27	22.22	3.81	-42.1	-54.7	3.8	1.49e+00	0	53	104	0	55	15617
2026-01-15 22:46:27.28	22.27	3.87	-42.1	-54.7	3.8	1.49e+00	0	53	104	0	55	15720
2026-01-15 22:46:28.29	22.32	3.94	-42.1	-54.7	3.8	1.49e+00	0	53	104	0	55	15659
2026-01-15 22:46:29.30	22.38	4.00	-42.1	-54.7	3.8	1.49e+00	0	53	104	0	55	15662
2026-01-15 22:46:30.31	22.43	4.07	-42.1	-54.7	3.8	1.49e+00	0	53	104	0	55	15655
2026-01-15 22:46:31.32	22.48	4.13	-42.1	-54.7	3.8	1.49e+00	0	53	104	0	55	15646
2026-01-15 22:46:32.33	22.53	4.20	-42.1	-54.7	3.8	1.49e+00	0	53	104	0	55	15660
2026-01-15 22:46:33.34	22.58	4.27	-42.1	-54.7	3.8	1.49e+00	0	53	104	0	55	15633
2026-01-15 22:46:34.35	22.63	4.33	-42.1	-54.7	3.8	1.49e+00	0	53	104	0	55	15662
2026-01-15 22:46:35.36	22.68	4.40	-42.1	-54.7	3.8	1.49e+00	0	54	104	0	55	15638
2026-01-15 22:46:36.37	22.73	4.46	-42.1	-54.7	3.8	1.49e+00	0	54	104	0	55	15665
2026-01-15 22:46:37.38	22.79	4.53	-42.1	-54.7	3.8	1.49e+00	0	54	104	0	55	15640
2026-01-15 22:46:38.39	22.84	4.59	-42.1	-54.7	3.8	1.49e+00	0	54	104	0	55	15683
2026-01-15 22:46:39.40	22.89	4.66	-42.1	-54.7	3.8	1.49e+00	0	53	104	0	55	15636
2026-01-15 22:46:40.41	22.94	4.73	-42.1	-54.7	3.8	1.49e+00	0	54	104	0	55	15670
2026-01-15 22:46:41.42	23.00	4.79	-42.1	-54.7	3.8	1.49e+00	0	54	104	0	55	15627
2026-01-15 22:46:42.43	23.05	4.86	-42.1	-54.7	3.8	1.49e+00	0	54	104	0	55	15653
2026-01-15 22:46:43.44	23.10	4.93	-42.1	-54.7	3.8	1.49e+00	0	54	104	0	55	15688
2026-01-15 22:46:44.45	23.16	4.99	-42.1	-54.7	3.8	1.49e+00	0	54	104	0	55	15659
2026-01-15 22:46:45.46	23.21	5.06	-42.1	-54.7	3.8	1.49e+00	0	54	104	0	55	15602
2026-01-15 22:46:46.47	23.26	5.13	-42.1	-54.7	3.8	1.49e+00	0	54	104	0	55	15584
2026-01-15 22:46:47.48	23.32	5.20	-42.1	-54.7	3.8	1.49e+00	0	54	104	0	55	15588
2026-01-15 22:46:48.49	23.37	5.26	-42.1	-54.7	3.8	1.49e+00	0	54	104	0	55	15583
2026-01-15 22:46:49.50	23.43	5.33	-42.1	-54.7	3.8	1.49e+00	0	54	104	0	55	15656
2026-01-15 22:46:50.51	23.48	5.40	-42.1	-54.7	3.8	1.49e+00	0	54	104	0	55	15585
2026-01-15 22:46:51.52	23.54	5.47	-42.0	-54.7	3.8	1.49e+00	0	54	104	0	55	15608
2026-01-15 22:46:52.53	23.59	5.54	-42.0	-54.6	3.8	1.49e+00	0	55	104	0	55	15578
2026-01-15 22:46:53.54	23.65	5.61	-42.1	-54.7	3.8	1.49e+00	0	55	104	0	55	15583
2026-01-15 22:46:54.55	23.70	5.67	-42.1	-54.7	3.8	1.49e+00	0	55	104	0	55	15594
2026-01-15 22:46:55.56	23.76	5.74	-42.1	-54.7	3.8	1.49e+00	0	55	104	0	55	15598
2026-01-15 22:46:56.57	23.82	5.81	-42.0	-54.7	3.8	1.49e+00	0	55	104	0	55	15599
2026-01-15 22:46:57.58	23.87	5.88	-42.0	-54.7	3.8	1.49e+00	0	55	104	0	55	15677
2026-01-15 22:46:58.59	23.93	5.95	-42.0	-54.7	3.8	1.49e+00	0	55	104	0	55	15594
2026-01-15 22:46:59.60	23.99	6.02	-42.0	-54.7	3.8	1.49e+00	0	54	104	0	55	15596
2026-01-15 22:47:00.61	24.04	6.09	-42.1	-54.7	3.8	1.49e+00	0	55	104	0	55	15582
2026-01-15 22:47:01.62	24.10	6.16	-42.1	-54.7	3.8	1.49e+00	0	55	104	0	55	15617
2026-01-15 22:47:02.63	24.16	6.23	-42.1	-54.7	3.8	1.49e+00	0	55	104	0	55	15590
2026-01-15 22:47:03.64	24.22	6.30	-42.1	-54.7	3.8	1.49e+00	0	55	104	0	55	15642
2026-01-15 22:47:04.65	24.28	6.37	-42.0	-54.7	3.8	1.49e+00	0	55	104	0	55	15643
2026-01-15 22:47:05.66	24.33	6.44	-42.1	-54.7	3.8	1.49e+00	0	55	104	0	55	15693
2026-01-15 22:47:06.67	24.39	6.51	-42.0	-54.7	3.8	1.49e+00	0	55	104	0	55	15625
2026-01-15 22:47:07.68	24.45	6.58	-42.1	-54.7	3.8	1.49e+00	0	55	104	0	55	15581
2026-01-15 22:47:08.69	24.51	6.65	-42.1	-54.7	3.8	1.49e+00	0	55	104	0	55	15663
2026-01-15 22:47:09.70	24.57	6.72	-42.1	-54.7	3.8	1.49e+00	0	55	104	0	55	15610
2026-01-15 22:47:10.71	24.63	6.79	-42.0	-54.7	3.8	1.49e+00	0	55	104	0	55	15620
2026-01-15 22:47:11.72	24.69	6.87	-42.0	-54.7	3.8	1.49e+00	0	55	104	0	55	15635
2026-01-15 22:47:12.73	24.75	6.94	-42.0	-54.6	3.8	1.49e+00	0	55	104	0	55	15532
2026-01-15 22:47:13.74	24.81	7.01	-42.1	-54.5	3.8	1.49e+00	0	55	104	0	55	15363
2026-01-15 22:47:14.75	24.87	7.08	-42.0	-54.5	3.8	1.49e+00	0	55	104	0	55	15226
2026-01-15 22:47:15.76	24.93	7.15	-42.0	-54.4	3.8	1.49e+00	0	55	104	0	55	15135
2026-01-15 22:47:16.78	25.00	7.23	-42.0	-54.3	3.8	1.49e+00	0	55	104	0	55	15046
2026-01-15 22:47:17.79	25.06	7.30	-42.0	-54.2	3.8	1.49e+00	0	55	104	0	55	14838
2026-01-15 22:47:18.80	25.12	7.37	-42.0	-53.7	3.8	1.49e+00	0	55	104	0	55	14041
2026-01-15 22:47:19.81	25.18	7.44	-41.9	-53.1	3.8	1.49e+00	0	56	104	0	55	12960
2026-01-15 22:47:20.82	25.25	7.52	-41.8	-51.8	4.0	1.49e+00	0	56	104	0	55	11170
2026-01-15 22:47:21.83	25.31	7.59	-41.7	-50.9	4.2	1.47e+00	0	56	104	0	55	10106
2026-01-15 22:47:22.84	25.37	7.66	-41.5	-49.9	4.6	1.25e+00	2	55	104	0	55	9024
2026-01-15 22:47:23.85	25.44	7.74	-41.3	-48.6	5.3	6.49e-01	0	56	0	1048576	54	8223
2026-01-15 22:47:24.86	25.50	7.81	-40.9	-47.2	6.2	3.20e-01	0	56	0	4194304	53	7441
2026-01-15 22:47:25.88	25.56	7.89	-40.5	-46.0	7.4	1.28e-01	0	56	0	7340032	53	6429
2026-01-15 22:47:26.89	25.63	7.96	-40.2	-45.1	8.2	7.47e-02	0	56	0	10485760	52	6186
2026-01-15 22:47:27.90	25.69	8.03	-40.0	-44.5	8.7	4.03e-02	0	56	0	13631488	52	5784
2026-01-15 22:47:28.91	25.76	8.11	-42.6	-50.8	4.6	8.04e-02	0	56	0	16777216	55	10044
2026-01-15 22:47:29.92	25.82	8.18	-41.6	-47.0	7.1	8.36e-02	0	56	0	17825792	54	6861
2026-01-15 22:47:30.93	25.89	8.26	-41.1	-49.2	4.9	2.50e-01	0	56	0	20971520	52	9850
2026-01-15 22:47:31.94	25.96	8.33	-41.5	-54.2	3.8	1.49e+00	0	56	104	20971520	53	16519
2026-01-15 22:47:32.95	26.02	8.41	-41.3	-46.1	8.2	6.51e-01	0	56	0	20971520	53	6538
2026-01-15 22:47:33.96	26.09	8.48	-40.7	-44.8	9.3	3.21e-02	0	56	0	24117248	53	5593
2026-01-15 22:47:34.97	26.16	8.56	-40.7	-44.7	9.5	1.39e-02	0	56	0	27262976	53	5555
2026-01-15 22:47:35.98	26.22	8.64	-40.4	-44.1	10.1	8.70e-03	0	56	0	30408704	52	5501
2026-01-15 22:47:36.98	26.29	8.71	-40.2	-43.7	10.5	4.10e-03	0	56	0	33554432	52	5245
2026-01-15 22:47:37.99	26.36	8.79	-40.3	-43.9	10.3	4.82e-03	0	56	0	36700160	52	5392
2026-01-15 22:47:39.01	26.43	8.87	-40.5	-44.2	10.1	6.78e-03	0	56	0	39845888	52	5559
2026-01-15 22:47:40.02	26.50	8.94	-40.4	-44.1	10.2	6.91e-03	0	56	0	42991616	52	5479
2026-01-15 22:47:41.02	26.56	9.02	-40.3	-43.9	10.4	4.73e-03	0	56	0	46137344	52	5396
2026-01-15 22:47:42.03	26.63	9.10	-40.4	-44.0	10.4	4.61e-03	0	56	0	49283072	52	5405
2026-01-15 22:47:43.04	26.70	9.17	-40.5	-44.1	10.2	6.16e-03	0	56	0	52428800	52	5526
2026-01-15 22:47:44.05	26.77	9.25	-40.4	-44.1	10.3	5.03e-03	0	56	0	55574528	52	5471
2026-01-15 22:47:45.06	26.84	9.33	-40.5	-44.1	10.3	5.61e-03	0	56	0	58720256	52	5499
2026-01-15 22:47:46.07	26.92	9.41	-40.5	-44.1	10.4	5.10e-03	0	57	0	61865984	52	5485
2026-01-15 22:47:47.08	26.99	9.48	-40.4	-44.0	10.5	3.97e-03	0	56	0	65011712	52	5416
2026-01-15 22:47:48.09	27.06	9.56	-40.6	-44.2	10.3	4.63e-03	0	56	0	68157440	52	5576
2026-01-15 22:47:49.10	27.13	9.64	-40.5	-44.1	10.5	4.16e-03	0	57	0	71303168	52	5525
2026-01-15 22:47:50.12	27.20	9.72	-40.6	-44.3	10.4	5.02e-03	0	57	0	74448896	52	5597
2026-01-15 22:47:51.13	27.28	9.80	-40.5	-44.0	10.6	3.42e-03	0	57	0	77594624	52	5429
2026-01-15 22:47:52.14	27.35	9.88	-40.5	-43.9	10.8	2.66e-03	0	57	0	80740352	52	5396
2026-01-15 22:47:53.14	27.42	9.96	-40.4	-43.7	11.1	1.85e-03	0	57	0	83886080	52	5261
2026-01-15 22:47:54.15	27.49	10.04	-40.5	-43.8	11.1	1.79e-03	0	57	0	87031808	52	5301
2026-01-15 22:47:55.16	27.57	10.12	-40.5	-43.8	11.1	1.77e-03	0	57	0	90177536	52	5321
2026-01-15 22:47:56.17	27.64	10.20	-40.5	-43.8	11.1	1.72e-03	0	57	0	93323264	52	5284
2026-01-15 22:47:57.18	27.72	10.28	-40.6	-43.8	11.1	1.66e-03	0	57	0	96468992	52	5324
2026-01-15 22:47:58.19	27.79	10.36	-40.6	-43.9	11.0	1.87e-03	0	57	0	99614720	52	5391
2026-01-15 22:47:59.20	27.87	10.44	-40.7	-44.0	10.9	2.08e-03	0	57	0	102760448	52	5451
2026-01-15 22:48:00.21	27.94	10.52	-40.7	-43.9	11.1	1.81e-03	0	57	0	105906176	52	5353
2026-01-15 22:48:01.22	28.02	10.60	-40.7	-43.9	11.1	1.89e-03	0	57	0	109051904	52	5381
2026-01-15 22:48:02.24	28.10	10.68	-40.7	-44.0	11.0	1.77e-03	0	57	0	112197632	52	5445
2026-01-15 22:48:03.24	28.17	10.77	-40.6	-43.8	11.2	1.20e-03	0	57	0	115343360	52	5323
2026-01-15 22:48:04.25	28.25	10.85	-40.6	-43.7	11.4	1.01e-03	0	57	0	118489088	52	5252
2026-01-15 22:48:05.26	28.33	10.93	-40.6	-43.7	11.4	9.07e-04	0	57	0	121634816	52	5236
2026-01-15 22:48:06.27	28.41	11.01	-40.6	-43.6	11.4	9.31e-04	0	57	0	124780544	52	5209
2026-01-15 22:48:07.28	28.49	11.09	-40.5	-43.5	11.6	7.35e-04	0	57	0	127926272	52	5155
2026-01-15 22:48:08.29	28.57	11.18	-40.5	-43.5	11.7	6.37e-04	0	57	0	131072000	52	5126
2026-01-15 22:48:09.30	28.65	11.26	-40.5	-43.5	11.6	6.81e-04	0	57	0	134217728	52	5121
2026-01-15 22:48:10.31	28.73	11.34	-40.5	-43.5	11.7	6.19e-04	0	57	0	137363456	52	5103
2026-01-15 22:48:11.32	28.81	11.43	-40.4	-43.3	11.8	4.68e-04	0	57	0	140509184	52	5041
2026-01-15 22:48:12.33	28.89	11.51	-40.4	-43.3	11.9	4.65e-04	0	57	0	143654912	52	5011
2026-01-15 22:48:13.34	28.97	11.59	-40.4	-43.3	11.9	3.89e-04	0	57	0	146800640	52	5033
2026-01-15 22:48:14.35	29.05	11.68	-40.4	-43.3	11.9	4.08e-04	0	57	0	149946368	52	4989
2026-01-15 22:48:15.36	29.13	11.76	-40.3	-43.2	12.0	3.04e-04	0	57	0	153092096	52	4947
2026-01-15 22:48:16.37	29.22	11.85	-40.4	-43.2	12.0	3.71e-04	0	57	0	156237824	52	4967
2026-01-15 22:48:17.38	29.30	11.93	-40.3	-43.2	12.1	3.17e-04	0	57	0	159383552	52	4951
2026-01-15 22:48:18.39	29.38	12.02	-40.3	-43.2	12.1	2.75e-04	0	57	0	162529280	52	4954
2026-01-15 22:48:19.41	29.47	12.11	-40.4	-43.3	12.0	3.36e-04	0	57	0	165675008	52	4984
2026-01-15 22:48:20.41	29.55	12.19	-40.3	-43.1	12.2	2.42e-04	0	57	0	168820736	52	4893
2026-01-15 22:48:21.42	29.64	12.28	-40.3	-43.2	12.1	2.64e-04	0	57	0	171966464	52	4943
2026-01-15 22:48:22.43	29.72	12.36	-40.3	-43.2	12.1	2.74e-04	0	57	0	175112192	52	4947
2026-01-15 22:48:23.44	29.81	12.45	-40.3	-43.2	12.1	2.66e-04	0	57	0	178257920	52	4946
2026-01-15 22:48:24.45	29.90	12.54	-40.3	-43.2	12.2	2.49e-04	0	57	0	181403648	52	4928
2026-01-15 22:48:25.46	29.98	12.62	-40.3	-43.1	12.2	2.56e-04	0	57	0	184549376	52	4919
2026-01-15 22:48:26.47	30.07	12.71	-40.3	-43.1	12.2	2.26e-04	0	57	0	187695104	52	4898
2026-01-15 22:48:27.48	30.16	12.80	-40.3	-43.0	12.3	1.85e-04	0	57	0	190840832	52	4864
2026-01-15 22:48:28.49	30.25	12.89	-40.2	-43.0	12.4	1.68e-04	0	58	0	193986560	52	4843
2026-01-15 22:48:29.50	30.33	12.97	-40.3	-43.0	12.4	1.77e-04	0	58	0	197132288	52	4861
2026-01-15 22:48:30.51	30.42	13.06	-40.2	-43.0	12.4	1.56e-04	0	57	0	200278016	52	4841
2026-01-15 22:48:31.52	30.51	13.15	-40.3	-43.0	12.4	1.46e-04	0	57	0	203423744	52	4851
2026-01-15 22:48:32.53	30.60	13.24	-40.2	-43.0	12.4	1.82e-04	0	58	0	207618048	52	4837
2026-01-15 22:48:33.54	30.70	13.33	-40.3	-43.0	12.4	1.36e-04	0	57	0	210763776	52	4847
2026-01-15 22:48:34.55	30.79	13.42	-40.2	-43.0	12.5	1.46e-04	0	57	0	213909504	52	4823
2026-01-15 22:48:35.56	30.88	13.51	-40.3	-43.1	12.4	1.61e-04	0	58	0	216006656	52	4872
2026-01-15 22:48:36.57	30.97	13.60	-40.2	-43.0	12.5	1.38e-04	0	58	0	219152384	52	4820
2026-01-15 22:48:37.58	31.07	13.69	-40.3	-43.0	12.4	1.43e-04	0	58	0	223346688	52	4844
2026-01-15 22:48:38.59	31.16	13.78	-40.3	-43.0	12.4	1.43e-04	0	58	0	226492416	52	4848
2026-01-15 22:48:39.60	31.25	13.87	-40.2	-42.9	12.5	1.17e-04	0	58	0	229638144	52	4804
2026-01-15 22:48:40.61	31.35	13.96	-40.2	-42.9	12.6	9.84e-05	0	58	0	232783872	52	4795
2026-01-15 22:48:41.62	31.44	14.05	-40.2	-42.9	12.6	9.07e-05	0	58	0	235929600	52	4779
2026-01-15 22:48:42.63	31.54	14.14	-40.2	-42.9	12.6	8.77e-05	0	58	0	239075328	52	4769
2026-01-15 22:48:43.64	31.64	14.23	-40.2	-42.8	12.7	8.69e-05	0	58	0	242221056	52	4739
2026-01-15 22:48:44.65	31.73	14.33	-40.2	-42.8	12.7	8.08e-05	0	58	0	245366784	52	4729
2026-01-15 22:48:45.65	31.83	14.42	-40.1	-42.8	12.7	7.09e-05	0	58	0	248512512	52	4719
2026-01-15 22:48:46.66	31.93	14.51	-40.1	-42.8	12.8	7.78e-05	0	58	0	251658240	52	4708
2026-01-15 22:48:47.67	32.03	14.60	-40.2	-42.8	12.8	7.47e-05	0	58	0	254803968	52	4712
2026-01-15 22:48:48.68	32.13	14.70	-40.1	-42.8	12.8	5.72e-05	0	58	0	257949696	52	4706
2026-01-15 22:48:49.69	32.23	14.79	-40.2	-42.8	12.8	6.86e-05	0	58	0	261095424	52	4741
2026-01-15 22:48:50.70	32.33	14.88	-40.2	-42.8	12.7	5.72e-05	0	58	0	264241152	52	4742
2026-01-15 22:48:51.72	32.43	14.98	-40.2	-42.8	12.7	7.40e-05	0	58	0	267386880	52	4741
2026-01-15 22:48:52.73	32.53	15.07	-40.3	-43.0	12.6	1.14e-04	0	58	0	270532608	52	4817
2026-01-15 22:48:53.74	32.63	15.17	-40.3	-43.0	12.6	1.06e-04	0	58	0	273678336	52	4825
2026-01-15 22:48:54.75	32.74	15.26	-40.3	-42.9	12.6	1.01e-04	0	58	0	276824064	52	4806
2026-01-15 22:48:55.76	32.84	15.36	-40.3	-42.9	12.7	9.61e-05	0	58	0	279969792	52	4791
2026-01-15 22:48:56.77	32.94	15.45	-40.3	-42.9	12.6	9.99e-05	0	58	0	283115520	52	4799
2026-01-15 22:48:57.78	33.05	15.55	-40.3	-43.0	12.5	8.62e-05	0	58	0	286261248	52	4848
2026-01-15 22:48:58.79	33.15	15.65	-40.3	-43.0	12.6	7.85e-05	0	58	0	289406976	52	4828
2026-01-15 22:48:59.80	33.26	15.74	-40.3	-42.9	12.7	8.31e-05	0	58	0	292552704	52	4779
2026-01-15 22:49:00.81	33.37	15.84	-40.3	-43.0	12.6	9.68e-05	0	58	0	295698432	52	4846
2026-01-15 22:49:01.81	33.47	15.93	-40.3	-43.0	12.6	8.54e-05	0	58	0	298844160	52	4828
2026-01-15 22:49:02.82	33.58	16.03	-40.3	-43.0	12.6	8.08e-05	0	58	0	301989888	52	4834
2026-01-15 22:49:03.83	33.69	16.13	-40.3	-43.0	12.6	8.01e-05	0	58	0	305135616	52	4852
2026-01-15 22:49:04.84	33.80	16.23	-40.4	-43.1	12.5	9.38e-05	0	58	0	308281344	52	4877
2026-01-15 22:49:05.85	33.91	16.33	-40.4	-43.1	12.5	7.93e-05	0	58	0	311427072	52	4882
2026-01-15 22:49:06.86	34.02	16.42	-40.4	-43.1	12.5	1.13e-04	0	58	0	314572800	52	4902
2026-01-15 22:49:07.87	34.13	16.52	-40.4	-43.2	12.5	1.03e-04	0	58	0	317718528	52	4942
2026-01-15 22:49:08.88	34.24	16.62	-40.5	-43.2	12.4	1.52e-04	0	58	0	320864256	52	4967
2026-01-15 22:49:09.89	34.36	16.72	-40.5	-43.2	12.4	1.56e-04	0	58	0	324009984	52	4978
2026-01-15 22:49:10.89	34.47	16.82	-40.5	-43.3	12.4	1.67e-04	0	58	0	327155712	52	5006
2026-01-15 22:49:11.90	34.59	16.92	-40.5	-43.3	12.3	1.93e-04	0	58	0	330301440	52	5029
2026-01-15 22:49:12.91	34.70	17.02	-40.5	-43.3	12.3	1.47e-04	0	58	0	333447168	52	5015
2026-01-15 22:49:13.92	34.82	17.12	-40.5	-43.3	12.4	1.62e-04	0	58	0	336592896	52	5010
2026-01-15 22:49:14.93	34.93	17.22	-40.6	-43.3	12.3	1.59e-04	0	58	0	339738624	52	5035
2026-01-15 22:49:15.94	35.05	17.32	-40.6	-43.4	12.3	1.60e-04	0	58	0	342884352	52	5066
2026-01-15 22:49:16.95	35.17	17.43	-40.6	-43.4	12.3	1.69e-04	0	58	0	346030080	52	5046
2026-01-15 22:49:17.96	35.29	17.53	-40.6	-43.4	12.3	1.50e-04	0	58	0	349175808	52	5049
2026-01-15 22:49:18.97	35.41	17.63	-40.6	-43.4	12.3	1.85e-04	0	58	0	352321536	52	5068
2026-01-15 22:49:19.98	35.53	17.73	-40.6	-43.4	12.3	2.00e-04	0	58	0	355467264	52	5083
2026-01-15 22:49:20.99	35.65	17.83	-40.6	-43.4	12.3	1.69e-04	0	58	0	358612992	52	5069
2026-01-15 22:49:22.00	35.77	17.94	-40.6	-43.4	12.4	1.56e-04	0	58	0	361758720	52	5046
2026-01-15 22:49:23.01	35.89	18.04	-40.6	-43.4	12.4	1.89e-04	0	59	0	364904448	52	5061
2026-01-15 22:49:24.02	36.02	18.14	-40.6	-43.4	12.3	1.81e-04	0	58	0	368050176	52	5072
2026-01-15 22:49:25.03	36.14	18.25	-40.6	-43.4	12.4	1.60e-04	0	59	0	371195904	52	5052
2026-01-15 22:49:26.04	36.27	18.35	-40.6	-43.3	12.4	1.52e-04	0	58	0	374341632	52	5026
2026-01-15 22:49:27.05	36.39	18.46	-40.5	-43.3	12.5	1.32e-04	0	58	0	377487360	52	4992
2026-01-15 22:49:28.05	36.52	18.56	-40.5	-43.3	12.5	1.37e-04	0	58	0	380633088	52	4984
2026-01-15 22:49:29.06	36.65	18.67	-40.5	-43.2	12.5	1.04e-04	0	58	0	383778816	52	4956
2026-01-15 22:49:30.07	36.78	18.77	-40.5	-43.2	12.6	8.23e-05	0	58	0	386924544	52	4947
2026-01-15 22:49:31.08	36.91	18.88	-40.4	-43.1	12.7	7.78e-05	0	59	0	390070272	52	4889
2026-01-15 22:49:32.09	37.04	18.98	-40.4	-43.1	12.7	6.79e-05	0	59	0	393216000	52	4903
2026-01-15 22:49:33.10	37.17	19.09	-40.4	-43.0	12.7	6.94e-05	0	58	0	396361728	52	4861
2026-01-15 22:49:34.11	37.30	19.20	-40.4	-43.0	12.8	5.72e-05	0	58	0	399507456	52	4829
2026-01-15 22:49:35.12	37.43	19.31	-40.3	-42.9	12.9	5.87e-05	0	58	0	402653184	52	4795
2026-01-15 22:49:36.13	37.57	19.41	-40.4	-42.9	12.8	4.34e-05	0	59	0	405798912	52	4813
2026-01-15 22:49:37.14	37.70	19.52	-40.3	-42.9	12.9	4.27e-05	0	58	0	408944640	52	4799
2026-01-15 22:49:38.15	37.84	19.63	-40.3	-42.9	12.9	4.27e-05	0	59	0	412090368	52	4784
2026-01-15 22:49:39.16	37.98	19.74	-40.3	-42.8	13.0	4.19e-05	0	59	0	415236096	52	4748
2026-01-15 22:49:40.17	38.11	19.85	-40.3	-42.8	13.0	2.74e-05	0	58	0	418381824	52	4718
2026-01-15 22:49:41.18	38.25	19.96	-40.3	-42.8	13.0	2.82e-05	0	59	0	421527552	52	4728
2026-01-15 22:49:42.19	38.39	20.06	-40.2	-42.7	13.1	3.35e-05	0	59	0	424673280	52	4677
2026-01-15 22:49:43.20	38.53	20.17	-40.2	-42.7	13.2	2.59e-05	0	58	0	427819008	52	4660
2026-01-15 22:49:44.21	38.68	20.28	-40.1	-42.6	13.2	2.97e-05	0	59	0	430964736	52	4625
2026-01-15 22:49:45.22	38.82	20.40	-40.1	-42.5	13.3	1.83e-05	0	58	0	434110464	52	4595
2026-01-15 22:49:46.23	38.96	20.51	-40.1	-42.6	13.3	3.05e-05	0	58	0	437256192	52	4605
2026-01-15 22:49:47.24	39.11	20.62	-40.1	-42.6	13.3	1.22e-05	0	58	0	440401920	52	4613
2026-01-15 22:49:48.25	39.25	20.73	-40.0	-42.4	13.4	9.90e-06	0	59	0	443547648	52	4530
2026-01-15 22:49:49.26	39.40	20.84	-40.1	-42.5	13.4	1.83e-05	0	59	0	446693376	52	4573
2026-01-15 22:49:50.27	39.55	20.95	-40.1	-42.5	13.4	1.75e-05	0	59	0	449839104	52	4574
2026-01-15 22:49:51.28	39.70	21.06	-40.0	-42.4	13.5	1.75e-05	0	59	0	452984832	52	4516
2026-01-15 22:49:52.29	39.85	21.18	-40.0	-42.4	13.5	1.37e-05	0	59	0	456130560	52	4516
2026-01-15 22:49:53.30	40.00	21.29	-40.0	-42.4	13.5	1.29e-05	0	59	0	459276288	51	4785
2026-01-15 22:49:54.31	40.15	21.40	-40.0	-42.4	13.6	1.60e-05	0	59	0	462422016	51	4769
2026-01-15 22:49:55.32	40.30	21.52	-40.0	-42.3	13.6	5.30e-06	0	59	0	465567744	51	4750
2026-01-15 22:49:56.33	40.46	21.63	-40.0	-42.3	13.7	6.80e-06	0	59	0	468713472	51	4727
2026-01-15 22:49:57.34	40.61	21.74	-39.9	-42.2	13.7	3.80e-06	0	59	0	471859200	51	4689
2026-01-15 22:49:58.35	40.77	21.86	-39.9	-42.2	13.8	3.00e-06	0	58	0	475004928	51	4661
2026-01-15 22:49:59.36	40.93	21.97	-39.9	-42.2	13.8	5.30e-06	0	59	0	478150656	51	4673
2026-01-15 22:50:00.37	41.08	22.09	-39.9	-42.1	13.8	4.50e-06	0	58	0	481296384	51	4646
2026-01-15 22:50:01.38	41.24	22.20	-39.8	-42.1	13.9	6.10e-06	0	59	0	484442112	51	4603
2026-01-15 22:50:02.39	41.41	22.32	-39.7	-42.0	14.0	2.20e-06	0	59	0	487587840	51	4547
2026-01-15 22:50:03.40	41.57	22.44	-39.7	-42.0	14.0	4.50e-06	0	59	0	490733568	51	4556
2026-01-15 22:50:04.41	41.73	22.55	-39.7	-41.9	14.0	7.00e-07	0	59	0	493879296	51	4532
2026-01-15 22:50:05.42	41.90	22.67	-39.6	-41.8	14.2	3.80e-06	0	59	0	497025024	51	4478
2026-01-15 22:50:06.43	42.06	22.79	-39.6	-41.8	14.2	1.50e-06	0	59	0	500170752	51	4443
2026-01-15 22:50:07.44	42.23	22.90	-39.7	-41.8	14.2	1.50e-06	0	59	0	503316480	51	4486
2026-01-15 22:50:08.45	42.40	23.02	-39.7	-41.9	14.1	1.50e-06	0	59	0	506462208	51	4494
2026-01-15 22:50:09.45	42.56	23.14	-39.7	-41.9	14.1	1.50e-06	0	59	0	509607936	51	4511
2026-01-15 22:50:10.47	42.74	23.26	-39.7	-41.9	14.1	1.50e-06	0	59	0	512753664	51	4511
2026-01-15 22:50:11.48	42.91	23.38	-39.7	-41.9	14.1	2.20e-06	0	59	0	515899392	51	4509
2026-01-15 22:50:12.49	43.08	23.49	-39.7	-42.0	14.1	3.00e-06	0	59	0	519045120	51	4548
2026-01-15 22:50:13.50	43.26	23.61	-39.7	-42.0	14.1	3.00e-06	0	59	0	522190848	51	4549
2026-01-15 22:50:14.51	43.43	23.73	-39.7	-41.9	14.2	1.50e-06	0	59	0	525336576	51	4495
2026-01-15 22:50:15.52	43.61	23.85	-39.7	-41.9	14.2	3.00e-06	0	59	0	529530880	51	4494
2026-01-15 22:50:16.53	43.79	23.97	-39.7	-41.8	14.2	1.50e-06	0	59	0	531628032	51	4484
2026-01-15 22:50:17.54	43.97	24.09	-39.6	-41.8	14.3	2.20e-06	0	59	0	534773760	51	4455
2026-01-15 22:50:18.55	44.15	24.21	-39.7	-41.8	14.2	1.50e-06	0	59	0	537919488	51	4493
2026-01-15 22:50:19.56	44.33	24.33	-39.7	-41.9	14.2	7.00e-07	0	59	0	541065216	51	4511
2026-01-15 22:50:20.57	44.52	24.45	-39.8	-41.9	14.1	1.50e-06	0	59	0	545259520	51	4535
2026-01-15 22:50:21.58	44.70	24.57	-39.8	-42.1	14.0	6.10e-06	0	59	0	548405248	51	4613
2026-01-15 22:50:22.59	44.89	24.70	-39.9	-42.2	13.9	1.50e-06	0	59	0	551550976	51	4662
2026-01-15 22:50:23.60	45.08	24.82	-39.9	-42.2	13.9	6.80e-06	0	59	0	554696704	51	4669
2026-01-15 22:50:24.61	45.26	24.94	-39.9	-42.2	13.9	2.20e-06	0	59	0	556793856	51	4666
2026-01-15 22:50:25.62	45.46	25.06	-39.9	-42.1	13.9	4.50e-06	0	59	0	560988160	51	4621
2026-01-15 22:50:26.63	45.65	25.18	-39.8	-42.1	14.0	3.80e-06	0	59	0	564133888	51	4604
2026-01-15 22:50:27.64	45.84	25.31	-39.8	-42.0	14.0	5.30e-06	0	59	0	567279616	51	4593
2026-01-15 22:50:28.65	46.04	25.43	-39.8	-42.0	14.1	0.00e+00	0	59	0	570425344	51	4567
2026-01-15 22:50:29.67	46.24	25.55	-39.8	-42.0	14.1	2.20e-06	0	59	0	573571072	51	4551
2026-01-15 22:50:30.67	46.43	25.68	-39.7	-41.9	14.2	7.00e-07	0	59	0	576716800	51	4529
2026-01-15 22:50:31.68	46.63	25.80	-39.8	-42.0	14.1	7.00e-07	0	59	0	579862528	51	4555
2026-01-15 22:50:32.69	46.83	25.92	-39.8	-42.0	14.1	1.50e-06	0	59	0	583008256	51	4565
2026-01-15 22:50:33.70	47.04	26.05	-39.9	-42.1	14.0	6.80e-06	0	59	0	586153984	51	4621
2026-01-15 22:50:34.71	47.24	26.17	-39.9	-42.1	14.0	1.50e-06	0	59	0	589299712	51	4634
2026-01-15 22:50:35.72	47.45	26.29	-39.9	-42.2	13.9	3.80e-06	0	59	0	592445440	51	4661
2026-01-15 22:50:36.73	47.65	26.42	-40.0	-42.3	13.8	6.80e-06	0	59	0	595591168	51	4752
2026-01-15 22:50:37.74	47.86	26.54	-40.1	-42.4	13.8	3.00e-06	0	59	0	598736896	51	4760
2026-01-15 22:50:38.75	48.07	26.67	-40.0	-42.3	13.8	3.00e-06	0	59	0	601882624	51	4746
2026-01-15 22:50:39.76	48.29	26.79	-40.1	-42.5	13.7	3.00e-06	0	59	0	605028352	51	4818
2026-01-15 22:50:40.77	48.50	26.92	-40.2	-42.6	13.5	9.10e-06	0	59	0	608174080	51	4899
2026-01-15 22:50:41.78	48.72	27.04	-40.2	-42.6	13.5	1.06e-05	0	59	0	611319808	51	4901
2026-01-15 22:50:42.79	48.93	27.17	-40.2	-42.6	13.5	5.30e-06	0	59	0	614465536	51	4912
2026-01-15 22:50:43.80	49.15	27.30	-40.3	-42.6	13.5	6.80e-06	0	59	0	617611264	51	4918
2026-01-15 22:50:44.81	49.37	27.42	-40.3	-42.7	13.4	1.52e-05	0	59	0	620756992	51	4951
2026-01-15 22:50:45.82	49.60	27.55	-40.3	-42.7	13.5	1.37e-05	0	59	0	623902720	51	4931
2026-01-15 22:50:46.83	49.82	27.67	-40.3	-42.7	13.4	2.05e-05	0	59	0	627048448	51	4968
2026-01-15 22:50:47.83	50.05	27.80	-40.4	-42.8	13.3	1.44e-05	0	59	0	630194176	51	5017
2026-01-15 22:50:48.84	50.27	27.93	-40.3	-42.8	13.4	1.60e-05	0	59	0	633339904	51	4984
2026-01-15 22:50:49.85	50.50	28.05	-40.3	-42.6	13.4	1.52e-05	0	59	0	636485632	51	4925
2026-01-15 22:50:50.86	50.73	28.18	-40.3	-42.6	13.5	1.14e-05	0	59	0	639631360	51	4911
2026-01-15 22:50:51.87	50.97	28.30	-40.2	-42.5	13.6	9.10e-06	0	59	0	642777088	51	4854
2026-01-15 22:50:52.88	51.20	28.43	-40.1	-42.4	13.7	8.30e-06	0	59	0	645922816	51	4795
2026-01-15 22:50:53.89	51.44	28.56	-40.1	-42.5	13.7	3.00e-06	0	59	0	649068544	51	4823
2026-01-15 22:50:54.90	51.68	28.69	-40.1	-42.4	13.7	7.60e-06	0	59	0	652214272	51	4809
2026-01-15 22:50:55.91	51.92	28.81	-40.2	-42.5	13.6	5.30e-06	0	59	0	655360000	51	4850
2026-01-15 22:50:56.92	52.16	28.94	-40.2	-42.5	13.6	9.90e-06	0	59	0	658505728	51	4836
2026-01-15 22:50:57.93	52.40	29.07	-40.2	-42.5	13.7	6.10e-06	0	59	0	661651456	51	4848
2026-01-15 22:50:58.94	52.65	29.19	-40.1	-42.4	13.8	9.90e-06	0	59	0	664797184	51	4768
2026-01-15 22:50:59.95	52.90	29.32	-39.9	-42.2	14.0	3.80e-06	0	59	0	667942912	51	4658
2026-01-15 22:51:00.96	53.15	29.45	-39.9	-42.1	14.1	1.50e-06	0	59	0	671088640	51	4615
2026-01-15 22:51:01.96	53.40	29.57	-39.9	-42.1	14.0	5.30e-06	0	59	0	674234368	51	4645
2026-01-15 22:51:02.97	53.65	29.70	-39.9	-42.2	14.0	7.00e-07	0	59	0	677380096	51	4662
2026-01-15 22:51:03.99	53.91	29.83	-40.0	-42.2	13.9	3.80e-06	0	59	0	680525824	51	4692
2026-01-15 22:51:05.00	54.17	29.95	-40.0	-42.3	13.9	3.00e-06	0	59	0	683671552	51	4741
2026-01-15 22:51:06.00	54.43	30.08	-40.0	-42.3	13.9	7.00e-07	0	59	0	686817280	51	4743
2026-01-15 22:51:07.01	54.69	30.21	-40.0	-42.3	13.9	3.80e-06	0	59	0	689963008	51	4726
2026-01-15 22:51:08.02	54.95	30.33	-40.0	-42.2	13.9	2.20e-06	0	59	0	693108736	51	4703
2026-01-15 22:51:09.03	55.22	30.46	-40.1	-42.3	13.9	6.80e-06	0	59	0	696254464	51	4739
2026-01-15 22:51:10.04	55.49	30.59	-40.0	-42.2	14.0	7.00e-07	0	59	0	699400192	51	4675
2026-01-15 22:51:11.05	55.76	30.71	-40.0	-42.3	13.9	2.20e-06	0	59	0	702545920	51	4714
2026-01-15 22:51:12.06	56.03	30.84	-40.2	-42.4	13.8	3.80e-06	0	59	0	705691648	51	4803
2026-01-15 22:51:13.07	56.30	30.96	-40.1	-42.4	13.8	6.10e-06	0	59	0	708837376	51	4799
2026-01-15 22:51:14.08	56.58	31.09	-40.2	-42.5	13.7	5.30e-06	0	59	0	711983104	51	4824
2026-01-15 22:51:15.09	56.86	31.22	-40.2	-42.5	13.7	3.00e-06	0	59	0	715128832	51	4823
2026-01-15 22:51:16.10	57.14	31.34	-40.2	-42.5	13.7	8.30e-06	0	59	0	718274560	51	4820
2026-01-15 22:51:17.11	57.42	31.47	-40.2	-42.5	13.7	4.50e-06	0	59	0	721420288	51	4825
2026-01-15 22:51:18.12	57.71	31.59	-40.2	-42.5	13.7	3.80e-06	0	59	0	724566016	51	4830
2026-01-15 22:51:19.13	57.99	31.72	-40.3	-42.6	13.6	8.30e-06	0	59	0	727711744	51	4924
2026-01-15 22:51:20.13	58.28	31.84	-40.4	-42.7	13.5	1.06e-05	0	59	0	730857472	51	4983
2026-01-15 22:51:21.14	58.57	31.97	-40.5	-42.9	13.3	1.22e-05	0	59	0	734003200	51	5061
2026-01-15 22:51:22.15	58.86	32.09	-40.4	-42.8	13.4	1.37e-05	0	59	0	737148928	51	5027
2026-01-15 22:51:23.17	59.16	32.21	-40.5	-42.9	13.3	1.06e-05	0	59	0	740294656	51	5061
2026-01-15 22:51:24.18	59.46	32.34	-40.5	-42.9	13.3	1.98e-05	0	59	0	743440384	51	5089
2026-01-15 22:51:25.19	59.76	32.46	-40.5	-43.0	13.2	2.44e-05	0	59	0	746586112	51	5129
2026-01-15 22:51:26.20	60.07	32.58	-40.7	-43.2	13.0	2.82e-05	0	59	0	749731840	51	5265
2026-01-15 22:51:27.21	60.37	32.71	-40.7	-43.2	12.9	4.50e-05	0	59	0	752877568	51	5278
2026-01-15 22:51:28.22	60.68	32.83	-40.7	-43.2	12.9	4.11e-05	0	59	0	756023296	52	4970
2026-01-15 22:51:29.23	60.99	32.95	-40.8	-43.3	12.8	5.87e-05	0	59	0	759169024	52	5039
2026-01-15 22:51:30.24	61.30	33.07	-40.9	-43.5	12.6	8.69e-05	0	59	0	762314752	52	5130
2026-01-15 22:51:31.24	61.61	33.19	-40.9	-43.6	12.5	1.17e-04	0	59	0	765460480	52	5216
2026-01-15 22:51:32.26	61.93	33.31	-41.1	-43.9	12.3	1.58e-04	0	59	0	768606208	52	5344
2026-01-15 22:51:33.27	62.25	33.43	-41.1	-43.9	12.2	2.18e-04	0	59	0	771751936	52	5392
2026-01-15 22:51:34.28	62.57	33.55	-41.0	-43.8	12.3	1.75e-04	0	59	0	774897664	52	5316
2026-01-15 22:51:35.29	62.89	33.67	-41.0	-43.8	12.4	1.48e-04	0	59	0	778043392	52	5302
2026-01-15 22:51:36.30	63.22	33.79	-41.1	-43.8	12.3	1.79e-04	0	59	0	781189120	52	5331
2026-01-15 22:51:37.31	63.55	33.91	-41.1	-43.8	12.4	1.72e-04	0	59	0	784334848	52	5312
2026-01-15 22:51:38.32	63.88	34.02	-41.2	-44.0	12.2	1.91e-04	0	59	0	787480576	52	5406
2026-01-15 22:51:39.33	64.21	34.14	-41.3	-44.2	11.9	3.10e-04	0	59	0	790626304	53	5238
2026-01-15 22:51:40.34	64.54	34.26	-41.3	-44.1	12.0	3.30e-04	0	59	0	793772032	53	5208
2026-01-15 22:51:41.35	64.88	34.37	-41.2	-44.0	12.2	2.37e-04	0	59	0	796917760	53	5111
2026-01-15 22:51:42.36	65.22	34.49	-41.1	-43.9	12.2	2.26e-04	0	59	0	800063488	53	5072
2026-01-15 22:51:43.37	65.56	34.60	-41.0	-43.7	12.4	1.38e-04	0	59	0	803209216	53	4950
2026-01-15 22:51:44.38	65.91	34.71	-41.0	-43.6	12.5	1.07e-04	0	59	0	806354944	53	4925
2026-01-15 22:51:45.39	66.26	34.82	-41.1	-43.8	12.3	2.03e-04	0	59	0	809500672	53	5016
2026-01-15 22:51:46.40	66.60	34.94	-41.2	-44.0	12.2	2.08e-04	0	59	0	812646400	53	5115
2026-01-15 22:51:47.41	66.96	35.05	-41.2	-44.1	12.0	2.88e-04	0	59	0	815792128	53	5194
2026-01-15 22:51:48.42	67.31	35.16	-41.3	-44.2	11.9	4.20e-04	0	59	0	818937856	53	5264
2026-01-15 22:51:49.43	67.67	35.27	-41.2	-44.0	12.1	3.25e-04	0	59	0	822083584	53	5143
2026-01-15 22:51:50.44	68.03	35.38	-41.1	-43.9	12.4	1.88e-04	0	59	0	825229312	53	5048
2026-01-15 22:51:51.45	68.39	35.48	-41.0	-43.7	12.4	1.56e-04	0	59	0	828375040	53	4979
2026-01-15 22:51:52.46	68.75	35.59	-41.0	-43.7	12.4	1.31e-04	0	60	0	831520768	53	4961
2026-01-15 22:51:53.47	69.12	35.70	-41.0	-43.6	12.5	1.38e-04	0	59	0	834666496	53	4926
2026-01-15 22:51:54.47	69.48	35.80	-41.0	-43.7	12.4	1.34e-04	0	59	0	837812224	53	4964
2026-01-15 22:51:55.48	69.85	35.90	-41.1	-43.8	12.3	1.51e-04	0	59	0	840957952	53	5006
2026-01-15 22:51:56.50	70.23	36.01	-41.0	-43.8	12.4	1.39e-04	0	59	0	844103680	53	4987
2026-01-15 22:51:57.50	70.60	36.11	-41.1	-43.8	12.3	1.58e-04	0	59	0	847249408	53	5011
2026-01-15 22:51:58.51	70.98	36.21	-41.1	-43.8	12.4	1.45e-04	0	60	0	850395136	53	5004
2026-01-15 22:51:59.52	71.36	36.31	-41.1	-43.8	12.3	1.91e-04	0	59	0	853540864	53	5021
2026-01-15 22:52:00.53	71.74	36.41	-41.1	-43.8	12.3	1.65e-04	0	60	0	856686592	53	5017
2026-01-15 22:52:01.54	72.12	36.50	-41.1	-43.9	12.3	1.99e-04	0	59	0	859832320	53	5045
2026-01-15 22:52:02.55	72.51	36.60	-41.2	-44.0	12.1	1.95e-04	0	59	0	862978048	53	5105
2026-01-15 22:52:03.56	72.90	36.70	-41.1	-43.8	12.3	2.15e-04	0	59	0	866123776	53	5026
2026-01-15 22:52:04.57	73.29	36.79	-41.0	-43.7	12.5	1.23e-04	0	59	0	870318080	53	4954
2026-01-15 22:52:05.58	73.68	36.88	-41.0	-43.7	12.4	1.06e-04	0	60	0	872415232	53	4956
2026-01-15 22:52:06.59	74.08	36.98	-41.1	-43.9	12.3	1.53e-04	0	60	0	875560960	53	5070
2026-01-15 22:52:07.60	74.48	37.07	-41.3	-44.1	12.1	2.49e-04	0	59	0	878706688	53	5193
2026-01-15 22:52:08.61	74.88	37.16	-41.3	-44.2	12.0	3.83e-04	0	60	0	881852416	53	5222
2026-01-15 22:52:09.62	75.28	37.24	-41.3	-44.1	12.1	3.48e-04	0	59	0	886046720	53	5183
2026-01-15 22:52:10.64	75.69	37.33	-41.2	-44.0	12.2	2.41e-04	0	59	0	889192448	53	5122
2026-01-15 22:52:11.64	76.09	37.41	-41.2	-43.9	12.3	1.93e-04	0	59	0	892338176	53	5084
2026-01-15 22:52:12.65	76.50	37.50	-41.1	-43.8	12.4	2.00e-04	0	59	0	895483904	53	5028
2026-01-15 22:52:13.66	76.91	37.58	-41.3	-44.1	12.1	1.99e-04	0	59	0	897581056	53	5184
2026-01-15 22:52:14.67	77.32	37.66	-41.4	-44.3	11.8	3.79e-04	0	59	0	901775360	53	5340
2026-01-15 22:52:15.68	77.74	37.74	-41.7	-44.8	11.4	9.02e-04	0	60	0	904921088	53	5635
2026-01-15 22:52:16.69	78.15	37.82	-41.8	-44.9	11.2	1.27e-03	0	59	0	908066816	54	5384
2026-01-15 22:52:17.70	78.57	37.90	-41.7	-44.9	11.4	1.05e-03	0	59	0	911212544	54	5351
2026-01-15 22:52:18.71	78.99	37.97	-41.8	-44.9	11.3	1.12e-03	0	60	0	914358272	54	5387
2026-01-15 22:52:19.72	79.41	38.04	-41.8	-45.0	11.1	1.76e-03	0	59	0	917504000	54	5454
2026-01-15 22:52:20.73	79.84	38.12	-41.9	-45.1	11.1	1.65e-03	0	59	0	920649728	54	5503
2026-01-15 22:52:21.74	80.27	38.19	-41.7	-44.9	11.3	1.42e-03	0	59	0	923795456	54	5344
2026-01-15 22:52:22.75	80.69	38.26	-41.7	-44.9	11.3	1.17e-03	0	59	0	926941184	54	5341
2026-01-15 22:52:23.76	81.12	38.32	-41.7	-44.9	11.3	9.63e-04	0	59	0	930086912	54	5363
2026-01-15 22:52:24.77	81.55	38.39	-41.8	-44.9	11.2	1.21e-03	0	59	0	933232640	54	5379
2026-01-15 22:52:25.78	81.99	38.45	-41.7	-44.8	11.4	1.09e-03	0	59	0	936378368	54	5292
2026-01-15 22:52:26.79	82.42	38.51	-41.6	-44.6	11.6	9.83e-04	0	59	0	939524096	54	5206
2026-01-15 22:52:27.80	82.86	38.57	-41.5	-44.5	11.6	6.42e-04	0	59	0	942669824	54	5129
2026-01-15 22:52:28.81	83.30	38.63	-41.5	-44.4	11.8	5.59e-04	0	59	0	945815552	54	5079
2026-01-15 22:52:29.82	83.74	38.69	-41.5	-44.5	11.7	5.66e-04	0	59	0	948961280	54	5141
2026-01-15 22:52:30.83	84.18	38.75	-41.6	-44.6	11.6	6.80e-04	0	59	0	952107008	54	5192
2026-01-15 22:52:31.84	84.62	38.80	-41.6	-44.7	11.5	9.82e-04	0	59	0	955252736	54	5244
2026-01-15 22:52:32.85	85.07	38.85	-41.7	-44.7	11.4	8.29e-04	0	60	0	958398464	54	5279
2026-01-15 22:52:33.86	85.51	38.90	-41.5	-44.5	11.7	5.74e-04	0	59	0	961544192	54	5126
2026-01-15 22:52:34.87	85.96	38.95	-41.5	-44.5	11.7	5.05e-04	0	60	0	964689920	54	5128
2026-01-15 22:52:35.88	86.41	38.99	-41.6	-44.7	11.6	7.20e-04	0	60	0	967835648	54	5226
2026-01-15 22:52:36.89	86.86	39.04	-41.6	-44.7	11.5	8.02e-04	0	60	0	970981376	54	5253
2026-01-15 22:52:37.90	87.31	39.08	-41.6	-44.7	11.6	7.69e-04	0	60	0	974127104	54	5232
2026-01-15 22:52:38.91	87.76	39.12	-41.6	-44.6	11.6	5.49e-04	0	59	0	977272832	54	5183
2026-01-15 22:52:39.92	88.21	39.16	-41.6	-44.6	11.6	5.90e-04	0	59	0	980418560	54	5187
2026-01-15 22:52:40.93	88.66	39.19	-41.6	-44.6	11.6	6.74e-04	0	59	0	983564288	54	5188
2026-01-15 22:52:41.94	89.12	39.23	-41.6	-44.5	11.7	6.63e-04	0	59	0	986710016	54	5153
2026-01-15 22:52:42.95	89.58	39.26	-41.5	-44.4	11.9	5.00e-04	0	60	0	989855744	54	5049
2026-01-15 22:52:43.96	90.03	39.29	-41.5	-44.4	11.8	5.04e-04	0	59	0	993001472	54	5092
2026-01-15 22:52:44.97	90.49	39.32	-41.4	-44.3	11.9	3.75e-04	0	59	0	996147200	54	5021
2026-01-15 22:52:45.98	90.95	39.35	-41.6	-44.6	11.6	6.35e-04	0	60	0	999292928	54	5187
2026-01-15 22:52:46.98	91.40	39.37	-41.8	-45.0	11.2	1.32e-03	0	60	0	1002438656	54	5439
2026-01-15 22:52:47.99	91.86	39.39	-41.8	-45.0	11.2	1.48e-03	0	60	0	1005584384	54	5410
2026-01-15 22:52:49.00	92.32	39.42	-41.8	-45.0	11.2	1.50e-03	0	60	0	1008730112	54	5423
2026-01-15 22:52:50.01	92.78	39.43	-41.6	-44.6	11.6	8.03e-04	0	60	0	1011875840	54	5208
2026-01-15 22:52:51.02	93.25	39.45	-41.8	-45.0	11.2	1.12e-03	0	60	0	1015021568	54	5434
2026-01-15 22:52:52.02	93.70	39.46	-42.0	-45.4	10.8	2.09e-03	0	60	0	1018167296	54	5679
2026-01-15 22:52:53.03	94.16	39.48	-42.0	-45.4	10.8	2.92e-03	0	60	0	1021313024	54	5698
2026-01-15 22:52:54.04	94.63	39.49	-41.8	-45.0	11.2	1.83e-03	0	60	0	1024458752	54	5432
2026-01-15 22:52:55.05	95.09	39.50	-41.8	-44.9	11.4	1.05e-03	0	60	0	1027604480	54	5369
2026-01-15 22:52:56.06	95.55	39.50	-41.9	-45.0	11.2	1.29e-03	0	60	0	1030750208	54	5462
2026-01-15 22:52:57.07	96.02	39.51	-41.9	-45.2	11.0	1.71e-03	0	60	0	1033895936	54	5557
2026-01-15 22:52:58.08	96.48	39.51	-42.0	-45.4	10.8	2.44e-03	0	60	0	1037041664	54	5681
2026-01-15 22:52:59.09	96.94	39.51	-42.0	-45.3	11.0	2.11e-03	0	60	0	1040187392	54	5597
2026-01-15 22:53:00.10	97.41	39.51	-41.8	-44.9	11.3	1.41e-03	0	60	0	1043333120	54	5351
2026-01-15 22:53:01.11	97.87	39.50	-41.7	-44.7	11.5	8.01e-04	0	60	0	1046478848	54	5246
2026-01-15 22:53:02.12	98.33	39.50	-41.7	-44.8	11.4	8.85e-04	0	60	0	1049624576	54	5285
2026-01-15 22:53:03.13	98.80	39.49	-41.7	-44.8	11.5	9.39e-04	0	60	0	1052770304	54	5315
2026-01-15 22:53:04.14	99.26	39.48	-41.9	-45.1	11.1	1.43e-03	0	60	0	1055916032	54	5491
2026-01-15 22:53:05.16	99.73	39.47	-41.9	-45.2	11.0	1.99e-03	0	60	0	1059061760	54	5563
2026-01-15 22:53:06.16	100.18	39.45	-41.7	-44.8	11.4	9.37e-04	0	59	0	1062207488	54	5280
2026-01-15 22:53:07.17	100.65	39.43	-41.7	-44.8	11.4	8.71e-04	0	60	0	1065353216	54	5297
2026-01-15 22:53:08.18	101.11	39.42	-41.7	-44.8	11.4	8.86e-04	0	60	0	1068498944	54	5308
2026-01-15 22:53:09.19	101.57	39.40	-41.6	-44.7	11.5	8.04e-04	0	60	0	1071644672	54	5242
2026-01-15 22:53:10.20	102.03	39.37	-41.7	-44.8	11.4	8.41e-04	0	60	0	1074790400	54	5301
2026-01-15 22:53:11.21	102.49	39.35	-41.8	-45.0	11.2	1.31e-03	0	60	0	1077936128	54	5448
2026-01-15 22:53:12.22	102.95	39.32	-41.8	-44.9	11.3	1.07e-03	0	60	0	1081081856	54	5353
2026-01-15 22:53:13.23	103.40	39.29	-41.8	-44.9	11.3	1.09e-03	0	60	0	1084227584	54	5373
2026-01-15 22:53:14.24	103.86	39.26	-41.8	-45.1	11.1	1.49e-03	0	60	0	1087373312	54	5472
2026-01-15 22:53:15.26	104.32	39.23	-41.8	-45.0	11.2	1.48e-03	0	60	0	1090519040	54	5417
2026-01-15 22:53:16.26	104.77	39.20	-41.8	-45.0	11.2	1.41e-03	0	60	0	1093664768	54	5449
2026-01-15 22:53:17.27	105.23	39.16	-41.8	-44.9	11.3	1.30e-03	0	60	0	1096810496	54	5361
2026-01-15 22:53:18.28	105.68	39.12	-41.7	-44.7	11.5	1.02e-03	0	60	0	1099956224	54	5271
2026-01-15 22:53:19.30	106.14	39.08	-41.4	-44.3	11.9	4.94e-04	0	60	0	1103101952	54	5036
2026-01-15 22:53:20.31	106.59	39.04	-41.6	-44.7	11.6	6.32e-04	0	60	0	1106247680	54	5225
2026-01-15 22:53:21.32	107.04	38.99	-41.7	-44.8	11.5	7.97e-04	0	60	0	1109393408	54	5292
2026-01-15 22:53:22.33	107.49	38.95	-41.6	-44.7	11.6	8.34e-04	0	60	0	1112539136	54	5219
2026-01-15 22:53:23.34	107.93	38.90	-41.7	-44.8	11.5	7.76e-04	0	60	0	1115684864	54	5286
2026-01-15 22:53:24.35	108.38	38.85	-41.8	-44.9	11.3	1.00e-03	0	60	0	1118830592	54	5361
2026-01-15 22:53:25.36	108.83	38.80	-41.8	-45.0	11.2	1.22e-03	0	60	0	1121976320	54	5451
2026-01-15 22:53:26.37	109.27	38.75	-41.5	-44.4	11.9	4.96e-04	0	60	0	1125122048	54	5060
2026-01-15 22:53:27.38	109.71	38.69	-41.4	-44.2	12.0	3.46e-04	0	60	0	1128267776	54	4978
2026-01-15 22:53:28.39	110.15	38.63	-41.5	-44.5	11.8	3.65e-04	0	60	0	1131413504	54	5118
2026-01-15 22:53:29.40	110.59	38.57	-41.5	-44.5	11.7	5.62e-04	0	60	0	1134559232	54	5134
2026-01-15 22:53:30.41	111.03	38.51	-41.6	-44.6	11.7	4.89e-04	0	60	0	1137704960	54	5179
2026-01-15 22:53:31.42	111.46	38.45	-41.4	-44.3	12.0	3.68e-04	0	60	0	1140850688	54	5006
2026-01-15 22:53:32.43	111.90	38.39	-41.2	-43.9	12.3	2.20e-04	0	60	0	1143996416	54	4799
2026-01-15 22:53:33.44	112.33	38.32	-41.0	-43.6	12.7	8.23e-05	0	60	0	1147142144	53	4899
2026-01-15 22:53:34.45	112.76	38.26	-41.0	-43.7	12.5	1.11e-04	0	60	0	1150287872	53	4952
2026-01-15 22:53:35.46	113.19	38.19	-41.1	-43.8	12.5	1.41e-04	0	60	0	1153433600	53	5005
2026-01-15 22:53:36.47	113.62	38.12	-41.1	-43.8	12.5	1.24e-04	0	60	0	1156579328	53	5014
2026-01-15 22:53:37.48	114.04	38.04	-41.3	-44.1	12.2	1.92e-04	0	60	0	1159725056	53	5170
2026-01-15 22:53:38.49	114.47	37.97	-41.5	-44.6	11.7	4.61e-04	0	60	0	1162870784	53	5467
2026-01-15 22:53:39.50	114.89	37.89	-41.7	-44.9	11.4	1.06e-03	0	59	0	1166016512	54	5368
2026-01-15 22:53:40.51	115.31	37.82	-41.9	-45.1	11.1	1.31e-03	0	60	0	1169162240	54	5509
2026-01-15 22:53:41.52	115.73	37.74	-41.7	-44.9	11.4	1.12e-03	0	60	0	1172307968	54	5360
2026-01-15 22:53:42.53	116.14	37.66	-41.2	-44.0	12.2	3.85e-04	0	60	0	1175453696	54	4842
2026-01-15 22:53:43.54	116.56	37.58	-41.1	-43.9	12.4	1.38e-04	0	60	0	1178599424	54	4761
2026-01-15 22:53:44.55	116.97	37.50	-41.3	-44.1	12.1	2.23e-04	0	60	0	1181745152	54	4913
2026-01-15 22:53:45.56	117.38	37.41	-41.4	-44.2	12.0	3.11e-04	0	60	0	1184890880	54	4980
2026-01-15 22:53:46.57	117.78	37.33	-41.3	-44.2	12.2	2.33e-04	0	60	0	1188036608	54	4931
2026-01-15 22:53:47.58	118.19	37.24	-41.2	-44.0	12.3	2.04e-04	0	60	0	1191182336	54	4839
2026-01-15 22:53:48.59	118.59	37.15	-41.1	-43.8	12.4	1.85e-04	0	60	0	1194328064	54	4753
2026-01-15 22:53:49.60	118.99	37.06	-41.1	-43.8	12.4	1.42e-04	0	60	0	1197473792	54	4741
2026-01-15 22:53:50.62	119.40	36.97	-41.2	-43.9	12.3	1.87e-04	0	60	0	1200619520	54	4805
2026-01-15 22:53:51.63	119.79	36.88	-40.9	-43.5	12.7	1.17e-04	0	60	0	1204813824	53	4856
2026-01-15 22:53:52.64	120.19	36.78	-40.9	-43.5	12.7	7.32e-05	0	60	0	1207959552	53	4831
2026-01-15 22:53:53.64	120.58	36.69	-40.9	-43.6	12.7	8.62e-05	0	60	0	1211105280	53	4880
2026-01-15 22:53:54.65	120.97	36.60	-41.2	-44.0	12.3	1.75e-04	0	60	0	1213202432	53	5116
2026-01-15 22:53:55.66	121.35	36.50	-41.4	-44.3	11.9	2.69e-04	0	60	0	1216348160	53	5289
2026-01-15 22:53:56.67	121.74	36.40	-41.3	-44.2	12.1	3.50e-04	0	60	0	1220542464	53	5259
2026-01-15 22:53:57.68	122.12	36.30	-41.2	-44.0	12.3	2.37e-04	0	60	0	1223688192	53	5115
2026-01-15 22:53:58.69	122.50	36.20	-41.1	-43.9	12.4	1.77e-04	0	60	0	1226833920	53	5046
2026-01-15 22:53:59.70	122.88	36.10	-41.1	-43.9	12.3	1.89e-04	0	60	0	1229979648	53	5068
2026-01-15 22:54:00.71	123.26	36.00	-41.0	-43.7	12.5	1.47e-04	0	60	0	1233125376	53	4950
2026-01-15 22:54:01.72	123.63	35.89	-41.0	-43.6	12.6	8.31e-05	0	60	0	1235222528	53	4922
2026-01-15 22:54:02.73	124.01	35.79	-41.1	-43.8	12.5	9.61e-05	0	60	0	1239416832	53	5022
2026-01-15 22:54:03.74	124.37	35.68	-41.2	-44.1	12.2	2.34e-04	0	60	0	1242562560	53	5162
2026-01-15 22:54:04.75	124.74	35.58	-41.3	-44.2	12.1	2.54e-04	0	60	0	1245708288	53	5222
2026-01-15 22:54:05.76	125.11	35.47	-41.1	-43.9	12.4	1.62e-04	0	60	0	1248854016	53	5056
2026-01-15 22:54:06.77	125.47	35.36	-41.1	-43.8	12.5	1.19e-04	0	60	0	1251999744	53	5028
2026-01-15 22:54:07.78	125.83	35.25	-40.9	-43.5	12.8	6.25e-05	0	60	0	1255145472	53	4867
2026-01-15 22:54:08.79	126.19	35.14	-40.8	-43.4	12.9	5.72e-05	0	60	0	1258291200	53	4789
2026-01-15 22:54:09.80	126.54	35.03	-40.9	-43.5	12.8	5.11e-05	0	60	0	1261436928	53	4828
2026-01-15 22:54:10.81	126.89	34.92	-41.0	-43.6	12.7	7.55e-05	0	60	0	1264582656	53	4908
2026-01-15 22:54:11.82	127.24	34.81	-40.9	-43.6	12.7	6.79e-05	0	60	0	1267728384	53	4881
2026-01-15 22:54:12.83	127.59	34.70	-40.9	-43.5	12.8	5.56e-05	0	60	0	1270874112	53	4861
2026-01-15 22:54:13.84	127.94	34.58	-41.0	-43.7	12.6	9.15e-05	0	60	0	1274019840	53	4970
2026-01-15 22:54:14.85	128.28	34.47	-41.2	-44.0	12.3	1.72e-04	0	60	0	1277165568	53	5132
2026-01-15 22:54:15.86	128.62	34.35	-41.2	-44.0	12.3	2.23e-04	0	60	0	1280311296	53	5143
2026-01-15 22:54:16.87	128.96	34.24	-41.1	-43.8	12.5	1.66e-04	0	60	0	1283457024	53	5030
2026-01-15 22:54:17.88	129.30	34.12	-40.9	-43.5	12.8	9.00e-05	0	60	0	1286602752	53	4869
2026-01-15 22:54:18.89	129.63	34.00	-40.7	-43.2	13.0	3.66e-05	0	60	0	1289748480	53	4688
2026-01-15 22:54:19.90	129.96	33.88	-40.9	-43.5	12.8	4.57e-05	0	60	0	1292894208	53	4828
2026-01-15 22:54:20.91	130.29	33.77	-40.9	-43.5	12.8	6.48e-05	0	60	0	1296039936	53	4864
2026-01-15 22:54:21.92	130.62	33.65	-40.8	-43.3	13.0	4.80e-05	0	60	0	1299185664	53	4747
2026-01-15 22:54:22.93	130.94	33.53	-40.8	-43.3	13.0	3.05e-05	0	60	0	1302331392	53	4739
2026-01-15 22:54:23.94	131.27	33.41	-40.7	-43.3	13.1	3.20e-05	0	60	0	1305477120	53	4714
2026-01-15 22:54:24.95	131.58	33.29	-40.9	-43.5	12.9	3.50e-05	0	60	0	1308622848	53	4817
2026-01-15 22:54:25.96	131.90	33.17	-41.0	-43.7	12.6	8.85e-05	0	60	0	1311768576	53	4955
2026-01-15 22:54:26.97	132.22	33.04	-40.9	-43.6	12.7	8.31e-05	0	60	0	1314914304	53	4900
2026-01-15 22:54:27.97	132.53	32.92	-40.8	-43.3	13.0	3.58e-05	0	60	0	1318060032	53	4751
2026-01-15 22:54:28.98	132.84	32.80	-40.7	-43.2	13.1	2.51e-05	0	60	0	1321205760	53	4688
2026-01-15 22:54:29.99	133.15	32.68	-40.6	-43.1	13.2	2.82e-05	0	60	0	1324351488	53	4626
2026-01-15 22:54:31.00	133.45	32.55	-40.6	-43.1	13.2	2.21e-05	0	60	0	1327497216	53	4609
2026-01-15 22:54:32.01	133.76	32.43	-40.7	-43.2	13.1	2.28e-05	0	60	0	1330642944	53	4692
2026-01-15 22:54:33.02	134.06	32.31	-40.7	-43.2	13.1	2.59e-05	0	60	0	1333788672	53	4677
2026-01-15 22:54:34.03	134.36	32.18	-40.6	-43.1	13.2	2.05e-05	0	60	0	1336934400	53	4615
2026-01-15 22:54:35.04	134.65	32.06	-40.6	-43.1	13.2	2.89e-05	0	60	0	1340080128	53	4634
2026-01-15 22:54:36.05	134.95	31.93	-40.6	-43.0	13.2	1.98e-05	0	60	0	1343225856	53	4593
2026-01-15 22:54:37.06	135.24	31.81	-40.7	-43.2	13.1	2.13e-05	0	60	0	1346371584	53	4690
2026-01-15 22:54:38.07	135.53	31.68	-40.7	-43.2	13.1	3.58e-05	0	60	0	1349517312	53	4694
2026-01-15 22:54:39.08	135.82	31.56	-40.7	-43.2	13.0	3.43e-05	0	60	0	1352663040	53	4689
2026-01-15 22:54:40.09	136.11	31.43	-40.7	-43.3	13.0	3.50e-05	0	60	0	1355808768	53	4728
2026-01-15 22:54:41.10	136.39	31.31	-40.7	-43.2	13.0	4.04e-05	0	60	0	1358954496	53	4700
2026-01-15 22:54:42.11	136.67	31.18	-40.5	-43.0	13.3	1.37e-05	0	60	0	1362100224	53	4549
2026-01-15 22:54:43.12	136.95	31.05	-40.6	-43.0	13.2	1.83e-05	0	60	0	1365245952	53	4580
2026-01-15 22:54:44.13	137.23	30.93	-40.7	-43.2	13.0	3.35e-05	0	60	0	1368391680	53	4696
2026-01-15 22:54:45.14	137.50	30.80	-40.7	-43.3	12.9	3.66e-05	0	60	0	1371537408	53	4750
2026-01-15 22:54:46.15	137.78	30.67	-40.8	-43.4	12.9	6.02e-05	0	60	0	1374683136	53	4810
2026-01-15 22:54:47.16	138.05	30.54	-40.9	-43.6	12.6	7.55e-05	0	60	0	1377828864	53	4924
2026-01-15 22:54:48.17	138.32	30.42	-40.9	-43.6	12.7	7.17e-05	0	60	0	1380974592	53	4885
2026-01-15 22:54:49.18	138.58	30.29	-40.8	-43.3	12.9	4.57e-05	0	60	0	1384120320	53	4758
2026-01-15 22:54:50.19	138.85	30.16	-40.7	-43.3	13.0	4.50e-05	0	60	0	1387266048	53	4708
2026-01-15 22:54:51.20	139.11	30.03	-40.6	-43.2	13.1	2.28e-05	0	60	0	1390411776	53	4655
2026-01-15 22:54:52.22	139.37	29.91	-40.5	-43.0	13.3	2.51e-05	0	60	0	1393557504	53	4579
2026-01-15 22:54:53.23	139.63	29.78	-40.5	-43.0	13.3	2.28e-05	0	60	0	1396703232	53	4578
2026-01-15 22:54:54.24	139.89	29.65	-40.5	-43.0	13.3	1.98e-05	0	60	0	1399848960	53	4563
2026-01-15 22:54:55.25	140.14	29.52	-40.5	-43.0	13.3	1.75e-05	0	60	0	1402994688	53	4561
2026-01-15 22:54:56.26	140.40	29.39	-40.4	-42.9	13.4	1.14e-05	0	60	0	1406140416	52	4764
2026-01-15 22:54:57.27	140.65	29.27	-40.4	-42.7	13.5	9.10e-06	0	60	0	1409286144	52	4701
2026-01-15 22:54:58.28	140.90	29.14	-40.2	-42.6	13.7	9.10e-06	0	60	0	1412431872	52	4608
2026-01-15 22:54:59.29	141.14	29.01	-40.1	-42.4	13.9	6.80e-06	0	60	0	1415577600	52	4523
2026-01-15 22:55:00.30	141.39	28.88	-40.1	-42.3	14.0	3.80e-06	0	60	0	1418723328	52	4484
2026-01-15 22:55:01.31	141.63	28.75	-40.1	-42.3	14.0	3.80e-06	0	60	0	1421869056	52	4463
2026-01-15 22:55:02.32	141.87	28.63	-40.1	-42.3	14.0	2.20e-06	0	60	0	1425014784	52	4468
2026-01-15 22:55:03.33	142.11	28.50	-40.1	-42.3	13.9	2.20e-06	0	60	0	1428160512	52	4485
2026-01-15 22:55:04.34	142.35	28.37	-40.1	-42.4	13.8	3.00e-06	0	60	0	1431306240	52	4542
2026-01-15 22:55:05.35	142.58	28.24	-40.2	-42.5	13.8	4.50e-06	0	60	0	1434451968	52	4563
2026-01-15 22:55:06.35	142.82	28.12	-40.0	-42.3	14.0	5.30e-06	0	60	0	1437597696	52	4461
2026-01-15 22:55:07.36	143.05	27.99	-40.0	-42.3	14.0	3.00e-06	0	60	0	1440743424	51	4706
2026-01-15 22:55:08.37	143.28	27.86	-39.9	-42.1	14.3	1.50e-06	0	60	0	1443889152	51	4613
2026-01-15 22:55:09.38	143.51	27.74	-39.8	-42.0	14.3	7.00e-07	0	60	0	1447034880	51	4548
2026-01-15 22:55:10.39	143.73	27.61	-39.9	-42.1	14.2	7.00e-07	0	60	0	1450180608	51	4622
2026-01-15 22:55:11.40	143.96	27.48	-40.0	-42.2	14.1	1.50e-06	0	60	0	1453326336	51	4680
2026-01-15 22:55:12.41	144.18	27.35	-40.0	-42.3	14.1	1.50e-06	0	60	0	1456472064	51	4706
2026-01-15 22:55:13.43	144.40	27.23	-40.1	-42.3	14.0	7.00e-07	0	60	0	1459617792	51	4733
2026-01-15 22:55:14.43	144.62	27.10	-40.0	-42.3	14.1	2.20e-06	0	60	0	1462763520	51	4708
2026-01-15 22:55:15.44	144.84	26.97	-40.1	-42.3	14.0	3.00e-06	0	60	0	1465909248	51	4748
2026-01-15 22:55:16.45	145.06	26.85	-40.1	-42.4	13.9	2.20e-06	0	60	0	1469054976	51	4796
2026-01-15 22:55:17.46	145.27	26.72	-40.0	-42.2	14.1	1.50e-06	0	60	0	1472200704	51	4705
2026-01-15 22:55:18.47	145.48	26.60	-40.0	-42.2	14.1	2.20e-06	0	60	0	1475346432	51	4673
2026-01-15 22:55:19.48	145.69	26.47	-40.0	-42.2	14.1	4.50e-06	0	60	0	1478492160	51	4686
2026-01-15 22:55:20.49	145.90	26.34	-39.9	-42.1	14.2	2.20e-06	0	60	0	1481637888	51	4605
2026-01-15 22:55:21.50	146.11	26.22	-39.9	-42.1	14.2	7.00e-07	0	60	0	1484783616	51	4610
2026-01-15 22:55:22.51	146.32	26.09	-39.9	-42.1	14.1	7.00e-07	0	60	0	1487929344	51	4650
2026-01-15 22:55:23.52	146.52	25.97	-40.0	-42.2	14.1	7.00e-07	0	60	0	1491075072	51	4666
2026-01-15 22:55:24.53	146.73	25.84	-39.9	-42.1	14.2	1.50e-06	0	60	0	1494220800	51	4604
2026-01-15 22:55:25.54	146.93	25.72	-39.9	-42.1	14.2	1.50e-06	0	60	0	1497366528	51	4613
2026-01-15 22:55:26.55	147.13	25.59	-39.9	-42.0	14.2	2.20e-06	0	60	0	1500512256	51	4595
2026-01-15 22:55:27.56	147.33	25.47	-39.8	-42.0	14.3	1.50e-06	0	60	0	1503657984	51	4556
2026-01-15 22:55:28.57	147.53	25.35	-39.8	-41.9	14.3	1.50e-06	0	60	0	1506803712	51	4545
2026-01-15 22:55:29.58	147.72	25.22	-39.8	-42.0	14.3	0.00e+00	0	60	0	1509949440	51	4556
2026-01-15 22:55:30.59	147.92	25.10	-39.7	-41.8	14.5	7.00e-07	0	60	0	1513095168	51	4448
2026-01-15 22:55:31.60	148.11	24.98	-39.7	-41.8	14.4	0.00e+00	0	60	0	1516240896	51	4492
2026-01-15 22:55:32.60	148.30	24.85	-39.8	-41.9	14.3	0.00e+00	0	60	0	1519386624	51	4530
2026-01-15 22:55:33.61	148.49	24.73	-39.9	-42.0	14.2	3.00e-06	0	60	0	1522532352	51	4593
2026-01-15 22:55:34.62	148.68	24.61	-40.0	-42.2	14.1	1.50e-06	0	60	0	1526726656	51	4662
2026-01-15 22:55:35.63	148.86	24.49	-40.0	-42.2	14.0	2.20e-06	0	60	0	1528823808	51	4674
2026-01-15 22:55:36.64	149.05	24.36	-40.1	-42.4	13.8	5.30e-06	0	60	0	1531969536	51	4784
2026-01-15 22:55:37.65	149.23	24.24	-40.1	-42.3	13.9	6.10e-06	0	60	0	1535115264	51	4742
2026-01-15 22:55:38.66	149.41	24.12	-40.1	-42.4	13.8	4.50e-06	0	60	0	1538260992	51	4809
2026-01-15 22:55:39.67	149.60	24.00	-40.3	-42.6	13.6	5.30e-06	0	60	0	1541406720	51	4900
2026-01-15 22:55:40.68	149.78	23.88	-40.4	-42.8	13.4	1.06e-05	0	60	0	1545601024	51	5014
2026-01-15 22:55:41.68	149.95	23.76	-40.5	-43.0	13.2	2.21e-05	0	60	0	1548746752	51	5116
2026-01-15 22:55:42.69	150.13	23.64	-40.6	-43.1	13.1	2.89e-05	0	60	0	1550843904	51	5213
2026-01-15 22:55:43.70	150.31	23.52	-40.7	-43.2	13.0	3.58e-05	0	60	0	1553989632	51	5264
2026-01-15 22:55:44.71	150.48	23.40	-40.5	-43.0	13.3	2.51e-05	0	60	0	1557135360	51	5101
2026-01-15 22:55:45.72	150.66	23.28	-40.4	-42.8	13.4	1.60e-05	0	60	0	1561329664	51	5040
2026-01-15 22:55:46.73	150.83	23.16	-40.3	-42.7	13.5	1.14e-05	0	60	0	1564475392	51	4935
2026-01-15 22:55:47.74	151.00	23.04	-40.2	-42.6	13.6	4.50e-06	0	60	0	1567621120	51	4888
2026-01-15 22:55:48.75	151.17	22.92	-40.3	-42.7	13.5	1.06e-05	0	60	0	1570766848	51	4957
2026-01-15 22:55:49.76	151.34	22.80	-40.4	-42.8	13.4	1.44e-05	0	60	0	1573912576	51	5015
2026-01-15 22:55:50.77	151.50	22.69	-40.4	-42.8	13.3	1.22e-05	0	60	0	1577058304	51	5034
2026-01-15 22:55:51.78	151.67	22.57	-40.4	-42.8	13.3	2.21e-05	0	60	0	1580204032	51	5028
2026-01-15 22:55:52.79	151.83	22.45	-40.4	-42.9	13.3	1.67e-05	0	60	0	1583349760	51	5049
2026-01-15 22:55:53.80	152.00	22.33	-40.4	-42.8	13.4	2.13e-05	0	60	0	1586495488	51	5001
2026-01-15 22:55:54.81	152.16	22.22	-40.3	-42.6	13.5	5.30e-06	0	60	0	1589641216	51	4922
2026-01-15 22:55:55.82	152.32	22.10	-40.2	-42.5	13.7	7.60e-06	0	60	0	1592786944	51	4838
2026-01-15 22:55:56.83	152.48	21.98	-40.2	-42.6	13.6	1.14e-05	0	60	0	1595932672	51	4878
2026-01-15 22:55:57.84	152.64	21.87	-40.2	-42.5	13.7	6.10e-06	0	60	0	1599078400	51	4835
2026-01-15 22:55:58.85	152.80	21.75	-40.2	-42.5	13.6	8.30e-06	0	60	0	1602224128	51	4852
2026-01-15 22:55:59.86	152.95	21.64	-40.1	-42.5	13.7	8.30e-06	0	60	0	1605369856	51	4815
2026-01-15 22:56:00.87	153.11	21.52	-40.1	-42.5	13.7	4.50e-06	0	60	0	1608515584	51	4818
2026-01-15 22:56:01.88	153.26	21.41	-40.2	-42.6	13.6	1.06e-05	0	60	0	1611661312	51	4872
2026-01-15 22:56:02.89	153.42	21.29	-40.2	-42.6	13.6	7.60e-06	0	60	0	1614807040	51	4881
2026-01-15 22:56:03.90	153.57	21.18	-40.3	-42.6	13.5	1.29e-05	0	60	0	1617952768	51	4922
2026-01-15 22:56:04.91	153.72	21.06	-40.3	-42.7	13.5	8.30e-06	0	60	0	1621098496	51	4933
2026-01-15 22:56:05.92	153.87	20.95	-40.3	-42.7	13.5	1.29e-05	0	60	0	1624244224	51	4941
2026-01-15 22:56:06.93	154.02	20.84	-40.2	-42.6	13.5	1.06e-05	0	60	0	1627389952	51	4917
2026-01-15 22:56:07.94	154.17	20.73	-40.2	-42.6	13.5	9.90e-06	0	60	0	1630535680	51	4905
2026-01-15 22:56:08.95	154.31	20.61	-40.2	-42.6	13.5	9.90e-06	0	60	0	1633681408	51	4890
2026-01-15 22:56:09.96	154.46	20.50	-40.2	-42.6	13.5	1.29e-05	0	60	0	1636827136	51	4911
2026-01-15 22:56:10.97	154.60	20.39	-40.2	-42.6	13.5	7.60e-06	0	60	0	1639972864	51	4907
2026-01-15 22:56:11.98	154.75	20.28	-40.3	-42.6	13.5	1.37e-05	0	60	0	1643118592	51	4926
2026-01-15 22:56:12.99	154.89	20.17	-40.2	-42.6	13.5	1.14e-05	0	60	0	1646264320	51	4885
2026-01-15 22:56:14.00	155.03	20.06	-40.1	-42.5	13.6	4.50e-06	0	60	0	1649410048	51	4840
2026-01-15 22:56:15.01	155.17	19.94	-40.1	-42.4	13.7	3.00e-06	0	60	0	1652555776	51	4789
2026-01-15 22:56:16.02	155.31	19.83	-40.1	-42.4	13.7	5.30e-06	0	60	0	1655701504	51	4801
2026-01-15 22:56:17.03	155.45	19.72	-40.1	-42.5	13.6	6.10e-06	0	60	0	1658847232	51	4825
2026-01-15 22:56:18.04	155.59	19.61	-40.1	-42.4	13.7	9.10e-06	0	60	0	1661992960	51	4812
2026-01-15 22:56:19.05	155.73	19.51	-40.1	-42.5	13.6	9.90e-06	0	60	0	1665138688	51	4830
2026-01-15 22:56:20.06	155.86	19.40	-40.2	-42.5	13.5	1.37e-05	0	60	0	1668284416	51	4863
2026-01-15 22:56:21.06	155.99	19.29	-40.1	-42.5	13.6	1.29e-05	0	60	0	1671430144	51	4844
2026-01-15 22:56:22.08	156.13	19.18	-40.2	-42.6	13.5	1.06e-05	0	60	0	1674575872	51	4878
2026-01-15 22:56:23.08	156.26	19.07	-40.1	-42.5	13.6	5.30e-06	0	60	0	1677721600	51	4844
2026-01-15 22:56:24.10	156.40	18.96	-40.1	-42.5	13.6	9.90e-06	0	60	0	1680867328	51	4837
2026-01-15 22:56:25.10	156.53	18.86	-40.1	-42.5	13.6	1.14e-05	0	60	0	1684013056	51	4817
2026-01-15 22:56:26.11	156.66	18.75	-40.0	-42.3	13.8	3.00e-06	0	60	0	1687158784	51	4732
2026-01-15 22:56:27.12	156.79	18.64	-40.0	-42.3	13.8	4.50e-06	0	60	0	1690304512	51	4718
2026-01-15 22:56:28.13	156.91	18.54	-40.1	-42.4	13.7	5.30e-06	0	60	0	1693450240	51	4778
2026-01-15 22:56:29.14	157.04	18.43	-39.9	-42.2	13.8	4.50e-06	0	60	0	1696595968	51	4677
2026-01-15 22:56:30.15	157.17	18.33	-40.0	-42.3	13.8	3.80e-06	0	60	0	1699741696	51	4726
2026-01-15 22:56:31.16	157.29	18.22	-40.0	-42.4	13.7	8.30e-06	0	60	0	1702887424	51	4771
2026-01-15 22:56:32.17	157.42	18.12	-40.1	-42.5	13.5	1.06e-05	0	60	0	1706033152	51	4831
2026-01-15 22:56:33.18	157.54	18.01	-40.2	-42.7	13.4	1.52e-05	0	60	0	1709178880	51	4931
2026-01-15 22:56:34.19	157.67	17.91	-40.2	-42.6	13.3	1.52e-05	0	60	0	1712324608	51	4918
2026-01-15 22:56:35.20	157.79	17.80	-40.3	-42.7	13.2	2.05e-05	0	60	0	1715470336	51	4980
2026-01-15 22:56:36.21	157.91	17.70	-40.4	-42.9	13.1	2.74e-05	0	60	0	1718616064	51	5042
2026-01-15 22:56:37.22	158.03	17.59	-40.4	-43.0	13.0	3.81e-05	0	60	0	1721761792	51	5111
2026-01-15 22:56:38.23	158.15	17.49	-40.6	-43.2	12.8	6.02e-05	0	60	0	1724907520	51	5233
2026-01-15 22:56:39.24	158.27	17.39	-40.7	-43.4	12.6	8.46e-05	0	60	0	1728053248	51	5350
2026-01-15 22:56:40.24	158.39	17.29	-40.7	-43.5	12.4	1.36e-04	0	60	0	1731198976	52	5105
2026-01-15 22:56:41.25	158.51	17.18	-40.9	-43.7	12.2	2.20e-04	0	60	0	1734344704	52	5261
2026-01-15 22:56:42.26	158.63	17.08	-40.8	-43.6	12.3	1.95e-04	0	60	0	1737490432	52	5209
2026-01-15 22:56:43.27	158.74	16.98	-40.8	-43.5	12.3	1.73e-04	0	60	0	1740636160	52	5152
2026-01-15 22:56:44.28	158.86	16.88	-40.6	-43.4	12.5	1.21e-04	0	60	0	1743781888	52	5050
2026-01-15 22:56:45.30	158.97	16.78	-40.6	-43.3	12.6	9.61e-05	0	60	0	1746927616	52	5006
2026-01-15 22:56:46.31	159.09	16.68	-40.7	-43.4	12.5	1.01e-04	0	60	0	1750073344	52	5053
2026-01-15 22:56:47.32	159.20	16.58	-40.7	-43.5	12.4	1.34e-04	0	60	0	1753219072	52	5105
2026-01-15 22:56:48.33	159.31	16.48	-40.6	-43.3	12.5	1.19e-04	0	60	0	1756364800	52	5034
2026-01-15 22:56:49.34	159.43	16.38	-40.6	-43.3	12.5	9.46e-05	0	60	0	1759510528	52	5029
2026-01-15 22:56:50.35	159.54	16.28	-40.7	-43.4	12.5	1.31e-04	0	60	0	1762656256	52	5062
2026-01-15 22:56:51.36	159.65	16.18	-40.7	-43.5	12.4	1.59e-04	0	60	0	1765801984	52	5111
2026-01-15 22:56:52.37	159.76	16.08	-40.8	-43.5	12.3	1.71e-04	0	60	0	1768947712	52	5142
2026-01-15 22:56:53.38	159.87	15.98	-40.8	-43.7	12.2	2.11e-04	0	60	0	1772093440	52	5223
2026-01-15 22:56:54.39	159.98	15.88	-40.8	-43.6	12.2	1.81e-04	0	60	0	1775239168	52	5173
2026-01-15 22:56:55.40	160.08	15.78	-40.6	-43.3	12.5	1.38e-04	0	60	0	1778384896	52	5026
2026-01-15 22:56:56.41	160.19	15.69	-40.6	-43.2	12.6	1.07e-04	0	60	0	1781530624	52	4972
2026-01-15 22:56:57.42	160.30	15.59	-40.5	-43.2	12.6	1.01e-04	0	60	0	1784676352	52	4940
2026-01-15 22:56:58.43	160.40	15.49	-40.6	-43.3	12.4	1.27e-04	0	60	0	1787822080	52	5015
2026-01-15 22:56:59.44	160.51	15.40	-40.6	-43.4	12.4	1.52e-04	0	60	0	1790967808	52	5066
2026-01-15 22:57:00.45	160.61	15.30	-40.7	-43.4	12.3	1.52e-04	0	60	0	1794113536	52	5066
2026-01-15 22:57:01.46	160.72	15.20	-40.6	-43.3	12.5	1.57e-04	0	60	0	1797259264	52	4998
2026-01-15 22:57:02.47	160.82	15.11	-40.7	-43.4	12.3	1.53e-04	0	60	0	1800404992	52	5078
2026-01-15 22:57:03.48	160.92	15.01	-40.7	-43.5	12.2	1.65e-04	0	60	0	1803550720	52	5118
2026-01-15 22:57:04.49	161.02	14.92	-40.7	-43.6	12.2	2.59e-04	0	60	0	1806696448	52	5165
2026-01-15 22:57:05.50	161.13	14.82	-40.7	-43.4	12.3	1.50e-04	0	60	0	1809842176	52	5072
2026-01-15 22:57:06.51	161.23	14.73	-40.7	-43.4	12.3	2.01e-04	0	60	0	1812987904	52	5085
2026-01-15 22:57:07.52	161.33	14.63	-40.6	-43.3	12.4	1.62e-04	0	60	0	1816133632	52	5022
2026-01-15 22:57:08.53	161.43	14.54	-40.6	-43.3	12.5	1.24e-04	0	60	0	1819279360	52	4992
2026-01-15 22:57:09.54	161.53	14.44	-40.6	-43.3	12.4	1.37e-04	0	60	0	1822425088	52	5041
2026-01-15 22:57:10.55	161.62	14.35	-40.6	-43.4	12.3	1.68e-04	0	60	0	1825570816	52	5051
2026-01-15 22:57:11.56	161.72	14.26	-40.7	-43.5	12.3	1.56e-04	0	60	0	1828716544	52	5114
2026-01-15 22:57:12.57	161.82	14.16	-40.7	-43.4	12.3	1.94e-04	0	60	0	1831862272	52	5096
2026-01-15 22:57:13.58	161.91	14.07	-40.7	-43.5	12.2	2.15e-04	0	60	0	1835008000	52	5153
2026-01-15 22:57:14.59	162.01	13.98	-40.7	-43.6	12.2	2.55e-04	0	60	0	1838153728	52	5166
2026-01-15 22:57:15.60	162.11	13.89	-40.8	-43.8	11.9	3.64e-04	0	60	0	1841299456	52	5285
2026-01-15 22:57:16.61	162.20	13.79	-40.9	-43.8	11.9	4.21e-04	0	60	0	1844445184	52	5332
2026-01-15 22:57:17.62	162.30	13.70	-41.0	-44.0	11.7	5.76e-04	0	60	0	1847590912	52	5413
2026-01-15 22:57:18.63	162.39	13.61	-41.0	-44.1	11.6	6.42e-04	0	60	0	1850736640	52	5468
2026-01-15 22:57:19.64	162.48	13.52	-40.9	-43.9	11.7	6.16e-04	0	60	0	1853882368	52	5400
2026-01-15 22:57:20.65	162.57	13.43	-40.9	-43.9	11.7	6.00e-04	0	60	0	1857028096	52	5366
2026-01-15 22:57:21.66	162.67	13.34	-40.9	-43.9	11.7	5.45e-04	0	60	0	1860173824	52	5381
2026-01-15 22:57:22.67	162.76	13.25	-40.9	-44.0	11.6	6.26e-04	0	60	0	1863319552	52	5405
2026-01-15 22:57:23.68	162.85	13.16	-40.9	-43.9	11.6	6.41e-04	0	60	0	1866465280	52	5392
2026-01-15 22:57:24.69	162.94	13.07	-40.9	-44.0	11.6	7.17e-04	0	60	0	1869611008	52	5426
2026-01-15 22:57:25.70	163.03	12.98	-41.0	-44.0	11.5	8.39e-04	0	60	0	1872756736	52	5443
2026-01-15 22:57:26.71	163.12	12.89	-40.9	-44.0	11.5	7.33e-04	0	60	0	1875902464	52	5423
2026-01-15 22:57:27.71	163.21	12.80	-40.9	-44.0	11.5	7.75e-04	0	60	0	1879048192	52	5431
2026-01-15 22:57:28.72	163.29	12.71	-40.9	-44.0	11.5	8.16e-04	0	60	0	1883242496	52	5425
2026-01-15 22:57:29.73	163.38	12.63	-40.9	-43.9	11.5	7.78e-04	0	60	0	1886388224	52	5390
2026-01-15 22:57:30.74	163.47	12.54	-40.9	-44.0	11.5	9.09e-04	0	60	0	1889533952	52	5441
2026-01-15 22:57:31.75	163.56	12.45	-41.0	-44.1	11.4	1.01e-03	0	60	0	1891631104	52	5474
2026-01-15 22:57:32.76	163.64	12.36	-41.0	-44.1	11.3	1.12e-03	0	60	0	1894776832	52	5520
2026-01-15 22:57:33.77	163.73	12.27	-41.0	-44.0	11.4	1.07e-03	0	60	0	1898971136	52	5452
2026-01-15 22:57:34.78	163.81	12.19	-40.9	-44.0	11.4	9.83e-04	0	60	0	1902116864	52	5453
2026-01-15 22:57:35.79	163.90	12.10	-41.0	-44.1	11.4	1.09e-03	0	60	0	1905262592	52	5466
2026-01-15 22:57:36.80	163.98	12.01	-41.0	-44.1	11.3	1.32e-03	0	60	0	1908408320	52	5524
