passes_logs/2026/01/15/R2.0S_Moscow/R2.0S_Moscow__20260115_004508_NOAA_21_JPSS-2_rec.log

#Pass ID: 20260115_004508_NOAA 21 (JPSS-2)
#Satellite: NOAA 21 (JPSS-2)
#Configuration: NOAA-21
#almurnet v.1.7.20251203
#Start time: 2026-01-15 00:47:12

#Version: 2.2.20231116
#Station: R2.0S_Moscow
#Location: 37.707566 lon 55.798166 lat
#TLE: 1 54234U 22150A   26014.16688770  .00000052  00000+0  45394-4 0  9999
#TLE: 2 54234  98.7497 315.0767 0000655 297.6997  62.4113 14.19534648164696

#Time	Az	El	Level	Level2	SNR	BER	BlckErr	Temp	State	Recorded	gain1	gain2
2026-01-15 00:47:12.88	4.85	10.64	-45.1	-56.7	3.8	8.47e-01	0	57	0	0	61	13913
2026-01-15 00:47:13.88	4.77	10.72	-45.4	-57.8	3.8	1.49e+00	0	58	104	0	62	14968
2026-01-15 00:47:14.89	4.69	10.80	-45.4	-57.8	3.8	1.49e+00	0	58	104	0	62	14976
2026-01-15 00:47:15.90	4.61	10.88	-45.4	-57.8	3.8	1.49e+00	0	58	104	0	62	14937
2026-01-15 00:47:16.91	4.53	10.96	-45.4	-57.7	3.8	1.49e+00	0	58	104	0	62	14819
2026-01-15 00:47:17.92	4.45	11.05	-45.3	-57.7	3.8	1.49e+00	0	58	104	0	62	14725
2026-01-15 00:47:18.93	4.37	11.13	-45.2	-57.6	3.8	1.49e+00	0	58	104	0	62	14664
2026-01-15 00:47:19.94	4.29	11.21	-45.1	-57.5	3.8	1.49e+00	0	58	104	0	62	14459
2026-01-15 00:47:20.95	4.20	11.29	-45.0	-57.4	3.8	1.49e+00	0	58	104	0	62	14303
2026-01-15 00:47:21.96	4.12	11.37	-44.8	-57.1	3.8	1.49e+00	0	58	104	0	61	14703
2026-01-15 00:47:22.97	4.04	11.46	-44.3	-56.7	3.8	1.49e+00	0	58	104	0	60	14847
2026-01-15 00:47:23.98	3.95	11.54	-43.5	-55.7	3.8	1.49e+00	0	58	104	0	58	14829
2026-01-15 00:47:24.99	3.87	11.62	-43.5	-55.7	3.8	1.49e+00	0	58	104	0	58	14726
2026-01-15 00:47:26.00	3.78	11.71	-43.4	-55.7	3.8	1.49e+00	0	58	104	0	58	14788
2026-01-15 00:47:27.01	3.70	11.79	-43.4	-55.7	3.8	1.49e+00	0	58	104	0	58	14772
2026-01-15 00:47:28.02	3.61	11.88	-43.4	-55.7	3.8	1.49e+00	0	58	104	0	58	14785
2026-01-15 00:47:29.03	3.52	11.96	-43.4	-55.7	3.8	1.49e+00	0	58	104	0	58	14753
2026-01-15 00:47:30.04	3.43	12.04	-43.4	-55.7	3.8	1.49e+00	0	58	104	0	58	14727
2026-01-15 00:47:31.05	3.35	12.13	-43.4	-55.7	3.8	1.49e+00	0	58	104	0	58	14760
2026-01-15 00:47:32.06	3.26	12.21	-43.4	-55.7	3.8	1.49e+00	0	58	104	0	58	14780
2026-01-15 00:47:33.07	3.17	12.30	-43.4	-55.7	3.8	1.49e+00	0	58	104	0	58	14739
2026-01-15 00:47:34.08	3.08	12.38	-43.4	-55.7	3.8	1.49e+00	0	58	104	0	58	14725
2026-01-15 00:47:35.09	2.99	12.47	-43.4	-55.7	3.8	1.49e+00	0	58	104	0	58	14738
2026-01-15 00:47:36.10	2.90	12.56	-43.4	-55.7	3.8	1.49e+00	0	58	104	0	58	14789
2026-01-15 00:47:37.11	2.81	12.64	-43.4	-55.7	3.8	1.49e+00	0	58	104	0	58	14738
2026-01-15 00:47:38.12	2.71	12.73	-43.4	-55.7	3.8	1.49e+00	0	58	104	0	58	14754
2026-01-15 00:47:39.14	2.62	12.81	-43.4	-55.7	3.8	1.49e+00	0	58	104	0	58	14720
2026-01-15 00:47:40.15	2.53	12.90	-43.4	-55.7	3.8	1.49e+00	0	58	104	0	58	14741
2026-01-15 00:47:41.16	2.43	12.99	-43.4	-55.7	3.8	1.49e+00	0	58	104	0	58	14748
2026-01-15 00:47:42.17	2.34	13.08	-43.4	-55.7	3.8	1.49e+00	0	58	104	0	58	14778
2026-01-15 00:47:43.18	2.25	13.16	-43.4	-55.7	3.8	1.49e+00	0	58	104	0	58	14710
2026-01-15 00:47:44.19	2.15	13.25	-43.4	-55.6	3.8	1.49e+00	0	58	104	0	58	14544
2026-01-15 00:47:45.20	2.05	13.34	-43.4	-55.5	3.8	1.49e+00	0	58	104	0	58	14438
2026-01-15 00:47:46.21	1.96	13.43	-43.4	-55.2	3.8	1.49e+00	0	58	104	0	58	14025
2026-01-15 00:47:47.22	1.86	13.52	-43.3	-54.8	3.8	1.49e+00	0	58	104	0	58	13372
2026-01-15 00:47:48.23	1.76	13.60	-43.2	-54.1	3.8	1.49e+00	0	58	104	0	58	12300
2026-01-15 00:47:49.24	1.67	13.69	-43.1	-53.1	3.9	1.48e+00	0	58	104	0	58	10974
2026-01-15 00:47:50.25	1.57	13.78	-43.0	-51.9	4.3	1.46e+00	0	58	104	0	58	9543
2026-01-15 00:47:51.26	1.47	13.87	-42.8	-51.4	4.0	1.10e+00	0	58	104	0	57	9555
2026-01-15 00:47:52.27	1.37	13.96	-42.8	-50.7	4.7	1.01e+00	0	58	104	0	57	8825
2026-01-15 00:47:53.28	1.27	14.05	-42.8	-51.2	4.0	1.12e+00	0	58	104	0	57	9320
2026-01-15 00:47:54.29	1.16	14.14	-43.0	-51.9	4.3	1.44e+00	0	58	104	0	57	10073
2026-01-15 00:47:55.31	1.06	14.23	-43.1	-53.2	3.9	1.47e+00	0	58	104	0	57	11688
2026-01-15 00:47:56.31	0.96	14.32	-43.1	-53.1	4.0	1.48e+00	0	58	104	0	57	11614
2026-01-15 00:47:57.33	0.86	14.41	-43.1	-53.3	3.9	1.49e+00	0	58	104	0	57	11908
2026-01-15 00:47:58.34	0.75	14.50	-42.9	-51.4	4.4	1.45e+00	0	58	104	0	57	9560
2026-01-15 00:47:59.35	0.65	14.60	-42.5	-49.5	5.3	9.49e-01	0	58	0	0	57	7718
2026-01-15 00:48:00.36	0.54	14.69	-41.7	-47.0	7.2	2.39e-01	0	58	0	3145728	55	6447
2026-01-15 00:48:01.37	0.44	14.78	-40.8	-44.9	9.3	3.07e-02	0	58	0	6291456	53	5667
2026-01-15 00:48:02.38	0.33	14.87	-40.3	-43.9	10.3	6.48e-03	0	58	0	9437184	52	5369
2026-01-15 00:48:03.39	0.22	14.96	-40.1	-43.5	10.8	2.86e-03	0	58	0	12582912	52	5105
2026-01-15 00:48:04.40	0.11	15.06	-40.1	-43.4	10.9	2.23e-03	0	58	0	15728640	52	5047
2026-01-15 00:48:05.41	0.00	15.15	-40.0	-43.2	11.0	1.85e-03	0	58	0	18874368	52	4958
2026-01-15 00:48:06.42	359.89	15.24	-39.9	-42.9	11.4	1.21e-03	0	58	0	22020096	51	5081
2026-01-15 00:48:07.43	359.78	15.33	-40.2	-43.3	11.1	1.29e-03	0	58	0	25165824	51	5331
2026-01-15 00:48:08.44	359.67	15.43	-40.3	-43.5	11.1	8.05e-03	0	58	0	28311552	52	5135
2026-01-15 00:48:09.45	359.56	15.52	-40.1	-43.3	11.3	1.59e-02	0	58	0	31457280	52	5006
2026-01-15 00:48:10.46	359.45	15.62	-42.2	-47.8	6.8	1.11e+00	0	58	104	33554432	56	6667
2026-01-15 00:48:11.47	359.34	15.71	-40.4	-43.6	11.0	7.66e-02	0	58	0	35651584	52	5170
2026-01-15 00:48:12.47	359.22	15.80	-41.6	-46.8	7.2	3.08e-01	0	58	0	38797312	54	6701
2026-01-15 00:48:13.48	359.11	15.90	-40.5	-43.9	10.5	6.12e-03	0	58	0	41943040	53	5097
2026-01-15 00:48:14.50	358.99	15.99	-40.5	-43.9	10.6	3.94e-03	0	58	0	45088768	53	5070
2026-01-15 00:48:15.50	358.88	16.09	-40.4	-43.6	10.9	2.32e-03	0	58	0	48234496	52	5208
2026-01-15 00:48:16.51	358.76	16.18	-40.3	-43.5	11.0	1.79e-03	0	58	0	51380224	52	5133
2026-01-15 00:48:17.52	358.64	16.28	-40.3	-43.5	11.0	1.78e-03	0	58	0	54525952	52	5152
2026-01-15 00:48:18.53	358.53	16.37	-40.5	-43.8	10.6	3.36e-03	0	58	0	57671680	52	5315
2026-01-15 00:48:19.54	358.41	16.47	-40.5	-43.9	10.5	4.03e-03	0	58	0	60817408	52	5370
2026-01-15 00:48:20.55	358.29	16.57	-40.3	-43.7	10.6	3.53e-03	0	58	0	63963136	52	5225
2026-01-15 00:48:21.56	358.17	16.66	-40.3	-43.8	10.4	4.30e-03	0	58	0	67108864	52	5308
2026-01-15 00:48:22.57	358.04	16.76	-40.3	-43.8	10.4	4.40e-03	0	58	0	70254592	52	5284
2026-01-15 00:48:23.58	357.92	16.86	-40.5	-44.2	9.9	8.52e-03	0	58	0	74448896	52	5575
2026-01-15 00:48:24.59	357.80	16.96	-40.4	-44.1	9.9	8.36e-03	0	58	0	76546048	52	5493
2026-01-15 00:48:25.60	357.67	17.05	-40.3	-43.8	10.2	6.59e-03	0	58	0	79691776	52	5330
2026-01-15 00:48:26.61	357.55	17.15	-40.2	-43.6	10.4	4.65e-03	0	58	0	82837504	52	5184
2026-01-15 00:48:27.62	357.42	17.25	-40.0	-43.3	10.7	3.81e-03	0	58	0	85983232	52	5031
2026-01-15 00:48:28.63	357.30	17.35	-39.8	-43.0	11.1	1.83e-03	0	58	0	90177536	51	5118
2026-01-15 00:48:29.64	357.17	17.45	-39.8	-42.9	11.2	1.28e-03	0	58	0	93323264	51	5079
2026-01-15 00:48:30.65	357.04	17.55	-39.8	-43.0	11.1	1.55e-03	0	58	0	96468992	51	5102
2026-01-15 00:48:31.66	356.91	17.65	-39.8	-43.0	11.0	1.88e-03	0	58	0	99614720	51	5137
2026-01-15 00:48:32.67	356.78	17.74	-39.9	-43.3	10.6	2.41e-03	0	58	0	101711872	51	5299
2026-01-15 00:48:33.68	356.65	17.84	-40.1	-43.8	10.0	4.69e-03	0	58	0	105906176	51	5616
2026-01-15 00:48:34.69	356.52	17.94	-40.4	-44.4	9.3	1.22e-02	0	58	0	109051904	51	6051
2026-01-15 00:48:35.70	356.39	18.04	-40.7	-45.3	8.3	3.80e-02	0	58	0	112197632	51	6705
2026-01-15 00:48:36.71	356.25	18.14	-40.8	-46.0	7.5	8.88e-02	0	58	0	115343360	52	6839
2026-01-15 00:48:37.72	356.12	18.25	-41.1	-47.2	6.3	2.28e-01	0	58	0	118489088	52	7821
2026-01-15 00:48:38.73	355.98	18.35	-41.3	-48.4	5.3	4.99e-01	0	58	0	121634816	53	8489
2026-01-15 00:48:39.74	355.85	18.45	-41.4	-49.7	4.6	1.32e+00	0	58	104	122683392	53	9889
2026-01-15 00:48:40.75	355.71	18.55	-41.5	-51.3	3.9	1.46e+00	0	58	104	122683392	53	11911
2026-01-15 00:48:41.76	355.57	18.65	-41.4	-51.3	4.1	1.47e+00	0	58	104	122683392	53	11832
2026-01-15 00:48:42.77	355.43	18.75	-41.4	-52.4	3.8	1.49e+00	0	58	104	122683392	53	13425
2026-01-15 00:48:43.78	355.29	18.85	-41.4	-53.2	3.8	1.49e+00	0	58	104	122683392	53	14808
2026-01-15 00:48:44.79	355.15	18.96	-41.9	-53.6	3.8	1.49e+00	0	58	104	122683392	54	14599
2026-01-15 00:48:45.80	355.01	19.06	-42.1	-54.3	3.8	1.49e+00	0	58	104	122683392	54	15839
2026-01-15 00:48:46.81	354.87	19.16	-41.2	-53.3	3.8	1.49e+00	0	58	104	122683392	54	14162
2026-01-15 00:48:47.82	354.72	19.27	-41.1	-53.5	3.8	1.49e+00	0	58	104	122683392	54	14395
2026-01-15 00:48:48.83	354.58	19.37	-41.1	-53.6	3.8	1.49e+00	0	58	104	122683392	54	14683
2026-01-15 00:48:49.84	354.43	19.47	-41.2	-53.6	3.8	1.49e+00	0	58	104	122683392	54	14650
2026-01-15 00:48:50.85	354.29	19.58	-41.2	-53.7	3.8	1.49e+00	0	58	104	122683392	54	14720
2026-01-15 00:48:51.85	354.14	19.68	-41.4	-53.7	3.8	1.49e+00	0	58	104	122683392	54	14859
2026-01-15 00:48:52.86	353.99	19.78	-41.6	-54.0	3.8	1.49e+00	0	58	104	122683392	54	15349
2026-01-15 00:48:53.87	353.84	19.89	-42.1	-53.2	3.8	1.49e+00	0	58	104	122683392	54	14016
2026-01-15 00:48:54.88	353.69	19.99	-41.2	-53.5	3.8	1.49e+00	0	58	104	122683392	54	14424
2026-01-15 00:48:55.89	353.54	20.10	-41.6	-52.4	3.8	1.49e+00	0	58	104	122683392	54	12715
2026-01-15 00:48:56.91	353.38	20.20	-41.7	-50.6	4.3	1.46e+00	0	58	104	122683392	54	10379
2026-01-15 00:48:57.92	353.23	20.31	-41.7	-50.2	4.4	1.41e+00	0	58	104	122683392	54	9927
2026-01-15 00:48:58.93	353.07	20.42	-43.1	-54.7	3.8	1.48e+00	0	58	104	122683392	56	14717
2026-01-15 00:48:59.94	352.92	20.52	-41.5	-53.5	3.8	1.49e+00	0	58	104	122683392	54	14499
2026-01-15 00:49:00.95	352.76	20.63	-41.8	-51.7	4.0	1.48e+00	0	58	104	122683392	54	11726
2026-01-15 00:49:01.96	352.60	20.73	-42.5	-51.9	3.9	1.20e+00	0	58	104	122683392	55	11381
2026-01-15 00:49:02.97	352.44	20.84	-41.3	-53.8	3.8	1.49e+00	0	58	104	122683392	54	14921
2026-01-15 00:49:03.98	352.28	20.95	-41.2	-47.9	5.7	1.14e+00	0	58	0	122683392	54	7603
2026-01-15 00:49:04.99	352.12	21.05	-41.1	-47.3	6.2	3.43e-01	0	58	0	125829120	54	7090
2026-01-15 00:49:06.00	351.95	21.16	-40.9	-46.7	6.7	2.11e-01	0	58	0	128974848	53	7006
2026-01-15 00:49:07.01	351.79	21.27	-40.9	-46.3	7.2	1.49e-01	0	58	0	132120576	53	6675
2026-01-15 00:49:08.02	351.62	21.38	-40.6	-45.3	8.3	6.73e-02	0	58	0	135266304	53	5941
2026-01-15 00:49:09.03	351.46	21.48	-40.3	-44.5	9.2	2.76e-02	0	58	0	138412032	52	5750
2026-01-15 00:49:10.04	351.29	21.59	-40.1	-44.2	9.5	1.59e-02	0	58	0	141557760	52	5555
2026-01-15 00:49:11.05	351.12	21.70	-39.9	-43.6	10.2	7.90e-03	0	58	0	144703488	51	5528
2026-01-15 00:49:12.06	350.95	21.81	-39.7	-43.3	10.5	3.93e-03	0	58	0	147849216	51	5300
2026-01-15 00:49:13.07	350.78	21.92	-39.4	-42.7	11.2	1.81e-03	0	58	0	150994944	50	5231
2026-01-15 00:49:14.08	350.60	22.03	-39.1	-42.1	11.8	6.46e-04	0	58	0	154140672	50	4883
2026-01-15 00:49:15.09	350.43	22.13	-39.0	-42.0	12.0	3.29e-04	0	58	0	157286400	50	4825
2026-01-15 00:49:16.10	350.25	22.24	-39.2	-42.1	11.9	4.26e-04	0	58	0	160432128	50	4923
2026-01-15 00:49:17.11	350.08	22.35	-39.0	-41.8	12.2	3.04e-04	0	58	0	163577856	50	4756
2026-01-15 00:49:18.12	349.90	22.46	-39.1	-41.9	12.2	2.14e-04	0	58	0	166723584	50	4770
2026-01-15 00:49:19.12	349.72	22.57	-39.2	-42.1	12.1	2.43e-04	0	58	0	169869312	50	4879
2026-01-15 00:49:20.13	349.54	22.68	-39.2	-42.0	12.3	2.07e-04	0	58	0	173015040	50	4855
2026-01-15 00:49:21.14	349.36	22.79	-39.4	-42.2	12.2	2.01e-04	0	58	0	176160768	50	4956
2026-01-15 00:49:22.15	349.18	22.90	-39.4	-42.2	12.3	1.87e-04	0	58	0	179306496	50	4942
2026-01-15 00:49:23.16	348.99	23.01	-39.5	-42.2	12.3	1.94e-04	0	58	0	182452224	50	4974
2026-01-15 00:49:24.17	348.81	23.12	-39.4	-42.0	12.7	1.23e-04	0	58	0	185597952	50	4828
2026-01-15 00:49:25.18	348.62	23.23	-39.0	-41.4	13.3	2.97e-05	0	58	0	188743680	50	4522
2026-01-15 00:49:26.19	348.43	23.34	-39.0	-41.3	13.4	1.22e-05	0	58	0	191889408	49	4753
2026-01-15 00:49:27.20	348.24	23.45	-39.3	-41.8	13.0	3.28e-05	0	58	0	195035136	49	5032
2026-01-15 00:49:28.21	348.05	23.56	-39.5	-42.1	12.7	6.63e-05	0	58	0	198180864	49	5196
2026-01-15 00:49:29.22	347.86	23.68	-39.6	-42.2	12.7	8.62e-05	0	58	0	201326592	49	5276
2026-01-15 00:49:30.23	347.66	23.79	-39.6	-42.1	12.9	6.02e-05	0	58	0	204472320	49	5175
2026-01-15 00:49:31.24	347.47	23.90	-39.7	-42.2	12.8	6.56e-05	0	58	0	207618048	49	5254
2026-01-15 00:49:32.24	347.27	24.01	-39.7	-42.2	12.9	5.41e-05	0	58	0	210763776	50	4935
2026-01-15 00:49:33.25	347.08	24.12	-39.6	-42.0	13.1	2.89e-05	0	58	0	213909504	50	4832
2026-01-15 00:49:34.26	346.88	24.23	-39.7	-42.1	13.0	3.28e-05	0	58	0	217055232	50	4926
2026-01-15 00:49:35.28	346.67	24.34	-39.8	-42.3	12.9	5.11e-05	0	58	0	220200960	50	5033
2026-01-15 00:49:36.29	346.47	24.46	-39.7	-42.2	13.1	3.58e-05	0	58	0	223346688	50	4945
2026-01-15 00:49:37.29	346.27	24.57	-39.7	-42.1	13.2	3.58e-05	0	58	0	226492416	50	4902
2026-01-15 00:49:38.30	346.06	24.68	-39.7	-42.1	13.2	3.05e-05	0	58	0	229638144	50	4905
2026-01-15 00:49:39.31	345.86	24.79	-39.7	-42.1	13.2	2.36e-05	0	58	0	232783872	50	4899
2026-01-15 00:49:40.32	345.65	24.90	-39.7	-42.2	13.1	3.58e-05	0	58	0	235929600	50	4927
2026-01-15 00:49:41.33	345.44	25.01	-39.8	-42.3	13.0	2.36e-05	0	59	0	239075328	50	4986
2026-01-15 00:49:42.34	345.23	25.13	-39.9	-42.4	12.9	3.43e-05	0	58	0	242221056	50	5055
2026-01-15 00:49:43.35	345.01	25.24	-39.9	-42.4	13.0	3.96e-05	0	58	0	245366784	50	5062
2026-01-15 00:49:44.36	344.80	25.35	-39.9	-42.4	13.0	3.89e-05	0	58	0	248512512	50	5042
2026-01-15 00:49:45.37	344.58	25.46	-39.8	-42.2	13.2	2.51e-05	0	58	0	251658240	50	4965
2026-01-15 00:49:46.38	344.36	25.58	-39.8	-42.3	13.2	2.28e-05	0	58	0	254803968	50	4997
2026-01-15 00:49:47.39	344.15	25.69	-39.7	-42.0	13.4	1.14e-05	0	58	0	257949696	50	4855
2026-01-15 00:49:48.40	343.92	25.80	-39.7	-42.0	13.4	1.29e-05	0	58	0	261095424	50	4867
2026-01-15 00:49:49.41	343.70	25.91	-39.7	-42.1	13.4	1.29e-05	0	58	0	264241152	50	4902
2026-01-15 00:49:50.42	343.48	26.03	-39.8	-42.2	13.3	1.98e-05	0	58	0	267386880	50	4931
2026-01-15 00:49:51.43	343.25	26.14	-39.8	-42.2	13.4	1.22e-05	0	58	0	270532608	50	4931
2026-01-15 00:49:52.44	343.03	26.25	-39.9	-42.3	13.2	2.44e-05	0	58	0	273678336	50	5011
2026-01-15 00:49:53.45	342.80	26.36	-39.8	-42.1	13.5	9.10e-06	0	58	0	276824064	50	4906
2026-01-15 00:49:54.46	342.57	26.47	-39.9	-42.3	13.3	2.13e-05	0	58	0	279969792	50	5000
2026-01-15 00:49:55.47	342.33	26.59	-39.8	-42.1	13.5	1.83e-05	0	58	0	283115520	50	4917
2026-01-15 00:49:56.48	342.10	26.70	-39.9	-42.2	13.4	1.29e-05	0	58	0	286261248	50	4983
2026-01-15 00:49:57.48	341.87	26.81	-39.9	-42.3	13.4	1.29e-05	0	58	0	289406976	50	4989
2026-01-15 00:49:58.49	341.63	26.92	-40.0	-42.4	13.3	2.13e-05	0	58	0	292552704	50	5054
2026-01-15 00:49:59.50	341.39	27.03	-40.0	-42.4	13.3	1.44e-05	0	58	0	295698432	50	5080
2026-01-15 00:50:00.51	341.15	27.15	-40.1	-42.5	13.1	2.21e-05	0	58	0	298844160	50	5146
2026-01-15 00:50:01.52	340.91	27.26	-40.2	-42.7	12.9	3.28e-05	0	58	0	301989888	50	5262
2026-01-15 00:50:02.53	340.66	27.37	-40.2	-42.8	12.9	6.10e-05	0	58	0	305135616	51	4988
2026-01-15 00:50:03.54	340.42	27.48	-40.2	-42.8	12.8	4.65e-05	0	58	0	308281344	51	5020
2026-01-15 00:50:04.55	340.17	27.59	-40.2	-42.8	12.8	5.79e-05	0	58	0	311427072	51	5033
2026-01-15 00:50:05.56	339.92	27.70	-40.2	-42.8	12.8	5.11e-05	0	58	0	314572800	51	5009
2026-01-15 00:50:06.57	339.67	27.81	-40.2	-42.9	12.7	7.40e-05	0	58	0	317718528	51	5043
2026-01-15 00:50:07.58	339.42	27.92	-40.2	-42.9	12.6	8.31e-05	0	58	0	320864256	51	5080
2026-01-15 00:50:08.59	339.16	28.04	-40.3	-43.0	12.4	1.14e-04	0	58	0	324009984	51	5155
2026-01-15 00:50:09.60	338.91	28.15	-40.1	-43.0	12.4	1.16e-04	0	58	0	327155712	51	5106
2026-01-15 00:50:10.61	338.65	28.26	-40.2	-43.0	12.4	1.33e-04	0	58	0	330301440	51	5122
2026-01-15 00:50:11.62	338.39	28.37	-39.8	-42.9	12.1	1.25e-04	0	58	0	333447168	51	5089
2026-01-15 00:50:12.63	338.13	28.48	-39.6	-42.8	12.0	2.64e-04	0	58	0	336592896	51	5021
2026-01-15 00:50:13.64	337.86	28.59	-39.5	-42.9	11.8	3.62e-04	0	58	0	339738624	51	5071
2026-01-15 00:50:14.65	337.60	28.70	-39.6	-42.9	11.8	3.68e-04	0	58	0	342884352	51	5065
2026-01-15 00:50:15.66	337.33	28.80	-39.6	-42.8	11.9	3.69e-04	0	58	0	346030080	51	5037
2026-01-15 00:50:16.67	337.06	28.91	-39.7	-42.8	12.0	3.07e-04	0	58	0	349175808	51	5033
2026-01-15 00:50:17.68	336.79	29.02	-39.7	-42.8	12.1	2.42e-04	0	58	0	352321536	51	5028
2026-01-15 00:50:18.69	336.52	29.13	-39.7	-42.7	12.1	2.29e-04	0	58	0	355467264	51	4973
2026-01-15 00:50:19.70	336.24	29.24	-39.6	-42.7	12.1	2.24e-04	0	58	0	358612992	51	4970
2026-01-15 00:50:20.71	335.97	29.34	-39.5	-42.7	12.2	1.99e-04	0	58	0	361758720	51	4933
2026-01-15 00:50:21.73	335.68	29.45	-39.5	-42.6	12.3	1.78e-04	0	58	0	364904448	51	4883
2026-01-15 00:50:22.74	335.40	29.56	-39.5	-42.5	12.4	1.72e-04	0	58	0	368050176	51	4853
2026-01-15 00:50:23.75	335.12	29.67	-39.5	-42.5	12.5	1.19e-04	0	58	0	371195904	51	4819
2026-01-15 00:50:24.76	334.84	29.77	-39.5	-42.4	12.7	8.77e-05	0	58	0	374341632	51	4774
2026-01-15 00:50:25.77	334.55	29.88	-39.6	-42.4	12.7	8.23e-05	0	58	0	377487360	51	4796
2026-01-15 00:50:26.77	334.27	29.98	-39.6	-42.3	13.0	4.65e-05	0	58	0	380633088	51	4721
2026-01-15 00:50:27.79	333.97	30.09	-39.6	-42.2	13.2	1.90e-05	0	58	0	384827392	51	4676
2026-01-15 00:50:28.80	333.68	30.19	-39.7	-42.2	13.4	1.29e-05	0	58	0	387973120	51	4670
2026-01-15 00:50:29.81	333.39	30.30	-39.7	-42.1	13.5	1.22e-05	0	58	0	390070272	51	4640
2026-01-15 00:50:30.81	333.10	30.40	-39.8	-42.2	13.6	6.80e-06	0	58	0	393216000	51	4679
2026-01-15 00:50:31.82	332.80	30.50	-39.9	-42.3	13.5	7.60e-06	0	58	0	396361728	51	4741
2026-01-15 00:50:32.83	332.50	30.60	-40.0	-42.4	13.3	1.44e-05	0	58	0	400556032	51	4806
2026-01-15 00:50:33.84	332.20	30.71	-40.0	-42.5	13.3	1.52e-05	0	58	0	403701760	51	4827
2026-01-15 00:50:34.86	331.89	30.81	-40.0	-42.4	13.4	1.06e-05	0	58	0	406847488	51	4814
2026-01-15 00:50:35.87	331.59	30.91	-40.1	-42.5	13.3	2.05e-05	0	58	0	409993216	51	4838
2026-01-15 00:50:36.88	331.28	31.01	-40.1	-42.5	13.3	1.60e-05	0	58	0	412090368	51	4844
2026-01-15 00:50:37.89	330.97	31.11	-40.3	-42.7	13.2	2.13e-05	0	58	0	416284672	51	4949
2026-01-15 00:50:38.90	330.66	31.21	-40.4	-42.9	13.0	3.43e-05	0	58	0	419430400	51	5056
2026-01-15 00:50:39.91	330.35	31.31	-40.4	-42.9	13.0	2.59e-05	0	58	0	422576128	51	5060
2026-01-15 00:50:40.92	330.03	31.40	-40.3	-42.7	13.2	2.82e-05	0	58	0	425721856	51	4971
2026-01-15 00:50:41.93	329.72	31.50	-40.3	-42.7	13.3	1.75e-05	0	58	0	428867584	51	4955
2026-01-15 00:50:42.94	329.40	31.60	-40.4	-42.8	13.1	2.74e-05	0	58	0	432013312	51	5009
2026-01-15 00:50:43.95	329.08	31.69	-40.4	-42.8	13.1	2.44e-05	0	58	0	435159040	51	5025
2026-01-15 00:50:44.96	328.75	31.79	-40.5	-43.0	12.9	4.11e-05	0	58	0	438304768	51	5104
2026-01-15 00:50:45.97	328.43	31.88	-40.6	-43.1	12.8	5.79e-05	0	58	0	441450496	51	5176
2026-01-15 00:50:46.98	328.10	31.98	-40.6	-43.2	12.7	7.47e-05	0	58	0	444596224	51	5249
2026-01-15 00:50:47.99	327.78	32.07	-40.6	-43.2	12.6	8.46e-05	0	58	0	447741952	51	5273
2026-01-15 00:50:49.00	327.45	32.16	-40.7	-43.3	12.6	9.76e-05	0	58	0	450887680	51	5320
2026-01-15 00:50:50.01	327.11	32.25	-40.7	-43.3	12.6	8.77e-05	0	58	0	454033408	52	5003
2026-01-15 00:50:51.02	326.78	32.34	-40.6	-43.1	12.7	9.84e-05	0	58	0	457179136	52	4911
2026-01-15 00:50:52.03	326.44	32.43	-40.6	-43.1	12.7	7.47e-05	0	58	0	460324864	52	4915
2026-01-15 00:50:53.04	326.11	32.52	-40.6	-43.2	12.6	9.68e-05	0	58	0	463470592	52	4966
2026-01-15 00:50:54.05	325.77	32.61	-40.6	-43.2	12.7	7.47e-05	0	58	0	466616320	52	4933
2026-01-15 00:50:55.06	325.43	32.70	-40.6	-43.2	12.6	8.08e-05	0	58	0	469762048	52	4981
2026-01-15 00:50:56.07	325.08	32.78	-40.7	-43.3	12.5	1.20e-04	0	58	0	472907776	52	5033
2026-01-15 00:50:57.08	324.74	32.87	-40.8	-43.5	12.4	1.40e-04	0	58	0	476053504	52	5107
2026-01-15 00:50:58.08	324.40	32.95	-40.9	-43.7	12.2	1.74e-04	0	58	0	479199232	52	5236
2026-01-15 00:50:59.09	324.05	33.03	-41.0	-43.7	12.1	2.37e-04	0	58	0	482344960	52	5277
2026-01-15 00:51:00.10	323.70	33.12	-40.9	-43.6	12.2	2.25e-04	0	58	0	485490688	52	5205
2026-01-15 00:51:01.12	323.34	33.20	-40.9	-43.7	12.2	2.14e-04	0	58	0	488636416	52	5238
2026-01-15 00:51:02.12	322.99	33.28	-40.9	-43.7	12.2	2.14e-04	0	58	0	491782144	52	5238
2026-01-15 00:51:03.13	322.64	33.36	-41.0	-43.7	12.2	2.26e-04	0	58	0	494927872	52	5253
2026-01-15 00:51:04.14	322.28	33.43	-40.8	-43.5	12.3	1.72e-04	0	58	0	498073600	52	5129
2026-01-15 00:51:05.15	321.92	33.51	-40.8	-43.4	12.5	1.43e-04	0	58	0	501219328	52	5055
2026-01-15 00:51:06.16	321.56	33.59	-40.7	-43.3	12.6	1.01e-04	0	58	0	504365056	52	4987
2026-01-15 00:51:07.17	321.20	33.66	-40.7	-43.3	12.5	1.30e-04	0	58	0	507510784	52	5020
2026-01-15 00:51:08.18	320.83	33.74	-40.7	-43.4	12.5	1.11e-04	0	58	0	510656512	52	5042
2026-01-15 00:51:09.19	320.47	33.81	-40.7	-43.3	12.6	7.93e-05	0	58	0	513802240	52	4990
2026-01-15 00:51:10.20	320.10	33.88	-40.7	-43.3	12.5	1.14e-04	0	58	0	516947968	52	5020
2026-01-15 00:51:11.21	319.73	33.95	-40.7	-43.2	12.6	8.31e-05	0	58	0	520093696	52	4963
2026-01-15 00:51:12.22	319.36	34.02	-40.7	-43.3	12.6	9.38e-05	0	58	0	523239424	52	5004
2026-01-15 00:51:13.23	318.99	34.09	-40.8	-43.4	12.4	1.23e-04	0	58	0	526385152	52	5077
2026-01-15 00:51:14.24	318.61	34.15	-40.9	-43.5	12.2	1.75e-04	0	58	0	529530880	52	5155
2026-01-15 00:51:15.25	318.24	34.22	-40.9	-43.7	12.1	2.01e-04	0	58	0	532676608	52	5238
2026-01-15 00:51:16.26	317.86	34.28	-41.0	-43.8	12.0	2.78e-04	0	58	0	535822336	52	5294
2026-01-15 00:51:17.27	317.48	34.35	-41.0	-43.8	12.0	3.61e-04	0	58	0	538968064	52	5305
2026-01-15 00:51:18.28	317.10	34.41	-41.1	-43.9	11.9	3.72e-04	0	58	0	542113792	52	5367
2026-01-15 00:51:19.28	316.72	34.47	-41.2	-44.1	11.7	5.92e-04	0	58	0	545259520	53	5195
2026-01-15 00:51:20.29	316.34	34.53	-41.2	-44.0	11.8	5.73e-04	0	58	0	548405248	53	5157
2026-01-15 00:51:21.30	315.96	34.58	-41.2	-44.0	11.8	5.68e-04	0	58	0	551550976	53	5138
2026-01-15 00:51:22.31	315.57	34.64	-41.0	-43.8	12.1	3.04e-04	0	58	0	554696704	53	5006
2026-01-15 00:51:23.32	315.19	34.69	-41.1	-43.9	11.9	3.78e-04	0	58	0	557842432	53	5097
2026-01-15 00:51:24.33	314.80	34.75	-41.2	-44.1	11.7	4.79e-04	0	58	0	560988160	53	5198
2026-01-15 00:51:25.34	314.41	34.80	-41.2	-44.2	11.7	6.00e-04	0	58	0	564133888	53	5225
2026-01-15 00:51:26.35	314.02	34.85	-41.2	-44.0	11.8	5.10e-04	0	58	0	567279616	53	5155
2026-01-15 00:51:27.36	313.63	34.90	-41.1	-43.9	11.9	4.23e-04	0	58	0	570425344	53	5076
2026-01-15 00:51:28.37	313.23	34.95	-40.8	-43.4	12.5	1.33e-04	0	58	0	573571072	53	4785
2026-01-15 00:51:29.38	312.84	34.99	-40.6	-43.2	12.6	8.62e-05	0	58	0	576716800	53	4695
2026-01-15 00:51:30.39	312.44	35.04	-40.7	-43.3	12.4	1.47e-04	0	58	0	579862528	53	4751
2026-01-15 00:51:31.40	312.05	35.08	-41.0	-43.7	12.0	2.33e-04	0	58	0	583008256	53	4965
2026-01-15 00:51:32.41	311.65	35.12	-41.1	-44.0	11.7	5.03e-04	0	58	0	586153984	53	5148
2026-01-15 00:51:33.42	311.25	35.16	-41.3	-44.2	11.6	8.89e-04	0	58	0	589299712	53	5275
2026-01-15 00:51:34.43	310.85	35.20	-41.2	-44.0	11.8	4.99e-04	0	58	0	592445440	53	5139
2026-01-15 00:51:35.44	310.45	35.24	-41.1	-44.0	11.9	4.23e-04	0	58	0	595591168	53	5114
2026-01-15 00:51:36.45	310.05	35.27	-41.2	-44.1	11.7	5.46e-04	0	58	0	598736896	53	5189
2026-01-15 00:51:37.45	309.65	35.31	-41.3	-44.2	11.6	6.80e-04	0	58	0	601882624	53	5249
2026-01-15 00:51:38.46	309.25	35.34	-41.2	-44.2	11.7	5.64e-04	0	58	0	605028352	53	5224
2026-01-15 00:51:39.47	308.85	35.37	-41.2	-44.1	11.8	5.20e-04	0	59	0	608174080	53	5169
2026-01-15 00:51:40.48	308.44	35.40	-41.2	-44.1	11.7	5.11e-04	0	59	0	611319808	53	5199
2026-01-15 00:51:41.49	308.04	35.43	-41.2	-44.1	11.7	5.88e-04	0	58	0	614465536	53	5198
2026-01-15 00:51:42.50	307.63	35.45	-41.1	-43.9	11.9	3.94e-04	0	58	0	617611264	53	5090
2026-01-15 00:51:43.52	307.22	35.48	-41.1	-43.9	12.0	3.57e-04	0	58	0	620756992	53	5073
2026-01-15 00:51:44.53	306.81	35.50	-41.0	-43.8	12.0	3.99e-04	0	58	0	623902720	53	5018
2026-01-15 00:51:45.54	306.41	35.52	-40.9	-43.6	12.3	2.17e-04	0	58	0	627048448	53	4878
2026-01-15 00:51:46.55	306.00	35.54	-40.9	-43.6	12.2	1.84e-04	0	58	0	630194176	53	4892
2026-01-15 00:51:47.56	305.59	35.56	-41.0	-43.8	12.1	2.80e-04	0	58	0	633339904	53	4986
2026-01-15 00:51:48.56	305.18	35.57	-41.0	-43.8	12.0	3.01e-04	0	58	0	636485632	53	4997
2026-01-15 00:51:49.57	304.78	35.59	-41.1	-43.9	11.9	3.29e-04	0	59	0	639631360	53	5053
2026-01-15 00:51:50.58	304.37	35.60	-41.1	-43.9	11.9	4.04e-04	0	58	0	642777088	53	5093
2026-01-15 00:51:51.59	303.96	35.61	-41.1	-43.9	11.9	3.87e-04	0	58	0	645922816	53	5093
2026-01-15 00:51:52.60	303.55	35.62	-41.3	-44.2	11.6	5.80e-04	0	58	0	649068544	53	5248
2026-01-15 00:51:53.61	303.13	35.63	-41.3	-44.2	11.6	7.19e-04	0	58	0	652214272	53	5278
2026-01-15 00:51:54.62	302.72	35.64	-41.3	-44.2	11.7	6.08e-04	0	58	0	655360000	53	5242
2026-01-15 00:51:55.63	302.31	35.64	-41.3	-44.3	11.6	7.71e-04	0	58	0	658505728	53	5310
2026-01-15 00:51:56.64	301.90	35.64	-41.4	-44.4	11.4	9.23e-04	0	59	0	661651456	53	5376
2026-01-15 00:51:57.65	301.49	35.64	-41.2	-44.1	11.7	5.65e-04	0	59	0	664797184	53	5209
2026-01-15 00:51:58.66	301.08	35.64	-41.2	-44.0	11.7	5.55e-04	0	58	0	667942912	53	5143
2026-01-15 00:51:59.67	300.67	35.64	-41.2	-44.0	11.8	5.62e-04	0	58	0	671088640	53	5132
2026-01-15 00:52:00.68	300.26	35.64	-41.0	-43.8	12.1	3.55e-04	0	58	0	674234368	53	4992
2026-01-15 00:52:01.68	299.85	35.63	-40.9	-43.5	12.3	1.94e-04	0	58	0	677380096	53	4867
2026-01-15 00:52:02.69	299.44	35.63	-40.9	-43.6	12.1	2.60e-04	0	58	0	680525824	53	4926
2026-01-15 00:52:03.70	299.03	35.62	-41.0	-43.7	12.1	2.81e-04	0	58	0	683671552	53	4975
2026-01-15 00:52:04.71	298.62	35.61	-40.8	-43.5	12.4	1.52e-04	0	58	0	686817280	53	4816
2026-01-15 00:52:05.72	298.21	35.59	-40.7	-43.3	12.5	9.76e-05	0	58	0	689963008	53	4751
2026-01-15 00:52:06.73	297.80	35.58	-40.7	-43.3	12.5	1.33e-04	0	58	0	693108736	53	4737
2026-01-15 00:52:07.74	297.39	35.56	-40.6	-43.2	12.7	8.69e-05	0	58	0	696254464	53	4669
2026-01-15 00:52:08.75	296.98	35.55	-40.7	-43.3	12.6	8.54e-05	0	58	0	699400192	53	4727
2026-01-15 00:52:09.76	296.57	35.53	-40.8	-43.4	12.5	1.11e-04	0	58	0	702545920	53	4768
2026-01-15 00:52:10.77	296.16	35.51	-40.7	-43.4	12.5	1.07e-04	0	58	0	705691648	53	4760
2026-01-15 00:52:11.78	295.76	35.49	-40.7	-43.3	12.5	1.07e-04	0	58	0	708837376	53	4745
2026-01-15 00:52:12.79	295.35	35.46	-40.9	-43.7	12.2	2.35e-04	0	59	0	711983104	53	4930
2026-01-15 00:52:13.80	294.94	35.44	-40.7	-43.4	12.5	1.62e-04	0	58	0	715128832	53	4778
2026-01-15 00:52:14.81	294.54	35.41	-40.7	-43.2	12.6	7.93e-05	0	58	0	718274560	53	4691
2026-01-15 00:52:15.82	294.13	35.38	-40.8	-43.5	12.3	1.55e-04	0	58	0	721420288	53	4834
2026-01-15 00:52:16.83	293.73	35.35	-40.8	-43.4	12.5	1.43e-04	0	58	0	725614592	53	4787
2026-01-15 00:52:17.84	293.32	35.32	-40.7	-43.2	12.6	9.15e-05	0	58	0	727711744	53	4695
2026-01-15 00:52:18.85	292.92	35.29	-40.8	-43.5	12.3	1.25e-04	0	58	0	730857472	53	4825
2026-01-15 00:52:19.86	292.52	35.25	-41.0	-43.7	12.1	2.71e-04	0	58	0	734003200	53	4957
2026-01-15 00:52:20.87	292.12	35.21	-41.0	-43.8	12.0	3.20e-04	0	58	0	737148928	53	4988
2026-01-15 00:52:21.88	291.72	35.18	-41.0	-43.8	12.0	3.34e-04	0	58	0	741343232	53	5028
2026-01-15 00:52:22.89	291.32	35.14	-41.1	-43.9	11.9	3.51e-04	0	58	0	744488960	53	5046
2026-01-15 00:52:23.90	290.92	35.09	-41.0	-43.8	12.0	3.29e-04	0	58	0	747634688	53	5004
2026-01-15 00:52:24.91	290.52	35.05	-41.1	-43.9	11.9	2.94e-04	0	59	0	750780416	53	5069
2026-01-15 00:52:25.92	290.13	35.01	-41.2	-44.1	11.7	4.48e-04	0	58	0	752877568	53	5201
2026-01-15 00:52:26.93	289.73	34.96	-41.3	-44.3	11.5	7.53e-04	0	58	0	756023296	53	5314
2026-01-15 00:52:27.94	289.34	34.92	-41.3	-44.3	11.5	7.79e-04	0	58	0	760217600	53	5325
2026-01-15 00:52:28.94	288.95	34.87	-41.4	-44.3	11.5	8.41e-04	0	58	0	763363328	53	5334
2026-01-15 00:52:29.95	288.56	34.82	-41.1	-44.0	11.8	4.52e-04	0	58	0	766509056	53	5128
2026-01-15 00:52:30.96	288.17	34.77	-41.1	-43.9	11.9	3.87e-04	0	59	0	769654784	53	5079
2026-01-15 00:52:31.98	287.78	34.71	-41.1	-43.9	11.9	3.60e-04	0	58	0	772800512	53	5072
2026-01-15 00:52:32.99	287.39	34.66	-40.8	-43.4	12.4	2.11e-04	0	58	0	775946240	53	4806
2026-01-15 00:52:34.00	287.00	34.60	-40.7	-43.3	12.6	1.12e-04	0	58	0	779091968	53	4718
2026-01-15 00:52:35.00	286.62	34.55	-40.6	-43.1	12.7	7.93e-05	0	58	0	782237696	53	4639
2026-01-15 00:52:36.01	286.24	34.49	-40.5	-42.9	12.9	5.41e-05	0	58	0	785383424	52	4802
2026-01-15 00:52:37.02	285.85	34.43	-40.4	-42.9	13.0	3.50e-05	0	58	0	788529152	52	4764
2026-01-15 00:52:38.03	285.47	34.37	-40.5	-43.0	12.8	5.49e-05	0	58	0	791674880	52	4858
2026-01-15 00:52:39.04	285.09	34.30	-40.5	-43.1	12.8	5.79e-05	0	58	0	794820608	52	4873
2026-01-15 00:52:40.05	284.71	34.24	-40.7	-43.2	12.6	8.23e-05	0	58	0	797966336	52	4969
2026-01-15 00:52:41.06	284.34	34.17	-40.7	-43.3	12.5	1.17e-04	0	59	0	801112064	52	5009
2026-01-15 00:52:42.07	283.96	34.11	-40.8	-43.4	12.4	1.36e-04	0	58	0	804257792	52	5061
2026-01-15 00:52:43.08	283.59	34.04	-40.8	-43.4	12.4	1.60e-04	0	58	0	807403520	52	5089
2026-01-15 00:52:44.08	283.22	33.97	-40.8	-43.4	12.4	1.23e-04	0	58	0	810549248	52	5059
2026-01-15 00:52:45.09	282.85	33.90	-40.8	-43.4	12.4	1.51e-04	0	58	0	813694976	52	5078
2026-01-15 00:52:46.10	282.48	33.83	-40.8	-43.5	12.3	1.43e-04	0	58	0	816840704	52	5109
2026-01-15 00:52:47.11	282.11	33.76	-40.8	-43.4	12.4	1.42e-04	0	58	0	819986432	52	5064
2026-01-15 00:52:48.12	281.75	33.69	-40.8	-43.5	12.4	1.58e-04	0	58	0	823132160	52	5110
2026-01-15 00:52:49.13	281.38	33.61	-40.9	-43.6	12.2	1.94e-04	0	58	0	826277888	52	5216
2026-01-15 00:52:50.14	281.02	33.54	-41.1	-44.0	11.9	3.58e-04	0	58	0	829423616	52	5410
2026-01-15 00:52:51.15	280.66	33.46	-41.2	-44.1	11.7	5.20e-04	0	58	0	832569344	52	5507
2026-01-15 00:52:52.16	280.30	33.38	-41.1	-43.9	12.0	3.74e-04	0	58	0	835715072	52	5359
2026-01-15 00:52:53.17	279.94	33.30	-41.0	-43.8	12.0	2.97e-04	0	59	0	838860800	52	5284
2026-01-15 00:52:54.18	279.59	33.22	-40.7	-43.4	12.4	1.65e-04	0	58	0	842006528	52	5058
2026-01-15 00:52:55.19	279.24	33.14	-40.7	-43.3	12.5	1.19e-04	0	58	0	845152256	52	5004
2026-01-15 00:52:56.20	278.88	33.06	-40.7	-43.3	12.5	9.84e-05	0	58	0	848297984	52	4996
2026-01-15 00:52:57.21	278.53	32.98	-40.8	-43.4	12.5	1.32e-04	0	58	0	851443712	52	5055
2026-01-15 00:52:58.22	278.19	32.89	-40.8	-43.5	12.4	1.43e-04	0	59	0	854589440	52	5104
2026-01-15 00:52:59.23	277.84	32.81	-40.9	-43.6	12.3	1.62e-04	0	59	0	857735168	52	5169
2026-01-15 00:53:00.24	277.49	32.72	-40.9	-43.6	12.3	1.87e-04	0	58	0	860880896	52	5173
2026-01-15 00:53:01.25	277.15	32.63	-40.9	-43.6	12.3	1.98e-04	0	58	0	864026624	52	5170
2026-01-15 00:53:02.26	276.81	32.55	-40.7	-43.3	12.6	1.28e-04	0	58	0	867172352	52	5008
2026-01-15 00:53:03.26	276.47	32.46	-40.5	-43.1	12.8	7.55e-05	0	58	0	870318080	52	4882
2026-01-15 00:53:04.27	276.14	32.37	-40.4	-42.8	13.0	3.28e-05	0	58	0	873463808	52	4752
2026-01-15 00:53:05.28	275.80	32.28	-40.3	-42.8	13.1	2.67e-05	0	58	0	876609536	52	4710
2026-01-15 00:53:06.29	275.47	32.19	-40.5	-42.9	12.9	4.11e-05	0	58	0	879755264	52	4801
2026-01-15 00:53:07.30	275.14	32.09	-40.6	-43.1	12.7	6.02e-05	0	58	0	882900992	52	4907
2026-01-15 00:53:08.31	274.81	32.00	-40.8	-43.4	12.4	1.11e-04	0	58	0	886046720	52	5092
2026-01-15 00:53:09.32	274.48	31.91	-40.9	-43.6	12.3	1.42e-04	0	59	0	889192448	52	5160
2026-01-15 00:53:10.33	274.15	31.81	-40.7	-43.4	12.5	1.28e-04	0	58	0	892338176	52	5073
2026-01-15 00:53:11.34	273.83	31.72	-40.5	-43.1	12.8	7.40e-05	0	58	0	895483904	52	4885
2026-01-15 00:53:12.35	273.51	31.62	-40.4	-42.8	13.0	4.42e-05	0	59	0	898629632	52	4749
2026-01-15 00:53:13.36	273.19	31.53	-40.4	-42.8	13.0	3.58e-05	0	58	0	901775360	52	4751
2026-01-15 00:53:14.37	272.87	31.43	-40.3	-42.7	13.1	2.67e-05	0	58	0	904921088	52	4701
2026-01-15 00:53:15.38	272.55	31.33	-40.4	-42.8	13.0	2.89e-05	0	59	0	908066816	52	4740
2026-01-15 00:53:16.39	272.24	31.23	-40.5	-43.0	12.8	4.19e-05	0	58	0	911212544	52	4852
2026-01-15 00:53:17.40	271.92	31.13	-40.7	-43.4	12.4	1.16e-04	0	59	0	914358272	52	5062
2026-01-15 00:53:18.41	271.61	31.03	-40.9	-43.6	12.2	2.10e-04	0	59	0	917504000	52	5178
2026-01-15 00:53:19.42	271.30	30.93	-40.6	-43.2	12.6	1.23e-04	0	59	0	920649728	52	4952
2026-01-15 00:53:20.43	271.00	30.83	-40.3	-42.7	13.1	5.64e-05	0	58	0	923795456	52	4662
2026-01-15 00:53:21.44	270.69	30.73	-40.0	-42.3	13.5	1.14e-05	0	58	0	926941184	52	4461
2026-01-15 00:53:22.45	270.39	30.63	-39.9	-42.2	13.7	4.50e-06	0	59	0	930086912	51	4664
2026-01-15 00:53:23.46	270.09	30.53	-40.0	-42.2	13.7	3.80e-06	0	59	0	933232640	51	4677
2026-01-15 00:53:24.47	269.79	30.42	-40.2	-42.5	13.4	1.14e-05	0	59	0	936378368	51	4840
2026-01-15 00:53:25.48	269.49	30.32	-40.4	-42.8	13.1	2.21e-05	0	58	0	939524096	51	5016
2026-01-15 00:53:26.49	269.20	30.21	-40.6	-43.1	12.8	6.63e-05	0	58	0	942669824	51	5182
2026-01-15 00:53:27.50	268.90	30.11	-40.7	-43.3	12.5	1.02e-04	0	59	0	945815552	52	5021
2026-01-15 00:53:28.51	268.61	30.01	-40.8	-43.4	12.3	1.62e-04	0	59	0	948961280	52	5100
2026-01-15 00:53:29.52	268.32	29.90	-40.8	-43.4	12.4	1.91e-04	0	58	0	952107008	52	5087
2026-01-15 00:53:30.53	268.03	29.79	-40.5	-43.0	12.8	7.09e-05	0	59	0	955252736	52	4841
2026-01-15 00:53:31.54	267.75	29.69	-40.4	-42.9	12.9	4.57e-05	0	59	0	958398464	52	4775
2026-01-15 00:53:32.55	267.46	29.58	-40.3	-42.7	13.1	3.73e-05	0	58	0	961544192	52	4700
2026-01-15 00:53:33.56	267.18	29.47	-40.3	-42.7	13.1	2.67e-05	0	59	0	964689920	52	4680
2026-01-15 00:53:34.57	266.90	29.37	-40.5	-43.0	12.8	4.11e-05	0	58	0	967835648	52	4830
2026-01-15 00:53:35.58	266.62	29.26	-40.5	-43.1	12.7	6.79e-05	0	59	0	970981376	52	4897
2026-01-15 00:53:36.59	266.35	29.15	-40.6	-43.2	12.5	8.23e-05	0	59	0	974127104	52	4975
2026-01-15 00:53:37.60	266.07	29.04	-40.5	-43.1	12.6	7.62e-05	0	59	0	977272832	52	4899
2026-01-15 00:53:38.61	265.80	28.93	-40.5	-43.1	12.6	7.78e-05	0	58	0	980418560	52	4871
2026-01-15 00:53:39.62	265.53	28.82	-40.6	-43.2	12.5	9.68e-05	0	59	0	983564288	52	4937
2026-01-15 00:53:40.63	265.26	28.71	-40.5	-43.0	12.7	9.46e-05	0	58	0	986710016	52	4867
2026-01-15 00:53:41.64	264.99	28.60	-40.4	-42.9	12.8	6.25e-05	0	59	0	989855744	52	4810
2026-01-15 00:53:42.64	264.73	28.50	-40.4	-43.0	12.8	7.40e-05	0	59	0	993001472	52	4820
2026-01-15 00:53:43.65	264.47	28.38	-40.3	-42.8	13.0	2.74e-05	0	59	0	996147200	52	4714
2026-01-15 00:53:44.66	264.20	28.27	-40.3	-42.7	13.1	3.05e-05	0	58	0	999292928	52	4704
2026-01-15 00:53:45.67	263.94	28.16	-40.3	-42.8	13.0	3.96e-05	0	58	0	1002438656	52	4729
2026-01-15 00:53:46.68	263.69	28.05	-40.3	-42.8	13.0	4.73e-05	0	58	0	1005584384	52	4746
2026-01-15 00:53:47.69	263.43	27.94	-40.2	-42.6	13.2	3.58e-05	0	58	0	1008730112	52	4635
2026-01-15 00:53:48.70	263.17	27.83	-40.0	-42.4	13.4	1.83e-05	0	59	0	1011875840	52	4506
2026-01-15 00:53:49.71	262.92	27.72	-40.0	-42.3	13.4	1.60e-05	0	59	0	1015021568	52	4476
2026-01-15 00:53:50.72	262.67	27.61	-39.9	-42.1	13.7	4.50e-06	0	58	0	1018167296	51	4622
2026-01-15 00:53:51.73	262.42	27.50	-39.8	-42.0	13.8	3.80e-06	0	59	0	1021313024	51	4568
2026-01-15 00:53:52.74	262.17	27.38	-40.0	-42.2	13.6	6.80e-06	0	58	0	1024458752	51	4687
2026-01-15 00:53:53.75	261.93	27.27	-40.2	-42.5	13.3	1.22e-05	0	58	0	1027604480	51	4867
2026-01-15 00:53:54.76	261.68	27.16	-40.3	-42.7	13.1	2.59e-05	0	59	0	1030750208	51	4975
2026-01-15 00:53:55.77	261.44	27.05	-40.3	-42.8	13.1	2.89e-05	0	58	0	1033895936	51	4987
2026-01-15 00:53:56.78	261.20	26.93	-40.2	-42.6	13.2	1.44e-05	0	58	0	1037041664	51	4900
2026-01-15 00:53:57.79	260.96	26.82	-40.1	-42.4	13.5	1.29e-05	0	59	0	1040187392	51	4783
2026-01-15 00:53:58.80	260.72	26.71	-40.0	-42.2	13.6	9.10e-06	0	59	0	1043333120	51	4688
2026-01-15 00:53:59.81	260.49	26.60	-39.9	-42.2	13.7	5.30e-06	0	58	0	1046478848	51	4671
2026-01-15 00:54:00.82	260.26	26.48	-39.7	-41.9	14.0	1.50e-06	0	59	0	1049624576	51	4503
2026-01-15 00:54:01.83	260.02	26.37	-39.7	-41.8	14.1	3.00e-06	0	59	0	1052770304	51	4453
2026-01-15 00:54:02.84	259.79	26.26	-39.7	-41.8	14.1	7.00e-07	0	59	0	1055916032	51	4480
2026-01-15 00:54:03.85	259.56	26.15	-39.8	-42.0	13.9	2.20e-06	0	58	0	1059061760	51	4579
2026-01-15 00:54:04.86	259.34	26.03	-39.9	-42.2	13.7	4.50e-06	0	58	0	1062207488	51	4657
2026-01-15 00:54:05.87	259.11	25.92	-39.9	-42.2	13.7	6.10e-06	0	58	0	1065353216	51	4681
2026-01-15 00:54:06.88	258.89	25.81	-40.0	-42.3	13.6	8.30e-06	0	58	0	1068498944	51	4715
2026-01-15 00:54:07.89	258.66	25.69	-40.0	-42.3	13.6	6.80e-06	0	58	0	1071644672	51	4728
2026-01-15 00:54:08.90	258.44	25.58	-40.0	-42.3	13.6	9.10e-06	0	58	0	1074790400	51	4728
2026-01-15 00:54:09.91	258.22	25.47	-39.7	-41.9	13.9	2.20e-06	0	58	0	1077936128	51	4509
2026-01-15 00:54:10.92	258.01	25.36	-39.5	-41.6	14.2	0.00e+00	0	58	0	1081081856	51	4384
2026-01-15 00:54:11.93	257.79	25.24	-39.5	-41.5	14.3	0.00e+00	0	58	0	1085276160	50	4590
2026-01-15 00:54:12.94	257.58	25.13	-39.5	-41.6	14.2	7.00e-07	0	58	0	1088421888	50	4614
2026-01-15 00:54:13.95	257.36	25.02	-39.5	-41.6	14.2	3.00e-06	0	58	0	1090519040	50	4633
2026-01-15 00:54:14.96	257.15	24.90	-39.5	-41.6	14.1	4.50e-06	0	59	0	1093664768	50	4643
2026-01-15 00:54:15.97	256.94	24.79	-39.6	-41.7	14.1	2.20e-06	0	59	0	1096810496	50	4664
2026-01-15 00:54:16.98	256.73	24.68	-39.7	-41.8	14.0	3.00e-06	0	58	0	1101004800	50	4742
2026-01-15 00:54:17.99	256.52	24.57	-39.7	-41.9	14.0	3.00e-06	0	59	0	1104150528	50	4771
2026-01-15 00:54:19.00	256.32	24.45	-39.5	-41.6	14.2	7.00e-07	0	58	0	1107296256	50	4635
2026-01-15 00:54:20.01	256.12	24.34	-39.4	-41.4	14.4	0.00e+00	0	59	0	1110441984	50	4508
2026-01-15 00:54:21.02	255.91	24.23	-39.3	-41.4	14.4	7.00e-07	0	59	0	1113587712	50	4504
2026-01-15 00:54:22.03	255.71	24.12	-39.4	-41.5	14.3	7.00e-07	0	58	0	1116733440	50	4557
2026-01-15 00:54:23.04	255.51	24.01	-39.6	-41.8	14.0	7.00e-07	0	59	0	1119879168	50	4723
2026-01-15 00:54:24.05	255.31	23.89	-39.8	-42.1	13.7	3.80e-06	0	59	0	1123024896	50	4901
2026-01-15 00:54:25.06	255.12	23.78	-40.0	-42.4	13.4	1.22e-05	0	58	0	1126170624	50	5052
2026-01-15 00:54:26.07	254.92	23.67	-40.1	-42.5	13.3	2.13e-05	0	59	0	1129316352	50	5128
2026-01-15 00:54:27.08	254.73	23.56	-40.0	-42.3	13.5	1.14e-05	0	58	0	1132462080	50	4988
2026-01-15 00:54:28.09	254.53	23.45	-39.6	-41.8	14.0	7.60e-06	0	58	0	1135607808	50	4716
2026-01-15 00:54:29.10	254.34	23.34	-39.5	-41.6	14.2	1.50e-06	0	58	0	1138753536	50	4628
2026-01-15 00:54:30.11	254.15	23.22	-39.5	-41.6	14.1	1.50e-06	0	58	0	1141899264	50	4651
2026-01-15 00:54:31.12	253.96	23.11	-39.6	-41.8	14.0	4.50e-06	0	59	0	1145044992	50	4719
2026-01-15 00:54:32.13	253.78	23.00	-39.8	-42.1	13.6	7.60e-06	0	59	0	1148190720	50	4874
2026-01-15 00:54:33.14	253.59	22.89	-40.1	-42.4	13.3	1.52e-05	0	58	0	1151336448	50	5082
2026-01-15 00:54:34.15	253.41	22.78	-40.2	-42.6	13.1	2.44e-05	0	59	0	1154482176	50	5202
2026-01-15 00:54:35.16	253.22	22.67	-40.3	-42.8	13.0	4.50e-05	0	58	0	1157627904	51	4997
2026-01-15 00:54:36.17	253.04	22.56	-40.2	-42.7	13.1	3.73e-05	0	58	0	1160773632	51	4936
2026-01-15 00:54:37.18	252.86	22.45	-40.1	-42.4	13.3	2.05e-05	0	59	0	1163919360	51	4800
2026-01-15 00:54:38.19	252.68	22.34	-40.0	-42.3	13.5	1.44e-05	0	58	0	1167065088	51	4724
2026-01-15 00:54:39.20	252.50	22.23	-40.0	-42.4	13.4	9.90e-06	0	59	0	1170210816	51	4766
2026-01-15 00:54:40.21	252.33	22.12	-39.8	-42.1	13.6	5.30e-06	0	59	0	1173356544	51	4600
2026-01-15 00:54:41.22	252.15	22.01	-39.7	-41.9	13.8	9.10e-06	0	58	0	1176502272	51	4542
2026-01-15 00:54:42.23	251.98	21.90	-39.8	-42.0	13.7	2.20e-06	0	59	0	1179648000	51	4565
2026-01-15 00:54:43.24	251.80	21.79	-39.9	-42.1	13.6	6.80e-06	0	59	0	1182793728	51	4640
2026-01-15 00:54:44.25	251.63	21.68	-39.9	-42.2	13.6	5.30e-06	0	59	0	1185939456	51	4653
2026-01-15 00:54:45.26	251.46	21.57	-39.8	-42.1	13.6	6.80e-06	0	59	0	1189085184	51	4622
2026-01-15 00:54:46.27	251.29	21.47	-39.8	-42.1	13.7	5.30e-06	0	58	0	1192230912	51	4632
2026-01-15 00:54:47.28	251.12	21.36	-39.8	-42.0	13.7	5.30e-06	0	59	0	1195376640	51	4590
2026-01-15 00:54:48.29	250.96	21.25	-39.7	-41.9	13.9	4.50e-06	0	58	0	1198522368	51	4534
2026-01-15 00:54:49.30	250.79	21.14	-39.7	-41.8	13.9	1.50e-06	0	58	0	1201668096	51	4489
2026-01-15 00:54:50.31	250.63	21.03	-39.7	-41.9	13.9	3.80e-06	0	59	0	1204813824	51	4500
2026-01-15 00:54:51.32	250.46	20.93	-39.8	-42.0	13.8	3.80e-06	0	59	0	1207959552	51	4558
2026-01-15 00:54:52.33	250.30	20.82	-39.8	-42.0	13.8	6.10e-06	0	59	0	1211105280	51	4569
2026-01-15 00:54:53.34	250.14	20.71	-39.8	-42.1	13.7	5.30e-06	0	59	0	1214251008	51	4611
2026-01-15 00:54:54.35	249.98	20.61	-39.7	-41.9	13.8	4.50e-06	0	59	0	1217396736	51	4538
2026-01-15 00:54:55.36	249.82	20.50	-39.6	-41.8	14.0	1.50e-06	0	58	0	1220542464	51	4455
2026-01-15 00:54:56.37	249.66	20.39	-39.6	-41.8	14.0	2.20e-06	0	59	0	1223688192	51	4473
2026-01-15 00:54:57.38	249.50	20.29	-39.6	-41.8	13.9	3.80e-06	0	58	0	1226833920	51	4481
2026-01-15 00:54:58.39	249.35	20.18	-39.6	-41.7	14.1	2.20e-06	0	58	0	1229979648	51	4418
2026-01-15 00:54:59.40	249.19	20.07	-39.5	-41.7	14.1	7.00e-07	0	59	0	1233125376	51	4405
2026-01-15 00:55:00.41	249.04	19.97	-39.6	-41.8	14.0	1.50e-06	0	59	0	1236271104	51	4455
2026-01-15 00:55:01.42	248.89	19.86	-39.7	-41.9	13.8	1.50e-06	0	59	0	1239416832	51	4536
2026-01-15 00:55:02.43	248.74	19.76	-39.8	-42.1	13.7	2.20e-06	0	59	0	1242562560	51	4615
2026-01-15 00:55:03.44	248.59	19.65	-40.0	-42.3	13.5	6.10e-06	0	59	0	1245708288	51	4723
2026-01-15 00:55:04.45	248.44	19.55	-40.1	-42.5	13.3	1.67e-05	0	59	0	1248854016	51	4831
2026-01-15 00:55:05.46	248.29	19.44	-40.2	-42.7	13.0	3.50e-05	0	58	0	1251999744	51	4963
2026-01-15 00:55:06.47	248.14	19.34	-40.4	-42.9	12.8	5.64e-05	0	58	0	1255145472	51	5060
2026-01-15 00:55:07.48	247.99	19.24	-40.3	-42.8	12.9	4.95e-05	0	59	0	1258291200	51	5016
2026-01-15 00:55:08.49	247.85	19.13	-40.3	-42.8	12.9	4.19e-05	0	59	0	1261436928	51	4989
2026-01-15 00:55:09.50	247.70	19.03	-40.1	-42.6	13.1	5.26e-05	0	59	0	1264582656	51	4896
2026-01-15 00:55:10.51	247.56	18.93	-40.0	-42.4	13.3	2.21e-05	0	58	0	1267728384	51	4779
2026-01-15 00:55:11.52	247.42	18.82	-40.0	-42.4	13.3	1.67e-05	0	59	0	1270874112	51	4762
2026-01-15 00:55:12.53	247.28	18.72	-40.0	-42.4	13.3	9.90e-06	0	59	0	1274019840	51	4768
2026-01-15 00:55:13.54	247.14	18.62	-39.9	-42.2	13.5	1.29e-05	0	59	0	1277165568	51	4663
2026-01-15 00:55:14.55	247.00	18.52	-39.8	-42.0	13.6	6.80e-06	0	59	0	1280311296	51	4593
2026-01-15 00:55:15.56	246.86	18.41	-39.8	-42.0	13.6	8.30e-06	0	59	0	1283457024	51	4590
2026-01-15 00:55:16.57	246.72	18.31	-39.8	-42.0	13.6	3.80e-06	0	59	0	1286602752	51	4580
2026-01-15 00:55:17.58	246.58	18.21	-39.9	-42.2	13.4	5.30e-06	0	59	0	1289748480	51	4688
2026-01-15 00:55:18.59	246.45	18.11	-40.1	-42.4	13.2	1.90e-05	0	59	0	1292894208	51	4799
2026-01-15 00:55:19.60	246.31	18.01	-40.2	-42.7	13.0	2.89e-05	0	59	0	1296039936	51	4940
2026-01-15 00:55:20.61	246.18	17.91	-40.4	-42.9	12.7	5.18e-05	0	59	0	1299185664	51	5091
2026-01-15 00:55:21.62	246.05	17.81	-40.5	-43.2	12.5	1.12e-04	0	58	0	1302331392	51	5230
2026-01-15 00:55:22.63	245.92	17.71	-40.6	-43.2	12.4	1.59e-04	0	59	0	1305477120	51	5265
2026-01-15 00:55:23.64	245.78	17.61	-40.5	-43.2	12.4	1.56e-04	0	59	0	1308622848	51	5249
2026-01-15 00:55:24.65	245.65	17.51	-40.5	-43.1	12.5	1.28e-04	0	58	0	1311768576	51	5185
2026-01-15 00:55:25.66	245.52	17.41	-40.4	-43.0	12.6	9.23e-05	0	58	0	1314914304	51	5118
2026-01-15 00:55:26.67	245.40	17.31	-40.4	-42.9	12.7	8.01e-05	0	59	0	1318060032	51	5082
2026-01-15 00:55:27.68	245.27	17.21	-40.3	-42.8	12.8	5.72e-05	0	58	0	1321205760	51	5022
2026-01-15 00:55:28.68	245.14	17.11	-40.1	-42.6	13.1	2.89e-05	0	59	0	1324351488	51	4878
2026-01-15 00:55:29.69	245.02	17.01	-40.0	-42.4	13.2	2.89e-05	0	59	0	1327497216	51	4795
2026-01-15 00:55:30.70	244.89	16.91	-40.0	-42.4	13.2	3.05e-05	0	59	0	1330642944	51	4805
2026-01-15 00:55:31.71	244.77	16.82	-39.9	-42.2	13.4	1.67e-05	0	59	0	1333788672	51	4702
2026-01-15 00:55:32.72	244.64	16.72	-39.9	-42.2	13.4	1.52e-05	0	59	0	1336934400	51	4686
2026-01-15 00:55:33.73	244.52	16.62	-39.9	-42.3	13.3	1.60e-05	0	59	0	1340080128	51	4730
2026-01-15 00:55:34.74	244.40	16.52	-40.0	-42.4	13.2	2.36e-05	0	58	0	1343225856	51	4801
2026-01-15 00:55:35.75	244.28	16.43	-40.2	-42.6	13.0	2.59e-05	0	59	0	1346371584	51	4908
2026-01-15 00:55:36.76	244.16	16.33	-40.3	-42.8	12.9	4.95e-05	0	59	0	1349517312	51	5001
2026-01-15 00:55:37.77	244.04	16.23	-40.4	-43.0	12.6	7.85e-05	0	58	0	1352663040	51	5123
2026-01-15 00:55:38.78	243.92	16.14	-40.5	-43.2	12.4	1.15e-04	0	59	0	1355808768	51	5245
2026-01-15 00:55:39.79	243.80	16.04	-40.6	-43.3	12.3	1.67e-04	0	58	0	1358954496	51	5327
2026-01-15 00:55:40.80	243.68	15.95	-40.7	-43.4	12.2	2.34e-04	0	58	0	1362100224	51	5384
2026-01-15 00:55:41.81	243.57	15.85	-40.6	-43.3	12.3	1.75e-04	0	59	0	1365245952	51	5298
2026-01-15 00:55:42.83	243.45	15.75	-40.5	-43.2	12.4	1.52e-04	0	59	0	1368391680	51	5244
2026-01-15 00:55:43.83	243.33	15.66	-40.5	-43.1	12.5	1.24e-04	0	59	0	1371537408	51	5204
2026-01-15 00:55:44.84	243.22	15.57	-40.5	-43.1	12.5	1.39e-04	0	59	0	1374683136	51	5181
2026-01-15 00:55:45.85	243.11	15.47	-40.3	-42.8	12.7	8.92e-05	0	59	0	1377828864	51	5039
2026-01-15 00:55:46.86	242.99	15.38	-40.2	-42.8	12.8	5.72e-05	0	59	0	1380974592	51	4989
2026-01-15 00:55:47.87	242.88	15.28	-40.2	-42.8	12.8	5.95e-05	0	59	0	1384120320	51	4998
2026-01-15 00:55:48.88	242.77	15.19	-40.3	-42.9	12.7	8.08e-05	0	58	0	1387266048	51	5061
2026-01-15 00:55:49.89	242.66	15.10	-40.2	-42.8	12.8	6.02e-05	0	59	0	1390411776	51	4989
2026-01-15 00:55:50.90	242.55	15.00	-40.3	-42.8	12.8	5.18e-05	0	59	0	1393557504	51	5008
2026-01-15 00:55:51.91	242.44	14.91	-40.3	-42.9	12.7	7.70e-05	0	59	0	1396703232	51	5048
2026-01-15 00:55:52.92	242.33	14.82	-40.4	-43.0	12.6	9.30e-05	0	59	0	1399848960	51	5101
2026-01-15 00:55:53.93	242.22	14.73	-40.5	-43.1	12.5	1.26e-04	0	59	0	1404043264	51	5182
2026-01-15 00:55:54.94	242.12	14.63	-40.5	-43.1	12.4	1.42e-04	0	59	0	1406140416	51	5207
2026-01-15 00:55:55.95	242.01	14.54	-40.5	-43.2	12.4	1.47e-04	0	59	0	1409286144	51	5240
2026-01-15 00:55:56.96	241.90	14.45	-40.6	-43.3	12.3	1.93e-04	0	59	0	1412431872	51	5295
2026-01-15 00:55:57.97	241.80	14.36	-40.6	-43.3	12.2	1.93e-04	0	59	0	1415577600	51	5337
2026-01-15 00:55:58.98	241.69	14.27	-40.7	-43.5	12.1	2.34e-04	0	59	0	1418723328	51	5409
2026-01-15 00:55:59.99	241.59	14.18	-40.6	-43.4	12.1	2.71e-04	0	58	0	1422917632	51	5377
2026-01-15 00:56:00.99	241.49	14.09	-40.7	-43.5	12.0	3.11e-04	0	59	0	1426063360	51	5443
2026-01-15 00:56:02.00	241.39	14.00	-40.7	-43.5	11.9	3.31e-04	0	58	0	1429209088	52	5139
2026-01-15 00:56:03.01	241.28	13.91	-40.7	-43.6	11.9	3.95e-04	0	59	0	1431306240	52	5174
2026-01-15 00:56:04.02	241.18	13.82	-40.8	-43.7	11.7	5.34e-04	0	59	0	1434451968	52	5238
2026-01-15 00:56:05.03	241.08	13.73	-40.8	-43.8	11.6	5.82e-04	0	59	0	1438646272	52	5310
2026-01-15 00:56:06.04	240.98	13.64	-40.8	-43.8	11.6	6.52e-04	0	59	0	1441792000	52	5285
2026-01-15 00:56:07.05	240.88	13.55	-40.7	-43.7	11.7	5.48e-04	0	58	0	1444937728	52	5227
2026-01-15 00:56:08.06	240.78	13.46	-40.8	-43.7	11.7	5.77e-04	0	59	0	1448083456	52	5242
2026-01-15 00:56:09.07	240.68	13.37	-40.8	-43.7	11.6	6.06e-04	0	59	0	1451229184	52	5259
2026-01-15 00:56:10.08	240.59	13.28	-40.8	-43.8	11.6	7.23e-04	0	59	0	1454374912	52	5283
2026-01-15 00:56:11.10	240.49	13.19	-40.8	-43.7	11.6	7.35e-04	0	59	0	1457520640	52	5272
2026-01-15 00:56:12.11	240.39	13.10	-40.8	-43.7	11.6	6.96e-04	0	59	0	1460666368	52	5242
2026-01-15 00:56:13.12	240.30	13.02	-40.7	-43.6	11.7	5.64e-04	0	59	0	1463812096	52	5165
2026-01-15 00:56:14.13	240.20	12.93	-40.7	-43.5	11.7	5.28e-04	0	58	0	1466957824	52	5147
2026-01-15 00:56:15.13	240.11	12.84	-40.6	-43.4	11.9	3.95e-04	0	58	0	1470103552	52	5077
2026-01-15 00:56:16.15	240.01	12.75	-40.6	-43.4	11.9	3.96e-04	0	58	0	1473249280	52	5097
2026-01-15 00:56:17.15	239.92	12.67	-40.6	-43.4	11.8	4.69e-04	0	59	0	1476395008	52	5097
2026-01-15 00:56:18.16	239.83	12.58	-40.5	-43.4	11.9	3.80e-04	0	59	0	1479540736	52	5044
2026-01-15 00:56:19.17	239.73	12.49	-40.5	-43.3	12.0	2.84e-04	0	59	0	1482686464	52	5037
2026-01-15 00:56:20.18	239.64	12.41	-40.5	-43.3	12.0	4.05e-04	0	59	0	1485832192	52	5007
2026-01-15 00:56:21.19	239.55	12.32	-40.4	-43.2	12.1	2.87e-04	0	59	0	1488977920	52	4945
2026-01-15 00:56:22.20	239.46	12.24	-40.5	-43.3	12.0	2.94e-04	0	59	0	1492123648	52	5020
2026-01-15 00:56:23.21	239.37	12.15	-40.6	-43.4	11.8	3.83e-04	0	59	0	1495269376	52	5091
2026-01-15 00:56:24.22	239.28	12.07	-40.7	-43.6	11.7	5.29e-04	0	58	0	1498415104	52	5173
2026-01-15 00:56:25.23	239.19	11.98	-40.8	-43.8	11.5	7.55e-04	0	59	0	1501560832	52	5306
2026-01-15 00:56:26.24	239.10	11.90	-40.9	-44.0	11.3	1.03e-03	0	59	0	1504706560	52	5412
2026-01-15 00:56:27.25	239.01	11.81	-41.0	-44.1	11.1	1.52e-03	0	59	0	1507852288	52	5522
2026-01-15 00:56:28.26	238.93	11.73	-40.9	-44.0	11.2	1.24e-03	0	59	0	1510998016	52	5457
2026-01-15 00:56:29.27	238.84	11.64	-40.9	-44.1	11.2	1.33e-03	0	59	0	1514143744	52	5469
2026-01-15 00:56:30.28	238.75	11.56	-41.0	-44.1	11.1	1.44e-03	0	59	0	1517289472	52	5494
2026-01-15 00:56:31.29	238.67	11.47	-41.1	-44.3	10.9	1.81e-03	0	59	0	1520435200	52	5612
2026-01-15 00:56:32.30	238.58	11.39	-41.1	-44.4	10.9	2.31e-03	0	58	0	1523580928	52	5674
2026-01-15 00:56:33.31	238.49	11.31	-41.1	-44.4	10.8	2.60e-03	0	59	0	1526726656	52	5690
2026-01-15 00:56:34.32	238.41	11.22	-41.1	-44.4	10.7	2.48e-03	0	59	0	1529872384	52	5700
2026-01-15 00:56:35.33	238.33	11.14	-41.0	-44.3	10.9	2.55e-03	0	59	0	1533018112	52	5608
2026-01-15 00:56:36.34	238.24	11.06	-41.1	-44.3	10.9	2.39e-03	0	59	0	1536163840	52	5619
2026-01-15 00:56:37.35	238.16	10.98	-41.0	-44.2	10.9	2.29e-03	0	58	0	1539309568	52	5591
2026-01-15 00:56:38.36	238.08	10.89	-41.0	-44.3	10.8	2.14e-03	0	59	0	1542455296	52	5617
2026-01-15 00:56:39.37	237.99	10.81	-41.0	-44.3	10.9	2.16e-03	0	58	0	1545601024	52	5605
2026-01-15 00:56:40.38	237.91	10.73	-41.0	-44.1	11.0	1.99e-03	0	59	0	1548746752	52	5521
2026-01-15 00:56:41.39	237.83	10.65	-40.9	-44.0	11.1	1.51e-03	0	59	0	1551892480	52	5439
2026-01-15 00:56:42.40	237.75	10.57	-40.9	-44.0	11.1	1.39e-03	0	59	0	1555038208	52	5437
2026-01-15 00:56:43.41	237.67	10.49	-40.9	-44.0	11.2	1.46e-03	0	59	0	1558183936	52	5411
2026-01-15 00:56:44.42	237.59	10.41	-40.8	-43.9	11.3	1.08e-03	0	59	0	1561329664	52	5343
2026-01-15 00:56:45.43	237.51	10.33	-40.8	-43.9	11.3	1.01e-03	0	59	0	1564475392	52	5366
2026-01-15 00:56:46.44	237.43	10.24	-40.8	-43.9	11.3	1.15e-03	0	59	0	1567621120	52	5356
2026-01-15 00:56:47.45	237.35	10.16	-40.8	-43.9	11.3	1.09e-03	0	59	0	1570766848	52	5361
2026-01-15 00:56:48.45	237.28	10.09	-40.9	-44.0	11.2	1.39e-03	0	59	0	1573912576	52	5413
2026-01-15 00:56:49.46	237.20	10.01	-40.9	-44.1	11.1	1.61e-03	0	59	0	1577058304	52	5489
2026-01-15 00:56:50.47	237.12	9.93	-40.9	-44.0	11.1	1.46e-03	0	59	0	1580204032	52	5440
2026-01-15 00:56:51.48	237.04	9.85	-40.8	-44.0	11.2	1.33e-03	0	59	0	1583349760	52	5416
2026-01-15 00:56:52.49	236.97	9.77	-40.8	-43.9	11.3	1.31e-03	0	59	0	1586495488	52	5369
2026-01-15 00:56:53.50	236.89	9.69	-40.8	-43.9	11.2	1.47e-03	0	59	0	1589641216	52	5400
2026-01-15 00:56:54.51	236.82	9.61	-40.8	-44.0	11.1	1.50e-03	0	59	0	1592786944	52	5433
2026-01-15 00:56:55.52	236.74	9.53	-40.9	-44.1	11.0	1.72e-03	0	59	0	1595932672	52	5486
2026-01-15 00:56:56.53	236.67	9.45	-41.0	-44.2	10.9	2.14e-03	0	59	0	1599078400	52	5582
2026-01-15 00:56:57.54	236.59	9.37	-41.0	-44.2	10.9	2.23e-03	0	59	0	1602224128	52	5565
2026-01-15 00:56:58.55	236.52	9.30	-41.0	-44.3	10.8	2.35e-03	0	59	0	1605369856	52	5610
2026-01-15 00:56:59.56	236.44	9.22	-41.1	-44.4	10.6	2.96e-03	0	59	0	1608515584	52	5722
2026-01-15 00:57:00.57	236.37	9.14	-41.1	-44.5	10.6	3.23e-03	0	59	0	1611661312	52	5749
2026-01-15 00:57:01.58	236.30	9.06	-41.1	-44.5	10.6	3.64e-03	0	59	0	1614807040	52	5753
2026-01-15 00:57:02.59	236.23	8.99	-41.2	-44.6	10.5	4.44e-03	0	58	0	1617952768	52	5812
2026-01-15 00:57:03.60	236.15	8.91	-41.1	-44.5	10.5	3.57e-03	0	59	0	1621098496	52	5766
2026-01-15 00:57:04.61	236.08	8.83	-41.2	-44.6	10.4	4.19e-03	0	59	0	1624244224	52	5823
2026-01-15 00:57:05.62	236.01	8.75	-41.2	-44.7	10.3	4.91e-03	0	59	0	1627389952	52	5871
2026-01-15 00:57:06.63	235.94	8.68	-41.2	-44.7	10.2	5.85e-03	0	59	0	1630535680	53	5586
2026-01-15 00:57:07.63	235.87	8.60	-41.2	-44.7	10.3	5.59e-03	0	59	0	1633681408	53	5537
2026-01-15 00:57:08.64	235.80	8.53	-41.1	-44.5	10.4	4.41e-03	0	58	0	1636827136	53	5459
2026-01-15 00:57:09.65	235.73	8.45	-41.2	-44.6	10.3	4.79e-03	0	58	0	1639972864	53	5520
2026-01-15 00:57:10.66	235.66	8.38	-41.2	-44.7	10.3	5.43e-03	0	59	0	1643118592	53	5545
2026-01-15 00:57:11.67	235.59	8.30	-41.1	-44.6	10.4	5.30e-03	0	59	0	1646264320	53	5483
2026-01-15 00:57:12.68	235.52	8.22	-41.1	-44.6	10.3	5.09e-03	0	59	0	1649410048	53	5490
2026-01-15 00:57:13.69	235.46	8.15	-41.1	-44.6	10.3	5.81e-03	0	59	0	1652555776	53	5508
2026-01-15 00:57:14.70	235.39	8.07	-41.0	-44.5	10.5	4.00e-03	0	59	0	1655701504	53	5406
2026-01-15 00:57:15.71	235.32	8.00	-43.9	-53.0	3.9	4.29e-01	0	59	104	1658847232	58	10788
2026-01-15 00:57:16.72	235.25	7.92	-44.7	-57.0	3.8	1.49e+00	0	59	104	1658847232	60	15357
2026-01-15 00:57:17.74	235.19	7.85	-44.9	-57.2	3.8	1.49e+00	0	59	104	1658847232	60	15629
2026-01-15 00:57:18.75	235.12	7.78	-45.0	-57.4	3.8	1.49e+00	0	59	104	1658847232	60	15948
2026-01-15 00:57:19.76	235.05	7.70	-45.1	-57.4	3.8	1.49e+00	0	59	104	1658847232	60	16086
2026-01-15 00:57:20.77	234.99	7.63	-45.2	-57.5	3.8	1.49e+00	0	59	104	1658847232	60	16195
2026-01-15 00:57:21.78	234.92	7.55	-45.2	-57.5	3.8	1.49e+00	0	59	104	1658847232	61	15389
2026-01-15 00:57:22.79	234.86	7.48	-45.3	-57.7	3.8	1.49e+00	0	59	104	1658847232	61	15584
2026-01-15 00:57:23.80	234.79	7.41	-45.3	-57.6	3.8	1.49e+00	0	59	104	1658847232	61	15495
2026-01-15 00:57:24.81	234.73	7.33	-45.3	-57.6	3.8	1.49e+00	0	59	104	1658847232	61	15460
2026-01-15 00:57:25.82	234.66	7.26	-45.3	-57.6	3.8	1.49e+00	0	59	104	1658847232	61	15447
2026-01-15 00:57:26.83	234.60	7.19	-45.2	-57.5	3.8	1.49e+00	0	59	104	1658847232	61	15319
2026-01-15 00:57:27.84	234.54	7.11	-45.2	-57.5	3.8	1.49e+00	0	59	104	1658847232	61	15318
2026-01-15 00:57:28.85	234.47	7.04	-45.2	-57.5	3.8	1.49e+00	0	59	104	1658847232	61	15275
2026-01-15 00:57:29.86	234.41	6.97	-45.2	-57.5	3.8	1.49e+00	0	59	104	1658847232	61	15259
2026-01-15 00:57:30.87	234.35	6.90	-45.2	-57.5	3.8	1.49e+00	0	59	104	1658847232	61	15308
2026-01-15 00:57:31.88	234.29	6.83	-45.2	-57.5	3.8	1.49e+00	0	59	104	1658847232	61	15336
2026-01-15 00:57:32.89	234.23	6.75	-45.2	-57.5	3.8	1.49e+00	0	59	104	1658847232	61	15226
2026-01-15 00:57:33.90	234.16	6.68	-45.2	-57.5	3.8	1.49e+00	0	59	104	1658847232	61	15239
2026-01-15 00:57:34.92	234.10	6.61	-45.2	-57.4	3.8	1.49e+00	0	59	104	1658847232	61	15209
2026-01-15 00:57:35.93	234.04	6.54	-45.2	-57.4	3.8	1.49e+00	0	59	104	1658847232	61	15189
2026-01-15 00:57:36.94	233.98	6.47	-45.2	-57.4	3.8	1.49e+00	0	59	104	1658847232	61	15186
2026-01-15 00:57:37.95	233.92	6.40	-45.2	-57.4	3.8	1.49e+00	0	59	104	1658847232	61	15225
2026-01-15 00:57:38.96	233.86	6.33	-45.2	-57.5	3.8	1.49e+00	0	59	104	1658847232	61	15246
2026-01-15 00:57:39.97	233.80	6.26	-45.2	-57.4	3.8	1.49e+00	0	59	104	1658847232	61	15158
2026-01-15 00:57:40.98	233.74	6.18	-45.2	-57.4	3.8	1.49e+00	0	59	104	1658847232	61	15209
2026-01-15 00:57:41.99	233.68	6.11	-45.2	-57.4	3.8	1.49e+00	0	59	104	1658847232	61	15192
2026-01-15 00:57:43.00	233.63	6.04	-45.2	-57.4	3.8	1.49e+00	0	59	104	1658847232	61	15210
2026-01-15 00:57:44.01	233.57	5.97	-45.2	-57.4	3.8	1.49e+00	0	59	104	1658847232	61	15198
2026-01-15 00:57:45.02	233.51	5.90	-45.2	-57.5	3.8	1.49e+00	0	59	104	1658847232	61	15290
2026-01-15 00:57:46.03	233.45	5.83	-45.2	-57.4	3.8	1.49e+00	0	59	104	1658847232	61	15219
2026-01-15 00:57:47.04	233.39	5.77	-45.2	-57.4	3.8	1.49e+00	0	59	104	1658847232	61	15200
2026-01-15 00:57:48.05	233.34	5.70	-45.2	-57.4	3.8	1.49e+00	0	59	104	1658847232	61	15122
2026-01-15 00:57:49.06	233.28	5.63	-45.2	-57.4	3.8	1.49e+00	0	59	104	1658847232	61	15158
2026-01-15 00:57:50.07	233.22	5.56	-45.2	-57.4	3.8	1.49e+00	0	59	104	1658847232	61	15116
2026-01-15 00:57:51.08	233.17	5.49	-45.2	-57.4	3.8	1.49e+00	0	59	104	1658847232	61	15178
2026-01-15 00:57:52.09	233.11	5.42	-45.2	-57.4	3.8	1.49e+00	0	59	104	1658847232	61	15213
2026-01-15 00:57:53.10	233.05	5.35	-45.1	-57.4	3.8	1.49e+00	0	59	104	1658847232	61	15159
2026-01-15 00:57:54.11	233.00	5.28	-45.2	-57.4	3.8	1.49e+00	0	59	104	1658847232	61	15149
2026-01-15 00:57:55.12	232.94	5.21	-45.2	-57.4	3.8	1.49e+00	0	59	104	1658847232	61	15163
2026-01-15 00:57:56.13	232.89	5.15	-45.2	-57.4	3.8	1.49e+00	0	59	104	1658847232	61	15225
2026-01-15 00:57:57.15	232.83	5.08	-45.1	-57.4	3.8	1.49e+00	0	59	104	1658847232	61	15167
2026-01-15 00:57:58.16	232.78	5.01	-45.2	-57.4	3.8	1.49e+00	0	59	104	1658847232	61	15212
2026-01-15 00:57:59.17	232.72	4.94	-45.1	-57.4	3.8	1.49e+00	0	59	104	1658847232	61	15138
2026-01-15 00:58:00.17	232.67	4.88	-45.2	-57.4	3.8	1.49e+00	0	59	104	1658847232	61	15208
2026-01-15 00:58:01.18	232.62	4.81	-45.2	-57.4	3.8	1.49e+00	0	59	104	1658847232	61	15156
2026-01-15 00:58:02.19	232.56	4.74	-45.1	-57.4	3.8	1.49e+00	0	59	104	1658847232	61	15200
2026-01-15 00:58:03.20	232.51	4.67	-45.2	-57.4	3.8	1.49e+00	0	59	104	1658847232	61	15194
2026-01-15 00:58:04.21	232.46	4.61	-45.2	-57.4	3.8	1.49e+00	0	59	104	1658847232	61	15157
2026-01-15 00:58:05.22	232.40	4.54	-45.1	-57.4	3.8	1.49e+00	0	59	104	1658847232	61	15149
2026-01-15 00:58:06.23	232.35	4.47	-45.1	-57.4	3.8	1.49e+00	0	59	104	1658847232	61	15182
2026-01-15 00:58:07.24	232.30	4.41	-45.1	-57.4	3.8	1.49e+00	0	59	104	1658847232	61	15144
2026-01-15 00:58:08.25	232.25	4.34	-45.1	-57.4	3.8	1.49e+00	0	59	104	1658847232	61	15167
2026-01-15 00:58:09.26	232.20	4.27	-45.1	-57.4	3.8	1.49e+00	0	59	104	1658847232	61	15079
2026-01-15 00:58:10.27	232.15	4.21	-45.1	-57.4	3.8	1.49e+00	0	59	104	1658847232	61	15105
2026-01-15 00:58:11.28	232.09	4.14	-45.1	-57.4	3.8	1.49e+00	0	59	104	1658847232	61	15162
2026-01-15 00:58:12.29	232.04	4.08	-45.1	-57.4	3.8	1.49e+00	0	59	104	1658847232	61	15104
2026-01-15 00:58:13.30	231.99	4.01	-45.1	-57.4	3.8	1.49e+00	0	59	104	1658847232	61	15096
2026-01-15 00:58:14.31	231.94	3.94	-45.1	-57.4	3.8	1.49e+00	0	59	104	1658847232	61	15177
2026-01-15 00:58:15.31	231.89	3.88	-45.1	-57.4	3.8	1.49e+00	0	59	104	1658847232	61	15086
2026-01-15 00:58:16.33	231.84	3.81	-45.1	-57.4	3.8	1.49e+00	0	59	104	1658847232	61	15114
2026-01-15 00:58:17.34	231.79	3.75	-45.1	-57.4	3.8	1.49e+00	0	59	104	1658847232	61	15156
2026-01-15 00:58:18.35	231.74	3.68	-45.1	-57.4	3.8	1.49e+00	0	59	104	1658847232	61	15178
2026-01-15 00:58:19.36	231.69	3.62	-45.1	-57.4	3.8	1.49e+00	0	59	104	1658847232	61	15074
2026-01-15 00:58:20.37	231.64	3.55	-45.1	-57.4	3.8	1.49e+00	0	59	104	1658847232	61	15117
2026-01-15 00:58:21.37	231.60	3.49	-45.1	-57.4	3.8	1.49e+00	0	59	104	1658847232	61	15066
2026-01-15 00:58:22.38	231.55	3.43	-45.1	-57.4	3.8	1.49e+00	0	59	104	1658847232	61	15110
2026-01-15 00:58:23.39	231.50	3.36	-45.1	-57.4	3.8	1.49e+00	0	59	104	1658847232	61	15105
2026-01-15 00:58:24.40	231.45	3.30	-45.1	-57.4	3.8	1.49e+00	0	59	104	1658847232	61	15089
2026-01-15 00:58:25.41	231.40	3.23	-45.1	-57.4	3.8	1.49e+00	0	59	104	1658847232	61	15068
2026-01-15 00:58:26.42	231.35	3.17	-45.1	-57.4	3.8	1.49e+00	0	59	104	1658847232	61	15141
2026-01-15 00:58:27.43	231.31	3.10	-45.1	-57.4	3.8	1.49e+00	0	59	104	1658847232	61	15161
2026-01-15 00:58:28.45	231.26	3.04	-45.1	-57.4	3.8	1.49e+00	0	59	104	1658847232	61	15104
2026-01-15 00:58:29.46	231.21	2.98	-45.1	-57.4	3.8	1.49e+00	0	59	104	1658847232	61	15113
2026-01-15 00:58:30.47	231.16	2.91	-45.1	-57.4	3.8	1.49e+00	0	59	104	1658847232	61	15118
2026-01-15 00:58:31.47	231.12	2.85	-45.1	-57.4	3.8	1.49e+00	0	59	104	1658847232	61	15108
2026-01-15 00:58:32.48	231.07	2.79	-45.1	-57.4	3.8	1.49e+00	0	59	104	1658847232	61	15104
2026-01-15 00:58:33.49	231.03	2.72	-45.1	-57.4	3.8	1.49e+00	0	59	104	1658847232	61	15148
2026-01-15 00:58:34.50	230.98	2.66	-45.1	-57.4	3.8	1.49e+00	0	59	104	1658847232	61	15079
2026-01-15 00:58:35.51	230.93	2.60	-45.1	-57.4	3.8	1.49e+00	0	59	104	1658847232	61	15109
2026-01-15 00:58:36.52	230.89	2.54	-45.1	-57.4	3.8	1.49e+00	0	59	104	1658847232	61	15148
2026-01-15 00:58:37.53	230.84	2.47	-45.1	-57.4	3.8	1.49e+00	0	59	104	1658847232	61	15088
2026-01-15 00:58:38.54	230.80	2.41	-45.1	-57.4	3.8	1.49e+00	0	59	104	1658847232	61	15159
2026-01-15 00:58:39.55	230.75	2.35	-45.1	-57.4	3.8	1.49e+00	0	59	104	1658847232	61	15144
2026-01-15 00:58:40.56	230.71	2.29	-45.1	-57.4	3.8	1.49e+00	0	59	104	1658847232	61	15083
2026-01-15 00:58:41.57	230.66	2.22	-45.1	-57.4	3.8	1.49e+00	0	59	104	1658847232	61	15109
2026-01-15 00:58:42.58	230.62	2.16	-45.1	-57.4	3.8	1.49e+00	0	59	104	1658847232	61	15140
