passes_logs/2026/01/15/R2.0S_Moscow/R2.0S_Moscow__20260115_021345_FENGYUN_3D_rec.log

#Pass ID: 20260115_021345_FENGYUN 3D
#Satellite: FENGYUN 3D
#Configuration: FENGYUN 3D
#almurnet v.1.7.20251203
#Start time: 2026-01-15 02:13:46

#Version: 2.2.20231116
#Station: R2.0S_Moscow
#Location: 37.707566 lon 55.798166 lat
#TLE: 1 43010U 17072A   26014.22831475  .00000226  00000+0  12883-3 0  9994
#TLE: 2 43010  98.9934 346.0326 0002309 109.2304 250.9121 14.19696287423146

#Time	Az	El	Level	Level2	SNR	BER	BlckErr	Temp	State	Recorded	gain1	gain2
2026-01-15 02:13:46.84	14.61	2.06	-42.6	-54.2	3.8	8.46e-01	0	48	0	0	57	13111
2026-01-15 02:13:47.84	14.60	2.12	-42.6	-54.2	3.8	8.47e-01	0	48	104	0	57	13154
2026-01-15 02:13:48.85	14.58	2.18	-42.6	-54.2	3.8	8.46e-01	0	49	104	0	57	13119
2026-01-15 02:13:49.86	14.56	2.25	-42.6	-54.2	3.8	8.46e-01	0	48	104	0	57	13152
2026-01-15 02:13:50.87	14.54	2.31	-42.6	-54.2	3.8	8.47e-01	0	49	104	0	57	13140
2026-01-15 02:13:51.89	14.53	2.38	-42.6	-54.2	3.8	8.45e-01	0	49	104	0	57	13154
2026-01-15 02:13:52.90	14.51	2.44	-42.6	-54.2	3.8	8.46e-01	0	49	104	0	57	13149
2026-01-15 02:13:53.91	14.49	2.51	-42.6	-54.2	3.8	8.47e-01	0	49	104	0	57	13162
2026-01-15 02:13:54.92	14.47	2.57	-42.7	-54.1	3.8	8.47e-01	0	49	104	0	57	13089
2026-01-15 02:13:55.93	14.46	2.64	-42.6	-54.1	3.8	8.46e-01	0	49	104	0	57	13092
2026-01-15 02:13:56.94	14.44	2.70	-42.6	-54.2	3.8	8.46e-01	0	49	104	0	57	13130
2026-01-15 02:13:57.95	14.42	2.77	-42.7	-54.2	3.8	8.46e-01	0	49	104	0	57	13113
2026-01-15 02:13:58.96	14.40	2.84	-42.6	-54.1	3.8	8.45e-01	0	49	104	0	57	13109
2026-01-15 02:13:59.97	14.38	2.90	-42.7	-54.2	3.8	8.46e-01	0	49	104	0	57	13157
2026-01-15 02:14:00.98	14.37	2.97	-42.6	-54.2	3.8	8.46e-01	0	49	104	0	57	13114
2026-01-15 02:14:01.99	14.35	3.03	-42.7	-54.2	3.8	8.47e-01	0	50	104	0	57	13172
2026-01-15 02:14:03.00	14.33	3.10	-42.7	-54.2	3.8	8.44e-01	0	50	104	0	57	13116
2026-01-15 02:14:04.01	14.31	3.17	-42.6	-54.2	3.8	8.46e-01	0	50	104	0	57	13139
2026-01-15 02:14:05.02	14.29	3.23	-42.6	-54.1	3.8	8.47e-01	0	50	104	0	57	13090
2026-01-15 02:14:06.03	14.27	3.30	-42.6	-54.1	3.8	8.47e-01	0	50	104	0	57	13101
2026-01-15 02:14:07.04	14.25	3.37	-42.6	-54.1	3.8	8.46e-01	0	50	104	0	57	13053
2026-01-15 02:14:08.05	14.23	3.43	-42.6	-54.1	3.8	8.46e-01	0	50	104	0	57	13034
2026-01-15 02:14:09.06	14.22	3.50	-42.6	-54.1	3.8	8.45e-01	0	50	104	0	57	12971
2026-01-15 02:14:10.07	14.20	3.57	-42.6	-54.0	3.8	8.46e-01	0	50	104	0	57	12874
2026-01-15 02:14:11.08	14.18	3.64	-42.6	-53.9	3.8	8.46e-01	0	50	104	0	57	12770
2026-01-15 02:14:12.09	14.16	3.70	-42.6	-53.9	3.8	8.46e-01	0	50	104	0	57	12749
2026-01-15 02:14:13.10	14.14	3.77	-42.6	-54.0	3.8	8.45e-01	0	50	104	0	57	12875
2026-01-15 02:14:14.11	14.12	3.84	-42.6	-54.0	3.8	8.46e-01	0	50	104	0	57	12908
2026-01-15 02:14:15.12	14.10	3.91	-42.6	-54.1	3.8	8.47e-01	0	50	104	0	57	12968
2026-01-15 02:14:16.13	14.08	3.98	-42.6	-54.1	3.8	8.46e-01	0	50	104	0	57	13016
2026-01-15 02:14:17.14	14.06	4.05	-42.6	-54.1	3.8	8.47e-01	0	50	104	0	57	12997
2026-01-15 02:14:18.15	14.04	4.12	-42.6	-54.0	3.8	8.46e-01	0	51	104	0	57	12898
2026-01-15 02:14:19.16	14.02	4.18	-42.6	-54.0	3.8	8.46e-01	0	50	104	0	57	12893
2026-01-15 02:14:20.17	14.00	4.25	-42.6	-53.9	3.8	8.46e-01	0	51	104	0	57	12810
2026-01-15 02:14:21.18	13.98	4.32	-42.6	-54.0	3.8	8.45e-01	0	50	104	0	57	12853
2026-01-15 02:14:22.20	13.96	4.39	-42.6	-54.0	3.8	8.47e-01	0	51	104	0	57	12913
2026-01-15 02:14:23.20	13.94	4.46	-42.6	-53.9	3.8	8.46e-01	0	51	104	0	57	12802
2026-01-15 02:14:24.22	13.92	4.53	-42.6	-54.0	3.8	8.45e-01	0	51	104	0	57	12927
2026-01-15 02:14:25.23	13.89	4.60	-42.6	-54.1	3.8	8.45e-01	0	51	104	0	57	12988
2026-01-15 02:14:26.24	13.87	4.67	-42.6	-54.0	3.8	8.46e-01	0	51	104	0	57	12917
2026-01-15 02:14:27.25	13.85	4.74	-42.6	-54.1	3.8	8.46e-01	0	51	104	0	57	13057
2026-01-15 02:14:28.26	13.83	4.81	-42.6	-54.1	3.8	8.46e-01	0	51	104	0	57	13097
2026-01-15 02:14:29.26	13.81	4.88	-42.6	-54.1	3.8	8.45e-01	0	51	104	0	57	13012
2026-01-15 02:14:30.27	13.79	4.95	-42.6	-54.1	3.8	8.46e-01	0	51	104	0	57	13033
2026-01-15 02:14:31.28	13.77	5.03	-42.6	-54.1	3.8	8.47e-01	0	51	104	0	57	13021
2026-01-15 02:14:32.29	13.74	5.10	-42.6	-54.1	3.8	8.47e-01	0	51	104	0	57	13012
2026-01-15 02:14:33.30	13.72	5.17	-42.6	-53.9	3.8	8.47e-01	0	51	104	0	57	12690
2026-01-15 02:14:34.31	13.70	5.24	-42.6	-53.4	3.8	8.46e-01	0	52	104	0	57	12059
2026-01-15 02:14:35.32	13.68	5.31	-42.5	-53.2	3.8	8.46e-01	0	51	104	0	57	11762
2026-01-15 02:14:36.33	13.66	5.38	-42.5	-53.2	3.8	8.46e-01	0	51	104	0	57	11710
2026-01-15 02:14:37.34	13.63	5.46	-42.5	-52.9	3.8	8.45e-01	0	52	104	0	57	11359
2026-01-15 02:14:38.35	13.61	5.53	-42.4	-52.4	3.8	8.46e-01	0	51	104	0	56	11410
2026-01-15 02:14:39.36	13.59	5.60	-42.4	-52.1	3.8	8.44e-01	0	52	104	0	56	10948
2026-01-15 02:14:40.37	13.57	5.67	-42.4	-52.0	3.8	8.46e-01	0	52	104	0	56	10845
2026-01-15 02:14:41.38	13.54	5.75	-42.4	-51.9	3.9	8.43e-01	0	52	104	0	56	10717
2026-01-15 02:14:42.39	13.52	5.82	-42.4	-52.0	3.8	8.44e-01	0	52	104	0	56	10823
2026-01-15 02:14:43.40	13.50	5.89	-42.4	-51.9	3.8	8.45e-01	0	52	104	0	56	10681
2026-01-15 02:14:44.41	13.47	5.97	-42.3	-51.7	3.8	8.44e-01	0	52	104	0	56	10528
2026-01-15 02:14:45.42	13.45	6.04	-42.3	-51.5	3.8	8.44e-01	0	52	104	0	56	10239
2026-01-15 02:14:46.43	13.43	6.12	-42.3	-51.3	4.0	8.41e-01	0	52	0	0	56	10018
2026-01-15 02:14:47.44	13.40	6.19	-42.3	-51.2	4.1	8.41e-01	0	52	0	0	56	9897
2026-01-15 02:14:48.44	13.38	6.26	-42.3	-51.4	3.9	8.44e-01	0	52	104	0	56	10135
2026-01-15 02:14:49.45	13.35	6.34	-42.3	-51.5	3.9	8.43e-01	0	52	104	0	56	10221
2026-01-15 02:14:50.46	13.33	6.41	-42.4	-51.8	3.9	8.44e-01	0	52	104	0	56	10610
2026-01-15 02:14:51.47	13.31	6.49	-42.5	-52.4	3.8	8.45e-01	0	52	104	0	56	11411
2026-01-15 02:14:52.48	13.28	6.56	-42.5	-52.7	3.8	8.46e-01	0	52	104	0	56	11699
2026-01-15 02:14:53.49	13.26	6.64	-42.4	-52.4	3.8	8.47e-01	0	53	104	0	56	11383
2026-01-15 02:14:54.50	13.23	6.71	-42.4	-51.8	3.9	8.45e-01	0	52	104	0	56	10617
2026-01-15 02:14:55.52	13.21	6.79	-42.2	-50.7	4.2	8.43e-01	0	52	104	0	56	9297
2026-01-15 02:14:56.52	13.18	6.87	-41.8	-49.2	4.6	8.18e-01	0	53	0	0	55	8360
2026-01-15 02:14:57.53	13.16	6.94	-41.5	-47.8	5.3	7.61e-01	0	52	0	0	55	7119
2026-01-15 02:14:58.54	13.13	7.02	-41.2	-46.8	6.1	5.29e-01	0	53	0	2097152	54	6688
2026-01-15 02:14:59.55	13.10	7.10	-40.7	-45.6	7.2	1.98e-01	0	53	0	8388608	53	6135
2026-01-15 02:15:00.54	13.08	7.17	-40.4	-44.7	8.0	1.09e-01	0	53	0	13631488	52	5893
2026-01-15 02:15:01.55	13.05	7.25	-40.1	-44.2	8.5	5.80e-02	0	53	0	19922944	52	5559
2026-01-15 02:15:02.56	13.03	7.33	-40.0	-43.8	9.0	3.83e-02	0	53	0	25165824	51	5608
2026-01-15 02:15:03.57	13.00	7.40	-39.7	-43.3	9.5	1.96e-02	0	53	0	30408704	51	5319
2026-01-15 02:15:04.57	12.98	7.48	-39.5	-42.8	10.1	1.17e-02	0	53	0	36700160	50	5309
2026-01-15 02:15:05.58	12.95	7.56	-39.5	-42.9	10.0	9.92e-03	0	53	0	41943040	50	5366
2026-01-15 02:15:06.59	12.92	7.64	-39.5	-42.8	10.0	9.81e-03	0	53	0	48234496	50	5338
2026-01-15 02:15:07.60	12.89	7.72	-39.4	-42.8	10.1	8.43e-03	0	53	0	53477376	50	5282
2026-01-15 02:15:08.61	12.87	7.80	-39.5	-42.9	9.9	1.02e-02	0	53	0	59768832	50	5372
2026-01-15 02:15:09.62	12.84	7.87	-39.6	-43.1	9.8	1.42e-02	0	53	0	65011712	50	5491
2026-01-15 02:15:10.63	12.81	7.95	-39.7	-43.3	9.6	1.44e-02	0	53	0	70254592	50	5595
2026-01-15 02:15:11.64	12.79	8.03	-39.9	-43.6	9.1	2.46e-02	0	53	0	76546048	50	5845
2026-01-15 02:15:12.65	12.76	8.11	-39.9	-43.7	8.9	3.12e-02	0	53	0	81788928	50	5887
2026-01-15 02:15:13.66	12.73	8.19	-40.6	-44.7	8.4	2.87e-02	0	53	0	88080384	51	6270
2026-01-15 02:15:14.67	12.70	8.27	-40.1	-44.2	8.5	5.75e-02	0	53	0	92274688	51	5902
2026-01-15 02:15:15.68	12.67	8.35	-39.8	-43.7	9.0	2.04e-01	0	53	0	97517568	51	5538
2026-01-15 02:15:16.69	12.64	8.44	-41.2	-47.2	6.1	2.49e-02	0	53	0	103809024	52	7826
2026-01-15 02:15:17.70	12.62	8.52	-40.4	-45.0	7.6	8.44e-01	0	53	104	103809024	52	6079
2026-01-15 02:15:18.71	12.59	8.60	-39.5	-43.0	9.7	1.28e-02	0	53	0	108003328	50	5454
2026-01-15 02:15:19.72	12.56	8.68	-39.5	-42.9	9.9	1.07e-02	0	53	0	114294784	50	5356
2026-01-15 02:15:20.73	12.53	8.76	-39.2	-42.4	10.4	6.37e-03	0	53	0	119537664	50	5081
2026-01-15 02:15:21.74	12.50	8.84	-39.1	-42.3	10.5	5.97e-03	0	54	0	125829120	50	4990
2026-01-15 02:15:22.75	12.47	8.93	-39.1	-42.3	10.5	4.79e-03	0	54	0	131072000	50	5000
2026-01-15 02:15:23.76	12.44	9.01	-39.0	-42.1	10.7	3.99e-03	0	53	0	136314880	50	4873
2026-01-15 02:15:24.77	12.41	9.09	-39.0	-42.1	10.7	3.92e-03	0	54	0	142606336	50	4902
2026-01-15 02:15:25.79	12.38	9.18	-39.0	-42.1	10.7	3.93e-03	0	54	0	147849216	50	4882
2026-01-15 02:15:26.79	12.35	9.26	-39.0	-42.0	10.8	3.53e-03	0	54	0	153092096	50	4858
2026-01-15 02:15:27.80	12.32	9.34	-39.0	-42.1	10.7	3.27e-03	0	54	0	159383552	49	5182
2026-01-15 02:15:28.81	12.29	9.43	-38.9	-42.0	10.8	3.70e-03	0	54	0	164626432	49	5123
2026-01-15 02:15:29.82	12.26	9.51	-38.9	-42.0	10.8	3.36e-03	0	54	0	170917888	49	5111
2026-01-15 02:15:30.83	12.23	9.59	-38.9	-41.9	10.9	3.25e-03	0	54	0	176160768	49	5073
2026-01-15 02:15:31.84	12.19	9.68	-38.9	-41.9	10.9	3.01e-03	0	54	0	182452224	49	5054
2026-01-15 02:15:32.85	12.16	9.76	-38.7	-41.6	11.2	2.20e-03	0	54	0	187695104	49	4918
2026-01-15 02:15:33.86	12.13	9.85	-38.7	-41.7	11.2	1.97e-03	0	54	0	193986560	49	4927
2026-01-15 02:15:34.87	12.10	9.94	-38.7	-41.6	11.3	1.60e-03	0	54	0	199229440	49	4873
2026-01-15 02:15:35.88	12.07	10.02	-38.7	-41.5	11.4	1.52e-03	0	54	0	204472320	49	4840
2026-01-15 02:15:36.89	12.03	10.11	-38.7	-41.5	11.4	1.39e-03	0	54	0	210763776	49	4845
2026-01-15 02:15:37.90	12.00	10.19	-38.7	-41.5	11.5	1.31e-03	0	54	0	216006656	49	4837
2026-01-15 02:15:38.91	11.97	10.28	-38.7	-41.5	11.5	1.33e-03	0	54	0	222298112	49	4849
2026-01-15 02:15:39.91	11.94	10.37	-38.7	-41.5	11.4	1.31e-03	0	54	0	227540992	49	4864
2026-01-15 02:15:40.92	11.90	10.46	-38.7	-41.6	11.4	1.38e-03	0	54	0	232783872	49	4887
2026-01-15 02:15:41.93	11.87	10.54	-38.8	-41.6	11.4	1.31e-03	0	54	0	239075328	49	4896
2026-01-15 02:15:42.94	11.84	10.63	-38.7	-41.5	11.5	1.28e-03	0	54	0	244318208	49	4866
2026-01-15 02:15:43.95	11.80	10.72	-38.8	-41.7	11.4	1.16e-03	0	54	0	250609664	49	4932
2026-01-15 02:15:44.96	11.77	10.81	-38.9	-41.8	11.3	1.57e-03	0	54	0	255852544	49	4992
2026-01-15 02:15:45.98	11.73	10.90	-38.9	-41.7	11.4	1.39e-03	0	54	0	261095424	49	4971
2026-01-15 02:15:46.98	11.70	10.99	-38.8	-41.7	11.5	1.33e-03	0	54	0	267386880	49	4932
2026-01-15 02:15:47.99	11.66	11.08	-38.8	-41.6	11.5	1.20e-03	0	54	0	272629760	49	4897
2026-01-15 02:15:49.00	11.63	11.17	-38.7	-41.4	11.7	9.39e-04	0	54	0	278921216	49	4814
2026-01-15 02:15:50.01	11.59	11.26	-38.7	-41.4	11.8	7.38e-04	0	54	0	284164096	49	4776
2026-01-15 02:15:51.02	11.56	11.35	-38.6	-41.3	11.9	5.57e-04	0	54	0	290455552	49	4721
2026-01-15 02:15:52.03	11.52	11.44	-38.6	-41.2	12.0	5.23e-04	0	54	0	295698432	49	4686
2026-01-15 02:15:53.04	11.49	11.53	-38.6	-41.3	11.9	5.74e-04	0	54	0	300941312	49	4738
2026-01-15 02:15:54.04	11.45	11.62	-38.6	-41.3	12.0	4.66e-04	0	54	0	307232768	49	4726
2026-01-15 02:15:55.05	11.41	11.71	-38.7	-41.3	12.0	4.97e-04	0	54	0	312475648	49	4733
2026-01-15 02:15:56.06	11.38	11.80	-38.6	-41.2	12.1	3.96e-04	0	54	0	318767104	49	4698
2026-01-15 02:15:57.07	11.34	11.90	-38.6	-41.2	12.2	3.52e-04	0	54	0	324009984	49	4655
2026-01-15 02:15:58.08	11.30	11.99	-38.6	-41.1	12.3	2.29e-04	0	54	0	329252864	49	4617
2026-01-15 02:15:59.09	11.26	12.08	-38.5	-41.0	12.4	1.99e-04	0	54	0	335544320	49	4584
2026-01-15 02:16:00.10	11.23	12.18	-38.5	-41.0	12.5	1.83e-04	0	55	0	340787200	49	4559
2026-01-15 02:16:01.11	11.19	12.27	-38.5	-40.9	12.6	1.56e-04	0	54	0	347078656	48	4800
2026-01-15 02:16:02.12	11.15	12.36	-38.6	-41.0	12.6	1.32e-04	0	55	0	352321536	48	4847
2026-01-15 02:16:03.13	11.11	12.46	-38.6	-41.1	12.5	1.27e-04	0	55	0	357564416	48	4887
2026-01-15 02:16:04.14	11.07	12.55	-38.7	-41.2	12.5	1.98e-04	0	55	0	363855872	48	4934
2026-01-15 02:16:05.14	11.03	12.65	-38.8	-41.3	12.4	2.05e-04	0	55	0	369098752	48	5040
2026-01-15 02:16:06.15	10.99	12.74	-38.9	-41.3	12.4	2.08e-04	0	55	0	375390208	48	5040
2026-01-15 02:16:07.16	10.95	12.84	-38.8	-41.3	12.5	2.37e-04	0	55	0	380633088	48	4991
2026-01-15 02:16:08.17	10.91	12.94	-38.7	-41.1	12.7	1.35e-04	0	55	0	386924544	48	4908
2026-01-15 02:16:09.18	10.87	13.03	-38.6	-40.9	13.0	9.15e-05	0	55	0	392167424	48	4803
2026-01-15 02:16:10.18	10.83	13.13	-38.6	-40.8	13.2	6.06e-05	0	55	0	397410304	48	4746
2026-01-15 02:16:11.19	10.79	13.23	-38.6	-40.9	13.1	4.00e-05	0	55	0	403701760	48	4800
2026-01-15 02:16:12.20	10.75	13.33	-38.8	-41.1	13.0	7.55e-05	0	55	0	408944640	48	4915
2026-01-15 02:16:13.21	10.71	13.42	-38.9	-41.3	12.8	9.15e-05	0	55	0	415236096	48	4996
2026-01-15 02:16:14.22	10.67	13.52	-38.8	-41.1	13.0	6.98e-05	0	55	0	420478976	48	4895
2026-01-15 02:16:15.23	10.62	13.62	-38.7	-41.0	13.2	4.23e-05	0	55	0	425721856	48	4821
2026-01-15 02:16:16.24	10.58	13.72	-38.7	-40.9	13.2	3.20e-05	0	55	0	432013312	48	4796
2026-01-15 02:16:17.25	10.54	13.82	-38.8	-41.1	13.1	4.80e-05	0	55	0	437256192	48	4875
2026-01-15 02:16:18.26	10.49	13.92	-38.9	-41.2	13.1	5.95e-05	0	55	0	443547648	48	4931
2026-01-15 02:16:19.27	10.45	14.02	-38.9	-41.1	13.1	5.14e-05	0	55	0	448790528	48	4922
2026-01-15 02:16:20.28	10.41	14.12	-38.7	-40.9	13.3	3.31e-05	0	55	0	454033408	48	4813
2026-01-15 02:16:21.29	10.36	14.22	-38.7	-40.9	13.4	3.08e-05	0	55	0	460324864	48	4792
2026-01-15 02:16:22.30	10.32	14.33	-38.7	-40.9	13.4	1.71e-05	0	55	0	465567744	48	4813
2026-01-15 02:16:23.31	10.27	14.43	-38.8	-41.0	13.3	2.97e-05	0	55	0	471859200	48	4828
2026-01-15 02:16:24.32	10.23	14.53	-38.7	-40.9	13.4	2.63e-05	0	55	0	477102080	48	4806
2026-01-15 02:16:25.33	10.18	14.63	-38.7	-40.8	13.5	1.60e-05	0	55	0	483393536	48	4759
2026-01-15 02:16:26.34	10.14	14.74	-38.7	-40.8	13.6	2.05e-05	0	55	0	488636416	48	4743
2026-01-15 02:16:27.35	10.09	14.84	-38.7	-40.9	13.5	2.28e-05	0	55	0	494927872	48	4799
2026-01-15 02:16:28.36	10.04	14.95	-38.6	-40.8	13.7	1.02e-05	0	55	0	500170752	48	4728
2026-01-15 02:16:29.37	10.00	15.05	-38.6	-40.7	13.8	6.80e-06	0	55	0	505413632	48	4657
2026-01-15 02:16:30.38	9.95	15.16	-38.7	-40.8	13.7	9.10e-06	0	55	0	511705088	48	4744
2026-01-15 02:16:31.39	9.90	15.26	-38.6	-40.8	13.8	1.48e-05	0	55	0	516947968	48	4714
2026-01-15 02:16:32.40	9.85	15.37	-38.5	-40.6	14.0	9.10e-06	0	55	0	523239424	48	4624
2026-01-15 02:16:33.41	9.81	15.47	-38.6	-40.6	14.0	5.70e-06	0	55	0	528482304	48	4644
2026-01-15 02:16:34.41	9.76	15.58	-38.4	-40.5	14.1	5.70e-06	0	55	0	533725184	48	4569
2026-01-15 02:16:35.42	9.71	15.69	-38.4	-40.5	14.2	2.20e-06	0	56	0	540016640	48	4560
2026-01-15 02:16:36.43	9.66	15.80	-38.5	-40.5	14.1	2.20e-06	0	55	0	545259520	48	4578
2026-01-15 02:16:37.44	9.61	15.90	-38.4	-40.4	14.3	0.00e+00	0	55	0	550502400	48	4531
2026-01-15 02:16:38.45	9.56	16.01	-38.5	-40.5	14.2	1.10e-06	0	56	0	556793856	48	4586
2026-01-15 02:16:39.46	9.51	16.12	-38.5	-40.5	14.3	3.40e-06	0	55	0	562036736	48	4551
2026-01-15 02:16:40.47	9.46	16.23	-38.5	-40.5	14.3	0.00e+00	0	56	0	568328192	48	4556
2026-01-15 02:16:41.47	9.41	16.34	-38.4	-40.4	14.4	4.50e-06	0	55	0	573571072	48	4520
2026-01-15 02:16:42.49	9.35	16.45	-38.3	-40.2	14.6	1.10e-06	0	56	0	579862528	48	4427
2026-01-15 02:16:43.50	9.30	16.56	-38.3	-40.2	14.6	0.00e+00	0	55	0	585105408	48	4427
2026-01-15 02:16:44.50	9.25	16.67	-38.2	-40.1	14.7	0.00e+00	0	55	0	591396864	48	4368
2026-01-15 02:16:45.51	9.20	16.79	-38.2	-40.1	14.7	0.00e+00	0	55	0	596639744	48	4381
2026-01-15 02:16:46.52	9.14	16.90	-38.1	-40.0	14.9	1.10e-06	0	55	0	601882624	48	4302
2026-01-15 02:16:47.53	9.09	17.01	-38.1	-40.0	14.9	0.00e+00	0	55	0	608174080	48	4305
2026-01-15 02:16:48.54	9.03	17.13	-38.0	-39.9	15.0	0.00e+00	0	56	0	613416960	48	4267
2026-01-15 02:16:49.55	8.98	17.24	-38.0	-39.9	15.0	0.00e+00	0	56	0	619708416	48	4246
2026-01-15 02:16:50.56	8.92	17.35	-37.9	-39.7	15.1	0.00e+00	0	56	0	624951296	47	4428
2026-01-15 02:16:51.56	8.87	17.47	-37.7	-39.6	15.3	0.00e+00	0	56	0	630194176	47	4341
2026-01-15 02:16:52.57	8.81	17.58	-37.8	-39.6	15.2	0.00e+00	0	55	0	636485632	47	4348
2026-01-15 02:16:53.58	8.75	17.70	-37.7	-39.5	15.3	0.00e+00	0	56	0	641728512	47	4320
2026-01-15 02:16:54.59	8.70	17.82	-37.7	-39.5	15.3	0.00e+00	0	56	0	646971392	47	4313
2026-01-15 02:16:55.60	8.64	17.93	-37.8	-39.6	15.2	0.00e+00	0	56	0	653262848	47	4358
2026-01-15 02:16:56.61	8.58	18.05	-37.7	-39.5	15.4	0.00e+00	0	56	0	658505728	47	4301
2026-01-15 02:16:57.62	8.52	18.17	-37.7	-39.5	15.4	0.00e+00	0	56	0	664797184	47	4311
2026-01-15 02:16:58.63	8.46	18.29	-37.6	-39.4	15.5	0.00e+00	0	56	0	670040064	47	4275
2026-01-15 02:16:59.65	8.40	18.41	-37.6	-39.4	15.5	0.00e+00	0	56	0	676331520	47	4264
2026-01-15 02:17:00.65	8.34	18.53	-37.7	-39.4	15.5	0.00e+00	0	56	0	681574400	47	4280
2026-01-15 02:17:01.65	8.28	18.65	-37.6	-39.4	15.5	0.00e+00	0	56	0	687865856	47	4256
2026-01-15 02:17:02.66	8.22	18.77	-37.6	-39.3	15.6	0.00e+00	0	56	0	693108736	47	4229
2026-01-15 02:17:03.67	8.16	18.89	-37.6	-39.4	15.6	0.00e+00	0	56	0	698351616	47	4249
2026-01-15 02:17:04.68	8.10	19.01	-37.6	-39.3	15.6	0.00e+00	0	56	0	704643072	47	4237
2026-01-15 02:17:05.69	8.04	19.14	-37.5	-39.2	15.7	0.00e+00	0	56	0	709885952	47	4192
2026-01-15 02:17:06.70	7.97	19.26	-37.5	-39.2	15.7	0.00e+00	0	56	0	716177408	47	4180
2026-01-15 02:17:07.71	7.91	19.38	-37.6	-39.3	15.6	0.00e+00	0	56	0	721420288	47	4228
2026-01-15 02:17:08.72	7.85	19.51	-37.5	-39.3	15.7	0.00e+00	0	56	0	726663168	47	4196
2026-01-15 02:17:09.73	7.78	19.63	-37.5	-39.2	15.7	0.00e+00	0	56	0	732954624	47	4174
2026-01-15 02:17:10.74	7.71	19.76	-37.5	-39.2	15.7	0.00e+00	0	56	0	738197504	47	4180
2026-01-15 02:17:11.75	7.65	19.88	-37.5	-39.3	15.7	0.00e+00	0	56	0	744488960	47	4210
2026-01-15 02:17:12.76	7.58	20.01	-37.5	-39.2	15.7	0.00e+00	0	56	0	749731840	47	4176
2026-01-15 02:17:13.77	7.51	20.14	-37.5	-39.2	15.7	0.00e+00	0	56	0	754974720	47	4181
2026-01-15 02:17:14.77	7.45	20.27	-37.6	-39.3	15.7	0.00e+00	0	56	0	761266176	47	4203
2026-01-15 02:17:15.78	7.38	20.39	-37.6	-39.3	15.7	0.00e+00	0	56	0	766509056	47	4212
2026-01-15 02:17:16.79	7.31	20.52	-37.5	-39.3	15.7	0.00e+00	0	56	0	772800512	47	4205
2026-01-15 02:17:17.80	7.24	20.65	-37.6	-39.3	15.7	0.00e+00	0	56	0	778043392	47	4219
2026-01-15 02:17:18.80	7.17	20.78	-37.6	-39.3	15.7	0.00e+00	0	56	0	784334848	47	4230
2026-01-15 02:17:19.81	7.10	20.91	-37.6	-39.3	15.7	0.00e+00	0	56	0	789577728	47	4225
2026-01-15 02:17:20.82	7.03	21.05	-37.6	-39.3	15.7	0.00e+00	0	56	0	794820608	47	4232
2026-01-15 02:17:21.83	6.96	21.18	-37.6	-39.3	15.7	0.00e+00	0	56	0	801112064	47	4237
2026-01-15 02:17:22.84	6.88	21.31	-37.6	-39.3	15.7	0.00e+00	0	56	0	806354944	47	4226
2026-01-15 02:17:23.85	6.81	21.45	-37.5	-39.2	15.8	0.00e+00	0	56	0	812646400	47	4175
2026-01-15 02:17:24.86	6.74	21.58	-37.5	-39.2	15.9	0.00e+00	0	56	0	817889280	46	4401
2026-01-15 02:17:25.87	6.66	21.71	-37.5	-39.2	15.9	0.00e+00	0	56	0	823132160	46	4399
2026-01-15 02:17:26.87	6.59	21.85	-37.4	-39.1	16.0	0.00e+00	0	56	0	829423616	46	4370
2026-01-15 02:17:27.88	6.51	21.99	-37.3	-39.0	16.0	0.00e+00	0	56	0	834666496	46	4326
2026-01-15 02:17:28.89	6.43	22.12	-37.2	-38.9	16.2	0.00e+00	0	56	0	839909376	46	4253
2026-01-15 02:17:29.90	6.36	22.26	-37.2	-38.8	16.2	0.00e+00	0	56	0	846200832	46	4233
2026-01-15 02:17:30.90	6.28	22.40	-37.1	-38.7	16.3	0.00e+00	0	56	0	851443712	46	4190
2026-01-15 02:17:31.91	6.20	22.54	-37.1	-38.7	16.4	0.00e+00	0	56	0	857735168	46	4153
2026-01-15 02:17:32.92	6.12	22.68	-36.9	-38.5	16.6	0.00e+00	0	56	0	862978048	45	4311
2026-01-15 02:17:33.93	6.04	22.82	-36.9	-38.5	16.6	0.00e+00	0	56	0	869269504	45	4296
2026-01-15 02:17:34.94	5.96	22.96	-36.9	-38.4	16.6	0.00e+00	0	56	0	874512384	45	4285
2026-01-15 02:17:35.95	5.88	23.10	-36.9	-38.4	16.6	0.00e+00	0	56	0	880803840	45	4285
2026-01-15 02:17:36.95	5.79	23.24	-36.8	-38.4	16.7	0.00e+00	0	56	0	886046720	45	4277
2026-01-15 02:17:37.96	5.71	23.39	-36.9	-38.5	16.6	0.00e+00	0	56	0	891289600	45	4304
2026-01-15 02:17:38.97	5.62	23.53	-36.9	-38.5	16.6	0.00e+00	0	56	0	897581056	45	4316
2026-01-15 02:17:39.98	5.54	23.68	-36.9	-38.5	16.6	0.00e+00	0	56	0	902823936	45	4303
2026-01-15 02:17:40.99	5.45	23.82	-36.9	-38.5	16.6	0.00e+00	0	56	0	908066816	45	4306
2026-01-15 02:17:42.00	5.37	23.97	-36.9	-38.5	16.5	0.00e+00	0	56	0	914358272	45	4330
2026-01-15 02:17:43.01	5.28	24.11	-36.9	-38.5	16.6	0.00e+00	0	56	0	919601152	45	4307
2026-01-15 02:17:44.02	5.19	24.26	-36.9	-38.5	16.6	0.00e+00	0	56	0	925892608	45	4305
2026-01-15 02:17:45.03	5.10	24.41	-36.9	-38.4	16.7	0.00e+00	0	56	0	931135488	45	4280
2026-01-15 02:17:46.04	5.01	24.56	-36.9	-38.4	16.7	0.00e+00	0	56	0	937426944	45	4288
2026-01-15 02:17:47.05	4.92	24.71	-36.8	-38.4	16.7	0.00e+00	0	56	0	942669824	45	4265
2026-01-15 02:17:48.07	4.82	24.86	-36.8	-38.4	16.7	0.00e+00	0	56	0	947912704	45	4257
2026-01-15 02:17:49.08	4.73	25.02	-36.8	-38.3	16.8	0.00e+00	0	56	0	954204160	45	4239
2026-01-15 02:17:50.09	4.64	25.17	-36.8	-38.3	16.8	0.00e+00	0	56	0	959447040	45	4220
2026-01-15 02:17:51.10	4.54	25.32	-36.7	-38.2	16.9	0.00e+00	0	56	0	965738496	45	4167
2026-01-15 02:17:52.11	4.45	25.48	-36.6	-38.2	17.0	0.00e+00	0	56	0	970981376	45	4151
2026-01-15 02:17:53.11	4.35	25.63	-36.6	-38.1	17.0	0.00e+00	0	56	0	977272832	45	4127
2026-01-15 02:17:54.12	4.25	25.79	-36.5	-38.0	17.1	0.00e+00	0	56	0	982515712	45	4092
2026-01-15 02:17:55.13	4.15	25.94	-36.6	-38.1	17.1	0.00e+00	0	56	0	987758592	45	4106
2026-01-15 02:17:56.14	4.05	26.10	-36.5	-38.0	17.1	0.00e+00	0	56	0	994050048	45	4090
2026-01-15 02:17:57.15	3.95	26.26	-36.6	-38.1	17.0	0.00e+00	0	56	0	999292928	45	4121
2026-01-15 02:17:58.15	3.85	26.42	-36.6	-38.1	17.1	0.00e+00	0	56	0	1005584384	45	4111
2026-01-15 02:17:59.16	3.75	26.58	-36.7	-38.2	17.0	0.00e+00	0	56	0	1010827264	45	4164
2026-01-15 02:18:00.17	3.64	26.74	-36.6	-38.2	17.0	0.00e+00	0	56	0	1016070144	45	4151
2026-01-15 02:18:01.18	3.54	26.90	-36.7	-38.2	17.0	0.00e+00	0	56	0	1022361600	45	4185
2026-01-15 02:18:02.19	3.43	27.06	-36.8	-38.3	16.9	0.00e+00	0	57	0	1027604480	45	4204
2026-01-15 02:18:03.20	3.32	27.22	-36.8	-38.3	16.9	0.00e+00	0	57	0	1033895936	45	4218
2026-01-15 02:18:04.21	3.21	27.39	-36.8	-38.3	16.9	0.00e+00	0	57	0	1039138816	45	4211
2026-01-15 02:18:05.22	3.10	27.55	-36.7	-38.3	16.9	0.00e+00	0	56	0	1044381696	45	4206
2026-01-15 02:18:06.23	2.99	27.72	-36.7	-38.2	16.9	0.00e+00	0	56	0	1050673152	45	4193
2026-01-15 02:18:07.24	2.88	27.89	-36.7	-38.2	17.0	0.00e+00	0	56	0	1055916032	45	4176
2026-01-15 02:18:08.24	2.77	28.05	-36.6	-38.1	17.1	0.00e+00	0	56	0	1062207488	45	4131
2026-01-15 02:18:09.25	2.65	28.22	-36.6	-38.1	17.1	0.00e+00	0	56	0	1067450368	45	4110
2026-01-15 02:18:10.26	2.54	28.39	-36.6	-38.1	17.1	0.00e+00	0	56	0	1073741824	45	4113
2026-01-15 02:18:11.27	2.42	28.56	-36.6	-38.1	17.1	0.00e+00	0	56	0	1078984704	45	4112
2026-01-15 02:18:12.28	2.30	28.73	-36.6	-38.1	17.1	0.00e+00	0	56	0	1084227584	45	4134
2026-01-15 02:18:13.28	2.18	28.90	-36.6	-38.2	17.1	0.00e+00	0	57	0	1090519040	45	4150
2026-01-15 02:18:14.29	2.06	29.08	-36.7	-38.2	17.0	0.00e+00	0	56	0	1095761920	45	4189
2026-01-15 02:18:15.30	1.94	29.25	-36.8	-38.3	16.9	0.00e+00	0	56	0	1102053376	45	4212
2026-01-15 02:18:16.31	1.81	29.43	-36.8	-38.3	16.9	0.00e+00	0	56	0	1107296256	45	4217
2026-01-15 02:18:17.32	1.69	29.60	-36.8	-38.3	16.9	0.00e+00	0	56	0	1112539136	45	4236
2026-01-15 02:18:18.33	1.56	29.78	-36.8	-38.4	16.9	0.00e+00	0	56	0	1118830592	45	4255
2026-01-15 02:18:19.34	1.43	29.96	-36.8	-38.4	16.9	0.00e+00	0	57	0	1124073472	45	4250
2026-01-15 02:18:20.35	1.30	30.14	-36.8	-38.4	16.8	0.00e+00	0	56	0	1130364928	45	4266
2026-01-15 02:18:21.36	1.17	30.32	-36.8	-38.4	16.9	0.00e+00	0	57	0	1135607808	45	4246
2026-01-15 02:18:22.37	1.04	30.50	-36.8	-38.3	17.0	0.00e+00	0	57	0	1140850688	45	4218
2026-01-15 02:18:23.38	0.91	30.68	-36.7	-38.2	17.0	0.00e+00	0	57	0	1147142144	45	4165
2026-01-15 02:18:24.39	0.77	30.86	-36.5	-38.1	17.2	0.00e+00	0	56	0	1152385024	45	4099
2026-01-15 02:18:25.40	0.63	31.05	-36.5	-38.0	17.3	0.00e+00	0	57	0	1158676480	45	4063
2026-01-15 02:18:26.41	0.49	31.23	-36.5	-38.0	17.3	0.00e+00	0	57	0	1163919360	44	4302
2026-01-15 02:18:27.43	0.35	31.42	-36.5	-38.0	17.3	0.00e+00	0	57	0	1170210816	44	4304
2026-01-15 02:18:28.44	0.21	31.61	-36.5	-38.0	17.2	0.00e+00	0	56	0	1175453696	44	4331
2026-01-15 02:18:29.45	0.06	31.79	-36.6	-38.1	17.1	0.00e+00	0	56	0	1181745152	44	4377
2026-01-15 02:18:30.46	359.92	31.98	-36.6	-38.1	17.2	0.00e+00	0	56	0	1186988032	44	4377
2026-01-15 02:18:31.47	359.77	32.17	-36.6	-38.1	17.2	0.00e+00	0	57	0	1192230912	44	4370
2026-01-15 02:18:32.48	359.62	32.36	-36.6	-38.1	17.2	0.00e+00	0	56	0	1198522368	44	4344
2026-01-15 02:18:33.49	359.47	32.55	-36.4	-37.9	17.4	0.00e+00	0	57	0	1203765248	44	4269
2026-01-15 02:18:34.50	359.32	32.75	-36.3	-37.8	17.5	0.00e+00	0	57	0	1210056704	44	4204
2026-01-15 02:18:35.51	359.16	32.94	-36.2	-37.7	17.6	0.00e+00	0	57	0	1215299584	44	4148
2026-01-15 02:18:36.52	359.01	33.14	-36.2	-37.6	17.7	0.00e+00	0	56	0	1220542464	44	4132
2026-01-15 02:18:37.53	358.85	33.33	-36.1	-37.5	17.8	0.00e+00	0	57	0	1226833920	44	4097
2026-01-15 02:18:38.54	358.69	33.53	-36.2	-37.6	17.7	0.00e+00	0	57	0	1232076800	44	4126
2026-01-15 02:18:39.55	358.52	33.73	-36.2	-37.6	17.7	0.00e+00	0	57	0	1238368256	44	4131
2026-01-15 02:18:40.56	358.36	33.93	-36.2	-37.7	17.6	0.00e+00	0	57	0	1243611136	44	4157
2026-01-15 02:18:41.57	358.19	34.12	-36.3	-37.7	17.6	0.00e+00	0	56	0	1248854016	44	4190
2026-01-15 02:18:42.58	358.02	34.33	-36.4	-37.9	17.5	0.00e+00	0	57	0	1255145472	44	4249
2026-01-15 02:18:43.59	357.85	34.53	-36.4	-37.9	17.4	0.00e+00	0	57	0	1260388352	44	4276
2026-01-15 02:18:44.60	357.68	34.73	-36.5	-38.0	17.4	0.00e+00	0	57	0	1266679808	44	4300
2026-01-15 02:18:45.61	357.50	34.93	-36.4	-37.9	17.4	0.00e+00	0	57	0	1271922688	44	4267
2026-01-15 02:18:46.61	357.33	35.14	-36.4	-37.8	17.5	0.00e+00	0	57	0	1278214144	44	4240
2026-01-15 02:18:47.62	357.15	35.34	-36.4	-37.8	17.5	0.00e+00	0	57	0	1283457024	44	4235
2026-01-15 02:18:48.63	356.97	35.55	-36.3	-37.8	17.6	0.00e+00	0	57	0	1288699904	44	4200
2026-01-15 02:18:49.64	356.78	35.76	-36.2	-37.7	17.7	0.00e+00	0	57	0	1294991360	44	4149
2026-01-15 02:18:50.65	356.59	35.97	-36.2	-37.6	17.8	0.00e+00	0	57	0	1300234240	44	4114
2026-01-15 02:18:51.66	356.40	36.18	-36.0	-37.4	17.9	0.00e+00	0	57	0	1306525696	44	4050
2026-01-15 02:18:52.67	356.21	36.39	-36.0	-37.4	17.9	0.00e+00	0	57	0	1311768576	44	4040
2026-01-15 02:18:53.68	356.02	36.60	-36.1	-37.5	17.9	0.00e+00	0	57	0	1317011456	44	4056
2026-01-15 02:18:54.68	355.82	36.81	-36.1	-37.6	17.8	0.00e+00	0	57	0	1323302912	44	4103
2026-01-15 02:18:55.69	355.62	37.02	-36.2	-37.6	17.7	0.00e+00	0	57	0	1328545792	44	4145
2026-01-15 02:18:56.70	355.42	37.24	-36.3	-37.7	17.6	0.00e+00	0	57	0	1334837248	44	4181
2026-01-15 02:18:57.71	355.21	37.46	-36.3	-37.7	17.7	0.00e+00	0	57	0	1340080128	44	4175
2026-01-15 02:18:58.72	355.01	37.67	-36.2	-37.7	17.7	0.00e+00	0	57	0	1345323008	44	4149
2026-01-15 02:18:59.73	354.80	37.89	-36.1	-37.6	17.8	0.00e+00	0	57	0	1351614464	44	4101
2026-01-15 02:19:00.74	354.58	38.11	-36.1	-37.5	17.9	0.00e+00	0	57	0	1356857344	44	4066
2026-01-15 02:19:01.75	354.36	38.33	-36.1	-37.5	17.9	0.00e+00	0	57	0	1363148800	44	4073
2026-01-15 02:19:02.76	354.14	38.55	-36.2	-37.7	17.7	0.00e+00	0	57	0	1368391680	44	4148
2026-01-15 02:19:03.76	353.92	38.77	-36.4	-37.8	17.6	0.00e+00	0	57	0	1374683136	44	4219
2026-01-15 02:19:04.77	353.70	38.99	-36.4	-37.8	17.5	0.00e+00	0	57	0	1379926016	44	4236
2026-01-15 02:19:05.78	353.47	39.22	-36.4	-37.8	17.5	0.00e+00	0	57	0	1385168896	44	4230
2026-01-15 02:19:06.79	353.24	39.44	-36.4	-37.8	17.6	0.00e+00	0	57	0	1391460352	44	4236
2026-01-15 02:19:07.80	353.00	39.67	-36.5	-38.0	17.4	0.00e+00	0	57	0	1396703232	44	4306
2026-01-15 02:19:08.80	352.76	39.89	-36.6	-38.1	17.3	0.00e+00	0	57	0	1402994688	44	4341
2026-01-15 02:19:09.81	352.52	40.12	-36.6	-38.0	17.4	0.00e+00	0	57	0	1408237568	44	4333
2026-01-15 02:19:10.82	352.28	40.35	-36.5	-38.0	17.4	0.00e+00	0	57	0	1413480448	44	4308
2026-01-15 02:19:11.83	352.03	40.57	-36.5	-37.9	17.5	0.00e+00	0	57	0	1419771904	44	4263
2026-01-15 02:19:12.84	351.77	40.80	-36.5	-37.9	17.5	0.00e+00	0	57	0	1425014784	44	4279
2026-01-15 02:19:13.84	351.52	41.03	-36.5	-38.0	17.4	0.00e+00	0	57	0	1431306240	44	4322
2026-01-15 02:19:14.85	351.26	41.26	-36.7	-38.2	17.3	0.00e+00	0	57	0	1436549120	44	4393
2026-01-15 02:19:15.86	351.00	41.50	-36.6	-38.1	17.3	0.00e+00	0	57	0	1441792000	44	4370
2026-01-15 02:19:16.87	350.73	41.73	-36.6	-38.0	17.4	0.00e+00	0	57	0	1448083456	44	4328
2026-01-15 02:19:17.88	350.46	41.96	-36.5	-37.9	17.5	0.00e+00	0	57	0	1453326336	44	4279
2026-01-15 02:19:18.89	350.18	42.20	-36.5	-37.9	17.4	0.00e+00	0	57	0	1459617792	44	4288
2026-01-15 02:19:19.90	349.90	42.43	-36.5	-38.0	17.4	0.00e+00	0	57	0	1464860672	44	4316
2026-01-15 02:19:20.91	349.62	42.67	-36.5	-38.0	17.4	0.00e+00	0	57	0	1471152128	44	4318
2026-01-15 02:19:21.92	349.33	42.91	-36.6	-38.1	17.4	0.00e+00	0	57	0	1476395008	44	4348
2026-01-15 02:19:22.93	349.03	43.14	-36.7	-38.2	17.2	0.00e+00	0	57	0	1481637888	44	4398
2026-01-15 02:19:23.94	348.74	43.38	-36.8	-38.4	17.1	0.00e+00	0	57	0	1487929344	44	4496
2026-01-15 02:19:24.95	348.43	43.62	-36.8	-38.4	17.0	0.00e+00	0	57	0	1493172224	44	4511
2026-01-15 02:19:25.96	348.13	43.86	-36.7	-38.2	17.3	0.00e+00	0	57	0	1499463680	44	4393
2026-01-15 02:19:26.97	347.82	44.10	-36.6	-38.0	17.4	0.00e+00	0	57	0	1504706560	44	4326
2026-01-15 02:19:27.98	347.50	44.34	-36.5	-38.0	17.5	0.00e+00	0	57	0	1509949440	44	4298
2026-01-15 02:19:28.99	347.18	44.58	-36.5	-38.0	17.4	0.00e+00	0	57	0	1516240896	44	4300
2026-01-15 02:19:29.99	346.86	44.82	-36.5	-37.9	17.5	0.00e+00	0	57	0	1521483776	44	4291
2026-01-15 02:19:31.00	346.53	45.06	-36.5	-37.9	17.5	0.00e+00	0	57	0	1527775232	44	4263
2026-01-15 02:19:32.01	346.19	45.30	-36.4	-37.9	17.5	0.00e+00	0	57	0	1533018112	44	4250
2026-01-15 02:19:33.03	345.85	45.55	-36.4	-37.8	17.6	0.00e+00	0	57	0	1538260992	44	4233
2026-01-15 02:19:34.03	345.50	45.79	-36.4	-37.8	17.6	0.00e+00	0	57	0	1544552448	44	4231
2026-01-15 02:19:35.04	345.15	46.03	-36.5	-37.9	17.5	0.00e+00	0	57	0	1549795328	44	4274
2026-01-15 02:19:36.05	344.79	46.28	-36.7	-38.2	17.3	0.00e+00	0	57	0	1556086784	44	4393
2026-01-15 02:19:37.06	344.43	46.52	-37.0	-38.6	16.9	0.00e+00	0	57	0	1561329664	44	4624
2026-01-15 02:19:38.07	344.06	46.76	-37.1	-38.7	16.8	0.00e+00	0	57	0	1567621120	44	4682
2026-01-15 02:19:39.08	343.69	47.01	-36.9	-38.5	17.0	0.00e+00	0	57	0	1572864000	44	4546
2026-01-15 02:19:40.09	343.31	47.25	-36.8	-38.3	17.1	0.00e+00	0	57	0	1578106880	44	4459
2026-01-15 02:19:41.10	342.92	47.49	-36.7	-38.1	17.3	0.00e+00	0	57	0	1584398336	44	4389
2026-01-15 02:19:42.10	342.53	47.73	-36.7	-38.1	17.3	0.00e+00	0	57	0	1589641216	44	4375
2026-01-15 02:19:43.11	342.13	47.98	-36.5	-37.9	17.5	0.00e+00	0	57	0	1595932672	44	4291
2026-01-15 02:19:44.12	341.73	48.22	-36.7	-38.2	17.2	0.00e+00	0	57	0	1601175552	44	4420
2026-01-15 02:19:45.13	341.32	48.46	-37.0	-38.5	16.9	0.00e+00	0	57	0	1606418432	44	4576
2026-01-15 02:19:46.15	340.89	48.71	-37.0	-38.5	17.0	0.00e+00	0	57	0	1612709888	44	4563
2026-01-15 02:19:47.16	340.47	48.95	-36.9	-38.4	17.0	0.00e+00	0	57	0	1617952768	44	4531
2026-01-15 02:19:48.16	340.04	49.19	-37.1	-38.6	16.9	0.00e+00	0	57	0	1624244224	44	4622
2026-01-15 02:19:49.17	339.60	49.43	-37.4	-39.0	16.5	0.00e+00	0	57	0	1629487104	45	4561
2026-01-15 02:19:50.18	339.16	49.68	-37.4	-39.1	16.4	0.00e+00	0	57	0	1634729984	45	4609
2026-01-15 02:19:51.19	338.70	49.92	-37.3	-38.8	16.6	0.00e+00	0	57	0	1641021440	45	4492
2026-01-15 02:19:52.20	338.24	50.16	-37.0	-38.5	16.9	0.00e+00	0	57	0	1646264320	45	4334
2026-01-15 02:19:53.21	337.78	50.40	-37.0	-38.5	16.9	0.00e+00	0	57	0	1652555776	45	4318
2026-01-15 02:19:54.22	337.30	50.63	-37.1	-38.6	16.8	0.00e+00	0	57	0	1657798656	45	4371
2026-01-15 02:19:55.23	336.82	50.87	-37.2	-38.7	16.7	0.00e+00	0	57	0	1664090112	45	4433
2026-01-15 02:19:56.24	336.33	51.11	-37.3	-38.8	16.6	0.00e+00	0	57	0	1669332992	45	4488
2026-01-15 02:19:57.25	335.83	51.34	-37.3	-38.9	16.6	0.00e+00	0	57	0	1675624448	45	4506
2026-01-15 02:19:58.26	335.32	51.58	-37.3	-38.8	16.6	0.00e+00	0	57	0	1680867328	45	4481
2026-01-15 02:19:59.27	334.81	51.81	-37.2	-38.7	16.7	0.00e+00	0	57	0	1686110208	45	4440
2026-01-15 02:20:00.27	334.29	52.04	-37.3	-38.8	16.6	0.00e+00	0	57	0	1692401664	45	4484
2026-01-15 02:20:01.28	333.76	52.27	-37.2	-38.7	16.7	0.00e+00	0	57	0	1697644544	45	4436
2026-01-15 02:20:02.29	333.22	52.50	-37.0	-38.5	16.9	0.00e+00	0	57	0	1702887424	45	4332
2026-01-15 02:20:03.30	332.67	52.73	-37.3	-38.9	16.5	0.00e+00	0	57	0	1709178880	45	4532
2026-01-15 02:20:04.31	332.12	52.95	-37.6	-39.2	16.2	0.00e+00	0	57	0	1714421760	45	4696
2026-01-15 02:20:05.32	331.55	53.18	-37.3	-38.9	16.5	0.00e+00	0	57	0	1720713216	45	4529
2026-01-15 02:20:06.32	330.99	53.40	-37.3	-38.8	16.6	0.00e+00	0	57	0	1725956096	45	4478
2026-01-15 02:20:07.33	330.40	53.62	-37.4	-39.0	16.4	0.00e+00	0	57	0	1731198976	45	4575
2026-01-15 02:20:08.34	329.81	53.83	-37.4	-39.0	16.4	0.00e+00	0	57	0	1737490432	45	4554
2026-01-15 02:20:09.35	329.21	54.05	-37.1	-38.6	16.8	0.00e+00	0	57	0	1742733312	45	4380
2026-01-15 02:20:10.36	328.60	54.26	-37.0	-38.5	16.9	0.00e+00	0	57	0	1749024768	45	4307
2026-01-15 02:20:11.37	327.98	54.47	-37.1	-38.6	16.8	0.00e+00	0	57	0	1754267648	45	4358
2026-01-15 02:20:12.38	327.36	54.68	-37.2	-38.8	16.6	0.00e+00	0	57	0	1760559104	45	4452
2026-01-15 02:20:13.39	326.72	54.89	-37.0	-38.5	16.9	0.00e+00	0	57	0	1765801984	45	4334
2026-01-15 02:20:14.40	326.07	55.09	-36.9	-38.3	17.0	0.00e+00	0	57	0	1772093440	45	4234
2026-01-15 02:20:15.41	325.42	55.29	-36.9	-38.3	17.1	0.00e+00	0	57	0	1777336320	45	4234
2026-01-15 02:20:16.42	324.75	55.49	-36.9	-38.4	17.0	0.00e+00	0	57	0	1782579200	45	4276
2026-01-15 02:20:17.43	324.08	55.68	-36.9	-38.4	17.0	0.00e+00	0	57	0	1788870656	45	4248
2026-01-15 02:20:18.44	323.40	55.87	-36.8	-38.3	17.1	0.00e+00	0	57	0	1794113536	45	4207
2026-01-15 02:20:19.45	322.70	56.06	-37.0	-38.5	16.9	0.00e+00	0	57	0	1800404992	45	4315
2026-01-15 02:20:20.45	322.01	56.24	-36.9	-38.6	16.6	0.00e+00	0	57	0	1805647872	45	4366
2026-01-15 02:20:21.47	321.29	56.42	-36.8	-38.4	16.8	0.00e+00	0	57	0	1810890752	45	4247
2026-01-15 02:20:22.48	320.57	56.60	-36.7	-38.3	16.9	0.00e+00	0	57	0	1817182208	45	4233
2026-01-15 02:20:23.49	319.84	56.77	-36.7	-38.3	16.8	0.00e+00	0	57	0	1822425088	45	4236
2026-01-15 02:20:24.50	319.10	56.94	-36.5	-38.1	17.1	0.00e+00	0	57	0	1828716544	45	4118
2026-01-15 02:20:25.51	318.35	57.10	-36.4	-38.0	17.2	0.00e+00	0	57	0	1833959424	44	4298
2026-01-15 02:20:26.51	317.60	57.26	-36.5	-38.0	17.1	0.00e+00	0	57	0	1839202304	44	4321
2026-01-15 02:20:27.52	316.84	57.41	-36.7	-38.3	16.9	0.00e+00	0	57	0	1845493760	44	4482
2026-01-15 02:20:28.53	316.06	57.56	-36.7	-38.3	16.8	0.00e+00	0	57	0	1850736640	44	4487
2026-01-15 02:20:29.54	315.28	57.71	-36.6	-38.2	16.9	0.00e+00	0	57	0	1857028096	44	4417
2026-01-15 02:20:30.55	314.49	57.85	-36.7	-38.3	16.9	0.00e+00	0	57	0	1862270976	44	4473
2026-01-15 02:20:31.56	313.69	57.99	-37.0	-38.6	16.5	0.00e+00	0	57	0	1868562432	44	4647
2026-01-15 02:20:32.57	312.88	58.12	-37.2	-38.9	16.3	0.00e+00	0	57	0	1873805312	44	4784
2026-01-15 02:20:33.57	312.07	58.25	-36.9	-38.6	16.6	0.00e+00	0	57	0	1879048192	44	4619
2026-01-15 02:20:34.59	311.24	58.37	-37.0	-38.6	16.6	0.00e+00	0	57	0	1885339648	44	4632
2026-01-15 02:20:35.59	310.42	58.48	-37.3	-39.0	16.2	0.00e+00	0	57	0	1890582528	45	4575
2026-01-15 02:20:36.60	309.58	58.59	-37.3	-39.0	16.1	0.00e+00	0	57	0	1896873984	45	4582
2026-01-15 02:20:37.61	308.74	58.70	-36.9	-38.5	16.6	0.00e+00	0	57	0	1902116864	45	4330
2026-01-15 02:20:38.62	307.89	58.80	-36.8	-38.5	16.7	0.00e+00	0	57	0	1907359744	45	4301
2026-01-15 02:20:39.63	307.03	58.89	-37.0	-38.7	16.4	0.00e+00	0	57	0	1913651200	45	4436
2026-01-15 02:20:40.64	306.16	58.98	-36.9	-38.6	16.6	0.00e+00	0	57	0	1918894080	45	4349
2026-01-15 02:20:41.65	305.30	59.06	-36.4	-38.0	17.1	0.00e+00	0	57	0	1925185536	44	4309
2026-01-15 02:20:42.65	304.43	59.14	-36.6	-38.2	17.0	0.00e+00	0	57	0	1930428416	44	4419
2026-01-15 02:20:43.66	303.55	59.20	-36.9	-38.5	16.6	0.00e+00	0	57	0	1935671296	44	4593
2026-01-15 02:20:44.67	302.67	59.27	-37.0	-38.7	16.5	0.00e+00	0	57	0	1941962752	44	4666
2026-01-15 02:20:45.68	301.78	59.33	-37.0	-38.7	16.5	0.00e+00	0	57	0	1947205632	44	4658
2026-01-15 02:20:46.69	300.89	59.38	-36.9	-38.5	16.6	0.00e+00	0	57	0	1953497088	44	4598
2026-01-15 02:20:47.70	299.99	59.42	-36.9	-38.6	16.5	0.00e+00	0	57	0	1958739968	44	4638
2026-01-15 02:20:48.71	299.09	59.46	-37.0	-38.7	16.5	0.00e+00	0	57	0	1965031424	44	4674
2026-01-15 02:20:49.72	298.19	59.49	-36.8	-38.5	16.6	0.00e+00	0	57	0	1970274304	44	4561
2026-01-15 02:20:50.73	297.29	59.52	-36.6	-38.2	16.9	0.00e+00	0	57	0	1975517184	44	4405
2026-01-15 02:20:51.73	296.40	59.54	-36.6	-38.1	17.0	0.00e+00	0	57	0	1981808640	44	4387
2026-01-15 02:20:52.74	295.49	59.55	-36.5	-38.2	17.0	0.00e+00	0	57	0	1987051520	44	4392
2026-01-15 02:20:53.75	294.59	59.55	-36.4	-37.9	17.2	0.00e+00	0	57	0	1993342976	44	4275
2026-01-15 02:20:54.76	293.68	59.55	-36.5	-38.0	17.1	0.00e+00	0	57	0	1998585856	44	4327
2026-01-15 02:20:55.77	292.78	59.55	-36.7	-38.4	16.8	0.00e+00	0	58	0	2003828736	44	4496
2026-01-15 02:20:56.78	291.87	59.53	-36.7	-38.3	16.8	0.00e+00	0	57	0	2010120192	44	4476
2026-01-15 02:20:57.79	290.97	59.51	-36.7	-38.3	16.9	0.00e+00	0	57	0	2015363072	44	4457
2026-01-15 02:20:58.80	290.06	59.49	-36.7	-38.3	16.9	0.00e+00	0	57	0	2021654528	44	4459
2026-01-15 02:20:59.80	289.17	59.45	-36.3	-37.9	17.3	0.00e+00	0	57	0	2026897408	44	4250
2026-01-15 02:21:00.81	288.27	59.42	-36.3	-37.8	17.3	0.00e+00	0	57	0	2032140288	44	4214
2026-01-15 02:21:01.82	287.38	59.37	-36.6	-38.1	17.0	0.00e+00	0	57	0	2038431744	44	4389
2026-01-15 02:21:02.83	286.49	59.32	-36.7	-38.3	16.8	0.00e+00	0	57	0	2043674624	44	4476
2026-01-15 02:21:03.84	285.60	59.26	-36.7	-38.3	16.9	0.00e+00	0	57	0	2049966080	44	4456
2026-01-15 02:21:04.85	284.72	59.19	-36.8	-38.5	16.7	0.00e+00	0	57	0	2055208960	44	4560
2026-01-15 02:21:05.85	283.85	59.13	-36.4	-38.0	17.1	0.00e+00	0	57	0	2061500416	44	4308
2026-01-15 02:21:06.87	282.96	59.05	-36.0	-37.5	17.6	0.00e+00	0	57	0	2066743296	44	4085
2026-01-15 02:21:07.87	282.10	58.97	-36.2	-37.7	17.5	0.00e+00	0	57	0	2071986176	44	4149
2026-01-15 02:21:08.88	281.24	58.88	-36.6	-38.2	17.0	0.00e+00	0	57	0	2078277632	44	4415
2026-01-15 02:21:09.89	280.38	58.78	-36.7	-38.3	16.8	0.00e+00	0	57	0	2083520512	44	4490
2026-01-15 02:21:10.90	279.53	58.68	-36.6	-38.2	16.9	0.00e+00	0	57	0	2089811968	44	4421
2026-01-15 02:21:11.91	278.69	58.58	-36.7	-38.3	16.9	0.00e+00	0	57	0	2095054848	44	4445
2026-01-15 02:21:12.92	277.85	58.47	-36.6	-38.2	16.9	0.00e+00	0	57	0	2100297728	44	4431
2026-01-15 02:21:13.93	277.02	58.35	-36.7	-38.3	16.8	0.00e+00	0	57	0	2106589184	44	4469
2026-01-15 02:21:14.94	276.20	58.23	-36.7	-38.4	16.8	0.00e+00	0	57	0	2111832064	44	4494
2026-01-15 02:21:15.95	275.38	58.10	-36.4	-38.0	17.2	0.00e+00	0	57	0	2118123520	44	4306
2026-01-15 02:21:16.96	274.57	57.97	-36.4	-37.9	17.2	0.00e+00	0	57	0	2123366400	44	4273
2026-01-15 02:21:17.97	273.77	57.83	-36.5	-38.1	17.1	0.00e+00	0	57	0	2128609280	44	4361
2026-01-15 02:21:18.98	272.98	57.69	-36.5	-38.1	17.1	0.00e+00	0	57	0	2134900736	44	4364
2026-01-15 02:21:19.99	272.20	57.54	-36.6	-38.1	17.0	0.00e+00	0	57	0	2140143616	44	4387
2026-01-15 02:21:21.00	271.43	57.39	-36.6	-38.1	17.1	0.00e+00	0	57	0	2146435072	44	4376
2026-01-15 02:21:22.01	270.66	57.23	-36.6	-38.2	17.0	0.00e+00	0	57	0	2151677952	44	4416
2026-01-15 02:21:23.02	269.90	57.07	-36.4	-38.0	17.2	0.00e+00	0	57	0	2157969408	44	4295
2026-01-15 02:21:24.03	269.16	56.91	-36.3	-37.8	17.3	0.00e+00	0	57	0	2163212288	44	4220
2026-01-15 02:21:25.04	268.42	56.74	-36.3	-37.8	17.4	0.00e+00	0	57	0	2168455168	44	4201
2026-01-15 02:21:26.05	267.69	56.56	-36.4	-38.0	17.2	0.00e+00	0	57	0	2174746624	44	4294
2026-01-15 02:21:27.06	266.97	56.39	-36.3	-37.8	17.3	0.00e+00	0	57	0	2179989504	44	4232
2026-01-15 02:21:28.07	266.26	56.20	-36.1	-37.6	17.6	0.00e+00	0	57	0	2186280960	44	4124
2026-01-15 02:21:29.08	265.56	56.02	-36.2	-37.7	17.5	0.00e+00	0	57	0	2191523840	44	4146
2026-01-15 02:21:30.09	264.86	55.83	-36.3	-37.8	17.4	0.00e+00	0	57	0	2196766720	44	4218
2026-01-15 02:21:31.10	264.18	55.64	-36.2	-37.8	17.4	0.00e+00	0	57	0	2203058176	44	4197
2026-01-15 02:21:32.11	263.51	55.45	-36.4	-37.9	17.2	0.00e+00	0	57	0	2208301056	44	4287
2026-01-15 02:21:33.12	262.84	55.25	-36.7	-38.3	16.9	0.00e+00	0	57	0	2214592512	44	4467
2026-01-15 02:21:34.13	262.19	55.05	-36.8	-38.4	16.8	0.00e+00	0	57	0	2219835392	44	4523
2026-01-15 02:21:35.14	261.54	54.84	-36.7	-38.3	16.9	0.00e+00	0	57	0	2225078272	44	4442
2026-01-15 02:21:36.15	260.91	54.64	-36.4	-37.9	17.3	0.00e+00	0	57	0	2231369728	44	4266
2026-01-15 02:21:37.16	260.28	54.43	-36.4	-37.9	17.3	0.00e+00	0	57	0	2236612608	44	4266
2026-01-15 02:21:38.16	259.67	54.22	-36.7	-38.3	16.9	0.00e+00	0	57	0	2242904064	44	4490
2026-01-15 02:21:39.17	259.06	54.00	-36.8	-38.4	16.8	0.00e+00	0	57	0	2248146944	44	4509
2026-01-15 02:21:40.18	258.46	53.79	-36.6	-38.2	17.0	0.00e+00	0	57	0	2254438400	44	4405
2026-01-15 02:21:41.19	257.87	53.57	-36.6	-38.2	17.1	0.00e+00	0	57	0	2259681280	44	4393
2026-01-15 02:21:42.20	257.29	53.35	-36.3	-37.8	17.4	0.00e+00	0	57	0	2265972736	44	4213
2026-01-15 02:21:43.21	256.71	53.13	-36.3	-37.9	17.3	0.00e+00	0	57	0	2271215616	44	4245
2026-01-15 02:21:44.22	256.15	52.90	-36.4	-37.9	17.3	0.00e+00	0	57	0	2276458496	44	4275
2026-01-15 02:21:45.23	255.59	52.67	-36.5	-38.0	17.2	0.00e+00	0	57	0	2282749952	44	4322
2026-01-15 02:21:46.24	255.04	52.45	-36.6	-38.1	17.0	0.00e+00	0	58	0	2287992832	44	4390
2026-01-15 02:21:47.25	254.51	52.22	-36.8	-38.4	16.8	0.00e+00	0	57	0	2294284288	44	4515
2026-01-15 02:21:48.25	253.98	51.99	-36.8	-38.5	16.8	0.00e+00	0	58	0	2299527168	44	4546
2026-01-15 02:21:49.26	253.46	51.75	-36.7	-38.3	16.9	0.00e+00	0	57	0	2304770048	44	4444
2026-01-15 02:21:50.27	252.94	51.52	-36.5	-38.0	17.2	0.00e+00	0	57	0	2311061504	44	4324
2026-01-15 02:21:51.28	252.44	51.28	-36.3	-37.8	17.4	0.00e+00	0	57	0	2316304384	44	4222
2026-01-15 02:21:52.28	251.95	51.05	-36.4	-37.9	17.3	0.00e+00	0	57	0	2321547264	44	4271
2026-01-15 02:21:53.29	251.45	50.81	-36.5	-38.0	17.2	0.00e+00	0	58	0	2327838720	44	4324
2026-01-15 02:21:54.30	250.97	50.57	-36.5	-38.1	17.1	0.00e+00	0	58	0	2333081600	44	4362
2026-01-15 02:21:55.31	250.50	50.34	-36.4	-38.0	17.2	0.00e+00	0	57	0	2339373056	44	4293
2026-01-15 02:21:56.32	250.03	50.10	-36.3	-37.8	17.3	0.00e+00	0	57	0	2344615936	44	4225
2026-01-15 02:21:57.33	249.57	49.85	-36.3	-37.8	17.4	0.00e+00	0	57	0	2350907392	44	4223
2026-01-15 02:21:58.34	249.12	49.61	-36.3	-37.8	17.3	0.00e+00	0	57	0	2356150272	44	4228
2026-01-15 02:21:59.35	248.67	49.37	-36.1	-37.7	17.5	0.00e+00	0	58	0	2362441728	44	4147
2026-01-15 02:22:00.36	248.23	49.13	-36.0	-37.5	17.6	0.00e+00	0	57	0	2367684608	44	4082
2026-01-15 02:22:01.37	247.80	48.88	-36.0	-37.5	17.6	0.00e+00	0	58	0	2372927488	44	4096
2026-01-15 02:22:02.38	247.38	48.64	-36.1	-37.6	17.6	0.00e+00	0	57	0	2379218944	44	4103
2026-01-15 02:22:03.39	246.96	48.40	-36.0	-37.6	17.6	0.00e+00	0	57	0	2384461824	44	4103
2026-01-15 02:22:04.40	246.55	48.15	-36.0	-37.5	17.6	0.00e+00	0	57	0	2390753280	44	4090
2026-01-15 02:22:05.41	246.14	47.91	-36.0	-37.5	17.6	0.00e+00	0	57	0	2395996160	44	4078
2026-01-15 02:22:06.42	245.74	47.66	-36.0	-37.5	17.6	0.00e+00	0	57	0	2401239040	44	4091
2026-01-15 02:22:07.43	245.35	47.42	-36.2	-37.7	17.4	0.00e+00	0	58	0	2407530496	44	4177
2026-01-15 02:22:08.44	244.96	47.18	-36.3	-37.8	17.3	0.00e+00	0	57	0	2412773376	44	4234
2026-01-15 02:22:09.45	244.58	46.93	-36.2	-37.8	17.4	0.00e+00	0	57	0	2419064832	44	4202
2026-01-15 02:22:10.47	244.20	46.68	-36.1	-37.6	17.5	0.00e+00	0	57	0	2424307712	44	4139
2026-01-15 02:22:11.48	243.84	46.44	-35.8	-37.3	17.7	0.00e+00	0	58	0	2429550592	43	4201
2026-01-15 02:22:12.49	243.47	46.19	-35.6	-37.1	17.9	0.00e+00	0	57	0	2435842048	43	4113
2026-01-15 02:22:13.50	243.12	45.95	-35.5	-37.0	18.0	0.00e+00	0	57	0	2441084928	43	4052
2026-01-15 02:22:14.51	242.76	45.71	-35.5	-37.0	18.0	0.00e+00	0	57	0	2447376384	43	4064
2026-01-15 02:22:15.52	242.42	45.46	-35.6	-37.1	17.9	0.00e+00	0	57	0	2452619264	43	4117
2026-01-15 02:22:16.53	242.08	45.22	-35.6	-37.1	17.8	0.00e+00	0	57	0	2458910720	43	4133
2026-01-15 02:22:17.54	241.74	44.98	-35.6	-37.1	17.8	0.00e+00	0	57	0	2464153600	43	4135
2026-01-15 02:22:18.55	241.41	44.73	-35.6	-37.1	17.9	0.00e+00	0	57	0	2470445056	43	4112
2026-01-15 02:22:19.56	241.08	44.49	-35.5	-36.9	18.0	0.00e+00	0	57	0	2475687936	43	4045
2026-01-15 02:22:20.57	240.76	44.25	-35.5	-36.9	18.1	0.00e+00	0	57	0	2480930816	42	4270
2026-01-15 02:22:21.58	240.45	44.01	-35.5	-37.0	18.0	0.00e+00	0	58	0	2487222272	42	4298
2026-01-15 02:22:22.59	240.14	43.77	-35.6	-37.1	17.9	0.00e+00	0	57	0	2492465152	42	4353
2026-01-15 02:22:23.60	239.83	43.53	-35.6	-37.1	17.9	0.00e+00	0	58	0	2498756608	42	4350
2026-01-15 02:22:24.61	239.53	43.29	-35.4	-36.9	18.1	0.00e+00	0	57	0	2503999488	42	4263
2026-01-15 02:22:25.62	239.23	43.05	-35.4	-36.8	18.2	0.00e+00	0	57	0	2509242368	42	4223
2026-01-15 02:22:26.63	238.94	42.81	-35.4	-36.8	18.2	0.00e+00	0	57	0	2515533824	42	4204
2026-01-15 02:22:27.64	238.65	42.57	-35.4	-36.9	18.1	0.00e+00	0	57	0	2520776704	42	4246
2026-01-15 02:22:28.65	238.37	42.34	-35.5	-36.9	18.0	0.00e+00	0	57	0	2527068160	42	4281
2026-01-15 02:22:29.66	238.09	42.10	-35.5	-37.0	17.9	0.00e+00	0	57	0	2532311040	42	4322
2026-01-15 02:22:30.67	237.81	41.87	-35.6	-37.1	17.9	0.00e+00	0	57	0	2537553920	42	4359
2026-01-15 02:22:31.69	237.54	41.63	-35.6	-37.1	17.8	0.00e+00	0	57	0	2543845376	42	4365
2026-01-15 02:22:32.70	237.27	41.40	-35.6	-37.1	17.8	0.00e+00	0	57	0	2549088256	42	4386
2026-01-15 02:22:33.71	237.00	41.16	-35.7	-37.2	17.7	0.00e+00	0	57	0	2555379712	42	4423
2026-01-15 02:22:34.72	236.74	40.93	-35.7	-37.3	17.7	0.00e+00	0	57	0	2560622592	42	4453
2026-01-15 02:22:35.73	236.49	40.70	-35.9	-37.4	17.5	0.00e+00	0	57	0	2566914048	42	4529
2026-01-15 02:22:36.73	236.24	40.47	-35.8	-37.3	17.6	0.00e+00	0	58	0	2572156928	42	4485
2026-01-15 02:22:37.75	235.98	40.24	-35.7	-37.2	17.7	0.00e+00	0	57	0	2578448384	42	4423
2026-01-15 02:22:38.76	235.74	40.01	-35.6	-37.1	17.8	0.00e+00	0	57	0	2583691264	42	4369
2026-01-15 02:22:39.76	235.50	39.78	-35.4	-36.9	18.0	0.00e+00	0	57	0	2588934144	42	4271
2026-01-15 02:22:40.77	235.26	39.56	-35.4	-36.9	18.0	0.00e+00	0	57	0	2595225600	42	4271
2026-01-15 02:22:41.78	235.02	39.33	-35.4	-36.9	18.0	0.00e+00	0	57	0	2600468480	42	4250
2026-01-15 02:22:42.78	234.79	39.11	-35.4	-36.9	18.0	0.00e+00	0	57	0	2605711360	42	4273
2026-01-15 02:22:43.79	234.56	38.88	-35.4	-36.9	18.0	0.00e+00	0	57	0	2612002816	42	4256
2026-01-15 02:22:44.80	234.34	38.66	-35.4	-36.9	18.0	0.00e+00	0	57	0	2617245696	42	4262
2026-01-15 02:22:45.81	234.12	38.44	-35.5	-36.9	17.9	0.00e+00	0	58	0	2623537152	42	4287
2026-01-15 02:22:46.82	233.90	38.21	-35.5	-37.0	17.9	0.00e+00	0	58	0	2628780032	42	4314
2026-01-15 02:22:47.83	233.68	37.99	-35.5	-37.0	17.9	0.00e+00	0	57	0	2634022912	42	4296
2026-01-15 02:22:48.84	233.47	37.77	-35.4	-36.9	17.9	0.00e+00	0	57	0	2640314368	42	4279
2026-01-15 02:22:49.85	233.25	37.56	-35.3	-36.8	18.0	0.00e+00	0	58	0	2645557248	42	4214
2026-01-15 02:22:50.86	233.05	37.34	-35.2	-36.7	18.2	0.00e+00	0	57	0	2651848704	42	4162
2026-01-15 02:22:51.87	232.84	37.12	-35.2	-36.6	18.2	0.00e+00	0	58	0	2657091584	42	4138
2026-01-15 02:22:52.88	232.64	36.91	-35.2	-36.6	18.2	0.00e+00	0	57	0	2663383040	42	4132
2026-01-15 02:22:53.89	232.44	36.69	-35.3	-36.7	18.1	0.00e+00	0	57	0	2668625920	42	4183
2026-01-15 02:22:54.90	232.24	36.48	-35.4	-36.9	18.0	0.00e+00	0	58	0	2674917376	42	4257
2026-01-15 02:22:55.91	232.05	36.27	-35.4	-36.9	17.9	0.00e+00	0	57	0	2680160256	42	4276
2026-01-15 02:22:56.92	231.85	36.05	-35.4	-36.9	17.9	0.00e+00	0	58	0	2685403136	42	4291
2026-01-15 02:22:57.92	231.67	35.85	-35.4	-36.9	17.9	0.00e+00	0	57	0	2691694592	42	4272
2026-01-15 02:22:58.93	231.48	35.64	-35.4	-36.9	18.0	0.00e+00	0	57	0	2696937472	42	4246
2026-01-15 02:22:59.94	231.29	35.43	-35.4	-36.8	18.0	0.00e+00	0	58	0	2702180352	42	4232
2026-01-15 02:23:00.95	231.11	35.22	-35.4	-36.8	18.0	0.00e+00	0	58	0	2708471808	42	4235
2026-01-15 02:23:01.96	230.93	35.01	-35.4	-36.9	18.0	0.00e+00	0	58	0	2713714688	42	4246
2026-01-15 02:23:02.97	230.75	34.81	-35.4	-36.8	18.0	0.00e+00	0	58	0	2720006144	42	4242
2026-01-15 02:23:03.98	230.58	34.60	-35.3	-36.8	18.0	0.00e+00	0	57	0	2725249024	42	4216
2026-01-15 02:23:04.98	230.41	34.40	-35.3	-36.7	18.1	0.00e+00	0	57	0	2730491904	42	4187
2026-01-15 02:23:05.99	230.23	34.20	-35.2	-36.7	18.2	0.00e+00	0	58	0	2736783360	42	4149
2026-01-15 02:23:07.00	230.07	34.00	-35.2	-36.7	18.2	0.00e+00	0	57	0	2742026240	42	4148
2026-01-15 02:23:08.00	229.90	33.80	-35.3	-36.7	18.1	0.00e+00	0	58	0	2748317696	42	4172
2026-01-15 02:23:09.01	229.74	33.60	-35.3	-36.8	18.1	0.00e+00	0	57	0	2753560576	42	4204
2026-01-15 02:23:10.02	229.57	33.40	-35.4	-36.9	17.9	0.00e+00	0	57	0	2759852032	42	4260
2026-01-15 02:23:11.03	229.41	33.20	-35.5	-37.0	17.9	0.00e+00	0	57	0	2765094912	42	4319
2026-01-15 02:23:12.04	229.25	33.01	-35.5	-37.0	17.8	0.00e+00	0	57	0	2770337792	42	4330
2026-01-15 02:23:13.04	229.10	32.81	-35.6	-37.1	17.8	0.00e+00	0	57	0	2776629248	42	4348
2026-01-15 02:23:14.05	228.94	32.62	-35.6	-37.1	17.8	0.00e+00	0	57	0	2781872128	42	4347
2026-01-15 02:23:15.06	228.79	32.43	-35.5	-37.0	17.8	0.00e+00	0	57	0	2788163584	42	4322
2026-01-15 02:23:16.07	228.64	32.23	-35.5	-37.0	17.8	0.00e+00	0	57	0	2793406464	42	4327
2026-01-15 02:23:17.08	228.49	32.04	-35.5	-37.0	17.9	0.00e+00	0	57	0	2798649344	42	4305
2026-01-15 02:23:18.09	228.34	31.85	-35.5	-36.9	17.9	0.00e+00	0	58	0	2804940800	42	4283
2026-01-15 02:23:19.10	228.19	31.66	-35.4	-36.9	17.9	0.00e+00	0	57	0	2810183680	42	4271
2026-01-15 02:23:20.11	228.05	31.48	-35.5	-37.0	17.9	0.00e+00	0	58	0	2816475136	42	4298
2026-01-15 02:23:21.12	227.91	31.29	-35.5	-37.0	17.9	0.00e+00	0	57	0	2821718016	42	4322
2026-01-15 02:23:22.13	227.77	31.10	-35.6	-37.1	17.7	0.00e+00	0	57	0	2826960896	42	4372
2026-01-15 02:23:23.13	227.63	30.92	-35.7	-37.2	17.6	0.00e+00	0	57	0	2833252352	42	4419
2026-01-15 02:23:24.14	227.49	30.73	-35.7	-37.3	17.6	0.00e+00	0	58	0	2838495232	42	4446
2026-01-15 02:23:25.15	227.35	30.55	-35.8	-37.4	17.5	0.00e+00	0	58	0	2844786688	42	4494
2026-01-15 02:23:26.16	227.22	30.37	-35.8	-37.3	17.5	0.00e+00	0	58	0	2850029568	42	4480
2026-01-15 02:23:27.17	227.09	30.19	-35.8	-37.4	17.4	0.00e+00	0	57	0	2856321024	42	4515
2026-01-15 02:23:28.18	226.95	30.01	-35.9	-37.5	17.4	0.00e+00	0	57	0	2861563904	42	4558
2026-01-15 02:23:29.19	226.82	29.83	-35.9	-37.5	17.4	0.00e+00	0	57	0	2866806784	42	4560
2026-01-15 02:23:30.19	226.70	29.65	-35.9	-37.5	17.3	0.00e+00	0	57	0	2873098240	42	4568
2026-01-15 02:23:31.20	226.57	29.47	-35.9	-37.5	17.3	0.00e+00	0	57	0	2878341120	42	4576
2026-01-15 02:23:32.21	226.44	29.30	-36.0	-37.5	17.3	0.00e+00	0	57	0	2884632576	42	4585
2026-01-15 02:23:33.22	226.32	29.12	-36.0	-37.5	17.3	0.00e+00	0	58	0	2889875456	42	4585
2026-01-15 02:23:34.22	226.20	28.95	-36.0	-37.5	17.3	0.00e+00	0	57	0	2895118336	42	4597
2026-01-15 02:23:35.23	226.07	28.77	-36.0	-37.5	17.3	0.00e+00	0	57	0	2901409792	42	4587
2026-01-15 02:23:36.24	225.95	28.60	-36.0	-37.5	17.3	0.00e+00	0	58	0	2906652672	42	4592
2026-01-15 02:23:37.24	225.84	28.43	-36.0	-37.5	17.3	0.00e+00	0	57	0	2912944128	42	4597
2026-01-15 02:23:38.25	225.72	28.26	-36.0	-37.6	17.3	0.00e+00	0	57	0	2918187008	42	4604
2026-01-15 02:23:39.26	225.60	28.09	-36.0	-37.5	17.3	0.00e+00	0	57	0	2923429888	42	4587
2026-01-15 02:23:40.28	225.49	27.92	-36.0	-37.5	17.3	0.00e+00	0	57	0	2929721344	42	4595
2026-01-15 02:23:41.29	225.37	27.75	-36.0	-37.5	17.3	0.00e+00	0	57	0	2934964224	42	4588
2026-01-15 02:23:42.29	225.26	27.58	-36.0	-37.5	17.3	0.00e+00	0	57	0	2941255680	42	4581
2026-01-15 02:23:43.30	225.15	27.42	-36.0	-37.5	17.3	0.00e+00	0	57	0	2946498560	42	4592
2026-01-15 02:23:44.31	225.04	27.25	-36.0	-37.5	17.3	0.00e+00	0	57	0	2952790016	42	4587
2026-01-15 02:23:45.32	224.93	27.09	-36.0	-37.5	17.3	0.00e+00	0	57	0	2958032896	42	4590
2026-01-15 02:23:46.32	224.82	26.92	-36.0	-37.5	17.3	0.00e+00	0	57	0	2963275776	42	4574
2026-01-15 02:23:47.33	224.71	26.76	-35.9	-37.5	17.3	0.00e+00	0	57	0	2969567232	42	4572
2026-01-15 02:23:48.34	224.61	26.60	-35.9	-37.5	17.3	0.00e+00	0	57	0	2974810112	42	4561
2026-01-15 02:23:49.35	224.50	26.44	-35.9	-37.5	17.3	0.00e+00	0	57	0	2981101568	42	4562
2026-01-15 02:23:50.36	224.40	26.28	-36.0	-37.5	17.3	0.00e+00	0	57	0	2986344448	42	4580
2026-01-15 02:23:51.37	224.30	26.12	-36.0	-37.5	17.3	0.00e+00	0	57	0	2991587328	42	4596
2026-01-15 02:23:52.38	224.20	25.96	-36.0	-37.5	17.3	0.00e+00	0	57	0	2997878784	42	4593
2026-01-15 02:23:53.39	224.10	25.80	-36.0	-37.6	17.2	0.00e+00	0	57	0	3003121664	42	4621
2026-01-15 02:23:54.40	224.00	25.64	-36.0	-37.6	17.2	0.00e+00	0	58	0	3009413120	42	4626
2026-01-15 02:23:55.41	223.90	25.49	-36.0	-37.6	17.2	0.00e+00	0	58	0	3014656000	42	4628
2026-01-15 02:23:56.42	223.80	25.33	-36.0	-37.6	17.2	0.00e+00	0	57	0	3019898880	42	4636
2026-01-15 02:23:57.43	223.70	25.18	-36.1	-37.7	17.1	0.00e+00	0	58	0	3026190336	42	4661
2026-01-15 02:23:58.44	223.61	25.02	-36.1	-37.7	17.2	0.00e+00	0	58	0	3031433216	42	4652
2026-01-15 02:23:59.45	223.51	24.87	-36.1	-37.7	17.1	0.00e+00	0	57	0	3037724672	42	4666
2026-01-15 02:24:00.46	223.42	24.72	-36.1	-37.7	17.1	0.00e+00	0	57	0	3042967552	42	4688
2026-01-15 02:24:01.46	223.33	24.57	-36.1	-37.7	17.1	0.00e+00	0	57	0	3049259008	42	4693
2026-01-15 02:24:02.47	223.24	24.42	-36.1	-37.7	17.1	0.00e+00	0	57	0	3054501888	42	4692
2026-01-15 02:24:03.48	223.14	24.27	-36.1	-37.8	17.1	0.00e+00	0	57	0	3059744768	42	4712
2026-01-15 02:24:04.49	223.05	24.12	-36.1	-37.8	17.0	0.00e+00	0	57	0	3066036224	42	4718
2026-01-15 02:24:05.50	222.96	23.97	-36.1	-37.8	17.1	0.00e+00	0	57	0	3071279104	42	4706
2026-01-15 02:24:06.51	222.88	23.82	-36.1	-37.8	17.0	0.00e+00	0	57	0	3077570560	42	4708
2026-01-15 02:24:07.51	222.79	23.68	-36.1	-37.7	17.1	0.00e+00	0	58	0	3082813440	42	4690
2026-01-15 02:24:08.52	222.70	23.53	-36.1	-37.7	17.1	0.00e+00	0	58	0	3088056320	42	4670
2026-01-15 02:24:09.53	222.62	23.39	-36.1	-37.7	17.1	0.00e+00	0	58	0	3094347776	42	4670
2026-01-15 02:24:10.54	222.53	23.24	-36.1	-37.7	17.1	0.00e+00	0	57	0	3099590656	42	4678
2026-01-15 02:24:11.55	222.45	23.10	-36.0	-37.6	17.1	0.00e+00	0	57	0	3105882112	42	4635
2026-01-15 02:24:12.56	222.36	22.95	-36.0	-37.6	17.2	0.00e+00	0	57	0	3111124992	42	4633
2026-01-15 02:24:13.57	222.28	22.81	-36.1	-37.6	17.1	0.00e+00	0	58	0	3116367872	42	4644
2026-01-15 02:24:14.58	222.20	22.67	-36.1	-37.6	17.1	0.00e+00	0	58	0	3122659328	42	4646
2026-01-15 02:24:15.59	222.12	22.53	-36.1	-37.7	17.1	0.00e+00	0	58	0	3127902208	42	4668
2026-01-15 02:24:16.60	222.04	22.39	-36.1	-37.7	17.1	0.00e+00	0	57	0	3134193664	42	4661
2026-01-15 02:24:17.61	221.96	22.25	-36.1	-37.7	17.1	0.00e+00	0	58	0	3139436544	42	4675
2026-01-15 02:24:18.62	221.88	22.11	-36.2	-37.8	17.0	0.00e+00	0	58	0	3145728000	42	4711
2026-01-15 02:24:19.63	221.80	21.97	-36.2	-37.8	17.0	0.00e+00	0	58	0	3150970880	42	4709
2026-01-15 02:24:20.64	221.72	21.83	-36.2	-37.8	17.0	0.00e+00	0	57	0	3156213760	42	4721
2026-01-15 02:24:21.65	221.65	21.70	-36.2	-37.8	17.0	0.00e+00	0	57	0	3162505216	42	4747
2026-01-15 02:24:22.66	221.57	21.56	-36.3	-37.9	16.9	0.00e+00	0	58	0	3167748096	43	4495
2026-01-15 02:24:23.67	221.50	21.43	-36.3	-37.9	16.9	0.00e+00	0	58	0	3174039552	43	4516
2026-01-15 02:24:24.68	221.42	21.29	-36.3	-37.9	16.9	0.00e+00	0	58	0	3179282432	43	4518
2026-01-15 02:24:25.69	221.35	21.16	-36.3	-37.9	16.8	0.00e+00	0	57	0	3184525312	43	4542
2026-01-15 02:24:26.70	221.27	21.02	-36.4	-38.0	16.8	0.00e+00	0	57	0	3190816768	43	4559
2026-01-15 02:24:27.71	221.20	20.89	-36.4	-38.0	16.8	0.00e+00	0	58	0	3196059648	43	4585
2026-01-15 02:24:28.72	221.13	20.76	-36.5	-38.1	16.7	0.00e+00	0	58	0	3202351104	43	4620
2026-01-15 02:24:29.73	221.06	20.63	-36.5	-38.1	16.6	0.00e+00	0	57	0	3207593984	43	4638
2026-01-15 02:24:30.74	220.99	20.50	-36.6	-38.2	16.6	0.00e+00	0	57	0	3212836864	43	4686
2026-01-15 02:24:31.75	220.92	20.37	-36.6	-38.3	16.5	0.00e+00	0	58	0	3219128320	43	4730
2026-01-15 02:24:32.76	220.85	20.24	-36.7	-38.3	16.4	0.00e+00	0	57	0	3224371200	43	4758
2026-01-15 02:24:33.77	220.78	20.11	-36.9	-38.6	16.3	0.00e+00	0	57	0	3230662656	44	4631
2026-01-15 02:24:34.78	220.71	19.98	-37.0	-38.7	16.3	0.00e+00	0	58	0	3235905536	44	4667
2026-01-15 02:24:35.79	220.64	19.85	-37.0	-38.7	16.2	0.00e+00	0	57	0	3242196992	44	4701
2026-01-15 02:24:36.80	220.57	19.72	-37.1	-38.8	16.1	0.00e+00	0	58	0	3247439872	44	4733
2026-01-15 02:24:37.81	220.51	19.60	-37.1	-38.9	16.1	0.00e+00	0	58	0	3253731328	44	4770
2026-01-15 02:24:38.81	220.44	19.47	-37.1	-38.9	16.0	0.00e+00	0	58	0	3258974208	44	4790
2026-01-15 02:24:39.82	220.38	19.35	-37.2	-39.0	15.9	0.00e+00	0	57	0	3264217088	44	4831
2026-01-15 02:24:40.83	220.31	19.22	-37.2	-39.0	15.9	0.00e+00	0	57	0	3270508544	44	4824
2026-01-15 02:24:41.84	220.25	19.10	-37.2	-39.0	15.9	0.00e+00	0	58	0	3275751424	45	4558
2026-01-15 02:24:42.85	220.18	18.98	-37.2	-39.0	15.9	0.00e+00	0	57	0	3282042880	45	4579
2026-01-15 02:24:43.86	220.12	18.85	-37.2	-39.0	15.9	0.00e+00	0	58	0	3287285760	45	4575
2026-01-15 02:24:44.87	220.06	18.73	-37.2	-39.0	15.9	0.00e+00	0	58	0	3292528640	45	4575
2026-01-15 02:24:45.88	219.99	18.61	-37.2	-39.0	15.9	0.00e+00	0	57	0	3298820096	45	4572
2026-01-15 02:24:46.88	219.93	18.49	-37.2	-39.0	15.9	0.00e+00	0	57	0	3304062976	45	4573
2026-01-15 02:24:47.89	219.87	18.37	-37.2	-39.0	15.9	0.00e+00	0	58	0	3309305856	45	4561
2026-01-15 02:24:48.90	219.81	18.25	-37.2	-39.0	15.9	0.00e+00	0	58	0	3315597312	45	4556
2026-01-15 02:24:49.91	219.75	18.13	-37.2	-39.0	15.9	0.00e+00	0	57	0	3320840192	45	4575
2026-01-15 02:24:50.92	219.69	18.01	-37.2	-39.0	15.9	0.00e+00	0	57	0	3327131648	45	4566
2026-01-15 02:24:51.93	219.63	17.89	-37.2	-39.0	15.9	0.00e+00	0	58	0	3332374528	45	4563
2026-01-15 02:24:52.94	219.57	17.77	-37.3	-39.0	15.8	0.00e+00	0	58	0	3338665984	45	4595
2026-01-15 02:24:53.95	219.51	17.65	-37.3	-39.1	15.8	0.00e+00	0	57	0	3343908864	45	4606
2026-01-15 02:24:54.96	219.46	17.54	-37.3	-39.1	15.7	0.00e+00	0	58	0	3350200320	45	4619
2026-01-15 02:24:55.97	219.40	17.42	-37.4	-39.2	15.7	0.00e+00	0	58	0	3355443200	45	4659
2026-01-15 02:24:56.98	219.34	17.30	-37.4	-39.2	15.6	0.00e+00	0	58	0	3360686080	45	4691
2026-01-15 02:24:57.98	219.29	17.19	-37.5	-39.3	15.6	0.00e+00	0	58	0	3366977536	45	4726
2026-01-15 02:24:58.99	219.23	17.08	-37.5	-39.4	15.5	0.00e+00	0	58	0	3372220416	45	4762
2026-01-15 02:25:00.00	219.17	16.96	-37.6	-39.4	15.4	0.00e+00	0	58	0	3378511872	45	4808
2026-01-15 02:25:01.01	219.12	16.85	-37.6	-39.5	15.4	0.00e+00	0	57	0	3383754752	45	4834
2026-01-15 02:25:02.02	219.06	16.73	-37.7	-39.6	15.3	0.00e+00	0	58	0	3388997632	45	4872
2026-01-15 02:25:03.03	219.01	16.62	-37.7	-39.6	15.2	0.00e+00	0	58	0	3395289088	46	4651
2026-01-15 02:25:04.04	218.96	16.51	-37.8	-39.7	15.2	0.00e+00	0	58	0	3400531968	46	4697
2026-01-15 02:25:05.05	218.90	16.40	-37.8	-39.8	15.1	0.00e+00	0	57	0	3406823424	46	4713
2026-01-15 02:25:06.06	218.85	16.29	-37.8	-39.8	15.1	0.00e+00	0	58	0	3412066304	46	4735
2026-01-15 02:25:07.07	218.80	16.17	-37.9	-39.8	15.1	0.00e+00	0	57	0	3417309184	46	4747
2026-01-15 02:25:08.08	218.74	16.06	-37.9	-39.9	14.9	0.00e+00	0	58	0	3423600640	46	4782
2026-01-15 02:25:09.09	218.69	15.95	-37.9	-39.9	14.9	1.10e-06	0	58	0	3428843520	46	4802
2026-01-15 02:25:10.10	218.64	15.84	-38.0	-40.0	14.9	0.00e+00	0	58	0	3435134976	46	4820
2026-01-15 02:25:11.11	218.59	15.74	-38.0	-40.0	14.8	0.00e+00	0	58	0	3440377856	46	4858
2026-01-15 02:25:12.12	218.54	15.63	-38.0	-40.0	14.8	0.00e+00	0	58	0	3446669312	46	4844
2026-01-15 02:25:13.13	218.49	15.52	-38.0	-40.0	14.8	2.20e-06	0	57	0	3451912192	46	4859
2026-01-15 02:25:14.13	218.44	15.41	-38.0	-40.0	14.8	0.00e+00	0	57	0	3457155072	46	4849
2026-01-15 02:25:15.14	218.39	15.30	-38.1	-40.1	14.8	0.00e+00	0	58	0	3463446528	46	4878
2026-01-15 02:25:16.15	218.34	15.20	-38.0	-40.0	14.8	1.10e-06	0	58	0	3468689408	46	4856
2026-01-15 02:25:17.16	218.29	15.09	-38.0	-40.0	14.8	1.10e-06	0	58	0	3474980864	46	4865
2026-01-15 02:25:18.17	218.24	14.99	-38.0	-40.0	14.8	0.00e+00	0	58	0	3480223744	46	4850
2026-01-15 02:25:19.18	218.20	14.88	-38.0	-40.0	14.8	0.00e+00	0	58	0	3485466624	46	4863
2026-01-15 02:25:20.19	218.15	14.78	-38.0	-40.0	14.8	1.10e-06	0	58	0	3491758080	46	4865
2026-01-15 02:25:21.20	218.10	14.67	-38.1	-40.1	14.7	0.00e+00	0	58	0	3497000960	46	4881
2026-01-15 02:25:22.21	218.05	14.57	-38.1	-40.1	14.7	0.00e+00	0	58	0	3503292416	46	4887
