passes_logs/2026/01/15/R2.0S_Moscow/R2.0S_Moscow__20260115_215617_NOAA_20_JPSS-1_rec.log

#Pass ID: 20260115_215617_NOAA 20 (JPSS-1)
#Satellite: NOAA 20 (JPSS-1)
#Configuration: NOAA 20
#almurnet v.1.7.20251203
#Start time: 2026-01-15 21:56:16

#Version: 2.2.20231116
#Station: R2.0S_Moscow
#Location: 37.707566 lon 55.798166 lat
#TLE: 1 43013U 17073A   26015.47098083  .00000029  00000+0  34851-4 0  9997
#TLE: 2 43013  98.7636 316.4053 0001479  38.6686 321.4595 14.19536048422808

#Time	Az	El	Level	Level2	SNR	BER	BlckErr	Temp	State	Recorded	gain1	gain2
2026-01-15 21:56:16.62	27.32	1.97	-42.3	-57.4	3.8	1.49e+00	0	50	0	0	56	20078
2026-01-15 21:56:17.63	27.40	2.02	-42.2	-57.2	3.8	1.49e+00	0	51	104	0	55	20823
2026-01-15 21:56:18.64	27.48	2.08	-42.1	-57.2	3.8	1.49e+00	0	51	104	0	55	20900
2026-01-15 21:56:19.66	27.57	2.13	-42.2	-57.2	3.8	1.49e+00	0	51	104	0	55	20899
2026-01-15 21:56:20.67	27.65	2.18	-42.1	-57.2	3.8	1.49e+00	0	51	104	0	55	20877
2026-01-15 21:56:21.68	27.73	2.23	-42.1	-57.2	3.8	1.49e+00	0	51	104	0	55	20888
2026-01-15 21:56:22.69	27.81	2.28	-42.1	-57.2	3.8	1.49e+00	0	51	104	0	55	20870
2026-01-15 21:56:23.70	27.90	2.34	-42.1	-57.2	3.8	1.49e+00	0	51	104	0	55	20866
2026-01-15 21:56:24.71	27.98	2.39	-42.2	-57.2	3.8	1.49e+00	0	51	104	0	55	20916
2026-01-15 21:56:25.73	28.07	2.44	-42.1	-57.2	3.8	1.49e+00	0	51	104	0	55	20918
2026-01-15 21:56:26.74	28.15	2.49	-42.1	-57.2	3.8	1.49e+00	0	52	104	0	55	20885
2026-01-15 21:56:27.75	28.24	2.55	-42.1	-57.2	3.8	1.49e+00	0	52	104	0	55	20865
2026-01-15 21:56:28.76	28.32	2.60	-42.1	-57.2	3.8	1.49e+00	0	52	104	0	55	20886
2026-01-15 21:56:29.77	28.41	2.65	-42.1	-57.2	3.8	1.49e+00	0	52	104	0	55	20873
2026-01-15 21:56:30.78	28.49	2.70	-42.1	-57.2	3.8	1.49e+00	0	52	104	0	55	20890
2026-01-15 21:56:31.79	28.58	2.75	-42.1	-57.2	3.8	1.49e+00	0	52	104	0	55	20861
2026-01-15 21:56:32.80	28.67	2.81	-42.1	-57.2	3.8	1.49e+00	0	52	104	0	55	20922
2026-01-15 21:56:33.81	28.75	2.86	-42.1	-57.2	3.8	1.49e+00	0	52	104	0	55	20910
2026-01-15 21:56:34.82	28.84	2.91	-42.1	-57.2	3.8	1.49e+00	0	52	104	0	55	20861
2026-01-15 21:56:35.83	28.93	2.96	-42.2	-57.2	3.8	1.49e+00	0	52	104	0	55	20888
2026-01-15 21:56:36.84	29.01	3.02	-42.2	-57.2	3.8	1.49e+00	0	52	104	0	55	20852
2026-01-15 21:56:37.86	29.10	3.07	-42.2	-57.2	3.8	1.49e+00	0	52	104	0	55	20856
2026-01-15 21:56:38.87	29.19	3.12	-42.1	-57.2	3.8	1.49e+00	0	52	104	0	55	20854
2026-01-15 21:56:39.88	29.28	3.17	-42.1	-57.2	3.8	1.49e+00	0	52	104	0	55	20855
2026-01-15 21:56:40.89	29.37	3.23	-42.1	-57.2	3.8	1.49e+00	0	53	104	0	55	20920
2026-01-15 21:56:41.90	29.46	3.28	-42.2	-57.2	3.8	1.49e+00	0	53	104	0	55	20858
2026-01-15 21:56:42.91	29.55	3.33	-42.1	-57.2	3.8	1.49e+00	0	53	104	0	55	20890
2026-01-15 21:56:43.92	29.63	3.39	-42.1	-57.2	3.8	1.49e+00	0	53	104	0	55	20899
2026-01-15 21:56:44.93	29.72	3.44	-42.1	-57.2	3.8	1.49e+00	0	53	104	0	55	20858
2026-01-15 21:56:45.94	29.81	3.49	-42.1	-57.2	3.8	1.49e+00	0	53	104	0	55	20832
2026-01-15 21:56:46.95	29.91	3.55	-42.1	-57.2	3.8	1.49e+00	0	53	104	0	55	20893
2026-01-15 21:56:47.96	30.00	3.60	-42.1	-57.2	3.8	1.49e+00	0	53	104	0	55	20914
2026-01-15 21:56:48.98	30.09	3.65	-42.1	-57.2	3.8	1.49e+00	0	53	104	0	55	20920
2026-01-15 21:56:49.99	30.18	3.71	-42.1	-57.2	3.8	1.49e+00	0	53	104	0	55	20870
2026-01-15 21:56:51.00	30.27	3.76	-42.1	-57.2	3.8	1.49e+00	0	53	104	0	55	20885
2026-01-15 21:56:52.01	30.36	3.81	-42.1	-57.2	3.8	1.49e+00	0	53	104	0	55	20848
2026-01-15 21:56:53.02	30.46	3.87	-42.1	-57.2	3.8	1.49e+00	0	53	104	0	55	20873
2026-01-15 21:56:54.03	30.55	3.92	-42.1	-57.2	3.8	1.49e+00	0	53	104	0	55	20831
2026-01-15 21:56:55.04	30.64	3.97	-42.1	-57.2	3.8	1.49e+00	0	53	104	0	55	20898
2026-01-15 21:56:56.06	30.74	4.03	-42.1	-57.2	3.8	1.49e+00	0	53	104	0	55	20891
2026-01-15 21:56:57.07	30.83	4.08	-42.1	-57.2	3.8	1.49e+00	0	54	104	0	55	20822
2026-01-15 21:56:58.08	30.92	4.13	-42.1	-57.2	3.8	1.49e+00	0	54	104	0	55	20856
2026-01-15 21:56:59.09	31.02	4.19	-42.1	-57.2	3.8	1.49e+00	0	54	104	0	55	20875
2026-01-15 21:57:00.10	31.11	4.24	-42.1	-57.2	3.8	1.49e+00	0	54	104	0	55	20859
2026-01-15 21:57:01.11	31.21	4.29	-42.1	-57.2	3.8	1.49e+00	0	54	104	0	55	20887
2026-01-15 21:57:02.12	31.30	4.35	-42.1	-57.2	3.8	1.49e+00	0	54	104	0	55	20864
2026-01-15 21:57:03.13	31.40	4.40	-42.1	-57.2	3.8	1.49e+00	0	54	104	0	55	20833
2026-01-15 21:57:04.14	31.49	4.46	-42.1	-57.2	3.8	1.49e+00	0	54	104	0	55	20867
2026-01-15 21:57:05.15	31.59	4.51	-42.1	-57.2	3.8	1.49e+00	0	54	104	0	55	20859
2026-01-15 21:57:06.17	31.69	4.56	-42.1	-57.2	3.8	1.49e+00	0	54	104	0	55	20849
2026-01-15 21:57:07.18	31.78	4.62	-42.1	-57.2	3.8	1.49e+00	0	54	104	0	55	20900
2026-01-15 21:57:08.19	31.88	4.67	-42.1	-57.2	3.8	1.49e+00	0	54	104	0	55	20881
2026-01-15 21:57:09.20	31.98	4.73	-42.1	-57.2	3.8	1.49e+00	0	54	104	0	55	20852
2026-01-15 21:57:10.21	32.08	4.78	-42.1	-57.2	3.8	1.49e+00	0	54	104	0	55	20906
2026-01-15 21:57:11.22	32.18	4.83	-42.1	-57.2	3.8	1.49e+00	0	54	104	0	55	20816
2026-01-15 21:57:12.23	32.27	4.89	-42.2	-57.2	3.8	1.49e+00	0	54	104	0	55	20903
2026-01-15 21:57:13.24	32.37	4.94	-42.2	-57.2	3.8	1.49e+00	0	54	104	0	55	20909
2026-01-15 21:57:14.25	32.47	5.00	-42.2	-57.2	3.8	1.49e+00	0	54	104	0	55	20849
2026-01-15 21:57:15.27	32.57	5.05	-42.2	-57.2	3.8	1.49e+00	0	54	104	0	55	20872
2026-01-15 21:57:16.28	32.67	5.11	-42.1	-57.2	3.8	1.49e+00	0	54	104	0	55	20889
2026-01-15 21:57:17.29	32.77	5.16	-42.2	-57.2	3.8	1.49e+00	0	55	104	0	55	20882
2026-01-15 21:57:18.30	32.87	5.21	-42.1	-57.2	3.8	1.49e+00	0	55	104	0	55	20841
2026-01-15 21:57:19.31	32.98	5.27	-42.1	-57.2	3.8	1.49e+00	0	55	104	0	55	20852
2026-01-15 21:57:20.32	33.08	5.32	-42.1	-57.2	3.8	1.49e+00	0	55	104	0	55	20836
2026-01-15 21:57:21.33	33.18	5.38	-42.1	-57.2	3.8	1.49e+00	0	55	104	0	55	20843
2026-01-15 21:57:22.34	33.28	5.43	-42.1	-57.2	3.8	1.49e+00	0	55	104	0	55	20852
2026-01-15 21:57:23.35	33.38	5.49	-42.2	-57.2	3.8	1.49e+00	0	55	104	0	55	20880
2026-01-15 21:57:24.36	33.49	5.54	-42.2	-57.2	3.8	1.49e+00	0	55	104	0	55	20901
2026-01-15 21:57:25.38	33.59	5.60	-42.2	-57.2	3.8	1.49e+00	0	55	104	0	55	20890
2026-01-15 21:57:26.39	33.70	5.65	-42.1	-57.2	3.8	1.49e+00	0	55	104	0	55	20917
2026-01-15 21:57:27.40	33.80	5.71	-42.1	-57.2	3.8	1.49e+00	0	55	104	0	55	20870
2026-01-15 21:57:28.41	33.90	5.76	-42.1	-57.2	3.8	1.49e+00	0	55	104	0	55	20861
2026-01-15 21:57:29.42	34.01	5.82	-42.1	-57.2	3.8	1.49e+00	0	55	104	0	55	20841
2026-01-15 21:57:30.43	34.11	5.87	-42.1	-57.2	3.8	1.49e+00	0	55	104	0	55	20971
2026-01-15 21:57:31.44	34.22	5.93	-42.1	-57.2	3.8	1.49e+00	0	55	104	0	55	20869
2026-01-15 21:57:32.45	34.33	5.98	-42.1	-57.2	3.8	1.49e+00	0	55	104	0	55	20832
2026-01-15 21:57:33.46	34.43	6.04	-42.1	-57.2	3.8	1.49e+00	0	55	104	0	55	20920
2026-01-15 21:57:34.47	34.54	6.09	-42.1	-57.2	3.8	1.49e+00	0	55	104	0	55	20894
2026-01-15 21:57:35.49	34.65	6.15	-42.1	-57.2	3.8	1.49e+00	0	55	104	0	55	20852
2026-01-15 21:57:36.50	34.75	6.20	-42.1	-57.2	3.8	1.49e+00	0	55	104	0	55	20905
2026-01-15 21:57:37.51	34.86	6.26	-42.1	-57.2	3.8	1.49e+00	0	55	104	0	55	20860
2026-01-15 21:57:38.52	34.97	6.31	-42.1	-57.2	3.8	1.49e+00	0	55	104	0	55	20902
2026-01-15 21:57:39.53	35.08	6.37	-42.1	-57.2	3.8	1.49e+00	0	56	104	0	55	20839
2026-01-15 21:57:40.54	35.19	6.42	-42.1	-57.2	3.8	1.49e+00	0	55	104	0	55	20866
2026-01-15 21:57:41.55	35.30	6.48	-42.1	-57.2	3.8	1.49e+00	0	55	104	0	55	20834
2026-01-15 21:57:42.56	35.41	6.53	-42.1	-57.2	3.8	1.49e+00	0	56	104	0	55	20879
2026-01-15 21:57:43.57	35.52	6.59	-42.1	-57.2	3.8	1.49e+00	0	56	104	0	55	20879
2026-01-15 21:57:44.58	35.63	6.65	-42.1	-57.2	3.8	1.49e+00	0	56	104	0	55	20870
2026-01-15 21:57:45.60	35.74	6.70	-42.1	-57.2	3.8	1.49e+00	0	56	104	0	55	20894
2026-01-15 21:57:46.61	35.85	6.76	-42.1	-57.2	3.8	1.49e+00	0	56	104	0	55	20923
2026-01-15 21:57:47.62	35.96	6.81	-42.1	-57.2	3.8	1.49e+00	0	56	104	0	55	20889
2026-01-15 21:57:48.63	36.08	6.87	-42.2	-57.1	3.8	1.49e+00	0	56	104	0	55	20743
2026-01-15 21:57:49.64	36.19	6.92	-42.1	-57.1	3.8	1.49e+00	0	56	104	0	55	20575
2026-01-15 21:57:50.65	36.30	6.98	-42.1	-57.1	3.8	1.49e+00	0	56	104	0	55	20733
2026-01-15 21:57:51.66	36.42	7.03	-42.1	-57.2	3.8	1.49e+00	0	56	104	0	55	20843
2026-01-15 21:57:52.67	36.53	7.09	-42.1	-57.2	3.8	1.49e+00	0	56	104	0	55	20801
2026-01-15 21:57:53.68	36.64	7.15	-42.1	-57.2	3.8	1.49e+00	0	56	104	0	55	20804
2026-01-15 21:57:54.69	36.76	7.20	-42.1	-57.2	3.8	1.49e+00	0	56	104	0	55	20836
2026-01-15 21:57:55.71	36.88	7.26	-42.1	-57.1	3.8	1.49e+00	0	56	104	0	55	20733
2026-01-15 21:57:56.72	36.99	7.31	-42.1	-57.1	3.8	1.49e+00	0	56	104	0	55	20587
2026-01-15 21:57:57.73	37.11	7.37	-42.1	-57.0	3.8	1.49e+00	0	56	104	0	55	20362
2026-01-15 21:57:58.74	37.22	7.43	-42.1	-57.0	3.8	1.49e+00	0	56	104	0	55	20400
2026-01-15 21:57:59.75	37.34	7.48	-42.1	-57.1	3.8	1.49e+00	0	56	104	0	55	20550
2026-01-15 21:58:00.76	37.46	7.54	-42.2	-57.1	3.8	1.49e+00	0	56	104	0	55	20582
2026-01-15 21:58:01.77	37.58	7.59	-42.1	-57.1	3.8	1.49e+00	0	56	104	0	55	20642
2026-01-15 21:58:02.78	37.69	7.65	-42.1	-56.8	3.8	1.49e+00	0	56	104	0	55	20007
2026-01-15 21:58:03.79	37.81	7.70	-42.0	-55.5	3.8	1.49e+00	0	56	104	0	55	17170
2026-01-15 21:58:04.80	37.93	7.76	-41.9	-53.2	4.3	1.41e+00	22	56	0	0	55	13148
2026-01-15 21:58:05.81	38.05	7.82	-41.7	-51.4	5.2	8.49e-01	0	57	0	1048576	55	10656
2026-01-15 21:58:06.82	38.17	7.87	-41.4	-49.4	6.6	3.99e-01	0	57	0	3145728	54	9021
2026-01-15 21:58:07.83	38.29	7.93	-41.2	-48.4	7.5	1.29e-01	0	56	0	5242880	54	8001
2026-01-15 21:58:08.84	38.41	7.98	-41.1	-47.9	7.9	7.61e-02	0	57	0	7340032	54	7598
2026-01-15 21:58:09.86	38.54	8.04	-41.2	-48.4	7.5	7.67e-02	0	57	0	9437184	54	8017
2026-01-15 21:58:10.87	38.66	8.10	-41.9	-49.5	6.8	1.30e-01	0	56	0	10485760	54	9127
2026-01-15 21:58:11.88	38.78	8.15	-41.5	-56.6	3.8	8.25e-01	0	57	104	12582912	54	20739
2026-01-15 21:58:12.88	38.90	8.21	-42.3	-49.8	6.9	1.11e+00	0	57	0	12582912	55	8899
2026-01-15 21:58:13.90	39.03	8.27	-42.7	-52.0	5.2	3.77e-01	0	57	0	14680064	55	11541
2026-01-15 21:58:14.91	39.15	8.32	-42.0	-50.0	6.6	5.03e-02	0	57	0	16777216	55	9105
2026-01-15 21:58:15.92	39.27	8.38	-41.9	-48.6	7.8	2.54e-01	0	57	0	17825792	55	7746
2026-01-15 21:58:16.93	39.40	8.43	-41.9	-48.5	8.0	6.60e-02	0	57	0	19922944	55	7635
2026-01-15 21:58:17.94	39.52	8.49	-41.9	-48.5	8.0	7.37e-02	0	57	0	22020096	55	7662
2026-01-15 21:58:18.95	39.65	8.55	-41.8	-48.3	8.1	6.81e-02	0	57	0	24117248	55	7534
2026-01-15 21:58:19.96	39.77	8.60	-41.9	-48.5	8.0	6.32e-02	0	57	0	26214400	55	7653
2026-01-15 21:58:20.97	39.90	8.66	-42.0	-48.5	8.0	6.22e-02	0	57	0	27262976	55	7710
2026-01-15 21:58:21.98	40.03	8.72	-42.0	-48.6	8.0	7.25e-02	0	57	0	29360128	55	7800
2026-01-15 21:58:22.99	40.16	8.77	-42.0	-48.4	8.2	5.75e-02	0	57	0	31457280	55	7569
2026-01-15 21:58:23.99	40.28	8.83	-42.0	-48.3	8.4	5.30e-02	0	57	0	33554432	55	7536
2026-01-15 21:58:25.00	40.41	8.88	-42.1	-48.2	8.6	4.41e-02	0	57	0	35651584	55	7395
2026-01-15 21:58:26.01	40.54	8.94	-42.1	-48.1	8.7	3.36e-02	0	57	0	36700160	55	7336
2026-01-15 21:58:27.02	40.67	9.00	-42.2	-48.1	8.8	3.19e-02	0	57	0	38797312	55	7320
2026-01-15 21:58:28.03	40.80	9.05	-42.2	-48.1	8.8	3.08e-02	0	57	0	40894464	55	7325
2026-01-15 21:58:29.04	40.93	9.11	-42.2	-48.1	8.8	3.16e-02	0	57	0	42991616	55	7342
2026-01-15 21:58:30.05	41.06	9.16	-42.3	-48.3	8.6	3.72e-02	0	57	0	45088768	55	7527
2026-01-15 21:58:31.06	41.19	9.22	-42.2	-48.0	8.9	3.21e-02	0	57	0	46137344	55	7279
2026-01-15 21:58:32.07	41.32	9.28	-42.2	-48.3	8.7	3.22e-02	0	57	0	48234496	55	7465
2026-01-15 21:58:33.08	41.45	9.33	-42.2	-48.2	8.7	3.45e-02	0	57	0	50331648	55	7397
2026-01-15 21:58:34.09	41.59	9.39	-42.2	-48.3	8.6	3.79e-02	0	57	0	52428800	55	7486
2026-01-15 21:58:35.10	41.72	9.45	-42.2	-48.4	8.4	4.21e-02	0	57	0	54525952	55	7614
2026-01-15 21:58:36.11	41.85	9.50	-42.2	-48.3	8.6	4.38e-02	0	57	0	55574528	55	7495
2026-01-15 21:58:37.12	41.99	9.56	-42.3	-48.3	8.7	3.64e-02	0	57	0	57671680	55	7494
2026-01-15 21:58:38.13	42.12	9.61	-42.3	-48.2	8.8	3.19e-02	0	57	0	59768832	55	7410
2026-01-15 21:58:39.14	42.26	9.67	-42.3	-48.2	8.9	3.10e-02	0	57	0	61865984	55	7379
2026-01-15 21:58:40.15	42.39	9.73	-42.2	-47.9	9.1	2.31e-02	0	57	0	63963136	55	7191
2026-01-15 21:58:41.16	42.53	9.78	-42.2	-47.8	9.3	2.31e-02	0	57	0	65011712	55	7080
2026-01-15 21:58:42.16	42.66	9.84	-42.2	-47.7	9.4	1.67e-02	0	57	0	67108864	55	7023
2026-01-15 21:58:43.17	42.80	9.89	-42.3	-47.8	9.4	1.52e-02	0	57	0	69206016	55	7084
2026-01-15 21:58:44.18	42.94	9.95	-42.3	-47.8	9.4	1.73e-02	0	57	0	71303168	55	7105
2026-01-15 21:58:45.19	43.08	10.01	-42.2	-47.7	9.5	1.41e-02	0	58	0	73400320	55	6988
2026-01-15 21:58:46.20	43.22	10.06	-42.3	-47.7	9.6	1.47e-02	0	57	0	74448896	55	6968
2026-01-15 21:58:47.21	43.36	10.12	-42.3	-47.7	9.5	1.28e-02	0	57	0	76546048	55	7025
2026-01-15 21:58:48.22	43.49	10.18	-42.3	-47.8	9.5	1.52e-02	0	57	0	78643200	55	7059
2026-01-15 21:58:49.23	43.64	10.23	-42.2	-47.5	9.7	1.29e-02	0	58	0	80740352	55	6847
2026-01-15 21:58:50.24	43.78	10.29	-42.1	-47.2	10.0	7.88e-03	0	58	0	82837504	55	6612
2026-01-15 21:58:51.25	43.92	10.34	-42.0	-47.1	10.2	6.31e-03	0	58	0	84934656	55	6498
2026-01-15 21:58:52.26	44.06	10.40	-42.0	-46.9	10.4	5.72e-03	0	58	0	85983232	55	6365
2026-01-15 21:58:53.27	44.20	10.46	-42.0	-46.8	10.5	3.93e-03	0	58	0	88080384	55	6322
2026-01-15 21:58:54.28	44.34	10.51	-41.9	-46.7	10.6	3.66e-03	0	57	0	90177536	55	6240
2026-01-15 21:58:55.29	44.49	10.57	-41.9	-46.6	10.7	2.99e-03	0	58	0	92274688	55	6193
2026-01-15 21:58:56.29	44.63	10.62	-41.9	-46.6	10.7	2.97e-03	0	58	0	94371840	55	6164
2026-01-15 21:58:57.30	44.77	10.68	-41.9	-46.6	10.7	2.74e-03	0	58	0	95420416	55	6187
2026-01-15 21:58:58.31	44.92	10.73	-41.9	-46.5	10.9	2.71e-03	0	58	0	97517568	55	6116
2026-01-15 21:58:59.32	45.07	10.79	-41.9	-46.4	11.0	1.81e-03	0	58	0	99614720	55	6032
2026-01-15 21:59:00.33	45.21	10.85	-41.9	-46.4	11.1	1.87e-03	0	57	0	101711872	55	6024
2026-01-15 21:59:01.34	45.36	10.90	-41.8	-46.3	11.1	1.60e-03	0	58	0	103809024	55	5947
2026-01-15 21:59:02.35	45.50	10.96	-41.9	-46.4	11.0	1.57e-03	0	58	0	104857600	55	6029
2026-01-15 21:59:03.36	45.65	11.01	-41.9	-46.3	11.2	1.41e-03	0	58	0	106954752	55	5954
2026-01-15 21:59:04.37	45.80	11.07	-41.8	-46.2	11.3	1.46e-03	0	58	0	109051904	55	5889
2026-01-15 21:59:05.38	45.95	11.12	-41.8	-46.1	11.4	1.17e-03	0	58	0	111149056	55	5818
2026-01-15 21:59:06.39	46.10	11.18	-41.8	-46.2	11.3	1.07e-03	0	58	0	113246208	55	5856
2026-01-15 21:59:07.40	46.25	11.23	-41.7	-46.0	11.5	9.08e-04	0	58	0	114294784	55	5733
2026-01-15 21:59:08.41	46.40	11.29	-41.8	-46.1	11.4	9.14e-04	0	58	0	116391936	55	5811
2026-01-15 21:59:09.42	46.55	11.35	-41.8	-46.0	11.5	8.14e-04	0	58	0	118489088	55	5772
2026-01-15 21:59:10.43	46.70	11.40	-41.8	-46.0	11.5	8.44e-04	0	58	0	120586240	55	5785
2026-01-15 21:59:11.44	46.85	11.46	-41.7	-46.0	11.5	7.32e-04	0	58	0	122683392	55	5737
2026-01-15 21:59:12.45	47.01	11.51	-41.8	-46.0	11.5	7.99e-04	0	58	0	123731968	55	5787
2026-01-15 21:59:13.46	47.16	11.57	-41.8	-46.1	11.4	9.19e-04	0	58	0	125829120	55	5836
2026-01-15 21:59:14.47	47.31	11.62	-41.8	-46.1	11.4	1.02e-03	0	58	0	127926272	55	5832
2026-01-15 21:59:15.48	47.47	11.68	-41.8	-46.2	11.3	1.07e-03	0	58	0	130023424	55	5890
2026-01-15 21:59:16.49	47.62	11.73	-41.8	-46.1	11.4	1.06e-03	0	58	0	132120576	55	5845
2026-01-15 21:59:17.50	47.78	11.79	-41.8	-46.2	11.3	9.62e-04	0	58	0	133169152	55	5882
2026-01-15 21:59:18.51	47.93	11.84	-41.8	-46.2	11.3	1.17e-03	0	58	0	135266304	55	5906
2026-01-15 21:59:19.52	48.09	11.90	-41.8	-46.2	11.3	1.08e-03	0	58	0	137363456	55	5887
2026-01-15 21:59:20.53	48.25	11.95	-41.8	-46.2	11.4	1.02e-03	0	58	0	139460608	55	5871
2026-01-15 21:59:21.53	48.40	12.01	-41.8	-46.1	11.5	8.98e-04	0	58	0	141557760	55	5800
2026-01-15 21:59:22.55	48.56	12.06	-41.8	-46.0	11.6	7.80e-04	0	58	0	142606336	55	5783
2026-01-15 21:59:23.56	48.72	12.12	-41.8	-46.0	11.6	7.48e-04	0	58	0	144703488	55	5775
2026-01-15 21:59:24.57	48.88	12.17	-41.8	-46.0	11.7	6.42e-04	0	58	0	146800640	55	5730
2026-01-15 21:59:25.58	49.04	12.22	-41.8	-46.1	11.6	6.83e-04	0	58	0	148897792	55	5791
2026-01-15 21:59:26.59	49.20	12.28	-41.8	-46.1	11.6	6.91e-04	0	58	0	150994944	55	5797
2026-01-15 21:59:27.59	49.36	12.33	-41.8	-46.1	11.5	7.82e-04	0	58	0	153092096	55	5836
2026-01-15 21:59:28.60	49.52	12.39	-41.8	-46.1	11.5	7.90e-04	0	58	0	154140672	55	5848
2026-01-15 21:59:29.61	49.69	12.44	-41.9	-46.3	11.3	1.09e-03	0	58	0	156237824	55	5929
2026-01-15 21:59:30.62	49.85	12.49	-41.9	-46.2	11.4	9.23e-04	0	58	0	158334976	55	5900
2026-01-15 21:59:31.63	50.01	12.55	-41.9	-46.2	11.4	9.47e-04	0	58	0	160432128	55	5913
2026-01-15 21:59:32.64	50.18	12.60	-41.8	-46.1	11.5	8.91e-04	0	58	0	162529280	55	5829
2026-01-15 21:59:33.65	50.34	12.66	-41.9	-46.1	11.5	8.06e-04	0	58	0	163577856	55	5838
2026-01-15 21:59:34.66	50.51	12.71	-41.8	-46.1	11.6	7.46e-04	0	58	0	165675008	55	5794
2026-01-15 21:59:35.67	50.67	12.76	-41.8	-46.1	11.6	7.38e-04	0	58	0	167772160	55	5795
2026-01-15 21:59:36.68	50.84	12.82	-41.9	-46.1	11.5	7.77e-04	0	58	0	169869312	55	5812
2026-01-15 21:59:37.69	51.01	12.87	-41.9	-46.1	11.6	6.83e-04	0	58	0	171966464	55	5813
2026-01-15 21:59:38.70	51.17	12.92	-41.9	-46.1	11.6	7.08e-04	0	58	0	173015040	55	5821
2026-01-15 21:59:39.71	51.34	12.98	-41.9	-46.2	11.5	8.67e-04	0	58	0	175112192	55	5861
2026-01-15 21:59:40.72	51.51	13.03	-41.9	-46.2	11.4	8.85e-04	0	58	0	177209344	55	5908
2026-01-15 21:59:41.73	51.68	13.08	-42.0	-46.3	11.3	1.03e-03	0	58	0	179306496	55	5979
2026-01-15 21:59:42.74	51.85	13.13	-42.0	-46.4	11.3	1.17e-03	0	59	0	181403648	55	6001
2026-01-15 21:59:43.75	52.02	13.19	-42.0	-46.4	11.3	1.25e-03	0	58	0	182452224	55	6031
2026-01-15 21:59:44.76	52.19	13.24	-42.0	-46.4	11.2	1.29e-03	0	58	0	184549376	55	6056
2026-01-15 21:59:45.77	52.36	13.29	-42.0	-46.4	11.2	1.40e-03	0	59	0	186646528	55	6026
2026-01-15 21:59:46.77	52.53	13.34	-42.0	-46.4	11.2	1.24e-03	0	59	0	188743680	55	6044
2026-01-15 21:59:47.78	52.71	13.40	-42.0	-46.5	11.2	1.36e-03	0	58	0	190840832	55	6081
2026-01-15 21:59:48.79	52.88	13.45	-42.1	-46.5	11.2	1.49e-03	0	59	0	191889408	55	6098
2026-01-15 21:59:49.80	53.06	13.50	-42.1	-46.5	11.2	1.47e-03	0	58	0	193986560	55	6092
2026-01-15 21:59:50.81	53.23	13.55	-42.1	-46.5	11.2	1.44e-03	0	58	0	196083712	55	6115
2026-01-15 21:59:51.82	53.41	13.60	-42.1	-46.6	11.1	1.69e-03	0	59	0	198180864	55	6170
2026-01-15 21:59:52.83	53.58	13.66	-42.2	-46.7	10.9	1.92e-03	0	59	0	200278016	55	6271
2026-01-15 21:59:53.84	53.76	13.71	-42.2	-46.8	10.9	2.04e-03	0	58	0	201326592	55	6324
2026-01-15 21:59:54.85	53.93	13.76	-42.2	-46.9	10.8	2.75e-03	0	59	0	203423744	55	6402
2026-01-15 21:59:55.86	54.11	13.81	-42.3	-47.0	10.6	3.12e-03	0	59	0	205520896	55	6476
2026-01-15 21:59:56.86	54.29	13.86	-42.3	-47.1	10.6	3.40e-03	0	59	0	207618048	55	6547
2026-01-15 21:59:57.87	54.47	13.91	-42.4	-47.2	10.5	3.85e-03	0	59	0	209715200	55	6590
2026-01-15 21:59:58.88	54.65	13.96	-42.4	-47.3	10.4	4.83e-03	0	59	0	210763776	55	6658
2026-01-15 21:59:59.89	54.83	14.01	-42.5	-47.4	10.2	5.45e-03	0	59	0	212860928	55	6792
2026-01-15 22:00:00.90	55.01	14.06	-42.5	-47.6	10.1	6.34e-03	0	59	0	214958080	55	6907
2026-01-15 22:00:01.91	55.19	14.11	-42.5	-47.6	10.0	7.49e-03	0	59	0	217055232	55	6926
2026-01-15 22:00:02.92	55.37	14.16	-42.5	-47.5	10.2	6.61e-03	0	59	0	219152384	55	6837
2026-01-15 22:00:03.93	55.55	14.21	-42.5	-47.6	10.1	6.33e-03	0	59	0	221249536	55	6901
2026-01-15 22:00:04.94	55.74	14.26	-42.5	-47.6	10.1	7.10e-03	0	59	0	222298112	55	6886
2026-01-15 22:00:05.95	55.92	14.31	-42.5	-47.6	10.1	7.12e-03	0	59	0	224395264	55	6888
2026-01-15 22:00:06.95	56.10	14.36	-42.5	-47.6	10.0	6.95e-03	0	59	0	226492416	55	6913
2026-01-15 22:00:07.96	56.29	14.41	-42.6	-47.7	9.9	8.37e-03	0	59	0	228589568	55	6981
2026-01-15 22:00:08.97	56.47	14.46	-42.6	-47.8	9.8	9.46e-03	0	59	0	229638144	55	7068
2026-01-15 22:00:09.98	56.66	14.51	-42.6	-47.9	9.8	1.03e-02	0	59	0	231735296	55	7135
2026-01-15 22:00:10.99	56.85	14.56	-42.6	-47.9	9.7	1.11e-02	0	59	0	233832448	55	7176
2026-01-15 22:00:12.00	57.03	14.60	-42.7	-48.1	9.6	1.25e-02	0	59	0	235929600	55	7290
2026-01-15 22:00:13.01	57.22	14.65	-42.7	-48.0	9.6	1.34e-02	0	59	0	238026752	55	7256
2026-01-15 22:00:14.02	57.41	14.70	-42.7	-48.0	9.6	1.20e-02	0	59	0	239075328	55	7229
2026-01-15 22:00:15.03	57.60	14.75	-42.6	-48.0	9.6	1.30e-02	0	59	0	241172480	55	7216
2026-01-15 22:00:16.04	57.79	14.80	-42.7	-48.0	9.5	1.33e-02	0	59	0	243269632	55	7278
2026-01-15 22:00:17.05	57.98	14.84	-42.7	-48.1	9.5	1.38e-02	0	59	0	245366784	55	7346
2026-01-15 22:00:18.06	58.17	14.89	-42.9	-48.3	9.4	1.57e-02	0	59	0	247463936	56	7110
2026-01-15 22:00:19.07	58.36	14.94	-42.9	-48.4	9.4	1.63e-02	0	59	0	249561088	56	7132
2026-01-15 22:00:20.08	58.55	14.99	-42.9	-48.4	9.4	1.62e-02	0	59	0	250609664	56	7123
2026-01-15 22:00:21.09	58.75	15.03	-43.0	-48.6	9.2	1.91e-02	0	59	0	252706816	56	7306
2026-01-15 22:00:22.10	58.94	15.08	-43.0	-48.7	9.1	2.21e-02	0	59	0	254803968	56	7402
2026-01-15 22:00:23.11	59.13	15.13	-43.0	-48.8	9.0	2.38e-02	0	59	0	256901120	56	7477
2026-01-15 22:00:24.12	59.33	15.17	-43.0	-48.8	9.0	2.63e-02	0	59	0	258998272	56	7504
2026-01-15 22:00:25.13	59.52	15.22	-43.0	-48.7	9.1	2.54e-02	0	59	0	260046848	56	7432
2026-01-15 22:00:26.14	59.72	15.26	-43.0	-48.7	9.0	2.54e-02	0	59	0	262144000	56	7450
2026-01-15 22:00:27.15	59.91	15.31	-43.0	-48.8	9.0	2.61e-02	0	59	0	264241152	56	7492
2026-01-15 22:00:28.16	60.11	15.35	-43.1	-48.9	8.8	2.85e-02	0	59	0	266338304	56	7587
2026-01-15 22:00:29.17	60.31	15.40	-43.1	-49.0	8.8	3.21e-02	0	59	0	268435456	56	7677
2026-01-15 22:00:30.18	60.51	15.44	-43.2	-49.2	8.5	3.89e-02	0	59	0	269484032	56	7881
2026-01-15 22:00:31.19	60.70	15.49	-43.2	-49.2	8.5	4.42e-02	0	59	0	271581184	56	7888
2026-01-15 22:00:32.20	60.90	15.53	-43.1	-49.0	8.7	3.97e-02	0	59	0	273678336	56	7702
2026-01-15 22:00:33.21	61.10	15.58	-43.1	-49.0	8.7	3.36e-02	0	59	0	275775488	56	7686
2026-01-15 22:00:34.22	61.30	15.62	-43.0	-48.9	8.8	3.15e-02	0	59	0	277872640	56	7555
2026-01-15 22:00:35.23	61.50	15.66	-42.9	-48.5	9.2	2.38e-02	0	59	0	278921216	56	7278
2026-01-15 22:00:36.24	61.71	15.71	-42.9	-48.6	9.1	2.11e-02	0	59	0	281018368	56	7321
2026-01-15 22:00:37.25	61.91	15.75	-42.8	-48.3	9.4	1.72e-02	0	59	0	283115520	56	7047
2026-01-15 22:00:38.26	62.11	15.79	-42.8	-48.1	9.6	1.42e-02	0	59	0	285212672	56	6926
2026-01-15 22:00:39.27	62.31	15.83	-42.7	-48.0	9.7	1.28e-02	0	59	0	287309824	56	6836
2026-01-15 22:00:40.28	62.52	15.88	-42.7	-48.0	9.7	1.12e-02	0	59	0	289406976	56	6819
2026-01-15 22:00:41.29	62.72	15.92	-42.7	-48.1	9.6	1.26e-02	0	59	0	290455552	56	6896
2026-01-15 22:00:42.30	62.93	15.96	-42.7	-47.9	9.8	1.04e-02	0	59	0	292552704	56	6749
2026-01-15 22:00:43.30	63.13	16.00	-42.6	-47.8	9.9	9.45e-03	0	59	0	294649856	56	6647
2026-01-15 22:00:44.31	63.33	16.04	-42.7	-47.9	9.8	9.42e-03	0	59	0	296747008	56	6754
2026-01-15 22:00:45.32	63.54	16.08	-42.5	-47.6	10.1	8.85e-03	0	59	0	298844160	56	6531
2026-01-15 22:00:46.33	63.75	16.12	-42.4	-47.3	10.3	6.26e-03	0	59	0	299892736	56	6328
2026-01-15 22:00:47.34	63.96	16.16	-42.4	-47.2	10.4	4.74e-03	0	59	0	301989888	56	6274
2026-01-15 22:00:48.36	64.17	16.21	-42.4	-47.3	10.4	4.79e-03	0	59	0	304087040	56	6320
2026-01-15 22:00:49.36	64.37	16.24	-42.4	-47.3	10.3	4.59e-03	0	59	0	306184192	56	6340
2026-01-15 22:00:50.37	64.58	16.28	-42.4	-47.3	10.4	4.92e-03	0	59	0	307232768	56	6296
2026-01-15 22:00:51.38	64.79	16.32	-42.3	-47.2	10.5	5.16e-03	0	59	0	309329920	56	6214
2026-01-15 22:00:52.39	65.00	16.36	-42.3	-47.0	10.6	3.87e-03	0	59	0	311427072	56	6100
2026-01-15 22:00:53.40	65.21	16.40	-42.2	-46.9	10.7	3.43e-03	0	59	0	313524224	56	6045
2026-01-15 22:00:54.41	65.42	16.44	-42.2	-46.9	10.6	3.29e-03	0	59	0	315621376	56	6033
2026-01-15 22:00:55.42	65.64	16.48	-42.1	-46.6	10.9	2.68e-03	0	59	0	317718528	56	5841
2026-01-15 22:00:56.43	65.85	16.51	-41.8	-46.4	10.9	1.98e-03	0	59	0	318767104	55	6005
2026-01-15 22:00:57.43	66.06	16.55	-41.9	-46.6	10.6	2.93e-03	0	59	0	320864256	55	6142
2026-01-15 22:00:58.44	66.27	16.59	-41.8	-46.5	10.7	3.19e-03	0	59	0	322961408	55	6111
2026-01-15 22:00:59.45	66.49	16.62	-41.8	-46.5	10.6	3.45e-03	0	59	0	325058560	55	6114
2026-01-15 22:01:00.46	66.70	16.66	-41.8	-46.6	10.5	3.60e-03	0	59	0	327155712	55	6161
2026-01-15 22:01:01.47	66.92	16.70	-41.8	-46.7	10.3	4.73e-03	0	59	0	328204288	55	6222
2026-01-15 22:01:02.48	67.13	16.73	-41.8	-46.8	10.2	5.70e-03	0	59	0	330301440	55	6290
2026-01-15 22:01:03.49	67.35	16.77	-41.8	-46.9	9.9	8.04e-03	0	59	0	332398592	55	6412
2026-01-15 22:01:04.50	67.56	16.80	-41.8	-47.1	9.7	9.71e-03	0	59	0	334495744	55	6517
2026-01-15 22:01:05.51	67.78	16.84	-41.8	-47.4	9.3	1.30e-02	0	59	0	336592896	55	6729
2026-01-15 22:01:06.52	68.00	16.87	-41.9	-47.5	9.1	2.04e-02	0	59	0	337641472	55	6847
2026-01-15 22:01:07.53	68.22	16.91	-41.8	-47.6	9.0	2.20e-02	0	59	0	339738624	55	6894
2026-01-15 22:01:08.54	68.43	16.94	-41.8	-47.7	8.8	2.65e-02	0	59	0	341835776	55	6978
2026-01-15 22:01:09.55	68.65	16.97	-41.8	-47.7	8.7	3.16e-02	0	59	0	343932928	55	6992
2026-01-15 22:01:10.56	68.87	17.01	-41.8	-47.8	8.5	3.70e-02	0	59	0	346030080	55	7114
2026-01-15 22:01:11.57	69.09	17.04	-41.8	-48.0	8.3	4.61e-02	0	59	0	347078656	55	7246
2026-01-15 22:01:12.58	69.31	17.07	-41.7	-48.2	8.0	6.31e-02	0	59	0	349175808	55	7431
2026-01-15 22:01:13.59	69.53	17.10	-41.7	-48.4	7.8	7.60e-02	0	59	0	351272960	55	7562
2026-01-15 22:01:14.60	69.75	17.13	-41.6	-48.4	7.6	8.92e-02	0	59	0	353370112	55	7611
2026-01-15 22:01:15.61	69.98	17.16	-41.6	-48.5	7.4	1.03e-01	0	59	0	355467264	55	7719
2026-01-15 22:01:16.62	70.20	17.20	-41.5	-48.7	7.2	1.24e-01	0	59	0	356515840	55	7845
2026-01-15 22:01:17.63	70.42	17.23	-41.5	-48.9	6.9	1.53e-01	0	59	0	358612992	55	8071
2026-01-15 22:01:18.64	70.64	17.26	-41.5	-49.2	6.6	1.84e-01	0	59	0	360710144	55	8332
2026-01-15 22:01:19.65	70.87	17.29	-41.5	-49.4	6.3	2.38e-01	0	59	0	362807296	55	8513
2026-01-15 22:01:20.66	71.09	17.31	-41.5	-49.5	6.2	2.69e-01	0	60	0	364904448	54	9086
2026-01-15 22:01:21.67	71.31	17.34	-41.5	-49.7	6.0	3.04e-01	0	59	0	365953024	54	9315
2026-01-15 22:01:22.68	71.54	17.37	-41.5	-49.7	6.0	3.31e-01	0	59	0	368050176	54	9388
2026-01-15 22:01:23.69	71.76	17.40	-41.5	-49.8	5.9	3.50e-01	0	59	0	370147328	54	9446
2026-01-15 22:01:24.70	71.99	17.43	-41.5	-50.0	5.9	3.70e-01	0	59	0	372244480	54	9619
2026-01-15 22:01:25.70	72.21	17.45	-41.5	-50.0	5.8	3.91e-01	0	59	0	374341632	54	9685
2026-01-15 22:01:26.72	72.44	17.48	-41.5	-49.9	5.8	3.78e-01	0	60	0	375390208	54	9605
2026-01-15 22:01:27.73	72.67	17.51	-41.5	-50.0	5.8	3.85e-01	0	59	0	377487360	54	9613
2026-01-15 22:01:28.74	72.90	17.53	-41.5	-49.9	5.8	3.86e-01	0	59	0	379584512	54	9590
2026-01-15 22:01:29.74	73.12	17.56	-41.5	-49.7	6.0	3.50e-01	0	60	0	381681664	54	9372
2026-01-15 22:01:30.75	73.35	17.59	-41.5	-50.0	5.8	3.64e-01	0	59	0	383778816	54	9631
2026-01-15 22:01:31.76	73.58	17.61	-41.4	-49.9	5.8	3.76e-01	0	59	0	385875968	54	9562
2026-01-15 22:01:32.77	73.81	17.63	-41.5	-50.0	5.8	3.95e-01	0	59	0	386924544	54	9670
2026-01-15 22:01:33.78	74.04	17.66	-41.5	-50.1	5.7	3.99e-01	0	59	0	389021696	54	9728
2026-01-15 22:01:34.79	74.26	17.68	-41.5	-50.1	5.7	4.12e-01	0	60	0	391118848	54	9820
2026-01-15 22:01:35.80	74.49	17.71	-41.6	-50.1	5.8	4.02e-01	0	60	0	393216000	54	9723
2026-01-15 22:01:36.81	74.72	17.73	-41.5	-49.7	6.1	3.38e-01	0	59	0	395313152	54	9322
2026-01-15 22:01:37.82	74.95	17.75	-41.5	-49.5	6.2	2.94e-01	0	59	0	396361728	54	9140
2026-01-15 22:01:38.83	75.19	17.77	-41.6	-49.5	6.2	2.82e-01	0	59	0	398458880	54	9144
2026-01-15 22:01:39.84	75.42	17.79	-41.5	-49.5	6.2	2.88e-01	0	60	0	400556032	54	9075
2026-01-15 22:01:40.85	75.65	17.82	-41.5	-49.3	6.4	2.58e-01	0	59	0	402653184	54	8894
2026-01-15 22:01:41.86	75.88	17.84	-41.5	-49.2	6.6	2.18e-01	0	60	0	404750336	54	8773
2026-01-15 22:01:42.87	76.11	17.86	-41.4	-48.8	6.9	1.87e-01	0	59	0	405798912	54	8436
2026-01-15 22:01:43.88	76.34	17.88	-41.3	-48.5	7.1	1.54e-01	0	60	0	407896064	54	8172
2026-01-15 22:01:44.89	76.58	17.90	-41.3	-48.6	7.0	1.52e-01	0	60	0	409993216	54	8227
2026-01-15 22:01:45.90	76.81	17.91	-41.4	-48.9	6.7	1.86e-01	0	59	0	412090368	54	8520
2026-01-15 22:01:46.91	77.04	17.93	-41.5	-49.0	6.7	2.04e-01	0	60	0	414187520	54	8596
2026-01-15 22:01:47.92	77.28	17.95	-41.5	-49.0	6.7	1.91e-01	0	60	0	415236096	54	8594
2026-01-15 22:01:48.93	77.51	17.97	-41.5	-49.0	6.8	1.91e-01	0	59	0	417333248	54	8563
2026-01-15 22:01:49.94	77.74	17.99	-41.6	-49.0	6.8	1.76e-01	0	59	0	419430400	54	8564
2026-01-15 22:01:50.95	77.98	18.00	-41.6	-49.1	6.7	1.84e-01	0	60	0	421527552	54	8709
2026-01-15 22:01:51.96	78.21	18.02	-41.7	-49.1	6.7	1.94e-01	0	59	0	423624704	54	8750
2026-01-15 22:01:52.96	78.45	18.03	-41.7	-49.3	6.6	2.08e-01	0	59	0	424673280	54	8940
2026-01-15 22:01:53.97	78.68	18.05	-41.8	-49.6	6.4	2.37e-01	0	60	0	426770432	54	9228
2026-01-15 22:01:54.99	78.92	18.06	-41.8	-50.0	6.0	3.06e-01	0	60	0	428867584	54	9713
2026-01-15 22:01:55.99	79.15	18.08	-41.8	-50.2	5.9	3.50e-01	0	59	0	430964736	54	9907
2026-01-15 22:01:57.00	79.39	18.09	-41.9	-50.3	5.8	3.84e-01	0	60	0	433061888	54	10011
2026-01-15 22:01:58.01	79.62	18.11	-41.8	-49.7	6.3	3.10e-01	0	60	0	434110464	54	9336
2026-01-15 22:01:59.02	79.86	18.12	-41.7	-49.4	6.5	2.33e-01	0	60	0	436207616	54	9041
2026-01-15 22:02:00.03	80.10	18.13	-41.8	-49.3	6.8	2.05e-01	0	60	0	438304768	54	8873
2026-01-15 22:02:01.04	80.33	18.14	-41.8	-49.0	7.0	1.71e-01	0	59	0	440401920	54	8655
2026-01-15 22:02:02.05	80.57	18.15	-41.8	-48.5	7.6	1.17e-01	0	60	0	442499072	54	8155
2026-01-15 22:02:03.06	80.81	18.17	-41.8	-48.2	8.0	7.58e-02	0	60	0	443547648	54	7845
2026-01-15 22:02:04.07	81.04	18.18	-41.8	-48.0	8.2	5.61e-02	0	60	0	445644800	54	7693
2026-01-15 22:02:05.07	81.28	18.19	-41.8	-48.1	8.2	5.30e-02	0	59	0	447741952	54	7747
2026-01-15 22:02:06.08	81.51	18.20	-41.9	-48.3	8.0	6.16e-02	0	60	0	449839104	54	7988
2026-01-15 22:02:07.09	81.75	18.21	-42.0	-48.6	7.8	7.52e-02	0	60	0	451936256	54	8190
2026-01-15 22:02:08.10	81.99	18.21	-42.0	-48.5	7.9	7.90e-02	0	60	0	454033408	54	8097
2026-01-15 22:02:09.11	82.23	18.22	-42.0	-48.3	8.0	6.87e-02	0	60	0	455081984	54	7982
2026-01-15 22:02:10.12	82.47	18.23	-42.0	-48.4	8.0	6.88e-02	0	60	0	457179136	54	8014
2026-01-15 22:02:11.13	82.70	18.24	-42.1	-48.4	8.1	6.51e-02	0	60	0	459276288	54	8014
2026-01-15 22:02:12.14	82.94	18.24	-42.1	-48.4	8.1	6.46e-02	0	60	0	461373440	54	8021
2026-01-15 22:02:13.15	83.18	18.25	-42.1	-48.5	8.1	6.08e-02	0	60	0	463470592	54	8086
2026-01-15 22:02:14.16	83.42	18.26	-42.2	-48.7	7.8	6.79e-02	0	60	0	464519168	54	8321
2026-01-15 22:02:15.17	83.66	18.26	-42.1	-48.7	7.8	8.46e-02	0	60	0	466616320	54	8319
2026-01-15 22:02:16.18	83.90	18.27	-42.0	-48.5	7.9	7.65e-02	0	60	0	468713472	54	8142
2026-01-15 22:02:17.19	84.13	18.27	-42.0	-48.5	7.9	7.25e-02	0	60	0	470810624	54	8123
2026-01-15 22:02:18.20	84.37	18.28	-41.9	-48.6	7.7	8.36e-02	0	60	0	472907776	54	8190
2026-01-15 22:02:19.21	84.61	18.28	-41.9	-48.6	7.6	8.78e-02	0	60	0	473956352	54	8238
2026-01-15 22:02:20.22	84.85	18.28	-41.8	-48.4	7.9	7.97e-02	0	60	0	476053504	54	8017
2026-01-15 22:02:21.23	85.09	18.28	-41.8	-48.3	8.0	6.71e-02	0	60	0	478150656	54	7975
2026-01-15 22:02:22.24	85.33	18.29	-41.9	-48.5	7.8	7.68e-02	0	60	0	480247808	54	8145
2026-01-15 22:02:23.24	85.56	18.29	-42.0	-48.7	7.7	8.33e-02	0	60	0	482344960	54	8305
2026-01-15 22:02:24.25	85.80	18.29	-42.1	-48.8	7.6	9.95e-02	0	60	0	483393536	54	8463
2026-01-15 22:02:25.26	86.04	18.29	-42.1	-48.8	7.6	9.55e-02	0	60	0	485490688	54	8398
2026-01-15 22:02:26.28	86.28	18.29	-42.0	-48.6	7.9	8.77e-02	0	60	0	487587840	54	8262
2026-01-15 22:02:27.29	86.52	18.29	-41.9	-48.4	8.1	6.32e-02	0	60	0	489684992	54	8028
2026-01-15 22:02:28.30	86.76	18.29	-42.0	-48.5	7.9	7.00e-02	0	60	0	491782144	54	8165
2026-01-15 22:02:29.31	87.00	18.29	-42.0	-48.5	7.9	7.42e-02	0	60	0	492830720	54	8151
2026-01-15 22:02:30.32	87.24	18.29	-42.0	-48.5	7.9	7.51e-02	0	60	0	494927872	54	8119
2026-01-15 22:02:31.33	87.48	18.28	-42.0	-48.6	7.9	7.25e-02	0	60	0	497025024	54	8194
2026-01-15 22:02:32.33	87.72	18.28	-42.1	-48.5	8.0	6.61e-02	0	60	0	499122176	54	8127
2026-01-15 22:02:33.34	87.95	18.28	-42.1	-48.2	8.4	5.83e-02	0	60	0	501219328	54	7866
2026-01-15 22:02:34.35	88.19	18.27	-42.1	-48.0	8.6	4.03e-02	0	60	0	502267904	54	7716
2026-01-15 22:02:35.36	88.43	18.27	-42.1	-47.9	8.9	3.39e-02	0	60	0	504365056	54	7597
2026-01-15 22:02:36.37	88.67	18.27	-42.0	-47.4	9.4	2.25e-02	0	60	0	506462208	54	7201
2026-01-15 22:02:37.38	88.91	18.26	-42.0	-47.4	9.4	1.53e-02	0	60	0	508559360	54	7149
2026-01-15 22:02:38.39	89.15	18.25	-42.0	-47.5	9.3	1.74e-02	0	60	0	510656512	54	7276
2026-01-15 22:02:39.40	89.39	18.25	-42.0	-47.6	9.1	2.11e-02	0	60	0	511705088	54	7362
2026-01-15 22:02:40.41	89.63	18.24	-42.0	-47.8	9.0	2.67e-02	0	60	0	513802240	54	7459
2026-01-15 22:02:41.41	89.86	18.23	-42.1	-47.9	8.9	2.83e-02	0	60	0	515899392	54	7547
2026-01-15 22:02:42.42	90.10	18.23	-42.1	-48.0	8.8	2.93e-02	0	60	0	517996544	54	7639
2026-01-15 22:02:43.43	90.34	18.22	-42.1	-47.6	9.3	2.14e-02	0	60	0	520093696	54	7362
2026-01-15 22:02:44.44	90.58	18.21	-42.1	-47.4	9.6	1.46e-02	0	60	0	522190848	54	7146
2026-01-15 22:02:45.45	90.81	18.20	-42.0	-46.9	10.3	7.61e-03	0	60	0	523239424	54	6724
2026-01-15 22:02:46.46	91.05	18.19	-42.0	-46.7	10.6	4.03e-03	0	60	0	525336576	54	6615
2026-01-15 22:02:47.47	91.29	18.18	-41.9	-46.6	10.7	3.24e-03	0	60	0	527433728	54	6543
2026-01-15 22:02:48.48	91.53	18.17	-41.9	-46.4	10.9	2.44e-03	0	60	0	529530880	54	6399
2026-01-15 22:02:49.49	91.76	18.16	-41.9	-46.4	11.0	2.14e-03	0	60	0	531628032	54	6369
2026-01-15 22:02:50.50	92.00	18.15	-41.9	-46.3	11.2	1.53e-03	0	60	0	532676608	54	6302
2026-01-15 22:02:51.51	92.24	18.14	-42.0	-46.5	11.0	1.75e-03	0	60	0	534773760	54	6463
2026-01-15 22:02:52.52	92.47	18.13	-42.1	-46.7	10.9	2.16e-03	0	60	0	536870912	54	6606
2026-01-15 22:02:53.53	92.71	18.11	-42.1	-46.7	10.9	2.09e-03	0	60	0	538968064	54	6582
2026-01-15 22:02:54.54	92.95	18.10	-42.1	-46.6	11.1	1.99e-03	0	60	0	541065216	54	6532
2026-01-15 22:02:55.55	93.18	18.09	-42.1	-46.6	11.1	1.85e-03	0	60	0	542113792	54	6557
2026-01-15 22:02:56.56	93.42	18.07	-42.1	-46.6	11.1	1.65e-03	0	60	0	544210944	54	6503
2026-01-15 22:02:57.57	93.65	18.06	-42.2	-46.7	11.1	1.58e-03	0	60	0	546308096	54	6585
2026-01-15 22:02:58.58	93.89	18.04	-42.1	-46.6	11.2	1.68e-03	0	60	0	548405248	54	6499
2026-01-15 22:02:59.59	94.13	18.03	-42.1	-46.4	11.4	1.20e-03	0	60	0	550502400	54	6369
2026-01-15 22:03:00.60	94.36	18.01	-42.0	-46.2	11.5	8.10e-04	0	60	0	551550976	54	6264
2026-01-15 22:03:01.61	94.59	17.99	-42.0	-46.2	11.6	7.00e-04	0	60	0	553648128	54	6250
2026-01-15 22:03:02.62	94.83	17.98	-42.0	-46.2	11.6	7.55e-04	0	60	0	555745280	54	6223
2026-01-15 22:03:03.63	95.06	17.96	-41.9	-46.0	11.9	4.08e-04	0	60	0	557842432	54	6089
2026-01-15 22:03:04.64	95.30	17.94	-41.9	-45.9	11.9	4.23e-04	0	60	0	559939584	54	6061
2026-01-15 22:03:05.65	95.53	17.92	-41.9	-45.9	12.0	3.78e-04	0	60	0	560988160	54	6009
2026-01-15 22:03:06.65	95.76	17.91	-41.9	-45.8	12.0	2.94e-04	0	60	0	563085312	54	5979
2026-01-15 22:03:07.66	96.00	17.89	-41.9	-45.8	12.0	3.00e-04	0	60	0	565182464	54	5992
2026-01-15 22:03:08.67	96.23	17.87	-41.9	-46.0	11.9	3.18e-04	0	60	0	567279616	54	6080
2026-01-15 22:03:09.68	96.46	17.85	-41.8	-45.7	12.1	3.00e-04	0	60	0	569376768	54	5916
2026-01-15 22:03:10.69	96.69	17.83	-41.8	-45.8	12.1	2.27e-04	0	60	0	570425344	54	5931
2026-01-15 22:03:11.70	96.93	17.81	-41.9	-45.9	12.0	3.04e-04	0	60	0	572522496	54	6000
2026-01-15 22:03:12.71	97.16	17.78	-41.9	-45.9	11.9	3.33e-04	0	60	0	574619648	54	6049
2026-01-15 22:03:13.72	97.39	17.76	-41.9	-46.0	11.9	3.99e-04	0	60	0	576716800	54	6070
2026-01-15 22:03:14.73	97.62	17.74	-42.0	-46.1	11.8	4.16e-04	0	60	0	578813952	54	6137
2026-01-15 22:03:15.74	97.85	17.72	-42.0	-46.1	11.7	5.51e-04	0	60	0	579862528	54	6190
2026-01-15 22:03:16.75	98.08	17.69	-42.0	-46.2	11.7	5.21e-04	0	60	0	581959680	54	6225
2026-01-15 22:03:17.76	98.31	17.67	-41.9	-46.0	11.9	4.23e-04	0	60	0	584056832	54	6079
2026-01-15 22:03:18.77	98.54	17.65	-42.0	-46.0	11.9	4.29e-04	0	60	0	586153984	54	6120
2026-01-15 22:03:19.78	98.77	17.62	-42.0	-46.0	11.9	4.34e-04	0	60	0	588251136	54	6130
2026-01-15 22:03:20.79	99.00	17.60	-41.9	-45.8	12.0	3.71e-04	0	60	0	590348288	54	5985
2026-01-15 22:03:21.80	99.23	17.57	-41.8	-45.8	12.1	3.31e-04	0	60	0	591396864	54	5971
2026-01-15 22:03:22.81	99.46	17.55	-41.8	-45.9	12.1	2.60e-04	0	60	0	593494016	54	6006
2026-01-15 22:03:23.81	99.68	17.52	-41.7	-45.6	12.3	2.84e-04	0	60	0	595591168	54	5828
2026-01-15 22:03:24.82	99.91	17.50	-41.7	-45.5	12.4	1.85e-04	0	60	0	597688320	54	5755
2026-01-15 22:03:25.83	100.14	17.47	-41.6	-45.2	12.6	9.61e-05	0	60	0	599785472	54	5591
2026-01-15 22:03:26.84	100.36	17.44	-41.5	-45.2	12.8	7.17e-05	0	60	0	600834048	54	5532
2026-01-15 22:03:27.85	100.59	17.41	-41.5	-45.2	12.8	6.56e-05	0	60	0	602931200	54	5536
2026-01-15 22:03:28.86	100.82	17.39	-41.3	-45.1	12.8	5.26e-05	0	60	0	605028352	54	5485
2026-01-15 22:03:29.87	101.04	17.36	-41.5	-45.1	12.8	4.73e-05	0	60	0	607125504	54	5518
2026-01-15 22:03:30.88	101.27	17.33	-41.4	-45.0	12.9	4.88e-05	0	60	0	609222656	54	5435
2026-01-15 22:03:31.89	101.49	17.30	-41.5	-45.2	12.7	5.72e-05	0	60	0	610271232	54	5547
2026-01-15 22:03:32.90	101.72	17.27	-41.6	-45.3	12.7	9.00e-05	0	60	0	612368384	54	5596
2026-01-15 22:03:33.90	101.94	17.24	-41.6	-45.3	12.6	8.92e-05	0	60	0	614465536	54	5640
2026-01-15 22:03:34.91	102.16	17.21	-41.6	-45.3	12.6	1.01e-04	0	60	0	616562688	54	5655
2026-01-15 22:03:35.92	102.38	17.18	-41.6	-45.3	12.6	7.78e-05	0	60	0	618659840	54	5629
2026-01-15 22:03:36.93	102.61	17.15	-41.5	-45.2	12.8	7.93e-05	0	60	0	619708416	54	5540
2026-01-15 22:03:37.94	102.83	17.12	-41.4	-45.0	12.9	5.11e-05	0	60	0	621805568	54	5418
2026-01-15 22:03:38.95	103.05	17.09	-41.4	-44.9	13.0	4.65e-05	0	60	0	623902720	54	5402
2026-01-15 22:03:39.96	103.27	17.05	-41.3	-44.8	13.2	2.51e-05	0	60	0	625999872	54	5300
2026-01-15 22:03:40.97	103.49	17.02	-41.3	-44.7	13.3	1.83e-05	0	60	0	628097024	54	5249
2026-01-15 22:03:41.98	103.71	16.99	-41.2	-44.6	13.3	2.28e-05	0	60	0	629145600	53	5485
2026-01-15 22:03:42.99	103.93	16.95	-41.2	-44.6	13.3	2.05e-05	0	60	0	631242752	53	5510
2026-01-15 22:03:44.00	104.15	16.92	-41.2	-44.6	13.4	1.83e-05	0	60	0	633339904	52	5796
2026-01-15 22:03:45.01	104.37	16.89	-41.2	-44.6	13.3	4.42e-05	0	60	0	635437056	53	5519
2026-01-15 22:03:46.02	104.59	16.85	-41.3	-44.7	13.2	1.83e-05	0	60	0	637534208	53	5559
2026-01-15 22:03:47.03	104.81	16.82	-41.3	-44.8	13.1	3.58e-05	0	60	0	638582784	53	5626
2026-01-15 22:03:48.04	105.03	16.78	-41.4	-44.9	13.0	3.73e-05	0	60	0	640679936	53	5707
2026-01-15 22:03:49.05	105.24	16.75	-41.5	-45.0	12.9	4.95e-05	0	60	0	642777088	53	5786
2026-01-15 22:03:50.05	105.46	16.71	-41.5	-45.1	12.8	5.79e-05	0	60	0	644874240	53	5826
2026-01-15 22:03:51.06	105.67	16.68	-41.5	-45.1	12.7	7.55e-05	0	60	0	646971392	53	5855
2026-01-15 22:03:52.07	105.89	16.64	-41.5	-45.2	12.7	6.48e-05	0	60	0	648019968	53	5863
2026-01-15 22:03:53.08	106.10	16.60	-41.5	-45.2	12.7	6.94e-05	0	60	0	650117120	53	5873
2026-01-15 22:03:54.09	106.32	16.57	-41.5	-45.2	12.7	5.95e-05	0	60	0	652214272	53	5867
2026-01-15 22:03:55.10	106.53	16.53	-41.5	-45.2	12.7	7.93e-05	0	60	0	654311424	53	5898
2026-01-15 22:03:56.11	106.74	16.49	-41.6	-45.2	12.7	8.23e-05	0	60	0	656408576	53	5901
2026-01-15 22:03:57.12	106.96	16.45	-41.6	-45.2	12.7	8.92e-05	0	60	0	657457152	53	5907
2026-01-15 22:03:58.13	107.17	16.41	-41.5	-45.1	12.8	7.85e-05	0	60	0	659554304	53	5836
2026-01-15 22:03:59.14	107.38	16.38	-41.5	-45.1	12.8	5.26e-05	0	60	0	661651456	53	5795
2026-01-15 22:04:00.15	107.59	16.34	-41.5	-45.1	12.8	8.01e-05	0	60	0	663748608	53	5819
2026-01-15 22:04:01.16	107.80	16.30	-41.5	-45.2	12.7	7.93e-05	0	60	0	665845760	53	5860
2026-01-15 22:04:02.17	108.01	16.26	-41.6	-45.4	12.5	1.02e-04	0	60	0	666894336	53	6027
2026-01-15 22:04:03.18	108.22	16.22	-41.8	-45.7	12.2	2.04e-04	0	60	0	668991488	54	5884
2026-01-15 22:04:04.19	108.43	16.18	-41.9	-46.0	11.9	2.91e-04	0	60	0	671088640	54	6072
2026-01-15 22:04:05.20	108.64	16.14	-42.1	-46.3	11.6	6.77e-04	0	60	0	673185792	54	6289
2026-01-15 22:04:06.21	108.85	16.10	-42.2	-46.5	11.3	9.03e-04	0	60	0	675282944	54	6461
2026-01-15 22:04:07.22	109.06	16.06	-42.3	-46.7	11.1	1.41e-03	0	60	0	676331520	55	6231
2026-01-15 22:04:08.23	109.26	16.01	-42.3	-46.8	11.0	1.88e-03	0	60	0	678428672	55	6302
2026-01-15 22:04:09.23	109.47	15.97	-42.4	-47.0	10.8	2.32e-03	0	60	0	680525824	55	6426
2026-01-15 22:04:10.24	109.67	15.93	-42.3	-46.9	10.9	2.65e-03	0	60	0	682622976	55	6387
2026-01-15 22:04:11.25	109.88	15.89	-42.3	-46.9	10.9	2.29e-03	0	60	0	684720128	55	6392
2026-01-15 22:04:12.26	110.08	15.85	-42.4	-47.0	10.8	2.55e-03	0	60	0	686817280	55	6472
2026-01-15 22:04:13.27	110.29	15.80	-42.4	-47.1	10.7	2.74e-03	0	60	0	687865856	55	6495
2026-01-15 22:04:14.28	110.49	15.76	-42.4	-47.1	10.7	2.91e-03	0	60	0	689963008	55	6539
2026-01-15 22:04:15.29	110.70	15.72	-42.4	-47.1	10.7	3.28e-03	0	60	0	692060160	55	6520
2026-01-15 22:04:16.30	110.90	15.68	-42.3	-46.8	10.9	2.36e-03	0	60	0	694157312	55	6340
2026-01-15 22:04:17.31	111.10	15.63	-42.2	-46.7	11.1	1.85e-03	0	60	0	696254464	55	6228
2026-01-15 22:04:18.32	111.30	15.59	-42.2	-46.6	11.2	1.43e-03	0	60	0	697303040	55	6181
2026-01-15 22:04:19.33	111.50	15.54	-42.2	-46.6	11.2	1.52e-03	0	60	0	699400192	55	6167
2026-01-15 22:04:20.34	111.70	15.50	-42.2	-46.6	11.2	1.41e-03	0	60	0	701497344	55	6195
2026-01-15 22:04:21.35	111.90	15.45	-42.2	-46.8	10.9	1.84e-03	0	60	0	703594496	55	6318
2026-01-15 22:04:22.36	112.10	15.41	-42.4	-47.1	10.7	2.64e-03	0	60	0	705691648	55	6507
2026-01-15 22:04:23.37	112.30	15.36	-42.5	-47.3	10.4	3.55e-03	0	60	0	706740224	55	6695
2026-01-15 22:04:24.38	112.50	15.32	-42.5	-47.5	10.3	5.29e-03	0	60	0	708837376	55	6803
2026-01-15 22:04:25.39	112.69	15.27	-42.6	-47.5	10.2	5.99e-03	0	60	0	710934528	55	6843
2026-01-15 22:04:26.40	112.89	15.23	-42.6	-47.6	10.0	6.59e-03	0	60	0	713031680	55	6954
2026-01-15 22:04:27.41	113.09	15.18	-42.6	-47.6	10.1	7.55e-03	0	60	0	715128832	55	6881
2026-01-15 22:04:28.42	113.28	15.13	-42.6	-47.6	10.2	6.39e-03	0	60	0	716177408	55	6884
2026-01-15 22:04:29.43	113.48	15.09	-42.6	-47.5	10.2	6.47e-03	0	60	0	718274560	55	6856
2026-01-15 22:04:30.44	113.67	15.04	-42.6	-47.6	10.1	5.93e-03	0	60	0	720371712	55	6903
2026-01-15 22:04:31.45	113.87	14.99	-42.3	-47.6	10.1	6.85e-03	0	60	0	722468864	55	6890
2026-01-15 22:04:32.46	114.06	14.95	-42.5	-47.5	10.2	7.20e-03	0	60	0	724566016	55	6851
2026-01-15 22:04:33.46	114.25	14.90	-42.5	-47.5	10.2	6.63e-03	0	60	0	725614592	55	6857
2026-01-15 22:04:34.47	114.44	14.85	-42.4	-47.3	10.2	4.68e-03	0	60	0	727711744	55	6689
2026-01-15 22:04:35.48	114.63	14.80	-42.4	-47.3	10.4	4.66e-03	0	60	0	729808896	55	6677
2026-01-15 22:04:36.49	114.82	14.76	-42.4	-47.2	10.6	4.81e-03	0	60	0	731906048	55	6607
2026-01-15 22:04:37.50	115.01	14.71	-42.3	-47.2	10.4	4.29e-03	0	60	0	734003200	55	6600
2026-01-15 22:04:38.51	115.20	14.66	-42.4	-47.3	10.4	5.45e-03	0	60	0	735051776	55	6666
2026-01-15 22:04:39.52	115.39	14.61	-42.4	-47.2	10.5	4.45e-03	0	60	0	737148928	55	6579
2026-01-15 22:04:40.53	115.58	14.56	-42.4	-47.2	10.5	5.62e-03	0	60	0	739246080	55	6633
2026-01-15 22:04:41.54	115.77	14.51	-42.4	-47.2	10.5	5.19e-03	0	60	0	741343232	55	6641
2026-01-15 22:04:42.55	115.96	14.46	-42.4	-47.2	10.4	4.91e-03	0	60	0	743440384	55	6635
2026-01-15 22:04:43.56	116.14	14.41	-42.4	-47.1	10.6	4.00e-03	0	60	0	744488960	55	6533
2026-01-15 22:04:44.57	116.33	14.37	-42.3	-46.9	10.8	3.48e-03	0	60	0	746586112	55	6373
2026-01-15 22:04:45.58	116.51	14.32	-42.2	-46.7	11.0	2.07e-03	0	60	0	748683264	54	6571
2026-01-15 22:04:46.59	116.70	14.27	-42.0	-46.4	11.3	6.61e-03	0	60	0	750780416	54	6374
2026-01-15 22:04:47.60	116.88	14.22	-42.0	-46.4	11.3	1.26e-03	0	60	0	752877568	54	6390
2026-01-15 22:04:48.61	117.07	14.16	-42.1	-46.6	11.1	1.71e-03	0	60	0	754974720	54	6497
2026-01-15 22:04:49.62	117.25	14.11	-40.7	-46.5	11.2	1.51e-03	0	60	0	756023296	54	6424
2026-01-15 22:04:50.63	117.43	14.06	-42.1	-46.6	11.0	2.24e-03	0	60	0	758120448	54	6525
2026-01-15 22:04:51.63	117.61	14.01	-39.6	-46.4	10.3	1.10e-01	0	60	0	760217600	54	6374
2026-01-15 22:04:52.64	117.79	13.96	-39.4	-46.0	10.2	1.27e-01	0	60	0	762314752	52	6874
2026-01-15 22:04:53.65	117.97	13.91	-42.1	-46.7	10.7	8.19e-03	0	60	0	764411904	54	6574
2026-01-15 22:04:54.66	118.15	13.86	-42.0	-46.6	11.0	5.36e-03	0	60	0	765460480	54	6498
2026-01-15 22:04:55.67	118.33	13.81	-42.7	-47.3	8.5	2.98e-02	0	60	0	767557632	52	7956
2026-01-15 22:04:56.68	118.51	13.76	-40.5	-47.0	9.9	7.53e-02	0	60	0	769654784	54	6865
2026-01-15 22:04:57.69	118.69	13.71	-39.1	-47.0	8.9	4.63e-01	0	60	0	771751936	50	8613
2026-01-15 22:04:58.70	118.87	13.65	-42.5	-47.6	9.8	2.56e-02	0	60	0	773849088	55	6921
2026-01-15 22:04:59.71	119.04	13.60	-42.5	-47.7	8.9	1.54e-01	3	60	0	774897664	52	8307
2026-01-15 22:05:00.72	119.22	13.55	-43.0	-48.2	8.6	1.95e-02	0	60	0	776994816	55	7393
2026-01-15 22:05:01.73	119.40	13.50	-40.9	-47.4	9.6	5.31e-01	0	60	0	779091968	55	6729
2026-01-15 22:05:02.74	119.57	13.45	-41.8	-46.8	6.1	5.13e-01	35	60	0	781189120	44	11919
2026-01-15 22:05:03.75	119.75	13.39	-41.7	-46.7	10.2	4.12e-02	0	60	0	783286272	54	6626
2026-01-15 22:05:04.76	119.92	13.34	-41.5	-46.4	10.7	1.52e-02	0	60	0	784334848	54	6402
2026-01-15 22:05:05.77	120.09	13.29	-38.8	-46.1	10.9	9.42e-03	0	60	0	786432000	53	6513
2026-01-15 22:05:06.78	120.27	13.23	-41.0	-45.9	11.0	1.77e-01	0	60	0	788529152	53	6412
2026-01-15 22:05:07.79	120.44	13.18	-39.9	-46.2	9.7	1.24e-02	0	60	0	790626304	51	7436
2026-01-15 22:05:08.80	120.61	13.13	-41.4	-46.8	8.3	8.74e-02	4	60	0	792723456	51	7990
2026-01-15 22:05:09.80	120.78	13.08	-41.2	-46.5	8.5	9.54e-02	14	60	0	793772032	47	9638
2026-01-15 22:05:10.81	120.95	13.02	-40.9	-46.3	6.5	6.39e-01	2	60	0	795869184	41	13297
2026-01-15 22:05:11.82	121.12	12.97	-31.9	-43.9	5.3	8.63e-02	7	60	0	796917760	38	11987
2026-01-15 22:05:12.83	121.29	12.92	-41.4	-46.4	10.2	2.94e-01	0	60	0	799014912	53	6752
2026-01-15 22:05:13.84	121.46	12.86	-41.2	-46.3	10.6	1.64e-02	0	60	0	801112064	52	7089
2026-01-15 22:05:14.85	121.63	12.81	-39.7	-46.2	9.2	6.57e-02	0	60	0	802160640	50	7824
2026-01-15 22:05:15.86	121.79	12.75	-38.8	-46.2	8.2	8.29e-02	1	60	0	804257792	47	9373
2026-01-15 22:05:16.87	121.96	12.70	-41.0	-46.2	10.4	3.99e-02	0	60	0	806354944	53	6617
2026-01-15 22:05:17.88	122.13	12.65	-29.2	-45.6	7.0	1.06e+00	3	60	0	806354944	32	20539
2026-01-15 22:05:18.89	122.29	12.59	-42.0	-47.2	8.8	1.34e+00	0	60	0	806354944	42	13925
2026-01-15 22:05:19.90	122.46	12.54	-28.8	-42.5	4.5	4.02e-01	0	60	0	807403520	31	15341
2026-01-15 22:05:20.91	122.62	12.48	-27.4	-41.1	4.4	7.42e-01	0	60	104	807403520	26	17465
2026-01-15 22:05:21.92	122.78	12.43	-31.6	-44.3	4.7	1.28e+00	2	60	0	807403520	32	17862
2026-01-15 22:05:22.92	122.95	12.37	-34.3	-44.8	6.2	3.21e-01	47	60	0	808452096	41	11219
2026-01-15 22:05:23.93	123.11	12.32	-28.6	-41.7	4.6	1.22e+00	0	60	0	809500672	28	16665
2026-01-15 22:05:24.94	123.27	12.27	-30.8	-42.9	5.8	3.79e-01	23	60	0	810549248	35	12685
2026-01-15 22:05:25.95	123.43	12.21	-33.1	-45.2	7.7	1.08e+00	4	60	0	810549248	36	15617
2026-01-15 22:05:26.96	123.59	12.16	-36.5	-45.9	8.3	1.09e+00	1	60	0	811597824	44	10716
2026-01-15 22:05:27.97	123.75	12.10	-33.5	-45.4	3.2	1.44e+00	0	60	104	811597824	31	21283
2026-01-15 22:05:28.99	123.92	12.05	-30.7	-42.7	5.7	3.87e-01	5	60	0	811597824	44	7411
2026-01-15 22:05:30.00	124.07	11.99	-40.8	-46.3	9.5	9.64e-02	3	60	0	813694976	52	7091
2026-01-15 22:05:31.01	124.23	11.94	-31.3	-43.0	6.9	1.24e-01	50	60	0	814743552	41	9130
2026-01-15 22:05:32.02	124.39	11.88	-40.8	-47.2	4.2	1.38e+00	23	60	104	815792128	40	15633
2026-01-15 22:05:33.02	124.55	11.83	-33.2	-45.4	7.2	2.86e-01	14	60	0	815792128	40	12787
2026-01-15 22:05:34.03	124.70	11.77	-40.3	-46.9	8.0	2.52e-01	13	60	0	817889280	49	8990
2026-01-15 22:05:35.04	124.86	11.71	-39.7	-46.5	7.9	1.87e-01	15	60	0	819986432	49	8608
2026-01-15 22:05:36.05	125.02	11.66	-38.2	-45.9	7.7	4.11e-01	57	60	0	822083584	45	10165
2026-01-15 22:05:37.06	125.17	11.60	-30.4	-42.6	6.1	5.59e-01	83	60	0	823132160	37	10991
2026-01-15 22:05:38.07	125.33	11.55	-22.8	-35.4	4.3	8.94e-01	0	60	104	824180736	18	14230
2026-01-15 22:05:39.08	125.48	11.49	-31.0	-43.3	5.0	1.37e+00	0	60	104	824180736	32	15887
2026-01-15 22:05:40.09	125.63	11.44	-36.0	-45.1	5.5	1.34e+00	0	60	104	824180736	37	14599
2026-01-15 22:05:41.10	125.79	11.38	-23.0	-36.5	4.0	1.42e+00	0	60	104	824180736	20	14386
2026-01-15 22:05:42.11	125.94	11.32	-22.6	-36.0	3.9	1.49e+00	0	60	104	824180736	17	16214
2026-01-15 22:05:43.11	126.09	11.27	-32.1	-43.3	5.0	1.46e+00	0	60	104	824180736	29	18794
2026-01-15 22:05:44.12	126.24	11.21	-29.8	-42.9	4.6	1.42e+00	0	60	104	824180736	25	22715
2026-01-15 22:05:45.13	126.39	11.16	-27.4	-40.4	4.8	1.40e+00	0	60	104	824180736	25	16963
2026-01-15 22:05:46.14	126.54	11.10	-25.5	-40.5	4.9	1.42e+00	0	60	104	824180736	23	19202
2026-01-15 22:05:47.15	126.69	11.04	-27.6	-42.0	4.8	1.42e+00	0	60	104	824180736	22	24257
2026-01-15 22:05:48.16	126.84	10.99	-25.4	-39.5	4.8	1.44e+00	0	60	104	824180736	22	18189
2026-01-15 22:05:49.17	126.99	10.93	-23.7	-38.6	4.8	1.42e+00	0	60	104	824180736	19	19506
2026-01-15 22:05:50.18	127.14	10.88	-20.6	-33.3	5.1	1.49e+00	0	60	104	824180736	10	17790
2026-01-15 22:05:51.19	127.28	10.82	-19.3	-30.0	3.7	1.49e+00	0	60	104	824180736	7	14493
2026-01-15 22:05:52.20	127.43	10.76	-22.7	-34.0	3.8	1.50e+00	0	60	104	824180736	8	21609
2026-01-15 22:05:53.21	127.58	10.71	-22.5	-35.7	3.6	1.48e+00	0	60	104	824180736	11	22183
2026-01-15 22:05:54.21	127.72	10.65	-21.5	-35.5	4.3	1.46e+00	0	60	104	824180736	15	17107
2026-01-15 22:05:55.22	127.87	10.59	-21.2	-34.3	3.8	1.49e+00	0	60	104	824180736	10	19933
2026-01-15 22:05:56.23	128.01	10.54	-25.5	-40.3	2.9	1.50e+00	0	60	104	824180736	13	33442
2026-01-15 22:05:57.24	128.15	10.48	-22.5	-35.7	3.2	1.50e+00	0	60	104	824180736	14	18695
2026-01-15 22:05:58.25	128.30	10.43	-26.0	-40.8	4.1	1.48e+00	0	60	104	824180736	21	22509
2026-01-15 22:05:59.26	128.44	10.37	-24.0	-39.6	3.7	1.48e+00	0	60	104	824180736	19	21787
2026-01-15 22:06:00.27	128.58	10.31	-24.7	-37.7	3.0	1.49e+00	0	60	104	824180736	17	19760
2026-01-15 22:06:01.28	128.73	10.26	-24.9	-34.7	3.3	1.49e+00	0	60	104	824180736	12	18646
2026-01-15 22:06:02.29	128.87	10.20	-22.8	-35.2	3.3	1.49e+00	0	60	104	824180736	15	16508
2026-01-15 22:06:03.29	129.01	10.14	-22.1	-35.2	3.4	1.50e+00	0	60	104	824180736	12	19634
2026-01-15 22:06:04.30	129.15	10.09	-23.6	-35.4	3.2	1.50e+00	0	60	104	824180736	10	22600
2026-01-15 22:06:05.31	129.29	10.03	-21.8	-33.3	3.4	1.48e+00	0	60	104	824180736	8	19861
2026-01-15 22:06:06.32	129.43	9.97	-12.2	-25.4	3.2	1.48e+00	0	60	104	824180736	2	11414
2026-01-15 22:06:07.33	129.56	9.92	-19.5	-33.6	3.0	1.47e+00	0	60	104	824180736	10	18515
2026-01-15 22:06:08.34	129.70	9.86	-12.4	-23.8	3.6	1.48e+00	0	60	104	824180736	3	8947
2026-01-15 22:06:09.35	129.84	9.80	-12.8	-23.7	3.8	1.50e+00	0	60	0	824180736	0	10458
2026-01-15 22:06:10.36	129.98	9.75	-21.1	-33.4	3.5	1.50e+00	0	60	104	824180736	13	15104
2026-01-15 22:06:11.37	130.11	9.69	-21.0	-32.3	4.0	1.49e+00	0	60	104	824180736	5	21196
2026-01-15 22:06:12.38	130.25	9.63	-22.1	-36.7	3.3	1.49e+00	0	60	104	824180736	14	21010
2026-01-15 22:06:13.39	130.39	9.58	-25.1	-38.0	3.2	1.47e+00	0	60	104	824180736	17	20367
2026-01-15 22:06:14.40	130.52	9.52	-14.6	-33.6	3.2	1.47e+00	0	60	104	824180736	10	18379
2026-01-15 22:06:15.41	130.66	9.46	-23.8	-34.7	3.2	1.50e+00	0	60	104	824180736	6	26436
2026-01-15 22:06:16.42	130.79	9.40	-16.2	-28.7	3.8	1.50e+00	0	61	104	824180736	1	17628
2026-01-15 22:06:17.43	130.92	9.35	-18.0	-31.8	3.9	1.47e+00	0	60	104	824180736	8	16734
2026-01-15 22:06:18.44	131.06	9.29	-23.9	-38.5	3.3	1.48e+00	0	60	104	824180736	15	24267
2026-01-15 22:06:19.45	131.19	9.23	-15.5	-31.3	3.3	1.48e+00	0	60	104	824180736	6	17885
2026-01-15 22:06:20.46	131.32	9.18	-18.2	-32.0	3.9	1.48e+00	0	60	104	824180736	7	18265
2026-01-15 22:06:21.46	131.45	9.12	-17.6	-29.9	3.8	1.51e+00	0	60	104	824180736	2	19052
2026-01-15 22:06:22.47	131.58	9.06	-21.2	-32.9	3.6	1.49e+00	0	60	104	824180736	3	25330
2026-01-15 22:06:23.48	131.71	9.01	-19.7	-32.3	3.8	1.48e+00	0	61	104	824180736	9	16867
2026-01-15 22:06:24.49	131.85	8.95	-14.7	-28.6	3.9	1.48e+00	0	60	104	824180736	6	13099
2026-01-15 22:06:25.50	131.97	8.89	-20.7	-34.4	3.5	1.48e+00	0	60	104	824180736	13	17030
2026-01-15 22:06:26.51	132.10	8.84	-11.6	-21.5	3.6	1.50e+00	0	60	104	824180736	3	6836
2026-01-15 22:06:27.52	132.23	8.78	-23.0	-37.7	3.1	1.51e+00	0	60	104	824180736	5	39140
2026-01-15 22:06:28.53	132.36	8.72	-24.2	-38.9	3.2	1.48e+00	0	60	104	824180736	14	26978
2026-01-15 22:06:29.54	132.49	8.67	-24.0	-39.6	3.5	1.48e+00	0	60	104	824180736	18	23135
2026-01-15 22:06:30.55	132.62	8.61	-22.1	-35.2	3.6	1.47e+00	0	60	104	824180736	12	19710
2026-01-15 22:06:31.56	132.74	8.55	-20.8	-35.9	3.6	1.50e+00	0	60	104	824180736	11	22522
2026-01-15 22:06:32.57	132.87	8.50	-24.3	-39.1	3.1	1.48e+00	0	60	104	824180736	16	24565
2026-01-15 22:06:33.58	133.00	8.44	-19.8	-36.3	3.2	1.49e+00	0	61	104	824180736	12	22505
2026-01-15 22:06:34.59	133.12	8.38	-22.7	-36.2	3.7	1.49e+00	0	60	104	824180736	1	41898
2026-01-15 22:06:35.60	133.25	8.33	-21.0	-36.0	3.7	1.50e+00	0	60	104	824180736	11	22969
2026-01-15 22:06:36.61	133.37	8.27	-24.1	-34.1	4.0	1.51e+00	0	60	104	824180736	2	30808
2026-01-15 22:06:37.62	133.49	8.21	-29.1	-45.7	4.0	1.51e+00	0	60	104	824180736	23	35006
2026-01-15 22:06:38.63	133.62	8.16	-16.8	-29.4	3.8	1.51e+00	0	60	104	824180736	5	15132
2026-01-15 22:06:39.64	133.74	8.10	-28.5	-44.7	3.5	1.51e+00	0	60	104	824180736	23	31387
2026-01-15 22:06:40.64	133.86	8.04	-15.2	-36.9	4.4	1.51e+00	0	60	104	824180736	10	27062
2026-01-15 22:06:41.66	133.99	7.99	-19.2	-41.8	3.6	1.51e+00	0	60	104	824180736	21	25017
2026-01-15 22:06:42.67	134.11	7.93	-20.2	-32.4	3.5	1.51e+00	0	60	104	824180736	11	15209
2026-01-15 22:06:43.67	134.23	7.87	-44.7	-59.5	3.8	1.50e+00	0	60	104	824180736	60	20355
2026-01-15 22:06:44.68	134.35	7.82	-45.0	-59.9	3.8	1.49e+00	0	60	104	824180736	60	21352
2026-01-15 22:06:45.70	134.47	7.76	-45.3	-60.0	3.8	1.49e+00	0	60	104	824180736	61	20534
2026-01-15 22:06:46.71	134.59	7.70	-45.4	-60.2	3.8	1.49e+00	0	61	104	824180736	61	20906
2026-01-15 22:06:47.72	134.71	7.65	-45.5	-60.3	3.8	1.49e+00	0	60	104	824180736	61	21202
2026-01-15 22:06:48.72	134.83	7.59	-45.6	-60.3	3.8	1.49e+00	0	60	104	824180736	61	21243
2026-01-15 22:06:49.73	134.94	7.53	-45.7	-60.5	3.8	1.49e+00	0	60	104	824180736	61	21538
2026-01-15 22:06:50.74	135.06	7.48	-45.8	-60.5	3.8	1.49e+00	0	60	104	824180736	62	20433
2026-01-15 22:06:51.75	135.18	7.42	-45.7	-60.5	3.8	1.49e+00	0	60	104	824180736	62	20386
2026-01-15 22:06:52.76	135.30	7.36	-45.6	-60.3	3.8	1.49e+00	0	60	104	824180736	62	19946
2026-01-15 22:06:53.77	135.41	7.31	-45.6	-60.2	3.8	1.49e+00	0	60	104	824180736	62	19682
2026-01-15 22:06:54.78	135.53	7.25	-45.5	-60.1	3.8	1.49e+00	0	60	104	824180736	62	19480
2026-01-15 22:06:55.79	135.65	7.19	-45.5	-60.0	3.8	1.49e+00	0	60	104	824180736	62	19340
2026-01-15 22:06:56.80	135.76	7.14	-45.5	-60.0	3.8	1.49e+00	0	60	104	824180736	62	19349
2026-01-15 22:06:57.81	135.88	7.08	-45.4	-59.9	3.8	1.49e+00	0	60	104	824180736	62	19098
2026-01-15 22:06:58.82	135.99	7.02	-45.4	-60.0	3.8	1.49e+00	0	60	104	824180736	62	19172
2026-01-15 22:06:59.83	136.11	6.97	-45.4	-60.0	3.8	1.49e+00	0	60	104	824180736	62	19175
2026-01-15 22:07:00.84	136.22	6.91	-45.4	-59.9	3.8	1.49e+00	0	60	104	824180736	62	19148
2026-01-15 22:07:01.85	136.33	6.86	-45.4	-59.9	3.8	1.49e+00	0	60	104	824180736	62	19096
2026-01-15 22:07:02.86	136.45	6.80	-45.4	-59.9	3.8	1.49e+00	0	60	104	824180736	62	19133
2026-01-15 22:07:03.87	136.56	6.74	-45.4	-59.9	3.8	1.49e+00	0	60	104	824180736	62	19064
2026-01-15 22:07:04.88	136.67	6.69	-45.4	-59.9	3.8	1.49e+00	0	61	104	824180736	62	19137
2026-01-15 22:07:05.89	136.78	6.63	-45.4	-59.9	3.8	1.49e+00	0	60	104	824180736	62	19051
2026-01-15 22:07:06.90	136.89	6.58	-45.4	-59.9	3.8	1.49e+00	0	60	104	824180736	62	19082
2026-01-15 22:07:07.91	137.00	6.52	-45.4	-59.9	3.8	1.49e+00	0	60	104	824180736	62	19064
2026-01-15 22:07:08.92	137.11	6.46	-45.4	-59.9	3.8	1.49e+00	0	60	104	824180736	62	19060
2026-01-15 22:07:09.93	137.22	6.41	-45.4	-59.9	3.8	1.49e+00	0	60	104	824180736	62	19072
2026-01-15 22:07:10.94	137.33	6.35	-45.4	-59.9	3.8	1.49e+00	0	60	104	824180736	62	19048
2026-01-15 22:07:11.95	137.44	6.30	-45.4	-59.9	3.8	1.49e+00	0	60	104	824180736	62	19051
2026-01-15 22:07:12.96	137.55	6.24	-45.4	-59.9	3.8	1.49e+00	0	60	104	824180736	62	19011
2026-01-15 22:07:13.97	137.66	6.18	-45.4	-59.9	3.8	1.49e+00	0	60	104	824180736	62	19044
2026-01-15 22:07:14.98	137.77	6.13	-45.4	-59.9	3.8	1.49e+00	0	61	104	824180736	62	18999
2026-01-15 22:07:15.98	137.88	6.07	-45.4	-59.9	3.8	1.49e+00	0	60	104	824180736	62	19021
2026-01-15 22:07:16.99	137.98	6.02	-45.4	-59.9	3.8	1.49e+00	0	60	104	824180736	62	19011
2026-01-15 22:07:18.00	138.09	5.96	-45.3	-59.9	3.8	1.49e+00	0	61	104	824180736	62	18991
2026-01-15 22:07:19.01	138.20	5.91	-45.4	-59.9	3.8	1.49e+00	0	60	104	824180736	62	19001
2026-01-15 22:07:20.02	138.30	5.85	-45.3	-59.9	3.8	1.49e+00	0	60	104	824180736	62	18974
2026-01-15 22:07:21.03	138.41	5.79	-45.3	-59.9	3.8	1.49e+00	0	60	104	824180736	62	18966
2026-01-15 22:07:22.04	138.51	5.74	-45.3	-59.9	3.8	1.49e+00	0	60	104	824180736	62	19021
2026-01-15 22:07:23.05	138.62	5.68	-45.3	-59.9	3.8	1.49e+00	0	60	104	824180736	62	19039
2026-01-15 22:07:24.06	138.72	5.63	-45.3	-59.9	3.8	1.49e+00	0	60	104	824180736	62	19025
2026-01-15 22:07:25.07	138.83	5.57	-45.3	-59.9	3.8	1.49e+00	0	60	104	824180736	62	19039
2026-01-15 22:07:26.08	138.93	5.52	-45.3	-59.9	3.8	1.49e+00	0	60	104	824180736	62	19020
2026-01-15 22:07:27.09	139.03	5.46	-45.3	-59.9	3.8	1.49e+00	0	60	104	824180736	62	19012
2026-01-15 22:07:28.10	139.14	5.41	-45.4	-59.9	3.8	1.49e+00	0	60	104	824180736	62	18986
2026-01-15 22:07:29.12	139.24	5.35	-45.3	-59.8	3.8	1.49e+00	0	61	104	824180736	62	18896
2026-01-15 22:07:30.12	139.34	5.30	-45.3	-59.9	3.8	1.49e+00	0	61	104	824180736	62	19002
2026-01-15 22:07:31.13	139.44	5.24	-45.3	-59.9	3.8	1.49e+00	0	60	104	824180736	62	18968
2026-01-15 22:07:32.14	139.54	5.19	-45.3	-59.9	3.8	1.49e+00	0	60	104	824180736	62	18959
2026-01-15 22:07:33.15	139.65	5.13	-45.3	-59.9	3.8	1.49e+00	0	61	104	824180736	62	18969
2026-01-15 22:07:34.16	139.75	5.08	-45.3	-59.8	3.8	1.49e+00	0	60	104	824180736	62	18938
2026-01-15 22:07:35.17	139.85	5.02	-45.3	-59.9	3.8	1.49e+00	0	60	104	824180736	62	18955
2026-01-15 22:07:36.18	139.95	4.97	-45.3	-59.8	3.8	1.49e+00	0	60	104	824180736	62	18911
2026-01-15 22:07:37.19	140.05	4.91	-45.3	-59.9	3.8	1.49e+00	0	60	104	824180736	62	18965
2026-01-15 22:07:38.20	140.15	4.86	-45.3	-59.8	3.8	1.49e+00	0	60	104	824180736	62	18933
2026-01-15 22:07:39.22	140.25	4.80	-45.3	-59.9	3.8	1.49e+00	0	60	104	824180736	62	18989
2026-01-15 22:07:40.23	140.34	4.75	-45.3	-59.8	3.8	1.49e+00	0	60	104	824180736	62	18918
2026-01-15 22:07:41.24	140.44	4.69	-45.3	-59.9	3.8	1.49e+00	0	61	104	824180736	62	18950
2026-01-15 22:07:42.25	140.54	4.64	-45.3	-59.8	3.8	1.49e+00	0	61	104	824180736	62	18938
2026-01-15 22:07:43.26	140.64	4.58	-45.3	-59.8	3.8	1.49e+00	0	61	104	824180736	62	18919
2026-01-15 22:07:44.27	140.73	4.53	-45.3	-59.8	3.8	1.49e+00	0	60	104	824180736	62	18929
2026-01-15 22:07:45.28	140.83	4.47	-45.3	-59.8	3.8	1.49e+00	0	60	104	824180736	62	18922
2026-01-15 22:07:46.29	140.93	4.42	-45.3	-59.9	3.8	1.49e+00	0	61	104	824180736	62	18985
2026-01-15 22:07:47.29	141.02	4.36	-45.3	-59.8	3.8	1.49e+00	0	60	104	824180736	62	18911
2026-01-15 22:07:48.31	141.12	4.31	-45.3	-59.8	3.8	1.49e+00	0	60	104	824180736	62	18931
2026-01-15 22:07:49.31	141.21	4.25	-45.3	-59.8	3.8	1.49e+00	0	60	104	824180736	62	18895
2026-01-15 22:07:50.32	141.31	4.20	-45.3	-59.8	3.8	1.49e+00	0	60	104	824180736	62	18917
2026-01-15 22:07:51.33	141.40	4.15	-45.3	-59.9	3.8	1.49e+00	0	60	104	824180736	62	18962
2026-01-15 22:07:52.34	141.50	4.09	-45.3	-59.9	3.8	1.49e+00	0	61	104	824180736	62	18957
2026-01-15 22:07:53.35	141.59	4.04	-45.3	-59.8	3.8	1.49e+00	0	60	104	824180736	62	18913
2026-01-15 22:07:54.36	141.69	3.98	-45.3	-59.8	3.8	1.49e+00	0	60	104	824180736	62	18868
2026-01-15 22:07:55.37	141.78	3.93	-45.3	-59.8	3.8	1.49e+00	0	60	104	824180736	62	18938
2026-01-15 22:07:56.38	141.87	3.87	-45.3	-59.8	3.8	1.49e+00	0	61	104	824180736	62	18885
2026-01-15 22:07:57.39	141.97	3.82	-45.3	-59.9	3.8	1.49e+00	0	60	104	824180736	62	19001
2026-01-15 22:07:58.40	142.06	3.77	-45.3	-59.9	3.8	1.49e+00	0	60	104	824180736	62	18996
2026-01-15 22:07:59.41	142.15	3.71	-45.3	-59.8	3.8	1.49e+00	0	60	104	824180736	62	18904
2026-01-15 22:08:00.42	142.24	3.66	-45.3	-59.8	3.8	1.49e+00	0	60	104	824180736	62	18900
2026-01-15 22:08:01.43	142.33	3.60	-45.3	-59.8	3.8	1.49e+00	0	60	104	824180736	62	18862
