passes_logs/2026/01/13/R2M6_AANII_01/R2M6_AANII_01__20260113_010738_AQUA_rec.log

#Pass ID: 20260113_010738_AQUA
#Satellite: AQUA
#Configuration: AQUA
#almurnet v.1.7.20240730
#Start time: 2026-01-13 01:07:39

#Version: 2.2.20231116
#Station: R2M6_AANII_01
#Location: 30.233357 lon 59.946436 lat
#TLE: 1 27424U 02022A   26012.29577270  .00001027  00000+0  21555-3 0  9995
#TLE: 2 27424  98.4078 338.6778 0002034  81.5885  29.6294 14.61817302260499

#Time	Az	El	Level	Level2	SNR	BER	BlckErr	Temp	State	Recorded	gain1	gain2
2026-01-13 01:07:39.00	25.07	7.03	-30.7	-36.6	5.2	7.07e-01	0	39	0	0	22	7100
2026-01-13 01:07:40.00	25.13	7.10	-31.2	-37.9	5.0	7.10e-01	0	39	104	0	23	7796
2026-01-13 01:07:41.00	25.20	7.18	-31.0	-36.5	14.2	6.04e-01	0	39	0	0	23	6760
2026-01-13 01:07:42.00	25.27	7.25	-31.1	-37.2	14.1	6.03e-01	0	39	0	1572864	22	7320
2026-01-13 01:07:43.01	25.33	7.33	-30.9	-36.6	14.6	6.04e-01	0	39	0	3670016	22	6908
2026-01-13 01:07:44.02	25.40	7.41	-30.9	-36.3	14.8	6.03e-01	0	39	0	5242880	22	6750
2026-01-13 01:07:45.01	25.47	7.49	-30.8	-36.2	15.0	6.02e-01	0	40	0	7340032	22	6676
2026-01-13 01:07:46.01	25.54	7.56	-30.9	-36.4	14.9	6.03e-01	0	40	0	9437184	22	6786
2026-01-13 01:07:47.02	25.61	7.64	-30.8	-36.1	15.0	6.04e-01	0	39	0	11010048	22	6604
2026-01-13 01:07:48.02	25.67	7.72	-30.6	-35.3	15.7	6.03e-01	0	40	0	13107200	22	6182
2026-01-13 01:07:49.03	25.74	7.80	-30.3	-34.7	16.4	6.02e-01	0	40	0	14680064	21	6008
2026-01-13 01:07:50.02	25.81	7.88	-30.1	-34.4	16.6	6.02e-01	0	40	0	16777216	21	5850
2026-01-13 01:07:51.03	25.88	7.96	-30.0	-33.9	16.9	6.03e-01	0	40	0	18350080	21	5646
2026-01-13 01:07:52.02	25.95	8.03	-29.9	-34.0	17.2	6.06e-01	0	40	0	20447232	20	5796
2026-01-13 01:07:53.03	26.02	8.11	-29.9	-34.0	17.2	6.02e-01	0	40	0	22544384	20	5805
2026-01-13 01:07:54.04	26.10	8.19	-29.9	-34.1	17.2	6.05e-01	0	40	0	24117248	20	5818
2026-01-13 01:07:55.05	26.17	8.27	-30.0	-34.4	16.9	6.05e-01	0	40	0	26214400	20	5979
2026-01-13 01:07:56.05	26.24	8.35	-29.9	-33.9	17.2	6.03e-01	0	40	0	28311552	20	5749
2026-01-13 01:07:57.06	26.31	8.44	-30.0	-34.3	17.0	6.03e-01	0	40	0	29884416	20	5906
2026-01-13 01:07:58.06	26.39	8.52	-30.3	-34.7	16.4	6.03e-01	0	40	0	31981568	21	5988
2026-01-13 01:07:59.06	26.46	8.60	-29.9	-33.7	17.1	6.03e-01	0	40	0	33554432	21	5557
2026-01-13 01:08:00.07	26.53	8.68	-29.8	-33.7	17.4	6.03e-01	0	40	0	35651584	20	5655
2026-01-13 01:08:01.07	26.61	8.76	-29.9	-34.2	17.1	6.03e-01	0	40	0	37224448	20	5891
2026-01-13 01:08:02.07	26.68	8.84	-30.0	-34.3	17.0	6.03e-01	0	40	0	39321600	20	5938
2026-01-13 01:08:03.08	26.76	8.92	-29.9	-34.1	17.2	6.05e-01	0	40	0	41418752	20	5829
2026-01-13 01:08:04.08	26.83	9.00	-29.9	-34.2	17.1	6.02e-01	0	40	0	42991616	20	5866
2026-01-13 01:08:05.09	26.91	9.09	-30.0	-34.3	17.1	6.03e-01	0	40	0	45088768	20	5915
2026-01-13 01:08:06.10	26.99	9.17	-30.0	-34.4	17.1	6.02e-01	0	40	0	46661632	20	5942
2026-01-13 01:08:07.10	27.06	9.25	-30.1	-34.2	16.8	6.03e-01	0	40	0	48758784	21	5740
2026-01-13 01:08:08.11	27.14	9.34	-30.0	-33.7	17.1	6.01e-01	0	40	0	50855936	21	5548
2026-01-13 01:08:09.11	27.22	9.42	-29.9	-33.5	17.3	6.05e-01	0	40	0	52428800	21	5454
2026-01-13 01:08:10.12	27.30	9.50	-30.0	-34.1	17.2	6.05e-01	0	40	0	54525952	20	5823
2026-01-13 01:08:11.12	27.38	9.59	-29.9	-34.0	17.4	6.04e-01	0	40	0	56098816	20	5776
2026-01-13 01:08:12.13	27.46	9.67	-30.0	-34.4	17.2	6.04e-01	0	40	0	58195968	20	5920
2026-01-13 01:08:13.13	27.53	9.76	-30.2	-34.4	16.8	6.03e-01	0	40	0	59768832	21	5815
2026-01-13 01:08:14.14	27.61	9.84	-29.9	-33.3	17.5	6.02e-01	0	40	0	61865984	21	5359
2026-01-13 01:08:15.15	27.70	9.93	-30.2	-34.2	17.0	6.05e-01	0	40	0	63963136	21	5716
2026-01-13 01:08:16.15	27.78	10.01	-29.9	-33.8	17.5	6.04e-01	0	40	0	65536000	20	5671
2026-01-13 01:08:17.16	27.86	10.10	-30.0	-34.3	17.3	6.04e-01	0	40	0	67633152	20	5874
2026-01-13 01:08:18.16	27.94	10.19	-29.8	-33.7	17.6	6.00e-01	0	40	0	69730304	20	5638
2026-01-13 01:08:19.17	28.02	10.27	-29.7	-33.2	18.0	6.05e-01	0	40	0	71303168	20	5419
2026-01-13 01:08:20.17	28.11	10.36	-29.6	-33.0	18.1	6.05e-01	0	40	0	73400320	20	5336
2026-01-13 01:08:21.18	28.19	10.45	-29.6	-33.0	18.1	6.03e-01	0	40	0	74973184	20	5314
2026-01-13 01:08:22.18	28.27	10.53	-29.5	-32.8	18.2	6.03e-01	0	40	0	77070336	20	5250
2026-01-13 01:08:23.19	28.36	10.62	-29.4	-32.4	18.5	6.02e-01	0	40	0	78643200	20	5094
2026-01-13 01:08:24.19	28.44	10.71	-29.3	-32.1	18.7	6.03e-01	0	40	0	80740352	20	4996
2026-01-13 01:08:25.19	28.53	10.80	-29.4	-32.8	18.7	6.03e-01	0	40	0	82837504	19	5325
2026-01-13 01:08:26.19	28.61	10.89	-29.4	-32.8	18.7	6.04e-01	0	40	0	84410368	19	5342
2026-01-13 01:08:27.20	28.70	10.97	-29.4	-33.0	18.5	6.03e-01	0	40	0	86507520	19	5418
2026-01-13 01:08:28.20	28.79	11.06	-29.5	-33.0	18.6	6.04e-01	0	41	0	88080384	19	5424
2026-01-13 01:08:29.20	28.88	11.15	-29.4	-33.0	18.5	6.03e-01	0	40	0	90177536	19	5417
2026-01-13 01:08:30.21	28.97	11.24	-29.4	-32.8	18.7	6.02e-01	0	41	0	92274688	19	5364
2026-01-13 01:08:31.21	29.05	11.33	-29.3	-32.5	18.9	6.04e-01	0	40	0	93847552	19	5248
2026-01-13 01:08:32.21	29.14	11.42	-29.3	-32.5	18.9	6.04e-01	0	40	0	95944704	19	5242
2026-01-13 01:08:33.22	29.23	11.51	-29.3	-32.5	18.9	6.03e-01	0	41	0	97517568	19	5237
2026-01-13 01:08:34.23	29.32	11.60	-29.3	-32.6	18.8	6.05e-01	0	41	0	99614720	19	5262
2026-01-13 01:08:35.23	29.42	11.70	-29.4	-32.8	18.8	6.04e-01	0	41	0	101711872	19	5321
2026-01-13 01:08:36.24	29.51	11.79	-29.4	-33.0	18.2	6.05e-01	0	41	0	103284736	19	5433
2026-01-13 01:08:37.25	29.60	11.88	-29.3	-32.5	18.8	6.06e-01	0	41	0	105381888	19	5220
2026-01-13 01:08:38.26	29.69	11.97	-29.2	-32.3	18.7	6.01e-01	0	41	0	106954752	19	5156
2026-01-13 01:08:39.26	29.79	12.07	-29.1	-32.2	18.7	6.05e-01	0	41	0	109051904	19	5144
2026-01-13 01:08:40.26	29.88	12.16	-29.2	-32.3	18.8	6.03e-01	0	41	0	111149056	19	5177
2026-01-13 01:08:41.27	29.98	12.25	-29.2	-32.4	18.8	6.03e-01	0	41	0	112721920	19	5181
2026-01-13 01:08:42.28	30.07	12.35	-29.3	-32.6	18.7	6.03e-01	0	41	0	114819072	19	5269
2026-01-13 01:08:43.28	30.17	12.44	-29.3	-32.5	18.9	6.03e-01	0	41	0	116391936	19	5236
2026-01-13 01:08:44.29	30.26	12.53	-29.4	-32.9	18.6	6.04e-01	0	41	0	118489088	19	5379
2026-01-13 01:08:45.28	30.36	12.63	-29.4	-33.1	18.3	6.03e-01	0	41	0	120061952	19	5468
2026-01-13 01:08:46.29	30.46	12.72	-29.2	-32.5	18.5	6.04e-01	0	41	0	122159104	19	5275
2026-01-13 01:08:47.30	30.56	12.82	-29.1	-32.2	18.6	6.06e-01	0	41	0	124256256	19	5150
2026-01-13 01:08:48.30	30.66	12.91	-29.0	-32.5	18.7	6.03e-01	0	41	0	125829120	18	5391
2026-01-13 01:08:49.31	30.76	13.01	-29.1	-32.1	18.7	6.01e-01	0	41	0	127926272	19	5121
2026-01-13 01:08:50.32	30.86	13.11	-29.1	-32.2	18.8	6.01e-01	0	41	0	130023424	19	5129
2026-01-13 01:08:51.32	30.96	13.20	-29.2	-32.4	18.9	6.05e-01	0	41	0	131596288	19	5192
2026-01-13 01:08:52.33	31.06	13.30	-29.1	-32.2	19.1	6.04e-01	0	41	0	133693440	19	5123
2026-01-13 01:08:53.33	31.16	13.40	-29.2	-32.5	18.8	6.02e-01	0	41	0	135266304	19	5234
2026-01-13 01:08:54.34	31.27	13.50	-29.3	-32.8	18.4	6.03e-01	0	41	0	137363456	19	5369
2026-01-13 01:08:55.34	31.37	13.59	-29.0	-32.2	18.6	6.03e-01	0	41	0	138936320	19	5158
2026-01-13 01:08:56.34	31.48	13.69	-29.0	-32.5	18.9	6.03e-01	0	41	0	141033472	18	5367
2026-01-13 01:08:57.34	31.58	13.79	-29.1	-32.2	18.9	6.01e-01	0	41	0	143130624	19	5134
2026-01-13 01:08:58.35	31.69	13.89	-29.0	-32.1	18.8	6.02e-01	0	41	0	144703488	19	5118
2026-01-13 01:08:59.35	31.79	13.99	-28.9	-32.3	18.8	6.02e-01	0	41	0	146800640	18	5343
2026-01-13 01:09:00.36	31.90	14.09	-28.9	-32.4	18.9	6.03e-01	0	41	0	148373504	18	5348
2026-01-13 01:09:01.36	32.01	14.19	-29.1	-32.6	18.9	6.03e-01	0	41	0	150470656	18	5409
2026-01-13 01:09:02.37	32.12	14.29	-29.1	-32.1	19.0	6.01e-01	0	41	0	152567808	19	5073
2026-01-13 01:09:03.38	32.23	14.39	-29.2	-32.4	18.9	6.02e-01	0	41	0	154140672	19	5173
2026-01-13 01:09:04.39	32.34	14.50	-29.4	-32.9	18.6	6.05e-01	0	41	0	156237824	19	5355
2026-01-13 01:09:05.39	32.45	14.60	-29.2	-32.3	19.1	6.01e-01	0	41	0	157810688	19	5133
2026-01-13 01:09:06.40	32.56	14.70	-29.2	-32.2	19.3	6.02e-01	0	41	0	159907840	19	5092
2026-01-13 01:09:07.40	32.68	14.80	-29.1	-32.1	19.3	6.04e-01	0	41	0	162004992	19	5050
2026-01-13 01:09:08.41	32.79	14.91	-29.3	-32.4	19.1	6.03e-01	0	41	0	163577856	19	5168
2026-01-13 01:09:09.41	32.91	15.01	-29.2	-32.3	19.1	6.03e-01	0	41	0	165675008	19	5142
2026-01-13 01:09:10.42	33.02	15.11	-29.2	-32.1	19.3	6.01e-01	0	41	0	167247872	19	5075
2026-01-13 01:09:11.43	33.14	15.22	-29.2	-32.2	19.2	6.05e-01	0	41	0	169345024	19	5082
2026-01-13 01:09:12.43	33.26	15.32	-29.0	-32.2	19.5	6.03e-01	0	41	0	171442176	18	5198
2026-01-13 01:09:13.44	33.37	15.43	-29.1	-32.4	19.5	6.03e-01	0	41	0	173015040	18	5267
2026-01-13 01:09:14.45	33.49	15.53	-29.0	-32.2	19.6	6.03e-01	0	41	0	175112192	18	5202
2026-01-13 01:09:15.45	33.61	15.64	-28.9	-32.0	19.7	6.01e-01	0	41	0	176685056	18	5142
2026-01-13 01:09:16.45	33.73	15.74	-28.9	-32.1	19.7	6.05e-01	0	41	0	178782208	18	5152
2026-01-13 01:09:17.45	33.85	15.85	-28.9	-32.1	19.7	6.01e-01	0	41	0	180879360	18	5148
2026-01-13 01:09:18.46	33.98	15.96	-28.8	-31.8	19.9	6.01e-01	0	41	0	182452224	18	5044
2026-01-13 01:09:19.46	34.10	16.07	-27.8	-30.7	19.9	6.05e-01	0	41	0	184549376	18	5041
2026-01-13 01:09:20.47	34.22	16.17	-28.8	-31.6	20.0	6.02e-01	0	41	0	186122240	18	4996
2026-01-13 01:09:21.47	34.35	16.28	-28.8	-31.7	19.8	6.01e-01	0	41	0	188219392	18	5018
2026-01-13 01:09:22.48	34.48	16.39	-28.8	-31.6	19.8	6.04e-01	0	41	0	190316544	18	4987
2026-01-13 01:09:23.48	34.60	16.50	-28.8	-31.7	19.9	6.03e-01	0	41	0	191889408	18	5010
2026-01-13 01:09:24.49	34.73	16.61	-28.9	-32.0	19.4	6.02e-01	0	41	0	193986560	18	5127
2026-01-13 01:09:25.50	34.86	16.72	-29.0	-32.1	19.3	6.03e-01	0	41	0	195559424	18	5142
2026-01-13 01:09:26.50	34.99	16.83	-29.0	-32.1	19.7	6.02e-01	0	41	0	197656576	18	5141
2026-01-13 01:09:27.51	35.12	16.94	-29.0	-32.2	19.7	6.04e-01	0	41	0	199753728	18	5194
2026-01-13 01:09:28.52	35.25	17.05	-29.1	-31.8	19.7	6.04e-01	0	41	0	201326592	19	4924
2026-01-13 01:09:29.52	35.39	17.16	-29.0	-32.0	19.8	6.03e-01	0	41	0	203423744	18	5121
2026-01-13 01:09:30.52	35.52	17.28	-28.9	-32.0	19.8	6.05e-01	0	41	0	204996608	18	5115
2026-01-13 01:09:31.52	35.65	17.39	-29.0	-32.2	19.7	6.03e-01	0	41	0	207093760	18	5195
2026-01-13 01:09:32.53	35.79	17.50	-29.1	-31.8	19.7	6.02e-01	0	41	0	208666624	19	4922
2026-01-13 01:09:33.54	35.93	17.62	-29.0	-31.6	19.8	6.02e-01	0	41	0	210763776	19	4853
2026-01-13 01:09:34.54	36.07	17.73	-29.0	-31.5	19.9	6.01e-01	0	41	0	212860928	19	4834
2026-01-13 01:09:35.55	36.21	17.84	-28.9	-31.5	19.9	6.01e-01	0	41	0	214433792	19	4834
2026-01-13 01:09:36.55	36.34	17.96	-28.9	-31.9	19.9	6.03e-01	0	41	0	216530944	18	5089
2026-01-13 01:09:37.56	36.49	18.07	-28.9	-31.8	20.0	6.02e-01	0	41	0	218628096	18	5034
2026-01-13 01:09:38.56	36.63	18.19	-28.9	-31.7	20.0	6.02e-01	0	41	0	220200960	18	5019
2026-01-13 01:09:39.56	36.77	18.30	-29.1	-32.3	19.7	6.02e-01	0	41	0	222298112	18	5204
2026-01-13 01:09:40.57	36.92	18.42	-29.1	-31.8	19.7	6.04e-01	0	41	0	223870976	19	4942
2026-01-13 01:09:41.58	37.06	18.54	-28.9	-31.4	19.9	6.02e-01	0	41	0	225968128	19	4802
2026-01-13 01:09:42.58	37.21	18.65	-28.9	-31.4	19.9	6.03e-01	0	41	0	227540992	19	4794
2026-01-13 01:09:43.58	37.36	18.77	-28.9	-31.3	20.0	6.04e-01	0	41	0	229638144	19	4771
2026-01-13 01:09:44.59	37.51	18.89	-28.9	-31.3	20.0	6.03e-01	0	41	0	231735296	19	4757
2026-01-13 01:09:45.59	37.66	19.01	-28.9	-31.3	20.0	6.04e-01	0	41	0	233308160	19	4759
2026-01-13 01:09:46.59	37.81	19.13	-28.9	-31.4	20.0	6.01e-01	0	41	0	235405312	19	4777
2026-01-13 01:09:47.60	37.96	19.25	-29.0	-31.5	19.9	6.02e-01	0	41	0	236978176	19	4804
2026-01-13 01:09:48.61	38.12	19.37	-29.0	-31.6	19.9	6.03e-01	0	41	0	239075328	19	4844
2026-01-13 01:09:49.61	38.27	19.49	-29.0	-31.6	19.8	6.04e-01	0	41	0	241172480	19	4846
2026-01-13 01:09:50.61	38.43	19.61	-29.0	-31.7	19.8	6.02e-01	0	41	0	242745344	19	4873
2026-01-13 01:09:51.62	38.59	19.73	-29.0	-31.6	19.9	6.03e-01	0	41	0	244842496	19	4843
2026-01-13 01:09:52.63	38.75	19.85	-28.8	-31.2	20.1	6.03e-01	0	41	0	246415360	19	4711
2026-01-13 01:09:53.62	38.90	19.97	-28.9	-31.2	20.1	6.05e-01	0	41	0	248512512	19	4731
2026-01-13 01:09:54.63	39.07	20.10	-28.9	-31.2	20.1	6.05e-01	0	41	0	250085376	19	4721
2026-01-13 01:09:55.63	39.23	20.22	-28.9	-31.4	20.0	6.02e-01	0	41	0	252182528	19	4788
2026-01-13 01:09:56.64	39.39	20.34	-29.0	-31.5	20.0	6.04e-01	0	41	0	254279680	19	4816
2026-01-13 01:09:57.65	39.56	20.47	-28.9	-31.4	20.1	6.03e-01	0	41	0	255852544	19	4774
2026-01-13 01:09:58.66	39.73	20.59	-28.8	-31.7	20.1	6.02e-01	0	41	0	257949696	18	4990
2026-01-13 01:09:59.66	39.90	20.72	-28.9	-31.7	20.1	6.03e-01	0	41	0	260046848	18	5006
2026-01-13 01:10:00.66	40.07	20.84	-29.0	-32.0	20.0	6.03e-01	0	41	0	261619712	18	5101
2026-01-13 01:10:01.67	40.24	20.97	-29.0	-32.0	19.9	6.02e-01	0	41	0	263716864	18	5099
2026-01-13 01:10:02.68	40.41	21.10	-28.9	-31.9	19.9	6.02e-01	0	41	0	265289728	18	5075
2026-01-13 01:10:03.68	40.59	21.22	-29.1	-32.3	19.8	6.02e-01	0	41	0	267386880	18	5191
2026-01-13 01:10:04.68	40.76	21.35	-29.2	-32.2	19.6	6.02e-01	0	41	0	268959744	19	5043
2026-01-13 01:10:05.69	40.94	21.48	-29.2	-32.1	19.6	6.03e-01	0	41	0	271056896	19	5023
2026-01-13 01:10:06.69	41.12	21.60	-29.1	-31.7	19.8	6.03e-01	0	41	0	273154048	19	4879
2026-01-13 01:10:07.69	41.30	21.73	-29.0	-31.6	19.9	6.03e-01	0	41	0	274726912	19	4842
2026-01-13 01:10:08.70	41.48	21.86	-29.0	-32.1	19.9	6.03e-01	0	41	0	276824064	18	5120
2026-01-13 01:10:09.70	41.66	21.99	-28.8	-31.7	20.2	6.02e-01	0	41	0	278396928	18	4981
2026-01-13 01:10:10.70	41.85	22.12	-28.9	-31.7	20.2	6.04e-01	0	41	0	280494080	18	4991
2026-01-13 01:10:11.70	42.03	22.25	-28.9	-31.8	20.1	6.04e-01	0	41	0	282591232	18	5040
2026-01-13 01:10:12.70	42.22	22.38	-28.9	-31.9	20.1	6.04e-01	0	41	0	284164096	18	5048
2026-01-13 01:10:13.71	42.41	22.51	-28.9	-31.8	20.2	6.05e-01	0	41	0	286261248	18	5018
2026-01-13 01:10:14.72	42.60	22.64	-28.8	-31.6	20.3	6.02e-01	0	41	0	287834112	18	4959
2026-01-13 01:10:15.72	42.80	22.77	-29.0	-31.9	20.1	6.03e-01	0	41	0	289931264	18	5064
2026-01-13 01:10:16.72	42.99	22.91	-29.0	-31.9	20.1	6.04e-01	0	42	0	292028416	18	5065
2026-01-13 01:10:17.73	43.19	23.04	-29.0	-31.9	20.1	6.04e-01	0	42	0	293601280	18	5070
2026-01-13 01:10:18.74	43.39	23.17	-28.9	-31.8	20.2	6.03e-01	0	41	0	295698432	18	5027
2026-01-13 01:10:19.74	43.59	23.31	-29.0	-32.1	20.0	6.01e-01	0	41	0	297271296	18	5128
2026-01-13 01:10:20.75	43.79	23.44	-29.0	-31.6	20.1	6.02e-01	0	42	0	299368448	19	4835
2026-01-13 01:10:21.76	44.00	23.58	-29.0	-31.6	20.0	6.04e-01	0	41	0	301465600	19	4846
2026-01-13 01:10:22.76	44.20	23.71	-29.0	-31.5	20.0	6.05e-01	0	41	0	303038464	19	4808
2026-01-13 01:10:23.77	44.41	23.85	-29.0	-32.0	20.1	6.02e-01	0	41	0	305135616	18	5078
2026-01-13 01:10:24.77	44.62	23.98	-28.9	-31.9	20.1	6.01e-01	0	42	0	306708480	18	5040
2026-01-13 01:10:25.78	44.83	24.12	-29.0	-32.0	20.1	6.03e-01	0	42	0	308805632	18	5093
2026-01-13 01:10:26.78	45.04	24.26	-29.0	-32.1	20.1	6.05e-01	0	41	0	310378496	18	5117
2026-01-13 01:10:27.79	45.26	24.39	-29.1	-32.1	20.1	6.01e-01	0	41	0	312475648	18	5130
2026-01-13 01:10:28.79	45.47	24.53	-29.0	-32.0	20.1	6.04e-01	0	42	0	314572800	18	5079
2026-01-13 01:10:29.79	45.69	24.67	-29.0	-31.9	20.2	6.02e-01	0	42	0	316145664	18	5052
2026-01-13 01:10:30.79	45.91	24.80	-29.1	-32.1	20.1	6.03e-01	0	42	0	318242816	18	5134
2026-01-13 01:10:31.79	46.13	24.94	-29.4	-32.6	19.6	6.03e-01	0	42	0	319815680	19	5173
2026-01-13 01:10:32.80	46.36	25.08	-29.3	-32.3	19.7	6.04e-01	0	41	0	321912832	19	5067
2026-01-13 01:10:33.81	46.58	25.22	-29.1	-31.8	20.0	6.04e-01	0	42	0	324009984	19	4886
2026-01-13 01:10:34.82	46.81	25.36	-29.0	-31.5	20.2	6.01e-01	0	42	0	325582848	19	4792
2026-01-13 01:10:35.82	47.04	25.50	-29.0	-32.0	20.2	6.01e-01	0	42	0	327680000	18	5070
2026-01-13 01:10:36.82	47.28	25.64	-29.0	-32.1	20.0	6.03e-01	0	42	0	329252864	18	5125
2026-01-13 01:10:37.82	47.51	25.78	-29.1	-31.8	19.9	6.00e-01	0	42	0	331350016	19	4904
2026-01-13 01:10:38.83	47.75	25.92	-29.3	-32.2	19.7	6.02e-01	0	42	0	333447168	19	5028
2026-01-13 01:10:39.84	47.99	26.06	-29.1	-31.8	20.0	6.02e-01	0	42	0	335020032	19	4889
2026-01-13 01:10:40.85	48.23	26.21	-29.0	-31.9	20.2	6.04e-01	0	41	0	337117184	18	5056
2026-01-13 01:10:41.86	48.48	26.35	-29.1	-31.8	20.1	6.02e-01	0	42	0	338690048	19	4889
2026-01-13 01:10:42.86	48.72	26.49	-29.4	-32.4	19.7	6.06e-01	0	42	0	340787200	19	5108
2026-01-13 01:10:43.86	48.97	26.63	-29.2	-32.0	19.9	6.02e-01	0	41	0	342884352	19	4966
2026-01-13 01:10:44.87	49.22	26.77	-29.2	-31.9	20.0	6.03e-01	0	42	0	344457216	19	4916
2026-01-13 01:10:45.87	49.47	26.92	-29.2	-31.9	19.9	6.02e-01	0	42	0	346554368	19	4936
2026-01-13 01:10:46.87	49.72	27.06	-29.3	-32.3	19.7	6.02e-01	0	41	0	348127232	19	5081
2026-01-13 01:10:47.88	49.98	27.20	-29.2	-32.1	19.9	6.04e-01	0	42	0	350224384	19	4981
2026-01-13 01:10:48.89	50.24	27.35	-29.1	-31.7	20.0	6.02e-01	0	42	0	351797248	19	4865
2026-01-13 01:10:49.89	50.51	27.49	-29.1	-31.8	19.9	6.02e-01	0	42	0	353894400	19	4906
2026-01-13 01:10:50.90	50.77	27.63	-29.2	-32.0	19.9	6.03e-01	0	42	0	355991552	19	4966
2026-01-13 01:10:51.91	51.04	27.78	-29.3	-32.3	19.8	6.02e-01	0	42	0	357564416	19	5049
2026-01-13 01:10:52.91	51.31	27.92	-29.1	-31.6	20.2	6.02e-01	0	42	0	359661568	19	4827
2026-01-13 01:10:53.92	51.58	28.07	-29.0	-32.0	20.2	6.03e-01	0	42	0	361758720	18	5086
2026-01-13 01:10:54.93	51.86	28.21	-29.1	-32.2	20.1	6.04e-01	0	41	0	363331584	18	5145
2026-01-13 01:10:55.94	52.14	28.36	-28.9	-31.3	20.4	6.03e-01	0	42	0	365428736	19	4716
2026-01-13 01:10:56.94	52.41	28.50	-28.9	-31.1	20.5	6.02e-01	0	41	0	367001600	19	4667
2026-01-13 01:10:57.95	52.70	28.65	-29.0	-31.5	20.3	6.04e-01	0	42	0	369098752	19	4793
2026-01-13 01:10:58.95	52.98	28.79	-29.0	-31.5	20.2	6.05e-01	0	42	0	371195904	19	4797
2026-01-13 01:10:59.96	53.27	28.94	-29.0	-31.3	20.3	6.03e-01	0	42	0	372768768	19	4727
2026-01-13 01:11:00.97	53.56	29.08	-29.0	-31.4	20.3	6.01e-01	0	42	0	374865920	19	4749
2026-01-13 01:11:01.97	53.85	29.23	-28.9	-31.2	20.5	6.05e-01	0	42	0	376438784	19	4684
2026-01-13 01:11:02.98	54.15	29.37	-29.0	-31.4	20.3	6.03e-01	0	42	0	378535936	19	4740
2026-01-13 01:11:03.99	54.45	29.52	-28.8	-31.1	20.5	6.02e-01	0	42	0	380108800	19	4643
2026-01-13 01:11:04.99	54.75	29.66	-28.9	-31.6	20.5	6.00e-01	0	42	0	382205952	18	4941
2026-01-13 01:11:05.99	55.05	29.81	-28.9	-31.7	20.5	6.03e-01	0	42	0	384303104	18	4963
2026-01-13 01:11:06.99	55.36	29.95	-29.1	-32.1	20.3	6.03e-01	0	42	0	385875968	18	5099
2026-01-13 01:11:08.00	55.67	30.10	-29.0	-32.0	20.3	6.03e-01	0	42	0	387973120	18	5061
2026-01-13 01:11:09.01	55.98	30.24	-28.9	-31.8	20.4	6.03e-01	0	42	0	390070272	18	4989
2026-01-13 01:11:10.02	56.30	30.39	-29.0	-31.8	20.3	6.02e-01	0	42	0	391643136	18	5000
2026-01-13 01:11:11.02	56.62	30.53	-29.3	-32.3	19.8	6.01e-01	0	42	0	393740288	19	5056
2026-01-13 01:11:12.02	56.94	30.68	-29.2	-31.9	20.1	6.04e-01	0	42	0	395313152	19	4913
2026-01-13 01:11:13.03	57.26	30.82	-29.0	-31.5	20.3	6.02e-01	0	42	0	397410304	19	4771
2026-01-13 01:11:14.03	57.59	30.97	-29.2	-31.8	20.2	6.03e-01	0	42	0	398983168	19	4887
2026-01-13 01:11:15.03	57.92	31.11	-29.2	-31.9	20.1	6.03e-01	0	42	0	401080320	19	4910
2026-01-13 01:11:16.04	58.25	31.25	-29.2	-32.0	20.0	6.03e-01	0	42	0	403177472	19	4952
2026-01-13 01:11:17.04	58.58	31.40	-29.0	-31.4	20.4	6.02e-01	0	42	0	404750336	19	4747
2026-01-13 01:11:18.05	58.93	31.54	-29.1	-32.1	20.2	6.01e-01	0	42	0	406847488	18	5110
2026-01-13 01:11:19.05	59.27	31.68	-29.2	-32.0	20.0	6.03e-01	0	42	0	408420352	19	4935
2026-01-13 01:11:20.05	59.61	31.83	-29.0	-31.4	20.4	6.03e-01	0	42	0	410517504	19	4746
2026-01-13 01:11:21.05	59.96	31.97	-29.0	-31.9	20.4	6.02e-01	0	42	0	412614656	18	5020
2026-01-13 01:11:22.06	60.31	32.11	-29.0	-32.0	20.3	6.03e-01	0	42	0	414187520	18	5069
2026-01-13 01:11:23.07	60.66	32.25	-28.9	-31.6	20.6	6.03e-01	0	42	0	416284672	18	4934
2026-01-13 01:11:24.07	61.02	32.39	-29.0	-31.8	20.5	6.04e-01	0	42	0	417857536	18	4991
2026-01-13 01:11:25.07	61.38	32.53	-29.0	-31.9	20.4	6.06e-01	0	41	0	419954688	18	5021
2026-01-13 01:11:26.07	61.74	32.67	-29.1	-31.7	20.2	6.02e-01	0	42	0	422051840	19	4845
2026-01-13 01:11:27.08	62.11	32.81	-29.1	-31.6	20.2	6.05e-01	0	42	0	423624704	19	4807
2026-01-13 01:11:28.09	62.48	32.95	-29.1	-31.8	20.2	6.02e-01	0	42	0	425721856	19	4870
2026-01-13 01:11:29.09	62.85	33.09	-29.0	-31.4	20.4	6.03e-01	0	42	0	427294720	19	4739
2026-01-13 01:11:30.09	63.23	33.22	-28.9	-31.1	20.6	6.05e-01	0	42	0	429391872	19	4640
2026-01-13 01:11:31.09	63.61	33.36	-29.1	-31.6	20.3	6.04e-01	0	41	0	430964736	19	4798
2026-01-13 01:11:32.09	63.99	33.49	-29.1	-31.7	20.0	6.04e-01	0	42	0	433061888	19	4843
2026-01-13 01:11:33.10	64.38	33.63	-29.0	-31.5	20.3	6.03e-01	0	42	0	435159040	19	4780
2026-01-13 01:11:34.10	64.76	33.76	-29.0	-31.3	20.4	6.03e-01	0	42	0	436731904	19	4701
2026-01-13 01:11:35.11	65.16	33.90	-29.1	-31.6	20.3	6.02e-01	0	42	0	438829056	19	4816
2026-01-13 01:11:36.12	65.56	34.03	-29.1	-31.7	20.3	6.02e-01	0	42	0	440401920	19	4854
2026-01-13 01:11:37.12	65.96	34.16	-29.2	-31.9	20.2	6.02e-01	0	42	0	442499072	19	4905
2026-01-13 01:11:38.13	66.36	34.30	-29.5	-32.6	19.7	6.06e-01	0	42	0	444596224	19	5147
2026-01-13 01:11:39.14	66.77	34.43	-29.4	-32.4	19.9	6.02e-01	0	42	0	446169088	19	5081
2026-01-13 01:11:40.14	67.18	34.56	-29.4	-32.3	19.9	6.00e-01	0	42	0	448266240	19	5041
2026-01-13 01:11:41.15	67.59	34.68	-29.2	-31.8	20.1	6.03e-01	0	42	0	449839104	19	4883
2026-01-13 01:11:42.15	68.01	34.81	-29.5	-32.5	19.8	6.03e-01	0	42	0	451936256	19	5124
2026-01-13 01:11:43.16	68.43	34.94	-29.3	-32.1	20.0	6.03e-01	0	42	0	454033408	19	4988
2026-01-13 01:11:44.17	68.85	35.06	-29.4	-32.3	19.9	6.04e-01	0	42	0	455606272	19	5061
2026-01-13 01:11:45.17	69.28	35.19	-29.5	-32.7	19.7	6.03e-01	0	42	0	457703424	19	5198
2026-01-13 01:11:46.18	69.71	35.31	-29.7	-32.6	19.4	6.03e-01	0	42	0	459276288	20	5042
2026-01-13 01:11:47.19	70.14	35.43	-30.0	-33.5	18.8	6.03e-01	0	42	0	461373440	20	5379
2026-01-13 01:11:48.19	70.58	35.55	-29.6	-32.4	19.4	6.05e-01	0	42	0	463470592	20	4971
2026-01-13 01:11:49.20	71.02	35.67	-29.4	-31.9	19.8	6.02e-01	0	42	0	465043456	20	4813
2026-01-13 01:11:50.21	71.46	35.79	-29.2	-31.5	20.1	6.04e-01	0	42	0	467140608	20	4668
2026-01-13 01:11:51.22	71.91	35.90	-29.2	-31.4	20.1	6.03e-01	0	42	0	468713472	20	4648
2026-01-13 01:11:52.22	72.36	36.02	-29.1	-31.1	20.4	6.03e-01	0	42	0	470810624	20	4529
2026-01-13 01:11:53.23	72.81	36.13	-29.4	-32.0	19.8	6.02e-01	0	42	0	472907776	20	4833
2026-01-13 01:11:54.23	73.26	36.24	-29.2	-31.4	20.1	6.03e-01	0	42	0	474480640	20	4631
2026-01-13 01:11:55.23	73.72	36.35	-29.4	-31.8	19.8	6.04e-01	0	42	0	476577792	20	4780
2026-01-13 01:11:56.24	74.18	36.46	-29.1	-31.0	20.3	6.03e-01	0	42	0	478150656	20	4512
2026-01-13 01:11:57.25	74.65	36.57	-29.0	-30.9	20.5	6.03e-01	0	42	0	480247808	20	4465
2026-01-13 01:11:58.25	75.12	36.67	-29.2	-31.5	20.1	6.02e-01	0	42	0	482344960	20	4659
2026-01-13 01:11:59.26	75.59	36.78	-29.1	-31.2	20.3	6.02e-01	0	42	0	483917824	20	4567
2026-01-13 01:12:00.26	76.06	36.88	-28.9	-30.7	20.5	6.04e-01	0	42	0	486014976	20	4422
2026-01-13 01:12:01.27	76.54	36.98	-29.0	-30.9	20.4	6.02e-01	0	42	0	487587840	20	4473
2026-01-13 01:12:02.27	77.02	37.08	-29.1	-31.3	20.2	6.02e-01	0	42	0	489684992	20	4590
2026-01-13 01:12:03.28	77.50	37.17	-29.1	-31.2	20.3	6.04e-01	0	42	0	491782144	20	4570
2026-01-13 01:12:04.28	77.99	37.27	-29.1	-31.2	20.2	6.05e-01	0	42	0	493355008	20	4586
2026-01-13 01:12:05.29	78.48	37.36	-29.1	-31.6	20.4	6.04e-01	0	42	0	495452160	19	4809
2026-01-13 01:12:06.29	78.97	37.45	-29.1	-31.6	20.4	6.03e-01	0	42	0	497025024	19	4805
2026-01-13 01:12:07.29	79.46	37.53	-29.2	-31.9	20.2	6.02e-01	0	42	0	499122176	19	4909
2026-01-13 01:12:08.30	79.96	37.62	-29.2	-31.9	20.2	6.03e-01	0	42	0	500695040	19	4897
2026-01-13 01:12:09.30	80.45	37.70	-29.1	-31.5	20.4	6.02e-01	0	42	0	502792192	19	4773
2026-01-13 01:12:10.31	80.96	37.79	-29.2	-31.8	20.3	6.00e-01	0	42	0	504889344	19	4866
2026-01-13 01:12:11.32	81.46	37.87	-29.0	-31.5	20.5	6.02e-01	0	42	0	506462208	19	4754
2026-01-13 01:12:12.32	81.97	37.94	-29.2	-32.0	20.2	6.04e-01	0	42	0	508559360	19	4923
2026-01-13 01:12:13.32	82.47	38.02	-29.2	-31.9	20.2	6.01e-01	0	42	0	510656512	19	4901
2026-01-13 01:12:14.33	82.99	38.09	-28.9	-31.7	20.6	6.02e-01	0	42	0	512229376	18	4953
2026-01-13 01:12:15.33	83.50	38.16	-29.1	-31.7	20.4	6.04e-01	0	42	0	514326528	19	4832
2026-01-13 01:12:16.33	84.01	38.23	-29.2	-31.8	20.3	6.01e-01	0	42	0	515899392	19	4850
2026-01-13 01:12:17.34	84.53	38.29	-29.3	-32.1	20.1	6.01e-01	0	42	0	517996544	19	4973
2026-01-13 01:12:18.34	85.05	38.36	-29.3	-32.1	20.1	6.02e-01	0	42	0	519569408	19	4961
2026-01-13 01:12:19.35	85.58	38.42	-29.3	-32.0	20.1	6.02e-01	0	42	0	521666560	19	4949
2026-01-13 01:12:20.35	86.10	38.48	-29.1	-31.6	20.5	6.02e-01	0	42	0	523763712	19	4792
2026-01-13 01:12:21.36	86.63	38.53	-29.1	-31.6	20.4	6.04e-01	0	42	0	525336576	19	4799
2026-01-13 01:12:22.37	87.16	38.59	-29.2	-31.9	20.3	6.04e-01	0	42	0	527433728	19	4884
2026-01-13 01:12:23.38	87.69	38.64	-29.1	-31.6	20.4	6.03e-01	0	42	0	529006592	19	4805
2026-01-13 01:12:24.38	88.22	38.69	-29.2	-31.8	20.3	6.03e-01	0	42	0	531103744	19	4850
2026-01-13 01:12:25.39	88.75	38.73	-29.2	-31.8	20.3	6.04e-01	0	42	0	533200896	19	4879
2026-01-13 01:12:26.39	89.29	38.77	-29.2	-31.7	20.3	6.04e-01	0	42	0	534773760	19	4850
2026-01-13 01:12:27.40	89.82	38.81	-29.2	-31.8	20.4	6.02e-01	0	42	0	536870912	19	4849
2026-01-13 01:12:28.40	90.36	38.85	-29.2	-31.8	20.3	6.03e-01	0	42	0	538968064	19	4880
2026-01-13 01:12:29.41	90.90	38.89	-29.2	-31.7	20.3	6.02e-01	0	42	0	540540928	19	4850
2026-01-13 01:12:30.41	91.44	38.92	-29.2	-31.7	20.3	6.03e-01	0	42	0	542638080	19	4843
2026-01-13 01:12:31.42	91.98	38.95	-29.1	-31.6	20.5	6.02e-01	0	42	0	544210944	19	4810
2026-01-13 01:12:32.42	92.52	38.97	-29.1	-31.6	20.4	6.04e-01	0	42	0	546308096	19	4810
2026-01-13 01:12:33.43	93.06	39.00	-29.2	-31.8	20.4	6.03e-01	0	42	0	547880960	19	4848
2026-01-13 01:12:34.44	93.61	39.02	-29.3	-32.1	20.1	6.04e-01	0	42	0	549978112	19	4956
2026-01-13 01:12:35.44	94.15	39.04	-29.1	-31.6	20.4	6.02e-01	0	42	0	552075264	19	4788
2026-01-13 01:12:36.45	94.70	39.05	-29.2	-31.7	20.4	6.04e-01	0	42	0	553648128	19	4837
2026-01-13 01:12:37.44	95.23	39.06	-29.3	-32.2	20.1	6.05e-01	0	42	0	555745280	19	5013
2026-01-13 01:12:38.45	95.78	39.07	-29.2	-32.0	20.2	6.00e-01	0	42	0	557318144	19	4920
2026-01-13 01:12:39.45	96.32	39.08	-29.4	-32.2	20.1	6.02e-01	0	42	0	559415296	19	5015
2026-01-13 01:12:40.46	96.87	39.09	-29.4	-32.4	20.0	6.03e-01	0	42	0	561512448	19	5062
2026-01-13 01:12:41.46	97.42	39.09	-29.3	-32.2	20.1	6.03e-01	0	42	0	563085312	19	4982
2026-01-13 01:12:42.47	97.97	39.09	-29.5	-32.7	19.8	6.04e-01	0	42	0	565182464	19	5190
2026-01-13 01:12:43.47	98.51	39.08	-29.4	-32.5	19.9	6.03e-01	0	42	0	566755328	19	5106
2026-01-13 01:12:44.48	99.06	39.07	-29.3	-32.1	20.2	6.03e-01	0	42	0	568852480	19	4955
2026-01-13 01:12:45.48	99.60	39.06	-29.3	-32.1	20.1	6.01e-01	0	42	0	570425344	19	4985
2026-01-13 01:12:46.49	100.15	39.05	-29.5	-32.6	19.8	6.03e-01	0	42	0	572522496	19	5145
2026-01-13 01:12:47.50	100.69	39.04	-29.4	-32.2	20.0	6.01e-01	0	42	0	574619648	19	5017
2026-01-13 01:12:48.50	101.24	39.02	-29.4	-32.3	20.0	6.06e-01	0	42	0	576192512	19	5030
2026-01-13 01:12:49.50	101.78	39.00	-29.3	-32.1	20.1	6.04e-01	0	42	0	578289664	19	4981
2026-01-13 01:12:50.51	102.32	38.97	-29.4	-32.4	20.0	6.03e-01	0	42	0	580386816	19	5077
2026-01-13 01:12:51.52	102.87	38.95	-29.4	-32.5	19.9	6.03e-01	0	42	0	581959680	19	5101
2026-01-13 01:12:52.52	103.40	38.92	-29.5	-32.7	19.7	6.05e-01	0	42	0	584056832	19	5201
2026-01-13 01:12:53.53	103.95	38.88	-29.6	-32.4	19.7	6.03e-01	0	42	0	585629696	20	4954
2026-01-13 01:12:54.53	104.48	38.85	-29.5	-32.2	19.7	6.04e-01	0	42	0	587726848	20	4886
2026-01-13 01:12:55.54	105.02	38.81	-29.4	-31.9	19.9	6.02e-01	0	42	0	589299712	20	4793
2026-01-13 01:12:56.54	105.56	38.77	-29.7	-32.6	19.5	6.01e-01	0	42	0	591396864	20	5051
2026-01-13 01:12:57.54	106.09	38.73	-29.5	-32.1	19.8	6.02e-01	0	42	0	593494016	20	4866
2026-01-13 01:12:58.55	106.62	38.68	-29.3	-31.6	20.1	6.03e-01	0	42	0	595066880	20	4704
2026-01-13 01:12:59.55	107.15	38.63	-29.6	-32.3	19.7	6.03e-01	0	42	0	597164032	20	4945
2026-01-13 01:13:00.56	107.69	38.58	-29.6	-32.3	19.6	6.03e-01	0	42	0	598736896	20	4949
2026-01-13 01:13:01.57	108.22	38.53	-29.4	-31.9	19.9	6.03e-01	0	42	0	600834048	20	4784
2026-01-13 01:13:02.58	108.75	38.47	-29.3	-31.6	20.0	6.03e-01	0	42	0	602931200	20	4683
2026-01-13 01:13:03.58	109.27	38.41	-29.1	-31.6	20.4	6.05e-01	0	42	0	604504064	19	4797
2026-01-13 01:13:04.59	109.79	38.35	-29.3	-32.2	20.1	6.04e-01	0	42	0	606601216	19	5005
2026-01-13 01:13:05.59	110.31	38.29	-29.4	-32.4	20.0	6.01e-01	0	42	0	608174080	19	5082
2026-01-13 01:13:06.60	110.83	38.22	-29.3	-32.1	20.1	6.03e-01	0	42	0	610271232	19	4969
2026-01-13 01:13:07.60	111.35	38.16	-29.3	-31.9	20.3	6.02e-01	0	42	0	612368384	19	4912
2026-01-13 01:13:08.61	111.87	38.08	-29.4	-32.3	20.0	6.02e-01	0	42	0	613941248	19	5042
2026-01-13 01:13:09.62	112.38	38.01	-29.4	-32.2	20.1	6.03e-01	0	42	0	616038400	19	5004
2026-01-13 01:13:10.62	112.89	37.94	-29.3	-32.0	20.2	6.03e-01	0	42	0	617611264	19	4940
2026-01-13 01:13:11.63	113.40	37.86	-29.4	-32.2	20.1	6.03e-01	0	42	0	619708416	19	5006
2026-01-13 01:13:12.64	113.90	37.78	-29.3	-32.1	20.2	6.02e-01	0	42	0	621805568	19	4963
2026-01-13 01:13:13.65	114.41	37.69	-29.3	-32.0	20.2	6.03e-01	0	42	0	623378432	19	4941
2026-01-13 01:13:14.65	114.91	37.61	-29.3	-32.0	20.1	6.02e-01	0	42	0	625475584	19	4947
2026-01-13 01:13:15.65	115.40	37.53	-29.3	-32.0	20.1	6.05e-01	0	42	0	627048448	19	4939
2026-01-13 01:13:16.66	115.90	37.44	-29.6	-32.8	19.7	6.00e-01	0	42	0	629145600	19	5225
2026-01-13 01:13:17.66	116.39	37.35	-29.4	-31.8	20.0	6.02e-01	0	42	0	631242752	20	4761
2026-01-13 01:13:18.67	116.88	37.25	-29.2	-31.4	20.3	6.02e-01	0	42	0	632815616	20	4615
2026-01-13 01:13:19.68	117.37	37.16	-29.3	-31.7	20.0	6.04e-01	0	42	0	634912768	20	4735
2026-01-13 01:13:20.68	117.85	37.06	-29.4	-31.8	19.9	6.01e-01	0	42	0	636485632	20	4754
2026-01-13 01:13:21.68	118.33	36.96	-29.5	-32.1	19.8	6.03e-01	0	42	0	638582784	20	4871
2026-01-13 01:13:22.69	118.81	36.86	-29.5	-32.0	19.8	6.03e-01	0	42	0	640679936	20	4831
2026-01-13 01:13:23.70	119.29	36.76	-29.1	-31.0	20.4	6.04e-01	0	42	0	642252800	20	4516
2026-01-13 01:13:24.71	119.76	36.66	-29.1	-31.2	20.3	6.02e-01	0	42	0	644349952	20	4565
2026-01-13 01:13:25.71	120.23	36.55	-29.2	-31.5	20.1	6.02e-01	0	42	0	645922816	20	4651
2026-01-13 01:13:26.72	120.69	36.44	-29.1	-31.2	20.2	6.01e-01	0	42	0	648019968	20	4574
2026-01-13 01:13:27.73	121.16	36.33	-29.0	-30.9	20.5	6.03e-01	0	42	0	650117120	20	4455
2026-01-13 01:13:28.74	121.62	36.22	-29.0	-30.9	20.5	6.05e-01	0	42	0	651689984	20	4480
2026-01-13 01:13:29.74	122.07	36.11	-29.0	-30.8	20.6	6.03e-01	0	42	0	653787136	20	4449
2026-01-13 01:13:30.75	122.53	36.00	-29.0	-31.4	20.6	6.01e-01	0	42	0	655360000	19	4713
2026-01-13 01:13:31.75	122.98	35.88	-29.1	-31.5	20.5	6.03e-01	0	42	0	657457152	19	4775
2026-01-13 01:13:32.76	123.42	35.77	-29.0	-31.4	20.4	6.03e-01	0	42	0	659554304	19	4736
2026-01-13 01:13:33.77	123.87	35.65	-29.0	-31.2	20.6	6.03e-01	0	42	0	661127168	19	4667
2026-01-13 01:13:34.77	124.31	35.53	-29.1	-31.7	20.4	6.03e-01	0	42	0	663224320	19	4831
2026-01-13 01:13:35.78	124.75	35.41	-29.1	-31.6	20.4	6.04e-01	0	42	0	664797184	19	4807
2026-01-13 01:13:36.78	125.18	35.29	-29.0	-31.5	20.5	6.03e-01	0	42	0	666894336	19	4755
2026-01-13 01:13:37.79	125.61	35.16	-28.9	-31.2	20.7	6.03e-01	0	42	0	668991488	19	4657
2026-01-13 01:13:38.80	126.04	35.04	-28.8	-30.9	20.8	6.02e-01	0	42	0	670564352	19	4566
2026-01-13 01:13:39.81	126.47	34.91	-29.1	-31.6	20.4	6.03e-01	0	42	0	672661504	19	4798
2026-01-13 01:13:40.82	126.89	34.78	-28.7	-30.6	20.9	6.04e-01	0	42	0	674234368	19	4496
2026-01-13 01:13:41.83	127.31	34.65	-29.2	-31.8	20.4	6.02e-01	0	42	0	676331520	19	4857
2026-01-13 01:13:42.84	127.72	34.52	-29.0	-31.3	20.6	6.03e-01	0	42	0	678428672	19	4707
2026-01-13 01:13:43.84	128.13	34.40	-28.8	-30.7	20.9	6.04e-01	0	42	0	680001536	19	4517
2026-01-13 01:13:44.85	128.54	34.26	-28.9	-31.2	20.7	6.02e-01	0	42	0	682098688	19	4657
2026-01-13 01:13:45.86	128.95	34.13	-28.8	-31.0	20.8	6.03e-01	0	42	0	683671552	19	4590
2026-01-13 01:13:46.86	129.34	34.00	-28.8	-30.8	20.8	6.03e-01	0	42	0	685768704	19	4532
2026-01-13 01:13:47.86	129.74	33.87	-28.8	-30.9	20.8	6.02e-01	0	42	0	687865856	19	4570
2026-01-13 01:13:48.87	130.14	33.73	-28.8	-30.8	20.9	6.04e-01	0	42	0	689438720	19	4543
2026-01-13 01:13:49.88	130.53	33.59	-28.8	-30.9	20.8	6.02e-01	0	42	0	691535872	19	4570
2026-01-13 01:13:50.88	130.91	33.46	-28.7	-30.7	21.0	6.03e-01	0	42	0	693108736	19	4507
2026-01-13 01:13:51.89	131.30	33.32	-28.6	-30.5	21.0	6.05e-01	0	42	0	695205888	19	4468
2026-01-13 01:13:52.89	131.68	33.18	-29.0	-31.5	20.5	6.01e-01	0	42	0	697303040	19	4767
2026-01-13 01:13:53.90	132.06	33.05	-28.8	-31.0	20.7	6.04e-01	0	42	0	698875904	19	4614
2026-01-13 01:13:54.91	132.43	32.91	-28.6	-30.6	20.9	6.04e-01	0	42	0	700973056	19	4492
2026-01-13 01:13:55.91	132.80	32.77	-28.6	-30.5	20.9	6.03e-01	0	42	0	702545920	19	4496
2026-01-13 01:13:56.91	133.17	32.63	-28.5	-30.3	21.0	6.04e-01	0	42	0	704643072	19	4437
2026-01-13 01:13:57.92	133.53	32.49	-28.5	-30.8	21.1	6.02e-01	0	42	0	706740224	18	4669
2026-01-13 01:13:58.92	133.89	32.35	-28.4	-30.5	21.2	6.03e-01	0	42	0	708313088	18	4589
2026-01-13 01:13:59.93	134.25	32.20	-28.3	-30.3	21.4	6.03e-01	0	42	0	710410240	18	4523
2026-01-13 01:14:00.93	134.61	32.06	-28.4	-30.4	21.3	6.03e-01	0	42	0	711983104	18	4546
2026-01-13 01:14:01.94	134.96	31.92	-28.4	-30.5	21.2	6.03e-01	0	42	0	714080256	18	4567
2026-01-13 01:14:02.95	135.31	31.77	-28.4	-30.4	21.3	6.03e-01	0	42	0	715653120	18	4526
2026-01-13 01:14:03.95	135.66	31.63	-28.5	-30.6	21.2	6.02e-01	0	42	0	717750272	18	4609
2026-01-13 01:14:04.95	136.00	31.49	-28.4	-30.5	21.2	6.06e-01	0	42	0	719847424	18	4574
2026-01-13 01:14:05.96	136.34	31.34	-28.5	-30.6	21.2	6.04e-01	0	42	0	721420288	18	4586
2026-01-13 01:14:06.97	136.68	31.20	-28.6	-30.8	21.1	6.03e-01	0	42	0	723517440	18	4672
2026-01-13 01:14:07.97	137.01	31.06	-28.5	-30.6	21.2	6.02e-01	0	42	0	725614592	18	4591
2026-01-13 01:14:08.98	137.34	30.91	-28.4	-30.5	21.2	6.02e-01	0	42	0	727187456	18	4582
2026-01-13 01:14:10.00	137.67	30.76	-28.6	-30.9	21.0	6.03e-01	0	42	0	729284608	18	4708
2026-01-13 01:14:11.00	138.00	30.62	-28.6	-30.9	20.9	6.00e-01	0	42	0	730857472	18	4693
2026-01-13 01:14:12.00	138.32	30.47	-27.8	-30.1	21.0	6.03e-01	0	42	0	732954624	18	4693
2026-01-13 01:14:13.00	138.63	30.33	-28.5	-31.2	20.8	6.02e-01	0	42	0	735051776	17	4919
2026-01-13 01:14:14.01	138.95	30.18	-28.5	-31.3	21.1	6.04e-01	0	42	0	736624640	17	4933
2026-01-13 01:14:15.02	139.26	30.04	-28.6	-31.0	20.7	6.02e-01	0	42	0	738721792	18	4737
2026-01-13 01:14:16.02	139.57	29.89	-28.7	-31.1	20.6	6.01e-01	0	42	0	740294656	18	4774
2026-01-13 01:14:17.03	139.88	29.74	-28.9	-31.7	20.6	6.03e-01	0	42	0	742391808	18	4956
2026-01-13 01:14:18.03	140.18	29.60	-28.8	-31.4	19.7	6.02e-01	0	42	0	743964672	18	4853
2026-01-13 01:14:19.04	140.49	29.45	-29.0	-32.0	19.5	6.04e-01	0	42	0	746061824	18	5046
2026-01-13 01:14:20.04	140.78	29.31	-29.0	-31.9	20.4	6.01e-01	0	42	0	748158976	18	5020
2026-01-13 01:14:21.05	141.08	29.16	-29.0	-32.0	20.3	6.00e-01	0	42	0	749731840	18	5088
2026-01-13 01:14:22.06	141.38	29.01	-29.0	-31.6	20.3	6.01e-01	0	42	0	751828992	19	4805
2026-01-13 01:14:23.07	141.67	28.87	-29.0	-31.5	20.3	6.03e-01	0	42	0	753926144	19	4789
2026-01-13 01:14:24.07	141.96	28.72	-29.2	-32.0	20.0	6.03e-01	0	42	0	755499008	19	4964
2026-01-13 01:14:25.08	142.24	28.57	-28.9	-31.7	20.5	6.04e-01	0	42	0	757596160	18	4966
2026-01-13 01:14:26.09	142.53	28.43	-28.7	-31.3	20.7	6.03e-01	0	42	0	759169024	18	4837
2026-01-13 01:14:27.10	142.81	28.28	-28.9	-31.6	20.5	6.03e-01	0	42	0	761266176	18	4943
2026-01-13 01:14:28.10	143.08	28.14	-29.0	-31.9	20.4	6.02e-01	0	42	0	763363328	18	5038
2026-01-13 01:14:29.11	143.36	27.99	-29.1	-32.1	20.2	6.01e-01	0	42	0	764936192	18	5108
2026-01-13 01:14:30.12	143.63	27.84	-28.9	-31.7	20.4	6.04e-01	0	42	0	767033344	18	4974
2026-01-13 01:14:31.12	143.90	27.70	-28.9	-31.7	20.4	6.03e-01	0	42	0	768606208	18	4972
2026-01-13 01:14:32.13	144.17	27.55	-29.1	-32.2	20.2	6.02e-01	0	42	0	770703360	18	5130
2026-01-13 01:14:33.14	144.44	27.41	-29.1	-31.7	20.2	6.04e-01	0	42	0	772276224	19	4863
2026-01-13 01:14:34.14	144.70	27.26	-29.0	-31.8	20.4	6.02e-01	0	42	0	774373376	18	5013
2026-01-13 01:14:35.15	144.96	27.12	-28.9	-31.8	20.4	6.04e-01	0	42	0	776470528	18	4989
2026-01-13 01:14:36.15	145.22	26.98	-29.0	-31.9	20.3	6.04e-01	0	42	0	778043392	18	5028
2026-01-13 01:14:37.16	145.47	26.83	-29.0	-32.0	20.3	6.02e-01	0	42	0	780140544	18	5073
2026-01-13 01:14:38.17	145.73	26.69	-29.1	-31.7	20.1	6.02e-01	0	42	0	782237696	19	4856
2026-01-13 01:14:39.18	145.98	26.54	-29.1	-32.2	20.2	6.03e-01	0	42	0	783810560	18	5124
2026-01-13 01:14:40.17	146.22	26.40	-29.2	-31.8	20.0	6.02e-01	0	42	0	785907712	19	4904
2026-01-13 01:14:41.18	146.47	26.26	-29.4	-32.3	19.8	6.01e-01	0	42	0	787480576	19	5076
2026-01-13 01:14:42.18	146.71	26.12	-29.3	-32.3	19.7	6.04e-01	0	42	0	789577728	19	5060
2026-01-13 01:14:43.18	146.95	25.97	-29.3	-32.1	19.9	6.05e-01	0	42	0	791150592	19	5007
2026-01-13 01:14:44.19	147.20	25.83	-29.3	-32.2	19.8	6.03e-01	0	42	0	793247744	19	5017
2026-01-13 01:14:45.20	147.43	25.69	-29.4	-32.5	19.7	6.03e-01	0	42	0	795344896	19	5123
2026-01-13 01:14:46.20	147.67	25.55	-29.3	-32.3	19.8	6.00e-01	0	42	0	796917760	19	5058
2026-01-13 01:14:47.20	147.90	25.41	-29.3	-32.1	19.9	6.03e-01	0	42	0	799014912	19	5013
2026-01-13 01:14:48.21	148.13	25.27	-29.3	-32.3	19.8	6.02e-01	0	42	0	800587776	19	5065
2026-01-13 01:14:49.21	148.36	25.13	-29.4	-32.5	19.6	6.02e-01	0	42	0	802684928	19	5149
2026-01-13 01:14:50.22	148.59	24.99	-29.3	-32.2	19.8	6.04e-01	0	42	0	804782080	19	5044
2026-01-13 01:14:51.22	148.81	24.85	-29.2	-32.0	19.9	6.02e-01	0	42	0	806354944	19	4979
2026-01-13 01:14:52.22	149.03	24.71	-29.3	-32.1	19.8	6.02e-01	0	42	0	808452096	19	5019
2026-01-13 01:14:53.23	149.25	24.57	-29.3	-32.2	19.8	6.03e-01	0	42	0	810024960	19	5037
2026-01-13 01:14:54.23	149.47	24.43	-29.2	-32.0	19.9	6.03e-01	0	42	0	812122112	19	4964
2026-01-13 01:14:55.24	149.69	24.29	-29.2	-31.9	19.9	6.06e-01	0	42	0	814219264	19	4929
2026-01-13 01:14:56.25	149.91	24.15	-29.1	-31.8	20.0	6.03e-01	0	42	0	815792128	19	4888
2026-01-13 01:14:57.26	150.12	24.02	-29.1	-31.8	20.1	6.02e-01	0	42	0	817889280	19	4883
2026-01-13 01:14:58.26	150.33	23.88	-29.2	-31.9	20.0	6.03e-01	0	42	0	819462144	19	4922
2026-01-13 01:14:59.27	150.54	23.74	-29.2	-32.0	19.9	6.04e-01	0	42	0	821559296	19	4962
2026-01-13 01:15:00.27	150.75	23.61	-29.1	-31.7	20.0	6.05e-01	0	42	0	823656448	19	4879
2026-01-13 01:15:01.27	150.95	23.47	-29.1	-31.8	20.0	6.04e-01	0	42	0	825229312	19	4894
2026-01-13 01:15:02.28	151.16	23.34	-29.1	-31.9	19.9	6.02e-01	0	42	0	827326464	19	4936
2026-01-13 01:15:03.29	151.36	23.20	-29.2	-32.2	19.7	6.01e-01	0	42	0	828899328	19	5031
2026-01-13 01:15:04.28	151.56	23.07	-29.2	-32.1	19.8	6.03e-01	0	42	0	830996480	19	5011
2026-01-13 01:15:05.29	151.76	22.93	-29.3	-32.3	19.7	6.02e-01	0	42	0	832569344	19	5068
2026-01-13 01:15:06.29	151.95	22.80	-29.2	-32.1	19.7	6.02e-01	0	42	0	834666496	19	5032
2026-01-13 01:15:07.30	152.15	22.67	-29.3	-32.4	19.6	6.02e-01	0	42	0	836763648	19	5109
2026-01-13 01:15:08.31	152.34	22.53	-29.3	-32.3	19.5	6.04e-01	0	42	0	838336512	19	5107
2026-01-13 01:15:09.31	152.53	22.40	-29.3	-32.2	19.6	6.04e-01	0	42	0	840433664	19	5067
2026-01-13 01:15:10.33	152.73	22.27	-29.2	-32.1	19.7	6.04e-01	0	42	0	842530816	19	5019
2026-01-13 01:15:11.33	152.91	22.14	-29.1	-31.9	19.8	6.02e-01	0	42	0	844103680	19	4951
2026-01-13 01:15:12.33	153.10	22.01	-29.2	-32.0	19.8	6.06e-01	0	42	0	846200832	19	4961
2026-01-13 01:15:13.34	153.28	21.88	-29.3	-32.2	19.7	6.02e-01	0	42	0	847773696	19	5041
2026-01-13 01:15:14.34	153.47	21.75	-29.4	-32.6	19.4	6.04e-01	0	42	0	849870848	19	5190
2026-01-13 01:15:15.34	153.65	21.62	-29.3	-32.4	19.5	6.04e-01	0	42	0	851443712	19	5119
2026-01-13 01:15:16.34	153.83	21.49	-29.4	-32.7	19.3	6.04e-01	0	42	0	853540864	19	5229
2026-01-13 01:15:17.35	154.01	21.36	-29.3	-32.2	19.6	6.03e-01	0	42	0	855638016	19	5072
2026-01-13 01:15:18.36	154.19	21.23	-29.2	-32.0	19.7	6.04e-01	0	42	0	857210880	19	4990
2026-01-13 01:15:19.37	154.36	21.10	-29.1	-32.0	19.7	6.04e-01	0	42	0	859308032	19	4989
2026-01-13 01:15:20.37	154.54	20.97	-29.1	-32.0	19.7	6.04e-01	0	42	0	860880896	19	5005
2026-01-13 01:15:21.38	154.71	20.85	-29.1	-31.8	19.8	6.02e-01	0	42	0	862978048	19	4935
2026-01-13 01:15:22.38	154.88	20.72	-29.0	-32.2	19.9	6.02e-01	0	42	0	865075200	18	5183
2026-01-13 01:15:23.39	155.05	20.59	-29.0	-32.2	19.9	6.01e-01	0	42	0	866648064	18	5203
2026-01-13 01:15:24.39	155.22	20.47	-28.9	-32.1	19.9	6.03e-01	0	42	0	868745216	18	5157
2026-01-13 01:15:25.39	155.38	20.34	-28.9	-32.0	20.0	6.04e-01	0	42	0	870318080	18	5110
2026-01-13 01:15:26.40	155.55	20.22	-29.0	-32.1	19.9	6.04e-01	0	42	0	872415232	18	5141
2026-01-13 01:15:27.40	155.72	20.10	-29.2	-32.2	19.6	6.03e-01	0	42	0	874512384	19	5072
2026-01-13 01:15:28.40	155.88	19.97	-29.1	-32.0	19.7	6.05e-01	0	42	0	876085248	19	5005
2026-01-13 01:15:29.41	156.04	19.85	-29.1	-31.9	19.8	6.02e-01	0	42	0	878182400	19	4957
2026-01-13 01:15:30.42	156.20	19.72	-29.1	-31.9	19.8	6.05e-01	0	42	0	879755264	19	4975
2026-01-13 01:15:31.42	156.36	19.60	-29.1	-31.9	19.8	6.03e-01	0	42	0	881852416	19	4969
2026-01-13 01:15:32.43	156.52	19.48	-29.0	-31.7	20.0	6.04e-01	0	42	0	883949568	19	4865
2026-01-13 01:15:33.43	156.67	19.36	-29.0	-32.1	20.0	6.02e-01	0	42	0	885522432	18	5113
2026-01-13 01:15:34.44	156.83	19.24	-29.1	-32.2	19.9	6.04e-01	0	42	0	887619584	18	5164
2026-01-13 01:15:35.45	156.98	19.12	-29.2	-32.4	19.7	6.07e-01	0	42	0	889192448	18	5209
2026-01-13 01:15:36.45	157.14	19.00	-29.2	-32.0	18.4	6.04e-01	0	42	0	891289600	19	4985
2026-01-13 01:15:37.46	157.29	18.88	-29.2	-32.0	19.7	6.05e-01	0	42	0	893386752	19	4983
2026-01-13 01:15:38.46	157.44	18.76	-29.2	-32.0	17.5	6.08e-01	0	42	0	894959616	19	4997
2026-01-13 01:15:39.47	157.59	18.64	-29.3	-32.3	17.7	6.02e-01	0	42	0	897056768	19	5086
2026-01-13 01:15:40.48	157.74	18.52	-29.3	-32.3	19.5	6.04e-01	0	42	0	898629632	19	5075
2026-01-13 01:15:41.48	157.88	18.40	-29.3	-32.4	18.0	6.04e-01	0	42	0	900726784	19	5134
2026-01-13 01:15:42.49	158.03	18.28	-29.4	-32.5	18.1	6.03e-01	0	42	0	902299648	19	5146
2026-01-13 01:15:43.49	158.17	18.17	-29.2	-32.0	19.7	6.02e-01	0	42	0	904396800	19	4995
2026-01-13 01:15:44.49	158.32	18.05	-29.1	-32.3	19.8	6.02e-01	0	42	0	906493952	18	5200
2026-01-13 01:15:45.50	158.46	17.93	-29.0	-32.2	19.8	6.04e-01	0	42	0	908066816	18	5185
2026-01-13 01:15:46.51	158.60	17.82	-29.2	-32.1	19.6	6.03e-01	0	42	0	910163968	19	5018
2026-01-13 01:15:47.52	158.74	17.70	-29.2	-32.1	19.6	6.03e-01	0	42	0	912261120	19	5024
2026-01-13 01:15:48.52	158.88	17.59	-29.0	-32.2	19.7	6.04e-01	0	42	0	913833984	18	5193
2026-01-13 01:15:49.53	159.02	17.47	-29.1	-32.3	19.7	6.03e-01	0	42	0	915931136	18	5220
2026-01-13 01:15:50.53	159.15	17.36	-29.0	-32.1	19.8	6.02e-01	0	42	0	917504000	18	5157
2026-01-13 01:15:51.54	159.29	17.24	-29.1	-32.3	19.7	6.03e-01	0	42	0	919601152	18	5212
2026-01-13 01:15:52.55	159.42	17.13	-29.2	-32.1	19.6	6.02e-01	0	42	0	921174016	19	5018
2026-01-13 01:15:53.55	159.56	17.02	-29.1	-31.9	19.6	6.03e-01	0	42	0	923271168	19	4950
2026-01-13 01:15:54.56	159.69	16.91	-29.1	-32.3	19.7	6.05e-01	0	42	0	925368320	18	5213
2026-01-13 01:15:55.57	159.82	16.79	-29.1	-31.9	19.7	6.03e-01	0	42	0	926941184	19	4977
2026-01-13 01:15:56.58	159.95	16.68	-29.2	-32.0	19.6	6.03e-01	0	42	0	929038336	19	5011
2026-01-13 01:15:57.58	160.08	16.57	-29.1	-32.0	19.6	6.03e-01	0	42	0	930611200	19	4987
2026-01-13 01:15:58.59	160.21	16.46	-29.1	-31.9	19.6	6.03e-01	0	42	0	932708352	19	4956
2026-01-13 01:15:59.60	160.34	16.35	-29.1	-31.9	19.6	6.05e-01	0	42	0	934805504	19	4985
2026-01-13 01:16:00.61	160.47	16.24	-29.2	-32.0	19.6	6.02e-01	0	42	0	936378368	19	5014
2026-01-13 01:16:01.62	160.59	16.13	-29.2	-32.1	19.5	6.03e-01	0	42	0	938475520	19	5058
2026-01-13 01:16:02.62	160.72	16.02	-29.1	-31.9	19.6	6.03e-01	0	42	0	940572672	19	4978
2026-01-13 01:16:03.63	160.84	15.91	-28.9	-31.9	19.9	6.02e-01	0	42	0	942145536	18	5099
2026-01-13 01:16:04.63	160.96	15.81	-28.9	-31.9	19.9	6.04e-01	0	42	0	944242688	18	5089
2026-01-13 01:16:05.64	161.09	15.70	-28.9	-31.9	19.8	6.04e-01	0	42	0	945815552	18	5096
2026-01-13 01:16:06.65	161.21	15.59	-28.8	-31.8	20.0	6.03e-01	0	42	0	947912704	18	5053
2026-01-13 01:16:07.65	161.33	15.48	-28.9	-32.0	19.8	6.04e-01	0	42	0	949485568	18	5140
2026-01-13 01:16:08.65	161.45	15.38	-28.8	-31.9	19.9	6.04e-01	0	42	0	951582720	18	5114
2026-01-13 01:16:09.65	161.57	15.27	-28.7	-31.7	20.0	6.05e-01	0	42	0	953679872	18	5057
2026-01-13 01:16:10.66	161.68	15.17	-28.7	-31.8	19.9	6.02e-01	0	42	0	955252736	18	5114
2026-01-13 01:16:11.67	161.80	15.06	-28.8	-31.9	19.8	6.05e-01	0	42	0	957349888	18	5141
2026-01-13 01:16:12.67	161.92	14.96	-28.7	-31.8	19.8	6.01e-01	0	42	0	958922752	18	5120
2026-01-13 01:16:13.68	162.03	14.85	-28.8	-31.9	19.8	6.02e-01	0	42	0	961019904	18	5151
2026-01-13 01:16:14.68	162.15	14.75	-28.8	-32.0	19.7	6.04e-01	0	42	0	963117056	18	5197
2026-01-13 01:16:15.69	162.26	14.64	-28.8	-32.0	19.7	6.03e-01	0	42	0	964689920	18	5178
2026-01-13 01:16:16.70	162.37	14.54	-28.9	-32.1	19.6	6.07e-01	0	42	0	966787072	18	5229
2026-01-13 01:16:17.70	162.48	14.44	-28.9	-32.2	19.5	6.04e-01	0	42	0	968359936	18	5256
2026-01-13 01:16:18.70	162.59	14.34	-29.0	-32.4	19.4	6.02e-01	0	42	0	970457088	18	5293
2026-01-13 01:16:19.70	162.70	14.23	-29.0	-32.3	19.5	6.04e-01	0	42	0	972554240	18	5273
2026-01-13 01:16:20.71	162.81	14.13	-29.1	-32.1	19.2	6.03e-01	0	42	0	974127104	19	5067
2026-01-13 01:16:21.71	162.92	14.03	-29.2	-32.2	19.3	6.05e-01	0	42	0	976224256	19	5108
2026-01-13 01:16:22.72	163.03	13.93	-29.2	-32.2	19.2	6.02e-01	0	42	0	977797120	19	5076
2026-01-13 01:16:23.72	163.14	13.83	-29.1	-32.0	19.3	6.04e-01	0	42	0	979894272	19	5001
2026-01-13 01:16:24.73	163.24	13.73	-29.1	-32.4	19.6	6.02e-01	0	42	0	981991424	18	5268
2026-01-13 01:16:25.74	163.35	13.63	-29.1	-32.4	19.3	6.06e-01	0	42	0	983564288	18	5264
2026-01-13 01:16:26.75	163.46	13.53	-29.1	-32.5	19.2	6.04e-01	0	42	0	985661440	18	5308
2026-01-13 01:16:27.75	163.56	13.43	-29.2	-32.3	19.2	6.01e-01	0	42	0	987234304	19	5153
2026-01-13 01:16:28.76	163.66	13.33	-29.1	-32.1	19.4	6.02e-01	0	42	0	989331456	19	5067
2026-01-13 01:16:29.76	163.77	13.23	-29.0	-32.3	19.5	6.04e-01	0	42	0	991428608	18	5266
2026-01-13 01:16:30.77	163.87	13.13	-29.1	-32.5	19.4	6.03e-01	0	42	0	993001472	18	5326
2026-01-13 01:16:31.78	163.97	13.04	-29.0	-32.4	19.5	6.04e-01	0	42	0	995098624	18	5297
2026-01-13 01:16:32.78	164.07	12.94	-29.0	-32.3	19.5	6.02e-01	0	42	0	996671488	18	5263
2026-01-13 01:16:33.79	164.17	12.84	-29.1	-32.1	19.3	6.03e-01	0	42	0	998768640	19	5074
2026-01-13 01:16:34.79	164.27	12.75	-29.2	-32.4	19.2	6.02e-01	0	42	0	1000865792	19	5190
2026-01-13 01:16:35.80	164.37	12.65	-29.2	-32.3	19.2	6.04e-01	0	42	0	1002438656	19	5154
2026-01-13 01:16:36.80	164.47	12.55	-29.1	-32.1	19.4	6.02e-01	0	42	0	1004535808	19	5066
2026-01-13 01:16:37.80	164.56	12.46	-29.1	-32.1	19.3	6.03e-01	0	42	0	1006108672	19	5064
2026-01-13 01:16:38.81	164.66	12.36	-29.1	-32.1	19.3	6.06e-01	0	42	0	1008205824	19	5075
2026-01-13 01:16:39.81	164.76	12.27	-29.2	-32.2	19.3	6.02e-01	0	42	0	1010302976	19	5109
2026-01-13 01:16:40.82	164.85	12.17	-29.1	-32.1	19.3	6.01e-01	0	42	0	1011875840	19	5081
2026-01-13 01:16:41.83	164.95	12.08	-29.2	-32.3	19.2	6.02e-01	0	42	0	1013972992	19	5161
2026-01-13 01:16:42.83	165.04	11.99	-29.4	-32.8	18.9	6.04e-01	0	42	0	1015545856	19	5317
2026-01-13 01:16:43.84	165.14	11.89	-29.3	-32.5	19.1	6.02e-01	0	42	0	1017643008	19	5209
2026-01-13 01:16:44.84	165.23	11.80	-29.1	-32.2	19.3	6.00e-01	0	42	0	1019215872	19	5100
2026-01-13 01:16:45.85	165.32	11.71	-29.1	-32.2	19.2	6.01e-01	0	42	0	1021313024	19	5117
2026-01-13 01:16:46.85	165.41	11.62	-29.2	-32.3	19.2	6.01e-01	0	42	0	1023410176	19	5149
2026-01-13 01:16:47.85	165.50	11.52	-29.2	-32.4	19.1	6.04e-01	0	42	0	1024983040	19	5202
2026-01-13 01:16:48.86	165.59	11.43	-29.2	-32.3	19.2	6.03e-01	0	42	0	1027080192	19	5155
2026-01-13 01:16:49.86	165.68	11.34	-29.2	-32.4	19.0	6.02e-01	0	42	0	1029177344	19	5218
2026-01-13 01:16:50.86	165.77	11.25	-29.2	-32.4	19.1	6.01e-01	0	42	0	1030750208	19	5208
2026-01-13 01:16:51.87	165.86	11.16	-29.3	-32.7	18.9	6.02e-01	0	42	0	1032847360	19	5305
2026-01-13 01:16:52.88	165.95	11.07	-29.2	-32.5	19.0	6.03e-01	0	42	0	1034420224	19	5246
2026-01-13 01:16:53.89	166.04	10.98	-29.3	-32.6	19.0	6.04e-01	0	42	0	1036517376	19	5269
2026-01-13 01:16:54.90	166.13	10.89	-29.3	-32.5	18.9	6.04e-01	0	42	0	1038090240	19	5257
2026-01-13 01:16:55.91	166.21	10.80	-29.4	-32.9	18.7	6.03e-01	0	42	0	1040187392	19	5374
2026-01-13 01:16:56.91	166.30	10.71	-29.3	-32.7	18.8	6.03e-01	0	42	0	1042284544	19	5331
2026-01-13 01:16:57.91	166.38	10.62	-29.3	-32.7	18.8	6.04e-01	0	42	0	1043857408	19	5306
2026-01-13 01:16:58.92	166.47	10.53	-29.3	-32.7	18.8	6.02e-01	0	42	0	1045954560	19	5325
2026-01-13 01:16:59.93	166.55	10.44	-29.5	-33.2	18.5	6.03e-01	0	42	0	1047527424	19	5506
2026-01-13 01:17:00.91	166.64	10.36	-28.1	-31.5	18.8	6.03e-01	0	42	0	1049624576	19	5300
2026-01-13 01:17:01.92	166.72	10.27	-29.4	-33.4	18.7	6.05e-01	0	42	0	1051721728	18	5718
2026-01-13 01:17:02.93	166.80	10.18	-29.4	-33.1	17.8	6.09e-01	0	42	0	1053294592	19	5494
2026-01-13 01:17:03.94	166.89	10.09	-29.5	-33.1	18.5	6.04e-01	0	42	0	1055391744	19	5457
2026-01-13 01:17:04.94	166.97	10.01	-29.5	-33.2	17.0	6.11e-01	0	42	0	1056964608	19	5529
2026-01-13 01:17:05.95	167.05	9.92	-29.5	-33.2	16.7	6.06e-01	0	42	0	1059061760	19	5503
2026-01-13 01:17:06.95	167.13	9.83	-29.5	-32.8	18.1	6.04e-01	0	42	0	1060634624	20	5266
2026-01-13 01:17:07.96	167.21	9.75	-29.6	-33.0	18.2	6.02e-01	0	42	0	1062731776	20	5335
2026-01-13 01:17:08.97	167.29	9.66	-29.6	-33.1	18.1	6.03e-01	0	42	0	1064828928	20	5362
2026-01-13 01:17:09.98	167.37	9.57	-29.7	-33.2	18.1	6.05e-01	0	42	0	1066401792	20	5431
2026-01-13 01:17:10.98	167.45	9.49	-29.7	-33.2	18.1	6.02e-01	0	42	0	1068498944	20	5426
2026-01-13 01:17:11.98	167.53	9.41	-29.6	-33.0	18.1	6.02e-01	0	42	0	1070596096	20	5358
2026-01-13 01:17:12.99	167.61	9.32	-29.9	-33.8	17.7	6.05e-01	0	42	0	1072168960	20	5676
2026-01-13 01:17:13.99	167.68	9.24	-29.9	-33.9	17.6	6.03e-01	0	42	0	1074266112	20	5699
2026-01-13 01:17:14.99	167.76	9.15	-29.8	-33.7	17.7	6.01e-01	0	42	0	1075838976	20	5634
2026-01-13 01:17:16.00	167.84	9.07	-30.0	-34.2	17.4	6.00e-01	0	42	0	1077936128	20	5848
2026-01-13 01:17:17.01	167.91	8.99	-29.8	-33.8	17.6	6.03e-01	0	42	0	1080033280	20	5666
2026-01-13 01:17:18.02	167.99	8.90	-29.8	-33.8	17.7	6.03e-01	0	42	0	1081606144	20	5662
2026-01-13 01:17:19.02	168.06	8.82	-29.9	-34.1	17.5	6.05e-01	0	42	0	1083703296	20	5790
2026-01-13 01:17:20.03	168.14	8.74	-30.1	-34.5	17.1	6.04e-01	0	42	0	1085276160	20	6010
2026-01-13 01:17:21.03	168.21	8.65	-29.9	-33.8	17.6	6.02e-01	0	42	0	1087373312	20	5701
2026-01-13 01:17:22.04	168.29	8.57	-29.9	-34.0	17.5	6.03e-01	0	42	0	1088946176	20	5781
2026-01-13 01:17:23.04	168.36	8.49	-29.8	-33.6	17.7	6.02e-01	0	42	0	1091043328	20	5604
2026-01-13 01:17:24.05	168.43	8.41	-29.6	-33.3	17.9	6.02e-01	0	42	0	1093140480	20	5486
2026-01-13 01:17:25.06	168.51	8.33	-29.6	-33.3	17.9	6.01e-01	0	42	0	1094713344	20	5486
2026-01-13 01:17:26.07	168.58	8.25	-29.6	-33.3	17.8	6.05e-01	0	42	0	1096810496	20	5506
2026-01-13 01:17:27.07	168.65	8.16	-29.6	-33.3	17.9	6.03e-01	0	42	0	1098907648	20	5491
2026-01-13 01:17:28.08	168.72	8.08	-29.5	-33.1	18.0	6.03e-01	0	42	0	1100480512	20	5422
2026-01-13 01:17:29.09	168.80	8.00	-29.5	-33.1	18.0	6.04e-01	0	42	0	1102577664	20	5410
2026-01-13 01:17:30.10	168.87	7.92	-29.6	-33.2	17.9	6.02e-01	0	42	0	1104150528	20	5464
2026-01-13 01:17:31.10	168.94	7.84	-29.6	-33.3	17.8	6.04e-01	0	42	0	1106247680	20	5513
2026-01-13 01:17:32.11	169.01	7.76	-29.6	-33.2	17.9	6.02e-01	0	42	0	1108344832	20	5451
2026-01-13 01:17:33.12	169.08	7.68	-29.7	-33.6	17.6	6.04e-01	0	42	0	1109917696	20	5627
2026-01-13 01:17:34.12	169.14	7.60	-29.7	-33.4	17.8	6.03e-01	0	42	0	1112014848	20	5534
2026-01-13 01:17:35.12	169.21	7.53	-29.7	-33.6	17.6	6.02e-01	0	42	0	1113587712	20	5613
2026-01-13 01:17:36.12	169.28	7.45	-29.7	-33.5	17.7	6.02e-01	0	42	0	1115684864	20	5587
2026-01-13 01:17:37.13	169.35	7.37	-29.8	-33.7	17.5	6.02e-01	0	42	0	1117257728	20	5678
2026-01-13 01:17:38.14	169.42	7.29	-29.7	-33.5	17.6	6.02e-01	0	42	0	1119354880	20	5595
2026-01-13 01:17:39.15	169.48	7.21	-29.7	-33.5	17.7	6.00e-01	0	42	0	1121452032	20	5565
2026-01-13 01:17:40.16	169.55	7.13	-30.6	-35.2	17.1	6.03e-01	0	42	0	1123024896	21	6082
2026-01-13 01:17:41.16	169.62	7.06	-32.9	-50.7	3.8	7.43e-01	0	42	104	1124073472	26	27792
2026-01-13 01:17:42.16	169.68	6.98	-33.1	-51.8	3.8	7.45e-01	0	42	104	1124073472	27	30958
2026-01-13 01:17:43.16	169.75	6.90	-33.5	-53.1	3.8	7.47e-01	0	42	104	1124073472	27	34342

#Closed at: 2026-01-13 01:17:43
#Recorded file [1124 MB]: D:/data/31010_260113_040740.dat