passes_logs/2026/01/13/R2M6_AANII_01/R2M6_AANII_01__20260113_084642_NOAA_20_JPSS-1_rec.log

#Pass ID: 20260113_084642_NOAA 20 (JPSS-1)
#Satellite: NOAA 20 (JPSS-1)
#Configuration: NOAA 20
#almurnet v.1.7.20240730
#Start time: 2026-01-13 08:46:44

#Version: 2.2.20231116
#Station: R2M6_AANII_01
#Location: 30.233357 lon 59.946436 lat
#TLE: 1 43013U 17073A   26012.29914746  .00000087  00000+0  62270-4 0  9997
#TLE: 2 43013  98.7632 313.2670 0001616  43.2193 316.9110 14.19535514422351

#Time	Az	El	Level	Level2	SNR	BER	BlckErr	Temp	State	Recorded	gain1	gain2
2026-01-13 08:46:44.21	112.41	7.12	-34.0	-47.5	3.8	1.49e+00	0	39	0	0	29	17087
2026-01-13 08:46:45.21	112.33	7.19	-34.0	-47.5	3.8	1.49e+00	0	40	104	0	29	17099
2026-01-13 08:46:46.22	112.25	7.26	-33.9	-47.5	3.8	1.49e+00	0	40	104	0	29	17101
2026-01-13 08:46:47.23	112.18	7.33	-34.0	-47.5	3.8	1.49e+00	0	40	104	0	29	17137
2026-01-13 08:46:48.24	112.10	7.40	-34.0	-47.5	3.8	1.49e+00	0	40	104	0	29	17117
2026-01-13 08:46:49.24	112.02	7.47	-34.0	-47.5	3.8	1.49e+00	0	40	104	0	29	17026
2026-01-13 08:46:50.25	111.94	7.54	-33.9	-47.5	3.8	1.49e+00	0	40	104	0	29	17049
2026-01-13 08:46:51.26	111.87	7.61	-34.0	-47.5	3.8	1.49e+00	0	40	104	0	29	17074
2026-01-13 08:46:52.26	111.79	7.68	-33.9	-47.5	3.8	1.49e+00	0	40	104	0	29	17085
2026-01-13 08:46:53.26	111.71	7.75	-34.0	-47.5	3.8	1.49e+00	0	40	104	0	29	17092
2026-01-13 08:46:54.27	111.63	7.82	-34.0	-47.5	3.8	1.49e+00	0	40	104	0	29	17060
2026-01-13 08:46:55.27	111.55	7.89	-33.9	-47.5	3.8	1.49e+00	0	40	104	0	29	17116
2026-01-13 08:46:56.28	111.47	7.96	-34.0	-47.5	3.8	1.49e+00	0	40	104	0	29	17109
2026-01-13 08:46:57.28	111.39	8.03	-33.9	-47.5	3.8	1.49e+00	0	40	104	0	29	17125
2026-01-13 08:46:58.28	111.31	8.10	-34.0	-47.5	3.8	1.49e+00	0	40	104	0	29	17107
2026-01-13 08:46:59.29	111.23	8.18	-34.0	-47.5	3.8	1.49e+00	0	40	104	0	29	17069
2026-01-13 08:47:00.29	111.15	8.25	-34.0	-47.5	3.8	1.49e+00	0	40	104	0	29	17107
2026-01-13 08:47:01.30	111.06	8.32	-34.0	-47.5	3.8	1.49e+00	0	40	104	0	29	17082
2026-01-13 08:47:02.31	110.98	8.39	-34.0	-47.5	3.8	1.49e+00	0	40	104	0	29	17103
2026-01-13 08:47:03.31	110.90	8.46	-34.0	-47.5	3.8	1.49e+00	0	40	104	0	29	17106
2026-01-13 08:47:04.31	110.82	8.53	-34.0	-47.5	3.8	1.49e+00	0	40	104	0	29	17161
2026-01-13 08:47:05.32	110.73	8.61	-34.0	-47.5	3.8	1.49e+00	0	40	104	0	29	17081
2026-01-13 08:47:06.32	110.65	8.68	-34.0	-47.5	3.8	1.49e+00	0	40	104	0	29	17090
2026-01-13 08:47:07.33	110.56	8.75	-34.0	-47.5	3.8	1.49e+00	0	40	104	0	29	17127
2026-01-13 08:47:08.33	110.48	8.82	-34.0	-47.5	3.8	1.49e+00	0	40	104	0	29	17112
2026-01-13 08:47:09.34	110.39	8.90	-34.0	-47.5	3.8	1.49e+00	0	40	104	0	29	17101
2026-01-13 08:47:10.35	110.30	8.97	-34.0	-47.5	3.8	1.49e+00	0	40	104	0	29	17077
2026-01-13 08:47:11.35	110.22	9.04	-34.0	-47.5	3.8	1.49e+00	0	40	104	0	29	17108
2026-01-13 08:47:12.35	110.13	9.12	-34.0	-47.5	3.8	1.49e+00	0	40	104	0	29	17123
2026-01-13 08:47:13.36	110.04	9.19	-34.0	-47.5	3.8	1.49e+00	0	41	104	0	29	17153
2026-01-13 08:47:14.36	109.96	9.26	-34.0	-47.5	3.8	1.49e+00	0	40	104	0	29	17124
2026-01-13 08:47:15.37	109.87	9.34	-34.0	-47.5	3.8	1.49e+00	0	41	104	0	29	17077
2026-01-13 08:47:16.37	109.78	9.41	-34.0	-47.5	3.8	1.49e+00	0	41	104	0	29	17151
2026-01-13 08:47:17.37	109.69	9.49	-34.0	-47.5	3.8	1.49e+00	0	41	104	0	29	17105
2026-01-13 08:47:18.38	109.60	9.56	-34.0	-47.5	3.8	1.49e+00	0	41	104	0	29	17139
2026-01-13 08:47:19.38	109.51	9.63	-34.0	-47.5	3.8	1.49e+00	0	41	104	0	29	17113
2026-01-13 08:47:20.39	109.42	9.71	-34.0	-47.5	3.8	1.49e+00	0	41	104	0	29	17123
2026-01-13 08:47:21.40	109.33	9.78	-34.0	-47.5	3.8	1.49e+00	0	41	104	0	29	17063
2026-01-13 08:47:22.40	109.24	9.86	-34.0	-47.5	3.8	1.49e+00	0	41	104	0	29	17102
2026-01-13 08:47:23.41	109.14	9.93	-34.0	-47.5	3.8	1.49e+00	0	41	104	0	29	17093
2026-01-13 08:47:24.42	109.05	10.01	-34.0	-47.5	3.8	1.49e+00	0	41	104	0	29	17072
2026-01-13 08:47:25.43	108.96	10.09	-34.0	-47.5	3.8	1.49e+00	0	41	104	0	29	17132
2026-01-13 08:47:26.43	108.87	10.16	-34.0	-47.5	3.8	1.49e+00	0	41	104	0	29	17142
2026-01-13 08:47:27.44	108.77	10.24	-34.0	-47.5	3.8	1.49e+00	0	41	104	0	29	17125
2026-01-13 08:47:28.45	108.68	10.31	-34.0	-47.5	3.8	1.49e+00	0	41	104	0	29	17115
2026-01-13 08:47:29.46	108.58	10.39	-34.0	-47.5	3.8	1.49e+00	0	41	104	0	29	17150
2026-01-13 08:47:30.47	108.48	10.47	-34.0	-47.5	3.8	1.49e+00	0	41	104	0	29	17116
2026-01-13 08:47:31.47	108.39	10.54	-34.0	-47.5	3.8	1.49e+00	0	41	104	0	29	17074
2026-01-13 08:47:32.48	108.29	10.62	-34.0	-47.5	3.8	1.49e+00	0	41	104	0	29	17106
2026-01-13 08:47:33.49	108.19	10.70	-34.0	-47.5	3.8	1.49e+00	0	41	104	0	29	17119
2026-01-13 08:47:34.49	108.10	10.77	-34.0	-47.5	3.8	1.49e+00	0	41	104	0	29	17101
2026-01-13 08:47:35.50	108.00	10.85	-34.0	-47.5	3.8	1.49e+00	0	41	104	0	29	17121
2026-01-13 08:47:36.51	107.90	10.93	-34.0	-47.5	3.8	1.49e+00	0	41	104	0	29	17093
2026-01-13 08:47:37.51	107.80	11.00	-34.0	-47.5	3.8	1.49e+00	0	41	104	0	29	17142
2026-01-13 08:47:38.50	107.70	11.08	-34.0	-47.5	3.8	1.49e+00	0	41	104	0	29	17119
2026-01-13 08:47:39.52	107.60	11.16	-34.0	-47.5	3.8	1.49e+00	0	41	104	0	29	17104
2026-01-13 08:47:40.52	107.50	11.24	-34.0	-47.5	3.8	1.49e+00	0	41	104	0	29	17144
2026-01-13 08:47:41.52	107.40	11.31	-34.0	-47.5	3.8	1.49e+00	0	41	104	0	29	17118
2026-01-13 08:47:42.52	107.30	11.39	-34.0	-47.5	3.8	1.49e+00	0	41	104	0	29	17133
2026-01-13 08:47:43.53	107.19	11.47	-34.0	-47.5	3.8	1.49e+00	0	41	104	0	29	17159
2026-01-13 08:47:44.54	107.09	11.55	-34.0	-47.5	3.8	1.49e+00	0	41	104	0	29	17121
2026-01-13 08:47:45.54	106.99	11.63	-34.0	-47.5	3.8	1.49e+00	0	41	104	0	29	17170
2026-01-13 08:47:46.54	106.88	11.71	-34.0	-47.5	3.8	1.49e+00	0	41	104	0	29	17160
2026-01-13 08:47:47.55	106.78	11.78	-34.0	-47.5	3.8	1.49e+00	0	41	104	0	29	17130
2026-01-13 08:47:48.56	106.67	11.86	-34.0	-47.5	3.8	1.49e+00	0	41	104	0	29	17106
2026-01-13 08:47:49.56	106.57	11.94	-34.0	-47.5	3.8	1.49e+00	0	41	104	0	29	17068
2026-01-13 08:47:50.57	106.46	12.02	-34.0	-47.5	3.8	1.49e+00	0	41	104	0	29	17105
2026-01-13 08:47:51.58	106.35	12.10	-34.0	-47.5	3.8	1.49e+00	0	41	104	0	29	17130
2026-01-13 08:47:52.59	106.24	12.18	-34.0	-47.5	3.8	1.49e+00	0	41	104	0	29	17078
2026-01-13 08:47:53.59	106.14	12.26	-34.0	-47.5	3.8	1.49e+00	0	41	104	0	29	17144
2026-01-13 08:47:54.60	106.03	12.34	-34.0	-47.5	3.8	1.49e+00	0	41	104	0	29	17101
2026-01-13 08:47:55.61	105.92	12.42	-34.0	-47.5	3.8	1.49e+00	0	41	104	0	29	17106
2026-01-13 08:47:56.62	105.81	12.50	-34.0	-47.5	3.8	1.49e+00	0	41	104	0	29	17185
2026-01-13 08:47:57.63	105.69	12.58	-34.0	-47.5	3.8	1.49e+00	0	41	104	0	29	17078
2026-01-13 08:47:58.64	105.58	12.66	-34.0	-47.5	3.8	1.49e+00	0	41	104	0	29	17058
2026-01-13 08:47:59.64	105.47	12.75	-34.0	-47.5	3.8	1.49e+00	0	41	104	0	29	17079
2026-01-13 08:48:00.65	105.36	12.83	-34.0	-47.5	3.8	1.49e+00	0	41	104	0	29	17111
2026-01-13 08:48:01.65	105.25	12.91	-34.0	-47.5	3.8	1.49e+00	0	42	104	0	29	17131
2026-01-13 08:48:02.66	105.13	12.99	-34.0	-47.5	3.8	1.49e+00	0	41	104	0	29	17133
2026-01-13 08:48:03.67	105.02	13.07	-34.0	-47.5	3.8	1.49e+00	0	41	104	0	29	17081
2026-01-13 08:48:04.68	104.90	13.15	-34.0	-47.5	3.8	1.49e+00	0	41	104	0	29	17075
2026-01-13 08:48:05.68	104.79	13.23	-34.0	-47.5	3.8	1.49e+00	0	41	104	0	29	17144
2026-01-13 08:48:06.68	104.67	13.32	-34.0	-47.5	3.8	1.49e+00	0	41	104	0	29	17094
2026-01-13 08:48:07.69	104.55	13.40	-34.0	-47.5	3.8	1.49e+00	0	41	104	0	29	17071
2026-01-13 08:48:08.70	104.43	13.48	-34.0	-47.5	3.8	1.49e+00	0	42	104	0	29	17135
2026-01-13 08:48:09.70	104.32	13.56	-34.0	-47.5	3.8	1.49e+00	0	42	104	0	29	17139
2026-01-13 08:48:10.71	104.20	13.64	-34.0	-47.5	3.8	1.49e+00	0	41	104	0	29	17124
2026-01-13 08:48:11.71	104.08	13.73	-34.0	-47.5	3.8	1.49e+00	0	41	104	0	29	17161
2026-01-13 08:48:12.71	103.96	13.81	-34.0	-47.5	3.8	1.49e+00	0	41	104	0	29	17101
2026-01-13 08:48:13.72	103.83	13.89	-34.0	-47.5	3.8	1.49e+00	0	41	104	0	29	17113
2026-01-13 08:48:14.73	103.71	13.98	-34.0	-47.5	3.8	1.49e+00	0	41	104	0	29	17118
2026-01-13 08:48:15.74	103.59	14.06	-34.0	-47.5	3.8	1.49e+00	0	41	104	0	29	17120
2026-01-13 08:48:16.74	103.47	14.14	-34.0	-47.5	3.8	1.49e+00	0	42	104	0	29	17110
2026-01-13 08:48:17.74	103.34	14.23	-34.0	-47.5	3.8	1.49e+00	0	41	104	0	29	17118
2026-01-13 08:48:18.74	103.22	14.31	-34.0	-47.5	3.8	1.49e+00	0	41	104	0	29	17093
2026-01-13 08:48:19.75	103.09	14.39	-34.0	-47.5	3.8	1.49e+00	0	42	104	0	29	17174
2026-01-13 08:48:20.75	102.97	14.48	-34.0	-47.5	3.8	1.49e+00	0	41	104	0	29	17109
2026-01-13 08:48:21.76	102.84	14.56	-34.0	-47.5	3.8	1.49e+00	0	41	104	0	29	17089
2026-01-13 08:48:22.76	102.71	14.65	-34.0	-47.5	3.8	1.49e+00	0	42	104	0	29	17095
2026-01-13 08:48:23.77	102.58	14.73	-34.0	-47.5	3.8	1.49e+00	0	42	104	0	29	17125
2026-01-13 08:48:24.78	102.45	14.82	-34.0	-47.5	3.8	1.49e+00	0	42	104	0	29	17096
2026-01-13 08:48:25.78	102.32	14.90	-34.0	-47.5	3.8	1.49e+00	0	41	104	0	29	17119
2026-01-13 08:48:26.79	102.19	14.99	-34.0	-47.5	3.8	1.49e+00	0	41	104	0	29	17101
2026-01-13 08:48:27.79	102.06	15.07	-34.0	-47.5	3.8	1.49e+00	0	42	104	0	29	17132
2026-01-13 08:48:28.80	101.93	15.16	-34.0	-47.5	3.8	1.49e+00	0	42	104	0	29	17122
2026-01-13 08:48:29.80	101.80	15.24	-34.0	-47.5	3.8	1.49e+00	0	42	104	0	29	17099
2026-01-13 08:48:30.81	101.66	15.33	-34.0	-47.5	3.8	1.49e+00	0	42	104	0	29	17130
2026-01-13 08:48:31.82	101.53	15.41	-34.0	-47.5	3.8	1.49e+00	0	42	104	0	29	17117
2026-01-13 08:48:32.82	101.39	15.50	-34.0	-47.5	3.8	1.49e+00	0	42	104	0	29	17117
2026-01-13 08:48:33.82	101.26	15.58	-34.0	-47.5	3.8	1.49e+00	0	42	104	0	29	17148
2026-01-13 08:48:34.83	101.12	15.67	-34.0	-47.5	3.8	1.49e+00	0	42	104	0	29	17157
2026-01-13 08:48:35.84	100.98	15.76	-34.0	-47.5	3.8	1.49e+00	0	42	104	0	29	17128
2026-01-13 08:48:36.84	100.84	15.84	-34.0	-47.5	3.8	1.49e+00	0	41	104	0	29	17097
2026-01-13 08:48:37.84	100.71	15.93	-34.0	-47.5	3.8	1.49e+00	0	42	104	0	29	17131
2026-01-13 08:48:38.84	100.57	16.01	-34.0	-47.5	3.8	1.49e+00	0	42	104	0	29	17141
2026-01-13 08:48:39.86	100.42	16.10	-34.0	-47.5	3.8	1.49e+00	0	42	104	0	29	17088
2026-01-13 08:48:40.86	100.28	16.19	-34.0	-47.5	3.8	1.49e+00	0	42	104	0	29	17068
2026-01-13 08:48:41.87	100.14	16.28	-34.0	-47.5	3.8	1.49e+00	0	42	104	0	29	17077
2026-01-13 08:48:42.87	100.00	16.36	-34.0	-47.5	3.8	1.49e+00	0	41	104	0	29	17154
2026-01-13 08:48:43.88	99.85	16.45	-34.0	-47.5	3.8	1.49e+00	0	42	104	0	29	17104
2026-01-13 08:48:44.89	99.71	16.54	-34.0	-47.5	3.8	1.49e+00	0	42	104	0	29	17113
2026-01-13 08:48:45.90	99.56	16.63	-34.0	-47.5	3.8	1.49e+00	0	42	104	0	29	17117
2026-01-13 08:48:46.91	99.41	16.71	-34.0	-47.5	3.8	1.49e+00	0	42	104	0	29	17111
2026-01-13 08:48:47.92	99.26	16.80	-34.0	-47.5	3.8	1.49e+00	0	42	104	0	29	17119
2026-01-13 08:48:48.93	99.11	16.89	-34.0	-47.5	3.8	1.49e+00	0	42	104	0	29	17147
2026-01-13 08:48:49.94	98.96	16.98	-34.0	-47.5	3.8	1.49e+00	0	42	104	0	29	17136
2026-01-13 08:48:50.95	98.81	17.07	-34.0	-47.5	3.8	1.49e+00	0	42	104	0	29	17115
2026-01-13 08:48:51.96	98.66	17.16	-34.0	-47.5	3.8	1.49e+00	0	42	104	0	29	17086
2026-01-13 08:48:52.96	98.51	17.24	-34.0	-47.5	3.8	1.49e+00	0	42	104	0	29	17128
2026-01-13 08:48:53.97	98.35	17.33	-34.0	-47.5	3.8	1.49e+00	0	42	104	0	29	17091
2026-01-13 08:48:54.97	98.20	17.42	-34.0	-47.5	3.8	1.49e+00	0	42	104	0	29	17114
2026-01-13 08:48:55.98	98.05	17.51	-34.0	-47.5	3.8	1.49e+00	0	42	104	0	29	17103
2026-01-13 08:48:56.99	97.89	17.60	-34.0	-47.5	3.8	1.49e+00	0	42	104	0	29	17097
2026-01-13 08:48:58.00	97.73	17.69	-34.0	-47.5	3.8	1.49e+00	0	42	104	0	29	17169
2026-01-13 08:48:59.00	97.57	17.78	-34.0	-47.5	3.8	1.49e+00	0	42	104	0	29	17119
2026-01-13 08:49:00.01	97.42	17.87	-34.0	-47.5	3.8	1.49e+00	0	42	104	0	29	17115
2026-01-13 08:49:01.02	97.26	17.95	-34.0	-47.5	3.8	1.49e+00	0	42	104	0	29	17126
2026-01-13 08:49:02.02	97.10	18.04	-34.0	-47.5	3.8	1.49e+00	0	42	104	0	29	17123
2026-01-13 08:49:03.03	96.93	18.13	-34.0	-47.5	3.8	1.49e+00	0	42	104	0	29	17149
2026-01-13 08:49:04.04	96.77	18.22	-34.0	-47.5	3.8	1.49e+00	0	42	104	0	29	17121
2026-01-13 08:49:05.04	96.61	18.31	-34.0	-47.5	3.8	1.49e+00	0	42	104	0	29	17101
2026-01-13 08:49:06.05	96.44	18.40	-34.0	-47.5	3.8	1.49e+00	0	42	104	0	29	17102
2026-01-13 08:49:07.06	96.28	18.49	-34.0	-47.5	3.8	1.49e+00	0	42	104	0	29	17119
2026-01-13 08:49:08.07	96.11	18.58	-34.0	-47.5	3.8	1.49e+00	0	42	104	0	29	17135
2026-01-13 08:49:09.08	95.94	18.67	-34.0	-47.5	3.8	1.49e+00	0	42	104	0	29	17113
2026-01-13 08:49:10.08	95.77	18.76	-34.0	-47.5	3.8	1.49e+00	0	42	104	0	29	17098
2026-01-13 08:49:11.09	95.60	18.85	-34.0	-47.5	3.8	1.49e+00	0	42	104	0	29	17157
2026-01-13 08:49:12.10	95.43	18.94	-34.0	-47.5	3.8	1.49e+00	0	42	104	0	29	17155
2026-01-13 08:49:13.10	95.26	19.03	-34.0	-47.5	3.8	1.49e+00	0	42	104	0	29	17115
2026-01-13 08:49:14.10	95.09	19.12	-34.0	-47.5	3.8	1.49e+00	0	42	104	0	29	17130
2026-01-13 08:49:15.11	94.91	19.21	-34.0	-47.5	3.8	1.49e+00	0	42	104	0	29	17104
2026-01-13 08:49:16.12	94.74	19.30	-34.0	-47.5	3.8	1.49e+00	0	42	104	0	29	17127
2026-01-13 08:49:17.13	94.56	19.39	-34.0	-47.5	3.8	1.49e+00	0	42	104	0	29	17156
2026-01-13 08:49:18.13	94.39	19.48	-34.0	-47.5	3.8	1.49e+00	0	42	104	0	29	17112
2026-01-13 08:49:19.14	94.21	19.57	-34.0	-47.5	3.8	1.49e+00	0	42	104	0	29	17135
2026-01-13 08:49:20.14	94.03	19.66	-34.0	-47.5	3.8	1.49e+00	0	42	104	0	29	17166
2026-01-13 08:49:21.15	93.85	19.75	-34.0	-47.5	3.8	1.49e+00	0	42	104	0	29	17126
2026-01-13 08:49:22.17	93.67	19.85	-34.0	-47.5	3.8	1.49e+00	0	42	104	0	29	17101
2026-01-13 08:49:23.17	93.48	19.94	-34.0	-47.5	3.8	1.49e+00	0	42	104	0	29	17156
2026-01-13 08:49:24.17	93.30	20.03	-34.0	-47.5	3.8	1.49e+00	0	42	104	0	29	17076
2026-01-13 08:49:25.18	93.12	20.12	-34.0	-47.5	3.8	1.49e+00	0	42	104	0	29	17153
2026-01-13 08:49:26.18	92.93	20.21	-34.0	-47.5	3.8	1.49e+00	0	42	104	0	29	17078
2026-01-13 08:49:27.19	92.75	20.30	-34.0	-47.5	3.8	1.49e+00	0	42	104	0	29	17092
2026-01-13 08:49:28.20	92.56	20.39	-34.0	-47.5	3.8	1.49e+00	0	42	104	0	29	17104
2026-01-13 08:49:29.20	92.37	20.48	-34.0	-47.5	3.8	1.49e+00	0	42	104	0	29	17118
2026-01-13 08:49:30.21	92.18	20.57	-34.0	-47.5	3.8	1.49e+00	0	42	104	0	29	17136
2026-01-13 08:49:31.21	91.99	20.66	-34.0	-47.5	3.8	1.49e+00	0	42	104	0	29	17085
2026-01-13 08:49:32.22	91.80	20.75	-34.0	-47.5	3.8	1.49e+00	0	42	104	0	29	17125
2026-01-13 08:49:33.22	91.60	20.84	-34.0	-47.5	3.8	1.49e+00	0	42	104	0	29	17126
2026-01-13 08:49:34.23	91.41	20.93	-34.0	-47.5	3.8	1.49e+00	0	42	104	0	29	17137
2026-01-13 08:49:35.24	91.21	21.02	-34.0	-47.5	3.8	1.49e+00	0	42	104	0	29	17131
2026-01-13 08:49:36.25	91.01	21.11	-34.0	-47.5	3.8	1.49e+00	0	42	104	0	29	17068
2026-01-13 08:49:37.25	90.82	21.20	-34.0	-47.5	3.8	1.49e+00	0	42	104	0	29	17166
2026-01-13 08:49:38.26	90.62	21.29	-34.0	-47.5	3.8	1.49e+00	0	42	104	0	29	17148
2026-01-13 08:49:39.27	90.42	21.38	-34.0	-47.5	3.8	1.49e+00	0	42	104	0	29	17113
2026-01-13 08:49:40.27	90.22	21.47	-34.0	-47.5	3.8	1.49e+00	0	42	104	0	29	17111
2026-01-13 08:49:41.28	90.01	21.56	-34.0	-47.5	3.8	1.49e+00	0	42	104	0	29	17117
2026-01-13 08:49:42.29	89.81	21.65	-34.0	-47.5	3.8	1.49e+00	0	42	104	0	29	17084
2026-01-13 08:49:43.29	89.60	21.74	-34.0	-47.5	3.8	1.49e+00	0	42	104	0	29	17121
2026-01-13 08:49:44.30	89.40	21.83	-34.0	-47.6	3.8	1.49e+00	0	42	104	0	29	17197
2026-01-13 08:49:45.30	89.19	21.92	-34.0	-47.5	3.8	1.49e+00	0	42	104	0	29	17115
2026-01-13 08:49:46.31	88.98	22.01	-34.0	-47.5	3.8	1.49e+00	0	42	104	0	29	17110
2026-01-13 08:49:47.32	88.77	22.10	-34.0	-47.5	3.8	1.49e+00	0	42	104	0	29	17093
2026-01-13 08:49:48.33	88.56	22.19	-34.0	-47.5	3.8	1.49e+00	0	42	104	0	29	17086
2026-01-13 08:49:49.34	88.35	22.28	-34.0	-47.5	3.8	1.49e+00	0	42	104	0	29	17150
2026-01-13 08:49:50.35	88.13	22.37	-34.0	-47.5	3.8	1.49e+00	0	42	104	0	29	17165
2026-01-13 08:49:51.35	87.92	22.46	-34.0	-47.5	3.8	1.49e+00	0	42	104	0	29	17137
2026-01-13 08:49:52.36	87.70	22.55	-34.0	-47.5	3.8	1.49e+00	0	42	104	0	29	17150
2026-01-13 08:49:53.37	87.48	22.64	-34.0	-47.5	3.8	1.49e+00	0	42	104	0	29	17166
2026-01-13 08:49:54.38	87.26	22.73	-34.0	-47.5	3.8	1.49e+00	0	42	104	0	29	17115
2026-01-13 08:49:55.38	87.04	22.82	-34.0	-47.5	3.8	1.49e+00	0	42	104	0	29	17150
2026-01-13 08:49:56.39	86.82	22.91	-34.0	-47.5	3.8	1.49e+00	0	42	104	0	29	17149
2026-01-13 08:49:57.40	86.60	22.99	-34.0	-47.5	3.8	1.49e+00	0	42	104	0	29	17108
2026-01-13 08:49:58.40	86.38	23.08	-34.0	-47.5	3.8	1.49e+00	0	42	104	0	29	17154
2026-01-13 08:49:59.41	86.15	23.17	-34.0	-47.5	3.8	1.49e+00	0	42	104	0	29	17108
2026-01-13 08:50:00.42	85.92	23.26	-34.0	-47.6	3.8	1.49e+00	0	42	104	0	29	17172
2026-01-13 08:50:01.43	85.70	23.35	-34.0	-47.5	3.8	1.49e+00	0	42	104	0	29	17143
2026-01-13 08:50:02.44	85.47	23.43	-34.0	-47.5	3.8	1.49e+00	0	42	104	0	29	17131
2026-01-13 08:50:03.44	85.24	23.52	-34.0	-47.5	3.8	1.49e+00	0	42	104	0	29	17124
2026-01-13 08:50:04.45	85.00	23.61	-34.0	-47.5	3.8	1.49e+00	0	42	104	0	29	17145
2026-01-13 08:50:05.46	84.77	23.70	-34.0	-47.5	3.8	1.49e+00	0	42	104	0	29	17163
2026-01-13 08:50:06.47	84.54	23.78	-34.0	-47.5	3.8	1.49e+00	0	42	104	0	29	17148
2026-01-13 08:50:07.47	84.30	23.87	-34.0	-47.5	3.8	1.49e+00	0	42	104	0	29	17139
2026-01-13 08:50:08.48	84.06	23.96	-34.0	-47.5	3.8	1.49e+00	0	42	104	0	29	17164
2026-01-13 08:50:09.49	83.83	24.04	-34.0	-47.5	3.8	1.49e+00	0	42	104	0	29	17154
2026-01-13 08:50:10.49	83.59	24.13	-34.0	-47.5	3.8	1.49e+00	0	42	104	0	29	17120
2026-01-13 08:50:11.50	83.35	24.21	-34.0	-47.5	3.8	1.49e+00	0	42	104	0	29	17103
2026-01-13 08:50:12.50	83.11	24.30	-34.0	-47.5	3.8	1.49e+00	0	42	104	0	29	17134
2026-01-13 08:50:13.51	82.86	24.38	-34.0	-47.5	3.8	1.49e+00	0	42	104	0	29	17171
2026-01-13 08:50:14.50	82.62	24.47	-34.0	-47.5	3.8	1.49e+00	0	42	104	0	29	17163
2026-01-13 08:50:15.50	82.38	24.55	-34.0	-47.5	3.8	1.49e+00	0	42	104	0	29	17168
2026-01-13 08:50:16.51	82.13	24.63	-33.9	-47.5	3.8	1.49e+00	0	42	104	0	29	17134
2026-01-13 08:50:17.51	81.88	24.72	-33.9	-47.5	3.8	1.49e+00	0	42	104	0	29	17120
2026-01-13 08:50:18.52	81.63	24.80	-33.9	-47.4	3.8	1.49e+00	0	42	104	0	29	17126
2026-01-13 08:50:19.53	81.38	24.88	-33.9	-47.4	3.8	1.49e+00	0	42	104	0	29	17121
2026-01-13 08:50:20.54	81.13	24.97	-33.8	-47.4	3.8	1.49e+00	0	42	104	0	29	17141
2026-01-13 08:50:21.54	80.87	25.05	-33.9	-47.4	3.8	1.49e+00	0	42	104	0	29	17156
2026-01-13 08:50:22.55	80.62	25.13	-33.8	-47.4	3.8	1.49e+00	0	42	104	0	29	17125
2026-01-13 08:50:23.55	80.36	25.21	-33.8	-47.9	3.8	1.49e+00	0	42	104	0	28	18140
2026-01-13 08:50:24.56	80.10	25.29	-33.9	-47.9	3.8	1.49e+00	0	42	104	0	28	18145
2026-01-13 08:50:25.57	79.84	25.37	-33.8	-47.8	3.8	1.49e+00	0	42	104	0	28	18147
2026-01-13 08:50:26.58	79.58	25.45	-33.9	-48.0	3.8	1.49e+00	0	42	104	0	28	18218
2026-01-13 08:50:27.58	79.32	25.53	-33.8	-47.9	3.8	1.49e+00	0	42	104	0	28	18140
2026-01-13 08:50:28.58	79.06	25.61	-33.8	-47.9	3.8	1.49e+00	0	42	104	0	28	18166
2026-01-13 08:50:29.59	78.80	25.69	-33.9	-47.9	3.8	1.49e+00	0	42	104	0	28	18171
2026-01-13 08:50:30.59	78.53	25.77	-33.9	-47.9	3.8	1.49e+00	0	42	104	0	28	18144
2026-01-13 08:50:31.60	78.26	25.85	-33.9	-47.9	3.8	1.49e+00	0	42	104	0	28	18167
2026-01-13 08:50:32.60	78.00	25.93	-33.9	-47.9	3.8	1.49e+00	0	42	104	0	28	18146
2026-01-13 08:50:33.61	77.73	26.00	-33.9	-47.9	3.8	1.49e+00	0	42	104	0	28	18161
2026-01-13 08:50:34.62	77.45	26.08	-33.9	-48.0	3.8	1.49e+00	0	42	104	0	28	18193
2026-01-13 08:50:35.63	77.18	26.16	-33.9	-47.9	3.8	1.49e+00	0	42	104	0	28	18149
2026-01-13 08:50:36.63	76.91	26.23	-33.9	-47.9	3.8	1.49e+00	0	42	104	0	28	18174
2026-01-13 08:50:37.64	76.63	26.31	-33.8	-47.9	3.8	1.49e+00	0	42	104	0	28	18176
2026-01-13 08:50:38.64	76.36	26.38	-33.8	-47.9	3.8	1.49e+00	0	42	104	0	28	18190
2026-01-13 08:50:39.65	76.08	26.46	-33.8	-47.8	3.8	1.49e+00	0	42	104	0	28	18133
2026-01-13 08:50:40.66	75.80	26.53	-33.9	-48.0	3.8	1.49e+00	0	42	104	0	28	18227
2026-01-13 08:50:41.67	75.52	26.60	-34.0	-48.0	3.8	1.49e+00	0	42	104	0	28	18172
2026-01-13 08:50:42.68	75.24	26.68	-34.0	-48.0	3.8	1.49e+00	0	42	104	0	28	18142
2026-01-13 08:50:43.69	74.95	26.75	-34.0	-48.0	3.8	1.49e+00	0	42	104	0	28	18160
2026-01-13 08:50:44.70	74.67	26.82	-34.0	-48.0	3.8	1.49e+00	0	42	104	0	28	18140
2026-01-13 08:50:45.71	74.38	26.89	-34.0	-48.1	3.8	1.49e+00	0	42	104	0	28	18224
2026-01-13 08:50:46.70	74.10	26.96	-34.0	-48.0	3.8	1.49e+00	0	42	104	0	28	18157
2026-01-13 08:50:47.71	73.81	27.03	-34.0	-48.1	3.8	1.49e+00	0	42	104	0	28	18233
2026-01-13 08:50:48.72	73.52	27.10	-34.0	-48.1	3.8	1.49e+00	0	42	104	0	28	18198
2026-01-13 08:50:49.72	73.23	27.17	-34.0	-48.0	3.8	1.49e+00	0	42	104	0	28	18173
2026-01-13 08:50:50.73	72.94	27.24	-34.0	-48.0	3.8	1.49e+00	0	42	104	0	28	18168
2026-01-13 08:50:51.74	72.64	27.30	-34.0	-48.0	3.8	1.49e+00	0	42	104	0	28	18171
2026-01-13 08:50:52.74	72.35	27.37	-34.0	-48.0	3.8	1.49e+00	0	42	104	0	28	18166
2026-01-13 08:50:53.75	72.06	27.43	-34.0	-48.0	3.8	1.49e+00	0	42	104	0	28	18185
2026-01-13 08:50:54.76	71.76	27.50	-34.0	-48.0	3.8	1.49e+00	0	42	104	0	28	18105
2026-01-13 08:50:55.77	71.46	27.56	-34.0	-48.0	3.8	1.49e+00	0	42	104	0	28	18167
2026-01-13 08:50:56.78	71.16	27.63	-33.8	-47.9	3.8	1.49e+00	0	42	104	0	28	18168
2026-01-13 08:50:57.78	70.86	27.69	-33.9	-47.9	3.8	1.49e+00	0	42	104	0	28	18206
2026-01-13 08:50:58.79	70.56	27.75	-33.7	-47.8	3.8	1.49e+00	0	42	104	0	28	18172
2026-01-13 08:50:59.79	70.26	27.81	-33.9	-47.9	3.8	1.49e+00	0	42	104	0	28	18161
2026-01-13 08:51:00.80	69.95	27.87	-33.9	-48.0	3.8	1.49e+00	0	42	104	0	28	18182
2026-01-13 08:51:01.80	69.65	27.93	-33.9	-48.0	3.8	1.49e+00	0	42	104	0	28	18158
2026-01-13 08:51:02.81	69.34	27.99	-34.0	-48.0	3.8	1.49e+00	0	42	104	0	28	18173
2026-01-13 08:51:03.82	69.04	28.05	-34.0	-48.0	3.8	1.49e+00	0	42	104	0	28	18168
2026-01-13 08:51:04.82	68.73	28.11	-34.0	-48.1	3.8	1.49e+00	0	42	104	0	28	18192
2026-01-13 08:51:05.83	68.42	28.17	-34.0	-48.0	3.8	1.49e+00	0	42	104	0	28	18148
2026-01-13 08:51:06.83	68.11	28.22	-34.0	-48.0	3.8	1.49e+00	0	42	104	0	28	18151
2026-01-13 08:51:07.84	67.80	28.28	-34.0	-48.0	3.8	1.49e+00	0	42	104	0	28	18130
2026-01-13 08:51:08.85	67.48	28.33	-34.0	-48.0	3.8	1.49e+00	0	42	104	0	28	18200
2026-01-13 08:51:09.86	67.17	28.38	-34.0	-48.0	3.8	1.49e+00	0	42	104	0	28	18157
2026-01-13 08:51:10.86	66.86	28.44	-34.0	-48.0	3.8	1.49e+00	0	42	104	0	28	18173
2026-01-13 08:51:11.87	66.54	28.49	-34.0	-48.0	3.8	1.49e+00	0	42	104	0	28	18130
2026-01-13 08:51:12.87	66.23	28.54	-34.0	-48.0	3.8	1.49e+00	0	42	104	0	28	18162
2026-01-13 08:51:13.88	65.91	28.59	-34.0	-48.0	3.8	1.49e+00	0	42	104	0	28	18165
2026-01-13 08:51:14.89	65.59	28.64	-34.0	-48.0	3.8	1.49e+00	0	42	104	0	28	18155
2026-01-13 08:51:15.89	65.27	28.69	-34.0	-48.0	3.8	1.49e+00	0	42	104	0	28	18164
2026-01-13 08:51:16.90	64.95	28.73	-34.0	-48.1	3.8	1.49e+00	0	42	104	0	28	18187
2026-01-13 08:51:17.90	64.63	28.78	-34.0	-48.0	3.8	1.49e+00	0	42	104	0	28	18167
2026-01-13 08:51:18.91	64.31	28.82	-34.0	-48.0	3.8	1.49e+00	0	42	104	0	28	18140
2026-01-13 08:51:19.92	63.98	28.87	-34.0	-48.0	3.8	1.49e+00	0	42	104	0	28	18145
2026-01-13 08:51:20.93	63.66	28.91	-34.0	-48.0	3.8	1.49e+00	0	42	104	0	28	18161
2026-01-13 08:51:21.93	63.33	28.95	-34.0	-48.1	3.8	1.49e+00	0	42	104	0	28	18207
2026-01-13 08:51:22.94	63.01	29.00	-34.0	-48.0	3.8	1.49e+00	0	42	104	0	28	18176
2026-01-13 08:51:23.95	62.68	29.04	-34.0	-48.0	3.8	1.49e+00	0	42	104	0	28	18173
2026-01-13 08:51:24.95	62.35	29.07	-34.0	-48.0	3.8	1.49e+00	0	42	104	0	28	18179
2026-01-13 08:51:25.96	62.02	29.11	-34.0	-48.0	3.8	1.49e+00	0	42	104	0	28	18169
2026-01-13 08:51:26.97	61.69	29.15	-34.0	-48.0	3.8	1.49e+00	0	42	104	0	28	18167
2026-01-13 08:51:27.98	61.36	29.19	-34.0	-48.1	3.8	1.49e+00	0	42	104	0	28	18182
2026-01-13 08:51:28.99	61.03	29.22	-34.0	-48.0	3.8	1.49e+00	0	42	104	0	28	18151
2026-01-13 08:51:30.00	60.70	29.26	-34.0	-48.0	3.8	1.49e+00	0	42	104	0	28	18165
2026-01-13 08:51:31.00	60.37	29.29	-34.0	-48.0	3.8	1.49e+00	0	42	104	0	28	18138
2026-01-13 08:51:32.01	60.04	29.32	-34.0	-48.0	3.8	1.49e+00	0	42	104	0	28	18140
2026-01-13 08:51:33.02	59.70	29.35	-34.0	-48.0	3.8	1.49e+00	0	42	104	0	28	18137
2026-01-13 08:51:34.03	59.37	29.38	-34.0	-48.0	3.8	1.49e+00	0	42	104	0	28	18173
2026-01-13 08:51:35.03	59.03	29.41	-34.0	-48.1	3.8	1.49e+00	0	42	104	0	28	18214
2026-01-13 08:51:36.04	58.70	29.44	-34.0	-48.0	3.8	1.49e+00	0	42	104	0	28	18161
2026-01-13 08:51:37.05	58.36	29.47	-34.0	-48.0	3.8	1.49e+00	0	42	104	0	28	18175
2026-01-13 08:51:38.05	58.03	29.49	-34.0	-48.1	3.8	1.49e+00	0	42	104	0	28	18196
2026-01-13 08:51:39.06	57.69	29.52	-34.0	-48.0	3.8	1.49e+00	0	42	104	0	28	18150
2026-01-13 08:51:40.07	57.35	29.54	-34.0	-48.0	3.8	1.49e+00	0	42	104	0	28	18148
2026-01-13 08:51:41.07	57.01	29.57	-34.0	-48.1	3.8	1.49e+00	0	42	104	0	28	18245
2026-01-13 08:51:42.08	56.68	29.59	-34.0	-48.0	3.8	1.49e+00	0	42	104	0	28	18162
2026-01-13 08:51:43.09	56.34	29.61	-34.0	-48.0	3.8	1.49e+00	0	42	104	0	28	18184
2026-01-13 08:51:44.10	56.00	29.63	-34.0	-48.0	3.8	1.49e+00	0	42	104	0	28	18175
2026-01-13 08:51:45.10	55.66	29.65	-34.0	-48.0	3.8	1.49e+00	0	42	104	0	28	18161
2026-01-13 08:51:46.11	55.32	29.66	-34.0	-48.1	3.8	1.49e+00	0	42	104	0	28	18210
2026-01-13 08:51:47.12	54.98	29.68	-34.0	-48.0	3.8	1.49e+00	0	42	104	0	28	18194
2026-01-13 08:51:48.13	54.63	29.69	-34.0	-48.1	3.8	1.49e+00	0	42	104	0	28	18229
2026-01-13 08:51:49.14	54.29	29.71	-34.0	-48.0	3.8	1.49e+00	0	42	104	0	28	18159
2026-01-13 08:51:50.15	53.95	29.72	-34.0	-48.0	3.8	1.49e+00	0	42	104	0	28	18132
2026-01-13 08:51:51.15	53.61	29.73	-34.0	-48.0	3.8	1.49e+00	0	42	104	0	28	18156
2026-01-13 08:51:52.16	53.27	29.74	-34.0	-48.0	3.8	1.49e+00	0	42	104	0	28	18164
2026-01-13 08:51:53.16	52.93	29.75	-34.0	-48.0	3.8	1.49e+00	0	42	104	0	28	18180
2026-01-13 08:51:54.17	52.59	29.76	-34.0	-48.0	3.8	1.49e+00	0	42	104	0	28	18148
2026-01-13 08:51:55.18	52.24	29.77	-34.0	-48.0	3.8	1.49e+00	0	42	104	0	28	18135
2026-01-13 08:51:56.19	51.90	29.77	-34.0	-48.0	3.8	1.49e+00	0	42	104	0	28	18155
2026-01-13 08:51:57.20	51.56	29.78	-34.0	-48.0	3.8	1.49e+00	0	42	104	0	28	18135
2026-01-13 08:51:58.20	51.22	29.78	-34.0	-48.0	3.8	1.49e+00	0	42	104	0	28	18163
2026-01-13 08:51:59.21	50.87	29.78	-34.0	-48.0	3.8	1.49e+00	0	42	104	0	28	18164
2026-01-13 08:52:00.22	50.53	29.78	-34.0	-48.0	3.8	1.49e+00	0	42	104	0	28	18138
2026-01-13 08:52:01.22	50.19	29.78	-34.0	-48.0	3.8	1.49e+00	0	42	104	0	28	18174
2026-01-13 08:52:02.22	49.85	29.78	-34.0	-48.0	3.8	1.49e+00	0	42	104	0	28	18160
2026-01-13 08:52:03.23	49.50	29.78	-34.0	-48.0	3.8	1.49e+00	0	42	104	0	28	18183
2026-01-13 08:52:04.23	49.16	29.78	-34.0	-48.0	3.8	1.49e+00	0	42	104	0	28	18159
2026-01-13 08:52:05.24	48.82	29.77	-34.0	-48.0	3.8	1.49e+00	0	42	104	0	28	18157
2026-01-13 08:52:06.25	48.48	29.77	-34.0	-48.0	3.8	1.49e+00	0	42	104	0	28	18124
2026-01-13 08:52:07.26	48.13	29.76	-34.0	-48.0	3.8	1.49e+00	0	42	104	0	28	18175
2026-01-13 08:52:08.26	47.79	29.75	-34.0	-48.0	3.8	1.49e+00	0	42	104	0	28	18190
2026-01-13 08:52:09.27	47.45	29.74	-34.0	-48.0	3.8	1.49e+00	0	42	104	0	28	18123
2026-01-13 08:52:10.27	47.11	29.73	-34.0	-48.0	3.8	1.49e+00	0	42	104	0	28	18120
2026-01-13 08:52:11.28	46.77	29.72	-34.0	-48.0	3.8	1.49e+00	0	42	104	0	28	18178
2026-01-13 08:52:12.29	46.43	29.71	-34.0	-48.0	3.8	1.49e+00	0	42	104	0	28	18142
2026-01-13 08:52:13.29	46.09	29.69	-34.0	-48.0	3.8	1.49e+00	0	42	104	0	28	18147
2026-01-13 08:52:14.30	45.75	29.68	-34.0	-48.0	3.8	1.49e+00	0	42	104	0	28	18121
2026-01-13 08:52:15.31	45.41	29.66	-34.0	-48.0	3.8	1.49e+00	0	42	104	0	28	18138
2026-01-13 08:52:16.31	45.07	29.65	-34.0	-48.0	3.8	1.49e+00	0	42	104	0	28	18131
2026-01-13 08:52:17.32	44.73	29.63	-34.0	-48.0	3.8	1.49e+00	0	42	104	0	28	18157
2026-01-13 08:52:18.33	44.39	29.61	-34.0	-48.0	3.8	1.49e+00	0	42	104	0	28	18171
2026-01-13 08:52:19.34	44.05	29.59	-34.0	-48.0	3.8	1.49e+00	0	42	104	0	28	18149
2026-01-13 08:52:20.35	43.71	29.57	-34.0	-48.0	3.8	1.49e+00	0	42	104	0	28	18201
2026-01-13 08:52:21.36	43.37	29.54	-34.0	-48.0	3.8	1.49e+00	0	42	104	0	28	18175
2026-01-13 08:52:22.37	43.03	29.52	-34.0	-48.0	3.8	1.49e+00	0	42	104	0	28	18154
2026-01-13 08:52:23.37	42.70	29.50	-34.0	-48.0	3.8	1.49e+00	0	42	104	0	28	18145
2026-01-13 08:52:24.38	42.36	29.47	-34.0	-48.0	3.8	1.49e+00	0	42	104	0	28	18129
2026-01-13 08:52:25.38	42.03	29.44	-34.0	-48.1	3.8	1.49e+00	0	42	104	0	28	18231
2026-01-13 08:52:26.39	41.69	29.42	-34.0	-48.0	3.8	1.49e+00	0	42	104	0	28	18072
2026-01-13 08:52:27.40	41.36	29.39	-34.0	-48.0	3.8	1.49e+00	0	42	104	0	28	18178
2026-01-13 08:52:28.40	41.03	29.36	-34.0	-48.0	3.8	1.49e+00	0	42	104	0	28	18191
2026-01-13 08:52:29.41	40.69	29.33	-34.0	-48.0	3.8	1.49e+00	0	42	104	0	28	18146
2026-01-13 08:52:30.42	40.36	29.29	-34.0	-48.0	3.8	1.49e+00	0	42	104	0	28	18206
2026-01-13 08:52:31.43	40.03	29.26	-34.0	-48.0	3.8	1.49e+00	0	42	104	0	28	18155
2026-01-13 08:52:32.43	39.70	29.23	-34.0	-48.0	3.8	1.49e+00	0	42	104	0	28	18144
2026-01-13 08:52:33.44	39.37	29.19	-34.0	-48.0	3.8	1.49e+00	0	42	104	0	28	18141
2026-01-13 08:52:34.45	39.04	29.15	-34.0	-48.0	3.8	1.49e+00	0	42	104	0	28	18178
2026-01-13 08:52:35.46	38.71	29.12	-34.0	-48.0	3.8	1.49e+00	0	42	104	0	28	18128
2026-01-13 08:52:36.46	38.38	29.08	-34.0	-48.0	3.8	1.49e+00	0	42	104	0	28	18173
2026-01-13 08:52:37.47	38.05	29.04	-34.0	-48.0	3.8	1.49e+00	0	42	104	0	28	18176
2026-01-13 08:52:38.48	37.73	29.00	-34.0	-48.0	3.8	1.49e+00	0	42	104	0	28	18144
2026-01-13 08:52:39.48	37.40	28.96	-34.0	-48.0	3.8	1.49e+00	0	42	104	0	28	18157
2026-01-13 08:52:40.48	37.08	28.92	-34.0	-48.0	3.8	1.49e+00	0	42	104	0	28	18103
2026-01-13 08:52:41.49	36.76	28.87	-34.0	-48.0	3.8	1.49e+00	0	42	104	0	28	18194
2026-01-13 08:52:42.49	36.44	28.83	-34.0	-48.0	3.8	1.49e+00	0	42	104	0	28	18138
2026-01-13 08:52:43.49	36.12	28.78	-34.0	-48.0	3.8	1.49e+00	0	42	104	0	28	18119
2026-01-13 08:52:44.50	35.79	28.74	-34.0	-48.0	3.8	1.49e+00	0	42	104	0	28	18132
2026-01-13 08:52:45.51	35.47	28.69	-34.0	-48.0	3.8	1.49e+00	0	42	104	0	28	18172
2026-01-13 08:52:46.52	35.15	28.64	-34.0	-48.0	3.8	1.49e+00	0	42	104	0	28	18117
2026-01-13 08:52:47.52	34.84	28.59	-34.0	-48.0	3.8	1.49e+00	0	42	104	0	28	18158
2026-01-13 08:52:48.52	34.52	28.54	-34.0	-48.0	3.8	1.49e+00	0	42	104	0	28	18167
2026-01-13 08:52:49.52	34.21	28.49	-34.0	-48.0	3.8	1.49e+00	0	42	104	0	28	18108
2026-01-13 08:52:50.53	33.89	28.44	-34.0	-48.0	3.8	1.49e+00	0	42	104	0	28	18169
2026-01-13 08:52:51.54	33.58	28.39	-34.0	-48.0	3.8	1.49e+00	0	42	104	0	28	18191
2026-01-13 08:52:52.55	33.26	28.34	-34.0	-48.0	3.8	1.49e+00	0	42	104	0	28	18151
2026-01-13 08:52:53.55	32.95	28.28	-34.0	-48.0	3.8	1.49e+00	0	42	104	0	28	18111
2026-01-13 08:52:54.56	32.64	28.23	-34.0	-48.0	3.8	1.49e+00	0	42	104	0	28	18132
2026-01-13 08:52:55.56	32.33	28.17	-34.0	-48.0	3.8	1.49e+00	0	42	104	0	28	18112
2026-01-13 08:52:56.57	32.02	28.12	-34.0	-48.0	3.8	1.49e+00	0	42	104	0	28	18118
2026-01-13 08:52:57.58	31.71	28.06	-34.0	-48.0	3.8	1.49e+00	0	42	104	0	28	18118
2026-01-13 08:52:58.58	31.41	28.00	-34.0	-48.0	3.8	1.49e+00	0	42	104	0	28	18171
2026-01-13 08:52:59.59	31.10	27.94	-34.0	-48.0	3.8	1.49e+00	0	42	104	0	28	18135
2026-01-13 08:53:00.59	30.80	27.88	-34.0	-48.0	3.8	1.49e+00	0	42	104	0	28	18146
2026-01-13 08:53:01.59	30.50	27.82	-34.0	-48.0	3.8	1.49e+00	0	42	104	0	28	18163
2026-01-13 08:53:02.60	30.20	27.76	-34.0	-48.0	3.8	1.49e+00	0	42	104	0	28	18107
2026-01-13 08:53:03.61	29.90	27.70	-34.0	-48.0	3.8	1.49e+00	0	42	104	0	28	18102
2026-01-13 08:53:04.61	29.60	27.64	-34.0	-48.0	3.8	1.49e+00	0	42	104	0	28	18110
2026-01-13 08:53:05.62	29.30	27.57	-34.0	-48.0	3.8	1.49e+00	0	42	104	0	28	18104
2026-01-13 08:53:06.63	29.00	27.51	-34.0	-48.0	3.8	1.49e+00	0	42	104	0	28	18099
2026-01-13 08:53:07.63	28.71	27.45	-34.0	-48.0	3.8	1.49e+00	0	42	104	0	28	18127
2026-01-13 08:53:08.64	28.41	27.38	-34.0	-48.0	3.8	1.49e+00	0	42	104	0	28	18121
2026-01-13 08:53:09.65	28.12	27.31	-34.0	-48.0	3.8	1.49e+00	0	42	104	0	28	18036
2026-01-13 08:53:10.66	27.82	27.25	-34.0	-48.0	3.8	1.49e+00	0	42	104	0	28	18175
2026-01-13 08:53:11.67	27.53	27.18	-34.0	-48.0	3.8	1.49e+00	0	42	104	0	28	18107
2026-01-13 08:53:12.67	27.24	27.11	-34.0	-48.0	3.8	1.49e+00	0	42	104	0	28	18144
2026-01-13 08:53:13.68	26.95	27.04	-34.0	-48.0	3.8	1.49e+00	0	42	104	0	28	18169
2026-01-13 08:53:14.68	26.67	26.97	-34.0	-48.0	3.8	1.49e+00	0	42	104	0	28	18110
2026-01-13 08:53:15.69	26.38	26.90	-34.0	-48.0	3.8	1.49e+00	0	42	104	0	28	18127
2026-01-13 08:53:16.69	26.10	26.83	-34.0	-48.0	3.8	1.49e+00	0	42	104	0	28	18121
2026-01-13 08:53:17.70	25.82	26.76	-34.0	-48.0	3.8	1.49e+00	0	42	104	0	28	18158
2026-01-13 08:53:18.71	25.53	26.69	-34.0	-48.0	3.8	1.49e+00	0	42	104	0	28	18106
2026-01-13 08:53:19.72	25.25	26.62	-34.0	-48.0	3.8	1.49e+00	0	42	104	0	28	18111
2026-01-13 08:53:20.73	24.97	26.55	-34.0	-48.0	3.8	1.49e+00	0	42	104	0	28	18108
2026-01-13 08:53:21.74	24.69	26.47	-34.0	-48.0	3.8	1.49e+00	0	42	104	0	28	18131
2026-01-13 08:53:22.75	24.41	26.40	-34.0	-48.0	3.8	1.49e+00	0	42	104	0	28	18116
2026-01-13 08:53:23.76	24.14	26.32	-34.0	-48.0	3.8	1.49e+00	0	42	104	0	28	18187
2026-01-13 08:53:24.77	23.86	26.25	-34.0	-48.0	3.8	1.49e+00	0	42	104	0	28	18081
2026-01-13 08:53:25.77	23.59	26.17	-34.0	-48.0	3.8	1.49e+00	0	42	104	0	28	18113
2026-01-13 08:53:26.78	23.32	26.10	-34.0	-48.0	3.8	1.49e+00	0	42	104	0	28	18167
2026-01-13 08:53:27.79	23.05	26.02	-34.0	-48.0	3.8	1.49e+00	0	42	104	0	28	18170
2026-01-13 08:53:28.79	22.78	25.94	-34.0	-48.0	3.8	1.49e+00	0	42	104	0	28	18117
2026-01-13 08:53:29.80	22.51	25.87	-34.0	-48.0	3.8	1.49e+00	0	42	104	0	28	18204
2026-01-13 08:53:30.81	22.24	25.79	-34.0	-48.0	3.8	1.49e+00	0	42	104	0	28	18121
2026-01-13 08:53:31.82	21.98	25.71	-34.0	-48.0	3.8	1.49e+00	0	42	104	0	28	18148
2026-01-13 08:53:32.83	21.71	25.63	-34.0	-48.0	3.8	1.49e+00	0	42	104	0	28	18145
2026-01-13 08:53:33.84	21.45	25.55	-34.0	-48.0	3.8	1.49e+00	0	42	104	0	28	18132
2026-01-13 08:53:34.84	21.19	25.47	-34.0	-48.0	3.8	1.49e+00	0	42	104	0	28	18124
2026-01-13 08:53:35.85	20.93	25.39	-34.0	-48.0	3.8	1.49e+00	0	42	104	0	28	18170
2026-01-13 08:53:36.86	20.67	25.31	-34.0	-48.0	3.8	1.49e+00	0	42	104	0	28	18151
2026-01-13 08:53:37.86	20.42	25.23	-34.0	-48.0	3.8	1.49e+00	0	42	104	0	28	18151
2026-01-13 08:53:38.87	20.16	25.15	-34.0	-48.0	3.8	1.49e+00	0	42	104	0	28	18182
2026-01-13 08:53:39.88	19.90	25.07	-34.0	-48.0	3.8	1.49e+00	0	42	104	0	28	18142
2026-01-13 08:53:40.88	19.65	24.98	-34.0	-48.0	3.8	1.49e+00	0	42	104	0	28	18163
2026-01-13 08:53:41.89	19.40	24.90	-34.0	-48.0	3.8	1.49e+00	0	42	104	0	28	18118
2026-01-13 08:53:42.89	19.15	24.82	-34.0	-48.0	3.8	1.49e+00	0	42	104	0	28	18193
2026-01-13 08:53:43.90	18.90	24.74	-34.0	-48.0	3.8	1.49e+00	0	42	104	0	28	18131
2026-01-13 08:53:44.91	18.65	24.65	-34.0	-48.0	3.8	1.49e+00	0	42	104	0	28	18105
2026-01-13 08:53:45.92	18.41	24.57	-34.0	-48.0	3.8	1.49e+00	0	42	104	0	28	18194
2026-01-13 08:53:46.92	18.16	24.49	-34.0	-48.0	3.8	1.49e+00	0	42	104	0	28	18146
2026-01-13 08:53:47.93	17.92	24.40	-34.0	-48.0	3.8	1.49e+00	0	42	104	0	28	18188
2026-01-13 08:53:48.94	17.67	24.32	-34.0	-48.0	3.8	1.49e+00	0	42	104	0	28	18131
2026-01-13 08:53:49.95	17.43	24.23	-34.0	-48.0	3.8	1.49e+00	0	42	104	0	28	18157
2026-01-13 08:53:50.96	17.19	24.15	-34.0	-48.0	3.8	1.49e+00	0	42	104	0	28	18180
2026-01-13 08:53:51.96	16.95	24.06	-34.0	-48.0	3.8	1.49e+00	0	42	104	0	28	18104
2026-01-13 08:53:52.97	16.72	23.98	-34.0	-48.0	3.8	1.49e+00	0	42	104	0	28	18130
2026-01-13 08:53:53.98	16.48	23.89	-34.0	-48.0	3.8	1.49e+00	0	42	104	0	28	18186
2026-01-13 08:53:54.99	16.24	23.80	-34.0	-48.0	3.8	1.49e+00	0	42	104	0	28	18163
2026-01-13 08:53:55.99	16.01	23.72	-34.0	-48.0	3.8	1.49e+00	0	42	104	0	28	18132
2026-01-13 08:53:57.00	15.78	23.63	-34.0	-48.0	3.8	1.49e+00	0	42	104	0	28	18117
2026-01-13 08:53:58.00	15.55	23.54	-34.0	-48.0	3.8	1.49e+00	0	42	104	0	28	18182
2026-01-13 08:53:59.01	15.32	23.46	-34.0	-48.0	3.8	1.49e+00	0	42	104	0	28	18136
2026-01-13 08:54:00.01	15.09	23.37	-34.0	-48.0	3.8	1.49e+00	0	42	104	0	28	18121
2026-01-13 08:54:01.02	14.87	23.28	-34.0	-48.0	3.8	1.49e+00	0	42	104	0	28	18188
2026-01-13 08:54:02.03	14.64	23.20	-34.0	-48.0	3.8	1.49e+00	0	42	104	0	28	18141
2026-01-13 08:54:03.03	14.42	23.11	-34.0	-48.0	3.8	1.49e+00	0	42	104	0	28	18155
2026-01-13 08:54:04.03	14.20	23.02	-34.0	-48.0	3.8	1.49e+00	0	42	104	0	28	18113
2026-01-13 08:54:05.04	13.97	22.93	-34.0	-48.0	3.8	1.49e+00	0	42	104	0	28	18150
2026-01-13 08:54:06.05	13.75	22.84	-34.0	-48.0	3.8	1.49e+00	0	42	104	0	28	18177
2026-01-13 08:54:07.06	13.53	22.76	-34.0	-48.0	3.8	1.49e+00	0	42	104	0	28	18136
2026-01-13 08:54:08.06	13.32	22.67	-34.0	-48.0	3.8	1.49e+00	0	42	104	0	28	18173
2026-01-13 08:54:09.07	13.10	22.58	-34.0	-48.0	3.8	1.49e+00	0	42	104	0	28	18157
2026-01-13 08:54:10.07	12.89	22.49	-34.0	-48.0	3.8	1.49e+00	0	42	104	0	28	18193
2026-01-13 08:54:11.08	12.67	22.40	-34.0	-48.0	3.8	1.49e+00	0	42	104	0	28	18160
2026-01-13 08:54:12.09	12.46	22.31	-34.0	-48.0	3.8	1.49e+00	0	42	104	0	28	18180
2026-01-13 08:54:13.09	12.25	22.22	-34.0	-48.1	3.8	1.49e+00	0	42	104	0	28	18225
2026-01-13 08:54:14.10	12.04	22.13	-34.0	-48.1	3.8	1.49e+00	0	42	104	0	28	18200
2026-01-13 08:54:15.11	11.83	22.04	-34.0	-48.0	3.8	1.49e+00	0	42	104	0	28	18140
2026-01-13 08:54:16.12	11.62	21.95	-34.0	-48.0	3.8	1.49e+00	0	42	104	0	28	18175
2026-01-13 08:54:17.12	11.41	21.87	-34.0	-48.0	3.8	1.49e+00	0	42	104	0	28	18176
2026-01-13 08:54:18.12	11.21	21.78	-34.0	-48.0	3.8	1.49e+00	0	42	104	0	28	18135
2026-01-13 08:54:19.13	11.00	21.69	-34.0	-48.0	3.8	1.49e+00	0	42	104	0	28	18180
2026-01-13 08:54:20.14	10.80	21.60	-34.0	-48.1	3.8	1.49e+00	0	42	104	0	28	18221
2026-01-13 08:54:21.14	10.60	21.51	-34.0	-48.0	3.8	1.49e+00	0	42	104	0	28	18171
2026-01-13 08:54:22.15	10.40	21.42	-34.0	-48.0	3.8	1.49e+00	0	42	104	0	28	18180
2026-01-13 08:54:23.16	10.20	21.33	-34.0	-48.0	3.8	1.49e+00	0	42	104	0	28	18172
2026-01-13 08:54:24.16	10.00	21.24	-34.0	-48.0	3.8	1.49e+00	0	42	104	0	28	18157
2026-01-13 08:54:25.17	9.80	21.15	-34.0	-48.0	3.8	1.49e+00	0	42	104	0	28	18071
2026-01-13 08:54:26.17	9.61	21.06	-34.0	-48.0	3.8	1.49e+00	0	42	104	0	28	18145
2026-01-13 08:54:27.18	9.41	20.97	-34.0	-48.0	3.8	1.49e+00	0	42	104	0	28	18160
2026-01-13 08:54:28.18	9.22	20.88	-34.0	-48.0	3.8	1.49e+00	0	42	104	0	28	18166
2026-01-13 08:54:29.19	9.03	20.79	-34.0	-48.1	3.8	1.49e+00	0	42	104	0	28	18198
2026-01-13 08:54:30.20	8.83	20.70	-34.0	-48.0	3.8	1.49e+00	0	42	104	0	28	18141
2026-01-13 08:54:31.20	8.64	20.61	-34.0	-48.0	3.8	1.49e+00	0	42	104	0	28	18164
2026-01-13 08:54:32.21	8.46	20.52	-34.0	-48.0	3.8	1.49e+00	0	42	104	0	28	18154
2026-01-13 08:54:33.22	8.27	20.43	-34.0	-48.0	3.8	1.49e+00	0	42	104	0	28	18167
2026-01-13 08:54:34.22	8.08	20.34	-34.0	-48.0	3.8	1.49e+00	0	42	104	0	28	18152
2026-01-13 08:54:35.23	7.89	20.25	-34.0	-48.0	3.8	1.49e+00	0	42	104	0	28	18187
2026-01-13 08:54:36.24	7.71	20.16	-34.0	-48.0	3.8	1.49e+00	0	42	104	0	28	18110
2026-01-13 08:54:37.25	7.52	20.07	-34.0	-48.0	3.8	1.49e+00	0	42	104	0	28	18148
2026-01-13 08:54:38.25	7.34	19.98	-34.0	-48.0	3.8	1.49e+00	0	42	104	0	28	18160
2026-01-13 08:54:39.25	7.16	19.89	-34.0	-48.0	3.8	1.49e+00	0	42	104	0	28	18187
2026-01-13 08:54:40.26	6.98	19.80	-34.0	-48.0	3.8	1.49e+00	0	42	104	0	28	18136
2026-01-13 08:54:41.26	6.80	19.71	-34.0	-48.0	3.8	1.49e+00	0	42	104	0	28	18170
2026-01-13 08:54:42.27	6.63	19.62	-34.0	-48.0	3.8	1.49e+00	0	42	104	0	28	18153
2026-01-13 08:54:43.28	6.45	19.53	-34.0	-48.0	3.8	1.49e+00	0	42	104	0	28	18166
2026-01-13 08:54:44.29	6.27	19.44	-34.0	-48.0	3.8	1.49e+00	0	42	104	0	28	18183
2026-01-13 08:54:45.28	6.10	19.35	-34.0	-48.0	3.8	1.49e+00	0	42	104	0	28	18180
2026-01-13 08:54:46.28	5.93	19.26	-34.0	-48.0	3.8	1.49e+00	0	42	104	0	28	18165
2026-01-13 08:54:47.29	5.75	19.17	-34.0	-48.0	3.8	1.49e+00	0	42	104	0	28	18171
2026-01-13 08:54:48.30	5.58	19.08	-34.0	-48.0	3.8	1.49e+00	0	42	104	0	28	18163
2026-01-13 08:54:49.30	5.41	18.99	-34.0	-48.0	3.8	1.49e+00	0	42	104	0	28	18186
2026-01-13 08:54:50.31	5.24	18.90	-34.0	-48.0	3.8	1.49e+00	0	42	104	0	28	18130
2026-01-13 08:54:51.32	5.07	18.81	-34.0	-48.0	3.8	1.49e+00	0	42	104	0	28	18170
2026-01-13 08:54:52.33	4.90	18.72	-34.0	-48.0	3.8	1.49e+00	0	42	104	0	28	18165
2026-01-13 08:54:53.33	4.74	18.63	-34.0	-48.0	3.8	1.49e+00	0	42	104	0	28	18200
2026-01-13 08:54:54.34	4.57	18.54	-34.0	-48.0	3.8	1.49e+00	0	42	104	0	28	18139
2026-01-13 08:54:55.35	4.40	18.45	-34.0	-48.0	3.8	1.49e+00	0	42	104	0	28	18145
2026-01-13 08:54:56.36	4.24	18.36	-34.0	-48.0	3.8	1.49e+00	0	42	104	0	28	18145
2026-01-13 08:54:57.36	4.08	18.27	-34.0	-48.1	3.8	1.49e+00	0	42	104	0	28	18213
2026-01-13 08:54:58.37	3.92	18.18	-34.0	-48.0	3.8	1.49e+00	0	42	104	0	28	18166
2026-01-13 08:54:59.38	3.75	18.09	-34.0	-48.0	3.8	1.49e+00	0	42	104	0	28	18142
2026-01-13 08:55:00.38	3.60	18.01	-34.0	-48.0	3.8	1.49e+00	0	42	104	0	28	18164
2026-01-13 08:55:01.38	3.44	17.92	-34.0	-48.0	3.8	1.49e+00	0	42	104	0	28	18165
2026-01-13 08:55:02.39	3.28	17.83	-34.0	-48.0	3.8	1.49e+00	0	42	104	0	28	18133
2026-01-13 08:55:03.40	3.12	17.74	-34.0	-48.0	3.8	1.49e+00	0	42	104	0	28	18130
2026-01-13 08:55:04.41	2.96	17.65	-34.0	-48.1	3.8	1.49e+00	0	42	104	0	28	18211
2026-01-13 08:55:05.41	2.81	17.56	-34.0	-48.0	3.8	1.49e+00	0	42	104	0	28	18119
2026-01-13 08:55:06.42	2.66	17.47	-34.0	-48.0	3.8	1.49e+00	0	42	104	0	28	18154
2026-01-13 08:55:07.42	2.50	17.39	-34.0	-48.0	3.8	1.49e+00	0	42	104	0	28	18163
2026-01-13 08:55:08.43	2.35	17.30	-34.0	-48.0	3.8	1.49e+00	0	42	104	0	28	18190
2026-01-13 08:55:09.44	2.20	17.21	-34.0	-48.0	3.8	1.49e+00	0	42	104	0	28	18206
2026-01-13 08:55:10.44	2.05	17.12	-34.0	-48.0	3.8	1.49e+00	0	42	104	0	28	18153
2026-01-13 08:55:11.45	1.90	17.03	-34.0	-48.0	3.8	1.49e+00	0	42	104	0	28	18161
2026-01-13 08:55:12.45	1.75	16.95	-34.0	-48.0	3.8	1.49e+00	0	42	104	0	28	18154
2026-01-13 08:55:13.46	1.60	16.86	-34.0	-48.1	3.8	1.49e+00	0	42	104	0	28	18181
2026-01-13 08:55:14.46	1.46	16.77	-34.0	-48.0	3.8	1.49e+00	0	42	104	0	28	18140
2026-01-13 08:55:15.47	1.31	16.68	-34.0	-48.0	3.8	1.49e+00	0	42	104	0	28	18146
2026-01-13 08:55:16.48	1.16	16.60	-34.0	-48.1	3.8	1.49e+00	0	42	104	0	28	18198
2026-01-13 08:55:17.49	1.02	16.51	-34.0	-48.0	3.8	1.49e+00	0	42	104	0	28	18181
2026-01-13 08:55:18.49	0.88	16.42	-34.0	-48.0	3.8	1.49e+00	0	42	104	0	28	18163
2026-01-13 08:55:19.50	0.73	16.34	-34.0	-48.1	3.8	1.49e+00	0	42	104	0	28	18170
2026-01-13 08:55:20.50	0.59	16.25	-34.0	-48.0	3.8	1.49e+00	0	42	104	0	28	18147
2026-01-13 08:55:21.51	0.45	16.16	-34.0	-48.0	3.8	1.49e+00	0	42	104	0	28	18160
2026-01-13 08:55:22.52	0.31	16.08	-34.0	-48.0	3.8	1.49e+00	0	42	104	0	28	18197
2026-01-13 08:55:23.52	0.17	15.99	-34.0	-48.0	3.8	1.49e+00	0	42	104	0	28	18164
2026-01-13 08:55:24.53	0.03	15.90	-34.0	-48.1	3.8	1.49e+00	0	42	104	0	28	18206
2026-01-13 08:55:25.54	359.89	15.82	-34.0	-48.1	3.8	1.49e+00	0	42	104	0	28	18198
2026-01-13 08:55:26.55	359.75	15.73	-34.0	-48.1	3.8	1.49e+00	0	42	104	0	28	18192
2026-01-13 08:55:27.55	359.62	15.65	-34.0	-48.0	3.8	1.49e+00	0	42	104	0	28	18146
2026-01-13 08:55:28.55	359.49	15.56	-34.0	-48.0	3.8	1.49e+00	0	42	104	0	28	18158
2026-01-13 08:55:29.56	359.35	15.48	-34.0	-48.0	3.8	1.49e+00	0	42	104	0	28	18150
2026-01-13 08:55:30.57	359.22	15.39	-34.0	-48.1	3.8	1.49e+00	0	42	104	0	28	18206
2026-01-13 08:55:31.57	359.08	15.30	-34.0	-48.0	3.8	1.49e+00	0	42	104	0	28	18176
2026-01-13 08:55:32.57	358.95	15.22	-34.0	-48.0	3.8	1.49e+00	0	42	104	0	28	18141
2026-01-13 08:55:33.57	358.82	15.14	-34.0	-48.0	3.8	1.49e+00	0	42	104	0	28	18142
2026-01-13 08:55:34.58	358.69	15.05	-34.0	-48.0	3.8	1.49e+00	0	42	104	0	28	18180
2026-01-13 08:55:35.59	358.56	14.97	-34.0	-48.1	3.8	1.49e+00	0	42	104	0	28	18205
2026-01-13 08:55:36.60	358.43	14.88	-34.0	-48.0	3.8	1.49e+00	0	42	104	0	28	18181
2026-01-13 08:55:37.61	358.30	14.80	-34.0	-48.1	3.8	1.49e+00	0	42	104	0	28	18219
2026-01-13 08:55:38.62	358.17	14.71	-34.0	-48.0	3.8	1.49e+00	0	42	104	0	28	18127
2026-01-13 08:55:39.62	358.05	14.63	-34.0	-48.0	3.8	1.49e+00	0	42	104	0	28	18137
2026-01-13 08:55:40.63	357.92	14.54	-34.0	-48.1	3.8	1.49e+00	0	42	104	0	28	18193
2026-01-13 08:55:41.63	357.80	14.46	-34.0	-48.0	3.8	1.49e+00	0	42	104	0	28	18157
2026-01-13 08:55:42.64	357.67	14.38	-34.0	-48.0	3.8	1.49e+00	0	42	104	0	28	18165
2026-01-13 08:55:43.64	357.55	14.29	-34.0	-48.0	3.8	1.49e+00	0	42	104	0	28	18116
2026-01-13 08:55:44.65	357.42	14.21	-34.0	-48.0	3.8	1.49e+00	0	42	104	0	28	18154
2026-01-13 08:55:45.66	357.30	14.13	-34.0	-48.0	3.8	1.49e+00	0	42	104	0	28	18155
2026-01-13 08:55:46.66	357.18	14.04	-34.0	-48.0	3.8	1.49e+00	0	42	104	0	28	18162
2026-01-13 08:55:47.67	357.06	13.96	-34.0	-48.0	3.8	1.49e+00	0	42	104	0	28	18130
2026-01-13 08:55:48.68	356.94	13.88	-34.0	-48.0	3.8	1.49e+00	0	42	104	0	28	18145
2026-01-13 08:55:49.68	356.82	13.80	-34.0	-48.0	3.8	1.49e+00	0	42	104	0	28	18149
2026-01-13 08:55:50.69	356.70	13.71	-34.0	-48.0	3.8	1.49e+00	0	42	104	0	28	18180
2026-01-13 08:55:51.70	356.58	13.63	-34.0	-48.1	3.8	1.49e+00	0	42	104	0	28	18198
2026-01-13 08:55:52.70	356.46	13.55	-34.0	-48.0	3.8	1.49e+00	0	42	104	0	28	18178
2026-01-13 08:55:53.71	356.34	13.47	-34.0	-48.0	3.8	1.49e+00	0	42	104	0	28	18182
2026-01-13 08:55:54.71	356.23	13.39	-34.0	-48.0	3.8	1.49e+00	0	42	104	0	28	18145
2026-01-13 08:55:55.72	356.11	13.30	-34.0	-48.0	3.8	1.49e+00	0	42	104	0	28	18190
2026-01-13 08:55:56.72	356.00	13.22	-34.0	-48.0	3.8	1.49e+00	0	42	104	0	28	18151
2026-01-13 08:55:57.73	355.88	13.14	-34.0	-48.0	3.8	1.49e+00	0	42	104	0	28	18183
2026-01-13 08:55:58.74	355.77	13.06	-34.0	-48.0	3.8	1.49e+00	0	42	104	0	28	18189
2026-01-13 08:55:59.74	355.66	12.98	-34.0	-48.0	3.8	1.49e+00	0	42	104	0	28	18158
2026-01-13 08:56:00.74	355.54	12.90	-34.0	-48.0	3.8	1.49e+00	0	42	104	0	28	18191
2026-01-13 08:56:01.74	355.43	12.82	-34.0	-48.0	3.8	1.49e+00	0	42	104	0	28	18138
2026-01-13 08:56:02.75	355.32	12.74	-34.0	-48.0	3.8	1.49e+00	0	42	104	0	28	18131
2026-01-13 08:56:03.75	355.21	12.66	-34.0	-48.0	3.8	1.49e+00	0	42	104	0	28	18179
2026-01-13 08:56:04.76	355.10	12.58	-34.0	-48.0	3.8	1.49e+00	0	42	104	0	28	18134
2026-01-13 08:56:05.77	354.99	12.50	-34.0	-48.0	3.8	1.49e+00	0	42	104	0	28	18172
2026-01-13 08:56:06.78	354.88	12.42	-34.0	-48.0	3.8	1.49e+00	0	42	104	0	28	18127
2026-01-13 08:56:07.79	354.77	12.34	-34.0	-48.0	3.8	1.49e+00	0	42	104	0	28	18181
2026-01-13 08:56:08.79	354.67	12.26	-34.0	-48.0	3.8	1.49e+00	0	42	104	0	28	18160
2026-01-13 08:56:09.80	354.56	12.18	-34.0	-48.1	3.8	1.49e+00	0	42	104	0	28	18221
2026-01-13 08:56:10.80	354.45	12.10	-34.0	-48.0	3.8	1.49e+00	0	42	104	0	28	18169
2026-01-13 08:56:11.81	354.35	12.02	-34.0	-48.0	3.8	1.49e+00	0	42	104	0	28	18182
2026-01-13 08:56:12.82	354.24	11.94	-34.0	-48.0	3.8	1.49e+00	0	42	104	0	28	18131
2026-01-13 08:56:13.83	354.14	11.86	-34.0	-48.0	3.8	1.49e+00	0	42	104	0	28	18169
2026-01-13 08:56:14.83	354.03	11.78	-34.0	-48.0	3.8	1.49e+00	0	42	104	0	28	18127
2026-01-13 08:56:15.84	353.93	11.70	-34.0	-48.0	3.8	1.49e+00	0	42	104	0	28	18136
2026-01-13 08:56:16.84	353.83	11.63	-34.0	-48.0	3.8	1.49e+00	0	42	104	0	28	18145
2026-01-13 08:56:17.84	353.72	11.55	-34.0	-48.0	3.8	1.49e+00	0	42	104	0	28	18152
2026-01-13 08:56:18.85	353.62	11.47	-34.0	-48.0	3.8	1.49e+00	0	42	104	0	28	18150
2026-01-13 08:56:19.85	353.52	11.39	-34.0	-48.0	3.8	1.49e+00	0	42	104	0	28	18124
2026-01-13 08:56:20.86	353.42	11.31	-34.0	-48.0	3.8	1.49e+00	0	42	104	0	28	18154
2026-01-13 08:56:21.87	353.32	11.24	-34.0	-48.0	3.8	1.49e+00	0	42	104	0	28	18145
2026-01-13 08:56:22.88	353.22	11.16	-34.0	-48.0	3.8	1.49e+00	0	42	104	0	28	18122
2026-01-13 08:56:23.88	353.12	11.08	-34.0	-48.0	3.8	1.49e+00	0	42	104	0	28	18150
2026-01-13 08:56:24.89	353.02	11.01	-34.0	-48.0	3.8	1.49e+00	0	42	104	0	28	18149
2026-01-13 08:56:25.91	352.92	10.93	-34.0	-48.0	3.8	1.49e+00	0	42	104	0	28	18144
2026-01-13 08:56:26.91	352.83	10.85	-34.0	-48.0	3.8	1.49e+00	0	42	104	0	28	18137
2026-01-13 08:56:27.91	352.73	10.77	-34.0	-48.0	3.8	1.49e+00	0	42	104	0	28	18131
2026-01-13 08:56:28.92	352.63	10.70	-34.0	-48.0	3.8	1.49e+00	0	42	104	0	28	18179
2026-01-13 08:56:29.93	352.54	10.62	-34.0	-48.0	3.8	1.49e+00	0	42	104	0	28	18131
2026-01-13 08:56:30.94	352.44	10.55	-34.0	-48.0	3.8	1.49e+00	0	42	104	0	28	18170
2026-01-13 08:56:31.94	352.35	10.47	-34.0	-48.0	3.8	1.49e+00	0	42	104	0	28	18159
2026-01-13 08:56:32.95	352.25	10.39	-34.0	-48.0	3.8	1.49e+00	0	42	104	0	28	18079
2026-01-13 08:56:33.96	352.16	10.32	-34.0	-48.0	3.8	1.49e+00	0	42	104	0	28	18157
2026-01-13 08:56:34.96	352.07	10.24	-34.0	-48.0	3.8	1.49e+00	0	42	104	0	28	18093
2026-01-13 08:56:35.97	351.97	10.17	-34.0	-48.0	3.8	1.49e+00	0	42	104	0	28	18160
2026-01-13 08:56:36.98	351.88	10.09	-34.0	-48.0	3.8	1.49e+00	0	42	104	0	28	18145
2026-01-13 08:56:37.98	351.79	10.02	-34.0	-48.0	3.8	1.49e+00	0	42	104	0	28	18177
2026-01-13 08:56:38.99	351.70	9.94	-34.0	-48.0	3.8	1.49e+00	0	42	104	0	28	18101
2026-01-13 08:56:39.99	351.61	9.87	-34.0	-48.0	3.8	1.49e+00	0	42	104	0	28	18146
2026-01-13 08:56:41.00	351.52	9.79	-34.0	-48.0	3.8	1.49e+00	0	42	104	0	28	18116
2026-01-13 08:56:42.01	351.43	9.72	-34.0	-48.0	3.8	1.49e+00	0	42	104	0	28	18107
2026-01-13 08:56:43.02	351.34	9.64	-34.0	-48.0	3.8	1.49e+00	0	42	104	0	28	18133
2026-01-13 08:56:44.01	351.25	9.57	-34.0	-48.0	3.8	1.49e+00	0	42	104	0	28	18113
2026-01-13 08:56:45.02	351.16	9.50	-34.0	-48.0	3.8	1.49e+00	0	42	104	0	28	18202
2026-01-13 08:56:46.03	351.07	9.42	-34.0	-48.0	3.8	1.49e+00	0	42	104	0	28	18111
2026-01-13 08:56:47.03	350.98	9.35	-34.0	-48.0	3.8	1.49e+00	0	42	104	0	28	18174
2026-01-13 08:56:48.04	350.90	9.27	-34.0	-48.0	3.8	1.49e+00	0	42	104	0	28	18150
2026-01-13 08:56:49.05	350.81	9.20	-34.0	-48.0	3.8	1.49e+00	0	42	104	0	28	18109
2026-01-13 08:56:50.06	350.72	9.13	-34.0	-48.0	3.8	1.49e+00	0	42	104	0	28	18178
2026-01-13 08:56:51.06	350.64	9.06	-34.0	-48.0	3.8	1.49e+00	0	42	104	0	28	18178
2026-01-13 08:56:52.07	350.55	8.98	-34.0	-48.0	3.8	1.49e+00	0	42	104	0	28	18123
2026-01-13 08:56:53.08	350.47	8.91	-34.0	-48.0	3.8	1.49e+00	0	42	104	0	28	18132
2026-01-13 08:56:54.09	350.38	8.84	-34.0	-48.0	3.8	1.49e+00	0	42	104	0	28	18099
2026-01-13 08:56:55.09	350.30	8.76	-34.0	-48.0	3.8	1.49e+00	0	42	104	0	28	18136
2026-01-13 08:56:56.10	350.22	8.69	-34.0	-48.0	3.8	1.49e+00	0	42	104	0	28	18132
2026-01-13 08:56:57.11	350.13	8.62	-34.0	-48.0	3.8	1.49e+00	0	42	104	0	28	18121
2026-01-13 08:56:58.12	350.05	8.55	-34.0	-48.0	3.8	1.49e+00	0	42	104	0	28	18143
2026-01-13 08:56:59.12	349.97	8.48	-34.0	-48.0	3.8	1.49e+00	0	42	104	0	28	18116
2026-01-13 08:57:00.12	349.89	8.40	-34.0	-48.0	3.8	1.49e+00	0	42	104	0	28	18123
2026-01-13 08:57:01.13	349.80	8.33	-34.0	-48.0	3.8	1.49e+00	0	42	104	0	28	18155
2026-01-13 08:57:02.13	349.72	8.26	-34.0	-48.0	3.8	1.49e+00	0	42	104	0	28	18160
2026-01-13 08:57:03.14	349.64	8.19	-34.0	-48.0	3.8	1.49e+00	0	42	104	0	28	18151
2026-01-13 08:57:04.14	349.56	8.12	-34.0	-48.0	3.8	1.49e+00	0	42	104	0	28	18092
2026-01-13 08:57:05.14	349.48	8.05	-34.0	-48.0	3.8	1.49e+00	0	42	104	0	28	18160
2026-01-13 08:57:06.15	349.40	7.98	-34.0	-48.0	3.8	1.49e+00	0	42	104	0	28	18148
2026-01-13 08:57:07.15	349.33	7.91	-34.0	-48.0	3.8	1.49e+00	0	42	104	0	28	18186
2026-01-13 08:57:08.16	349.25	7.84	-34.0	-48.0	3.8	1.49e+00	0	42	104	0	28	18117
2026-01-13 08:57:09.17	349.17	7.77	-34.0	-48.0	3.8	1.49e+00	0	42	104	0	28	18071
2026-01-13 08:57:10.18	349.09	7.69	-34.0	-48.0	3.8	1.49e+00	0	42	104	0	28	18163
2026-01-13 08:57:11.19	349.01	7.62	-34.0	-48.0	3.8	1.49e+00	0	42	104	0	28	18142
2026-01-13 08:57:12.19	348.94	7.55	-34.0	-48.0	3.8	1.49e+00	0	42	104	0	28	18172
2026-01-13 08:57:13.20	348.86	7.48	-34.0	-48.0	3.8	1.49e+00	0	42	104	0	28	18128
2026-01-13 08:57:14.21	348.78	7.41	-34.0	-48.0	3.8	1.49e+00	0	42	104	0	28	18146
2026-01-13 08:57:15.21	348.71	7.35	-34.0	-48.0	3.8	1.49e+00	0	42	104	0	28	18122
2026-01-13 08:57:16.22	348.63	7.28	-34.0	-48.0	3.8	1.49e+00	0	42	104	0	28	18145
2026-01-13 08:57:17.23	348.56	7.21	-34.0	-48.0	3.8	1.49e+00	0	42	104	0	28	18066
2026-01-13 08:57:18.23	348.48	7.14	-34.0	-48.0	3.8	1.49e+00	0	42	104	0	28	18160
2026-01-13 08:57:19.23	348.41	7.07	-34.0	-48.0	3.8	1.49e+00	0	42	104	0	28	18145
2026-01-13 08:57:20.24	348.33	7.00	-34.0	-48.0	3.8	1.49e+00	0	42	104	0	28	18143
2026-01-13 08:57:21.24	348.26	6.93	-34.0	-48.0	3.8	1.49e+00	0	42	104	0	28	18105

#Closed at: 2026-01-13 08:57:21
#Recorded file [0 MB]: D:/data/31010_260113_114644.dat