passes_logs/2026/01/13/R2M6_AANII_01/R2M6_AANII_01__20260113_110518_FENGYUN_3D_rec.log

#Pass ID: 20260113_110518_FENGYUN 3D
#Satellite: FENGYUN 3D
#Configuration: FENGYUN 3D
#almurnet v.1.7.20240730
#Start time: 2026-01-13 11:05:19

#Version: 2.2.20231116
#Station: R2M6_AANII_01
#Location: 30.233357 lon 59.946436 lat
#TLE: 1 43010U 17072A   26012.32543542  .00000598  00000+0  30457-3 0  9997
#TLE: 2 43010  98.9935 344.1005 0002233 112.6136 247.5276 14.19696644422876

#Time	Az	El	Level	Level2	SNR	BER	BlckErr	Temp	State	Recorded	gain1	gain2
2026-01-13 11:05:19.60	120.85	7.08	-34.0	-44.5	3.8	8.46e-01	0	40	0	0	29	12127
2026-01-13 11:05:20.60	120.79	7.15	-34.0	-44.5	3.8	8.46e-01	0	40	104	0	29	12099
2026-01-13 11:05:21.60	120.73	7.22	-34.0	-44.5	3.8	8.46e-01	0	40	104	0	29	12155
2026-01-13 11:05:22.60	120.66	7.29	-34.0	-44.5	3.8	8.46e-01	0	40	104	0	29	12126
2026-01-13 11:05:23.61	120.60	7.37	-34.0	-44.6	3.8	8.47e-01	0	40	104	0	29	12177
2026-01-13 11:05:24.62	120.54	7.44	-34.0	-44.5	3.8	8.46e-01	0	40	104	0	29	12107
2026-01-13 11:05:25.63	120.47	7.51	-34.0	-44.5	3.8	8.45e-01	0	40	104	0	29	12106
2026-01-13 11:05:26.64	120.41	7.59	-34.0	-44.5	3.8	8.45e-01	0	40	104	0	29	12130
2026-01-13 11:05:27.64	120.35	7.66	-34.0	-44.5	3.8	8.45e-01	0	40	104	0	29	12122
2026-01-13 11:05:28.65	120.28	7.74	-34.0	-44.5	3.8	8.46e-01	0	40	104	0	29	12088
2026-01-13 11:05:29.66	120.22	7.81	-34.0	-44.5	3.8	8.46e-01	0	41	104	0	29	12128
2026-01-13 11:05:30.66	120.15	7.88	-34.0	-44.5	3.8	8.47e-01	0	41	104	0	29	12123
2026-01-13 11:05:31.67	120.08	7.96	-34.0	-44.6	3.8	8.46e-01	0	40	104	0	29	12155
2026-01-13 11:05:32.68	120.02	8.03	-34.0	-44.5	3.8	8.47e-01	0	41	104	0	29	12073
2026-01-13 11:05:33.69	119.95	8.11	-34.0	-44.5	3.8	8.45e-01	0	41	104	0	29	12127
2026-01-13 11:05:34.70	119.88	8.18	-34.0	-44.5	3.8	8.46e-01	0	41	104	0	29	12072
2026-01-13 11:05:35.70	119.82	8.26	-34.0	-44.5	3.8	8.45e-01	0	41	104	0	29	12077
2026-01-13 11:05:36.71	119.75	8.33	-34.0	-44.5	3.8	8.47e-01	0	41	104	0	29	12117
2026-01-13 11:05:37.72	119.68	8.41	-34.0	-44.5	3.8	8.46e-01	0	41	104	0	29	12117
2026-01-13 11:05:38.73	119.61	8.49	-34.0	-44.5	3.8	8.46e-01	0	41	104	0	29	12117
2026-01-13 11:05:39.73	119.55	8.56	-34.0	-44.5	3.8	8.46e-01	0	41	104	0	29	12099
2026-01-13 11:05:40.74	119.48	8.64	-34.0	-44.5	3.8	8.47e-01	0	41	104	0	29	12084
2026-01-13 11:05:41.75	119.41	8.71	-34.0	-44.5	3.8	8.46e-01	0	41	104	0	29	12140
2026-01-13 11:05:42.75	119.34	8.79	-34.0	-44.5	3.8	8.46e-01	0	41	104	0	29	12092
2026-01-13 11:05:43.76	119.27	8.87	-34.0	-44.5	3.8	8.47e-01	0	41	104	0	29	12089
2026-01-13 11:05:44.77	119.20	8.94	-34.0	-44.5	3.8	8.46e-01	0	41	104	0	29	12115
2026-01-13 11:05:45.78	119.13	9.02	-34.0	-44.5	3.8	8.47e-01	0	41	104	0	29	12115
2026-01-13 11:05:46.78	119.05	9.10	-34.0	-44.5	3.8	8.47e-01	0	41	104	0	29	12142
2026-01-13 11:05:47.80	118.98	9.18	-34.0	-44.5	3.8	8.46e-01	0	41	104	0	29	12146
2026-01-13 11:05:48.80	118.91	9.25	-34.0	-44.5	3.8	8.45e-01	0	41	104	0	29	12075
2026-01-13 11:05:49.81	118.84	9.33	-34.0	-44.5	3.8	8.46e-01	0	41	104	0	29	12054
2026-01-13 11:05:50.81	118.77	9.41	-34.0	-44.5	3.8	8.46e-01	0	41	104	0	29	12133
2026-01-13 11:05:51.82	118.69	9.49	-34.0	-44.5	3.8	8.46e-01	0	41	104	0	29	12094
2026-01-13 11:05:52.82	118.62	9.57	-34.0	-44.5	3.8	8.47e-01	0	41	104	0	29	12090
2026-01-13 11:05:53.83	118.54	9.65	-34.0	-44.5	3.8	8.46e-01	0	41	104	0	29	12078
2026-01-13 11:05:54.84	118.47	9.72	-34.0	-44.6	3.8	8.46e-01	0	41	104	0	29	12157
2026-01-13 11:05:55.84	118.40	9.80	-34.0	-44.5	3.8	8.46e-01	0	41	104	0	29	12115
2026-01-13 11:05:56.84	118.32	9.88	-34.0	-44.5	3.8	8.46e-01	0	41	104	0	29	12104
2026-01-13 11:05:57.85	118.24	9.96	-34.0	-44.6	3.8	8.46e-01	0	41	104	0	29	12144
2026-01-13 11:05:58.86	118.17	10.04	-34.0	-44.5	3.8	8.46e-01	0	41	104	0	29	12112
2026-01-13 11:05:59.87	118.09	10.12	-34.0	-44.5	3.8	8.46e-01	0	41	104	0	29	12131
2026-01-13 11:06:00.87	118.01	10.20	-34.0	-44.5	3.8	8.47e-01	0	41	104	0	29	12114
2026-01-13 11:06:01.88	117.94	10.28	-34.0	-44.6	3.8	8.46e-01	0	41	104	0	29	12158
2026-01-13 11:06:02.89	117.86	10.36	-34.0	-44.5	3.8	8.45e-01	0	41	104	0	29	12116
2026-01-13 11:06:03.90	117.78	10.44	-34.0	-44.5	3.8	8.46e-01	0	41	104	0	29	12141
2026-01-13 11:06:04.91	117.70	10.53	-34.0	-44.6	3.8	8.47e-01	0	41	104	0	29	12146
2026-01-13 11:06:05.91	117.62	10.61	-34.0	-44.5	3.8	8.48e-01	0	41	104	0	29	12125
2026-01-13 11:06:06.92	117.54	10.69	-34.0	-44.6	3.8	8.47e-01	0	41	104	0	29	12152
2026-01-13 11:06:07.93	117.46	10.77	-34.0	-44.5	3.8	8.47e-01	0	41	104	0	29	12131
2026-01-13 11:06:08.93	117.38	10.85	-34.0	-44.6	3.8	8.46e-01	0	41	104	0	29	12171
2026-01-13 11:06:09.94	117.30	10.93	-34.0	-44.6	3.8	8.46e-01	0	42	104	0	29	12138
2026-01-13 11:06:10.95	117.22	11.02	-34.0	-44.6	3.8	8.46e-01	0	42	104	0	29	12150
2026-01-13 11:06:11.95	117.14	11.10	-34.0	-44.5	3.8	8.47e-01	0	42	104	0	29	12130
2026-01-13 11:06:12.97	117.05	11.18	-34.0	-44.5	3.8	8.47e-01	0	42	104	0	29	12114
2026-01-13 11:06:13.97	116.97	11.26	-34.0	-44.6	3.8	8.46e-01	0	41	104	0	29	12164
2026-01-13 11:06:14.98	116.89	11.35	-34.0	-44.5	3.8	8.45e-01	0	42	104	0	29	12146
2026-01-13 11:06:15.99	116.80	11.43	-34.0	-44.5	3.8	8.45e-01	0	41	104	0	29	12123
2026-01-13 11:06:17.00	116.72	11.52	-34.0	-44.5	3.8	8.46e-01	0	42	104	0	29	12101
2026-01-13 11:06:18.01	116.63	11.60	-34.0	-44.5	3.8	8.46e-01	0	42	104	0	29	12127
2026-01-13 11:06:19.01	116.55	11.68	-34.0	-44.5	3.8	8.45e-01	0	42	104	0	29	12102
2026-01-13 11:06:20.02	116.46	11.77	-34.0	-44.5	3.8	8.45e-01	0	42	104	0	29	12141
2026-01-13 11:06:21.02	116.38	11.85	-34.0	-44.6	3.8	8.46e-01	0	42	104	0	29	12155
2026-01-13 11:06:22.03	116.29	11.94	-34.0	-44.5	3.8	8.45e-01	0	42	104	0	29	12104
2026-01-13 11:06:23.04	116.20	12.02	-34.0	-44.5	3.8	8.46e-01	0	42	104	0	29	12096
2026-01-13 11:06:24.05	116.11	12.11	-34.0	-44.6	3.8	8.46e-01	0	42	104	0	29	12158
2026-01-13 11:06:25.05	116.02	12.19	-34.0	-44.6	3.8	8.45e-01	0	42	104	0	29	12145
2026-01-13 11:06:26.05	115.94	12.28	-34.0	-44.5	3.8	8.46e-01	0	42	104	0	29	12096
2026-01-13 11:06:27.06	115.85	12.36	-34.0	-44.5	3.8	8.46e-01	0	42	104	0	29	12115
2026-01-13 11:06:28.07	115.76	12.45	-34.0	-44.5	3.8	8.47e-01	0	42	104	0	29	12114
2026-01-13 11:06:29.07	115.67	12.54	-34.0	-44.5	3.8	8.45e-01	0	42	104	0	29	12118
2026-01-13 11:06:30.08	115.57	12.62	-34.0	-44.6	3.8	8.46e-01	0	42	104	0	29	12145
2026-01-13 11:06:31.09	115.48	12.71	-34.0	-44.6	3.8	8.46e-01	0	42	104	0	29	12170
2026-01-13 11:06:32.10	115.39	12.80	-34.0	-44.6	3.8	8.45e-01	0	42	104	0	29	12150
2026-01-13 11:06:33.11	115.30	12.88	-34.0	-44.6	3.8	8.46e-01	0	42	104	0	29	12136
2026-01-13 11:06:34.11	115.20	12.97	-34.0	-44.6	3.8	8.46e-01	0	42	104	0	29	12169
2026-01-13 11:06:35.12	115.11	13.06	-34.0	-44.6	3.8	8.46e-01	0	42	104	0	29	12154
2026-01-13 11:06:36.13	115.01	13.15	-34.0	-44.6	3.8	8.47e-01	0	42	104	0	29	12141
2026-01-13 11:06:37.13	114.92	13.24	-34.0	-44.6	3.8	8.46e-01	0	42	104	0	29	12141
2026-01-13 11:06:38.14	114.82	13.32	-34.0	-44.6	3.8	8.47e-01	0	42	104	0	29	12148
2026-01-13 11:06:39.14	114.73	13.41	-34.0	-44.6	3.8	8.47e-01	0	42	104	0	29	12161
2026-01-13 11:06:40.15	114.63	13.50	-34.0	-44.6	3.8	8.46e-01	0	42	104	0	29	12136
2026-01-13 11:06:41.15	114.53	13.59	-34.0	-44.5	3.8	8.45e-01	0	42	104	0	29	12088
2026-01-13 11:06:42.16	114.43	13.68	-34.0	-44.5	3.8	8.47e-01	0	42	104	0	29	12122
2026-01-13 11:06:43.17	114.34	13.77	-34.0	-44.6	3.8	8.46e-01	0	42	104	0	29	12136
2026-01-13 11:06:44.18	114.24	13.86	-34.0	-44.6	3.8	8.47e-01	0	42	104	0	29	12145
2026-01-13 11:06:45.18	114.14	13.95	-34.0	-44.5	3.8	8.45e-01	0	42	104	0	29	12101
2026-01-13 11:06:46.19	114.04	14.04	-34.0	-44.6	3.8	8.46e-01	0	42	104	0	29	12170
2026-01-13 11:06:47.19	113.93	14.13	-34.0	-44.5	3.8	8.45e-01	0	42	104	0	29	12137
2026-01-13 11:06:48.19	113.83	14.22	-34.0	-44.6	3.8	8.45e-01	0	42	104	0	29	12160
2026-01-13 11:06:49.20	113.73	14.31	-34.0	-44.6	3.8	8.46e-01	0	42	104	0	29	12150
2026-01-13 11:06:50.22	113.63	14.40	-34.0	-44.5	3.8	8.45e-01	0	42	104	0	29	12110
2026-01-13 11:06:51.22	113.52	14.50	-34.0	-44.6	3.8	8.44e-01	0	42	104	0	29	12145
2026-01-13 11:06:52.23	113.42	14.59	-34.0	-44.6	3.8	8.46e-01	0	42	104	0	29	12198
2026-01-13 11:06:53.24	113.31	14.68	-34.0	-44.6	3.8	8.46e-01	0	42	104	0	29	12182
2026-01-13 11:06:54.24	113.21	14.77	-34.0	-44.6	3.8	8.45e-01	0	42	104	0	29	12142
2026-01-13 11:06:55.25	113.10	14.87	-34.0	-44.5	3.8	8.46e-01	0	42	104	0	29	12122
2026-01-13 11:06:56.25	112.99	14.96	-34.0	-44.6	3.8	8.46e-01	0	42	104	0	29	12129
2026-01-13 11:06:57.25	112.89	15.05	-34.0	-44.6	3.8	8.46e-01	0	42	104	0	29	12171
2026-01-13 11:06:58.26	112.78	15.14	-34.0	-44.6	3.8	8.46e-01	0	42	104	0	29	12144
2026-01-13 11:06:59.27	112.67	15.24	-34.0	-44.6	3.8	8.45e-01	0	42	104	0	29	12138
2026-01-13 11:07:00.27	112.56	15.33	-34.0	-44.6	3.8	8.45e-01	0	42	104	0	29	12180
2026-01-13 11:07:01.28	112.45	15.43	-34.0	-44.6	3.8	8.46e-01	0	42	104	0	29	12150
2026-01-13 11:07:02.29	112.34	15.52	-34.0	-44.6	3.8	8.46e-01	0	42	104	0	29	12163
2026-01-13 11:07:03.29	112.22	15.61	-34.0	-44.5	3.8	8.46e-01	0	42	104	0	29	12129
2026-01-13 11:07:04.29	112.11	15.71	-34.0	-44.6	3.8	8.46e-01	0	42	104	0	29	12135
2026-01-13 11:07:05.30	112.00	15.80	-34.0	-44.6	3.8	8.46e-01	0	42	104	0	29	12168
2026-01-13 11:07:06.30	111.88	15.90	-34.0	-44.6	3.8	8.46e-01	0	42	104	0	29	12158
2026-01-13 11:07:07.31	111.77	16.00	-34.0	-44.6	3.8	8.46e-01	0	42	104	0	29	12181
2026-01-13 11:07:08.32	111.65	16.09	-34.0	-44.6	3.8	8.46e-01	0	42	104	0	29	12165
2026-01-13 11:07:09.32	111.54	16.19	-34.0	-44.6	3.8	8.46e-01	0	42	104	0	29	12152
2026-01-13 11:07:10.33	111.42	16.28	-34.0	-44.6	3.8	8.46e-01	0	42	104	0	29	12162
2026-01-13 11:07:11.33	111.30	16.38	-34.0	-44.6	3.8	8.47e-01	0	42	104	0	29	12168
2026-01-13 11:07:12.33	111.18	16.48	-34.0	-44.6	3.8	8.46e-01	0	42	104	0	29	12144
2026-01-13 11:07:13.34	111.06	16.57	-34.0	-44.6	3.8	8.47e-01	0	42	104	0	29	12171
2026-01-13 11:07:14.35	110.94	16.67	-34.0	-44.6	3.8	8.45e-01	0	42	104	0	29	12180
2026-01-13 11:07:15.36	110.82	16.77	-34.0	-44.6	3.8	8.45e-01	0	42	104	0	29	12152
2026-01-13 11:07:16.36	110.70	16.87	-34.0	-44.6	3.8	8.45e-01	0	42	104	0	29	12130
2026-01-13 11:07:17.37	110.58	16.97	-34.0	-44.5	3.8	8.46e-01	0	42	104	0	29	12128
2026-01-13 11:07:18.37	110.45	17.06	-34.0	-44.6	3.8	8.45e-01	0	42	104	0	29	12161
2026-01-13 11:07:19.38	110.33	17.16	-34.0	-44.6	3.8	8.47e-01	0	42	104	0	29	12157
2026-01-13 11:07:20.39	110.20	17.26	-34.0	-44.6	3.8	8.46e-01	0	42	104	0	29	12147
2026-01-13 11:07:21.39	110.08	17.36	-34.0	-44.6	3.8	8.46e-01	0	42	104	0	29	12141
2026-01-13 11:07:22.40	109.95	17.46	-34.0	-44.6	3.8	8.45e-01	0	42	104	0	29	12165
2026-01-13 11:07:23.41	109.82	17.56	-34.0	-44.6	3.8	8.46e-01	0	42	104	0	29	12158
2026-01-13 11:07:24.42	109.69	17.66	-34.0	-44.6	3.8	8.47e-01	0	42	104	0	29	12129
2026-01-13 11:07:25.43	109.56	17.76	-34.0	-44.6	3.8	8.45e-01	0	42	104	0	29	12138
2026-01-13 11:07:26.44	109.43	17.86	-34.0	-44.6	3.8	8.45e-01	0	42	104	0	29	12168
2026-01-13 11:07:27.45	109.30	17.97	-34.0	-44.6	3.8	8.46e-01	0	42	104	0	29	12150
2026-01-13 11:07:28.45	109.17	18.07	-34.0	-44.6	3.8	8.46e-01	0	42	104	0	29	12170
2026-01-13 11:07:29.46	109.03	18.17	-34.0	-44.5	3.8	8.46e-01	0	42	104	0	29	12107
2026-01-13 11:07:30.46	108.90	18.27	-34.0	-44.6	3.8	8.46e-01	0	42	104	0	29	12176
2026-01-13 11:07:31.47	108.76	18.37	-34.0	-44.6	3.8	8.46e-01	0	42	104	0	29	12158
2026-01-13 11:07:32.48	108.63	18.47	-34.0	-44.5	3.8	8.45e-01	0	42	104	0	29	12132
2026-01-13 11:07:33.48	108.49	18.58	-34.0	-44.6	3.8	8.46e-01	0	42	104	0	29	12148
2026-01-13 11:07:34.49	108.35	18.68	-34.0	-44.6	3.8	8.47e-01	0	42	104	0	29	12164
2026-01-13 11:07:35.50	108.21	18.78	-34.0	-44.6	3.8	8.46e-01	0	42	104	0	29	12146
2026-01-13 11:07:36.51	108.07	18.89	-34.0	-44.6	3.8	8.46e-01	0	42	104	0	29	12156
2026-01-13 11:07:37.52	107.93	18.99	-34.0	-44.6	3.8	8.47e-01	0	42	104	0	29	12144
2026-01-13 11:07:38.52	107.79	19.09	-34.0	-44.6	3.8	8.47e-01	0	42	104	0	29	12146
2026-01-13 11:07:39.53	107.65	19.20	-34.0	-44.6	3.8	8.46e-01	0	42	104	0	29	12154
2026-01-13 11:07:40.54	107.50	19.30	-34.0	-44.6	3.8	8.47e-01	0	42	104	0	29	12177
2026-01-13 11:07:41.54	107.36	19.40	-34.0	-44.6	3.8	8.45e-01	0	42	104	0	29	12210
2026-01-13 11:07:42.55	107.21	19.51	-34.0	-44.5	3.8	8.45e-01	0	42	104	0	29	12127
2026-01-13 11:07:43.55	107.07	19.61	-34.0	-44.6	3.8	8.46e-01	0	43	104	0	29	12132
2026-01-13 11:07:44.56	106.92	19.72	-34.0	-44.6	3.8	8.46e-01	0	42	104	0	29	12171
2026-01-13 11:07:45.57	106.77	19.82	-34.0	-44.6	3.8	8.47e-01	0	42	104	0	29	12144
2026-01-13 11:07:46.58	106.62	19.93	-34.0	-44.6	3.8	8.47e-01	0	43	104	0	29	12153
2026-01-13 11:07:47.58	106.47	20.04	-34.0	-44.6	3.8	8.47e-01	0	42	104	0	29	12144
2026-01-13 11:07:48.59	106.32	20.14	-34.0	-44.6	3.8	8.46e-01	0	42	104	0	29	12151
2026-01-13 11:07:49.59	106.16	20.25	-34.0	-44.5	3.8	8.46e-01	0	42	104	0	29	12119
2026-01-13 11:07:50.60	106.01	20.36	-34.0	-44.6	3.8	8.45e-01	0	42	104	0	29	12169
2026-01-13 11:07:51.60	105.86	20.46	-34.0	-44.6	3.8	8.46e-01	0	42	104	0	29	12162
2026-01-13 11:07:52.61	105.70	20.57	-34.0	-44.6	3.8	8.45e-01	0	42	104	0	29	12159
2026-01-13 11:07:53.62	105.54	20.68	-34.0	-44.6	3.8	8.46e-01	0	43	104	0	29	12169
2026-01-13 11:07:54.62	105.38	20.78	-34.0	-44.6	3.8	8.46e-01	0	42	104	0	29	12160
2026-01-13 11:07:55.63	105.22	20.89	-34.0	-44.6	3.8	8.46e-01	0	42	104	0	29	12172
2026-01-13 11:07:56.64	105.06	21.00	-34.0	-44.6	3.8	8.47e-01	0	42	104	0	29	12146
2026-01-13 11:07:57.65	104.90	21.11	-34.0	-44.6	3.8	8.47e-01	0	43	104	0	29	12141
2026-01-13 11:07:58.66	104.74	21.22	-34.0	-44.6	3.8	8.46e-01	0	43	104	0	29	12128
2026-01-13 11:07:59.66	104.57	21.32	-34.0	-44.6	3.8	8.47e-01	0	43	104	0	29	12172
2026-01-13 11:08:00.66	104.41	21.43	-34.0	-44.6	3.8	8.46e-01	0	42	104	0	29	12128
2026-01-13 11:08:01.66	104.24	21.54	-34.0	-44.6	3.8	8.46e-01	0	42	104	0	29	12118
2026-01-13 11:08:02.67	104.07	21.65	-34.0	-44.6	3.8	8.46e-01	0	43	104	0	29	12148
2026-01-13 11:08:03.68	103.90	21.76	-34.0	-44.6	3.8	8.46e-01	0	43	104	0	29	12147
2026-01-13 11:08:04.69	103.73	21.87	-34.0	-44.6	3.8	8.47e-01	0	43	104	0	29	12143
2026-01-13 11:08:05.69	103.56	21.98	-34.0	-44.6	3.8	8.46e-01	0	43	104	0	29	12165
2026-01-13 11:08:06.68	103.39	22.09	-34.0	-44.6	3.8	8.46e-01	0	42	104	0	29	12178
2026-01-13 11:08:07.69	103.22	22.20	-34.0	-44.6	3.8	8.48e-01	0	42	104	0	29	12130
2026-01-13 11:08:08.70	103.04	22.31	-34.0	-44.6	3.8	8.46e-01	0	42	104	0	29	12145
2026-01-13 11:08:09.70	102.87	22.42	-34.0	-44.6	3.8	8.46e-01	0	42	104	0	29	12160
2026-01-13 11:08:10.70	102.69	22.53	-34.0	-44.6	3.8	8.45e-01	0	43	104	0	29	12151
2026-01-13 11:08:11.71	102.51	22.64	-34.0	-44.5	3.8	8.46e-01	0	42	104	0	29	12084
2026-01-13 11:08:12.71	102.33	22.75	-34.0	-44.6	3.8	8.45e-01	0	43	104	0	29	12163
2026-01-13 11:08:13.72	102.15	22.86	-34.0	-44.6	3.8	8.47e-01	0	42	104	0	29	12133
2026-01-13 11:08:14.73	101.97	22.97	-34.0	-44.5	3.8	8.47e-01	0	43	104	0	29	12110
2026-01-13 11:08:15.73	101.78	23.09	-34.0	-44.6	3.8	8.46e-01	0	42	104	0	29	12157
2026-01-13 11:08:16.74	101.60	23.20	-34.0	-44.6	3.8	8.47e-01	0	42	104	0	29	12173
2026-01-13 11:08:17.75	101.41	23.31	-34.0	-44.5	3.8	8.46e-01	0	43	104	0	29	12111
2026-01-13 11:08:18.75	101.22	23.42	-34.0	-44.5	3.8	8.46e-01	0	43	104	0	29	12122
2026-01-13 11:08:19.76	101.03	23.53	-34.0	-44.6	3.8	8.46e-01	0	43	104	0	29	12153
2026-01-13 11:08:20.77	100.84	23.65	-34.0	-44.6	3.8	8.46e-01	0	43	104	0	29	12168
2026-01-13 11:08:21.77	100.65	23.76	-34.0	-44.6	3.8	8.46e-01	0	42	104	0	29	12147
2026-01-13 11:08:22.78	100.46	23.87	-34.0	-44.5	3.8	8.46e-01	0	43	104	0	29	12131
2026-01-13 11:08:23.79	100.26	23.99	-34.0	-44.6	3.8	8.46e-01	0	43	104	0	29	12138
2026-01-13 11:08:24.80	100.06	24.10	-34.0	-44.6	3.8	8.44e-01	0	43	104	0	29	12163
2026-01-13 11:08:25.81	99.86	24.21	-34.0	-44.6	3.8	8.47e-01	0	43	104	0	29	12173
2026-01-13 11:08:26.81	99.67	24.32	-34.0	-44.6	3.8	8.46e-01	0	42	104	0	29	12148
2026-01-13 11:08:27.81	99.47	24.44	-34.0	-44.5	3.8	8.47e-01	0	42	104	0	29	12082
2026-01-13 11:08:28.82	99.26	24.55	-34.0	-44.6	3.8	8.46e-01	0	43	104	0	29	12150
2026-01-13 11:08:29.83	99.06	24.66	-34.0	-44.5	3.8	8.46e-01	0	43	104	0	29	12106
2026-01-13 11:08:30.84	98.85	24.78	-34.0	-44.6	3.8	8.47e-01	0	43	104	0	29	12143
2026-01-13 11:08:31.84	98.65	24.89	-34.0	-44.6	3.8	8.46e-01	0	42	104	0	29	12139
2026-01-13 11:08:32.85	98.44	25.01	-34.0	-44.5	3.8	8.46e-01	0	42	104	0	29	12113
2026-01-13 11:08:33.85	98.23	25.12	-34.0	-44.6	3.8	8.45e-01	0	43	104	0	29	12156
2026-01-13 11:08:34.87	98.01	25.23	-34.0	-44.6	3.8	8.45e-01	0	42	104	0	29	12186
2026-01-13 11:08:35.87	97.80	25.35	-34.0	-44.6	3.8	8.46e-01	0	42	104	0	29	12161
2026-01-13 11:08:36.87	97.59	25.46	-34.0	-44.5	3.8	8.46e-01	0	42	104	0	29	12104
2026-01-13 11:08:37.88	97.37	25.57	-34.0	-44.6	3.8	8.46e-01	0	42	104	0	29	12146
2026-01-13 11:08:38.89	97.15	25.69	-34.0	-44.6	3.8	8.46e-01	0	43	104	0	29	12152
2026-01-13 11:08:39.89	96.94	25.80	-34.0	-44.6	3.8	8.46e-01	0	42	104	0	29	12163
2026-01-13 11:08:40.90	96.71	25.92	-34.0	-44.5	3.8	8.45e-01	0	43	104	0	29	12129
2026-01-13 11:08:41.90	96.49	26.03	-34.0	-44.6	3.8	8.46e-01	0	43	104	0	29	12172
2026-01-13 11:08:42.91	96.27	26.15	-34.0	-44.6	3.8	8.46e-01	0	43	104	0	29	12152
2026-01-13 11:08:43.91	96.04	26.26	-34.0	-44.6	3.8	8.46e-01	0	43	104	0	29	12150
2026-01-13 11:08:44.92	95.82	26.37	-34.0	-44.6	3.8	8.48e-01	0	42	104	0	29	12166
2026-01-13 11:08:45.92	95.59	26.49	-34.0	-44.6	3.8	8.47e-01	0	42	104	0	29	12161
2026-01-13 11:08:46.93	95.36	26.60	-34.0	-44.6	3.8	8.46e-01	0	42	104	0	29	12141
2026-01-13 11:08:47.94	95.12	26.72	-34.0	-44.6	3.8	8.46e-01	0	42	104	0	29	12160
2026-01-13 11:08:48.95	94.89	26.83	-34.0	-44.6	3.8	8.46e-01	0	43	104	0	29	12155
2026-01-13 11:08:49.95	94.65	26.94	-34.0	-44.6	3.8	8.47e-01	0	43	104	0	29	12153
2026-01-13 11:08:50.95	94.42	27.06	-34.0	-44.5	3.8	8.46e-01	0	43	104	0	29	12140
2026-01-13 11:08:51.96	94.18	27.17	-34.0	-44.5	3.8	8.46e-01	0	43	104	0	29	12085
2026-01-13 11:08:52.96	93.94	27.28	-34.0	-44.6	3.8	8.46e-01	0	43	104	0	29	12132
2026-01-13 11:08:53.97	93.70	27.40	-34.0	-44.6	3.8	8.47e-01	0	42	104	0	29	12136
2026-01-13 11:08:54.98	93.45	27.51	-34.0	-44.6	3.8	8.47e-01	0	43	104	0	29	12161
2026-01-13 11:08:55.98	93.21	27.62	-34.0	-44.6	3.8	8.44e-01	0	43	104	0	29	12139
2026-01-13 11:08:56.98	92.96	27.74	-34.0	-44.6	3.8	8.48e-01	0	43	104	0	29	12148
2026-01-13 11:08:57.99	92.71	27.85	-34.0	-44.5	3.8	8.46e-01	0	43	104	0	29	12106
2026-01-13 11:08:59.00	92.46	27.96	-34.0	-44.5	3.8	8.45e-01	0	43	104	0	29	12124
2026-01-13 11:09:00.01	92.20	28.08	-34.0	-44.5	3.8	8.46e-01	0	43	104	0	29	12121
2026-01-13 11:09:01.01	91.95	28.19	-34.0	-44.5	3.8	8.46e-01	0	43	104	0	29	12101
2026-01-13 11:09:02.02	91.69	28.30	-34.0	-44.5	3.8	8.47e-01	0	43	104	0	29	12121
2026-01-13 11:09:03.02	91.43	28.41	-34.0	-44.6	3.8	8.45e-01	0	43	104	0	29	12170
2026-01-13 11:09:04.03	91.17	28.52	-34.0	-44.5	3.8	8.47e-01	0	43	104	0	29	12130
2026-01-13 11:09:05.04	90.91	28.64	-34.0	-44.5	3.8	8.46e-01	0	43	104	0	29	12122
2026-01-13 11:09:06.04	90.65	28.75	-34.0	-44.6	3.8	8.45e-01	0	43	104	0	29	12152
2026-01-13 11:09:07.04	90.38	28.86	-34.0	-44.5	3.8	8.46e-01	0	43	104	0	29	12118
2026-01-13 11:09:08.05	90.11	28.97	-34.0	-44.5	3.8	8.47e-01	0	43	104	0	29	12111
2026-01-13 11:09:09.06	89.84	29.08	-34.0	-44.5	3.8	8.45e-01	0	43	104	0	29	12139
2026-01-13 11:09:10.07	89.57	29.19	-34.0	-44.6	3.8	8.46e-01	0	42	104	0	29	12131
2026-01-13 11:09:11.06	89.30	29.30	-34.0	-44.6	3.8	8.46e-01	0	43	104	0	29	12142
2026-01-13 11:09:12.06	89.03	29.41	-34.0	-44.6	3.8	8.46e-01	0	43	104	0	29	12186
2026-01-13 11:09:13.07	88.75	29.52	-34.0	-44.5	3.8	8.46e-01	0	43	104	0	29	12126
2026-01-13 11:09:14.07	88.47	29.63	-34.0	-44.6	3.8	8.45e-01	0	43	104	0	29	12160
2026-01-13 11:09:15.08	88.19	29.74	-34.0	-44.6	3.8	8.46e-01	0	43	104	0	29	12181
2026-01-13 11:09:16.09	87.91	29.85	-34.0	-44.6	3.8	8.46e-01	0	43	104	0	29	12158
2026-01-13 11:09:17.09	87.62	29.95	-34.0	-44.5	3.8	8.47e-01	0	43	104	0	29	12119
2026-01-13 11:09:18.10	87.34	30.06	-34.0	-44.5	3.8	8.47e-01	0	43	104	0	29	12124
2026-01-13 11:09:19.11	87.05	30.17	-34.0	-44.5	3.8	8.47e-01	0	43	104	0	29	12142
2026-01-13 11:09:20.12	86.76	30.28	-34.0	-44.6	3.8	8.46e-01	0	43	104	0	29	12149
2026-01-13 11:09:21.12	86.46	30.38	-34.0	-44.5	3.8	8.46e-01	0	43	104	0	29	12118
2026-01-13 11:09:22.13	86.17	30.49	-34.0	-44.6	3.8	8.47e-01	0	43	104	0	29	12174
2026-01-13 11:09:23.14	85.87	30.60	-34.0	-44.6	3.8	8.46e-01	0	43	104	0	29	12193
2026-01-13 11:09:24.14	85.57	30.70	-34.0	-44.6	3.8	8.46e-01	0	43	104	0	29	12164
2026-01-13 11:09:25.14	85.28	30.80	-34.0	-44.6	3.8	8.46e-01	0	43	104	0	29	12213
2026-01-13 11:09:26.15	84.97	30.91	-34.0	-44.5	3.8	8.46e-01	0	43	104	0	29	12129
2026-01-13 11:09:27.16	84.67	31.01	-34.0	-44.5	3.8	8.46e-01	0	43	104	0	29	12100
2026-01-13 11:09:28.17	84.36	31.12	-34.0	-44.5	3.8	8.46e-01	0	43	104	0	29	12127
2026-01-13 11:09:29.17	84.05	31.22	-34.0	-44.6	3.8	8.46e-01	0	42	104	0	29	12130
2026-01-13 11:09:30.18	83.74	31.32	-34.0	-44.6	3.8	8.45e-01	0	43	104	0	29	12176
2026-01-13 11:09:31.18	83.43	31.42	-34.0	-44.5	3.8	8.46e-01	0	43	104	0	29	12126
2026-01-13 11:09:32.19	83.12	31.52	-34.0	-44.6	3.8	8.47e-01	0	43	104	0	29	12168
2026-01-13 11:09:33.19	82.80	31.62	-34.0	-44.5	3.8	8.46e-01	0	43	104	0	29	12125
2026-01-13 11:09:34.20	82.48	31.72	-34.0	-44.5	3.8	8.46e-01	0	43	104	0	29	12139
2026-01-13 11:09:35.21	82.16	31.82	-34.0	-44.5	3.8	8.46e-01	0	43	104	0	29	12142
2026-01-13 11:09:36.22	81.84	31.92	-34.0	-44.5	3.8	8.47e-01	0	43	104	0	29	12105
2026-01-13 11:09:37.22	81.52	32.01	-34.0	-44.6	3.8	8.45e-01	0	43	104	0	29	12159
2026-01-13 11:09:38.23	81.19	32.11	-34.0	-44.6	3.8	8.47e-01	0	43	104	0	29	12128
2026-01-13 11:09:39.23	80.87	32.21	-34.0	-44.5	3.8	8.46e-01	0	43	104	0	29	12101
2026-01-13 11:09:40.24	80.54	32.30	-34.0	-44.6	3.8	8.47e-01	0	43	104	0	29	12146
2026-01-13 11:09:41.25	80.20	32.40	-34.0	-44.6	3.8	8.46e-01	0	43	104	0	29	12147
2026-01-13 11:09:42.25	79.87	32.49	-34.0	-44.5	3.8	8.46e-01	0	42	104	0	29	12115
2026-01-13 11:09:43.26	79.54	32.58	-34.0	-44.6	3.8	8.46e-01	0	43	104	0	29	12178
2026-01-13 11:09:44.26	79.20	32.67	-34.0	-44.5	3.8	8.47e-01	0	43	104	0	29	12129
2026-01-13 11:09:45.28	78.86	32.76	-34.0	-44.6	3.8	8.47e-01	0	43	104	0	29	12146
2026-01-13 11:09:46.28	78.52	32.85	-34.0	-44.6	3.8	8.46e-01	0	43	104	0	29	12154
2026-01-13 11:09:47.29	78.17	32.94	-34.0	-44.6	3.8	8.46e-01	0	43	104	0	29	12182
2026-01-13 11:09:48.29	77.83	33.03	-34.0	-44.6	3.8	8.46e-01	0	43	104	0	29	12171
2026-01-13 11:09:49.29	77.49	33.12	-34.0	-44.6	3.8	8.47e-01	0	43	104	0	29	12140
2026-01-13 11:09:50.30	77.14	33.20	-34.0	-44.6	3.8	8.46e-01	0	43	104	0	29	12165
2026-01-13 11:09:51.30	76.79	33.29	-34.0	-44.6	3.8	8.46e-01	0	43	104	0	29	12149
2026-01-13 11:09:52.30	76.44	33.37	-34.0	-44.5	3.8	8.46e-01	0	43	104	0	29	12131
2026-01-13 11:09:53.31	76.08	33.46	-34.0	-44.6	3.8	8.47e-01	0	43	104	0	29	12175
2026-01-13 11:09:54.32	75.73	33.54	-34.0	-44.6	3.8	8.46e-01	0	43	104	0	29	12148
2026-01-13 11:09:55.32	75.37	33.62	-34.0	-44.6	3.8	8.45e-01	0	43	104	0	29	12155
2026-01-13 11:09:56.33	75.01	33.70	-34.0	-44.6	3.8	8.47e-01	0	43	104	0	29	12135
2026-01-13 11:09:57.34	74.65	33.78	-34.0	-44.6	3.8	8.46e-01	0	43	104	0	29	12169
2026-01-13 11:09:58.34	74.29	33.86	-34.0	-44.6	3.8	8.45e-01	0	43	104	0	29	12155
2026-01-13 11:09:59.35	73.92	33.94	-34.0	-44.6	3.8	8.46e-01	0	43	104	0	29	12155
2026-01-13 11:10:00.36	73.55	34.01	-34.0	-44.5	3.8	8.47e-01	0	43	104	0	29	12117
2026-01-13 11:10:01.36	73.19	34.09	-34.0	-44.6	3.8	8.45e-01	0	43	104	0	29	12186
2026-01-13 11:10:02.36	72.82	34.16	-34.0	-44.6	3.8	8.48e-01	0	43	104	0	29	12159
2026-01-13 11:10:03.37	72.45	34.23	-34.0	-44.5	3.8	8.47e-01	0	43	104	0	29	12138
2026-01-13 11:10:04.38	72.07	34.30	-34.0	-44.6	3.8	8.46e-01	0	43	104	0	29	12140
2026-01-13 11:10:05.39	71.70	34.37	-34.0	-44.6	3.8	8.46e-01	0	43	104	0	29	12171
2026-01-13 11:10:06.39	71.32	34.44	-34.0	-44.5	3.8	8.46e-01	0	43	104	0	29	12149
2026-01-13 11:10:07.40	70.94	34.51	-34.0	-44.5	3.8	8.45e-01	0	43	104	0	29	12145
2026-01-13 11:10:08.41	70.56	34.57	-34.0	-44.5	3.8	8.47e-01	0	43	104	0	29	12148
2026-01-13 11:10:09.41	70.18	34.64	-34.0	-44.5	3.8	8.46e-01	0	43	104	0	29	12137
2026-01-13 11:10:10.42	69.80	34.70	-34.0	-44.6	3.8	8.47e-01	0	43	104	0	29	12172
2026-01-13 11:10:11.43	69.41	34.76	-34.0	-44.6	3.8	8.47e-01	0	43	104	0	29	12154
2026-01-13 11:10:12.44	69.03	34.83	-34.0	-44.6	3.8	8.45e-01	0	43	104	0	29	12152
2026-01-13 11:10:13.45	68.64	34.89	-34.0	-44.6	3.8	8.47e-01	0	43	104	0	29	12149
2026-01-13 11:10:14.45	68.25	34.94	-34.0	-44.6	3.8	8.46e-01	0	43	104	0	29	12163
2026-01-13 11:10:15.46	67.86	35.00	-34.0	-44.6	3.8	8.46e-01	0	43	104	0	29	12134
2026-01-13 11:10:16.46	67.47	35.05	-34.0	-44.5	3.8	8.45e-01	0	43	104	0	29	12112
2026-01-13 11:10:17.47	67.08	35.11	-34.0	-44.6	3.8	8.47e-01	0	43	104	0	29	12140
2026-01-13 11:10:18.47	66.69	35.16	-34.0	-44.5	3.8	8.47e-01	0	43	104	0	29	12132
2026-01-13 11:10:19.48	66.29	35.21	-34.0	-44.5	3.8	8.47e-01	0	43	104	0	29	12089
2026-01-13 11:10:20.49	65.89	35.26	-34.0	-44.6	3.8	8.45e-01	0	43	104	0	29	12139
2026-01-13 11:10:21.50	65.50	35.31	-34.0	-44.6	3.8	8.45e-01	0	43	104	0	29	12129
2026-01-13 11:10:22.50	65.10	35.36	-34.0	-44.5	3.8	8.45e-01	0	43	104	0	29	12107
2026-01-13 11:10:23.51	64.70	35.40	-34.0	-44.5	3.8	8.46e-01	0	42	104	0	29	12131
2026-01-13 11:10:24.51	64.30	35.44	-34.0	-44.5	3.8	8.46e-01	0	43	104	0	29	12143
2026-01-13 11:10:25.52	63.90	35.49	-34.0	-44.6	3.8	8.46e-01	0	43	104	0	29	12167
2026-01-13 11:10:26.52	63.50	35.53	-34.0	-44.5	3.8	8.46e-01	0	43	104	0	29	12135
2026-01-13 11:10:27.53	63.09	35.56	-34.0	-44.5	3.8	8.46e-01	0	43	104	0	29	12126
2026-01-13 11:10:28.53	62.69	35.60	-34.0	-44.6	3.8	8.46e-01	0	43	104	0	29	12158
2026-01-13 11:10:29.53	62.29	35.64	-34.0	-44.5	3.8	8.47e-01	0	43	104	0	29	12116
2026-01-13 11:10:30.54	61.88	35.67	-34.0	-44.5	3.8	8.46e-01	0	43	104	0	29	12123
2026-01-13 11:10:31.54	61.48	35.70	-34.0	-44.5	3.8	8.47e-01	0	43	104	0	29	12119
2026-01-13 11:10:32.55	61.07	35.73	-34.0	-44.5	3.8	8.46e-01	0	43	104	0	29	12106
2026-01-13 11:10:33.55	60.66	35.76	-34.0	-44.6	3.8	8.47e-01	0	43	104	0	29	12162
2026-01-13 11:10:34.55	60.25	35.79	-34.0	-44.6	3.8	8.46e-01	0	43	104	0	29	12165
2026-01-13 11:10:35.56	59.84	35.82	-34.0	-44.5	3.8	8.46e-01	0	43	104	0	29	12126
2026-01-13 11:10:36.57	59.43	35.84	-34.0	-44.5	3.8	8.46e-01	0	43	104	0	29	12072
2026-01-13 11:10:37.56	59.03	35.86	-34.0	-44.5	3.8	8.47e-01	0	43	104	0	29	12089
2026-01-13 11:10:38.57	58.61	35.88	-34.0	-44.5	3.8	8.45e-01	0	43	104	0	29	12100
2026-01-13 11:10:39.57	58.20	35.90	-34.0	-44.6	3.8	8.46e-01	0	43	104	0	29	12129
2026-01-13 11:10:40.58	57.79	35.92	-34.0	-44.5	3.8	8.46e-01	0	43	104	0	29	12111
2026-01-13 11:10:41.58	57.38	35.93	-34.0	-44.5	3.8	8.47e-01	0	43	104	0	29	12119
2026-01-13 11:10:42.58	56.97	35.95	-34.0	-44.5	3.8	8.47e-01	0	43	104	0	29	12118
2026-01-13 11:10:43.59	56.55	35.96	-34.0	-44.5	3.8	8.47e-01	0	43	104	0	29	12120
2026-01-13 11:10:44.60	56.14	35.97	-34.0	-44.5	3.8	8.46e-01	0	43	104	0	29	12116
2026-01-13 11:10:45.61	55.72	35.98	-34.0	-44.5	3.8	8.46e-01	0	43	104	0	29	12142
2026-01-13 11:10:46.61	55.31	35.99	-34.0	-44.5	3.8	8.46e-01	0	43	104	0	29	12117
2026-01-13 11:10:47.62	54.89	35.99	-34.0	-44.5	3.8	8.47e-01	0	43	104	0	29	12092
2026-01-13 11:10:48.63	54.48	36.00	-34.0	-44.5	3.8	8.46e-01	0	43	104	0	29	12122
2026-01-13 11:10:49.63	54.07	36.00	-34.0	-44.5	3.8	8.47e-01	0	43	104	0	29	12098
2026-01-13 11:10:50.64	53.65	36.00	-34.0	-44.5	3.8	8.46e-01	0	43	104	0	29	12083
2026-01-13 11:10:51.65	53.23	36.00	-34.0	-44.6	3.8	8.46e-01	0	43	104	0	29	12138
2026-01-13 11:10:52.65	52.82	36.00	-34.0	-44.6	3.8	8.46e-01	0	43	104	0	29	12143
2026-01-13 11:10:53.66	52.40	35.99	-34.0	-44.5	3.8	8.47e-01	0	43	104	0	29	12138
2026-01-13 11:10:54.67	51.99	35.98	-34.0	-44.5	3.8	8.47e-01	0	43	104	0	29	12117
2026-01-13 11:10:55.67	51.58	35.98	-34.0	-44.5	3.8	8.46e-01	0	43	104	0	29	12105
2026-01-13 11:10:56.68	51.16	35.97	-34.0	-44.6	3.8	8.46e-01	0	43	104	0	29	12155
2026-01-13 11:10:57.68	50.75	35.96	-34.0	-44.6	3.8	8.46e-01	0	43	104	0	29	12154
2026-01-13 11:10:58.68	50.34	35.94	-34.0	-44.5	3.8	8.46e-01	0	43	104	0	29	12114
2026-01-13 11:10:59.70	49.92	35.93	-34.0	-44.5	3.8	8.46e-01	0	43	104	0	29	12153
2026-01-13 11:11:00.71	49.51	35.91	-34.0	-44.6	3.8	8.47e-01	0	43	104	0	29	12141
2026-01-13 11:11:01.71	49.10	35.89	-34.0	-44.5	3.8	8.46e-01	0	43	104	0	29	12119
2026-01-13 11:11:02.72	48.68	35.87	-34.0	-44.6	3.8	8.46e-01	0	43	104	0	29	12140
2026-01-13 11:11:03.72	48.28	35.85	-34.0	-44.6	3.8	8.46e-01	0	43	104	0	29	12144
2026-01-13 11:11:04.73	47.86	35.83	-34.0	-44.5	3.8	8.45e-01	0	43	104	0	29	12107
2026-01-13 11:11:05.74	47.45	35.80	-34.0	-44.6	3.8	8.45e-01	0	43	104	0	29	12121
2026-01-13 11:11:06.75	47.04	35.78	-34.0	-44.6	3.8	8.47e-01	0	43	104	0	29	12150
2026-01-13 11:11:07.75	46.63	35.75	-34.0	-44.5	3.8	8.46e-01	0	43	104	0	29	12125
2026-01-13 11:11:08.76	46.23	35.72	-34.0	-44.6	3.8	8.47e-01	0	43	104	0	29	12156
2026-01-13 11:11:09.77	45.82	35.69	-34.0	-44.5	3.8	8.46e-01	0	43	104	0	29	12118
2026-01-13 11:11:10.78	45.41	35.65	-34.0	-44.6	3.8	8.46e-01	0	42	104	0	29	12152
2026-01-13 11:11:11.78	45.01	35.62	-34.0	-44.5	3.8	8.46e-01	0	43	104	0	29	12094
2026-01-13 11:11:12.79	44.60	35.58	-34.0	-44.6	3.8	8.45e-01	0	43	104	0	29	12168
2026-01-13 11:11:13.80	44.20	35.54	-34.0	-44.5	3.8	8.46e-01	0	43	104	0	29	12128
2026-01-13 11:11:14.80	43.80	35.51	-34.0	-44.5	3.8	8.46e-01	0	43	104	0	29	12075
2026-01-13 11:11:15.81	43.39	35.46	-34.0	-44.6	3.8	8.46e-01	0	43	104	0	29	12173
2026-01-13 11:11:16.82	42.99	35.42	-34.0	-44.5	3.8	8.45e-01	0	43	104	0	29	12102
2026-01-13 11:11:17.83	42.59	35.38	-34.0	-44.6	3.8	8.46e-01	0	43	104	0	29	12168
2026-01-13 11:11:18.83	42.19	35.33	-34.0	-44.5	3.8	8.46e-01	0	43	104	0	29	12102
2026-01-13 11:11:19.84	41.79	35.28	-34.0	-44.5	3.8	8.47e-01	0	43	104	0	29	12134
2026-01-13 11:11:20.85	41.40	35.24	-34.0	-44.6	3.8	8.48e-01	0	43	104	0	29	12180
2026-01-13 11:11:21.85	41.00	35.19	-34.0	-44.5	3.8	8.46e-01	0	43	104	0	29	12117
2026-01-13 11:11:22.86	40.61	35.13	-34.0	-44.6	3.8	8.47e-01	0	43	104	0	29	12142
2026-01-13 11:11:23.87	40.22	35.08	-34.0	-44.6	3.8	8.47e-01	0	43	104	0	29	12154
2026-01-13 11:11:24.88	39.82	35.03	-34.0	-44.6	3.8	8.46e-01	0	43	104	0	29	12165
2026-01-13 11:11:25.89	39.43	34.97	-34.0	-44.5	3.8	8.46e-01	0	43	104	0	29	12110
2026-01-13 11:11:26.90	39.04	34.91	-34.0	-44.5	3.8	8.47e-01	0	43	104	0	29	12142
2026-01-13 11:11:27.91	38.65	34.85	-34.0	-44.6	3.8	8.45e-01	0	43	104	0	29	12134
2026-01-13 11:11:28.92	38.27	34.79	-34.0	-44.6	3.8	8.46e-01	0	43	104	0	29	12154
2026-01-13 11:11:29.93	37.88	34.73	-34.0	-44.6	3.8	8.46e-01	0	43	104	0	29	12146
2026-01-13 11:11:30.94	37.50	34.67	-34.0	-44.5	3.8	8.47e-01	0	43	104	0	29	12090
2026-01-13 11:11:31.94	37.12	34.61	-34.0	-44.5	3.8	8.47e-01	0	43	104	0	29	12124
2026-01-13 11:11:32.95	36.74	34.54	-34.0	-44.5	3.8	8.46e-01	0	43	104	0	29	12089
2026-01-13 11:11:33.95	36.36	34.47	-34.0	-44.6	3.8	8.46e-01	0	43	104	0	29	12147
2026-01-13 11:11:34.96	35.98	34.41	-34.0	-44.6	3.8	8.47e-01	0	43	104	0	29	12132
2026-01-13 11:11:35.97	35.61	34.34	-34.0	-44.5	3.8	8.46e-01	0	43	104	0	29	12114
2026-01-13 11:11:36.98	35.23	34.27	-34.0	-44.6	3.8	8.47e-01	0	43	104	0	29	12158
2026-01-13 11:11:37.99	34.86	34.19	-34.0	-44.5	3.8	8.46e-01	0	43	104	0	29	12105
2026-01-13 11:11:38.99	34.49	34.12	-34.0	-44.5	3.8	8.46e-01	0	43	104	0	29	12131
2026-01-13 11:11:40.00	34.12	34.05	-34.0	-44.6	3.8	8.47e-01	0	43	104	0	29	12143
2026-01-13 11:11:41.01	33.76	33.97	-34.0	-44.5	3.8	8.46e-01	0	43	104	0	29	12135
2026-01-13 11:11:42.02	33.39	33.90	-34.0	-44.6	3.8	8.46e-01	0	43	104	0	29	12146
2026-01-13 11:11:43.01	33.03	33.82	-34.0	-44.5	3.8	8.46e-01	0	43	104	0	29	12112
2026-01-13 11:11:44.02	32.67	33.74	-34.0	-44.6	3.8	8.44e-01	0	43	104	0	29	12147
2026-01-13 11:11:45.03	32.31	33.66	-34.0	-44.6	3.8	8.46e-01	0	43	104	0	29	12130
2026-01-13 11:11:46.03	31.95	33.58	-34.0	-44.6	3.8	8.45e-01	0	43	104	0	29	12161
2026-01-13 11:11:47.04	31.60	33.50	-34.0	-44.5	3.8	8.47e-01	0	43	104	0	29	12131
2026-01-13 11:11:48.05	31.24	33.42	-34.0	-44.6	3.8	8.46e-01	0	43	104	0	29	12194
2026-01-13 11:11:49.06	30.89	33.33	-34.0	-44.6	3.8	8.46e-01	0	43	104	0	29	12154
2026-01-13 11:11:50.06	30.54	33.25	-34.0	-44.5	3.8	8.46e-01	0	43	104	0	29	12084
2026-01-13 11:11:51.07	30.19	33.16	-34.0	-44.6	3.8	8.45e-01	0	43	104	0	29	12147
2026-01-13 11:11:52.08	29.84	33.07	-34.0	-44.5	3.8	8.46e-01	0	43	104	0	29	12112
2026-01-13 11:11:53.08	29.50	32.99	-34.0	-44.5	3.8	8.46e-01	0	43	104	0	29	12123
2026-01-13 11:11:54.08	29.16	32.90	-34.0	-44.6	3.8	8.47e-01	0	43	104	0	29	12140
2026-01-13 11:11:55.09	28.82	32.81	-34.0	-44.5	3.8	8.45e-01	0	43	104	0	29	12103
2026-01-13 11:11:56.10	28.48	32.72	-34.0	-44.6	3.8	8.46e-01	0	43	104	0	29	12183
2026-01-13 11:11:57.10	28.14	32.63	-34.0	-44.5	3.8	8.47e-01	0	43	104	0	29	12126
2026-01-13 11:11:58.11	27.80	32.54	-34.0	-44.6	3.8	8.46e-01	0	43	104	0	29	12164
2026-01-13 11:11:59.12	27.47	32.44	-34.0	-44.6	3.8	8.46e-01	0	43	104	0	29	12140
2026-01-13 11:12:00.13	27.14	32.35	-34.0	-44.5	3.8	8.47e-01	0	43	104	0	29	12107
2026-01-13 11:12:01.13	26.81	32.26	-34.0	-44.6	3.8	8.46e-01	0	43	104	0	29	12160
2026-01-13 11:12:02.13	26.48	32.16	-34.0	-44.6	3.8	8.46e-01	0	43	104	0	29	12165
2026-01-13 11:12:03.14	26.16	32.06	-34.0	-44.6	3.8	8.46e-01	0	42	104	0	29	12156
2026-01-13 11:12:04.14	25.83	31.97	-34.0	-44.6	3.8	8.46e-01	0	42	104	0	29	12141
2026-01-13 11:12:05.14	25.51	31.87	-34.0	-44.6	3.8	8.46e-01	0	43	104	0	29	12190
2026-01-13 11:12:06.15	25.19	31.77	-34.0	-44.6	3.8	8.47e-01	0	43	104	0	29	12141
2026-01-13 11:12:07.15	24.88	31.68	-34.0	-44.5	3.8	8.46e-01	0	43	104	0	29	12138
2026-01-13 11:12:08.16	24.56	31.58	-34.0	-44.6	3.8	8.46e-01	0	43	104	0	29	12152
2026-01-13 11:12:09.16	24.25	31.48	-34.0	-44.6	3.8	8.45e-01	0	43	104	0	29	12162
2026-01-13 11:12:10.17	23.93	31.38	-34.0	-44.6	3.8	8.47e-01	0	43	104	0	29	12169
2026-01-13 11:12:11.18	23.62	31.27	-34.0	-44.5	3.8	8.47e-01	0	43	104	0	29	12126
2026-01-13 11:12:12.18	23.32	31.17	-34.0	-44.5	3.8	8.46e-01	0	43	104	0	29	12125
2026-01-13 11:12:13.18	23.01	31.07	-34.0	-44.5	3.8	8.46e-01	0	43	104	0	29	12117
2026-01-13 11:12:14.18	22.71	30.97	-34.0	-44.6	3.8	8.46e-01	0	43	104	0	29	12177
2026-01-13 11:12:15.20	22.40	30.86	-34.0	-44.6	3.8	8.46e-01	0	43	104	0	29	12138
2026-01-13 11:12:16.20	22.11	30.76	-34.0	-44.6	3.8	8.45e-01	0	43	104	0	29	12147
2026-01-13 11:12:17.21	21.81	30.66	-34.0	-44.6	3.8	8.44e-01	0	42	104	0	29	12150
2026-01-13 11:12:18.21	21.51	30.55	-34.0	-44.6	3.8	8.46e-01	0	43	104	0	29	12135
2026-01-13 11:12:19.22	21.22	30.45	-34.0	-44.6	3.8	8.47e-01	0	43	104	0	29	12156
2026-01-13 11:12:20.23	20.92	30.34	-34.0	-44.6	3.8	8.45e-01	0	43	104	0	29	12161
2026-01-13 11:12:21.24	20.63	30.23	-34.0	-44.6	3.8	8.46e-01	0	43	104	0	29	12168
2026-01-13 11:12:22.24	20.34	30.13	-34.0	-44.6	3.8	8.47e-01	0	43	104	0	29	12172
2026-01-13 11:12:23.25	20.06	30.02	-34.0	-44.5	3.8	8.46e-01	0	43	104	0	29	12109
2026-01-13 11:12:24.26	19.77	29.91	-34.0	-44.6	3.8	8.47e-01	0	43	104	0	29	12161
2026-01-13 11:12:25.26	19.49	29.80	-34.0	-44.5	3.8	8.46e-01	0	43	104	0	29	12131
2026-01-13 11:12:26.27	19.21	29.69	-34.0	-44.5	3.8	8.45e-01	0	43	104	0	29	12118
2026-01-13 11:12:27.28	18.93	29.59	-34.0	-44.5	3.8	8.47e-01	0	43	104	0	29	12114
2026-01-13 11:12:28.28	18.65	29.48	-34.0	-44.5	3.8	8.45e-01	0	43	104	0	29	12140
2026-01-13 11:12:29.28	18.38	29.37	-34.0	-44.6	3.8	8.47e-01	0	43	104	0	29	12131
2026-01-13 11:12:30.29	18.10	29.26	-34.0	-44.5	3.8	8.47e-01	0	43	104	0	29	12122
2026-01-13 11:12:31.29	17.83	29.15	-34.0	-44.5	3.8	8.44e-01	0	43	104	0	29	12128
2026-01-13 11:12:32.30	17.56	29.04	-34.0	-44.6	3.8	8.47e-01	0	43	104	0	29	12162
2026-01-13 11:12:33.31	17.29	28.93	-34.0	-44.6	3.8	8.46e-01	0	43	104	0	29	12184
2026-01-13 11:12:34.31	17.03	28.82	-34.0	-44.6	3.8	8.46e-01	0	43	104	0	29	12129
2026-01-13 11:12:35.33	16.76	28.70	-34.0	-44.5	3.8	8.46e-01	0	43	104	0	29	12136
2026-01-13 11:12:36.33	16.50	28.59	-34.0	-44.5	3.8	8.45e-01	0	43	104	0	29	12116
2026-01-13 11:12:37.34	16.24	28.48	-34.0	-44.6	3.8	8.46e-01	0	43	104	0	29	12138
2026-01-13 11:12:38.34	15.98	28.37	-34.0	-44.6	3.8	8.46e-01	0	43	104	0	29	12180
2026-01-13 11:12:39.35	15.73	28.26	-34.0	-44.5	3.8	8.45e-01	0	43	104	0	29	12109
2026-01-13 11:12:40.35	15.47	28.15	-34.0	-44.6	3.8	8.46e-01	0	43	104	0	29	12143
2026-01-13 11:12:41.36	15.22	28.03	-34.0	-44.6	3.8	8.46e-01	0	43	104	0	29	12163
2026-01-13 11:12:42.37	14.97	27.92	-34.0	-44.6	3.8	8.46e-01	0	43	104	0	29	12131
2026-01-13 11:12:43.37	14.72	27.81	-34.0	-44.6	3.8	8.46e-01	0	43	104	0	29	12175
2026-01-13 11:12:44.37	14.47	27.70	-34.0	-44.5	3.8	8.45e-01	0	43	104	0	29	12107
2026-01-13 11:12:45.38	14.23	27.58	-34.0	-44.5	3.8	8.46e-01	0	43	104	0	29	12134
2026-01-13 11:12:46.38	13.98	27.47	-34.0	-44.5	3.8	8.47e-01	0	43	104	0	29	12128
2026-01-13 11:12:47.39	13.74	27.36	-34.0	-44.5	3.8	8.46e-01	0	43	104	0	29	12120
2026-01-13 11:12:48.40	13.50	27.24	-34.0	-44.5	3.8	8.44e-01	0	43	104	0	29	12123
2026-01-13 11:12:49.41	13.26	27.13	-34.0	-44.5	3.8	8.46e-01	0	43	104	0	29	12126
2026-01-13 11:12:50.42	13.02	27.02	-34.0	-44.6	3.8	8.47e-01	0	43	104	0	29	12145
2026-01-13 11:12:51.43	12.78	26.90	-34.0	-44.6	3.8	8.47e-01	0	43	104	0	29	12146
2026-01-13 11:12:52.43	12.55	26.79	-34.0	-44.5	3.8	8.46e-01	0	43	104	0	29	12114
2026-01-13 11:12:53.44	12.32	26.68	-34.0	-44.5	3.8	8.46e-01	0	43	104	0	29	12118
2026-01-13 11:12:54.45	12.09	26.56	-34.0	-44.5	3.8	8.46e-01	0	43	104	0	29	12117
2026-01-13 11:12:55.45	11.86	26.45	-34.0	-44.5	3.8	8.46e-01	0	43	104	0	29	12139
2026-01-13 11:12:56.46	11.63	26.34	-34.0	-44.6	3.8	8.46e-01	0	43	104	0	29	12183
2026-01-13 11:12:57.47	11.41	26.22	-34.0	-44.5	3.8	8.47e-01	0	43	104	0	29	12128
2026-01-13 11:12:58.47	11.18	26.11	-34.0	-44.5	3.8	8.46e-01	0	43	104	0	29	12112
2026-01-13 11:12:59.48	10.96	25.99	-34.0	-44.5	3.8	8.46e-01	0	43	104	0	29	12112
2026-01-13 11:13:00.48	10.74	25.88	-34.0	-44.6	3.8	8.46e-01	0	43	104	0	29	12180
2026-01-13 11:13:01.49	10.52	25.77	-34.0	-44.6	3.8	8.46e-01	0	43	104	0	29	12160
2026-01-13 11:13:02.50	10.30	25.65	-34.0	-44.5	3.8	8.46e-01	0	43	104	0	29	12099
2026-01-13 11:13:03.50	10.09	25.54	-34.0	-44.6	3.8	8.47e-01	0	43	104	0	29	12148
2026-01-13 11:13:04.51	9.87	25.43	-34.0	-44.5	3.8	8.45e-01	0	43	104	0	29	12108
2026-01-13 11:13:05.52	9.66	25.31	-34.0	-44.5	3.8	8.47e-01	0	43	104	0	29	12138
2026-01-13 11:13:06.53	9.45	25.20	-34.0	-44.5	3.8	8.46e-01	0	43	104	0	29	12138
2026-01-13 11:13:07.54	9.24	25.09	-34.0	-44.6	3.8	8.47e-01	0	43	104	0	29	12154
2026-01-13 11:13:08.55	9.03	24.97	-34.0	-44.6	3.8	8.46e-01	0	43	104	0	29	12165
2026-01-13 11:13:09.56	8.82	24.86	-34.0	-44.5	3.8	8.47e-01	0	43	104	0	29	12117
2026-01-13 11:13:10.56	8.62	24.75	-34.0	-44.5	3.8	8.46e-01	0	43	104	0	29	12121
2026-01-13 11:13:11.57	8.41	24.63	-34.0	-44.5	3.8	8.46e-01	0	43	104	0	29	12126
2026-01-13 11:13:12.57	8.21	24.52	-34.0	-44.5	3.8	8.46e-01	0	43	104	0	29	12109
2026-01-13 11:13:13.58	8.01	24.41	-34.0	-44.5	3.8	8.45e-01	0	43	104	0	29	12118
2026-01-13 11:13:14.59	7.81	24.29	-34.0	-44.6	3.8	8.46e-01	0	43	104	0	29	12133
2026-01-13 11:13:15.59	7.61	24.18	-34.0	-44.6	3.8	8.46e-01	0	43	104	0	29	12151
2026-01-13 11:13:16.60	7.42	24.07	-34.0	-44.5	3.8	8.45e-01	0	43	104	0	29	12122
2026-01-13 11:13:17.60	7.22	23.96	-34.0	-44.5	3.8	8.46e-01	0	43	104	0	29	12119
2026-01-13 11:13:18.61	7.03	23.84	-34.0	-44.5	3.8	8.46e-01	0	43	104	0	29	12124
2026-01-13 11:13:19.62	6.83	23.73	-34.0	-44.6	3.8	8.46e-01	0	43	104	0	29	12142
2026-01-13 11:13:20.63	6.64	23.62	-34.0	-44.5	3.8	8.46e-01	0	43	104	0	29	12121
2026-01-13 11:13:21.64	6.45	23.51	-34.0	-44.5	3.8	8.45e-01	0	43	104	0	29	12097
2026-01-13 11:13:22.64	6.27	23.40	-34.0	-44.6	3.8	8.46e-01	0	43	104	0	29	12154
2026-01-13 11:13:23.65	6.08	23.28	-34.0	-44.5	3.8	8.47e-01	0	43	104	0	29	12099
2026-01-13 11:13:24.65	5.90	23.17	-34.0	-44.6	3.8	8.47e-01	0	43	104	0	29	12141
2026-01-13 11:13:25.66	5.71	23.06	-34.0	-44.6	3.8	8.47e-01	0	43	104	0	29	12155
2026-01-13 11:13:26.67	5.53	22.95	-34.0	-44.5	3.8	8.46e-01	0	43	104	0	29	12122
2026-01-13 11:13:27.68	5.35	22.84	-34.0	-44.6	3.8	8.45e-01	0	43	104	0	29	12149
2026-01-13 11:13:28.69	5.16	22.73	-34.0	-44.6	3.8	8.46e-01	0	43	104	0	29	12160
2026-01-13 11:13:29.69	4.99	22.62	-34.0	-44.6	3.8	8.46e-01	0	43	104	0	29	12168
2026-01-13 11:13:30.70	4.81	22.51	-34.0	-44.5	3.8	8.46e-01	0	43	104	0	29	12108
2026-01-13 11:13:31.70	4.63	22.40	-34.0	-44.5	3.8	8.46e-01	0	43	104	0	29	12120
2026-01-13 11:13:32.71	4.46	22.29	-34.0	-44.5	3.8	8.44e-01	0	43	104	0	29	12128
2026-01-13 11:13:33.71	4.29	22.18	-34.0	-44.6	3.8	8.46e-01	0	43	104	0	29	12143
2026-01-13 11:13:34.72	4.11	22.07	-34.0	-44.6	3.8	8.44e-01	0	43	104	0	29	12141
2026-01-13 11:13:35.73	3.94	21.96	-34.0	-44.5	3.8	8.45e-01	0	43	104	0	29	12105
2026-01-13 11:13:36.73	3.77	21.85	-34.0	-44.6	3.8	8.45e-01	0	43	104	0	29	12145
2026-01-13 11:13:37.74	3.60	21.74	-34.0	-44.5	3.8	8.47e-01	0	43	104	0	29	12136
2026-01-13 11:13:38.75	3.44	21.63	-34.0	-44.6	3.8	8.45e-01	0	43	104	0	29	12133
2026-01-13 11:13:39.76	3.27	21.52	-34.0	-44.5	3.8	8.46e-01	0	43	104	0	29	12113
2026-01-13 11:13:40.76	3.10	21.41	-34.0	-44.5	3.8	8.46e-01	0	43	104	0	29	12109
2026-01-13 11:13:41.77	2.94	21.30	-34.0	-44.5	3.8	8.46e-01	0	43	104	0	29	12124
2026-01-13 11:13:42.78	2.78	21.20	-34.0	-44.5	3.8	8.46e-01	0	43	104	0	29	12134
2026-01-13 11:13:43.79	2.61	21.09	-34.0	-44.5	3.8	8.47e-01	0	43	104	0	29	12131
2026-01-13 11:13:44.79	2.46	20.98	-34.0	-44.5	3.8	8.46e-01	0	43	104	0	29	12098
2026-01-13 11:13:45.80	2.30	20.87	-34.0	-44.5	3.8	8.46e-01	0	43	104	0	29	12122
2026-01-13 11:13:46.81	2.14	20.76	-34.0	-44.5	3.8	8.46e-01	0	43	104	0	29	12127
2026-01-13 11:13:47.82	1.98	20.66	-34.0	-44.6	3.8	8.46e-01	0	43	104	0	29	12149
2026-01-13 11:13:48.83	1.82	20.55	-34.0	-44.6	3.8	8.46e-01	0	43	104	0	29	12158
2026-01-13 11:13:49.83	1.67	20.44	-34.0	-44.5	3.8	8.46e-01	0	43	104	0	29	12110
2026-01-13 11:13:50.84	1.51	20.34	-34.0	-44.5	3.8	8.45e-01	0	43	104	0	29	12081
2026-01-13 11:13:51.85	1.36	20.23	-34.0	-44.5	3.8	8.45e-01	0	43	104	0	29	12094
2026-01-13 11:13:52.86	1.21	20.13	-34.0	-44.5	3.8	8.47e-01	0	43	104	0	29	12120
2026-01-13 11:13:53.86	1.06	20.02	-34.0	-44.6	3.8	8.47e-01	0	43	104	0	29	12143
2026-01-13 11:13:54.87	0.91	19.91	-34.0	-44.5	3.8	8.46e-01	0	43	104	0	29	12136
2026-01-13 11:13:55.87	0.76	19.81	-34.0	-44.5	3.8	8.47e-01	0	43	104	0	29	12120
2026-01-13 11:13:56.87	0.62	19.71	-34.0	-44.5	3.8	8.47e-01	0	43	104	0	29	12124
2026-01-13 11:13:57.88	0.47	19.60	-34.0	-44.5	3.8	8.47e-01	0	43	104	0	29	12115
2026-01-13 11:13:58.88	0.32	19.50	-34.0	-44.6	3.8	8.46e-01	0	43	104	0	29	12145
2026-01-13 11:13:59.89	0.18	19.39	-34.0	-44.6	3.8	8.46e-01	0	43	104	0	29	12144
2026-01-13 11:14:00.90	0.04	19.29	-34.0	-44.6	3.8	8.47e-01	0	43	104	0	29	12131
2026-01-13 11:14:01.89	359.90	19.19	-34.0	-44.6	3.8	8.45e-01	0	43	104	0	29	12160
2026-01-13 11:14:02.90	359.75	19.08	-34.0	-44.6	3.8	8.45e-01	0	43	104	0	29	12151
2026-01-13 11:14:03.90	359.61	18.98	-34.0	-44.6	3.8	8.46e-01	0	43	104	0	29	12152
2026-01-13 11:14:04.91	359.47	18.88	-34.0	-44.6	3.8	8.46e-01	0	43	104	0	29	12135
2026-01-13 11:14:05.92	359.34	18.77	-34.0	-44.5	3.8	8.46e-01	0	43	104	0	29	12122
2026-01-13 11:14:06.93	359.20	18.67	-34.0	-44.5	3.8	8.46e-01	0	43	104	0	29	12111
2026-01-13 11:14:07.93	359.06	18.57	-34.0	-44.6	3.8	8.45e-01	0	43	104	0	29	12149
2026-01-13 11:14:08.94	358.93	18.47	-34.0	-44.6	3.8	8.47e-01	0	43	104	0	29	12165
2026-01-13 11:14:09.95	358.79	18.37	-34.0	-44.6	3.8	8.47e-01	0	43	104	0	29	12165
2026-01-13 11:14:10.95	358.66	18.27	-34.0	-44.6	3.8	8.46e-01	0	43	104	0	29	12166
2026-01-13 11:14:11.96	358.52	18.16	-34.0	-44.6	3.8	8.47e-01	0	43	104	0	29	12182
2026-01-13 11:14:12.97	358.39	18.06	-34.0	-44.6	3.8	8.46e-01	0	43	104	0	29	12150
2026-01-13 11:14:13.97	358.26	17.96	-34.0	-44.6	3.8	8.46e-01	0	43	104	0	29	12155
2026-01-13 11:14:14.98	358.13	17.86	-34.0	-44.5	3.8	8.46e-01	0	43	104	0	29	12117
2026-01-13 11:14:15.98	358.00	17.76	-34.0	-44.6	3.8	8.46e-01	0	43	104	0	29	12170
2026-01-13 11:14:16.99	357.87	17.66	-34.0	-44.5	3.8	8.46e-01	0	43	104	0	29	12128
2026-01-13 11:14:18.00	357.75	17.56	-34.0	-44.5	3.8	8.48e-01	0	43	104	0	29	12120
2026-01-13 11:14:19.01	357.62	17.46	-34.0	-44.6	3.8	8.46e-01	0	43	104	0	29	12164
2026-01-13 11:14:20.01	357.49	17.36	-34.0	-44.6	3.8	8.45e-01	0	43	104	0	29	12169
2026-01-13 11:14:21.02	357.37	17.26	-34.0	-44.6	3.8	8.47e-01	0	43	104	0	29	12132
2026-01-13 11:14:22.02	357.24	17.17	-34.0	-44.6	3.8	8.46e-01	0	43	104	0	29	12172
2026-01-13 11:14:23.03	357.12	17.07	-34.0	-44.6	3.8	8.46e-01	0	43	104	0	29	12171
2026-01-13 11:14:24.03	357.00	16.97	-34.0	-44.6	3.8	8.46e-01	0	43	104	0	29	12152
2026-01-13 11:14:25.03	356.88	16.87	-34.0	-44.5	3.8	8.45e-01	0	43	104	0	29	12110
2026-01-13 11:14:26.04	356.76	16.78	-34.0	-44.6	3.8	8.46e-01	0	43	104	0	29	12162
2026-01-13 11:14:27.04	356.64	16.68	-34.0	-44.6	3.8	8.45e-01	0	43	104	0	29	12127
2026-01-13 11:14:28.05	356.52	16.58	-34.0	-44.6	3.8	8.46e-01	0	43	104	0	29	12163
2026-01-13 11:14:29.05	356.40	16.49	-34.0	-44.6	3.8	8.47e-01	0	43	104	0	29	12137
2026-01-13 11:14:30.06	356.28	16.39	-34.0	-44.6	3.8	8.46e-01	0	43	104	0	29	12158
2026-01-13 11:14:31.07	356.17	16.29	-34.0	-44.6	3.8	8.46e-01	0	43	104	0	29	12179
2026-01-13 11:14:32.08	356.05	16.20	-34.0	-44.6	3.8	8.46e-01	0	43	104	0	29	12124
2026-01-13 11:14:33.08	355.93	16.10	-34.0	-44.6	3.8	8.46e-01	0	43	104	0	29	12174
2026-01-13 11:14:34.09	355.82	16.00	-34.0	-44.6	3.8	8.47e-01	0	43	104	0	29	12137
2026-01-13 11:14:35.10	355.70	15.91	-34.0	-44.5	3.8	8.46e-01	0	43	104	0	29	12119
2026-01-13 11:14:36.11	355.59	15.81	-34.0	-44.6	3.8	8.46e-01	0	43	104	0	29	12141
2026-01-13 11:14:37.11	355.48	15.72	-34.0	-44.6	3.8	8.45e-01	0	43	104	0	29	12177
2026-01-13 11:14:38.11	355.37	15.63	-34.0	-44.6	3.8	8.46e-01	0	43	104	0	29	12171
2026-01-13 11:14:39.11	355.26	15.53	-34.0	-44.6	3.8	8.46e-01	0	43	104	0	29	12160
2026-01-13 11:14:40.12	355.15	15.44	-34.0	-44.6	3.8	8.48e-01	0	43	104	0	29	12138
2026-01-13 11:14:41.13	355.04	15.34	-34.0	-44.6	3.8	8.45e-01	0	43	104	0	29	12144
2026-01-13 11:14:42.13	354.93	15.25	-34.0	-44.6	3.8	8.47e-01	0	43	104	0	29	12173
2026-01-13 11:14:43.14	354.82	15.16	-34.0	-44.6	3.8	8.46e-01	0	43	104	0	29	12162
2026-01-13 11:14:44.15	354.71	15.06	-34.0	-44.6	3.8	8.47e-01	0	43	104	0	29	12184
2026-01-13 11:14:45.15	354.61	14.97	-34.0	-44.6	3.8	8.46e-01	0	43	104	0	29	12164
2026-01-13 11:14:46.16	354.50	14.88	-34.0	-44.5	3.8	8.45e-01	0	43	104	0	29	12112
2026-01-13 11:14:47.16	354.40	14.79	-34.0	-44.6	3.8	8.45e-01	0	43	104	0	29	12136
2026-01-13 11:14:48.17	354.29	14.69	-34.0	-44.6	3.8	8.47e-01	0	43	104	0	29	12190
2026-01-13 11:14:49.18	354.19	14.60	-34.0	-44.6	3.8	8.45e-01	0	43	104	0	29	12145
2026-01-13 11:14:50.18	354.08	14.51	-34.0	-44.5	3.8	8.46e-01	0	43	104	0	29	12120
2026-01-13 11:14:51.19	353.98	14.42	-34.0	-44.6	3.8	8.46e-01	0	43	104	0	29	12149
2026-01-13 11:14:52.20	353.88	14.33	-34.0	-44.6	3.8	8.45e-01	0	43	104	0	29	12166
2026-01-13 11:14:53.21	353.78	14.24	-34.0	-44.6	3.8	8.46e-01	0	43	104	0	29	12134
2026-01-13 11:14:54.21	353.68	14.15	-34.0	-44.6	3.8	8.47e-01	0	43	104	0	29	12153
2026-01-13 11:14:55.22	353.58	14.06	-34.0	-44.6	3.8	8.46e-01	0	43	104	0	29	12174
2026-01-13 11:14:56.23	353.48	13.97	-34.0	-44.6	3.8	8.45e-01	0	43	104	0	29	12168
2026-01-13 11:14:57.23	353.38	13.88	-34.0	-44.6	3.8	8.47e-01	0	43	104	0	29	12159
2026-01-13 11:14:58.24	353.28	13.79	-34.0	-44.6	3.8	8.47e-01	0	43	104	0	29	12141
2026-01-13 11:14:59.25	353.18	13.70	-34.0	-44.6	3.8	8.46e-01	0	43	104	0	29	12174
2026-01-13 11:15:00.25	353.09	13.61	-34.0	-44.6	3.8	8.45e-01	0	43	104	0	29	12170
2026-01-13 11:15:01.25	352.99	13.52	-34.0	-44.6	3.8	8.47e-01	0	43	104	0	29	12146
2026-01-13 11:15:02.26	352.89	13.43	-34.0	-44.6	3.8	8.46e-01	0	43	104	0	29	12164
2026-01-13 11:15:03.27	352.80	13.34	-34.0	-44.6	3.8	8.47e-01	0	43	104	0	29	12172
2026-01-13 11:15:04.27	352.70	13.26	-34.0	-44.6	3.8	8.46e-01	0	43	104	0	29	12174
2026-01-13 11:15:05.28	352.61	13.17	-34.0	-44.6	3.8	8.47e-01	0	43	104	0	29	12148
2026-01-13 11:15:06.29	352.52	13.08	-34.0	-44.6	3.8	8.47e-01	0	43	104	0	29	12127
2026-01-13 11:15:07.30	352.42	12.99	-34.0	-44.6	3.8	8.46e-01	0	43	104	0	29	12122
2026-01-13 11:15:08.31	352.33	12.91	-34.0	-44.6	3.8	8.45e-01	0	43	104	0	29	12203
2026-01-13 11:15:09.31	352.24	12.82	-34.0	-44.6	3.8	8.44e-01	0	43	104	0	29	12165
2026-01-13 11:15:10.32	352.15	12.73	-34.0	-44.6	3.8	8.47e-01	0	43	104	0	29	12161
2026-01-13 11:15:11.33	352.06	12.65	-34.0	-44.6	3.8	8.46e-01	0	43	104	0	29	12150
2026-01-13 11:15:12.34	351.97	12.56	-34.0	-44.6	3.8	8.46e-01	0	43	104	0	29	12176
2026-01-13 11:15:13.34	351.88	12.47	-34.0	-44.6	3.8	8.47e-01	0	43	104	0	29	12153
2026-01-13 11:15:14.34	351.79	12.39	-34.0	-44.6	3.8	8.46e-01	0	43	104	0	29	12176
2026-01-13 11:15:15.35	351.70	12.30	-34.0	-44.5	3.8	8.46e-01	0	43	104	0	29	12124
2026-01-13 11:15:16.36	351.61	12.22	-34.0	-44.6	3.8	8.44e-01	0	43	104	0	29	12147
2026-01-13 11:15:17.37	351.52	12.13	-34.0	-44.6	3.8	8.45e-01	0	43	104	0	29	12126
2026-01-13 11:15:18.38	351.44	12.05	-34.0	-44.6	3.8	8.46e-01	0	43	104	0	29	12168
2026-01-13 11:15:19.39	351.35	11.96	-34.0	-44.6	3.8	8.47e-01	0	43	104	0	29	12134
2026-01-13 11:15:20.39	351.26	11.88	-34.0	-44.6	3.8	8.46e-01	0	43	104	0	29	12148
2026-01-13 11:15:21.40	351.18	11.79	-34.0	-44.6	3.8	8.46e-01	0	43	104	0	29	12157
2026-01-13 11:15:22.41	351.09	11.71	-34.0	-44.6	3.8	8.45e-01	0	43	104	0	29	12130
2026-01-13 11:15:23.41	351.01	11.63	-34.0	-44.6	3.8	8.47e-01	0	43	104	0	29	12134
2026-01-13 11:15:24.42	350.93	11.54	-34.0	-44.6	3.8	8.46e-01	0	43	104	0	29	12176
2026-01-13 11:15:25.43	350.84	11.46	-34.0	-44.5	3.8	8.45e-01	0	43	104	0	29	12124
2026-01-13 11:15:26.43	350.76	11.38	-34.0	-44.6	3.8	8.46e-01	0	43	104	0	29	12148
2026-01-13 11:15:27.44	350.68	11.29	-34.0	-44.6	3.8	8.46e-01	0	43	104	0	29	12148
2026-01-13 11:15:28.45	350.59	11.21	-34.0	-44.5	3.8	8.47e-01	0	43	104	0	29	12108
2026-01-13 11:15:29.45	350.51	11.13	-34.0	-44.6	3.8	8.46e-01	0	43	104	0	29	12175
2026-01-13 11:15:30.46	350.43	11.05	-34.0	-44.6	3.8	8.46e-01	0	43	104	0	29	12157
2026-01-13 11:15:31.46	350.35	10.97	-34.0	-44.6	3.8	8.46e-01	0	43	104	0	29	12182
2026-01-13 11:15:32.47	350.27	10.88	-34.0	-44.6	3.8	8.46e-01	0	43	104	0	29	12149
2026-01-13 11:15:33.48	350.19	10.80	-34.0	-44.5	3.8	8.47e-01	0	43	104	0	29	12090
2026-01-13 11:15:34.48	350.11	10.72	-34.0	-44.6	3.8	8.46e-01	0	43	104	0	29	12155
2026-01-13 11:15:35.49	350.04	10.64	-34.0	-44.5	3.8	8.46e-01	0	43	104	0	29	12103
2026-01-13 11:15:36.50	349.96	10.56	-34.0	-44.5	3.8	8.46e-01	0	43	104	0	29	12114
2026-01-13 11:15:37.50	349.88	10.48	-34.0	-44.6	3.8	8.46e-01	0	43	104	0	29	12160
2026-01-13 11:15:38.51	349.80	10.40	-34.0	-44.6	3.8	8.46e-01	0	43	104	0	29	12178
2026-01-13 11:15:39.51	349.73	10.32	-34.0	-44.6	3.8	8.45e-01	0	43	104	0	29	12187
2026-01-13 11:15:40.52	349.65	10.24	-34.0	-44.6	3.8	8.45e-01	0	43	104	0	29	12172
2026-01-13 11:15:41.53	349.57	10.16	-34.0	-44.6	3.8	8.47e-01	0	43	104	0	29	12135
2026-01-13 11:15:42.53	349.50	10.08	-34.0	-44.6	3.8	8.47e-01	0	43	104	0	29	12148
2026-01-13 11:15:43.54	349.42	10.00	-34.0	-44.6	3.8	8.47e-01	0	43	104	0	29	12155
2026-01-13 11:15:44.55	349.35	9.92	-34.0	-44.6	3.8	8.46e-01	0	43	104	0	29	12169
2026-01-13 11:15:45.56	349.27	9.84	-34.0	-44.6	3.8	8.47e-01	0	43	104	0	29	12166
2026-01-13 11:15:46.57	349.20	9.76	-34.0	-44.6	3.8	8.45e-01	0	43	104	0	29	12140
2026-01-13 11:15:47.58	349.13	9.68	-34.0	-44.6	3.8	8.46e-01	0	43	104	0	29	12185
2026-01-13 11:15:48.59	349.05	9.60	-34.0	-44.6	3.8	8.47e-01	0	43	104	0	29	12131
2026-01-13 11:15:49.59	348.98	9.53	-34.0	-44.6	3.8	8.45e-01	0	43	104	0	29	12174
2026-01-13 11:15:50.60	348.91	9.45	-34.0	-44.6	3.8	8.46e-01	0	43	104	0	29	12155
2026-01-13 11:15:51.60	348.84	9.37	-34.0	-44.6	3.8	8.46e-01	0	43	104	0	29	12196
2026-01-13 11:15:52.61	348.77	9.29	-34.0	-44.6	3.8	8.46e-01	0	43	104	0	29	12175
2026-01-13 11:15:53.62	348.69	9.21	-34.0	-44.6	3.8	8.45e-01	0	43	104	0	29	12126
2026-01-13 11:15:54.63	348.62	9.14	-34.0	-44.6	3.8	8.46e-01	0	43	104	0	29	12190
2026-01-13 11:15:55.63	348.55	9.06	-34.0	-44.5	3.8	8.47e-01	0	43	104	0	29	12111
2026-01-13 11:15:56.64	348.48	8.98	-34.0	-44.6	3.8	8.46e-01	0	43	104	0	29	12139
2026-01-13 11:15:57.65	348.41	8.91	-34.0	-44.6	3.8	8.46e-01	0	43	104	0	29	12153
2026-01-13 11:15:58.66	348.34	8.83	-34.0	-44.6	3.8	8.46e-01	0	43	104	0	29	12157
2026-01-13 11:15:59.66	348.28	8.75	-34.0	-44.6	3.8	8.46e-01	0	43	104	0	29	12174
2026-01-13 11:16:00.67	348.21	8.68	-34.0	-44.6	3.8	8.46e-01	0	43	104	0	29	12131
2026-01-13 11:16:01.68	348.14	8.60	-34.0	-44.6	3.8	8.46e-01	0	43	104	0	29	12190
2026-01-13 11:16:02.67	348.07	8.53	-34.0	-44.6	3.8	8.46e-01	0	43	104	0	29	12162
2026-01-13 11:16:03.68	348.01	8.45	-34.0	-44.6	3.8	8.45e-01	0	43	104	0	29	12145
2026-01-13 11:16:04.69	347.94	8.38	-34.0	-44.6	3.8	8.46e-01	0	43	104	0	29	12175
2026-01-13 11:16:05.70	347.87	8.30	-34.0	-44.6	3.8	8.46e-01	0	43	104	0	29	12142
2026-01-13 11:16:06.71	347.81	8.23	-34.0	-44.6	3.8	8.46e-01	0	43	104	0	29	12185
2026-01-13 11:16:07.71	347.74	8.15	-34.0	-44.6	3.8	8.46e-01	0	43	104	0	29	12162
2026-01-13 11:16:08.71	347.68	8.08	-34.0	-44.6	3.8	8.46e-01	0	43	104	0	29	12168
2026-01-13 11:16:09.72	347.61	8.00	-34.0	-44.6	3.8	8.45e-01	0	43	104	0	29	12177
2026-01-13 11:16:10.73	347.55	7.93	-34.0	-44.6	3.8	8.46e-01	0	43	104	0	29	12160
2026-01-13 11:16:11.74	347.48	7.85	-34.0	-44.6	3.8	8.46e-01	0	43	104	0	29	12172
2026-01-13 11:16:12.74	347.42	7.78	-34.0	-44.6	3.8	8.46e-01	0	43	104	0	29	12168
2026-01-13 11:16:13.75	347.35	7.71	-34.0	-44.6	3.8	8.46e-01	0	43	104	0	29	12163
2026-01-13 11:16:14.75	347.29	7.63	-34.0	-44.5	3.8	8.47e-01	0	43	104	0	29	12116
2026-01-13 11:16:15.76	347.23	7.56	-34.0	-44.6	3.8	8.46e-01	0	43	104	0	29	12140
2026-01-13 11:16:16.76	347.17	7.49	-34.0	-44.6	3.8	8.46e-01	0	43	104	0	29	12140
2026-01-13 11:16:17.77	347.10	7.41	-34.0	-44.6	3.8	8.46e-01	0	43	104	0	29	12131
2026-01-13 11:16:18.77	347.04	7.34	-34.0	-44.6	3.8	8.46e-01	0	43	104	0	29	12136
2026-01-13 11:16:19.78	346.98	7.27	-34.0	-44.6	3.8	8.47e-01	0	43	104	0	29	12134
2026-01-13 11:16:20.79	346.92	7.20	-34.0	-44.6	3.8	8.46e-01	0	43	104	0	29	12190
2026-01-13 11:16:21.80	346.86	7.12	-34.0	-44.6	3.8	8.46e-01	0	43	104	0	29	12156
2026-01-13 11:16:22.80	346.80	7.05	-34.0	-44.6	3.8	8.47e-01	0	43	104	0	29	12153
2026-01-13 11:16:23.81	346.74	6.98	-34.0	-44.6	3.8	8.46e-01	0	43	104	0	29	12126

#Closed at: 2026-01-13 11:16:24
#Recorded file [0 MB]: D:/data/31010_260113_140519.dat