passes_logs/2026/01/13/R2M6_AANII_01/R2M6_AANII_01__20260113_104419_AQUA_rec.log

#Pass ID: 20260113_104419_AQUA
#Satellite: AQUA
#Configuration: AQUA
#almurnet v.1.7.20240730
#Start time: 2026-01-13 10:44:21

#Version: 2.2.20231116
#Station: R2M6_AANII_01
#Location: 30.233357 lon 59.946436 lat
#TLE: 1 27424U 02022A   26012.29577270  .00001027  00000+0  21555-3 0  9995
#TLE: 2 27424  98.4078 338.6778 0002034  81.5885  29.6294 14.61817302260499

#Time	Az	El	Level	Level2	SNR	BER	BlckErr	Temp	State	Recorded	gain1	gain2
2026-01-13 10:44:21.79	116.60	7.13	-34.4	-53.4	3.8	7.46e-01	0	40	0	0	30	31955
2026-01-13 10:44:22.79	116.52	7.21	-34.4	-53.4	3.8	7.45e-01	0	40	104	0	30	31985
2026-01-13 10:44:23.80	116.43	7.28	-34.4	-53.4	3.8	7.45e-01	0	40	104	0	30	31969
2026-01-13 10:44:24.81	116.35	7.36	-34.4	-53.4	3.8	7.46e-01	0	40	104	0	30	31957
2026-01-13 10:44:25.82	116.26	7.43	-34.4	-53.4	3.8	7.47e-01	0	40	104	0	30	31927
2026-01-13 10:44:26.83	116.17	7.51	-34.4	-53.3	3.8	7.46e-01	0	40	104	0	30	31948
2026-01-13 10:44:27.84	116.08	7.58	-34.4	-53.4	3.8	7.48e-01	0	40	104	0	30	31976
2026-01-13 10:44:28.85	116.00	7.66	-34.4	-53.4	3.8	7.46e-01	0	40	104	0	30	31936
2026-01-13 10:44:29.86	115.91	7.73	-34.4	-53.3	3.8	7.47e-01	0	40	104	0	30	31939
2026-01-13 10:44:30.87	115.82	7.81	-34.4	-53.4	3.8	7.46e-01	0	40	104	0	30	32005
2026-01-13 10:44:31.87	115.73	7.88	-34.4	-53.4	3.8	7.47e-01	0	40	104	0	30	31970
2026-01-13 10:44:32.88	115.64	7.96	-34.4	-53.4	3.8	7.46e-01	0	41	104	0	30	31957
2026-01-13 10:44:33.89	115.55	8.04	-34.4	-53.4	3.8	7.45e-01	0	40	104	0	30	31989
2026-01-13 10:44:34.90	115.46	8.11	-34.4	-53.4	3.8	7.44e-01	0	40	104	0	30	31924
2026-01-13 10:44:35.90	115.37	8.19	-34.4	-53.3	3.8	7.50e-01	0	40	104	0	30	31917
2026-01-13 10:44:36.91	115.28	8.27	-34.4	-53.4	3.8	7.48e-01	0	40	104	0	30	31967
2026-01-13 10:44:37.92	115.18	8.34	-34.4	-53.4	3.8	7.47e-01	0	40	104	0	30	31938
2026-01-13 10:44:38.93	115.09	8.42	-34.4	-53.3	3.8	7.42e-01	0	41	104	0	30	31878
2026-01-13 10:44:39.93	115.00	8.50	-34.4	-53.3	3.8	7.47e-01	0	40	104	0	30	31949
2026-01-13 10:44:40.93	114.91	8.58	-34.4	-53.3	3.8	7.44e-01	0	40	104	0	30	31928
2026-01-13 10:44:41.93	114.81	8.65	-34.4	-53.3	3.8	7.49e-01	0	40	104	0	30	31916
2026-01-13 10:44:42.93	114.72	8.73	-34.4	-53.4	3.8	7.47e-01	0	41	104	0	30	32007
2026-01-13 10:44:43.94	114.62	8.81	-34.4	-53.3	3.8	7.46e-01	0	40	104	0	30	31905
2026-01-13 10:44:44.94	114.53	8.89	-34.4	-53.4	3.8	7.48e-01	0	41	104	0	30	31985
2026-01-13 10:44:45.95	114.43	8.97	-34.4	-53.3	3.8	7.43e-01	0	41	104	0	30	31872
2026-01-13 10:44:46.96	114.33	9.04	-34.4	-53.4	3.8	7.46e-01	0	41	104	0	30	31987
2026-01-13 10:44:47.97	114.23	9.12	-34.4	-53.4	3.8	7.45e-01	0	41	104	0	30	31974
2026-01-13 10:44:48.97	114.13	9.20	-34.4	-53.4	3.8	7.46e-01	0	41	104	0	30	32016
2026-01-13 10:44:49.98	114.04	9.28	-34.4	-53.4	3.8	7.44e-01	0	41	104	0	30	31956
2026-01-13 10:44:50.99	113.94	9.36	-34.4	-53.4	3.8	7.47e-01	0	41	104	0	30	31923
2026-01-13 10:44:51.99	113.84	9.44	-34.4	-53.3	3.8	7.49e-01	0	41	104	0	30	31945
2026-01-13 10:44:52.99	113.74	9.52	-34.4	-53.4	3.8	7.44e-01	0	41	104	0	30	31975
2026-01-13 10:44:53.99	113.63	9.60	-34.4	-53.4	3.8	7.46e-01	0	41	104	0	30	31951
2026-01-13 10:44:55.00	113.53	9.68	-34.4	-53.4	3.8	7.43e-01	0	41	104	0	30	31985
2026-01-13 10:44:56.01	113.43	9.76	-34.4	-53.4	3.8	7.45e-01	0	41	104	0	30	31986
2026-01-13 10:44:57.01	113.33	9.84	-34.4	-53.3	3.8	7.48e-01	0	41	104	0	30	31937
2026-01-13 10:44:58.02	113.22	9.92	-34.4	-53.4	3.8	7.48e-01	0	41	104	0	30	31939
2026-01-13 10:44:59.02	113.12	10.00	-34.4	-53.4	3.8	7.46e-01	0	41	104	0	30	31947
2026-01-13 10:45:00.03	113.01	10.09	-34.4	-53.4	3.8	7.49e-01	0	41	104	0	30	32060
2026-01-13 10:45:01.04	112.91	10.17	-34.4	-53.4	3.8	7.46e-01	0	41	104	0	30	31924
2026-01-13 10:45:02.04	112.80	10.25	-34.4	-53.3	3.8	7.44e-01	0	41	104	0	30	31904
2026-01-13 10:45:03.05	112.69	10.33	-34.4	-53.4	3.8	7.46e-01	0	41	104	0	30	31992
2026-01-13 10:45:04.06	112.58	10.41	-34.4	-53.4	3.8	7.43e-01	0	41	104	0	30	32054
2026-01-13 10:45:05.06	112.48	10.50	-34.4	-53.4	3.8	7.48e-01	0	41	104	0	30	31989
2026-01-13 10:45:06.07	112.37	10.58	-34.4	-53.4	3.8	7.43e-01	0	41	104	0	30	31999
2026-01-13 10:45:07.08	112.26	10.66	-34.4	-53.4	3.8	7.47e-01	0	41	104	0	30	32032
2026-01-13 10:45:08.08	112.15	10.74	-34.4	-53.4	3.8	7.45e-01	0	41	104	0	30	32021
2026-01-13 10:45:09.09	112.03	10.83	-34.4	-53.4	3.8	7.44e-01	0	41	104	0	30	32014
2026-01-13 10:45:10.09	111.92	10.91	-34.4	-53.4	3.8	7.47e-01	0	41	104	0	30	32037
2026-01-13 10:45:11.10	111.81	11.00	-34.4	-53.4	3.8	7.43e-01	0	41	104	0	30	31995
2026-01-13 10:45:12.10	111.70	11.08	-34.4	-53.4	3.8	7.43e-01	0	41	104	0	30	32017
2026-01-13 10:45:13.11	111.58	11.16	-34.4	-53.4	3.8	7.44e-01	0	41	104	0	30	31962
2026-01-13 10:45:14.12	111.47	11.25	-34.4	-53.4	3.8	7.47e-01	0	41	104	0	30	32058
2026-01-13 10:45:15.12	111.35	11.33	-34.4	-53.4	3.8	7.42e-01	0	41	104	0	30	31988
2026-01-13 10:45:16.12	111.24	11.42	-34.4	-53.4	3.8	7.45e-01	0	41	104	0	30	32042
2026-01-13 10:45:17.13	111.12	11.50	-34.4	-53.4	3.8	7.46e-01	0	41	104	0	30	31986
2026-01-13 10:45:18.14	111.00	11.59	-34.4	-53.4	3.8	7.45e-01	0	41	104	0	30	31979
2026-01-13 10:45:19.15	110.88	11.67	-34.4	-53.4	3.8	7.43e-01	0	41	104	0	30	31949
2026-01-13 10:45:20.15	110.76	11.76	-34.4	-53.4	3.8	7.46e-01	0	41	104	0	30	32031
2026-01-13 10:45:21.16	110.64	11.84	-34.4	-53.4	3.8	7.43e-01	0	41	104	0	30	31971
2026-01-13 10:45:22.17	110.52	11.93	-34.4	-53.4	3.8	7.45e-01	0	41	104	0	30	31970
2026-01-13 10:45:23.17	110.40	12.02	-34.4	-53.4	3.8	7.45e-01	0	41	104	0	30	32024
2026-01-13 10:45:24.18	110.28	12.10	-34.4	-53.4	3.8	7.43e-01	0	41	104	0	30	31970
2026-01-13 10:45:25.19	110.15	12.19	-34.4	-53.4	3.8	7.47e-01	0	41	104	0	30	32083
2026-01-13 10:45:26.20	110.03	12.28	-34.4	-53.4	3.8	7.45e-01	0	41	104	0	30	32034
2026-01-13 10:45:27.20	109.90	12.36	-34.4	-53.4	3.8	7.46e-01	0	41	104	0	30	32009
2026-01-13 10:45:28.21	109.78	12.45	-34.4	-53.4	3.8	7.45e-01	0	41	104	0	30	32020
2026-01-13 10:45:29.22	109.65	12.54	-34.4	-53.4	3.8	7.44e-01	0	41	104	0	30	31965
2026-01-13 10:45:30.23	109.52	12.63	-34.4	-53.4	3.8	7.47e-01	0	41	104	0	30	32054
2026-01-13 10:45:31.24	109.39	12.72	-34.4	-53.4	3.8	7.43e-01	0	42	104	0	30	32052
2026-01-13 10:45:32.24	109.27	12.80	-34.4	-53.4	3.8	7.47e-01	0	41	104	0	30	32049
2026-01-13 10:45:33.25	109.14	12.89	-34.4	-53.4	3.8	7.42e-01	0	42	104	0	30	31999
2026-01-13 10:45:34.25	109.01	12.98	-34.4	-53.4	3.8	7.47e-01	0	41	104	0	30	31987
2026-01-13 10:45:35.25	108.87	13.07	-34.4	-53.4	3.8	7.44e-01	0	42	104	0	30	31940
2026-01-13 10:45:36.25	108.74	13.16	-34.4	-53.4	3.8	7.44e-01	0	42	104	0	30	32062
2026-01-13 10:45:37.26	108.61	13.25	-34.4	-53.4	3.8	7.45e-01	0	42	104	0	30	32048
2026-01-13 10:45:38.26	108.48	13.34	-34.4	-53.4	3.8	7.45e-01	0	42	104	0	30	31997
2026-01-13 10:45:39.27	108.34	13.43	-34.4	-53.4	3.8	7.45e-01	0	42	104	0	30	31950
2026-01-13 10:45:40.28	108.20	13.52	-34.4	-53.4	3.8	7.44e-01	0	42	104	0	30	31963
2026-01-13 10:45:41.29	108.07	13.61	-34.4	-53.4	3.8	7.46e-01	0	41	104	0	30	32038
2026-01-13 10:45:42.29	107.93	13.70	-34.4	-53.4	3.8	7.42e-01	0	42	104	0	30	32054
2026-01-13 10:45:43.30	107.79	13.79	-34.4	-53.4	3.8	7.48e-01	0	42	104	0	30	32030
2026-01-13 10:45:44.30	107.65	13.88	-34.4	-53.4	3.8	7.46e-01	0	42	104	0	30	31974
2026-01-13 10:45:45.31	107.51	13.97	-34.4	-53.4	3.8	7.45e-01	0	42	104	0	30	32026
2026-01-13 10:45:46.32	107.37	14.06	-34.4	-53.4	3.8	7.45e-01	0	42	104	0	30	31997
2026-01-13 10:45:47.33	107.23	14.16	-34.4	-53.4	3.8	7.48e-01	0	41	104	0	30	32015
2026-01-13 10:45:48.33	107.08	14.25	-34.4	-53.4	3.8	7.47e-01	0	41	104	0	30	31990
2026-01-13 10:45:49.34	106.94	14.34	-34.4	-53.4	3.8	7.47e-01	0	42	104	0	30	31942
2026-01-13 10:45:50.35	106.79	14.43	-34.4	-53.4	3.8	7.47e-01	0	42	104	0	30	31998
2026-01-13 10:45:51.36	106.64	14.52	-34.4	-53.4	3.8	7.41e-01	0	42	104	0	30	32019
2026-01-13 10:45:52.36	106.50	14.62	-34.4	-53.4	3.8	7.46e-01	0	42	104	0	30	31981
2026-01-13 10:45:53.37	106.35	14.71	-34.4	-53.4	3.8	7.46e-01	0	42	104	0	30	32055
2026-01-13 10:45:54.37	106.20	14.80	-34.4	-53.4	3.8	7.46e-01	0	42	104	0	30	32036
2026-01-13 10:45:55.38	106.05	14.90	-34.4	-53.4	3.8	7.43e-01	0	42	104	0	30	32040
2026-01-13 10:45:56.38	105.90	14.99	-34.4	-53.4	3.8	7.47e-01	0	42	104	0	30	32039
2026-01-13 10:45:57.39	105.75	15.08	-34.4	-53.4	3.8	7.44e-01	0	42	104	0	30	31999
2026-01-13 10:45:58.40	105.59	15.18	-34.4	-53.4	3.8	7.45e-01	0	42	104	0	30	32010
2026-01-13 10:45:59.40	105.44	15.27	-34.4	-53.4	3.8	7.50e-01	0	42	104	0	30	32027
2026-01-13 10:46:00.40	105.28	15.36	-34.4	-53.4	3.8	7.46e-01	0	42	104	0	30	32049
2026-01-13 10:46:01.41	105.13	15.46	-34.4	-53.4	3.8	7.47e-01	0	42	104	0	30	32010
2026-01-13 10:46:02.42	104.97	15.55	-34.4	-53.4	3.8	7.46e-01	0	42	104	0	30	32078
2026-01-13 10:46:03.42	104.81	15.65	-34.4	-53.4	3.8	7.48e-01	0	42	104	0	30	31993
2026-01-13 10:46:04.43	104.65	15.74	-34.4	-53.4	3.8	7.45e-01	0	42	104	0	30	32004
2026-01-13 10:46:05.43	104.49	15.84	-34.4	-53.4	3.8	7.43e-01	0	42	104	0	30	32010
2026-01-13 10:46:06.44	104.33	15.93	-34.4	-53.4	3.8	7.47e-01	0	42	104	0	30	31996
2026-01-13 10:46:07.45	104.16	16.03	-34.4	-53.4	3.8	7.44e-01	0	42	104	0	30	31989
2026-01-13 10:46:08.45	104.00	16.13	-34.4	-53.4	3.8	7.44e-01	0	42	104	0	30	32036
2026-01-13 10:46:09.46	103.83	16.22	-34.4	-53.4	3.8	7.47e-01	0	42	104	0	30	32073
2026-01-13 10:46:10.46	103.67	16.32	-34.4	-53.4	3.8	7.44e-01	0	42	104	0	30	32115
2026-01-13 10:46:11.47	103.50	16.41	-34.4	-53.4	3.8	7.45e-01	0	42	104	0	30	32048
2026-01-13 10:46:12.47	103.33	16.51	-34.4	-53.4	3.8	7.47e-01	0	42	104	0	30	32079
2026-01-13 10:46:13.48	103.16	16.61	-34.4	-53.4	3.8	7.47e-01	0	42	104	0	30	32099
2026-01-13 10:46:14.48	102.99	16.70	-34.4	-53.4	3.8	7.46e-01	0	42	104	0	30	32032
2026-01-13 10:46:15.49	102.82	16.80	-34.4	-53.4	3.8	7.48e-01	0	42	104	0	30	32064
2026-01-13 10:46:16.49	102.65	16.90	-34.4	-53.4	3.8	7.45e-01	0	42	104	0	30	32013
2026-01-13 10:46:17.49	102.47	16.99	-34.4	-53.4	3.8	7.45e-01	0	42	104	0	30	32021
2026-01-13 10:46:18.50	102.29	17.09	-34.4	-53.4	3.8	7.45e-01	0	42	104	0	30	32053
2026-01-13 10:46:19.51	102.12	17.19	-34.4	-53.4	3.8	7.48e-01	0	42	104	0	30	32024
2026-01-13 10:46:20.52	101.94	17.29	-34.4	-53.4	3.8	7.46e-01	0	42	104	0	30	32050
2026-01-13 10:46:21.52	101.76	17.39	-34.4	-53.4	3.8	7.43e-01	0	42	104	0	30	32025
2026-01-13 10:46:22.53	101.58	17.48	-34.4	-53.4	3.8	7.47e-01	0	42	104	0	30	32008
2026-01-13 10:46:23.53	101.40	17.58	-34.4	-53.4	3.8	7.47e-01	0	42	104	0	30	32001
2026-01-13 10:46:24.54	101.21	17.68	-34.4	-53.4	3.8	7.48e-01	0	42	104	0	30	32014
2026-01-13 10:46:25.54	101.03	17.78	-34.4	-53.4	3.8	7.41e-01	0	42	104	0	30	32131
2026-01-13 10:46:26.55	100.84	17.88	-34.4	-53.4	3.8	7.41e-01	0	42	104	0	30	32076
2026-01-13 10:46:27.55	100.65	17.98	-34.4	-53.4	3.8	7.43e-01	0	42	104	0	30	32016
2026-01-13 10:46:28.55	100.47	18.07	-34.4	-53.4	3.8	7.45e-01	0	42	104	0	30	32108
2026-01-13 10:46:29.56	100.28	18.17	-34.4	-53.4	3.8	7.48e-01	0	42	104	0	30	32036
2026-01-13 10:46:30.57	100.08	18.27	-34.4	-53.4	3.8	7.44e-01	0	42	104	0	30	32041
2026-01-13 10:46:31.57	99.89	18.37	-34.4	-53.4	3.8	7.47e-01	0	42	104	0	30	31944
2026-01-13 10:46:32.58	99.70	18.47	-34.4	-53.4	3.8	7.45e-01	0	42	104	0	30	32004
2026-01-13 10:46:33.59	99.50	18.57	-34.4	-53.4	3.8	7.48e-01	0	42	104	0	30	32065
2026-01-13 10:46:34.60	99.30	18.67	-34.4	-53.4	3.8	7.43e-01	0	42	104	0	30	32058
2026-01-13 10:46:35.61	99.10	18.77	-34.4	-53.4	3.8	7.45e-01	0	42	104	0	30	32055
2026-01-13 10:46:36.61	98.91	18.87	-34.4	-53.4	3.8	7.43e-01	0	42	104	0	30	31991
2026-01-13 10:46:37.62	98.70	18.97	-34.4	-53.4	3.8	7.47e-01	0	42	104	0	30	31989
2026-01-13 10:46:38.63	98.50	19.07	-34.4	-53.4	3.8	7.46e-01	0	42	104	0	30	31969
2026-01-13 10:46:39.62	98.30	19.17	-34.4	-53.4	3.8	7.45e-01	0	42	104	0	30	32030
2026-01-13 10:46:40.63	98.09	19.27	-34.4	-53.4	3.8	7.44e-01	0	42	104	0	30	32034
2026-01-13 10:46:41.63	97.89	19.37	-34.4	-53.4	3.8	7.46e-01	0	42	104	0	30	32057
2026-01-13 10:46:42.64	97.68	19.47	-34.4	-53.4	3.8	7.42e-01	0	42	104	0	30	31990
2026-01-13 10:46:43.65	97.47	19.57	-34.4	-53.4	3.8	7.46e-01	0	42	104	0	30	31993
2026-01-13 10:46:44.66	97.26	19.67	-34.4	-53.4	3.8	7.47e-01	0	42	104	0	30	32027
2026-01-13 10:46:45.66	97.04	19.77	-34.4	-53.4	3.8	7.48e-01	0	42	104	0	30	31988
2026-01-13 10:46:46.67	96.83	19.88	-34.4	-53.4	3.8	7.46e-01	0	42	104	0	30	32044
2026-01-13 10:46:47.67	96.62	19.98	-34.4	-53.4	3.8	7.44e-01	0	42	104	0	30	31972
2026-01-13 10:46:48.68	96.40	20.08	-34.4	-53.4	3.8	7.44e-01	0	42	104	0	30	31996
2026-01-13 10:46:49.68	96.18	20.18	-34.4	-53.4	3.8	7.45e-01	0	42	104	0	30	32005
2026-01-13 10:46:50.68	95.96	20.28	-34.4	-53.4	3.8	7.45e-01	0	42	104	0	30	32001
2026-01-13 10:46:51.69	95.74	20.38	-34.4	-53.4	3.8	7.43e-01	0	42	104	0	30	32056
2026-01-13 10:46:52.69	95.52	20.48	-34.4	-53.4	3.8	7.46e-01	0	42	104	0	30	32048
2026-01-13 10:46:53.70	95.29	20.58	-34.4	-53.4	3.8	7.47e-01	0	42	104	0	30	32028
2026-01-13 10:46:54.71	95.06	20.68	-34.4	-53.4	3.8	7.46e-01	0	42	104	0	30	32070
2026-01-13 10:46:55.71	94.84	20.78	-34.4	-53.4	3.8	7.44e-01	0	42	104	0	30	32019
2026-01-13 10:46:56.72	94.61	20.88	-34.4	-53.4	3.8	7.45e-01	0	42	104	0	30	32046
2026-01-13 10:46:57.73	94.37	20.98	-34.4	-53.4	3.8	7.44e-01	0	42	104	0	30	32063
2026-01-13 10:46:58.74	94.14	21.08	-34.4	-53.4	3.8	7.46e-01	0	42	104	0	30	31886
2026-01-13 10:46:59.73	93.91	21.18	-34.4	-53.4	3.8	7.45e-01	0	42	104	0	30	32074
2026-01-13 10:47:00.73	93.68	21.28	-34.4	-53.4	3.8	7.45e-01	0	42	104	0	30	32098
2026-01-13 10:47:01.74	93.44	21.38	-34.4	-53.4	3.8	7.43e-01	0	42	104	0	30	31933
2026-01-13 10:47:02.75	93.20	21.48	-34.4	-53.4	3.8	7.42e-01	0	42	104	0	30	32022
2026-01-13 10:47:03.75	92.96	21.58	-34.4	-53.4	3.8	7.45e-01	0	42	104	0	30	32057
2026-01-13 10:47:04.76	92.71	21.68	-34.4	-53.4	3.8	7.44e-01	0	42	104	0	30	32092
2026-01-13 10:47:05.77	92.47	21.79	-34.4	-53.4	3.8	7.48e-01	0	42	104	0	30	32034
2026-01-13 10:47:06.78	92.22	21.89	-34.4	-53.4	3.8	7.45e-01	0	42	104	0	30	32055
2026-01-13 10:47:07.79	91.97	21.99	-34.4	-53.4	3.8	7.47e-01	0	42	104	0	30	31955
2026-01-13 10:47:08.79	91.73	22.09	-34.4	-53.4	3.8	7.45e-01	0	42	104	0	30	31970
2026-01-13 10:47:09.81	91.47	22.19	-34.4	-53.4	3.8	7.49e-01	0	42	104	0	30	31938
2026-01-13 10:47:10.81	91.22	22.28	-34.4	-53.4	3.8	7.41e-01	0	42	104	0	30	31961
2026-01-13 10:47:11.82	90.97	22.38	-34.4	-53.4	3.8	7.44e-01	0	42	104	0	30	32074
2026-01-13 10:47:12.83	90.71	22.48	-34.4	-53.4	3.8	7.43e-01	0	42	104	0	30	32031
2026-01-13 10:47:13.83	90.45	22.58	-34.4	-53.4	3.8	7.45e-01	0	42	104	0	30	31889
2026-01-13 10:47:14.84	90.19	22.68	-34.4	-53.4	3.8	7.46e-01	0	42	104	0	30	32015
2026-01-13 10:47:15.85	89.93	22.78	-34.4	-53.4	3.8	7.48e-01	0	42	104	0	30	31991
2026-01-13 10:47:16.85	89.67	22.88	-34.4	-53.4	3.8	7.45e-01	0	42	104	0	30	31927
2026-01-13 10:47:17.85	89.40	22.98	-34.4	-53.4	3.8	7.44e-01	0	42	104	0	30	31985
2026-01-13 10:47:18.86	89.14	23.07	-34.4	-53.4	3.8	7.47e-01	0	42	104	0	30	31986
2026-01-13 10:47:19.87	88.87	23.17	-34.4	-53.4	3.8	7.45e-01	0	42	104	0	30	32017
2026-01-13 10:47:20.88	88.60	23.27	-34.4	-53.4	3.8	7.46e-01	0	42	104	0	30	32035
2026-01-13 10:47:21.89	88.32	23.37	-34.4	-53.4	3.8	7.44e-01	0	42	104	0	30	32044
2026-01-13 10:47:22.90	88.05	23.47	-34.4	-53.4	3.8	7.45e-01	0	42	104	0	30	32017
2026-01-13 10:47:23.90	87.78	23.56	-34.4	-53.4	3.8	7.44e-01	0	42	104	0	30	32077
2026-01-13 10:47:24.92	87.49	23.66	-34.4	-53.4	3.8	7.47e-01	0	42	104	0	30	32015
2026-01-13 10:47:25.92	87.22	23.75	-34.4	-53.4	3.8	7.47e-01	0	42	104	0	30	32038
2026-01-13 10:47:26.93	86.94	23.85	-34.4	-53.4	3.8	7.43e-01	0	42	104	0	30	32076
2026-01-13 10:47:27.94	86.65	23.95	-34.4	-53.4	3.8	7.44e-01	0	42	104	0	30	31905
2026-01-13 10:47:28.95	86.37	24.04	-34.4	-53.4	3.8	7.47e-01	0	42	104	0	30	31923
2026-01-13 10:47:29.96	86.08	24.14	-34.4	-53.4	3.8	7.43e-01	0	42	104	0	30	31956
2026-01-13 10:47:30.97	85.79	24.23	-34.4	-53.4	3.8	7.44e-01	0	42	104	0	30	32027
2026-01-13 10:47:31.97	85.50	24.32	-34.4	-53.4	3.8	7.48e-01	0	42	104	0	30	31977
2026-01-13 10:47:32.97	85.21	24.42	-34.4	-53.4	3.8	7.47e-01	0	42	104	0	30	31881
2026-01-13 10:47:33.98	84.92	24.51	-34.4	-53.4	3.8	7.43e-01	0	42	104	0	30	31996
2026-01-13 10:47:34.99	84.62	24.60	-34.4	-53.4	3.8	7.47e-01	0	42	104	0	30	31954
2026-01-13 10:47:36.00	84.32	24.70	-34.4	-53.4	3.8	7.47e-01	0	42	104	0	30	31971
2026-01-13 10:47:37.01	84.02	24.79	-34.4	-53.4	3.8	7.45e-01	0	42	104	0	30	31983
2026-01-13 10:47:38.02	83.72	24.88	-34.4	-53.4	3.8	7.44e-01	0	42	104	0	30	32007
2026-01-13 10:47:39.03	83.42	24.97	-34.4	-53.4	3.8	7.45e-01	0	42	104	0	30	31961
2026-01-13 10:47:40.04	83.11	25.06	-34.4	-53.4	3.8	7.44e-01	0	42	104	0	30	32023
2026-01-13 10:47:41.04	82.81	25.15	-34.4	-53.4	3.8	7.48e-01	0	42	104	0	30	32020
2026-01-13 10:47:42.04	82.50	25.24	-34.4	-53.4	3.8	7.48e-01	0	42	104	0	30	31987
2026-01-13 10:47:43.05	82.19	25.33	-34.4	-53.4	3.8	7.45e-01	0	42	104	0	30	31997
2026-01-13 10:47:44.06	81.88	25.41	-34.4	-53.4	3.8	7.44e-01	0	42	104	0	30	31950
2026-01-13 10:47:45.07	81.56	25.50	-34.4	-53.4	3.8	7.47e-01	0	42	104	0	30	31974
2026-01-13 10:47:46.08	81.25	25.59	-34.4	-53.4	3.8	7.43e-01	0	42	104	0	30	31999
2026-01-13 10:47:47.08	80.93	25.67	-34.4	-53.4	3.8	7.49e-01	0	42	104	0	30	31996
2026-01-13 10:47:48.09	80.61	25.76	-34.4	-53.4	3.8	7.46e-01	0	42	104	0	30	31976
2026-01-13 10:47:49.10	80.29	25.85	-34.4	-53.4	3.8	7.45e-01	0	42	104	0	30	32017
2026-01-13 10:47:50.10	79.97	25.93	-34.4	-53.3	3.8	7.43e-01	0	42	104	0	30	31848
2026-01-13 10:47:51.11	79.64	26.01	-34.4	-53.4	3.8	7.49e-01	0	42	104	0	30	32020
2026-01-13 10:47:52.12	79.32	26.10	-34.4	-53.4	3.8	7.46e-01	0	42	104	0	30	31934
2026-01-13 10:47:53.13	78.99	26.18	-34.4	-53.4	3.8	7.47e-01	0	42	104	0	30	31978
2026-01-13 10:47:54.13	78.66	26.26	-34.4	-53.4	3.8	7.46e-01	0	42	104	0	30	32022
2026-01-13 10:47:55.14	78.33	26.34	-34.4	-53.4	3.8	7.42e-01	0	42	104	0	30	31981
2026-01-13 10:47:56.15	77.99	26.42	-34.4	-53.4	3.8	7.46e-01	0	42	104	0	30	31986
2026-01-13 10:47:57.16	77.66	26.50	-34.4	-53.4	3.8	7.45e-01	0	42	104	0	30	31990
2026-01-13 10:47:58.17	77.32	26.58	-34.4	-53.4	3.8	7.45e-01	0	42	104	0	30	31978
2026-01-13 10:47:59.17	76.98	26.65	-34.4	-53.4	3.8	7.44e-01	0	42	104	0	30	31969
2026-01-13 10:48:00.17	76.64	26.73	-34.4	-53.4	3.8	7.47e-01	0	42	104	0	30	31986
2026-01-13 10:48:01.17	76.31	26.81	-34.4	-53.4	3.8	7.42e-01	0	42	104	0	30	31942
2026-01-13 10:48:02.19	75.96	26.88	-34.4	-53.4	3.8	7.45e-01	0	42	104	0	30	32021
2026-01-13 10:48:03.19	75.61	26.95	-34.4	-53.4	3.8	7.45e-01	0	42	104	0	30	31999
2026-01-13 10:48:04.20	75.27	27.03	-34.4	-53.4	3.8	7.44e-01	0	42	104	0	30	31990
2026-01-13 10:48:05.20	74.92	27.10	-34.4	-53.4	3.8	7.46e-01	0	42	104	0	30	32051
2026-01-13 10:48:06.21	74.57	27.17	-34.4	-53.4	3.8	7.43e-01	0	42	104	0	30	32002
2026-01-13 10:48:07.23	74.21	27.24	-34.4	-53.4	3.8	7.44e-01	0	42	104	0	30	32015
2026-01-13 10:48:08.23	73.86	27.31	-34.4	-53.4	3.8	7.44e-01	0	42	104	0	30	32058
2026-01-13 10:48:09.24	73.51	27.38	-34.4	-53.4	3.8	7.45e-01	0	42	104	0	30	32002
2026-01-13 10:48:10.24	73.15	27.45	-34.4	-53.4	3.8	7.43e-01	0	42	104	0	30	31994
2026-01-13 10:48:11.24	72.80	27.51	-34.4	-53.4	3.8	7.47e-01	0	42	104	0	30	32027
2026-01-13 10:48:12.24	72.44	27.58	-34.4	-53.4	3.8	7.44e-01	0	42	104	0	30	32079
2026-01-13 10:48:13.25	72.08	27.64	-34.4	-53.4	3.8	7.46e-01	0	42	104	0	30	32028
2026-01-13 10:48:14.26	71.71	27.70	-34.4	-53.4	3.8	7.45e-01	0	42	104	0	30	32052
2026-01-13 10:48:15.26	71.35	27.77	-34.4	-53.4	3.8	7.49e-01	0	42	104	0	30	32051
2026-01-13 10:48:16.27	70.98	27.83	-34.4	-53.4	3.8	7.44e-01	0	42	104	0	30	32055
2026-01-13 10:48:17.28	70.62	27.89	-34.4	-53.4	3.8	7.47e-01	0	42	104	0	30	32102
2026-01-13 10:48:18.28	70.25	27.95	-34.4	-53.4	3.8	7.45e-01	0	42	104	0	30	31965
2026-01-13 10:48:19.28	69.88	28.00	-34.4	-53.4	3.8	7.42e-01	0	42	104	0	30	32022
2026-01-13 10:48:20.28	69.52	28.06	-34.4	-53.4	3.8	7.43e-01	0	42	104	0	30	32046
2026-01-13 10:48:21.29	69.14	28.11	-34.4	-53.4	3.8	7.45e-01	0	42	104	0	30	32051
2026-01-13 10:48:22.30	68.77	28.17	-34.4	-53.4	3.8	7.43e-01	0	42	104	0	30	32009
2026-01-13 10:48:23.30	68.39	28.22	-34.4	-53.4	3.8	7.47e-01	0	42	104	0	30	32058
2026-01-13 10:48:24.31	68.02	28.27	-34.4	-53.4	3.8	7.42e-01	0	42	104	0	30	32040
2026-01-13 10:48:25.32	67.64	28.32	-34.4	-53.4	3.8	7.46e-01	0	42	104	0	30	32023
2026-01-13 10:48:26.33	67.26	28.37	-34.4	-53.4	3.8	7.45e-01	0	42	104	0	30	32050
2026-01-13 10:48:27.34	66.88	28.42	-34.4	-53.4	3.8	7.44e-01	0	42	104	0	30	31949
2026-01-13 10:48:28.35	66.50	28.47	-34.4	-53.4	3.8	7.43e-01	0	42	104	0	30	32054
2026-01-13 10:48:29.36	66.11	28.51	-34.4	-53.4	3.8	7.44e-01	0	42	104	0	30	32010
2026-01-13 10:48:30.37	65.73	28.56	-34.4	-53.4	3.8	7.51e-01	0	42	104	0	30	32051
2026-01-13 10:48:31.37	65.35	28.60	-34.4	-53.4	3.8	7.48e-01	0	42	104	0	30	32007
2026-01-13 10:48:32.38	64.96	28.64	-34.4	-53.4	3.8	7.42e-01	0	42	104	0	30	31990
2026-01-13 10:48:33.39	64.57	28.68	-34.4	-53.4	3.8	7.48e-01	0	42	104	0	30	31977
2026-01-13 10:48:34.39	64.19	28.72	-34.4	-53.4	3.8	7.48e-01	0	42	104	0	30	32040
2026-01-13 10:48:35.40	63.80	28.76	-34.4	-53.4	3.8	7.42e-01	0	42	104	0	30	32082
2026-01-13 10:48:36.41	63.41	28.79	-34.4	-53.4	3.8	7.44e-01	0	42	104	0	30	32031
2026-01-13 10:48:37.41	63.02	28.83	-34.4	-53.4	3.8	7.43e-01	0	42	104	0	30	32035
2026-01-13 10:48:38.41	62.63	28.86	-34.4	-53.4	3.8	7.42e-01	0	42	104	0	30	32088
2026-01-13 10:48:39.42	62.24	28.89	-34.4	-53.4	3.8	7.46e-01	0	42	104	0	30	32085
2026-01-13 10:48:40.43	61.84	28.92	-34.4	-53.4	3.8	7.46e-01	0	42	104	0	30	32072
2026-01-13 10:48:41.43	61.45	28.95	-34.4	-53.4	3.8	7.44e-01	0	42	104	0	30	32000
2026-01-13 10:48:42.44	61.06	28.98	-34.4	-53.4	3.8	7.45e-01	0	42	104	0	30	31972
2026-01-13 10:48:43.45	60.66	29.00	-34.4	-53.4	3.8	7.45e-01	0	42	104	0	30	32016
2026-01-13 10:48:44.45	60.27	29.03	-34.4	-53.4	3.8	7.43e-01	0	42	104	0	30	31963
2026-01-13 10:48:45.46	59.87	29.05	-34.4	-53.3	3.8	7.40e-01	0	42	104	0	30	31883
2026-01-13 10:48:46.47	59.48	29.07	-34.4	-53.4	3.8	7.46e-01	0	42	104	0	30	32021
2026-01-13 10:48:47.48	59.08	29.09	-34.4	-53.4	3.8	7.47e-01	0	42	104	0	30	31977
2026-01-13 10:48:48.48	58.68	29.11	-34.4	-53.4	3.8	7.45e-01	0	42	104	0	30	31993
2026-01-13 10:48:49.49	58.28	29.13	-34.4	-53.4	3.8	7.48e-01	0	42	104	0	30	31972
2026-01-13 10:48:50.49	57.89	29.14	-34.4	-53.4	3.8	7.43e-01	0	42	104	0	30	31997
2026-01-13 10:48:51.50	57.49	29.16	-34.4	-53.4	3.8	7.44e-01	0	42	104	0	30	31950
2026-01-13 10:48:52.51	57.09	29.17	-34.4	-53.4	3.8	7.42e-01	0	42	104	0	30	31964
2026-01-13 10:48:53.52	56.69	29.18	-34.4	-53.4	3.8	7.44e-01	0	42	104	0	30	32052
2026-01-13 10:48:54.53	56.29	29.19	-34.4	-53.4	3.8	7.44e-01	0	42	104	0	30	32008
2026-01-13 10:48:55.53	55.89	29.20	-34.4	-53.4	3.8	7.44e-01	0	42	104	0	30	32019
2026-01-13 10:48:56.54	55.49	29.20	-34.4	-53.4	3.8	7.44e-01	0	42	104	0	30	32012
2026-01-13 10:48:57.55	55.09	29.21	-34.4	-53.4	3.8	7.47e-01	0	42	104	0	30	31933
2026-01-13 10:48:58.56	54.69	29.21	-34.4	-53.4	3.8	7.45e-01	0	42	104	0	30	32055
2026-01-13 10:48:59.57	54.28	29.22	-34.4	-53.4	3.8	7.45e-01	0	42	104	0	30	31934
2026-01-13 10:49:00.57	53.89	29.22	-34.4	-53.4	3.8	7.45e-01	0	42	104	0	30	31965
2026-01-13 10:49:01.57	53.49	29.22	-34.4	-53.4	3.8	7.49e-01	0	42	104	0	30	32045
2026-01-13 10:49:02.59	53.08	29.21	-34.4	-53.4	3.8	7.47e-01	0	42	104	0	30	31968
2026-01-13 10:49:03.59	52.69	29.21	-34.4	-53.4	3.8	7.44e-01	0	42	104	0	30	32043
2026-01-13 10:49:04.60	52.28	29.20	-34.4	-53.4	3.8	7.42e-01	0	42	104	0	30	31920
2026-01-13 10:49:05.61	51.88	29.20	-34.4	-53.4	3.8	7.46e-01	0	42	104	0	30	31970
2026-01-13 10:49:06.61	51.49	29.19	-34.4	-53.4	3.8	7.48e-01	0	42	104	0	30	32057
2026-01-13 10:49:07.62	51.09	29.18	-34.4	-53.4	3.8	7.42e-01	0	42	104	0	30	32015
2026-01-13 10:49:08.63	50.69	29.17	-34.4	-53.4	3.8	7.43e-01	0	42	104	0	30	32048
2026-01-13 10:49:09.64	50.29	29.15	-34.4	-53.4	3.8	7.45e-01	0	42	104	0	30	31954
2026-01-13 10:49:10.64	49.89	29.14	-34.4	-53.4	3.8	7.45e-01	0	42	104	0	30	31946
2026-01-13 10:49:11.65	49.49	29.12	-34.4	-53.4	3.8	7.43e-01	0	42	104	0	30	32017
2026-01-13 10:49:12.65	49.10	29.10	-34.4	-53.4	3.8	7.47e-01	0	42	104	0	30	32022
2026-01-13 10:49:13.66	48.70	29.09	-34.4	-53.4	3.8	7.48e-01	0	42	104	0	30	32010
2026-01-13 10:49:14.66	48.30	29.07	-34.4	-53.4	3.8	7.43e-01	0	42	104	0	30	32080
2026-01-13 10:49:15.67	47.91	29.04	-34.4	-53.4	3.8	7.46e-01	0	42	104	0	30	32055
2026-01-13 10:49:16.68	47.51	29.02	-34.4	-53.4	3.8	7.43e-01	0	42	104	0	30	32046
2026-01-13 10:49:17.69	47.11	28.99	-34.4	-53.4	3.8	7.44e-01	0	42	104	0	30	32019
2026-01-13 10:49:18.69	46.72	28.97	-34.4	-53.4	3.8	7.43e-01	0	42	104	0	30	31932
2026-01-13 10:49:19.69	46.33	28.94	-34.4	-53.4	3.8	7.46e-01	0	42	104	0	30	31997
2026-01-13 10:49:20.70	45.94	28.91	-34.4	-53.4	3.8	7.49e-01	0	42	104	0	30	32031
2026-01-13 10:49:21.71	45.55	28.88	-34.4	-53.4	3.8	7.44e-01	0	42	104	0	30	31985
2026-01-13 10:49:22.72	45.15	28.85	-34.4	-53.4	3.8	7.47e-01	0	42	104	0	30	32069
2026-01-13 10:49:23.73	44.76	28.82	-34.4	-53.4	3.8	7.45e-01	0	42	104	0	30	31949
2026-01-13 10:49:24.73	44.38	28.78	-34.4	-53.4	3.8	7.48e-01	0	42	104	0	30	32036
2026-01-13 10:49:25.74	43.99	28.74	-34.4	-53.4	3.8	7.45e-01	0	42	104	0	30	31975
2026-01-13 10:49:26.75	43.60	28.71	-34.4	-53.4	3.8	7.46e-01	0	42	104	0	30	32025
2026-01-13 10:49:27.75	43.21	28.67	-34.4	-53.4	3.8	7.45e-01	0	42	104	0	30	32021
2026-01-13 10:49:28.76	42.83	28.63	-34.4	-53.4	3.8	7.44e-01	0	42	104	0	30	32055
2026-01-13 10:49:29.77	42.44	28.59	-34.4	-53.4	3.8	7.44e-01	0	42	104	0	30	32007
2026-01-13 10:49:30.77	42.06	28.54	-34.4	-53.4	3.8	7.43e-01	0	42	104	0	30	31961
2026-01-13 10:49:31.78	41.68	28.50	-34.4	-53.4	3.8	7.48e-01	0	42	104	0	30	31992
2026-01-13 10:49:32.79	41.29	28.45	-34.4	-53.4	3.8	7.49e-01	0	42	104	0	30	32026
2026-01-13 10:49:33.79	40.92	28.41	-34.4	-53.4	3.8	7.48e-01	0	42	104	0	30	31998
2026-01-13 10:49:34.79	40.54	28.36	-34.4	-53.4	3.8	7.44e-01	0	42	104	0	30	32078
2026-01-13 10:49:35.81	40.16	28.31	-34.4	-53.4	3.8	7.47e-01	0	42	104	0	30	31995
2026-01-13 10:49:36.81	39.78	28.26	-34.4	-53.4	3.8	7.45e-01	0	42	104	0	30	31981
2026-01-13 10:49:37.81	39.41	28.21	-34.4	-53.4	3.8	7.45e-01	0	42	104	0	30	31980
2026-01-13 10:49:38.82	39.04	28.15	-34.4	-53.4	3.8	7.44e-01	0	42	104	0	30	31988
2026-01-13 10:49:39.83	38.66	28.10	-34.4	-53.4	3.8	7.47e-01	0	42	104	0	30	32053
2026-01-13 10:49:40.83	38.29	28.04	-34.4	-53.4	3.8	7.46e-01	0	42	104	0	30	32062
2026-01-13 10:49:41.84	37.92	27.99	-34.4	-53.4	3.8	7.45e-01	0	42	104	0	30	32039
2026-01-13 10:49:42.85	37.55	27.93	-34.4	-53.4	3.8	7.43e-01	0	42	104	0	30	32001
2026-01-13 10:49:43.85	37.19	27.87	-34.4	-53.4	3.8	7.41e-01	0	42	104	0	30	32043
2026-01-13 10:49:44.86	36.82	27.81	-34.4	-53.4	3.8	7.43e-01	0	42	104	0	30	32114
2026-01-13 10:49:45.86	36.46	27.75	-34.4	-53.4	3.8	7.46e-01	0	42	104	0	30	32053
2026-01-13 10:49:46.87	36.10	27.69	-34.4	-53.4	3.8	7.46e-01	0	42	104	0	30	32028
2026-01-13 10:49:47.88	35.73	27.63	-34.4	-53.4	3.8	7.42e-01	0	42	104	0	30	31959
2026-01-13 10:49:48.88	35.38	27.56	-34.4	-53.4	3.8	7.45e-01	0	42	104	0	30	32016
2026-01-13 10:49:49.89	35.02	27.50	-34.4	-53.4	3.8	7.44e-01	0	42	104	0	30	32046
2026-01-13 10:49:50.89	34.66	27.43	-34.4	-53.4	3.8	7.43e-01	0	42	104	0	30	32044
2026-01-13 10:49:51.90	34.31	27.36	-34.4	-53.4	3.8	7.47e-01	0	42	104	0	30	32042
2026-01-13 10:49:52.90	33.95	27.29	-34.4	-53.4	3.8	7.44e-01	0	42	104	0	30	32078
2026-01-13 10:49:53.90	33.61	27.23	-34.4	-53.4	3.8	7.44e-01	0	42	104	0	30	32019
2026-01-13 10:49:54.91	33.25	27.16	-34.4	-53.4	3.8	7.48e-01	0	42	104	0	30	32009
2026-01-13 10:49:55.92	32.90	27.08	-34.4	-53.4	3.8	7.46e-01	0	42	104	0	30	32072
2026-01-13 10:49:56.93	32.56	27.01	-34.4	-53.4	3.8	7.42e-01	0	42	104	0	30	32026
2026-01-13 10:49:57.94	32.21	26.94	-34.4	-53.4	3.8	7.46e-01	0	42	104	0	30	32053
2026-01-13 10:49:58.94	31.87	26.86	-34.4	-53.4	3.8	7.44e-01	0	42	104	0	30	32016
2026-01-13 10:49:59.94	31.53	26.79	-34.4	-53.4	3.8	7.48e-01	0	42	104	0	30	32064
2026-01-13 10:50:00.95	31.19	26.71	-34.4	-53.4	3.8	7.45e-01	0	42	104	0	30	31924
2026-01-13 10:50:01.96	30.85	26.64	-34.4	-53.4	3.8	7.44e-01	0	42	104	0	30	32128
2026-01-13 10:50:02.96	30.51	26.56	-34.4	-53.4	3.8	7.48e-01	0	42	104	0	30	32066
2026-01-13 10:50:03.97	30.18	26.48	-34.4	-53.4	3.8	7.47e-01	0	42	104	0	30	32058
2026-01-13 10:50:04.97	29.84	26.40	-34.4	-53.4	3.8	7.46e-01	0	42	104	0	30	32025
2026-01-13 10:50:05.97	29.52	26.32	-34.4	-53.4	3.8	7.47e-01	0	42	104	0	30	32100
2026-01-13 10:50:06.98	29.18	26.24	-34.4	-53.4	3.8	7.47e-01	0	42	104	0	30	32063
2026-01-13 10:50:07.98	28.86	26.16	-34.4	-53.4	3.8	7.42e-01	0	42	104	0	30	32050
2026-01-13 10:50:08.99	28.53	26.08	-34.4	-53.4	3.8	7.49e-01	0	43	104	0	30	32072
2026-01-13 10:50:10.00	28.21	26.00	-34.4	-53.4	3.8	7.46e-01	0	42	104	0	30	32083
2026-01-13 10:50:11.01	27.88	25.91	-34.4	-53.4	3.8	7.46e-01	0	42	104	0	30	32154
2026-01-13 10:50:12.01	27.56	25.83	-34.4	-53.4	3.8	7.46e-01	0	42	104	0	30	32048
2026-01-13 10:50:13.02	27.24	25.75	-34.4	-53.4	3.8	7.48e-01	0	42	104	0	30	31979
2026-01-13 10:50:14.03	26.92	25.66	-34.4	-53.4	3.8	7.44e-01	0	42	104	0	30	32089
2026-01-13 10:50:15.03	26.61	25.58	-34.4	-53.4	3.8	7.46e-01	0	42	104	0	30	32075
2026-01-13 10:50:16.03	26.30	25.49	-34.4	-53.4	3.8	7.44e-01	0	42	104	0	30	32022
2026-01-13 10:50:17.04	25.98	25.40	-34.4	-53.4	3.8	7.48e-01	0	42	104	0	30	32024
2026-01-13 10:50:18.05	25.67	25.31	-34.4	-53.4	3.8	7.44e-01	0	42	104	0	30	32085
2026-01-13 10:50:19.05	25.37	25.23	-34.4	-53.4	3.8	7.44e-01	0	42	104	0	30	32113
2026-01-13 10:50:20.06	25.06	25.14	-34.4	-53.4	3.8	7.43e-01	0	42	104	0	30	32012
2026-01-13 10:50:21.07	24.75	25.05	-34.4	-53.4	3.8	7.48e-01	0	42	104	0	30	32065
2026-01-13 10:50:22.08	24.45	24.96	-34.4	-53.4	3.8	7.41e-01	0	42	104	0	30	32035
2026-01-13 10:50:23.09	24.15	24.87	-34.4	-53.4	3.8	7.44e-01	0	42	104	0	30	32083
2026-01-13 10:50:24.10	23.85	24.77	-34.4	-53.4	3.8	7.48e-01	0	42	104	0	30	32151
2026-01-13 10:50:25.10	23.55	24.68	-34.4	-53.4	3.8	7.45e-01	0	42	104	0	30	32001
2026-01-13 10:50:26.11	23.26	24.59	-34.4	-53.4	3.8	7.46e-01	0	42	104	0	30	32052
2026-01-13 10:50:27.11	22.96	24.50	-34.4	-53.4	3.8	7.45e-01	0	42	104	0	30	32040
2026-01-13 10:50:28.12	22.67	24.41	-34.4	-53.4	3.8	7.49e-01	0	42	104	0	30	32076
2026-01-13 10:50:29.12	22.38	24.31	-34.4	-53.4	3.8	7.46e-01	0	42	104	0	30	32146
2026-01-13 10:50:30.12	22.10	24.22	-34.4	-53.4	3.8	7.48e-01	0	42	104	0	30	32066
2026-01-13 10:50:31.13	21.81	24.13	-34.4	-53.4	3.8	7.44e-01	0	42	104	0	30	32064
2026-01-13 10:50:32.13	21.53	24.03	-34.4	-53.4	3.8	7.44e-01	0	42	104	0	30	32074
2026-01-13 10:50:33.14	21.24	23.94	-34.4	-53.4	3.8	7.47e-01	0	42	104	0	30	32065
2026-01-13 10:50:34.14	20.96	23.84	-34.4	-53.4	3.8	7.45e-01	0	42	104	0	30	31998
2026-01-13 10:50:35.14	20.68	23.75	-34.4	-53.4	3.8	7.45e-01	0	42	104	0	30	32085
2026-01-13 10:50:36.15	20.41	23.65	-34.4	-53.4	3.8	7.47e-01	0	43	104	0	30	32023
2026-01-13 10:50:37.15	20.13	23.56	-34.4	-53.4	3.8	7.46e-01	0	42	104	0	30	32020
2026-01-13 10:50:38.16	19.86	23.46	-34.4	-53.4	3.8	7.47e-01	0	42	104	0	30	32071
2026-01-13 10:50:39.16	19.59	23.37	-34.4	-53.4	3.8	7.49e-01	0	42	104	0	30	32085
2026-01-13 10:50:40.17	19.32	23.27	-34.4	-53.4	3.8	7.46e-01	0	42	104	0	30	32036
2026-01-13 10:50:41.18	19.05	23.17	-34.4	-53.4	3.8	7.47e-01	0	42	104	0	30	31973
2026-01-13 10:50:42.18	18.78	23.07	-34.4	-53.4	3.8	7.46e-01	0	42	104	0	30	32076
2026-01-13 10:50:43.18	18.52	22.98	-34.4	-53.4	3.8	7.45e-01	0	42	104	0	30	32045
2026-01-13 10:50:44.19	18.25	22.88	-34.4	-53.4	3.8	7.50e-01	0	43	104	0	30	32041
2026-01-13 10:50:45.19	17.99	22.78	-34.4	-53.4	3.8	7.44e-01	0	42	104	0	30	32019
2026-01-13 10:50:46.20	17.73	22.68	-34.4	-53.4	3.8	7.44e-01	0	42	104	0	30	32033
2026-01-13 10:50:47.21	17.47	22.58	-34.4	-53.4	3.8	7.46e-01	0	42	104	0	30	31963
2026-01-13 10:50:48.22	17.22	22.49	-34.4	-53.4	3.8	7.46e-01	0	42	104	0	30	32042
2026-01-13 10:50:49.23	16.96	22.39	-34.4	-53.4	3.8	7.45e-01	0	42	104	0	30	32086
2026-01-13 10:50:50.24	16.71	22.29	-34.4	-53.4	3.8	7.45e-01	0	42	104	0	30	32061
2026-01-13 10:50:51.25	16.45	22.19	-34.4	-53.4	3.8	7.43e-01	0	42	104	0	30	32065
2026-01-13 10:50:52.25	16.21	22.09	-34.4	-53.4	3.8	7.46e-01	0	42	104	0	30	32105
2026-01-13 10:50:53.26	15.96	21.99	-34.4	-53.4	3.8	7.44e-01	0	42	104	0	30	32048
2026-01-13 10:50:54.27	15.71	21.89	-34.4	-53.4	3.8	7.44e-01	0	42	104	0	30	32011
2026-01-13 10:50:55.28	15.46	21.79	-34.4	-53.4	3.8	7.48e-01	0	42	104	0	30	32023
2026-01-13 10:50:56.28	15.22	21.69	-34.4	-53.4	3.8	7.47e-01	0	42	104	0	30	32018
2026-01-13 10:50:57.29	14.98	21.59	-34.4	-53.4	3.8	7.46e-01	0	42	104	0	30	32051
2026-01-13 10:50:58.30	14.74	21.49	-34.4	-53.4	3.8	7.44e-01	0	42	104	0	30	32104
2026-01-13 10:50:59.30	14.50	21.39	-34.4	-53.4	3.8	7.45e-01	0	42	104	0	30	32093
2026-01-13 10:51:00.30	14.27	21.29	-34.4	-53.4	3.8	7.45e-01	0	42	104	0	30	31979
2026-01-13 10:51:01.31	14.03	21.19	-34.4	-53.4	3.8	7.45e-01	0	42	104	0	30	32044
2026-01-13 10:51:02.32	13.80	21.09	-34.4	-53.4	3.8	7.46e-01	0	42	104	0	30	32043
2026-01-13 10:51:03.31	13.57	20.99	-34.4	-53.4	3.8	7.48e-01	0	42	104	0	30	31965
2026-01-13 10:51:04.31	13.34	20.89	-34.4	-53.4	3.8	7.45e-01	0	42	104	0	30	32098
2026-01-13 10:51:05.32	13.12	20.79	-34.4	-53.4	3.8	7.48e-01	0	42	104	0	30	32080
2026-01-13 10:51:06.32	12.89	20.69	-34.4	-53.4	3.8	7.45e-01	0	42	104	0	30	32080
2026-01-13 10:51:07.33	12.66	20.59	-34.4	-53.4	3.8	7.46e-01	0	42	104	0	30	32044
2026-01-13 10:51:08.34	12.44	20.49	-34.4	-53.4	3.8	7.45e-01	0	42	104	0	30	32066
2026-01-13 10:51:09.35	12.22	20.39	-34.4	-53.4	3.8	7.45e-01	0	42	104	0	30	32128
2026-01-13 10:51:10.35	12.00	20.29	-34.4	-53.4	3.8	7.44e-01	0	42	104	0	30	32096
2026-01-13 10:51:11.36	11.78	20.19	-34.4	-53.4	3.8	7.45e-01	0	42	104	0	30	32099
2026-01-13 10:51:12.36	11.56	20.09	-34.4	-53.4	3.8	7.45e-01	0	42	104	0	30	32123
2026-01-13 10:51:13.38	11.34	19.99	-34.4	-53.4	3.8	7.46e-01	0	43	104	0	30	32161
2026-01-13 10:51:14.38	11.13	19.89	-34.4	-53.4	3.8	7.43e-01	0	42	104	0	30	32002
2026-01-13 10:51:15.39	10.92	19.79	-34.4	-53.4	3.8	7.44e-01	0	42	104	0	30	31984
2026-01-13 10:51:16.39	10.71	19.69	-34.4	-53.4	3.8	7.47e-01	0	42	104	0	30	32072
2026-01-13 10:51:17.40	10.50	19.59	-34.4	-53.4	3.8	7.38e-01	0	42	104	0	30	32047
2026-01-13 10:51:18.41	10.29	19.49	-34.4	-53.4	3.8	7.47e-01	0	42	104	0	30	32127
2026-01-13 10:51:19.41	10.08	19.39	-34.4	-53.4	3.8	7.45e-01	0	42	104	0	30	32052
2026-01-13 10:51:20.42	9.88	19.29	-34.4	-53.4	3.8	7.45e-01	0	42	104	0	30	32058
2026-01-13 10:51:21.43	9.67	19.19	-34.4	-53.4	3.8	7.46e-01	0	42	104	0	30	32074
2026-01-13 10:51:22.44	9.47	19.09	-34.4	-53.4	3.8	7.43e-01	0	42	104	0	30	32011
2026-01-13 10:51:23.44	9.27	18.99	-34.4	-53.4	3.8	7.42e-01	0	42	104	0	30	31953
2026-01-13 10:51:24.44	9.07	18.89	-34.4	-53.4	3.8	7.48e-01	0	42	104	0	30	32102
2026-01-13 10:51:25.45	8.87	18.79	-34.4	-53.4	3.8	7.47e-01	0	42	104	0	30	32046
2026-01-13 10:51:26.46	8.67	18.69	-34.4	-53.4	3.8	7.46e-01	0	42	104	0	30	32063
2026-01-13 10:51:27.46	8.48	18.59	-34.4	-53.4	3.8	7.45e-01	0	42	104	0	30	32016
2026-01-13 10:51:28.47	8.28	18.49	-34.4	-53.4	3.8	7.45e-01	0	42	104	0	30	32051
2026-01-13 10:51:29.48	8.09	18.39	-34.4	-53.4	3.8	7.42e-01	0	42	104	0	30	32100
2026-01-13 10:51:30.49	7.90	18.29	-34.4	-53.4	3.8	7.44e-01	0	42	104	0	30	32037
2026-01-13 10:51:31.50	7.71	18.19	-34.4	-53.4	3.8	7.43e-01	0	42	104	0	30	32041
2026-01-13 10:51:32.51	7.52	18.10	-34.4	-53.4	3.8	7.42e-01	0	43	104	0	30	32071
2026-01-13 10:51:33.51	7.33	18.00	-34.4	-53.4	3.8	7.44e-01	0	42	104	0	30	32061
2026-01-13 10:51:34.51	7.15	17.90	-34.4	-53.4	3.8	7.44e-01	0	43	104	0	30	32054
2026-01-13 10:51:35.52	6.96	17.80	-34.4	-53.4	3.8	7.42e-01	0	42	104	0	30	32011
2026-01-13 10:51:36.53	6.78	17.70	-34.4	-53.4	3.8	7.46e-01	0	42	104	0	30	32053
2026-01-13 10:51:37.54	6.59	17.60	-34.4	-53.4	3.8	7.43e-01	0	42	104	0	30	32056
2026-01-13 10:51:38.54	6.41	17.51	-34.4	-53.4	3.8	7.47e-01	0	42	104	0	30	32041
2026-01-13 10:51:39.54	6.23	17.41	-34.4	-53.4	3.8	7.46e-01	0	42	104	0	30	32087
2026-01-13 10:51:40.55	6.06	17.31	-34.4	-53.4	3.8	7.50e-01	0	42	104	0	30	32112
2026-01-13 10:51:41.55	5.88	17.22	-34.4	-53.4	3.8	7.46e-01	0	42	104	0	30	32041
2026-01-13 10:51:42.55	5.70	17.12	-34.4	-53.5	3.8	7.44e-01	0	42	104	0	30	32187
2026-01-13 10:51:43.56	5.53	17.02	-34.4	-53.4	3.8	7.42e-01	0	42	104	0	30	32127
2026-01-13 10:51:44.56	5.36	16.92	-34.4	-53.4	3.8	7.46e-01	0	42	104	0	30	32102
2026-01-13 10:51:45.56	5.18	16.83	-34.4	-53.4	3.8	7.44e-01	0	42	104	0	30	32089
2026-01-13 10:51:46.56	5.01	16.73	-34.4	-53.4	3.8	7.49e-01	0	42	104	0	30	32046
2026-01-13 10:51:47.57	4.84	16.64	-34.4	-53.4	3.8	7.49e-01	0	42	104	0	30	32127
2026-01-13 10:51:48.57	4.68	16.54	-34.4	-53.4	3.8	7.45e-01	0	42	104	0	30	32119
2026-01-13 10:51:49.58	4.51	16.44	-34.4	-53.4	3.8	7.47e-01	0	42	104	0	30	31986
2026-01-13 10:51:50.59	4.34	16.35	-34.4	-53.4	3.8	7.48e-01	0	42	104	0	30	32149
2026-01-13 10:51:51.59	4.18	16.25	-34.4	-53.4	3.8	7.46e-01	0	42	104	0	30	32029
2026-01-13 10:51:52.60	4.01	16.16	-34.4	-53.4	3.8	7.45e-01	0	42	104	0	30	32049
2026-01-13 10:51:53.61	3.85	16.06	-34.4	-53.4	3.8	7.44e-01	0	42	104	0	30	32031
2026-01-13 10:51:54.61	3.69	15.97	-34.4	-53.4	3.8	7.47e-01	0	42	104	0	30	32014
2026-01-13 10:51:55.62	3.52	15.87	-34.4	-53.4	3.8	7.47e-01	0	42	104	0	30	32085
2026-01-13 10:51:56.63	3.36	15.78	-34.4	-53.4	3.8	7.46e-01	0	42	104	0	30	31993
2026-01-13 10:51:57.64	3.20	15.68	-34.4	-53.4	3.8	7.47e-01	0	42	104	0	30	32103
2026-01-13 10:51:58.65	3.05	15.59	-34.4	-53.4	3.8	7.47e-01	0	42	104	0	30	32094
2026-01-13 10:51:59.66	2.89	15.49	-34.4	-53.4	3.8	7.45e-01	0	42	104	0	30	32049
2026-01-13 10:52:00.67	2.73	15.40	-34.4	-53.4	3.8	7.46e-01	0	42	104	0	30	32098
2026-01-13 10:52:01.67	2.58	15.30	-34.4	-53.4	3.8	7.43e-01	0	42	104	0	30	32087
2026-01-13 10:52:02.67	2.43	15.21	-34.4	-53.4	3.8	7.46e-01	0	42	104	0	30	32124
2026-01-13 10:52:03.68	2.27	15.12	-34.4	-53.4	3.8	7.46e-01	0	42	104	0	30	32015
2026-01-13 10:52:04.69	2.12	15.02	-34.4	-53.4	3.8	7.44e-01	0	42	104	0	30	32118
2026-01-13 10:52:05.69	1.97	14.93	-34.4	-53.4	3.8	7.46e-01	0	42	104	0	30	31986
2026-01-13 10:52:06.70	1.82	14.84	-34.4	-53.4	3.8	7.43e-01	0	42	104	0	30	32115
2026-01-13 10:52:07.71	1.67	14.75	-34.4	-53.4	3.8	7.45e-01	0	42	104	0	30	32065
2026-01-13 10:52:08.71	1.53	14.65	-34.4	-53.4	3.8	7.47e-01	0	42	104	0	30	32119
2026-01-13 10:52:09.72	1.38	14.56	-34.4	-53.4	3.8	7.43e-01	0	42	104	0	30	32055
2026-01-13 10:52:10.73	1.24	14.47	-34.4	-53.4	3.8	7.44e-01	0	42	104	0	30	32086
2026-01-13 10:52:11.74	1.09	14.38	-34.4	-53.4	3.8	7.45e-01	0	42	104	0	30	32063
2026-01-13 10:52:12.74	0.95	14.29	-34.4	-53.4	3.8	7.46e-01	0	42	104	0	30	32095
2026-01-13 10:52:13.75	0.81	14.19	-34.4	-53.4	3.8	7.48e-01	0	42	104	0	30	32102
2026-01-13 10:52:14.76	0.66	14.10	-34.4	-53.4	3.8	7.45e-01	0	42	104	0	30	32075
2026-01-13 10:52:15.77	0.52	14.01	-34.4	-53.4	3.8	7.46e-01	0	42	104	0	30	32120
2026-01-13 10:52:16.78	0.38	13.92	-34.4	-53.4	3.8	7.42e-01	0	42	104	0	30	32094
2026-01-13 10:52:17.79	0.24	13.83	-34.4	-53.5	3.8	7.44e-01	0	42	104	0	30	32134
2026-01-13 10:52:18.79	0.11	13.74	-34.4	-53.4	3.8	7.43e-01	0	42	104	0	30	32114
2026-01-13 10:52:19.80	359.97	13.65	-34.4	-53.4	3.8	7.48e-01	0	42	104	0	30	32144
2026-01-13 10:52:20.80	359.84	13.56	-34.4	-53.4	3.8	7.45e-01	0	42	104	0	30	32115
2026-01-13 10:52:21.81	359.70	13.47	-34.4	-53.4	3.8	7.45e-01	0	43	104	0	30	32109
2026-01-13 10:52:22.82	359.57	13.38	-34.4	-53.4	3.8	7.45e-01	0	42	104	0	30	32025
2026-01-13 10:52:23.83	359.43	13.29	-34.4	-53.4	3.8	7.45e-01	0	42	104	0	30	32077
2026-01-13 10:52:24.84	359.30	13.20	-34.4	-53.4	3.8	7.47e-01	0	42	104	0	30	32107
2026-01-13 10:52:25.84	359.17	13.11	-34.4	-53.4	3.8	7.47e-01	0	42	104	0	30	32088
2026-01-13 10:52:26.84	359.04	13.03	-34.4	-53.4	3.8	7.47e-01	0	42	104	0	30	32110
2026-01-13 10:52:27.85	358.91	12.94	-34.4	-53.4	3.8	7.47e-01	0	42	104	0	30	32079
2026-01-13 10:52:28.86	358.78	12.85	-34.4	-53.4	3.8	7.45e-01	0	42	104	0	30	32090
2026-01-13 10:52:29.86	358.65	12.76	-34.4	-53.4	3.8	7.46e-01	0	43	104	0	30	32046
2026-01-13 10:52:30.87	358.53	12.67	-34.4	-53.4	3.8	7.46e-01	0	42	104	0	30	32127
2026-01-13 10:52:31.88	358.40	12.58	-34.4	-53.5	3.8	7.42e-01	0	42	104	0	30	32138
2026-01-13 10:52:32.89	358.27	12.50	-34.4	-53.4	3.8	7.45e-01	0	42	104	0	30	32106
2026-01-13 10:52:33.89	358.15	12.41	-34.4	-53.4	3.8	7.48e-01	0	42	104	0	30	32102
2026-01-13 10:52:34.90	358.02	12.32	-34.4	-53.4	3.8	7.43e-01	0	42	104	0	30	32048
2026-01-13 10:52:35.91	357.90	12.24	-34.4	-53.4	3.8	7.44e-01	0	42	104	0	30	32084
2026-01-13 10:52:36.91	357.78	12.15	-34.4	-53.4	3.8	7.46e-01	0	42	104	0	30	32093
2026-01-13 10:52:37.91	357.66	12.07	-34.4	-53.4	3.8	7.46e-01	0	42	104	0	30	32144
2026-01-13 10:52:38.92	357.54	11.98	-34.4	-53.5	3.8	7.46e-01	0	42	104	0	30	32159
2026-01-13 10:52:39.93	357.42	11.89	-34.4	-53.4	3.8	7.45e-01	0	42	104	0	30	32063
2026-01-13 10:52:40.93	357.30	11.81	-34.4	-53.4	3.8	7.44e-01	0	42	104	0	30	32121
2026-01-13 10:52:41.93	357.18	11.72	-34.4	-53.4	3.8	7.44e-01	0	42	104	0	30	32088
2026-01-13 10:52:42.94	357.06	11.64	-34.4	-53.4	3.8	7.45e-01	0	42	104	0	30	32063
2026-01-13 10:52:43.95	356.95	11.55	-34.4	-53.4	3.8	7.45e-01	0	42	104	0	30	31963
2026-01-13 10:52:44.95	356.83	11.47	-34.4	-53.4	3.8	7.43e-01	0	42	104	0	30	32038
2026-01-13 10:52:45.96	356.72	11.38	-34.4	-53.4	3.8	7.44e-01	0	42	104	0	30	32077
2026-01-13 10:52:46.97	356.60	11.30	-34.4	-53.4	3.8	7.47e-01	0	42	104	0	30	32077
2026-01-13 10:52:47.97	356.49	11.22	-34.4	-53.4	3.8	7.44e-01	0	42	104	0	30	32130
2026-01-13 10:52:48.98	356.37	11.13	-34.4	-53.4	3.8	7.45e-01	0	42	104	0	30	32089
2026-01-13 10:52:49.99	356.26	11.05	-34.4	-53.4	3.8	7.47e-01	0	42	104	0	30	32094
2026-01-13 10:52:51.00	356.15	10.96	-34.4	-53.4	3.8	7.46e-01	0	42	104	0	30	32098
2026-01-13 10:52:52.00	356.04	10.88	-34.4	-53.4	3.8	7.46e-01	0	42	104	0	30	32110
2026-01-13 10:52:53.01	355.93	10.80	-34.4	-53.4	3.8	7.46e-01	0	42	104	0	30	32045
2026-01-13 10:52:54.02	355.82	10.72	-34.4	-53.4	3.8	7.47e-01	0	42	104	0	30	32137
2026-01-13 10:52:55.02	355.71	10.63	-34.4	-53.4	3.8	7.43e-01	0	42	104	0	30	32140
2026-01-13 10:52:56.02	355.60	10.55	-34.4	-53.4	3.8	7.45e-01	0	42	104	0	30	32034
2026-01-13 10:52:57.03	355.49	10.47	-34.4	-53.4	3.8	7.44e-01	0	42	104	0	30	32132
2026-01-13 10:52:58.04	355.39	10.39	-34.4	-53.4	3.8	7.48e-01	0	42	104	0	30	32084
2026-01-13 10:52:59.05	355.28	10.30	-34.4	-53.4	3.8	7.45e-01	0	42	104	0	30	32054
2026-01-13 10:53:00.05	355.18	10.22	-34.4	-53.4	3.8	7.47e-01	0	43	104	0	30	32051
2026-01-13 10:53:01.05	355.07	10.14	-34.4	-53.4	3.8	7.47e-01	0	42	104	0	30	32072
2026-01-13 10:53:02.05	354.97	10.06	-34.4	-53.4	3.8	7.45e-01	0	42	104	0	30	32110
2026-01-13 10:53:03.06	354.86	9.98	-34.4	-53.4	3.8	7.46e-01	0	42	104	0	30	32056
2026-01-13 10:53:04.06	354.76	9.90	-34.4	-53.4	3.8	7.43e-01	0	42	104	0	30	32062
2026-01-13 10:53:05.07	354.66	9.82	-34.4	-53.4	3.8	7.45e-01	0	42	104	0	30	32123
2026-01-13 10:53:06.08	354.56	9.74	-34.4	-53.4	3.8	7.47e-01	0	42	104	0	30	32090
2026-01-13 10:53:07.09	354.46	9.66	-34.4	-53.4	3.8	7.45e-01	0	42	104	0	30	32062
2026-01-13 10:53:08.09	354.36	9.58	-34.4	-53.4	3.8	7.43e-01	0	42	104	0	30	32098
2026-01-13 10:53:09.10	354.26	9.50	-34.4	-53.4	3.8	7.43e-01	0	42	104	0	30	32132
2026-01-13 10:53:10.11	354.16	9.42	-34.4	-53.4	3.8	7.43e-01	0	42	104	0	30	32093
2026-01-13 10:53:11.12	354.06	9.34	-34.4	-53.4	3.8	7.50e-01	0	42	104	0	30	32024
2026-01-13 10:53:12.12	353.96	9.26	-34.4	-53.4	3.8	7.46e-01	0	42	104	0	30	32115
2026-01-13 10:53:13.13	353.86	9.18	-34.4	-53.4	3.8	7.45e-01	0	42	104	0	30	32051
2026-01-13 10:53:14.14	353.76	9.10	-34.4	-53.4	3.8	7.44e-01	0	42	104	0	30	32118
2026-01-13 10:53:15.15	353.67	9.03	-34.4	-53.4	3.8	7.43e-01	0	43	104	0	30	32122
2026-01-13 10:53:16.15	353.57	8.95	-34.4	-53.4	3.8	7.44e-01	0	42	104	0	30	32046
2026-01-13 10:53:17.16	353.48	8.87	-34.4	-53.4	3.8	7.46e-01	0	42	104	0	30	32095
2026-01-13 10:53:18.17	353.38	8.79	-34.4	-53.4	3.8	7.47e-01	0	42	104	0	30	32097
2026-01-13 10:53:19.17	353.29	8.71	-34.4	-53.4	3.8	7.44e-01	0	42	104	0	30	32043
2026-01-13 10:53:20.16	353.20	8.64	-34.4	-53.4	3.8	7.46e-01	0	42	104	0	30	32075
2026-01-13 10:53:21.17	353.10	8.56	-34.4	-53.4	3.8	7.44e-01	0	42	104	0	30	32097
2026-01-13 10:53:22.17	353.01	8.48	-34.4	-53.4	3.8	7.47e-01	0	42	104	0	30	32041
2026-01-13 10:53:23.18	352.92	8.41	-34.4	-53.4	3.8	7.48e-01	0	42	104	0	30	32056
2026-01-13 10:53:24.19	352.83	8.33	-34.4	-53.4	3.8	7.46e-01	0	42	104	0	30	32096
2026-01-13 10:53:25.20	352.74	8.25	-34.4	-53.4	3.8	7.45e-01	0	42	104	0	30	32088
2026-01-13 10:53:26.21	352.65	8.18	-34.4	-53.4	3.8	7.45e-01	0	43	104	0	30	32107
2026-01-13 10:53:27.21	352.56	8.10	-34.4	-53.4	3.8	7.44e-01	0	42	104	0	30	32093
2026-01-13 10:53:28.22	352.47	8.03	-34.4	-53.4	3.8	7.44e-01	0	42	104	0	30	32002
2026-01-13 10:53:29.22	352.38	7.95	-34.4	-53.4	3.8	7.43e-01	0	42	104	0	30	32130
2026-01-13 10:53:30.23	352.29	7.87	-34.4	-53.4	3.8	7.46e-01	0	42	104	0	30	32083
2026-01-13 10:53:31.24	352.21	7.80	-34.4	-53.4	3.8	7.42e-01	0	42	104	0	30	32135
2026-01-13 10:53:32.25	352.12	7.72	-34.4	-53.4	3.8	7.47e-01	0	42	104	0	30	32046
2026-01-13 10:53:33.26	352.03	7.65	-34.4	-53.4	3.8	7.45e-01	0	43	104	0	30	32010
2026-01-13 10:53:34.26	351.95	7.57	-34.4	-53.4	3.8	7.46e-01	0	43	104	0	30	32102
2026-01-13 10:53:35.26	351.86	7.50	-34.4	-53.4	3.8	7.46e-01	0	42	104	0	30	32097
2026-01-13 10:53:36.27	351.78	7.42	-34.4	-53.4	3.8	7.44e-01	0	42	104	0	30	32072
2026-01-13 10:53:37.27	351.69	7.35	-34.4	-53.4	3.8	7.44e-01	0	42	104	0	30	32046
2026-01-13 10:53:38.28	351.61	7.28	-34.4	-53.4	3.8	7.45e-01	0	42	104	0	30	32159
2026-01-13 10:53:39.28	351.52	7.20	-34.4	-53.4	3.8	7.44e-01	0	42	104	0	30	32068
2026-01-13 10:53:40.28	351.44	7.13	-34.4	-53.4	3.8	7.44e-01	0	42	104	0	30	32098
2026-01-13 10:53:41.29	351.36	7.06	-34.4	-53.4	3.8	7.47e-01	0	42	104	0	30	32081
2026-01-13 10:53:42.30	351.28	6.98	-34.4	-53.4	3.8	7.47e-01	0	42	104	0	30	32058
2026-01-13 10:53:43.31	351.19	6.91	-34.4	-53.4	3.8	7.46e-01	0	43	104	0	30	32076

#Closed at: 2026-01-13 10:53:44
#Recorded file [0 MB]: D:/data/31010_260113_134421.dat