passes_logs/2026/01/13/R2M6_AANII_01/R2M6_AANII_01__20260113_025207_FENGYUN_3D_rec.log

#Pass ID: 20260113_025207_FENGYUN 3D
#Satellite: FENGYUN 3D
#Configuration: FENGYUN 3D
#almurnet v.1.7.20240730
#Start time: 2026-01-13 02:55:26

#Version: 2.2.20231116
#Station: R2M6_AANII_01
#Location: 30.233357 lon 59.946436 lat
#TLE: 1 43010U 17072A   26012.32543542  .00000598  00000+0  30457-3 0  9997
#TLE: 2 43010  98.9935 344.1005 0002233 112.6136 247.5276 14.19696644422876

#Time	Az	El	Level	Level2	SNR	BER	BlckErr	Temp	State	Recorded	gain1	gain2
2026-01-13 02:55:26.09	7.23	29.95	-33.8	-53.1	3.8	7.47e-01	0	42	0	0	28	33340
2026-01-13 02:55:27.08	7.12	30.13	-34.0	-44.5	3.8	8.46e-01	0	42	104	0	29	12042
2026-01-13 02:55:28.08	7.02	30.31	-34.0	-44.4	3.8	8.46e-01	0	42	104	0	29	12017
2026-01-13 02:55:29.07	6.91	30.50	-34.0	-44.5	3.8	8.47e-01	0	42	104	0	29	12064
2026-01-13 02:55:30.07	6.81	30.68	-34.0	-44.4	3.8	8.46e-01	0	42	104	0	29	11974
2026-01-13 02:55:31.07	6.70	30.87	-34.0	-44.5	3.8	8.47e-01	0	42	104	0	29	12058
2026-01-13 02:55:32.07	6.59	31.05	-34.0	-44.5	3.8	8.47e-01	0	42	104	0	29	12043
2026-01-13 02:55:33.08	6.47	31.24	-34.0	-44.5	3.8	8.46e-01	0	42	104	0	29	12052
2026-01-13 02:55:34.08	6.36	31.43	-34.0	-44.4	3.8	8.45e-01	0	42	104	0	29	12047
2026-01-13 02:55:35.09	6.25	31.63	-34.0	-44.5	3.8	8.46e-01	0	42	104	0	29	12069
2026-01-13 02:55:36.09	6.13	31.82	-33.9	-44.4	3.8	8.46e-01	0	42	104	0	29	12063
2026-01-13 02:55:37.10	6.01	32.01	-33.9	-44.4	3.8	8.46e-01	0	42	104	0	29	12039
2026-01-13 02:55:38.10	5.89	32.21	-33.9	-44.4	3.8	8.46e-01	0	42	104	0	29	12011
2026-01-13 02:55:39.10	5.77	32.40	-33.9	-44.4	3.8	8.46e-01	0	42	104	0	29	11997
2026-01-13 02:55:40.09	5.65	32.60	-33.9	-44.4	3.8	8.46e-01	0	42	104	0	29	12025
2026-01-13 02:55:41.08	5.53	32.79	-33.9	-44.4	3.8	8.46e-01	0	42	104	0	29	12041
2026-01-13 02:55:42.08	5.41	32.99	-33.9	-44.3	3.8	8.45e-01	0	42	104	0	29	11954
2026-01-13 02:55:43.08	5.28	33.19	-34.0	-44.5	3.8	8.46e-01	0	42	104	0	29	12066
2026-01-13 02:55:44.09	5.15	33.39	-34.0	-44.5	3.8	8.45e-01	0	42	104	0	29	12098
2026-01-13 02:55:45.10	5.02	33.60	-34.0	-44.5	3.8	8.47e-01	0	42	104	0	29	12107
2026-01-13 02:55:46.10	4.89	33.80	-34.0	-44.6	3.8	8.45e-01	0	42	104	0	29	12128
2026-01-13 02:55:47.10	4.76	34.00	-34.0	-44.6	3.8	8.47e-01	0	42	104	0	29	12156
2026-01-13 02:55:48.10	4.62	34.21	-34.0	-44.5	3.8	8.46e-01	0	42	104	0	29	12119
2026-01-13 02:55:49.10	4.49	34.42	-34.0	-44.5	3.8	8.46e-01	0	42	104	0	29	12110
2026-01-13 02:55:50.11	4.35	34.63	-34.0	-44.5	3.8	8.45e-01	0	42	104	0	29	12089
2026-01-13 02:55:51.11	4.21	34.83	-34.0	-44.5	3.8	8.46e-01	0	42	104	0	29	12098
2026-01-13 02:55:52.10	4.07	35.04	-33.9	-44.2	3.8	8.47e-01	0	42	104	0	29	11751
2026-01-13 02:55:53.11	3.92	35.26	-33.9	-44.2	3.8	8.46e-01	0	42	104	0	29	11746
2026-01-13 02:55:54.11	3.78	35.47	-33.7	-42.8	3.8	8.45e-01	0	42	104	0	28	10326
2026-01-13 02:55:55.10	3.63	35.68	-33.6	-42.7	3.8	8.45e-01	0	42	104	0	28	10165
2026-01-13 02:55:56.10	3.48	35.90	-33.6	-42.4	3.8	8.46e-01	0	42	104	0	28	9914
2026-01-13 02:55:57.11	3.33	36.11	-33.6	-42.3	4.0	8.45e-01	0	42	104	0	28	9771
2026-01-13 02:55:58.10	3.18	36.33	-33.6	-42.4	3.8	8.45e-01	0	42	104	0	28	9964
2026-01-13 02:55:59.11	3.02	36.55	-33.6	-42.7	3.9	8.44e-01	0	42	104	0	28	10203
2026-01-13 02:56:00.12	2.86	36.77	-33.7	-43.0	3.8	8.45e-01	0	42	104	0	28	10576
2026-01-13 02:56:01.11	2.70	36.99	-33.7	-43.1	3.8	8.45e-01	0	42	104	0	28	10646
2026-01-13 02:56:02.11	2.54	37.21	-33.6	-42.9	3.8	8.45e-01	0	42	104	0	28	10420
2026-01-13 02:56:03.11	2.37	37.44	-33.6	-42.4	3.8	8.44e-01	0	42	104	0	28	9877
2026-01-13 02:56:04.12	2.20	37.67	-33.5	-41.8	4.0	8.44e-01	0	42	104	0	28	9298
2026-01-13 02:56:05.12	2.03	37.89	-33.5	-41.4	4.1	8.41e-01	0	42	0	0	28	8967
2026-01-13 02:56:06.13	1.86	38.12	-33.4	-41.0	4.1	8.40e-01	0	42	0	0	28	8641
2026-01-13 02:56:07.13	1.69	38.35	-33.3	-40.1	4.4	8.35e-01	0	42	0	0	28	7888
2026-01-13 02:56:08.14	1.51	38.58	-33.1	-39.1	5.0	8.02e-01	0	42	0	0	27	7184
2026-01-13 02:56:09.15	1.33	38.82	-32.6	-37.5	6.0	4.25e-01	0	42	0	1048576	26	6329
2026-01-13 02:56:10.15	1.14	39.05	-32.1	-36.2	7.1	1.98e-01	0	42	0	7340032	25	5749
2026-01-13 02:56:11.14	0.96	39.28	-31.7	-35.4	8.0	9.96e-02	0	42	0	12582912	24	5506
2026-01-13 02:56:12.15	0.77	39.52	-31.8	-35.5	7.9	7.48e-02	0	42	0	17825792	24	5535
2026-01-13 02:56:13.15	0.58	39.75	-32.4	-37.7	6.5	1.57e-01	0	42	0	24117248	24	6660
2026-01-13 02:56:14.16	0.39	39.99	-33.4	-41.7	4.2	8.16e-01	0	42	0	26214400	26	9327
2026-01-13 02:56:15.17	0.19	40.24	-32.9	-38.5	5.1	8.28e-01	0	42	0	26214400	27	6837
2026-01-13 02:56:16.17	359.99	40.48	-30.5	-32.9	10.3	1.75e-02	0	42	0	31457280	22	4749
2026-01-13 02:56:17.17	359.79	40.72	-28.3	-29.4	13.8	5.14e-05	0	42	0	36700160	18	4100
2026-01-13 02:56:18.17	359.58	40.96	-26.8	-27.5	15.6	1.10e-06	0	42	0	42991616	15	3920
2026-01-13 02:56:19.17	359.37	41.20	-26.5	-27.4	15.9	0.00e+00	0	42	0	48234496	14	4000
2026-01-13 02:56:20.17	359.16	41.45	-27.2	-29.0	15.0	0.00e+00	0	42	0	53477376	14	4411
2026-01-13 02:56:21.17	358.95	41.69	-27.1	-28.7	15.2	0.00e+00	0	42	0	59768832	14	4323
2026-01-13 02:56:22.17	358.73	41.94	-26.7	-27.7	15.7	0.00e+00	0	42	0	65011712	14	4069
2026-01-13 02:56:23.18	358.51	42.19	-26.9	-28.3	15.4	0.00e+00	0	42	0	70254592	14	4205
2026-01-13 02:56:24.19	358.28	42.44	-26.3	-27.0	16.1	0.00e+00	0	42	0	76546048	14	3889
2026-01-13 02:56:25.19	358.05	42.69	-26.1	-26.9	16.4	0.00e+00	0	42	0	81788928	13	3962
2026-01-13 02:56:26.20	357.81	42.95	-26.0	-26.9	16.5	0.00e+00	0	42	0	88080384	13	3959
2026-01-13 02:56:27.19	357.58	43.20	-26.1	-26.9	16.4	0.00e+00	0	42	0	93323264	13	3979
2026-01-13 02:56:28.20	357.34	43.46	-26.2	-27.3	16.3	0.00e+00	0	42	0	98566144	13	4062
2026-01-13 02:56:29.20	357.09	43.71	-26.7	-28.3	15.7	0.00e+00	0	42	0	104857600	13	4321
2026-01-13 02:56:30.19	356.85	43.97	-25.8	-26.4	16.7	0.00e+00	0	42	0	110100480	13	3843
2026-01-13 02:56:31.19	356.60	44.22	-25.2	-25.9	17.6	0.00e+00	0	42	0	115343360	11	3937
2026-01-13 02:56:32.19	356.34	44.48	-24.8	-25.2	17.9	0.00e+00	0	42	0	121634816	11	3770
2026-01-13 02:56:33.19	356.08	44.74	-25.2	-26.0	17.5	0.00e+00	0	42	0	126877696	11	3954
2026-01-13 02:56:34.20	355.81	45.01	-24.8	-25.7	18.0	0.00e+00	0	42	0	133169152	10	3986
2026-01-13 02:56:35.21	355.54	45.27	-24.9	-26.0	17.8	0.00e+00	0	42	0	138412032	10	4065
2026-01-13 02:56:36.21	355.26	45.53	-24.7	-25.5	18.1	0.00e+00	0	42	0	143654912	10	3946
2026-01-13 02:56:37.21	354.99	45.80	-24.6	-25.2	18.2	0.00e+00	0	42	0	149946368	10	3873
2026-01-13 02:56:38.22	354.70	46.06	-24.5	-25.1	18.2	0.00e+00	0	42	0	155189248	10	3854
2026-01-13 02:56:39.21	354.41	46.33	-24.6	-25.3	18.1	0.00e+00	0	42	0	160432128	10	3902
2026-01-13 02:56:40.21	354.12	46.59	-24.3	-24.7	18.5	0.00e+00	0	42	0	166723584	10	3756
2026-01-13 02:56:41.21	353.82	46.86	-23.9	-24.3	18.9	0.00e+00	0	42	0	171966464	9	3774
2026-01-13 02:56:42.21	353.52	47.13	-23.7	-24.3	19.1	0.00e+00	0	42	0	178257920	8	3886
2026-01-13 02:56:43.20	353.21	47.40	-23.6	-24.1	19.2	0.00e+00	0	42	0	183500800	8	3834
2026-01-13 02:56:44.20	352.90	47.67	-23.8	-24.7	19.0	0.00e+00	0	42	0	188743680	8	3967
2026-01-13 02:56:45.21	352.58	47.94	-23.7	-24.3	19.1	0.00e+00	0	42	0	195035136	8	3876
2026-01-13 02:56:46.22	352.25	48.21	-23.6	-24.2	19.2	0.00e+00	0	42	0	200278016	8	3855
2026-01-13 02:56:47.22	351.92	48.49	-23.6	-24.2	19.2	0.00e+00	0	42	0	205520896	8	3849
2026-01-13 02:56:48.21	351.58	48.76	-23.6	-24.1	19.2	0.00e+00	0	42	0	211812352	8	3839
2026-01-13 02:56:49.21	351.24	49.03	-23.6	-24.2	19.2	0.00e+00	0	42	0	217055232	8	3852
2026-01-13 02:56:50.22	350.88	49.31	-23.7	-24.5	19.1	0.00e+00	0	42	0	222298112	8	3917
2026-01-13 02:56:51.21	350.53	49.58	-23.5	-24.0	19.3	0.00e+00	0	42	0	228589568	8	3813
2026-01-13 02:56:52.21	350.17	49.85	-23.5	-23.9	19.4	0.00e+00	0	42	0	233832448	8	3776
2026-01-13 02:56:53.22	349.80	50.13	-23.7	-24.4	19.1	0.00e+00	0	42	0	240123904	8	3893
2026-01-13 02:56:54.21	349.42	50.40	-24.0	-25.0	18.8	0.00e+00	0	42	0	245366784	8	4052
2026-01-13 02:56:55.21	349.04	50.68	-24.2	-25.4	18.6	0.00e+00	0	42	0	250609664	8	4147
2026-01-13 02:56:56.21	348.65	50.95	-24.1	-25.3	18.6	0.00e+00	0	42	0	256901120	8	4120
2026-01-13 02:56:57.22	348.25	51.23	-24.2	-25.4	18.6	0.00e+00	0	42	0	262144000	8	4137
2026-01-13 02:56:58.22	347.84	51.51	-24.1	-25.2	18.7	0.00e+00	0	42	0	267386880	8	4082
2026-01-13 02:56:59.22	347.43	51.79	-24.2	-25.4	18.6	0.00e+00	0	42	0	273678336	8	4141
2026-01-13 02:57:00.22	347.01	52.06	-23.9	-24.9	18.9	0.00e+00	0	42	0	278921216	8	4005
2026-01-13 02:57:01.22	346.58	52.34	-23.8	-24.6	19.0	0.00e+00	0	42	0	284164096	8	3927
2026-01-13 02:57:02.22	346.14	52.62	-23.8	-24.6	19.0	0.00e+00	0	42	0	290455552	8	3929
2026-01-13 02:57:03.23	345.69	52.90	-23.9	-24.8	18.9	0.00e+00	0	42	0	295698432	8	3985
2026-01-13 02:57:04.24	345.23	53.17	-23.9	-24.7	19.0	0.00e+00	0	42	0	301989888	8	3976
2026-01-13 02:57:05.25	344.77	53.45	-24.3	-25.6	18.5	0.00e+00	0	42	0	307232768	8	4193
2026-01-13 02:57:06.26	344.29	53.73	-24.4	-25.8	18.4	0.00e+00	0	42	0	313524224	8	4253
2026-01-13 02:57:07.26	343.81	54.01	-24.6	-25.9	18.1	0.00e+00	0	42	0	318767104	9	4145
2026-01-13 02:57:08.27	343.31	54.28	-24.6	-25.7	18.2	0.00e+00	0	42	0	324009984	9	4111
2026-01-13 02:57:09.28	342.81	54.56	-24.0	-24.5	18.8	0.00e+00	0	42	0	330301440	9	3802
2026-01-13 02:57:10.28	342.30	54.83	-23.8	-24.2	19.0	0.00e+00	0	42	0	335544320	9	3741
2026-01-13 02:57:11.28	341.78	55.10	-23.8	-24.5	19.0	0.00e+00	0	42	0	340787200	8	3922
2026-01-13 02:57:12.28	341.25	55.37	-23.9	-24.7	18.9	0.00e+00	0	42	0	347078656	8	3961
2026-01-13 02:57:13.29	340.70	55.64	-23.7	-24.4	19.1	0.00e+00	0	42	0	352321536	8	3893
2026-01-13 02:57:14.29	340.15	55.91	-23.8	-24.5	19.1	0.00e+00	0	42	0	358612992	8	3924
2026-01-13 02:57:15.30	339.59	56.18	-23.8	-24.6	19.0	0.00e+00	0	42	0	363855872	8	3953
2026-01-13 02:57:16.30	339.01	56.45	-23.9	-24.7	19.0	0.00e+00	0	42	0	369098752	8	3981
2026-01-13 02:57:17.31	338.42	56.71	-23.7	-24.4	19.1	0.00e+00	0	42	0	375390208	8	3906
2026-01-13 02:57:18.31	337.83	56.98	-23.8	-24.6	19.0	0.00e+00	0	42	0	380633088	8	3948
2026-01-13 02:57:19.31	337.22	57.24	-24.0	-24.9	18.8	0.00e+00	0	42	0	386924544	8	4031
2026-01-13 02:57:20.32	336.60	57.50	-23.6	-24.1	19.3	0.00e+00	0	42	0	392167424	8	3830
2026-01-13 02:57:21.33	335.96	57.76	-23.5	-23.9	19.4	0.00e+00	0	42	0	397410304	8	3780
2026-01-13 02:57:22.33	335.32	58.01	-23.6	-24.1	19.2	0.00e+00	0	42	0	403701760	8	3839
2026-01-13 02:57:23.33	334.66	58.26	-23.6	-24.1	19.3	0.00e+00	0	42	0	408944640	8	3825
2026-01-13 02:57:24.34	333.99	58.51	-23.5	-24.1	19.3	0.00e+00	0	42	0	415236096	8	3817
2026-01-13 02:57:25.35	333.30	58.76	-23.7	-24.3	19.2	0.00e+00	0	42	0	420478976	8	3861
2026-01-13 02:57:26.36	332.60	59.01	-23.7	-24.4	19.1	0.00e+00	0	42	0	425721856	8	3895
2026-01-13 02:57:27.36	331.90	59.25	-24.1	-25.2	18.7	0.00e+00	0	42	0	432013312	8	4100
2026-01-13 02:57:28.37	331.17	59.49	-24.1	-25.2	18.7	0.00e+00	0	42	0	437256192	8	4093
2026-01-13 02:57:29.38	330.43	59.72	-23.5	-23.9	19.3	0.00e+00	0	42	0	443547648	8	3787
2026-01-13 02:57:30.38	329.69	59.96	-23.2	-23.7	19.7	0.00e+00	0	42	0	448790528	7	3845
2026-01-13 02:57:31.38	328.93	60.18	-23.3	-24.0	19.5	0.00e+00	0	42	0	454033408	7	3907
2026-01-13 02:57:32.38	328.15	60.41	-23.3	-24.1	19.5	0.00e+00	0	42	0	460324864	7	3934
2026-01-13 02:57:33.39	327.36	60.63	-23.3	-24.1	19.5	0.00e+00	0	42	0	465567744	7	3925
2026-01-13 02:57:34.40	326.55	60.84	-23.1	-23.7	19.7	0.00e+00	0	42	0	471859200	7	3838
2026-01-13 02:57:35.40	325.74	61.05	-23.3	-24.0	19.6	0.00e+00	0	42	0	477102080	7	3916
2026-01-13 02:57:36.41	324.90	61.26	-23.3	-24.0	19.5	0.00e+00	0	42	0	482344960	7	3919
2026-01-13 02:57:37.41	324.06	61.46	-23.4	-24.2	19.4	0.00e+00	0	42	0	488636416	7	3955
2026-01-13 02:57:38.42	323.19	61.66	-23.3	-24.0	19.6	0.00e+00	0	42	0	493879296	7	3906
2026-01-13 02:57:39.43	322.32	61.86	-23.3	-24.1	19.5	0.00e+00	0	42	0	499122176	7	3930
2026-01-13 02:57:40.44	321.42	62.04	-23.5	-24.4	19.3	0.00e+00	0	42	0	505413632	7	4005
2026-01-13 02:57:41.44	320.53	62.22	-23.4	-24.2	19.4	0.00e+00	0	42	0	510656512	7	3964
2026-01-13 02:57:42.45	319.61	62.40	-22.9	-23.3	19.9	0.00e+00	0	42	0	516947968	7	3747
2026-01-13 02:57:43.45	318.69	62.57	-23.1	-23.5	19.7	0.00e+00	0	42	0	522190848	7	3801
2026-01-13 02:57:44.45	317.75	62.73	-23.2	-23.9	19.6	0.00e+00	0	42	0	528482304	7	3879
2026-01-13 02:57:45.46	316.79	62.89	-23.1	-23.7	19.7	0.00e+00	0	42	0	533725184	7	3844
2026-01-13 02:57:46.46	315.83	63.04	-23.1	-23.7	19.7	0.00e+00	0	42	0	538968064	7	3850
2026-01-13 02:57:47.47	314.85	63.19	-22.7	-23.3	20.1	0.00e+00	0	42	0	545259520	6	3851
2026-01-13 02:57:48.47	313.87	63.33	-22.4	-22.7	20.4	0.00e+00	0	42	0	550502400	6	3723
2026-01-13 02:57:49.47	312.87	63.46	-22.7	-23.2	20.2	0.00e+00	0	42	0	555745280	6	3836
2026-01-13 02:57:50.48	311.85	63.58	-22.7	-23.3	20.1	0.00e+00	0	42	0	562036736	6	3864
2026-01-13 02:57:51.49	310.83	63.70	-22.4	-22.6	20.4	0.00e+00	0	42	0	567279616	6	3707
2026-01-13 02:57:52.50	309.79	63.81	-22.4	-22.7	20.4	0.00e+00	0	42	0	573571072	6	3709
2026-01-13 02:57:53.50	308.75	63.91	-22.5	-22.8	20.3	0.00e+00	0	42	0	578813952	6	3758
2026-01-13 02:57:54.51	307.70	64.00	-22.5	-22.8	20.4	0.00e+00	0	42	0	584056832	6	3747
2026-01-13 02:57:55.52	306.63	64.09	-22.5	-22.8	20.4	0.00e+00	0	42	0	590348288	6	3738
2026-01-13 02:57:56.52	305.57	64.17	-22.3	-22.5	20.6	0.00e+00	0	42	0	595591168	6	3672
2026-01-13 02:57:57.54	304.48	64.24	-22.0	-22.4	20.8	0.00e+00	0	42	0	601882624	5	3764
2026-01-13 02:57:58.55	303.39	64.30	-22.0	-22.4	20.8	0.00e+00	0	42	0	607125504	5	3756
2026-01-13 02:57:59.54	302.33	64.36	-22.4	-23.1	20.5	0.00e+00	0	42	0	613416960	5	3915
2026-01-13 02:58:00.55	301.23	64.40	-22.5	-23.4	20.3	0.00e+00	0	42	0	618659840	5	3990
2026-01-13 02:58:01.55	300.14	64.44	-22.2	-22.8	20.6	0.00e+00	0	42	0	623902720	5	3848
2026-01-13 02:58:02.56	299.04	64.47	-21.9	-22.1	21.0	0.00e+00	0	42	0	630194176	5	3681
2026-01-13 02:58:03.57	297.93	64.49	-22.2	-22.7	20.7	0.00e+00	0	42	0	635437056	5	3828
2026-01-13 02:58:04.58	296.83	64.50	-22.4	-23.1	20.4	0.00e+00	0	42	0	640679936	5	3930
2026-01-13 02:58:05.58	295.73	64.51	-22.2	-22.8	20.6	0.00e+00	0	42	0	646971392	5	3842
2026-01-13 02:58:06.59	294.62	64.50	-22.0	-22.3	20.8	0.00e+00	0	42	0	652214272	5	3741
2026-01-13 02:58:07.59	293.52	64.49	-21.8	-21.9	21.0	0.00e+00	0	42	0	658505728	5	3645
2026-01-13 02:58:08.60	292.42	64.47	-21.6	-22.1	21.2	0.00e+00	0	42	0	663748608	4	3795
2026-01-13 02:58:09.61	291.32	64.44	-21.6	-22.1	21.2	0.00e+00	0	42	0	668991488	4	3799
2026-01-13 02:58:10.61	290.23	64.40	-21.7	-22.3	21.1	0.00e+00	0	42	0	675282944	4	3832
2026-01-13 02:58:11.61	289.14	64.35	-21.8	-22.4	21.0	0.00e+00	0	42	0	680525824	4	3868
2026-01-13 02:58:12.62	288.05	64.30	-21.8	-22.4	21.0	0.00e+00	0	42	0	686817280	4	3864
2026-01-13 02:58:13.63	286.97	64.23	-21.7	-22.3	21.0	1.10e-06	0	42	0	692060160	4	3851
2026-01-13 02:58:14.63	285.90	64.16	-21.7	-22.3	21.0	0.00e+00	0	42	0	697303040	4	3842
2026-01-13 02:58:15.64	284.83	64.08	-21.8	-22.4	21.0	0.00e+00	0	42	0	703594496	4	3863
2026-01-13 02:58:16.64	283.77	64.00	-21.8	-22.3	21.0	0.00e+00	0	42	0	708837376	4	3848
2026-01-13 02:58:17.65	282.72	63.90	-21.9	-22.6	20.9	0.00e+00	0	42	0	715128832	4	3919
2026-01-13 02:58:18.66	281.67	63.80	-22.1	-23.1	20.7	0.00e+00	0	42	0	720371712	4	4022
2026-01-13 02:58:19.67	280.63	63.69	-22.0	-22.9	20.7	0.00e+00	0	42	0	725614592	4	3991
2026-01-13 02:58:20.68	279.61	63.57	-22.0	-22.7	20.9	0.00e+00	0	42	0	731906048	4	3944
2026-01-13 02:58:21.68	278.60	63.44	-22.2	-23.2	20.6	0.00e+00	0	42	0	737148928	4	4046
2026-01-13 02:58:22.69	277.59	63.31	-22.4	-23.7	20.4	0.00e+00	0	42	0	742391808	4	4181
2026-01-13 02:58:23.69	276.61	63.17	-22.7	-23.8	20.1	0.00e+00	0	42	0	748683264	5	4086
2026-01-13 02:58:24.69	275.64	63.03	-22.7	-23.8	20.1	0.00e+00	0	42	0	753926144	5	4077
2026-01-13 02:58:25.69	274.68	62.88	-22.7	-23.9	20.1	0.00e+00	0	42	0	760217600	5	4100
2026-01-13 02:58:26.69	273.73	62.72	-22.6	-23.6	20.1	0.00e+00	0	42	0	765460480	5	4042
2026-01-13 02:58:27.69	272.79	62.55	-22.5	-23.5	20.2	0.00e+00	0	42	0	771751936	5	4002
2026-01-13 02:58:28.70	271.86	62.38	-22.5	-23.4	20.2	0.00e+00	0	42	0	776994816	5	3997
2026-01-13 02:58:29.70	270.95	62.21	-22.7	-23.7	20.1	0.00e+00	0	42	0	782237696	5	4063
2026-01-13 02:58:30.71	270.05	62.02	-22.6	-23.5	20.2	0.00e+00	0	42	0	788529152	5	4021
2026-01-13 02:58:31.71	269.16	61.84	-22.3	-23.0	20.5	0.00e+00	0	42	0	793772032	5	3886
2026-01-13 02:58:32.72	268.29	61.64	-22.4	-23.2	20.3	0.00e+00	0	42	0	799014912	5	3946
2026-01-13 02:58:33.72	267.43	61.45	-22.7	-23.9	20.0	0.00e+00	0	42	0	805306368	5	4101
2026-01-13 02:58:34.73	266.58	61.24	-22.8	-24.1	19.9	3.40e-06	0	42	0	810549248	5	4166
2026-01-13 02:58:35.74	265.74	61.03	-22.6	-23.6	20.1	0.00e+00	0	42	0	815792128	5	4033
2026-01-13 02:58:36.75	264.92	60.82	-22.5	-23.3	20.3	0.00e+00	0	42	0	822083584	5	3959
2026-01-13 02:58:37.75	264.12	60.60	-22.9	-24.3	19.8	0.00e+00	0	42	0	827326464	5	4211
2026-01-13 02:58:38.76	263.33	60.38	-23.1	-24.1	19.7	0.00e+00	0	42	0	833617920	6	4043
2026-01-13 02:58:39.76	262.55	60.16	-23.0	-23.9	19.7	0.00e+00	0	42	0	838860800	6	4002
2026-01-13 02:58:40.76	261.80	59.93	-23.1	-24.2	19.6	0.00e+00	0	42	0	845152256	6	4060
2026-01-13 02:58:41.77	261.04	59.70	-22.9	-23.7	19.8	0.00e+00	0	42	0	850395136	6	3961
2026-01-13 02:58:42.77	260.31	59.46	-23.0	-23.8	19.8	0.00e+00	0	42	0	855638016	6	3979
2026-01-13 02:58:43.77	259.59	59.22	-23.3	-24.5	19.5	0.00e+00	0	42	0	861929472	6	4153
2026-01-13 02:58:44.78	258.88	58.98	-23.0	-24.0	19.7	0.00e+00	0	42	0	867172352	6	4012
2026-01-13 02:58:45.79	258.18	58.73	-22.9	-23.7	19.8	0.00e+00	0	42	0	872415232	6	3946
2026-01-13 02:58:46.78	257.50	58.49	-23.4	-24.7	19.3	0.00e+00	0	42	0	878706688	6	4189
2026-01-13 02:58:47.79	256.83	58.23	-23.5	-24.5	19.2	0.00e+00	0	42	0	883949568	7	4028
2026-01-13 02:58:48.80	256.17	57.98	-22.8	-23.0	19.9	0.00e+00	0	42	0	890241024	7	3673
2026-01-13 02:58:49.80	255.53	57.73	-22.5	-22.8	20.2	0.00e+00	0	42	0	895483904	6	3747
2026-01-13 02:58:50.81	254.89	57.47	-22.9	-23.7	19.8	0.00e+00	0	42	0	900726784	6	3948
2026-01-13 02:58:51.82	254.26	57.20	-23.0	-24.0	19.7	0.00e+00	0	42	0	907018240	6	4021
2026-01-13 02:58:52.83	253.65	56.94	-22.9	-23.6	19.8	0.00e+00	0	42	0	912261120	6	3931
2026-01-13 02:58:53.83	253.06	56.68	-23.0	-23.9	19.7	0.00e+00	0	42	0	918552576	6	3987
2026-01-13 02:58:54.84	252.47	56.41	-23.1	-24.1	19.6	0.00e+00	0	42	0	923795456	6	4043
2026-01-13 02:58:55.84	251.89	56.14	-23.0	-24.0	19.6	0.00e+00	0	42	0	929038336	6	4011
2026-01-13 02:58:56.84	251.33	55.88	-23.0	-24.0	19.7	0.00e+00	0	42	0	935329792	6	4018
2026-01-13 02:58:57.85	250.78	55.60	-23.0	-23.9	19.7	0.00e+00	0	42	0	940572672	6	3993
2026-01-13 02:58:58.85	250.24	55.33	-23.2	-24.4	19.5	0.00e+00	0	42	0	946864128	6	4109
2026-01-13 02:58:59.86	249.70	55.06	-23.2	-24.3	19.5	0.00e+00	0	42	0	952107008	6	4100
2026-01-13 02:59:00.86	249.18	54.79	-23.2	-24.3	19.5	0.00e+00	0	42	0	957349888	6	4101
2026-01-13 02:59:01.86	248.67	54.51	-23.3	-24.6	19.3	0.00e+00	0	42	0	963641344	6	4179
2026-01-13 02:59:02.87	248.17	54.24	-23.3	-24.5	19.4	0.00e+00	0	42	0	968884224	6	4148
2026-01-13 02:59:03.87	247.68	53.96	-23.2	-24.3	19.5	0.00e+00	0	42	0	974127104	6	4106
2026-01-13 02:59:04.88	247.19	53.68	-23.3	-24.5	19.4	0.00e+00	0	42	0	980418560	6	4132
2026-01-13 02:59:05.89	246.71	53.40	-23.5	-24.5	19.1	0.00e+00	0	42	0	985661440	7	4031
2026-01-13 02:59:06.89	246.25	53.13	-23.3	-23.9	19.4	0.00e+00	0	42	0	991952896	7	3899
2026-01-13 02:59:07.89	245.80	52.85	-23.5	-24.4	19.2	0.00e+00	0	42	0	997195776	7	4004
2026-01-13 02:59:08.90	245.35	52.57	-23.4	-24.2	19.3	0.00e+00	0	42	0	1003487232	7	3970
2026-01-13 02:59:09.91	244.91	52.29	-23.4	-24.3	19.2	0.00e+00	0	42	0	1008730112	7	3975
2026-01-13 02:59:10.91	244.48	52.01	-23.4	-24.2	19.3	0.00e+00	0	42	0	1013972992	7	3946
2026-01-13 02:59:11.91	244.06	51.74	-23.8	-25.1	18.8	0.00e+00	0	42	0	1020264448	7	4172
2026-01-13 02:59:12.92	243.64	51.46	-23.6	-24.6	19.0	0.00e+00	0	42	0	1025507328	7	4068
2026-01-13 02:59:13.92	243.23	51.18	-23.3	-24.1	19.3	0.00e+00	0	42	0	1030750208	7	3926
2026-01-13 02:59:14.92	242.84	50.90	-23.3	-24.1	19.3	0.00e+00	0	42	0	1037041664	7	3929
2026-01-13 02:59:15.93	242.44	50.62	-23.2	-23.8	19.4	0.00e+00	0	42	0	1042284544	7	3862
2026-01-13 02:59:16.94	242.05	50.34	-23.0	-23.3	19.7	0.00e+00	0	42	0	1047527424	7	3756
2026-01-13 02:59:17.94	241.68	50.07	-23.0	-23.4	19.6	0.00e+00	0	42	0	1053818880	7	3776
2026-01-13 02:59:18.94	241.31	49.79	-23.1	-23.7	19.5	0.00e+00	0	42	0	1059061760	7	3839
2026-01-13 02:59:19.95	240.94	49.51	-23.2	-23.9	19.4	0.00e+00	0	42	0	1065353216	7	3905
2026-01-13 02:59:20.96	240.58	49.23	-22.9	-23.2	19.7	0.00e+00	0	42	0	1070596096	7	3741
2026-01-13 02:59:21.97	240.23	48.96	-22.8	-23.0	19.8	0.00e+00	0	42	0	1076887552	7	3691
2026-01-13 02:59:22.97	239.88	48.68	-22.9	-23.2	19.7	0.00e+00	0	42	0	1082130432	7	3732
2026-01-13 02:59:23.98	239.54	48.40	-22.8	-23.0	19.8	0.00e+00	0	42	0	1087373312	7	3679
2026-01-13 02:59:24.98	239.21	48.13	-22.9	-23.7	19.7	0.00e+00	0	42	0	1093664768	6	3947
2026-01-13 02:59:25.99	238.88	47.86	-22.9	-23.6	19.7	0.00e+00	0	42	0	1098907648	6	3941
2026-01-13 02:59:26.99	238.56	47.59	-22.8	-23.4	19.9	0.00e+00	0	42	0	1105199104	6	3891
2026-01-13 02:59:28.00	238.25	47.31	-22.9	-23.7	19.7	0.00e+00	0	42	0	1110441984	6	3952
2026-01-13 02:59:29.01	237.93	47.04	-22.5	-22.8	20.2	0.00e+00	0	42	0	1115684864	6	3746
2026-01-13 02:59:30.02	237.63	46.77	-22.2	-22.8	20.4	0.00e+00	0	42	0	1121976320	5	3860
2026-01-13 02:59:31.02	237.33	46.50	-22.2	-22.8	20.4	0.00e+00	0	42	0	1127219200	5	3856
2026-01-13 02:59:32.03	237.03	46.23	-22.3	-23.0	20.3	0.00e+00	0	42	0	1132462080	5	3897
2026-01-13 02:59:33.04	236.74	45.96	-22.5	-23.3	20.1	0.00e+00	0	42	0	1138753536	5	3979
2026-01-13 02:59:34.04	236.46	45.69	-22.3	-23.0	20.3	0.00e+00	0	42	0	1143996416	5	3885
2026-01-13 02:59:35.05	236.18	45.43	-22.2	-22.8	20.4	0.00e+00	0	42	0	1150287872	5	3847
2026-01-13 02:59:36.05	235.91	45.16	-22.4	-23.1	20.2	0.00e+00	0	42	0	1155530752	5	3915
2026-01-13 02:59:37.05	235.64	44.90	-22.3	-23.0	20.3	1.10e-06	0	42	0	1161822208	5	3887
2026-01-13 02:59:38.06	235.37	44.64	-22.5	-23.3	20.1	0.00e+00	0	42	0	1167065088	5	3972
2026-01-13 02:59:39.06	235.11	44.38	-22.5	-23.4	20.0	0.00e+00	0	42	0	1172307968	5	4000
2026-01-13 02:59:40.07	234.85	44.11	-22.5	-23.4	20.1	0.00e+00	0	42	0	1178599424	5	3987
2026-01-13 02:59:41.07	234.60	43.86	-22.5	-23.4	20.0	0.00e+00	0	42	0	1183842304	5	4005
2026-01-13 02:59:42.07	234.35	43.60	-22.8	-24.0	19.8	0.00e+00	0	42	0	1189085184	5	4129
2026-01-13 02:59:43.08	234.10	43.34	-22.4	-23.2	20.2	0.00e+00	0	42	0	1195376640	5	3938
2026-01-13 02:59:44.09	233.86	43.08	-22.1	-22.6	20.4	0.00e+00	0	42	0	1200619520	5	3814
2026-01-13 02:59:45.09	233.63	42.83	-22.0	-22.4	20.5	0.00e+00	0	42	0	1206910976	5	3761
2026-01-13 02:59:46.10	233.39	42.57	-22.1	-22.6	20.4	0.00e+00	0	42	0	1212153856	5	3814
2026-01-13 02:59:47.10	233.16	42.32	-22.1	-22.7	20.4	0.00e+00	0	42	0	1217396736	5	3816
2026-01-13 02:59:48.11	232.94	42.07	-22.3	-22.9	20.3	0.00e+00	0	42	0	1223688192	5	3882
2026-01-13 02:59:49.11	232.71	41.82	-22.3	-23.0	20.3	0.00e+00	0	42	0	1228931072	5	3911
2026-01-13 02:59:50.11	232.50	41.57	-22.3	-23.0	20.3	0.00e+00	0	42	0	1235222528	5	3900
2026-01-13 02:59:51.12	232.28	41.32	-22.2	-22.8	20.4	0.00e+00	0	42	0	1240465408	5	3844
2026-01-13 02:59:52.12	232.07	41.08	-22.2	-22.9	20.3	0.00e+00	0	42	0	1245708288	5	3863
2026-01-13 02:59:53.13	231.86	40.83	-22.1	-22.6	20.4	0.00e+00	0	42	0	1251999744	5	3815
2026-01-13 02:59:54.13	231.65	40.59	-22.2	-22.8	20.4	0.00e+00	0	42	0	1257242624	5	3841
2026-01-13 02:59:55.14	231.45	40.34	-22.2	-22.7	20.4	0.00e+00	0	42	0	1263534080	5	3825
2026-01-13 02:59:56.15	231.25	40.10	-22.3	-23.0	20.3	0.00e+00	0	42	0	1268776960	5	3896
2026-01-13 02:59:57.15	231.05	39.86	-22.2	-22.7	20.4	0.00e+00	0	42	0	1274019840	5	3829
2026-01-13 02:59:58.16	230.86	39.62	-22.3	-23.0	20.2	0.00e+00	0	42	0	1280311296	5	3900
2026-01-13 02:59:59.17	230.67	39.38	-22.4	-23.1	20.2	0.00e+00	0	42	0	1285554176	5	3931
2026-01-13 03:00:00.18	230.48	39.14	-22.5	-23.4	20.1	0.00e+00	0	42	0	1290797056	5	3987
2026-01-13 03:00:01.18	230.29	38.91	-22.3	-23.0	20.2	0.00e+00	0	42	0	1297088512	5	3912
2026-01-13 03:00:02.18	230.11	38.68	-22.4	-23.2	20.1	0.00e+00	0	42	0	1302331392	5	3951
2026-01-13 03:00:03.19	229.93	38.44	-22.4	-23.2	20.1	0.00e+00	0	42	0	1308622848	5	3947
2026-01-13 03:00:04.19	229.75	38.21	-22.2	-22.8	20.3	0.00e+00	0	42	0	1313865728	5	3859
2026-01-13 03:00:05.20	229.58	37.98	-22.1	-22.6	20.4	0.00e+00	0	42	0	1320157184	5	3817
2026-01-13 03:00:06.21	229.40	37.75	-22.2	-22.8	20.3	0.00e+00	0	42	0	1325400064	5	3851
2026-01-13 03:00:07.22	229.23	37.52	-22.3	-23.0	20.2	0.00e+00	0	42	0	1330642944	5	3909
2026-01-13 03:00:08.22	229.06	37.30	-22.5	-23.4	20.0	0.00e+00	0	42	0	1336934400	5	4000
2026-01-13 03:00:09.23	228.90	37.07	-22.6	-23.6	19.9	0.00e+00	0	42	0	1342177280	5	4036
2026-01-13 03:00:10.23	228.74	36.85	-22.5	-23.4	20.0	0.00e+00	0	42	0	1347420160	5	4009
2026-01-13 03:00:11.23	228.58	36.62	-22.5	-23.3	20.1	0.00e+00	0	42	0	1353711616	5	3974
2026-01-13 03:00:12.24	228.42	36.40	-22.5	-23.3	20.1	0.00e+00	0	42	0	1358954496	5	3973
2026-01-13 03:00:13.25	228.26	36.18	-22.6	-23.6	19.9	0.00e+00	0	42	0	1365245952	5	4042
2026-01-13 03:00:14.26	228.10	35.96	-22.5	-23.3	20.0	0.00e+00	0	42	0	1370488832	5	3979
2026-01-13 03:00:15.26	227.95	35.74	-22.5	-23.4	20.0	0.00e+00	0	42	0	1375731712	5	3986
2026-01-13 03:00:16.27	227.80	35.53	-22.6	-23.6	19.9	0.00e+00	0	42	0	1382023168	5	4057
2026-01-13 03:00:17.28	227.65	35.31	-22.4	-23.3	20.0	0.00e+00	0	42	0	1387266048	5	3973
2026-01-13 03:00:18.28	227.51	35.10	-22.4	-23.3	20.1	0.00e+00	0	42	0	1393557504	5	3962
2026-01-13 03:00:19.28	227.36	34.88	-22.4	-23.2	20.1	0.00e+00	0	43	0	1398800384	5	3939
2026-01-13 03:00:20.29	227.22	34.67	-22.2	-22.7	20.3	0.00e+00	0	42	0	1404043264	5	3824
2026-01-13 03:00:21.29	227.08	34.46	-22.1	-22.6	20.4	0.00e+00	0	42	0	1410334720	5	3805
2026-01-13 03:00:22.29	226.94	34.25	-22.2	-22.7	20.3	0.00e+00	0	42	0	1415577600	5	3826
2026-01-13 03:00:23.30	226.81	34.05	-22.3	-23.0	20.1	0.00e+00	0	42	0	1421869056	5	3898
2026-01-13 03:00:24.30	226.67	33.84	-22.4	-23.3	20.0	0.00e+00	0	42	0	1427111936	5	3961
2026-01-13 03:00:25.31	226.54	33.63	-22.5	-23.5	19.9	0.00e+00	0	42	0	1432354816	5	4014
2026-01-13 03:00:26.32	226.41	33.43	-22.8	-24.1	19.6	0.00e+00	0	42	0	1438646272	5	4164
2026-01-13 03:00:27.33	226.28	33.22	-22.9	-24.3	19.5	0.00e+00	0	42	0	1443889152	5	4219
2026-01-13 03:00:28.33	226.15	33.02	-22.7	-23.9	19.7	0.00e+00	0	42	0	1449132032	5	4126
2026-01-13 03:00:29.33	226.02	32.82	-22.7	-23.9	19.7	0.00e+00	0	42	0	1455423488	5	4130
2026-01-13 03:00:30.34	225.90	32.62	-22.8	-24.0	19.6	0.00e+00	0	42	0	1460666368	5	4140
2026-01-13 03:00:31.34	225.77	32.42	-22.6	-23.7	19.8	0.00e+00	0	42	0	1466957824	5	4064
2026-01-13 03:00:32.35	225.65	32.23	-22.6	-23.6	19.8	0.00e+00	0	42	0	1472200704	5	4052
2026-01-13 03:00:33.35	225.53	32.03	-22.6	-23.7	19.8	0.00e+00	0	42	0	1478492160	5	4063
2026-01-13 03:00:34.36	225.41	31.83	-22.7	-23.8	19.7	0.00e+00	0	42	0	1483735040	5	4099
2026-01-13 03:00:35.37	225.29	31.64	-22.8	-24.0	19.6	0.00e+00	0	42	0	1488977920	5	4131
2026-01-13 03:00:36.37	225.18	31.45	-22.5	-23.5	19.9	0.00e+00	0	42	0	1495269376	5	4012
2026-01-13 03:00:37.37	225.06	31.26	-22.5	-23.4	19.9	0.00e+00	0	42	0	1500512256	5	4002
2026-01-13 03:00:38.38	224.95	31.06	-22.6	-23.5	19.8	0.00e+00	0	42	0	1505755136	5	4029
2026-01-13 03:00:39.38	224.84	30.88	-22.6	-23.6	19.8	0.00e+00	0	42	0	1512046592	5	4040
2026-01-13 03:00:40.38	224.73	30.69	-22.7	-23.8	19.7	0.00e+00	0	42	0	1517289472	5	4103
2026-01-13 03:00:41.38	224.62	30.50	-22.7	-23.8	19.7	0.00e+00	0	42	0	1522532352	5	4101
2026-01-13 03:00:42.39	224.51	30.32	-22.8	-24.0	19.6	0.00e+00	0	42	0	1528823808	5	4144
2026-01-13 03:00:43.39	224.40	30.13	-22.7	-23.8	19.7	0.00e+00	0	42	0	1534066688	5	4089
2026-01-13 03:00:44.40	224.30	29.95	-22.7	-23.8	19.7	0.00e+00	0	42	0	1540358144	5	4095
2026-01-13 03:00:45.41	224.19	29.76	-22.7	-23.8	19.7	0.00e+00	0	42	0	1545601024	5	4100
2026-01-13 03:00:46.40	224.09	29.58	-22.7	-23.9	19.7	0.00e+00	0	42	0	1551892480	5	4108
2026-01-13 03:00:47.41	223.99	29.40	-22.7	-23.9	19.6	0.00e+00	0	43	0	1557135360	5	4122
2026-01-13 03:00:48.41	223.89	29.22	-22.7	-23.8	19.7	0.00e+00	0	42	0	1562378240	5	4100
2026-01-13 03:00:49.42	223.79	29.04	-22.8	-24.0	19.6	0.00e+00	0	42	0	1568669696	5	4151
2026-01-13 03:00:50.43	223.69	28.86	-22.7	-23.9	19.7	0.00e+00	0	42	0	1573912576	5	4106
2026-01-13 03:00:51.43	223.59	28.69	-22.7	-23.8	19.7	0.00e+00	0	42	0	1579155456	5	4103
2026-01-13 03:00:52.44	223.49	28.51	-22.7	-23.9	19.6	0.00e+00	0	42	0	1585446912	5	4104
2026-01-13 03:00:53.44	223.40	28.34	-22.8	-24.0	19.6	0.00e+00	0	42	0	1590689792	5	4134
2026-01-13 03:00:54.45	223.30	28.16	-22.7	-23.9	19.6	0.00e+00	0	42	0	1596981248	5	4116
2026-01-13 03:00:55.46	223.21	27.99	-22.7	-23.9	19.6	0.00e+00	0	42	0	1602224128	5	4117
2026-01-13 03:00:56.46	223.12	27.82	-22.8	-24.0	19.6	0.00e+00	0	42	0	1607467008	5	4128
2026-01-13 03:00:57.47	223.03	27.65	-22.7	-23.8	19.7	0.00e+00	0	42	0	1613758464	5	4090
2026-01-13 03:00:58.47	222.94	27.48	-22.8	-24.0	19.6	0.00e+00	0	42	0	1619001344	5	4153
2026-01-13 03:00:59.47	222.85	27.31	-22.8	-24.1	19.5	0.00e+00	0	42	0	1625292800	5	4167
2026-01-13 03:01:00.48	222.76	27.14	-22.8	-24.0	19.6	0.00e+00	0	42	0	1630535680	5	4130
2026-01-13 03:01:01.49	222.67	26.97	-22.8	-24.1	19.5	0.00e+00	0	42	0	1636827136	5	4154
2026-01-13 03:01:02.50	222.59	26.81	-22.8	-24.1	19.5	0.00e+00	0	42	0	1642070016	5	4162
2026-01-13 03:01:03.50	222.50	26.64	-22.8	-24.0	19.6	0.00e+00	0	42	0	1647312896	5	4133
2026-01-13 03:01:04.51	222.42	26.48	-22.9	-24.2	19.5	0.00e+00	0	42	0	1653604352	5	4193
2026-01-13 03:01:05.52	222.33	26.31	-22.9	-24.2	19.4	0.00e+00	0	42	0	1658847232	5	4203
2026-01-13 03:01:06.52	222.25	26.15	-22.9	-24.2	19.4	0.00e+00	0	42	0	1664090112	5	4197
2026-01-13 03:01:07.53	222.17	25.99	-23.0	-24.1	19.3	0.00e+00	0	42	0	1670381568	6	4046
2026-01-13 03:01:08.54	222.09	25.83	-23.1	-24.2	19.2	0.00e+00	0	42	0	1675624448	6	4084
2026-01-13 03:01:09.54	222.01	25.67	-23.2	-24.3	19.1	0.00e+00	0	42	0	1681915904	6	4104
2026-01-13 03:01:10.55	221.93	25.51	-23.2	-24.3	19.1	0.00e+00	0	42	0	1687158784	6	4112
2026-01-13 03:01:11.55	221.85	25.35	-23.2	-24.4	19.1	0.00e+00	0	42	0	1692401664	6	4129
2026-01-13 03:01:12.56	221.77	25.20	-23.1	-24.2	19.2	0.00e+00	0	42	0	1698693120	6	4080
2026-01-13 03:01:13.57	221.69	25.04	-23.1	-24.2	19.2	0.00e+00	0	42	0	1703936000	6	4075
2026-01-13 03:01:14.58	221.62	24.88	-23.3	-24.6	19.0	0.00e+00	0	42	0	1710227456	6	4183
2026-01-13 03:01:15.58	221.54	24.73	-23.3	-24.5	19.0	0.00e+00	0	42	0	1715470336	6	4159
2026-01-13 03:01:16.58	221.47	24.58	-23.1	-24.3	19.1	0.00e+00	0	42	0	1720713216	6	4096
2026-01-13 03:01:17.59	221.39	24.42	-23.0	-24.0	19.2	0.00e+00	0	42	0	1727004672	6	4043
2026-01-13 03:01:18.60	221.32	24.27	-23.1	-24.1	19.2	0.00e+00	0	42	0	1732247552	6	4056
2026-01-13 03:01:19.60	221.25	24.12	-23.1	-24.2	19.2	0.00e+00	0	42	0	1738539008	6	4083
2026-01-13 03:01:20.61	221.18	23.97	-23.1	-24.2	19.1	3.40e-06	0	42	0	1743781888	6	4081
2026-01-13 03:01:21.62	221.10	23.82	-23.2	-24.4	19.0	0.00e+00	0	42	0	1749024768	6	4137
2026-01-13 03:01:22.62	221.03	23.67	-23.2	-24.5	19.0	0.00e+00	0	42	0	1755316224	6	4144
2026-01-13 03:01:23.63	220.96	23.52	-23.3	-24.6	18.9	3.40e-06	0	42	0	1760559104	6	4191
2026-01-13 03:01:24.64	220.90	23.38	-23.3	-24.6	18.9	0.00e+00	0	42	0	1765801984	6	4178
2026-01-13 03:01:25.65	220.83	23.23	-23.3	-24.5	19.0	0.00e+00	0	42	0	1772093440	6	4164
2026-01-13 03:01:26.66	220.76	23.08	-23.2	-24.5	19.0	0.00e+00	0	42	0	1777336320	6	4161
2026-01-13 03:01:27.65	220.69	22.94	-23.3	-24.7	18.9	0.00e+00	0	42	0	1783627776	6	4205
2026-01-13 03:01:28.66	220.63	22.80	-23.3	-24.5	19.0	0.00e+00	0	42	0	1788870656	6	4165
2026-01-13 03:01:29.67	220.56	22.65	-23.2	-24.5	19.0	5.70e-06	0	42	0	1795162112	6	4148
2026-01-13 03:01:30.68	220.50	22.51	-23.3	-24.6	18.9	0.00e+00	0	42	0	1800404992	6	4171
2026-01-13 03:01:31.69	220.43	22.37	-23.3	-24.6	18.9	0.00e+00	0	42	0	1805647872	6	4175
2026-01-13 03:01:32.69	220.37	22.23	-23.3	-24.5	18.9	5.70e-06	0	42	0	1811939328	6	4160
2026-01-13 03:01:33.70	220.30	22.09	-23.3	-24.7	18.9	0.00e+00	0	42	0	1817182208	6	4203
2026-01-13 03:01:34.46	220.26	21.98	-23.3	-24.6	18.9	0.00e+00	0	42	0	1823473664	6	4186
2026-01-13 03:01:35.75	220.18	21.80	-23.5	-25.0	18.7	0.00e+00	0	42	0	1830813696	6	4269
2026-01-13 03:01:36.47	220.13	21.70	-23.4	-24.8	18.8	0.00e+00	0	43	0	1833959424	6	4221
2026-01-13 03:01:37.76	220.05	21.53	-23.3	-24.6	18.8	0.00e+00	0	42	0	1841299456	6	4185
2026-01-13 03:01:38.48	220.01	21.43	-23.4	-24.7	18.8	0.00e+00	0	42	0	1845493760	6	4209
2026-01-13 03:01:39.77	219.93	21.25	-23.4	-24.7	18.8	0.00e+00	0	42	0	1852833792	6	4212
2026-01-13 03:01:40.50	219.89	21.16	-23.4	-24.8	18.8	0.00e+00	0	42	0	1857028096	6	4224
2026-01-13 03:01:41.79	219.82	20.98	-23.5	-25.0	18.7	0.00e+00	0	42	0	1864368128	6	4272
2026-01-13 03:01:42.50	219.78	20.89	-23.5	-24.5	18.6	0.00e+00	0	42	0	1868562432	7	4047
2026-01-13 03:01:43.79	219.70	20.72	-23.6	-24.8	18.5	0.00e+00	0	42	0	1875902464	7	4115
2026-01-13 03:01:44.51	219.66	20.62	-23.6	-24.7	18.5	0.00e+00	0	42	0	1880096768	7	4098
2026-01-13 03:01:45.81	219.59	20.45	-23.7	-25.0	18.4	0.00e+00	0	42	0	1887436800	7	4170
2026-01-13 03:01:46.53	219.55	20.36	-23.7	-25.0	18.4	0.00e+00	0	42	0	1890582528	7	4157
2026-01-13 03:01:47.82	219.48	20.19	-23.7	-25.0	18.4	0.00e+00	0	42	0	1897922560	7	4176
2026-01-13 03:01:48.54	219.44	20.10	-23.8	-25.1	18.3	0.00e+00	0	42	0	1902116864	7	4204
2026-01-13 03:01:49.84	219.37	19.93	-23.9	-25.5	18.1	0.00e+00	0	42	0	1909456896	7	4296
2026-01-13 03:01:50.57	219.33	19.84	-23.9	-25.4	18.2	0.00e+00	0	42	0	1913651200	7	4273
2026-01-13 03:01:51.86	219.26	19.67	-23.9	-25.5	18.1	0.00e+00	0	42	0	1920991232	7	4299
2026-01-13 03:01:52.58	219.22	19.58	-23.9	-25.4	18.1	0.00e+00	0	42	0	1925185536	7	4290
2026-01-13 03:01:53.87	219.15	19.42	-24.2	-25.5	17.9	0.00e+00	0	42	0	1932525568	8	4181
2026-01-13 03:01:54.59	219.11	19.33	-24.2	-25.6	17.8	0.00e+00	0	42	0	1935671296	8	4225
2026-01-13 03:01:55.88	219.05	19.17	-24.1	-25.3	18.0	5.70e-06	0	42	0	1943011328	8	4139
2026-01-13 03:01:56.60	219.01	19.08	-24.0	-25.1	18.1	0.00e+00	0	42	0	1947205632	8	4085
2026-01-13 03:01:57.90	218.94	18.92	-24.2	-25.5	17.8	0.00e+00	0	42	0	1954545664	8	4198
2026-01-13 03:01:58.62	218.91	18.83	-24.1	-25.4	17.9	0.00e+00	0	42	0	1958739968	8	4163
2026-01-13 03:01:59.91	218.84	18.67	-24.1	-25.3	17.9	0.00e+00	0	42	0	1966080000	8	4144
2026-01-13 03:02:00.63	218.81	18.58	-24.3	-25.6	17.8	0.00e+00	0	42	0	1970274304	8	4219
2026-01-13 03:02:01.92	218.75	18.43	-24.0	-25.1	18.0	2.20e-06	0	42	0	1977614336	8	4091
2026-01-13 03:02:02.63	218.71	18.34	-24.0	-25.0	18.1	0.00e+00	0	42	0	1981808640	8	4060
2026-01-13 03:02:03.92	218.65	18.19	-24.0	-25.1	18.0	0.00e+00	0	42	0	1989148672	8	4072
2026-01-13 03:02:04.64	218.61	18.10	-23.9	-25.0	18.1	0.00e+00	0	42	0	1993342976	8	4047
2026-01-13 03:02:05.93	218.55	17.95	-23.9	-24.9	18.1	0.00e+00	0	42	0	1999634432	8	4033
2026-01-13 03:02:06.66	218.52	17.86	-24.1	-25.3	17.9	0.00e+00	0	42	0	2003828736	8	4136
2026-01-13 03:02:07.96	218.46	17.71	-24.0	-25.0	18.1	6.80e-06	0	42	0	2011168768	8	4052
2026-01-13 03:02:08.68	218.43	17.62	-23.9	-24.9	18.1	0.00e+00	0	42	0	2015363072	8	4044
2026-01-13 03:02:09.97	218.37	17.47	-24.0	-25.1	18.0	0.00e+00	0	42	0	2022703104	8	4079
2026-01-13 03:02:10.69	218.33	17.39	-24.0	-25.1	18.0	4.50e-06	0	42	0	2026897408	8	4073
2026-01-13 03:02:11.98	218.28	17.24	-24.1	-25.2	17.9	0.00e+00	0	42	0	2034237440	8	4100
2026-01-13 03:02:12.70	218.24	17.16	-24.2	-25.4	17.8	0.00e+00	0	42	0	2038431744	8	4157
2026-01-13 03:02:13.99	218.19	17.01	-24.0	-25.2	17.9	0.00e+00	0	42	0	2045771776	8	4094
2026-01-13 03:02:14.72	218.15	16.93	-24.1	-25.2	17.9	0.00e+00	0	42	0	2049966080	8	4099
2026-01-13 03:02:16.01	218.10	16.78	-24.2	-25.5	17.8	0.00e+00	0	42	0	2057306112	8	4183
2026-01-13 03:02:16.72	218.07	16.70	-24.2	-25.5	17.8	0.00e+00	0	42	0	2060451840	8	4171
2026-01-13 03:02:18.02	218.01	16.55	-24.3	-25.7	17.6	0.00e+00	0	42	0	2067791872	8	4236
2026-01-13 03:02:18.74	217.98	16.47	-24.3	-25.6	17.7	0.00e+00	0	42	0	2071986176	8	4214
2026-01-13 03:02:20.04	217.93	16.33	-24.5	-26.1	17.4	0.00e+00	0	42	0	2079326208	8	4327
2026-01-13 03:02:20.77	217.89	16.24	-24.4	-25.9	17.5	0.00e+00	0	42	0	2083520512	8	4271
2026-01-13 03:02:22.07	217.84	16.10	-24.5	-26.1	17.4	0.00e+00	0	42	0	2090860544	8	4329
2026-01-13 03:02:22.78	217.81	16.02	-24.5	-26.1	17.4	0.00e+00	0	42	0	2095054848	8	4345
2026-01-13 03:02:24.08	217.76	15.88	-24.6	-26.0	17.2	0.00e+00	0	42	0	2102394880	9	4196
2026-01-13 03:02:24.80	217.73	15.80	-24.9	-26.4	17.0	0.00e+00	0	42	0	2106589184	9	4305
2026-01-13 03:02:26.09	217.68	15.66	-24.9	-26.5	16.9	0.00e+00	0	42	0	2113929216	9	4322
2026-01-13 03:02:26.81	217.65	15.58	-25.0	-26.6	16.8	0.00e+00	0	42	0	2117074944	9	4369
2026-01-13 03:02:28.10	217.60	15.44	-25.0	-26.3	16.8	0.00e+00	0	42	0	2124414976	10	4165
2026-01-13 03:02:28.82	217.57	15.37	-25.1	-26.4	16.7	0.00e+00	0	42	0	2128609280	10	4198
2026-01-13 03:02:30.12	217.52	15.23	-25.1	-26.4	16.7	0.00e+00	0	42	0	2135949312	10	4196
2026-01-13 03:02:30.84	217.49	15.15	-25.1	-26.6	16.6	0.00e+00	0	42	0	2140143616	10	4236
2026-01-13 03:02:32.14	217.44	15.01	-25.4	-27.0	16.3	0.00e+00	0	42	0	2147483648	10	4368
2026-01-13 03:02:32.86	217.41	14.94	-25.2	-26.6	16.5	0.00e+00	0	42	0	2151677952	10	4254
2026-01-13 03:02:34.14	217.36	14.80	-25.1	-26.5	16.6	0.00e+00	0	42	0	2159017984	10	4229
2026-01-13 03:02:34.87	217.34	14.73	-25.1	-26.5	16.6	0.00e+00	0	42	0	2163212288	10	4228
2026-01-13 03:02:36.17	217.29	14.59	-25.2	-26.7	16.4	0.00e+00	0	42	0	2170552320	10	4288
2026-01-13 03:02:36.88	217.26	14.52	-25.3	-26.8	16.4	0.00e+00	0	42	0	2173698048	10	4308
2026-01-13 03:02:38.18	217.21	14.38	-25.2	-26.6	16.5	0.00e+00	0	42	0	2181038080	10	4258
2026-01-13 03:02:38.90	217.19	14.31	-25.2	-26.7	16.4	0.00e+00	0	42	0	2185232384	10	4274
2026-01-13 03:02:40.19	217.14	14.18	-25.3	-26.9	16.4	0.00e+00	0	42	0	2192572416	10	4322
2026-01-13 03:02:40.91	217.12	14.10	-25.3	-26.8	16.4	0.00e+00	0	42	0	2196766720	10	4312
2026-01-13 03:02:42.20	217.07	13.97	-25.2	-26.8	16.4	0.00e+00	0	42	0	2204106752	10	4300
2026-01-13 03:02:42.92	217.04	13.90	-25.3	-26.9	16.4	0.00e+00	0	42	0	2208301056	10	4318
2026-01-13 03:02:44.22	217.00	13.77	-25.3	-27.0	16.3	0.00e+00	0	42	0	2215641088	10	4363
2026-01-13 03:02:44.94	216.97	13.70	-25.3	-27.0	16.3	0.00e+00	0	42	0	2219835392	10	4363
2026-01-13 03:02:46.22	216.93	13.57	-25.4	-27.1	16.2	0.00e+00	0	42	0	2227175424	10	4393
2026-01-13 03:02:46.94	216.90	13.50	-25.5	-27.3	16.1	0.00e+00	0	43	0	2230321152	10	4434
2026-01-13 03:02:48.24	216.86	13.37	-25.5	-26.9	16.1	0.00e+00	0	42	0	2238709760	11	4207
2026-01-13 03:02:48.95	216.84	13.30	-25.6	-27.0	16.0	0.00e+00	0	42	0	2241855488	11	4246
2026-01-13 03:02:50.25	216.79	13.17	-25.5	-26.9	16.0	0.00e+00	0	42	0	2249195520	11	4217
2026-01-13 03:02:50.97	216.77	13.10	-25.6	-27.0	16.0	0.00e+00	0	42	0	2253389824	11	4240
2026-01-13 03:02:52.26	216.72	12.97	-25.5	-26.9	16.0	0.00e+00	0	42	0	2260729856	11	4224
2026-01-13 03:02:52.97	216.70	12.91	-25.6	-27.1	15.9	0.00e+00	0	42	0	2264924160	11	4274
2026-01-13 03:02:54.27	216.66	12.78	-25.7	-27.3	15.8	0.00e+00	0	42	0	2272264192	11	4328
2026-01-13 03:02:54.99	216.64	12.71	-25.7	-27.2	15.8	0.00e+00	0	42	0	2276458496	11	4302
2026-01-13 03:02:56.29	216.59	12.58	-25.6	-27.1	15.9	0.00e+00	0	42	0	2283798528	11	4279
2026-01-13 03:02:57.01	216.57	12.52	-25.7	-27.2	15.8	0.00e+00	0	42	0	2286944256	11	4312
2026-01-13 03:02:58.30	216.53	12.39	-25.6	-27.0	15.9	0.00e+00	0	42	0	2294284288	11	4259
2026-01-13 03:02:59.02	216.51	12.32	-25.6	-27.2	15.8	0.00e+00	0	42	0	2298478592	11	4301
2026-01-13 03:03:00.32	216.47	12.20	-25.8	-27.5	15.6	0.00e+00	0	42	0	2305818624	11	4373
2026-01-13 03:03:01.04	216.44	12.13	-25.8	-27.5	15.6	0.00e+00	0	42	0	2310012928	11	4382
2026-01-13 03:03:02.33	216.40	12.01	-25.9	-27.8	15.4	0.00e+00	0	42	0	2317352960	11	4481
2026-01-13 03:03:03.05	216.38	11.95	-26.0	-27.5	15.2	0.00e+00	0	42	0	2321547264	12	4289
2026-01-13 03:03:04.34	216.34	11.82	-26.1	-27.8	15.1	0.00e+00	0	42	0	2328887296	12	4356
2026-01-13 03:03:05.06	216.32	11.76	-26.0	-27.4	15.3	0.00e+00	0	42	0	2333081600	12	4259
2026-01-13 03:03:06.35	216.28	11.64	-26.0	-27.5	15.2	0.00e+00	0	42	0	2340421632	12	4286
2026-01-13 03:03:07.07	216.26	11.57	-26.0	-27.5	15.2	0.00e+00	0	42	0	2343567360	12	4280
2026-01-13 03:03:08.37	216.22	11.45	-26.1	-27.7	15.1	0.00e+00	0	42	0	2350907392	12	4350
2026-01-13 03:03:09.09	216.20	11.39	-26.1	-27.8	15.0	0.00e+00	0	42	0	2355101696	12	4374
2026-01-13 03:03:10.38	216.16	11.27	-26.0	-27.6	15.2	0.00e+00	0	42	0	2362441728	12	4315
2026-01-13 03:03:11.09	216.14	11.21	-26.2	-27.9	15.0	0.00e+00	0	42	0	2366636032	12	4388
2026-01-13 03:03:12.39	216.11	11.09	-26.2	-27.9	15.0	2.20e-06	0	42	0	2373976064	12	4390
2026-01-13 03:03:13.10	216.09	11.02	-26.1	-27.7	15.1	0.00e+00	0	42	0	2378170368	12	4332
2026-01-13 03:03:14.40	216.05	10.91	-25.9	-27.4	15.2	0.00e+00	0	42	0	2385510400	12	4257
2026-01-13 03:03:15.12	216.03	10.84	-25.9	-27.3	15.3	0.00e+00	0	42	0	2389704704	12	4240
2026-01-13 03:03:16.41	215.99	10.73	-25.9	-27.3	15.3	0.00e+00	0	42	0	2397044736	12	4220
2026-01-13 03:03:17.13	215.97	10.66	-25.9	-27.3	15.3	0.00e+00	0	42	0	2400190464	12	4236
2026-01-13 03:03:18.42	215.94	10.55	-26.0	-27.5	15.2	1.10e-06	0	42	0	2407530496	12	4277
2026-01-13 03:03:19.14	215.92	10.49	-25.9	-27.4	15.2	0.00e+00	0	42	0	2411724800	12	4254
2026-01-13 03:03:20.44	215.88	10.37	-26.0	-27.6	15.1	0.00e+00	0	42	0	2419064832	12	4317
2026-01-13 03:03:21.15	215.86	10.31	-26.0	-27.6	15.1	1.10e-06	0	42	0	2423259136	12	4297
2026-01-13 03:03:22.45	215.83	10.20	-26.0	-27.6	15.1	0.00e+00	0	42	0	2430599168	12	4317
2026-01-13 03:03:23.16	215.81	10.13	-26.0	-27.6	15.1	0.00e+00	0	42	0	2434793472	12	4312
2026-01-13 03:03:24.45	215.77	10.02	-26.0	-27.6	15.0	0.00e+00	0	42	0	2442133504	12	4318
2026-01-13 03:03:25.17	215.75	9.96	-26.0	-27.5	15.2	1.10e-06	0	42	0	2445279232	12	4275
2026-01-13 03:03:26.46	215.72	9.85	-26.1	-27.8	15.0	0.00e+00	0	42	0	2452619264	12	4356
2026-01-13 03:03:27.18	215.70	9.79	-26.1	-27.8	14.9	0.00e+00	0	42	0	2456813568	12	4362
2026-01-13 03:03:28.48	215.67	9.68	-26.1	-27.7	15.0	0.00e+00	0	42	0	2464153600	12	4332
2026-01-13 03:03:29.19	215.65	9.61	-26.1	-27.7	14.9	0.00e+00	0	42	0	2468347904	12	4342
2026-01-13 03:03:30.49	215.62	9.50	-26.1	-27.7	15.0	0.00e+00	0	42	0	2475687936	12	4343
2026-01-13 03:03:31.20	215.60	9.44	-26.1	-27.7	15.0	0.00e+00	0	42	0	2479882240	12	4327
2026-01-13 03:03:32.50	215.57	9.33	-26.1	-27.7	15.0	0.00e+00	0	42	0	2487222272	12	4325
2026-01-13 03:03:33.22	215.55	9.27	-26.0	-27.6	15.0	0.00e+00	0	42	0	2491416576	12	4328
2026-01-13 03:03:34.50	215.52	9.17	-26.3	-28.2	14.7	0.00e+00	0	42	0	2498756608	12	4471
2026-01-13 03:03:35.23	215.50	9.11	-26.2	-27.9	14.8	1.10e-06	0	42	0	2501902336	12	4399
2026-01-13 03:03:36.51	215.47	9.00	-26.4	-28.4	14.5	0.00e+00	0	42	0	2509242368	12	4538
2026-01-13 03:03:37.23	215.45	8.94	-26.3	-28.2	14.6	0.00e+00	0	42	0	2513436672	12	4488
2026-01-13 03:03:38.52	215.42	8.83	-26.3	-28.3	14.6	0.00e+00	0	42	0	2520776704	12	4520
2026-01-13 03:03:39.24	215.40	8.77	-26.4	-28.5	14.5	0.00e+00	0	42	0	2524971008	12	4560
2026-01-13 03:03:40.53	215.37	8.67	-26.5	-28.3	14.3	0.00e+00	0	42	0	2532311040	13	4394
2026-01-13 03:03:41.25	215.35	8.61	-26.7	-28.6	14.1	2.20e-06	0	42	0	2536505344	13	4478
2026-01-13 03:03:42.55	215.32	8.50	-26.7	-28.7	14.0	5.70e-06	0	42	0	2543845376	13	4520
2026-01-13 03:03:43.26	215.30	8.44	-26.5	-28.3	14.2	3.40e-06	0	42	0	2548039680	13	4390
2026-01-13 03:03:44.56	215.27	8.34	-26.3	-27.8	14.5	1.10e-06	0	42	0	2555379712	13	4268
2026-01-13 03:03:45.28	215.26	8.28	-26.4	-27.9	14.4	3.40e-06	0	42	0	2558525440	13	4305
2026-01-13 03:03:46.57	215.23	8.18	-26.3	-27.7	14.6	0.00e+00	0	42	0	2565865472	13	4240
2026-01-13 03:03:47.28	215.21	8.12	-26.3	-27.8	14.5	0.00e+00	0	42	0	2570059776	13	4275
2026-01-13 03:03:48.58	215.18	8.01	-26.4	-27.9	14.5	1.10e-06	0	42	0	2577399808	13	4277
2026-01-13 03:03:49.30	215.17	7.96	-26.5	-28.1	14.3	1.10e-06	0	42	0	2581594112	13	4359
2026-01-13 03:03:50.59	215.14	7.85	-26.4	-27.9	14.4	2.20e-06	0	42	0	2588934144	13	4292
2026-01-13 03:03:51.31	215.12	7.80	-26.5	-28.3	14.2	2.20e-06	0	42	0	2593128448	13	4398
2026-01-13 03:03:52.60	215.09	7.70	-26.5	-28.2	14.2	3.40e-06	0	42	0	2600468480	13	4382
2026-01-13 03:03:53.32	215.08	7.64	-26.6	-28.4	14.1	1.10e-06	0	42	0	2603614208	13	4445
2026-01-13 03:03:54.61	215.05	7.54	-26.6	-28.5	14.0	5.70e-06	0	42	0	2610954240	13	4459
2026-01-13 03:03:55.33	215.03	7.48	-26.6	-28.3	14.1	5.70e-06	0	42	0	2615148544	13	4415
2026-01-13 03:03:56.63	215.00	7.38	-26.8	-28.9	13.8	6.80e-06	0	42	0	2622488576	13	4575
2026-01-13 03:03:57.35	214.99	7.32	-26.8	-28.9	13.8	6.80e-06	0	42	0	2626682880	13	4577
2026-01-13 03:03:58.64	214.96	7.22	-26.6	-28.4	14.0	2.20e-06	0	42	0	2634022912	13	4451
2026-01-13 03:03:59.36	214.94	7.17	-26.6	-28.5	14.0	2.20e-06	0	42	0	2638217216	13	4477
2026-01-13 03:04:00.66	214.92	7.07	-32.5	-42.4	3.8	7.83e-01	0	42	104	2643460096	25	11186
2026-01-13 03:04:01.38	214.90	7.01	-32.9	-44.3	3.8	8.46e-01	0	42	104	2643460096	25	13467
2026-01-13 03:04:02.67	214.87	6.91	-33.3	-44.6	3.8	8.46e-01	0	42	104	2643460096	26	13303
2026-01-13 03:04:03.39	214.86	6.86	-33.4	-44.9	3.8	8.47e-01	0	42	104	2643460096	26	13512

#Closed at: 2026-01-13 03:04:03
#Recorded file [2643 MB]: D:/data/31010_260113_055604.dat