passes_logs/2026/01/13/R2M6_AANII_01/R2M6_AANII_01__20260113_223422_NOAA_20_JPSS-1_rec.log

#Pass ID: 20260113_223422_NOAA 20 (JPSS-1)
#Satellite: NOAA 20 (JPSS-1)
#Configuration: NOAA 20
#almurnet v.1.7.20240730
#Start time: 2026-01-13 22:34:23

#Version: 2.2.20231116
#Station: R2M6_AANII_01
#Location: 30.233357 lon 59.946436 lat
#TLE: 1 43013U 17073A   26013.21545503  .00000073  00000+0  55630-4 0  9998
#TLE: 2 43013  98.7633 314.1737 0001580  41.9966 318.1331 14.19535680422486

#Time	Az	El	Level	Level2	SNR	BER	BlckErr	Temp	State	Recorded	gain1	gain2
2026-01-13 22:34:23.42	31.97	7.08	-31.7	-38.1	5.0	1.21e+00	0	40	0	0	23	7497
2026-01-13 22:34:24.42	32.07	7.14	-32.2	-40.2	4.6	1.34e+00	0	40	104	0	24	9003
2026-01-13 22:34:25.42	32.18	7.20	-32.2	-40.0	6.2	2.53e-01	0	40	0	0	24	8787
2026-01-13 22:34:26.41	32.28	7.26	-32.3	-40.2	6.1	3.22e-01	0	40	0	1048576	24	8988
2026-01-13 22:34:27.42	32.39	7.32	-32.2	-39.9	6.3	2.53e-01	0	40	0	3145728	24	8700
2026-01-13 22:34:28.42	32.49	7.38	-32.3	-40.1	6.1	3.33e-01	0	40	0	5242880	24	8897
2026-01-13 22:34:29.42	32.60	7.44	-32.3	-40.0	6.3	2.63e-01	0	40	0	7340032	24	8792
2026-01-13 22:34:30.41	32.70	7.50	-32.3	-40.1	6.2	3.26e-01	0	40	0	8388608	24	8878
2026-01-13 22:34:31.41	32.81	7.56	-32.2	-39.3	6.8	2.18e-01	0	40	0	10485760	24	8166
2026-01-13 22:34:32.41	32.92	7.62	-32.0	-38.5	7.4	1.46e-01	0	41	0	12582912	24	7585
2026-01-13 22:34:33.41	33.02	7.68	-31.9	-38.0	7.8	1.02e-01	0	41	0	14680064	24	7235
2026-01-13 22:34:34.41	33.13	7.74	-31.8	-37.6	8.1	6.37e-02	0	40	0	16777216	24	7005
2026-01-13 22:34:35.42	33.24	7.80	-31.8	-38.1	8.2	4.60e-02	0	40	0	17825792	23	7378
2026-01-13 22:34:36.42	33.35	7.86	-31.9	-38.5	7.9	5.59e-02	0	41	0	19922944	23	7686
2026-01-13 22:34:37.43	33.46	7.92	-32.0	-38.3	7.7	1.06e-01	0	41	0	22020096	24	7437
2026-01-13 22:34:38.43	33.57	7.98	-31.8	-37.4	8.3	6.47e-02	0	41	0	24117248	24	6875
2026-01-13 22:34:39.43	33.68	8.04	-31.6	-37.0	9.1	3.75e-02	0	41	0	26214400	23	6688
2026-01-13 22:34:40.42	33.79	8.10	-31.4	-36.3	9.6	1.44e-02	0	40	0	27262976	23	6317
2026-01-13 22:34:41.43	33.90	8.16	-31.3	-35.9	9.9	9.99e-03	0	41	0	29360128	23	6108
2026-01-13 22:34:42.42	34.01	8.22	-31.4	-36.5	9.9	8.04e-03	0	41	0	31457280	22	6539
2026-01-13 22:34:43.42	34.12	8.28	-31.3	-36.3	10.0	9.50e-03	0	41	0	33554432	22	6423
2026-01-13 22:34:44.43	34.23	8.34	-31.2	-36.0	10.2	6.41e-03	0	41	0	35651584	22	6261
2026-01-13 22:34:45.43	34.34	8.40	-31.2	-36.0	10.3	4.70e-03	0	41	0	36700160	22	6227
2026-01-13 22:34:46.43	34.46	8.46	-31.2	-35.9	10.4	5.23e-03	0	41	0	38797312	22	6195
2026-01-13 22:34:47.44	34.57	8.52	-31.2	-35.8	10.4	4.24e-03	0	41	0	40894464	22	6161
2026-01-13 22:34:48.44	34.69	8.58	-31.2	-35.8	10.4	4.85e-03	0	41	0	42991616	22	6152
2026-01-13 22:34:49.44	34.80	8.64	-31.2	-35.9	10.4	3.96e-03	0	41	0	45088768	22	6179
2026-01-13 22:34:50.43	34.91	8.70	-31.2	-36.0	10.3	5.77e-03	0	41	0	46137344	22	6253
2026-01-13 22:34:51.43	35.03	8.76	-31.2	-35.8	10.5	3.69e-03	0	41	0	48234496	22	6142
2026-01-13 22:34:52.44	35.15	8.82	-31.2	-36.0	10.3	6.07e-03	0	41	0	50331648	22	6242
2026-01-13 22:34:53.45	35.26	8.89	-31.2	-35.7	10.6	4.63e-03	0	41	0	52428800	22	6070
2026-01-13 22:34:54.45	35.38	8.95	-31.3	-36.3	10.1	5.86e-03	0	41	0	53477376	22	6405
2026-01-13 22:34:55.45	35.50	9.01	-31.4	-36.5	10.0	1.08e-02	0	41	0	55574528	22	6502
2026-01-13 22:34:56.46	35.61	9.07	-31.3	-36.1	10.3	6.19e-03	0	41	0	57671680	22	6278
2026-01-13 22:34:57.46	35.73	9.13	-31.3	-36.0	10.4	4.58e-03	0	41	0	59768832	22	6198
2026-01-13 22:34:58.46	35.85	9.19	-31.2	-35.9	10.5	4.84e-03	0	41	0	61865984	22	6183
2026-01-13 22:34:59.46	35.97	9.25	-31.1	-35.5	10.7	2.89e-03	0	41	0	62914560	22	5993
2026-01-13 22:35:00.47	36.09	9.31	-31.1	-35.4	10.8	2.77e-03	0	41	0	65011712	22	5929
2026-01-13 22:35:01.47	36.21	9.38	-31.1	-35.4	10.8	2.61e-03	0	41	0	67108864	22	5923
2026-01-13 22:35:02.47	36.33	9.44	-31.0	-35.2	11.0	2.33e-03	0	41	0	69206016	22	5824
2026-01-13 22:35:03.47	36.45	9.50	-30.8	-34.6	11.5	1.22e-03	0	41	0	71303168	22	5527
2026-01-13 22:35:04.47	36.57	9.56	-30.8	-34.3	11.7	6.37e-04	0	41	0	72351744	22	5432
2026-01-13 22:35:05.47	36.69	9.62	-30.6	-33.9	12.0	4.20e-04	0	41	0	74448896	22	5262
2026-01-13 22:35:06.47	36.82	9.68	-30.6	-33.8	12.1	3.52e-04	0	41	0	76546048	22	5215
2026-01-13 22:35:07.47	36.94	9.74	-30.6	-33.7	12.1	2.75e-04	0	41	0	78643200	22	5166
2026-01-13 22:35:08.47	37.06	9.81	-30.6	-33.8	12.1	2.66e-04	0	41	0	79691776	22	5195
2026-01-13 22:35:09.47	37.19	9.87	-30.5	-33.7	12.2	2.91e-04	0	41	0	81788928	22	5166
2026-01-13 22:35:10.47	37.31	9.93	-30.6	-33.9	12.0	2.56e-04	0	41	0	83886080	22	5238
2026-01-13 22:35:11.47	37.44	9.99	-30.6	-33.9	12.0	3.22e-04	0	41	0	85983232	22	5231
2026-01-13 22:35:12.47	37.56	10.05	-30.5	-33.4	12.4	1.78e-04	0	41	0	88080384	22	5052
2026-01-13 22:35:13.47	37.69	10.11	-30.5	-33.4	12.4	1.65e-04	0	41	0	89128960	22	5050
2026-01-13 22:35:14.47	37.81	10.18	-30.5	-33.5	12.3	1.94e-04	0	41	0	91226112	22	5104
2026-01-13 22:35:15.47	37.94	10.24	-30.5	-33.6	12.3	1.79e-04	0	41	0	93323264	22	5119
2026-01-13 22:35:16.47	38.07	10.30	-30.5	-33.5	12.3	2.37e-04	0	41	0	95420416	22	5106
2026-01-13 22:35:17.47	38.20	10.36	-30.6	-33.7	12.2	1.95e-04	0	42	0	97517568	22	5153
2026-01-13 22:35:18.47	38.32	10.42	-30.7	-34.0	12.0	3.20e-04	0	41	0	98566144	22	5291
2026-01-13 22:35:19.47	38.45	10.49	-30.6	-33.8	12.1	3.30e-04	0	42	0	100663296	22	5201
2026-01-13 22:35:20.47	38.58	10.55	-30.7	-34.1	11.9	3.45e-04	0	42	0	102760448	22	5325
2026-01-13 22:35:21.48	38.71	10.61	-30.7	-34.1	11.9	3.07e-04	0	41	0	104857600	22	5311
2026-01-13 22:35:22.49	38.85	10.67	-30.7	-34.1	11.9	4.49e-04	0	42	0	106954752	22	5338
2026-01-13 22:35:23.49	38.98	10.74	-30.8	-34.3	11.8	4.19e-04	0	41	0	108003328	22	5401
2026-01-13 22:35:24.49	39.11	10.80	-30.8	-34.4	11.8	5.35e-04	0	42	0	110100480	22	5427
2026-01-13 22:35:25.49	39.24	10.86	-30.6	-33.9	12.1	3.55e-04	0	42	0	112197632	22	5242
2026-01-13 22:35:26.49	39.37	10.92	-30.6	-33.7	12.2	2.35e-04	0	42	0	114294784	22	5156
2026-01-13 22:35:27.49	39.51	10.98	-30.6	-33.9	12.1	2.83e-04	0	42	0	116391936	22	5223
2026-01-13 22:35:28.49	39.64	11.05	-30.6	-33.9	12.1	2.31e-04	0	42	0	117440512	22	5224
2026-01-13 22:35:29.49	39.77	11.11	-30.6	-33.7	12.2	2.75e-04	0	42	0	119537664	22	5162
2026-01-13 22:35:30.49	39.91	11.17	-30.6	-33.8	12.3	1.80e-04	0	42	0	121634816	22	5174
2026-01-13 22:35:31.49	40.04	11.23	-30.6	-33.7	12.2	2.58e-04	0	42	0	123731968	22	5164
2026-01-13 22:35:32.49	40.18	11.30	-30.6	-33.7	12.2	2.12e-04	0	42	0	124780544	22	5172
2026-01-13 22:35:33.49	40.32	11.36	-30.7	-34.1	12.0	2.37e-04	0	42	0	126877696	22	5305
2026-01-13 22:35:34.48	40.45	11.42	-30.8	-34.9	11.8	5.36e-04	0	42	0	128974848	21	5749
2026-01-13 22:35:35.48	40.59	11.48	-30.8	-34.8	11.8	5.07e-04	0	42	0	131072000	21	5714
2026-01-13 22:35:36.49	40.73	11.55	-30.8	-34.7	11.9	4.11e-04	0	42	0	133169152	21	5687
2026-01-13 22:35:37.49	40.87	11.61	-30.8	-34.8	11.8	5.84e-04	0	42	0	134217728	21	5708
2026-01-13 22:35:38.49	41.01	11.67	-30.7	-34.6	11.9	3.65e-04	0	42	0	136314880	21	5649
2026-01-13 22:35:39.49	41.15	11.73	-30.8	-35.0	11.7	5.04e-04	0	42	0	138412032	21	5801
2026-01-13 22:35:40.49	41.29	11.80	-30.8	-34.8	11.9	5.42e-04	0	42	0	140509184	21	5710
2026-01-13 22:35:41.50	41.43	11.86	-30.7	-34.6	12.0	3.87e-04	0	42	0	142606336	21	5607
2026-01-13 22:35:42.50	41.57	11.92	-30.5	-34.1	12.3	2.10e-04	0	42	0	143654912	21	5415
2026-01-13 22:35:43.50	41.72	11.98	-30.6	-34.2	12.3	1.52e-04	0	42	0	145752064	21	5435
2026-01-13 22:35:44.50	41.86	12.05	-30.6	-34.2	12.4	1.80e-04	0	42	0	147849216	21	5429
2026-01-13 22:35:45.50	42.00	12.11	-30.5	-33.9	12.5	1.11e-04	0	42	0	149946368	21	5314
2026-01-13 22:35:46.50	42.15	12.17	-30.5	-34.0	12.4	1.43e-04	0	42	0	152043520	21	5372
2026-01-13 22:35:47.49	42.29	12.23	-30.6	-34.2	12.3	1.47e-04	0	42	0	153092096	21	5472
2026-01-13 22:35:48.49	42.43	12.29	-30.7	-34.4	12.1	2.91e-04	0	42	0	155189248	21	5533
2026-01-13 22:35:49.49	42.58	12.36	-30.6	-34.1	12.4	1.79e-04	0	42	0	157286400	21	5424
2026-01-13 22:35:50.49	42.73	12.42	-30.5	-33.9	12.5	1.26e-04	0	42	0	159383552	21	5335
2026-01-13 22:35:51.49	42.87	12.48	-30.5	-34.0	12.5	8.69e-05	0	42	0	160432128	21	5356
2026-01-13 22:35:52.49	43.02	12.54	-30.6	-34.2	12.3	1.65e-04	0	42	0	162529280	21	5457
2026-01-13 22:35:53.49	43.17	12.61	-30.7	-34.6	12.1	2.90e-04	0	42	0	164626432	21	5624
2026-01-13 22:35:54.49	43.32	12.67	-30.7	-34.5	12.1	2.53e-04	0	42	0	166723584	21	5568
2026-01-13 22:35:55.49	43.47	12.73	-30.7	-34.6	12.1	5.31e-04	0	42	0	168820736	21	5615
2026-01-13 22:35:56.49	43.62	12.79	-30.7	-34.6	12.1	3.21e-04	0	42	0	169869312	21	5604
2026-01-13 22:35:57.49	43.77	12.86	-30.6	-34.3	12.3	2.05e-04	0	42	0	171966464	21	5482
2026-01-13 22:35:58.50	43.92	12.92	-30.5	-34.0	12.5	1.40e-04	0	42	0	174063616	21	5364
2026-01-13 22:35:59.50	44.07	12.98	-30.5	-34.0	12.5	1.13e-04	0	42	0	176160768	21	5359
2026-01-13 22:36:00.51	44.23	13.04	-30.7	-34.4	12.3	2.03e-04	0	42	0	178257920	21	5511
2026-01-13 22:36:01.52	44.38	13.11	-30.7	-34.5	12.2	1.63e-04	0	42	0	179306496	21	5560
2026-01-13 22:36:02.51	44.53	13.17	-30.7	-34.6	12.1	3.44e-04	0	42	0	181403648	21	5626
2026-01-13 22:36:03.52	44.69	13.23	-30.7	-34.4	12.3	2.20e-04	0	42	0	183500800	21	5512
2026-01-13 22:36:04.52	44.85	13.29	-30.7	-34.4	12.2	1.92e-04	0	42	0	185597952	21	5546
2026-01-13 22:36:05.52	45.00	13.36	-30.7	-34.5	12.2	2.87e-04	0	42	0	186646528	21	5558
2026-01-13 22:36:06.53	45.16	13.42	-30.6	-34.1	12.5	1.20e-04	0	42	0	188743680	21	5395
2026-01-13 22:36:07.53	45.32	13.48	-30.5	-33.9	12.6	1.11e-04	0	42	0	190840832	21	5336
2026-01-13 22:36:08.53	45.47	13.54	-30.5	-33.9	12.7	8.92e-05	0	42	0	192937984	21	5310
2026-01-13 22:36:09.53	45.63	13.61	-30.4	-33.6	12.8	5.26e-05	0	42	0	195035136	21	5200
2026-01-13 22:36:10.52	45.79	13.67	-30.4	-33.7	12.8	8.16e-05	0	42	0	197132288	21	5226
2026-01-13 22:36:11.53	45.95	13.73	-30.5	-33.8	12.7	8.62e-05	0	42	0	198180864	21	5267
2026-01-13 22:36:12.53	46.11	13.79	-30.5	-33.8	12.7	8.77e-05	0	42	0	200278016	21	5283
2026-01-13 22:36:13.54	46.27	13.85	-29.7	-32.9	12.8	5.03e-05	0	42	0	202375168	21	5193
2026-01-13 22:36:14.54	46.43	13.92	-30.4	-34.1	12.9	4.04e-05	0	42	0	204472320	20	5493
2026-01-13 22:36:15.54	46.60	13.98	-30.4	-34.1	12.7	6.02e-05	0	42	0	205520896	20	5482
2026-01-13 22:36:16.54	46.76	14.04	-30.4	-34.0	12.9	4.80e-05	0	42	0	207618048	20	5442
2026-01-13 22:36:17.55	46.92	14.10	-30.4	-34.1	12.9	4.34e-05	0	42	0	209715200	20	5479
2026-01-13 22:36:18.55	47.09	14.16	-30.5	-33.9	12.7	5.56e-05	0	42	0	211812352	21	5313
2026-01-13 22:36:19.56	47.26	14.23	-30.7	-34.4	12.4	9.38e-05	0	42	0	213909504	21	5498
2026-01-13 22:36:20.56	47.42	14.29	-30.6	-34.2	12.5	1.86e-04	0	42	0	214958080	21	5428
2026-01-13 22:36:21.56	47.59	14.35	-30.4	-33.6	12.9	8.46e-05	0	42	0	217055232	21	5181
2026-01-13 22:36:22.57	47.76	14.41	-30.2	-33.0	13.3	3.05e-05	0	42	0	219152384	21	4962
2026-01-13 22:36:23.57	47.92	14.47	-30.1	-32.6	13.6	1.06e-05	0	42	0	221249536	21	4823
2026-01-13 22:36:24.57	48.09	14.53	-30.0	-32.5	13.7	6.10e-06	0	42	0	223346688	21	4770
2026-01-13 22:36:25.58	48.26	14.59	-30.0	-33.0	13.7	5.30e-06	0	42	0	224395264	20	5050
2026-01-13 22:36:26.58	48.43	14.66	-30.0	-32.9	13.7	3.80e-06	0	42	0	226492416	20	5040
2026-01-13 22:36:27.58	48.60	14.72	-30.1	-33.0	13.6	6.80e-06	0	42	0	228589568	20	5077
2026-01-13 22:36:28.58	48.77	14.78	-30.0	-33.0	13.6	1.29e-05	0	42	0	230686720	20	5052
2026-01-13 22:36:29.59	48.95	14.84	-29.9	-32.7	13.8	5.30e-06	0	42	0	232783872	20	4951
2026-01-13 22:36:30.59	49.12	14.90	-29.9	-32.6	13.9	4.34e-05	0	42	0	233832448	20	4928
2026-01-13 22:36:31.60	49.29	14.96	-29.9	-32.5	14.0	2.20e-06	0	42	0	235929600	20	4859
2026-01-13 22:36:32.61	49.47	15.02	-29.8	-32.3	14.1	3.00e-06	0	42	0	238026752	20	4798
2026-01-13 22:36:33.61	49.64	15.08	-29.8	-32.3	14.0	2.05e-05	0	42	0	240123904	20	4800
2026-01-13 22:36:34.61	49.82	15.14	-29.8	-32.4	14.1	4.04e-05	0	42	0	242221056	20	4828
2026-01-13 22:36:35.61	49.99	15.20	-29.8	-32.4	14.1	4.50e-06	0	42	0	243269632	20	4827
2026-01-13 22:36:36.61	50.17	15.26	-29.8	-32.2	14.2	1.50e-06	0	42	0	245366784	20	4777
2026-01-13 22:36:37.62	50.35	15.32	-29.9	-32.9	14.1	1.56e-04	0	42	0	247463936	19	5129
2026-01-13 22:36:38.62	50.53	15.38	-29.9	-33.1	14.0	3.80e-06	0	42	0	249561088	19	5202
2026-01-13 22:36:39.62	50.71	15.44	-29.9	-33.1	14.0	3.80e-06	0	42	0	250609664	19	5177
2026-01-13 22:36:40.62	50.88	15.50	-29.9	-33.0	14.1	8.10e-04	0	42	0	252706816	19	5172
2026-01-13 22:36:41.63	51.07	15.56	-29.9	-33.1	14.0	3.00e-06	0	42	0	254803968	19	5192
2026-01-13 22:36:42.63	51.25	15.62	-30.0	-32.8	13.8	7.00e-07	0	42	0	256901120	20	4973
2026-01-13 22:36:43.64	51.43	15.68	-30.1	-33.0	13.7	1.20e-03	0	42	0	258998272	20	5069
2026-01-13 22:36:44.65	51.61	15.74	-30.0	-32.8	13.8	6.80e-06	0	42	0	261095424	20	4985
2026-01-13 22:36:45.65	51.80	15.80	-29.8	-32.9	14.2	6.89e-04	0	42	0	262144000	19	5111
2026-01-13 22:36:46.65	51.98	15.86	-29.9	-33.0	14.1	1.50e-06	0	42	0	264241152	19	5159
2026-01-13 22:36:47.66	52.17	15.92	-30.0	-32.8	13.9	3.00e-06	0	42	0	266338304	20	4986
2026-01-13 22:36:48.66	52.35	15.98	-30.2	-33.3	13.6	4.98e-04	0	42	0	268435456	20	5146
2026-01-13 22:36:49.67	52.54	16.04	-30.2	-33.3	13.5	1.83e-05	0	42	0	269484032	20	5181
2026-01-13 22:36:50.67	52.73	16.10	-30.2	-33.4	13.5	6.10e-06	0	42	0	271581184	20	5180
2026-01-13 22:36:51.67	52.91	16.16	-30.3	-33.5	13.4	7.47e-04	0	42	0	273678336	20	5246
2026-01-13 22:36:52.67	53.10	16.22	-30.3	-33.6	13.4	7.13e-04	0	42	0	275775488	20	5260
2026-01-13 22:36:53.68	53.29	16.27	-30.4	-33.8	13.2	2.21e-05	0	42	0	277872640	20	5374
2026-01-13 22:36:54.68	53.48	16.33	-30.3	-33.7	13.3	5.47e-04	0	42	0	278921216	20	5296
2026-01-13 22:36:55.68	53.67	16.39	-30.1	-33.2	13.6	4.55e-04	0	42	0	281018368	20	5132
2026-01-13 22:36:56.67	53.86	16.45	-30.0	-32.9	13.8	3.80e-06	0	42	0	283115520	20	5019
2026-01-13 22:36:57.68	54.05	16.50	-30.0	-32.9	13.8	4.54e-04	0	42	0	285212672	20	5025
2026-01-13 22:36:58.68	54.24	16.56	-30.0	-32.8	13.9	4.26e-04	0	42	0	287309824	20	4990
2026-01-13 22:36:59.68	54.44	16.62	-30.0	-32.9	13.9	3.00e-06	0	42	0	288358400	20	4996
2026-01-13 22:37:00.69	54.63	16.68	-30.1	-33.1	13.7	3.42e-04	0	42	0	290455552	20	5095
2026-01-13 22:37:01.69	54.83	16.73	-30.1	-33.2	13.7	3.28e-04	0	43	0	292552704	20	5113
2026-01-13 22:37:02.69	55.02	16.79	-30.1	-33.0	13.7	6.80e-06	0	42	0	294649856	20	5063
2026-01-13 22:37:03.70	55.22	16.85	-30.2	-33.3	13.5	9.90e-06	0	42	0	296747008	20	5169
2026-01-13 22:37:04.70	55.41	16.90	-30.2	-33.3	13.6	8.23e-05	0	42	0	297795584	20	5153
2026-01-13 22:37:05.71	55.61	16.96	-30.2	-33.5	13.5	6.10e-06	0	42	0	299892736	20	5219
2026-01-13 22:37:06.71	55.81	17.02	-30.3	-33.5	13.5	1.14e-04	0	42	0	301989888	20	5237
2026-01-13 22:37:07.71	56.01	17.07	-30.3	-33.7	13.4	2.50e-04	0	42	0	304087040	20	5293
2026-01-13 22:37:08.72	56.21	17.13	-30.3	-33.7	13.4	2.36e-05	0	42	0	306184192	20	5285
2026-01-13 22:37:09.72	56.41	17.18	-30.2	-33.5	13.5	2.92e-04	0	42	0	307232768	20	5211
2026-01-13 22:37:10.72	56.61	17.24	-30.3	-33.6	13.4	1.14e-05	0	42	0	309329920	20	5280
2026-01-13 22:37:11.72	56.81	17.29	-30.3	-33.6	13.5	1.14e-05	0	42	0	311427072	20	5256
2026-01-13 22:37:12.72	57.01	17.35	-30.4	-33.8	13.3	1.03e-03	0	42	0	313524224	20	5331
2026-01-13 22:37:13.72	57.22	17.40	-30.4	-33.8	13.3	6.50e-04	0	43	0	314572800	20	5338
2026-01-13 22:37:14.73	57.42	17.46	-30.4	-34.0	13.2	2.51e-05	0	42	0	316669952	20	5405
2026-01-13 22:37:15.73	57.63	17.51	-30.5	-33.6	13.1	4.65e-04	0	43	0	318767104	21	5162
2026-01-13 22:37:16.73	57.83	17.56	-30.5	-33.6	13.1	1.68e-04	0	42	0	320864256	21	5161
2026-01-13 22:37:17.74	58.04	17.62	-30.5	-33.7	13.0	3.58e-05	0	42	0	322961408	21	5213
2026-01-13 22:37:18.74	58.25	17.67	-30.7	-34.1	12.8	1.98e-04	0	42	0	324009984	21	5345
2026-01-13 22:37:19.73	58.45	17.72	-30.6	-34.0	12.8	4.26e-04	0	42	0	326107136	21	5322
2026-01-13 22:37:20.73	58.66	17.78	-30.7	-34.1	12.8	5.87e-05	0	43	0	328204288	21	5351
2026-01-13 22:37:21.73	58.87	17.83	-30.7	-34.3	12.6	1.09e-04	0	42	0	330301440	21	5451
2026-01-13 22:37:22.72	59.08	17.88	-30.8	-34.5	12.6	6.55e-04	0	42	0	332398592	21	5500
2026-01-13 22:37:23.73	59.29	17.93	-30.9	-34.7	12.4	1.11e-04	0	42	0	333447168	21	5579
2026-01-13 22:37:24.73	59.50	17.98	-30.9	-34.8	12.4	1.62e-04	0	42	0	335544320	21	5620
2026-01-13 22:37:25.74	59.71	18.04	-30.9	-34.8	12.3	1.68e-04	0	42	0	337641472	21	5653
2026-01-13 22:37:26.73	59.92	18.09	-30.9	-34.9	12.3	2.26e-04	0	43	0	339738624	21	5691
2026-01-13 22:37:27.73	60.13	18.14	-31.0	-34.7	12.1	2.47e-04	0	42	0	341835776	22	5463
2026-01-13 22:37:28.74	60.35	18.19	-31.1	-34.8	12.0	2.84e-04	0	43	0	342884352	22	5504
2026-01-13 22:37:29.74	60.56	18.24	-31.1	-34.9	11.9	3.44e-04	0	42	0	344981504	22	5562
2026-01-13 22:37:30.75	60.78	18.29	-31.1	-34.8	12.0	5.76e-04	0	43	0	347078656	22	5523
2026-01-13 22:37:31.75	61.00	18.34	-31.0	-34.6	12.2	2.46e-04	0	42	0	349175808	22	5452
2026-01-13 22:37:32.75	61.21	18.39	-31.0	-34.4	12.3	2.27e-04	0	42	0	351272960	22	5362
2026-01-13 22:37:33.75	61.43	18.44	-31.0	-34.5	12.2	1.98e-04	0	42	0	352321536	22	5416
2026-01-13 22:37:34.75	61.65	18.49	-31.1	-34.7	12.1	2.63e-04	0	43	0	354418688	22	5495
2026-01-13 22:37:35.75	61.86	18.53	-31.0	-34.5	12.2	2.43e-04	0	43	0	356515840	22	5392
2026-01-13 22:37:36.75	62.08	18.58	-31.0	-34.5	12.3	1.83e-04	0	42	0	358612992	22	5383
2026-01-13 22:37:37.75	62.30	18.63	-31.0	-34.4	12.3	3.96e-04	0	42	0	359661568	22	5365
2026-01-13 22:37:38.75	62.52	18.68	-31.1	-35.0	12.0	2.85e-04	0	42	0	361758720	22	5591
2026-01-13 22:37:39.75	62.74	18.73	-31.1	-34.8	12.1	4.22e-04	0	43	0	363855872	22	5501
2026-01-13 22:37:40.76	62.97	18.77	-31.0	-34.4	12.3	5.46e-04	0	42	0	365953024	22	5365
2026-01-13 22:37:41.76	63.19	18.82	-30.9	-34.2	12.5	1.14e-04	0	43	0	368050176	22	5250
2026-01-13 22:37:42.77	63.42	18.87	-30.8	-34.5	12.6	9.68e-05	0	42	0	369098752	21	5500
2026-01-13 22:37:43.77	63.64	18.91	-30.8	-34.4	12.6	8.69e-05	0	42	0	371195904	21	5484
2026-01-13 22:37:44.77	63.86	18.96	-30.8	-34.4	12.7	6.63e-05	0	42	0	373293056	21	5470
2026-01-13 22:37:45.78	64.09	19.00	-30.9	-34.7	12.4	1.11e-04	0	43	0	375390208	21	5606
2026-01-13 22:37:46.78	64.32	19.05	-30.7	-34.3	12.7	8.39e-05	0	42	0	377487360	21	5420
2026-01-13 22:37:47.78	64.54	19.09	-30.7	-34.1	12.9	6.33e-05	0	43	0	378535936	21	5321
2026-01-13 22:37:48.79	64.77	19.14	-30.6	-33.9	13.0	4.34e-05	0	43	0	380633088	21	5243
2026-01-13 22:37:49.79	65.00	19.18	-30.6	-33.9	13.0	2.74e-05	0	42	0	382730240	21	5251
2026-01-13 22:37:50.80	65.23	19.23	-30.6	-34.0	13.0	4.42e-05	0	42	0	384827392	21	5293
2026-01-13 22:37:51.80	65.46	19.27	-30.6	-34.0	13.0	4.19e-05	0	42	0	386924544	21	5303
2026-01-13 22:37:52.80	65.69	19.31	-30.6	-34.0	13.0	3.66e-05	0	43	0	387973120	21	5310
2026-01-13 22:37:53.81	65.92	19.36	-30.7	-34.2	12.8	4.57e-05	0	42	0	390070272	21	5368
2026-01-13 22:37:54.81	66.15	19.40	-30.6	-33.9	13.0	5.72e-05	0	42	0	392167424	21	5271
2026-01-13 22:37:55.81	66.38	19.44	-30.6	-33.9	13.1	4.11e-05	0	43	0	394264576	21	5241
2026-01-13 22:37:56.82	66.62	19.48	-30.6	-33.8	13.1	3.05e-05	0	43	0	396361728	21	5208
2026-01-13 22:37:57.82	66.85	19.52	-30.6	-33.8	13.0	2.82e-05	0	43	0	397410304	21	5238
2026-01-13 22:37:58.82	67.09	19.56	-30.6	-33.9	13.0	3.43e-05	0	43	0	399507456	21	5245
2026-01-13 22:37:59.82	67.32	19.60	-30.7	-34.1	12.9	4.27e-05	0	42	0	401604608	21	5329
2026-01-13 22:38:00.82	67.55	19.64	-30.7	-34.1	12.9	3.58e-05	0	42	0	403701760	21	5337
2026-01-13 22:38:01.82	67.79	19.68	-30.6	-33.9	13.0	3.81e-05	0	42	0	404750336	21	5280
2026-01-13 22:38:02.81	68.02	19.72	-30.5	-33.6	13.2	2.21e-05	0	43	0	406847488	21	5148
2026-01-13 22:38:03.82	68.26	19.76	-30.4	-33.4	13.3	2.44e-05	0	42	0	408944640	21	5071
2026-01-13 22:38:04.82	68.50	19.80	-30.3	-33.6	13.5	1.14e-05	0	42	0	411041792	20	5260
2026-01-13 22:38:05.82	68.73	19.83	-30.3	-33.5	13.6	3.80e-06	0	42	0	413138944	20	5230
2026-01-13 22:38:06.82	68.97	19.87	-30.4	-33.8	13.4	1.98e-05	0	42	0	414187520	20	5328
2026-01-13 22:38:07.83	69.21	19.91	-30.4	-33.7	13.5	1.83e-05	0	42	0	416284672	20	5285
2026-01-13 22:38:08.83	69.45	19.94	-30.5	-33.6	13.2	1.44e-05	0	43	0	418381824	21	5150
2026-01-13 22:38:09.83	69.69	19.98	-30.8	-34.3	12.7	4.73e-05	0	42	0	420478976	21	5427
2026-01-13 22:38:10.83	69.93	20.02	-30.6	-33.9	13.0	5.95e-05	0	42	0	422576128	21	5278
2026-01-13 22:38:11.82	70.17	20.05	-30.7	-34.1	12.9	3.66e-05	0	42	0	423624704	21	5339
2026-01-13 22:38:12.82	70.41	20.08	-30.6	-34.0	13.0	4.42e-05	0	43	0	425721856	21	5301
2026-01-13 22:38:13.83	70.66	20.12	-30.7	-34.1	12.9	5.11e-05	0	42	0	427819008	21	5330
2026-01-13 22:38:14.83	70.90	20.15	-30.6	-34.0	13.0	3.73e-05	0	42	0	429916160	21	5298
2026-01-13 22:38:15.84	71.14	20.19	-30.7	-34.3	12.8	6.56e-05	0	43	0	432013312	21	5405
2026-01-13 22:38:16.83	71.39	20.22	-30.6	-33.9	13.0	4.80e-05	0	42	0	433061888	21	5265
2026-01-13 22:38:17.84	71.63	20.25	-30.4	-33.3	13.4	1.29e-05	0	43	0	435159040	21	5029
2026-01-13 22:38:18.84	71.88	20.28	-30.2	-32.7	13.8	3.00e-06	0	43	0	437256192	21	4825
2026-01-13 22:38:19.84	72.12	20.31	-30.1	-32.5	14.0	4.50e-06	0	43	0	439353344	21	4758
2026-01-13 22:38:20.85	72.37	20.34	-30.1	-32.5	13.9	2.20e-06	0	43	0	441450496	21	4751
2026-01-13 22:38:21.85	72.62	20.37	-30.1	-32.5	14.0	3.00e-06	0	42	0	442499072	21	4723
2026-01-13 22:38:22.85	72.86	20.40	-30.1	-32.5	14.0	3.00e-06	0	43	0	444596224	21	4750
2026-01-13 22:38:23.86	73.11	20.43	-30.1	-32.6	13.9	6.80e-06	0	43	0	446693376	21	4772
2026-01-13 22:38:24.86	73.36	20.46	-30.2	-32.8	13.8	6.10e-06	0	42	0	448790528	21	4846
2026-01-13 22:38:25.87	73.61	20.49	-30.2	-32.8	13.8	5.30e-06	0	42	0	449839104	21	4831
2026-01-13 22:38:26.87	73.86	20.52	-30.2	-32.9	13.7	6.80e-06	0	43	0	451936256	21	4875
2026-01-13 22:38:27.87	74.11	20.55	-30.3	-33.0	13.7	1.50e-06	0	42	0	454033408	21	4908
2026-01-13 22:38:28.87	74.35	20.57	-30.2	-32.7	13.9	9.10e-06	0	42	0	456130560	21	4805
2026-01-13 22:38:29.87	74.60	20.60	-30.1	-32.5	14.0	4.50e-06	0	43	0	458227712	21	4732
2026-01-13 22:38:30.87	74.85	20.63	-30.1	-32.4	14.1	2.20e-06	0	42	0	459276288	21	4698
2026-01-13 22:38:31.88	75.11	20.65	-30.2	-32.8	13.8	1.50e-06	0	43	0	461373440	21	4837
2026-01-13 22:38:32.88	75.36	20.68	-30.3	-33.0	13.7	7.60e-06	0	42	0	463470592	21	4897
2026-01-13 22:38:33.89	75.61	20.70	-30.4	-33.2	13.6	6.10e-06	0	43	0	465567744	21	4973
2026-01-13 22:38:34.89	75.86	20.72	-30.5	-33.6	13.3	1.75e-05	0	43	0	467664896	21	5143
2026-01-13 22:38:35.89	76.12	20.75	-30.7	-34.1	13.0	3.12e-05	0	43	0	468713472	21	5331
2026-01-13 22:38:36.89	76.37	20.77	-30.7	-34.2	12.9	3.96e-05	0	43	0	470810624	21	5381
2026-01-13 22:38:37.89	76.62	20.79	-30.8	-34.5	12.7	7.09e-05	0	43	0	472907776	21	5491
2026-01-13 22:38:38.89	76.87	20.81	-30.8	-34.3	12.8	7.40e-05	0	42	0	475004928	21	5403
2026-01-13 22:38:39.89	77.13	20.83	-30.7	-34.2	12.9	5.41e-05	0	43	0	477102080	21	5382
2026-01-13 22:38:40.89	77.38	20.85	-30.6	-33.9	13.1	4.04e-05	0	43	0	478150656	21	5267
2026-01-13 22:38:41.89	77.63	20.87	-30.6	-33.8	13.2	2.74e-05	0	43	0	480247808	21	5200
2026-01-13 22:38:42.89	77.89	20.89	-30.6	-33.9	13.2	1.75e-05	0	42	0	482344960	21	5231
2026-01-13 22:38:43.90	78.15	20.91	-30.8	-34.3	12.9	3.28e-05	0	43	0	484442112	21	5387
2026-01-13 22:38:44.90	78.40	20.93	-30.6	-33.9	13.1	3.50e-05	0	43	0	486539264	21	5230
2026-01-13 22:38:45.90	78.66	20.95	-30.7	-34.2	12.9	3.12e-05	0	42	0	487587840	21	5346
2026-01-13 22:38:46.91	78.91	20.97	-30.7	-34.1	13.0	3.28e-05	0	43	0	489684992	21	5311
2026-01-13 22:38:47.91	79.17	20.98	-30.8	-34.5	12.8	4.65e-05	0	42	0	491782144	21	5470
2026-01-13 22:38:48.91	79.43	21.00	-30.9	-34.6	12.7	1.03e-04	0	43	0	493879296	21	5531
2026-01-13 22:38:49.92	79.69	21.01	-31.1	-34.7	12.2	1.59e-04	0	43	0	494927872	22	5474
2026-01-13 22:38:50.92	79.94	21.03	-31.3	-35.3	11.8	3.44e-04	0	43	0	497025024	22	5714
2026-01-13 22:38:51.92	80.20	21.04	-31.5	-36.0	11.4	7.39e-04	0	43	0	499122176	22	6029
2026-01-13 22:38:52.92	80.46	21.06	-31.3	-34.9	11.8	9.66e-04	0	42	0	501219328	23	5422
2026-01-13 22:38:53.93	80.72	21.07	-31.1	-34.2	12.2	4.63e-04	0	43	0	503316480	23	5174
2026-01-13 22:38:54.92	80.97	21.08	-30.9	-34.3	12.6	2.89e-04	0	42	0	504365056	22	5281
2026-01-13 22:38:55.92	81.23	21.10	-30.9	-34.2	12.6	8.77e-05	0	43	0	506462208	22	5262
2026-01-13 22:38:56.93	81.49	21.11	-31.0	-34.6	12.3	3.22e-04	0	43	0	508559360	22	5433
2026-01-13 22:38:57.93	81.75	21.12	-31.0	-34.5	12.4	3.42e-04	0	43	0	510656512	22	5399
2026-01-13 22:38:58.93	82.01	21.13	-31.3	-35.3	11.8	2.35e-04	0	43	0	512753664	22	5738
2026-01-13 22:38:59.93	82.26	21.14	-31.2	-35.0	12.1	3.38e-04	0	43	0	513802240	22	5587
2026-01-13 22:39:00.94	82.53	21.15	-31.1	-34.7	12.3	2.58e-04	0	43	0	515899392	22	5458
2026-01-13 22:39:01.95	82.79	21.16	-30.9	-34.3	12.5	1.41e-04	0	42	0	517996544	22	5305
2026-01-13 22:39:02.95	83.05	21.16	-30.9	-34.2	12.6	1.24e-04	0	43	0	520093696	22	5262
2026-01-13 22:39:03.95	83.31	21.17	-30.9	-34.0	12.7	6.56e-05	0	43	0	522190848	22	5189
2026-01-13 22:39:04.95	83.56	21.18	-30.9	-34.3	12.5	9.68e-05	0	43	0	523239424	22	5285
2026-01-13 22:39:05.95	83.82	21.18	-30.8	-33.8	12.9	8.85e-05	0	43	0	525336576	22	5090
2026-01-13 22:39:06.95	84.08	21.19	-30.6	-33.3	13.2	2.59e-05	0	43	0	527433728	22	4906
2026-01-13 22:39:07.96	84.35	21.20	-30.4	-32.8	13.5	1.06e-05	0	43	0	529530880	22	4746
2026-01-13 22:39:08.96	84.61	21.20	-30.3	-32.6	13.7	3.50e-05	0	43	0	531628032	22	4661
2026-01-13 22:39:09.97	84.87	21.20	-30.2	-32.7	13.9	3.80e-06	0	43	0	532676608	21	4803
2026-01-13 22:39:10.97	85.13	21.21	-30.1	-32.5	14.1	3.80e-06	0	42	0	534773760	21	4719
2026-01-13 22:39:11.96	85.38	21.21	-30.1	-32.3	14.1	1.50e-06	0	43	0	536870912	21	4680
2026-01-13 22:39:12.97	85.65	21.21	-30.1	-32.6	14.0	4.50e-06	0	43	0	538968064	21	4764
2026-01-13 22:39:13.97	85.91	21.21	-30.2	-32.7	13.9	7.60e-06	0	43	0	540016640	21	4799
2026-01-13 22:39:14.97	86.17	21.21	-30.4	-33.2	13.5	3.00e-06	0	43	0	542113792	21	4995
2026-01-13 22:39:15.98	86.43	21.21	-30.4	-33.2	13.6	3.35e-05	0	43	0	544210944	21	4993
2026-01-13 22:39:16.98	86.69	21.21	-30.5	-33.5	13.4	1.29e-05	0	43	0	546308096	21	5079
2026-01-13 22:39:17.98	86.95	21.21	-30.5	-33.7	13.3	1.14e-05	0	43	0	548405248	21	5160
2026-01-13 22:39:18.98	87.21	21.21	-30.6	-33.7	13.2	4.65e-05	0	43	0	550502400	21	5188
2026-01-13 22:39:19.98	87.47	21.21	-30.7	-34.1	13.0	3.20e-05	0	43	0	551550976	21	5328
2026-01-13 22:39:20.99	87.73	21.21	-30.7	-34.2	12.9	4.95e-05	0	43	0	553648128	21	5360
2026-01-13 22:39:22.00	87.99	21.20	-30.7	-34.1	13.0	5.34e-05	0	43	0	555745280	21	5308
2026-01-13 22:39:23.00	88.25	21.20	-30.7	-34.1	12.9	3.58e-05	0	43	0	557842432	21	5339
2026-01-13 22:39:24.00	88.51	21.20	-30.6	-34.0	13.1	3.05e-05	0	43	0	558891008	21	5286
2026-01-13 22:39:25.00	88.77	21.19	-30.6	-34.0	13.1	3.73e-05	0	43	0	560988160	21	5268
2026-01-13 22:39:26.01	89.04	21.19	-30.8	-34.3	12.8	4.95e-05	0	43	0	563085312	21	5408
2026-01-13 22:39:27.01	89.30	21.18	-30.7	-34.0	13.0	1.51e-04	0	43	0	565182464	21	5295
2026-01-13 22:39:28.01	89.55	21.17	-30.7	-34.2	12.9	5.11e-05	0	43	0	567279616	21	5387
2026-01-13 22:39:29.01	89.81	21.17	-30.6	-33.8	13.2	3.43e-05	0	43	0	568328192	21	5223
2026-01-13 22:39:30.02	90.08	21.16	-30.6	-33.7	13.2	6.25e-05	0	43	0	570425344	21	5190
2026-01-13 22:39:31.02	90.33	21.15	-30.6	-33.9	13.1	2.89e-05	0	43	0	572522496	21	5243
2026-01-13 22:39:32.03	90.60	21.14	-30.8	-34.3	12.8	4.04e-05	0	43	0	574619648	21	5425
2026-01-13 22:39:33.04	90.86	21.13	-30.7	-34.2	12.8	1.19e-04	0	42	0	576716800	21	5381
2026-01-13 22:39:34.04	91.12	21.12	-30.8	-34.4	12.7	6.86e-05	0	43	0	577765376	21	5469
2026-01-13 22:39:35.05	91.38	21.11	-30.7	-34.0	13.0	5.11e-05	0	43	0	579862528	21	5295
2026-01-13 22:39:36.04	91.63	21.10	-30.5	-33.7	13.2	2.67e-05	0	43	0	581959680	21	5160
2026-01-13 22:39:37.05	91.89	21.09	-30.4	-33.3	13.4	1.37e-05	0	43	0	584056832	21	5045
2026-01-13 22:39:38.05	92.15	21.07	-30.5	-33.5	13.3	1.60e-05	0	43	0	586153984	21	5109
2026-01-13 22:39:39.06	92.41	21.06	-30.4	-33.2	13.6	9.90e-06	0	43	0	587202560	21	4982
2026-01-13 22:39:40.05	92.67	21.05	-30.3	-33.1	13.6	6.10e-06	0	43	0	589299712	21	4963
2026-01-13 22:39:41.05	92.92	21.03	-30.4	-33.4	13.4	7.60e-06	0	43	0	591396864	21	5051
2026-01-13 22:39:42.05	93.18	21.02	-30.4	-33.3	13.5	1.37e-05	0	43	0	593494016	21	5020
2026-01-13 22:39:43.06	93.44	21.00	-30.4	-33.4	13.4	6.80e-06	0	43	0	595591168	21	5065
2026-01-13 22:39:44.06	93.70	20.99	-30.4	-33.3	13.5	1.44e-05	0	43	0	596639744	21	5011
2026-01-13 22:39:45.06	93.95	20.97	-30.4	-33.3	13.4	1.67e-05	0	43	0	598736896	21	5036
2026-01-13 22:39:46.06	94.21	20.95	-30.2	-32.9	13.8	6.10e-06	0	43	0	600834048	21	4881
2026-01-13 22:39:47.06	94.46	20.93	-30.2	-32.7	13.9	6.80e-06	0	43	0	602931200	21	4809
2026-01-13 22:39:48.07	94.72	20.92	-30.1	-32.5	14.0	1.52e-05	0	43	0	603979776	21	4760
2026-01-13 22:39:49.07	94.98	20.90	-30.2	-32.8	13.8	2.20e-06	0	43	0	606076928	21	4842
2026-01-13 22:39:50.07	95.23	20.88	-30.0	-32.3	14.1	2.20e-06	0	43	0	608174080	21	4667
2026-01-13 22:39:51.07	95.49	20.86	-30.0	-32.2	14.2	1.50e-06	0	43	0	610271232	21	4634
2026-01-13 22:39:52.07	95.74	20.84	-29.9	-32.0	14.3	7.00e-07	0	43	0	612368384	21	4574
2026-01-13 22:39:53.07	96.00	20.82	-29.9	-32.0	14.3	0.00e+00	0	42	0	613416960	21	4562
2026-01-13 22:39:54.07	96.25	20.80	-29.8	-32.1	14.6	1.50e-06	0	43	0	615514112	20	4698
2026-01-13 22:39:55.07	96.50	20.77	-29.8	-32.2	14.5	0.00e+00	0	43	0	617611264	20	4752
2026-01-13 22:39:56.07	96.75	20.75	-29.9	-32.4	14.4	0.00e+00	0	43	0	619708416	20	4817
2026-01-13 22:39:57.08	97.01	20.73	-30.1	-33.0	14.0	2.20e-06	0	43	0	621805568	20	5034
2026-01-13 22:39:58.08	97.26	20.70	-30.2	-33.2	13.8	2.20e-06	0	43	0	622854144	20	5103
2026-01-13 22:39:59.08	97.51	20.68	-30.3	-33.4	13.6	6.80e-06	0	43	0	624951296	20	5195
2026-01-13 22:40:00.08	97.76	20.66	-30.3	-33.5	13.6	6.80e-06	0	42	0	627048448	20	5203
2026-01-13 22:40:01.09	98.02	20.63	-30.1	-33.1	13.9	0.00e+00	0	42	0	629145600	20	5062
2026-01-13 22:40:02.09	98.27	20.60	-30.0	-32.8	14.0	2.20e-06	0	43	0	631242752	20	4962
2026-01-13 22:40:03.09	98.52	20.58	-30.0	-32.7	14.2	1.50e-06	0	43	0	632291328	20	4906
2026-01-13 22:40:04.10	98.77	20.55	-30.1	-32.9	14.0	2.20e-06	0	43	0	634388480	20	5006
2026-01-13 22:40:05.11	99.02	20.52	-30.1	-33.1	13.9	1.50e-06	0	43	0	636485632	20	5064
2026-01-13 22:40:06.10	99.27	20.50	-29.9	-32.4	14.3	1.50e-06	0	43	0	638582784	20	4822
2026-01-13 22:40:07.10	99.52	20.47	-29.8	-32.1	14.5	0.00e+00	0	43	0	640679936	20	4728
2026-01-13 22:40:08.11	99.77	20.44	-29.7	-32.0	14.5	1.60e-05	0	43	0	641728512	20	4698
2026-01-13 22:40:09.10	100.01	20.41	-29.5	-31.4	14.9	0.00e+00	0	43	0	643825664	20	4499
2026-01-13 22:40:10.11	100.26	20.38	-29.4	-31.2	15.1	0.00e+00	0	43	0	645922816	20	4437
2026-01-13 22:40:11.11	100.51	20.35	-29.5	-31.6	14.8	0.00e+00	0	43	0	648019968	20	4542
2026-01-13 22:40:12.11	100.76	20.32	-29.6	-31.7	14.8	1.50e-06	0	43	0	649068544	20	4592
2026-01-13 22:40:13.10	101.00	20.29	-29.9	-32.6	14.2	0.00e+00	0	43	0	651165696	20	4876
2026-01-13 22:40:14.10	101.24	20.26	-29.9	-32.6	14.2	0.00e+00	0	43	0	653262848	20	4872
2026-01-13 22:40:15.11	101.49	20.22	-30.2	-33.3	13.8	1.14e-04	0	42	0	655360000	20	5144
2026-01-13 22:40:16.12	101.74	20.19	-30.1	-32.9	14.0	2.20e-06	0	43	0	657457152	20	5012
2026-01-13 22:40:17.12	101.98	20.16	-30.2	-33.3	13.7	3.80e-06	0	43	0	658505728	20	5145
2026-01-13 22:40:18.13	102.23	20.12	-30.0	-32.7	14.1	3.00e-06	0	43	0	660602880	20	4909
2026-01-13 22:40:19.13	102.47	20.09	-29.9	-32.4	14.3	0.00e+00	0	43	0	662700032	20	4831
2026-01-13 22:40:20.14	102.71	20.05	-29.8	-32.2	14.4	7.00e-07	0	43	0	664797184	20	4759
2026-01-13 22:40:21.14	102.96	20.02	-29.7	-32.1	14.5	1.50e-06	0	43	0	666894336	20	4719
2026-01-13 22:40:22.14	103.20	19.98	-29.7	-31.9	14.6	7.00e-07	0	43	0	667942912	20	4668
2026-01-13 22:40:23.14	103.44	19.95	-29.5	-31.4	14.9	0.00e+00	0	43	0	670040064	20	4494
2026-01-13 22:40:24.14	103.68	19.91	-29.4	-31.6	15.1	0.00e+00	0	43	0	672137216	19	4672
2026-01-13 22:40:25.14	103.92	19.87	-29.4	-31.6	15.1	0.00e+00	0	43	0	674234368	19	4660
2026-01-13 22:40:26.15	104.16	19.84	-29.1	-31.0	15.5	5.87e-05	0	43	0	676331520	19	4474
2026-01-13 22:40:27.15	104.40	19.80	-29.0	-30.7	15.7	0.00e+00	0	43	0	677380096	19	4373
2026-01-13 22:40:28.15	104.63	19.76	-29.1	-30.8	15.6	7.00e-07	0	43	0	679477248	19	4405
2026-01-13 22:40:29.15	104.87	19.72	-29.2	-31.2	15.4	8.77e-05	0	43	0	681574400	19	4520
2026-01-13 22:40:30.15	105.11	19.68	-29.4	-31.6	15.2	1.07e-04	0	43	0	683671552	19	4648
2026-01-13 22:40:31.16	105.35	19.64	-29.2	-31.3	15.4	0.00e+00	0	43	0	685768704	19	4545
2026-01-13 22:40:32.16	105.58	19.60	-29.3	-31.4	15.3	9.00e-05	0	43	0	686817280	19	4579
2026-01-13 22:40:33.16	105.82	19.56	-29.3	-31.4	15.2	6.79e-05	0	43	0	688914432	19	4592
2026-01-13 22:40:34.16	106.05	19.52	-29.3	-31.5	15.2	0.00e+00	0	43	0	691011584	19	4639
2026-01-13 22:40:35.17	106.29	19.48	-29.5	-31.9	15.0	0.00e+00	0	43	0	693108736	19	4743
2026-01-13 22:40:36.17	106.52	19.44	-29.5	-31.9	15.0	4.42e-05	0	43	0	694157312	19	4745
2026-01-13 22:40:37.17	106.75	19.40	-29.7	-32.5	14.5	5.30e-06	0	43	0	696254464	19	4967
2026-01-13 22:40:38.17	106.98	19.36	-29.8	-32.6	14.5	0.00e+00	0	43	0	698351616	19	5002
2026-01-13 22:40:39.18	107.22	19.31	-29.9	-33.1	14.2	4.42e-05	0	43	0	700448768	19	5161
2026-01-13 22:40:40.19	107.45	19.27	-29.8	-32.6	14.5	0.00e+00	0	43	0	702545920	19	4998
2026-01-13 22:40:41.18	107.68	19.23	-29.7	-32.4	14.6	0.00e+00	0	42	0	703594496	19	4933
2026-01-13 22:40:42.19	107.91	19.18	-29.6	-32.3	14.7	9.90e-06	0	42	0	705691648	19	4879
2026-01-13 22:40:43.18	108.13	19.14	-29.6	-32.2	14.8	0.00e+00	0	43	0	707788800	19	4851
2026-01-13 22:40:44.19	108.36	19.09	-29.7	-32.5	14.5	4.04e-05	0	42	0	709885952	19	4964
2026-01-13 22:40:45.19	108.59	19.05	-29.6	-32.2	14.7	0.00e+00	0	42	0	711983104	19	4841
2026-01-13 22:40:46.20	108.82	19.00	-29.6	-32.1	14.8	3.80e-06	0	43	0	713031680	19	4821
2026-01-13 22:40:47.20	109.05	18.96	-29.5	-32.0	14.8	2.41e-04	0	43	0	715128832	19	4803
2026-01-13 22:40:48.19	109.27	18.91	-29.5	-32.0	14.9	1.89e-04	0	43	0	717225984	19	4792
2026-01-13 22:40:49.19	109.49	18.87	-29.6	-32.2	14.7	0.00e+00	0	43	0	719323136	19	4864
2026-01-13 22:40:50.20	109.72	18.82	-29.8	-32.7	14.5	1.64e-04	0	43	0	721420288	19	5030
2026-01-13 22:40:51.20	109.94	18.77	-29.9	-33.1	14.2	1.41e-04	0	43	0	722468864	19	5164
2026-01-13 22:40:52.21	110.17	18.72	-30.0	-32.9	13.9	2.20e-06	0	42	0	724566016	20	5010
2026-01-13 22:40:53.21	110.39	18.68	-30.3	-33.5	13.5	2.57e-04	0	43	0	726663168	20	5230
2026-01-13 22:40:54.22	110.61	18.63	-30.3	-33.8	13.3	2.90e-04	0	43	0	728760320	20	5332
2026-01-13 22:40:55.22	110.83	18.58	-30.5	-34.1	13.1	2.59e-05	0	43	0	730857472	20	5481
2026-01-13 22:40:56.22	111.05	18.53	-30.5	-34.0	13.1	2.48e-04	0	43	0	731906048	20	5446
2026-01-13 22:40:57.22	111.27	18.48	-30.6	-33.9	12.9	2.10e-04	0	43	0	734003200	21	5278
2026-01-13 22:40:58.22	111.49	18.43	-30.8	-34.4	12.6	8.16e-05	0	43	0	736100352	21	5486
2026-01-13 22:40:59.22	111.71	18.38	-30.6	-34.0	12.9	5.11e-05	0	43	0	738197504	21	5304
2026-01-13 22:41:00.22	111.93	18.34	-30.5	-33.7	13.1	1.57e-04	0	43	0	739246080	21	5182
2026-01-13 22:41:01.22	112.14	18.29	-30.4	-33.5	13.2	3.43e-05	0	43	0	741343232	21	5117
2026-01-13 22:41:02.22	112.36	18.23	-30.4	-33.5	13.2	2.67e-05	0	43	0	743440384	21	5121
2026-01-13 22:41:03.22	112.57	18.18	-30.4	-33.4	13.2	1.75e-05	0	43	0	745537536	21	5091
2026-01-13 22:41:04.22	112.79	18.13	-30.3	-33.3	13.3	2.05e-05	0	43	0	747634688	21	5048
2026-01-13 22:41:05.22	113.00	18.08	-30.3	-33.3	13.3	2.28e-05	0	42	0	748683264	21	5055
2026-01-13 22:41:06.22	113.21	18.03	-30.3	-33.1	13.4	2.21e-05	0	43	0	750780416	21	4988
2026-01-13 22:41:07.22	113.43	17.98	-30.4	-33.3	13.2	1.75e-05	0	43	0	752877568	21	5074
2026-01-13 22:41:08.22	113.64	17.93	-30.4	-33.5	13.1	2.67e-05	0	43	0	754974720	21	5126
2026-01-13 22:41:09.22	113.85	17.87	-30.3	-33.1	13.4	1.75e-05	0	43	0	757071872	21	4982
2026-01-13 22:41:10.22	114.06	17.82	-30.2	-33.0	13.5	1.37e-05	0	43	0	758120448	21	4941
2026-01-13 22:41:11.23	114.27	17.77	-30.3	-33.2	13.3	1.14e-05	0	43	0	760217600	21	5027
2026-01-13 22:41:12.23	114.48	17.72	-30.4	-33.5	13.1	1.83e-05	0	43	0	762314752	21	5136
2026-01-13 22:41:13.23	114.69	17.66	-30.5	-33.6	13.0	3.28e-05	0	43	0	764411904	21	5192
2026-01-13 22:41:14.24	114.90	17.61	-30.6	-33.9	12.8	5.56e-05	0	43	0	766509056	21	5293
2026-01-13 22:41:15.24	115.10	17.55	-30.6	-34.0	12.8	6.56e-05	0	43	0	767557632	21	5335
2026-01-13 22:41:16.24	115.31	17.50	-30.6	-34.0	12.8	4.95e-05	0	43	0	769654784	21	5319
2026-01-13 22:41:17.24	115.51	17.45	-30.7	-34.2	12.6	8.77e-05	0	43	0	771751936	21	5401
2026-01-13 22:41:18.24	115.72	17.39	-30.7	-34.3	12.6	1.12e-04	0	43	0	773849088	21	5440
2026-01-13 22:41:19.24	115.92	17.34	-30.6	-33.9	12.8	8.54e-05	0	43	0	775946240	21	5305
2026-01-13 22:41:20.24	116.13	17.28	-30.5	-33.8	12.9	5.49e-05	0	43	0	776994816	21	5269
2026-01-13 22:41:21.24	116.33	17.23	-30.5	-33.9	12.8	5.56e-05	0	43	0	779091968	21	5305
2026-01-13 22:41:22.24	116.53	17.17	-30.6	-34.0	12.7	8.62e-05	0	43	0	781189120	21	5346
2026-01-13 22:41:23.24	116.73	17.12	-30.3	-33.2	13.2	2.97e-05	0	43	0	783286272	21	5041
2026-01-13 22:41:24.24	116.93	17.06	-30.2	-32.9	13.4	1.44e-05	0	43	0	784334848	21	4921
2026-01-13 22:41:25.24	117.13	17.00	-30.1	-32.7	13.6	6.80e-06	0	43	0	786432000	21	4856
2026-01-13 22:41:26.24	117.33	16.95	-30.2	-33.0	13.4	1.14e-05	0	43	0	788529152	21	4941
2026-01-13 22:41:27.24	117.53	16.89	-30.2	-33.0	13.3	1.60e-05	0	43	0	790626304	21	4974
2026-01-13 22:41:28.23	117.72	16.84	-30.3	-33.2	13.3	1.67e-05	0	43	0	792723456	21	5012
2026-01-13 22:41:29.23	117.92	16.78	-30.2	-33.0	13.3	2.13e-05	0	43	0	793772032	21	4965
2026-01-13 22:41:30.24	118.12	16.72	-30.1	-32.8	13.5	8.30e-06	0	43	0	795869184	21	4863
2026-01-13 22:41:31.24	118.31	16.66	-30.2	-33.0	13.3	1.37e-05	0	43	0	797966336	21	4937
2026-01-13 22:41:32.25	118.51	16.61	-30.3	-33.3	13.2	7.32e-05	0	43	0	800063488	21	5045
2026-01-13 22:41:33.25	118.70	16.55	-30.3	-33.3	13.2	8.69e-05	0	42	0	802160640	21	5061
2026-01-13 22:41:34.25	118.89	16.49	-30.5	-33.8	12.8	6.10e-05	0	43	0	803209216	21	5274
2026-01-13 22:41:35.25	119.09	16.43	-30.6	-34.0	12.7	5.79e-05	0	43	0	805306368	21	5334
2026-01-13 22:41:36.25	119.28	16.37	-30.8	-34.5	12.3	2.33e-04	0	43	0	807403520	21	5562
2026-01-13 22:41:37.25	119.47	16.32	-30.8	-34.5	12.3	1.59e-04	0	43	0	809500672	21	5554
2026-01-13 22:41:38.25	119.66	16.26	-30.8	-34.6	12.2	2.10e-04	0	43	0	811597824	21	5599
2026-01-13 22:41:39.26	119.85	16.20	-30.6	-34.1	12.6	1.29e-04	0	43	0	812646400	21	5366
2026-01-13 22:41:40.26	120.04	16.14	-30.5	-33.7	12.9	7.78e-05	0	43	0	814743552	21	5218
2026-01-13 22:41:41.26	120.23	16.08	-30.4	-33.4	13.0	3.81e-05	0	43	0	816840704	21	5127
2026-01-13 22:41:42.27	120.41	16.02	-30.4	-33.5	13.0	4.34e-05	0	43	0	818937856	21	5159
2026-01-13 22:41:43.27	120.60	15.96	-30.5	-33.7	12.9	5.87e-05	0	42	0	819986432	21	5235
2026-01-13 22:41:44.27	120.79	15.90	-30.4	-33.6	12.9	3.66e-05	0	43	0	822083584	21	5179
2026-01-13 22:41:45.27	120.97	15.84	-30.4	-33.5	13.0	3.73e-05	0	43	0	824180736	21	5159
2026-01-13 22:41:46.28	121.16	15.78	-30.5	-33.8	12.8	3.89e-05	0	43	0	826277888	21	5238
2026-01-13 22:41:47.28	121.34	15.72	-30.5	-33.7	12.9	8.01e-05	0	43	0	828375040	21	5214
2026-01-13 22:41:48.28	121.52	15.67	-30.3	-33.1	13.3	1.75e-05	0	43	0	829423616	21	4975
2026-01-13 22:41:49.28	121.71	15.61	-30.2	-32.9	13.4	1.67e-05	0	43	0	831520768	21	4920
2026-01-13 22:41:50.28	121.89	15.55	-30.2	-32.9	13.4	1.06e-05	0	43	0	833617920	21	4907
2026-01-13 22:41:51.28	122.07	15.48	-30.3	-33.0	13.3	1.90e-05	0	42	0	835715072	21	4967
2026-01-13 22:41:52.28	122.25	15.42	-30.2	-33.0	13.3	1.60e-05	0	43	0	837812224	21	4965
2026-01-13 22:41:53.28	122.43	15.36	-30.4	-33.5	13.0	2.51e-05	0	43	0	838860800	21	5141
2026-01-13 22:41:54.28	122.61	15.30	-30.5	-33.8	12.8	4.80e-05	0	43	0	840957952	21	5276
2026-01-13 22:41:55.29	122.79	15.24	-30.7	-34.2	12.5	1.27e-04	0	43	0	843055104	21	5430
2026-01-13 22:41:56.29	122.96	15.18	-30.6	-34.1	12.6	1.13e-04	0	43	0	845152256	21	5385
2026-01-13 22:41:57.30	123.14	15.12	-30.5	-33.6	12.9	4.88e-05	0	43	0	847249408	21	5201
2026-01-13 22:41:58.29	123.32	15.06	-30.2	-33.0	13.3	1.75e-05	0	43	0	848297984	21	4970
2026-01-13 22:41:59.30	123.49	15.00	-30.2	-32.9	13.3	1.60e-05	0	43	0	850395136	21	4933
2026-01-13 22:42:00.30	123.67	14.94	-30.1	-33.3	13.5	1.60e-05	0	43	0	852492288	20	5163
2026-01-13 22:42:01.30	123.84	14.88	-30.0	-32.8	13.7	5.30e-06	0	43	0	854589440	20	4988
2026-01-13 22:42:02.30	124.01	14.82	-30.0	-32.8	13.7	4.50e-06	0	43	0	856686592	20	5004
2026-01-13 22:42:03.31	124.19	14.75	-30.1	-33.3	13.4	4.50e-06	0	43	0	857735168	20	5172
2026-01-13 22:42:04.30	124.36	14.69	-30.2	-33.4	13.3	1.52e-05	0	43	0	859832320	20	5222
2026-01-13 22:42:05.30	124.53	14.63	-30.3	-33.7	13.1	3.43e-05	0	43	0	861929472	20	5353
2026-01-13 22:42:06.30	124.70	14.57	-30.4	-33.9	12.9	4.80e-05	0	42	0	864026624	20	5420
2026-01-13 22:42:07.30	124.87	14.51	-30.3	-33.9	13.0	3.89e-05	0	43	0	865075200	20	5405
2026-01-13 22:42:08.29	125.04	14.45	-30.2	-33.4	13.3	1.67e-05	0	43	0	867172352	20	5215
2026-01-13 22:42:09.30	125.21	14.38	-30.1	-33.2	13.4	5.30e-06	0	43	0	869269504	20	5138
2026-01-13 22:42:10.30	125.37	14.32	-30.0	-33.0	13.5	9.90e-06	0	43	0	871366656	20	5081
2026-01-13 22:42:11.30	125.54	14.26	-30.1	-33.3	13.2	1.67e-05	0	43	0	873463808	20	5195
2026-01-13 22:42:12.30	125.71	14.20	-30.2	-33.5	13.2	2.67e-05	0	43	0	874512384	20	5283
2026-01-13 22:42:13.30	125.87	14.14	-30.1	-33.3	13.3	1.37e-05	0	43	0	876609536	20	5192
2026-01-13 22:42:14.31	126.04	14.07	-30.2	-33.6	13.2	2.51e-05	0	43	0	878706688	20	5293
2026-01-13 22:42:15.31	126.20	14.01	-30.4	-34.0	12.9	9.30e-05	0	43	0	880803840	20	5456
2026-01-13 22:42:16.32	126.37	13.95	-30.5	-33.9	12.6	6.63e-05	0	43	0	882900992	21	5319
2026-01-13 22:42:17.32	126.53	13.89	-30.6	-34.2	12.5	1.10e-04	0	43	0	883949568	21	5420
2026-01-13 22:42:18.32	126.69	13.82	-30.7	-34.4	12.3	2.28e-04	0	43	0	886046720	21	5504
2026-01-13 22:42:19.32	126.86	13.76	-30.6	-34.1	12.4	1.59e-04	0	43	0	888143872	21	5412
2026-01-13 22:42:20.32	127.02	13.70	-30.5	-33.9	12.5	9.23e-05	0	43	0	890241024	21	5334
2026-01-13 22:42:21.32	127.18	13.64	-30.5	-33.9	12.6	9.84e-05	0	43	0	891289600	21	5321
2026-01-13 22:42:22.33	127.34	13.57	-30.6	-34.0	12.4	1.59e-04	0	43	0	893386752	21	5378
2026-01-13 22:42:23.33	127.50	13.51	-30.5	-33.9	12.5	1.43e-04	0	43	0	895483904	21	5344
2026-01-13 22:42:24.33	127.66	13.45	-30.6	-34.3	12.3	1.39e-04	0	43	0	897581056	21	5490
2026-01-13 22:42:25.33	127.81	13.38	-30.8	-34.7	12.0	3.58e-04	0	42	0	899678208	21	5672
2026-01-13 22:42:26.33	127.97	13.32	-30.8	-34.8	11.9	3.49e-04	0	43	0	901775360	21	5731
2026-01-13 22:42:27.33	128.13	13.26	-30.9	-35.3	11.5	6.50e-04	0	42	0	902823936	21	5945
2026-01-13 22:42:28.33	128.28	13.20	-30.9	-35.2	11.6	6.13e-04	0	43	0	904921088	21	5891
2026-01-13 22:42:29.34	128.44	13.13	-30.9	-35.3	11.4	1.04e-03	0	43	0	907018240	21	5973
2026-01-13 22:42:30.34	128.59	13.07	-30.7	-34.6	12.0	5.50e-04	0	42	0	909115392	21	5620
2026-01-13 22:42:31.33	128.75	13.01	-30.4	-33.8	12.5	1.71e-04	0	43	0	910163968	21	5287
2026-01-13 22:42:32.33	128.90	12.95	-30.4	-33.6	12.7	5.56e-05	0	43	0	912261120	21	5194
2026-01-13 22:42:33.33	129.05	12.88	-30.3	-33.2	12.9	4.88e-05	0	43	0	914358272	21	5066
2026-01-13 22:42:34.32	129.20	12.82	-30.4	-33.5	12.8	5.49e-05	0	43	0	916455424	21	5167
2026-01-13 22:42:35.33	129.35	12.76	-30.4	-33.7	12.6	1.04e-04	0	43	0	918552576	21	5253
2026-01-13 22:42:36.33	129.50	12.69	-30.4	-33.5	12.7	8.62e-05	0	43	0	919601152	21	5195
2026-01-13 22:42:37.34	129.66	12.63	-30.5	-34.0	12.4	1.11e-04	0	43	0	921698304	21	5366
2026-01-13 22:42:38.34	129.81	12.57	-30.6	-34.3	12.2	1.98e-04	0	43	0	923795456	21	5517
2026-01-13 22:42:39.34	129.95	12.50	-30.7	-34.5	12.0	2.75e-04	0	43	0	925892608	21	5605
2026-01-13 22:42:40.34	130.10	12.44	-30.7	-34.7	11.9	4.21e-04	0	43	0	927989760	21	5679
2026-01-13 22:42:41.34	130.25	12.38	-30.6	-34.4	12.0	3.29e-04	0	43	0	929038336	21	5578
2026-01-13 22:42:42.33	130.40	12.32	-30.7	-34.5	12.0	3.20e-04	0	42	0	931135488	21	5625
2026-01-13 22:42:43.33	130.54	12.25	-30.7	-34.7	11.8	4.27e-04	0	43	0	933232640	21	5700
2026-01-13 22:42:44.33	130.69	12.19	-30.7	-34.6	11.9	4.37e-04	0	43	0	935329792	21	5669
2026-01-13 22:42:45.33	130.83	12.13	-30.6	-34.3	12.1	3.33e-04	0	43	0	936378368	21	5495
2026-01-13 22:42:46.33	130.98	12.06	-30.5	-34.1	12.2	3.44e-04	0	43	0	938475520	21	5444
2026-01-13 22:42:47.33	131.12	12.00	-30.6	-34.3	12.1	4.91e-04	0	43	0	940572672	21	5520
2026-01-13 22:42:48.33	131.27	11.94	-30.7	-34.6	11.9	3.36e-04	0	43	0	942669824	21	5632
2026-01-13 22:42:49.33	131.41	11.87	-30.6	-34.5	12.0	9.16e-04	0	43	0	944766976	21	5606
2026-01-13 22:42:50.34	131.55	11.81	-30.8	-34.9	11.6	1.34e-03	0	42	0	945815552	21	5799
2026-01-13 22:42:51.33	131.69	11.75	-30.7	-34.8	11.7	6.08e-04	0	43	0	947912704	21	5761
2026-01-13 22:42:52.33	131.83	11.68	-30.8	-35.0	11.5	1.39e-03	0	42	0	950009856	21	5846
2026-01-13 22:42:53.33	131.97	11.62	-30.6	-34.6	11.8	8.80e-04	0	43	0	952107008	21	5648
2026-01-13 22:42:54.33	132.11	11.56	-30.5	-34.2	12.1	3.73e-04	0	43	0	954204160	21	5487
2026-01-13 22:42:55.34	132.25	11.50	-30.5	-34.0	12.3	2.59e-04	0	43	0	955252736	21	5401
2026-01-13 22:42:56.34	132.39	11.43	-30.5	-34.5	12.2	5.74e-04	0	43	0	957349888	20	5722
2026-01-13 22:42:57.34	132.53	11.37	-30.5	-34.2	12.1	2.37e-04	0	43	0	959447040	21	5485
2026-01-13 22:42:58.34	132.67	11.31	-30.7	-34.7	11.7	8.41e-04	0	43	0	961544192	21	5709
2026-01-13 22:42:59.34	132.80	11.24	-30.8	-35.1	11.5	1.53e-03	0	43	0	963641344	21	5860
2026-01-13 22:43:00.34	132.94	11.18	-30.9	-35.2	11.4	7.04e-04	0	43	0	964689920	21	5917
2026-01-13 22:43:01.34	133.08	11.12	-31.1	-35.4	10.9	2.90e-03	0	43	0	966787072	22	5913
2026-01-13 22:43:02.34	133.21	11.05	-31.1	-35.5	10.8	3.19e-03	0	43	0	968884224	22	5980
2026-01-13 22:43:03.34	133.35	10.99	-31.2	-36.1	10.3	4.79e-03	0	43	0	970981376	22	6302
2026-01-13 22:43:04.35	133.48	10.93	-31.2	-36.1	10.2	6.59e-03	0	43	0	972029952	22	6314
2026-01-13 22:43:05.35	133.62	10.87	-31.2	-36.1	10.2	6.91e-03	0	43	0	974127104	22	6320
2026-01-13 22:43:06.35	133.75	10.80	-31.2	-36.2	10.2	6.21e-03	0	43	0	976224256	22	6368
2026-01-13 22:43:07.35	133.88	10.74	-31.2	-36.2	10.2	7.26e-03	0	43	0	978321408	22	6358
2026-01-13 22:43:08.36	134.01	10.68	-31.3	-36.3	10.0	6.99e-03	0	43	0	980418560	22	6458
2026-01-13 22:43:09.35	134.14	10.61	-31.3	-36.4	9.9	7.32e-03	0	43	0	981467136	22	6508
2026-01-13 22:43:10.36	134.28	10.55	-31.3	-36.5	9.9	1.05e-02	0	43	0	983564288	22	6540
2026-01-13 22:43:11.36	134.41	10.49	-31.1	-36.0	10.3	7.34e-03	0	43	0	985661440	22	6265
2026-01-13 22:43:12.36	134.54	10.43	-31.1	-35.7	10.5	4.84e-03	0	43	0	987758592	22	6139
2026-01-13 22:43:13.36	134.67	10.36	-31.1	-35.7	10.5	4.10e-03	0	43	0	989855744	22	6099
2026-01-13 22:43:14.36	134.80	10.30	-31.1	-35.7	10.5	3.93e-03	0	43	0	990904320	22	6085
2026-01-13 22:43:15.37	134.92	10.24	-31.2	-36.0	10.2	4.41e-03	0	43	0	993001472	22	6264
2026-01-13 22:43:16.36	135.05	10.18	-31.2	-36.2	10.1	7.03e-03	0	43	0	995098624	22	6343
2026-01-13 22:43:17.37	135.18	10.11	-31.1	-35.7	10.5	4.86e-03	0	43	0	997195776	22	6087
2026-01-13 22:43:18.37	135.31	10.05	-31.0	-35.5	10.6	3.76e-03	0	43	0	998244352	22	6015
2026-01-13 22:43:19.37	135.43	9.99	-31.0	-35.8	10.7	3.56e-03	0	43	0	1000341504	21	6295
2026-01-13 22:43:20.37	135.56	9.93	-31.1	-35.8	10.3	4.20e-03	0	43	0	1002438656	22	6194
2026-01-13 22:43:21.38	135.68	9.86	-31.2	-35.9	10.3	6.24e-03	0	43	0	1004535808	22	6247
2026-01-13 22:43:22.38	135.81	9.80	-31.2	-36.0	10.2	5.71e-03	0	43	0	1006632960	22	6257
2026-01-13 22:43:23.38	135.93	9.74	-31.2	-36.2	10.0	8.25e-03	0	43	0	1008730112	22	6383
2026-01-13 22:43:24.38	136.06	9.68	-31.2	-35.8	10.3	5.85e-03	0	43	0	1009778688	22	6177
2026-01-13 22:43:25.39	136.18	9.61	-31.1	-35.5	10.6	3.81e-03	0	43	0	1011875840	22	5995
2026-01-13 22:43:26.39	136.30	9.55	-31.1	-35.8	10.4	3.56e-03	0	43	0	1013972992	22	6139
2026-01-13 22:43:27.39	136.42	9.49	-31.1	-35.8	10.3	5.89e-03	0	43	0	1016070144	22	6173
2026-01-13 22:43:28.39	136.55	9.43	-31.1	-35.8	10.4	4.34e-03	0	43	0	1017118720	22	6147
2026-01-13 22:43:29.40	136.67	9.36	-31.1	-35.9	10.2	5.19e-03	0	43	0	1019215872	22	6232
2026-01-13 22:43:30.40	136.79	9.30	-31.2	-36.1	10.0	7.58e-03	0	43	0	1021313024	22	6369
2026-01-13 22:43:31.40	136.91	9.24	-31.1	-36.1	10.0	6.88e-03	0	43	0	1023410176	22	6367
2026-01-13 22:43:32.40	137.03	9.18	-31.2	-36.2	9.9	1.00e-02	0	43	0	1025507328	22	6415
2026-01-13 22:43:33.41	137.15	9.12	-31.0	-35.8	10.2	7.09e-03	0	43	0	1026555904	22	6199
2026-01-13 22:43:34.41	137.27	9.05	-31.0	-35.6	10.3	5.88e-03	0	43	0	1028653056	22	6142
2026-01-13 22:43:35.40	137.38	8.99	-31.0	-35.5	10.4	5.63e-03	0	43	0	1030750208	22	6073
2026-01-13 22:43:36.41	137.50	8.93	-31.0	-35.4	10.5	3.86e-03	0	43	0	1032847360	22	5976
2026-01-13 22:43:37.40	137.62	8.87	-31.0	-35.4	10.5	4.32e-03	0	43	0	1034944512	22	5991
2026-01-13 22:43:38.40	137.74	8.81	-30.9	-35.2	10.6	3.41e-03	0	43	0	1035993088	22	5899
2026-01-13 22:43:39.39	137.85	8.75	-31.0	-35.4	10.4	3.72e-03	0	43	0	1038090240	22	6011
2026-01-13 22:43:40.40	137.97	8.69	-31.0	-35.7	10.2	5.73e-03	0	43	0	1040187392	22	6151
2026-01-13 22:43:41.40	138.08	8.62	-31.0	-35.6	10.3	4.84e-03	0	43	0	1042284544	22	6121
2026-01-13 22:43:42.40	138.20	8.56	-31.1	-36.0	10.0	7.38e-03	0	43	0	1044381696	22	6317
2026-01-13 22:43:43.41	138.31	8.50	-31.1	-35.8	10.1	7.70e-03	0	43	0	1045430272	22	6198
2026-01-13 22:43:44.41	138.43	8.44	-31.2	-36.4	9.6	9.82e-03	0	43	0	1047527424	22	6552
2026-01-13 22:43:45.41	138.54	8.38	-31.3	-36.8	9.3	1.76e-02	0	43	0	1049624576	22	6755
2026-01-13 22:43:46.41	138.65	8.32	-31.3	-36.8	9.3	1.59e-02	0	43	0	1051721728	22	6780
2026-01-13 22:43:47.41	138.77	8.26	-31.4	-37.3	8.9	2.44e-02	0	43	0	1052770304	22	7067
2026-01-13 22:43:48.41	138.88	8.20	-31.5	-37.4	8.8	3.22e-02	0	43	0	1054867456	22	7156
2026-01-13 22:43:49.40	138.99	8.14	-31.4	-37.2	8.9	2.74e-02	0	43	0	1056964608	22	7038
2026-01-13 22:43:50.40	139.10	8.07	-31.4	-37.3	8.9	2.68e-02	0	43	0	1059061760	22	7069
2026-01-13 22:43:51.40	139.21	8.01	-31.4	-37.3	8.9	3.08e-02	0	43	0	1061158912	22	7052
2026-01-13 22:43:52.41	139.32	7.95	-31.4	-37.3	8.9	2.63e-02	0	43	0	1062207488	22	7062
2026-01-13 22:43:53.41	139.43	7.89	-31.6	-37.2	8.6	3.65e-02	0	43	0	1064304640	23	6935
2026-01-13 22:43:54.41	139.54	7.83	-31.6	-37.3	8.5	4.22e-02	0	43	0	1066401792	23	6988
2026-01-13 22:43:55.41	139.65	7.77	-31.5	-37.2	8.5	4.12e-02	0	43	0	1068498944	23	6908
2026-01-13 22:43:56.40	139.76	7.71	-31.4	-36.7	8.9	3.57e-02	0	43	0	1070596096	23	6608
2026-01-13 22:43:57.40	139.86	7.65	-31.3	-36.6	8.9	2.69e-02	0	43	0	1071644672	23	6616
2026-01-13 22:43:58.39	139.97	7.59	-31.3	-36.6	8.8	3.03e-02	0	43	0	1073741824	23	6665
2026-01-13 22:43:59.39	140.08	7.53	-31.3	-36.7	8.7	3.05e-02	0	43	0	1075838976	23	6724
2026-01-13 22:44:00.39	140.18	7.47	-31.3	-36.8	8.6	3.89e-02	0	43	0	1077936128	23	6809
2026-01-13 22:44:01.39	140.29	7.41	-31.3	-37.0	8.5	3.66e-02	0	43	0	1078984704	23	6912
2026-01-13 22:44:02.38	140.40	7.35	-31.2	-37.2	8.6	4.56e-02	0	43	0	1081081856	22	7150
2026-01-13 22:44:03.38	140.50	7.29	-31.2	-37.5	8.4	3.63e-02	0	43	0	1083179008	22	7411
2026-01-13 22:44:04.39	140.61	7.23	-31.3	-37.7	8.2	5.13e-02	0	43	0	1085276160	22	7558
2026-01-13 22:44:05.39	140.71	7.17	-31.2	-37.4	8.3	5.13e-02	0	43	0	1087373312	22	7379
2026-01-13 22:44:06.39	140.82	7.11	-31.3	-37.9	8.0	4.86e-02	0	43	0	1088421888	22	7697
2026-01-13 22:44:07.39	140.92	7.05	-32.8	-47.0	3.8	8.36e-02	0	43	104	1090519040	25	18350
2026-01-13 22:44:08.39	141.02	6.99	-33.3	-47.7	3.8	1.49e+00	0	43	104	1090519040	26	18953
2026-01-13 22:44:09.38	141.13	6.93	-33.8	-48.1	3.8	1.49e+00	0	43	104	1090519040	27	18819

#Closed at: 2026-01-13 22:44:09
#Recorded file [1090 MB]: D:/data/31010_260114_013425.dat