passes_logs/2026/01/13/R2M6_AANII_01/R2M6_AANII_01__20260113_003303_NOAA_20_JPSS-1_rec.log

#Pass ID: 20260113_003303_NOAA 20 (JPSS-1)
#Satellite: NOAA 20 (JPSS-1)
#Configuration: NOAA 20
#almurnet v.1.7.20240730
#Start time: 2026-01-13 00:33:05

#Version: 2.2.20231116
#Station: R2M6_AANII_01
#Location: 30.233357 lon 59.946436 lat
#TLE: 1 43013U 17073A   26012.29914746  .00000087  00000+0  62270-4 0  9997
#TLE: 2 43013  98.7632 313.2670 0001616  43.2193 316.9110 14.19535514422351

#Time	Az	El	Level	Level2	SNR	BER	BlckErr	Temp	State	Recorded	gain1	gain2
2026-01-13 00:33:05.56	17.07	7.15	-32.1	-41.3	4.2	1.44e+00	0	40	0	0	24	10453
2026-01-13 00:33:06.56	17.06	7.22	-32.1	-41.6	4.2	1.44e+00	0	39	104	0	24	10661
2026-01-13 00:33:07.56	17.06	7.30	-32.2	-41.7	4.8	8.64e-01	0	40	0	0	24	10725
2026-01-13 00:33:08.57	17.05	7.38	-32.1	-41.0	5.1	6.80e-01	0	40	0	1048576	24	10021
2026-01-13 00:33:09.57	17.04	7.46	-32.1	-40.3	5.5	5.62e-01	0	40	0	3145728	24	9305
2026-01-13 00:33:10.58	17.03	7.54	-32.0	-39.8	5.9	4.61e-01	0	40	0	5242880	24	8845
2026-01-13 00:33:11.58	17.02	7.62	-31.9	-39.5	6.4	2.45e-01	0	40	0	7340032	23	8669
2026-01-13 00:33:12.59	17.02	7.70	-31.8	-39.1	6.7	2.12e-01	0	40	0	9437184	23	8342
2026-01-13 00:33:13.60	17.01	7.78	-31.8	-38.7	7.0	1.52e-01	0	40	0	10485760	23	8022
2026-01-13 00:33:14.60	17.00	7.85	-31.7	-38.4	7.3	1.50e-01	0	40	0	12582912	23	7821
2026-01-13 00:33:15.61	16.99	7.93	-31.8	-38.7	7.1	1.29e-01	0	40	0	14680064	23	7999
2026-01-13 00:33:16.61	16.98	8.01	-31.7	-38.3	7.3	1.29e-01	0	40	0	16777216	23	7736
2026-01-13 00:33:17.62	16.98	8.10	-31.6	-38.0	7.7	1.14e-01	0	40	0	18874368	23	7459
2026-01-13 00:33:18.63	16.97	8.18	-31.6	-37.7	7.9	8.12e-02	0	40	0	19922944	23	7273
2026-01-13 00:33:19.63	16.96	8.26	-31.4	-37.4	8.5	5.04e-02	0	40	0	22020096	22	7204
2026-01-13 00:33:20.64	16.95	8.34	-31.4	-37.3	8.6	3.35e-02	0	40	0	24117248	22	7131
2026-01-13 00:33:21.65	16.94	8.42	-31.3	-37.1	8.7	4.19e-02	0	40	0	26214400	22	7013
2026-01-13 00:33:22.65	16.93	8.50	-31.2	-36.6	9.2	2.48e-02	0	40	0	28311552	22	6722
2026-01-13 00:33:23.66	16.93	8.58	-31.1	-36.3	9.5	1.85e-02	0	40	0	29360128	22	6536
2026-01-13 00:33:24.67	16.92	8.67	-31.0	-36.2	9.9	1.16e-02	0	40	0	31457280	21	6598
2026-01-13 00:33:25.67	16.91	8.75	-31.0	-35.8	9.8	1.15e-02	0	40	0	33554432	22	6272
2026-01-13 00:33:26.67	16.90	8.83	-31.0	-35.9	9.8	1.19e-02	0	40	0	35651584	22	6309
2026-01-13 00:33:27.68	16.89	8.91	-31.1	-36.0	9.8	1.15e-02	0	40	0	37748736	22	6347
2026-01-13 00:33:28.68	16.88	9.00	-31.2	-36.4	9.4	1.81e-02	0	40	0	38797312	22	6556
2026-01-13 00:33:29.68	16.87	9.08	-31.1	-36.2	9.5	1.56e-02	0	40	0	40894464	22	6468
2026-01-13 00:33:30.69	16.86	9.16	-31.0	-35.8	9.9	1.16e-02	0	40	0	42991616	22	6240
2026-01-13 00:33:31.69	16.85	9.25	-31.0	-35.7	10.0	1.26e-02	0	40	0	45088768	22	6205
2026-01-13 00:33:32.70	16.84	9.33	-31.0	-36.1	10.1	8.14e-03	0	40	0	46137344	21	6474
2026-01-13 00:33:33.70	16.83	9.42	-30.9	-36.0	10.2	7.54e-03	0	40	0	48234496	21	6430
2026-01-13 00:33:34.71	16.82	9.50	-30.9	-36.0	10.2	6.11e-03	0	40	0	50331648	21	6425
2026-01-13 00:33:35.72	16.81	9.59	-31.0	-35.7	10.0	7.94e-03	0	40	0	52428800	22	6191
2026-01-13 00:33:36.72	16.81	9.67	-31.0	-35.8	9.9	9.87e-03	0	40	0	54525952	22	6230
2026-01-13 00:33:37.72	16.80	9.76	-31.0	-35.8	10.0	9.00e-03	0	40	0	56623104	22	6210
2026-01-13 00:33:38.73	16.79	9.84	-31.0	-35.6	10.1	8.34e-03	0	40	0	57671680	22	6132
2026-01-13 00:33:39.73	16.78	9.93	-30.9	-35.7	10.4	8.60e-03	0	41	0	59768832	21	6300
2026-01-13 00:33:40.73	16.77	10.02	-30.9	-35.9	10.2	4.60e-03	0	40	0	61865984	21	6373
2026-01-13 00:33:41.73	16.76	10.10	-30.9	-35.7	10.4	5.07e-03	0	41	0	63963136	21	6295
2026-01-13 00:33:42.73	16.75	10.19	-30.9	-35.7	10.4	7.44e-03	0	41	0	65011712	21	6281
2026-01-13 00:33:43.73	16.74	10.28	-30.8	-35.5	10.6	7.24e-03	0	40	0	67108864	21	6145
2026-01-13 00:33:44.74	16.73	10.37	-30.8	-35.6	10.6	3.68e-03	0	41	0	69206016	21	6201
2026-01-13 00:33:45.74	16.71	10.45	-30.9	-35.8	10.4	6.77e-03	0	41	0	71303168	21	6326
2026-01-13 00:33:46.75	16.70	10.54	-30.9	-35.6	10.5	8.33e-03	0	41	0	73400320	21	6235
2026-01-13 00:33:47.76	16.69	10.63	-30.8	-35.5	10.7	4.40e-03	0	41	0	74448896	21	6159
2026-01-13 00:33:48.76	16.68	10.72	-30.9	-35.6	10.5	6.84e-03	0	41	0	76546048	21	6230
2026-01-13 00:33:49.77	16.67	10.81	-30.9	-35.8	10.5	7.26e-03	0	41	0	78643200	21	6292
2026-01-13 00:33:50.78	16.66	10.90	-31.0	-36.0	10.2	5.08e-03	0	41	0	80740352	21	6442
2026-01-13 00:33:51.78	16.65	10.99	-30.9	-35.8	10.4	8.41e-03	0	41	0	82837504	21	6321
2026-01-13 00:33:52.79	16.64	11.08	-30.8	-35.5	10.7	6.22e-03	0	41	0	83886080	21	6138
2026-01-13 00:33:53.80	16.63	11.17	-30.8	-35.3	10.8	2.63e-03	0	41	0	85983232	21	6053
2026-01-13 00:33:54.81	16.62	11.27	-30.7	-35.0	11.1	4.81e-03	0	41	0	88080384	21	5893
2026-01-13 00:33:55.82	16.60	11.36	-30.7	-35.1	11.0	5.22e-03	0	41	0	90177536	21	5953
2026-01-13 00:33:56.82	16.59	11.45	-30.7	-35.0	11.1	2.14e-03	0	41	0	92274688	21	5883
2026-01-13 00:33:57.82	16.58	11.54	-30.7	-35.1	11.0	4.91e-03	0	41	0	93323264	21	5938
2026-01-13 00:33:58.83	16.57	11.63	-30.7	-35.1	11.0	3.07e-03	0	41	0	95420416	21	5956
2026-01-13 00:33:59.84	16.56	11.73	-30.8	-35.4	10.8	2.46e-03	0	41	0	97517568	21	6081
2026-01-13 00:34:00.85	16.55	11.82	-30.7	-35.0	11.0	5.55e-03	0	41	0	99614720	21	5916
2026-01-13 00:34:01.85	16.53	11.91	-30.7	-34.9	11.2	1.44e-03	0	41	0	101711872	21	5840
2026-01-13 00:34:02.86	16.52	12.01	-30.7	-35.0	11.1	1.71e-03	0	41	0	102760448	21	5892
2026-01-13 00:34:03.87	16.51	12.10	-30.7	-34.9	11.2	4.50e-03	0	41	0	104857600	21	5871
2026-01-13 00:34:04.87	16.50	12.20	-30.7	-35.1	11.0	4.51e-03	0	41	0	106954752	21	5953
2026-01-13 00:34:05.88	16.49	12.29	-30.7	-35.0	11.1	1.60e-03	0	41	0	109051904	21	5907
2026-01-13 00:34:06.88	16.47	12.39	-30.7	-35.0	11.1	4.49e-03	0	41	0	111149056	21	5907
2026-01-13 00:34:07.89	16.46	12.48	-30.7	-35.1	11.0	4.52e-03	0	41	0	112197632	21	5945
2026-01-13 00:34:08.90	16.45	12.58	-30.9	-35.5	10.8	2.26e-03	0	41	0	114294784	21	6112
2026-01-13 00:34:09.91	16.43	12.68	-30.8	-35.2	11.0	5.37e-03	0	41	0	116391936	21	6010
2026-01-13 00:34:10.92	16.42	12.78	-30.8	-35.2	11.0	4.56e-03	0	41	0	118489088	21	5997
2026-01-13 00:34:11.92	16.41	12.87	-30.8	-35.1	11.1	1.92e-03	0	41	0	120586240	21	5959
2026-01-13 00:34:12.92	16.40	12.97	-30.8	-35.3	11.0	1.75e-03	0	41	0	121634816	21	6022
2026-01-13 00:34:13.93	16.38	13.07	-30.8	-35.2	11.1	5.05e-03	0	41	0	123731968	21	5974
2026-01-13 00:34:14.94	16.37	13.17	-30.8	-35.3	11.0	2.15e-03	0	41	0	125829120	21	6017
2026-01-13 00:34:15.95	16.36	13.27	-30.9	-35.5	10.8	2.11e-03	0	41	0	127926272	21	6135
2026-01-13 00:34:16.96	16.34	13.37	-30.8	-35.2	11.0	2.25e-03	0	41	0	130023424	21	5996
2026-01-13 00:34:17.96	16.33	13.47	-30.7	-34.8	11.3	1.83e-03	0	41	0	131072000	21	5797
2026-01-13 00:34:18.96	16.31	13.57	-30.6	-34.7	11.5	7.96e-04	0	41	0	133169152	21	5735
2026-01-13 00:34:19.97	16.30	13.67	-30.5	-34.3	11.7	6.58e-04	0	41	0	135266304	21	5557
2026-01-13 00:34:20.98	16.29	13.77	-30.5	-34.3	11.8	9.63e-04	0	41	0	137363456	21	5558
2026-01-13 00:34:21.98	16.27	13.87	-30.5	-34.3	11.8	5.03e-04	0	41	0	139460608	21	5551
2026-01-13 00:34:22.99	16.26	13.97	-30.7	-34.7	11.4	1.14e-03	0	41	0	140509184	21	5762
2026-01-13 00:34:23.99	16.24	14.07	-30.5	-34.2	11.8	7.33e-04	0	41	0	142606336	21	5512
2026-01-13 00:34:25.00	16.23	14.18	-30.4	-34.4	12.0	3.47e-04	0	41	0	144703488	20	5722
2026-01-13 00:34:26.01	16.21	14.28	-30.5	-34.6	11.9	7.35e-04	0	41	0	146800640	20	5796
2026-01-13 00:34:27.01	16.20	14.38	-30.6	-34.5	11.6	5.16e-04	0	41	0	148897792	21	5654
2026-01-13 00:34:28.01	16.18	14.49	-30.8	-35.2	11.1	4.08e-03	0	41	0	149946368	21	5975
2026-01-13 00:34:29.02	16.17	14.59	-30.6	-34.5	11.7	1.26e-03	0	41	0	152043520	21	5643
2026-01-13 00:34:30.03	16.15	14.70	-30.6	-34.6	11.6	1.01e-03	0	41	0	154140672	21	5705
2026-01-13 00:34:31.03	16.14	14.80	-30.6	-34.7	11.5	7.48e-04	0	41	0	156237824	21	5725
2026-01-13 00:34:32.04	16.12	14.91	-30.8	-35.0	11.4	1.34e-03	0	41	0	158334976	21	5857
2026-01-13 00:34:33.04	16.11	15.01	-30.6	-34.6	11.6	1.31e-03	0	41	0	159383552	21	5687
2026-01-13 00:34:34.05	16.09	15.12	-30.6	-34.4	11.7	6.48e-04	0	41	0	161480704	21	5615
2026-01-13 00:34:35.05	16.07	15.23	-30.5	-34.3	11.9	8.45e-04	0	41	0	163577856	21	5541
2026-01-13 00:34:36.06	16.06	15.34	-30.5	-34.3	11.8	7.91e-04	0	41	0	165675008	21	5566
2026-01-13 00:34:37.07	16.04	15.45	-30.5	-34.1	12.0	4.29e-04	0	41	0	167772160	21	5453
2026-01-13 00:34:38.07	16.02	15.55	-30.3	-34.2	12.3	2.17e-04	0	41	0	168820736	20	5614
2026-01-13 00:34:39.07	16.01	15.66	-30.5	-34.5	12.0	6.77e-04	0	41	0	170917888	20	5757
2026-01-13 00:34:40.08	15.99	15.77	-30.3	-34.0	12.4	1.94e-04	0	41	0	173015040	20	5534
2026-01-13 00:34:41.08	15.97	15.88	-30.1	-33.6	12.7	4.94e-04	0	41	0	175112192	20	5358
2026-01-13 00:34:42.08	15.96	15.99	-30.0	-33.4	12.9	4.26e-04	0	42	0	177209344	20	5289
2026-01-13 00:34:43.09	15.94	16.10	-28.7	-32.2	12.5	5.72e-05	0	42	0	178257920	19	5403
2026-01-13 00:34:44.09	15.92	16.21	-30.1	-33.4	12.8	3.85e-04	0	41	0	180355072	20	5267
2026-01-13 00:34:45.10	15.91	16.33	-30.0	-33.1	12.1	2.79e-03	0	41	0	182452224	20	5150
2026-01-13 00:34:46.10	15.89	16.44	-30.0	-33.1	11.9	3.28e-05	0	42	0	184549376	20	5159
2026-01-13 00:34:47.11	15.87	16.55	-30.0	-33.0	12.9	4.13e-04	0	41	0	186646528	20	5132
2026-01-13 00:34:48.11	15.85	16.67	-30.1	-33.4	12.9	4.62e-04	0	41	0	187695104	20	5260
2026-01-13 00:34:49.11	15.83	16.78	-30.0	-33.1	13.2	2.67e-05	0	41	0	189792256	20	5137
2026-01-13 00:34:50.12	15.82	16.90	-30.0	-33.3	13.0	4.59e-04	0	42	0	191889408	20	5218
2026-01-13 00:34:51.12	15.80	17.01	-30.1	-33.4	12.9	4.39e-04	0	41	0	193986560	20	5286
2026-01-13 00:34:52.12	15.78	17.13	-29.9	-33.0	13.2	2.71e-03	0	42	0	196083712	20	5106
2026-01-13 00:34:53.13	15.76	17.24	-30.0	-33.0	13.2	4.57e-04	0	42	0	197132288	20	5104
2026-01-13 00:34:54.13	15.74	17.36	-30.0	-33.0	13.2	4.45e-04	0	41	0	199229440	20	5118
2026-01-13 00:34:55.14	15.72	17.48	-30.0	-33.0	13.2	2.52e-03	0	41	0	201326592	20	5108
2026-01-13 00:34:56.15	15.70	17.60	-30.1	-33.4	12.9	7.97e-04	0	41	0	203423744	20	5277
2026-01-13 00:34:57.15	15.68	17.71	-30.0	-33.1	13.1	5.05e-04	0	41	0	204472320	20	5160
2026-01-13 00:34:58.16	15.66	17.83	-30.1	-33.4	12.9	3.66e-05	0	41	0	206569472	20	5274
2026-01-13 00:34:59.16	15.64	17.95	-30.3	-33.8	12.7	3.81e-04	0	42	0	208666624	20	5417
2026-01-13 00:35:00.17	15.62	18.07	-30.0	-33.2	13.1	5.41e-04	0	42	0	210763776	20	5166
2026-01-13 00:35:01.18	15.60	18.19	-29.9	-32.9	13.3	2.36e-05	0	42	0	212860928	20	5074
2026-01-13 00:35:02.18	15.58	18.32	-29.9	-33.2	13.5	2.55e-04	0	42	0	214958080	19	5278
2026-01-13 00:35:03.18	15.56	18.44	-29.8	-33.0	13.7	2.65e-03	0	42	0	216006656	19	5183
2026-01-13 00:35:04.19	15.54	18.56	-29.8	-33.1	13.6	1.06e-05	0	42	0	218103808	19	5243
2026-01-13 00:35:05.19	15.52	18.68	-29.7	-32.7	13.9	2.49e-04	0	41	0	220200960	19	5084
2026-01-13 00:35:06.19	15.50	18.81	-29.7	-32.6	13.9	2.38e-03	0	41	0	222298112	19	5051
2026-01-13 00:35:07.20	15.48	18.93	-29.7	-32.7	13.9	2.73e-03	0	41	0	223346688	19	5090
2026-01-13 00:35:08.21	15.45	19.06	-29.7	-32.8	13.9	3.53e-04	0	41	0	225443840	19	5109
2026-01-13 00:35:09.21	15.43	19.18	-29.7	-32.8	13.9	2.76e-03	0	42	0	227540992	19	5109
2026-01-13 00:35:10.21	15.41	19.31	-29.8	-33.0	13.7	2.65e-03	0	42	0	229638144	19	5198
2026-01-13 00:35:11.22	15.39	19.44	-29.7	-32.6	14.0	3.50e-04	0	42	0	231735296	19	5031
2026-01-13 00:35:12.22	15.36	19.56	-29.7	-32.7	13.9	2.65e-03	0	42	0	232783872	19	5067
2026-01-13 00:35:13.23	15.34	19.69	-29.7	-32.6	14.0	2.45e-03	0	42	0	234881024	19	5055
2026-01-13 00:35:14.23	15.32	19.82	-29.7	-32.8	13.8	2.78e-04	0	42	0	236978176	19	5130
2026-01-13 00:35:15.24	15.29	19.95	-29.8	-33.0	13.7	2.41e-03	0	42	0	239075328	19	5199
2026-01-13 00:35:16.25	15.27	20.08	-29.8	-32.9	13.8	2.75e-03	0	42	0	241172480	19	5165
2026-01-13 00:35:17.26	15.25	20.21	-29.9	-33.2	13.6	3.25e-04	0	42	0	242221056	19	5282
2026-01-13 00:35:18.26	15.22	20.35	-30.0	-33.0	13.3	1.83e-03	0	42	0	244318208	20	5100
2026-01-13 00:35:19.27	15.20	20.48	-30.1	-33.2	13.2	2.67e-03	0	42	0	246415360	20	5182
2026-01-13 00:35:20.27	15.17	20.61	-29.9	-33.1	13.6	3.29e-04	0	42	0	248512512	19	5233
2026-01-13 00:35:21.28	15.15	20.75	-29.8	-32.9	13.8	2.55e-03	0	42	0	250609664	19	5139
2026-01-13 00:35:22.29	15.12	20.88	-29.9	-33.1	13.7	2.41e-03	0	42	0	251658240	19	5211
2026-01-13 00:35:23.30	15.10	21.02	-29.8	-33.0	13.8	3.08e-04	0	42	0	253755392	19	5174
2026-01-13 00:35:24.30	15.07	21.15	-29.9	-33.2	13.7	2.26e-03	0	42	0	255852544	19	5250
2026-01-13 00:35:25.31	15.05	21.29	-29.9	-33.1	13.7	4.50e-06	0	41	0	257949696	19	5223
2026-01-13 00:35:26.31	15.02	21.43	-30.0	-33.1	13.3	2.36e-04	0	42	0	260046848	20	5124
2026-01-13 00:35:27.31	15.00	21.56	-30.2	-33.5	13.1	2.63e-03	0	42	0	261095424	20	5264
2026-01-13 00:35:28.31	14.97	21.70	-29.9	-32.7	13.5	2.48e-03	0	42	0	263192576	20	4989
2026-01-13 00:35:29.31	14.94	21.84	-29.8	-33.0	13.8	2.18e-04	0	42	0	265289728	19	5193
2026-01-13 00:35:30.32	14.91	21.98	-30.0	-33.4	13.5	2.40e-03	0	42	0	267386880	19	5334
2026-01-13 00:35:31.33	14.89	22.13	-30.1	-33.2	13.2	2.26e-03	0	42	0	269484032	20	5175
2026-01-13 00:35:32.34	14.86	22.27	-30.1	-33.2	13.3	2.28e-05	0	42	0	270532608	20	5145
2026-01-13 00:35:33.35	14.83	22.41	-29.9	-32.7	13.6	2.17e-03	0	42	0	272629760	20	4960
2026-01-13 00:35:34.35	14.80	22.55	-29.9	-33.0	13.8	2.42e-03	0	42	0	274726912	19	5190
2026-01-13 00:35:35.35	14.77	22.70	-30.0	-32.9	13.5	6.10e-06	0	42	0	276824064	20	5036
2026-01-13 00:35:36.36	14.75	22.84	-30.1	-33.4	13.2	1.60e-05	0	42	0	278921216	20	5223
2026-01-13 00:35:37.37	14.72	22.99	-30.2	-33.6	13.0	2.49e-03	0	42	0	279969792	20	5302
2026-01-13 00:35:38.38	14.69	23.14	-30.0	-33.1	13.3	3.25e-04	0	42	0	282066944	20	5124
2026-01-13 00:35:39.38	14.66	23.29	-30.4	-34.1	12.7	3.96e-05	0	42	0	284164096	20	5525
2026-01-13 00:35:40.39	14.63	23.44	-30.5	-33.9	12.5	2.41e-03	0	42	0	286261248	21	5320
2026-01-13 00:35:41.40	14.60	23.59	-30.3	-33.8	12.9	2.62e-04	0	42	0	288358400	20	5373
2026-01-13 00:35:42.40	14.56	23.74	-30.0	-32.9	13.5	1.67e-05	0	42	0	289406976	20	5047
2026-01-13 00:35:43.41	14.53	23.89	-29.8	-32.5	13.8	4.50e-06	0	42	0	291504128	20	4891
2026-01-13 00:35:44.41	14.50	24.04	-29.8	-32.8	14.0	1.50e-04	0	42	0	293601280	19	5097
2026-01-13 00:35:45.42	14.47	24.19	-29.7	-32.7	14.1	1.50e-06	0	42	0	295698432	19	5065
2026-01-13 00:35:46.43	14.44	24.35	-29.9	-33.2	13.8	1.50e-06	0	42	0	297795584	19	5258
2026-01-13 00:35:47.43	14.41	24.50	-30.2	-33.6	13.1	1.22e-05	0	42	0	298844160	20	5306
2026-01-13 00:35:48.44	14.37	24.66	-30.3	-33.7	13.0	4.19e-05	0	42	0	300941312	20	5334
2026-01-13 00:35:49.44	14.34	24.81	-29.9	-32.7	13.7	2.16e-04	0	42	0	303038464	20	4975
2026-01-13 00:35:50.45	14.30	24.97	-29.8	-32.9	13.9	4.50e-06	0	42	0	305135616	19	5132
2026-01-13 00:35:51.46	14.27	25.13	-29.8	-33.0	13.9	2.09e-03	0	42	0	307232768	19	5168
2026-01-13 00:35:52.47	14.24	25.29	-30.0	-32.9	13.6	1.98e-04	0	42	0	308281344	20	5024
2026-01-13 00:35:53.46	14.20	25.45	-30.0	-33.3	13.7	8.30e-06	0	42	0	310378496	19	5292
2026-01-13 00:35:54.47	14.17	25.61	-30.0	-32.9	13.6	3.80e-06	0	42	0	312475648	20	5023
2026-01-13 00:35:55.48	14.13	25.78	-30.1	-33.2	13.4	2.24e-04	0	42	0	314572800	20	5151
2026-01-13 00:35:56.48	14.09	25.94	-30.0	-33.1	13.5	2.78e-04	0	42	0	316669952	20	5104
2026-01-13 00:35:57.49	14.06	26.10	-30.0	-32.9	13.6	6.10e-06	0	42	0	317718528	20	5025
2026-01-13 00:35:58.49	14.02	26.27	-30.1	-33.2	13.5	2.86e-04	0	42	0	319815680	20	5129
2026-01-13 00:35:59.49	13.98	26.43	-30.1	-33.2	13.4	2.82e-04	0	42	0	321912832	20	5124
2026-01-13 00:36:00.50	13.95	26.60	-30.0	-32.9	13.7	5.30e-06	0	42	0	324009984	20	5021
2026-01-13 00:36:01.50	13.91	26.77	-30.0	-32.9	13.6	6.10e-06	0	42	0	326107136	20	5053
2026-01-13 00:36:02.50	13.87	26.94	-30.2	-33.4	13.3	3.06e-04	0	42	0	327155712	20	5229
2026-01-13 00:36:03.51	13.83	27.11	-30.3	-33.7	13.1	3.20e-05	0	42	0	329252864	20	5334
2026-01-13 00:36:04.51	13.79	27.28	-30.1	-33.3	13.4	1.67e-05	0	42	0	331350016	20	5178
2026-01-13 00:36:05.52	13.75	27.45	-30.0	-33.0	13.6	3.25e-04	0	42	0	333447168	20	5080
2026-01-13 00:36:06.52	13.71	27.63	-30.1	-33.3	13.4	1.90e-05	0	42	0	335544320	20	5169
2026-01-13 00:36:07.53	13.67	27.80	-30.2	-33.6	13.2	3.07e-04	0	42	0	336592896	20	5280
2026-01-13 00:36:08.53	13.63	27.98	-29.5	-32.9	12.7	2.92e-04	0	42	0	338690048	20	5366
2026-01-13 00:36:09.54	13.59	28.15	-30.3	-33.8	12.2	3.35e-05	0	42	0	340787200	20	5372
2026-01-13 00:36:10.55	13.54	28.33	-30.5	-33.8	12.7	2.92e-04	0	42	0	342884352	21	5276
2026-01-13 00:36:11.56	13.50	28.51	-30.8	-34.5	11.7	1.09e-04	0	42	0	344981504	21	5566
2026-01-13 00:36:12.56	13.46	28.69	-30.8	-34.8	12.1	2.74e-04	0	42	0	346030080	21	5657
2026-01-13 00:36:13.56	13.41	28.87	-30.9	-34.9	12.0	4.68e-04	0	42	0	348127232	21	5722
2026-01-13 00:36:14.57	13.37	29.06	-30.9	-35.0	12.0	7.49e-04	0	42	0	350224384	21	5740
2026-01-13 00:36:15.57	13.32	29.24	-30.9	-34.8	12.0	1.96e-03	0	42	0	352321536	21	5683
2026-01-13 00:36:16.58	13.28	29.43	-30.9	-35.0	11.9	5.21e-04	0	42	0	354418688	21	5778
2026-01-13 00:36:17.58	13.23	29.61	-30.9	-34.9	12.0	5.93e-04	0	42	0	355467264	21	5733
2026-01-13 00:36:18.59	13.18	29.80	-30.9	-35.1	11.9	2.15e-03	0	42	0	357564416	21	5781
2026-01-13 00:36:19.60	13.14	29.99	-31.0	-34.9	11.7	7.93e-04	0	42	0	359661568	22	5589
2026-01-13 00:36:20.61	13.09	30.18	-31.1	-35.1	11.6	7.56e-04	0	42	0	361758720	22	5703
2026-01-13 00:36:21.62	13.04	30.37	-31.2	-35.3	11.5	2.53e-03	0	42	0	363855872	22	5765
2026-01-13 00:36:22.63	12.99	30.57	-31.3	-35.5	11.3	1.11e-03	0	42	0	364904448	22	5846
2026-01-13 00:36:23.63	12.94	30.76	-31.3	-35.5	11.3	1.52e-03	0	42	0	367001600	22	5880
2026-01-13 00:36:24.63	12.89	30.95	-31.3	-35.5	11.3	1.29e-03	0	42	0	369098752	22	5880
2026-01-13 00:36:25.64	12.84	31.15	-31.3	-35.6	11.2	1.40e-03	0	42	0	371195904	22	5930
2026-01-13 00:36:26.65	12.78	31.35	-31.4	-36.0	11.0	3.03e-03	0	42	0	373293056	22	6092
2026-01-13 00:36:27.65	12.73	31.55	-31.4	-36.1	10.8	1.93e-03	0	42	0	374341632	22	6173
2026-01-13 00:36:28.66	12.68	31.75	-31.5	-35.8	10.8	2.81e-03	0	42	0	376438784	23	5885
2026-01-13 00:36:29.66	12.62	31.95	-31.4	-35.6	10.9	3.51e-03	0	42	0	378535936	23	5792
2026-01-13 00:36:30.67	12.57	32.15	-31.5	-35.9	10.6	2.36e-03	0	42	0	380633088	23	5952
2026-01-13 00:36:31.68	12.51	32.36	-31.5	-35.8	10.7	3.11e-03	0	42	0	382730240	23	5907
2026-01-13 00:36:32.68	12.46	32.56	-31.6	-36.0	10.6	3.09e-03	0	42	0	383778816	23	6014
2026-01-13 00:36:33.68	12.40	32.77	-31.5	-35.8	10.7	4.01e-03	0	42	0	385875968	23	5888
2026-01-13 00:36:34.68	12.34	32.98	-31.4	-35.3	11.0	2.74e-03	0	42	0	387973120	23	5677
2026-01-13 00:36:35.69	12.28	33.19	-31.3	-35.0	11.3	1.26e-03	0	42	0	390070272	23	5549
2026-01-13 00:36:36.69	12.22	33.40	-31.2	-34.8	11.4	1.08e-03	0	42	0	392167424	23	5468
2026-01-13 00:36:37.70	12.16	33.61	-31.2	-34.8	11.4	1.22e-03	0	42	0	393216000	23	5465
2026-01-13 00:36:38.69	12.10	33.82	-31.1	-35.1	11.6	9.05e-04	0	42	0	395313152	22	5684
2026-01-13 00:36:39.70	12.04	34.04	-31.1	-35.0	11.7	8.81e-04	0	42	0	397410304	22	5629
2026-01-13 00:36:40.70	11.98	34.25	-31.2	-35.2	11.6	6.48e-04	0	42	0	399507456	22	5732
2026-01-13 00:36:41.71	11.91	34.47	-31.0	-34.5	12.0	7.09e-04	0	42	0	401604608	22	5423
2026-01-13 00:36:42.71	11.85	34.69	-30.9	-34.7	12.3	6.53e-04	0	42	0	402653184	21	5631
2026-01-13 00:36:43.71	11.79	34.91	-30.7	-34.4	12.5	1.75e-04	0	42	0	404750336	21	5471
2026-01-13 00:36:44.72	11.72	35.14	-30.7	-34.2	12.7	7.52e-04	0	42	0	406847488	21	5383
2026-01-13 00:36:45.73	11.65	35.36	-30.7	-34.3	12.5	6.29e-04	0	42	0	408944640	21	5431
2026-01-13 00:36:46.73	11.58	35.59	-30.4	-33.5	13.0	6.25e-05	0	42	0	409993216	21	5140
2026-01-13 00:36:47.74	11.51	35.82	-30.1	-33.1	13.7	5.72e-04	0	42	0	412090368	20	5087
2026-01-13 00:36:48.74	11.44	36.05	-30.0	-32.7	14.0	2.20e-06	0	42	0	414187520	20	4933
2026-01-13 00:36:49.75	11.37	36.28	-29.8	-32.4	14.1	7.00e-07	0	42	0	416284672	20	4816
2026-01-13 00:36:50.76	11.30	36.51	-29.9	-32.4	14.1	2.43e-04	0	42	0	418381824	20	4839
2026-01-13 00:36:51.77	11.22	36.75	-30.0	-32.8	13.9	2.20e-06	0	42	0	420478976	20	4994
2026-01-13 00:36:52.78	11.15	36.98	-29.9	-32.5	14.1	1.50e-06	0	42	0	421527552	20	4849
2026-01-13 00:36:53.79	11.07	37.22	-29.6	-31.8	14.5	2.78e-04	0	42	0	423624704	20	4637
2026-01-13 00:36:54.80	10.99	37.46	-29.7	-32.5	14.5	1.07e-04	0	42	0	425721856	19	4949
2026-01-13 00:36:55.81	10.91	37.70	-29.7	-32.4	14.5	7.00e-07	0	42	0	427819008	19	4945
2026-01-13 00:36:56.81	10.83	37.95	-29.7	-32.5	14.5	9.90e-06	0	42	0	428867584	19	4957
2026-01-13 00:36:57.81	10.75	38.19	-30.0	-33.2	14.1	4.50e-06	0	42	0	430964736	19	5206
2026-01-13 00:36:58.82	10.67	38.44	-29.8	-32.7	14.3	2.20e-06	0	42	0	433061888	19	5033
2026-01-13 00:36:59.82	10.59	38.68	-29.7	-32.5	14.4	7.00e-07	0	42	0	435159040	19	4985
2026-01-13 00:37:00.83	10.50	38.93	-29.7	-32.6	14.4	1.50e-06	0	42	0	437256192	19	4997
2026-01-13 00:37:01.84	10.42	39.19	-29.8	-32.6	14.4	7.00e-07	0	42	0	438304768	19	5013
2026-01-13 00:37:02.85	10.33	39.44	-29.9	-32.9	14.2	1.50e-06	0	42	0	440401920	19	5107
2026-01-13 00:37:03.85	10.24	39.69	-30.0	-32.7	14.0	1.50e-06	0	42	0	442499072	20	4948
2026-01-13 00:37:04.85	10.15	39.95	-30.2	-33.3	13.6	4.50e-06	0	42	0	444596224	20	5165
2026-01-13 00:37:05.86	10.06	40.21	-30.2	-33.4	13.6	1.52e-05	0	42	0	446693376	20	5193
2026-01-13 00:37:06.87	9.96	40.47	-30.5	-34.2	13.0	1.75e-05	0	42	0	448790528	20	5513
2026-01-13 00:37:07.87	9.87	40.73	-30.4	-33.3	13.2	3.12e-05	0	42	0	449839104	21	5057
2026-01-13 00:37:08.88	9.77	41.00	-30.6	-33.9	12.8	4.65e-05	0	42	0	451936256	21	5295
2026-01-13 00:37:09.88	9.67	41.26	-30.6	-34.0	12.9	4.73e-05	0	42	0	454033408	21	5301
2026-01-13 00:37:10.89	9.57	41.53	-30.6	-34.0	12.8	5.18e-05	0	42	0	456130560	21	5294
2026-01-13 00:37:11.89	9.47	41.80	-30.8	-34.4	12.5	9.91e-05	0	42	0	457179136	21	5490
2026-01-13 00:37:12.90	9.36	42.07	-30.7	-34.4	12.6	1.20e-04	0	42	0	459276288	21	5460
2026-01-13 00:37:13.90	9.26	42.34	-30.9	-34.8	12.3	1.36e-04	0	42	0	461373440	21	5648
2026-01-13 00:37:14.90	9.15	42.62	-31.1	-35.0	11.8	3.35e-04	0	42	0	463470592	22	5601
2026-01-13 00:37:15.91	9.04	42.89	-31.1	-34.9	11.9	5.16e-04	0	42	0	465567744	22	5571
2026-01-13 00:37:16.90	8.93	43.17	-31.1	-34.8	12.0	4.20e-04	0	42	0	466616320	22	5525
2026-01-13 00:37:17.91	8.82	43.45	-31.3	-35.6	11.4	5.24e-04	0	42	0	468713472	22	5867
2026-01-13 00:37:18.92	8.70	43.74	-31.2	-35.3	11.6	7.98e-04	0	42	0	470810624	22	5732
2026-01-13 00:37:19.92	8.59	44.02	-31.2	-35.2	11.7	5.26e-04	0	42	0	472907776	22	5694
2026-01-13 00:37:20.93	8.47	44.31	-31.2	-35.3	11.6	5.66e-04	0	42	0	475004928	22	5749
2026-01-13 00:37:21.94	8.34	44.60	-31.1	-34.9	12.0	5.36e-04	0	42	0	476053504	22	5571
2026-01-13 00:37:22.94	8.22	44.89	-31.3	-35.4	11.6	6.55e-04	0	42	0	478150656	22	5774
2026-01-13 00:37:23.95	8.09	45.18	-31.2	-35.1	11.8	7.39e-04	0	42	0	480247808	22	5650
2026-01-13 00:37:24.95	7.96	45.48	-31.0	-34.5	12.2	3.04e-04	0	42	0	482344960	22	5394
2026-01-13 00:37:25.96	7.83	45.77	-30.8	-34.1	12.5	2.53e-04	0	42	0	484442112	22	5235
2026-01-13 00:37:26.96	7.70	46.07	-30.8	-34.0	12.6	1.03e-04	0	42	0	485490688	22	5198
2026-01-13 00:37:27.96	7.56	46.37	-30.9	-34.3	12.4	1.02e-04	0	42	0	487587840	22	5297
2026-01-13 00:37:28.96	7.42	46.67	-31.1	-34.9	11.9	3.58e-04	0	42	0	489684992	22	5554
2026-01-13 00:37:29.97	7.28	46.98	-31.3	-35.5	11.5	6.33e-04	0	42	0	491782144	22	5842
2026-01-13 00:37:30.98	7.13	47.29	-31.3	-35.6	11.4	9.89e-04	0	42	0	493879296	22	5870
2026-01-13 00:37:31.98	6.98	47.59	-30.5	-34.8	10.9	1.61e-03	0	42	0	494927872	23	5861
2026-01-13 00:37:32.99	6.83	47.91	-31.9	-36.9	10.1	4.77e-03	0	42	0	497025024	23	6442
2026-01-13 00:37:33.99	6.68	48.22	-32.0	-37.2	9.9	8.53e-03	0	42	0	499122176	23	6565
2026-01-13 00:37:35.00	6.52	48.53	-31.9	-36.5	9.8	9.26e-03	0	42	0	501219328	24	6129
2026-01-13 00:37:35.99	6.36	48.85	-31.7	-36.1	10.6	3.85e-03	0	42	0	503316480	23	6005
2026-01-13 00:37:37.00	6.20	49.17	-31.5	-35.5	11.2	1.83e-03	0	42	0	504365056	23	5713
2026-01-13 00:37:38.01	6.03	49.49	-31.5	-35.6	11.1	1.41e-03	0	42	0	506462208	23	5776
2026-01-13 00:37:39.01	5.86	49.81	-31.7	-36.2	10.6	2.57e-03	0	42	0	508559360	23	6031
2026-01-13 00:37:40.01	5.68	50.14	-31.1	-34.3	12.0	1.23e-03	0	42	0	510656512	23	5200
2026-01-13 00:37:41.02	5.50	50.46	-30.4	-33.3	13.3	2.51e-04	0	42	0	512753664	21	5047
2026-01-13 00:37:42.03	5.32	50.80	-29.9	-32.4	14.2	9.58e-04	0	42	0	513802240	20	4833
2026-01-13 00:37:43.03	5.13	51.13	-29.3	-31.4	15.2	1.28e-04	0	42	0	515899392	19	4606
2026-01-13 00:37:44.02	4.94	51.45	-28.9	-31.0	15.8	1.07e-04	0	42	0	517996544	18	4577
2026-01-13 00:37:45.03	4.74	51.79	-28.7	-31.1	16.0	0.00e+00	0	42	0	520093696	17	4710
2026-01-13 00:37:46.04	4.54	52.13	-28.8	-31.2	15.9	6.80e-06	0	42	0	522190848	17	4747
2026-01-13 00:37:47.04	4.34	52.47	-29.0	-31.1	15.7	0.00e+00	0	42	0	523239424	18	4607
2026-01-13 00:37:48.05	4.12	52.81	-29.2	-31.7	15.4	0.00e+00	0	42	0	525336576	18	4807
2026-01-13 00:37:49.06	3.91	53.16	-29.0	-31.1	15.7	0.00e+00	0	42	0	527433728	18	4607
2026-01-13 00:37:50.07	3.69	53.50	-28.7	-31.0	16.0	1.53e-03	0	42	0	529530880	17	4697
2026-01-13 00:37:51.07	3.46	53.85	-28.8	-31.2	15.9	0.00e+00	0	42	0	531628032	17	4755
2026-01-13 00:37:52.08	3.23	54.20	-28.7	-30.9	16.2	0.00e+00	0	42	0	532676608	17	4664
2026-01-13 00:37:53.09	2.99	54.55	-28.6	-30.6	16.3	1.62e-03	0	42	0	534773760	17	4562
2026-01-13 00:37:54.09	2.75	54.90	-28.9	-31.3	15.8	0.00e+00	0	42	0	536870912	17	4777
2026-01-13 00:37:55.10	2.49	55.26	-29.0	-31.1	15.7	0.00e+00	0	42	0	538968064	18	4606
2026-01-13 00:37:56.10	2.24	55.61	-29.5	-31.9	15.0	1.78e-03	0	42	0	540016640	19	4756
2026-01-13 00:37:57.10	1.98	55.97	-29.4	-32.2	15.1	1.98e-03	0	42	0	542113792	18	4962
2026-01-13 00:37:58.11	1.71	56.33	-30.0	-32.8	14.1	7.00e-07	0	42	0	544210944	20	4948
2026-01-13 00:37:59.11	1.43	56.69	-30.3	-33.7	13.5	2.02e-03	0	42	0	546308096	20	5283
2026-01-13 00:38:00.13	1.14	57.06	-30.6	-34.0	13.0	2.03e-03	0	42	0	548405248	21	5289
2026-01-13 00:38:01.13	0.85	57.42	-30.7	-34.1	12.8	4.95e-05	0	42	0	550502400	21	5349
2026-01-13 00:38:02.14	0.55	57.79	-31.0	-34.9	12.3	2.05e-03	0	42	0	551550976	21	5667
2026-01-13 00:38:03.14	0.24	58.16	-31.3	-35.5	11.5	2.43e-03	0	42	0	553648128	22	5835
2026-01-13 00:38:04.15	359.92	58.53	-31.4	-35.8	11.4	9.38e-04	0	42	0	555745280	22	5951
2026-01-13 00:38:05.16	359.59	58.90	-31.2	-35.1	11.8	8.33e-04	0	42	0	557842432	22	5645
2026-01-13 00:38:06.17	359.25	59.28	-30.7	-34.2	12.7	1.68e-03	0	42	0	559939584	21	5371
2026-01-13 00:38:07.17	358.91	59.65	-30.5	-33.5	13.2	3.73e-05	0	42	0	560988160	21	5096
2026-01-13 00:38:08.17	358.55	60.02	-30.0	-32.7	14.1	1.48e-03	0	42	0	563085312	20	4917
2026-01-13 00:38:09.17	358.19	60.40	-29.7	-32.5	14.7	1.45e-03	0	42	0	565182464	19	4932
2026-01-13 00:38:10.17	357.81	60.77	-29.7	-32.4	14.7	0.00e+00	0	42	0	567279616	19	4908
2026-01-13 00:38:11.17	357.42	61.15	-29.7	-32.4	14.7	8.77e-04	0	42	0	568328192	19	4935
2026-01-13 00:38:12.17	357.02	61.53	-29.2	-31.6	15.5	0.00e+00	0	42	0	570425344	18	4746
2026-01-13 00:38:13.18	356.61	61.91	-29.2	-31.6	15.5	0.00e+00	0	42	0	572522496	18	4748
2026-01-13 00:38:14.17	356.19	62.29	-29.4	-32.3	15.1	2.88e-04	0	42	0	574619648	18	4987
2026-01-13 00:38:15.17	355.75	62.67	-29.6	-32.2	14.8	2.19e-04	0	42	0	576716800	19	4841
2026-01-13 00:38:16.18	355.29	63.05	-29.6	-32.1	14.8	0.00e+00	0	42	0	577765376	19	4822
2026-01-13 00:38:17.19	354.81	63.44	-29.6	-32.1	14.9	3.11e-04	0	42	0	579862528	19	4820
2026-01-13 00:38:18.19	354.33	63.82	-29.7	-32.3	14.7	4.59e-04	0	42	0	581959680	19	4876
2026-01-13 00:38:19.20	353.83	64.20	-29.6	-32.1	14.9	0.00e+00	0	42	0	584056832	19	4813
2026-01-13 00:38:20.21	353.30	64.59	-29.3	-32.0	15.2	1.16e-03	0	42	0	586153984	18	4908
2026-01-13 00:38:21.21	352.77	64.97	-29.2	-31.6	15.5	1.29e-03	0	42	0	587202560	18	4761
2026-01-13 00:38:22.22	352.21	65.36	-29.2	-31.6	15.5	0.00e+00	0	42	0	589299712	18	4752
2026-01-13 00:38:23.22	351.63	65.74	-29.3	-31.9	15.3	1.37e-05	0	42	0	591396864	18	4861
2026-01-13 00:38:24.23	351.03	66.12	-29.7	-32.4	14.7	1.72e-03	0	42	0	593494016	19	4913
2026-01-13 00:38:25.24	350.41	66.51	-30.1	-33.0	13.9	7.00e-07	0	42	0	595591168	20	5006
2026-01-13 00:38:26.24	349.77	66.89	-30.5	-33.5	13.2	1.06e-05	0	42	0	596639744	21	5112
2026-01-13 00:38:27.25	349.10	67.27	-30.8	-34.4	12.7	1.78e-03	0	42	0	598736896	21	5466
2026-01-13 00:38:28.25	348.42	67.65	-30.8	-34.5	12.6	5.26e-05	0	42	0	600834048	21	5492
2026-01-13 00:38:29.26	347.70	68.03	-30.5	-33.7	13.2	3.50e-05	0	42	0	602931200	21	5174
2026-01-13 00:38:30.26	346.96	68.40	-30.2	-33.4	13.7	8.30e-06	0	42	0	605028352	20	5166
2026-01-13 00:38:31.26	346.19	68.78	-30.3	-33.4	13.6	3.00e-06	0	42	0	606076928	20	5178
2026-01-13 00:38:32.27	345.38	69.15	-30.2	-33.2	13.9	4.50e-06	0	42	0	608174080	20	5090
2026-01-13 00:38:33.27	344.55	69.52	-29.7	-32.1	14.5	7.00e-07	0	42	0	610271232	20	4700
2026-01-13 00:38:34.28	343.68	69.89	-29.8	-32.2	14.5	0.00e+00	0	42	0	612368384	20	4740
2026-01-13 00:38:35.28	342.78	70.25	-29.6	-32.2	14.8	1.22e-03	0	42	0	614465536	19	4837
2026-01-13 00:38:36.28	341.85	70.61	-29.1	-30.9	15.5	0.00e+00	0	42	0	615514112	19	4415
2026-01-13 00:38:37.29	340.87	70.97	-28.7	-30.4	16.2	0.00e+00	0	42	0	617611264	18	4385
2026-01-13 00:38:38.29	339.86	71.32	-28.7	-30.5	16.1	3.81e-04	0	42	0	619708416	18	4422
2026-01-13 00:38:39.29	338.81	71.66	-29.0	-31.3	15.7	0.00e+00	0	42	0	621805568	18	4660
2026-01-13 00:38:40.30	337.70	72.01	-29.1	-31.4	15.6	0.00e+00	0	42	0	623902720	18	4688
2026-01-13 00:38:41.30	336.57	72.34	-29.2	-31.6	15.5	0.00e+00	0	42	0	624951296	18	4759
2026-01-13 00:38:42.31	335.37	72.68	-29.9	-32.9	14.4	0.00e+00	0	42	0	627048448	19	5091
2026-01-13 00:38:43.31	334.14	73.00	-30.4	-33.8	13.4	9.90e-06	0	42	0	629145600	20	5322
2026-01-13 00:38:44.32	332.84	73.32	-29.8	-32.2	14.4	2.20e-06	0	42	0	631242752	20	4756
2026-01-13 00:38:45.33	331.49	73.63	-29.7	-32.3	14.8	3.86e-04	0	42	0	633339904	19	4870
2026-01-13 00:38:46.33	330.10	73.93	-29.9	-32.5	14.3	7.00e-07	0	42	0	634388480	20	4852
2026-01-13 00:38:47.34	328.64	74.23	-30.3	-33.5	13.6	3.80e-06	0	42	0	636485632	20	5216
2026-01-13 00:38:48.34	327.14	74.51	-30.8	-34.3	12.8	1.83e-05	0	42	0	638582784	21	5425
2026-01-13 00:38:49.35	325.57	74.78	-31.0	-34.6	12.3	1.93e-04	0	42	0	640679936	22	5409
2026-01-13 00:38:50.36	323.94	75.05	-31.0	-34.4	12.4	1.68e-04	0	42	0	641728512	22	5343
2026-01-13 00:38:51.37	322.24	75.30	-31.2	-35.0	12.1	1.49e-04	0	42	0	643825664	22	5564
2026-01-13 00:38:52.37	320.51	75.54	-31.4	-35.3	11.5	1.33e-03	0	42	0	645922816	23	5620
2026-01-13 00:38:53.38	318.70	75.76	-31.1	-34.7	12.2	3.45e-04	0	42	0	648019968	22	5480
2026-01-13 00:38:54.38	316.84	75.98	-31.1	-34.7	12.3	1.17e-04	0	42	0	650117120	22	5449
2026-01-13 00:38:55.39	314.92	76.17	-31.4	-35.8	11.6	4.21e-04	0	42	0	652214272	22	5929
2026-01-13 00:38:56.40	312.93	76.36	-31.6	-35.9	11.1	1.82e-03	0	42	0	653262848	23	5899
2026-01-13 00:38:57.41	310.89	76.53	-31.8	-36.3	10.8	2.90e-03	0	42	0	655360000	23	6063
2026-01-13 00:38:58.41	308.83	76.67	-31.5	-35.6	11.3	3.25e-03	0	42	0	657457152	23	5726
2026-01-13 00:38:59.41	306.71	76.81	-31.4	-35.1	11.6	6.94e-04	0	42	0	659554304	23	5521
2026-01-13 00:39:00.42	304.54	76.92	-31.8	-36.4	10.7	1.29e-03	0	42	0	661651456	23	6137
2026-01-13 00:39:01.43	302.33	77.02	-31.5	-37.5	8.7	1.37e-02	0	42	0	662700032	24	7202
2026-01-13 00:39:02.43	300.11	77.10	-32.2	-37.4	9.2	2.69e-02	0	42	0	664797184	24	6569
2026-01-13 00:39:03.44	297.84	77.15	-31.9	-36.2	10.5	6.97e-03	0	42	0	666894336	24	5939
2026-01-13 00:39:04.45	295.55	77.19	-31.7	-36.0	10.4	2.74e-03	0	42	0	668991488	23	5943
2026-01-13 00:39:05.46	293.26	77.21	-31.5	-35.6	10.8	1.86e-03	0	42	0	670040064	23	5731
2026-01-13 00:39:06.46	290.98	77.21	-31.6	-35.9	11.0	1.61e-03	0	42	0	672137216	23	5889
2026-01-13 00:39:07.46	288.71	77.19	-31.4	-35.6	11.6	1.80e-03	0	42	0	674234368	22	5834
2026-01-13 00:39:08.47	286.43	77.15	-31.4	-35.5	11.7	6.30e-04	0	42	0	676331520	22	5806
2026-01-13 00:39:09.47	284.19	77.09	-31.5	-35.5	11.3	9.86e-04	0	42	0	678428672	23	5691
2026-01-13 00:39:10.48	281.95	77.01	-31.3	-35.5	11.7	1.24e-03	0	42	0	680525824	22	5807
2026-01-13 00:39:11.49	279.74	76.91	-31.0	-34.3	12.6	2.82e-04	0	42	0	681574400	22	5292
2026-01-13 00:39:12.49	277.59	76.79	-31.1	-34.7	12.2	1.75e-04	0	42	0	683671552	22	5455
2026-01-13 00:39:13.49	275.48	76.66	-31.3	-35.3	11.8	6.39e-04	0	42	0	685768704	22	5712
2026-01-13 00:39:14.50	273.40	76.50	-31.3	-35.5	11.6	5.13e-04	0	42	0	687865856	22	5805
2026-01-13 00:39:15.50	271.39	76.34	-31.9	-36.9	10.3	1.21e-03	0	42	0	688914432	23	6361
2026-01-13 00:39:16.51	269.41	76.15	-32.0	-36.7	10.1	8.36e-03	0	42	0	691011584	24	6164
2026-01-13 00:39:17.51	267.50	75.95	-32.0	-36.7	10.0	5.67e-03	0	42	0	693108736	24	6157
2026-01-13 00:39:18.52	265.64	75.74	-32.2	-37.5	9.4	1.01e-02	0	42	0	695205888	24	6641
2026-01-13 00:39:19.52	263.85	75.51	-32.1	-37.0	9.8	1.42e-02	0	42	0	697303040	24	6347
2026-01-13 00:39:20.53	262.10	75.27	-31.9	-36.9	10.3	7.64e-03	0	42	0	698351616	23	6360
2026-01-13 00:39:21.53	260.44	75.02	-31.7	-36.3	10.7	4.68e-03	0	42	0	700448768	23	6068
2026-01-13 00:39:22.54	258.81	74.75	-31.7	-36.1	10.8	4.92e-03	0	42	0	702545920	23	6000
2026-01-13 00:39:23.55	257.24	74.47	-31.9	-37.0	10.2	7.04e-03	0	42	0	704643072	23	6439
2026-01-13 00:39:24.55	255.75	74.19	-31.7	-35.6	10.8	6.04e-03	0	42	0	706740224	24	5652
2026-01-13 00:39:25.56	254.29	73.89	-31.2	-34.6	12.0	9.66e-04	0	42	0	708837376	23	5291
2026-01-13 00:39:26.57	252.89	73.59	-31.0	-34.4	12.5	1.16e-03	0	42	0	709885952	22	5329
2026-01-13 00:39:27.58	251.55	73.28	-30.7	-33.6	12.9	5.64e-05	0	42	0	711983104	22	5016
2026-01-13 00:39:28.59	250.26	72.96	-30.7	-34.2	12.9	3.89e-05	0	42	0	714080256	21	5365
2026-01-13 00:39:29.59	249.03	72.63	-30.5	-33.6	13.3	1.91e-03	0	42	0	716177408	21	5114
2026-01-13 00:39:30.60	247.84	72.30	-30.3	-32.9	13.7	1.42e-04	0	42	0	717225984	21	4893
2026-01-13 00:39:31.60	246.71	71.96	-30.6	-33.9	13.1	5.30e-06	0	42	0	719323136	21	5254
2026-01-13 00:39:32.62	245.60	71.61	-30.8	-34.3	12.8	2.24e-03	0	42	0	721420288	21	5410
2026-01-13 00:39:33.62	244.55	71.26	-30.5	-33.7	13.2	1.17e-04	0	42	0	723517440	21	5182
2026-01-13 00:39:34.63	243.53	70.91	-30.5	-33.6	13.3	2.17e-03	0	42	0	725614592	21	5134
2026-01-13 00:39:35.63	242.57	70.55	-30.3	-33.5	13.6	2.56e-03	0	42	0	726663168	20	5220
2026-01-13 00:39:36.63	241.64	70.19	-30.5	-33.6	13.2	1.37e-05	0	42	0	728760320	21	5155
2026-01-13 00:39:37.64	240.74	69.83	-30.8	-34.5	12.7	2.46e-03	0	42	0	730857472	21	5510
2026-01-13 00:39:38.64	239.88	69.46	-30.9	-34.6	12.5	2.36e-03	0	42	0	732954624	21	5558
2026-01-13 00:39:39.65	239.05	69.09	-31.1	-34.7	12.2	2.34e-04	0	42	0	735051776	22	5474
2026-01-13 00:39:40.66	238.24	68.71	-31.3	-35.5	11.6	2.49e-03	0	42	0	736100352	22	5821
2026-01-13 00:39:41.67	237.47	68.33	-31.6	-35.8	11.0	3.13e-03	0	42	0	738197504	23	5878
2026-01-13 00:39:42.67	236.73	67.96	-31.4	-35.2	11.5	1.31e-03	0	42	0	740294656	23	5571
2026-01-13 00:39:43.68	236.02	67.58	-31.2	-35.2	11.8	2.40e-03	0	42	0	742391808	22	5678
2026-01-13 00:39:44.68	235.33	67.20	-30.8	-33.8	12.8	2.24e-03	0	42	0	744488960	22	5095
2026-01-13 00:39:45.69	234.67	66.82	-30.2	-32.9	13.7	1.75e-05	0	42	0	745537536	21	4867
2026-01-13 00:39:46.70	234.03	66.43	-29.9	-32.4	14.3	1.66e-03	0	42	0	747634688	20	4816
2026-01-13 00:39:47.71	233.41	66.05	-29.7	-32.3	14.7	1.72e-03	0	42	0	749731840	19	4877
2026-01-13 00:39:48.71	232.82	65.66	-29.5	-32.0	15.0	7.00e-07	0	42	0	751828992	19	4764
2026-01-13 00:39:49.71	232.24	65.28	-29.5	-31.9	15.0	0.00e+00	0	42	0	753926144	19	4743
2026-01-13 00:39:50.72	231.69	64.89	-29.5	-31.8	15.0	1.93e-03	0	42	0	754974720	19	4728
2026-01-13 00:39:51.73	231.15	64.51	-29.3	-31.4	15.2	0.00e+00	0	42	0	757071872	19	4602
2026-01-13 00:39:52.73	230.63	64.12	-28.5	-29.9	16.4	0.00e+00	0	42	0	759169024	18	4246
2026-01-13 00:39:53.73	230.13	63.74	-27.9	-29.5	17.2	2.09e-03	0	42	0	761266176	16	4334
2026-01-13 00:39:54.74	229.65	63.36	-27.9	-29.5	17.3	0.00e+00	0	42	0	763363328	16	4342
2026-01-13 00:39:55.74	229.18	62.97	-27.8	-29.5	17.3	0.00e+00	0	42	0	764411904	16	4332
2026-01-13 00:39:56.74	228.73	62.59	-27.6	-29.5	17.3	0.00e+00	0	42	0	766509056	15	4467
2026-01-13 00:39:57.74	228.29	62.21	-28.3	-30.5	16.7	0.00e+00	0	42	0	768606208	16	4655
2026-01-13 00:39:58.75	227.86	61.83	-28.9	-31.4	15.9	1.15e-03	0	42	0	770703360	17	4809
2026-01-13 00:39:59.75	227.45	61.45	-29.3	-32.0	15.2	0.00e+00	0	42	0	772800512	18	4888
2026-01-13 00:40:00.76	227.05	61.06	-29.9	-32.9	14.4	0.00e+00	0	42	0	773849088	19	5094
2026-01-13 00:40:01.76	226.66	60.69	-30.1	-33.0	13.8	1.48e-03	0	42	0	775946240	20	5056
2026-01-13 00:40:02.76	226.29	60.31	-30.6	-33.9	13.0	2.21e-05	0	42	0	778043392	21	5275
2026-01-13 00:40:03.76	225.92	59.94	-31.2	-35.3	11.6	3.16e-04	0	42	0	780140544	22	5765
2026-01-13 00:40:04.76	225.57	59.56	-31.8	-36.5	10.4	3.78e-03	0	42	0	782237696	23	6227
2026-01-13 00:40:05.77	225.22	59.18	-31.7	-36.5	10.4	5.66e-03	0	42	0	783286272	23	6199
2026-01-13 00:40:06.78	224.89	58.81	-31.9	-37.1	9.9	7.89e-03	0	42	0	785383424	23	6520
2026-01-13 00:40:07.79	224.56	58.44	-31.7	-36.2	10.7	5.71e-03	0	42	0	787480576	23	6052
2026-01-13 00:40:08.79	224.24	58.07	-31.5	-35.7	11.0	3.98e-03	0	42	0	789577728	23	5796
2026-01-13 00:40:09.80	223.93	57.70	-31.7	-36.4	10.6	2.51e-03	0	42	0	791674880	23	6151
2026-01-13 00:40:10.80	223.64	57.33	-31.9	-36.9	10.2	5.66e-03	0	42	0	792723456	23	6411
2026-01-13 00:40:11.80	223.34	56.97	-31.9	-37.1	9.9	8.20e-03	0	42	0	794820608	23	6561
2026-01-13 00:40:12.81	223.06	56.60	-31.4	-35.2	11.2	2.78e-03	0	42	0	796917760	23	5596
2026-01-13 00:40:13.81	222.78	56.24	-30.8	-34.1	12.4	2.51e-04	0	42	0	799014912	22	5249
2026-01-13 00:40:14.81	222.52	55.88	-30.2	-33.0	13.6	4.88e-05	0	42	0	801112064	21	4920
2026-01-13 00:40:15.82	222.25	55.52	-29.7	-32.0	14.4	7.00e-07	0	42	0	802160640	20	4695
2026-01-13 00:40:16.82	222.00	55.16	-29.5	-32.0	14.8	0.00e+00	0	42	0	804257792	19	4801
2026-01-13 00:40:17.83	221.75	54.81	-29.2	-31.2	15.3	0.00e+00	0	42	0	806354944	19	4541
2026-01-13 00:40:18.84	221.50	54.45	-29.1	-30.9	15.5	0.00e+00	0	42	0	808452096	19	4438
2026-01-13 00:40:19.85	221.26	54.10	-29.3	-31.8	15.2	7.00e-07	0	42	0	810549248	18	4849
2026-01-13 00:40:20.86	221.03	53.75	-29.1	-31.4	15.5	0.00e+00	0	42	0	811597824	18	4710
2026-01-13 00:40:21.86	220.81	53.40	-29.2	-31.8	15.2	0.00e+00	0	42	0	813694976	18	4848
2026-01-13 00:40:22.87	220.59	53.05	-29.2	-31.6	15.4	0.00e+00	0	42	0	815792128	18	4769
2026-01-13 00:40:23.87	220.37	52.71	-29.2	-31.8	15.2	0.00e+00	0	42	0	817889280	18	4846
2026-01-13 00:40:24.88	220.16	52.37	-29.2	-31.7	15.3	0.00e+00	0	42	0	819986432	18	4788
2026-01-13 00:40:25.89	219.95	52.03	-29.2	-31.6	15.4	0.00e+00	0	42	0	821035008	18	4770
2026-01-13 00:40:26.89	219.75	51.69	-29.4	-32.2	15.0	0.00e+00	0	42	0	823132160	18	4965
2026-01-13 00:40:27.90	219.56	51.35	-29.6	-32.2	14.6	0.00e+00	0	42	0	825229312	19	4851
2026-01-13 00:40:28.90	219.37	51.02	-29.9	-33.0	14.2	7.00e-07	0	42	0	827326464	19	5131
2026-01-13 00:40:29.91	219.18	50.69	-30.1	-33.1	13.7	2.20e-06	0	42	0	829423616	20	5098
2026-01-13 00:40:30.91	219.00	50.36	-30.5	-33.7	12.3	1.44e-05	0	42	0	830472192	21	5212
2026-01-13 00:40:31.92	218.82	50.03	-30.9	-34.9	11.7	7.93e-05	0	42	0	832569344	21	5679
2026-01-13 00:40:32.93	218.64	49.70	-31.1	-35.0	11.8	4.49e-04	0	42	0	834666496	22	5625
2026-01-13 00:40:33.94	218.47	49.37	-31.2	-35.2	11.5	6.94e-04	0	42	0	836763648	22	5728
2026-01-13 00:40:34.94	218.30	49.05	-31.1	-34.9	11.7	5.06e-04	0	42	0	838860800	22	5593
2026-01-13 00:40:35.95	218.14	48.73	-31.0	-34.6	12.1	4.35e-04	0	42	0	839909376	22	5438
2026-01-13 00:40:36.95	217.98	48.42	-30.7	-34.2	12.6	2.21e-04	0	42	0	842006528	21	5397
2026-01-13 00:40:37.96	217.82	48.10	-30.9	-34.8	12.3	9.46e-05	0	42	0	844103680	21	5630
2026-01-13 00:40:38.96	217.66	47.79	-30.9	-34.7	12.2	3.47e-04	0	42	0	846200832	21	5626
2026-01-13 00:40:39.97	217.51	47.47	-31.0	-35.1	12.0	4.22e-04	0	42	0	848297984	21	5782
2026-01-13 00:40:40.98	217.36	47.16	-30.8	-34.5	12.4	1.93e-04	0	42	0	849346560	21	5548
2026-01-13 00:40:41.98	217.22	46.86	-30.9	-34.9	12.1	1.93e-04	0	42	0	851443712	21	5694
2026-01-13 00:40:42.99	217.08	46.55	-31.0	-34.8	11.9	1.89e-03	0	42	0	853540864	22	5535
2026-01-13 00:40:43.99	216.94	46.25	-31.1	-35.1	11.7	4.97e-04	0	42	0	855638016	22	5682
2026-01-13 00:40:45.00	216.80	45.95	-31.1	-35.0	11.8	4.48e-04	0	42	0	857735168	22	5616
2026-01-13 00:40:46.00	216.67	45.65	-31.3	-35.6	11.4	1.42e-03	0	42	0	858783744	22	5887
2026-01-13 00:40:47.01	216.53	45.35	-31.3	-35.5	11.3	1.47e-03	0	42	0	860880896	22	5886
2026-01-13 00:40:48.01	216.40	45.05	-31.2	-35.2	11.5	1.17e-03	0	42	0	862978048	22	5729
2026-01-13 00:40:49.02	216.28	44.76	-31.1	-35.0	11.7	1.55e-03	0	42	0	865075200	22	5652
2026-01-13 00:40:50.03	216.15	44.47	-31.3	-35.8	11.1	2.38e-03	0	42	0	867172352	22	5982
2026-01-13 00:40:51.03	216.03	44.18	-31.3	-35.6	11.3	1.36e-03	0	42	0	868220928	22	5905
2026-01-13 00:40:52.04	215.91	43.89	-31.8	-36.9	10.0	2.02e-03	0	42	0	870318080	23	6441
2026-01-13 00:40:53.05	215.79	43.60	-31.7	-36.5	10.2	7.90e-03	0	42	0	872415232	23	6252
2026-01-13 00:40:54.05	215.68	43.32	-32.0	-37.4	9.6	8.99e-03	0	42	0	874512384	23	6747
2026-01-13 00:40:55.06	215.56	43.04	-31.8	-36.9	9.9	1.35e-02	0	42	0	876609536	23	6442
2026-01-13 00:40:56.07	215.45	42.76	-32.1	-37.5	9.1	2.12e-02	0	42	0	877658112	24	6709
2026-01-13 00:40:57.08	215.34	42.48	-32.1	-37.3	9.2	2.37e-02	0	42	0	879755264	24	6610
2026-01-13 00:40:58.08	215.23	42.20	-32.1	-37.7	8.9	2.48e-02	0	42	0	881852416	24	6818
2026-01-13 00:40:59.08	215.13	41.93	-31.9	-37.1	9.7	1.50e-02	0	42	0	883949568	23	6586
2026-01-13 00:41:00.08	215.03	41.66	-31.6	-36.3	10.3	5.07e-03	0	42	0	886046720	23	6170
2026-01-13 00:41:01.09	214.92	41.39	-31.5	-35.9	10.7	6.44e-03	0	42	0	887095296	23	5951
2026-01-13 00:41:02.09	214.82	41.12	-31.3	-35.7	11.2	2.45e-03	0	42	0	889192448	22	5952
2026-01-13 00:41:03.10	214.72	40.86	-31.3	-35.8	11.1	1.72e-03	0	42	0	891289600	22	5994
2026-01-13 00:41:04.10	214.63	40.59	-31.2	-35.2	11.5	3.10e-03	0	42	0	893386752	22	5720
2026-01-13 00:41:05.10	214.53	40.33	-31.2	-35.4	11.4	3.12e-03	0	42	0	894435328	22	5807
2026-01-13 00:41:06.11	214.44	40.07	-31.3	-35.7	11.2	9.72e-04	0	42	0	896532480	22	5957
2026-01-13 00:41:07.12	214.35	39.81	-31.6	-36.2	10.4	4.62e-03	0	42	0	898629632	23	6091
2026-01-13 00:41:08.13	214.26	39.55	-31.4	-35.6	10.9	5.78e-03	0	42	0	900726784	23	5806
2026-01-13 00:41:09.13	214.17	39.30	-31.4	-35.3	11.1	1.85e-03	0	42	0	902823936	23	5691
2026-01-13 00:41:10.13	214.08	39.05	-31.2	-35.5	11.3	3.45e-03	0	42	0	903872512	22	5868
2026-01-13 00:41:11.14	213.99	38.79	-31.3	-35.7	11.2	3.39e-03	0	42	0	905969664	22	5963
2026-01-13 00:41:12.14	213.91	38.54	-31.3	-35.8	11.1	1.47e-03	0	42	0	908066816	22	5998
2026-01-13 00:41:13.15	213.82	38.29	-31.1	-35.1	11.6	3.00e-03	0	42	0	910163968	22	5699
2026-01-13 00:41:14.16	213.74	38.05	-31.0	-34.6	11.9	2.99e-03	0	42	0	912261120	22	5496
2026-01-13 00:41:15.16	213.66	37.80	-30.8	-34.2	12.2	2.80e-04	0	42	0	914358272	22	5319
2026-01-13 00:41:16.17	213.58	37.56	-30.7	-34.4	12.4	1.86e-04	0	42	0	915406848	21	5486
2026-01-13 00:41:17.18	213.50	37.32	-30.5	-33.9	12.8	2.35e-03	0	42	0	917504000	21	5275
2026-01-13 00:41:18.18	213.42	37.08	-30.7	-34.3	12.5	1.17e-04	0	42	0	919601152	21	5460
2026-01-13 00:41:19.19	213.35	36.84	-30.9	-34.8	12.1	2.52e-04	0	42	0	921698304	21	5684
2026-01-13 00:41:20.20	213.27	36.60	-30.7	-34.3	12.4	1.94e-03	0	42	0	922746880	21	5476
2026-01-13 00:41:21.21	213.20	36.37	-30.7	-34.3	12.5	1.46e-04	0	42	0	924844032	21	5452
2026-01-13 00:41:22.21	213.12	36.13	-30.8	-34.7	12.2	2.12e-04	0	42	0	926941184	21	5640
2026-01-13 00:41:23.22	213.05	35.90	-30.9	-35.1	12.0	3.08e-04	0	42	0	929038336	21	5782
2026-01-13 00:41:24.23	212.98	35.67	-31.1	-35.0	11.6	4.94e-04	0	42	0	931135488	22	5644
2026-01-13 00:41:25.23	212.91	35.44	-31.1	-35.0	11.6	1.25e-03	0	42	0	932184064	22	5667
2026-01-13 00:41:26.24	212.84	35.22	-31.1	-35.1	11.6	7.87e-04	0	42	0	934281216	22	5686
2026-01-13 00:41:27.25	212.77	34.99	-31.2	-35.5	11.3	1.20e-03	0	42	0	936378368	22	5874
2026-01-13 00:41:28.26	212.71	34.77	-31.3	-35.8	11.0	2.81e-03	0	42	0	938475520	22	6030
2026-01-13 00:41:29.26	212.64	34.54	-31.4	-36.1	10.8	1.94e-03	0	42	0	940572672	22	6161
2026-01-13 00:41:30.27	212.58	34.32	-31.5	-35.9	10.5	4.02e-03	0	42	0	942669824	23	5981
2026-01-13 00:41:31.27	212.51	34.11	-31.3	-35.2	11.1	3.73e-03	0	42	0	943718400	23	5640
2026-01-13 00:41:32.27	212.45	33.89	-31.1	-35.1	11.6	6.89e-04	0	42	0	945815552	22	5705
2026-01-13 00:41:33.28	212.39	33.67	-31.0	-34.8	11.7	5.53e-04	0	42	0	947912704	22	5573
2026-01-13 00:41:34.29	212.33	33.46	-31.0	-34.8	11.7	5.39e-04	0	42	0	950009856	22	5555
2026-01-13 00:41:35.28	212.27	33.25	-31.1	-35.0	11.6	2.23e-03	0	42	0	951058432	22	5673
2026-01-13 00:41:36.29	212.21	33.03	-31.1	-35.0	11.6	7.49e-04	0	42	0	953155584	22	5670
2026-01-13 00:41:37.29	212.15	32.82	-31.0	-34.9	11.6	7.23e-04	0	42	0	955252736	22	5634
2026-01-13 00:41:38.29	212.09	32.62	-31.0	-34.9	11.6	7.17e-04	0	42	0	957349888	22	5642
2026-01-13 00:41:39.30	212.03	32.41	-31.1	-35.2	11.4	9.23e-04	0	42	0	959447040	22	5759
2026-01-13 00:41:40.30	211.98	32.20	-31.2	-35.4	11.2	1.25e-03	0	42	0	960495616	22	5868
2026-01-13 00:41:41.31	211.92	32.00	-31.2	-35.3	11.3	1.26e-03	0	42	0	962592768	22	5807
2026-01-13 00:41:42.31	211.86	31.80	-31.3	-35.7	11.1	1.50e-03	0	42	0	964689920	22	5976
2026-01-13 00:41:43.31	211.81	31.59	-31.3	-35.8	11.0	2.12e-03	0	42	0	966787072	22	6030
2026-01-13 00:41:44.32	211.76	31.39	-31.0	-35.8	10.7	2.54e-03	0	42	0	968884224	22	6207
2026-01-13 00:41:45.33	211.70	31.19	-31.5	-36.0	10.4	3.85e-03	0	42	0	969932800	23	6058
2026-01-13 00:41:46.34	211.65	30.99	-31.7	-36.6	10.0	7.69e-03	0	42	0	972029952	23	6333
2026-01-13 00:41:47.34	211.60	30.80	-31.7	-36.5	10.0	6.71e-03	0	42	0	974127104	23	6304
2026-01-13 00:41:48.35	211.55	30.60	-31.8	-37.1	9.6	8.12e-03	0	42	0	976224256	23	6603
2026-01-13 00:41:49.35	211.50	30.41	-31.8	-37.2	9.5	1.51e-02	0	42	0	978321408	23	6680
2026-01-13 00:41:50.36	211.45	30.22	-31.7	-36.9	9.8	1.17e-02	0	42	0	979369984	23	6487
2026-01-13 00:41:51.37	211.40	30.02	-30.8	-36.2	9.6	9.99e-03	0	42	0	981467136	22	6747
2026-01-13 00:41:52.38	211.35	29.83	-31.7	-37.3	9.5	9.70e-03	0	42	0	983564288	22	6857
2026-01-13 00:41:53.39	211.30	29.64	-31.6	-36.5	10.0	7.62e-03	0	42	0	985661440	23	6295
2026-01-13 00:41:54.40	211.25	29.45	-31.6	-36.2	9.7	6.39e-03	0	42	0	987758592	23	6160
2026-01-13 00:41:55.40	211.21	29.27	-31.5	-36.1	9.9	5.51e-03	0	42	0	988807168	23	6113
2026-01-13 00:41:56.40	211.16	29.08	-31.5	-36.4	10.4	4.58e-03	0	42	0	990904320	22	6366
2026-01-13 00:41:57.41	211.12	28.90	-31.5	-35.9	10.4	5.66e-03	0	42	0	993001472	23	5994
2026-01-13 00:41:58.42	211.07	28.71	-31.4	-36.2	10.6	3.83e-03	0	42	0	995098624	22	6237
2026-01-13 00:41:59.43	211.03	28.53	-31.2	-35.6	11.1	2.41e-03	0	42	0	997195776	22	5927
2026-01-13 00:42:00.43	210.98	28.35	-31.2	-35.4	11.2	1.30e-03	0	42	0	998244352	22	5869
2026-01-13 00:42:01.43	210.94	28.17	-31.1	-35.2	11.4	1.21e-03	0	42	0	1000341504	22	5753
2026-01-13 00:42:02.44	210.90	27.99	-31.1	-35.1	11.3	1.88e-03	0	42	0	1002438656	22	5745
2026-01-13 00:42:03.44	210.85	27.82	-30.9	-35.0	11.8	1.01e-03	0	42	0	1004535808	21	5772
2026-01-13 00:42:04.45	210.81	27.64	-30.8	-34.9	11.9	4.36e-04	0	42	0	1006632960	21	5751
2026-01-13 00:42:05.45	210.77	27.47	-30.8	-34.7	12.0	3.55e-04	0	42	0	1007681536	21	5666
2026-01-13 00:42:06.46	210.73	27.29	-30.7	-34.5	12.1	3.24e-03	0	42	0	1009778688	21	5585
2026-01-13 00:42:07.47	210.69	27.12	-30.8	-34.7	12.0	3.04e-04	0	42	0	1011875840	21	5671
2026-01-13 00:42:08.47	210.65	26.95	-30.7	-34.4	12.2	2.65e-04	0	42	0	1013972992	21	5546
2026-01-13 00:42:09.48	210.61	26.78	-30.7	-34.5	12.1	3.25e-03	0	42	0	1016070144	21	5585
2026-01-13 00:42:10.49	210.57	26.61	-30.7	-34.6	12.0	2.71e-03	0	42	0	1017118720	21	5641
2026-01-13 00:42:11.49	210.53	26.44	-30.8	-34.7	12.0	3.83e-04	0	42	0	1019215872	21	5670
2026-01-13 00:42:12.48	210.49	26.27	-30.7	-34.6	12.0	3.21e-03	0	42	0	1021313024	21	5621
2026-01-13 00:42:13.49	210.46	26.11	-30.7	-34.5	12.1	2.42e-03	0	42	0	1023410176	21	5597
2026-01-13 00:42:14.49	210.42	25.94	-30.8	-34.9	11.8	8.98e-04	0	42	0	1025507328	21	5759
2026-01-13 00:42:15.50	210.38	25.78	-30.8	-34.8	11.9	4.35e-04	0	42	0	1026555904	21	5717
2026-01-13 00:42:16.50	210.35	25.61	-30.8	-35.0	11.8	2.41e-03	0	42	0	1028653056	21	5799
2026-01-13 00:42:17.50	210.31	25.45	-30.8	-34.8	11.9	1.22e-03	0	42	0	1030750208	21	5713
2026-01-13 00:42:18.50	210.27	25.29	-30.6	-34.4	12.2	3.35e-04	0	42	0	1032847360	21	5532
2026-01-13 00:42:19.50	210.24	25.13	-30.6	-34.2	12.2	1.62e-03	0	42	0	1033895936	21	5473
2026-01-13 00:42:20.51	210.20	24.97	-30.5	-34.0	12.4	6.75e-04	0	42	0	1035993088	21	5386
2026-01-13 00:42:21.52	210.17	24.81	-30.6	-34.2	12.2	8.91e-04	0	42	0	1038090240	21	5464
2026-01-13 00:42:22.52	210.13	24.65	-30.6	-34.1	12.3	4.43e-04	0	42	0	1040187392	21	5430
2026-01-13 00:42:23.53	210.10	24.50	-30.4	-34.3	12.6	3.94e-04	0	42	0	1042284544	20	5599
2026-01-13 00:42:24.54	210.07	24.34	-30.4	-34.1	12.6	6.26e-04	0	42	0	1044381696	20	5540
2026-01-13 00:42:25.55	210.03	24.18	-30.2	-33.6	13.0	5.95e-05	0	42	0	1045430272	20	5326
2026-01-13 00:42:26.55	210.00	24.03	-30.1	-33.3	13.2	2.47e-04	0	42	0	1047527424	20	5217
2026-01-13 00:42:27.56	209.97	23.88	-30.0	-33.0	13.4	4.81e-04	0	42	0	1049624576	20	5082
2026-01-13 00:42:28.55	209.94	23.73	-30.1	-33.4	13.1	3.13e-04	0	42	0	1051721728	20	5259
2026-01-13 00:42:29.55	209.91	23.57	-30.1	-33.2	13.2	2.27e-04	0	42	0	1052770304	20	5182
2026-01-13 00:42:30.55	209.87	23.42	-29.9	-32.8	13.5	6.32e-04	0	42	0	1054867456	20	5013
2026-01-13 00:42:31.56	209.84	23.27	-29.9	-33.2	13.6	7.61e-04	0	42	0	1056964608	19	5260
2026-01-13 00:42:32.57	209.81	23.12	-29.8	-33.1	13.8	5.30e-06	0	42	0	1059061760	19	5216
2026-01-13 00:42:33.57	209.78	22.98	-29.9	-33.2	13.7	1.18e-03	0	42	0	1061158912	19	5264
2026-01-13 00:42:34.58	209.75	22.83	-29.8	-33.1	13.7	1.16e-03	0	42	0	1062207488	19	5243
2026-01-13 00:42:35.59	209.72	22.68	-29.8	-33.0	13.7	1.51e-04	0	42	0	1064304640	19	5205
2026-01-13 00:42:36.59	209.69	22.54	-29.8	-33.1	13.7	1.42e-03	0	42	0	1066401792	19	5225
2026-01-13 00:42:37.60	209.66	22.39	-29.9	-33.2	13.6	1.53e-03	0	42	0	1068498944	19	5284
2026-01-13 00:42:38.60	209.63	22.25	-30.0	-33.4	13.5	1.17e-04	0	42	0	1070596096	19	5370
2026-01-13 00:42:39.60	209.61	22.11	-30.0	-33.5	13.4	1.14e-05	0	42	0	1071644672	19	5402
2026-01-13 00:42:40.61	209.58	21.96	-30.1	-33.3	13.1	1.62e-03	0	42	0	1073741824	20	5212
2026-01-13 00:42:41.61	209.55	21.82	-30.0	-33.2	13.2	7.78e-05	0	42	0	1075838976	20	5171
2026-01-13 00:42:42.62	209.52	21.68	-30.0	-33.2	13.2	2.13e-05	0	42	0	1077936128	20	5179
2026-01-13 00:42:43.62	209.49	21.54	-30.1	-33.4	13.1	1.98e-03	0	42	0	1080033280	20	5263
2026-01-13 00:42:44.63	209.47	21.40	-30.1	-33.3	13.2	3.81e-05	0	42	0	1081081856	20	5215
2026-01-13 00:42:45.63	209.44	21.26	-30.2	-33.6	12.9	1.92e-03	0	42	0	1083179008	20	5352
2026-01-13 00:42:46.63	209.41	21.13	-30.2	-33.6	12.9	4.80e-05	0	42	0	1085276160	20	5346
2026-01-13 00:42:47.64	209.39	20.99	-30.2	-33.7	12.8	4.95e-05	0	42	0	1087373312	20	5388
2026-01-13 00:42:48.65	209.36	20.85	-30.3	-33.9	12.6	1.94e-03	0	42	0	1089470464	20	5475
2026-01-13 00:42:49.65	209.34	20.72	-30.3	-33.9	12.6	1.06e-04	0	42	0	1090519040	20	5482
2026-01-13 00:42:50.66	209.31	20.58	-30.2	-33.8	12.7	7.78e-05	0	42	0	1092616192	20	5423
2026-01-13 00:42:51.67	209.28	20.45	-30.3	-34.0	12.6	1.95e-03	0	42	0	1094713344	20	5499
2026-01-13 00:42:52.67	209.26	20.31	-30.3	-34.1	12.5	9.99e-05	0	42	0	1096810496	20	5559
2026-01-13 00:42:53.68	209.23	20.18	-30.4	-34.2	12.4	1.70e-04	0	42	0	1098907648	20	5614
2026-01-13 00:42:54.68	209.21	20.05	-30.4	-34.4	12.3	1.97e-03	0	42	0	1099956224	20	5676
2026-01-13 00:42:55.69	209.19	19.92	-30.5	-34.2	12.1	2.11e-03	0	42	0	1102053376	21	5500
2026-01-13 00:42:56.70	209.16	19.79	-30.6	-34.3	12.0	2.83e-04	0	42	0	1104150528	21	5548
2026-01-13 00:42:57.71	209.14	19.66	-30.6	-34.3	12.0	3.45e-04	0	42	0	1106247680	21	5549
2026-01-13 00:42:58.71	209.11	19.53	-30.5	-34.1	12.2	2.22e-03	0	42	0	1108344832	21	5430
2026-01-13 00:42:59.72	209.09	19.40	-30.4	-33.8	12.4	1.90e-04	0	42	0	1109393408	21	5313
2026-01-13 00:43:00.73	209.07	19.27	-30.4	-34.3	12.3	1.63e-04	0	42	0	1111490560	20	5653
2026-01-13 00:43:01.73	209.04	19.14	-30.4	-34.2	12.4	1.80e-04	0	42	0	1113587712	20	5604
2026-01-13 00:43:02.74	209.02	19.02	-30.5	-34.6	12.2	1.77e-04	0	42	0	1115684864	20	5754
2026-01-13 00:43:03.74	209.00	18.89	-30.7	-34.8	11.6	5.30e-04	0	42	0	1117782016	21	5766
2026-01-13 00:43:04.74	208.98	18.77	-30.6	-34.5	11.8	7.81e-04	0	42	0	1118830592	21	5610
2026-01-13 00:43:05.74	208.95	18.64	-30.4	-33.9	12.2	3.46e-04	0	42	0	1120927744	21	5378
2026-01-13 00:43:06.75	208.93	18.52	-30.4	-34.2	12.4	1.77e-04	0	42	0	1123024896	20	5601
2026-01-13 00:43:07.76	208.91	18.39	-30.4	-34.3	12.3	1.50e-04	0	42	0	1125122048	20	5645
2026-01-13 00:43:08.77	208.89	18.27	-30.4	-34.4	12.2	2.24e-04	0	42	0	1127219200	20	5668
2026-01-13 00:43:09.77	208.87	18.15	-30.5	-34.0	12.1	2.82e-04	0	42	0	1128267776	21	5421
2026-01-13 00:43:10.78	208.85	18.02	-30.5	-34.2	12.0	3.23e-04	0	42	0	1130364928	21	5502
2026-01-13 00:43:11.78	208.82	17.90	-30.6	-34.3	11.9	3.95e-04	0	42	0	1132462080	21	5550
2026-01-13 00:43:12.78	208.80	17.78	-30.6	-34.4	11.9	3.64e-04	0	42	0	1134559232	21	5581
2026-01-13 00:43:13.78	208.78	17.66	-30.6	-34.5	11.8	4.27e-04	0	42	0	1136656384	21	5631
2026-01-13 00:43:14.79	208.76	17.54	-30.5	-34.3	11.9	4.44e-04	0	42	0	1137704960	21	5535
2026-01-13 00:43:15.80	208.74	17.43	-30.6	-34.4	11.8	4.53e-04	0	42	0	1139802112	21	5600
2026-01-13 00:43:16.80	208.72	17.31	-30.5	-34.3	11.9	3.71e-04	0	42	0	1141899264	21	5530
2026-01-13 00:43:17.81	208.70	17.19	-30.6	-34.6	11.6	5.20e-04	0	42	0	1143996416	21	5721
2026-01-13 00:43:18.81	208.68	17.07	-30.5	-34.4	11.4	7.39e-04	0	42	0	1146093568	21	5651
2026-01-13 00:43:19.82	208.66	16.96	-30.6	-34.4	11.8	4.69e-04	0	42	0	1147142144	21	5583
2026-01-13 00:43:20.82	208.64	16.84	-30.6	-34.4	11.3	4.73e-04	0	42	0	1149239296	21	5591
2026-01-13 00:43:21.83	208.62	16.72	-30.6	-34.6	11.1	4.87e-04	0	42	0	1151336448	21	5669
2026-01-13 00:43:22.83	208.61	16.61	-30.6	-34.4	11.8	5.39e-04	0	42	0	1153433600	21	5605
2026-01-13 00:43:23.83	208.59	16.50	-30.5	-34.3	11.7	4.90e-04	0	42	0	1155530752	21	5557
2026-01-13 00:43:24.83	208.57	16.38	-30.4	-34.5	12.0	3.00e-04	0	42	0	1156579328	20	5739
2026-01-13 00:43:25.84	208.55	16.27	-30.5	-34.2	11.9	2.67e-04	0	42	0	1158676480	21	5514
2026-01-13 00:43:26.85	208.53	16.16	-30.5	-34.7	11.9	3.56e-04	0	42	0	1160773632	20	5827
2026-01-13 00:43:27.85	208.51	16.04	-30.5	-34.6	11.9	3.95e-04	0	42	0	1162870784	20	5813
2026-01-13 00:43:28.86	208.49	15.93	-30.6	-34.4	11.8	4.45e-04	0	42	0	1164967936	21	5590
2026-01-13 00:43:29.87	208.48	15.82	-30.7	-34.8	11.5	2.68e-03	0	42	0	1166016512	21	5792
2026-01-13 00:43:30.88	208.46	15.71	-30.6	-34.6	11.6	7.91e-04	0	42	0	1168113664	21	5674
2026-01-13 00:43:31.88	208.44	15.60	-30.5	-34.3	11.8	6.27e-04	0	42	0	1170210816	21	5563
2026-01-13 00:43:32.89	208.42	15.49	-30.5	-34.3	11.8	2.42e-03	0	42	0	1172307968	21	5541
2026-01-13 00:43:33.90	208.41	15.38	-30.6	-34.4	11.7	5.24e-04	0	42	0	1174405120	21	5616
2026-01-13 00:43:34.90	208.39	15.27	-30.6	-34.6	11.6	5.78e-04	0	42	0	1175453696	21	5710
2026-01-13 00:43:35.90	208.37	15.16	-30.6	-34.7	11.5	8.62e-04	0	42	0	1177550848	21	5734
2026-01-13 00:43:36.91	208.36	15.05	-30.7	-34.8	11.4	2.80e-03	0	42	0	1179648000	21	5782
2026-01-13 00:43:37.91	208.34	14.95	-30.7	-34.8	11.4	1.09e-03	0	42	0	1181745152	21	5786
2026-01-13 00:43:38.91	208.32	14.84	-30.6	-34.6	11.5	9.08e-04	0	42	0	1183842304	21	5692
2026-01-13 00:43:39.92	208.31	14.73	-30.7	-34.7	11.4	3.06e-03	0	42	0	1184890880	21	5757
2026-01-13 00:43:40.93	208.29	14.63	-30.7	-35.0	11.2	1.04e-03	0	42	0	1186988032	21	5910
2026-01-13 00:43:41.93	208.27	14.52	-30.7	-34.8	11.4	1.32e-03	0	42	0	1189085184	21	5790
2026-01-13 00:43:42.94	208.26	14.42	-30.6	-34.7	11.4	3.02e-03	0	42	0	1191182336	21	5764
2026-01-13 00:43:43.95	208.24	14.31	-30.7	-34.9	11.3	1.17e-03	0	42	0	1192230912	21	5833
2026-01-13 00:43:44.96	208.23	14.21	-30.7	-34.8	11.4	1.06e-03	0	42	0	1194328064	21	5797
2026-01-13 00:43:45.96	208.21	14.10	-30.7	-35.0	11.2	3.55e-03	0	42	0	1196425216	21	5912
2026-01-13 00:43:46.97	208.19	14.00	-30.6	-34.8	11.4	1.21e-03	0	42	0	1198522368	21	5785
2026-01-13 00:43:47.98	208.18	13.90	-30.7	-34.9	11.3	3.18e-03	0	42	0	1200619520	21	5828
2026-01-13 00:43:48.98	208.16	13.80	-30.7	-35.1	11.1	1.13e-03	0	42	0	1202716672	21	5927
2026-01-13 00:43:49.99	208.15	13.69	-30.7	-34.8	11.3	1.50e-03	0	42	0	1203765248	21	5818
2026-01-13 00:43:50.99	208.13	13.59	-30.6	-34.8	11.3	2.98e-03	0	42	0	1205862400	21	5796
2026-01-13 00:43:52.00	208.12	13.49	-30.7	-34.9	11.2	2.98e-03	0	42	0	1207959552	21	5860
2026-01-13 00:43:53.01	208.10	13.39	-30.7	-34.9	11.2	1.42e-03	0	42	0	1210056704	21	5866
2026-01-13 00:43:54.02	208.09	13.29	-30.7	-35.1	11.0	3.23e-03	0	42	0	1212153856	21	5972
2026-01-13 00:43:55.02	208.07	13.19	-30.6	-34.7	11.3	3.17e-03	0	42	0	1213202432	21	5776
2026-01-13 00:43:56.03	208.06	13.09	-30.7	-35.0	11.1	1.70e-03	0	42	0	1215299584	21	5922
2026-01-13 00:43:57.04	208.05	12.99	-30.6	-34.8	11.3	3.00e-03	0	42	0	1217396736	21	5811
2026-01-13 00:43:58.04	208.03	12.89	-30.6	-34.8	11.2	3.03e-03	0	42	0	1219493888	21	5820
2026-01-13 00:43:59.05	208.02	12.79	-30.7	-35.1	11.0	1.59e-03	0	42	0	1220542464	21	5979
2026-01-13 00:44:00.06	208.00	12.69	-30.7	-35.2	10.9	4.03e-03	0	42	0	1222639616	21	6005
2026-01-13 00:44:01.06	207.99	12.60	-30.7	-35.1	10.9	3.76e-03	0	42	0	1224736768	21	5979
2026-01-13 00:44:02.07	207.98	12.50	-30.8	-35.5	10.7	2.62e-03	0	42	0	1226833920	21	6154
2026-01-13 00:44:03.08	207.96	12.40	-30.9	-35.9	10.4	6.07e-03	0	42	0	1228931072	21	6362
2026-01-13 00:44:04.08	207.95	12.31	-30.8	-35.5	10.6	5.38e-03	0	42	0	1231028224	21	6189
2026-01-13 00:44:05.08	207.94	12.21	-30.7	-35.2	10.9	2.67e-03	0	42	0	1232076800	21	6009
2026-01-13 00:44:06.08	207.92	12.12	-30.7	-35.0	11.0	2.01e-03	0	42	0	1234173952	21	5947
2026-01-13 00:44:07.08	207.91	12.02	-30.6	-34.7	11.2	3.32e-03	0	42	0	1236271104	21	5773
2026-01-13 00:44:08.09	207.90	11.93	-30.6	-34.8	11.1	1.61e-03	0	42	0	1238368256	21	5843
2026-01-13 00:44:09.10	207.88	11.83	-30.6	-34.9	11.1	3.57e-03	0	42	0	1239416832	21	5866
2026-01-13 00:44:10.11	207.87	11.74	-30.7	-35.2	10.8	2.73e-03	0	42	0	1241513984	21	6036
2026-01-13 00:44:11.11	207.86	11.64	-30.6	-34.7	11.2	1.89e-03	0	42	0	1243611136	21	5772
2026-01-13 00:44:12.11	207.84	11.55	-30.5	-34.4	11.4	3.52e-03	0	42	0	1245708288	21	5656
2026-01-13 00:44:13.12	207.83	11.46	-30.4	-34.7	11.5	7.00e-04	0	42	0	1247805440	20	5913
2026-01-13 00:44:14.13	207.82	11.36	-30.5	-34.4	11.4	1.16e-03	0	42	0	1248854016	21	5673
2026-01-13 00:44:15.13	207.81	11.27	-30.6	-34.7	11.2	3.19e-03	0	42	0	1250951168	21	5788
2026-01-13 00:44:16.13	207.79	11.18	-30.7	-35.2	10.8	2.21e-03	0	42	0	1253048320	21	6009
2026-01-13 00:44:17.13	207.78	11.09	-30.8	-35.3	10.6	2.68e-03	0	42	0	1255145472	21	6096
2026-01-13 00:44:18.14	207.77	11.00	-30.7	-35.3	10.7	5.11e-03	0	42	0	1257242624	21	6063
2026-01-13 00:44:19.15	207.76	10.90	-30.8	-35.6	10.4	5.15e-03	0	42	0	1258291200	21	6229
2026-01-13 00:44:20.15	207.75	10.81	-30.8	-35.4	10.6	3.31e-03	0	42	0	1260388352	21	6144
2026-01-13 00:44:21.16	207.73	10.72	-30.7	-35.3	10.6	3.13e-03	0	42	0	1262485504	21	6091
2026-01-13 00:44:22.17	207.72	10.63	-30.8	-35.6	10.4	5.81e-03	0	42	0	1264582656	21	6256
2026-01-13 00:44:23.18	207.71	10.54	-30.9	-35.7	10.3	6.32e-03	0	42	0	1266679808	21	6307
2026-01-13 00:44:24.18	207.70	10.45	-30.7	-35.2	10.7	3.75e-03	0	42	0	1267728384	21	6022
2026-01-13 00:44:25.18	207.69	10.37	-30.6	-35.0	10.9	5.02e-03	0	42	0	1269825536	21	5944
2026-01-13 00:44:26.18	207.68	10.28	-30.5	-34.6	11.2	1.78e-03	0	42	0	1271922688	21	5740
2026-01-13 00:44:27.19	207.67	10.19	-30.5	-34.5	11.2	1.34e-03	0	42	0	1274019840	21	5731
2026-01-13 00:44:28.19	207.65	10.10	-30.5	-34.6	11.2	1.71e-03	0	42	0	1276116992	21	5745
2026-01-13 00:44:29.20	207.64	10.01	-30.5	-34.6	11.2	1.35e-03	0	42	0	1277165568	21	5750
2026-01-13 00:44:30.21	207.63	9.92	-30.6	-35.0	10.8	2.24e-03	0	42	0	1279262720	21	5962
2026-01-13 00:44:31.22	207.62	9.84	-30.5	-34.7	11.0	1.85e-03	0	42	0	1281359872	21	5817
2026-01-13 00:44:32.22	207.61	9.75	-30.5	-34.6	11.1	2.09e-03	0	42	0	1283457024	21	5770
2026-01-13 00:44:33.22	207.60	9.66	-30.6	-35.0	10.8	2.31e-03	0	42	0	1285554176	21	5960
2026-01-13 00:44:34.22	207.59	9.58	-30.6	-34.9	10.9	2.21e-03	0	42	0	1286602752	21	5900
2026-01-13 00:44:35.22	207.58	9.49	-30.5	-34.7	11.0	1.82e-03	0	42	0	1288699904	21	5836
2026-01-13 00:44:36.23	207.57	9.41	-30.5	-34.8	10.9	2.39e-03	0	42	0	1290797056	21	5862
