passes_logs/2026/01/13/R2M6_AANII_01/R2M6_AANII_01__20260113_024508_AQUA_rec.log

#Pass ID: 20260113_024508_AQUA
#Satellite: AQUA
#Configuration: AQUA
#almurnet v.1.7.20240730
#Start time: 2026-01-13 02:45:08

#Version: 2.2.20231116
#Station: R2M6_AANII_01
#Location: 30.233357 lon 59.946436 lat
#TLE: 1 27424U 02022A   26012.29577270  .00001027  00000+0  21555-3 0  9995
#TLE: 2 27424  98.4078 338.6778 0002034  81.5885  29.6294 14.61817302260499

#Time	Az	El	Level	Level2	SNR	BER	BlckErr	Temp	State	Recorded	gain1	gain2
2026-01-13 02:45:08.93	12.36	7.05	-32.1	-40.1	4.8	7.15e-01	0	39	0	0	26	9042
2026-01-13 02:45:09.93	12.31	7.13	-32.2	-40.7	4.8	7.13e-01	0	40	104	0	26	9626
2026-01-13 02:45:10.94	12.26	7.21	-32.2	-39.8	10.7	6.15e-01	0	40	0	0	26	8647
2026-01-13 02:45:11.94	12.22	7.28	-32.2	-39.9	10.7	6.16e-01	0	40	0	1572864	26	8741
2026-01-13 02:45:12.95	12.17	7.37	-32.2	-39.6	11.0	6.15e-01	0	40	0	3670016	26	8430
2026-01-13 02:45:13.96	12.12	7.45	-32.1	-38.9	11.6	6.11e-01	0	40	0	5242880	26	7920
2026-01-13 02:45:14.97	12.07	7.53	-32.0	-38.5	12.0	6.10e-01	0	40	0	7340032	26	7614
2026-01-13 02:45:15.97	12.02	7.61	-32.0	-38.4	12.2	6.06e-01	0	40	0	9437184	26	7495
2026-01-13 02:45:16.97	11.98	7.69	-32.0	-38.4	12.2	6.10e-01	0	40	0	11010048	26	7484
2026-01-13 02:45:17.98	11.93	7.77	-32.0	-38.5	12.1	6.09e-01	0	40	0	13107200	26	7571
2026-01-13 02:45:18.98	11.88	7.85	-32.0	-38.4	12.2	6.07e-01	0	40	0	14680064	26	7528
2026-01-13 02:45:19.99	11.83	7.93	-32.2	-39.6	11.2	6.15e-01	0	40	0	16777216	26	8414
2026-01-13 02:45:21.00	11.78	8.02	-32.0	-38.4	12.2	6.07e-01	0	40	0	18874368	26	7501
2026-01-13 02:45:22.00	11.73	8.10	-31.7	-37.6	13.3	6.06e-01	0	40	0	20447232	25	7056
2026-01-13 02:45:23.00	11.68	8.18	-31.5	-36.5	14.2	6.06e-01	0	40	0	22544384	25	6402
2026-01-13 02:45:24.01	11.63	8.26	-31.2	-35.7	15.1	6.03e-01	0	40	0	24117248	24	6090
2026-01-13 02:45:25.01	11.58	8.35	-30.8	-34.8	16.2	6.03e-01	0	40	0	26214400	23	5725
2026-01-13 02:45:26.02	11.52	8.43	-30.6	-34.2	16.6	6.04e-01	0	40	0	28311552	23	5439
2026-01-13 02:45:27.02	11.47	8.52	-30.3	-33.7	17.2	6.02e-01	0	40	0	29884416	22	5363
2026-01-13 02:45:28.03	11.42	8.60	-30.1	-33.2	17.6	6.02e-01	0	40	0	31981568	22	5156
2026-01-13 02:45:29.04	11.37	8.68	-30.3	-33.8	17.2	6.03e-01	0	40	0	33554432	22	5406
2026-01-13 02:45:30.04	11.31	8.77	-30.4	-34.0	17.1	6.03e-01	0	40	0	35651584	22	5464
2026-01-13 02:45:31.05	11.26	8.85	-30.3	-33.9	17.2	6.04e-01	0	40	0	37748736	22	5409
2026-01-13 02:45:32.06	11.21	8.94	-30.3	-33.8	17.3	6.01e-01	0	40	0	39321600	22	5378
2026-01-13 02:45:33.07	11.15	9.03	-30.4	-34.0	17.2	6.05e-01	0	40	0	41418752	22	5474
2026-01-13 02:45:34.08	11.10	9.11	-30.5	-34.4	16.9	6.02e-01	0	40	0	42991616	22	5630
2026-01-13 02:45:35.08	11.04	9.20	-30.4	-34.0	17.2	6.02e-01	0	40	0	45088768	22	5446
2026-01-13 02:45:36.08	10.99	9.29	-30.6	-34.6	16.7	6.04e-01	0	40	0	47185920	22	5732
2026-01-13 02:45:37.08	10.93	9.37	-30.4	-34.1	17.1	6.03e-01	0	40	0	48758784	22	5510
2026-01-13 02:45:38.09	10.88	9.46	-30.1	-33.2	17.8	6.02e-01	0	40	0	50855936	22	5126
2026-01-13 02:45:39.10	10.82	9.55	-30.0	-32.7	18.1	6.05e-01	0	40	0	52428800	22	4945
2026-01-13 02:45:40.11	10.76	9.64	-29.8	-32.8	18.3	6.01e-01	0	40	0	54525952	21	5080
2026-01-13 02:45:41.11	10.71	9.72	-29.9	-33.1	18.1	6.04e-01	0	41	0	56623104	21	5206
2026-01-13 02:45:42.11	10.65	9.81	-29.9	-33.1	18.2	6.04e-01	0	41	0	58195968	21	5188
2026-01-13 02:45:43.13	10.59	9.90	-29.9	-33.1	18.2	6.04e-01	0	40	0	60293120	21	5198
2026-01-13 02:45:44.13	10.53	9.99	-29.9	-33.2	18.1	6.03e-01	0	41	0	61865984	21	5222
2026-01-13 02:45:45.14	10.47	10.08	-30.0	-33.3	18.1	6.01e-01	0	40	0	63963136	21	5257
2026-01-13 02:45:46.15	10.41	10.17	-30.0	-33.2	18.1	6.05e-01	0	41	0	66060288	21	5232
2026-01-13 02:45:47.16	10.35	10.26	-30.0	-33.5	18.0	6.04e-01	0	40	0	67633152	21	5335
2026-01-13 02:45:48.16	10.29	10.35	-30.1	-33.5	18.0	6.03e-01	0	41	0	69730304	21	5333
2026-01-13 02:45:49.17	10.23	10.44	-30.1	-33.5	17.9	6.03e-01	0	41	0	71303168	21	5337
2026-01-13 02:45:50.17	10.17	10.53	-29.8	-32.8	18.4	6.01e-01	0	41	0	73400320	21	5085
2026-01-13 02:45:51.18	10.11	10.63	-29.8	-32.6	18.6	6.01e-01	0	41	0	74973184	21	5007
2026-01-13 02:45:52.18	10.05	10.72	-29.7	-32.5	18.6	6.03e-01	0	41	0	77070336	21	4965
2026-01-13 02:45:53.19	9.99	10.81	-29.7	-32.5	18.6	6.04e-01	0	41	0	79167488	21	4968
2026-01-13 02:45:54.20	9.92	10.90	-29.8	-32.7	18.5	6.03e-01	0	41	0	80740352	21	5045
2026-01-13 02:45:55.20	9.86	11.00	-29.7	-32.5	18.7	6.04e-01	0	41	0	82837504	21	4954
2026-01-13 02:45:56.21	9.80	11.09	-29.8	-32.6	18.5	6.02e-01	0	41	0	84934656	21	4992
2026-01-13 02:45:57.22	9.73	11.18	-29.8	-32.7	18.5	6.03e-01	0	41	0	86507520	21	5044
2026-01-13 02:45:58.22	9.67	11.28	-30.0	-33.2	18.1	6.03e-01	0	41	0	88604672	21	5228
2026-01-13 02:45:59.23	9.60	11.37	-29.8	-32.7	18.5	6.02e-01	0	41	0	90177536	21	5038
2026-01-13 02:46:00.23	9.54	11.47	-29.6	-32.2	18.8	6.04e-01	0	41	0	92274688	21	4857
2026-01-13 02:46:01.24	9.47	11.56	-29.6	-32.1	18.9	6.02e-01	0	41	0	94371840	21	4802
2026-01-13 02:46:02.25	9.41	11.66	-29.6	-32.0	19.0	6.04e-01	0	41	0	95944704	21	4793
2026-01-13 02:46:03.25	9.34	11.76	-29.5	-31.8	19.1	6.05e-01	0	41	0	98041856	21	4714
2026-01-13 02:46:04.25	9.27	11.85	-29.4	-31.7	19.2	6.01e-01	0	41	0	99614720	21	4662
2026-01-13 02:46:05.26	9.20	11.95	-29.4	-31.7	19.2	6.03e-01	0	41	0	101711872	21	4667
2026-01-13 02:46:06.26	9.14	12.04	-29.4	-31.7	19.2	6.03e-01	0	41	0	103284736	21	4684
2026-01-13 02:46:07.27	9.07	12.14	-29.4	-32.1	19.3	6.02e-01	0	41	0	105381888	20	4902
2026-01-13 02:46:08.27	9.00	12.24	-29.4	-32.2	19.2	6.03e-01	0	41	0	107479040	20	4945
2026-01-13 02:46:09.27	8.93	12.34	-29.3	-32.0	19.4	6.02e-01	0	41	0	109051904	20	4861
2026-01-13 02:46:10.27	8.86	12.44	-29.4	-32.1	19.2	6.02e-01	0	41	0	111149056	20	4926
2026-01-13 02:46:11.28	8.79	12.54	-29.3	-31.9	19.4	6.01e-01	0	41	0	112721920	20	4851
2026-01-13 02:46:12.28	8.71	12.63	-29.2	-31.6	19.6	6.02e-01	0	41	0	114819072	20	4749
2026-01-13 02:46:13.28	8.64	12.73	-29.3	-31.7	19.6	6.01e-01	0	41	0	116916224	20	4772
2026-01-13 02:46:14.29	8.57	12.84	-29.2	-31.6	19.6	6.00e-01	0	41	0	118489088	20	4743
2026-01-13 02:46:15.29	8.50	12.94	-29.2	-31.7	19.6	6.02e-01	0	41	0	120586240	20	4758
2026-01-13 02:46:16.30	8.42	13.04	-29.3	-31.7	19.6	6.02e-01	0	41	0	122159104	20	4766
2026-01-13 02:46:17.30	8.35	13.14	-29.2	-31.5	19.7	6.03e-01	0	41	0	124256256	20	4688
2026-01-13 02:46:18.30	8.27	13.24	-29.3	-31.7	19.6	6.01e-01	0	41	0	126353408	20	4766
2026-01-13 02:46:19.31	8.20	13.34	-29.2	-31.5	19.7	6.02e-01	0	41	0	127926272	20	4713
2026-01-13 02:46:20.32	8.12	13.45	-29.3	-31.8	19.6	6.02e-01	0	41	0	130023424	20	4793
2026-01-13 02:46:21.33	8.04	13.55	-29.2	-31.6	19.7	6.05e-01	0	41	0	131596288	20	4735
2026-01-13 02:46:22.33	7.97	13.65	-29.2	-31.6	19.6	6.00e-01	0	41	0	133693440	20	4752
2026-01-13 02:46:23.33	7.89	13.76	-29.3	-31.8	19.5	6.01e-01	0	41	0	135790592	20	4807
2026-01-13 02:46:24.34	7.81	13.86	-29.3	-31.8	19.5	6.05e-01	0	41	0	137363456	20	4801
2026-01-13 02:46:25.34	7.73	13.97	-29.3	-31.9	19.5	6.02e-01	0	41	0	139460608	20	4824
2026-01-13 02:46:26.34	7.65	14.07	-29.4	-32.0	19.4	6.04e-01	0	41	0	141033472	20	4856
2026-01-13 02:46:27.34	7.57	14.18	-29.3	-31.9	19.5	6.04e-01	0	41	0	143130624	20	4827
2026-01-13 02:46:28.35	7.49	14.28	-29.4	-32.1	19.4	6.00e-01	0	41	0	144703488	20	4893
2026-01-13 02:46:29.36	7.41	14.39	-29.4	-31.9	19.5	6.04e-01	0	41	0	146800640	20	4834
2026-01-13 02:46:30.37	7.33	14.50	-29.4	-32.1	19.4	6.03e-01	0	41	0	148897792	20	4900
2026-01-13 02:46:31.37	7.24	14.61	-29.3	-31.8	19.6	6.03e-01	0	41	0	150470656	20	4781
2026-01-13 02:46:32.38	7.16	14.72	-29.2	-31.6	19.8	6.05e-01	0	41	0	152567808	20	4721
2026-01-13 02:46:33.39	7.07	14.82	-29.2	-31.6	19.8	6.02e-01	0	41	0	154664960	20	4729
2026-01-13 02:46:34.40	6.99	14.93	-29.3	-31.6	19.7	6.02e-01	0	41	0	156237824	20	4742
2026-01-13 02:46:35.40	6.90	15.04	-29.2	-31.5	19.8	6.02e-01	0	41	0	158334976	20	4678
2026-01-13 02:46:36.41	6.81	15.15	-29.2	-31.4	19.9	6.03e-01	0	41	0	159907840	20	4670
2026-01-13 02:46:37.41	6.73	15.26	-29.2	-31.4	19.9	6.03e-01	0	41	0	162004992	20	4654
2026-01-13 02:46:38.42	6.64	15.38	-29.2	-31.5	19.8	6.02e-01	0	41	0	163577856	20	4698
2026-01-13 02:46:39.42	6.55	15.49	-29.2	-31.6	19.8	6.03e-01	0	41	0	165675008	20	4713
2026-01-13 02:46:40.43	6.46	15.60	-29.2	-31.5	19.9	6.05e-01	0	41	0	167772160	20	4691
2026-01-13 02:46:41.43	6.37	15.71	-29.2	-31.5	19.9	6.02e-01	0	41	0	169345024	20	4687
2026-01-13 02:46:42.43	6.28	15.83	-29.2	-31.5	19.8	6.02e-01	0	42	0	171442176	20	4703
2026-01-13 02:46:43.44	6.19	15.94	-29.2	-31.4	19.9	6.01e-01	0	41	0	173015040	20	4659
2026-01-13 02:46:44.45	6.09	16.05	-29.3	-31.6	19.8	6.02e-01	0	42	0	175112192	20	4715
2026-01-13 02:46:45.46	6.00	16.17	-29.2	-31.5	19.9	6.03e-01	0	41	0	177209344	20	4693
2026-01-13 02:46:46.46	5.91	16.28	-29.3	-31.6	19.8	6.04e-01	0	41	0	178782208	20	4717
2026-01-13 02:46:47.47	5.81	16.40	-29.3	-31.7	19.8	6.01e-01	0	41	0	180879360	20	4733
2026-01-13 02:46:48.48	5.72	16.52	-29.3	-31.7	19.8	6.03e-01	0	41	0	182976512	20	4738
2026-01-13 02:46:49.49	5.62	16.64	-29.3	-31.8	19.8	6.02e-01	0	41	0	184549376	20	4766
2026-01-13 02:46:50.49	5.52	16.75	-29.3	-31.8	19.7	6.03e-01	0	41	0	186646528	20	4768
2026-01-13 02:46:51.50	5.42	16.87	-29.3	-31.6	19.8	6.04e-01	0	41	0	188219392	20	4729
2026-01-13 02:46:52.50	5.32	16.99	-29.3	-31.8	19.7	6.02e-01	0	41	0	190316544	20	4772
2026-01-13 02:46:53.51	5.22	17.11	-29.3	-31.8	19.7	6.03e-01	0	41	0	191889408	20	4782
2026-01-13 02:46:54.51	5.12	17.23	-29.3	-31.7	19.8	6.03e-01	0	41	0	193986560	20	4749
2026-01-13 02:46:55.51	5.02	17.35	-29.4	-32.1	19.5	6.03e-01	0	41	0	196083712	20	4893
2026-01-13 02:46:56.52	4.92	17.47	-29.5	-32.3	19.5	6.03e-01	0	41	0	197656576	20	4938
2026-01-13 02:46:57.52	4.81	17.59	-29.3	-31.7	19.8	6.01e-01	0	42	0	199753728	20	4737
2026-01-13 02:46:58.52	4.71	17.71	-29.3	-31.6	19.9	6.03e-01	0	41	0	201326592	20	4706
2026-01-13 02:46:59.53	4.60	17.83	-29.2	-31.5	20.0	6.03e-01	0	42	0	203423744	20	4692
2026-01-13 02:47:00.54	4.50	17.96	-29.3	-31.6	19.9	6.01e-01	0	41	0	205520896	20	4703
2026-01-13 02:47:01.54	4.39	18.08	-29.2	-31.5	19.9	6.02e-01	0	41	0	207093760	20	4688
2026-01-13 02:47:02.55	4.28	18.20	-29.2	-31.5	19.9	6.03e-01	0	41	0	209190912	20	4680
2026-01-13 02:47:03.56	4.17	18.33	-29.2	-31.5	19.9	6.02e-01	0	41	0	210763776	20	4688
2026-01-13 02:47:04.57	4.06	18.46	-29.3	-31.6	20.0	6.03e-01	0	41	0	212860928	20	4704
2026-01-13 02:47:05.58	3.95	18.58	-29.2	-31.5	19.9	6.02e-01	0	41	0	214958080	20	4683
2026-01-13 02:47:06.58	3.84	18.71	-29.3	-31.6	19.9	6.03e-01	0	42	0	216530944	20	4720
2026-01-13 02:47:07.58	3.72	18.84	-29.3	-31.7	19.8	6.04e-01	0	41	0	218628096	20	4735
2026-01-13 02:47:08.58	3.61	18.96	-29.3	-31.6	19.9	6.02e-01	0	41	0	220200960	20	4699
2026-01-13 02:47:09.59	3.49	19.09	-29.2	-31.4	20.0	6.04e-01	0	41	0	222298112	20	4652
2026-01-13 02:47:10.59	3.38	19.22	-29.3	-31.7	19.9	6.04e-01	0	41	0	224395264	20	4729
2026-01-13 02:47:11.59	3.26	19.35	-29.3	-31.6	19.9	6.02e-01	0	41	0	225968128	20	4727
2026-01-13 02:47:12.60	3.14	19.48	-29.2	-31.5	20.0	6.07e-01	0	41	0	228065280	20	4670
2026-01-13 02:47:13.61	3.02	19.61	-29.2	-31.4	20.0	6.01e-01	0	41	0	229638144	20	4663
2026-01-13 02:47:14.62	2.90	19.74	-29.2	-31.4	20.0	6.03e-01	0	42	0	231735296	20	4658
2026-01-13 02:47:15.62	2.78	19.87	-29.2	-31.5	20.0	6.06e-01	0	42	0	233308160	20	4679
2026-01-13 02:47:16.63	2.66	20.01	-29.2	-31.5	20.0	6.02e-01	0	42	0	235405312	20	4687
2026-01-13 02:47:17.63	2.53	20.14	-29.2	-31.5	20.0	6.06e-01	0	42	0	237502464	20	4680
2026-01-13 02:47:18.63	2.41	20.27	-29.3	-31.7	19.9	6.02e-01	0	41	0	239075328	20	4732
2026-01-13 02:47:19.64	2.28	20.41	-29.3	-31.6	20.0	6.03e-01	0	42	0	241172480	20	4699
2026-01-13 02:47:20.65	2.15	20.55	-29.3	-31.7	19.9	6.03e-01	0	42	0	243269632	20	4723
2026-01-13 02:47:21.65	2.02	20.68	-29.3	-31.7	19.9	5.99e-01	0	42	0	244842496	20	4723
2026-01-13 02:47:22.66	1.89	20.82	-29.3	-31.8	19.9	6.03e-01	0	42	0	246939648	20	4756
2026-01-13 02:47:23.67	1.76	20.96	-29.3	-31.7	19.9	6.02e-01	0	42	0	248512512	20	4722
2026-01-13 02:47:24.67	1.63	21.09	-29.3	-31.7	19.9	6.03e-01	0	42	0	250609664	20	4741
2026-01-13 02:47:25.68	1.49	21.23	-29.3	-31.7	19.9	6.04e-01	0	42	0	252182528	20	4735
2026-01-13 02:47:26.67	1.36	21.37	-29.4	-31.9	19.8	6.02e-01	0	42	0	254279680	20	4812
2026-01-13 02:47:27.67	1.22	21.51	-29.4	-32.0	19.8	6.02e-01	0	42	0	256376832	20	4824
2026-01-13 02:47:28.68	1.08	21.65	-29.4	-31.9	19.8	6.04e-01	0	42	0	257949696	20	4804
2026-01-13 02:47:29.69	0.94	21.79	-29.5	-32.1	19.7	6.02e-01	0	42	0	260046848	20	4862
2026-01-13 02:47:30.69	0.80	21.93	-29.5	-32.2	19.7	6.03e-01	0	41	0	261619712	20	4891
2026-01-13 02:47:31.70	0.66	22.08	-29.6	-32.3	19.6	6.04e-01	0	42	0	263716864	20	4930
2026-01-13 02:47:32.70	0.52	22.22	-29.5	-32.2	19.6	6.04e-01	0	41	0	265814016	20	4913
2026-01-13 02:47:33.71	0.37	22.36	-29.5	-32.3	19.6	6.00e-01	0	42	0	267386880	20	4928
2026-01-13 02:47:34.72	0.22	22.51	-29.8	-33.0	19.2	6.04e-01	0	42	0	269484032	20	5181
2026-01-13 02:47:35.72	0.07	22.66	-29.9	-33.1	19.1	6.04e-01	0	42	0	271056896	20	5214
2026-01-13 02:47:36.73	359.92	22.80	-29.8	-33.0	19.1	6.03e-01	0	42	0	273154048	20	5204
2026-01-13 02:47:37.74	359.77	22.95	-30.0	-33.4	18.9	6.03e-01	0	42	0	275251200	20	5330
2026-01-13 02:47:38.74	359.62	23.10	-29.9	-33.3	19.0	6.04e-01	0	42	0	276824064	20	5298
2026-01-13 02:47:39.74	359.47	23.24	-29.8	-32.9	19.2	6.02e-01	0	42	0	278921216	20	5140
2026-01-13 02:47:40.74	359.31	23.39	-29.7	-32.8	19.3	6.03e-01	0	42	0	280494080	20	5098
2026-01-13 02:47:41.75	359.15	23.54	-29.7	-32.7	19.3	6.02e-01	0	42	0	282591232	20	5086
2026-01-13 02:47:42.75	359.00	23.69	-29.9	-33.2	19.1	6.03e-01	0	42	0	284688384	20	5260
2026-01-13 02:47:43.76	358.83	23.84	-29.9	-33.1	19.2	6.04e-01	0	42	0	286261248	20	5205
2026-01-13 02:47:44.76	358.67	24.00	-29.6	-32.4	19.5	6.02e-01	0	42	0	288358400	20	4965
2026-01-13 02:47:45.76	358.51	24.15	-29.5	-32.2	19.7	6.04e-01	0	42	0	289931264	20	4877
2026-01-13 02:47:46.77	358.34	24.30	-29.5	-32.0	19.8	6.03e-01	0	42	0	292028416	20	4840
2026-01-13 02:47:47.77	358.18	24.46	-29.6	-32.4	19.6	6.03e-01	0	42	0	293601280	20	4950
2026-01-13 02:47:48.78	358.01	24.61	-29.7	-32.7	19.4	6.04e-01	0	42	0	295698432	20	5057
2026-01-13 02:47:49.78	357.84	24.77	-29.6	-32.5	19.6	6.03e-01	0	42	0	297795584	20	4989
2026-01-13 02:47:50.78	357.66	24.92	-29.6	-32.3	19.6	6.00e-01	0	42	0	299368448	20	4919
2026-01-13 02:47:51.79	357.49	25.08	-29.6	-32.3	19.6	6.04e-01	0	42	0	301465600	20	4937
2026-01-13 02:47:52.79	357.31	25.24	-29.4	-31.9	19.9	6.02e-01	0	42	0	303562752	20	4799
2026-01-13 02:47:53.80	357.13	25.39	-29.3	-31.6	20.1	6.01e-01	0	42	0	305135616	20	4695
2026-01-13 02:47:54.80	356.95	25.55	-29.4	-31.8	20.0	6.03e-01	0	42	0	307232768	20	4748
2026-01-13 02:47:55.80	356.77	25.71	-29.4	-31.7	20.0	6.03e-01	0	42	0	308805632	20	4735
2026-01-13 02:47:56.81	356.59	25.87	-29.5	-32.1	19.8	6.05e-01	0	42	0	310902784	20	4868
2026-01-13 02:47:57.81	356.40	26.03	-29.5	-32.2	19.8	6.05e-01	0	41	0	312475648	20	4874
2026-01-13 02:47:58.82	356.21	26.20	-29.6	-32.3	19.7	6.01e-01	0	42	0	314572800	20	4922
2026-01-13 02:47:59.81	356.02	26.36	-29.4	-31.9	19.9	6.03e-01	0	42	0	316669952	20	4780
2026-01-13 02:48:00.81	355.83	26.52	-29.2	-31.4	20.2	6.03e-01	0	42	0	318242816	20	4634
2026-01-13 02:48:01.81	355.64	26.68	-29.2	-31.4	20.2	6.02e-01	0	42	0	320339968	20	4625
2026-01-13 02:48:02.82	355.44	26.85	-29.3	-31.6	20.1	6.01e-01	0	42	0	321912832	20	4670
2026-01-13 02:48:03.83	355.24	27.02	-29.4	-31.8	20.0	6.00e-01	0	42	0	324009984	20	4739
2026-01-13 02:48:04.83	355.04	27.18	-29.3	-31.7	20.1	6.03e-01	0	42	0	326107136	20	4708
2026-01-13 02:48:05.84	354.84	27.35	-29.3	-31.5	20.2	6.01e-01	0	42	0	327680000	20	4668
2026-01-13 02:48:06.85	354.63	27.52	-29.3	-31.7	20.1	6.03e-01	0	42	0	329777152	20	4701
2026-01-13 02:48:07.84	354.43	27.68	-29.2	-31.4	20.3	6.03e-01	0	42	0	331350016	20	4606
2026-01-13 02:48:08.85	354.22	27.85	-29.1	-31.1	20.5	6.02e-01	0	42	0	333447168	20	4511
2026-01-13 02:48:09.86	354.00	28.02	-29.1	-31.1	20.5	6.03e-01	0	42	0	335020032	20	4524
2026-01-13 02:48:10.87	353.79	28.20	-29.0	-30.9	20.6	6.02e-01	0	42	0	337117184	20	4465
2026-01-13 02:48:11.88	353.57	28.37	-29.1	-31.1	20.5	6.04e-01	0	42	0	339214336	20	4532
2026-01-13 02:48:12.88	353.35	28.54	-29.1	-31.0	20.5	6.02e-01	0	42	0	340787200	20	4499
2026-01-13 02:48:13.89	353.13	28.71	-29.1	-31.0	20.5	6.03e-01	0	42	0	342884352	20	4487
2026-01-13 02:48:14.90	352.90	28.89	-29.2	-31.3	20.3	6.04e-01	0	42	0	344981504	20	4595
2026-01-13 02:48:15.91	352.67	29.06	-29.0	-30.8	20.5	6.02e-01	0	42	0	346554368	20	4443
2026-01-13 02:48:16.92	352.44	29.24	-28.9	-30.7	20.7	6.02e-01	0	42	0	348651520	20	4386
2026-01-13 02:48:17.93	352.21	29.41	-29.0	-30.9	20.6	6.03e-01	0	42	0	350224384	20	4449
2026-01-13 02:48:18.93	351.97	29.59	-29.0	-30.7	20.7	6.03e-01	0	42	0	352321536	20	4404
2026-01-13 02:48:19.94	351.73	29.77	-29.0	-30.8	20.7	6.03e-01	0	42	0	354418688	20	4419
2026-01-13 02:48:20.95	351.49	29.94	-29.1	-31.1	20.6	6.05e-01	0	42	0	355991552	20	4514
2026-01-13 02:48:21.96	351.25	30.12	-29.2	-31.2	20.4	6.01e-01	0	42	0	358088704	20	4566
2026-01-13 02:48:22.97	351.00	30.30	-29.2	-31.4	20.4	6.03e-01	0	42	0	359661568	20	4616
2026-01-13 02:48:23.96	350.75	30.48	-29.0	-30.9	20.7	6.03e-01	0	42	0	361758720	20	4446
2026-01-13 02:48:24.97	350.50	30.66	-28.9	-31.0	21.0	6.02e-01	0	42	0	363331584	19	4579
2026-01-13 02:48:25.97	350.25	30.84	-28.9	-30.9	20.9	6.03e-01	0	42	0	365428736	19	4563
2026-01-13 02:48:26.97	349.99	31.02	-28.8	-30.9	21.0	6.02e-01	0	42	0	367525888	19	4546
2026-01-13 02:48:27.97	349.73	31.20	-29.0	-31.1	20.8	6.02e-01	0	42	0	369098752	19	4635
2026-01-13 02:48:28.98	349.46	31.38	-29.0	-31.2	20.8	6.01e-01	0	42	0	371195904	19	4664
2026-01-13 02:48:29.98	349.20	31.56	-29.0	-31.4	20.7	6.03e-01	0	42	0	373293056	19	4707
2026-01-13 02:48:30.99	348.93	31.75	-29.2	-31.9	20.5	6.04e-01	0	42	0	374865920	19	4862
2026-01-13 02:48:31.99	348.65	31.93	-29.1	-31.6	20.6	6.06e-01	0	42	0	376963072	19	4774
2026-01-13 02:48:33.00	348.37	32.11	-29.1	-31.5	20.7	6.02e-01	0	42	0	378535936	19	4741
2026-01-13 02:48:34.01	348.09	32.30	-29.2	-31.7	20.6	6.03e-01	0	42	0	380633088	19	4818
2026-01-13 02:48:35.02	347.81	32.49	-29.0	-31.3	20.8	6.03e-01	0	42	0	382205952	19	4679
2026-01-13 02:48:36.02	347.52	32.67	-29.1	-31.4	20.7	6.05e-01	0	42	0	384303104	19	4716
2026-01-13 02:48:37.03	347.23	32.86	-29.0	-31.2	20.8	6.02e-01	0	42	0	386400256	19	4637
2026-01-13 02:48:38.03	346.94	33.04	-29.1	-31.4	20.8	6.03e-01	0	42	0	387973120	19	4711
2026-01-13 02:48:39.05	346.64	33.23	-29.2	-31.8	20.5	6.02e-01	0	42	0	390070272	19	4843
2026-01-13 02:48:40.05	346.34	33.42	-29.3	-31.9	20.4	6.02e-01	0	42	0	391643136	19	4882
2026-01-13 02:48:41.06	346.03	33.61	-29.4	-32.2	20.3	6.02e-01	0	42	0	393740288	19	4980
2026-01-13 02:48:42.06	345.72	33.79	-29.5	-32.5	20.1	6.02e-01	0	42	0	395837440	19	5070
2026-01-13 02:48:43.07	345.41	33.98	-29.3	-32.1	20.4	6.01e-01	0	42	0	397410304	19	4940
2026-01-13 02:48:44.07	345.10	34.17	-29.3	-31.9	20.5	6.02e-01	0	42	0	399507456	19	4862
2026-01-13 02:48:45.08	344.77	34.36	-29.3	-32.1	20.4	6.03e-01	0	42	0	401080320	19	4936
2026-01-13 02:48:46.08	344.45	34.54	-29.4	-32.2	20.3	6.03e-01	0	42	0	403177472	19	4974
2026-01-13 02:48:47.09	344.12	34.73	-29.6	-32.2	19.9	6.04e-01	0	42	0	405274624	20	4873
2026-01-13 02:48:48.10	343.79	34.92	-29.6	-32.4	19.8	6.01e-01	0	42	0	406847488	20	4926
2026-01-13 02:48:49.10	343.46	35.11	-29.7	-32.5	19.7	6.05e-01	0	42	0	408944640	20	4992
2026-01-13 02:48:50.10	343.12	35.30	-29.7	-32.6	19.7	6.01e-01	0	42	0	410517504	20	5003
2026-01-13 02:48:51.11	342.77	35.49	-29.7	-32.4	19.8	6.02e-01	0	42	0	412614656	20	4949
2026-01-13 02:48:52.11	342.43	35.68	-29.8	-32.7	19.6	6.04e-01	0	42	0	414711808	20	5054
2026-01-13 02:48:53.11	342.08	35.87	-30.2	-33.2	19.0	6.03e-01	0	42	0	416284672	21	5118
2026-01-13 02:48:54.11	341.72	36.06	-30.2	-33.3	19.0	6.03e-01	0	42	0	418381824	21	5141
2026-01-13 02:48:55.12	341.36	36.25	-30.3	-33.6	18.8	6.03e-01	0	42	0	419954688	21	5262
2026-01-13 02:48:56.12	341.00	36.43	-30.4	-34.0	18.6	6.03e-01	0	42	0	422051840	21	5407
2026-01-13 02:48:57.13	340.63	36.62	-30.5	-34.2	18.4	6.02e-01	0	42	0	423624704	21	5475
2026-01-13 02:48:58.13	340.26	36.81	-30.3	-33.6	18.8	5.99e-01	0	42	0	425721856	21	5271
2026-01-13 02:48:59.14	339.88	37.00	-30.3	-33.5	18.9	6.02e-01	0	42	0	427819008	21	5233
2026-01-13 02:49:00.14	339.49	37.19	-30.5	-34.0	18.6	6.01e-01	0	42	0	429391872	21	5421
2026-01-13 02:49:01.14	339.11	37.37	-30.6	-34.4	18.3	6.04e-01	0	42	0	431489024	21	5573
2026-01-13 02:49:02.15	338.72	37.56	-30.6	-33.8	18.4	5.99e-01	0	42	0	433586176	22	5233
2026-01-13 02:49:03.15	338.32	37.75	-30.5	-33.5	18.6	6.02e-01	0	42	0	435159040	22	5110
2026-01-13 02:49:04.16	337.92	37.94	-30.5	-33.5	18.6	6.02e-01	0	42	0	437256192	22	5121
2026-01-13 02:49:05.17	337.51	38.12	-30.5	-33.7	18.5	6.02e-01	0	42	0	438829056	22	5163
2026-01-13 02:49:06.17	337.10	38.31	-30.7	-34.1	18.2	6.03e-01	0	42	0	440926208	22	5350
2026-01-13 02:49:07.18	336.68	38.49	-30.6	-33.9	18.4	6.04e-01	0	42	0	442499072	22	5257
2026-01-13 02:49:08.19	336.26	38.68	-31.0	-34.9	17.7	6.03e-01	0	42	0	444596224	22	5671
2026-01-13 02:49:09.19	335.84	38.86	-30.8	-34.5	17.9	6.02e-01	0	42	0	446693376	22	5505
2026-01-13 02:49:10.19	335.41	39.04	-30.5	-33.7	18.5	6.04e-01	0	42	0	448266240	22	5178
2026-01-13 02:49:11.20	334.97	39.23	-30.6	-33.7	18.5	6.04e-01	0	42	0	450363392	22	5193
2026-01-13 02:49:12.21	334.53	39.41	-30.9	-34.6	18.0	6.02e-01	0	42	0	451936256	22	5522
2026-01-13 02:49:13.22	334.08	39.59	-30.8	-34.4	18.0	6.03e-01	0	42	0	454033408	22	5478
2026-01-13 02:49:14.22	333.63	39.77	-31.1	-35.2	17.5	6.03e-01	0	42	0	456130560	22	5786
2026-01-13 02:49:15.22	333.18	39.94	-30.7	-34.1	18.1	6.04e-01	0	42	0	457703424	22	5337
2026-01-13 02:49:16.23	332.72	40.12	-30.4	-33.3	18.6	6.02e-01	0	42	0	459800576	22	5045
2026-01-13 02:49:17.24	332.25	40.30	-30.3	-33.0	18.9	6.05e-01	0	42	0	461897728	22	4921
2026-01-13 02:49:18.25	331.78	40.47	-30.1	-32.6	19.1	6.02e-01	0	42	0	463470592	22	4799
2026-01-13 02:49:19.26	331.30	40.65	-30.3	-32.9	19.0	6.04e-01	0	42	0	465567744	22	4891
2026-01-13 02:49:20.26	330.82	40.82	-30.4	-33.2	18.8	6.02e-01	0	42	0	467140608	22	5005
2026-01-13 02:49:21.27	330.33	40.99	-30.4	-33.3	18.7	6.03e-01	0	42	0	469237760	22	5027
2026-01-13 02:49:22.27	329.84	41.16	-30.1	-32.6	19.1	6.03e-01	0	42	0	470810624	22	4783
2026-01-13 02:49:23.27	329.34	41.33	-30.2	-32.7	19.1	6.03e-01	0	42	0	472907776	22	4823
2026-01-13 02:49:24.28	328.84	41.49	-30.3	-33.0	18.9	6.03e-01	0	42	0	475004928	22	4942
2026-01-13 02:49:25.28	328.33	41.66	-30.2	-32.7	19.1	6.03e-01	0	42	0	476577792	22	4825
2026-01-13 02:49:26.28	327.82	41.82	-30.3	-33.1	18.8	6.02e-01	0	42	0	478674944	22	4956
2026-01-13 02:49:27.29	327.30	41.98	-30.2	-32.8	19.0	6.04e-01	0	42	0	480247808	22	4846
2026-01-13 02:49:28.29	326.78	42.14	-30.0	-32.3	19.4	6.00e-01	0	42	0	482344960	22	4665
2026-01-13 02:49:29.30	326.25	42.30	-30.0	-32.3	19.4	6.05e-01	0	42	0	484442112	22	4665
2026-01-13 02:49:30.30	325.72	42.45	-30.1	-32.4	19.3	6.03e-01	0	42	0	486014976	22	4711
2026-01-13 02:49:31.31	325.17	42.60	-30.2	-32.8	19.1	6.03e-01	0	42	0	488112128	22	4862
2026-01-13 02:49:32.31	324.63	42.75	-30.1	-32.4	19.3	6.05e-01	0	42	0	489684992	22	4710
2026-01-13 02:49:33.32	324.08	42.90	-29.9	-32.0	19.5	6.02e-01	0	42	0	491782144	22	4579
2026-01-13 02:49:34.33	323.52	43.05	-30.0	-32.3	19.4	6.01e-01	0	42	0	493879296	22	4673
2026-01-13 02:49:35.33	322.96	43.19	-30.0	-32.3	19.3	6.02e-01	0	42	0	495452160	22	4694
2026-01-13 02:49:36.34	322.39	43.33	-30.1	-32.4	19.3	6.04e-01	0	42	0	497549312	22	4727
2026-01-13 02:49:37.34	321.83	43.47	-30.1	-32.4	19.3	6.01e-01	0	42	0	499122176	22	4701
2026-01-13 02:49:38.34	321.25	43.61	-29.9	-32.0	19.5	6.03e-01	0	42	0	501219328	22	4582
2026-01-13 02:49:39.34	320.68	43.74	-30.0	-32.2	19.4	6.02e-01	0	42	0	503316480	22	4639
2026-01-13 02:49:40.35	320.09	43.87	-29.9	-31.9	19.6	6.02e-01	0	42	0	504889344	22	4554
2026-01-13 02:49:41.35	319.50	44.00	-30.1	-32.6	19.2	6.04e-01	0	42	0	506986496	22	4788
2026-01-13 02:49:42.36	318.90	44.12	-30.0	-32.1	19.5	6.03e-01	0	42	0	508559360	22	4617
2026-01-13 02:49:43.36	318.31	44.24	-30.0	-32.2	19.4	6.02e-01	0	42	0	510656512	22	4660
2026-01-13 02:49:44.37	317.70	44.36	-30.0	-32.2	19.4	6.05e-01	0	42	0	512229376	22	4634
2026-01-13 02:49:45.38	317.09	44.48	-30.0	-32.4	19.4	6.04e-01	0	42	0	514326528	22	4706
2026-01-13 02:49:46.38	316.48	44.59	-30.1	-32.5	19.3	6.02e-01	0	42	0	516423680	22	4735
2026-01-13 02:49:47.39	315.85	44.70	-30.1	-32.4	19.4	6.02e-01	0	42	0	517996544	22	4695
2026-01-13 02:49:48.40	315.23	44.80	-30.0	-32.1	19.5	6.03e-01	0	42	0	520093696	22	4625
2026-01-13 02:49:49.41	314.60	44.90	-30.0	-32.1	19.5	6.02e-01	0	42	0	522190848	22	4626
2026-01-13 02:49:50.41	313.97	45.00	-29.8	-32.3	19.7	6.03e-01	0	42	0	523763712	21	4771
2026-01-13 02:49:51.41	313.34	45.09	-29.9	-32.4	19.7	6.05e-01	0	42	0	525860864	21	4820
2026-01-13 02:49:52.42	312.70	45.19	-30.0	-32.7	19.4	6.03e-01	0	42	0	527433728	21	4929
2026-01-13 02:49:53.42	312.06	45.27	-29.7	-32.1	19.8	6.03e-01	0	42	0	529530880	21	4717
2026-01-13 02:49:54.43	311.41	45.36	-30.0	-32.7	19.4	6.00e-01	0	42	0	531103744	21	4928
2026-01-13 02:49:55.43	310.77	45.44	-29.9	-32.6	19.5	6.00e-01	0	42	0	533200896	21	4869
2026-01-13 02:49:56.43	310.12	45.51	-29.9	-32.6	19.5	6.00e-01	0	42	0	535298048	21	4878
2026-01-13 02:49:57.43	309.47	45.58	-29.9	-32.6	19.5	6.03e-01	0	42	0	536870912	21	4877
2026-01-13 02:49:58.44	308.81	45.65	-29.9	-32.4	19.6	6.03e-01	0	42	0	538968064	21	4814
2026-01-13 02:49:59.45	308.14	45.71	-29.9	-32.5	19.6	6.04e-01	0	42	0	540540928	21	4843
2026-01-13 02:50:00.46	307.47	45.77	-30.0	-32.8	19.4	6.03e-01	0	42	0	542638080	21	4963
2026-01-13 02:50:01.46	306.81	45.83	-29.7	-31.8	19.9	6.01e-01	0	42	0	544735232	21	4631
2026-01-13 02:50:02.47	306.14	45.88	-29.8	-32.2	19.7	6.02e-01	0	42	0	546308096	21	4765
2026-01-13 02:50:03.47	305.47	45.93	-29.8	-32.3	19.6	6.03e-01	0	42	0	548405248	21	4787
2026-01-13 02:50:04.48	304.80	45.97	-29.9	-32.4	19.6	6.04e-01	0	42	0	550502400	21	4813
2026-01-13 02:50:05.49	304.12	46.01	-29.9	-32.6	19.5	6.02e-01	0	42	0	552075264	21	4876
2026-01-13 02:50:06.49	303.45	46.04	-29.8	-32.3	19.7	6.03e-01	0	42	0	554172416	21	4799
2026-01-13 02:50:07.50	302.77	46.07	-30.1	-33.0	19.3	6.01e-01	0	42	0	555745280	21	5015
2026-01-13 02:50:08.51	302.09	46.10	-30.2	-33.2	19.2	6.01e-01	0	42	0	557842432	21	5092
2026-01-13 02:50:09.52	301.40	46.12	-29.8	-32.3	19.7	6.02e-01	0	42	0	559415296	21	4798
2026-01-13 02:50:10.52	300.73	46.14	-29.7	-32.0	19.9	6.02e-01	0	42	0	561512448	21	4684
2026-01-13 02:50:11.53	300.04	46.15	-29.9	-32.6	19.4	6.04e-01	0	42	0	563609600	21	4890
2026-01-13 02:50:12.54	299.36	46.16	-29.5	-31.5	20.1	6.04e-01	0	42	0	565182464	21	4516
2026-01-13 02:50:13.54	298.68	46.16	-29.6	-31.7	19.9	6.03e-01	0	42	0	567279616	21	4574
2026-01-13 02:50:14.55	297.99	46.16	-29.6	-31.8	19.8	6.04e-01	0	42	0	568852480	21	4615
2026-01-13 02:50:15.55	297.31	46.15	-29.6	-31.8	19.9	6.03e-01	0	42	0	570949632	21	4611
2026-01-13 02:50:16.56	296.63	46.14	-29.6	-31.8	19.8	6.04e-01	0	42	0	573046784	21	4630
2026-01-13 02:50:17.56	295.95	46.13	-29.7	-32.4	19.8	6.03e-01	0	42	0	574619648	20	4919
2026-01-13 02:50:18.56	295.27	46.11	-29.6	-32.1	19.9	6.00e-01	0	42	0	576716800	20	4841
2026-01-13 02:50:19.56	294.60	46.09	-29.7	-32.5	19.7	6.01e-01	0	42	0	578289664	20	4951
2026-01-13 02:50:20.57	293.92	46.06	-29.3	-31.6	20.3	6.02e-01	0	42	0	580386816	20	4653
2026-01-13 02:50:21.58	293.24	46.03	-29.4	-31.7	20.2	6.03e-01	0	42	0	581959680	20	4684
2026-01-13 02:50:22.57	292.57	46.00	-29.5	-31.9	20.1	6.02e-01	0	42	0	584056832	20	4746
2026-01-13 02:50:23.58	291.89	45.95	-29.7	-32.6	19.7	6.04e-01	0	42	0	586153984	20	5002
2026-01-13 02:50:24.58	291.23	45.91	-30.1	-33.0	19.1	6.05e-01	0	42	0	587726848	21	5035
2026-01-13 02:50:25.59	290.55	45.86	-29.9	-33.0	19.5	6.01e-01	0	42	0	589824000	20	5167
2026-01-13 02:50:26.59	289.89	45.81	-29.9	-33.0	19.6	6.02e-01	0	42	0	591921152	20	5169
2026-01-13 02:50:27.60	289.22	45.75	-29.7	-32.6	19.7	6.03e-01	0	42	0	593494016	20	5005
2026-01-13 02:50:28.61	288.55	45.69	-29.1	-31.5	20.8	6.02e-01	0	42	0	595591168	19	4719
2026-01-13 02:50:29.62	287.89	45.62	-28.9	-30.5	21.0	6.05e-01	0	42	0	597164032	20	4324
2026-01-13 02:50:30.62	287.23	45.56	-29.5	-31.4	20.0	6.00e-01	0	42	0	599261184	21	4488
2026-01-13 02:50:31.63	286.58	45.48	-30.4	-33.2	18.5	6.02e-01	0	42	0	601358336	22	4986
2026-01-13 02:50:32.63	285.93	45.41	-30.4	-33.4	18.3	6.03e-01	0	42	0	602931200	22	5076
2026-01-13 02:50:33.64	285.28	45.32	-30.4	-33.8	18.8	6.03e-01	0	42	0	605028352	21	5344
2026-01-13 02:50:34.65	284.63	45.24	-30.2	-33.2	19.2	6.03e-01	0	42	0	606601216	21	5122
2026-01-13 02:50:35.66	283.98	45.15	-29.6	-31.7	20.1	6.03e-01	0	42	0	608698368	21	4598
2026-01-13 02:50:36.67	283.34	45.06	-29.5	-31.4	20.1	6.01e-01	0	42	0	610271232	21	4471
2026-01-13 02:50:37.67	282.71	44.96	-30.1	-33.1	18.9	6.05e-01	0	42	0	612368384	21	5066
2026-01-13 02:50:38.67	282.09	44.86	-30.4	-33.9	18.7	6.00e-01	0	42	0	614465536	21	5378
2026-01-13 02:50:39.68	281.46	44.76	-30.5	-34.2	18.5	6.04e-01	0	42	0	616038400	21	5503
2026-01-13 02:50:40.69	280.83	44.65	-29.6	-31.7	20.0	6.02e-01	0	42	0	618135552	21	4586
2026-01-13 02:50:41.69	280.22	44.54	-29.5	-31.5	19.8	6.03e-01	0	42	0	620232704	21	4533
2026-01-13 02:50:42.70	279.60	44.43	-29.9	-33.2	19.4	6.03e-01	0	42	0	621805568	20	5232
2026-01-13 02:50:43.70	279.00	44.31	-29.3	-31.9	20.5	6.02e-01	0	42	0	623902720	19	4854
2026-01-13 02:50:44.71	278.39	44.19	-29.4	-31.2	20.1	6.02e-01	0	42	0	625475584	21	4434
2026-01-13 02:50:45.72	277.79	44.07	-30.7	-34.3	18.0	6.04e-01	0	42	0	627572736	22	5442
2026-01-13 02:50:46.72	277.20	43.94	-30.0	-32.9	19.3	6.02e-01	0	42	0	629145600	21	4987
2026-01-13 02:50:47.72	276.61	43.82	-29.7	-31.9	19.7	6.02e-01	0	42	0	631242752	21	4662
2026-01-13 02:50:48.73	276.02	43.68	-30.6	-34.1	18.1	6.03e-01	0	42	0	633339904	22	5373
2026-01-13 02:50:49.74	275.44	43.55	-29.9	-32.5	19.5	6.05e-01	0	42	0	634912768	21	4852
2026-01-13 02:50:50.74	274.87	43.41	-29.9	-32.5	19.2	6.02e-01	0	42	0	637009920	21	4873
2026-01-13 02:50:51.75	274.30	43.27	-30.3	-33.7	18.7	6.02e-01	0	42	0	638582784	21	5327
2026-01-13 02:50:52.75	273.73	43.13	-29.8	-32.2	19.6	6.00e-01	0	42	0	640679936	21	4745
2026-01-13 02:50:53.76	273.17	42.98	-30.0	-32.9	19.1	6.04e-01	0	42	0	642777088	21	5028
2026-01-13 02:50:54.76	272.62	42.84	-29.8	-32.2	19.6	6.02e-01	0	42	0	644349952	21	4771
2026-01-13 02:50:55.77	272.07	42.69	-30.5	-34.3	18.3	6.04e-01	0	42	0	646447104	21	5535
2026-01-13 02:50:56.78	271.52	42.54	-29.9	-32.6	19.4	6.03e-01	0	42	0	648019968	21	4884
2026-01-13 02:50:57.79	270.98	42.38	-29.9	-32.7	19.2	6.05e-01	0	42	0	650117120	21	4931
2026-01-13 02:50:58.80	270.44	42.22	-29.9	-32.5	19.5	6.02e-01	0	42	0	652214272	21	4849
2026-01-13 02:50:59.80	269.92	42.07	-30.4	-33.8	18.6	6.03e-01	0	42	0	653787136	21	5348
2026-01-13 02:51:00.81	269.39	41.91	-30.5	-34.1	18.5	6.05e-01	0	42	0	655884288	21	5456
2026-01-13 02:51:01.81	268.88	41.74	-30.0	-32.8	19.2	6.03e-01	0	42	0	657457152	21	4983
2026-01-13 02:51:02.81	268.37	41.58	-30.3	-33.7	18.7	6.02e-01	0	42	0	659554304	21	5322
2026-01-13 02:51:03.82	267.86	41.41	-30.4	-33.4	18.5	6.03e-01	0	42	0	661651456	22	5083
2026-01-13 02:51:04.82	267.36	41.25	-30.3	-33.0	18.9	6.03e-01	0	42	0	663224320	22	4926
2026-01-13 02:51:05.83	266.86	41.08	-31.0	-35.0	17.5	6.05e-01	0	42	0	665321472	22	5730
2026-01-13 02:51:06.84	266.37	40.91	-30.2	-32.9	18.9	6.04e-01	0	42	0	666894336	22	4902
2026-01-13 02:51:07.84	265.88	40.74	-31.0	-35.1	17.5	6.02e-01	0	42	0	668991488	22	5771
2026-01-13 02:51:08.85	265.40	40.56	-30.8	-34.6	17.8	6.04e-01	0	42	0	671088640	22	5546
2026-01-13 02:51:09.85	264.93	40.39	-30.6	-33.8	18.3	6.03e-01	0	42	0	672661504	22	5256
2026-01-13 02:51:10.86	264.46	40.21	-30.1	-32.5	19.0	6.03e-01	0	42	0	674758656	22	4776
2026-01-13 02:51:11.86	263.99	40.04	-29.7	-32.1	19.6	6.02e-01	0	42	0	676331520	21	4719
2026-01-13 02:51:12.87	263.53	39.86	-29.5	-31.6	20.0	6.04e-01	0	42	0	678428672	21	4557
2026-01-13 02:51:13.88	263.07	39.68	-29.8	-32.4	19.5	6.03e-01	0	42	0	680525824	21	4838
2026-01-13 02:51:14.88	262.63	39.50	-29.9	-32.6	19.4	6.03e-01	0	42	0	682098688	21	4915
2026-01-13 02:51:15.88	262.18	39.32	-30.0	-32.7	19.3	6.02e-01	0	42	0	684195840	21	4959
2026-01-13 02:51:16.88	261.75	39.14	-29.6	-31.8	19.8	6.03e-01	0	42	0	685768704	21	4631
2026-01-13 02:51:17.89	261.31	38.95	-29.7	-32.0	19.7	6.02e-01	0	42	0	687865856	21	4689
2026-01-13 02:51:18.90	260.88	38.77	-29.8	-32.4	19.5	6.03e-01	0	42	0	689963008	21	4827
2026-01-13 02:51:19.91	260.45	38.58	-29.9	-32.5	19.4	6.04e-01	0	42	0	691535872	21	4875
2026-01-13 02:51:20.92	260.03	38.40	-30.0	-32.8	19.2	6.02e-01	0	42	0	693633024	21	4992
2026-01-13 02:51:21.92	259.62	38.21	-29.7	-32.1	19.6	6.06e-01	0	42	0	695205888	21	4740
2026-01-13 02:51:22.93	259.21	38.02	-29.7	-32.0	19.7	6.01e-01	0	42	0	697303040	21	4710
2026-01-13 02:51:23.94	258.80	37.83	-29.9	-32.5	19.4	6.01e-01	0	42	0	699400192	21	4873
2026-01-13 02:51:24.94	258.40	37.65	-29.8	-32.3	19.5	6.04e-01	0	42	0	700973056	21	4818
2026-01-13 02:51:25.95	258.00	37.46	-30.0	-32.9	19.2	6.01e-01	0	42	0	703070208	21	5002
2026-01-13 02:51:26.96	257.61	37.27	-30.0	-32.9	19.1	6.00e-01	0	42	0	704643072	21	5008
2026-01-13 02:51:27.97	257.22	37.08	-29.8	-32.3	19.5	6.01e-01	0	42	0	706740224	21	4792
2026-01-13 02:51:28.97	256.84	36.89	-29.6	-31.7	19.9	6.03e-01	0	42	0	708837376	21	4599
2026-01-13 02:51:29.98	256.46	36.70	-29.7	-32.0	19.7	6.02e-01	0	42	0	710410240	21	4701
2026-01-13 02:51:30.98	256.09	36.51	-29.9	-32.7	19.3	6.03e-01	0	42	0	712507392	21	4932
2026-01-13 02:51:31.99	255.72	36.32	-30.1	-33.1	19.0	6.03e-01	0	42	0	714080256	21	5088
2026-01-13 02:51:32.99	255.36	36.13	-29.7	-32.0	19.6	6.03e-01	0	42	0	716177408	21	4696
2026-01-13 02:51:33.99	255.00	35.95	-29.6	-31.7	19.9	6.04e-01	0	42	0	718274560	21	4615
2026-01-13 02:51:35.00	254.64	35.76	-29.7	-31.9	19.7	6.00e-01	0	42	0	719847424	21	4682
2026-01-13 02:51:36.01	254.29	35.56	-30.0	-32.9	19.1	6.01e-01	0	42	0	721944576	21	5027
2026-01-13 02:51:37.02	253.94	35.37	-30.0	-32.8	19.2	6.03e-01	0	42	0	723517440	21	4973
2026-01-13 02:51:38.01	253.61	35.19	-30.0	-33.0	19.1	6.02e-01	0	42	0	725614592	21	5041
2026-01-13 02:51:39.01	253.27	35.00	-29.7	-32.0	19.6	6.01e-01	0	42	0	727187456	21	4704
2026-01-13 02:51:40.02	252.93	34.81	-29.4	-31.4	19.9	6.03e-01	0	42	0	729284608	21	4523
2026-01-13 02:51:41.02	252.60	34.62	-29.5	-31.5	19.9	6.03e-01	0	42	0	731381760	21	4553
2026-01-13 02:51:42.03	252.27	34.43	-29.6	-31.8	19.8	6.03e-01	0	42	0	732954624	21	4640
2026-01-13 02:51:43.03	251.95	34.24	-29.6	-31.8	19.8	6.04e-01	0	42	0	735051776	21	4649
2026-01-13 02:51:44.04	251.63	34.05	-29.5	-31.5	20.0	6.04e-01	0	42	0	737148928	21	4547
2026-01-13 02:51:45.04	251.32	33.86	-29.8	-32.2	19.5	6.03e-01	0	42	0	738721792	21	4789
2026-01-13 02:51:46.04	251.01	33.67	-29.7	-32.0	19.7	6.03e-01	0	42	0	740818944	21	4694
2026-01-13 02:51:47.05	250.70	33.49	-29.7	-32.1	19.5	6.01e-01	0	42	0	742391808	21	4746
2026-01-13 02:51:48.05	250.40	33.30	-29.2	-31.3	20.3	6.03e-01	0	42	0	744488960	20	4592
2026-01-13 02:51:49.05	250.10	33.11	-29.5	-32.1	19.9	6.04e-01	0	42	0	746061824	20	4841
2026-01-13 02:51:50.06	249.80	32.92	-29.5	-32.0	19.9	6.01e-01	0	42	0	748158976	20	4837
2026-01-13 02:51:51.07	249.50	32.74	-29.6	-32.4	19.7	6.04e-01	0	42	0	750256128	20	4955
2026-01-13 02:51:52.08	249.21	32.55	-29.3	-31.5	20.2	6.02e-01	0	42	0	751828992	20	4667
2026-01-13 02:51:53.08	248.93	32.36	-29.1	-31.0	20.5	6.02e-01	0	42	0	753926144	20	4507
2026-01-13 02:51:54.09	248.64	32.18	-29.2	-31.3	20.4	6.04e-01	0	42	0	755499008	20	4583
2026-01-13 02:51:55.10	248.36	31.99	-29.1	-31.2	20.4	6.01e-01	0	42	0	757596160	20	4555
2026-01-13 02:51:56.10	248.09	31.81	-29.2	-31.2	20.4	6.00e-01	0	42	0	759693312	20	4554
2026-01-13 02:51:57.11	247.81	31.62	-29.5	-32.1	19.8	6.03e-01	0	42	0	761266176	20	4842
2026-01-13 02:51:58.11	247.54	31.44	-29.6	-32.4	19.7	6.01e-01	0	42	0	763363328	20	4960
2026-01-13 02:51:59.12	247.28	31.26	-29.8	-32.9	19.2	6.03e-01	0	42	0	764936192	20	5155
2026-01-13 02:52:00.12	247.01	31.07	-29.2	-31.3	20.2	6.02e-01	0	42	0	767033344	20	4588
2026-01-13 02:52:01.12	246.75	30.89	-28.9	-31.0	20.8	6.04e-01	0	42	0	768606208	19	4582
2026-01-13 02:52:02.12	246.50	30.71	-29.0	-31.3	20.6	6.03e-01	0	42	0	770703360	19	4711
2026-01-13 02:52:03.13	246.24	30.53	-29.3	-32.1	20.2	6.00e-01	0	42	0	772800512	19	4966
2026-01-13 02:52:04.14	245.99	30.35	-29.2	-31.8	20.3	6.00e-01	0	42	0	774373376	19	4846
2026-01-13 02:52:05.14	245.74	30.17	-29.0	-31.3	20.6	6.05e-01	0	42	0	776470528	19	4686
2026-01-13 02:52:06.14	245.49	29.99	-29.1	-31.5	20.5	6.01e-01	0	42	0	778567680	19	4746
2026-01-13 02:52:07.15	245.25	29.81	-29.1	-31.4	20.5	6.02e-01	0	42	0	780140544	19	4736
2026-01-13 02:52:08.16	245.01	29.64	-29.2	-31.8	20.3	6.01e-01	0	42	0	782237696	19	4869
2026-01-13 02:52:09.16	244.77	29.46	-29.0	-31.2	20.6	5.98e-01	0	42	0	783810560	19	4653
2026-01-13 02:52:10.17	244.54	29.28	-28.8	-30.9	20.8	6.03e-01	0	42	0	785907712	19	4575
2026-01-13 02:52:11.17	244.30	29.11	-29.1	-31.5	20.5	6.02e-01	0	42	0	787480576	19	4761
2026-01-13 02:52:12.18	244.07	28.93	-29.2	-32.0	20.2	6.02e-01	0	42	0	789577728	19	4918
2026-01-13 02:52:13.18	243.85	28.76	-29.2	-31.8	20.3	6.04e-01	0	42	0	791674880	19	4860
2026-01-13 02:52:14.19	243.62	28.58	-29.1	-31.5	20.5	6.03e-01	0	42	0	793247744	19	4776
2026-01-13 02:52:15.20	243.40	28.41	-29.2	-31.7	20.4	6.03e-01	0	42	0	795344896	19	4827
2026-01-13 02:52:16.20	243.18	28.24	-29.4	-32.2	20.0	6.02e-01	0	42	0	797442048	19	5008
2026-01-13 02:52:17.21	242.96	28.06	-29.4	-32.3	20.0	6.03e-01	0	42	0	799014912	19	5038
2026-01-13 02:52:18.21	242.75	27.89	-29.5	-32.2	19.7	6.01e-01	0	42	0	801112064	20	4914
2026-01-13 02:52:19.22	242.53	27.72	-29.5	-32.1	19.7	6.02e-01	0	42	0	802684928	20	4863
2026-01-13 02:52:20.22	242.33	27.55	-29.5	-32.2	19.7	6.02e-01	0	42	0	804782080	20	4883
2026-01-13 02:52:21.23	242.12	27.38	-29.4	-31.9	19.9	6.00e-01	0	42	0	806354944	20	4782
2026-01-13 02:52:22.23	241.91	27.22	-29.5	-32.2	19.7	6.02e-01	0	42	0	808452096	20	4883
2026-01-13 02:52:23.24	241.71	27.05	-29.7	-32.6	19.4	6.04e-01	0	42	0	810549248	20	5057
2026-01-13 02:52:24.25	241.51	26.88	-29.6	-32.5	19.5	6.05e-01	0	42	0	812122112	20	5012
2026-01-13 02:52:25.24	241.31	26.72	-29.3	-31.6	20.0	6.03e-01	0	42	0	814219264	20	4713
2026-01-13 02:52:26.25	241.11	26.55	-29.0	-30.9	20.4	5.99e-01	0	42	0	815792128	20	4488
2026-01-13 02:52:27.25	240.92	26.39	-29.0	-30.8	20.5	6.01e-01	0	42	0	817889280	20	4428
2026-01-13 02:52:28.26	240.73	26.22	-29.0	-30.9	20.4	6.03e-01	0	42	0	819986432	20	4492
2026-01-13 02:52:29.26	240.54	26.06	-29.1	-31.1	20.3	6.04e-01	0	42	0	821559296	20	4533
2026-01-13 02:52:30.27	240.35	25.90	-29.1	-31.2	20.2	6.03e-01	0	42	0	823656448	20	4579
2026-01-13 02:52:31.27	240.16	25.74	-29.1	-31.3	20.2	6.05e-01	0	42	0	825229312	20	4592
2026-01-13 02:52:32.28	239.98	25.58	-29.2	-31.3	20.2	6.02e-01	0	42	0	827326464	20	4608
2026-01-13 02:52:33.29	239.79	25.41	-29.3	-31.6	20.0	6.03e-01	0	42	0	829423616	20	4685
2026-01-13 02:52:34.30	239.61	25.25	-29.4	-31.8	19.8	6.00e-01	0	42	0	830996480	20	4788
2026-01-13 02:52:35.30	239.44	25.10	-29.4	-32.0	19.7	6.03e-01	0	42	0	833093632	20	4835
2026-01-13 02:52:36.31	239.26	24.94	-29.3	-31.6	19.9	6.04e-01	0	42	0	834666496	20	4712
2026-01-13 02:52:37.32	239.08	24.78	-29.2	-31.3	20.1	6.03e-01	0	42	0	836763648	20	4620
2026-01-13 02:52:38.32	238.91	24.62	-29.2	-31.3	20.2	6.04e-01	0	42	0	838860800	20	4592
2026-01-13 02:52:39.32	238.74	24.47	-29.2	-31.5	20.0	6.00e-01	0	42	0	840433664	20	4662
2026-01-13 02:52:40.33	238.57	24.31	-29.3	-31.6	20.0	6.03e-01	0	42	0	842530816	20	4697
2026-01-13 02:52:41.34	238.40	24.16	-29.5	-32.1	19.6	6.04e-01	0	42	0	844103680	20	4891
2026-01-13 02:52:42.34	238.24	24.00	-29.6	-32.3	19.5	6.02e-01	0	42	0	846200832	20	4955
2026-01-13 02:52:43.35	238.07	23.85	-29.6	-32.5	19.4	6.05e-01	0	42	0	848297984	20	5003
2026-01-13 02:52:44.36	237.91	23.70	-29.5	-32.1	19.6	6.03e-01	0	42	0	849870848	20	4888
2026-01-13 02:52:45.36	237.75	23.55	-29.4	-32.0	19.7	6.02e-01	0	42	0	851968000	20	4842
2026-01-13 02:52:46.37	237.59	23.40	-29.4	-32.0	19.7	6.04e-01	0	42	0	853540864	20	4824
2026-01-13 02:52:47.38	237.43	23.24	-29.5	-32.2	19.6	6.02e-01	0	42	0	855638016	20	4914
2026-01-13 02:52:48.38	237.28	23.10	-29.4	-31.9	19.8	6.05e-01	0	42	0	857735168	20	4813
2026-01-13 02:52:49.39	237.12	22.95	-29.4	-31.9	19.8	6.04e-01	0	42	0	859308032	20	4808
2026-01-13 02:52:50.40	236.97	22.80	-29.5	-32.2	19.6	6.04e-01	0	42	0	861405184	20	4903
2026-01-13 02:52:51.40	236.82	22.65	-29.5	-32.2	19.5	6.02e-01	0	42	0	862978048	20	4929
2026-01-13 02:52:52.41	236.67	22.50	-29.5	-32.2	19.5	6.04e-01	0	42	0	865075200	20	4915
2026-01-13 02:52:53.42	236.52	22.36	-29.5	-32.2	19.5	6.03e-01	0	42	0	867172352	20	4924
2026-01-13 02:52:54.42	236.37	22.21	-29.5	-32.3	19.4	6.03e-01	0	42	0	868745216	20	4952
2026-01-13 02:52:55.43	236.23	22.07	-29.5	-32.3	19.5	6.03e-01	0	42	0	870842368	20	4944
2026-01-13 02:52:56.43	236.08	21.93	-29.6	-32.4	19.4	6.02e-01	0	42	0	872415232	20	4971
2026-01-13 02:52:57.44	235.94	21.78	-29.6	-32.3	19.4	6.02e-01	0	42	0	874512384	20	4967
2026-01-13 02:52:58.44	235.80	21.64	-29.6	-32.4	19.4	6.03e-01	0	42	0	876609536	20	5005
2026-01-13 02:52:59.45	235.66	21.50	-29.6	-32.5	19.3	6.06e-01	0	42	0	878182400	20	5024
2026-01-13 02:53:00.46	235.52	21.36	-29.6	-32.6	19.3	6.02e-01	0	42	0	880279552	20	5068
2026-01-13 02:53:01.46	235.38	21.22	-29.7	-32.8	19.1	6.00e-01	0	42	0	881852416	20	5138
2026-01-13 02:53:02.46	235.25	21.08	-29.5	-32.3	19.4	6.04e-01	0	42	0	883949568	20	4949
2026-01-13 02:53:03.46	235.11	20.94	-29.4	-31.9	19.7	6.03e-01	0	42	0	885522432	20	4821
2026-01-13 02:53:04.47	234.98	20.80	-29.3	-31.7	19.8	6.02e-01	0	42	0	887619584	20	4743
2026-01-13 02:53:05.47	234.85	20.66	-29.3	-31.7	19.8	6.03e-01	0	42	0	889716736	20	4741
2026-01-13 02:53:06.47	234.72	20.53	-29.3	-31.7	19.8	6.02e-01	0	42	0	891289600	20	4753
2026-01-13 02:53:07.48	234.59	20.39	-29.3	-31.6	19.8	6.03e-01	0	42	0	893386752	20	4718
2026-01-13 02:53:08.48	234.46	20.26	-29.2	-31.4	19.9	6.04e-01	0	42	0	894959616	20	4669
2026-01-13 02:53:09.48	234.34	20.12	-29.2	-31.5	19.9	6.01e-01	0	42	0	897056768	20	4687
2026-01-13 02:53:10.48	234.21	19.99	-29.3	-31.7	19.7	6.03e-01	0	42	0	899153920	20	4753
2026-01-13 02:53:11.49	234.09	19.85	-29.3	-31.8	19.7	6.04e-01	0	42	0	900726784	20	4788
2026-01-13 02:53:12.49	233.96	19.72	-29.3	-31.8	19.7	6.01e-01	0	42	0	902823936	20	4778
2026-01-13 02:53:13.49	233.84	19.59	-29.3	-31.7	19.7	6.02e-01	0	42	0	904396800	20	4773
2026-01-13 02:53:14.49	233.72	19.46	-29.2	-31.6	19.8	6.03e-01	0	42	0	906493952	20	4708
2026-01-13 02:53:15.50	233.60	19.33	-29.3	-31.6	19.8	6.04e-01	0	42	0	908591104	20	4729
2026-01-13 02:53:16.50	233.48	19.20	-29.2	-31.6	19.7	6.04e-01	0	42	0	910163968	20	4732
2026-01-13 02:53:17.51	233.36	19.07	-29.3	-31.6	19.7	6.04e-01	0	42	0	912261120	20	4741
2026-01-13 02:53:18.52	233.25	18.94	-29.3	-31.9	19.6	6.04e-01	0	42	0	913833984	20	4814
2026-01-13 02:53:19.52	233.13	18.81	-29.4	-32.0	19.5	6.00e-01	0	42	0	915931136	20	4883
2026-01-13 02:53:20.53	233.02	18.68	-29.5	-32.2	19.4	6.04e-01	0	42	0	917504000	20	4956
2026-01-13 02:53:21.54	232.90	18.55	-29.5	-32.2	19.3	6.03e-01	0	42	0	919601152	20	4957
2026-01-13 02:53:22.55	232.79	18.43	-29.4	-32.2	19.4	6.00e-01	0	42	0	921698304	20	4925
2026-01-13 02:53:23.55	232.68	18.30	-29.5	-32.2	19.3	6.03e-01	0	42	0	923271168	20	4956
2026-01-13 02:53:24.56	232.57	18.17	-29.6	-32.5	19.2	6.03e-01	0	42	0	925368320	20	5037
2026-01-13 02:53:25.57	232.46	18.05	-29.5	-32.2	19.3	6.02e-01	0	42	0	927465472	20	4942
2026-01-13 02:53:26.58	232.35	17.92	-29.3	-31.9	19.5	6.01e-01	0	42	0	929038336	20	4846
2026-01-13 02:53:27.58	232.24	17.80	-29.5	-32.3	19.3	6.02e-01	0	42	0	931135488	20	4972
2026-01-13 02:53:28.59	232.13	17.68	-29.5	-32.3	19.3	6.03e-01	0	42	0	932708352	20	4961
2026-01-13 02:53:29.58	232.03	17.56	-29.3	-31.9	19.5	6.03e-01	0	42	0	934805504	20	4840
2026-01-13 02:53:30.59	231.92	17.43	-29.3	-31.9	19.5	6.04e-01	0	42	0	936902656	20	4849
2026-01-13 02:53:31.60	231.82	17.31	-29.4	-32.2	19.3	6.02e-01	0	42	0	938475520	20	4937
2026-01-13 02:53:32.60	231.72	17.19	-29.4	-32.2	19.3	6.05e-01	0	42	0	940572672	20	4939
2026-01-13 02:53:33.61	231.61	17.07	-29.6	-32.6	19.1	6.01e-01	0	42	0	942145536	20	5075
2026-01-13 02:53:34.61	231.51	16.95	-29.5	-32.4	19.2	6.04e-01	0	42	0	944242688	20	5010
2026-01-13 02:53:35.61	231.41	16.83	-29.3	-31.8	19.5	6.01e-01	0	42	0	945815552	20	4819
2026-01-13 02:53:36.62	231.31	16.71	-29.2	-31.6	19.7	6.01e-01	0	42	0	947912704	20	4745
2026-01-13 02:53:37.62	231.21	16.60	-29.3	-31.7	19.6	6.01e-01	0	42	0	950009856	20	4773
2026-01-13 02:53:38.63	231.12	16.48	-29.2	-31.7	19.6	6.04e-01	0	42	0	951582720	20	4759
2026-01-13 02:53:39.63	231.02	16.36	-29.3	-31.7	19.6	6.03e-01	0	42	0	953679872	20	4781
2026-01-13 02:53:40.64	230.92	16.24	-29.2	-31.7	19.6	6.05e-01	0	42	0	955252736	20	4766
2026-01-13 02:53:41.65	230.83	16.13	-29.2	-31.7	19.6	6.03e-01	0	42	0	957349888	20	4759
2026-01-13 02:53:42.65	230.73	16.01	-29.3	-31.7	19.6	6.03e-01	0	42	0	959447040	20	4791
2026-01-13 02:53:43.66	230.64	15.90	-29.3	-31.7	19.6	6.04e-01	0	42	0	961019904	20	4780
2026-01-13 02:53:44.66	230.55	15.78	-29.4	-32.2	19.3	6.01e-01	0	42	0	963117056	20	4933
2026-01-13 02:53:45.67	230.45	15.67	-29.5	-32.4	19.1	6.02e-01	0	42	0	964689920	20	5021
2026-01-13 02:53:46.67	230.36	15.56	-29.5	-32.4	19.1	6.03e-01	0	42	0	966787072	20	5020
2026-01-13 02:53:47.67	230.27	15.44	-29.5	-32.4	19.1	6.05e-01	0	42	0	968884224	20	5035
2026-01-13 02:53:48.67	230.18	15.33	-29.6	-32.8	18.8	6.04e-01	0	42	0	970457088	20	5160
2026-01-13 02:53:49.68	230.09	15.22	-29.7	-32.8	18.8	6.02e-01	0	42	0	972554240	20	5192
2026-01-13 02:53:50.68	230.00	15.11	-29.6	-32.8	18.8	6.02e-01	0	42	0	974127104	20	5182
2026-01-13 02:53:51.69	229.92	15.00	-29.6	-32.6	18.9	6.01e-01	0	42	0	976224256	20	5106
2026-01-13 02:53:52.69	229.83	14.89	-29.4	-32.2	19.2	6.02e-01	0	42	0	978321408	20	4964
2026-01-13 02:53:53.70	229.74	14.78	-29.4	-32.1	19.2	6.03e-01	0	42	0	979894272	20	4906
2026-01-13 02:53:54.70	229.66	14.67	-29.4	-32.2	19.2	6.02e-01	0	42	0	981991424	20	4941
2026-01-13 02:53:55.71	229.57	14.56	-29.4	-32.0	19.3	6.03e-01	0	42	0	983564288	20	4886
2026-01-13 02:53:56.72	229.49	14.45	-29.3	-31.9	19.4	6.02e-01	0	42	0	985661440	20	4863
2026-01-13 02:53:57.72	229.40	14.34	-29.4	-32.0	19.3	6.03e-01	0	42	0	987234304	20	4902
2026-01-13 02:53:58.73	229.32	14.23	-29.3	-31.9	19.3	6.01e-01	0	42	0	989331456	20	4854
2026-01-13 02:53:59.74	229.24	14.13	-29.5	-32.5	19.0	6.01e-01	0	42	0	991428608	20	5049
2026-01-13 02:54:00.75	229.16	14.02	-29.5	-32.3	19.1	6.02e-01	0	42	0	993001472	20	4996
2026-01-13 02:54:01.75	229.07	13.91	-29.3	-32.0	19.3	6.04e-01	0	42	0	995098624	20	4900
2026-01-13 02:54:02.76	228.99	13.81	-29.3	-31.9	19.3	6.02e-01	0	42	0	997195776	20	4872
2026-01-13 02:54:03.76	228.91	13.70	-29.3	-32.0	19.2	6.03e-01	0	42	0	998768640	20	4896
2026-01-13 02:54:04.77	228.83	13.60	-29.4	-32.3	19.1	6.03e-01	0	42	0	1000865792	20	4989
2026-01-13 02:54:05.77	228.76	13.49	-29.5	-32.5	18.9	6.02e-01	0	42	0	1002438656	20	5078
2026-01-13 02:54:06.78	228.68	13.39	-29.5	-32.5	18.9	6.02e-01	0	42	0	1004535808	20	5095
2026-01-13 02:54:07.79	228.60	13.29	-29.5	-32.6	18.9	6.02e-01	0	42	0	1006632960	20	5100
2026-01-13 02:54:08.79	228.52	13.18	-29.6	-32.8	18.7	6.01e-01	0	42	0	1008205824	20	5205
2026-01-13 02:54:09.80	228.45	13.08	-29.6	-32.7	18.7	6.02e-01	0	42	0	1010302976	20	5166
2026-01-13 02:54:10.81	228.37	12.98	-29.6	-32.8	18.7	6.03e-01	0	42	0	1011875840	20	5210
2026-01-13 02:54:11.81	228.30	12.88	-29.6	-32.7	18.7	6.05e-01	0	42	0	1013972992	20	5159
2026-01-13 02:54:12.81	228.22	12.78	-29.5	-32.6	18.8	6.03e-01	0	42	0	1015545856	20	5110
2026-01-13 02:54:13.82	228.15	12.67	-29.5	-32.6	18.8	6.07e-01	0	42	0	1017643008	20	5105
2026-01-13 02:54:14.82	228.08	12.57	-29.5	-32.5	18.9	6.01e-01	0	42	0	1019740160	20	5084
2026-01-13 02:54:15.82	228.00	12.47	-29.5	-32.5	18.8	6.03e-01	0	42	0	1021313024	20	5098
2026-01-13 02:54:16.82	227.93	12.38	-29.6	-32.8	18.7	6.03e-01	0	42	0	1023410176	20	5181
2026-01-13 02:54:17.83	227.86	12.28	-29.5	-32.4	18.9	6.01e-01	0	42	0	1024983040	20	5055
2026-01-13 02:54:18.83	227.79	12.18	-29.4	-32.3	19.0	6.03e-01	0	42	0	1027080192	20	5007
2026-01-13 02:54:19.83	227.72	12.08	-29.4	-32.4	18.9	6.04e-01	0	42	0	1029177344	20	5034
2026-01-13 02:54:20.83	227.65	11.98	-29.5	-32.4	18.9	6.03e-01	0	42	0	1030750208	20	5052
2026-01-13 02:54:21.84	227.58	11.88	-29.5	-32.5	18.8	6.03e-01	0	42	0	1032847360	20	5094
2026-01-13 02:54:22.85	227.51	11.79	-29.7	-33.0	18.5	6.03e-01	0	42	0	1034420224	20	5298
2026-01-13 02:54:23.85	227.44	11.69	-29.6	-32.8	18.6	6.03e-01	0	42	0	1036517376	20	5206
2026-01-13 02:54:24.86	227.37	11.59	-29.6	-32.9	18.5	6.02e-01	0	42	0	1038614528	20	5256
2026-01-13 02:54:25.86	227.31	11.50	-29.6	-32.9	18.6	6.02e-01	0	42	0	1040187392	20	5230
2026-01-13 02:54:26.87	227.24	11.40	-29.7	-33.0	18.5	6.04e-01	0	42	0	1042284544	20	5273
2026-01-13 02:54:27.88	227.17	11.31	-29.8	-33.5	18.1	6.04e-01	0	42	0	1043857408	20	5475
2026-01-13 02:54:28.89	227.11	11.21	-29.7	-33.2	18.3	6.01e-01	0	42	0	1045954560	20	5362
2026-01-13 02:54:29.89	227.04	11.12	-29.6	-32.8	18.5	6.02e-01	0	42	0	1048051712	20	5202
2026-01-13 02:54:30.90	226.98	11.02	-29.5	-32.5	18.7	6.02e-01	0	42	0	1049624576	20	5107
2026-01-13 02:54:31.90	226.91	10.93	-29.5	-32.6	18.7	6.03e-01	0	42	0	1051721728	20	5143
2026-01-13 02:54:32.90	226.85	10.83	-29.5	-32.7	18.6	6.03e-01	0	42	0	1053294592	20	5158
2026-01-13 02:54:33.90	226.78	10.74	-29.7	-33.1	18.4	6.02e-01	0	42	0	1055391744	20	5315
2026-01-13 02:54:34.91	226.72	10.65	-29.7	-33.0	18.3	6.04e-01	0	42	0	1057488896	20	5311
2026-01-13 02:54:35.91	226.66	10.56	-29.8	-33.5	18.0	6.02e-01	0	42	0	1059061760	20	5494
2026-01-13 02:54:36.91	226.60	10.47	-29.7	-33.2	18.2	6.02e-01	0	42	0	1061158912	20	5392
2026-01-13 02:54:37.91	226.53	10.37	-29.7	-33.0	18.4	6.02e-01	0	42	0	1062731776	20	5304
2026-01-13 02:54:38.92	226.47	10.28	-29.6	-32.8	18.5	6.06e-01	0	42	0	1064828928	20	5215
2026-01-13 02:54:39.93	226.41	10.19	-29.6	-33.0	18.3	6.03e-01	0	42	0	1066401792	20	5303
2026-01-13 02:54:40.93	226.35	10.10	-29.6	-33.0	18.4	6.01e-01	0	42	0	1068498944	20	5281
2026-01-13 02:54:41.93	226.29	10.01	-29.6	-33.0	18.4	6.04e-01	0	42	0	1070596096	20	5285
2026-01-13 02:54:42.94	226.23	9.92	-29.7	-33.2	18.1	6.03e-01	0	42	0	1072168960	20	5396
2026-01-13 02:54:43.94	226.17	9.83	-29.6	-33.0	18.3	6.02e-01	0	42	0	1074266112	20	5313
2026-01-13 02:54:44.94	226.11	9.74	-29.6	-33.0	18.3	6.02e-01	0	42	0	1075838976	20	5299
2026-01-13 02:54:45.95	226.05	9.65	-29.6	-33.0	18.3	6.02e-01	0	42	0	1077936128	20	5306
2026-01-13 02:54:46.96	226.00	9.56	-29.6	-33.0	18.3	6.02e-01	0	42	0	1080033280	20	5293
2026-01-13 02:54:47.96	225.94	9.48	-29.7	-33.1	18.2	6.04e-01	0	42	0	1081606144	20	5333
2026-01-13 02:54:48.97	225.88	9.39	-29.8	-33.3	18.1	6.02e-01	0	42	0	1083703296	20	5437
2026-01-13 02:54:49.97	225.82	9.30	-29.7	-33.2	18.1	6.03e-01	0	42	0	1085276160	20	5368
2026-01-13 02:54:50.98	225.77	9.21	-29.8	-33.6	17.9	6.05e-01	0	42	0	1087373312	20	5559
2026-01-13 02:54:51.98	225.71	9.13	-29.8	-33.4	18.0	6.01e-01	0	42	0	1089470464	20	5452
2026-01-13 02:54:52.98	225.66	9.04	-29.7	-33.2	18.1	6.05e-01	0	42	0	1091043328	20	5387
2026-01-13 02:54:53.99	225.60	8.95	-29.7	-33.3	18.1	6.03e-01	0	42	0	1093140480	20	5413
2026-01-13 02:54:54.99	225.54	8.87	-29.7	-33.2	18.1	6.03e-01	0	42	0	1094713344	20	5399
2026-01-13 02:54:56.00	225.49	8.78	-29.7	-33.4	18.0	6.03e-01	0	42	0	1096810496	20	5467
2026-01-13 02:54:57.01	225.44	8.69	-29.8	-33.4	17.9	6.03e-01	0	42	0	1098907648	20	5494
2026-01-13 02:54:58.02	225.38	8.61	-29.8	-33.4	17.9	6.02e-01	0	42	0	1100480512	20	5485
2026-01-13 02:54:59.02	225.33	8.52	-29.8	-33.6	17.8	6.04e-01	0	42	0	1102577664	20	5567
2026-01-13 02:55:00.02	225.27	8.44	-29.7	-33.2	18.1	6.02e-01	0	42	0	1104150528	20	5382
2026-01-13 02:55:01.03	225.22	8.35	-29.7	-33.2	18.0	6.03e-01	0	42	0	1106247680	20	5400
2026-01-13 02:55:02.04	225.17	8.27	-29.7	-33.2	18.0	6.00e-01	0	42	0	1108344832	20	5412
2026-01-13 02:55:03.05	225.12	8.19	-29.6	-33.1	18.1	6.01e-01	0	42	0	1109917696	20	5384
2026-01-13 02:55:04.05	225.06	8.10	-29.9	-33.9	17.5	6.03e-01	0	42	0	1112014848	20	5714
2026-01-13 02:55:05.05	225.01	8.02	-29.8	-33.5	17.8	6.02e-01	0	42	0	1113587712	20	5544
2026-01-13 02:55:06.06	224.96	7.94	-29.7	-33.3	17.9	6.02e-01	0	42	0	1115684864	20	5466
2026-01-13 02:55:07.06	224.91	7.85	-29.8	-33.5	17.8	6.03e-01	0	42	0	1117257728	20	5536
2026-01-13 02:55:08.07	224.86	7.77	-29.7	-33.4	17.8	6.01e-01	0	42	0	1119354880	20	5484
2026-01-13 02:55:09.08	224.81	7.69	-29.9	-33.8	17.6	6.04e-01	0	42	0	1121452032	20	5662
2026-01-13 02:55:10.09	224.76	7.61	-29.8	-33.6	17.7	6.02e-01	0	42	0	1123024896	20	5588
2026-01-13 02:55:11.09	224.71	7.53	-29.8	-33.7	17.6	6.01e-01	0	42	0	1125122048	20	5621
2026-01-13 02:55:12.10	224.66	7.44	-29.8	-33.5	17.7	6.04e-01	0	42	0	1127219200	20	5569
2026-01-13 02:55:13.10	224.61	7.36	-29.9	-33.8	17.5	6.00e-01	0	42	0	1128792064	20	5690
2026-01-13 02:55:14.11	224.56	7.28	-29.8	-33.6	17.6	6.05e-01	0	42	0	1130889216	20	5600
2026-01-13 02:55:15.11	224.51	7.20	-29.9	-33.9	17.3	6.02e-01	0	42	0	1132462080	20	5747
2026-01-13 02:55:16.12	224.47	7.12	-29.8	-33.7	17.5	6.03e-01	0	42	0	1134559232	20	5652
2026-01-13 02:55:17.12	224.42	7.04	-33.1	-51.6	3.8	7.44e-01	0	42	104	1135083520	26	30345
2026-01-13 02:55:18.13	224.37	6.96	-33.5	-53.0	3.8	7.45e-01	0	42	104	1135083520	27	33993
2026-01-13 02:55:19.13	224.32	6.88	-33.7	-52.9	3.8	7.47e-01	0	42	104	1135083520	28	32992

#Closed at: 2026-01-13 02:55:19
#Recorded file [1135 MB]: D:/data/31010_260113_054510.dat