passes_logs/2026/01/13/R2M6_AANII_01/R2M6_AANII_01__20260113_030352_NOAA_21_JPSS-2_rec.log

#Pass ID: 20260113_030352_NOAA 21 (JPSS-2)
#Satellite: NOAA 21 (JPSS-2)
#Configuration: NOAA 21
#almurnet v.1.7.20240730
#Start time: 2026-01-13 03:07:36

#Version: 2.2.20231116
#Station: R2M6_AANII_01
#Location: 30.233357 lon 59.946436 lat
#TLE: 1 54234U 22150A   26012.26378519  .00000063  00000+0  50547-4 0  9993
#TLE: 2 54234  98.7495 313.1967 0000726 309.1075  51.0036 14.19534275164425

#Time	Az	El	Level	Level2	SNR	BER	BlckErr	Temp	State	Recorded	gain1	gain2
2026-01-13 03:07:36.37	329.70	15.32	-33.7	-43.3	3.8	8.47e-01	0	42	0	0	27	10934
2026-01-13 03:07:37.38	329.49	15.32	-34.0	-45.4	3.8	1.49e+00	0	43	104	0	29	13305
2026-01-13 03:07:38.38	329.27	15.33	-34.1	-45.5	3.8	1.49e+00	0	43	104	0	29	13397
2026-01-13 03:07:39.38	329.06	15.33	-34.1	-45.5	3.8	1.49e+00	0	43	104	0	29	13405
2026-01-13 03:07:40.39	328.84	15.34	-34.1	-45.5	3.8	1.49e+00	0	43	104	0	29	13409
2026-01-13 03:07:41.39	328.63	15.35	-34.1	-45.6	3.8	1.49e+00	0	43	104	0	29	13438
2026-01-13 03:07:42.39	328.42	15.35	-34.1	-45.6	3.8	1.49e+00	0	43	104	0	29	13466
2026-01-13 03:07:43.39	328.20	15.36	-34.1	-45.5	3.8	1.49e+00	0	43	104	0	29	13396
2026-01-13 03:07:44.40	327.99	15.36	-34.1	-45.5	3.8	1.49e+00	0	42	104	0	29	13396
2026-01-13 03:07:45.41	327.77	15.36	-34.0	-45.4	3.8	1.49e+00	0	43	104	0	29	13333
2026-01-13 03:07:46.42	327.56	15.37	-34.1	-45.5	3.8	1.49e+00	0	43	104	0	29	13402
2026-01-13 03:07:47.41	327.34	15.37	-34.0	-45.4	3.8	1.49e+00	0	43	104	0	29	13338
2026-01-13 03:07:48.42	327.13	15.37	-34.0	-45.4	3.8	1.49e+00	0	43	104	0	29	13372
2026-01-13 03:07:49.43	326.91	15.37	-34.0	-45.4	3.8	1.49e+00	0	43	104	0	29	13318
2026-01-13 03:07:50.43	326.70	15.38	-34.0	-45.4	3.8	1.49e+00	0	43	104	0	29	13275
2026-01-13 03:07:51.43	326.48	15.38	-34.1	-45.5	3.8	1.49e+00	0	43	104	0	29	13353
2026-01-13 03:07:52.44	326.27	15.38	-34.0	-45.4	3.8	1.49e+00	0	43	104	0	29	13340
2026-01-13 03:07:53.45	326.05	15.38	-34.1	-45.4	3.8	1.49e+00	0	43	104	0	29	13367
2026-01-13 03:07:54.45	325.84	15.38	-34.1	-45.5	3.8	1.49e+00	0	43	104	0	29	13399
2026-01-13 03:07:55.46	325.62	15.38	-34.0	-45.4	3.8	1.49e+00	0	43	104	0	29	13292
2026-01-13 03:07:56.46	325.41	15.38	-34.0	-45.3	3.8	1.49e+00	0	43	104	0	29	13250
2026-01-13 03:07:57.47	325.19	15.38	-34.0	-45.3	3.8	1.49e+00	0	43	104	0	29	13281
2026-01-13 03:07:58.48	324.97	15.37	-34.0	-45.2	3.8	1.49e+00	0	43	104	0	29	13182
2026-01-13 03:07:59.49	324.76	15.37	-33.9	-45.2	3.8	1.49e+00	0	43	104	0	29	13134
2026-01-13 03:08:00.48	324.55	15.37	-33.9	-45.2	3.8	1.49e+00	0	43	104	0	29	13140
2026-01-13 03:08:01.48	324.33	15.37	-33.9	-45.1	3.8	1.49e+00	0	43	104	0	29	13060
2026-01-13 03:08:02.49	324.12	15.36	-33.8	-45.0	3.8	1.49e+00	0	43	104	0	29	12982
2026-01-13 03:08:03.49	323.90	15.36	-33.8	-44.9	3.8	1.49e+00	0	43	104	0	29	12911
2026-01-13 03:08:04.50	323.69	15.36	-33.7	-45.2	3.8	1.49e+00	0	43	104	0	28	13505
2026-01-13 03:08:05.50	323.47	15.35	-33.6	-45.1	3.8	1.49e+00	0	43	104	0	28	13433
2026-01-13 03:08:06.50	323.26	15.35	-33.5	-44.7	3.8	1.49e+00	0	43	104	0	28	13178
2026-01-13 03:08:07.50	323.05	15.34	-33.3	-44.5	3.8	1.49e+00	0	43	104	0	28	13009
2026-01-13 03:08:08.50	322.83	15.34	-33.4	-45.0	3.8	1.49e+00	0	43	104	0	27	13778
2026-01-13 03:08:09.50	322.62	15.33	-33.4	-44.9	3.8	1.49e+00	0	43	104	0	27	13662
2026-01-13 03:08:10.51	322.40	15.32	-33.3	-44.8	3.8	1.49e+00	0	43	104	0	27	13448
2026-01-13 03:08:11.51	322.19	15.32	-33.3	-44.7	3.8	1.49e+00	0	43	104	0	27	13335
2026-01-13 03:08:12.51	321.98	15.31	-33.3	-44.6	3.8	1.49e+00	0	43	104	0	27	13276
2026-01-13 03:08:13.52	321.76	15.30	-33.3	-44.7	3.8	1.49e+00	0	43	104	0	27	13298
2026-01-13 03:08:14.52	321.55	15.29	-33.3	-44.7	3.8	1.49e+00	0	43	104	0	27	13376
2026-01-13 03:08:15.52	321.34	15.29	-33.3	-44.8	3.8	1.49e+00	0	43	104	0	27	13426
2026-01-13 03:08:16.53	321.12	15.28	-33.3	-44.7	3.8	1.49e+00	0	43	104	0	27	13424
2026-01-13 03:08:17.53	320.91	15.27	-33.3	-44.7	3.8	1.49e+00	0	43	104	0	27	13347
2026-01-13 03:08:18.54	320.69	15.26	-33.3	-44.5	3.8	1.49e+00	0	43	104	0	27	13105
2026-01-13 03:08:19.55	320.48	15.25	-33.3	-44.5	3.8	1.49e+00	0	43	104	0	27	13019
2026-01-13 03:08:20.55	320.27	15.24	-33.3	-44.5	3.8	1.49e+00	0	43	104	0	27	13149
2026-01-13 03:08:21.56	320.05	15.23	-33.3	-44.7	3.8	1.49e+00	0	43	104	0	27	13355
2026-01-13 03:08:22.55	319.84	15.22	-33.3	-44.5	3.8	1.49e+00	0	43	104	0	27	13134
2026-01-13 03:08:23.56	319.63	15.20	-33.2	-43.8	3.8	1.49e+00	0	43	104	0	27	12146
2026-01-13 03:08:24.56	319.42	15.19	-33.1	-42.6	3.9	1.49e+00	0	43	104	0	27	10719
2026-01-13 03:08:25.56	319.21	15.18	-32.9	-41.3	3.9	1.46e+00	0	43	104	0	27	9446
2026-01-13 03:08:26.57	318.99	15.17	-32.7	-40.1	4.6	1.47e+00	0	43	104	0	26	8412
2026-01-13 03:08:27.58	318.78	15.15	-32.5	-39.6	4.1	1.06e+00	0	43	104	0	26	8158
2026-01-13 03:08:28.58	318.57	15.14	-32.2	-37.9	5.9	8.03e-01	0	43	104	0	25	6929
2026-01-13 03:08:29.59	318.36	15.13	-31.8	-36.0	7.1	1.68e-01	0	43	0	1048576	25	5870
2026-01-13 03:08:30.59	318.15	15.11	-31.2	-35.1	8.4	6.68e-02	0	43	0	4194304	23	5634
2026-01-13 03:08:31.59	317.94	15.10	-30.9	-33.9	9.3	2.11e-02	0	43	0	7340032	23	5114
2026-01-13 03:08:32.60	317.72	15.08	-30.9	-34.1	9.1	1.95e-02	0	43	0	9437184	23	5208
2026-01-13 03:08:33.61	317.51	15.07	-31.0	-34.2	9.1	2.57e-02	0	43	0	12582912	23	5243
2026-01-13 03:08:34.61	317.30	15.05	-30.8	-33.9	9.3	1.86e-02	0	43	0	15728640	23	5104
2026-01-13 03:08:35.61	317.09	15.04	-30.7	-34.1	9.5	1.51e-02	0	43	0	18874368	22	5290
2026-01-13 03:08:36.62	316.88	15.02	-30.8	-34.2	9.4	1.36e-02	0	43	0	22020096	22	5328
2026-01-13 03:08:37.63	316.67	15.00	-31.1	-35.1	8.8	2.36e-02	0	43	0	26214400	22	5733
2026-01-13 03:08:38.64	316.46	14.98	-31.0	-35.0	8.9	3.47e-02	0	43	0	29360128	22	5656
2026-01-13 03:08:39.64	316.25	14.97	-30.6	-33.7	9.8	1.20e-02	0	43	0	31457280	22	5116
2026-01-13 03:08:40.65	316.04	14.95	-30.1	-32.8	10.7	3.48e-03	0	43	0	34603008	21	4909
2026-01-13 03:08:41.66	315.83	14.93	-29.6	-31.9	11.7	1.22e-03	0	43	0	37748736	20	4664
2026-01-13 03:08:42.66	315.62	14.91	-29.2	-31.2	12.5	1.71e-04	0	43	0	40894464	19	4546
2026-01-13 03:08:43.66	315.42	14.89	-28.7	-30.6	13.2	3.66e-05	0	43	0	44040192	18	4483
2026-01-13 03:08:44.66	315.21	14.87	-28.6	-30.4	13.3	1.98e-05	0	43	0	47185920	18	4396
2026-01-13 03:08:45.67	315.00	14.85	-28.5	-29.9	13.6	6.10e-06	0	43	0	50331648	18	4270
2026-01-13 03:08:46.67	314.79	14.83	-28.3	-29.6	13.8	6.80e-06	0	43	0	53477376	18	4157
2026-01-13 03:08:47.68	314.59	14.81	-28.3	-29.6	13.8	6.80e-06	0	43	0	56623104	18	4168
2026-01-13 03:08:48.69	314.38	14.79	-28.4	-29.7	13.7	1.50e-06	0	43	0	59768832	18	4198
2026-01-13 03:08:49.69	314.17	14.77	-28.2	-29.8	13.9	6.80e-06	0	43	0	62914560	17	4348
2026-01-13 03:08:50.69	313.97	14.75	-28.3	-30.1	13.8	7.00e-07	0	42	0	66060288	17	4424
2026-01-13 03:08:51.69	313.76	14.73	-28.2	-29.8	13.9	0.00e+00	0	43	0	69206016	17	4349
2026-01-13 03:08:52.70	313.56	14.70	-28.0	-29.3	14.2	0.00e+00	0	43	0	72351744	17	4190
2026-01-13 03:08:53.70	313.35	14.68	-27.7	-29.2	14.6	0.00e+00	0	43	0	75497472	16	4274
2026-01-13 03:08:54.70	313.15	14.66	-27.6	-29.1	14.7	0.00e+00	0	43	0	78643200	16	4233
2026-01-13 03:08:55.71	312.94	14.63	-27.7	-29.2	14.6	7.00e-07	0	43	0	81788928	16	4264
2026-01-13 03:08:56.72	312.74	14.61	-27.7	-29.1	14.6	0.00e+00	0	43	0	84934656	16	4240
2026-01-13 03:08:57.72	312.53	14.59	-27.7	-29.1	14.7	7.00e-07	0	43	0	88080384	16	4240
2026-01-13 03:08:58.73	312.33	14.56	-27.7	-29.2	14.5	7.00e-07	0	43	0	91226112	16	4279
2026-01-13 03:08:59.73	312.13	14.54	-27.6	-28.9	14.7	7.00e-07	0	43	0	94371840	16	4183
2026-01-13 03:09:00.73	311.92	14.51	-27.5	-28.8	14.8	0.00e+00	0	43	0	97517568	16	4170
2026-01-13 03:09:01.74	311.72	14.49	-27.7	-29.2	14.6	0.00e+00	0	43	0	100663296	16	4264
2026-01-13 03:09:02.74	311.52	14.46	-27.7	-29.1	14.6	7.00e-07	0	43	0	103809024	16	4258
2026-01-13 03:09:03.74	311.32	14.43	-27.7	-29.3	14.5	0.00e+00	0	43	0	106954752	16	4296
2026-01-13 03:09:04.75	311.11	14.41	-27.8	-29.3	14.5	0.00e+00	0	43	0	110100480	16	4305
2026-01-13 03:09:05.75	310.91	14.38	-27.9	-29.5	14.3	1.50e-06	0	43	0	113246208	16	4367
2026-01-13 03:09:06.75	310.71	14.35	-27.9	-29.6	14.3	0.00e+00	0	43	0	116391936	16	4380
2026-01-13 03:09:07.76	310.51	14.33	-27.9	-29.8	14.2	1.50e-06	0	43	0	119537664	16	4438
2026-01-13 03:09:08.76	310.31	14.30	-27.9	-29.7	14.2	7.00e-07	0	43	0	122683392	16	4434
2026-01-13 03:09:09.76	310.11	14.27	-27.9	-29.7	14.2	2.20e-06	0	43	0	125829120	16	4433
2026-01-13 03:09:10.76	309.91	14.24	-28.1	-30.1	14.0	7.00e-07	0	43	0	128974848	16	4527
2026-01-13 03:09:11.77	309.71	14.21	-27.9	-29.6	14.3	2.20e-06	0	43	0	132120576	16	4383
2026-01-13 03:09:12.77	309.52	14.19	-27.7	-29.1	14.6	7.00e-07	0	43	0	135266304	16	4242
2026-01-13 03:09:13.77	309.32	14.16	-27.6	-28.9	14.7	0.00e+00	0	43	0	138412032	16	4196
2026-01-13 03:09:14.77	309.12	14.13	-27.7	-29.2	14.5	0.00e+00	0	43	0	141557760	16	4262
2026-01-13 03:09:15.78	308.92	14.10	-27.7	-29.2	14.5	1.50e-06	0	42	0	144703488	16	4270
2026-01-13 03:09:16.79	308.73	14.07	-27.9	-29.7	14.2	0.00e+00	0	43	0	147849216	16	4418
2026-01-13 03:09:17.79	308.53	14.04	-27.9	-29.7	14.2	3.80e-06	0	43	0	150994944	16	4426
2026-01-13 03:09:18.80	308.33	14.01	-28.1	-30.2	13.9	2.20e-06	0	43	0	154140672	16	4563
2026-01-13 03:09:19.80	308.14	13.97	-28.1	-30.2	13.9	5.30e-06	0	43	0	157286400	16	4566
2026-01-13 03:09:20.81	307.94	13.94	-28.3	-30.5	13.7	7.00e-07	0	43	0	160432128	16	4674
2026-01-13 03:09:21.80	307.75	13.91	-28.1	-30.2	13.9	3.80e-06	0	43	0	163577856	16	4575
2026-01-13 03:09:22.81	307.55	13.88	-28.0	-29.8	14.1	2.20e-06	0	43	0	166723584	16	4468
2026-01-13 03:09:23.81	307.36	13.85	-28.0	-29.8	14.1	3.00e-06	0	42	0	169869312	16	4469
2026-01-13 03:09:24.82	307.17	13.81	-28.0	-30.0	13.9	3.80e-06	0	43	0	173015040	16	4522
2026-01-13 03:09:25.82	306.97	13.78	-27.8	-29.5	14.3	7.00e-07	0	43	0	176160768	16	4351
2026-01-13 03:09:26.83	306.78	13.75	-27.7	-29.2	14.4	7.00e-07	0	43	0	179306496	16	4275
2026-01-13 03:09:27.83	306.59	13.72	-27.7	-29.2	14.5	7.00e-07	0	43	0	182452224	16	4277
2026-01-13 03:09:28.83	306.40	13.68	-27.7	-29.1	14.5	0.00e+00	0	43	0	185597952	16	4251
2026-01-13 03:09:29.84	306.20	13.65	-27.4	-28.6	14.8	2.20e-06	0	43	0	188743680	16	4117
2026-01-13 03:09:30.84	306.01	13.61	-27.4	-28.5	14.9	7.00e-07	0	43	0	191889408	16	4080
2026-01-13 03:09:31.84	305.82	13.58	-27.4	-28.5	14.8	0.00e+00	0	43	0	195035136	16	4078
2026-01-13 03:09:32.84	305.63	13.55	-27.4	-28.5	14.8	7.00e-07	0	43	0	198180864	16	4098
2026-01-13 03:09:33.85	305.44	13.51	-27.5	-28.8	14.6	0.00e+00	0	43	0	201326592	16	4176
2026-01-13 03:09:34.85	305.25	13.48	-27.6	-29.0	14.5	0.00e+00	0	43	0	204472320	16	4230
2026-01-13 03:09:35.86	305.06	13.44	-27.7	-29.1	14.5	1.50e-06	0	43	0	207618048	16	4264
2026-01-13 03:09:36.86	304.88	13.40	-27.7	-29.2	14.4	7.00e-07	0	43	0	210763776	16	4270
2026-01-13 03:09:37.87	304.69	13.37	-27.7	-29.3	14.3	7.00e-07	0	43	0	213909504	16	4314
2026-01-13 03:09:38.87	304.50	13.33	-27.8	-29.5	14.3	7.00e-07	0	43	0	217055232	16	4358
2026-01-13 03:09:39.87	304.31	13.30	-27.8	-29.5	14.2	2.20e-06	0	43	0	220200960	16	4370
2026-01-13 03:09:40.88	304.13	13.26	-27.8	-29.4	14.3	7.00e-07	0	43	0	223346688	16	4351
2026-01-13 03:09:41.89	303.94	13.22	-27.9	-29.7	14.1	1.50e-06	0	43	0	226492416	16	4442
2026-01-13 03:09:42.89	303.76	13.18	-28.0	-30.0	13.9	4.50e-06	0	43	0	229638144	16	4516
2026-01-13 03:09:43.90	303.57	13.15	-28.0	-29.9	14.0	1.50e-06	0	43	0	232783872	16	4483
2026-01-13 03:09:44.90	303.39	13.11	-27.9	-29.6	14.1	0.00e+00	0	43	0	235929600	16	4407
2026-01-13 03:09:45.91	303.20	13.07	-27.9	-29.6	14.1	1.50e-06	0	43	0	239075328	16	4407
2026-01-13 03:09:46.92	303.02	13.03	-27.9	-29.8	14.0	2.20e-06	0	43	0	242221056	16	4460
2026-01-13 03:09:47.92	302.83	12.99	-27.8	-29.5	14.2	3.80e-06	0	43	0	245366784	16	4370
2026-01-13 03:09:48.93	302.65	12.96	-27.9	-29.6	14.1	3.00e-06	0	43	0	248512512	16	4409
2026-01-13 03:09:49.94	302.47	12.92	-28.0	-30.0	13.9	7.00e-07	0	43	0	251658240	16	4505
2026-01-13 03:09:50.95	302.28	12.88	-27.8	-29.4	14.2	3.80e-06	0	43	0	254803968	16	4348
2026-01-13 03:09:51.95	302.10	12.84	-27.7	-29.1	14.4	0.00e+00	0	43	0	257949696	16	4254
2026-01-13 03:09:52.96	301.92	12.80	-27.7	-29.2	14.4	0.00e+00	0	43	0	261095424	16	4281
2026-01-13 03:09:53.96	301.74	12.76	-27.8	-29.4	14.3	1.50e-06	0	43	0	264241152	16	4353
2026-01-13 03:09:54.97	301.56	12.72	-28.0	-29.8	14.0	7.00e-07	0	43	0	267386880	16	4476
2026-01-13 03:09:55.98	301.38	12.68	-27.8	-29.6	14.1	7.00e-07	0	43	0	270532608	16	4392
2026-01-13 03:09:56.99	301.20	12.64	-27.8	-29.4	14.3	1.50e-06	0	43	0	273678336	16	4339
2026-01-13 03:09:58.00	301.02	12.60	-27.7	-29.2	14.3	1.50e-06	0	42	0	276824064	16	4294
2026-01-13 03:09:59.00	300.84	12.56	-27.8	-29.4	14.2	3.00e-06	0	43	0	279969792	16	4342
2026-01-13 03:10:00.01	300.66	12.51	-27.8	-29.4	14.3	2.20e-06	0	43	0	283115520	16	4338
2026-01-13 03:10:01.01	300.49	12.47	-27.9	-29.6	14.1	2.20e-06	0	43	0	286261248	16	4410
2026-01-13 03:10:02.02	300.31	12.43	-27.8	-29.4	14.2	0.00e+00	0	43	0	289406976	16	4339
2026-01-13 03:10:03.03	300.13	12.39	-28.0	-30.0	13.9	5.30e-06	0	43	0	292552704	16	4518
2026-01-13 03:10:04.04	299.96	12.35	-27.9	-29.7	14.0	3.00e-06	0	43	0	295698432	16	4432
2026-01-13 03:10:05.04	299.78	12.31	-27.9	-29.7	14.0	0.00e+00	0	43	0	298844160	16	4430
2026-01-13 03:10:06.05	299.61	12.26	-28.0	-29.8	14.0	1.50e-06	0	43	0	301989888	16	4473
2026-01-13 03:10:07.05	299.44	12.22	-28.1	-30.1	13.8	3.80e-06	0	43	0	305135616	16	4544
2026-01-13 03:10:08.06	299.26	12.18	-28.1	-30.1	13.8	2.20e-06	0	43	0	308281344	16	4565
2026-01-13 03:10:09.07	299.09	12.14	-27.9	-29.8	14.0	2.20e-06	0	43	0	311427072	16	4459
2026-01-13 03:10:10.08	298.91	12.09	-28.0	-29.9	13.9	2.20e-06	0	43	0	314572800	16	4479
2026-01-13 03:10:11.08	298.74	12.05	-27.9	-29.8	13.9	0.00e+00	0	43	0	317718528	16	4458
2026-01-13 03:10:12.09	298.57	12.01	-28.0	-29.8	13.9	2.20e-06	0	43	0	320864256	16	4469
2026-01-13 03:10:13.09	298.40	11.96	-28.2	-30.3	13.6	5.30e-06	0	43	0	324009984	16	4632
2026-01-13 03:10:14.09	298.23	11.92	-28.1	-30.3	13.6	5.30e-06	0	43	0	327155712	16	4621
2026-01-13 03:10:15.10	298.06	11.88	-28.4	-30.9	13.3	6.80e-06	0	43	0	330301440	16	4797
2026-01-13 03:10:16.11	297.89	11.83	-28.3	-30.8	13.3	1.90e-05	0	43	0	333447168	16	4788
2026-01-13 03:10:17.12	297.72	11.79	-28.5	-30.7	13.1	2.74e-05	0	43	0	336592896	17	4641
2026-01-13 03:10:18.12	297.55	11.74	-28.5	-30.7	13.1	2.89e-05	0	43	0	339738624	17	4632
2026-01-13 03:10:19.13	297.38	11.70	-28.4	-30.5	13.2	2.67e-05	0	43	0	342884352	17	4569
2026-01-13 03:10:20.13	297.22	11.65	-28.4	-30.6	13.2	2.36e-05	0	43	0	346030080	17	4589
2026-01-13 03:10:21.14	297.05	11.61	-28.4	-30.6	13.2	2.21e-05	0	43	0	349175808	17	4589
2026-01-13 03:10:22.14	296.89	11.57	-28.5	-30.8	13.1	4.88e-05	0	43	0	352321536	17	4659
2026-01-13 03:10:23.15	296.72	11.52	-28.4	-30.4	13.3	2.67e-05	0	43	0	355467264	17	4535
2026-01-13 03:10:24.16	296.55	11.47	-28.2	-30.0	13.5	1.29e-05	0	43	0	358612992	17	4419
2026-01-13 03:10:25.16	296.39	11.43	-28.1	-29.7	13.7	8.30e-06	0	42	0	361758720	17	4319
2026-01-13 03:10:26.17	296.22	11.38	-28.0	-29.5	13.7	8.30e-06	0	43	0	364904448	17	4283
2026-01-13 03:10:27.17	296.06	11.34	-28.0	-29.4	13.8	6.10e-06	0	43	0	368050176	17	4262
2026-01-13 03:10:28.18	295.90	11.29	-27.9	-29.3	13.9	2.20e-06	0	43	0	371195904	17	4219
2026-01-13 03:10:29.19	295.73	11.25	-27.7	-29.3	14.2	7.00e-07	0	43	0	374341632	16	4322
2026-01-13 03:10:30.19	295.57	11.20	-27.7	-29.3	14.1	0.00e+00	0	43	0	377487360	16	4325
2026-01-13 03:10:31.20	295.41	11.15	-27.8	-29.4	14.1	1.50e-06	0	43	0	380633088	16	4357
2026-01-13 03:10:32.21	295.25	11.11	-27.7	-29.2	14.2	3.00e-06	0	43	0	383778816	16	4290
2026-01-13 03:10:33.21	295.09	11.06	-27.8	-29.5	14.1	0.00e+00	0	43	0	386924544	16	4362
2026-01-13 03:10:34.22	294.93	11.01	-27.8	-29.6	14.0	7.00e-07	0	43	0	390070272	16	4397
2026-01-13 03:10:35.23	294.77	10.97	-28.0	-29.9	13.8	3.00e-06	0	43	0	393216000	16	4491
2026-01-13 03:10:36.24	294.61	10.92	-28.1	-30.2	13.6	6.10e-06	0	43	0	396361728	16	4606
2026-01-13 03:10:37.24	294.45	10.87	-28.2	-30.5	13.4	8.30e-06	0	43	0	399507456	16	4688
2026-01-13 03:10:38.25	294.29	10.83	-28.1	-30.3	13.5	1.14e-05	0	43	0	402653184	16	4634
2026-01-13 03:10:39.26	294.13	10.78	-28.1	-30.3	13.6	4.50e-06	0	43	0	405798912	16	4625
2026-01-13 03:10:40.27	293.97	10.73	-28.2	-30.5	13.4	8.30e-06	0	43	0	408944640	16	4685
2026-01-13 03:10:41.28	293.82	10.68	-28.2	-30.6	13.4	1.29e-05	0	42	0	412090368	16	4728
2026-01-13 03:10:42.28	293.66	10.64	-28.2	-30.6	13.4	1.14e-05	0	43	0	415236096	16	4726
2026-01-13 03:10:43.29	293.50	10.59	-28.3	-30.8	13.3	1.44e-05	0	43	0	418381824	16	4776
2026-01-13 03:10:44.30	293.35	10.54	-28.3	-30.7	13.3	1.67e-05	0	42	0	421527552	16	4754
2026-01-13 03:10:45.30	293.20	10.49	-28.4	-31.1	13.1	3.73e-05	0	43	0	424673280	16	4881
2026-01-13 03:10:46.31	293.04	10.44	-28.3	-30.8	13.2	1.22e-05	0	43	0	427819008	16	4777
2026-01-13 03:10:47.30	292.89	10.40	-28.3	-30.9	13.2	2.44e-05	0	43	0	430964736	16	4809
2026-01-13 03:10:48.31	292.74	10.35	-28.5	-31.2	13.0	4.11e-05	0	43	0	434110464	16	4929
2026-01-13 03:10:49.32	292.58	10.30	-28.4	-30.6	13.0	4.88e-05	0	43	0	437256192	17	4607
2026-01-13 03:10:50.32	292.43	10.25	-28.5	-30.7	13.0	4.95e-05	0	43	0	440401920	17	4638
2026-01-13 03:10:51.33	292.28	10.20	-28.5	-30.9	12.8	5.03e-05	0	43	0	443547648	17	4697
2026-01-13 03:10:52.33	292.13	10.15	-28.5	-30.8	12.9	3.96e-05	0	43	0	446693376	17	4675
2026-01-13 03:10:53.33	291.98	10.11	-28.5	-30.8	12.9	4.50e-05	0	43	0	449839104	17	4691
2026-01-13 03:10:54.34	291.83	10.06	-28.5	-30.8	12.9	6.02e-05	0	43	0	452984832	17	4666
2026-01-13 03:10:55.35	291.68	10.01	-28.5	-30.7	13.0	3.96e-05	0	43	0	456130560	17	4636
2026-01-13 03:10:56.35	291.53	9.96	-28.4	-30.6	12.9	4.27e-05	0	43	0	459276288	17	4624
2026-01-13 03:10:57.36	291.38	9.91	-28.5	-30.7	12.9	2.97e-05	0	43	0	462422016	17	4652
2026-01-13 03:10:58.37	291.23	9.86	-28.6	-31.0	12.7	8.39e-05	0	43	0	465567744	17	4757
2026-01-13 03:10:59.37	291.09	9.81	-28.6	-30.9	12.7	7.40e-05	0	43	0	468713472	17	4723
2026-01-13 03:11:00.38	290.94	9.76	-28.6	-31.0	12.7	6.25e-05	0	43	0	471859200	17	4765
2026-01-13 03:11:01.38	290.79	9.71	-28.6	-31.0	12.7	7.62e-05	0	43	0	475004928	17	4767
2026-01-13 03:11:02.39	290.65	9.66	-28.7	-31.2	12.6	7.78e-05	0	43	0	478150656	17	4808
2026-01-13 03:11:03.40	290.50	9.61	-28.8	-31.4	12.4	1.50e-04	0	43	0	481296384	17	4901
2026-01-13 03:11:04.41	290.36	9.56	-28.7	-31.4	12.4	1.49e-04	0	43	0	484442112	17	4889
2026-01-13 03:11:05.42	290.21	9.51	-28.7	-31.3	12.5	1.17e-04	0	43	0	487587840	17	4870
2026-01-13 03:11:06.42	290.07	9.46	-28.6	-31.2	12.5	1.04e-04	0	43	0	490733568	17	4816
2026-01-13 03:11:07.43	289.92	9.41	-28.6	-31.2	12.5	1.07e-04	0	43	0	493879296	17	4811
2026-01-13 03:11:08.44	289.78	9.36	-28.7	-31.2	12.5	1.72e-04	0	43	0	497025024	17	4827
2026-01-13 03:11:09.44	289.64	9.31	-28.6	-31.2	12.5	9.99e-05	0	43	0	500170752	17	4831
2026-01-13 03:11:10.45	289.50	9.26	-28.6	-31.1	12.5	1.27e-04	0	43	0	503316480	17	4804
2026-01-13 03:11:11.45	289.35	9.21	-28.6	-31.1	12.5	1.23e-04	0	43	0	506462208	17	4806
2026-01-13 03:11:12.46	289.21	9.16	-28.6	-31.2	12.5	1.12e-04	0	43	0	509607936	17	4821
2026-01-13 03:11:13.47	289.07	9.11	-28.7	-31.4	12.3	1.91e-04	0	43	0	512753664	17	4888
2026-01-13 03:11:14.48	288.93	9.06	-28.6	-31.1	12.4	1.26e-04	0	43	0	515899392	17	4815
2026-01-13 03:11:15.49	288.79	9.01	-28.7	-31.3	12.4	1.66e-04	0	43	0	519045120	17	4862
2026-01-13 03:11:16.49	288.65	8.96	-28.4	-30.7	12.7	9.61e-05	0	43	0	522190848	17	4680
2026-01-13 03:11:17.49	288.52	8.91	-28.3	-30.3	12.9	3.20e-05	0	43	0	525336576	17	4550
2026-01-13 03:11:18.50	288.38	8.86	-28.2	-30.1	13.1	3.58e-05	0	43	0	528482304	17	4477
2026-01-13 03:11:19.50	288.24	8.81	-28.3	-30.3	13.0	5.03e-05	0	43	0	531628032	17	4533
2026-01-13 03:11:20.51	288.10	8.76	-28.3	-30.3	12.9	4.95e-05	0	43	0	534773760	17	4536
2026-01-13 03:11:21.52	287.97	8.71	-28.4	-30.5	12.8	5.11e-05	0	43	0	537919488	17	4609
2026-01-13 03:11:22.53	287.83	8.66	-28.4	-30.6	12.7	6.56e-05	0	42	0	541065216	17	4656
2026-01-13 03:11:23.53	287.69	8.61	-28.5	-30.9	12.5	8.39e-05	0	43	0	544210944	17	4740
2026-01-13 03:11:24.53	287.56	8.55	-28.5	-30.9	12.5	1.34e-04	0	43	0	547356672	17	4748
2026-01-13 03:11:25.53	287.43	8.50	-28.4	-30.7	12.6	8.77e-05	0	43	0	550502400	17	4687
2026-01-13 03:11:26.54	287.29	8.45	-28.4	-30.7	12.6	8.16e-05	0	43	0	553648128	17	4696
2026-01-13 03:11:27.55	287.16	8.40	-28.4	-30.7	12.6	1.20e-04	0	43	0	556793856	17	4669
2026-01-13 03:11:28.56	287.02	8.35	-28.4	-30.7	12.6	9.76e-05	0	43	0	559939584	17	4683
2026-01-13 03:11:29.56	286.89	8.30	-28.5	-31.0	12.4	1.77e-04	0	43	0	563085312	17	4768
2026-01-13 03:11:30.57	286.76	8.25	-28.4	-30.8	12.5	1.07e-04	0	43	0	566231040	17	4707
2026-01-13 03:11:31.57	286.63	8.20	-28.6	-31.2	12.3	1.81e-04	0	43	0	569376768	17	4836
2026-01-13 03:11:32.58	286.50	8.15	-28.7	-31.5	12.1	2.63e-04	0	43	0	572522496	17	4941
2026-01-13 03:11:33.59	286.36	8.09	-28.7	-31.4	12.1	3.04e-04	0	43	0	575668224	17	4915
2026-01-13 03:11:34.59	286.23	8.04	-28.7	-31.5	12.1	3.41e-04	0	43	0	578813952	17	4934
2026-01-13 03:11:35.60	286.10	7.99	-28.8	-31.6	11.9	3.66e-04	0	43	0	581959680	17	5001
2026-01-13 03:11:36.61	285.97	7.94	-28.7	-31.5	12.0	3.53e-04	0	43	0	585105408	17	4976
2026-01-13 03:11:37.61	285.85	7.89	-28.7	-31.3	12.2	2.53e-04	0	43	0	588251136	17	4890
2026-01-13 03:11:38.62	285.72	7.84	-28.8	-31.7	12.0	3.02e-04	0	43	0	591396864	17	5008
2026-01-13 03:11:39.63	285.59	7.78	-28.8	-31.8	11.8	5.55e-04	0	43	0	594542592	17	5071
2026-01-13 03:11:40.63	285.46	7.73	-28.7	-31.4	12.1	2.55e-04	0	43	0	597688320	17	4912
2026-01-13 03:11:41.64	285.33	7.68	-28.6	-31.3	12.1	2.82e-04	0	43	0	600834048	17	4888
2026-01-13 03:11:42.64	285.21	7.63	-28.7	-31.6	11.9	3.73e-04	0	43	0	603979776	17	4982
2026-01-13 03:11:43.65	285.08	7.58	-28.8	-31.7	11.8	4.94e-04	0	43	0	607125504	17	5033
2026-01-13 03:11:44.66	284.95	7.53	-28.8	-31.8	11.7	5.19e-04	0	43	0	610271232	17	5076
2026-01-13 03:11:45.67	284.83	7.47	-28.9	-31.9	11.7	5.83e-04	0	43	0	613416960	17	5101
2026-01-13 03:11:46.68	284.70	7.42	-28.8	-31.8	11.7	6.17e-04	0	43	0	616562688	17	5082
2026-01-13 03:11:47.68	284.58	7.37	-28.8	-31.7	11.8	5.52e-04	0	43	0	619708416	17	5023
2026-01-13 03:11:48.69	284.45	7.32	-28.7	-31.6	11.8	5.35e-04	0	43	0	622854144	17	5006
2026-01-13 03:11:49.69	284.33	7.27	-28.7	-31.5	11.9	4.64e-04	0	43	0	625999872	17	4974
2026-01-13 03:11:50.70	284.21	7.22	-28.8	-31.8	11.7	6.51e-04	0	43	0	629145600	17	5079
2026-01-13 03:11:51.70	284.09	7.16	-28.7	-31.4	11.9	6.12e-04	0	43	0	632291328	17	4945
2026-01-13 03:11:52.71	283.96	7.11	-28.6	-31.2	12.1	2.86e-04	0	43	0	635437056	17	4856
2026-01-13 03:11:53.71	283.84	7.06	-32.5	-44.0	3.8	1.08e+00	0	43	104	637534208	25	13558
2026-01-13 03:11:54.71	283.72	7.01	-33.1	-45.1	3.8	1.49e+00	0	43	104	637534208	26	14275

#Closed at: 2026-01-13 03:11:55
#Recorded file [637 MB]: D:/data/31010_260113_060829.dat