passes_logs/2026/01/13/R2M6_AANII_01/R2M6_AANII_01__20260113_122054_AQUA_rec.log

#Pass ID: 20260113_122054_AQUA
#Satellite: AQUA
#Configuration: AQUA
#almurnet v.1.7.20240730
#Start time: 2026-01-13 12:20:54

#Version: 2.2.20231116
#Station: R2M6_AANII_01
#Location: 30.233357 lon 59.946436 lat
#TLE: 1 27424U 02022A   26012.29577270  .00001027  00000+0  21555-3 0  9995
#TLE: 2 27424  98.4078 338.6778 0002034  81.5885  29.6294 14.61817302260499

#Time	Az	El	Level	Level2	SNR	BER	BlckErr	Temp	State	Recorded	gain1	gain2
2026-01-13 12:20:54.59	170.38	7.02	-34.4	-53.4	3.8	7.48e-01	0	40	0	0	30	32034
2026-01-13 12:20:55.59	170.40	7.10	-34.4	-53.4	3.8	7.44e-01	0	40	104	0	30	32053
2026-01-13 12:20:56.59	170.42	7.18	-34.4	-53.4	3.8	7.46e-01	0	40	104	0	30	32012
2026-01-13 12:20:57.60	170.45	7.27	-34.4	-53.4	3.8	7.46e-01	0	40	104	0	30	32047
2026-01-13 12:20:58.61	170.48	7.35	-34.4	-53.4	3.8	7.46e-01	0	40	104	0	30	31999
2026-01-13 12:20:59.62	170.50	7.43	-34.4	-53.4	3.8	7.45e-01	0	40	104	0	30	32053
2026-01-13 12:21:00.62	170.53	7.52	-34.4	-53.4	3.8	7.46e-01	0	41	104	0	30	32060
2026-01-13 12:21:01.63	170.55	7.60	-34.4	-53.4	3.8	7.46e-01	0	41	104	0	30	32042
2026-01-13 12:21:02.64	170.58	7.68	-34.4	-53.4	3.8	7.49e-01	0	41	104	0	30	31997
2026-01-13 12:21:03.64	170.60	7.77	-34.4	-53.4	3.8	7.45e-01	0	41	104	0	30	32073
2026-01-13 12:21:04.65	170.63	7.85	-34.4	-53.4	3.8	7.42e-01	0	41	104	0	30	32059
2026-01-13 12:21:05.66	170.66	7.94	-34.4	-53.4	3.8	7.46e-01	0	40	104	0	30	32097
2026-01-13 12:21:06.67	170.68	8.03	-34.4	-53.4	3.8	7.45e-01	0	41	104	0	30	32056
2026-01-13 12:21:07.68	170.71	8.11	-34.4	-53.4	3.8	7.42e-01	0	41	104	0	30	32104
2026-01-13 12:21:08.69	170.74	8.20	-34.4	-53.4	3.8	7.48e-01	0	41	104	0	30	32126
2026-01-13 12:21:09.69	170.76	8.28	-34.4	-53.4	3.8	7.43e-01	0	40	104	0	30	32054
2026-01-13 12:21:10.70	170.79	8.37	-34.4	-53.4	3.8	7.44e-01	0	41	104	0	30	32094
2026-01-13 12:21:11.71	170.82	8.46	-34.4	-53.4	3.8	7.45e-01	0	41	104	0	30	31986
2026-01-13 12:21:12.71	170.84	8.54	-34.4	-53.4	3.8	7.47e-01	0	41	104	0	30	32058
2026-01-13 12:21:13.71	170.87	8.63	-34.4	-53.4	3.8	7.47e-01	0	41	104	0	30	32118
2026-01-13 12:21:14.72	170.90	8.72	-34.4	-53.4	3.8	7.45e-01	0	41	104	0	30	32085
2026-01-13 12:21:15.73	170.93	8.81	-34.4	-53.4	3.8	7.47e-01	0	41	104	0	30	32055
2026-01-13 12:21:16.74	170.96	8.90	-34.4	-53.4	3.8	7.43e-01	0	41	104	0	30	32078
2026-01-13 12:21:17.74	170.98	8.99	-34.4	-53.4	3.8	7.43e-01	0	41	104	0	30	32054
2026-01-13 12:21:18.75	171.01	9.08	-34.4	-53.4	3.8	7.46e-01	0	41	104	0	30	31987
2026-01-13 12:21:19.76	171.04	9.17	-34.4	-53.4	3.8	7.43e-01	0	41	104	0	30	32097
2026-01-13 12:21:20.77	171.07	9.26	-34.4	-53.4	3.8	7.46e-01	0	41	104	0	30	32035
2026-01-13 12:21:21.77	171.10	9.35	-34.4	-53.4	3.8	7.41e-01	0	41	104	0	30	32074
2026-01-13 12:21:22.78	171.13	9.44	-34.4	-53.4	3.8	7.42e-01	0	41	104	0	30	32079
2026-01-13 12:21:23.79	171.16	9.53	-34.4	-53.4	3.8	7.42e-01	0	41	104	0	30	32041
2026-01-13 12:21:24.80	171.19	9.62	-34.4	-53.4	3.8	7.41e-01	0	41	104	0	30	32067
2026-01-13 12:21:25.80	171.21	9.71	-34.4	-53.4	3.8	7.48e-01	0	41	104	0	30	32128
2026-01-13 12:21:26.81	171.24	9.81	-34.4	-53.4	3.8	7.47e-01	0	41	104	0	30	32065
2026-01-13 12:21:27.82	171.27	9.90	-34.4	-53.4	3.8	7.46e-01	0	41	104	0	30	32067
2026-01-13 12:21:28.83	171.30	9.99	-34.4	-53.4	3.8	7.50e-01	0	41	104	0	30	31951
2026-01-13 12:21:29.83	171.33	10.09	-34.4	-53.4	3.8	7.42e-01	0	41	104	0	30	32064
2026-01-13 12:21:30.84	171.37	10.18	-34.4	-53.4	3.8	7.42e-01	0	41	104	0	30	32065
2026-01-13 12:21:31.85	171.40	10.27	-34.4	-53.4	3.8	7.44e-01	0	41	104	0	30	32146
2026-01-13 12:21:32.85	171.43	10.37	-34.4	-53.5	3.8	7.44e-01	0	41	104	0	30	32156
2026-01-13 12:21:33.86	171.46	10.46	-34.4	-53.4	3.8	7.43e-01	0	41	104	0	30	32040
2026-01-13 12:21:34.87	171.49	10.56	-34.4	-53.4	3.8	7.47e-01	0	41	104	0	30	32040
2026-01-13 12:21:35.87	171.52	10.66	-34.4	-53.4	3.8	7.43e-01	0	41	104	0	30	32073
2026-01-13 12:21:36.87	171.55	10.75	-34.4	-53.4	3.8	7.44e-01	0	41	104	0	30	32051
2026-01-13 12:21:37.88	171.58	10.85	-34.4	-53.5	3.8	7.43e-01	0	41	104	0	30	32151
2026-01-13 12:21:38.89	171.62	10.95	-34.4	-53.4	3.8	7.45e-01	0	42	104	0	30	32091
2026-01-13 12:21:39.90	171.65	11.04	-34.4	-53.4	3.8	7.45e-01	0	41	104	0	30	32101
2026-01-13 12:21:40.90	171.68	11.14	-34.4	-53.4	3.8	7.45e-01	0	41	104	0	30	32080
2026-01-13 12:21:41.90	171.71	11.24	-34.4	-53.4	3.8	7.48e-01	0	41	104	0	30	32134
2026-01-13 12:21:42.91	171.75	11.34	-34.4	-53.4	3.8	7.47e-01	0	41	104	0	30	32010
2026-01-13 12:21:43.92	171.78	11.44	-34.4	-53.4	3.8	7.43e-01	0	42	104	0	30	32110
2026-01-13 12:21:44.93	171.81	11.54	-34.4	-53.4	3.8	7.44e-01	0	41	104	0	30	32058
2026-01-13 12:21:45.93	171.85	11.64	-34.4	-53.4	3.8	7.45e-01	0	41	104	0	30	32085
2026-01-13 12:21:46.94	171.88	11.74	-34.4	-53.5	3.8	7.45e-01	0	41	104	0	30	32163
2026-01-13 12:21:47.95	171.91	11.84	-34.4	-53.4	3.8	7.44e-01	0	41	104	0	30	32053
2026-01-13 12:21:48.95	171.95	11.94	-34.4	-53.4	3.8	7.45e-01	0	42	104	0	30	32089
2026-01-13 12:21:49.96	171.98	12.04	-34.4	-53.4	3.8	7.41e-01	0	42	104	0	30	32076
2026-01-13 12:21:50.97	172.02	12.15	-34.4	-53.4	3.8	7.46e-01	0	42	104	0	30	32119
2026-01-13 12:21:51.97	172.05	12.25	-34.4	-53.4	3.8	7.47e-01	0	42	104	0	30	32104
2026-01-13 12:21:52.98	172.09	12.35	-34.4	-53.4	3.8	7.44e-01	0	42	104	0	30	32018
2026-01-13 12:21:53.98	172.12	12.46	-34.4	-53.4	3.8	7.43e-01	0	41	104	0	30	32054
2026-01-13 12:21:54.99	172.16	12.56	-34.4	-53.4	3.8	7.49e-01	0	41	104	0	30	32077
2026-01-13 12:21:56.00	172.19	12.67	-34.4	-53.4	3.8	7.47e-01	0	42	104	0	30	32045
2026-01-13 12:21:57.00	172.23	12.77	-34.4	-53.4	3.8	7.45e-01	0	42	104	0	30	32080
2026-01-13 12:21:58.01	172.27	12.88	-34.4	-53.4	3.8	7.42e-01	0	42	104	0	30	32111
2026-01-13 12:21:59.02	172.30	12.99	-34.4	-53.4	3.8	7.44e-01	0	42	104	0	30	32004
2026-01-13 12:22:00.02	172.34	13.09	-34.4	-53.4	3.8	7.48e-01	0	42	104	0	30	32116
2026-01-13 12:22:01.02	172.38	13.20	-34.4	-53.4	3.8	7.45e-01	0	42	104	0	30	32121
2026-01-13 12:22:02.03	172.41	13.31	-34.4	-53.4	3.8	7.45e-01	0	42	104	0	30	32097
2026-01-13 12:22:03.04	172.45	13.42	-34.4	-53.4	3.8	7.46e-01	0	42	104	0	30	32098
2026-01-13 12:22:04.05	172.49	13.53	-34.4	-53.4	3.8	7.45e-01	0	42	104	0	30	32098
2026-01-13 12:22:05.05	172.53	13.63	-34.4	-53.4	3.8	7.45e-01	0	42	104	0	30	32017
2026-01-13 12:22:06.06	172.57	13.74	-34.4	-53.4	3.8	7.45e-01	0	42	104	0	30	32051
2026-01-13 12:22:07.07	172.60	13.86	-34.4	-53.4	3.8	7.43e-01	0	42	104	0	30	32078
2026-01-13 12:22:08.08	172.64	13.97	-34.4	-53.4	3.8	7.43e-01	0	42	104	0	30	32050
2026-01-13 12:22:09.08	172.68	14.08	-34.4	-53.4	3.8	7.42e-01	0	42	104	0	30	31995
2026-01-13 12:22:10.08	172.72	14.19	-34.4	-53.4	3.8	7.45e-01	0	42	104	0	30	32038
2026-01-13 12:22:11.09	172.76	14.30	-34.4	-53.4	3.8	7.45e-01	0	42	104	0	30	32114
2026-01-13 12:22:12.09	172.80	14.42	-34.4	-53.4	3.8	7.45e-01	0	42	104	0	30	32058
2026-01-13 12:22:13.10	172.84	14.53	-34.4	-53.4	3.8	7.44e-01	0	42	104	0	30	32029
2026-01-13 12:22:14.10	172.88	14.64	-34.4	-53.4	3.8	7.47e-01	0	42	104	0	30	32068
2026-01-13 12:22:15.11	172.92	14.76	-34.4	-53.4	3.8	7.44e-01	0	42	104	0	30	32067
2026-01-13 12:22:16.12	172.97	14.88	-34.4	-53.4	3.8	7.44e-01	0	42	104	0	30	32086
2026-01-13 12:22:17.12	173.01	14.99	-34.4	-53.4	3.8	7.45e-01	0	42	104	0	30	32061
2026-01-13 12:22:18.13	173.05	15.11	-34.4	-53.4	3.8	7.46e-01	0	42	104	0	30	32062
2026-01-13 12:22:19.13	173.09	15.23	-34.4	-53.4	3.8	7.42e-01	0	42	104	0	30	32074
2026-01-13 12:22:20.14	173.14	15.35	-34.4	-53.4	3.8	7.44e-01	0	42	104	0	30	32112
2026-01-13 12:22:21.13	173.18	15.46	-34.4	-53.4	3.8	7.47e-01	0	42	104	0	30	32117
2026-01-13 12:22:22.14	173.22	15.58	-34.4	-53.4	3.8	7.43e-01	0	42	104	0	30	32021
2026-01-13 12:22:23.15	173.27	15.70	-34.4	-53.4	3.8	7.43e-01	0	42	104	0	30	32113
2026-01-13 12:22:24.15	173.31	15.82	-34.4	-53.4	3.8	7.45e-01	0	42	104	0	30	32049
2026-01-13 12:22:25.15	173.35	15.94	-34.4	-53.4	3.8	7.42e-01	0	42	104	0	30	32080
2026-01-13 12:22:26.16	173.40	16.07	-34.4	-53.4	3.8	7.44e-01	0	42	104	0	30	32060
2026-01-13 12:22:27.16	173.44	16.19	-34.4	-53.4	3.8	7.44e-01	0	42	104	0	30	31923
2026-01-13 12:22:28.17	173.49	16.31	-34.4	-53.4	3.8	7.44e-01	0	42	104	0	30	32038
2026-01-13 12:22:29.17	173.53	16.44	-34.4	-53.4	3.8	7.46e-01	0	42	104	0	30	32086
2026-01-13 12:22:30.18	173.58	16.56	-34.4	-53.4	3.8	7.47e-01	0	42	104	0	30	32084
2026-01-13 12:22:31.19	173.63	16.69	-34.4	-53.4	3.8	7.43e-01	0	42	104	0	30	32079
2026-01-13 12:22:32.20	173.68	16.81	-34.4	-53.4	3.8	7.42e-01	0	42	104	0	30	32033
2026-01-13 12:22:33.20	173.72	16.94	-34.4	-53.4	3.8	7.43e-01	0	42	104	0	30	32073
2026-01-13 12:22:34.21	173.77	17.07	-34.4	-53.4	3.8	7.45e-01	0	42	104	0	30	32049
2026-01-13 12:22:35.22	173.82	17.20	-34.4	-53.4	3.8	7.45e-01	0	42	104	0	30	32035
2026-01-13 12:22:36.23	173.87	17.33	-34.4	-53.4	3.8	7.46e-01	0	42	104	0	30	32099
2026-01-13 12:22:37.23	173.92	17.46	-34.4	-53.4	3.8	7.44e-01	0	42	104	0	30	32060
2026-01-13 12:22:38.24	173.97	17.59	-34.4	-53.4	3.8	7.46e-01	0	42	104	0	30	32052
2026-01-13 12:22:39.24	174.02	17.72	-34.4	-53.4	3.8	7.45e-01	0	42	104	0	30	32065
2026-01-13 12:22:40.26	174.07	17.85	-34.4	-53.4	3.8	7.44e-01	0	42	104	0	30	32026
2026-01-13 12:22:41.26	174.12	17.98	-34.4	-53.4	3.8	7.46e-01	0	42	104	0	30	31892
2026-01-13 12:22:42.26	174.17	18.12	-34.4	-53.4	3.8	7.46e-01	0	42	104	0	30	32023
2026-01-13 12:22:43.27	174.22	18.25	-34.4	-53.4	3.8	7.52e-01	0	42	104	0	30	32041
2026-01-13 12:22:44.28	174.27	18.39	-34.4	-53.4	3.8	7.43e-01	0	42	104	0	30	32086
2026-01-13 12:22:45.28	174.32	18.52	-34.4	-53.4	3.8	7.47e-01	0	42	104	0	30	32054
2026-01-13 12:22:46.30	174.38	18.66	-34.4	-53.4	3.8	7.42e-01	0	42	104	0	30	32037
2026-01-13 12:22:47.30	174.43	18.80	-34.4	-53.4	3.8	7.44e-01	0	42	104	0	30	32098
2026-01-13 12:22:48.31	174.49	18.94	-34.4	-53.4	3.8	7.49e-01	0	42	104	0	30	32060
2026-01-13 12:22:49.32	174.54	19.08	-34.4	-53.4	3.8	7.47e-01	0	42	104	0	30	32060
2026-01-13 12:22:50.33	174.60	19.22	-34.4	-53.4	3.8	7.45e-01	0	42	104	0	30	32077
2026-01-13 12:22:51.34	174.65	19.36	-34.4	-53.4	3.8	7.42e-01	0	42	104	0	30	32079
2026-01-13 12:22:52.34	174.71	19.50	-34.4	-53.5	3.8	7.47e-01	0	42	104	0	30	32158
2026-01-13 12:22:53.35	174.76	19.64	-34.4	-53.5	3.8	7.43e-01	0	42	104	0	30	32142
2026-01-13 12:22:54.36	174.82	19.79	-34.4	-53.4	3.8	7.47e-01	0	42	104	0	30	32064
2026-01-13 12:22:55.37	174.88	19.93	-34.4	-53.4	3.8	7.43e-01	0	42	104	0	30	31995
2026-01-13 12:22:56.38	174.94	20.08	-34.4	-53.4	3.8	7.44e-01	0	42	104	0	30	32088
2026-01-13 12:22:57.38	175.00	20.23	-34.4	-53.4	3.8	7.46e-01	0	42	104	0	30	31991
2026-01-13 12:22:58.40	175.06	20.37	-34.4	-53.4	3.8	7.45e-01	0	42	104	0	30	32042
2026-01-13 12:22:59.40	175.12	20.52	-34.4	-53.4	3.8	7.42e-01	0	42	104	0	30	32000
2026-01-13 12:23:00.41	175.18	20.67	-34.4	-53.4	3.8	7.46e-01	0	42	104	0	30	32042
2026-01-13 12:23:01.42	175.24	20.82	-34.4	-53.4	3.8	7.46e-01	0	42	104	0	30	32060
2026-01-13 12:23:02.42	175.30	20.97	-34.4	-53.4	3.8	7.44e-01	0	42	104	0	30	31987
2026-01-13 12:23:03.42	175.36	21.12	-34.4	-53.4	3.8	7.45e-01	0	42	104	0	30	32081
2026-01-13 12:23:04.42	175.42	21.28	-34.4	-53.4	3.8	7.43e-01	0	42	104	0	30	32093
2026-01-13 12:23:05.43	175.49	21.43	-34.4	-53.4	3.8	7.48e-01	0	42	104	0	30	32041
2026-01-13 12:23:06.42	175.55	21.58	-34.4	-53.4	3.8	7.43e-01	0	42	104	0	30	32085
2026-01-13 12:23:07.42	175.61	21.74	-34.4	-53.4	3.8	7.48e-01	0	42	104	0	30	32093
2026-01-13 12:23:08.44	175.68	21.90	-34.4	-53.4	3.8	7.47e-01	0	42	104	0	30	32094
2026-01-13 12:23:09.44	175.75	22.05	-34.4	-53.4	3.8	7.48e-01	0	42	104	0	30	32043
2026-01-13 12:23:10.45	175.81	22.21	-34.4	-53.4	3.8	7.43e-01	0	42	104	0	30	32090
2026-01-13 12:23:11.46	175.88	22.37	-34.4	-53.4	3.8	7.49e-01	0	42	104	0	30	32102
2026-01-13 12:23:12.46	175.95	22.54	-34.4	-53.4	3.8	7.45e-01	0	42	104	0	30	32065
2026-01-13 12:23:13.47	176.02	22.70	-34.4	-53.4	3.8	7.47e-01	0	42	104	0	30	32105
2026-01-13 12:23:14.47	176.09	22.86	-34.4	-53.4	3.8	7.46e-01	0	42	104	0	30	32072
2026-01-13 12:23:15.47	176.15	23.02	-34.4	-53.4	3.8	7.45e-01	0	42	104	0	30	32123
2026-01-13 12:23:16.48	176.23	23.19	-34.4	-53.4	3.8	7.47e-01	0	42	104	0	30	32025
2026-01-13 12:23:17.49	176.30	23.36	-34.4	-53.4	3.8	7.47e-01	0	42	104	0	30	32113
2026-01-13 12:23:18.49	176.37	23.52	-34.4	-53.5	3.8	7.46e-01	0	42	104	0	30	32186
2026-01-13 12:23:19.50	176.44	23.69	-34.4	-53.4	3.8	7.48e-01	0	42	104	0	30	32046
2026-01-13 12:23:20.51	176.52	23.86	-34.4	-53.4	3.8	7.44e-01	0	42	104	0	30	32145
2026-01-13 12:23:21.52	176.59	24.04	-34.4	-53.5	3.8	7.44e-01	0	42	104	0	30	32165
2026-01-13 12:23:22.53	176.67	24.21	-34.4	-53.4	3.8	7.44e-01	0	42	104	0	30	32076
2026-01-13 12:23:23.54	176.75	24.38	-34.4	-53.5	3.8	7.46e-01	0	42	104	0	30	32164
2026-01-13 12:23:24.55	176.82	24.56	-34.4	-53.4	3.8	7.42e-01	0	42	104	0	30	32105
2026-01-13 12:23:25.55	176.90	24.73	-34.4	-53.5	3.8	7.48e-01	0	42	104	0	30	32146
2026-01-13 12:23:26.56	176.98	24.91	-34.4	-53.4	3.8	7.47e-01	0	42	104	0	30	32106
2026-01-13 12:23:27.57	177.06	25.09	-34.4	-53.5	3.8	7.45e-01	0	42	104	0	30	32135
2026-01-13 12:23:28.57	177.14	25.27	-34.4	-53.5	3.8	7.48e-01	0	42	104	0	30	32152
2026-01-13 12:23:29.57	177.22	25.45	-34.4	-53.4	3.8	7.45e-01	0	42	104	0	30	32061
2026-01-13 12:23:30.58	177.30	25.63	-34.4	-53.4	3.8	7.43e-01	0	42	104	0	30	32051
2026-01-13 12:23:31.58	177.39	25.82	-34.4	-53.4	3.8	7.45e-01	0	42	104	0	30	32039
2026-01-13 12:23:32.59	177.47	26.00	-34.4	-53.4	3.8	7.44e-01	0	42	104	0	30	32064
2026-01-13 12:23:33.59	177.56	26.19	-34.4	-53.4	3.8	7.47e-01	0	42	104	0	30	32054
2026-01-13 12:23:34.60	177.65	26.38	-34.4	-53.5	3.8	7.43e-01	0	42	104	0	30	32126
2026-01-13 12:23:35.61	177.73	26.57	-34.5	-53.5	3.8	7.44e-01	0	42	104	0	30	32233
2026-01-13 12:23:36.62	177.82	26.76	-34.4	-53.5	3.8	7.47e-01	0	42	104	0	30	32144
2026-01-13 12:23:37.62	177.91	26.95	-34.4	-53.4	3.8	7.46e-01	0	42	104	0	30	32064
2026-01-13 12:23:38.63	178.00	27.14	-34.4	-53.4	3.8	7.41e-01	0	42	104	0	30	32090
2026-01-13 12:23:39.64	178.09	27.34	-34.4	-53.4	3.8	7.44e-01	0	42	104	0	30	32084
2026-01-13 12:23:40.64	178.19	27.53	-34.4	-53.4	3.8	7.45e-01	0	42	104	0	30	32133
2026-01-13 12:23:41.65	178.28	27.73	-34.4	-53.4	3.8	7.45e-01	0	42	104	0	30	32077
2026-01-13 12:23:42.66	178.38	27.93	-34.4	-53.4	3.8	7.48e-01	0	42	104	0	30	32115
2026-01-13 12:23:43.67	178.47	28.13	-34.4	-53.4	3.8	7.44e-01	0	42	104	0	30	32095
2026-01-13 12:23:44.68	178.57	28.33	-34.4	-53.5	3.8	7.44e-01	0	42	104	0	30	32122
2026-01-13 12:23:45.68	178.67	28.54	-34.4	-53.5	3.8	7.46e-01	0	42	104	0	30	32147
2026-01-13 12:23:46.69	178.77	28.74	-34.4	-53.5	3.8	7.47e-01	0	42	104	0	30	32116
2026-01-13 12:23:47.70	178.87	28.95	-34.4	-53.5	3.8	7.43e-01	0	42	104	0	30	32123
2026-01-13 12:23:48.70	178.98	29.16	-34.4	-53.5	3.8	7.46e-01	0	42	104	0	30	32120
2026-01-13 12:23:49.71	179.08	29.37	-34.4	-53.4	3.8	7.43e-01	0	42	104	0	30	32039
2026-01-13 12:23:50.71	179.19	29.58	-34.4	-53.4	3.8	7.45e-01	0	43	104	0	30	32057
2026-01-13 12:23:51.72	179.29	29.79	-34.4	-53.4	3.8	7.44e-01	0	42	104	0	30	32005
2026-01-13 12:23:52.72	179.40	30.00	-34.4	-53.4	3.8	7.40e-01	0	42	104	0	30	31911
2026-01-13 12:23:53.73	179.51	30.22	-34.4	-53.4	3.8	7.48e-01	0	42	104	0	30	31931
2026-01-13 12:23:54.73	179.62	30.44	-34.4	-53.4	3.8	7.48e-01	0	42	104	0	30	32018
2026-01-13 12:23:55.74	179.74	30.66	-34.5	-53.5	3.8	7.45e-01	0	42	104	0	30	32127
2026-01-13 12:23:56.75	179.85	30.88	-34.4	-53.5	3.8	7.45e-01	0	42	104	0	30	32128
2026-01-13 12:23:57.75	179.97	31.10	-34.5	-53.5	3.8	7.47e-01	0	42	104	0	30	32130
2026-01-13 12:23:58.75	180.08	31.32	-34.4	-53.5	3.8	7.47e-01	0	43	104	0	30	32179
2026-01-13 12:23:59.75	180.20	31.55	-34.5	-53.5	3.8	7.46e-01	0	42	104	0	30	32130
2026-01-13 12:24:00.76	180.32	31.78	-34.4	-53.4	3.8	7.44e-01	0	42	104	0	30	32102
2026-01-13 12:24:01.77	180.45	32.01	-34.4	-53.5	3.8	7.45e-01	0	42	104	0	30	32130
2026-01-13 12:24:02.77	180.57	32.24	-34.4	-53.4	3.8	7.44e-01	0	42	104	0	30	32111
2026-01-13 12:24:03.78	180.70	32.47	-34.5	-53.5	3.8	7.45e-01	0	42	104	0	30	32095
2026-01-13 12:24:04.78	180.82	32.71	-34.4	-53.4	3.8	7.47e-01	0	42	104	0	30	32040
2026-01-13 12:24:05.79	180.95	32.94	-34.5	-53.5	3.8	7.43e-01	0	42	104	0	30	32116
2026-01-13 12:24:06.80	181.09	33.18	-34.4	-53.4	3.8	7.44e-01	0	43	104	0	30	32030
2026-01-13 12:24:07.81	181.22	33.43	-34.5	-53.5	3.8	7.44e-01	0	42	104	0	30	32184
2026-01-13 12:24:08.81	181.35	33.67	-34.5	-53.5	3.8	7.45e-01	0	42	104	0	30	32084
2026-01-13 12:24:09.82	181.49	33.91	-34.4	-53.5	3.8	7.43e-01	0	42	104	0	30	32148
2026-01-13 12:24:10.83	181.63	34.16	-34.5	-53.5	3.8	7.46e-01	0	42	104	0	30	32168
2026-01-13 12:24:11.84	181.78	34.41	-34.5	-53.5	3.8	7.46e-01	0	42	104	0	30	32157
2026-01-13 12:24:12.85	181.92	34.66	-34.4	-53.5	3.8	7.45e-01	0	42	104	0	30	32189
2026-01-13 12:24:13.85	182.07	34.91	-34.4	-53.5	3.8	7.47e-01	0	42	104	0	30	32143
2026-01-13 12:24:14.86	182.21	35.16	-34.4	-53.5	3.8	7.47e-01	0	42	104	0	30	32121
2026-01-13 12:24:15.86	182.36	35.42	-34.5	-53.5	3.8	7.48e-01	0	42	104	0	30	32122
2026-01-13 12:24:16.87	182.52	35.68	-34.4	-53.4	3.8	7.42e-01	0	42	104	0	30	32066
2026-01-13 12:24:17.88	182.68	35.94	-34.5	-53.5	3.8	7.45e-01	0	42	104	0	30	32144
2026-01-13 12:24:18.89	182.83	36.20	-34.4	-53.5	3.8	7.45e-01	0	42	104	0	30	32118
2026-01-13 12:24:19.90	183.00	36.47	-34.5	-53.5	3.8	7.46e-01	0	42	104	0	30	32146
2026-01-13 12:24:20.91	183.16	36.73	-34.5	-53.5	3.8	7.44e-01	0	42	104	0	30	32175
2026-01-13 12:24:21.92	183.33	37.00	-34.5	-53.5	3.8	7.46e-01	0	42	104	0	30	32172
2026-01-13 12:24:22.92	183.49	37.27	-34.5	-53.5	3.8	7.45e-01	0	42	104	0	30	32124
2026-01-13 12:24:23.93	183.67	37.55	-34.4	-53.5	3.8	7.47e-01	0	42	104	0	30	32136
2026-01-13 12:24:24.94	183.84	37.82	-34.5	-53.5	3.8	7.49e-01	0	42	104	0	30	32171
2026-01-13 12:24:25.95	184.02	38.10	-34.5	-53.5	3.8	7.49e-01	0	42	104	0	30	32159
2026-01-13 12:24:26.95	184.20	38.38	-34.5	-53.5	3.8	7.44e-01	0	42	104	0	30	32184
2026-01-13 12:24:27.96	184.39	38.66	-34.4	-53.5	3.8	7.47e-01	0	42	104	0	30	32154
2026-01-13 12:24:28.96	184.57	38.94	-34.4	-53.5	3.8	7.44e-01	0	42	104	0	30	32132
2026-01-13 12:24:29.96	184.76	39.22	-34.5	-53.5	3.8	7.48e-01	0	43	104	0	30	32124
2026-01-13 12:24:30.97	184.96	39.51	-34.5	-53.5	3.8	7.46e-01	0	42	104	0	30	32149
2026-01-13 12:24:31.97	185.15	39.80	-34.5	-53.5	3.8	7.46e-01	0	42	104	0	30	32118
2026-01-13 12:24:32.98	185.35	40.09	-34.5	-53.5	3.8	7.47e-01	0	42	104	0	30	32224
2026-01-13 12:24:33.98	185.56	40.38	-34.4	-53.5	3.8	7.46e-01	0	42	104	0	30	32159
2026-01-13 12:24:34.99	185.76	40.68	-34.5	-53.5	3.8	7.45e-01	0	42	104	0	30	32090
2026-01-13 12:24:36.00	185.98	40.98	-34.5	-53.5	3.8	7.47e-01	0	43	104	0	30	32119
2026-01-13 12:24:37.01	186.19	41.28	-34.4	-53.5	3.8	7.45e-01	0	42	104	0	30	32199
2026-01-13 12:24:38.01	186.41	41.58	-34.4	-53.5	3.8	7.45e-01	0	43	104	0	30	32132
2026-01-13 12:24:39.02	186.64	41.89	-34.5	-53.5	3.8	7.45e-01	0	43	104	0	30	32205
2026-01-13 12:24:40.03	186.87	42.20	-34.5	-53.4	3.8	7.47e-01	0	42	104	0	30	32050
2026-01-13 12:24:41.04	187.10	42.51	-34.5	-53.5	3.8	7.42e-01	0	42	104	0	30	32173
2026-01-13 12:24:42.05	187.34	42.82	-34.5	-53.5	3.8	7.45e-01	0	42	104	0	30	32115
2026-01-13 12:24:43.05	187.58	43.13	-34.5	-53.5	3.8	7.44e-01	0	42	104	0	30	32093
2026-01-13 12:24:44.05	187.83	43.44	-34.4	-53.4	3.8	7.46e-01	0	42	104	0	30	32079
2026-01-13 12:24:45.06	188.08	43.76	-34.5	-53.5	3.8	7.40e-01	0	43	104	0	30	32171
2026-01-13 12:24:46.06	188.33	44.08	-34.5	-53.5	3.8	7.46e-01	0	42	104	0	30	32139
2026-01-13 12:24:47.07	188.60	44.40	-34.5	-53.5	3.8	7.42e-01	0	43	104	0	30	32109
2026-01-13 12:24:48.08	188.86	44.73	-34.4	-53.5	3.8	7.45e-01	0	42	104	0	30	32127
2026-01-13 12:24:49.08	189.14	45.06	-34.5	-53.5	3.8	7.42e-01	0	42	104	0	30	32130
2026-01-13 12:24:50.08	189.41	45.38	-34.5	-53.4	3.8	7.48e-01	0	42	104	0	30	32040
2026-01-13 12:24:51.09	189.70	45.71	-34.5	-53.5	3.8	7.48e-01	0	43	104	0	30	32131
2026-01-13 12:24:52.10	189.99	46.05	-34.5	-53.5	3.8	7.45e-01	0	43	104	0	30	32102
2026-01-13 12:24:53.10	190.28	46.38	-34.4	-53.5	3.8	7.45e-01	0	43	104	0	30	32146
2026-01-13 12:24:54.11	190.59	46.72	-34.5	-53.5	3.8	7.46e-01	0	43	104	0	30	32131
2026-01-13 12:24:55.12	190.90	47.06	-34.5	-53.5	3.8	7.42e-01	0	42	104	0	30	32168
2026-01-13 12:24:56.13	191.22	47.40	-34.4	-53.4	3.8	7.45e-01	0	42	104	0	30	32023
2026-01-13 12:24:57.13	191.54	47.74	-34.4	-53.5	3.8	7.44e-01	0	42	104	0	30	32175
2026-01-13 12:24:58.14	191.87	48.09	-34.5	-53.5	3.8	7.46e-01	0	42	104	0	30	32100
2026-01-13 12:24:59.15	192.21	48.44	-34.5	-53.4	3.8	7.42e-01	0	42	104	0	30	32066
2026-01-13 12:25:00.16	192.56	48.78	-34.5	-53.4	3.8	7.46e-01	0	42	104	0	30	32037
2026-01-13 12:25:01.17	192.91	49.14	-34.5	-53.4	3.8	7.43e-01	0	42	104	0	30	32003
2026-01-13 12:25:02.17	193.27	49.49	-34.5	-53.4	3.8	7.46e-01	0	42	104	0	30	32028
2026-01-13 12:25:03.18	193.64	49.84	-34.5	-53.4	3.8	7.45e-01	0	42	104	0	30	31952
2026-01-13 12:25:04.19	194.02	50.20	-34.4	-53.4	3.8	7.49e-01	0	43	104	0	30	31997
2026-01-13 12:25:05.19	194.41	50.55	-34.5	-53.4	3.8	7.43e-01	0	42	104	0	30	31910
2026-01-13 12:25:06.19	194.81	50.91	-34.4	-53.4	3.8	7.43e-01	0	43	104	0	30	32020
2026-01-13 12:25:07.20	195.21	51.27	-34.5	-53.4	3.8	7.44e-01	0	42	104	0	30	32033
2026-01-13 12:25:08.21	195.63	51.63	-34.5	-53.4	3.8	7.45e-01	0	42	104	0	30	31981
2026-01-13 12:25:09.22	196.06	52.00	-34.5	-53.4	3.8	7.40e-01	0	42	104	0	30	31907
2026-01-13 12:25:10.22	196.50	52.36	-34.5	-53.4	3.8	7.45e-01	0	42	104	0	30	31783
2026-01-13 12:25:11.23	196.95	52.72	-34.4	-53.4	3.8	7.44e-01	0	42	104	0	30	31768
2026-01-13 12:25:12.24	197.41	53.09	-34.5	-53.3	3.8	7.47e-01	0	42	104	0	30	31552
2026-01-13 12:25:13.25	197.88	53.46	-34.5	-53.4	3.8	7.45e-01	0	42	104	0	30	31786
2026-01-13 12:25:14.25	198.36	53.82	-34.5	-53.4	3.8	7.46e-01	0	43	104	0	30	32011
2026-01-13 12:25:15.26	198.86	54.19	-34.5	-53.4	3.8	7.45e-01	0	42	104	0	30	31891
2026-01-13 12:25:16.26	199.37	54.56	-34.5	-53.4	3.8	7.44e-01	0	42	104	0	30	32050
2026-01-13 12:25:17.27	199.89	54.93	-34.5	-53.5	3.8	7.46e-01	0	43	104	0	30	32095
2026-01-13 12:25:18.28	200.43	55.30	-34.5	-53.4	3.8	7.47e-01	0	42	104	0	30	32047
2026-01-13 12:25:19.29	200.98	55.67	-34.5	-53.4	3.8	7.47e-01	0	42	104	0	30	32043
2026-01-13 12:25:20.29	201.54	56.04	-34.5	-53.5	3.8	7.43e-01	0	42	104	0	30	32090
2026-01-13 12:25:21.30	202.12	56.41	-34.5	-53.5	3.8	7.45e-01	0	42	104	0	30	32106
2026-01-13 12:25:22.31	202.72	56.78	-34.5	-53.5	3.8	7.47e-01	0	42	104	0	30	32108
2026-01-13 12:25:23.32	203.34	57.15	-34.5	-53.5	3.8	7.47e-01	0	42	104	0	30	32176
2026-01-13 12:25:24.33	203.97	57.52	-34.5	-53.5	3.8	7.46e-01	0	42	104	0	30	32119
2026-01-13 12:25:25.34	204.62	57.89	-34.5	-53.5	3.8	7.46e-01	0	42	104	0	30	32120
2026-01-13 12:25:26.35	205.28	58.25	-34.5	-53.5	3.8	7.43e-01	0	42	104	0	30	32224
2026-01-13 12:25:27.36	205.97	58.62	-34.4	-53.5	3.8	7.47e-01	0	42	104	0	30	32286
2026-01-13 12:25:28.37	206.67	58.99	-34.5	-53.5	3.8	7.46e-01	0	43	104	0	30	32113
2026-01-13 12:25:29.37	207.39	59.34	-34.5	-53.5	3.8	7.46e-01	0	42	104	0	30	32098
2026-01-13 12:25:30.38	208.13	59.71	-34.5	-53.5	3.8	7.49e-01	0	43	104	0	30	32199
2026-01-13 12:25:31.40	208.91	60.07	-34.5	-53.5	3.8	7.43e-01	0	43	104	0	30	32213
2026-01-13 12:25:32.41	209.69	60.42	-34.5	-53.5	3.8	7.45e-01	0	43	104	0	30	32275
2026-01-13 12:25:33.41	210.49	60.77	-34.5	-53.5	3.8	7.44e-01	0	42	104	0	30	32256
2026-01-13 12:25:34.43	211.33	61.13	-34.5	-53.5	3.8	7.47e-01	0	43	104	0	30	32261
2026-01-13 12:25:35.43	212.18	61.47	-34.5	-53.5	3.8	7.43e-01	0	43	104	0	30	32170
2026-01-13 12:25:36.44	213.06	61.81	-34.5	-53.5	3.8	7.45e-01	0	43	104	0	30	32119
2026-01-13 12:25:37.44	213.95	62.15	-34.5	-53.5	3.8	7.45e-01	0	42	104	0	30	32173
2026-01-13 12:25:38.44	214.87	62.48	-34.5	-53.5	3.8	7.47e-01	0	43	104	0	30	32104
2026-01-13 12:25:39.45	215.83	62.81	-34.5	-53.5	3.8	7.44e-01	0	43	104	0	30	32146
2026-01-13 12:25:40.45	216.80	63.13	-34.5	-53.5	3.8	7.46e-01	0	42	104	0	30	32162
2026-01-13 12:25:41.46	217.80	63.45	-34.5	-53.5	3.8	7.47e-01	0	42	104	0	30	32183
2026-01-13 12:25:42.47	218.84	63.76	-34.5	-53.5	3.8	7.46e-01	0	43	104	0	30	32189
2026-01-13 12:25:43.47	219.89	64.07	-34.5	-53.5	3.8	7.46e-01	0	42	104	0	30	32270
2026-01-13 12:25:44.48	220.98	64.37	-34.5	-53.5	3.8	7.46e-01	0	42	104	0	30	32202
2026-01-13 12:25:45.49	222.10	64.66	-34.5	-53.5	3.8	7.44e-01	0	42	104	0	30	32141
2026-01-13 12:25:46.50	223.25	64.94	-34.5	-53.5	3.8	7.46e-01	0	42	104	0	30	32181
2026-01-13 12:25:47.50	224.41	65.22	-34.5	-53.5	3.8	7.48e-01	0	43	104	0	30	32062
2026-01-13 12:25:48.50	225.60	65.49	-34.5	-53.4	3.8	7.45e-01	0	42	104	0	30	31974
2026-01-13 12:25:49.51	226.84	65.74	-34.5	-53.5	3.8	7.45e-01	0	43	104	0	30	32133
2026-01-13 12:25:50.51	228.09	65.99	-34.5	-53.4	3.8	7.45e-01	0	42	104	0	30	32035
2026-01-13 12:25:51.52	229.38	66.23	-34.5	-53.5	3.8	7.41e-01	0	42	104	0	30	32096
2026-01-13 12:25:52.53	230.70	66.46	-34.5	-53.5	3.8	7.44e-01	0	42	104	0	30	32204
2026-01-13 12:25:53.54	232.05	66.68	-34.5	-53.5	3.8	7.47e-01	0	43	104	0	30	32151
2026-01-13 12:25:54.54	233.41	66.89	-34.5	-53.5	3.8	7.44e-01	0	42	104	0	30	32232
2026-01-13 12:25:55.55	234.81	67.08	-34.5	-53.5	3.8	7.45e-01	0	42	104	0	30	32197
2026-01-13 12:25:56.55	236.22	67.27	-34.5	-53.5	3.8	7.45e-01	0	42	104	0	30	32208
2026-01-13 12:25:57.56	237.67	67.44	-34.5	-53.5	3.8	7.46e-01	0	42	104	0	30	32210
2026-01-13 12:25:58.57	239.15	67.60	-34.5	-53.5	3.8	7.44e-01	0	43	104	0	30	32247
2026-01-13 12:25:59.57	240.63	67.74	-34.5	-53.5	3.8	7.45e-01	0	42	104	0	30	32152
2026-01-13 12:26:00.59	242.16	67.87	-34.5	-53.5	3.8	7.46e-01	0	42	104	0	30	32144
2026-01-13 12:26:01.60	243.70	67.99	-34.5	-53.5	3.8	7.48e-01	0	43	104	0	30	32258
2026-01-13 12:26:02.60	245.23	68.09	-34.5	-53.5	3.8	7.44e-01	0	42	104	0	30	32256
2026-01-13 12:26:03.60	246.78	68.18	-34.5	-53.5	3.8	7.46e-01	0	42	104	0	30	32190
2026-01-13 12:26:04.61	248.36	68.25	-34.5	-53.5	3.8	7.41e-01	0	42	104	0	30	32235
2026-01-13 12:26:05.61	249.93	68.31	-34.5	-53.5	3.8	7.46e-01	0	42	104	0	30	32114
2026-01-13 12:26:06.62	251.53	68.35	-34.5	-53.5	3.8	7.46e-01	0	42	104	0	30	32192
2026-01-13 12:26:07.62	253.12	68.38	-34.5	-53.5	3.8	7.46e-01	0	42	104	0	30	32247
2026-01-13 12:26:08.62	254.71	68.39	-34.5	-53.5	3.8	7.47e-01	0	43	104	0	30	32161
2026-01-13 12:26:09.63	256.31	68.39	-34.5	-53.5	3.8	7.49e-01	0	42	104	0	30	32174
2026-01-13 12:26:10.63	257.90	68.37	-34.5	-53.5	3.8	7.47e-01	0	42	104	0	30	32228
2026-01-13 12:26:11.64	259.50	68.33	-34.5	-53.5	3.8	7.42e-01	0	42	104	0	30	32194
2026-01-13 12:26:12.64	261.08	68.29	-34.5	-53.5	3.8	7.44e-01	0	42	104	0	30	32197
2026-01-13 12:26:13.65	262.66	68.22	-34.5	-53.5	3.8	7.45e-01	0	43	104	0	30	32151
2026-01-13 12:26:14.65	264.22	68.14	-34.5	-53.5	3.8	7.45e-01	0	42	104	0	30	32250
2026-01-13 12:26:15.66	265.78	68.05	-34.5	-53.5	3.8	7.39e-01	0	43	104	0	30	32194
2026-01-13 12:26:16.67	267.32	67.94	-34.5	-53.5	3.8	7.46e-01	0	42	104	0	30	32195
2026-01-13 12:26:17.68	268.85	67.82	-34.5	-53.5	3.8	7.45e-01	0	42	104	0	30	32138
2026-01-13 12:26:18.68	270.34	67.68	-34.5	-53.5	3.8	7.44e-01	0	43	104	0	30	32229
2026-01-13 12:26:19.69	271.83	67.53	-34.5	-53.5	3.8	7.48e-01	0	43	104	0	30	32215
2026-01-13 12:26:20.70	273.29	67.36	-34.5	-53.5	3.8	7.48e-01	0	42	104	0	30	32202
2026-01-13 12:26:21.70	274.72	67.19	-34.5	-53.5	3.8	7.43e-01	0	43	104	0	30	32179
2026-01-13 12:26:22.71	276.13	67.00	-34.5	-53.5	3.8	7.44e-01	0	43	104	0	30	32285
2026-01-13 12:26:23.71	277.51	66.80	-34.5	-53.5	3.8	7.42e-01	0	42	104	0	30	32215
2026-01-13 12:26:24.72	278.87	66.59	-34.5	-53.5	3.8	7.47e-01	0	42	104	0	30	32147
2026-01-13 12:26:25.74	280.21	66.36	-34.5	-53.5	3.8	7.46e-01	0	42	104	0	30	32171
2026-01-13 12:26:26.75	281.52	66.13	-34.5	-53.5	3.8	7.44e-01	0	42	104	0	30	32104
2026-01-13 12:26:27.76	282.80	65.88	-34.5	-53.5	3.8	7.44e-01	0	42	104	0	30	32144
2026-01-13 12:26:28.76	284.03	65.63	-34.5	-53.5	3.8	7.47e-01	0	42	104	0	30	32181
2026-01-13 12:26:29.76	285.24	65.37	-34.5	-53.5	3.8	7.48e-01	0	42	104	0	30	32112
2026-01-13 12:26:30.77	286.43	65.10	-34.5	-53.4	3.8	7.42e-01	0	42	104	0	30	32061
2026-01-13 12:26:31.78	287.59	64.82	-34.5	-53.4	3.8	7.42e-01	0	43	104	0	30	31975
2026-01-13 12:26:32.79	288.73	64.53	-34.5	-53.4	3.8	7.46e-01	0	42	104	0	30	31903
2026-01-13 12:26:33.80	289.83	64.24	-34.5	-53.4	3.8	7.46e-01	0	43	104	0	30	31920
2026-01-13 12:26:34.80	290.90	63.94	-34.5	-53.4	3.8	7.46e-01	0	42	104	0	30	31881
2026-01-13 12:26:35.81	291.94	63.63	-34.5	-53.4	3.8	7.45e-01	0	42	104	0	30	31958
2026-01-13 12:26:36.82	292.96	63.31	-34.5	-53.4	3.8	7.45e-01	0	43	104	0	30	31867
2026-01-13 12:26:37.83	293.96	62.99	-34.5	-53.5	3.8	7.48e-01	0	43	104	0	30	32063
2026-01-13 12:26:38.84	294.92	62.66	-34.5	-53.5	3.8	7.48e-01	0	42	104	0	30	32206
2026-01-13 12:26:39.85	295.87	62.33	-34.5	-53.5	3.8	7.48e-01	0	42	104	0	30	32131
2026-01-13 12:26:40.85	296.77	62.00	-34.5	-53.5	3.8	7.42e-01	0	42	104	0	30	32138
2026-01-13 12:26:41.85	297.65	61.66	-34.5	-53.5	3.8	7.47e-01	0	43	104	0	30	32103
2026-01-13 12:26:42.86	298.52	61.32	-34.5	-53.5	3.8	7.45e-01	0	42	104	0	30	32201
2026-01-13 12:26:43.87	299.36	60.97	-34.5	-53.5	3.8	7.44e-01	0	42	104	0	30	32185
2026-01-13 12:26:44.87	300.17	60.63	-34.5	-53.5	3.8	7.45e-01	0	42	104	0	30	32166
2026-01-13 12:26:45.88	300.97	60.27	-34.5	-53.5	3.8	7.47e-01	0	43	104	0	30	32223
2026-01-13 12:26:46.89	301.75	59.92	-34.5	-53.5	3.8	7.43e-01	0	42	104	0	30	32203
2026-01-13 12:26:47.89	302.49	59.56	-34.5	-53.5	3.8	7.44e-01	0	42	104	0	30	32232
2026-01-13 12:26:48.90	303.23	59.20	-34.5	-53.5	3.8	7.46e-01	0	42	104	0	30	32143
2026-01-13 12:26:49.90	303.93	58.84	-34.5	-53.5	3.8	7.46e-01	0	43	104	0	30	32193
2026-01-13 12:26:50.91	304.63	58.48	-34.5	-53.5	3.8	7.46e-01	0	42	104	0	30	32145
2026-01-13 12:26:51.92	305.31	58.11	-34.5	-53.5	3.8	7.45e-01	0	43	104	0	30	32144
2026-01-13 12:26:52.92	305.96	57.75	-34.5	-53.5	3.8	7.43e-01	0	42	104	0	30	32279
2026-01-13 12:26:53.93	306.60	57.38	-34.5	-53.5	3.8	7.45e-01	0	42	104	0	30	32168
2026-01-13 12:26:54.93	307.21	57.02	-34.5	-53.5	3.8	7.46e-01	0	43	104	0	30	32116
2026-01-13 12:26:55.94	307.82	56.65	-34.5	-53.5	3.8	7.46e-01	0	42	104	0	30	32154
2026-01-13 12:26:56.95	308.41	56.28	-34.5	-53.5	3.8	7.46e-01	0	42	104	0	30	32230
2026-01-13 12:26:57.96	308.99	55.91	-34.4	-53.5	3.8	7.47e-01	0	42	104	0	30	32176
2026-01-13 12:26:58.96	309.54	55.54	-34.5	-53.5	3.8	7.47e-01	0	42	104	0	30	32069
2026-01-13 12:26:59.97	310.09	55.17	-34.5	-53.5	3.8	7.47e-01	0	43	104	0	30	32215
2026-01-13 12:27:00.97	310.61	54.81	-34.5	-53.5	3.8	7.44e-01	0	43	104	0	30	32126
2026-01-13 12:27:01.98	311.13	54.44	-34.5	-53.4	3.8	7.46e-01	0	43	104	0	30	32057
2026-01-13 12:27:02.98	311.63	54.07	-34.5	-53.5	3.8	7.43e-01	0	42	104	0	30	32156
2026-01-13 12:27:03.99	312.12	53.71	-34.5	-53.5	3.8	7.45e-01	0	43	104	0	30	32178
2026-01-13 12:27:04.99	312.60	53.34	-34.5	-53.5	3.8	7.46e-01	0	42	104	0	30	32162
2026-01-13 12:27:06.00	313.07	52.98	-34.5	-53.5	3.8	7.45e-01	0	42	104	0	30	32169
2026-01-13 12:27:07.01	313.52	52.61	-34.5	-53.5	3.8	7.45e-01	0	42	104	0	30	32192
2026-01-13 12:27:08.02	313.97	52.25	-34.5	-53.5	3.8	7.44e-01	0	43	104	0	30	32255
2026-01-13 12:27:09.02	314.40	51.89	-34.5	-53.5	3.8	7.46e-01	0	42	104	0	30	32130
2026-01-13 12:27:10.03	314.82	51.53	-34.5	-53.5	3.8	7.46e-01	0	42	104	0	30	32149
2026-01-13 12:27:11.03	315.23	51.17	-34.5	-53.5	3.8	7.45e-01	0	42	104	0	30	32139
2026-01-13 12:27:12.04	315.64	50.81	-34.5	-53.5	3.8	7.48e-01	0	42	104	0	30	32137
2026-01-13 12:27:13.04	316.03	50.46	-34.5	-53.5	3.8	7.42e-01	0	42	104	0	30	32096
2026-01-13 12:27:14.04	316.41	50.10	-34.5	-53.5	3.8	7.48e-01	0	42	104	0	30	32078
2026-01-13 12:27:15.05	316.79	49.75	-34.5	-53.5	3.8	7.46e-01	0	42	104	0	30	32112
2026-01-13 12:27:16.06	317.15	49.40	-34.5	-53.5	3.8	7.46e-01	0	43	104	0	30	32114
2026-01-13 12:27:17.06	317.51	49.05	-34.5	-53.5	3.8	7.45e-01	0	42	104	0	30	32137
2026-01-13 12:27:18.06	317.86	48.70	-34.5	-53.5	3.8	7.45e-01	0	43	104	0	30	32129
2026-01-13 12:27:19.07	318.20	48.35	-34.5	-53.5	3.8	7.43e-01	0	43	104	0	30	32132
2026-01-13 12:27:20.07	318.53	48.01	-34.5	-53.5	3.8	7.44e-01	0	43	104	0	30	32122
2026-01-13 12:27:21.08	318.86	47.67	-34.5	-53.5	3.8	7.43e-01	0	43	104	0	30	32099
2026-01-13 12:27:22.08	319.18	47.33	-34.5	-53.5	3.8	7.41e-01	0	43	104	0	30	32107
2026-01-13 12:27:23.08	319.49	46.99	-34.5	-53.5	3.8	7.44e-01	0	43	104	0	30	32138
2026-01-13 12:27:24.09	319.80	46.65	-34.5	-53.5	3.8	7.46e-01	0	43	104	0	30	32130
2026-01-13 12:27:25.09	320.10	46.32	-34.5	-53.5	3.8	7.44e-01	0	42	104	0	30	32190
2026-01-13 12:27:26.10	320.40	45.99	-34.5	-53.5	3.8	7.41e-01	0	43	104	0	30	32133
2026-01-13 12:27:27.10	320.68	45.66	-34.5	-53.4	3.8	7.45e-01	0	43	104	0	30	32075
2026-01-13 12:27:28.11	320.97	45.33	-34.5	-53.5	3.8	7.44e-01	0	42	104	0	30	32172
2026-01-13 12:27:29.12	321.24	45.00	-34.4	-53.4	3.8	7.48e-01	0	43	104	0	30	32066
2026-01-13 12:27:30.12	321.51	44.68	-34.5	-53.4	3.8	7.47e-01	0	42	104	0	30	32040
2026-01-13 12:27:31.12	321.78	44.36	-34.5	-53.5	3.8	7.45e-01	0	43	104	0	30	32073
2026-01-13 12:27:32.13	322.04	44.04	-34.5	-53.5	3.8	7.48e-01	0	42	104	0	30	32082
2026-01-13 12:27:33.13	322.29	43.72	-34.5	-53.5	3.8	7.41e-01	0	42	104	0	30	32120
2026-01-13 12:27:34.14	322.54	43.40	-34.5	-53.5	3.8	7.45e-01	0	43	104	0	30	32123
2026-01-13 12:27:35.15	322.79	43.09	-34.5	-53.5	3.8	7.44e-01	0	42	104	0	30	32097
2026-01-13 12:27:36.15	323.03	42.78	-34.5	-53.5	3.8	7.46e-01	0	43	104	0	30	32063
2026-01-13 12:27:37.15	323.26	42.47	-34.5	-53.5	3.8	7.45e-01	0	42	104	0	30	32099
2026-01-13 12:27:38.16	323.49	42.16	-34.5	-53.4	3.8	7.44e-01	0	43	104	0	30	32030
2026-01-13 12:27:39.17	323.72	41.86	-34.5	-53.5	3.8	7.45e-01	0	43	104	0	30	32121
2026-01-13 12:27:40.17	323.94	41.56	-34.4	-53.4	3.8	7.44e-01	0	42	104	0	30	32103
2026-01-13 12:27:41.18	324.16	41.26	-34.5	-53.5	3.8	7.47e-01	0	42	104	0	30	32152
2026-01-13 12:27:42.19	324.38	40.96	-34.5	-53.5	3.8	7.45e-01	0	42	104	0	30	32184
2026-01-13 12:27:43.19	324.59	40.66	-34.5	-53.5	3.8	7.44e-01	0	42	104	0	30	32174
2026-01-13 12:27:44.20	324.79	40.37	-34.5	-53.5	3.8	7.44e-01	0	42	104	0	30	32131
2026-01-13 12:27:45.20	324.99	40.08	-34.5	-53.5	3.8	7.48e-01	0	43	104	0	30	32149
2026-01-13 12:27:46.21	325.20	39.79	-34.5	-53.5	3.8	7.45e-01	0	42	104	0	30	32144
2026-01-13 12:27:47.22	325.39	39.50	-34.5	-53.5	3.8	7.47e-01	0	42	104	0	30	32198
2026-01-13 12:27:48.23	325.59	39.21	-34.5	-53.5	3.8	7.47e-01	0	43	104	0	30	32240
2026-01-13 12:27:49.23	325.77	38.93	-34.5	-53.5	3.8	7.46e-01	0	43	104	0	30	32222
2026-01-13 12:27:50.24	325.96	38.65	-34.5	-53.5	3.8	7.46e-01	0	43	104	0	30	32203
2026-01-13 12:27:51.25	326.14	38.37	-34.5	-53.4	3.8	7.44e-01	0	43	104	0	30	32080
2026-01-13 12:27:52.26	326.32	38.09	-34.5	-53.5	3.8	7.45e-01	0	43	104	0	30	32206
2026-01-13 12:27:53.26	326.50	37.82	-34.4	-53.4	3.8	7.46e-01	0	42	104	0	30	32089
2026-01-13 12:27:54.27	326.67	37.54	-34.5	-53.5	3.8	7.48e-01	0	43	104	0	30	32157
2026-01-13 12:27:55.27	326.84	37.27	-34.5	-53.5	3.8	7.48e-01	0	43	104	0	30	32106
2026-01-13 12:27:56.28	327.01	37.00	-34.5	-53.4	3.8	7.42e-01	0	43	104	0	30	32060
2026-01-13 12:27:57.29	327.18	36.74	-34.5	-53.5	3.8	7.42e-01	0	42	104	0	30	32145
2026-01-13 12:27:58.30	327.34	36.47	-34.4	-53.4	3.8	7.47e-01	0	42	104	0	30	32093
2026-01-13 12:27:59.30	327.50	36.21	-34.5	-53.5	3.8	7.46e-01	0	43	104	0	30	32134
2026-01-13 12:28:00.30	327.66	35.95	-34.4	-53.5	3.8	7.41e-01	0	42	104	0	30	32122
2026-01-13 12:28:01.30	327.81	35.70	-34.5	-53.5	3.8	7.46e-01	0	43	104	0	30	32088
2026-01-13 12:28:02.31	327.97	35.44	-34.5	-53.5	3.8	7.43e-01	0	42	104	0	30	32198
2026-01-13 12:28:03.31	328.12	35.19	-34.5	-53.5	3.8	7.41e-01	0	42	104	0	30	32188
2026-01-13 12:28:04.31	328.26	34.93	-34.4	-53.4	3.8	7.49e-01	0	43	104	0	30	32067
2026-01-13 12:28:05.32	328.41	34.68	-34.4	-53.4	3.8	7.46e-01	0	43	104	0	30	32008
2026-01-13 12:28:06.32	328.55	34.44	-34.5	-53.4	3.8	7.46e-01	0	43	104	0	30	32037
2026-01-13 12:28:07.33	328.69	34.19	-34.4	-53.4	3.8	7.45e-01	0	43	104	0	30	31997
2026-01-13 12:28:08.34	328.83	33.94	-34.5	-53.4	3.8	7.44e-01	0	42	104	0	30	32070
2026-01-13 12:28:09.35	328.97	33.70	-34.5	-53.5	3.8	7.47e-01	0	43	104	0	30	32092
2026-01-13 12:28:10.36	329.11	33.46	-34.4	-53.4	3.8	7.45e-01	0	43	104	0	30	32035
2026-01-13 12:28:11.37	329.24	33.22	-34.5	-53.5	3.8	7.42e-01	0	42	104	0	30	32098
2026-01-13 12:28:12.38	329.37	32.98	-34.4	-53.4	3.8	7.46e-01	0	43	104	0	30	32078
2026-01-13 12:28:13.39	329.50	32.74	-34.4	-53.4	3.8	7.47e-01	0	42	104	0	30	32004
2026-01-13 12:28:14.40	329.63	32.51	-34.5	-53.4	3.8	7.47e-01	0	42	104	0	30	32074
2026-01-13 12:28:15.40	329.76	32.28	-34.4	-53.4	3.8	7.46e-01	0	42	104	0	30	32037
2026-01-13 12:28:16.41	329.88	32.05	-34.4	-53.4	3.8	7.43e-01	0	42	104	0	30	32095
2026-01-13 12:28:17.41	330.00	31.82	-34.4	-53.5	3.8	7.46e-01	0	42	104	0	30	32186
2026-01-13 12:28:18.41	330.12	31.60	-34.5	-53.5	3.8	7.44e-01	0	43	104	0	30	32129
2026-01-13 12:28:19.42	330.24	31.37	-34.4	-53.4	3.8	7.44e-01	0	42	104	0	30	32033
2026-01-13 12:28:20.42	330.36	31.15	-34.4	-53.4	3.8	7.46e-01	0	42	104	0	30	31957
2026-01-13 12:28:21.43	330.47	30.93	-34.4	-53.4	3.8	7.45e-01	0	43	104	0	30	31953
2026-01-13 12:28:22.44	330.59	30.71	-34.5	-53.4	3.8	7.46e-01	0	43	104	0	30	31833
2026-01-13 12:28:23.45	330.70	30.49	-34.4	-53.4	3.8	7.45e-01	0	42	104	0	30	31864
2026-01-13 12:28:24.45	330.81	30.27	-34.5	-53.4	3.8	7.46e-01	0	42	104	0	30	31973
2026-01-13 12:28:25.46	330.92	30.06	-34.4	-53.4	3.8	7.43e-01	0	42	104	0	30	32024
2026-01-13 12:28:26.47	331.03	29.84	-34.4	-53.5	3.8	7.42e-01	0	43	104	0	30	32129
2026-01-13 12:28:27.48	331.14	29.63	-34.4	-53.4	3.8	7.44e-01	0	43	104	0	30	32074
2026-01-13 12:28:28.49	331.24	29.42	-34.5	-53.5	3.8	7.45e-01	0	43	104	0	30	32168
2026-01-13 12:28:29.50	331.35	29.21	-34.5	-53.5	3.8	7.46e-01	0	42	104	0	30	32074
2026-01-13 12:28:30.51	331.45	29.00	-34.4	-53.4	3.8	7.44e-01	0	43	104	0	30	31995
2026-01-13 12:28:31.52	331.55	28.80	-34.4	-53.4	3.8	7.43e-01	0	42	104	0	30	31999
2026-01-13 12:28:32.53	331.65	28.59	-34.5	-53.4	3.8	7.46e-01	0	42	104	0	30	32000
2026-01-13 12:28:33.54	331.75	28.39	-34.4	-53.5	3.8	7.46e-01	0	42	104	0	30	32113
2026-01-13 12:28:34.54	331.85	28.19	-34.4	-53.4	3.8	7.43e-01	0	42	104	0	30	31969
2026-01-13 12:28:35.55	331.95	27.99	-34.5	-53.4	3.8	7.46e-01	0	43	104	0	30	32069
2026-01-13 12:28:36.56	332.04	27.79	-34.4	-53.4	3.8	7.42e-01	0	42	104	0	30	32076
2026-01-13 12:28:37.57	332.14	27.59	-34.4	-53.4	3.8	7.45e-01	0	42	104	0	30	32059
2026-01-13 12:28:38.57	332.23	27.40	-34.4	-53.5	3.8	7.48e-01	0	42	104	0	30	32144
2026-01-13 12:28:39.58	332.32	27.21	-34.4	-53.4	3.8	7.43e-01	0	42	104	0	30	32094
2026-01-13 12:28:40.59	332.41	27.01	-34.4	-53.4	3.8	7.44e-01	0	42	104	0	30	31994
2026-01-13 12:28:41.59	332.50	26.82	-34.4	-53.4	3.8	7.47e-01	0	42	104	0	30	32052
2026-01-13 12:28:42.60	332.59	26.63	-34.4	-53.4	3.8	7.47e-01	0	42	104	0	30	31998
2026-01-13 12:28:43.61	332.68	26.45	-34.4	-53.4	3.8	7.43e-01	0	43	104	0	30	32033
2026-01-13 12:28:44.61	332.76	26.26	-34.4	-53.4	3.8	7.43e-01	0	42	104	0	30	32083
2026-01-13 12:28:45.62	332.85	26.07	-34.4	-53.5	3.8	7.47e-01	0	43	104	0	30	32176
2026-01-13 12:28:46.62	332.94	25.89	-34.4	-53.5	3.8	7.45e-01	0	42	104	0	30	32147
2026-01-13 12:28:47.63	333.02	25.71	-34.4	-53.5	3.8	7.44e-01	0	42	104	0	30	32128
2026-01-13 12:28:48.64	333.10	25.53	-34.4	-53.4	3.8	7.47e-01	0	42	104	0	30	32093
2026-01-13 12:28:49.65	333.18	25.35	-34.2	-53.0	3.8	7.46e-01	0	42	104	0	30	31215
2026-01-13 12:28:50.65	333.26	25.17	-34.4	-53.4	3.8	7.44e-01	0	43	104	0	30	32041
2026-01-13 12:28:51.66	333.34	24.99	-34.4	-53.4	3.8	7.45e-01	0	43	104	0	30	32094
2026-01-13 12:28:52.67	333.42	24.81	-34.4	-53.4	3.8	7.47e-01	0	43	104	0	30	32005
2026-01-13 12:28:53.68	333.50	24.64	-34.4	-53.4	3.8	7.49e-01	0	42	104	0	30	31987
2026-01-13 12:28:54.68	333.58	24.46	-34.4	-53.4	3.8	7.45e-01	0	43	104	0	30	32023
2026-01-13 12:28:55.69	333.66	24.29	-34.4	-53.4	3.8	7.46e-01	0	43	104	0	30	32014
2026-01-13 12:28:56.69	333.73	24.12	-34.4	-53.4	3.8	7.46e-01	0	43	104	0	30	32039
2026-01-13 12:28:57.70	333.81	23.95	-34.5	-53.4	3.8	7.46e-01	0	43	104	0	30	31973
2026-01-13 12:28:58.71	333.88	23.78	-34.4	-53.4	3.8	7.47e-01	0	42	104	0	30	31991
2026-01-13 12:28:59.71	333.95	23.61	-34.4	-53.4	3.8	7.46e-01	0	43	104	0	30	32012
2026-01-13 12:29:00.72	334.03	23.45	-34.4	-53.4	3.8	7.42e-01	0	43	104	0	30	31974
2026-01-13 12:29:01.72	334.10	23.28	-34.4	-53.4	3.8	7.44e-01	0	42	104	0	30	32085
2026-01-13 12:29:02.73	334.17	23.12	-34.4	-53.4	3.8	7.44e-01	0	42	104	0	30	32050
2026-01-13 12:29:03.74	334.24	22.95	-34.4	-53.4	3.8	7.46e-01	0	42	104	0	30	32062
2026-01-13 12:29:04.74	334.31	22.79	-34.4	-53.4	3.8	7.45e-01	0	42	104	0	30	32037
2026-01-13 12:29:05.75	334.38	22.63	-34.4	-53.4	3.8	7.45e-01	0	43	104	0	30	32042
2026-01-13 12:29:06.76	334.45	22.47	-34.4	-53.4	3.8	7.45e-01	0	43	104	0	30	32084
2026-01-13 12:29:07.77	334.52	22.31	-34.4	-53.4	3.8	7.44e-01	0	42	104	0	30	32026
2026-01-13 12:29:08.77	334.58	22.15	-34.4	-53.4	3.8	7.49e-01	0	42	104	0	30	31959
2026-01-13 12:29:09.78	334.65	21.99	-34.4	-53.4	3.8	7.47e-01	0	42	104	0	30	32056
2026-01-13 12:29:10.79	334.71	21.84	-34.4	-53.4	3.8	7.44e-01	0	42	104	0	30	31946
2026-01-13 12:29:11.79	334.78	21.68	-34.4	-53.4	3.8	7.44e-01	0	43	104	0	30	32001
2026-01-13 12:29:12.80	334.84	21.53	-34.4	-53.4	3.8	7.47e-01	0	43	104	0	30	32082
2026-01-13 12:29:13.80	334.91	21.37	-34.4	-53.4	3.8	7.45e-01	0	43	104	0	30	32082
2026-01-13 12:29:14.80	334.97	21.22	-34.4	-53.4	3.8	7.43e-01	0	43	104	0	30	32114
2026-01-13 12:29:15.81	335.03	21.07	-34.4	-53.4	3.8	7.43e-01	0	43	104	0	30	32049
2026-01-13 12:29:16.82	335.09	20.92	-34.4	-53.4	3.8	7.45e-01	0	43	104	0	30	32001
2026-01-13 12:29:17.82	335.15	20.77	-34.4	-53.4	3.8	7.44e-01	0	43	104	0	30	32068
2026-01-13 12:29:18.83	335.22	20.62	-34.4	-53.4	3.8	7.43e-01	0	43	104	0	30	32122
2026-01-13 12:29:19.84	335.28	20.48	-34.4	-53.4	3.8	7.45e-01	0	43	104	0	30	32092
2026-01-13 12:29:20.85	335.34	20.33	-34.4	-53.4	3.8	7.43e-01	0	43	104	0	30	32035
2026-01-13 12:29:21.86	335.39	20.18	-34.4	-53.4	3.8	7.44e-01	0	42	104	0	30	31972
2026-01-13 12:29:22.87	335.45	20.04	-34.4	-53.4	3.8	7.48e-01	0	42	104	0	30	32047
2026-01-13 12:29:23.87	335.51	19.89	-34.4	-53.4	3.8	7.49e-01	0	43	104	0	30	31960
2026-01-13 12:29:24.88	335.57	19.75	-34.4	-53.4	3.8	7.47e-01	0	42	104	0	30	32074
2026-01-13 12:29:25.88	335.63	19.61	-34.4	-53.4	3.8	7.44e-01	0	43	104	0	30	31988
2026-01-13 12:29:26.89	335.68	19.47	-34.4	-53.4	3.8	7.48e-01	0	42	104	0	30	32083
2026-01-13 12:29:27.90	335.74	19.33	-34.4	-53.4	3.8	7.46e-01	0	43	104	0	30	32074
2026-01-13 12:29:28.91	335.79	19.19	-34.4	-53.4	3.8	7.45e-01	0	43	104	0	30	32053
2026-01-13 12:29:29.91	335.85	19.05	-34.4	-53.4	3.8	7.42e-01	0	43	104	0	30	32041
2026-01-13 12:29:30.92	335.90	18.91	-34.4	-53.5	3.8	7.45e-01	0	43	104	0	30	32135
2026-01-13 12:29:31.92	335.96	18.78	-34.4	-53.4	3.8	7.45e-01	0	42	104	0	30	32072
2026-01-13 12:29:32.93	336.01	18.64	-34.4	-53.4	3.8	7.45e-01	0	43	104	0	30	32059
2026-01-13 12:29:33.94	336.06	18.50	-34.4	-53.4	3.8	7.50e-01	0	42	104	0	30	32043
2026-01-13 12:29:34.94	336.12	18.37	-34.4	-53.4	3.8	7.44e-01	0	42	104	0	30	32008
2026-01-13 12:29:35.95	336.17	18.23	-34.4	-53.4	3.8	7.42e-01	0	42	104	0	30	32091
2026-01-13 12:29:36.96	336.22	18.10	-34.4	-53.4	3.8	7.43e-01	0	43	104	0	30	32018
2026-01-13 12:29:37.96	336.27	17.97	-34.4	-53.4	3.8	7.45e-01	0	42	104	0	30	32031
2026-01-13 12:29:38.96	336.32	17.84	-34.4	-53.4	3.8	7.48e-01	0	42	104	0	30	32109
2026-01-13 12:29:39.97	336.37	17.71	-34.4	-53.4	3.8	7.48e-01	0	43	104	0	30	32003
2026-01-13 12:29:40.97	336.42	17.58	-34.4	-53.4	3.8	7.48e-01	0	43	104	0	30	32062
2026-01-13 12:29:41.98	336.47	17.45	-34.4	-53.4	3.8	7.46e-01	0	43	104	0	30	32084
2026-01-13 12:29:42.99	336.52	17.32	-34.4	-53.4	3.8	7.49e-01	0	43	104	0	30	31975
2026-01-13 12:29:44.00	336.57	17.19	-34.4	-53.4	3.8	7.44e-01	0	43	104	0	30	32077
2026-01-13 12:29:45.00	336.62	17.07	-34.4	-53.4	3.8	7.46e-01	0	43	104	0	30	32048
2026-01-13 12:29:46.00	336.66	16.94	-34.4	-53.4	3.8	7.43e-01	0	43	104	0	30	31988
2026-01-13 12:29:47.01	336.71	16.81	-34.4	-53.4	3.8	7.46e-01	0	43	104	0	30	31979
2026-01-13 12:29:48.02	336.76	16.69	-34.4	-53.4	3.8	7.42e-01	0	43	104	0	30	31988
2026-01-13 12:29:49.03	336.81	16.56	-34.4	-53.4	3.8	7.45e-01	0	43	104	0	30	32044
2026-01-13 12:29:50.03	336.85	16.44	-34.4	-53.4	3.8	7.46e-01	0	43	104	0	30	31990
2026-01-13 12:29:51.04	336.90	16.32	-34.4	-53.4	3.8	7.45e-01	0	43	104	0	30	32047
2026-01-13 12:29:52.05	336.94	16.19	-34.4	-53.4	3.8	7.45e-01	0	42	104	0	30	32010
2026-01-13 12:29:53.06	336.99	16.07	-34.4	-53.4	3.8	7.42e-01	0	42	104	0	30	32069
2026-01-13 12:29:54.06	337.03	15.95	-34.4	-53.4	3.8	7.47e-01	0	43	104	0	30	32030
2026-01-13 12:29:55.07	337.08	15.83	-34.4	-53.4	3.8	7.45e-01	0	43	104	0	30	32030
2026-01-13 12:29:56.08	337.12	15.71	-34.4	-53.4	3.8	7.47e-01	0	43	104	0	30	32047
2026-01-13 12:29:57.09	337.17	15.59	-34.4	-53.4	3.8	7.43e-01	0	43	104	0	30	32037
2026-01-13 12:29:58.09	337.21	15.47	-34.4	-53.4	3.8	7.49e-01	0	43	104	0	30	31955
2026-01-13 12:29:59.10	337.25	15.36	-34.4	-53.4	3.8	7.44e-01	0	43	104	0	30	32062
2026-01-13 12:30:00.10	337.30	15.24	-34.4	-53.4	3.8	7.46e-01	0	43	104	0	30	31986
2026-01-13 12:30:01.11	337.34	15.12	-34.4	-53.4	3.8	7.42e-01	0	42	104	0	30	32059
2026-01-13 12:30:02.11	337.38	15.01	-34.4	-53.4	3.8	7.47e-01	0	43	104	0	30	32013
2026-01-13 12:30:03.11	337.42	14.89	-34.4	-53.4	3.8	7.44e-01	0	43	104	0	30	32054
2026-01-13 12:30:04.12	337.47	14.78	-34.4	-53.4	3.8	7.47e-01	0	42	104	0	30	32021
2026-01-13 12:30:05.13	337.51	14.66	-34.4	-53.4	3.8	7.45e-01	0	42	104	0	30	32047
2026-01-13 12:30:06.13	337.55	14.55	-34.4	-53.4	3.8	7.43e-01	0	43	104	0	30	32014
2026-01-13 12:30:07.14	337.59	14.44	-34.4	-53.4	3.8	7.45e-01	0	42	104	0	30	32089
2026-01-13 12:30:08.15	337.63	14.32	-34.4	-53.4	3.8	7.46e-01	0	43	104	0	30	32012
2026-01-13 12:30:09.15	337.67	14.21	-34.4	-53.4	3.8	7.47e-01	0	42	104	0	30	32029
2026-01-13 12:30:10.16	337.71	14.10	-34.4	-53.4	3.8	7.42e-01	0	43	104	0	30	32095
2026-01-13 12:30:11.16	337.75	13.99	-34.4	-53.4	3.8	7.45e-01	0	43	104	0	30	32038
2026-01-13 12:30:12.17	337.79	13.88	-34.4	-53.4	3.8	7.44e-01	0	42	104	0	30	32065
2026-01-13 12:30:13.17	337.83	13.77	-34.4	-53.4	3.8	7.47e-01	0	43	104	0	30	31968
2026-01-13 12:30:14.18	337.87	13.66	-34.4	-53.4	3.8	7.44e-01	0	43	104	0	30	32007
2026-01-13 12:30:15.19	337.91	13.55	-34.4	-53.4	3.8	7.44e-01	0	43	104	0	30	31997
2026-01-13 12:30:16.19	337.94	13.45	-34.4	-53.4	3.8	7.45e-01	0	43	104	0	30	32006
2026-01-13 12:30:17.20	337.98	13.34	-34.4	-53.4	3.8	7.46e-01	0	43	104	0	30	32054
2026-01-13 12:30:18.21	338.02	13.23	-34.4	-53.4	3.8	7.48e-01	0	43	104	0	30	32009
2026-01-13 12:30:19.22	338.06	13.12	-34.4	-53.4	3.8	7.48e-01	0	43	104	0	30	32078
2026-01-13 12:30:20.22	338.09	13.02	-34.4	-53.4	3.8	7.47e-01	0	43	104	0	30	32097
2026-01-13 12:30:21.22	338.13	12.91	-34.4	-53.4	3.8	7.44e-01	0	42	104	0	30	32071
2026-01-13 12:30:22.23	338.17	12.81	-34.4	-53.4	3.8	7.47e-01	0	42	104	0	30	32007
2026-01-13 12:30:23.24	338.20	12.70	-34.4	-53.4	3.8	7.47e-01	0	43	104	0	30	32055
2026-01-13 12:30:24.24	338.24	12.60	-34.4	-53.4	3.8	7.44e-01	0	42	104	0	30	32095
2026-01-13 12:30:25.25	338.28	12.50	-34.4	-53.4	3.8	7.44e-01	0	43	104	0	30	32162
2026-01-13 12:30:26.25	338.31	12.39	-34.4	-53.4	3.8	7.44e-01	0	43	104	0	30	32119
2026-01-13 12:30:27.26	338.35	12.29	-34.4	-53.5	3.8	7.44e-01	0	43	104	0	30	32110
2026-01-13 12:30:28.27	338.38	12.19	-34.4	-53.5	3.8	7.46e-01	0	43	104	0	30	32119
2026-01-13 12:30:29.27	338.42	12.09	-34.4	-53.5	3.8	7.43e-01	0	43	104	0	30	32148
2026-01-13 12:30:30.28	338.45	11.99	-34.4	-53.5	3.8	7.43e-01	0	42	104	0	30	32126
2026-01-13 12:30:31.28	338.49	11.89	-34.4	-53.4	3.8	7.47e-01	0	43	104	0	30	32092
2026-01-13 12:30:32.29	338.52	11.79	-34.4	-53.5	3.8	7.46e-01	0	43	104	0	30	32170
2026-01-13 12:30:33.30	338.56	11.69	-34.5	-53.5	3.8	7.46e-01	0	43	104	0	30	32103
2026-01-13 12:30:34.31	338.59	11.59	-34.4	-53.4	3.8	7.46e-01	0	43	104	0	30	32102
2026-01-13 12:30:35.32	338.62	11.49	-34.4	-53.5	3.8	7.46e-01	0	43	104	0	30	32115
2026-01-13 12:30:36.32	338.66	11.39	-34.4	-53.5	3.8	7.46e-01	0	43	104	0	30	32166
2026-01-13 12:30:37.34	338.69	11.29	-34.4	-53.5	3.8	7.45e-01	0	43	104	0	30	32143
2026-01-13 12:30:38.34	338.72	11.19	-34.4	-53.5	3.8	7.47e-01	0	42	104	0	30	32150
2026-01-13 12:30:39.35	338.76	11.09	-34.4	-53.5	3.8	7.48e-01	0	43	104	0	30	32154
2026-01-13 12:30:40.35	338.79	11.00	-34.4	-53.4	3.8	7.46e-01	0	42	104	0	30	32114
2026-01-13 12:30:41.36	338.82	10.90	-34.5	-53.5	3.8	7.47e-01	0	42	104	0	30	32149
2026-01-13 12:30:42.37	338.85	10.81	-34.4	-53.5	3.8	7.48e-01	0	43	104	0	30	32169
2026-01-13 12:30:43.38	338.89	10.71	-34.4	-53.5	3.8	7.43e-01	0	43	104	0	30	32157
2026-01-13 12:30:44.38	338.92	10.61	-34.4	-53.4	3.8	7.44e-01	0	43	104	0	30	32115
2026-01-13 12:30:45.39	338.95	10.52	-34.4	-53.5	3.8	7.43e-01	0	43	104	0	30	32124
2026-01-13 12:30:46.40	338.98	10.43	-34.4	-53.5	3.8	7.44e-01	0	43	104	0	30	32146
2026-01-13 12:30:47.40	339.01	10.33	-34.5	-53.5	3.8	7.45e-01	0	42	104	0	30	32162
2026-01-13 12:30:48.41	339.04	10.24	-34.4	-53.4	3.8	7.45e-01	0	43	104	0	30	32070
2026-01-13 12:30:49.42	339.07	10.14	-34.5	-53.5	3.8	7.45e-01	0	42	104	0	30	32125
2026-01-13 12:30:50.42	339.11	10.05	-34.4	-53.5	3.8	7.44e-01	0	42	104	0	30	32176
2026-01-13 12:30:51.43	339.14	9.96	-34.5	-53.5	3.8	7.45e-01	0	43	104	0	30	32205
2026-01-13 12:30:52.44	339.17	9.87	-34.4	-53.5	3.8	7.48e-01	0	43	104	0	30	32231
2026-01-13 12:30:53.45	339.20	9.78	-34.5	-53.5	3.8	7.49e-01	0	43	104	0	30	32253
2026-01-13 12:30:54.46	339.23	9.68	-34.5	-53.5	3.8	7.44e-01	0	43	104	0	30	32151
2026-01-13 12:30:55.47	339.26	9.59	-34.4	-53.5	3.8	7.42e-01	0	43	104	0	30	32160
2026-01-13 12:30:56.47	339.29	9.50	-34.5	-53.5	3.8	7.46e-01	0	43	104	0	30	32085
2026-01-13 12:30:57.48	339.32	9.41	-34.4	-53.5	3.8	7.44e-01	0	43	104	0	30	32114
2026-01-13 12:30:58.49	339.35	9.32	-34.5	-53.5	3.8	7.46e-01	0	43	104	0	30	32238
2026-01-13 12:30:59.50	339.38	9.23	-34.4	-53.5	3.8	7.42e-01	0	42	104	0	30	32156
2026-01-13 12:31:00.51	339.40	9.14	-34.4	-53.5	3.8	7.44e-01	0	43	104	0	30	32132
2026-01-13 12:31:01.51	339.43	9.05	-34.4	-53.5	3.8	7.48e-01	0	43	104	0	30	32123
2026-01-13 12:31:02.51	339.46	8.97	-34.5	-53.5	3.8	7.44e-01	0	42	104	0	30	32153
2026-01-13 12:31:03.52	339.49	8.88	-34.4	-53.5	3.8	7.45e-01	0	43	104	0	30	32131
2026-01-13 12:31:04.53	339.52	8.79	-34.4	-53.5	3.8	7.48e-01	0	42	104	0	30	32247
2026-01-13 12:31:05.54	339.55	8.70	-34.5	-53.5	3.8	7.46e-01	0	43	104	0	30	32109
2026-01-13 12:31:06.55	339.58	8.62	-34.4	-53.5	3.8	7.45e-01	0	43	104	0	30	32171
2026-01-13 12:31:07.56	339.60	8.53	-34.4	-53.5	3.8	7.46e-01	0	42	104	0	30	32153
2026-01-13 12:31:08.56	339.63	8.44	-34.4	-53.5	3.8	7.42e-01	0	43	104	0	30	32130
2026-01-13 12:31:09.57	339.66	8.36	-34.5	-53.5	3.8	7.44e-01	0	42	104	0	30	32133
2026-01-13 12:31:10.58	339.69	8.27	-34.4	-53.4	3.8	7.46e-01	0	43	104	0	30	32084
2026-01-13 12:31:11.58	339.71	8.19	-34.4	-53.4	3.8	7.44e-01	0	43	104	0	30	32111
2026-01-13 12:31:12.60	339.74	8.10	-34.4	-53.5	3.8	7.45e-01	0	42	104	0	30	32151
2026-01-13 12:31:13.60	339.77	8.01	-34.4	-53.5	3.8	7.45e-01	0	42	104	0	30	32172
2026-01-13 12:31:14.61	339.80	7.93	-34.4	-53.5	3.8	7.45e-01	0	43	104	0	30	32157
2026-01-13 12:31:15.60	339.82	7.85	-34.4	-53.4	3.8	7.45e-01	0	43	104	0	30	32119
2026-01-13 12:31:16.61	339.85	7.76	-34.4	-53.5	3.8	7.48e-01	0	42	104	0	30	32162
2026-01-13 12:31:17.61	339.87	7.68	-34.4	-53.4	3.8	7.45e-01	0	42	104	0	30	32091
2026-01-13 12:31:18.62	339.90	7.60	-34.4	-53.5	3.8	7.47e-01	0	42	104	0	30	32156
2026-01-13 12:31:19.62	339.93	7.51	-34.4	-53.5	3.8	7.45e-01	0	43	104	0	30	32130
2026-01-13 12:31:20.63	339.95	7.43	-34.4	-53.5	3.8	7.45e-01	0	43	104	0	30	32135
2026-01-13 12:31:21.64	339.98	7.35	-34.4	-53.5	3.8	7.44e-01	0	43	104	0	30	32163
2026-01-13 12:31:22.65	340.01	7.27	-34.4	-53.5	3.8	7.46e-01	0	43	104	0	30	32125
2026-01-13 12:31:23.66	340.03	7.18	-34.4	-53.4	3.8	7.46e-01	0	43	104	0	30	32093
2026-01-13 12:31:24.67	340.06	7.10	-34.4	-53.5	3.8	7.44e-01	0	42	104	0	30	32110
2026-01-13 12:31:25.68	340.08	7.02	-34.4	-53.5	3.8	7.46e-01	0	43	104	0	30	32131

#Closed at: 2026-01-13 12:31:26
#Recorded file [0 MB]: D:/data/31010_260113_152054.dat