passes_logs/2026/01/13/R2M6_AANII_01/R2M6_AANII_01__20260113_111617_NOAA_21_JPSS-2_rec.log

#Pass ID: 20260113_111617_NOAA 21 (JPSS-2)
#Satellite: NOAA 21 (JPSS-2)
#Configuration: NOAA 21
#almurnet v.1.7.20240730
#Start time: 2026-01-13 11:16:30

#Version: 2.2.20231116
#Station: R2M6_AANII_01
#Location: 30.233357 lon 59.946436 lat
#TLE: 1 54234U 22150A   26012.26378519  .00000063  00000+0  50547-4 0  9993
#TLE: 2 54234  98.7495 313.1967 0000726 309.1075  51.0036 14.19534275164425

#Time	Az	El	Level	Level2	SNR	BER	BlckErr	Temp	State	Recorded	gain1	gain2
2026-01-13 11:16:30.76	191.20	7.96	-34.0	-44.6	3.8	8.46e-01	0	42	0	0	29	12186
2026-01-13 11:16:31.76	191.27	8.04	-34.0	-45.4	3.8	1.49e+00	0	43	104	0	29	13369
2026-01-13 11:16:32.77	191.33	8.11	-34.0	-45.4	3.8	1.49e+00	0	42	104	0	29	13320
2026-01-13 11:16:33.78	191.39	8.19	-34.0	-45.4	3.8	1.49e+00	0	42	104	0	29	13355
2026-01-13 11:16:34.79	191.45	8.27	-34.0	-45.4	3.8	1.49e+00	0	43	104	0	29	13327
2026-01-13 11:16:35.80	191.52	8.34	-34.0	-45.4	3.8	1.49e+00	0	43	104	0	29	13327
2026-01-13 11:16:36.80	191.58	8.42	-34.0	-45.4	3.8	1.49e+00	0	42	104	0	29	13346
2026-01-13 11:16:37.81	191.65	8.49	-34.0	-45.4	3.8	1.49e+00	0	43	104	0	29	13332
2026-01-13 11:16:38.82	191.71	8.57	-34.0	-45.4	3.8	1.49e+00	0	42	104	0	29	13335
2026-01-13 11:16:39.83	191.78	8.65	-34.0	-45.4	3.8	1.49e+00	0	42	104	0	29	13354
2026-01-13 11:16:40.84	191.84	8.73	-34.0	-45.4	3.8	1.49e+00	0	42	104	0	29	13273
2026-01-13 11:16:41.84	191.91	8.80	-34.0	-45.4	3.8	1.49e+00	0	43	104	0	29	13340
2026-01-13 11:16:42.84	191.97	8.88	-34.0	-45.4	3.8	1.49e+00	0	42	104	0	29	13311
2026-01-13 11:16:43.85	192.04	8.96	-34.0	-45.4	3.8	1.49e+00	0	43	104	0	29	13334
2026-01-13 11:16:44.86	192.11	9.04	-34.0	-45.4	3.8	1.49e+00	0	42	104	0	29	13331
2026-01-13 11:16:45.87	192.17	9.12	-34.0	-45.4	3.8	1.49e+00	0	43	104	0	29	13301
2026-01-13 11:16:46.88	192.24	9.20	-34.0	-45.4	3.8	1.49e+00	0	42	104	0	29	13343
2026-01-13 11:16:47.89	192.31	9.27	-34.0	-45.4	3.8	1.49e+00	0	43	104	0	29	13311
2026-01-13 11:16:48.90	192.38	9.35	-34.0	-45.4	3.8	1.49e+00	0	42	104	0	29	13328
2026-01-13 11:16:49.90	192.44	9.43	-34.0	-45.4	3.8	1.49e+00	0	42	104	0	29	13293
2026-01-13 11:16:50.90	192.51	9.51	-34.0	-45.4	3.8	1.49e+00	0	42	104	0	29	13335
2026-01-13 11:16:51.91	192.58	9.59	-34.0	-45.4	3.8	1.49e+00	0	42	104	0	29	13322
2026-01-13 11:16:52.91	192.65	9.67	-34.0	-45.4	3.8	1.49e+00	0	43	104	0	29	13307
2026-01-13 11:16:53.91	192.72	9.75	-34.0	-45.4	3.8	1.49e+00	0	43	104	0	29	13354
2026-01-13 11:16:54.92	192.79	9.83	-34.0	-45.4	3.8	1.49e+00	0	43	104	0	29	13335
2026-01-13 11:16:55.92	192.86	9.91	-34.0	-45.4	3.8	1.49e+00	0	43	104	0	29	13347
2026-01-13 11:16:56.94	192.93	9.99	-34.0	-45.4	3.8	1.49e+00	0	43	104	0	29	13318
2026-01-13 11:16:57.94	193.00	10.07	-34.0	-45.4	3.8	1.49e+00	0	42	104	0	29	13323
2026-01-13 11:16:58.94	193.07	10.15	-34.0	-45.4	3.8	1.49e+00	0	42	104	0	29	13337
2026-01-13 11:16:59.95	193.14	10.24	-34.0	-45.4	3.8	1.49e+00	0	43	104	0	29	13342
2026-01-13 11:17:00.95	193.22	10.32	-34.0	-45.4	3.8	1.49e+00	0	43	104	0	29	13321
2026-01-13 11:17:01.96	193.29	10.40	-34.0	-45.4	3.8	1.49e+00	0	42	104	0	29	13361
2026-01-13 11:17:02.96	193.36	10.48	-34.0	-45.4	3.8	1.49e+00	0	43	104	0	29	13346
2026-01-13 11:17:03.96	193.43	10.56	-34.0	-45.4	3.8	1.49e+00	0	42	104	0	29	13339
2026-01-13 11:17:04.97	193.51	10.65	-34.0	-45.4	3.8	1.49e+00	0	43	104	0	29	13324
2026-01-13 11:17:05.98	193.58	10.73	-34.0	-45.4	3.8	1.49e+00	0	43	104	0	29	13338
2026-01-13 11:17:06.98	193.66	10.81	-34.0	-45.4	3.8	1.49e+00	0	43	104	0	29	13345
2026-01-13 11:17:07.99	193.73	10.89	-34.0	-45.4	3.8	1.49e+00	0	43	104	0	29	13337
2026-01-13 11:17:09.00	193.81	10.98	-34.0	-45.4	3.8	1.49e+00	0	43	104	0	29	13354
2026-01-13 11:17:10.00	193.88	11.06	-34.0	-45.4	3.8	1.49e+00	0	43	104	0	29	13381
2026-01-13 11:17:11.00	193.96	11.15	-34.0	-45.4	3.8	1.49e+00	0	43	104	0	29	13339
2026-01-13 11:17:12.00	194.04	11.23	-34.0	-45.4	3.8	1.49e+00	0	42	104	0	29	13365
2026-01-13 11:17:13.02	194.11	11.32	-34.0	-45.4	3.8	1.49e+00	0	43	104	0	29	13369
2026-01-13 11:17:14.02	194.19	11.40	-34.0	-45.4	3.8	1.49e+00	0	43	104	0	29	13375
2026-01-13 11:17:15.04	194.27	11.49	-34.0	-45.4	3.8	1.49e+00	0	42	104	0	29	13330
2026-01-13 11:17:16.04	194.35	11.57	-34.0	-45.4	3.8	1.49e+00	0	43	104	0	29	13294
2026-01-13 11:17:17.05	194.43	11.66	-34.0	-45.4	3.8	1.49e+00	0	43	104	0	29	13344
2026-01-13 11:17:18.06	194.51	11.74	-34.0	-45.4	3.8	1.49e+00	0	43	104	0	29	13338
2026-01-13 11:17:19.06	194.59	11.83	-34.0	-45.4	3.8	1.49e+00	0	43	104	0	29	13306
2026-01-13 11:17:20.07	194.67	11.91	-34.0	-45.4	3.8	1.49e+00	0	43	104	0	29	13331
2026-01-13 11:17:21.08	194.75	12.00	-34.0	-45.4	3.8	1.49e+00	0	43	104	0	29	13348
2026-01-13 11:17:22.08	194.83	12.09	-34.0	-45.4	3.8	1.49e+00	0	42	104	0	29	13354
2026-01-13 11:17:23.09	194.91	12.18	-34.0	-45.4	3.8	1.49e+00	0	42	104	0	29	13378
2026-01-13 11:17:24.09	194.99	12.26	-34.0	-45.4	3.8	1.49e+00	0	43	104	0	29	13337
2026-01-13 11:17:25.10	195.07	12.35	-34.0	-45.4	3.8	1.49e+00	0	43	104	0	29	13382
2026-01-13 11:17:26.10	195.16	12.44	-34.0	-45.4	3.8	1.49e+00	0	43	104	0	29	13355
2026-01-13 11:17:27.11	195.24	12.53	-34.0	-45.4	3.8	1.49e+00	0	43	104	0	29	13291
2026-01-13 11:17:28.12	195.32	12.61	-34.0	-45.4	3.8	1.49e+00	0	43	104	0	29	13345
2026-01-13 11:17:29.13	195.41	12.70	-34.0	-45.4	3.8	1.49e+00	0	43	104	0	29	13359
2026-01-13 11:17:30.13	195.49	12.79	-34.0	-45.4	3.8	1.49e+00	0	43	104	0	29	13379
2026-01-13 11:17:31.13	195.58	12.88	-34.0	-45.4	3.8	1.49e+00	0	43	104	0	29	13327
2026-01-13 11:17:32.14	195.66	12.97	-34.0	-45.4	3.8	1.49e+00	0	42	104	0	29	13350
2026-01-13 11:17:33.15	195.75	13.06	-34.0	-45.4	3.8	1.49e+00	0	42	104	0	29	13314
2026-01-13 11:17:34.16	195.84	13.15	-34.0	-45.4	3.8	1.49e+00	0	42	104	0	29	13364
2026-01-13 11:17:35.17	195.93	13.24	-34.0	-45.4	3.8	1.49e+00	0	42	104	0	29	13374
2026-01-13 11:17:36.18	196.01	13.33	-34.0	-45.4	3.8	1.49e+00	0	42	104	0	29	13373
2026-01-13 11:17:37.19	196.10	13.42	-34.0	-45.4	3.8	1.49e+00	0	43	104	0	29	13335
2026-01-13 11:17:38.19	196.19	13.51	-34.0	-45.4	3.8	1.49e+00	0	42	104	0	29	13366
2026-01-13 11:17:39.20	196.28	13.61	-34.0	-45.4	3.8	1.49e+00	0	42	104	0	29	13301
2026-01-13 11:17:40.21	196.37	13.70	-34.0	-45.5	3.8	1.49e+00	0	43	104	0	29	13395
2026-01-13 11:17:41.21	196.46	13.79	-34.0	-45.4	3.8	1.49e+00	0	43	104	0	29	13300
2026-01-13 11:17:42.22	196.55	13.88	-34.0	-45.4	3.8	1.49e+00	0	43	104	0	29	13340
2026-01-13 11:17:43.23	196.64	13.98	-34.0	-45.4	3.8	1.49e+00	0	43	104	0	29	13326
2026-01-13 11:17:44.24	196.74	14.07	-34.0	-45.4	3.8	1.49e+00	0	42	104	0	29	13346
2026-01-13 11:17:45.24	196.83	14.16	-34.0	-45.4	3.8	1.49e+00	0	43	104	0	29	13369
2026-01-13 11:17:46.25	196.92	14.26	-34.0	-45.4	3.8	1.49e+00	0	43	104	0	29	13333
2026-01-13 11:17:47.24	197.01	14.35	-34.0	-45.4	3.8	1.49e+00	0	43	104	0	29	13359
2026-01-13 11:17:48.25	197.11	14.44	-34.0	-45.4	3.8	1.49e+00	0	43	104	0	29	13378
2026-01-13 11:17:49.26	197.20	14.54	-34.0	-45.4	3.8	1.49e+00	0	42	104	0	29	13391
2026-01-13 11:17:50.26	197.30	14.63	-34.0	-45.4	3.8	1.49e+00	0	42	104	0	29	13348
2026-01-13 11:17:51.27	197.40	14.73	-34.0	-45.5	3.8	1.49e+00	0	42	104	0	29	13415
2026-01-13 11:17:52.28	197.49	14.82	-34.0	-45.4	3.8	1.49e+00	0	43	104	0	29	13380
2026-01-13 11:17:53.28	197.59	14.92	-34.0	-45.4	3.8	1.49e+00	0	42	104	0	29	13322
2026-01-13 11:17:54.28	197.69	15.01	-34.0	-45.4	3.8	1.49e+00	0	43	104	0	29	13328
2026-01-13 11:17:55.28	197.78	15.11	-34.0	-45.4	3.8	1.49e+00	0	43	104	0	29	13371
2026-01-13 11:17:56.29	197.88	15.20	-34.0	-45.4	3.8	1.49e+00	0	43	104	0	29	13321
2026-01-13 11:17:57.30	197.98	15.30	-34.0	-45.4	3.8	1.49e+00	0	43	104	0	29	13358
2026-01-13 11:17:58.29	198.08	15.40	-34.0	-45.4	3.8	1.49e+00	0	42	104	0	29	13329
2026-01-13 11:17:59.30	198.18	15.49	-34.0	-45.4	3.8	1.49e+00	0	42	104	0	29	13364
2026-01-13 11:18:00.31	198.29	15.59	-34.0	-45.4	3.8	1.49e+00	0	43	104	0	29	13337
2026-01-13 11:18:01.31	198.39	15.69	-34.0	-45.4	3.8	1.49e+00	0	42	104	0	29	13368
2026-01-13 11:18:02.32	198.49	15.79	-34.0	-45.4	3.8	1.49e+00	0	43	104	0	29	13383
2026-01-13 11:18:03.33	198.59	15.89	-34.0	-45.4	3.8	1.49e+00	0	43	104	0	29	13361
2026-01-13 11:18:04.34	198.70	15.99	-34.0	-45.4	3.8	1.49e+00	0	43	104	0	29	13346
2026-01-13 11:18:05.34	198.80	16.09	-34.0	-45.4	3.8	1.49e+00	0	43	104	0	29	13339
2026-01-13 11:18:06.35	198.91	16.19	-34.0	-45.4	3.8	1.49e+00	0	43	104	0	29	13381
2026-01-13 11:18:07.35	199.01	16.28	-34.0	-45.4	3.8	1.49e+00	0	43	104	0	29	13375
2026-01-13 11:18:08.36	199.12	16.39	-34.0	-45.4	3.8	1.49e+00	0	43	104	0	29	13366
2026-01-13 11:18:09.37	199.23	16.49	-34.0	-45.4	3.8	1.49e+00	0	43	104	0	29	13349
2026-01-13 11:18:10.38	199.34	16.59	-34.0	-45.4	3.8	1.49e+00	0	43	104	0	29	13347
2026-01-13 11:18:11.39	199.45	16.69	-34.0	-45.4	3.8	1.49e+00	0	43	104	0	29	13350
2026-01-13 11:18:12.39	199.56	16.79	-34.0	-45.4	3.8	1.49e+00	0	42	104	0	29	13345
2026-01-13 11:18:13.40	199.67	16.89	-34.0	-45.4	3.8	1.49e+00	0	43	104	0	29	13346
2026-01-13 11:18:14.40	199.78	16.99	-34.0	-45.5	3.8	1.49e+00	0	42	104	0	29	13391
2026-01-13 11:18:15.40	199.89	17.10	-34.0	-45.4	3.8	1.49e+00	0	42	104	0	29	13298
2026-01-13 11:18:16.41	200.00	17.20	-34.0	-45.4	3.8	1.49e+00	0	43	104	0	29	13294
2026-01-13 11:18:17.41	200.11	17.30	-34.0	-45.4	3.8	1.49e+00	0	42	104	0	29	13366
2026-01-13 11:18:18.41	200.23	17.40	-34.0	-45.4	3.8	1.49e+00	0	43	104	0	29	13331
2026-01-13 11:18:19.42	200.34	17.51	-34.0	-45.4	3.8	1.49e+00	0	43	104	0	29	13330
2026-01-13 11:18:20.43	200.46	17.61	-34.0	-45.5	3.8	1.49e+00	0	43	104	0	29	13410
2026-01-13 11:18:21.44	200.58	17.72	-34.0	-45.4	3.8	1.49e+00	0	43	104	0	29	13348
2026-01-13 11:18:22.44	200.69	17.82	-34.0	-45.4	3.8	1.49e+00	0	43	104	0	29	13380
2026-01-13 11:18:23.45	200.81	17.93	-34.0	-45.4	3.8	1.49e+00	0	43	104	0	29	13349
2026-01-13 11:18:24.46	200.93	18.03	-34.0	-45.4	3.8	1.49e+00	0	43	104	0	29	13323
2026-01-13 11:18:25.46	201.05	18.14	-34.0	-45.4	3.8	1.49e+00	0	43	104	0	29	13338
2026-01-13 11:18:26.47	201.17	18.24	-34.0	-45.4	3.8	1.49e+00	0	43	104	0	29	13344
2026-01-13 11:18:27.48	201.29	18.35	-34.0	-45.4	3.8	1.49e+00	0	43	104	0	29	13308
2026-01-13 11:18:28.48	201.41	18.46	-34.0	-45.4	3.8	1.49e+00	0	43	104	0	29	13350
2026-01-13 11:18:29.49	201.54	18.56	-34.0	-45.4	3.8	1.49e+00	0	43	104	0	29	13343
2026-01-13 11:18:30.50	201.66	18.67	-34.0	-45.4	3.8	1.49e+00	0	43	104	0	29	13306
2026-01-13 11:18:31.50	201.78	18.78	-34.0	-45.4	3.8	1.49e+00	0	43	104	0	29	13301
2026-01-13 11:18:32.51	201.91	18.89	-34.0	-45.4	3.8	1.49e+00	0	43	104	0	29	13369
2026-01-13 11:18:33.52	202.04	19.00	-34.0	-45.4	3.8	1.49e+00	0	43	104	0	29	13321
2026-01-13 11:18:34.53	202.16	19.11	-34.0	-45.4	3.8	1.49e+00	0	43	104	0	29	13286
2026-01-13 11:18:35.53	202.29	19.21	-34.0	-45.4	3.8	1.49e+00	0	43	104	0	29	13326
2026-01-13 11:18:36.54	202.42	19.32	-34.0	-45.4	3.8	1.49e+00	0	42	104	0	29	13349
2026-01-13 11:18:37.55	202.55	19.44	-34.0	-45.4	3.8	1.49e+00	0	42	104	0	29	13319
2026-01-13 11:18:38.55	202.68	19.54	-34.0	-45.4	3.8	1.49e+00	0	43	104	0	29	13319
2026-01-13 11:18:39.56	202.81	19.66	-34.0	-45.4	3.8	1.49e+00	0	42	104	0	29	13339
2026-01-13 11:18:40.57	202.95	19.77	-34.0	-45.4	3.8	1.49e+00	0	43	104	0	29	13296
2026-01-13 11:18:41.58	203.08	19.88	-34.0	-45.4	3.8	1.49e+00	0	43	104	0	29	13330
2026-01-13 11:18:42.58	203.21	19.99	-34.0	-45.4	3.8	1.49e+00	0	43	104	0	29	13353
2026-01-13 11:18:43.59	203.35	20.10	-34.0	-45.4	3.8	1.49e+00	0	42	104	0	29	13327
2026-01-13 11:18:44.60	203.49	20.21	-34.0	-45.4	3.8	1.49e+00	0	43	104	0	29	13350
2026-01-13 11:18:45.60	203.62	20.33	-34.0	-45.4	3.8	1.49e+00	0	43	104	0	29	13328
2026-01-13 11:18:46.61	203.76	20.44	-34.0	-45.4	3.8	1.49e+00	0	43	104	0	29	13339
2026-01-13 11:18:47.62	203.90	20.55	-34.0	-45.4	3.8	1.49e+00	0	43	104	0	29	13349
2026-01-13 11:18:48.61	204.04	20.67	-34.0	-45.4	3.8	1.49e+00	0	42	104	0	29	13293
2026-01-13 11:18:49.62	204.18	20.78	-34.0	-45.4	3.8	1.49e+00	0	43	104	0	29	13369
2026-01-13 11:18:50.63	204.32	20.89	-34.0	-45.4	3.8	1.49e+00	0	42	104	0	29	13332
2026-01-13 11:18:51.64	204.47	21.01	-34.0	-45.4	3.8	1.49e+00	0	43	104	0	29	13308
2026-01-13 11:18:52.64	204.61	21.12	-34.0	-45.4	3.8	1.49e+00	0	42	104	0	29	13331
2026-01-13 11:18:53.65	204.76	21.24	-34.0	-45.4	3.8	1.49e+00	0	43	104	0	29	13368
2026-01-13 11:18:54.66	204.90	21.36	-34.0	-45.4	3.8	1.49e+00	0	43	104	0	29	13299
2026-01-13 11:18:55.66	205.05	21.47	-34.0	-45.4	3.8	1.49e+00	0	43	104	0	29	13320
2026-01-13 11:18:56.66	205.20	21.59	-34.0	-45.4	3.8	1.49e+00	0	43	104	0	29	13286
2026-01-13 11:18:57.67	205.35	21.70	-34.0	-45.4	3.8	1.49e+00	0	42	104	0	29	13318
2026-01-13 11:18:58.68	205.50	21.82	-34.0	-45.4	3.8	1.49e+00	0	43	104	0	29	13325
2026-01-13 11:18:59.69	205.65	21.94	-34.0	-45.4	3.8	1.49e+00	0	43	104	0	29	13347
2026-01-13 11:19:00.68	205.80	22.06	-34.0	-45.4	3.8	1.49e+00	0	42	104	0	29	13319
2026-01-13 11:19:01.69	205.96	22.17	-34.0	-45.4	3.8	1.49e+00	0	43	104	0	29	13326
2026-01-13 11:19:02.69	206.11	22.29	-34.0	-45.4	3.8	1.49e+00	0	43	104	0	29	13326
2026-01-13 11:19:03.70	206.27	22.41	-34.0	-45.4	3.8	1.49e+00	0	42	104	0	29	13325
2026-01-13 11:19:04.70	206.42	22.53	-34.0	-45.4	3.8	1.49e+00	0	43	104	0	29	13343
2026-01-13 11:19:05.71	206.58	22.65	-34.0	-45.4	3.8	1.49e+00	0	43	104	0	29	13367
2026-01-13 11:19:06.71	206.74	22.77	-34.0	-45.4	3.8	1.49e+00	0	42	104	0	29	13300
2026-01-13 11:19:07.72	206.90	22.89	-34.0	-45.4	3.8	1.49e+00	0	42	104	0	29	13313
2026-01-13 11:19:08.72	207.07	23.01	-34.0	-45.4	3.8	1.49e+00	0	43	104	0	29	13329
2026-01-13 11:19:09.72	207.23	23.13	-34.0	-45.4	3.8	1.49e+00	0	43	104	0	29	13309
2026-01-13 11:19:10.73	207.39	23.25	-34.0	-45.4	3.8	1.49e+00	0	43	104	0	29	13313
2026-01-13 11:19:11.74	207.56	23.37	-34.0	-45.4	3.8	1.49e+00	0	42	104	0	29	13303
2026-01-13 11:19:12.74	207.73	23.50	-34.0	-45.4	3.8	1.49e+00	0	43	104	0	29	13303
2026-01-13 11:19:13.75	207.90	23.62	-34.0	-45.4	3.8	1.49e+00	0	43	104	0	29	13321
2026-01-13 11:19:14.75	208.06	23.74	-34.0	-45.4	3.8	1.49e+00	0	42	104	0	29	13348
2026-01-13 11:19:15.76	208.24	23.86	-34.0	-45.4	3.8	1.49e+00	0	43	104	0	29	13374
2026-01-13 11:19:16.77	208.41	23.99	-34.0	-45.4	3.8	1.49e+00	0	43	104	0	29	13312
2026-01-13 11:19:17.77	208.58	24.11	-34.0	-45.4	3.8	1.49e+00	0	43	104	0	29	13302
2026-01-13 11:19:18.78	208.76	24.23	-34.0	-45.4	3.8	1.49e+00	0	42	104	0	29	13330
2026-01-13 11:19:19.79	208.93	24.36	-34.0	-45.4	3.8	1.49e+00	0	43	104	0	29	13300
2026-01-13 11:19:20.79	209.11	24.48	-34.0	-45.4	3.8	1.49e+00	0	42	104	0	29	13337
2026-01-13 11:19:21.80	209.29	24.61	-34.0	-45.4	3.8	1.49e+00	0	42	104	0	29	13300
2026-01-13 11:19:22.81	209.47	24.73	-34.0	-45.4	3.8	1.49e+00	0	42	104	0	29	13321
2026-01-13 11:19:23.81	209.65	24.86	-34.0	-45.4	3.8	1.49e+00	0	43	104	0	29	13309
2026-01-13 11:19:24.82	209.84	24.98	-34.0	-45.4	3.8	1.49e+00	0	43	104	0	29	13313
2026-01-13 11:19:25.82	210.02	25.11	-34.0	-45.4	3.8	1.49e+00	0	43	104	0	29	13400
2026-01-13 11:19:26.83	210.21	25.23	-34.0	-45.4	3.8	1.49e+00	0	43	104	0	29	13282
2026-01-13 11:19:27.84	210.40	25.36	-34.0	-45.4	3.8	1.49e+00	0	43	104	0	29	13350
2026-01-13 11:19:28.85	210.59	25.49	-34.0	-45.4	3.8	1.49e+00	0	43	104	0	29	13317
2026-01-13 11:19:29.85	210.78	25.62	-34.0	-45.4	3.8	1.49e+00	0	43	104	0	29	13326
2026-01-13 11:19:30.86	210.97	25.74	-34.0	-45.4	3.8	1.49e+00	0	43	104	0	29	13359
2026-01-13 11:19:31.86	211.16	25.87	-34.0	-45.4	3.8	1.49e+00	0	42	104	0	29	13361
2026-01-13 11:19:32.86	211.36	26.00	-34.0	-45.4	3.8	1.49e+00	0	42	104	0	29	13310
2026-01-13 11:19:33.87	211.55	26.13	-34.0	-45.4	3.8	1.49e+00	0	43	104	0	29	13300
2026-01-13 11:19:34.88	211.75	26.25	-34.0	-45.4	3.8	1.49e+00	0	43	104	0	29	13329
2026-01-13 11:19:35.88	211.95	26.38	-34.0	-45.4	3.8	1.49e+00	0	43	104	0	29	13353
2026-01-13 11:19:36.88	212.15	26.51	-34.0	-45.4	3.8	1.49e+00	0	43	104	0	29	13313
2026-01-13 11:19:37.88	212.35	26.64	-34.0	-45.4	3.8	1.49e+00	0	43	104	0	29	13290
2026-01-13 11:19:38.89	212.56	26.77	-34.0	-45.4	3.8	1.49e+00	0	42	104	0	29	13328
2026-01-13 11:19:39.90	212.77	26.90	-34.0	-45.4	3.8	1.49e+00	0	43	104	0	29	13288
2026-01-13 11:19:40.90	212.97	27.03	-34.0	-45.4	3.8	1.49e+00	0	43	104	0	29	13283
2026-01-13 11:19:41.91	213.18	27.16	-34.0	-45.4	3.8	1.49e+00	0	43	104	0	29	13315
2026-01-13 11:19:42.91	213.39	27.29	-34.0	-45.4	3.8	1.49e+00	0	43	104	0	29	13317
2026-01-13 11:19:43.91	213.60	27.42	-34.0	-45.4	3.8	1.49e+00	0	43	104	0	29	13344
2026-01-13 11:19:44.92	213.82	27.55	-34.0	-45.4	3.8	1.49e+00	0	42	104	0	29	13339
2026-01-13 11:19:45.93	214.04	27.68	-34.0	-45.4	3.8	1.49e+00	0	43	104	0	29	13304
2026-01-13 11:19:46.94	214.26	27.81	-34.0	-45.4	3.8	1.49e+00	0	43	104	0	29	13296
2026-01-13 11:19:47.95	214.48	27.94	-34.0	-45.4	3.8	1.49e+00	0	42	104	0	29	13302
2026-01-13 11:19:48.95	214.70	28.07	-34.0	-45.4	3.8	1.49e+00	0	43	104	0	29	13329
2026-01-13 11:19:49.96	214.92	28.21	-34.0	-45.4	3.8	1.49e+00	0	43	104	0	29	13343
2026-01-13 11:19:50.97	215.15	28.34	-34.0	-45.4	3.8	1.49e+00	0	43	104	0	29	13325
2026-01-13 11:19:51.98	215.37	28.47	-34.0	-45.4	3.8	1.49e+00	0	42	104	0	29	13280
2026-01-13 11:19:52.98	215.60	28.60	-34.0	-45.4	3.8	1.49e+00	0	42	104	0	29	13343
2026-01-13 11:19:53.99	215.83	28.73	-34.0	-45.4	3.8	1.49e+00	0	43	104	0	29	13289
2026-01-13 11:19:55.00	216.07	28.87	-34.0	-45.4	3.8	1.49e+00	0	43	104	0	29	13278
2026-01-13 11:19:56.00	216.30	29.00	-34.0	-45.4	3.8	1.49e+00	0	43	104	0	29	13295
2026-01-13 11:19:57.01	216.54	29.13	-34.0	-45.4	3.8	1.49e+00	0	43	104	0	29	13298
2026-01-13 11:19:58.02	216.78	29.27	-34.0	-45.3	3.8	1.49e+00	0	43	104	0	29	13268
2026-01-13 11:19:59.02	217.02	29.40	-34.0	-45.4	3.8	1.49e+00	0	43	104	0	29	13291
2026-01-13 11:20:00.02	217.26	29.53	-34.0	-45.4	3.8	1.49e+00	0	43	104	0	29	13331
2026-01-13 11:20:01.03	217.50	29.66	-34.0	-45.4	3.8	1.49e+00	0	42	104	0	29	13339
2026-01-13 11:20:02.03	217.75	29.80	-34.0	-45.4	3.8	1.49e+00	0	42	104	0	29	13287
2026-01-13 11:20:03.03	217.99	29.93	-34.0	-45.4	3.8	1.49e+00	0	43	104	0	29	13320
2026-01-13 11:20:04.04	218.24	30.06	-34.0	-45.3	3.8	1.49e+00	0	43	104	0	29	13272
2026-01-13 11:20:05.04	218.49	30.19	-34.0	-45.3	3.8	1.49e+00	0	42	104	0	29	13272
2026-01-13 11:20:06.05	218.75	30.33	-34.0	-45.4	3.8	1.49e+00	0	43	104	0	29	13306
2026-01-13 11:20:07.05	219.00	30.46	-34.0	-45.4	3.8	1.49e+00	0	43	104	0	29	13303
2026-01-13 11:20:08.06	219.26	30.59	-34.0	-45.4	3.8	1.49e+00	0	42	104	0	29	13339
2026-01-13 11:20:09.07	219.53	30.73	-34.0	-45.4	3.8	1.49e+00	0	43	104	0	29	13333
2026-01-13 11:20:10.07	219.79	30.86	-34.0	-45.4	3.8	1.49e+00	0	43	104	0	29	13293
2026-01-13 11:20:11.08	220.05	30.99	-34.0	-45.4	3.8	1.49e+00	0	43	104	0	29	13320
2026-01-13 11:20:12.08	220.32	31.12	-34.0	-45.4	3.8	1.49e+00	0	43	104	0	29	13308
2026-01-13 11:20:13.09	220.59	31.26	-34.0	-45.4	3.8	1.49e+00	0	43	104	0	29	13303
2026-01-13 11:20:14.10	220.86	31.39	-34.0	-45.4	3.8	1.49e+00	0	43	104	0	29	13326
2026-01-13 11:20:15.11	221.13	31.52	-34.0	-45.4	3.8	1.49e+00	0	43	104	0	29	13333
2026-01-13 11:20:16.12	221.41	31.66	-34.0	-45.4	3.8	1.49e+00	0	43	104	0	29	13313
2026-01-13 11:20:17.12	221.69	31.79	-34.0	-45.4	3.8	1.49e+00	0	43	104	0	29	13387
2026-01-13 11:20:18.13	221.97	31.92	-34.0	-45.4	3.8	1.49e+00	0	43	104	0	29	13303
2026-01-13 11:20:19.13	222.25	32.05	-34.0	-45.4	3.8	1.49e+00	0	43	104	0	29	13318
2026-01-13 11:20:20.14	222.53	32.19	-34.0	-45.4	3.8	1.49e+00	0	43	104	0	29	13319
2026-01-13 11:20:21.15	222.82	32.32	-34.0	-45.4	3.8	1.49e+00	0	43	104	0	29	13296
2026-01-13 11:20:22.16	223.11	32.45	-34.0	-45.4	3.8	1.49e+00	0	43	104	0	29	13342
2026-01-13 11:20:23.16	223.40	32.58	-34.0	-45.4	3.8	1.49e+00	0	43	104	0	29	13320
2026-01-13 11:20:24.17	223.70	32.71	-34.0	-45.4	3.8	1.49e+00	0	42	104	0	29	13313
2026-01-13 11:20:25.17	223.99	32.84	-34.0	-45.4	3.8	1.49e+00	0	43	104	0	29	13271
2026-01-13 11:20:26.19	224.29	32.97	-34.0	-45.4	3.8	1.49e+00	0	43	104	0	29	13322
2026-01-13 11:20:27.19	224.59	33.10	-34.0	-45.4	3.8	1.49e+00	0	43	104	0	29	13335
2026-01-13 11:20:28.20	224.89	33.23	-34.0	-45.4	3.8	1.49e+00	0	43	104	0	29	13325
2026-01-13 11:20:29.21	225.20	33.37	-34.0	-45.4	3.8	1.49e+00	0	42	104	0	29	13290
2026-01-13 11:20:30.21	225.51	33.49	-34.0	-45.4	3.8	1.49e+00	0	43	104	0	29	13329
2026-01-13 11:20:31.22	225.82	33.62	-34.0	-45.4	3.8	1.49e+00	0	43	104	0	29	13356
2026-01-13 11:20:32.22	226.13	33.75	-34.0	-45.4	3.8	1.49e+00	0	43	104	0	29	13337
2026-01-13 11:20:33.23	226.45	33.88	-34.0	-45.4	3.8	1.49e+00	0	43	104	0	29	13371
2026-01-13 11:20:34.24	226.76	34.01	-34.0	-45.4	3.8	1.49e+00	0	43	104	0	29	13307
2026-01-13 11:20:35.25	227.09	34.14	-34.0	-45.4	3.8	1.49e+00	0	42	104	0	29	13311
2026-01-13 11:20:36.26	227.41	34.26	-34.0	-45.4	3.8	1.49e+00	0	43	104	0	29	13334
2026-01-13 11:20:37.27	227.74	34.39	-34.0	-45.4	3.8	1.49e+00	0	42	104	0	29	13327
2026-01-13 11:20:38.28	228.06	34.52	-34.0	-45.4	3.8	1.49e+00	0	43	104	0	29	13300
2026-01-13 11:20:39.29	228.40	34.64	-34.0	-45.4	3.8	1.49e+00	0	42	104	0	29	13309
2026-01-13 11:20:40.30	228.73	34.77	-34.0	-45.4	3.8	1.49e+00	0	43	104	0	29	13307
2026-01-13 11:20:41.30	229.06	34.89	-34.0	-45.4	3.8	1.49e+00	0	43	104	0	29	13291
2026-01-13 11:20:42.31	229.40	35.02	-34.0	-45.4	3.8	1.49e+00	0	43	104	0	29	13282
2026-01-13 11:20:43.31	229.74	35.14	-34.0	-45.4	3.8	1.49e+00	0	43	104	0	29	13319
2026-01-13 11:20:44.32	230.08	35.26	-34.0	-45.4	3.8	1.49e+00	0	43	104	0	29	13290
2026-01-13 11:20:45.33	230.43	35.38	-34.0	-45.4	3.8	1.49e+00	0	43	104	0	29	13293
2026-01-13 11:20:46.33	230.77	35.50	-34.0	-45.4	3.8	1.49e+00	0	42	104	0	29	13285
2026-01-13 11:20:47.33	231.12	35.62	-34.0	-45.4	3.8	1.49e+00	0	43	104	0	29	13295
2026-01-13 11:20:48.34	231.48	35.74	-34.0	-45.4	3.8	1.49e+00	0	43	104	0	29	13355
2026-01-13 11:20:49.34	231.83	35.86	-34.0	-45.4	3.8	1.49e+00	0	43	104	0	29	13334
2026-01-13 11:20:50.36	232.19	35.98	-34.0	-45.4	3.8	1.49e+00	0	43	104	0	29	13332
2026-01-13 11:20:51.36	232.55	36.10	-34.0	-45.4	3.8	1.49e+00	0	42	104	0	29	13316
2026-01-13 11:20:52.36	232.91	36.21	-34.0	-45.4	3.8	1.49e+00	0	43	104	0	29	13337
2026-01-13 11:20:53.37	233.28	36.33	-34.0	-45.3	3.8	1.49e+00	0	43	104	0	29	13275
2026-01-13 11:20:54.38	233.65	36.44	-34.0	-45.4	3.8	1.49e+00	0	43	104	0	29	13313
2026-01-13 11:20:55.39	234.02	36.56	-34.0	-45.4	3.8	1.49e+00	0	43	104	0	29	13303
2026-01-13 11:20:56.40	234.39	36.67	-34.0	-45.4	3.8	1.49e+00	0	42	104	0	29	13345
2026-01-13 11:20:57.40	234.77	36.78	-34.0	-45.4	3.8	1.49e+00	0	43	104	0	29	13302
2026-01-13 11:20:58.40	235.14	36.89	-34.0	-45.4	3.8	1.49e+00	0	43	104	0	29	13297
2026-01-13 11:20:59.40	235.52	37.00	-34.0	-45.3	3.8	1.49e+00	0	43	104	0	29	13244
2026-01-13 11:21:00.41	235.90	37.11	-34.0	-45.4	3.8	1.49e+00	0	43	104	0	29	13309
2026-01-13 11:21:01.42	236.29	37.22	-34.0	-45.4	3.8	1.49e+00	0	43	104	0	29	13308
2026-01-13 11:21:02.42	236.68	37.33	-34.0	-45.4	3.8	1.49e+00	0	43	104	0	29	13343
2026-01-13 11:21:03.43	237.07	37.43	-34.0	-45.4	3.8	1.49e+00	0	43	104	0	29	13289
2026-01-13 11:21:04.44	237.46	37.54	-34.0	-45.3	3.8	1.49e+00	0	43	104	0	29	13261
2026-01-13 11:21:05.45	237.86	37.64	-34.0	-45.4	3.8	1.49e+00	0	43	104	0	29	13348
2026-01-13 11:21:06.45	238.26	37.74	-34.0	-45.4	3.8	1.49e+00	0	43	104	0	29	13352
2026-01-13 11:21:07.46	238.66	37.84	-34.0	-45.4	3.8	1.49e+00	0	43	104	0	29	13314
2026-01-13 11:21:08.47	239.06	37.94	-34.0	-45.4	3.8	1.49e+00	0	43	104	0	29	13294
2026-01-13 11:21:09.48	239.47	38.04	-34.0	-45.3	3.8	1.49e+00	0	43	104	0	29	13290
2026-01-13 11:21:10.48	239.87	38.14	-34.0	-45.4	3.8	1.49e+00	0	43	104	0	29	13314
2026-01-13 11:21:11.49	240.29	38.23	-34.0	-45.4	3.8	1.49e+00	0	43	104	0	29	13317
2026-01-13 11:21:12.49	240.70	38.33	-34.0	-45.4	3.8	1.49e+00	0	43	104	0	29	13333
2026-01-13 11:21:13.50	241.11	38.42	-34.0	-45.4	3.8	1.49e+00	0	43	104	0	29	13302
2026-01-13 11:21:14.51	241.53	38.51	-34.0	-45.4	3.8	1.49e+00	0	43	104	0	29	13300
2026-01-13 11:21:15.51	241.95	38.60	-34.0	-45.4	3.8	1.49e+00	0	43	104	0	29	13338
2026-01-13 11:21:16.52	242.37	38.69	-34.0	-45.4	3.8	1.49e+00	0	43	104	0	29	13292
2026-01-13 11:21:17.52	242.79	38.78	-34.0	-45.4	3.8	1.49e+00	0	43	104	0	29	13287
2026-01-13 11:21:18.53	243.22	38.86	-34.0	-45.4	3.8	1.49e+00	0	43	104	0	29	13326
2026-01-13 11:21:19.53	243.65	38.95	-34.0	-45.4	3.8	1.49e+00	0	43	104	0	29	13336
2026-01-13 11:21:20.54	244.08	39.03	-34.0	-45.4	3.8	1.49e+00	0	43	104	0	29	13288
2026-01-13 11:21:21.55	244.51	39.11	-34.0	-45.4	3.8	1.49e+00	0	42	104	0	29	13288
2026-01-13 11:21:22.55	244.94	39.19	-34.0	-45.4	3.8	1.49e+00	0	43	104	0	29	13303
2026-01-13 11:21:23.56	245.38	39.27	-34.0	-45.4	3.8	1.49e+00	0	43	104	0	29	13300
2026-01-13 11:21:24.57	245.82	39.34	-34.0	-45.3	3.8	1.49e+00	0	43	104	0	29	13271
2026-01-13 11:21:25.57	246.26	39.42	-34.0	-45.4	3.8	1.49e+00	0	43	104	0	29	13325
2026-01-13 11:21:26.58	246.70	39.49	-34.0	-45.3	3.8	1.49e+00	0	43	104	0	29	13241
2026-01-13 11:21:27.58	247.15	39.56	-34.0	-45.4	3.8	1.49e+00	0	43	104	0	29	13306
2026-01-13 11:21:28.59	247.59	39.63	-34.0	-45.4	3.8	1.49e+00	0	43	104	0	29	13320
2026-01-13 11:21:29.60	248.04	39.70	-34.0	-45.4	3.8	1.49e+00	0	43	104	0	29	13297
2026-01-13 11:21:30.60	248.49	39.76	-34.0	-45.4	3.8	1.49e+00	0	43	104	0	29	13302
2026-01-13 11:21:31.61	248.95	39.83	-34.0	-45.4	3.8	1.49e+00	0	43	104	0	29	13318
2026-01-13 11:21:32.61	249.40	39.89	-34.0	-45.3	3.8	1.49e+00	0	43	104	0	29	13247
2026-01-13 11:21:33.62	249.85	39.95	-34.0	-45.4	3.8	1.49e+00	0	43	104	0	29	13306
2026-01-13 11:21:34.63	250.31	40.01	-34.0	-45.4	3.8	1.49e+00	0	43	104	0	29	13299
2026-01-13 11:21:35.64	250.77	40.06	-34.0	-45.4	3.8	1.49e+00	0	43	104	0	29	13283
2026-01-13 11:21:36.65	251.23	40.12	-34.0	-45.4	3.8	1.49e+00	0	43	104	0	29	13310
2026-01-13 11:21:37.65	251.69	40.17	-34.0	-45.3	3.8	1.49e+00	0	43	104	0	29	13275
2026-01-13 11:21:38.66	252.16	40.22	-34.0	-45.4	3.8	1.49e+00	0	43	104	0	29	13320
2026-01-13 11:21:39.66	252.62	40.27	-34.0	-45.4	3.8	1.49e+00	0	43	104	0	29	13288
2026-01-13 11:21:40.67	253.09	40.31	-34.0	-45.4	3.8	1.49e+00	0	43	104	0	29	13293
2026-01-13 11:21:41.67	253.55	40.36	-34.0	-45.4	3.8	1.49e+00	0	43	104	0	29	13307
2026-01-13 11:21:42.68	254.02	40.40	-34.0	-45.4	3.8	1.49e+00	0	43	104	0	29	13299
2026-01-13 11:21:43.69	254.49	40.44	-34.0	-45.4	3.8	1.49e+00	0	43	104	0	29	13294
2026-01-13 11:21:44.70	254.96	40.48	-34.0	-45.3	3.8	1.49e+00	0	43	104	0	29	13273
2026-01-13 11:21:45.71	255.44	40.51	-34.0	-45.4	3.8	1.49e+00	0	43	104	0	29	13374
2026-01-13 11:21:46.71	255.91	40.55	-34.0	-45.4	3.8	1.49e+00	0	43	104	0	29	13294
2026-01-13 11:21:47.71	256.38	40.58	-34.0	-45.4	3.8	1.49e+00	0	42	104	0	29	13298
2026-01-13 11:21:48.72	256.85	40.61	-34.0	-45.4	3.8	1.49e+00	0	43	104	0	29	13307
2026-01-13 11:21:49.73	257.33	40.63	-34.0	-45.4	3.8	1.49e+00	0	43	104	0	29	13300
2026-01-13 11:21:50.74	257.81	40.66	-34.0	-45.4	3.8	1.49e+00	0	43	104	0	29	13300
2026-01-13 11:21:51.75	258.28	40.68	-34.0	-45.4	3.8	1.49e+00	0	43	104	0	29	13325
2026-01-13 11:21:52.75	258.76	40.70	-34.0	-45.4	3.8	1.49e+00	0	43	104	0	29	13333
2026-01-13 11:21:53.76	259.24	40.72	-34.0	-45.4	3.8	1.49e+00	0	43	104	0	29	13289
2026-01-13 11:21:54.77	259.72	40.74	-34.0	-45.4	3.8	1.49e+00	0	43	104	0	29	13326
2026-01-13 11:21:55.78	260.20	40.75	-34.0	-45.4	3.8	1.49e+00	0	43	104	0	29	13311
2026-01-13 11:21:56.78	260.67	40.76	-34.0	-45.4	3.8	1.49e+00	0	43	104	0	29	13319
2026-01-13 11:21:57.80	261.16	40.77	-34.0	-45.3	3.8	1.49e+00	0	43	104	0	29	13286
2026-01-13 11:21:58.81	261.64	40.78	-34.0	-45.4	3.8	1.49e+00	0	43	104	0	29	13301
2026-01-13 11:21:59.81	262.12	40.79	-34.0	-45.4	3.8	1.49e+00	0	43	104	0	29	13294
2026-01-13 11:22:00.82	262.60	40.79	-34.0	-45.3	3.8	1.49e+00	0	43	104	0	29	13281
2026-01-13 11:22:01.83	263.08	40.79	-34.0	-45.4	3.8	1.49e+00	0	43	104	0	29	13341
2026-01-13 11:22:02.84	263.56	40.79	-34.0	-45.4	3.8	1.49e+00	0	43	104	0	29	13287
2026-01-13 11:22:03.85	264.04	40.79	-34.0	-45.4	3.8	1.49e+00	0	43	104	0	29	13324
2026-01-13 11:22:04.85	264.52	40.78	-34.0	-45.4	3.8	1.49e+00	0	43	104	0	29	13318
2026-01-13 11:22:05.86	265.00	40.77	-34.0	-45.4	3.8	1.49e+00	0	43	104	0	29	13308
2026-01-13 11:22:06.87	265.48	40.76	-34.0	-45.4	3.8	1.49e+00	0	43	104	0	29	13300
2026-01-13 11:22:07.88	265.96	40.75	-34.0	-45.4	3.8	1.49e+00	0	43	104	0	29	13288
2026-01-13 11:22:08.88	266.44	40.74	-34.0	-45.4	3.8	1.49e+00	0	43	104	0	29	13301
2026-01-13 11:22:09.89	266.92	40.72	-34.0	-45.3	3.8	1.49e+00	0	43	104	0	29	13298
2026-01-13 11:22:10.90	267.40	40.70	-34.0	-45.4	3.8	1.49e+00	0	43	104	0	29	13307
2026-01-13 11:22:11.91	267.88	40.68	-34.0	-45.4	3.8	1.49e+00	0	43	104	0	29	13293
2026-01-13 11:22:12.91	268.35	40.66	-34.0	-45.4	3.8	1.49e+00	0	43	104	0	29	13289
2026-01-13 11:22:13.92	268.83	40.63	-34.0	-45.4	3.8	1.49e+00	0	43	104	0	29	13311
2026-01-13 11:22:14.93	269.30	40.60	-34.0	-45.4	3.8	1.49e+00	0	43	104	0	29	13301
2026-01-13 11:22:15.94	269.78	40.57	-34.0	-45.4	3.8	1.49e+00	0	43	104	0	29	13305
2026-01-13 11:22:16.95	270.25	40.54	-34.0	-45.3	3.8	1.49e+00	0	43	104	0	29	13277
2026-01-13 11:22:17.95	270.72	40.51	-34.0	-45.4	3.8	1.49e+00	0	43	104	0	29	13316
2026-01-13 11:22:18.96	271.19	40.47	-34.0	-45.4	3.8	1.49e+00	0	42	104	0	29	13293
2026-01-13 11:22:19.97	271.66	40.43	-34.0	-45.4	3.8	1.49e+00	0	42	104	0	29	13323
2026-01-13 11:22:20.98	272.14	40.39	-34.0	-45.4	3.8	1.49e+00	0	43	104	0	29	13292
2026-01-13 11:22:21.99	272.60	40.35	-34.0	-45.3	3.8	1.49e+00	0	43	104	0	29	13272
2026-01-13 11:22:22.99	273.07	40.31	-34.0	-45.4	3.8	1.49e+00	0	43	104	0	29	13308
2026-01-13 11:22:24.00	273.53	40.26	-34.0	-45.4	3.8	1.49e+00	0	43	104	0	29	13323
2026-01-13 11:22:25.00	273.99	40.21	-34.0	-45.4	3.8	1.49e+00	0	43	104	0	29	13326
2026-01-13 11:22:26.01	274.46	40.16	-34.0	-45.4	3.8	1.49e+00	0	43	104	0	29	13321
2026-01-13 11:22:27.02	274.92	40.11	-34.0	-45.3	3.8	1.49e+00	0	43	104	0	29	13262
2026-01-13 11:22:28.02	275.38	40.06	-34.0	-45.4	3.8	1.49e+00	0	43	104	0	29	13321
2026-01-13 11:22:29.03	275.84	40.00	-34.0	-45.4	3.8	1.49e+00	0	43	104	0	29	13318
2026-01-13 11:22:30.04	276.29	39.94	-34.0	-45.4	3.8	1.49e+00	0	43	104	0	29	13327
2026-01-13 11:22:31.04	276.75	39.88	-34.0	-45.4	3.8	1.49e+00	0	43	104	0	29	13288
2026-01-13 11:22:32.05	277.20	39.82	-34.0	-45.4	3.8	1.49e+00	0	43	104	0	29	13324
2026-01-13 11:22:33.05	277.65	39.76	-34.0	-45.4	3.8	1.49e+00	0	43	104	0	29	13309
2026-01-13 11:22:34.05	278.09	39.69	-34.0	-45.4	3.8	1.49e+00	0	43	104	0	29	13326
2026-01-13 11:22:35.06	278.54	39.63	-34.0	-45.4	3.8	1.49e+00	0	43	104	0	29	13321
2026-01-13 11:22:36.07	278.99	39.56	-34.0	-45.3	3.8	1.49e+00	0	43	104	0	29	13265
2026-01-13 11:22:37.08	279.44	39.48	-34.0	-45.4	3.8	1.49e+00	0	43	104	0	29	13318
2026-01-13 11:22:38.08	279.88	39.41	-34.0	-45.3	3.8	1.49e+00	0	43	104	0	29	13277
2026-01-13 11:22:39.09	280.32	39.34	-34.0	-45.4	3.8	1.49e+00	0	43	104	0	29	13296
2026-01-13 11:22:40.10	280.76	39.26	-34.0	-45.4	3.8	1.49e+00	0	43	104	0	29	13301
2026-01-13 11:22:41.10	281.19	39.19	-34.0	-45.3	3.8	1.49e+00	0	43	104	0	29	13263
2026-01-13 11:22:42.11	281.62	39.11	-34.0	-45.4	3.8	1.49e+00	0	43	104	0	29	13338
2026-01-13 11:22:43.12	282.06	39.02	-34.0	-45.4	3.8	1.49e+00	0	43	104	0	29	13299
2026-01-13 11:22:44.13	282.49	38.94	-34.0	-45.4	3.8	1.49e+00	0	43	104	0	29	13294
2026-01-13 11:22:45.13	282.91	38.86	-34.0	-45.4	3.8	1.49e+00	0	43	104	0	29	13290
2026-01-13 11:22:46.14	283.34	38.77	-34.0	-45.4	3.8	1.49e+00	0	43	104	0	29	13378
2026-01-13 11:22:47.14	283.76	38.69	-34.0	-45.4	3.8	1.49e+00	0	43	104	0	29	13304
2026-01-13 11:22:48.14	284.18	38.60	-34.0	-45.4	3.8	1.49e+00	0	43	104	0	29	13347
2026-01-13 11:22:49.15	284.60	38.51	-34.0	-45.4	3.8	1.49e+00	0	43	104	0	29	13279
2026-01-13 11:22:50.16	285.01	38.42	-34.0	-45.4	3.8	1.49e+00	0	43	104	0	29	13324
2026-01-13 11:22:51.16	285.42	38.32	-34.0	-45.4	3.8	1.49e+00	0	43	104	0	29	13349
2026-01-13 11:22:52.17	285.84	38.23	-34.0	-45.4	3.8	1.49e+00	0	43	104	0	29	13297
2026-01-13 11:22:53.18	286.25	38.13	-34.0	-45.4	3.8	1.49e+00	0	43	104	0	29	13316
2026-01-13 11:22:54.19	286.66	38.04	-34.0	-45.4	3.8	1.49e+00	0	43	104	0	29	13330
2026-01-13 11:22:55.19	287.06	37.94	-34.0	-45.4	3.8	1.49e+00	0	43	104	0	29	13311
2026-01-13 11:22:56.20	287.46	37.84	-34.0	-45.4	3.8	1.49e+00	0	43	104	0	29	13345
2026-01-13 11:22:57.21	287.86	37.74	-34.0	-45.4	3.8	1.49e+00	0	43	104	0	29	13311
2026-01-13 11:22:58.21	288.25	37.64	-34.0	-45.4	3.8	1.49e+00	0	43	104	0	29	13270
2026-01-13 11:22:59.22	288.65	37.53	-34.0	-45.4	3.8	1.49e+00	0	43	104	0	29	13321
2026-01-13 11:23:00.22	289.04	37.43	-34.0	-45.4	3.8	1.49e+00	0	43	104	0	29	13293
2026-01-13 11:23:01.22	289.43	37.33	-34.0	-45.4	3.8	1.49e+00	0	43	104	0	29	13305
2026-01-13 11:23:02.23	289.81	37.22	-34.0	-45.4	3.8	1.49e+00	0	43	104	0	29	13314
2026-01-13 11:23:03.23	290.20	37.11	-34.0	-45.4	3.8	1.49e+00	0	43	104	0	29	13309
2026-01-13 11:23:04.23	290.58	37.01	-34.0	-45.4	3.8	1.49e+00	0	42	104	0	29	13343
2026-01-13 11:23:05.25	290.96	36.89	-34.0	-45.4	3.8	1.49e+00	0	42	104	0	29	13287
2026-01-13 11:23:06.25	291.33	36.79	-34.0	-45.4	3.8	1.49e+00	0	43	104	0	29	13331
2026-01-13 11:23:07.26	291.71	36.67	-34.0	-45.4	3.8	1.49e+00	0	43	104	0	29	13309
2026-01-13 11:23:08.27	292.08	36.56	-34.0	-45.4	3.8	1.49e+00	0	42	104	0	29	13289
2026-01-13 11:23:09.28	292.45	36.45	-34.0	-45.4	3.8	1.49e+00	0	43	104	0	29	13324
2026-01-13 11:23:10.28	292.82	36.33	-34.0	-45.4	3.8	1.49e+00	0	43	104	0	29	13337
2026-01-13 11:23:11.28	293.18	36.22	-34.0	-45.4	3.8	1.49e+00	0	43	104	0	29	13311
2026-01-13 11:23:12.29	293.54	36.10	-34.0	-45.4	3.8	1.49e+00	0	43	104	0	29	13326
2026-01-13 11:23:13.30	293.90	35.99	-34.0	-45.4	3.8	1.49e+00	0	43	104	0	29	13361
2026-01-13 11:23:14.30	294.26	35.87	-34.0	-45.4	3.8	1.49e+00	0	43	104	0	29	13322
2026-01-13 11:23:15.31	294.61	35.75	-34.0	-45.4	3.8	1.49e+00	0	43	104	0	29	13339
2026-01-13 11:23:16.31	294.96	35.63	-34.0	-45.4	3.8	1.49e+00	0	43	104	0	29	13368
2026-01-13 11:23:17.33	295.32	35.51	-34.0	-45.4	3.8	1.49e+00	0	43	104	0	29	13336
2026-01-13 11:23:18.33	295.66	35.39	-34.0	-45.4	3.8	1.49e+00	0	43	104	0	29	13328
2026-01-13 11:23:19.34	296.00	35.27	-34.0	-45.4	3.8	1.49e+00	0	43	104	0	29	13342
2026-01-13 11:23:20.34	296.34	35.15	-34.0	-45.4	3.8	1.49e+00	0	43	104	0	29	13289
2026-01-13 11:23:21.34	296.68	35.03	-34.0	-45.4	3.8	1.49e+00	0	43	104	0	29	13349
2026-01-13 11:23:22.35	297.02	34.90	-34.0	-45.4	3.8	1.49e+00	0	43	104	0	29	13304
2026-01-13 11:23:23.36	297.35	34.78	-34.0	-45.4	3.8	1.49e+00	0	43	104	0	29	13312
2026-01-13 11:23:24.37	297.68	34.65	-34.0	-45.4	3.8	1.49e+00	0	43	104	0	29	13314
2026-01-13 11:23:25.38	298.01	34.53	-34.0	-45.4	3.8	1.49e+00	0	43	104	0	29	13328
2026-01-13 11:23:26.38	298.34	34.40	-34.0	-45.4	3.8	1.49e+00	0	43	104	0	29	13346
2026-01-13 11:23:27.39	298.66	34.28	-34.0	-45.4	3.8	1.49e+00	0	42	104	0	29	13324
2026-01-13 11:23:28.40	298.99	34.15	-34.0	-45.4	3.8	1.49e+00	0	43	104	0	29	13311
2026-01-13 11:23:29.40	299.30	34.03	-34.0	-45.4	3.8	1.49e+00	0	43	104	0	29	13308
2026-01-13 11:23:30.41	299.62	33.90	-34.0	-45.4	3.8	1.49e+00	0	43	104	0	29	13320
2026-01-13 11:23:31.42	299.94	33.77	-34.0	-45.4	3.8	1.49e+00	0	42	104	0	29	13299
2026-01-13 11:23:32.43	300.25	33.64	-34.0	-45.4	3.8	1.49e+00	0	43	104	0	29	13333
2026-01-13 11:23:33.43	300.56	33.52	-34.0	-45.4	3.8	1.49e+00	0	43	104	0	29	13340
2026-01-13 11:23:34.44	300.86	33.39	-34.0	-45.4	3.8	1.49e+00	0	43	104	0	29	13319
2026-01-13 11:23:35.44	301.17	33.26	-34.0	-45.4	3.8	1.49e+00	0	43	104	0	29	13365
2026-01-13 11:23:36.45	301.47	33.13	-34.0	-45.4	3.8	1.49e+00	0	43	104	0	29	13273
2026-01-13 11:23:37.46	301.77	33.00	-34.0	-45.4	3.8	1.49e+00	0	43	104	0	29	13384
2026-01-13 11:23:38.47	302.07	32.87	-34.0	-45.4	3.8	1.49e+00	0	43	104	0	29	13317
2026-01-13 11:23:39.48	302.36	32.74	-34.0	-45.4	3.8	1.49e+00	0	43	104	0	29	13303
2026-01-13 11:23:40.48	302.66	32.61	-34.0	-45.4	3.8	1.49e+00	0	43	104	0	29	13320
2026-01-13 11:23:41.49	302.95	32.48	-34.0	-45.4	3.8	1.49e+00	0	43	104	0	29	13323
2026-01-13 11:23:42.50	303.24	32.35	-34.0	-45.4	3.8	1.49e+00	0	43	104	0	29	13327
2026-01-13 11:23:43.50	303.52	32.22	-34.0	-45.4	3.8	1.49e+00	0	43	104	0	29	13339
2026-01-13 11:23:44.51	303.80	32.08	-34.0	-45.4	3.8	1.49e+00	0	43	104	0	29	13325
2026-01-13 11:23:45.52	304.09	31.95	-34.0	-45.4	3.8	1.49e+00	0	43	104	0	29	13339
2026-01-13 11:23:46.53	304.37	31.82	-34.0	-45.4	3.8	1.49e+00	0	43	104	0	29	13368
2026-01-13 11:23:47.53	304.64	31.69	-34.0	-45.4	3.8	1.49e+00	0	43	104	0	29	13305
2026-01-13 11:23:48.54	304.92	31.56	-34.0	-45.4	3.8	1.49e+00	0	43	104	0	29	13322
2026-01-13 11:23:49.55	305.19	31.42	-34.0	-45.4	3.8	1.49e+00	0	43	104	0	29	13372
2026-01-13 11:23:50.56	305.46	31.29	-34.0	-45.4	3.8	1.49e+00	0	42	104	0	29	13327
2026-01-13 11:23:51.56	305.73	31.16	-34.0	-45.4	3.8	1.49e+00	0	43	104	0	29	13309
2026-01-13 11:23:52.57	305.99	31.03	-34.0	-45.4	3.8	1.49e+00	0	43	104	0	29	13290
2026-01-13 11:23:53.58	306.26	30.90	-34.0	-45.4	3.8	1.49e+00	0	43	104	0	29	13313
2026-01-13 11:23:54.58	306.52	30.76	-34.0	-45.4	3.8	1.49e+00	0	42	104	0	29	13337
2026-01-13 11:23:55.59	306.78	30.63	-34.0	-45.4	3.8	1.49e+00	0	42	104	0	29	13345
2026-01-13 11:23:56.60	307.04	30.50	-34.0	-45.4	3.8	1.49e+00	0	43	104	0	29	13368
2026-01-13 11:23:57.60	307.29	30.37	-34.0	-45.4	3.8	1.49e+00	0	43	104	0	29	13282
2026-01-13 11:23:58.60	307.54	30.24	-34.0	-45.4	3.8	1.49e+00	0	43	104	0	29	13323
2026-01-13 11:23:59.60	307.79	30.10	-34.0	-45.4	3.8	1.49e+00	0	43	104	0	29	13333
2026-01-13 11:24:00.60	308.04	29.97	-34.0	-45.4	3.8	1.49e+00	0	43	104	0	29	13336
2026-01-13 11:24:01.60	308.29	29.84	-34.0	-45.4	3.8	1.49e+00	0	43	104	0	29	13311
2026-01-13 11:24:02.60	308.53	29.71	-34.0	-45.4	3.8	1.49e+00	0	43	104	0	29	13348
2026-01-13 11:24:03.60	308.77	29.58	-34.0	-45.4	3.8	1.49e+00	0	43	104	0	29	13352
2026-01-13 11:24:04.60	309.01	29.45	-34.0	-45.4	3.8	1.49e+00	0	42	104	0	29	13315
2026-01-13 11:24:05.61	309.25	29.32	-34.0	-45.4	3.8	1.49e+00	0	43	104	0	29	13326
2026-01-13 11:24:06.62	309.49	29.18	-34.0	-45.4	3.8	1.49e+00	0	43	104	0	29	13305
2026-01-13 11:24:07.62	309.73	29.05	-34.0	-45.4	3.8	1.49e+00	0	43	104	0	29	13316
2026-01-13 11:24:08.63	309.96	28.92	-34.0	-45.4	3.8	1.49e+00	0	43	104	0	29	13321
2026-01-13 11:24:09.64	310.19	28.79	-34.0	-45.4	3.8	1.49e+00	0	43	104	0	29	13323
2026-01-13 11:24:10.65	310.42	28.66	-34.0	-45.4	3.8	1.49e+00	0	43	104	0	29	13314
2026-01-13 11:24:11.65	310.65	28.53	-34.0	-45.4	3.8	1.49e+00	0	43	104	0	29	13323
2026-01-13 11:24:12.66	310.88	28.40	-34.0	-45.4	3.8	1.49e+00	0	43	104	0	29	13348
2026-01-13 11:24:13.67	311.10	28.26	-34.0	-45.4	3.8	1.49e+00	0	43	104	0	29	13333
2026-01-13 11:24:14.67	311.33	28.13	-34.0	-45.4	3.8	1.49e+00	0	43	104	0	29	13330
2026-01-13 11:24:15.68	311.55	28.00	-34.0	-45.4	3.8	1.49e+00	0	43	104	0	29	13340
2026-01-13 11:24:16.68	311.77	27.87	-34.0	-45.4	3.8	1.49e+00	0	43	104	0	29	13369
2026-01-13 11:24:17.69	311.98	27.74	-34.0	-45.4	3.8	1.49e+00	0	43	104	0	29	13334
2026-01-13 11:24:18.69	312.20	27.61	-34.0	-45.4	3.8	1.49e+00	0	43	104	0	29	13324
2026-01-13 11:24:19.70	312.41	27.48	-34.0	-45.4	3.8	1.49e+00	0	42	104	0	29	13380
2026-01-13 11:24:20.71	312.63	27.35	-34.0	-45.4	3.8	1.49e+00	0	42	104	0	29	13318
2026-01-13 11:24:21.72	312.84	27.22	-34.0	-45.4	3.8	1.49e+00	0	43	104	0	29	13339
2026-01-13 11:24:22.73	313.05	27.09	-34.0	-45.4	3.8	1.49e+00	0	43	104	0	29	13322
2026-01-13 11:24:23.74	313.26	26.96	-34.0	-45.4	3.8	1.49e+00	0	43	104	0	29	13324
2026-01-13 11:24:24.75	313.46	26.84	-34.0	-45.4	3.8	1.49e+00	0	43	104	0	29	13315
2026-01-13 11:24:25.76	313.67	26.71	-34.0	-45.4	3.8	1.49e+00	0	43	104	0	29	13313
2026-01-13 11:24:26.76	313.87	26.58	-34.0	-45.4	3.8	1.49e+00	0	43	104	0	29	13319
2026-01-13 11:24:27.77	314.07	26.45	-34.0	-45.4	3.8	1.49e+00	0	42	104	0	29	13320
2026-01-13 11:24:28.78	314.27	26.32	-34.0	-45.4	3.8	1.49e+00	0	43	104	0	29	13346
2026-01-13 11:24:29.79	314.47	26.19	-34.0	-45.4	3.8	1.49e+00	0	42	104	0	29	13336
2026-01-13 11:24:30.79	314.66	26.07	-34.0	-45.4	3.8	1.49e+00	0	43	104	0	29	13299
2026-01-13 11:24:31.80	314.86	25.94	-34.0	-45.4	3.8	1.49e+00	0	43	104	0	29	13320
2026-01-13 11:24:32.81	315.05	25.81	-34.0	-45.4	3.8	1.49e+00	0	43	104	0	29	13327
2026-01-13 11:24:33.81	315.24	25.69	-34.0	-45.4	3.8	1.49e+00	0	43	104	0	29	13327
2026-01-13 11:24:34.82	315.43	25.56	-34.0	-45.4	3.8	1.49e+00	0	43	104	0	29	13328
2026-01-13 11:24:35.83	315.62	25.43	-34.0	-45.4	3.8	1.49e+00	0	43	104	0	29	13356
2026-01-13 11:24:36.83	315.81	25.31	-34.0	-45.4	3.8	1.49e+00	0	43	104	0	29	13332
2026-01-13 11:24:37.83	315.99	25.19	-34.0	-45.4	3.8	1.49e+00	0	43	104	0	29	13306
2026-01-13 11:24:38.84	316.18	25.06	-34.0	-45.4	3.8	1.49e+00	0	43	104	0	29	13339
2026-01-13 11:24:39.85	316.36	24.93	-34.0	-45.4	3.8	1.49e+00	0	43	104	0	29	13325
2026-01-13 11:24:40.86	316.55	24.81	-34.0	-45.4	3.8	1.49e+00	0	43	104	0	29	13315
2026-01-13 11:24:41.86	316.73	24.69	-34.0	-45.4	3.8	1.49e+00	0	43	104	0	29	13291
2026-01-13 11:24:42.87	316.90	24.56	-34.0	-45.4	3.8	1.49e+00	0	43	104	0	29	13294
2026-01-13 11:24:43.88	317.08	24.44	-34.0	-45.4	3.8	1.49e+00	0	43	104	0	29	13360
2026-01-13 11:24:44.89	317.26	24.31	-34.0	-45.4	3.8	1.49e+00	0	43	104	0	29	13314
2026-01-13 11:24:45.90	317.43	24.19	-34.0	-45.4	3.8	1.49e+00	0	42	104	0	29	13322
2026-01-13 11:24:46.91	317.61	24.07	-34.0	-45.4	3.8	1.49e+00	0	43	104	0	29	13356
2026-01-13 11:24:47.92	317.78	23.95	-34.0	-45.4	3.8	1.49e+00	0	42	104	0	29	13344
2026-01-13 11:24:48.93	317.95	23.82	-34.0	-45.4	3.8	1.49e+00	0	43	104	0	29	13354
2026-01-13 11:24:49.93	318.12	23.70	-34.0	-45.4	3.8	1.49e+00	0	43	104	0	29	13319
2026-01-13 11:24:50.95	318.29	23.58	-34.0	-45.4	3.8	1.49e+00	0	43	104	0	29	13309
2026-01-13 11:24:51.96	318.46	23.46	-34.0	-45.4	3.8	1.49e+00	0	43	104	0	29	13343
2026-01-13 11:24:52.96	318.62	23.34	-34.0	-45.4	3.8	1.49e+00	0	43	104	0	29	13328
2026-01-13 11:24:53.97	318.79	23.22	-34.0	-45.4	3.8	1.49e+00	0	43	104	0	29	13282
2026-01-13 11:24:54.98	318.95	23.10	-34.0	-45.4	3.8	1.49e+00	0	43	104	0	29	13301
2026-01-13 11:24:55.98	319.11	22.98	-34.0	-45.4	3.8	1.49e+00	0	43	104	0	29	13330
2026-01-13 11:24:56.99	319.28	22.86	-34.0	-45.4	3.8	1.49e+00	0	43	104	0	29	13344
2026-01-13 11:24:57.99	319.43	22.74	-34.0	-45.4	3.8	1.49e+00	0	43	104	0	29	13373
2026-01-13 11:24:59.00	319.59	22.62	-34.0	-45.4	3.8	1.49e+00	0	43	104	0	29	13368
2026-01-13 11:25:00.01	319.75	22.50	-34.0	-45.4	3.8	1.49e+00	0	43	104	0	29	13325
2026-01-13 11:25:01.01	319.91	22.38	-34.0	-45.4	3.8	1.49e+00	0	43	104	0	29	13318
2026-01-13 11:25:02.01	320.06	22.27	-34.0	-45.4	3.8	1.49e+00	0	43	104	0	29	13367
2026-01-13 11:25:03.02	320.22	22.15	-34.0	-45.4	3.8	1.49e+00	0	43	104	0	29	13307
2026-01-13 11:25:04.03	320.37	22.03	-34.0	-45.4	3.8	1.49e+00	0	43	104	0	29	13336
2026-01-13 11:25:05.04	320.52	21.92	-34.0	-45.4	3.8	1.49e+00	0	43	104	0	29	13323
2026-01-13 11:25:06.05	320.67	21.80	-34.0	-45.4	3.8	1.49e+00	0	43	104	0	29	13328
2026-01-13 11:25:07.05	320.82	21.68	-34.0	-45.4	3.8	1.49e+00	0	43	104	0	29	13370
2026-01-13 11:25:08.07	320.97	21.57	-34.0	-45.4	3.8	1.49e+00	0	43	104	0	29	13326
2026-01-13 11:25:09.08	321.12	21.45	-34.0	-45.4	3.8	1.49e+00	0	43	104	0	29	13343
2026-01-13 11:25:10.08	321.26	21.34	-34.0	-45.4	3.8	1.49e+00	0	43	104	0	29	13343
2026-01-13 11:25:11.09	321.41	21.22	-34.0	-45.4	3.8	1.49e+00	0	43	104	0	29	13319
2026-01-13 11:25:12.10	321.55	21.11	-34.0	-45.4	3.8	1.49e+00	0	43	104	0	29	13296
2026-01-13 11:25:13.11	321.70	20.99	-34.0	-45.4	3.8	1.49e+00	0	43	104	0	29	13351
2026-01-13 11:25:14.11	321.84	20.88	-34.0	-45.4	3.8	1.49e+00	0	43	104	0	29	13345
2026-01-13 11:25:15.12	321.98	20.77	-34.0	-45.4	3.8	1.49e+00	0	43	104	0	29	13383
2026-01-13 11:25:16.12	322.12	20.65	-34.1	-45.4	3.8	1.49e+00	0	43	104	0	29	13364
2026-01-13 11:25:17.13	322.26	20.54	-34.0	-45.4	3.8	1.49e+00	0	43	104	0	29	13304
2026-01-13 11:25:18.14	322.40	20.43	-34.0	-45.4	3.8	1.49e+00	0	43	104	0	29	13328
2026-01-13 11:25:19.14	322.53	20.32	-34.0	-45.4	3.8	1.49e+00	0	42	104	0	29	13318
2026-01-13 11:25:20.15	322.67	20.20	-34.0	-45.4	3.8	1.49e+00	0	43	104	0	29	13340
2026-01-13 11:25:21.15	322.81	20.09	-34.0	-45.4	3.8	1.49e+00	0	43	104	0	29	13343
2026-01-13 11:25:22.16	322.94	19.98	-34.0	-45.4	3.8	1.49e+00	0	43	104	0	29	13328
2026-01-13 11:25:23.16	323.07	19.87	-34.0	-45.4	3.8	1.49e+00	0	43	104	0	29	13360
2026-01-13 11:25:24.17	323.21	19.76	-34.0	-45.4	3.8	1.49e+00	0	43	104	0	29	13335
2026-01-13 11:25:25.18	323.34	19.65	-34.0	-45.5	3.8	1.49e+00	0	43	104	0	29	13396
2026-01-13 11:25:26.18	323.47	19.54	-34.0	-45.4	3.8	1.49e+00	0	43	104	0	29	13320
2026-01-13 11:25:27.19	323.60	19.43	-34.0	-45.4	3.8	1.49e+00	0	42	104	0	29	13328
2026-01-13 11:25:28.20	323.73	19.33	-34.0	-45.4	3.8	1.49e+00	0	43	104	0	29	13328
2026-01-13 11:25:29.20	323.85	19.22	-34.0	-45.4	3.8	1.49e+00	0	43	104	0	29	13324
2026-01-13 11:25:30.21	323.98	19.11	-34.0	-45.4	3.8	1.49e+00	0	43	104	0	29	13319
2026-01-13 11:25:31.22	324.11	19.00	-34.0	-45.4	3.8	1.49e+00	0	43	104	0	29	13353
2026-01-13 11:25:32.23	324.24	18.89	-34.0	-45.4	3.8	1.49e+00	0	43	104	0	29	13358
2026-01-13 11:25:33.24	324.36	18.79	-34.0	-45.4	3.8	1.49e+00	0	43	104	0	29	13307
2026-01-13 11:25:34.24	324.48	18.68	-34.0	-45.4	3.8	1.49e+00	0	43	104	0	29	13315
2026-01-13 11:25:35.25	324.61	18.57	-34.0	-45.4	3.8	1.49e+00	0	43	104	0	29	13338
2026-01-13 11:25:36.26	324.73	18.47	-34.0	-45.4	3.8	1.49e+00	0	43	104	0	29	13341
2026-01-13 11:25:37.26	324.85	18.36	-34.0	-45.4	3.8	1.49e+00	0	43	104	0	29	13334
2026-01-13 11:25:38.27	324.97	18.26	-34.0	-45.4	3.8	1.49e+00	0	43	104	0	29	13370
2026-01-13 11:25:39.28	325.09	18.15	-34.0	-45.4	3.8	1.49e+00	0	43	104	0	29	13371
2026-01-13 11:25:40.29	325.21	18.04	-34.0	-45.4	3.8	1.49e+00	0	43	104	0	29	13347
2026-01-13 11:25:41.30	325.33	17.94	-34.0	-45.4	3.8	1.49e+00	0	42	104	0	29	13358
2026-01-13 11:25:42.30	325.44	17.84	-34.0	-45.4	3.8	1.49e+00	0	43	104	0	29	13337
2026-01-13 11:25:43.31	325.56	17.73	-34.0	-45.4	3.8	1.49e+00	0	43	104	0	29	13314
2026-01-13 11:25:44.31	325.68	17.63	-34.0	-45.4	3.8	1.49e+00	0	43	104	0	29	13312
2026-01-13 11:25:45.32	325.79	17.53	-34.0	-45.4	3.8	1.49e+00	0	43	104	0	29	13365
2026-01-13 11:25:46.32	325.91	17.42	-34.0	-45.4	3.8	1.49e+00	0	43	104	0	29	13342
2026-01-13 11:25:47.33	326.02	17.32	-34.0	-45.4	3.8	1.49e+00	0	43	104	0	29	13360
2026-01-13 11:25:48.34	326.13	17.22	-34.0	-45.4	3.8	1.49e+00	0	43	104	0	29	13318
2026-01-13 11:25:49.34	326.24	17.12	-34.0	-45.4	3.8	1.49e+00	0	43	104	0	29	13324
2026-01-13 11:25:50.35	326.36	17.02	-34.0	-45.4	3.8	1.49e+00	0	43	104	0	29	13347
2026-01-13 11:25:51.36	326.47	16.91	-34.0	-45.4	3.8	1.49e+00	0	43	104	0	29	13350
2026-01-13 11:25:52.38	326.58	16.81	-34.0	-45.4	3.8	1.49e+00	0	43	104	0	29	13290
2026-01-13 11:25:53.38	326.69	16.71	-34.0	-45.4	3.8	1.49e+00	0	43	104	0	29	13319
2026-01-13 11:25:54.39	326.79	16.61	-34.0	-45.4	3.8	1.49e+00	0	43	104	0	29	13325
2026-01-13 11:25:55.40	326.90	16.51	-34.0	-45.4	3.8	1.49e+00	0	43	104	0	29	13351
2026-01-13 11:25:56.41	327.01	16.41	-34.0	-45.4	3.8	1.49e+00	0	43	104	0	29	13366
2026-01-13 11:25:57.41	327.12	16.31	-34.0	-45.4	3.8	1.49e+00	0	42	104	0	29	13338
2026-01-13 11:25:58.42	327.22	16.21	-34.0	-45.4	3.8	1.49e+00	0	43	104	0	29	13348
2026-01-13 11:25:59.42	327.33	16.12	-34.1	-45.4	3.8	1.49e+00	0	42	104	0	29	13363
2026-01-13 11:26:00.43	327.43	16.02	-34.0	-45.4	3.8	1.49e+00	0	42	104	0	29	13327
2026-01-13 11:26:01.44	327.54	15.92	-34.0	-45.4	3.8	1.49e+00	0	43	104	0	29	13344
2026-01-13 11:26:02.44	327.64	15.82	-34.0	-45.4	3.8	1.49e+00	0	43	104	0	29	13284
2026-01-13 11:26:03.44	327.74	15.73	-34.0	-45.4	3.8	1.49e+00	0	43	104	0	29	13363
2026-01-13 11:26:04.45	327.84	15.63	-34.0	-45.4	3.8	1.49e+00	0	43	104	0	29	13336
2026-01-13 11:26:05.45	327.94	15.53	-34.0	-45.4	3.8	1.49e+00	0	43	104	0	29	13300
2026-01-13 11:26:06.45	328.04	15.44	-34.0	-45.4	3.8	1.49e+00	0	43	104	0	29	13334
2026-01-13 11:26:07.46	328.14	15.34	-34.0	-45.4	3.8	1.49e+00	0	43	104	0	29	13332
2026-01-13 11:26:08.47	328.24	15.24	-34.0	-45.4	3.8	1.49e+00	0	43	104	0	29	13368
2026-01-13 11:26:09.48	328.34	15.15	-34.0	-45.4	3.8	1.49e+00	0	43	104	0	29	13359
2026-01-13 11:26:10.49	328.44	15.05	-34.0	-45.4	3.8	1.49e+00	0	42	104	0	29	13338
2026-01-13 11:26:11.50	328.54	14.96	-34.0	-45.4	3.8	1.49e+00	0	43	104	0	29	13327
2026-01-13 11:26:12.50	328.64	14.86	-34.0	-45.4	3.8	1.49e+00	0	43	104	0	29	13368
2026-01-13 11:26:13.52	328.73	14.77	-34.0	-45.4	3.8	1.49e+00	0	43	104	0	29	13331
2026-01-13 11:26:14.52	328.83	14.67	-34.0	-45.4	3.8	1.49e+00	0	42	104	0	29	13376
2026-01-13 11:26:15.53	328.92	14.58	-34.0	-45.4	3.8	1.49e+00	0	43	104	0	29	13353
2026-01-13 11:26:16.54	329.02	14.49	-34.0	-45.4	3.8	1.49e+00	0	43	104	0	29	13384
2026-01-13 11:26:17.55	329.11	14.39	-34.0	-45.4	3.8	1.49e+00	0	43	104	0	29	13340
2026-01-13 11:26:18.55	329.21	14.30	-34.0	-45.4	3.8	1.49e+00	0	43	104	0	29	13374
2026-01-13 11:26:19.56	329.30	14.21	-34.0	-45.4	3.8	1.49e+00	0	43	104	0	29	13339
2026-01-13 11:26:20.56	329.39	14.12	-34.0	-45.4	3.8	1.49e+00	0	43	104	0	29	13330
2026-01-13 11:26:21.57	329.48	14.02	-34.0	-45.4	3.8	1.49e+00	0	43	104	0	29	13370
2026-01-13 11:26:22.58	329.58	13.93	-34.0	-45.4	3.8	1.49e+00	0	43	104	0	29	13370
2026-01-13 11:26:23.59	329.67	13.84	-34.0	-45.4	3.8	1.49e+00	0	43	104	0	29	13377
2026-01-13 11:26:24.59	329.76	13.75	-34.0	-45.5	3.8	1.49e+00	0	43	104	0	29	13396
2026-01-13 11:26:25.60	329.85	13.66	-34.0	-45.4	3.8	1.49e+00	0	43	104	0	29	13352
2026-01-13 11:26:26.61	329.94	13.57	-34.0	-45.4	3.8	1.49e+00	0	43	104	0	29	13301
2026-01-13 11:26:27.62	330.03	13.48	-34.0	-45.4	3.8	1.49e+00	0	43	104	0	29	13349
2026-01-13 11:26:28.63	330.11	13.39	-34.0	-45.4	3.8	1.49e+00	0	43	104	0	29	13318
2026-01-13 11:26:29.63	330.20	13.30	-34.0	-45.4	3.8	1.49e+00	0	43	104	0	29	13333
2026-01-13 11:26:30.64	330.29	13.21	-34.0	-45.4	3.8	1.49e+00	0	43	104	0	29	13388
2026-01-13 11:26:31.65	330.38	13.12	-34.0	-45.4	3.8	1.49e+00	0	43	104	0	29	13347
2026-01-13 11:26:32.66	330.46	13.03	-34.0	-45.4	3.8	1.49e+00	0	43	104	0	29	13367
2026-01-13 11:26:33.66	330.55	12.94	-34.0	-45.4	3.8	1.49e+00	0	43	104	0	29	13348
2026-01-13 11:26:34.66	330.63	12.85	-34.1	-45.4	3.8	1.49e+00	0	43	104	0	29	13332
2026-01-13 11:26:35.67	330.72	12.76	-34.0	-45.4	3.8	1.49e+00	0	43	104	0	29	13377
2026-01-13 11:26:36.68	330.80	12.68	-34.0	-45.4	3.8	1.49e+00	0	43	104	0	29	13367
2026-01-13 11:26:37.69	330.89	12.59	-34.0	-45.4	3.8	1.49e+00	0	43	104	0	29	13340
2026-01-13 11:26:38.70	330.97	12.50	-34.0	-45.4	3.8	1.49e+00	0	43	104	0	29	13353
2026-01-13 11:26:39.70	331.05	12.41	-34.0	-45.4	3.8	1.49e+00	0	43	104	0	29	13356
2026-01-13 11:26:40.71	331.13	12.33	-34.0	-45.4	3.8	1.49e+00	0	43	104	0	29	13316
2026-01-13 11:26:41.72	331.22	12.24	-34.0	-45.4	3.8	1.49e+00	0	42	104	0	29	13363
2026-01-13 11:26:42.72	331.30	12.15	-34.0	-45.4	3.8	1.49e+00	0	42	104	0	29	13376
2026-01-13 11:26:43.73	331.38	12.07	-34.0	-45.4	3.8	1.49e+00	0	43	104	0	29	13355
2026-01-13 11:26:44.73	331.46	11.98	-34.0	-45.4	3.8	1.49e+00	0	43	104	0	29	13296
2026-01-13 11:26:45.73	331.54	11.90	-34.0	-45.4	3.8	1.49e+00	0	43	104	0	29	13328
2026-01-13 11:26:46.74	331.62	11.81	-34.0	-45.5	3.8	1.49e+00	0	43	104	0	29	13385
2026-01-13 11:26:47.75	331.70	11.73	-34.0	-45.4	3.8	1.49e+00	0	43	104	0	29	13313
2026-01-13 11:26:48.76	331.78	11.64	-34.0	-45.4	3.8	1.49e+00	0	43	104	0	29	13342
2026-01-13 11:26:49.76	331.86	11.56	-34.0	-45.4	3.8	1.49e+00	0	43	104	0	29	13356
2026-01-13 11:26:50.77	331.93	11.47	-34.0	-45.4	3.8	1.49e+00	0	43	104	0	29	13367
2026-01-13 11:26:51.78	332.01	11.39	-34.0	-45.4	3.8	1.49e+00	0	43	104	0	29	13331
2026-01-13 11:26:52.78	332.09	11.31	-34.0	-45.4	3.8	1.49e+00	0	43	104	0	29	13341
2026-01-13 11:26:53.78	332.17	11.22	-34.0	-45.4	3.8	1.49e+00	0	43	104	0	29	13321
2026-01-13 11:26:54.79	332.24	11.14	-34.0	-45.4	3.8	1.49e+00	0	43	104	0	29	13363
2026-01-13 11:26:55.80	332.32	11.06	-34.1	-45.4	3.8	1.49e+00	0	42	104	0	29	13353
2026-01-13 11:26:56.81	332.39	10.97	-34.0	-45.4	3.8	1.49e+00	0	43	104	0	29	13335
2026-01-13 11:26:57.81	332.47	10.89	-34.0	-45.4	3.8	1.49e+00	0	43	104	0	29	13347
2026-01-13 11:26:58.82	332.54	10.81	-34.0	-45.4	3.8	1.49e+00	0	43	104	0	29	13309
2026-01-13 11:26:59.83	332.62	10.73	-34.1	-45.4	3.8	1.49e+00	0	42	104	0	29	13365
2026-01-13 11:27:00.84	332.69	10.64	-34.0	-45.4	3.8	1.49e+00	0	43	104	0	29	13373
2026-01-13 11:27:01.85	332.77	10.56	-34.0	-45.4	3.8	1.49e+00	0	43	104	0	29	13308
2026-01-13 11:27:02.85	332.84	10.48	-34.0	-45.4	3.8	1.49e+00	0	43	104	0	29	13375
2026-01-13 11:27:03.86	332.91	10.40	-34.0	-45.4	3.8	1.49e+00	0	43	104	0	29	13333
2026-01-13 11:27:04.87	332.99	10.32	-34.0	-45.4	3.8	1.49e+00	0	42	104	0	29	13362
2026-01-13 11:27:05.87	333.06	10.24	-34.0	-45.4	3.8	1.49e+00	0	42	104	0	29	13376
2026-01-13 11:27:06.88	333.13	10.16	-34.0	-45.4	3.8	1.49e+00	0	43	104	0	29	13343
2026-01-13 11:27:07.89	333.20	10.08	-34.0	-45.4	3.8	1.49e+00	0	43	104	0	29	13349
2026-01-13 11:27:08.90	333.27	10.00	-34.0	-45.4	3.8	1.49e+00	0	43	104	0	29	13344
2026-01-13 11:27:09.90	333.34	9.92	-34.0	-45.4	3.8	1.49e+00	0	43	104	0	29	13358
2026-01-13 11:27:10.91	333.41	9.84	-34.0	-45.4	3.8	1.49e+00	0	43	104	0	29	13385
2026-01-13 11:27:11.92	333.48	9.76	-34.0	-45.4	3.8	1.49e+00	0	43	104	0	29	13355
2026-01-13 11:27:12.93	333.55	9.68	-34.1	-45.4	3.8	1.49e+00	0	43	104	0	29	13356
2026-01-13 11:27:13.94	333.62	9.60	-34.0	-45.4	3.8	1.49e+00	0	43	104	0	29	13372
2026-01-13 11:27:14.93	333.69	9.52	-34.1	-45.4	3.8	1.49e+00	0	43	104	0	29	13351
2026-01-13 11:27:15.93	333.76	9.44	-34.0	-45.4	3.8	1.49e+00	0	43	104	0	29	13327
2026-01-13 11:27:16.94	333.83	9.37	-34.0	-45.4	3.8	1.49e+00	0	43	104	0	29	13372
2026-01-13 11:27:17.95	333.89	9.29	-34.0	-45.4	3.8	1.49e+00	0	43	104	0	29	13337
2026-01-13 11:27:18.96	333.96	9.21	-34.0	-45.4	3.8	1.49e+00	0	43	104	0	29	13389
2026-01-13 11:27:19.95	334.03	9.13	-34.0	-45.4	3.8	1.49e+00	0	43	104	0	29	13354
2026-01-13 11:27:20.96	334.10	9.05	-34.0	-45.4	3.8	1.49e+00	0	43	104	0	29	13327
2026-01-13 11:27:21.97	334.16	8.98	-34.0	-45.4	3.8	1.49e+00	0	43	104	0	29	13349
2026-01-13 11:27:22.97	334.23	8.90	-34.0	-45.4	3.8	1.49e+00	0	43	104	0	29	13364
2026-01-13 11:27:23.97	334.29	8.82	-34.0	-45.4	3.8	1.49e+00	0	43	104	0	29	13296
2026-01-13 11:27:24.98	334.36	8.75	-34.0	-45.4	3.8	1.49e+00	0	43	104	0	29	13348
2026-01-13 11:27:25.99	334.42	8.67	-34.0	-45.5	3.8	1.49e+00	0	43	104	0	29	13403
2026-01-13 11:27:27.00	334.49	8.59	-34.0	-45.4	3.8	1.49e+00	0	43	104	0	29	13328
2026-01-13 11:27:28.00	334.55	8.52	-34.0	-45.4	3.8	1.49e+00	0	43	104	0	29	13344
2026-01-13 11:27:29.01	334.62	8.44	-34.0	-45.4	3.8	1.49e+00	0	43	104	0	29	13359
2026-01-13 11:27:30.01	334.68	8.37	-34.0	-45.4	3.8	1.49e+00	0	43	104	0	29	13352
2026-01-13 11:27:31.02	334.75	8.29	-34.0	-45.4	3.8	1.49e+00	0	43	104	0	29	13370
2026-01-13 11:27:32.02	334.81	8.22	-34.0	-45.5	3.8	1.49e+00	0	42	104	0	29	13383
2026-01-13 11:27:33.03	334.87	8.14	-34.0	-45.4	3.8	1.49e+00	0	43	104	0	29	13348
2026-01-13 11:27:34.03	334.93	8.07	-34.0	-45.4	3.8	1.49e+00	0	43	104	0	29	13299
2026-01-13 11:27:35.04	335.00	7.99	-34.0	-45.4	3.8	1.49e+00	0	43	104	0	29	13371
2026-01-13 11:27:36.04	335.06	7.92	-34.0	-45.4	3.8	1.49e+00	0	43	104	0	29	13357
2026-01-13 11:27:37.05	335.12	7.84	-34.0	-45.4	3.8	1.49e+00	0	43	104	0	29	13355
2026-01-13 11:27:38.06	335.18	7.77	-34.0	-45.4	3.8	1.49e+00	0	43	104	0	29	13320
2026-01-13 11:27:39.07	335.24	7.70	-34.0	-45.4	3.8	1.49e+00	0	43	104	0	29	13374
2026-01-13 11:27:40.07	335.31	7.62	-34.0	-45.4	3.8	1.49e+00	0	43	104	0	29	13361
2026-01-13 11:27:41.07	335.37	7.55	-34.0	-45.4	3.8	1.49e+00	0	43	104	0	29	13371
2026-01-13 11:27:42.09	335.43	7.48	-34.0	-45.4	3.8	1.49e+00	0	42	104	0	29	13318
2026-01-13 11:27:43.09	335.49	7.40	-34.0	-45.4	3.8	1.49e+00	0	43	104	0	29	13367
2026-01-13 11:27:44.10	335.55	7.33	-34.0	-45.4	3.8	1.49e+00	0	43	104	0	29	13329
2026-01-13 11:27:45.11	335.61	7.26	-34.0	-45.4	3.8	1.49e+00	0	43	104	0	29	13320
2026-01-13 11:27:46.12	335.67	7.18	-34.0	-45.4	3.8	1.49e+00	0	42	104	0	29	13355
2026-01-13 11:27:47.13	335.73	7.11	-34.0	-45.4	3.8	1.49e+00	0	43	104	0	29	13304
2026-01-13 11:27:48.13	335.78	7.04	-34.0	-45.4	3.8	1.49e+00	0	43	104	0	29	13353
2026-01-13 11:27:49.13	335.84	6.97	-34.1	-45.4	3.8	1.49e+00	0	43	104	0	29	13361
2026-01-13 11:27:50.14	335.90	6.90	-34.0	-45.4	3.8	1.49e+00	0	43	104	0	29	13353

#Closed at: 2026-01-13 11:27:50
#Recorded file [0 MB]: D:/data/31010_260113_141630.dat