passes_logs/2026/01/13/R2M6_AANII_01/R2M6_AANII_01__20260113_093545_NOAA_21_JPSS-2_rec.log

#Pass ID: 20260113_093545_NOAA 21 (JPSS-2)
#Satellite: NOAA 21 (JPSS-2)
#Configuration: NOAA 21
#almurnet v.1.7.20240730
#Start time: 2026-01-13 09:35:45

#Version: 2.2.20231116
#Station: R2M6_AANII_01
#Location: 30.233357 lon 59.946436 lat
#TLE: 1 54234U 22150A   26012.26378519  .00000063  00000+0  50547-4 0  9993
#TLE: 2 54234  98.7495 313.1967 0000726 309.1075  51.0036 14.19534275164425

#Time	Az	El	Level	Level2	SNR	BER	BlckErr	Temp	State	Recorded	gain1	gain2
2026-01-13 09:35:45.80	137.84	7.03	-34.0	-45.3	3.8	1.49e+00	0	40	0	0	29	13230
2026-01-13 09:35:46.80	137.81	7.11	-34.0	-45.3	3.8	1.49e+00	0	40	104	0	29	13212
2026-01-13 09:35:47.81	137.77	7.19	-34.0	-45.2	3.8	1.49e+00	0	40	104	0	29	13206
2026-01-13 09:35:48.81	137.74	7.26	-34.0	-45.3	3.8	1.49e+00	0	40	104	0	29	13282
2026-01-13 09:35:49.81	137.70	7.34	-34.0	-45.3	3.8	1.49e+00	0	40	104	0	29	13236
2026-01-13 09:35:50.82	137.67	7.42	-34.0	-45.3	3.8	1.49e+00	0	40	104	0	29	13231
2026-01-13 09:35:51.83	137.63	7.49	-34.0	-45.3	3.8	1.49e+00	0	40	104	0	29	13216
2026-01-13 09:35:52.84	137.59	7.57	-34.0	-45.3	3.8	1.49e+00	0	40	104	0	29	13259
2026-01-13 09:35:53.84	137.56	7.65	-34.0	-45.3	3.8	1.49e+00	0	40	104	0	29	13230
2026-01-13 09:35:54.85	137.52	7.73	-34.0	-45.3	3.8	1.49e+00	0	40	104	0	29	13239
2026-01-13 09:35:55.86	137.49	7.81	-34.0	-45.3	3.8	1.49e+00	0	40	104	0	29	13229
2026-01-13 09:35:56.86	137.45	7.88	-34.0	-45.3	3.8	1.49e+00	0	40	104	0	29	13269
2026-01-13 09:35:57.87	137.41	7.96	-34.0	-45.3	3.8	1.49e+00	0	40	104	0	29	13247
2026-01-13 09:35:58.87	137.37	8.04	-34.0	-45.3	3.8	1.49e+00	0	40	104	0	29	13231
2026-01-13 09:35:59.88	137.34	8.12	-34.0	-45.3	3.8	1.49e+00	0	40	104	0	29	13227
2026-01-13 09:36:00.89	137.30	8.20	-34.0	-45.3	3.8	1.49e+00	0	40	104	0	29	13212
2026-01-13 09:36:01.89	137.26	8.28	-34.0	-45.3	3.8	1.49e+00	0	40	104	0	29	13240
2026-01-13 09:36:02.89	137.22	8.36	-34.0	-45.3	3.8	1.49e+00	0	40	104	0	29	13231
2026-01-13 09:36:03.89	137.19	8.44	-34.0	-45.3	3.8	1.49e+00	0	40	104	0	29	13240
2026-01-13 09:36:04.90	137.15	8.52	-34.0	-45.3	3.8	1.49e+00	0	40	104	0	29	13224
2026-01-13 09:36:05.91	137.11	8.60	-34.0	-45.3	3.8	1.49e+00	0	40	104	0	29	13266
2026-01-13 09:36:06.92	137.07	8.68	-34.0	-45.3	3.8	1.49e+00	0	40	104	0	29	13268
2026-01-13 09:36:07.93	137.03	8.77	-34.0	-45.3	3.8	1.49e+00	0	40	104	0	29	13256
2026-01-13 09:36:08.94	136.99	8.85	-34.0	-45.3	3.8	1.49e+00	0	40	104	0	29	13245
2026-01-13 09:36:09.95	136.95	8.93	-34.0	-45.3	3.8	1.49e+00	0	40	104	0	29	13233
2026-01-13 09:36:10.96	136.91	9.01	-34.0	-45.3	3.8	1.49e+00	0	40	104	0	29	13236
2026-01-13 09:36:11.96	136.87	9.09	-34.0	-45.3	3.8	1.49e+00	0	40	104	0	29	13240
2026-01-13 09:36:12.97	136.83	9.18	-34.0	-45.3	3.8	1.49e+00	0	41	104	0	29	13220
2026-01-13 09:36:13.97	136.79	9.26	-34.0	-45.3	3.8	1.49e+00	0	41	104	0	29	13217
2026-01-13 09:36:14.97	136.75	9.34	-34.0	-45.3	3.8	1.49e+00	0	41	104	0	29	13239
2026-01-13 09:36:15.98	136.71	9.42	-34.0	-45.3	3.8	1.49e+00	0	41	104	0	29	13257
2026-01-13 09:36:16.99	136.67	9.51	-34.0	-45.3	3.8	1.49e+00	0	41	104	0	29	13220
2026-01-13 09:36:17.99	136.63	9.59	-34.0	-45.3	3.8	1.49e+00	0	41	104	0	29	13226
2026-01-13 09:36:19.00	136.58	9.68	-34.0	-45.3	3.8	1.49e+00	0	41	104	0	29	13215
2026-01-13 09:36:20.01	136.54	9.76	-34.0	-45.3	3.8	1.49e+00	0	41	104	0	29	13255
2026-01-13 09:36:21.02	136.50	9.85	-34.0	-45.2	3.8	1.49e+00	0	41	104	0	29	13200
2026-01-13 09:36:22.03	136.46	9.93	-34.0	-45.2	3.8	1.49e+00	0	41	104	0	29	13207
2026-01-13 09:36:23.03	136.41	10.02	-33.9	-45.2	3.8	1.49e+00	0	41	104	0	29	13157
2026-01-13 09:36:24.04	136.37	10.10	-34.0	-45.3	3.8	1.49e+00	0	41	104	0	29	13220
2026-01-13 09:36:25.05	136.33	10.19	-34.0	-45.3	3.8	1.49e+00	0	41	104	0	29	13234
2026-01-13 09:36:26.06	136.28	10.27	-34.0	-45.3	3.8	1.49e+00	0	41	104	0	29	13270
2026-01-13 09:36:27.06	136.24	10.36	-34.0	-45.3	3.8	1.49e+00	0	41	104	0	29	13250
2026-01-13 09:36:28.07	136.19	10.45	-33.9	-45.2	3.8	1.49e+00	0	41	104	0	29	13205
2026-01-13 09:36:29.08	136.15	10.53	-33.9	-45.2	3.8	1.49e+00	0	41	104	0	29	13251
2026-01-13 09:36:30.09	136.11	10.62	-34.0	-45.3	3.8	1.49e+00	0	41	104	0	29	13255
2026-01-13 09:36:31.09	136.06	10.71	-34.0	-45.2	3.8	1.49e+00	0	41	104	0	29	13201
2026-01-13 09:36:32.10	136.01	10.80	-34.0	-45.3	3.8	1.49e+00	0	41	104	0	29	13225
2026-01-13 09:36:33.10	135.97	10.89	-34.0	-45.3	3.8	1.49e+00	0	41	104	0	29	13215
2026-01-13 09:36:34.11	135.92	10.97	-34.0	-45.2	3.8	1.49e+00	0	41	104	0	29	13180
2026-01-13 09:36:35.11	135.88	11.06	-33.9	-45.2	3.8	1.49e+00	0	41	104	0	29	13210
2026-01-13 09:36:36.12	135.83	11.15	-34.0	-45.3	3.8	1.49e+00	0	41	104	0	29	13256
2026-01-13 09:36:37.13	135.78	11.24	-34.0	-45.3	3.8	1.49e+00	0	41	104	0	29	13233
2026-01-13 09:36:38.14	135.74	11.33	-34.0	-45.3	3.8	1.49e+00	0	41	104	0	29	13223
2026-01-13 09:36:39.14	135.69	11.42	-34.0	-45.3	3.8	1.49e+00	0	41	104	0	29	13243
2026-01-13 09:36:40.15	135.64	11.51	-34.0	-45.3	3.8	1.49e+00	0	41	104	0	29	13252
2026-01-13 09:36:41.16	135.59	11.60	-34.0	-45.3	3.8	1.49e+00	0	41	104	0	29	13232
2026-01-13 09:36:42.17	135.54	11.69	-34.0	-45.3	3.8	1.49e+00	0	41	104	0	29	13245
2026-01-13 09:36:43.17	135.50	11.78	-34.0	-45.3	3.8	1.49e+00	0	41	104	0	29	13217
2026-01-13 09:36:44.18	135.45	11.88	-34.0	-45.3	3.8	1.49e+00	0	41	104	0	29	13248
2026-01-13 09:36:45.18	135.40	11.97	-34.0	-45.3	3.8	1.49e+00	0	41	104	0	29	13210
2026-01-13 09:36:46.18	135.35	12.06	-34.0	-45.3	3.8	1.49e+00	0	41	104	0	29	13243
2026-01-13 09:36:47.19	135.30	12.15	-34.0	-45.3	3.8	1.49e+00	0	41	104	0	29	13250
2026-01-13 09:36:48.20	135.25	12.24	-34.0	-45.3	3.8	1.49e+00	0	41	104	0	29	13239
2026-01-13 09:36:49.20	135.20	12.34	-34.0	-45.3	3.8	1.49e+00	0	41	104	0	29	13251
2026-01-13 09:36:50.21	135.15	12.43	-34.0	-45.3	3.8	1.49e+00	0	41	104	0	29	13221
2026-01-13 09:36:51.22	135.09	12.52	-34.0	-45.3	3.8	1.49e+00	0	41	104	0	29	13207
2026-01-13 09:36:52.23	135.04	12.62	-34.0	-45.3	3.8	1.49e+00	0	41	104	0	29	13250
2026-01-13 09:36:53.23	134.99	12.71	-34.0	-45.3	3.8	1.49e+00	0	41	104	0	29	13257
2026-01-13 09:36:54.24	134.94	12.81	-34.0	-45.3	3.8	1.49e+00	0	41	104	0	29	13242
2026-01-13 09:36:55.24	134.89	12.90	-34.0	-45.3	3.8	1.49e+00	0	41	104	0	29	13272
2026-01-13 09:36:56.25	134.83	13.00	-34.0	-45.3	3.8	1.49e+00	0	41	104	0	29	13269
2026-01-13 09:36:57.25	134.78	13.09	-34.0	-45.3	3.8	1.49e+00	0	41	104	0	29	13223
2026-01-13 09:36:58.27	134.73	13.19	-34.0	-45.2	3.8	1.49e+00	0	41	104	0	29	13191
2026-01-13 09:36:59.27	134.67	13.29	-34.0	-45.3	3.8	1.49e+00	0	41	104	0	29	13241
2026-01-13 09:37:00.28	134.62	13.39	-34.0	-45.3	3.8	1.49e+00	0	41	104	0	29	13266
2026-01-13 09:37:01.28	134.56	13.48	-34.0	-45.3	3.8	1.49e+00	0	41	104	0	29	13249
2026-01-13 09:37:02.29	134.51	13.58	-34.0	-45.3	3.8	1.49e+00	0	41	104	0	29	13225
2026-01-13 09:37:03.29	134.45	13.68	-34.0	-45.3	3.8	1.49e+00	0	41	104	0	29	13243
2026-01-13 09:37:04.29	134.40	13.77	-34.0	-45.3	3.8	1.49e+00	0	41	104	0	29	13259
2026-01-13 09:37:05.30	134.34	13.87	-34.0	-45.3	3.8	1.49e+00	0	41	104	0	29	13246
2026-01-13 09:37:06.31	134.28	13.97	-34.0	-45.3	3.8	1.49e+00	0	41	104	0	29	13302
2026-01-13 09:37:07.32	134.22	14.07	-34.0	-45.3	3.8	1.49e+00	0	41	104	0	29	13274
2026-01-13 09:37:08.32	134.17	14.17	-34.0	-45.3	3.8	1.49e+00	0	41	104	0	29	13271
2026-01-13 09:37:09.33	134.11	14.27	-34.0	-45.3	3.8	1.49e+00	0	42	104	0	29	13250
2026-01-13 09:37:10.33	134.05	14.37	-34.0	-45.3	3.8	1.49e+00	0	42	104	0	29	13252
2026-01-13 09:37:11.34	133.99	14.47	-34.0	-45.3	3.8	1.49e+00	0	42	104	0	29	13222
2026-01-13 09:37:12.35	133.93	14.58	-34.0	-45.3	3.8	1.49e+00	0	42	104	0	29	13222
2026-01-13 09:37:13.36	133.87	14.68	-34.0	-45.3	3.8	1.49e+00	0	42	104	0	29	13262
2026-01-13 09:37:14.36	133.81	14.78	-34.0	-45.3	3.8	1.49e+00	0	42	104	0	29	13234
2026-01-13 09:37:15.37	133.75	14.88	-34.0	-45.3	3.8	1.49e+00	0	42	104	0	29	13262
2026-01-13 09:37:16.38	133.69	14.99	-34.0	-45.3	3.8	1.49e+00	0	42	104	0	29	13265
2026-01-13 09:37:17.38	133.63	15.09	-34.0	-45.3	3.8	1.49e+00	0	42	104	0	29	13239
2026-01-13 09:37:18.39	133.57	15.19	-34.0	-45.3	3.8	1.49e+00	0	41	104	0	29	13267
2026-01-13 09:37:19.40	133.50	15.30	-34.0	-45.3	3.8	1.49e+00	0	42	104	0	29	13212
2026-01-13 09:37:20.40	133.44	15.40	-34.0	-45.2	3.8	1.49e+00	0	42	104	0	29	13194
2026-01-13 09:37:21.41	133.38	15.51	-34.0	-45.3	3.8	1.49e+00	0	42	104	0	29	13224
2026-01-13 09:37:22.42	133.31	15.61	-34.0	-45.3	3.8	1.49e+00	0	42	104	0	29	13227
2026-01-13 09:37:23.43	133.25	15.72	-34.0	-45.3	3.8	1.49e+00	0	42	104	0	29	13265
2026-01-13 09:37:24.43	133.18	15.83	-34.0	-45.3	3.8	1.49e+00	0	42	104	0	29	13217
2026-01-13 09:37:25.44	133.12	15.93	-34.0	-45.3	3.8	1.49e+00	0	42	104	0	29	13256
2026-01-13 09:37:26.45	133.05	16.04	-34.0	-45.3	3.8	1.49e+00	0	42	104	0	29	13248
2026-01-13 09:37:27.46	132.99	16.15	-34.0	-45.3	3.8	1.49e+00	0	42	104	0	29	13254
2026-01-13 09:37:28.46	132.92	16.26	-34.0	-45.3	3.8	1.49e+00	0	42	104	0	29	13235
2026-01-13 09:37:29.47	132.85	16.36	-34.0	-45.3	3.8	1.49e+00	0	42	104	0	29	13243
2026-01-13 09:37:30.48	132.78	16.47	-34.0	-45.3	3.8	1.49e+00	0	42	104	0	29	13214
2026-01-13 09:37:31.49	132.72	16.58	-34.0	-45.3	3.8	1.49e+00	0	42	104	0	29	13247
2026-01-13 09:37:32.49	132.65	16.69	-34.0	-45.3	3.8	1.49e+00	0	42	104	0	29	13242
2026-01-13 09:37:33.50	132.58	16.80	-34.0	-45.3	3.8	1.49e+00	0	42	104	0	29	13248
2026-01-13 09:37:34.50	132.51	16.91	-34.0	-45.3	3.8	1.49e+00	0	42	104	0	29	13232
2026-01-13 09:37:35.51	132.44	17.03	-34.0	-45.2	3.8	1.49e+00	0	42	104	0	29	13197
2026-01-13 09:37:36.52	132.37	17.14	-34.0	-45.3	3.8	1.49e+00	0	42	104	0	29	13235
2026-01-13 09:37:37.53	132.30	17.25	-34.0	-45.3	3.8	1.49e+00	0	42	104	0	29	13266
2026-01-13 09:37:38.53	132.22	17.36	-34.0	-45.3	3.8	1.49e+00	0	42	104	0	29	13266
2026-01-13 09:37:39.54	132.15	17.48	-34.0	-45.3	3.8	1.49e+00	0	42	104	0	29	13244
2026-01-13 09:37:40.54	132.08	17.59	-34.0	-45.3	3.8	1.49e+00	0	42	104	0	29	13208
2026-01-13 09:37:41.55	132.00	17.70	-34.0	-45.3	3.8	1.49e+00	0	42	104	0	29	13230
2026-01-13 09:37:42.55	131.93	17.82	-34.0	-45.3	3.8	1.49e+00	0	42	104	0	29	13226
2026-01-13 09:37:43.56	131.86	17.93	-34.0	-45.3	3.8	1.49e+00	0	42	104	0	29	13217
2026-01-13 09:37:44.55	131.78	18.05	-34.0	-45.3	3.8	1.49e+00	0	42	104	0	29	13199
2026-01-13 09:37:45.56	131.70	18.16	-34.0	-45.3	3.8	1.49e+00	0	42	104	0	29	13246
2026-01-13 09:37:46.57	131.63	18.28	-34.0	-45.3	3.8	1.49e+00	0	42	104	0	29	13213
2026-01-13 09:37:47.57	131.55	18.40	-34.0	-45.3	3.8	1.49e+00	0	42	104	0	29	13264
2026-01-13 09:37:48.58	131.47	18.51	-34.0	-45.3	3.8	1.49e+00	0	42	104	0	29	13246
2026-01-13 09:37:49.58	131.39	18.63	-34.0	-45.3	3.8	1.49e+00	0	42	104	0	29	13246
2026-01-13 09:37:50.59	131.32	18.75	-34.0	-45.2	3.8	1.49e+00	0	42	104	0	29	13169
2026-01-13 09:37:51.60	131.24	18.87	-34.0	-45.3	3.8	1.49e+00	0	42	104	0	29	13257
2026-01-13 09:37:52.61	131.15	18.99	-34.0	-45.3	3.8	1.49e+00	0	42	104	0	29	13267
2026-01-13 09:37:53.62	131.07	19.11	-34.0	-45.2	3.8	1.49e+00	0	42	104	0	29	13194
2026-01-13 09:37:54.62	130.99	19.23	-34.0	-45.3	3.8	1.49e+00	0	42	104	0	29	13248
2026-01-13 09:37:55.63	130.91	19.35	-34.0	-45.3	3.8	1.49e+00	0	42	104	0	29	13253
2026-01-13 09:37:56.63	130.83	19.47	-34.0	-45.3	3.8	1.49e+00	0	42	104	0	29	13245
2026-01-13 09:37:57.64	130.74	19.59	-34.0	-45.3	3.8	1.49e+00	0	42	104	0	29	13257
2026-01-13 09:37:58.65	130.66	19.72	-34.0	-45.3	3.8	1.49e+00	0	42	104	0	29	13232
2026-01-13 09:37:59.66	130.57	19.84	-34.0	-45.3	3.8	1.49e+00	0	42	104	0	29	13215
2026-01-13 09:38:00.66	130.49	19.96	-34.0	-45.3	3.8	1.49e+00	0	42	104	0	29	13250
2026-01-13 09:38:01.67	130.40	20.09	-34.0	-45.3	3.8	1.49e+00	0	42	104	0	29	13262
2026-01-13 09:38:02.67	130.31	20.21	-34.0	-45.3	3.8	1.49e+00	0	42	104	0	29	13275
2026-01-13 09:38:03.68	130.23	20.34	-34.0	-45.3	3.8	1.49e+00	0	42	104	0	29	13233
2026-01-13 09:38:04.69	130.14	20.46	-34.0	-45.3	3.8	1.49e+00	0	42	104	0	29	13247
2026-01-13 09:38:05.69	130.05	20.59	-34.0	-45.3	3.8	1.49e+00	0	42	104	0	29	13236
2026-01-13 09:38:06.70	129.96	20.72	-34.0	-45.3	3.8	1.49e+00	0	42	104	0	29	13237
2026-01-13 09:38:07.71	129.87	20.85	-34.0	-45.3	3.8	1.49e+00	0	42	104	0	29	13265
2026-01-13 09:38:08.72	129.77	20.97	-34.0	-45.2	3.8	1.49e+00	0	42	104	0	29	13201
2026-01-13 09:38:09.72	129.68	21.10	-34.0	-45.3	3.8	1.49e+00	0	42	104	0	29	13216
2026-01-13 09:38:10.73	129.59	21.23	-34.0	-45.3	3.8	1.49e+00	0	42	104	0	29	13267
2026-01-13 09:38:11.74	129.49	21.36	-34.0	-45.3	3.8	1.49e+00	0	42	104	0	29	13196
2026-01-13 09:38:12.75	129.40	21.49	-34.0	-45.2	3.8	1.49e+00	0	42	104	0	29	13203
2026-01-13 09:38:13.75	129.30	21.62	-34.0	-45.3	3.8	1.49e+00	0	42	104	0	29	13227
2026-01-13 09:38:14.76	129.20	21.76	-34.0	-45.3	3.8	1.49e+00	0	42	104	0	29	13269
2026-01-13 09:38:15.76	129.11	21.89	-34.0	-45.3	3.8	1.49e+00	0	42	104	0	29	13244
2026-01-13 09:38:16.77	129.01	22.02	-34.0	-45.3	3.8	1.49e+00	0	42	104	0	29	13264
2026-01-13 09:38:17.78	128.91	22.15	-34.0	-45.3	3.8	1.49e+00	0	42	104	0	29	13241
2026-01-13 09:38:18.78	128.81	22.29	-34.0	-45.3	3.8	1.49e+00	0	42	104	0	29	13223
2026-01-13 09:38:19.79	128.71	22.42	-34.0	-45.3	3.8	1.49e+00	0	42	104	0	29	13267
2026-01-13 09:38:20.79	128.61	22.56	-34.0	-45.3	3.8	1.49e+00	0	42	104	0	29	13232
2026-01-13 09:38:21.79	128.50	22.69	-34.0	-45.3	3.8	1.49e+00	0	42	104	0	29	13274
2026-01-13 09:38:22.80	128.40	22.83	-33.9	-45.2	3.8	1.49e+00	0	42	104	0	29	13231
2026-01-13 09:38:23.81	128.30	22.97	-34.0	-45.8	3.8	1.49e+00	0	42	104	0	28	14046
2026-01-13 09:38:24.82	128.19	23.11	-34.0	-45.8	3.8	1.49e+00	0	42	104	0	28	14087
2026-01-13 09:38:25.82	128.08	23.24	-33.9	-45.8	3.8	1.49e+00	0	42	104	0	28	14056
2026-01-13 09:38:26.83	127.98	23.38	-33.9	-45.8	3.8	1.49e+00	0	42	104	0	28	14054
2026-01-13 09:38:27.84	127.87	23.52	-33.8	-45.6	3.8	1.49e+00	0	42	104	0	28	14067
2026-01-13 09:38:28.85	127.76	23.66	-33.9	-45.8	3.8	1.49e+00	0	42	104	0	28	14049
2026-01-13 09:38:29.85	127.65	23.80	-33.9	-45.7	3.8	1.49e+00	0	42	104	0	28	13986
2026-01-13 09:38:30.85	127.54	23.94	-33.9	-45.8	3.8	1.49e+00	0	42	104	0	28	14079
2026-01-13 09:38:31.86	127.42	24.09	-33.9	-45.8	3.8	1.49e+00	0	42	104	0	28	14012
2026-01-13 09:38:32.87	127.31	24.23	-34.0	-45.8	3.8	1.49e+00	0	42	104	0	28	14018
2026-01-13 09:38:33.88	127.19	24.37	-34.0	-45.8	3.8	1.49e+00	0	42	104	0	28	14024
2026-01-13 09:38:34.88	127.08	24.52	-34.0	-45.8	3.8	1.49e+00	0	42	104	0	28	14023
2026-01-13 09:38:35.89	126.96	24.66	-34.0	-45.8	3.8	1.49e+00	0	42	104	0	28	14040
2026-01-13 09:38:36.90	126.84	24.81	-33.9	-45.8	3.8	1.49e+00	0	42	104	0	28	14024
2026-01-13 09:38:37.90	126.72	24.95	-34.0	-45.8	3.8	1.49e+00	0	42	104	0	28	14022
2026-01-13 09:38:38.91	126.60	25.10	-34.0	-45.8	3.8	1.49e+00	0	42	104	0	28	14010
2026-01-13 09:38:39.91	126.48	25.25	-34.0	-45.8	3.8	1.49e+00	0	42	104	0	28	13988
2026-01-13 09:38:40.91	126.36	25.40	-34.0	-45.8	3.8	1.49e+00	0	42	104	0	28	14025
2026-01-13 09:38:41.92	126.24	25.55	-34.0	-45.8	3.8	1.49e+00	0	42	104	0	28	14030
2026-01-13 09:38:42.93	126.11	25.70	-34.0	-45.8	3.8	1.49e+00	0	42	104	0	28	14009
2026-01-13 09:38:43.94	125.98	25.85	-34.0	-45.8	3.8	1.49e+00	0	42	104	0	28	14059
2026-01-13 09:38:44.94	125.86	26.00	-34.0	-45.8	3.8	1.49e+00	0	42	104	0	28	14048
2026-01-13 09:38:45.94	125.73	26.15	-34.0	-45.8	3.8	1.49e+00	0	42	104	0	28	14021
2026-01-13 09:38:46.95	125.60	26.30	-34.0	-45.7	3.8	1.49e+00	0	42	104	0	28	13998
2026-01-13 09:38:47.96	125.47	26.45	-34.0	-45.8	3.8	1.49e+00	0	42	104	0	28	14055
2026-01-13 09:38:48.97	125.33	26.61	-34.0	-45.8	3.8	1.49e+00	0	42	104	0	28	14005
2026-01-13 09:38:49.97	125.20	26.76	-34.0	-45.8	3.8	1.49e+00	0	42	104	0	28	14030
2026-01-13 09:38:50.97	125.07	26.92	-34.0	-45.8	3.8	1.49e+00	0	42	104	0	28	14040
2026-01-13 09:38:51.98	124.93	27.07	-34.0	-45.8	3.8	1.49e+00	0	42	104	0	28	14041
2026-01-13 09:38:52.99	124.79	27.23	-34.0	-45.8	3.8	1.49e+00	0	42	104	0	28	14020
2026-01-13 09:38:54.00	124.65	27.39	-34.0	-45.7	3.8	1.49e+00	0	42	104	0	28	13981
2026-01-13 09:38:55.00	124.51	27.54	-34.0	-45.8	3.8	1.49e+00	0	42	104	0	28	14069
2026-01-13 09:38:56.01	124.37	27.70	-34.0	-45.8	3.8	1.49e+00	0	42	104	0	28	14046
2026-01-13 09:38:57.02	124.22	27.86	-34.0	-45.8	3.8	1.49e+00	0	42	104	0	28	14013
2026-01-13 09:38:58.02	124.08	28.02	-34.0	-45.8	3.8	1.49e+00	0	42	104	0	28	14026
2026-01-13 09:38:59.03	123.93	28.18	-34.0	-45.8	3.8	1.49e+00	0	42	104	0	28	14033
2026-01-13 09:39:00.03	123.79	28.35	-34.0	-45.8	3.8	1.49e+00	0	42	104	0	28	14036
2026-01-13 09:39:01.04	123.64	28.51	-34.0	-45.8	3.8	1.49e+00	0	42	104	0	28	14018
2026-01-13 09:39:02.05	123.49	28.67	-34.0	-45.7	3.8	1.49e+00	0	42	104	0	28	13974
2026-01-13 09:39:03.06	123.33	28.84	-34.0	-45.8	3.8	1.49e+00	0	42	104	0	28	14013
2026-01-13 09:39:04.06	123.18	29.00	-34.0	-45.8	3.8	1.49e+00	0	42	104	0	28	14022
2026-01-13 09:39:05.07	123.02	29.17	-34.0	-45.8	3.8	1.49e+00	0	42	104	0	28	14004
2026-01-13 09:39:06.07	122.87	29.33	-34.0	-45.8	3.8	1.49e+00	0	42	104	0	28	14030
2026-01-13 09:39:07.08	122.71	29.50	-34.0	-45.8	3.8	1.49e+00	0	42	104	0	28	14051
2026-01-13 09:39:08.09	122.54	29.67	-34.0	-45.8	3.8	1.49e+00	0	42	104	0	28	14011
2026-01-13 09:39:09.09	122.38	29.83	-34.0	-45.8	3.8	1.49e+00	0	42	104	0	28	14094
2026-01-13 09:39:10.10	122.22	30.00	-34.0	-45.8	3.8	1.49e+00	0	42	104	0	28	14054
2026-01-13 09:39:11.11	122.05	30.17	-34.0	-45.8	3.8	1.49e+00	0	42	104	0	28	14004
2026-01-13 09:39:12.11	121.88	30.34	-34.0	-45.8	3.8	1.49e+00	0	42	104	0	28	14067
2026-01-13 09:39:13.11	121.72	30.51	-34.0	-45.8	3.8	1.49e+00	0	42	104	0	28	14024
2026-01-13 09:39:14.12	121.54	30.69	-34.0	-45.8	3.8	1.49e+00	0	42	104	0	28	14039
2026-01-13 09:39:15.13	121.37	30.86	-34.0	-45.8	3.8	1.49e+00	0	42	104	0	28	13998
2026-01-13 09:39:16.13	121.20	31.03	-34.0	-45.8	3.8	1.49e+00	0	42	104	0	28	14015
2026-01-13 09:39:17.14	121.02	31.21	-34.0	-45.8	3.8	1.49e+00	0	42	104	0	28	14017
2026-01-13 09:39:18.14	120.84	31.38	-34.0	-45.8	3.8	1.49e+00	0	42	104	0	28	14031
2026-01-13 09:39:19.15	120.66	31.55	-34.0	-45.8	3.8	1.49e+00	0	42	104	0	28	14036
2026-01-13 09:39:20.15	120.48	31.73	-34.0	-45.8	3.8	1.49e+00	0	42	104	0	28	14028
2026-01-13 09:39:21.16	120.29	31.91	-34.0	-45.8	3.8	1.49e+00	0	42	104	0	28	14016
2026-01-13 09:39:22.17	120.10	32.09	-34.0	-45.8	3.8	1.49e+00	0	42	104	0	28	14038
2026-01-13 09:39:23.18	119.91	32.26	-34.0	-45.8	3.8	1.49e+00	0	42	104	0	28	14005
2026-01-13 09:39:24.18	119.72	32.44	-34.0	-45.8	3.8	1.49e+00	0	42	104	0	28	14038
2026-01-13 09:39:25.19	119.53	32.62	-34.0	-45.8	3.8	1.49e+00	0	42	104	0	28	14045
2026-01-13 09:39:26.19	119.33	32.80	-34.0	-45.8	3.8	1.49e+00	0	42	104	0	28	14046
2026-01-13 09:39:27.20	119.14	32.98	-34.0	-45.8	3.8	1.49e+00	0	42	104	0	28	14015
2026-01-13 09:39:28.20	118.94	33.16	-34.0	-45.8	3.8	1.49e+00	0	42	104	0	28	14044
2026-01-13 09:39:29.20	118.74	33.35	-34.0	-45.8	3.8	1.49e+00	0	42	104	0	28	14023
2026-01-13 09:39:30.21	118.53	33.53	-34.0	-45.8	3.8	1.49e+00	0	42	104	0	28	14059
2026-01-13 09:39:31.22	118.32	33.71	-34.0	-45.8	3.8	1.49e+00	0	42	104	0	28	14067
2026-01-13 09:39:32.22	118.12	33.90	-34.0	-45.8	3.8	1.49e+00	0	42	104	0	28	14015
2026-01-13 09:39:33.23	117.90	34.08	-34.0	-45.8	3.8	1.49e+00	0	42	104	0	28	14003
2026-01-13 09:39:34.24	117.69	34.27	-34.0	-45.8	3.8	1.49e+00	0	42	104	0	28	14063
2026-01-13 09:39:35.25	117.47	34.46	-34.0	-45.8	3.8	1.49e+00	0	42	104	0	28	14040
2026-01-13 09:39:36.25	117.25	34.64	-34.0	-45.8	3.8	1.49e+00	0	42	104	0	28	14041
2026-01-13 09:39:37.26	117.03	34.83	-34.0	-45.8	3.8	1.49e+00	0	42	104	0	28	14070
2026-01-13 09:39:38.26	116.81	35.02	-34.0	-45.8	3.8	1.49e+00	0	42	104	0	28	14059
2026-01-13 09:39:39.27	116.58	35.21	-34.0	-45.8	3.8	1.49e+00	0	42	104	0	28	14036
2026-01-13 09:39:40.27	116.35	35.40	-34.0	-45.8	3.8	1.49e+00	0	42	104	0	28	14039
2026-01-13 09:39:41.28	116.12	35.59	-34.0	-45.8	3.8	1.49e+00	0	42	104	0	28	14052
2026-01-13 09:39:42.29	115.88	35.78	-34.0	-45.8	3.8	1.49e+00	0	42	104	0	28	14073
2026-01-13 09:39:43.29	115.64	35.97	-34.0	-45.8	3.8	1.49e+00	0	42	104	0	28	14008
2026-01-13 09:39:44.30	115.40	36.16	-34.0	-45.8	3.8	1.49e+00	0	42	104	0	28	14053
2026-01-13 09:39:45.30	115.16	36.35	-34.0	-45.8	3.8	1.49e+00	0	42	104	0	28	14021
2026-01-13 09:39:46.32	114.91	36.55	-34.0	-45.8	3.8	1.49e+00	0	42	104	0	28	14015
2026-01-13 09:39:47.32	114.66	36.74	-34.0	-45.8	3.8	1.49e+00	0	42	104	0	28	14010
2026-01-13 09:39:48.33	114.41	36.94	-34.0	-45.8	3.8	1.49e+00	0	42	104	0	28	14036
2026-01-13 09:39:49.34	114.15	37.13	-34.0	-45.8	3.8	1.49e+00	0	42	104	0	28	14048
2026-01-13 09:39:50.34	113.90	37.32	-34.0	-45.8	3.8	1.49e+00	0	42	104	0	28	14034
2026-01-13 09:39:51.35	113.63	37.52	-34.0	-45.8	3.8	1.49e+00	0	42	104	0	28	14035
2026-01-13 09:39:52.35	113.37	37.71	-34.0	-45.8	3.8	1.49e+00	0	42	104	0	28	14028
2026-01-13 09:39:53.36	113.10	37.91	-34.0	-45.8	3.8	1.49e+00	0	42	104	0	28	14028
2026-01-13 09:39:54.37	112.83	38.11	-34.0	-45.8	3.8	1.49e+00	0	42	104	0	28	14024
2026-01-13 09:39:55.38	112.55	38.31	-34.0	-45.8	3.8	1.49e+00	0	42	104	0	28	14087
2026-01-13 09:39:56.38	112.28	38.50	-34.0	-45.8	3.8	1.49e+00	0	42	104	0	28	14056
2026-01-13 09:39:57.40	111.99	38.70	-34.0	-45.8	3.8	1.49e+00	0	42	104	0	28	13982
2026-01-13 09:39:58.41	111.70	38.90	-34.0	-45.8	3.8	1.49e+00	0	42	104	0	28	14065
2026-01-13 09:39:59.41	111.42	39.10	-34.0	-45.8	3.8	1.49e+00	0	42	104	0	28	14035
2026-01-13 09:40:00.41	111.13	39.30	-34.0	-45.8	3.8	1.49e+00	0	42	104	0	28	14067
2026-01-13 09:40:01.42	110.83	39.50	-34.0	-45.8	3.8	1.49e+00	0	42	104	0	28	14003
2026-01-13 09:40:02.43	110.53	39.70	-34.0	-45.8	3.8	1.49e+00	0	42	104	0	28	14020
2026-01-13 09:40:03.43	110.23	39.90	-34.0	-45.8	3.8	1.49e+00	0	42	104	0	28	14000
2026-01-13 09:40:04.44	109.92	40.10	-34.0	-45.8	3.8	1.49e+00	0	42	104	0	28	14075
2026-01-13 09:40:05.44	109.61	40.30	-34.0	-45.8	3.8	1.49e+00	0	42	104	0	28	14038
2026-01-13 09:40:06.45	109.29	40.50	-34.0	-45.8	3.8	1.49e+00	0	42	104	0	28	14005
2026-01-13 09:40:07.46	108.97	40.70	-34.0	-45.8	3.8	1.49e+00	0	42	104	0	28	13985
2026-01-13 09:40:08.47	108.65	40.90	-34.0	-45.8	3.8	1.49e+00	0	42	104	0	28	14011
2026-01-13 09:40:09.47	108.33	41.10	-34.0	-45.8	3.8	1.49e+00	0	42	104	0	28	14065
2026-01-13 09:40:10.48	107.99	41.30	-34.0	-45.8	3.8	1.49e+00	0	42	104	0	28	14037
2026-01-13 09:40:11.49	107.66	41.50	-34.0	-45.8	3.8	1.49e+00	0	42	104	0	28	14063
2026-01-13 09:40:12.50	107.32	41.70	-34.0	-45.8	3.8	1.49e+00	0	42	104	0	28	14039
2026-01-13 09:40:13.50	106.98	41.90	-34.0	-45.8	3.8	1.49e+00	0	42	104	0	28	14043
2026-01-13 09:40:14.51	106.63	42.10	-34.0	-45.8	3.8	1.49e+00	0	42	104	0	28	14044
2026-01-13 09:40:15.51	106.28	42.30	-34.0	-45.8	3.8	1.49e+00	0	42	104	0	28	14040
2026-01-13 09:40:16.51	105.92	42.50	-34.0	-45.8	3.8	1.49e+00	0	42	104	0	28	14063
2026-01-13 09:40:17.52	105.56	42.70	-34.0	-45.8	3.8	1.49e+00	0	42	104	0	28	14003
2026-01-13 09:40:18.52	105.20	42.90	-34.0	-45.8	3.8	1.49e+00	0	42	104	0	28	14019
2026-01-13 09:40:19.53	104.83	43.10	-34.0	-45.8	3.8	1.49e+00	0	42	104	0	28	14012
2026-01-13 09:40:20.53	104.45	43.30	-34.0	-45.8	3.8	1.49e+00	0	42	104	0	28	14057
2026-01-13 09:40:21.53	104.08	43.49	-34.0	-45.8	3.8	1.49e+00	0	42	104	0	28	14075
2026-01-13 09:40:22.53	103.69	43.69	-34.0	-45.8	3.8	1.49e+00	0	42	104	0	28	14036
2026-01-13 09:40:23.53	103.31	43.89	-34.0	-45.8	3.8	1.49e+00	0	42	104	0	28	14049
2026-01-13 09:40:24.55	102.91	44.09	-34.0	-45.8	3.8	1.49e+00	0	42	104	0	28	14022
2026-01-13 09:40:25.56	102.51	44.28	-34.0	-45.8	3.8	1.49e+00	0	42	104	0	28	14057
2026-01-13 09:40:26.56	102.11	44.48	-34.0	-45.8	3.8	1.49e+00	0	42	104	0	28	14047
2026-01-13 09:40:27.57	101.70	44.67	-34.0	-45.8	3.8	1.49e+00	0	42	104	0	28	14045
2026-01-13 09:40:28.58	101.28	44.87	-34.0	-45.8	3.8	1.49e+00	0	42	104	0	28	14069
2026-01-13 09:40:29.58	100.86	45.06	-34.0	-45.8	3.8	1.49e+00	0	42	104	0	28	14014
2026-01-13 09:40:30.59	100.44	45.26	-34.0	-45.8	3.8	1.49e+00	0	42	104	0	28	14022
2026-01-13 09:40:31.60	100.01	45.45	-34.0	-45.8	3.8	1.49e+00	0	42	104	0	28	14037
2026-01-13 09:40:32.61	99.57	45.64	-34.0	-45.8	3.8	1.49e+00	0	42	104	0	28	14053
2026-01-13 09:40:33.61	99.14	45.83	-34.0	-45.8	3.8	1.49e+00	0	42	104	0	28	14021
2026-01-13 09:40:34.61	98.69	46.02	-34.0	-45.8	3.8	1.49e+00	0	42	104	0	28	14049
2026-01-13 09:40:35.61	98.24	46.21	-34.0	-45.8	3.8	1.49e+00	0	42	104	0	28	14030
2026-01-13 09:40:36.62	97.79	46.39	-34.0	-45.8	3.8	1.49e+00	0	42	104	0	28	14029
2026-01-13 09:40:37.62	97.33	46.58	-34.0	-45.8	3.8	1.49e+00	0	42	104	0	28	14003
2026-01-13 09:40:38.63	96.86	46.76	-34.0	-45.8	3.8	1.49e+00	0	42	104	0	28	13998
2026-01-13 09:40:39.63	96.39	46.95	-34.0	-45.8	3.8	1.49e+00	0	42	104	0	28	14070
2026-01-13 09:40:40.64	95.91	47.13	-34.0	-45.8	3.8	1.49e+00	0	42	104	0	28	14039
2026-01-13 09:40:41.65	95.43	47.31	-34.0	-45.8	3.8	1.49e+00	0	42	104	0	28	14080
2026-01-13 09:40:42.65	94.94	47.49	-34.0	-45.8	3.8	1.49e+00	0	42	104	0	28	14044
2026-01-13 09:40:43.66	94.44	47.67	-34.0	-45.8	3.8	1.49e+00	0	42	104	0	28	14049
2026-01-13 09:40:44.66	93.95	47.84	-34.0	-45.8	3.8	1.49e+00	0	42	104	0	28	14071
2026-01-13 09:40:45.66	93.44	48.02	-34.0	-45.8	3.8	1.49e+00	0	42	104	0	28	14045
2026-01-13 09:40:46.67	92.93	48.19	-34.0	-45.8	3.8	1.49e+00	0	42	104	0	28	13972
2026-01-13 09:40:47.67	92.41	48.36	-34.0	-45.8	3.8	1.49e+00	0	42	104	0	28	14056
2026-01-13 09:40:48.68	91.89	48.53	-34.0	-45.8	3.8	1.49e+00	0	42	104	0	28	14037
2026-01-13 09:40:49.69	91.36	48.70	-34.0	-45.8	3.8	1.49e+00	0	42	104	0	28	14038
2026-01-13 09:40:50.70	90.82	48.86	-34.0	-45.8	3.8	1.49e+00	0	42	104	0	28	14041
2026-01-13 09:40:51.69	90.29	49.02	-34.0	-45.8	3.8	1.49e+00	0	42	104	0	28	14063
2026-01-13 09:40:52.70	89.74	49.18	-34.0	-45.8	3.8	1.49e+00	0	42	104	0	28	14025
2026-01-13 09:40:53.71	89.19	49.34	-34.0	-45.8	3.8	1.49e+00	0	42	104	0	28	14016
2026-01-13 09:40:54.71	88.63	49.50	-34.0	-45.8	3.8	1.49e+00	0	42	104	0	28	14020
2026-01-13 09:40:55.72	88.07	49.65	-34.0	-45.8	3.8	1.49e+00	0	42	104	0	28	14049
2026-01-13 09:40:56.73	87.50	49.80	-34.0	-45.8	3.8	1.49e+00	0	42	104	0	28	14050
2026-01-13 09:40:57.74	86.92	49.95	-34.0	-45.8	3.8	1.49e+00	0	42	104	0	28	14094
2026-01-13 09:40:58.74	86.34	50.10	-34.0	-45.8	3.8	1.49e+00	0	42	104	0	28	14052
2026-01-13 09:40:59.75	85.75	50.24	-34.0	-45.8	3.8	1.49e+00	0	42	104	0	28	14038
2026-01-13 09:41:00.76	85.16	50.38	-34.0	-45.8	3.8	1.49e+00	0	42	104	0	28	14033
2026-01-13 09:41:01.77	84.56	50.52	-34.0	-45.8	3.8	1.49e+00	0	42	104	0	28	14073
2026-01-13 09:41:02.77	83.96	50.65	-34.0	-45.8	3.8	1.49e+00	0	42	104	0	28	14070
2026-01-13 09:41:03.78	83.35	50.78	-34.0	-45.8	3.8	1.49e+00	0	42	104	0	28	14020
2026-01-13 09:41:04.78	82.74	50.91	-34.0	-45.8	3.8	1.49e+00	0	42	104	0	28	14062
2026-01-13 09:41:05.78	82.13	51.04	-34.0	-45.8	3.8	1.49e+00	0	42	104	0	28	14046
2026-01-13 09:41:06.79	81.50	51.16	-34.0	-45.8	3.8	1.49e+00	0	42	104	0	28	14062
2026-01-13 09:41:07.79	80.88	51.28	-34.0	-45.8	3.8	1.49e+00	0	42	104	0	28	14027
2026-01-13 09:41:08.80	80.24	51.39	-34.0	-45.8	3.8	1.49e+00	0	42	104	0	28	14030
2026-01-13 09:41:09.81	79.60	51.50	-34.0	-45.8	3.8	1.49e+00	0	42	104	0	28	14048
2026-01-13 09:41:10.82	78.96	51.61	-34.0	-45.8	3.8	1.49e+00	0	42	104	0	28	14019
2026-01-13 09:41:11.83	78.31	51.72	-34.0	-45.8	3.8	1.49e+00	0	42	104	0	28	14059
2026-01-13 09:41:12.84	77.65	51.82	-34.0	-45.8	3.8	1.49e+00	0	42	104	0	28	14060
2026-01-13 09:41:13.85	77.00	51.92	-34.0	-45.8	3.8	1.49e+00	0	42	104	0	28	14044
2026-01-13 09:41:14.85	76.34	52.01	-34.0	-45.8	3.8	1.49e+00	0	42	104	0	28	14046
2026-01-13 09:41:15.85	75.68	52.10	-34.0	-45.8	3.8	1.49e+00	0	42	104	0	28	14025
2026-01-13 09:41:16.86	75.01	52.19	-34.0	-45.8	3.8	1.49e+00	0	42	104	0	28	14035
2026-01-13 09:41:17.87	74.33	52.27	-34.0	-45.8	3.8	1.49e+00	0	42	104	0	28	14003
2026-01-13 09:41:18.88	73.65	52.35	-34.0	-45.8	3.8	1.49e+00	0	42	104	0	28	14004
2026-01-13 09:41:19.89	72.97	52.42	-34.0	-45.8	3.8	1.49e+00	0	42	104	0	28	14011
2026-01-13 09:41:20.89	72.29	52.49	-34.0	-45.8	3.8	1.49e+00	0	42	104	0	28	14025
2026-01-13 09:41:21.89	71.61	52.56	-34.0	-45.8	3.8	1.49e+00	0	42	104	0	28	14003
2026-01-13 09:41:22.90	70.92	52.62	-34.0	-45.8	3.8	1.49e+00	0	42	104	0	28	14033
2026-01-13 09:41:23.90	70.23	52.68	-34.0	-45.8	3.8	1.49e+00	0	42	104	0	28	14017
2026-01-13 09:41:24.91	69.54	52.73	-34.0	-45.8	3.8	1.49e+00	0	42	104	0	28	14050
2026-01-13 09:41:25.92	68.84	52.78	-34.0	-45.8	3.8	1.49e+00	0	42	104	0	28	14014
2026-01-13 09:41:26.93	68.13	52.83	-34.0	-45.8	3.8	1.49e+00	0	42	104	0	28	14023
2026-01-13 09:41:27.93	67.44	52.87	-34.0	-45.8	3.8	1.49e+00	0	42	104	0	28	14016
2026-01-13 09:41:28.94	66.73	52.90	-34.0	-45.8	3.8	1.49e+00	0	42	104	0	28	14013
2026-01-13 09:41:29.94	66.03	52.93	-34.0	-45.8	3.8	1.49e+00	0	42	104	0	28	14052
2026-01-13 09:41:30.95	65.32	52.96	-34.0	-45.8	3.8	1.49e+00	0	42	104	0	28	14036
2026-01-13 09:41:31.95	64.62	52.98	-34.0	-45.8	3.8	1.49e+00	0	42	104	0	28	14068
2026-01-13 09:41:32.96	63.91	53.00	-34.0	-45.8	3.8	1.49e+00	0	42	104	0	28	14077
2026-01-13 09:41:33.96	63.21	53.01	-34.0	-45.8	3.8	1.49e+00	0	42	104	0	28	14018
2026-01-13 09:41:34.96	62.50	53.02	-34.0	-45.8	3.8	1.49e+00	0	42	104	0	28	14032
2026-01-13 09:41:35.97	61.79	53.03	-34.0	-45.8	3.8	1.49e+00	0	42	104	0	28	14077
2026-01-13 09:41:36.97	61.08	53.03	-34.0	-45.8	3.8	1.49e+00	0	42	104	0	28	14055
2026-01-13 09:41:37.97	60.38	53.02	-34.0	-45.8	3.8	1.49e+00	0	42	104	0	28	14031
2026-01-13 09:41:38.98	59.67	53.02	-34.0	-45.8	3.8	1.49e+00	0	42	104	0	28	14053
2026-01-13 09:41:39.99	58.96	53.00	-34.0	-45.8	3.8	1.49e+00	0	42	104	0	28	14080
2026-01-13 09:41:41.00	58.24	52.98	-34.0	-45.8	3.8	1.49e+00	0	42	104	0	28	14027
2026-01-13 09:41:42.01	57.54	52.96	-34.0	-45.8	3.8	1.49e+00	0	42	104	0	28	13997
2026-01-13 09:41:43.02	56.83	52.93	-34.0	-45.8	3.8	1.49e+00	0	42	104	0	28	14041
2026-01-13 09:41:44.03	56.12	52.90	-34.0	-45.8	3.8	1.49e+00	0	42	104	0	28	14045
2026-01-13 09:41:45.04	55.41	52.87	-34.0	-45.8	3.8	1.49e+00	0	42	104	0	28	13979
2026-01-13 09:41:46.04	54.72	52.83	-34.0	-45.8	3.8	1.49e+00	0	42	104	0	28	14032
2026-01-13 09:41:47.05	54.02	52.78	-34.0	-45.8	3.8	1.49e+00	0	42	104	0	28	14055
2026-01-13 09:41:48.05	53.32	52.74	-34.0	-45.8	3.8	1.49e+00	0	42	104	0	28	14023
2026-01-13 09:41:49.06	52.63	52.68	-34.0	-45.8	3.8	1.49e+00	0	42	104	0	28	14051
2026-01-13 09:41:50.08	51.93	52.62	-34.0	-45.8	3.8	1.49e+00	0	42	104	0	28	14012
2026-01-13 09:41:51.07	51.25	52.56	-34.0	-45.8	3.8	1.49e+00	0	42	104	0	28	14054
2026-01-13 09:41:52.08	50.56	52.50	-34.0	-45.8	3.8	1.49e+00	0	42	104	0	28	14069
2026-01-13 09:41:53.09	49.88	52.43	-34.0	-45.8	3.8	1.49e+00	0	42	104	0	28	14058
2026-01-13 09:41:54.09	49.20	52.35	-34.0	-45.8	3.8	1.49e+00	0	42	104	0	28	14047
2026-01-13 09:41:55.10	48.52	52.28	-34.0	-45.8	3.8	1.49e+00	0	42	104	0	28	14042
2026-01-13 09:41:56.11	47.85	52.19	-34.0	-45.8	3.8	1.49e+00	0	42	104	0	28	14032
2026-01-13 09:41:57.11	47.19	52.11	-34.0	-45.8	3.8	1.49e+00	0	42	104	0	28	14039
2026-01-13 09:41:58.12	46.52	52.02	-34.0	-45.8	3.8	1.49e+00	0	42	104	0	28	14066
2026-01-13 09:41:59.13	45.86	51.92	-34.0	-45.8	3.8	1.49e+00	0	42	104	0	28	14042
2026-01-13 09:42:00.14	45.20	51.83	-34.0	-45.8	3.8	1.49e+00	0	42	104	0	28	13989
2026-01-13 09:42:01.13	44.56	51.73	-34.0	-45.8	3.8	1.49e+00	0	42	104	0	28	14027
2026-01-13 09:42:02.14	43.91	51.62	-34.0	-45.8	3.8	1.49e+00	0	42	104	0	28	14039
2026-01-13 09:42:03.14	43.27	51.52	-34.0	-45.8	3.8	1.49e+00	0	42	104	0	28	14002
2026-01-13 09:42:04.15	42.63	51.40	-34.0	-45.8	3.8	1.49e+00	0	42	104	0	28	14067
2026-01-13 09:42:05.15	42.00	51.29	-34.0	-45.8	3.8	1.49e+00	0	42	104	0	28	14040
2026-01-13 09:42:06.16	41.37	51.17	-34.0	-45.8	3.8	1.49e+00	0	43	104	0	28	14064
2026-01-13 09:42:07.16	40.75	51.05	-34.0	-45.8	3.8	1.49e+00	0	42	104	0	28	14044
2026-01-13 09:42:08.17	40.13	50.92	-34.0	-45.8	3.8	1.49e+00	0	42	104	0	28	14077
2026-01-13 09:42:09.17	39.52	50.80	-34.0	-45.8	3.8	1.49e+00	0	42	104	0	28	14041
2026-01-13 09:42:10.18	38.91	50.67	-34.0	-45.8	3.8	1.49e+00	0	42	104	0	28	14029
2026-01-13 09:42:11.19	38.31	50.53	-34.0	-45.8	3.8	1.49e+00	0	42	104	0	28	14054
2026-01-13 09:42:12.19	37.72	50.40	-34.0	-45.8	3.8	1.49e+00	0	42	104	0	28	14041
2026-01-13 09:42:13.20	37.12	50.26	-34.0	-45.8	3.8	1.49e+00	0	42	104	0	28	14015
2026-01-13 09:42:14.20	36.54	50.11	-34.0	-45.8	3.8	1.49e+00	0	42	104	0	28	14062
2026-01-13 09:42:15.21	35.96	49.97	-34.0	-45.8	3.8	1.49e+00	0	42	104	0	28	14044
2026-01-13 09:42:16.21	35.39	49.82	-34.0	-45.8	3.8	1.49e+00	0	42	104	0	28	14051
2026-01-13 09:42:17.22	34.82	49.67	-34.0	-45.8	3.8	1.49e+00	0	43	104	0	28	14025
2026-01-13 09:42:18.22	34.26	49.52	-34.0	-45.8	3.8	1.49e+00	0	42	104	0	28	14085
2026-01-13 09:42:19.23	33.70	49.36	-34.0	-45.8	3.8	1.49e+00	0	42	104	0	28	14065
2026-01-13 09:42:20.24	33.15	49.20	-34.0	-45.8	3.8	1.49e+00	0	42	104	0	28	14059
2026-01-13 09:42:21.23	32.61	49.05	-34.0	-45.8	3.8	1.49e+00	0	42	104	0	28	14045
2026-01-13 09:42:22.24	32.07	48.88	-34.0	-45.8	3.8	1.49e+00	0	42	104	0	28	14073
2026-01-13 09:42:23.25	31.53	48.72	-34.0	-45.8	3.8	1.49e+00	0	42	104	0	28	13999
2026-01-13 09:42:24.25	31.01	48.56	-34.0	-45.8	3.8	1.49e+00	0	42	104	0	28	14011
2026-01-13 09:42:25.26	30.48	48.39	-34.0	-45.8	3.8	1.49e+00	0	42	104	0	28	14057
2026-01-13 09:42:26.27	29.96	48.22	-34.0	-45.8	3.8	1.49e+00	0	42	104	0	28	14065
2026-01-13 09:42:27.27	29.45	48.04	-34.0	-45.8	3.8	1.49e+00	0	42	104	0	28	14056
2026-01-13 09:42:28.27	28.95	47.87	-34.0	-45.8	3.8	1.49e+00	0	42	104	0	28	14030
2026-01-13 09:42:29.28	28.45	47.70	-34.0	-45.8	3.8	1.49e+00	0	43	104	0	28	14035
2026-01-13 09:42:30.28	27.96	47.52	-34.0	-45.8	3.8	1.49e+00	0	43	104	0	28	14028
2026-01-13 09:42:31.28	27.47	47.34	-34.0	-45.8	3.8	1.49e+00	0	42	104	0	28	14044
2026-01-13 09:42:32.29	26.99	47.16	-34.0	-45.8	3.8	1.49e+00	0	42	104	0	28	14061
2026-01-13 09:42:33.29	26.51	46.98	-34.0	-45.8	3.8	1.49e+00	0	42	104	0	28	14058
2026-01-13 09:42:34.30	26.04	46.80	-34.0	-45.8	3.8	1.49e+00	0	42	104	0	28	14061
2026-01-13 09:42:35.31	25.57	46.61	-34.0	-45.8	3.8	1.49e+00	0	43	104	0	28	14064
2026-01-13 09:42:36.31	25.11	46.43	-34.0	-45.8	3.8	1.49e+00	0	42	104	0	28	14077
2026-01-13 09:42:37.31	24.66	46.24	-34.0	-45.8	3.8	1.49e+00	0	42	104	0	28	14060
2026-01-13 09:42:38.31	24.21	46.06	-34.0	-45.8	3.8	1.49e+00	0	42	104	0	28	14012
2026-01-13 09:42:39.32	23.77	45.87	-34.0	-45.8	3.8	1.49e+00	0	43	104	0	28	14042
2026-01-13 09:42:40.33	23.33	45.68	-34.0	-45.8	3.8	1.49e+00	0	42	104	0	28	14015
2026-01-13 09:42:41.34	22.89	45.49	-34.0	-45.8	3.8	1.49e+00	0	42	104	0	28	14084
2026-01-13 09:42:42.34	22.46	45.30	-34.0	-45.8	3.8	1.49e+00	0	42	104	0	28	14048
2026-01-13 09:42:43.34	22.04	45.11	-34.0	-45.8	3.8	1.49e+00	0	42	104	0	28	14061
2026-01-13 09:42:44.35	21.62	44.91	-34.0	-45.8	3.8	1.49e+00	0	42	104	0	28	14055
2026-01-13 09:42:45.36	21.21	44.72	-34.0	-45.8	3.8	1.49e+00	0	42	104	0	28	14036
2026-01-13 09:42:46.36	20.80	44.52	-34.0	-45.8	3.8	1.49e+00	0	42	104	0	28	14047
2026-01-13 09:42:47.36	20.40	44.33	-34.0	-45.8	3.8	1.49e+00	0	42	104	0	28	14075
2026-01-13 09:42:48.37	20.00	44.13	-34.0	-45.8	3.8	1.49e+00	0	42	104	0	28	14028
2026-01-13 09:42:49.37	19.61	43.94	-34.0	-45.8	3.8	1.49e+00	0	42	104	0	28	14038
2026-01-13 09:42:50.38	19.22	43.74	-34.0	-45.8	3.8	1.49e+00	0	43	104	0	28	14033
2026-01-13 09:42:51.39	18.84	43.54	-34.0	-45.8	3.8	1.49e+00	0	42	104	0	28	14065
2026-01-13 09:42:52.40	18.46	43.34	-34.0	-45.8	3.8	1.49e+00	0	42	104	0	28	14084
2026-01-13 09:42:53.40	18.08	43.15	-34.0	-45.8	3.8	1.49e+00	0	42	104	0	28	14037
2026-01-13 09:42:54.41	17.71	42.95	-34.0	-45.8	3.8	1.49e+00	0	43	104	0	28	14052
2026-01-13 09:42:55.41	17.35	42.75	-34.0	-45.8	3.8	1.49e+00	0	42	104	0	28	14004
2026-01-13 09:42:56.42	16.99	42.55	-34.0	-45.8	3.8	1.49e+00	0	42	104	0	28	14027
2026-01-13 09:42:57.43	16.63	42.35	-34.0	-45.8	3.8	1.49e+00	0	42	104	0	28	14024
2026-01-13 09:42:58.43	16.28	42.15	-34.0	-45.8	3.8	1.49e+00	0	42	104	0	28	14021
2026-01-13 09:42:59.44	15.93	41.95	-34.0	-45.8	3.8	1.49e+00	0	42	104	0	28	14051
2026-01-13 09:43:00.45	15.59	41.75	-34.0	-45.8	3.8	1.49e+00	0	42	104	0	28	14036
2026-01-13 09:43:01.46	15.25	41.55	-34.0	-45.8	3.8	1.49e+00	0	42	104	0	28	14076
2026-01-13 09:43:02.46	14.92	41.35	-34.0	-45.8	3.8	1.49e+00	0	42	104	0	28	14033
2026-01-13 09:43:03.47	14.59	41.15	-34.0	-45.8	3.8	1.49e+00	0	42	104	0	28	14084
2026-01-13 09:43:04.48	14.26	40.95	-34.0	-45.9	3.8	1.49e+00	0	42	104	0	28	14096
2026-01-13 09:43:05.49	13.93	40.75	-34.0	-45.8	3.8	1.49e+00	0	42	104	0	28	14036
2026-01-13 09:43:06.49	13.62	40.55	-34.0	-45.8	3.8	1.49e+00	0	43	104	0	28	14041
2026-01-13 09:43:07.49	13.31	40.36	-34.0	-45.8	3.8	1.49e+00	0	42	104	0	28	14040
2026-01-13 09:43:08.50	12.99	40.16	-34.0	-45.8	3.8	1.49e+00	0	42	104	0	28	14049
2026-01-13 09:43:09.51	12.69	39.96	-34.0	-45.8	3.8	1.49e+00	0	42	104	0	28	14050
2026-01-13 09:43:10.52	12.38	39.76	-34.0	-45.8	3.8	1.49e+00	0	42	104	0	28	14038
2026-01-13 09:43:11.52	12.09	39.56	-34.0	-45.8	3.8	1.49e+00	0	42	104	0	28	14052
2026-01-13 09:43:12.53	11.79	39.36	-34.0	-45.8	3.8	1.49e+00	0	42	104	0	28	14027
2026-01-13 09:43:13.54	11.50	39.16	-34.0	-45.8	3.8	1.49e+00	0	42	104	0	28	14000
2026-01-13 09:43:14.54	11.21	38.97	-34.0	-45.8	3.8	1.49e+00	0	42	104	0	28	14057
2026-01-13 09:43:15.55	10.92	38.77	-34.0	-45.8	3.8	1.49e+00	0	43	104	0	28	14023
2026-01-13 09:43:16.55	10.65	38.57	-34.0	-45.8	3.8	1.49e+00	0	42	104	0	28	14028
2026-01-13 09:43:17.56	10.37	38.37	-34.0	-45.8	3.8	1.49e+00	0	42	104	0	28	14038
2026-01-13 09:43:18.57	10.09	38.18	-34.0	-45.8	3.8	1.49e+00	0	42	104	0	28	14054
2026-01-13 09:43:19.58	9.82	37.98	-34.0	-45.8	3.8	1.49e+00	0	42	104	0	28	14097
2026-01-13 09:43:20.59	9.55	37.78	-34.0	-45.8	3.8	1.49e+00	0	42	104	0	28	14041
2026-01-13 09:43:21.59	9.29	37.59	-34.0	-45.8	3.8	1.49e+00	0	42	104	0	28	14045
2026-01-13 09:43:22.60	9.03	37.39	-34.0	-45.8	3.8	1.49e+00	0	43	104	0	28	14007
2026-01-13 09:43:23.60	8.77	37.20	-34.0	-45.8	3.8	1.49e+00	0	42	104	0	28	14054
2026-01-13 09:43:24.61	8.51	37.01	-34.0	-45.8	3.8	1.49e+00	0	42	104	0	28	14084
2026-01-13 09:43:25.62	8.26	36.81	-34.0	-45.8	3.8	1.49e+00	0	42	104	0	28	14043
2026-01-13 09:43:26.62	8.01	36.62	-34.0	-45.8	3.8	1.49e+00	0	42	104	0	28	14007
2026-01-13 09:43:27.63	7.76	36.43	-34.0	-45.8	3.8	1.49e+00	0	42	104	0	28	14037
2026-01-13 09:43:28.64	7.52	36.24	-34.0	-45.8	3.8	1.49e+00	0	43	104	0	28	14087
2026-01-13 09:43:29.65	7.28	36.04	-34.0	-45.8	3.8	1.49e+00	0	42	104	0	28	14026
2026-01-13 09:43:30.65	7.04	35.86	-34.0	-45.8	3.8	1.49e+00	0	42	104	0	28	14068
2026-01-13 09:43:31.66	6.81	35.66	-34.0	-45.8	3.8	1.49e+00	0	42	104	0	28	14031
2026-01-13 09:43:32.67	6.58	35.47	-34.0	-45.8	3.8	1.49e+00	0	42	104	0	28	14096
2026-01-13 09:43:33.67	6.35	35.29	-34.0	-45.9	3.8	1.49e+00	0	42	104	0	28	14085
2026-01-13 09:43:34.68	6.12	35.10	-34.0	-45.8	3.8	1.49e+00	0	42	104	0	28	14059
2026-01-13 09:43:35.69	5.90	34.91	-34.0	-45.8	3.8	1.49e+00	0	42	104	0	28	14036
2026-01-13 09:43:36.69	5.68	34.72	-34.0	-45.8	3.8	1.49e+00	0	42	104	0	28	14076
2026-01-13 09:43:37.70	5.46	34.54	-34.0	-45.8	3.8	1.49e+00	0	42	104	0	28	14013
2026-01-13 09:43:38.70	5.24	34.35	-34.0	-45.8	3.8	1.49e+00	0	42	104	0	28	14039
2026-01-13 09:43:39.71	5.03	34.17	-34.0	-45.8	3.8	1.49e+00	0	42	104	0	28	14044
2026-01-13 09:43:40.72	4.81	33.98	-34.0	-45.8	3.8	1.49e+00	0	42	104	0	28	14089
2026-01-13 09:43:41.72	4.61	33.80	-34.0	-45.8	3.8	1.49e+00	0	42	104	0	28	14043
2026-01-13 09:43:42.73	4.40	33.62	-34.0	-45.8	3.8	1.49e+00	0	42	104	0	28	14073
2026-01-13 09:43:43.74	4.20	33.43	-34.0	-45.8	3.8	1.49e+00	0	42	104	0	28	14072
2026-01-13 09:43:44.74	3.99	33.25	-34.0	-45.8	3.8	1.49e+00	0	42	104	0	28	14030
2026-01-13 09:43:45.75	3.79	33.07	-34.0	-45.8	3.8	1.49e+00	0	42	104	0	28	14053
2026-01-13 09:43:46.75	3.60	32.89	-34.0	-45.8	3.8	1.49e+00	0	42	104	0	28	14076
2026-01-13 09:43:47.76	3.40	32.71	-34.0	-45.8	3.8	1.49e+00	0	43	104	0	28	14031
2026-01-13 09:43:48.76	3.21	32.53	-34.0	-45.8	3.8	1.49e+00	0	42	104	0	28	14026
2026-01-13 09:43:49.76	3.02	32.36	-34.0	-45.8	3.8	1.49e+00	0	42	104	0	28	14053
2026-01-13 09:43:50.77	2.83	32.18	-34.0	-45.8	3.8	1.49e+00	0	42	104	0	28	14040
2026-01-13 09:43:51.78	2.64	32.00	-34.0	-45.8	3.8	1.49e+00	0	42	104	0	28	14053
2026-01-13 09:43:52.79	2.46	31.82	-34.0	-45.8	3.8	1.49e+00	0	42	104	0	28	14078
2026-01-13 09:43:53.80	2.28	31.65	-34.0	-45.8	3.8	1.49e+00	0	42	104	0	28	14050
2026-01-13 09:43:54.80	2.10	31.47	-34.0	-45.8	3.8	1.49e+00	0	42	104	0	28	14017
2026-01-13 09:43:55.81	1.92	31.30	-34.0	-45.8	3.8	1.49e+00	0	42	104	0	28	14034
2026-01-13 09:43:56.83	1.74	31.12	-34.0	-45.8	3.8	1.49e+00	0	42	104	0	28	14079
2026-01-13 09:43:57.84	1.56	30.95	-34.0	-45.8	3.8	1.49e+00	0	42	104	0	28	14018
2026-01-13 09:43:58.84	1.39	30.78	-34.0	-45.8	3.8	1.49e+00	0	42	104	0	28	14039
2026-01-13 09:43:59.85	1.22	30.61	-34.0	-45.8	3.8	1.49e+00	0	42	104	0	28	14014
2026-01-13 09:44:00.86	1.05	30.44	-34.0	-45.8	3.8	1.49e+00	0	42	104	0	28	14046
2026-01-13 09:44:01.86	0.88	30.27	-34.0	-45.8	3.8	1.49e+00	0	42	104	0	28	14033
2026-01-13 09:44:02.86	0.72	30.10	-34.0	-45.8	3.8	1.49e+00	0	42	104	0	28	14007
2026-01-13 09:44:03.87	0.56	29.93	-34.0	-45.8	3.8	1.49e+00	0	42	104	0	28	14061
2026-01-13 09:44:04.89	0.39	29.76	-34.0	-45.8	3.8	1.49e+00	0	42	104	0	28	14062
2026-01-13 09:44:05.90	0.23	29.59	-34.0	-45.8	3.8	1.49e+00	0	43	104	0	28	14053
2026-01-13 09:44:06.90	0.07	29.43	-34.0	-45.8	3.8	1.49e+00	0	43	104	0	28	14052
2026-01-13 09:44:07.90	359.92	29.26	-34.0	-45.8	3.8	1.49e+00	0	42	104	0	28	14047
2026-01-13 09:44:08.91	359.76	29.10	-34.0	-45.8	3.8	1.49e+00	0	42	104	0	28	14049
2026-01-13 09:44:09.92	359.61	28.93	-34.0	-45.8	3.8	1.49e+00	0	42	104	0	28	14032
2026-01-13 09:44:10.92	359.46	28.77	-34.0	-45.8	3.8	1.49e+00	0	43	104	0	28	14075
2026-01-13 09:44:11.93	359.30	28.61	-34.0	-45.8	3.8	1.49e+00	0	42	104	0	28	14017
2026-01-13 09:44:12.94	359.16	28.45	-34.0	-45.8	3.8	1.49e+00	0	42	104	0	28	14025
2026-01-13 09:44:13.94	359.01	28.29	-34.0	-45.8	3.8	1.49e+00	0	42	104	0	28	14111
2026-01-13 09:44:14.95	358.86	28.13	-34.0	-45.8	3.8	1.49e+00	0	42	104	0	28	14076
2026-01-13 09:44:15.96	358.72	27.96	-34.0	-45.8	3.8	1.49e+00	0	42	104	0	28	14056
2026-01-13 09:44:16.96	358.57	27.81	-34.0	-45.8	3.8	1.49e+00	0	42	104	0	28	14055
2026-01-13 09:44:17.97	358.43	27.65	-34.0	-45.8	3.8	1.49e+00	0	42	104	0	28	14042
2026-01-13 09:44:18.98	358.29	27.49	-34.0	-45.8	3.8	1.49e+00	0	42	104	0	28	14066
2026-01-13 09:44:19.99	358.15	27.33	-34.0	-45.9	3.8	1.49e+00	0	43	104	0	28	14101
2026-01-13 09:44:21.00	358.02	27.18	-34.0	-45.8	3.8	1.49e+00	0	42	104	0	28	14085
2026-01-13 09:44:22.00	357.88	27.02	-34.0	-45.8	3.8	1.49e+00	0	42	104	0	28	14032
2026-01-13 09:44:23.01	357.75	26.87	-34.0	-45.8	3.8	1.49e+00	0	43	104	0	28	14070
2026-01-13 09:44:24.01	357.61	26.71	-34.0	-45.8	3.8	1.49e+00	0	42	104	0	28	14057
2026-01-13 09:44:25.02	357.48	26.56	-34.0	-45.8	3.8	1.49e+00	0	42	104	0	28	14041
2026-01-13 09:44:26.03	357.35	26.41	-34.0	-45.8	3.8	1.49e+00	0	42	104	0	28	14054
2026-01-13 09:44:27.03	357.22	26.26	-34.0	-45.8	3.8	1.49e+00	0	42	104	0	28	14083
2026-01-13 09:44:28.04	357.09	26.10	-34.0	-45.8	3.8	1.49e+00	0	43	104	0	28	14086
2026-01-13 09:44:29.05	356.96	25.95	-34.0	-45.8	3.8	1.49e+00	0	42	104	0	28	14073
2026-01-13 09:44:30.06	356.84	25.80	-34.0	-45.8	3.8	1.49e+00	0	42	104	0	28	14100
2026-01-13 09:44:31.07	356.71	25.65	-34.0	-45.8	3.8	1.49e+00	0	42	104	0	28	14076
2026-01-13 09:44:32.07	356.59	25.51	-34.0	-45.9	3.8	1.49e+00	0	42	104	0	28	14098
2026-01-13 09:44:33.08	356.47	25.36	-34.0	-45.8	3.8	1.49e+00	0	42	104	0	28	14073
2026-01-13 09:44:34.08	356.35	25.21	-34.0	-45.9	3.8	1.49e+00	0	42	104	0	28	14091
2026-01-13 09:44:35.09	356.23	25.06	-34.0	-45.8	3.8	1.49e+00	0	42	104	0	28	14088
2026-01-13 09:44:36.10	356.11	24.92	-34.0	-45.8	3.8	1.49e+00	0	42	104	0	28	14033
2026-01-13 09:44:37.10	355.99	24.77	-34.0	-45.8	3.8	1.49e+00	0	43	104	0	28	14064
2026-01-13 09:44:38.10	355.88	24.63	-34.0	-45.8	3.8	1.49e+00	0	42	104	0	28	14041
2026-01-13 09:44:39.10	355.76	24.49	-34.0	-45.8	3.8	1.49e+00	0	42	104	0	28	14057
2026-01-13 09:44:40.11	355.65	24.34	-34.0	-45.8	3.8	1.49e+00	0	42	104	0	28	14082
2026-01-13 09:44:41.11	355.54	24.20	-34.0	-45.8	3.8	1.49e+00	0	42	104	0	28	14068
2026-01-13 09:44:42.11	355.42	24.06	-34.0	-45.8	3.8	1.49e+00	0	42	104	0	28	14068
2026-01-13 09:44:43.11	355.31	23.92	-34.0	-45.8	3.8	1.49e+00	0	42	104	0	28	14074
2026-01-13 09:44:44.12	355.20	23.78	-34.0	-45.8	3.8	1.49e+00	0	42	104	0	28	14057
2026-01-13 09:44:45.12	355.09	23.64	-34.0	-45.8	3.8	1.49e+00	0	42	104	0	28	14060
2026-01-13 09:44:46.13	354.99	23.50	-34.0	-45.8	3.8	1.49e+00	0	42	104	0	28	14023
2026-01-13 09:44:47.14	354.88	23.36	-34.0	-45.8	3.8	1.49e+00	0	42	104	0	28	14094
2026-01-13 09:44:48.14	354.77	23.23	-34.0	-45.8	3.8	1.49e+00	0	42	104	0	28	14042
2026-01-13 09:44:49.15	354.67	23.09	-34.0	-45.8	3.8	1.49e+00	0	42	104	0	28	14065
2026-01-13 09:44:50.16	354.56	22.95	-34.0	-45.8	3.8	1.49e+00	0	42	104	0	28	14044
2026-01-13 09:44:51.16	354.46	22.82	-34.0	-45.8	3.8	1.49e+00	0	42	104	0	28	14074
2026-01-13 09:44:52.16	354.36	22.68	-34.0	-45.8	3.8	1.49e+00	0	43	104	0	28	14090
2026-01-13 09:44:53.17	354.26	22.55	-34.0	-45.8	3.8	1.49e+00	0	42	104	0	28	14072
2026-01-13 09:44:54.17	354.16	22.41	-34.0	-45.8	3.8	1.49e+00	0	42	104	0	28	14048
2026-01-13 09:44:55.18	354.06	22.28	-34.0	-45.8	3.8	1.49e+00	0	43	104	0	28	14062
2026-01-13 09:44:56.18	353.96	22.15	-34.0	-45.8	3.8	1.49e+00	0	42	104	0	28	14074
2026-01-13 09:44:57.19	353.86	22.01	-34.0	-45.8	3.8	1.49e+00	0	42	104	0	28	14100
2026-01-13 09:44:58.19	353.76	21.88	-34.0	-45.8	3.8	1.49e+00	0	43	104	0	28	14046
2026-01-13 09:44:59.20	353.67	21.75	-34.0	-45.8	3.8	1.49e+00	0	42	104	0	28	14043
2026-01-13 09:45:00.21	353.57	21.62	-34.0	-45.8	3.8	1.49e+00	0	43	104	0	28	14037
2026-01-13 09:45:01.21	353.48	21.49	-34.0	-45.8	3.8	1.49e+00	0	42	104	0	28	14053
2026-01-13 09:45:02.21	353.39	21.36	-34.0	-45.8	3.8	1.49e+00	0	42	104	0	28	14077
2026-01-13 09:45:03.21	353.29	21.23	-34.0	-45.8	3.8	1.49e+00	0	42	104	0	28	14035
2026-01-13 09:45:04.22	353.20	21.10	-34.0	-45.8	3.8	1.49e+00	0	42	104	0	28	14032
2026-01-13 09:45:05.23	353.11	20.98	-34.0	-45.8	3.8	1.49e+00	0	42	104	0	28	14079
2026-01-13 09:45:06.23	353.02	20.85	-34.0	-45.8	3.8	1.49e+00	0	42	104	0	28	14074
2026-01-13 09:45:07.24	352.93	20.72	-34.0	-45.8	3.8	1.49e+00	0	42	104	0	28	14082
2026-01-13 09:45:08.25	352.84	20.60	-34.0	-45.8	3.8	1.49e+00	0	42	104	0	28	14068
2026-01-13 09:45:09.25	352.75	20.47	-34.0	-45.8	3.8	1.49e+00	0	42	104	0	28	14070
2026-01-13 09:45:10.26	352.67	20.35	-34.0	-45.8	3.8	1.49e+00	0	42	104	0	28	14062
2026-01-13 09:45:11.27	352.58	20.22	-34.0	-45.8	3.8	1.49e+00	0	42	104	0	28	14070
2026-01-13 09:45:12.28	352.49	20.10	-34.0	-45.8	3.8	1.49e+00	0	42	104	0	28	14059
2026-01-13 09:45:13.28	352.41	19.97	-34.0	-45.8	3.8	1.49e+00	0	43	104	0	28	14047
2026-01-13 09:45:14.29	352.32	19.85	-34.0	-45.8	3.8	1.49e+00	0	42	104	0	28	14051
2026-01-13 09:45:15.30	352.24	19.73	-34.0	-45.8	3.8	1.49e+00	0	42	104	0	28	14043
2026-01-13 09:45:16.31	352.15	19.61	-34.0	-45.8	3.8	1.49e+00	0	42	104	0	28	14052
2026-01-13 09:45:17.32	352.07	19.48	-34.0	-45.9	3.8	1.49e+00	0	42	104	0	28	14112
2026-01-13 09:45:18.32	351.99	19.36	-34.0	-45.8	3.8	1.49e+00	0	42	104	0	28	14065
2026-01-13 09:45:19.32	351.91	19.24	-34.0	-45.8	3.8	1.49e+00	0	42	104	0	28	14029
2026-01-13 09:45:20.33	351.83	19.12	-34.0	-45.8	3.8	1.49e+00	0	42	104	0	28	14040
2026-01-13 09:45:21.34	351.75	19.00	-34.0	-45.8	3.8	1.49e+00	0	43	104	0	28	14024
2026-01-13 09:45:22.34	351.67	18.89	-34.0	-45.8	3.8	1.49e+00	0	42	104	0	28	14033
2026-01-13 09:45:23.35	351.59	18.77	-34.0	-45.8	3.8	1.49e+00	0	43	104	0	28	14038
2026-01-13 09:45:24.36	351.51	18.65	-34.0	-45.8	3.8	1.49e+00	0	43	104	0	28	14045
2026-01-13 09:45:25.37	351.44	18.53	-34.0	-45.8	3.8	1.49e+00	0	42	104	0	28	14049
2026-01-13 09:45:26.37	351.36	18.42	-34.0	-45.8	3.8	1.49e+00	0	43	104	0	28	14023
2026-01-13 09:45:27.38	351.28	18.30	-34.0	-45.8	3.8	1.49e+00	0	42	104	0	28	14053
2026-01-13 09:45:28.39	351.21	18.18	-34.0	-45.8	3.8	1.49e+00	0	42	104	0	28	14077
2026-01-13 09:45:29.40	351.13	18.07	-34.0	-45.8	3.8	1.49e+00	0	43	104	0	28	14042
2026-01-13 09:45:30.40	351.06	17.95	-34.0	-45.8	3.8	1.49e+00	0	42	104	0	28	14063
2026-01-13 09:45:31.41	350.99	17.84	-34.0	-45.8	3.8	1.49e+00	0	42	104	0	28	14088
2026-01-13 09:45:32.42	350.91	17.73	-34.0	-45.8	3.8	1.49e+00	0	42	104	0	28	14058
2026-01-13 09:45:33.42	350.84	17.61	-34.0	-45.8	3.8	1.49e+00	0	42	104	0	28	14060
2026-01-13 09:45:34.43	350.77	17.50	-34.0	-45.8	3.8	1.49e+00	0	42	104	0	28	14069
2026-01-13 09:45:35.44	350.70	17.39	-34.0	-45.8	3.8	1.49e+00	0	43	104	0	28	14018
2026-01-13 09:45:36.44	350.63	17.28	-34.0	-45.8	3.8	1.49e+00	0	43	104	0	28	14073
2026-01-13 09:45:37.45	350.56	17.17	-34.0	-45.8	3.8	1.49e+00	0	42	104	0	28	14066
2026-01-13 09:45:38.45	350.49	17.05	-34.0	-45.8	3.8	1.49e+00	0	42	104	0	28	14047
2026-01-13 09:45:39.46	350.42	16.94	-34.0	-45.8	3.8	1.49e+00	0	42	104	0	28	14065
2026-01-13 09:45:40.47	350.35	16.83	-34.0	-45.8	3.8	1.49e+00	0	42	104	0	28	14073
2026-01-13 09:45:41.48	350.28	16.72	-34.0	-45.8	3.8	1.49e+00	0	43	104	0	28	14061
2026-01-13 09:45:42.48	350.21	16.62	-34.0	-45.8	3.8	1.49e+00	0	42	104	0	28	14073
2026-01-13 09:45:43.49	350.15	16.51	-34.0	-45.8	3.8	1.49e+00	0	42	104	0	28	14025
2026-01-13 09:45:44.50	350.08	16.40	-34.0	-45.8	3.8	1.49e+00	0	43	104	0	28	14035
2026-01-13 09:45:45.50	350.01	16.29	-34.0	-45.8	3.8	1.49e+00	0	42	104	0	28	14076
2026-01-13 09:45:46.51	349.95	16.18	-34.0	-45.8	3.8	1.49e+00	0	42	104	0	28	14082
2026-01-13 09:45:47.52	349.88	16.08	-34.0	-45.8	3.8	1.49e+00	0	42	104	0	28	14047
2026-01-13 09:45:48.53	349.82	15.97	-34.0	-45.8	3.8	1.49e+00	0	43	104	0	28	14103
2026-01-13 09:45:49.53	349.75	15.86	-34.0	-45.8	3.8	1.49e+00	0	43	104	0	28	14110
2026-01-13 09:45:50.54	349.69	15.76	-34.0	-45.8	3.8	1.49e+00	0	42	104	0	28	14073
2026-01-13 09:45:51.55	349.63	15.65	-34.0	-45.8	3.8	1.49e+00	0	43	104	0	28	14100
2026-01-13 09:45:52.55	349.56	15.55	-34.0	-45.8	3.8	1.49e+00	0	42	104	0	28	14087
2026-01-13 09:45:53.56	349.50	15.44	-34.0	-45.8	3.8	1.49e+00	0	42	104	0	28	14105
2026-01-13 09:45:54.57	349.44	15.34	-34.0	-45.8	3.8	1.49e+00	0	42	104	0	28	14073
2026-01-13 09:45:55.57	349.38	15.24	-34.0	-45.8	3.8	1.49e+00	0	43	104	0	28	14069
2026-01-13 09:45:56.58	349.32	15.13	-34.0	-45.9	3.8	1.49e+00	0	42	104	0	28	14081
2026-01-13 09:45:57.59	349.26	15.03	-34.0	-45.8	3.8	1.49e+00	0	42	104	0	28	14000
2026-01-13 09:45:58.60	349.20	14.93	-34.0	-45.8	3.8	1.49e+00	0	43	104	0	28	14066
2026-01-13 09:45:59.61	349.14	14.82	-34.0	-45.9	3.8	1.49e+00	0	42	104	0	28	14108
2026-01-13 09:46:00.62	349.08	14.72	-34.0	-45.9	3.8	1.49e+00	0	42	104	0	28	14087
2026-01-13 09:46:01.62	349.02	14.62	-34.0	-45.8	3.8	1.49e+00	0	42	104	0	28	14086
2026-01-13 09:46:02.62	348.96	14.52	-34.0	-45.8	3.8	1.49e+00	0	42	104	0	28	14076
2026-01-13 09:46:03.63	348.90	14.42	-34.0	-45.8	3.8	1.49e+00	0	43	104	0	28	14054
2026-01-13 09:46:04.65	348.85	14.32	-34.0	-45.8	3.8	1.49e+00	0	42	104	0	28	14084
2026-01-13 09:46:05.65	348.79	14.22	-34.0	-45.8	3.8	1.49e+00	0	42	104	0	28	14064
2026-01-13 09:46:06.65	348.73	14.12	-34.0	-45.8	3.8	1.49e+00	0	42	104	0	28	14044
2026-01-13 09:46:07.66	348.68	14.02	-34.0	-45.8	3.8	1.49e+00	0	42	104	0	28	14050
2026-01-13 09:46:08.67	348.62	13.92	-34.0	-45.8	3.8	1.49e+00	0	42	104	0	28	14056
2026-01-13 09:46:09.67	348.57	13.83	-34.0	-45.8	3.8	1.49e+00	0	43	104	0	28	14094
2026-01-13 09:46:10.68	348.51	13.73	-34.0	-45.8	3.8	1.49e+00	0	42	104	0	28	14059
2026-01-13 09:46:11.69	348.46	13.63	-34.0	-45.8	3.8	1.49e+00	0	43	104	0	28	14063
2026-01-13 09:46:12.69	348.40	13.53	-34.0	-45.8	3.8	1.49e+00	0	43	104	0	28	14050
2026-01-13 09:46:13.70	348.35	13.44	-34.0	-45.8	3.8	1.49e+00	0	43	104	0	28	14081
2026-01-13 09:46:14.71	348.29	13.34	-34.0	-45.8	3.8	1.49e+00	0	42	104	0	28	14083
2026-01-13 09:46:15.72	348.24	13.24	-34.0	-45.8	3.8	1.49e+00	0	43	104	0	28	14071
2026-01-13 09:46:16.72	348.19	13.15	-34.0	-45.8	3.8	1.49e+00	0	42	104	0	28	14039
2026-01-13 09:46:17.73	348.14	13.05	-34.0	-45.8	3.8	1.49e+00	0	42	104	0	28	14079
2026-01-13 09:46:18.74	348.08	12.96	-34.0	-45.8	3.8	1.49e+00	0	42	104	0	28	14062
2026-01-13 09:46:19.74	348.03	12.86	-34.0	-45.8	3.8	1.49e+00	0	42	104	0	28	14048
2026-01-13 09:46:20.75	347.98	12.77	-34.0	-45.8	3.8	1.49e+00	0	43	104	0	28	14052
2026-01-13 09:46:21.76	347.93	12.67	-34.0	-45.8	3.8	1.49e+00	0	42	104	0	28	14080
2026-01-13 09:46:22.76	347.88	12.58	-34.0	-45.8	3.8	1.49e+00	0	43	104	0	28	14085
2026-01-13 09:46:23.77	347.83	12.49	-34.0	-45.8	3.8	1.49e+00	0	42	104	0	28	14050
2026-01-13 09:46:24.78	347.78	12.39	-34.0	-45.8	3.8	1.49e+00	0	42	104	0	28	14070
2026-01-13 09:46:25.78	347.73	12.30	-34.0	-45.8	3.8	1.49e+00	0	42	104	0	28	14094
2026-01-13 09:46:26.79	347.68	12.21	-34.0	-45.8	3.8	1.49e+00	0	43	104	0	28	14059
2026-01-13 09:46:27.80	347.63	12.12	-34.0	-45.8	3.8	1.49e+00	0	43	104	0	28	14034
2026-01-13 09:46:28.81	347.58	12.03	-34.0	-45.8	3.8	1.49e+00	0	43	104	0	28	14086
2026-01-13 09:46:29.82	347.53	11.93	-34.0	-45.8	3.8	1.49e+00	0	43	104	0	28	14053
2026-01-13 09:46:30.82	347.49	11.84	-34.0	-45.8	3.8	1.49e+00	0	43	104	0	28	14069
2026-01-13 09:46:31.83	347.44	11.75	-34.0	-45.8	3.8	1.49e+00	0	43	104	0	28	14024
2026-01-13 09:46:32.83	347.39	11.66	-34.0	-45.8	3.8	1.49e+00	0	42	104	0	28	14093
2026-01-13 09:46:33.84	347.34	11.57	-34.0	-45.8	3.8	1.49e+00	0	43	104	0	28	14034
2026-01-13 09:46:34.85	347.30	11.48	-34.0	-45.8	3.8	1.49e+00	0	42	104	0	28	14064
2026-01-13 09:46:35.85	347.25	11.39	-34.0	-45.8	3.8	1.49e+00	0	42	104	0	28	14087
2026-01-13 09:46:36.86	347.21	11.30	-34.0	-45.8	3.8	1.49e+00	0	43	104	0	28	14063
2026-01-13 09:46:37.86	347.16	11.22	-34.0	-45.8	3.8	1.49e+00	0	43	104	0	28	14075
2026-01-13 09:46:38.87	347.11	11.13	-34.0	-45.8	3.8	1.49e+00	0	42	104	0	28	14082
2026-01-13 09:46:39.88	347.07	11.04	-34.0	-45.8	3.8	1.49e+00	0	42	104	0	28	14045
2026-01-13 09:46:40.89	347.02	10.95	-34.0	-45.8	3.8	1.49e+00	0	42	104	0	28	14040
2026-01-13 09:46:41.89	346.98	10.86	-34.0	-45.8	3.8	1.49e+00	0	43	104	0	28	14081
2026-01-13 09:46:42.90	346.94	10.78	-34.0	-45.8	3.8	1.49e+00	0	42	104	0	28	14067
2026-01-13 09:46:43.91	346.89	10.69	-34.0	-45.8	3.8	1.49e+00	0	43	104	0	28	14084
2026-01-13 09:46:44.92	346.85	10.60	-34.0	-45.8	3.8	1.49e+00	0	43	104	0	28	14002
2026-01-13 09:46:45.92	346.80	10.52	-34.0	-45.9	3.8	1.49e+00	0	43	104	0	28	14124
2026-01-13 09:46:46.93	346.76	10.43	-34.0	-45.8	3.8	1.49e+00	0	42	104	0	28	14048
2026-01-13 09:46:47.93	346.72	10.34	-34.0	-45.8	3.8	1.49e+00	0	42	104	0	28	14052
2026-01-13 09:46:48.94	346.68	10.26	-34.0	-45.8	3.8	1.49e+00	0	43	104	0	28	14055
2026-01-13 09:46:49.95	346.63	10.17	-34.0	-45.8	3.8	1.49e+00	0	43	104	0	28	14056
2026-01-13 09:46:50.96	346.59	10.09	-34.0	-45.8	3.8	1.49e+00	0	43	104	0	28	14077
2026-01-13 09:46:51.96	346.55	10.00	-34.0	-45.8	3.8	1.49e+00	0	43	104	0	28	14027
2026-01-13 09:46:52.97	346.51	9.92	-34.0	-45.8	3.8	1.49e+00	0	42	104	0	28	14003
2026-01-13 09:46:53.98	346.47	9.83	-34.0	-45.8	3.8	1.49e+00	0	42	104	0	28	14065
2026-01-13 09:46:54.98	346.43	9.75	-34.0	-45.8	3.8	1.49e+00	0	42	104	0	28	14036
2026-01-13 09:46:55.99	346.38	9.67	-34.0	-45.8	3.8	1.49e+00	0	42	104	0	28	14041
2026-01-13 09:46:56.99	346.34	9.58	-33.9	-45.8	3.8	1.49e+00	0	43	104	0	28	14059
2026-01-13 09:46:58.00	346.30	9.50	-33.9	-45.7	3.8	1.49e+00	0	42	104	0	28	14056
2026-01-13 09:46:59.01	346.26	9.42	-34.0	-45.8	3.8	1.49e+00	0	43	104	0	28	14022
2026-01-13 09:47:00.02	346.22	9.33	-33.9	-45.7	3.8	1.49e+00	0	42	104	0	28	14021
2026-01-13 09:47:01.03	346.18	9.25	-33.9	-45.7	3.8	1.49e+00	0	42	104	0	28	14044
2026-01-13 09:47:02.03	346.15	9.17	-33.9	-45.8	3.8	1.49e+00	0	43	104	0	28	14035
2026-01-13 09:47:03.04	346.11	9.09	-33.9	-45.8	3.8	1.49e+00	0	43	104	0	28	14044
2026-01-13 09:47:04.05	346.07	9.00	-33.9	-45.7	3.8	1.49e+00	0	43	104	0	28	14013
2026-01-13 09:47:05.05	346.03	8.92	-33.9	-45.8	3.8	1.49e+00	0	43	104	0	28	14050
2026-01-13 09:47:06.06	345.99	8.84	-33.9	-45.8	3.8	1.49e+00	0	42	104	0	28	14054
2026-01-13 09:47:07.07	345.95	8.76	-33.9	-45.7	3.8	1.49e+00	0	43	104	0	28	14011
2026-01-13 09:47:08.07	345.92	8.68	-33.9	-45.8	3.8	1.49e+00	0	42	104	0	28	14084
2026-01-13 09:47:09.08	345.88	8.60	-33.9	-45.8	3.8	1.49e+00	0	42	104	0	28	14097
2026-01-13 09:47:10.09	345.84	8.52	-33.9	-45.8	3.8	1.49e+00	0	43	104	0	28	14056
2026-01-13 09:47:11.09	345.80	8.44	-33.9	-45.7	3.8	1.49e+00	0	43	104	0	28	14051
2026-01-13 09:47:12.10	345.77	8.36	-33.9	-45.8	3.8	1.49e+00	0	43	104	0	28	14046
2026-01-13 09:47:13.11	345.73	8.28	-33.9	-45.8	3.8	1.49e+00	0	43	104	0	28	14046
2026-01-13 09:47:14.12	345.69	8.20	-33.9	-45.8	3.8	1.49e+00	0	43	104	0	28	14086
2026-01-13 09:47:15.13	345.66	8.12	-33.9	-45.7	3.8	1.49e+00	0	43	104	0	28	14045
2026-01-13 09:47:16.13	345.62	8.04	-34.0	-45.8	3.8	1.49e+00	0	42	104	0	28	14067
2026-01-13 09:47:17.14	345.58	7.97	-33.9	-45.8	3.8	1.49e+00	0	42	104	0	28	14028
2026-01-13 09:47:18.14	345.55	7.89	-33.9	-45.7	3.8	1.49e+00	0	43	104	0	28	14057
2026-01-13 09:47:19.15	345.51	7.81	-33.9	-45.8	3.8	1.49e+00	0	42	104	0	28	14087
2026-01-13 09:47:20.16	345.48	7.73	-33.9	-45.7	3.8	1.49e+00	0	43	104	0	28	14034
2026-01-13 09:47:21.17	345.44	7.65	-34.0	-45.8	3.8	1.49e+00	0	42	104	0	28	14063
2026-01-13 09:47:22.18	345.41	7.58	-34.0	-45.8	3.8	1.49e+00	0	42	104	0	28	14041
2026-01-13 09:47:23.19	345.37	7.50	-34.0	-45.8	3.8	1.49e+00	0	42	104	0	28	14068
2026-01-13 09:47:24.20	345.34	7.42	-34.0	-45.8	3.8	1.49e+00	0	42	104	0	28	14057
2026-01-13 09:47:25.20	345.31	7.35	-34.0	-45.8	3.8	1.49e+00	0	42	104	0	28	14006
2026-01-13 09:47:26.21	345.27	7.27	-34.0	-45.8	3.8	1.49e+00	0	42	104	0	28	14062
2026-01-13 09:47:27.22	345.24	7.19	-34.0	-45.8	3.8	1.49e+00	0	42	104	0	28	14068
2026-01-13 09:47:28.22	345.20	7.12	-34.0	-45.8	3.8	1.49e+00	0	43	104	0	28	14024
2026-01-13 09:47:29.23	345.17	7.04	-34.0	-45.8	3.8	1.49e+00	0	43	104	0	28	14050
2026-01-13 09:47:30.24	345.14	6.96	-34.0	-45.8	3.8	1.49e+00	0	43	104	0	28	14042
2026-01-13 09:47:31.25	345.10	6.89	-34.0	-45.8	3.8	1.49e+00	0	42	104	0	28	14073
2026-01-13 09:47:32.25	345.07	6.81	-34.0	-45.8	3.8	1.49e+00	0	42	104	0	28	14054

#Closed at: 2026-01-13 09:47:32
#Recorded file [0 MB]: D:/data/31010_260113_123545.dat