passes_logs/2026/01/13/R2M6_AANII_01/R2M6_AANII_01__20260113_120805_NOAA_20_JPSS-1_rec.log

#Pass ID: 20260113_120805_NOAA 20 (JPSS-1)
#Satellite: NOAA 20 (JPSS-1)
#Configuration: NOAA 20
#almurnet v.1.7.20240730
#Start time: 2026-01-13 12:08:06

#Version: 2.2.20231116
#Station: R2M6_AANII_01
#Location: 30.233357 lon 59.946436 lat
#TLE: 1 43013U 17073A   26012.29914746  .00000087  00000+0  62270-4 0  9997
#TLE: 2 43013  98.7632 313.2670 0001616  43.2193 316.9110 14.19535514422351

#Time	Az	El	Level	Level2	SNR	BER	BlckErr	Temp	State	Recorded	gain1	gain2
2026-01-13 12:08:06.99	220.59	7.06	-34.0	-47.7	3.8	1.49e+00	0	40	0	0	29	17302
2026-01-13 12:08:07.99	220.70	7.12	-34.1	-47.7	3.8	1.49e+00	0	40	104	0	29	17261
2026-01-13 12:08:09.00	220.80	7.18	-34.0	-47.6	3.8	1.49e+00	0	40	104	0	29	17209
2026-01-13 12:08:10.01	220.91	7.24	-34.0	-47.7	3.8	1.49e+00	0	40	104	0	29	17309
2026-01-13 12:08:11.01	221.02	7.30	-34.0	-47.7	3.8	1.49e+00	0	40	104	0	29	17279
2026-01-13 12:08:12.02	221.13	7.36	-34.1	-47.7	3.8	1.49e+00	0	40	104	0	29	17258
2026-01-13 12:08:13.03	221.24	7.42	-34.0	-47.7	3.8	1.49e+00	0	40	104	0	29	17291
2026-01-13 12:08:14.03	221.35	7.48	-34.0	-47.7	3.8	1.49e+00	0	40	104	0	29	17288
2026-01-13 12:08:15.04	221.46	7.54	-34.1	-47.7	3.8	1.49e+00	0	40	104	0	29	17346
2026-01-13 12:08:16.04	221.57	7.60	-34.0	-47.6	3.8	1.49e+00	0	41	104	0	29	17240
2026-01-13 12:08:17.05	221.68	7.66	-34.1	-47.7	3.8	1.49e+00	0	40	104	0	29	17297
2026-01-13 12:08:18.06	221.79	7.72	-34.0	-47.7	3.8	1.49e+00	0	40	104	0	29	17307
2026-01-13 12:08:19.06	221.90	7.78	-34.1	-47.7	3.8	1.49e+00	0	40	104	0	29	17262
2026-01-13 12:08:20.07	222.01	7.84	-34.0	-47.7	3.8	1.49e+00	0	41	104	0	29	17319
2026-01-13 12:08:21.08	222.13	7.90	-34.1	-47.7	3.8	1.49e+00	0	41	104	0	29	17291
2026-01-13 12:08:22.09	222.24	7.96	-34.1	-47.7	3.8	1.49e+00	0	41	104	0	29	17287
2026-01-13 12:08:23.09	222.35	8.02	-34.1	-47.7	3.8	1.49e+00	0	41	104	0	29	17265
2026-01-13 12:08:24.09	222.46	8.08	-34.0	-47.7	3.8	1.49e+00	0	41	104	0	29	17282
2026-01-13 12:08:25.10	222.58	8.14	-34.0	-47.7	3.8	1.49e+00	0	41	104	0	29	17328
2026-01-13 12:08:26.10	222.69	8.20	-34.0	-47.7	3.8	1.49e+00	0	41	104	0	29	17312
2026-01-13 12:08:27.11	222.81	8.26	-34.1	-47.7	3.8	1.49e+00	0	41	104	0	29	17254
2026-01-13 12:08:28.12	222.92	8.33	-34.0	-47.7	3.8	1.49e+00	0	41	104	0	29	17272
2026-01-13 12:08:29.13	223.04	8.39	-34.1	-47.7	3.8	1.49e+00	0	41	104	0	29	17304
2026-01-13 12:08:30.14	223.16	8.45	-34.0	-47.7	3.8	1.49e+00	0	41	104	0	29	17276
2026-01-13 12:08:31.15	223.28	8.51	-34.1	-47.7	3.8	1.49e+00	0	41	104	0	29	17343
2026-01-13 12:08:32.15	223.39	8.57	-34.0	-47.7	3.8	1.49e+00	0	41	104	0	29	17337
2026-01-13 12:08:33.16	223.51	8.63	-34.1	-47.7	3.8	1.49e+00	0	41	104	0	29	17340
2026-01-13 12:08:34.17	223.63	8.69	-34.1	-47.7	3.8	1.49e+00	0	41	104	0	29	17278
2026-01-13 12:08:35.18	223.75	8.75	-34.1	-47.7	3.8	1.49e+00	0	41	104	0	29	17357
2026-01-13 12:08:36.18	223.87	8.81	-34.0	-47.7	3.8	1.49e+00	0	41	104	0	29	17346
2026-01-13 12:08:37.19	223.99	8.87	-34.1	-47.7	3.8	1.49e+00	0	41	104	0	29	17309
2026-01-13 12:08:38.19	224.11	8.93	-34.1	-47.7	3.8	1.49e+00	0	41	104	0	29	17262
2026-01-13 12:08:39.20	224.23	8.99	-34.0	-47.7	3.8	1.49e+00	0	41	104	0	29	17319
2026-01-13 12:08:40.19	224.35	9.05	-34.1	-47.7	3.8	1.49e+00	0	41	104	0	29	17269
2026-01-13 12:08:41.20	224.47	9.12	-34.0	-47.7	3.8	1.49e+00	0	41	104	0	29	17294
2026-01-13 12:08:42.20	224.59	9.18	-34.0	-47.7	3.8	1.49e+00	0	41	104	0	29	17292
2026-01-13 12:08:43.21	224.72	9.24	-34.0	-47.7	3.8	1.49e+00	0	41	104	0	29	17288
2026-01-13 12:08:44.21	224.84	9.30	-34.0	-47.7	3.8	1.49e+00	0	41	104	0	29	17300
2026-01-13 12:08:45.21	224.96	9.36	-34.1	-47.7	3.8	1.49e+00	0	41	104	0	29	17282
2026-01-13 12:08:46.21	225.09	9.42	-34.1	-47.7	3.8	1.49e+00	0	41	104	0	29	17311
2026-01-13 12:08:47.22	225.21	9.48	-34.1	-47.7	3.8	1.49e+00	0	41	104	0	29	17332
2026-01-13 12:08:48.22	225.34	9.54	-34.0	-47.7	3.8	1.49e+00	0	41	104	0	29	17301
2026-01-13 12:08:49.23	225.46	9.60	-34.1	-47.7	3.8	1.49e+00	0	41	104	0	29	17326
2026-01-13 12:08:50.24	225.59	9.67	-34.1	-47.7	3.8	1.49e+00	0	41	104	0	29	17311
2026-01-13 12:08:51.24	225.71	9.73	-34.1	-47.7	3.8	1.49e+00	0	41	104	0	29	17330
2026-01-13 12:08:52.24	225.84	9.79	-34.1	-47.7	3.8	1.49e+00	0	41	104	0	29	17269
2026-01-13 12:08:53.25	225.97	9.85	-34.1	-47.7	3.8	1.49e+00	0	41	104	0	29	17293
2026-01-13 12:08:54.26	226.10	9.91	-34.1	-47.7	3.8	1.49e+00	0	41	104	0	29	17257
2026-01-13 12:08:55.27	226.23	9.97	-34.1	-47.7	3.8	1.49e+00	0	41	104	0	29	17313
2026-01-13 12:08:56.27	226.36	10.03	-34.1	-47.7	3.8	1.49e+00	0	41	104	0	29	17248
2026-01-13 12:08:57.28	226.49	10.10	-34.1	-47.7	3.8	1.49e+00	0	41	104	0	29	17340
2026-01-13 12:08:58.29	226.62	10.16	-34.1	-47.7	3.8	1.49e+00	0	41	104	0	29	17293
2026-01-13 12:08:59.30	226.75	10.22	-34.1	-47.7	3.8	1.49e+00	0	41	104	0	29	17284
2026-01-13 12:09:00.30	226.88	10.28	-34.1	-47.7	3.8	1.49e+00	0	41	104	0	29	17319
2026-01-13 12:09:01.31	227.01	10.34	-34.1	-47.7	3.8	1.49e+00	0	41	104	0	29	17268
2026-01-13 12:09:02.31	227.15	10.40	-34.1	-47.7	3.8	1.49e+00	0	41	104	0	29	17278
2026-01-13 12:09:03.32	227.28	10.47	-34.1	-47.7	3.8	1.49e+00	0	42	104	0	29	17306
2026-01-13 12:09:04.33	227.41	10.53	-34.1	-47.7	3.8	1.49e+00	0	41	104	0	29	17292
2026-01-13 12:09:05.33	227.55	10.59	-34.1	-47.7	3.8	1.49e+00	0	41	104	0	29	17330
2026-01-13 12:09:06.35	227.68	10.65	-34.1	-47.7	3.8	1.49e+00	0	41	104	0	29	17287
2026-01-13 12:09:07.35	227.82	10.71	-34.1	-47.7	3.8	1.49e+00	0	42	104	0	29	17304
2026-01-13 12:09:08.36	227.95	10.78	-34.1	-47.7	3.8	1.49e+00	0	42	104	0	29	17356
2026-01-13 12:09:09.36	228.09	10.84	-34.1	-47.7	3.8	1.49e+00	0	42	104	0	29	17257
2026-01-13 12:09:10.37	228.23	10.90	-34.1	-47.7	3.8	1.49e+00	0	41	104	0	29	17314
2026-01-13 12:09:11.38	228.37	10.96	-34.1	-47.7	3.8	1.49e+00	0	42	104	0	29	17273
2026-01-13 12:09:12.39	228.51	11.02	-34.1	-47.7	3.8	1.49e+00	0	42	104	0	29	17325
2026-01-13 12:09:13.39	228.64	11.09	-34.1	-47.7	3.8	1.49e+00	0	42	104	0	29	17305
2026-01-13 12:09:14.40	228.78	11.15	-34.1	-47.7	3.8	1.49e+00	0	42	104	0	29	17306
2026-01-13 12:09:15.41	228.92	11.21	-34.1	-47.7	3.8	1.49e+00	0	42	104	0	29	17286
2026-01-13 12:09:16.42	229.06	11.27	-34.1	-47.7	3.8	1.49e+00	0	42	104	0	29	17277
2026-01-13 12:09:17.41	229.20	11.33	-34.1	-47.7	3.8	1.49e+00	0	42	104	0	29	17324
2026-01-13 12:09:18.43	229.35	11.39	-34.1	-47.7	3.8	1.49e+00	0	42	104	0	29	17270
2026-01-13 12:09:19.43	229.49	11.46	-34.1	-47.7	3.8	1.49e+00	0	42	104	0	29	17339
2026-01-13 12:09:20.44	229.63	11.52	-34.1	-47.7	3.8	1.49e+00	0	42	104	0	29	17323
2026-01-13 12:09:21.44	229.77	11.58	-34.1	-47.7	3.8	1.49e+00	0	42	104	0	29	17276
2026-01-13 12:09:22.45	229.92	11.64	-34.1	-47.7	3.8	1.49e+00	0	42	104	0	29	17332
2026-01-13 12:09:23.46	230.06	11.70	-34.1	-47.7	3.8	1.49e+00	0	42	104	0	29	17312
2026-01-13 12:09:24.46	230.21	11.77	-34.1	-47.7	3.8	1.49e+00	0	42	104	0	29	17288
2026-01-13 12:09:25.47	230.35	11.83	-34.1	-47.7	3.8	1.49e+00	0	42	104	0	29	17346
2026-01-13 12:09:26.48	230.50	11.89	-34.1	-47.7	3.8	1.49e+00	0	42	104	0	29	17313
2026-01-13 12:09:27.49	230.65	11.95	-34.1	-47.7	3.8	1.49e+00	0	42	104	0	29	17296
2026-01-13 12:09:28.50	230.80	12.01	-34.1	-47.7	3.8	1.49e+00	0	42	104	0	29	17287
2026-01-13 12:09:29.50	230.94	12.08	-34.1	-47.7	3.8	1.49e+00	0	42	104	0	29	17335
2026-01-13 12:09:30.50	231.09	12.14	-34.1	-47.7	3.8	1.49e+00	0	42	104	0	29	17331
2026-01-13 12:09:31.51	231.24	12.20	-34.1	-47.7	3.8	1.49e+00	0	42	104	0	29	17275
2026-01-13 12:09:32.51	231.39	12.26	-34.1	-47.7	3.8	1.49e+00	0	42	104	0	29	17346
2026-01-13 12:09:33.52	231.54	12.32	-34.1	-47.7	3.8	1.49e+00	0	42	104	0	29	17341
2026-01-13 12:09:34.53	231.69	12.38	-34.1	-47.7	3.8	1.49e+00	0	42	104	0	29	17324
2026-01-13 12:09:35.53	231.84	12.45	-34.1	-47.7	3.8	1.49e+00	0	42	104	0	29	17291
2026-01-13 12:09:36.54	232.00	12.51	-34.1	-47.7	3.8	1.49e+00	0	42	104	0	29	17316
2026-01-13 12:09:37.54	232.15	12.57	-34.1	-47.7	3.8	1.49e+00	0	42	104	0	29	17333
2026-01-13 12:09:38.55	232.30	12.63	-34.0	-47.7	3.8	1.49e+00	0	42	104	0	29	17287
2026-01-13 12:09:39.56	232.46	12.69	-34.1	-47.7	3.8	1.49e+00	0	42	104	0	29	17314
2026-01-13 12:09:40.57	232.61	12.75	-34.1	-47.7	3.8	1.49e+00	0	42	104	0	29	17331
2026-01-13 12:09:41.57	232.77	12.81	-34.1	-47.7	3.8	1.49e+00	0	42	104	0	29	17284
2026-01-13 12:09:42.58	232.93	12.88	-34.1	-47.7	3.8	1.49e+00	0	42	104	0	29	17290
2026-01-13 12:09:43.58	233.08	12.94	-34.1	-47.7	3.8	1.49e+00	0	42	104	0	29	17276
2026-01-13 12:09:44.59	233.24	13.00	-34.1	-47.7	3.8	1.49e+00	0	42	104	0	29	17263
2026-01-13 12:09:45.60	233.40	13.06	-34.1	-47.7	3.8	1.49e+00	0	42	104	0	29	17288
2026-01-13 12:09:46.60	233.56	13.12	-34.1	-47.7	3.8	1.49e+00	0	42	104	0	29	17241
2026-01-13 12:09:47.61	233.72	13.18	-34.1	-47.7	3.8	1.49e+00	0	42	104	0	29	17288
2026-01-13 12:09:48.62	233.88	13.24	-34.1	-47.7	3.8	1.49e+00	0	42	104	0	29	17308
2026-01-13 12:09:49.62	234.04	13.31	-34.1	-47.7	3.8	1.49e+00	0	42	104	0	29	17283
2026-01-13 12:09:50.63	234.20	13.37	-34.1	-47.7	3.8	1.49e+00	0	42	104	0	29	17311
2026-01-13 12:09:51.64	234.36	13.43	-34.1	-47.7	3.8	1.49e+00	0	42	104	0	29	17351
2026-01-13 12:09:52.64	234.52	13.49	-34.1	-47.7	3.8	1.49e+00	0	42	104	0	29	17313
2026-01-13 12:09:53.65	234.69	13.55	-34.1	-47.7	3.8	1.49e+00	0	42	104	0	29	17296
2026-01-13 12:09:54.66	234.85	13.61	-34.1	-47.7	3.8	1.49e+00	0	42	104	0	29	17309
2026-01-13 12:09:55.67	235.02	13.67	-34.1	-47.7	3.8	1.49e+00	0	42	104	0	29	17288
2026-01-13 12:09:56.68	235.18	13.73	-34.1	-47.7	3.8	1.49e+00	0	42	104	0	29	17290
2026-01-13 12:09:57.69	235.35	13.79	-34.1	-47.7	3.8	1.49e+00	0	42	104	0	29	17297
2026-01-13 12:09:58.70	235.51	13.85	-34.1	-47.7	3.8	1.49e+00	0	42	104	0	29	17301
2026-01-13 12:09:59.70	235.68	13.91	-34.1	-47.7	3.8	1.49e+00	0	42	104	0	29	17316
2026-01-13 12:10:00.71	235.85	13.98	-34.1	-47.7	3.8	1.49e+00	0	42	104	0	29	17320
2026-01-13 12:10:01.71	236.02	14.04	-34.1	-47.7	3.8	1.49e+00	0	42	104	0	29	17327
2026-01-13 12:10:02.71	236.18	14.10	-34.1	-47.7	3.8	1.49e+00	0	42	104	0	29	17327
2026-01-13 12:10:03.72	236.35	14.16	-34.1	-47.7	3.8	1.49e+00	0	42	104	0	29	17281
2026-01-13 12:10:04.72	236.52	14.22	-34.1	-47.7	3.8	1.49e+00	0	42	104	0	29	17366
2026-01-13 12:10:05.73	236.70	14.28	-34.1	-47.7	3.8	1.49e+00	0	42	104	0	29	17338
2026-01-13 12:10:06.74	236.87	14.34	-34.1	-47.7	3.8	1.49e+00	0	42	104	0	29	17335
2026-01-13 12:10:07.74	237.04	14.40	-34.1	-47.7	3.8	1.49e+00	0	42	104	0	29	17318
2026-01-13 12:10:08.75	237.21	14.46	-34.1	-47.7	3.8	1.49e+00	0	42	104	0	29	17378
2026-01-13 12:10:09.75	237.39	14.52	-34.1	-47.7	3.8	1.49e+00	0	42	104	0	29	17325
2026-01-13 12:10:10.76	237.56	14.58	-34.1	-47.7	3.8	1.49e+00	0	42	104	0	29	17332
2026-01-13 12:10:11.77	237.74	14.63	-34.1	-47.7	3.8	1.49e+00	0	42	104	0	29	17326
2026-01-13 12:10:12.78	237.91	14.69	-34.1	-47.7	3.8	1.49e+00	0	42	104	0	29	17326
2026-01-13 12:10:13.78	238.09	14.75	-34.1	-47.7	3.8	1.49e+00	0	42	104	0	29	17330
2026-01-13 12:10:14.79	238.27	14.81	-34.1	-47.7	3.8	1.49e+00	0	42	104	0	29	17324
2026-01-13 12:10:15.80	238.45	14.87	-34.1	-47.7	3.8	1.49e+00	0	42	104	0	29	17310
2026-01-13 12:10:16.80	238.62	14.93	-34.1	-47.7	3.8	1.49e+00	0	42	104	0	29	17336
2026-01-13 12:10:17.81	238.80	14.99	-34.1	-47.7	3.8	1.49e+00	0	42	104	0	29	17327
2026-01-13 12:10:18.81	238.98	15.05	-34.1	-47.7	3.8	1.49e+00	0	42	104	0	29	17299
2026-01-13 12:10:19.81	239.16	15.11	-34.1	-47.7	3.8	1.49e+00	0	42	104	0	29	17332
2026-01-13 12:10:20.82	239.34	15.16	-34.1	-47.7	3.8	1.49e+00	0	42	104	0	29	17329
2026-01-13 12:10:21.83	239.53	15.22	-34.1	-47.7	3.8	1.49e+00	0	42	104	0	29	17353
2026-01-13 12:10:22.84	239.71	15.28	-34.1	-47.7	3.8	1.49e+00	0	42	104	0	29	17318
2026-01-13 12:10:23.84	239.89	15.34	-34.1	-47.7	3.8	1.49e+00	0	42	104	0	29	17359
2026-01-13 12:10:24.85	240.08	15.40	-34.1	-47.7	3.8	1.49e+00	0	42	104	0	29	17323
2026-01-13 12:10:25.85	240.26	15.46	-34.1	-47.7	3.8	1.49e+00	0	42	104	0	29	17337
2026-01-13 12:10:26.85	240.45	15.51	-34.1	-47.7	3.8	1.49e+00	0	42	104	0	29	17317
2026-01-13 12:10:27.86	240.63	15.57	-34.1	-47.7	3.8	1.49e+00	0	42	104	0	29	17328
2026-01-13 12:10:28.87	240.82	15.63	-34.1	-47.8	3.8	1.49e+00	0	42	104	0	29	17375
2026-01-13 12:10:29.88	241.01	15.69	-34.1	-47.7	3.8	1.49e+00	0	42	104	0	29	17364
2026-01-13 12:10:30.89	241.20	15.74	-34.1	-47.7	3.8	1.49e+00	0	42	104	0	29	17327
2026-01-13 12:10:31.89	241.38	15.80	-34.1	-47.7	3.8	1.49e+00	0	42	104	0	29	17380
2026-01-13 12:10:32.89	241.57	15.86	-34.1	-47.7	3.8	1.49e+00	0	42	104	0	29	17299
2026-01-13 12:10:33.90	241.76	15.91	-34.1	-47.7	3.8	1.49e+00	0	42	104	0	29	17367
2026-01-13 12:10:34.91	241.96	15.97	-34.1	-47.7	3.8	1.49e+00	0	42	104	0	29	17317
2026-01-13 12:10:35.92	242.15	16.03	-34.1	-47.7	3.8	1.49e+00	0	42	104	0	29	17283
2026-01-13 12:10:36.93	242.34	16.08	-34.1	-47.7	3.8	1.49e+00	0	42	104	0	29	17353
2026-01-13 12:10:37.93	242.53	16.14	-34.1	-47.7	3.8	1.49e+00	0	42	104	0	29	17342
2026-01-13 12:10:38.94	242.73	16.19	-34.1	-47.7	3.8	1.49e+00	0	42	104	0	29	17339
2026-01-13 12:10:39.94	242.92	16.25	-34.1	-47.7	3.8	1.49e+00	0	42	104	0	29	17290
2026-01-13 12:10:40.96	243.12	16.30	-34.1	-47.7	3.8	1.49e+00	0	42	104	0	29	17310
2026-01-13 12:10:41.96	243.31	16.36	-34.1	-47.7	3.8	1.49e+00	0	42	104	0	29	17332
2026-01-13 12:10:42.97	243.51	16.41	-34.1	-47.7	3.8	1.49e+00	0	42	104	0	29	17328
2026-01-13 12:10:43.97	243.71	16.47	-34.1	-47.7	3.8	1.49e+00	0	42	104	0	29	17325
2026-01-13 12:10:44.98	243.91	16.52	-34.1	-47.7	3.8	1.49e+00	0	42	104	0	29	17302
2026-01-13 12:10:45.99	244.11	16.58	-34.1	-47.7	3.8	1.49e+00	0	42	104	0	29	17336
2026-01-13 12:10:46.99	244.30	16.63	-34.1	-47.7	3.8	1.49e+00	0	42	104	0	29	17318
2026-01-13 12:10:48.00	244.51	16.69	-34.1	-47.7	3.8	1.49e+00	0	42	104	0	29	17302
2026-01-13 12:10:49.01	244.71	16.74	-34.1	-47.7	3.8	1.49e+00	0	42	104	0	29	17294
2026-01-13 12:10:50.02	244.91	16.79	-34.1	-47.7	3.8	1.49e+00	0	42	104	0	29	17358
2026-01-13 12:10:51.03	245.11	16.85	-34.1	-47.7	3.8	1.49e+00	0	42	104	0	29	17317
2026-01-13 12:10:52.04	245.32	16.90	-34.1	-47.7	3.8	1.49e+00	0	42	104	0	29	17302
2026-01-13 12:10:53.04	245.52	16.95	-34.1	-47.8	3.8	1.49e+00	0	42	104	0	29	17388
2026-01-13 12:10:54.05	245.72	17.01	-34.1	-47.7	3.8	1.49e+00	0	43	104	0	29	17349
2026-01-13 12:10:55.06	245.93	17.06	-34.1	-47.7	3.8	1.49e+00	0	42	104	0	29	17314
2026-01-13 12:10:56.06	246.13	17.11	-34.1	-47.7	3.8	1.49e+00	0	43	104	0	29	17329
2026-01-13 12:10:57.07	246.34	17.16	-34.1	-47.7	3.8	1.49e+00	0	43	104	0	29	17340
2026-01-13 12:10:58.08	246.55	17.21	-34.1	-47.8	3.8	1.49e+00	0	42	104	0	29	17373
2026-01-13 12:10:59.09	246.76	17.27	-34.1	-47.7	3.8	1.49e+00	0	43	104	0	29	17335
2026-01-13 12:11:00.09	246.96	17.32	-34.1	-47.7	3.8	1.49e+00	0	43	104	0	29	17304
2026-01-13 12:11:01.10	247.17	17.37	-34.1	-47.7	3.8	1.49e+00	0	42	104	0	29	17347
2026-01-13 12:11:02.11	247.38	17.42	-34.1	-47.7	3.8	1.49e+00	0	43	104	0	29	17320
2026-01-13 12:11:03.11	247.59	17.47	-34.1	-47.7	3.8	1.49e+00	0	42	104	0	29	17359
2026-01-13 12:11:04.12	247.81	17.52	-34.1	-47.7	3.8	1.49e+00	0	42	104	0	29	17305
2026-01-13 12:11:05.13	248.02	17.57	-34.1	-47.7	3.8	1.49e+00	0	42	104	0	29	17314
2026-01-13 12:11:06.14	248.23	17.62	-34.1	-47.7	3.8	1.49e+00	0	42	104	0	29	17345
2026-01-13 12:11:07.14	248.44	17.67	-34.1	-47.7	3.8	1.49e+00	0	42	104	0	29	17352
2026-01-13 12:11:08.15	248.66	17.72	-34.1	-47.7	3.8	1.49e+00	0	42	104	0	29	17294
2026-01-13 12:11:09.15	248.87	17.76	-34.1	-47.7	3.8	1.49e+00	0	42	104	0	29	17353
2026-01-13 12:11:10.16	249.09	17.81	-34.1	-47.7	3.8	1.49e+00	0	43	104	0	29	17364
2026-01-13 12:11:11.16	249.30	17.86	-34.1	-47.7	3.8	1.49e+00	0	42	104	0	29	17343
2026-01-13 12:11:12.17	249.52	17.91	-34.1	-47.7	3.8	1.49e+00	0	43	104	0	29	17361
2026-01-13 12:11:13.17	249.74	17.96	-34.1	-47.7	3.8	1.49e+00	0	42	104	0	29	17332
2026-01-13 12:11:14.18	249.95	18.00	-34.1	-47.7	3.8	1.49e+00	0	42	104	0	29	17354
2026-01-13 12:11:15.19	250.17	18.05	-34.1	-47.7	3.8	1.49e+00	0	42	104	0	29	17360
2026-01-13 12:11:16.20	250.39	18.10	-34.1	-47.7	3.8	1.49e+00	0	42	104	0	29	17353
2026-01-13 12:11:17.21	250.61	18.14	-34.1	-47.7	3.8	1.49e+00	0	42	104	0	29	17359
2026-01-13 12:11:18.21	250.83	18.19	-34.1	-47.7	3.8	1.49e+00	0	43	104	0	29	17353
2026-01-13 12:11:19.21	251.05	18.23	-34.1	-47.8	3.8	1.49e+00	0	42	104	0	29	17372
2026-01-13 12:11:20.23	251.28	18.28	-34.1	-47.7	3.8	1.49e+00	0	42	104	0	29	17284
2026-01-13 12:11:21.23	251.50	18.32	-34.1	-47.7	3.8	1.49e+00	0	42	104	0	29	17346
2026-01-13 12:11:22.24	251.72	18.37	-34.1	-47.7	3.8	1.49e+00	0	42	104	0	29	17309
2026-01-13 12:11:23.25	251.95	18.41	-34.1	-47.7	3.8	1.49e+00	0	42	104	0	29	17315
2026-01-13 12:11:24.25	252.17	18.46	-34.1	-47.7	3.8	1.49e+00	0	42	104	0	29	17342
2026-01-13 12:11:25.26	252.40	18.50	-34.1	-47.7	3.8	1.49e+00	0	43	104	0	29	17351
2026-01-13 12:11:26.27	252.62	18.54	-34.1	-47.7	3.8	1.49e+00	0	42	104	0	29	17296
2026-01-13 12:11:27.27	252.85	18.59	-34.1	-47.7	3.8	1.49e+00	0	42	104	0	29	17376
2026-01-13 12:11:28.28	253.07	18.63	-34.1	-47.7	3.8	1.49e+00	0	42	104	0	29	17357
2026-01-13 12:11:29.29	253.30	18.67	-34.1	-47.7	3.8	1.49e+00	0	42	104	0	29	17340
2026-01-13 12:11:30.29	253.53	18.71	-34.1	-47.7	3.8	1.49e+00	0	42	104	0	29	17320
2026-01-13 12:11:31.30	253.76	18.75	-34.1	-47.7	3.8	1.49e+00	0	42	104	0	29	17314
2026-01-13 12:11:32.30	253.99	18.79	-34.1	-47.7	3.8	1.49e+00	0	43	104	0	29	17302
2026-01-13 12:11:33.30	254.22	18.83	-34.1	-47.7	3.8	1.49e+00	0	42	104	0	29	17295
2026-01-13 12:11:34.31	254.45	18.88	-34.1	-47.7	3.8	1.49e+00	0	42	104	0	29	17356
2026-01-13 12:11:35.30	254.67	18.91	-34.1	-47.7	3.8	1.49e+00	0	42	104	0	29	17343
2026-01-13 12:11:36.32	254.91	18.95	-34.1	-47.7	3.8	1.49e+00	0	42	104	0	29	17343
2026-01-13 12:11:37.32	255.14	18.99	-34.1	-47.7	3.8	1.49e+00	0	42	104	0	29	17343
2026-01-13 12:11:38.32	255.37	19.03	-34.1	-47.7	3.8	1.49e+00	0	43	104	0	29	17321
2026-01-13 12:11:39.32	255.60	19.07	-34.1	-47.7	3.8	1.49e+00	0	42	104	0	29	17314
2026-01-13 12:11:40.32	255.83	19.11	-34.1	-47.7	3.8	1.49e+00	0	43	104	0	29	17310
2026-01-13 12:11:41.33	256.07	19.14	-34.1	-47.7	3.8	1.49e+00	0	43	104	0	29	17330
2026-01-13 12:11:42.34	256.31	19.18	-34.1	-47.8	3.8	1.49e+00	0	42	104	0	29	17384
2026-01-13 12:11:43.35	256.54	19.22	-34.1	-47.7	3.8	1.49e+00	0	42	104	0	29	17334
2026-01-13 12:11:44.35	256.78	19.25	-34.1	-47.8	3.8	1.49e+00	0	42	104	0	29	17358
2026-01-13 12:11:45.36	257.01	19.29	-34.1	-47.7	3.8	1.49e+00	0	42	104	0	29	17318
2026-01-13 12:11:46.37	257.25	19.33	-34.1	-47.7	3.8	1.49e+00	0	42	104	0	29	17295
2026-01-13 12:11:47.38	257.49	19.36	-34.1	-47.7	3.8	1.49e+00	0	42	104	0	29	17340
2026-01-13 12:11:48.38	257.73	19.39	-34.1	-47.7	3.8	1.49e+00	0	43	104	0	29	17307
2026-01-13 12:11:49.39	257.97	19.43	-34.1	-47.7	3.8	1.49e+00	0	43	104	0	29	17315
2026-01-13 12:11:50.40	258.21	19.46	-34.1	-47.7	3.8	1.49e+00	0	42	104	0	29	17305
2026-01-13 12:11:51.41	258.45	19.50	-34.1	-47.8	3.8	1.49e+00	0	43	104	0	29	17381
2026-01-13 12:11:52.41	258.69	19.53	-34.1	-47.7	3.8	1.49e+00	0	43	104	0	29	17295
2026-01-13 12:11:53.42	258.93	19.56	-34.1	-47.7	3.8	1.49e+00	0	42	104	0	29	17303
2026-01-13 12:11:54.43	259.17	19.59	-34.1	-47.7	3.8	1.49e+00	0	42	104	0	29	17281
2026-01-13 12:11:55.44	259.41	19.62	-34.1	-47.7	3.8	1.49e+00	0	42	104	0	29	17340
2026-01-13 12:11:56.44	259.65	19.65	-34.1	-47.7	3.8	1.49e+00	0	43	104	0	29	17330
2026-01-13 12:11:57.45	259.90	19.68	-34.1	-47.7	3.8	1.49e+00	0	43	104	0	29	17297
2026-01-13 12:11:58.46	260.14	19.71	-34.1	-47.7	3.8	1.49e+00	0	42	104	0	29	17335
2026-01-13 12:11:59.46	260.38	19.74	-34.1	-47.7	3.8	1.49e+00	0	43	104	0	29	17368
2026-01-13 12:12:00.47	260.63	19.77	-34.1	-47.7	3.8	1.49e+00	0	42	104	0	29	17364
2026-01-13 12:12:01.48	260.87	19.80	-34.1	-47.7	3.8	1.49e+00	0	42	104	0	29	17278
2026-01-13 12:12:02.48	261.12	19.83	-34.1	-47.7	3.8	1.49e+00	0	42	104	0	29	17319
2026-01-13 12:12:03.49	261.36	19.86	-34.1	-47.7	3.8	1.49e+00	0	42	104	0	29	17346
2026-01-13 12:12:04.49	261.61	19.88	-34.1	-47.7	3.8	1.49e+00	0	42	104	0	29	17323
2026-01-13 12:12:05.50	261.85	19.91	-34.1	-47.7	3.8	1.49e+00	0	43	104	0	29	17346
2026-01-13 12:12:06.50	262.10	19.94	-34.1	-47.7	3.8	1.49e+00	0	42	104	0	29	17323
2026-01-13 12:12:07.51	262.35	19.96	-34.1	-47.7	3.8	1.49e+00	0	43	104	0	29	17303
2026-01-13 12:12:08.52	262.59	19.99	-34.1	-47.7	3.8	1.49e+00	0	43	104	0	29	17285
2026-01-13 12:12:09.52	262.84	20.01	-34.1	-47.7	3.8	1.49e+00	0	42	104	0	29	17366
2026-01-13 12:12:10.54	263.09	20.04	-34.1	-47.7	3.8	1.49e+00	0	43	104	0	29	17322
2026-01-13 12:12:11.54	263.34	20.06	-34.1	-47.7	3.8	1.49e+00	0	43	104	0	29	17292
2026-01-13 12:12:12.55	263.59	20.08	-34.1	-47.7	3.8	1.49e+00	0	43	104	0	29	17320
2026-01-13 12:12:13.55	263.84	20.10	-34.1	-47.7	3.8	1.49e+00	0	42	104	0	29	17325
2026-01-13 12:12:14.55	264.08	20.13	-34.1	-47.7	3.8	1.49e+00	0	42	104	0	29	17324
2026-01-13 12:12:15.56	264.34	20.15	-34.1	-47.7	3.8	1.49e+00	0	42	104	0	29	17307
2026-01-13 12:12:16.57	264.59	20.17	-34.1	-47.7	3.8	1.49e+00	0	42	104	0	29	17336
2026-01-13 12:12:17.57	264.84	20.19	-34.1	-47.7	3.8	1.49e+00	0	43	104	0	29	17335
2026-01-13 12:12:18.58	265.09	20.21	-34.1	-47.7	3.8	1.49e+00	0	43	104	0	29	17357
2026-01-13 12:12:19.57	265.33	20.23	-34.1	-47.7	3.8	1.49e+00	0	42	104	0	29	17278
2026-01-13 12:12:20.58	265.59	20.25	-34.1	-47.7	3.8	1.49e+00	0	42	104	0	29	17293
2026-01-13 12:12:21.58	265.84	20.26	-34.1	-47.7	3.8	1.49e+00	0	43	104	0	29	17317
2026-01-13 12:12:22.59	266.09	20.28	-34.1	-47.7	3.8	1.49e+00	0	42	104	0	29	17333
2026-01-13 12:12:23.59	266.34	20.30	-34.1	-47.7	3.8	1.49e+00	0	42	104	0	29	17325
2026-01-13 12:12:24.60	266.59	20.32	-34.1	-47.7	3.8	1.49e+00	0	43	104	0	29	17353
2026-01-13 12:12:25.61	266.85	20.33	-34.1	-47.7	3.8	1.49e+00	0	42	104	0	29	17313
2026-01-13 12:12:26.61	267.10	20.35	-34.1	-47.7	3.8	1.49e+00	0	43	104	0	29	17331
2026-01-13 12:12:27.61	267.35	20.36	-34.1	-47.7	3.8	1.49e+00	0	42	104	0	29	17320
2026-01-13 12:12:28.62	267.61	20.38	-34.1	-47.7	3.8	1.49e+00	0	42	104	0	29	17334
2026-01-13 12:12:29.62	267.86	20.39	-34.1	-47.7	3.8	1.49e+00	0	43	104	0	29	17266
2026-01-13 12:12:30.63	268.11	20.40	-34.1	-47.7	3.8	1.49e+00	0	42	104	0	29	17311
2026-01-13 12:12:31.64	268.37	20.42	-34.1	-47.7	3.8	1.49e+00	0	43	104	0	29	17322
2026-01-13 12:12:32.64	268.62	20.43	-34.1	-47.7	3.8	1.49e+00	0	42	104	0	29	17363
2026-01-13 12:12:33.65	268.88	20.44	-34.1	-47.7	3.8	1.49e+00	0	43	104	0	29	17299
2026-01-13 12:12:34.66	269.13	20.45	-34.1	-47.7	3.8	1.49e+00	0	42	104	0	29	17318
2026-01-13 12:12:35.67	269.39	20.46	-34.1	-47.7	3.8	1.49e+00	0	42	104	0	29	17264
2026-01-13 12:12:36.68	269.64	20.47	-34.1	-47.7	3.8	1.49e+00	0	43	104	0	29	17296
2026-01-13 12:12:37.68	269.90	20.48	-34.1	-47.7	3.8	1.49e+00	0	43	104	0	29	17311
2026-01-13 12:12:38.69	270.15	20.49	-34.1	-47.7	3.8	1.49e+00	0	42	104	0	29	17327
2026-01-13 12:12:39.69	270.41	20.50	-34.1	-47.7	3.8	1.49e+00	0	42	104	0	29	17338
2026-01-13 12:12:40.70	270.66	20.51	-34.1	-47.7	3.8	1.49e+00	0	43	104	0	29	17296
2026-01-13 12:12:41.71	270.92	20.51	-34.1	-47.7	3.8	1.49e+00	0	43	104	0	29	17343
2026-01-13 12:12:42.71	271.17	20.52	-34.1	-47.7	3.8	1.49e+00	0	43	104	0	29	17328
2026-01-13 12:12:43.72	271.43	20.53	-34.1	-47.7	3.8	1.49e+00	0	42	104	0	29	17317
2026-01-13 12:12:44.73	271.69	20.53	-34.1	-47.7	3.8	1.49e+00	0	43	104	0	29	17274
2026-01-13 12:12:45.74	271.95	20.54	-34.1	-47.7	3.8	1.49e+00	0	43	104	0	29	17304
2026-01-13 12:12:46.74	272.20	20.54	-34.1	-47.8	3.8	1.49e+00	0	42	104	0	29	17386
2026-01-13 12:12:47.75	272.46	20.55	-34.1	-47.7	3.8	1.49e+00	0	43	104	0	29	17289
2026-01-13 12:12:48.76	272.71	20.55	-34.1	-47.7	3.8	1.49e+00	0	42	104	0	29	17339
2026-01-13 12:12:49.76	272.97	20.55	-34.1	-47.7	3.8	1.49e+00	0	43	104	0	29	17322
2026-01-13 12:12:50.77	273.23	20.55	-34.1	-47.7	3.8	1.49e+00	0	42	104	0	29	17332
2026-01-13 12:12:51.78	273.48	20.56	-34.1	-47.7	3.8	1.49e+00	0	43	104	0	29	17317
2026-01-13 12:12:52.78	273.74	20.56	-34.1	-47.7	3.8	1.49e+00	0	42	104	0	29	17310
2026-01-13 12:12:53.78	273.99	20.56	-34.1	-47.7	3.8	1.49e+00	0	43	104	0	29	17382
2026-01-13 12:12:54.79	274.25	20.56	-34.1	-47.7	3.8	1.49e+00	0	43	104	0	29	17363
2026-01-13 12:12:55.80	274.51	20.56	-34.1	-47.7	3.8	1.49e+00	0	42	104	0	29	17313
2026-01-13 12:12:56.80	274.76	20.55	-34.1	-47.7	3.8	1.49e+00	0	43	104	0	29	17345
2026-01-13 12:12:57.81	275.02	20.55	-34.1	-47.7	3.8	1.49e+00	0	43	104	0	29	17326
2026-01-13 12:12:58.82	275.28	20.55	-34.1	-47.7	3.8	1.49e+00	0	43	104	0	29	17296
2026-01-13 12:12:59.82	275.53	20.55	-34.1	-47.7	3.8	1.49e+00	0	43	104	0	29	17335
2026-01-13 12:13:00.83	275.79	20.54	-34.1	-47.7	3.8	1.49e+00	0	43	104	0	29	17349
2026-01-13 12:13:01.84	276.05	20.54	-34.1	-47.7	3.8	1.49e+00	0	43	104	0	29	17365
2026-01-13 12:13:02.84	276.30	20.54	-34.1	-47.7	3.8	1.49e+00	0	43	104	0	29	17340
2026-01-13 12:13:03.85	276.56	20.53	-34.1	-47.7	3.8	1.49e+00	0	43	104	0	29	17313
2026-01-13 12:13:04.86	276.81	20.52	-34.1	-47.7	3.8	1.49e+00	0	43	104	0	29	17334
2026-01-13 12:13:05.86	277.07	20.52	-34.1	-47.7	3.8	1.49e+00	0	43	104	0	29	17280
2026-01-13 12:13:06.87	277.32	20.51	-34.1	-47.7	3.8	1.49e+00	0	43	104	0	29	17333
2026-01-13 12:13:07.87	277.58	20.50	-34.1	-47.7	3.8	1.49e+00	0	43	104	0	29	17326
2026-01-13 12:13:08.88	277.83	20.50	-34.1	-47.7	3.8	1.49e+00	0	43	104	0	29	17312
2026-01-13 12:13:09.89	278.09	20.49	-34.1	-47.7	3.8	1.49e+00	0	43	104	0	29	17287
2026-01-13 12:13:10.90	278.35	20.48	-34.1	-47.7	3.8	1.49e+00	0	43	104	0	29	17293
2026-01-13 12:13:11.90	278.60	20.47	-34.1	-47.7	3.8	1.49e+00	0	43	104	0	29	17261
2026-01-13 12:13:12.91	278.86	20.46	-34.1	-47.7	3.8	1.49e+00	0	43	104	0	29	17362
2026-01-13 12:13:13.91	279.11	20.45	-34.1	-47.7	3.8	1.49e+00	0	42	104	0	29	17315
2026-01-13 12:13:14.92	279.36	20.43	-34.1	-47.7	3.8	1.49e+00	0	43	104	0	29	17341
2026-01-13 12:13:15.92	279.62	20.42	-34.1	-47.7	3.8	1.49e+00	0	42	104	0	29	17324
2026-01-13 12:13:16.93	279.87	20.41	-34.1	-47.7	3.8	1.49e+00	0	43	104	0	29	17311
2026-01-13 12:13:17.94	280.13	20.40	-34.1	-47.7	3.8	1.49e+00	0	43	104	0	29	17305
2026-01-13 12:13:18.95	280.38	20.38	-34.1	-47.7	3.8	1.49e+00	0	42	104	0	29	17281
2026-01-13 12:13:19.96	280.63	20.37	-34.1	-47.7	3.8	1.49e+00	0	42	104	0	29	17337
2026-01-13 12:13:20.96	280.89	20.35	-34.1	-47.7	3.8	1.49e+00	0	42	104	0	29	17349
2026-01-13 12:13:21.97	281.14	20.34	-34.1	-47.7	3.8	1.49e+00	0	42	104	0	29	17325
2026-01-13 12:13:22.98	281.39	20.32	-34.1	-47.7	3.8	1.49e+00	0	43	104	0	29	17325
2026-01-13 12:13:23.99	281.65	20.31	-34.1	-47.7	3.8	1.49e+00	0	42	104	0	29	17309
2026-01-13 12:13:24.99	281.90	20.29	-34.1	-47.7	3.8	1.49e+00	0	43	104	0	29	17287
2026-01-13 12:13:25.99	282.15	20.27	-34.1	-47.7	3.8	1.49e+00	0	43	104	0	29	17333
2026-01-13 12:13:27.01	282.40	20.25	-34.1	-47.7	3.8	1.49e+00	0	43	104	0	29	17348
2026-01-13 12:13:28.01	282.65	20.24	-34.1	-47.7	3.8	1.49e+00	0	43	104	0	29	17334
2026-01-13 12:13:29.02	282.90	20.22	-34.1	-47.7	3.8	1.49e+00	0	43	104	0	29	17371
2026-01-13 12:13:30.03	283.15	20.20	-34.1	-47.7	3.8	1.49e+00	0	43	104	0	29	17279
2026-01-13 12:13:31.04	283.41	20.18	-34.1	-47.7	3.8	1.49e+00	0	43	104	0	29	17309
2026-01-13 12:13:32.04	283.65	20.16	-34.1	-47.7	3.8	1.49e+00	0	43	104	0	29	17299
2026-01-13 12:13:33.05	283.90	20.14	-34.1	-47.7	3.8	1.49e+00	0	43	104	0	29	17315
2026-01-13 12:13:34.06	284.15	20.11	-34.1	-47.7	3.8	1.49e+00	0	42	104	0	29	17342
2026-01-13 12:13:35.07	284.40	20.09	-34.1	-47.7	3.8	1.49e+00	0	43	104	0	29	17344
2026-01-13 12:13:36.08	284.65	20.07	-34.1	-47.7	3.8	1.49e+00	0	42	104	0	29	17335
2026-01-13 12:13:37.09	284.90	20.05	-34.1	-47.7	3.8	1.49e+00	0	43	104	0	29	17289
2026-01-13 12:13:38.10	285.15	20.02	-34.1	-47.7	3.8	1.49e+00	0	43	104	0	29	17275
2026-01-13 12:13:39.10	285.40	20.00	-34.1	-47.7	3.8	1.49e+00	0	42	104	0	29	17322
2026-01-13 12:13:40.11	285.64	19.97	-34.1	-47.7	3.8	1.49e+00	0	43	104	0	29	17363
2026-01-13 12:13:41.12	285.89	19.95	-34.1	-47.7	3.8	1.49e+00	0	43	104	0	29	17318
2026-01-13 12:13:42.12	286.14	19.92	-34.1	-47.7	3.8	1.49e+00	0	42	104	0	29	17367
2026-01-13 12:13:43.13	286.38	19.90	-34.1	-47.7	3.8	1.49e+00	0	43	104	0	29	17311
2026-01-13 12:13:44.14	286.63	19.87	-34.1	-47.7	3.8	1.49e+00	0	43	104	0	29	17312
2026-01-13 12:13:45.15	286.88	19.84	-34.1	-47.7	3.8	1.49e+00	0	43	104	0	29	17341
2026-01-13 12:13:46.15	287.12	19.81	-34.1	-47.7	3.8	1.49e+00	0	43	104	0	29	17344
2026-01-13 12:13:47.16	287.36	19.79	-34.1	-47.8	3.8	1.49e+00	0	43	104	0	29	17393
2026-01-13 12:13:48.17	287.61	19.76	-34.1	-47.8	3.8	1.49e+00	0	43	104	0	29	17379
2026-01-13 12:13:49.18	287.85	19.73	-34.1	-47.7	3.8	1.49e+00	0	43	104	0	29	17334
2026-01-13 12:13:50.18	288.09	19.70	-34.1	-47.7	3.8	1.49e+00	0	43	104	0	29	17267
2026-01-13 12:13:51.19	288.34	19.67	-34.1	-47.7	3.8	1.49e+00	0	43	104	0	29	17328
2026-01-13 12:13:52.20	288.58	19.64	-34.1	-47.7	3.8	1.49e+00	0	43	104	0	29	17305
2026-01-13 12:13:53.21	288.82	19.61	-34.1	-47.7	3.8	1.49e+00	0	43	104	0	29	17363
2026-01-13 12:13:54.21	289.06	19.58	-34.1	-47.7	3.8	1.49e+00	0	43	104	0	29	17304
2026-01-13 12:13:55.22	289.30	19.54	-34.1	-47.7	3.8	1.49e+00	0	43	104	0	29	17355
2026-01-13 12:13:56.23	289.54	19.51	-34.1	-47.7	3.8	1.49e+00	0	43	104	0	29	17322
2026-01-13 12:13:57.24	289.78	19.48	-34.1	-47.7	3.8	1.49e+00	0	43	104	0	29	17324
2026-01-13 12:13:58.24	290.02	19.45	-34.1	-47.8	3.8	1.49e+00	0	43	104	0	29	17382
2026-01-13 12:13:59.24	290.25	19.41	-34.1	-47.7	3.8	1.49e+00	0	42	104	0	29	17303
2026-01-13 12:14:00.25	290.49	19.38	-34.1	-47.7	3.8	1.49e+00	0	43	104	0	29	17254
2026-01-13 12:14:01.25	290.73	19.34	-34.1	-47.7	3.8	1.49e+00	0	43	104	0	29	17303
2026-01-13 12:14:02.26	290.97	19.31	-34.1	-47.7	3.8	1.49e+00	0	43	104	0	29	17315
2026-01-13 12:14:03.26	291.20	19.27	-34.1	-47.7	3.8	1.49e+00	0	43	104	0	29	17354
2026-01-13 12:14:04.27	291.44	19.24	-34.1	-47.7	3.8	1.49e+00	0	43	104	0	29	17374
2026-01-13 12:14:05.27	291.67	19.20	-34.1	-47.7	3.8	1.49e+00	0	43	104	0	29	17343
2026-01-13 12:14:06.28	291.91	19.17	-34.1	-47.7	3.8	1.49e+00	0	43	104	0	29	17306
2026-01-13 12:14:07.29	292.14	19.13	-34.1	-47.7	3.8	1.49e+00	0	43	104	0	29	17361
2026-01-13 12:14:08.29	292.37	19.09	-34.1	-47.7	3.8	1.49e+00	0	43	104	0	29	17332
2026-01-13 12:14:09.30	292.61	19.05	-34.1	-47.7	3.8	1.49e+00	0	43	104	0	29	17357
2026-01-13 12:14:10.31	292.84	19.01	-34.1	-47.7	3.8	1.49e+00	0	43	104	0	29	17339
2026-01-13 12:14:11.32	293.07	18.98	-34.1	-47.7	3.8	1.49e+00	0	43	104	0	29	17289
2026-01-13 12:14:12.32	293.30	18.94	-34.1	-47.8	3.8	1.49e+00	0	43	104	0	29	17366
2026-01-13 12:14:13.32	293.53	18.90	-34.1	-47.8	3.8	1.49e+00	0	42	104	0	29	17363
2026-01-13 12:14:14.32	293.76	18.86	-34.1	-47.7	3.8	1.49e+00	0	43	104	0	29	17366
2026-01-13 12:14:15.33	293.99	18.82	-34.1	-47.8	3.8	1.49e+00	0	43	104	0	29	17391
2026-01-13 12:14:16.34	294.22	18.78	-34.1	-47.7	3.8	1.49e+00	0	43	104	0	29	17330
2026-01-13 12:14:17.34	294.45	18.74	-34.1	-47.7	3.8	1.49e+00	0	42	104	0	29	17331
2026-01-13 12:14:18.35	294.67	18.70	-34.1	-47.7	3.8	1.49e+00	0	43	104	0	29	17299
2026-01-13 12:14:19.36	294.90	18.65	-34.1	-47.7	3.8	1.49e+00	0	42	104	0	29	17323
2026-01-13 12:14:20.36	295.13	18.61	-34.1	-47.7	3.8	1.49e+00	0	43	104	0	29	17358
2026-01-13 12:14:21.36	295.35	18.57	-34.1	-47.7	3.8	1.49e+00	0	43	104	0	29	17327
2026-01-13 12:14:22.37	295.58	18.53	-34.1	-47.7	3.8	1.49e+00	0	43	104	0	29	17331
2026-01-13 12:14:23.38	295.80	18.48	-34.1	-47.7	3.8	1.49e+00	0	42	104	0	29	17309
2026-01-13 12:14:24.39	296.03	18.44	-34.1	-47.7	3.8	1.49e+00	0	43	104	0	29	17362
2026-01-13 12:14:25.39	296.25	18.40	-34.1	-47.7	3.8	1.49e+00	0	43	104	0	29	17310
2026-01-13 12:14:26.40	296.47	18.35	-34.1	-47.7	3.8	1.49e+00	0	43	104	0	29	17350
2026-01-13 12:14:27.40	296.69	18.31	-34.1	-47.7	3.8	1.49e+00	0	42	104	0	29	17328
2026-01-13 12:14:28.41	296.91	18.26	-34.1	-47.7	3.8	1.49e+00	0	43	104	0	29	17300
2026-01-13 12:14:29.41	297.13	18.22	-34.1	-47.7	3.8	1.49e+00	0	43	104	0	29	17345
2026-01-13 12:14:30.42	297.35	18.17	-34.1	-47.7	3.8	1.49e+00	0	43	104	0	29	17336
2026-01-13 12:14:31.43	297.57	18.13	-34.1	-47.7	3.8	1.49e+00	0	43	104	0	29	17358
2026-01-13 12:14:32.43	297.79	18.08	-34.1	-47.7	3.8	1.49e+00	0	43	104	0	29	17322
2026-01-13 12:14:33.43	298.01	18.04	-34.1	-47.7	3.8	1.49e+00	0	43	104	0	29	17343
2026-01-13 12:14:34.45	298.23	17.99	-34.1	-47.7	3.8	1.49e+00	0	43	104	0	29	17298
2026-01-13 12:14:35.45	298.44	17.94	-34.1	-47.7	3.8	1.49e+00	0	43	104	0	29	17312
2026-01-13 12:14:36.46	298.66	17.89	-34.1	-47.7	3.8	1.49e+00	0	42	104	0	29	17313
2026-01-13 12:14:37.46	298.87	17.85	-34.1	-47.7	3.8	1.49e+00	0	43	104	0	29	17331
2026-01-13 12:14:38.47	299.09	17.80	-34.1	-47.7	3.8	1.49e+00	0	42	104	0	29	17336
2026-01-13 12:14:39.47	299.30	17.75	-34.1	-47.7	3.8	1.49e+00	0	43	104	0	29	17349
2026-01-13 12:14:40.48	299.52	17.70	-34.1	-47.7	3.8	1.49e+00	0	43	104	0	29	17337
2026-01-13 12:14:41.49	299.73	17.65	-34.1	-47.7	3.8	1.49e+00	0	43	104	0	29	17306
2026-01-13 12:14:42.49	299.94	17.60	-34.1	-47.7	3.8	1.49e+00	0	43	104	0	29	17373
2026-01-13 12:14:43.50	300.15	17.56	-34.1	-47.7	3.8	1.49e+00	0	43	104	0	29	17351
2026-01-13 12:14:44.51	300.36	17.51	-34.1	-47.7	3.8	1.49e+00	0	43	104	0	29	17365
2026-01-13 12:14:45.52	300.57	17.46	-34.1	-47.7	3.8	1.49e+00	0	43	104	0	29	17316
2026-01-13 12:14:46.52	300.78	17.41	-34.1	-47.7	3.8	1.49e+00	0	43	104	0	29	17331
2026-01-13 12:14:47.52	300.99	17.36	-34.1	-47.7	3.8	1.49e+00	0	43	104	0	29	17309
2026-01-13 12:14:48.52	301.20	17.31	-34.1	-47.8	3.8	1.49e+00	0	43	104	0	29	17384
2026-01-13 12:14:49.53	301.40	17.25	-34.1	-47.7	3.8	1.49e+00	0	43	104	0	29	17324
2026-01-13 12:14:50.54	301.61	17.20	-34.1	-47.7	3.8	1.49e+00	0	43	104	0	29	17336
2026-01-13 12:14:51.55	301.82	17.15	-34.1	-47.8	3.8	1.49e+00	0	43	104	0	29	17365
2026-01-13 12:14:52.56	302.02	17.10	-34.1	-47.7	3.8	1.49e+00	0	43	104	0	29	17349
2026-01-13 12:14:53.56	302.23	17.05	-34.1	-47.7	3.8	1.49e+00	0	43	104	0	29	17357
2026-01-13 12:14:54.56	302.43	17.00	-34.1	-47.7	3.8	1.49e+00	0	43	104	0	29	17310
2026-01-13 12:14:55.56	302.63	16.94	-34.1	-47.7	3.8	1.49e+00	0	43	104	0	29	17353
2026-01-13 12:14:56.57	302.83	16.89	-34.1	-47.7	3.8	1.49e+00	0	42	104	0	29	17332
2026-01-13 12:14:57.57	303.03	16.84	-34.1	-47.7	3.8	1.49e+00	0	43	104	0	29	17318
2026-01-13 12:14:58.57	303.23	16.79	-34.1	-47.8	3.8	1.49e+00	0	43	104	0	29	17363
2026-01-13 12:14:59.58	303.43	16.73	-34.1	-47.7	3.8	1.49e+00	0	43	104	0	29	17358
2026-01-13 12:15:00.58	303.63	16.68	-34.1	-47.7	3.8	1.49e+00	0	43	104	0	29	17373
2026-01-13 12:15:01.59	303.83	16.63	-34.1	-47.7	3.8	1.49e+00	0	43	104	0	29	17330
2026-01-13 12:15:02.60	304.03	16.57	-34.1	-47.7	3.8	1.49e+00	0	43	104	0	29	17323
2026-01-13 12:15:03.61	304.23	16.52	-34.1	-47.8	3.8	1.49e+00	0	43	104	0	29	17372
2026-01-13 12:15:04.61	304.43	16.46	-34.1	-47.7	3.8	1.49e+00	0	42	104	0	29	17316
2026-01-13 12:15:05.62	304.62	16.41	-34.1	-47.7	3.8	1.49e+00	0	43	104	0	29	17367
2026-01-13 12:15:06.62	304.82	16.36	-34.1	-47.7	3.8	1.49e+00	0	43	104	0	29	17346
2026-01-13 12:15:07.63	305.01	16.30	-34.1	-47.7	3.8	1.49e+00	0	43	104	0	29	17356
2026-01-13 12:15:08.63	305.20	16.25	-34.1	-47.7	3.8	1.49e+00	0	43	104	0	29	17285
2026-01-13 12:15:09.64	305.40	16.19	-34.1	-47.7	3.8	1.49e+00	0	43	104	0	29	17347
2026-01-13 12:15:10.64	305.59	16.14	-34.1	-47.7	3.8	1.49e+00	0	43	104	0	29	17313
2026-01-13 12:15:11.64	305.78	16.08	-34.1	-47.7	3.8	1.49e+00	0	42	104	0	29	17318
2026-01-13 12:15:12.65	305.97	16.02	-34.1	-47.7	3.8	1.49e+00	0	43	104	0	29	17346
2026-01-13 12:15:13.66	306.16	15.97	-34.1	-47.7	3.8	1.49e+00	0	43	104	0	29	17335
2026-01-13 12:15:14.67	306.36	15.91	-34.1	-47.7	3.8	1.49e+00	0	42	104	0	29	17345
2026-01-13 12:15:15.67	306.54	15.86	-34.1	-47.7	3.8	1.49e+00	0	43	104	0	29	17363
2026-01-13 12:15:16.67	306.73	15.80	-34.1	-47.7	3.8	1.49e+00	0	43	104	0	29	17349
2026-01-13 12:15:17.68	306.92	15.74	-34.1	-47.7	3.8	1.49e+00	0	43	104	0	29	17376
2026-01-13 12:15:18.68	307.10	15.69	-34.1	-47.7	3.8	1.49e+00	0	43	104	0	29	17325
2026-01-13 12:15:19.69	307.29	15.63	-34.1	-47.7	3.8	1.49e+00	0	43	104	0	29	17320
2026-01-13 12:15:20.69	307.48	15.57	-34.1	-47.7	3.8	1.49e+00	0	43	104	0	29	17321
2026-01-13 12:15:21.70	307.66	15.52	-34.1	-47.7	3.8	1.49e+00	0	42	104	0	29	17351
2026-01-13 12:15:22.71	307.85	15.46	-34.1	-47.7	3.8	1.49e+00	0	43	104	0	29	17369
2026-01-13 12:15:23.72	308.03	15.40	-34.1	-47.7	3.8	1.49e+00	0	42	104	0	29	17306
2026-01-13 12:15:24.72	308.21	15.35	-34.1	-47.7	3.8	1.49e+00	0	43	104	0	29	17304
2026-01-13 12:15:25.73	308.40	15.29	-34.1	-47.7	3.8	1.49e+00	0	43	104	0	29	17377
2026-01-13 12:15:26.73	308.58	15.23	-34.1	-47.7	3.8	1.49e+00	0	43	104	0	29	17337
2026-01-13 12:15:27.74	308.76	15.17	-34.1	-47.7	3.8	1.49e+00	0	43	104	0	29	17341
2026-01-13 12:15:28.75	308.94	15.11	-34.1	-47.7	3.8	1.49e+00	0	43	104	0	29	17314
2026-01-13 12:15:29.75	309.12	15.06	-34.1	-47.7	3.8	1.49e+00	0	43	104	0	29	17379
2026-01-13 12:15:30.76	309.30	15.00	-34.1	-47.7	3.8	1.49e+00	0	43	104	0	29	17367
2026-01-13 12:15:31.76	309.47	14.94	-34.1	-47.7	3.8	1.49e+00	0	43	104	0	29	17349
2026-01-13 12:15:32.77	309.65	14.88	-34.1	-47.7	3.8	1.49e+00	0	43	104	0	29	17257
2026-01-13 12:15:33.78	309.83	14.82	-34.1	-47.7	3.8	1.49e+00	0	43	104	0	29	17342
2026-01-13 12:15:34.79	310.01	14.76	-34.1	-47.7	3.8	1.49e+00	0	43	104	0	29	17292
2026-01-13 12:15:35.79	310.18	14.70	-34.1	-47.8	3.8	1.49e+00	0	43	104	0	29	17384
2026-01-13 12:15:36.80	310.36	14.65	-34.1	-47.7	3.8	1.49e+00	0	43	104	0	29	17376
2026-01-13 12:15:37.80	310.53	14.59	-34.1	-47.7	3.8	1.49e+00	0	43	104	0	29	17341
2026-01-13 12:15:38.81	310.70	14.53	-34.1	-47.7	3.8	1.49e+00	0	42	104	0	29	17305
2026-01-13 12:15:39.82	310.88	14.47	-34.1	-47.7	3.8	1.49e+00	0	42	104	0	29	17343
2026-01-13 12:15:40.82	311.05	14.41	-34.1	-47.7	3.8	1.49e+00	0	43	104	0	29	17314
2026-01-13 12:15:41.83	311.22	14.35	-34.1	-47.7	3.8	1.49e+00	0	43	104	0	29	17311
2026-01-13 12:15:42.84	311.39	14.29	-34.1	-47.7	3.8	1.49e+00	0	43	104	0	29	17338
2026-01-13 12:15:43.85	311.56	14.23	-34.1	-47.7	3.8	1.49e+00	0	43	104	0	29	17295
2026-01-13 12:15:44.85	311.73	14.17	-34.1	-47.7	3.8	1.49e+00	0	43	104	0	29	17360
2026-01-13 12:15:45.86	311.90	14.11	-34.1	-47.7	3.8	1.49e+00	0	42	104	0	29	17339
2026-01-13 12:15:46.86	312.07	14.05	-34.1	-47.7	3.8	1.49e+00	0	43	104	0	29	17323
2026-01-13 12:15:47.86	312.23	13.99	-34.1	-47.7	3.8	1.49e+00	0	43	104	0	29	17296
2026-01-13 12:15:48.87	312.40	13.93	-34.1	-47.7	3.8	1.49e+00	0	43	104	0	29	17315
2026-01-13 12:15:49.87	312.57	13.87	-34.1	-47.7	3.8	1.49e+00	0	43	104	0	29	17337
2026-01-13 12:15:50.88	312.73	13.81	-34.1	-47.7	3.8	1.49e+00	0	43	104	0	29	17345
2026-01-13 12:15:51.89	312.90	13.75	-34.1	-47.7	3.8	1.49e+00	0	43	104	0	29	17316
2026-01-13 12:15:52.89	313.06	13.69	-34.1	-47.7	3.8	1.49e+00	0	43	104	0	29	17334
2026-01-13 12:15:53.90	313.23	13.63	-34.1	-47.8	3.8	1.49e+00	0	43	104	0	29	17412
2026-01-13 12:15:54.89	313.39	13.57	-34.1	-47.7	3.8	1.49e+00	0	43	104	0	29	17324
2026-01-13 12:15:55.90	313.55	13.51	-34.1	-47.8	3.8	1.49e+00	0	43	104	0	29	17387
2026-01-13 12:15:56.91	313.71	13.45	-34.1	-47.7	3.8	1.49e+00	0	42	104	0	29	17296
2026-01-13 12:15:57.92	313.87	13.39	-34.1	-47.7	3.8	1.49e+00	0	43	104	0	29	17324
2026-01-13 12:15:58.93	314.03	13.33	-34.1	-47.7	3.8	1.49e+00	0	43	104	0	29	17326
2026-01-13 12:15:59.93	314.19	13.27	-34.1	-47.7	3.8	1.49e+00	0	43	104	0	29	17327
2026-01-13 12:16:00.94	314.35	13.21	-34.1	-47.7	3.8	1.49e+00	0	43	104	0	29	17310
2026-01-13 12:16:01.95	314.51	13.15	-34.1	-47.7	3.8	1.49e+00	0	43	104	0	29	17331
2026-01-13 12:16:02.94	314.67	13.09	-34.1	-47.7	3.8	1.49e+00	0	43	104	0	29	17344
2026-01-13 12:16:03.95	314.82	13.03	-34.1	-47.7	3.8	1.49e+00	0	43	104	0	29	17320
2026-01-13 12:16:04.96	314.98	12.97	-34.1	-47.7	3.8	1.49e+00	0	43	104	0	29	17377
2026-01-13 12:16:05.96	315.14	12.91	-34.1	-47.7	3.8	1.49e+00	0	43	104	0	29	17346
2026-01-13 12:16:06.97	315.29	12.84	-34.1	-47.7	3.8	1.49e+00	0	43	104	0	29	17323
2026-01-13 12:16:07.98	315.45	12.78	-34.1	-47.7	3.8	1.49e+00	0	42	104	0	29	17383
2026-01-13 12:16:08.99	315.60	12.72	-34.1	-47.7	3.8	1.49e+00	0	43	104	0	29	17334
2026-01-13 12:16:09.99	315.75	12.66	-34.1	-47.7	3.8	1.49e+00	0	43	104	0	29	17290
2026-01-13 12:16:10.99	315.91	12.60	-34.1	-47.7	3.8	1.49e+00	0	43	104	0	29	17335
2026-01-13 12:16:12.00	316.06	12.54	-34.1	-47.7	3.8	1.49e+00	0	43	104	0	29	17343
2026-01-13 12:16:13.01	316.21	12.48	-34.1	-47.8	3.8	1.49e+00	0	43	104	0	29	17373
2026-01-13 12:16:14.02	316.36	12.42	-34.1	-47.7	3.8	1.49e+00	0	42	104	0	29	17314
2026-01-13 12:16:15.02	316.51	12.36	-34.1	-47.7	3.8	1.49e+00	0	43	104	0	29	17363
2026-01-13 12:16:16.03	316.66	12.29	-34.1	-47.7	3.8	1.49e+00	0	42	104	0	29	17338
2026-01-13 12:16:17.04	316.81	12.23	-34.1	-47.7	3.8	1.49e+00	0	43	104	0	29	17333
2026-01-13 12:16:18.04	316.96	12.17	-34.1	-47.7	3.8	1.49e+00	0	43	104	0	29	17306
2026-01-13 12:16:19.05	317.11	12.11	-34.1	-47.7	3.8	1.49e+00	0	42	104	0	29	17326
2026-01-13 12:16:20.05	317.25	12.05	-34.1	-47.7	3.8	1.49e+00	0	43	104	0	29	17368
2026-01-13 12:16:21.05	317.40	11.99	-34.1	-47.7	3.8	1.49e+00	0	42	104	0	29	17355
2026-01-13 12:16:22.06	317.55	11.93	-34.1	-47.7	3.8	1.49e+00	0	43	104	0	29	17362
2026-01-13 12:16:23.07	317.69	11.87	-34.1	-47.7	3.8	1.49e+00	0	42	104	0	29	17315
2026-01-13 12:16:24.07	317.84	11.81	-34.1	-47.8	3.8	1.49e+00	0	43	104	0	29	17386
2026-01-13 12:16:25.08	317.98	11.74	-34.1	-47.7	3.8	1.49e+00	0	43	104	0	29	17389
2026-01-13 12:16:26.09	318.13	11.68	-34.1	-47.7	3.8	1.49e+00	0	42	104	0	29	17357
2026-01-13 12:16:27.09	318.27	11.62	-34.1	-47.7	3.8	1.49e+00	0	43	104	0	29	17296
2026-01-13 12:16:28.10	318.41	11.56	-34.1	-47.7	3.8	1.49e+00	0	43	104	0	29	17349
2026-01-13 12:16:29.10	318.55	11.50	-34.1	-47.7	3.8	1.49e+00	0	43	104	0	29	17345
2026-01-13 12:16:30.11	318.70	11.44	-34.1	-47.7	3.8	1.49e+00	0	43	104	0	29	17355
2026-01-13 12:16:31.12	318.84	11.38	-34.1	-47.7	3.8	1.49e+00	0	43	104	0	29	17341
2026-01-13 12:16:32.12	318.98	11.32	-34.1	-47.7	3.8	1.49e+00	0	43	104	0	29	17333
2026-01-13 12:16:33.12	319.12	11.26	-34.1	-47.7	3.8	1.49e+00	0	43	104	0	29	17367
2026-01-13 12:16:34.14	319.26	11.19	-34.1	-47.7	3.8	1.49e+00	0	43	104	0	29	17301
2026-01-13 12:16:35.14	319.40	11.13	-34.1	-47.7	3.8	1.49e+00	0	43	104	0	29	17330
2026-01-13 12:16:36.15	319.53	11.07	-34.1	-47.7	3.8	1.49e+00	0	42	104	0	29	17349
2026-01-13 12:16:37.16	319.67	11.01	-34.1	-47.7	3.8	1.49e+00	0	42	104	0	29	17337
2026-01-13 12:16:38.15	319.81	10.95	-34.1	-47.7	3.8	1.49e+00	0	43	104	0	29	17320
2026-01-13 12:16:39.17	319.95	10.89	-34.1	-47.8	3.8	1.49e+00	0	42	104	0	29	17414
2026-01-13 12:16:40.17	320.08	10.83	-34.1	-47.7	3.8	1.49e+00	0	43	104	0	29	17327
2026-01-13 12:16:41.17	320.21	10.77	-34.1	-47.7	3.8	1.49e+00	0	43	104	0	29	17352
2026-01-13 12:16:42.17	320.35	10.70	-34.1	-47.7	3.8	1.49e+00	0	43	104	0	29	17347
2026-01-13 12:16:43.17	320.48	10.64	-34.1	-47.7	3.8	1.49e+00	0	43	104	0	29	17360
2026-01-13 12:16:44.18	320.62	10.58	-34.1	-47.7	3.8	1.49e+00	0	43	104	0	29	17370
2026-01-13 12:16:45.19	320.75	10.52	-34.1	-47.8	3.8	1.49e+00	0	43	104	0	29	17399
2026-01-13 12:16:46.19	320.88	10.46	-34.1	-47.7	3.8	1.49e+00	0	43	104	0	29	17340
2026-01-13 12:16:47.19	321.01	10.40	-34.1	-47.8	3.8	1.49e+00	0	43	104	0	29	17388
2026-01-13 12:16:48.20	321.15	10.34	-34.1	-47.7	3.8	1.49e+00	0	43	104	0	29	17315
2026-01-13 12:16:49.20	321.28	10.28	-34.1	-47.8	3.8	1.49e+00	0	43	104	0	29	17380
2026-01-13 12:16:50.21	321.41	10.22	-34.1	-47.7	3.8	1.49e+00	0	43	104	0	29	17302
2026-01-13 12:16:51.22	321.54	10.16	-34.1	-47.7	3.8	1.49e+00	0	43	104	0	29	17359
2026-01-13 12:16:52.22	321.67	10.10	-34.1	-47.7	3.8	1.49e+00	0	43	104	0	29	17341
2026-01-13 12:16:53.23	321.80	10.03	-34.1	-47.8	3.8	1.49e+00	0	43	104	0	29	17358
2026-01-13 12:16:54.24	321.93	9.97	-34.1	-47.8	3.8	1.49e+00	0	42	104	0	29	17377
2026-01-13 12:16:55.24	322.05	9.91	-34.1	-47.7	3.8	1.49e+00	0	43	104	0	29	17314
2026-01-13 12:16:56.25	322.18	9.85	-34.1	-47.7	3.8	1.49e+00	0	42	104	0	29	17350
2026-01-13 12:16:57.25	322.31	9.79	-34.1	-47.7	3.8	1.49e+00	0	43	104	0	29	17365
2026-01-13 12:16:58.25	322.43	9.73	-34.1	-47.7	3.8	1.49e+00	0	42	104	0	29	17361
2026-01-13 12:16:59.26	322.56	9.67	-34.1	-47.8	3.8	1.49e+00	0	43	104	0	29	17411
2026-01-13 12:17:00.27	322.68	9.61	-34.1	-47.8	3.8	1.49e+00	0	43	104	0	29	17399
2026-01-13 12:17:01.28	322.81	9.55	-34.1	-47.7	3.8	1.49e+00	0	43	104	0	29	17324
2026-01-13 12:17:02.28	322.93	9.49	-34.1	-47.7	3.8	1.49e+00	0	43	104	0	29	17290
2026-01-13 12:17:03.28	323.06	9.43	-34.1	-47.7	3.8	1.49e+00	0	43	104	0	29	17340
2026-01-13 12:17:04.29	323.18	9.37	-34.1	-47.7	3.8	1.49e+00	0	43	104	0	29	17342
2026-01-13 12:17:05.30	323.30	9.31	-34.1	-47.7	3.8	1.49e+00	0	43	104	0	29	17356
2026-01-13 12:17:06.30	323.43	9.25	-34.1	-47.7	3.8	1.49e+00	0	43	104	0	29	17364
2026-01-13 12:17:07.31	323.55	9.18	-34.1	-47.7	3.8	1.49e+00	0	43	104	0	29	17378
2026-01-13 12:17:08.32	323.67	9.12	-34.1	-47.7	3.8	1.49e+00	0	43	104	0	29	17337
2026-01-13 12:17:09.32	323.79	9.06	-34.1	-47.8	3.8	1.49e+00	0	43	104	0	29	17388
2026-01-13 12:17:10.33	323.91	9.00	-34.1	-47.7	3.8	1.49e+00	0	43	104	0	29	17321
2026-01-13 12:17:11.34	324.03	8.94	-34.1	-47.7	3.8	1.49e+00	0	43	104	0	29	17364
2026-01-13 12:17:12.34	324.15	8.88	-34.1	-47.7	3.8	1.49e+00	0	43	104	0	29	17365
2026-01-13 12:17:13.35	324.27	8.82	-34.1	-47.7	3.8	1.49e+00	0	43	104	0	29	17343
2026-01-13 12:17:14.36	324.39	8.76	-34.1	-47.7	3.8	1.49e+00	0	43	104	0	29	17287
2026-01-13 12:17:15.37	324.51	8.70	-34.1	-47.7	3.8	1.49e+00	0	43	104	0	29	17311
2026-01-13 12:17:16.37	324.63	8.64	-34.1	-47.7	3.8	1.49e+00	0	43	104	0	29	17345
2026-01-13 12:17:17.37	324.74	8.58	-34.1	-47.7	3.8	1.49e+00	0	43	104	0	29	17346
2026-01-13 12:17:18.38	324.86	8.52	-34.1	-47.7	3.8	1.49e+00	0	43	104	0	29	17311
2026-01-13 12:17:19.39	324.98	8.46	-34.1	-47.7	3.8	1.49e+00	0	43	104	0	29	17323
2026-01-13 12:17:20.39	325.09	8.40	-34.1	-47.7	3.8	1.49e+00	0	43	104	0	29	17343
2026-01-13 12:17:21.40	325.21	8.34	-34.1	-47.7	3.8	1.49e+00	0	43	104	0	29	17349
2026-01-13 12:17:22.40	325.32	8.28	-34.1	-47.7	3.8	1.49e+00	0	42	104	0	29	17338
2026-01-13 12:17:23.42	325.44	8.22	-34.1	-47.8	3.8	1.49e+00	0	43	104	0	29	17384
2026-01-13 12:17:24.42	325.55	8.16	-34.1	-47.7	3.8	1.49e+00	0	43	104	0	29	17310
2026-01-13 12:17:25.42	325.66	8.10	-34.1	-47.7	3.8	1.49e+00	0	43	104	0	29	17327
2026-01-13 12:17:26.43	325.78	8.04	-34.1	-47.7	3.8	1.49e+00	0	43	104	0	29	17334
2026-01-13 12:17:27.44	325.89	7.98	-34.1	-47.7	3.8	1.49e+00	0	43	104	0	29	17314
2026-01-13 12:17:28.44	326.00	7.92	-34.1	-47.7	3.8	1.49e+00	0	43	104	0	29	17387
2026-01-13 12:17:29.45	326.11	7.87	-34.1	-47.7	3.8	1.49e+00	0	43	104	0	29	17330
2026-01-13 12:17:30.46	326.23	7.81	-34.1	-47.8	3.8	1.49e+00	0	43	104	0	29	17379
2026-01-13 12:17:31.46	326.34	7.75	-34.1	-47.7	3.8	1.49e+00	0	43	104	0	29	17312
2026-01-13 12:17:32.47	326.45	7.69	-34.1	-47.7	3.8	1.49e+00	0	43	104	0	29	17319
2026-01-13 12:17:33.47	326.56	7.63	-34.1	-47.8	3.8	1.49e+00	0	43	104	0	29	17349
2026-01-13 12:17:34.48	326.67	7.57	-34.1	-47.7	3.8	1.49e+00	0	43	104	0	29	17313
2026-01-13 12:17:35.49	326.78	7.51	-34.1	-47.7	3.8	1.49e+00	0	43	104	0	29	17309
2026-01-13 12:17:36.50	326.89	7.45	-34.1	-47.7	3.8	1.49e+00	0	43	104	0	29	17330
2026-01-13 12:17:37.51	327.00	7.39	-34.1	-47.7	3.8	1.49e+00	0	43	104	0	29	17313
2026-01-13 12:17:38.52	327.10	7.33	-34.1	-47.7	3.8	1.49e+00	0	43	104	0	29	17374
2026-01-13 12:17:39.52	327.21	7.27	-34.1	-47.7	3.8	1.49e+00	0	43	104	0	29	17319
2026-01-13 12:17:40.53	327.32	7.21	-34.1	-47.7	3.8	1.49e+00	0	43	104	0	29	17387
2026-01-13 12:17:41.54	327.43	7.15	-34.1	-47.7	3.8	1.49e+00	0	42	104	0	29	17335
2026-01-13 12:17:42.55	327.53	7.10	-34.1	-47.7	3.8	1.49e+00	0	43	104	0	29	17244
2026-01-13 12:17:43.55	327.64	7.04	-34.1	-47.7	3.8	1.49e+00	0	43	104	0	29	17295

#Closed at: 2026-01-13 12:17:44
#Recorded file [0 MB]: D:/data/31010_260113_150806.dat