passes_logs/2026/01/13/R2M6_AANII_01/R2M6_AANII_01__20260113_043243_FENGYUN_3D_rec.log

#Pass ID: 20260113_043243_FENGYUN 3D
#Satellite: FENGYUN 3D
#Configuration: FENGYUN 3D
#almurnet v.1.7.20240730
#Start time: 2026-01-13 04:32:43

#Version: 2.2.20231116
#Station: R2M6_AANII_01
#Location: 30.233357 lon 59.946436 lat
#TLE: 1 43010U 17072A   26012.32543542  .00000598  00000+0  30457-3 0  9997
#TLE: 2 43010  98.9935 344.1005 0002233 112.6136 247.5276 14.19696644422876

#Time	Az	El	Level	Level2	SNR	BER	BlckErr	Temp	State	Recorded	gain1	gain2
2026-01-13 04:32:43.02	10.46	6.97	-31.9	-38.2	4.2	8.36e-01	0	40	0	0	24	7513
2026-01-13 04:32:44.03	10.36	7.04	-31.3	-36.8	4.6	8.18e-01	0	40	104	0	22	6808
2026-01-13 04:32:45.04	10.26	7.10	-31.4	-37.1	6.1	3.46e-01	0	40	0	0	22	6910
2026-01-13 04:32:46.04	10.17	7.16	-31.3	-36.6	6.3	3.02e-01	0	39	0	5242880	22	6612
2026-01-13 04:32:47.05	10.07	7.22	-31.3	-36.6	6.4	2.92e-01	0	40	0	10485760	22	6616
2026-01-13 04:32:48.06	9.97	7.28	-31.4	-36.8	6.2	3.13e-01	0	40	0	16777216	22	6769
2026-01-13 04:32:49.06	9.87	7.35	-31.3	-36.5	6.4	2.81e-01	0	40	0	22020096	22	6554
2026-01-13 04:32:50.06	9.77	7.41	-31.3	-36.4	6.5	2.65e-01	0	40	0	28311552	22	6519
2026-01-13 04:32:51.07	9.66	7.47	-31.3	-36.6	6.4	2.33e-01	0	40	0	33554432	22	6610
2026-01-13 04:32:52.07	9.56	7.53	-31.0	-35.5	7.2	1.36e-01	0	40	0	38797312	22	6006
2026-01-13 04:32:53.08	9.46	7.59	-30.6	-34.6	8.1	6.91e-02	0	40	0	45088768	21	5691
2026-01-13 04:32:54.08	9.36	7.66	-30.1	-33.6	9.1	2.37e-02	0	40	0	50331648	20	5368
2026-01-13 04:32:55.09	9.25	7.72	-29.7	-32.9	10.1	7.65e-03	0	40	0	56623104	19	5201
2026-01-13 04:32:56.10	9.15	7.78	-29.2	-31.5	10.9	1.71e-03	0	40	0	61865984	19	4711
2026-01-13 04:32:57.11	9.05	7.84	-28.8	-31.0	11.7	5.98e-04	0	40	0	67108864	18	4635
2026-01-13 04:32:58.12	8.94	7.91	-28.3	-30.2	12.5	1.15e-04	0	40	0	73400320	17	4487
2026-01-13 04:32:59.13	8.84	7.97	-27.9	-29.8	13.0	2.40e-05	0	40	0	78643200	16	4463
2026-01-13 04:33:00.14	8.73	8.03	-27.4	-29.1	13.6	3.40e-06	0	40	0	84934656	15	4402
2026-01-13 04:33:01.14	8.62	8.09	-27.3	-28.8	13.8	3.40e-06	0	40	0	90177536	15	4306
2026-01-13 04:33:02.15	8.52	8.16	-27.2	-29.1	13.9	3.40e-06	0	40	0	95420416	14	4504
2026-01-13 04:33:03.15	8.41	8.22	-27.2	-29.3	13.8	0.00e+00	0	40	0	101711872	14	4546
2026-01-13 04:33:04.16	8.30	8.28	-27.2	-29.2	13.8	2.20e-06	0	40	0	106954752	14	4534
2026-01-13 04:33:05.17	8.19	8.35	-27.3	-29.5	13.7	5.70e-06	0	40	0	113246208	14	4615
2026-01-13 04:33:06.17	8.09	8.41	-27.2	-29.2	13.8	3.40e-06	0	40	0	118489088	14	4539
2026-01-13 04:33:07.18	7.98	8.47	-27.2	-29.3	13.8	2.20e-06	0	40	0	124780544	14	4551
2026-01-13 04:33:08.19	7.87	8.53	-27.4	-29.5	13.7	9.10e-06	0	40	0	130023424	14	4623
2026-01-13 04:33:09.18	7.76	8.60	-27.3	-29.4	13.7	4.50e-06	0	40	0	135266304	14	4587
2026-01-13 04:33:10.18	7.65	8.66	-27.2	-29.1	13.9	3.40e-06	0	40	0	141557760	14	4503
2026-01-13 04:33:11.19	7.54	8.72	-27.1	-29.0	14.0	1.10e-06	0	40	0	146800640	14	4463
2026-01-13 04:33:12.20	7.43	8.79	-27.1	-28.9	14.1	1.10e-06	0	40	0	152043520	14	4450
2026-01-13 04:33:13.20	7.32	8.85	-26.9	-28.5	14.3	0.00e+00	0	40	0	158334976	14	4333
2026-01-13 04:33:14.20	7.20	8.91	-27.0	-28.8	14.2	3.40e-06	0	40	0	163577856	14	4401
2026-01-13 04:33:15.20	7.09	8.98	-26.9	-28.5	14.3	0.00e+00	0	41	0	168820736	14	4329
2026-01-13 04:33:16.21	6.98	9.04	-26.8	-28.3	14.5	0.00e+00	0	40	0	175112192	14	4260
2026-01-13 04:33:17.21	6.87	9.10	-26.8	-28.9	14.4	1.10e-06	0	41	0	180355072	13	4535
2026-01-13 04:33:18.21	6.75	9.17	-26.9	-29.0	14.3	0.00e+00	0	40	0	186646528	13	4586
2026-01-13 04:33:19.22	6.64	9.23	-27.1	-28.9	14.1	0.00e+00	0	40	0	191889408	14	4447
2026-01-13 04:33:20.22	6.52	9.29	-27.2	-29.2	14.0	1.10e-06	0	41	0	197132288	14	4519
2026-01-13 04:33:21.23	6.41	9.36	-27.1	-28.9	14.1	2.20e-06	0	41	0	203423744	14	4438
2026-01-13 04:33:22.24	6.29	9.42	-27.0	-28.7	14.2	0.00e+00	0	41	0	208666624	14	4391
2026-01-13 04:33:23.25	6.17	9.49	-26.9	-28.6	14.3	0.00e+00	0	41	0	214958080	14	4338
2026-01-13 04:33:24.25	6.05	9.55	-27.0	-28.7	14.3	0.00e+00	0	41	0	220200960	14	4361
2026-01-13 04:33:25.26	5.94	9.61	-26.9	-28.5	14.4	0.00e+00	0	41	0	225443840	14	4331
2026-01-13 04:33:26.27	5.82	9.68	-27.0	-28.7	14.3	2.20e-06	0	41	0	231735296	14	4376
2026-01-13 04:33:27.28	5.70	9.74	-26.8	-28.3	14.5	0.00e+00	0	41	0	236978176	14	4264
2026-01-13 04:33:28.28	5.58	9.81	-26.9	-28.9	14.4	0.00e+00	0	41	0	243269632	13	4539
2026-01-13 04:33:29.29	5.46	9.87	-26.8	-28.7	14.5	0.00e+00	0	41	0	248512512	13	4489
2026-01-13 04:33:30.30	5.34	9.93	-26.7	-28.5	14.7	0.00e+00	0	41	0	253755392	13	4425
2026-01-13 04:33:31.30	5.22	10.00	-26.8	-28.7	14.6	0.00e+00	0	41	0	260046848	13	4477
2026-01-13 04:33:32.31	5.09	10.06	-26.7	-28.4	14.7	0.00e+00	0	41	0	265289728	13	4396
2026-01-13 04:33:33.32	4.97	10.13	-26.5	-28.2	14.9	0.00e+00	0	41	0	271581184	13	4331
2026-01-13 04:33:34.32	4.85	10.19	-26.5	-28.5	15.0	0.00e+00	0	41	0	276824064	12	4537
2026-01-13 04:33:35.33	4.73	10.26	-26.4	-28.3	15.1	0.00e+00	0	41	0	283115520	12	4481
2026-01-13 04:33:36.34	4.60	10.32	-26.4	-28.3	15.1	1.36e-04	0	41	0	288358400	12	4479
2026-01-13 04:33:37.34	4.48	10.39	-26.4	-28.3	15.1	0.00e+00	0	41	0	293601280	12	4490
2026-01-13 04:33:38.35	4.35	10.45	-26.4	-28.3	15.1	1.64e-03	0	41	0	299892736	12	4479
2026-01-13 04:33:39.36	4.23	10.51	-26.5	-28.0	15.0	0.00e+00	0	41	0	305135616	13	4294
2026-01-13 04:33:40.36	4.10	10.58	-26.4	-28.4	15.1	1.10e-06	0	41	0	310378496	12	4508
2026-01-13 04:33:41.36	3.97	10.64	-26.5	-28.0	15.0	0.00e+00	0	41	0	316669952	13	4291
2026-01-13 04:33:42.37	3.85	10.71	-26.5	-28.1	14.9	0.00e+00	0	41	0	321912832	13	4318
2026-01-13 04:33:43.37	3.72	10.77	-26.5	-28.1	15.0	1.67e-03	0	41	0	328204288	13	4311
2026-01-13 04:33:44.38	3.59	10.84	-26.6	-28.3	14.8	0.00e+00	0	41	0	333447168	13	4368
2026-01-13 04:33:45.38	3.46	10.90	-26.4	-27.9	15.1	1.97e-04	0	41	0	338690048	13	4261
2026-01-13 04:33:46.39	3.33	10.97	-26.4	-28.4	15.1	0.00e+00	0	41	0	344981504	12	4505
2026-01-13 04:33:47.40	3.20	11.03	-26.4	-28.4	15.1	1.71e-03	0	41	0	350224384	12	4499
2026-01-13 04:33:48.40	3.07	11.10	-26.4	-28.4	15.1	2.17e-04	0	41	0	356515840	12	4506
2026-01-13 04:33:49.40	2.94	11.16	-26.4	-28.2	15.2	1.74e-03	0	41	0	361758720	12	4468
2026-01-13 04:33:50.40	2.81	11.23	-26.4	-28.3	15.1	1.81e-03	0	41	0	367001600	12	4492
2026-01-13 04:33:51.41	2.67	11.29	-26.5	-28.1	15.0	0.00e+00	0	41	0	373293056	13	4315
2026-01-13 04:33:52.42	2.54	11.36	-26.6	-28.3	14.9	1.73e-03	0	41	0	378535936	13	4376
2026-01-13 04:33:53.42	2.41	11.42	-26.7	-28.5	14.8	1.24e-03	0	41	0	384827392	13	4416
2026-01-13 04:33:54.43	2.27	11.49	-26.5	-28.1	15.0	1.70e-04	0	41	0	390070272	13	4329
2026-01-13 04:33:55.44	2.14	11.55	-26.5	-28.0	15.0	1.57e-03	0	41	0	395313152	13	4287
2026-01-13 04:33:56.44	2.00	11.61	-26.9	-28.9	14.6	1.71e-03	0	41	0	401604608	13	4540
2026-01-13 04:33:57.45	1.86	11.68	-26.8	-28.6	14.7	1.42e-04	0	41	0	406847488	13	4460
2026-01-13 04:33:58.46	1.73	11.75	-26.5	-28.1	15.0	1.72e-03	0	41	0	412090368	13	4325
2026-01-13 04:33:59.46	1.59	11.81	-26.3	-28.2	15.2	1.60e-03	0	41	0	418381824	12	4449
2026-01-13 04:34:00.47	1.45	11.88	-26.3	-28.1	15.3	1.60e-04	0	41	0	423624704	12	4422
2026-01-13 04:34:01.48	1.31	11.94	-26.3	-28.0	15.4	1.60e-03	0	41	0	429916160	12	4402
2026-01-13 04:34:02.49	1.17	12.01	-26.2	-27.8	15.4	1.53e-03	0	41	0	435159040	12	4340
2026-01-13 04:34:03.49	1.03	12.07	-26.3	-28.0	15.3	1.23e-04	0	41	0	441450496	12	4409
2026-01-13 04:34:04.50	0.89	12.14	-26.4	-28.2	15.2	1.46e-03	0	41	0	446693376	12	4456
2026-01-13 04:34:05.51	0.75	12.20	-26.4	-28.4	15.1	0.00e+00	0	41	0	451936256	12	4507
2026-01-13 04:34:06.52	0.61	12.27	-26.5	-28.1	15.0	1.65e-04	0	41	0	458227712	13	4324
2026-01-13 04:34:07.52	0.46	12.33	-26.4	-28.2	15.2	0.00e+00	0	41	0	463470592	12	4464
2026-01-13 04:34:08.53	0.32	12.40	-26.3	-28.2	15.3	1.59e-03	0	41	0	469762048	12	4439
2026-01-13 04:34:09.53	0.18	12.46	-26.4	-28.3	15.2	0.00e+00	0	41	0	475004928	12	4482
2026-01-13 04:34:10.54	0.03	12.53	-26.4	-28.3	15.2	0.00e+00	0	41	0	480247808	12	4471
2026-01-13 04:34:11.54	359.89	12.59	-26.4	-28.3	15.2	0.00e+00	0	41	0	486539264	12	4492
2026-01-13 04:34:12.55	359.74	12.66	-26.4	-28.3	15.2	0.00e+00	0	41	0	491782144	12	4468
2026-01-13 04:34:13.56	359.59	12.72	-26.6	-28.2	15.0	1.50e-03	0	41	0	497025024	13	4329
2026-01-13 04:34:14.56	359.45	12.79	-26.8	-28.8	14.6	0.00e+00	0	41	0	503316480	13	4505
2026-01-13 04:34:15.57	359.30	12.85	-26.8	-28.6	14.8	2.10e-04	0	41	0	508559360	13	4452
2026-01-13 04:34:16.58	359.15	12.92	-26.5	-28.0	15.1	0.00e+00	0	41	0	514850816	13	4280
2026-01-13 04:34:17.58	359.00	12.98	-26.3	-28.1	15.3	0.00e+00	0	41	0	520093696	12	4429
2026-01-13 04:34:18.59	358.85	13.05	-26.3	-28.1	15.3	0.00e+00	0	41	0	526385152	12	4431
2026-01-13 04:34:19.59	358.70	13.11	-26.4	-28.4	15.2	0.00e+00	0	41	0	531628032	12	4498
2026-01-13 04:34:20.60	358.55	13.18	-26.3	-27.6	15.3	0.00e+00	0	41	0	536870912	13	4168
2026-01-13 04:34:21.61	358.40	13.24	-26.0	-27.3	15.8	0.00e+00	0	41	0	543162368	12	4214
2026-01-13 04:34:22.62	358.24	13.31	-25.8	-26.9	16.0	0.00e+00	0	41	0	548405248	12	4094
2026-01-13 04:34:23.62	358.09	13.37	-25.9	-27.7	15.9	0.00e+00	0	41	0	553648128	11	4414
2026-01-13 04:34:24.63	357.93	13.43	-25.9	-27.2	15.9	0.00e+00	0	41	0	559939584	12	4183
2026-01-13 04:34:25.63	357.78	13.50	-25.9	-27.3	15.8	0.00e+00	0	42	0	565182464	12	4190
2026-01-13 04:34:26.64	357.62	13.56	-25.9	-27.1	15.9	0.00e+00	0	41	0	571473920	12	4153
2026-01-13 04:34:27.65	357.47	13.63	-25.6	-26.6	16.2	0.00e+00	0	42	0	576716800	12	4016
2026-01-13 04:34:28.65	357.31	13.69	-25.6	-27.0	16.3	0.00e+00	0	41	0	581959680	11	4243
2026-01-13 04:34:29.65	357.16	13.76	-25.7	-27.2	16.2	0.00e+00	0	42	0	588251136	11	4292
2026-01-13 04:34:30.65	357.00	13.82	-25.7	-27.2	16.3	0.00e+00	0	42	0	593494016	11	4270
2026-01-13 04:34:31.66	356.84	13.89	-25.7	-27.2	16.2	0.00e+00	0	42	0	599785472	11	4297
2026-01-13 04:34:32.66	356.68	13.95	-25.9	-27.6	16.0	0.00e+00	0	41	0	605028352	11	4395
2026-01-13 04:34:33.66	356.52	14.01	-25.8	-26.9	16.0	0.00e+00	0	42	0	610271232	12	4092
2026-01-13 04:34:34.66	356.36	14.08	-25.7	-27.2	16.2	0.00e+00	0	41	0	616562688	11	4281
2026-01-13 04:34:35.66	356.20	14.14	-25.7	-27.2	16.2	0.00e+00	0	42	0	621805568	11	4297
2026-01-13 04:34:36.67	356.04	14.21	-25.8	-27.5	16.1	0.00e+00	0	42	0	627048448	11	4356
2026-01-13 04:34:37.68	355.87	14.27	-25.9	-27.6	16.0	0.00e+00	0	42	0	633339904	11	4406
2026-01-13 04:34:38.68	355.71	14.33	-25.8	-27.4	16.1	0.00e+00	0	42	0	638582784	11	4338
2026-01-13 04:34:39.69	355.54	14.40	-25.8	-27.5	16.1	0.00e+00	0	42	0	644874240	11	4355
2026-01-13 04:34:40.70	355.38	14.46	-25.7	-27.2	16.2	0.00e+00	0	42	0	650117120	11	4288
2026-01-13 04:34:41.70	355.21	14.53	-25.7	-27.2	16.2	0.00e+00	0	42	0	655360000	11	4282
2026-01-13 04:34:42.71	355.04	14.59	-25.8	-27.4	16.1	0.00e+00	0	42	0	661651456	11	4341
2026-01-13 04:34:43.71	354.88	14.65	-25.8	-27.5	16.1	0.00e+00	0	42	0	666894336	11	4352
2026-01-13 04:34:44.72	354.71	14.72	-25.9	-27.7	15.9	0.00e+00	0	42	0	673185792	11	4429
2026-01-13 04:34:45.73	354.54	14.78	-25.8	-27.0	16.0	0.00e+00	0	42	0	678428672	12	4124
2026-01-13 04:34:46.73	354.37	14.84	-25.8	-27.4	16.2	0.00e+00	0	42	0	684720128	11	4329
2026-01-13 04:34:47.73	354.20	14.91	-25.8	-27.5	16.1	0.00e+00	0	42	0	689963008	11	4360
2026-01-13 04:34:48.74	354.03	14.97	-25.7	-27.3	16.2	1.10e-06	0	42	0	695205888	11	4310
2026-01-13 04:34:49.75	353.86	15.03	-25.6	-27.1	16.3	0.00e+00	0	42	0	701497344	11	4249
2026-01-13 04:34:50.75	353.68	15.10	-25.6	-27.1	16.3	0.00e+00	0	42	0	706740224	11	4248
2026-01-13 04:34:51.76	353.51	15.16	-25.5	-26.8	16.5	0.00e+00	0	42	0	711983104	11	4167
2026-01-13 04:34:52.76	353.34	15.22	-25.4	-26.6	16.6	0.00e+00	0	42	0	718274560	11	4123
2026-01-13 04:34:53.77	353.16	15.28	-25.4	-26.6	16.6	0.00e+00	0	42	0	723517440	11	4112
2026-01-13 04:34:54.78	352.98	15.35	-25.3	-26.8	14.3	0.00e+00	0	42	0	729808896	10	4285
2026-01-13 04:34:55.79	352.81	15.41	-25.2	-26.6	13.9	0.00e+00	0	42	0	735051776	10	4242
2026-01-13 04:34:56.79	352.63	15.47	-25.2	-26.7	16.8	0.00e+00	0	42	0	740294656	10	4256
2026-01-13 04:34:57.79	352.45	15.53	-25.3	-26.8	16.7	0.00e+00	0	42	0	746586112	10	4285
2026-01-13 04:34:58.80	352.27	15.60	-25.5	-27.2	16.6	0.00e+00	0	42	0	751828992	10	4390
2026-01-13 04:34:59.81	352.09	15.66	-25.4	-27.1	16.6	0.00e+00	0	42	0	758120448	10	4376
2026-01-13 04:35:00.82	351.91	15.72	-25.4	-27.1	16.6	2.05e-05	0	42	0	763363328	10	4377
2026-01-13 04:35:01.82	351.73	15.78	-25.6	-27.0	16.4	0.00e+00	0	42	0	769654784	11	4230
2026-01-13 04:35:02.83	351.55	15.84	-25.8	-27.3	16.3	2.20e-06	0	42	0	774897664	11	4316
2026-01-13 04:35:03.84	351.37	15.90	-25.8	-27.4	16.3	0.00e+00	0	42	0	780140544	11	4332
2026-01-13 04:35:04.84	351.19	15.97	-25.7	-27.2	16.3	7.72e-04	0	42	0	786432000	11	4270
2026-01-13 04:35:05.85	351.00	16.03	-25.5	-26.7	16.6	0.00e+00	0	42	0	791674880	11	4152
2026-01-13 04:35:06.85	350.82	16.09	-25.4	-26.5	16.7	0.00e+00	0	42	0	796917760	11	4091
2026-01-13 04:35:07.86	350.63	16.15	-25.4	-26.5	16.7	8.64e-04	0	42	0	803209216	11	4090
2026-01-13 04:35:08.87	350.44	16.21	-25.3	-26.4	16.8	0.00e+00	0	42	0	808452096	11	4072
2026-01-13 04:35:09.87	350.26	16.27	-25.3	-26.9	16.8	1.15e-03	0	42	0	813694976	10	4300
2026-01-13 04:35:10.88	350.07	16.33	-25.2	-26.6	16.9	0.00e+00	0	42	0	819986432	10	4238
2026-01-13 04:35:11.88	349.88	16.39	-25.1	-26.5	17.0	1.27e-04	0	42	0	825229312	10	4205
2026-01-13 04:35:12.89	349.69	16.45	-25.2	-26.6	16.9	1.13e-03	0	42	0	831520768	10	4241
2026-01-13 04:35:13.89	349.50	16.51	-25.1	-26.3	17.1	1.04e-03	0	42	0	836763648	10	4155
2026-01-13 04:35:14.90	349.31	16.57	-25.0	-26.1	17.2	1.34e-04	0	42	0	843055104	10	4116
2026-01-13 04:35:15.90	349.12	16.63	-25.0	-26.3	17.1	0.00e+00	0	42	0	848297984	10	4150
2026-01-13 04:35:16.90	348.93	16.69	-25.0	-26.2	17.1	8.47e-04	0	42	0	853540864	10	4134
2026-01-13 04:35:17.91	348.73	16.75	-25.0	-26.2	17.1	0.00e+00	0	42	0	859832320	10	4133
2026-01-13 04:35:18.92	348.54	16.81	-25.2	-26.6	17.0	3.95e-04	0	42	0	865075200	10	4222
2026-01-13 04:35:19.92	348.34	16.87	-25.1	-26.3	17.1	3.47e-04	0	42	0	870318080	10	4152
2026-01-13 04:35:20.92	348.15	16.92	-25.0	-26.2	17.1	0.00e+00	0	42	0	876609536	10	4140
2026-01-13 04:35:21.93	347.95	16.98	-25.1	-26.3	17.1	2.96e-04	0	42	0	881852416	10	4167
2026-01-13 04:35:22.93	347.76	17.04	-25.1	-26.5	17.0	3.00e-04	0	42	0	888143872	10	4196
2026-01-13 04:35:23.94	347.56	17.10	-25.2	-26.5	17.0	0.00e+00	0	42	0	893386752	10	4217
2026-01-13 04:35:24.94	347.36	17.16	-25.1	-26.4	17.1	0.00e+00	0	42	0	898629632	10	4179
2026-01-13 04:35:25.95	347.16	17.21	-25.0	-26.1	17.2	2.32e-04	0	42	0	904921088	10	4118
2026-01-13 04:35:26.96	346.96	17.27	-25.0	-26.1	17.2	0.00e+00	0	42	0	910163968	10	4109
2026-01-13 04:35:27.96	346.76	17.33	-25.0	-26.3	17.1	3.29e-04	0	42	0	916455424	10	4151
2026-01-13 04:35:28.97	346.56	17.38	-24.8	-26.2	17.4	3.51e-04	0	42	0	921698304	9	4236
2026-01-13 04:35:29.98	346.35	17.44	-24.7	-25.9	17.5	0.00e+00	0	42	0	927989760	9	4175
2026-01-13 04:35:30.98	346.15	17.50	-24.8	-26.2	17.4	7.45e-04	0	42	0	933232640	9	4244
2026-01-13 04:35:31.98	345.95	17.55	-24.8	-26.2	17.4	0.00e+00	0	42	0	938475520	9	4254
2026-01-13 04:35:32.98	345.74	17.61	-25.2	-26.5	17.0	0.00e+00	0	42	0	944766976	10	4214
2026-01-13 04:35:33.99	345.54	17.66	-25.0	-26.2	17.1	0.00e+00	0	42	0	950009856	10	4140
2026-01-13 04:35:34.99	345.33	17.72	-25.0	-26.2	17.2	1.22e-03	0	42	0	955252736	10	4125
2026-01-13 04:35:36.00	345.12	17.77	-25.0	-26.1	17.2	0.00e+00	0	42	0	961544192	10	4114
2026-01-13 04:35:37.01	344.92	17.83	-24.7	-25.7	17.4	0.00e+00	0	42	0	966787072	10	3995
2026-01-13 04:35:38.02	344.71	17.88	-24.7	-26.0	17.6	1.34e-03	0	42	0	973078528	9	4188
2026-01-13 04:35:39.03	344.50	17.94	-24.7	-26.0	17.5	0.00e+00	0	42	0	978321408	9	4189
2026-01-13 04:35:40.02	344.29	17.99	-24.7	-26.1	17.4	1.24e-03	0	42	0	984612864	9	4218
2026-01-13 04:35:41.03	344.08	18.05	-24.6	-25.9	17.6	0.00e+00	0	42	0	989855744	9	4166
2026-01-13 04:35:42.03	343.87	18.10	-24.7	-26.0	17.5	0.00e+00	0	42	0	995098624	9	4180
2026-01-13 04:35:43.04	343.65	18.15	-24.6	-25.9	17.6	0.00e+00	0	42	0	1001390080	9	4160
2026-01-13 04:35:44.04	343.44	18.20	-24.9	-26.4	17.3	0.00e+00	0	42	0	1006632960	9	4298
2026-01-13 04:35:45.05	343.23	18.26	-24.5	-25.6	17.7	0.00e+00	0	42	0	1011875840	9	4094
2026-01-13 04:35:46.05	343.01	18.31	-24.4	-25.3	17.9	0.00e+00	0	42	0	1018167296	9	4011
2026-01-13 04:35:47.06	342.80	18.36	-24.3	-25.6	18.0	3.73e-04	0	41	0	1023410176	8	4215
2026-01-13 04:35:48.07	342.58	18.41	-24.2	-25.5	18.1	0.00e+00	0	42	0	1028653056	8	4169
2026-01-13 04:35:49.07	342.36	18.46	-24.3	-25.7	18.0	0.00e+00	0	42	0	1034944512	8	4226
2026-01-13 04:35:50.07	342.15	18.51	-24.3	-25.6	18.0	0.00e+00	0	42	0	1040187392	8	4204
2026-01-13 04:35:51.07	341.93	18.56	-24.4	-25.9	17.9	0.00e+00	0	42	0	1046478848	8	4272
2026-01-13 04:35:52.08	341.71	18.62	-24.6	-25.9	17.6	0.00e+00	0	42	0	1051721728	9	4167
2026-01-13 04:35:53.08	341.49	18.66	-24.9	-26.5	17.3	0.00e+00	0	42	0	1058013184	9	4314
2026-01-13 04:35:54.09	341.27	18.71	-24.6	-25.8	17.7	0.00e+00	0	42	0	1063256064	9	4136
2026-01-13 04:35:55.10	341.05	18.76	-24.3	-25.2	18.0	0.00e+00	0	42	0	1068498944	9	3985
2026-01-13 04:35:56.10	340.82	18.81	-24.2	-25.5	18.1	0.00e+00	0	42	0	1074790400	8	4166
2026-01-13 04:35:57.11	340.60	18.86	-24.4	-25.8	17.9	0.00e+00	0	42	0	1080033280	8	4266
2026-01-13 04:35:58.12	340.38	18.91	-24.4	-25.9	17.9	0.00e+00	0	42	0	1085276160	8	4267
2026-01-13 04:35:59.12	340.15	18.96	-24.7	-26.1	17.5	0.00e+00	0	42	0	1091567616	9	4207
2026-01-13 04:36:00.13	339.93	19.01	-24.8	-26.3	17.4	0.00e+00	0	42	0	1096810496	9	4279
2026-01-13 04:36:01.14	339.70	19.05	-24.4	-25.5	17.8	0.00e+00	0	42	0	1103101952	9	4056
2026-01-13 04:36:02.15	339.47	19.10	-24.2	-24.9	18.2	0.00e+00	0	42	0	1108344832	9	3905
2026-01-13 04:36:03.15	339.25	19.15	-24.1	-24.7	18.3	0.00e+00	0	42	0	1113587712	9	3859
2026-01-13 04:36:04.16	339.02	19.19	-24.1	-25.2	18.2	0.00e+00	0	42	0	1119879168	8	4107
2026-01-13 04:36:05.16	338.79	19.24	-24.2	-25.4	18.1	0.00e+00	0	42	0	1125122048	8	4151
2026-01-13 04:36:06.17	338.56	19.28	-24.3	-25.8	17.9	0.00e+00	0	42	0	1131413504	8	4246
2026-01-13 04:36:07.18	338.33	19.33	-24.1	-25.2	18.2	0.00e+00	0	42	0	1136656384	8	4109
2026-01-13 04:36:08.19	338.10	19.37	-24.0	-25.0	18.3	0.00e+00	0	42	0	1142947840	8	4047
2026-01-13 04:36:09.20	337.87	19.42	-24.0	-25.1	18.3	0.00e+00	0	42	0	1148190720	8	4064
2026-01-13 04:36:10.21	337.63	19.46	-24.1	-25.3	18.2	0.00e+00	0	42	0	1153433600	8	4135
2026-01-13 04:36:11.22	337.40	19.50	-24.0	-25.2	18.3	0.00e+00	0	42	0	1159725056	8	4089
2026-01-13 04:36:12.22	337.17	19.55	-24.2	-25.4	18.1	0.00e+00	0	42	0	1164967936	8	4153
2026-01-13 04:36:13.23	336.93	19.59	-24.3	-25.7	18.0	0.00e+00	0	42	0	1171259392	8	4233
2026-01-13 04:36:14.23	336.70	19.63	-24.2	-25.6	18.1	0.00e+00	0	42	0	1176502272	8	4195
2026-01-13 04:36:15.23	336.46	19.67	-24.2	-25.6	18.1	0.00e+00	0	42	0	1181745152	8	4191
2026-01-13 04:36:16.23	336.23	19.71	-24.2	-25.5	18.1	0.00e+00	0	42	0	1188036608	8	4185
2026-01-13 04:36:17.24	335.99	19.75	-24.3	-25.8	17.9	0.00e+00	0	42	0	1193279488	8	4245
2026-01-13 04:36:18.24	335.76	19.79	-24.2	-25.4	18.1	0.00e+00	0	42	0	1198522368	8	4140
2026-01-13 04:36:19.25	335.52	19.83	-24.1	-25.3	18.2	0.00e+00	0	42	0	1204813824	8	4126
2026-01-13 04:36:20.25	335.28	19.87	-24.2	-25.5	18.1	0.00e+00	0	42	0	1210056704	8	4173
2026-01-13 04:36:21.25	335.04	19.91	-24.2	-25.4	18.2	1.10e-06	0	42	0	1216348160	8	4149
2026-01-13 04:36:22.26	334.80	19.95	-24.2	-25.6	18.1	1.10e-06	0	42	0	1221591040	8	4188
2026-01-13 04:36:23.27	334.56	19.99	-24.2	-25.4	18.2	0.00e+00	0	42	0	1227882496	8	4140
2026-01-13 04:36:24.28	334.32	20.02	-24.2	-25.5	18.1	0.00e+00	0	42	0	1233125376	8	4177
2026-01-13 04:36:25.28	334.08	20.06	-24.1	-25.4	18.2	1.10e-06	0	42	0	1238368256	8	4140
2026-01-13 04:36:26.29	333.84	20.10	-24.1	-25.2	18.2	0.00e+00	0	42	0	1244659712	8	4098
2026-01-13 04:36:27.30	333.59	20.13	-24.0	-25.0	18.4	1.30e-03	0	42	0	1249902592	8	4056
2026-01-13 04:36:28.30	333.35	20.17	-23.8	-24.7	18.5	0.00e+00	0	42	0	1255145472	8	3988
2026-01-13 04:36:29.31	333.11	20.20	-23.8	-24.7	18.5	0.00e+00	0	42	0	1261436928	8	3974
2026-01-13 04:36:30.31	332.86	20.24	-23.8	-25.1	18.6	0.00e+00	0	42	0	1266679808	7	4177
2026-01-13 04:36:31.32	332.62	20.27	-23.6	-24.8	18.7	0.00e+00	0	42	0	1271922688	7	4111
2026-01-13 04:36:32.33	332.37	20.30	-23.7	-24.8	18.7	0.00e+00	0	42	0	1278214144	7	4116
2026-01-13 04:36:33.34	332.12	20.34	-23.7	-24.9	18.7	0.00e+00	0	42	0	1283457024	7	4134
2026-01-13 04:36:34.34	331.88	20.37	-23.8	-25.1	18.5	1.15e-03	0	42	0	1289748480	7	4188
2026-01-13 04:36:35.34	331.63	20.40	-23.7	-24.9	18.7	0.00e+00	0	42	0	1294991360	7	4123
2026-01-13 04:36:36.34	331.39	20.43	-23.6	-24.8	18.7	1.12e-03	0	42	0	1301282816	7	4104
2026-01-13 04:36:37.36	331.13	20.46	-23.6	-24.8	18.7	0.00e+00	0	42	0	1306525696	7	4105
2026-01-13 04:36:38.36	330.89	20.49	-23.6	-24.7	18.7	0.00e+00	0	42	0	1311768576	7	4098
2026-01-13 04:36:39.36	330.64	20.52	-23.7	-25.0	18.6	1.18e-03	0	42	0	1318060032	7	4156
2026-01-13 04:36:40.37	330.39	20.55	-23.5	-24.4	18.9	1.22e-03	0	42	0	1323302912	7	4021
2026-01-13 04:36:41.38	330.14	20.58	-23.4	-24.2	19.0	0.00e+00	0	42	0	1329594368	7	3961
2026-01-13 04:36:42.39	329.89	20.61	-23.3	-24.2	19.0	0.00e+00	0	42	0	1334837248	7	3955
2026-01-13 04:36:43.39	329.64	20.64	-23.4	-24.2	19.0	1.08e-03	0	42	0	1340080128	7	3971
2026-01-13 04:36:44.39	329.39	20.66	-23.3	-24.1	19.0	0.00e+00	0	42	0	1346371584	7	3944
2026-01-13 04:36:45.40	329.13	20.69	-23.5	-24.4	18.9	1.14e-03	0	42	0	1351614464	7	4021
2026-01-13 04:36:46.40	328.88	20.71	-23.5	-24.4	18.9	1.30e-03	0	42	0	1356857344	7	4020
2026-01-13 04:36:47.41	328.63	20.74	-23.4	-24.2	19.0	0.00e+00	0	42	0	1363148800	7	3959
2026-01-13 04:36:48.42	328.37	20.77	-23.4	-24.3	19.0	1.31e-03	0	42	0	1368391680	7	3987
2026-01-13 04:36:49.43	328.12	20.79	-23.5	-24.5	18.9	0.00e+00	0	42	0	1374683136	7	4027
2026-01-13 04:36:50.43	327.87	20.81	-23.5	-24.5	18.8	0.00e+00	0	42	0	1379926016	7	4035
2026-01-13 04:36:51.44	327.61	20.84	-23.5	-24.5	18.8	0.00e+00	0	42	0	1386217472	7	4030
2026-01-13 04:36:52.45	327.36	20.86	-23.5	-24.5	18.9	1.10e-03	0	42	0	1391460352	7	4030
2026-01-13 04:36:53.45	327.10	20.88	-23.5	-24.5	18.8	0.00e+00	0	42	0	1396703232	7	4044
2026-01-13 04:36:54.46	326.85	20.90	-23.6	-24.6	18.8	1.12e-03	0	42	0	1402994688	7	4069
2026-01-13 04:36:55.47	326.59	20.92	-23.7	-24.9	18.7	1.25e-03	0	42	0	1408237568	7	4130
2026-01-13 04:36:56.48	326.33	20.94	-23.8	-25.1	18.6	0.00e+00	0	42	0	1414529024	7	4182
2026-01-13 04:36:57.48	326.08	20.96	-23.8	-25.2	18.5	1.21e-03	0	42	0	1419771904	7	4201
2026-01-13 04:36:58.48	325.82	20.98	-23.8	-25.0	18.6	0.00e+00	0	42	0	1425014784	7	4167
2026-01-13 04:36:59.48	325.57	21.00	-23.7	-24.9	18.7	4.57e-05	0	42	0	1431306240	7	4129
2026-01-13 04:37:00.49	325.31	21.02	-23.6	-24.7	18.8	0.00e+00	0	42	0	1436549120	7	4085
2026-01-13 04:37:01.50	325.05	21.03	-23.5	-24.5	18.9	0.00e+00	0	42	0	1441792000	7	4041
2026-01-13 04:37:02.51	324.79	21.05	-23.6	-24.7	18.8	1.33e-04	0	42	0	1448083456	7	4088
2026-01-13 04:37:03.51	324.53	21.07	-23.6	-24.7	18.7	0.00e+00	0	42	0	1453326336	7	4093
2026-01-13 04:37:04.52	324.27	21.08	-23.6	-24.8	18.7	1.00e-03	0	42	0	1459617792	7	4104
2026-01-13 04:37:05.53	324.01	21.10	-23.6	-24.7	18.8	0.00e+00	0	42	0	1464860672	7	4090
2026-01-13 04:37:06.54	323.75	21.11	-23.5	-24.4	18.9	0.00e+00	0	42	0	1471152128	7	4024
2026-01-13 04:37:07.55	323.49	21.12	-23.5	-24.5	18.9	0.00e+00	0	42	0	1476395008	7	4032
2026-01-13 04:37:08.55	323.23	21.14	-23.5	-24.5	18.9	0.00e+00	0	42	0	1481637888	7	4033
2026-01-13 04:37:09.56	322.97	21.15	-23.5	-24.5	18.9	0.00e+00	0	42	0	1487929344	7	4033
2026-01-13 04:37:10.56	322.71	21.16	-23.5	-24.4	18.9	0.00e+00	0	42	0	1493172224	7	4014
2026-01-13 04:37:11.56	322.46	21.17	-23.4	-24.3	19.0	0.00e+00	0	42	0	1498415104	7	3978
2026-01-13 04:37:12.57	322.19	21.18	-23.4	-24.3	19.0	0.00e+00	0	42	0	1504706560	7	3990
2026-01-13 04:37:13.57	321.94	21.19	-23.4	-24.2	19.0	0.00e+00	0	42	0	1509949440	7	3959
2026-01-13 04:37:14.58	321.67	21.20	-23.3	-24.6	19.0	0.00e+00	0	42	0	1516240896	6	4185
2026-01-13 04:37:15.58	321.41	21.21	-23.3	-24.5	19.1	0.00e+00	0	42	0	1521483776	6	4151
2026-01-13 04:37:16.58	321.15	21.22	-23.4	-24.7	19.0	0.00e+00	0	42	0	1526726656	6	4203
2026-01-13 04:37:17.58	320.89	21.22	-23.4	-24.9	18.9	0.00e+00	0	42	0	1533018112	6	4247
2026-01-13 04:37:18.59	320.63	21.23	-23.6	-24.6	18.8	0.00e+00	0	42	0	1538260992	7	4071
2026-01-13 04:37:19.60	320.37	21.24	-23.8	-25.0	18.6	0.00e+00	0	42	0	1544552448	7	4168
2026-01-13 04:37:20.60	320.11	21.24	-23.7	-25.0	18.6	0.00e+00	0	42	0	1549795328	7	4152
2026-01-13 04:37:21.61	319.85	21.25	-23.7	-24.8	18.7	0.00e+00	0	42	0	1555038208	7	4121
2026-01-13 04:37:22.62	319.58	21.25	-23.7	-24.9	18.7	0.00e+00	0	42	0	1561329664	7	4140
2026-01-13 04:37:23.63	319.32	21.26	-23.8	-25.1	18.6	0.00e+00	0	42	0	1566572544	7	4178
2026-01-13 04:37:24.64	319.06	21.26	-23.8	-25.1	18.6	0.00e+00	0	42	0	1572864000	7	4185
2026-01-13 04:37:25.65	318.80	21.26	-23.7	-25.0	18.7	0.00e+00	0	42	0	1578106880	7	4156
2026-01-13 04:37:26.66	318.53	21.26	-23.7	-24.9	18.7	0.00e+00	0	42	0	1583349760	7	4136
2026-01-13 04:37:27.67	318.27	21.26	-23.8	-25.1	18.6	0.00e+00	0	42	0	1589641216	7	4186
2026-01-13 04:37:28.67	318.01	21.26	-23.6	-24.8	18.8	0.00e+00	0	42	0	1594884096	7	4100
2026-01-13 04:37:29.68	317.75	21.26	-23.4	-24.3	19.0	0.00e+00	0	42	0	1601175552	7	3988
2026-01-13 04:37:30.68	317.49	21.26	-23.4	-24.2	19.0	0.00e+00	0	42	0	1606418432	7	3961
2026-01-13 04:37:31.69	317.22	21.26	-23.3	-24.2	19.0	0.00e+00	0	42	0	1611661312	7	3958
2026-01-13 04:37:32.69	316.96	21.26	-23.4	-24.7	19.1	0.00e+00	0	42	0	1617952768	6	4193
2026-01-13 04:37:33.70	316.70	21.25	-23.4	-24.8	19.0	0.00e+00	0	42	0	1623195648	6	4231
2026-01-13 04:37:34.71	316.44	21.25	-23.4	-24.2	19.0	0.00e+00	0	42	0	1629487104	7	3957
2026-01-13 04:37:35.71	316.18	21.25	-23.4	-24.7	19.0	0.00e+00	0	42	0	1634729984	6	4191
2026-01-13 04:37:36.72	315.91	21.24	-23.4	-24.9	18.9	0.00e+00	0	42	0	1639972864	6	4241
2026-01-13 04:37:37.71	315.66	21.24	-23.5	-24.9	18.9	0.00e+00	0	42	0	1646264320	6	4266
2026-01-13 04:37:38.72	315.39	21.23	-23.5	-24.6	18.9	0.00e+00	0	42	0	1651507200	7	4055
2026-01-13 04:37:39.72	315.13	21.22	-23.8	-25.0	18.6	0.00e+00	0	42	0	1657798656	7	4172
2026-01-13 04:37:40.73	314.87	21.22	-23.7	-24.9	18.7	0.00e+00	0	42	0	1663041536	7	4132
2026-01-13 04:37:41.74	314.61	21.21	-23.0	-24.0	15.9	0.00e+00	0	42	0	1668284416	7	4022
2026-01-13 04:37:42.75	314.35	21.20	-23.6	-24.7	13.0	0.00e+00	0	42	0	1674575872	7	4083
2026-01-13 04:37:43.75	314.09	21.19	-23.8	-25.0	17.8	0.00e+00	0	42	0	1679818752	7	4164
2026-01-13 04:37:44.76	313.83	21.18	-23.8	-25.1	18.1	1.47e-03	0	42	0	1685061632	7	4183
2026-01-13 04:37:45.76	313.57	21.17	-24.0	-25.4	18.4	0.00e+00	0	42	0	1691353088	7	4273
2026-01-13 04:37:46.77	313.31	21.16	-24.0	-25.5	18.3	0.00e+00	0	42	0	1696595968	7	4287
2026-01-13 04:37:47.78	313.04	21.15	-24.1	-25.4	18.2	0.00e+00	0	42	0	1702887424	8	4137
2026-01-13 04:37:48.79	312.78	21.14	-24.4	-25.9	17.9	0.00e+00	0	42	0	1708130304	8	4283
2026-01-13 04:37:49.79	312.52	21.12	-24.2	-25.4	18.2	0.00e+00	0	42	0	1714421760	8	4143
2026-01-13 04:37:50.80	312.26	21.11	-23.8	-24.6	18.6	0.00e+00	0	42	0	1719664640	8	3952
2026-01-13 04:37:51.81	312.00	21.10	-23.6	-24.8	18.7	1.24e-03	0	42	0	1724907520	7	4100
2026-01-13 04:37:52.81	311.75	21.08	-23.8	-25.2	18.5	0.00e+00	0	42	0	1731198976	7	4204
2026-01-13 04:37:53.82	311.49	21.07	-23.7	-24.8	18.7	1.41e-03	0	42	0	1736441856	7	4121
2026-01-13 04:37:54.82	311.23	21.05	-23.5	-24.5	18.9	0.00e+00	0	42	0	1741684736	7	4043
2026-01-13 04:37:55.83	310.97	21.03	-23.5	-24.4	18.9	0.00e+00	0	42	0	1747976192	7	4023
2026-01-13 04:37:56.84	310.71	21.02	-23.6	-24.7	18.8	1.33e-03	0	42	0	1753219072	7	4090
2026-01-13 04:37:57.84	310.45	21.00	-23.7	-24.8	18.8	1.42e-03	0	42	0	1759510528	7	4110
2026-01-13 04:37:58.85	310.20	20.98	-23.7	-25.0	18.7	0.00e+00	0	42	0	1764753408	7	4151
2026-01-13 04:37:59.85	309.94	20.96	-23.7	-24.8	18.7	0.00e+00	0	42	0	1769996288	7	4116
2026-01-13 04:38:00.87	309.68	20.94	-23.6	-24.7	18.8	1.34e-03	0	42	0	1776287744	7	4081
2026-01-13 04:38:01.87	309.42	20.92	-23.5	-24.6	18.9	0.00e+00	0	42	0	1781530624	7	4056
2026-01-13 04:38:02.88	309.17	20.90	-23.6	-24.6	18.8	1.22e-03	0	42	0	1787822080	7	4064
2026-01-13 04:38:03.89	308.91	20.88	-23.7	-24.8	18.7	9.62e-04	0	42	0	1793064960	7	4117
2026-01-13 04:38:04.88	308.66	20.86	-23.5	-24.5	18.9	0.00e+00	0	42	0	1799356416	7	4039
2026-01-13 04:38:05.88	308.41	20.83	-23.6	-24.7	18.8	8.88e-04	0	42	0	1804599296	7	4074
2026-01-13 04:38:06.88	308.15	20.81	-23.7	-24.9	18.7	0.00e+00	0	42	0	1809842176	7	4149
2026-01-13 04:38:07.89	307.90	20.79	-23.5	-24.6	18.9	0.00e+00	0	42	0	1816133632	7	4050
2026-01-13 04:38:08.90	307.64	20.76	-23.4	-24.3	19.0	1.39e-03	0	42	0	1821376512	7	3986
2026-01-13 04:38:09.90	307.39	20.74	-23.5	-24.5	18.9	1.31e-03	0	42	0	1826619392	7	4039
2026-01-13 04:38:10.90	307.14	20.71	-23.5	-24.5	18.9	0.00e+00	0	42	0	1832910848	7	4034
2026-01-13 04:38:11.91	306.88	20.69	-23.7	-24.9	18.7	1.20e-03	0	42	0	1838153728	7	4137
2026-01-13 04:38:12.91	306.63	20.66	-23.5	-24.5	18.9	1.03e-03	0	42	0	1843396608	7	4048
2026-01-13 04:38:13.91	306.38	20.63	-23.4	-24.3	19.0	0.00e+00	0	42	0	1849688064	7	3985
2026-01-13 04:38:14.91	306.13	20.61	-23.4	-24.2	19.0	7.47e-04	0	42	0	1854930944	7	3973
2026-01-13 04:38:15.91	305.88	20.58	-23.5	-24.4	18.9	6.84e-04	0	42	0	1861222400	7	4012
2026-01-13 04:38:16.92	305.63	20.55	-23.4	-24.4	18.9	0.00e+00	0	42	0	1866465280	7	4007
2026-01-13 04:38:17.92	305.38	20.52	-23.5	-24.4	18.9	7.09e-04	0	42	0	1871708160	7	4011
2026-01-13 04:38:18.93	305.13	20.49	-23.5	-24.6	18.8	0.00e+00	0	42	0	1877999616	7	4056
2026-01-13 04:38:19.93	304.89	20.46	-23.6	-24.7	18.8	0.00e+00	0	42	0	1883242496	7	4080
2026-01-13 04:38:20.94	304.64	20.43	-23.7	-24.8	18.7	0.00e+00	0	42	0	1889533952	7	4111
2026-01-13 04:38:21.94	304.39	20.40	-23.8	-25.1	18.6	3.56e-04	0	42	0	1894776832	7	4175
2026-01-13 04:38:22.94	304.14	20.37	-23.8	-25.1	18.6	0.00e+00	0	42	0	1900019712	7	4177
2026-01-13 04:38:23.94	303.90	20.33	-23.8	-25.1	18.6	0.00e+00	0	42	0	1906311168	7	4177
2026-01-13 04:38:24.94	303.65	20.30	-23.9	-25.3	18.5	0.00e+00	0	42	0	1911554048	7	4227
2026-01-13 04:38:25.95	303.41	20.27	-23.5	-24.4	18.9	0.00e+00	0	42	0	1916796928	7	4002
2026-01-13 04:38:26.96	303.16	20.23	-23.3	-24.0	19.1	7.45e-04	0	42	0	1923088384	7	3909
2026-01-13 04:38:27.97	302.91	20.20	-23.3	-24.0	19.1	0.00e+00	0	42	0	1928331264	7	3923
2026-01-13 04:38:28.97	302.67	20.16	-23.5	-24.4	18.9	5.72e-05	0	42	0	1934622720	7	4025
2026-01-13 04:38:29.98	302.43	20.13	-23.5	-24.5	18.8	0.00e+00	0	42	0	1939865600	7	4031
2026-01-13 04:38:30.98	302.18	20.09	-23.5	-24.6	18.8	0.00e+00	0	42	0	1946157056	7	4055
2026-01-13 04:38:31.98	301.94	20.06	-23.6	-24.6	18.8	0.00e+00	0	42	0	1951399936	7	4065
2026-01-13 04:38:32.99	301.70	20.02	-23.6	-24.6	18.8	0.00e+00	0	42	0	1956642816	7	4060
2026-01-13 04:38:34.00	301.46	19.98	-23.6	-24.8	18.7	0.00e+00	0	42	0	1962934272	7	4105
2026-01-13 04:38:35.00	301.22	19.95	-23.6	-24.7	18.7	0.00e+00	0	42	0	1968177152	7	4092
2026-01-13 04:38:36.01	300.98	19.91	-23.9	-25.2	18.5	0.00e+00	0	42	0	1973420032	7	4223
2026-01-13 04:38:37.01	300.74	19.87	-24.1	-25.3	18.2	0.00e+00	0	42	0	1979711488	8	4126
2026-01-13 04:38:38.02	300.50	19.83	-24.3	-25.7	18.0	0.00e+00	0	42	0	1984954368	8	4233
2026-01-13 04:38:39.02	300.26	19.79	-24.2	-25.4	18.1	0.00e+00	0	42	0	1991245824	8	4157
2026-01-13 04:38:40.03	300.02	19.75	-24.0	-25.1	18.3	0.00e+00	0	42	0	1996488704	8	4067
2026-01-13 04:38:41.04	299.79	19.71	-23.9	-24.9	18.4	0.00e+00	0	42	0	2001731584	8	4038
2026-01-13 04:38:42.05	299.55	19.67	-24.1	-25.2	18.2	0.00e+00	0	42	0	2008023040	8	4084
2026-01-13 04:38:43.06	299.31	19.63	-23.9	-24.8	18.4	0.00e+00	0	42	0	2013265920	8	4012
2026-01-13 04:38:44.06	299.08	19.58	-24.1	-25.2	18.2	0.00e+00	0	42	0	2019557376	8	4095
2026-01-13 04:38:45.06	298.84	19.54	-23.7	-24.4	18.6	0.00e+00	0	42	0	2024800256	8	3906
2026-01-13 04:38:46.06	298.61	19.50	-23.5	-24.5	18.8	0.00e+00	0	42	0	2030043136	7	4039
2026-01-13 04:38:47.06	298.38	19.46	-23.7	-24.9	18.6	0.00e+00	0	42	0	2036334592	7	4132
2026-01-13 04:38:48.06	298.15	19.41	-23.7	-24.9	18.6	0.00e+00	0	42	0	2041577472	7	4131
2026-01-13 04:38:49.06	297.92	19.37	-23.8	-25.1	18.5	0.00e+00	0	42	0	2046820352	7	4185
2026-01-13 04:38:50.07	297.69	19.32	-23.8	-25.2	18.5	0.00e+00	0	42	0	2053111808	7	4207
2026-01-13 04:38:51.07	297.46	19.28	-23.8	-25.1	18.5	0.00e+00	0	42	0	2058354688	7	4183
2026-01-13 04:38:52.08	297.22	19.23	-23.8	-25.2	18.4	0.00e+00	0	42	0	2064646144	7	4210
2026-01-13 04:38:53.08	297.00	19.19	-23.9	-25.4	18.3	0.00e+00	0	42	0	2069889024	7	4261
2026-01-13 04:38:54.09	296.77	19.14	-23.9	-25.3	18.4	0.00e+00	0	42	0	2075131904	7	4229
2026-01-13 04:38:55.09	296.54	19.10	-23.9	-25.3	18.4	0.00e+00	0	42	0	2081423360	7	4243
2026-01-13 04:38:56.10	296.31	19.05	-24.2	-25.5	18.0	0.00e+00	0	42	0	2086666240	8	4169
2026-01-13 04:38:57.10	296.09	19.00	-24.5	-25.7	17.7	0.00e+00	0	42	0	2092957696	9	4121
2026-01-13 04:38:58.10	295.86	18.95	-24.2	-25.1	18.0	0.00e+00	0	42	0	2098200576	9	3961
2026-01-13 04:38:59.11	295.64	18.91	-24.0	-24.6	18.2	0.00e+00	0	42	0	2103443456	9	3849
2026-01-13 04:39:00.12	295.41	18.86	-24.0	-25.0	18.3	0.00e+00	0	42	0	2109734912	8	4040
2026-01-13 04:39:01.12	295.19	18.81	-24.1	-25.4	18.1	0.00e+00	0	42	0	2114977792	8	4142
2026-01-13 04:39:02.13	294.97	18.76	-24.1	-25.4	18.1	0.00e+00	0	42	0	2121269248	8	4143
2026-01-13 04:39:03.13	294.75	18.71	-24.1	-25.4	18.1	0.00e+00	0	42	0	2126512128	8	4142
2026-01-13 04:39:04.14	294.52	18.66	-24.2	-25.5	18.0	0.00e+00	0	42	0	2131755008	8	4167
2026-01-13 04:39:05.15	294.30	18.61	-24.3	-25.7	17.9	0.00e+00	0	42	0	2138046464	8	4221
2026-01-13 04:39:06.15	294.08	18.56	-24.1	-25.4	18.1	0.00e+00	0	42	0	2143289344	8	4140
2026-01-13 04:39:07.16	293.86	18.51	-24.2	-25.4	18.0	0.00e+00	0	42	0	2148532224	8	4150
2026-01-13 04:39:08.17	293.64	18.46	-24.2	-25.4	17.2	0.00e+00	0	42	0	2154823680	8	4149
2026-01-13 04:39:09.18	293.42	18.41	-24.2	-25.5	18.0	0.00e+00	0	42	0	2160066560	8	4184
2026-01-13 04:39:10.19	293.21	18.36	-24.4	-25.9	17.8	0.00e+00	0	42	0	2166358016	8	4276
2026-01-13 04:39:11.20	292.99	18.30	-24.2	-25.4	18.0	0.00e+00	0	42	0	2171600896	8	4161
2026-01-13 04:39:12.20	292.77	18.25	-24.1	-25.3	18.1	0.00e+00	0	42	0	2177892352	8	4134
2026-01-13 04:39:13.21	292.56	18.20	-24.2	-25.4	18.0	0.00e+00	0	42	0	2183135232	8	4160
2026-01-13 04:39:14.21	292.35	18.15	-24.2	-25.6	18.0	1.55e-03	0	42	0	2188378112	8	4190
2026-01-13 04:39:15.22	292.13	18.09	-24.4	-25.8	17.8	0.00e+00	0	42	0	2194669568	8	4259
2026-01-13 04:39:16.22	291.92	18.04	-24.3	-25.8	17.8	0.00e+00	0	42	0	2199912448	8	4242
2026-01-13 04:39:17.23	291.71	17.98	-24.4	-26.0	17.7	0.00e+00	0	42	0	2206203904	8	4298
2026-01-13 04:39:18.24	291.50	17.93	-24.7	-26.1	17.4	1.28e-03	0	42	0	2211446784	9	4226
2026-01-13 04:39:19.24	291.29	17.88	-25.0	-26.2	17.1	1.48e-05	0	42	0	2216689664	10	4145
2026-01-13 04:39:20.25	291.08	17.82	-24.6	-25.9	17.5	0.00e+00	0	42	0	2222981120	9	4174
2026-01-13 04:39:21.26	290.87	17.77	-24.7	-25.9	17.5	1.48e-03	0	42	0	2228224000	9	4179
2026-01-13 04:39:22.26	290.66	17.71	-24.7	-26.1	17.4	0.00e+00	0	42	0	2233466880	9	4219
2026-01-13 04:39:23.27	290.45	17.66	-24.6	-25.9	17.5	1.57e-03	0	42	0	2239758336	9	4166
2026-01-13 04:39:24.27	290.25	17.60	-24.7	-26.0	17.4	6.60e-04	0	42	0	2245001216	9	4199
2026-01-13 04:39:25.28	290.04	17.54	-24.7	-26.1	17.3	3.43e-04	0	42	0	2251292672	9	4228
2026-01-13 04:39:26.28	289.84	17.49	-24.6	-25.8	17.5	1.58e-03	0	42	0	2256535552	9	4137
2026-01-13 04:39:27.28	289.63	17.43	-24.6	-25.9	17.5	1.64e-03	0	42	0	2262827008	9	4176
2026-01-13 04:39:28.29	289.43	17.38	-24.7	-26.0	17.4	2.96e-04	0	42	0	2268069888	9	4209
2026-01-13 04:39:29.30	289.23	17.32	-24.5	-25.7	17.6	0.00e+00	0	42	0	2273312768	9	4124
2026-01-13 04:39:30.30	289.03	17.26	-24.5	-25.5	17.6	1.59e-03	0	42	0	2279604224	9	4076
2026-01-13 04:39:31.31	288.82	17.20	-24.5	-25.5	17.7	2.79e-04	0	42	0	2284847104	9	4068
2026-01-13 04:39:32.32	288.62	17.15	-24.5	-25.7	17.6	1.68e-03	0	42	0	2291138560	9	4111
2026-01-13 04:39:33.33	288.42	17.09	-24.3	-25.3	17.8	1.45e-03	0	42	0	2296381440	9	4005
2026-01-13 04:39:34.33	288.23	17.03	-24.3	-25.8	17.8	4.13e-04	0	42	0	2301624320	8	4252
2026-01-13 04:39:35.34	288.03	16.97	-24.4	-25.9	17.7	1.49e-03	0	42	0	2307915776	8	4267
2026-01-13 04:39:36.34	287.83	16.91	-24.5	-26.1	17.6	0.00e+00	0	42	0	2313158656	8	4329
2026-01-13 04:39:37.34	287.63	16.85	-24.5	-25.7	17.6	3.22e-04	0	42	0	2318401536	9	4106
2026-01-13 04:39:38.35	287.44	16.80	-24.5	-25.6	17.6	0.00e+00	0	42	0	2324692992	9	4093
2026-01-13 04:39:39.35	287.24	16.74	-24.5	-25.7	17.6	1.53e-03	0	42	0	2329935872	9	4116
2026-01-13 04:39:40.35	287.05	16.68	-24.4	-25.5	17.7	3.25e-04	0	42	0	2336227328	9	4063
2026-01-13 04:39:41.36	286.86	16.62	-24.5	-25.5	17.6	2.60e-04	0	42	0	2341470208	9	4071
2026-01-13 04:39:42.37	286.66	16.56	-24.5	-25.7	17.5	1.58e-03	0	42	0	2346713088	9	4126
2026-01-13 04:39:43.38	286.47	16.50	-24.6	-25.9	17.4	0.00e+00	0	42	0	2353004544	9	4177
2026-01-13 04:39:44.39	286.28	16.44	-24.6	-25.9	17.4	1.50e-03	0	42	0	2358247424	9	4176
2026-01-13 04:39:45.39	286.09	16.38	-24.5	-25.6	17.6	0.00e+00	0	42	0	2364538880	9	4095
2026-01-13 04:39:46.40	285.90	16.32	-24.5	-25.7	17.5	3.12e-04	0	42	0	2369781760	9	4123
2026-01-13 04:39:47.40	285.71	16.26	-24.6	-25.9	17.5	0.00e+00	0	42	0	2375024640	9	4165
2026-01-13 04:39:48.41	285.52	16.20	-24.7	-26.0	17.4	0.00e+00	0	42	0	2381316096	9	4183
2026-01-13 04:39:49.41	285.34	16.14	-24.7	-26.1	17.3	2.10e-04	0	42	0	2386558976	9	4231
2026-01-13 04:39:50.42	285.15	16.07	-24.8	-26.2	17.3	0.00e+00	0	42	0	2391801856	9	4244
2026-01-13 04:39:51.43	284.96	16.01	-24.7	-26.1	17.3	0.00e+00	0	42	0	2398093312	9	4225
2026-01-13 04:39:52.43	284.78	15.95	-24.6	-25.8	17.4	0.00e+00	0	42	0	2403336192	9	4152
2026-01-13 04:39:53.44	284.60	15.89	-24.5	-25.6	17.6	0.00e+00	0	42	0	2409627648	9	4081
2026-01-13 04:39:54.45	284.41	15.83	-24.6	-25.7	17.5	0.00e+00	0	42	0	2414870528	9	4128
2026-01-13 04:39:55.46	284.23	15.77	-24.7	-26.1	17.3	0.00e+00	0	42	0	2421161984	9	4205
2026-01-13 04:39:56.46	284.05	15.70	-24.7	-26.1	17.3	0.00e+00	0	42	0	2426404864	9	4218
2026-01-13 04:39:57.47	283.87	15.64	-24.8	-26.3	17.2	0.00e+00	0	42	0	2432696320	9	4271
2026-01-13 04:39:58.48	283.68	15.58	-24.8	-26.3	17.2	0.00e+00	0	42	0	2437939200	9	4277
2026-01-13 04:39:59.48	283.51	15.52	-24.9	-26.5	17.1	0.00e+00	0	42	0	2443182080	9	4321
2026-01-13 04:40:00.49	283.33	15.46	-24.8	-26.3	17.2	0.00e+00	0	42	0	2449473536	9	4267
2026-01-13 04:40:01.50	283.15	15.39	-24.6	-25.8	17.4	0.00e+00	0	42	0	2454716416	9	4153
2026-01-13 04:40:02.51	282.97	15.33	-24.5	-25.6	17.5	0.00e+00	0	42	0	2459959296	9	4098
2026-01-13 04:40:03.51	282.79	15.27	-24.6	-25.9	17.4	0.00e+00	0	42	0	2466250752	9	4161
2026-01-13 04:40:04.52	282.62	15.20	-24.8	-26.2	17.2	0.00e+00	0	42	0	2471493632	9	4247
2026-01-13 04:40:05.53	282.44	15.14	-24.8	-26.4	17.1	0.00e+00	0	42	0	2477785088	9	4304
2026-01-13 04:40:06.54	282.27	15.08	-24.8	-26.4	17.1	0.00e+00	0	42	0	2483027968	9	4307
2026-01-13 04:40:07.53	282.10	15.01	-24.8	-26.2	17.2	0.00e+00	0	42	0	2488270848	9	4262
2026-01-13 04:40:08.54	281.92	14.95	-24.8	-26.2	17.2	0.00e+00	0	42	0	2494562304	9	4253
2026-01-13 04:40:09.55	281.75	14.89	-24.7	-26.1	17.3	0.00e+00	0	42	0	2499805184	9	4217
2026-01-13 04:40:10.56	281.58	14.82	-24.7	-26.0	17.3	0.00e+00	0	42	0	2506096640	9	4183
2026-01-13 04:40:11.55	281.41	14.76	-24.7	-26.1	17.2	0.00e+00	0	42	0	2511339520	9	4233
2026-01-13 04:40:12.55	281.24	14.70	-24.9	-26.5	17.0	0.00e+00	0	42	0	2516582400	9	4331
2026-01-13 04:40:13.56	281.07	14.63	-25.0	-26.2	16.9	0.00e+00	0	42	0	2522873856	10	4147
2026-01-13 04:40:14.56	280.90	14.57	-25.1	-26.4	16.8	0.00e+00	0	42	0	2528116736	10	4202
2026-01-13 04:40:15.57	280.74	14.51	-25.2	-26.6	16.7	0.00e+00	0	42	0	2533359616	10	4233
2026-01-13 04:40:16.57	280.57	14.44	-25.1	-26.5	16.8	0.00e+00	0	42	0	2539651072	10	4225
2026-01-13 04:40:17.58	280.40	14.38	-25.2	-26.7	16.7	0.00e+00	0	42	0	2544893952	10	4269
2026-01-13 04:40:18.59	280.24	14.31	-25.2	-26.6	16.7	0.00e+00	0	42	0	2551185408	10	4242
2026-01-13 04:40:19.59	280.07	14.25	-25.3	-26.8	16.6	0.00e+00	0	42	0	2556428288	10	4287
2026-01-13 04:40:20.60	279.91	14.19	-25.3	-26.8	16.6	0.00e+00	0	42	0	2561671168	10	4290
2026-01-13 04:40:21.60	279.75	14.12	-25.1	-26.5	16.7	0.00e+00	0	42	0	2567962624	10	4213
2026-01-13 04:40:22.61	279.58	14.06	-25.1	-26.5	16.7	0.00e+00	0	42	0	2573205504	10	4218
2026-01-13 04:40:23.62	279.42	13.99	-25.2	-26.6	16.7	0.00e+00	0	42	0	2579496960	10	4243
2026-01-13 04:40:24.62	279.26	13.93	-25.2	-26.7	16.6	0.00e+00	0	42	0	2584739840	10	4275
2026-01-13 04:40:25.63	279.10	13.86	-25.3	-26.8	16.6	0.00e+00	0	42	0	2591031296	10	4299
2026-01-13 04:40:26.63	278.94	13.80	-25.2	-26.7	16.6	0.00e+00	0	42	0	2596274176	10	4258
2026-01-13 04:40:27.64	278.78	13.73	-25.1	-26.5	16.7	0.00e+00	0	42	0	2601517056	10	4214
2026-01-13 04:40:28.64	278.62	13.67	-25.2	-26.6	16.6	0.00e+00	0	42	0	2607808512	10	4238
2026-01-13 04:40:29.65	278.46	13.60	-25.2	-26.7	16.6	0.00e+00	0	42	0	2613051392	10	4267
2026-01-13 04:40:30.65	278.31	13.54	-25.3	-26.8	16.5	0.00e+00	0	42	0	2618294272	10	4311
2026-01-13 04:40:31.66	278.15	13.48	-24.5	-25.9	16.3	0.00e+00	0	42	0	2624585728	10	4237
2026-01-13 04:40:32.66	278.00	13.41	-25.5	-27.2	12.4	0.00e+00	0	42	0	2629828608	10	4421
2026-01-13 04:40:33.67	277.84	13.35	-25.8	-27.4	15.4	0.00e+00	0	42	0	2635071488	11	4340
2026-01-13 04:40:34.68	277.69	13.28	-25.7	-27.2	16.0	0.00e+00	0	42	0	2641362944	11	4293
2026-01-13 04:40:35.68	277.53	13.22	-25.4	-26.6	16.3	0.00e+00	0	42	0	2646605824	11	4144
2026-01-13 04:40:36.69	277.38	13.15	-25.3	-26.9	16.5	0.00e+00	0	42	0	2652897280	10	4326
2026-01-13 04:40:37.69	277.23	13.09	-25.4	-27.1	16.4	0.00e+00	0	42	0	2658140160	10	4372
2026-01-13 04:40:38.70	277.08	13.02	-25.5	-26.8	16.2	2.36e-03	0	42	0	2664431616	11	4198
2026-01-13 04:40:39.71	276.93	12.96	-25.7	-27.2	16.0	0.00e+00	0	42	0	2669674496	11	4289
2026-01-13 04:40:40.71	276.78	12.89	-25.7	-27.1	16.0	2.28e-03	0	42	0	2674917376	11	4275
2026-01-13 04:40:41.72	276.63	12.83	-25.6	-27.0	16.1	0.00e+00	0	42	0	2681208832	11	4235
2026-01-13 04:40:42.73	276.48	12.76	-25.7	-27.2	16.0	3.50e-04	0	42	0	2686451712	11	4279
2026-01-13 04:40:43.74	276.33	12.69	-25.6	-27.1	16.1	1.63e-03	0	42	0	2692743168	11	4259
2026-01-13 04:40:44.75	276.18	12.63	-25.7	-27.3	16.0	1.29e-03	0	42	0	2697986048	11	4303
2026-01-13 04:40:45.76	276.03	12.56	-25.6	-27.1	16.0	1.25e-05	0	42	0	2703228928	11	4274
2026-01-13 04:40:46.77	275.89	12.50	-25.6	-27.0	16.1	0.00e+00	0	42	0	2709520384	11	4231
2026-01-13 04:40:47.77	275.74	12.43	-25.6	-27.0	16.1	1.52e-03	0	42	0	2714763264	11	4224
2026-01-13 04:40:48.78	275.60	12.37	-25.6	-27.0	16.1	0.00e+00	0	42	0	2721054720	11	4231
2026-01-13 04:40:49.79	275.45	12.30	-25.6	-27.1	16.1	1.76e-03	0	42	0	2726297600	11	4257
2026-01-13 04:40:50.79	275.31	12.24	-25.7	-27.2	16.0	1.80e-03	0	42	0	2731540480	11	4295
2026-01-13 04:40:51.80	275.16	12.17	-25.6	-27.0	16.1	2.76e-04	0	42	0	2737831936	11	4245
2026-01-13 04:40:52.80	275.02	12.11	-25.5	-26.9	16.2	1.68e-03	0	42	0	2743074816	11	4204
2026-01-13 04:40:53.80	274.88	12.04	-25.6	-27.1	16.1	1.51e-03	0	42	0	2749366272	11	4260
2026-01-13 04:40:54.81	274.74	11.98	-25.6	-27.0	16.1	3.11e-04	0	42	0	2754609152	11	4233
2026-01-13 04:40:55.81	274.60	11.91	-25.6	-27.0	16.1	1.31e-03	0	42	0	2759852032	11	4241
2026-01-13 04:40:56.82	274.46	11.85	-25.6	-27.1	16.0	1.24e-03	0	42	0	2766143488	11	4257
2026-01-13 04:40:57.83	274.32	11.78	-25.7	-27.2	16.0	1.50e-04	0	42	0	2771386368	11	4285
2026-01-13 04:40:58.84	274.18	11.72	-25.8	-27.4	15.8	1.06e-03	0	42	0	2777677824	11	4360
2026-01-13 04:40:59.84	274.05	11.65	-25.8	-27.4	15.9	1.21e-03	0	42	0	2782920704	11	4344
2026-01-13 04:41:00.85	273.91	11.59	-25.9	-27.7	15.7	0.00e+00	0	42	0	2788163584	11	4426
2026-01-13 04:41:01.86	273.77	11.52	-25.9	-27.7	15.6	1.37e-03	0	42	0	2794455040	11	4443
2026-01-13 04:41:02.86	273.64	11.45	-25.9	-27.7	15.7	0.00e+00	0	42	0	2799697920	11	4424
2026-01-13 04:41:03.87	273.50	11.39	-26.0	-27.9	15.5	6.63e-05	0	42	0	2805989376	11	4496
2026-01-13 04:41:04.87	273.37	11.32	-25.9	-27.6	15.7	0.00e+00	0	42	0	2811232256	11	4413
2026-01-13 04:41:05.88	273.23	11.26	-25.9	-27.6	15.7	1.02e-03	0	42	0	2816475136	11	4413
2026-01-13 04:41:06.89	273.10	11.19	-25.9	-27.3	15.5	0.00e+00	0	42	0	2822766592	12	4220
2026-01-13 04:41:07.89	272.96	11.13	-25.9	-27.8	15.6	0.00e+00	0	42	0	2828009472	11	4464
2026-01-13 04:41:08.89	272.83	11.06	-25.9	-27.8	15.6	1.65e-03	0	42	0	2834300928	11	4452
2026-01-13 04:41:09.89	272.70	11.00	-26.0	-27.9	15.5	0.00e+00	0	42	0	2839543808	11	4489
2026-01-13 04:41:10.90	272.57	10.93	-26.0	-27.4	15.4	1.45e-03	0	42	0	2844786688	12	4248
2026-01-13 04:41:11.90	272.44	10.87	-26.3	-28.0	15.1	0.00e+00	0	42	0	2851078144	12	4417
2026-01-13 04:41:12.91	272.31	10.81	-26.1	-27.7	15.3	0.00e+00	0	42	0	2856321024	12	4310
2026-01-13 04:41:13.91	272.18	10.74	-25.9	-27.2	15.5	0.00e+00	0	42	0	2861563904	12	4201
2026-01-13 04:41:14.92	272.05	10.68	-25.9	-27.2	15.6	0.00e+00	0	42	0	2867855360	12	4175
2026-01-13 04:41:15.93	271.92	10.61	-26.0	-27.4	15.4	0.00e+00	0	42	0	2873098240	12	4254
2026-01-13 04:41:16.93	271.80	10.55	-26.1	-27.7	15.3	0.00e+00	0	42	0	2879389696	12	4327
2026-01-13 04:41:17.94	271.67	10.48	-26.0	-27.6	15.3	0.00e+00	0	42	0	2884632576	12	4290
2026-01-13 04:41:18.95	271.54	10.42	-26.0	-27.4	15.4	0.00e+00	0	42	0	2889875456	12	4259
2026-01-13 04:41:19.95	271.42	10.35	-26.0	-27.4	15.4	0.00e+00	0	42	0	2896166912	12	4253
2026-01-13 04:41:20.96	271.29	10.29	-26.0	-27.5	15.4	0.00e+00	0	42	0	2901409792	12	4274
2026-01-13 04:41:21.97	271.17	10.22	-26.0	-27.5	15.4	0.00e+00	0	42	0	2907701248	12	4265
2026-01-13 04:41:22.97	271.04	10.16	-25.9	-27.3	15.5	0.00e+00	0	42	0	2912944128	12	4207
2026-01-13 04:41:23.98	270.92	10.09	-26.1	-27.7	15.2	0.00e+00	0	42	0	2919235584	12	4335
2026-01-13 04:41:24.99	270.79	10.03	-26.0	-27.5	15.3	1.10e-06	0	42	0	2924478464	12	4285
2026-01-13 04:41:25.99	270.67	9.96	-26.2	-27.9	15.1	0.00e+00	0	42	0	2929721344	12	4370
2026-01-13 04:41:27.00	270.55	9.90	-26.1	-27.8	15.2	0.00e+00	0	42	0	2936012800	12	4341
2026-01-13 04:41:28.00	270.43	9.84	-26.3	-28.0	15.0	0.00e+00	0	42	0	2941255680	12	4422
2026-01-13 04:41:29.00	270.31	9.77	-26.2	-28.0	15.0	0.00e+00	0	42	0	2946498560	12	4414
2026-01-13 04:41:30.01	270.19	9.71	-26.3	-28.1	15.0	0.00e+00	0	42	0	2952790016	12	4431
2026-01-13 04:41:31.02	270.07	9.64	-26.2	-27.9	15.0	0.00e+00	0	42	0	2958032896	12	4387
2026-01-13 04:41:32.03	269.95	9.58	-26.3	-28.2	14.9	0.00e+00	0	42	0	2964324352	12	4460
2026-01-13 04:41:33.03	269.83	9.51	-26.2	-28.0	15.0	0.00e+00	0	42	0	2969567232	12	4401
2026-01-13 04:41:34.04	269.71	9.45	-26.3	-28.1	14.9	1.10e-06	0	42	0	2974810112	12	4439
2026-01-13 04:41:35.04	269.59	9.39	-26.4	-28.3	14.8	0.00e+00	0	42	0	2981101568	12	4496
2026-01-13 04:41:36.05	269.48	9.32	-26.4	-28.4	14.7	0.00e+00	0	42	0	2986344448	12	4530
2026-01-13 04:41:37.06	269.36	9.26	-26.4	-28.4	14.8	0.00e+00	0	42	0	2992635904	12	4516
2026-01-13 04:41:38.06	269.24	9.19	-26.4	-28.3	14.8	0.00e+00	0	42	0	2997878784	12	4494
2026-01-13 04:41:39.07	269.13	9.13	-26.5	-28.1	14.6	0.00e+00	0	42	0	3003121664	13	4338
2026-01-13 04:41:40.07	269.01	9.07	-26.5	-28.2	14.5	0.00e+00	0	42	0	3009413120	13	4362
2026-01-13 04:41:41.08	268.90	9.00	-26.6	-28.3	14.5	0.00e+00	0	42	0	3014656000	13	4394
2026-01-13 04:41:42.08	268.78	8.94	-26.5	-28.2	14.5	0.00e+00	0	42	0	3020947456	13	4378
2026-01-13 04:41:43.09	268.67	8.87	-26.7	-28.7	14.2	4.50e-06	0	42	0	3026190336	13	4503
2026-01-13 04:41:44.10	268.56	8.81	-26.6	-28.3	14.5	0.00e+00	0	42	0	3031433216	13	4378
2026-01-13 04:41:45.10	268.44	8.75	-26.5	-28.1	14.5	0.00e+00	0	42	0	3037724672	13	4344
2026-01-13 04:41:46.11	268.33	8.68	-26.6	-28.3	14.4	3.40e-06	0	42	0	3042967552	13	4387
2026-01-13 04:41:47.11	268.22	8.62	-26.8	-28.8	14.1	0.00e+00	0	42	0	3048210432	13	4531
2026-01-13 04:41:48.12	268.11	8.56	-26.6	-28.4	14.4	0.00e+00	0	42	0	3054501888	13	4420
2026-01-13 04:41:49.12	268.00	8.49	-26.1	-27.7	13.5	0.00e+00	0	42	0	3059744768	13	4320
2026-01-13 04:41:50.12	267.89	8.43	-25.7	-27.1	11.9	0.00e+00	0	42	0	3066036224	13	4226
2026-01-13 04:41:51.13	267.78	8.37	-26.6	-28.8	12.2	0.00e+00	0	42	0	3071279104	12	4676
2026-01-13 04:41:52.14	267.67	8.30	-26.6	-28.9	11.4	1.10e-06	0	42	0	3077570560	12	4706
2026-01-13 04:41:53.14	267.56	8.24	-26.6	-28.9	12.2	0.00e+00	0	42	0	3082813440	12	4676
2026-01-13 04:41:54.15	267.45	8.18	-26.7	-28.6	14.2	0.00e+00	0	42	0	3088056320	13	4493
2026-01-13 04:41:55.16	267.35	8.12	-26.6	-28.5	14.1	0.00e+00	0	42	0	3094347776	13	4448
2026-01-13 04:41:56.17	267.24	8.05	-26.7	-28.5	14.2	1.08e-03	0	42	0	3099590656	13	4455
2026-01-13 04:41:57.17	267.13	7.99	-26.6	-28.4	14.3	1.10e-06	0	42	0	3105882112	13	4420
2026-01-13 04:41:58.17	267.03	7.93	-26.6	-28.5	14.3	3.07e-03	0	42	0	3111124992	13	4448
2026-01-13 04:41:59.18	266.92	7.86	-26.8	-28.8	14.1	1.10e-06	0	42	0	3116367872	13	4534
2026-01-13 04:42:00.19	266.81	7.80	-26.6	-28.3	14.3	6.63e-04	0	42	0	3122659328	13	4397
2026-01-13 04:42:01.20	266.71	7.74	-26.6	-28.4	14.3	0.00e+00	0	42	0	3127902208	13	4412
2026-01-13 04:42:02.20	266.61	7.68	-26.6	-28.3	14.3	0.00e+00	0	42	0	3134193664	13	4404
2026-01-13 04:42:03.21	266.50	7.61	-26.6	-28.4	14.3	9.49e-05	0	42	0	3139436544	13	4426
2026-01-13 04:42:04.22	266.40	7.55	-26.7	-28.7	14.1	0.00e+00	0	42	0	3144679424	13	4513
2026-01-13 04:42:05.23	266.29	7.49	-26.7	-28.7	14.1	9.23e-04	0	42	0	3150970880	13	4505
2026-01-13 04:42:06.23	266.19	7.43	-26.8	-28.9	14.0	1.10e-06	0	42	0	3156213760	13	4570
2026-01-13 04:42:07.24	266.09	7.36	-27.0	-28.8	13.7	1.32e-03	0	42	0	3162505216	14	4437
2026-01-13 04:42:08.24	265.99	7.30	-26.9	-28.6	13.9	1.46e-03	0	42	0	3167748096	14	4368
2026-01-13 04:42:09.25	265.89	7.24	-26.8	-28.9	13.9	3.50e-04	0	42	0	3172990976	13	4584
2026-01-13 04:42:10.26	265.78	7.18	-26.8	-28.9	13.9	2.03e-03	0	42	0	3179282432	13	4578
2026-01-13 04:42:11.27	265.68	7.12	-26.9	-29.1	13.8	3.40e-06	0	42	0	3184525312	13	4628
2026-01-13 04:42:12.27	265.58	7.05	-27.8	-30.1	12.8	3.02e-04	0	42	0	3189768192	15	4726
2026-01-13 04:42:13.27	265.49	6.99	-33.0	-44.5	3.8	8.47e-01	0	42	104	3190816768	25	13572

#Closed at: 2026-01-13 04:42:14
#Recorded file [3190 MB]: D:/data/31010_260113_073244.dat