passes_logs/2026/01/13/R2M6_AANII_01/R2M6_AANII_01__20260113_001221_SUOMI_NPP_rec.log

#Pass ID: 20260113_001221_SUOMI NPP
#Satellite: SUOMI NPP
#Configuration: NPP
#almurnet v.1.7.20240730
#Start time: 2026-01-13 00:12:22

#Version: 2.2.20231116
#Station: R2M6_AANII_01
#Location: 30.233357 lon 59.946436 lat
#TLE: 1 37849U 11061A   26012.28456845  .00000093  00000+0  65163-4 0  9999
#TLE: 2 37849  98.7807 314.3566 0002508  68.3553 291.7890 14.19524725736322

#Time	Az	El	Level	Level2	SNR	BER	BlckErr	Temp	State	Recorded	gain1	gain2
2026-01-13 00:12:22.41	19.34	7.10	-31.5	-37.3	4.6	1.36e+00	0	39	0	0	23	6998
2026-01-13 00:12:23.41	19.35	7.17	-31.5	-37.5	4.6	1.39e+00	0	39	104	0	23	7119
2026-01-13 00:12:24.42	19.37	7.25	-31.5	-37.3	6.3	3.00e-01	0	39	0	0	23	6965
2026-01-13 00:12:25.42	19.38	7.33	-31.6	-37.4	6.3	2.93e-01	0	40	0	1048576	23	7023
2026-01-13 00:12:26.43	19.40	7.41	-31.4	-36.7	6.8	2.19e-01	0	40	0	3145728	23	6554
2026-01-13 00:12:27.42	19.41	7.48	-31.5	-37.1	6.5	2.20e-01	0	40	0	5242880	23	6826
2026-01-13 00:12:28.42	19.43	7.56	-31.5	-36.8	6.8	1.80e-01	0	40	0	7340032	23	6611
2026-01-13 00:12:29.43	19.45	7.64	-31.6	-37.2	6.5	2.27e-01	0	40	0	9437184	23	6864
2026-01-13 00:12:30.43	19.46	7.72	-31.6	-37.2	6.5	2.09e-01	0	40	0	10485760	23	6880
2026-01-13 00:12:31.44	19.48	7.80	-31.6	-37.5	6.3	2.71e-01	0	40	0	12582912	23	7086
2026-01-13 00:12:32.44	19.50	7.88	-31.4	-36.3	7.1	1.82e-01	0	40	0	14680064	23	6288
2026-01-13 00:12:33.44	19.51	7.96	-31.1	-35.3	8.3	7.13e-02	0	40	0	16777216	22	5829
2026-01-13 00:12:34.45	19.53	8.04	-30.9	-34.9	8.9	4.06e-02	0	40	0	17825792	21	5752
2026-01-13 00:12:35.46	19.55	8.12	-30.7	-34.1	9.6	1.49e-02	0	40	0	19922944	21	5369
2026-01-13 00:12:36.47	19.56	8.20	-30.4	-33.3	10.2	8.06e-03	0	40	0	22020096	21	5009
2026-01-13 00:12:37.47	19.58	8.28	-30.3	-33.3	10.5	4.89e-03	0	40	0	24117248	20	5099
2026-01-13 00:12:38.47	19.60	8.36	-30.0	-32.3	11.3	1.61e-03	0	40	0	26214400	20	4696
2026-01-13 00:12:39.46	19.61	8.44	-29.8	-31.9	11.6	8.57e-04	0	40	0	28311552	20	4553
2026-01-13 00:12:40.47	19.63	8.52	-29.9	-32.1	11.5	9.24e-04	0	40	0	29360128	20	4622
2026-01-13 00:12:41.48	19.65	8.60	-30.0	-32.3	11.3	8.61e-04	0	40	0	31457280	20	4719
2026-01-13 00:12:42.49	19.66	8.69	-29.9	-32.2	11.4	1.17e-03	0	40	0	33554432	20	4669
2026-01-13 00:12:43.49	19.68	8.77	-29.9	-32.0	11.6	7.03e-04	0	40	0	35651584	20	4599
2026-01-13 00:12:44.50	19.70	8.85	-29.9	-32.4	11.7	6.83e-04	0	40	0	36700160	19	4813
2026-01-13 00:12:45.50	19.71	8.93	-30.0	-32.2	11.4	7.41e-04	0	40	0	38797312	20	4661
2026-01-13 00:12:46.51	19.73	9.02	-29.9	-32.6	11.6	6.60e-04	0	40	0	40894464	19	4895
2026-01-13 00:12:47.52	19.75	9.10	-30.0	-32.7	11.6	5.38e-04	0	40	0	42991616	19	4912
2026-01-13 00:12:48.52	19.77	9.18	-30.0	-32.4	11.3	1.03e-03	0	40	0	45088768	20	4727
2026-01-13 00:12:49.53	19.78	9.27	-30.1	-32.6	11.2	1.31e-03	0	40	0	46137344	20	4789
2026-01-13 00:12:50.53	19.80	9.35	-30.0	-32.3	11.4	9.04e-04	0	40	0	48234496	20	4686
2026-01-13 00:12:51.54	19.82	9.44	-30.1	-32.6	11.2	1.29e-03	0	40	0	50331648	20	4817
2026-01-13 00:12:52.54	19.84	9.52	-30.2	-32.9	11.0	2.40e-03	0	40	0	52428800	20	4920
2026-01-13 00:12:53.55	19.86	9.61	-30.1	-32.5	11.3	1.36e-03	0	40	0	54525952	20	4751
2026-01-13 00:12:54.55	19.87	9.69	-30.1	-32.7	11.2	9.25e-04	0	40	0	55574528	20	4843
2026-01-13 00:12:55.56	19.89	9.78	-29.3	-31.9	11.1	1.74e-03	0	40	0	57671680	20	4849
2026-01-13 00:12:56.57	19.91	9.86	-30.1	-32.7	11.2	1.64e-03	0	40	0	59768832	20	4850
2026-01-13 00:12:57.58	19.93	9.95	-30.0	-32.2	11.6	1.06e-03	0	40	0	61865984	20	4635
2026-01-13 00:12:58.58	19.95	10.04	-30.1	-32.7	11.3	1.25e-03	0	40	0	63963136	20	4824
2026-01-13 00:12:59.59	19.96	10.12	-30.0	-32.4	11.5	8.72e-04	0	41	0	65011712	20	4706
2026-01-13 00:13:00.59	19.98	10.21	-29.9	-32.4	11.8	6.50e-04	0	41	0	67108864	19	4796
2026-01-13 00:13:01.59	20.00	10.30	-29.9	-32.0	11.7	4.52e-04	0	41	0	69206016	20	4584
2026-01-13 00:13:02.60	20.02	10.39	-30.0	-32.4	11.5	2.83e-03	0	41	0	71303168	20	4695
2026-01-13 00:13:03.60	20.04	10.47	-30.0	-32.3	11.6	1.22e-03	0	41	0	73400320	20	4663
2026-01-13 00:13:04.61	20.06	10.56	-29.8	-31.7	12.0	5.38e-04	0	41	0	74448896	20	4452
2026-01-13 00:13:05.62	20.08	10.65	-29.7	-31.7	12.2	2.68e-03	0	41	0	76546048	19	4558
2026-01-13 00:13:06.62	20.10	10.74	-29.6	-31.5	12.3	9.15e-05	0	41	0	78643200	19	4479
2026-01-13 00:13:07.62	20.11	10.83	-29.7	-31.8	12.3	1.46e-04	0	41	0	80740352	19	4581
2026-01-13 00:13:08.63	20.13	10.92	-29.7	-31.7	12.3	2.85e-03	0	41	0	82837504	19	4527
2026-01-13 00:13:09.64	20.15	11.01	-29.7	-31.7	12.4	2.31e-03	0	41	0	83886080	19	4527
2026-01-13 00:13:10.64	20.17	11.10	-29.6	-31.3	12.6	9.07e-05	0	41	0	85983232	19	4416
2026-01-13 00:13:11.65	20.19	11.19	-29.7	-31.8	12.3	1.01e-04	0	41	0	88080384	19	4574
2026-01-13 00:13:12.65	20.21	11.28	-29.7	-31.7	12.4	2.67e-03	0	41	0	90177536	19	4549
2026-01-13 00:13:13.66	20.23	11.37	-29.7	-31.7	12.4	2.62e-04	0	41	0	92274688	19	4539
2026-01-13 00:13:14.67	20.25	11.46	-29.9	-32.3	12.0	2.17e-04	0	41	0	93323264	19	4755
2026-01-13 00:13:15.67	20.27	11.56	-29.8	-32.1	12.1	2.96e-03	0	41	0	95420416	19	4690
2026-01-13 00:13:16.68	20.29	11.65	-29.6	-31.5	12.6	2.72e-04	0	41	0	97517568	19	4458
2026-01-13 00:13:17.69	20.31	11.74	-29.5	-31.1	12.9	7.09e-05	0	41	0	99614720	19	4332
2026-01-13 00:13:18.69	20.33	11.83	-29.4	-31.3	13.1	2.43e-03	0	41	0	101711872	18	4481
2026-01-13 00:13:19.69	20.35	11.93	-29.3	-31.1	13.2	6.17e-05	0	41	0	102760448	18	4414
2026-01-13 00:13:20.70	20.37	12.02	-29.3	-30.9	13.3	2.12e-03	0	41	0	104857600	18	4372
2026-01-13 00:13:21.71	20.39	12.12	-29.2	-30.9	13.4	2.44e-05	0	41	0	106954752	18	4355
2026-01-13 00:13:22.71	20.41	12.21	-29.3	-31.2	13.2	6.10e-05	0	41	0	109051904	18	4454
2026-01-13 00:13:23.72	20.43	12.31	-29.3	-31.0	13.3	2.35e-03	0	41	0	111149056	18	4391
2026-01-13 00:13:24.72	20.45	12.40	-29.3	-31.0	13.4	2.28e-03	0	41	0	112197632	18	4378
2026-01-13 00:13:25.72	20.47	12.50	-29.2	-30.8	13.5	1.60e-05	0	41	0	114294784	18	4322
2026-01-13 00:13:26.72	20.49	12.59	-29.3	-31.0	13.3	2.65e-03	0	41	0	116391936	18	4395
2026-01-13 00:13:27.73	20.51	12.69	-29.3	-30.9	13.3	2.11e-03	0	41	0	118489088	18	4374
2026-01-13 00:13:28.73	20.54	12.78	-29.3	-31.0	13.4	1.98e-05	0	41	0	120586240	18	4375
2026-01-13 00:13:29.74	20.56	12.88	-29.4	-31.2	13.2	2.43e-03	0	41	0	121634816	18	4452
2026-01-13 00:13:30.74	20.58	12.98	-29.1	-30.6	13.6	2.34e-03	0	41	0	123731968	18	4254
2026-01-13 00:13:31.75	20.60	13.08	-29.1	-30.5	13.6	2.51e-05	0	41	0	125829120	18	4247
2026-01-13 00:13:32.76	20.62	13.18	-29.1	-30.5	13.7	2.80e-03	0	41	0	127926272	18	4217
2026-01-13 00:13:33.76	20.64	13.27	-29.1	-30.5	13.7	2.67e-03	0	41	0	130023424	18	4215
2026-01-13 00:13:34.77	20.67	13.37	-29.3	-31.0	13.4	6.48e-05	0	41	0	131072000	18	4369
2026-01-13 00:13:35.77	20.69	13.47	-29.2	-30.8	13.5	4.15e-04	0	41	0	133169152	18	4302
2026-01-13 00:13:36.77	20.71	13.57	-29.1	-30.5	13.6	2.52e-03	0	41	0	135266304	18	4232
2026-01-13 00:13:37.78	20.73	13.67	-29.1	-30.6	13.7	2.51e-05	0	41	0	137363456	18	4246
2026-01-13 00:13:38.79	20.75	13.77	-29.0	-30.3	13.8	4.75e-04	0	41	0	139460608	18	4161
2026-01-13 00:13:39.79	20.78	13.87	-29.1	-30.6	13.6	2.80e-03	0	41	0	140509184	18	4243
2026-01-13 00:13:40.80	20.80	13.98	-29.2	-30.8	13.6	5.64e-05	0	41	0	142606336	18	4312
2026-01-13 00:13:41.80	20.82	14.08	-29.0	-30.3	13.9	2.32e-03	0	41	0	144703488	18	4162
2026-01-13 00:13:42.80	20.84	14.18	-28.9	-30.6	14.0	4.39e-04	0	41	0	146800640	17	4335
2026-01-13 00:13:43.82	20.87	14.28	-29.0	-30.6	13.9	4.50e-05	0	41	0	148897792	17	4362
2026-01-13 00:13:44.82	20.89	14.39	-29.0	-30.3	13.9	2.71e-03	0	41	0	149946368	18	4149
2026-01-13 00:13:45.82	20.91	14.49	-29.2	-30.7	13.7	4.45e-04	0	41	0	152043520	18	4276
2026-01-13 00:13:46.82	20.94	14.59	-29.0	-30.3	13.9	9.90e-06	0	41	0	154140672	18	4146
2026-01-13 00:13:47.83	20.96	14.70	-29.1	-30.5	13.8	2.55e-03	0	41	0	156237824	18	4214
2026-01-13 00:13:48.84	20.98	14.80	-29.1	-30.4	13.8	4.23e-04	0	41	0	158334976	18	4193
2026-01-13 00:13:49.85	21.01	14.91	-29.1	-30.5	13.8	2.20e-06	0	41	0	159383552	18	4209
2026-01-13 00:13:50.86	21.03	15.02	-29.1	-30.4	13.9	2.78e-03	0	41	0	161480704	18	4174
2026-01-13 00:13:51.86	21.06	15.12	-29.1	-30.5	13.8	5.30e-06	0	41	0	163577856	18	4218
2026-01-13 00:13:52.87	21.08	15.23	-29.1	-30.5	13.8	1.50e-06	0	41	0	165675008	18	4225
2026-01-13 00:13:53.87	21.10	15.34	-29.1	-30.5	13.8	4.97e-04	0	41	0	167772160	18	4228
2026-01-13 00:13:54.88	21.13	15.45	-29.2	-30.7	13.7	2.53e-03	0	41	0	168820736	18	4284
2026-01-13 00:13:55.89	21.15	15.55	-29.2	-30.7	13.7	4.50e-06	0	41	0	170917888	18	4266
2026-01-13 00:13:56.89	21.18	15.66	-29.2	-30.6	13.8	4.53e-04	0	41	0	173015040	18	4253
2026-01-13 00:13:57.89	21.20	15.77	-29.1	-30.4	13.9	4.39e-04	0	41	0	175112192	18	4184
2026-01-13 00:13:58.90	21.23	15.88	-29.1	-30.4	13.8	1.50e-06	0	41	0	176160768	18	4199
2026-01-13 00:13:59.90	21.25	15.99	-29.2	-30.6	13.8	4.63e-04	0	41	0	178257920	18	4230
2026-01-13 00:14:00.91	21.28	16.10	-29.2	-30.7	13.7	4.39e-04	0	41	0	180355072	18	4279
2026-01-13 00:14:01.91	21.30	16.21	-29.2	-30.8	13.7	4.50e-06	0	41	0	182452224	18	4298
2026-01-13 00:14:02.92	21.33	16.33	-29.2	-30.7	13.7	7.60e-06	0	41	0	184549376	18	4270
2026-01-13 00:14:03.93	21.35	16.44	-29.4	-31.2	13.4	4.57e-04	0	41	0	186646528	18	4415
2026-01-13 00:14:04.94	21.38	16.55	-29.4	-31.2	13.4	1.98e-05	0	41	0	187695104	18	4434
2026-01-13 00:14:05.94	21.41	16.67	-29.5	-31.1	13.2	1.52e-05	0	41	0	189792256	19	4293
2026-01-13 00:14:06.95	21.43	16.78	-29.5	-31.0	13.2	1.52e-05	0	41	0	191889408	19	4282
2026-01-13 00:14:07.95	21.46	16.89	-29.7	-31.4	12.9	3.20e-05	0	41	0	193986560	19	4416
2026-01-13 00:14:08.96	21.49	17.01	-29.7	-31.4	13.0	4.73e-05	0	41	0	195035136	19	4385
2026-01-13 00:14:09.96	21.51	17.12	-29.6	-31.2	13.1	3.96e-05	0	41	0	197132288	19	4346
2026-01-13 00:14:10.97	21.54	17.24	-29.7	-31.5	12.9	3.35e-05	0	41	0	199229440	19	4418
2026-01-13 00:14:11.98	21.57	17.36	-29.7	-31.5	12.9	3.89e-05	0	41	0	201326592	19	4427
2026-01-13 00:14:12.98	21.59	17.47	-29.8	-31.7	12.8	6.63e-05	0	41	0	203423744	19	4504
2026-01-13 00:14:13.98	21.62	17.59	-29.7	-31.5	12.9	5.26e-05	0	42	0	204472320	19	4444
2026-01-13 00:14:14.99	21.65	17.71	-28.8	-30.5	12.9	2.88e-04	0	42	0	206569472	19	4384
2026-01-13 00:14:15.99	21.68	17.83	-29.8	-31.6	12.9	3.50e-05	0	42	0	208666624	19	4477
2026-01-13 00:14:17.00	21.71	17.95	-29.9	-31.9	11.8	7.78e-05	0	42	0	210763776	19	4572
2026-01-13 00:14:18.00	21.73	18.07	-29.8	-31.7	12.2	3.04e-04	0	42	0	212860928	19	4507
2026-01-13 00:14:19.01	21.76	18.19	-29.7	-31.5	12.9	6.02e-05	0	41	0	213909504	19	4418
2026-01-13 00:14:20.01	21.79	18.31	-29.8	-31.8	12.7	5.49e-05	0	41	0	216006656	19	4541
2026-01-13 00:14:21.01	21.82	18.43	-29.8	-31.7	12.9	6.63e-05	0	41	0	218103808	19	4482
2026-01-13 00:14:22.02	21.85	18.55	-29.9	-32.1	12.6	8.08e-05	0	42	0	220200960	19	4622
2026-01-13 00:14:23.02	21.88	18.68	-29.9	-32.0	12.7	1.01e-04	0	41	0	222298112	19	4584
2026-01-13 00:14:24.03	21.91	18.80	-30.0	-31.8	12.4	8.46e-05	0	42	0	223346688	20	4456
2026-01-13 00:14:25.04	21.94	18.93	-30.1	-32.0	12.2	1.47e-04	0	41	0	225443840	20	4522
2026-01-13 00:14:26.04	21.97	19.05	-30.1	-32.3	12.0	2.45e-03	0	42	0	227540992	20	4594
2026-01-13 00:14:27.05	22.00	19.18	-30.1	-32.2	12.1	2.62e-04	0	42	0	229638144	20	4564
2026-01-13 00:14:28.06	22.03	19.30	-30.3	-32.8	11.7	3.84e-04	0	41	0	231735296	20	4789
2026-01-13 00:14:29.06	22.06	19.43	-30.1	-32.2	12.1	2.29e-03	0	42	0	232783872	20	4573
2026-01-13 00:14:30.06	22.09	19.56	-30.2	-32.4	12.0	2.48e-03	0	42	0	234881024	20	4637
2026-01-13 00:14:31.05	22.12	19.68	-30.2	-32.4	12.0	3.26e-04	0	41	0	236978176	20	4630
2026-01-13 00:14:32.06	22.15	19.81	-30.3	-32.7	11.8	3.47e-04	0	42	0	239075328	20	4759
2026-01-13 00:14:33.06	22.18	19.94	-30.3	-32.7	11.8	2.35e-03	0	42	0	241172480	20	4741
2026-01-13 00:14:34.06	22.21	20.07	-30.3	-32.6	11.9	3.50e-04	0	42	0	242221056	20	4728
2026-01-13 00:14:35.06	22.24	20.20	-30.2	-32.3	12.1	4.03e-04	0	41	0	244318208	20	4599
2026-01-13 00:14:36.07	22.28	20.33	-30.0	-31.8	12.4	2.01e-03	0	42	0	246415360	20	4430
2026-01-13 00:14:37.08	22.31	20.46	-30.0	-31.8	12.4	9.23e-05	0	42	0	248512512	20	4432
2026-01-13 00:14:38.09	22.34	20.60	-29.9	-32.0	12.7	8.31e-05	0	42	0	250609664	19	4575
2026-01-13 00:14:39.09	22.37	20.73	-29.9	-32.0	12.7	1.74e-03	0	42	0	251658240	19	4592
2026-01-13 00:14:40.10	22.41	20.86	-29.9	-31.4	12.7	1.24e-04	0	42	0	253755392	20	4310
2026-01-13 00:14:41.10	22.44	21.00	-29.9	-31.6	12.6	9.71e-04	0	42	0	255852544	20	4377
2026-01-13 00:14:42.11	22.47	21.14	-29.9	-31.4	12.7	8.39e-05	0	42	0	257949696	20	4309
2026-01-13 00:14:43.11	22.51	21.27	-29.9	-31.6	12.6	1.34e-04	0	42	0	260046848	20	4360
2026-01-13 00:14:44.12	22.54	21.41	-29.9	-32.0	12.7	2.02e-03	0	42	0	261095424	19	4588
2026-01-13 00:14:45.13	22.58	21.55	-30.1	-32.1	12.3	6.56e-05	0	42	0	263192576	20	4517
2026-01-13 00:14:46.13	22.61	21.68	-30.0	-31.8	12.5	1.85e-04	0	42	0	265289728	20	4417
2026-01-13 00:14:47.13	22.65	21.82	-30.0	-31.8	12.5	2.01e-03	0	42	0	267386880	20	4430
2026-01-13 00:14:48.13	22.68	21.96	-30.0	-31.6	12.6	2.05e-03	0	42	0	269484032	20	4374
2026-01-13 00:14:49.13	22.72	22.10	-29.9	-31.6	12.6	8.01e-05	0	42	0	270532608	20	4354
2026-01-13 00:14:50.13	22.75	22.24	-30.1	-32.0	12.4	2.11e-03	0	42	0	272629760	20	4508
2026-01-13 00:14:51.13	22.79	22.39	-29.9	-31.9	12.9	2.29e-03	0	42	0	274726912	19	4528
2026-01-13 00:14:52.14	22.82	22.53	-29.8	-31.8	12.9	3.58e-05	0	42	0	276824064	19	4502
2026-01-13 00:14:53.14	22.86	22.67	-29.9	-31.6	12.7	2.42e-03	0	42	0	277872640	20	4349
2026-01-13 00:14:54.15	22.90	22.82	-29.9	-31.6	12.7	2.34e-03	0	42	0	279969792	20	4356
2026-01-13 00:14:55.16	22.93	22.96	-30.1	-32.0	12.4	9.99e-05	0	42	0	282066944	20	4494
2026-01-13 00:14:56.15	22.97	23.11	-29.9	-31.6	12.7	2.73e-03	0	42	0	284164096	20	4345
2026-01-13 00:14:57.16	23.01	23.26	-29.8	-31.2	13.0	2.23e-03	0	42	0	286261248	20	4229
2026-01-13 00:14:58.16	23.05	23.40	-29.9	-31.6	12.6	8.16e-05	0	42	0	288358400	20	4365
2026-01-13 00:14:59.17	23.09	23.55	-30.0	-32.2	12.7	2.49e-04	0	42	0	289406976	19	4629
2026-01-13 00:15:00.17	23.12	23.70	-30.0	-31.8	12.5	2.83e-03	0	41	0	291504128	20	4428
2026-01-13 00:15:01.17	23.16	23.85	-29.9	-31.5	12.8	1.17e-04	0	42	0	293601280	20	4332
2026-01-13 00:15:02.18	23.20	24.01	-30.1	-32.1	12.3	2.52e-03	0	42	0	295698432	20	4519
2026-01-13 00:15:03.18	23.24	24.16	-30.3	-32.7	12.0	2.73e-03	0	42	0	296747008	20	4722
2026-01-13 00:15:04.19	23.28	24.31	-30.0	-31.6	12.7	1.43e-04	0	42	0	298844160	20	4354
2026-01-13 00:15:05.19	23.32	24.46	-29.9	-32.0	12.9	2.45e-03	0	42	0	300941312	19	4554
2026-01-13 00:15:06.19	23.36	24.62	-29.8	-31.3	12.9	2.58e-04	0	42	0	303038464	20	4255
2026-01-13 00:15:07.20	23.41	24.78	-29.9	-31.5	12.8	3.28e-05	0	42	0	305135616	20	4311
2026-01-13 00:15:08.20	23.45	24.93	-29.9	-31.4	12.8	2.23e-03	0	42	0	306184192	20	4286
2026-01-13 00:15:09.21	23.49	25.09	-29.8	-31.1	13.1	2.56e-03	0	42	0	308281344	20	4198
2026-01-13 00:15:10.22	23.53	25.25	-29.9	-31.4	12.9	4.27e-05	0	42	0	310378496	20	4289
2026-01-13 00:15:11.22	23.57	25.41	-30.0	-31.7	12.7	2.64e-03	0	42	0	312475648	20	4375
2026-01-13 00:15:12.22	23.62	25.57	-29.8	-31.7	13.1	2.38e-03	0	42	0	314572800	19	4459
2026-01-13 00:15:13.22	23.66	25.73	-30.0	-31.8	12.6	7.47e-05	0	42	0	315621376	20	4410
2026-01-13 00:15:14.23	23.70	25.89	-30.2	-32.3	12.4	2.66e-03	0	42	0	317718528	20	4574
2026-01-13 00:15:15.23	23.75	26.06	-30.0	-31.8	12.6	2.22e-03	0	42	0	319815680	20	4410
2026-01-13 00:15:16.24	23.79	26.22	-29.8	-31.2	13.0	3.12e-05	0	42	0	321912832	20	4211
2026-01-13 00:15:17.25	23.84	26.39	-29.7	-31.2	13.4	4.19e-05	0	42	0	324009984	19	4309
2026-01-13 00:15:18.25	23.88	26.55	-29.7	-31.3	13.3	2.32e-03	0	42	0	325058560	19	4337
2026-01-13 00:15:19.26	23.93	26.72	-29.7	-31.3	13.4	1.75e-05	0	42	0	327155712	19	4330
2026-01-13 00:15:20.26	23.98	26.89	-29.6	-31.2	13.4	8.30e-06	0	42	0	329252864	19	4296
2026-01-13 00:15:21.27	24.02	27.06	-29.6	-30.9	13.6	1.88e-03	0	42	0	331350016	19	4224
2026-01-13 00:15:22.28	24.07	27.23	-29.7	-31.3	13.4	1.06e-05	0	42	0	333447168	19	4328
2026-01-13 00:15:23.28	24.12	27.40	-29.6	-31.2	13.5	1.98e-05	0	42	0	334495744	19	4284
2026-01-13 00:15:24.29	24.17	27.58	-29.6	-31.1	13.6	1.22e-05	0	42	0	336592896	19	4261
2026-01-13 00:15:25.29	24.22	27.75	-29.9	-31.8	13.1	5.30e-06	0	42	0	338690048	19	4504
2026-01-13 00:15:26.30	24.27	27.93	-29.7	-31.4	13.4	1.60e-05	0	42	0	340787200	19	4366
2026-01-13 00:15:27.30	24.32	28.10	-29.9	-31.9	13.0	2.74e-05	0	42	0	342884352	19	4521
2026-01-13 00:15:28.30	24.37	28.28	-30.1	-32.0	12.5	1.03e-04	0	42	0	343932928	20	4476
2026-01-13 00:15:29.31	24.42	28.46	-29.9	-31.3	13.0	1.94e-03	0	42	0	346030080	20	4239
2026-01-13 00:15:30.31	24.47	28.64	-29.7	-31.4	13.4	1.22e-05	0	42	0	348127232	19	4348
2026-01-13 00:15:31.32	24.52	28.82	-29.4	-30.6	13.9	9.90e-06	0	42	0	350224384	19	4117
2026-01-13 00:15:32.33	24.57	29.00	-29.5	-30.7	13.8	1.50e-03	0	42	0	352321536	19	4151
2026-01-13 00:15:33.34	24.63	29.18	-29.6	-30.9	13.7	7.60e-06	0	42	0	353370112	19	4214
2026-01-13 00:15:34.34	24.68	29.37	-29.5	-30.9	13.7	6.10e-06	0	42	0	355467264	19	4190
2026-01-13 00:15:35.35	24.73	29.55	-29.7	-31.4	13.4	8.30e-06	0	42	0	357564416	19	4350
2026-01-13 00:15:36.35	24.79	29.74	-29.7	-31.2	13.6	4.50e-06	0	42	0	359661568	19	4288
2026-01-13 00:15:37.36	24.84	29.93	-29.9	-31.8	13.2	9.90e-06	0	42	0	361758720	19	4471
2026-01-13 00:15:38.36	24.90	30.12	-30.0	-31.7	12.8	3.89e-05	0	42	0	362807296	20	4374
2026-01-13 00:15:39.36	24.96	30.30	-29.7	-30.8	13.4	3.35e-05	0	42	0	364904448	20	4078
2026-01-13 00:15:40.37	25.01	30.50	-29.9	-31.2	13.2	1.52e-05	0	42	0	367001600	20	4216
2026-01-13 00:15:41.37	25.07	30.69	-29.9	-31.4	13.0	6.02e-05	0	42	0	369098752	20	4254
2026-01-13 00:15:42.36	25.13	30.88	-30.1	-31.9	12.7	4.19e-05	0	42	0	371195904	20	4433
2026-01-13 00:15:43.37	25.19	31.08	-30.1	-31.8	12.8	5.03e-05	0	42	0	372244480	20	4400
2026-01-13 00:15:44.38	25.25	31.27	-30.0	-31.5	13.0	3.66e-05	0	42	0	374341632	20	4296
2026-01-13 00:15:45.38	25.31	31.47	-30.2	-32.2	12.4	1.26e-04	0	42	0	376438784	20	4541
2026-01-13 00:15:46.39	25.37	31.67	-30.2	-32.1	12.6	9.07e-05	0	42	0	378535936	20	4507
2026-01-13 00:15:47.40	25.43	31.87	-30.5	-33.0	12.0	1.28e-04	0	42	0	379584512	20	4798
2026-01-13 00:15:48.40	25.49	32.07	-30.7	-33.1	11.5	7.81e-04	0	42	0	381681664	21	4750
2026-01-13 00:15:49.40	25.56	32.28	-30.4	-32.2	12.1	3.36e-04	0	42	0	383778816	21	4451
2026-01-13 00:15:50.41	25.62	32.48	-29.6	-32.0	11.6	4.31e-04	0	42	0	385875968	21	4733
2026-01-13 00:15:51.42	25.69	32.69	-30.7	-33.1	11.4	6.27e-04	0	42	0	387973120	21	4764
2026-01-13 00:15:52.43	25.75	32.90	-30.4	-32.8	12.2	2.11e-04	0	42	0	390070272	20	4738
2026-01-13 00:15:53.43	25.82	33.10	-30.5	-32.6	11.9	3.96e-04	0	42	0	391118848	21	4584
2026-01-13 00:15:54.43	25.89	33.31	-30.6	-32.7	11.9	3.66e-04	0	42	0	393216000	21	4622
2026-01-13 00:15:55.43	25.95	33.52	-30.8	-33.6	11.3	8.32e-04	0	42	0	395313152	21	4934
2026-01-13 00:15:56.45	26.02	33.74	-30.6	-32.9	11.7	1.35e-03	0	42	0	397410304	21	4690
2026-01-13 00:15:57.45	26.09	33.95	-30.8	-33.5	11.3	7.61e-04	0	42	0	398458880	21	4894
2026-01-13 00:15:58.45	26.16	34.17	-30.7	-33.2	11.5	1.26e-03	0	42	0	400556032	21	4807
2026-01-13 00:15:59.46	26.23	34.39	-31.0	-33.4	11.1	1.44e-03	0	42	0	402653184	22	4787
2026-01-13 00:16:00.47	26.31	34.61	-30.8	-33.0	11.3	1.92e-03	0	42	0	404750336	22	4638
2026-01-13 00:16:01.47	26.38	34.83	-30.9	-33.4	11.1	1.05e-03	0	42	0	406847488	22	4757
2026-01-13 00:16:02.47	26.45	35.05	-31.0	-33.6	10.9	1.49e-03	0	42	0	407896064	22	4853
2026-01-13 00:16:03.48	26.53	35.27	-30.9	-33.1	11.2	2.21e-03	0	42	0	409993216	22	4671
2026-01-13 00:16:04.49	26.61	35.50	-30.4	-31.8	12.2	7.37e-04	0	42	0	412090368	22	4219
2026-01-13 00:16:05.50	26.68	35.73	-30.6	-32.3	11.8	3.90e-04	0	42	0	414187520	22	4386
2026-01-13 00:16:06.50	26.76	35.95	-30.4	-32.1	12.3	1.09e-04	0	42	0	416284672	21	4379
2026-01-13 00:16:07.51	26.84	36.18	-30.3	-31.9	12.4	1.52e-04	0	42	0	417333248	21	4333
2026-01-13 00:16:08.52	26.92	36.42	-30.7	-33.1	11.6	1.71e-04	0	42	0	419430400	21	4734
2026-01-13 00:16:09.52	27.00	36.65	-30.6	-32.7	12.0	2.98e-04	0	42	0	421527552	21	4585
2026-01-13 00:16:10.53	27.09	36.88	-30.2	-31.7	12.6	7.17e-05	0	42	0	423624704	21	4247
2026-01-13 00:16:11.53	27.17	37.12	-30.1	-31.5	12.8	4.73e-05	0	42	0	425721856	21	4186
2026-01-13 00:16:12.54	27.26	37.36	-30.0	-31.1	13.1	3.50e-05	0	42	0	426770432	21	4061
2026-01-13 00:16:13.54	27.34	37.60	-29.7	-30.7	13.6	1.52e-05	0	42	0	428867584	20	4053
2026-01-13 00:16:14.55	27.43	37.84	-29.9	-31.4	13.1	1.67e-05	0	42	0	430964736	20	4255
2026-01-13 00:16:15.55	27.52	38.08	-29.8	-30.9	13.4	3.28e-05	0	42	0	433061888	20	4098
2026-01-13 00:16:16.56	27.61	38.33	-29.9	-31.4	13.2	1.29e-05	0	42	0	435159040	20	4251
2026-01-13 00:16:17.56	27.70	38.57	-30.1	-31.7	12.9	7.70e-05	0	42	0	436207616	20	4353
2026-01-13 00:16:18.56	27.79	38.82	-29.9	-31.4	13.2	4.73e-05	0	42	0	438304768	20	4243
2026-01-13 00:16:19.57	27.88	39.07	-30.3	-32.0	12.4	4.61e-04	0	42	0	440401920	21	4343
2026-01-13 00:16:20.57	27.98	39.32	-30.5	-32.5	12.1	5.42e-04	0	42	0	442499072	21	4515
2026-01-13 00:16:21.58	28.08	39.57	-30.7	-33.1	11.6	7.00e-04	0	42	0	444596224	21	4734
2026-01-13 00:16:22.59	28.17	39.83	-31.2	-34.2	10.6	1.10e-03	0	42	0	445644800	22	5071
2026-01-13 00:16:23.60	28.27	40.09	-31.3	-34.6	10.1	5.66e-03	0	42	0	447741952	22	5253
2026-01-13 00:16:24.61	28.38	40.35	-31.5	-34.6	9.8	1.53e-02	0	42	0	449839104	23	5170
2026-01-13 00:16:25.62	28.48	40.61	-31.6	-34.9	9.6	7.46e-03	0	42	0	451936256	23	5268
2026-01-13 00:16:26.62	28.58	40.87	-31.5	-34.7	9.8	6.15e-03	0	42	0	454033408	23	5209
2026-01-13 00:16:27.63	28.69	41.14	-31.4	-34.2	10.2	6.36e-03	0	42	0	455081984	23	4964
2026-01-13 00:16:28.63	28.80	41.40	-31.3	-34.0	10.4	4.93e-03	0	42	0	457179136	23	4915
2026-01-13 00:16:29.64	28.91	41.67	-31.2	-34.2	10.6	3.62e-03	0	42	0	459276288	22	5059
2026-01-13 00:16:30.64	29.02	41.94	-31.0	-33.4	11.2	1.62e-03	0	42	0	461373440	22	4750
2026-01-13 00:16:31.65	29.13	42.21	-30.7	-32.4	11.9	1.25e-03	0	42	0	463470592	22	4388
2026-01-13 00:16:32.65	29.25	42.48	-30.2	-31.6	12.7	4.89e-04	0	42	0	464519168	21	4239
2026-01-13 00:16:33.65	29.36	42.76	-30.3	-31.7	12.7	9.07e-05	0	42	0	466616320	21	4265
2026-01-13 00:16:34.66	29.48	43.04	-30.5	-32.8	12.3	3.62e-04	0	42	0	468713472	20	4716
2026-01-13 00:16:35.67	29.60	43.32	-30.3	-32.2	12.7	3.78e-04	0	42	0	470810624	20	4515
2026-01-13 00:16:36.68	29.73	43.60	-30.3	-32.5	12.5	6.48e-05	0	42	0	472907776	20	4594
2026-01-13 00:16:37.69	29.85	43.89	-30.3	-31.9	12.5	3.44e-04	0	42	0	473956352	21	4313
2026-01-13 00:16:38.69	29.98	44.17	-30.6	-32.8	12.0	4.53e-04	0	42	0	476053504	21	4619
2026-01-13 00:16:39.70	30.11	44.46	-30.8	-33.2	11.7	3.94e-04	0	42	0	478150656	21	4758
2026-01-13 00:16:40.71	30.24	44.75	-30.9	-33.0	11.5	1.51e-03	0	42	0	480247808	22	4607
2026-01-13 00:16:41.71	30.37	45.04	-31.0	-33.3	11.2	1.33e-03	0	42	0	482344960	22	4698
2026-01-13 00:16:42.72	30.51	45.33	-31.1	-33.8	11.0	1.55e-03	0	42	0	483393536	22	4908
2026-01-13 00:16:43.72	30.65	45.63	-31.1	-33.9	10.9	2.41e-03	0	42	0	485490688	22	4922
2026-01-13 00:16:44.73	30.79	45.92	-31.3	-34.5	10.5	4.08e-03	0	42	0	487587840	22	5173
2026-01-13 00:16:45.72	30.93	46.22	-31.2	-33.5	10.8	3.20e-03	0	42	0	489684992	23	4693
2026-01-13 00:16:46.73	31.08	46.52	-30.9	-33.0	11.5	1.00e-03	0	42	0	491782144	22	4596
2026-01-13 00:16:47.73	31.23	46.82	-30.9	-33.7	11.3	7.54e-04	0	42	0	492830720	21	4937
2026-01-13 00:16:48.73	31.38	47.13	-31.0	-33.3	11.3	7.20e-04	0	42	0	494927872	22	4699
2026-01-13 00:16:49.74	31.54	47.44	-31.0	-33.3	11.4	1.31e-03	0	42	0	497025024	22	4701
2026-01-13 00:16:50.74	31.69	47.74	-31.3	-34.3	10.6	4.24e-03	0	42	0	499122176	22	5107
2026-01-13 00:16:51.74	31.85	48.05	-31.9	-35.9	9.0	1.22e-02	0	42	0	501219328	23	5725
2026-01-13 00:16:52.75	32.02	48.37	-31.6	-35.0	9.7	1.51e-02	0	42	0	502267904	23	5295
2026-01-13 00:16:53.75	32.19	48.68	-31.2	-33.7	10.6	3.56e-03	0	42	0	504365056	23	4782
2026-01-13 00:16:54.75	32.36	49.00	-30.9	-32.6	11.4	1.77e-03	0	42	0	506462208	23	4380
2026-01-13 00:16:55.76	32.53	49.32	-30.5	-31.9	12.4	2.30e-03	0	42	0	508559360	22	4228
2026-01-13 00:16:56.77	32.71	49.64	-30.6	-32.7	12.1	2.95e-04	0	42	0	510656512	21	4572
2026-01-13 00:16:57.77	32.89	49.96	-29.9	-30.6	13.5	8.01e-05	0	42	0	511705088	21	3930
2026-01-13 00:16:58.78	33.08	50.29	-30.0	-31.4	13.3	2.59e-05	0	42	0	513802240	20	4245
2026-01-13 00:16:59.78	33.27	50.61	-29.6	-30.4	13.9	5.03e-05	0	42	0	515899392	20	3955
2026-01-13 00:17:00.77	33.46	50.94	-29.5	-30.1	14.3	0.00e+00	0	42	0	517996544	20	3855
2026-01-13 00:17:01.77	33.66	51.27	-29.2	-29.7	14.8	3.28e-05	0	42	0	520093696	19	3844
2026-01-13 00:17:02.77	33.86	51.60	-29.0	-29.9	15.0	1.44e-03	0	42	0	521142272	18	3980
2026-01-13 00:17:03.78	34.07	51.94	-29.2	-30.2	14.8	0.00e+00	0	42	0	523239424	18	4072
2026-01-13 00:17:04.78	34.28	52.27	-29.3	-30.5	14.7	3.00e-06	0	42	0	525336576	18	4144
2026-01-13 00:17:05.79	34.49	52.61	-29.1	-30.0	14.9	7.00e-07	0	42	0	527433728	18	3996
2026-01-13 00:17:06.80	34.72	52.96	-28.6	-28.7	15.7	0.00e+00	0	42	0	528482304	18	3672
2026-01-13 00:17:07.80	34.94	53.30	-28.3	-28.5	16.1	6.10e-06	0	42	0	530579456	17	3697
2026-01-13 00:17:08.80	35.17	53.64	-27.8	-28.0	16.7	1.75e-05	0	42	0	532676608	16	3669
2026-01-13 00:17:09.81	35.41	53.99	-27.9	-28.1	16.6	0.00e+00	0	42	0	534773760	16	3686
2026-01-13 00:17:10.82	35.66	54.34	-27.2	-27.1	17.2	0.00e+00	0	42	0	536870912	15	3554
2026-01-13 00:17:11.82	35.90	54.69	-27.0	-27.2	17.5	0.00e+00	0	42	0	538968064	14	3681
2026-01-13 00:17:12.82	36.16	55.04	-26.8	-26.8	17.8	0.00e+00	0	42	0	540016640	14	3568
2026-01-13 00:17:13.83	36.42	55.40	-27.1	-27.3	17.5	0.00e+00	0	42	0	542113792	14	3687
2026-01-13 00:17:14.83	36.69	55.75	-26.6	-26.3	18.0	0.00e+00	0	42	0	544210944	14	3465
2026-01-13 00:17:15.83	36.96	56.11	-26.8	-26.7	17.8	0.00e+00	0	42	0	546308096	14	3561
2026-01-13 00:17:16.84	37.24	56.47	-26.7	-26.4	17.8	0.00e+00	0	42	0	547356672	14	3494
2026-01-13 00:17:17.84	37.53	56.83	-27.2	-27.5	17.1	0.00e+00	0	42	0	549453824	14	3740
2026-01-13 00:17:18.84	37.83	57.19	-27.2	-27.6	17.3	0.00e+00	0	42	0	551550976	14	3770
2026-01-13 00:17:19.84	38.13	57.55	-27.2	-27.6	17.3	0.00e+00	0	42	0	553648128	14	3757
2026-01-13 00:17:20.85	38.44	57.92	-27.0	-27.1	17.6	0.00e+00	0	42	0	555745280	14	3646
2026-01-13 00:17:21.85	38.76	58.29	-26.2	-26.2	17.7	0.00e+00	0	42	0	556793856	14	3585
2026-01-13 00:17:22.86	39.10	58.66	-27.4	-28.0	15.9	0.00e+00	0	42	0	558891008	14	3858
2026-01-13 00:17:23.86	39.43	59.03	-27.8	-28.3	16.7	0.00e+00	0	42	0	560988160	15	3856
2026-01-13 00:17:24.87	39.78	59.40	-28.7	-29.6	15.5	0.00e+00	0	42	0	563085312	17	3992
2026-01-13 00:17:25.87	40.14	59.77	-29.1	-29.9	15.0	0.00e+00	0	42	0	565182464	18	3982
2026-01-13 00:17:26.88	40.51	60.15	-28.5	-28.6	15.9	7.00e-07	0	42	0	566231040	18	3634
2026-01-13 00:17:27.89	40.90	60.52	-27.7	-27.6	16.9	0.00e+00	0	42	0	568328192	16	3574
2026-01-13 00:17:28.89	41.29	60.90	-27.0	-27.2	17.5	0.00e+00	0	42	0	570425344	14	3666
2026-01-13 00:17:29.89	41.69	61.27	-27.0	-27.0	17.7	0.00e+00	0	42	0	572522496	14	3626
2026-01-13 00:17:30.89	42.10	61.65	-27.2	-27.6	17.4	0.00e+00	0	42	0	574619648	14	3757
2026-01-13 00:17:31.90	42.53	62.03	-26.8	-26.6	17.8	0.00e+00	0	42	0	575668224	14	3536
2026-01-13 00:17:32.90	42.97	62.41	-27.1	-27.5	17.5	0.00e+00	0	42	0	577765376	14	3733
2026-01-13 00:17:33.91	43.43	62.79	-26.8	-27.2	17.8	1.89e-03	0	42	0	579862528	13	3756
2026-01-13 00:17:34.91	43.90	63.17	-26.4	-26.2	18.4	0.00e+00	0	42	0	581959680	13	3520
2026-01-13 00:17:35.91	44.38	63.55	-26.4	-26.4	18.2	1.50e-06	0	42	0	584056832	13	3562
2026-01-13 00:17:36.92	44.89	63.94	-26.5	-26.5	18.2	2.11e-03	0	42	0	585105408	13	3604
2026-01-13 00:17:37.92	45.40	64.32	-26.8	-27.3	17.8	1.90e-03	0	42	0	587202560	13	3778
2026-01-13 00:17:38.92	45.94	64.70	-26.5	-26.4	18.3	2.20e-06	0	42	0	589299712	13	3571
2026-01-13 00:17:39.93	46.49	65.08	-26.2	-26.3	18.6	0.00e+00	0	42	0	591396864	12	3642
2026-01-13 00:17:40.92	47.06	65.46	-26.5	-26.5	18.2	2.19e-03	0	42	0	593494016	13	3592
2026-01-13 00:17:41.93	47.65	65.84	-27.2	-27.5	17.5	3.80e-06	0	42	0	594542592	14	3739
2026-01-13 00:17:42.94	48.27	66.22	-27.9	-28.6	16.6	0.00e+00	0	42	0	596639744	15	3927
2026-01-13 00:17:43.95	48.91	66.61	-28.5	-29.0	16.0	2.13e-03	0	42	0	598736896	17	3810
2026-01-13 00:17:44.95	49.56	66.98	-28.9	-30.0	15.3	3.00e-06	0	42	0	600834048	17	4091
2026-01-13 00:17:45.96	50.25	67.36	-29.1	-29.9	15.1	0.00e+00	0	42	0	601882624	18	3963
2026-01-13 00:17:46.96	50.96	67.74	-29.4	-30.3	14.6	0.00e+00	0	42	0	603979776	19	3971
2026-01-13 00:17:47.97	51.69	68.12	-29.4	-30.1	14.7	7.00e-07	0	42	0	606076928	19	3916
2026-01-13 00:17:48.97	52.45	68.49	-29.6	-30.7	14.4	1.64e-03	0	42	0	608174080	19	4089
2026-01-13 00:17:49.98	53.25	68.86	-30.0	-31.5	13.6	4.50e-06	0	42	0	610271232	20	4237
2026-01-13 00:17:50.99	54.07	69.23	-30.1	-31.6	13.4	9.10e-06	0	42	0	612368384	20	4282
2026-01-13 00:17:51.99	54.92	69.60	-30.3	-32.1	13.1	1.35e-03	0	42	0	613416960	20	4452
2026-01-13 00:17:52.99	55.81	69.96	-30.5	-32.3	12.6	6.94e-05	0	42	0	615514112	21	4414
2026-01-13 00:17:54.00	56.73	70.32	-30.9	-32.9	11.8	3.37e-04	0	42	0	617611264	22	4517
2026-01-13 00:17:55.01	57.69	70.68	-31.2	-33.7	11.3	2.35e-03	0	42	0	619708416	22	4803
2026-01-13 00:17:56.02	58.70	71.04	-31.5	-34.4	10.8	3.87e-03	0	42	0	621805568	23	4972
2026-01-13 00:17:57.02	59.73	71.38	-31.5	-34.3	10.6	4.89e-03	0	42	0	622854144	23	4968
2026-01-13 00:17:58.03	60.81	71.73	-31.6	-34.4	10.4	7.98e-03	0	42	0	624951296	23	4994
2026-01-13 00:17:59.03	61.93	72.07	-31.1	-33.4	11.5	4.33e-03	0	42	0	627048448	22	4682
2026-01-13 00:18:00.04	63.10	72.40	-31.0	-33.0	12.0	8.57e-04	0	42	0	629145600	22	4538
2026-01-13 00:18:01.05	64.32	72.73	-31.2	-33.7	11.4	3.39e-03	0	42	0	630194176	22	4808
2026-01-13 00:18:02.05	65.57	73.05	-30.9	-33.2	12.1	2.72e-03	0	42	0	632291328	21	4734
2026-01-13 00:18:03.06	66.89	73.36	-30.5	-32.3	12.8	8.69e-05	0	42	0	634388480	21	4408
2026-01-13 00:18:04.06	68.25	73.67	-30.5	-32.1	12.8	2.36e-03	0	42	0	636485632	21	4348
2026-01-13 00:18:05.06	69.66	73.96	-30.1	-31.7	13.5	2.15e-03	0	42	0	638582784	20	4296
2026-01-13 00:18:06.07	71.14	74.25	-29.8	-30.6	14.2	7.00e-07	0	42	0	640679936	20	3984
2026-01-13 00:18:07.07	72.66	74.53	-30.7	-32.8	12.4	6.56e-05	0	42	0	641728512	21	4568
2026-01-13 00:18:08.07	74.24	74.79	-30.9	-32.7	12.1	5.85e-04	0	42	0	643825664	22	4445
2026-01-13 00:18:09.08	75.89	75.05	-30.5	-31.5	13.0	1.28e-04	0	42	0	645922816	22	4070
2026-01-13 00:18:10.08	77.59	75.30	-30.5	-32.1	13.0	1.29e-03	0	42	0	648019968	21	4325
2026-01-13 00:18:11.09	79.36	75.53	-30.7	-32.6	12.6	1.81e-03	0	42	0	649068544	21	4515
2026-01-13 00:18:12.10	81.18	75.75	-30.8	-33.1	12.2	1.60e-04	0	42	0	651165696	21	4676
2026-01-13 00:18:13.10	83.05	75.96	-31.1	-33.5	11.6	1.95e-03	0	42	0	653262848	22	4712
2026-01-13 00:18:14.11	84.99	76.15	-30.9	-32.7	12.3	2.92e-04	0	42	0	655360000	22	4424
2026-01-13 00:18:15.11	86.96	76.32	-30.7	-32.3	12.5	1.05e-04	0	42	0	657457152	22	4298
2026-01-13 00:18:16.12	89.01	76.48	-30.6	-32.5	12.7	5.62e-04	0	42	0	658505728	21	4464
2026-01-13 00:18:17.13	91.10	76.63	-31.1	-33.3	11.8	2.40e-04	0	42	0	660602880	22	4645
2026-01-13 00:18:18.13	93.22	76.75	-31.0	-33.0	12.2	2.51e-04	0	42	0	662700032	22	4538
2026-01-13 00:18:19.14	95.39	76.86	-30.7	-32.1	12.6	4.77e-04	0	42	0	664797184	22	4236
2026-01-13 00:18:20.14	97.58	76.95	-31.0	-33.5	12.1	5.83e-04	0	42	0	666894336	21	4820
2026-01-13 00:18:21.15	99.82	77.02	-31.9	-35.3	10.1	1.82e-03	0	42	0	667942912	23	5349
2026-01-13 00:18:22.16	102.08	77.07	-32.1	-35.7	9.4	1.36e-02	0	42	0	670040064	24	5435
2026-01-13 00:18:23.17	104.35	77.10	-31.4	-33.8	11.2	6.23e-03	0	42	0	672137216	23	4720
2026-01-13 00:18:24.17	106.61	77.11	-31.6	-34.3	10.8	1.68e-03	0	42	0	674234368	23	4907
2026-01-13 00:18:25.18	108.90	77.11	-31.0	-32.5	12.0	7.43e-04	0	42	0	676331520	23	4278
2026-01-13 00:18:26.18	111.15	77.08	-30.9	-32.7	12.1	2.66e-04	0	42	0	677380096	22	4425
2026-01-13 00:18:27.19	113.42	77.03	-30.6	-31.9	12.8	8.92e-05	0	42	0	679477248	22	4152
2026-01-13 00:18:28.19	115.64	76.97	-31.2	-33.5	11.8	3.94e-04	0	42	0	681574400	22	4705
2026-01-13 00:18:29.20	117.86	76.88	-32.1	-35.5	9.5	3.42e-03	0	42	0	683671552	24	5368
2026-01-13 00:18:30.21	120.04	76.78	-32.0	-35.3	9.6	2.21e-02	0	42	0	685768704	24	5254
2026-01-13 00:18:31.21	122.17	76.66	-31.3	-33.5	11.4	2.34e-03	0	42	0	686817280	23	4607
2026-01-13 00:18:32.22	124.27	76.52	-31.5	-34.0	11.1	8.16e-04	0	42	0	688914432	23	4821
2026-01-13 00:18:33.22	126.31	76.36	-31.8	-35.0	10.2	3.55e-03	0	42	0	691011584	23	5206
2026-01-13 00:18:34.23	128.32	76.19	-31.7	-34.7	10.4	3.00e-03	0	42	0	693108736	23	5085
2026-01-13 00:18:35.24	130.27	76.00	-32.0	-35.2	9.7	4.04e-03	0	42	0	695205888	24	5209
2026-01-13 00:18:36.24	132.15	75.80	-31.9	-34.8	10.0	1.25e-02	0	42	0	696254464	24	5061
2026-01-13 00:18:37.24	133.98	75.59	-31.8	-34.5	10.4	4.33e-03	0	42	0	698351616	24	4931
2026-01-13 00:18:38.25	135.76	75.36	-32.1	-35.8	9.3	1.23e-02	0	42	0	700448768	24	5475
2026-01-13 00:18:39.26	137.49	75.11	-32.3	-36.7	8.6	2.59e-02	0	42	0	702545920	24	5926
2026-01-13 00:18:40.26	139.14	74.86	-32.1	-35.3	9.2	3.71e-02	0	42	0	704643072	25	5205
2026-01-13 00:18:41.27	140.75	74.59	-31.8	-34.6	10.1	9.43e-03	0	42	0	705691648	24	4993
2026-01-13 00:18:42.27	142.28	74.32	-31.8	-34.8	9.8	9.64e-03	0	42	0	707788800	24	5069
2026-01-13 00:18:43.28	143.78	74.03	-31.4	-33.4	11.0	8.42e-03	0	42	0	709885952	24	4506
2026-01-13 00:18:44.29	145.21	73.73	-31.4	-33.7	11.2	1.21e-03	0	42	0	711983104	23	4686
2026-01-13 00:18:45.29	146.59	73.43	-31.3	-33.4	11.2	3.55e-03	0	42	0	714080256	23	4603
2026-01-13 00:18:46.30	147.92	73.12	-30.7	-32.1	12.6	2.90e-04	0	42	0	715128832	22	4237
2026-01-13 00:18:47.30	149.19	72.80	-31.5	-34.2	10.9	5.40e-04	0	42	0	717225984	23	4925
2026-01-13 00:18:48.31	150.42	72.47	-31.9	-35.3	9.9	9.91e-03	0	42	0	719323136	23	5365
2026-01-13 00:18:49.32	151.60	72.14	-31.4	-34.3	11.1	3.70e-03	0	42	0	721420288	22	5009
2026-01-13 00:18:50.33	152.74	71.80	-32.2	-36.2	9.1	9.61e-03	0	42	0	723517440	24	5699
2026-01-13 00:18:51.33	153.82	71.46	-33.0	-39.1	6.4	1.75e-01	0	42	0	724566016	25	7310
2026-01-13 00:18:52.34	154.87	71.11	-32.5	-37.0	7.9	2.26e-01	0	42	0	726663168	25	6018
2026-01-13 00:18:53.35	155.88	70.75	-32.2	-35.4	9.0	4.02e-02	0	42	0	728760320	25	5228
2026-01-13 00:18:54.35	156.85	70.40	-31.9	-35.1	9.6	1.96e-02	0	42	0	730857472	24	5199
2026-01-13 00:18:55.35	157.77	70.04	-31.9	-35.0	9.9	1.31e-02	0	42	0	732954624	24	5128
2026-01-13 00:18:56.36	158.67	69.67	-32.1	-35.8	9.2	1.04e-02	0	42	0	734003200	24	5487
2026-01-13 00:18:57.37	159.54	69.31	-31.9	-35.6	9.8	1.55e-02	0	42	0	736100352	23	5480
2026-01-13 00:18:58.38	160.37	68.93	-31.7	-34.6	10.4	6.19e-03	0	42	0	738197504	23	5060
2026-01-13 00:18:59.38	161.17	68.56	-30.9	-32.2	12.2	1.12e-03	0	42	0	740294656	23	4189
2026-01-13 00:19:00.39	161.94	68.19	-30.8	-32.6	12.2	5.83e-04	0	42	0	742391808	22	4410
2026-01-13 00:19:01.39	162.68	67.81	-30.7	-32.8	12.4	3.05e-04	0	42	0	743440384	21	4560
2026-01-13 00:19:02.39	163.39	67.44	-30.2	-31.4	13.4	1.98e-04	0	42	0	745537536	21	4104
2026-01-13 00:19:03.39	164.07	67.06	-30.1	-31.6	13.6	5.30e-06	0	42	0	747634688	20	4270
2026-01-13 00:19:04.40	164.74	66.68	-31.0	-32.9	12.0	1.07e-03	0	42	0	749731840	22	4526
2026-01-13 00:19:05.40	165.38	66.30	-30.5	-31.6	12.8	4.29e-04	0	42	0	751828992	22	4088
2026-01-13 00:19:06.41	166.00	65.92	-29.5	-30.0	14.5	4.50e-06	0	42	0	752877568	20	3816
2026-01-13 00:19:07.41	166.60	65.54	-29.6	-30.3	14.4	0.00e+00	0	42	0	754974720	20	3901
2026-01-13 00:19:08.42	167.18	65.15	-29.5	-30.0	14.5	1.50e-06	0	42	0	757071872	20	3812
2026-01-13 00:19:09.42	167.73	64.77	-29.2	-29.7	15.1	0.00e+00	0	42	0	759169024	19	3799
2026-01-13 00:19:10.43	168.28	64.38	-29.2	-29.7	15.1	8.46e-05	0	42	0	761266176	19	3811
2026-01-13 00:19:11.43	168.80	64.00	-28.9	-29.0	15.5	0.00e+00	0	42	0	762314752	19	3639
2026-01-13 00:19:12.43	169.30	63.62	-28.3	-28.1	16.3	0.00e+00	0	42	0	764411904	18	3501
2026-01-13 00:19:13.44	169.79	63.24	-28.1	-28.0	16.6	0.00e+00	0	42	0	766509056	17	3560
2026-01-13 00:19:14.45	170.27	62.85	-28.2	-28.3	16.5	0.00e+00	0	42	0	768606208	17	3640
2026-01-13 00:19:15.45	170.73	62.47	-28.9	-30.1	15.5	0.00e+00	0	42	0	770703360	17	4098
2026-01-13 00:19:16.46	171.17	62.09	-29.5	-30.5	14.5	0.00e+00	0	42	0	771751936	19	4036
2026-01-13 00:19:17.47	171.61	61.71	-29.0	-29.3	15.2	0.00e+00	0	42	0	773849088	19	3711
2026-01-13 00:19:18.48	172.03	61.33	-28.9	-29.4	15.6	0.00e+00	0	42	0	775946240	18	3817
2026-01-13 00:19:19.48	172.43	60.95	-29.6	-30.7	14.5	0.00e+00	0	42	0	778043392	19	4087
2026-01-13 00:19:20.49	172.83	60.57	-30.0	-31.4	13.6	7.60e-06	0	42	0	780140544	20	4217
2026-01-13 00:19:21.49	173.21	60.19	-30.0	-31.3	13.6	1.29e-05	0	42	0	781189120	20	4170
2026-01-13 00:19:22.50	173.58	59.82	-30.3	-32.2	13.2	8.30e-06	0	42	0	783286272	20	4462
2026-01-13 00:19:23.51	173.95	59.44	-30.7	-32.8	12.3	5.95e-05	0	42	0	785383424	21	4595
2026-01-13 00:19:24.52	174.30	59.06	-30.3	-31.5	13.2	1.07e-04	0	42	0	787480576	21	4152
2026-01-13 00:19:25.52	174.64	58.69	-29.1	-29.6	15.1	1.48e-04	0	42	0	789577728	19	3774
2026-01-13 00:19:26.53	174.97	58.32	-29.4	-30.7	14.8	0.00e+00	0	42	0	790626304	18	4180
2026-01-13 00:19:27.54	175.30	57.95	-30.1	-31.5	13.4	5.87e-05	0	42	0	792723456	20	4239
2026-01-13 00:19:28.54	175.61	57.59	-29.8	-30.7	14.1	5.18e-05	0	42	0	794820608	20	4010
2026-01-13 00:19:29.55	175.92	57.22	-29.2	-29.8	15.0	7.00e-07	0	42	0	796917760	19	3835
2026-01-13 00:19:30.56	176.22	56.85	-28.9	-29.5	15.4	0.00e+00	0	42	0	799014912	18	3866
2026-01-13 00:19:31.56	176.51	56.49	-28.5	-28.4	16.0	0.00e+00	0	42	0	800063488	18	3575
2026-01-13 00:19:32.57	176.79	56.13	-27.7	-27.6	17.0	0.00e+00	0	42	0	802160640	16	3557
2026-01-13 00:19:33.57	177.07	55.77	-28.0	-28.4	16.6	0.00e+00	0	42	0	804257792	16	3762
2026-01-13 00:19:34.58	177.34	55.41	-29.5	-30.5	14.4	3.86e-04	0	42	0	806354944	19	4054
2026-01-13 00:19:35.57	177.60	55.06	-30.4	-32.0	12.8	1.37e-05	0	42	0	808452096	21	4330
2026-01-13 00:19:36.58	177.85	54.71	-29.6	-30.3	14.2	1.15e-03	0	42	0	809500672	20	3911
2026-01-13 00:19:37.59	178.10	54.35	-29.3	-29.9	14.8	7.00e-07	0	42	0	811597824	19	3872
2026-01-13 00:19:38.59	178.35	54.00	-29.4	-30.3	14.6	0.00e+00	0	42	0	813694976	19	3983
2026-01-13 00:19:39.60	178.59	53.65	-29.7	-31.0	14.2	1.50e-03	0	42	0	815792128	19	4191
2026-01-13 00:19:40.60	178.82	53.31	-29.7	-30.5	14.1	7.60e-06	0	42	0	816840704	20	3940
2026-01-13 00:19:41.60	179.05	52.97	-29.6	-30.2	14.4	7.00e-07	0	42	0	818937856	20	3863
2026-01-13 00:19:42.61	179.27	52.62	-29.9	-31.2	13.6	1.20e-03	0	42	0	821035008	20	4155
2026-01-13 00:19:43.61	179.48	52.28	-30.7	-32.8	12.2	1.13e-03	0	42	0	823132160	21	4602
2026-01-13 00:19:44.62	179.70	51.94	-31.4	-34.6	10.6	1.81e-03	0	42	0	825229312	22	5178
2026-01-13 00:19:45.62	179.90	51.61	-31.6	-34.6	10.4	4.56e-03	0	42	0	827326464	23	5078
2026-01-13 00:19:46.62	180.11	51.27	-31.2	-33.3	11.1	7.68e-03	0	42	0	828375040	23	4602
2026-01-13 00:19:47.63	180.31	50.94	-31.0	-32.7	11.7	1.43e-03	0	42	0	830472192	23	4378
2026-01-13 00:19:48.63	180.50	50.61	-30.8	-32.4	12.3	3.29e-04	0	42	0	832569344	22	4366
2026-01-13 00:19:49.63	180.69	50.28	-30.7	-32.8	12.4	8.83e-04	0	42	0	834666496	21	4573
2026-01-13 00:19:50.64	180.88	49.96	-30.4	-32.1	12.6	5.64e-05	0	42	0	835715072	21	4352
2026-01-13 00:19:51.64	181.06	49.63	-30.3	-32.2	13.0	4.73e-05	0	42	0	837812224	20	4470
2026-01-13 00:19:52.65	181.24	49.31	-30.7	-32.9	12.2	1.20e-03	0	42	0	839909376	21	4616
2026-01-13 00:19:53.65	181.41	48.99	-31.2	-33.9	11.2	7.17e-04	0	42	0	842006528	22	4898
2026-01-13 00:19:54.66	181.59	48.67	-31.4	-33.9	10.8	3.10e-03	0	42	0	844103680	23	4826
2026-01-13 00:19:55.66	181.75	48.35	-31.7	-34.9	10.0	5.43e-03	0	42	0	845152256	23	5230
2026-01-13 00:19:56.66	181.92	48.04	-31.2	-33.2	11.2	5.20e-03	0	42	0	847249408	23	4560
2026-01-13 00:19:57.67	182.08	47.73	-30.1	-31.1	13.3	4.11e-05	0	42	0	849346560	21	4032
2026-01-13 00:19:58.67	182.24	47.42	-29.8	-30.8	13.9	7.00e-07	0	42	0	851443712	20	4026
2026-01-13 00:19:59.67	182.39	47.11	-30.5	-32.4	12.5	1.37e-05	0	42	0	853540864	21	4431
2026-01-13 00:20:00.68	182.55	46.80	-31.9	-35.9	9.2	7.01e-03	0	42	0	854589440	23	5653
2026-01-13 00:20:01.68	182.69	46.50	-32.8	-38.6	6.5	1.45e-01	0	42	0	856686592	25	7027
2026-01-13 00:20:02.69	182.84	46.20	-33.0	-39.2	5.5	4.21e-01	0	42	0	858783744	26	7403
2026-01-13 00:20:03.69	182.99	45.90	-32.8	-38.9	6.2	3.44e-01	0	42	0	860880896	25	7273
2026-01-13 00:20:04.70	183.13	45.60	-32.5	-37.4	7.3	1.73e-01	0	42	0	862978048	25	6288
2026-01-13 00:20:05.70	183.27	45.30	-32.1	-36.0	8.8	4.63e-02	0	42	0	864026624	24	5624
2026-01-13 00:20:06.71	183.40	45.01	-32.2	-36.6	8.3	3.86e-02	0	42	0	866123776	24	5967
2026-01-13 00:20:07.72	183.54	44.71	-31.9	-35.1	9.4	3.33e-02	0	42	0	868220928	24	5239
2026-01-13 00:20:08.72	183.67	44.42	-31.3	-33.2	10.9	6.55e-03	0	42	0	870318080	24	4467
2026-01-13 00:20:09.72	183.80	44.14	-30.9	-32.8	11.8	6.49e-04	0	42	0	872415232	22	4501
2026-01-13 00:20:10.73	183.93	43.85	-31.0	-33.1	11.6	5.58e-04	0	42	0	873463808	22	4623
2026-01-13 00:20:11.74	184.05	43.56	-31.4	-34.5	10.7	1.50e-03	0	42	0	875560960	22	5150
2026-01-13 00:20:12.74	184.17	43.28	-32.0	-36.1	9.1	1.14e-02	0	42	0	877658112	23	5791
2026-01-13 00:20:13.74	184.29	43.00	-32.5	-37.4	7.2	4.12e-02	0	42	0	879755264	25	6318
2026-01-13 00:20:14.75	184.41	42.72	-32.0	-35.3	8.8	5.78e-02	0	42	0	881852416	25	5268
2026-01-13 00:20:15.76	184.53	42.45	-31.0	-32.8	11.5	6.74e-03	0	42	0	882900992	23	4417
2026-01-13 00:20:16.76	184.64	42.17	-29.8	-30.8	13.8	9.46e-05	0	42	0	884998144	20	4032
2026-01-13 00:20:17.77	184.76	41.90	-29.4	-30.2	14.5	0.00e+00	0	42	0	887095296	19	3947
2026-01-13 00:20:18.77	184.87	41.63	-29.2	-30.2	14.9	4.04e-05	0	42	0	889192448	18	4045
2026-01-13 00:20:19.77	184.98	41.36	-29.8	-31.4	13.8	1.29e-05	0	42	0	891289600	19	4323
2026-01-13 00:20:20.78	185.09	41.09	-30.2	-32.0	13.1	1.22e-03	0	42	0	892338176	20	4434
2026-01-13 00:20:21.78	185.19	40.83	-30.1	-31.8	13.2	4.57e-05	0	42	0	894435328	20	4350
2026-01-13 00:20:22.78	185.29	40.57	-30.1	-31.7	13.1	4.80e-05	0	42	0	896532480	20	4344
2026-01-13 00:20:23.78	185.40	40.31	-30.4	-32.5	12.7	4.57e-05	0	42	0	898629632	20	4601
2026-01-13 00:20:24.79	185.50	40.04	-30.3	-32.1	12.9	7.93e-05	0	42	0	900726784	20	4459
2026-01-13 00:20:25.80	185.60	39.78	-29.7	-30.7	13.9	1.52e-05	0	42	0	901775360	20	4016
2026-01-13 00:20:26.80	185.70	39.53	-29.7	-31.1	13.9	1.50e-06	0	42	0	903872512	19	4241
2026-01-13 00:20:27.81	185.79	39.27	-29.4	-30.9	14.3	4.16e-04	0	42	0	905969664	18	4258
2026-01-13 00:20:28.81	185.89	39.02	-29.6	-30.9	14.0	1.44e-05	0	42	0	908066816	19	4177
2026-01-13 00:20:29.82	185.98	38.77	-30.4	-32.5	12.6	3.28e-05	0	42	0	910163968	20	4587
2026-01-13 00:20:30.82	186.07	38.52	-30.8	-33.3	11.7	7.09e-04	0	42	0	911212544	21	4780
2026-01-13 00:20:31.83	186.17	38.27	-31.0	-33.3	11.4	1.17e-03	0	42	0	913309696	22	4691
2026-01-13 00:20:32.84	186.26	38.03	-31.0	-33.5	11.3	9.22e-04	0	42	0	915406848	22	4757
2026-01-13 00:20:33.85	186.34	37.78	-31.2	-33.9	11.0	1.45e-03	0	42	0	917504000	22	4919
2026-01-13 00:20:34.85	186.43	37.54	-30.7	-32.6	11.9	9.18e-04	0	42	0	918552576	22	4439
2026-01-13 00:20:35.86	186.52	37.30	-30.8	-32.8	11.7	7.30e-04	0	42	0	920649728	22	4538
2026-01-13 00:20:36.86	186.60	37.06	-31.1	-33.9	10.8	1.50e-03	0	42	0	922746880	22	4918
2026-01-13 00:20:37.87	186.69	36.82	-30.9	-33.1	11.5	7.32e-04	0	42	0	924844032	22	4653
2026-01-13 00:20:38.87	186.77	36.59	-31.1	-33.6	11.2	3.08e-03	0	42	0	926941184	22	4805
2026-01-13 00:20:39.88	186.85	36.35	-30.9	-33.6	11.4	2.23e-03	0	42	0	929038336	21	4928
2026-01-13 00:20:40.89	186.93	36.12	-31.1	-33.7	11.1	1.63e-03	0	42	0	930086912	22	4847
2026-01-13 00:20:41.89	187.01	35.89	-30.9	-33.7	11.4	2.15e-03	0	42	0	932184064	21	4939
2026-01-13 00:20:42.89	187.09	35.66	-30.6	-32.6	12.1	9.83e-04	0	42	0	934281216	21	4542
2026-01-13 00:20:43.90	187.16	35.43	-29.9	-30.8	13.3	3.75e-04	0	42	0	936378368	21	3985
2026-01-13 00:20:44.91	187.24	35.21	-29.7	-30.6	14.0	9.15e-04	0	42	0	937426944	20	4010
2026-01-13 00:20:45.90	187.32	34.98	-29.8	-31.3	13.7	9.44e-04	0	42	0	939524096	19	4291
2026-01-13 00:20:46.91	187.39	34.76	-29.2	-29.8	14.7	1.79e-04	0	42	0	941621248	19	3852
2026-01-13 00:20:47.92	187.46	34.54	-29.6	-30.9	14.0	7.48e-04	0	42	0	943718400	19	4185
2026-01-13 00:20:48.92	187.53	34.32	-30.0	-31.8	13.5	5.49e-04	0	42	0	945815552	19	4472
2026-01-13 00:20:49.93	187.61	34.10	-30.6	-32.6	12.1	2.45e-04	0	42	0	946864128	21	4566
2026-01-13 00:20:50.93	187.68	33.88	-31.3	-34.5	10.5	2.59e-03	0	42	0	948961280	22	5192
2026-01-13 00:20:51.94	187.75	33.67	-31.7	-35.4	9.4	7.33e-03	0	42	0	951058432	23	5503
2026-01-13 00:20:52.95	187.82	33.45	-31.8	-35.7	9.1	2.20e-02	0	42	0	953155584	23	5669
2026-01-13 00:20:53.95	187.88	33.24	-32.0	-36.2	8.3	3.02e-02	0	42	0	955252736	24	5840
2026-01-13 00:20:54.96	187.95	33.03	-32.3	-37.2	7.6	8.71e-02	0	42	0	957349888	24	6359
2026-01-13 00:20:55.97	188.02	32.82	-31.9	-35.6	8.9	6.60e-02	0	42	0	958398464	24	5497
2026-01-13 00:20:56.97	188.08	32.61	-31.8	-35.6	9.2	2.64e-02	0	42	0	960495616	23	5585
2026-01-13 00:20:57.97	188.15	32.40	-31.8	-35.8	9.1	1.85e-02	0	42	0	962592768	23	5687
2026-01-13 00:20:58.97	188.21	32.20	-31.6	-34.9	9.7	1.25e-02	0	42	0	964689920	23	5282
2026-01-13 00:20:59.98	188.27	31.99	-31.9	-36.2	8.8	2.93e-02	0	42	0	965738496	23	5887
2026-01-13 00:21:00.98	188.33	31.79	-31.6	-34.9	9.7	1.32e-02	0	42	0	967835648	23	5281
2026-01-13 00:21:01.99	188.40	31.59	-31.4	-34.1	10.4	4.05e-03	0	42	0	969932800	23	4936
2026-01-13 00:21:03.00	188.46	31.39	-31.1	-33.6	11.0	3.86e-03	0	42	0	972029952	22	4825
2026-01-13 00:21:04.00	188.52	31.19	-30.9	-33.0	11.5	2.80e-03	0	42	0	974127104	22	4606
2026-01-13 00:21:05.00	188.58	30.99	-30.7	-32.6	11.8	6.59e-04	0	42	0	975175680	22	4460
2026-01-13 00:21:06.01	188.64	30.80	-30.7	-33.1	11.8	2.24e-03	0	42	0	977272832	21	4727
2026-01-13 00:21:07.01	188.69	30.60	-30.4	-32.2	12.3	2.45e-03	0	42	0	979369984	21	4426
2026-01-13 00:21:08.02	188.75	30.41	-30.1	-31.2	12.9	4.11e-05	0	42	0	981467136	21	4100
2026-01-13 00:21:09.02	188.81	30.22	-29.9	-31.3	13.3	2.02e-03	0	42	0	983564288	20	4211
2026-01-13 00:21:10.03	188.86	30.03	-29.9	-31.3	13.3	2.16e-03	0	42	0	984612864	20	4214
2026-01-13 00:21:11.04	188.92	29.84	-30.3	-32.4	12.6	8.08e-05	0	42	0	986710016	20	4561
2026-01-13 00:21:12.05	188.98	29.65	-30.2	-32.0	12.8	6.10e-05	0	42	0	988807168	20	4452
2026-01-13 00:21:13.06	189.03	29.46	-30.6	-32.7	12.0	2.17e-03	0	42	0	990904320	21	4578
2026-01-13 00:21:14.06	189.08	29.27	-30.4	-32.0	12.5	1.85e-04	0	42	0	993001472	21	4364
2026-01-13 00:21:15.07	189.14	29.09	-30.6	-32.7	12.0	3.65e-04	0	42	0	994050048	21	4576
2026-01-13 00:21:16.08	189.19	28.90	-31.0	-33.5	11.2	3.30e-03	0	42	0	996147200	22	4780
2026-01-13 00:21:17.08	189.24	28.72	-31.2	-34.2	10.7	2.16e-03	0	42	0	998244352	22	5052
2026-01-13 00:21:18.09	189.29	28.54	-31.6	-34.8	9.8	9.84e-03	0	42	0	1000341504	23	5235
2026-01-13 00:21:19.10	189.34	28.36	-31.7	-35.5	9.2	1.67e-02	0	42	0	1002438656	23	5552
2026-01-13 00:21:20.11	189.40	28.18	-31.9	-36.3	8.7	2.33e-02	0	42	0	1003487232	23	5935
2026-01-13 00:21:21.11	189.45	28.00	-32.0	-36.2	8.2	4.76e-02	0	42	0	1005584384	24	5802
2026-01-13 00:21:22.11	189.49	27.82	-31.6	-35.0	9.6	2.24e-02	0	42	0	1007681536	23	5340
2026-01-13 00:21:23.12	189.54	27.65	-31.3	-34.0	10.3	6.56e-03	0	42	0	1009778688	23	4905
2026-01-13 00:21:24.12	189.59	27.47	-30.9	-33.1	11.3	1.82e-03	0	42	0	1011875840	22	4670
2026-01-13 00:21:25.13	189.64	27.30	-30.3	-32.0	12.4	4.08e-04	0	42	0	1012924416	21	4346
2026-01-13 00:21:26.13	189.69	27.13	-30.2	-32.1	12.7	1.07e-04	0	42	0	1015021568	20	4484
2026-01-13 00:21:27.13	189.73	26.96	-29.9	-31.4	13.1	2.66e-03	0	42	0	1017118720	20	4250
2026-01-13 00:21:28.13	189.78	26.79	-29.7	-30.8	13.5	1.54e-04	0	42	0	1019215872	20	4078
2026-01-13 00:21:29.13	189.83	26.62	-29.8	-31.5	13.5	9.10e-06	0	42	0	1021313024	19	4373
2026-01-13 00:21:30.14	189.87	26.45	-29.5	-30.7	14.0	6.10e-06	0	42	0	1022361600	19	4140
2026-01-13 00:21:31.15	189.92	26.28	-29.3	-30.3	14.3	1.65e-04	0	42	0	1024458752	19	4002
2026-01-13 00:21:32.16	189.96	26.11	-29.3	-30.7	14.3	0.00e+00	0	42	0	1026555904	18	4232
2026-01-13 00:21:33.16	190.01	25.95	-29.3	-30.7	14.3	1.50e-06	0	42	0	1028653056	18	4213
2026-01-13 00:21:34.17	190.05	25.78	-29.3	-30.5	14.4	1.49e-04	0	42	0	1030750208	18	4180
2026-01-13 00:21:35.17	190.09	25.62	-29.2	-30.5	14.3	2.20e-06	0	42	0	1031798784	18	4169
2026-01-13 00:21:36.17	190.14	25.46	-29.1	-30.2	14.5	7.00e-07	0	42	0	1033895936	18	4092
2026-01-13 00:21:37.19	190.18	25.30	-29.2	-30.4	14.4	7.00e-07	0	42	0	1035993088	18	4143
2026-01-13 00:21:38.19	190.22	25.14	-29.4	-31.1	14.0	7.00e-07	0	42	0	1038090240	18	4352
2026-01-13 00:21:39.19	190.26	24.98	-29.3	-30.1	14.3	1.23e-04	0	42	0	1040187392	19	3955
2026-01-13 00:21:40.20	190.31	24.82	-29.0	-30.0	14.6	0.00e+00	0	42	0	1041235968	18	4035
2026-01-13 00:21:41.20	190.35	24.66	-29.0	-29.9	14.7	7.00e-07	0	42	0	1043333120	18	3995
2026-01-13 00:21:42.20	190.39	24.51	-28.8	-30.0	15.0	8.23e-05	0	42	0	1045430272	17	4112
2026-01-13 00:21:43.21	190.43	24.35	-28.5	-29.3	15.4	0.00e+00	0	42	0	1047527424	17	3930
2026-01-13 00:21:44.21	190.47	24.20	-27.1	-27.8	15.7	1.35e-04	0	42	0	1048576000	16	3899
2026-01-13 00:21:45.22	190.51	24.04	-28.3	-29.2	15.7	6.25e-05	0	42	0	1050673152	16	3987
2026-01-13 00:21:46.23	190.55	23.89	-28.0	-28.4	16.1	5.03e-05	0	42	0	1052770304	16	3793
2026-01-13 00:21:47.22	190.59	23.74	-27.8	-28.5	16.2	0.00e+00	0	42	0	1054867456	15	3913
2026-01-13 00:21:48.22	190.62	23.59	-27.9	-28.7	16.1	1.90e-05	0	42	0	1056964608	15	3967
2026-01-13 00:21:49.22	190.66	23.44	-28.1	-28.6	16.0	1.37e-05	0	42	0	1059061760	16	3847
2026-01-13 00:21:50.23	190.70	23.29	-28.1	-28.7	16.0	0.00e+00	0	42	0	1060110336	16	3869
2026-01-13 00:21:51.23	190.74	23.14	-28.3	-29.2	15.7	1.78e-03	0	42	0	1062207488	16	4001
2026-01-13 00:21:52.23	190.77	22.99	-28.4	-29.5	15.5	9.90e-06	0	42	0	1064304640	16	4065
2026-01-13 00:21:53.24	190.81	22.84	-28.6	-29.4	15.3	0.00e+00	0	42	0	1066401792	17	3956
2026-01-13 00:21:54.24	190.85	22.70	-28.8	-30.0	14.8	1.50e-03	0	42	0	1067450368	17	4115
2026-01-13 00:21:55.25	190.89	22.55	-29.0	-29.9	14.7	6.40e-05	0	42	0	1069547520	18	3995
2026-01-13 00:21:56.25	190.92	22.41	-29.3	-30.7	14.1	2.20e-06	0	42	0	1071644672	18	4245
2026-01-13 00:21:57.25	190.96	22.27	-29.2	-30.5	14.3	4.95e-05	0	42	0	1073741824	18	4164
2026-01-13 00:21:58.26	190.99	22.12	-29.3	-30.7	14.2	2.97e-04	0	42	0	1075838976	18	4235
2026-01-13 00:21:59.26	191.03	21.98	-29.3	-30.7	14.1	7.00e-07	0	42	0	1076887552	18	4246
2026-01-13 00:22:00.27	191.06	21.84	-29.2	-30.5	14.3	3.05e-05	0	42	0	1078984704	18	4189
2026-01-13 00:22:01.27	191.10	21.70	-29.1	-30.2	14.5	2.37e-04	0	42	0	1081081856	18	4077
2026-01-13 00:22:02.28	191.13	21.56	-29.1	-30.2	14.5	7.91e-04	0	42	0	1083179008	18	4081
2026-01-13 00:22:03.29	191.17	21.42	-29.3	-30.8	14.1	5.34e-05	0	42	0	1085276160	18	4257
2026-01-13 00:22:04.29	191.20	21.28	-29.0	-30.1	14.5	2.30e-04	0	42	0	1086324736	18	4058
2026-01-13 00:22:05.30	191.23	21.14	-29.0	-30.0	14.5	4.58e-04	0	42	0	1088421888	18	4036
2026-01-13 00:22:06.29	191.27	21.01	-29.1	-30.3	14.3	3.80e-06	0	42	0	1090519040	18	4137
2026-01-13 00:22:07.30	191.30	20.87	-29.0	-30.1	14.5	2.20e-06	0	42	0	1092616192	18	4058
2026-01-13 00:22:08.31	191.33	20.74	-29.1	-30.2	14.5	3.87e-04	0	42	0	1094713344	18	4086
2026-01-13 00:22:09.31	191.36	20.60	-29.2	-30.6	14.1	3.50e-04	0	42	0	1095761920	18	4210
2026-01-13 00:22:10.32	191.40	20.47	-29.3	-30.7	14.1	6.80e-06	0	42	0	1097859072	18	4255
2026-01-13 00:22:11.33	191.43	20.33	-29.4	-30.9	13.9	5.03e-04	0	42	0	1099956224	18	4312
2026-01-13 00:22:12.33	191.46	20.20	-29.3	-30.7	14.0	6.77e-04	0	42	0	1102053376	18	4258
2026-01-13 00:22:13.34	191.49	20.07	-29.3	-30.9	14.0	2.39e-04	0	42	0	1104150528	18	4297
2026-01-13 00:22:14.34	191.52	19.94	-29.4	-31.1	13.8	2.40e-04	0	42	0	1105199104	18	4376
2026-01-13 00:22:15.35	191.55	19.81	-29.4	-31.0	13.9	2.93e-04	0	42	0	1107296256	18	4344
2026-01-13 00:22:16.35	191.58	19.68	-29.7	-31.3	13.3	2.10e-04	0	42	0	1109393408	19	4340
2026-01-13 00:22:17.36	191.61	19.55	-29.7	-31.3	13.3	2.59e-05	0	42	0	1111490560	19	4350
2026-01-13 00:22:18.36	191.65	19.42	-29.5	-30.8	13.6	1.75e-04	0	42	0	1113587712	19	4186
2026-01-13 00:22:19.36	191.67	19.29	-29.2	-30.0	14.2	1.62e-04	0	42	0	1114636288	19	3941
2026-01-13 00:22:20.36	191.70	19.17	-28.9	-29.8	14.6	1.27e-04	0	42	0	1116733440	18	3988
2026-01-13 00:22:21.37	191.73	19.04	-29.0	-29.9	14.5	1.42e-04	0	42	0	1118830592	18	4023
2026-01-13 00:22:22.37	191.76	18.91	-29.0	-29.9	14.5	1.35e-04	0	42	0	1120927744	18	4028
2026-01-13 00:22:23.38	191.79	18.79	-29.0	-29.9	14.6	1.36e-04	0	42	0	1123024896	18	4004
2026-01-13 00:22:24.38	191.82	18.66	-29.1	-30.2	14.3	7.00e-07	0	42	0	1124073472	18	4110
2026-01-13 00:22:25.38	191.85	18.54	-29.2	-30.5	14.1	1.27e-04	0	42	0	1126170624	18	4202
2026-01-13 00:22:26.39	191.88	18.42	-29.0	-29.9	14.5	1.56e-04	0	42	0	1128267776	18	4016
2026-01-13 00:22:27.39	191.91	18.30	-28.9	-29.8	14.6	2.94e-04	0	42	0	1130364928	18	3984
2026-01-13 00:22:28.40	191.94	18.17	-28.9	-29.7	14.6	1.30e-04	0	42	0	1132462080	18	3959
2026-01-13 00:22:29.41	191.96	18.05	-28.8	-30.1	14.7	3.52e-04	0	42	0	1133510656	17	4155
2026-01-13 00:22:30.41	191.99	17.93	-28.8	-30.1	14.6	5.72e-04	0	42	0	1135607808	17	4171
2026-01-13 00:22:31.42	192.02	17.81	-28.9	-30.3	14.5	0.00e+00	0	42	0	1137704960	17	4235
2026-01-13 00:22:32.42	192.05	17.69	-28.9	-30.2	14.6	5.57e-04	0	42	0	1139802112	17	4180
2026-01-13 00:22:33.43	192.07	17.57	-28.8	-30.0	14.7	8.78e-04	0	42	0	1141899264	17	4137
2026-01-13 00:22:34.44	192.10	17.45	-28.8	-30.2	14.6	0.00e+00	0	42	0	1142947840	17	4186
2026-01-13 00:22:35.44	192.13	17.33	-29.1	-30.3	14.2	1.50e-06	0	42	0	1145044992	18	4124
2026-01-13 00:22:36.44	192.15	17.22	-29.2	-30.5	14.1	9.12e-04	0	42	0	1147142144	18	4177
2026-01-13 00:22:37.45	192.18	17.10	-29.1	-30.3	14.2	1.11e-04	0	42	0	1149239296	18	4136
2026-01-13 00:22:38.45	192.21	16.98	-29.2	-30.4	14.1	7.00e-07	0	42	0	1151336448	18	4164
2026-01-13 00:22:39.46	192.23	16.87	-29.1	-30.4	14.2	9.99e-04	0	42	0	1152385024	18	4163
2026-01-13 00:22:40.47	192.26	16.75	-29.1	-30.3	14.2	5.41e-05	0	42	0	1154482176	18	4131
2026-01-13 00:22:41.47	192.28	16.64	-29.2	-30.6	14.0	3.80e-06	0	42	0	1156579328	18	4206
2026-01-13 00:22:42.48	192.31	16.52	-29.1	-30.3	14.2	2.20e-06	0	42	0	1158676480	18	4124
2026-01-13 00:22:43.48	192.34	16.41	-29.1	-30.4	14.1	4.95e-05	0	42	0	1160773632	18	4165
2026-01-13 00:22:44.49	192.36	16.29	-29.2	-30.7	14.0	1.50e-06	0	42	0	1161822208	18	4248
2026-01-13 00:22:45.49	192.39	16.18	-29.3	-30.8	13.8	2.20e-06	0	42	0	1163919360	18	4297
2026-01-13 00:22:46.49	192.41	16.07	-29.3	-30.8	13.8	3.80e-06	0	42	0	1166016512	18	4295
2026-01-13 00:22:47.50	192.44	15.96	-29.4	-31.1	13.6	9.75e-04	0	42	0	1168113664	18	4387
2026-01-13 00:22:48.50	192.46	15.85	-29.3	-30.9	13.8	3.80e-06	0	42	0	1169162240	18	4319
2026-01-13 00:22:49.51	192.48	15.74	-29.3	-31.0	13.7	3.80e-06	0	42	0	1171259392	18	4346
2026-01-13 00:22:50.51	192.51	15.63	-29.4	-30.5	13.7	1.05e-03	0	42	0	1173356544	19	4109
2026-01-13 00:22:51.51	192.53	15.52	-29.4	-31.0	13.6	4.50e-06	0	42	0	1175453696	18	4357
2026-01-13 00:22:52.52	192.56	15.41	-29.3	-31.0	13.7	7.60e-06	0	42	0	1177550848	18	4343
2026-01-13 00:22:53.52	192.58	15.30	-29.4	-31.1	13.6	2.20e-06	0	42	0	1179648000	18	4395
2026-01-13 00:22:54.53	192.60	15.19	-29.5	-31.0	13.4	1.10e-04	0	42	0	1180696576	19	4247
2026-01-13 00:22:55.53	192.63	15.08	-29.5	-30.9	13.5	1.44e-05	0	42	0	1182793728	19	4235
2026-01-13 00:22:56.54	192.65	14.98	-29.5	-30.8	13.5	1.22e-05	0	42	0	1184890880	19	4211
2026-01-13 00:22:57.54	192.67	14.87	-29.5	-31.0	13.3	1.15e-03	0	42	0	1186988032	19	4270
2026-01-13 00:22:58.55	192.70	14.76	-29.6	-31.2	13.2	2.05e-05	0	42	0	1188036608	19	4338
2026-01-13 00:22:59.56	192.72	14.66	-29.7	-31.3	13.1	1.44e-05	0	42	0	1190133760	19	4373
2026-01-13 00:23:00.57	192.74	14.55	-29.7	-31.5	13.0	3.73e-05	0	42	0	1192230912	19	4440
2026-01-13 00:23:01.57	192.77	14.45	-29.7	-31.5	13.0	4.27e-05	0	42	0	1194328064	19	4412
2026-01-13 00:23:02.58	192.79	14.34	-29.8	-31.7	12.8	4.19e-05	0	42	0	1196425216	19	4503
2026-01-13 00:23:03.59	192.81	14.24	-29.7	-31.6	12.9	5.79e-05	0	42	0	1197473792	19	4455
2026-01-13 00:23:04.59	192.83	14.13	-29.7	-31.6	12.9	5.49e-05	0	42	0	1199570944	19	4466
2026-01-13 00:23:05.59	192.86	14.03	-29.9	-32.0	12.6	2.32e-04	0	42	0	1201668096	19	4596
2026-01-13 00:23:06.60	192.88	13.93	-29.9	-32.0	12.6	8.69e-05	0	42	0	1203765248	19	4598
2026-01-13 00:23:07.61	192.90	13.83	-29.9	-32.0	12.6	7.09e-05	0	42	0	1205862400	19	4591
2026-01-13 00:23:08.61	192.92	13.72	-29.1	-31.4	12.5	1.76e-04	0	42	0	1207959552	19	4661
2026-01-13 00:23:09.62	192.94	13.62	-29.9	-31.5	12.4	1.33e-04	0	42	0	1209008128	20	4370
2026-01-13 00:23:10.62	192.96	13.52	-30.0	-32.0	11.7	1.43e-04	0	42	0	1211105280	20	4519
2026-01-13 00:23:11.63	192.99	13.42	-30.0	-32.0	11.8	3.92e-04	0	42	0	1213202432	20	4516
2026-01-13 00:23:12.63	193.01	13.32	-30.1	-32.4	11.9	4.02e-04	0	42	0	1215299584	20	4648
2026-01-13 00:23:13.64	193.03	13.22	-30.1	-32.2	11.8	5.61e-04	0	42	0	1216348160	20	4610
2026-01-13 00:23:14.65	193.05	13.12	-29.9	-31.8	12.2	1.53e-03	0	42	0	1218445312	20	4444
2026-01-13 00:23:15.65	193.07	13.02	-29.9	-31.7	12.3	2.49e-04	0	42	0	1220542464	20	4437
2026-01-13 00:23:16.67	193.09	12.92	-29.9	-32.2	12.4	1.85e-04	0	42	0	1222639616	19	4683
2026-01-13 00:23:17.67	193.11	12.82	-29.7	-31.6	12.8	1.42e-03	0	42	0	1224736768	19	4456
2026-01-13 00:23:18.68	193.13	12.73	-29.8	-31.7	12.7	1.46e-04	0	42	0	1225785344	19	4503
2026-01-13 00:23:19.69	193.15	12.63	-29.6	-31.4	13.0	4.19e-05	0	42	0	1227882496	19	4391
2026-01-13 00:23:20.69	193.17	12.53	-29.5	-30.9	13.2	2.44e-05	0	42	0	1229979648	19	4248
2026-01-13 00:23:21.70	193.19	12.43	-29.6	-31.2	13.0	6.94e-05	0	42	0	1232076800	19	4345
2026-01-13 00:23:22.70	193.21	12.34	-29.6	-31.2	13.0	4.11e-05	0	42	0	1234173952	19	4354
2026-01-13 00:23:23.71	193.23	12.24	-29.5	-31.1	13.1	7.09e-05	0	42	0	1235222528	19	4313
2026-01-13 00:23:24.72	193.25	12.15	-29.5	-31.0	13.1	1.54e-04	0	42	0	1237319680	19	4297
2026-01-13 00:23:25.72	193.27	12.05	-29.6	-31.2	13.0	1.34e-03	0	42	0	1239416832	19	4327
2026-01-13 00:23:26.73	193.29	11.96	-29.5	-31.1	13.1	8.77e-05	0	42	0	1241513984	19	4318
2026-01-13 00:23:27.74	193.31	11.86	-29.6	-31.4	12.9	1.49e-04	0	42	0	1243611136	19	4405
2026-01-13 00:23:28.74	193.33	11.77	-29.6	-31.3	12.9	1.66e-03	0	42	0	1244659712	19	4379
2026-01-13 00:23:29.75	193.35	11.67	-29.6	-31.3	13.0	9.46e-05	0	42	0	1246756864	19	4392
2026-01-13 00:23:30.75	193.37	11.58	-29.5	-30.9	13.1	4.80e-05	0	42	0	1248854016	19	4259
2026-01-13 00:23:31.76	193.39	11.49	-29.6	-31.4	12.9	1.80e-03	0	42	0	1250951168	19	4415
2026-01-13 00:23:32.77	193.41	11.39	-29.6	-31.4	12.8	1.99e-03	0	42	0	1253048320	19	4427
2026-01-13 00:23:33.78	193.43	11.30	-29.7	-31.6	12.7	7.40e-05	0	42	0	1254096896	19	4467
2026-01-13 00:23:34.79	193.45	11.21	-29.6	-31.3	12.9	1.81e-03	0	42	0	1256194048	19	4368
2026-01-13 00:23:35.79	193.47	11.12	-29.7	-31.7	12.6	1.84e-03	0	42	0	1258291200	19	4503
2026-01-13 00:23:36.79	193.48	11.03	-29.6	-31.4	12.8	1.59e-04	0	42	0	1260388352	19	4425
2026-01-13 00:23:37.79	193.50	10.94	-29.8	-31.8	12.5	1.83e-03	0	42	0	1262485504	19	4558
2026-01-13 00:23:38.80	193.52	10.85	-29.8	-31.9	12.5	2.08e-03	0	42	0	1263534080	19	4600
2026-01-13 00:23:39.80	193.54	10.76	-29.8	-32.0	12.4	2.50e-04	0	42	0	1265631232	19	4613
2026-01-13 00:23:40.81	193.56	10.67	-29.8	-31.9	12.5	1.78e-04	0	42	0	1267728384	19	4590
2026-01-13 00:23:41.82	193.58	10.58	-29.9	-32.2	12.2	2.05e-03	0	42	0	1269825536	19	4702
2026-01-13 00:23:42.83	193.59	10.49	-29.8	-31.9	12.4	2.12e-04	0	42	0	1271922688	19	4593
2026-01-13 00:23:43.83	193.61	10.40	-29.9	-32.1	12.3	2.01e-03	0	42	0	1272971264	19	4655
2026-01-13 00:23:44.83	193.63	10.31	-29.8	-31.9	12.5	1.90e-03	0	42	0	1275068416	19	4579
2026-01-13 00:23:45.84	193.65	10.22	-29.9	-32.1	12.3	1.69e-04	0	42	0	1277165568	19	4656
2026-01-13 00:23:46.84	193.67	10.13	-29.8	-31.9	12.4	2.15e-03	0	42	0	1279262720	19	4590
2026-01-13 00:23:47.86	193.68	10.04	-29.8	-31.8	12.4	1.30e-04	0	42	0	1281359872	19	4576
2026-01-13 00:23:48.86	193.70	9.96	-29.9	-32.2	12.2	2.01e-04	0	42	0	1282408448	19	4713
2026-01-13 00:23:49.87	193.72	9.87	-29.8	-32.0	12.3	2.14e-03	0	42	0	1284505600	19	4635
2026-01-13 00:23:50.87	193.74	9.78	-30.0	-32.4	12.0	2.15e-03	0	42	0	1286602752	19	4783
2026-01-13 00:23:51.87	193.75	9.70	-29.9	-32.3	12.1	2.95e-04	0	42	0	1288699904	19	4735
2026-01-13 00:23:52.88	193.77	9.61	-29.8	-32.0	12.3	2.10e-03	0	42	0	1290797056	19	4639
