passes_logs/2026/01/13/R2M6_AANII_01/R2M6_AANII_01__20260113_012310_NOAA_21_JPSS-2_rec.log

#Pass ID: 20260113_012310_NOAA 21 (JPSS-2)
#Satellite: NOAA 21 (JPSS-2)
#Configuration: NOAA 21
#almurnet v.1.7.20240730
#Start time: 2026-01-13 01:23:14

#Version: 2.2.20231116
#Station: R2M6_AANII_01
#Location: 30.233357 lon 59.946436 lat
#TLE: 1 54234U 22150A   26012.26378519  .00000063  00000+0  50547-4 0  9993
#TLE: 2 54234  98.7495 313.1967 0000726 309.1075  51.0036 14.19534275164425

#Time	Az	El	Level	Level2	SNR	BER	BlckErr	Temp	State	Recorded	gain1	gain2
2026-01-13 01:23:14.82	13.19	7.34	-34.0	-46.2	3.8	1.49e+00	0	42	0	0	27	14809
2026-01-13 01:23:15.81	13.14	7.42	-33.9	-45.7	3.8	1.49e+00	0	42	104	0	28	13991
2026-01-13 01:23:16.82	13.09	7.49	-34.0	-45.7	3.8	1.49e+00	0	42	104	0	28	13935
2026-01-13 01:23:17.83	13.03	7.57	-33.9	-45.7	3.8	1.49e+00	0	42	104	0	28	13988
2026-01-13 01:23:18.83	12.98	7.64	-33.9	-45.7	3.8	1.49e+00	0	42	104	0	28	13928
2026-01-13 01:23:19.84	12.93	7.72	-33.9	-45.7	3.8	1.49e+00	0	42	104	0	28	13944
2026-01-13 01:23:20.84	12.87	7.79	-33.9	-45.6	3.8	1.49e+00	0	42	104	0	28	13923
2026-01-13 01:23:21.84	12.82	7.87	-34.0	-46.3	3.8	1.49e+00	0	42	104	0	27	14855
2026-01-13 01:23:22.85	12.77	7.94	-34.0	-46.3	3.8	1.49e+00	0	42	104	0	27	14887
2026-01-13 01:23:23.86	12.71	8.02	-34.0	-46.3	3.8	1.49e+00	0	42	104	0	27	14851
2026-01-13 01:23:24.86	12.66	8.09	-34.0	-46.3	3.8	1.49e+00	0	42	104	0	27	14820
2026-01-13 01:23:25.87	12.60	8.17	-34.0	-46.3	3.8	1.49e+00	0	42	104	0	27	14846
2026-01-13 01:23:26.87	12.55	8.25	-34.0	-46.3	3.8	1.49e+00	0	42	104	0	27	14828
2026-01-13 01:23:27.88	12.49	8.32	-34.0	-46.3	3.8	1.49e+00	0	42	104	0	27	14844
2026-01-13 01:23:28.89	12.43	8.40	-34.0	-46.2	3.8	1.49e+00	0	42	104	0	27	14808
2026-01-13 01:23:29.90	12.38	8.48	-33.9	-45.7	3.8	1.49e+00	0	42	104	0	28	13972
2026-01-13 01:23:30.90	12.32	8.56	-34.0	-45.8	3.8	1.49e+00	0	42	104	0	28	14059
2026-01-13 01:23:31.91	12.26	8.63	-34.0	-45.8	3.8	1.49e+00	0	42	104	0	28	14004
2026-01-13 01:23:32.92	12.21	8.71	-34.0	-45.9	3.8	1.49e+00	0	42	104	0	28	14105
2026-01-13 01:23:33.93	12.15	8.79	-34.0	-45.8	3.8	1.49e+00	0	42	104	0	28	14050
2026-01-13 01:23:34.93	12.09	8.87	-34.0	-45.8	3.8	1.49e+00	0	42	104	0	28	14066
2026-01-13 01:23:35.94	12.03	8.95	-34.0	-45.8	3.8	1.49e+00	0	42	104	0	28	14109
2026-01-13 01:23:36.94	11.97	9.02	-34.0	-45.8	3.8	1.49e+00	0	42	104	0	28	14045
2026-01-13 01:23:37.94	11.91	9.10	-34.0	-45.8	3.8	1.49e+00	0	42	104	0	28	14005
2026-01-13 01:23:38.94	11.85	9.18	-33.9	-45.7	3.8	1.49e+00	0	42	104	0	28	13982
2026-01-13 01:23:39.95	11.79	9.26	-33.9	-45.7	3.8	1.49e+00	0	42	104	0	28	13932
2026-01-13 01:23:40.96	11.73	9.34	-33.9	-45.6	3.8	1.49e+00	0	42	104	0	28	13837
2026-01-13 01:23:41.97	11.67	9.42	-33.8	-45.5	3.8	1.49e+00	0	42	104	0	28	13766
2026-01-13 01:23:42.97	11.61	9.50	-33.9	-46.1	3.8	1.49e+00	0	42	104	0	27	14656
2026-01-13 01:23:43.98	11.55	9.58	-33.8	-45.8	3.8	1.49e+00	0	42	104	0	27	14454
2026-01-13 01:23:44.99	11.49	9.66	-33.7	-45.7	3.8	1.49e+00	0	42	104	0	27	14324
2026-01-13 01:23:46.00	11.43	9.74	-33.5	-45.4	3.8	1.49e+00	0	42	104	0	27	14093
2026-01-13 01:23:47.01	11.37	9.82	-33.3	-45.3	3.8	1.49e+00	0	42	104	0	26	14313
2026-01-13 01:23:48.01	11.30	9.90	-32.9	-42.8	4.0	1.47e+00	0	42	104	0	25	11310
2026-01-13 01:23:49.02	11.24	9.98	-33.0	-44.0	3.8	1.49e+00	0	42	104	0	25	12748
2026-01-13 01:23:50.02	11.18	10.07	-33.1	-44.3	3.8	1.49e+00	0	42	104	0	26	13025
2026-01-13 01:23:51.02	11.11	10.15	-33.1	-44.8	3.8	1.49e+00	0	42	104	0	26	13744
2026-01-13 01:23:52.03	11.05	10.23	-33.2	-44.9	3.8	1.49e+00	0	42	104	0	26	13937
2026-01-13 01:23:53.04	10.99	10.31	-33.1	-44.3	3.8	1.49e+00	0	42	104	0	26	13112
2026-01-13 01:23:54.04	10.92	10.39	-32.9	-43.0	3.9	1.49e+00	0	42	104	0	26	11428
2026-01-13 01:23:55.05	10.86	10.48	-32.7	-41.2	4.3	1.46e+00	0	42	104	0	25	9632
2026-01-13 01:23:56.06	10.79	10.56	-32.4	-40.1	4.1	1.47e+00	0	42	104	0	25	8721
2026-01-13 01:23:57.07	10.72	10.64	-32.0	-38.0	6.0	3.96e-01	0	42	0	0	24	7131
2026-01-13 01:23:58.07	10.66	10.73	-31.7	-36.9	7.0	1.84e-01	0	42	0	3145728	23	6575
2026-01-13 01:23:59.08	10.59	10.81	-31.4	-36.0	7.6	1.03e-01	0	42	0	6291456	23	6084
2026-01-13 01:24:00.09	10.52	10.89	-31.0	-34.9	8.7	4.70e-02	0	42	0	9437184	22	5683
2026-01-13 01:24:01.09	10.46	10.98	-30.6	-34.5	9.3	2.08e-02	0	42	0	12582912	21	5585
2026-01-13 01:24:02.10	10.39	11.06	-30.4	-33.8	9.8	1.11e-02	0	42	0	15728640	21	5328
2026-01-13 01:24:03.11	10.32	11.15	-30.3	-33.9	10.0	7.96e-03	0	42	0	18874368	20	5471
2026-01-13 01:24:04.11	10.25	11.23	-30.3	-33.9	10.1	7.04e-03	0	42	0	22020096	20	5446
2026-01-13 01:24:05.12	10.18	11.32	-29.4	-33.2	10.0	7.59e-03	0	42	0	24117248	20	5541
2026-01-13 01:24:06.13	10.11	11.40	-30.2	-33.6	10.3	7.36e-03	0	42	0	28311552	20	5336
2026-01-13 01:24:07.12	10.04	11.49	-30.1	-33.3	10.6	4.05e-03	0	42	0	31457280	20	5195
2026-01-13 01:24:08.13	9.97	11.57	-30.1	-33.4	10.5	4.02e-03	0	42	0	34603008	20	5239
2026-01-13 01:24:09.13	9.90	11.66	-30.2	-33.7	10.3	1.01e-02	0	42	0	37748736	20	5365
2026-01-13 01:24:10.14	9.83	11.75	-30.0	-33.0	10.8	3.41e-03	0	42	0	40894464	20	5083
2026-01-13 01:24:11.14	9.76	11.83	-29.8	-33.1	11.1	1.79e-03	0	42	0	44040192	19	5218
2026-01-13 01:24:12.15	9.68	11.92	-29.8	-32.9	11.2	1.26e-03	0	42	0	47185920	19	5158
2026-01-13 01:24:13.16	9.61	12.01	-30.0	-33.4	10.9	1.75e-03	0	42	0	49283072	19	5346
2026-01-13 01:24:14.17	9.54	12.10	-30.2	-33.6	10.3	1.00e-02	0	42	0	52428800	20	5331
2026-01-13 01:24:15.17	9.46	12.18	-29.8	-32.8	11.3	5.63e-03	0	42	0	56623104	19	5125
2026-01-13 01:24:16.18	9.39	12.27	-29.2	-31.4	12.2	6.29e-04	0	42	0	59768832	19	4640
2026-01-13 01:24:17.19	9.31	12.36	-28.8	-31.4	12.8	1.13e-04	0	42	0	62914560	17	4852
2026-01-13 01:24:18.20	9.24	12.45	-28.4	-30.9	13.5	4.41e-03	0	42	0	66060288	16	4775
2026-01-13 01:24:19.20	9.16	12.54	-28.0	-29.8	14.1	3.65e-04	0	42	0	69206016	16	4456
2026-01-13 01:24:20.21	9.09	12.63	-27.5	-29.4	14.5	4.43e-03	0	42	0	71303168	15	4439
2026-01-13 01:24:21.21	9.01	12.71	-27.4	-29.6	14.7	4.18e-03	0	42	0	74448896	14	4617
2026-01-13 01:24:22.22	8.93	12.80	-27.3	-29.3	14.9	3.62e-04	0	42	0	78643200	14	4519
2026-01-13 01:24:23.23	8.86	12.89	-27.4	-29.6	14.7	4.14e-03	0	42	0	81788928	14	4609
2026-01-13 01:24:24.24	8.78	12.99	-27.5	-29.7	14.6	3.73e-03	0	42	0	84934656	14	4659
2026-01-13 01:24:25.24	8.70	13.08	-27.5	-29.4	14.6	3.36e-04	0	42	0	88080384	15	4436
2026-01-13 01:24:26.25	8.62	13.17	-27.5	-29.3	14.6	3.99e-03	0	42	0	91226112	15	4422
2026-01-13 01:24:27.25	8.54	13.26	-27.6	-29.5	14.5	4.41e-03	0	42	0	94371840	15	4469
2026-01-13 01:24:28.26	8.46	13.35	-27.5	-29.2	14.6	1.50e-06	0	42	0	96468992	15	4393
2026-01-13 01:24:29.26	8.38	13.44	-27.5	-29.2	14.6	4.46e-03	0	42	0	99614720	15	4403
2026-01-13 01:24:30.27	8.30	13.53	-27.5	-29.7	14.6	4.34e-03	0	42	0	102760448	14	4648
2026-01-13 01:24:31.27	8.22	13.62	-27.6	-29.5	14.5	3.02e-04	0	42	0	106954752	15	4467
2026-01-13 01:24:32.27	8.14	13.71	-27.3	-29.4	14.8	4.23e-03	0	42	0	110100480	14	4550
2026-01-13 01:24:33.28	8.05	13.81	-27.3	-29.2	15.0	0.00e+00	0	42	0	113246208	14	4491
2026-01-13 01:24:34.29	7.97	13.90	-27.4	-29.4	14.8	0.00e+00	0	42	0	116391936	14	4561
2026-01-13 01:24:35.29	7.89	13.99	-27.5	-29.1	14.7	4.15e-03	0	42	0	118489088	15	4364
2026-01-13 01:24:36.30	7.80	14.09	-27.2	-29.1	15.0	4.36e-03	0	42	0	121634816	14	4479
2026-01-13 01:24:37.31	7.72	14.18	-27.2	-29.0	15.1	5.34e-05	0	42	0	124780544	14	4440
2026-01-13 01:24:38.32	7.63	14.28	-27.2	-29.1	15.0	0.00e+00	0	42	0	127926272	14	4480
2026-01-13 01:24:39.32	7.54	14.37	-27.1	-28.9	15.1	0.00e+00	0	42	0	132120576	14	4415
2026-01-13 01:24:40.32	7.46	14.47	-27.2	-29.0	15.1	0.00e+00	0	42	0	135266304	14	4425
2026-01-13 01:24:41.33	7.37	14.56	-27.2	-29.0	15.1	0.00e+00	0	42	0	138412032	14	4425
2026-01-13 01:24:42.33	7.28	14.66	-27.1	-28.9	15.2	0.00e+00	0	42	0	141557760	14	4393
2026-01-13 01:24:43.34	7.19	14.75	-27.1	-28.9	15.2	0.00e+00	0	42	0	143654912	14	4410
2026-01-13 01:24:44.35	7.11	14.85	-27.2	-29.1	15.0	0.00e+00	0	42	0	146800640	14	4467
2026-01-13 01:24:45.35	7.02	14.94	-27.3	-29.3	14.9	0.00e+00	0	42	0	149946368	14	4510
2026-01-13 01:24:46.36	6.93	15.04	-27.3	-29.2	15.0	7.00e-07	0	42	0	153092096	14	4505
2026-01-13 01:24:47.36	6.84	15.14	-27.4	-29.6	14.8	1.50e-06	0	42	0	156237824	14	4601
2026-01-13 01:24:48.36	6.74	15.23	-27.3	-29.2	15.0	0.00e+00	0	42	0	159383552	14	4496
2026-01-13 01:24:49.36	6.65	15.33	-27.3	-29.1	15.0	0.00e+00	0	42	0	162529280	14	4479
2026-01-13 01:24:50.36	6.56	15.43	-27.2	-29.1	15.1	7.00e-07	0	42	0	165675008	14	4476
2026-01-13 01:24:51.37	6.47	15.53	-27.3	-29.3	14.9	0.00e+00	0	42	0	168820736	14	4539
2026-01-13 01:24:52.38	6.37	15.63	-27.4	-29.4	14.9	0.00e+00	0	42	0	171966464	14	4567
2026-01-13 01:24:53.38	6.28	15.72	-27.3	-29.3	14.9	0.00e+00	0	42	0	175112192	14	4540
2026-01-13 01:24:54.39	6.18	15.82	-27.4	-29.5	14.9	0.00e+00	0	42	0	178257920	14	4576
2026-01-13 01:24:55.40	6.09	15.92	-27.4	-29.5	14.8	0.00e+00	0	42	0	181403648	14	4594
2026-01-13 01:24:56.41	5.99	16.02	-27.4	-29.5	14.9	7.00e-07	0	42	0	184549376	14	4569
2026-01-13 01:24:57.41	5.89	16.12	-27.4	-29.6	14.8	0.00e+00	0	42	0	187695104	14	4607
2026-01-13 01:24:58.42	5.80	16.22	-27.3	-29.3	15.0	0.00e+00	0	42	0	190840832	14	4538
2026-01-13 01:24:59.42	5.70	16.32	-27.5	-29.6	14.8	2.93e-04	0	42	0	193986560	14	4621
2026-01-13 01:25:00.43	5.60	16.43	-27.5	-29.3	14.7	7.00e-07	0	42	0	197132288	15	4403
2026-01-13 01:25:01.44	5.50	16.53	-27.6	-29.4	14.7	0.00e+00	0	42	0	200278016	15	4439
2026-01-13 01:25:02.44	5.40	16.63	-27.5	-29.3	14.7	0.00e+00	0	42	0	203423744	15	4419
2026-01-13 01:25:03.45	5.30	16.73	-27.6	-29.4	14.7	7.00e-07	0	42	0	206569472	15	4440
2026-01-13 01:25:04.46	5.19	16.83	-27.6	-29.4	14.7	0.00e+00	0	42	0	209715200	15	4442
2026-01-13 01:25:05.46	5.09	16.94	-27.5	-29.3	14.8	0.00e+00	0	42	0	212860928	15	4401
2026-01-13 01:25:06.46	4.99	17.04	-27.5	-29.3	14.8	7.00e-07	0	42	0	216006656	15	4398
2026-01-13 01:25:07.47	4.88	17.14	-27.7	-29.6	14.6	0.00e+00	0	42	0	219152384	15	4501
2026-01-13 01:25:08.47	4.78	17.24	-27.7	-29.7	14.5	0.00e+00	0	42	0	222298112	15	4525
2026-01-13 01:25:09.47	4.67	17.35	-27.6	-29.5	14.7	2.20e-04	0	42	0	225443840	15	4457
2026-01-13 01:25:10.48	4.57	17.45	-27.6	-29.3	14.7	0.00e+00	0	42	0	228589568	15	4418
2026-01-13 01:25:11.48	4.46	17.56	-27.6	-29.4	14.7	1.06e-05	0	42	0	231735296	15	4443
2026-01-13 01:25:12.49	4.35	17.66	-27.6	-29.5	14.6	0.00e+00	0	42	0	234881024	15	4483
2026-01-13 01:25:13.49	4.24	17.77	-27.7	-29.6	14.6	1.50e-06	0	42	0	238026752	15	4500
2026-01-13 01:25:14.49	4.13	17.87	-27.7	-29.7	14.5	7.00e-07	0	42	0	241172480	15	4542
2026-01-13 01:25:15.49	4.02	17.98	-27.6	-29.4	14.7	0.00e+00	0	42	0	244318208	15	4438
2026-01-13 01:25:16.50	3.91	18.09	-27.6	-29.5	14.7	7.00e-07	0	42	0	247463936	15	4465
2026-01-13 01:25:17.51	3.80	18.19	-27.7	-29.6	14.7	1.50e-06	0	42	0	250609664	15	4483
2026-01-13 01:25:18.51	3.69	18.30	-27.6	-29.4	14.7	0.00e+00	0	42	0	253755392	15	4445
2026-01-13 01:25:19.52	3.57	18.41	-27.6	-29.4	14.7	0.00e+00	0	42	0	256901120	15	4437
2026-01-13 01:25:20.53	3.46	18.52	-27.5	-29.3	14.8	0.00e+00	0	42	0	260046848	15	4408
2026-01-13 01:25:21.53	3.34	18.62	-27.6	-29.5	14.7	0.00e+00	0	42	0	263192576	15	4457
2026-01-13 01:25:22.54	3.23	18.73	-27.6	-29.3	14.8	0.00e+00	0	42	0	266338304	15	4409
2026-01-13 01:25:23.54	3.11	18.84	-27.3	-28.8	15.1	0.00e+00	0	42	0	269484032	15	4262
2026-01-13 01:25:24.55	2.99	18.95	-27.3	-29.3	15.1	0.00e+00	0	42	0	272629760	14	4525
2026-01-13 01:25:25.56	2.87	19.06	-27.4	-29.4	15.0	0.00e+00	0	42	0	275775488	14	4558
2026-01-13 01:25:26.57	2.75	19.17	-27.4	-29.5	15.0	0.00e+00	0	42	0	278921216	14	4571
2026-01-13 01:25:27.57	2.63	19.28	-27.5	-29.1	14.9	0.00e+00	0	42	0	282066944	15	4351
2026-01-13 01:25:28.58	2.51	19.39	-27.6	-29.5	14.8	6.17e-05	0	42	0	285212672	15	4455
2026-01-13 01:25:29.59	2.39	19.50	-27.6	-29.5	14.8	4.53e-03	0	42	0	288358400	15	4451
2026-01-13 01:25:30.60	2.26	19.61	-27.4	-29.0	15.0	0.00e+00	0	42	0	291504128	15	4327
2026-01-13 01:25:31.60	2.14	19.73	-27.3	-29.3	15.1	7.00e-07	0	42	0	294649856	14	4528
2026-01-13 01:25:32.61	2.02	19.84	-27.3	-29.3	15.2	0.00e+00	0	42	0	297795584	14	4504
2026-01-13 01:25:33.62	1.89	19.95	-27.3	-29.3	15.2	2.48e-04	0	42	0	300941312	14	4502
2026-01-13 01:25:34.63	1.76	20.06	-27.1	-28.8	15.4	4.27e-03	0	42	0	304087040	14	4382
2026-01-13 01:25:35.64	1.63	20.18	-27.1	-28.8	15.5	3.96e-03	0	42	0	307232768	14	4357
2026-01-13 01:25:36.64	1.50	20.29	-27.0	-28.5	15.6	0.00e+00	0	42	0	310378496	14	4284
2026-01-13 01:25:37.65	1.37	20.41	-26.8	-28.6	15.8	0.00e+00	0	42	0	313524224	13	4431
2026-01-13 01:25:38.66	1.24	20.52	-26.7	-28.3	16.0	4.34e-03	0	42	0	316669952	13	4335
2026-01-13 01:25:39.66	1.11	20.63	-26.6	-28.2	16.1	1.80e-04	0	42	0	319815680	13	4309
2026-01-13 01:25:40.67	0.98	20.75	-26.5	-27.9	16.2	4.39e-03	0	42	0	322961408	13	4232
2026-01-13 01:25:41.67	0.84	20.86	-26.4	-28.1	16.4	4.23e-03	0	42	0	326107136	12	4408
2026-01-13 01:25:42.67	0.71	20.98	-26.3	-28.0	16.4	2.63e-04	0	42	0	329252864	12	4376
2026-01-13 01:25:43.68	0.57	21.10	-26.3	-28.1	16.4	4.26e-03	0	42	0	332398592	12	4390
2026-01-13 01:25:44.69	0.44	21.21	-26.3	-27.9	16.5	3.88e-03	0	42	0	335544320	12	4333
2026-01-13 01:25:45.70	0.30	21.33	-26.3	-27.9	16.5	3.00e-04	0	42	0	338690048	12	4341
2026-01-13 01:25:46.71	0.16	21.45	-26.1	-27.6	16.6	3.83e-03	0	42	0	341835776	12	4278
2026-01-13 01:25:47.71	0.02	21.56	-26.1	-27.6	16.6	1.33e-03	0	42	0	344981504	12	4252
2026-01-13 01:25:48.72	359.87	21.68	-26.1	-27.5	16.7	0.00e+00	0	42	0	348127232	12	4244
2026-01-13 01:25:49.73	359.73	21.80	-26.3	-27.9	16.4	4.27e-03	0	42	0	351272960	12	4356
2026-01-13 01:25:50.73	359.59	21.92	-26.2	-27.8	16.5	4.05e-03	0	42	0	354418688	12	4326
2026-01-13 01:25:51.74	359.44	22.04	-26.2	-27.8	16.6	2.97e-04	0	42	0	357564416	12	4319
2026-01-13 01:25:52.74	359.30	22.16	-26.3	-27.9	16.5	0.00e+00	0	42	0	360710144	12	4341
2026-01-13 01:25:53.75	359.15	22.28	-26.3	-27.9	16.5	0.00e+00	0	42	0	363855872	12	4339
2026-01-13 01:25:54.75	359.00	22.40	-26.1	-27.6	16.7	0.00e+00	0	42	0	367001600	12	4270
2026-01-13 01:25:55.76	358.85	22.52	-26.3	-27.9	16.5	3.67e-03	0	42	0	370147328	12	4357
2026-01-13 01:25:56.76	358.70	22.64	-26.3	-27.9	16.5	4.19e-03	0	42	0	373293056	12	4340
2026-01-13 01:25:57.77	358.55	22.76	-26.2	-27.8	16.5	0.00e+00	0	42	0	376438784	12	4319
2026-01-13 01:25:58.78	358.40	22.88	-26.3	-27.9	16.5	0.00e+00	0	42	0	379584512	12	4355
2026-01-13 01:25:59.78	358.24	23.00	-26.5	-28.3	16.3	0.00e+00	0	42	0	382730240	12	4471
2026-01-13 01:26:00.79	358.09	23.12	-26.4	-27.6	16.4	0.00e+00	0	42	0	385875968	13	4154
2026-01-13 01:26:01.80	357.93	23.25	-26.1	-27.6	16.7	4.06e-03	0	42	0	389021696	12	4248
2026-01-13 01:26:02.80	357.77	23.37	-26.1	-27.6	16.7	0.00e+00	0	42	0	392167424	12	4253
2026-01-13 01:26:03.80	357.61	23.49	-26.1	-27.6	16.7	0.00e+00	0	42	0	395313152	12	4260
2026-01-13 01:26:04.81	357.45	23.62	-26.0	-27.3	16.8	0.00e+00	0	42	0	398458880	12	4181
2026-01-13 01:26:05.81	357.29	23.74	-26.0	-27.4	16.8	0.00e+00	0	42	0	401604608	12	4206
2026-01-13 01:26:06.82	357.13	23.86	-26.1	-27.4	16.8	3.80e-06	0	42	0	404750336	12	4209
2026-01-13 01:26:07.82	356.96	23.99	-26.2	-27.7	16.6	0.00e+00	0	42	0	407896064	12	4299
2026-01-13 01:26:08.82	356.80	24.11	-26.2	-27.7	16.6	0.00e+00	0	42	0	411041792	12	4290
2026-01-13 01:26:09.83	356.63	24.24	-26.2	-27.7	16.6	0.00e+00	0	42	0	414187520	12	4295
2026-01-13 01:26:10.83	356.46	24.36	-26.4	-28.3	16.3	0.00e+00	0	42	0	417333248	12	4447
2026-01-13 01:26:11.83	356.29	24.49	-26.3	-28.0	16.5	0.00e+00	0	42	0	420478976	12	4370
2026-01-13 01:26:12.83	356.12	24.61	-26.2	-27.7	16.6	0.00e+00	0	42	0	423624704	12	4292
2026-01-13 01:26:13.83	355.95	24.74	-26.2	-27.6	16.7	0.00e+00	0	42	0	426770432	12	4266
2026-01-13 01:26:14.83	355.78	24.87	-26.3	-27.9	16.6	0.00e+00	0	42	0	429916160	12	4335
2026-01-13 01:26:15.84	355.60	24.99	-26.3	-27.9	16.6	0.00e+00	0	42	0	433061888	12	4329
2026-01-13 01:26:16.84	355.43	25.12	-26.4	-28.1	16.5	0.00e+00	0	42	0	436207616	12	4381
2026-01-13 01:26:17.85	355.25	25.25	-26.4	-28.2	16.4	0.00e+00	0	42	0	439353344	12	4426
2026-01-13 01:26:18.86	355.07	25.38	-26.4	-28.2	16.4	0.00e+00	0	42	0	442499072	12	4420
2026-01-13 01:26:19.87	354.88	25.51	-26.5	-27.9	16.3	0.00e+00	0	42	0	445644800	13	4234
2026-01-13 01:26:20.87	354.70	25.63	-26.9	-28.7	15.9	0.00e+00	0	42	0	448790528	13	4448
2026-01-13 01:26:21.87	354.52	25.76	-26.8	-28.5	16.0	0.00e+00	0	42	0	451936256	13	4386
2026-01-13 01:26:22.88	354.33	25.89	-26.9	-28.8	15.8	0.00e+00	0	42	0	455081984	13	4463
2026-01-13 01:26:23.88	354.15	26.02	-27.0	-28.9	15.8	0.00e+00	0	42	0	458227712	13	4515
2026-01-13 01:26:24.89	353.96	26.15	-27.1	-28.8	15.6	0.00e+00	0	42	0	461373440	14	4379
2026-01-13 01:26:25.89	353.77	26.28	-27.4	-29.3	15.3	0.00e+00	0	42	0	464519168	14	4517
2026-01-13 01:26:26.89	353.57	26.41	-27.3	-29.2	15.4	0.00e+00	0	42	0	467664896	14	4466
2026-01-13 01:26:27.90	353.38	26.54	-27.2	-28.9	15.5	0.00e+00	0	42	0	470810624	14	4388
2026-01-13 01:26:28.91	353.18	26.67	-27.2	-29.0	15.5	7.00e-07	0	42	0	473956352	14	4423
2026-01-13 01:26:29.91	352.99	26.80	-27.2	-28.9	15.6	0.00e+00	0	42	0	477102080	14	4383
2026-01-13 01:26:30.92	352.79	26.93	-27.1	-28.7	15.7	0.00e+00	0	42	0	480247808	14	4323
2026-01-13 01:26:31.93	352.59	27.07	-27.1	-28.7	15.7	0.00e+00	0	42	0	483393536	14	4322
2026-01-13 01:26:32.93	352.38	27.20	-27.2	-28.9	15.5	0.00e+00	0	42	0	486539264	14	4380
2026-01-13 01:26:33.93	352.18	27.33	-27.5	-29.2	15.1	0.00e+00	0	42	0	489684992	15	4364
2026-01-13 01:26:34.94	351.98	27.46	-27.5	-29.1	15.2	0.00e+00	0	42	0	492830720	15	4330
2026-01-13 01:26:35.95	351.77	27.60	-27.5	-29.1	15.1	0.00e+00	0	42	0	495976448	15	4346
2026-01-13 01:26:36.95	351.56	27.73	-27.5	-29.1	15.1	0.00e+00	0	42	0	499122176	15	4344
2026-01-13 01:26:37.96	351.35	27.86	-27.3	-29.3	15.3	0.00e+00	0	42	0	502267904	14	4511
2026-01-13 01:26:38.96	351.14	27.99	-27.2	-29.0	15.5	0.00e+00	0	42	0	505413632	14	4431
2026-01-13 01:26:39.97	350.92	28.13	-27.1	-28.8	15.6	0.00e+00	0	42	0	508559360	14	4365
2026-01-13 01:26:40.97	350.70	28.26	-27.1	-28.8	15.6	0.00e+00	0	42	0	511705088	14	4351
2026-01-13 01:26:41.97	350.49	28.39	-27.0	-28.4	15.8	6.48e-05	0	42	0	514850816	14	4261
2026-01-13 01:26:42.98	350.27	28.53	-26.9	-28.2	16.0	0.00e+00	0	42	0	517996544	14	4193
2026-01-13 01:26:43.98	350.05	28.66	-26.9	-28.8	15.9	0.00e+00	0	42	0	521142272	13	4462
2026-01-13 01:26:44.99	349.82	28.80	-26.9	-28.9	15.8	0.00e+00	0	42	0	524288000	13	4494
2026-01-13 01:26:45.99	349.60	28.93	-26.9	-28.8	15.9	0.00e+00	0	42	0	527433728	13	4493
2026-01-13 01:26:47.00	349.37	29.06	-27.1	-28.7	15.7	1.62e-04	0	42	0	530579456	14	4334
2026-01-13 01:26:48.01	349.14	29.20	-27.2	-28.9	15.6	2.50e-04	0	42	0	533725184	14	4387
2026-01-13 01:26:49.01	348.91	29.33	-26.4	-27.9	15.9	0.00e+00	0	42	0	536870912	14	4251
2026-01-13 01:26:50.02	348.67	29.47	-26.7	-28.2	14.6	0.00e+00	0	42	0	540016640	13	4299
2026-01-13 01:26:51.02	348.44	29.60	-26.6	-28.2	16.2	0.00e+00	0	42	0	543162368	13	4297
2026-01-13 01:26:52.03	348.20	29.74	-26.7	-28.3	16.1	0.00e+00	0	42	0	546308096	13	4335
2026-01-13 01:26:53.03	347.96	29.87	-26.7	-28.2	16.2	4.54e-04	0	42	0	549453824	13	4310
2026-01-13 01:26:54.04	347.72	30.01	-26.7	-28.4	16.1	5.77e-04	0	42	0	552599552	13	4352
2026-01-13 01:26:55.04	347.48	30.14	-26.8	-28.5	16.0	5.12e-04	0	42	0	555745280	13	4388
2026-01-13 01:26:56.05	347.23	30.28	-26.8	-28.5	16.0	0.00e+00	0	42	0	558891008	13	4398
2026-01-13 01:26:57.06	346.98	30.42	-27.0	-28.9	15.8	3.08e-04	0	42	0	562036736	13	4511
2026-01-13 01:26:58.06	346.73	30.55	-26.7	-28.3	16.1	0.00e+00	0	42	0	565182464	13	4342
2026-01-13 01:26:59.07	346.48	30.69	-26.9	-28.8	15.9	3.62e-04	0	42	0	568328192	13	4479
2026-01-13 01:27:00.08	346.22	30.82	-26.8	-28.5	16.0	2.95e-04	0	42	0	571473920	13	4389
2026-01-13 01:27:01.08	345.97	30.96	-26.9	-28.7	16.0	8.69e-05	0	42	0	574619648	13	4434
2026-01-13 01:27:02.09	345.71	31.09	-27.0	-28.6	15.8	4.97e-04	0	42	0	577765376	14	4292
2026-01-13 01:27:03.09	345.45	31.23	-27.0	-28.6	15.7	5.07e-04	0	42	0	580911104	14	4308
2026-01-13 01:27:04.10	345.19	31.36	-27.2	-29.0	15.5	2.43e-03	0	42	0	584056832	14	4407
2026-01-13 01:27:05.10	344.92	31.50	-27.2	-29.0	15.5	3.06e-03	0	42	0	587202560	14	4424
2026-01-13 01:27:06.11	344.65	31.63	-27.3	-29.3	15.4	2.44e-04	0	42	0	590348288	14	4504
2026-01-13 01:27:07.11	344.39	31.77	-27.5	-29.2	15.1	3.11e-03	0	42	0	593494016	15	4367
2026-01-13 01:27:08.12	344.11	31.90	-27.3	-29.1	15.5	0.00e+00	0	42	0	596639744	14	4449
2026-01-13 01:27:09.13	343.84	32.04	-27.2	-29.0	15.5	7.00e-07	0	42	0	599785472	14	4411
2026-01-13 01:27:10.14	343.56	32.18	-27.3	-29.1	15.5	3.21e-03	0	42	0	602931200	14	4442
2026-01-13 01:27:11.14	343.28	32.31	-27.4	-29.4	15.3	3.11e-03	0	42	0	606076928	14	4536
2026-01-13 01:27:12.14	343.00	32.44	-27.5	-29.0	15.2	0.00e+00	0	42	0	609222656	15	4304
2026-01-13 01:27:13.15	342.72	32.58	-27.5	-29.2	15.2	0.00e+00	0	42	0	612368384	15	4362
2026-01-13 01:27:14.16	342.43	32.71	-27.7	-29.5	15.0	2.64e-03	0	42	0	615514112	15	4432
2026-01-13 01:27:15.16	342.14	32.85	-27.5	-29.1	15.2	6.56e-05	0	42	0	618659840	15	4342
2026-01-13 01:27:16.16	341.85	32.98	-27.7	-29.5	15.0	2.95e-03	0	42	0	621805568	15	4446
2026-01-13 01:27:17.17	341.56	33.11	-27.8	-29.7	14.9	3.31e-03	0	42	0	624951296	15	4501
2026-01-13 01:27:18.18	341.26	33.25	-27.7	-29.6	15.0	0.00e+00	0	42	0	628097024	15	4472
2026-01-13 01:27:19.19	340.96	33.38	-27.8	-29.9	14.8	0.00e+00	0	42	0	631242752	15	4550
2026-01-13 01:27:20.19	340.66	33.51	-27.9	-30.1	14.7	3.63e-03	0	42	0	634388480	15	4608
2026-01-13 01:27:21.19	340.36	33.64	-27.8	-29.8	14.9	1.69e-04	0	42	0	637534208	15	4532
2026-01-13 01:27:22.20	340.05	33.77	-27.9	-29.9	14.7	3.18e-03	0	42	0	640679936	15	4570
2026-01-13 01:27:23.21	339.75	33.91	-28.2	-30.3	14.4	0.00e+00	0	42	0	643825664	16	4556
2026-01-13 01:27:24.22	339.43	34.04	-28.5	-30.4	14.1	2.20e-06	0	42	0	646971392	17	4478
2026-01-13 01:27:25.22	339.12	34.17	-28.6	-30.6	14.0	7.00e-07	0	42	0	650117120	17	4553
2026-01-13 01:27:26.22	338.81	34.30	-28.7	-30.8	13.9	2.20e-06	0	42	0	653262848	17	4606
2026-01-13 01:27:27.23	338.49	34.43	-28.7	-30.8	13.9	1.04e-04	0	42	0	656408576	17	4591
2026-01-13 01:27:28.23	338.17	34.56	-28.7	-30.9	13.8	2.20e-06	0	42	0	659554304	17	4626
2026-01-13 01:27:29.24	337.84	34.68	-28.7	-30.8	13.8	2.20e-06	0	42	0	662700032	17	4615
2026-01-13 01:27:30.25	337.52	34.81	-28.7	-31.0	13.8	7.00e-07	0	42	0	665845760	17	4650
2026-01-13 01:27:31.25	337.19	34.94	-28.8	-31.1	13.7	3.80e-06	0	42	0	668991488	17	4694
2026-01-13 01:27:32.26	336.86	35.07	-28.7	-30.8	13.9	7.00e-07	0	42	0	672137216	17	4603
2026-01-13 01:27:33.27	336.52	35.19	-28.6	-30.7	13.9	4.50e-06	0	42	0	675282944	17	4584
2026-01-13 01:27:34.28	336.18	35.32	-28.5	-30.5	14.0	1.50e-06	0	42	0	678428672	17	4503
2026-01-13 01:27:35.28	335.85	35.45	-28.5	-30.3	14.1	0.00e+00	0	42	0	681574400	17	4453
2026-01-13 01:27:36.28	335.51	35.57	-28.5	-30.4	14.1	2.20e-06	0	42	0	684720128	17	4476
2026-01-13 01:27:37.29	335.16	35.69	-28.7	-30.9	13.8	1.50e-06	0	42	0	687865856	17	4614
2026-01-13 01:27:38.30	334.81	35.82	-28.4	-30.2	14.2	2.20e-06	0	42	0	691011584	17	4425
2026-01-13 01:27:39.30	334.47	35.94	-28.4	-30.2	14.3	2.20e-06	0	42	0	694157312	17	4404
2026-01-13 01:27:40.31	334.11	36.06	-28.5	-30.4	14.1	1.50e-06	0	42	0	697303040	17	4461
2026-01-13 01:27:41.31	333.76	36.18	-28.2	-30.2	14.5	0.00e+00	0	42	0	700448768	16	4515
2026-01-13 01:27:42.32	333.40	36.30	-28.2	-30.2	14.5	7.00e-07	0	42	0	703594496	16	4517
2026-01-13 01:27:43.32	333.04	36.42	-28.2	-30.3	14.5	0.00e+00	0	42	0	706740224	16	4544
2026-01-13 01:27:44.33	332.68	36.54	-28.4	-30.7	14.2	7.00e-07	0	42	0	709885952	16	4669
2026-01-13 01:27:45.34	332.31	36.66	-28.6	-30.7	14.0	3.80e-06	0	42	0	713031680	17	4562
2026-01-13 01:27:46.34	331.94	36.77	-28.5	-30.5	14.1	6.10e-06	0	42	0	716177408	17	4494
2026-01-13 01:27:47.35	331.57	36.89	-28.7	-30.9	13.8	2.20e-06	0	42	0	719323136	17	4636
2026-01-13 01:27:48.35	331.20	37.00	-28.8	-31.0	13.7	1.37e-05	0	42	0	722468864	17	4666
2026-01-13 01:27:49.36	330.82	37.12	-28.5	-30.4	14.1	7.00e-07	0	42	0	725614592	17	4481
2026-01-13 01:27:50.36	330.44	37.23	-28.2	-29.7	14.5	0.00e+00	0	42	0	728760320	17	4285
2026-01-13 01:27:51.37	330.06	37.34	-28.2	-30.3	14.5	7.00e-07	0	42	0	731906048	16	4559
2026-01-13 01:27:52.38	329.68	37.45	-28.3	-30.4	14.4	0.00e+00	0	42	0	735051776	16	4582
2026-01-13 01:27:53.39	329.29	37.56	-28.3	-30.3	14.5	1.50e-06	0	42	0	738197504	16	4564
2026-01-13 01:27:54.40	328.90	37.67	-28.2	-30.2	14.5	2.20e-06	0	42	0	741343232	16	4522
2026-01-13 01:27:55.40	328.51	37.78	-28.0	-29.8	14.7	1.50e-06	0	42	0	744488960	16	4398
2026-01-13 01:27:56.41	328.11	37.88	-28.1	-29.8	14.7	0.00e+00	0	42	0	747634688	16	4420
2026-01-13 01:27:57.41	327.72	37.99	-28.2	-30.2	14.5	0.00e+00	0	42	0	750780416	16	4525
2026-01-13 01:27:58.42	327.31	38.09	-28.4	-30.7	14.2	3.00e-06	0	42	0	753926144	16	4670
2026-01-13 01:27:59.42	326.91	38.19	-28.6	-30.6	14.0	3.00e-06	0	42	0	757071872	17	4552
2026-01-13 01:28:00.43	326.51	38.29	-28.7	-30.8	13.9	8.30e-06	0	42	0	760217600	17	4590
2026-01-13 01:28:01.43	326.10	38.39	-28.6	-30.7	14.0	2.20e-06	0	42	0	763363328	17	4568
2026-01-13 01:28:02.44	325.69	38.49	-28.4	-30.3	14.2	1.50e-06	0	42	0	766509056	17	4436
2026-01-13 01:28:03.45	325.28	38.59	-28.4	-30.1	14.2	7.00e-07	0	42	0	769654784	17	4397
2026-01-13 01:28:04.46	324.86	38.68	-28.5	-30.4	14.1	7.00e-07	0	42	0	772800512	17	4461
2026-01-13 01:28:05.47	324.44	38.77	-28.6	-30.6	13.9	2.20e-06	0	42	0	775946240	17	4538
2026-01-13 01:28:06.48	324.02	38.87	-27.8	-30.1	12.9	9.10e-06	0	42	0	779091968	17	4722
2026-01-13 01:28:07.48	323.60	38.96	-28.8	-31.2	12.1	5.30e-06	0	42	0	782237696	17	4717
2026-01-13 01:28:08.49	323.17	39.05	-28.1	-30.4	13.6	6.10e-06	0	42	0	785383424	17	4706
2026-01-13 01:28:09.50	322.75	39.13	-28.8	-31.1	13.5	3.40e-03	0	42	0	788529152	17	4703
2026-01-13 01:28:10.50	322.32	39.22	-29.0	-31.6	13.2	9.10e-06	0	42	0	791674880	17	4842
2026-01-13 01:28:11.51	321.89	39.30	-29.3	-31.9	12.8	3.05e-05	0	42	0	794820608	18	4838
2026-01-13 01:28:12.51	321.46	39.39	-29.3	-31.9	12.9	7.70e-05	0	42	0	797966336	18	4827
2026-01-13 01:28:13.52	321.02	39.47	-29.0	-31.2	13.4	1.98e-05	0	42	0	801112064	18	4612
2026-01-13 01:28:14.52	320.58	39.55	-28.7	-30.4	13.8	1.94e-04	0	42	0	804257792	18	4368
2026-01-13 01:28:15.53	320.14	39.62	-28.7	-30.8	13.9	3.44e-03	0	42	0	807403520	17	4587
2026-01-13 01:28:16.54	319.70	39.70	-28.7	-30.8	13.9	5.30e-06	0	42	0	810549248	17	4585
2026-01-13 01:28:17.55	319.25	39.77	-28.6	-30.6	14.0	3.00e-06	0	42	0	813694976	17	4545
2026-01-13 01:28:18.55	318.81	39.85	-28.6	-30.7	13.9	1.50e-06	0	42	0	816840704	17	4565
2026-01-13 01:28:19.56	318.36	39.92	-28.8	-31.0	13.7	1.46e-03	0	42	0	819986432	17	4667
2026-01-13 01:28:20.57	317.90	39.99	-29.1	-31.5	13.2	3.63e-04	0	42	0	823132160	18	4696
2026-01-13 01:28:21.57	317.46	40.05	-29.3	-31.8	13.0	8.03e-04	0	42	0	826277888	18	4809
2026-01-13 01:28:22.57	317.00	40.12	-29.2	-31.6	13.2	1.48e-03	0	42	0	829423616	18	4725
2026-01-13 01:28:23.57	316.55	40.18	-29.2	-31.5	13.2	6.71e-05	0	42	0	832569344	18	4708
2026-01-13 01:28:24.58	316.09	40.24	-29.1	-31.4	13.3	2.05e-03	0	42	0	835715072	18	4660
2026-01-13 01:28:25.59	315.63	40.30	-29.0	-31.0	13.5	1.53e-03	0	42	0	838860800	18	4550
2026-01-13 01:28:26.59	315.17	40.35	-29.1	-31.3	13.4	3.79e-04	0	42	0	842006528	18	4628
2026-01-13 01:28:27.60	314.71	40.41	-29.0	-31.1	13.4	1.69e-03	0	42	0	845152256	18	4580
2026-01-13 01:28:28.61	314.24	40.46	-28.8	-31.0	13.7	3.03e-03	0	42	0	848297984	17	4662
2026-01-13 01:28:29.61	313.78	40.51	-28.6	-30.5	14.0	6.10e-04	0	42	0	851443712	17	4502
2026-01-13 01:28:30.62	313.31	40.56	-28.6	-30.5	14.0	3.95e-03	0	42	0	854589440	17	4505
2026-01-13 01:28:31.62	312.84	40.61	-28.6	-30.6	14.0	4.08e-03	0	42	0	857735168	17	4540
2026-01-13 01:28:32.64	312.37	40.65	-28.4	-30.2	14.2	8.91e-04	0	42	0	860880896	17	4416
2026-01-13 01:28:33.64	311.90	40.69	-28.3	-30.5	14.3	7.00e-07	0	42	0	864026624	16	4614
2026-01-13 01:28:34.64	311.43	40.73	-28.4	-30.7	14.2	3.71e-03	0	42	0	867172352	16	4685
2026-01-13 01:28:35.65	310.96	40.77	-28.3	-30.4	14.4	9.77e-04	0	42	0	870318080	16	4596
2026-01-13 01:28:36.66	310.48	40.81	-28.5	-30.4	14.1	3.45e-03	0	42	0	873463808	17	4481
2026-01-13 01:28:37.66	310.01	40.84	-28.8	-31.2	13.6	4.43e-03	0	42	0	876609536	17	4721
2026-01-13 01:28:38.67	309.53	40.87	-29.0	-31.0	13.5	4.10e-04	0	42	0	879755264	18	4565
2026-01-13 01:28:39.68	309.05	40.90	-29.0	-31.2	13.4	1.52e-05	0	42	0	882900992	18	4599
2026-01-13 01:28:40.69	308.57	40.93	-29.2	-31.6	13.1	2.28e-05	0	42	0	886046720	18	4747
2026-01-13 01:28:41.69	308.09	40.95	-29.3	-31.9	13.0	9.39e-04	0	42	0	889192448	18	4825
2026-01-13 01:28:42.69	307.62	40.97	-29.3	-32.0	12.8	1.43e-03	0	42	0	892338176	18	4864
2026-01-13 01:28:43.70	307.13	40.99	-29.4	-32.1	12.8	2.77e-04	0	42	0	895483904	18	4909
2026-01-13 01:28:44.71	306.65	41.01	-29.3	-31.7	13.0	4.50e-05	0	42	0	898629632	18	4775
2026-01-13 01:28:45.72	306.17	41.03	-29.2	-31.6	13.1	2.97e-05	0	42	0	901775360	18	4749
2026-01-13 01:28:46.72	305.69	41.04	-29.5	-31.9	12.7	7.78e-05	0	42	0	904921088	19	4715
2026-01-13 01:28:47.72	305.21	41.05	-29.5	-31.8	12.7	2.82e-04	0	42	0	908066816	19	4696
2026-01-13 01:28:48.72	304.73	41.06	-29.6	-32.0	12.6	8.46e-05	0	42	0	911212544	19	4755
2026-01-13 01:28:49.72	304.25	41.07	-29.7	-32.4	12.2	1.91e-04	0	42	0	914358272	19	4912
2026-01-13 01:28:50.73	303.77	41.07	-29.7	-32.2	12.4	1.34e-04	0	42	0	917504000	19	4832
2026-01-13 01:28:51.74	303.28	41.07	-29.7	-32.2	12.4	1.59e-04	0	42	0	920649728	19	4839
2026-01-13 01:28:52.74	302.80	41.07	-29.7	-32.3	12.4	1.78e-04	0	42	0	923795456	19	4879
2026-01-13 01:28:53.75	302.32	41.07	-29.8	-32.6	12.2	1.62e-04	0	42	0	926941184	19	4965
2026-01-13 01:28:54.76	301.83	41.06	-29.7	-32.4	12.4	1.73e-04	0	42	0	930086912	19	4885
2026-01-13 01:28:55.76	301.35	41.05	-29.6	-32.1	12.5	1.13e-04	0	42	0	933232640	19	4786
2026-01-13 01:28:56.77	300.87	41.04	-29.5	-31.8	12.6	1.06e-04	0	42	0	936378368	19	4701
2026-01-13 01:28:57.77	300.39	41.03	-29.5	-32.2	12.7	6.71e-05	0	42	0	939524096	18	4949
2026-01-13 01:28:58.78	299.90	41.02	-29.4	-32.1	12.8	5.72e-05	0	42	0	942669824	18	4928
2026-01-13 01:28:59.79	299.42	41.00	-29.1	-31.4	13.3	2.59e-05	0	42	0	945815552	18	4664
2026-01-13 01:29:00.79	298.94	40.98	-29.2	-31.6	13.1	1.75e-05	0	42	0	948961280	18	4734
2026-01-13 01:29:01.80	298.46	40.96	-29.2	-31.5	13.2	2.28e-05	0	42	0	952107008	18	4715
2026-01-13 01:29:02.81	297.98	40.94	-29.2	-31.7	13.1	2.74e-05	0	42	0	955252736	18	4765
2026-01-13 01:29:03.81	297.50	40.91	-29.7	-32.3	12.3	1.04e-04	0	42	0	958398464	19	4853
2026-01-13 01:29:04.82	297.02	40.88	-29.9	-32.8	12.0	2.89e-04	0	42	0	961544192	19	5038
2026-01-13 01:29:05.82	296.55	40.85	-29.6	-32.2	12.4	1.62e-04	0	42	0	964689920	19	4838
2026-01-13 01:29:06.82	296.08	40.82	-29.4	-31.5	12.8	5.79e-05	0	42	0	967835648	19	4595
2026-01-13 01:29:07.82	295.60	40.79	-29.4	-32.0	12.8	6.63e-05	0	42	0	970981376	18	4883
2026-01-13 01:29:08.82	295.13	40.75	-29.0	-31.1	13.4	1.90e-05	0	42	0	974127104	18	4584
2026-01-13 01:29:09.83	294.66	40.71	-28.9	-31.4	13.5	6.10e-06	0	42	0	977272832	17	4784
2026-01-13 01:29:10.84	294.18	40.67	-29.3	-31.7	13.0	2.82e-05	0	42	0	980418560	18	4790
2026-01-13 01:29:11.84	293.72	40.63	-29.2	-31.5	13.2	3.43e-05	0	42	0	983564288	18	4710
2026-01-13 01:29:12.85	293.24	40.58	-29.2	-31.5	13.2	2.21e-05	0	42	0	986710016	18	4692
2026-01-13 01:29:13.86	292.77	40.53	-29.2	-31.5	13.2	3.35e-05	0	42	0	989855744	18	4696
2026-01-13 01:29:14.86	292.31	40.48	-29.2	-31.6	13.1	1.90e-05	0	42	0	993001472	18	4737
2026-01-13 01:29:15.87	291.84	40.43	-28.9	-30.8	13.6	9.10e-06	0	42	0	996147200	18	4491
2026-01-13 01:29:16.87	291.38	40.38	-28.7	-30.7	13.9	7.60e-06	0	42	0	999292928	17	4576
2026-01-13 01:29:17.87	290.92	40.32	-28.7	-30.8	13.8	1.50e-06	0	42	0	1002438656	17	4602
2026-01-13 01:29:18.87	290.47	40.26	-29.2	-31.5	13.2	1.14e-05	0	42	0	1005584384	18	4698
2026-01-13 01:29:19.87	290.01	40.20	-29.6	-32.1	12.5	9.76e-05	0	42	0	1008730112	19	4811
2026-01-13 01:29:20.88	289.55	40.14	-29.8	-32.6	12.2	2.14e-04	0	42	0	1011875840	19	4964
2026-01-13 01:29:21.88	289.10	40.08	-29.5	-31.7	12.7	9.30e-05	0	42	0	1015021568	19	4668
2026-01-13 01:29:22.89	288.64	40.01	-29.0	-31.0	13.4	2.21e-05	0	42	0	1018167296	18	4537
2026-01-13 01:29:23.89	288.19	39.95	-28.5	-29.8	14.1	4.50e-06	0	42	0	1021313024	18	4199
2026-01-13 01:29:24.90	287.74	39.88	-28.3	-29.9	14.4	0.00e+00	0	42	0	1024458752	17	4342
2026-01-13 01:29:25.91	287.29	39.80	-28.9	-31.2	13.6	4.50e-06	0	42	0	1027604480	17	4735
2026-01-13 01:29:26.92	286.84	39.73	-29.3	-31.7	13.0	2.67e-05	0	42	0	1030750208	18	4789
2026-01-13 01:29:27.92	286.40	39.66	-29.7	-32.2	12.4	1.27e-04	0	42	0	1033895936	19	4842
2026-01-13 01:29:28.93	285.96	39.58	-29.7	-32.5	12.3	2.26e-04	0	42	0	1037041664	19	4924
2026-01-13 01:29:29.94	285.52	39.50	-29.9	-32.8	11.9	2.97e-04	0	42	0	1040187392	19	5051
2026-01-13 01:29:30.95	285.08	39.42	-30.1	-32.7	11.9	1.80e-04	0	42	0	1043333120	19	4857
2026-01-13 01:29:31.95	284.65	39.34	-29.3	-31.3	12.9	6.40e-05	0	42	0	1046478848	19	4556
2026-01-13 01:29:32.96	284.21	39.25	-28.8	-30.7	13.6	3.80e-06	0	42	0	1049624576	18	4456
2026-01-13 01:29:33.97	283.78	39.17	-28.5	-30.5	14.0	1.50e-06	0	42	0	1052770304	17	4491
2026-01-13 01:29:34.97	283.35	39.08	-28.9	-31.4	13.5	6.80e-06	0	42	0	1055916032	17	4779
2026-01-13 01:29:35.97	282.93	38.99	-29.3	-31.9	12.9	5.26e-04	0	42	0	1059061760	18	4835
2026-01-13 01:29:36.97	282.51	38.90	-29.4	-32.0	12.7	8.77e-05	0	42	0	1062207488	18	4892
2026-01-13 01:29:37.98	282.08	38.81	-29.7	-32.4	12.2	1.84e-04	0	42	0	1065353216	19	4893
2026-01-13 01:29:38.98	281.67	38.72	-29.3	-31.8	12.8	7.62e-05	0	42	0	1068498944	18	4833
2026-01-13 01:29:39.99	281.25	38.62	-28.6	-30.8	13.8	4.00e-03	0	42	0	1071644672	17	4597
2026-01-13 01:29:40.99	280.84	38.53	-28.2	-29.6	14.5	2.26e-04	0	42	0	1074790400	17	4256
2026-01-13 01:29:42.00	280.42	38.43	-28.1	-30.0	14.6	0.00e+00	0	42	0	1077936128	16	4467
2026-01-13 01:29:43.00	280.02	38.33	-28.4	-30.6	14.2	0.00e+00	0	42	0	1081081856	16	4661
2026-01-13 01:29:44.00	279.61	38.23	-28.3	-30.5	14.3	1.50e-06	0	42	0	1084227584	16	4610
2026-01-13 01:29:45.01	279.21	38.13	-28.6	-30.7	13.9	2.23e-03	0	42	0	1086324736	17	4583
2026-01-13 01:29:46.01	278.81	38.03	-28.4	-30.7	14.1	2.62e-03	0	42	0	1089470464	16	4686
2026-01-13 01:29:47.01	278.41	37.92	-28.2	-30.2	14.4	1.50e-06	0	42	0	1092616192	16	4531
2026-01-13 01:29:48.02	278.01	37.82	-28.3	-30.3	14.4	7.00e-07	0	42	0	1096810496	16	4569
2026-01-13 01:29:49.02	277.62	37.71	-28.2	-30.2	14.4	3.94e-03	0	42	0	1099956224	16	4522
2026-01-13 01:29:50.02	277.23	37.60	-28.5	-30.8	14.0	7.00e-07	0	42	0	1103101952	16	4727
2026-01-13 01:29:51.03	276.84	37.50	-28.9	-31.5	13.4	3.95e-03	0	42	0	1106247680	17	4828
2026-01-13 01:29:52.04	276.45	37.38	-29.7	-32.3	12.3	3.90e-03	0	42	0	1108344832	19	4886
2026-01-13 01:29:53.04	276.07	37.27	-29.5	-32.0	12.5	1.30e-04	0	42	0	1111490560	19	4762
2026-01-13 01:29:54.04	275.69	37.16	-28.9	-30.8	13.4	3.41e-03	0	42	0	1114636288	18	4507
2026-01-13 01:29:55.06	275.31	37.05	-28.0	-29.3	14.6	3.54e-03	0	42	0	1117782016	17	4176
2026-01-13 01:29:56.06	274.93	36.93	-27.5	-28.7	15.2	0.00e+00	0	42	0	1120927744	16	4105
2026-01-13 01:29:57.07	274.56	36.82	-27.3	-28.7	15.4	3.64e-03	0	42	0	1124073472	15	4217
2026-01-13 01:29:58.07	274.19	36.70	-27.7	-29.7	14.8	3.97e-03	0	42	0	1128267776	15	4493
2026-01-13 01:29:59.08	273.82	36.58	-28.3	-30.5	14.2	7.00e-07	0	42	0	1131413504	16	4636
2026-01-13 01:30:00.09	273.45	36.47	-29.0	-31.2	13.2	2.84e-03	0	42	0	1133510656	18	4622
2026-01-13 01:30:01.09	273.09	36.35	-29.6	-32.1	12.4	1.26e-03	0	42	0	1136656384	19	4801
2026-01-13 01:30:02.10	272.73	36.23	-29.7	-32.4	12.2	2.33e-04	0	42	0	1139802112	19	4909
2026-01-13 01:30:03.11	272.37	36.11	-29.2	-31.6	13.0	3.05e-03	0	42	0	1142947840	18	4762
2026-01-13 01:30:04.12	272.02	35.98	-28.6	-30.6	13.8	6.10e-06	0	42	0	1146093568	17	4554
2026-01-13 01:30:05.12	271.67	35.86	-28.2	-29.7	14.4	0.00e+00	0	42	0	1150287872	17	4268
2026-01-13 01:30:06.13	271.32	35.74	-28.3	-30.4	14.3	0.00e+00	0	42	0	1153433600	16	4600
2026-01-13 01:30:07.13	270.97	35.61	-28.1	-30.0	14.5	3.19e-03	0	42	0	1155530752	16	4479
2026-01-13 01:30:08.14	270.63	35.49	-28.7	-30.9	13.7	3.00e-06	0	42	0	1158676480	17	4625
2026-01-13 01:30:09.15	270.28	35.36	-28.8	-31.1	13.6	6.80e-06	0	42	0	1161822208	17	4696
2026-01-13 01:30:10.16	269.94	35.24	-29.4	-32.0	12.8	2.75e-04	0	42	0	1164967936	18	4874
2026-01-13 01:30:11.17	269.61	35.11	-29.0	-31.1	13.3	2.24e-04	0	42	0	1168113664	18	4591
2026-01-13 01:30:12.17	269.27	34.98	-28.4	-30.3	14.0	3.86e-03	0	42	0	1171259392	17	4452
2026-01-13 01:30:13.17	268.95	34.86	-28.1	-29.9	14.5	0.00e+00	0	42	0	1175453696	16	4460
2026-01-13 01:30:14.18	268.62	34.73	-27.8	-29.3	14.9	2.94e-04	0	42	0	1178599424	16	4292
2026-01-13 01:30:15.19	268.29	34.60	-27.8	-29.9	14.7	0.00e+00	0	42	0	1180696576	15	4561
2026-01-13 01:30:16.20	267.96	34.47	-28.4	-30.6	14.2	4.71e-04	0	42	0	1183842304	16	4669
2026-01-13 01:30:17.20	267.65	34.34	-29.1	-31.3	13.2	6.61e-04	0	42	0	1186988032	18	4660
2026-01-13 01:30:18.21	267.33	34.21	-28.9	-31.0	13.4	1.83e-05	0	42	0	1190133760	18	4552
2026-01-13 01:30:19.22	267.01	34.08	-28.5	-30.3	13.9	3.80e-06	0	42	0	1194328064	17	4473
2026-01-13 01:30:20.22	266.70	33.95	-28.0	-29.8	14.6	6.32e-04	0	42	0	1197473792	16	4425
2026-01-13 01:30:21.23	266.39	33.81	-27.5	-29.1	15.0	0.00e+00	0	42	0	1200619520	15	4352
2026-01-13 01:30:22.23	266.08	33.68	-27.3	-29.2	15.3	4.61e-04	0	42	0	1202716672	14	4486
2026-01-13 01:30:23.25	265.77	33.55	-27.3	-29.2	15.3	2.79e-04	0	42	0	1205862400	14	4483
2026-01-13 01:30:24.25	265.47	33.42	-27.6	-29.3	15.0	0.00e+00	0	42	0	1209008128	15	4397
2026-01-13 01:30:25.26	265.17	33.28	-27.8	-29.7	14.7	0.00e+00	0	42	0	1212153856	15	4519
2026-01-13 01:30:26.26	264.87	33.15	-28.3	-30.4	14.2	3.00e-06	0	42	0	1215299584	16	4617
2026-01-13 01:30:27.27	264.58	33.02	-28.4	-30.7	14.1	0.00e+00	0	42	0	1218445312	16	4699
2026-01-13 01:30:28.27	264.28	32.88	-28.2	-30.2	14.4	0.00e+00	0	42	0	1222639616	16	4530
2026-01-13 01:30:29.28	263.99	32.75	-28.0	-29.7	14.7	0.00e+00	0	42	0	1225785344	16	4392
2026-01-13 01:30:30.28	263.71	32.61	-27.7	-29.6	14.8	0.00e+00	0	42	0	1227882496	15	4465
2026-01-13 01:30:31.29	263.42	32.48	-27.6	-29.4	14.9	3.77e-04	0	42	0	1231028224	15	4419
2026-01-13 01:30:32.30	263.13	32.34	-27.6	-29.3	15.0	6.03e-04	0	42	0	1234173952	15	4384
2026-01-13 01:30:33.31	262.85	32.21	-27.2	-28.9	15.5	0.00e+00	0	42	0	1237319680	14	4381
2026-01-13 01:30:34.31	262.58	32.07	-27.3	-29.1	15.3	0.00e+00	0	42	0	1240465408	14	4448
2026-01-13 01:30:35.31	262.30	31.94	-27.6	-29.4	14.9	7.00e-07	0	42	0	1243611136	15	4437
2026-01-13 01:30:36.33	262.02	31.80	-27.9	-30.0	14.6	0.00e+00	0	42	0	1247805440	15	4608
2026-01-13 01:30:37.32	261.76	31.67	-28.3	-30.4	14.2	1.50e-06	0	42	0	1249902592	16	4603
2026-01-13 01:30:38.33	261.48	31.53	-28.2	-30.2	14.4	2.58e-03	0	42	0	1253048320	16	4533
2026-01-13 01:30:39.34	261.22	31.39	-27.8	-29.4	14.8	0.00e+00	0	42	0	1256194048	16	4307
2026-01-13 01:30:40.35	260.95	31.26	-27.2	-28.9	15.4	0.00e+00	0	42	0	1259339776	14	4386
2026-01-13 01:30:41.36	260.69	31.12	-26.9	-28.3	15.7	0.00e+00	0	42	0	1262485504	14	4239
2026-01-13 01:30:42.36	260.43	30.99	-26.8	-28.6	15.9	0.00e+00	0	42	0	1265631232	13	4416
2026-01-13 01:30:43.36	260.17	30.85	-26.9	-28.8	15.7	4.34e-04	0	42	0	1268776960	13	4483
2026-01-13 01:30:44.37	259.91	30.71	-27.3	-29.2	15.3	0.00e+00	0	42	0	1272971264	14	4493
2026-01-13 01:30:45.38	259.66	30.58	-27.5	-29.2	15.0	0.00e+00	0	42	0	1275068416	15	4354
2026-01-13 01:30:46.38	259.41	30.44	-27.4	-29.3	15.2	0.00e+00	0	42	0	1278214144	14	4521
2026-01-13 01:30:47.38	259.16	30.31	-27.3	-29.1	15.3	0.00e+00	0	42	0	1281359872	14	4463
2026-01-13 01:30:48.39	258.91	30.17	-27.2	-29.0	15.4	0.00e+00	0	42	0	1284505600	14	4426
2026-01-13 01:30:49.40	258.66	30.03	-27.2	-28.9	15.4	0.00e+00	0	42	0	1287651328	14	4409
2026-01-13 01:30:50.41	258.42	29.90	-27.2	-29.0	15.4	0.00e+00	0	42	0	1290797056	14	4422
2026-01-13 01:30:51.42	258.18	29.76	-26.2	-27.9	15.6	0.00e+00	0	42	0	1294991360	14	4359
2026-01-13 01:30:52.42	257.94	29.63	-27.0	-28.5	15.6	0.00e+00	0	42	0	1297088512	14	4296
2026-01-13 01:30:53.42	257.70	29.49	-27.0	-28.9	13.8	8.30e-06	0	42	0	1300234240	13	4518
2026-01-13 01:30:54.43	257.47	29.36	-26.9	-28.4	15.3	0.00e+00	0	42	0	1303379968	14	4248
2026-01-13 01:30:55.44	257.23	29.22	-27.0	-28.5	15.6	0.00e+00	0	42	0	1306525696	14	4294
2026-01-13 01:30:56.45	257.00	29.08	-27.2	-28.9	15.4	0.00e+00	0	42	0	1309671424	14	4392
2026-01-13 01:30:57.46	256.77	28.95	-27.2	-29.0	15.3	0.00e+00	0	42	0	1312817152	14	4430
2026-01-13 01:30:58.46	256.54	28.81	-27.2	-29.0	15.4	0.00e+00	0	42	0	1315962880	14	4413
2026-01-13 01:30:59.47	256.32	28.68	-27.1	-28.7	15.6	6.80e-06	0	42	0	1319108608	14	4324
2026-01-13 01:31:00.48	256.09	28.54	-26.8	-28.7	15.8	3.50e-03	0	42	0	1322254336	13	4438
2026-01-13 01:31:01.48	255.87	28.41	-26.7	-28.3	16.0	0.00e+00	0	42	0	1325400064	13	4327
2026-01-13 01:31:02.49	255.65	28.27	-26.4	-28.1	16.4	8.30e-06	0	42	0	1328545792	12	4399
2026-01-13 01:31:03.50	255.43	28.14	-26.3	-28.1	16.4	0.00e+00	0	42	0	1331691520	12	4383
2026-01-13 01:31:04.50	255.22	28.01	-26.5	-27.9	16.2	0.00e+00	0	42	0	1334837248	13	4224
2026-01-13 01:31:05.50	255.00	27.87	-26.6	-28.2	16.0	2.96e-03	0	42	0	1337982976	13	4322
2026-01-13 01:31:06.51	254.79	27.74	-26.9	-28.8	15.7	2.87e-03	0	42	0	1341128704	13	4495
2026-01-13 01:31:07.51	254.58	27.61	-26.9	-28.9	15.6	0.00e+00	0	42	0	1344274432	13	4502
2026-01-13 01:31:08.52	254.37	27.47	-27.0	-28.5	15.5	5.30e-06	0	42	0	1347420160	14	4290
2026-01-13 01:31:09.53	254.16	27.34	-26.9	-28.8	15.6	0.00e+00	0	42	0	1350565888	13	4496
2026-01-13 01:31:10.53	253.96	27.21	-26.8	-28.5	15.7	0.00e+00	0	42	0	1353711616	13	4405
2026-01-13 01:31:11.54	253.75	27.07	-26.7	-28.3	15.9	2.61e-03	0	42	0	1356857344	13	4343
2026-01-13 01:31:12.54	253.55	26.94	-26.6	-28.2	16.0	3.50e-03	0	42	0	1360003072	13	4305
2026-01-13 01:31:13.55	253.35	26.81	-26.4	-27.7	16.3	9.07e-05	0	42	0	1363148800	13	4164
2026-01-13 01:31:14.56	253.15	26.68	-26.2	-27.7	16.6	2.04e-04	0	42	0	1366294528	12	4275
2026-01-13 01:31:15.57	252.95	26.54	-26.2	-27.7	16.5	3.45e-03	0	42	0	1369440256	12	4293
2026-01-13 01:31:16.57	252.76	26.41	-26.3	-28.0	16.4	3.38e-04	0	42	0	1372585984	12	4369
2026-01-13 01:31:17.58	252.56	26.28	-26.5	-28.0	16.1	3.55e-03	0	42	0	1375731712	13	4260
2026-01-13 01:31:18.59	252.37	26.15	-26.8	-28.5	15.8	3.90e-03	0	42	0	1378877440	13	4414
2026-01-13 01:31:19.59	252.18	26.02	-27.0	-29.0	15.6	0.00e+00	0	42	0	1382023168	13	4544
2026-01-13 01:31:20.59	251.99	25.89	-27.2	-29.1	15.2	0.00e+00	0	42	0	1385168896	14	4451
2026-01-13 01:31:21.60	251.81	25.76	-27.2	-29.1	15.2	3.76e-03	0	42	0	1388314624	14	4457
2026-01-13 01:31:22.60	251.62	25.63	-26.9	-28.4	15.6	1.44e-04	0	42	0	1391460352	14	4272
2026-01-13 01:31:23.60	251.44	25.50	-26.8	-28.7	15.6	2.30e-03	0	42	0	1394606080	13	4453
2026-01-13 01:31:24.60	251.25	25.38	-26.7	-28.4	15.8	0.00e+00	0	42	0	1397751808	13	4365
2026-01-13 01:31:25.61	251.07	25.25	-26.8	-28.5	15.7	0.00e+00	0	42	0	1400897536	13	4414
2026-01-13 01:31:26.61	250.89	25.12	-26.7	-28.5	15.8	1.83e-05	0	42	0	1404043264	13	4405
2026-01-13 01:31:27.62	250.71	24.99	-26.9	-28.8	15.6	7.67e-04	0	42	0	1407188992	13	4507
2026-01-13 01:31:28.62	250.54	24.86	-26.9	-28.8	15.6	0.00e+00	0	42	0	1410334720	13	4478
2026-01-13 01:31:29.63	250.36	24.73	-26.9	-28.9	15.5	0.00e+00	0	42	0	1413480448	13	4536
2026-01-13 01:31:30.64	250.19	24.61	-27.0	-28.5	15.4	0.00e+00	0	42	0	1416626176	14	4286
2026-01-13 01:31:31.65	250.01	24.48	-26.8	-28.2	15.7	0.00e+00	0	42	0	1419771904	14	4206
2026-01-13 01:31:32.65	249.84	24.35	-26.6	-28.3	15.9	4.47e-03	0	42	0	1422917632	13	4337
2026-01-13 01:31:33.66	249.67	24.23	-26.5	-28.0	16.0	5.44e-04	0	42	0	1426063360	13	4277
2026-01-13 01:31:34.74	249.49	24.09	-26.5	-28.3	16.1	0.00e+00	0	42	0	1429209088	12	4467
2026-01-13 01:31:35.61	249.35	23.98	-26.5	-28.4	16.1	0.00e+00	0	42	0	1432354816	12	4485
2026-01-13 01:31:36.76	249.16	23.84	-26.6	-28.1	16.0	0.00e+00	0	42	0	1435500544	13	4293
2026-01-13 01:31:37.61	249.02	23.73	-26.5	-28.1	16.0	2.76e-03	0	42	0	1438646272	13	4283
2026-01-13 01:31:38.75	248.83	23.59	-26.5	-28.0	16.0	0.00e+00	0	42	0	1441792000	13	4272
2026-01-13 01:31:39.61	248.69	23.49	-26.5	-27.9	16.0	0.00e+00	0	43	0	1444937728	13	4251
2026-01-13 01:31:40.76	248.51	23.35	-26.5	-28.0	16.0	0.00e+00	0	42	0	1448083456	13	4261
2026-01-13 01:31:41.63	248.37	23.24	-26.5	-27.9	16.1	5.34e-03	0	42	0	1451229184	13	4237
2026-01-13 01:31:42.78	248.19	23.10	-26.3	-28.1	16.2	3.00e-06	0	42	0	1454374912	12	4410
2026-01-13 01:31:43.64	248.06	22.99	-26.4	-28.2	16.1	0.00e+00	0	42	0	1457520640	12	4424
2026-01-13 01:31:44.79	247.88	22.85	-26.4	-28.2	16.1	0.00e+00	0	42	0	1460666368	12	4436
2026-01-13 01:31:45.66	247.75	22.75	-26.5	-28.3	16.1	0.00e+00	0	42	0	1463812096	12	4479
2026-01-13 01:31:46.81	247.57	22.61	-26.6	-28.1	15.9	0.00e+00	0	42	0	1466957824	13	4288
2026-01-13 01:31:47.68	247.44	22.50	-26.8	-28.6	15.6	0.00e+00	0	42	0	1470103552	13	4434
2026-01-13 01:31:48.83	247.27	22.37	-26.9	-28.9	15.5	1.32e-03	0	42	0	1473249280	13	4528
2026-01-13 01:31:49.69	247.14	22.26	-27.1	-28.7	15.3	0.00e+00	0	42	0	1476395008	14	4368
2026-01-13 01:31:50.84	246.97	22.12	-27.0	-28.6	15.4	0.00e+00	0	42	0	1479540736	14	4331
2026-01-13 01:31:51.70	246.84	22.02	-26.8	-28.7	15.5	0.00e+00	0	42	0	1482686464	13	4479
2026-01-13 01:31:52.85	246.68	21.89	-26.7	-28.5	15.7	7.36e-04	0	42	0	1485832192	13	4404
2026-01-13 01:31:53.71	246.55	21.78	-26.7	-28.5	15.6	0.00e+00	0	42	0	1488977920	13	4413
2026-01-13 01:31:54.86	246.39	21.65	-27.0	-29.1	15.4	4.45e-04	0	42	0	1492123648	13	4572
2026-01-13 01:31:55.73	246.27	21.55	-27.1	-28.9	15.2	0.00e+00	0	42	0	1495269376	14	4400
2026-01-13 01:31:56.88	246.10	21.41	-27.4	-29.5	14.9	0.00e+00	0	42	0	1498415104	14	4578
2026-01-13 01:31:57.74	245.98	21.31	-27.3	-29.2	15.0	0.00e+00	0	42	0	1501560832	14	4508
2026-01-13 01:31:58.88	245.83	21.18	-27.1	-28.9	15.2	0.00e+00	0	42	0	1504706560	14	4416
2026-01-13 01:31:59.74	245.71	21.08	-27.1	-28.8	15.2	0.00e+00	0	42	0	1507852288	14	4371
2026-01-13 01:32:00.89	245.55	20.94	-27.1	-28.9	15.2	0.00e+00	0	42	0	1510998016	14	4411
2026-01-13 01:32:01.75	245.43	20.84	-27.2	-29.0	15.1	0.00e+00	0	42	0	1514143744	14	4432
2026-01-13 01:32:02.91	245.28	20.71	-27.0	-28.6	15.3	0.00e+00	0	42	0	1517289472	14	4326
2026-01-13 01:32:03.77	245.16	20.61	-26.9	-28.4	15.4	2.27e-04	0	42	0	1520435200	14	4279
2026-01-13 01:32:04.93	245.01	20.48	-26.8	-28.6	15.6	4.87e-04	0	42	0	1523580928	13	4448
2026-01-13 01:32:05.79	244.90	20.38	-26.9	-28.8	15.5	0.00e+00	0	42	0	1526726656	13	4505
2026-01-13 01:32:06.94	244.75	20.25	-26.8	-28.7	15.5	8.55e-04	0	42	0	1529872384	13	4471
2026-01-13 01:32:07.80	244.63	20.15	-26.9	-28.8	15.4	1.23e-03	0	42	0	1533018112	13	4490
2026-01-13 01:32:08.95	244.49	20.02	-27.0	-29.1	15.3	0.00e+00	0	42	0	1536163840	13	4578
2026-01-13 01:32:09.82	244.38	19.92	-27.1	-28.7	15.2	1.39e-03	0	42	0	1539309568	14	4369
2026-01-13 01:32:10.97	244.23	19.79	-27.1	-28.9	15.2	1.35e-03	0	42	0	1542455296	14	4410
2026-01-13 01:32:11.83	244.12	19.70	-27.0	-28.7	15.2	0.00e+00	0	42	0	1545601024	14	4356
2026-01-13 01:32:12.97	243.98	19.57	-27.1	-28.9	15.1	0.00e+00	0	42	0	1548746752	14	4422
2026-01-13 01:32:13.84	243.87	19.47	-27.2	-29.0	15.1	1.10e-03	0	42	0	1551892480	14	4450
2026-01-13 01:32:14.99	243.73	19.35	-27.3	-29.3	14.9	7.00e-07	0	42	0	1555038208	14	4528
2026-01-13 01:32:15.85	243.63	19.25	-27.2	-29.0	15.1	7.12e-04	0	42	0	1558183936	14	4449
2026-01-13 01:32:17.00	243.49	19.12	-27.1	-28.9	15.1	5.97e-04	0	42	0	1561329664	14	4420
2026-01-13 01:32:17.86	243.38	19.03	-27.2	-29.1	15.0	0.00e+00	0	42	0	1564475392	14	4461
2026-01-13 01:32:19.01	243.25	18.90	-27.2	-29.0	15.1	0.00e+00	0	42	0	1567621120	14	4438
2026-01-13 01:32:19.88	243.14	18.81	-27.1	-28.9	15.1	3.35e-04	0	42	0	1570766848	14	4414
2026-01-13 01:32:21.03	243.01	18.68	-27.1	-28.9	15.1	2.06e-04	0	42	0	1573912576	14	4424
2026-01-13 01:32:21.88	242.91	18.59	-27.2	-29.2	14.9	2.75e-04	0	42	0	1577058304	14	4493
2026-01-13 01:32:23.03	242.78	18.47	-27.2	-29.0	15.0	0.00e+00	0	42	0	1580204032	14	4437
2026-01-13 01:32:23.89	242.68	18.37	-27.1	-28.9	15.1	0.00e+00	0	42	0	1583349760	14	4419
2026-01-13 01:32:25.04	242.55	18.25	-27.2	-29.1	15.0	0.00e+00	0	42	0	1586495488	14	4465
2026-01-13 01:32:25.91	242.45	18.16	-27.4	-29.6	14.4	2.01e-04	0	42	0	1589641216	14	4614
2026-01-13 01:32:27.06	242.32	18.03	-27.4	-29.6	14.7	1.66e-03	0	42	0	1592786944	14	4611
2026-01-13 01:32:27.93	242.22	17.94	-27.4	-29.5	14.7	0.00e+00	0	42	0	1595932672	14	4590
2026-01-13 01:32:29.07	242.10	17.82	-27.6	-29.6	14.4	1.50e-06	0	42	0	1599078400	15	4506
2026-01-13 01:32:29.94	242.00	17.73	-27.4	-29.7	14.6	0.00e+00	0	42	0	1602224128	14	4644
2026-01-13 01:32:31.09	241.87	17.61	-27.6	-29.6	14.4	2.82e-04	0	42	0	1605369856	15	4498
2026-01-13 01:32:31.95	241.78	17.52	-27.9	-30.1	14.1	4.02e-03	0	42	0	1608515584	15	4670
2026-01-13 01:32:33.10	241.66	17.40	-27.5	-29.2	14.6	3.85e-03	0	42	0	1611661312	15	4411
2026-01-13 01:32:33.97	241.56	17.31	-27.1	-28.4	15.0	0.00e+00	0	42	0	1614807040	15	4181
2026-01-13 01:32:35.11	241.44	17.19	-26.9	-28.5	15.3	1.84e-03	0	42	0	1617952768	14	4296
2026-01-13 01:32:35.97	241.35	17.10	-27.1	-28.9	15.0	2.42e-03	0	42	0	1621098496	14	4430
2026-01-13 01:32:37.13	241.23	16.98	-27.2	-29.2	14.9	7.00e-07	0	42	0	1624244224	14	4502
2026-01-13 01:32:37.98	241.14	16.89	-27.2	-29.1	14.9	0.00e+00	0	42	0	1627389952	14	4479
2026-01-13 01:32:39.14	241.02	16.77	-27.3	-29.2	14.8	4.56e-03	0	42	0	1630535680	14	4520
2026-01-13 01:32:39.99	240.93	16.69	-27.4	-29.6	14.6	1.65e-03	0	42	0	1633681408	14	4630
2026-01-13 01:32:41.14	240.82	16.57	-27.5	-29.4	14.5	0.00e+00	0	42	0	1636827136	15	4442
2026-01-13 01:32:42.01	240.73	16.48	-27.6	-29.5	14.3	5.40e-03	0	42	0	1639972864	15	4480
2026-01-13 01:32:43.16	240.61	16.36	-27.9	-30.3	13.8	3.23e-03	0	42	0	1643118592	15	4744
2026-01-13 01:32:44.02	240.53	16.28	-27.7	-29.8	14.1	3.80e-06	0	42	0	1646264320	15	4599
2026-01-13 01:32:45.17	240.41	16.16	-27.5	-29.4	14.3	2.20e-06	0	42	0	1649410048	15	4473
2026-01-13 01:32:46.03	240.33	16.08	-27.4	-29.5	14.5	3.97e-03	0	42	0	1652555776	14	4608
2026-01-13 01:32:47.18	240.22	15.96	-27.4	-29.6	14.5	5.92e-03	0	42	0	1655701504	14	4633
2026-01-13 01:32:48.04	240.13	15.87	-27.6	-29.5	14.3	6.20e-03	0	42	0	1658847232	15	4480
2026-01-13 01:32:49.18	240.02	15.76	-27.6	-29.7	14.1	4.06e-03	0	42	0	1661992960	15	4536
2026-01-13 01:32:50.05	239.94	15.68	-27.3	-29.5	14.5	7.00e-07	0	42	0	1665138688	14	4600
2026-01-13 01:32:51.20	239.83	15.56	-27.5	-29.8	14.4	0.00e+00	0	42	0	1668284416	14	4689
2026-01-13 01:32:52.06	239.75	15.48	-27.6	-29.6	14.2	2.97e-03	0	42	0	1671430144	15	4532
2026-01-13 01:32:53.21	239.64	15.36	-27.8	-30.0	13.9	3.00e-06	0	42	0	1674575872	15	4646
2026-01-13 01:32:54.07	239.56	15.28	-27.6	-29.4	14.2	4.18e-03	0	42	0	1677721600	15	4474
2026-01-13 01:32:55.22	239.46	15.17	-27.8	-30.0	13.9	2.20e-06	0	42	0	1680867328	15	4633
2026-01-13 01:32:56.08	239.38	15.08	-27.5	-29.2	14.4	3.69e-03	0	42	0	1684013056	15	4403
2026-01-13 01:32:57.22	239.27	14.97	-27.2	-29.1	14.8	7.00e-07	0	42	0	1687158784	14	4469
2026-01-13 01:32:58.09	239.19	14.89	-27.5	-29.8	14.4	7.18e-04	0	42	0	1690304512	14	4686
2026-01-13 01:32:59.23	239.09	14.78	-27.2	-29.2	14.7	0.00e+00	0	42	0	1693450240	14	4496
2026-01-13 01:33:00.10	239.01	14.70	-27.1	-28.9	14.8	0.00e+00	0	42	0	1696595968	14	4437
2026-01-13 01:33:01.25	238.91	14.59	-27.1	-28.8	14.9	5.30e-06	0	42	0	1699741696	14	4388
2026-01-13 01:33:02.11	238.84	14.51	-27.1	-28.8	14.9	0.00e+00	0	42	0	1702887424	14	4404
2026-01-13 01:33:03.26	238.73	14.40	-27.1	-29.0	14.8	0.00e+00	0	42	0	1706033152	14	4454
2026-01-13 01:33:04.12	238.66	14.31	-27.4	-29.7	14.4	0.00e+00	0	42	0	1709178880	14	4659
2026-01-13 01:33:05.27	238.56	14.21	-27.3	-29.3	14.6	7.00e-07	0	42	0	1712324608	14	4553
2026-01-13 01:33:06.13	238.49	14.13	-27.2	-29.2	14.6	0.00e+00	0	42	0	1715470336	14	4529
2026-01-13 01:33:07.28	238.39	14.02	-27.3	-29.3	14.6	1.50e-06	0	42	0	1718616064	14	4547
2026-01-13 01:33:08.14	238.32	13.94	-27.4	-29.5	14.5	0.00e+00	0	42	0	1721761792	14	4625
2026-01-13 01:33:09.29	238.22	13.83	-27.3	-29.4	14.5	7.00e-07	0	42	0	1724907520	14	4593
2026-01-13 01:33:10.16	238.15	13.75	-27.4	-29.7	14.4	7.00e-07	0	42	0	1728053248	14	4664
2026-01-13 01:33:11.31	238.05	13.64	-27.5	-29.4	14.2	2.20e-06	0	42	0	1731198976	15	4465
2026-01-13 01:33:12.17	237.98	13.56	-27.5	-29.4	14.2	0.00e+00	0	42	0	1734344704	15	4463
2026-01-13 01:33:13.31	237.88	13.46	-27.5	-29.4	14.2	1.50e-06	0	42	0	1737490432	15	4478
2026-01-13 01:33:14.18	237.81	13.38	-27.6	-29.5	14.1	3.00e-06	0	42	0	1740636160	15	4519
2026-01-13 01:33:15.33	237.72	13.27	-27.6	-29.6	14.1	1.50e-06	0	42	0	1743781888	15	4539
2026-01-13 01:33:16.19	237.65	13.20	-27.7	-29.8	14.0	4.50e-06	0	42	0	1746927616	15	4588
2026-01-13 01:33:17.34	237.56	13.09	-27.6	-29.6	14.1	2.20e-06	0	42	0	1750073344	15	4535
2026-01-13 01:33:18.21	237.49	13.01	-27.6	-29.5	14.1	2.20e-06	0	42	0	1753219072	15	4513
2026-01-13 01:33:19.36	237.40	12.91	-27.6	-29.7	14.0	2.20e-06	0	42	0	1756364800	15	4553
2026-01-13 01:33:20.22	237.33	12.83	-27.7	-29.8	13.9	3.80e-06	0	42	0	1759510528	15	4581
2026-01-13 01:33:21.37	237.24	12.73	-27.5	-29.5	14.1	3.00e-06	0	42	0	1762656256	15	4492
2026-01-13 01:33:22.23	237.17	12.65	-27.6	-29.6	14.0	6.80e-06	0	42	0	1765801984	15	4541
2026-01-13 01:33:23.38	237.09	12.55	-27.5	-29.3	14.2	0.00e+00	0	42	0	1768947712	15	4454
2026-01-13 01:33:24.24	237.02	12.47	-27.5	-29.8	14.2	2.20e-06	0	42	0	1772093440	14	4712
2026-01-13 01:33:25.40	236.93	12.37	-27.5	-29.8	14.2	0.00e+00	0	42	0	1775239168	14	4696
2026-01-13 01:33:26.26	236.87	12.29	-27.4	-29.7	14.2	7.00e-07	0	42	0	1778384896	14	4676
2026-01-13 01:33:27.41	236.78	12.19	-27.5	-29.9	14.1	7.00e-07	0	42	0	1781530624	14	4734
2026-01-13 01:33:28.27	236.72	12.12	-27.6	-29.7	13.9	3.80e-06	0	42	0	1784676352	15	4566
2026-01-13 01:33:29.42	236.63	12.02	-27.5	-29.5	14.1	3.00e-06	0	42	0	1787822080	15	4499
2026-01-13 01:33:30.28	236.57	11.94	-27.5	-29.3	14.2	7.00e-07	0	42	0	1790967808	15	4448
2026-01-13 01:33:31.43	236.48	11.84	-27.6	-29.6	14.0	1.50e-06	0	42	0	1794113536	15	4543
2026-01-13 01:33:32.29	236.42	11.77	-27.5	-29.4	14.1	2.20e-06	0	42	0	1797259264	15	4484
2026-01-13 01:33:33.44	236.34	11.67	-27.7	-29.8	13.8	3.80e-06	0	42	0	1800404992	15	4612
2026-01-13 01:33:34.31	236.27	11.59	-27.6	-29.6	14.0	4.50e-06	0	42	0	1803550720	15	4551
2026-01-13 01:33:35.45	236.19	11.49	-27.5	-29.9	12.0	1.50e-06	0	42	0	1806696448	14	4749
2026-01-13 01:33:36.31	236.13	11.42	-27.5	-29.5	14.1	3.00e-06	0	42	0	1809842176	15	4500
2026-01-13 01:33:37.46	236.05	11.32	-27.6	-29.6	13.5	2.20e-06	0	42	0	1812987904	15	4547
2026-01-13 01:33:38.32	235.99	11.25	-27.7	-29.9	13.8	6.80e-06	0	42	0	1816133632	15	4633
2026-01-13 01:33:39.47	235.91	11.15	-27.6	-29.6	13.9	3.80e-06	0	42	0	1819279360	15	4540
2026-01-13 01:33:40.33	235.85	11.08	-27.7	-29.9	13.8	6.80e-06	0	42	0	1822425088	15	4619
2026-01-13 01:33:41.48	235.77	10.98	-27.8	-30.2	13.6	3.68e-03	0	42	0	1825570816	15	4721
2026-01-13 01:33:42.34	235.71	10.91	-27.9	-30.3	13.6	9.10e-06	0	42	0	1828716544	15	4749
2026-01-13 01:33:43.50	235.63	10.81	-27.9	-30.4	13.5	2.21e-05	0	42	0	1831862272	15	4781
2026-01-13 01:33:44.35	235.57	10.74	-27.9	-30.4	13.4	1.22e-05	0	42	0	1835008000	15	4809
2026-01-13 01:33:45.50	235.50	10.64	-28.2	-30.5	13.3	1.67e-05	0	42	0	1838153728	16	4688
2026-01-13 01:33:46.36	235.44	10.57	-28.2	-30.5	13.3	2.36e-05	0	42	0	1841299456	16	4691
2026-01-13 01:33:47.51	235.36	10.48	-28.3	-30.7	13.1	3.07e-03	0	42	0	1844445184	16	4764
2026-01-13 01:33:48.37	235.30	10.41	-28.3	-30.8	13.1	3.43e-05	0	42	0	1847590912	16	4796
2026-01-13 01:33:49.52	235.23	10.31	-28.2	-30.5	13.2	3.50e-05	0	42	0	1850736640	16	4710
2026-01-13 01:33:50.39	235.17	10.24	-28.2	-30.6	13.1	2.89e-05	0	42	0	1853882368	16	4749
2026-01-13 01:33:51.54	235.10	10.14	-28.2	-30.5	13.2	3.57e-04	0	42	0	1857028096	16	4705
2026-01-13 01:33:52.41	235.04	10.07	-28.3	-30.8	13.1	1.89e-04	0	42	0	1860173824	16	4799
2026-01-13 01:33:53.56	234.97	9.98	-28.3	-30.7	13.1	4.08e-03	0	42	0	1863319552	16	4763
2026-01-13 01:33:54.42	234.91	9.91	-28.2	-30.6	13.1	2.49e-04	0	42	0	1866465280	16	4750
2026-01-13 01:33:55.57	234.84	9.82	-28.2	-30.6	13.1	2.59e-05	0	42	0	1869611008	16	4732
2026-01-13 01:33:56.44	234.78	9.75	-28.3	-30.8	13.0	3.66e-03	0	42	0	1872756736	16	4792
2026-01-13 01:33:57.59	234.71	9.65	-28.3	-30.9	12.9	6.00e-04	0	42	0	1875902464	16	4828
2026-01-13 01:33:58.45	234.66	9.58	-28.3	-30.9	13.0	2.08e-04	0	42	0	1879048192	16	4824
2026-01-13 01:33:59.60	234.59	9.49	-28.4	-31.0	12.8	4.19e-03	0	42	0	1882193920	16	4877
2026-01-13 01:34:00.46	234.53	9.42	-28.5	-31.2	12.7	5.41e-05	0	42	0	1885339648	16	4949
2026-01-13 01:34:01.61	234.46	9.33	-28.4	-31.1	12.7	4.09e-03	0	42	0	1888485376	16	4920
2026-01-13 01:34:02.47	234.41	9.26	-28.3	-30.9	12.9	4.09e-03	0	42	0	1891631104	16	4843
2026-01-13 01:34:03.63	234.34	9.17	-28.4	-31.0	12.8	5.89e-04	0	42	0	1894776832	16	4862
2026-01-13 01:34:04.49	234.29	9.10	-28.4	-31.1	12.8	4.24e-03	0	42	0	1897922560	16	4893
2026-01-13 01:34:05.64	234.22	9.01	-28.4	-31.1	12.7	6.94e-05	0	42	0	1901068288	16	4892
2026-01-13 01:34:06.50	234.17	8.95	-28.5	-30.9	12.6	4.94e-04	0	42	0	1904214016	17	4729
2026-01-13 01:34:07.64	234.10	8.86	-28.7	-31.4	12.2	1.85e-04	0	42	0	1907359744	17	4892
2026-01-13 01:34:08.50	234.05	8.79	-28.7	-31.4	12.2	4.31e-03	0	42	0	1910505472	17	4894
2026-01-13 01:34:09.66	233.98	8.70	-28.6	-31.2	12.3	5.82e-04	0	42	0	1913651200	17	4833
2026-01-13 01:34:10.52	233.93	8.63	-28.6	-31.1	12.4	4.19e-03	0	42	0	1916796928	17	4799
2026-01-13 01:34:11.67	233.86	8.54	-28.7	-31.4	12.2	2.06e-04	0	42	0	1919942656	17	4894
2026-01-13 01:34:12.53	233.81	8.48	-28.8	-31.6	12.0	7.34e-04	0	42	0	1923088384	17	4971
2026-01-13 01:34:13.68	233.75	8.39	-28.9	-31.9	11.9	4.18e-03	0	42	0	1926234112	17	5071
2026-01-13 01:34:14.54	233.70	8.32	-28.9	-31.9	11.8	3.93e-03	0	42	0	1929379840	17	5074
2026-01-13 01:34:15.70	233.63	8.23	-28.9	-31.9	11.8	4.16e-04	0	42	0	1932525568	17	5074
2026-01-13 01:34:16.56	233.59	8.17	-28.9	-31.9	11.8	4.41e-04	0	42	0	1935671296	17	5075
2026-01-13 01:34:17.71	233.52	8.08	-29.1	-31.8	11.6	6.37e-04	0	42	0	1938817024	18	4947
2026-01-13 01:34:18.57	233.47	8.01	-29.1	-31.8	11.5	1.26e-03	0	42	0	1941962752	18	4957
2026-01-13 01:34:19.71	233.41	7.93	-29.0	-31.8	11.6	7.65e-04	0	42	0	1945108480	18	4942
2026-01-13 01:34:20.58	233.36	7.86	-29.0	-31.6	11.6	7.61e-04	0	42	0	1948254208	18	4888
2026-01-13 01:34:21.73	233.30	7.77	-28.9	-31.4	11.8	5.68e-04	0	42	0	1951399936	18	4803
2026-01-13 01:34:22.59	233.25	7.71	-28.9	-32.0	11.7	5.32e-04	0	42	0	1954545664	17	5117
2026-01-13 01:34:23.74	233.19	7.62	-28.9	-32.1	11.7	5.58e-04	0	42	0	1957691392	17	5151
2026-01-13 01:34:24.60	233.14	7.56	-29.0	-32.2	11.6	5.91e-04	0	42	0	1960837120	17	5195
2026-01-13 01:34:25.75	233.08	7.47	-29.2	-32.2	11.2	1.22e-03	0	42	0	1963982848	18	5088
2026-01-13 01:34:26.62	233.03	7.41	-29.0	-31.9	11.4	1.00e-03	0	42	0	1967128576	18	4976
2026-01-13 01:34:27.77	232.97	7.32	-29.0	-31.8	11.5	7.73e-04	0	42	0	1970274304	18	4961
2026-01-13 01:34:28.63	232.93	7.26	-29.1	-31.9	11.4	4.81e-03	0	42	0	1973420032	18	4992
2026-01-13 01:34:29.78	232.87	7.17	-29.1	-31.9	11.4	9.39e-04	0	42	0	1976565760	18	5003
2026-01-13 01:34:30.65	232.82	7.11	-28.9	-31.6	11.6	8.13e-04	0	42	0	1979711488	18	4866
2026-01-13 01:34:31.80	232.76	7.02	-32.7	-44.5	3.8	1.49e+00	0	42	104	1981808640	25	13996
2026-01-13 01:34:32.67	232.72	6.96	-32.9	-45.2	3.8	1.49e+00	0	42	104	1981808640	25	14786
2026-01-13 01:34:33.82	232.66	6.88	-33.3	-45.5	3.8	1.49e+00	0	42	104	1981808640	26	14624

#Closed at: 2026-01-13 01:34:34
#Recorded file [1981 MB]: D:/data/31010_260113_042356.dat